ncols 200
nrows 82
xllcorner 280000
yllcorner 241000
cellsize 50
426.2 422.4 415.8 408.2 401.6 393.5 386.8 389.3 390.9 394.9 397 398.4 399.5 398.3 401.6 407.5 411.8 413.3 412.9 388.7 364.2 327.2 301.2 278 266.9 262.3 264.4 259.5 257.3 255.9 262.4 272.6 293.5 317.9 344.4 365.8 384.5 402 414.5 424.6 430.7 433.5 435.7 438.8 436.5 422.1 403.3 385.9 370.8 384 386.8 383 399 409.5 418.3 424.3 430.5 436.6 443.6 449.7 454.6 459.6 464.5 468.9 473.3 476.2 477.8 480 482.5 485.5 487.3 489.2 493.8 492.5 484.2 470.3 457 440.3 403 382.3 376.6 385.5 384.3 382.9 383 390.5 409.5 430.6 447 449.2 446.3 441.9 435.5 428.7 420.7 413.9 405.3 393.1 381.1 370.6 362.3 348.7 338.3 328.7 318.5 307.9 297.1 286.2 273.6 263.5 255.6 248.6 242.5 241.9 240.8 240.4 240.4 237.8 234 232.6 234.2 232.7 231.3 229.5 228.8 231.1 236 235.1 230.9 228.2 225.7 223.9 222.4 220.2 217.1 216.5 215.6 214 212.9 212.1 211.4 210 208.5 207.5 206.8 205.9 205.4 204.4 204.7 204.4 204.2 204 203.3 202.8 202.2 201.5 201.2 200.7 200.3 200.1 200.2 199.5 198.3 200.7 201.6 202.1 203.1 204.5 205.9 210.6 212.6 214 216.1 218.6 219.4 221.8 225.2 226.2 226.9 227.6 231.9 236 238 242 245.4 248.7 252.8 256.5 258.7 259.1 258.3 255.4 247.7 240.6 236.6 233.4 228.6 223.6 219.4 216.7
434.1 429 424.8 418.6 404.5 395.1 386.6 381.2 382.7 384.5 387 388.7 390.2 395.3 403 410.4 412 414.8 416.7 393.7 376.7 349.9 321.1 297.6 282.7 270.5 262 257.6 255.7 254 259.1 275.8 298.5 326.4 351.6 370.4 389.8 406.2 418.4 427.2 430.7 432.5 434.7 436.9 426.8 408.3 389.1 373.9 367.6 369.3 380.2 394 403.3 412.1 420.2 426.3 432.5 438.1 444.3 450.7 456 460.5 464.5 468.7 472.2 474.5 476.5 478.7 481.4 485.3 489.6 493.6 496 494.2 483.5 470.5 461 448.7 416.3 384.6 365.7 375.6 376.4 375.5 374.7 380 397.5 411.2 425.1 432.8 436.7 435.5 426.8 418.4 408.3 395.9 387.8 376.8 364.2 354.2 346.3 337.7 329.1 323.1 314.7 305.3 295.5 283.8 270.6 260.5 252.9 247.7 241 238.7 238.6 238.1 237 233 231.5 231.1 231.6 230.3 228.8 228.2 229.1 234.1 235.8 233 229.3 228 226.4 223.3 221.1 218.3 216.5 215.6 214.9 213.7 212.7 211.9 210.2 209.3 207 206.4 205.2 205.9 206.1 205.7 205.6 205.3 204.8 204.4 203.8 203.3 202.8 202.4 201.8 201.5 201.5 201.4 201.2 199.8 201.3 203.3 204.3 204.1 204.8 206 208.7 212.5 215 216.6 219 221.8 223.9 224.6 228.6 230.1 231.5 235.8 242 244.4 246.8 247.9 250.1 254.4 258 260.7 260.9 259.7 257.4 250.5 244.6 243 239.5 235.7 230.9 226.1 224.2 225.5
435.5 430.3 428.1 423.7 417.4 407.8 391.8 377.5 375.7 376 377.9 380.5 384.7 394.6 403.8 409.7 411.1 419.4 409.1 390.1 377.9 366.8 342.2 318.3 303.1 288.2 272 254.2 253.3 251.1 264.1 281.2 303.3 331.2 355.1 375.4 395.4 410.9 422.8 428.4 428.1 426.2 429.4 427.6 411.9 392.7 377.4 362.1 354.7 369.2 385.9 396.7 406.1 415.5 423 428.7 434.5 440.3 446.1 451.8 456.8 461.7 465.6 469.6 472.8 474.8 476.8 478.8 482.5 488.6 494.5 497.2 496.4 487.3 479.7 469.9 462 456.5 430 390.4 370.8 360.4 368.7 369.3 369.3 376.3 385.7 394.1 406.2 421.8 429.7 426.4 414.3 402.4 391.4 382 372.9 361.8 351.6 340.9 332.2 325 320.9 317.3 307.9 299.4 289.8 280.3 266.8 255.5 249.6 246.8 241.1 237.7 236.8 235.7 233.7 231.6 229.9 229.8 229.5 228.9 227.3 226.9 230.2 236.4 235.2 231.5 227.9 226.6 224.8 223.6 221.6 218.3 216.5 214.8 213.8 213.1 211.8 210.3 209.4 209.2 208.1 207.7 208 207.7 207.2 206.8 206.5 206.8 206.1 205 204.4 204 203.6 203.3 203.4 204 202.9 202.6 201.1 200.9 205.1 206.3 207.4 207.7 207.1 208.4 212.4 215.1 217.3 219.4 222 225 227.7 229.3 231.2 233.6 237.1 244.5 250.1 253.6 255.6 255.7 254.1 257.7 261.5 263.3 262.3 260.9 256.1 251.6 250.3 247.4 244 239.9 234.2 229.4 231.2 232.6
433.8 430.5 428.5 423.4 419.8 414.9 403.7 385.2 372.3 368.4 371 375.2 385.3 395.5 404 403.3 416.7 412.2 401.7 382.7 373.7 360.3 344.2 323.8 306.8 289 266.2 250.4 250.5 253.9 272.6 290.4 310.4 333.4 356.4 381.7 400.7 416 425.9 424.9 421.3 415.7 415.6 408.3 392.2 378 368 350.9 362.5 375.2 388 399 409.7 418.8 425.5 431.1 437 443 448.8 454.3 459.1 463.8 466.9 470.4 473.2 475.1 477.3 480.4 485.9 491.8 494.3 495 488.1 483.6 475.8 467.4 463.1 459.7 441 394.1 370.8 356.1 359.2 362.8 364.9 368.9 374.3 380.5 389.4 404.6 412 405.4 396.3 386.9 377.1 367 353.5 348.1 339.9 327.6 319 317 315.2 306.9 298.7 291.1 282.6 273.7 259.3 250.1 245.1 242.4 237.9 235.4 235.2 233.7 231.7 230.3 229.7 230 227.2 226.6 226 224.9 229.2 234.3 233.8 230.5 226.9 225.4 223.8 222.2 220.6 218.3 216.3 215 214 212.1 211 209.7 210.1 209.6 209.3 209 209.1 208.8 208.3 207.9 208.1 207.9 207.3 206.7 206 205.5 205.2 207.1 208.8 209 206.5 204.7 200.4 206.4 208.4 211.1 212.9 213.4 211.3 211.7 216.3 218.3 220.1 222.4 226.7 230.2 232.9 234 234.5 237 243.5 251 256.2 260.1 262.2 261.4 258.9 260.9 263.7 264.4 262.6 259.6 256.6 254 250.9 247.5 243.4 237.9 233.2 231.8 234.6 235
430.2 428.5 425.1 421.8 419.3 415.7 407.6 392.5 374.3 363.5 364.1 374.3 387.3 397 398.9 410.5 408.7 402.5 387.2 372.9 359.4 345.2 328 313.8 297.3 274.6 253.6 249.1 251.6 265.1 279.6 298.5 320.3 333.1 352.8 380.4 405 420.5 425.4 420.9 412.5 402.5 396.2 386.2 375.7 368 358.7 344.1 366.2 377.8 390.8 403 413.9 422 428 433.6 439.5 445.5 451.4 456.9 461.8 465.3 468.3 471.3 474.1 476.7 479.9 484.3 489.1 490.6 491 488.3 485 479 471 465.7 464 456 441.6 404.8 370.7 353 348.2 356 358.2 361.2 362.9 365.8 374 386.3 396.1 390.5 383.5 375 363.4 351.8 342.9 335.7 328.3 318.3 310.3 306.8 303 295.7 289.3 282.2 275 263.9 251.9 245.7 240.5 238.2 235.4 233.7 233.3 231.3 234.1 228.9 227.2 225.6 225.2 224.7 224.1 223.1 224.8 230.2 229.4 228.5 226.3 224.6 223.1 223.1 221.2 220 218.1 215.4 213.5 211.9 211.7 211.8 211.3 210.9 210.4 210.2 211.4 210.6 210 209.7 210.7 210.6 209.3 208.5 207.8 208.4 210.5 213.5 214.9 214.3 210.9 208 202 211 215.4 218.7 219.2 218.7 217.5 218.1 218.4 221.3 222.9 226.3 231.4 234.2 237.2 238.6 238.3 241.1 248.7 255.5 260.4 264.3 265 264.5 264.6 264.5 264.1 262.8 260.5 257.2 254.9 251.7 248.7 244.8 239.6 233.8 232.3 234.3 236 232.1
425.3 423.3 420.4 418.5 417 413.5 408 398.6 377.2 361.1 358.6 370.5 383.8 394.3 401.4 399.9 394.7 390.6 376.1 359.4 341.2 323.1 310.9 297.3 276.5 257.3 246.3 246.2 258.8 268.7 284.4 305.8 325.8 342.7 366 390.3 410.6 422.6 421.9 410.7 397.2 384.4 375.5 368.4 365.4 360.6 346.1 342.9 365.5 380.3 395.3 408.2 417.5 424.6 430.3 436.1 441.9 448 454.1 459.6 463.5 466.6 469.4 472.4 475.6 479.1 482.3 487 489.5 490.1 489.7 487.8 482.7 474 467.8 462.8 456.7 447.8 436.4 417.3 382.8 357.6 338.9 346.9 352.1 352.5 350.3 351.4 358.9 367.9 375.8 377.5 368.4 357.3 348.3 342.6 333.4 324.1 319.1 313.2 304.2 293.3 290.4 286.2 281 274.3 266.1 257.3 250.1 242.9 237.1 235.5 233.6 232.8 234 229.2 227.9 226.5 225.3 223.5 223.3 222.5 222 220.4 220.8 222.2 220.9 220.7 221.4 221.5 221.9 223.8 223.5 222.4 218.1 212.8 212.7 213.1 213.7 213.9 213.7 211.9 211.3 213 213.2 212.2 211.6 213.8 216.1 216.1 213.3 211.4 211.3 213.7 216.2 218.7 219.9 217.6 213.7 211 203.6 216.9 221.4 224 223.9 223.8 222.6 222.5 223 223.9 226.2 229.7 234.5 237.9 240.7 242.5 241.7 244.8 252.3 258.5 263.4 266.2 266.1 265.8 265.3 263.6 261.3 259.7 256.7 253.5 250.4 246.9 243.6 239.4 234.5 232.1 233.3 235.1 233.4 227
418.9 417.1 416.7 416.3 414.6 410.4 406.4 398.8 381.8 366.4 352 358.7 374.2 390 388.6 384.3 390.7 378.7 363 343.3 321.8 302.2 291.9 275.2 259.7 244.9 244.4 253.7 262.8 275.9 294.9 314.8 336.8 357.7 380.2 401.6 416.5 421.1 409.4 395.6 382 368.6 360.6 360.7 359.2 350.2 342.1 349.3 368.3 385 400.4 412.6 422 427.6 433 438.5 444.4 450.5 456.8 461.4 464.4 467.2 470.4 474.3 477.3 480.2 483.2 486.6 489.2 489.5 488.3 485.1 475.6 469.2 463.8 456.6 449.1 440.1 430.5 416.8 394.9 369.9 345.8 335.5 339.8 342 339.4 338.5 342.2 346 353.9 357.2 353.2 346.7 340.2 333.5 326 316.6 310.4 303 292.9 286 282 277.7 273.6 265.5 257.4 251.8 245.8 238.7 235.4 236.6 233.6 230.6 229.7 227.6 225.5 224 223.9 225.3 228.3 227.5 227.6 224.5 220.1 219.7 219.1 218.3 217.5 216.6 215.5 218.2 218.2 217.9 214.9 212.9 213.7 215.2 216.3 217 214.9 212.6 212.6 213.6 213.5 213.5 215.1 219.2 222.8 223.3 219 215.5 216.9 220.2 222.3 224.1 223 219.3 215.8 205.7 208 220.8 225.5 227.9 229.1 228.8 227.5 226.5 226 226.1 229.3 233.3 237 240 242.2 244.4 244.7 247.2 254 260.7 265.3 266.2 264.9 263.4 262.2 260.2 257.3 255.1 252.1 248.7 244.9 241.4 238.2 233.8 232.2 232.3 233.6 232.7 230 221.2
409.6 410.7 413.4 413.7 411.3 407.7 403.3 396.4 384.7 375.7 357.6 344.6 363.4 375.9 370.5 380.7 376.2 363.4 348 326 302.6 285 269.6 256.4 245.3 241.7 247.8 258.7 270.7 287.7 307.2 328.7 350.2 370.6 390.5 408 417.6 413 396.1 381.7 368.3 355.4 351.3 352.6 347.2 334 339 358.1 373.4 390.9 404.9 416.2 424.7 428.9 434.2 440.6 447.2 453.8 459.1 463 465.2 467.5 471.1 474.7 477.1 479.8 483.3 486.6 488.3 486.7 483.2 478.7 469.4 464.4 456.6 448.2 440.2 431.1 419.3 404.7 387.6 370.2 351 330.7 332.7 334.2 331.9 331.1 329.7 330.1 336.8 344.4 346.4 341.4 334.5 326.8 320 310 300 291 284.6 280.3 275.7 266.7 261 256.2 250.6 245.5 238.5 235.3 235.2 232.6 232.2 229.8 229.2 228.2 228.6 227.1 229.9 233.2 235.7 236.7 236.9 232.5 227.6 224 222.4 217.2 216.8 217.8 214.9 216 215.9 214.9 213.5 214.5 219.1 219.3 218.9 217.9 215.6 213.5 213.5 214.2 214.7 216.2 220.8 225.2 228.1 227.7 223.2 220 222.3 225.9 228.3 227.8 224.9 219.2 205 206.3 215.5 224.3 227.7 230.6 232.7 232.3 230.5 229.2 229.4 229.1 231.3 234.9 238.4 241 243.4 245.9 247.6 249.7 255.4 261.7 265.1 264.5 262.8 261.1 258.7 255.9 253.1 250.2 246.5 243.1 239.4 236.2 232.9 230.7 229.9 231.2 230.8 229.2 228.3 217.9
402.3 407.8 410.9 411.5 408.3 404.8 400.1 393.6 385.1 379.1 364.8 335.6 348.7 351.3 363 363.7 359.4 349 333.8 311.3 284.8 263.7 250.6 243.6 241.6 240.3 251.4 265.3 283.9 302.8 322.3 343 362.5 379.6 397.6 412.2 415.7 401.2 382.5 368 354.7 344.9 343 343 332.2 325.3 346.5 362.2 378.5 396.1 408.5 417.2 423.4 428.7 434.8 441.9 449.2 454.7 458.9 462.1 464.3 467.4 470.8 473.7 475.5 478.9 482.4 484.9 484.5 480.8 477.6 470 461.4 452.7 441.5 434.9 427.9 416.5 404 391.6 378.5 363.6 346.9 328.8 326.1 326.9 325.3 323 321.7 320.7 325.3 332.5 338.4 334.2 328.8 323.7 316.3 305.9 294 285.2 280.7 275.7 269.4 258.6 248.7 245 241.5 237.8 239.8 234.5 233.9 232.4 231.6 230.9 230.4 230.9 231.6 230 235.9 238.2 243.3 244.6 246.5 244.3 238 233.6 230.2 224.2 221.3 220.3 219.2 220.3 220.6 220.6 220.5 219.4 222 220.9 219.5 218.1 216.1 214.4 214.4 215.1 216.5 219.9 225 228.8 231.8 229.8 225.7 224.2 227.3 230.5 230 228.1 223.5 206.3 207 215.3 224 227.1 229.3 232 233.6 233.5 232.2 231.2 231.6 232 233.7 235.9 238.7 241.2 243.9 247.8 251.3 254.2 256.9 261.9 263.3 262.6 261.3 257.8 255.4 252.7 249.6 245.5 241.6 240.1 237.6 234.9 232.3 229.8 227.8 228.1 228.5 227 225.7 214.2
400.3 406.2 409.6 409.7 406.2 402.5 396.6 391.3 384 379.5 366.7 333.2 331.4 337.2 344 340.9 336.4 329.8 315.8 296.3 273.9 249.7 242.1 239.3 239.1 241.7 258.4 276.4 296.9 318.1 337.6 355.9 372.7 387.6 403.4 414.3 409.6 390.8 369.8 354.5 342.6 337 335.1 330.7 316.6 335.6 351.8 366.6 385.4 401.9 411.2 415.9 422.8 429.6 436.4 443.5 449.5 454.3 457.3 460.3 463.6 467.2 469.7 471.7 473.8 477.9 480.2 480.4 479.8 476.2 468.4 456.4 447.4 435.1 423.3 415.2 409.5 399.2 391.6 382.1 369.9 356 341.9 329.7 315.9 310.1 311.6 314 313 312.2 313.9 319.7 327.2 327.3 324.4 321 314.5 304.9 291.1 281.1 276.9 269.4 265.6 253.2 244.2 241.3 238 236.6 236 235.5 234.6 234.4 234.7 234.6 234.9 235.7 235 232 241 245 253.8 256.7 258.4 256.4 249 241.1 235.2 230.5 225.3 223.7 223.3 224.6 225.4 225.6 224.6 222 222.8 221.9 220.5 218.3 216 214.8 215.7 217.7 220.7 224.5 228.4 232.2 234.1 231.4 227.7 229 231.7 231.1 229.1 226.6 215.6 206.9 212.6 223.1 227.4 229.8 230.6 232.1 232.7 232.5 232 232.6 233.9 234.3 235.9 238.3 239.7 242 245.7 251.1 256.7 260.5 260.7 262.6 262.9 261.8 259.8 257.4 253.9 250.3 247.1 244.3 242.1 239.9 237.4 234.8 232.3 230 227.1 222.6 223.5 225.1 218.8 209.7
398.5 404.9 409 408.2 404.9 399.2 393.6 390.4 382.7 379.5 364.7 336.6 314.3 317.2 320.9 317.3 314.7 311.5 296.4 283.4 258.2 240.3 237.4 237 237.3 251.1 268.8 287.8 308.6 329.6 349.6 366.3 380.8 394.6 407.7 410.7 396.4 378.4 358.2 342.6 332.8 329.6 325.2 319.9 326.6 344.1 358.1 373.7 391.9 404.4 410.1 414.4 421.6 429.8 436.5 442.6 447.9 451.7 455.6 459.7 463.5 466.2 467.9 470.7 473.4 477.2 477.8 477.5 475.9 472.2 459.8 447.7 429.5 414 403.3 394.8 392.2 388.5 382.6 375.7 366.5 355.7 343.5 332.1 324 317.1 307.7 298.9 301 301.8 303.1 307.3 315.1 321.2 320.8 317.8 312 302.5 288.2 277.7 268 259.1 252.8 244.3 240.7 239.4 239 239.6 238.7 237.7 238.3 243.5 247.6 247 244.9 244.4 240.3 232.1 244.8 251.7 258.6 261.5 265.6 261.5 256.3 245.7 241.1 235.5 230.1 227.8 227.9 228.5 229.4 229.1 226.4 225 224.6 222.5 220.2 218.3 217.4 217.2 218.6 222.9 226.5 229.5 232.7 234.5 234.1 232.5 232.9 233.7 233.8 230.1 227.1 223.8 211.4 208.8 220 224.8 229.2 231.4 230.5 230.6 230.3 230.4 231.1 233.2 234.7 236.6 238.2 240.6 242.8 244.8 248.6 254.4 261 262.8 263.3 264.1 263.8 262.6 260.4 257.8 253.8 250.8 248.5 246.8 244.2 240.9 237.5 234.8 232.4 230.1 227.2 222 218 217.1 212.8 201.8
397.9 404.2 408.5 407.6 402 394.1 392.1 389.3 377.3 368.4 349.8 328.7 303.9 295.2 298.5 295.6 297.2 294 286.1 268.4 243.6 235.1 234.2 235.4 246.2 263.1 281 300 319.5 340.2 359.3 376.2 389.2 399.9 409 403.2 384.3 365.4 345.8 330.2 321.7 312.6 307 321.5 338.3 352 365.4 381.9 396.9 404.2 410.2 413.6 423.7 429.7 434.5 439.1 444 450 455.5 459.6 462.5 464.6 467.4 470 472.7 474.2 476.1 474.5 471.9 466.8 455.3 438.7 416.8 394.9 384.7 379 378.9 377.9 374.9 372.8 368.9 360.3 346.4 335.3 329.5 324.4 315.7 306.6 296.5 290.3 291.2 296.5 303.6 311.4 315.2 312.7 305.9 293.7 281.3 269.8 258.7 249.2 244.1 242 242.1 243.2 246.2 245.5 243.8 246.9 255.2 262.1 265.2 263.5 258.7 252.4 243.5 235.5 246.5 254.1 260.3 266.4 269.6 264.6 258.4 254.5 245.6 238.7 235.3 232.1 232.9 232.8 232.8 230.1 228.3 227.1 225.3 222.9 220.4 219.9 220.7 222.5 222.3 226.5 230.9 233.3 233.6 233.9 233.9 234.2 235 235.5 232.6 228.3 225.3 223.6 213.6 210 219.9 224.8 229.3 229.1 228 228.1 227.8 228.6 230.6 232.9 236.1 238.9 240.4 241.8 244 246.6 250.5 257.2 262.3 264.4 265.4 265.7 265.2 263 261.1 257.6 254.3 251.9 248.7 246.2 243.3 239.6 237.1 234.7 232.6 229.8 227.8 225.3 218.5 214 209.8 201.6
398.3 404.5 408 405 397.4 390.7 389.9 376.3 364.3 346.9 330.4 309.4 292.6 274.3 274.8 274.1 285.7 281.9 274.8 251.7 235.6 230.9 233.2 241.9 256.3 274.1 292.7 312 331.6 351.3 370 386.5 397.4 404.9 407.2 392 372.7 351.8 332.7 319.5 307.9 295.7 314.3 331.5 344.1 358.3 371.7 386.2 397.3 403.5 410.2 416.5 423 426.5 431.2 437 444.6 450.5 456 459.2 461.4 463.6 466.3 468.7 470.7 472.9 473.3 470.5 468.3 459.2 448.1 430.2 406.4 385.6 372.3 365.8 364.1 364.1 365.3 367.2 365.2 359.2 347.8 339.6 333 326.8 320.3 312.5 303.9 295.2 286.8 289.1 294.9 300.6 305.4 303.3 292.7 282.6 272.7 258.9 250.1 246.2 244 243.4 242.9 254 255.7 255.8 256.9 266.1 273.5 278.3 279.3 273.8 264.1 252 243.8 238.9 250.2 256 262.4 268.7 271.2 268.1 263.8 260.1 249.9 243.1 238.7 235.9 236.5 235.7 234.2 232.4 230.3 229 227.5 223.3 222.2 223.7 227.1 224.2 224.3 229.7 233.3 233.3 232.3 233.2 234.3 235.3 235.5 234.3 230.2 225.7 222.9 221.2 209.1 210.9 219.4 224.1 225 225 225 225.2 226 227.2 229.4 232.7 237.1 240.2 241.3 242.4 244.9 247.7 253.4 260.7 263.9 266.7 267.8 268.2 266.7 263.9 260.8 258 254.2 248.7 245 242.8 240.1 237.3 235.5 233.6 231.4 229.4 229.2 225 220.1 215.3 207.3 198.6
398.4 404.8 405 399.5 391.7 387.6 380 364.1 343.4 324.9 308.5 292.4 284 269.2 256.7 266.1 277.1 270 258.3 239 229.3 231.2 237.6 248.5 265.5 284.7 304.3 323.9 343.5 363.1 380.9 395.1 403.7 409 400.2 380 360.9 337.1 320 310.6 295.3 299.2 322.5 330.3 342 359.2 374 386.7 396.1 403.4 410.2 415.3 420 428 433.6 440.1 446.4 451.5 455.3 458.2 460.6 462.8 465 467 468.7 470.3 468.5 468.3 459.7 451.4 440 423 401.6 384.3 367.9 356.6 352.1 352.4 356.4 359.3 359.8 356 349.3 342.2 335.3 329.1 323.1 316.8 309.4 300.2 292 283.5 287.1 289.5 288.9 286.1 279.8 273 260.8 250.6 248.3 246 244 244.5 250.7 267.1 266.7 270.5 274.7 283.3 288.2 290.9 287.7 275.2 259.7 249.3 240.6 242.7 252.4 259.4 265.7 269.7 272 272.1 268.1 263.6 256.4 250.9 244.3 240.2 238.5 237.5 236.2 234.2 231.5 230.2 227 225.1 225.8 230 231.7 226.8 225.5 229.7 231.6 230.9 231.9 234.4 235.5 235.3 233.7 231 226.4 221.6 218.8 213.7 209.8 213.4 218.5 221.1 222.5 222.5 222.6 222.8 224 226.2 228.7 232.6 236.8 238.5 239.8 241.4 244.6 249.2 256.9 262.4 266.1 268.4 270 269.8 267.2 263.8 259.3 254.5 249.7 245.3 242.7 240.4 238.3 236.2 234.3 232.1 229.8 228.5 225.7 222.3 218.3 214 203.6 200.4
398.5 401.7 397.8 391.3 385.2 381.5 367.5 347.4 323.3 304.3 289.8 282.3 275.7 259.6 248.7 260.1 264.9 253 241.9 226.5 230.1 233.9 243.6 259.4 277.6 297.1 316.3 335.7 355.4 374 390.1 400.2 407.2 403.4 387.8 367.7 346.4 324.3 308.4 294.7 287.6 296.6 315.1 321.6 333.1 341.9 360 368.1 376 388.5 400.9 413 422.3 429.3 436.2 442.7 448.2 451.9 454.6 457.5 460.1 461.9 463.9 465.2 466.1 466.7 466.2 460.6 451.8 443.5 432.3 421.6 404.5 385.6 363.2 350.2 343.3 344 347.3 350.4 354.2 352.7 348 342.9 336.6 330.9 325.1 319.4 312.2 303.7 295.8 285.7 279.9 280.3 277.3 276.8 269.7 259.8 253.7 251 248.1 245.9 246.1 247.8 259.2 273.9 277.9 284.5 292 297.8 300.4 297.9 287.4 268.1 251.6 244.4 243.3 249.7 255.1 260.4 266.3 270.5 273.4 276 274.4 269 264.7 257.6 250.9 245.5 240.4 239.5 237.6 234.8 232.8 230.4 228.5 229.9 232.1 234.9 234.3 229.6 225.6 228 229.6 230.8 232.9 235.1 235.4 233.3 229.6 226.2 222 217.8 214.3 210.7 211.6 214.4 217.3 219.4 220.8 221.1 220.9 221.3 223.1 225.2 228.1 231.7 234.5 236.3 237.8 241.1 245.9 252.5 259.6 264.7 268.1 269.7 270.3 268.5 265.5 261.5 258 252.7 247.5 243.9 241.2 239.3 237.3 235.3 233.3 230.8 227.7 225 222.4 219.3 214.8 207.9 200.8 202
396.3 394.9 389.5 383.9 378.1 371.1 359.3 329.8 307.4 287.6 278.5 273.3 262.1 248.1 244.5 254.1 250.7 237.7 226.4 227.4 231.1 238.5 254 271.7 290 309.3 328.4 347.6 366.6 384 397.5 404.5 402.6 390.6 372.8 354.7 331.7 312.2 295.5 281.2 303.1 317.4 323.9 331.3 347.6 363.1 373 380.5 391.2 402.2 411.5 419.6 425.8 431.1 439.4 444.9 448.9 451.2 455.4 458.9 460.7 462.2 462.5 462.6 463.2 462.6 457.7 452 444 437.5 430.4 418.5 399.8 378.9 358.7 345.2 337.8 335.7 339.1 343.6 348.3 348.2 344.8 341 337.6 332.8 327.5 322.2 315.8 308.6 303.7 292.8 279.9 270.6 267.6 264.7 259.8 256.4 253.8 251.3 248.3 249 253 263.1 273 284.7 293.3 301 307.6 309.3 306.5 297.4 278.9 258.1 247.3 244 247.5 251.2 255 259.7 265.2 269.5 273.4 277 278 274.5 271.2 264.1 256 250.5 244.2 241.4 239.3 236.8 234.1 233.2 235.5 235.8 235.5 237.4 235.9 230 227.4 231.2 231.9 231.5 233.2 234 233 230.6 226.1 222.6 219 215.9 213.2 211.8 212.7 214.6 216.8 218.8 219.8 220.5 220.4 221.3 223.9 225.8 228.1 231 232.5 235.1 238.1 242.8 251.1 258.9 262.4 266.6 268.8 269.4 268 265.3 262.2 257.1 253.7 249.6 245.6 242.7 240.3 238.2 236.2 234.1 232 229.8 227.5 224 220.3 217.2 210.6 200 202.1 204.5
390.5 386.1 381.2 375.9 371 368.2 346 316.9 294.2 277.9 272.4 264 249.6 240 242.4 249.1 239.4 228.7 224 228.1 233.8 248.9 265.9 283.7 302.1 321.2 340.4 359.2 376.4 392.2 403.5 404.3 392.6 376.3 358.7 338.6 315.6 299.9 281.1 286.4 308.5 315.7 322.9 335.2 351.4 365.8 382.9 396.1 402.7 408.1 413.6 420.5 430.8 436.4 439.6 446 449.1 451.7 455.8 460.5 463.1 462.3 460.7 460.1 458.8 455.2 452.3 446 438.7 433 425.5 411.9 393.7 372.9 356 342.8 335.8 329.4 330.4 333.8 337.3 338.2 336.9 336.2 335.3 332.7 330 322.9 316.8 307.5 302.5 293.4 283.8 272.5 263 260.6 258.5 256.3 253.7 250.3 250.4 256.6 269.9 281.8 292.2 302 309.5 315.9 318.1 313.7 304.5 289.2 267.3 250.4 245.1 245.2 247.8 250.7 253.8 257.8 262 267.3 272 276.5 279.9 279 275.6 269.5 260.8 254.3 248.9 243.8 240 237 236.1 238.2 239.9 237.2 237.1 237.9 234.4 228.4 231.3 233.5 233.1 232.1 231.8 231.8 231.1 228 225.1 222.4 218.2 214.7 212.8 213.6 214.8 216.3 217.9 219 219.8 220.3 221.3 223.8 226.7 228.1 230 232 234.1 236.8 240.8 249.6 258.2 262.7 265.5 267.8 268.4 267.6 264.1 261.7 258.6 255.2 251.7 248 244.6 240.9 238.8 237 235.2 232.7 229.8 227.8 226.7 224.4 220.6 215.7 210.2 202.4 202.6 208.8
382.5 378.4 374 370.5 366.8 356.2 330.4 305.2 285.5 273.5 266.6 256.1 240 234.6 240.5 240.8 230 223.4 223.4 230.6 244.1 260.8 277.7 295.5 314.2 333 351.8 368.9 385.4 400.3 406.6 399.4 382 362.5 343.5 320.5 301.1 286.8 275.2 293.8 305.9 313.9 325 341.6 355.8 371.6 390.8 401.2 404.8 407.8 413.6 421.5 433.8 440.7 444.5 447.8 449.9 452.5 459.7 464.2 465.5 462.3 460.1 457.9 453.1 450.1 444.8 439.2 432 426.4 419.4 402.7 385.1 367.6 353.1 339.7 333.5 326.8 321.2 322.4 324.5 326.5 328.8 330.6 330.8 328.8 323.9 318.9 314.7 301.7 297.1 287.1 278.5 268.8 261.8 260.3 257.8 255.6 252.9 251.1 260.7 275.9 290.2 301.7 311.7 320.3 323.9 325.4 323.2 313.2 297 275.6 256.2 248.2 244.1 246.4 248.1 250.7 252.9 256.4 260.5 266 271.5 276.5 280.5 280.1 277.3 271.3 263.5 257.3 251 245.3 241.2 239.1 238.9 239.9 238.6 236.2 236.2 235 229.6 230.7 235 235.7 234.6 232.1 231.2 230.8 228.7 226.7 224.4 220.3 216 213.5 213.6 215.5 217.2 219.3 221 222.4 222.9 223.3 224.1 226.9 229.7 230.8 232 234.7 237.2 240.8 246.6 256.1 261.6 266.3 268.2 268.4 266.9 264.5 261.1 259 258.9 257.6 252.7 248 243.4 238.3 236.1 234.2 233.4 231.3 227.4 224.4 223.5 223.3 219 211 204.5 202.4 202.8 209.4
374.2 370.9 369.8 366.9 361.3 347.6 314.3 291.1 280.1 270.9 261.4 251.5 236 231.8 237 229 220 220.7 227.3 240.3 256.2 272.8 289.6 307.4 326 344.3 361.3 378.4 394.8 406.8 404 388.1 367.9 347.9 325.6 302.7 286.6 272.7 276 293.9 304.4 315.1 328.4 344.8 360.9 380 393.7 401.6 406.5 409.3 416.5 427.9 439.1 445.1 447.5 449.3 450.9 456.2 462.7 467.3 465.2 461.7 460.9 455.6 449.9 444.2 435.8 429.1 424.7 420.5 406.5 390.3 375.5 360.9 349.8 337.4 330.5 326 321.9 315.4 313.4 315.2 317.5 321 320.8 318.1 315.4 315.7 304.7 298.1 288.1 278.2 270.3 263.8 259.8 258.2 256.2 252.6 252.1 264.1 281.7 297.4 310.7 321.8 326.7 329.6 331.3 327.2 321.2 306.9 283.8 264.8 250.1 246.6 244.8 247.1 248.1 250 252.2 255.2 260 266.7 272.9 277.2 280.8 280 277.2 270.8 264 258.2 251.5 245.5 242.1 240 239.2 237.4 235.3 234.1 231.8 231.9 233.8 235.7 236.5 235.1 233.7 231 230.2 229.2 225.5 221 218.7 216.7 214.5 213.2 214.5 217.3 219.6 221.9 224 225.8 226.2 226.1 227.1 230.1 232.7 234.1 237 240.1 244.6 249 252.5 258.3 265.9 269.7 271.1 268.6 265.7 262.6 259 256.3 258.8 257.5 253.3 246.3 242.1 239 235.3 231.9 228.6 225.9 223.8 221.6 217.8 215.9 208.9 205 203.5 202.8 203.9 208.4
367.6 367.6 368.5 365.6 359.8 347.6 317.3 295.9 286.1 274.4 259.9 247.7 234.3 228.4 223.8 220.2 218.6 223.8 236.7 251.6 267.7 284.2 301.3 318.9 337.3 353.8 370.8 388 404 405.7 395.3 373.3 352.8 332 307.4 285.1 269.9 267.4 282.2 297.4 308.3 319.5 330.2 347.4 366.2 385.5 397.2 406.1 410.9 413.8 424.7 435.5 443 447.1 449 451.3 454.1 459 463.9 465.6 462.1 462.7 461.5 454.2 448.7 438.9 424.7 415.2 410.9 403.5 391.8 380.1 367.8 355 345.6 335.4 329.4 324.3 320.5 315.8 308.6 304.5 305 305.8 306.8 307.1 307.2 303.5 295.7 289.7 280.7 270.9 262.7 261.9 259.1 255.6 250.8 254.2 269.9 287.2 303.3 318.3 329.5 339.1 340 336.4 329.2 322.9 311.6 291.2 273 258.3 249.2 246.8 244.6 247.3 248.3 249.8 252.3 256.5 265 273.3 279.2 281.3 282.3 280 275.5 269.4 263.2 258 251.2 244.8 240.9 239 237 235.2 233 232.8 235.3 237.3 237 236.5 235.9 234.4 231.1 229.2 226.3 222.4 219.7 218.4 218.4 218.6 217 214.7 215.9 219.2 222.1 224.4 226.8 228.7 228.9 228.6 230 233.3 236.1 240.5 245.3 250.5 255.3 258.4 260.8 264.3 269.8 272.6 273.1 269.4 265.4 262 257.8 254.1 255.4 255 248.1 245.8 244.2 240.7 236 232.3 226.8 223.1 219.9 219.3 212 206.8 205.1 203.7 202.5 203.3 208.1 210.3
364.6 366 367.1 364.4 359.2 346.1 326 310.6 296.2 279.8 261.8 239.5 229.5 224 219.8 217.1 220.6 233.1 247.1 263.2 279.4 295.6 312.8 330.3 346.9 363.4 380.3 397.4 407.6 400.7 380.9 358.7 338.8 314.6 289.9 268.1 268.7 283.2 292.3 301.7 312.4 320.9 330.8 349.8 371.5 387.6 400.3 411.7 416.8 422.9 434.9 439.2 443.5 447.1 450.2 453.8 456.1 460 463.8 461.5 460.7 461.4 458.2 453.1 446.8 434.2 421.4 410.6 397.2 381.7 377 370.3 360.2 351.2 345.5 338.4 329.9 324.1 318.3 313.9 308.5 301.8 297.4 297.5 295.4 294.6 293 289.3 283.5 277.9 270.6 263.4 259.2 257.3 253.1 254.3 255.7 275.3 293.8 309.9 325.2 337.5 344.9 345.2 340.1 332 323.8 311.7 295.1 278 265.7 252.9 249.2 247.4 246.6 247.3 249.4 251.6 256.4 270 283.2 287 286.6 285.1 283.2 279.2 272.8 266.2 261.1 255.7 251.1 247.2 241.9 238.5 236.2 234 233.2 235.4 237.5 238.6 237.3 236.7 235.4 233.8 228.9 225.2 221.8 221.4 222.7 223.3 224 224.3 221.9 219.2 218.1 221.7 224.4 226.5 228.8 230.1 230.6 231.1 232.9 236.3 242 248.5 254.2 260 264.1 266.4 267.1 268.4 271.5 273 273.7 269.5 265.1 261.2 257.2 252.6 251.2 249.5 248.1 251 247.7 243.8 239.5 237.5 232.2 226.9 221.3 216.9 204.9 204.4 204 203.7 201.1 210.1 212.1 212.4
361.9 363.8 364.1 362.1 356 346.1 327.6 304.2 284 265.4 248.9 232.5 223.9 220.3 214.2 218.5 231.4 245.4 260.1 275.1 291 306.9 323.3 339.8 356.2 372.8 389.1 405 404.9 388.5 365.3 346 325.3 298.5 274 260 274.8 286.3 294.8 302.6 309.1 317.3 331.1 352.2 374 389.4 404.6 416.1 422 430.8 437.1 439.1 442.1 447.3 451.4 454 457.1 459.6 461.3 457.6 459 458 454.3 451.1 443.1 432.3 425.4 417.1 404.5 384.4 366.4 359.8 355.4 352.2 348.7 341 330.8 323.3 316.3 313.2 308.4 302.9 295.8 291.7 288 283.6 280.8 277.1 273.2 267.9 263.5 260.6 257.7 255 257.5 265.2 281.7 299.3 316.5 334.6 347.1 353.2 351.1 342.5 333.1 323.8 312.7 297.5 280.2 268.2 258.2 252.2 249.6 247.1 248.4 249.3 251.3 256.2 267.1 283 291 291.8 289.4 286.2 282.9 278.3 269.8 262 257.2 250.1 247.8 246.7 241.8 236.5 234.8 233.3 234.1 236.2 237.5 236.7 236.2 236.3 234.5 231.1 225.7 222.9 223.6 225 227.3 229.6 230.6 230.6 227.8 223.6 221 224.1 226.5 228 230.4 231.8 232.7 233.9 235.6 239.6 246.1 252.7 259 264.1 268 269.5 269.6 269.5 270.1 271 272.5 268.4 263.4 258.7 253.8 251.9 250.2 250.9 254.7 254.1 251.6 248.5 245.8 241.6 235.5 228.4 220.8 211.4 205.6 205.3 204.9 203.1 208.4 215.1 216 215.8
357.9 359.6 360.1 358 351.6 336.4 312.1 289 267.8 248.1 237.5 226.7 219.5 215.2 212.4 225.1 244.9 261.8 276.9 290.3 303.3 318.4 333.2 349.2 365.6 381.5 397.3 408.9 402.6 376.3 351.3 335.8 310.8 284.2 260.1 260.3 280.8 288.8 296.5 300.6 304.6 316.3 333.9 354.3 375.2 392 407.1 416.9 424.3 432.2 435.6 437.7 440.1 445.9 450.4 453.4 454.7 457.8 457.2 454.9 455.8 452.7 450.3 445.7 438.1 431.5 423.1 411.7 398.4 382.8 368.4 356.4 349.5 350.4 347.1 336.4 324.7 317.9 314.2 311.4 307.8 305 301.8 297.2 292.8 293.2 288.7 280.9 278 269.1 262.2 256 258.6 260.8 272.5 289.1 307.2 324.7 340.2 354.7 359.5 356.9 346.9 335.4 323.9 312.2 299.1 284 270.2 260.5 255.9 252 249.4 248.6 251 254.1 256.5 263.5 276.1 287.4 290.4 289.8 288.6 284.9 280.2 275.9 267.7 260.1 253.4 245.5 241.8 239.9 237.5 235.4 235.3 234.9 234.6 235.7 236.4 234.7 233.9 233.2 230.6 226.8 224.1 225.5 226.8 229.1 231.6 234.3 236.1 235.6 232 226 222.6 226 229 230.7 232.4 234.1 235.7 236.9 238.8 242.4 248.2 254.2 260.4 265 268.6 269.5 269.7 269.6 269.7 269.7 268.9 265.4 258.9 253.7 251.1 251.8 251.9 255.5 255.6 254.5 251.5 248.8 244.8 238 230.8 223.9 214.9 207.3 205.6 203.9 211.9 213.7 216.3 218.2 218.6 218.5
353.7 356.4 358.5 356.1 338 315.5 294.1 273.2 251.8 236 228.9 221.2 214.6 211.2 218 240.7 260.6 277.9 292.8 304.8 316.5 329.7 343.7 358.9 374.1 387.1 401.6 410.2 401.5 370.8 343.1 324.4 298.4 270.5 253.1 266.4 280.5 290.8 295.9 298.8 300.4 315.5 335.6 356.6 376.4 394 408 416.9 423.5 429.6 433 436 439.2 443.5 446.5 449.5 452.7 454.7 452 453.8 451.8 446.7 444.5 438.6 432.4 424.9 414.2 404.7 393.9 381.7 369.7 356.9 342.9 342.4 341.4 328.4 317.9 314.5 312 311 312.6 314.8 315.8 312.3 314.7 315.5 301.3 285.5 277.3 264 253.1 261.3 260.4 272.6 292.5 312.9 331.5 347.3 360 364 360.4 351.4 340 326.1 312.6 298.8 285.2 272.5 263.3 258.5 254.3 251.6 250 251.5 254.3 259.2 264.1 272.5 282.8 288.8 289.8 288.5 287.6 283 278 271.6 264.6 258.2 248.4 246 244.1 238 236.7 235.7 237 236.7 235.8 235.8 235.2 233.9 232 229.6 227.3 225.4 226 227.6 229.7 232.5 235.2 236.9 237.5 237 233.7 226.8 223.7 227.3 231.1 232.8 234.5 236.2 238.1 240.7 242.7 247.2 252.5 257 261.3 265.2 267.8 268.7 269.2 269 268.5 267.2 264.7 260.9 255.2 251.2 249.9 247.5 251.7 254 253.2 251.6 248.6 244.5 237.5 229.7 224.8 220 212.9 206 206.1 208.9 216.6 218.4 219.5 220.1 220.6 220.4
351.8 357.4 355.3 341 319.9 298 274.8 254.8 237.2 230.9 223 217.9 209.7 213.9 234.5 256.4 275.1 290.9 304.2 314.6 326.4 339.2 352.9 367.7 379.8 390.9 403 409.8 403.7 372.2 342.5 320.4 291.4 263.4 248.8 268.7 279.2 290.6 293.9 296.1 297.6 315.9 338.5 360.1 377.2 394.7 406.4 413.3 419.8 425.8 430.3 433.2 438.7 442.4 443.5 446.5 450.9 449.9 449.7 451 445.4 443.5 437.5 431.3 423.5 414.4 405.7 398.2 388 377.5 365.1 350.5 336.5 330 333.3 318.9 312 312.5 311.2 312.9 316.9 320 321.1 322 326.9 316.1 293 279.3 266 253.3 267.8 264.1 271.3 291.2 314.5 336.1 354 367.4 374.1 371.7 363.3 350.1 331.9 311.4 294.1 281.6 274.6 268.2 262.6 258.8 256.1 253.6 251.7 255 258.3 264.9 270.4 276.3 283.3 287.9 287.2 286.3 285.1 280.1 275 268.6 259.2 249 248.7 249.4 242.5 238.2 236.6 236.5 238.7 238.8 237.7 236.6 235.4 233.8 231.4 228.8 227.3 227.4 228.4 229.7 231.7 234.2 236.3 237.6 238.2 236.8 233.7 227.5 224.8 228.8 232.3 234.8 236.6 238.5 240.7 243.5 246.2 250.4 254.8 258.5 262.1 265.4 267 267.5 267.5 266.7 264.9 263.1 259.4 255.3 252.4 251.8 251.9 248.9 244.8 247.5 246.1 245.8 241.9 235.6 228.2 223.4 220.8 214.2 209.9 207.2 206.9 213.2 219.2 220.6 221.2 221.9 222.8 223.3
353.4 353.3 340.3 323.7 303 280.2 258 238 229.6 224.5 220 212.3 207.2 231.3 251.7 271.1 286.9 299.6 311.2 322.8 335.3 348.1 361.7 374.3 383.8 393.3 403.6 410.2 406.5 377.1 343 320.2 289.8 262.2 248.1 263.4 274.2 285 290.2 292.7 296.2 315.2 338.3 358.8 376.5 393 402.5 406.6 414.5 421.5 427.4 430.6 436.2 439.1 440.3 443.7 445.6 445.3 446.8 444.7 442.2 437.4 429.4 422.3 414.4 406.1 398.1 389.5 378.1 364.2 348.8 339.1 333.6 323.1 316.3 308.9 306.3 308 311.2 315.3 320.1 323.5 325 326.4 324.1 303.1 284.6 271.1 258 261.8 268 271.3 288.5 313.4 338.7 358.4 373.9 380.6 381.4 375.6 363.4 342.9 318.1 299 291.2 282.6 275.6 269 264.4 261.6 259 257 254.1 258.4 263 268.2 273.3 278.2 284.5 284.6 281.5 279.6 280.1 275.9 270.5 262.5 252.9 251.9 251.8 247 241.1 238.4 237.6 237.6 238.4 239 238.5 236.8 234.7 231.9 229.3 229.4 229.7 230 231 232 233.1 234.6 236.7 238.6 238.2 236.7 233 226.7 226.5 230.6 233.7 236.3 238.7 240.8 243.3 245.8 248.1 251.9 255.2 258.3 261.4 263.8 265.6 265.8 265.4 264.1 262.3 260.1 256.6 253.5 252.3 254 254.1 250.7 245.4 239.5 232.2 238.1 233 226.3 221.7 219.3 214.9 210.4 206.6 207.2 205.6 214.3 220.7 221.8 222.5 224 225 225.7
347.2 341.4 328.8 306.3 286.6 265.5 243.6 229.7 225.9 221.1 216.9 206.7 223.7 246.6 267.2 283.6 294.7 305.5 316.9 329.4 342.4 355.9 368.9 377.7 385.5 394.5 403.4 410 407.8 381.6 344.6 322.1 293.5 265.1 242.2 252.9 264.3 273.2 283.1 288.3 294.9 312.5 334.7 355.9 375 387.9 393.5 397.6 404.8 417.6 423.9 425.9 431.7 435.7 436.7 441.1 441.5 442.9 443.2 440.8 437.1 430.5 423.4 410.5 403 395.1 388 374.6 364 346.9 342 342 337.2 329.4 313.2 304.8 303.1 304.8 311.8 315.7 321.8 326 325.5 326.5 314 291.9 274.3 265.4 256.3 266.1 272.6 283.5 305.1 334.1 356.4 374.2 386.6 389.3 384.2 373.6 357.2 333.2 319.6 310.7 300 286.3 276.6 271.5 268.8 265.7 262.1 259.2 256.7 262.4 265.2 269.9 273.7 278.9 282.8 280.8 273.6 270.9 271.4 269.6 264.6 255.3 252.1 254.7 254 249.6 243.1 240.3 239.8 238.7 237.5 237.7 237 234.6 231.6 232.5 233.8 233.5 232.5 232.5 233.2 233.4 233.7 234.8 236.8 238.4 237 234 230.2 225.2 227.9 232.4 235.6 238.2 240.6 242.8 244.9 247.2 249.5 252.4 254.9 257.8 260.6 262.7 263.9 263.9 263.2 261.5 259.9 257.5 254.5 252.7 253.5 256.4 255.6 249.5 244.1 237.6 230.8 228.4 223.2 218.2 215.4 212 209.5 208 207.7 207.2 210.6 218.3 222.2 223.5 224.8 226.2 227.1 228
335.8 330.8 317.2 293.3 274.6 254.7 232.5 226.7 223.6 219.1 210.4 210.2 234.7 259.8 277.1 289.1 298.8 309.6 321 333.2 346.5 360.6 371.8 378.5 385.6 394.3 401.5 407.4 406.7 384.7 347.1 327.2 300.5 271 246.1 244.6 257 266 275.1 283.8 291.8 308.9 329.2 350.7 370.2 376.3 379.5 386.6 397.5 412 419.1 420.5 427.1 432.2 433 436.1 440.3 441.3 440 437.4 432.4 428.9 416.4 395.7 384.2 378.5 369.8 359.9 345.6 341.1 342.6 343.6 340.2 335.5 320.3 306.4 300.4 300.8 304.7 313.3 320.7 325.1 326.9 318.7 297.7 279.2 266.7 265.2 266.3 269.7 279.3 298.3 321.2 347.9 368.3 387 394.1 390.4 381.5 368.9 355.5 341.3 329.1 316.9 304.5 291.7 280.5 276.5 272.2 267.4 263.7 261.9 257.8 262.6 268 273.5 276.8 279.4 278.2 274.2 271.1 267.9 262.9 260.9 257.1 255.1 254.7 256.1 255.8 253.6 246.2 242.2 240.9 238.7 237.2 235.2 233.9 232.7 235.8 236.9 238.1 238 235.7 234 233.1 233 233.4 234.8 236.3 236.7 234.5 231.3 227.6 224.7 228.5 233.1 237.1 240.1 242.5 244.8 246.8 248.5 250.7 252.6 255 257.5 260 262.3 262.5 262.3 261.9 259.9 257.9 255.3 252.7 252.6 255.6 256.9 253.3 248.3 243.6 236.8 228.6 218.1 216.2 213.4 208.9 208 208.4 208.4 208.4 208.3 215.5 221.4 223.4 224.9 226.1 227.7 228.7 229.9
324.5 320.2 309.3 286 266.9 245.6 228.7 224.7 221.6 216.5 205.3 214 243.7 265.8 280.5 290.1 300.5 312.5 324.3 336.2 348.7 362.1 370.9 378.1 385.1 392.4 399.6 404.6 404.7 386.5 348.1 330.1 306.4 274.9 250.2 240.8 253.9 262.6 271.2 280.1 287.5 300 319 340.5 356.4 359.4 365.7 376.2 391 405.6 414.8 416.1 422.4 426.4 427.6 434.5 437.4 438.3 433.4 432.4 430.5 426.3 415.8 398.9 378.5 360.5 346.9 336.2 329 334.3 340.6 337.2 337.4 334.3 323.3 309.1 298.3 297.6 299.9 305.4 312.1 318 318.1 299.8 280.6 268.2 265.5 265.6 267.9 272.7 294.1 316.1 335.3 358.5 383.6 393.3 392.5 386.4 376.3 365.3 353.8 340.4 328.4 317.8 303.7 291.1 282.4 276.9 272.6 268.6 265.2 262.1 260.3 266.1 273.5 279.4 281.3 280.2 277 273.9 269.1 264 259.9 257.7 256.7 257.8 261.3 259.6 257.7 253.8 247.7 244.2 242.3 239.9 237.5 236 235 234.7 237 241.3 242.8 242.5 239.5 234.7 233.6 234.1 234 234.6 235.7 234.9 232.1 228.8 225.6 225 229.2 233.8 238.4 241.9 244.5 246.6 248.5 250.1 251.7 253.5 255.5 257.9 260.6 261.4 261.4 261.2 260.9 259.5 257 254.3 251.1 254 257.7 255.3 250.1 245.6 239.9 235 226.5 212.2 211.1 208.6 209.8 209.2 208.7 208.8 210.9 208.8 214.1 219.2 224.5 226.1 227.1 228.4 229.8 231.5
314.1 312.2 306.5 287.6 263.2 238.5 228.6 224.2 219.5 208.5 205 220.3 246.6 266.6 280.3 290.1 301.7 313.8 326 338.1 350.3 361 368.3 375.5 382.8 390 396.1 400.6 401.9 382.8 345.2 322.8 303.5 275.6 248.9 239.9 250.9 260.6 268.1 276.1 281.9 289.2 306.1 327.8 340.8 347.5 357.5 371.1 385.1 399.8 407.8 410.7 417.8 419.4 426.9 432.4 433.4 430.1 427.8 428.6 426.3 420.2 409.1 397.4 381.6 364.2 336.8 314.4 314.2 319.3 325.8 330.3 335.4 335.7 324.2 312.5 301.7 295.2 295.3 298.3 302.5 304.8 299.2 282.5 269.9 267.5 266.2 268.5 274.3 285.1 308.1 329.1 349.3 374.8 394.1 393 388.2 380.7 371.3 360.8 348.1 335.3 324.4 310.9 297.9 287.1 279.6 275 271.2 266.9 263.9 261.5 263.9 269 277 280.4 280.5 279.6 275.8 272.5 266.8 262.5 261.7 262.4 265 268.9 269 265.7 261.5 255.4 250.7 247.4 246 243 240 238.8 238.2 236.1 237.2 242.5 247.6 246.4 240.8 235.3 236.5 236.3 235.7 235.3 234.7 233 230.1 227.7 225.5 225.6 229.9 234.5 239.2 242.9 245.7 247.8 249.7 251.3 252.9 254.5 256.3 258.8 261.1 261.1 260.6 260.4 260.1 259.1 256.8 254.3 251 253.4 255.4 252 246.2 240.5 233.5 230.1 218.2 210.6 209.5 209.9 210 210.1 210.3 212.8 214.4 212.4 211.1 216.4 223.9 226.9 228.1 229.1 231.1 233.1
306.1 305.5 301.9 287.6 258.8 235.5 227.4 222.9 217.8 200.1 210.2 224.9 243.1 259.4 273.5 285.7 299.3 312.4 325.3 338.2 350.3 359.6 366.4 372.3 379.6 386.4 392.4 396.2 397.6 377 341.9 318.3 300.8 271.8 240.7 234.1 249.5 258 265.3 268.6 278.1 284.7 297.8 317.5 332.3 342.4 354.3 367.5 379.7 393.9 399.3 404.6 409.8 419.3 427.1 428.1 427.1 423.6 422.5 422.2 418.7 410 399.9 388.8 375.5 360.1 338.1 312.2 296.3 302.6 314.7 326.1 332.4 334.8 325.9 320.8 311.5 299.1 295.1 293.4 292.7 291.6 284.5 272.4 269.3 267.8 267.7 274.7 287.6 304.7 320.5 339.8 363.2 387.7 392.6 389.2 382.4 374.6 364.8 353.2 341 330.5 319.2 304 290.9 282.3 275.9 271.6 268.3 265.2 263.4 263.3 268.7 272.4 278.8 283.5 283.9 280.1 275.4 271.9 270.5 269 268.8 272.5 276.4 279.7 280.4 275.8 269.8 259.5 256.7 253.6 248.4 247.2 243.1 243.4 244 240 238 243 248.3 247.2 241 237.8 239.3 237.9 236.7 236.2 235.2 232.8 230.7 228.6 226.5 226 230.5 235.2 240.1 243.8 246.6 248.7 250.9 252.4 254 255.5 257.1 259.4 261.7 261.4 260.2 259.7 259.4 258.2 256.2 254.4 251.9 252.2 250.9 247.9 242.4 237.2 227.3 222.6 211.9 209.2 212 213.2 213 214.9 216.2 216.8 217.2 217.2 218 214.6 217.9 224.5 226.5 229 232 234.5
301.2 299.3 296.2 285.9 257.3 232.8 226 221.5 216 200.3 212.4 225.6 238.9 254.2 271.1 284.2 296.8 309.8 322.6 334.9 346.8 356.8 364.5 368.3 372 380.9 388.7 391.7 389.9 367.5 337 314.1 296.4 267.6 233.5 237.6 246.3 248.2 266.3 274.5 270.6 281.8 292.2 310.6 328.8 342.6 353.7 363.6 374.2 381.6 391.3 402.3 413.7 422 424.6 423.3 419.9 416.3 415.5 413.1 408.3 398.6 389.8 377.9 364.4 350.9 323.2 302.1 281.9 290.3 303.8 317 328.7 330.4 332.7 328.7 313.3 302.7 297.9 293.9 290.3 284.2 276.6 272 269.5 269.3 276.4 291.1 304.5 319.2 334.6 352 374.7 389.3 388.4 382.9 375.6 367 357.3 345.3 335.1 325.3 313.1 297.4 285.9 279.3 272.5 269.9 268.2 266.3 265.3 267.9 272.1 275.9 287.2 295.4 294 286 278.7 278.8 281.9 284.5 286.7 288.9 291 291.4 287.9 284 275.1 268.1 264.3 259.3 256.4 253.1 248.9 248.9 248.6 245 239 242.9 246.2 244.6 239.1 239.7 240.2 238.6 237.6 236.9 235.8 234.1 232.3 230.3 227.8 226.6 230.8 235.7 240.6 244.6 247.6 249.6 251.3 253.1 254.6 256 258 260.1 262.3 261.7 260.2 259.2 258.7 257.3 255.6 253.8 252 248.9 242.5 242.5 238.4 233.9 226.9 209.8 211.6 212.3 214.1 216.5 218.5 219.7 219.9 220 220.1 220.3 220.8 219.7 219 217.6 221.7 227.8 231.9 235.6
297.5 295.9 292.2 283 256.9 231.8 224.1 220.2 215.1 199 208.2 221.8 234.7 253.3 273.1 285.9 297.8 309.3 320.8 332.7 344.7 354.6 357.5 359.4 365.3 375.8 383.9 386.3 378.6 356.3 331.4 309.3 290.7 262.3 227.5 238 247 258.2 269.5 279.7 282.8 285.5 285.6 304.3 323.6 337.6 346.3 352.8 366.6 380.1 395.6 408.1 417.2 422.3 422.4 416.4 412.3 410 406.9 403.1 396.5 387.5 378.3 365.2 354.3 337.8 307.1 283.7 268.3 281.2 293.4 310.7 325.3 332.8 336.7 324.7 306.4 301.3 298 293.3 289.4 283.4 275 271.5 270.8 273.8 284.6 299.7 313.5 333.2 348.3 363 381.3 387.1 382.6 376.2 368.4 360.2 349.5 338.2 328.3 318 306.4 295 284.4 277.9 277.4 275.8 272.2 268.7 268.4 275.8 279.9 281.6 292 299.7 296.6 291.2 288.8 292.6 300 305.3 305.8 304.6 301.9 298.9 294 286.5 277.5 272.6 268.8 267.5 266.7 260.4 255 253.7 251.4 246 240.1 241.2 242.7 241.1 240.9 241.3 241.3 239.7 238.7 237.9 237 235.8 234.1 232.2 229.5 228.1 231.1 235.2 238.6 242.6 245.7 247.9 251 253.4 254.8 255.9 258.3 260.9 261.8 261.5 260.3 258.8 258.1 256.9 255.1 252.8 250.7 246.2 236.8 231.7 231.3 227.7 216.8 213 213 216.3 219.5 221.1 222.3 222.7 222.7 222.7 222.8 223 223.4 223.3 222.8 222.9 222.8 224 230.1 234
294.2 293.2 291.2 287.3 262.5 233.3 222.5 218.4 213.2 199 199.9 213.5 229.4 247.5 266.3 281.1 293.3 304.3 315.5 326.6 337.1 343.9 348 351.8 360.3 370.3 377.3 378.6 364.5 344.9 323.6 304.6 286.2 256.8 224.4 236.9 246.5 258.3 269.6 278.8 282.6 287 293 299.2 308.7 315.1 337.5 355.8 368.6 384.9 400.2 410.9 418.1 420.2 417 409.3 405.7 401.7 397.3 392.8 385.2 378.2 366.6 352.5 338.3 316.6 292.4 270.7 260.2 266.7 276.7 291 310 330 323.3 301.7 298 296.2 295 292 287.7 280.7 273.3 271.5 275 280.6 289.6 305.4 326 346.5 356.6 372.4 382 381.7 376.1 369 361.6 353.3 342.7 330.3 319.6 309.3 299.3 292.4 283 284.3 284.3 282.6 276.1 272.7 273.5 282.5 285.5 289.4 294.9 300.1 297.6 295.2 304 309.9 315.7 318 316.6 311.9 307 301.9 293.6 283.3 279.2 275.3 279.1 281.3 276.9 267.9 259.5 255.1 251.2 244.8 241.4 241.8 241.9 242.6 243.9 244.8 244.5 242 240.4 239.5 238.4 237.2 235.8 234.2 232.7 231.5 231.5 233.2 235.5 237.8 240.8 243.7 247.2 251.9 254.5 256.4 259.4 260.4 260.8 260.5 260 258.9 257.8 256.8 255.1 253.1 250.7 245.1 237.9 231.6 225.7 219.2 213.9 211.7 215.1 221.5 223.1 224.1 225.1 225.4 225.3 225.4 225.4 225.6 226.1 226.6 226.3 226.4 226.5 225.4 226 230.5
290.8 290.3 289 290.9 268.9 241.2 221.5 216.1 211.7 202.5 192.1 208 223.7 240.2 256.7 271.3 283.1 293.8 304.3 314.7 323.3 329.1 336.4 345.2 354.3 363.3 367.7 362 348.9 331.5 312.9 298.1 281.1 250.3 222.3 231.3 245.2 257 268.8 276.7 281.4 285.6 291.6 305.4 321.5 335.7 347.1 358.4 372.6 390 403.2 411 415.8 415.2 409 401.5 396.7 392 387.3 382.2 377.8 367.3 350.9 333.5 312 287.2 275 254.8 243.1 247.5 261.5 277.3 295.2 308.2 294.1 284.7 289.1 292 291.7 289.1 284.2 277 272.8 274.6 279.7 287.8 302.8 318.4 337.5 352.5 363.2 375 377.9 375 369 361.5 354.9 344.8 332.9 321.5 312.8 309.6 299.1 290 290.3 292.5 291.4 287.3 282 279.5 277.5 283.8 291.2 295.8 297.3 301.9 304.2 306.4 317.7 324.3 326.7 327.8 324.6 317.1 308.9 298.5 287.9 283.5 281 287.5 293.7 291.1 283.4 272.1 263.1 257.1 249 245.1 242.9 242.9 243.8 244.9 245.9 247 246.8 244.2 242.5 240.8 239.6 238.2 237 237 236.6 235.4 235.2 236.2 238.2 237.3 237.8 239.9 243 247 252.1 256.4 259.7 259.9 259.9 259.4 258.7 258.3 257.8 257.3 256.4 254.8 252.6 246.1 238.8 231.9 224.2 213.9 213.2 215.1 221.2 224.9 225.8 226.7 227.6 228.1 228 227.9 228 228 228.5 229.5 229.7 229.8 228.2 226.7 229.8 229.6
287.5 287.2 287.9 290.3 276.8 250.7 226.1 214.6 209.8 203.8 189.8 201.5 216.1 231.5 246.8 260.9 271.7 281.8 292.1 301.2 308.1 314.7 324.7 335 342.8 348.9 345.4 337.2 326.8 314.5 301 290.4 274.5 244.8 219.7 229 240.6 253.6 265.7 273.1 279.2 284.8 293.2 311.7 325.8 338.4 350.4 364.4 381 392.3 403.2 409 412.6 409.5 403.5 398.5 393.4 385.4 378.5 374.2 366.2 350.3 332.3 313.7 300.2 288.7 283.7 278.9 263.7 237.3 254.7 272.9 293.3 288.7 273.1 272.2 285.2 291.8 292.1 288.2 282.4 277.4 276.7 282.3 290.7 301 314.4 330.4 345.7 356.6 366.5 373 371.8 367.3 360.6 354.6 346.6 334.9 323.9 315.8 315.2 313.1 305.4 297.8 300.1 300.9 298.2 295.5 290.3 286.9 284.2 287.8 295.6 300.9 305.2 309.2 314.6 320.1 326.9 332.5 334 333.7 328.9 317.2 303.6 293.4 288.7 289 296.4 301.2 302.3 295.5 286.2 276.2 266.5 256.4 248.4 246.1 244.9 245.3 245.6 246.6 247.2 248.3 248.6 246.7 244.5 242.9 241.1 239.8 239.8 240.5 240.3 239.5 239.9 241.5 242.2 240.8 239.6 238.9 240 243.3 248.9 253.4 256.1 258 259 257.8 257.3 257.9 258.9 258.6 257.9 256.2 253.7 249.5 239.8 230.1 217.8 213.9 214.8 219.7 225.4 227.7 228.4 228.9 229.6 229.7 229.7 229.9 230.2 230.4 231.1 232.3 233.5 232.3 228.1 229.5 232.8 234.5
283.4 283.5 285.4 286.5 280.2 260.8 234.7 216.1 210.3 207.2 188.9 192.8 207 221.6 235.6 247.9 258.5 268.5 278.4 286.7 293.5 302 312.9 323.7 328.2 327.5 321.7 313.4 303.6 294.2 288.3 279.7 261.3 237.3 216.5 226.1 240.1 254.3 264.6 273.2 279.3 285.8 300.1 317.1 330.5 343.1 357.8 371.5 383.9 394.6 403.3 407.2 409.3 405.7 402.7 400.8 398.2 388.4 371.6 360.7 351.6 336.9 324.9 318.2 305.9 294.3 280.5 275.9 257.1 231.9 247.3 266.4 285.5 269.8 259 270.8 284.3 290.7 291.9 286.1 280.5 279 284.8 290.3 300.8 312.3 325.4 340.6 350.4 358.1 365.1 367.1 364 358.8 352.8 347.6 337.9 327.3 318.7 315.2 317.2 317.1 310.4 309.3 311.7 310.2 308.1 303.9 299.7 297.9 297.2 298.6 302.8 309.9 315.2 317.3 321.5 326.7 333.4 336 335.1 332 323.8 309.2 298.4 295.8 299.4 305.4 309.3 309.6 305.5 297.1 286.2 274.7 262.2 254.4 251.7 249.5 250.4 250.5 249.7 248.6 248.5 249 249.2 248.1 246.8 245.2 243.4 242.5 243 243.7 243.8 244 244.5 245.5 246 244.1 243.1 242.4 241.5 242.2 246 249.5 251.8 254.8 258.3 258.7 259 260.2 260.5 260.5 259 257.1 254.6 249.2 239.8 225.4 214.5 213 219.2 225.6 228.5 230 230.1 230.2 230.5 230.6 230.8 231.2 231.8 232.8 234.2 235.9 237 233.5 228.3 232.2 235.4 237.6
277.8 280.4 282.2 283.3 280.5 267 244.9 222.1 212.1 207 199.5 186.1 197 209.7 222.5 234.1 243.9 252.4 259.1 269.8 278.9 289.5 300.9 312.2 312.1 306.2 298.9 291.6 284.5 280.4 274.4 261.9 246.3 227.3 213.7 225.9 240.9 256.3 264.7 271.9 279.9 288.9 304.5 321.1 334.3 349.8 367.4 374.9 386.6 390.6 396.2 404.5 407.2 404.6 403.6 402.7 399.8 391.8 376.5 363.6 349.6 333.2 316.6 300.6 285 270.3 262.5 254.3 240.9 220.6 235.5 241.3 247.3 246.3 245.9 272 282.3 288 286 279.5 277.4 279.7 288.4 298.5 310.5 323.2 335.1 345.3 351.7 358.3 362 361.2 357.1 351.6 345.7 339 330.4 321.6 317.1 317.9 321.5 324.5 321 321.2 321.8 320.3 318.8 314.5 312.9 312.6 311.6 313.5 317.6 322.4 324.8 323.8 327.6 330.3 334.8 337.3 335.7 324.8 312.8 303.4 303.4 308.8 312.9 317.4 318 313.3 304.6 294.5 280.5 271.4 267.8 261.7 257.2 255.9 256.5 256.4 254.8 251.8 250.4 250.3 250.2 250 249.2 248 246.7 247.1 248.2 249 249.6 250.3 250.1 249.5 248.6 247.2 246.6 246.6 245.7 244.7 245.1 247.4 251 255.1 257.9 260.7 261.8 262.6 263 261.9 259.6 257 252.7 245.5 232.9 217.6 214.5 216.2 223.7 227.2 230.1 231.4 231.2 231.2 231.4 232 233 234 234.9 235.9 237.3 238.8 238 232.5 232.5 236 238.6 240.9
276 277.2 279 280.5 278.1 271.9 257.8 236.7 218.2 208.2 198.8 185.7 188 199.3 209.6 221.1 230.3 238.2 244 248.6 262.1 276.4 291 298.4 293.4 288 280.6 276.3 272.9 266.1 253.5 240.4 226.8 214.3 218.9 231 242 257.4 264.3 270.4 278.8 290.6 307.5 325.4 340 357.8 368.4 374.3 378.5 385.1 394.9 401.6 403.4 402.6 400.9 399.8 396.8 386.3 371.2 352.9 330.2 310.7 290.9 272.3 258.5 247.9 238.8 230.1 221.6 212.6 214.8 222.6 228.6 240.1 257.1 273.6 279.4 282.9 277.6 271.4 278.2 285 296.6 308.7 321.5 331.8 339.3 347.3 353.9 358.3 358.4 355.1 350 344.8 339.6 332.7 324.5 318.4 318.2 322.7 331.5 334.2 331.3 331.7 331.3 331.6 330 326.9 327.1 326.5 324.1 324.5 325.7 330.8 334.3 332.4 330.5 331.7 335.9 339.5 330.9 316.1 311.2 310.8 315.3 319.4 323.2 324.9 318.4 309 299.4 288.3 282.2 280.3 274.9 268.7 265.6 263.5 262.5 261.6 259.6 255.1 253.2 253.1 253 252.9 252.3 252.7 254.2 257.4 260.2 262.1 264 262.9 261.3 256.7 251.8 249.7 250.2 251.1 250.2 248.9 247.6 248.2 252.4 255.7 258.5 261.3 263.5 264.8 264.6 262.1 258.8 255 247.7 237.4 221.5 216 214.8 218.3 224.8 228.7 230.9 231.8 231.8 232.5 233.7 234.8 236 237.2 238.1 239.1 240.4 240.4 238.4 234 237.7 240.6 242.9 244.8
273 274.3 276.1 277.8 276.3 275.9 269.9 251.7 232.5 216.5 203.4 184.3 183.5 190.9 199.8 209.3 218.9 227.3 234.2 241 247 264.9 281.5 283.1 277.5 272 269.3 266 258.1 244.2 230.3 217.3 207.5 216.6 225.5 233.6 242.3 253.8 262.5 269.1 277.5 292.8 311 331.3 349.8 360.5 367.7 373.2 377.9 384 392.7 399.2 400.8 393.6 397.4 394.8 387 371.2 347.7 323.6 302.7 283.1 263.8 244 233.6 224.6 213.9 203.3 213.5 230.3 239 237.3 217.1 235.7 256.4 266.3 269.5 270 268.4 274.2 283.4 299.8 309.7 320 331.4 338.1 344.1 349.7 355.3 357.5 355 349.7 344.1 338.9 333.9 328.1 321.5 318.9 323.1 329.7 335.9 338.5 338.4 337.7 337.3 338.5 336.5 335.3 335.2 332.3 331.3 328.7 330.7 336.2 335.5 333.1 332.8 330.1 333 334.8 324.1 320.1 319.2 321.5 325.3 325.9 325.2 320.1 310.2 303 296.4 291.5 288 285.4 280.6 275.9 273.2 269.9 267.1 265.4 262.5 258.1 256.3 256.7 256.7 256 256.2 258.8 263.2 268.5 272.4 275.8 276.1 274.7 271.6 264.1 256.5 253.9 254.5 255.2 254.9 254 252.2 251.7 254 256.5 259.4 261.7 263.8 265.6 264.3 260.8 256.5 249.3 238.2 226 214.7 215.5 215.9 223.3 227.3 229.8 231.2 232.2 233.4 234.7 236.3 237.9 239 240.2 241.3 242.7 243.4 242.5 237.6 240.1 243.6 247.2 250.2 253.3
269.1 270.4 273.2 273.9 273.9 278.3 278 266.3 249.7 230.4 213.9 193.2 181.1 184.1 191.5 200.7 210.2 218.9 227.5 236.2 242.7 257.6 270.9 268.1 264.6 262.8 259.2 249.4 235.8 220.4 206.4 203.4 215.5 223.8 230.1 236.9 243.2 251.4 260.1 268.5 280.5 297.5 320.7 343 354.1 360.9 367.4 373.6 378.5 383.8 391.2 395.4 388.6 388 387.2 379.2 365 345.6 321.7 298.8 277.6 258.4 240.6 225.5 216.4 205.7 197.4 215 229.9 242.6 256.9 254.2 226.8 236.1 242.1 246.5 248.1 251.9 261.7 283.3 298.9 311.8 322 331.1 338.1 343.7 349.3 353.4 354.9 352.7 349.9 344.7 338.9 333.9 329.9 325.2 321 321.7 326.2 330.5 335.1 337.8 338.5 338.2 338.4 338.5 337.3 335.3 332.6 328.9 327.1 326.4 327.6 330.7 330 328.8 328.5 328.4 332.6 329.8 328.6 330.2 327.3 328.2 329.1 324 317.4 310.6 304.7 300.4 297.1 294.1 291.8 290 286.9 283 279.6 275.1 270.7 267.8 264.1 261.1 260.1 260 259.8 259.5 260.6 265.7 271.6 277 282.1 286 285.6 283.4 277.8 270.4 264.2 260.2 259 259.1 259.4 259.1 257.6 256.4 255.7 257.9 259.9 261.9 263.9 264.1 260.3 255.8 249.5 239.8 228.3 222 218.5 216.2 219.5 226.7 229.2 230.2 231 233.1 235.1 236.7 238.8 240.4 242.2 244.4 246.8 248.2 248.2 245.5 240.7 247.3 251.6 255.6 258.9 262.5
264.4 264.1 265.7 266.7 275.6 279.2 280.7 275.2 262.2 244 227.3 208.6 185.6 179.6 184.3 193.6 203.1 213.4 223.4 233.9 242 250.4 256.5 256.1 255.2 250 241 229.2 215.2 200.5 200.6 214.7 223.4 229.3 234.2 240.3 245.9 252.9 261.1 270.9 287.3 309.8 334.2 347.4 355 362.1 368.7 374.9 379.2 382.7 386.7 382.3 376.2 372.4 361.9 349.8 338.9 321.5 300.5 278 257.6 239.3 221.6 207.6 198.1 193.8 211.2 228.4 244.7 262 275.5 263.9 239.8 239.8 246.9 252.6 260.4 272.3 283.5 298.3 311 323.8 332.8 338.5 343.6 349.2 354.1 354.9 351.2 346.8 344 339.2 333.6 329.7 326.3 321.6 319.3 322.2 326 329.5 332.2 334.7 334.7 333.8 333.5 332.9 332.1 329.3 325.9 321.7 320.1 321 320.7 319.7 318.2 317.2 320.1 327.5 329.4 331.3 333.2 333.8 333.8 333.5 328.4 320.9 313 307.5 303.6 301 298.6 296.2 294.5 293.4 292.5 289 284.9 280 275 270.6 266.5 264.5 264.2 264.2 263.8 263.6 266.3 272 279 285.5 290.9 294.6 293.9 290.8 284.3 277.9 272.9 268.1 265.1 263.2 262.9 262.3 260.5 258.3 257.7 258.8 260.4 262.3 263.3 262.1 256 248.4 239.8 231.7 224 221.6 219.4 216.5 216.4 227.3 229.3 229.6 231.6 234 236.2 238.8 241.5 244.8 247.8 251.3 253.7 254.7 252.7 247.9 245.9 252.9 257.5 262.4 267.1 272.2
258.6 258.7 258.1 267.8 274.8 279.1 282.5 280.9 268.9 254.2 239.5 224.2 201.8 175.8 178 185.2 197.3 209.2 220.2 231.1 239.1 241.2 241.2 238.7 234.2 228.3 220.3 210.8 197.5 196.8 215.5 222.5 228 233.5 238.6 244.3 250.6 257.2 265.6 279.4 301.9 326.5 340.2 349 356.3 363.8 370.9 376.4 379.5 379.3 378.1 373 371.2 364.1 329.8 315.5 310.5 300 281.1 259.9 239.5 220.5 205 192.6 190.7 206.4 222.5 241 262.4 276.3 286.9 282.7 272.4 270.9 274.3 277.4 279.4 289 302.4 313.4 324.8 333.1 338.8 343.9 349 353.9 355 351 346.1 341.3 336.9 332.8 328.3 325.4 321.9 317 315.6 321.8 325.2 328 330.2 330.9 328.9 327.9 326.9 326.1 324.2 322 318.9 314.6 311.6 310.3 308.7 307.3 306.3 305.8 315.6 326.8 334.4 337.8 339.5 341.1 341.6 338.4 331.1 324.9 317.8 312.2 308.3 307.2 304 300.2 297.8 296.9 295.3 291.9 287.9 284 278.8 273.5 269.6 268.4 268.3 268.2 267.8 268.3 271.7 277.4 285.4 293.3 299.4 301.4 300 295.9 290.6 285.1 279.9 275 269.8 267.5 266.3 263.8 260.8 258.6 258.2 259.4 261 262.6 263 258.7 252.6 244.6 234.7 227.5 223.2 220.9 219.7 215.4 216.5 223.4 225.6 229.1 232.2 234.9 238.2 242.1 246.5 250.7 254.9 258.1 260.2 259.1 256.7 248.8 250.7 256.8 262.6 268.4 273.8 279.2
254.7 254.5 255.1 262.6 271.9 277.8 284.4 281.9 269 256.3 243.2 231.1 218.6 193.7 174.6 181.9 194.3 205.7 216.1 223.2 225.9 223 220 215.4 210.1 204.2 197.6 192.2 198 212.9 221.9 228.2 233 237.3 243.1 250.4 257.1 264.2 275.8 296.9 318 332.8 342.5 350.8 358.8 366.7 375.3 381.1 380.2 376.6 373 372.1 374 363.2 331.1 291.3 278.3 276.6 262.4 242.7 224.6 204.2 190.2 189.2 203.3 218 232.4 249 271.5 289.1 298.2 302.2 293.4 292 292.9 291.3 293.8 304 315.1 325.3 332.2 338.3 344 349.1 353.3 353.5 350.3 346.2 341.3 335.8 331.3 327 323.5 321.2 317.8 311.3 315.8 320.6 324.2 326.3 326.5 325 322.6 321.3 319.9 318.2 316.6 314.6 311.7 307 301.9 297.5 294.2 292.3 291.7 304.9 319.9 331.8 340.8 345.6 348.8 351.2 351.5 346.8 341.3 335.4 328.2 321.8 318.4 316.8 312.2 306.7 303.2 301.3 298.4 294.6 291 287.1 282.3 277.4 273 272.3 272.2 272.1 271.6 272.8 276.1 281.9 290.7 299.5 304.8 305.2 304.1 298.5 294.8 290.6 285.4 279.9 274.5 271.4 269.2 265.3 261.4 258.9 258.4 259.2 260.5 261.3 259.4 255.5 250.4 242.3 229.5 224 222.2 220.4 219 216.7 217 217.7 223.3 229.2 233.2 237.7 242.9 247.8 253.1 258.1 262.2 265.2 264.9 262.8 259.2 248.9 254.6 261 267.6 273.1 278.6 284.4
252.8 252.3 253.1 258.8 268.5 278.4 283.8 275.7 263.1 251 239.2 231.7 220.8 199.2 179.1 179.5 190.1 200 207 208.3 204.1 200.2 197.3 192.3 188.1 188.3 189.6 203.4 213.4 221.7 229.6 235.2 238.5 243.1 249.7 257.2 262.3 271.2 289.8 310.2 325.1 336 344.9 353.2 362.4 372.4 379.7 380.5 377 373.5 373.2 373.7 376.6 363.5 331.5 298 266.9 248.4 243.6 228.2 212.5 193 181.3 197.1 211.8 225.3 242.3 264.5 284.6 297.5 309.2 311.8 303.3 297.9 295 297.8 303.1 310.9 320.4 327 333.2 340.2 347.6 351.9 351.2 348.2 344.5 340.5 334.8 329.5 325.3 321.2 318 316.7 316.2 314.5 305.9 305.8 308.1 315.3 316.6 315 313.1 311.7 311.5 310.3 308.9 307.6 304.2 299 291.8 287.2 281.4 283 295.4 310.7 325.3 337.5 345.9 350.8 355.2 358.8 357.8 353.9 351 345.5 337.5 332 328.9 324.5 318.5 312.6 308.9 305.9 301.7 297.8 294.3 289.9 285 280.6 277 276.2 276.1 275.8 275.4 276.6 279.8 286.3 294.8 302.9 307.3 307.2 304.8 299.7 296.3 292.4 288 283.2 278.5 274.6 270.8 266.9 262.9 259.9 258.6 257.8 258.7 257.7 255.3 251.2 244.5 233.4 223.4 221.5 220.3 219.2 218.2 217.4 217.1 220.2 225.8 230.9 236.4 243.2 250 254.6 260 265.5 269.4 269.9 268.9 266.9 260.7 249.8 258.3 265.4 271.9 277.5 283.4 289.7
249.6 249.9 251.2 256.5 266.9 276.8 274.8 265.4 254 242.8 233.7 226.2 211.7 196.2 179.8 175 182.5 187.7 190.4 188.6 184.5 180.6 180.8 183.1 190.3 195.8 206.5 215.2 223.6 229.2 233.6 237.6 242.8 250.6 257.5 262.2 269.1 281.4 301.1 319.1 330.2 339.8 347.7 356.9 366.5 371.8 372.7 372.3 371.5 371.6 372.7 375.9 375.9 360.4 330.1 298.9 271.6 247.4 226.9 218.2 200.7 183.5 184.9 203.3 215.8 232.4 256.9 275.9 296.5 315.4 319.4 303.3 294.1 294 297.1 303.6 310.5 317 322.3 327.9 333.9 339.7 345.3 347.1 344.5 341.4 337.5 332.4 327.5 322 318.7 314.7 311.5 311.4 313.6 315.3 317.7 307.7 293.5 283.5 289.7 295 296 296.2 298 298.5 299 298.1 292.6 280.7 273.9 270.3 269.5 289.1 301.4 315.3 329.2 342.9 350.9 355.8 360.1 361.8 361.6 358.3 355 349.7 342.6 339.4 336.2 330 322.4 316.5 311.2 306.5 302.2 299.8 297.2 293.1 288.4 284.3 281.2 280.5 280.1 279.6 279.3 280.6 283.7 290.7 298.3 305.5 307.3 307.2 304.1 300.3 296.8 292.7 288.6 284.8 280.5 276.5 272.4 268.2 263.8 261.2 258.9 257.3 256.1 254.6 251.2 243.8 235.2 225.7 221.2 220 218.9 218.5 218.3 217.9 218.3 226.6 230.5 234.8 240.8 248 255.3 261 266.8 272.1 273.8 273.3 272 269.5 261.4 255.7 262.5 269 276.1 281.8 287.8 294.8
246.9 247.5 249.5 256.1 266.3 267.6 263 253.6 243.6 235.2 227.3 218 207.9 195.7 181 169.7 172.5 171.9 171.8 172.3 172.8 180.9 191.2 197.6 202.4 207.9 213.7 218.9 225.5 230.2 234.8 239 247.8 260.8 267.9 273.9 282.2 294.8 312.8 325.6 335.3 343.6 351.6 358.8 362.3 363.6 364.7 366.4 368.5 370.5 373.9 377 369.4 353.9 325.6 298.3 277.1 255.4 235.8 221.1 202.7 181.3 189.1 205.7 219.3 242.2 266.4 292 315.5 320.2 297.6 285.5 287.8 293.5 300.3 307.5 312.3 317.6 322.8 328.1 333.5 338.1 339 337.7 335.8 333.6 328.9 322.9 318.2 314.5 310.9 307.8 304.2 306.7 309.1 311.7 315.1 316.5 315 291.8 255.1 264.4 275.4 278.9 280.8 284.3 286.6 282.2 271.2 262.5 258.5 257.3 277.7 294.7 306.4 318.7 332.2 345.8 355 360.3 361.9 362.4 361.9 358.8 355.3 350.9 345.7 341.8 337.6 330.2 321.1 314.6 309.3 304.5 302.1 300.1 298.3 295.3 292.2 288.3 285.8 285.2 284.6 284.1 283.6 284.7 287.9 294.5 301.7 306.2 306.7 306.3 303 299.6 295.9 292.1 288.2 284.3 280.6 277 273.3 268.7 263.9 260.5 257.8 256.5 254.3 249.9 243 235.2 227.6 222.8 221.6 219.2 218.5 218.3 217 217.6 225.9 231 233.4 238.6 245.1 252.5 259.8 267 272.6 275.8 276.4 275.8 274.1 270.2 262 259.8 265.3 273.3 280 286.1 292.2 298.5
244.8 245.8 248.7 255.9 260.2 257.4 253 246.9 236.1 227.3 218.8 213.4 206.9 195.8 183.6 169.2 170.4 177.1 189.9 196.1 201.3 202.3 203.6 205.8 209 213.7 217.6 222.4 226.8 231.4 235.9 242.9 257.1 270.3 279.4 285.3 294.1 304.3 319.7 330.6 338.1 344.7 350.8 353.6 354.6 355.4 358.5 362.6 365.6 367 374.9 370.6 360.3 346.9 318.5 292.5 273.7 258.4 243.7 225.5 198.7 176.4 189.7 205.3 225.2 249.9 279.6 308.8 313.5 295.5 281.5 284.3 297.7 300.3 300.9 306.3 311.5 317 321.8 326.5 330.3 329.2 327.1 325.3 323.6 321.6 318.4 313.8 309.1 303.9 300.4 299.1 299.5 302.1 304.8 307.7 310.6 312.1 311.8 301.1 266.2 238 253.5 261 262.9 268.1 266.7 257.4 252.5 245.3 249.4 261.1 278.9 295.7 308.9 321.6 334.5 347.2 355.7 359.9 361 360.7 360.1 357.4 353.5 349.8 345.4 340.8 335.4 327.3 317 310.1 306.5 304.8 302.8 301.2 299.7 298 294.9 292.4 290.4 289.7 288.9 288.1 287.8 289.1 292.4 298.7 304.8 306.3 306 303.4 300.2 297.2 294.1 290.7 287.1 283.2 279.3 275.7 273.2 269 263.3 258.8 256 254.6 249.7 243.4 234.1 229.1 224.2 219 218.2 218.6 218.1 226.3 229.4 226.4 229.9 233.4 236.1 242 249.3 258.3 266.5 272.4 275.6 278 278.9 278.1 275.4 270.9 265.5 261.8 268.9 277.5 284 290.5 296.5 302.4
242.8 244.2 247.2 252.2 251.1 250.9 251.6 247.6 233 216 209.4 206.3 201.3 192.2 181.5 166.4 170.7 183.9 194.9 200.9 206.5 208.7 209 210.6 213.1 216.2 220.1 224 228.8 233.9 239.8 250.6 262.9 274.3 284.7 292.7 302.4 310.3 324.8 332 337.6 341.8 344.7 344.8 343.4 348.9 354 358 359.6 366 368.6 361.4 351.1 343 316.9 287.2 258.9 244.8 238.3 222.7 197.3 174.9 191.7 208.6 230.8 252.9 284.6 287.5 281.7 275.1 275.4 292.5 305 305.7 299.8 302.5 308.3 314 318.6 321.6 319.1 315.5 311.9 307.5 307.3 308.9 307.1 302.9 297.7 292.6 288.3 292.4 296.9 299.8 302.2 303.9 305.7 307.2 306.5 297.5 270.3 237.6 238.8 243.7 247.7 250.8 244.5 242.7 237.4 246.3 259.6 264.9 276.3 293.3 310.7 324.3 337.1 348.5 355.2 357.9 359.4 359.4 358.2 355.6 351.6 347.7 343.3 336.4 328.7 320 311.2 308.1 306.4 304.6 303.4 302.4 301.1 299.9 297.8 296.2 294.6 293 292.3 291.4 291.7 294.1 297.9 303.3 307.4 306.8 303 299.2 296.5 293.4 290.7 288.4 285.3 281.9 278 274.5 271.9 268.1 262.8 256.3 250.7 250 243.3 236.6 231.3 226.5 223.5 220.2 219.9 220.9 228.1 233.1 234.6 233.9 230.8 235.6 240.4 246.3 255.6 265.4 271.9 274.3 277 279.3 281.4 280.3 276.9 273.5 268.7 264.2 273.7 281.8 288 294.8 301 305.2
240.9 242.1 243.7 245.9 253.7 258.8 259.5 252.2 234.5 216.3 204.6 199.4 195.4 187 173 164.9 174.3 185.7 192.6 199.8 207 211.1 213 214.4 216.6 220.5 224 227.3 232.4 238.5 243.5 250.6 258.8 269.7 281.6 296.4 307.9 317.2 327.1 330.9 333.4 335.9 336 332.4 330.7 339.5 345.3 346.3 354.1 360.5 355.8 348.6 342.1 329.9 312.5 291.6 259.7 232.7 224.8 218.5 191.5 175.1 192.5 209.8 230.2 249.8 259.4 258.6 257.4 261.4 280.7 302.6 316.3 313.5 302.2 292.1 298.9 303.5 307.5 308.3 304.1 300.8 296.2 291.6 292.7 296.3 296.2 291.3 284.8 277.5 280.3 291.2 296 298.9 300.5 301.4 302.2 301.9 295.3 282.4 261.9 233.6 224.9 230.2 233.5 233.8 231 230.7 242.7 258.1 270.9 280.7 288.6 297.1 314.8 331.2 342 349.5 354.1 356.9 359.4 358.8 356.5 352.8 348.8 343.5 335.9 327.9 319.7 312.4 309.7 307.5 306.1 304.7 303.6 303 303 302.4 301.8 300.4 298.9 297.2 294.9 292.9 296 299.9 303.2 307.3 309.7 307.4 302.6 296.9 292.6 289.8 287.7 286.1 283.8 280.4 276.8 273.4 270.3 265.6 260.6 254.2 247.7 242.9 238.7 237.2 233.1 228.2 223.4 219.2 221.3 227.4 233.8 236.2 237.7 237.7 233.4 238 243.8 253.4 262.7 269.3 272.4 274.6 277.4 281.4 283.5 282.8 279.8 276.1 273.2 268.7 278.9 285.1 291.5 298 302.8 306.8
239.6 240.4 244.1 253.4 262 267 266.5 257.6 242.1 220.9 204.5 194.3 189 180.1 167.4 166.6 177.9 186 192.4 200.7 208.9 213.7 217.1 218.5 220.2 224.8 229.4 232.1 235.6 239.5 244 249.1 255.7 263.2 276.4 295.6 310.5 320.1 322.3 322.9 323.4 324.2 318.2 312.6 319.8 327.5 329 339.5 349.4 346.4 342.3 337.3 328.4 313.7 302.9 283.7 266.1 238.5 218.2 208.6 185.6 174.7 189.9 203.8 222.7 234 238 242.4 257.5 276 291.4 313.7 324.5 321.4 312 298.1 287.5 290 295.3 291.6 284.3 278.2 274.9 274.5 271.3 281 278.6 270.2 263.5 258.3 278.1 289.9 294.8 298.2 299.3 299.9 298.4 289.6 277.6 264.4 246.9 227.1 216.9 220.7 219.4 220.2 228.4 240.9 253.9 267.5 281.5 297.2 309.6 318.3 328.7 340 346.5 349.3 353.4 356.4 358.6 357.7 353.7 349 344.4 337.4 329.8 322.7 315.6 312.1 311.2 310.2 309.3 306.9 304.8 304.7 305.4 305.9 305.6 304.5 303.1 300.6 297.4 297.2 300.9 305.4 308.8 312.2 311.1 308.4 304.1 294.4 288.8 287.1 285.4 284.1 282 279.5 276.7 273.6 270.9 267.2 261.5 254.9 249.2 244.9 241 237.4 225.9 220.4 221.1 219.2 229.4 233.2 236 238.5 239.9 240.1 236 239.1 246.9 258.8 265.1 268.3 270 272.8 277.8 282.7 284.3 284.5 282.5 279.8 279.4 278.5 276.6 283.7 290 295.9 301.4 306.5
238.4 241.3 249.7 260.3 269.2 274.7 270.2 259.5 241.6 225 211.7 195 184.5 174.2 163.4 167.7 179.1 186 193.8 203.1 210.4 215 219.6 222.6 224.7 228.3 232.2 235 237.9 240.7 245 249.4 256.8 268.4 281.5 298 311.7 315.4 314.8 314.9 313.3 308.3 300.7 301.2 308.6 313.6 323 334 335.7 333.1 328.3 322.9 310.5 300.1 287.5 275.2 260.9 243.2 226.3 201.7 176.5 177.7 189.2 198.4 213.6 218.9 228.5 247.4 276 294.6 307.1 321.6 328.7 325.7 319.8 309.8 298.9 291.4 267.3 261.3 253.3 245.4 242.5 244.7 246.9 256.2 252.2 248 241.7 255.9 276.7 291.4 293.8 296.6 295.9 289.7 278.1 266.3 254.5 242.7 231.3 215.8 213.3 212.8 215.7 224.3 236.8 250.6 265.8 285.2 303.4 319.3 327.8 334.9 339.3 344 347.5 349.8 352.5 354.1 354.8 354 350.8 346.2 340 333 325.7 321.1 318.5 318.9 318.7 319.6 320 313.8 309.2 308.6 309.2 310 309.9 308.8 306.7 303.1 300.8 301.7 305.2 309.2 313.7 314.6 311.8 308.5 302 289.7 285.2 284.6 284 282.7 280.9 279.3 276.9 273.4 270.8 267.9 261.7 254.7 249.4 244.4 240.4 235.2 221.2 221.8 222.1 225.9 231.3 235.1 237.8 240.1 241.8 242.1 240.9 242.6 247.5 258.2 263.9 264.9 267.8 273.3 279.3 283.4 285 285.7 285.3 284.1 284.2 284.2 284.4 284.6 285.3 290.6 297.1 304.6
238.5 244.7 255.3 266.9 276.7 278.2 269.2 256.7 238.8 227.7 217.6 199.6 183 169.6 162 169.4 179 186.9 196.5 205.2 210.3 214.4 219.3 224.7 229.2 232.1 235.3 238.2 239.9 242.3 245.6 251.1 261.2 275.2 288 301.7 309.9 306.8 304.9 303.4 297.9 291.5 287.3 291.5 296.9 306.5 316.2 321.4 322.3 319 314.8 304.5 295.7 286.5 275.3 264.1 251.3 239.8 221.1 190.5 168.2 185.3 192.6 198 205.9 216.4 233.9 256.7 284.8 305.5 319 327.5 330.5 326.1 321.8 313.2 304.1 298.2 293.4 273.5 239.7 216.7 217.1 223.3 227.6 234.8 232.8 228.2 235 256.2 280.4 290.6 291.6 286 275.8 265.5 253.5 243.2 233.8 224 216.3 210.9 207.8 215.6 226.1 238.8 251.4 267.3 287.3 310.2 328.6 335.7 340.8 342.4 342.8 345 348.1 350.9 351.3 351.2 349.6 349.4 347.7 343.8 337.2 331.9 328.3 326.4 325.6 327.4 329 329.7 326.3 320.1 314.4 313 313.2 313.8 312.9 311 308.8 306.2 304.4 306.3 309.4 314.8 318.7 317.4 312 306.7 294.4 284.8 283.8 283 282.3 281.3 279.8 278 275.6 273.3 270.9 267.2 259.3 251.5 246.6 242.9 239.2 235.2 222.5 222.2 223.5 228.3 233.5 236.2 238.8 241.2 243.3 244.9 244.3 246.9 248 252 258.1 263.7 271.6 278.6 283 285.4 286.9 288 288.2 288.3 288.5 288.8 289.8 291 290.6 292.6 296.6 300.8
239.7 249 261.9 273.4 280.6 275.3 265.5 250.1 235.9 228.1 217.2 200.4 180.5 163.5 161.3 169.3 179.5 189.1 197.4 204.2 208.6 213 220.3 227.9 233.2 236.9 240.1 240.7 241 242.2 244.3 250.6 264.9 278.8 291.2 302.6 296.9 291.3 291.6 286.1 282.2 278.9 276.3 281.3 291.6 300.4 304 307 306.9 304.2 297.4 288.8 281.1 272.8 262.8 251.2 240.2 230.8 209.4 181.3 173.1 186.8 191.4 197.5 205.1 224.1 242 268.1 292.6 310.8 321.8 327.5 325.8 321.5 314.2 306.1 301.7 291.3 277.9 267.9 259.9 239.7 216.1 202.4 211.8 219 215.1 220.4 235.7 254 274.3 279.5 271.9 261.3 251 241 231.7 225.1 217.1 211.1 207.6 205.4 213.7 228.9 246.6 264.5 278.3 293.7 316 333.4 340.6 343.7 344.3 344.5 345.4 347.2 349.5 350.7 350.2 347.4 345.2 344.5 343.8 341.6 338.3 336.1 333.7 332.5 332.9 335.7 337.8 337 331.8 325.9 319.2 316.6 316 315.8 314.6 312.7 311.8 310.1 308.6 311.9 316.3 321 321.3 317.1 310.6 300.8 287.3 282.1 281.3 280.9 280.4 279 277.6 276.2 274.5 272.3 268.8 261.8 254 247.8 243.9 241.1 237.9 234.7 232.2 225.5 222.4 226.1 233.4 237.3 239.8 242.6 245.4 247.3 247.9 249.6 250.8 251.4 257.7 265.4 273.6 279.3 283.6 287.2 288.6 289.5 290.9 292.6 293.2 294 294.6 295.7 297.2 297.5 302.6 307.2
242.4 255 266.6 275.8 278.4 270.6 259.8 244.1 233.8 225.3 211.6 195.1 172.9 160.5 159.9 166.7 178.1 187.7 194.8 201.2 204.5 209.5 221 233.5 239.6 239.5 238.7 238.5 238.1 238.8 241.2 251.5 267.7 279.3 290.7 289.9 280 278.9 276.3 272.4 270.4 268.5 267.5 277.6 286.2 289.6 290.4 290.9 290.9 288.4 280.2 273.9 268 258.6 248 236.9 229.3 217.7 202.3 176.2 171.2 185.1 189 196.4 214.7 235.7 259.3 280.6 300.5 314.4 320.9 322.4 317.7 307.4 298.2 286.6 273.4 263.3 257.2 251 246.1 234 225.4 197.4 198.9 199.2 204.6 219.7 234.2 248.4 259.1 257.1 246.5 237 229 221.4 216.4 212.4 205.9 202 206.4 212.9 229.3 249.9 271.9 290.4 306.6 323.7 337.4 344 345.7 345.8 346 346.4 348.1 349.5 349.7 349.7 349.1 345.3 341.8 339.4 339 339.3 339.3 338.1 337.2 336.7 338.9 341.6 342.7 339.4 334.4 328.7 323.2 319.3 317.6 316.8 315.6 315.1 314.4 313.1 313.9 319.3 322.9 325.6 321.4 314.2 305.7 296.3 283.9 279.6 278.8 278.2 277.6 276.7 275.2 273.9 272.5 268.6 262.1 254.4 249.1 245.1 241.7 239.1 236.4 234 231 227.4 225.5 223.4 233.9 238 241.6 245.2 248.7 250.9 255.8 253.1 254.5 255.4 259 263.7 271 277.7 283.6 286.6 288.5 290.3 292.4 294.6 296.8 298.7 300.3 301.3 302.7 304.2 308.8 313.3
249.1 261.4 270.5 274.9 275.1 265.7 253.3 239.9 228.7 218.2 205.9 187.1 167.7 159.8 158.9 164.8 177.7 186.1 192.4 198 201.8 207.6 223.2 237.3 242.3 238.2 235.1 235 234.9 235.2 237.3 252.5 267.5 274.6 281.6 271.5 266.8 265.2 261.4 260.3 259.6 259.1 265.5 272.8 277.1 277.7 276.4 275.6 275.1 270.5 265.9 261.8 252.4 243.1 233.3 224.4 217.4 209.3 200.4 177.9 165 178.4 188.2 199.8 222.1 247.1 268.2 286.7 305.2 314 316.1 312.8 301.4 288.3 275.9 259.4 247.4 240.7 236.1 224.1 217.3 217.5 212.2 191.8 189.2 192.5 207.6 220.9 234.7 243.8 243.1 232 223.5 217.5 212.9 210.3 210.4 203.8 201.8 208.6 220.8 236.8 252.1 273.1 298 318.7 330.8 339.3 344.1 345.9 347.2 347.8 347.7 347.8 348.3 348.3 348.3 348.2 347.6 344.2 339.4 335.8 334.6 335.4 336.7 337.1 336 336.9 338.5 341.2 341.3 337.9 332.8 327.6 323.1 318.9 317 316.6 316.4 316.3 316.9 317.8 319.7 323.2 326.7 325.9 317.4 308.8 300.6 291.6 280.7 277.6 276 274.9 274.4 274.2 272.8 271.3 268.5 262.9 255.8 250.4 246 242.4 239.5 237.3 234.2 231.5 228.3 225.9 225.2 226.7 235.3 240.3 244.6 248.9 254.9 260.8 262.3 259.5 258.3 262.1 266.9 268.2 267.7 271.5 280.1 285.2 288.3 291.1 293.9 296.3 298.7 301.2 304.5 307.1 309 310.6 314.6 318.2
253.7 264.6 270.5 273.5 270.5 260.4 246.4 234.2 222.9 211.7 199.4 179.1 166.4 156.2 158 163.8 175.7 184.3 190 195.5 199.7 209.5 226.3 242.6 242.5 236.4 230.8 231.5 231.6 230.9 234.2 250.3 261.8 267.3 263 255.4 252.8 252.2 250.1 249.7 249.4 253.7 260.4 264.3 266.4 265.3 263.1 261.1 258.3 255 252.6 245.3 236.5 228 218.7 212.3 206.5 196 187.7 169.9 164.3 177.4 190.3 207.4 222.9 250.4 271.7 291.2 304.9 310.2 307.1 297.3 282.7 266.3 249.8 235 226.2 219.8 208.6 199.7 196.2 194.7 192 182.6 183.1 194.9 210.8 225.8 235.8 230.3 220.3 212.4 207.6 204.2 201.2 201.2 199.9 202.5 214.2 229.6 248.3 264.7 282.5 299.4 320 332.9 338.2 342 344.6 345.8 347.3 347.7 346.4 345.4 345.7 345.7 345.9 345.9 345.1 342.2 337.8 334 330.5 329.9 331.2 332.9 334.2 335.2 336.6 338.3 337.2 334.6 329.4 323.5 319 316.9 316.3 316.3 317.8 319.3 320.7 322.4 323.9 325.6 326.2 320 311.6 302.7 294.6 283.7 278.1 276.2 273.6 271.8 270.9 271.3 270.6 267.3 261.2 256.1 251.9 247.1 243.5 240 237.3 233.6 230.4 230.1 227.4 225.7 224.4 227.7 236.9 243.1 249.5 256.7 262.9 266.4 265.7 263.1 263.2 267.1 270.1 275.4 275.8 272.8 277.1 286.9 291 292.8 295.4 297.9 300.4 303.7 307.6 311.6 313.7 316.2 319.4 322.7
258 266.1 269.7 270.9 264.5 253 239.4 227.2 216 205.1 194 182.4 165.7 157.6 157.1 162.9 172.1 181.5 187.7 192.9 198.2 213 231 242.1 239.3 235.4 228.4 227 227.9 225.6 230.8 244.5 252.1 248.8 245.6 238.7 237.9 240.7 241.6 240.8 241.2 247.4 252.1 254.8 254.8 252.9 252.3 249 240.9 238.9 235.8 229.1 221.6 212.8 204.9 200.8 189.8 177 168.2 159.2 170.6 183.4 196.7 214 231.3 257.1 276.3 292.1 301.8 300.6 291 275.7 256.8 241.3 226.2 215.3 209.2 200.3 191.1 183.8 181.7 180.4 177.2 174.5 183.4 198.6 215.5 227.7 221 211.8 204.7 199.5 195.9 194.4 196.2 201.4 208.1 218.4 235.5 256.2 276.4 294.1 310.1 322.7 330.8 337.1 340.1 342.1 342.9 342.9 342.9 341.7 340 340.4 341.9 342.7 342.2 342 340.2 337.9 335.4 331.7 327.9 324.4 323.8 326.6 330 332.1 333.4 334.4 333.4 331 324.8 318.8 316.3 315.9 316 317.3 320 322.4 324.5 326.5 326 323.6 319.2 311.8 302.7 293.3 284.3 280.1 276.9 274.8 272.3 269.2 267.5 266.9 267.3 261 255.2 251.1 248 244.1 240.1 236.4 234 233 231.9 230.3 228.1 226.5 226.3 230.4 239.2 247.7 257.6 265.6 269.4 271.4 269.1 266.9 268.5 272.3 276.2 282.3 283.9 282.4 281.4 285.7 294 294.6 296.9 299.6 303.1 306.9 310.9 314.7 317.9 321.4 324 327
260.2 266 267.4 267 257.9 246.1 232.6 220.2 211.2 205.2 201.7 188.1 166.4 156.9 155.7 158.2 168.8 178.4 183.8 188.6 197.6 216.1 231.7 236.2 235 232.7 225.3 220.3 219.5 220 226.4 233.1 233.2 231 229.5 228.5 229.1 232.1 233.4 234 236.4 239.7 242.4 244.3 244.1 246.4 244.6 240 232.2 219.9 218 213.9 206 206.4 191 183.8 171.4 156.8 164.3 176.3 185 192.1 207.4 223.3 241.3 261.1 278.7 292 291.1 286 270.6 249.4 233.7 218.7 207 199.3 194.7 183.4 175.4 170.6 169.6 170.7 171.5 175.5 188.4 201.9 214.1 211.1 204 197.5 192.2 192.3 197.2 204.6 210 216.9 227.2 242.5 262.5 286 305.8 320.2 328.7 333.9 338 339.9 340.5 341.3 341 339.4 338.3 336.1 334.6 335 338.4 339.7 338.8 336.4 335 332.7 330.8 328.6 324.9 319.9 319 323.3 326 327.2 328.2 329.6 330 326.2 319.4 316.2 315.7 315.9 315.9 317.5 321.2 324.8 326.5 326.6 323.4 318.2 310.7 301.4 291.7 286.2 281.9 278.4 275.8 273.5 270.7 267.4 264 260.4 255.8 251 247.9 246.3 244.4 241.5 238.3 236.2 235.3 234 232.1 230.2 228.3 226.9 226.9 235.7 246.5 260.4 269 274.7 276.7 275.7 272.9 270.2 274.4 279.2 284.7 289 291.2 292 293.9 289 292.9 296.3 299.2 301.8 304.8 308.9 312.9 317.4 321.8 325.4 327.9 330.5
261.5 264.1 263.5 261 251.2 240.5 227.9 219.9 214.7 212 209.7 190.8 166 152 154.3 156 164.4 174.4 179 184 195 211.1 223.1 226.9 227.5 226.4 221.6 216.5 215.1 216.2 219.9 221 220.9 220.6 220.1 222 222.9 225.1 225.9 229.5 232.1 233 233.3 235 238.9 239.3 236 232.7 225.6 211.2 203.1 206.4 195.1 186 179.5 167.8 154.9 172.4 181.6 190 192.7 204.4 222.2 239.2 251.4 264.9 278.3 284.7 280.7 267.6 244.6 226.9 212.3 201 190.7 186.8 178.6 171.6 167.3 168.9 171.6 175.2 178.1 178 183.9 194.6 196.1 192.6 189.6 191.9 197.3 202.7 211.2 220 228.9 240.7 254.4 269.5 290.8 311.6 326.7 334.8 339.3 342.8 344.2 342.9 342.1 342 340 337.6 335 332.8 331.7 331.5 334.7 336.4 335.3 332.8 329.8 327.9 326.1 324.2 320.4 315.6 315.6 319.9 321.7 321.6 322.6 324.3 324.3 320.5 315.9 315.3 315.3 315.4 315.7 317.2 320.9 324.5 325.5 323.9 319 310.9 301.5 293.7 288.9 285.7 281.8 277.9 275.1 273 269.9 266.7 264 259.6 256.4 255.2 249.4 246.3 243.8 241.1 238.9 236.8 235 233.3 231.4 229.7 228.2 227.5 234.6 248.1 262.1 273.7 279.2 282 282.3 279.8 276.5 274.9 280.7 285.9 290.6 295.3 298.2 299.7 299.6 296.3 292.3 298.4 303.4 304.8 308 310.7 315.5 320.2 324.7 327.8 330.7 333.7
260.5 260.9 259.1 252.9 244.7 236.8 226.8 221.7 220.1 215.3 214.4 193.6 166.7 152.7 153.7 153.6 160 171.6 176.9 179.2 189 202 212.3 216.9 218.4 219.6 216.9 212.2 210.9 211.2 211.6 213 214.6 214.4 215.6 218 218.5 219.2 220.7 224 226.3 227.4 228.6 232.7 233.3 231.1 229.3 226.2 219.3 209.1 203.9 187.2 183.4 175.9 168.1 155.5 167.1 181.2 188.7 195.7 204 220.9 240.3 252.4 263.2 270.9 279.1 276 267.4 242.8 222.6 207.1 197.7 186.1 178 172.9 167.4 164.5 167.2 173.6 177.7 186.8 194.2 195.3 189.6 182.1 184.5 191.4 196.2 202.3 211.3 221 232.2 244.2 256 269.3 280.7 293.7 313.1 329.9 338.6 343.5 346.3 347.6 346.9 345.3 343.7 341.5 338.5 335.8 332.5 329.8 328.8 328.4 331 332.8 331.7 329 325.6 323.5 321.6 319.3 315.5 312 311.5 314.4 316.1 316.2 317.9 320.6 319.8 316.2 314.3 313.9 314.1 314 313.7 314.7 318.2 322.5 323.4 322 316.2 306.5 297.4 292.2 288.2 284.9 282.7 280.4 276.4 273.1 269.9 266.9 264.2 260.9 259 254.2 249.7 247.3 244.7 241.8 239.3 237.1 234.6 232.6 230.7 228.8 228.1 229 247.5 263.2 274.5 281.9 286 288 287.1 284.1 281.3 280.2 285.8 291.2 296.3 300.9 302.7 303.8 302.6 299.2 295.2 299.2 304.5 307.6 309.6 312.7 317.9 322.5 326.5 329.7 332.9 336.8
257.7 257 252.7 245.2 238.6 233.1 225 221.6 218.4 217 215.8 194.6 167.5 150.1 152.4 152.8 156 171.2 173.4 174.9 179.6 189.7 201.3 206.6 211.4 213.7 211.7 207.4 205.8 204.7 206.1 208.2 209.8 209.3 211.5 213.5 214.2 215.1 216.8 218.7 221.8 222.9 226.4 227.2 226.2 224.9 223 219 211 203.3 187.2 181.6 177.1 170.2 160.2 154.8 179 189.9 198.3 210.2 223.7 240.4 253.8 263.8 272.5 274.6 270.8 265.6 244.2 222 204.4 190.1 181.3 174 167.7 163.7 162.2 168.8 175.3 184.5 197.7 208.1 215.3 216.9 212.4 202.8 189.7 196.8 211.3 222.4 232.5 243.3 255.7 271.4 286.2 298.5 306.8 317.3 331.6 341 345.6 349.1 350.7 350.1 349.1 346.9 343.5 339.2 336.1 333 330.2 326.9 325.5 326.2 327 328.2 326.5 323.9 320.6 318.2 316.1 314.2 311.4 309 308.8 309.5 310.6 312.5 315.8 319.4 317.3 314.5 313 311.8 311.2 311.1 311 312.4 315.7 319 320.3 321 315.8 306.5 299.2 293.8 288.9 285.2 282.4 279.8 276.3 272.5 269.8 267.1 264.9 262.5 256.8 253.8 251.5 248.6 245.3 242.4 239.4 236.9 234 231.7 228.5 228.7 227.2 243.9 259.7 274.5 282.3 287.6 291.1 292.5 291 288.1 286.6 285.9 291 296.8 301.5 304.8 306.1 306.5 304.6 301.7 298.9 302.9 306.6 308.8 311 314.8 319.6 323.9 327.2 331.3 334.8 339
254.6 252.6 246.4 238.2 232.8 226.4 219.7 217.4 217.6 218.4 216 196.9 169.2 154.9 151.1 151.2 152.8 161.1 167.2 172.3 173.6 178 189.6 198 204.7 207 203.2 199.7 200.9 199.3 201.8 204.8 204.9 205.3 208.4 209.5 210.1 211.8 213.7 215.8 218.4 220 221.6 221.9 221 219 216.2 211.7 203.6 190.3 182.5 178.7 177.1 173.7 154.5 162.7 185.2 199.6 214.8 227.7 244.5 255.2 266.7 267.3 271.3 268.8 260.7 245.2 223.4 203.8 186.8 174.6 167.6 163.6 161.7 164.4 170.3 178.5 189.2 203.9 217.8 229.4 235.9 237.8 233.6 220.9 203.1 204.9 226 241.8 253.8 267.4 283.5 299.8 312 319.3 324.6 333.1 340.9 346.3 350.6 352.7 353.1 352.4 350.6 346.9 340.5 336 333.3 330.8 328.3 323.3 320 319.1 317.8 317.2 316.7 316.3 314.2 310.8 308.6 308.2 307.2 306.5 306.8 307.6 308.9 312.1 317.8 319.8 314.9 312.8 312 310.7 308.8 308.1 308.5 309.9 312.3 315 317.3 319 315.5 308.1 301.4 295.2 289.7 285.6 282.2 279 275.8 272.8 270.6 268.1 265.9 263.5 259.7 256.1 253 249.6 245.9 242.7 239.6 236.6 233.5 229.3 228.8 233.3 240.3 254.5 271.4 282.7 288.8 292.5 295.9 296.6 294.7 292.4 291.7 292.6 296.3 301.6 305.6 307.8 309.2 308.3 307.7 305.9 303.1 305.1 308.4 310.3 312.9 317 321.3 324.6 328 332.1 336.3 341
251.4 247.8 238.4 230.4 224.9 218 215.4 216.3 219 219.5 221.1 200.9 172.6 155.9 149.6 149.9 149.9 152.8 158.1 167.5 170.2 171.3 179.2 187.6 194.6 196.2 192.6 192 193 194.5 197.6 200.7 200.9 201.9 205 205.5 207 208.9 210.8 212.8 214.8 215.9 217.2 217.3 216.1 214.2 210.2 205.6 195 184.5 178.7 174.9 175.2 166 149.6 173 192.9 209.3 226.4 246.3 252.5 261.6 264 264.7 266.2 258.8 245.6 226.8 206.8 188.1 172.7 163.3 160.5 159.6 165.5 172.8 183 195.4 209.1 224.8 239 249.1 255.4 256.7 246.2 229.7 211.5 220.9 240.6 261.1 277.8 291.9 305.3 314.2 322.2 328.6 334.4 341 346.6 350 352.8 354.4 354 352.6 350.5 344.5 337.3 332.8 330.1 328.1 324.3 319.1 314.3 311.7 309.8 308.4 307.8 307.8 306.4 303.4 302.7 303.3 303.6 304 304.4 306.4 310.2 316.1 319.4 315.7 311.3 312 311.3 309.8 308.5 305.6 305.8 306.3 307.4 309.3 312.2 316.8 315.2 309.9 303.5 297.5 291.5 286.2 282.9 279.7 277.3 274.5 271.4 268.3 265.9 263.9 259.6 255.6 253.2 250.1 246 242.2 239.1 236.5 233.3 229.8 236 246.4 253 267.4 280.7 289.6 294.3 297.4 299.6 299.6 298.7 296.7 296.8 298.9 301.2 304.9 307.6 310 310.7 310.8 309.9 306.3 303 306.1 308.9 311.4 314.5 318.2 321.9 325 329.1 333.6 338.4 343.1
244.1 237.8 230 222.7 217.3 212.8 214.6 216.9 219.3 221.4 222.2 205.7 176.9 157.2 150.3 148.9 149 148.7 150.2 163.7 174 177.2 171.8 177.9 186.9 185.7 183.8 186.5 187.5 189.7 193.7 196.6 197.4 199 200.6 202.2 204.3 206 208 209.8 211.2 212.3 213.2 212.7 211.5 209.2 205 199.4 190 179.8 174.7 169.3 168.4 151.3 161.8 186.3 206.2 217.1 231.3 245.1 255.6 258 260.8 263.8 257.5 246.4 230.4 211.1 191.3 172.8 162.1 158.7 160 166.8 177.5 188.6 201.6 215.8 230.5 244.7 254.8 262.8 271.7 268.2 247.6 228.9 227.9 246.1 263.5 282.9 297.5 307.9 315.7 321.1 328.4 335.3 341.3 346.9 350.2 351.7 353.3 354.6 353.7 352.3 349.6 344.7 338 332.6 328.6 325.1 320.7 319.4 317.9 314.8 310.8 308 304.2 301.6 300.4 299.8 299.4 300.4 301.2 301.6 303.6 307.1 313.5 317.4 315.9 311.4 312.2 312.2 310.9 309.8 308.2 304.9 301.7 300.6 301.9 303.8 306.5 312 314.1 310 304.6 298.9 292.9 287.6 283.8 280.3 278.8 276 270.6 269.2 267.5 264.2 259.3 254.9 252.7 249.9 245.8 242.1 238.8 234.8 230.5 231 243.6 254.3 263.8 276.9 286.8 293.9 297.8 300.3 302.1 302.3 301.5 301.1 300.7 302.8 304.7 307 309.5 311.2 312.2 311.7 309.7 306 304.1 306.2 310.2 313.3 316 318.9 322.2 325.8 329.8 334.8 340 345.1
234.9 227.2 220.3 214.8 212.4 211.4 213.2 215.1 218.1 220.4 223.1 213 183.5 160.5 155.1 146.4 148.1 147.2 148 156 157.2 160.3 164.7 170.7 176.8 177.6 178.6 182 182.3 186.3 190.7 193.4 194.4 195.5 197.4 199.9 201.1 203.2 205.2 207.2 208.8 209.2 209.1 208.2 206.6 203.6 199.3 192.6 182.9 176.5 170.4 161.9 151.9 154.2 181.6 200.7 211.1 225.5 243.7 254 249.4 252.5 257.8 253.9 245 231.7 215.3 196.8 178.1 162.7 156.6 158.8 164.9 176.1 190.7 204.9 220.2 235.5 248.5 256.7 263.3 270.7 278 262.4 242.9 238.8 255.8 271.8 285.3 298.3 308.6 317.3 324.5 329 334.8 341.6 346.8 350.2 351.8 352.8 353.3 354 353.8 352.6 351 346.9 340.1 333.9 329.9 328 326.1 327.7 329.5 324.7 322.5 321.8 315.2 309.5 302.3 300 298.6 298.8 299.8 301.1 303.2 307.8 313.8 312.9 310.2 312.3 314.2 313.5 312.4 311.1 308.2 304.1 299 294.7 295.4 298.4 301.2 306 310.5 309.9 305 299.6 294.8 291 287.1 283.4 280.4 276.7 270.5 268.6 265.5 260.4 257.2 253.8 251.6 248.7 245.2 241.1 233.2 230.6 230.6 233.8 250.7 262.7 274 284 290.5 296.2 299.5 301.4 302.4 302.6 302.7 302.5 303.6 305.5 306.7 308.7 310.4 311.9 312.5 312.2 309.9 306.9 305.2 306.8 310.9 313.8 315.8 318.4 322 325.9 330.9 336.1 341.4 346.9
224.9 216.7 213.4 211.7 209.9 209.6 210.4 212.5 216.4 220.2 224.4 219.5 190.8 166.6 158.3 153.3 146.9 146.2 146.4 149.1 153.5 156.8 159.7 161.3 166.1 170.5 174 177.6 178 184.5 187.6 188.5 191.2 192.7 195.5 196.5 198.2 200.2 201.9 205 206.5 206.2 204.5 203.5 201 199.3 194.9 186 177.3 164.7 152.2 146.4 152.5 174.8 192.2 207 220.6 238.9 252.4 245.8 244 251.8 248.9 239.9 229.5 217 202.1 184.9 167.4 155.4 157.2 161.6 172.4 187.4 204.2 220.6 235.3 246.2 254.4 262.4 269.5 274.5 270.5 255.2 245.9 258.7 274.4 289.1 298.6 308.8 317.4 325.6 332.2 336.7 341.2 346.3 349.3 351.3 353 353.5 353.5 354 353.7 353 351.6 347.8 340.8 334.1 334.9 335.5 337.4 338.8 335.7 330.1 329.6 328.9 327.6 314.7 305.2 301.5 299.4 297.8 298.2 299.9 302.2 306 308.5 307.2 309.3 314.5 315.8 316.1 315.8 312.6 306.6 302.4 298.1 292.6 288.9 291.4 295.1 299.7 304.8 308.1 305.8 300.4 296.6 293.6 289.3 283.5 278.1 275.5 269.4 266.7 264.4 261.8 258.1 254.7 251.9 248.4 244.8 240.1 230.1 231.1 234.2 243.4 262.4 271.6 281.7 288.5 293.6 297.8 300.2 301.2 302.1 302.2 302.4 302.9 304.8 307.2 308.4 309.4 310.9 312.1 312.5 311.7 309.6 307.6 306.1 307.3 310.5 313.2 314.2 317.2 321 326.7 331.6 337.3 342.6 348
216.4 212.6 211.6 209.9 208.4 208 208.4 211.1 216 220.4 225.4 223.9 200.7 172.9 161.9 154.6 146.4 145.2 144.8 144.8 149.1 153.5 154.4 158 162.7 166.7 169.4 171 176.9 181.3 183.3 186.6 188.6 189 190.1 193.2 194.8 196 199.2 202.6 203.8 202.6 198.5 199.9 198 194.4 188.7 179.8 173.2 154.1 145.6 165.2 174.2 188.7 203.3 217.2 231.9 247.4 251.1 238.9 244.8 242.5 234.4 226.2 216.6 205.5 191.8 175.2 160.8 154.5 159.2 168.3 183 200.2 218.4 232.8 242.2 249.8 257.7 265.7 273.1 274 263.5 252.3 263.1 275 286.5 297.5 308.5 316.7 324 330.2 336.2 340.6 344.2 347.3 349.7 351.7 352.9 353.2 353.7 354.3 353.9 353.4 351.6 346.8 340.7 338.4 341.6 342.9 345.4 343.6 339.1 336.7 332.3 331.7 329.1 315.3 306.3 303 300.5 296.5 295.7 297.8 299.9 302.7 304.6 306.8 310.4 314.9 316.7 317.2 317.2 313.8 304.3 299.7 295.5 291.3 286.5 286.6 290.1 294.5 299 303.1 304.2 301.2 297.3 293.3 289 282.8 274.2 270.8 267.5 265 262.1 260.9 259.3 257.2 254 248.5 244.3 235.7 231.5 232.1 238.8 253.5 269 279.8 287.2 291.6 295.8 298.4 300.2 301.4 302.2 302.3 302.5 302.7 305.2 307 307.7 309.3 311.3 311.6 311.8 311.5 311.3 309.3 307 306.7 309 310.9 312.9 316.1 320.6 326.3 332.2 338.5 343.7 349.3
213.9 212.3 211.8 210.3 208.5 207.2 207.2 209.8 215.1 220.2 226 226.5 208.1 182.1 165.9 171.9 148.7 143.9 143.3 143.3 144.9 147.8 148.8 152.5 157.4 162.3 164.4 166.8 172.4 176.7 179.7 182.7 184 185.2 186 190 191.6 193.2 195 197.6 199.5 199.7 198.7 197.1 193.5 188.7 181.9 174.2 168.6 150.4 155.5 171.4 185.4 197.7 213.3 225.8 237.6 244.3 240.3 237.2 234.9 228.1 221.5 214.4 206.1 195.5 182.1 168.4 157 157.8 164.9 178.7 196.3 215.7 231.9 240.7 248.5 255.5 262 268.4 274.9 271.5 262.2 267.8 276.1 285.6 296.2 306.4 314.4 320.7 326.5 331.8 336.5 340.4 343.6 346.8 349.6 351 352 353 353.9 354.2 354.2 352.7 349.6 345.4 340.4 340.9 342.7 344.9 346.9 344.6 344.3 336.4 332.2 332.8 323.7 310.5 304 301.9 299.5 295.7 293.9 295.4 297.5 299.5 301.8 304.3 308 312.3 315.7 317.8 316.9 313.8 302.8 297.1 293.1 289.2 285.1 282.8 286.1 289.4 293.7 298 299.7 298.9 296 292 288 283 271.7 266.2 263.4 262.4 259.4 258.5 258.9 255.9 254 248.7 239.1 232.1 231.7 232.9 245 259.7 273.9 283.3 288.4 292.1 296 298.4 300.1 301.6 302.4 302.5 302.5 302.7 304.8 306.1 306.9 308.5 309.7 310.6 311.4 312.6 312.3 310.5 308 307.4 309.8 311.8 313.7 316.3 321 326.7 333.1 339.6 344.9 351.4
211.2 210.4 209.9 209.7 208.5 207 206 208.6 214.3 220.4 226.9 227.3 211.9 191.8 168 156.9 148.6 144.2 142.5 141.4 142 141.8 143.7 146.9 151 157.1 159.2 161.4 165.8 171.6 174.9 176.9 180.2 177.5 179.8 186.2 186.8 190.9 194.2 196.8 198 197.5 196.2 194.7 190.9 185.2 175.7 167.7 159 143.9 158.8 175 187.8 201.8 215.9 226.7 232 236.2 232.2 229 221.7 215.4 210.3 203.7 196.4 186.4 174.6 163.6 155.3 161.4 173.7 191.3 211 229.3 239.8 247.9 255.8 262.8 268.5 273.6 277.9 272.7 274.8 278 285.4 295.1 303.6 310.8 317.8 322.8 326.5 330.6 334.6 338.7 342.1 345.3 348.2 349.6 352 353.8 354.7 354.7 352.9 349.5 345.6 341.8 338.3 338.6 340.7 343.3 344.9 343.3 338.2 332 330.7 325.4 313.7 303.9 301.9 300.2 298.1 294.6 291.9 293.2 295 296.8 298.6 300.7 303.2 308.7 314.4 316.9 315.7 311.7 301.1 294.4 290.8 287.2 283.7 280.6 281.7 285.6 289.1 293 294.9 295 293.4 289.5 285.4 279.7 270.2 263.6 259.8 256.8 254.5 253.3 251.9 248.6 246.1 238.8 232.1 232.3 232.9 242.8 251.7 265.2 276.8 283.8 288.4 292.2 295.7 298.2 300 302.3 303.5 302.8 302.7 302.4 304 305 306 307.2 307.7 309.7 311.4 312.2 311.9 310.5 309 308.9 311.2 313.1 315.1 317.4 321.8 327.7 334.1 340.7 346.4 353.8
208.9 207.8 207.1 207.5 207.8 206.3 204.9 207.4 213.2 219.9 226.1 224 212 188.4 168 156.2 148.6 145.4 142.9 141.5 141 140.6 139.9 141.1 145.1 149.8 154 155 159.9 163 164.5 164.3 172.8 169 179 182.7 185.8 188.7 191.7 194.8 195.5 194.7 193.3 192.4 187.4 180.8 171.2 164.8 149.3 140.8 161.3 174.9 187.5 199 209.9 218 221.8 222.3 218.3 212.7 206.7 201.7 196.9 192.7 186 176.8 166.7 158.5 158.7 170 185.7 205.1 224.2 237.1 246.8 255.3 263.3 270.7 276.7 281.6 282.9 279.5 281.4 284.7 292.5 299.8 307 313.6 318.7 321.8 324.5 328.7 332.7 337 340.3 343.8 347.1 350.1 353.5 356.5 355.9 352.8 349.1 344.6 340 335.8 332.9 334.2 335.8 336.1 334.7 332.7 329.9 327.6 322.9 313.6 306.1 302.7 300.5 298.5 295.9 289.3 289.6 291 292.5 294.1 296 297.6 300.4 306.5 313 316.8 314.4 308.7 297.5 292.4 289.1 285.8 282.8 280 278.2 280 283.7 287.9 290 290.7 288.9 284.4 279.7 274.2 267.9 261.2 257.9 254.6 251.8 249.3 247.2 244.5 239.4 233.8 231.5 233.5 237.9 248.2 257.7 268.8 278.6 284.2 288.4 292.3 295.1 298.1 300.4 303.5 304.7 302.8 302.6 302.3 302.1 303.7 304.7 305.3 306.1 307.5 309.2 310.2 309.9 309.9 308.8 310.4 312.5 314.4 316.8 319.4 322.9 329.1 335.4 341.9 347.8 356.1
207.9 206.4 205.5 205.5 205.1 204.4 203 206.2 212.5 219.1 223.7 218.6 206.7 180 164.1 153.9 148.4 146.2 145.4 144.7 145 140.6 138.3 138.6 140.5 145.6 149 150.2 154.6 156.7 158.1 158.9 162 170.3 176.2 179.7 183.7 186.9 190.2 191.9 192.6 191.1 190 187.7 182.2 174.5 169.5 163.3 141.9 146 162.3 172.7 183.2 191.8 199.6 204.5 208.4 206.2 200.8 196.1 191 186.7 182.9 178.4 171.7 164.6 155.7 155.7 166.3 180.8 199.4 219.7 232.5 243.4 253.1 262 270.3 278.1 284.3 286.1 284.8 284 285.7 289.4 296.1 302.6 308.4 312.1 316.1 319 322.2 326.4 331 335.7 339.8 343.6 347.6 351.5 355.2 356.8 353.7 349.1 343.5 337.3 331.8 328.5 327.6 329.2 330.2 331 329.5 327.6 324.6 320.2 313.8 308 303.5 300.7 298.5 295.1 292.9 287.3 288.7 289.4 290.8 292.2 293.6 295.4 298.3 304.2 311.3 315.9 312.4 304.5 296.4 293 290.1 286.7 283.7 281 277.1 273.4 275.8 281.3 284.8 283.8 280.9 276.6 271.3 265.8 260.7 258.7 256.7 252.9 249.7 246.8 243.3 240.6 236.2 234 234.2 239.7 246.6 253.8 261.1 270.6 278.7 284.2 288.5 291.4 294.1 298.3 302.1 306.6 304.4 301.7 302 302.1 301.3 301.9 302.4 302.5 303.6 304.6 305.9 307.2 308.4 308.5 309.7 311.5 313.4 315.4 318.1 320.8 323.8 330.1 336.7 343.8 351.1 358.7
206.8 205.4 204.1 203.2 202.4 201.6 201.2 205.7 212.5 217.4 217.4 210 199.1 171.5 159.5 151.6 148.5 146.9 146.6 146.8 146.3 146 143.8 137.5 136.5 138.1 144 147.2 150.4 152.4 153 153.1 161.8 169.7 173.8 175 179.7 182.4 186.3 189.5 189.3 188.2 186.8 182.8 176.7 170.1 166.8 154.9 137.7 153.9 159.8 167.9 177.6 185.1 186.5 189.3 189.6 186.8 182.7 178.8 175.4 171.9 168.2 164.5 160.1 152.1 151.2 161.3 175.7 192.8 212.7 228.1 239 249.4 259.3 268.7 277.2 284.4 286.6 285 284.2 284.8 287.3 291.3 296.5 301.1 305.4 309.3 311.9 314.7 319.5 324.6 329.7 335.1 340.2 344 348.3 351.8 353.3 351.4 347.8 342.2 334.4 327 324.3 322.5 323.3 324.8 329.1 330.5 328.6 325.5 318.6 313.7 309.9 307.1 303.6 300.8 297.1 294.5 289.8 285.5 288.1 289.5 289.9 290.3 291.7 292.7 296.6 302.7 309.1 311.8 308.7 302 296.5 293.6 290.8 288.2 286.2 284.4 278.9 272.1 269.1 272.4 275.2 274 271.1 266.5 260 254.5 252.6 254.9 255.3 251.2 247.8 241.7 239.2 237.1 233.7 232.7 236.7 243.3 250.6 257.4 263.7 271.3 278.1 283.9 287.6 290.4 294.7 298.8 303 305.5 303.8 301 301.6 301 299.7 299.6 299.2 299.1 299.2 301.9 303.3 304.5 305.6 308.1 309.7 312 314.1 316.3 318.9 321.6 324.6 330.7 337.6 345.3 353.2 360.2
204.8 204.2 202.6 200.6 199.9 199.1 199 205.8 211.6 213 208.5 201.6 185.8 168.8 156.5 152 149.6 148.5 148.1 147.2 146 145.9 139.7 136.9 136.3 139.3 143.1 144.8 145.4 146.2 145.6 150.6 157.4 163.4 167.5 172.3 178.1 184.3 188.8 189 187.5 186.5 182.4 177.2 171 166 160 142.8 143.5 153.7 158 165 172.7 171 170.2 171 170.6 168.7 165.3 161.5 159.8 158.8 157 154.9 151.6 148.7 154.8 168.5 186 205.1 223 235.6 246.1 256.2 265.9 275 283.2 286.1 284.3 282.7 281.9 283.6 286.8 290.7 294.5 298.7 302.5 304.8 305.5 311.3 317.5 322.9 328.2 334 339 343.6 347.6 348.8 346.8 343.7 338.4 330.8 323.3 320.3 320 318.7 322.5 329.2 331.1 332.3 331.8 328.8 323.3 323 322.5 311.2 304.7 302.1 301.7 295.6 290.2 285.1 286.7 288.4 289 289.1 289.4 289.9 293.3 301 306.1 307.9 305.2 300.6 295.6 293.5 291.5 290.2 292.1 291.8 285.2 273.7 265.2 265.1 262.7 260.7 260 254.7 250 247.7 246.9 247.4 246.5 244.8 241 237.4 236 235.7 235.7 235.2 238.6 245.6 252.3 258.9 265.1 270.6 276.4 281.9 286.2 291 295.8 299.9 302.6 304 302.2 299.9 300.2 298.7 297.4 296.7 296.8 295.9 297.5 300.1 300.8 302 304.8 307.3 309.7 312.2 314.3 317 319.6 322.3 325.3 331 338.2 345.3 353 361.5
202.3 202.2 200.5 198.5 197.3 196.6 198.5 204.7 207.3 205.3 199.8 191.1 176 165.9 157 153.9 151.2 149.7 148.5 146.8 145.4 145.4 142.2 136 135.6 139 141.2 140.3 141 141 141.5 145.5 151.7 160.2 167.5 174.4 181.3 186.7 189.1 187.3 185.6 182.9 175.4 167 165.7 160.7 149.5 137.1 146.3 150.4 156.4 158.5 159.2 157.4 155.6 155.6 154.7 153.3 151.3 149.9 150 149.4 148.7 148.3 149 153.2 162.8 177.2 195.6 215.9 232.1 243.6 254.1 264.1 273.4 281.7 285.7 284.8 281.9 280.2 279.7 281.8 285.4 288.9 292.1 295.4 298.6 298 304.8 311.3 316.9 321.7 326.2 332 336.5 340.7 343.2 342.7 340.2 336.9 330.2 319.4 316 315.2 315.9 319.6 325 328.4 330.7 331.8 331.1 329.8 328.7 334.7 330.7 314.7 305.7 304.4 301.8 294.4 289.1 284.2 285 286.6 286.8 286.6 286.1 286.2 287.9 294.4 301.1 303.1 300.2 297 294.9 293.1 292.8 296 299.7 295.1 288.3 277.7 266.8 258.7 255.5 253.9 250.8 248.5 246.3 244.7 243 242.9 243.8 242.6 240.5 238.8 240 238.8 237.2 235.8 237.8 246.4 253 259.1 264.8 269.2 274 280 287.1 293 297.6 300.5 302.9 302.3 299.5 296.7 297.4 296 294.3 293.8 294 294.2 297 297.5 299.7 302.5 305.1 307.1 309.6 312.3 315.3 317.9 320.4 323.5 325.6 331.1 338.2 345.1 353.4 362.4
199.5 199.7 198.3 196.4 195 194.2 199 202.5 202.8 198.1 192.9 185.6 174.4 165.1 159.5 160.1 156.7 151.3 148.7 146.3 144.7 144.6 141.5 134.8 134.3 133.9 137.8 137.2 137 137.8 139.2 144.6 153.5 162.8 171.3 178.3 183.9 188 187 185.3 181.7 170.9 161.4 162.2 158.3 151.6 140.5 139 144.7 148 148.4 148.1 148.1 147 145.2 143.3 142.5 141.6 141.6 142.4 143.8 145.9 148.5 151.4 158.5 164.1 172.4 187.5 207.3 227.1 240.6 252.7 263.1 272.9 281.5 285.7 284.9 282 279 276.9 277.5 280.2 283.7 286.7 288.4 290 291.7 299 305.7 310.8 316.2 320.7 324.1 328.3 332.1 334.5 335.7 335.7 335.6 333.1 326.1 318.6 315.1 312.3 314.6 317.6 322 326.3 328.9 330.3 331.5 333.9 337 340.4 330.2 317 310.9 305.5 301.8 296.6 291.3 286 282.1 284.2 284 282.6 281.6 281.4 282.2 285.2 290.9 294.8 294 294 293.5 293.3 297.3 301.8 296.8 292.3 284.4 275.6 269 256.2 251.7 249.9 247.5 245 245.3 245.2 244.6 246 247.3 247.7 246 244.1 242.4 241.1 238.3 236.4 237.5 248.4 253 259 263.3 267.5 272.9 282.2 289.6 295.9 299.7 302.9 303.1 300.3 297.1 294.6 294.5 292.7 292 292.4 293.1 293.7 294.8 297 300.5 303.1 305.1 307.1 309.5 312.9 315.3 318.1 322 325.2 328.7 332.6 338.9 346.1 354.5 363.7
197 197.1 195.9 194.6 193.1 192.8 198.3 202 200.3 197 194.1 187.4 180 166 164.2 164.1 159.6 153 148.3 145 142.5 142.1 137.2 133.8 133.3 133 133.2 133.8 134.5 135.9 139.5 148.2 159.7 169.4 176.3 180.5 184.2 185.5 185.7 180 168.1 155 154.5 152.3 147.1 140.8 134 139.7 144.9 143.2 139.3 138.4 139.4 138.4 138 139.8 143.8 143.1 143.6 146.6 150.8 156.1 160.1 165.9 172 177.5 186.4 200.4 219.2 238.1 250.5 263 273.1 281.1 285.2 284.5 281.1 277.3 274.5 273.4 275.2 278 280.9 282.8 283.8 285.4 290.9 298.6 303.3 307.7 313 317.5 318.8 321.7 324.1 326.7 329.6 331.6 332.7 332.4 327.2 322.5 317.2 313.4 311.1 314.6 318.3 323.1 323.8 326.1 330.6 336.3 341.6 337.6 327.3 319.3 315.6 305.4 304.1 301.8 296.9 288.3 283.9 281 279.9 278.9 278 276.9 276.6 277.8 281.1 284.1 287.4 289.5 290.9 293.1 297.4 297 290.6 285.3 277.4 270.3 263.9 250.6 250.4 249.5 250.2 249.5 248.5 248 248.9 248.8 249.3 249.3 248.8 247.4 244.9 242.4 239.4 236.8 237.3 248.5 252.2 258.9 261.8 265.6 275.9 284.9 291.8 297.7 300.6 302.5 301.2 298.8 295.3 292.5 291.5 291.6 291.9 292.7 294 295 295.6 296.5 300 303 305.2 307.4 309.9 312.5 314.8 317.2 321.1 326.6 331.1 335.6 341.6 348.2 356.3 364.2
193.8 194.1 193.2 192 190.4 193.9 200.7 205.7 203 199.8 197.3 189.8 180.6 167.5 168.6 166.5 160.2 154.2 148.5 143.3 138.9 138.7 132.4 132.4 132.7 131.8 131.9 131.7 132.8 134.9 142.9 153.9 166.2 176.2 180.1 181 183 184.4 177.1 163.6 151.7 146.8 145.6 142.2 139.8 133.7 135.5 139.6 140 133.6 137.3 144.7 146 144.1 143.2 146.2 151.1 153.1 156.6 162.1 166 171.2 175.2 180.3 185.7 192.2 202.4 215.6 232.2 249.7 262.3 274.2 282.9 286.9 284.5 282 276.6 271.3 268.9 270.2 271.8 274.1 277 279.1 281.1 284.5 288.3 293.2 299.2 303.4 307.9 311.5 312.2 313.9 315.8 318 322 327.3 331.9 331.3 326.6 321.3 315.5 311 307.1 310.2 313.6 315.2 316.5 320.4 326 333.8 336.4 330.1 322.6 320.6 313.3 306.2 304.6 302.7 295.4 290.2 287.6 286.3 280.5 283.5 284.1 282.1 276.8 274.1 273.7 277.3 280.3 283.7 286.1 286.8 289.3 287.8 281.9 276.4 268.5 262.7 254.1 253.6 254.5 254.5 255.7 254.9 251.3 250.4 251 250.8 251.2 251.2 250.9 249.8 247.1 244.3 241.3 238.3 237.5 246.8 251.4 257.1 261.5 268.9 279.2 286.8 293.6 297.5 300.6 300.9 299.3 295.2 291.6 290.7 290.4 291.2 291.9 294.6 297.1 298.5 298 296.7 299.2 302 304.8 307.4 309.5 312 314.4 318.8 325.4 331.5 334 336.9 342.2 350.1 357 364.8
191.3 191.2 189.9 188.7 189.1 198.3 205.6 208.4 205 202.1 197.4 189.6 175.8 170 169.6 164.2 158.1 152.9 146.9 140.1 136.7 134.8 131.5 131.5 132.2 131.4 129.9 130.9 132.3 138 149.1 161 173.6 182.1 181.5 178.7 178.5 172.7 158.6 148.2 142.3 139 137.4 136.8 134 133.5 134.4 134.8 133.6 138.6 147.9 150.6 153.6 154.7 157.6 164.8 170.4 173.7 180.2 186.8 190.6 191.5 190.1 194.7 201.3 209.3 218.7 230.9 247.3 264.3 276.2 285.3 288.7 286.8 282.8 277.1 270.5 265.2 264.3 265.6 267.6 269.8 273 277 282.8 288.3 293.2 294.3 294.5 298.7 302.4 304.7 304.6 306.2 306.4 307.3 314.4 322.6 329 327.2 321.9 315.9 309.7 305.6 303.6 307.5 308.6 310.8 313.6 313.4 317.2 323.5 322.7 319.4 318 317.5 309.5 304.8 303.9 299.5 295.4 293.1 288.9 288 286.3 290.1 292.3 286.2 281.1 277.7 273.8 270.9 273.1 275.3 278.4 279.3 279.6 276.7 272.5 266 256.2 253.7 253 257.5 258 257.1 256.2 253.6 252.4 251.8 252.6 253.1 253.3 253.1 252.3 250.8 248.1 245.7 242.9 239.3 237.1 244.9 252.1 258.6 263.8 272.3 282.1 289 294.1 296.8 298.9 299.3 296.6 291.8 290.2 289.9 290.4 291.2 294.6 298.3 300.4 301.2 299.9 298.4 299 302.1 304.5 307.3 309.7 312.1 316.4 324.1 329.8 333.2 336 339.1 343.9 351.9 358.6 364.2
188.7 187.8 185.3 186.6 196 204.6 210.3 208.6 204.4 201.6 195.4 184.9 167.7 170.7 166.8 160.4 154 150 142.9 136.6 133.1 130.7 130.4 130.3 130.2 129.7 129.7 130.3 133.5 144.1 155.5 168.4 179.3 179.9 177.3 172.8 166.6 153.9 143.8 137.1 134.5 134.4 134.2 131.1 132.8 130.5 131.4 133.3 140.2 151.1 159.7 164.1 168.7 174.7 181.5 191.8 199.3 202.7 206.3 210.8 213.7 213.2 210.6 215 221.5 229.2 237.1 248.8 265.6 279.7 288.7 291.6 289.8 285.8 279.6 270.6 264.8 260.9 258.9 260.9 263 266.6 271.9 277.2 282.7 288.3 292.2 294.1 291.7 291.8 294 294.6 295.1 293.1 289.9 293.7 305.6 313.8 321.4 319.8 313.4 304.5 301.7 301.4 303 304.6 306.3 308.7 309 306.5 305.9 306.3 306.9 308.7 309.7 308 303 301.4 300.9 299.9 299 293.3 291.2 290.7 293.1 298 296.3 291.1 281.4 277.8 274.8 272.2 269.6 268.7 269.2 270.7 267.6 262.9 262.8 260 259.2 259.1 260.4 261.8 261.4 260.4 257.9 255.4 254.4 256.1 256.2 255.1 255.1 254.5 253.4 251.3 248.5 246.3 244 240.1 238.4 237.8 252 261 268.4 276.9 284.1 289.8 293.4 296.3 298 298.7 295.8 291.2 289.5 289.4 290.1 293.2 297.4 301.3 303.3 303.3 303.5 302.1 302.5 303.1 305 307.9 311.3 315 321.8 328 331.9 334 336.6 341.7 347.3 352.9 359.3 364.1
185.9 184.3 183 191.2 202.3 210.7 211.3 205 201.2 197.6 189.2 176.4 164.1 167.5 162.7 156.1 149.4 144.9 137.5 132.4 130.3 129 129.1 129.2 129.1 128.8 129.1 131.6 139.3 149.3 158.5 167.6 172.6 173.4 170 162.5 148.8 138.6 135.4 132.5 131.6 131.6 129.1 131.1 131.5 132.2 134.3 140.2 151.8 165 176.5 185.2 192.1 202.2 212.5 220.6 224.6 226.5 228.8 232.4 233.9 232.7 232 237.3 243.8 252.7 263.7 275 286.2 291.9 293.4 291.7 288 281 272.6 263.5 258.2 253.9 253.8 257 261.6 267 272.3 277.1 283.5 289.8 290.8 287.6 281.5 275 272 272.1 275.4 273.4 276.9 287.3 289.2 303.6 310 310.4 302.6 299.2 300.6 304.4 307.9 312.3 313.8 313.1 310.8 306.2 302.4 300.4 299.6 299.6 299.4 298.5 298 299.5 300.4 300.6 298.3 295 294.5 298.9 303 299 297 287.8 279.9 277.4 274.9 273.2 270.6 268.6 267.4 264.8 267.7 268.4 267.7 266.5 265.6 264.6 266.1 266.7 265.2 263.1 260.4 258.7 258.9 258.6 257.8 257 256.6 255.7 253.8 251.5 248.9 246.9 245.3 243.4 240.2 239.3 250.1 264.1 272.1 278.3 284.5 289.5 293.7 297.2 299.4 298.3 295 290.4 288.8 289.1 290.6 295 298.6 302.4 304.3 305.5 306.3 306 305.6 306 308.2 311.9 315 319.5 325.3 330 332 333.8 337.8 343.3 348.2 353.1 357.8 362.7
182.1 179.8 183.7 196.2 205.2 211.1 204.7 199.5 195.8 189.3 180.2 168.6 163.3 163.5 157.4 151.1 144.5 139 134.6 131.4 129.4 127.9 128 128.2 128.2 128.3 127.5 134.2 142.6 150.1 155.4 160.2 164.5 164.2 158.9 144.3 135 131.8 130.5 129 128.5 128.5 131 136.1 140.8 144.3 147 154.6 170.5 185.2 197.1 210 226 232.7 239 242.2 245.4 249 253 256.8 256.5 254.5 253.4 258.7 268.7 278.8 288 293.7 295.9 297 294.5 289.7 283.3 274.7 265.4 255.4 248.6 248.2 253.3 258.4 264.6 270.6 275.2 278.7 283.3 285.9 282.7 278.4 263.6 249 243.5 255.2 263.2 279.6 294.6 302.7 301.5 290.7 298.5 298.3 297 301.3 309.6 314.8 318.6 321.8 320.9 318.8 315 310.1 307.6 303.4 299.6 298.2 296.8 296.6 296.9 298.3 301 301.8 298.7 297 301.2 304.2 301.5 295.9 291.8 281.9 278.1 276.1 274.1 272.1 271 271.9 271.6 271.3 271.8 272 272.4 271.4 270.4 271.3 273.2 272.4 267.6 264.9 262.1 261.3 260.8 259.9 259.2 258.8 257.8 256.3 254.5 252.7 250.9 250.3 247.9 244.7 241.5 239.8 249.6 264.4 276 281.8 286.6 291.2 296.7 299.8 300.7 298.5 294.6 290.4 288.3 288.8 290.7 295 298.7 301.9 304.5 306.3 306.8 306.9 307.9 309.4 311.7 314.3 316.9 322 326.9 329.8 331.3 334.2 339.7 343.4 347.3 351.1 355.2 359.6
