ncols 200
nrows 82
xllcorner 190000
yllcorner 882650
cellsize 50
104.2 105.2 105.2 105.3 106.1 105.8 107.4 111.7 117 123.3 129.8 127.6 130.3 141.1 146.3 145.4 146.5 145.8 144.9 144.8 145.3 145.6 154 159.1 164.2 167 172.2 176.6 176.6 174.8 173.5 171.8 171.4 168.3 163.4 157.9 152.6 152.6 152.6 152.6 152.6 155.1 157 158.9 156.5 156 157 159.6 161 161.8 163 168.4 171.5 171.9 167.4 166.7 165.3 161.4 161.6 158 156.2 155 153.6 153.8 153.8 153.8 154 153.9 153 153.6 152.5 153.2 156.2 158.7 160.4 160.8 159.9 159.3 155.2 146.6 139.3 125.5 115 100.8 99.2 100.6 101 99.9 99.6 101.8 105.6 110.1 118.4 128.2 134.5 148.1 158.8 160 167 164.9 161.7 168.2 168.7 156.1 149.8 153.7 150.8 150.1 152.5 160.3 171.9 173.3 180.3 177.7 170.5 168.9 165 161.8 161.8 161.8 161.8 161.8 161.8 161.8 161.8 161.8 161.8 161.8 161.8 161.8 161.8 168.8 176.5 191.9 202.6 199.9 195.5 188.5 185.9 190 196.8 200.8 192.8 191.4 197.4 198.2 209.6 226.4 237 239.8 238.3 237.9 238.2 221.6 197.1 197.7 200.3 190.9 186.9 204.6 198.3 182 167.4 150.9 145.5 142.4 141 138.3 142.1 148.1 145.7 139.3 127.8 112.4 101.7 89.4 80.6 76.2 79.5 82 81.6 80.7 79.9 79.8 78.2 82 81.8 80.1 80.5 84.3 102.4 115.1 123.8 168.8 178.4 181.4 173.5 141.3 142.4 149.7
104.1 105.8 104.8 107.3 108.7 112.5 109.7 109.7 114.3 117.1 121.1 122.8 133.4 155.5 160.7 155.8 151.7 146.2 145.2 145 144.9 145.7 150 156 157.8 159.7 164.6 170 170 168.9 167.4 166.1 164.1 161.6 157.7 153.5 152.6 152.6 152.6 152.6 155.6 159.1 159.8 158.4 158.1 158.8 159.4 161.3 162 161.8 162.5 166 171.1 177 171.6 164.1 161 157.3 154.6 153.8 153.8 153.8 153.8 153.8 153.8 153.8 155.1 154.2 153.5 153.1 152.5 152.5 153 157 157.9 157.7 156.6 153.4 149.3 144.1 135.8 126.1 116.9 101.4 100.5 103.4 103.7 102.4 102.4 104.4 107.6 114.6 127 139.5 153.7 170.5 175.1 181.2 186.4 196.6 190.3 177.8 178.6 172.1 170.6 178.1 180.4 170.6 172.9 174.9 177 177.3 178.7 175.2 171.3 169.7 166.1 161.8 161.8 161.8 161.8 161.8 161.8 161.8 161.8 161.8 161.8 161.8 161.8 161.8 161.8 163.9 173.1 182.5 186.7 186 185.8 193.4 198.6 211.4 214.1 205.6 201.2 204.2 204.7 218.9 226 240.8 242.8 243 240.3 238.3 236.9 240.6 234.2 213.9 210.6 207.4 191.4 192.6 194.3 182.4 171 153.7 149.6 143.1 144.7 141.3 141.3 148.5 153.1 155.1 136.7 120.1 110.4 100.6 89.6 77 77.8 81.7 81.7 80.9 79.2 81 82.8 83.3 85.3 83.7 86.5 87.5 101.4 123.8 163.8 183.7 188.8 184.3 164.8 149.3 157.7 166.2
107.4 108.5 108.3 108.9 112.6 113.2 111.5 109.4 110.5 114.1 125.6 131.2 144.4 148.1 152.4 153.9 156 153.3 146.3 145.6 145.3 146.2 146.3 148.6 151.2 158.2 162.7 165.8 166.3 165.1 162.1 159.4 157.3 154.3 153 152.6 152.6 152.6 152.6 154 157.7 160 162.4 159.4 158.7 159.2 160.2 163.2 163.8 164.4 163.4 169.4 173.8 174.1 166.8 161.6 157.6 153.4 153.8 153.8 153.8 153.8 153.8 153.8 153.8 155.1 158 156.6 154.9 153.9 154.3 153.2 156.9 157.5 158.1 157.4 155.7 152.5 146.7 139.3 133.7 125.2 117.3 107 104.8 105.6 106.7 106.2 107.3 108.5 110.6 117.5 129.5 146.9 165.7 184.5 191.2 196.1 200.8 206.4 205.6 198.7 183.8 190.1 187.7 182.1 178.7 176.2 176.4 181.4 183 187.6 187.6 180.1 176.5 175.5 176.1 170.1 168.3 167.7 165.4 161.8 161.8 161.8 161.8 161.8 161.8 161.8 161.8 161.8 161.8 161.8 165.6 174.2 182.2 189.6 198.8 214.6 206.3 204.4 217.8 230.4 231.8 226.2 236.4 242.6 239.6 236.9 244.7 244.7 241.6 239.8 240.9 241.6 245 238 218.9 215.8 206.6 193.6 191.5 179.3 164.8 154.2 152.5 145 141.7 150 146.8 148 151.7 158.7 152.9 130 124.6 111.1 98.4 85.5 76.1 81.3 80.8 80.1 78.7 79.8 81.9 85 87.3 89.4 92 94.5 102.2 132.2 168.7 183.7 188.8 176.8 165.1 161.1 168.3 174.5
105.4 112.4 111.5 112.5 114.6 115.1 115.6 109.2 109.5 116.6 122.3 129.9 142.2 145.6 146.4 148.5 151 153.7 150.4 149.8 147.1 146.3 146.4 147.2 150.8 158.9 161.6 163 163 160.6 158.1 155.9 156.3 152.6 152.6 152.6 152.6 152.6 152.6 152.6 152.6 158.8 166.1 159.4 160.1 163 167.1 165.8 166.3 166.8 168.8 176.3 182 183 175.1 166.5 160.3 156.9 153.8 153.8 153.8 153.8 153.8 153.8 153.8 156.1 158.4 159.2 157.2 155.5 159.3 163 162.7 161.4 160.5 158.4 156.5 153.5 147 140.9 134.9 127.8 122.4 110.6 100.4 109.9 111.8 111.5 111.8 112.5 117.2 121.5 129.2 136.9 148.4 191.7 202.8 211.6 208.8 215.9 219.8 211.8 191.4 180 191.1 188.5 177.2 175.9 183.4 183.1 181.9 190.4 189.8 182.7 179.4 174.3 171.7 169.3 168.6 168.3 168.9 161.8 161.8 161.8 161.8 161.8 161.8 161.8 161.8 161.8 161.8 163.2 175.6 185.2 198.3 207.1 212 211.6 212 216.3 225.5 234.2 236.7 234.2 243.3 246 243.1 241 241.3 243.9 248.5 250.9 248.6 247.8 249.4 253.9 242.1 227.1 216.3 204.8 189.4 179 166.2 155.8 150.9 147.7 142 153.3 155.2 157.1 155.3 155.9 156.3 144.6 136.3 121.5 102.9 91.2 78.1 76.1 77.9 78.4 78.5 81.8 83.9 87.4 91.5 94.6 98.6 106.3 115.1 140.1 165.6 175.7 177.6 175.9 168.8 163.1 178 178
110 113 113.8 114.2 116.9 120 118.8 111.1 110.6 124.6 129 128 134.2 140.7 144.6 145.5 147.8 151.9 152.4 155.6 157.2 152.6 149.8 147.1 151.4 154.1 156.3 158 158.2 157.8 155.9 153.3 152.6 152.6 152.6 152.6 152.6 152.6 152.6 152.6 152.7 162.9 170 173 167.6 164.3 171.2 172.9 170.7 168.8 169 173.6 178.8 182.6 181.6 175 168.6 166.4 158.5 153.8 153.8 153.8 153.8 154.4 154.2 155.8 158.4 159.9 163.6 163.4 163.7 169.4 167.4 165.4 162.8 160.5 157.7 154.3 147.7 140.4 134.6 129.1 122 111.8 102 112.8 115.1 116.6 118 118.8 122.8 128.4 131 139.5 149.8 180.7 204.4 206.2 209.9 214.6 215.2 216 200.6 184.2 179.7 189.2 180 172 180.1 181.4 183.2 185.2 188.9 187.6 178.1 174.4 171.5 169.3 168.1 161.8 161.8 161.8 161.8 161.8 161.8 161.8 163.3 161.8 161.8 161.8 161.8 168.2 182.9 194.7 213.9 229.9 235.3 239.4 233.9 241.4 245.4 241.8 239.6 251.5 255.2 256 258.9 252.8 259.9 265.1 264.8 266.5 264.3 263.8 261.6 256.2 259 243.7 240.7 233.5 208.5 182.5 169.2 160.9 153.5 151.3 153.8 140.1 161.7 161.3 162.6 157.2 155.3 148.1 139.3 126.8 109.8 94.7 80.4 78 78.3 78.3 80.9 83.2 84.8 90.8 92.5 95.7 103.7 123.2 128.6 153 180.2 184.5 180 177.4 173.7 168.1 173.1 177.6
107.2 117 116.6 115 117.3 119.3 117.1 112.3 118.9 128.5 131.3 130.2 133.1 140.7 146.2 146.8 147.8 149.6 153.9 158.9 160.2 161.1 158.6 156.2 156.6 155.4 155.8 155.7 156 154.6 152.6 152.6 152.6 152.6 152.5 154.4 152.6 152.6 152.9 152.6 160.2 163 168 171.5 173.4 175.8 176.6 181.2 176.9 174.4 172.1 171.9 174.7 183.8 179.7 172.6 168.6 166.6 162.6 156.7 153.8 157 160.6 156.9 154.5 155.6 158.3 161.8 166.9 169.2 166.5 172.3 170.4 167.7 165.6 163.5 160 156.5 149.5 141.5 135.5 127.8 120.5 111.8 105.2 110.7 117.2 122 124.4 125.6 129.5 131.7 134.7 147 157.6 187.5 197.3 198.2 197.1 200.8 202.5 200.5 195.8 191.6 180.9 177.1 176.1 169.6 167.4 176.2 182.5 185.2 185.8 180.4 175.6 174.3 172.8 169.1 166.8 161.8 161.8 161.8 161.8 162.4 162.5 162.6 162.6 163.9 161.8 161.8 161.8 172.9 189 205.6 219.2 222.9 223.2 226 224.7 230.9 239.6 248 262.8 259.8 264.5 273 276.3 275.5 277.1 274.4 278.9 276.5 276.5 277 272.1 265.2 262.5 252.9 247.6 241.5 225.8 199.4 176.1 166 164 154.6 148.8 142.4 140.6 154.8 160.2 163.4 160.4 149.8 140.5 131.6 113.4 94.9 82.8 78.5 78.8 79.2 80.1 84.2 87.1 91.7 93.8 100 119.8 136.6 129.1 156.7 185.7 184.7 184.5 175 173.4 171.7 168.1 171.5
108.1 118.1 123.7 120.4 117.4 119 117.7 114.1 123.5 128 135.1 134.5 133.8 134.7 142.1 147.6 151.1 152.5 157.3 159.8 161.6 163.4 164.1 163.3 163.9 160.1 159.9 157 152.8 152.6 152.6 152.6 152.6 152.6 152.6 152.8 152.6 152.6 152.6 162.3 165.7 164.6 169.8 171.9 171.1 174.6 177.7 179.4 176.3 174.2 174.1 173.1 171.1 170.9 169.4 168.9 168.4 167.5 162.4 158.1 154.9 153.5 159.1 156.2 156.4 157.7 159.3 163.9 169.5 169.4 169.6 171.8 172.3 171.1 169.1 166.1 162 157.1 151.7 142.6 133.7 126 117.5 108.6 107.3 109.3 119.8 126.8 129.3 131.5 134.9 135.1 140.9 152.5 163.4 181.7 190.3 192.5 191.4 191.8 192 189.6 188 187.5 181.7 172.4 167.4 167.4 167.4 167.4 180.3 180.3 174.8 170.9 170.9 172.6 173.5 165.6 163.8 165.9 164.5 161.8 164.1 165.3 165.4 163.8 163.3 165.2 165.6 165.4 167.6 176.2 183.4 208.4 231 227.9 219.7 221.6 219.7 220.8 223.1 245.5 255.4 272.1 284.5 290.6 291.2 292.1 290.8 288.1 286.3 288.4 286.1 289.2 282.7 275 266.6 253.1 245.9 240.6 224.1 207.7 186.5 169.2 165.4 166.3 153.2 146.5 144.8 140 154.2 173.5 179 161.9 147 130.6 115.2 98.9 84.1 80.5 78.4 79.2 79.1 82.2 84.9 88.8 94.1 105 125.2 147.2 132.8 157.7 163 165.7 174.3 171.1 172.2 172.1 170.3 171.9
108.4 117.8 126.5 129 121.3 117.7 118.3 116.8 122 130.4 134.7 137.9 137.8 136.7 137 144 150.3 153.3 158.1 162.6 163.5 165.3 166.7 169.6 168.2 165.4 163 160 152.6 152.6 152.6 152.6 152.6 152.6 152.6 152.6 152.6 152.6 152.6 160.6 174.7 173.4 173.1 179.6 178.5 178.9 180.4 176.6 176.5 176.5 175.9 172.4 168.1 165.2 163 165.2 170.6 172.1 165.3 161 156.2 156.8 160.8 163.4 162.3 161.6 160.9 165.1 178.6 184.3 182.1 184.7 183.7 182.6 179 173.9 164.6 159.1 151.7 144.7 134.9 124.8 114.8 108.7 108.2 106.9 122.5 129.9 137.3 136.8 135.3 142.9 145.1 161.7 171.9 177.7 180.9 181.3 183.8 186.1 186.4 184.6 180.9 178 176.4 167.4 167.4 167.4 167.4 171.8 169.4 167.4 167.4 167.4 172.1 171.9 175.9 180.9 181.5 180.2 178.1 175.1 167.8 166.2 165.3 164.2 162.6 163.6 165.3 165.5 167 178.6 185.2 198.6 222.7 239.7 236.1 223.8 219.7 223.9 230.2 246.9 266.5 282.4 296.2 300.6 303.2 303.1 303.7 304.1 301.1 296.8 292.7 294.4 288.3 279.9 266.8 256.9 249.8 235.2 216.3 210.5 200.5 178.1 162.3 161.6 155.6 150.1 148.9 145.6 141.8 167 174.8 164.7 151.2 135.4 117.2 98.7 85.6 82.4 78.6 79.2 79.6 79.7 81.5 85.7 97.5 104.1 129.7 150.8 135.8 142.9 146.6 153.5 163.7 164.7 165.3 170.7 170.6 171.1
110.8 121.7 128.5 133 126.2 120.7 118 123.8 127.6 131.6 138 140.1 140.3 139.5 138.4 139 143.2 149 156.3 161.5 167.9 167.7 168.4 169 168.5 167.5 164.2 161.5 158.8 152.6 152.6 152.6 152.6 152.6 152.6 152.6 152.6 152.6 152.6 152.6 162.6 166.7 173.9 178.9 177.4 175.4 174.1 173.8 174.5 175.5 176.1 169.6 165.3 163 163 163 166.8 166.9 163.3 161.8 161.8 164.1 163.4 162.7 164.1 164.4 162.5 169.2 182.2 186.9 191.1 191.2 191.9 192.5 189.1 181.8 172.2 162.2 153.3 145.3 136.4 127.9 115.4 111.2 111.9 107.9 125.7 133.6 137.6 140.7 139.8 142.8 148.1 159.7 169.1 168.8 169.2 170.3 174.5 178.6 181.4 181.5 180.5 186.3 183.9 178.8 173.2 170.3 172.9 176.5 178.5 174.4 173.1 178 184.9 191.4 193.1 189.3 186.2 185.7 189 185.4 178.9 168.8 165.8 164.7 162.6 163.9 164.5 165.4 171.2 181.8 189.1 204.3 210.2 235.7 243.3 234.5 230.1 222.9 225.8 250.3 267.4 286 307.5 308.5 317 314.9 317.1 318.6 311.8 301.6 295.3 291.9 286.6 276.4 264.1 250.4 242.9 230.9 217.5 214.1 212.7 196.5 169.6 163.8 154.6 152.4 152.4 144.4 136.7 148.3 160.2 159 151.4 134.3 118.4 102.4 89.2 84.1 77.3 79.3 79.8 80 81 86 96.9 109.3 142 152.4 160.8 152.8 145.8 148.2 153.2 157.3 163.1 167.3 173.6 183.4
107.8 121 130.9 133.6 128.2 126.3 125.2 123.8 131.7 139 141.2 147.9 146.1 144.9 148.3 143.1 142.9 150 158.5 162.7 169.3 169.3 169.5 170.9 170.4 168.9 165 162.4 159.1 152.6 152.6 152.6 152.6 152.6 152.6 152.6 152.6 152.6 152.6 152.6 152.8 156.3 164.5 168.4 168 166.2 167.3 168.7 169.8 169.7 166.9 164.4 163.8 163 163 163 163 163.1 162.2 162.1 168.6 169.5 170.2 171 173.8 175.5 171.8 171.4 176.8 189.3 198.4 202.8 201.1 197.1 192.6 185.8 176.7 166.4 155.4 147.3 136.8 127.2 117.5 114.2 111.6 108.8 129.9 133.7 137.4 142.3 144.3 150.1 159.3 162.6 166.3 167.6 167.5 169.8 176.4 179.2 181.1 181.3 182.3 184.7 187.3 185.4 180.3 173.9 173.5 174.9 176.9 177.3 176.8 179.8 184.3 190.9 192.6 192.8 192.7 193.6 194.8 191 184.9 176.2 167.2 166 162.6 164.2 165.6 165.7 169.2 186.6 207.1 202.4 209.7 209.2 231 232.1 228.6 227.4 225 237.9 264.3 281.5 301.6 318.3 325.9 332.2 327.9 326 320.3 310.7 300.5 295.3 286.7 273.3 258 245.4 238 233.4 228.1 223.9 219 216.7 192 174.9 164.2 155.4 152 146.3 138.3 131.7 147.9 145.2 144 133.2 119.2 101.5 91.2 88.7 77.3 79.3 79.8 80 81 87.2 94.2 110.8 150.9 159.3 172.8 167 159.3 154.6 161.9 181.5 179.5 169.5 180.9 198.8
112.8 125.7 129.6 132.6 129.2 129 131 127.2 136.9 149.7 143.8 145.3 148.8 152.4 151.8 147.9 148.7 154.9 159.7 165 167.9 169.6 170.3 171 171.2 170.2 166.5 163.8 158.2 152.6 152.6 152.6 152.6 152.6 152.6 152.6 152.6 152.6 152.6 152.6 152.6 152.6 155.9 158.2 161.7 164.1 166.4 168.5 168.9 168.1 168.4 166.4 165.9 165.6 165 163.3 164.8 166.1 163.5 169.5 178.7 180.9 184 183.9 182.2 184.5 184.7 179.9 181.1 191.9 201.3 211.7 209.7 200.3 194.3 187 179.5 169.2 158 148.8 138.3 127.3 120.7 116.5 113.5 110 129.2 135.9 140.2 143.2 150.3 154 161.6 171.1 179.7 182 189.9 178.6 176.4 180.7 184.5 185.2 184.4 185.5 186.2 186.6 184.4 178.6 176.1 175 176 180.8 184.2 181.1 183.3 186.2 192 194 197.3 201.8 202.8 194.4 190.1 180.2 174.5 174.1 167.7 165.1 165.2 166.1 169 181.3 190.6 199.4 202.4 205.5 208.1 221.7 225.8 224.5 225.7 233.6 252.5 283.4 299.9 314.9 330.9 338.3 332.5 327.1 321.1 313.5 301 293.3 282.7 270.5 256.5 247.3 244.4 243.7 236 228.8 225.1 220.2 208.7 187.9 178.9 168.6 154.5 148.7 139.1 132.4 131.4 134.8 137.8 129.4 113.7 100 90.3 88.2 77.8 79.5 79.7 80 80.8 84.2 94.7 112.6 169.2 177.3 178.8 177.5 174 173.6 175.9 195.4 190.5 178.1 192.7 193.1
117.5 124.8 127.4 130.5 130.4 131.5 139.3 133.8 140 158.1 148.7 146.9 147.7 154.5 154.9 153.9 157 155.2 157.2 160.6 167.3 169.5 170.7 171.4 171.3 170.5 172.7 168.8 162.6 155 152.6 152.6 152.6 152.6 152.6 152.6 152.6 152.6 152.6 152.6 152.6 152.6 155.2 157.2 160.9 164 168 171.1 171.4 170 169.2 168.4 168.3 166.2 169 174.9 173.1 172.2 172 179 177.5 178.2 182.2 183.7 186.6 192.6 193.7 187.2 183.1 187 194.6 203.7 206.8 203 197.6 187.3 180.2 170.9 160.4 151.2 139.2 127.6 120.2 116.4 114.9 113.5 126.2 131.2 137 143.8 149.5 156.5 168.8 179 186.5 195.7 202.4 191.9 184.6 185.3 192 191.2 199.6 189.1 190.8 187.8 182.9 179.4 177.7 181.4 180.1 183.9 183.1 183.1 184 187.1 186.4 190 199.5 202.9 204.6 204.6 195.4 194.6 201.9 190 176.3 170.5 166 168.6 174.1 189.1 200.6 211.7 211.8 207 206.8 209.8 214.3 217.6 229.2 244.8 258 277.8 300.5 314.5 331.6 344.2 344.3 330.2 312.2 304.4 294.2 287.3 279.2 268.6 258.8 263.5 263.3 255.8 247.2 232.9 226.9 226.5 221.6 213.2 184 180.4 174.9 153.3 144.4 136.4 132.4 129.8 132.6 126.6 121.3 102.7 88.1 82.5 79.5 78.8 79.9 80.2 80.9 84.4 97.5 122.2 170.9 184.9 182 179.7 188 187.6 188.7 209.9 203.1 179.8 187.1 189.3
121.9 125.3 126 128.8 130.8 133.5 149.9 140 137.9 152.9 150 148.5 149.7 151.5 156.1 165.2 165 158.2 158 161 165.9 168.8 171.2 171.5 171.6 171.5 175.8 174.9 167.6 154.5 152.6 152.6 152.6 152.6 152.6 152.6 152.6 152.6 152.6 152.6 152.6 155.5 152.2 158.8 169.5 180.1 179.9 177.4 173.5 172.5 170 169.4 175.2 172.2 173.9 175 178.4 178 180.9 187.7 191.1 186.1 184.4 186.7 193.9 199.2 203.7 193 186.6 188.4 190.4 194.9 200.2 201.8 198.1 189.8 182.7 172.2 161.1 151.9 139.9 128 117.7 113.5 111.2 112.7 121.2 127 133.3 139.7 144.5 151.1 176.2 196.9 198.8 198.9 201.2 197.8 194.4 193.9 196.6 202.5 210.1 210.8 196.8 192.1 182.3 180 181.5 190.7 194.6 197.6 196.1 185.5 183.6 184.9 186.9 188.5 196.3 204.2 207.1 208.5 204.9 197.5 195.3 195.5 196.1 191.4 188.2 171.9 180.1 197.1 206.7 210.8 210.3 207.8 206.3 213.9 220.5 228 244.8 249.9 256.7 270 294.6 315.2 328.5 337.5 332.1 325.8 312.6 297.2 286.5 280.2 274.4 268.2 270.6 273.8 272 258.6 255.1 236 230.7 232.4 230.2 223.3 196.2 189.2 191.6 179.8 154.6 142.4 136 130.6 128 125.2 119.9 110.2 95.5 85.5 79.7 79.9 80.5 80.7 80.8 82.7 90.8 120.6 159.6 196.6 175.5 176.2 191.4 200.1 206.3 207.9 209.3 187.5 179 178.5
123.8 126.1 125.9 129.5 131.2 141.3 154.4 145.7 141.1 146.4 150 150.7 151.2 153 160.5 176.4 173.5 167 162.3 160.8 164.2 167.7 169.9 170.6 170.3 170.4 171.7 170.2 164.1 155.6 152.6 152.6 152.6 152.6 152.6 152.6 154.2 153.7 152.6 152.6 155.3 152.2 152.2 164 169 178.8 181 184.6 195.1 183 173.7 176.9 177.7 175.8 177 184.7 185 187.3 187.7 191.4 197 196 191 192.5 198.4 203.9 203 197.6 193.4 191.4 193.5 194.9 196.1 197.6 196.3 191.4 184.7 174 163.5 152.9 141.4 128 116 112.6 112.3 112.8 120.2 125.2 130 134.2 138.4 147.9 173.8 190.5 197.7 202.9 203.1 201.2 200.7 210.8 213.5 213.3 212.2 211.3 201.3 193.1 185.7 180.1 189.2 195.7 200.1 204.4 205.1 197.8 190.5 184.7 187.5 196.4 201.5 203.1 208.6 209.3 207.3 202.3 198 196 199.6 211.1 195.3 197.6 182 203.6 212.9 207.3 204.6 203.9 204.8 212.2 219.2 248.4 255.8 275.7 286.6 276.7 285.3 299.8 311.1 319 310.5 305.8 304.9 299.3 297.1 281.8 267.4 265.5 262.6 262.9 261.1 256.8 250 243.2 238.8 237.3 236.6 223.8 212.6 206.6 198.6 185 176 155.3 141.6 133.1 129.1 126.8 118.2 115.5 105.7 92 78.4 80.6 80.9 81.8 81.8 82.3 85.9 105.2 172.7 190.8 168.7 180.3 195.8 211.8 230 213.4 212.5 181.8 177.4 173.6
119.1 123.9 124.9 127.7 136.2 149.9 161.3 155.2 144.9 147 150.8 154 154.2 163.9 169.7 174.1 179.7 177.4 171.3 163.4 162.4 165.7 168.7 168.5 168.2 169 168.2 164.5 163.3 154 152.6 152.6 152.6 152.6 152.6 152.6 152.6 152.6 155.6 153.7 153.9 158.3 174.1 176.1 173.8 175.4 179.7 181.1 183.8 180.2 176.8 181.6 184.7 180.8 178.7 182.6 186.3 189.1 191.8 192.6 194.8 195.9 198 197.8 200.2 203.9 205.6 202.6 198.2 195.1 195.7 196.4 196 195.3 192.7 188.1 181.8 174.2 165.9 153.6 141.9 127.7 114.3 113.2 112.3 111.6 119.3 124.1 127.2 131.7 135.5 142.9 167.5 183.2 195.6 201.6 203.6 203.7 202.3 207.2 216.3 218.8 221.4 215.8 203.9 194.8 186.3 190.9 186.9 194.1 198 198 201.3 200.9 201.4 194.1 192 196.7 205.1 209 207.1 209.1 214.3 211.9 206 199.6 206.6 215.6 217.8 202.1 196.1 199.7 206.1 200.9 199.2 202.6 206.9 210.8 214.5 233.2 257.2 276.1 289.2 301.9 319 321.3 316.9 307.6 305.9 307.8 313.4 313.6 304.5 293 287.9 274.3 273.6 267.8 253.9 243.2 240.8 246.3 250.8 246.8 241.1 226.5 233 221.9 215.6 199.7 191.4 179 155.1 139.2 130.7 124.5 125.1 117.5 109.3 94.5 78.4 80.9 81.7 83.1 83.4 83.5 84.7 95.6 133.4 161.4 158.9 185.8 210.7 219.3 236.1 212.9 189.4 177.1 178.2 172.4
118.5 119.7 120.7 128.8 139.8 156.3 168.5 159.3 147.5 151 153.4 155.6 157.9 162.6 172.8 175.4 174 174.7 170.7 165.7 163.2 164.1 168.4 167 164.3 164.4 164.9 160.9 158.8 155.1 152.6 152.6 152.6 154 158.2 161.1 158.5 156.4 157.4 155.6 162.9 173 180.9 181.9 185.4 186.6 184.8 181.2 180.8 178.3 178.1 180.8 182.2 181.6 180.8 184.6 186.1 190.3 196.4 194.8 194.5 196.1 199.9 202.7 204.4 205.5 207.5 206.2 200.9 198.1 199.1 198.6 196.5 193.4 189.4 184.6 179.7 174.4 168.3 153.8 141.2 127.4 117 113.9 111.8 111.3 117 122 126.7 130.7 135.7 141.6 156 179.7 196 204.6 207.8 213.8 214.6 210.4 214.3 219.1 227 228 211.3 195.6 200.2 199.8 196.3 193.3 202.1 200.4 198.5 201 202.8 201.5 199.8 200.5 205.1 212.4 220.8 218.8 219 218.4 216.1 217.5 221 223.4 220 214.7 201.3 187.8 192.8 196.9 201.4 205 205.3 207.5 215.9 231.2 245.7 265.3 284.9 302.5 326.7 332.3 331 327.3 323.4 310.5 314.5 312.9 308.9 301.4 294.3 282.5 273.7 266.2 253.8 245.1 235.1 233.4 245.9 246.1 238.7 232.2 234.1 229.4 217.9 210.9 194.9 197.8 184.2 154.6 135.2 126.5 127.7 121 109.5 94 78.4 81.8 83.1 83.8 84.5 85.1 84.4 85.4 106.9 133.4 144.5 182.6 214.7 217.6 222.7 200.1 182.4 176 180.6 170.5
119.1 117.3 118.7 130 145.8 165.7 172.2 167.5 154.9 155.5 156.7 158.1 162.6 168.1 171.1 173.2 171.3 169.7 169 165 163.8 163.8 167.3 168.4 163 159.8 160.7 155.4 154 152.6 152.6 152.6 152.6 156.7 160 167.1 170 160.7 158.3 163.3 168.8 184.1 190.7 190.1 189.1 189.3 191.7 183.9 181.7 179.9 184.6 184 182.4 182 180.8 180.6 185.1 189.9 194.6 195.2 195 195.9 200.3 208.3 211.6 209.6 212.1 210.9 204.5 201.4 204.4 207.9 202.2 197.3 189.6 183.7 180 174.9 167.7 156.2 140.5 127.1 118.4 114.2 113.3 111.2 112.3 122.9 128.9 132.1 138.8 145.3 154.9 172.5 196 203.5 209.6 216.7 224 216.7 216.5 217.7 220.3 223.4 222.1 223.6 213.2 205.1 203.8 208.6 203 202.8 200.2 203.6 209.2 210 209.6 210.9 207.8 213.5 221.9 230.2 228.9 231.7 227.5 236.6 241.4 236.1 233.5 224.1 207.6 196.2 196.5 202.6 204.5 206.7 208.3 207.9 212.1 236.4 251 255.8 274.9 306.7 330 332.4 339.2 335.8 331.7 327.1 321.5 323.4 315.6 303.7 295 285.7 278.4 261.7 252.2 246.7 243.8 239.7 232.7 230.7 225.6 227.8 227.5 222.4 211.1 203.7 200.1 201.3 193.2 171 141.1 128.7 119.9 121.3 108.6 93 79 82.1 83.4 84.4 85.3 85.9 85.9 84.8 87.8 107.3 124 162.5 198 211.4 198.2 188.1 177.6 174.1 172.1 169.9
119.7 117.3 119.6 136.6 162 167.9 186.1 176 166.5 159.6 161.5 177.4 181.1 183.1 176 172.8 171.9 169.3 167.7 167.6 166.5 165.4 163.3 162.7 159.4 155.2 154.3 152.6 152.6 152.6 152.6 152.6 152.6 158.6 161.2 171.3 176 179.1 179.1 177.8 178.2 186.2 193.8 194.2 192.8 191.3 190.3 189.2 184.4 183 184.8 185 184.5 182.3 181.1 180.7 181.9 189.4 193.6 196.6 195.7 195.2 201.8 207.7 212.8 212.5 213.6 212.8 207.2 206.8 210.3 212 209.2 201.3 191.3 184.3 180.6 176.4 165.8 156.7 143.4 127.3 122 116.9 115.9 114.7 115.7 124.4 131 134.9 137.3 141.4 153 168.3 182.6 193.5 206.7 211.4 215.4 216 217.2 218.5 221.1 223.5 224.6 223.8 220.8 215.3 214.2 213.4 206.6 205.1 206.4 207.3 215.5 221.4 222.4 223 219.3 220.4 225.1 233.2 245.7 249.3 251.2 239.6 240.8 239.9 234.7 227.1 219.7 208.1 200.9 204.3 208 208.5 213.8 207 214.4 237.1 257.7 262 270 297.5 321.6 333.2 340.4 344.4 339 335.2 326.3 324 319.1 308 295.8 289.6 278 263.8 254.5 248.6 246.4 242.4 242.2 235.6 228.1 229 226.4 225.1 224.2 211.9 202 199.7 199.9 187.7 167.8 137.9 122.4 112.4 107.1 93.9 79.6 82.3 83.4 84.2 85.5 86.5 86.6 86.1 86 90.2 106.5 126.8 148.5 169.5 175.9 176.9 169.1 169.3 170.2 171.5
120.9 118.5 124.5 146.6 173 174.5 194.6 201.2 174.4 164.8 166.4 180 190.1 192 187.2 175.7 169.5 166.3 165 164.8 165.3 166.1 163.5 159.6 155 152.6 152.6 152.6 152.6 152.6 152.6 152.6 161.5 165.8 164.4 165.8 183.9 190.5 187.7 189.8 189.3 188.4 193.1 199.5 196.3 195 194.4 190.5 187.2 186.1 184.6 185.3 186.7 183.9 182.6 182.5 184.1 185.1 189.5 193.3 195 197.3 203.7 209.7 211.2 212.3 213.8 211.9 210.2 212 212.2 212.1 209.3 204.9 196.4 189.8 180.1 175.7 165.4 156.3 145.5 131.6 124.6 119.1 117.6 116.2 117.2 126.7 133 136.3 137.9 141.7 149.9 164 176.1 186.4 196.5 206.1 212.6 214.5 217.2 221.7 225.4 226.4 226.5 225.3 222.5 218.9 216.2 211.9 208.8 209.6 217.3 219.9 218.2 224.4 227.6 236.8 242.2 232.7 229.1 236.6 249.7 261.5 266.4 262.3 257.1 247.6 234.6 229.8 222 218.3 205.8 206.5 212.5 210.7 210.9 210.7 216.4 230.6 250.1 267.9 271.8 287.6 320.4 337 341.4 343 343.7 342.9 328.7 329.1 321.6 310.1 299.8 291.2 278.2 267.3 256.9 250.3 251 252.4 245.5 232 227 226.4 227.7 224.2 233 229.2 211 212.3 202.4 196.3 175.1 164.9 132.1 108.6 101.6 91.5 79.4 81.8 83.3 84.4 86.1 87 87.1 87.3 86.6 87.2 92.5 108.8 125.3 139.2 164 170.1 158.2 172.4 185.9 183.6
121.3 120.2 133.1 157.2 172.7 183.3 199.2 208.8 177 166.3 184.9 182.6 182.1 188 191.5 181.9 170.7 164.6 160.8 157.3 162.5 160.2 160.5 159 153.5 152.6 152.6 152.6 154.5 152.6 152.6 154 166.8 169 166.5 172.1 185.2 191.5 188.8 186.5 185.9 191.9 199.3 204.2 203.3 196.7 194.8 191.5 189.1 190.2 186.7 185.7 186.8 185.7 184.4 184.5 185.2 187 189.5 192.7 195.8 199.2 206.4 213.1 213.4 212.8 212.7 212 211.6 212.4 213 217.1 212.5 206.6 204.7 194.9 180.8 172.2 163.1 152.1 142.6 134.7 126.2 121.6 121.3 118 120.6 127 134.2 137.8 138.6 143.8 149.2 156.9 170 180.2 190.9 201.2 209.6 213.8 217.3 221.7 227 235.5 237.4 240.4 231.7 221.3 218.9 221.1 218 213.2 215.9 221.1 222.5 224.9 238.3 242.8 249.1 247 239.8 239.3 246.9 260.1 260.7 259.9 265.4 254.5 245.3 240.3 231.3 221.2 211.4 210.7 214.1 213.7 212.3 214.1 218 233.8 247.7 260.3 265.1 281.8 304.9 332.1 345 354.1 351.1 348.7 332.2 330.7 323.8 313.3 301.3 289.8 281.8 273.6 264 258.2 259.3 251.6 238.5 229.4 225 225.2 225.3 223.3 228.4 245.5 244.6 221 216.4 201.8 206.9 188.9 163.9 116.8 97.8 87.7 80.4 80.8 82 84 86.2 87.3 87.5 87.6 87 87.8 90.1 101.3 111 128.6 153.3 161.9 150.1 168.3 184.8 183.7
123.5 125.8 145.5 161.9 186.8 194.4 204.2 211 184.2 170.5 186.5 190.4 192.7 191.1 189.1 181.5 171.4 164.7 161.6 157.7 155.6 156.5 155.2 153.8 152.6 153.8 155.1 158 155.8 155.9 156.9 162.5 168.2 174.9 172 177.4 187.6 191.3 189 185.9 193.3 197.9 206.3 206.5 201.9 196.7 193.8 192 191.5 194.7 191.7 188.1 190.3 187.9 186.2 186.4 186.8 189.7 192.1 194 196.8 200.3 204.1 208.4 212.1 216.2 214.5 212 211.7 211.8 210 212.5 213.2 209.3 205.9 198.3 184.1 170.7 162.8 153.2 143.2 134.1 126.7 123.8 122.3 121.3 123.4 129.9 135.4 141.1 140 142.3 149 155.3 163.4 174.9 185.9 197.2 207.4 213.6 216.2 219.4 236.2 249.6 241.5 240.4 237.7 233.4 229.1 225.5 223.3 221.6 219.4 221.3 226.5 233.6 241.7 252.1 257.6 252.3 251.1 245.4 246.9 251.4 258.1 258.4 261.1 264.7 252.8 247.5 243.7 233.6 215.7 214.9 216.3 214.9 212.9 214.4 226.3 246.3 253.9 252.5 259.9 271.1 292.9 321.8 336.8 353.5 351.6 347.8 335.6 330.6 324.3 315.1 298 288.3 286.1 282.7 272.5 264.3 262 249.5 231.6 226.1 225.2 223.3 223.3 230 234.5 246.1 249.4 231.3 217.6 213.4 211.6 208.3 179.3 140.3 104.9 87.8 81.2 81.7 81.8 80.3 83.9 85.6 87.5 87.7 87.9 88.4 89.6 96.2 102.2 114.7 135.3 146.3 138.6 156.2 170.8 175.9
130 137.2 160 167.4 193.3 202.6 214 210 192.6 175.3 184.1 188.4 191.7 191.8 190.8 182.3 172.4 166.1 160.6 158.2 155.4 153.7 152.6 152.6 152.6 154.1 158.5 158.1 156.2 156.1 159.4 165.3 169.1 171.6 185.1 180.1 184.9 187.5 187.7 187.7 202.5 205.4 206.6 203.2 199.8 198.8 196.3 194.6 192.8 190.4 192.3 192.3 196.6 200.1 197.4 189.5 189 190.9 193 195.7 199.9 202.1 205.3 208.1 209.1 210.9 212 211.9 210.5 209.2 208.4 209.8 212.9 209.4 203 197.4 188.9 172.1 160 148.3 142 133.3 126.3 123.2 121.8 120.1 124.4 129.4 136 143.1 143.7 144.5 149.5 153.5 160.3 171.1 181.6 193.7 204.9 212.4 215.7 222.2 237.3 250.4 246.9 241.4 239.9 238.5 235.8 230.6 227.8 225.4 222.4 226.5 236.7 239.8 244.3 249 254.9 261.1 258.2 254.1 250.7 254.7 256.8 257.7 256.5 257.2 254.3 252.6 245.6 238.6 223.5 216.6 217.7 216.1 214.7 213.3 221.9 234.8 243.3 244.5 251.3 266.4 286.8 315.6 327 343.6 345.1 343.8 335.4 333.2 326.1 314.2 301.6 290.3 293.3 286.9 272.2 266.8 260.7 244.8 236.1 240.9 240.8 241.7 244.6 250.8 250.7 250.8 264.7 264.7 244.2 223.2 225.5 220.7 200.8 169.4 121.9 91.7 82.2 82.4 82.6 82.7 81.8 80.3 85.6 87.6 88.2 88.9 90 91.5 95.5 106.3 119.6 128.6 130.3 148.6 157.3 165.9
138.4 144.5 163.1 183.4 201.6 212.4 223 216.7 198.6 175.4 183.2 184.8 184.9 182.7 181.3 177.8 170.4 166.2 160.6 158 155.4 153.6 152.6 152.6 152.6 155.1 159 158.1 157.2 156.5 160.6 163.7 169 170 182.4 183.7 184.2 186.6 185.9 188 198 202.2 202.9 206.6 202.1 201.2 201.2 198 195 192.9 192 192.9 196.6 202.4 204.8 194 194.6 194.4 194.7 197.1 201.1 201.7 206.8 207.1 208.6 210.2 211 211.1 210.1 207.8 206.6 206.8 211 206.9 200.7 195.9 185.7 169.4 153.5 146.5 145.8 135.3 125.8 121.4 120.2 120.1 122.2 129.7 140.7 144.6 145.5 147 149.7 155.5 162.2 170.5 180.5 190 201.6 209.9 216 232.5 254.1 265.4 261.1 248.7 241.8 240.1 238.4 233.8 229 227.3 233.7 240.3 243.5 244.9 247.4 250.7 253.3 257.6 259.5 258.9 256.9 256.2 257.9 257.3 258 256.4 251.9 252.7 252.1 244.2 232.1 219.9 218.5 217.1 215.2 211.4 218.3 226.2 232.2 238.7 256.7 258.8 280 317 328.8 336.5 343.2 341.7 334.5 330.3 324.9 314.7 302 291 288.5 277.7 273.8 270.1 257.9 246.5 255.5 261.9 262.7 262.9 262.5 264.2 258.2 266.3 263.5 268.5 275.5 265 237 228.5 216 196.6 156.8 105.1 86.1 82.4 83.1 83.2 83.7 83.1 80.3 86.5 88.3 88.7 90.2 92.5 94.5 97.8 103.2 108.9 122.7 137.8 145.7 156.4
151.2 155.6 184.4 198.2 210.9 223.6 229.4 222.6 202.4 182.3 190.1 185.1 184.7 178.6 175.9 172.2 167.2 164.3 161.9 158.8 156.2 153 152.6 152.6 152.6 162.6 165.4 161.4 158.4 156.5 166.7 165.3 164.3 173.1 178.2 184.3 185.6 188.3 189.4 191.3 194.1 201.6 201.1 205.2 205.1 204.2 203.4 201.8 202.6 205.7 195.6 195.1 195.9 199 197.3 193.6 190.2 192.5 195.5 198.1 202.1 197.6 202.7 208 209.3 211.1 211.8 210.8 208.7 205.9 205.1 205.6 206.2 203 198.7 194.4 182.3 170.3 152.9 154.6 151.8 137.3 127.8 121.6 121.1 118.9 121.4 130.4 141.8 145.5 146.8 149.5 151.2 156.2 163.4 170.1 178.8 187.7 197 206.1 214.9 227 252.9 261.4 256.1 251 246.1 243.4 242.7 238.2 235 236.6 238.3 245.5 251.6 253.5 259.9 258.3 259.8 259.1 262.8 265.6 265.8 266.4 262.1 265 261.8 259.5 259.1 254.8 254.9 252.4 237.4 225.7 221.5 218 215.9 212.6 217.8 226.9 232.6 242 253.8 262.9 280.7 313.7 337.8 346.9 340 336.8 327.2 325.2 327.5 314.7 298.6 291 287.6 281.4 278.7 276.5 261.3 267.9 283.1 283.4 281.9 275.7 280.9 278.9 269.2 267.7 270.2 272.8 274.4 282 272.6 239.8 222.9 200.4 172.2 120.2 92.9 83 83.3 83.8 84 84.1 82.3 82.4 81.6 88.2 89.3 90.4 93.3 98.1 98.8 99.3 109.5 119.9 129.4 140.6
158.7 171.5 194.2 205.8 223.1 231.2 237.7 226.6 204.1 186.1 192.8 188.4 186.7 178.2 170.7 166.3 163.9 163.5 161 159.4 156.9 152.6 152.6 152.6 155.3 162.4 164.9 163.1 159.8 156.8 165.2 170.5 165 184.8 181.8 182.4 190.1 194.4 196.5 195.1 195.9 200.4 200.3 201.2 202.5 201.9 201.2 196.6 203.3 213.4 202.8 198.5 196.6 195.7 192.9 193.5 190.2 190.2 194.4 198.7 201.6 197.6 197.6 208.3 212.1 214.4 213.6 211.2 210.8 206.6 206.7 204.6 203.5 200.2 196.1 189.6 181.7 167.9 160.5 154.8 149.8 140.4 129.1 122.1 121.2 119.8 121.6 131.1 139.6 144.5 148.6 152.4 155 158.3 164.5 168.3 174.8 184.1 192.1 202.4 212.6 226.9 239.4 248.3 249 247.4 246.6 249 247.5 249.7 252.4 247.7 243.3 257 266.2 274.9 279.1 273.6 274.9 273.3 272.7 273.4 271.3 268.6 265.9 269.2 265 259.4 257 258.1 255.7 255 248.4 232.2 226.2 219.2 217.1 214.9 217.2 229.8 234.9 245.6 254.3 265.4 285.4 307.1 330.8 345.9 345.5 334.9 322.7 320.9 320.5 308.9 301.6 298.7 296.6 290.3 285.5 275.3 266.2 281.2 289.9 289.7 289.7 288.6 287.9 287.9 277.5 269.2 270.3 272.6 274.2 276.9 282.8 266.1 229 209.1 170.8 133.9 107.5 86.8 83.7 83.7 84.3 85 83.4 82.5 83.8 83.9 84.5 87.5 89.4 94 92 92.8 97.5 104.5 115.4 126.7
151 181.6 198.9 221.6 229.4 235.9 239.2 229.7 206.5 193.2 195.1 191.7 193.8 190.1 167.7 164.1 160.6 159.5 159.7 158.7 154.7 152.6 152.6 152.6 158 162 163.9 163.4 160.3 158 164.9 170.5 171.5 181.5 182.1 180.8 184.4 198.7 209.8 205.1 199.4 199 198.8 200.8 200.7 197.3 194.5 194.5 197.6 202.4 205.7 202.2 197.9 196.9 196.1 194.2 192.9 192.9 190.2 196.7 201.6 197.6 197.6 206.8 212 211.2 210.6 210.9 205.5 204.9 208.4 206.7 203.7 196.5 193.4 187 182.3 170 160.3 155.7 150.1 141.1 131.5 123.2 122.1 118.9 121 129.7 139.3 144.1 147.9 153.9 159.8 161.1 164.9 167.8 172.7 180 188.5 197.1 208.5 223.3 237.4 243.1 244.9 244.8 245.9 246.9 246.7 252.6 263.5 259.9 270.9 274.2 282.6 287.1 288 286.2 290.8 289.3 284.3 277.7 273.6 273.1 268.1 268.1 268 261.7 255.4 255.9 256.2 255 248.9 238.7 227.1 220.8 217.7 216.7 217.9 235.1 240 247.1 261.6 274.9 286.6 298.1 308.2 324.2 338.2 334.7 330.5 323.1 313.1 306.6 305.7 309.9 304.4 287.8 279.6 274.9 278.9 291.6 290.6 299.3 300.3 302.2 298.7 296.9 288.9 279.7 277.8 276.1 275.5 275.6 272.8 273 252.9 214.8 177.3 146 119.6 94.5 85.7 84.5 84.6 85.4 84.7 83.6 84.6 86 85 82.6 83.1 85.7 87.1 87.4 90.4 93.4 103.9 113.8
150.6 183.5 218.5 225.7 234.9 239.7 233.8 223.1 207.6 192 194.8 193.8 194 186.6 171 166.5 160.7 156.1 155.2 152.6 152.6 152.6 152.6 153.2 155.4 159.4 159.1 158 158.6 159.5 164.8 178.3 183.7 184.5 183.4 181.5 180.9 185.7 196.7 209.1 207.6 204.9 198.5 196.6 196.7 196.1 194.5 194.5 195.4 199 205.6 203.8 201.4 198 197.7 197.5 196.4 195.9 195.9 197.3 201 203.8 203 202.7 204.7 207.4 208.2 209.1 205.5 204.9 204.9 206.4 205.1 196.3 188.3 184.3 179.7 169.9 160.9 157.4 151.9 144.5 134.4 125.5 121.5 118.9 121.1 129.7 141 144.2 151.3 157.9 160 162.1 163.9 167.2 172.5 178.3 186.2 195 205.8 221.4 231.4 237.8 240.6 241.7 243.3 243.7 245.2 248.7 258.2 266.4 279.2 284.1 291.1 296 305 299.9 302.1 299.7 289.9 283.1 280.1 276.4 271.7 271.2 270.3 264.7 258.3 256.1 255.1 254.4 251.3 239.9 225.8 218.8 216.3 214.8 214.6 230.9 240.6 244.2 252.2 277.2 279.7 284.9 289 303.5 324.1 328.4 336.6 333.8 319.8 310.8 313.4 306.5 294.6 287.6 282.6 290.1 297 299.8 300.6 300.8 305 311.6 311.9 303.1 299 289.6 290.4 284.6 277.2 277.7 265.9 261.8 258.6 229.3 201.3 154.9 130.1 103.6 90.4 86.5 85.3 86.1 84.4 83.6 85.6 89.1 88.9 88.8 89 85.5 83.4 83.4 86.8 89 91.7 103.4
149.6 188.8 216.9 224.6 234.2 233.1 230.7 223.8 206.2 187.3 193.1 192.9 197.5 183.4 172.1 166.7 159.9 154.9 152.6 152.6 152.6 152.6 152.6 153.5 153.6 154.4 154.7 155 155.5 159.3 165.6 184 191.7 190.9 191.5 183.4 180.7 181.7 189.5 196.2 198.4 198.6 195.1 191.2 191.2 192.8 196.7 194.5 197.4 207.7 203.4 203.4 204.8 202.3 198.1 200.6 200.6 196.1 196.8 197.5 197.1 199.2 201.3 200.8 201.4 204.6 207.9 209.9 212.7 213.8 204.9 205.2 203.6 193.3 185.8 180.8 176.3 168.9 161.3 160.6 156.4 142.1 135.8 128.5 120 119.1 122.5 131.4 143.3 147.8 149.3 154.3 161.2 161.7 163.1 165.9 171.6 176.6 185.2 194.2 203 214.9 225.2 232.8 236.8 239.6 243.3 245.4 247.6 248.2 253.8 264.3 283.2 290.6 295 299.6 310.6 308.2 313.7 307.8 301.9 297.3 291 284 279 275.6 272.1 267.9 264 259.2 254.4 250.9 249.6 239.7 227.4 215.1 215.5 215.7 215.5 224 236.8 248.6 252.9 257.7 274.5 279 286.5 290.7 309.8 324.5 334.1 327.2 320.5 308.8 306.3 299.9 293.7 289.4 286.3 306.1 309 314.9 313.3 310.5 311.3 319.2 322.2 314.3 310.4 296.6 290.8 284.4 275.6 271.4 268.7 265.4 252.2 230.2 208.4 166.8 138 111.5 93.1 89.4 86 86.5 85.7 85.4 86.6 89.2 90.5 89.8 90.9 91.3 85.9 88.1 86 83.8 86.8 92.1
159.6 190 205.8 220.8 229.6 226.5 225.8 221.4 213 187.2 191.5 188.2 183 174.2 170.7 164.1 159 153.8 152.6 152.6 152.6 152.6 153.4 152.6 152.6 152.5 153.5 153.7 156 162.6 169.2 178.2 192.6 194.3 196.3 195.2 190.4 182.3 183 185.1 189.4 191.2 192.3 193.6 191.2 191.2 194.2 194.5 194.5 198.7 200.4 203.8 203.4 205.3 199.9 197.4 196.1 192.9 195.5 197.4 196.4 193.9 194.8 193.9 199.8 200.8 205.5 214.8 218.1 216.8 212.2 209.6 199.1 187.6 182.3 178.2 173.6 169.2 167.5 167.1 156.4 143.5 136.5 128.3 121.3 121.9 125.9 135.6 146.9 150 151.1 152.5 155.3 158.8 162.7 167.7 171.1 174.7 180.4 191.1 198.8 208.2 218.6 227.2 232.1 237.2 246.5 250 251.5 255 258.5 265.8 274.4 283.2 289.9 301.7 311.3 314.1 317.5 313.8 311.9 313.4 303.8 294.9 290.2 283.7 278.3 271.9 268.3 263.5 255.5 251.4 248.9 243.2 230.8 217.8 215.5 217.4 219.2 228.5 235.3 244.5 249.7 257.1 262.7 269.5 277.7 286.5 301.7 320.8 322.7 317.7 311.7 311.4 300.7 297.8 293.1 292.5 305 309.7 309.1 308.4 308.5 314.7 318.9 321.3 322.5 319 310.2 298.1 295.2 283.2 275.1 271.5 267.7 269.4 254.9 226.5 204 172.9 148.5 123.7 99.2 89.7 87.1 86.8 86.7 84.5 88 89.4 90.6 91.9 90.3 91.5 94.3 100.9 98.1 90.7 83.4 86.2
158.7 178.5 196.2 211.1 221.2 224.6 228.2 213.2 205.1 184 183.9 182.1 174.9 167.6 166.1 162.7 157.8 152.6 152.6 152.6 152.6 152.6 152.6 152.6 154.4 153.3 153.5 152.2 154.6 163.8 166.8 171.7 188 192.8 194.8 199.7 200.7 197.2 193.8 183.8 185.1 189.1 191.1 193 197 192.8 194.9 198.2 197.5 196.7 197.5 198.8 199.9 197.2 195.6 194.9 196 192.9 197.4 199.7 199.4 193.9 193.9 193.9 193.9 198.6 204.4 210.4 215.7 213.4 210.9 205.5 196.2 184 175.6 174.7 174.2 176.2 170.2 172.2 159 143.8 137.9 132.6 124.8 123.3 127.6 135.8 146.5 151.5 154.2 156.5 157.9 160.1 163.9 167.4 171.5 174.4 179.1 185.7 193.9 201.5 211.1 220.7 226.7 231.4 242 253.6 257 261.4 268.7 277.7 280 287.9 295.3 310.5 316.9 323.2 324.8 328 321.2 317.7 314.6 305.6 299.6 291.7 286.1 278.5 276.7 273 263.2 255 250.7 244.9 235.5 225.6 216.6 222.2 240.7 236.1 238.6 250 263.3 267.1 270.1 270.8 274.4 284.7 296.6 314.8 315.6 306 304.5 304.9 296.2 292.4 290.4 290.9 298.1 305.5 309.2 320.7 321.7 322.9 326.9 327 322.3 322.5 306.9 298 295.7 302.6 294.4 280.8 278.5 285.5 263.6 231.9 214.1 183.6 156.4 131.4 106.1 92.9 88.6 89.2 88 85.3 88.3 90.3 91.1 92.2 91.8 91.6 94.7 116.6 121.7 103.2 92.4 85.3
153.4 166.1 181.6 195.7 212.8 219.7 215.8 208.2 200.2 185 182.8 178.5 170.7 164.7 163.2 162.5 157.8 154.9 155.2 154.3 152.6 152.6 152.8 155.3 155.7 158.4 154.6 154.3 153.1 161.3 164.5 170.8 178.6 187.9 191.9 197.4 199 198.3 197.9 197 189.1 182.6 183.4 186 190.1 192.1 192.1 194.8 193.1 194 194.6 195.6 195 193.7 192.9 191.1 191.1 192.2 195.4 195.1 200.5 193.9 193.9 193.9 193.9 193.9 199.6 203.7 209.4 207.5 206.2 199.1 190.6 180.6 174.3 174.4 171.9 175 170.8 163.4 150.5 147.9 140.3 132.7 127.8 124.5 129.9 139.4 148.8 152.7 156.6 159.6 160.4 163.7 166 168.9 171.5 174.1 177.4 185.1 190.9 198.3 203.7 214 221.3 224.1 233.6 250.8 255.3 264.5 278.5 280.9 286.4 294.6 306.3 319.9 330.9 333.6 334.6 332.7 330.4 325.9 323.2 320.9 310.7 303.7 294.1 287 282.8 277.1 266.7 258.1 253.8 248.4 243.6 233.1 221.5 226.6 242.9 240.8 239.5 251.8 263 267.8 276.4 285.1 281 283.5 295.6 312.4 306.2 301.3 297.3 296.8 291.4 286.9 285.5 292.1 305.6 314.2 341.2 342.4 344.2 338.6 344.2 343.2 338.7 329 321.7 311.5 309.6 312.5 295.7 287.2 283.2 292.7 271.3 242.3 220.9 183 162 139.3 114.9 96.7 90.9 90.3 88.7 88.3 88 90.2 90.9 92.8 92.4 92.7 97 117.4 136 126.8 103 96.8
152.3 165.7 181.5 190.4 205.7 208.9 207.1 212.1 201.5 188 186.6 179.1 170.2 166.4 164.8 165.5 163.7 167.6 162.7 158.2 156.6 155.2 158.8 158.7 157.9 159.1 157.6 159.3 157 157.8 164.6 170.4 174.4 179.3 190.2 198 198.5 198.6 196.7 195.6 192 185.8 182 182 183 186.8 187.9 189.2 189.2 192.5 193.8 197.9 195.6 194.7 194.3 194.5 192.6 190.8 190.4 191.1 192.5 196.3 193.9 193.9 195.6 198 198.8 201.7 204.9 205.3 203 193.5 184 176.7 177.8 171.9 170.6 169.8 162.6 150.7 147.9 143.6 141.8 134.9 131.9 127.8 136.6 146.1 147.6 153.6 156.9 159 161.8 165.4 164.5 165.2 167.3 170.4 175.4 181.5 186.4 194.7 200 207.8 217.4 219.9 224 233.4 244.9 258.7 271.4 282.5 295.9 313.1 321.3 334.9 340.7 342.3 340.2 337.8 338.3 341.4 334.5 327.6 319.4 308.1 299.3 295.1 298.8 285.7 273.8 262.4 249.8 244.9 240.6 235.7 225.6 226.8 237 238.9 242.4 248.1 258.6 261.8 272.4 288.6 287.6 284.3 285.3 297.7 296.3 291.4 289 286.2 283.2 281.3 292.5 314.3 319.2 345.3 360.1 361.1 356 362.4 357.8 354 344.1 344.1 336.3 323.6 317.8 312.6 303.3 295.1 288.6 285.2 280.8 252 220 181.4 163.1 143.2 125.1 104.3 92.5 90.8 91.3 90.3 89.1 89.4 91.3 92.8 93.5 93.6 100.6 127 138.8 134.1 119.5 101.9
158.4 158.7 170.7 181.5 197.3 199.4 202.2 204.2 201.3 191 186.1 183.3 172.8 169.4 169.3 167.1 173.3 175.3 171 166.3 162.5 160.3 161.9 161.3 162.7 161.8 161.4 163.7 160.8 159.4 162.1 166.8 173 175.8 186.7 197.9 199.2 201.9 198.9 196.9 196 190.6 184.9 182 182 184.6 190 191.7 191.4 193.7 196.1 198.5 196 195.7 195.4 194.3 193.6 193.5 190.9 190 191 194 196.1 198.8 199.2 198.6 198.5 198.1 197.2 197.3 196.2 186.4 180.5 175.9 178.4 173.2 171.6 166.5 155.5 153 147.3 143.1 139.5 138.5 134.6 129.7 140.3 147.7 151.9 155 156.2 159.2 161.5 164.7 161.3 160.3 163.3 165.5 170.7 175.6 180.5 188.5 195.3 200.4 211.2 216.8 218.4 225.9 237 249.1 262.8 276.6 295.3 316.8 328.9 339.1 344 350.2 352.6 353.2 351.4 346.3 345.7 335.9 325.7 315.9 309.9 298.7 291.6 287.3 278.3 265.8 258.5 252.1 245.3 235.9 226 223.5 232.1 233.3 245.1 253.2 261 266.3 282.6 288.7 287 282.4 280.4 278.1 280.6 278.9 276.8 275.6 280.5 285 296.9 329.8 333.4 349.4 365.6 375.5 382.7 379.2 368.1 370.6 372.9 366.6 350.7 335.9 322.7 306.1 302.2 299.4 287.5 283.2 276.2 257.6 223.4 187.9 168 151.4 129.7 113.2 97 92.2 92.5 93 91.4 91 91.5 93.1 94.2 93.9 98.4 118.1 134 133.7 122.5 109.7
156.8 160.9 163.7 173.6 187.4 194.3 200.1 198.6 201.5 188.6 182.9 179.9 173.3 172.4 167.1 183.4 184.6 172.4 169 165.9 163.7 166.4 166.7 164.9 164.2 165.5 164.5 166.2 165.5 163.8 164.9 164.8 168 172.7 182.6 194.6 200.2 204.5 207.8 205.4 200.9 195.8 189.1 189.8 186.9 190.9 191.9 193.1 196.2 197.3 199.6 199.7 196.9 193.2 193.9 191.8 193.4 194.2 192.7 191.7 189.7 191.4 193.6 193.8 195.3 198.7 195.4 193.9 193.4 191.4 188.8 185.4 176 175.3 177.8 174.5 171.4 161.1 154 151.9 146.5 141.4 138.1 135.7 134.9 134.6 139.7 147.4 152.7 159.1 159.2 161.5 159.4 158.9 159.7 158.8 161.1 165.5 169.7 168.8 173.1 180.3 189.5 195.9 204.2 212.5 217.6 221.9 232.6 243.8 257.2 270.1 283.1 305.2 320.4 330.4 345.1 354.8 360.3 363.7 358.4 354.4 346.2 338.9 331.8 322.4 312.7 305 299.3 292.5 284.3 272 268 263.3 252.9 244.2 235.7 231.3 230.9 233 239.7 249.6 263.6 271.2 283.4 289.7 290.5 283.7 276.1 271.9 271.2 268.4 268.9 274.4 283.5 288.1 303.6 325.6 344.5 362.5 377.1 393.1 400.5 397.2 391.6 387.8 385.6 368.9 365.1 347.5 332.7 320.4 314.6 305.2 288.7 272 263.6 250.7 210.4 189.5 172 154.2 134.6 120.1 101.8 94.9 93.2 93.5 93 92.7 92.9 93.9 95.8 95.5 98.4 109.1 128.9 134.8 126.2 115.9
156.6 161.9 164.5 164.9 184 188.2 191.2 190.2 193.6 186 172.8 174.5 172.4 167 167.6 186.9 188.8 179.7 169.7 167 166.9 171.4 169.9 170.7 166.4 167.5 169.3 171.2 170.4 167.5 163.1 166.2 166.8 170 176.9 191.8 202.3 204.6 206.6 208.1 202.5 195.9 192.9 191.5 190.1 194.7 195.8 193.9 194.9 199.3 202.3 203.4 205.6 201 195.6 195.1 191.8 191.8 193.9 192.3 188.6 188.6 190.6 192.5 191.1 190.5 191.5 190.7 189.9 189 184.9 179.7 176.4 174.3 176.1 173.9 164.5 156.4 154.6 152.1 147 142 137.9 136.6 135.3 139.1 140.1 148.6 154 160.6 161.8 159.9 156.7 156.3 157.4 157.6 159.7 163.8 165 165.4 167.8 173.2 181.8 190.6 196.8 206.7 215.1 218.6 226.7 239 252.4 262.3 278 298.9 319.2 334.8 349.8 354.1 354.7 357.9 358.2 355.5 348.5 343.3 336.7 328.1 317.7 310 305.8 297.2 288.1 281.6 274.1 265.9 258.4 246.8 241.2 240.4 230.2 237.2 246.1 249.2 257.7 271.5 282.6 286.8 286.6 283.6 273.6 270.6 267.8 267.9 272.6 283.7 295.8 301.6 311 327.8 352.7 363.2 373.8 391.6 411.1 410.1 405.4 401.2 389.5 376.1 362.6 344.9 327.7 331.5 325 306.3 285.9 272.7 260 242.2 210.7 190.5 173.9 159.4 138.3 125.8 111.8 96.9 94.5 95.4 95 95.4 94.1 94.8 96.4 96.3 98.2 107.4 120.8 125.8 123.4 117.7
153.3 152.6 155.8 163 171.9 183 186.1 185.8 183.2 179.4 167.6 164.3 167.7 170.8 179.5 187.5 186 188.6 174.8 169.4 172.5 177.3 177.2 171.9 169.9 171.1 170.1 172.3 175.3 172 168.9 168.8 169.3 170.7 173.6 184 196.7 205.5 206.1 209.9 204 196.9 194.7 193.7 193.7 199.3 202 197.5 195.5 199.9 200.8 204.9 207.8 203.4 202.5 198.3 194.2 191.8 191.4 192.1 190.7 189.2 187.4 187.5 189 188.9 188.5 188.9 188.9 183.9 179.3 173.7 173.1 173.3 174.1 167.9 157.5 157.9 155.9 153.7 149 144 139.7 137.3 134.3 136 140.5 148.1 151.7 155.5 157.2 157 154.1 153.8 157.3 157 158.7 159.9 160.8 162.8 166.6 171 175.7 183.4 192.5 197.9 209.4 216 220.6 233.1 246 261.8 278.1 297.3 321.7 341.3 356.6 365.3 367.6 364.7 361.3 356.9 356.9 351.8 341.1 332.7 322.9 312.7 307.5 300.2 291 282.3 276.7 268.9 258.3 250.4 244.6 246.9 236.5 234.8 245.3 246.4 256.4 268 275.1 280.4 281 280.3 272.5 268 267 268.7 285.8 311.6 313.4 319.7 324.1 347.6 355.4 363.6 384.2 401.4 407.7 416.1 411 408.6 395.8 384.4 363.5 340.9 321.2 318.9 324 310.2 285.9 271.9 256.8 231.6 214.5 192.7 177.1 165.6 150.1 135.5 121.6 106.8 97.3 96.7 97 96.7 96.5 96.5 98.4 97.9 99.1 107.5 110.5 118.3 118.9 113.9
149.4 149.4 151.4 154.6 164.5 171.2 180.5 179.8 179.4 175.3 169.3 164.3 166.2 177.2 179 180.8 185.6 189.2 185.5 192.5 187.5 179.8 180.9 173.8 170.1 176.2 175.7 175.4 175.4 175.4 174.4 171.2 172.7 172.3 174.2 176.2 189.9 201.5 205.7 209.6 207.4 200.2 198.1 201 199.2 197.6 205 205.8 196.5 198.6 198.7 202.7 203 205.3 205.6 202.4 199.9 197.6 197.2 195.6 193.1 190.2 193.8 192.5 186.6 188.2 186.9 187.4 187.1 181.9 174 173.6 176.2 176.7 177.8 166.7 155.3 160.1 158.1 155.3 151.9 146.3 140.7 137.4 134.3 135.4 139.3 146.7 148.6 150.9 152.3 151.6 151.8 150.9 151.2 155.1 155.7 156.9 157 157.6 160.7 167.5 171.5 177.7 186 193 202.3 211.6 217.2 227.4 240.8 255.3 276.3 298.2 316.4 332.5 353.9 368.5 371.6 374.7 370.7 362 357.9 353.6 347.4 338.7 324.9 314.9 312.6 302.8 293.9 285 277.7 272.3 261.8 258.1 251.3 249.2 244.7 233.7 239 242.5 249.7 259.8 266.2 268.5 272.3 270.9 268.3 264.8 266.9 289.8 318.4 326 336.1 349.8 347.4 369.2 374.9 377.5 390.7 419.5 424.4 420.3 414.5 404 395.9 389.9 367.2 347.8 325.8 317.4 313.1 302.7 290.4 274.4 242.9 225.3 215.3 205.5 198.6 186 166.9 150.7 135.5 121.4 106.6 100.6 101.2 100.4 98.9 102 101 103.5 103.1 104.1 105.3 101.5 103.9 104.9
146.5 149.4 152.2 154 157.3 164.7 168 167.8 174.5 172.4 166.3 164.3 170.5 176.4 177.7 177.8 185.3 193.3 201.6 201 195.5 193.4 183.2 175.7 174.6 175.6 178.9 182.1 183.6 185.7 177.7 173.8 172.2 174.8 175.7 175.5 182 193 202 206.2 205 201.8 202.1 203.8 203.5 201.8 203.6 209.9 201.3 199.2 203 201.6 205.4 203 206.9 203.7 203.8 199.7 197.4 197.2 195.4 194.1 193.8 192.9 186.3 186.2 186.3 185.4 185.3 178.1 173 171.6 176.5 174.1 169.4 161.1 158 159.5 159.1 155.2 151.1 147.4 142.2 137.8 135.8 136.4 137.9 144.8 147.1 147.7 147.7 147.9 148.9 148.8 148.7 151.5 152.6 153.2 156.9 158 158.7 162.9 168 174.5 179.6 187.4 192.1 203.8 213.9 224 238.1 254 272.7 293.5 308 327.2 345 360.8 366.3 370.5 369.7 366.3 359.9 351.8 344.8 340.5 326.6 316.6 310 303.3 294.9 288.4 281.5 272.9 263.7 259.3 255.7 249.2 243.5 238.7 237.2 239.7 253.9 252 256 262.4 262.5 259.3 255.3 257.5 266.2 285.5 307.3 328.6 356.4 364.1 382.3 390 396.6 402 413.4 424 432 427.3 414.8 401.9 394.9 386.7 370.6 343.9 327.7 317.9 306.2 293.4 279.9 260.9 242.6 226.9 217.9 220.2 207.1 202.9 211.2 179.1 156.9 137 119.1 107.8 105 104.4 102.4 104.5 107.7 116.7 112.9 113.5 111.2 102.4 96.5 98
146 149.1 154.8 155.3 159.7 157.5 157.6 162.1 163.2 167 164 169.1 170.9 177.2 176.1 180.4 185.7 198.5 199.1 195 194.4 194.3 186.9 178.9 181.5 176.2 177.5 182.8 187.8 193.9 185.8 178.4 174.7 176.5 178.8 181.4 185.8 190.7 195.6 204.4 204.6 201.7 200.9 202.5 203.1 203.5 206.2 206.8 204.9 200.9 202.2 203.1 202.1 201.5 205.7 204 205.1 203.6 200.3 200.5 198.1 196.8 197.1 189.7 186.5 186.6 187.1 187.1 181.6 177.8 172.5 169.7 167.9 168.8 159.3 157 164 164.4 162.4 156.2 150.8 147.8 142.8 137.6 137.9 136.6 137.5 144.6 147.1 144.2 144.5 145.4 145.8 146.1 146.3 147.8 148.8 150.3 154.9 158.7 159.6 160.1 163.4 171.4 180 184.8 190.5 197.8 207.7 220.1 235.1 257.7 271.9 285.2 303 321.6 333.1 346.5 355.1 360.4 360.9 360.2 354.7 352.7 345.9 336.3 328.6 318.3 307.1 301.2 297.5 289.5 282 273.5 264.3 260.7 256.5 250.4 244.7 240.9 238.1 239.7 241.2 247.7 248.4 251.3 253.3 249.9 250.8 264.4 275 296.7 327.8 348.2 364.3 381.2 399.7 407.8 414 426.3 433.7 432.3 432.9 429.3 419 405.3 396.3 386.3 374 357.4 347.7 331.4 318.3 300.4 267.8 252.4 241.5 229.6 224.7 225.4 224.9 227.5 230.4 197.5 175.1 152.3 131 118.1 109.1 107.5 107.4 109.7 114.5 123.9 134.1 136.1 124.9 108.8 98 96.6
146.2 149.6 152.5 154.7 154.7 158.5 179.8 164.2 158.2 158.2 157.7 168.8 167.9 179.3 179.1 179 190.1 197.6 195.4 190.8 194.5 190.5 184.3 183.7 185.7 180.8 181.5 188 190.8 193 190.5 182.5 178.9 184.1 182.2 183.6 187.3 189.5 194.4 197.1 198.9 199.2 199.4 200.1 201.1 201.5 208 207.1 202.6 198.5 204.4 204.4 197 197 197 197 202.8 205 204.4 201.7 199.1 198.9 195.8 189.6 190.2 191 188.1 186.2 179.2 175.4 169.4 166.7 164.3 163.6 159 161 171.1 167.9 166.1 157.6 151.4 147.6 143.7 144.5 139 135 136.1 140.5 141.4 143.8 143.3 143.6 144 144.6 145.2 145.7 146.8 148.5 152.1 158.6 160 159.5 163.3 168.7 177.2 184.8 193.7 200.9 208.6 224.5 242.3 262.4 275.8 285.2 300.1 315.8 334.1 347.8 350.6 354.6 353.9 357 355.2 358.3 353 342.6 332.5 319.4 310.5 302.8 299.7 292.2 283.9 273.5 266.7 263.1 257.7 251.7 249.9 242.4 239.4 239.2 240.4 243.2 244.5 247.6 248.2 246.9 254.2 268.4 283 307.8 328 351.7 373.2 391 405.9 416.9 421.6 430 432.9 443.3 438.6 437.4 424 411.3 394.5 384.2 372.6 367.7 351.6 331.1 311.9 286 264 250.4 240.1 230.9 236.3 236.8 229.8 238.2 234.9 207.1 182.9 168.3 158.3 137 118.2 107.4 112.4 116.9 120.9 126.7 137.4 139.8 132.5 117.9 102.3 96
148.4 147.9 153.8 154.5 159.2 175 184.9 189.2 165.4 158.2 158.2 167.2 168 175.2 177.4 179.2 187.3 188.7 187.1 185.9 185.3 185.3 186.4 185.1 185.5 184.9 183.7 191.6 193.1 188.6 187.1 183.9 182.4 183.6 187.3 187.6 188.2 189 190.5 193.4 194.2 195.5 197.4 198.9 200.4 201 205.3 204.3 200.5 198.5 199.4 206.1 207.2 197 197 197 201.3 202.5 203.1 202.8 201.6 199.2 196.3 195.6 194.2 193.4 193.2 185.9 177.7 172.9 166.1 161.7 160.2 159.5 159.4 161.2 170.3 167 165.3 160.9 152.3 147.2 148.4 145.8 139.9 136.8 138.1 140.5 143.4 146 145.5 144.7 144.1 144.8 145.2 145.6 146.4 147.7 150.6 154.7 156 158.8 162.5 170 175.8 185.9 197.3 202.9 217.8 238.6 247.2 265.5 284.8 295.7 310.4 320.8 332.8 344.5 348.2 350.4 355.4 356.5 355.7 362.5 360 344.8 337.8 324.4 317.3 306.3 302.5 296.2 288.3 281.6 271.5 263.1 257.2 253.1 251.5 246.4 249 239.9 238.6 240.1 241.9 245.7 245.3 248.5 256.9 268.8 286.2 306.3 338.8 360.3 379.5 398.2 412.2 423.6 436.7 436.4 434.6 442.3 440.2 435.9 421.9 409.3 393 377.1 365.7 355.8 343.4 323.5 297.3 275.3 260.6 247.5 241.8 232 233.7 237.4 235.7 237.1 225.4 212.5 207.2 191.1 180.6 154.6 131.2 119.7 116.9 120.7 126.1 131.1 132.7 131.8 130.9 118.3 104.6 99.8
153.8 156 156.2 161.4 168.9 174.9 181.3 183.4 173.5 158.2 158.2 163 163.4 170.5 176.6 182.9 187.2 187.8 187.1 184.7 184.7 184.7 187.1 191 189 185 186.4 194 196.9 189.2 186.4 186.3 186.4 184.1 185.3 187.5 188.6 186.6 187.9 191 191.7 193.6 194 193.6 194.6 199 202 201.7 201.1 200.5 204 207.4 206.8 202.6 199 203 203.8 203.2 203.1 203.9 201.7 199.4 197 196.5 195 192.8 191 185.5 178.1 171.2 162.4 159.7 158.5 158.6 159.8 160.7 174.7 168.9 163.2 158.5 153 147.1 148.5 145.5 140.7 137.5 139.6 141.9 144.4 147 147.7 146.5 144.7 145.9 145.8 145.7 146.4 148.1 149 151.3 154.2 157.2 162.7 167.9 177 184.5 195.6 204 222.9 248.6 268.4 277.5 294.1 313.8 313.7 323.9 337.1 352.4 352 349.2 354.6 360.5 355.9 356.5 358.2 345.4 337.2 329.4 319.2 309.7 304.5 298.9 293.6 284.3 275.7 266.3 261.2 260.2 254.2 250.3 256.1 248.8 242 242.2 242.1 242.5 247.8 249.8 257.4 269.1 283.8 301 333.9 353.4 380.5 396.5 409.3 420.1 432.7 434.1 437.8 436.5 435 434.1 421.6 406.3 391.6 375.3 359.7 343.4 329.8 312.4 292 274.4 259.8 249.7 242 232.1 233.1 233.8 232.1 229.7 222.2 223.8 229.2 222.5 201.9 168.1 147.3 130 119.4 124.3 131.5 135.5 132.9 129.9 128.2 121.4 108.2 105.6
184.6 181.9 166.2 164.3 169.8 172.1 178.1 184.3 169 158.2 158.2 158.2 158.8 164 174.6 181.4 187.2 192.8 187.2 186.1 184.7 185.8 188.8 191.7 195.9 187.7 188.9 195.3 200.3 199.7 190.8 190.8 190.7 187.6 185.6 185.5 186 186 186 187.2 189.2 191.5 191.2 191.5 190.8 192.7 198.5 198.4 200 202.6 202.7 205.7 202 201.4 197 201.6 201.6 203.1 202.4 201.1 202.7 200 196 195.2 195.3 195.8 190.4 184.6 177.7 172.3 161.7 160.3 160.7 160.5 160.3 167.9 176.4 170.3 161.2 156.8 151.4 146.7 149.5 148.2 144.8 139.2 147.5 150.8 147.7 147.2 147.6 146.9 145.4 146.7 146.6 145.8 147.1 148.7 150.9 153.8 156.2 160.9 163.3 167.8 175.5 189.9 199.1 211.5 227.6 255.4 280.7 295.4 303.1 318.7 329.5 332.7 343.2 355.8 358.1 358.6 356.6 356.5 355.5 355 354.5 349.9 335.8 325.4 316.4 306.9 302.7 299.2 293.8 286.1 280 272.4 263.5 259.9 260.1 256.8 258.1 248.7 242.6 243 245.5 245.4 245.4 248.9 269.7 283.6 292.6 304.7 327.3 349 380.3 393.8 399.3 406.4 417.8 427.5 432.6 434.3 422.9 412.4 408.7 393.7 379.6 363.9 353.1 336.7 321.7 306.3 292.8 274.4 262.6 248.6 237.1 233.7 233.2 231.9 230.4 230.8 232.3 234.9 252.2 243.2 211.4 184 166 143 123.4 127 136.4 143 136 129.5 120.8 120 112.6 110.9
198.8 191.3 180.6 181.6 177.4 172.3 172.4 174.3 164.5 158.2 158.2 158.2 158.2 162.8 167.7 176.3 180.7 183.2 184.9 192.6 193.8 189.9 190.5 192.2 195.3 193.2 188.8 195.7 198.5 198.2 195.5 197.2 194.8 193.8 189.3 190 186 186 186 186 186 188.3 187.6 190.4 189.2 191.3 196.2 196.8 200.1 202.3 203.3 202.5 200.1 202.1 203.8 203.4 207.5 208.1 207.9 203 201.4 198.4 196.9 195.8 195.3 196.9 190 182.3 176.3 170.8 162 161.4 161 164.6 166.7 164.3 163.2 160.6 157.4 154.7 148.8 153.5 150.7 150 150 143.4 143.5 153.3 151.7 148.7 148 147.4 145.6 146.5 146.2 147 149.8 151.5 152.9 155.9 158.4 160.9 166.2 170.3 177 192.6 204.2 219.7 239.8 263.4 284.6 299.3 307.4 320.7 332.8 342.6 346.3 350.2 356.6 361.1 364.8 363.5 356.3 352.5 351.2 348 340.3 325.6 313 306.5 302.2 297.9 291.7 286.4 280.2 275.9 270.1 265.8 264.6 264.5 260.5 253.1 243.5 241.3 242.3 244.6 245.1 253.9 273.7 298.7 305.2 314.4 324.1 347.5 372.3 389.6 405.6 413.5 408.7 412.9 424.3 422.1 412.3 400.3 391.3 383.7 374.2 360 346.8 335.9 320.9 308 293.9 280.2 268.4 248.5 237.2 236.3 233.3 231.7 231.3 231.4 236.4 254.3 260.9 255 233.6 201.2 178.5 159.4 138.1 134.5 137.3 142.5 141 135 123.9 119.7 119.3 119.6
201.7 193.6 191.2 192 188.9 183.1 171.3 168.2 164.5 158.2 158.2 158.2 158.2 158.2 160.4 171.4 175 174 181.8 197 194 191.9 191.4 190.5 190.5 193.9 192.3 199.4 199.2 198.9 201.4 204.4 203 199.1 194.6 193.3 191 188.7 186 186 186 187.5 186 186 188.9 195.7 198.7 199.2 198.5 199.8 200.7 201.4 200.1 202.9 207.9 205.2 208.6 212 213.5 209.6 207.2 199.4 195.7 193.3 192.5 192.9 188.6 183.4 175.1 169.5 163.4 164.2 166.6 169.4 164 161.9 159.1 157.6 154.2 150.6 150.9 154.9 152.3 153.1 154.8 145 141.1 151.5 150.8 149.6 148.3 147.3 145.4 146.8 148.4 148.5 150.3 152.5 155.5 159.4 161 164.8 169 176.2 183.5 195.5 210 228.9 240.8 262.3 280.3 293.8 305.5 315.7 330.1 340.1 346 354 355.7 361.7 364.1 363.1 357.7 351.6 349.5 342 335.7 333.6 322 309.8 303.8 299.3 291 287.9 282.5 278 273.1 272.2 266.9 264.6 258.7 257 250.2 244.5 242.9 242.4 243.8 251.1 274.4 285.1 298.3 317.2 329.2 360 375.2 390.5 404.7 411.1 409.9 410.2 403.5 403.5 400.4 392.7 386.3 373.4 362.9 351.7 340.4 327.2 314.7 303.5 288.7 277.5 264.3 254.5 244.4 239.1 236.5 235.2 232.9 232.5 240.1 249.8 260.7 271.2 264.1 226 194.9 177.4 155.2 131.3 145.9 146.3 145.5 142.2 137.5 133.7 130.7 132.8
203.7 198.1 195 195.7 193.9 183.8 174.2 166.1 159.8 158.2 158.2 158.2 158.2 158.2 158.2 159.9 166.2 169.2 175.1 184.4 189.6 194 190.6 190.4 191.1 196.9 196.2 196.7 200.2 200.6 205.8 207.3 204.1 198.4 195.7 194.4 193.1 192 188.3 186 186 186 186 186 186 193.4 200.7 201.8 201 198.1 196.6 198.7 202.7 204.7 198 197 204.8 212.7 213.2 213 211.6 201.1 197.3 194.2 192.6 191.1 187.2 179.8 174.4 169.7 165.9 168.6 174.1 172.8 164 162.3 161.9 159.9 155.3 150.4 153.9 156.2 157 157.8 156 149.7 145.8 151.3 154.1 150.6 148 146.6 148.4 150 152.1 152.3 152.3 156.2 159.6 161.6 165.5 169.9 174.5 177.4 184.8 196.7 212.4 228 248.1 268.7 283.8 293 304.2 315.6 333.3 342.7 349.1 355.7 358.6 361 364.3 363.6 358.5 355.3 350.2 341.7 335.4 329.9 323 318 308.7 301.5 298.3 292.7 284.7 280.4 277 275.4 271.2 266.2 262.5 260.7 253.8 245.4 244.1 243 243.1 248.1 262.4 274.7 294.2 320.1 358.1 377.9 381.3 401.6 411.2 406.9 407 400 398.8 396.2 391.1 382.9 374.1 364.4 353.8 346.5 336.2 323 313.6 301.9 287 275.8 268.3 257.5 245.8 243.3 247.2 241.8 236.2 240.3 244.4 250.6 270.2 281.2 283.2 258.9 213 191 172 146 156.2 160.8 155.7 153.3 146.5 143.5 145.6 146.3
211.3 205.4 196 194.3 192.3 184.8 177 168.6 159.6 158.2 158.2 158.2 158.2 158.2 158.2 158.2 162 174.2 186.2 191.9 190.6 190.1 187.6 187.4 190 198.3 197.1 196.5 199.8 199.5 204.6 207.4 206 201.9 197.5 195.6 194.5 193 190.6 189.3 186 186 186 186 186 186 195 199.4 198.1 196.8 196.5 194.8 202.5 206.2 197 197 205.4 209.6 215.3 212.6 210.5 202.5 202.1 198.6 196.2 197.2 184.1 177.2 169.7 168.9 172.2 171.9 173.5 167.6 164.2 166.6 164.1 161 156.9 154.2 153.9 157.6 158.2 158.5 157.2 153.8 145.7 148 149.2 151.4 146.4 147.2 154.9 156.1 157.3 158.8 156.9 155.9 159.6 162.7 167.4 170.6 175 181.1 189 196 210 223.3 249.9 268.1 288.5 298.5 316.1 327.8 341.8 351.5 355.2 366.4 369.3 368.4 369.2 366 362.8 357.6 350.6 342.6 337.8 333.6 320.6 314.3 313.4 306.9 301.5 297.7 288.9 283 277.2 274 272.4 268.4 268.3 261.4 253.4 246.6 243.5 243.2 243.7 245.4 252.6 262.8 284.2 322.8 360 381.5 387.8 399.7 401.9 408 404.7 400.2 399.5 394.2 389.3 379.4 366 357.8 347.6 340.4 331 321.3 310.8 300.1 285.8 278.4 271.3 260.4 259.3 255.1 257 251.2 243.4 252.6 268.6 264.2 288.4 288.5 283.3 279.1 238.9 209.6 187.5 164.3 145.5 164.2 172.1 164 156.5 150.2 150.9 157.8
206.9 203.1 197.4 193.9 189.3 184.6 183 175.3 161.1 158.2 158.2 158.2 158.2 158.2 157.4 158.2 158.2 171.9 191 194.4 198.5 193.5 187.6 186.8 186.1 194.4 195.1 196.1 197.1 196.9 201.7 206.7 205.5 202.8 200.4 199.2 198 195.1 192.6 193.3 193.4 192 186 186 186 186 188.2 194.8 193 194.3 193.6 192.3 197.9 202 205.6 207.5 209.2 210.3 210.9 210.8 210 203.2 199.8 197.9 195.8 189.2 182.1 174 168.6 169.1 171.7 171.9 170.9 171 171.9 167.8 165.3 162.6 159.6 157.4 155.3 156.6 158.1 158.8 158.1 154.4 148.1 147.8 147.5 146.7 147 149 155.5 159.2 161.5 162.5 161.1 159.4 161.9 165.6 167.3 171.5 176.5 181.7 189.1 202.2 218.6 236 259.1 283 302.2 321.4 324.4 336.9 347.6 355.8 363.5 376.3 377.6 380.1 377.3 372.1 366 359.9 351.3 346.9 347.3 335.1 325.5 315.2 313.8 308.7 301.7 293.7 287.5 281.4 276.4 270.4 269.7 268.5 269.8 261.3 252 246 244.1 244.8 245 245.4 249.6 264.1 292.1 324.8 355.4 374.5 387.5 401.2 413.8 419.2 420.2 417 407.2 398.1 386.9 374.3 367.7 356.5 347.9 337.7 328.3 319.9 311.5 298.7 289.3 282.3 276.4 276 268.2 261.5 260 251.9 263 290 297.3 286.9 285.6 294.5 279.7 274.9 276 254.3 202.1 181.2 156.7 160.2 166.3 168.1 171.4 163.1 156.8 167.2
205.5 202.5 198 194.1 187.3 183.5 181.7 174.7 163.2 159.3 158.2 158.2 158.2 158.2 160 159.9 158.2 165.8 183 192.4 202.1 200.3 191.9 185.7 185.5 188.8 191.3 193.1 195.9 194.8 198.8 203.3 205.3 205.8 205.3 204.7 203.5 201.8 200.2 197.2 195.4 191.3 188.7 186 186 186 188 191.4 193.5 196.2 190.9 192.1 193.7 198.5 205.5 207.4 209.9 212 211.4 207.9 205.2 203.4 200.7 196.6 192.3 184.4 178.4 171.4 169.1 171.3 172.7 172.4 172.4 165.9 170.1 170.3 167.8 166.7 164 159.4 157.2 157.6 158.2 158.9 158.8 155.4 151.8 148.5 146.9 147.5 147.4 151.2 159.2 165.4 167.2 164.9 165 163.4 162.1 167.5 171.2 175.2 181 181.3 196.5 203.7 224.6 250 272.9 288.2 302.2 323.6 339 348.6 358.3 362.9 368.2 382.5 385.9 386.8 382.3 375.1 370.2 361.9 354.1 349.2 344.1 335.9 330.5 320.9 313.4 309.9 300.9 293.2 286.9 281.6 277.8 273.5 274.4 273.9 268.3 263.4 253.3 247.3 244.7 246.6 246.3 245.4 251.4 271.5 313.7 348.3 372.9 390.5 397.1 410.4 426.8 429.4 429.5 422.1 411.5 400.4 387 374.1 365.2 359 346.8 334.2 325.7 317.7 308.4 296.8 293.2 285.4 284.5 286.1 276.9 267.8 263.8 269.5 288.3 304.7 300.4 287.6 284.2 291.4 285 294.1 285.4 265.5 227.1 197.7 172.3 154.1 164.4 170.7 177.3 176.1 166.7 175.8
204.2 201.7 198.9 190.6 186.5 181.5 177.7 169.9 162.2 158.2 158.2 158.2 158.2 159.8 162.1 163 160.8 158.2 164.9 183.2 194.9 195.2 190.9 185.6 186.4 187.5 188.2 189.9 190.9 193.8 202.2 210.1 208.2 206.8 206.2 206.3 208.2 207.5 203.4 201.8 201.2 195.2 191.2 187.3 186 186 186 186 190.5 190.8 190.3 190 194.2 197.3 200.5 206.8 208.7 212.7 214 211.2 205.3 202.5 200.7 196 189.2 182.7 175 170.6 175.6 179.3 182.4 182 168.8 165.9 165.9 165.9 165.9 169.7 166.6 159.7 158.2 161.5 158.4 159 159.1 155.9 152.6 150.4 151.9 152.9 151.4 152 157.4 165.7 167.5 168.5 166.8 166.1 165.5 164.8 170.3 174.5 182.7 188.6 198.6 213.1 231.5 250.3 281.4 296.4 319 333.4 350.3 363.4 365.6 368.2 372.6 382.9 386.7 385.5 382.6 379 373.3 363.3 354.6 344.6 338.8 331.8 326 320.3 315.3 311.7 305 298.5 292.6 286 281.2 275.9 277.8 274 270.6 267.3 260.2 252.6 246.1 246.4 246.8 246.2 249.7 264.8 312.3 365.2 382.2 398.3 416.8 428.3 435 437.7 434.9 433.7 418.3 404.3 390.9 373.5 362.4 352.1 341.5 328.8 321.8 315.5 308.2 298.4 293 295.6 296.2 292.3 282.5 272.9 272.5 288.6 300.7 298.2 292.4 288.6 291.6 298.4 307.6 299.9 286.8 275.9 234.6 209.8 187.1 165.7 166.1 170.3 181.2 190.1 183.5 189.2
204.4 201.2 197.6 190.7 184.1 179.2 173.4 164 158.2 158.2 158.2 158.2 160.6 163.8 163.3 164 167.7 162 157.1 170.6 185.7 191.6 189.7 185.1 185 186.8 185.7 186.6 188.6 192.9 201 205.8 210.1 208.7 207.2 206.7 206.5 210.9 211.3 206.1 203.6 197.7 195.1 190.3 186.9 186 186 186 189 188.7 188.6 192.9 200.4 201.3 202.8 202.1 207.5 210.9 210 209.1 204.2 201.6 194.2 190 184.6 179.1 172.6 172.1 176.3 181.1 179.3 180.3 176.6 173.6 170.2 165.9 165.9 170.9 167.9 160.3 161.2 162 158.5 158.6 159.7 157.1 153 155.4 157.5 159.8 158.7 161.6 168.1 165.1 165.4 167.7 168.7 169.2 167.6 168.3 171.7 174.6 181.9 193.7 197.3 209.9 231.7 258.2 281.4 297.6 317.7 341.2 353.7 367.2 372.7 372.2 375.8 381.8 382.2 380.9 377.6 376.5 370.3 360.2 351.2 347 340.9 334.4 328.8 322.8 318 313.3 308.7 303.1 295 288.5 282.7 281 281.2 276.5 272.4 270.7 266.9 257.5 249.6 245.2 246.8 247.4 247.5 263.6 301.4 342 383.7 411.7 431 441.8 445.2 449.2 443.9 436.5 420.4 405.1 393.4 375.2 361.6 349.9 341.6 333.3 326.1 315.1 305.5 298.8 301.8 303.8 304.3 296.3 284.1 276.2 286.5 304.9 312 304.5 299 300 305.4 303.5 312.9 308.2 293.1 274 242.6 219.1 199.9 181 165.2 174.5 187.8 208.1 222.2 206.1
202.2 201.5 199 192.1 185.2 180 169.1 161.1 158.2 158.2 158.2 160.3 165 168.1 169.1 165.4 167.1 166.6 164.7 164.7 174.5 184.8 184.4 182.9 181.6 182.8 185.3 188.1 189.1 192.9 197.8 203.7 207.9 207.8 207 206.3 206 206.8 206.7 205 202.7 200.9 199.8 198.9 195.3 189 187.1 186.6 188.2 188.2 191.6 195.9 201.1 204.8 206.2 206.3 203.8 206.4 206.1 203.3 199 197.1 192.8 189.9 181.2 176.2 172.3 172.9 173.6 175.4 176.9 177.6 174.5 172.6 169.4 174.2 171.6 170.7 167.2 164.4 166.6 164.3 163.7 162.7 162.1 159 153.5 157 160.9 164.7 166.5 170.8 171.1 170 170.8 175 174.3 172 170.4 169 170.5 177.8 181.9 190.4 201.8 216.9 243.5 255.4 278.6 301.8 321.3 341.8 353.2 366.6 380.7 379.6 376.1 382.7 384.1 379.5 379.4 380.7 378.5 368.4 353.1 348.3 345.2 339.8 331.9 325.1 319.5 315.4 312.4 309.7 304.4 298.5 288.2 286.8 284.9 282.4 277 273.3 269 259.7 253.3 246.1 247.8 248 248.4 266.8 290 330.5 362.7 405.4 434.4 449.2 451.6 452.5 445.5 436.7 422.6 403.9 388 374.2 361.7 354.2 350.2 338.5 326.7 313.7 305 305.7 308.1 309 307.7 300.4 287.5 283.9 305.6 323.6 326.2 315.9 304.1 320.3 319.5 313.4 306.6 296.8 288.6 268.8 254.6 227.8 208.6 194.5 172 176.7 193.2 225.2 243.7 232.8
200.2 198.8 194.8 186.6 183.4 175.7 166.6 159.2 158.2 158.2 157.4 176.9 172.4 175.2 174.8 172.1 171.5 169.4 167.8 168.2 167.4 173.2 175.5 177.4 173.6 174.9 183.8 191.1 191.5 193.7 195 200.3 209.5 210.1 206.8 205.9 205.3 205.4 204.3 203.7 203 202.8 199.8 197.9 196.9 195.1 194.6 191.4 188.7 192.5 196.8 200.2 204.7 206.2 207.4 204.4 203.3 202.9 201.8 197.5 195.6 194.7 192.5 187.9 181.1 174.5 172.9 176.1 174.2 175.1 176.1 175 169.3 165.9 165.9 168.4 167.4 165.9 167.1 164.4 167.7 167.2 168.6 168.7 165.2 162.4 156.1 161.7 165.9 170.1 172.4 170.6 173.5 175 174.4 178.1 179.1 175.3 171.9 170.5 172.1 175.9 183.5 190.4 206.1 219.9 242.2 266.8 284.2 309.2 324.7 339.8 353.1 369.5 390.4 402.9 396.9 389.9 384.9 381.8 381.7 384.6 380.9 375.2 360 351.7 345.7 340.8 334.8 329.3 324.7 319.5 316.9 316.9 314.5 309.1 299.2 292.2 293.4 290.8 285.4 277.8 272.2 262.8 253 245.7 248.2 249.1 250.2 266.5 295.4 318.2 356.5 400.3 428.5 448.5 456.1 452.3 442.8 431 417.9 399 386 376.7 365.6 355.1 346.9 335.6 326.5 313.9 308.7 314.6 315.3 312.3 308.4 303 289.4 294.5 312.4 321.3 326.8 320.2 320.6 315.6 310.2 303.4 296.1 288.5 282.7 275 267.1 238.2 216.7 200.5 182.4 173.9 201.1 234.8 242.4 238.8
196.2 195.6 188.6 182.4 176.8 168.7 162.3 162 161.5 158.2 164.2 182.3 190.4 183.2 181.7 179.1 176 180.8 179.1 173.4 169.6 168.3 169 169.7 170 172.8 181.5 193.7 195 195.7 201.3 202.6 205.7 208.2 206.1 205.5 205.1 204.4 203.2 202.9 202.3 201.3 199.5 197 193.8 193.8 195.6 191.6 190 195.4 198.3 205.2 206.4 207.6 207.3 204.4 206.5 201.9 198.9 194.3 194 193.8 192.4 183.6 178.7 173 174.6 174.3 173.4 181.5 182.4 171.5 165.9 165.9 165.9 165.9 165.9 165.9 165.9 169 170.6 170.3 174.7 173.1 171.6 169.4 158.3 165.7 170 174.3 174.9 171.7 175.4 177.8 175.3 176.2 176.9 175.8 172.6 172 174.8 179.7 191 195.1 201.5 216.5 245.6 269.6 290 313.2 328.3 342.6 365.6 381.8 396.9 406.8 408.2 402.3 395.5 391 387.5 386 383.5 382.2 368.4 358.8 354.1 343.9 338.2 335.1 333.4 328.6 323.2 320.1 319.3 312.6 304.8 298.4 299.6 295.6 290 281.5 275.1 268 256.3 249.6 247.8 250.5 252.1 267 294.2 320.5 354 392.2 416.5 438.3 448.3 450.3 440.5 430 418.3 404.2 390.5 380.4 369.3 357.5 347.3 335.5 323.3 315.1 316.4 319.6 323.1 323.2 313.3 305.4 293.6 298.3 307.7 308.8 312.8 317.1 323.7 314 304.2 298.9 299.9 303.8 299.4 285.6 266.1 240.3 222.9 207 190.8 177.1 205.9 233.8 246.7 239.9
191.2 193.3 188 178.6 170.5 164.1 166.2 164.6 162.7 158.2 166.4 175.4 182.4 186 185 182.8 180.5 179.6 182.3 178.6 171.5 169.2 169.1 169.7 170.2 175.7 187.8 197.3 198.2 195.8 204.3 203.8 205.9 208 205.7 204.4 205 203.6 202.3 202.1 199.6 200 197.7 195.3 193.8 195.9 193.5 190.9 191.2 194.5 196.6 203.1 206.7 208.3 209.1 208.3 210.8 205 200.5 197.2 194.8 194.9 190.6 181.7 177.3 177.9 177.8 170.4 173.7 181.1 176.5 171.1 165.9 165.9 166 165.9 165.9 165.9 167.3 173.9 177.1 172.7 172.8 174.5 173.9 171.9 160.8 168 173.1 175.4 175 175 176 177 177 176.6 177 175.4 173.9 175.5 177.8 185.8 193.2 200.5 207.9 219.3 241.9 265.4 288.5 308 326.4 345.7 368.5 385.3 402.7 410.9 410.1 409.9 406.4 401.8 402.5 398.8 392.8 386.9 372.9 363.5 358.7 355.1 349.8 342.8 344.1 340.7 334.9 325.9 321 316.9 311.1 306.2 299.8 298.4 293.6 288.4 280.4 271 262.9 254 251.5 250 253.1 267.9 294.1 318.8 342 365.3 395.6 421.1 430.8 431.9 437.3 426.7 418.7 409.5 396.8 383.3 372.7 360.7 351.5 341.7 324.4 318.4 327.1 335.1 339 329.1 320.8 311.9 299.7 299.1 301.1 304.9 312.8 316.7 315.3 309.6 302.9 298.7 298 307.8 300.9 277.2 260.4 245.8 226.6 210.4 201.2 185.1 192.9 219.9 238.8 250.6
185.9 188.1 178.2 173.7 167.8 163.8 164.4 164.9 165.3 163.6 177.8 181.3 181.6 180.4 182.2 184 184.2 181.1 179.6 177.4 174.3 170 169.4 170.3 172.7 175.8 185.8 197.3 199.6 198.7 204 206.8 206 208.4 205.3 204.7 204.1 202.8 201.8 201.7 200.5 200.1 197.8 196.6 194.5 194.5 194.6 191.6 194.4 197.6 198 199.4 205.2 208.6 209.7 208.1 210.1 207.7 201.5 201.3 203.7 198.3 192.5 183.5 176.4 176.2 172.2 167.7 165.9 174.2 167.8 165.9 166.2 173.6 171.6 169 169.3 170.8 181.8 182 182.6 172.8 173 173.7 174.6 173.4 166.3 165.4 173.4 175.5 175.2 175.1 175.9 176.9 177.6 177.7 177.1 177.2 176.4 179.1 183.3 188.1 195.4 205.8 213.7 222.9 235.2 257.7 284.6 302.3 322.9 347.5 368 392.7 409.6 425.6 426.6 421.5 417.7 413.6 407.2 405.5 399.4 389 383.7 371.7 366.2 362.1 362.6 356.1 350.6 349.1 339.3 333.7 326.6 319.6 317 311.8 309.1 305.6 298.3 290.7 283.7 274.1 265.4 258.3 254.4 250.6 253.8 266 289.5 312.2 329.1 351.5 378.4 400.4 417.7 425.6 425.3 427.2 419.5 413.5 398.6 386.3 374 363 356 345.9 327.6 327.2 338.1 344.4 340.1 332.1 322.3 312.1 303 299.5 300.3 303.2 318.3 322.2 325.8 308.7 302 296.8 291.4 289.3 283.8 279.2 265.4 248.4 232 216.5 204.2 186.7 187.8 205.9 231.6 247.3
177.7 177.6 172.9 172.3 166.7 165 165.3 165.8 167.5 175.5 183.6 188.5 183.5 182.8 181.8 182.9 183.1 181 180.2 179.5 179.5 175.7 170.6 172.6 177.7 178.4 179.4 191.9 198.2 198 199 204 205.6 204 203.6 203.1 202.3 201.4 200.6 200.5 199.8 198.7 197.4 196.4 196.4 196.3 198.9 194 195.1 195.1 196.1 197.8 202.5 204.8 206.2 207 205.1 206.1 204.9 205.5 205.6 199.8 193.4 183.2 177.6 176.3 173.9 167.8 165.9 165.9 165.9 168.1 170.7 178.4 177.5 172 172.6 174.2 189.1 191.4 185.7 176.4 175.4 178.4 178.6 175.3 168.5 167.4 173.6 175.8 174.1 174.6 175.8 176.7 177.8 178.3 175.8 176.3 179.1 183.9 188.4 192.2 196.7 206.4 220.2 234.6 246.5 263 286.8 306.4 327.9 353.5 379 394.7 411.9 425.6 433.7 432.5 433.3 423 416.9 408.8 401.5 392.4 386.1 381.3 374 369.2 367.9 365 360.7 355.6 344.8 337.4 331.1 324.4 321.8 317.3 315.9 311.6 302.5 294.6 287.4 279.6 270.3 261.9 257 252.5 254.8 269.5 288.7 306.2 324 345.6 364.6 390.2 406.8 419.3 425.6 427.7 423.8 413.4 399.5 384.5 373.1 364.4 356.5 341.6 331.8 331.5 334.1 335.1 334.1 328.5 318.7 310.4 306.8 303.6 301.4 302.2 308.2 312 311.9 306.6 299.2 292.5 286.5 282.5 283.7 288.5 280.2 259.5 244.2 221.3 208.6 195.6 183.6 197.5 220.7 242.9
167.8 169.4 171.1 174.3 170.3 167.6 166.1 167.1 169.1 174.7 186.2 192.1 191.8 184.6 186.7 185.5 181.7 179.3 179.2 179.6 180.4 174.4 173.1 175.2 185.1 186.6 182.4 183.4 187.8 193.4 194.8 199.3 201.9 201.6 201.1 200.6 200.4 199 198.9 199.5 198.8 197.7 197.1 196.5 196.4 196 197.6 197 195.1 195.3 196.7 196.4 196.7 201.4 202.9 202.9 203.9 204.5 203.4 204.3 203.3 197.3 188.2 178.2 175.2 172.3 165.9 165.9 169.8 172.4 165.9 171.7 172.5 171.9 172.1 178.1 183.1 179.8 192.9 197.8 187.7 178.9 181 181.6 178.9 176.1 170.7 169.4 170.2 173.1 173.3 173.8 175.5 176.5 177.8 179.1 175.8 178.3 180.3 185.7 190 193.5 200.7 212.7 227.2 249.1 264.3 274.8 290 306.4 330.8 351.5 375 394.8 412.4 426.4 435.9 442.3 439.1 432.5 423.6 411.9 408.2 402.5 391.4 384 379.6 374.7 374.3 373 369.4 365.2 354.6 342.2 335.9 332.4 328.4 324.1 321.4 315.9 309.3 299.3 291.9 286.6 277.5 266.4 260.6 256.9 255.9 276 291.6 303.2 319.7 338.8 352.7 375.3 403.1 411.6 418.3 421.9 421 408.9 394.7 382.7 370.1 362.5 357.2 339.7 332.7 334.3 334.5 331.9 330.4 325 313.1 308.2 308.1 308.5 306.3 303.6 304.8 304.5 302.4 299.9 297.4 292.5 284.7 287.8 298.6 294.7 282.8 262.7 246.1 228.7 217.4 197.9 191.5 189.8 207 228.9
162 166.1 176.6 177.8 171.1 167.7 166.8 169 172.6 175.1 182.5 193.4 195.3 186.7 185.6 184.9 182.6 185.7 183.9 180.9 179.4 174.4 176.5 181.2 184.1 193.5 187.2 184.4 184.3 183.7 187.9 194.9 197.5 198.9 198.6 198.7 197.6 196.8 196.6 196.6 196.8 196.1 195.6 194.9 194.7 193.9 192.8 194.6 195.7 196.8 194.2 196.8 195 193.6 197.6 204.4 208.5 204.9 202.4 198.3 197.2 194 183.4 172.6 165.9 165.9 165.9 165.9 168.2 167.7 170.6 168.4 172.1 174.1 180.4 184.8 186.5 189.9 194 196.2 189.3 186.6 184 181.1 178.4 176.5 172.7 170.9 172.3 173.8 173.9 174.6 175.2 176.1 177.1 178.7 179.7 178.3 181.1 184.1 189.9 195.1 201.4 213 225.7 244.9 261 278.3 293.7 312.4 333 351.6 372.2 394.4 410.9 425.2 442.9 447.4 448.3 440.4 425.2 417.3 411 405.6 401.8 398.7 388.8 384.4 380.6 379 375 368.7 363 352 342.8 341 340.3 333.6 327.3 322.4 314.2 306.5 299.2 291.5 282.6 272.6 266.3 264.2 261.3 277.4 290.9 304.4 316.6 330.2 345.4 364.1 389.5 403.3 414.6 416.9 412.3 402.1 389.4 380.8 371.5 364.6 351.6 341.8 339.7 340.9 336.6 333.9 326.4 319.7 309.2 309.5 311.8 315.6 324.7 309.7 304.9 302.3 299 301.1 306.5 304.4 290.7 298.7 304.7 303.4 290.2 274.9 249.5 234.7 223.1 200.7 193.7 186 202.4 224.3
159.4 168.9 175.1 171.6 169.3 167.4 167.3 170.2 176.2 181.1 191.4 189.6 191.4 188.6 183.4 182.4 183.1 184.3 185.5 182.7 180.9 175.6 185.8 192.4 192.7 189.5 188.7 185.9 185.7 184.8 183.1 183.9 191 195.7 196.6 196.5 193.4 193.2 193.1 193.7 193.7 194 193.9 193.3 193.1 192.8 192.2 193.2 194.1 193.4 192.6 192.5 192.5 191.3 193.9 195.2 200.5 199.8 198.9 197.1 193.7 188.6 180.6 171.5 165.9 165.9 165.9 165.9 165.9 165.9 168.7 176.1 180.3 183.6 179.3 183.9 184.9 190.3 195.4 193.6 189.9 188.4 186 183.7 181.8 178.8 172.7 172.5 173.3 174.3 175.2 175.4 175.8 176.4 177.4 179.3 175.5 175.2 178.6 183.1 193 200.1 202.4 210.6 227.9 243.7 257.4 275.8 292.2 315.8 336.4 359.2 376 393 413.6 430.4 440.4 448.5 453.9 449.1 430.7 426.5 422.1 410.8 410.6 410.2 403 395.5 391.2 386 380.4 379.6 373.3 364.5 354.5 347.8 349 343 333.3 324.9 317.2 311.5 304.1 297 289.6 282.3 273.6 268.2 269.3 279.9 295.3 300.2 310.6 324.9 341 357.1 376.8 389.5 403.6 411.5 405.4 397.5 389.5 379.2 369.7 363.7 349.9 343.6 352.3 347.8 346.8 337.6 330.7 321.6 310.3 314.1 317.6 320.9 323.8 312.7 307.8 314.3 326.3 309.8 303.4 296.3 299.9 310 313 311.5 299.6 273.9 253.5 238.8 228.4 207.5 197.3 186.5 202.4 220.7
163.5 172.2 171.2 169.4 167.9 167.2 170.2 177.6 178.8 185.2 191.8 192.7 187.6 183.1 184.1 187.3 189.2 184 183.3 183.1 180.7 178.5 182.1 187.6 194.7 194.8 188.7 184.8 184.2 185.4 183.9 182.5 182.8 188.6 191.3 191.6 188.2 187.5 188.1 189.7 190.9 191.7 191.7 191 191.3 191.1 190.5 189.8 190.7 191.2 190.4 190.9 189.6 188.6 189.3 189.7 190.3 192.3 193.8 194.2 190.4 185.1 178.6 171.1 165.9 165.9 165.9 165.9 165.9 165.9 171.5 180.6 184.5 186.3 188.6 191.4 191 191.5 195.8 193.4 190 188.5 186.9 184.5 182 180.4 173.3 173.8 175.2 176.1 175.9 176 176.3 176.6 177.9 176.7 174.6 175.2 178.5 181.4 188.7 193.7 201.3 215.2 229 245.6 261.8 281.3 300.4 320.5 341 364.5 387.3 405.8 420.6 433.4 444.6 452.6 456.5 461.2 446.7 442 437.1 429.7 418.9 417.4 413.1 408 400.3 392.6 389.1 386.9 380.4 369.4 363.3 357.6 351 347.5 339.9 329.6 322.2 315.5 308.7 303.8 298.4 289.7 279.1 272.3 273.1 280.3 298.3 305.5 316.6 321.6 336.5 351.5 369.8 393.1 400.3 408.7 403.4 396.6 387.1 380.6 371.6 361.9 348.7 350.5 357.1 349.6 343.4 343.3 340.9 323.3 317.5 313.6 315.5 315.2 319.4 312.3 319.7 342.5 336.7 318.5 305 303.2 306.7 315.9 315.2 310.8 302.3 280.4 256.7 244.2 233.3 212.9 198.3 190.3 198 228
171.3 179.6 169.3 168.6 167.8 167.2 170 180 184.9 185 186.9 184.1 182.5 183.6 187.5 188.7 187.9 184.9 183.6 183.5 181 181.3 181.7 180.6 183.9 187 184.1 182.5 183.2 184.3 182.7 180.3 179.8 180.9 184 186.8 185 183 184.5 188.4 189.2 190.1 188.8 188.5 188.3 187.9 187.9 188.5 187 186.9 187.9 189.8 186.3 180 179 184.7 187.4 188.5 190 191.2 186.5 181.7 176.9 169.1 165.9 165.9 165.9 165.9 165.9 165.9 173.9 183.3 186.8 191.9 196.8 197.1 196 197.5 199.5 197.8 189.8 188.6 186.3 184.7 183.7 181.8 174.8 174.5 178.3 180.9 177.3 177.5 177.3 176.4 176.5 176.7 174.3 174.5 177.8 180.2 183.7 192.9 204.8 218.9 230.7 256.9 276.1 285.9 304.5 325.1 348.1 369.4 390.3 414.3 432.4 447.7 454.5 464.4 468.1 464.4 458.8 451.9 452.5 442.1 435.3 430.8 424.9 422.2 420.4 410.1 397.2 394.8 387.2 382.6 377.4 367.4 357.3 348.9 342.2 333.2 324.9 320 312.2 308.4 300.8 294.8 286.4 281 278.4 284.9 289.6 306.3 320.8 329.4 339.7 359.7 385.7 396.2 403.1 407.4 403.7 396.3 389.5 379.3 370.2 358.6 352.3 350.5 351.9 346.4 343.4 342.7 337.8 331.5 329.1 324.8 317.5 315.7 316.3 320.4 337.3 345.2 343.7 315.9 305 307.3 316.5 319.2 312.9 307.7 291.6 277.2 261.3 249.4 233.3 219.5 201.9 191.3 197.2 225.1
176.4 172.2 168.3 169.5 168.2 167.2 171.7 185.4 192.6 187 183.4 182.5 182.5 187.7 188.4 189.4 190.8 186.8 184.4 184 183.5 187 185.8 180.6 180.6 180.6 183.3 182.5 183.3 182.9 181.1 178.8 175.7 175.9 175.2 179.3 183 182 183.6 186.2 187 186.9 186.4 186.4 185.9 185.2 184.8 184.2 184.6 187 187.2 185.9 181.4 176.9 178.4 182.6 186 187.1 186.7 186.6 182.1 176.9 172.6 165.9 165.9 165.9 169.8 172.8 166.2 166.3 170.9 177.7 184.7 188.3 195.3 197.3 203.9 203.8 201.2 198.9 192 187.7 186.2 185.5 185 182.7 176.6 178.3 181 182 180.7 176.7 177.5 176.4 176.1 174.1 174.4 174.6 177.8 182.8 189.4 201.8 206.5 214.9 250.7 277.7 285.7 297 307.8 330.6 349.9 372.9 391.7 419.6 438.6 456.3 466 474.9 482.4 481.6 469.9 463.4 465.7 463.4 449.6 444.6 439.3 430.9 432.3 426.1 411.4 405.7 395.3 394.2 390.5 377.4 360.9 353.7 346.2 337.4 329.3 322.3 315.5 311 305 298.7 294.7 290.2 288.7 291.8 295 301.9 316.3 328.2 347.2 371.6 388.2 402.5 409.1 411 404.9 396.5 390.1 383.5 374.5 358.8 356.2 349.3 346.3 345.2 343.6 343.9 341.8 348 344.5 330.8 321.8 319.9 322.6 320.9 328.6 331.1 326.5 315.4 308.2 312.3 316.9 319.9 308 299.4 289.3 274.6 261.4 252.8 239.4 224.8 207.4 193.4 197.8 205.5
168.8 167.5 167.7 168.4 168.8 168.2 173.2 190.6 190.8 187.2 187 187.7 191.8 190.6 187.3 185.8 186.2 185.6 184.8 184.7 184.6 187.4 187.8 185.6 185.4 187.5 185.1 184.1 185 185.3 182.5 179.2 177.1 174.1 172.9 172.9 173.6 179.3 183.5 185.7 185.9 184.6 184.1 183.2 183.1 183.2 182.6 182.7 183.3 185.5 186.7 181.7 176.9 176.9 181.4 181.9 185.8 186.3 185.9 183.4 179.7 171.6 165.9 165.9 165.9 166.7 165.9 166.5 165.9 165.9 172.4 179.4 183.9 190.2 191.5 193.5 200.3 201.5 200.5 197.7 193 191.3 186.2 185.1 185.4 184.4 176.4 175.5 178.5 182.2 180.4 177.6 177.2 174.9 171.8 169.1 172.3 176.7 179.4 184.7 201.1 204 209.5 229.3 253.4 278.2 290.2 303.4 318 334.6 357.5 380.6 397.1 427.1 446.7 457.8 470.3 482.3 485.2 488.9 481.2 476.7 473.8 472.5 471.4 461.4 459.8 447.2 436.6 430.8 418.6 414.2 405.9 400.2 394.6 380.7 367 358.4 349.5 341.7 334.2 325.4 318.7 313.4 309 305 301.5 299.5 296.1 301 303.1 312.8 323.8 332.4 348.2 368.2 391.1 416.5 421.8 414.1 408.5 399.2 392.3 388.4 373.8 367.5 359.2 349.5 346.1 345.3 345.4 347.1 346.2 359.7 358.7 346 327.5 333.2 326.8 320.9 320.9 322.8 325.4 315.8 315.4 310.9 312.3 313.9 305.9 299.5 294.2 283.3 265.8 253.3 243.8 230 207.7 198 197.5 200.6
164 164.6 167.1 173.4 175.2 170.4 175.2 180.2 184.8 188.2 188.7 190 195 192.1 187.1 186.8 185.8 185.4 183.5 183.5 184.4 188.9 187.7 189.2 187.1 187.3 188.9 186.7 185.5 184.6 181.7 182.8 179.2 174.4 172.9 172.9 172.9 172.9 175.6 182.1 181.4 181.3 181 180.7 179.7 180.8 181.8 184.6 184.1 182.8 182.5 179.1 176.9 176.9 181.4 185 186.8 186.4 183.8 179.7 173 165.9 165.9 165.9 165.9 171 169.3 167.5 167.3 169.1 172.8 181.3 186.6 189.7 193 194.4 194.3 200.6 198.8 190.8 189 189.7 185.9 184.5 184.9 180.8 173.5 165.9 176.3 181.9 179.3 177.6 177.1 165.9 165.9 165.9 165.9 174.3 177.1 185.4 196.5 201.3 221.3 249.6 255.9 272.8 291.9 307.7 322.9 342.3 364.2 390 406.3 431.6 450.6 458.8 474 489.1 496.4 495.5 488.8 491.2 499.3 492.6 482.2 477.4 468 461.1 446.3 439.6 422.2 419 417.8 405.3 391.6 378.8 368.3 361.9 353.2 344.7 339.1 328.6 320.8 316.8 310.5 308 307.3 306.6 306.7 313.4 318.1 320.1 339.9 344.5 359.1 381.4 407.8 425.2 431.9 426.7 421.1 406.5 397.5 388.2 371.4 367.2 360.1 352 347.4 345.3 348.3 349.2 355.8 359 358.9 351 350.4 346.2 334.6 323.6 325.1 323.6 323.2 318.9 315.7 313 308.9 307.6 304.4 302.4 297.5 284.8 272 261.1 247.4 235.4 215.2 200 196.9 198.3
163 164.1 173.4 175.6 175.7 173.5 177.9 180.9 183.7 187.5 187.9 188.5 194.3 187.8 185.5 185.2 185.3 183.8 178.5 178.5 179.1 186.8 185.2 187.8 186.6 184.9 185.6 186.4 186.3 185.7 180.7 178.6 179.8 174.4 172.9 172.9 172.9 172.9 172.9 172.9 176.2 177.3 177.8 178.3 181 181.9 183.3 183.7 183.4 182.2 179.1 176.9 176.9 181.2 182.9 182.6 182.9 181.7 179 174 166.9 165.9 165.9 167.5 169.9 171.4 169.8 171.2 168.2 168.6 173 180.4 186 191.1 193.7 196.6 194.6 196 193 188.3 186.9 185.9 185.2 184.1 182.8 180.1 165.9 165.9 165.9 177.4 177.1 177 177 168.4 165.9 165.9 165.9 175.5 178 184 197.6 206.4 236 263.6 275.5 277.3 288.5 311.1 329.2 346.6 370 393.3 413.2 430.6 461.6 469.6 484.9 499.9 511.3 512.6 509.3 507.8 523.9 516.8 501.6 487.9 480.2 465.4 453.4 446.5 431.2 424.2 416.9 407 393 384 374.1 363.9 358.7 347.9 337.5 330.7 323.2 317.7 314.2 312.6 309.7 311 314.2 316.2 321.2 328.4 348.7 365.3 372.7 384.6 410.7 427.5 433.4 438.4 427.8 416.7 402.5 386 372.2 373.3 364.2 353.3 348 346 348.7 357.6 362.6 360.2 365.1 352.8 360.1 361 343.7 345.9 330.7 327.7 324.9 319.2 321.4 315 315.3 309.4 307.8 311.2 299.5 288.1 275.7 265 253.7 236.4 224.2 205.1 200.1 196.5
163 176.5 177.2 176.8 176.9 181.4 184.7 186.7 185.1 185 185 184.5 185.6 184.2 180.6 180.6 181.3 178.5 178.5 178.5 178.5 180.1 181.8 181.1 181.1 181.1 180.8 188.2 184.8 181 178.6 178 178.1 175.7 173 172.9 172.9 172.9 172.9 172.9 172.9 173.5 174.1 175.1 180.8 181.7 183.3 183.4 182.8 180.5 176.9 176.9 176.9 181.9 182.1 181 181 182 179.3 171.5 165.9 165.9 167.4 171.9 173.9 171.1 170.5 174.1 173.5 171.8 171.7 181.8 185.4 190.6 193.6 194.8 194.1 192.2 191.7 188.1 185.6 184.2 183.7 180.8 178.8 175.9 165.9 165.9 165.9 165.9 176.4 176.5 175.9 175.2 172.1 165.9 165.9 175.6 179.2 188.9 200.6 222 247.5 269.6 282.1 287.5 296 312.9 335.1 351.6 373.9 394.9 413.8 445.9 467.9 481.3 502.4 520.8 525.5 526.2 521.8 521.3 526.4 522.4 513.1 498.8 485.9 469.4 463.8 451.4 436.6 431.2 417.5 402.9 394.3 387.6 378.3 366.8 358 348.1 338.7 332.2 327 321.5 318.4 313.2 313.1 314.3 316.8 315 321.6 329.4 343.3 375.3 387.6 397.8 415.9 428.5 435.7 441.1 427.4 421.7 411.7 392.1 378.4 375.3 368.8 359.7 351.1 350.1 354.9 370.3 369.5 366.1 361.7 360.5 368 370.2 355.1 347 336.7 332.3 325.1 322.8 325.1 323.9 314.9 311 310.8 310.5 297.6 289.7 277.4 266.7 254.2 238.8 228.5 214 203.6 198
168.6 174.9 176.9 178.5 184.1 186.3 188.8 189.3 185.5 184.6 184.2 182.4 180.3 178.5 178.5 178.5 178.5 178.5 178.5 178.5 181.6 185.5 182.1 182.4 182.6 179.1 179.1 180 180.3 178.8 180.7 184.6 188.4 184.4 183.6 182.5 176.5 172.9 172.9 172.9 172.9 172.9 172.9 175.9 180.8 182.4 183.3 183.5 183.6 179.2 178.7 176.9 176.9 176.9 179.6 180.8 181.9 183.2 180.4 170.8 165.9 165.9 171 172.8 174.2 172.9 172.1 173.5 173.4 180.3 182.4 182.6 186.5 190.3 192.5 194.7 195.6 191.5 190.7 186.5 182.7 182.7 183.3 179.1 179 168.7 165.9 165.9 165.9 165.9 165.9 176.3 175.6 175.1 165.9 165.9 172.3 175 181.7 191.4 206.4 227.3 250 265.6 280.4 298 305.7 317.1 337.2 357.8 372 399.8 428.9 451.6 468.8 490.8 522.5 545.8 542.9 535.5 538.1 534.3 542.2 534.1 520.7 509.4 495.3 478.8 464.2 451.1 441.9 432 422.7 414.9 398.9 386.4 376.7 370 358.8 346.5 337.7 332 330.4 325.9 321.7 317.9 316.9 320.1 319.4 318.5 323.8 330.4 338.6 358.5 391.9 408.3 425.9 432.6 441.7 437.9 432 423.1 417.4 396 386 383.9 376.8 369.2 362.7 358.1 368.3 374.9 371.6 365.3 359.8 366.4 374.7 370.1 368.7 356.4 348 337.5 331.2 325.3 332.1 326.5 315.8 311.4 308.8 307.9 302.5 299 281.8 268.9 254.2 240.4 232.8 220.6 209.1 202.9
172 175.3 183.7 195.5 195.1 190.6 195.2 192.5 187.1 187.6 184.9 181.1 181.6 178.5 181.3 178.5 178.5 178.5 178.5 178.5 181 189.1 189.9 188.4 183.5 179.1 179.1 179.1 181.5 181.5 183 183.4 187.1 184.6 184.3 181 175.4 172.9 172.9 172.9 172.9 172.9 172.9 177 181.6 183.7 183.3 183.8 183.4 181.4 178 176.9 176.9 178.7 180.3 183.7 182.4 180.4 176 165.9 165.9 176.4 175.7 176 175.5 173.9 175.4 178.2 179.2 182.8 186.8 189.2 192.4 192.1 193.5 193.9 193.5 189.9 188.8 183.4 185 185.1 182.4 178.7 184.3 178.8 165.9 165.9 165.9 165.9 165.9 174.7 165.9 165.9 165.9 165.9 172.5 176.4 184.5 193.6 212.4 230.4 247.2 259.5 274.1 294.2 310.9 323.8 340.7 360.4 380 402 427.8 458.1 475.7 504.4 538.2 567.9 567.6 564 560.5 545.5 545.2 541.4 533.2 519 504.6 493.7 475.4 454.4 444 432.4 425 412.2 400.7 388 375.6 370.4 364.5 353.2 339.6 334.9 332.4 329.5 325.4 323.9 321.6 322.1 321 321.9 323.9 331 336.2 344.6 370.9 403.6 420.9 431.9 441.7 442.1 435.9 429.5 419 403.2 396.1 393.8 393.6 379.6 371.5 369.4 372.1 371.2 368.4 365.9 364.9 370 373.2 374.8 372.6 370.4 368.3 355 338.2 327.2 326.4 319.9 315.8 313.3 313 309.9 307.2 304.7 284.5 271.4 257.7 245.6 243 228.3 214.9 204
167.6 176.6 200.3 203.2 199.4 192.3 193.8 191.1 189.3 187.3 189.2 191.8 189.3 186.5 185.8 180.8 178.5 178.5 178.5 178.5 179.8 185.1 192.3 190 183.2 179.1 179.1 182.4 182.3 181.6 182 184 182.7 181.1 177.8 173.2 172.9 172.9 172.9 172.9 172.9 172.9 172.9 172.9 176.6 181.8 182.9 183.6 184.6 183 181.4 178.5 176.9 179.5 181.5 181.8 181.2 177.3 170.2 165.9 167.5 177.7 179.7 178.7 178 174.5 176.4 182.2 187.5 188.3 188.5 191 195.5 197.3 194.7 192.2 190.1 188.9 186.1 183.7 188.9 186.8 182.4 185.1 188 179.2 165.9 165.9 165.9 165.9 165.9 165.9 165.9 165.9 165.9 171.9 173.9 178.8 187.9 198.9 209.3 231.6 250.7 257.7 273.8 294.1 310.9 327.4 341.5 362.4 385.2 402.8 429.6 456.5 481.2 512.3 535.5 568.7 590.7 595.1 582.7 560.5 545.1 547.1 542.7 527.1 515.4 498 479.5 458.8 445.2 433.4 420 409.1 399.4 387.9 376.4 367.7 364.1 357.1 344.9 338.1 335.4 335.2 331.6 327.9 324.6 325.7 324.6 325.3 326.1 328.2 334.8 340.7 354.6 376 395.9 417 435.1 441 442.5 435.2 422.2 420.2 404 409.1 406.8 387.6 373.7 381.1 379.2 374.5 369.6 370.6 373 380 376.1 383.6 392.3 392.3 386.4 381.1 357.5 337.1 334.1 340.4 334.6 339.2 342.1 343.1 319 309.4 292 277.6 258.9 249.5 241.5 235 217.5 205.2
172.4 179.1 195.7 208.5 208 196 191.1 189.3 190 189.5 191.4 191.9 190.2 191.1 190 183.3 181.8 178.5 178.5 178.5 178.5 181 182.7 183.2 180.4 179.1 179.1 178.9 181.9 181.5 181.1 179.8 177.7 175.7 172.9 172.9 174.6 181.1 172.9 172.9 172.9 172.9 172.9 172.9 172.9 175.2 177.7 182.7 185.1 185 184.1 181.5 180.6 178.6 178.3 178.9 177.7 174.6 168.2 165.9 174.7 176.4 177.8 177.2 175 176.1 181.9 182.1 185.5 187.9 188.6 193.5 195.6 199.1 198.2 190.3 188 185.5 182.7 188.9 192.8 188.6 182.7 189.6 189.7 178.4 165.9 165.9 165.9 165.9 165.9 165.9 165.9 165.9 165.9 168.9 181.5 188.1 197.2 205.1 212.8 227.5 248.5 259.6 275.3 296.2 314 332.9 348.3 370.2 392.7 407.7 434.2 459.5 486.4 516.7 543.7 568.8 592.7 605 598.9 582.6 563.5 552.2 546.3 535.3 519.4 498.8 479.6 461.4 453.7 433.7 419.7 408.9 397.5 389.7 383.6 372.9 363.1 356.3 350.1 345.1 342 337.2 336.9 334.7 328.6 326.3 327.2 328.1 328.4 331.3 336.3 338.8 343.7 359.3 378.8 399.2 419.2 431.3 432.9 429.2 424.4 420.2 412.3 416.3 413.2 396.8 382.7 387.3 384.7 384 381.3 373 377.4 382 407.9 434.4 439.8 424.4 412.9 397.2 375.3 359.8 356.5 362.8 368.6 365.2 365.7 353.8 329.8 317.2 305.1 283 262.7 247.4 239.9 237.3 221 207.7
179 183.6 197.3 197.1 201.2 199.8 191.5 190.3 191.2 191 190.5 192.4 193.4 192.5 190.8 188.2 186 183.1 178.5 178.5 178.5 178.5 178.5 178.6 181.2 179.1 185.1 184.4 183 182.6 182.1 178.1 173.9 172.9 172.9 172.9 172.9 177.8 176.4 175 175.6 172.9 175.4 172.9 172.9 172.9 172.9 178.2 185.1 185.4 184.7 183.3 181.6 180.8 178.6 176.9 176 172.3 165.9 166.3 176.4 182 179.2 179.1 179.6 183.9 186.8 182.5 189 189.1 188.2 187.3 193.1 196.5 195 190.4 187.5 184.5 182.7 190 192.8 190 191.2 192.5 187.3 177.3 165.9 165.9 165.9 165.9 165.9 165.9 165.9 165.9 174.1 178.5 187.9 199.7 206 217.4 216.1 226.6 247.1 259.1 278.3 302.5 322.8 346.3 362.8 372.1 389.3 412.2 447.4 468 488.6 518.2 548.1 571.1 599.8 614.6 612.9 599.5 579.7 566.8 547.5 532.9 518 502.8 483.9 465.1 452.5 436.3 424.1 411.8 398.8 393.1 389.5 380 368.4 363 357.6 353.2 350.2 342.3 338.7 338.2 334.7 329.9 333.1 336.4 334.4 336 337 342.6 343.8 349.6 368.4 392 411.9 420 422 428.8 420.3 418.2 415.3 421.5 420.4 404 393 391.4 388.7 394.6 395.1 390.5 382.3 400.1 446.8 462.7 466.9 455.8 443.8 413.2 394.5 377.2 371.2 371.9 371.4 376.7 370.9 358.7 340.8 322.4 312.7 290.1 265.6 249.8 243.7 237.8 226.2 212.2
180 195.1 197 193.4 193.5 196.3 193.2 193.3 192.5 193.3 192.8 192.7 192.5 194.7 192.5 188.7 186.8 185.8 185.5 186.2 182.7 181.6 185.6 189.8 187.5 186.3 188.7 189.2 188.4 186.6 181.4 179.5 176.9 178.8 172.9 172.9 172.9 172.9 174.4 177.2 178.6 172.9 172.9 175.6 172.9 172.9 172.9 172.9 179.8 184 184.7 183.6 181.9 180.9 180.7 180.3 176 170.4 165.9 174.6 182.3 181.2 180.2 181.6 185.5 189.6 186.4 184.3 191.7 192 189.6 188.5 190.1 191.6 190.6 188.5 186.1 187.7 189.7 188.8 192.4 187.2 187.8 188.7 184.3 171.4 165.9 165.9 165.9 165.9 165.9 165.9 165.9 165.9 175.4 184.1 197.5 211.9 220 223.3 225.7 227.1 241.7 257.1 272.9 301.1 329.3 349.7 369.3 375.5 388.4 413 450.8 474.5 489.9 507.7 538 565.6 597.1 617.2 622.2 613 594.8 574.1 555 533.8 517.4 504.5 489.5 473.4 457.4 441.9 430.3 416.5 408.7 400.1 391.2 380.5 374.6 370.4 365.5 359.9 355.6 351.9 348.5 345.1 341.4 337.8 341.5 345.7 340.6 339.2 340.7 346 346.4 344.7 360.6 383.9 398.5 407.4 416 426.4 419.5 422 425.8 425.7 427.8 413.6 410.6 403.3 404.3 399.8 398.7 393.8 401.7 438.1 467.5 484.3 488.4 479.4 468.6 437.6 411.7 399.1 397.4 392 378.5 372.9 365.7 363.3 341 322.3 309.2 290.9 269.2 255.4 245.6 235.8 226.8 216.1
188.8 196.1 193.4 190.2 188.7 188 187 191.6 197.7 199.1 198.2 193.4 192.7 186.9 190.2 190.1 188.2 187.8 188.1 188.5 188.6 189.4 191.8 196 195.9 193.4 191 189 185.5 183.4 181.9 182.1 183.8 181.9 179.5 179.4 181.3 183.2 180.6 184.4 180.2 175 172.9 172.9 172.9 172.9 172.9 172.9 172.9 179.9 184.1 183.5 182.2 181.2 180.3 179.4 175.2 168.5 165.9 181.2 181.4 181.1 185.1 188.1 192.9 191.2 191.2 191.1 195.5 196.5 192.3 192.1 191.8 191.3 188.9 187.7 186.1 189.9 188.4 189 188.2 184.5 183.8 182.6 179.7 166 165.9 165.9 165.9 165.9 165.9 165.9 165.9 174 176.7 188 198.5 210.6 217 222.7 227.2 226.7 235.9 248.9 273.2 300.5 326.9 344.5 363.3 375.8 396.3 416.2 442.4 474.3 488.5 502.5 539.1 567.4 598.4 621.6 624 615.9 599.4 580.1 559.6 541.5 524.2 509.9 493.8 479.7 465.1 449.8 432 420.8 411.8 406.9 393.4 385.2 383.1 376.9 375.9 371.3 365.7 357.5 356.8 358.7 354.2 348.7 345.3 347.4 348.3 345.6 343.9 345.8 347.3 346.8 352.2 368 386 398.6 409.8 414.5 417.1 425.4 425.3 422.4 421 417.5 420.7 417.7 413.6 406.3 400.5 407 427.7 441.3 478.5 493.3 496.5 492.3 479.4 458.4 427.9 428.9 427.3 411.3 399.8 384.3 375.3 356.5 339.4 325.2 306.5 291 272.3 258.6 246.9 237.5 228.8 215.1
180.9 186.2 184 184.1 183.9 182.8 186.1 188.2 190.2 193.6 193.2 193.3 192.8 188.4 186 186 185.7 188.3 188.8 189.3 190.6 191.2 190.8 190.2 194 191.6 191.5 189.2 191.8 192.7 192.3 191.6 185.7 183.3 181.7 181.1 176.9 176.9 176.9 176.9 181.7 182.7 180.8 174.3 172.9 172.9 172.9 172.9 172.9 174 179.9 181.8 181.1 180.5 177.6 175.9 172.2 165.9 171.9 178.1 180.3 188.4 192.1 191.3 193.2 196.9 198.4 192.5 197.6 199.9 195.3 194.1 191 189.5 187.4 186.8 187.8 188 184.5 181.6 181.4 181.1 181.1 179.2 176.9 165.9 165.9 165.9 165.9 165.9 165.9 165.9 165.9 177.3 184 189 201.9 214.7 220.6 223.7 224.3 225.5 236.4 246.2 266.5 299.3 321.9 339.4 357.6 376.8 393.2 417.8 439.1 462.5 485 511.9 542.4 568.4 594.8 622.8 627.3 615.5 601.1 585.8 569.2 550.1 528.6 514.5 500.7 486.2 470.3 453.5 438 425.1 415.4 407.7 399 395.9 389.6 388.4 386.9 391.3 380 366.3 363.1 363.1 363.2 364.5 357.6 352.9 350.1 350.5 350.2 350 351 351.8 346 353.6 370.9 384.7 392.4 401.3 410.8 414.4 417.1 417.8 417.2 424.7 427.7 425.9 422.1 413.6 418.6 433.3 441.5 452.9 473.4 493.5 500.3 499.4 490.7 483.2 456.3 450.5 446.3 433.7 413.1 394.2 381.1 364.7 339.6 324.2 311.1 289 272.8 263.1 256.2 244.4 232.7 220.1
175.2 176.3 178.9 181.4 182.8 183.9 187.2 188.5 190 192.7 193.1 193.6 193.7 193.5 191.4 185.5 185.3 185.8 186.8 187.3 188.8 188.2 184.5 186.3 188.2 188.4 188.3 188.3 193.7 197 195.3 192.2 192.9 188.6 185.8 184.4 181.5 176.9 181.5 181.9 183.2 187 185.7 176.5 172.9 172.9 172.9 172.9 172.9 172.9 172.9 176.8 178.5 178.4 175.8 174.6 171.6 165.9 165.9 173.8 178.1 183.5 184.5 188.6 191.7 193.3 191.8 190.8 192.2 192.9 194 195.5 189.8 185.9 186.9 187 188 187 181.7 182.6 184.5 179.9 178.7 176.9 173.6 165.9 165.9 165.9 165.9 165.9 165.9 165.9 165.9 182 189.1 196.9 206.6 209.3 223.4 224.6 225.3 233.3 240.9 254.2 268.1 287.1 315.9 333.1 348.2 371.8 389.2 409 432.4 457.3 476.4 507.3 541.2 570.7 593.2 612.6 620.4 610.6 602.3 588.8 572.2 558 539.1 517.1 505.1 493 479.2 459.6 441.9 431.7 419.1 409.9 409.2 409.2 400.6 396.8 395.7 393.3 390.8 379.6 378.7 372.7 369.2 367.8 367.2 361.3 355 354.1 352.9 354.3 356.1 360.2 356.9 349.7 361.3 367.9 381.2 390.8 404.9 411.3 411 416.2 416.1 423.3 429.9 428.4 426.4 428.1 439.2 443.2 457 463.9 471 489.9 501.9 504.1 496.6 485.6 476.8 477.8 459.8 441.8 418.2 397.8 379.2 359.4 338.7 321.2 305.2 286.6 275.1 265.4 259.9 252.4 236 223.6
167.5 172.3 176.7 180.4 181 185.5 188 188.4 188.9 191.3 193.4 198.6 198.2 193.2 189.1 184.8 191.4 191.2 187.1 186 186.3 186.3 184.5 184.5 184.5 186.3 187.1 188 190.2 192.4 193.5 190.9 189.7 192.8 190.7 185.5 181.8 180.3 183.3 183.4 184.8 190.2 193.3 190.7 185.9 183.3 174.4 172.9 172.9 172.9 172.9 175.7 181 181.2 176.1 175.9 174.1 165.9 165.9 172 172.7 178.1 180 181.3 184.8 186.9 187.5 188.6 189.2 189.1 188 187.8 187.8 183.5 184.8 186.9 188.2 181.6 183.4 189.6 188.6 187 181.7 178.1 165.9 165.9 165.9 165.9 165.9 165.9 165.9 165.9 181.4 185.5 198.7 204.4 211.5 217.6 219 225.1 234.7 249.2 254.3 262.7 274 286.1 303.1 319.1 339 357.8 376 397 423.1 447.7 461.8 494.7 525.6 557.7 581.9 598.1 609.2 609 602.8 591.5 574.5 561 545 526.4 510.5 498.1 484.6 469.4 452.3 440.6 427.1 420.6 422.4 419.5 418.4 412.4 400.7 399.4 394.1 389.5 383.2 380.6 373.2 369.8 369.4 365.5 363.2 360.3 357.3 356.3 360.2 362.7 360.9 355.7 354 366 376 381.5 397.4 405.5 409.8 417.9 416 420.5 421.9 430.4 432.5 446.6 455.8 463.1 476 486.3 491.8 505.4 509.1 504.7 498.3 484.7 479.2 472.5 458.3 434.6 416.1 396.8 372.4 355.3 340.3 323.2 308.9 296.9 277.4 266.4 255.4 247.1 237.1 229.8
172.2 176.5 178.2 178 178.8 181.2 183.1 184.4 185.7 187.8 192.6 197.6 202.8 198.1 186.2 187.7 193.3 194.8 195.6 191.6 186.8 186 185.7 190.2 192.3 191.8 192.4 192.7 194.4 194.8 192.2 190.1 190.2 188.9 187.7 184.3 181.6 183.2 184.6 184.5 184.9 187 191.6 186.1 183.2 182.2 179.2 179.2 173.6 172.9 172.9 174.6 180.8 179.3 174.6 165.9 165.9 174.9 179.2 180.6 183.2 184.4 182 184.5 183.4 182.8 183.6 185.8 188.4 188.2 184.9 178.1 178.1 178.1 178.1 182 183.7 178.1 192.4 192.2 193.5 191.4 188.5 180.4 165.9 165.9 165.9 165.9 165.9 165.9 165.9 180.9 194 201.5 204.2 210.7 219.2 221 226 230.6 238.2 256.2 267 274.4 280.5 290.9 295.1 304.1 324.1 343.6 363.1 383.5 408.5 434.2 451.1 483 510.8 541.4 567.4 592.4 605.1 607.5 603.9 594.5 578.2 565.9 554 533.3 517.3 501.6 490 477.8 462.7 445.8 434.7 432.1 434.9 434.9 434.5 431.3 417.5 411.7 409.9 399.4 394.4 385.8 382.3 376.5 373.9 370.5 369.7 366.6 364.5 360.9 362 367.3 365.5 362.4 354.1 363.2 371.7 377.6 389.7 398.4 407.9 414.7 413.3 411.7 426.8 441.8 456.7 463.7 468.5 473.9 491 502.2 509.2 511.7 521.6 514.5 510.2 498.3 484.1 478.8 471.1 452.3 431.3 399.7 379.3 358 339.6 328.4 313.7 299.4 279.8 266.3 254.9 244.9 238.9 230.5
174.2 180.8 180 177.3 177.6 178.7 180.7 182.5 183.7 185.1 193.4 192.1 190.1 186.6 182.3 189 191.6 194.8 194.6 193 188.7 189.1 193.5 196 200.1 204.4 206.3 203.7 202 201.5 200.5 198.5 197.7 201 200.8 194.8 190.4 191.4 191.2 189.6 186.2 185.3 186 184.1 182.5 181 178.9 177.4 176.2 173.9 172.9 172.9 178.1 175.7 173.6 165.9 176.5 181 182.1 182.9 186.2 190.5 192.1 191.2 186.8 185.9 185.4 187.8 188.2 186.8 184.5 182 178.1 178.1 178.1 178.1 178.1 182.2 189.8 195.6 193.7 187.5 183.6 176.6 165.9 165.9 165.9 165.9 165.9 165.9 172 186 198.4 214.9 217.1 217.5 220.8 228.8 233.7 238.7 247.6 259.7 270.9 277 282.7 286.1 289.1 302.1 316.2 331.7 349.6 371.1 402.1 423.8 443.1 471.6 499.4 530.5 560.9 585.8 601.2 608.7 606.6 598.1 585.2 569.7 558.6 544.2 522.9 508 495.7 485 467.6 460.6 452.4 446.6 448.1 446.2 446.3 445.5 436.5 432 425.7 422.2 410 400.5 389 385.9 382.7 378.2 378.1 373.3 371.9 367.6 364.7 372.9 371.7 366.3 359.4 360.3 369.7 377.3 383.9 393.1 403.3 407.4 405.9 409.9 429.9 450.2 466.3 478.5 486 489.5 497.6 514.3 526.6 526.9 524.1 523.5 525.6 510.3 505.4 495.7 484.9 468.6 438.2 415.2 392.6 368.4 345.1 333.9 316.4 299.8 281.7 269.6 252 243.5 238.9 230.9
173.4 177.6 179.3 175.4 174.3 176.4 178.5 180.5 182.2 182.6 187.7 188 182 179.9 182.8 185.3 191.6 198.9 194.2 191.4 188.9 191.8 197.3 202.4 205.2 211 210 215.7 213 206.4 206.1 202.4 199.7 200.4 200.2 196.9 193.5 193.2 192.8 193.1 192.2 187.1 186.5 185.9 182.8 180 177.7 176.6 175.6 176.9 174.8 172.4 175.4 173.9 173.4 173.5 177.8 182.3 181.7 182.9 183.7 186.7 195.2 197 197 191.8 191.4 189.7 189.9 189.4 187.8 182.9 183.1 178.1 178.1 178.1 182.1 178.1 184.5 187.3 187.9 184.6 181.2 172.9 165.9 165.9 165.9 165.9 165.9 165.9 171.3 183.8 198.9 209 217.4 222.9 227.6 234.1 244.5 251.1 257 262.1 268.7 275.8 281.3 283.6 283.4 296.6 311.3 320.4 336.6 359.7 386.1 416 434.4 461.1 489.6 527.6 559.9 580.3 601.5 609.5 609.3 601 589 574.8 562.7 547.6 533 514.6 502.5 491.1 481.6 473.8 470.8 469.9 468.2 460.3 459.2 453 453.1 445 441.6 426.8 420.2 410 401.6 396.6 389.3 386.7 383 387.4 382.5 383.3 373.2 373.1 375.3 370.2 365.4 358.3 367.1 374.9 379.2 388.9 396.7 397.8 400.2 414.8 434.6 462.2 491.2 496.2 495.8 501.5 504.5 513.2 523.2 533.3 534.3 531.2 534.5 542.8 528.6 513.4 493.6 472.4 446.3 423.2 397.9 371.4 351.1 333.1 316.8 299.5 281.1 270.4 251.7 250.8 241.8 233.1
177.6 174.7 176 174.3 174.3 174.3 177.8 175.2 178.7 179.4 180.2 180.4 179.1 179.8 180.8 183 192.6 203.6 195.2 194.2 195 192.2 196.9 203.6 208.6 213.7 223.8 222.9 221.8 217.2 210.8 206.4 204.1 201.3 201.2 198.7 196.4 194.5 195 194.8 192 188.7 188.2 188.8 190.2 186 180.7 177.7 177.4 176.9 173.3 171.3 165.9 165.9 165.9 165.9 178.4 178.2 177.8 178.8 182.1 182.7 188.4 192.1 193.3 191.5 190.1 190.6 191.3 188.8 187 184.4 184.3 178.1 178.1 178.1 183.3 182.2 183.3 184.5 185.3 183.7 178.3 165.9 165.9 165.9 165.9 165.9 165.9 165.9 174.7 182.6 197.4 208.9 212.8 224.5 236.7 242.1 255.2 266.5 265.1 264.1 268.4 272.2 278.7 279.7 279.2 290.3 304.2 317.1 329.3 345.9 373.8 403.1 425.8 454 485.5 520.8 555.7 583 599.5 608.2 611.2 606.2 592.9 581.9 568.2 554.7 539.9 522.1 512.2 502.6 493.9 487.4 487 488.2 484.8 479 472.7 469.8 457.5 452.2 446.1 438.4 427.5 419.9 411.1 404.7 398 395.2 392.8 388.1 390.4 389 385.6 377.4 377.9 376.9 371 365.4 364.1 372.4 378.8 386.1 389.5 396.2 403.1 420.3 439.5 481.4 504.8 512.1 509 512.9 509.8 515.4 529.4 537.6 540.9 539.9 533.2 559.8 541.5 528.4 503.5 480.4 447.5 426.4 397.8 368.6 348 333.9 318.7 298.9 285 274 260.1 253.5 244.5 234.4
178.5 177.7 176.8 174.3 174.3 174.3 174.3 174.3 179.6 181 178.9 179.4 179.4 179.7 182 183.4 192.4 196.7 197.9 198.6 200.1 197.4 202.1 206.1 211 214.6 223.5 228.4 232.3 228 221.8 211.8 207.8 205.1 202.2 199.6 198.5 195.9 195.1 195.8 194.8 189.1 187.9 188.8 191.8 191.2 185.6 183.1 181.6 176.3 173.7 165.9 165.9 165.9 165.9 165.9 174.6 173.8 173.3 173.6 174.9 176.2 186 188.6 189.4 189.9 187.8 186.3 186.3 185.4 183.2 184 185.7 185 182.5 178.1 183.3 183 183.2 183.8 183.6 181.7 176.4 165.9 165.9 165.9 165.9 165.9 165.9 165.9 165.9 177.1 187.3 198.8 209.6 219.4 232.7 243.9 252.7 265.7 268.7 270.5 271.3 271 278.9 275.9 277 286.8 299.1 310.2 326 344.1 366.5 391.2 414.6 447.3 478.3 513.1 549.7 582 601.3 610.6 613.8 610.9 598 586.5 572.5 560.8 543.8 525.7 525.8 517 508.4 506.7 505.4 506.2 508.3 499.8 490.1 486 476.3 470.3 459.7 448.4 438.9 430.6 419.8 410.5 404.6 412.3 405.1 401.3 398.4 395.5 390.4 382.9 381.2 379.9 373.8 369.7 367.1 369.6 377 385 389.5 396.9 399.3 416.5 447.4 495.1 524.1 536.3 534.8 526.6 525.2 534 532.8 537.5 549.3 543.7 536.8 563.5 555.9 538.2 512.6 487.6 451.1 421.6 398.5 372.7 351.5 337.6 318.3 302.2 295 282.1 266 259.5 245.2 232.9
