ncols 200
nrows 87
xllcorner 170000
yllcorner 853950
cellsize 50
2.7 8.2 14.2 19.6 24.6 23.7 22.8 19.9 7.5 -2.1 23.3 25.6 30.5 36 32.2 21.9 20.3 22.7 23.1 24.5 29.3 35.6 45.9 55.4 60.5 68.9 68.2 69 69.8 70 76.7 85.8 86.3 85.6 82.5 84.7 92.7 100.3 101.1 95.8 89.8 89.8 91.6 104.4 109.5 107.2 107.4 109.2 112.1 104.2 101.7 98.3 95.6 95.6 101.1 121.6 124.4 117.8 114.1 114.2 113.3 109.2 103.8 95.2 89.9 79.6 92 96.1 89.8 86.5 74.2 71.2 74.3 79.7 80.7 73.4 70.8 63.4 58.4 54.8 50.6 53.9 64.5 67 59.4 44 36.9 32.3 34.2 27.1 27.2 30.3 22.2 20.1 31.6 43.7 49.6 70.7 67.7 54.4 33.1 19.7 8.4 6.6 14.4 14.1 -2.1 -2.1 -2.1 -2.1 -2.1 -2.1 -2.1 -2.1 -2.1 -2.1 -2.1 -2.1 -2.1 -2.1 -2.1 -2.1 -2.1 -2.1 -2.1 -2.1 -2.1 -2.1 -2.1 -2.1 -2.1 -2.1 -2.1 -2.1 -2.1 -2.1 -2.1 -2.1 -2.1 -2.1 -2.1 -2.1 -2.1 -2.1 -2.1 -2.1 -2.1 -2.1 -2.1 -2.1 -2.1 -2.1 -2.1 -2.1 -2.1 -2.1 -2.1 -2.1 -2.1 -2.1 -2.1 -2.1 -2.1 -2.1 -2.1 -2.1 -2.1 -2.1 -2.1 -2.1 -2.1 -2.1 -2.1 -2.1 -2.1 -2.1 -2.1 -2.1 -2.1 -2.1 -2.1 -2.1 -2.1 -2.1 -2.1 -2.1 29 46.5 66.3 62.1 54.5 52.2 37.4 66.9 91.8 88.5 81 106.2 107.2 112.6
2.7 5.5 12 15.9 18.4 19.6 21.2 24.1 15.1 4.7 24.4 29.7 30.4 32.5 30 25.3 21.9 24.2 23.3 24.4 28.1 37.7 43 51.9 61 63.7 65.5 71.8 69 70.1 80.2 87.6 84.8 83.9 81.2 86.4 97.3 101.5 98.1 92 91.2 91.7 90 106.4 108.9 106.2 107.9 112.5 106.3 102.1 100 97.9 95.6 95.6 97.9 119.7 115.4 115.7 115.4 117.7 115.3 113.6 110.2 98 93.8 87.7 96.9 101 95.3 88.5 77.1 74.5 78.1 83 84.1 80.1 83.3 75.8 63.9 57.7 52.2 52.1 68.3 72.8 55.2 45 39 36.7 32.7 26.9 32.1 28.9 24.2 28.7 44.4 51.3 77 86.1 80.4 63.9 42.4 30.1 16.7 8.4 6 8.3 -2.1 -2.1 -2.1 -2.1 -2.1 -2.1 -2.1 -2.1 -2.1 -2.1 -2.1 -2.1 -2.1 -2.1 -2.1 -2.1 -2.1 -2.1 -2.1 -2.1 -2.1 -2.1 -2.1 -2.1 -2.1 -2.1 -2.1 -2.1 -2.1 -2.1 -2.1 -2.1 -2.1 -2.1 -2.1 -2.1 -2.1 -2.1 -2.1 -2.1 -2.1 -2.1 -2.1 -2.1 -2.1 -2.1 -2.1 -2.1 -2.1 -2.1 -2.1 -2.1 -2.1 -2.1 -2.1 -2.1 -2.1 -2.1 -2.1 -2.1 -2.1 -2.1 -2.1 -2.1 -2.1 -2.1 -2.1 -2.1 -2.1 -2.1 -2.1 -2.1 -2.1 -2.1 -2.1 -2.1 -2.1 -2.1 -2.1 -2.1 -2.1 17.3 31.2 28.7 28.3 25 30.9 55.5 77.6 79.5 75.6 80.1 105.8 126
2.7 5.9 12 16.7 22.1 19.9 20.1 22.6 18.6 8 21 30.2 33.3 29.7 29.8 30.9 25.3 25.2 24.3 23.9 24.7 30.3 39.2 52.3 57.7 62.4 68.2 69.3 67.6 72.1 81.6 81.5 80.9 80.2 79 83.9 93.6 96.2 92.8 93.2 90.9 88.6 88.8 99.6 104.1 106.4 106.2 111.6 105 102.1 100.4 98.5 95.6 95.6 95.6 99.9 107.7 121.5 118.4 116.4 115.3 114.1 109.5 103.4 93.7 95.6 100.9 100 98.7 90.7 79.2 77.2 79.7 87.7 89.2 92.5 99.7 95.9 70.1 61 53.7 52.7 62.7 68.9 55 45.1 40.4 35 33 30.4 35.2 35.8 30.7 41.2 59.4 85.8 100.9 92.9 83.8 74.5 62.4 43.2 22.1 10.3 4.6 2.1 -2.1 -2.1 -2.1 -2.1 -2.1 -2.1 -2.1 -2.1 -2.1 -2.1 -2.1 -2.1 -2.1 -2.1 -2.1 -2.1 -2.1 -2.1 -2.1 -2.1 -2.1 -2.1 -2.1 -2.1 -2.1 -2.1 -2.1 -2.1 -2.1 -2.1 -2.1 -2.1 -2.1 -2.1 -2.1 -2.1 -2.1 -2.1 -2.1 -2.1 -2.1 -2.1 -2.1 -2.1 -2.1 -2.1 -2.1 -2.1 -2.1 -2.1 -2.1 -2.1 -2.1 -2.1 -2.1 -2.1 -2.1 -2.1 -2.1 -2.1 -2.1 -2.1 -2.1 -2.1 -2.1 -2.1 -2.1 -2.1 -2.1 -2.1 -2.1 -2.1 -2.1 -2.1 -2.1 -2.1 -2.1 -2.1 -2.1 -2.1 -2.1 -2.1 -2.1 -2.1 -2.1 6.1 17.1 46.5 74.8 78.7 75.6 78.8 109 129.8
2.7 8.9 12.1 17.9 21.1 20.7 20 19.7 14.9 8 20.3 26.3 28.2 31.7 35.2 31.4 27.6 26.2 24.3 24.7 25.2 25.6 33.1 41.9 53.7 59.5 64.8 63.7 64.7 77.3 78.1 77 79.4 79.8 77 87.8 89.4 90 93.2 93 87.3 88.8 88.8 89.7 100.4 102.7 107.9 109.2 104.7 102.7 103.1 99.7 95.6 95.7 95.6 95.6 106.3 119.2 118.4 118 115.7 113.5 108.6 107.1 94.6 101.7 103.8 100.4 99.4 89.9 80.3 80.5 83.6 90.9 97.1 100.6 104.5 95.7 72.2 63.3 55.2 52.2 58.8 59.8 51.3 46.1 40.1 36.9 31.9 29.5 31.6 35.5 42.5 54.3 71.5 100.3 108 101.7 88.9 81.5 71.3 56.9 28 16.4 7.2 3.7 -2.1 -2.1 -2.1 -2.1 -2.1 -2.1 -2.1 -2.1 -2.1 -2.1 -2.1 -2.1 -2.1 -2.1 -2.1 -2.1 -2.1 -2.1 -2.1 -2.1 -2.1 -2.1 -2.1 -2.1 -2.1 -2.1 -2.1 -2.1 -2.1 -2.1 -2.1 -2.1 -2.1 -2.1 -2.1 -2.1 -2.1 -2.1 -2.1 -2.1 -2.1 -2.1 -2.1 -2.1 -2.1 -2.1 -2.1 -2.1 -2.1 -2.1 -2.1 -2.1 -2.1 -2.1 -2.1 -2.1 -2.1 -2.1 -2.1 -2.1 -2.1 -2.1 -2.1 -2.1 -2.1 -2.1 -2.1 -2.1 -2.1 -2.1 -2.1 -2.1 -2.1 -2.1 -2.1 -2.1 -2.1 -2.1 -2.1 -2.1 -2.1 -2.1 -2.1 -2.1 -2.1 -2.1 11.2 45.9 78.8 80.3 75.6 77.3 104.4 128.9
7.1 10.5 12.9 19.5 22.5 21.3 20.6 18.1 17.6 8.2 17.8 23.5 28.6 31.5 36.1 28.4 27.2 26.2 25 25 25.2 25.5 29.1 37.5 47.4 57.5 59.3 58.9 62.4 75.1 75 73.8 74.3 74.7 74.3 84.9 87.6 87.3 89.2 88.3 88.6 88.8 88.8 89.3 96.9 104.2 107.6 105.6 103.7 103.8 103.6 103.8 98.3 96.4 95.6 95.6 111.9 121.9 122.1 120.9 113.8 109.5 107.6 99 95.9 99.2 100.9 101.8 99.1 89.4 80.8 84.1 89.4 94.7 98.7 100.5 101.1 91.3 76.7 66.2 54.2 51.4 54.2 53 48.8 42.9 38.8 34.9 29.8 29.5 30.9 36.7 44.1 63.2 84.3 111.8 120.4 114.9 99.1 82.3 73.8 66.1 45.8 24.5 17.1 15.8 17.6 -2.1 -2.1 -2.1 -2.1 -2.1 -2.1 -2.1 -2.1 -2.1 -2.1 -2.1 -2.1 -2.1 -2.1 -2.1 -2.1 -2.1 -2.1 -2.1 -2.1 -2.1 -2.1 -2.1 -2.1 -2.1 -2.1 -2.1 -2.1 -2.1 -2.1 -2.1 -2.1 -2.1 -2.1 -2.1 -2.1 -2.1 -2.1 -2.1 -2.1 -2.1 -2.1 -2.1 -2.1 -2.1 -2.1 -2.1 -2.1 -2.1 -2.1 -2.1 -2.1 -2.1 -2.1 -2.1 -2.1 -2.1 -2.1 -2.1 -2.1 -2.1 -2.1 -2.1 -2.1 -2.1 -2.1 -2.1 -2.1 -2.1 -2.1 -2.1 -2.1 -2.1 -2.1 -2.1 -2.1 -2.1 -2.1 -2.1 -2.1 -2.1 -2.1 -2.1 -2.1 -2.1 -2.1 53.6 87.1 81.1 75.6 84.2 102.5 128.1
10.6 11.5 12.7 18.4 22.4 21.7 21.2 20.1 9 10.8 16.5 23.3 32.8 33.4 32.5 34.6 28.9 28.2 26.9 25.9 25.8 25.6 26.4 30.6 39.6 52.6 54.9 54.3 59.9 60.6 65.7 68.5 72 73.3 73.9 77.1 80 83.8 85.6 87.2 87.1 88.8 87 93.4 100.4 107.7 104.6 103.5 104.5 104.7 104.2 103.4 97.9 96.1 95.6 95.6 104.7 128.6 129.7 126.1 116.1 109.7 106.8 97.9 95.9 100.4 103.4 101.8 99.2 87.2 86.1 90.2 97.7 96.1 98.4 97.8 91.8 89.6 74.5 64 51.8 50.6 50 48.1 47.9 42 35.3 30.7 30.7 32.4 40.1 39.5 49.9 71.5 106.5 124 120.8 124 107.3 94.3 78.7 68.8 54.5 35.6 30.3 31.3 30.3 26.2 14.2 5.7 -2.1 -2.1 -2.1 -2.1 -2.1 -2.1 -2.1 -2.1 -2.1 -2.1 -2.1 -2.1 -2.1 -2.1 -2.1 -2.1 -2.1 -2.1 -2.1 -2.1 -2.1 -2.1 -2.1 -2.1 -2.1 -2.1 -2.1 -2.1 -2.1 -2.1 -2.1 -2.1 -2.1 -2.1 -2.1 -2.1 -2.1 -2.1 -2.1 -2.1 -2.1 -2.1 -2.1 -2.1 -2.1 -2.1 -2.1 -2.1 -2.1 -2.1 -2.1 -2.1 -2.1 -2.1 -2.1 -2.1 -2.1 -2.1 -2.1 -2.1 -2.1 -2.1 -2.1 -2.1 -2.1 -2.1 -2.1 -2.1 -2.1 -2.1 -2.1 -2.1 -2.1 -2.1 -2.1 -2.1 -2.1 -2.1 -2.1 -2.1 -2.1 -2.1 -2.1 46.9 76.4 91.7 76.2 87 116 126.7
7 11.6 13.5 16.8 20.4 21.3 20.3 10.5 12.1 11.6 16.5 22.9 29.3 43.5 35.3 36.7 34 35.9 39 29.5 27.8 27.4 28.1 32.2 40.8 46.1 49.5 51.5 54.9 57.2 61.9 68.2 72.1 73.3 73.8 76.4 78.8 82.2 84.3 85.9 87.3 87.8 86.1 92.6 103.9 102.4 101.7 104.3 105.2 105.3 106.8 109 101.9 97.3 95.6 95.6 100.8 127 129.9 126.3 120.1 110 107.5 98 96.8 102.4 104.8 101.9 92.8 86.2 94.4 98.8 98.7 97.6 97.9 91.8 89.5 82.7 70.2 58.1 52.1 50.4 49.7 47.8 41.7 32.9 31.2 30.7 32.5 45.1 49.6 47.6 59.2 82.4 114.2 129.3 127.3 124.2 114.1 99.5 83.5 72.1 65.7 60.1 59.7 53.7 45 40.7 35.9 27.6 15.5 -2.1 -2.1 -2.1 -2.1 -2.1 -2.1 -2.1 -2.1 -2.1 -2.1 -2.1 -2.1 -2.1 -2.1 -2.1 -2.1 -2.1 -2.1 -2.1 -2.1 -2.1 -2.1 -2.1 -2.1 -2.1 -2.1 -2.1 -2.1 -2.1 -2.1 -2.1 -2.1 -2.1 -2.1 -2.1 -2.1 -2.1 -2.1 -2.1 -2.1 -2.1 -2.1 -2.1 -2.1 -2.1 -2.1 -2.1 -2.1 -2.1 -2.1 -2.1 -2.1 -2.1 -2.1 -2.1 -2.1 -2.1 -2.1 -2.1 -2.1 -2.1 -2.1 -2.1 -2.1 -2.1 -2.1 -2.1 -2.1 -2.1 -2.1 -2.1 -2.1 -2.1 -2.1 -2.1 -2.1 -2.1 -2.1 -2.1 -2.1 -2.1 26.2 52 71.6 78.4 83.6 70.8 83.4 120.7
6.7 12 14.2 18 20.5 21.7 21.6 11.2 13 12.7 14.9 19.8 23.8 31.4 31.9 34 35.1 35.7 36.6 33.6 30.9 33.2 33.9 37.4 44.9 47 47 50 50 54.5 59.3 67.6 71.5 70.2 74.2 76.3 80.6 84.1 83.9 85.7 84.9 84.4 83.2 86.7 98.2 98.6 101.7 106.1 108.3 107.8 112.1 114.5 101.3 98.4 95.6 95.6 102.6 127.6 127.9 127.9 120 110.9 107.6 97.6 99.9 103.3 104.6 100.4 90.2 90.9 99 99.6 98.8 101.1 92.9 88.8 84.8 73.5 63.3 55.2 52.6 51.7 47.4 40.3 34.2 33.1 33.4 32.6 41.8 53.9 57 65.2 72.8 103.9 121.1 133.1 133 126.5 121.9 112.6 96 83 72.7 70.5 74.5 71.3 63.2 55.7 50.4 41.8 29.3 -2.1 -2.1 -2.1 -2.1 -2.1 -2.1 -2.1 -2.1 -2.1 -2.1 -2.1 -2.1 -2.1 -2.1 -2.1 -2.1 -2.1 -2.1 -2.1 -2.1 -2.1 -2.1 -2.1 -2.1 -2.1 -2.1 -2.1 -2.1 -2.1 -2.1 -2.1 -2.1 -2.1 -2.1 -2.1 -2.1 -2.1 -2.1 -2.1 -2.1 -2.1 -2.1 -2.1 -2.1 -2.1 -2.1 -2.1 -2.1 -2.1 -2.1 -2.1 -2.1 -2.1 -2.1 -2.1 -2.1 -2.1 -2.1 -2.1 -2.1 -2.1 -2.1 -2.1 -2.1 -2.1 -2.1 -2.1 -2.1 -2.1 -2.1 -2.1 -2.1 -2.1 -2.1 -2.1 -2.1 -2.1 -2.1 -2.1 -2.1 -2.1 17.6 50.8 57.8 62.7 51.5 56.8 60.6 71.6
8.8 14.3 16.8 19.3 21 22.6 22.2 20.7 12.6 14.6 18.9 17.9 19.9 25.6 31.1 36.1 37.7 39.9 39.1 39.7 36.7 36.5 37.5 42 47.7 48.1 47.3 47.9 48.4 51 58.3 65 64.8 67.9 69.2 73.5 81.3 83.8 82.3 83.4 83.8 79.9 77.6 81.4 91.7 97.9 104.5 113.1 114.4 111.6 113.8 110.6 102 100.9 99.9 95.9 97.8 116.3 124 124.6 121.2 118.6 108.8 100.6 102.7 103.3 101.6 95.3 89.1 98.2 102.3 98.6 99.8 100.2 89.6 88 80.8 69 60.6 55.6 51.9 54.1 42.2 37.5 38.5 41.2 42 41.6 49.2 59.9 63 75.6 88.9 117.1 127.7 133.5 137.3 133.3 125.3 120.5 107.8 98.4 79.5 74.3 84.3 79.6 76.2 62.6 49.5 53.1 37.5 16.4 3.9 -2.1 -2.1 -2.1 -2.1 -2.1 -2.1 -2.1 -2.1 -2.1 -2.1 -2.1 -2.1 -2.1 -2.1 -2.1 -2.1 -2.1 -2.1 -2.1 -2.1 -2.1 -2.1 -2.1 -2.1 -2.1 -2.1 -2.1 -2.1 -2.1 -2.1 -2.1 -2.1 -2.1 -2.1 -2.1 -2.1 -2.1 -2.1 -2.1 -2.1 -2.1 -2.1 -2.1 -2.1 -2.1 -2.1 -2.1 -2.1 -2.1 -2.1 -2.1 -2.1 -2.1 -2.1 -2.1 -2.1 -2.1 -2.1 -2.1 -2.1 -2.1 -2.1 -2.1 -2.1 -2.1 -2.1 -2.1 -2.1 -2.1 -2.1 -2.1 -2.1 -2.1 -2.1 -2.1 -2.1 -2.1 -2.1 -2.1 27.5 45.8 47.5 45.7 36.7 40.8 46.1 42.1
12.4 17.6 20.3 21.8 22.6 23.7 23 20.7 15 17.8 21.4 21.4 22.2 24.6 32.6 36 42.7 46.3 47.9 44.8 45 41.2 41 47.2 54.5 52.6 50.3 48.3 48.8 51.3 57.3 61.1 61.5 62.6 63.7 68.8 81.1 80.1 78.7 84.9 80.3 75 74.4 78.6 92.8 101.9 108.2 116.9 121.8 112.7 112.1 109.7 105.6 106.7 110.6 104.8 98.3 112.5 125.7 123.7 126.3 129.8 119.8 104.8 103.4 102.3 98.7 91.8 90.9 97.7 99.9 95.9 99.5 95.6 87.9 82.6 75.2 69.7 61.2 53.5 52.5 44.9 39.6 43.1 44.1 49.1 47.6 55 56.1 58.9 67.4 87.1 112.1 118.1 131.3 140.1 140.5 140.1 130.9 123 116 110.6 98.4 84.9 87.4 84.8 78.7 70.4 49.2 47.8 35.9 21.6 19.1 15.2 15.9 20.7 28.1 18.7 -2.1 -2.1 -2.1 -2.1 -2.1 -2.1 -2.1 -2.1 -2.1 -2.1 -2.1 -2.1 -2.1 -2.1 -2.1 -2.1 -2.1 -2.1 -2.1 -2.1 -2.1 -2.1 -2.1 -2.1 -2.1 -2.1 -2.1 -2.1 -2.1 -2.1 -2.1 -2.1 -2.1 -2.1 -2.1 -2.1 -2.1 -2.1 -2.1 -2.1 -2.1 29.2 30.1 17.9 21.1 19.8 -2.1 -2.1 -2.1 -2.1 -2.1 -2.1 -2.1 -2.1 -2.1 -2.1 -2.1 -2.1 -2.1 -2.1 -2.1 -2.1 -2.1 -2.1 -2.1 -2.1 -2.1 -2.1 -2.1 -2.1 -2.1 -2.1 -2.1 17.2 19.9 24.8 45.9 35.9 24.5 22.8 30.4 23.4
19.8 21.4 23.4 24.4 25.2 24.8 24.7 22.6 17.3 15.5 18 21.6 23.8 24.4 28.3 38.6 41.8 46.6 47.9 50.4 46.1 43.3 42.5 51.9 61.9 62 59.2 52.7 50.9 51.7 55.3 58.4 62.1 63.2 62.7 59.2 66.8 70.1 73.4 73.9 74.7 74.2 74.2 78 90.7 102.4 110.6 120.4 121.1 114.4 114.1 115.6 109.4 113.7 115.4 108.6 99.4 100.4 121.2 123.7 132.2 138.2 127.1 106.8 102.9 101.8 99.6 93.9 94.6 95 93.6 94.4 92.9 86 89.1 86.2 79 68.1 57.2 54.8 55.8 46 46.3 50.1 54.4 57.5 47.9 56.9 63.5 56.1 64.2 98.4 119 127.8 133.4 140.5 148.2 145.6 141.9 131.6 124.3 116.7 103.7 94.4 92.1 85.7 77.4 70.2 51.3 40.6 36.9 32.8 29.6 23.2 24.1 32 40.1 34.4 21.4 -2.1 -2.1 -2.1 -2.1 -2.1 -2.1 -2.1 -2.1 -2.1 -2.1 -2.1 -2.1 -2.1 -2.1 -2.1 -2.1 -2.1 -2.1 -2.1 -2.1 -2.1 -2.1 -2.1 -2.1 -2.1 -2.1 -2.1 -2.1 -2.1 -2.1 -2.1 -2.1 -2.1 -2.1 -2.1 -2.1 -2.1 -2.1 -2.1 21.5 32.8 47.3 26.3 38 26.1 26 24 -2.1 -2.1 -2.1 -2.1 -2.1 -2.1 -2.1 -2.1 -2.1 -2.1 -2.1 -2.1 -2.1 -2.1 -2.1 -2.1 -2.1 -2.1 -2.1 -2.1 -2.1 -2.1 -2.1 -2.1 -2.1 -2.1 -2.1 33.1 31.5 24.7 20.7 15.2 18 17.4
21.7 27.8 27.9 29.8 30 27.3 26.7 26.3 23 15.5 17.5 20.1 24.5 26.6 27.1 35 39.4 42.2 47.6 50.3 42.6 39.8 43 59.5 64.3 66.4 67.7 58.1 54.1 54.8 62.7 63.6 64.3 63.2 57.6 57.6 64.5 66.9 69.4 70.6 75.4 73.8 74 76.1 87.6 103 113.8 119.8 118.4 116 114.7 114.6 112.1 110.4 114.2 107 99.6 98.2 101.6 128.5 138.7 143.1 132.2 112.9 105.9 101.8 100.3 95.6 95.2 96.4 92.4 89.9 85.7 83.1 86.4 79.2 70.3 61.7 56.8 56.2 52.4 49.9 54.9 58.5 61.1 49.8 48.7 53.4 53.8 57.4 80.1 110.6 126.6 135.2 138.3 145.7 149.1 153.4 150.6 141.2 131.3 127.4 113 98 93.9 76.8 72.9 62.7 50.3 37 31.8 32.5 31.6 28.8 24.5 25.1 39.3 44.5 38.4 30.6 7.3 8.1 -2.1 -2.1 -2.1 -2.1 -2.1 -2.1 -2.1 -2.1 -2.1 -2.1 -2.1 -2.1 -2.1 -2.1 -2.1 -2.1 -2.1 -2.1 -2.1 -2.1 -2.1 -2.1 -2.1 -2.1 -2.1 -2.1 -2.1 -2.1 -2.1 -2.1 -2.1 -2.1 -2.1 -2.1 -2.1 -2.1 16.8 25.9 44.7 40.7 43.8 40.6 34.5 34.4 25.6 -2.1 -2.1 -2.1 -2.1 -2.1 -2.1 -2.1 -2.1 -2.1 -2.1 -2.1 -2.1 -2.1 -2.1 -2.1 -2.1 -2.1 -2.1 -2.1 -2.1 -2.1 -2.1 -2.1 -2.1 -2.1 -2.1 44.2 21.2 14.6 9.9 2.4 15.6 18
23.9 29 34.9 34.2 34 35.1 31.3 27 23.9 15.9 18 19 20.5 24.8 26 28.4 36.4 39.2 44.2 45.1 39.7 39.5 41.3 51.1 61.6 63.7 62.9 58 51.6 58.8 68.6 66.3 64.8 58.1 57.6 57.6 61.2 64.4 66.8 70.5 72.7 73.9 74.5 76.5 84.5 102.1 105.4 116.9 119.4 120.8 117.2 115.9 110.7 110.2 112.7 104.2 100.3 99.5 99.9 126.4 142 140.8 132.3 114.9 104.7 102.3 99.5 96.7 98 104 94.1 90.8 84.9 82 77.5 77.1 75.4 67.6 58 57.1 59.4 55.2 57.3 54.9 48.2 48.2 48.2 48.2 55.1 66.8 92.8 112.6 128 141.6 143.1 150.3 151.6 155 151 144.5 137.1 126.6 110.2 96.6 91.3 68.6 62.9 55.9 46.1 33.4 28.1 26.2 29.9 29.4 21.6 19.8 31.6 45.3 38.9 36.3 34.2 29.6 19.9 -2.1 -2.1 -2.1 -2.1 -2.1 -2.1 -2.1 -2.1 -2.1 -2.1 -2.1 -2.1 -2.1 -2.1 -2.1 -2.1 -2.1 -2.1 -2.1 -2.1 -2.1 -2.1 -2.1 -2.1 -2.1 -2.1 -2.1 -2.1 -2.1 -2.1 -2.1 -2.1 -2.1 -2.1 -2.1 20.2 27.8 29.8 36.7 48.2 50.3 46.2 41.8 35.7 31 -2.1 -2.1 -2.1 -2.1 -2.1 -2.1 -2.1 -2.1 -2.1 -2.1 -2.1 -2.1 -2.1 -2.1 -2.1 -2.1 -2.1 -2.1 -2.1 -2.1 -2.1 -2.1 -2.1 -2.1 -2.1 30.9 16.6 -2.1 -2.1 -2.1 -2.1 22.7
25.5 31 37.3 35.3 35.9 36 32.5 29.2 26 22.9 18.6 21.3 20.3 22.1 23.6 25.2 30.4 36.3 41.5 38.3 38 38.6 43 47.6 55.4 57.5 57.3 51.6 51.6 52.4 73 69.8 67.4 61.2 57.6 57.6 61.4 64.4 69.3 72.5 74.5 75.9 75.5 77.3 83.4 90.6 97 110.6 118.5 122.3 123.8 120.4 115.2 109.6 108.8 106.4 106 106.5 106.5 120.2 142 139.6 130 119.2 105.6 103.8 101 97.6 103.2 103.7 99.8 91.5 83.1 80.2 76.4 82.5 86.9 77.5 61.3 59.4 62 59.9 56 48.2 48.2 48.2 48.2 53.7 61.3 75.1 97.8 111.9 123.7 144 147.3 155.7 154.2 155.1 153.5 144.9 128.9 114.6 102.1 95.9 81.7 60 54.9 49.1 39.4 28 22.3 20.1 21.7 21 18.5 14.2 17.1 33.6 33.9 26.8 30 31.4 27.3 -2.1 -2.1 -2.1 -2.1 -2.1 -2.1 -2.1 -2.1 -2.1 -2.1 -2.1 -2.1 -2.1 -2.1 -2.1 -2.1 -2.1 -2.1 -2.1 -2.1 -2.1 -2.1 -2.1 -2.1 -2.1 -2.1 -2.1 -2.1 -2.1 -2.1 -2.1 -2.1 -2.1 -2.1 25.7 29 30 37.2 32.5 42.2 54.7 55.1 48.1 47.5 44.8 -2.1 -2.1 -2.1 -2.1 -2.1 -2.1 -2.1 -2.1 -2.1 -2.1 -2.1 -2.1 -2.1 -2.1 -2.1 -2.1 -2.1 -2.1 -2.1 -2.1 -2.1 -2.1 -2.1 -2.1 -2.1 -2.1 -2.1 -2.1 -2.1 -2.1 -2.1 5.4
27 32.7 38 36.4 37.6 39.3 41.9 36.3 28.8 22.6 19.2 20.5 23.1 24.7 26.3 33.1 27.4 33.4 29.9 32.1 37 38.1 42.9 46.4 51.3 55.3 57 51.6 51.6 51.6 72.3 71.7 69 67.3 66.2 62.7 64.9 66.9 70.1 74.5 78.5 80.7 77.3 78.1 82.2 89.2 99.1 113.9 121.2 125.9 128.1 121.4 121.9 109.6 108.7 108.3 108.5 111.1 112 116 137.3 134.4 124.8 111.1 104.2 105.9 105.8 100.7 103.5 105.1 111.5 94.2 82.5 82.5 81.1 88.4 93.6 76.8 64.9 61.6 63.7 63.1 48.2 48.2 48.2 48.2 48.2 48.2 58.8 89.8 103.6 118.9 127.7 143.4 145.6 150.5 154 153.7 150.8 135.5 115.4 101.6 89.2 86.3 77 56.2 46.3 40.1 33 22.6 17.1 14.4 15.2 16.2 15 11.3 10.4 13.9 26.3 20 18.3 22.1 21 -2.1 -2.1 -2.1 -2.1 -2.1 -2.1 -2.1 -2.1 -2.1 -2.1 -2.1 -2.1 -2.1 -2.1 -2.1 -2.1 -2.1 -2.1 -2.1 -2.1 -2.1 -2.1 -2.1 -2.1 -2.1 -2.1 -2.1 -2.1 -2.1 -2.1 -2.1 -2.1 -2.1 2.8 37.3 38.7 38.6 42.1 33.6 36.2 49.3 53.9 57 67.1 54.3 46.6 -2.1 -2.1 -2.1 -2.1 -2.1 -2.1 -2.1 -2.1 -2.1 -2.1 -2.1 -2.1 -2.1 -2.1 -2.1 -2.1 -2.1 -2.1 -2.1 -2.1 -2.1 -2.1 -2.1 -2.1 -2.1 -2.1 -2.1 -2.1 -2.1 -2.1 -2.1
27.6 32.9 35 35.4 38.5 41.1 44.4 39.6 41.5 22 20.2 18.9 24.2 24 26.2 28.6 35.1 38.6 39.7 42.2 35.8 37.4 40.2 43.8 46.8 51.1 56.9 57.2 51.6 51.6 63.6 67.5 68.3 70.1 72.7 69.5 68.9 73.4 75.2 78.6 81.8 81.8 80 78.8 82.1 88.6 101.5 116.6 123.3 126.1 123 120.1 116.4 111.6 109 117.9 114.9 116.5 119.2 121.5 141.7 143.7 128.3 106 105 109.7 104.6 101.5 104.2 104.7 113.4 94.4 83.9 86.5 84.4 90.4 87.1 81.9 70.4 65.1 68.9 66.6 48.2 48.2 48.2 48.2 48.2 48.2 54.7 97.9 118.9 117.7 131.7 137.6 143.8 152.3 151.5 153.9 152.3 132.3 108.6 88.6 79.4 73.6 68.7 53.3 40 31.7 23.8 18.9 13.2 10.9 11.8 14.2 15.3 11.8 5.8 3.1 -2.1 13.8 12.1 14.7 16.5 6.1 -2.1 -2.1 -2.1 -2.1 -2.1 -2.1 -2.1 -2.1 -2.1 -2.1 -2.1 -2.1 -2.1 -2.1 -2.1 -2.1 -2.1 -2.1 -2.1 -2.1 -2.1 -2.1 -2.1 -2.1 -2.1 -2.1 -2.1 -2.1 -2.1 -2.1 -2.1 2.8 6.7 42.2 53.1 46.7 40.6 36 34.8 49.9 55.5 60.3 64.3 62.7 66.2 38.8 -2.1 -2.1 -2.1 -2.1 -2.1 -2.1 -2.1 -2.1 -2.1 -2.1 -2.1 -2.1 -2.1 -2.1 -2.1 -2.1 -2.1 -2.1 -2.1 -2.1 -2.1 -2.1 -2.1 -2.1 -2.1 -2.1 -2.1 -2.1 -2.1 -2.1
28.3 29.5 30.5 33.7 37 41.4 40.1 39 45.1 24.1 21.1 20.3 23 24.8 27.1 29.6 37.4 42.5 43.8 39 37 37.5 38.3 39.5 40.6 46.5 54.4 59.4 55 51.6 57.6 63.2 66.6 71 74.5 71.6 71.4 73.8 76.4 84 86.8 86 85.2 83.2 83.7 88.9 107 116.3 119.5 124.1 120.3 118.4 116.3 114 112 116.9 127.1 121.5 126.7 127.1 140.2 139.4 130.9 109.2 106.3 106 101.8 104.5 104.4 104 99.6 91.6 87.8 89.7 88.1 87 86.6 83.9 75.4 69.6 78 72.9 57.5 48.2 48.2 48.2 48.2 48.2 57.6 106.4 126.4 127.3 132.1 137.4 145.5 152.5 155.3 153.5 147.3 132.9 108.5 84.3 73.2 63.2 54.2 46.5 32.4 24.2 20.3 14.1 11.3 10.9 10.3 12.6 13.9 9.6 3.8 -2.1 -2.1 -2.1 -2.1 -2.1 9 -2.1 -2.1 -2.1 -2.1 -2.1 -2.1 -2.1 -2.1 -2.1 -2.1 -2.1 -2.1 -2.1 -2.1 -2.1 -2.1 -2.1 -2.1 -2.1 -2.1 -2.1 -2.1 -2.1 -2.1 -2.1 -2.1 -2.1 -2.1 -2.1 -2.1 -2.1 -2.1 11 14.1 36.5 55.5 56.1 47.5 44.8 39.5 43.7 57.4 58.4 60.5 69.9 72.5 66.3 59.2 -2.1 -2.1 -2.1 -2.1 -2.1 -2.1 -2.1 -2.1 -2.1 -2.1 -2.1 -2.1 -2.1 -2.1 -2.1 -2.1 -2.1 -2.1 -2.1 -2.1 -2.1 -2.1 -2.1 -2.1 -2.1 -2.1 -2.1 -2.1 -2.1
32.9 33 35 35.5 38.3 41 40.6 40 41.5 27.8 23.9 23.2 22 25.2 27.8 29.6 33.8 38 38.2 39 39 38 38.8 40 41.2 45 54.3 59 58.9 51.6 53.7 62.3 66.7 72.6 76.8 73.5 73.8 75.9 76.8 80.1 87.4 91 91.5 89.1 86.9 88.6 100.1 108.8 114.9 118.1 119 117.6 116.6 119.4 119.1 113.9 127.7 126.1 132 135.2 131.8 133.1 121.3 110.3 104.7 102 101.5 103.5 100.1 100.1 95.2 90.9 91.7 95.1 93.1 90.3 87.9 84.2 74.2 80.6 85.4 83.4 63.4 49.5 48.2 48.2 48.2 48.2 68.9 109.6 131.3 137.9 139.8 138.6 146.1 153.6 158.5 154 142.1 126.4 104.7 84 71.2 62.2 45.9 37.1 27.8 21.7 17 12.8 10.8 10.9 10.3 10 11 7.7 5.6 -2.1 -2.1 -2.1 -2.1 -2.1 -2.1 -2.1 -2.1 -2.1 -2.1 -2.1 -2.1 -2.1 -2.1 -2.1 -2.1 -2.1 -2.1 -2.1 -2.1 -2.1 -2.1 -2.1 -2.1 -2.1 -2.1 -2.1 -2.1 -2.1 -2.1 -2.1 -2.1 -2.1 -2.1 -2.1 -2.1 -2.1 -2.1 7.9 15.3 24.2 41.2 60.3 54.9 47.3 43.3 38.4 48.3 53.2 56.9 73.9 75.5 73 78.2 57.8 31 -2.1 -2.1 -2.1 -2.1 -2.1 -2.1 -2.1 -2.1 -2.1 -2.1 -2.1 -2.1 -2.1 -2.1 -2.1 -2.1 -2.1 -2.1 -2.1 -2.1 -2.1 -2.1 -2.1 -2.1 -2.1 -2.1 -2.1
33.8 35.9 36.8 39.6 41 40.9 44 45.6 44.1 33.7 26.8 28 27.9 25.8 27.2 28.3 31.8 35.9 39 41.3 40.8 40.1 41 40.4 42.1 43.3 51.7 58.5 60.7 58.7 58.5 64.2 73.7 78.9 80.5 77.6 76.3 76.7 77.5 78.4 88 92.9 95.9 92.8 92 93.2 92 97.7 104.7 112.6 115.9 119.7 120.5 129.7 123 118 120.4 128.9 140.4 140.8 137.8 125.1 117.1 111.6 102.2 97.3 94 95.9 95.4 93.7 87.9 92.9 93.8 104.8 105.8 96.6 91 85.5 72.7 92.6 94.2 84.1 68.9 55.2 50 48.2 48.2 48.2 71.7 110.2 129.5 139.7 146.4 145 150.3 152.9 158.7 155.1 134.9 117.6 94 85.3 75 59.6 43.8 33.4 25.8 21.2 15.4 12.4 11.3 11.4 12.7 10.1 8 2.7 -2.1 -2.1 -2.1 -2.1 -2.1 -2.1 -2.1 -2.1 -2.1 -2.1 -2.1 -2.1 -2.1 -2.1 -2.1 -2.1 -2.1 -2.1 -2.1 -2.1 -2.1 -2.1 -2.1 -2.1 -2.1 -2.1 -2.1 -2.1 -2.1 -2.1 -2.1 -2.1 -2.1 -2.1 -2.1 -2.1 -2.1 -2.1 -2.1 20.8 19.6 22 26.4 47.4 51.6 48.2 49.6 40.2 45.4 54.2 56.2 65.2 74.9 74.8 82.8 68.8 47.9 -2.1 -2.1 -2.1 -2.1 -2.1 -2.1 -2.1 -2.1 -2.1 -2.1 -2.1 -2.1 -2.1 -2.1 -2.1 -2.1 -2.1 -2.1 -2.1 -2.1 -2.1 -2.1 -2.1 -2.1 -2.1 -2.1 -2.1
40.6 36.8 40 43.4 42.6 41.4 46.3 46.2 43.6 38.8 41 36.8 32.4 30.8 29.4 30.9 34.5 39.7 43.4 44.2 43.1 42.5 43.4 43 42.9 44 48.5 54.7 58.6 59.9 65.4 73.5 82.9 85.5 87.1 83.6 81.3 77.1 77.7 79.2 88.8 91.7 94.8 95.3 95 97.3 96.9 97.9 104 107.5 109.8 116.9 126.3 125.6 123.1 122.1 122.5 131 144.7 144.9 138.6 123.5 110.3 105 99.9 89.6 87.9 93.6 87.9 87.9 87.9 97.3 108.4 111.9 107.8 97.9 91.2 80.6 83.2 100.5 98.1 83.8 75.1 65.1 50.8 48.2 54.7 54.7 78.8 116.8 129.8 137.7 145 149.1 150.1 159.1 156.1 152.4 133.9 112.8 94.8 85 77.2 59.8 42.9 28.9 23.9 21 16.6 13.6 14.3 16.1 17.4 10.2 6.7 5.1 -2.1 -2.1 -2.1 -2.1 -2.1 -2.1 -2.1 -2.1 -2.1 -2.1 -2.1 -2.1 -2.1 -2.1 -2.1 -2.1 -2.1 -2.1 -2.1 -2.1 -2.1 -2.1 -2.1 -2.1 -2.1 -2.1 -2.1 -2.1 -2.1 -2.1 -2.1 -2.1 -2.1 -2.1 -2.1 -2.1 -2.1 -2.1 -2.1 18.7 17.9 19.5 27.3 25.9 44.3 48.2 55.6 46.5 44.7 46.7 55.5 68.7 70.6 72.2 79.9 73.6 54.2 23.9 -2.1 -2.1 -2.1 -2.1 -2.1 -2.1 -2.1 -2.1 -2.1 -2.1 -2.1 -2.1 -2.1 -2.1 -2.1 -2.1 -2.1 -2.1 -2.1 -2.1 -2.1 -2.1 -2.1 -2.1 -2.1 -2.1
47.7 44.7 41.1 46.7 42.7 42.1 44 45.9 46.3 44.1 44.1 47.4 47.9 46.5 42 33.9 33.2 40.4 44 48.3 46 45.7 43.5 45.8 44.4 45.6 47.2 51.4 55.9 59.1 67 76.4 82 86.7 89.3 89.3 84.6 79.4 78.3 82.3 89.6 92 94 98.5 99.9 100.4 102.2 103.8 105.5 108.8 111 116.8 128 128.8 127 129.9 124.8 125.9 141.2 147.6 140.6 131.4 109.3 102.7 94.8 87.9 87.9 87.9 87.9 87.9 97.9 114.1 110.7 112 106.7 109.1 92.2 79.9 94.1 101 92.7 88.7 74.9 67.7 58.2 54.1 54.3 61.6 82.6 111.2 134.4 135.4 138.3 148.6 153.4 157.2 159.7 146.4 127.7 104.1 94.7 85.5 75.5 55.1 39.1 29.6 24 20.6 18.7 16.6 19.2 19.8 20 10.5 7 4.1 -2.1 -2.1 -2.1 -2.1 -2.1 -2.1 -2.1 -2.1 -2.1 -2.1 -2.1 -2.1 -2.1 -2.1 -2.1 -2.1 -2.1 -2.1 -2.1 -2.1 -2.1 -2.1 -2.1 -2.1 -2.1 -2.1 -2.1 -2.1 -2.1 -2.1 -2.1 -2.1 -2.1 -2.1 -2.1 -2.1 -2.1 -2.1 -2.1 -2.1 10.7 12.5 15.2 21.6 31 44.8 52.4 53.1 48.4 50.2 50.3 64.4 71.9 74.4 76.7 67.8 48.9 26.3 -2.1 -2.1 -2.1 -2.1 -2.1 -2.1 -2.1 -2.1 -2.1 -2.1 -2.1 -2.1 -2.1 -2.1 -2.1 -2.1 -2.1 -2.1 -2.1 -2.1 -2.1 -2.1 -2.1 -2.1 -2.1 -2.1
53.6 50.9 43.2 48.2 46.4 43.7 43.6 45.8 51.6 49.6 48.1 47.9 54.7 55.5 55.5 49.4 41.1 38.3 45.8 50.4 51 47.4 47.9 46.2 45.8 49.6 50.7 52.4 55.2 58 65.6 77.3 83.9 87.3 91.8 94.4 88.7 82.1 80.7 86.3 93 93.7 95.7 102.4 111 111.7 110.7 108.2 107.2 110.8 112.5 118.7 124.8 128.1 128.6 134 126.9 128.6 134 141.4 138.4 129.3 113.4 103.4 94.6 87.9 87.9 87.9 87.9 96.7 117.5 119.9 115.7 111.9 110.9 110.2 88.7 90.5 100.7 96.1 94.9 88.1 74.5 72.9 65.9 59.2 60.1 63.3 94.6 110.9 127.3 134 135.8 140.5 153.8 149.6 153.4 133 111.4 98.4 90.9 80.7 69.6 51.4 36.7 34.1 27.2 26.7 23.4 21.7 23.7 24.8 20.7 12 8.1 4.5 -2.1 -2.1 -2.1 -2.1 -2.1 -2.1 -2.1 -2.1 -2.1 -2.1 -2.1 -2.1 -2.1 -2.1 -2.1 -2.1 -2.1 -2.1 -2.1 -2.1 -2.1 -2.1 -2.1 -2.1 -2.1 -2.1 -2.1 -2.1 -2.1 -2.1 -2.1 -2.1 -2.1 -2.1 -2.1 -2.1 -2.1 -2.1 -2.1 -2.1 -2.1 3.6 8.3 16.1 20.4 34 43 48.2 49.5 53.3 52.1 59 65.1 75.8 84.6 83.6 51.1 31.9 -2.1 -2.1 -2.1 -2.1 -2.1 -2.1 -2.1 -2.1 -2.1 -2.1 -2.1 -2.1 -2.1 -2.1 -2.1 -2.1 -2.1 -2.1 -2.1 -2.1 -2.1 -2.1 -2.1 -2.1 -2.1 -2.1
59.3 51.3 45.8 47.5 48.5 48.6 44.7 46 50.5 51 51.2 51.1 54.3 57.2 65 57.9 53.3 49.5 44.7 45.4 50.4 53.1 52 51.5 46.2 54.1 58.3 60.2 58.1 57.8 66.1 79.4 83.6 86.8 92.7 95 92.7 86 83.8 85.6 95.5 94.4 95.9 102.6 112.3 121.3 121.5 111.5 109.2 109.7 114 120.1 126.2 128.7 130.8 134.5 128.6 132.8 133 134.4 131.9 126.1 117.7 106 98.9 89.6 87.9 87.9 94.4 112.1 127.3 127 121 113.9 113.3 104.9 87.1 97 97.8 98.3 93.6 85.2 75.1 73.3 63.7 66.5 70.7 65.1 99.8 110.5 118.9 134.1 141.6 136.6 143.6 149.1 135.3 128.4 115.3 96.9 86.2 74.8 66.2 47.2 44.6 50.7 43.9 37.2 34.2 27.7 28.7 27.9 20.4 13.4 9.8 4.6 -2.1 -2.1 -2.1 -2.1 -2.1 -2.1 -2.1 -2.1 -2.1 -2.1 -2.1 -2.1 -2.1 -2.1 -2.1 -2.1 -2.1 -2.1 -2.1 -2.1 -2.1 -2.1 -2.1 -2.1 -2.1 -2.1 -2.1 -2.1 -2.1 -2.1 -2.1 -2.1 -2.1 -2.1 -2.1 -2.1 -2.1 -2.1 -2.1 -2.1 -2.1 -2.1 -2.1 8.4 14.1 23.1 30 42.2 56 53.5 59.1 57.3 57.2 66.9 83.1 75.2 61.3 29.3 -2.1 -2.1 -2.1 -2.1 -2.1 -2.1 -2.1 -2.1 -2.1 -2.1 -2.1 -2.1 -2.1 -2.1 -2.1 -2.1 -2.1 -2.1 -2.1 -2.1 -2.1 -2.1 -2.1 -2.1 -2.1 -2.1
62 54.9 47 48.1 49.6 51.2 47.3 46.2 46.8 48.6 52.1 54.9 58.7 61.6 65.7 67.3 64.9 61.2 59.7 50.9 53.5 53 56 60.7 57.7 50.3 58.9 65.9 65.4 61.9 67.9 77.7 83.3 86.9 91.7 93.6 91.6 88.3 88.6 88.9 95.9 97.2 96 102.3 114.2 120.3 121.4 113.8 109.9 109.2 112.9 121.6 125.1 126.7 130.2 128.5 128.8 131.5 135.3 132 128.4 124 115 108.6 102.9 97.2 91 101.6 106.8 117.2 129.3 130.6 125 117.5 111.2 109.9 98.9 97.2 102.2 102.1 92.6 85.1 78 74.7 67.8 72.7 75.7 70.5 98.5 116.5 121.5 126.3 137.5 141.7 129.5 133.1 128.9 124.5 113.8 98.1 82.3 75.7 63.2 45.4 49.2 54 45.5 41.7 39.5 32.2 35.7 30.9 22.6 15.7 11.4 8.4 -2.1 -2.1 -2.1 -2.1 -2.1 -2.1 -2.1 -2.1 -2.1 -2.1 -2.1 -2.1 -2.1 -2.1 -2.1 -2.1 -2.1 -2.1 -2.1 -2.1 -2.1 -2.1 -2.1 -2.1 -2.1 -2.1 -2.1 -2.1 -2.1 -2.1 -2.1 -2.1 -2.1 -2.1 -2.1 -2.1 -2.1 -2.1 -2.1 -2.1 -2.1 -2.1 -2.1 6.9 8.8 19.2 26.3 41.3 47.7 52.1 53.5 60.1 55.9 57.2 72.8 72.3 60.1 32.6 -2.1 -2.1 -2.1 -2.1 -2.1 -2.1 -2.1 -2.1 -2.1 -2.1 -2.1 -2.1 -2.1 -2.1 -2.1 -2.1 -2.1 -2.1 -2.1 -2.1 -2.1 -2.1 -2.1 -2.1 -2.1 -2.1
60.5 59.3 51.4 51.5 53.5 54.3 57.3 48.9 46.8 48.2 55.2 61.6 63.4 67.8 70.7 69.7 76.8 67.9 64.7 66.3 58.7 57.8 57.4 57.6 62.7 59.9 50.3 65.6 65.7 63.8 65.9 73.9 82.5 87.2 90.8 93.7 94.7 88.2 88.4 89.3 95.4 97.9 98.3 107.9 119.4 124.2 123.6 117.1 111 109.7 110.4 124.3 126.3 125.9 130.9 128.3 127.4 127 127.9 131.2 127.4 121.7 116.4 111.1 105.9 100.3 94.9 110.2 122.7 126.8 132.4 132.1 123.2 116.7 109.3 101.6 97.7 99.5 103.2 101.4 91.7 82.8 77 76.4 78.9 76.3 72.7 71.8 95.8 119.4 123.7 130 128.9 139.7 135.6 123.7 122.9 120.3 112.4 87.4 78 68.8 59.1 45.4 50.7 54.3 46.6 47.2 47.5 38.2 40.6 38.1 26.8 19 13.2 10.1 -2.1 -2.1 -2.1 -2.1 -2.1 -2.1 -2.1 -2.1 -2.1 -2.1 -2.1 -2.1 -2.1 -2.1 -2.1 -2.1 -2.1 -2.1 -2.1 -2.1 -2.1 -2.1 -2.1 -2.1 -2.1 -2.1 -2.1 -2.1 -2.1 -2.1 -2.1 -2.1 -2.1 -2.1 -2.1 -2.1 -2.1 -2.1 -2.1 -2.1 -2.1 -2.1 -2.1 -2.1 5.9 12.6 28.9 36.5 48.1 43.8 48.7 56.6 54.2 54.9 58.8 68.6 61.6 45.9 16.4 -2.1 -2.1 -2.1 -2.1 -2.1 -2.1 -2.1 -2.1 -2.1 -2.1 -2.1 -2.1 -2.1 -2.1 -2.1 -2.1 -2.1 -2.1 -2.1 -2.1 -2.1 -2.1 -2.1 -2.1 -2.1
68.7 60.2 59.2 56.3 58.3 62 58.5 59.7 47.6 48.3 51.5 67.6 69.3 70.9 76.6 78.4 75.3 80.9 74.5 70.2 72.3 67.2 68.9 64.6 60 63.7 56.5 57.6 64 65.8 68.8 74.9 82.7 86.7 89 94.8 97.1 91.9 89.6 89.6 94.1 98.2 98.6 112.9 119.7 126.3 126.9 124.7 112.3 110.5 109.9 117.7 122.8 124.7 127.2 130.7 126.2 125.2 124.3 125.1 130.5 124 119.2 113.7 107.7 100.4 103.1 112.8 122.3 129.1 134.1 133.4 124.1 115.2 105.5 99.1 97.2 98.7 107.7 104.5 92 82.3 82.9 82.3 83.4 75.4 73.5 75.3 92.8 109.6 118.1 129.8 125.2 128.9 128.9 125.8 118.3 113.2 110.4 92.5 71.6 65 58.8 48.8 57.2 54.3 50.2 49.3 42 40.1 45.3 43.4 34 23 16.9 12.5 9.6 -2.1 -2.1 -2.1 -2.1 -2.1 -2.1 -2.1 -2.1 -2.1 -2.1 -2.1 -2.1 -2.1 -2.1 -2.1 -2.1 -2.1 -2.1 -2.1 -2.1 -2.1 -2.1 -2.1 -2.1 -2.1 -2.1 -2.1 -2.1 -2.1 -2.1 -2.1 -2.1 -2.1 -2.1 -2.1 -2.1 -2.1 -2.1 -2.1 -2.1 -2.1 -2.1 -2.1 -2.1 12.6 17.7 27.1 34.2 40.9 38.8 50.6 52.2 57.5 57.8 61.8 62.1 53.7 24.1 -2.1 -2.1 -2.1 -2.1 -2.1 -2.1 -2.1 -2.1 -2.1 -2.1 -2.1 -2.1 -2.1 -2.1 -2.1 -2.1 -2.1 -2.1 -2.1 -2.1 -2.1 -2.1 -2.1 -2.1 -2.1
77.3 71.9 66.5 61.9 62.2 62.5 63.2 63.1 53.9 48.4 52.2 64.3 72.3 75.7 80.8 84.5 80.6 81.1 79 75.8 75 74.9 78.8 79.3 76.7 63.3 63 54.7 62.3 64.2 69.3 81.3 82.6 86 89.6 94.6 96.3 94.1 93.8 91.5 91.9 96.6 99.2 110.7 117.7 126 127.3 126.9 115.1 112.3 111.6 116 121.4 122.1 121 122.5 124.8 122.9 120.3 120.2 127.5 120.5 121.8 116.1 111.9 102.2 103.6 113.5 121.1 129.3 129.9 133 126.4 114.9 108.8 99.5 97.9 100.2 107.6 110.2 93.3 87.3 91.2 87.2 85.9 79.1 83.5 83.8 87.1 98.1 106.6 118.1 121.1 123.6 121.2 117.2 107.4 106.7 95 87.3 71.5 63 53.4 49.1 61.7 56.4 50.3 47.7 39.3 40.8 46.3 50.8 40.6 26.2 20.7 16.6 15.1 -2.1 -2.1 -2.1 -2.1 -2.1 -2.1 -2.1 -2.1 -2.1 -2.1 -2.1 -2.1 -2.1 -2.1 -2.1 -2.1 -2.1 -2.1 -2.1 -2.1 -2.1 -2.1 -2.1 -2.1 -2.1 -2.1 -2.1 -2.1 -2.1 -2.1 -2.1 -2.1 -2.1 -2.1 -2.1 -2.1 -2.1 -2.1 -2.1 -2.1 -2.1 -2.1 -2.1 -2.1 -2.1 14.5 21.8 25.7 32.8 43.5 47.3 53 52.1 57.5 56.9 55 48.7 24.5 -2.1 -2.1 -2.1 -2.1 -2.1 -2.1 -2.1 -2.1 -2.1 -2.1 -2.1 -2.1 -2.1 -2.1 -2.1 -2.1 -2.1 -2.1 -2.1 -2.1 -2.1 -2.1 -2.1 -2.1 -2.1
74.6 72.6 70 68.7 66.3 72.2 73.6 63.4 55.6 48.9 53.2 63.3 72.3 76.5 81.1 86.8 94.4 85.1 84.2 86 79.9 76.7 81 80.2 86 74.4 66.3 63.6 59 63.3 68.2 76.8 82.2 85.4 87.2 91.7 93.3 93.1 96.2 95.5 92.6 95.8 101.1 114.5 116.8 122.8 128.9 127.3 119.3 113 112.9 115.9 120.6 120.2 114.1 120.3 120.6 116.7 114.1 114.1 114.1 114.1 116.8 115.8 113.4 109.1 105.3 119.8 124.4 127.3 127.2 128.2 121.3 112 107 98.6 99.3 102.7 111.4 107.4 94.2 90.5 99.7 115.7 113.4 90.8 96.8 98.8 89.6 93 99.5 107.7 111.5 113.5 118.3 106.6 98.3 98.7 85.5 73 66.1 56.9 49.8 46 59.3 59.1 50.9 45.4 41.2 41 44.1 48.2 41.2 31 25.2 21.4 20.1 16.4 -2.1 -2.1 -2.1 -2.1 -2.1 -2.1 -2.1 -2.1 -2.1 -2.1 -2.1 -2.1 -2.1 -2.1 -2.1 -2.1 -2.1 -2.1 -2.1 -2.1 -2.1 -2.1 -2.1 15.2 -2.1 -2.1 -2.1 -2.1 -2.1 -2.1 -2.1 -2.1 -2.1 -2.1 -2.1 -2.1 -2.1 -2.1 -2.1 -2.1 -2.1 -2.1 -2.1 -2.1 12 22 22.4 31.8 47.3 46.4 52.5 47.9 47.2 51.8 53.3 43.9 20.8 -2.1 -2.1 -2.1 -2.1 -2.1 -2.1 -2.1 -2.1 -2.1 -2.1 -2.1 -2.1 -2.1 -2.1 -2.1 -2.1 -2.1 -2.1 -2.1 -2.1 -2.1 -2.1 -2.1 -2.1 -2.1
64.6 71.6 71.9 73.9 71.4 72.1 78.6 66.7 55.8 49.9 53.2 64.1 75.6 81 82.3 86.8 93.6 89.2 86.8 86.3 83 85.8 79 80.9 84.5 79.4 69.2 67.8 62.5 60.6 64.7 71.9 78.9 81.9 85.1 90.4 93.2 92.1 94.7 94.6 94.1 93.6 101 112.6 117 119.4 126 127.1 120.9 113.8 113.8 116.5 120.2 116.4 114.1 114.1 114.1 114.1 114.1 114.1 114.1 119.8 124.1 119 119.1 116.3 111.1 121.5 127.2 127.2 126.7 123.6 117.2 108.2 102.1 101.5 103.1 112 117.8 108.1 101.4 95.4 100.3 115.1 116.3 101.3 106 103.3 102.3 87.8 86.9 98.4 102.6 114.2 112.3 106.5 95.9 96.5 82.1 64.3 55.9 50.5 45.9 45.1 54.6 56.3 51.4 45.7 46 43.4 43.9 44.7 41.6 36.1 29.2 26.7 25.4 24.9 -2.1 -2.1 -2.1 -2.1 -2.1 -2.1 -2.1 -2.1 -2.1 -2.1 -2.1 -2.1 -2.1 -2.1 -2.1 -2.1 -2.1 -2.1 23.9 19.5 10.1 16.8 36.6 24.3 16.9 5.9 -2.1 -2.1 -2.1 -2.1 -2.1 -2.1 -2.1 -2.1 -2.1 -2.1 -2.1 -2.1 -2.1 -2.1 -2.1 -2.1 -2.1 -2.1 5.8 16.9 18.1 23 29.9 39 47.9 48 43.1 45.6 45.4 38.6 20.6 -2.1 -2.1 -2.1 -2.1 -2.1 -2.1 -2.1 -2.1 -2.1 -2.1 -2.1 -2.1 -2.1 -2.1 -2.1 -2.1 -2.1 -2.1 -2.1 -2.1 -2.1 -2.1 -2.1 -2.1 -2.1
73.2 71.3 74.6 76.9 77.8 76.3 78.5 70.4 57.2 54.1 61.1 68.8 75 84.7 90.6 93 92.7 92.9 93.1 89 84.8 84.6 85.6 92.2 94.8 86.8 82.3 71.3 67.4 64.6 58.9 65.7 70.5 76.5 81.5 85.8 91.3 88.4 92.5 95.4 94.8 94.3 101.5 108.2 117.3 119.6 125.2 122.6 117 114.1 114.2 115.1 124.3 121.6 114.1 114.1 114.1 114.1 114.1 114.2 120.7 124.3 126.1 124.4 123.1 119.8 116.3 123.4 130.2 135.5 126.7 124.2 116.5 107.8 106.1 115.1 109.4 119.2 117.8 111.6 106.6 97.7 115.7 113.9 116.8 107.1 108.5 104.4 103.6 98.5 82.3 83 102.4 100 107.7 100.8 93.9 93.3 82.9 62.6 51.9 47.6 45.2 45.5 49.9 50.8 48.4 42.9 43.8 42.9 43.9 43.8 45.1 37.8 34.2 32.2 30.2 31.3 22.2 -2.1 -2.1 -2.1 -2.1 -2.1 -2.1 -2.1 -2.1 -2.1 -2.1 -2.1 -2.1 -2.1 -2.1 32.8 45.6 50.9 46.9 35.2 44 58.5 56.5 46.2 35.8 18.6 11.8 -2.1 -2.1 -2.1 11.7 -2.1 -2.1 -2.1 -2.1 -2.1 -2.1 -2.1 -2.1 -2.1 -2.1 -2.1 -2.1 -2.1 -2.1 10.4 15 18.9 23 30.7 41 41.4 40.4 40.2 40.4 36.1 27.7 -2.1 -2.1 -2.1 -2.1 -2.1 -2.1 -2.1 -2.1 -2.1 -2.1 -2.1 -2.1 -2.1 -2.1 -2.1 -2.1 -2.1 -2.1 -2.1 -2.1 -2.1 -2.1 -2.1 -2.1 -2.1
77 74.3 73.9 78.2 80.1 77.5 76.3 74.2 60.7 54.7 64.5 69.4 73.8 81.4 92.7 101.8 101.8 99.2 103.2 93.9 97.6 89.2 91.7 93.8 98.5 88.5 86.6 75.2 71.1 69.4 68.3 62.1 66.9 70.7 76 83.4 86.3 83.4 89.9 99.5 96 95.9 109.4 109.5 114.9 118.6 120.4 121.1 118 114.6 115 115.2 123.5 122.9 114.1 114.1 114.1 116.3 121.8 123 124.4 125.4 126.3 129.5 126.1 124.4 117.9 125 131.8 138 130.3 123.6 119.3 107.5 117.3 126.3 114.2 126.4 120.7 123.5 113.4 111.7 124.5 122.1 113.3 111.2 113.9 101.7 99.1 96.7 84.7 76.8 88.6 94.5 97.4 98.9 89.5 84.7 75.5 66.5 51.9 47.2 45.6 44.3 45.3 44.1 42.9 42.9 42.9 43.6 45.8 46.7 48.8 41 41.3 39.2 37.3 37.8 25.5 -2.1 -2.1 -2.1 -2.1 -2.1 -2.1 -2.1 -2.1 -2.1 -2.1 -2.1 -2.1 -2.1 22.2 48 65 65.2 48.5 46.3 64.6 83.5 71.1 72.1 56.4 42.4 34 20.2 22.1 14.8 12 -2.1 -2.1 -2.1 -2.1 -2.1 -2.1 -2.1 -2.1 -2.1 -2.1 -2.1 -2.1 -2.1 2.3 10.7 12.3 15.4 20.2 27.9 33.2 40 39 38.8 36.5 26.3 18.6 17.1 -2.1 -2.1 -2.1 -2.1 -2.1 -2.1 -2.1 -2.1 -2.1 -2.1 -2.1 -2.1 -2.1 -2.1 -2.1 -2.1 -2.1 -2.1 -2.1 -2.1 -2.1 -2.1 -2.1 -2.1
78.5 82 84.1 83.6 79.5 78 76.3 79.2 59.6 58.5 67.6 72.7 76.6 80.5 92.6 104.1 104.6 105.1 107.7 101.4 100 94.9 100.1 96 102.2 97.3 91.7 87.2 74.3 72.2 74 78.8 64.2 67.9 70.5 75.5 81 84.8 82 98.3 97.1 96.2 110.7 112 113.9 118.7 117.5 116.3 115.4 110.2 113.6 115.9 122.3 124.2 119.8 114.1 118.9 125 125.2 126.5 126.2 126 128.3 129 127.3 124 119.7 118.3 131.3 142.1 131.3 124.5 119.7 112.7 126.3 131.9 123.3 128.3 130 129.2 130.2 132.6 125.6 122.8 110.1 111.1 109.1 108.1 98 88.6 82.2 76.8 76.8 92.2 89.5 93.8 90.1 84.3 80.6 70.9 55.4 47.6 45.8 44.5 44.6 43.4 42.9 42.9 43.4 46.1 48.2 50.5 53.5 49.6 48.8 48.3 45.4 44.8 35.6 22.4 -2.1 -2.1 -2.1 -2.1 -2.1 -2.1 -2.1 -2.1 -2.1 -2.1 -2.1 -2.1 37.5 62.9 78.5 70.4 65.8 61.6 95.7 100.6 91.8 98.4 82.4 68.8 55.3 27.2 34.7 23 7.8 -2.1 -2.1 -2.1 -2.1 -2.1 -2.1 -2.1 -2.1 -2.1 5.8 9.7 20.8 19.5 10 11.5 11.7 11.8 13.8 24.1 34.9 38.7 39.9 37.2 34.4 21.1 11.9 -2.1 -2.1 -2.1 -2.1 -2.1 -2.1 -2.1 -2.1 -2.1 -2.1 -2.1 -2.1 -2.1 -2.1 -2.1 -2.1 -2.1 -2.1 -2.1 -2.1 -2.1 -2.1 -2.1 -2.1 -2.1
83.4 89.3 88.1 89.1 85.6 77.7 76.4 73 61 60.8 72.5 76.6 79.9 83.3 90.8 102.5 107.2 107.2 109.3 104.7 104.3 97.7 101.6 100.2 102.2 100.3 93.6 94.1 82.3 74.9 75.2 76.1 68.7 68.1 69.2 69.9 69.9 73 76.8 92.8 96.9 96.9 108 111.4 113.3 114.6 115.2 116.2 116.5 109 113 118.1 121.3 125.5 125.6 121.6 122 131.1 126.7 126.9 127.5 128.2 128.1 129.8 126.9 123.8 118.8 119 133.9 138.5 127.2 126.2 123.5 115.7 126.1 136 139.8 140.1 136.7 144.5 142.5 136.2 131.5 121.9 110.2 109.2 112.5 102.8 94.5 93.4 82.8 76.8 76.8 76.8 81.6 85.8 86.1 78.4 79.6 70.8 57 49.1 46 45.2 46.2 45.3 43 44 50.4 53.5 54.3 55.7 56.8 58.6 57.4 55.9 50.2 50.6 40.6 25.6 18.8 -2.1 -2.1 -2.1 -2.1 -2.1 -2.1 -2.1 -2.1 -2.1 22 38.7 57.6 78.9 84.2 82.4 75.8 89.5 118.5 105.8 99.4 103.3 97.5 83.8 63.4 52.6 40.9 40.4 16.8 -2.1 -2.1 -2.1 -2.1 -2.1 -2.1 -2.1 -2.1 -2.1 -2.1 9.5 22.1 28.7 24.8 20.2 11.4 10.4 11.5 16.4 31.1 42.4 45.4 33.8 32.1 20.5 5.2 -2.1 -2.1 -2.1 -2.1 -2.1 -2.1 -2.1 -2.1 -2.1 -2.1 -2.1 -2.1 -2.1 -2.1 -2.1 -2.1 -2.1 -2.1 -2.1 -2.1 -2.1 -2.1 -2.1 -2.1 -2.1
88.8 90.3 89.2 93.8 94 79.1 72.1 66 63.8 67 77.5 81.2 84.5 89.5 95.6 102.2 106.4 110.2 108.2 105.4 103.4 97.4 103.2 103.4 103 102.1 103.8 104.2 94.9 86.7 74.3 73.1 71.4 71.2 69 69.4 70.4 72.2 72.1 84.8 90.3 91.5 104.8 110.5 112.2 115.3 115.8 116.2 117 109 110.9 125.5 124.8 126.5 128.8 125.8 126.7 131.4 130.7 130.1 131.5 130.8 130.3 130.3 128.7 123.1 118.4 123.3 133.8 135.5 127.8 126.2 122.2 115.3 123.4 132.8 145.8 149 151.7 151.9 147.2 148.6 142.4 125.4 116.5 109 108.6 104.3 104.6 91.8 85.8 76.8 76.8 76.8 76.8 81.5 82 71.4 68.2 64.3 57.2 51.4 48.2 50.1 51.3 51.4 53.5 53.2 58 60.1 63.9 65.2 66 67.2 63.6 61.1 55.7 53.6 49.8 44.7 33.5 -2.1 -2.1 -2.1 -2.1 6.9 -2.1 -2.1 -2.1 41 60.7 70.6 73.6 82.7 93.3 104 106.3 112 121.5 113.9 107.7 106.5 101.3 87.1 72.3 56.6 47.6 39.7 9.6 -2.1 -2.1 -2.1 -2.1 -2.1 -2.1 -2.1 -2.1 -2.1 -2.1 -2.1 22.7 29.8 28.2 33 25.3 10.7 10.5 12.6 16.9 33.2 41.8 32.3 32 34.7 11.2 -2.1 -2.1 -2.1 -2.1 -2.1 -2.1 -2.1 -2.1 -2.1 -2.1 -2.1 -2.1 -2.1 -2.1 -2.1 -2.1 -2.1 -2.1 -2.1 -2.1 -2.1 -2.1 -2.1 -2.1 -2.1
92.5 90.3 96.4 100 92.2 80.7 74.3 66.9 69.4 78.5 84.5 88 90.2 94.5 99.6 103.7 105.4 110.4 108.2 106.2 101.3 100.9 101.7 103.3 104.3 106.7 111.2 108.8 105.9 96.7 92 82.5 74.9 72.4 75.2 70.7 71.1 72.7 73.7 75 80.3 90 106.4 110.3 110.5 113.3 116.9 115.3 119.5 109 109 125.9 131.6 131.5 129.1 127.6 129.4 131.1 133.7 134.6 132.8 132.1 132 133.9 135.4 127.8 118.7 127.9 134.3 140.6 128.6 128 119.1 117.7 125.2 133.7 142.7 147.8 152.4 154.9 157.7 154 152.5 140.1 123.4 111.6 115.9 117.1 111.5 100.5 93.7 81.9 81.5 76.8 76.8 76.8 76.9 81.6 71.3 66.3 60.5 62.6 60 60.2 66.4 69.7 81.6 80.1 70.3 70 66.8 67.2 70.4 69.9 65.2 62.9 57.8 54.2 52.3 55.7 52.2 29.4 7.2 1.3 2 20.2 39.3 44.7 53.1 82.5 103.9 105.4 97.4 86.1 105.8 115.8 128.9 136.1 124.9 118 115.5 104.3 95.5 84.7 74.1 59.2 40.2 23.8 19.3 14.4 -2.1 -2.1 -2.1 -2.1 -2.1 -2.1 -2.1 -2.1 -2.1 -2.1 -2.1 22.2 28.4 32.6 42 33.3 13.3 7.1 8.3 14.1 27.2 30.2 31 23 9.3 -2.1 -2.1 -2.1 -2.1 -2.1 -2.1 -2.1 -2.1 -2.1 -2.1 -2.1 -2.1 -2.1 -2.1 -2.1 -2.1 -2.1 -2.1 -2.1 -2.1 -2.1 -2.1 -2.1 -2.1 -2.1
74.8 85.3 94.3 98.6 98.2 86.1 80.2 68 73 83 88.2 92.9 99.7 105.6 112.3 110.6 111.8 111.3 108.8 104.5 105 106.9 105.4 107.9 107.1 112.9 113 110.7 114.7 100.5 97.4 96.6 86.7 81.8 73.8 76.7 74.3 73.8 74 75.6 82.3 90.3 103.6 110.5 110.9 111.6 112 114.4 115.8 109 109 119.1 134.7 132.7 133.9 136 131.6 132.1 135.1 138.4 134.5 133.6 134.1 135.9 134.3 127.3 120.8 129.1 133.5 140.5 132.8 126.9 120.6 121.5 127.4 133.4 136.7 142.6 148.5 160.1 159.3 157.8 157.2 136.6 127.9 114.1 124.2 124.6 119.8 107.2 98.9 89.8 87 79.1 76.8 76.8 76.8 83.9 80.3 78.3 73.8 78.5 80.7 78.6 78.3 85.1 93.9 88 80.1 73 69.2 67.1 68.9 68.8 63.6 61.8 59.5 55.2 56.3 58.9 60.6 51.8 23.2 2.8 6.8 25.9 49 68.8 87 107.7 117.4 111.6 102.2 110.3 121.1 142.2 155.1 149 138.4 133.9 116.3 111.5 105.5 84.8 75.7 53.8 39.1 27.6 24.7 21.6 15.3 20.7 -2.1 -2.1 -2.1 -2.1 -2.1 -2.1 -2.1 -2.1 -2.1 -2.1 20.6 28.9 47.8 44.8 35.4 16.4 -2.1 -2.1 12.7 22.1 23.7 31.7 24.2 -2.1 -2.1 -2.1 -2.1 -2.1 -2.1 -2.1 -2.1 -2.1 -2.1 -2.1 -2.1 -2.1 -2.1 -2.1 -2.1 -2.1 -2.1 -2.1 -2.1 -2.1 -2.1 -2.1 -2.1 -2.1
79.7 77.3 90 100.5 103.5 92.5 91.2 77.5 77.2 85.3 91.6 94.1 103.8 112 118.2 118.8 121.9 118.1 115.1 110.7 108.6 118.5 119.1 125.7 121.7 120.4 118.9 113.8 114.3 107.5 100.8 98.3 95.4 96.6 89.1 82.4 77.2 75.3 76.3 76.3 80.4 89 102.4 108.6 111.3 112.7 111.1 110.6 113.4 111.8 109.3 117.2 130.4 132 137.6 140.7 139.4 135.8 136 139.8 137.9 136.4 137.2 136.9 135.9 132.2 125.2 126.8 134.8 141.1 135.8 123.5 122.1 124.7 125.4 129.3 133.4 136.3 134.9 154.5 163.1 159.3 154.3 146.1 132.6 117.4 129.5 133.1 124.4 115.8 101.9 93.4 96.3 92.8 83.6 76.8 76.8 89.9 83 81.5 82.5 86 94.5 87.2 94 103.4 97.5 92.2 89.8 79.7 71.4 66.2 65.8 67.3 63 59.6 56.5 55.5 59.7 63.4 62.9 49.3 30 17.9 12.9 25.6 50.8 69.2 93.1 109.8 110.7 107.7 122.4 126.4 144.7 154.8 159.1 160.7 150.4 146.2 129.4 122.7 108.2 80.7 74.2 57 43.5 41 40.8 46.3 35.6 33.5 41.3 21.2 33.4 33.4 27 2.7 -2.1 -2.1 -2.1 -2.1 13.4 27.4 44.2 46 40.6 31.2 -2.1 -2.1 -2.1 17.2 18.8 33.8 29.6 -2.1 -2.1 -2.1 -2.1 -2.1 -2.1 -2.1 -2.1 -2.1 -2.1 -2.1 -2.1 -2.1 -2.1 -2.1 -2.1 -2.1 -2.1 -2.1 -2.1 -2.1 -2.1 -2.1 -2.1 -2.1
90.4 84.3 83.9 94.4 103.5 94.6 93.4 81.6 84.7 88.3 92.3 94.4 100.8 111.1 119.6 121.4 122 119.7 116.9 113.9 111.2 117.5 131 132 129.7 127.9 125.8 118.1 118.3 108.9 101.9 100 98.8 101.3 101.1 101.2 90.2 81.8 78.9 77.6 77.8 86.1 102.4 110.2 112.2 112.2 107.3 108.1 114.1 111.9 112.8 114.8 127.7 133 137.3 139.5 143.7 142 139.6 138.8 137.3 135.6 136.3 138.9 139.9 139.3 129.3 130.3 137.6 143.7 140.5 127.4 123.4 123.9 125.3 125.7 129.5 128.4 128.4 141.6 154.5 155.5 150 145.6 137.3 124.6 135.7 137 128.7 117.1 109 104.4 101.8 97.6 89.7 79.4 81.2 83.6 87.1 82.3 88 91.3 102 95.3 98.6 109.1 107 95.7 88.4 79.2 70.5 65.9 65.5 65.4 59.8 57 55.5 56.1 61.9 67.8 61.8 53.3 37 26 16.8 23.8 45.4 66.8 88.4 95.1 103.9 114.6 128.8 153.3 160.7 159.7 164.8 164.7 152 149.9 137.2 127 99.4 82.5 67.4 55.2 50.4 53.9 65.7 64.2 39.6 28.8 56.1 43.8 54.7 58.2 44.1 15.7 -2.1 -2.1 -2.1 -2.1 -2.1 19.9 34.1 40.3 41.6 37.7 27.1 -2.1 -2.1 -2.1 16.5 17.5 21.4 -2.1 -2.1 -2.1 -2.1 -2.1 -2.1 -2.1 -2.1 -2.1 -2.1 -2.1 -2.1 -2.1 -2.1 -2.1 -2.1 -2.1 -2.1 -2.1 -2.1 -2.1 -2.1 -2.1 -2.1 -2.1
79.5 88.3 87.9 86 97.3 98.9 96.1 88.2 80 87.9 93.2 93.1 98.7 106.8 116.3 121.1 121.9 121.8 118.1 120.8 119.6 119.2 129.2 134.1 134.7 131.6 131.4 124.7 123.5 118.6 102.4 104.8 101.9 102.7 108 109.3 97.9 92 85.4 79.9 78.7 82 96.2 106.1 113.5 112.5 106.3 105.6 110.2 111.3 109.3 111.6 125.1 135.6 135.7 140.6 143.2 144.5 145.5 144.8 139.4 137.1 138.2 139.3 140.5 142.3 131.3 127.9 141.5 149.5 148 136.6 133.3 133.7 124.5 124.8 129.6 129.3 128.4 128.4 141.3 141.7 146 146.7 145.5 132.4 135.2 134.7 129 127.1 118.2 110.9 112.6 107 98.8 95.7 92.6 85.7 91.7 87.5 91.4 95.6 104.7 114.9 123 115.4 110.3 101.5 90.5 80 70.5 67.2 66 64.3 57.3 55.8 56.1 59.6 66.5 69 63.7 62.9 46.9 28.6 21.3 29.9 52.3 67.1 79.2 93.3 108.3 121.7 153.5 165.4 167.1 168.4 171.6 164.5 160.7 144.9 129.7 127 121.2 95.3 72.8 60.6 59.5 67 78.8 62.7 45.4 34.4 46.4 60.7 68.3 62.1 53 21.3 11.3 -2.1 -2.1 -2.1 -2.1 -2.1 29 37.5 42.4 38.6 38.5 31.3 -2.1 -2.1 -2.1 12.7 20.5 -2.1 -2.1 -2.1 -2.1 -2.1 -2.1 -2.1 -2.1 -2.1 -2.1 -2.1 -2.1 -2.1 -2.1 -2.1 -2.1 -2.1 -2.1 -2.1 -2.1 -2.1 -2.1 -2.1 -2.1 -2.1
61 68.2 71.1 78.4 83.2 96.3 93.7 83.3 88.8 91.2 94.6 94 97.8 106.9 118.5 123.5 123.5 125.3 124.8 126.8 125 122.5 131.1 139.4 137.6 135.8 135.6 134.4 130 125.1 107 111.6 106.1 105.1 112.3 118.9 107.2 101.1 101 89.5 79.9 81.3 89.8 101 109.5 112.9 109.4 104 105.1 105 105.8 110.1 120.5 133.7 139.4 140.9 144.5 146.2 146.6 150.7 145.8 140 139.1 139.1 142.6 148 138.6 128 142.2 154.1 152.2 146 141.1 135 127.5 126 127.5 130.4 128.5 128.4 128.4 141.2 146 155.2 151.7 140.2 147.4 141.9 142.4 135.6 131.1 123.7 121.8 117.8 111.9 103.4 100.2 94.4 91 94.2 104.7 100.4 106.1 112.5 126.6 132 113 101.6 88 78.4 71.2 66.5 65.3 64.2 57.6 56.5 57.8 62.7 63.6 64.5 67.3 68.7 51.2 36.5 36 38.8 59.9 67.8 79.4 90.4 106.6 135.6 154.1 164.4 167.6 167.5 165.1 163.9 151.5 142.1 133.5 127 115.3 97.7 84.5 83.9 81 87.5 81 67.8 53.2 42.4 44.9 65.1 73.6 62 51 22.8 15.2 6.8 -2.1 -2.1 -2.1 -2.1 -2.1 31.8 38.8 42.4 47.9 46.3 21.4 -2.1 -2.1 2.3 -1.5 -2.1 -2.1 -2.1 -2.1 -2.1 -2.1 -2.1 -2.1 -2.1 -2.1 -2.1 -2.1 -2.1 -2.1 -2.1 -2.1 -2.1 -2.1 -2.1 -2.1 -2.1 -2.1 -2.1 -2.1 -2.1
65.5 66.2 72.3 75.6 78.8 80.8 82.2 82.6 89.9 94.1 94.2 97.5 99.5 103.3 113.6 124.5 126.2 131.4 133.7 131.5 129.7 127.2 132.4 139.9 139.8 141.3 136.6 138.8 136.9 126.1 114.6 116.2 113.7 107.3 112.6 119 112.6 110 114.1 93.5 86.5 80.7 82.9 89 99.4 103.5 109.1 101.6 99.6 102.1 103.6 108.8 113.7 130.7 139.7 141.7 142 148.2 146 146.9 145.7 144.8 140 137.2 143 150.3 139.8 129.2 139.1 156.7 158 158.2 151.6 139.4 130.3 132 127.5 128.6 129.7 129.8 133.1 144.5 152.3 153.2 151.4 143.6 144.9 152.5 146.3 143.2 143.1 143.1 132.9 123 119.5 114.5 106.8 100.3 101 97.8 110.8 106.4 110.1 109.8 121.4 134.1 120.1 107.3 91.8 79.5 74.3 68.9 69.7 67.3 59.8 57.5 58.2 59.9 62.7 66.4 70.9 70.7 66.4 41.9 39.7 43.4 63.1 65.3 76.8 93.4 109.3 139.2 157.4 162.8 167.4 162.6 164.5 155.7 141.5 150.4 157.5 138.1 123 106.6 111.8 108.1 114.7 103.4 99.3 86.6 63.8 54.9 51.5 66.4 62.8 51.3 37.1 23.4 14.1 8 -2.1 -2.1 -2.1 -2.1 -2.1 22.6 34.4 41.2 45.1 43.2 34.7 20.6 -2.1 -2.1 -2.1 -2.1 -2.1 -2.1 -2.1 -2.1 -2.1 -2.1 -2.1 -2.1 -2.1 -2.1 -2.1 -2.1 -2.1 -2.1 -2.1 -2.1 -2.1 -2.1 -2.1 -2.1 -2.1 -2.1 -2.1 -2.1
79.2 71.9 74.4 78.4 81.4 83.9 87.6 90.9 93.9 98.1 93.3 99.3 103.7 108.8 113.6 130.7 133.5 136.3 139.6 145.1 141.9 134.9 139.1 145.5 153.2 147.5 140.9 141.6 140.2 131.6 120.6 122.6 119.1 111.3 115 118.9 117.5 114.3 113.8 98.5 89.4 89.3 83.8 84.8 85.6 93.9 101.1 100.4 97.9 100 101.9 106.9 116.3 127.6 135.8 140.3 141 146.7 145.5 143.9 143.5 143.6 139.1 135.7 138.8 146.4 139.4 134.1 142.3 154.5 158.6 157.3 162 148.6 131.2 131.3 129.3 128.4 129.6 130.6 132.7 145.3 149.5 154.7 151.2 145.8 146.2 150.9 153.6 154.6 162.1 154.7 148.4 137 125.7 113.5 111.5 105.4 111.7 100.9 114.8 114.1 117.2 120.9 118.1 125.2 118.6 108.2 96 91.6 87.9 75.9 74.8 69.3 65.5 62 61.1 63.1 65.8 68.7 72.1 70.8 65.1 45.8 40.7 42.1 56.5 63.5 81.6 89 114.7 133.1 146.3 154.4 162.6 156.9 160.8 145.4 138.7 155.7 153.7 144.5 130 133.1 134.1 134 130.5 122.6 113.2 89.8 71.2 59.7 61 65.6 58.5 44.8 27.4 19.2 15.2 10.1 7.8 -2.1 -2.1 -2.1 -2.1 7.8 27.8 37.7 39.7 38.1 34.3 28.2 -2.1 -2.1 -2.1 -2.1 -2.1 -2.1 -2.1 -2.1 -2.1 -2.1 -2.1 -2.1 -2.1 -2.1 -2.1 -2.1 -2.1 -2.1 -2.1 -2.1 -2.1 -2.1 -2.1 -2.1 -2.1 -2.1 -2.1 -2.1
98.8 86.4 89 84.1 82.6 92.5 107.1 107.1 102.6 105.2 96.1 106.2 109.2 115 115 125.1 136.3 143.7 142.1 150.8 154.3 145.4 142.2 156.6 156.2 155.5 150.8 147.6 147.5 139.9 131.6 128.7 122.6 114.5 113.3 119.9 122.5 116.2 113.3 103.8 98.5 96.9 92.6 87.6 88.9 90 92.6 96.6 96.4 99.2 100.7 104.1 116.6 126.5 133.3 139.3 140.2 144.6 139 135.6 140 139.7 133.1 134.1 138.4 143.4 138.3 132.4 140.8 153.7 156.8 153.8 159.4 151.7 135.9 135.2 131.1 129.8 135 138.3 133.8 140 145.5 153.8 154.7 148.9 152 153.6 161 173.6 168 161.1 152.2 150.7 138.2 123.8 119.5 108.4 105.6 102.3 103.7 115.6 122.3 126.3 120.2 121.9 122.6 114.3 106.6 100.4 97.1 83.1 80.1 73.8 70.3 69.3 69.6 67.5 66.9 68.6 74.7 75.3 66.5 52.3 42.9 42.7 51.5 58.3 74.1 94.8 116.3 126.7 141.6 147.6 152.5 148.6 154.9 134.6 129.6 145.1 142.2 135.1 131.3 149.2 152.7 150 142.3 134.8 115.9 95.3 70.2 64.1 69.1 66.6 54.3 39.6 26.7 19.5 16.3 12.9 11.3 -2.1 -2.1 -2.1 -2.1 9.3 13.6 25.2 34.4 39.6 35.8 32.9 13.4 -2.1 -2.1 -2.1 -2.1 -2.1 -2.1 -2.1 -2.1 -2.1 -2.1 -2.1 -2.1 -2.1 -2.1 -2.1 -2.1 -2.1 -2.1 -2.1 -2.1 -2.1 -2.1 -2.1 -2.1 -2.1 -2.1 -2.1
111.4 101 105.2 97.9 89 100.8 112 114.9 108.4 109.5 106.5 110.6 110.9 120.3 125.4 122.7 135.8 145.5 144.4 152.3 162.3 154 149.5 157.7 160 161.3 160.9 155.5 157.2 142.7 137 136 130.2 122.7 121.5 123.8 124.1 120 115.5 109.9 102.3 100.8 92.5 87.5 90.1 92.4 92.8 92.8 95.6 98.6 100.1 102.8 111.8 127.4 130.2 139.9 139.8 143.2 135.1 131.3 142 136.3 130.9 133.2 141.4 147 141 123.6 136.6 148.1 147.6 154.9 155.5 147.5 137.7 138.9 135.8 132.9 139 144.3 144.8 141.8 142.6 149.6 152 149.5 152.2 156.2 171.8 170.6 171 166.9 156.7 152.7 148.1 137.1 129.1 125.1 110 106.9 105.5 113.6 129.8 129.4 122.4 122.5 128.2 125.2 118.5 108.7 97.8 94.6 90.3 91.3 82.5 74.5 70.1 67.7 67.6 71.2 75.3 74.6 65.6 49.7 51.2 49.2 48.7 56.2 71.6 95.3 116.5 129.6 138.7 145.8 139.8 137.6 138.7 123.7 123.5 141.1 144.5 132.7 132.9 159.4 163.5 150.3 145 135.1 120.2 94.8 79.2 72.3 68.4 66.5 57.9 38.9 26 22.9 21.7 16.3 12.2 -2.1 -2.1 -2.1 -2.1 9.1 13.4 14.6 24.4 31.6 35.3 31.8 -2.1 -2.1 -2.1 -2.1 -2.1 -2.1 -2.1 -2.1 -2.1 -2.1 -2.1 -2.1 -2.1 -2.1 -2.1 -2.1 -2.1 -2.1 -2.1 -2.1 -2.1 -2.1 -2.1 -2.1 -2.1 -2.1 -2.1 -2.1
117.9 115.7 115.5 107.9 93.2 103.3 116.7 125.7 124.8 113.4 113.2 107.5 112.1 120.9 132.5 125.9 136.3 147.4 147.5 152.6 165.3 161.1 153.9 156.2 163.1 164.1 163.3 159.3 159.9 147.3 140.5 142.2 139.7 133.4 129.9 131.7 134.8 129.9 122.8 114.8 110.5 101.9 96.2 93 92.5 96 93.6 95.5 97 99.2 101.1 103.6 110.2 124.1 130.9 138.7 137.1 133.5 126.8 125.4 137.4 133.5 129.1 132.5 139.6 147.6 135.7 120.9 127.9 137.7 148.3 154.2 152.4 142.5 139.4 143.9 137.8 137 142.4 145 150.9 150.7 149.8 150.9 148.6 149.2 150.2 162.6 168.1 184.3 170.6 172.9 164.4 160.9 157 152.3 135 125.5 114.7 111.8 117.6 115.6 121.2 129.7 126.8 123.2 129.1 130.6 121.7 113.1 99.4 100.7 97.8 98.5 93.1 80.7 72.1 68.8 70 74.6 75.5 74 62.5 65.8 59.2 62.6 59 52.5 68.5 89 118.7 136.5 142.5 140 135.1 130.3 124.7 118.4 127.8 134.9 150.9 133.2 140.7 161.2 159.7 151 145.5 138.8 131.1 103.9 86.6 70.6 71.3 58.9 50.8 36.6 28.9 24.7 24.9 18.6 13.7 14.4 -2.1 -2.1 -2.1 9 19.5 16.7 15.4 15 14.7 20.9 -2.1 -2.1 -2.1 -2.1 -2.1 -2.1 -2.1 -2.1 -2.1 -2.1 -2.1 -2.1 -2.1 -2.1 -2.1 -2.1 -2.1 -2.1 -2.1 -2.1 -2.1 -2.1 -2.1 -2.1 -2.1 -2.1 -2.1 -2.1
117.5 121.6 121.6 116.5 96.9 113.3 110.9 127.7 136.6 125.8 121.5 115.1 113.4 118 127.7 128.3 132.9 145.8 148.3 155.5 162.7 165 158.8 160.8 165.1 166.4 166.9 163.5 163.7 151.1 145.9 145.7 141.5 140.9 141 141.5 143.5 137.5 126.8 122.4 117.1 112.8 105.8 100.2 97.3 94.5 97.5 100.1 95.8 99.6 102.5 105.4 111.2 121.8 131.3 138.8 138.5 129.1 121.5 119.4 130.7 130 127.1 131.3 139 144.9 138.4 120.9 121.1 136 149.5 154.3 148.5 139.4 141.1 144.1 140.6 144 151.8 150.2 153.1 157.6 159.7 156 149.6 149.9 156.3 158.5 167.4 168.3 174.7 171.5 173.2 171.4 168.1 160.5 145.7 129.7 123.9 124.2 124.6 126.4 120.3 128.2 131.8 126.5 128.8 132.2 122.6 106.3 103.4 102.2 100.8 100.8 93 85.1 79.1 77.3 75.3 76.4 75.8 70.8 61.6 64.6 70.8 67.7 62.4 54.4 65.8 83.8 105.2 134.7 136.9 133.4 131.7 128.6 120.4 114.4 121.2 135.3 136.2 128 143.7 156.5 157 151.2 148.4 141.9 132 109.9 84.8 73.1 71.6 52.8 38.5 29.6 26.4 24.9 24.8 22.3 18.4 19.2 15.1 8 1.4 8.6 20.8 23.4 21.5 17.3 14.4 11.7 -2.1 -2.1 -2.1 -2.1 -2.1 -2.1 -2.1 -2.1 -2.1 -2.1 -2.1 -2.1 -2.1 -2.1 -2.1 -2.1 -2.1 -2.1 -2.1 -2.1 -2.1 -2.1 -2.1 -2.1 -2.1 -2.1 -2.1 -2.1
115 123.6 128.9 115.9 100.6 115.4 121.8 116.3 131.4 133.4 127.7 121.2 116 120.7 128.3 131.5 143.2 146.9 146.1 155.5 160.4 163.8 164 164.7 169.3 169.5 168.7 167.6 167.6 161.2 147.4 144.8 142.7 143.8 147.2 150.3 148.3 143.7 134.4 125.8 126 120.5 115.3 105.4 103.2 99.6 99.1 100.2 107.9 101.1 99.8 100.5 111 116.1 124.3 133.1 134.2 121.3 117.4 117.9 129 129.1 127 133.6 141.1 143.6 139.6 123.8 120.9 128.4 148.6 149.7 142.6 139.4 145.4 143.9 142.5 144.3 151.2 154.1 155.5 157.8 159.2 158.5 152.3 154.7 165.4 163.8 169.7 171.9 174.3 174 180 178.8 172.1 161.3 156.1 138.7 133.4 131.1 129.4 124.1 121.1 122.4 135 130.4 133.9 130.4 125.9 110.5 108.3 109.5 106.3 103.2 98 90.2 90.6 82.3 78.5 76.8 76.6 67.3 62.8 64.9 77.2 73.5 68.1 59.9 60.1 80.7 98.6 113.8 138.7 131.3 133.4 127.8 116 109.1 116.2 126.1 123.9 123 144.7 150.5 155 149 141 138.2 133.5 111.6 96.3 78.2 73.8 59.1 39.1 28.3 27.3 23.8 23.8 19.4 21.2 31.8 31.4 22.2 9.1 9.3 18.9 38.6 39.4 28.1 21.7 9.2 -2.1 -2.1 -2.1 -2.1 -2.1 -2.1 -2.1 -2.1 -2.1 -2.1 -2.1 -2.1 -2.1 -2.1 -2.1 -2.1 -2.1 -2.1 -2.1 -2.1 -2.1 -2.1 -2.1 -2.1 -2.1 -2.1 -2.1 -2.1
112.4 118.6 117.8 107.7 119.6 126.5 133.2 127.4 125.9 134.7 135.2 122.5 130 114.9 128.1 137.7 144.5 155.2 153.6 164.3 173.5 171.8 176.3 175.4 172.5 180.1 171.2 168.9 166 160.5 145.9 143.6 145.4 146.6 147.5 150.9 150.8 146.1 137.3 131.5 131.7 125.3 121.4 113 106.8 104.3 112.2 101.2 100.9 112.9 107 112 111.6 107.1 110.3 120.7 128.4 119.5 116.2 117.7 125.4 128.6 125.5 131.4 137.7 144.8 138.4 129.3 120.9 127.3 142.8 144.5 139.4 139.4 145.2 145.8 145.3 145.9 148.4 156.5 159.8 162.1 158.7 155.8 152.8 159.2 163.6 175.2 170.8 177.3 179.6 184.8 183 181.1 175.8 170.6 160 152 151.1 143 131.6 128.2 122.5 121.6 128.9 135 129.9 128.1 125 117.6 116 116.1 110.2 106.5 95.3 88.9 85.5 82.4 79.5 77.7 74.8 66 64.4 65.7 73.3 76.8 72.3 62.9 59.9 75.9 89.9 106.5 130.1 133.6 131.3 123 118.6 109.7 108.6 118.4 118.3 135.2 142.6 148.6 149.3 153.3 144.3 142.4 127.5 108.5 94.8 85.8 77.4 60.9 40.5 29.4 27.1 23.4 22.5 22.1 27.4 41.2 56.9 42.7 18.7 13.8 18 48.4 58.1 45.2 31.5 19.6 -2.1 -2.1 -2.1 -2.1 -2.1 -2.1 -2.1 -2.1 -2.1 -2.1 -2.1 -2.1 -2.1 -2.1 -2.1 -2.1 -2.1 -2.1 -2.1 -2.1 -2.1 -2.1 -2.1 -2.1 -2.1 -2.1 -2.1 -2.1
121.4 128.5 129.3 113 127.9 134.5 136.8 134.4 132.4 133.8 136.1 126.4 135.1 125.8 130.5 133.1 142.4 152.3 158.5 165.4 177.1 179.2 180.1 182.5 182.1 181.9 185.3 171.9 170.9 158.5 153.1 157.8 155.2 152.4 154.8 150.8 150.7 147.5 141.6 137.9 134.6 130.6 130.4 123.6 115.6 112.3 110.4 115.2 106.3 107.4 108.8 115.9 122 120.1 117.7 118.5 115.8 115.1 114.6 118.7 122.3 122.6 124.2 129.6 136.9 140.9 134.9 128.9 120.9 130.4 141.8 143.2 139.4 139.4 144.5 148.1 146.5 146.7 153 155.7 157.9 160.1 158.2 155.4 152.7 156.2 167.6 171.7 190.4 182 182.1 186.6 183.6 184.3 183.1 168.5 165.6 163.6 168.5 156.6 142.4 134.3 128.5 121.6 122.3 132.4 129 125.7 121.2 120.8 125.3 124.7 112.5 106.5 98.3 89.2 86.5 85.5 80.7 79.1 75.1 68.8 66.9 66.6 73.7 82.2 78.7 69.5 61.5 69.8 91.7 110.6 121.9 131.2 123 117.5 114.9 106.8 103.9 106.8 117.3 137.8 143.6 146.1 154.1 154.7 148.4 141.5 133.1 118.6 106 97 87.3 66.4 39.9 31 26.5 24.3 23.6 27.8 34.1 48.9 74.3 70.9 36.3 15.3 15.6 42.3 62.7 57.9 46.1 33.3 -2.1 -2.1 -2.1 -2.1 -2.1 -2.1 -2.1 -2.1 -2.1 -2.1 -2.1 -2.1 -2.1 -2.1 -2.1 -2.1 -2.1 -2.1 -2.1 -2.1 -2.1 -2.1 -2.1 -2.1 -2.1 -2.1 -2.1 -2.1
124.9 133.9 136.9 115.7 133 146.2 142.9 140.3 143.5 148.6 153.7 134.2 133.6 133.3 133.6 134.8 136.5 150 160.7 167.7 178.5 181.1 182 184.8 184.6 184.6 186.8 176.7 168.1 166.5 163.2 164.4 170.2 159.5 160.9 155.3 155.4 155.8 150.7 148.8 141.9 142.1 137.1 138.8 131 123.2 120.1 115.1 117.8 115.2 111.8 116.6 123.2 124.7 120.9 128.8 119.9 119.3 115.6 117.4 117.4 118 122 126.1 133.3 133.2 129.8 130.5 122.1 121.9 139.4 145.3 139.4 141.1 147 146.9 146.8 148.1 154.2 157.4 158.8 159 158.5 154.3 153.4 156.5 160.4 168.4 196.5 203 188.5 185.9 183.9 183.3 186.1 174.8 169.2 169.9 171 165.1 156.2 132 129.7 127.6 117.3 127.3 126.5 123.2 122.3 126.6 126.4 127.8 118.3 115 112.9 101.3 92.9 91.2 89.7 85.7 79 72.3 69.1 68.8 78 88.3 92.3 75.7 68 78 91.7 109.8 130.1 122.1 120.3 113.6 110.7 104.8 101.9 104.5 134.6 132.2 135.3 142.8 156.5 151.7 147.6 148.7 137.4 124.5 111.3 112.3 98.6 73.5 46 34.3 28.7 25.2 25.7 29.3 40.6 56.4 83.9 89.8 55.9 18.9 15.8 27.4 42.3 57.7 48 50.1 22.6 -2.1 -2.1 -2.1 -2.1 -2.1 -2.1 -2.1 -2.1 -2.1 -2.1 -2.1 -2.1 -2.1 -2.1 -2.1 -2.1 -2.1 -2.1 -2.1 -2.1 -2.1 -2.1 -2.1 -2.1 -2.1 -2.1 -2.1
126.4 134 139.7 127.5 128 148.2 146.1 146.7 143.1 153.7 159.8 143.9 134.3 131 137.1 141.2 137.7 143.4 156.3 168.3 179.9 184.9 185.4 186.1 180.1 180.1 183 173.9 173.1 173.5 173.3 168.2 174.7 170.4 164.7 160.8 160.2 162.1 160.5 159.3 152.2 151.7 148.6 144.2 152.8 143.6 131.3 122.6 119.7 117.8 124.6 127.3 123.4 121.4 122 124.4 122.2 121.4 116 115.9 116.6 117.1 118.3 121.3 123.3 127.2 129.4 134 129.6 120.9 135.6 144.5 139.4 139.4 149.9 149.8 147.4 148.2 154.8 158.7 159.2 159 159.4 159.6 154.6 154.9 158.2 164.5 189.4 208.4 206.7 188.9 185.9 184.6 182.6 181.1 171.1 170 174.2 170.8 162.4 133.2 129.5 127.1 116.9 116.2 120.3 121.2 127.4 129 127.4 124.7 123.3 124.4 118.6 113.3 100.2 97.4 104.5 97.2 85.1 78.8 74.1 72.4 77.8 92.2 95 82.8 73.1 84.8 96 113.1 117.5 119.8 116.3 110.1 103.1 99.5 98.5 109.2 136.4 140.9 130.9 133.2 146.9 162.5 153.8 153.3 142.5 130.1 115.3 115.7 102.3 72 55 37.1 29 31.7 32.3 40.9 47.3 63.1 88.8 96.2 65.2 35.2 18 16.1 22.8 51.5 41.9 46.5 20.6 -2.1 -2.1 -2.1 -2.1 -2.1 -2.1 -2.1 -2.1 -2.1 -2.1 -2.1 -2.1 -2.1 -2.1 -2.1 -2.1 -2.1 -2.1 -2.1 -2.1 -2.1 -2.1 -2.1 -2.1 -2.1 -2.1 -2.1
124.3 135.3 140.5 125.7 133.8 152 151.2 151.3 151.7 155.2 156.5 148.1 140.4 132.5 141.5 148.5 141.7 139.5 158.9 166.7 179 185.4 187 187.6 180.2 180.1 181.2 178.4 174.2 175.5 178.6 178.2 178.7 176.5 170.8 165.7 168.2 165.8 165.6 169.2 160.8 155.9 160.7 151.6 157.6 159.6 150.6 133.7 127.8 126.7 127.3 139.4 144.9 124 124.6 126.2 127.1 126.4 126.5 124.1 119.3 119.5 117.7 118.3 119.8 122.1 127.3 131.6 131.5 120.9 132 146.8 139.4 139.4 146.3 149.1 149 149.9 160.4 161.6 160.2 160 161 159.4 163.9 157.2 158 162.1 186.7 204.6 212.4 198.8 189.6 189.1 190.8 181 177 171.4 167.6 166.7 153.4 138.1 130.3 125.5 120.4 116.2 116.2 119.8 126.6 130.4 130.5 127.1 123.1 124 119.2 118.7 112.5 108.8 109 102.2 90.8 84.2 78.3 74.6 78.5 88.3 95.2 82.6 79.2 86.9 104.8 109.4 117.8 130.5 121.7 109.4 99.2 95.9 95.9 128.1 134.9 136.2 130.9 130.9 143 157.4 162.1 145.9 148.4 137.8 125.8 116.8 99.6 78.2 59.9 41.4 30.1 33.3 39.7 47.5 52.3 67 86 97.2 74.3 55.3 28.8 17.4 19.9 34.9 39.4 35.5 16.3 -2.1 -2.1 -2.1 -2.1 -2.1 -2.1 -2.1 -2.1 -2.1 -2.1 -2.1 -2.1 -2.1 -2.1 -2.1 -2.1 -2.1 -2.1 -2.1 -2.1 -2.1 -2.1 -2.1 -2.1 -2.1 -2.1 -2.1
122.8 137.4 142.3 131.8 133.9 152.3 155.9 156.3 156.9 158 163.9 158.8 146.7 135.6 141.4 153.6 145.1 140 156.6 162.9 171.6 182.4 187.8 188.6 189.5 180.1 183.2 179.1 177.7 177.9 178.9 182.1 182.7 182.6 176.1 171.6 172.7 176.2 172.6 171.9 167.3 157.2 162.2 157.6 159.3 168.3 165 146.3 138.7 132.8 138.5 138.2 145 127.4 128 129.1 128.8 130.4 135.9 135.2 124.8 121.8 120.2 120.8 119.2 119.6 122.6 126.2 127.7 120.9 134.6 142.5 139.4 139.4 145.1 148.7 144.8 147.4 161.9 162.8 161.1 161.9 163.8 160 165.4 162.8 158.5 159.7 181.9 197.6 213.9 208.2 197.1 190.1 191.7 184.8 185.5 175 167.7 159.3 151.6 143.5 134.9 128.7 120.9 116.4 116.2 116.2 117.9 124.1 128.3 128.7 124.6 119.6 120.8 115.4 112.8 117 113.4 105.7 99.9 93.1 84.6 77.6 78.4 84.6 95 84.1 99.1 103.6 100.8 114.3 141.1 136.5 120.6 104.2 95.9 95.9 100.4 127.8 136.7 137.2 132 130.9 137.3 149.5 158.5 145.7 142.1 133.1 126.7 118.2 103.5 84.9 65.8 45.4 33.6 34.5 45.9 56.1 64.6 73.7 92.6 104.7 87.1 63.2 38 22.2 23 29.9 35.2 25.8 12.2 -2.1 -2.1 -2.1 -2.1 -2.1 -2.1 -2.1 -2.1 -2.1 -2.1 -2.1 -2.1 -2.1 -2.1 -2.1 -2.1 -2.1 -2.1 -2.1 -2.1 -2.1 -2.1 -2.1 -2.1 -2.1 -2.1 -2.1
119.3 136.9 146.4 148.5 134.4 153.8 160.7 161.9 162 160.2 166.2 160.8 153.2 141.2 138.1 148.5 145.8 144.3 153 158.8 166.1 180.3 187.3 192.2 189.8 183.4 184.5 181.4 181.2 181.9 178.9 184 187.2 191.1 187.1 179.7 176.5 178.4 182.8 176.9 171.3 160.7 160.4 162.6 162 172.8 169.7 155.2 151.1 149 138 141.5 142.1 136.2 131.6 138.3 141.5 139.1 135.7 140.2 130.8 124.9 124.3 123.5 121.8 121.1 121.6 122 124.3 122.2 137.1 143.1 147.6 143.6 146.6 144.1 144.1 144.1 160.8 163.8 165.1 163.6 164 161 163.2 164.9 162.8 160.9 178.2 192.4 209.1 211 205.1 195.2 188.8 188.3 187.8 181.1 170.6 160.9 152.7 145.3 138.7 131 120.5 116.2 116.2 116.2 116.2 116.2 121.5 124.6 120.1 115.1 112.7 113.6 115.3 116.9 113.3 105.8 98.9 94.2 86.2 80.5 80.8 85.2 86.6 83.3 91 98.7 108.2 129.7 133.3 131.9 119.3 105.2 95.9 95.9 103 133.6 137.7 138.2 134 130.9 134.5 147.1 155.3 143.2 137.9 133.4 129.3 122.6 108.7 87.9 73.5 51.9 38.6 36.9 48.8 57.8 76.6 84.3 101.1 109.1 97.3 78.1 47.3 28.9 24.4 25.7 23.6 20.3 -2.1 -2.1 -2.1 -2.1 -2.1 -2.1 -2.1 -2.1 -2.1 -2.1 -2.1 -2.1 -2.1 -2.1 -2.1 -2.1 -2.1 -2.1 -2.1 -2.1 -2.1 -2.1 -2.1 -2.1 -2.1 -2.1 -2.1 -2.1
119.9 136 147.4 145.2 137.1 153.4 162.8 166.6 165.3 164.8 166.1 170.6 168.6 151.1 137.7 138.8 142 147.7 149.2 153.8 159.9 174.1 184.8 184.9 191.9 194.8 192.4 182.7 186.5 190 186.7 185.8 194 200.5 197.3 194.7 182.6 181.4 187.5 181.4 171.4 159.8 162.5 172.4 166.8 171.4 171.1 161.5 159.1 156 144.2 149.1 145.3 141.2 136.3 142.7 149.2 159 155.9 139.3 137.4 131.1 136.3 128.5 125.6 126.5 122.7 124.5 125 126.8 140.6 148 151.1 145.9 145.2 144.1 144.1 144.3 156.4 164.3 164.3 165.9 162.7 162.4 166.8 176 167 165.3 179.6 191.5 201.6 214.8 206.7 203.3 191.3 189 187.4 183.3 178.3 164.4 153.8 146.4 138 131.1 122.2 116.2 116.2 116.2 116.2 116.2 117.6 122.7 120.7 115.2 110.4 108.5 110.2 111.6 111.6 108 101.2 91.8 86 84.3 85.6 85.7 86.5 85.1 85.6 94.8 117.2 133.2 122.6 123.6 116.3 103.7 95.9 95.9 101.2 130.6 145.8 141.9 132.5 130.9 133.7 141.7 143 141.1 144.6 141.7 130.1 127.7 112.2 93.3 77.6 58.9 44.9 43.8 52.3 62.9 84 90.9 106.2 114.9 100.9 83.1 55.8 33.8 30.6 40.3 20 14.6 -2.1 -2.1 -2.1 -2.1 -2.1 -2.1 -2.1 -2.1 -2.1 -2.1 -2.1 -2.1 -2.1 -2.1 -2.1 -2.1 -2.1 -2.1 -2.1 -2.1 -2.1 -2.1 -2.1 -2.1 -2.1 -2.1 -2.1 -2.1
118.5 134.2 148 154 142.6 153.2 164.7 169.4 169.9 168.9 168 174.1 173.2 167 158.9 140.5 139.5 140.8 143 146.8 154.7 168.5 179.1 185.1 190.1 196.4 198.1 191.5 190.7 190.9 193.5 186.4 193.1 200.4 201.7 201.4 187.4 182.8 189.9 184.2 181.3 164.3 164.6 178.2 177 169.4 172.3 167.5 163.9 162.1 153.5 152 153.4 156.5 153.2 146.8 148.7 161.1 156.4 151.5 144.7 142.6 137.5 139.7 132.8 129.1 127.6 124.2 126.6 127.2 135.3 147.6 149.6 148.6 151.7 144.6 144.1 147.2 156 162.1 163.8 166.3 167.1 171 176.1 183.9 180.8 171.3 175.6 182 193.1 203.2 209.6 199.5 196.2 190.1 187.5 185.1 180.1 169.1 157.4 147.8 134.7 128.4 123.4 118.9 116.5 116.8 116.2 116.2 116.2 117.7 118.7 114 110 107.9 106.8 107.2 107.5 105.8 100.7 101.3 93.7 91.4 91.3 89.4 91 86.9 85.1 100.1 124.8 124 118 113.8 111.6 99.1 95.9 95.9 104.9 129 146.7 140.5 134.6 130.9 133.9 136.1 141.3 154.8 153.1 145.1 132.8 132 115 98.5 85.2 70.4 57.4 54.1 56.1 63.8 78.5 90.9 109.7 113.5 101.9 86.6 72 37.1 29 40.8 36 11.9 -2.1 -2.1 -2.1 -2.1 -2.1 -2.1 -2.1 -2.1 -2.1 -2.1 -2.1 -2.1 -2.1 -2.1 -2.1 -2.1 -2.1 -2.1 -2.1 -2.1 -2.1 -2.1 -2.1 -2.1 -2.1 -2.1 -2.1 -2.1
118.3 133.1 148.5 155.4 152.9 148.5 165 172.5 174.2 173.5 172.2 173.4 174.4 183.8 168.9 164.2 147.9 141.7 141.5 142.9 152.1 163.6 176 180.1 189.5 196.4 197.1 197.5 197.8 199.3 194.8 195.6 202.1 204.3 202.6 196.2 189.2 187.1 188.6 186.9 185.3 170.4 170.8 177.3 175.3 171.3 173.9 171.3 168.6 174.2 165.5 164.2 165.5 160.9 166.1 150.8 150.3 155.3 158.7 160.3 156.8 153.2 148.9 144 144.9 138.1 135.3 131.7 125.1 127.2 129.7 140.1 144.6 147.8 152.9 146.7 144.1 145.8 155.9 162.9 164.3 167.5 175.3 178.2 188.6 191.3 187 186.7 176.4 179.4 186.3 191.1 201.5 200.3 196.2 195.6 194.2 187.6 180.7 171.6 162.7 148.7 136.8 129 124 120.6 118.7 119.3 116.2 116.2 116.2 116.2 113.8 111.5 111 113.3 112.1 107.9 106.8 107.5 104.8 103.6 98.6 94.1 91.5 93.6 92.6 88.1 87.1 102.5 120 119.2 112.5 109.4 102.8 96.9 99.8 95.9 113.2 128.2 144.2 141.7 143.5 133.5 134.6 138.2 141.1 150.7 149.5 148.9 133.4 134.6 118.6 106.6 95.3 85 72.2 62.2 62.7 66.4 79.7 92.8 109.6 120.3 107 91.4 72.5 44.8 31.9 31.6 40.1 20.3 -2.1 -2.1 -2.1 -2.1 -2.1 -2.1 -2.1 -2.1 -2.1 -2.1 -2.1 -2.1 -2.1 -2.1 -2.1 -2.1 -2.1 -2.1 -2.1 -2.1 -2.1 -2.1 -2.1 -2.1 -2.1 -2.1 -2.1 -2.1
118.4 133.1 148.7 157.2 159.8 149.4 163.5 173.6 177.3 176.8 176.3 178.6 182.1 189.6 183.2 168.3 172.1 150.4 142.5 144.3 150.3 163.6 168.4 178.3 186.8 188.5 193.9 196.7 198.2 206.4 203.3 202.7 208.3 207.2 207.6 198.4 193.4 195.2 190.6 190.5 187.2 177.9 176.2 178.6 182.8 175.2 175.7 174.4 174.4 177.2 173.5 181.1 174.5 169.8 167.6 160.6 153.2 156.1 167.1 173.3 164.6 157 154.9 150.4 147.6 146 147.1 140.6 135.2 128.1 128 135.9 144.4 148.1 151 154.5 147.1 149.9 158.5 164.7 166.2 171.1 177.4 182.9 192.8 197.2 194.1 188 175.5 177.6 181.3 190.2 195.7 195.3 195.3 198.4 199.2 190.5 177.3 169.4 165.4 161.1 152.5 137.7 129.4 123.8 120.4 119.4 116.8 116.2 116.2 116.4 116.6 116.2 117.8 116.9 121.1 120.5 112.8 108.5 108.9 105.1 100.1 94.9 99 95.5 91.8 87.7 85.3 94.6 102.6 112.2 110 104.2 95.5 96.4 105.6 108.7 122.1 132.5 146.4 153.6 151.1 140.1 137.7 142.1 148.9 147.7 145.1 148.6 136.4 132.8 127 107.7 97.1 92.7 84.2 72.9 69 73.5 80.2 94.1 108 120.3 114.5 102.4 69.4 49.3 33.5 32.6 25.7 17.1 -2.1 -2.1 -2.1 -2.1 -2.1 -2.1 -2.1 -2.1 -2.1 -2.1 -2.1 -2.1 -2.1 -2.1 -2.1 -2.1 -2.1 -2.1 -2.1 -2.1 -2.1 -2.1 -2.1 -2.1 -2.1 -2.1 -2.1 -2.1
118.4 131.2 147.8 159.4 162.1 160.9 156.7 173.8 178.9 181.2 180.3 181 185.1 193.1 193.1 178.5 174.2 162.8 149.6 145.7 146.1 148.1 153 168.2 174.3 183.2 192.8 195.8 198.3 209.8 213 208.6 213.6 209.4 206 199.7 205.2 200.3 197.4 200.1 194.6 185.3 181.2 179.8 181.7 179.7 180 181.2 182.6 181.1 176.2 181.6 179.6 175.7 177.1 169.4 160.5 161.6 172.8 176.4 169.9 156.8 150.8 161.2 156.8 151.5 152.5 150.3 145.5 137.6 136.3 130.5 144.3 147.6 149.6 157 149.2 153.7 160.6 165.5 168.6 174.7 179.3 184 192.6 199.1 198.7 191.8 179.4 175.3 177.7 183.4 193.1 196.4 195.6 201.2 199.2 189.1 180.2 172.1 171.1 165.4 161.2 141.1 131 123.2 119.9 120 117.3 116.2 116.2 117.6 119.3 121.7 123.1 124.9 125.3 124.3 117.3 116.6 112 104.4 99.7 98.7 100.4 95.9 91.5 88.5 86.6 84.8 88.2 94.9 95.9 89.8 90.1 100.1 108.1 122.1 133.1 143.8 149.9 157 148.1 141.3 141.4 140.3 147.4 146 147.7 140.8 137.7 142.1 130.6 106.8 98.7 92.2 85.7 77.4 74.7 77.7 81.1 96 108.2 122.8 114.9 110.1 75.7 54.9 34.6 29.6 23.1 10.9 -2.1 -2.1 -2.1 -2.1 -2.1 -2.1 -2.1 -2.1 -2.1 -2.1 -2.1 -2.1 -2.1 -2.1 -2.1 -2.1 -2.1 -2.1 -2.1 -2.1 -2.1 -2.1 -2.1 -2.1 -2.1 -2.1 -2.1 -2.1
119 132.1 146.2 160.1 164.3 164.1 156.2 174.5 180.7 183.3 185.4 183.9 187.5 194.9 198.1 192.3 177.4 166.6 158.6 156.5 156.9 162.2 155.8 156.8 167.4 179 185.7 192.3 197.8 207.2 210.3 213.9 215.9 211.9 213.2 204.5 205.3 203.7 201 203.7 203 192 184.2 189.1 191.7 187.1 188.8 190.5 190.1 185.1 180.5 182 180.9 180.8 178.3 179.4 172.5 168.1 174 180.2 172.5 165 164.6 164 169.5 162.1 153.7 158.2 154.3 151.8 138.6 136.9 137.7 145.3 152.8 160.1 152.8 153.3 163.6 166.1 169.9 181.3 185.3 185.1 196 200 200.8 193.7 182.6 177.6 175.5 180.3 190.6 196.8 199.2 201.6 200.7 193.9 188.2 178.5 175.8 169.5 160.4 142.9 130.8 122.8 121.7 121.8 124.6 118 116.2 119.2 126.5 131.6 132.1 132.2 132.6 132.5 132.2 128.9 116.9 107.8 101.9 100 98.6 97.1 93.8 92.2 88.3 85.7 85.3 85.1 85.4 85.9 93.1 109 121.1 127.4 146.2 152.4 159 153.4 147.9 143.9 144.6 143 138.6 149.1 147.5 135.2 140.1 152.6 146.4 116.5 98 91.8 83.3 79.7 79.6 80.9 81.8 98.8 109.2 123.4 107.8 98.1 74.1 56.1 34.6 25.2 22.2 18.5 -2.1 -2.1 -2.1 -2.1 -2.1 -2.1 -2.1 -2.1 -2.1 -2.1 -2.1 -2.1 -2.1 -2.1 -2.1 -2.1 -2.1 -2.1 -2.1 -2.1 -2.1 -2.1 -2.1 -2.1 -2.1 -2.1 -2.1 -2.1
119.7 132.9 145.3 160.9 166.8 167.9 158.3 173.6 181.9 186.1 188 188.1 189.2 196 200.7 199.3 185.7 175 168.5 166.1 166.7 176.1 176.9 168.9 161.4 170 178.1 184.1 194.4 205.6 208 213.1 219.7 213.2 215.6 207.5 208.2 208.5 204.9 209.7 207.1 197.9 189.4 191.2 202.1 203.8 197.5 197 200.3 192.8 190 184.5 187.1 184.5 181.8 182.6 180.6 176.1 175.2 178.3 177.5 172.4 164.7 169 168.1 169.1 164.5 159 167.9 158.8 147.8 140.2 136.9 143.3 152.1 165.7 162.4 155.8 164.8 168.7 170.1 181.2 186.3 192.1 200.1 199.2 202.2 195.7 183.1 175.8 176.2 177.7 184.3 197.3 202 205.8 205.1 210.4 206.1 191.1 179.5 176.9 165.1 150.7 138.8 129.7 122.9 127.3 131.1 132.8 116.2 119.3 133.8 143.9 147.2 143.5 144.5 147.2 147.3 139.7 126.9 116.2 107.3 105.4 105.3 97.8 96.1 91.7 87.5 86.4 86.4 86.8 86.6 87.2 98.6 115.9 134.4 140.5 158.6 162.8 158.9 153.8 146.1 145.9 152.8 143.2 137.9 142.2 144.8 135.9 144.8 148.7 150.9 125.7 104.7 92.5 87.5 80.9 81.2 81.7 85.1 98.7 104.3 109.7 95.7 85.1 67.8 53.3 35.3 25.5 22.8 15.5 -2.1 -2.1 -2.1 -2.1 -2.1 -2.1 -2.1 -2.1 -2.1 -2.1 -2.1 -2.1 -2.1 -2.1 -2.1 -2.1 -2.1 -2.1 -2.1 -2.1 -2.1 -2.1 -2.1 -2.1 -2.1 -2.1 -2.1 -2.1
121 131.5 144.2 161 168.5 171.4 164.2 168 183.3 187.9 191.2 192.4 192.5 196.3 202 204.6 200.1 182.2 178.2 175.4 176.1 176.9 177.1 177.3 178.8 182.8 166.4 174.9 193.4 202.2 204.7 213.3 220.3 216.1 215.2 210.9 212.2 209.8 208.7 212.7 212.4 204.2 197 194 202 211.7 205.9 201.2 204.7 200.9 194.8 191.8 197.2 193.5 195.9 190.9 184 181.2 178.8 180.4 187.9 175.7 167.6 176.7 170.8 170.9 175.7 168.5 167.4 165.5 159.2 156.2 142.7 139.4 152.9 165.5 169.5 159.9 162.7 170.1 171.1 181.3 186.2 196.3 202.9 200.7 200.9 193.8 183 180.8 184.6 179.6 180.1 185.5 204.7 219.7 212.8 213.4 210.5 198.9 190.7 181.9 173.8 160.1 148.4 133.4 125.3 131.4 139.2 143 129.6 124.3 141.8 150.7 158.8 159.4 153.8 157.8 162.9 156.4 136.1 128.4 116.3 108.8 108.3 100.1 94.9 90.7 89.5 88 87.3 88 88.5 95.4 102.2 115.7 137.9 147.5 158 165.1 160.1 157 151.9 149.6 150.7 145.5 137.3 137.7 142.1 135.7 137.4 138.2 143.5 126.7 110.3 98.6 89.3 84.8 85.8 84.5 85.8 94.2 102.6 99.3 90.2 76.2 59.6 48.6 36.1 27.8 24.6 19 -2.1 -2.1 -2.1 -2.1 -2.1 -2.1 -2.1 -2.1 -2.1 -2.1 -2.1 -2.1 -2.1 -2.1 -2.1 -2.1 -2.1 -2.1 -2.1 -2.1 -2.1 -2.1 -2.1 -2.1 -2.1 -2.1 -2.1 -2.1
122.1 132.8 144 160.9 170.2 174.3 166.1 169.1 183.8 189.9 193.8 196.6 195.7 197.5 202.5 206.7 206.7 194.8 181.4 183 184.2 183.7 179.9 178.9 183 186.7 192 182.1 173.6 186.3 195.9 211 216.1 216.8 214.5 213.5 211.3 212 215.3 214 211.7 206.4 200.1 196.5 203.6 207.6 210.7 204.2 201.1 201.4 199.3 196.4 197.5 202.8 204.3 204.5 188.1 184 181.4 180.6 187.1 184.8 175.6 180.4 183.8 174.8 178.6 172.5 168.3 168.9 162.9 167.1 152.6 138.9 148.8 160.3 170.4 164.9 163.1 168.2 171.3 178 187.6 196 203 201.3 201.2 193.3 181.2 180.3 185.5 190.1 182.6 184.4 195.2 216 227.5 220.4 219 208.9 202.1 189.7 178.9 170.6 159 141.2 132.7 133.7 140.6 147.6 140.3 135.9 145.5 156.4 167.4 169.9 163.1 162.9 170.3 160.2 149.5 139.5 125 117.2 110.1 105.3 97.9 93.4 92.2 93.5 94 91 92.5 99 108.2 117.2 144.7 156.2 161.6 161.3 160.6 161 156.6 153.5 149.7 141.2 136.9 135.8 135 135 135.2 137 139 127.7 115.6 101.5 90.4 87.2 86.7 92.7 87.1 93.9 102.6 95.1 84.1 69.5 52.7 41.2 44.2 39.6 26 19.5 10.3 -2.1 -2.1 -2.1 -2.1 -2.1 -2.1 -2.1 -2.1 -2.1 -2.1 -2.1 -2.1 -2.1 -2.1 -2.1 -2.1 -2.1 -2.1 -2.1 -2.1 -2.1 -2.1 -2.1 -2.1 -2.1 -2.1 -2.1
123.9 133.8 142.8 159.8 172 176.4 175.9 170.5 183.3 190.7 195 198.2 198.3 198 202.6 207.3 211.4 208 192.2 189.7 188.8 184.1 186.9 184.3 185.4 189.2 191 193.2 197.3 178.1 182.8 198.9 205.1 208.8 214.6 218.1 216.5 213.6 218.9 220.2 215.3 210.7 207.7 197.7 200.5 207.7 215.2 209.3 204.9 204.9 202.3 202.5 203.8 206.4 206.9 203.6 195.2 187.1 186.1 183.2 185.8 185.4 181.6 187.3 187.1 188.2 182.6 177 171.5 170.9 166.1 163 154.9 148.4 144.7 158.6 167 167.4 167.4 166.5 170.8 179.8 189.2 193.6 202.3 206.2 198.4 192.8 182.7 181.1 181.6 187.9 186.7 189.9 202.1 212.4 228.2 237.6 235.4 219.2 207.2 199.9 189.1 171.7 169 156.9 139.6 136.4 142.1 145.2 144.8 148.7 156.8 164.9 175.7 173.8 175.8 174.9 181.4 165.4 159.3 153.5 137.3 126.6 115.6 105 100 95.5 95.7 95.7 97.3 101.3 94.2 100 109.5 118.9 146 155.8 154.2 157.7 158.7 165 159.7 154 147.2 138.1 137.6 135.4 135 137.8 134 140.6 141.2 136 118.4 104.2 91.8 91 91.1 92.9 94.8 99.1 107 103.4 86.6 69.3 55.5 41.2 50 52.9 33.7 25.8 13.1 1 -2.1 -2.1 -2.1 -2.1 -2.1 -2.1 -2.1 -2.1 -2.1 -2.1 -2.1 -2.1 19 -2.1 -2.1 -2.1 -2.1 -2.1 -2.1 -2.1 -2.1 -2.1 -2.1 -2.1 -2.1 -2.1
124.5 134.6 143.4 159.1 173.8 180 178.9 173.8 179.8 192.3 197 200.4 202.9 202.7 203.8 208.5 214 214.3 207.9 195.5 196.9 192.8 189.5 190.4 192.2 191.3 198.5 200 199.4 192.3 187.7 186.5 183.3 201.1 208.7 216.6 219.4 215.8 221.8 222.9 216.4 216.8 210.3 201.5 202.9 210.2 217 211.7 210.4 206.9 208.8 215.7 210.9 209.3 208.3 205.1 200.6 193.2 191 186.7 187.6 191.6 185.3 190.6 193.9 192 188.5 184 183.7 172.4 171.4 163.4 156.7 152.7 149.5 149.9 161.3 165.2 167.5 167 169.6 182.9 191.2 196.8 198.9 206 204.9 191.3 184.5 184.1 181.7 186.1 188.2 195 203.3 208.7 217.9 234.3 232.6 223.6 216.2 205.1 197.7 183.4 174.8 157.4 145.3 140.1 144.4 148.9 152.4 158.1 171.8 177.6 182.3 186.6 186.3 186.7 188.8 174.1 165.4 165.7 147.4 135 119.5 111.7 106.7 98.2 97.5 102.4 107.1 102.5 98.2 101.3 109.2 118 137.6 146 155.2 158.3 158.3 161.8 160.5 154.5 146.9 137.9 136.7 135 135 138.4 133.7 137.8 146.2 140 124.8 108.7 95 94.2 93.9 91.6 99.1 109.6 107 99.5 88.3 73.7 58 46.8 54.6 53.6 41.4 33.9 17.3 2.9 1.9 0.1 -2.1 -2.1 -2.1 -2.1 -2.1 -2.1 -2.1 -2.1 -2.1 -2.1 17.2 -2.1 -2.1 -2.1 -2.1 -2.1 -2.1 -2.1 -2.1 -2.1 -2.1 -2.1 -2.1 -2.1
125.9 137.2 144.6 156.7 174.1 182.4 184.7 176 180 192.6 197.9 201.9 205.6 205.8 204.7 208.6 214.4 218.9 215.5 204.9 199.3 202.7 193.5 194.1 195.6 203.4 197.2 201.4 202.6 203.3 197.5 204.3 201.5 196 197.4 209.6 212.6 213.7 220.3 221.3 219.5 220.2 217 205.3 206 211.6 216.2 212.4 211.3 208.3 210.4 216.9 217.2 214.9 215.5 208.8 203.6 199 196.4 193.3 190.9 196.8 190.6 187.1 192.9 192.5 190.5 187.5 188.1 180.2 174.8 177.7 167 158.3 153.6 147.9 155 161.8 164.5 165.2 169.5 180.1 192.2 198.1 202.5 202.6 205.9 195.4 186.7 184.1 183 183.1 185.2 194.3 201.8 207.5 215 224.3 226.3 229.8 218.5 218.8 213.8 199.3 183.9 166.7 155.1 152.6 156.9 160.6 160 164.2 182.3 190 192.7 194.2 199.3 197.6 191.8 171.7 167.5 160.7 150.6 141.8 132.7 119.7 109.2 102.6 108.5 107.6 108.2 105.7 102.5 104.8 108.6 120.2 130.8 145.3 159.5 159.1 158.9 161.4 160.6 158.3 146.9 139 142.3 137.3 137.3 138.8 131.2 130.1 144.2 136.4 126 114.2 104.4 99.4 94.2 94.5 100 121.8 119.6 100.6 87.4 76.3 59.6 56.6 62.6 58 43.7 32.4 20 4.1 2.6 -2.1 0.2 0 -2.1 -2.1 -2.1 -2.1 -2.1 -2.1 -2.1 -2.1 7.9 11.7 -2.1 -2.1 -2.1 -2.1 -2.1 -2.1 -2.1 -2.1 -2.1 -2.1 -2.1 -2.1
126.7 138.2 146.1 156 173.8 184.4 187.7 185.6 180.3 191.4 198.1 203.3 207.6 209.5 207.6 209 214.5 220.1 221.7 216.5 203.4 203.5 199.8 195 199.6 203.7 200.7 201.1 203.7 204.8 197.3 207.6 214.6 214.7 198.8 191.3 203.5 209.5 216.5 218.8 219.7 220.7 218.2 208.2 206.8 212.2 214.7 212 213.2 211.9 215.1 218.9 222.2 220.2 217.5 212.9 210.4 206.5 204.6 204.1 198.7 196.4 193.2 189.7 193.3 192.9 192.4 190.5 190.4 187.7 179.5 189.6 191.2 169.5 159.4 156.4 153.6 154.7 165 162.4 168.2 178.9 191.8 197.5 203.1 205.6 204.8 196.9 191.7 185 183.9 183.1 189.1 193.3 196.5 199.5 211.4 224 224.1 221.4 220.6 224.1 222.6 213.2 203.8 185.6 171.4 166.6 169.3 179.4 177.9 177.7 186.5 195.4 198.5 207.5 212.6 206.7 194.2 168.6 165.5 162.3 158.1 154.7 142.7 131.5 118.1 110.2 113 111.7 112.3 107.2 103.7 105.9 109.8 119.4 130.1 142.1 163.9 160.8 158.7 162.4 162.1 157.5 153.1 148.7 145.4 142.1 137.7 133.5 128.5 126.8 131.3 130.4 122.4 116.3 108.7 103.4 94.6 94.2 101.7 122.2 116.4 102.7 88.4 74.4 64.3 66.4 71.1 62.4 48.2 36.6 24.2 6.5 3.5 -2.1 2.6 2.4 1.2 -0.6 -2.1 -2.1 -2.1 -2.1 -2.1 -2.1 -2.1 -2.1 -2.1 -2.1 -2.1 -2.1 -2.1 -2.1 -2.1 -2.1 -2.1 -2.1 -2.1 -2.1
130.7 140.4 148.1 156 172.5 185.9 191.3 189.9 181.1 192.6 201.3 205.5 208.5 212.2 212.3 210 214.4 220.7 225.9 223.2 213.4 206.1 203.3 198.7 205.6 204.3 201 200.5 206.3 203.2 196.7 205.5 218.1 221.2 205.5 203.9 195.4 205.6 214.7 220.1 222.5 223.1 221 214.9 211.4 215.7 220.4 216.7 222.7 221.8 225.9 227.9 226.8 226.7 228.9 222.4 223 222.3 218 210.4 203.8 200.1 197.7 194.2 196.8 197.7 193.2 191.6 191.7 195.3 184.7 188.3 198.7 185.8 166.2 159.5 158 154.8 159.8 161 163.5 176.2 188.4 198.2 203.5 207.3 207 198.4 195.8 199.1 198.8 188.9 189.7 191.7 192.4 194.5 209.2 218.2 221 222.6 221.1 221.5 221.6 223.6 216.9 197.8 191.3 186.4 181.9 186.2 192.7 192.7 189.6 200.6 200.1 212.1 222.6 208.7 182.3 169.3 164.8 165 165.8 161.5 149.8 139.6 127.3 124.3 119.2 115.7 114 110.6 106.6 105.6 109.2 118.2 130.4 142.1 159.6 163.3 159.9 164.8 163.9 165.6 161.4 151.9 145.2 143.1 135.5 129.6 126.2 123.5 125.2 128.1 122.3 120.2 114.5 103.2 94.8 95.1 98.9 118 117.1 101.6 92.6 77.3 75.4 74.6 67.8 58.4 45.8 38.6 32 18.5 5.7 -2.1 18.3 22 27.3 25 23.8 -2.1 -2.1 -2.1 -2.1 -2.1 -2.1 -2.1 -2.1 -2.1 -2.1 -2.1 -2.1 -2.1 -2.1 -2.1 -2.1 -2.1 -2.1 -2.1
131.1 141 150 156.3 170.4 186.8 193.6 194.2 187.8 190.5 202.4 207.7 210.5 215 216.1 215.2 215 220.8 226.9 229.7 224.8 211.9 206.2 204 207.4 212.7 207.6 204.7 205.6 213.9 199.5 208.9 217.9 221.2 209.6 210.9 204 200.3 204.2 216.7 222.1 224.7 225.5 217.4 218.6 217.7 223.5 222.8 230.5 229 231.8 235.4 236.2 232.5 233.4 231.9 228.9 229.4 225.6 225 213.3 208 200.6 201.2 203.5 206.1 203.2 194.6 195.8 195.8 193.6 184.6 201.4 195.5 177.3 165.1 160.7 163 154.3 160.3 160.5 169.2 184.3 195 200.9 206.3 209.6 201.7 204.5 211.8 213.3 205.5 194.9 199.2 195.8 193.1 203.8 210.2 218.6 224.4 230.2 219 221.9 227.7 226.8 207.5 206.4 203.8 197.8 209.7 212.6 205.4 201.6 208.9 214.9 206.9 214.2 197.7 178.9 171.8 166.9 167.4 170.3 167.1 155 146.6 134.2 134.1 127.7 124.5 119.4 114.5 112.2 107.5 114.9 121.8 126.5 138.6 154.6 166.1 162.3 166.2 166.5 168 165 157.6 151.2 141.3 131.1 127.1 124.3 121.3 124.2 121.3 122.3 124 115.5 108.8 95.4 101.6 99.5 107.2 112.7 102.7 89.8 86.8 100.3 80.3 69.5 59.8 44.1 28.1 24 14.8 5.9 19.9 38.3 41.6 37.6 43.8 42.4 26.8 -2.1 -2.1 -2.1 -2.1 -2.1 -2.1 -2.1 -2.1 -2.1 -2.1 -2.1 -2.1 -2.1 -2.1 -2.1 -2.1 -2.1 -2.1
130.8 139.7 151.7 158 170.1 188.1 195.7 198 194.1 189.2 202.9 209.2 212.2 216.1 219.4 219 217.4 220.5 226.6 233.3 232.3 225.5 211.7 210.5 212.1 216.7 214.9 214.5 204.8 211.3 204.7 214.4 219.5 218.9 214 215.4 205.1 205.5 210.8 205.7 213.3 223 226.9 221.9 219.9 223.3 227.3 225.8 230.3 231.2 235.7 239 241.3 234.4 239.6 241.2 238.7 238.2 232.7 230 226.1 216 208.9 205.6 207.5 209.7 208.2 200.3 197.2 197.9 201.4 187.8 200.2 203.2 183 175.2 163.7 163.5 162.2 158.1 159.4 168.8 184.1 190.7 198.4 203.4 207.4 209.9 205.2 209.9 215.4 214.6 205.1 203.1 209.6 197.2 197.7 203.7 215.9 220.4 229 219.8 216.6 222.2 221.8 220.3 215.5 219.5 220.6 224 222.9 226.7 216.5 210.8 218.5 212.7 204 196.7 179 174.4 169 168.5 171.4 166.8 159.8 148.2 145.1 144.8 141.4 131.5 124.3 118.9 115.2 113.5 112.2 120.1 125.6 141.8 157.3 170.3 164 166.9 168 169.1 166.1 162.1 150.8 137.3 126.2 125.3 123.6 122.8 121.3 121.3 121.3 123.3 122 110.8 97.5 100.9 102.3 103.3 110.1 109.5 95 112.3 108.1 86.1 65.5 59.8 41.7 26.8 10.1 12.2 30.4 46.2 50.7 53 61.9 60.5 52.4 51.4 26.5 -2.1 -2.1 -2.1 -2.1 -2.1 -2.1 -2.1 -2.1 -2.1 -2.1 -2.1 -2.1 -2.1 -2.1 -2.1 -2.1 -2.1
132.2 140.9 153.5 159.9 167.9 186.6 197 201.4 199.1 188.2 203 211.8 214 217.3 222 223 221.5 221.7 227.3 234.1 239.5 236.6 223.6 215.3 217.3 219.9 220.9 215.2 219.6 211 212.8 220.8 222.9 221.8 215.2 216.8 209.4 213 212.9 216.7 212.2 213.3 215.4 222 224.1 224 228.8 226.7 231.6 236.1 238.5 241.8 241.1 240.1 243.9 246 243.9 244.2 241.1 235.6 234.3 224.3 223.8 212.7 208.8 210.4 207.8 202.6 200.6 197.7 199 190.4 196.6 200.2 189 181.7 166.5 162.1 161.3 159.5 161.8 166.2 179.6 185.7 193 201.7 206.3 211.7 214.2 212.3 212.9 213.2 210.4 215.1 212.7 209.8 201.9 205.5 212.1 216.6 223.3 214.3 213.6 213.9 219.1 219 227.5 231.2 248.7 246.6 238 234.8 228.7 215.2 219.9 217 201.4 192.8 186.7 182.2 174 168.7 167.9 165.4 162.2 152.1 153.8 154.5 148.9 139.5 131.8 126.7 121.4 119.3 118.9 117.2 129.7 145.9 158.5 174.5 167.5 166.8 169.1 168.3 166.6 161.9 152.9 136.5 127.5 128 123.3 121.3 121.3 125.1 121.3 121.3 129.4 115 101.5 108.8 110.4 113.4 106.9 106.6 100.5 120.1 110.8 94.8 69.1 56 40.4 27.2 10.7 29.8 44.6 57.8 60.8 63 74.2 73.7 70.4 56.6 32.9 4.5 -2.1 -2.1 -2.1 -2.1 -2.1 -2.1 -2.1 -2.1 -2.1 -2.1 -2.1 -2.1 -2.1 -2.1 -2.1 -2.1
133.6 142 155 161.9 168.2 186.2 197.9 204.5 203.6 194.2 200.7 212.1 216.6 219.2 223.9 226.9 225.5 224.1 226.7 233.5 240.9 242.7 237.5 226.6 219.8 225.3 224.6 223.9 221.8 219.6 218.1 224.5 225.3 225.9 217.6 216.8 212.1 216.4 215.4 218.3 217 216.5 220.9 217.4 220.6 224.6 225.7 226.4 231.2 234.2 237.2 241.6 243.3 244.8 245.9 246.8 248 246 244.8 244.4 241 238 233.3 222.8 217.2 212.6 210.3 205.6 201.1 198.9 197.2 195.9 192.4 191.5 188.7 189 181 165.6 163 161.6 162.5 164.7 177.5 183.7 187.7 196.5 203.9 207.6 214.6 217.2 212.1 213.7 215.8 216.1 214.8 213.6 210.8 209.6 205.8 212.9 214.1 205.8 205.8 210.4 220.1 221.9 231.5 246.4 266.1 265 254.3 238.3 237.4 220.7 214.9 216.2 203.8 192.8 190 185.5 179.5 171.3 168.2 167.1 168.9 161 165.3 160.6 154.5 147.3 140.1 134.1 128.8 124.8 124.7 125 131.5 150 157.2 169.5 176 169.6 171.9 170.1 167.9 164.2 150.8 139.4 127 121.3 121.3 121.3 121.3 126 122.3 123 132.5 119.1 105.8 112.5 129 148 146.2 115.4 103.3 107.3 108.9 94.6 72.3 57.2 42.5 29.1 21.2 35.3 58.9 59 62.8 73.7 77.9 82.8 83.1 71 46.1 17.9 -2.1 -2.1 -2.1 -2.1 -2.1 -2.1 -2.1 -2.1 -2.1 -2.1 -2.1 -2.1 -2.1 -2.1 -2.1 -2.1
134.9 142.4 154 163.6 167.9 185.1 199 207.2 207.6 199.5 197.8 212.3 218.5 221.4 225.6 229.4 229.9 228.3 227.5 232.4 240.6 247 246.4 234.8 226.2 227.2 232.5 227.3 231.4 227.3 220.6 227.3 228.1 227.1 221.1 222.4 218.3 218.4 217.9 221.2 223.4 216.9 221.3 224.3 220 218.7 224.5 226 231.4 233.9 234.8 242.1 246.5 248.5 250.6 250.1 250.3 252 246.5 246.5 249.7 247.8 240.1 232.2 224.3 218.2 214.8 210.2 208.6 200.5 198.4 200.5 198.6 191.3 188.7 187.4 185.4 172.4 166.3 163.6 164.7 168.6 178.4 179.5 184.2 191 197.3 206.8 215.1 217.2 217.6 212.1 218.3 217.1 215.4 213.3 211.4 211.3 205.8 205.8 205.8 205.8 205.8 212.7 219.7 227.5 245 261.2 272.1 275.4 262.8 251.5 237.8 229.7 220.3 213.1 208.5 201.9 190.2 185.7 180.6 172.5 170 169.2 175.1 172.8 172.8 167 160.8 156.3 147.7 140.8 135.9 132.1 129.8 129.9 131.1 150.4 160.4 167.4 182.1 178.2 173.7 173.3 170.5 167 152.3 138.1 125.3 121.3 121.3 121.3 123.7 124.7 126.2 133.3 136.9 124.6 114.7 127.8 150.8 156.8 142.2 130.5 111.5 107.8 101.5 93.7 71.6 56.4 41 32 26.3 37.7 57.8 65.9 69 79.3 92.7 94.3 86.9 77.1 56.3 39 28.3 -2.1 -2.1 -2.1 6.1 -2.1 -2.1 -2.1 -2.1 -2.1 -2.1 -2.1 -2.1 -2.1 -2.1 -2.1
136.5 143.7 154.1 166.1 170 183.4 197.5 207.6 211.4 208.1 199 212.7 221 224 227.1 231.5 234.1 232.9 230 232.6 239.1 247.9 252.5 247.2 236.5 233.7 236.1 237.6 233.9 234.7 225.7 225.5 228.8 230.1 230.5 228 218.8 220.3 221.1 224.5 226.3 223.8 222.4 224.3 222.4 216.4 216.4 224.4 229.1 233.1 233.1 236.1 240.4 243.8 250.3 251 252.8 253.6 251.4 253.5 255.8 249.7 242.7 236.9 233.4 225.7 223.5 211.2 209.7 204.7 202 202.4 204.8 200.8 190.1 187.5 186.3 182 168.5 166.1 166.5 166 178.6 186.1 186.2 189.1 194.9 202.9 211.8 215.9 219.6 219.4 222.9 223.2 219.8 213.4 211.4 205.8 205.8 205.8 205.8 205.8 205.8 214.2 220.1 238.2 266 263.5 273.8 278 265 252.9 245.6 234.5 229.3 223 209.9 205.5 200.2 183.9 177.5 171.6 170.4 172.5 176.7 177.1 176.4 173.7 170.7 165.8 161.9 151 143.1 137.5 135.2 133.9 131.4 147.5 160.8 167.9 175.3 176.9 174.6 173.9 172.9 168.6 158.3 138 125.1 121.3 121.3 121.3 126 130.6 132.5 138.1 142.2 128 134.7 150 164 165.8 155.1 134.8 117.5 111.9 104.4 86.1 68.2 50.5 33.8 16.7 32.8 48.6 58.8 69.1 76.5 87.4 94 99.4 97 74.4 48.5 49.6 32.1 -2.1 -2.1 -2.1 -2.1 12.7 -2.1 -2.1 -2.1 -2.1 -2.1 -2.1 -2.1 -2.1 -2.1 -2.1
138.1 143.8 153 167.4 172.5 181.2 196.5 206.2 213.9 212.1 202.4 212.7 221.7 225.6 228.4 232.8 237 237.1 236 234.4 238.9 245.9 253.8 256 247.3 241.3 240.6 240.6 235.7 238.9 226 223.3 231.6 237.9 234.6 234.4 224.8 223 221.3 221.3 225.7 226.9 223.3 224.3 222.7 216.4 216.4 220.3 223.7 227.3 230.3 230.8 235.3 242.6 246.8 250 255.2 259.3 253.4 255.1 257 252 245 237.9 240.1 235.1 227.3 216.9 211.6 207.5 204.5 200.3 201.6 199.5 191.7 190.4 186.7 184.6 179.5 167.1 167.9 166.7 177 185.5 193.2 194 194.2 199.6 207.8 213.2 217.6 217.5 221.5 223.9 224.8 220.7 212.3 207 205.8 213.9 217.1 215.7 212 214 215.1 228.9 253.5 253.9 265.5 275.3 274.5 259 247.9 238.5 231.3 227 209 207 199.4 186.4 177.8 172.6 171.7 175.9 177.3 180.9 180.7 180.1 181.7 179.3 172.6 161.5 152.1 145.1 141.8 142 130.7 140.1 154.6 163 172.7 178.5 175.1 174.6 174.1 169.9 156.7 140.3 126.7 123.1 125.8 127.3 137 143.4 146.5 144.8 145.9 136.4 149 161.6 167.5 179.9 166.6 150.2 121.9 113.1 101.4 83.3 62.7 45.6 27.1 31.2 49.7 57.1 61.7 72.2 79.2 85.2 93.9 97.3 95 66 54.2 59 48.9 22.1 -2.1 -2.1 -2.1 4.1 -2.1 -2.1 -2.1 -2.1 -2.1 -2.1 -2.1 -2.1 -2.1 -2.1
138.5 145 153.6 168.1 173.9 181.2 194.8 206.9 215.2 215.6 211.4 210.7 222.3 228.2 231.4 235.3 238.9 240.3 239 236.9 239.7 245.1 253.4 261 257.8 247.7 244.3 243.4 242.5 238.5 230 224.3 237.4 238.3 239.2 236.3 232.5 227.9 223 222.4 227.4 229.7 224.7 227.7 221.9 216.4 216.4 224 223.2 224.2 227.5 229.4 235 242.3 246.2 252.1 254.1 254.8 258.9 255.7 257.3 252.3 247.4 240.8 245.9 244.1 235 226.1 216.4 211.3 208.1 208.9 196.2 193.7 192.3 191.8 187.9 187 183.5 176.3 170.5 168.2 171.3 180.6 189.8 194.5 197.9 202.4 204 210 214.9 215.6 219 221.1 222.3 226.4 216.2 212.1 212.7 220.5 231.3 230.1 215.8 213.3 216.5 224.2 241.2 251.4 259.7 272 269 260.3 254 242 231.4 225.2 208.4 204.3 206.4 195.3 188 181.6 174.5 175.3 185.3 186.5 186.2 183.6 183.3 188.9 184.4 170.5 161.5 152.3 146.8 141.9 135.9 134.9 150.6 157.3 165 175.4 173.3 172.3 173.2 169.8 158.3 141.5 129.7 125.3 124.8 134.2 145.5 153.7 150.2 160.2 153.5 139.6 142.8 172 177.3 182.6 178.6 163.3 130.6 111.6 100.7 82.7 54.7 28.3 23.6 44.5 60.8 63.6 69.9 79.2 84.3 85.5 90.1 94.4 84.6 61.2 59.7 65.4 56 46.9 -2.1 -2.1 -2.1 -2.1 -2.1 1.9 5.7 -2.1 -2.1 -2.1 -2.1 -2.1 2.3 -2.1
140.7 145.7 153.2 167.8 176 180.9 194.1 206.6 215.1 219.3 216 211.9 222.9 230.8 234.4 237.1 240.2 243.3 244.1 242 240.3 244.8 252 261.6 264.3 257.6 247.6 246.2 249 240.8 238.4 240 238.8 242.8 243.9 241 237.8 230 226.2 223.8 232.2 231.3 229.1 229.7 227.1 216.4 216.4 232 225 224.4 226.3 228.4 230.5 236.4 245 250.4 251.3 252.5 260.2 260.1 262.3 255.6 248.6 248.6 248.3 247.5 240 238 227.9 217.4 209.6 206.7 199.4 194.2 193.4 192 191.9 191.5 185.5 182.9 175 170 169 173.7 186.2 198.6 204.4 204.2 208 208 214.3 214.8 217.7 218.1 223.1 225.9 223.8 214.2 214.6 219.8 235.8 243.6 224.6 218.8 219.2 226.8 244.2 250.4 263.8 261.9 260.2 259.7 259.1 244.8 231.2 213.6 206.4 204.1 211.4 209 197.1 188.8 176.9 176.4 186.7 191.2 188.9 185.6 183.9 183.7 182.9 176.7 167.5 159.2 153.8 148.2 142.5 139.6 143.3 151.2 159.4 168 169.8 167.9 171.5 169.3 159.4 143.7 138.9 128.3 125.9 138.3 147.1 150.6 154.3 165.3 157.8 147.1 152.2 184.2 184.7 181.7 195.3 165.6 139.5 113.2 99.2 76.9 49.3 27.2 43.3 52.5 68.3 77.9 78.2 83 91.5 89.4 89.4 86.6 77.5 60.7 63.1 70.2 55.8 50.6 47.4 -2.1 -2.1 -2.1 -2.1 10.7 9.1 3.3 -2.1 -2.1 -2.1 10 9.3 12.7
142.2 147.1 154 166.7 178.7 183.4 193.6 205.9 215.8 222 220 209 223.6 231.8 236.7 237.9 242.1 245.6 247.2 246.2 244.2 245.3 251.3 260 267.6 266 257.2 251.6 250.1 246.4 243.2 246.1 243.7 244.7 247.8 243.2 244.5 239.7 230.9 228.8 232.1 232.4 229.1 230.1 230.2 217.5 222.8 230.1 235.8 235.7 227.9 227.8 229.4 229.9 234.9 246.1 249.4 252 259.4 258.8 260.7 261.8 252.6 254.7 252.9 250.3 245.5 240.3 236.1 225 215.6 209.3 206.5 201.9 200.1 195.7 196.3 194.6 190.5 191.1 177.8 170.4 168.8 176.4 193.3 203.8 206.4 211.3 207.9 207.1 209.9 209.9 215.4 219.3 219.8 225.4 226.2 225.1 220 224.3 238.9 241.6 231.2 223.6 222.4 231.9 256.4 254.4 261.9 258 254.7 260.6 261.6 244.2 232.6 216.8 205.3 202.9 205.9 198.7 200.1 189.5 181 179.4 185.8 192.4 195.1 191.1 186.2 181.7 178.8 174 167.3 164.7 157.7 149.7 145.6 142.5 139.9 147.9 154.3 159.7 162.4 162.7 164.4 164 162.1 148.2 139.4 133.2 127 138 147.3 149.2 158.4 162.2 163 153.4 167.1 188 188.3 181.8 197.6 168.2 141.2 114.7 98.7 68.2 48.6 28.2 47.8 55.5 71.6 81.8 89 96.8 98.4 97.9 89.3 81 65.9 63.5 69.4 70 56.7 56.1 54.1 37 11.2 13.6 18.7 17.5 15.4 8.4 -2.1 -2.1 -2.1 10.4 12.1 17.1
144.9 149.1 155.4 167.9 180.1 184.7 192.7 205.7 216 222.9 224 213.4 223 232 238.7 241.2 243.3 247.1 249.4 250.1 248.5 246.7 252.6 258.2 266.8 272.7 271.1 257.7 257 252.3 249 254.5 249.7 247.5 249.9 248.8 248.7 244.1 233.4 233.7 234.7 235.8 234.4 231.8 228.6 221.2 228.1 228.1 235 240.2 233.6 230.7 229 231.5 234.1 240.6 247.2 248.9 255.3 253.7 257.7 257.7 253.4 254.1 256.2 253.6 251.8 247.1 240.3 226.7 222.3 215.9 214.6 210.3 209 205.6 199.6 198.1 194.5 188.3 185.5 175.9 170.1 180.6 192.6 201.7 206 212.9 211.4 210.3 207.8 204.5 206.5 220.3 217.8 224 222.6 227.9 231.3 225.9 236.4 240.6 231.4 230.8 227.3 241.7 253.9 251.9 243.3 249.6 259 261.3 262.5 243.1 229.3 214 202.4 199.4 198.4 193.4 192.6 189.3 184.3 184.5 183.8 184.9 192.6 191.3 188.6 182.8 175.1 169.3 162.9 158 159.9 152.3 147.5 146.7 144.7 140.7 149.3 152.1 156.1 157.8 156.5 158.7 158.7 152.4 140.9 135.9 131.4 139.9 147.9 150 154.4 171.8 164.3 179.4 183.9 197.7 188.7 182.8 188 170.7 140.3 113.2 86.3 62 37.3 32.3 46.9 63.4 86.3 91.4 104.6 104.2 107.4 104.9 87.7 72.8 67.3 73.2 71.4 75.2 67 67.4 66.9 53.8 26.4 25.4 26.2 24.1 22.8 25 17.5 12.8 11.3 14.7 14.8 17.3
145.9 151.8 156.8 168.6 180.7 185 191.7 204.4 217 225.6 227.5 217.6 220.8 232.2 239.9 244.2 245.5 247.3 251.4 253.3 252.2 250.3 251.9 257.2 264.8 273.9 277.8 268.9 261.1 261.7 253.8 260.1 257 258.2 254.4 250 252.2 247.4 237.6 234.5 237.9 239.2 235.7 235.3 233.2 240 228.9 237.2 240.8 241.2 237.7 234 231.6 232.8 233.7 238.1 246 245.8 248.1 249.2 252.9 255.8 254.3 255.4 257.3 255.9 257.2 251 244.5 234 228.1 219.3 218.2 217.4 216.3 209.7 206.9 202.8 197.4 193 186.6 177.3 171.6 182.1 193.6 200.3 205.3 207.5 212.3 207 205 204.5 204.5 219.4 221.8 222.4 219.2 222.7 235 229 230.7 232.3 227.6 232.4 231.6 237.4 250 251 237.2 237.3 247.2 260.6 257.3 250.4 235.6 215.5 201.2 194.9 191.8 190.8 189.3 190 187.2 186.5 185.1 183.8 189.6 190 186.4 182.3 173.9 164.6 158 151.3 152.3 154 148.8 148 147.9 141.7 145.4 146.6 150 154.1 153.5 153 151.2 147.6 139.7 139.6 137.4 147.1 149.2 151.1 153.6 170.3 169 187.1 199.3 207.1 195.7 191.8 185.5 170.1 136.8 106.1 76.8 60.2 41 33 53.4 81.4 103 106.4 114.1 115.2 109.8 105.7 85.9 72.6 70.5 76.2 82.6 76.5 79 84.4 79.1 70 44.7 35.6 30.4 30.2 30.2 36 33.9 21.6 20.6 19.2 16.5 15.6
147.8 152.9 159 170.2 180.3 187.1 191.7 204.1 217 225.9 230.2 228.6 219.9 232.2 240.6 245.7 247.6 250 252.7 255.9 256.1 254.4 253.1 257.6 263.2 272.1 279.8 282.3 272.3 266.1 261.2 262.6 266 264 265.4 254.9 255.2 252.8 245.3 239.4 243.7 244.4 245.6 239.1 234.6 237.9 232.3 243.8 247.6 245.4 240.4 238.4 237.3 236.9 239 239.8 243.6 246.1 245.5 246 247.6 249 250.9 250.6 256.5 260.9 260.2 256 250.7 241.5 232.9 223.2 220 220.2 220.5 215.8 213.4 208.7 204.5 201.2 192.3 181.3 174.5 181.6 196 200.5 207.8 214.9 211.4 204.5 204.5 204.5 208.7 215.5 221.7 220.7 219.8 220.6 229.3 233.7 229.8 229.4 223.5 227.8 229.8 231.7 243.3 251 238.6 232.3 238.3 248.3 254.2 254.7 240.4 215.3 203.2 193.8 190.7 190.8 191.7 192.9 194 194 200 194.9 191.7 190.8 187.3 180.4 172.9 164.8 156.9 151.1 151.1 151.1 154.8 148.8 147.3 147.1 145 145.7 147.7 148.3 148.9 150.8 144.8 143.3 139.3 141.2 140.6 151.3 155.2 147.7 148.5 162.2 179.6 186.2 190.8 201.9 207.1 197.2 186.9 162 128.2 97.6 79.2 55.1 42.2 45.2 73.7 94.7 104.6 110.2 120.8 123 111.7 108.6 92.8 82.2 74.2 82.8 85.6 90.3 93.9 92.3 88.6 93.3 66.4 44.2 36 44.9 42.6 40.5 32.4 28.5 23.7 20.8 21.3 16.8
149.6 155.1 160.2 170.2 182.9 189 192.6 202.5 216.1 225.6 232 231.9 221.8 232.1 240.6 247.4 249.2 251 254.2 257.9 259.5 257.9 255.5 258.4 262.7 269.7 279.8 286.5 284.7 279.4 267.4 267.7 269.3 271.1 268.2 259.6 260.7 258.4 256.9 245.5 248.1 254.3 253.8 250.9 239.2 238.2 240.6 246.5 254.2 249.2 248.4 241.9 243.7 241.4 242.8 244.2 246 249.7 246.3 245.2 245.5 245.5 246.7 248 253.7 261 259.7 258 253.5 246 243.7 229.2 222.4 223.5 223.4 220.4 219.8 215.1 212.8 210.1 199.1 186.5 178.6 174.8 188.4 199.3 205.5 210.5 215 213.7 204.5 204.5 206.1 220.3 221 221.8 219.9 219.2 223.6 231.8 231 223.3 219.6 225.4 226.9 227.8 237.2 243.9 234.2 229.1 229.3 240.8 244.7 247.8 235.8 226.4 209.3 196.3 192.1 195.3 197 202.6 211.6 216.3 216 208.3 196.2 192.1 189 179.5 174.9 172.1 163.2 152.7 151.1 151.1 156.3 154.4 149 148.1 151 147 145.6 144.6 143.9 144.8 143.3 138.5 137.6 137.3 138 152.9 146.1 144.7 141.9 150.5 168.6 181 185.4 191.7 188.8 193 171.7 147.4 117.7 91 73.2 57.1 42.4 72.4 82.8 93.7 108.9 121.3 130.3 131.7 114.9 114 96.4 87.8 76.3 89.6 90.4 102.1 100.1 97.9 95.3 96.8 76.9 54.2 44.2 49.4 57.7 45.7 43.8 34.8 24.3 21.5 20.5 19
150.2 157.3 162.4 170.3 183.3 190.2 194.2 200.6 214.7 226.3 233.6 234.8 231.3 230.7 240.6 248.1 251.2 253.8 255.4 259.1 262.3 261.3 259.5 259.8 263.1 269.4 277.6 287.6 291.8 289 282.8 278.9 271.6 274.8 273 267 264.5 264 261.3 254.7 256.5 256.8 256.1 256.2 248.4 241.4 242.3 249.6 258 255 249.7 245.1 245 245.2 245.6 247.9 248.6 253.3 250.1 249.5 246.4 246.4 247.1 247.1 249.1 252 260.3 256.7 254.2 253.3 247.2 238 226.3 228.3 225.3 224.6 223.9 217.8 214.5 216.9 201.9 184 183.8 178.6 184.5 194.5 202.6 207.4 212.7 216.7 213.1 209.1 204.5 216.7 221.1 218.6 214.8 215.8 216.6 226.4 232.2 217.8 214.9 221.5 222.6 223.3 231 236.7 230.9 226.4 227 231.2 233.3 230.9 231.3 237.2 221.9 205.3 198.5 200.7 202.6 212.9 219.5 230.2 232 217.9 204.4 193.9 187.7 181 176.5 176.6 171.5 161.1 151.5 151.1 151.1 159.8 151.8 149.8 152.2 148.8 147.4 143.9 143 141.3 138.7 137 135.7 136.2 135.7 142 137.7 136.3 144.9 155.1 162.1 177.2 180.6 190.8 189.8 176.2 159.7 133.1 108.3 84.6 68 42.6 58.3 81.7 87.9 100.2 110.4 119.6 131.3 140.5 130.2 111.4 99.8 93.7 86.1 91.9 96.9 107 111.3 107 103 92 77.3 66.5 57.3 52.5 51.9 45.9 41.6 29.1 23.2 21.3 19.8 19.2
151.2 158.7 162.6 169.4 181.9 190.8 194.9 200.4 214 225.8 233.7 236.6 233.6 231.2 240 247.6 253.7 255.3 256.5 259.7 263.7 265 263.2 259.7 263.7 268.6 276.3 285.4 292.8 294.8 290.2 282.1 281.4 276.4 277.3 274.9 269.4 269.2 267.5 264.4 258.8 257.4 256.8 257.1 257.7 244.4 239.9 248.2 256.6 258.8 255.1 245 245.3 251 249.3 250.4 251 254.9 255 251.1 251.1 253.8 254.6 250.4 255 257.8 252.7 253.7 254 253.1 251.9 245.2 228.7 229.4 231.7 226.7 224.8 223.7 218.4 215.4 203.4 197 188.7 183 178.9 194 201.5 205.6 209.7 214.1 212.7 221.1 214.2 213.2 217.2 216 211.7 214.1 213.7 218.5 227 219 214.9 220.4 215.5 217.9 225.3 231.7 227.7 224.6 230.8 225.8 224.6 235.5 230.9 241.2 227.8 213.6 211.9 209.1 211.7 212.6 220.9 225.5 229.2 218.9 208.8 199.4 188 177.9 179.3 179.1 176.1 174.4 158.7 151.1 151.1 151.1 151.1 151.5 153.7 151.3 147.7 143.9 142.8 141 139.2 139.7 135.8 134.8 134.3 135.7 130.7 135.6 159 165.3 167.2 178.2 179.6 177.7 179.5 161.7 139.9 121.4 97.4 77.4 61.7 45.1 68 81.2 89.1 101.2 106.3 116.3 129.3 139.1 133 110.9 114.1 107.7 91.5 90.7 108.2 114.8 116.5 108.8 109.4 97.4 95.5 96.9 76.3 57.7 62.2 69.2 55.1 42.4 28.4 22.6 24.1 23
150.7 160.9 164.9 169.6 179.1 191.2 196.1 200.3 212.8 225.8 233.8 239.2 237.8 229.6 239.8 247.3 254.2 256.5 257.8 260.4 264.6 267.9 267.4 264.4 264.2 268.9 275.2 284.2 293 299.1 299.5 289.9 287.8 282 282.6 281.4 275.4 276 270 273.8 262.2 259.8 258.2 256.7 254.4 245.9 240.4 246.6 259.6 258.7 258.7 248.3 245.8 253.5 252.4 255.9 252.3 258.3 257.4 254.4 252.5 257.4 259.1 253.6 260.8 261.3 257.6 254.9 251.9 250.6 248.9 249.3 232 233.6 236.8 228.9 225.6 225.5 222.1 214.4 205.2 202.3 196.1 186.3 180.1 188.8 200.5 201.8 207.1 210.9 211 219.7 220.1 218.6 216.8 210.7 211.4 211.4 212.7 215.1 221.4 218.2 214.9 218 213.2 215.7 221.1 232.7 225.4 222.6 227.4 218.5 219.8 231.1 229.9 234.9 225.7 217.7 211.9 209.5 205.4 213.1 217.6 226.9 221.1 215.9 212.2 204.4 193.3 181.7 173.7 173.5 179.7 177 166.6 152 151.1 151.1 151.1 154.2 157.4 153 150 146.2 142.5 141.1 139.9 139.6 136.8 133.3 132.2 128.1 128.7 157.8 158.2 177 169.6 181.6 177.2 166.6 169 156.3 128.5 108 86.1 72.6 54.6 63.8 61.2 80.2 88.8 100.7 104.1 121.1 127.7 135.7 130.4 116.1 113.7 104.6 90.6 94.4 113.7 115.4 116.2 113.2 115.5 114.5 126.3 114 108.9 74.4 70.2 78.4 84.1 64.7 43.5 28.6 34 30.5
150.7 161.8 166.1 169.4 178.9 190.7 196.2 201.1 210.7 225.2 234.7 240.8 240.8 233.1 238.5 246.5 253.7 258.3 259.2 260.7 265.5 269.5 270.6 268.7 266 270.5 277.1 282.9 292.8 300.1 306.3 303.3 296.4 293 288.7 288.6 284 281.3 275.4 275.4 272.4 262.6 264.4 256.6 257.2 250.9 240.8 244.9 259 258.9 260.1 253.1 253.4 254 255.3 261.5 259.2 263.2 260.1 257.3 253.4 258 261.4 255.2 263.6 264.2 263.9 258.2 255.3 255.8 246.9 246.1 241.6 239.6 233.3 228.1 226 223 220.1 217.7 211 204.3 201.8 195.2 192.8 184.1 194.2 196.4 199.3 207 208.4 215.6 223.9 218.1 220.1 212.4 208.7 208.8 208 209.2 215.2 219.2 214.9 218.4 213.7 212.8 219.5 228.9 225.7 218.6 219.3 214 222.7 228.8 229 227.5 220.8 218 213.3 205.5 202.6 204.6 212.2 216.1 217.4 216.1 211.5 207 195 183.3 171.1 166 170.3 168.7 165.2 151.7 151.1 151.1 151.1 154.8 155.2 153.9 152.6 151.5 147.2 141.8 141.8 140.5 139.3 138.2 127.4 126.5 130.2 135.3 142.2 172.4 166.7 180 173 159.8 153.5 135.4 117.4 96.6 81.9 60 64.5 76.6 82.7 76.3 83.8 94.5 111.1 120.8 128.2 132.5 121 118.8 112 96.8 90.3 106.2 114.7 112.6 112.1 116 127.7 135.6 128.8 117.9 114 114.4 78.9 84.1 90.5 80.6 57.6 34.6 36.8 42.8
149.9 162.1 167.8 169.3 178 190 197 202.2 209.1 223.1 234.8 241.9 243.6 241.3 236.2 245.5 252.6 258.4 261.6 262.9 266.3 270 273.1 272.7 269.8 272.2 279.6 284.7 291.6 301.2 309 312.7 308.4 302.8 299.1 296.2 294.8 291.6 288.8 284.1 272.2 266.6 266.2 260.4 254.6 253.6 245.6 246.4 259.4 262.7 265.1 255.9 256 256.8 258.5 258.6 258.8 265.8 259.5 255.7 255.3 259.9 263.5 256 265.5 265.6 263.4 261.9 264 258.8 248.9 248.8 243.7 240.6 234.4 229.2 226.5 223.4 222.7 219.6 214.8 210.3 204.2 201 199.1 192.7 184.3 191.1 194 202.2 204.6 204.5 214.3 214.9 220.4 218.5 209.8 206.7 204.3 205.8 210.5 218.3 215.7 217.5 215.3 207.4 213 221.1 219.8 214.3 212.4 213 224.2 229.3 231.3 226.4 218.5 213.4 212.7 208.3 204.8 204.7 208.7 214.1 216 215 212.7 205.8 197.2 185.2 170.3 165.5 163.2 160.2 157.2 151.1 151.1 151.1 153.6 154.8 154.2 156.6 155.4 152.2 149.9 144 143.5 146.2 144.5 139.2 131.4 126.3 126.9 125.5 133.5 144.8 151.1 166.3 165.2 154.4 144.5 121.7 105.7 87 77.4 61.8 79.4 86.9 88.7 92.7 78.9 93.3 107.7 117.5 123 122.5 119.4 116.4 109 92 91.2 108.1 114.6 112.3 113.5 116.2 128.8 138.5 131.5 126.7 119.9 122.1 107.6 85.2 95.8 88.2 56.9 35.8 34.8 36.2
