ncols 200
nrows 83
xllcorner 280000
yllcorner 712300
cellsize 50
217.9 217.2 213.1 211.4 211.2 207.3 205.2 202.3 198.2 193.9 188.5 183.7 175.8 170 162.7 156.8 151.8 147.9 143.3 140.4 134.2 128.5 125.7 128 128.3 126.8 126.8 126.2 125.2 124.2 122.6 122.8 123.4 123.3 123 122.1 120.2 118.3 116.8 116.3 115.7 116.1 117.6 119.5 120.7 122.3 122 121.9 121.9 122.2 122.1 122.1 122.1 121.7 121.3 121.3 121.9 123.1 123.7 124.9 126.2 127.6 129.5 130.6 132.3 133.7 136.1 137.1 138.2 138.8 139.7 140.5 140 139.9 139.7 139.5 138 136.5 135.6 136.2 136.3 136.4 134.6 133.6 132.6 131.7 132.3 131.6 130.2 130.3 128.7 128 127.8 126.7 124.7 125.4 125.7 125.9 126.7 127.4 127.5 127.6 128.5 129.8 131 132.4 133.9 135.5 135.8 137.7 138.8 139.4 139.4 139.3 139.7 140.3 139.4 138.5 137.4 136 135.2 133.2 131.7 129.8 128 126.3 124.6 122.6 121.5 120.6 119.2 118 116.6 114.8 113.8 112.6 110.9 108.6 107.8 106.9 105.1 103.1 101.3 101.2 100 98.3 96.4 94.5 93.6 93.1 92.2 90 88.9 87 85.9 84.8 83.7 82.3 80.1 79.2 78.6 77.1 75.6 74 72.6 71.1 69 67.3 66.4 65.2 64.9 64.1 63.8 63.5 62.1 60.8 60.5 59.8 58.7 57.8 56.4 56 55 54.1 53.8 53.9 52.7 51.7 52.6 52.6 53.1 53.3 53.3 53.5 53.9 53.8 53.9 56.9 58.9 60.7
221.4 218.3 215.4 213.2 211.1 208.1 205.6 202.9 202.5 198.1 192.2 186.2 179.4 174.1 166.7 160.6 154.5 150.3 147.5 141.4 132 127.8 125.5 125.2 125.4 125.4 124.6 124.5 123.8 123.4 123.8 124 124.4 125 124.4 123.6 122.2 120.6 118.3 117.6 116.5 115.9 115.3 115.8 117.4 118.3 119.6 119.9 119.9 119.9 119.9 119.9 119.8 119.5 119.2 119.1 119.7 120.9 122.1 122.7 123.9 124.7 125.5 126.9 128.3 129.6 132.3 133.6 134.4 135.2 136.3 137.3 136.8 136.9 137 136.8 135.4 133.8 132.9 132.9 132.6 132 131.3 130.3 129.4 128.9 128.4 128.3 127.4 127.1 125.7 125.9 125.1 124.5 123.8 123.6 123.3 124.1 124.9 125.8 126.1 126.3 127.6 128.8 130.2 132.1 134.3 135.6 136.3 138.5 140.4 141.4 141.4 142.2 143.2 143.8 142.9 142 141.1 140.2 139.3 137.2 136 134.7 132.8 131.4 129.9 128 126.1 124.8 124.1 123.3 122.2 121.1 118.9 118.1 116.5 114.1 113.8 112.2 110.4 108 107.9 106.4 105.1 104.1 102.2 100.3 98 96.9 95.9 95.4 93.8 91.8 90.7 89.8 88.8 86.6 84.8 83 82.2 80.7 79.3 77.9 76.5 75 73.2 71.4 69.7 68.3 66.9 65.3 65 64.5 63.2 61.8 61.3 60.5 59.6 59.7 59.6 58.7 56.7 54.8 53.8 52.6 51.9 51.3 53.9 51.1 51.8 52.1 52.4 52.1 51 50.6 51 51.9 54.8 57.6
229.4 225.6 221.9 217.1 215.9 215.4 213.2 211.2 209.4 203.3 197.1 186.7 179.2 171.5 168.8 163.9 155.8 151.3 145.5 141 139 129 125.8 125.4 125.3 125.4 125.6 125.4 124.5 124.4 124.7 125 125.4 125.9 125.8 125 124 122.9 120.4 118.3 117.4 117.5 117.4 115.4 115.2 116 117.1 118.1 118.2 118.5 118.7 118.5 118.4 118.3 118 117.6 118.3 119 120.4 120.5 121.4 122.3 123.1 123.9 124.8 125.6 127.8 129.8 130.7 131.8 133 134.2 133.7 134 134.3 134.1 132.7 131.1 130.1 129.7 129.3 129.1 128.6 127.6 127.2 127 126.3 125.7 126.3 125.3 124.5 123.4 122.7 121.9 121.8 121.5 121.3 122 122.8 123.7 123.8 124.4 125.8 127.2 128.5 130.7 133.8 135.6 137.4 139.5 141.4 143.4 144.3 145.3 146.2 147.3 146.7 145.9 145.1 144.2 142.8 141.1 140 138.8 137.7 136.4 135.1 133.3 131.2 130 129.4 128.5 127.5 126 124.1 123.2 121.8 119.7 119.2 117.9 114.8 113.4 112.3 110.7 109.5 108.5 107.7 106.1 104 102.6 101.5 100.6 99.4 96.9 95.8 94.8 93.2 91.4 89.6 87.8 86.1 84.7 83.3 81.9 80.5 79.1 77.4 75.7 73.9 72.2 70.4 69.1 68.7 67.5 64.6 63.8 63 62.5 62.5 62.1 62.4 61.8 59.7 57.4 54.8 53.5 52.7 52.1 53.1 51.4 51.7 52 52.2 51.1 50.6 50.3 50.4 48.5 50 54.8
241.6 230.9 228.1 225.1 222.2 221.8 221.7 218.9 214.2 210.2 204 192.5 182.6 171.7 165.4 162.6 157.5 152.7 147.5 141.6 136 130 126.1 125.6 125.7 127 127.2 127.2 125.2 125.3 125.4 125.3 125.6 126.6 127.2 126.2 125.3 124.7 122 119 118.8 118.5 118.2 117.5 115.6 114.8 115.3 116 116 117 117.6 117.3 117.2 117.5 117.6 117.6 117.2 117.7 119.5 118.9 119.1 119.9 120.7 121.6 122.6 122.8 122.5 124.6 126.9 128.4 129.7 130.9 130.8 131 131.3 131.4 130 128.5 127.6 128.1 127.9 127.6 127.3 126.7 125.6 125.1 124.6 123 121.9 121.3 121 120.1 119.5 118.9 119.3 119.3 119.2 120 120.7 121.5 121.9 122.8 124.6 125.9 127.3 129.7 132.8 136 138.3 140.5 142.7 145.1 146.1 147.2 148.2 149.3 150.5 149.9 149 148.2 146.6 145.6 144.4 143.3 142.1 140.9 139.7 138.3 136.3 134.8 134.6 133.1 131.4 131 129.7 128.6 126.6 125.1 124.6 122.4 119.6 118.2 117 115.5 114 112.9 112.1 111.1 109.9 108.7 107.3 105.7 104.2 102.1 100.6 99.8 97.4 95.9 94.4 92.7 91 89.3 87.6 86.2 84.8 83.4 81.9 80.2 78.5 76.8 74.8 73 72.4 70.6 68.9 68.9 67.3 66.4 65.8 64.7 63.3 62.9 62.2 60.7 58.2 56.4 55.5 54.7 53.8 52.1 51.9 51.8 52.1 51.5 51.3 50.2 49.8 48.4 47.4 49
241 237.2 235.2 233.6 231.2 230.3 227.9 224.7 220.9 216.4 210.1 198.9 189.6 178.3 166.2 162.3 159.5 152.4 146.9 141.7 138.8 130.3 126.9 126.4 126.4 127.5 127.7 126.3 125.1 125.7 125.6 125.5 125.7 127.1 127.1 125.8 125.1 124.2 123.4 119.3 119.4 119.3 119.1 118.8 117.6 115.9 114.8 114.9 114.9 115.6 116.4 117.2 116.9 116.6 116.1 115.8 115.9 116.8 118 117.2 117.4 117.8 118.3 119.3 120.2 120.2 120.1 120.5 122.5 124.1 126.3 127.6 127.8 128.1 128.4 128.7 127.6 127 127 126.6 126 125 124.3 123.9 123.7 123.5 122.9 121.5 120.4 119.5 118.7 118.1 117.8 117.5 116.9 116.9 117.2 117.9 118.5 119.2 120.3 120.7 123 124.7 126.7 129.7 132.7 136.1 138.3 140.5 142.7 145 147.1 149.1 150.2 151.4 152.7 153.3 153 152 151.4 150.1 148.9 147.7 146.5 145.3 144.1 142.8 141.2 139.7 138.5 136.9 136.4 135.9 135.2 133.5 131.6 130.5 129.8 126.4 124.3 123 121.6 120.3 118.8 117.3 116.5 115.2 114 112.8 111.5 110 107.9 105.8 105.6 103.9 101.5 99.2 98.1 97.3 95.9 94.2 92.5 90.8 89.1 87.7 86.2 84.8 83 81.3 79.1 76.9 76.1 75 74.4 73.9 72.9 71.8 70.7 68.4 66.4 64.1 63.7 60.6 57.6 55.7 55 54.5 54 53.6 52.3 52.3 51.8 51 50.1 49.9 49.5 49.5 49.2 47.9
241.9 239.1 239.4 238.8 237.1 236.2 235.1 231.9 228.6 221 213.2 207.8 201.1 188.4 172 163.1 158.5 152.1 147.1 140.4 135.8 132.8 127.1 127.6 127.5 126.8 127 126.3 126.5 126.1 125.8 125.8 125.8 126.1 125.5 125.1 123 121.5 120.8 119.4 119.4 119.5 119.6 119.6 119.4 118.6 118.1 115.7 114.7 114.9 116.1 116.3 116.5 116.8 116.5 116.2 115.9 115.6 116.1 116.4 116.5 117 117.3 117.2 117.8 117.8 117.8 117.8 118.2 119.1 121.2 123.7 125.1 125.6 126.1 126.3 126.2 125.9 125.6 125.1 124.6 123.7 122.6 122.2 121.9 121.5 121 120.2 119.1 118.2 117.5 117 116.5 116.1 115.1 115 114.9 114.9 115.5 116.4 117.2 118 119.3 121.6 126 129.9 133.2 136.1 137 139.4 141.6 143.8 145.7 147.8 151.1 153.6 154.9 155.7 155.7 155.1 155.9 153.9 152.1 150.8 150.5 150 148.5 147.3 145.7 144.2 142.3 140.3 141.1 140 138.5 137.8 136.8 135.7 133.3 131.2 129 127.7 126.4 125 122.8 121.1 120.3 119.5 117.5 116.4 115 113.6 110.9 109.3 108.2 105.1 102.8 101.8 101 100.1 98.9 97.4 95.7 94 92.3 90.9 89.9 89 87.6 85.8 83.5 81.2 80 79.8 79.7 79.3 78.1 76.1 73.8 71.2 69 65.9 63.3 60.9 58.2 56.5 55.5 54.8 54.4 54.1 52.7 51.7 50.8 50 49.7 50.4 49.3 50 49.9 49
244.2 244 243.5 241.3 242.2 242.2 241.2 234.9 231.8 228.8 221.6 214.3 207.4 197 184.2 171.3 162.5 156 149.9 143.2 137.5 132.5 128.5 128.6 128.8 127.9 129.1 129.3 128.2 127.3 126.6 125 125.3 124.6 123.7 123.4 123 122.6 119.8 119.5 119.5 119.6 119.6 119.7 119.6 119.7 119.2 118.5 117.5 114 115.3 115.3 115.7 116.5 116.6 116.5 116.2 116 116.5 116.3 116.2 116.6 115.8 115.6 115.6 115.7 115.9 116 115.8 115.7 117.1 120.2 122.3 123.2 123.9 124.2 124.1 124 123.7 123.2 122.5 121.9 121.2 120.5 120.2 119.6 119 118.3 116.9 117 116.3 115.8 115.3 114.8 113.8 113.2 112.9 112.9 113.1 113.5 113.7 114.7 116.3 118.3 123.2 127.5 131.6 133.6 135.3 137.7 140.1 142.3 144.4 146.1 149.3 154 156.6 156.6 155.2 155.4 155.8 155.6 154.9 154.3 153.9 153.9 153.3 151.2 148.6 147.7 145.7 143.6 143.5 142.3 140.9 139.9 138.9 137.6 136.6 135.4 133.9 132.3 130.4 128.4 126.4 124.8 124.1 123.3 120.9 120 118.4 116.4 114 111.6 110.5 106.6 105.2 104.3 103.3 101.8 100.6 99.6 98.2 96.5 95 93.5 92.4 91.4 90.6 89.3 87.6 85.5 83.8 81.9 81.4 80.9 79.9 77.2 75.5 73.2 69.8 66.6 63.5 61 59.3 57 56.7 55.1 52.9 50.5 48.8 49 49 48.9 49.6 48.1 47 48.5 49.4 49.6
248.8 248 249.1 249.6 247.7 247 246.2 242.5 237.4 227.4 221.6 219.2 211.8 204 196.9 185.4 170.4 158.4 153.5 147.9 142.7 133 130.4 129.7 129.8 130.4 129.4 128.7 128.6 128.2 127.4 125.6 123.8 123.1 122.3 121.9 121.1 120.5 119.9 119.6 119.4 119.3 119.2 119.2 119.1 119.5 119.3 118.3 117.9 116.1 114.9 115.4 115.9 116.1 116.3 116.4 116.6 116.3 116.3 116.1 115.9 115.7 114.5 114.8 115.1 115.3 115 114.7 114.3 114.1 113.9 116.9 119.3 120.2 120.8 121.5 121.9 121.9 121.7 121 120.3 119.5 119.1 118.6 118 117.5 116.9 116.3 114 114.8 115.2 114.7 114.1 113.3 113.2 112.4 111.6 110.9 111.8 112.9 113.8 114.3 114.5 116.7 120.4 124.6 128.5 130.5 132.5 135 137.5 139.8 143.1 145.3 148.6 152.9 153.6 154.9 155.5 156.1 156.8 155.8 155.7 155.6 155.3 155 154.1 153 150.6 150.6 149.1 147 145.6 144.4 143.2 142 140.9 139.9 138.9 138 136.7 135.7 134 132.5 131 129 127.5 126.2 124.6 123.6 122 119.5 117.2 114.9 112.2 110.1 108.4 106.4 105 103.5 102.3 101.4 100.4 98.8 97.3 95.9 94.8 93.6 92.3 90.7 88.5 86.7 84.6 81.7 81 80.5 78.9 75.9 72.3 68.6 66.1 62.7 61.5 60.9 57.6 53.5 50.2 49.8 49.5 49.2 52.5 48.5 48.2 48.5 48.8 47.3 46.4 46.8 47.6 47.9
251.6 250.1 249.5 249.1 246.7 245.3 242.8 239.8 236.5 230.6 220 214.6 211.4 207.2 199.9 192.1 186 172.6 158.2 149.6 142.3 136.8 132.1 131.6 133.7 132.7 132.3 129.8 128.5 127.4 127.2 125.9 124.5 123.9 123.2 122.6 121.8 121.2 120.4 119.7 119.5 119.2 118.9 118.6 118.6 118.9 118.6 117.7 117.6 116.9 115.1 114.3 114.9 116 116.4 116.4 116.5 116.2 116.3 116.1 115.9 114.6 113.7 114.1 114.4 114.6 114.8 114.7 114 112.9 112.1 113.6 116.6 117.7 118.2 118.7 119.3 119.5 119.2 118.7 118 117.3 116.5 115.2 114.4 114.1 113.5 112.4 110.3 109.4 109.1 108 108 110 109.2 108.3 108.3 108.8 109.7 111.2 113.1 113.2 113.3 113.9 117 121.3 124.8 127.9 129.7 132.2 134.5 136.7 140.1 144.4 148.2 151.7 153.2 154.7 155.6 155.4 155.3 155.7 155.4 155 155.5 155 154.4 153.8 153 152.4 151.5 149.3 148.2 147.5 146.4 145 143.2 142.1 141.2 140.6 139.3 138.4 136.8 136.2 134 131.8 130.1 128.3 127.9 126 122.2 120.1 118 115.7 112.8 112 110.7 107.9 106.6 105.3 104 103.1 101.1 98.8 97.3 96.5 95.7 94.2 92.6 90.7 88.6 86.5 85.2 82.5 80.4 78.3 71.2 70.8 67.6 64.2 60.1 57.8 55.8 55.1 52.2 48.8 49.1 49.1 49.3 49.2 49.6 49 49.4 51.5 51.7 49.7 48.3 46.6 45.9 46.6
251.7 250.5 247.8 245.6 243.6 241.2 238.3 235.4 232.4 229.2 224 215.1 209.4 203.4 198.9 194.7 185 180.3 170.8 162.9 155.6 145.6 137.4 135.5 137.8 137.3 135.4 134.4 132.3 130.5 128.1 127.4 125.9 125.2 124.5 123.8 122.8 122.1 121.1 119.9 119.6 119.3 118.9 118.5 118.6 118.1 117.9 117.4 117.3 117.2 115.9 114 114.2 114.9 116.2 116.6 116.6 115.9 115.9 116.2 116 115.3 115 113.7 113.8 113.9 113.9 113.2 114.1 114.1 111.9 111.1 113.9 115.2 115.7 115.9 116 116 115.1 114.8 112.9 111.2 110.1 109.6 108.9 108.2 107.7 107.1 106.5 105.7 105 105 103.7 103.9 103.3 104.4 104.9 105.3 106.9 109.4 111.3 111.7 112.2 112.4 113.1 117.2 120.4 123.8 126.6 129.7 133.1 135.8 137.8 141 144.9 147.4 149.8 150.6 151.4 152 152.4 152.9 152.8 152.9 153.4 154.1 154.4 153.9 153.6 152.8 152.8 151.1 150.4 149.6 148.8 147.6 146 144.4 143.5 143.2 142 140.8 139 137.9 135.7 133.1 130.9 130.5 129.4 125.3 122.9 120.8 118.7 116.4 113.4 113.9 110.4 109.1 108.1 106.9 105.7 104 101.7 99.2 97.6 96.9 96 94.4 92.6 90.6 88.6 86.4 85.1 80.8 69.2 60.4 56.8 56.4 53.3 52 50.8 49.6 48.3 50 54 54.9 53.3 55.1 55.3 53.5 53.3 53.6 60.6 62.6 62.7 60.6 58.3 56.3 50.6 46.2
252 249.6 247.1 243.2 239.9 236.7 233.8 231.1 228.1 225.2 220.7 216.8 212 207.4 196.8 193 188 181.1 174.7 169 162.7 153.4 146 137.4 141.7 140.4 138.7 136.2 134.7 133.5 131.3 130.4 130.8 128.9 127.1 125.7 123.8 122.6 121.5 120.7 119.4 119 118.6 118.5 119.1 117.7 117.2 117.1 117 117.5 115.8 114 114.1 114.1 116.4 116.5 116.5 115.6 115.3 115.7 115.7 115.2 114.8 114.8 113.5 112.7 112.7 111.4 110.8 110.9 110 109.9 111.8 112.9 112.9 112.6 112.6 111.1 110.3 110.6 109.4 108.2 107.3 106.4 105.9 105.1 105.2 105.4 104.8 104.1 104.7 105.2 104.5 104.4 104 102.9 102 102.7 102.9 104.6 106.2 107.6 108.6 109.3 109.8 111.4 115.4 118.5 121.9 125.8 129.5 132.8 136.2 139 141.6 144.1 146.5 147.5 148.5 149.8 149.8 149.8 150.6 150.7 151.1 151.9 153 154.6 154.3 153.6 153.6 153 152.1 151.2 150.7 149.9 148.5 147 145.7 145.8 144.5 143.1 140.8 138.9 136.3 133.4 132.4 131.3 129.1 126.6 124.2 121.4 119.4 116.9 114.1 113.5 111.2 109.6 108.7 107.6 105.7 103.9 102 100.1 98.6 97 95.5 94.1 92.5 90.6 88.1 86.2 78.3 58.5 53.6 53.7 54.8 57.1 59.9 60.1 60.5 61.4 60.8 61.7 64 64.7 66.5 65.2 61.9 59 58.1 58.2 61 64.6 66.8 64.5 61.3 58.9 56.2 52.6
251 247.8 244.8 242.4 239.3 234.7 230.6 227 224 221.1 217.5 214.2 211 206.2 201.7 195.4 187.9 184.3 178.4 171.6 167.2 163.6 154.9 143.1 145 145.6 145.3 142.8 141.6 140.5 136.5 135.9 136.4 134.8 132.9 130.5 125.5 123.2 122.5 121.5 120.3 119 118.3 119.1 119.5 118.1 117 117.5 118 118.4 116.7 114.1 113.9 113.9 115 116.3 115.9 114.7 114.8 115.3 115.3 114.1 114.3 114.3 113.6 112.6 111.8 111.5 111.8 111.9 111.2 109.9 110.1 110.2 111 109.7 108.7 107.3 108.2 109.3 106.8 105.7 105.6 105.8 105.3 108.9 109.9 108.5 107.3 107.8 107.7 106.4 106.2 105.8 105.9 105.6 105.1 103.1 101.2 101.2 100.7 100.5 100 100.5 102.3 104 107.3 113 117.1 121.8 125.4 128.6 131.7 135.4 138.7 141.5 144.1 145.3 146.4 147.1 147.4 147.6 147.7 148.5 148.8 150 152.6 153.9 154.9 153.8 153.2 152.8 152.4 152.3 151.8 150.6 150 149 148.3 148.1 147.2 144.6 142 139.2 136.5 134.2 133.3 132.1 129.9 126.8 123.6 122.4 119.5 117.2 114.7 113.2 112.1 110.1 108.7 106.8 104.9 103.1 101.2 99.9 98.3 96.7 95 93.6 92.1 89.7 87 75.4 58.8 55.6 63.4 68.4 70.1 74.7 76.5 74.9 72.3 71.3 71.8 72.7 73.8 72.4 72.3 69.5 65.2 61.8 61.2 59.3 58.9 59.6 61.7 60.9 58.9 56.8 53.7 51.3
249 245.9 243 240.3 237.3 234 230.6 227.1 224.4 220.1 215.8 212.2 209.7 205.4 201.3 197 192.1 186.1 180.8 175.3 169.6 164.8 161.4 152.6 151.6 154.1 153.8 151.9 151.1 149.2 146.9 142.2 143.1 141.2 141.1 136.6 132 126.3 123.6 122.4 120.9 119.3 118.5 119.3 120 119.1 117.5 117 117.6 117.7 117.4 115.6 113.8 113.7 114.3 115.5 115.7 114.1 114.2 114.6 112.6 112.9 112.3 111.9 111.9 111.5 111.6 112.5 113.4 113.6 113.3 111.6 111.9 110 109.5 109.4 110.3 110.7 111 111.2 111.6 112 111.8 110.9 110.3 112 112.4 111.6 110.8 110.2 109.5 108.9 108 108.2 107.6 107.3 107 104.8 102.9 103.2 103.9 102.2 101.6 103.3 99.4 98.7 98 101.8 108.2 115.3 121.5 127.2 129.9 133.3 136.7 140.4 143 144.1 145 146.2 146 146.2 146.3 146.4 146.8 148.7 150.5 151.7 152.6 151.9 151.6 151.3 150.9 151.1 151.4 150.6 149.8 148.9 148.3 148.6 147.3 144.8 141.6 139 136.6 135.2 134.1 132.7 128.8 126.1 124.8 122.5 119.7 117.5 115.3 113.7 112.4 109.5 107.9 106.1 104.2 102.3 100.6 99.5 98.1 96.3 94.5 93.1 91.4 84.4 66.3 56.4 55.5 69.8 78.2 82.7 83.1 81.3 80.1 79.1 77.7 76.6 72.2 73.9 74.7 72.3 70.9 69.4 66.6 60.9 63.5 59.6 58.5 56.4 56.2 55.3 54.1 52.7 51.1 49.5
251.3 248.3 245.9 243.2 238.1 234.4 231.4 227.5 224.7 221.7 217 213.5 208.7 204.6 201.5 198 195 190.5 185.5 180.9 176.8 174.1 165.9 158.2 159.5 160.9 160.6 159.1 157.5 156 153.3 150.6 147.2 145.1 144.3 141.9 137.7 132.7 127 124.5 121.7 120 119.1 118.2 119 119.2 118.9 117.4 117 116.9 116.9 116.5 115.2 114.3 114 114.2 114.9 113.5 113 112.8 113.8 113.2 112.9 112.3 112.1 112.9 113.2 113.7 114.5 114.9 115.1 113.5 112.4 111.6 111.9 112.5 114.2 114.7 114.9 115.6 115.6 115 114.3 114.2 113.9 114.4 114.8 114.1 113.7 113.9 113.7 112.6 111.2 109.6 108.3 107.3 106.2 105.6 106 108.2 109.3 109.8 109.8 109.1 108.7 103.9 98.7 97.3 96.8 104.1 112.7 119.9 125.6 129.8 133.3 137.4 140.9 142.6 144 144.7 143.8 144.1 143.5 143.2 143.1 144.7 146.4 148.2 149.6 150 150.1 149.8 149.7 150 150.5 149.7 148.8 148 146.9 146.5 145.2 143.5 141 138.1 135 133.6 132.9 131.2 126.2 125.7 125.1 122.8 119.7 117.1 114.2 112.2 110.7 108.1 106.5 105.1 103.4 101.5 100.2 99.1 97.8 95.9 93.9 91.6 85.4 74.6 57.5 56.2 60.7 83.7 88.5 87.7 85.7 85 83.5 81.8 80.5 78.6 77 72.9 72 70.6 68.4 66.5 64 59.7 58.3 58 57.1 56.2 57.8 54.7 53 51.8 50.5 50.9
247.1 245.5 243.6 241 238.4 236.3 234.2 230.5 226.3 222.3 220 216.6 211.8 208.5 204.6 201.4 198.4 193.9 189.9 184.1 179.9 177 170.4 163.2 163.6 165.7 164.1 163.6 161.5 158.7 156.4 155.7 152.6 149.5 146.3 144.4 141.6 137 134.1 129.3 125 123.6 119.8 118.7 118.1 118.1 118 117 117 117 117 116.2 115.4 114.8 114.2 114.3 113.7 113.8 113.4 114 114.2 113.8 114.1 112.7 113.1 113.8 114.3 114.8 115.5 115.5 114.7 113.5 113.9 113.7 114.1 114.1 116.7 118.2 118.9 118.3 117.1 116.8 116.5 117.1 116.3 116.8 117.2 115.9 114.7 114.6 114.8 114.5 112.9 112.3 110.9 110.5 109.4 108.5 107.1 109.6 111.7 112.6 112.5 111.5 110.9 109.7 107.5 101 97.5 97 104.3 112 118.9 123.3 127.4 130.9 134.6 137.7 138.4 139.6 140.5 140.8 141.1 140.8 141.1 142.3 144.3 145.5 146.8 148 148.2 148.3 148.6 148.9 149.5 149 147.9 147 145.8 144.4 143 141.3 139.2 136.2 133.1 131.7 129.6 128.1 125.9 125.2 123.4 122.3 118.4 114.7 112 110.5 109.1 106.6 104.7 103.7 102.2 100.5 99.7 98.6 97.5 95.4 89.3 82.1 71.1 62.6 57.6 57 71.4 84.9 89.6 88.6 87 85.4 86.8 85.3 81.3 76.4 76.5 72.4 68.3 69.6 66.1 62.5 59.2 56.5 57.6 57.3 58.8 57.1 55.5 58.6 51.8 52.6 55.4 57.1
247.1 244.6 242.8 240.7 238.6 236.6 235.6 232.8 229.5 226.4 222.9 218.8 216.9 213.2 209 206 202.8 198.8 195.7 190 186.1 183.7 177.8 172.4 168.7 170.8 169.8 167.4 165.4 162.8 161.4 159.9 159 156.2 151.3 147.3 144 142.1 139.1 132.5 129.5 127 125.3 121.6 120 118.7 118.2 117 116.7 117.1 115.9 115.8 115.8 115.8 115.8 115.4 114.9 114.9 117 115 114.9 114.7 114.7 114.4 114.8 115.2 115.3 115.4 115.3 114.7 114.4 114.5 115.6 115.2 114.7 115.8 118.2 120.3 121.3 119.7 118.7 118.5 118.1 119.2 119.3 119 118 116.6 116.2 116.3 116.3 116.2 114.7 113.6 112.4 112.5 111.5 111.1 109.4 109.3 110.1 111.6 111.7 112 111.3 110.1 108.6 103.6 99.8 97.3 98.1 104.7 113.6 119 122.6 126.3 130.8 133 135.1 137.2 137.9 138.2 138.4 138.1 138.4 139.4 141.1 142.4 143.7 145.9 147.8 148.7 148.2 148.1 148.5 148 147.5 146 144.6 142.3 140.9 139.2 136.5 133.1 130.3 128.7 127 125.9 126.2 122.4 122.1 120 115.2 112.6 110.1 108.6 107.4 105 103 102.1 100.7 98.4 98.4 95.9 88.9 76.8 70.7 79 81.4 83.2 82.2 77.2 80.5 87.6 90.5 89.9 86.9 87.4 86 82.5 78.9 75.1 71.7 72 64.6 64 62 59.5 62.3 65.7 67.5 67.1 66.5 65 63.1 61.1 60.1 59.1 60.8 62.3
252.2 248.8 247.2 244.9 243.3 241.4 239.2 236.1 231.7 229.9 226 221.6 219.1 216.6 212.8 211.4 208.5 205.6 203.1 200.3 192.9 190.9 186.9 182 176 173.3 174 171.2 169.5 167.6 166.2 164.9 162.6 159.6 157 153.5 147.7 144.9 142.2 140.2 136.2 133.5 132.1 127.9 125.4 123.1 121.8 121.3 120.7 120.2 117.8 117.1 117.3 117.6 117.4 116.9 116.3 117.1 119.1 117.1 116.1 116.3 116 115.3 114.5 114.8 114.8 114.8 115.5 115.8 116.8 117.8 117.6 118.6 118.6 119.5 120.1 122 121.7 121 120.3 120.1 119.7 119.4 120.3 120.5 120 120 119.1 119.3 119 119.7 118.4 115.1 114 113.6 113.3 112.9 110.8 110.3 110.8 110.9 111 111.6 110.6 109.2 108.8 107.8 105.9 99.4 96.9 98.8 107.5 112.3 116.6 121 124.5 128.4 132.4 135.3 135.9 135.8 135.5 134.7 134.5 135.9 137 138.6 140.2 143.2 145.2 145.8 145.2 146 146.2 146.1 145.6 144.3 141.2 140 139 136.7 132.6 130.3 128.2 125.6 124.1 124.1 122.8 121.6 119.5 116.2 111.7 109.9 108.3 107 105.5 100.3 94 92.6 90.1 84.2 77.9 69 74.6 81.8 88.5 90 90.8 93.9 93.1 84.9 81.8 90 91.2 89.4 85.4 83.7 80.5 77.3 71.7 69.4 67 65.4 63.1 64.3 66.3 67.6 69.2 72.8 74.5 74.3 70.6 70.2 68.4 64.8 64.2 65.1 67.7 67.3
256.1 253.2 251.2 248.2 246.1 242.3 239.2 237.1 235.1 233 231 228.3 225.3 222.8 219.8 215.6 213.6 210.9 208.4 204.5 200.3 201.5 198.8 193.9 187.3 180.9 178.5 178.3 176.2 173.2 172.1 168.8 165.5 162.9 160.8 157.9 153.9 149 145.2 143.8 142.8 140.7 137.8 134.3 130.6 128 127 125.1 123.2 123 120.6 119.4 118.8 119.7 120.1 119.3 118.8 120.4 120.8 118.8 118.5 117.9 117.2 116.3 115.1 114.5 114.4 115.5 116.7 117.5 120 121.7 122.3 124.7 123.3 124.5 125.1 124.5 122.9 123.5 122.1 121.6 121.3 121.1 122.1 122.6 123.5 122.9 122 121.1 120.3 121.2 120.8 119.2 118.2 116.1 115.4 114.7 111.9 111.8 112 111.7 111.8 111.4 111.6 112.1 112 111 109.1 105.8 97 96.3 101.6 108.2 112.6 116.8 120.8 124.8 128 129.6 132.3 132.8 132.7 132.8 132.4 133.8 133.6 135.1 137.2 139.6 142.2 142.6 142.2 141.5 142.9 142.8 141.5 141.3 139.8 136.4 133.9 131.1 128.6 126 123.8 122.3 121.2 120.6 120.3 117.6 114.2 111.2 108.2 106.4 105.1 101.1 86.4 77.5 80 80.7 78.6 76.4 79.2 85.5 91.6 95.9 97.7 98 96.3 95.9 94.5 90.8 81.4 79.7 83.3 85 81.6 78 74.8 70 67 67.7 68.4 71.5 72.3 73.3 73.8 73.8 75.4 74 75.5 74.8 72.7 70.4 68 68.4 68.9 69.5 69.6 68.7
259.3 256.6 255.5 252.9 249.6 243.9 241.2 239 236.2 234.6 231.5 229.8 229 226.7 224.2 222.2 218.7 214.7 211.5 209 206.9 206 203.2 199.8 195.4 191.6 187 182.7 180.6 178.9 175.9 172.8 170.4 166.3 164.2 161.4 159.2 156.4 150.4 146.6 145.5 144.3 142.7 140.4 136.8 133.7 132.4 130.6 129.3 125.9 123.7 123.4 121.7 121.4 121.4 121.9 122.5 121.3 121.6 121.5 120.8 119.9 118.9 118.1 117 115.9 117.5 117.7 117.9 121.3 123.4 124 125.3 126.7 126.6 127.8 126.3 125.2 124.9 126 125.1 125.1 125.3 125.3 125.9 125.8 125.8 125.2 123.7 122.4 122.5 123.6 123.7 123 121.3 119.2 118.5 115.4 115 114 112.9 112.8 112.5 112.3 112.6 113.9 113.8 113.5 111.9 109.1 101.9 96.2 98.1 107.9 112.3 115.2 118.6 121.7 124.3 126.4 128.7 129.4 130.1 130.8 131.6 131.7 131.1 131.3 133.3 135 136.6 138.7 139.6 140.3 140.9 141 139.1 136.7 134.2 132 130.1 128.1 125.2 123.1 121.1 119 117.6 115.7 113.5 110.8 108.5 105.6 102.2 100.2 94.5 78.6 81.8 88.8 93 96.1 97.3 98.5 98 95.1 96.3 98.1 99 99.1 97.8 95.4 93.2 90.8 85.6 76.9 76.7 76.7 76.7 76.7 73.3 74.3 75.4 76.1 76.9 79 80.3 82 83.1 82 80.3 81.2 78.4 77.1 76.5 76.1 74.6 75 75.5 77 76.3 75.5
264.9 262.6 261.4 258.4 253.3 249.2 249.6 244.8 241.8 240.3 239.2 239 234.4 233 231.1 229.5 226.1 223.3 219.1 216 214.1 213.6 210.7 208.6 204 198.2 192.2 186.4 185.6 183.1 180.2 177.5 175.2 172.1 168.5 167 164 161.4 157.1 152.6 150.7 147.5 144.7 143.4 143.3 141 138.6 135.2 131.7 130.3 129.5 128 127 126.1 127.1 124.8 123.6 124.5 124 124.2 121.8 121.9 125.2 124.1 121.3 120.2 120.4 121.9 123.1 126 125.4 126.5 128.6 131.5 131 130.6 130.3 129.6 128.9 128.6 128.6 128.5 128.6 128 128.1 128 127.7 126.6 125.3 124.4 124.9 125.9 126.2 125.8 124.3 122.3 118.8 117 117.9 116.9 115.9 114.9 113.9 113.4 113.8 114.1 114.4 114.6 112.7 110.2 105.7 96.4 98.8 108.9 112.8 114.6 116.7 118.5 120.9 122.7 124.5 126.1 126.9 127.7 128.6 127.4 128.6 129 128.9 130.5 132.1 133.9 135.5 135.1 134.8 134.8 135.1 132 129.4 127.5 125.6 124.1 121.9 119.1 118.2 115.2 113.3 111.4 108.3 106.3 103.5 99.3 95.1 85.5 77.6 86.4 94.6 100.3 101.8 102.3 101.4 99.4 96.8 96 100 100.6 100.4 100.4 97.8 95 92.5 90.4 88 83.7 78.8 79.8 80.5 79.6 80.8 82.6 83.8 84.5 85.3 86.6 88.3 89.5 90.2 89.9 85.1 86.6 86.1 85.6 82.4 83.1 83.3 82.4 82 81.2 79.7 78.1
273.3 271 269.2 268.1 264.8 261.1 258.2 255.7 252.1 250.9 248.7 246.4 244.1 243.4 239.8 237.9 235.2 232.1 230 226.6 226.4 225 222.6 220 215 207.1 198 192.4 192.9 190.1 186.1 182.3 179.6 177.1 175.9 174.7 171.4 168.3 164 158.6 154.4 151.5 148.6 148.2 147.5 146.7 145.6 142.1 138.9 136.1 135.9 133.9 131.6 129.5 129 128.8 129.7 128.6 127.1 126.2 125.4 127.1 130.6 127.4 125.4 124.6 124.4 125.1 127.5 127.2 128.1 129.6 131.5 132.4 132.3 132.7 132 131.5 130.9 130 130.9 131 130.5 131.6 130.2 129.6 129 128.4 127.8 127.2 126.7 127.9 127.9 126.4 124.8 121.8 121.7 120.5 119.3 117.9 117.9 116.9 115.9 115.3 115.7 116 116.1 115.6 114.3 111.4 107.2 96.8 96.1 105.3 112.5 113.3 114.3 115.5 117.5 119.1 120.1 122.3 124 125 125.9 125.5 125 126.2 125.6 126.7 128.8 130.4 131.1 131.6 131.5 131.4 129.5 126.2 126.1 123.9 121.3 119.9 119.3 117.2 114.8 112.4 109.3 107.3 104 100.7 97 92.3 84.5 79.5 91.9 100 104 104 102.1 101.1 98.9 97.4 97.4 100.3 99.8 101.4 101 98.3 96.5 94.9 94.9 94.1 93.8 89.8 89.1 88.7 88.9 89.3 89.1 89.4 90.7 92.4 93.3 92.9 94.5 95.2 94.2 93.5 89.7 84.2 86.3 87.9 86.9 86 84.5 83.3 81.4 79.7 78 76
281.3 279.2 276.1 274.8 272.1 267.8 264.5 263.1 262.5 261.5 259.4 256.7 254.6 252.4 250.2 247.7 245.6 243.4 240.5 238 236.2 233.1 231.5 228.1 224.3 217.6 208.3 201.2 199.1 197.7 193.8 190.7 187.3 184.6 180.6 178 175.9 174.2 171.4 168.1 161.7 157.3 152.2 150.4 150 149.6 148.8 147.4 145.7 142.9 139.1 137.6 138.1 135.5 133.1 133.5 134.8 133.4 130.1 128.8 128.6 130.5 132 129.5 128.8 127.9 127.9 128.1 130.2 129.6 131.5 132 133.4 133.7 134 134.3 134.3 134.8 135.2 133.8 132.4 132.1 133.2 136.2 134.6 133.6 132.6 131.5 130.7 130.5 129.1 129.1 126.6 124.7 122.6 120.8 122.9 121.9 120.6 119.3 118 117.8 117.8 117.3 117.6 117.9 117.8 116.4 114.6 111.4 107.5 98.1 96.2 97.9 112.2 113.8 113 112.6 114.4 115.7 116 117.8 120.2 122.3 123.1 122.7 122.2 121.4 122.9 124.4 125.3 125.3 126 125.8 125.2 125.1 123.6 123.3 121.4 118.8 117.1 116.2 117 116.6 111.5 111.9 108.1 103.9 96.6 90.4 88.1 81.5 85.4 93.9 103.5 105.8 105.6 103.8 101.8 100.1 100.6 101.4 103 103.1 102.4 101.6 100.2 101.5 100.7 100.6 100.1 98.7 98.5 97.7 96.6 95.5 95.3 95 95 95.8 97.2 98 97.3 96.5 97.1 96.5 95.6 94.8 93.7 91.5 86.6 83.1 85.5 84 81.5 80.1 77.9 75.8 73.9 71.1
293.3 288.5 284.5 281.3 279 275.1 272.2 268.8 268.5 267.1 265.3 261.9 259.7 258.6 255.4 253.1 251.4 249.7 246.6 244.4 243.3 240.4 235.3 231.2 226.9 222 214.7 213.1 206.6 202.7 200.1 197.7 192.6 191 188.3 185.5 182.9 179.7 177.3 175.2 172.4 167.3 160.6 156 155.7 152.6 151.8 150.5 149.9 148.7 144.7 142.3 140.2 140.3 140 137.6 137 134.5 133.4 132.6 132.2 130.9 131.4 133 131.4 130.8 130.7 132.3 132.8 131.8 133.9 135.8 135.4 135.9 136.4 137.3 138.9 139.9 139.3 137.8 136.1 134.9 134.6 137.4 138 137.3 136.1 134.9 133.7 132.2 130.3 128.3 125.8 124.2 123.9 124.6 123.8 122.9 122 120.8 119.4 118.1 116.8 117.5 116.8 116.5 116.1 114.6 113 109.4 107.2 105.3 96.1 96.1 107.8 114.5 114.7 113.4 111.9 112.5 113 114.4 116.8 118.8 120.4 119 117.7 118.5 119.4 120 120.4 120.2 121.7 121.8 120.6 120.3 118.3 117.8 115.7 113.7 112.6 112.2 112.7 109.9 105.3 101.1 96.4 90.9 85.3 85.9 87.2 87.7 95.3 101.9 105 105 104.9 103.1 104.1 105.3 106.1 106.1 106 105.7 105.3 105 104.7 105 104.8 104.2 103 102 101.3 100.5 99.3 98.1 96.4 94.4 94.8 95.9 97.4 99 98.6 98.1 97.3 96.1 94.9 93.7 92.3 90.5 86.5 81.4 80.9 79.5 77.3 75 73.3 72 69 66.8
298.5 296.1 291.9 287.5 284.4 282.5 280.4 277.1 274.8 272.9 272.5 269.6 268.6 266.1 264 261.9 260.3 258.8 256 254.6 251.9 249.1 244.5 239.3 234 229.2 226.1 224.2 218 211.3 205 202.3 199.4 197.4 194.1 192.1 188.9 186.3 181.9 179 176.9 174.8 170.6 165.4 161.6 157.7 155.3 154 153.3 152.6 150.2 147.3 143.8 143.2 141.7 138.7 137.6 137.1 135.7 134 133.1 133 134.4 135.2 134.9 134.8 134.8 134.5 135.2 135.1 135.1 138.4 137.7 138.3 139.1 140.6 141.6 142.1 142 140.8 138.3 138.4 140.7 142.1 141.3 139 137.7 134.7 133.5 132.7 131.3 129.8 128.3 126.5 127.3 126.5 125.3 124 123.1 122.2 120.9 119.5 118.2 117.2 116.4 115.5 114.6 113 112.7 111.4 110 108.6 103.6 95.3 98.7 108.1 114.6 115.5 114.5 112.2 110.9 112.9 114.1 116.5 117.9 116.9 116.6 115.6 115.2 114.6 116.1 116.1 115.4 115.8 116.5 116.1 113.5 112.9 111.6 109.9 107.9 104.9 99.5 94.9 91.5 87.9 85.4 84.8 87.8 89.7 93.2 95.7 101.7 105.6 107.8 108.2 105.4 106 109.4 110.5 109.1 107.7 107.4 107.4 107.4 107.1 106.7 106.5 106.2 105.3 105.1 103.3 102.8 101.7 100.3 98.8 97 95.1 94.3 94.9 96 96.9 97.9 97.5 96.2 95.6 93.5 92.2 91.1 89 85.4 80.9 77 75.4 73.1 70.9 69.8 68.5 66.2 65.2
303.8 301.4 296.7 294 290.5 289.1 285 282.4 280.7 278.5 277.8 275.7 275.3 273.1 271.9 270.7 268.8 267.1 263.8 263.4 262.4 259.9 256.4 250.2 243.7 240.4 235.6 228.5 225.8 221.8 216.3 210.2 205.7 203 200.4 199.7 193 190.2 187.4 184.2 181.5 179.1 176.9 174.8 170.7 166.9 162.9 159.4 158.4 157.4 155.5 152 148.4 146.4 143.1 140.3 139.9 139.9 137.3 135.6 134.8 136.2 137.2 137.1 138.4 138.2 138.1 137.8 137.8 137.4 139.4 139.9 139.5 139.7 141.2 141.9 142.7 142.6 141.5 141.1 140.5 144.8 144.7 145.1 144.1 140.9 140.3 138.5 137.4 135.4 134.5 132.5 130.6 129.7 130.2 128.9 128.2 126.7 124.9 123.2 122.3 121 119.8 118.6 117.5 116.1 117 116.3 115.9 113 111 109.9 108 101.4 95 95.6 97.5 106.9 113.3 112.7 111.9 110.8 110.8 113.5 116.7 116.6 115.2 114.3 113.3 111.4 110.9 111.9 111.6 110.4 111.5 109.7 108.2 109.4 107.6 104.7 99.3 93.6 88.1 86.7 87.8 89.9 92.3 95.8 96.8 97.7 102.5 103.8 105.4 107.2 109.4 109.4 107.4 111.9 113.4 112.9 111.5 110.2 109.2 108.8 108.4 108.1 108.1 107.6 106.4 105.4 104.8 103.8 103.4 102.3 100.7 98.9 97.2 95.6 94.9 93 93.4 94.1 96.6 96.4 95.8 95.3 93.2 90.8 89.3 87.4 83.9 78.5 75.2 72.6 71 69.7 68.5 67.3 66 64.9
309.6 305 301.2 299.7 297.7 294.6 292.3 289.7 289.1 287.4 285.9 283.7 282 279.6 277.4 275.8 273.9 272.8 271.6 270.2 268.6 265.7 262.6 256.7 252.8 248.1 242.1 235.9 234.2 230.3 225.2 221.2 218.3 214 208.2 202.8 198.6 196 195.4 192.9 190.8 188.1 184.4 182.1 179.6 174.8 170.6 166.3 164.5 163 161 158.5 155.3 152.1 148.1 144.2 143.6 145.3 144 144.2 144 143.1 141.6 140 141.4 141.3 141.1 140.7 141.5 142.3 143.2 144.1 143.6 142.4 142.7 143 143.8 143.9 143 142.5 143.8 146.9 147 146.8 144.6 143.1 143.8 142.3 139.4 139.8 138.5 136.2 134.1 133.3 132.8 131.3 131 129.8 128 126.2 124.4 122.6 121.4 120.1 118.9 117.3 117.1 117.2 116.7 114.8 113.8 110.3 109.4 107.7 104.9 95.1 95.5 95.7 100.8 103 104.4 104.8 106.3 114.7 115.4 114.7 113.4 112 110.4 108.7 107.2 104.8 104.5 103.3 102.4 101.2 97.5 98.1 95.1 91.4 88.1 86.9 88.6 89.7 94 100.8 104.6 102 104.4 105.6 108.2 109.4 108.4 110.5 111.1 109.3 110.8 115 115.7 114.9 113.9 112.9 111.9 111.4 110.9 110.3 109.9 108.4 106.9 106 105.1 104.1 103.1 102.1 101 99.3 97.7 96.7 96.1 96.4 94.8 92.9 94.1 96 96 95.1 92.9 90.6 88.2 85.8 81.4 76.4 74.5 72.3 71.3 69.6 68.2 67.4 66.7 66.1
312.4 309.9 306.5 303.2 302.8 301.3 298.4 297 294.9 292.8 291.9 290.3 288.3 286.5 285 282.7 280.9 278.7 277.5 275.6 273.6 270.7 267.3 264.3 261.2 255.9 250.2 245.4 240.8 236.4 232.6 229.7 226.3 222.1 218.6 214.2 209 204.9 201.4 199.7 198.4 195.8 193.3 190.3 188.1 184.4 179.8 175.4 172.5 169.2 166.5 164 160.7 158.8 155.7 151.3 150.6 150.1 148.4 148.8 148.1 146.8 145.4 144.5 144.7 144.4 145.1 145.2 146.4 147.9 148.2 147.4 145.8 145.5 145.5 144.5 144.9 145 144.7 145.5 147.1 148 146.9 145.3 146.3 147.1 146.7 145.5 142 140.4 139.1 139.3 137.5 136.5 136 133.9 133.6 132 130.8 129 126.9 124.6 123.6 122.6 121.6 119.9 118.7 118.9 117.3 116.6 115.1 113 108.4 107.8 106.4 103.8 95.7 94.4 94.6 94.6 95.2 93.9 95.2 101.1 104.3 107.3 107.9 106.8 105.6 104 100.1 97.5 96 94.3 93.4 93.1 88.9 87.5 88.1 89.3 89.5 89.7 91 94.4 102 106.2 106.5 106.6 109 110.6 111.7 113.6 111.8 114.8 114.1 113.4 112.5 116 116.4 115.2 115.3 115.3 114.6 114 113.4 112.5 111.3 107.5 106.6 106.1 105 104 103.8 103.6 101.6 99.9 98.5 97.8 97.2 97 96.9 96 92.5 92.3 96.2 94.8 92.7 90.4 88.1 84.4 79.2 75.1 72.5 70.8 68.7 68.5 68.4 68 67.9 69.3
317.4 313.7 311.2 309 306.7 304.4 302.4 300.6 299.4 297.9 296.7 294.6 292.9 291.4 289.7 287.3 284.4 283.3 281.3 279.3 275.9 274.2 271.8 269 266 261.5 255.5 253.1 249.2 245.4 240.6 236.7 233.4 228.9 225 220.6 218.9 215.5 213.1 208.9 206.5 204.6 201.9 198.5 196.5 192.4 188.6 184.8 180.7 176.8 173.9 170 166.9 164.4 161.9 159.1 156.4 153.9 152.5 152 151.9 150.5 149.1 148.5 148.4 148.3 149.4 149.7 151.2 150.5 150.1 149.7 148.9 147.8 148.4 147.8 147.2 148.1 148.9 149 149.3 149 147.8 147.9 149.2 149.2 148.7 147.2 144.6 141.8 141.9 142.6 140.9 139 137.9 136.8 135.7 134.8 133.8 131 129.1 126.7 125.6 124.6 123.7 123 120.5 119.9 117.9 115.5 114 115.4 113.2 111.2 109.5 104.6 105 102.7 99 99.6 95.9 94.4 93.6 92.6 93.5 95.2 94.7 95.1 93.1 91.7 91.5 91.1 90.7 89.7 89.5 88.7 89.2 90.4 90 91.3 91.9 91.6 94.7 101.9 106.2 107.4 108.8 111.1 113.4 114.5 115.7 116.4 116.5 117 116.8 115.3 113 116.1 115.8 116.1 115.7 115.9 116 115.7 114.5 113.4 111.4 110.1 109.3 109.3 108.5 107 106.2 104.4 103.1 101.6 99.4 98.9 98.5 98.5 98.4 98.2 95.6 90.8 91 94.5 92.6 90.4 88.1 84.1 78.7 73.2 71.6 70.6 72 72.5 73.8 74.9 74.3 72.6
321 318.3 316.2 314.3 312.2 309.5 306.6 304.4 303 301.9 300.1 298.8 296.2 294.4 292.9 289.7 287.4 285.7 284.4 282.6 280.9 278.5 276.1 273.4 269 265.6 262.3 258.6 254.2 248.9 247.1 243.3 239.1 234.4 230.6 227.4 226.3 224.3 222.6 219.3 217.1 213.9 210.4 206.4 203.3 200.7 196.6 192.3 188.1 184 180.9 176.2 172.7 169.5 167.5 163.9 162.7 160.2 157.9 156.3 155.7 154.2 152.7 152.4 152.4 152.3 153.1 153.7 153.1 152.4 151.7 154.1 152.4 150.3 150.8 150.6 149.8 151.4 150.8 149.7 149.4 149.6 149.3 149.1 149.3 149.4 149.1 147.7 146.2 144 144.3 144.1 142.3 140.8 139.9 138.7 137.4 136 133.9 132.2 131 128.9 127.6 126.7 125.9 123.9 121.6 120 119 116.6 113.4 115.3 115 113.8 112.6 111.3 110.2 109.3 108.6 107 105.6 102.6 95.4 95.7 93.3 92 91.8 91.8 91.4 90.9 91 90.7 89.9 89.7 93.2 97 98.7 97.8 99.6 99.8 96.4 97.1 102.7 107.3 109.2 109.9 112.4 114.8 116.7 117.9 118.1 117.7 119.1 119.4 119 114.9 116.4 115.9 116.6 118.9 116.7 116.9 117.1 117.1 115.7 114.5 113.6 112.6 112.2 111.7 110 108.5 107.4 105.7 104 102.4 100.7 98.5 99.1 99.4 99.2 99 99.1 97.5 93.5 88.9 91.5 90.8 88.3 84.5 79.6 74.2 71.4 73.8 77 79.1 79.1 80.5 81.5 80.3
323.9 322.1 321.2 319.6 317.8 316.4 314 311 308.6 306.3 303.4 302.6 299.5 297.5 295.5 293.1 291 290.3 288.6 286.2 284.5 282.5 279.6 275.9 273.8 270.8 267.1 261.7 258.5 254.2 253.9 249.9 245.6 242.4 239.3 237.3 233.3 232.1 230.1 227.4 225 221.8 218 213.8 209.7 206.5 202.6 198.5 194.6 190.3 186.6 182.1 177.9 175.6 171.7 167.8 167.7 166.9 164.3 161.3 159.1 157.6 156.5 156.2 156.3 156.4 156.7 156.5 155.4 155 154.4 155.4 153.9 153.7 153.3 152.1 151.2 151.3 150.9 150 150 150.1 149.8 149.6 149.7 149.3 149 148.7 147.3 146.3 145.8 144.5 143.2 142.1 141.3 140.3 138.9 137.4 137.1 134.4 132.7 130.9 129.7 128.4 126.6 123.5 122.1 119.8 117.9 116.2 115.5 114.4 115.2 114.9 113.8 111.7 112.1 112.4 110.2 108.6 109.3 107.4 105.2 104.7 102.8 104 104.3 104.1 104.1 103.3 102.6 101 96.7 94.7 99.1 101.4 101.8 102.2 101.4 99.9 102.6 105.4 108.6 110.2 111.4 113 115.9 118.4 120 120.7 120.7 120.4 121.6 121.2 117.1 118.8 120.5 118 117.1 118.3 117.7 117.9 117.2 116.4 115.1 113.6 112.5 111.4 111.4 110.1 109.2 107.3 106.7 105.1 103.4 101.9 100.8 99.2 97.1 97.8 98.6 98.9 98.7 98.3 97.4 95.8 89.2 88.7 88 84.1 80.4 75.1 73.7 78.3 80.8 82 82.7 82.2 82.2 81.2
328.4 325.3 323.9 322.2 321.4 319.5 317.6 315.3 313.7 311.2 308.7 306.7 302.7 300.8 298.8 298.4 297.4 295.8 293.5 290.9 288.7 286.5 284.5 280.2 278.9 275.2 270.7 266.1 263.7 260.5 262.5 258.8 254.3 250.8 248 244.7 242.1 239.7 236.3 233.1 231.3 227.9 224.2 219.6 215.2 211.5 207.8 204.2 199.4 194.9 188.9 188.7 184.2 180.5 176.3 173.5 172.3 169.9 168.1 165.2 162.6 161.4 160.2 159.9 160.1 160.3 160.4 160 159.2 157.2 158.1 156.9 155.6 155.8 155.8 155.2 154.4 152.1 150.8 150.9 150.9 150.8 150.5 150.1 149.8 149.5 149.2 148.9 148.5 147.6 146.5 147.1 145.5 143.6 142.8 142 141.3 140.9 139 137.5 136 134.2 131.8 128.2 124.9 122.8 121.6 121.7 120.6 119.6 117.9 116.5 115.9 115.3 113.9 112.7 113.6 112.3 109.7 111 111.6 110.7 113.6 113.4 111.5 111.7 111.7 110 111.3 109.7 106.7 102.2 98.6 97.2 100.8 103.9 103 101.6 101.2 104.9 108.6 110.7 112.3 114 115.7 117.2 119.6 121.9 123.3 122.8 122.4 121.3 122.7 122.6 123.9 123.4 120.5 118.6 118.5 118.5 118.1 117.2 116.4 115.5 113.9 112.4 111.2 110.1 108.7 107.2 106.7 106.8 105.8 104.4 102.7 101.4 99.8 98.5 96.6 96.4 96.2 97.7 97.8 97.5 96.4 95.6 92.9 85.5 85 82.5 78.5 74.2 76.5 82.4 83 83.8 82.7 81.7 81.1 79.2
330 326.8 325.8 326.1 324.7 323.2 321.5 318.6 317.2 316 314.1 311.9 308.6 306.8 305.9 304.4 302.6 300.6 298.3 296 293.6 291.1 288.2 285.6 283.1 279.9 275.8 272.2 268.2 267.3 266 264 261.2 257.8 254.1 251.2 248.8 246.6 242.6 239 236 232.7 229.2 224.8 221.5 217.9 213.7 209.4 204.6 199.3 196.6 193.6 189.9 185.2 180.2 178.6 175.6 174.9 172.2 168.6 166.6 165.1 164 163.7 163.8 163.9 163.5 162.6 161.7 159.2 160.3 159.6 159 158.9 159.4 158.8 157 154.9 153.1 152.6 152.6 153.5 153.6 152.3 151.9 151.6 151.3 150.9 149.9 149.4 150.1 149 147.6 148.4 147.5 145.8 144.4 143.6 142.4 140.9 139.6 137.2 134.4 130.3 126.2 123.7 124.4 125.2 123 122 120.4 118.9 117.1 116.3 114.9 114.3 114.1 109.7 113.2 114.2 115.7 115.6 113.1 115.2 114.1 113.5 112.7 112.5 111.1 109.6 107.7 104.4 101.4 102.2 103.7 105.3 106 109.4 111.8 112.3 114.1 115.2 116.8 118.5 121.3 123.4 124.3 125.3 125.2 125 124.8 123.4 126.7 126 123.8 122.2 120.7 119.3 118.9 118.4 117.4 116.4 115.5 114.4 112.8 111.3 110.5 110.1 110 108.9 107.3 107.2 105 103.5 102.1 99.7 98.1 97 95.6 95 94.1 95.9 96.3 95.9 95.4 93.2 90.3 86.7 81 79.2 76.3 75.8 77.7 81.4 83.9 84.6 83.8 82.3 80 78.4
329.9 329.7 328.8 328.2 326.5 325.1 323.8 322.3 320.4 319.2 316.7 313.9 313.3 312.1 310.5 308.9 306.5 304 301.6 298.7 296.3 293.8 291.5 288.9 286 283.1 281 277.7 274.1 273.4 272.2 271 268.1 264.8 261.7 258.3 255.8 253.6 249.5 246.3 242 238.1 234.3 230.7 227.6 222.8 217.9 213.5 208.4 202.4 201.7 198.7 195 190.5 185.6 183.9 181.1 178.7 175.4 172.5 170.6 169.2 167.7 167.4 167.4 167.4 167.2 166 163.2 162.1 163.1 163 161.8 162.6 162.2 161.2 159.5 157.7 155.4 155.6 155.7 156 156.5 155.2 154.6 153.7 153.3 152.8 152.6 152.2 152 152.5 153.2 152.3 151 149 147.4 146.3 145.1 143.7 142.7 140 136.7 132.3 128 125.6 125.1 126.3 123.9 122.4 121.1 120 118.2 117.1 116.2 116.1 113.2 114 116.3 117.6 117.9 118.6 114.3 117.2 116.3 115.2 114.2 113.1 112.2 111.2 109.8 108.8 107.4 110.1 110.4 113.2 115.3 119.5 120 120 119.6 119.9 121.5 122.9 124.6 126.7 126.8 127.2 128.1 128.4 127 124.5 129.1 124.8 122.8 121.8 120.9 119.7 118.6 117.8 116.8 115.7 114.6 113.3 111.8 111.5 111.3 110.7 109.7 108.7 106.9 106.5 105 104.4 101 98.9 97.8 95.5 94 92.8 92.2 93 93.8 93.7 93.4 90.9 87.9 84.6 79.5 77.1 76.7 76.5 77.5 80.8 83.1 83.5 84.3 83.3 79.7 77.4
332.4 332.8 332 330.3 328.3 326.8 325.6 324.9 323.8 322.3 318.5 317.1 318.2 316.1 313.9 311.9 309.1 306.2 303.3 300.4 297.9 295.8 293.8 291.6 289 286.7 285.4 282.3 280.5 278.1 278.1 276.4 273.9 271.7 268.7 266.4 263.9 259.8 257.9 252.6 249.4 244.9 240.6 236.3 233.2 228.2 223.1 217.8 213.3 210.9 206.9 204.1 199.6 196 191.7 188.8 185 181.7 178.8 176.6 174.9 173.4 172 170.9 170.9 171 171.4 170.3 169.4 168.9 167.4 167.4 166.2 165.8 165.3 164.7 164.5 161.6 159.6 158.6 158.9 159.1 158.7 157.2 156.4 156.3 157.3 157.1 156.1 154.9 154.4 154.6 154.2 153.6 152.5 150.9 148.9 147 145.3 143.7 142.1 140.8 137.3 133.9 131.9 128.8 126.3 126.6 125.3 122.3 121.5 120.8 119.3 118.4 118.5 118 117 119.9 119.3 120.4 119.7 121.8 118.2 120.9 120.7 119 117.4 116.4 115.6 113.7 113 113.1 114.4 116.4 116.7 119.5 123 124.7 124.8 124.6 125 125.1 126.2 127.6 128.5 128.2 128.8 127.8 128.5 129.9 127.6 128.9 126.9 124.7 123.9 123 122 121.3 120.5 118.3 116 114.9 113.7 112.7 111.5 112.2 112.3 112.2 110.7 108.9 107.2 105.8 104.3 102.2 100.6 97.6 96.4 94.8 92.3 91.5 90.3 89.2 89.5 91 90.8 89.2 86.4 82.3 79.6 77.7 77.7 77.9 78.4 82.3 85.6 86.7 86.3 83.7 79.4 74.8
336 335.2 334.2 332.5 330.4 328.6 327 326.6 326.2 324.7 321.8 321.1 319.9 318.8 316.7 314.4 311.7 308.8 305.9 301.8 301 299.1 296.6 294.5 292.2 290.5 289.1 287.1 285.1 283.4 283.8 283.7 281 278.2 275.3 271 269.4 265.5 263.8 259.2 253.9 249.5 245.8 241.6 237.9 233.1 227.8 221.1 218.9 215.4 212.3 209.5 204.5 201.9 198.2 194.3 191.4 188.1 183.6 181.1 179.3 177.9 176.8 175.5 174.3 174.5 174.1 173.5 173.4 171.8 171.9 170.5 170.2 169.7 168.9 168.3 167.3 165.8 164.7 163.8 163 162.2 162.1 160.4 160 160.9 161.5 161.1 160.2 158.9 157.6 156.7 156.2 155.5 154 152.3 149.6 148.4 147.4 144.8 142.8 142 141.3 138.8 136.3 132.7 129.5 127.7 127.2 124.5 123.4 121.8 121.7 123.3 124.2 121 121.1 123 123 123.7 124.4 124.1 120.5 124.8 124.7 122.9 121.2 120.4 119.8 119.7 119.9 120.3 120.5 122.9 123.7 126.8 129.4 129.7 129.4 129.1 129.5 130 130.3 130.9 131.2 130.8 130.4 130.5 132.2 132.7 129.4 130.2 128.1 127.1 125.6 125.3 124.1 122.4 120.2 118.3 116.2 114.6 113 112.1 111.9 112.2 112.6 112.6 112.2 110.5 108.7 106.6 104.3 101.3 97.9 96 94.6 92.7 92.1 90.9 88.8 88.1 89.3 85.1 84.1 86.8 84.5 80.2 78.9 79.2 79.8 80.3 80.8 80.2 83 84.9 83.9 79.4 74.2 71.7
338.3 337.3 336.4 334.9 332.8 332.5 331 330 328.6 326.7 324.5 322.9 321.4 320.2 319.1 316.7 313.9 310.6 307.7 305 304.2 301.2 299.3 298 295.9 294.3 292.6 290.8 289.2 288.6 288.6 288.3 285.9 283.5 280.8 277 274.2 274 270.3 265.7 261 255.1 250.7 245.3 242.5 237.4 232.6 227.9 223.1 220.2 216.7 214.8 212 207.5 203.2 199.3 197.2 193.3 189.2 186.2 183.8 182.7 181.6 180.3 179 177.8 177.9 177.1 175.9 174.6 176 173.7 175.2 174.1 172.8 171.9 171.2 169.5 168.4 167.7 167 166.3 165.5 163.9 166.1 165.2 164.4 163.7 163 162.2 160.9 159.9 158.8 157.1 155.2 154 152.9 151.3 150.3 147 145.4 144.8 144.2 142.6 139.7 136.1 132.3 130.5 129.9 129.2 126.6 125.6 125.9 128.2 126.6 123.5 123.7 126.5 127.7 128.3 127.5 126.9 124.7 126.4 127 126.7 125.6 124.2 124.6 125.3 126 128 128.5 131.1 131.9 131.5 132.2 132.9 133.2 133.6 133.3 132.9 133 134.1 134 133.9 133.9 133.9 134.3 131.2 134.7 134.1 130.3 129 128.3 126.7 125.4 123.4 120.9 119.1 117.8 115.7 113.7 112.7 113 112.7 112.5 112.1 112.5 112.1 110.1 106.5 103 100.6 97.3 94.5 94.2 94.1 93.9 93.5 91.8 90.5 88.8 88.9 88.4 84.6 81.3 80.7 81.3 83.6 84.3 84.8 85.4 84.5 81.9 80 77.7 73.2 76.3 81.2
339.5 339 338.4 337.3 336.7 334.6 334 332.4 331.6 330.1 327.7 325.4 323.2 321.7 320.4 317.5 313.5 311.4 309.4 307.7 305.9 304 302.6 301.3 299.6 297.9 296.2 295.3 295.9 296 295 293.3 291.1 288.6 285.3 283.2 280.6 278.9 275.5 271.1 266.4 261.4 256 251 246.9 241.4 236.5 231.7 228.9 225.6 221.4 220.3 217.9 214 209.7 205.7 202.8 199.2 195.2 191.6 189.3 187.5 186.4 185.1 183.7 181.8 182.1 180.7 179.5 178.4 178.5 176.7 177.8 177 176 175.6 174.8 172.6 172 171.1 171 170.3 169.2 169.3 168.8 168.1 167.4 166.6 165.7 164.8 164.1 162.9 161.4 159.6 157.3 156.2 155.5 153.4 151.3 150.4 148.8 147.1 146.1 144.3 141.5 138.7 135.9 134 133.5 132.9 128.9 130.7 131.5 130.7 129.3 127.7 123.8 127 129.2 130.8 130.4 132.4 127 128.4 130 129.6 130 129.7 129.9 132.1 131.3 133.9 134.5 134.6 135 135 134.9 135 135.4 135.5 135.9 135.6 135.7 136.4 137.9 137.9 137.9 138.4 137 133.4 137.5 133.9 131.4 130.6 129.2 127.5 125.8 125.3 122.3 121.7 120 118.1 116 115.4 114.1 114.6 115.2 115.1 112.1 110 110.2 107 103.1 98.4 96.9 96.5 96 95.7 94.2 92.7 91.6 90.6 89.3 87.7 85 84.7 84.1 84.8 85.8 87.1 87.7 87.4 87.4 85.7 82.5 77.9 76.2 80.5 83.8 87.4
340.6 340.4 339.8 338.7 338.9 338.1 336.7 334.8 334.7 333.3 331.1 328.8 326.4 324.1 322.4 319.5 317.2 315.1 312.4 311.1 309.4 308 306.8 305.5 303.4 302.5 301.6 301 301.6 301.3 300.3 298.8 296.3 293.6 289.8 287.7 284.9 281.6 278 274.2 269.9 265.1 259.9 255.8 247.4 246.7 243.5 239 234.3 230.1 227.7 225.1 222.6 219.6 215.4 212.9 209.4 206.8 202.1 198.2 195.5 193 191.1 189.9 188 187.4 187.5 186.3 184.1 181.7 180.8 179.8 182.3 181.6 180.3 179.2 177.2 177.4 175.8 174.2 173.5 173.8 173.4 170.9 171.9 171.5 170.8 170.1 169.2 168 166.6 165.6 163.3 161 160.3 159.2 158 157.2 155.2 152.4 151.6 148.6 146.8 144.3 143 140.4 139.6 139.4 137.9 136.5 132.5 135.4 134.8 133.3 132.1 130.5 128.9 129.9 131.1 132.8 133.8 135.9 131.3 135.4 135.2 135.5 137.4 137.2 137.3 136.7 136.1 136.1 136.4 136.6 136.9 137 137.1 137.2 137.3 137.4 137.8 138.2 138.4 138.3 139.4 139 137.6 135.9 134.9 134.2 137.6 135 132.9 131.9 130.6 128.5 127.4 127.6 124.5 124.5 121.8 120.2 118.3 117.7 116.1 116.4 116.4 116.5 116.1 114.4 109.5 105.5 102.8 99.1 98.5 98.3 98 96.2 94.7 94 93.1 91.6 90.7 89.2 88.7 88.7 88.4 88 88.4 89.2 89.6 89.1 86.1 83.2 79.2 82 84.5 87 89 89.3
340.5 340.4 340.3 340.3 340.3 339.9 338.6 337.9 337.8 336.2 334.6 332.2 330.3 328.9 327.1 324.2 322 320 317.7 315.7 313.8 312.4 311.1 310 308.7 307.4 306 305.3 305.2 304.3 303.1 301.3 299.5 296.7 294.1 291.3 287.7 284.1 280.5 276.5 272.5 268.4 263.7 257.8 255.6 251.8 247.9 242.9 238.4 235.9 233.1 230.3 227.4 224.4 221.5 218.8 214.8 211.2 208.2 205.4 202.7 200 197.4 195.4 194.7 193.9 193.5 191.7 189.2 185.6 185.1 185.6 186 187.6 185.8 184.1 182.4 180.7 179.7 178.1 176.5 177.6 176.3 172.6 175 174.4 173.7 172.4 171.1 169.7 168.5 167.6 166 163.3 163.3 162.2 159.9 158.8 156.9 155.3 152.7 150.6 148.8 147.3 145.1 144.6 145.1 144.5 142.5 139.6 135.3 139.3 137.9 136.6 134.9 134.2 132.4 134 134.8 134.9 136.2 137.4 136.2 139.5 138.5 138.8 137.8 139.8 139.2 138.6 138.9 138.7 138.4 138.5 138.8 138.9 139 139 139.2 139.3 139.7 140 139.6 139.1 138 137.6 138.2 135.3 134.4 136.6 138.3 136.4 134.4 134.2 132.5 131.3 130.8 128.2 125.9 124.1 121.8 121 120.2 118.3 116.7 117 117.3 117.1 116 113.1 109.9 105.5 103 101.5 101.1 101.1 99.5 97.7 96.7 96.1 94.8 93.6 92.9 92.2 92.2 92.3 92.2 91.4 90.1 90.2 90.5 87.2 83.4 81.2 85.5 88 89.5 91.4 92 92
338.3 338.4 339 339.8 340.4 340.5 340.6 341 340.9 339 338.2 336.6 335 333.5 331.6 329.1 327.8 326.4 323.5 321.2 319.6 317 315.4 314 312.3 310.8 309.7 308.4 307.3 306.1 304.7 302.4 300.1 298.6 296.5 293.9 290.2 286.8 282.7 278.5 274.6 269.7 266.1 263.4 259.3 256.2 252.3 247.1 244.9 241.3 237.9 235 232.2 228.7 225.9 224 221.1 218.2 215.3 212.5 209.8 207.1 204.4 203.7 202.8 200.4 199.2 196.8 194.2 191.7 191.2 189.9 191.1 191.7 190.5 188.4 185.8 184.8 183.4 180.7 180.5 182 179.7 176.3 177.3 176.9 176.3 173.9 172.5 171.4 170.3 169.3 167.4 165.8 164.3 163.1 161 159.4 158.5 157.6 156.3 155.1 153.1 151.2 150.7 149.8 148.6 147.8 145.9 143.2 142.9 142.3 141.1 140 138.6 135.8 136.7 138.3 136.9 136.9 137.7 135.7 137.9 139.1 139 140 139.8 140.5 141 141.3 141.8 141.6 141.3 141 140.7 140.6 140.6 140.6 140.9 141 140.2 139.6 139.4 138.4 137.9 138.4 139.9 136.3 136.5 138.2 138.3 136.2 136.5 134.9 132.9 131.5 129.9 127 125.1 122.9 121.3 120.5 119.9 119.4 117.5 116.7 116.9 116.2 113.8 110.5 107.5 106.2 105.2 104.6 103.8 102.9 101.3 99.7 98.9 98.4 97 96.8 96.2 95.6 95.1 95.1 94.7 93.7 92.2 90.4 88.1 84.7 82.8 87.1 89.2 91.1 91.7 92.1 92.2 92.2
336.2 336.7 338 339 340.3 340.4 340.6 341.5 342.4 342.5 340.9 341.1 339.6 337.9 336.6 335 333.6 332.5 330 327.8 325.6 323.4 320.4 317.7 315.9 314.2 312.2 310.3 309.1 308 305.9 303.8 301.8 298.9 296 293.4 290.7 288.1 284.6 280.6 276.7 272.7 269.4 266.1 262.4 260.2 255.7 252.9 250 246.6 243 239.8 236.9 232.9 231 228.5 226.6 223.8 220.6 218.2 216 213.3 210.6 209.2 208.3 207.4 205.1 201.9 198 197 196 194.8 194.9 195.7 193.8 192 190.4 188.1 186.6 185.5 184.5 183.2 181.4 178.5 179.8 179.3 178.7 176.6 174.3 173.2 171.9 170.1 168.5 168 165.5 163.3 162 161.2 160.7 159.8 157.6 157.8 155.1 153 151.9 151.2 150.2 149.9 148.6 145.7 146.7 145.8 144.6 143.4 142.3 140.4 141 140.2 139.8 139.1 137.5 136.3 135.9 138.7 139.7 140.5 140.3 141 142.6 144.1 144.7 144.4 144.1 143.5 142.9 142.3 142.1 141.5 141.7 140.8 139.7 139.3 139.1 138.3 139.1 139.2 138.6 137.5 137.7 138.5 136.7 136.4 135.9 133.2 131.3 129.7 127.6 125.4 124.8 122.9 120.6 119 118.9 118.5 118.9 117.2 115 113.8 110.5 109.1 109.7 108.4 107.6 107 106.2 104.9 103.3 101.6 101.1 100.6 99.9 99.6 99.4 99 98.4 97.9 97.1 96 94.5 91.1 88.7 86.6 89.9 91.3 92.4 93.2 93.5 92.8 92.1 92
334.9 335.3 337.2 338.3 339.6 340.3 340.8 341.8 342.7 343.7 343.6 343.6 343.1 341.7 340.8 340.1 339.2 337.9 335.7 333.4 331.2 328.7 325.7 322.7 319.8 317.5 314.2 312.2 310.7 308.8 307.7 305.8 302.9 299.8 296.7 293.9 291.2 287.8 284.1 281.2 278.3 275.3 272.4 269.2 265.6 262.7 260.2 257.2 254.1 251 247.9 244.7 240.9 238.5 235.6 233.4 231.6 229.1 225.9 223.6 221.7 219.4 216.7 215.2 214.3 213.5 210.4 206.3 203.7 202.3 200.3 199.8 199.9 198.7 196.8 194.1 192 191.7 189.4 187.5 187.5 185.3 183 182.6 182.1 181.6 180.2 179.1 176.2 176.3 174.6 172.4 170.7 170.9 167 165.5 164.1 162.9 161.3 160.6 157.7 156.4 156.2 154.2 154.8 154.1 152.7 151.7 150.8 149.9 149.3 148.5 147.7 146.7 145.5 145.3 145 144.6 142.7 140.4 138.8 137.2 137.2 141.9 140.8 140.8 141.4 142.8 144.4 146.4 147.5 147 146.2 145.2 144.2 143.2 142.2 141 140.8 141.4 140.8 139.8 139.5 140.4 141.1 138.7 137.4 137 138.3 135.8 134.3 134.4 133.9 132 131 128.2 126 125.6 125.3 122.8 120.9 121.8 120.9 117 117.2 115.8 115.5 116 113.8 114.2 114.4 111.1 109.7 108.7 108.1 107.1 105.5 104.1 104.3 104.4 103.5 103 102.3 101.8 101.6 100.9 99.8 98.6 97.3 94.8 92.5 93.4 95.8 95 94.9 94.8 94.6 93.8 93 92.2
333.6 334 336.1 337.6 338.9 340.2 341.1 342 342.9 343.8 344.7 345.8 345.8 344.8 344.7 343.3 342.5 341.2 340.1 337.9 335.6 333 330 327.2 323.9 320.5 316.6 314.4 311.9 309.5 308.4 305.7 302.8 299.8 297.1 293.9 291.4 288.9 285.9 283.1 280.3 277.5 274.6 271.6 268.4 265.3 263.2 260.5 257.6 254.3 251.1 248.5 246.1 243.5 241.2 238.2 236.6 234.8 231.2 229 227.1 225.1 222.9 221.3 221.2 218 214.3 212.5 210.5 207.7 205.9 205.6 203.8 201.5 198.7 196.8 195.4 193.2 191.8 190.1 190.9 186.4 186.9 185.1 184.5 183.9 181.9 181.1 179.6 177.9 177.8 174.7 173.6 172.8 169.5 168.4 167 165.1 162.7 160.8 159.6 159.6 159.3 157.6 157.8 155.8 155.3 154.9 153.3 152.4 151.7 150.9 150.2 149.3 149.2 147.5 147.2 146.4 145.3 142.4 140.1 138.9 139.4 141.4 143.6 143.6 143.6 146 147.7 149 148.6 147.6 146.6 145.6 144.6 143.6 142.6 141.5 141 142.3 141.9 141 141.2 141.1 139.3 138.2 137.7 136.8 136.7 137.2 135.5 134.3 133.2 131.4 129.7 128 127.7 128.5 125.6 121.5 121.3 121.5 120.6 119.4 118.5 118.6 118.2 116.8 115.5 116.2 114.6 112 111 109.9 109.4 110 108.3 108 107.8 106.8 105.8 105.5 104.6 104.2 103.5 103.2 101.9 100.4 98.9 98.1 96.3 94.9 96.5 96 95.9 95.8 95.5 95 94.2 93.4
331.8 332.7 334.8 336.2 337 339.6 341.2 342.1 342.9 343.7 344.6 346.2 347.1 346.2 347.9 347.6 345.1 344.1 343.1 341.6 339.1 336.7 333.7 330.3 326.9 323.5 319.8 317.3 314.8 311.8 309 306.3 303.8 301.1 298.4 295.9 293.3 290.8 287.9 285.1 282.3 279.5 276.7 273.9 270.9 268.9 266.2 263 260.9 257.3 254.5 252.5 250 248 245.9 243.5 241.2 239.6 236 234 232 230 228.1 227 225.3 222.2 218.7 217.1 215.2 211.9 211 208.8 206.9 205.2 202.1 200.8 199.2 196.5 196.5 194.4 192.8 191.3 189.7 187.7 186.9 186.3 184.6 183.2 180.2 180.1 180.4 177.3 175.6 174.7 172.7 171.9 170.5 169.4 166.5 164.5 162.6 162.8 162.4 160.8 159.9 159.3 158.8 157.2 155.9 155 154.1 153.4 152.6 150.9 150.5 149.4 149.1 148.8 148 145 141.6 140.8 140.7 144.4 143.8 145.9 146.9 149.4 149.4 148.9 148.4 148 147 146 145 144 143.1 142.1 142.1 143.4 143.6 143.1 143.6 140.6 139.6 138.8 137.6 137.1 136.8 135.6 133.4 131.9 130.8 129.7 128 127.2 126.1 124 122.2 123.8 122.2 122 123 121 120.2 119.2 118.7 117.2 117.7 115.6 114 114.7 113.2 112.4 112.5 112.8 112 111 110 108.3 107.9 106.3 106.4 106 105.2 102.7 102.3 101 99.9 98.8 95.6 95.9 97.2 97.1 97.1 97 96.4 96.1 95.4 94
328.5 330 334.5 336.3 337.1 339.1 340.9 342.3 343.1 344 344.8 345.8 347.5 348.6 348.5 348.9 348.7 346.1 345.7 344 341.8 339.1 336.1 333 329.9 326.5 323.1 320.3 317.4 314.1 310.8 308.6 306.5 304.5 301.8 299.1 296.4 293.3 290.7 288.1 285.4 282.6 279.8 277 274.6 271.8 268.7 265.6 263.3 260.9 258 256.1 253.2 251.3 249.2 246.8 244.8 243.3 239.8 237.7 235.7 233.7 232.2 230.4 228 225.8 222.8 220.9 218.7 215.8 215 213.4 211 208 206.1 204.8 202.2 200.7 199.5 198.3 196.3 192.9 193.1 191.7 189.9 189.1 187.8 186.3 183.3 182.2 181.6 180.2 178.7 176.7 174.8 174.3 174.1 172.9 170.1 168 168.2 166.9 166.4 165.2 162.9 162.4 160.9 160.4 159.6 158.7 157.7 156.4 155.5 151.5 154.7 153 151.8 151.5 149.8 146.9 143.7 142.9 143.1 146.8 146.1 149.6 150.2 150 149.4 148.8 148.2 148.1 147.4 146.4 145.4 144.4 143.3 143 143 143.8 143.7 145.4 142.5 139.8 138.8 138.2 137.5 137.3 135.7 134.2 131.3 130.1 128.1 127.1 126.2 127.6 126.8 125.9 125.9 127.4 124.6 127.1 125.2 123.7 123.5 123.4 123.2 122.2 121.8 120.7 121.3 119.5 117.7 115.8 115.4 114.3 113.2 112.2 111.4 110.8 110.4 109.2 106.9 106.3 105.8 104.5 102 99.9 98.2 92.7 96.2 98.8 99.4 99.6 99.7 99.2 98.3 97.4 96.7 96.3
329.6 331.5 333.9 335.7 337 338.6 340.4 342.2 343.4 344.2 345 345.7 348.3 350 349.7 349.7 350 349.3 346.5 344.9 343.2 341.5 338.5 335.4 332.3 329.2 326.1 323 320.3 317.7 315.2 312.6 309.9 307.2 305.3 302.5 299.8 296.1 293.5 290.9 288.3 285.7 283.2 280.6 277.5 274.2 271 268.2 265.7 263.4 260.8 258.8 256.5 254 251.6 249.6 247.7 246.2 243.2 241.2 239.4 237.4 235.7 233.2 231 229 226.3 224.2 222.6 220.7 218.9 216.1 213.1 210.9 209.8 207.6 205.6 204.4 202.8 200.6 199.1 197.7 195.8 194.9 192.6 192.4 191.2 189.2 187.4 184.8 184.2 182.7 181.2 179.9 178.4 177.2 176.8 176 174 172.7 172.1 171.5 170.5 169.7 168 165.9 164.7 164.8 164 163.1 162 160.5 159.1 151 157.5 156.5 155.1 152.7 150.4 148.7 146.8 144.9 147.1 149.9 147.4 149.4 150.3 149.7 149.2 148.7 148.2 147.7 147.8 146.8 145.7 144.5 143.8 144.1 144.2 144 145.5 142.5 139.8 138.7 137.6 136.7 135.7 135.3 133.2 132.5 132 128.7 127.2 127 128.6 131 128.3 127.2 129.9 128.8 129.5 129.9 129.4 130.1 128.6 126.7 126.5 123.9 124.2 123.7 122.1 120.5 118.9 117.9 117.4 115.6 114.4 113.3 112.2 111.4 110.7 109.7 107.8 105.6 105 103.3 101.6 96.6 98.1 98.1 100.5 102 102.1 102.2 101.9 101.3 100.5 99.8 99 98.9
329.5 330.9 332.8 334.6 336.4 338.1 339.9 341.7 343.5 344.5 345.8 348.5 351.2 351.5 351.6 351.6 351 350.3 347.5 345.7 344.1 343.3 341.1 338.3 335.3 332.2 329.1 325.9 323.3 320.7 318.1 315.9 313.5 311 308.4 306 302.8 299.7 296.9 294.3 291.8 289.2 286.7 283.9 280.1 277 274 271.5 269 266.5 264.1 261.5 258.9 256.4 254.5 252.6 250.6 248.3 246.2 244.1 242 240.2 238.3 235.9 234.1 232.1 229.3 227.7 226.2 223.2 221.2 219.2 216.5 214.5 213.1 210.6 208.4 206.4 205.6 203 202.4 201.7 199.2 198.9 195.7 195.6 194.4 193.5 189.9 188.5 187.3 186.3 184.9 183.6 182.3 181.6 180.7 179.6 178.4 177.4 176.9 176 175 173.9 173 171.4 171.2 169.7 167 165.9 165 164 162.2 155.7 159.9 158.9 156.7 155.6 153.2 152.2 150.3 148.5 153.1 153 149.7 149.6 150.8 150.2 149.7 149.1 148.5 148.5 148.2 147 145.8 145.4 144.5 144.4 145.3 143.1 143.2 141.2 139.5 138 136.9 136.2 137.9 136.6 132.7 131.2 130.2 131.7 129.9 130.9 132.3 132.9 130.7 132 131.6 132.5 134.5 134.3 134 132.2 130.8 130 128.4 127.6 128.1 126.5 124.4 122.2 120.2 119.1 118.4 117 115.9 114.8 113.7 112.7 109.9 108.5 106.6 104.9 102.9 101.1 100.6 99.4 100.5 101.7 104.4 104 103.9 104 104.2 103.5 102.9 102.4 101.5 100.4
328.7 330 331.8 333.6 335.3 337.9 339.8 341.6 343.4 346.1 349 351.6 353 353.4 353.3 352.5 351.5 350.8 349.9 347.5 346 345 343.1 340.7 337.9 335.1 332 328.6 326 323.5 320.9 318.6 316.6 314.2 311.9 309.3 306.5 303.7 301 298.2 295.3 292.7 290.2 286.7 284.1 281.1 277.8 274.9 272.4 270.1 267.7 265.1 262.5 260 257.7 255.5 253.6 251.3 249.2 247.1 245 242.9 240.8 238.2 235.9 234 232.1 230 229.1 227 224.3 222.1 219.8 218 215.9 213.8 211.8 209.9 208.5 207 205.8 205.3 202.4 200.8 198.8 198.8 197.1 194.7 193.9 193.7 191.2 190.2 188.7 187.4 186.4 185.4 184.2 182.9 181.7 181.6 179.9 178.5 179.2 178.2 177.1 175.8 175.2 173 169.6 168.7 167.8 166.9 162.7 161.4 162.4 161.6 158.9 157.9 155.5 155.9 154.3 154 155.4 152.4 151.7 151.6 151.5 151 150.5 149.9 149.3 149.6 148.1 147 146 145.5 144.8 143.4 143.4 142.5 142.8 141.5 138.9 137.1 138.1 138.9 137.5 135.3 132.9 133.1 134 133.6 132.1 133.9 135.1 135.9 133.8 135.3 138 138.7 138.6 137.9 136.4 135.7 134.6 134.2 132 131.6 133 128.2 126.2 123.9 123.1 122.3 120.9 119.1 117.6 116.6 115.5 114.5 111.3 108.7 107.6 104.6 101 105.8 106.4 105.1 107.1 107.4 106.8 106.2 105.9 105.7 106.3 105.4 105.2 104.9 104.3 103.2
327.6 328.9 330.4 332 334.5 337.2 340 342.2 344.6 347.4 350.2 352.8 354.2 354.8 354.1 353.1 352.1 351.4 350.9 350.1 348.9 346.6 344.1 342.6 340.2 337.3 334.7 331.5 328.9 326.2 323.6 321.4 319.3 316.8 314.3 312.4 309.5 306.6 304 301.4 298.8 296.2 293.6 290.7 287.8 284.6 281.5 278.4 276.2 274 271.3 268.7 266 263.7 261.4 259 256.6 254.4 252.3 250.2 248.1 246 244.3 241.8 239.2 237.1 234.7 232.5 231.4 229.4 226.8 224.4 222 219.7 218.1 216.8 214.8 213 211.4 209.3 209.4 208 205.6 204.2 203.1 201.9 200.6 200 197.9 197 195.8 194.2 192.7 191 189.9 188.8 187.6 186.3 185 184.2 183.3 181.5 182.1 181.5 179.4 179 178 176.4 173.5 171.7 170.6 168.5 159.2 165.3 163.1 161.9 161.4 160 157.6 158.7 157.2 155.2 155 154.6 153.4 153.2 152.8 152.6 151.4 150.7 150.4 149.2 148.8 147.5 146.1 145.4 144.7 143 143.3 143.9 143.4 141.9 140.5 140.1 138.3 140.6 136.5 135.1 136.1 135.9 136.8 136.2 135.5 138.8 138.3 139.3 138.3 140.6 142 140.7 141 141.4 139.8 139.5 139.4 137 136.7 136.5 133.5 130.2 127.7 125.3 125.9 124.8 123.7 121.6 119.8 118.3 117.2 116.2 113.8 109.3 106.1 105.6 105.6 108.4 109 106.2 110.4 109 108.9 108.9 109.2 109 108.9 108 106.6 105.3 104.1 103.9
326.1 327.5 328.9 331.3 334.3 337.3 340.3 343.2 345.4 347.4 349.5 351.6 352.7 354.1 354.4 354 353.3 352.5 351.5 350.5 349.3 348.5 345.5 344.3 342.3 339.5 337.2 334.3 332.1 329.3 326.6 324.1 322 318.4 316.7 315 312.5 309.6 307 304.5 302 299.4 296.9 294.1 291.2 288 284.4 282.3 280.1 277.5 274.6 271.7 269.4 267.5 265.6 263.1 260.5 257.6 255.5 253.5 251.4 249.4 248 245.2 242.7 240.6 238.4 236.5 234.4 231.8 229.2 227.5 225.7 223.8 221.9 219.7 217.8 215.9 214.5 213.1 211.5 210.8 209 209.3 207.3 205.1 204.5 204.6 202.5 200.1 197.5 196.5 195.7 193.9 194.5 192.2 190.8 189.4 187.9 186.7 185.7 186.4 185.8 183.4 182.3 182.8 179.8 178 176.6 174.6 172.8 165.3 166.3 167.2 166.6 166.8 165.1 162.4 161.5 161.7 160.1 157.6 156.9 156.4 155.6 154.4 154.2 154.7 153.6 152.4 151.7 150.8 151 148.7 148.1 147.2 146.7 145.8 144.9 144.4 143.6 142.5 141.8 142.7 140.4 139.4 136.9 139.3 140.3 140.8 140.6 139.7 141.1 142.6 142.7 142.8 143 143.7 144.1 143.6 143.9 144 142.4 142.3 141 140.4 139.4 138.2 135.6 132.6 129.8 127.8 128.3 127.2 126.2 124.7 122.8 120.5 118.9 118 115.6 110.7 108.2 108.8 109.1 110.8 112.2 109.5 112 111.5 111.6 111.9 111.8 111.4 110.2 108.6 107.9 107.2 104.9 104
324 325.2 327.7 331.5 334.6 337.2 339.4 342.2 344.2 346.2 348.3 350.4 351.5 352.4 353 352.7 352.6 352.4 351.9 350.9 349.8 349.2 347.2 345.1 344 341.8 339.5 337.1 335.1 332.5 329.9 327.8 325.7 322.6 320.4 318.3 315.6 312.4 310.5 307.7 305.2 302.7 300.1 297.4 294.5 290.7 288.3 285.8 283.1 280.3 277.4 274.5 272.9 271 269 266.6 264.2 261 258.8 256.7 254.6 252.9 251 248.5 245.9 243.4 241 238.6 236.6 234.7 232.7 230.5 228.6 227.3 226 223.8 221.5 219.5 217.9 217 216.4 214.7 213.8 212.9 211.4 209.4 208.4 207.6 204.8 202.6 200.8 199.4 198.4 196.7 197 195.1 193.7 192.3 190.8 189.6 188.5 188.6 188.2 186 185.3 183.3 180.6 179.5 178.1 176.8 167.9 170.8 170.6 169.5 168.5 167.5 166.3 165.6 164.1 162.5 160.8 160.1 158.8 157.3 159 156.9 156.4 156.1 154.5 153.9 151.9 153.5 151.9 151.9 150.5 151 149.6 147 145.9 144.7 144.8 144.4 143.6 141.7 139.8 138.6 141.5 142.4 142.8 143.8 144.7 144.6 146.1 146 146.3 147.1 148.4 146.7 146.3 146.4 146.9 145.8 144.9 144.4 143.3 142.1 139.9 139.7 137.2 134.8 132.1 132.4 130.7 129.7 128.6 127.6 125.7 123.9 121.6 120 118.1 114.9 113.5 112.6 112.4 113.8 114.3 112.3 114.8 114.9 114.6 114.7 114.2 113.5 111.9 110.2 109.4 108.4 107 106.1
321.8 324.3 326.8 330.6 333.7 335.7 338.7 341.2 343.1 345.1 347.1 349.2 350.3 351.2 352.2 352.1 351.9 351.7 351.6 351.3 350.5 348.8 348.6 345.7 344.9 343.2 340.9 339.8 337.8 335.8 333.6 331.4 329.3 326.9 324.4 321.9 319.5 316.4 314 311.7 308.7 305.9 303.4 300.5 296.9 293.9 291.3 288.6 286 283.1 280.2 278.1 276.3 274.2 271.8 269.4 266.8 263.8 261 259.5 257.8 255.7 253.4 250.9 248.2 246.1 243.9 240.7 238.8 237 235.2 233 230.9 229.6 228.3 227 225.6 223.6 221.3 219.9 219.3 217.8 217 215.3 213.7 212.1 211.4 210.1 208.2 206.3 204.5 202.7 201.6 199.8 199.2 197.8 196.5 195.2 193.8 192.6 191.4 189.7 189.1 188.7 186.7 184.1 183.4 182.3 180.3 174.5 175.5 173.2 174.1 172.2 172 170.9 169.3 167.7 166.4 164.5 162.5 161 159.9 159 160.2 157.7 157.1 156.8 156.7 156.3 155.3 154.3 154 154.9 153.5 151.9 149.8 148.3 147.2 147.7 146.5 144.1 143 143.4 142.2 142.3 144.5 145.6 147 148.5 149.1 149.2 150.4 151.5 151.2 150.2 150.2 150 150.2 149 149.1 148.5 147.8 146.5 144.4 143.3 143 142.6 139.1 137.7 134.4 137.3 135.1 133.6 132 130.4 128.5 126.4 123.4 122.3 118.8 115.7 114.6 115.8 116.1 117.1 116.8 114.3 117.4 117.4 117.4 116.9 116.3 115.3 113.8 112.2 111 110.4 108.8 108.1
320.9 323 325.3 329.2 332.9 335.5 338.1 340.2 342.1 344 345.9 348 349.1 350.5 351.5 351.4 351.2 351 350.7 350.3 350.4 349.2 348.2 347 346.4 344.1 342.5 342.3 340.5 338.6 336.8 334.7 332.5 330.2 328 325.5 323.1 320.5 318 315.5 312.9 309.9 306.9 304.1 301.2 298.1 294.6 291.4 288.8 286.5 283.2 281.6 279.5 277.1 274.3 271.9 269.3 266.6 263.8 261.6 259.9 257.7 255.1 252 249.5 247.7 246.1 243 241.1 239.4 237.7 235.6 233.4 231.8 230.6 229.4 228.2 226.8 224.7 223.4 222.1 221 218.8 217.1 215.8 214 213.3 212.2 211 209.9 208.2 206.4 204.9 202.9 201.8 200.5 199.2 197.9 196.2 195 194 191.8 190.4 189.2 187.9 186.4 186.1 184.5 178.7 179 179 178 176.4 174.2 172.9 172.2 170.5 169 167.8 166.5 164.6 162.5 162 162.2 161.5 159.2 158.3 158.6 159 157.9 156.7 157.8 158.7 155.6 154 152.7 151.8 148.9 148.9 148.6 146.6 146 146.4 146.4 145.2 146.5 148.3 149.5 150.9 152.2 152.4 152.6 153 153.9 154.2 153.4 153.2 152.4 151.4 150.9 151.3 150.8 150.1 149.5 147.5 147.4 146.1 144.5 141.8 137.9 139.2 139.4 137 134.9 133.3 131.7 129.3 124.9 120 119.2 119.1 117.8 118.9 118.3 119.2 120.1 119.3 118.8 119.9 119.9 119.6 119 118.2 117.1 115.7 114.1 112.8 111.9 111.7 109.1
317.6 320.1 323.1 326.6 330.4 333.9 336.3 338.4 340.5 342.6 344.7 346.8 348.4 349.9 350.8 350.4 350 349.6 349.1 349.4 349.8 349.4 348.9 348.3 347.5 344.9 344.6 343.8 342.7 341.4 339.5 337.7 335.7 333.3 331.2 329.1 326.6 324.5 322 319.5 317 313.8 310.7 308.1 305.5 302.4 299.2 295.9 292.7 288.7 286.6 284.6 281.6 278.7 276 273.2 271.1 269.1 266.7 264 262 259.4 256.8 253.6 251.4 249.9 248.2 245.7 243.4 241.7 240 238.1 235.9 234.2 233 231.8 230.6 229.4 228.1 226.6 224.8 222.5 220.5 219.5 218 216 215 213.8 212.7 211.5 210.3 209.2 208.1 205.8 204.2 202.6 200.9 199.3 197.5 195.8 195.7 193.6 192.6 191.6 189.8 188.8 185.7 181.9 180.4 181.9 180.5 179 177.1 175.7 174.3 172.9 171.8 170.4 169.2 168.1 166.7 164.7 163.7 162.8 162.2 162.6 162.6 160.3 159.6 159 157.9 158.5 158.6 156.5 154.9 154.6 154 152.8 152.2 148.9 147.7 149 148.8 150 150.7 151.2 152.2 153.3 154.7 155.5 155.7 155.9 156.1 156.2 156.9 156.1 154.6 154.1 154.1 153.9 153.2 152.5 152.5 151.4 149.7 147.3 147.1 145.3 142.9 140.8 142.7 141.3 139 136.7 134.6 132.1 130.4 128.6 126.8 122.1 121.5 121 122.6 121.2 124.7 124.6 123.7 123.3 122.9 122.5 121.8 121 120 118.9 117.5 116 114.6 113.8 113.1 110.4
312.9 317.7 320.9 324.1 327.9 331.2 334.2 336.6 338.7 340.8 342.9 345 347.2 348.9 349.9 348.9 348.4 348 348.1 348.6 349.1 348.8 348.6 348.3 347.8 347.1 345.9 344.8 343.6 342.5 341.6 339.9 338.3 336.3 334.2 332.1 329.8 327.4 324.9 322.3 319.8 317.2 314.6 311.7 308.8 305.7 302.4 299.2 296.3 293.5 290.3 287.4 284.7 282 279.3 276.1 272 269.8 267.8 265.5 263.3 261.2 258.4 255.5 253.3 252 250.2 247.6 245.9 244.4 242 239.4 237.8 236.4 235.2 234 232.8 231.7 230.5 228.5 226.1 223.9 222.8 221.9 220 218 216.6 215.5 214.3 213.1 211.9 210.8 209.5 205.8 205 203.9 202.3 200.6 198.9 196.9 196.3 195.1 193.7 193 190.7 188.8 186 185.3 184.5 183.6 182.4 180.6 178.6 177.2 175.9 174.5 173.1 172 170.8 169.6 168.4 167.8 167.4 165.6 166.3 166 163.8 162.4 161 160.3 159.8 160.1 158.9 157.2 158.1 156.6 155.8 155.1 151.9 151.3 151 150.7 153.3 152.6 152.8 154.6 155.5 157.1 157.6 158.2 158.2 158.7 158.4 157.9 157.5 156.8 156 155.7 155.7 155 154.5 154.6 153 152.9 150.9 149.5 148.2 146.8 145.2 143.7 145.7 143.1 140.6 138.3 135.1 134.2 134.2 130.7 128.2 128.5 126.7 126.2 127.4 128.1 128.7 126.9 125.8 125.4 124.9 124.2 123.1 122.5 121.7 120.9 119.5 118.1 116.7 115 114.6 113.1
308 313.1 317.9 321.9 325.3 328.3 331.3 334.2 336.9 339 341.2 342.9 344.5 346.5 347.9 347.7 346.9 346.8 347.3 347.6 347.5 347.6 347.6 346.9 346.3 345.4 344.4 343.4 342.4 341.4 340.9 340.2 338.7 337.4 336 334.2 331.9 329.4 326.5 323.5 321.2 319.1 316.5 313.6 310.8 308.1 305.4 302.1 299.3 296.1 292.8 290.1 287.3 284.5 281.6 278.4 274.2 271.6 269.4 266.4 263.7 261.6 260.2 257.3 255.3 254 252.5 249.6 247.7 245.7 243.1 241.6 240 238.6 237.4 236.2 235 233.7 231.2 229.1 227.4 225.8 224.9 223.8 221.9 219.9 218.3 217.1 215.9 214.8 213.6 212.4 210.4 206.9 205.4 204.3 203.5 202 200.1 198 196.6 195.4 195.3 193.2 190.6 184.5 189.2 188.1 186.8 184.8 182.8 182 180.3 178.9 177.7 176.7 175.5 174.6 173.7 172.5 171.9 170.9 170.1 169.9 169.5 168.8 167.6 166.2 164.5 163.2 164.2 163.1 161.8 161.6 160.7 159 158.4 157 155.4 155.4 155.6 154.9 156.1 156.6 157 158 157.9 158.7 158.6 158.9 160.2 159.9 159.2 159.2 159.1 158.7 157.4 157.3 157.3 156.4 154.9 155 155.1 153.9 152.2 151.9 149.7 148.4 147.1 146.5 146.4 143.6 141 138.7 137.9 136.9 134.1 132.9 132.8 132 131.4 132.2 132.6 131.9 130.7 128.9 128 127.4 126.8 126 124.7 123.8 123.1 122.6 121.8 120.8 119.5 118.4 117.6 116.3
302.8 307.6 312.2 317.2 321.5 324.5 327.5 330.4 333.3 336.4 338 339.7 341.4 343.5 344.9 345.6 345.4 345.6 345.7 345.6 345.5 345.5 345.4 344.7 344.2 343.7 342.7 341.7 340.7 339.9 339.3 338.8 338.2 337.5 336.6 334.9 333 330.1 327.2 324.1 321.8 319.7 317.8 315.3 312.3 309.5 306.8 304 300.8 297.6 294.4 291.4 288.3 285.3 282.2 279.5 275.6 273.5 271.3 269.1 266.9 264.2 261.7 259.1 257.1 255.4 254.6 251.4 249.3 246.8 245.1 243.7 242.2 240.8 239.6 238.4 236.6 234.5 232.9 231 229.1 227.8 226.9 225.6 223.6 221.6 220 218.8 217.6 216.4 215.2 213.7 210.7 208.3 206.3 205.3 204.3 203.3 201.1 199.1 197.3 198 194.5 191.4 192.7 190.7 191.8 190 188.1 186.1 184.8 183.5 182.4 181.3 180.3 179.3 177.9 177.2 176.2 175 173.9 172.9 171.9 172.2 171.9 170.9 171 169.2 167.8 166.6 166.8 165.4 164.6 164.2 162.9 161.3 159.9 158.4 158.3 158.2 157 157.9 158.4 158.5 157.1 159.1 159 159.4 159.5 159.5 160.5 161 160.3 159.9 159.7 160 159.6 159.1 159 157.6 156.1 156.2 155.8 155.3 154.5 153.8 153.2 151.4 147.4 147.9 146.2 143.6 140.9 138.9 140.2 138.1 136 136.3 135.7 134.3 135.7 135.6 134.4 133.5 131.8 130.6 129.9 129.3 128.7 127.7 126.8 126.6 126.3 124.4 123.7 123 121.3 120.7 120.1 119.8
297.4 302 307.3 312.7 316.1 319.7 322.7 325.6 328.4 332.2 334.8 336.4 338.3 339.7 340.9 342.6 343.5 343.8 343.7 343.6 343.5 343.3 343.1 342.6 342.1 341.6 341 340 339.1 338.3 337.8 337.2 336.5 335.7 334.4 333.8 333.2 330.8 327.6 324.6 322.3 320.3 318.3 315.6 312.4 310.3 307.7 304.7 301.5 298.2 295.1 292.1 289 286 282.9 280.7 277.7 275.5 273.1 270.5 267.8 265.5 262.8 260.3 258.5 256.7 254.8 253.1 250.6 248.7 247.3 245.8 244.4 243 241.8 239.7 238.2 236.6 235 233.1 231.6 230.1 229 227.5 225.4 223.3 221.8 220.5 219.3 218.1 216.3 214.4 211.8 209.6 207.2 206.2 205.3 204.6 202.1 200.7 198.5 196.7 194.5 196.1 194.1 192.5 192.4 191.3 189.5 187.8 186.5 185.7 185.1 184 183 181.9 180.4 179.7 178.4 176.9 175.9 174.9 173.9 174.6 174.7 173.9 173.5 172.5 171.2 170.1 168.7 167.2 166.8 165.8 164.7 163.1 161.8 161.2 160.2 159.6 159.4 159.8 159.8 158.2 158.7 159.1 159.3 159.5 159.9 160.2 161.2 161.8 161.5 161.2 161.1 160.8 160.4 161.1 160.4 158.7 157.4 157.8 156.8 156.4 155.2 153.8 151.8 150.2 148.5 147.9 145.9 143.1 140.9 143 141.6 138.6 137.5 138.4 138.9 138.5 137.2 135.7 135.9 134.5 133.3 132.5 131.8 131.2 130.6 129.7 129.4 128.7 128.2 127 125.7 125.2 124.4 123.5 123.2 123.1
291 296.1 301.7 307.1 310.8 314.4 317.9 320.8 323.6 327.6 331.3 333.2 334.5 335.7 336.9 338.3 340.2 340.7 340.9 341 341.2 341.3 341 340.5 340 339.6 339.1 338.4 337.5 336.7 336.1 335.4 334.3 332.9 331.6 331.1 330.6 330 328.1 325.2 322.8 320.5 318.2 315.1 312.9 309.7 308.1 305.4 302.2 298.9 295.7 292.7 289.7 286.7 283.7 281.5 279.1 276.6 274 271.4 268.5 266.3 263.7 261.8 259.8 258.1 256.1 254.1 252.3 250.8 249.4 247.9 246.5 245 243.4 241.9 240.3 238.7 237.2 235.7 234.2 232.7 231.2 229.3 227.2 225 223.5 222.2 220.9 219 217.1 215.1 212.9 210.7 208.5 207.2 206.4 205.5 201.1 197.5 196.1 197.8 197.5 197.1 196.2 194.5 192.8 192.3 190.8 189.5 188.9 188.4 187.8 186.7 185.6 184.2 183 182.2 180.3 178.7 177.9 177.4 177.6 177.7 177.1 176.2 175.3 174.3 173.3 171.3 169.5 169.6 167.9 167.3 166.6 165.2 164 162.6 160.9 159.9 159.2 159.4 158.6 157.4 157.5 157.9 158.3 159.7 160.4 160.8 161.6 162.1 162.6 162.6 162.5 162.2 162.4 161.9 161.8 160 159.4 158.8 158.5 157.4 156.1 154.6 152.1 150.3 152.1 148.4 144.7 143.3 144.7 144.8 141.7 140.8 140 139.4 139.6 139.7 138.6 136.7 136.7 136.2 135.3 134.5 133.8 133.1 132.5 131.8 131.1 130.4 130 129.2 128.1 127.9 126.9 126.4 126.3 126.2
283.2 288.8 294.8 301.7 306.2 309.8 312.7 315.9 319.1 322.8 326.5 328.9 330.8 332 333.1 334.2 335.5 337.3 337.8 337.9 338.1 338.3 338.8 338.3 337.9 337.4 337 336.5 335.8 335.1 334 332.9 331.5 330.1 329 328.5 327.9 327.3 326.1 325 323.2 320.4 318.1 314.8 312.3 309.5 307.7 305.4 302.8 299.5 296.4 293.4 290.6 288.3 285.4 282.9 280 277.5 274.9 272.4 269.5 267.2 265.2 263.2 261.3 259.5 257.5 255 253.1 251.8 250.5 249.2 247.8 246.4 245 243.7 242.3 240.8 239.1 237.1 235.6 234.2 232.7 230.7 228.3 226.1 225.1 223.8 221.9 220.9 219.9 217.4 214.5 211.6 209.3 206.7 205 201 203 203.4 203.2 202.6 200.6 200.6 199.2 197.5 196.1 194.7 192.6 192 191.3 190.7 190.2 189 188.2 186.2 185.5 184 182.1 180.5 179.5 180.2 179.8 178.9 178.7 177.2 176.9 175.9 174.8 172.2 171.4 171.8 169.5 168.3 167.7 165.8 163.8 162.1 160.6 160.1 159.5 159.5 158.7 158.1 158.4 158.6 159.4 160.4 161 161.7 162.4 162.9 163.9 164.2 164.7 165.5 165 165.1 164 163.4 161.9 161 159.9 158.7 157.5 156.3 154 151.3 150.4 147.2 144.1 147.1 145 143.7 142.6 143 141.4 140.7 140.6 139.4 140.6 136.6 136.7 138.1 137.2 136.5 135.8 135.1 133.9 133.5 132.8 132.1 131.9 131.3 130.6 130.4 130.7 130.2 129.6 129.4
276.9 282.6 287 295.2 298.3 304.4 307.5 310.6 314.3 317.8 321.2 324.6 326.5 328.4 329.6 330.6 331.7 333 334.4 334.9 335.1 335.4 335.8 336.2 335.7 335.2 335 334.6 333.7 332.6 331.5 330.1 328.7 327.3 326.3 325.8 325.8 324.7 323.4 322.2 321.8 319.9 317.6 312.9 311.6 309.3 307.3 305.3 302.8 300.2 297 295 291.6 289.7 287.2 283.9 280.9 278.4 275.8 273.3 270.7 268.6 266.6 264.7 262.8 260.9 258.4 255.3 253.7 252.4 251.1 249.8 248.3 246.5 245.2 243.8 242.4 241.2 240.2 238.9 237 235.5 234 231.6 229.3 227.7 226.6 225.1 222.9 221.7 220.9 219 214.3 211.1 206.3 206 206.8 207.6 207.1 204.7 203.7 203.2 203.1 202.2 201.4 200.5 198.9 197.4 194.8 194 193.4 192.9 192.3 190.8 189.7 187.8 187.7 185.7 183.8 182.6 181.9 182.4 181 180.8 180.2 178.8 177.5 177.3 176.1 174.7 174.4 173.1 171.5 170.1 167.4 165 163.3 161.7 161.3 160.5 160.5 160.2 159.2 159.4 160.5 162.5 162.7 162.7 163.4 164.1 164.8 166 167.1 166.4 168 167.8 166 165.6 164.6 163.5 162.8 161.7 160.9 158.5 157.3 156.4 154.2 151.2 148.8 147.8 146.7 145.6 144.5 144.7 145.1 143.5 142.8 144.7 142.6 140.8 142.7 140.6 140.7 142.8 141.1 139.3 137.7 136.7 135.6 134.7 134.5 133.8 133.7 133.5 133.1 134.2 134.2 133 131.7 131.3
269 274.4 279.1 285 292.9 297.9 302 305.4 309.3 313.6 316.9 319.9 321.9 323.8 325.9 327 328.1 329.3 330.5 331.8 332.2 332.5 332.9 333.4 333.5 333.2 332.9 332.3 331.2 330.1 328.7 327.3 325.8 324.4 323.6 323.7 323.2 322 320.7 320 319.1 316.9 314.7 312.2 310.9 309 307.1 304.9 302.2 299.7 297.3 294.5 291.7 289.9 286.4 284.9 281.8 279.3 276.7 274 271.5 269.6 267.7 265.8 263.8 261.8 258.7 255.6 254.3 253 251.5 249.8 248.3 246.4 244.7 243.3 242.3 241.2 239.7 238.5 237.2 235.9 234.2 232.6 230.2 229.3 228.2 226.1 223.9 222.5 218.1 216.6 213.1 212.1 208.5 211.3 209.5 208.7 206.7 206.3 205.6 204.3 204.1 202.7 202.2 200.3 199.3 198.6 196.7 196 195.2 195 194.4 192.8 191.1 191.7 189.4 187.3 186.1 185.4 184.8 184.7 182.8 182.7 181.8 180.4 178.9 177.9 177.1 176.5 175 173.1 171.6 168.5 166.5 165.2 163.6 163.3 162.2 161.4 160.9 160.3 160.1 160.8 162 165.3 164.6 166.3 166.4 167.1 168.1 169.3 170.2 171.4 170.3 168.2 166.6 165.5 164.3 163.2 162.2 160.2 159.3 158.4 157.2 155.8 153.6 150.5 149.2 147.1 148.3 148.2 146.5 146.8 146.1 146.5 148.1 148.1 145.9 144.3 144 142.3 144.7 145 143.6 142 140.1 139.4 138 136.3 136.3 136.4 135.9 136.6 136.3 136 135.6 136.6 134.8 133.5
259.1 264.3 270.3 277.2 284.4 290.3 294.6 299.5 304.1 308.4 312.5 314.8 316.9 318.7 321 323.3 324.4 325.6 327.1 328.3 329.1 329.5 330 330.5 330.4 330 329.4 328.7 326.6 326.3 325.5 324.4 323 321.6 321.2 321.7 320.5 319.4 318.4 317.4 316 313.6 311.6 310.5 309.9 308.7 306.1 303.6 300.8 298.3 297.1 293.9 291.7 289.3 286.8 284.7 282 279.5 276.8 274.1 271.8 269.9 268 266.1 264.2 262 259 256.2 254.6 253 251.4 249.8 248.3 246.4 244.1 242.5 241 239.4 238 236.8 235.5 234.4 233.3 232 231 230.6 229.4 227.4 223.9 218.8 219.8 220.5 214.2 209.7 212.9 214.1 212 210.1 209.8 209.1 208.2 207.4 206.1 204.8 203.4 202 201.2 200.4 198.9 197.8 195.5 194.4 193.7 193.1 191.9 191 191.8 189.8 189 188.1 187.1 185.3 184.8 184.6 183.5 182 180.9 180 178.6 177.2 175.3 173.5 171.8 170 168.5 166.9 166.4 167.1 166.3 163.5 162.8 163 163.3 164.5 166.3 165.6 167 168.2 169.6 170.2 171.4 171.9 171.6 170.1 169.7 169.3 168.7 168.2 164.4 163 161.6 160.9 160.4 158.5 157 154.8 152.6 152.3 151.2 150.1 151.6 150.3 150.1 151.2 152.3 152.9 151 149.3 147.8 146.7 146.1 145.2 147.2 146.9 145.4 145.3 144.3 142.5 142.7 141.4 140.8 141.6 141.5 140.9 141.3 140.8 139.5 139.1 137.9 137.4
251.9 255.5 263.5 270.5 276.3 281.4 286.7 292.5 297.7 302.1 305.6 308.2 311.4 313.8 316.1 318.3 320.6 322.2 323.8 324.8 325.7 326.5 326.8 326.4 326.1 326 325.4 324.8 323.8 322.3 321.5 320.7 319.9 318.8 319.6 319 317.9 316.8 315.7 314.7 313.3 311.2 309.7 310.7 307.4 306.1 303.3 301.4 298.9 296.5 294.6 293.2 290.9 289.3 286.6 284.6 281.2 278.3 276.3 274.1 272.1 270.2 268.1 266 263.9 261 257.8 256.1 254.6 252.9 251.3 249.8 248.3 246.5 244.1 241.5 239.2 237.7 236.3 235.1 233.9 232.9 232.2 231.3 230.6 230.3 229.9 225.8 221 220.5 222.1 220.3 216.3 211.4 216.7 216 214.6 212.5 212.8 210.7 209.5 208.4 207.1 206.6 206.2 204 203 202.1 201.1 199.6 198 197 195.8 194.9 194 193.1 192.2 191.7 191.4 189.5 188.9 187.4 185.6 184.9 184.2 183.3 182.1 180.3 179.7 178.3 176.7 175.1 173.5 171.8 170.6 169.7 169.8 169.8 169.6 167.9 165.9 166.9 167.2 169.9 169.2 169.2 170.9 172.5 172.9 171.6 171.1 170.9 170.6 170.2 169.3 168.7 168 167.3 165.3 164.1 163.3 162.4 161.5 160.9 160.1 158.7 157.2 157.2 155 156.1 156.3 156 156.7 156.9 156.5 155.8 154.7 153.3 153.6 153.7 153 152.4 151.3 150.6 150 149.2 148.5 148.6 147.8 147.3 146.7 146.5 146.1 145.8 145.7 145.5 143.8 144.4 143.5 141.9
244 249.1 256.9 262.1 267.3 273.3 279.2 284.7 290.4 295.9 298.7 301.2 304.4 307.9 311.3 314.2 317.1 319.1 320.3 321.3 322.1 323 322.4 322 321.7 321.7 321.4 320.8 319.4 318.6 318.2 317.3 316.4 315.5 315.6 315.7 314.6 313.9 313.5 312.5 310.9 308.9 309 305.9 305 303 299.5 297.4 295.7 293.6 292.5 291.5 289.3 287.4 284.3 281.2 279.2 277.3 273.5 270.3 268.5 267.9 266.3 263.6 262.6 260.1 256.6 255.7 254.8 252.8 251.3 249.8 248.3 246.5 245 242.3 239.5 236.6 234.3 232.9 231.7 231.1 230.6 230.1 228.4 227 224.8 224.2 222.5 222.4 222.7 219.2 213.6 218.1 217.1 216.5 216.6 215.7 214.6 213.1 211.6 210.1 209 208.4 208.5 206.3 205.1 204 203 201.7 200.4 199 198 196.9 196.1 195.2 194.3 193.6 192.6 189.9 188.6 187.4 187.1 185.6 184.8 184.2 183.5 183.1 181.7 181.7 180.1 177.4 175.3 173.6 173.5 172.5 172.7 172.6 172.6 170.8 169.6 170.6 172.3 174.3 173.1 173.7 173.7 173.6 173.8 172.9 173.2 173.4 174 173.8 172.6 171.2 169.9 169.1 167.8 167.1 166.2 165.4 164.6 163.6 162.8 161.4 160.2 161.2 159.2 158.1 157.7 159.3 159 160 159.5 158.6 157.6 156.8 156.1 155.5 154.5 154 153 152.7 152.1 151.4 150.9 150.3 150 149.9 150.4 151.2 150.9 149.3 148.7 149.3 147.2 146.9 146.7 145.8
239.2 242.8 248.3 253.4 258.7 264.6 270.8 276.2 281.3 287.1 292.3 295.4 298.9 302.8 306.1 309.5 312.9 315.5 316.5 317.6 318.6 318.7 318.2 317.7 317.3 317.3 317.4 316.6 315.2 314.9 314.6 314.2 313.3 312.5 311.4 311.7 311.1 310.4 311.1 310.2 308.4 306.8 305.2 302.9 302 299.7 295.7 292.9 291.5 289.9 287 287.8 283.3 281.1 276.6 275.6 273.3 271.6 270 269 266.5 264.4 262.9 262 261.5 259.4 255.6 256.5 254.3 251.5 249.4 247.4 247.1 245 244.3 241.9 239.5 236.9 233.9 231 229.3 228.9 228.5 228 226.8 224.7 225.7 224.2 222.7 220.2 217.4 216.5 218.4 219 218 217.7 217.6 217.9 215.8 214.7 213.2 211.7 211 210.5 209.7 208.6 207.4 206.3 205.2 203.7 202.4 201 200 198.9 198.1 197.3 196.5 195.6 193.9 192.6 191.1 189.8 189.3 189.1 187.9 186.5 186.1 185.1 185.2 184.3 182.6 180.2 177.9 177.6 176.2 176.4 176.4 176 175 175 174.6 175.5 176.5 176.6 176.1 175.5 175.4 175.3 175.3 176.3 176.8 176.2 176.7 175.9 174.7 173.6 172.7 171.8 171.2 170.6 169.7 169.2 167.8 166.8 165.9 164.7 164.9 164.9 161.9 162.3 161.2 162.7 162.7 163 162.2 161.1 159.9 158.8 158.1 156.9 156 155.5 155.1 154.8 154.2 153.6 153.5 153 153.5 153.9 153.9 153.9 154 153 152.3 150.2 150.1 149.7 149.5 148.5
232 236.9 239.3 245.5 251.1 256.6 261.2 266.3 273.2 278.8 283.6 288.4 293.5 297.5 301 304.4 307.8 310.7 312 313.3 314.5 314.5 314 313.4 312.9 312.8 313 312 311.7 311.4 311.1 310.8 310.4 309.8 308.5 307.7 307.1 307.2 307.8 307 304.7 303.3 301.9 299.9 298.7 296.3 292.5 289 287.7 286.4 282.5 283 280 277.2 278 277.3 275.7 274.8 271.8 268.6 266.1 266.2 263.2 263.6 260.8 258.6 254.1 252.4 252.6 251 248.6 247 246.7 241.7 241 239.9 238.7 235.3 232.2 231.8 232.1 231.2 228.9 227.5 226.8 227.1 225.5 223.3 222.8 220.8 220.5 220.8 220.8 220.6 219.9 219.5 219.1 217.8 216.2 216.2 214.7 213.4 212.9 212.4 211.5 210.7 209.6 208.5 207.5 206 204.4 203.2 202.1 201 200.2 199.4 198.5 197.7 196.6 195.1 193.6 192.2 192 191.2 190.2 189.3 188.4 187.9 187.5 186.5 185 183.8 181.6 180.2 179.5 180.6 180.2 179.2 179.1 178.7 177.7 177.9 178.4 178.4 177.9 176.8 177.1 177.5 178.5 179.6 179.6 179.3 179.3 178.5 177.6 176.6 175.7 175 174.4 173.8 173.7 172.8 171.3 170.1 169 168.2 167.8 167.7 164.8 165 164.9 166.6 167 165.9 164.7 163.6 162.2 160.9 160.1 158.9 157.8 156.7 156.5 156.8 156.4 156.4 156.7 157.9 158.7 158.7 157.6 157.7 157 154.9 154.2 153.1 152.9 152.5 151.8 150.6
226 231.6 233.6 237.5 242.7 248.6 253.2 258.3 263.6 269.1 273.9 279.8 285.5 291.1 295.8 298.5 301.2 304.2 306.5 307.7 308.9 309.5 309.2 308.9 308.5 308.5 308.8 308.4 309 308.7 308.5 308.4 308.3 307.3 306.4 304.1 303.5 304.8 304.8 303 301.4 300 298.6 296.8 295.3 293 289.3 286.5 284.8 283.5 280.4 278.6 276.9 275.7 276.1 275.1 272.4 270.2 266.3 264.3 263 265 265.9 261.8 257.8 254.2 254.6 253.9 253 252.4 250.4 247.6 246.4 246.4 242.2 240 237.3 233.6 235 236.8 235.1 234.2 233.3 232 230.8 229.6 228.5 226.3 225.3 223.7 222.9 222.7 222.8 222.3 221.8 221.4 219.9 218.2 216.1 216.8 216.3 215.3 214.3 213.4 212 211.1 210.7 210.3 209.5 208.6 206.4 205.2 204.1 203 202.2 201.5 200.6 199.1 198.1 197.6 196.1 194.7 194.3 193.3 191.7 191.1 190.7 190 189.4 187.4 186 184.6 184.2 183.9 183.3 182.8 182.3 181.7 180.7 179.8 180.3 179.4 179.9 179.5 179.4 179 179.2 180.4 181.6 182.7 183.2 182.8 181.6 181.4 180.6 179.6 178.9 178.2 177.5 177.3 177 175.3 173.5 172.3 171.1 170.3 169.5 168 167 167.2 169.3 169.8 169.7 168.6 167.5 166.6 165 163.4 162.1 161.2 160.2 159.6 159.9 160.1 160 161 161.7 161.4 160.8 161.4 160.7 159.8 158 155.9 156.5 155.6 154.7 153 153 151
220.8 224.8 226.9 232 235.7 239.8 244.7 249.4 254.2 259.4 265.3 271.1 277 282.6 287.6 291.8 294.7 297.7 300.7 302.2 303.2 304.2 304.2 304.2 304.4 304.5 305.5 304.8 306.4 306.3 306.2 306.3 306.1 305.4 303.2 301 301.3 302.2 301.4 300 298.4 296.9 295.3 293.8 292.3 289.7 286.6 284.1 282.3 280.6 278.5 276.6 275 273.8 272.3 270.8 273.7 272.5 268.5 268.3 263.9 261.2 260.7 256.8 255.6 255.2 254.9 252.2 250.7 249.8 249.3 247.4 246.7 245.1 242.6 239.7 236.8 240.3 240.7 239 237.2 236.3 235.3 234.1 232.7 231.4 230.1 229 227.7 226.7 225.9 225.1 224.7 224.9 222.8 220.9 219.1 217.5 216.2 216 217.3 216.2 214.8 213.4 212.2 211.4 211.1 210.6 209.7 209.4 207.5 206.9 206.1 205 204.3 203.5 202.3 200.3 198.9 199.5 198.9 197.2 196.4 194.8 193.1 191.5 189.7 190.1 192.3 189 187.4 186 186 185.8 185.8 184.8 183.6 183.1 182.6 181.8 181.5 181.4 181.2 180.1 180.4 181 182.2 183.4 184.6 185.7 186.4 185.8 185.2 184.5 183.4 182.7 182.1 181.5 180.5 178.5 178.8 177.4 175.7 174.4 173.3 172.1 170.3 169.8 170.1 170.5 171 171.5 172 171.4 170.8 169.7 168.1 166.8 165.9 165.2 164.3 164.3 164.3 164.4 163.7 164.5 165.1 163.9 163.7 163 161.9 161.2 160.3 159 158.2 157.3 156.7 154.9 149.6 151.5
213.6 217.8 220.8 224 229 231.8 236.1 240.8 245.5 250.1 256.5 262.5 268.4 273.8 278.9 284.3 287.3 290.4 293.7 296 297.6 298.7 299.8 300.3 300.5 300.6 301.4 303.1 304.2 304 303.9 304.4 304.7 302 300.1 299.7 299.3 298.9 298 296.9 295.4 294 291.9 290 288.5 286.7 283.9 281.6 279.8 278.5 277.9 277 275.5 273.9 271.4 271.1 271.2 268.3 267.8 267.5 265.2 262.8 258.8 258.3 256.6 253.7 250.2 248.4 247.5 247.5 246.1 243.5 240.7 240.2 241.3 240 241.5 241.6 241.6 241 239.5 238.5 237.5 236.1 234.8 233.5 232.2 230.8 230.8 230.1 229.3 228 227.2 227.4 225.8 224.4 222.9 220.9 218.1 215.1 215.8 214.1 214 213.2 212.3 211.9 211.7 210.7 210.1 210 208.4 207.8 207.4 207 206.1 205.2 203.5 201.5 200 200.3 200.9 200.5 197.9 196.2 194.4 194.7 193.9 191.6 188 188.6 188.5 187.8 187.1 186.4 186.1 184.9 183.9 184.6 184.1 183.4 182.7 182.5 181.7 180.6 181.7 183.5 185.1 186.4 187.5 187.7 187.8 187.2 186.6 186 185.4 185.3 184.6 184.2 182.9 181.3 179.5 178.2 177.8 175.5 174.4 173.5 171.9 171.8 172.4 172.9 173.4 173.9 174.4 174.5 174.2 172.9 171.6 170.4 169.7 169 168.1 167.8 167.8 168 167.5 165.4 163.6 165.2 164.7 163.6 163.2 162.2 161 159.8 158.8 157.8 155.2 152.4 154.1 155.7
203.2 209 213.4 216.5 221.9 225.4 228.8 232.1 236.6 241 246.7 253.1 259.3 265.6 271.1 276.5 279.2 282.5 286.4 289.4 291.5 293.1 294.9 295.5 296 296.4 298 300.7 301 302.5 302.6 302.5 300.6 299.1 297.4 296.6 296.2 295.6 294.7 293.8 292.3 290.5 288.4 285.8 283.6 281.8 280.8 278.9 278.1 277.5 276.9 276.2 274.6 272.7 270.5 268.9 267.8 267 266.5 264.3 263.3 259.9 256.8 255.2 253.6 253.2 252.3 251.6 248.4 245.4 243.4 241.7 245.8 246.8 246.3 243.9 243.9 243.6 243.4 243 241.5 242.4 241 239.7 238.3 235.5 232.8 233 233.6 232.4 231.5 230.2 229.3 228.1 225.6 223.3 222 219.8 218 216.1 214.1 214 213.5 212.1 210.7 210.8 211.6 211 210.6 210.2 208.7 207.8 207 206.2 207.5 205.6 204.8 203.7 201.5 200.7 200.9 201.1 199 195.6 193.8 193.6 192.9 191.2 188.5 189 187.5 188.6 187.9 187.1 186.2 185.5 183.9 184 184.7 183.4 183.5 182.8 182.1 181.7 183.5 185.3 187.1 188.3 188.4 188.5 188.6 188.6 188.1 187.5 187 187.2 186 184.6 183 181.5 179.9 178.3 176.8 176.2 175.8 175 173.9 174.4 175.1 175.6 176.1 176.6 177.1 177.2 177 176.3 175.2 174.2 173.4 172.5 171.6 170.3 168.5 169.2 169.9 168.4 167.2 164.2 163.7 163.3 162.5 160.7 160.7 159.4 157.3 155.4 156.9 157.2 157.3 157.6
197.3 203 206.2 209.4 214 217 220 224.5 228.3 232.3 236.7 243.6 250.7 256.6 262.4 268.7 271.5 275.2 279.1 282.6 284.8 286.9 289.4 290.7 291.4 292.4 296 296.3 297.7 298.2 297.7 297.8 296.3 295.5 294.5 292.9 293.1 292.4 291.4 290.4 288.2 285.8 283.8 281.7 278.9 277.8 277.4 276.9 276 274.5 274.2 274 271.4 269.7 268 268.2 267.1 266.1 263.5 261.1 258.5 256 254.6 253.9 253.5 253.2 253.7 250.7 247.4 245.1 243.3 247.1 247.6 247.6 247.4 247.2 246.3 246 245.9 245.2 246.5 245.6 243.8 240.8 237.8 234.8 234.9 235.1 235.1 233.4 232.2 231.5 230.8 228.9 226.2 224.7 221.7 220.1 219.1 216.8 215.8 213.5 212.6 211.3 211.3 210.5 209.6 208.9 207.9 206.9 206.6 205.5 205.3 204.2 204.2 202.9 204.2 205.8 201.7 201.5 203.1 200.3 198.7 197.2 194 191.7 190.3 188.5 187.9 190.4 187.3 188.5 187.9 187 185.8 185.6 184.1 183.4 183.7 182.7 182.5 182.6 182.8 183.3 185 186.7 188.3 189 189.2 189.3 189.4 189.5 189.4 188.8 188.3 187.4 185.8 184.2 182.7 181.2 179.6 178.4 177.9 177.6 177.2 176.4 176.4 177 177.7 178.4 178.8 179.3 179.8 179.9 179.6 178.8 178.2 177.2 176.4 175.7 174.9 172.9 172.4 171.3 169.6 167.9 166.2 165.6 166.3 164.7 162.1 161.4 160 158.5 158 158.6 159.7 159.6 160.2 160
190.6 196 200.5 203.7 207.4 211 212.8 217.1 220.7 223.3 230.3 236.1 242.6 248.4 253.6 259.6 265.1 269.3 271.9 275.4 277.2 279.9 282.8 285.4 287.3 288.6 290.5 291.5 291.3 292.2 292.2 292.3 292 291.4 290.2 288.7 286.9 287.8 287.7 286.3 283.9 281.6 279.9 278.3 277.2 276.6 275.8 275.2 274.6 273 271.5 270.2 269.4 269.5 268.4 268 265.6 262.3 259.5 258.2 257.3 255.1 253.7 255.1 255 252.9 248.7 247 246.3 246.6 244.3 248 248.5 251.1 250.2 249.6 250.4 249.1 248.5 247.6 246.4 244.9 243 240.1 237.1 236.9 236.9 236.6 236.3 234.3 232.6 232 230.7 229.3 227.3 225.2 223.6 221.8 219.7 218.3 216.8 213.8 211.8 211.7 211.5 211.3 210.4 209.5 208.7 207.7 206.3 205.1 204.7 203.5 202.1 201.5 202.5 200.7 200.3 202 200.8 199.2 198.8 197.3 194.9 193.7 192.7 188.3 188.4 189.7 188.8 185.6 188.5 187.6 186.3 185.5 184.4 182.6 182.3 182.9 182.9 183.3 184.4 185.2 186.3 188 189.2 189.8 190 190.2 190.2 190.2 189.3 188.3 187.5 187 185.4 183.9 182.4 180.9 180 179.4 178.8 178.6 178.5 178.3 179 179.7 180.3 181 181.5 182 182 181.7 181.7 180.3 180.9 179.5 178.4 177.5 176.6 174.7 173.7 171.8 170.5 169.2 168.6 167.5 166.3 164.7 163.4 163.3 161.8 160.4 161.1 160.7 161.5 162.2 162.5 162.1
184.6 185.5 192.2 196.9 198.6 203.4 204.5 208.4 210.1 217.6 223.2 229.4 235.7 240.7 245.9 250.9 255.4 259.5 264 268 270.8 273.1 276 278.6 282.3 281.7 284 283.1 284.2 285.5 285.8 285.7 285.7 284.7 283.5 282 282.7 282.2 284 281.4 280 278.9 277.7 276.4 275.8 275.1 274.3 273.5 272.9 271.6 270.8 270.4 269.6 267.7 267.3 266.1 261.9 258.4 256.9 257.1 256.4 254.2 252.7 253.7 252.6 251.3 249.3 248.1 247.6 244.9 248.5 249.8 249.7 254 253.8 251.8 251 250.3 248.6 247.1 245.3 243.5 241.7 239.4 238.7 238 236.9 235.7 235.1 233.8 233.2 232.1 230.7 229.4 227.9 224.6 222.6 220.5 218 217.8 216.4 214.6 212.8 211.1 211.6 211.5 210.1 209.5 208.4 207.4 206 204.7 204.5 202.8 201.5 200.3 201.8 202.5 198.8 198.9 199.7 199.3 198.9 195.2 193.7 193 191.8 189.9 187.4 188.9 188.4 184.7 187.1 186.4 185.7 185 184 181.8 182.4 183.1 183.6 184.6 185.7 186.7 187.6 189 190.1 190.6 190.8 191 190.9 190.1 189.2 188.3 187.3 186.3 185.1 183.5 182.3 181.9 181.3 180.9 180.7 180.9 181.1 181.1 181.7 182.4 183 183.6 184.3 184.2 184 183.7 183.3 182.5 182 180.8 179.6 178.2 176.5 175 173.7 172.1 170.9 169.9 169.4 169.4 168.6 167.3 165.7 164.7 163.7 163.3 163.5 163.5 163.3 163.6 161.3 160.4
182.7 182.7 183.6 189.2 194.1 197.9 197.5 202.2 205.7 212.2 216.6 223 228.4 233.1 237.3 243.2 247 251.9 256.4 260.3 261.5 264.8 268.3 272.2 275 273.9 274.5 276.2 277.5 278.7 279.5 279.4 278.5 277.5 276.5 275.6 277.2 276.7 277 276.2 275.5 274.2 273.1 271.4 270.7 270.8 270.4 270.7 269.9 269.2 268.5 267.9 266.7 265.5 263.4 258 254.6 256.2 257.1 253.7 254.4 251.8 250.6 250.3 249.9 249.7 249 248.2 246.7 244.7 251.4 252.1 251 252 250.6 249.7 248.8 247.7 246.9 245.4 243.6 241.8 239.9 238.3 236.9 235.7 234.6 233.8 232.5 231.5 230.3 229.3 229.5 229.9 228.5 224.4 222.2 222.1 219 217.4 216.5 213.3 212.6 211.6 209.5 208.9 208.9 208.6 207.4 206.8 206.4 205 204.1 203.2 202.8 200.8 199.4 200.3 198.6 197.6 197.8 197.6 195.5 195.5 193.7 192.2 190.9 189.9 187.3 188.3 188 184.5 186.5 185.4 185.4 183.7 184.1 181.4 182 183.5 184.9 186 187 188.1 189 190 190.9 191.2 191.4 191.6 190.9 190 189.2 188.2 187.2 185.1 184.7 184.2 183.7 183.3 183.1 183 182.8 183.1 183.6 184.1 184.7 185.3 185.9 186.5 186.2 185.5 184.9 184.6 184.1 183.6 182.5 181.3 179.6 177.9 176.6 175.9 175.3 173.5 172.5 171.5 171.4 171.3 170.5 169.4 168.1 166.7 166.7 166.8 166.3 166.2 166.1 165.4 163.9 163.6
195.5 186.6 183 180.3 180.5 180.8 189.4 194.1 197.5 202.4 209.5 212.4 219.8 224.2 230.6 234.7 239.7 242.7 247.6 250.8 255 256.4 260.4 265.8 265.2 264.9 266.5 268.2 269.8 271.7 272.4 272.5 271.4 270.5 269.5 269.3 271.9 271.5 270.6 270.4 269.7 268.4 267 265.2 265.3 265.4 265.7 266.2 265.5 265.1 263.8 263.6 259.3 255.2 254.5 250 248.3 249.5 249 247.5 248.8 248.9 248.2 247.8 247.5 247.2 246.6 246 246 244.9 248.6 253.5 251.8 248.9 247.9 247 246 244.8 243.8 243 241.6 239.8 238 236.4 234.9 233.5 232.4 230.8 229.3 228.4 227.3 227 227.1 226.4 225.3 222.7 222.8 220.3 219.5 217 214.3 213.5 212.2 213.3 210.6 209.2 207.6 206.1 204.7 203.9 203.9 203.5 203.1 201.8 200.2 199.6 197.5 199.6 199.9 197.7 197.4 197.4 194.5 192.2 197.2 192.2 191.9 190.4 188.2 185.6 187.5 187.1 183.8 185.1 185.3 183.2 184.1 180.8 182.5 184.7 186.3 187.4 188.3 189.1 189.9 190.9 191.3 191.6 191.8 191.7 191.4 189.9 189.1 188.1 186.9 186.6 186.2 185.8 185.3 185.2 185.1 185.1 185.1 185.9 186.6 187 187.7 188.3 188.7 188.7 187.9 187.2 186.5 185.8 184.5 184 182.8 181.2 180 179.1 177.7 177.2 176.9 175.9 174.3 173.5 173.3 173.2 172.3 171.4 170.3 168.9 168.3 168.8 168.6 167.9 167.3 166.6 165.9 165
201.2 195.8 196 191.9 184.3 182.3 180.6 177.9 181.9 190.5 196 204.6 210.6 215.8 221 226.1 231.1 231.6 234.5 239.4 245.2 248.2 251.8 254.7 256.1 257.1 258.4 260.1 262.1 264 264.9 265.5 264.3 263.3 262.4 264.4 265 263.9 264.4 261.4 259.4 258.4 258.7 259.6 259.8 259.9 257.9 255.7 254.2 257 252.2 251.3 249.2 251.5 248.6 247.4 246.7 246.7 245.9 244.9 245.3 246.1 245.7 245.4 245.1 244.8 244.2 243.6 245.3 242.7 242.3 247.4 247.1 245.8 245.1 244.3 243.2 241.9 240.8 239.9 239.1 237.8 236.2 234.6 232.7 230.7 228.8 227.4 226 225.3 224.6 224 224.5 223.8 221.9 221 220.7 218.1 216.2 216.1 215 213.9 212 212.4 210.7 209.1 208.1 208.4 206.8 204.9 204.3 202.5 201.1 200.8 198.9 197.9 197.4 196.4 195.4 195.2 194.6 195 196.3 194 191 190.3 189.4 191.2 191.7 187.1 184.5 185.9 183.9 184.1 183.5 182.5 182.8 180.3 183.3 185.9 187.7 188.5 189.3 190.1 190.8 191.3 191.7 192.1 191.7 191.2 190.8 190.1 189 188.7 188.4 188 187.7 187.3 187.3 187.4 187.4 187.4 187.4 188.3 189.3 190 190.6 190.8 190.8 190.5 189.5 188.8 188.2 187.3 185.9 184.4 183.5 182.6 181.7 180.8 179.6 178.8 178.5 177.7 176.4 175.5 175.3 175.1 174.2 173.3 172.4 171.5 170.8 170.1 169.8 169.1 168.1 167.5 166.3 165.8
199.4 206.7 211.2 202.5 196.8 195 186.8 182.7 176.6 178.2 181.7 193.6 202 207.5 212.7 217.1 217.6 222.1 227.8 231.6 233.5 238.3 239.2 240.1 243.2 245 250.3 252.3 255 256.4 257.6 257.9 257.4 256 255 257.3 259 256.7 259.7 257.3 254.1 254.9 256.3 253.7 255.1 255.7 254.9 254.4 252.6 252.3 249.9 246.7 247.6 246 247.1 246.6 245.7 243.6 243.5 242.7 243.4 243.6 243.1 242.4 241.8 240.7 240.4 240.6 241.5 246 244.4 239 239.6 239.5 238.9 238.1 236.9 236.8 234.5 233.9 233.4 232.8 232.7 231.3 229.2 228 227.4 224.2 223.5 223.4 222 222.4 222.3 219.2 219.1 216.4 214.5 214.7 214.7 214.1 213.4 213.2 211.9 210.7 209.7 209.2 208.6 207.7 206.3 206.8 205.8 204.6 204.3 204.1 202.6 201.2 199.9 197.7 196.1 195.9 194.9 192.9 192.4 192.1 189.8 188.8 195.4 192.1 193.7 191.7 188.1 185.4 182.4 184.3 184.9 183.8 180.9 180.3 185.4 187.8 188.7 189.4 190.2 190.9 191 191.3 191.7 191.7 191.6 191 190.3 189.8 189.6 189.3 188.9 188.6 188.5 188.6 189.3 189.7 189.7 189.7 189.7 190.6 191.7 192.7 193.5 193.3 193 192.1 191.2 190.5 189.8 188.9 187.4 186.6 185.5 184.4 183.5 182.4 182 180.9 180.1 179.5 178.3 177.7 177.4 176.9 176 174.9 174 173.3 172.1 171.3 171 170.8 169.2 168.1 167.8 166.2
208 208.3 207.2 203.9 204.1 202.9 197 198.5 193 180.5 176 177 184.5 196.9 203.1 205.6 210.6 216.3 220.8 224.9 227.6 229.4 231.2 234.3 237.2 241 244 245 246.3 248.1 249.8 250 250.2 253.1 250.9 251.8 252.5 251.7 254 250.9 251.4 253.7 252.7 251.8 250.1 250.8 250.3 250 248.5 246 244 242.5 241.9 244.8 244.3 243 242.8 242.1 241.1 240.2 240.9 240.7 239.5 238.8 238.1 236.7 236.2 236.4 238.3 238.3 238.1 238.2 236.8 236 232.3 232.7 232.6 231.3 228.7 227.5 226.8 226.1 226.1 227 230.4 230.3 229.9 225 224.4 225.3 224.5 220.7 220.1 218 214.1 217.3 215.5 215.2 214.3 210.6 211 206.5 210.2 209.6 209.1 208.5 207.6 208.5 206.2 206.1 204.6 203.9 203 202 201.6 200.8 199.4 197.4 196.2 195.6 194.8 194 194.4 192.1 189.5 187.3 184.7 184.6 184.1 187.1 190.6 187 185 181.4 181.6 183.6 186.4 178.9 182.5 188.1 189 189.8 190.4 190.8 191 191.2 191.2 191.2 191.3 190.9 190.3 190.1 190.1 189.8 189.5 189.7 189.8 190 190.7 191.4 192 192 192 192.9 194 195 195.3 195.1 194.6 193.8 192.8 192.2 191.5 190.4 189.6 188.7 187.8 186.5 185.3 184.6 184.4 183.1 182.1 181.3 181.4 180.6 179.5 178.2 177.1 176.3 175.7 175.1 174.1 173.1 172.6 172.2 171.3 170.1 169.5 167
214.4 211.8 211 209.3 208.5 203 205.3 203.3 200.1 200.3 187.1 185.3 174.8 176.6 187.6 197 202.6 205.7 211.7 211.9 217 220.3 225.4 228.8 230.2 232.9 235.5 235.2 237.2 239 240.2 241 243.1 244.5 245.9 247.4 246.4 245.3 245.3 245.5 247.9 247.9 248.6 247.9 247.8 245.7 245.2 245.5 245.8 243.1 239.9 239.3 240.2 241.7 242 239.5 240.6 239.8 238.8 237.9 237.8 237.3 237.1 235.5 233.9 232.7 232.5 232.2 233.9 234.8 235 234 232.9 231.4 227.6 227.5 228.1 225.7 223.4 220.7 220.1 219.5 221 223.5 223.4 223.6 222.5 221.9 220.9 220.3 221.6 220.7 218.8 218.4 215.3 213.1 212.1 209.7 210 209.1 207.9 208.7 203.4 207.2 207.7 206.8 205.7 207.9 206.4 204.1 203.9 203.2 202 201.7 200.8 199.8 197.8 196.8 195.7 195.1 194.7 193.1 192.1 190.7 189.5 187.3 185.1 183.4 182.2 181 180.9 186.6 187.9 182.1 180.8 180.4 180.1 179 182.6 187.6 188.7 189.7 190.1 190.5 190.8 190.8 190.7 190.7 190.8 190.8 190.3 190.5 189 190 190.5 190.7 190.8 191 192 192.7 193.5 194.2 194.3 195.2 196.2 196.5 196.3 196.2 196 195.2 194.3 193.6 192.9 192.3 191.7 190.8 190 188.9 187.4 187 186.5 186 185.3 184.7 183.6 182 180.9 179.6 178.5 178 177.4 176.7 176.1 175.1 174.7 174.3 173.5 172.4 171.4 170.7
216.2 214.8 213.7 212.9 209.2 207.9 208.2 205.5 202.9 199.9 201 198.9 191.6 175.8 173.3 180.1 189.8 196.4 200 205.5 209.8 214.8 217.4 219.9 222.4 222.6 224.2 225 226.8 229.5 230.4 230.7 236.5 237.8 240.1 241.9 242.5 244 242.6 243.3 243.5 242 242.1 243.5 244.5 244.2 242.4 240.4 238.7 239.5 238 236.5 236.5 237.7 236.6 235.2 236.3 235.4 233.6 234.8 233.8 233.9 234 234 232.9 230.5 230.3 231.5 231.5 230.4 229.3 228.3 227.4 225.3 223.1 222.7 222 220.9 217.5 217.1 216.2 215.7 216.6 219.8 220.8 219.5 218.4 217.6 217.1 217.4 215.6 213.4 211.8 210.3 209.6 209.5 207.7 207.5 204.3 209.8 210.3 211.3 208.4 200.7 201.9 199 197 196.5 198.6 201.4 202.4 201.7 200.4 199.5 198.2 195.8 194.6 193.4 193.6 193.9 192.8 191.2 190.2 188.9 187.7 187 184.1 182.9 181.6 180.6 179.6 179 186.7 186 182.4 180.4 180.3 178.1 182.1 186.6 187.5 188.2 188.6 189.2 190.1 190.3 190.2 190.2 190.3 190.4 190.4 190.3 187.7 189.9 190.8 190.8 191 191.7 193 193.8 194.6 195.3 196.1 196.5 196.7 197 197 196.8 196.7 196.2 195.4 194.8 194.1 193.5 192.9 192.3 191.7 191 189.4 189 188.2 187.6 186.9 186.1 184.9 183.4 182.2 180.7 180 179.5 178.9 178.4 177.8 177.1 176.8 176.4 175.7 174.6 173.6 172.8
221.6 219.1 217.5 215.3 213.5 212.6 210.5 207.2 204.8 202.6 202.3 200 192.1 193.5 181.2 172.9 173.1 178.6 188.9 197.1 201.6 204.2 208.5 210.2 210.5 213.9 213.7 215.4 216.4 219.8 221.2 218.7 226.6 230.2 231.9 234.3 236.8 236.6 239.2 240 238.2 237.4 236.8 239 239.1 238.1 235.1 233.1 234.5 234.2 235.4 235.2 234.4 232.1 231.9 232.8 231.2 231.3 229.7 231.5 233 232.2 230 227.1 226.2 227.2 226.1 225.8 226.6 226.1 226.2 226 225.4 223.3 219.9 218 216.7 215.8 216.5 215.8 214.9 214.9 215.3 216 216.5 216.8 216.7 215.9 214.6 213.8 213.9 213.6 210.4 209.6 212.8 211.6 211.5 211.9 208.1 205 201.5 201 200.5 199.1 199.2 198.8 200.9 200.9 198.4 196.1 194.5 198.2 199.7 199.1 197.2 196.5 193.9 193.2 192.5 189.1 189.5 189 188 187 186 185.4 183.4 182.3 181 180 179.1 178.2 177.9 177.8 183.6 178.3 179.8 175.7 179.1 181.9 185.1 185.7 186.8 187.6 187.7 189.5 189.8 189.8 190 190 189.9 189.6 187.5 188.7 190.8 191 191.7 192.2 192.2 193.3 194.5 195.2 196 196.4 196.7 196.9 195.7 197.2 197.4 197.2 196.6 196 195.4 194.7 194.1 193.5 192.9 192.3 191.5 190.5 189.8 189.2 188.3 187.2 186 184.8 183.3 182.1 181.5 181 180.4 180 179.6 179.2 178.9 178.6 177.8 176.8 175.9 175.3
226.8 223.3 221.6 216.7 217.1 214.7 211.6 208.7 207 205.4 204.4 201.9 201.8 201.7 196.7 189.7 181 174 172.4 179.6 192.8 196.9 199.2 199.5 200.8 202.4 202.2 204 204.2 207.3 208.2 205 215 218.8 223.2 227.5 230.2 232.1 233.5 234.4 233.6 231.8 229.9 228.9 229.4 229.5 229.8 229 229.6 230.2 229.5 229.4 229.6 227.4 228.3 225.6 224.6 227.3 224.2 226.7 227.8 228 226.5 224.3 221.7 222.3 221.9 221.4 221.2 223.1 223 223.3 222.4 219.4 215.4 214.6 213.2 212.6 215.4 214.9 213.6 213.1 213 212.5 212.5 212.5 212.2 211.9 211.3 210.6 210.9 210.4 210.7 211.1 211.4 211.3 209.4 209.8 209.2 208.9 208.5 207.3 205.8 202.5 200.8 199.7 200.7 201.5 199.6 199.3 196.7 189.7 191.9 193.4 193.5 193.3 191.1 190.9 186.2 186.9 186.3 185.8 184.5 185 184.3 183.8 182.7 181.7 180.4 179.5 178.5 177.1 176.3 176.9 177.9 176.7 182.2 177.1 175.2 177.5 182.1 182.3 182.6 182.9 183.8 184.9 185.1 189 188.1 187.4 187.8 188.5 186.2 189.3 189.7 190.2 191.1 191.4 191.5 192.5 193.7 195 195.9 196.3 196.6 197.1 195.5 196.5 196.5 197.1 197 196.6 196 195.4 194.8 194.1 193.5 192.7 192 192 191.2 190.3 189.3 188.1 186.9 185.7 184.1 183.7 183.3 182.9 182.5 182 181.6 181.3 181.1 180.7 180 179.1 178.4 177.8
