ncols 200
nrows 82
xllcorner 320000
yllcorner 780850
cellsize 50
792.5 801 812.4 827.9 831.1 839 843 845 842.3 836.6 842.9 859.2 868.3 885.9 898.6 910.4 916 915.7 918.5 918 913 935.8 950 959.2 963.2 968.3 972.8 979.5 989 999.7 1011.6 1021 1033.3 1037.5 1036.9 1034.5 1030.2 1020.5 1008.1 998 992.2 991.5 994 997.4 1004.3 1011.7 1022.8 1033 1045.2 1056.8 1067.7 1075.9 1080.9 1083.1 1083.2 1082 1081.2 1080.3 1079 1076.7 1074.6 1072.3 1070.5 1067.8 1061.3 1054.1 1045.3 1041.8 1039.5 1038.5 1041.1 1046.7 1050.7 1050.4 1046.8 1043.6 1041.6 1040.6 1039.9 1038.4 1036.1 1032.9 1027.6 1021.9 1018.6 1022.2 1023.7 1022.7 1021.8 1021.3 1020.6 1018.9 1017.3 1014.6 1011.3 1007.3 1000.4 991.2 986.6 983.1 978.1 965.8 956.9 954.4 959 963.9 970.4 980.3 989.7 996.3 1002.8 1010.8 1020.5 1029.9 1041.6 1051 1059.3 1067.2 1072.1 1078.6 1080.3 1066.9 1049.5 1029.6 1014.6 992.1 970.4 948.5 923.9 901.2 877 857.6 841 824.6 811.9 798.3 789.1 780 773.2 763.1 749.4 733.5 722.2 713.6 706.9 702.1 699.4 697.5 697.3 696.9 693.5 689.7 688.4 684.7 679.8 676.4 672.9 670.7 669.5 666.9 661.4 655.4 645.3 629.2 620 614.6 607.7 606.3 604 602.2 601.5 599.9 600.5 600.2 599.2 601.1 607 612.8 619.5 625.4 628.4 628.6 624 617.5 607.7 576.8 542.7 513.3 485.6 463.8 446.9 434.3 419.2 401.7 400.8 400.8 400.5 400.3 400.2 399.8
809.1 819.3 832.3 842.7 850.6 851.7 863.3 863.7 864 862.4 857.6 879.5 890.9 901.7 914.7 924.6 931.1 930 929.3 929.5 929.2 933.5 954.6 961.6 965.8 972.7 978.7 987.8 999.4 1009.2 1021.6 1030.8 1039.9 1041.9 1038.9 1034.2 1027.6 1015.4 1004 994.8 988.5 987.8 991 995.2 1002.2 1010.3 1019.1 1032.1 1041.9 1054.6 1066.6 1075.7 1080.4 1082.9 1082.1 1080.8 1080.2 1079.4 1078.1 1076.8 1075.7 1073.7 1073 1070.8 1067 1062.1 1056.6 1050.6 1046.9 1045.7 1048.3 1051.8 1053.9 1053 1049.5 1044.6 1040.5 1037 1034.7 1031.1 1029.9 1027.7 1022.8 1018.9 1016.3 1017.1 1018.3 1018.3 1017.3 1015.3 1014.7 1016.2 1016.4 1016.6 1015 1011.1 1004.1 997.1 992.2 987.8 980.1 971.7 959.3 947.2 944.8 950.4 957.1 964.8 974.6 983.2 990.8 998.3 1007.8 1020.1 1030.4 1039.5 1049.8 1058.7 1064.8 1073.1 1070.2 1059.6 1044.1 1025.3 1007.1 989.4 968.2 947.8 923.3 904.7 881.6 862.7 846.1 831.5 817.2 804.7 792 781.5 772 761 745.6 731.2 722.8 714.9 709.3 704.4 700.9 698.9 696 696.3 693.8 690.1 687 684 680 675.1 670.5 667.6 664.5 660 654.7 649 641.4 636.8 637.8 631.5 627.8 623.3 620.5 617.4 617.9 615.6 615.1 614.3 616.9 620 621.1 623.8 626.2 628.6 630.3 630 626.1 619.4 601.9 567.4 534.6 507.4 482.7 460.5 443.3 429.9 413.7 402 401.3 401.1 400.9 400.7 400.2 399.9
821.9 830.4 842 857.9 859.4 868 872.7 877.4 879.5 881.2 882.1 900.8 903.6 921.5 929.4 940.2 945.7 943.8 947.1 945.3 944.6 944.3 955 961.9 967.9 974.4 983.3 994.6 1006 1015.8 1027.9 1036.6 1042.2 1041.4 1037.3 1030.8 1022.2 1007.7 997.2 990.5 985.1 978.7 984.2 992.1 1000 1008.5 1016.9 1028.3 1040 1053.9 1069.2 1079.4 1085.2 1087.5 1086.2 1082.3 1080 1078.7 1077.5 1076.1 1074.9 1073.9 1073.4 1072.8 1070.7 1067 1062 1056.4 1053 1051.5 1052.3 1054.6 1056.1 1055.4 1052.7 1047.5 1042.6 1037.6 1030.4 1024.8 1022 1020.9 1019.1 1017 1015.4 1012.5 1013.3 1013.6 1012.6 1011.8 1011.8 1013.9 1016.3 1016.8 1015.9 1012.9 1008.1 1003.6 998.2 991.6 984.9 975.9 965.3 952.2 939.7 935.5 940.5 946.1 955.2 961.6 973.6 984.4 994.5 1003.9 1017.3 1026.9 1035.6 1044.9 1050.9 1056.3 1055.4 1043.9 1030.8 1014.7 999.8 981.5 964.1 943.7 926.1 907.5 887.3 869.1 851.2 834.9 821 806.4 792.8 782.5 771.4 758.4 747.5 736.5 727.7 718.7 712.2 706.8 702.2 698.7 695.9 693.7 691.3 688.8 684.8 680.9 675.9 669.9 665.1 660.5 656.2 653.6 649 651.9 652.4 652.3 649.9 646.6 645.3 643.9 640.7 638.7 637.5 636.3 634.4 634.6 636.1 636.2 634.6 633.2 632.1 631.5 632 630.7 627.5 622.2 594.2 557.3 525.5 500.2 476.5 455.1 436.9 420.7 403.6 402.1 401.8 401.5 401 400.6 400.3 399.2
826.6 835.1 851 860 871.3 879.1 886.6 891.4 896.5 901 911 917.9 926 942.1 950.2 955.8 956.3 957.9 959.3 957.5 957.1 959.7 958.7 959.4 968.1 975.1 985 997.5 1009.7 1020.1 1030.9 1039.2 1039.7 1037.1 1032.3 1024.3 1013.2 999.4 989.3 985 980.3 974.8 980.6 988.2 995.4 1005.1 1015.5 1027.8 1041.1 1059.4 1075.8 1085.8 1090.8 1092.4 1091 1088.2 1084.4 1081.5 1078.8 1076.4 1074.5 1072.9 1072.7 1072.7 1071.1 1068.3 1064.2 1060.4 1056.8 1053.9 1053 1054.1 1055.1 1055.2 1053.9 1050.8 1047.4 1042.3 1035.6 1030.1 1024.7 1022.6 1017.7 1017.2 1015.6 1015.1 1013.3 1010.1 1010.4 1010.2 1009.6 1012.7 1014.5 1014.8 1014.1 1013.5 1008.9 1003.6 998.8 993.3 986.9 979.2 968.2 956 942.8 929.9 923 926.6 935.3 941.6 950.1 961.9 975.9 987.7 998 1008.5 1017.2 1026.5 1036 1038.9 1034.8 1024.3 1013 1003.5 991.6 975.7 960.6 941.8 923.6 908 888.8 871.1 853.8 837.8 822.2 807.8 793.7 784.3 772.9 761.7 751.8 741.5 732.7 724.4 715.6 709.3 704.7 696.7 696.5 692.7 688.7 685.7 681.1 676.9 672 667.2 661.2 656.6 654.4 653 657.1 658 660.9 662 660.9 660.7 660.4 659.9 658.7 658.1 655.8 653.8 649.6 647.7 649.4 648.6 645.4 641.4 637.1 635.1 633.4 631.7 628.9 623.2 587.5 552.8 520.6 494.9 470.3 449.9 431.7 414.2 402.9 402.2 401.9 401.7 401.4 401 400.7 400.3
826.7 837.9 854.7 867.3 878.7 891.5 897.9 905.2 910.7 917 929.1 946.4 958.9 969.4 975.7 972.3 966.7 969.1 968.7 965.4 964.7 965.4 965.4 963.6 966.2 973.6 983.1 998.2 1007.7 1020.6 1030.4 1036.2 1034.4 1031.1 1025.4 1016.2 1001.1 987.5 981.7 978.8 974.5 969.7 976.5 982.9 993.9 1006.2 1019.3 1031.6 1047.3 1067.7 1082.3 1091.5 1095.6 1096.9 1095.9 1093.1 1089.8 1086.4 1082.9 1078.5 1075.3 1072.2 1071.2 1071.3 1070.2 1068.1 1065.1 1061.4 1057.2 1053 1050.6 1050.6 1051.3 1052.6 1052.8 1052.6 1051 1048.3 1044 1037.9 1031.2 1023.9 1018.9 1017.7 1016.8 1016.5 1016.4 1014.6 1012.9 1009.7 1006.5 1008 1008.4 1008.9 1010.7 1009 1005.5 1000.8 995.4 990.2 984.7 977.9 968.3 956.7 944.8 930.4 914.9 910.4 914.7 921.5 931 941.2 953.8 965.8 977.9 989.4 1000.7 1009.6 1017.2 1019.8 1017.6 1011 1002.8 993.1 981.2 967.2 952.2 938.3 921.8 907.5 888.3 873.4 853.4 837.7 822.6 808.7 795.9 784.6 774.7 764.1 756 747.2 738.6 730.6 722.3 714.6 708.4 702 696 691.4 688.5 685.3 677.4 672.8 667.3 663.4 660.7 658.2 654.2 657.2 660.7 662.8 665.8 668.5 670 671.5 672.8 673.2 673.4 672.8 671.4 669.1 664.2 662.1 660.5 658.4 653.5 648 642.3 638.2 635.7 633.9 630.9 621.1 580.7 546.3 515.4 489.5 465 444.3 425.3 408.4 403.7 402.4 402.2 401.9 401.7 401.5 401.3 400.9
826.9 836.4 852 872 887.4 899.9 910.3 916 922.1 932.3 948.9 967 984.3 993.5 997 995.8 986.4 980.8 974.3 969.9 968.2 967.2 966.5 964.6 961.7 969.3 980.7 993.8 1004.5 1015.5 1024.3 1027.4 1027 1023.7 1016.3 1006.1 990.2 979.7 974.2 970.2 964.7 967.7 975.9 982.9 996.5 1010.5 1022.8 1035 1054.2 1073 1086.5 1095.3 1100.1 1101.7 1101.4 1098.9 1095.3 1090.9 1086.8 1082.4 1077.8 1073.2 1070.3 1069.5 1068.4 1066.8 1063.8 1060 1055.7 1050.1 1045.4 1044.1 1046.5 1048.7 1051.4 1052.7 1053.1 1051.8 1049.2 1044.5 1037.5 1029.6 1020.8 1018.8 1018.9 1021.1 1021.4 1021.4 1019.8 1014.8 1011.9 1005.1 988.7 996 999.6 999.2 997 992.9 988.6 985.2 980.3 974 966.1 957.8 948.4 929.6 911.9 896.9 899.1 904.2 912.6 920.5 932.5 944.2 957.8 969 982.6 992.7 1001.6 1003.6 999 994.7 986.3 979.5 968.1 959.1 944.4 933 920.7 905.4 886.9 871.8 854.8 839.6 825.9 811.5 800.2 785.5 778.5 768.5 759.2 751.7 743.7 736.3 729.4 721.4 712.2 704.1 697.6 691.2 687.8 681.1 676.3 670.7 666.5 663.3 661.3 658.7 656.3 659.9 663.2 663.5 669.1 674.1 677.4 680.5 683 685.1 686 686.2 685 681.6 677.3 673.6 670 665.1 659.8 653.4 646.8 641.6 638.4 636.3 632.6 614.7 573.8 540 510.3 484.1 459.9 440.1 420.2 404.3 403.2 402.6 402.4 402.2 402 401.8 401.7 401.6
822.1 836.9 855.8 873.1 893.4 908 914.8 923 932.8 950 966.8 986.9 1003.1 1010.6 1012.9 1011.4 1005.1 994.3 982.8 973.5 969.6 968.1 966.7 963.4 961.3 963.7 974.1 984.7 997.7 1006.7 1014.5 1016.1 1015.1 1010.9 1002.5 990.5 980.4 970.2 965.1 958.9 962.3 972 979.3 988.4 1000.1 1013.3 1025.9 1040.4 1058.2 1076.7 1088.9 1098.9 1104.3 1106.5 1106.1 1103.6 1099.3 1094.1 1089.5 1084.7 1079.5 1074 1070.1 1068.3 1066.1 1064 1060.4 1056.2 1051.5 1044.4 1037.9 1034.9 1039 1044.2 1048.3 1051.4 1053.5 1053.5 1051.9 1048.8 1045.1 1038.1 1030 1023.8 1023.6 1025.1 1027.4 1028.7 1027.8 1023.6 1018.6 1009.3 992.3 972.5 980.6 984.7 985.4 982.4 980.4 977.9 973.6 968.1 962.8 954.6 944 925.8 907.9 893.6 882 886.9 893.4 902.8 911.4 921.3 932.2 947.9 960.3 971.5 978.6 980.5 979.2 976.2 972.3 963.5 955.7 945.9 937.5 930.3 920 908.1 892.4 879.4 861.4 845.1 831.9 817.8 803.1 791.5 780.4 771.8 762.9 755.7 749.2 741.7 734.6 726.5 716.9 708 699.7 693.7 687.2 681.1 675.8 670.1 666.7 663.5 662.4 661 658 660.6 662.4 667.1 672.9 678 681.8 685.5 689.7 693.7 696.1 696.1 695.2 692 687.4 682.8 678.4 672.6 665.3 657.6 648.9 643.8 641.1 637.9 632.9 602 567.4 533.4 503.3 477.8 455.3 435.5 412.9 404.3 403.6 403 402.7 402.5 402.3 402.2 402 401.9
817.3 842.8 861.7 879.5 897 914.5 924.8 936.8 946.9 965.8 979.5 999.2 1013.6 1022.3 1027.7 1026 1020.8 1008.2 993.1 979 971.7 968.2 964.9 957.6 957.2 957.2 964.1 972.3 986 995.5 1001.4 1003.5 1001.4 994.1 984.4 976.1 967.7 960.8 955.5 955.4 966.6 974.3 980.9 989.7 1003.1 1016.9 1030.2 1045.9 1061.3 1079.2 1091.6 1100.6 1106.7 1109.1 1108.2 1105.2 1101 1096.2 1090.8 1085.8 1079.8 1074.1 1070.6 1068.1 1065.4 1059.7 1054.5 1049.6 1043.6 1036.3 1029.8 1025.5 1031.3 1038.7 1044.7 1048.7 1052 1053.6 1052.9 1051 1048.6 1044.7 1043.2 1035.1 1033.4 1033.8 1034.7 1035.6 1034.8 1030.9 1023.8 1012.1 999.4 981.6 957.6 965 965.5 967.3 967.9 967.8 965 959.5 953.4 946 936.7 920.7 905.8 892.1 880 868.3 875 881.6 890.4 899.5 910.6 922.7 937.2 948.9 957.6 962 962.8 960.9 954.6 950 942.9 939.1 934.4 930.7 925.6 918.5 907.3 891.9 874.7 854.7 838.9 822.9 807.5 794.3 782 775.4 766.7 760 753.3 746.9 739.4 731 720.6 709.9 702.5 695.1 687.2 680.9 676.4 670.8 667.1 664.9 663.7 662.5 658.8 661.9 664.1 669.4 674.9 680.1 684.5 689 694.3 699.3 701.6 702.5 701.7 699.1 694.9 690.2 686 679.6 672.2 661.1 653.1 646.1 644 639.8 629.6 590 557.2 523.8 496.4 470.1 446.4 426.7 406.1 404.6 403.9 403.4 402.9 402.8 402.6 402.5 402.3 402.2
818 846.4 871 890.3 902.2 916.6 931.3 942.8 958 975.8 990.7 1005 1019.8 1031.8 1036.8 1034.9 1029.5 1020.2 1006 985.4 974.2 967.9 961.5 953.1 949.9 951 952.8 961.2 972.7 980.8 987.8 986.5 981 975.6 970.9 964.6 958.1 952.2 950.2 960.7 968.6 975.6 981.3 994.2 1010.1 1021.5 1033.7 1048.8 1064.5 1078.8 1091.1 1100.1 1106.7 1108.7 1107.5 1104.2 1100.3 1096 1090.7 1085.3 1079.1 1073.9 1071 1068.1 1065.1 1061 1048.8 1042 1033.7 1029 1023.9 1022.5 1027.3 1034 1040 1045.5 1049.1 1051.4 1051.5 1051.4 1051.7 1050.7 1049 1045 1040.1 1039.1 1040.1 1041.3 1041.2 1037.5 1029.5 1016.2 1001.3 985.5 966.7 944.7 948.4 945.7 945.5 948.8 947.9 943 938.3 932.6 925 909.8 894.2 882.5 872.6 860.2 851.7 859.2 867.6 875.9 887.2 899.3 910.7 922.6 933.7 940.9 943.6 943.8 942 938.5 936.9 935.5 935.4 935.2 931.2 926 919.8 907.2 888.8 871.6 853.3 832.1 811 797.2 785.8 778.4 771.1 763.6 757.8 750.9 742.8 734.7 724.2 713.2 705.3 697.7 688.7 681.8 676.9 671.8 668.5 666.6 665.9 663.8 661.1 661 664.9 669.7 675.2 681.1 686.2 691.5 697 703.7 705.4 706.5 705.6 702 697.5 693.7 689.9 684.2 677.5 668.7 659.9 652.6 646.6 640.3 612.5 577.6 545.4 513.6 487.9 462.4 438.1 416.6 405.6 404.7 404.1 403.5 403.2 402.9 402.7 402.6 402.5 402.4
819.7 848.3 872 889.8 905.4 923.7 936 948.4 963.7 981.9 995.3 1011.1 1024 1035.2 1041.8 1040.5 1035.5 1027.5 1015.7 996.4 980.2 967.4 958.1 951.9 946.5 945 946.3 949.4 958 965.4 970.2 968.9 965.3 959.9 957 954.1 949 946.5 955.8 962.6 968.5 974.9 985.6 998.7 1014.2 1026 1036.3 1049.4 1063.6 1078 1088.6 1096.8 1102 1104.6 1104.8 1102.5 1098.7 1093.7 1088.2 1082.9 1077.1 1073 1070.7 1068 1065 1060.6 1053.9 1044 1033.7 1025.6 1021.7 1021.1 1023.2 1028.7 1034.9 1041.2 1045 1047.6 1049.8 1051.4 1053.1 1054.4 1053.9 1051.2 1048.4 1045.5 1045.2 1045.7 1045.7 1042.8 1035.2 1021.1 1000.8 987.6 970.6 953 933 931.1 928.4 926.5 924.6 921.3 914.6 910.9 905.9 895.7 880 869.2 858.5 849.3 838.5 836.1 844.9 853.9 864 874.6 887.9 898.7 905.8 912.9 920.7 924.9 925.8 926.4 929.5 932.2 936.1 939.8 945.2 944.9 939.3 924.4 908.2 885.7 864.8 834.8 817.6 802.7 790.6 781.1 774.3 767.7 760.5 753.9 746.1 736.9 727.7 716.8 707.7 700.1 691.3 684.1 678.3 673.4 670.4 667.8 665.7 664.2 661.6 660.7 664.7 668.8 674.3 680.6 687.2 693.5 699.2 704.4 706.8 708.8 707.9 704 698.5 694.1 689.8 686.3 682.2 675.1 668 659.6 650.7 637 600.2 562.6 531.7 504.8 479.9 455 431.5 410.8 403.1 404.2 404.1 403.8 403.4 403 402.8 402.6 402.5 402.3
818.1 846.2 868.4 889.6 911.5 932 940.2 953.2 966.5 983.9 996.8 1010.5 1024.4 1035.8 1043.6 1044 1039.7 1032.4 1022.7 1011.5 992.2 973.8 961.1 952 946.2 940.4 940.5 939.1 943.2 950.3 953.9 953.7 950.9 947.9 946.3 943.1 937.6 948.9 956.8 961.9 967.8 976.9 988.2 1004.2 1018.1 1029.4 1038.1 1048.9 1061.4 1074.6 1084.9 1093 1097.2 1100.6 1101 1098.4 1094.4 1088.6 1084 1078.4 1074.8 1071.7 1069.3 1066.9 1064.2 1059.9 1052.8 1042.4 1033.3 1026.1 1020.1 1019.8 1021.4 1025.8 1030.5 1035.9 1040.3 1045.1 1048.1 1051.5 1054.6 1056.9 1057.4 1056.2 1054.3 1052.2 1050.1 1049 1048.5 1046.4 1037.9 1022.6 1003.6 988.2 974.7 959.1 939.6 924.6 912.4 911.5 905 898.2 891.3 887.6 881.9 876.1 868.4 857.3 847.7 837.5 830.1 818.8 821.9 829.4 838 849.6 862.1 876.1 884.9 888.7 891 897.7 905.5 912.6 918.4 925.2 930.7 939 949.9 952.9 952.6 931.7 913 894 871 843.2 823.8 807.3 796.2 787.3 777.6 770.6 763.7 757.8 749.9 740.5 730 719.5 709.9 702 692.9 685.5 680.3 675.2 671.6 668.4 666.5 665.2 662.7 658.7 664.5 667.6 672.5 679 686.3 693.2 699.8 703.8 706.5 708.4 707 701.9 695.4 691.2 688.3 686.1 684.6 679.4 673.3 666.3 654 618.4 583.6 553.1 523.9 496.9 471.1 449.2 425.5 404.8 399.5 402.7 404.2 404.1 403.6 403 402.9 402.7 402.4 402.2
814 842.7 861.9 885.6 911 931.6 942.4 952.4 967.1 982.4 994.7 1008.1 1022.6 1034.6 1043 1045.6 1042.6 1036.2 1027.4 1018.1 1005.5 984.2 967 956.2 946.4 938.9 934.4 932.5 932.8 937.8 938.6 936.5 936.6 935.8 935 930.1 937 949 956.3 962.3 968.6 978.3 991.9 1006.7 1020.5 1031.1 1037.6 1047 1058 1069.5 1080.6 1088.4 1092.8 1095 1095.1 1092.1 1088.2 1082.6 1078.6 1073.8 1071 1068.9 1067.2 1065 1062.3 1057.2 1048.7 1042.3 1033 1025.9 1020.3 1018.2 1020.1 1022.2 1025.5 1029.4 1035.8 1042.9 1047.3 1051.4 1056 1058.8 1060.1 1060.4 1059.2 1057.6 1054.5 1051.4 1049.4 1046.4 1039 1024.8 1008 993.2 974.9 961 945.6 930.9 918.4 902.5 892.5 885.6 875.1 863.4 858.6 853.1 847.3 844.2 835.6 828.6 819 812.8 809 809.5 814.8 824.5 836 850.6 862.2 871.3 876.1 880.1 884.4 892.3 899.4 906.2 915.1 925.4 931.2 935.6 933.6 923.4 910 894.7 873.7 855.5 836.9 816 802 792.1 783.6 775.2 766.9 760 751.8 742.3 729.9 720.3 710.5 701.5 694 685.8 680.5 676.3 672.7 669.2 668.1 666.8 664.8 657.1 662.7 666.5 670.4 676.7 684.2 690.8 697.9 701.9 703.8 704.6 702.3 696.8 691 687.8 685.7 685.8 685.5 682.7 677.1 671.2 655.2 606.9 572.2 540 512.6 487.8 463.8 439.9 418.2 402.7 399 399 403.6 403.7 402.8 402.3 402.6 402.8 402.6 402.5
809.3 834.9 858.5 881.8 905.2 928.6 940.9 952.7 965.4 979.9 993.8 1006.2 1020.1 1032.1 1041.6 1045.6 1045 1040.1 1032.8 1023.9 1011.5 994.1 972.8 961.1 949.2 940.7 933.4 928 926.3 925.3 924.9 921.6 922.7 922.9 921.1 920.5 936.3 947.6 954.8 960.8 967.9 978.5 991.6 1006 1019.2 1029.2 1035.3 1043.1 1054.7 1063.2 1073.1 1082 1086.7 1088.1 1088.1 1085.7 1081.5 1076.3 1071.2 1068.6 1067 1066 1064.4 1062.6 1057.6 1053 1046.7 1041.1 1034.4 1026.1 1020.4 1015.2 1016.1 1018.5 1022.3 1025.8 1032.4 1040.7 1045.9 1051.6 1056.5 1059.7 1062.4 1063.4 1063.5 1061.3 1057.9 1053.9 1049.8 1044.9 1038.3 1028.1 1013.6 997.2 979.9 967.5 954.8 939.1 927 911.8 897.5 883.9 870.4 860.8 849.3 840.1 832.1 825.2 820.6 816.3 813.9 808.7 803.2 801.7 800.2 803.7 813.6 828.4 839.7 850.5 858.7 865 868.7 873.2 881.5 887.1 893 900.9 912.1 916.8 914.8 908.7 901.1 887.8 876.9 864.5 849.3 830.2 814.7 798.6 787.7 778.4 770.1 761.2 752.9 742.1 729.7 719.6 710.3 702 694.7 686.4 680.5 676.9 673.2 671.8 670.9 669.6 667.2 664.3 655.1 664.4 668.5 673.2 680.3 687.5 694.1 698.3 699.9 699.3 696.3 690.6 685.4 682.7 682.5 683.6 684.7 684.5 678 671.9 655.9 601.3 566.1 533.1 504.2 477.3 454.4 432.7 406.5 399 399 399 399 398.9 400.1 400.2 402.4 402.6 402.5 402.4
804.2 827.7 853.6 878.3 903.5 920.7 936.6 951.2 964.2 978.5 990.7 1003.3 1016.5 1029 1039.1 1043.6 1045.9 1041.9 1036.4 1027.9 1016.5 999.9 979.2 966.6 952.7 942.1 932 925.5 919.2 914.8 910.9 911.7 909.8 906.8 906.1 913.5 930.6 944 951.3 957.2 965.5 975.6 987.4 1002.1 1014.2 1022.3 1030 1037.6 1047.2 1056.9 1064.7 1072.7 1076.9 1080 1079 1076.5 1072.7 1068.4 1065.5 1064.7 1063.8 1063.1 1061.1 1056.7 1052 1047.7 1043.1 1038.8 1033.5 1025.7 1018.3 1013.6 1012.2 1014.8 1020.5 1024.7 1031.1 1038.3 1044.8 1050.9 1055.8 1059.9 1063.7 1065.7 1066.1 1063.7 1059.1 1054.4 1048.7 1043.3 1036.6 1028.2 1018.8 1006.4 990.4 978.1 964.3 949.7 935.4 921 909.2 898 887.5 875.9 867.8 857.8 847.9 839 826.8 816.7 810.6 805.7 800.2 796.5 794.7 793.5 795.8 805.1 816.9 829.1 839 846.7 848.1 856.2 864.8 872.5 878.1 885.7 891.8 892.1 894.2 892.9 887.2 883.7 876.5 866 853.5 836 820 802.9 788.5 779.6 770.8 760.6 751.6 740.4 729.6 718.8 710.2 703.9 695.5 685.7 683.5 681.8 679.8 676.7 673.6 672.2 669.2 667.1 663.8 657.3 666.4 670.3 675.6 681.5 688.2 692.4 694.3 692.7 689.8 684.2 679.8 677.5 677.5 679 680.7 679.9 676.2 663.5 628.6 588.7 556.9 524.8 495 468.5 443.8 422.4 400.7 399 399 399 399 399 399 399 401.4 402.2 402.1 401.5
799 825.3 851.4 875.5 897 915.4 931.5 948.2 960 975.4 986.1 998.7 1011.1 1025.4 1034.9 1040.6 1043.7 1041.6 1037.1 1030.2 1020.4 1004 989.5 972.8 958.7 944.7 934.1 924.9 914.7 910 903.3 902.4 896.6 894.3 896.3 905.6 920.3 938.2 947.4 951.7 961.1 969.1 981.4 994.9 1005.5 1015.5 1021.1 1028.5 1035.9 1044.7 1054.5 1062.9 1068 1070 1069.7 1066.6 1062.8 1061.7 1060.8 1060.5 1059.4 1057.9 1053.9 1050.2 1046 1041.5 1039 1034.4 1029.8 1024.3 1018.3 1012.9 1010.2 1013.4 1018.7 1024 1030.1 1036.7 1042.7 1048.6 1053.6 1058.4 1062.5 1065.3 1066.1 1063.3 1058.2 1052.8 1046.9 1040.6 1034.4 1027.1 1023.5 1015.7 1003.9 989.4 973.7 960 946.4 937.6 928 918.2 905.5 893.3 892.2 879.5 867.4 854.4 841.2 828.7 820 811.2 807 799.2 793.6 788.8 787.9 789.5 796.9 807.1 816.7 824.3 827.8 837.5 845.4 856.4 864.4 871.2 873.7 877.3 877.8 877.9 879.1 877.9 872 864.8 853.8 839.5 822.2 806.4 790.6 779.5 769.2 758 748 736.6 725.8 715.6 710 703.5 694.9 688.6 688.5 688.4 685.8 681.4 677.1 674.4 671.4 668.5 665.4 653.7 662.7 666.3 670 675.4 681.4 685 686.4 685.2 681.7 676.7 673.3 671.2 672.3 672.9 674.2 674.5 669.5 643.6 609.9 577.1 542.9 512.1 483.9 456.9 431.2 406.4 399 399 399 399 399 399 399 399 399 401.4 400.9 399.5
798.9 821.6 847.2 868.8 891.8 909.8 927.2 942 956.7 970.7 981 993.2 1005.5 1019.5 1029.9 1036.5 1038.9 1038.6 1035.4 1029.9 1022.3 1011.3 1000.1 980.4 963.9 949.7 937.8 930.1 919.5 908.4 900 892.4 889.7 888.4 889.9 899.8 915.6 930.1 940.5 947.2 953.9 961.8 970.4 982.6 994 1003 1011.1 1017.8 1025 1032.6 1041.8 1050.1 1056.3 1058.8 1058.2 1056.6 1056 1056.2 1055.9 1056 1054.9 1051.1 1046.7 1042.7 1040 1036.3 1033.2 1028.1 1024.6 1019.7 1014.2 1010.5 1010.6 1014.2 1019.8 1024.7 1030.2 1034.8 1040.4 1045.4 1050.2 1054.6 1058.9 1061.8 1062.5 1059.4 1054.9 1048.8 1043 1037.2 1032.3 1028.1 1025.4 1021.3 1012.6 1000.6 984.9 970.9 959.6 954 953.5 945.9 931.1 917.4 910.7 898.5 885.9 872.3 859.9 847.5 836.3 827.2 819.5 810 800.6 793.2 783.8 782.6 781.9 788.1 795.7 803.7 809.7 819 827.6 837.8 850 856.9 863.4 864.8 866.9 870.9 871.9 870.4 867.3 861 851.5 839.3 822.8 805.6 789.1 777.1 767 753.3 743.5 732.9 722 715.5 709 702.5 695.4 691.4 692.6 692.2 689.5 685.7 681.1 677.8 673.6 669.3 666.5 662.5 652.8 663.3 664.7 668.3 671.9 675.2 676.4 675.3 671.7 668.9 665.2 664 665.8 666.8 667.1 665.8 660.7 625.2 586.5 557.9 529.5 500.7 474.3 448 422.7 399 399 399 399 399 399 399 399 399 399 399 399 398.9
795.4 818.7 840 866.5 885.4 905.2 922.5 936.2 950.7 964.7 977.2 986.9 999.3 1012.1 1022.4 1031.6 1034.3 1035.4 1035.1 1030.4 1023.8 1016.4 1007.3 992.9 972.5 957.1 944.7 935 923.1 909.3 898.5 888.2 885.4 883.9 886.8 895.9 906.7 917.5 928.6 937.3 944.3 951.8 958.4 967.8 978.7 989.5 995.5 1004.2 1010.9 1017.5 1028.3 1036.9 1042.8 1044.6 1045.8 1046.9 1047.6 1049.1 1050.1 1049.8 1047.6 1044 1039.2 1035.5 1032 1028.9 1024.3 1019.5 1016.2 1012.5 1008.7 1006.5 1011.9 1016.8 1021.8 1026.6 1030.8 1033.7 1037.4 1041.7 1045.8 1049.6 1052.6 1055.5 1055.8 1053.1 1049.1 1043 1039.4 1034.9 1032.2 1029.4 1026.6 1021.8 1014.6 1004.5 992.6 981.4 970 965.4 966.4 966.8 962.7 948 937 919.6 905.9 891.6 881 870.6 858.5 850.1 839.3 828.5 815.3 803.2 788.7 782.1 778.1 777 778.4 786.3 791.4 799.9 809.5 819.9 833.4 844.3 851.4 857.3 859.7 861.3 861.9 861.7 860.9 855.4 846.5 835.6 819.8 801.6 785.8 771.8 762.2 749.6 739.6 729 720.3 715.1 708.3 701.3 696.8 694.1 695.6 693.8 691.4 687.8 683.8 679.5 673.6 669.9 666.7 663.8 658.3 658.1 660.5 660.2 662.8 664.6 665.1 664.2 662.2 659.6 657.4 657.4 657.8 658.1 659 657.8 651.4 619.8 578.1 542.8 513.2 488.2 462.3 437.6 409.5 399 399 399 399 399 399 399 399 399 399 399 399 399.2
794.9 817.8 840.2 865 885.7 902.4 918.3 932.2 947.2 959.6 970.3 982.5 992 1001.9 1013.1 1024.4 1028.6 1031.3 1032.4 1029.7 1024.3 1018.5 1011.5 999.7 979.9 962.9 951 938.1 923.7 909.5 897.1 887 881.9 879 884.3 890.5 897 904.8 912.2 920.8 928.1 935.6 944.9 953.2 961.6 970 977.7 986.3 994.9 1004.9 1012.6 1022.1 1029.4 1033.1 1035.9 1037.8 1039.5 1041 1042 1041.8 1039.5 1035.7 1029.9 1025.2 1022.1 1016.8 1011.3 1007.7 1004.9 1002.6 996.5 1008.5 1015.3 1021.1 1027 1029.1 1031.7 1033.4 1035.4 1037.9 1041.1 1043.3 1044.8 1045 1045.3 1043.3 1039.7 1037 1033.7 1033.1 1032.6 1030.6 1026.3 1022.1 1013 1004.5 995.8 984.4 974.9 969.7 970.1 972.2 972.1 969.5 962.4 947.9 928.7 914.4 903.9 896.5 887.7 877 862.2 848 832.5 815.8 799.1 788.2 780.5 774.5 771.5 772.1 776.3 781.3 789.9 802.8 816.5 828.2 838.6 845.9 850.3 851.4 852.5 851.6 849.8 846.5 839 827.8 811.5 795.2 780.6 767.5 755 743.7 734 724.8 719.2 714 708.4 702.3 697.5 696.3 695.9 693.9 691.6 688.4 684.6 679.9 674.8 670 666.8 663 659.4 652.2 654.8 654.7 654.3 654.8 655.2 653.7 652.6 652.1 651.2 651.8 651.5 652 652.1 650.2 646.2 614.7 570.8 536.1 504.4 476.6 451.7 429.8 406.8 399 399 399 399 399 399 399 399 399 399 399 399 399.6
802.4 824.3 845.8 869.5 886.9 902.3 917 929.8 943.1 955.2 965.5 975.6 983.1 991.8 1000.2 1013.5 1021.2 1025.4 1029.4 1027.5 1023.7 1018 1013.1 1001.5 984.2 967 953.9 939.7 923.1 909.3 897.3 886.3 879.6 875.9 879.3 884 887.2 889.8 894.1 899.8 904.3 914.3 925.2 936.6 944.8 951.5 958.1 966.9 976.8 988.4 997.8 1008.7 1015.1 1019.8 1022.9 1027.3 1031.4 1030.5 1031.8 1032.1 1029.4 1023.5 1018.6 1011 1002 995.2 990.1 989 988.1 980.6 999.8 1010.9 1018.1 1027.8 1034.6 1035.7 1033.9 1033 1033.4 1034 1034.4 1034.8 1034.5 1035 1034 1032.6 1031.1 1029.4 1029.8 1030.9 1031.6 1029.1 1024.6 1017.9 1009.1 1001.7 994.1 983.2 973.7 968.9 969.8 971.9 973 972.1 969.5 965.4 956.4 940.1 930.9 924.2 917.5 906.9 890.3 870 850.2 829.7 813 796.5 784.2 774.5 770.8 766.5 766.6 768.8 772.1 784.9 798.1 812.1 824.5 835.4 841 843.7 846.1 845.8 842.9 836.8 829.1 817.9 803.7 786.5 773.8 757 745.4 739.6 728.8 721.7 717.7 713.5 708.3 703 696.9 694.9 693.1 691.2 689.5 686.1 682.4 677.9 673.4 670.3 667.1 662.9 658.3 652.5 646.2 649.4 648 646.3 645.9 645.2 644.5 644.2 643.6 644.7 646.1 646.7 646.7 644.9 638.1 600.6 563.9 526.2 496.2 466.7 440.3 419.3 399 399 399 399 399 399 399 399 399 399 399 399 399 399
809.4 830.3 852 872.3 888.7 904.4 915.8 928.4 940.7 951.2 960.3 969 975.4 981.6 990.1 997.3 1009 1017.1 1024.3 1023.1 1019 1014.7 1009.1 998.2 984 968.4 953.4 937.8 921.5 906.8 896.3 884.9 877.8 873 873.8 875.9 877.2 876.9 878.9 885.2 887.4 895 906.7 917.3 926.6 934 940.9 950 962.9 974.9 984.8 993.1 1000.4 1008.4 1014.5 1021.7 1025.3 1026.6 1026.1 1024.3 1018.8 1011.3 1000.5 986 976.1 970.1 967.5 968.9 965.1 983.8 1001.8 1012.8 1025 1035.7 1040.8 1040.6 1037.4 1032.3 1030.5 1029.1 1028.4 1027.5 1025.5 1022 1019.6 1018.4 1018.2 1020.7 1025.4 1027.2 1027.2 1024.8 1019 1010.6 1004.1 996.6 989.4 979.4 971.3 965.7 965.3 967.6 969.7 971.1 970.6 968.9 965.6 961.7 956.6 949.3 941.8 930.5 917.7 897.4 869.9 846.3 826.6 808.6 790.3 776.8 770.3 766.9 762.8 762 763.2 768.1 781.3 795.3 809 820.8 830.6 835 836.8 837.7 833.7 828.6 817 805.2 792.6 776.9 761.8 749.1 737.6 731.8 724.1 719.9 716.5 713 707.3 702.2 695.8 693.2 691.8 689.1 686.9 684.2 679.6 676.2 672.8 668 665.7 661.8 656.1 651.5 647.8 638.8 637.5 635.7 632.4 632.9 634 633.9 634.9 637 638.9 641.6 640.9 639.8 625.2 585.4 548.3 514.7 482.2 455.5 429.5 407.3 399 399 399 399 399 399 399 399 399 399 399 399 399 399
817 837.1 857.5 873.5 890 904 915.4 925.7 937.1 946.1 953.6 960.2 966.2 972.1 979.8 986.6 992.2 1000.2 1007.6 1011.6 1010.2 1005.8 1000.1 990.8 979 964.7 949 932 916.6 903.5 893.6 884.3 877.1 870 870.5 868.4 866.8 868 870.3 873.7 877.6 881.1 888.1 896.8 905.3 915.1 923.5 935.4 945.2 958.1 969.1 978.7 988.9 998.1 1007.6 1015.8 1020.1 1020.5 1019 1013.2 1004.8 990.2 975.8 963.9 956.8 952.5 954.2 955 970.2 988.1 1003.6 1017 1031.9 1042.1 1045.6 1044.5 1039.6 1033 1027.5 1025.1 1022.9 1020.9 1018.3 1013.6 1010.8 1009.2 1009.6 1011.8 1014.1 1018.1 1019.7 1014.1 1007.4 1001.2 993.9 987.2 980.4 972.5 964.5 959.4 958.3 960.9 964.5 967.6 968.6 970.1 969.8 968.2 965.4 961.1 955 946.4 933.1 919.3 897.3 864 841 819.6 799.3 783.1 771.5 764.6 761.8 757.9 758.3 758.9 764.1 778.4 790.8 804.1 815.9 821.9 827.8 827.5 824.6 818.7 806.1 796.5 778.4 765.6 752.1 741.1 732.6 724.6 718.9 717.3 715.4 712.3 708.6 701.4 695.1 692.6 690.9 688.1 685.6 682.9 679.2 676.7 673 670 668.1 664.3 656.9 653.6 650.5 646.2 640 634.2 630.3 625.5 622.9 626.1 626 626.1 629.7 633.1 633.4 631.4 613.6 571.7 537.6 504.2 473.9 442.9 416 399 399 399 399 399 399 399 399 399 399 399 399 399 399 399
820.7 842.4 861 875.9 889.6 903.4 912.7 923.2 932 939.1 945.5 952 956.4 960.5 966.3 974.4 981.4 987.3 991.8 995.4 996.5 994 989.3 982.4 972.1 957.9 941.2 925.7 913.6 904.3 894.8 884.9 876.2 870.4 865.2 864.6 859.4 860.8 863.4 865.4 869.1 871.7 875 878.2 885.9 896.3 906.4 917.7 930.5 941.2 953.6 965.8 976.9 987.8 997.5 1005.4 1009.5 1009.8 1006.1 998.6 982.7 966.2 956.5 948.6 943.1 941.3 943.8 956.4 973.4 991.5 1007.8 1024 1039.4 1047.3 1048.2 1045.9 1040.5 1033.7 1026 1018.5 1013.2 1011 1005.1 1002.8 999.8 999.8 1001.8 1002.9 1003.8 1004 1002 999.8 993.9 988.6 981.3 975.9 966.9 957.8 954.1 950.1 948.1 952.3 957.6 962.2 966 968 969.8 970.3 969.5 966.4 962.2 955.3 940.8 930.4 915.3 888.9 858.8 831.3 812.5 793.9 780.1 766.2 761.8 757.9 754.6 754.4 754.6 761.2 774.4 786.2 799.6 807.7 811.1 813.4 812.6 806.8 798 784 768 756.2 744.2 735.1 728 722.8 718.9 716.3 715.2 712.2 708.6 702.5 695.6 691.5 689.8 686.8 683.3 680.9 677.6 676.4 672.9 670.3 666.2 661.5 661.7 658.1 653.8 648.4 640.9 635.1 630.1 625.4 615.3 615.1 617.3 616.9 618.9 623.1 622.2 620 611 566 525.5 494.1 464 432.7 405.2 399 399 399 399 399 399 399 399 399 399 399 399 399 399 399
822.4 843.5 862.2 877.2 886.7 898.4 907.9 917.6 925.3 931.2 935.1 938 944.7 951.3 956.8 964.5 972 977.3 980 983.1 983.2 981.5 977 972.6 963.7 949.3 936.1 925.8 916.7 908 896.6 887 877.9 869.6 861 861.2 857.9 857 861.3 861.4 862.3 863.8 867.1 869.8 871.5 876.7 889.2 900.6 913 924.1 936.6 950.4 963.3 974.8 985.3 992.7 995.7 994.2 989.8 978 961.6 949.8 941.9 936 933.4 931.8 944.6 958 977.7 996 1013 1031.3 1043.5 1047.9 1048.3 1046.3 1041.3 1035.4 1027.1 1017.7 996.9 989.2 984.6 985.2 982.4 989.2 992.1 995.5 994.9 992.1 989.1 985.8 976.4 969.4 960.3 954.6 950.6 945.2 940.1 935.2 934.8 941.3 948.9 954.4 959.3 962.5 965 966.1 965.6 963.8 960.1 953.7 943.5 931.4 918.7 902.8 881 847.7 826.7 807 789.2 776 765.9 758.7 754.7 750.7 749.6 751.6 759.7 770.7 781.6 792.3 798.7 799.5 798.4 793.8 784.7 772.5 758.4 746.7 736.8 729.5 724.5 719.7 716.9 715.1 713.4 711.1 706.6 701.7 695.8 690.9 688.2 685.7 682.9 679.7 677.5 674.5 671.5 670.9 670.2 668.3 665.7 662 656.9 650.5 643.1 637.7 631.3 625.2 617.7 604.8 607.5 607.2 605.3 609.4 608.1 602.6 584.6 557.1 517.9 479.1 452.3 425.5 399.8 399 399 399 399 399 399 399 399 399 399 399 399 399 399 399
820 841 858.6 872.3 881.5 889.8 900.2 910.2 917 922.6 925 928.3 932.5 940.9 947.8 955.7 961.9 967.5 970.4 970.9 971.7 970.5 969.3 964.9 954.3 942.3 933.5 926.4 918.8 911.9 901.1 891 884.6 873.6 861.6 858.4 856.8 855.8 857.3 859.9 857.6 859 861 861.9 864 865.9 871.7 883.9 896.6 907.8 918.7 929.7 946.8 958.2 967.7 975.7 977 973.4 968.1 955.7 944.9 935.9 930.6 925.2 922.2 933.8 945.2 962.6 982.1 1001 1017.5 1034.1 1042.4 1046.2 1046.9 1045.1 1042 1036.8 1029.9 1019.5 1005.1 982.9 972.4 970.3 970.2 971.8 975.1 980 980 978.1 974 965.5 957.2 950.7 944.8 939.1 935.6 930.7 922.8 919.1 920.2 927.2 938.6 945.1 950.2 954.1 955.9 956.8 957 956.3 953.5 948.5 938.6 930.5 918.6 907.4 889.2 863.3 843.3 825.4 805.5 791.5 774.4 762.2 757.9 752.3 745.8 745.1 748.9 754.6 765.3 774.6 782.9 784.5 781.4 777.3 771.2 760.2 747.6 736.4 730.9 724.7 720.7 717.7 715.3 713 711.5 709.2 705.7 701.2 696.6 690.5 688.1 685.1 682.4 679.8 677.5 675.4 674.2 673.2 671.7 669.6 666.8 663.5 658.3 651.6 644.1 638.2 631.9 624.3 615.5 601.6 594 595 593.8 594.7 588.3 575 554.8 529.9 500.6 468.1 438.4 412.1 399 399 399 399 399 399 399 399 399 399 399 399 399 399 399 399
809.9 830.9 849.1 861.2 870.4 878.4 887 897.7 906.5 912.2 916.2 919.8 923.9 932.6 940.4 947.5 953.8 957.5 960.9 961.4 962.1 961.8 960.8 956.7 948.2 939.2 931.3 923.2 916.2 910.9 901.2 900.4 893.6 882.1 872.9 860.4 854 853 852.3 852.8 853.3 853.2 853.2 853.8 858.9 860.8 860.8 867.7 878.2 891.1 903.7 913.8 925.8 938.1 946.1 949.5 952.4 950 945.1 937.3 930 922.4 919.3 914.8 922.7 935.4 949.5 967.6 988.4 1004.4 1021 1034.1 1039.1 1042.1 1043.2 1042.8 1042 1036.7 1029.5 1019 1007.5 993.7 973.1 960.2 958.6 959.3 959.1 959.3 960.4 961.8 957.1 949.2 942.7 937.3 930.6 923.4 920.1 914.3 911.3 909.4 908.4 916.1 926.3 934.5 938.7 941 944.9 946.2 947 947.5 944.5 940.3 932.8 923.6 914.5 903.5 892.7 875.6 864.5 846.2 826 811.9 789.7 772.7 762.4 755.8 749.2 741.5 741.5 744.4 750.6 756.9 765.3 767.7 764.5 760.7 755 746.4 735.7 729.2 724.9 721.5 718.5 715.7 713.8 711.2 709.5 707.3 703.5 699.7 694.5 690.1 686.7 685 681.9 680.4 678.6 677 675.1 673.6 670.2 668 665.5 661 656.2 649.9 643.5 636.9 630.3 622 611.2 598.9 578 580 578.4 578.5 575.1 561.9 539.7 512.3 480 454.4 427.4 401.7 399 399 399 399 399 399 399 399 399 399 399 399 399 399 399 399
788.1 808.7 825.1 840.9 852.8 860.7 867.9 883.2 893 900.7 908.1 913.7 919.2 924.9 932.6 940.5 946.4 949.8 951.9 951.7 951.7 952.3 950.5 946.5 939.2 935.4 928.8 920.3 912.7 907.5 908.4 909.4 906.3 897.7 883.4 871.3 859.3 847.9 845 846.8 847.3 847.9 848 849 851.7 851.9 853 856.4 859.7 871 883.9 892.2 900.4 910.3 919.4 917.9 921.7 924.4 923.4 920.3 912.2 909 909.3 906 920.4 934.4 951.7 972.2 989 1005.1 1020.3 1029.8 1032.6 1033.2 1037.8 1039.7 1039.6 1033.9 1026 1015.6 1004.5 996.1 983.4 966 953 950.1 948.9 948.2 947.1 944.8 938.8 934.3 929.1 923.7 917.3 911.5 907.1 902.7 900.7 899.5 897.8 902.4 912.2 919.4 927.1 930.1 932.7 934.4 934.7 934.7 933.3 929.8 925.4 917.6 909.5 899.9 891.3 882 874.5 866.2 844.9 826 806.2 787.9 772.6 759.1 751.2 743 735.4 737.2 739.7 744.1 748 753 752.2 745.9 741.1 734 728.8 725.2 721.7 718.8 716 714.4 712.7 710.7 709.5 706.8 702.7 699.3 695.8 691.9 688.5 687.9 685.3 683.6 682 678.7 675.9 672.8 668.6 664.7 661.7 659.2 652.2 645.9 640.5 634.6 626.9 617.1 605.3 592.5 579.6 552.7 557 558.4 559.6 549.2 530.6 499 475.4 442.7 415.6 399 399 399 399 399 399 399 399 399 399 399 399 399 399 399 399 399
769.3 784.7 801.9 816.1 828.9 839.9 851.6 866.9 880.2 890 900.1 908.7 914.7 920.6 925.4 930.2 937.5 941 943.1 943.6 942 940.5 939.9 937.6 935.1 933.1 923.9 914.7 908.7 907.9 912.2 914.5 913.9 907.9 897.4 884.4 872.2 851.7 841.4 841 839.1 841.8 841.2 843 843.8 843 842.8 843.4 848.3 852.6 858.5 866.7 874.1 881 876.8 883.3 886 895 897.5 898.2 893.4 892.3 894.6 902.1 916 931.9 949.3 969 986.4 999.2 1010.5 1014.9 1016.9 1022.9 1028.8 1033.8 1034.2 1028.4 1018.1 1010.1 1000.3 993.4 986.7 977.2 957.9 944.6 938.7 937.9 935.9 932.3 927.7 922.9 917.3 911.6 906.2 900.6 895 891.8 889.4 888.9 887.9 892.4 896.5 903.8 910.3 915.4 918.4 922.1 923 923.9 922.6 920.7 915.8 906.6 901.2 893.6 886.9 882.1 875.8 869.4 860.4 847.3 823.4 803.3 785.9 771.7 759 750 741.3 732.2 731.7 734.4 736 737.8 739.1 735.6 732.2 728.5 725.1 722 719.7 717.4 715 713.3 711.3 710.5 708.9 706.5 703.9 700.9 698.2 695.6 692.5 691.7 690.2 687.6 684.4 679.8 677.6 672.8 667.9 662.6 657.1 651.8 646.5 642 636.3 629.6 620.4 610.9 598.5 588 573.9 558 527.3 528 538.3 533.6 516.5 485.5 463 429.7 400.7 399 399 399 399 399 399 399 399 399 399 399 399 399 399 399 399 399
750.7 764.4 779.1 791.6 805.1 817.2 833.5 847.2 863.2 877.5 890.4 902.4 908.6 913.6 916.7 920.3 926.8 931.1 932.8 933.8 932.7 933.6 933.3 933.9 935.1 933.5 928.7 915.6 909.1 910.9 915.6 918 919.2 917 909.4 896.6 881.9 865.3 847.4 839.5 838.6 838.3 837.4 834.5 836.7 833.1 836 834 834.4 837.7 840.9 841 841 841.6 841.1 846.2 847.7 856.3 870.4 870.4 866.5 867.8 867.5 881.5 890.3 924.8 943.2 957.1 974.1 984.7 983.7 985.9 999.3 1012.9 1021.5 1025.7 1024.4 1017.7 1009.9 1003.1 996.2 991.5 986.7 979.2 965.4 950.9 936.9 925.2 923.6 919 914.5 908.9 904.3 900.4 894.5 890.1 886.1 882.3 879 876.9 876.4 879 879.2 883.9 892.5 903.1 903.9 906.7 909.6 911.7 909 905.5 902.4 900.1 893 887.9 882.9 879.1 875.1 869.9 864.2 854.3 839.9 818.3 798.4 781.3 768 756.7 746 736.8 729.3 724.5 727 727.5 726.9 725.7 724.3 723.2 721.5 718.9 717.1 715.3 714.1 711.9 711.1 710.3 707.4 706.1 703.7 701.7 699.8 698.2 696 694.9 693 690.4 686.9 682.5 677.8 671.9 666.8 661.5 654.9 646.5 638.2 633.6 629.4 622.9 612.6 603.7 593.3 581.8 568.7 549.6 529.1 497.2 505.3 505.7 495.3 467.8 440.7 415.1 399 399 399 399 399 399 399 399 399 399 399 399 399 399 399 399 399 399.1
733.3 744.5 756.6 767.7 780.2 796.9 814.2 827.1 846 867.2 881.8 890.1 898.2 903 905.7 910.1 915.6 920.2 923.7 926 927.6 931.3 934.2 936.2 936.9 935.4 929.5 914.2 910.3 912.9 918.5 921.9 925.9 924.8 920.1 906.8 891.4 875.4 859.5 845.7 838 836.7 832 829.6 827.6 826.4 825 826.7 828 825.6 823.7 823.9 819.9 811.3 812.1 810.2 811.7 820.3 820.2 817.4 814.1 812.2 809.7 815 834.5 858.1 885.2 914.8 929.3 939.1 935.4 950.7 985.6 998.8 1009.6 1013.4 1010.2 1003.2 998.8 995.5 990.8 988.5 984.5 978 967 954.8 942.1 924.9 907.7 902.9 899.1 895.1 891.5 885.9 882.4 876.4 870 868.8 865.7 864.3 862.1 864.6 865.7 866.7 872.7 881.2 887.6 891.6 894.9 896.9 896 895.4 892.5 886.6 884 880.5 876.8 873.9 871.3 867.9 863.2 854.1 843.1 827.4 812.4 795.5 779.9 763.4 753.6 742 734.2 725.9 718 719.3 718.5 716.7 716.7 717 716.6 714.8 713.8 711.8 710.8 710.8 710.3 709.1 707.6 705.9 703.9 702.1 701.4 700 698.4 696.7 694.7 691.9 688 683.7 678.1 671.8 665.5 658.2 650.8 642 632.4 623.7 619.8 613 605.3 595.6 585.2 571.2 557.7 538.1 518.6 496.2 466.5 479.1 466.7 448 427 407.3 399 399 399 399 399 399 399 399 399 399 399 399 399 399 399 399 399 404.1
723.6 730.5 740.4 750.4 761.5 777.1 789.7 812.9 831.2 853.6 867.8 876 883.2 890.3 900 907.5 912 916.2 921.7 927.4 931 935.1 938.2 939.9 938.4 936.7 929.4 915.2 915.2 918 924.2 927.9 930.5 929.6 925.6 917.3 901.8 888 875.4 859.7 843.3 837 830.2 828 826.2 821.3 819.5 815.4 817.4 815.1 814.9 809.5 805 797.2 792.3 787.3 782.3 777.9 779.1 779.2 780.1 773 769 785.1 797.8 806 819.8 834.7 857 867.1 899.4 946.5 963.1 976.2 984.3 979.9 975.6 964.1 982 984.5 983.4 982.5 978.8 973.2 964.7 951.6 940.5 924.5 905 888.4 880.2 878 874.1 871.7 865.1 861.6 859.2 854.9 850.1 843.2 843.8 846.1 848.3 852.2 853.4 859.1 866.5 871.3 875.5 881.2 880.8 879 877.8 874.1 873.1 871.5 869.8 867.9 865.6 862.7 858.8 851.2 841.2 830.7 820.1 805.8 793.3 778.1 763.9 752.7 741.9 729.9 720.1 713.1 711 711.1 709.7 709.3 710.3 709.3 709 708.2 708.3 708.6 709.4 708.2 705.9 705.1 703.8 702.5 701.5 700.5 699.1 698.2 695.5 692.7 688.7 683.8 677.7 671.2 664.1 655.9 647.1 637.6 627 618.7 612.6 605.7 596.2 585.7 573.6 558.6 537.1 520.8 501.5 484.7 462.2 458.3 447.5 426.8 410.1 399 399 399 399 399 399 399 399 399 399 399 399 399 399 399 399 399 399.3 405.8
721.4 727.4 735.5 744.6 755.9 765.6 782.6 798.2 817.6 837.6 862.8 879.5 890.4 901.9 909 915.3 920.8 925 928 932.8 935.8 938.3 940.7 941.5 941.1 938.1 925.2 924.4 925.6 927.3 930.8 932.7 933.9 933.2 930.3 924.4 914.1 899.3 884.4 867.2 855.1 843.1 829.4 827.7 824.7 820.2 816 812.4 810 809.1 809.9 805.9 801.1 796.7 784.6 775.6 770.6 758.9 753.6 746.9 739.5 739.7 742.5 757.2 763.8 768.8 777.4 788.1 803.5 842.2 866.2 877.2 887.7 911 920.6 918.7 916.6 947.2 966.5 969.9 971.2 971.2 967.4 963.9 955.3 944.1 932.7 919 902.6 886.3 873 864.3 859.5 857 854.1 849.7 845.4 840.4 834.6 828.2 824.2 823.6 829.8 832.5 834.7 838.1 844 853.6 858.6 864.5 867.5 865.7 863.1 863.9 863.5 863.4 862.2 859.6 858.3 855.9 852 845.9 837.8 829.1 820.3 808.6 798.8 787.9 774 758 744 734.3 722.7 716.9 708.6 704.6 701.3 700.4 700 701.3 702.2 703.1 703.1 705.4 706.6 705 704.7 703.9 703 701.4 701 699.3 698.3 697.6 695.8 692.8 688 682.5 676.2 669.2 661.7 650.6 642.4 633.9 624.9 615.4 607.1 596.4 584.2 569.8 556.5 533.8 516.7 500.2 483.3 468.5 452 431.3 427.9 411.9 400 399 399 399 399 399 399 399 399 399 399 399 399 399 399 399 399 399 403.3 411.1
730.8 733.8 739.3 749.4 761.9 774.9 788.6 803.1 824.1 844.8 862.9 882.2 894.9 904.8 912.7 919.1 925.7 930.1 933.3 936 938.2 940.7 942.7 943.4 943.9 941.5 934 935.4 936.8 938.6 937.9 939.6 938.8 937 933.4 928.7 925.1 913.6 899.7 877 864.3 848.8 835.2 824.8 821 818.5 815.7 812 806.8 802.3 802.6 802.4 798.4 794 782.6 769.7 765.4 754.3 743.2 730.6 721.5 718.2 717.7 725.6 723.3 728.8 739.9 756.2 772 786.2 800.6 812.1 827.2 843.2 856.6 865.1 900.2 922.4 929.4 935.3 939.3 942 947.6 943.6 938.9 931.7 920.8 910 895.3 885.1 870.1 858.4 853.9 849.4 845.2 839.1 831.8 827.7 821.7 813.3 807 807.9 810.6 813.4 819.1 822.5 828 834.2 839.7 843.1 845.9 848.9 851.7 854 854.6 853.7 852.7 851.2 849.6 847.4 844.1 839.6 832 824.1 817.2 806.4 797.3 787.2 776.5 762.6 750.5 740.9 729.9 720.1 710.1 705.1 697 691.4 693.1 693.4 693 695.4 697.1 700 701.9 702.7 703.2 703.2 702.9 700.7 699.7 697.7 697.4 696.9 694.8 690.9 685.4 681.7 676.5 668.3 659.9 649.3 639.6 629.8 620.8 610.8 598.8 576.2 554.6 544.2 529.4 511.9 495.8 478.9 465.2 453.1 441.1 432.5 413.8 406.7 399 399 399 399 399 399 399 399 399 399 399 399 399 399 399 399 399 399.1 406.7 417.5
738.7 742.6 746.7 756.1 766.6 781.1 794.5 809.5 826.6 849.3 868.1 883.7 896.1 907.5 915.1 922.4 929 931.4 935.3 937.7 939.6 943 944.9 946.7 947.2 945.2 943.5 944.7 947 949 949.9 948 943.8 940.6 936.8 934.3 931.6 925.3 911.4 894.4 875.4 860 841.7 829.7 824.7 825 821.3 815.7 807.1 800.4 797.7 798.5 797.6 791.5 784.1 772.8 754.2 747.7 734.3 725 713.1 704.5 697.3 696.8 695.8 700.1 714.1 727.1 731.7 747 760.8 778.2 790.6 806.2 817.5 832.7 855.8 873.5 889 890.9 904.8 915 922.8 922.9 920.3 911.4 901.5 897.1 890.6 881.9 870.2 861.1 852.1 844.9 839.1 832.3 823.3 815.6 808 801.5 796.7 795.9 790.6 797.9 802.7 807.2 812.9 818.6 822.1 827.7 832.6 838.6 842.9 845.3 844.4 844.7 845.9 845.6 843.2 838.9 835.4 829.4 822.1 816.7 809.2 801.7 792.8 783 772 760.7 749.4 738.4 728.3 716.7 710.4 702.8 699.4 695.3 688.6 683.7 685.4 687.5 691.9 694.7 698.7 700.8 701.1 701.1 700.3 698.9 697.3 695.9 696.1 696.7 695.6 692.4 687.1 683.1 678.5 667.9 657 646.7 635.9 625.8 617.3 606.2 586.2 560.6 534 516.3 503.3 491 475.6 462.9 450.9 439.1 426.5 417.1 403.3 400.2 399 399 399 399 399 399 399 399 399 399 399 399 399 399 399 399 399 403.2 410.5 424.4
752 753.5 759.7 768.2 777.8 784.1 801.7 818.2 833.7 851.9 869.8 885.7 897.9 908.7 917.8 924.8 930.3 933.2 937.1 940.1 942.3 945.3 947.2 948.5 948.9 948.6 949.1 953.1 954.5 955.4 957.8 955.1 948.9 944.5 940.4 937.2 935.5 930.1 920.9 906.4 888.1 872.3 850.5 835.9 828.9 825.3 821.7 810.9 804.4 798.3 801.6 799.4 792.9 790.9 784.6 773.2 757.4 739.6 730.6 718 705.1 692.5 684.2 679.8 677.3 681.3 690 700.9 709.8 723.2 737.7 752.1 764.1 778 787.1 800.1 816.2 831.2 842.8 853.5 869.4 880.8 889.2 892.3 894.2 890.1 885.9 888.1 883.5 876.1 868.6 861.1 854.4 848.9 842.9 833.7 821.5 808.7 799.4 792.5 788.9 783.9 779 779.6 787.1 792.5 796.8 799.6 808.1 813.4 820.2 823.7 828 831.4 835.3 839 840.7 840.1 835.1 830.9 824.4 816.4 810.2 805.6 799.1 793 784.3 775.9 764.7 754.1 741.3 730.7 721.8 714.4 707.5 702.9 697.8 693.6 688.7 683.4 673 679.3 684.1 689.9 694.7 697.6 698 698.1 697.1 695.7 694.9 694.1 694 696.8 697 694.6 689.5 682.3 674.5 665.6 655.3 643 629.1 617.1 605.4 588.1 565.6 537.7 517.6 496.8 482.3 469.3 457.3 445.3 432.8 422 412.6 401 399 399 399 399 399 399 399 399 399 399 399 399 399 399 399 399 399 399 399 407.2 415.2 427.2
775.3 776.9 782.3 790.7 798 805.5 814.5 825.4 841.3 858.1 872.3 887.1 900.1 909.4 919.4 925.9 930.7 935.1 939.5 944.3 946.7 948.4 949.2 949.5 949.6 950.8 953.6 956.3 959.4 961.8 963.1 961.4 956.9 949.9 944.6 940.9 937.6 934.8 929 918.1 901.4 880.4 859.9 846.8 836.6 815 815.8 808.8 804.4 799.2 804.2 799.8 795.7 790.7 785 773.6 757.9 746.5 732.9 718.5 699.6 685.1 675.3 668.9 663.4 662.9 670 676.7 687.1 697.3 711.9 722 737.8 747.2 759 769.3 784.2 796.4 807.2 820.6 833.2 849.4 858.5 863.5 868.9 871.6 875.2 878.3 874.2 869.7 865.1 859.8 856.1 852.1 846 837.9 827.3 814.3 798.7 787.3 779.8 772.3 768.5 766.8 770 777.4 781.5 785.5 789.3 796.8 802.6 809.9 818.2 825.3 829.4 832.6 833.9 831.4 825.3 818.7 812.8 802.1 798.9 795.6 790 784.9 777.7 770.3 759.1 747 734.8 725.5 717.4 710.4 704 700.9 696.8 691.4 685.5 679.8 674 670.1 675.5 684.3 690.8 694.9 695.7 695.7 694.4 693 691.7 691.4 690.4 693.6 697.2 694.9 689.1 679.7 670 659.2 644.7 625.1 602.9 588.2 573.6 558.7 537.1 515.3 494.9 476.5 458.4 450.7 436.8 426.9 416.5 406.9 399 399 399 399 399 399 399 399 399 399 399 399 399 399 399 399 399 399 399 399 405.2 413.6 420.8 428.1
801.4 806.3 809.5 816.2 822.3 825.8 836.7 841.9 856.1 866.5 879.5 891.1 902.1 909.8 918.4 926.1 932.2 937.9 942.9 946.9 949.5 951.2 951.5 950.5 949.5 949.9 953.9 958.3 961.9 965.8 967.9 967.2 963.5 956.4 949.4 944.4 939.5 936.8 933.3 927.1 912.9 894.4 884.7 865 852 835.4 812.1 812.2 812.9 807.3 800.1 804.3 799 796 786.8 780.2 772.6 757.4 741.5 724.2 695.4 684.2 672 662.9 660 654.1 656.2 658.6 663 675.1 685.1 694.5 705.7 721 734.9 748.2 758.8 765.1 775.9 787.7 801.2 816 827.1 833.1 840.9 854.4 866.3 864.9 863.3 859.6 857 856 855.5 853 849.8 843.7 834.7 820.3 806.1 792.3 782 771.2 762.3 759.8 758.9 761.2 766.1 771.3 776.1 780.1 788.1 794.9 806.1 813.9 818.6 823 823.5 820.1 812.9 805.2 797.2 790.2 785.7 783 779.8 776.2 771.5 763.8 754.1 744.1 731.5 722.5 715 707.7 702.9 699.5 695 689.1 681.7 674.5 669 661.3 667.6 676.9 686.8 691.8 693.7 693.3 692.3 690.5 688.6 687.5 685.3 681.9 686.9 687.9 683.7 673.4 651.2 635.4 608.3 595.1 572.4 555.4 538.4 521.9 508.1 490.9 474.5 459.5 449.1 434.2 422.2 410.5 400.8 399 399 399 399 399 399 399 399 399 399 399 399 399 399 399 399 399 399 399 399 406.9 412.8 421.3 431.2 441.5
826.1 833.4 838.6 842.4 845.2 849.4 855.1 860.7 867.1 878 886.3 895.8 902.6 910.8 919.4 926.5 933.4 940 944.4 948.4 951 952.2 952.4 951.1 948.6 948.3 951.6 957.3 963.4 968.7 971.5 971.5 969.5 964.4 955.8 948.1 942 937.7 934.7 928.7 917.2 910.3 902.4 881.2 867.4 853.1 836.2 819.4 822.5 814.4 801.3 805.2 805.7 802.8 799.1 793.5 786.4 776.8 755 732.9 709.1 691.6 678 665.6 660.5 650.3 648 648.3 651.6 657.7 665.6 673.1 686.6 695.1 706.9 722 732.8 737.9 747.2 761.4 769 783.3 792.3 801.7 820.1 837.3 846.1 848.5 850.9 846.5 847.4 850.1 851.6 851.1 848.7 846 840.8 827.9 815.4 800.8 782.7 771 764.2 757.1 747.4 744.8 747.2 755.7 761 765.4 770.4 777 784.3 793.6 800.1 803.2 802.4 800 796.5 790.1 785.4 780.8 776.8 774.4 770.8 766.8 762.8 755.9 748.9 739.8 728.4 719 711.8 704.9 699.9 695.1 690 684.1 675.3 659.3 649.4 654.1 661.1 670.5 681.8 689.1 691.1 690.9 690 687.7 684.2 681.4 663.7 652.5 652.9 648.5 653.7 632.2 614.4 595.2 576 558.7 543.8 527.4 515.2 497 481 466.6 452.6 439.4 427 417.1 410.5 399 399 399 399 399 399 399 399 399 399 399 399 399 399 399 399 399 399 399 399 399 402.3 415.1 419 428.8 443.2 454.8
846.6 850.8 854.4 856.8 858.6 860.7 863.8 869 876.9 885 893 900.7 906.9 912.3 919.2 926.8 933.9 940.8 945.1 948.9 950.9 951.8 951.9 950.7 948.4 947.8 950.8 956.5 964 970.7 974.4 975 973.5 970.2 962.7 952.7 943.1 939.8 937.6 931.7 927.9 924.6 917.2 907.1 880.8 867.6 857.1 843.7 821.1 815.9 813 813 813 808.3 812.9 810.8 808.5 805.3 778.2 752.2 737.2 715 692.5 678 666.3 655.1 649.4 644.9 642.9 644.2 649.2 656.9 665.5 673.8 685.4 693.5 706.6 713.5 726.2 733.6 749.1 755.3 767.8 780 793.5 806.2 824.2 829.5 832 833.2 837.4 842.2 845.5 847.7 847.3 844.5 841.3 833.7 821.9 805.7 790.5 772.3 759.1 751.5 742.3 737.9 733.2 736.4 744.3 750.6 753.8 756.3 762.2 771 775.6 779.4 781.3 781.7 781.9 777.5 774.5 772 769.1 765.7 762.6 758.7 753.5 748.5 740.5 732.3 724 716.2 708.5 701.7 697 693.6 688.1 679.9 664.5 634.9 641.8 637.7 650.2 664.8 679.2 686.4 688.5 688.5 687.2 683.6 677.7 658.9 635.4 621.4 620.8 611.6 612.4 596.3 581.7 563.1 545.5 528.5 517.6 503.1 489.6 473.3 457.6 443.4 431.4 417.6 407.7 401.2 399 399 399 399 399 399 399 399 399 399 399 399 399 399 399 399 399 399 399 399 399 399 411.4 421.7 429.3 442.2 453 466.5
849.9 853.8 856.8 858.2 859.1 862.6 866.6 874.3 881.9 890.1 898 905.3 912.1 917.9 922.5 925 932.8 939.4 945.1 948.1 950 950.4 950 947.7 945.4 947.6 949.5 955.5 965 972.3 977.1 978.6 977.4 974.5 969.4 959.7 946.9 943.3 941.7 941.4 939.4 936.6 932.2 921.9 900.8 884.9 869.6 849.9 829.1 821.3 817.3 820.7 817.2 816.2 824.8 820.8 823.1 821.8 806.2 781.9 764.7 742.2 711.7 690.9 673.5 662.8 656.1 648.2 641 641.4 642.6 643.7 647.2 653.5 662.6 671.5 683.8 690.5 702.4 711.3 722.6 728.7 740.3 754.2 767.1 778.5 790.9 799.9 809.7 820.3 828.1 833.9 838.9 840.9 842.6 842 839.7 834.9 826.3 811.5 787.4 772.5 754 739.7 733.7 728 725.6 726 728.5 732.3 737.3 738.7 745 750.9 755.6 758.6 763 766.3 768.3 766.6 766 764.3 762.4 759.2 755.8 751.1 747.3 741.7 736.2 730.9 722.4 715 708 703.1 698.7 694.5 688.4 678.4 661.1 634.3 617.5 603.6 623.4 660.1 676.8 682.6 683.7 683.6 681.7 674.6 655.9 635.5 609.3 582 587.8 578.7 575.4 564.3 549.4 534 518.4 503.6 492 477.7 463.7 449.5 434.4 422.3 409.1 399 399 399 399 399 399 399 399 399 399 399 399 399 399 399 399 399 399 399 399 399 399 399 399 407.4 418.8 430.6 439.4 450.9 463.7 477.2
844.3 848.7 851.8 853.5 855.9 861.6 869.8 877.1 885.3 893.2 901.2 908.8 915.9 922.7 928.3 933.4 937.2 939 945.5 948.1 947.9 947.9 945.8 943.2 944.2 947.3 949.9 955.9 965.8 975.6 980.3 981.8 981.1 978.5 974.7 967.5 957.9 949.6 952.9 952.9 951.6 949 945 936.5 923 903.4 874.1 853.2 860.5 851.3 824.2 828.4 824.2 827.2 828.3 834.8 833.3 836.7 828.7 820.6 800.1 770.7 737 714.8 688.3 673.4 662.4 650.9 642.5 639.4 638.9 639.2 637.6 641.5 649.4 656.9 663.1 667.9 679.3 687.8 698.1 705.7 714 724.4 735.8 748.4 758.5 771.1 785.7 795.9 809.2 819.4 826.4 828.7 832.4 833.7 831.8 829 823.3 810.2 792.8 769.2 745.6 734.6 723.1 717.5 713.1 716.2 720.9 722.7 723.2 725.7 731.5 736.8 741.3 745.7 749.7 752.9 756.4 758.1 757.8 756.6 754.2 752.4 748.4 743.5 741 738 734.6 729.4 721.6 713.7 708.3 704.3 699.8 694.9 692.1 685.5 673 644 606.8 587.9 612.7 645.8 662.3 667.2 668.9 668.6 659.5 646.9 627.7 606.7 585 561.6 556.4 548 541.2 532.1 518.9 506.2 491.1 477.8 465.4 452.9 441.4 430.4 415.2 402.6 399 399 399 399 399 399 399 399 399 399 399 399 399 399 399 399 399 399 399 399 399 399 399 399 407.4 418.6 430.8 442.1 452.6 462.4 478.5 494.1
836.8 841.7 846 850 853.8 861.3 871.4 878.8 886 894.8 903.2 911.7 919.4 926.8 932.8 938.3 942.2 944.7 945.9 946.9 945.9 943.6 942 942 943.3 945.8 950.1 957.7 967.9 977.6 983.4 984.9 984.1 981.4 977.9 973.3 968.1 965.2 963.2 963.4 962.1 959.4 955.6 949.2 936.9 909.6 882.1 867.2 871.8 862.6 838.6 837.7 833.5 835.6 845.1 844.3 847.8 850.3 853.7 861.7 853.6 820.4 760.5 731.8 707.4 681.3 667.9 652.1 639.6 639.5 638.8 637.6 637.6 637.6 639.3 641.8 649.2 657.3 662.3 669.3 679.3 691.6 694.6 706.2 716.8 728.7 733.8 747.3 756.2 767.6 782.1 788.7 802.2 809.7 817.6 820.1 819.7 814.8 811.5 800.8 789.7 763.2 743.2 724 710 703.6 702.3 707.4 715.5 715.3 716.7 719.1 723.1 727.7 733.4 737.2 741.5 744.7 747.4 749.4 749.7 748.1 747.6 744.8 742.4 740.4 738.1 735.5 732.5 728.2 721.1 713.5 708.9 706.5 705 703 698.1 692 684.2 663.1 623.7 577.3 580 598.8 620.5 630.5 634.1 635 624.8 615.6 597.1 576 559 541.3 523.8 518.5 508.1 498.8 488.2 477.4 465.4 453.5 441.1 433.3 420.7 409.4 399 399 399 399 399 399 399 399 399 399 399 399 399 399 399 399 399 399 399 399 399 399 399 399 399 410.4 422.8 435.6 446.2 456.3 469.7 482.1 500.6 518.5
828.7 836.2 843.8 848.6 855.5 863.6 872.3 878.8 885.4 895.6 904.6 913.4 921 928.3 934.4 940.8 944.9 946.8 947.1 945.5 943.4 940.7 939.8 940.5 941.8 945.6 950.6 959.4 969.8 980.8 987.4 988.8 987.7 984.3 980.1 977.2 973.8 972.3 971.6 970.1 970.1 968.3 964.7 959.2 946.2 919.7 892.6 885.1 885.7 873.4 856 841.8 839.4 844.7 850 859.4 864.4 867.1 878.4 879.6 881.3 862.9 819.8 773.3 723.7 686.7 664.1 651.5 646.7 637.6 637.6 637.6 637.6 637.6 637.6 637.6 638.3 645.5 648.9 656 663.1 670.4 678 688.1 699.4 708.3 716 718.9 727.1 736 748.6 758.7 770.4 781.9 786.3 795.2 796 796.8 797.3 790.8 780.5 761.4 739.2 713.5 700.3 694.3 689.6 702.9 706.7 706.2 711.9 715.2 718.4 722.8 727.8 730.8 733.2 734.1 739 741.5 741.9 741.1 740.8 739.7 739.3 737.6 735.3 732.3 729.9 726.9 721.1 714.5 711.1 709.8 709.2 706.3 704.4 701.3 696.5 686.3 646.1 594.7 557.8 566.1 584.1 592.9 596.9 595.6 587.1 575.7 562.5 547.1 530.1 515.8 495.6 489.9 481.9 470.1 460.2 452.9 441.4 433.6 425.1 411.4 403 399 399 399 399 399 399 399 399 399 399 399 399 399 399 399 399 399 399 399 399 399 399 399 399 399 413.1 428.2 440.5 452.1 466 477.3 490.3 508 526.9 549.2
822.5 832.2 841.8 848.5 855.7 863.9 871.1 877.8 885.8 896.5 905.5 914 921.3 928.2 935.7 941.2 945.2 947.1 946.4 943.8 940.5 937.6 937.4 937.9 940.9 945.9 950.9 959.2 972.4 982.3 989.7 991 989.4 985.6 982.1 979.9 977.8 977.1 978.2 976.8 976.3 974.3 971.2 966.8 958.9 932.9 911.5 908.5 898.4 886.2 870.8 854.4 853.7 853.9 863.3 872.3 875.7 886.1 894.9 903.8 902.4 902.8 878.5 851.7 737.6 693.5 671.7 654.8 640.2 637.6 637.6 637.6 637.6 637.6 637.6 637.6 637.6 637.6 639.9 645.1 651.6 658.1 664 671.2 681.4 691.4 701.2 702.5 705.1 711.3 722.5 732.9 744.7 753.2 762.3 764.5 770.2 773.3 773.7 763.7 752.5 745.7 728.8 702.2 686.3 681.5 677.2 693.4 693.2 699.5 703.7 708.9 713.4 716.3 720.4 724 725.9 725.5 729.9 733.4 734.8 735.4 735.9 736.5 736.6 735.4 733.8 730.3 727.4 724.4 719.9 714.2 713.3 711.3 710.2 709.1 707 704.3 700.3 690.4 652.4 610.8 569.1 536.9 547.1 555.2 559.5 559.2 551.6 542.2 529.5 517.6 505 489.1 482.4 466.3 456 446 432.5 428.5 420.8 417.4 403.6 399 399 399 399 399 399 399 399 399 399 399 399 399 399 399 399 399 399 399 399 399 399 399 399 399 405.6 422.5 436 449.4 462.6 476.8 492.1 506.9 520.1 539.2 564.2 585.1
817.4 829.4 838.9 847.5 856.1 862.6 870.1 877.6 887.3 896 905.7 913.4 920.5 927.7 934.4 940.3 943.5 944.6 943.2 940.1 936.9 934.4 933.8 935.9 939.7 944.8 952.3 959.1 972.5 981.8 989 991.4 989.7 986.5 984.2 982.6 981.3 981.4 982.6 982.3 981 978.9 975.5 972.3 965 952.8 941.3 933.5 920.6 905.8 891.2 871.7 867.4 868 864.7 877 884.1 898.3 907.3 919.4 919.3 917.8 911.1 906 792.2 707.1 691.7 664.4 645.9 637.6 637.6 637.6 637.6 637.6 637.6 637.6 637.6 637.6 637.6 637.6 638.4 646.1 655.4 663 670.5 680.8 688.1 694.7 698.7 705.3 710.6 717.4 726 734 739.4 742.9 747.2 745.8 750.8 746 741.9 736.6 718.2 689 670.5 668.2 669.2 679 685.6 688.5 690.3 696 710.4 711.4 711 712.7 716 716.9 720.5 725.4 728.7 731.1 732.9 733.8 734.5 734.2 732.7 729.6 726.3 722.3 715.5 713.9 713.9 712.2 710.5 709.4 708.2 705.4 701.4 687.4 653.4 612.2 578.5 543.4 512.4 522.9 525 522 517.2 509.3 501.4 487.5 478.1 466 455.5 449.2 439.1 427.2 412.8 402.1 401.7 399 399 399 399 399 399 399 399 399 399 399 399 399 399 399 399 399 399 399 399 399 399 399 399 399 401.5 419.1 432.2 449 461.9 476.1 490.7 505.6 518.1 542 556.5 570 588 599.9
810.5 825.8 836.1 846.1 854.4 860.7 867.9 877.7 886.4 894.8 904.3 911.8 917.8 925.8 931.9 936.4 938.6 939.6 938.7 935.9 932.6 929.4 930 933.1 937 943.7 952.1 960.5 973.4 982 986.7 990.2 990.5 988.2 986.4 985.1 984.5 984.6 986.2 985.8 983.7 981.8 979.2 976.7 968.9 961.9 963 954.6 940.2 924.4 912.6 893.8 881.8 878 875.2 875.8 887 899.9 914.6 924.6 930.1 929.4 932.5 924.6 847.7 735.5 711.9 679.9 655.6 641.9 637.6 637.6 637.6 637.6 637.6 637.6 637.6 637.6 637.6 637.6 637.6 637.6 647.5 654.2 658.5 670.7 679.8 687.1 693.3 701.4 707.6 713.4 717.5 720.9 724.6 729.3 729.7 729.4 732.6 732.6 729.1 726.1 714.3 692.4 669 669 669 669.6 672.1 676.1 686.4 693.5 703 707 697.9 699.9 700.3 701.8 706 710.3 715.8 719.3 722.9 726.6 729.5 728.2 724.1 722.8 718.7 717.7 715.6 711.9 709.6 708.7 708.8 708.6 707 704.7 701.2 676 647.3 613.9 583 552.7 521.1 492.8 494.1 496 485.2 477.1 471.8 463.3 456 446.5 433.8 430.3 422.8 415 407.4 399 399 399 399 399 399 399 399 399 399 399 399 399 399 399 399 399 399 399 399 399 399 399 399 399 399.4 413.5 430.4 441.6 461 476.8 490 509 526.5 544.2 554.3 577.5 586.4 593.9 602.4 606.7
803.1 819.8 832 842.8 852.4 858.5 866.6 874.9 883.6 892.5 901.2 908 913.9 921.6 927 930.3 932.1 933.2 932.1 929.7 927 923.7 926.9 931.8 936.8 943.4 951.3 964.6 974.5 981 986.1 989.9 991.9 991 989.2 987.1 986.1 987.1 988.2 987.2 984.9 983.2 981.9 981.2 978.7 978.4 979.1 971.3 958.1 938.5 923 904.1 890.7 882.9 878.4 874 883.4 898.3 913.5 925.2 931.6 938.1 944.7 938.4 877.3 758.5 720.4 687.9 669 653 643.5 638.4 637.6 637.6 637.6 637.6 637.6 637.6 637.6 637.6 637.6 637.6 639.2 645.7 653.4 668.2 671.9 679.5 686.8 693.5 701.5 710.1 714.6 714.6 709.8 710.9 715.8 717.5 719.3 720.1 717.5 716.4 709.8 693.2 675.8 669 669 669 669 672.8 677.2 686.1 696 684.6 685.7 685.2 685.2 679.5 675 674.6 676.3 674.6 688.7 695 693.9 696.5 685.5 679.1 680.5 682.2 687.4 694.4 696 699.4 700.3 699.1 697.1 694 678.1 636.4 606.5 585.9 564.4 542.1 528.2 507 486.5 468.6 459.5 453.4 444.5 438.4 433 423.3 417.4 412.1 407.3 403 399 399 399 399 399 399 399 399 399 399 399 399 399 399 399 399 399 399 399 399 399 399 399 399 399 403.6 424.2 440.1 460.7 480.6 492 510.7 528 545.9 580.7 585.1 598.7 596.5 599.4 601.1 606.3 611.8
793.2 809.9 826.3 836.2 847.8 855 863.4 871.8 880.1 888.2 895.1 902.7 909.2 915.5 920.1 923.1 923.8 923.4 922.5 922 919.6 920.4 926.3 932.7 939.1 946.7 956.9 966.5 974.6 980.7 986.5 991.5 994.8 993.9 992.2 988.5 987.6 987.9 987.5 986.4 984.3 982.9 983.3 985.1 988.4 992.7 988.6 979 968.5 951 932.6 911.3 897.2 884.8 878.9 877.3 880 891.9 908.8 922.8 931.1 941.7 948.4 946.6 831 833 778.5 704.1 676.8 658.8 653.1 645.6 638.9 642.5 637.9 637.6 637.6 637.6 637.6 637.6 637.6 637.6 637.6 637.6 637.6 646.6 653.6 662.7 673.5 683.5 691.8 700.1 707.7 705.7 703.8 702.3 705 708.9 714.9 716.4 709.9 707.5 701.3 695.8 687.9 671.2 670.7 669 669 669 671.6 678.1 673.7 674.6 673.3 668.1 663 650.8 639.5 632.3 628 629.4 635.8 637.2 641.2 644.2 641 639.2 644.8 644.7 647.7 655.1 659.7 672.8 670.2 650.3 658.5 645.8 623.7 592.7 573.4 552.6 532.2 516.6 502.5 491.6 481 468.8 452.6 441.9 430.3 422.8 418.6 414.9 411.6 408.6 404.2 399 399 399 399 399 399 399 399 399 399 399 399 399 399 399 399 399 399 399 399 399 399 399 399 399 409.7 426.4 447.2 465.8 494.3 531.7 541.8 547.4 582.4 602 622.6 622 616.3 611.1 606.7 608.5 613.3 617.1
778.7 796.5 814.3 827.4 839 848.7 857.2 865.3 874.2 881.8 889.3 896.4 902.5 907.8 910 910.2 909.6 907.7 907.7 908.9 911.6 919.6 927.4 935 943.3 952.4 961.3 967.6 975.3 981.6 987.7 993.8 997.2 996.2 993.8 990.1 987.4 986.5 985.3 984 981.9 981.7 985.3 989.8 995.8 1003 995.4 982.7 970.4 957 940.4 920.9 901.3 888.1 879.9 877.5 878.8 885.7 903.9 917.7 929.7 941.5 952.1 949.8 848.2 885.6 817.8 764 694.9 673 661.4 656.9 655.3 649.7 646.4 637.7 637.6 637.6 637.6 637.6 637.6 637.6 637.6 637.6 637.6 637.6 637.9 643.5 655 660.6 677.7 689.8 687.1 683.9 686.1 688.6 693.3 698.9 703.9 706.1 706.3 706.4 703.4 704.5 701.6 673.6 666.1 667.2 669.9 673.7 675.9 677.6 669.5 666.6 658.7 648.5 636.2 622.4 604.9 599.4 593.5 594.2 599.6 596.4 601.5 602.1 603 601.1 608.1 609.2 611.2 618.6 622 628.1 624.6 610.9 603.5 583.1 566.9 551.1 539.1 521.5 503.3 491.8 483.6 475.3 468.8 463.7 447.1 434.7 423.5 416.8 411.8 407.6 402.5 401.6 399 399 399 399 399 399 399 399 399 399 399 399 399 399 399 399 399 399 399 399 399 399 399 399 399 409.1 426.4 446.2 468.1 493.3 517.6 552.9 579.3 590.7 604.5 629.8 633.1 628.2 623.2 619.2 614.7 616.1 619.8 622.3
761.5 782.7 801.7 815.6 828.4 837.5 849 856.9 865.3 873.5 880.6 888.3 892.8 895.8 895.6 891.6 890.3 892.5 892.1 906.3 915.8 922.8 930.3 938.4 948.8 959.2 966 972 977.3 983.8 989.8 994.7 998.3 996.9 994.1 989.6 985.1 982.8 980.9 979.2 978 978.4 984.6 990.6 996.3 1005.2 995.3 984.8 972.4 960.2 944.2 926.4 906.3 889.4 879.8 878.4 879.4 886.3 901.9 918.2 931.6 942.7 954.5 955.8 895.2 937.6 887 810.3 729 694.9 678.4 673.1 662.3 658.6 652.8 649.9 646.5 646.3 643 643.2 647.7 639.3 639.7 640.7 637.6 637.6 637.6 637.6 641 647 658.3 668.7 661.7 663.6 670.6 677.7 683.1 688.9 692.1 693.3 695.2 698.4 700.1 701.4 695.7 671.9 673.5 672 667.2 665.7 665.7 661.2 655.8 646.5 628.9 612.1 598.5 585.4 576 564.2 562.7 562.9 565.1 564.4 567 568.2 570.3 566 566.7 573.3 574.1 574.2 577.2 578.7 576.1 560.9 556.4 541.8 529.6 516.4 504.4 491.1 478.6 470 463 455.6 449.4 447.2 432.7 423.6 416.6 412.3 408.1 404.3 401 399 399 399 399 399 399 399 399 399 399 399 399 399 399 399 399 399 399 399 399 399 399 399 399 399 410.6 431 446.2 467.4 487.8 510.6 535.9 561.1 593 611.5 624.4 631.6 634.1 631.3 629.4 626.6 624.5 624.8 630.4 630.8
746.9 768.3 787.3 802.6 815.1 823.6 832.7 844.9 856.1 864.7 871.3 877.3 880.6 878.6 876.8 874.3 874 882.9 898.6 909.6 918.6 926.9 935.8 945.1 955.6 965 972 977.5 982.5 987.8 992.6 996.3 998.2 996.5 992.5 987.5 981 975 972.5 971 970.9 974.8 982.6 989 993.6 996.8 993 983.1 971.5 960.1 946.3 930.3 910.2 891.6 881.3 879.4 879.2 883.3 899.6 917 932.7 945.8 958.3 963.4 952.2 960.8 929.7 826.6 753.9 714.4 698.9 689.8 674.2 669.1 667.2 660.9 656.8 654.6 650.8 653.9 651.6 648.4 649.1 650.2 646.8 649 648.8 643 637.3 637 638.3 652.8 647.8 649.3 658.1 667 671.2 677.8 680.4 684.5 685.8 687.4 690.8 692.7 692.9 689.5 683.2 675.9 669.6 663.3 655.5 654 640.6 618.6 594.5 575 557.6 547.3 543.2 534 533.4 534.9 532.9 534.8 537.7 536.2 537.3 535.8 533.9 540.4 537.3 535.6 532.5 535.1 530.2 524.4 518.4 511.1 500.1 486.4 476.5 464.5 454.6 450.5 444.6 439.9 434.8 430.4 423.8 417.4 411.7 408 404.3 401.5 399 399 399 399 399 399 399 399 399 399 399 399 399 399 399 399 399 399 399 399 399 398.7 400.2 399 399 405.7 421.9 446.9 468.1 488.7 511.3 533.3 557.1 580.7 602 615.8 626.5 631.5 636.2 636.4 635.6 633.5 632.1 634 637.7 640.7
731.9 751.5 771.5 786.9 799.5 808.5 819.3 830.6 842.8 851.1 858.9 861.6 862.5 859.7 858.5 855.5 871.1 887.9 901.7 912.6 922.7 931.8 940.3 951.2 961.7 970.7 978.2 983.8 988.3 992 995.6 997.1 997 994.4 990.1 983.6 970.3 964.2 956.3 956.5 959.7 971.5 979.4 985.3 989.2 990.5 986.5 979.6 969.2 959.7 945.4 932.5 915.7 895.3 884.7 881.6 881 883.8 897.5 916.7 934.2 947.4 958.7 965.5 971.9 971.8 966.3 874.4 807.5 747.4 727.2 709.8 691.2 686.6 680.1 675.8 671.1 668.3 666.3 658.7 656.9 656.2 652.5 654.9 652.2 664.3 671.7 668.4 660.3 645.2 635.3 630.3 634.7 635.4 645.1 651.5 657.5 664 672.5 669.7 667.8 673 677.7 682.9 688.6 688.6 689.2 686.5 677.9 668.9 659.4 651 633.1 603.5 559.7 544.8 534.8 525.2 519.1 515 510.5 509.9 512.7 509.3 513.6 507.7 506.3 507.1 503.8 507.7 511.3 505 498.8 502.3 499.9 495.1 486.7 480.6 473 463.6 456.2 446.8 438.7 436.8 435.2 427.8 426.6 420.4 414.2 410.2 408.1 405.6 404.6 400.2 399 399 399 399 399 399 399 399 399 399 399 399 399 399 399 399 399 399 399 399 399 401.1 405 405.6 409.9 421.3 442.3 466.9 491.3 509.8 534.3 562.1 588.2 604.4 614.7 621.9 629 635.2 639.1 641.1 641 640.2 639.8 640.2 644.2 647.8
716.8 737.6 753.4 769 783.4 794 804.6 817.4 829.2 837.1 843.8 843.3 842.9 841.3 839.2 855.2 872 891.4 904.1 916.1 927.3 936.7 946.2 957.6 967.4 975.8 982.3 987.8 992 995.9 997.7 997.4 995.6 991.8 986.1 975.8 961.1 956.3 946.9 946.8 956.4 966.3 974 981 984.1 984.1 981.3 975.1 968 957.4 945.5 934 922.6 911.8 898.6 889.5 886 886 895.3 915.2 934.1 947.3 956.7 966.6 976 979.5 975.9 968.2 865.5 788.9 754.5 728.7 714.6 704.3 692.4 690.1 686.8 684.9 675.8 666.6 658.3 657.4 656.2 657.1 663 669.6 678.3 680.3 658.9 645.3 643.5 634.2 628.1 626.1 635.3 637.6 643.4 643.7 650.1 657.8 654.7 665.9 667.1 672.9 675.6 678 678.3 676.1 670.5 652.8 637.2 621.5 602.4 582 559.6 541.7 525.2 510.5 499.6 500.3 496.2 492.5 488.1 487.9 485 487 478.9 482.4 475.4 479.2 484.6 477.3 474.2 475.4 474.1 471.4 463.5 456.9 447.9 444.6 437.9 429.6 425.5 426.5 423.8 423.6 422.1 416.5 409.4 405.3 405 403.5 403.1 399 399 399 399 399 399 399 399 399 399 399 399 399 399 399 399 399 399 399 404.5 412 414.9 411.5 413.6 415.6 419.9 439 461.3 490.8 520.3 544.8 558.2 593.6 610.4 616.3 624.6 629.5 635 639.3 643.6 645.6 646 646.1 645 644.4 648.2 653.7
701.1 721 735.9 751.6 764.1 775.1 788.2 800.5 810.1 818.2 823.1 821.9 820.1 822.3 840.9 860.9 877.1 893.8 909.2 921.5 931.8 941.4 951.4 962.2 971.2 978.7 985 990.1 994.6 997.8 998.2 997 993.9 989.5 981.1 969.2 956.9 950.1 941.4 940.7 948.7 957.9 967.7 974 977.6 977.7 975.3 971.2 965.7 956.8 944.1 939.4 938.1 931.9 916.7 902.9 894 889.8 892.3 911 931.7 946.1 956.4 968.3 975.9 980.8 979.6 973.5 953.4 804.1 781.5 756.2 736.6 718.6 706.4 699.8 701.9 703.4 684.1 669.4 661.7 657.4 661.1 664.7 667.2 669.1 673.5 672.7 668.6 661.6 647.8 630.9 626.8 626.3 631.2 636.3 633.9 635.1 639.4 640.4 636.9 642.8 652 657.2 657.7 662.1 661.9 660.1 646.2 625.7 607.1 589.6 571.8 552.3 537.4 524.5 512.1 499.8 495.8 479.3 489 487 486.4 472 466.1 461.6 463.3 458.2 455.8 455.7 461 461.1 455.3 455.4 458.2 456.2 447.1 443.3 434.5 424.8 421.1 419.3 411.2 408.4 407.4 407.3 409.8 407.9 406.5 401.6 402 402.8 398.9 399 399 399 399 399 399 399 399 399 399 399 399 399 399 399 399 405 415.4 425 434.5 443.6 443.8 428.4 422.2 422.6 435.3 457.2 478.5 514.7 546.7 575.1 595.3 613.2 620.2 624.3 629.8 634.6 638.8 642.6 647.1 649 649.9 650.2 649.9 650.2 651.8 655.7
689.8 705.6 720.8 734.3 746.5 760.3 771.5 785.6 793.9 799.8 800.1 798.5 814.1 833.4 852.3 868.8 882.7 900.6 915.5 927.2 936.4 944.6 955.1 965.3 973.8 980.5 986.1 990.9 994.8 997 997.6 995.6 991.8 985.9 976.6 962 951.5 945.3 934.9 931.7 937.9 946.6 957.4 966 970.5 971.2 970.2 967.5 962.7 958.7 952.9 953.8 955.5 951.2 939.7 916.7 905 896.3 893.6 909.4 928.6 944 956.1 967 973.8 979.4 980.5 976 955.3 843.8 824.9 783.4 762.4 743.6 721.9 714.1 712.9 717.5 690.7 673.2 670.1 671 669.8 666.5 665.6 671.9 668.9 668.6 668.5 655.7 638.5 634.1 629.3 628.4 630.8 631.8 629.1 628.5 629.5 622.4 618.2 624.5 629.5 632.8 629.9 631 630.1 622.8 611.8 596.2 579.3 562.4 548.2 534.7 524.1 512.6 501.6 494.4 485.8 474 463.5 462.2 464.8 464.2 455 446.1 445.7 447.9 444.1 440.1 438.3 440.3 438.3 433.2 431.3 434.2 431.2 431.8 426.2 424.7 418.3 406.6 405.7 402.7 399 399 400.5 398.8 399 399 399 398.8 399 399 399 399 399 399 399 399 399 399 399 399 399 399 399 409.2 421.7 433.8 446.8 457.3 470.9 480.9 461.3 444.1 429.4 431.3 448.1 468.9 498.9 539.9 575.9 609 615.9 620.4 626.8 628.8 633.9 638.3 642.2 646 649.9 652.2 653.7 654.7 653.9 654.4 654.3 657.1
676.8 691.7 707.1 720.8 731.8 744.4 755.4 766.5 775 780.1 782.7 804.3 824 841.8 858.9 876.7 893.3 909.2 921.6 930.3 938.9 947.4 957.3 967.7 975.6 981.4 986 989.4 992 994.7 995.1 993.1 988 979.6 970.6 958.8 943.9 936.7 931.4 924.6 925.8 937.1 949.9 959 964.3 966.5 967.8 968.5 968.1 967.2 966.1 968.9 971 968 959.9 936.5 913.7 903.8 899.7 905 926.3 941.7 954 963 970.4 976.4 978.7 977.2 964.8 902.5 901.6 814.4 784 760.5 740.6 728 723.3 732.8 704.6 684.9 684.3 683.5 677.8 669.1 668 670.7 671.9 666.9 663.8 654.5 645.8 641.4 630.4 627.1 624.7 628.9 620.7 619 616.6 613.8 609.2 614.5 618.1 617.4 608.3 602.7 601.4 593.8 583.7 570.9 558.3 544.9 532.3 521.6 511.3 501.4 490.8 482.8 473.6 466.7 457.8 456.4 447.7 447.2 443.7 437.1 431.5 434.7 433.2 430.7 429 425.5 426.3 420.2 417 419.8 416.9 416.5 415.2 411.6 404 402.9 400.2 399 399 399 399 399 399 399 399 399 399 399 399 399 399 399 399 399 399 399 399 399 402.6 412.2 425.6 438.7 454.3 462.5 480 497.9 511.9 496.2 473.2 450.5 439 440.3 456.7 485.3 515.8 552.9 585 621.9 627 625.1 631 633.8 636.2 640.2 645.4 649.3 653.5 656.3 657.4 657.7 656.7 656.8 657 657.6
664.1 679.4 693 705.8 718.4 729.4 738.1 748.5 753.8 769.8 791.6 811.7 829.6 844.4 863 882.7 901.1 914 923.8 932.6 940.1 947.9 957.8 967.7 975.7 982 984.7 986.5 988.5 990.4 990.8 988.6 983.7 976.3 965 952.8 939.3 932.5 926.5 919.2 917.6 927.4 941.3 952.9 959.6 963.4 965.6 968.4 970.1 971.4 973.9 977.2 980.1 979.8 973.9 951.6 927.5 912.5 905.1 903.7 919.6 937.4 949.5 958.9 965.2 971 973.4 971.4 960.4 937.7 920.5 840.9 798.9 784.9 756.2 753.5 754.6 755.6 728.4 713 701.2 703.1 696.1 681.4 680.9 682.7 680.2 674.4 667 657.8 648.1 636.5 631.5 627.4 624.9 622.2 617 610.2 606.3 604.6 603.2 603.7 600.8 595.6 589.9 584.5 576.6 570.9 561.9 553.9 541.8 530.8 519.9 512 502.7 492.8 483.8 474.3 468.9 457.9 451.1 453.6 448 440 437 433.6 426.9 424.3 422.8 420.8 419.8 421.2 419.2 415.8 413.1 412.1 413.5 414.5 412.9 412.8 404.4 399 399 399 399 399 399 399 399 399 399 399 399 399 399 399 399 399 399 399 399 399 408.3 415.5 426.8 440.4 454.7 471.5 487.9 504 511.8 535.4 537.8 501.6 474.9 457.1 446 450 469.1 495.8 531.1 576.6 612.9 632.3 633.7 631.7 634.6 636.8 639.1 642.8 646.7 650.1 654.5 658.2 659.7 658.7 657.7 657.1 656.6 656.2
651.5 666.4 678.9 683.5 696.3 718 732.8 745.7 760.3 777.3 793.1 813 830.8 848.4 870.1 888 905 916.8 925.8 933.4 941.4 948.5 957.5 966.7 974.8 980.9 982.6 983.2 984.1 985.1 985 983.9 980.1 974.8 966.6 951.4 935.7 924.3 919.3 914.4 914.3 919.9 934.1 947.4 956 960.5 963.3 966.8 969.8 972.8 976.7 981.5 985.7 987.2 981.3 964.7 941.5 921.5 912.9 906.3 913.4 931.2 943.6 953.4 959.7 963.3 965.7 961.7 949.4 938.4 916.4 860.6 818.4 788.7 778.9 783.7 790.4 787 777.8 760.8 728.5 722.2 720.4 709 702.7 698.4 697.9 694.2 688.5 680.7 665.7 650.8 640.4 635 630.1 626.8 618 627.8 616.4 608.6 605 601.5 599.8 595.1 586.7 577 568.2 557 545.1 535.1 530.3 521.7 510.7 503.2 493.2 485.3 477.3 468.7 460 454.3 447.7 443 439 440.4 430.2 427.6 426.3 429 428.5 418.5 417.9 420.7 421.1 415.6 412.6 412 408.6 414.6 412.9 412.4 405.2 399 398.6 399 399 399 399 399 399 399 399 399 399 399 399 399 399 399 399 399 399 413.8 428 440 456.8 469.9 487.7 503.9 522.2 546 556.3 568 537 501.8 482.3 470.4 452.6 457.5 480.9 512.8 548.1 583.9 627.6 637.7 637.5 635.7 637.8 640.2 641.4 643.9 646.2 647.6 651.2 655.9 658.2 657.8 656.8 654.9 655.1 655.9
639.8 649.9 671 685.2 700.4 716 730.6 744.4 758.4 775.6 791 811 832.4 851.8 874.9 893.6 907.9 918.9 927.4 935.8 942 947.9 955.8 963.6 972 977.6 980 979.4 978.4 979.2 979 978.5 976.2 972.3 965.9 955.4 940.6 926.6 917.2 911.9 911 919 931.2 942.9 951.6 955.7 959.7 964.2 967.8 971.7 977.3 983.1 987.7 988.5 982.7 970.3 954.6 934.5 916.8 909.6 908.6 920.9 935.7 946.7 953.9 957.2 958.9 955.5 945.1 932.6 912 879.6 827.6 803.2 808 813.7 813 805.6 799.7 795 760.9 746.1 746.4 740.9 729.6 717.8 722.4 723 721.1 710.1 689.1 672.5 660.4 648.1 642.7 635.2 631.5 631.1 617.4 613.2 611.4 610.3 605 605.9 601.4 589.6 577.2 565.4 556.1 545.1 533.7 520.6 511.7 502.1 494.1 485.3 475.4 470.8 461.3 453.5 448.6 444.9 436.4 433.2 432 430.1 432.9 433.9 430.7 425.8 417.6 415.6 420.5 415.4 411.3 410.9 409.1 406.7 404.1 406.2 401.9 400.7 399.6 398.6 399 399 399 399 399 399 399 399 399 399 399 399 399 399 399 410.3 427.5 440.9 458 471.1 481.8 505.8 524.7 543 564 580.4 587.2 565 534.3 508.4 493.1 476.4 458.8 464.7 486.2 522.8 560.4 605.5 619.6 633.2 637.8 637.7 638.8 640.1 641.2 642.1 644 645.8 647.9 651.3 652.3 654 653.3 651.9 652.7 654
630.7 652.5 666.8 682.3 700.2 719.5 726.2 739.2 753.1 770.1 788.8 808.6 833.4 857.3 878.8 896.6 910.4 923 931.7 937.9 942.5 946.7 952.6 959.8 967.1 973 975.1 974.4 973.2 973 972.9 973.2 971.7 968.9 963.9 956.5 944.3 929.9 917.3 910.9 907.6 914.9 927 937.2 944.5 949.9 955.7 959.3 963.5 969.5 976.8 983.3 986.9 986.5 980.7 971.8 961.1 948.3 929.7 914.6 911.1 913.1 926.6 939.8 947.9 951.6 953.1 948.4 943.3 930.9 912.3 887.5 843.8 830.4 839.1 842.8 842.3 838.4 832.2 820.9 791 781.7 773.1 768.2 757.1 749.3 748.6 748.8 752.6 750.1 731.6 702.4 688.2 674.6 657.8 648.8 647.6 630.1 626.7 621.8 619.2 614.7 613.5 611.2 607.3 597.6 586.9 573.7 561.8 549.8 542.2 530.4 520.8 511.1 503.3 493.2 486.8 478.3 471.4 467 460.9 453.4 448.7 447.3 444.2 448.9 441.9 438.8 437.3 431.9 421.4 414.8 412.7 411.1 409.7 407.4 406.1 404.3 404.1 402.2 401.7 401.2 400.4 399.1 399 399 399 399 399 399 399 399 399 399 399 399 399 406.1 419.2 436.8 455.3 475.8 492.9 504 520.3 523.4 552.6 586.7 591.7 604 591.6 561.7 534.8 513 497.1 481.1 467.9 471 491.1 526.6 570.7 612.9 627 631.7 636.4 637.9 639.1 638.8 640.8 641.9 642.6 643.5 644.7 646.8 648.8 648.5 648.1 649 649.7 651.1
628.6 643.7 660.5 677.3 690.1 710.3 714.5 728.3 744.4 761.6 780.7 805.2 832 859.3 880.4 900.5 917.2 928.6 935.4 939.9 943.3 946.3 950.3 955 961.3 966.3 968.8 969.3 967.4 966.3 967.1 967.8 968.3 966.4 962.4 955.9 945.2 928.2 915.2 906.5 901.7 908.2 919.2 929.2 937.2 943.6 949.5 953.3 956.1 964.8 974.3 982.2 986 985.1 978.4 972 963.9 954.4 944.1 929.8 917.7 914.1 918.1 933.4 942.9 947.1 948 945.1 939 930.7 917.7 894.8 859.2 867.2 869.7 861.3 865.2 862.2 861.2 849.3 829.8 821 808 797.8 786 775.5 773.7 774.3 770.6 775 769.3 742.2 719.2 701.2 679.5 664.9 652.9 643.1 628.2 625.7 622.1 618.4 616 613.5 614.6 613.2 601.8 585.6 572.3 560.2 549.7 541 529.8 521.4 514 507.2 498.5 492 484.3 478.1 473 466.8 465 463.3 462.2 460.1 449.9 442.3 437.2 431.5 425.5 420.7 424.6 421.4 409.2 407.7 406.7 405.5 403.5 402.6 401.7 401.1 400.6 399.7 399 399 399 399 399 399 399 399 399 399 399 402.1 416.5 434.2 450.1 466.2 489.4 508.2 527.6 545.1 563.1 572.2 575.8 613.6 620.3 617 590.7 561.7 537.4 517.1 500.8 489.1 477.6 480.7 497.1 526.6 565.6 605.8 625.5 634.4 636.2 637 639.7 639.8 640.6 641.4 641.5 641.5 642.4 642.6 643.9 644.8 643.9 645.4 647.4 649
616.8 628.9 645.5 660.2 676.3 697.5 703 711.8 730.2 748.4 769 795.2 823 857 882.7 906.1 921.4 931.8 939 942.3 945.2 946.8 948 951.4 956.2 958.6 961.3 961.8 960.5 959.7 961.3 963.3 964.1 963.8 961 955.3 945.3 927 915.1 901.8 893.6 901.7 911.7 921.1 929.7 936.5 940.1 942.3 947.6 959.5 971.3 980.6 985.1 982.6 977.5 972 965.1 959.1 952.6 942.6 931.1 919.2 920.6 928.1 938.9 943.1 944.2 941.5 936.2 927.7 916.1 902.2 891.8 892.1 883.3 883.1 882.7 882 886.2 881 874.4 861.2 841.6 829.3 816 794 789.6 787.7 783.6 785 792.6 786.9 758.9 739.1 696.7 679.2 661.5 650.1 643.2 635.6 627.8 623.7 621.3 620.8 623.4 621.1 618.1 605.9 589.4 575.3 564.2 555.9 544.3 536 529.8 527 518.5 512.2 501.9 497.1 490.3 483.4 479.8 478.4 473.5 469.2 458.5 451.4 445.6 439.6 437.5 437 433.3 427.4 421.2 410.3 412.2 405.1 403.7 402.3 402.5 402.4 399.9 399.5 398.7 399 399 399 399 399 399 399 404.5 413 414 424.9 442.3 460.5 483 498.7 514 544.5 566.2 586.5 604.8 609.4 597.2 625.2 627.6 623.9 598.2 572.6 543 521.7 505.1 496.2 493.3 483.5 498.7 524.6 563.6 601.5 625.4 635 635.7 636.7 637.8 638.4 639.7 639.1 638.8 638.8 639 639.6 640.1 641.5 642.2 643.7 645.9 648.5
611.1 615.2 629.2 639.2 657.2 668.3 698.4 704.6 717.5 734 757.3 778.9 810.6 843.6 872.7 898.5 919.2 933.7 940.5 945.2 947.3 947 947 947.9 950.1 951.4 953.3 953.4 953.2 953.8 956 958.9 960.1 960.7 958.8 954.1 945.9 930.8 917.3 902.2 887.7 893.8 901.8 908.7 918.4 925.1 928.1 930.8 940.3 955.3 967.1 977.5 980.4 979 975.6 973.5 967.7 963.3 958.2 950.6 941.4 932.9 927.1 929.9 936.8 941.1 941.5 939.8 936.1 930.1 920.1 913.6 911.6 907 899.3 901 905.9 906.5 906.3 906.7 903.2 899.4 888.4 870.1 843.2 818.2 805.8 800.1 795.4 791.4 799.7 796.8 792.8 768.7 736.3 701.3 688.2 679.1 664.7 649.7 634.4 627.4 624.9 625.3 627 627.6 626.5 620.7 605.5 594.6 582.4 573.3 563.8 559.9 554.4 550.2 543.4 535.4 528.9 521.8 515.8 509.2 501.7 500.3 489.6 483.9 475.9 470.4 467.2 459.6 457.6 453.1 445.3 439.6 430.2 429 411.5 405.7 403.9 409.9 408.5 406.4 410.6 402.9 402.3 399 399 399 399 399.6 404.4 413 425.1 436.4 444.3 457.6 471.4 494.6 516.5 539.7 551.9 571.7 592.2 617 623.5 623.4 622.3 628.3 632.6 630.5 609 581.6 553.1 530.8 516.8 504.1 501.8 505.9 497 521.4 550 586.9 614.6 629.8 634.7 636.7 636.9 637.3 638.3 638.1 637.4 636.1 637.1 636.7 636.8 639.2 639.8 641.4 645 647.8
600.8 602.4 612.2 625.8 638.7 662.5 689.9 694.6 703.5 720.8 741.6 763 789.4 821.3 845.6 878.3 911.2 929.4 940.6 947.7 949.4 948 946.1 945.4 943.9 944.6 945 945.2 945.4 947.6 950.2 953.8 956.7 958.1 956.8 952.5 945.3 931.8 916.1 902.8 890 884.1 888.8 896.9 903.9 907.6 910.6 923.6 937 951.3 965 973.9 976 976.2 976.2 975 973.4 969.8 963.7 956.4 950.1 941.8 936 933.8 937.9 939.7 939.9 939.1 937.5 932.8 926.3 920.8 922.3 922.2 924.7 926.1 926.9 928.3 930.8 930 928.2 926.1 918.4 904.2 869.6 841.9 825.1 816.2 800.7 797.8 807 804.5 802.6 780.8 750.6 778 747 732.8 696.5 671.8 654.5 641 635.8 631.3 626.7 633.9 633.6 628.9 620.9 614.9 607.2 592.6 588.7 586.1 585.4 579.2 570.2 565.1 559.1 550.2 543 539.8 532.3 526.9 516.4 511.1 504.8 496.9 487.3 483.9 476 468.2 460.7 456.8 444.7 423.9 419 409.4 419.7 419.2 413.6 411.1 410.3 410.5 408.4 407.8 404.7 410.6 418.9 422.2 426.7 442.2 453.4 462.6 466.5 489.6 504 525.2 554.7 580.1 599.5 606.6 625.4 631.1 628.8 627.1 628.8 631.1 640.4 635.2 625.8 599 575.7 554.5 539.6 526.2 519 519.6 514 518.6 540.2 574.4 602.9 620.7 631 634.7 636.3 635.6 636.5 635.6 633.9 633 633.7 633.7 635.6 636.9 638.2 641.5 644.3 645.1
583.2 593.2 601.8 626.1 636.6 651.3 677.1 684.7 691.4 705 725.8 745.4 770.1 799.5 834.6 866.5 885.9 908.3 940.3 949.8 951.6 949.8 946.3 941.6 940.6 939.4 939.2 938.2 938.6 942.1 945.8 950.1 953.4 955 952.7 949.3 943.5 929.7 913.4 897.5 885.8 877.5 879.1 885.6 889.5 892 900.7 917.9 932.9 948 960.9 968.5 971.1 974.9 976.5 977.2 977.3 974.4 968.6 962.1 955.9 947.1 940.1 937.9 938.1 937.2 937.5 938.1 937.4 934.3 929.6 930.1 934.2 940.3 943.1 945.3 947.4 948.7 947.5 948.4 947.3 944.6 938 925.9 904.8 870.8 850.9 837.7 818.6 813.5 813.2 813 813.8 804.7 813.9 815.1 812.1 775.5 736.9 703.4 685.6 671.7 656.5 642.7 636 641.5 645.1 640.9 639 637 636.7 624.2 620.7 621.4 619.1 613.9 608.4 598.1 593.7 592.8 576.3 579.6 570.7 559.6 548.1 543 531.7 521.7 511.6 502 491.9 477 471.1 462.5 442.3 437.6 418.1 422.9 424.3 419.5 415.9 420.5 419.1 417.4 417.3 422.8 426.8 428.6 436.2 450.8 451.9 468.9 484 490.9 501.3 520.3 533.7 561.7 587.6 619.8 633.6 637 637.1 638.3 636.6 636.2 635.9 638.2 640.6 640.6 638.1 620 599.4 585.8 565.8 555.2 541.4 540 531.1 514 534.9 562.1 589.3 610 622.1 630.4 633.2 632.9 634.2 632.4 630.6 631 631.1 632.5 633.7 635.2 638 640.3 643.1 645
578.4 586.5 596.1 616.7 623.2 646.5 659.8 661.6 679.1 688.4 703.8 727.5 755.4 787.8 819.3 837.4 868.7 909.2 941.3 951.3 953.7 951.5 946.1 940.8 938.4 936.8 935.9 935 934.5 936.3 940.9 945.4 948.8 950.3 950.1 946.6 940.4 929.3 911.9 897.1 884.2 876 874.4 876 880 883.4 894.2 909.1 926.6 943.3 955.3 963.1 968.5 973.9 976.9 979.6 979.3 976.9 971.3 965.2 959.1 954.9 945.8 939.5 935.2 933.7 935 935.3 933.9 932.2 936 939.9 947.1 953.3 957.1 959 960.4 960.5 959.6 959.9 959.2 956.3 950.9 944.4 928.1 900.8 877.5 857.5 840.6 827.5 822.1 822.9 822.4 822.2 823.4 826 827.8 812.9 775.5 742.2 718.2 698.3 679.6 660.2 650.3 650.6 653.8 657.3 659.6 665 666.6 663.8 656.8 655 651.9 645.3 642.8 636.4 628.1 630.8 618.9 613.2 603 604.3 608.5 595.8 579.6 551.3 540.7 523.1 506 486.6 475.2 460.4 448.1 433.8 433.5 438.2 431.1 427.1 427.1 428.7 435.5 440 442 442.1 456.6 455.5 465 479.6 481.9 495.3 509.6 521.9 537.2 551.2 565.3 594.1 622.8 640.5 643.2 644.2 647 644.3 641.9 640.8 641.1 641.2 643.3 643.3 640.1 633.2 625.2 622.5 593.6 577.8 565.6 560 546.4 526.6 529.9 549.2 571.8 596.1 613.5 623.2 627.9 628.1 627.5 628 626.9 628.6 629.2 631.4 634.4 633.4 637.1 639.7 641.1 643.2
566.8 576.8 580.2 592.4 603.8 623.1 632.9 648.5 663.6 676.6 692.5 716.6 742.7 767.9 796.6 832.4 869.5 899.5 929.1 951.1 954.2 952.2 946.2 939.2 936.6 935 933.7 932 930.3 931.4 935.5 939.8 943.5 945.7 945.8 943 937.5 929.4 914.5 898.2 885.3 875.6 872.2 873 875.2 881.2 890.2 907.2 923 937 950.4 960.3 967.4 973.1 978.3 980.7 980.4 976.5 970.6 965.4 959.6 953.7 945.9 938.9 932.1 927.7 928.7 927.6 926.1 931.3 938.1 945 953.1 958.8 963.5 966.6 968 969.4 971.2 973.1 972.6 970.1 965.3 956.7 943.5 924.7 899.3 878.5 849.7 843.1 838.5 836.2 833 831.8 832.5 834 836 833.6 824.6 790.7 757.2 730.4 710.3 691.9 674.6 669 664.7 676.1 683.8 686.1 691.1 687.8 687.7 682.3 675.6 669.8 665.5 661.7 655.3 649.6 643.5 642.1 638.1 644.5 642.1 633 606.6 604.4 576 550.4 528.8 504 477.2 457 450 445.3 444.5 442.9 437.9 439.1 442.6 445.1 449.5 454.9 466.6 472.5 475.1 490.5 497 507.6 515.8 527.2 539.3 556 570.3 581.1 597.8 617.4 642.6 651.6 654.8 658.1 654.5 650.2 647.2 645.6 644.9 645.1 643.5 642.1 639.4 637.3 636.8 633.4 623.8 602.3 587.4 577.2 564.4 546.6 532.3 541.6 555.5 577.9 603.2 615.9 619.1 619.4 621 622.3 624 626.9 628.6 631.7 633 634.4 636.8 638.5 639.5 641.4
568.9 568.7 569.5 576.6 602 604.9 615.6 627.7 642.2 660.4 682.3 703.6 731.3 755.9 787.1 819.1 853 884.2 911.2 944.2 956 951.7 945.8 938.4 933.7 931.2 929.7 927.3 924.5 925.3 929.7 934.5 938.7 941.2 942.4 940 935.6 928.2 916.7 899.4 884.6 875.4 869.5 871 873.3 879.2 887.7 902.2 917.9 930.1 945.3 956.2 966.2 973.1 977.4 978.8 977.5 973.4 967.6 962.5 957.7 951.4 943 934.8 925.7 916.3 917.2 917.1 921.8 928.5 936.2 945.2 953.1 959.4 964.6 968.6 972.1 975.1 978.8 981 981.3 980.8 974.7 964.4 951.8 933.6 911.5 883.9 869.7 862 854.1 848.6 844.6 842.4 843.4 843.5 843.1 840.2 836.4 831.7 803 780.1 752.8 725.9 699.8 693.4 690.4 703.5 704.2 710.3 717.2 720.6 716.8 708.6 698.4 690.7 685.5 676.3 669.9 662.7 659 657.9 659.7 663 660 659.3 652 625.3 598.1 567.4 534.5 505.6 479.8 462.3 457.5 454.9 452.5 453 453.4 457.9 462.9 467.6 472.3 478.2 486.6 494.9 506.2 517.3 525.5 539.5 550.7 562.3 572.1 584.3 595.3 607 620.6 642.2 652.7 661.1 662.4 661.8 658.8 654.7 653.2 650.8 649.5 647.2 644.7 642.5 641.6 639 639.1 635.3 628.8 622.4 606.5 590.6 575.7 563.9 552 551.3 547.4 566.1 593.5 607.9 614.4 614.9 616.8 618.4 622.3 623.9 627.9 630.2 629.5 632.9 635.3 636.2 636.3 639.6
578.6 573.2 573 571.5 577 593.4 600.1 611.1 626.3 647.4 667.8 690.7 713.2 739.4 767.8 794.2 832.1 868.9 904.8 921.4 947.6 950.2 944.1 936.3 929.1 926.3 922.6 920 918.9 919.7 924.4 928.8 934.2 937.5 939.5 937.4 933.6 927.3 916.1 900 882.9 874.3 871.1 870.1 871.7 879.6 890.2 903.3 917.2 928.1 940.5 953.2 963.7 969.6 973.1 973.2 971.3 967.4 962.2 957.5 952.2 945.6 935.8 923.5 912.7 902.4 903.4 910.7 914.6 922.3 930.4 940.3 948.5 954.6 961.3 966.5 971.3 975.9 981.1 985.8 990.4 993.3 981 969.3 953 937.3 920 901.9 887.5 874.6 865.8 856 850.5 848.7 848.7 849 848.1 846 843.5 837.6 832.2 821.4 795.6 774.4 761.8 738.9 720.3 729.8 729.9 729.8 731.5 732.5 732.7 725.1 718.7 708.7 700.2 691.2 680.3 670.8 669.3 667.1 665.1 671.4 669.9 662.1 649.1 618.4 580.5 553.3 529.1 501.3 479.2 469.4 472.2 466.2 468.1 471.9 474.6 479.6 490.1 496 500.6 508 517.2 525.8 536.4 544.2 560.4 575.1 587.6 597.9 607.4 617.1 628.8 636.5 634.9 651.5 659.6 665.3 666.3 665.3 663.6 659.7 658.4 656.3 653.7 650.3 645.5 642.6 642 640.4 639.3 637 633.5 626.1 614.3 601.5 585.1 573.2 570.9 569.3 559.8 560.5 581.6 600.3 609.5 610.9 615.1 618 620 622.7 625.9 628.1 629.4 631.6 632.7 633.2 636.4 639.2
584.4 585.4 577.5 578 573.9 581.5 588 599.3 611.6 634.7 652.6 670 694.8 718.2 741.3 777.4 812.2 848.4 876.4 898.5 937.7 950 942 934.7 926 921.6 918.2 916.2 915.1 916 919.8 925.6 930.8 935.1 937 935.1 931.3 925.2 913.7 897.7 884.4 873.2 869.8 869.6 871.9 879 890.7 904 915.3 925.4 936.8 949.9 958.9 963.2 966.5 965.8 963 958.2 954.8 950.2 945.4 937.8 925.2 916.5 899.9 893 894.4 897.6 902.3 911.7 918.3 929.3 939.8 946.9 955.4 960.8 966 972.4 976.4 981.2 983 981.4 974.8 961.8 951.1 936.8 924 906.9 894 881.5 871.5 862 856.2 853.1 852.6 852.8 852.2 852.2 849.5 843.3 839.2 833.1 821.2 806.2 791.7 762.3 740.6 747.2 744.4 742.9 744 745 742.7 734.9 727.8 716.6 706.8 695.7 685.1 676.6 670.8 669.4 663.4 662.5 670.4 650.9 628.4 597 565 539 518.1 498.5 488.3 489.6 488.5 489.3 489.7 495.5 502.4 509.5 518.3 525.5 532.1 539.2 547.4 557.4 567.5 576.4 591.6 607 620.7 633.4 644.7 647.5 649.4 648.2 648.7 655.5 662 665.4 666.8 666.7 667.1 663.4 661.6 656.9 654.8 651.8 647.7 642.4 640.9 639 639.5 638.1 635.6 630 620 606.1 589.9 580 584.5 581.6 576 558.2 572.5 592.5 602.8 608 612.2 616.3 618 621.8 624 624.7 627.8 629.9 629.1 633.2 636 639.2
587.5 595.3 592.2 577.2 581.8 576.7 582.4 592.5 602.8 620.7 635.8 656.2 676.1 699.4 721.7 754.1 784.9 824.8 872.8 911 942.6 946.7 940.4 932.5 924.2 918.9 916.7 915 913.8 914.4 916.1 922.5 927.9 932.5 934.5 933.5 931 924.2 912 895.8 881.8 872.2 868.8 868.6 870.7 878.2 890.6 903 912.6 923.3 934.8 945.6 952.5 955.9 956 954.1 950.7 947.2 944.4 940.2 934.5 925.8 918.9 903.6 894 884.4 879.4 882.4 887.8 893 906.5 915.4 925.7 935.3 946.1 952 957.6 962.4 968.1 970.6 969.2 969 964.5 955.5 943.2 930.1 922 906.7 896.3 883.8 873.4 864.3 858.9 856.2 855.6 855.9 856.1 855.2 852.8 847.6 842.1 834.4 824.2 813.1 796.9 778.7 763.3 761.3 756.5 754 753.1 751.5 749.5 742.7 733.7 715.2 707.1 694.4 683.6 674.7 669.2 662.6 662.1 665.1 662.2 643.8 612.9 582 557.6 532.1 511 508.7 507.3 507.6 512.9 510.8 516.1 524.2 534.2 543.3 550.5 557.4 563.8 572.6 580.1 590.6 598.6 608.8 618.7 636 649 653.4 655.8 655.1 652.9 649.9 652.2 656 660.6 666.4 666.4 667 666 665.1 662.2 659.3 655.5 652.2 648.6 642.1 641 639.7 638.1 636.7 635.7 634.3 623.7 608.5 593.7 593.1 593.3 590.5 580.5 564.8 577.2 594.3 604.9 608.8 609.2 614.4 617 619.4 620.9 623.4 625.8 627.5 629.1 632.7 633.9 638.5
595 605.8 610.4 598 586.7 578.6 581.4 586.5 593.5 608.7 622.6 641.5 660.8 679.4 704.2 735.2 769.6 812.5 853.6 889.7 914.2 936.5 934.4 927.2 921.1 916.1 914.4 913.2 912.4 912.6 915.3 920.1 925.3 929.9 932.9 932.9 930.2 924.5 911.8 896.2 881.6 872.2 867.9 868.7 869.9 878.2 889.9 900.3 909.9 920.7 932 941.4 945.8 946.1 944.5 941.3 937.4 932.9 926.9 922.9 917.8 916.1 910.1 900.2 888.3 876.3 865.7 863 867 874.4 884.8 897.9 909.3 919.8 929.4 937.3 946.1 950.1 955.1 957.3 956.8 956.1 951.1 942.1 931.9 925.1 915.1 902.2 891.4 881.7 871.1 864.2 858.5 856.2 855.5 856 856.4 855.1 852.9 849.3 843.8 834.4 824.2 811.6 798.9 786.3 775 769.1 763.6 760.8 759.4 757.9 750.2 739.7 725.5 709.8 699 686.7 677.3 670.4 662 659.5 659.1 656.3 654.5 636.5 606 580.1 559.1 540.8 527.7 527.4 530.9 531.7 535.7 538.9 545.8 556.1 564.7 576.2 583.3 587.8 596.6 607.4 613.6 624.2 633.2 641.8 645.1 650.8 650.3 653 655.4 656.7 652.9 649.6 652 657.4 661.9 666.2 671.6 669.2 665.7 663.2 661.6 659.6 655.4 652.8 648.5 642 640.7 639.3 637.5 636.1 634.7 632 626.2 613.4 604.3 601.8 597.4 591.1 582.3 578.9 590 599.1 606.6 610.6 613.1 614.6 614.8 616.6 619.5 621.9 623.5 623 627.7 630.5 633.6 638.4
605.1 607.6 622.7 612.4 592.9 584.7 581.6 588.6 591.5 598.5 616.6 633 645.5 664.3 688.5 716.6 749.1 789.9 828.1 854.7 890.2 926.5 927.7 922.6 916.7 913 911.6 911.1 910.4 911.2 914.3 918.7 923 927.8 931.1 931.8 930.2 924.2 910.6 894 882.8 872.7 867.4 868.3 869.8 874.3 885.8 896.9 907 918.2 929 936.8 939.1 937.7 930.9 925.4 920.5 917.3 915.3 912.9 910.1 907.6 904.8 897.1 881.7 870.8 860.4 849.4 850.7 855.6 862.4 875.1 887.4 899 911.2 920.5 929.5 936.1 939.6 942 943.1 939.3 933.2 929.5 921.8 913.1 901.4 892.8 883.7 873.7 866.3 859.7 855.6 853.5 853 853.8 853.7 852.7 850.6 847.7 843.1 833.4 822.4 809.7 799.6 790.4 779.4 773.2 767 763 759.9 756 745.4 731.6 715.7 700.9 692.6 679.7 671.5 664.4 659.3 658.4 658 658.6 655.5 641.7 620.1 589.7 572.9 556.6 555.9 551.9 554.9 555.4 560.6 570.1 579.4 588.2 595.5 611.3 617.9 621.7 630.1 641.5 656.3 661.4 657.3 655.3 649.1 649 648.7 650.3 651.6 650.9 649.1 650.3 652.4 656.8 661.3 665.3 667.5 668.2 665.8 663.5 660.9 657.9 655.5 653 649.1 640.6 641.8 639 636.1 633.1 632.9 629.4 626 618.2 612.3 606.3 597.8 590.8 584.1 585.8 595.7 601.7 609.5 611.6 613.6 616.8 617.8 619.1 620.3 621.7 621 621.8 622.4 630 634.1 639.1
616.2 623.4 639.1 629.5 608.5 590 582.3 586.9 590.7 597.4 608.5 622.7 633.7 654 675.1 701.8 734.8 768.4 805.7 847.2 877.5 908.4 917.6 914.2 910.6 909.1 907.8 908.2 907.8 908.7 911.3 916.6 921.5 925.3 928.1 928.7 928 922.9 914.8 901.1 886.6 874.2 867.8 866.4 867.7 871.6 879.6 891.7 903.1 915 924.1 930 928.1 918.6 911.1 906.7 908.2 906.7 905.8 905.5 905.5 905 904 895.2 884.3 871.5 856.9 841.3 836.6 838.6 843.8 849.6 862.8 873.3 890.1 901.9 907.6 912.2 916.6 920.9 918.5 917.4 915.3 911.3 904.6 895.8 887.8 880.5 869.7 862.8 857.9 852.8 849.6 848.5 847.7 847.6 847.9 846.5 844.9 842.4 836.4 827.6 817.8 805.6 796.6 789.4 781.4 773.8 767.4 762.1 757.2 749.6 735.4 720.1 706.9 695.1 686.2 676.8 665.8 663.2 661.1 659.4 659.8 663.1 663.2 654 634.7 608.3 596 586.1 584.1 580 580.2 585.8 592.9 603.4 613.8 622.5 629.5 640.3 658 658.6 666.7 674 668.3 668.2 658 652.4 649.9 648.9 648.9 649.5 650.2 648.9 648.6 650.3 652.1 654.2 658.8 661.1 664.3 667 664.3 661.9 658.9 656.5 653.4 651 647.9 641.5 640.3 636.4 633.7 632.3 630.8 628.5 625.9 620.7 614.5 605.7 596.7 590.6 586.4 589.5 599.1 605.8 613 619.7 619 618.5 619.3 619.7 622 623 624.2 625.5 626.1 627.1 634.6 640.1
651 651.4 642.2 646 625.7 601.6 586 585.5 589 592.7 603.2 616.7 627.8 642.6 663.7 686.8 717.1 753.7 784.8 822.1 858.8 891 904.9 901.8 903.1 904.5 903.7 904 904.3 905 907.5 912.8 918.5 922.1 923.9 925.8 925.6 924.3 917.8 904.3 894.3 882.5 871.7 864.7 864.1 867.2 872.8 882.5 890 900.3 913.5 916.6 907.4 900.6 894.3 894.9 897.3 897.8 898.3 899.2 901 901.9 903.1 900 887 872.4 857.9 838.7 822.9 822.9 824.5 824.1 834.7 847.7 858 867.8 879.1 887.9 893.2 892.8 895.3 896.1 895.2 891.9 884.6 876.2 867.9 861.2 851.7 844.4 845.9 839.3 837.4 838.1 837.2 836.8 836.1 835.7 834 831.7 826.2 818.8 810 800.4 792.3 786.2 779.8 772.1 764.8 758.2 750.6 739.9 724.9 711.2 697.3 684.8 677.6 673.5 668.5 670.1 667.8 664.8 666 668.6 669.9 665.1 655.3 639.7 626 620.1 616.6 613.7 614.7 622.6 629.5 636 652.2 658.4 665.5 675.5 692.8 695 695.8 685.1 670.7 658.8 653.8 649.8 648.2 647.3 648.6 649.6 649 647.8 647.9 649 650.7 652.7 655.5 658.6 661.9 663 660.6 658.8 658.3 654.8 651.7 650.2 647.1 638.7 637.3 636.2 633.9 631.7 630.1 628.6 627.4 621.1 611.2 603.3 597.9 593.2 588.2 590.9 601.1 609.6 617 620.7 621.3 623.4 622.4 622.5 622.9 626.1 626.8 628.8 627 625.4 633.2 639.1
704.1 681.5 669.2 666.7 642.7 615 598.2 585.8 593 594 605.4 611.4 621.8 636.2 653 674 700.3 736.6 769.1 801.6 839.1 874.1 890.2 890.4 897.5 901.2 900 898.1 898.4 900.8 903.1 907.1 912.4 914.9 920.4 923 924.4 923.4 917.6 906.5 902.1 890.5 877.6 869.3 857.9 860.9 865.2 870.9 875.8 881.2 886.9 892.3 889 883.5 881.5 886.3 890.6 891.7 893.8 895.2 898.7 901.6 904.4 904.4 896.5 878.8 851.6 833.4 813.2 810.2 807.6 806.9 814.1 824.2 832.6 839.9 847.7 849.9 858.5 867.3 874.5 877.1 876 869.3 869.8 863.2 854.2 844.4 832.5 826.6 826.2 821.8 818.6 814 814.3 815.5 816.8 815.5 812.7 814.2 811.9 806 798.1 792.4 786.8 781.4 774.3 767.2 759.9 751.8 740.6 729 716.5 703.7 694.1 685.2 679.1 673.9 674.9 674.3 673.4 673.4 673 674.9 675.4 673.8 675.8 673.1 670.5 663.1 657.2 652.6 651.5 661.3 669.6 674.6 683.5 696.3 704.8 710.7 708.2 700.3 689.9 680.1 671 658 652.6 649.1 649.1 647.4 648.8 649.2 648.1 646.8 647.9 647.9 650.8 651.5 653.3 655.7 658 659.1 657.8 656.4 654.9 652.1 649.8 647.6 644.4 638.9 638.5 637.4 634.8 633.3 631.8 630.2 625 616 607.9 605.3 600.4 593.6 588.6 595.6 602.2 615.6 622 627.5 627 627.8 626.4 625.6 628 627.4 628.5 630.3 630.7 630.1 631.2 636.6
746.9 720.1 699.7 685.5 657.9 629.8 609.5 596.5 589 595.4 595.9 609.5 616.1 625.6 645.1 664.8 691.2 719.4 754.5 785.6 821.3 858.6 874.8 886 893.7 896 895.5 890.7 892.4 894.7 897.8 901.3 906.1 913.6 918 921.7 922.9 921.9 916.2 911.5 906.9 897.2 887.1 875.3 865.7 854 856.5 860.1 864.7 865.4 869 873 872.6 869.4 870.6 879.8 884.2 887.4 891.1 894.8 899.4 904.6 909 910.7 904.9 884 862.5 833.5 812.8 800.3 799.8 794.7 794 802.3 806 812.8 817.3 824.7 833.7 838.9 851 858.1 857.9 855.7 853.5 848.7 842.2 830.8 818.6 812.5 810.2 803.7 794.6 792.2 792.5 790.5 788.8 791.6 794.6 794.2 790.1 788.2 785.7 782.4 777.7 772.8 767 758.5 751.9 745.9 735.5 720.2 710.3 700.8 692.1 686.4 682.5 675.3 678.9 678.7 680.2 680.8 677.5 680.8 683.6 688.5 693.4 691 699.2 705 707.2 695.9 692.9 704 714.1 715.7 714 720.6 723.4 717.7 708.2 695.8 685.5 679.6 673.1 662.4 653.3 649.7 649.5 645.9 646.6 648.6 648.4 647.6 647.9 647.9 649.7 651.2 652.3 652.9 653.9 654.8 653.9 653.9 652.7 650.8 648.6 645.6 642.7 638 636.8 637 635 634.5 633.8 631.2 621.5 613.1 608.4 605.8 602 598 595.2 601.9 608.9 620 628.5 632.1 634.4 631 629.1 628.7 633 634.2 632.8 631.1 632.2 631.7 629.4 633.4
787.1 753.5 726.2 703 670.2 641.8 620.1 603.4 592.6 593 595 605.2 613.4 619.4 635.5 657.5 680.3 707.6 739 773.5 804 839.7 864.6 878.5 885.9 889.7 888 884.9 886.1 889.3 891.5 896.7 902.2 908.7 914.9 918.9 919.9 920.5 918.9 915.4 910.3 901.2 892.3 878.9 868.5 858.1 850.9 851.3 853.9 855.8 854.9 856.4 857.6 858.2 863.7 874 879.9 885.9 890.5 895.9 902.6 908.6 915.2 918.5 914.8 892.4 866.5 844.5 817.5 798.4 793.5 792.1 789.8 794 794.2 789.6 794.4 802.5 810.2 821.1 832.2 843.2 845.8 846.3 843.5 838.4 830.8 818.3 807.7 801.4 797.3 785.1 776.5 773.8 772.4 771.3 773.7 773.5 775.6 774 771.7 771.3 771 770.1 767.8 761.5 754.4 747 741.3 736.8 729.7 715 708.7 700.5 693.9 689.1 684.3 682.2 683.3 684.3 685.1 685.2 689.1 692.7 692.6 698.4 699.2 697.8 703.5 708.1 712.6 713.3 714 715 715.6 715.4 715.9 715.3 712.4 707.6 699.3 691.6 681.3 674.4 667.8 659.8 651.4 650.6 648.9 646.3 647.5 646.6 647.4 647.8 647.3 647.9 647.7 649.5 651.2 650.8 650.2 649.5 650.6 650.4 650.4 648.2 646.5 643.6 639.3 635.8 635.4 635.8 636.2 636.3 633.5 629.3 619.6 612.5 607.3 606.1 603 597.6 601.8 606.1 614.9 627 633.1 637.1 638.7 638 633.6 635.2 637.9 638.9 639.1 636.4 635.5 635 632.9 631.8
812.3 789.9 749.3 711.4 682.6 657.7 634 615.2 601.8 592.9 599.2 607.5 609.9 617.3 627.4 647.3 669.9 694.2 727.1 757.1 790.7 826.4 851.5 867.5 874.7 879.7 878.2 879.9 880 883.6 889.5 893.8 898 903.4 910.5 915 917.1 918.7 918.5 916.1 912 903.8 891.8 881.1 866.5 857.3 850.8 846.6 846.6 847.9 847.5 847.7 849.6 851.7 857.3 867.9 877.1 884.2 890 896.6 904.6 913.2 920.4 923 920.6 904.4 871.5 840.7 823.1 802.7 792 790 779.1 776.9 777 777.9 777.9 782.4 793.5 807.5 821.6 836 841.7 842.6 837.9 836 827.6 812.2 803.7 797.5 787.4 772.7 767.3 762.4 759.6 758 760.1 760.7 759.4 757.3 756.4 757.2 758.6 757.5 753.9 750.4 745.6 739.3 732.9 729.4 723.6 711.5 704.3 703.3 696.4 696.1 686.6 685.3 687.7 687.7 691.9 697.6 699.3 700.2 701.6 702.7 712.1 704.6 706.5 708.2 710 714 713.7 713.2 713.9 711.2 709.9 707 702.4 696 687.7 682.7 676.4 669 661.5 655.6 652 649.5 647.6 646.6 646.4 646.3 647.4 647.5 647.3 646.9 646.6 647.4 647.5 648.3 647.5 648.2 646.5 647 646.7 645.2 643 642.1 638 634 635.3 635.8 634.9 634.8 631 624.6 616 610.9 607.5 603.4 600.5 600.9 604.8 611.9 621.5 632.4 639.3 641.6 641.2 641.1 636.9 637.3 640 642.7 643.3 640.3 638.8 635.7 632.5 633.9
824.7 796.3 775.3 737.7 705.2 674.7 652.3 625.6 610.7 598.7 598.9 607.2 613.8 623.1 626.2 639.7 659 685.8 711.9 745.6 779.2 811.7 839.3 856.4 863.9 867.6 868.6 870.4 875.4 882.8 887.5 891.1 895.5 901.1 907.1 912.2 914.2 916.3 917.1 915.2 910.2 902.6 891.3 879.9 865.5 857.4 854.8 849.5 845.8 844.3 843.3 842.8 843.5 845.8 852.8 863.5 874 882.6 890 896.4 905.6 915.1 922.3 924.2 922.1 912.8 880.7 847.1 821.7 809.8 796.1 778.6 770.7 768.3 764.8 765.2 773.3 784.5 793.7 808.9 821.1 829.8 833.8 835 833.2 827.8 818.3 811.7 804.4 791.2 776.4 761.8 759.1 753.9 750.8 749.5 749.4 749.6 747.3 745.5 744.9 744.9 745.5 744.8 743.4 741 737 731.5 727.5 725.4 719.6 713.6 709.8 705.4 702 697.8 691.5 694 691.5 698.8 702.8 705.4 708 715.2 713.5 708.9 713 712.7 710.4 711.7 721.1 718.1 716.1 713.8 710.8 706.7 703.5 700.5 695.6 687.9 679.3 677 669.9 666.1 658.7 653.2 648.9 646.6 645.3 645.2 646.1 644.4 645.2 647.3 647.1 647.4 646.1 645.1 646.8 647 646.2 646.1 644.9 644.3 643.3 642.2 641.7 639.1 637.3 633 633.6 635.4 634.4 632.3 626.8 620.5 614.9 609.3 608.7 606.5 605.9 605.9 607.6 616.3 627.3 636.7 641.2 644.4 646.6 645.9 641.6 641 643.2 645.6 644.5 642.4 639.9 634.6 636.7 637.4
833.6 824.5 798.1 760.7 737.9 697.6 665.8 637.4 621 608.6 604.4 612.1 616 625.9 631.8 636.8 645.2 670.6 702.3 733.3 766.1 797.2 824.7 846.2 857.9 862.5 862.6 867.3 874.5 880.8 885.8 890.3 894.9 899.2 905.6 909.8 911.4 913.5 915.1 913.5 906.4 900.5 890.7 880.5 866.3 859.7 854.7 850.5 847.2 843.4 842.1 841.4 841.8 843.3 850.3 859.4 869.9 880.7 888.5 895.2 904.4 914.1 922.7 925.9 924.4 917.7 894.9 852.6 821.2 801.3 791.4 780.1 767.6 761.8 760.5 760.4 766.6 780.5 790.1 803.9 815.5 818.8 825.2 827.5 826.9 822.6 814.8 804.2 789.4 773.6 760 751.8 748 744.6 742 742.2 742.1 742.5 739.8 737.7 738 737 737 737.4 735.8 732.7 729.7 728.7 725.1 722 716.7 713 709.1 704.6 702.4 698.8 696.6 697.8 701.3 705.6 709 711.6 716.7 722.9 724.8 722.4 723.5 722.1 723.8 723.3 720.9 716.4 714.7 710.3 706.7 703.2 698.7 694.9 689.9 682 675.7 669.6 664.4 660.1 654.9 649.3 647.7 644.1 644.4 644.9 645.1 644.8 644.7 646.3 646.5 646.7 646.2 645.3 645.2 645.6 643.8 643.6 641.4 641.4 639.9 637.2 638.7 636.6 636.5 631.3 632.4 632.9 630.2 627.2 622.7 619.1 614.7 609.5 610.3 610.3 609.8 610.3 613.6 621.6 631.5 638.8 644.5 651.3 649.6 647.6 644.1 643.6 646.8 646.2 644.6 642.5 638.6 638.5 639.4 639.8
841.6 844.5 826.9 783.7 753.7 718.3 675.8 647.7 628.6 609 603.1 609.7 622.6 627.9 633.2 641.7 647.8 664.5 687.3 719.4 749.3 783.3 810.5 828.9 844.8 853.4 859.7 866.2 873 879 883.9 887.9 892.3 897.5 901.9 906.1 909 911.5 913.3 912 905.3 895.5 888.1 883.2 867.8 862.7 855.7 851.4 846.7 843.7 841.1 840.4 840.1 842.3 846.5 855.2 866.5 876.2 885.7 892.7 900.8 911.1 921.4 925.5 925.6 919 901 865.5 833.1 809 788.1 779.6 764.1 760.2 761 765.6 769.1 779.1 792.9 798 805.7 809.8 816 818.6 817.1 813.7 806.8 794.5 778.1 764.3 750.1 742.6 738.9 735.7 734.9 734.8 734.4 735 733.3 731.9 732.1 733.1 733 731.6 727.1 724.3 726.8 722.2 720.4 718.3 714.6 710.7 707.7 703.7 702.6 702.3 701.4 702.3 705.9 709.5 712.4 718.2 723.4 724.2 727 727.2 722.7 722.5 720.7 717.8 714.2 712.5 710.7 708.7 706 702.9 698.4 692.6 686.9 677.1 670.7 665.6 659.4 653.7 652.7 648 645.6 644.9 644.1 644.4 644.6 645.1 644.7 644.5 646.1 645.4 644.1 643.1 642.5 642.9 642.6 641.1 640.8 637.4 637.4 633.6 633.1 634.7 634.5 629.4 629.9 629 627.3 625 621.8 618.2 613.9 611 610.5 613.8 613.7 612.9 622.1 629.8 635.2 644.4 651.8 654.3 653.8 650.3 646.8 647.3 648.1 646.9 645.9 642.1 640.9 641.9 642.1 643.7
843.1 846.2 840.3 811.7 777 722 685.8 655.6 635.2 624.5 608.7 617.1 623.1 630 639.9 646.5 651.5 663.3 677.4 703.1 734.7 764.3 795.9 817.4 828.8 845.4 855.8 862.9 869 876.1 881.5 885.9 890.2 895.4 899.6 903.9 906.7 908.8 911.1 909.5 906.2 896 885.5 879.9 870.2 864.1 859.7 853.3 848.1 843.7 841.7 839.2 838.5 840.3 844.6 851.9 861.7 871.7 881.4 889 897 908.2 918.5 924.6 923.7 920.5 906.5 882.4 855 825.1 795.8 778.2 760.3 758 759.5 762.7 769.7 773.9 782.9 788.5 794.7 799.7 805.5 808.7 807.5 804.3 796.9 785.1 768.6 756.4 743.3 735.5 730.4 729.1 728.7 727.8 728.1 727.8 726.9 727.4 728.4 729 728.6 727.8 726.6 723.3 717.3 715.4 714.5 714.8 710.5 710.8 707.5 702.9 704.7 704.2 704.9 706.7 707.9 714.6 718.7 722.8 726.1 728 728.9 725.8 721.6 722.3 719.3 718.1 715.1 713.5 711.3 709.3 708.1 705.4 702 695.5 687.9 678.9 668.6 661.7 655.7 649.5 646.9 646.2 645.3 644.6 644.4 643.7 644.1 643.8 643.6 644.2 641.5 642.4 641.9 639.9 638.7 640.8 640.1 638.5 638.5 637 634.3 632.1 630.9 632 631.9 628.1 627.3 627.5 626 623.9 621.5 616.8 617.2 614.5 614 616.9 617.3 620.4 631.4 639.6 641.9 648.9 651.8 654.1 654.9 653.1 651 650.3 649.7 648.3 646.4 641.3 644.1 644.3 645.4 645.5
