ncols 200
nrows 89
xllcorner 250000
yllcorner 553650
cellsize 50
191.7 190.6 189.9 188.6 186.8 184.4 182.5 178.3 174.9 172.2 168.5 164.5 160.4 158.4 164 163.6 160.3 159.4 160 162 165.5 168.8 171.4 173.7 176.8 180.1 183.5 187 189.7 192.3 198.4 205 211.4 214.6 218 221.9 225.6 230.2 235.8 241.8 249.3 256.1 263.2 271.3 279.3 287.9 296.9 302.9 305.8 309.6 313.5 316.4 316.2 313.7 315.1 312.7 313.5 310.2 308.7 305.5 295.7 282.4 275.2 268.6 260.7 255.8 250 244.5 240.8 239.3 236.6 234 229.4 224.3 217.8 209.6 203.1 196.2 189.3 183 175.8 168.2 162.3 159.4 154.9 150 146.8 144.1 139.7 135.7 130.8 122.2 114 112.8 111 111.2 109.1 107.2 104.5 103.7 101.9 99.9 98.2 96.4 98.8 100.3 103.6 109 116.5 123.2 130.4 139.1 150 163.8 185.6 196.1 210.7 219.8 215 220.2 208.7 205.1 194.3 179.4 174.1 180.8 181.6 180.7 186.7 201.3 207.5 200.7 203.3 212.5 218.9 222.1 215.2 207.3 200 191.4 180.4 175.1 164.8 160.4 156.1 151.3 148.4 145.1 140.7 139.7 133.1 125.9 115.6 110.7 105.9 104 94.4 96.2 90.2 89.9 89.6 87.3 82.2 73.1 71.9 64.8 61 59.5 56.1 49.7 45.1 41.1 35.8 30.3 27.7 21.2 17.1 11.1 9.8 9.7 9.5 8.9 8.7 9.4 14.2 14.7 11.5 8.1 7.8 8.2 7.5 7.7 7.2 14.4 12.2 15.6 13.6 16.7 22 21.7
194.9 192.8 191.8 191.7 189.9 185.6 183.7 179.4 177.5 173.9 169.6 166.3 162.6 162.6 167.9 165.7 161.1 160.1 161.1 163.2 166.6 170.5 173.4 175.9 178.5 181.5 185.9 190.3 193.7 198.1 202.2 209.3 213.6 217.5 220.9 224.7 228.8 234.5 240.8 247.4 254.1 260.9 266.7 274.4 285.3 297.2 306.5 311.8 316.1 321.5 323.5 325.1 324.1 318.1 318 315.5 308.6 305.6 301.2 294.8 286.8 280.7 271.2 264.9 257.8 248.2 244.6 241.6 239.3 236.3 232.9 228.9 225.2 218.4 212.7 206.2 199.8 192 185.6 179.4 173.6 166.3 162.3 159.7 156.5 153.9 151.7 148.3 142 138.4 132.9 123.5 115.7 113.8 111.5 109.6 106.7 105.1 103.6 101.9 100.9 98.9 97.2 96.3 97.8 98.7 100.3 105.7 116.6 122.9 128.3 134.5 143.9 158.5 177.5 197.2 205.7 213 211.2 210.4 204.7 189 185.1 173.8 166.1 175.7 172.2 170.8 179.9 195.8 199.9 193.1 191.5 200.9 215.1 217.8 214.7 211.3 205.9 197.6 180.9 176.6 171.4 167.1 159.5 155.1 149.7 147.8 147.4 138.3 134 128.2 118.6 106.9 105.4 100.5 100.9 97 96.5 92.8 94 88.9 82.1 74.6 75.8 70.5 66.3 62.4 61.6 52.8 50.3 45.3 42.2 35.4 31.2 25.9 21.8 13.2 11.9 9.1 8.7 8.7 9.2 9.6 12.4 12.5 10.8 7.7 6.4 6.9 7.4 7.4 6.1 7.3 15.3 13.8 13.7 12.6 14.9 16.9
193.9 194.6 192.5 188.1 187.2 185.9 183.6 182.1 177.8 175.3 171.5 168.3 164.6 162.3 163 163.9 162.6 161.1 161.9 164.8 168.8 171.7 174.6 177.2 180.9 184.7 189.1 193.1 197.3 200.3 205.2 212 216.2 220.3 224.3 228.1 232.4 237.9 244.5 250.9 257.6 263.5 272.9 281.3 294.3 305.9 314.6 324.5 331.2 334 332.5 331.8 326.8 322.2 316.4 310.3 303.2 299.1 292.1 286.5 281.5 273.8 266 259.7 254.1 248.7 242.8 238.1 234.5 231.2 227.5 222.6 217.5 211 206.3 200.1 193.3 187.5 182.6 177 172 166.8 164.5 162.2 159.4 156.3 153.7 150.5 144.7 140.5 134.2 127.6 120.5 116.9 113.4 110.5 108.3 105.8 102.5 100.7 99.5 97.6 96.5 96.2 96.5 97.2 98.1 102.1 112.5 121 125.8 131.8 138.8 152.6 172.9 200.5 202.7 215.1 212.2 207.1 194.1 188 173.1 163.2 158.6 169.4 166.3 162.3 176.2 190.2 199.8 194.9 186.8 194.4 199.4 210.1 214.4 215.2 213.3 201.7 194.5 183.3 179.7 172.7 164.6 155.3 151.5 150.3 153.1 142 135.4 125.1 120.7 107.3 105.8 107.4 99.2 101.1 91.7 90.8 91.5 90.1 82.1 78.3 81.9 74.8 69.2 64.7 60.8 55.9 55.3 49.5 47.7 42.4 34.3 27.5 21.6 18.5 18.1 8.9 8 11.6 10.6 9.8 11.6 10.9 9 7.5 7.2 6.7 6.5 6.5 7.8 7.6 16.4 13.5 11.6 12.4 13.1 13.2
195.6 194.9 193 189.2 186.9 185.1 183.4 179.9 177.4 174.8 173.7 166.5 164.2 163.4 163.1 163.4 162.3 161.5 162.6 166.2 170.1 173.1 176 180.1 184.4 189.1 193.2 196.5 200.3 203.8 208.5 213.5 219.1 223.4 227.3 231.5 236.1 241.4 248.6 255.1 261.4 268.8 280.9 292.3 306.2 313.9 324.4 335.9 341.9 342 340 336.9 328.6 318.7 311.2 306.1 300.8 291.9 287 282.3 276.8 269.6 261 255.6 250.5 244.8 239 233.5 228.8 224.8 221.9 216.4 211.5 205.8 199.6 193.6 189.7 182.6 178.5 175.7 172.1 169.4 167.7 164.4 162.5 158.3 154.4 151.1 145.8 141.8 135.8 128.9 124.2 118.9 115.4 111.7 110 107.4 102.9 100.3 98.9 97.4 96.6 96.5 95 96.5 97.5 99.6 106.5 115.5 123.8 129.4 133.3 144.6 162.7 187.5 197.2 202.5 206.5 193.1 188.5 179 172.4 150.2 150.3 159.4 158.1 155.3 167.4 185.2 193.5 188.5 185.2 187 189.7 198.8 208.4 216.6 211.4 209.5 205 201.3 191.7 180.4 172.6 164.8 151.6 150.7 150.7 142.7 135.6 121.5 120.1 109.2 105.2 106 96.9 99.2 92.5 91.1 91.3 94.6 90.9 81.6 81.4 78 73.7 66.5 66.1 59.3 58.9 56.3 50.5 44.9 36.1 27.8 20.9 19.4 16.3 8.9 8.3 10.7 10.4 9.1 9.8 9.7 6.6 7.5 6.9 6.3 7.4 8 7.5 10.4 14.6 11 11.8 12.6 13.2 13.5
194.6 194.2 190.7 189.1 187.2 184.2 179.9 178.6 178.8 174.7 170.8 168.1 166.6 166.4 164.2 163 162.7 162.2 162.3 166.8 171.3 174.4 178 182.8 187.5 191.5 195.7 199.5 203 207.1 212.3 217.6 221.9 226.7 231 234.9 240.4 245.8 252.5 258.4 266.8 276.7 288.7 300.7 307.7 324.5 328.9 339.9 347.8 346.8 344.5 336.9 329.6 316.1 307.4 299.7 293.8 286.4 282.2 277.5 270.2 262.1 255.7 250.7 245.3 239.8 233.5 227.6 222.9 219.4 216.1 210.4 202.7 199.1 192.5 187.6 184.8 181.1 177.8 175.2 171.8 170.3 168.1 168.1 167.6 164.4 159.8 156.4 152.2 148.6 144 136.2 129 125.2 116 112.5 111 110 104.8 100.1 98.9 98.3 97.4 98.8 98.1 95.2 96.6 99 101.4 108 118 123 125.6 135.2 156.1 169.6 182 197.6 196.7 183.7 183.8 167.6 163.8 143.5 141.7 153 150.8 150.7 162.3 179.3 185 180.4 174.8 179 181.9 190.5 193.6 212.5 207.7 211.9 212.2 206 196.7 198 180.1 162.4 153.1 147.5 144.7 138.6 130.4 128.1 116.5 111 103.6 102.2 97.3 97.3 93.9 93.9 95 100.3 99.6 85.1 77.1 79.8 70 64.6 63.7 61.9 61.9 56 52.4 43.5 36.1 28.5 18.6 19.3 12.6 8.4 8.4 8.8 8.2 8.6 8.8 8.5 7.1 7.1 7.2 5.8 7.3 7.9 8.1 10.2 10.4 10.6 10.9 11.1 12.5 12.1
190.4 188 186.7 184.4 182.2 181.2 178.2 177.6 177.5 174.7 172.5 170.5 170.6 169.8 167 164.2 163.2 162.9 163.1 167.8 173.3 175 179.6 184.3 188.4 192.8 197.3 202.3 207.3 210.9 216.7 220.7 225 229.6 234.9 239 245.7 250.7 256.6 262.4 272.1 282.1 291.4 301.1 311.3 328 338.1 350.7 349.1 348.6 344.5 332.7 321.9 308.8 304.3 293.5 287.3 281.7 275.9 269.9 262.8 256.5 250.5 245.4 240.2 234.8 229.3 221.7 217 213.1 208.8 204 197.1 192.6 187.2 183.5 180 178.3 176.1 174.7 170.8 169.2 171.1 172.5 171.9 169 166 163 160.7 153.9 146.5 141.5 133.4 126 119.5 113.2 110.4 109.3 106.7 101.9 99.7 100 99.5 99.4 98.3 95.2 96.9 99.1 100.2 102.6 107.5 112.5 120.9 128.5 139.6 158.2 171.7 176.7 179.6 172.7 167 155.5 150.6 139.1 131.8 141.6 141.9 144 151.4 167.6 175.4 173.7 164.7 166.5 170.2 184.5 190.3 200.4 203.2 209.9 207.6 201 203.9 191 182.5 162.2 151.5 141 140.3 135.2 129.7 121.6 115.1 109.6 105.8 101.4 97 95.8 96.3 94.2 91.5 98.1 105.5 93.4 77.3 77.4 67.8 65.7 64.4 64.5 66.5 63.4 55.1 41.4 28.3 23.2 16.6 16 9 8.3 8.3 8.4 7.9 7.5 7.8 8.1 7.5 7.2 6.8 5.7 7.3 8.6 10.4 11.5 10 10.5 11.5 12.3 13 14.2
183.6 186.2 187.4 182.8 177.2 177.2 178.1 177.6 176.4 174.9 174 172.4 172.2 172.1 167.6 166.3 164.3 163.7 164.5 169.2 175 178.2 181.4 185.8 190 194.9 199.8 205.8 210.6 215 218.8 223.2 227.7 234.2 239.1 244.1 249.2 254.3 260.5 267.5 275.7 285.9 296.2 310 323 333 338.5 350.8 349.2 346.8 339.5 329.8 318.3 301.7 294.3 285.7 280.2 274.4 268.2 262.8 257.3 251 245.1 240 234.4 229.9 224.2 216.3 211.3 206.3 200.4 196.5 192.2 187 183.6 181.3 178.4 176.8 175 173.8 170.2 166.5 172.6 174.5 172.6 170.4 168.9 166.8 164.1 157.9 148.8 142 137.8 129 119.2 112.2 108.9 107.9 107.2 104.5 102.3 101.4 100 98.1 96.4 93.9 97 98.4 99.5 101.1 104.2 107.9 116.3 125.1 131.6 143 155.2 159.2 165.1 159.4 151.3 145.5 142.5 135.3 127.4 129.7 138.2 137.4 141 154.7 165.6 160.7 158 155.9 163.3 179 186.1 188.8 195.2 200.6 200.5 198.3 193.1 189.8 184.3 170.3 147.8 140.9 137.3 131.5 125.5 122 114.3 103.6 101.7 100.5 98.3 95.8 99 97.4 91.6 92.9 103.5 93.3 74.3 76.7 73.8 67.5 66.2 65.3 69.1 65.7 58.1 43.1 25.4 16.2 10.6 10.1 9.1 10.9 8.6 8 7.5 7.1 7.1 7.2 7.2 6.8 6 6.5 7.8 10.6 9.5 9.3 9.8 10.7 12 11.8 13.4 15.1
180.1 183 183.3 181.4 175.7 175.8 177.1 177.9 177.4 175.8 172.9 171.5 171.7 169.7 167.1 166.8 164.7 164.6 167.9 171.4 175 179.4 183 186.6 192.4 198.5 204.6 208.7 213.1 217.6 222.4 227.4 233.2 238.2 243.2 248.1 253.1 258.8 265.1 272.5 281.3 290.3 297.5 313 324.7 329.5 341.7 348.4 345 339.8 332.1 322.2 306.6 294.9 288.9 282 274 267.5 261.8 256.5 251.8 245.7 239.8 235 229.4 224.2 217.6 211.6 205.8 200.6 195.2 191.6 189.1 186.2 183.1 179.4 177.5 175.9 173.8 172.4 167.6 166.5 166.5 172.2 169 166.3 170.4 163.5 158.6 155.6 147.5 141.8 138.2 129.6 119.4 112.4 107.4 105.9 105.9 104 102.3 100.6 98.9 97.7 96.2 92.6 95.6 97.5 98.6 100.2 102.6 106.5 113 120.9 126.7 130.9 137.9 141.9 150.4 144.8 139.8 139.3 135.6 129.7 125.6 126.5 127.1 130.9 132.5 142.9 154.5 148.1 150 148.5 153.9 170.8 171.2 179.9 180.4 189.9 192.6 190.5 182.8 179.6 175 166.9 152.7 140.4 133.9 129.7 123.6 115.1 110.1 104.5 101.3 99.7 100.7 102.8 101.9 99 96.9 91.3 93 88.3 74.4 75.8 77.9 72.2 69.3 64.7 66.8 64.2 56.3 38.2 18.9 17.2 12.7 9.7 11.8 12.2 10.6 9.7 8 6.9 6.9 6.7 6.4 6.4 7 7.5 7.9 8.3 8.5 9.2 9.4 9.5 14.8 15.2 13.4 14
176 179.2 179.8 180.2 176.4 173.4 177 179.6 177.4 175.5 171.7 169.1 167.9 166.7 165.7 165 165.5 165.9 168.6 172.2 176.7 182 186.1 189.4 195.7 200.6 206.2 210.9 215.8 220.8 226.7 231.6 237.4 243.2 249.1 254.6 258.9 266.3 272 277.9 286.5 295.2 302.1 308.1 323.4 327.2 340.2 344.2 339.2 333.6 323.6 316.8 300.9 292.2 283.9 276.2 268.7 262.5 256.3 250.9 245.8 240.2 234.7 228.6 223.7 218.5 212.3 204.9 199.1 194.8 191.8 189.6 185.1 182.7 179.5 177.4 175.5 173.6 172.2 169.5 170.7 168.8 163.5 166.5 164.8 163 160.8 157.6 154.4 151.4 144.9 139.3 135.2 127.7 119.9 112.6 107.4 103.9 103.2 101.5 100.6 99.3 98 97.2 97.2 92.8 94.5 95.7 96.9 99.2 101.5 104.7 111.3 116.2 121.6 125.5 130.3 131.2 138.5 135.2 133.5 130.8 128.2 126.3 123.2 124.1 124.6 124.3 126.6 133.9 144 141.7 145.2 145.3 142.1 152.7 153.5 165.7 168.3 186.8 179.9 177.4 173.4 171.8 172.6 171.5 165.7 147.7 130.7 124 122.1 115 110.8 103.1 100.4 100.4 101.6 101.9 105.2 104.2 95.4 93.8 91.3 86.4 71.9 75.3 78.2 75 67.6 60.2 63.7 58.1 42.6 25.8 21.1 19.4 18.4 13.3 14.6 14.2 13.9 10.5 8.9 6.8 6.7 6.2 6.3 5.9 8.3 7.6 7.5 7.8 12.3 15.3 12.4 13.5 17.6 17 18.2 17.9
172 173.7 176.2 180.5 175.6 170.7 174.5 176.6 175 173.2 169.5 167.7 166.9 166.7 167 167.7 169.1 168.5 169.5 172.3 179 184.2 188.2 192.7 197.6 202.3 207.7 212.9 219.3 224.7 230.3 235.3 240.2 248 255.5 261.1 266.3 272.8 278.3 283.6 290.7 296.4 309.4 311.7 316.4 328.2 332.8 336.9 331.5 326.8 318.9 307.2 297.1 289.4 279 269.8 263.3 257.3 251.1 245.9 240.4 234.4 228 220.2 216.8 212.1 204.4 197.7 194.1 190.6 188.3 191.8 183.7 181.4 178.1 174.4 173.7 172.5 172.7 172.9 171.1 167.4 164.7 164.2 162.9 160.6 158.7 154.8 151.5 147.9 141.7 137.4 131.5 126.2 120.2 113.6 107.7 105 103.6 101.6 99 98 97.3 96.7 95.8 93.5 92.4 94 95.5 98.1 100.4 103.2 107.7 112.2 116.4 120.3 121.5 123.5 127.1 129.5 126.7 127.6 122.7 121 118.8 120.8 122 122.4 122.6 124.7 136.9 133.8 140.3 138.8 137.4 144 142.6 146.1 164.9 172.5 170.8 164.7 166.3 166.7 170.3 177.6 172.6 156.5 129.6 121.2 117.3 112.3 107.8 106 103.3 100.5 100.2 102.4 103.8 102.4 97.3 95.5 96.2 90 74.4 65.4 71.5 72.9 62.9 54.8 50.7 39.5 29.4 30.2 27.8 22.3 21.2 14.7 16.6 16.8 16.3 12 12.2 9.3 6.5 5.8 5.2 6.8 11.9 10.3 8.3 8.8 15.7 17.5 11.9 12 14.6 14.6 20.9 24
171.8 170.3 171.7 173.6 171.1 169.8 171.3 173.1 173.1 172.2 168.3 167.7 168.5 169.7 171.3 173.2 173.9 171.3 171.1 174.8 180.9 185 190.1 194.8 199.7 203.8 209.5 214.6 220.5 228.9 233.9 242.2 249 256.2 261.3 264.7 274.6 278.7 283 289.1 291.9 303.3 309.2 310.6 316.9 324.8 325.3 329.5 317.1 308.1 303.6 298.6 290.1 280.8 271 263.5 257.7 250.9 245.5 240.9 235.3 229.3 222.4 215.9 210.4 205.7 198.7 194.2 190.8 188 185.2 183.2 180.5 178.9 176.6 176 176.9 177.3 175.6 173.1 169.4 166.2 161.7 161.8 162 160.9 159.8 155.6 150.4 144.2 139.6 134.3 129.5 125.2 120.3 115 108.3 105.6 103.2 101.3 98.5 97.2 96.9 95.3 93.8 92.1 91.9 92.9 94.6 96.4 98.9 101 104.9 109.1 112.7 116.2 116.7 117.3 118.9 121.1 121.1 120.8 121.7 116.5 115.4 116.2 120.3 123.7 122 126 129.3 126.1 136.6 136.5 130.7 135.6 137.1 134.9 144.9 154.6 156.9 156.2 158.4 158.9 161.2 172.5 165.7 154.9 136.6 123.9 117.2 112.4 110.8 104.7 101.5 101.6 100.4 104.5 105.8 106.3 101 95.4 91.6 87.9 78.6 65.6 65.3 68.2 60.3 48.8 38.6 37.5 36.6 39.5 38 23.9 23 22 20.2 20.5 18.8 12.1 13.2 8.4 7.2 5.7 6.4 12.1 12.3 9.9 8.7 10.8 14.6 17.6 14.9 10.5 11.5 16.6 20.6 23.5
173.3 170.4 169.3 169.7 168.6 167.2 167.6 169.5 170.4 168.8 168.1 169.1 171.3 172.8 174.2 175.4 175.1 173 173.8 177.3 183 186.2 190.4 195.3 199.6 204 211.1 218.1 223.5 234.8 239.6 250.8 256.7 262.9 265.3 272.1 274.8 282.8 288.4 287.2 283.3 296.5 304.5 306.6 313.4 311.7 307.9 306 306.9 301 294.9 290 279.7 272.2 264.6 258 251.9 244.7 240 234.7 229.5 222.7 216.5 210.9 203.7 199.5 195.9 192.3 188.7 186.2 182.8 183.8 182.5 181.2 181.1 181.6 181.2 178.9 176.3 172.6 168.7 165.5 163.5 154.4 157.6 157.9 157 153.9 150.2 145.5 139 133.7 128.9 124.5 120.5 115.6 109.4 105.9 102 99.8 97.8 96.4 95.3 93.9 92.5 91 91.3 92.2 93.9 96 97.5 99.8 102.9 106.8 110.5 113.1 113.1 112.5 113.9 115.1 115.1 118.4 118.9 114.6 113.3 113.2 119.8 123.8 124.8 121.7 122.6 122.2 126.9 125.4 128.4 128.1 132.3 129.9 132.6 148.4 149.5 151.5 153.7 152.5 160.8 167.9 163.8 159.4 141.6 125.8 125.5 115.1 111.9 107.8 102.2 103.1 105.6 107 108.7 107.7 102.9 95.1 91.6 86.7 79.7 64.5 57.7 64.2 56.2 42.6 44.1 43.5 43.5 40.7 33.4 23.5 20.9 23.4 18.2 15.2 16.2 13.3 8.7 11.5 6.5 5.5 7.5 10 9.9 8.8 8.8 16.6 15.9 17.3 17.8 15.9 12.1 17.8 21.4 25.3
174.4 171 169.2 165.7 164.5 165.3 165.8 166.3 167.1 168 169.9 172.5 174.7 176.4 177 176.8 175.1 173 176.5 180.5 183.5 186.9 192.2 197.1 200.7 205.9 215.2 222.8 233.1 241.6 250.1 256.5 264.9 268.5 271.1 275.3 279.6 283.1 281.2 285.2 281.7 289 298.8 301.2 302.9 303.4 299.7 301.3 301.2 294.3 289.9 279.4 273.5 266.4 258.7 252.9 245.2 239.3 233.6 228.3 223.8 216.7 211.8 206.6 201.2 197.6 194.7 191.6 187 188.2 187.4 187.4 185.7 184.8 184.2 184 182.9 180.9 178.5 174.5 170.3 167.6 164.2 157.3 152.1 152.6 151.8 148.3 142 136.3 133.3 126.9 127 122.9 118.6 115.2 111.2 108.5 105.5 101 97.3 95.2 95.2 93.7 93.3 92.2 90.2 90.4 93.2 95.5 97.6 100.4 103.2 105.9 109.3 110.6 110.9 110.3 109.6 109.1 111.1 117.3 115.4 111.6 112.1 113.3 119.9 120.7 122.2 123.3 123 121.5 121.8 124.8 125.5 126.1 129.8 129 129 133.2 144.4 149.8 148 151.5 153 164.8 169.1 163.6 139.7 128.9 125.1 119 110.2 109.5 109.6 111.5 118.2 116 108.3 105.4 104.5 93.4 93.8 85.9 80.2 64.9 56.1 51.8 40.8 36.2 44.3 42.5 43.4 41.1 34.6 22.4 21.5 20.2 18.9 17.2 15.7 10.4 12.3 13.9 9.7 16 5.7 7.8 8.6 8.7 13.5 17.1 16.2 16.2 17 17.5 15.1 18 24.4 34.2
172.4 171 168.7 163.5 163.3 164.7 165.9 168.2 170.6 171.3 172.9 174.9 176.3 177.3 177.8 176.9 174.7 175.2 177.5 180.9 185.5 190.9 194.5 198.6 202.2 207.3 220.7 230.5 239.1 247.2 254 259.6 266.7 273.5 275.5 278.7 279.4 281.5 284.4 279.5 278.2 283.8 289.4 293.1 296.4 294.8 292.9 286.7 286.2 282.9 281.3 274.3 265.9 259.4 252.7 245.7 239.6 233.3 227.5 222.9 219.5 213.8 209.1 203.8 200.4 196.9 194.2 189.7 190.9 191.9 191.2 190.5 189.7 189 189.8 190.1 189.1 187.1 183.2 179 174.6 169.9 165.3 159.8 154.7 147.9 148 149.2 148.1 145.9 139.2 133.6 128.3 122.6 120.9 118.8 114.2 111.4 109.6 105.6 100.2 97.9 96.1 94 94.3 92.7 91 89.7 92.1 95.5 98.4 101 103.2 105.5 106.7 108.1 108.6 107.8 107.5 106.4 108.2 111.8 111.9 110.3 109.9 110.1 118.1 118.6 120.9 120 120.9 121.5 121.4 128.5 124 127.2 129.4 130.3 129.8 131.1 135.7 145.3 145.8 149.6 151.3 160.1 170.9 158.8 147.3 133 126.5 119.5 111.7 115.6 118 121.8 118.8 114.1 107.8 102 97.6 92.1 90 84.9 77.2 64.6 56.2 48.5 38.9 33.7 36.1 40.6 39.9 41.3 36 22.6 26.1 20.5 18.8 17.9 14.9 10.9 16.5 12.7 11.2 16.4 5.2 7.4 8.7 10.9 16.5 16.2 16.6 15.4 16.9 17.3 17.6 20 30.7 39.8
167.4 166.4 164.9 163.7 165 167.1 170.7 173.3 173.8 173.3 173.1 174.9 176.5 177.3 177.7 177.7 176.1 176.4 178.8 181.8 187.9 191.8 195.8 200.1 205.7 210.8 223.7 234 241.3 248 254.4 259.9 266 274 283.5 285.4 282.8 272.9 279.6 277.5 274.3 279.2 277.4 284.7 283.5 283.4 279 276 275.4 277.3 270 261.6 257.9 252.4 246.2 239.1 233.2 227.1 222.5 219.1 215 211.3 206.3 202.2 199.8 197.5 193.2 193.5 195 196.1 196.8 197.3 197.1 197.7 198.2 197.3 195.6 192.5 188.2 183.3 178 172.6 167.1 158.3 158.9 155.3 155.4 153.4 150.2 147 144 139.8 134.7 129.6 124.8 122.4 118.8 112.2 109.5 108.9 106.4 103.1 99 96.8 95 93.4 91 89.5 90.9 95.6 98.8 102 103.3 104.2 104.2 105.5 104.2 104.1 106 103.8 103.9 106.2 108.7 111.7 109.1 108.8 113.7 116.7 117.2 119.1 122.6 120.5 121.3 122.5 125 129.3 132.7 133 131 132 138.1 144.1 150.6 154.2 159.7 161.7 165.9 161.3 152.4 136.9 128.3 118.6 115.1 119.9 117.6 119.4 117.1 111.4 106.5 100 95.5 95 90 86.4 77.5 67.3 56.6 49.7 44.6 34.5 31.8 31.9 33.5 35.1 30.5 22.1 25.2 20.9 18.9 18.8 13.6 18.2 17.3 16.5 17.1 17.3 13.6 6 6.7 8.6 16.1 15.8 15.8 16.4 16.5 17 17.7 24.9 34.5 41.6
163 162.5 162.2 166.5 169.3 172.3 173.6 174.3 175.2 174.8 174.3 175.8 177 177.6 177.9 177.8 177.9 178.1 180.1 184.8 188.3 193.2 198.2 202.2 207.3 214.4 223.9 233 237.9 243.6 250.6 255.3 264.2 276 284.6 287.4 283.1 274.3 270.3 273.3 266.1 264.2 269.4 272.9 273.9 275.3 268 267.6 269.2 269 258.2 253.1 250.1 244.2 239.4 233.8 228.4 223.5 220.4 217.2 213.8 210.7 208.3 204.4 200 198.6 199.3 199.3 200.6 203 203.2 204.1 204.2 203.1 203.1 202.1 200.2 196.6 192.6 186.3 181.1 174.6 165.6 165.2 163.6 161 158.7 155.1 151.2 148.2 146.1 143.5 138.7 132 125.6 121 117.8 112.1 109.4 107.5 105.3 103.1 100.1 97 95.5 94 91.7 89.1 90.8 93.4 97.7 102.3 102.5 102.4 101.9 102.9 102.2 101.8 101.3 101.3 100.7 101.2 105.7 107.7 109.3 108.1 114.9 116.2 114.6 115.2 116.9 118.7 124.9 124.2 125.9 131.6 135.9 136.3 134.1 135.6 139.9 148 155.5 165.1 168 168.5 163.3 164.7 149.2 142.3 130.9 121.9 117.8 113 115.1 114.5 112.7 107.5 101.4 97.6 94.5 94.3 90.3 86.3 79.2 72 58.5 47 41.9 34.9 29.6 31.3 31.8 36.4 29.3 23 22.8 20.9 19.5 18.1 16.6 18.1 17.5 14.6 13.4 17.2 15.9 11.3 6.1 6.8 9.7 16.2 16.4 16.1 16.2 16.8 18.2 30.3 37.1 43.2
161.2 162.3 165.7 168.5 170.5 171.7 173 173.9 174.4 174.9 175 176.7 177.6 178.6 179.1 179.5 179.6 179.6 181.5 186.4 191.1 195.9 200.8 205.1 209.9 215.7 223.5 230.9 236.4 241.9 251.3 256.8 267.9 272.5 280.2 284.6 288.4 283.2 270.5 265.6 261.6 262.5 260.4 260.5 264.3 264.8 260.6 261.2 258.5 253.8 248.1 244.5 240.8 237.1 233.6 229.2 224.9 223 221.2 219 217.3 213.7 209.5 207.3 204.9 205.1 207.1 207.1 208.6 210.3 211.1 211.8 211.4 212.1 210.3 208.4 205.2 200.9 195.8 189.1 183.1 172 173.6 170.9 168.4 166.1 161.4 156.1 153.4 151.2 148.2 144 140.5 136.1 129.3 122.9 118.1 113.2 110.4 106.4 103.6 102 99.7 97.6 95.5 93.1 91.6 89.4 90.2 91 96.1 98.8 100.1 100.3 100.4 101.5 101.1 100.2 99.2 98.4 99.3 100.3 103 105.7 107.3 106.8 111.9 119.3 117.5 116.2 117.2 118.4 123.4 125.8 129.2 134.4 139.1 138.6 138.1 140.9 143.3 148.9 159 175 177.9 176.1 168.7 159 149.9 140.5 132.1 120.5 114.8 112.8 112.8 113.7 112.7 105.7 104.7 95.4 96 93.5 92.3 88.5 83.6 73.3 57.9 46.7 46.4 32 30.3 28.9 32.8 38.9 25.2 24.3 22.5 21.2 19.9 16.9 18.2 21.3 16.4 12.7 12.5 14.5 16.1 15.1 6.2 5.2 5.8 6.3 15.8 15.7 15.9 16.9 23.2 33 38.5 43.8
160.5 162.4 164.7 167.8 171 173.6 175.2 175.2 175 175.1 175.6 177.2 178.7 179.9 180.4 181 181.6 182.2 183.9 187.3 192 197.4 202.3 206.9 210.7 217.5 223.6 229.6 239 248.8 252.7 259.1 265.8 267.4 275.4 279.8 279 277 264.2 254.6 255.6 253.8 256.1 254.3 255.4 257.5 255.6 251.5 246.9 243.3 239.9 237 233.6 232 229.5 226.8 224.1 223.7 223.7 221.3 218.3 214.9 212.9 212.6 212.2 213.2 214.7 214.8 216.6 216.7 217.8 218.3 219.1 219.9 217.7 213.9 208.1 203.8 198 190.5 179.8 181.5 179.3 177.5 171.9 169 166 160.2 154.9 152.2 149.8 146.7 143.4 139.7 134.7 128.8 123.4 117.9 112.5 108.8 104.7 102.7 100.4 98.3 96.6 94.5 92.8 88.9 89.4 89 92.3 95.8 97 97.9 100.4 101.3 99.4 97.2 96.6 94.8 98.4 101.5 98.8 103.4 105 104.7 107.2 114.6 118.4 120.8 120.4 119.5 120.2 128 132.3 137.9 141.8 143.3 142.2 146 147.6 154.3 158.1 175.3 178.7 175.1 173.5 169.1 149.2 139.4 124.5 123.2 112.8 110.5 109.1 116.4 112.4 104.5 98.6 91.1 95.6 94 92.4 89.6 85 74.7 61 47 41.6 35.6 30.9 26.1 27.1 32.5 22.4 22.3 20.3 20.5 18.9 17.3 18.3 17.9 16.4 17.3 13.4 15.5 14.3 10.8 7.3 6.5 5.3 4.8 9.6 15.2 15.9 16.7 21.9 36.3 39.2 43.8
162.2 164.7 167.2 170.6 173.7 174.4 175.4 176.6 176.9 176.1 176.9 177.9 179.5 181.1 181.9 182.7 183.2 183.8 185.4 189.2 193.6 198.9 204 208.5 212.4 217.3 225.9 232.1 240.9 242.5 246 253.9 263.9 268 271.8 269.8 267.9 267.3 253.6 251.3 253.3 247.6 247.8 248.2 248.6 248.3 245.1 242.3 239.5 236.8 234 230.6 228.5 227.2 225.5 224.5 224.3 224.9 225.2 223.5 221.5 218.5 218.5 218.9 218.3 220.4 221.8 223.3 224.1 223.3 224.2 225.2 225 224.1 222.3 217.5 211.7 206 198.3 190.3 190.1 187.2 184.8 182.7 179.2 176.4 169.9 162.9 158.9 154.1 151.2 148.4 145.7 142.3 138.2 132.8 128.6 122 112.9 110.1 105.8 102.4 99.3 98.6 97 94.1 92.6 91.1 87 86.4 89 92.1 94.4 96.5 99.7 101.1 95.5 93.4 92.8 93.3 94.7 98.2 97.1 101.9 105.5 105.5 106 113.9 114.6 119.8 122 123.3 126.8 130.7 135.5 141.8 144.8 145.4 153 154.4 156.4 160.8 166.9 174.5 176.8 170.9 173.3 163.5 150.3 136.7 128 113.2 110 103 105.9 111.3 108.3 101.7 91.7 88.9 91.5 96.3 95 91.9 86 73.1 62.3 48.2 37.4 33 30.4 25.9 25.8 27.8 23.1 20 19.8 21.8 22.1 20.1 18 18 17.7 17.3 16.4 14.2 9.9 11.7 7.1 5.5 4.7 4.8 15 15.2 15.4 16.1 17.6 32.4 39.7 43.5
165.8 166.2 168.1 171.3 174 174.4 175.5 176.9 178.2 177.9 178.5 179.3 180.5 182.1 183 183.9 185.2 186.2 187.3 190.3 196.1 201.2 205.6 209.3 212.3 216.8 225.3 230.1 239.3 249.2 250.9 255.3 259.3 262.5 260.7 261.4 261 256.9 247.4 244.3 243.5 243.7 243.6 245.8 244.6 243.4 241.4 238.5 235.5 232.4 229.3 227.1 225.1 224.7 224.8 226.7 227 226.6 226.9 226.2 226.5 225 224.6 225.1 225.6 226.7 228.1 229.7 229.8 229.8 230.5 230.8 230.1 228.2 225.4 220.5 214.1 206.8 197.7 198 197.6 196.6 194.6 190.6 186.4 181.9 176 167.8 162.5 156.3 151.4 149.6 146.9 143.9 140.1 134.5 129.6 122 120.4 116.1 108.9 104.2 100.9 98.3 95.7 94.6 93.4 92.3 91.4 91.7 85.3 88.7 91.9 94.4 96.5 95.3 92.1 91.2 91.5 92.3 92.2 93.5 95.3 100 109 111.8 110.7 116.8 115.9 117.4 121.1 129.6 128.3 131.7 137.9 143.6 147.4 146.9 150.5 163.3 161.7 167.9 173.9 182.8 176.7 172.8 165.1 159.6 154.2 142.6 126.8 111.1 106.8 105.4 97.5 105.3 104.3 93.1 93.9 88 89.3 93.4 95 91.5 82.2 74.2 65.7 53.2 39.1 32 31.4 29.9 27.2 26.8 24.6 19.1 20.8 20 24.1 19.1 17.5 17.5 17.8 17 16.4 15.8 12.7 15.5 5.4 5.9 12.3 14.8 15 14.7 15.2 15.2 16.3 28.4 40.8 45.1
164.8 166.3 169.2 172.3 174.7 176.1 177.6 178.7 179.3 179.7 180.2 180.9 181.9 183.1 184.2 185.7 187.3 188.6 190 192.7 198.1 202.4 206.3 209.1 211 215.9 221.2 229.9 239.6 244.4 244.1 244 252.9 256.8 256.7 253.6 254.6 245.4 242.2 245.5 241.9 241.8 242 242.5 241.6 239.7 237.6 234.8 231.8 229.4 227.3 224.8 224.8 224.8 226.2 228 229.4 229.8 231.5 231 231.2 231 231.4 231.5 232.5 233.8 235 235.6 235.4 235.4 236.2 237 236 232.7 227.7 221.4 215.7 208.7 205.4 205.4 205.9 204.8 203.3 199.6 192.6 187.9 182.1 174 166.4 160 152.6 148.2 145.2 143.7 140 135.2 131.5 128.6 122.3 118.6 114.1 108.4 103.2 99.3 97.4 96.2 94.6 93.1 91.3 90.5 86.6 86.1 89.5 91.8 93.3 92.7 89.7 89.4 90.2 91.6 90.6 91.1 93.1 96.8 104 111.1 112 114.3 118.1 121.6 126.6 132.6 136.8 135.1 139.6 145 152.7 154 154.6 161.6 162.9 171.8 179.8 171.1 175.6 171.5 163.5 155.6 158 146.5 128.6 112 107.3 105.6 98.2 95 93.2 90.1 93.2 86.7 88.9 94.3 94.4 85.5 79.9 76.4 71.7 58.7 44.7 31.9 29.3 32.6 30.6 29.3 19.7 19.3 19.7 17.6 24.3 18.9 17.7 17.1 17.4 16.5 16 15.3 15.2 15.7 4.6 6.1 9.1 12.3 13.8 13.1 14.1 13.7 13.3 19.6 37.1 48.3
165 167.9 170.4 173.1 175.4 177 178.2 179.5 180.4 181.3 182.1 182.6 183.5 184.7 186.7 188.4 190.1 191.5 192.6 195.7 199 203 206 207.7 209.5 213.9 222.3 227.2 236.1 237.6 239.4 241.1 247.4 247.2 244.8 242.6 242 240.6 242.4 239.9 238.4 238.9 240.4 239.6 237.7 235.4 233.4 230.9 228.9 227.5 225.6 224.7 225.1 226.1 228.2 231.4 234 236.2 237.4 236.5 235.3 236.4 237.8 238.4 239.2 240.6 240.7 240.5 241.2 243.6 243.6 242.4 240.7 235.8 229.6 223.8 220.3 212.5 214.2 214.3 214.5 215.5 212.9 206.3 199.7 194.8 188.6 182.2 172.4 165.3 159.2 154.3 150.1 147.8 144 137.7 135 131.1 125.9 122.2 115.7 109.5 105.8 102 99.3 97.2 95.2 92.9 91.3 90.1 88.1 84.4 87.7 89.6 89.9 89.7 88.5 87.6 87.8 88.2 88.7 90.4 92.7 96.4 101.8 109.7 112.4 115.3 119.9 128.9 135.7 142.1 141.5 141.9 141.2 147.9 151.2 155.7 157.6 155.2 165.9 169 168.6 160 165 160.4 165 154.5 153.7 142.6 132.7 114.9 105.6 107.6 104.7 89.1 90.6 90.8 87.5 82.8 87.2 94.7 95.8 88.3 81.7 79.4 77.8 67.5 52.3 36.4 25.5 30 29.9 27.7 18.9 18.8 19.5 23.7 21.8 18.4 17.3 16.8 16.3 15.8 15.4 15.1 15 14.8 7.1 -3 7.8 8.2 8.8 8.9 8.9 8.3 9.3 18.3 37.5 50.4
166.4 168.2 170.3 172.8 175.3 176.6 178.7 180.6 181.9 182.6 183.4 184.2 185.2 186.7 189.1 191.1 192.9 194.6 195.8 197.2 200.2 203.2 204.9 206.7 209.8 213.5 226.5 225.8 230 236.2 238.3 237 236.5 235.5 235.1 235.7 235.2 239.7 237.2 234.8 236.2 237.8 237.4 235.5 233.2 231 229.3 226.9 225.6 225 224.4 225.9 226.3 227.6 230.9 236 238.8 241.1 242.8 242.2 242.4 243.4 244.1 245 245.7 245.4 245.1 245.9 250.7 251.2 250.2 248.8 244.6 239.4 233.6 229.7 225.3 222.4 221.9 222.7 223.6 222.6 219.9 213.9 210.9 202.1 196.9 193.3 182 170.2 165.7 161 155.4 151.9 148.5 143.9 135.7 129.5 124.7 122.5 118.9 115.3 111.2 107.5 104 102 96.8 93.6 91.4 90.1 88.5 85.1 86.8 87.5 87.4 87.6 86.8 86.2 85.5 86 86.7 88.5 93.6 96.8 104.8 110.8 117 118.5 126.4 139.2 142.1 147 145.9 141.3 144.5 146.5 149.9 148.4 157.8 154.2 160.9 162.6 155.4 150.6 155.2 151.3 158.9 154.2 155.4 147.3 132.4 119 109.1 104.9 101.6 87.5 85.3 91.6 86.1 82.6 87.2 93.7 93.6 92 86 81.6 80.2 72 56.7 39.9 22.4 25.9 28.1 21.8 20.2 18.7 21 32.6 24.8 22.7 17.3 17.6 16.3 15.1 14.8 14.7 14.6 13.9 12.4 -3 -3 7.6 7.6 7.9 7.7 7.4 8.3 16 26 43.6
166.9 168.3 170.1 172.8 175.3 177.2 179.8 182.1 183.8 184.4 185.1 185.8 186.8 189.1 191.8 193.8 195.6 197.3 198.6 199.3 200.3 202.5 205 206.8 209.6 216.3 225.6 225.3 227.1 230.1 233.2 227.8 227.4 230 230.4 227.7 229.3 230.8 232.1 234.4 232 233.7 232.7 231 229.3 227.2 225.5 223.9 223.3 222.7 224 226.1 228.5 230.1 233.9 240.2 243.3 245.6 247.5 247.2 248 249.7 249.7 250.6 253.1 254.8 257.8 260.1 259.9 262.1 258.9 253.7 248.6 244 238.3 234.7 230.1 229.8 230.6 231.5 231.6 231.5 230 226.4 224.4 215.4 207.7 202 190 180.2 171.6 166.8 162.4 159.1 154.1 149.7 141.1 134.7 131.3 129.2 125 120.7 116.8 110.5 106.3 104.5 101.5 96.3 91.6 90.3 88.3 85.5 86 85.6 86 86.5 85.9 85.1 84.8 85 85.2 87.9 96 100.6 105.7 113 119 123.5 128.8 140.7 149.6 152.5 153.6 149.3 136.4 141.5 144.9 142 144.5 149 146.3 158.6 148.5 137.7 137.9 139.4 148.5 150.9 158.3 151.6 142.4 128.4 109.7 102.5 97.8 87.6 79 89.2 81.1 86.5 91.3 93.4 89.2 91.3 84.4 89.9 80.1 77.4 60.1 46.3 24 21.3 23.7 18.8 24 21.7 24.4 35.2 35.7 23.7 24 20.1 16.4 14.3 13.6 14 14.6 13.8 12.9 11.8 -3 -3 6.8 7 6.8 6.6 7.1 12.6 21.2 29.9
166.9 168.3 170 172.6 175.3 177.9 181.1 183.8 185.8 186.8 187.6 188.3 189.5 192 194.6 196.5 198.3 200 201 201 200.5 202.2 203.9 205.3 209.2 215.2 219.5 223.9 222.8 225 223.7 221.6 226.2 225.5 225.1 223.7 223.5 226.8 230.5 230.7 228.3 229.1 228.2 226.5 225.1 224.2 222.7 221.6 221.6 222.5 224.1 227.1 230.3 234.4 238.4 243.7 247 250.4 253.5 253.5 254.8 257.2 255 259.8 264.9 268.9 271.6 271.6 271.8 270.5 266 259.3 253.6 249.3 244.4 241.7 237.5 237.7 239.5 239.3 240.4 243 244.5 242.8 243.3 230.4 219.2 208 200.8 189.3 178.9 172.9 168.9 165.4 160.5 155.1 148.1 143.3 138.4 133.4 131.7 126.7 121.3 115.7 110.6 106.9 101.3 97.1 93.1 90.4 88.3 84.8 85.4 85.4 85.4 84.7 84.3 84.3 84.5 84.6 85.2 87.8 99.2 99.5 107.4 117 120.1 129.3 131.6 146.4 154.3 155.9 158.2 156.4 135.7 132.9 137.1 132 136 141.1 141.6 148 145 131.8 125.4 121.3 134.6 142.9 160.3 149.5 140.1 122 109.9 94.3 95.5 88.6 82.6 86.3 80 85.5 90.5 92.5 86.6 86.5 85.5 90.4 82.9 76 60.4 49.6 31.8 20.4 20.9 19 27 25.4 33.9 42.8 35.6 29.8 25.8 21.8 23.1 13.3 12.2 14.8 14 13.6 12.8 11.7 10.9 -3 -3 5.8 6.2 6.4 6.6 8.4 14.1 20.4
166.1 168 169.9 172.1 175.2 178.7 182.5 186.6 187.9 188.8 189.8 191.4 193 195.7 197.2 198.5 200 201.8 202.4 201.8 200.2 201.8 202.6 204 207.7 212.8 215.4 218.1 217.4 220.9 219.5 215.8 222.9 221.4 219.6 221.7 219.2 223.1 225.1 225.6 225.4 225 224.6 222.4 220.5 219.6 220 220.4 222.5 223.5 224.5 229.2 235.4 238.1 243.8 247.2 250 257 261.1 261.2 264.4 263.8 267.9 272.6 277 279.7 281.8 280 279.5 277.4 272.8 267 259.9 255.4 250.8 248.5 246.9 247.5 249.4 249.9 252.5 252.7 260.7 263.6 250.1 240.4 231.3 222.4 213.2 195.8 186.9 180.9 175.6 170.7 166.4 160.5 154.6 149.3 144.4 138.2 135.2 131.5 125.9 122.4 115.9 109.2 104.1 98.2 93.7 90.4 88.8 84.2 85 85 84.8 84.3 84 84.2 84.6 85.6 88.3 92.8 102.6 107.6 115.5 125.2 126.7 134.8 137 151.4 154.8 152.3 154.4 149.4 131 127.6 128.8 128.8 135 139.1 135.9 129.7 128.5 118 112.1 110.5 112.5 131 149.3 136 128.9 115.1 104.4 96.8 96.1 91.3 82.5 78.1 78.8 82.7 87.9 86.6 87.6 83.4 86.2 87.4 85 77.3 59 49 37.1 20.5 19.2 19.2 26.2 26.6 45.1 43.4 37.2 32.8 34.2 24.6 22.7 15.8 12.8 15.8 15.3 13.8 12.8 12.2 11.9 11.5 -3 -3 -3 -3 -3 -3 12.8 16.2
164.9 167 168.8 171.5 175.5 179.5 184.5 188.6 190.4 190.9 191.8 194.1 196.1 197.7 198.5 199.3 201.1 202.6 202.9 201.9 199.9 200.8 201.6 203.2 205.8 208.9 210.4 215.5 217.4 218.7 216.3 213.7 214.6 213.7 215.8 216 214.9 218.4 220.6 222.1 220.7 221.4 220.5 218 218 219.8 221.9 223.2 224.4 226.3 228.4 233.4 238.2 244.4 247.3 250 258 261.2 263 270.7 275.8 279 281.6 285.1 287.2 289.2 292.1 291.2 289.2 285.6 279.8 274.6 267.9 263 258.8 257.5 256.6 257.9 258.2 257.8 261.3 275.3 277.7 273.7 266.6 251.8 241.3 230.7 218.2 208.1 194.8 187 181.7 177 170.9 166.7 160.4 154.5 149.4 143.6 139.5 133.9 128.6 125.2 120.4 113.6 108.2 99.7 94.6 90.2 87.7 84.4 84.7 84.6 84.3 84 83.6 84.4 86.6 89.7 93.4 97.8 106 114.2 120.8 131.7 133.4 147.8 153.8 157 157.6 152.7 148.5 142.3 126.6 123.6 125.6 119.3 124.5 133.6 125.6 117.6 114.3 106.8 101.6 103.2 105.4 110.9 126.9 127.5 122.2 110.6 98.1 98.8 93.8 95 86.4 68 73.7 77.3 83.3 87.7 92 88.1 86.1 80.4 84.5 74.1 51.1 45.2 37.1 19.4 17.8 18.5 24.4 28.2 46.4 46.7 42.6 36.8 35.7 26.7 24.6 17.2 16.3 16.2 15.7 13.6 12.7 11.8 11.6 11.2 10.3 9.9 -3 -3 -3 -3 -3 16.3
163.5 165.6 167.9 171.2 175.5 180.4 186.3 191.1 193.2 193.4 196 196.3 197.8 199.3 199.1 199.3 201.1 203 202.1 201.1 198.8 199.1 201.5 202.6 204.4 207.5 207.7 208.9 212 212.2 211.8 210.2 210.7 210.7 213.2 212.7 209.5 210.6 213.6 216.4 217.6 217.7 215.1 217.3 220.5 223.6 225.9 227.2 228.5 230.5 233.9 236.9 242.7 247.6 251.1 254.3 258.7 266.5 273 282.7 287.2 290 292.9 295.3 297.3 300 303.4 302.9 297.3 293.6 290 283.2 276.6 272.9 269.4 268.4 266.8 268.3 269.3 273 280.9 290 288.1 286 278.6 263.9 248.6 237.9 229.5 214.3 201.9 194.4 188.2 184.1 178.9 172.9 167 160.5 155.3 151.1 145.7 141.1 135.7 129.1 123.9 117.7 107.6 102.9 98.3 93.8 88.6 85.1 83.4 83.7 83.7 83.4 83.3 84.5 85.7 87.9 95.2 102.5 109.6 120.5 125.8 134.9 136.8 153.8 161.2 164.1 168 161.9 151.4 137.4 125.4 121.5 117.6 116 114.9 121.6 115 111.1 108 101 97.2 98 98.3 102.1 105 112.3 115.8 101.2 103 95.5 89.1 97.7 85.3 69.5 69.5 71.2 79.9 88.3 95 81 83.5 78.1 79.6 66.5 44.7 38.3 35.9 20.7 17.8 20.3 26.2 34.9 51.5 47.7 43.5 46.9 40.2 29.4 27.4 17.8 17 16.5 15.5 13.4 12.3 10.9 10.8 11.1 10.7 10.2 9.7 7.3 6.1 4.4 -3 16.4
162.4 164.8 167.3 171.1 175.6 180.7 189.4 194.3 196.2 197.2 199.2 198 198.8 200.3 198.4 200 200.8 201.7 201.2 199.6 197.3 197.5 200.2 201 202.5 208.1 207.2 207 208.9 208.7 209.5 206.6 206.8 210.1 206.8 205.7 204.5 207.4 208.9 212.8 213 212.8 216.1 220.5 224 226.1 229 231.2 232.7 235.9 238.2 241.9 245.6 249.6 255.2 257.4 265.3 274.1 283.4 290.6 296.1 299.2 300 304 306.8 309.9 313.3 312.9 308.3 306.3 298.3 292.4 286.8 283 281.2 280.1 278.3 279.1 281.8 287.9 291.6 298 296.1 291.9 282.1 269.1 253.3 248.1 236.8 220.5 211.2 202.4 195.5 191.2 186.5 181.3 175.6 171.2 167.6 162.2 157.4 148.5 142.7 136.5 128.4 121.9 113.3 108 101.6 95.9 90.7 85.1 84.2 83.7 83.1 82.7 83.2 84.4 85.4 91.3 100.3 108.7 112.9 128 132 133.7 139.1 156.4 162.9 162.7 169.5 163.6 152 137.5 128.4 119.8 115.8 110.9 106.7 112.1 106.6 104.4 101.9 99.8 96.6 96.3 96.6 96.4 96.4 102 106 102.3 102.8 98 84.2 88.1 79.8 69.4 61.1 66 73.2 76.7 79.2 75.9 73.5 74.3 70.6 51 41.8 35.2 33 20.3 18.9 20.4 40.3 41.7 44.3 47.7 42 44.3 39.1 36.7 24 17.2 16.7 16.3 15.9 14.1 11.6 10.5 10.6 11 10.6 10.1 9.6 7.9 5.9 5.6 -3 15.6
161.4 164.3 166.8 171 175.8 183 193.2 198.2 199.5 199.7 200.2 201.5 199.8 198.5 197 198.8 200 200.8 200.5 198.6 196.1 194.5 196.3 198.2 202.8 205.6 202.7 202.5 203.4 205 204.2 200.6 202.1 201.9 201.2 200.7 198.9 203.8 206.9 211 212.4 215.9 220.2 224.1 227.7 230.2 232.4 235.7 237.9 240.1 242.1 245.1 250.3 254.1 258.7 266.9 274.6 281.5 290.3 297.6 302.5 305.9 310 313.8 316.6 321.3 322.5 322.4 319.7 315.7 312.4 305.8 299.6 295.2 291.5 289.6 288 289.6 296.6 299.3 305.7 310.6 307 299.1 290.2 283.2 273.3 256.2 243.6 233.4 220.2 213.5 204.7 200.3 194.8 190.7 186.4 183.9 179.5 175.3 168.4 158.5 148.8 142.1 132 124.9 116.8 111.4 103.3 98.2 94.6 87.1 83.9 83.4 83.2 82.7 83.2 85.1 91.4 98.5 108.6 114.4 119.8 127.9 134.6 136.5 142.9 161.3 164.6 157.5 159.9 156.7 144.4 134 128.8 126.5 117.6 107.3 105 103.9 103.9 101.3 102 99.3 96 96 96 96.2 97.4 92.8 96.7 104.2 104.9 94.6 81 82.6 73.2 64 51.3 61.4 65.1 67 77.5 78.5 74 71.1 60.7 51.9 53.7 31.9 25.2 22.1 20.5 33.8 45.1 41.9 45.3 44.2 40.4 44.7 35.1 30.4 19.9 16.7 16.2 15.6 13.7 12 10.9 11.2 10.8 10.3 10.5 9.9 10.4 8.8 6.2 -3 -3 14.5
160.5 163.6 167.1 171.7 177.6 189.9 194.5 198.8 200.6 201.3 200.8 201.4 198.1 196.3 195.3 197.5 198.3 199.8 199.3 197 193.5 190.7 192.7 195.7 198.6 200 198.4 198.3 198.1 198.2 197.3 195.2 197.4 196.3 195.3 193.7 200.6 206.7 210.9 214.7 217.7 220.6 224.1 227.5 231.1 234.2 237.4 239.1 243 244.2 246.8 248.8 253.3 258.4 266.1 271.4 281.2 289.4 297.3 305.8 312.9 316.4 320.2 324.6 328.3 330.7 328.7 331.9 334.6 332.5 327 320 313.6 308.2 302.7 300.1 302.6 303.2 305.9 311.9 317.4 312.5 323.2 319.2 311 297.3 285.1 269.2 257.4 248.5 239.2 223.3 214.6 211.2 204.5 203 202.5 194.2 189.9 185.7 179 166.6 155.6 148.3 138.7 129.9 121.9 113.3 106.5 100 97.5 90.8 84.7 83.3 83.1 82.9 83.1 89.9 97.7 105.6 113.1 117.4 124.5 129.6 137.5 136.5 140.9 158.9 154.1 148.1 147 145.5 132.2 125.1 120.6 120.4 114.7 107.1 107.2 103.6 102.3 102.4 103.4 100.8 95.8 95.5 94.5 95.7 98.3 90.3 89.7 98.8 97.7 90.5 86.8 74 71.3 61.6 48.3 51.3 57.2 59.1 71 81.5 70.3 63.1 55.9 52.5 49.7 33.8 25 23.9 29.5 41.2 40.7 43.4 47.5 45.1 41.8 45.3 33.7 25.1 20 16.6 15.2 13.3 12 11.1 10.3 10.6 10.5 10.2 10.1 9.9 9.8 9 6.3 -3 -3 15.1
159.5 163.2 167.8 173.6 181.3 190.6 195.3 198.2 200.1 200.6 198.3 198.4 195.6 193.1 192.7 195.4 196.5 197.3 195.9 192.6 188.2 186.2 188.2 192.1 195.2 194.9 192.9 192.6 193.2 192.4 191.4 189.5 191.2 189.5 192.6 199.3 203.5 209.1 214.1 217.8 221 224 227.6 231.4 234.8 237.9 241.6 244.8 246.1 250 251.6 255.3 259.6 263.7 269.6 276.6 286.8 297 306.3 317 323.3 326.1 329.7 334.6 335 338.5 344.1 349.6 353.8 352.5 342.7 337.4 329 324.4 322.9 322.1 321.6 317.6 319.4 322 323.8 326.5 330.3 331.2 323.6 310.9 291.2 279.3 264.7 258.1 247.3 233.6 227.9 221.6 216.5 211.8 211.2 204.8 199.6 194.4 184.9 178.7 167.2 152.8 144.1 137.5 126.7 116.7 110.2 104.8 99.2 90.9 88.2 84.1 82.8 80.2 88.4 93.9 102.6 107.8 112.6 117.6 121.1 129.4 144 138.7 135.6 145.7 142.4 141.1 133.9 134 127.8 120.7 112.8 113.9 113.2 105.6 108.7 108.2 103.6 104.4 105.9 104.2 97.3 95.4 94.4 95.2 94.4 90.7 89.1 89.7 91.9 86.4 84.6 70.4 66.6 59.9 45.3 44.6 50 53.9 63 72.4 65.6 56.2 49.6 47.5 44.1 32.1 26.3 33.7 43.9 42.1 41 47 48.8 39.2 41.2 43.7 30.9 25.7 19.9 15.1 13.9 16.3 11.4 10.4 9.2 9.3 9.9 10.2 10 9.7 9.4 8.8 7.7 -3 7.3 15.4
159 165.1 167.8 177.9 185.7 189.4 194.7 196.7 198.2 198.4 196.7 195.1 192.8 190.7 190.1 192.5 193.6 192.4 191.7 189 183.8 182.9 184.7 188.7 191.3 189.6 188.1 188.1 187.9 186.9 186.4 184 190 195.4 199.9 204.1 208.6 212.7 216.8 220.6 223.9 227.2 231.7 235.7 238.9 242.5 246.1 249.8 251.3 254.7 258.8 262.6 266.7 269.8 274.8 285.5 294.7 305.5 315.7 327.1 333 334.8 336.3 345.1 347.5 356.6 361.7 370.7 368.3 369.5 363.1 349.8 344.5 343.3 344.8 346 343 335.5 331.8 334.7 336.8 338.5 340 339.8 328.8 311.9 297.9 291.1 275.9 265.1 251.9 247.3 239 231.9 227.3 220.4 221.8 213 209.8 203 197 189.4 175.4 158.1 147.2 138.2 129.6 119.1 113.4 108 103.6 96.1 93.3 88.9 81.6 81.7 89.6 97.2 104.5 106.9 109.8 108.3 115.5 124.9 140 135.3 129.3 133 135.5 133.8 127.7 127.4 121.1 121.1 112.6 109.9 104.4 109.3 110 108.7 105.7 107.8 109.2 107.3 99.2 96.1 95.5 95 93.5 87.9 88.3 88.3 84.9 82.2 77.4 74.4 66.4 58.6 47.7 43.8 46.3 54.3 57.2 64.4 61.5 48.4 44.7 42.1 35.4 26 29.3 42.8 53.2 44 44.3 42.2 44 39.7 46.8 47.3 31.5 27.2 21.5 18.3 20.3 15.7 11.6 9.8 9.3 9.7 9.5 10.2 9.8 9.5 9 8.1 7.6 -3 9.1 15.3
156.8 163.1 168.5 178.4 184.7 189.8 193.4 194.5 195.5 195.8 194.4 191.7 189.9 187.7 186.7 188.7 189.9 189.5 187.6 184.1 180.3 179.8 181.9 186 187.7 185.8 184.3 184.1 183 182.8 182.6 189.8 195.2 199.7 203.7 207.7 211.1 215.2 219.3 223.1 226.6 229.9 234.1 239.2 243.8 247.3 250.8 254.5 257.3 259.4 264.5 269.2 273.5 278.1 288.3 297.4 308 319.2 329.2 334.7 337.9 338.3 344.4 354.1 366.2 372.2 381.5 383.4 387.3 386.7 380.6 374.7 369.6 365.2 364.8 361.9 355.8 347.5 344.7 345.9 348.5 348.1 347.2 337.3 323.3 319.2 303.1 298.1 288.2 278 268.5 263.1 253.9 242.4 235.4 227.9 229.4 225.3 215.5 210.6 205 196.5 181.5 168.3 154.9 144.3 134.6 124 115.3 110 105.7 100.2 96.7 91.9 85.9 81.2 88.4 92.8 101 102.8 102.7 104.7 113.3 113.1 126.8 124.7 118.7 128.5 128.7 129.6 122.2 119.7 114.3 114.3 110.9 110.2 101.8 106.9 111.2 111 109.7 111.6 114.4 110.5 101 97.4 96.7 95.4 90.3 84.3 81.9 83.2 81.9 78.6 75.2 74.3 61.3 58.2 49.2 40.7 49 48 54.1 56 49.4 47.9 43 37.7 25.8 27.3 46.2 48.1 61.2 59.6 52.8 42.4 44.4 41.4 58.8 48 32.4 26.2 22 23 20.7 19.2 13.5 10.3 9.4 9.7 9.8 10 9.6 9.2 9 8.4 6.8 -3 13.1 15.4
155.4 163.5 169 176.7 182.7 186.7 189.3 191.6 193 193.1 190.1 187.4 186.4 184.5 184.1 186 186.8 185.1 183 180.2 177.4 176.8 179.3 182.7 183.1 182.7 180.5 180.5 179 182.9 188.7 193.9 198.7 202 204.8 209.1 213.5 217.6 221.7 225.6 228.9 232.2 238.2 244 249 252.8 255.1 258.6 263 265.8 269.9 275.2 282.3 290.2 300.1 305.7 319.9 329.6 337.1 340.6 343 351 360.5 372.2 385.9 387.9 394.8 401.9 402.7 403.1 408 402 388.7 383.6 374.4 370.5 368.3 367.2 356.8 353.6 351.9 351.1 342.1 330.9 327 316.9 307.2 301.1 293 284.2 275.7 267.2 260.2 249.8 240.7 233.5 231.1 225.9 222.7 214.7 207.8 201.1 188.5 173.6 163.5 150.1 138.1 126.2 116.1 112 107.2 102.3 97.6 94.7 90 81.4 84.9 88.7 94.1 97.1 99.4 97 100.5 108.1 118 109.5 112.4 113.5 116 108.1 110.2 104.8 106.1 108.6 112.2 108.3 100.3 102.2 107.1 111.4 112.7 115.4 119 115.2 106 98.6 97.6 97.1 92.4 83.3 83.2 81.4 80.7 77.4 75.6 80.2 71.8 59.7 52 44.1 42.3 45.2 44.6 49.9 41.3 43 43.6 26.6 23.5 33.4 48.5 57.6 59.2 62.1 66.6 45.8 41.4 42 61.1 46.3 29.8 23.7 23 31.3 29.1 23.9 15.2 10 9.4 8.9 9.2 9.6 9.2 9.3 9.6 8.2 6.1 -3 11.9 15.7
154.4 162.2 166.9 173.1 178.7 182.5 184.6 187.8 191.2 188.8 186.2 185.4 184.7 182.8 180.7 182.1 182.7 182 180.2 177.5 174.9 172.6 174.4 175.4 175.3 175.4 176.1 176.9 181.8 186.8 191.8 197 200.6 203.7 206 210.6 216.2 221.3 225.6 228.3 231 235.8 241.6 247.3 253.1 257.7 259.7 263.4 267.6 271.4 276.6 285.3 293.1 303.5 312.6 320.9 331.2 340.3 342 350.9 353.5 365.4 382.4 386.9 403.7 407.2 410.6 417.2 419.7 422.5 419.4 415 404.4 392.6 381.8 380 379.1 373.6 361 360.6 359.8 350.2 342.3 333.7 323.9 320.6 312.3 304.9 297.9 288.8 284.5 273.4 262.6 256.7 244.6 234.1 230.7 226.6 223.4 217.4 207.4 197.9 185.6 173.3 162.6 149.5 138.3 128.6 117.9 111.6 107 100 97.5 95.9 91.9 83.8 81 85.6 87.7 91 91.1 89.9 90 95.9 102.3 100.1 100.8 102.2 101.6 98.1 98.1 94.5 95.8 109.7 106.2 104.8 101.2 100.5 106.3 110.9 113.6 120 126.5 123.6 113.7 102.8 96.9 95.5 91.1 85 87.7 83.4 81.7 75.6 73.6 81.4 73.2 65.8 58.3 44.1 38.1 43.1 37.3 38.5 36.2 38.2 34.5 22.4 24 40.2 50.9 64.8 59 64.5 67.5 54.3 41.8 49.9 51.3 43 27.8 26 26 38.1 38.7 28.1 17.3 11.5 9.4 8.7 8.9 9.2 9.4 9.8 9.5 8.3 -3 -3 9.4 14.2
151.7 157.5 163.2 169 173.1 177.2 180.5 182.8 184.7 184.4 183.7 182.9 181.5 178.9 177.8 179.2 180.2 180 178.4 174.5 169.9 166.8 170.6 170.8 175.9 177.1 178.6 181.8 184.9 190.4 195.4 198.9 202.3 204.4 207.4 211.7 218.3 223.3 227.3 230.9 235.3 240.5 246.1 250.7 255.7 260.8 263.2 267.4 272.4 277.6 285.8 294.9 307.4 316.7 327.5 335.9 340 345.8 353.8 361.5 369.3 382 401.6 407.8 411.9 423.5 429.2 433.6 436.8 433.6 430.3 427.4 415.3 399.1 393.4 394.3 387 380 368.6 367.7 361.4 354.6 351.4 342.7 330.9 324.5 314.2 306.1 299.9 292.2 285.3 271 266.8 259.3 246.5 227.8 223.2 224.2 217.3 212.1 204.4 192.9 182.1 170.7 160.4 149.8 140.1 129.1 118.6 112.5 105.9 97.2 96.6 96.2 93.3 87.2 79.4 82.1 85 84.2 85.5 83.9 84.3 86.4 92.9 95.3 97.2 98.3 96.4 95.5 87.7 83.9 86.7 106.5 100.6 98.4 96.6 99.7 104.5 107.7 114.1 119.3 128.7 123.8 109.7 105.6 95.9 92 89.8 87.4 89.4 81.4 78.8 69.5 69.6 75.4 68.9 64.7 63.1 43.5 37.4 38.4 35.6 33.7 30.7 28.3 22.5 20.6 38 49.2 53.3 66.8 60.6 62.4 63 62.8 44.8 50.2 56.8 42.6 32.2 31.3 29.9 37.9 41.9 31.8 21 12.5 9.5 8.2 8.5 8.8 9.3 9.2 9.1 8.2 -3 -3 10.2 11.9
148.8 153.3 158.6 164 168.1 172.5 175.9 179 181 181.5 180.7 179.4 177.9 176.1 175.7 176.8 177.6 176.9 174.9 169.8 163.8 170 176.5 182.4 185.5 185 184.8 186.6 189.4 193 197.7 200 202.1 205.2 208.9 213.7 219 223.8 227.8 231.8 236.4 242.5 248.2 253.8 257.9 263.7 267.9 274 278.5 287.5 297.6 306.8 317.4 326.2 333.2 341.1 354.4 356 363 372.3 382 394.7 409.6 417.5 421.7 438.9 445.1 440.3 445.7 447.3 440.1 428.2 418.7 408.2 402.9 398.3 394.9 382.2 370 365.1 369.2 365.3 356.4 346.4 333.5 319.4 313.8 304 297.3 288.4 281 274.3 268.6 256.1 243.9 227.4 218.2 215.9 209.7 203.8 198.1 189 176.9 166.6 160.5 150.9 141.6 128.2 119.6 112.9 104.4 96.1 96 96.5 93.1 88.9 84 77 78.7 80.5 81 81.6 80.7 82.1 86.2 90.4 96.4 94.5 93.6 89.3 84.2 80.8 82.7 92.4 91.9 91.5 92.9 100 104.9 110.2 113.7 118.1 123.3 119.8 113.3 108 100.8 92.8 91.1 91.7 85.7 83.6 75 70.3 64.7 69 67.7 62.3 54.5 45.8 40.5 36 27 27.2 23.4 21.8 19.1 22.3 44.1 46 52.9 69.6 61 60.4 70.1 61.4 49 45.7 54.1 43.9 40.4 31.7 31.2 32.9 40.4 32.7 23.7 15 9.6 8.4 8.2 8.3 8.6 8.4 8.4 7 -3 6.9 8.3 8.7
145.7 149 154.3 159.7 163.6 167.8 171.6 175.5 177.9 178.6 177.5 176.5 176.8 174.4 173.2 174 173.1 170.3 168 162.3 169.9 174.7 179.8 185.7 190 189.8 189.9 191.7 194.2 196.7 198.6 200 201.5 205.4 208.8 213.5 218.1 223.6 227.6 231.9 237.6 244.4 250.3 254.5 261.3 268.5 274.7 280.3 286.5 298.9 307.1 314 320.6 326.9 337.6 351 364.3 368.4 373.6 385 396 402.9 415.8 432.2 435 446.1 450.9 442.5 445.8 447.3 439.6 429.5 427.7 417.6 406.5 398.9 394.6 383.8 368.8 369.1 366.8 361.6 355.1 340.6 329.9 314 306.7 297.4 289.2 279.9 274.7 264.5 262.2 253.2 242.4 224.4 216.2 214.6 205.4 198.7 190.6 182.5 172.1 163.1 158.4 149.8 139.8 129.1 119.5 113.2 105.7 99.6 93.8 93.5 93.4 91 88.3 83.8 74.4 69.6 79.5 79.4 77.8 79.3 81.4 87.6 88.9 92.9 88.5 82.8 80.4 79.5 81.2 82.4 88.2 92.7 100.3 101.8 101.2 108.5 113.9 117.1 120.2 117.6 114.7 112.2 104.1 99.2 89.9 85 84.2 82.6 76 70.9 61.6 64.1 62.8 59.9 53 50.5 40.8 33.2 26.6 22.4 21 20.2 19.6 25.3 38.8 47 56.8 63.6 61.7 61.5 58.5 58.1 60.8 50.1 48.3 43.8 46.7 40.7 34.3 30.7 33.8 30.6 23.1 15.5 9.8 6.9 7.8 7.9 8 7.8 7.6 7.5 -3 -3 7.2 7.7
142.3 145.3 150.6 157.1 161.4 164.7 168.5 172.5 175.4 175.1 174.4 173.8 174.2 171.2 170.7 170.5 167.1 164 160.4 167.9 173.6 178.6 183.7 189.9 194.5 194.5 194.8 195.6 195.9 199.1 199.9 199.4 201.1 205.4 208.1 212.7 216.4 221.4 226.9 232 236.5 243.1 246.8 255.3 265.7 273.9 277.5 284.6 292.4 301.7 312.2 316.9 323.8 331.6 348.1 356.9 363.4 379.1 388.7 388.9 399.6 409.4 412.1 436.1 437.7 440.2 452.4 446.4 445.7 441.1 443.2 441.8 431.3 417.8 405.7 395.9 387.2 381 364.8 359.7 360.2 354 340.3 336.1 322.5 312.8 295.6 287.3 280.3 276.1 267.8 254 249.7 244.2 234.8 223.5 208.9 209.5 201.7 193.6 185.6 178.5 169.2 160.4 156.2 148.4 139.1 128.2 119.8 113.6 106.7 102.6 96.9 92.4 89.7 88.2 86.3 83.5 77 75.6 75.1 76 76.5 78.4 80.9 84.4 84.9 89.2 83.1 81.1 78.6 76 78.8 81.6 85.5 93.3 98.5 99.1 99.1 106.3 111.5 114.5 116.2 115.5 115.6 116.6 111 103.6 96.8 86.4 81.6 77.7 77.9 69.7 61 59.7 56.6 53.5 55.6 53.3 41.5 34.5 32.1 22.3 20 19 20.5 26.2 41 50.8 64.6 65.9 72.6 58.1 55.7 62.9 67.9 59.4 45.7 41.2 44.4 49.8 45 35.9 31.1 28.9 24.8 20.4 12.5 8.2 6.8 7.5 7.6 7.1 6.9 7.1 -3 -3 -3 8.5
139.8 142.3 147.3 153.1 158.3 162 165.8 169.6 173 172.9 172.3 171.7 170.6 168 167 163.9 157.5 158.4 169.8 174 178.9 183.7 188.3 193.1 196.6 198.2 198.6 198.9 199.1 200.3 201.8 200.5 199.5 204.3 207.5 211.1 213.6 217.8 225.5 232.4 235.7 240.1 247.3 255.2 265 272.5 277.4 287 295.2 300.5 309.6 316 328.1 334.2 344.9 359.9 372.1 385 390.9 396.7 401.4 406.3 409.4 428.2 440.5 443.2 453.4 450.1 444.5 446.5 444.6 436.1 426.5 416.5 397.9 383.5 380.7 373 358.8 351.8 338.5 336.1 329.8 328 317.3 297.5 283.2 279.9 274.2 266.9 255.7 243.2 235.8 231.4 225.2 211.3 203.2 202.2 196.5 189.1 181.7 174.6 166.4 156.1 150.8 144.3 135.3 127.7 119.3 114.2 108.4 101.2 100 96.5 92.3 89.5 87.4 84.6 81.1 76 66.6 72.2 75.7 81.2 80.8 78.3 78.8 80.6 80.1 78.6 77.7 73.7 74.7 80.1 84.1 91.3 93.5 97.8 96.4 101.9 106.6 111.1 114.6 117.3 114.1 119 117.3 110.1 100.3 86.4 80.6 74.1 75.3 69.7 62.6 55.2 56.3 51.6 55.3 55.1 42.3 32.7 28.2 21.6 19.1 18.7 21.9 23.3 41.5 55.5 65.7 73.2 71.3 58.8 57.9 55.6 54.5 63 48.9 37.2 36.2 46.5 44.5 35.5 27.1 28.3 26.8 22.6 14.4 8.1 6.8 6.7 7 6.3 6.5 -3 5.5 -3 -3 7.7
138.5 140 144.9 150.5 154.8 159 162.8 167.1 170.2 170.8 170.3 169.7 168.6 165.3 161.1 154.8 163.1 171 174.7 178.3 182.2 186.9 192.1 196.5 199.7 201.1 201.5 202.1 202.4 203 202.7 200.1 198.5 202.6 206.1 208.7 211.2 213 219.3 226.8 233.3 240.2 247.8 253.7 263.1 273 281.1 283.3 291.4 298.8 313.2 321.5 330.2 336.3 349.4 360 371 384.6 390.3 395.7 406.2 407.9 413 428.7 440.5 441.4 441.2 449.1 442.1 442.9 434.5 427.3 416.3 405.9 391 374.4 365.7 359.1 343.6 335.6 332.8 324.5 322.8 316.4 300.2 282.2 270 264.9 261.8 253.2 241.5 230.3 224 218.4 213.1 201.5 195.9 195.1 191.4 182.5 172.8 167.9 160.6 150.7 142.9 138.7 132.7 124.4 119.2 114.2 108.8 99.3 98.1 96.4 94.3 91.5 89.3 86.6 83.5 81 69.6 68.2 77.4 80.9 77.9 73.1 77.1 76.9 77.3 77.8 77.2 72 71 76.8 82.9 84.1 89.7 94.1 101.9 104.3 109.7 119.1 119.7 116.9 114.1 117.4 113.8 111.3 102.2 92.1 83.5 77.7 69.6 67.5 65.8 57.8 52.4 50.9 52.8 52.9 43.1 31.3 23.5 20.7 19.6 18.2 19.7 27.9 47 58.8 64.9 78.4 80.5 68.2 64.1 56.6 52.4 71.5 51.4 37.5 38.2 40.6 37.6 31.4 26.4 28.4 30.4 26.3 18.1 7.6 -3 -3 4.6 -3 -3 -3 -3 -3 -3 8.6
137.9 139.5 143.2 147.7 152.6 156.8 160 164.2 167 168.6 168.3 167.6 166.2 161.4 153 158 168.3 181.5 179.1 181 185.6 190.6 195.9 200 202.8 203.6 202.9 204.1 205.7 207.3 206.4 202.3 196.7 200.2 203.7 205 204.9 205.3 211.6 221 233.5 237.5 243 250.7 257.8 273.9 276.6 277.8 294.5 301.4 307.6 322.4 328 339 345.2 356.2 367.3 376.7 386.8 391.1 406.3 415.3 413.3 420.6 436.9 443.8 434.9 440.5 435.5 426.8 420.3 412.4 405.6 390.6 378.9 366 354.2 342.4 331.9 324.7 324.6 311.4 305 296.7 284.7 268.8 257.4 253 247.1 237.3 228.4 220.2 212.9 204.9 197.9 194.7 189.5 188.5 184 174.7 167.6 160.9 153.3 145.2 139 134.2 128.8 122.5 118 112.4 107.3 100 96.5 94.2 93.3 92.4 90.2 87.9 85.2 82.1 74.3 64 75 79.6 74 67.7 73.7 74.8 76.6 71.2 71 69.3 67 71.7 81.2 88 93 99.4 99 103 108.7 118.2 118 110.9 112.4 115.2 110.9 109 104.4 92.5 82 78.3 72.8 68 64.8 61.5 57.8 52.2 50.5 48.4 42.5 30.9 26.9 20.3 20.4 19.1 18.3 20.8 37.7 49.8 55.7 62 79.4 77.2 66.9 63.2 55 55.4 59.6 42.7 41.5 40.7 37.9 32.6 28.7 28.1 34.7 31.4 22.4 9.5 -3 -3 -3 -3 3.5 4.3 5.9 -3 -3 -3
137.4 140.1 143 145.5 150.3 154.8 158.7 162.5 165.3 166.1 165.9 164.9 162.2 154.7 152.5 163.1 170.7 176.3 179.3 183.5 188.5 193.9 199.3 203.2 205.4 205.6 205.1 207.6 208.9 208.9 207.3 204 198.3 194.6 199.1 201.4 201.9 201.8 201.9 215.3 226.1 232.2 239.3 249.3 252.7 265.2 270.3 273.6 292.8 299 310 322 328.1 338.9 340.6 345.2 359.6 364.9 374.3 387.7 407 415.7 420.6 415.5 434.4 436.7 427.4 423.5 420.2 410 410.6 400.9 390.2 380.2 369.8 358.2 343.2 331.4 319.1 310 308 298.1 286.8 277.1 267.4 257.1 244.4 237.9 231.5 224.9 216.5 209.6 200.2 193.4 189.6 186.3 180.9 181.4 177 169.9 159.8 152.2 145.7 139.6 133.7 130 125.4 120.6 115.4 110.9 105.2 97.2 93 88.7 88.2 91.5 89.1 87.9 86.2 83.2 78.2 67.7 66.9 76.7 71.1 68.2 71 72.2 70 67.2 66.1 62.7 63.8 64.9 75.7 87.1 90.2 98.6 98.2 99.4 103.6 110.1 107.7 107.5 105.1 110.7 107.7 108.8 99.9 90.8 84.2 78.8 71.2 68.6 64.1 59.8 57.8 53.6 57.1 54.7 36.8 28.5 21.2 20.6 20.8 18.7 18.6 19.8 26.4 36.4 51.3 56.8 68.4 80.8 72.4 63.4 57.9 47.7 50.4 46.9 53.2 39.4 42.7 38.7 33.5 27.1 35.9 35.1 28.7 8.5 -3 2 3.8 3.5 4.3 5.6 8.9 8.5 -3 -3
137.7 145.1 146.6 145.8 148.5 152.6 156.8 160.6 163.3 164.2 163.5 161.3 155.7 150.2 156.1 165.8 170.7 174.2 179 185 190.4 196.1 201.4 205.1 205.6 206.4 209.1 209.4 208.9 206.9 207.5 205.7 200.3 194 191.8 198.1 198.8 197.5 196.6 203.4 215.8 225.3 235.2 244 247.6 259.7 260.9 268 283.9 302.3 307.3 309.1 317.9 325.3 328.8 330.6 341.3 356.3 365.1 389.4 397.4 405.8 418.6 417.5 426.2 427.7 422.5 419.1 414.4 404.7 393.1 387.3 379.1 371 362.2 350.5 332.9 323.2 308.3 298.5 287 281 269 264.9 253.5 244.4 232.9 228.5 221.6 215.3 205.3 195.9 189.7 188.6 183.9 176.5 173.6 174.4 171.4 163.4 153.7 147.6 142 137.5 132.1 126.3 121.8 117.4 113.3 108.1 110.2 105.6 100 93.4 87.6 87.4 87.1 87.6 86.6 84.4 80.6 71.6 58.4 67.1 73.1 69.2 71.6 70.6 67.4 62.8 60.4 60.8 62 65.9 69 79 85.6 98.1 100.8 101.4 100 102.1 104.6 106.3 102.6 102.1 102.9 100.6 97.5 92.6 86.7 81.3 71 66.5 64.2 59.4 54.8 51.9 60.5 56.8 36.6 23.1 21.9 20.5 20.2 18.6 18.5 20.2 24.9 30.5 40 53.9 59.6 74.5 70.9 67.1 59.4 52.9 41.3 42.9 50.2 42.6 39.1 46.7 35.3 28.3 25.3 20.1 17.3 8.8 -3 -3 3.5 3.5 3.7 7.4 9.5 9.3 9.6 7.8
138.9 145.2 146.4 140.8 146.2 150.4 154.6 158.2 160.8 161.6 160.2 155 146.8 150.6 161 166.7 170.5 174.7 179.4 186.7 192.3 197.3 202.4 205.2 207.2 210.6 212.6 212.1 211.4 211 211.1 208.6 203.8 195.9 188 195.7 195.6 195.2 193.1 194.8 203 213.1 229.1 237.6 241.1 250.2 252 260.1 276.1 286.3 292.2 294.5 314.4 316.6 319.6 328 331 346.1 360 383.7 386.4 402.7 417.1 421.1 413.8 422.6 417.2 407.2 400.9 390.1 380.3 371.7 364.5 358.5 349.8 336 323.7 309.1 299.1 286.3 281.4 265.1 255.3 248.7 241.2 234.4 223.4 218.9 214.4 206.8 197.5 192 186.1 181.6 175 169.6 166.6 167.9 162.9 155.4 149 145.7 142.8 136 129.5 122.4 117.6 114.9 111 113.9 111.6 107.3 102.6 98.7 93.9 88.5 81.1 81.4 85.8 84.8 81.1 75.8 66.9 57.8 66.6 67.4 66.3 66.6 63.5 60.8 59.5 59.5 60.4 63.7 63.8 70.6 77.9 92.5 101.6 99 96.4 95.6 98.4 104.9 101.2 95.7 96.6 98.6 96.7 95.6 82.8 77.1 72.8 65.4 62.7 58.2 52.6 46.3 49.7 56 35.4 21.8 26.1 20.9 20.8 20.7 19.4 19.9 22.9 25.9 34.1 43.4 51.4 66.6 64.8 66.9 59.5 58.1 39.1 33.2 38.4 43 34.3 37.7 43.7 37.6 23.6 11.9 14.6 11 -3 -3 3.5 3.5 3.5 3.5 8.1 9.2 11.1 9.8
132 138.8 135.2 138 143.7 147.3 151.8 155.7 156.3 155.8 152.1 145.2 146.9 154.3 162.4 166.8 171.5 176.2 181.5 189.5 194.6 199.6 204.3 206.2 211.4 214.9 217.2 217 215.7 214.5 213 210.2 205.5 197.9 186 192.8 192.8 192.4 190.7 189.7 195.2 203.8 217.1 229.9 231.3 239.4 240.4 253.5 266.8 273.4 276.3 286.4 295.6 302.7 307.6 311.6 321.8 334 354.6 367.8 387 398.9 408.8 418.5 408.6 415.4 407.8 399.2 392.9 379.9 370.2 359.7 351.8 346.3 335.3 325.1 313.4 297 288.3 278.2 271.1 257.8 247.6 239.5 232.3 226.7 216.7 210.3 202.6 194.2 189.6 186.2 181.5 176.2 168.8 166.6 162 158 156.2 151.1 148.3 147.3 145.3 138 130.6 124.6 118.3 113.1 115.5 114.9 112.2 108.7 104.4 101.4 98.7 96.3 90.6 84.7 77.6 76.5 79.8 74.7 62.2 58.1 55.2 62.9 62.7 61.3 59.4 60.3 58.2 56.4 57.6 60.7 60.2 62.4 68.8 86.5 94.3 89.7 85.3 90.5 95.9 96 95 92.4 94.1 96.9 95 92.3 84.3 77.3 72.5 64 59.7 57 52.1 45.1 39.9 32.4 25.4 22.7 27.4 21 20.6 20.3 19.4 19.8 22.5 24.1 36.6 36.1 45.3 57.5 64.5 61.6 56.9 59.8 43 32.6 32.1 34.2 32.4 33.8 39.4 37.7 19.3 10 10.3 9 -3 -3 3.5 3.5 3.5 3.5 8 8.6 10.7 10.2
127.3 128.8 131 136.1 141.5 144.6 147.2 151.6 155 152.2 143.2 143.7 153 159.2 163.6 168 173.3 178.8 184.9 191.4 196.8 202 206.2 210.1 215.7 219.2 221.1 220.3 218.1 216.5 214.9 211.8 207.3 198.2 184.5 187.3 188.7 188.1 188.4 186.1 190.4 197.8 210.4 217.8 222.8 228 236.2 246.4 256.5 259.7 271.7 277.2 279.6 287.6 295.6 300.2 306.6 317.9 336.4 358.4 378 394.8 401.6 405.3 404 400.8 399.9 392 386.4 381.8 367.4 351.8 343.3 332.6 320.8 311.5 296.6 286.1 274.9 265.5 259.1 254.1 245.6 234.1 226.5 216.6 208.9 199.9 194.6 189.9 186.1 183.5 182.1 179.6 174.7 167.3 159.9 160.1 156.7 154.8 150.8 150.7 146.5 140.6 134.6 128.8 123.8 119.6 117.9 116.1 113.3 109.8 105.8 103.4 101.4 99.3 97 91.4 85.3 80 71.2 69.3 69 63.9 56.6 57.1 58.9 57.1 57.6 58.6 55.5 53.9 53.1 60.6 58.1 59.6 63.4 75.7 85.2 79.1 79.5 81 91.6 93.4 92.9 93.8 90.4 90.4 91.9 89.2 85.5 79.5 72.8 64 59.2 55.9 51.1 42.9 38.4 29.7 22.6 32.6 29.4 20.1 20.3 20.1 18.2 19.3 19.6 20.2 30 36.6 36.9 44.5 56 53.2 47.4 44.3 42.9 40.1 34.1 31.5 28.4 22.2 25.8 24.8 17.1 11 7.7 -3 -3 -3 3.5 3.5 4.9 7.6 7.7 8.5 10 10.6
126 125.1 126.9 134.2 137.5 139.1 140.2 144.3 146.3 139.5 142 146.5 153.8 158.6 163.7 168.5 174.9 181.8 186.6 192.8 198.8 204.4 209.6 214.5 218.7 224.5 224.2 222.8 220.7 218.9 217.1 215.1 210.4 202.4 193.8 183.9 182.8 180.7 185.4 184.4 181.7 190 204.3 212.7 218.4 220 223.6 235.4 244.4 252.3 260.6 264.6 267.1 270.3 276.2 285 294.2 304.8 318.8 349 366.7 384 398.4 402.4 401 399.6 398.3 394.4 378 369.1 358.9 337.7 331.1 324.4 312 297.7 283.4 274.9 268.5 259.6 253.9 246.2 239.3 230.4 218.5 209.8 201.5 194.9 190.6 186.5 184.9 184.8 185.3 181.9 177.2 171.7 166.2 163.4 159 155.2 154.2 152.6 148 142.2 137.1 130.7 128 125 121.3 118.6 115 111.8 108.1 105.6 103.9 102 99.4 95.8 92.2 87.4 84.1 81.1 75.4 68 59.1 54.2 56.4 55.1 55.8 57.2 54.5 53.2 52.5 53.1 54.4 57.1 58.6 59.5 66.4 71.6 77.1 76.3 78.3 81.7 88.9 91.5 90.4 90.9 91.5 87.1 80.2 78.9 74 64.8 60.8 56.3 56.8 46.2 35.3 25.8 21.7 27.4 23.5 20 19.8 19.9 18.7 16 19.2 20 23.8 27.2 33.6 40.2 48.7 53 40.5 35.7 37.1 37.3 41.3 38.9 19.1 17.7 15.3 18.4 13.9 11.1 5.7 -3 -3 5.6 6.4 6.5 7 7.1 7.4 8.5 9.6 11.6
126.1 127.5 128.8 129 132.3 132.3 134.4 134.5 138.2 142.6 145.9 153.3 156.8 158.3 164.6 169.8 177.5 184.1 189.4 195 201.6 207.6 213.8 219.1 225.5 229.2 227.8 226.6 225.1 222.5 220.4 218.1 215.8 211 204.2 196.2 195.2 188.3 176.6 171.8 165.9 184.3 195.9 204.2 211.3 211.7 215.6 227.4 236.3 241.8 245.7 249.9 252.7 253.4 264.2 282.2 288 296.6 312.4 345.8 361.8 377.2 392.7 406.7 405.8 396.8 390.7 388.2 378.8 363.6 350.5 330.7 318.6 310.8 297.3 287.9 277.1 270.2 266.3 256 244.6 238.4 229.6 222.2 216.1 205.9 197.2 191.9 188.5 188.5 189.2 189.2 187.6 183.2 178.6 173.8 170.4 167.2 161.4 158.6 156.9 154.3 149.4 145.9 140.3 138.1 133.7 129.6 125.3 121.7 118.5 114.3 110.2 108.3 106 103.7 101 97.2 92.9 89.8 86.6 82.1 76 70.7 62.8 53 52.3 52.4 53.7 55.7 51.7 51 50.9 49.7 54.1 53.5 54.7 59.4 62 68.9 74.2 78.1 79 80.4 86.3 91.2 91.8 93.4 89.1 89.5 82.1 77.5 74.9 65.9 59.6 56.5 53 48.9 36.2 27.5 21.9 26 21 19.5 19.5 19.4 18.7 13.5 17.5 17 20.6 23.6 33.2 47.4 40.7 40.6 33.6 40.1 40.4 36.4 42.5 39 15.5 12.9 14.1 19.4 15.2 8.6 -3 -3 4 5.2 6.8 6.6 6.9 7.1 7.3 8.7 9 9
128.1 130.2 131.9 129 132.3 135.8 138 140.9 146 151.4 155.2 159.2 164.9 166.4 167.5 171.5 177.5 186.2 192.4 198.3 204.4 213 220.6 224.8 229.7 234 234.3 232.1 230.8 229.8 226.7 224 221.3 220.1 215.6 211.4 207.4 200 192.4 183.7 175.1 173.6 192.1 199.8 202.5 205.1 213 224.9 229.6 233.5 236.5 239.3 240.8 250.3 263.4 272.8 286.3 299.5 308.8 334 359.6 371.9 391.3 400.1 405.1 398.1 394.6 385.8 375.9 351.7 338.3 320.7 306.8 298.6 290.1 281.9 276.9 262.6 260 249.6 238.8 230.3 224.7 218.4 210.5 201.3 195.9 195.8 196.4 196.5 195.8 194 190.3 186.3 181.3 177.5 174 169 164.7 161.3 158.9 156.6 153 148.7 145.8 144.4 140 136.7 131.3 126.7 122.4 117.9 115.1 110.4 107.8 105 102.1 97.6 92.9 88.4 85.4 80.7 76.3 72.4 66.4 50.7 50.2 49 50.6 49.6 50.3 49 49.5 45.6 48.7 52.4 54.9 58.2 60.4 63.2 72.4 78.2 79.8 80.7 86.8 92.2 95.1 95.5 88 83.8 79.6 79.3 72.6 68.2 56.1 51.9 50.7 42.4 36.5 27.8 23.1 21 20.2 19.3 19.1 19.1 19 17.8 12.7 11.6 12.5 25.2 34.3 51 39.9 29.1 36.2 44.9 37.7 33.1 38.9 27.1 16.2 9.8 11.9 18 9.8 -3 -3 3.1 3.6 5.2 6.1 6.6 6.7 6.9 7 7.4 8.9 9
132.6 136.8 139.3 140.1 142.4 144.6 146.9 151.1 155.9 159.7 163.1 165.9 170.5 172.9 174.2 175.5 182.5 188.8 196 202.6 208.9 217.7 225.2 228.8 232.2 239.1 239.3 239.1 239.2 237.1 235.1 232.5 231.9 228.8 228.9 227.7 219.6 213.7 203.7 190.1 178.2 162.4 187.7 194.8 196.4 199.4 211 217.2 221.4 223.7 227.5 235.2 243.3 253 263.6 274.4 284.6 296.6 309 324.4 349.1 371.2 382.6 396.6 408 403.2 392.2 379.2 365.4 349.4 332.4 315.2 303.6 296.4 288.8 278.6 271.8 262.1 247.4 238.6 231.8 227.4 221.5 215.1 206.5 200.2 199.3 201.5 202.9 202.4 201.1 199.3 195.9 191.1 186.6 182.7 179.2 173.8 168.5 164.2 161.4 159.8 156.5 153.9 151.8 149.7 146.9 143.5 140.5 135.4 129.5 123.6 117.9 113.8 109.3 106.1 103.1 98.2 93.5 88.7 84.1 80 76 72.2 66.7 56 49.1 49.2 43.2 47.6 48.2 46.4 41.7 45.4 47.1 46.7 51.6 51.4 55.3 59.6 64.9 76.1 74.9 78.9 87.3 90 94 94 88.3 84.2 81 78.7 73 70.9 63.5 53.4 49.4 39.1 37.2 31.5 25.1 23.1 19.4 18.9 18.8 18.7 18.7 18.2 17.3 17.1 10.1 15.9 28.3 36.7 33.3 22.5 36.5 44.4 40.3 28.1 32.6 27.2 17.9 8 8.4 11.7 6.5 -3 -3 2.4 3.3 4.6 5.2 6.3 6.5 6.9 7 7.1 8 9
139.2 142 144.5 146.2 149.4 151.9 155.3 159.6 163.5 166.6 170.8 173 175.2 176.7 178.7 182.5 187.2 193.2 200.1 205.7 212.4 220 228.4 233.7 239.5 243.2 249.6 249.3 244.4 242.3 241.4 241.6 241.8 243.2 243.6 238.9 233.8 225.4 214.6 194.8 181 168.5 181.1 188.5 190.7 193.3 202.7 208.8 212.5 218.3 228.5 235.6 244.3 254.7 264.2 275.2 284.9 296.3 312 326.6 350.1 368.6 381.8 394.1 406.1 403.7 389.1 375.9 361 349.4 334.7 323.2 304.9 289 282.5 274.6 265.1 254.4 243.7 233.5 228.3 221.4 215.2 209.1 203 205 206.2 206.8 207.4 208 207.3 205.9 202.9 199.4 194.8 191.6 188.2 181.1 174.2 169.2 165.9 163.5 160.6 158.4 156.6 154.6 152.5 149.9 152.2 148.2 140.5 131.4 124.6 118.4 111.5 107.4 103.9 99 94.2 89.4 84.8 80.2 75.9 72.5 65.5 63.3 60.7 53.9 48.2 42.4 40.2 42.2 42 44.2 44.9 45 50.3 48.7 48.9 52.9 59.2 73.9 73.6 78.5 87.2 89 92.6 90.8 88.9 85.7 82.3 76.5 68.6 70.2 64.1 58.4 46.7 40.5 38.1 32.5 26.5 23.6 19.7 18.5 18.3 18.4 18.3 17.9 17.3 17.1 15.2 9.4 13.7 24.2 27.7 17.9 29.4 34.8 33.3 31.3 20.9 24 18.6 8 7.3 7.2 -3 -3 4.6 3 3.6 4.6 4.8 6.2 6.6 7 6.9 7.6 9 9
143.9 146.5 149 152.1 155.5 158.8 163 168.8 173.1 175.7 178.9 180.9 182.9 184.4 185.9 186.3 191 196.3 202.8 209.1 215.3 222.3 230.6 238.3 245.1 251.6 256.3 255.8 250.2 247.8 247.7 250.1 249.6 250.2 253.3 248.7 237.3 225.5 209.8 195.3 182.7 171.4 161.3 180.9 184 188 193.3 205.6 210.4 217.9 226.6 235.5 245.9 256.4 265.9 274.9 287.2 300.8 316.5 327.9 348.3 363.4 379.8 390 399.5 397.6 382.8 377.6 364.5 346.9 336.3 323.4 304.5 286.8 274.3 267.5 262.7 251.5 240.2 231.3 222.5 219.9 213.2 210.2 210.3 211.2 211.6 212 212.8 213.5 214.2 213 210 206.2 202.6 198.8 194.2 188.9 180.9 173.9 170.2 166.2 165.9 163.4 161.9 162.5 165.4 164.8 166.2 163.9 157.2 144.3 130.5 124.4 115.8 109.5 104.8 100.3 95.9 89.9 85.4 80.7 76.2 72.3 66.3 63.5 62.6 58.8 52.3 45.4 41.4 41.5 39.2 42.3 41.9 41 47.3 46.6 44.2 48.6 57.6 68.8 69.7 77.5 84.5 87.3 91.9 88.7 88.6 87.3 79.2 76.2 69 65.9 65.1 59 50.7 43.3 38.7 33 29 24.3 19.2 17.7 17.9 18.1 18.1 17.6 17.2 17 16.4 12 10.4 22.6 19.6 15.6 18.2 25.7 26.4 30.5 24.3 16.1 16.4 -3 0.1 -3 -3 4.2 4.2 4.2 2.8 4 4.8 6.2 6.6 7 7.8 8.5 9 9
148.3 151.1 154.7 157.5 160.8 165.3 170.2 175.8 179.3 182.5 185.6 188.8 190.9 192.2 193.1 192.2 195.1 199.2 205.9 212.2 218.2 224.6 233.5 243.6 254.2 259.8 262.6 260.7 254.5 253 255.1 255.7 255.1 261.9 261.4 251.6 239.8 224.4 209.3 196 182.6 174.7 155.8 176.2 179.8 182 190.7 199.8 208.2 216.3 224.4 237.1 249.9 260 270.6 282 292 305.5 320.8 326.5 337.9 357.7 372.1 380.5 389.7 395.8 381.4 379.9 368.6 347.2 335.1 320 306.2 296.1 275.6 265.5 260.8 254.6 247.3 237 227.5 221.9 219.2 216.3 215.4 216.5 217.2 217.8 219 220.1 221.1 219.4 216.3 212.4 208.5 204.9 201 195.2 186.4 177.7 174.2 172.2 170.4 169.1 168.8 174 177.9 178.4 180.1 179.2 170.7 159.6 142.4 133.1 122 114.3 112.6 105.3 99.1 91.7 84.5 80.4 76.7 71.9 66.1 62.8 61.3 60.1 56.5 50.4 44.8 42.1 44 41.2 35.3 40.1 41.1 38 38.7 42.7 49.8 58.7 65.6 76.3 84.7 89.9 89.3 88.2 88.5 86.8 81.9 76 69.2 66 63.2 56.2 49.6 44.2 39.5 34 30 23.3 19.8 18 17.4 17.3 17.8 17.2 17.4 17.1 16.6 12.4 8.2 12.5 15.8 14.7 12.9 18.2 23.6 31.7 29.3 16.3 10.1 -3 -3 -3 4.2 4 4.1 4.2 3.3 4 5.1 5.6 6.2 6.6 7.6 8.4 9 9
151.3 155.3 158.9 162.6 166.9 170.3 174.9 180.4 184.3 187.7 191.3 194.8 197.4 198.8 200.3 200.4 201.3 204.4 209.5 215.3 221 228.6 237.9 247.1 261.5 266.7 265.5 262.8 254 259 263.6 264.8 255.7 257.6 263.8 255.4 240.8 225.3 208.1 194 182.2 171.8 166.5 162.3 175.5 180.4 188.1 196.3 207.3 212.3 225.1 241.4 251.9 265 273.8 282 294.7 309.3 317.8 322.6 334 348.3 365.5 376.4 387 384.9 379.1 371.6 373.2 354.3 335 320.8 304.5 294.3 279.6 273.1 268.6 261.9 254 243.2 235.4 228.3 224.8 221 220.5 221.7 223.3 224.7 226.2 227.3 227.5 225.1 220.8 216.8 213.3 210.2 206.4 200.6 192.1 182.7 179.1 178.5 177.9 177.5 181.2 187.1 185.6 192.1 192.8 189.8 181.3 171.9 157.3 143.8 129.7 120.6 115.1 107.4 102.8 91.3 84.6 80.9 77.4 71.7 66.3 64.7 60.8 59.4 59.5 53.2 46 41.1 43.5 43.1 36.4 34.3 34.3 32.7 35.1 38.7 43.1 47.8 60.6 71.3 80.9 87 88.7 84.4 85.2 84 80.7 71.4 68.5 64 59.9 54.1 47.8 44.9 39.7 32.8 28.9 24.1 20.9 18 16.6 15.4 18.2 16.8 16.4 15.8 15.2 13.7 8.3 11 11.1 10.6 10.6 16.7 21.8 22.7 20.8 11.9 7.7 -3 -3 -3 3.9 3.9 4 4.1 3.8 3.2 5 5.3 5.3 5.1 5.7 6.8 7.8 9
153 157.9 162 166.5 170 173.9 178.8 184.3 188.1 192.5 196.5 200 203.4 206 208.3 208.9 209.9 210.4 213.5 218.4 225.1 233.6 242.3 248.9 259.9 265.1 265.6 261.2 250 258.7 258.1 256.5 252.5 252 257.1 249.4 238.7 225.2 207.9 195.6 180.3 171 167.6 152.5 165.5 177.8 187.5 195.2 204.3 219.2 224.7 244 253.3 266.6 272.6 281.7 295.4 301.2 311.4 314.9 326.8 336 350.5 366.2 373.9 376.3 375.8 366.1 365.8 357.1 336 322.7 309.3 296.7 287 280.6 273.8 266 257.8 247.8 239.4 232.6 228.8 224.8 225.3 227.6 229.7 231.2 232.7 233.6 232.7 231 228.5 226.1 219.4 217.5 211.3 205.1 196.8 190 186.8 186.4 187.4 188.3 191.6 195.6 201.2 203.9 200.9 198.1 194.4 186.4 171.7 153.8 137.9 124.8 117.8 109.5 102 94.3 86.4 80.7 77.9 71.7 67.4 64.7 62.7 59.7 56.9 53.9 43.9 40.7 38.7 36.7 30.5 28.8 31 31.1 30.4 34.8 35.5 40.8 51.6 59.8 70.8 79 85.1 84 84 79 76.7 67.7 66.7 62.6 58.5 53.7 47.8 45.1 40.8 36.9 31.1 26.9 22.9 20.8 20.6 12.8 15.6 16.3 16.6 16.5 16.8 13.2 7 8.2 8.8 10.1 9.4 10.1 16.4 12.5 18.5 17.9 -3 -3 -3 3.3 3.5 3.7 3.8 3.9 3.9 2.9 3.3 5.4 5.3 5.3 4.7 4.2 5.7 9
154.6 159.4 164.3 169.3 173.1 176.5 181.3 187.5 192 196.6 200.3 204.2 208.6 212.8 215.9 217.6 218.5 218.2 219.5 225.5 231.2 235.3 243.5 250.8 254.5 260.4 260.7 255.9 243.5 247.2 248 249.7 248.9 245.8 246 241.5 230.2 218.8 201.1 187.8 178.2 168.8 164 161.8 153.1 174.2 187.4 199.1 206 218.8 225.6 237 251.7 264.7 274.4 280.5 288 294.7 313 312.7 320.7 326.9 336 356.6 364.7 366.4 365.9 362.6 357.1 357 344.6 329 311.4 303 294.8 288.3 279.8 270.1 259.8 250 241.7 236.3 232.1 229.2 230.5 232.7 235 237.4 240 240.2 241.9 244.4 244.3 240.5 235.1 229.3 222.8 215 208.6 199.1 194.7 193.1 194.8 197.4 199.5 206.4 213 216.7 219.9 216 209.8 197.7 183.1 169 151 129.1 120.1 112.6 105.1 96.7 88 81.1 76 71.3 68.1 66.1 65.5 61.8 58.9 54.9 49.7 44.9 39.1 34.3 24.9 25.5 25.1 27.8 23.7 28.4 33.8 39 41.7 50.4 60.6 70.7 77.6 80 81.6 74.7 71.6 63.4 64.8 60.5 54.8 52.3 47.1 44.3 39.5 35.4 30.9 26.5 23.4 21.1 18.1 14.3 13.6 15.5 16 16 14.4 7.8 6.6 6.9 7.2 7.1 7 9.8 9.7 8.1 8.4 7.9 -3 -3 4.4 3.6 3.3 3.5 3.6 3.6 3.7 3.2 3.2 5.2 5.4 5.4 5.4 4.8 5.4 8.3
156 161 166.2 171.8 176.2 179.7 183.9 190.6 198 202.6 205 211.8 218.9 223.4 223.7 225.4 226.3 226.2 227.6 232.7 235.1 238.5 244.3 245.9 250.9 252.6 253.9 249.3 238.7 236.4 240.8 241.1 240.9 236.4 239.1 233 218.3 208.4 195.3 184.7 176.4 165.1 160.1 162 145.1 170.9 186 194.5 203 213.4 223.4 233 244.5 256.7 271.1 278.6 278.3 287.6 302.2 310.3 310.3 315.9 329.7 339.1 353.9 355.8 360.1 360.8 350.9 353.1 347.1 331.9 316.8 308 301.8 294.6 282.2 271.4 260.8 251.4 243.6 239.1 236 234.4 234.2 237.7 241.4 245.6 249.2 251.3 254.6 258.3 259.8 257.3 253.8 247.1 240.8 231.4 215 206.8 202.1 200.2 202.6 205.8 214.5 220.8 226.7 237.9 236.4 228.3 218.1 207.7 191.8 174.7 152.3 135.1 126.3 115 105.8 97.3 90 82.2 74.7 70.5 68.2 67.4 65.7 63 60.2 57.3 53.5 47.1 44.2 42.1 35 23.1 20.5 20.3 22.4 26.7 32.1 33.9 39.5 47.6 56.7 62.7 67.4 71.7 74.5 73.1 67.9 64.1 61.5 59.4 54.4 51.8 49.6 46.4 42 34.1 28.9 25.2 24.6 18.2 17.9 15.1 11.3 11.4 15.2 14.1 7.4 6.8 6.6 6.4 6.1 6 5.8 5.8 7 8.9 7.4 -3 -3 3.8 3.9 3.9 4.1 3.9 3.9 4 4.6 3.8 5.3 5.4 5.5 5.5 5.5 4.5 7.7 10.1
157.7 163.5 168.9 175.2 180 184 188.7 192.5 200.2 205.1 209.6 217.3 222.8 228.3 230.9 232.5 237.2 239 237.5 239.3 241.7 240.6 241.2 241.3 241.9 243.8 244 233.4 231.4 226.6 230.8 229.5 230.9 229.9 228.7 224.5 212.5 200.1 190.4 180.4 171.2 162.6 155.1 157.3 142.5 169.7 182.3 192 199.5 209.6 222.3 233 238.2 253.1 263.7 269.5 273.2 278.7 292.4 302.7 304.9 307.6 316.4 325.4 336.6 346.9 350.8 349.6 347.3 346.3 342.6 330.8 318.9 317.6 310.8 296.3 283.3 271.7 260.8 252.1 246.2 242.1 239.1 237.7 238.3 243.9 253 259.5 262.9 274.2 275.1 278.3 278.2 275.4 271.2 266.6 256.1 244.9 225.9 217.5 210.9 208.3 212.1 220.7 222.1 230.4 243.5 246.7 245.8 234.4 225.5 218.7 206.5 187.6 164.1 141.2 127.3 117.6 109 96.2 88.5 82.9 75.3 69.7 68.9 67.6 65.1 62.9 61.4 58.9 54.7 50.5 50.3 44.9 39.5 32.7 21.5 18.2 25 22.8 27.2 30.4 35.5 42.6 53.5 58.1 65.3 71.6 73.3 71.4 65.4 61 59.1 54.4 52.1 51.3 50 48.5 44.5 34.6 28 28.4 27.4 21.5 17.5 15.7 13.9 11 11.9 12.1 7.3 6.7 6.1 5.7 5.6 5.6 5.5 5.8 5.7 5.7 -3 -3 5 3.5 3.4 3.3 3.6 3.8 3.3 3.8 4.2 2.9 5.2 5.6 5.6 5.6 4.9 4.6 7.3 12.9
160.2 165.8 172.4 178.4 183.2 187.8 191.2 195.3 201.8 208.1 212.3 221.5 227.9 232.9 235.3 237.7 248.7 248.5 246.7 245.2 241.9 240.7 240.8 236.7 234.2 231.6 231.1 223.4 220.2 215.4 218.4 221.6 224.5 223.4 218.2 216.5 205.5 195.5 185.7 177.2 169.9 160.3 151.6 150.9 150.1 169.4 180.5 188.5 197.4 209.9 218.5 229.5 236.3 246.9 256.4 264.3 268.6 272.4 281.5 287.4 292.5 298.6 307.6 317.4 324.8 337.5 347.3 350.6 347.5 344.7 343.7 346.4 333.1 325.2 314.4 303.5 286.4 271.3 260.3 254.1 249.5 245.2 242.4 240.4 249.3 258.5 265.8 275.1 284.2 292.8 294.5 296.3 292.5 291.1 286.1 278.3 268.1 253.9 241.9 227.5 220.7 216.6 221.5 227.9 234.7 243.8 249.6 253.8 253.5 249.9 240.4 229.9 213.8 194.3 171.9 147.6 127.7 118.9 108.7 96.3 87.8 81.3 74.5 69.9 69.6 67.6 65.4 64.2 64.6 61.2 58.6 56.5 52.7 46.6 42.3 34.8 27.9 21.6 17.4 20.2 22.3 23.9 27.6 33.6 38.9 52.3 60.1 66.3 69.7 68.8 66.1 58.6 55 51.2 50.9 51.7 50.7 49 44.7 31 27.3 30.3 26.1 22.4 17.3 14.9 13.5 10.2 10.5 15 7 6 5.4 5.3 5.4 5.5 5.4 5.6 5.5 5.7 -3 -3 4 6.8 3.3 3.1 3.7 3.5 3.2 3.1 3.8 1.6 4.3 5.6 5.7 5.4 5.1 4.7 7.8 14.3
164 168.5 173.6 179 185.3 191.3 195.9 199.3 203.3 211.1 216.4 224.6 231 237.7 240.3 243.9 250.6 253.7 253.9 245.5 243.4 240 238.6 230.9 224.7 218.3 214.2 213.3 210.3 205.5 203.6 209.3 215.9 212.5 206.2 205.6 200.1 193.1 183.9 174.5 168.8 160.3 152.3 140.8 157.9 167.7 176.2 185.8 194 210.2 214.5 226.4 232.2 236.3 246.9 255.3 260.5 263.6 270.3 276.8 287 292.5 298.9 307.6 316.6 330.8 337.8 339.8 345.4 347.2 349.8 349.3 340.4 331.8 322.1 307.1 287.7 272.6 262.8 256.5 252 248.6 246 249 259.8 271.8 283.1 293.4 302.4 314.3 314 317.7 311.8 304.9 299.3 297.1 284.8 267.6 251.3 232.2 223.4 221.7 227.1 233.1 238.2 243 251.9 259.6 261.9 257 246.1 235 215.2 197.9 176.3 151.8 128.8 120 109.3 98.2 87.2 81.9 72.7 69.4 70.2 68.9 67.5 67.6 65.8 64.1 62.6 61.3 52.7 50.5 42.5 38 30.7 25 15.3 12.7 17.2 18.6 21.7 25.8 36.5 45.6 54.2 61.6 64 67.7 64.1 57.9 52.1 49.8 50.2 50.5 50.4 47.9 40 30.7 27 26.3 24.6 21.2 17.7 15.8 10.3 9 8.4 12.2 6.6 5.8 4.6 5.2 5.1 5.4 5.2 5.4 5.9 -3 -3 5.2 4.9 4.1 4.8 7.6 3.6 3.5 3.3 3.2 3.2 3.5 4.1 5.1 5.1 4.7 4.4 4.4 9.4 15.4
168.2 170.6 177.2 186.3 189.3 192.4 197.5 202.5 209.2 215.7 218.3 224.9 235 242.1 243.1 247.6 255.1 257.9 257.5 255.8 246.9 237.9 227.6 219.6 211.8 205.9 203.4 203.1 200.6 200.1 198.2 198.4 205.7 201.9 199.9 198.9 196.3 190.1 180.6 173.9 167.1 159.4 150.5 138.4 154.2 164.6 173.9 182.4 191.3 202.1 208.3 219.1 224.3 227.1 235.6 243.8 249.4 254.8 259.5 266.7 278.3 285.3 294 300.4 313.9 319.3 328.9 346.4 350.9 354.7 348.7 353.4 345.4 331 325.5 310.6 288.7 274 265.1 258.7 253.3 250.7 252.6 256.2 270.6 284.2 294.8 308.8 319.4 327.7 330 327.6 325.7 324.1 316.4 302.8 289.8 272.9 257.5 239.4 224.7 223.8 228 228.5 235.8 241.1 260.9 265.7 261.2 257.3 248.5 232.7 217.3 201.2 176.4 152.2 131.2 124.8 112.9 96.8 88.9 82.5 73.8 70 72.3 72.2 71.8 72.5 71.2 68.7 66.1 63.9 58.2 51.9 44.5 39.7 31.5 25.5 21.6 16.5 12.3 10.9 14.2 17.1 27.5 37.5 46.3 56.7 60.4 63.9 62 56.4 48.6 48.7 49 49.3 48.2 44.6 37.8 28.4 24.5 22.8 22.5 20.4 18.7 17.3 12.6 6.7 6 6.2 5.6 5.8 3.8 5 4.8 5.2 4.8 5.3 -3 4.9 4.5 4.2 3.4 3.8 3.6 3.2 4.3 7.3 3.7 3 2.1 4 4.2 4.3 4.8 4.4 4.5 6.1 14.4 16.8
169.1 172.4 179.3 185.8 189.5 194.4 200.5 206.8 210.6 216.4 222 228.8 239.7 244.1 246.5 252.9 256.3 262 261.2 259.9 243.5 234.7 226.1 213 203.2 198 192.7 192 190.1 189.8 191.5 190.6 193.2 194.9 193.7 193 192.3 185.4 179.8 173.3 165.4 158.9 149.5 138.3 155.2 163.1 171.5 180.4 188.1 196.2 202.2 209.8 216.5 219.9 225.8 235.5 239.8 247.2 253.1 263.3 272.2 280.9 288.4 300.6 310.6 321.2 336.7 348.3 347.3 352.2 350.6 348.9 345.8 333.6 311.6 305.1 288.5 279.4 268.5 263.5 255.7 254.8 260.7 263.4 275.8 289.8 306.8 320.6 330.2 330.1 332.4 340.2 342.1 328.7 316.1 300.5 291.1 273.2 257.7 243.4 226 224.9 225.2 224.7 228.4 247.7 257.3 262.9 262.7 256.3 247.9 235.3 220.7 202.1 181.6 162.2 137.2 124.6 111.2 100.7 90.3 83.9 74.8 70.7 74.5 73.5 75.7 75.8 77 74.7 72.7 66.6 64.4 56.7 48.2 39.9 32.4 26.6 23.6 19.2 14.2 11.1 7.1 11.3 19 29.8 37.6 52.3 56.5 61.1 59.7 52.8 48 48.5 47.1 47.8 45.8 42.2 34.1 24.2 24.2 22.4 21.2 21.5 17.9 15.6 7.1 6.2 5.6 4.5 4.1 4.2 4.5 4.9 5.3 4 5.3 -3 -3 5.3 2.8 2.6 2.9 3.3 3.1 3.3 3.3 3.5 4.4 6.9 3.4 4.3 4.2 4.5 4.5 4.5 4.2 8.3 16.3 16.6
175.8 180.6 184.3 189.8 194.3 198.9 202.2 208.1 212.3 218.8 221.1 227.3 236.7 244.9 242.5 251.5 257.7 262.8 261.9 259.2 246.3 233.3 220.9 208 198.6 191.1 184.7 183 182.7 182.2 183.4 185.1 187.2 187.6 188.9 189.3 186.3 183.5 176.7 171.7 167.3 159.9 151 137 154.4 161.2 170.6 178 184.2 191.2 197.8 203.8 211 214.1 217.7 225.5 232.2 239.5 249.3 263.4 271.4 279.5 288.4 304 311 324.8 340.4 342.5 346.5 353.9 350 347.4 338.1 322.8 305.4 301.4 293.1 282.6 272.4 265.4 261.6 262.8 265.5 274.8 283.3 298.7 316.8 331.6 331.9 337.4 344.1 343.2 335.6 331.7 317.1 302.2 285.5 271.7 252.4 238.7 225.6 224.5 222.9 222.9 228 245.4 249.4 258.6 260.5 255.9 241.6 228.9 217.6 204.2 186.2 163.8 138.8 124.1 112.1 103 93.1 85.1 74.8 70.8 74.8 74.1 75.8 81.3 81.4 78.7 77.2 74.2 69.7 60.7 49.6 39.9 30.5 24 24.9 20.9 16.4 12.5 10 8.2 13.8 20.8 27.6 42.1 52.7 54.5 51.9 47 48.4 45.7 48.1 46.1 43.1 39.6 36 23.2 24.2 21.3 18.5 19.3 16.6 12 6.6 5.8 5.4 5 3.6 4.9 4.5 4.7 5.2 5.1 -3 -3 4.8 4.4 2.8 2.9 2.7 2.3 2.8 3 2.6 2.5 3.2 4.4 6.4 6.6 4.2 4.5 3.5 3.9 5.2 8.7 16.4 17.2
183.6 188.6 191.9 194.8 198.7 202.1 204.4 211.1 214.5 218.5 222.4 224.4 233.9 237.2 237.5 243.2 256.4 258.9 259.5 256.9 249.1 232 218 205.8 195.6 186.1 179.1 175.4 176.1 177.1 178 180 182.1 182.7 183.9 187.3 181.8 181 175.8 170.8 167.3 161.4 149.4 139.2 153.1 159.3 166.3 175.1 181.2 187.3 191.7 196.8 203.8 207.2 210.8 218.1 225.4 235.2 248.3 262.9 273.2 282.3 290.4 302.2 313.8 330.6 336.5 344.3 345.1 350.6 345.4 342.7 325.4 319.4 304.5 299.4 288.5 284.5 274.6 268.9 263.4 268.4 268.7 284.8 289.2 299 320.1 332.6 331.3 346 351.2 338.9 338.3 326.8 309.8 293.9 274.1 261.3 246.4 234.7 224.3 222.6 220.2 218 222.1 238.9 246.6 257.2 256.5 245.5 239.5 227.1 219 202.1 188.5 160.8 140.5 127 115.8 107.5 97.9 84.4 75.1 73 76.8 77.4 77.5 82.7 82.8 83.6 84.4 80.6 71.7 61.2 50.3 39.4 30.7 25.7 21.8 20.3 18.5 10.5 9.6 7.9 8.8 11.6 25 34.9 43.4 46.7 45.1 47.8 47.2 42.1 45.3 44.4 40.2 38 28.1 23 24.2 21.2 18.4 17.2 14 8.4 6.5 5.5 4.5 4.3 -3 3.9 4.1 4.2 3.5 -3 -3 4.7 4 4.1 2.6 2 2.6 2.5 2.8 3.2 3.2 4.1 4.2 4.4 4.2 4.4 6.2 7.2 4.9 4.3 6.6 12.8 17.1 17.5
192.2 197.2 203 202.5 202 206 206.1 207.4 210.4 214.9 217.2 219.3 224.7 230.8 240.2 242.6 248.8 254.2 257.2 254 248.5 234.9 218.5 203.6 195 186.7 179.2 172.2 169.9 170.9 173.2 175.5 177.3 179.2 182 185.9 178.6 177.1 173.3 168.8 165.6 160.8 147.6 137 152.2 157.1 164.1 171 176.6 181.4 187.3 192.2 198.1 202.2 204.4 213.3 222 233.4 248.2 263.6 274.3 282.7 290.3 301.6 317.6 326.6 337.3 346.2 341.9 338.5 338.2 325.4 322.5 316.1 305.1 293.9 286.7 278.6 271.1 268.4 266.2 265.3 268.6 279.9 292.5 302.9 317.9 328.8 341 347.9 346.2 343.2 333.9 319.4 306 287.3 271.9 260.7 250.4 238.9 223.1 217.1 214.9 213.8 216.5 230.9 233.5 243.4 247.6 243.4 237.9 226.6 218.7 206.4 188.2 165 143.5 129.3 118.7 108.9 98.8 84.2 77.5 74.7 78.9 81.5 80.5 84.7 89.6 87.2 86.2 81 72.6 61.4 51.5 38.9 29.4 27.7 22.4 21.3 19.3 15.8 9.1 7.7 5.6 9.8 22.3 29.6 35.9 38.5 39.7 46.8 39.4 39.3 47.5 40.9 33.6 31.9 25.5 20 21.7 19.4 19.2 16.8 14.4 10.7 6.3 5 4.2 3.8 -3 -3 2.3 -3 -3 -3 5.2 3.6 3.8 3.8 1.1 2.1 2.5 3 3.6 4.1 4.3 4.4 4.5 4.5 4.4 4.1 4.1 3.4 6.5 10.9 12.4 14.7 17.1 17.8
205 207.7 213.7 213.7 209.5 207.4 209 206.8 210 213.6 216 217.2 219.5 224.6 235 235.7 236.5 252 253.5 252.3 245.1 234.2 219.2 203.2 195 186.9 178 171.1 166.5 166.6 169.9 173.1 175.9 175.8 182.5 188.3 184.5 174.9 174.1 167.7 163.9 159.3 145.7 134.7 150 155.1 161.4 168.4 172.9 177.1 182.3 187.7 193.5 197.6 201.7 209.8 221.9 235.3 248.1 261.1 272 279.7 290.2 298 312.7 328 333.6 334 334.3 333.6 327.5 319.7 318.2 310 302.2 289.8 281.6 269.8 265.4 264.1 262.1 260.9 268.5 274.8 287 300.6 318.7 335.4 340.1 342.1 340.7 340.5 331.4 319.5 306.7 294.3 281 267.7 255.6 240.6 221.7 208.1 205.3 200.8 206.4 215.6 220.6 235.2 241.1 244.3 238.9 230.3 217.6 205 186.8 164 147.6 130.7 120.4 110.9 98 84.3 76.4 73.5 81.6 82.7 86.1 89.8 91.7 86.7 86.2 80 71.2 60.7 50.9 37.3 31.1 29.4 24.3 22.1 19.6 11.9 8.9 8.2 6.5 6.3 18.4 24.8 29.3 32.6 34.6 38.7 32.7 36.6 38.2 32.3 26.7 25.2 20 18.7 19.3 18.7 19 15.2 13.7 7.3 6 4.9 4.5 2.7 -3 -3 -3 -3 -3 -3 3.3 3.7 3.8 3.9 2.1 2.2 2.7 3.2 3.6 4 4.2 4.4 4.5 4.8 5.6 5 4.9 4.4 5 8.5 10.1 12.2 15.3 18.2
209.7 215 219.6 221.1 218 208.9 209.8 205.6 209.3 210.8 211.4 211.7 213.3 216.1 226.2 231.4 233.4 239 245.4 246 240 235.1 224.4 206.2 194.3 186.7 177.8 170.4 165.1 163.8 165.8 170.4 170.2 173.3 183.5 189.9 185.4 172.5 171.4 165.1 161.5 158 145.2 134.8 146.6 153.6 159.7 166 169.7 173.5 178.1 181.8 190.2 196.2 202.1 210.6 223.7 236.5 245.7 256.5 268.1 280.2 289.5 295.3 298.9 319.8 328.2 322.4 324.3 323.9 320.2 313.3 304.2 301.5 292.7 281.1 270.9 260.1 251.1 256.2 265.3 259.1 261.7 272.5 282.2 309.3 325.2 330.8 335 339.9 343.1 333.9 325 317.4 306.3 294.7 283.5 267.3 255.5 238.8 222.3 202.4 197.8 192.6 198.4 203.6 206.7 218.6 230.6 244.9 244.3 229.3 217.4 202.1 182.7 171.5 147.6 131.7 120.4 109.5 94.6 84.3 75.6 74.6 79.6 90.1 92.2 94 91.9 89.3 86.6 78.5 68 59.6 49.3 38.2 36 31.8 26.6 21.8 20 8.6 8.2 8.1 8.2 4.3 10.4 18.7 23.8 27.1 29.5 29.2 24.8 36 33.7 28.7 23.9 21.8 18 17 17.5 17.9 17.9 15.5 11.7 8.1 6.2 4 4.1 2.2 -1.2 -3 -3 -3 -3 3.8 3.2 3.7 3.7 3.8 2.4 1.7 2.5 3.1 3.5 3.9 4.1 4.3 4.8 4.9 5.4 5.5 5.4 6.1 7.2 10.2 12.7 13.5 14.1 16.3
210.2 213.8 218.8 220.7 217.8 204.9 202.5 199.6 201.6 202.5 203.6 205.4 206.5 207.7 221.6 226.1 228.8 228.1 239.4 240.9 239.3 231.5 225.1 208.5 194.8 187.3 179.2 171.1 165.3 162.6 163.5 166.3 166.7 170.3 184.5 189.8 184.5 171.1 166.7 162.3 159 155.9 145.7 131.1 143.7 151.3 155.9 161.3 168.2 171.6 176.7 185.8 190.7 196.7 202.7 212.5 224.4 235.2 243.5 253.1 267.8 277.7 286.4 292.7 298.7 307.4 312.7 315.4 312.7 317.6 314.4 306.4 292.2 291.6 280.7 272.4 260.6 251.2 242.7 251.8 259.4 250.3 254.1 271.5 285.1 301.7 314.9 328.9 333.3 335.7 327.2 323.8 320.1 313.5 305.3 296.3 279.8 265.9 252.4 236.1 218 199.3 194.4 190.5 192 192.9 202.5 205.5 220.1 238.7 239.3 229.5 223 209.2 182.5 171.5 149.3 131.8 117.9 104.7 91 83.9 75.7 76.6 91.9 96.5 95.3 93.5 92.8 88.3 85 76.8 66.4 58.5 50.6 41.8 32.8 28.7 24.4 21.7 20.1 8.6 7.8 6.6 -3 3.6 7.7 7.4 18.4 21.3 23.7 22.3 22.8 26.7 29.1 20.8 20.5 19.9 18.1 13.6 14.1 14.8 17.7 19.1 11.1 8.5 3.5 3.5 3.5 1.9 -1.3 -3 -3 -3 2.2 1.7 2.9 3.4 3.7 3.7 3.6 2.2 1.8 2.8 3 3.9 4 4.7 5 5.1 5.7 6.9 8.6 10 11.7 14.9 16.9 17.2 16.9 15.8
208.5 209.3 208.6 211.4 210 200 192.5 191.2 193.6 195.1 196.5 197.3 196.8 203.9 218.2 222.4 222.7 226.9 230.3 234 235.7 230.8 225.6 212.5 195.7 187.9 179.7 172.4 166.6 162.4 161.6 163.1 164.4 173 180.4 184.3 181.3 175.6 163.4 158.6 155.7 153.4 145.9 129.7 139.3 147.4 155.5 163.5 168.5 170.7 175.8 185.6 191.1 197.4 205.8 214.4 224.4 233.1 240.6 251.5 263.4 273.5 283.4 289.8 297.8 299.9 303.2 308.6 305.4 308.1 303.4 292.6 275.1 274.9 270.1 262.2 252.7 243.9 237.7 244.8 245.2 245.1 261.5 274.5 290.7 297.4 304.5 318.2 325.5 323.9 323.4 318.8 317.8 311.6 302.9 289.2 277.8 268.7 255.5 236.3 219.6 202.2 192.4 189.1 186.1 182.8 186.8 189.1 199.8 211.8 227.9 226.4 219.4 206.5 189.7 173.7 149.4 126.8 115.1 103.6 93.1 82.9 76.8 85 94.2 96.4 95.2 92.2 88.7 87.3 82.4 75.4 66.8 57.4 49.3 40 31.7 29.1 24.5 22.1 19.8 8.8 7.4 5.4 -3 6.4 6.9 8.3 8.8 17 19.4 16 18.5 16.3 18.9 13.5 19 17.8 15.4 11.2 8.5 11.2 15 10 8 3.4 2.5 1.8 1.5 0 -3 -3 -3 -3 2.9 1.7 2.2 2.8 3 3.3 3.2 2.8 1.8 2.2 3.3 3.8 3.7 3.8 4.8 5.8 7.6 9.7 11.9 13.9 15.6 18.5 22.2 22.5 20.7 19.5
198.3 198.5 197.4 197.6 198.8 194.5 184.3 184.7 188.3 187.9 187.6 188.8 189 198.6 210.1 214.1 219.6 221.2 223.1 230.6 237.4 233.4 224.9 213.9 196 187.7 180.3 172.8 167.4 162.7 160.9 161.3 163.2 169.4 173.8 179.3 179.5 171.4 161.2 155 152.1 150.6 145 126.5 135.5 146.7 155.5 163.9 170.2 171.2 173.4 182.9 190.8 199.9 209.2 215 223.5 230.8 238.2 247 257 267.6 278.5 283.3 294.5 291.8 299.2 299.2 297.8 294.2 292.2 279.4 263.2 260.4 257.5 252.6 243.6 232.6 226.9 233.4 237.3 251.4 261.4 265.8 280.4 291 293.4 297 304 313.3 316 314.2 313.9 305.4 293.1 284.3 273.7 265.6 252.7 237.5 225.4 211.2 192.9 187.1 184.2 176.4 173.8 178 179.8 196.7 222.1 224.7 216.6 201.2 186.9 168.2 148.7 123.2 112.4 99.4 89.7 80.9 78.2 83.6 95.1 92.8 93.2 91.3 88.4 87.5 81.6 74.6 67.9 55.3 45.9 38.4 32.2 29.7 22.9 20.2 17.4 9.7 6.4 -3 7.1 3.1 2.6 3 3.5 11 11.5 13 14.9 15.5 8.5 9.5 13.9 13.9 5 3.5 3.4 3.4 3.3 3.1 2.8 2.2 1.2 0.2 -0.6 -3 -3 -3 -3 3.4 1.4 1.5 1.8 2.2 2.5 2.8 3.1 2.6 1.8 1.9 3.5 3.8 3.6 4.6 5.6 7.3 8.8 12.1 14.3 16.6 18.4 21.4 25 25.4 24.9 23.7
182.2 182.4 182.4 178.6 179.6 179.5 176 177.6 181.2 178.7 178.2 180.9 184.4 193.6 200.8 210.2 217.3 221.5 224.2 226.4 232.1 229 222.9 212.7 195.8 185.7 179.4 172.3 167 162.7 160 160.8 163 165.1 169.5 174.4 173.7 169.9 161 152.2 148.5 147.1 143.5 128.5 131.3 143.2 153.5 163.4 170.6 171.2 172.4 182 190.3 198.9 212.7 215.1 222.2 229.1 235.6 243.1 251.1 260.5 269.1 273.7 280.3 284.3 287.4 288.4 283.7 276.3 269.5 260.3 253.7 249.4 248.5 243.3 231.3 220.7 224.4 230.1 240.6 257.6 264.4 266.6 268.4 275.1 281.4 285.3 280.4 290.5 302.5 301.4 292.4 291.7 286.8 278.4 272.6 264.6 256.4 243 229.5 210.9 189.9 184.7 180.4 176.9 173.8 168.3 172.2 181.4 198.7 210.2 203.5 196.6 179.8 166.6 145.8 122.4 108.2 97.3 84.8 78.3 78 86.3 88.3 92.8 94.7 90.4 87.8 85.6 80.1 73.4 63.5 50.5 43.1 38.4 29.2 25.2 19.7 17.9 16.4 7.2 7.5 -3 -3 0.1 0.6 1.2 2.1 3.3 3.5 4.1 4.9 3.5 3.5 3.5 5.2 4.1 3 2.4 2.3 2.4 2.3 2 1.7 1.2 0.2 -0.9 -2.1 -3 -3 -0.8 1.9 2.5 1.8 1.9 1.9 2.1 2 2.5 2.7 2.7 2.3 2.4 4.6 5.3 5.4 6.2 7.7 9.5 11.3 14.3 16.8 18.4 21.5 24.3 25.2 25.5 27.3 28.4
167.7 166.1 165.9 164.4 163.4 166.4 165.5 169.3 168.8 168.4 169.6 173.7 177 188.6 194.1 207.5 215.2 217.3 217.2 219.5 222.9 224.7 219.7 211.4 193.8 184.1 177.7 171.3 166.2 161.8 158.5 158.4 160.8 164.3 166.5 169.3 167.3 163.5 156.2 148.1 144.2 142.6 141 129 129.2 141 151.1 162.4 169.6 170.8 171.8 180.9 191.6 198.7 209.8 215.1 220.9 226.1 231.9 237.9 244.5 250.9 259 264.5 265.7 270.7 271.9 276.3 268.1 263.7 256.4 251.3 238.2 237.3 236.5 227.2 222.5 216.8 219.2 222.8 234.6 255 254.6 261.4 255.4 263 270.8 272.8 264.1 270.7 277 274.4 275.2 281.7 279.1 277.7 274.6 264.7 254.4 244.9 230.7 211.8 189.1 184.4 181.9 179.5 172.8 166.4 161.3 168.5 178.1 190.4 193 188 179.5 162.5 144.3 118.3 106.1 94.7 86.3 78.5 80.3 79.2 86.5 89.8 92.2 87.7 85.7 83.6 76.2 67.9 55.4 48.3 40.1 32.5 27.3 24.4 18.1 16.4 10.1 7.7 3.5 1.8 -3 -3 -1.2 -0.5 0.3 1.5 3.5 3.5 3.5 2.9 2.5 2.5 2.6 2.5 1.9 1.3 1.3 1.3 1.2 1.1 0.6 0.3 -0.8 -1.9 -3 -3 -0.7 1.1 3.6 1.8 2.1 2.4 2.3 2.4 2 1.4 1.7 2 3.1 4.5 5.8 6.4 7 8.7 10.6 11.5 13.4 16.4 20 19.6 21.4 25.5 25.9 26.8 29.6 32.7
153.1 153.2 154.5 152.1 152.8 154.2 155 156.5 159.1 162.2 164.5 168.7 174.6 185.3 192.9 199.3 211.9 217.7 220.3 219.4 209.3 217 213.2 206.2 192.4 183.4 176.6 169.3 163.6 160 156.7 155.8 157.1 163.7 163.9 162.6 161.3 158.7 152.1 144.7 140.2 140.1 138.6 127.5 125.6 138.1 149.9 160.6 167.2 169.9 174.6 179.5 189.9 196.9 206.4 214.1 218.3 223.3 226.8 231.8 237.8 242.9 248.5 251 253.9 254.2 255.4 255.1 254.2 250.6 243.4 238.1 227 225.1 220.6 216.2 218.2 212.4 216.1 221.1 230.9 244.1 253.5 256.1 250.4 255.9 256.6 257 254.9 256.4 258.1 258.1 263.2 272.1 277.6 274.5 265.9 263 255.3 243 229.2 212.4 189.7 182.3 181.5 179 169 160 159.2 156.8 173 176.8 180.6 179.8 172.5 159.6 141 115.6 102.6 91 78.9 83.1 80.6 72 83.7 85.8 83.8 81.5 83.7 78.8 67.2 58.9 52.1 43.9 38.4 31.5 28.4 24.2 17.6 13.7 9.5 3.7 2 0.4 -1.1 -3 -3 -2.3 -1.6 -0.2 2.2 3.5 2.9 2.2 1.6 1.3 1.4 1.1 0.8 0.2 0.3 0.2 0.1 0 -0.2 -0.8 -1.5 -3 -3 -1.1 0.7 2.5 1.9 2.3 2.4 2.6 2.8 2.8 2.8 2.8 3.9 4.7 5.3 6.1 7.2 7.8 9 11.2 12.4 13.3 15.8 20.7 24 23.2 21.9 25.2 29.9 33.6 37.3 42.3
142.6 141.7 143 142.5 143.7 144.3 146.1 148.7 152 155.2 160.8 165.3 174.5 186.3 191.6 191.2 208.4 211.5 217.8 216.4 211.5 206.8 207.8 198.7 193.6 180.6 174.1 166.7 160.8 158.4 154.4 152.3 154.6 160.8 160.4 158.6 156.9 153.1 147.4 142.1 137.1 136.8 135.8 127.3 120 135.5 149.8 159 166.2 169.3 173.6 178.1 187.1 194.8 202.7 210.4 214 218.4 222.2 226.7 230.4 236.6 240.3 244.4 245.8 244.6 244.6 245.3 247.6 240.5 229.3 224.8 217.9 210.6 211.9 212.6 211.4 208.9 213.4 218.5 223.4 238.7 246 249.2 247.7 250.1 247.8 241.4 242.6 242.4 247.5 249.3 255.4 257.8 264.1 266.7 264.1 257.7 249.1 239.5 225.4 211.6 189.8 186.4 183.9 177.1 169.3 163.3 158.1 154.1 162.1 168.4 167.2 169.6 162.2 146.5 127.3 109.5 94 83.4 74.4 82.5 78.4 70.7 78.4 81.5 83.2 79 77 69.9 62.2 56.1 47.8 44 36.4 32.3 26.9 21.4 18.8 17.1 7.9 3.1 1.7 0.3 -1.1 -3 -3 -3 -3 -3 1.2 2.4 2.3 1.6 0.9 0.3 0.2 -0.1 -0.4 -0.9 -0.8 -0.9 -1 -1.1 -1.2 -1.5 -3 -3 -3 0 1.7 4.2 1.8 2.5 2.5 2.6 2.7 2.8 2.9 3.7 4.8 5.7 6.6 8.3 9.7 11.1 12.3 13.1 13.8 15.9 21.9 26.8 27.7 25.4 27.2 30.7 36.6 40.7 46.7 53.7
129.1 132 134.1 137.6 135.5 135.2 136.1 140.9 146.5 151.6 158.4 164.3 171.8 183.9 185.9 184.4 194.2 206.4 212.9 213.3 212.9 201.2 198.4 201.2 190.8 177.1 172.6 164.2 158.6 155.8 152.7 146.1 150.9 155.6 156.3 155.4 151.4 149.5 143.2 136.9 134.5 133.4 131.5 123.7 118.2 137.7 149.2 158.9 164.6 167.8 171.9 178.4 183.3 192.8 197.6 203.4 208.5 212.5 215.3 220.7 225 229.6 235.1 238.9 237.4 237.3 237.8 235.9 236.6 229.6 223.2 223.9 212.2 204.8 202.4 203 201.5 208.4 207.2 215.8 219.2 227 235.2 244.8 249.7 236.2 239.5 235.4 236.6 232.1 231.3 234.4 240.9 241.2 245.2 248.7 251.2 246.4 239.1 227 218.5 207.8 191.2 189.3 181.7 174.8 169.2 161.2 152.1 148 148.1 154.8 155.1 155.8 147.9 132.7 116.4 100.3 86.1 77.9 76.8 81.1 76.5 69.6 77.3 78.4 74.3 70.9 72.2 68.7 60.1 52.2 44.6 40 34.3 33.2 25.7 18.9 18.2 17.6 6.8 2.8 1.5 0.3 -1 -2.1 -3 -3 -3 -3 -0.5 0.5 0.6 0.6 0.3 -0.4 -1 -1.1 -1.8 -2 -1.9 -2 -2.1 -2.2 -2.3 -2.4 -3 -3 -0.9 0.9 2.7 1.8 2.6 2.7 2.7 2.8 2.8 3 3.7 4.6 5.6 6.4 9.4 10.7 12 13.6 13.6 14.7 15.9 19.9 26.4 30.8 28.9 29.3 33.4 37.3 41 51 56.1 60
114.9 119.4 121.1 124.7 127.5 127.9 130.7 133.3 140.7 145.5 153.2 162 170.2 176.6 182.4 184.1 193.4 201.4 209.9 213.7 213.2 203 185.4 192.4 185.3 172 166.8 159.4 154.8 152.6 149.8 145.1 146.5 149.1 152 151.3 148.2 144.5 138.2 133.8 131.9 127.3 122.9 117.2 127.3 140.3 150.6 159.1 163.2 165.8 171 177 181.3 188.8 193.3 197.5 202.8 206.4 210.5 215.1 219.8 224 230.9 231.8 232.5 230.4 232.5 228.6 226.9 228.5 222.5 217 203.8 195.5 196.3 195 196.9 203.1 212.2 216.3 219.9 225.8 228.6 233.1 235 234.1 226 227.4 227 222.8 219.9 225.6 229.8 233.5 229.8 228.6 227.8 223.1 227.8 228.8 222.6 212.8 193.6 186 179.1 172.2 164.6 156.7 150.6 142.2 137.7 141.2 142.6 139.8 133.3 118.2 105.4 92.9 80.2 69.7 78.2 77.6 73.2 66.6 73.8 73.5 66.1 66.9 67.9 62.2 54.2 47.2 44.9 38.5 33.2 27.8 19.1 17.2 16 9.9 5.4 2.6 1.5 0.4 -0.7 -1.5 -2.4 -3 -3 -3 -3 -1.4 -1.4 -1.3 -1.3 -1.2 -1.7 -2.2 -3 -3 -3 -3 -3 -3 -3 -3 -3 -3 -0.1 1.7 4.9 2 2.7 2.8 2.9 2.9 3 3.5 5 6 6.6 9.9 11.7 12.5 13.4 13.3 13.5 17.5 20.8 24.6 29.3 31.5 30.8 33.5 39.3 42.8 50.3 59.5 63.3 66
106.1 107.4 111.4 114.9 118.9 121.5 123.6 128.4 137.8 142.7 147.8 157.2 167.3 174.5 178.2 182.1 189 194.9 203.4 209.1 208.8 202.9 178.4 177.4 175.5 165.2 158.9 154.4 150.7 148.9 146.3 140.3 142 142.6 144.2 144.9 143.1 140.4 134.5 131.7 128.4 115.1 118.8 123.4 134.3 145.8 152.2 157.7 161.8 164.9 169.9 176.2 179.9 185.6 190.2 193 197.5 201.2 205.4 210.9 214.7 219.3 224.1 224.3 222.5 224.7 227.4 225 222.5 219.6 215.1 202.4 192.1 189.3 193.1 193.6 198.7 202.6 211.2 217.5 223.1 230.8 230.6 233.2 230.9 227.9 215.1 213.2 212.1 211 209.5 204.5 208.7 216.8 218.1 216.1 220.6 230.9 233.2 229.7 223.1 209.5 193.4 182.2 174.9 171.4 165.7 155.4 147.4 139.9 134.3 130.3 132.9 126.9 119.9 112.6 101.9 87.5 73.7 68.8 73.6 74.8 71.8 63.4 56.4 65.8 63.2 65.2 63.6 54.3 48.5 49.3 45.6 38.2 27.8 20.5 17.4 15.6 13.8 7.7 3.5 2.9 1.8 0.8 -0.1 -1 -1.8 -2.7 -3 -3 -3 -3 -3 -3 -3 -3 -3 -3 -3 -3 -3 -3 -3 -3 -3 -3 -3 -1.4 0.7 2.7 1.9 2.4 2.7 2.9 2.9 3 3.7 4.5 6.1 7.4 8.7 11 12.8 13.6 14.7 17.7 14 20 23.4 28 32.5 32.9 33.4 37.2 43.2 48.4 55.2 61.2 66.1 71.9
96.3 97.7 101.4 105.5 110.3 114.3 118.2 125.1 129.8 138 144.5 157.5 162.8 169.3 178.1 178.8 183.8 188.7 197.7 202.9 202.3 200.2 181 166.2 162.7 155.1 151 149.7 147.2 144.1 141.2 137.1 136.6 137 137.4 140.8 139.7 136.8 130.6 131.7 126 118.1 125.7 132.4 139.6 147.8 153.5 158 160.8 163.6 169.2 175.3 178.5 181.9 185.8 188 190.8 194.9 200.5 206.5 210.6 213.4 216.6 218.1 218.3 218.4 221.1 219.8 215.4 215 208.4 196.4 189.9 187.8 189 196.1 199.1 203.6 210.4 217.4 229 232.4 232.2 231.9 228.9 225.4 214 210.7 209 203.4 203.1 198.6 197.6 202 203.4 210.8 224 228.8 230 227.2 213.3 201.9 185.5 182.1 169.5 166.4 160.5 153.8 142.3 134.3 126.3 124.2 119.3 116.7 112.4 105.4 95.4 83.3 71.8 66.1 74.4 78.2 71.8 59.4 51.4 54.1 57.9 60 56.5 55.1 54.4 48.2 41.7 30.6 22.2 19.5 16.5 16.2 12.5 7.3 3.8 3.2 2.2 1.4 0.5 -0.4 -1.3 -2.1 -3 -3 -3 -3 -3 -3 -3 -3 -3 -3 -3 -3 -3 -3 -3 -3 -3 -3 -3 -0.8 1.5 5.8 2 2.7 2.7 3.1 3.3 4 5.1 5.6 6.9 8.7 10.4 12.5 13.9 15.4 17.9 18.2 19.4 20.9 25.5 31.5 33.9 33.4 34.7 38.6 45.8 50.7 54.9 62.3 69.4 77.3
84.2 88.5 90.9 93.2 99.5 104 110.4 118.4 124.9 130.4 141 152.2 160.6 167.4 174 174.5 178.6 178.9 188.2 195 198.9 194.6 181.9 159.9 155.3 150 145.2 145.3 143.5 141.3 137.3 134.4 131.8 132.1 132.4 134.9 135.5 132.3 127.8 128.8 116 119 129.8 137.3 142.7 148.3 152.8 157 159.9 163 168.3 173.9 176.5 178.3 182 184 186.2 189.8 195.5 200.2 205 208.1 212.6 215.2 216 215.3 213.4 214.5 212.4 207.9 201.7 193.4 185.6 181.8 185.3 192.6 197.3 205.9 212 224 233.2 228.5 233.7 230.4 231.6 223.7 214.5 206.7 200.3 199.1 192 192.7 192 196.7 197.5 203.9 211.1 218 221.4 210.7 206.7 199 184.7 173.1 163.9 163.2 154.8 149.6 139.9 129.6 123 117.9 114.9 110.6 105.9 98.5 89.3 77.7 68.7 63.1 72.1 67 66.1 54.7 47.1 56.8 54.2 56.9 57.6 54.4 50.1 41 30.6 23.4 20 18 16.7 15.4 6.6 4.1 4.3 3.2 2.4 1.6 0.7 -0.1 -1 -1.8 -3 -3 -3 -3 -3 -3 -3 -3 -3 -3 -3 -3 -3 -3 -3 -3 -3 -3 -3 0.1 2.5 2.5 2.5 2.6 2.8 4.4 4.2 4.9 5.9 6.4 8.1 10 12.8 15.5 16.2 18.5 20.6 21.2 21 23.9 30.6 34.2 34.7 36.6 39 43.3 47.7 51.6 57.6 64.6 71 80.4
78 79.7 81.3 84 89.1 93.7 101.2 109.4 120 123.5 132 144.4 151.1 154.9 164.2 170.3 173.3 175.1 182.5 186.6 190.2 188.1 177.2 158.5 151.3 145.8 140.7 141 139.4 136.5 133.5 131.2 128.7 128.7 129.7 132.1 134.8 128.9 125.4 125.4 113.2 114.1 130.6 137.9 143.4 148.4 152.4 156.4 158.8 161.1 167.7 171.7 174 175.1 177 179.4 182.3 186.1 192.2 196.7 200.9 204.2 208.3 211.1 212.3 211.8 210 210.4 202.9 196.7 191.1 186.6 179.5 177.8 181.3 189.7 196.2 204.6 211.9 222.6 230.1 227.8 232 228.8 228.7 225 210.8 196.1 186.9 184.1 183.4 185.1 189.9 189 195.9 198.3 205.5 208.9 210.9 213.4 207.4 197.3 177.2 163.8 160 156.5 152.6 145.9 134.6 127.5 120.4 115.1 111 106.5 98 90.8 82.7 70.9 64.6 60.2 67.2 63.6 58.6 46.6 45 51.8 56 53.8 51.5 48 41.5 34.8 26.4 20.5 18.7 17.1 16.4 10.7 6.9 4.3 4.6 3.2 2.3 1.5 0.7 -0.2 -1 -1.9 -2.7 -3 -3 -3 -3 -3 -3 -3 -3 -3 -3 -3 -3 -3 -3 -3 -3 -3 0.7 3.3 5.3 2.8 3.3 3.5 3.7 4.7 4.9 5.5 5.9 7.6 9.7 12.3 15.2 20.7 21.1 22.3 22.6 22.8 25.4 32.1 35.3 36.3 36.6 38.5 41.5 46.5 50 53.4 59.7 65.7 70.7 79.8
69.3 72.3 73.7 74.6 79.5 85.9 91.7 100.3 109 116.1 121.9 135.1 142.6 145 155.4 163.1 166.9 173.3 171.5 179 179.6 177.8 170.9 157 145.9 142.2 138.8 139.5 137.1 133 129 127.5 125.3 126.7 127.5 128.9 130.2 127 123.5 120.6 108.8 113.9 129.7 137.8 143.5 148.1 152 155.8 157.9 160.8 165.2 169.6 172.5 174.2 174.2 175.8 179.2 183.5 188.9 193.8 198.5 201.7 204.4 206.9 207.7 209 205.4 199.9 194.5 189.6 186.9 182.6 178.1 174.5 179.5 189.7 195.8 203.7 210.1 219.6 225.3 226.4 226.9 229.6 228.2 219.1 206.5 190.1 183.5 180.2 176.6 177.8 178.3 181.2 183.4 191.3 203.8 207.9 208.2 208.3 204.7 188 168 161.6 155.1 154.6 149.4 140.2 130.4 123.5 116.4 111.2 106.6 99.8 91.5 84.9 75.5 68.1 62 59.8 62.9 57.1 56.3 51 39.4 48.7 50.3 49.7 47.3 42 34.8 25.2 20.5 19.2 17.4 15.9 10.2 6.6 8.5 5.9 4.8 3.1 2.3 1.4 0.6 -0.3 -1.1 -2 -3 -3 -3 -3 -3 -3 -3 -3 -3 -3 -3 -3 -3 -3 -3 -3 -3 0.7 2.9 3.5 3.5 3.8 4.6 5.3 5.4 5.5 6 6.8 8 9.7 11.6 14.2 17 20.4 21.5 23.1 24.2 27.4 31.9 36.6 38.4 38.3 39.1 39.6 43.5 48.1 52 54.6 61 66.9 70.4 78.5
60.4 59.4 68.5 69.7 70.1 74 84.2 92 100.3 109.4 117.4 124.1 132.3 137.5 146.4 156.5 159.9 162.3 162.4 170.4 172 169.8 166.6 154.4 144.5 142.1 137.6 136.4 133.9 128.9 124.9 123 122 121 123.7 124.4 125.5 123.3 120.8 118.2 100.5 114 128.7 138.2 144.2 148 151.5 154.8 157.5 160.8 164.6 168.1 171.3 173.4 174.6 173.3 177.3 182.6 187.9 193.3 197.6 200.2 202.3 202.8 202.9 202.3 198.8 190.7 188.7 181.3 179 175.8 173.6 174.4 181.2 186.6 194.3 198.3 206.8 217.7 225.3 225.4 223.4 224.8 222.4 215.5 203.6 192.8 184.4 182.3 174.4 169.5 171 168.1 180.5 189.9 202.4 205 204.7 202.2 196.4 182.1 162.8 154.6 149.2 149.5 142.4 131.2 123.8 118.6 114 107.6 98.1 92.7 87.7 80 71.3 62.8 58 55.5 55.7 53.2 55.3 49.5 36.5 43.7 45.2 44.9 42.8 34.3 25.3 26.6 20.9 15.8 13.2 8.8 7.4 9.2 9.6 7.5 4.7 3.2 2.3 1.4 0.5 -0.3 -1.2 -2.1 -3 -3 -3 -3 -3 -3 -3 -3 -3 -3 -3 -3 -3 -3 -3 0.9 2.7 5.2 7.2 6.6 6.4 5.7 5.9 6.9 7.5 7.6 8.1 8.8 10.4 12.1 13.8 15.6 18.2 21.4 23.7 25.4 27.6 30.6 34.5 40 41.9 39.9 41.1 42.4 45.5 49.6 53.2 57.5 61.8 65.2 69.2 75.8
49.5 56.4 62 64.4 67 68.6 60.8 81.4 91.6 102.8 111.4 117.7 126.1 131 139.8 145.3 151.9 153.4 150.8 160.1 163.1 162.4 160.7 153.6 145.4 140.9 134 133.1 130.4 126.6 122 119.2 119.3 116.6 116.7 119.1 119 118.1 114.8 111.5 92.2 115.1 128.9 138.8 144.4 148.1 151.7 154.6 157.6 161.1 164.8 168.3 171 174.1 175.4 173.2 176.3 182.3 187.8 192.3 196 198.7 200.2 200.1 198.6 196.9 195.6 186.9 185.3 176.5 172 174.8 173.2 172.8 175.7 178.3 189.2 190.2 204 217.1 223.7 221.6 218.9 217.7 215.2 210.9 205 191.8 180.3 179.5 171.5 165.8 160 158.3 171 180.6 197.6 199.9 201.8 201.8 189.2 175.8 154.6 147.2 139.9 141.2 132.6 126.5 121.8 117.9 111.6 103.1 98.4 91.5 85.1 72.2 63.7 58.6 53.2 52.8 51.4 47.1 40.6 33.5 33 33.4 38.5 33 28.3 26.1 30.4 26.5 15.4 8.4 7.8 7.6 8.7 12.2 12.7 8.6 8.4 3.2 2.3 1.4 0.5 -0.3 -1.1 -1.9 -3 -3 -3 -3 -3 -3 -3 -3 -3 -3 -3 -3 -3 -3 0.6 3 8.6 10.3 10.5 9.6 8.8 7.8 7.6 8.5 9.3 9.9 10.1 11.2 12.2 13.6 15.4 17.2 18.6 19.5 21 24.2 26.6 32.6 38.7 43.9 41.6 40.3 41.3 44.3 47.7 51.4 55.5 58.4 61.4 65.6 73 77.8
41.8 48.6 51.9 58.3 59.8 63.9 66.9 56.5 76.2 94.9 103.5 108.2 116.1 123.7 132.3 137.6 142.5 143.7 142.7 142.9 153.7 155.5 157.7 149.3 143.2 138.8 130.7 129.7 126 123.4 118.2 114.5 115.5 114.6 112.9 113.3 113 110.8 94.2 87.4 101.4 119.2 131.4 139.7 144 147.5 151.1 154.2 157.4 161 164.7 167.8 170.7 173.8 174.9 173.1 175.7 181.6 187 190.6 193.7 196.4 198.2 197.4 195.9 194.4 193.6 188.1 181.3 176.2 170.4 171.6 168.9 166.5 168.6 171 182.2 185.1 199.8 211.7 217.4 215.4 213.5 211.2 213.6 210.7 201.8 192.1 183.6 170.7 166.2 162.4 160.3 159.6 155.4 178.7 193.9 188.9 192.4 189.6 181.8 169.6 150.6 140.7 133.1 135.4 127.7 123.6 120.7 120 112 105.2 96.3 88 77.9 69 62.9 55.5 53 50.2 40.8 36.4 29.1 27.2 25.6 28.9 22.4 22.1 27.1 22.2 20.4 11.7 9.3 8.3 9.6 11.6 12.4 15.1 14.7 9.2 3.4 2.7 1.9 1.1 0.3 -0.4 -1.2 -2 -2.5 -3 -3 -3 -3 -3 -3 -3 -3 -3 -3 -3 -3 -3 2.2 8.8 11.8 13.1 12.8 11.9 11.1 10 10 11 11.5 11.9 12.3 12.9 13.9 15.1 16.2 17.7 19.2 20 21 24.4 27.5 33.6 40.5 42.6 40 39.2 41.9 46.1 51 54.1 59 61.7 63.2 70.6 75.1 78.6
33.6 39.9 43.9 47.5 53.5 58.1 61.6 58.9 60.3 84.3 92.9 98.8 103.9 112.3 121 129.8 132.1 135.8 138.5 140.2 148.8 150.3 146.9 144.5 137.5 131.6 126.7 124.5 121.7 120.1 116 112.3 111.3 111.7 110.5 108.7 107.8 95.3 82.7 92.4 110.7 122.4 132.8 139.4 143.4 146.9 150.4 153.3 156.6 160.6 164.3 167.2 170 173.2 174 171.4 175.4 180.7 185.1 188.3 190.7 193.7 195.4 195.4 194.6 194.4 191.1 184.8 182.7 181.3 173.5 166.6 166.3 165.5 166.2 165.5 172.7 181.5 199.1 206.4 210.6 203.1 205.2 208.6 208.2 203.6 198.1 189 176.3 167.8 162.2 156.4 155.1 155.8 158.7 176.3 188.7 186.9 181.6 173.5 169.9 159 139.4 131.2 123.2 126.4 123.5 121.5 121.2 117.1 109.5 97.8 87.8 82.4 75 70 59 58 51.6 41.9 39.7 36.1 30.8 25.8 21.8 20.1 20.1 18.1 15.2 13.4 10.6 9.3 10 12 13.4 13.2 12.4 14.4 15.7 4.5 3.2 2.4 1.6 0.9 0.1 -0.7 -1.2 -1.7 -2.3 -2.8 -3 -3 -3 -3 -3 -3 -3 -3 -3 -3 -3 1 5.7 10.4 14.3 17.5 16.3 13.4 12.8 12.1 12.5 12.9 13.4 13.9 14.4 14.6 15.4 16.1 16.7 18.1 19.7 20.4 21.4 26.1 29.5 35.1 39.3 39.5 38.2 40.9 46.1 51.9 58.1 59 59.7 65.6 67.1 72.8 75.8 70.4
25 33.3 38.1 41.8 46.3 50.2 52.1 50.2 50.3 72.3 82.1 89 94.2 100.7 110.5 121.5 127.4 131.3 136.6 138.1 141.9 142.4 139.4 136.1 131.1 125.3 122.9 121.2 119.1 117.8 114.8 111.4 109 106.8 104.3 103.3 82.5 78.2 91.2 103 114.8 124.4 132 138.6 142.6 146.1 149.4 152.4 155.7 159.7 163.3 166 168.8 171.4 172.6 168.8 173.9 178.6 182.4 185.1 187.9 191.1 192.7 192.5 190.5 187.9 182 184.2 181 178.5 170.9 163.2 163.1 162.9 162.6 163.7 170.3 180.6 193.6 201.1 202.5 197 197.7 199.4 198.9 195.2 192 181.9 171.4 164.9 156.4 151.3 152.7 156.3 158.8 163.1 174.6 186.8 179.6 174.1 163.2 150 136.7 128.3 119.5 114.2 117.3 115.2 108.1 105.2 101.2 91 86.3 79.7 74.8 63.7 55 53.2 51.5 41.3 40.3 34.3 30.4 22.3 19.5 18.3 16.4 13.4 11.5 10.5 10.4 12.4 14.3 13.9 14.1 12.7 11.9 11.7 8.5 3.5 3 2.2 1.4 0.6 0 -0.5 -1.1 -1.6 -2.2 -2.7 -3 -3 -3 -3 -3 -3 -3 -3 -3 -3 -0.5 2.8 7 10.4 14.1 16.3 15.3 13.4 13.5 13.8 14.4 14.9 15.4 15.9 16.5 16.6 16.5 16.9 17.3 18.5 20.1 21.5 24.5 28.6 32.3 35.2 37.1 37.1 37.4 43.6 49.6 55.1 60.1 57 62 64.7 67.2 70.5 70.4 63
12.2 26.7 34.3 36.1 39.7 43.5 44.9 44.5 50.9 62.5 72.2 78.8 86.8 89.8 97 111.3 119.1 125.4 128.5 130.8 134.2 134.9 133 131.2 125.2 120 117.6 117.5 116.1 115.6 113.4 110.5 107.9 103.5 86.4 86.2 75.2 90.6 101.5 110.6 116.2 123.9 131.1 137.3 141.6 145 148.1 151.1 154.4 158.6 162.1 164.8 166.9 168.4 169.1 167.2 172.3 176.2 179 181.4 184.4 188.1 190.6 189.1 187.1 182.5 181.8 180.8 176.1 173.1 170 162.2 160.9 160.4 160.4 161.7 165 172.8 187.8 193 195.3 191 191.4 189.3 190.1 189.2 183.2 175.9 167.6 160.2 157.1 150.3 143.8 144.8 152.2 155.1 165.4 171 170.9 166.6 154.3 145.9 133.8 120.5 113.4 113.4 106.3 97.8 100.7 96.1 95.6 88.5 82.3 75.8 69.9 54.2 57.6 54.5 43.6 40.2 36 30 24.8 17.5 16.5 15.3 13.3 12.1 12.3 14.1 18.9 18.5 15.6 15 15 13.7 12.2 9.3 4.7 3.5 2.7 1.9 1.3 0.7 0.2 -0.4 -1 -1.5 -2.1 -2.7 -3 -3 -3 -3 -3 -3 -3 -3 -3 -3 0.4 3.1 7.6 11.5 14.7 15.5 14.7 14.8 15 15.5 16.4 16.9 18.3 18.3 18.4 18.1 16.9 17.4 17.9 19 20.7 23 26.7 30.4 32.8 35.3 36.1 37.4 38.3 45 51.5 56.2 55 59.6 63 65.5 64.7 65.1 64 57.8
