ncols 200
nrows 81
xllcorner 270000
yllcorner 740850
cellsize 50
596 594.1 585.3 574.7 565.8 559 556.2 553 547.7 540.6 532.2 522.6 512.9 501.3 488.8 475.7 461.2 446 430.8 416.3 401.1 385.5 369.5 355.2 341 326.8 311.1 295 279.1 263.4 247.6 232 216.9 200.8 184.2 172.9 165.9 162.1 157.9 156 153 150.5 149.5 147.6 148.7 149.8 155.5 159.7 165.9 172.5 180 191.4 204.6 218.3 230.5 240.3 252.2 266.1 280.9 291.7 301.6 311.4 320.6 327 330 329.2 328.3 327.4 327.5 328.1 328.7 330 330.6 332.3 334.3 335.7 336.8 333.9 325.1 315.9 307.4 300.5 295.2 289 280.8 272.8 264.3 256.3 249.5 246.2 244.7 241.4 234.8 227.2 218.5 206.6 194.3 180.6 167.1 154.7 143.6 133.9 126.9 120.4 112.7 105 105.1 105.1 105.1 105.1 105.1 105.1 105.1 105.1 105.1 105.1 105.1 105.1 105.1 105.1 105.1 105.1 105.1 105.1 105.1 105.1 105.1 105.1 105.1 105.1 105.1 105.1 105.1 105.1 105.1 105.1 105.1 105.1 105.1 105.1 105.1 107.8 111 118.2 128.7 132.6 139.9 147.6 159 170.7 180.2 186.3 191.4 196.3 202.1 208.1 214.4 220.7 227.1 235.8 245.7 252.8 251.9 257.8 266 273.4 277.5 277.2 275.9 276.6 277 281.1 285.6 289.9 293.7 293.6 299.2 304 306.5 311.6 318.1 326.2 331 337.5 345.9 350.6 357.4 361.2 367.1 372.1 376.9 383.6 387.3 390.9 398.4 406.7 415.4 422.8 430.3 437.5
588.4 585.4 581.2 571 559.5 549.5 543.5 539.3 536.5 530.3 521.2 511.1 500.8 489.1 476.4 462.8 447.5 431.6 416 401.1 385.9 370.4 354.9 340.6 326.1 309 293.6 278.6 263.5 248.2 233 218.2 202.7 188.3 175.9 167.3 163.8 160.4 158.3 155.8 152.1 151.4 148.9 147 147.3 148.2 151.8 156.3 162.6 169.1 178.2 188.4 197.6 209.2 221.1 232.4 244.3 256.5 267.2 276.6 287.3 298.8 306.6 310.1 311.6 311.2 310.9 310.4 310.1 310.9 310.9 311 310.7 311.2 311.4 312.1 312.4 309.2 301.1 292.3 281 274.1 268.1 261.1 252.9 244.4 236.7 229.4 222.5 217.3 213.9 209.5 204.5 198.1 190.2 179.3 167.8 155.3 141.5 131.4 123.5 117.3 111.1 105.1 105.1 105.1 105.1 105.1 105.1 105.1 105.1 105.1 105.1 105.1 105.1 105.1 105.1 105.1 105.1 105.1 105.1 105.1 105.1 105.1 105.1 105.1 105.1 105.1 105.1 105.1 105.1 105.1 105.1 105.1 105.1 105.1 105.1 105.1 105.1 106.7 110.9 114.8 119.9 129.6 137.2 141.8 149 158.2 170.4 182 190.8 196.1 202.7 208.8 214.5 220.3 225.9 230.4 235.3 242.9 254.4 261.8 265.6 271.1 276.2 281.6 285.7 285.7 286.8 287.2 285.5 288.7 291.6 295.6 299.9 301.7 301.7 304.3 309.7 318.3 324.5 330.3 338.5 342.6 347.9 354.2 362.1 364.4 368.5 374.1 381.1 388.1 391.8 396 402.1 410.3 417 423.6 430.5 437
583.2 576.4 567.3 558.5 549.1 543.5 536.4 527.6 519.2 511.9 504 496 486.7 475.2 463.2 449.7 434.2 417 400.5 385.1 369.8 353.5 339.2 324.9 308.2 292.5 276.9 262.5 248.1 233.3 218.6 204.5 190.8 177.4 169.6 165 162.6 160.8 158.2 155 152.3 150.8 147.3 146.6 146.5 146.7 151.3 154.8 160 166 175.6 184.8 190.7 199.9 210.9 223.6 237 245.2 252.7 261.1 271.9 284.5 289.2 290.5 291.6 292.2 293.5 294 293.5 294.3 293.4 292.7 289.2 287.2 286.1 286 286.5 284.9 278.3 264.3 249.3 240.7 235 229.5 222.7 215.5 209.4 204.9 199.6 194.1 189.2 184.4 179.6 175 168.1 156.2 143.3 130.9 122.1 115.3 106.2 105.1 105.1 105.1 105.1 105.1 105.1 105.1 105.1 105.1 105.1 105.1 105.1 105.1 105.1 105.1 105.1 105.1 105.1 105.1 105.1 105.1 105.1 105.1 105.1 105.1 105.1 105.1 105.1 105.1 105.1 105.1 105.1 105.1 105.1 105.1 105.1 105.1 111.3 114.9 117.6 122.8 129.8 137 143 151.4 159.8 170.9 184.3 194 199.6 206.6 213.8 221.3 227 232.7 237.9 240.1 244.8 251.7 262.3 271.9 279.3 284.9 289 291.8 294.2 294.8 295.2 297.6 297.2 296.6 297.8 300.1 304.8 307.5 309 305.5 314.9 323.1 331.9 338.8 344.4 347.2 352.6 357.3 364 367.8 371.6 376.3 384.6 392.4 396.9 401.7 407 413.2 419.1 424.8 431.2 437.2
573.9 565.8 555.6 548.3 540.8 534.2 527.4 517.7 503.6 492.5 483.8 476.9 469.2 460.6 449.3 434.7 417.7 401.1 384.4 368.9 353.7 336.6 321.7 306.7 291.8 276.7 262.6 248.6 234.3 219.9 206.1 193.6 180.7 171.8 167.6 164.8 162.3 159.9 156.8 152.6 150.9 147.9 145.1 144.6 144.8 146.5 150.7 153.5 157.8 163.3 169.5 177.5 183 193.2 205 216.6 228.5 235.5 242.2 249.4 258.2 265.5 269.5 272.8 276 277.3 278.8 279.8 279.6 278.1 275.7 273.6 264.2 255.5 254.3 255.7 257.1 257 249.3 233 217.9 208.4 204.6 199.6 194.5 188.4 183.9 179.4 175 169.4 164.6 160 155.9 151.4 145.9 134.6 121.5 109.3 105.1 105.1 105.1 105.1 105.1 105.1 105.1 105.1 105.1 105.1 105.1 105.1 105.1 105.1 105.1 105.1 105.1 105.1 105.1 105.1 105.1 105.1 105.1 105.1 105.1 105.1 105.1 105.1 105.1 105.1 105.1 105.1 105.1 105.1 105.1 105.1 105.1 105.1 105.1 111.2 116.6 119.6 124.2 130.3 135.5 142.9 153.7 160.8 170.7 183.2 196.2 201.8 208 216.9 224.9 232.8 239.3 243.7 247.5 250.1 254.5 261.7 272.1 281.4 288.7 294.2 298.3 302.7 304 304.3 305.3 310 310.2 309 307.6 308.2 311.2 312.8 312.5 312.8 318.4 325.1 334 341.8 348 351 355.8 361.4 366.2 370.6 375.4 380.8 387.7 395.3 400 405.1 410.9 416.6 421.8 426.5 431.9 437.5
566.9 555.3 546.8 540.9 533.2 524.3 514.5 504 491.3 478.9 467.9 459.5 451.5 443.1 431 416.2 400 384.3 368.5 352.9 338.2 321.8 305.9 291.2 276.9 263.3 248.4 234.3 222 208 196.6 185.6 175.8 169.8 165.9 161.9 159.7 156.8 152.7 150.3 148.3 144.9 143.2 142.8 142.9 145.5 150.5 152.9 154.9 158.8 163.3 168.5 175.3 188.3 201.8 211 217.7 226.7 232.8 239.8 247.5 252.6 253.9 256.6 264.7 264.2 263.6 262.6 260.8 257.5 253.6 247.5 236.2 224.3 222.1 223.1 224.2 223.2 214.8 201.2 189.2 183.5 179.8 174.8 169.3 164 158.8 154 149.6 144.9 140.6 136.9 132.9 128.3 123.4 108.5 105.1 105.1 105.1 105.1 105.1 105.1 105.1 105.1 105.1 105.1 105.1 105.1 105.1 105.1 105.1 105.1 105.1 105.1 105.1 105.1 105.1 105.1 105.1 105.1 105.1 105.1 105.1 105.1 105.1 105.1 105.1 105.1 105.1 105.1 105.1 105.1 105.1 105.1 105.1 105.1 109.6 116.2 120.6 125 130.7 136 143.4 153 162.7 170.2 183 194.5 204.6 209.9 219.2 228 234.5 241.6 248 252.8 256.1 259.2 264.2 272 281.5 290.7 297.8 302 306 311 312.5 312.7 316.4 321.4 322.7 321.7 319.6 318 317.7 316.9 317.6 321.3 319.9 325 333.4 343.2 351.9 355.6 360 367.1 371.7 376.7 382.7 388.7 394 400.1 405.1 409.5 414.7 421 426.9 431.6 436.7 441.8
556.8 549.3 540.2 533.4 526.2 517.7 506.1 493.5 480.3 468.3 455.6 444.1 434 423.7 411 396.2 381.1 365.5 350.7 336.2 320.8 305.9 291.4 276.7 262.9 248.4 234.6 221.2 209.1 198.8 188.2 179.4 172.2 164.8 159.4 156.8 154.8 151.7 148.6 146.5 143.6 141.2 141.1 141.6 141.1 142.9 147.1 148.6 149.7 153.7 158 163.4 170.7 185.4 198.4 201.6 206.8 216.6 223 229.3 236.5 242.9 242.6 240.6 245.2 241.8 236.6 233.1 229.8 225 219.6 213.5 203.8 193.5 190.4 189.1 187.8 182.9 175.5 169.2 164.9 160.9 156.9 151.9 146.9 141.8 137.3 133.2 127.7 123.2 119.9 115.6 109.4 105.1 105.1 105.1 105.1 105.1 105.1 105.1 105.1 105.1 105.1 105.1 105.1 105.1 105.1 105.1 105.1 105.1 105.1 105.1 105.1 105.1 105.1 105.1 105.1 105.1 105.1 105.1 105.1 105.1 105.1 105.1 105.1 105.1 105.1 105.1 105.1 105.1 105.1 105.1 105.1 105.1 105.1 107.5 116.8 120.7 125.6 129.9 134.8 143.1 151.1 162.2 170.4 181.3 193.7 204.9 212.6 222 232 237.7 242.8 249.9 255.6 261.2 265.3 268.7 274.3 283.2 290.9 298.3 305.8 310.4 313.8 317.7 319.4 323.5 332.2 334.1 332.1 330.6 328.3 326.2 325 324.7 326.2 329.5 329.2 327.3 335.7 348.4 357 360.5 366.9 373.2 378 383.7 389.8 395.1 400.4 406.1 411.1 415.5 419.7 425.8 431.9 436.6 441.6 447.3
543.9 538.4 530 523.3 513.7 503.5 492.5 480.8 468.2 455.8 441.7 428.6 416.6 404.2 391.8 377.9 362.8 348.4 333.5 318 303.4 290 275.7 262.1 246.9 233.5 222.2 210.7 198.7 189.3 180.6 174.3 164.1 155.3 151.2 149.9 148.5 146 143 138.8 136.1 135.4 137.2 135.9 136.5 139.2 141.5 142.8 144 146.5 152.6 158.3 165.9 181.5 190.8 191.1 197.4 205.5 210.6 216.2 222.7 231.7 232.5 226.2 220.7 215.7 209.1 202.6 196.5 191.3 185.7 180.5 172.3 164.4 161.7 159.5 158 153.3 149.4 146.2 143.3 139.8 136.3 132.7 128 122.4 118.7 112.4 105.1 105.1 105.1 105.1 105.1 105.1 105.1 105.1 105.1 105.1 105.1 105.1 105.1 105.1 105.1 105.1 105.1 105.1 105.1 105.1 105.1 105.1 105.1 105.1 105.1 105.1 105.1 105.1 105.1 105.1 105.1 105.1 105.1 105.1 105.1 105.1 105.1 105.1 105.1 105.1 105.1 105.1 105.1 105.1 105.1 105.1 108.2 115.7 121.9 127.7 132.7 137.6 143.9 151.9 162.2 170 179.5 191.4 203.6 213.8 223.9 235.1 242.4 248.3 254.1 258.6 264 269.6 274.2 278.7 283.7 292.1 298.8 305.4 313.3 319 323.4 327.5 330.8 340 348.6 346.4 342 338.8 336 334.4 332.7 334.4 339 342.2 337.2 332.6 340 353 358.1 363 369.7 376.8 382.8 387.3 393.5 399.2 405.5 411.1 415.7 419.8 424.7 430.5 436.2 441.2 446.2 452.1
533.8 526.8 519.4 511.4 500.5 489.3 478.3 466.9 453.9 440.3 425.8 412.4 399 386.2 373.4 359.6 345.1 331 316.7 301.2 288.1 274.2 259.9 246.7 234.2 223.4 213.3 202.7 191 180.1 170.7 163.1 153.3 145 143.3 142.7 140.5 137.5 132.2 127.6 125.3 126.3 127.2 126 131.2 133.4 135.3 136.3 138.4 141.7 146.6 151.9 161.5 171.5 177 179.1 184.7 189 193.9 199.1 203.7 211.8 210.4 201.1 190.3 183.3 175.4 169.8 165.2 160.8 157.1 153.9 150.4 145.1 142 139.2 136.8 134.3 131.5 129.3 126.9 123.4 118 111.4 105.1 105.1 105.1 105.1 105.1 105.1 105.1 105.1 105.1 105.1 105.1 105.1 105.1 105.1 105.1 105.1 105.1 105.1 105.1 105.1 105.1 105.1 105.1 105.1 105.1 105.1 105.1 105.1 105.1 105.1 105.1 105.1 105.1 105.1 105.1 105.1 105.1 105.1 105.1 105.1 105.1 105.1 105.1 105.1 105.1 105.1 105.1 105.1 105.1 109.1 116.8 123.4 130.3 135.4 140.3 146.2 152.8 161.9 170.3 179 189.6 204.1 214.4 223.6 236.1 244.9 251.4 257.8 263.4 268.2 273.1 278.6 285.4 289.5 293.2 299.7 307.4 315.2 322.8 330 336.7 343.7 350.5 355.7 359 357.1 354.7 351.8 350.9 346.8 343.6 348.4 352.2 354.2 348.7 341.9 343.8 354.9 360.1 364.7 372.3 379.7 385.6 390.6 396 402.1 408.5 414.3 419.7 423.9 428.5 433.8 438.9 444.2 449.6 455.1
523.5 515.8 506.8 497.2 487 476 464.9 452.5 437.5 423.9 410.4 397.3 382.1 367.9 355.1 341.5 328.2 314.4 300.2 285.9 272.1 258.9 246.6 235.1 224.4 214.6 205.2 193.9 181.1 168.5 158.9 149.9 141.3 137 136.6 136 131.3 125.8 121.4 118.8 117.3 116.8 118.8 121.7 124.5 126.8 127 128.4 133.1 138 142.6 145.8 149.2 152.4 158.6 163.4 167.1 170.9 174.2 175.8 176.1 176.9 173.8 165.5 157.2 150.7 145.1 141.2 138.8 136.9 135.3 133.9 132.9 130.5 127.7 124.4 121.9 119.9 116.4 113.9 110.7 106.1 105.1 105.1 105.1 105.1 105.1 105.1 105.1 105.1 105.1 105.1 105.1 105.1 105.1 105.1 105.1 105.1 105.1 105.1 105.1 105.1 105.1 105.1 105.1 105.1 105.1 105.1 105.1 105.1 105.1 105.1 105.1 105.1 105.1 105.1 105.1 105.1 105.1 105.1 105.1 105.1 105.1 105.1 105.1 105.1 105.1 105.1 105.1 105.1 105.1 105.1 113.7 118.7 125.7 132.2 137.6 142.8 148.3 154.4 162.3 171.5 178.4 188.6 203 216.1 224 235.7 246.5 252.9 260.3 266.4 272.5 278.7 283.5 287.9 294.1 299.8 304.3 311 319.9 330.6 339.7 347.6 355 364.6 373.3 375.3 373.3 367.5 364.7 359.8 359 355.9 357.5 362.6 362.7 364 360.2 352.6 345.7 356.4 360.3 366.3 373.6 382.5 388.5 393.9 399.3 405.7 411.9 417.7 422.6 426.8 431.4 436.5 441.6 446.8 452.5 457.2
512.9 504.4 495 484.2 473.4 462.3 450 435 420.7 408.1 396 382.1 366.1 350.4 337.3 325.3 312.1 298.2 284.1 270.4 257.7 246.3 234.7 223.3 212.2 202.4 193.5 182.3 170 157 146.6 136.3 131 130.1 130.3 126.4 122 118.6 115.8 113.6 112.7 112.4 115.4 119 120.5 120.2 120.2 122.7 127.2 131.1 135.1 137.6 139.3 141.6 143.9 147.8 150.5 153.1 153.5 152.5 146.9 140.1 135.9 131.7 128.5 126 124.2 123.1 121.8 120.4 117.8 117.3 115.9 114.6 113.4 110.4 107 105.1 105.1 105.1 105.1 105.1 105.1 105.1 105.1 105.1 105.1 105.1 105.1 105.1 105.1 105.1 105.1 105.1 105.1 105.1 105.1 105.1 105.1 105.1 105.1 105.1 105.1 105.1 105.1 105.1 105.1 105.1 105.1 105.1 105.1 105.1 105.1 105.1 105.1 105.1 105.1 105.1 105.1 105.1 105.1 105.1 105.1 105.1 105.1 105.1 105.1 105.1 105.1 105.1 109.4 115.8 121.8 127.6 133.6 138.7 144.5 149.9 155.9 162.3 171.1 181.4 188.4 202.2 216.1 227.4 236.6 248.6 260.7 265.9 269.8 273.7 281.1 290.2 294.6 297.9 303.8 310.3 318.4 326.1 337.4 349.7 357.2 364.2 371.8 381.3 389 393.3 391.3 381.9 374.7 366.5 364.7 365.2 371.2 372.9 371.1 371.6 371.1 363.1 346.4 353.1 362.4 368.7 376.6 384.1 391.8 397.2 402.9 410.7 415.7 420.6 425 429.5 434.2 438.7 444 449.3 455.1 460.8
503.4 492.8 483.4 473.4 462.2 449.6 433.7 418.2 405.6 393 379.7 365.9 350.3 334.4 321.2 308.4 296.1 282.3 268.7 256.2 244.8 234.2 222.6 212.1 201.4 191.5 181.2 170.9 157.1 145.2 133.8 125.1 123.9 123.1 121.6 118.7 115.7 112.4 111 107.4 106.4 107.5 111.3 113.5 115.2 114.8 114.9 116.8 120.3 124.7 125.4 125.8 127.9 130.6 132.3 133.2 134.2 136.1 134.7 131.8 127.3 122.2 118.4 116.4 112.8 109.8 107.4 106 105.1 105.1 105.1 105.1 105.1 105.1 105.1 105.1 105.1 105.1 105.1 105.1 105.1 105.1 105.1 105.1 105.1 105.1 105.1 105.1 105.1 105.1 105.1 105.1 105.1 105.1 105.1 105.1 105.1 105.1 105.1 105.1 105.1 105.1 105.1 105.1 105.1 105.1 105.1 105.1 105.1 105.1 105.1 105.1 105.1 105.1 105.1 105.1 105.1 105.1 105.1 105.1 105.1 105.1 105.1 105.1 105.1 105.1 105.1 105.1 105.1 111.3 120.2 123.1 129.7 135.8 141 147.1 151.9 157.4 163.6 171.7 180.1 191.7 200.4 215.5 227.8 239.1 248.5 259.5 268.1 270.1 271.9 277.8 287.2 295.9 301.6 307.1 314.8 324.5 333.1 341.7 351.7 361 367.7 378 390.1 400.1 408 409.6 406.1 395.1 384.5 377.8 371.9 373.9 380 380.9 381.5 381.1 380.2 375 363.6 355.2 361.4 372.8 382.5 387.9 394.7 400.4 406.3 412.3 417.2 422.1 426.9 431.8 436.5 440.3 445 451.2 457.4 463.1
493.1 483.7 473.8 463.3 450.5 435.1 418.5 402.7 389.4 376.1 363 348.8 334.5 320.5 306.6 293.3 280.8 269 256.2 243.8 232.5 221.4 210.8 201.8 193.6 183.2 171.6 157 146.2 134.5 122 117.6 118.4 117.2 114.8 112.8 109.2 106.3 105.1 105.1 105.1 105.1 105.1 105.8 109.4 107.2 105.4 105.8 111.3 114 112.6 111.9 113.6 116.2 116.9 114.9 114.9 114.4 111.5 109.9 107.9 105.1 105.1 105.1 105.1 105.1 105.1 105.1 105.1 105.1 105.1 105.1 105.1 105.1 105.1 105.1 105.1 105.1 105.1 105.1 105.1 105.1 105.1 105.1 105.1 105.1 105.1 105.1 105.1 105.1 105.1 105.1 105.1 105.1 105.1 105.1 105.1 105.1 105.1 105.1 105.1 105.1 105.1 105.1 105.1 105.1 105.1 105.1 105.1 105.1 105.1 105.1 105.1 105.1 105.1 105.1 105.1 105.1 105.1 105.1 105.1 105.1 105.1 105.1 105.1 105.1 105.1 105.1 105.1 119.1 126.9 130.4 137.7 144.2 149.4 155.4 159.7 165 172.4 184 193.4 201.9 214.5 225.9 237.9 252.2 256.7 262.2 267.6 271.5 277 284.6 292.9 300.5 307.9 316.9 326.5 336.3 345.4 355.1 363.2 373.6 386.1 399.5 410.4 414.3 416.9 416.9 409.7 402 393.7 384.6 379 384.7 389.3 390.8 391.6 391 388.5 384.8 377.4 370.9 365.3 372.6 385.4 391.6 397.4 403.4 409.1 414.2 419 423.8 428.5 433.3 438.1 442.3 447.1 453.1 459.7 465.4
483.5 474.7 462.6 448.8 435.3 419.7 403.2 387.8 372.8 359.4 346.2 333.6 321.3 306.5 292.5 278.9 267.2 256.3 244.2 231.8 220.6 211.1 201.9 192.9 183.6 171.2 158.3 145 135 123.4 113.2 110.2 109.7 111 106.4 105.1 105.1 105.1 105.1 105.1 105.1 105.1 105.1 105.1 105.1 105.1 105.1 105.1 105.1 105.1 105.1 105.1 105.1 105.1 105.1 105.1 105.1 105.1 105.1 105.1 105.1 105.1 105.1 105.1 105.1 105.1 105.1 105.1 105.1 105.1 105.1 105.1 105.1 105.1 105.1 105.1 105.1 105.1 105.1 105.1 105.1 105.1 105.1 105.1 105.1 105.1 105.1 105.1 105.1 105.1 105.1 105.1 105.1 105.1 105.1 105.1 105.1 105.1 105.1 105.1 105.1 105.1 105.1 105.1 105.1 105.1 105.1 105.1 105.1 105.1 105.1 105.1 105.1 105.1 105.1 105.1 105.1 105.1 105.1 105.1 105.1 105.1 105.1 105.1 105.1 105.1 105.1 105.1 115.2 124.6 130.9 139.2 147.1 152.4 157.8 164.4 168.9 174.2 180.8 189.4 201.2 212 222.8 235.3 250.9 262 261 267 275.2 282.4 288.4 295.5 302.6 310.2 318.1 328 338 347.6 360 371.1 379.2 390.1 405.3 417.6 420.9 418.9 416.7 413.6 408 402.8 397.6 389.6 389.1 395.9 399.6 400.6 400 398.7 396.4 393.3 387.4 378.8 374.4 374.5 387.6 393.2 399.5 405.8 411.2 416.4 421.3 426.1 430.7 435.4 440.1 445 450.2 455.5 461.4 467
470.8 458.9 446.5 431.8 417.1 403.2 388 372.2 357.7 343.9 331 319.3 306.5 292 280.1 266.5 254.7 243.9 233 220.6 210.5 200.4 191.5 180.5 168.7 158.4 146.2 134 122.9 111.2 105.1 105.1 105.1 105.1 105.1 105.1 105.1 105.1 105.1 105.1 105.1 105.1 105.1 105.1 105.1 105.1 105.1 105.1 105.1 105.1 105.1 105.1 105.1 105.1 105.1 105.1 105.1 105.1 105.1 105.1 105.1 105.1 105.1 105.1 105.1 105.1 105.1 105.1 105.1 105.1 105.1 105.1 105.1 105.1 105.1 105.1 105.1 105.1 105.1 105.1 105.1 105.1 105.1 105.1 105.1 105.1 105.1 105.1 105.1 105.1 105.1 105.1 105.1 105.1 105.1 105.1 105.1 105.1 105.1 105.1 105.1 105.1 105.1 105.1 105.1 105.1 105.1 105.1 105.1 105.1 105.1 105.1 105.1 105.1 105.1 105.1 105.1 105.1 105.1 105.1 105.1 105.1 105.1 105.1 105.1 105.1 110.1 118.5 126.1 132.6 143.9 151.5 156.4 161.8 167.8 174.8 179.4 184.5 189.6 197 209.5 221.8 230.9 244.8 261.5 266 268.7 277.5 284.8 293 299 305.8 314.5 323.1 332.1 342.6 354.6 365.6 378.5 391.3 396.1 403.1 415.3 422.7 423.8 421.5 417.3 412 408 406.6 402.2 395.7 398 402.7 406.4 408 407.5 406 403.4 400.4 395.7 388.9 381.9 377.3 391.2 394.7 400.8 407.6 413.3 418.5 423.6 428.4 432.8 437.6 442.1 446.7 451.9 457.2 462.6 467
454.3 441.9 428.8 413.2 399.1 385.9 371.9 357 342.6 330.3 317 304.7 291.6 277.7 266 254 242.4 231.8 221.2 210.1 199.1 189.4 179.8 168.8 158.1 148.3 135.8 123.6 108.9 105.1 105.1 105.1 105.1 105.1 105.1 105.1 105.1 105.1 105.1 105.1 105.1 105.1 105.1 105.1 105.1 105.1 105.1 105.1 105.1 105.1 105.1 105.1 105.1 105.1 105.1 105.1 105.1 105.1 105.1 105.1 105.1 105.1 105.1 105.1 105.1 105.1 105.1 105.1 105.1 105.1 105.1 105.1 105.1 105.1 105.1 105.1 105.1 105.1 105.1 105.1 105.1 105.1 105.1 105.1 105.1 105.1 105.1 105.1 105.1 105.1 105.1 105.1 105.1 105.1 105.1 105.1 105.1 105.1 105.1 105.1 105.1 105.1 105.1 105.1 105.1 105.1 105.1 105.1 105.1 105.1 105.1 105.1 105.1 105.1 105.1 105.1 105.1 105.1 105.1 105.1 105.6 105.1 107.7 109.2 109.6 113.5 121.9 129.7 136 144.9 156.3 162.9 167.6 172.1 178.4 185 189.4 194.5 201.1 209.5 220.1 230.6 243.8 255.3 266.4 272 280.5 289.5 293.7 300.2 307.6 316.8 326.3 338.7 348.7 362.5 376.1 386.3 394.2 403.6 408.7 414.1 422 426 426.8 425.3 422.5 416.5 413.8 411.7 405.4 401.9 405.7 410.4 413.7 415.5 415.7 413.6 411.1 408.2 402.8 396.8 387 376.8 389.2 394.6 401.6 409.5 415.6 420.7 425.8 430.7 435.1 439.7 444.1 448.8 453.5 459 463.7 468.4
438.9 425.2 411.5 395.7 381.7 369.5 356.3 341.9 328.3 316.3 302.9 290.2 276.9 263.5 251.9 240.7 230.3 219.8 209 198.1 189.1 178.8 168.8 159 147.5 138.3 125.5 113.2 105.1 105.1 105.1 105.1 105.1 105.1 105.1 105.1 105.1 105.1 105.1 105.1 105.1 105.1 105.1 105.1 105.1 105.1 105.1 105.1 105.1 105.1 105.1 105.1 105.1 105.1 105.1 105.1 105.1 105.1 105.1 105.1 105.1 105.1 105.1 105.1 105.1 105.1 105.1 105.1 105.1 105.1 105.1 105.1 105.1 105.1 105.1 105.1 105.1 105.1 105.1 105.1 105.1 105.1 105.1 105.1 105.1 105.1 105.1 105.1 105.1 105.1 105.1 105.1 105.1 105.1 105.1 105.1 105.1 105.1 105.1 105.1 105.1 105.1 105.1 105.1 105.1 105.1 105.1 105.1 105.1 105.1 105.1 104.9 106.2 105.1 105.1 105.1 105.1 105.1 105.1 105.3 108.6 105.1 109.8 112.4 115.1 122.4 131.9 140.2 147.4 154.6 162.6 170.3 176.4 179.4 185.9 192.7 196.4 203.7 212.1 219 229.5 241.2 256.1 265.2 270.2 281.6 294.6 300.3 302.6 308.2 318.9 329.8 342.3 357.5 369.8 384.1 399.9 407.5 409.3 414.4 417.9 423 428.6 433.8 436.4 435.5 431.2 426.5 424.1 417.2 409.4 411.8 417.6 421.9 425.8 426.5 425.4 422.8 420.6 416.5 410.2 403.7 397.8 385.5 388.4 396.5 403.5 410.5 417.6 423 428 432.6 437.2 441.5 445.8 450.4 455.1 460.4 465 470.2
422 408.8 394.6 382.5 369.4 355.8 342.3 329.1 315.9 302.7 289.3 276 262.5 250.7 239.2 228 217.7 207.8 196 186.7 178.4 168.4 157.9 147.3 137 127.4 116.2 105.1 105.1 105.1 105.1 105.1 105.1 105.1 105.1 105.1 105.1 105.1 105.1 105.1 105.1 105.1 105.1 105.1 105.1 105.1 105.1 105.1 105.1 105.1 105.1 105.1 105.1 105.1 105.1 105.1 105.1 105.1 105.1 105.1 105.1 105.1 105.1 105.1 105.1 105.1 105.1 105.1 105.1 105.1 105.1 105.1 105.1 105.1 105.1 105.1 105.1 105.1 105.1 105.1 105.1 105.1 105.1 105.1 105.1 105.1 105.1 105.1 105.1 105.1 105.1 105.1 105.1 105.1 105.1 105.1 105.1 105.1 105.1 105.1 105.1 105.1 105.1 105.1 105.1 105.1 105.1 105.1 105.1 105.1 105.1 106.3 108.1 108.3 108.1 108 105.6 105.1 105.1 107.9 111.2 112.6 115.2 118 124.4 133.2 143.3 148.6 152.4 158.3 166.2 173.7 180.1 185.4 192.7 198.9 203 211.6 221.8 226.9 235.8 248.4 261.2 269.2 276.5 291.5 305.2 308.9 312 319 330.5 344.3 363.8 380.2 391.4 403.9 417.3 418.1 420.7 423.8 426.5 433.4 440.5 447.5 449.8 446.7 439.9 437.5 432.5 421.3 416 422.4 429 432.3 436.1 436.6 434.4 431.6 428.4 422.8 414.3 407.2 406 398.3 387.7 399.9 405.9 411.5 418.1 424.3 429.7 434.1 438.3 442.6 447.2 452.2 457.1 462.4 468.2 475
407.2 395.2 383.2 370.3 355.7 341.8 328.5 316 302.8 289.6 275.9 262.5 249.7 237.7 226.5 215.3 205.6 196.4 186.6 178 167.4 157 147.1 137.5 127.3 116.4 105.1 105.1 105.1 105.1 105.1 105.1 105.1 105.1 105.1 105.1 105.1 105.1 105.1 105.1 105.1 105.1 105.1 105.1 105.1 105.1 105.1 105.1 105.1 105.1 105.1 105.1 105.1 105.1 105.1 105.1 105.1 105.1 105.1 105.1 105.1 105.1 105.1 105.1 105.1 105.1 105.1 105.1 105.1 105.1 105.1 105.1 105.1 105.1 105.1 105.1 105.1 105.1 105.1 105.1 105.1 105.1 105.1 105.1 105.1 105.1 105.1 105.1 105.1 105.1 105.1 105.1 105.1 105.1 105.1 105.1 105.1 105.1 105.1 105.1 105.1 105.1 105.1 105.1 105.1 105.1 105.1 105.1 105.1 105.1 108 108.3 108.9 108.8 108.4 108.1 107.5 107.7 107.8 112.7 114.3 115.4 121 126.8 133.6 141.8 148.2 151.3 154.9 161.7 170.4 179.1 186.1 192.7 199.4 205.4 211.5 222 230.1 235.8 247.5 256.8 266.5 275.3 285.2 301 312.6 317.5 324.5 334.9 350.2 371.3 388.6 402.1 416.3 425.6 432.7 431.1 433.2 437.5 442.1 450.8 452.4 455.3 457.6 455.2 448.9 447 437.6 424.6 427.6 432.5 439 440.8 444.1 443.2 439.3 436.3 432.9 426.8 419.8 414.2 412.4 405.4 394.4 401.9 407.6 412.5 418.2 424.5 430.1 435.1 439.8 444.2 448.8 454 459.6 465.6 471.9 479.3
395.4 384 370.6 356.8 343.3 328.7 316.4 303.1 289.9 276.5 262.4 250.1 237.2 224.7 213.3 202.8 194 184.8 175.4 166.8 156.1 146.3 136.5 127.1 116.4 105 105.1 105.1 105.1 105.1 105.1 105.1 105.1 105.1 105.1 105.1 105.1 105.1 105.1 105.1 105.1 105.1 105.1 105.1 105.1 105.1 105.1 105.1 105.1 105.1 105.1 105.1 105.1 105.1 105.1 105.1 105.1 105.1 105.1 105.1 105.1 105.1 105.1 105.1 105.1 105.1 105.1 105.1 105.1 105.1 105.1 105.1 105.1 105.1 105.1 105.1 105.1 105.1 105.1 105.1 105.1 105.1 105.1 105.1 105.1 105.1 105.1 105.1 105.1 105.1 105.1 105.1 105.1 105.1 105.1 105.1 105.1 105.1 105.1 105.1 105.1 105.1 105.1 105.1 105.1 105.1 105.1 105.1 105.1 108.6 109.1 108.5 110.1 110.4 109.4 108.5 108.3 109.1 111.9 115.8 116.9 117.1 123.8 132 139.8 146.2 150.6 154.1 159.7 168.4 178 185.2 192.2 200.1 206.4 212.7 220 230.6 237.7 245.8 257.5 262.2 273.2 282.4 294.2 309.9 318.4 330.4 342.7 354.8 370.7 390 405.1 420.1 431.9 441.4 442.6 443.2 446.5 454.9 463.5 467.4 465.3 461.4 462.4 459.2 458.4 455.9 440 428.8 437.8 442.7 446.6 445.4 446.3 445.1 441.4 438.4 434.8 430.1 423.9 419.8 416.4 410.5 402.7 408.2 411.3 413.2 418.5 424.9 430.6 435.7 440.6 445.5 450.8 456.4 462 467.8 475.1 482.4
384.6 372.6 358 344.1 330 317.2 304.6 290.9 277.1 262.9 248.2 238 225.9 213.3 201.5 191.6 182.3 173.1 163.6 154.9 144.4 135.4 126 117.1 105 105.1 105.1 105.1 105.1 105.1 105.1 105.1 105.1 105.1 105.1 105.1 105.1 105.1 105.1 105.1 105.1 105.1 105.1 105.1 105.1 105.1 105.1 105.1 105.1 105.1 105.1 105.1 105.1 105.1 105.1 105.1 105.1 105.1 105.1 105.1 105.1 105.1 105.1 105.1 105.1 105.1 105.1 105.1 105.1 105.1 105.1 105.1 105.1 105.1 105.1 105.1 105.1 105.1 105.1 105.1 105.1 105.1 105.1 105.1 105.1 105.1 105.1 105.1 105.1 105.1 105.1 105.1 105.1 105.1 105.1 105.1 105.1 105.1 105.1 105.1 105.1 105.1 105.1 105.1 105.1 105.1 105.1 105.1 108.4 109.8 110.7 110.9 111 112.3 111.7 111 111.3 113.4 116.8 119.7 121.6 121.8 126.3 133.7 140.6 148.5 155.2 160.5 167.6 178.1 186.2 192.2 199 206.8 213.5 219.7 228.1 238.3 246 253.3 266 271.9 280 291.3 306.8 316.1 327.4 343.9 359.1 373.2 387.2 406.4 423.7 438.1 446.3 452.1 453.1 457.4 465.9 475.9 480 480.2 475.6 471.8 466.9 463.5 466.1 459.5 441.3 438 444.1 449.7 453.7 451.7 449.3 446.6 443.5 440.2 436.5 432.3 427.5 422.4 418.4 413.2 406 412.4 413.4 415.7 420 425.3 431 436.5 441.4 446.5 451.8 457.6 463.5 469.5 477.1 485.1
372.3 360 347.7 332.8 318.6 306.5 293.6 279.4 264.4 250.8 236.1 225.6 216.3 204.3 192.1 182.5 173.4 163.2 152.6 143 133.2 124.8 116.2 107.8 105.1 105.1 105.1 105.1 105.1 105.1 105.1 105.1 105.1 105.1 105.1 105.1 105.1 105.1 105.1 105.1 105.1 105.1 105.1 105.1 105.1 105.1 105.1 105.1 105.1 105.1 105.1 105.1 105.1 105.1 105.1 105.1 105.1 105.1 105.1 105.1 105.1 105.1 105.1 105.1 105.1 105.1 105.1 105.1 105.1 105.1 105.1 105.1 105.1 105.1 105.1 105.1 105.1 105.1 105.1 105.1 105.1 105.1 105.1 105.1 105.1 105.1 105.1 105.1 105.1 105.1 105.1 105.1 105.1 105.1 105.1 105.1 105.1 105.1 105.1 105.1 105.1 105.1 105.1 105.1 105.1 105.1 105.1 107.2 110.2 111.7 112.6 112.5 112.2 114.6 114.9 115.3 116.5 118.5 121.3 124.3 127.3 128 132.3 137.9 143.7 152.6 161.2 167.4 175.5 185.4 191.9 198.5 205.6 213.4 220 226.5 235.3 245 253.3 261.3 272 279.1 288.1 301 310.9 322.6 339.3 355.5 371.2 385.4 399.1 416.2 436.8 452.4 461.9 463.7 463.7 471.4 482.8 489.6 488.8 484.7 480.1 479.5 473.3 469.1 468.6 460.2 448.4 446.6 449.4 454.9 456.4 455.2 452.6 449.3 446.3 442.5 440 435 429.7 426.1 422.1 416.4 412.5 412.4 416.1 417.5 422.5 425.7 430.1 436.6 442.5 447.3 452.7 458.5 464.3 470.6 478.5 486.2
360.2 347.1 334.8 320.9 308.8 295.6 282 266.7 253.2 241.3 229 219.4 209 196.9 185 175 164.5 154.3 143.7 135.5 127.5 118.9 108.2 105.1 105.1 105.1 105.1 105.1 105.1 105.1 105.1 105.1 105.1 105.1 105.1 105.1 105.1 105.1 105.1 105.1 105.1 105.1 105.1 105.1 105.1 105.1 105.1 105.1 105.1 105.1 105.1 105.1 105.1 105.1 105.1 105.1 105.1 105.1 105.1 105.1 105.1 105.1 105.1 105.1 105.1 105.1 105.1 105.1 105.1 105.1 105.1 105.1 105.1 105.1 105.1 105.1 105.1 105.1 105.1 105.1 105.1 105.1 105.1 105.1 105.1 105.1 105.1 105.1 105.1 105.1 105.1 105.1 105.1 105.1 105.1 105.1 105.1 105.1 105.1 105.1 105.1 105.1 105.1 105.1 105.1 105.1 108.8 110.2 111.8 113.4 114.7 112.9 115.9 117 118.2 120.1 121.8 123.7 127 131.2 133.1 134.7 140.3 146.5 152.1 159.6 166.9 173.9 182.2 191.7 199.3 206.1 214.7 220.5 225.4 232.7 241.6 249.7 259.3 268.8 278 286.4 295 305.7 314.9 329.4 347.3 360.5 374.1 391.9 407.7 426.1 444.5 461.5 468.5 468.7 473.5 486.6 494.4 496.9 494.9 490.2 488 485 476.4 470.9 466.5 455 448.2 450.1 452.6 456.4 456.5 455.6 453.8 451.1 448.2 443.6 442.1 438.6 432.5 427.5 423.8 418 415.2 413.7 416.1 418.7 422.9 425.8 429.2 435.1 443.3 448.1 453.6 459.3 465.1 471.1 478.1 485
349.9 336 322.6 311.1 298.2 284.8 269.8 255.9 245.4 234.2 223.1 212.5 200.9 189.2 177.8 167.7 156.6 146.2 138.7 130.1 120.9 111.3 105.1 105.1 105.1 105.1 105.1 105.1 105.1 105.1 105.1 105.1 105.1 105.1 105.1 105.1 105.1 105.1 105.1 105.1 105.1 105.1 105.1 105.1 105.1 105.1 105.1 105.1 105.1 105.1 105.1 105.1 105.1 105.1 105.1 105.1 105.1 105.1 105.1 105.1 105.1 105.1 105.1 105.1 105.1 105.1 105.1 105.1 105.1 105.1 105.1 105.1 105.1 105.1 105.1 105.1 105.1 105.1 105.1 105.1 105.1 105.1 105.1 105.1 105.1 105.1 105.1 105.1 105.1 105.1 105.1 105.1 105.1 105.1 105.1 105.1 105.1 105.1 105.1 105.1 105.1 105.1 105.1 105.1 105.1 108.1 109.7 111.4 113.1 114.8 116.1 114.7 118.1 119.7 122.4 125.2 127.4 129.4 132.5 136.4 140.3 143.8 148.6 155 161.6 169.2 175.9 182.2 189.8 197.9 205.8 214.5 222.2 225.9 230.4 236.7 246.4 253.9 263.4 274.6 283.7 292.7 299.9 309 320.3 334.5 347.1 358 376.4 398.9 412.6 432.6 449.3 464.1 468.8 471.2 481.9 494.3 501.2 502.8 502.1 498.8 496.4 489.6 479 472.1 462.1 451.3 449.5 452.2 454.9 456.6 456.5 456.3 454.9 452.6 449.7 445.9 445.2 440.6 432.2 426.6 422.5 418.6 418.1 416.2 415.3 417.9 422.5 427.1 430.2 437 443.7 449.2 453.6 459.5 465 470.5 476.1 482.5
339.8 326.1 313.1 300.5 287.9 274.7 260.9 249.8 239.7 229.2 216.5 204.6 193.8 182.8 171.6 161.6 151.7 144.1 135.3 124.8 113.4 108.5 105.1 105.1 105.1 105.1 105.1 105.1 105.1 105.1 105.1 105.1 105.1 105.1 105.1 105.1 105.1 105.1 105.1 105.1 105.1 105.1 105.1 105.1 105.1 105.1 105.1 105.1 105.1 105.1 105.1 105.1 105.1 105.1 105.1 105.1 105.1 105.1 105.1 105.1 105.1 105.1 105.1 105.1 105.1 105.1 105.1 105.1 105.1 105.1 105.1 105.1 105.1 105.1 105.1 105.1 105.1 105.1 105.1 105.1 105.1 105.1 105.1 105.1 105.1 105.1 105.1 105.1 105.1 105.1 105.1 105.1 105.1 105.1 105.1 105.1 105.1 105.1 105.1 105.1 105.1 105.1 105.1 105.1 108 109.3 110.6 112.1 114.6 117.2 119.5 120.3 117.9 123 126.5 130.2 134 137.1 139.6 143.4 148.4 153.1 157.6 163.6 170.9 178 184.9 190.9 197.6 205 212.2 220.2 226.7 231.5 236 241.6 250.6 257.8 267.3 281.2 290.7 299.1 306.3 312.7 325.8 336.4 345.6 358 377 398.9 413.6 434.1 451.4 465.3 470.4 478.5 489.5 497.6 504 507.2 507.8 507.9 502 492.3 482.2 470.1 456.1 454 455.8 458.5 459.8 458.3 456.6 456.3 455.2 453.6 450.6 448 448.6 442.8 433.4 427.6 425.8 422.9 422.4 418.8 416.6 416.5 422 427.5 431.4 435.8 442.7 448.7 452.7 458.7 464.2 469.3 474.8 479.1
329.9 316.2 304.5 291 279.2 266.9 255 243.9 232.6 221 208.6 198.3 187.7 177.7 166.6 157 149.9 142.6 132.8 119.8 109.6 105.1 105.1 105.1 105.1 105.1 105.1 105.1 105.1 105.1 105.1 105.1 105.1 105.1 105.1 105.1 105.1 105.1 105.1 105.1 105.1 105.1 105.1 105.1 105.1 105.1 105.1 105.1 105.1 105.1 105.1 105.1 105.1 105.1 105.1 105.1 105.1 105.1 105.1 105.1 105.1 105.1 105.1 105.1 105.1 105.1 105.1 105.1 105.1 105.1 105.1 105.1 105.1 105.1 105.1 105.1 105.1 105.1 105.1 105.1 105.1 105.1 105.1 105.1 105.1 105.1 105.1 105.1 105.1 105.1 105.1 105.1 105.1 105.1 105.1 105.1 105.1 105.1 105.1 105.1 105.1 105.1 105.1 108.9 110.3 111.5 112.8 114 117.2 122.1 126.9 127.9 124.3 127.1 131.8 136.1 140.8 144.6 147.8 151.8 157.7 162.5 166.6 171.6 178.1 185.1 192.3 199.3 205.7 212.3 219.6 226 232.1 237.1 242 247.5 255 261.2 268.8 282 293 304.5 309.7 317.4 326.7 338.2 349.6 360.7 376 394.5 412.8 435.2 454.5 466.6 472.3 482.6 493.7 504.4 509.9 511 511.8 512.4 505.9 496.7 480 464.7 457.8 461.4 468.2 469.4 465.6 462.5 458.9 456.1 453.7 452.4 450.5 448.5 446 440.9 435.7 433 428.9 423.7 422.3 420.8 420 418.4 420.7 427.9 431.2 434.2 440.6 447.6 452.7 457.6 463.4 468.5 473 476.4
320 305.2 295.7 283.5 272.2 259.9 247.9 236.2 224.5 213 202.3 192.1 182.3 172.4 162 153.5 145.1 136.6 124.4 113 105 105.1 105.1 105.1 105.1 105.1 105.1 105.1 105.1 105.1 105.1 105.1 105.1 105.1 105.1 105.1 105.1 105.1 105.1 105.1 105.1 105.1 105.1 105.1 105.1 105.1 105.1 105.1 105.1 105.1 105.1 105.1 105.1 105.1 105.1 105.1 105.1 105.1 105.1 105.1 105.1 105.1 105.1 105.1 105.1 105.1 105.1 105.1 105.1 105.1 105.1 105.1 105.1 105.1 105.1 105.1 105.1 105.1 105.1 105.1 105.1 105.1 105.1 105.1 105.1 105.1 105.1 105.1 105.1 105.1 105.1 105.1 105.1 105.1 105.1 105.1 105.1 105.1 105.1 105.1 105.1 105.1 108.9 112.5 116.3 118.9 120.7 122.1 124.3 131.3 137.1 138.8 140.4 132.8 138.4 142.9 147.8 152.4 156.6 160.7 166.2 171.3 176.3 179.1 185.9 193.2 200.1 206.8 214.9 221.3 227 231.6 236.6 241.7 246.6 252 259.3 264.7 272.9 284.4 296.6 305.9 313.3 320.8 329.7 340.3 352.6 364.6 379 395 411.1 431.9 451.4 463.6 470.9 483.2 495 505 511.2 511.8 512.1 509.2 502.3 492.6 472.7 460.1 464.5 473.7 480.5 477.9 472.3 466.7 462.2 458.2 456.1 455.6 454 450.8 447.7 444.5 439.8 436.5 432 427.2 424.1 423.3 423.4 424.1 423.8 425.5 429.8 435.7 442.9 447.4 451.8 456.1 462.9 468 472.1 475
311.4 300 288.4 276.6 265.2 253 240.7 229 217.1 205.7 195.5 185.6 175.9 166.5 157 148.3 138.8 128.5 117.8 108.1 105.1 105.1 105.1 105.1 105.1 105.1 105.1 105.1 105.1 105.1 105.1 105.1 105.1 105.1 105.1 105.1 105.1 105.1 105.1 105.1 105.1 105.1 105.1 105.1 105.1 105.1 105.1 105.1 105.1 105.1 105.1 105.1 105.1 105.1 105.1 105.1 105.1 105.1 105.1 105.1 105.1 105.1 105.1 105.1 105.1 105.1 105.1 105.1 105.1 105.1 105.1 105.1 105.1 105.1 105.1 105.1 105.1 105.1 105.1 105.1 105.1 105.1 105.1 105.1 105.1 105.1 105.1 105.1 105.1 105.1 105.1 105.1 105.1 105.1 105.1 105.1 105.1 105.1 105.3 108.9 110.2 111.8 116.6 122 126.1 128.9 131.8 132.4 134.6 141.3 146.7 148.7 146.1 141.7 146.5 151.6 156.5 160.9 165.1 168.9 174.6 181.4 187.7 190.2 194.3 201.4 208.4 214 221.7 227.6 233.2 237.4 241.5 246.3 251.8 258 265.2 269.4 278.1 288 299.9 309 317 323.2 332 341.6 353.1 368.3 383.5 400 413.3 428.3 443.9 457 469.4 481 491.9 500.8 504.2 507.9 509.5 504.3 496.8 484.6 468.2 464.1 471.5 485.9 489.2 485.1 479.2 474 468.5 463.3 461.8 464.4 461.6 456.6 451.8 450.5 444.5 439.5 432.5 428.6 426.1 428 427.1 429.7 429 431.3 430 434.6 441.6 447.8 451.9 454.7 461.5 467 470.9 474.1
303.5 292.3 280.7 269.3 257.7 246 233.8 221.6 209.5 198.1 188.5 178.9 169.5 160 150.9 141.8 132.4 121.3 111.2 105.1 105.1 105.1 105.1 105.1 105.1 105.1 105.1 105.1 105.1 105.1 105.1 105.1 105.1 105.1 105.1 105.1 105.1 105.1 105.1 105.1 105.1 105.1 105.1 105.1 105.1 105.1 105.1 105.1 105.1 105.1 105.1 105.1 105.1 105.1 105.1 105.1 105.1 105.1 105.1 105.1 105.1 105.1 105.1 105.1 105.1 105.1 105.1 105.1 105.1 105.1 105.1 105.1 105.1 105.1 105.1 105.1 105.1 105.1 105.1 105.1 105.1 105.1 105.1 105.1 105.1 105.1 105.1 105.1 105.1 105.1 105.1 105.1 105.1 105.1 105.1 105.1 106.9 112.9 117 118.7 120.6 122.9 128.2 133.9 136.4 139.3 141.7 143.6 146.5 150.7 154.3 156 153.3 147.7 155.7 161.2 166 169.1 171.7 176.2 183.5 191.8 199.3 202 203.7 210 216.1 221.5 226.6 230.6 237.2 242.7 246.9 250.8 258.4 265 269.3 275.1 283.5 292.9 303.9 313 318.2 324.3 333.5 343 353 367.4 382.5 397.2 411.2 424.2 436.7 449.7 464.9 476.3 484.5 492.3 496.2 500 501.2 495.9 489.4 477.6 470.1 468.8 479.1 493.6 493 489.4 483 477.8 474.1 468.5 467.1 467.4 463.4 459.6 455.8 452.2 447.2 439.8 437.1 433.2 431.2 432.6 430.5 432.1 431.9 435.7 438.1 439.4 439.2 447.1 450.7 453.1 459.2 465.6 470.4 473.4
294 283.3 272 261.8 250.5 238.8 226.2 213.9 202.4 191.2 181.7 172.3 162.7 153.3 143.8 133.8 123.5 111.7 105.1 105.1 105.1 105.1 105.1 105.1 105.1 105.1 105.1 105.1 105.1 105.1 105.1 105.1 105.1 105.1 105.1 105.1 105.1 105.1 105.1 105.1 105.1 105.1 105.1 105.1 105.1 105.1 105.1 105.1 105.1 105.1 105.1 105.1 105.1 105.1 105.1 105.1 105.1 105.1 105.1 105.1 105.1 105.1 105.1 105.1 105.1 105.1 105.1 105.1 105.1 105.1 105.1 105.1 105.1 105.1 105.1 105.1 105.1 105.1 105.1 105.1 105.1 105.1 105.1 105.1 105.1 105.1 105.1 105.1 105.1 105.1 105.1 106.2 108.3 109 111.6 116.2 121.9 124.4 127.3 130.3 133.5 137 141.5 145.6 146.9 149.4 152.8 155.6 158.5 161.3 163.6 164.8 161.9 145.6 165 171.8 173.7 176.6 179.6 185.1 192.5 200.4 207.5 210.4 212.1 216.7 222.3 228 232.5 237.8 241.3 246.2 250.9 255.9 262.7 268.6 273.5 280.2 288.8 296.4 305.9 313 318.9 326.1 334.8 343.5 353.7 366.3 378.7 391.9 406.1 420.3 432.6 446.5 460 470.4 478.4 484.5 488.1 490.5 490.3 486.8 482.1 475.2 472.1 474.7 485.9 495.2 494.4 489.8 484.1 481.5 478.9 474.2 471.8 469.9 465.5 461.5 457.3 452.9 446.9 444.5 442.1 438.8 437.2 436 435.2 434.6 434.4 436.2 437.1 438.2 439.3 445.5 449.9 452.3 456.8 465.1 470.4 474
289 278.5 265.8 254.4 242.7 230.1 217.2 206.7 196.4 185.5 175.2 165.8 156.1 146.3 137.1 125.3 112.8 105.1 105.1 105.1 105.1 105.1 105.1 105.1 105.1 105.1 105.1 105.1 105.1 105.1 105.1 105.1 105.1 105.1 105.1 105.1 105.1 105.1 105.1 105.1 105.1 105.1 105.1 105.1 105.1 105.1 105.1 105.1 105.1 105.1 105.1 105.1 105.1 105.1 105.1 105.1 105.1 105.1 105.1 105.1 105.1 105.1 105.1 105.1 105.1 105.1 105.1 105.1 105.1 105.1 105.1 105.1 105.1 105.1 105.1 105.1 105.1 105.1 105 105.1 105.1 105.1 105.1 105.1 105.1 105.1 108.8 109.3 108.5 109.5 111 112.4 114.7 118.2 122.6 127.1 130.8 134.1 138.3 144.8 149 151.3 154.2 154.5 155.4 158.2 161.2 164.4 167.9 169.7 172 174.2 170.4 144.8 170.8 179.3 182 184.2 189.2 195.8 202.2 208.5 213.1 216.5 218.7 222.7 227 232.3 239.3 243.4 246.7 249.6 252.4 259.9 266.1 271.3 276.1 283.5 292 299 307.9 313.7 321 327.9 335.5 345.5 355.5 365.6 376.4 388.1 403.9 417.4 428.9 442.9 455.3 464.4 472.3 477.5 480.7 482.2 480.8 480.5 478.7 477.3 474.8 478.6 489.3 491.2 491.2 487.8 485.6 485.6 483.3 479.3 475.3 472.4 467.8 463.1 458.8 453.1 450.4 446.7 445.3 443 440.1 438.8 437.8 437.1 436.7 436.5 437.6 438.8 442.3 444 449.7 452.9 459.6 466.5 470.6 474.8
282.5 270.8 258 246.4 233.8 221.3 210.5 200.6 189.5 178.8 168.7 158.6 149.2 139.4 129.5 115.7 105.1 105.1 105.1 105.1 105.1 105.1 105.1 105.1 105.1 105.1 105.1 105.1 105.1 105.1 105.1 105.1 105.1 105.1 105.1 105.1 105.1 105.1 105.1 105.1 105.1 105.1 105.1 105.1 105.1 105.1 105.1 105.1 105.1 105.1 105.1 105.1 105.1 105.1 105.1 105.1 105.1 105.1 105.1 105.1 105.1 105.1 105.1 105.1 105.1 105.1 105.1 105.1 105.1 105.1 105.1 105.1 105.1 105.1 105.1 105.1 105.1 109.1 110.4 108.4 107.5 107.1 109.4 110 109.9 112.8 114.1 115.4 116.5 119.1 121.1 122.8 125.2 129.5 134.2 138.3 142 147.3 153.1 160.2 163.1 164.8 164.5 163.6 164.7 168.9 172.2 176.2 178.8 179 180.5 181.3 178 151.5 174.8 185 188.8 193.2 201.3 208.2 212.1 215.1 218.7 222.4 227.7 232.4 235 237.2 243.3 248.2 251.8 255.3 256.2 261.7 269.3 273.3 278.2 286.4 294.7 301.7 310.6 315.9 326.1 332.3 339.4 348.6 358.5 365.5 375.3 385.9 400.4 412.8 424.6 439.4 451.6 459.9 467.1 471.8 474.7 476.5 476.9 478.3 478.4 479.9 476 482.5 490.8 491.3 493.2 493.5 490.7 493 490.1 484.7 480.3 475.4 470.4 465.7 460.3 455.7 454.8 452.4 447.9 446.7 444.6 442 440.3 439.7 437.8 438.9 440 441.3 444.3 445.6 453 454.9 460.1 467.8 470.4 474.5
273.7 261.3 249 238.3 226.9 217.1 206.2 194.6 183.2 171.8 161.6 151.5 141.5 131.1 118.8 105.1 105.1 105.1 105.1 105.1 105.1 105.1 105.1 105.1 105.1 105.1 105.1 105.1 105.1 105.1 105.1 105.1 105.1 105.1 105.1 105.1 105.1 105.1 105.1 105.1 105.1 105.1 105.1 105.1 105.1 105.1 105.1 105.1 105.1 105.1 105.1 105.1 105.1 105.1 105.1 105.1 105.1 105.1 105.1 105.1 105.1 105.1 105.1 105.1 105.1 105.1 105.1 105.1 105.1 105.1 105.1 105.1 105.1 105.1 105.1 104.9 109.5 112.8 115.8 117 117.4 120.4 122.1 122.5 123.1 124.2 124.6 125.6 126.6 129.4 131.7 133.6 137.1 141.5 146 150.6 156.1 161.8 167.5 172.7 173.2 172.4 172 171.5 174.7 181 185.7 190 191.8 189.7 189.3 188.3 183.6 158.3 180.6 190.6 195.8 203 211.2 217.6 220 221.8 224.6 229.6 237.2 243.2 244.2 245.7 248.5 252.8 257 262.4 265.4 265.5 270.1 274.8 280.4 288.8 296.4 304.4 312.2 317.9 328 338.1 345.2 354 358.3 365.9 375.1 384.5 396.5 408.6 419.9 433 445.2 455.2 462.1 466.5 469 471.6 474.7 476.7 477.4 476.9 477.1 483.1 491.1 492.6 495.8 497.9 496 493.7 491.1 487.5 482.8 478.8 473.9 467.9 461.8 459.7 461.1 458.3 453.2 450.3 449.2 446.6 443.5 440.8 439.2 442.6 443.6 443.7 445.9 448.4 455.2 458 457.8 464 470.6 475.1
264.8 251.8 240.5 230.6 220.9 211.5 200.9 188.2 176.4 164.8 154.9 144.6 133.2 120.2 106.3 105.1 105.1 105.1 105.1 105.1 105.1 105.1 105.1 105.1 105.1 105.1 105.1 105.1 105.1 105.1 105.1 105.1 105.1 105.1 105.1 105.1 105.1 105.1 105.1 105.1 105.1 105.1 105.1 105.1 105.1 105.1 105.1 105.1 105.1 105.1 105.1 105.1 105.1 105.1 105.1 105.1 105.1 105.1 105.1 105.1 105.1 105.1 105.1 105.1 105.1 105.1 105.1 105.1 105.1 105.1 108.1 110.4 111 112.2 114.6 117.3 120 122.4 124.8 127.8 128.1 130.7 133.8 135.8 137.4 137.4 136.7 136 137.2 139.8 143 146.2 151 156 160.9 165.9 171.4 174.7 176.3 177.8 178.3 179 181.1 183.7 188.4 194.1 199.6 205 203.9 199.4 197.1 195.8 193.9 166.3 186.4 199.8 206.6 212.5 219 222.6 225.4 228.9 234.2 240 246.7 250.4 252.4 254.5 257.6 260.2 265 269.5 272.4 270.9 270.5 276.2 283.3 291.5 300.5 309.1 315 319.9 327.9 337.3 345.8 352.9 359.3 366.6 374.8 383.5 396.3 405.7 415.5 425.5 437.5 447.8 455.4 460.7 464.1 467.6 472 474.6 477.7 478.2 480.3 487.3 491.3 493.6 495.7 496.3 494.4 492.3 490.2 488.3 484.7 481.6 475.5 471.7 468.7 466.4 464.8 461.4 457.8 455.1 453.2 451.4 448.1 444.2 443.4 444.3 445.8 447.3 449.7 451.6 458.5 459.8 459.7 466.7 472.8 476.5
256.2 242.4 232.6 225.4 215.4 204.8 193 180.9 169 157.7 147.4 136.8 123.6 110.9 105.1 105.1 105.1 105.1 105.1 105.1 105.1 105.1 105.1 105.1 105.1 105.1 105.1 105.1 105.1 105.1 105.1 105.1 105.1 105.1 105.1 105.1 105.1 105.1 105.1 105.1 105.1 105.1 105.1 105.1 105.1 105.1 105.1 105.1 105.1 105.1 105.1 105.1 105.1 105.1 105.1 105.1 105.1 105.1 105.1 105.1 105.1 105.1 105.1 105.1 105.1 105.1 105.1 105.4 108.8 112.8 116.6 118.6 120.3 124 127.5 130.3 132.7 134.7 137.4 140.2 141.1 143 145.8 148.4 148.9 148 146.9 145.8 148.1 151.2 155.1 159.4 164.5 170.1 174.9 178.7 181.7 183.6 184.8 186.6 189.6 192.4 195.2 198.4 201.7 205.9 210.2 211.7 209.8 207.2 207.3 205.1 203.1 186.1 182.4 205.7 216.4 221.3 225.2 228.6 232.9 238.6 243.8 249.8 253.7 257.5 260.5 265.3 266.8 268.8 271.5 273.7 275.3 275.6 275.3 280.8 287.1 294.8 305.2 313.4 318.1 323.4 331 339.6 347.1 354 361.5 367.6 374.7 383.3 395.3 404.3 413.2 421.3 430.3 440.5 448.8 455.4 460.2 464.5 469 472.5 475.9 478.8 482.2 486.8 489.7 493.1 496.3 497.3 497.1 494.7 491.7 489.3 486.5 483.4 478.2 474.6 473.3 471.4 467.7 465 461.8 458.5 456.5 454 451.1 449 447.3 448.2 450.1 452 452.3 455.3 461.2 462.4 463.7 469.9 473.3 477.8
246.6 237.2 228.9 220.6 209.2 197 184.8 172.8 161.4 150.2 140.6 129.3 114.6 105.1 105.1 105.1 105.1 105.1 105.1 105.1 105.1 105.1 105.1 105.1 105.1 105.1 105.1 105.1 105.1 105.1 105.1 105.1 105.1 105.1 105.1 105.1 105.1 105.1 105.1 105.1 105.1 105.1 105.1 105.1 105.1 105.1 105.1 105.1 105.1 105.1 105.1 105.1 105.1 105.1 105.1 105.1 105.1 105.1 105.1 105.1 105.1 109.7 115.1 115.1 116.3 117.8 118.6 120.9 124.5 126.7 129 131.2 134.1 138.1 142.2 143.8 145.1 147.3 150.4 152.4 153.9 156.1 157.3 158.3 159.1 159 159.3 156.8 158 161.7 166.6 172.9 177.9 183.1 187.3 190.1 192.8 195.4 196.7 199.6 203.1 206.5 209.8 211.9 213.9 214.9 215.8 216 215.6 215.8 215 213.1 211.2 199.6 170.1 212.9 222.8 230.3 234 237.5 242.7 248.3 252.5 256 259.6 264.3 270.1 273.1 274.3 274.7 275.2 275.9 278.8 279.9 279.9 284.7 290.8 297.6 307.3 315.7 320.7 326.4 334.3 342.9 350.3 357.4 365.2 372.9 380.2 386.8 395.2 400.9 409.9 418.6 427.3 436.8 445.4 452.9 459 462.9 466.8 470.9 476.2 480 483.4 487.4 491.1 495.3 498.3 500.5 503.9 501.1 496.1 492.3 489.2 485.9 481.9 478.9 475.5 472.3 468.7 468.4 466.1 463 459.6 456.7 454.5 453.3 452.7 454.1 454.7 454.4 454.9 459.5 462.7 464.4 467.8 471 474.3 478.8
241.4 231.6 222.5 212.7 201.1 188.9 176.7 164.8 153.2 141.4 130.1 118.3 105.1 105.1 105.1 105.1 105.1 105.1 105.1 105.1 105.1 105.1 105.1 105.1 105.1 105.1 105.1 105.1 105.1 105.1 105.1 105.1 105.1 105.1 105.1 105.1 105.1 105.1 105.1 105.1 105.1 105.1 105.1 105.1 105.1 105.1 105.1 105.1 105.1 105.1 105.1 105.1 105.1 105.1 105.1 105.1 105.1 105.1 107.4 117.3 123 127.1 129.3 130.3 131.8 131.9 131.2 133.4 139 141.2 146.6 150.9 155.7 158.7 161.2 160.8 160.5 160.7 163.2 164.7 166 167.6 168.5 169.5 174 175.7 174.6 171.2 170.7 173.3 178.4 185 191.2 195.8 200.3 204.2 207.4 209.9 211.7 213.7 216.4 219.5 223 225.4 223.5 222.6 224.3 227.1 227.2 227.6 226.6 223.5 221.7 216.8 217.3 208.3 229.8 239.3 243.4 246.5 251.4 255.9 259 261.6 266 271 274.8 277.8 278.8 279.2 279.3 280.7 282.6 283 284.8 289.2 294.7 300.5 307.5 315.4 321.6 329.5 338 346.3 353.5 360.2 368.9 376.9 384.5 392.2 399.4 406.5 413.8 422.1 428.1 435.4 443.3 451.4 456.7 461.1 466 471 476.5 480.7 484.5 489.2 493.5 497.5 501.2 504.8 507.1 503.7 501.8 497.3 492.8 488.5 485.1 481.7 478 473.8 473.1 472.1 469.4 465.6 462.4 461.5 459.3 457.9 457.3 457.7 458.3 458.8 459.9 461.4 463.2 466.3 469.3 473.4 476.5 479.1
236.5 226.1 216.1 203.9 192.5 180.3 167.6 155.7 144.6 133.3 121.2 105.1 105.1 105.1 105.1 105.1 105.1 105.1 105.1 105.1 105.1 105.1 105.1 105.1 105.1 105.1 105.1 105.1 105.1 105.1 105.1 105.1 105.1 105.1 105.1 105.1 105.1 105.1 105.1 105.1 105.1 105.1 105.1 105.1 105.1 105.1 105.1 105.1 105.1 105.1 105.1 105.1 105.1 105.1 105.1 105.1 107.6 114.6 123.3 129.9 135.2 138.5 142.2 144.2 146.7 147.3 147.2 151.5 157.1 161.5 165.5 170.5 174.8 180 183 180.6 177.6 176.7 176 175.4 176.1 177.8 178.7 180.1 181.7 182.6 182.2 182.1 182.6 185.7 190.6 197.4 205.6 209.6 213.6 217.4 220.4 223 225.7 227.3 229.3 231.9 235.1 236.1 233.7 232.7 234.4 237 238.7 238 237.2 234.7 232.3 231.8 232.1 230.9 236.5 245.9 251.9 253.8 257.9 261.7 265.4 269.1 273.6 277.5 280 281.7 283.8 286 285.8 287.7 289.5 284.1 290.4 294.6 298.4 303.3 309.8 316.8 324.1 332.6 341.6 350 355.7 362.4 373.4 381.9 389 396.1 402.7 409.5 417.2 425.5 432.5 440 446.9 452.2 456.6 461.6 467.6 473.7 477.7 480.9 484.8 489.4 494.1 498.5 503.7 507.6 509.5 511.6 511.5 504.7 497.4 491.3 487.8 484.4 482.4 478.4 474.9 473.1 472.1 468.2 467.3 466.3 464.3 462.3 461.4 461.4 461.8 462.9 464.2 464.5 466.3 469.8 471 474.4 477.9 481
228.9 218.8 207.6 195.2 183.7 171.5 158.5 146 134.9 124 111.2 105.1 105.1 105.1 105.1 105.1 105.1 105.1 105.1 105.1 105.1 105.1 105.1 105.1 105.1 105.1 105.1 105.1 105.1 105.1 105.1 105.1 105.1 105.1 105.1 105.1 105.1 105.1 105.1 105.1 105.1 105.1 105.1 105.1 105.1 105.1 105.1 105.1 105.1 105.1 105.1 108.3 111.5 114 117.5 118.7 122.2 129.4 137.1 142.4 146.9 150.4 153.9 156.8 160.9 164 167.8 171.5 175.7 180.3 184.7 189 192.9 195.6 196.3 194.4 192 189.8 188.3 187 187.1 189.2 191 191 190.8 191 192 193.2 196 199.2 204 210.6 218.1 223 226.6 230.3 232.2 234.9 236.3 238.4 241.8 245 246.9 246.3 246.4 246.9 246.5 247.3 250.3 247.4 244.1 242.9 242 242.5 243.9 242.3 238.3 247.9 256 258.6 263.1 270.2 275.1 278 280.6 283.1 285.1 288.2 291.3 293.3 293.2 294.8 295.5 293.6 293.5 299.1 302.5 307 313.4 319.8 327.8 336.2 345.3 353.5 359 367.5 377.9 385.3 392.1 399.9 407.9 416.5 424.2 430.1 436.8 444.3 451.3 455.3 459.6 465 471.1 475.6 479 481.5 484.6 488.6 493.7 498.7 503.6 508.1 511.2 513.7 512.6 506.6 501.9 497.4 492.7 489.2 487.2 482.4 478.5 477.2 476.6 474.1 472.8 470.5 468.7 465.4 466.1 466.2 466.1 467.1 468.7 469.8 470.9 471.7 473.1 478.2 482.8 486.6
220.8 210.3 197.8 186.6 174.8 162 149.2 136.5 125.1 112.9 105.1 105.1 105.1 105.1 105.1 105.1 105.1 105.1 105.1 105.1 105.1 105.1 105.1 105.1 105.1 105.1 105.1 105.1 105.1 105.1 105.1 105.1 105.1 105.1 105.1 105.1 105.1 105.1 105.1 105.1 105.1 105.1 105.1 105.1 105.1 105.1 105.1 105.1 105.1 105.1 114.1 119.9 123.7 128.9 136 137.3 138.1 144 151.1 155.2 159 163 167 170.5 176.8 180.5 184.5 189 192.8 197.2 201.4 205 206.6 206.8 206.8 206.3 204.7 203 201.6 200.8 200.8 201.6 202.3 202.3 202.7 203.4 206.3 208.9 210.5 213.7 218.6 225 231.7 236.4 239.3 242.9 244.4 246.3 249 252 255 257.5 258.7 258.5 258.1 258.8 260 257.6 259.6 260.3 254.9 253.6 254.8 255.2 255.7 254.3 238.3 251.5 259.8 266.6 273.5 280.3 283.3 283.7 285.3 289 292.9 296.2 298.8 299.9 299.8 300.7 300.8 299.6 295 302.5 307.1 311.3 316.7 322.9 331.5 340 348.2 354.6 362.2 372.8 381.7 389 395.9 403.9 412.5 419.3 427.8 435.5 441.9 448.6 455 459.2 463.4 468.3 473.3 477.6 481.4 482.9 485.4 489.7 494.3 499.1 503.6 506.1 510.3 514 513.7 507.5 503.4 500.3 496.7 494.2 490.2 486.4 484.5 482.6 480.3 478.3 476 474.3 474.5 472.6 471.6 471.4 470.4 472.7 474.2 474.8 475.1 476.3 477.6 483.1 487.6 491.2
213.1 200.4 188.4 177.8 166.4 153.8 141.2 128 117.9 105.1 105.1 105.1 105.1 105.1 105.1 105.1 105.1 105.1 105.1 105.1 105.1 105.1 105.1 105.1 105.1 105.1 105.1 105.1 105.1 105.1 105.1 105.1 105.1 105.1 105.1 105.1 105.1 105.1 105.1 105.1 105.1 105.1 105.1 105.1 105.1 105.1 105.1 105.1 111.1 119.8 128 134.3 140.9 146.9 152.6 154.5 155.7 158.2 164.3 168.2 172 177 182.2 186.8 192.5 196.5 199.7 203.2 206.7 210.6 214.6 217.4 218.6 218.2 217.9 217.4 216.5 216 213.9 213.6 212.2 212 212.8 214.6 216.8 217.6 221.2 224.1 226.8 229.7 236 241 245.7 249 250.6 253.8 256.2 259.7 263.2 266.3 268.7 269.9 270.2 270.4 269.9 270.4 271.7 270.5 272.2 273.3 267.6 267.4 265.9 265.6 266.6 267.2 253.5 258.3 269.6 273.7 278.5 281.6 284 288.4 292.4 296 300 304 305.9 306.2 306.2 306.9 306.5 305.9 305.3 299.8 310.8 316.4 320.4 325.7 334.2 342.2 349.7 356.8 365.3 374.4 384.6 392.7 400.3 408.3 416.8 424.5 433.8 444.2 451 456.5 459.7 464.5 468.1 471.9 475.5 479.4 482.8 484.4 487.7 491.6 495.6 501.2 504.7 506.2 508.2 510.6 509.6 507.3 505.3 502.1 498.5 495.4 492.2 490.4 488.7 486 484.4 482.6 481.6 480.5 479 478.1 477.6 475.9 476.3 479 479.7 481.7 482.5 482.7 485.6 489.6 494.2 496
201.4 190 180.1 170.1 159 146.4 132.4 122.5 107.1 105.1 105.1 105.1 105.1 105.1 105.1 105.1 105.1 105.1 105.1 105.1 105.1 105.1 105.1 105.1 105.1 105.1 105.1 105.1 105.1 105.1 105.1 105.1 105.1 105.1 105.1 105.1 105.1 105.1 105.1 105.1 105.1 105.1 105.1 105.1 105.1 105.1 107.1 117.7 125.9 134.6 141.7 148.1 155.9 162.3 168.7 175.8 180.6 177.1 179.8 182.3 185.8 191.9 198.2 202 206 209.4 212.7 216 219.6 223.6 227.2 229.4 229.4 228.1 227.6 227 226.3 225.3 224 224.5 222.9 223.2 225.4 227.1 228.1 231.2 237.6 240.6 242.1 245.2 249.5 253.8 258.3 262.3 263.6 267 270.5 274.1 277.8 281.4 281.5 282.2 282.8 282.8 283.3 284.6 285.7 285.5 285.6 284.3 280.4 279.5 278.4 276.4 274.2 273.6 261.3 262.6 272.5 275.9 279.3 283.6 288.5 293.3 297.9 302.5 306.7 310.6 312.6 312.3 312.3 312.1 312.9 312.4 313.4 309.7 308.8 320.3 326 330 336.3 344.7 353 360.9 369.5 377.2 386.9 395.9 404.1 412.3 421.6 430.4 441 453.2 456.8 461.8 464.9 468.8 473.9 476.7 478.3 481.6 484.5 486.5 490.3 494.8 498.7 505.2 508.2 507.8 506.8 505.5 505.2 504.2 503.1 501.1 498.1 495.2 492.8 491.6 490.5 489.7 488.2 487.8 486.4 484.9 482.4 483 483.6 482.4 483.4 484.4 485.4 488.5 489.5 491 492 495.2 499.7 500.6
192.5 183.1 173.5 163.7 152.2 137 122.1 109 105.1 105.1 105.1 105.1 105.1 105.1 105.1 105.1 105.1 105.1 105.1 105.1 105.1 105.1 105.1 105.1 105.1 105.1 105.1 105.1 105.1 105.1 105.1 105.1 105.1 105.1 105.1 105.1 105.1 105.1 105.1 105.1 105.1 105.1 105.1 105.1 105.1 111.9 121.5 131.6 139.6 148.1 155.6 163.3 170 178.4 185.9 194.7 198.5 195.4 194.4 196.7 200.5 207.7 213.1 215.5 217.9 221 224.2 227.8 231.4 235.9 239 240.3 240.1 238.6 237.8 237.3 236.7 236.8 234.8 233.7 232.4 233.1 234.4 235.8 237.5 244.9 250.5 252.6 254.8 258 262.3 266.7 272 275.7 276.7 280.6 284.7 287.9 290.2 292.1 293.1 294.7 295.1 296.2 298.2 299.3 299.3 298 296.3 293.7 291.1 287.6 284.3 279.4 276.3 276 271 254.8 271.8 278.2 284.5 291.2 295.4 299.4 303.4 308 311.8 315.1 316.2 316.4 316.3 316 316.4 318.2 320.1 320.6 313.2 324.9 330.9 335 339.7 348 356.2 366.3 373.4 380.2 389 398.2 406.8 415.1 425.5 435.1 445.4 454.1 459.5 467.3 470.8 474.8 481.2 482 483.5 485 486.7 488.4 492.6 496.7 503.1 508 512.2 512.6 509.1 506.4 505 503.6 502.1 500.6 498.5 496.2 494 493.2 492.8 493.3 493.2 493.1 491.2 490.8 489.4 489.1 489.7 489.7 489.8 489.4 491.3 494.3 496.8 498.6 498.9 498.3 501 503.7
187.7 177.5 167.2 157.3 145.3 126.4 107 105.1 105.1 105.1 105.1 105.1 105.1 105.1 105.1 105.1 105.1 105.1 105.1 105.1 105.1 105.1 105.1 105.1 105.1 105.1 105.1 105.1 105.1 105.1 105.1 105.1 105.1 105.1 105.1 105.1 105.1 105.1 105.1 105.1 105.1 105.1 105.1 105.1 114.8 123.4 133 144.7 154.1 163.4 170.7 177.4 186.7 193.1 199.3 203.5 203.4 205.4 208 211 214.8 220.1 224.1 227 230.2 233.4 235.5 238.9 242.3 245.9 248.5 249.7 250.4 250 248.8 248.1 245.5 243.3 243 242.2 242.8 243.4 243.8 245 249.4 255.8 258.8 261.2 264.1 268.7 274.1 280 285.8 289.4 290.7 294 297.9 300.7 302 302.8 305 306.9 308.2 309.7 309.7 308.5 306 305.5 304.6 302.7 299.4 295.1 289.8 284.5 281.2 280.6 278.2 268.7 270 283.4 290.1 295.4 301.1 306.6 311.5 315.2 317.5 319.4 320.6 320.8 320.5 321 322.2 324 327.7 327.8 324.9 325.9 334.5 338.6 343.2 350.7 358.3 367.6 375.2 383.3 391.3 400.6 408.9 418 427.8 437.2 447.9 456.1 464.1 471.6 477.9 484.1 487.8 488.7 490.3 490.6 489.7 491.5 495.7 499.3 505.7 512.4 515 513.8 510.6 508.9 508 506.1 504.9 503.4 500.8 499.8 499.9 498.6 498.4 499.7 499.9 499.3 498.7 498.2 496.8 495.7 495.1 496 496.9 497 497.8 499.4 502.1 505.1 505.3 501.8 503.9 507.9
182.2 172.4 161.9 151.1 134.2 113.9 105.1 105.1 105.1 105.1 105.1 105.1 105.1 105.1 105.1 105.1 105.1 105.1 105.1 105.1 105.1 105.1 105.1 105.1 105.1 105.1 105.1 105.1 105.1 105.1 105.1 105.1 105.1 105.1 105.1 105.1 105.1 105.1 105.1 105.1 105.1 105.1 107 117.5 128.2 137.4 148.8 158 167.6 177 185.1 194.6 203.9 208.6 212.1 214.2 215.6 217.9 222 225.3 229.9 233.2 236.9 240.2 243.5 245.5 246.9 249.5 251.7 254.9 257.3 258.8 259.5 259.7 259.2 258.3 255.1 252.4 251.9 251.7 252.5 253.3 254.4 257.9 262.8 266.7 268.6 270.9 274.6 279 284.9 291.1 297.8 301.9 303.5 307 310.6 312.8 314.3 315.4 317.4 318.7 318.9 318.6 318.1 316.9 315.9 314.7 314.5 312 308.5 302.6 295.7 291.7 287.8 286 285.5 281.8 261.1 284.5 294 300.3 307.3 314.1 318.7 322.4 324.4 325.7 326.4 326.8 327.3 328.2 329.7 333.8 336.5 336.8 333.2 323.2 337.7 342.6 347.6 354.2 360.7 368.6 377.4 385.7 393.8 402.2 410.9 419.8 429.7 440.6 451.8 461.2 470.5 477.2 485.5 493.7 498.7 502 502.6 501.6 497.9 496 498.3 502.8 508.2 515.1 515.1 513 513.1 513 513 510.7 508.5 506.9 509.3 511.3 511.4 510.3 507.4 507.9 507.3 506 506 505.7 504.8 503.6 501.7 503.3 505.4 505.2 505.6 507 508.7 511.8 513.6 508 508.3 509
176.3 166.3 156.6 140.9 122.8 105 105.1 105.1 105.1 105.1 105.1 105.1 105.1 105.1 105.1 105.1 105.1 105.1 105.1 105.1 105.1 105.1 105.1 105.1 105.1 105.1 105.1 105.1 105.1 105.1 105.1 105.1 105.1 105.1 105.1 105.1 105.1 105.1 105.1 105.1 105.1 108.4 119.2 129.1 140.7 152.3 163.3 174.5 185.7 193.8 201 210.4 218.8 223.5 225.4 225.8 227.7 231 234.4 238.3 243.6 245.9 248.6 251.7 254.7 256.3 257.5 259.1 260.7 262.8 265.5 267.2 267.2 266.9 266.6 265.2 261.2 260.8 260.9 261.8 262.4 263.5 265.7 270.7 275 276.5 278.7 282.4 286.5 290.8 296.5 303.1 310.3 314.3 316.8 319.1 321.5 323.4 325.3 327.1 327.9 328.1 328 327.6 327 326.9 326.3 324.4 323.6 320.1 317.3 311.7 305.1 299.4 294.2 292.5 292.2 290.5 275.8 284.3 297 305.1 313.5 319.5 324.4 328.9 331 332.6 333.4 333.8 333.3 333.4 335.1 341 344.4 345.9 344.8 333.2 332.3 343.7 350.5 356.1 362.8 370.1 377.9 386.3 395.7 405 413.8 422.7 432 442.4 453.1 464.5 475.3 483.2 495.2 504.7 514.9 516.8 513.9 514.1 506.7 501.4 500.7 504.7 509.1 513.2 514.6 515 516.9 520.1 522.8 518.6 516.2 517.7 522.3 522.8 522.2 520.5 518.1 517.9 517.2 515.4 515.5 515.1 513.9 510.7 510.5 512.9 513.3 512 513.4 515.6 516.6 518.4 516.8 512.4 509.7 509.8
169.6 158.7 147.6 130.9 109.5 105.1 105.1 105.1 105.1 105.1 105.1 105.1 105.1 105.1 105.1 105.1 105.1 105.1 105.1 105.1 105.1 105.1 105.1 105.1 105.1 105.1 105.1 105.1 105.1 105.1 105.1 105.1 105.1 105.1 105.1 105.1 105.1 105.1 105.1 105.7 114.9 127.1 136 145.9 156.3 167.1 179.9 191.3 199.9 207.9 215.2 224.4 231 234.1 235.5 236.2 239.5 243 246.6 250.5 254.3 256.6 259.1 262.1 264.9 266.1 266.9 267.8 269.3 270.7 272.3 273.1 272.2 271.3 270.8 267.7 267.3 268.5 270.3 272.1 272.8 274.6 278.3 283 284.9 285.9 288.4 292.3 298.1 303.2 309.9 317.2 322.5 325.2 327.8 330.1 331.9 333.3 334.5 335.7 337.2 337.2 337.1 336.7 336.2 335.6 335 334 332.1 328.4 324.4 318.1 312.1 306.5 300.8 298.9 297.9 295.9 286.4 287.9 301.8 310.6 318.8 323.6 329 334.1 336.6 338.6 339.6 339.4 337.8 339.6 342.4 344.5 349.7 351.9 349.8 346 342.1 335.8 349.2 357.8 364.5 371.4 378.8 386.8 396.3 405.8 416 425.6 435.3 446 456.7 467.3 476.9 488.3 499.8 514.1 523 524.3 521.1 523.1 514 506.6 504.5 506.9 511.1 514.9 516.1 518.3 520.4 527.6 531.3 526.2 525.6 527.5 529 529.8 529.7 530.5 529.7 528 526.8 524.5 524.4 523.7 523.2 522.1 523.2 522.6 521.1 521.1 521.3 522.5 522.3 522.1 521.4 516.3 509.7 509.9
160.7 149.3 136.3 120.7 105.1 105.1 105.1 105.1 105.1 105.1 105.1 105.1 105.1 105.1 105.1 105.1 105.1 105.1 105.1 105.1 105.1 105.1 105.1 105.1 105.1 105.1 105.1 105.1 105.1 105.1 105.1 105.1 105.1 105.1 105.1 105.1 105.1 105.1 115 123.5 133.2 143.3 154.1 165 172.6 181.4 193.5 204.9 213.8 221.4 229.3 237.2 241.4 243.3 246.4 248.6 251.2 254.5 257.3 260.8 264.3 266.9 269.6 271.8 273.6 275.1 276 276.5 277.5 278.8 278.8 278.7 277.3 276.2 276.1 274.8 275.8 278 280.7 282.7 284.3 288 291.8 294.6 295.6 296.8 299.9 305.2 310.8 316.9 323.9 329.7 333.9 336.5 338.6 340.4 341.5 342.7 344 345 346.4 346.6 346.8 346.5 345.6 345.6 344.3 342.8 340.4 337.1 331.2 325.2 319.7 313.9 308.2 304.7 302.1 301.2 295.6 291.7 307.9 316.9 322.4 327.3 333.7 339.1 342.3 344 345.3 346.1 347.4 346.5 350.7 349.9 352.6 353.7 352.5 353 351.2 349.6 342.8 358.4 365.7 372.8 380.2 388 397.4 406.6 416 426.7 436.9 447.5 459.6 471.7 478.8 489.7 501.2 514.8 520.9 524.1 522 522.4 518.7 512.9 508.7 509.2 513.2 515.8 518.2 521.8 524.8 532 534.5 532.7 532.5 533.5 534.7 535.8 537.6 538.3 538.4 538.4 537.3 535.1 532.6 531.9 530.9 532.4 532.5 532 530 530 529.7 528.9 528.1 527.2 524.2 517.2 511.8 511.8
150 136.5 121.5 105.1 105.1 105.1 105.1 105.1 105.1 105.1 105.1 105.1 105.1 105.1 105.1 105.1 105.1 105.1 105.1 105.1 105.1 105.1 105.1 105.1 105.1 105.1 105.1 105.1 105.1 105.1 105.1 105.1 105.1 105.1 105.1 105.1 113 123.4 131 138 147.8 157.9 169.4 179.7 186 194.4 205.1 216.7 226.5 233.7 240.2 247 249.9 252.2 256.4 259.1 261.9 264.9 267.5 270.9 274.3 277.2 280 281.6 282.7 284.2 284.4 284.6 285.5 286 286.4 285.2 282.9 282.7 283 283.7 286.2 289.3 291.4 294.2 297.6 301.7 305.2 306.9 308.7 310 313.8 318.8 323.9 328.6 335.7 340.3 343.5 346.5 348.7 350.7 351.8 353.3 354.7 354.3 355.9 356.3 356.5 356.8 355.6 354.2 352.7 351.3 349.4 345.8 339.8 332.3 327.4 320.8 314.6 310.8 308.1 306.8 303 290.7 311.5 320.9 327 333.3 339.7 344.2 346.8 348.3 349.8 353.1 354.1 352.3 354.9 356.1 356.7 359.9 358.2 356.8 354.3 356.1 355.8 354.7 366.7 373.7 380.9 388.8 397.2 406.7 416.4 426.7 436.5 446.5 456.1 470.2 477.7 488.2 500 511.5 518.1 520.3 520.3 520.8 519 514.2 510.1 509.7 511.7 515.3 522.3 525.9 530.2 534.8 537.4 540.8 542.2 540.3 541.2 543.9 545.1 546.8 548.7 549.9 550.7 548.1 544.7 540.6 540.4 541.1 542.1 541.6 540.2 539.2 539.8 538 535.7 532.9 528.6 520 516.1 512.3
138.5 122.1 105.1 105.1 105.1 105.1 105.1 105.1 105.1 105.1 105.1 105.1 105.1 105.1 105.1 105.1 105.1 105.1 105.1 105.1 105.1 105.1 105.1 105.1 105.1 105.1 105.1 105.1 105.1 105.1 105.1 105.1 105.1 105.1 105.1 111.1 127.1 136 143.7 151.1 160.6 170.6 180.9 188.8 196.8 206.3 217.5 228.5 238 244 249.8 256.3 259.6 260.7 264.8 268.6 272.8 275.6 278.1 281 284.5 287.3 289.5 291.3 292.1 292.9 292.9 292.6 292.5 292.1 292 290 288.7 289.2 291 293.5 297.1 300.5 303.8 308 311 316.2 318.4 320 321.2 323 327.3 331.2 334.7 341.3 346.3 348.6 352.7 357 359 360.9 362.1 363.9 364.4 364 365.2 366 366.1 366.3 365.6 364.6 361.3 359.9 357.3 354.1 347.9 340 334.2 327.9 321.5 316.9 314.4 312.3 307.6 288.5 315.7 323.6 332.2 338.8 344.3 348 351.2 353.8 355.8 360.2 360.7 360.5 360.6 362.9 364.2 366.2 362 361.9 363 363.5 362.5 356.1 365.1 374 381.1 388.7 396.8 406.5 416.3 425.7 436.3 446.3 453.5 463.2 474.7 484.8 494.7 506 512 514.9 516 516.8 516.3 511.6 509.1 509.6 512.1 519.9 529 530 532.6 535.4 539.1 544.2 546.7 546.9 549.8 553.7 558.4 558.7 559 558.8 558.1 557.7 553.8 550.1 549.7 550.2 553 552.1 550.8 549.5 547.2 544.6 542.7 539.2 534.7 526.9 522.2 515.5
126.1 105.9 105.1 105.1 105.1 105.1 105.1 105.1 105.1 105.1 105.1 105.1 105.1 105.1 105.1 105.1 105.1 105.1 105.1 105.1 105.1 105.1 105.1 105.1 105.1 105.1 105.1 105.1 105.1 105.1 105.1 105.1 105.1 105.1 111 123.8 137.7 147.9 155.8 164.6 173.5 182.1 189.5 198.3 208 218.5 229.9 240 248.5 253.4 258.2 264.6 267.4 269.3 274.1 280 284.7 286.7 289.1 291.9 294.8 297.7 299.6 301.5 302.1 302.7 302.8 301 299.7 298.4 296.4 294.7 294.9 296.2 300.7 303 307.3 311.7 316.6 319.9 323.5 326.2 329.2 330.8 331.2 334.8 339.2 342.8 346.4 351.3 355 358.7 363.2 367.9 370.9 371.9 372.1 374.5 374.5 373.9 374.5 375.2 376.1 375.9 374.3 372.7 370.2 366.9 363.1 359.7 353.8 346.9 340.3 333.7 328 323.8 320.2 316.3 300.1 304.8 321.7 329.8 338.9 344.3 349.3 354 357.6 360.3 364.5 365.5 366.1 366.6 364.8 367.4 372 371.3 369.9 371.4 371.2 370.6 368 368.3 357.8 374.7 381.5 388 396.1 405 414.2 423.6 433.1 443 450.6 459.8 470.9 482.1 490.2 501.3 506.4 509.7 512.6 511.6 510.8 508.4 507.9 509.3 516.4 525.2 531.9 532.6 533.3 535.3 539.2 545.2 549.8 554.6 562.5 570 571.6 568.7 565.9 564.7 564.1 563.8 562.2 559.9 559.9 559.6 561.3 562.8 561.1 559.4 557.2 553 547.5 544.1 541.4 534.1 522.7 520.4
112.5 105.1 105.1 105.1 105.1 105.1 105.1 105.1 105.1 105.1 105.1 105.1 105.1 105.1 105.1 105.1 105.1 105.1 105.1 105.1 105.1 105.1 105.1 105.1 105.1 105.1 105.1 105.1 105.1 105.1 105.1 105.1 105.1 111.7 121.4 134.6 147.4 158.3 167.6 176.6 185.1 192.1 198 208.5 219.9 230.7 241 249.8 257.9 261.4 265.6 271.7 274.9 279.7 285.3 291.9 295.7 297.8 300.2 303.5 307 309.8 311.8 313.3 313.4 313.2 312.4 310.6 308.8 306.7 303.8 302.9 304.2 307.5 312.9 313 317.3 323 327.8 330.8 333 334.4 337.9 340.9 344.6 346.9 349.8 354.4 358.6 362.3 365.2 369.4 374.2 378.9 382 383.3 383.2 384.6 385.2 384.6 383.7 385.6 386.5 386.6 384.2 380.8 377.2 373.7 371 366.3 360.9 353 346.4 341.1 333.1 329.5 325.8 320.6 299.1 318.6 327.8 336.9 345.6 350.1 354.8 359.2 363.9 368.5 369.3 369.9 370.6 371.5 373.9 370.4 374.9 375 376.9 378.9 380.1 380.6 375.2 375.3 366.7 374.6 382.4 388 393.9 401.7 411.5 421.3 431 439.5 447.7 456.1 465.4 476.2 484 492.5 498.8 502.3 506.5 507.1 506.7 506.3 506.7 509.5 517.7 526.4 530.1 531.2 533.2 536 542.3 550.2 557.9 563.7 569.7 576.2 578.7 574.4 569.7 569 568.5 568.3 569.2 569.1 569.1 570.1 572.6 575.6 575.3 575.4 572.8 565.9 558 551.3 546.6 542.3 536.8 524.4
105.1 105.1 105.1 105.1 105.1 105.1 105.1 105.1 105.1 105.1 105.1 105.1 105.1 105.1 105.1 105.1 105.1 105.1 105.1 105.1 105.1 105.1 105.1 105.1 105.1 105.1 105.1 105.1 105.1 105.1 105.1 105.1 109.4 117.8 130.5 142.5 154.5 165.8 175.1 184.7 192.7 200.3 208.5 220.1 231.1 241.7 250.9 259.9 267 268.9 272.9 279.8 285.3 290.4 296.8 303.8 307.6 310.2 313.4 317.1 320.4 322.8 324.3 325.4 325.4 325.1 323 321 318.5 315.5 312.8 312.5 315.2 319.1 322.2 323.1 323.3 332.4 336.1 339.7 341.2 344.8 348.3 349.7 352.9 357.6 361.5 365.4 368.1 371.2 376.3 381.5 386 389.9 392.8 393.7 394.7 396.5 396.9 396.7 396.2 396 397.3 395.9 392.6 390.1 387.3 382.4 377 372.3 366 357.7 352.4 345.1 339 334.4 330.4 324.9 310.4 318.2 334.1 342.2 348.6 354.9 359.8 363.8 369.7 372.4 373.3 375.1 376.5 375.9 379.5 378.1 379.8 379.9 383.9 384.3 385 383.6 380.3 381.3 379.5 365.8 383.4 388.5 393.2 399 407.7 417.2 427.2 436.4 444.7 452.9 461.4 470.1 478.1 487.8 493.5 497.3 500.7 503.5 504.1 504.8 505.7 508.1 516.7 523.8 527.8 529.7 534.6 541.3 548.9 555.9 562.5 566.7 572.8 579.5 583.1 581.8 578.6 581.8 584.6 575.8 578.2 578.8 580.7 583.7 586.7 588.4 587.1 586 581.9 574.5 568.5 561.8 559.7 551.5 549.8 540.6
105.1 105.1 105.1 105.1 105.1 105.1 105.1 105.1 105.1 105.1 105.1 105.1 105.1 105.1 105.1 105.1 105.1 105.1 105.1 105.1 105.1 105.1 105.1 105.1 105.1 105.1 105.1 105.1 105.1 105.1 105.6 110.6 115.8 126.3 137.7 149.2 160.9 170.9 179.9 189.9 200.5 209.2 219.1 230.6 241.8 252.6 262.4 271.9 275.6 276.1 280.9 289 294.8 300.3 307.2 314 318.7 323.2 327.7 331.1 332.6 333.7 335.6 335.8 336.7 336.4 333.9 330.8 326.9 324.1 322.2 323.2 325 329.8 332.5 334.9 329.3 341.8 345 350.5 351.9 351.9 355.2 359.7 363.9 367.2 370.4 373.3 377.1 382.1 387.8 393.4 397.1 401.9 405 406.1 407.5 407.7 408.6 410 410.5 410.3 408.8 405.9 403 400.8 396.7 392.6 386 379.5 369.7 362.1 356.4 350.1 347.4 340.2 334.5 321.6 319.6 327.1 337.9 345.9 352.2 361.2 365.6 370.3 374.7 377.7 380 382.5 382.3 382.6 385.1 385.8 385.5 385.9 390.3 389.6 389.5 387.4 386.2 388.3 385.9 381.7 376.8 389.5 394.1 398.4 404 413.1 423.1 432.3 440.9 449.4 457.7 464.9 472.3 482.2 488.4 494.7 497.2 499 500.6 502.1 504.1 507.6 513.7 521.5 525.7 529.9 537.3 543.6 552.7 561.7 565.2 569.7 579 584.9 587.2 589 593.1 596.2 598 590.8 592.8 591.1 594.4 595.7 597.8 599.8 598.7 597 594.8 588.9 580.7 575.2 571.8 564.8 556.7 551.3
105.1 105.1 105.1 105.1 105.1 105.1 105.1 105.1 105.1 105.1 105.1 105.1 105.1 105.1 105.1 105.1 105.1 105.1 105.1 105.1 105.1 105.1 105.1 105.1 105.1 105.1 105.1 105.1 105.1 109.5 114.1 118.6 125.3 134.3 145 156 166.4 176.5 186.5 197 207.3 218.3 228.1 239.8 251.4 262.7 273.9 279.8 282.2 284 290.7 299.2 305.7 309.5 316.4 323.2 328.7 334.1 339.4 342.4 344.2 344.8 344.9 345 346 345.2 342.6 338.2 334.4 332 334 335 336.2 342 344.8 347.1 339.8 348.4 351.8 354.4 357.2 360.3 364.4 369.4 372.6 375.9 379.4 382.7 385.8 390.1 396.6 403.8 409.6 414.1 417.5 418.4 419.2 419.6 420.6 421 421.3 421.8 419.2 415.7 414.6 412.2 406.4 400.9 395.3 385.3 375.1 370.6 364.2 356.7 352.9 345.4 337.9 316 331.2 337.4 344.6 350.9 358.1 365.5 370.3 374.7 379 384.2 385.9 389.5 392.3 393.6 398.2 393.6 396.1 394 395.9 395.3 393.4 389.7 391.7 392.7 391.4 389.2 386.6 386.6 394.4 398.6 403.4 410 418.4 427.1 435.6 444.2 452.1 459.2 466.7 473.9 481 488.7 493.5 494.1 495.6 498.2 501.8 506.9 513 518.8 524 529.5 535.9 545.2 554.7 563.7 568.1 577.6 585.8 591.2 596 598 603.1 605 607.5 606.4 604.8 604.2 605 605.3 606 607.7 606.1 605.8 603.9 598.6 591.7 583.4 574.8 568.7 564.6 552.6
105.1 105.1 105.1 105.1 105.1 105.1 105.1 105.1 105.1 105.1 105.1 105.1 105.1 105.1 105.1 105.1 105.1 105.1 105.1 105.1 105.1 105.1 105.1 105.1 105.1 105.1 105.1 105.1 111 117 122.6 128.5 137 143.5 152.9 163.7 173.7 184 195.9 206.5 215.9 225.7 237.2 248.6 258.7 269.2 278.3 284.4 288.1 293.8 301.3 309.2 315.4 319.8 326.9 332.9 337.9 343.6 348.8 353.4 355.7 355.5 354.4 354 354.2 353.6 350 345.6 342.2 342.1 344.2 346.5 349.9 351.9 351.5 352.4 350 351.8 357.2 361.7 365.1 369.2 374 379 382.1 385.7 388.6 392.3 395.9 400.9 407 413.1 419.3 424.7 427.8 429.7 429.8 431 432.3 431.8 433.4 431.2 429.9 428.2 425.5 421.7 416.9 410.4 403.7 392.5 385.4 378 370.5 364 358.5 349.6 340.2 313.7 335.3 342.7 350.6 357.7 363.6 369.9 376.1 381.7 387.9 390.7 394.2 396.9 399.7 400.7 404.3 400.7 403.2 402.5 402 400.4 396.4 397.4 400.9 400.5 397.1 394.1 392.2 383.7 388.9 399.4 403 406.9 412.2 421.2 429.4 438.1 447 456.1 460.6 466.3 472.5 478.6 483.6 488.4 491.1 494.8 499.9 504.9 510.2 515.6 522.1 528.9 535.6 544.6 554.1 565.7 574.9 587.7 594.5 600 603.2 606.3 609.9 615.1 619 617.3 614.7 612.7 611.6 610.3 611.6 613.1 613.7 611.2 608.5 604.5 595.7 586.7 576.6 566.3 556.1 543.7
105.1 105.1 105.1 105.1 105.1 105.1 105.1 105.1 105.1 105.1 105.1 105.1 105.1 105.1 105.1 105.1 105.1 105.1 105.1 105.1 105.1 105.1 105.1 105.1 105.1 105.1 105.1 112 119.3 127.3 133.1 137.7 146.4 152.8 161.5 173.1 184.1 195.3 207.9 219.6 229.1 236.3 243.9 255.3 265.4 275.1 283.3 290.8 297.3 304.3 311.7 319.7 325.9 332.2 338.4 344.2 349.8 356.1 362.1 365.6 367.8 367.6 366.3 365.8 365.2 363.8 359.3 354.7 352.3 353.8 355.9 358 359.8 361.2 361.8 362.6 360.4 361.6 365.8 370.1 373.9 379.5 383.8 388.5 391.9 396.3 399.6 403.2 406.8 412 417.3 422.8 428.6 434.6 439 440.2 439.6 440.7 441.5 442.1 441.2 441.6 438.7 436.4 432.9 429.2 423.9 417.9 410.3 401 390.4 383.7 377.5 370 360.6 353.1 344.2 315.4 337.6 348.9 354.9 363.1 369.3 375.4 382.1 388.2 393.1 397.2 400.8 403.6 405.8 408.4 410.4 409.4 408.9 406.7 405.6 402.9 401.7 408.2 408.5 405.9 403.8 403.1 397.4 396.6 384.4 401 404 405.7 409.6 414.5 422.6 431.4 440 447.3 453.3 460 466.1 472 477.9 482.2 486.4 491.4 496.9 502.3 507.5 512.2 519.1 528.9 537.1 543.8 556.2 569.7 582.2 592.3 600 606.6 611.3 614.8 618.7 624.7 628 626.2 623.3 619.6 616.4 614.9 616.4 619.4 618.7 614.2 610.6 605.2 598 589 578.4 565.7 552 538.7
105.1 105.1 105.1 105.1 105.1 105.1 105.1 105.1 105.1 105.1 105.1 105.1 105.1 105.1 105.1 105.1 105.1 105.1 105.1 105.1 105.1 105.1 105.1 105.1 105.1 105.1 110.5 119.6 129.3 138 142.6 145.5 153.2 160.5 170.6 183.6 195.6 207.2 219.6 232.2 242 249.6 253.9 261.5 272.8 283.1 292.2 300 306.8 314.1 322.3 330.5 336.6 342.5 349.6 355.4 361.3 368.3 374.6 378.5 382.2 384.2 383.3 381.4 380.2 376.5 371.5 366.2 365.7 366.4 368 369.5 371.1 372 372.4 372 364.2 369.8 374.3 378.5 383.9 389.1 393.1 397.6 402.3 406.5 411.1 414.4 417.5 421.8 428.2 433.2 439.2 445.4 448.7 450.3 449.9 449.1 451 452.6 450.6 449.4 446.6 445.6 440.9 435.2 428.6 421.3 413.1 404.2 396.3 390.8 383 374.2 365.8 357.7 349 328.9 338.1 354.3 360.3 368 373.3 381.3 388 393.8 398.6 403.3 407.9 410.7 414.4 417.5 417.7 417.8 416.1 410.5 408.1 406 409.3 415.9 412.2 409.9 409.8 407.3 401 401.8 400 393.9 401.3 403.8 407.7 411.5 416.7 424 431.9 439.4 447.3 454.6 461 467.3 472.9 477.2 481.8 487.4 492.7 497.9 503.8 508.7 514.8 525.4 536.6 543.9 558.8 573.1 585.6 594.3 601.9 608.4 613.4 619.9 627.2 633.2 635.4 633.5 630.7 627.4 621 622.2 623.7 625.4 622.8 617.3 612.1 606 598.5 590.6 577.5 562.7 552.5 542.6
105.1 105.1 105.1 105.1 105.1 105.1 105.1 105.1 105.1 105.1 105.1 105.1 105.1 105.1 105.1 105.1 105.1 105.1 105.1 105.1 105.1 105.1 105.1 105.1 105.1 109.1 119.1 128.3 138.3 146.2 149.8 152.5 158.7 167.7 180.9 195.4 208.6 220.1 230.5 241.3 252.4 262 268.3 274.2 282.9 293.8 302.2 309.2 315.9 324.2 332.4 340.6 346.6 352.4 359.4 365.9 371.5 378.4 385.3 391.4 397.1 401.4 400.5 398.9 395.2 389.9 384.2 379.3 377.9 377.7 379.2 380.3 381.4 382 381.9 381 376.3 375.5 381.9 387.7 392.9 397.6 403.3 407.9 412 416.8 420.7 423.9 426.5 432.1 439.3 445 449.4 454.7 458.4 459.9 460.5 459.5 460.4 463.6 461.7 460.3 455.9 451.8 447 440.9 433.6 424.5 415.9 409 403.5 397 388.4 379.9 371.5 363.1 353.6 335.7 340.1 357.5 365.5 372.7 378.7 387.5 394.4 399.2 403.6 409.4 414 417.9 422.7 427.3 426.6 424.8 422.5 416.3 412.8 415.9 418.1 419.6 417.1 416.2 413.3 409.1 404.2 408.6 404.5 398.2 394.4 398.5 403.6 409.3 414.3 418 423.6 431.5 440.9 447.3 454.3 460.7 465.9 471.4 476.3 482.9 488.8 495 500.7 506.8 512.9 522.8 534.1 546.7 562 576.4 586.6 593.8 600.6 608 618.5 626.8 632.7 639.3 643.4 642.3 639.2 634.2 629 630.2 630.3 630.1 627.1 621.7 615.3 607.3 599.5 590.1 575.8 561.6 550.9 539.4
105.1 105.1 105.1 105.1 105.1 105.1 105.1 105.1 105.1 105.1 105.1 105.1 105.1 105.1 105.1 105.1 105.1 105.1 105.1 105.1 105.1 105.1 105.1 105.1 105.1 117.5 126.3 135.5 144.4 150.4 154.2 158.1 165.4 177.2 192.3 207.5 221.1 232.1 241 251.7 262.5 272.7 281.2 291.1 296.9 303.7 310.4 316.6 324 333.1 342.1 350.2 356.6 362.1 368.9 375.5 381.3 387.3 394.2 400.8 408.8 414.5 414.8 413.4 408 401.6 395.8 392.1 389.1 387.7 388.2 389.3 391.1 391.2 390.8 390 384.5 384.8 390.9 397.3 401.2 406.3 411.3 417.2 421.5 425.3 428.7 432 436.3 442.1 449.9 455.2 458.8 463.1 467.6 469.1 469.9 469.8 470 472 473.4 472 466.1 459.7 453.2 447.2 438.8 428.6 421.3 415.9 410 402.8 396 387.3 379 368.5 355.2 331.8 346.1 361.8 370.8 378.5 384.6 393.5 399.2 405.1 409.7 415.9 420.7 427.9 432.1 436.2 438.3 432.8 429.1 422.9 419.5 423.9 423.2 424.6 423.5 420.8 418.3 412.5 410.5 415.4 407.1 406.6 407.6 402.1 407.3 405.7 409.5 415.8 420.4 424.6 430.7 438.7 445.9 452.9 459.4 465.7 470.6 477.3 485 491.8 498 504.3 511 521.1 534.1 547.1 559 572.3 584.1 592.3 598.9 609.5 620.3 629.1 636.6 643.4 648 649.7 645.8 641.5 636.9 638 636 633.5 630.7 625.6 617.7 608.1 598.2 585.4 572.6 560.4 547.9 540.6
105.1 105.1 105.1 105.1 105.1 105.1 105.1 105.1 105.1 105.1 105.1 105.1 105.1 105.1 105.1 105.1 105.1 105.1 105.1 105.1 105.1 105.1 105.1 105.1 113.6 123.5 132.8 141.8 148.9 153.6 158.2 163.3 173.8 186.7 202.9 219.1 231.5 241.9 251.5 262.7 273.5 283 292.7 301.4 306.4 310.2 316.3 322.3 331.6 341.2 350.6 359.3 366 371.5 377.7 384.5 390.6 395.5 403 412.8 421.7 427.1 425.3 420.5 414.3 408.6 404 401.4 399.7 397.2 396.8 398.2 399 399.5 399.1 398.6 394.9 392.9 399.6 404.9 408.7 413.2 419.3 425.6 430 433.8 437.4 442.5 447.3 451.9 458.3 464.2 468.4 472.6 475.7 478.3 478.3 478.1 477.2 477.9 479.4 481.9 477.9 470.8 460.9 452.5 444.3 434.2 426.1 421.9 414.1 407.6 402.4 391.9 383.6 368.8 348.6 334.2 351.8 365.9 376 383.8 391.4 398.6 406.7 414.3 422.3 424.8 429.8 437.5 442 443.6 441.7 434.1 434.7 429 428.1 431.1 428.1 429.6 427.7 424.7 422.1 418.1 419.7 414.4 409.5 413.8 414.4 407.1 410 413.3 414.5 413.2 417.1 422.8 427.7 433.9 439.9 447.7 454.6 459.4 466.1 472 478.6 487.6 494.6 501.3 509.6 518.4 529.9 542 553.1 564.9 575.6 585.9 597.1 606.2 616.9 626.6 635.6 643.6 649.6 649.3 651.5 653.9 652.8 648.1 639.9 635 630.9 625.8 618.6 609.6 598.1 584.6 571 560.2 547.6 544.6
105.1 105.1 105.1 105.1 105.1 105.1 105.1 105.1 105.1 105.1 105.1 105.1 105.1 105.1 105.1 105.1 105.1 105.1 105.1 105.1 105.1 105.1 105.1 110.8 120.2 129.3 138.9 147 152.4 157 163.2 171.6 184.1 197.9 212.2 226.6 238.4 250.1 262.5 274.3 284.1 293.2 300.9 306.2 311.5 316.2 322.3 329.5 339 349.1 358.3 366.7 373.8 379.5 385.8 392.7 399 404.1 412.5 423.2 430.8 431.5 428.3 423.7 418.5 414.2 410.8 409 407.9 406.7 407.9 408.5 408.6 408.3 407.6 406.9 401.8 401.1 403.7 411.9 415.4 420.3 426.2 432.3 437.4 442.1 447.3 452.7 457.9 461.6 466.6 472.7 477.4 481.7 484.8 487.3 487 486.6 485.1 483.9 484.8 485.5 482.3 475.8 467.6 459.5 451.3 442.9 434.6 427.2 417.8 410.2 404.4 395.9 386.3 374.4 345.4 339.3 355.5 369.4 380.2 388.1 395.3 403.2 412.3 421.4 428.5 433.9 444 449.6 450.5 451.7 445.6 443.7 443.2 439.3 436.4 437.7 434.5 434.1 430.8 429.9 430.2 425 422 416.6 417.7 421.7 414.4 409.6 413.4 417.4 419.4 418.5 417.3 418.7 424.3 431.3 435.9 441.3 447.4 452.5 458 465.1 473 481.3 491 499 507.7 517.2 526.3 536.3 547.6 560.1 570.2 579.8 589.2 599.1 611.9 624.5 635 640.4 646 648.2 654.3 659.9 659.1 652.2 641.7 637.2 632.9 628.9 625.4 617.7 602.3 586.8 570 555 547.9 545.8
105.1 105.1 105.1 105.1 105.1 105.1 105.1 105.1 105.1 105.1 105.1 105.1 105.1 105.1 105.1 105.1 105.1 105.1 105.1 105.1 105.1 105.1 107.5 118.8 128.1 136.7 145.5 153.2 158.3 163.5 172.5 182.2 194.8 210.2 225.2 236.3 245.7 259.3 273.7 286.9 296.6 304.6 309.6 313.2 317.1 323.3 330.9 339.2 348 357.5 366 373.5 380.8 386.7 393 398.9 404.9 412 418.9 426.5 431.3 432.7 430.7 426.9 423.4 421.6 419.3 419 417.5 417.1 417.2 417.3 416.2 415.9 415.2 414.6 413.4 411.4 408.5 417.7 421.9 426.3 431.5 438.6 445.1 450.3 455.8 460.8 465.4 468.8 474.2 480.1 484.1 487.6 492.6 495 495.5 494.9 492.9 490.8 488.4 485.3 481.4 476 470.5 463.2 456.8 448.5 439.6 429.8 421.2 413.7 406.9 397.1 386.3 372.2 346.7 342.3 358.1 373.6 383.5 391.4 399.6 407.4 416.5 425.5 433.3 438.9 451.4 457.4 457.8 459.4 452 451.2 450.4 446.2 438.9 438.4 437.8 439.5 437 437.9 434.3 433.2 426.4 420.7 418.2 418.4 414.6 410.5 417.1 421 423.4 423.2 424.3 424.9 426.4 430.3 434.5 438.8 443.1 447.3 453.8 462.7 467.1 474.7 483 492.6 502.5 511.9 521.8 532.2 543.6 555.7 565.5 574.6 583.4 590.9 604.4 617 629.5 636.8 642.6 647.8 655.6 663 661.8 654.4 647.3 640.6 635.4 631.6 628.2 620.3 607.9 590 570 553.4 548.8 545.4
105.1 105.1 105.1 105.1 105.1 105.1 105.1 105.1 105.1 105.1 105.1 105.1 105.1 105.1 105.1 105.1 105.1 105.1 105.1 105.1 105.1 105.1 117.5 127.7 137.2 145.7 153.8 161.5 167.8 176.2 184.7 193.6 206.2 221.8 236.8 249 257.4 269.8 285.4 300 311.5 318.1 320.2 323.2 325 331.3 340.4 348.9 357 365 372.8 380.4 387.5 393.2 398.5 404.2 410.8 416.9 423.9 429.6 432.8 435.4 435 432.1 430.2 430.8 430.3 430.4 427.7 426 425.7 424.9 423.8 423.3 422.4 421.2 421 415.8 419.7 424.1 428.1 432.8 438.1 444.9 452 457.5 463.1 468.1 473 476.9 482.5 488 491 494 498.9 501.3 501.8 500.7 497.9 494.9 490.4 486.1 481 476.7 470.6 464 458.7 449.9 439.9 431.3 423 417.2 408.9 398.9 388.8 371.9 348.1 346.5 360.5 374.8 385.5 394.6 403.2 412.2 421.8 430.5 436.5 445.1 456.9 464.6 462.7 462 457.9 459.1 459.2 451.4 448.2 448.9 447.1 445.4 444.1 442.1 441.8 441.9 432.6 424.3 418.5 416.4 414.9 413.5 424.7 424.4 423 423.9 426.3 426.9 425.9 430 433.9 437.7 441.3 443.5 447.7 456.1 464.3 472.5 481 489 497 506.5 516.6 527.9 540.2 551.1 560.1 569.3 578.7 587.8 602.2 615.4 626.6 633.4 639.6 645.9 653.1 658.9 657.3 651.8 648.2 643.1 638.3 631.7 628.7 626.3 613.3 588.4 570.4 559.5 557.5 554.5
105.1 105.1 105.1 105.1 105.1 105.1 105.1 105.1 105.1 105.1 105.1 105.1 105.1 105.1 105.1 105.1 105.1 105.1 105.1 105.1 105.1 115.9 126.1 136.1 146.5 155.1 163.1 172.4 178.9 186.2 195.3 206.5 219.5 233.8 248.5 263.3 274.5 284.2 298.3 313.6 327.1 331.9 333 335.1 336.1 338.5 347.2 357.2 364.9 372.7 379.8 387.4 394.2 399.6 404.4 410.3 417.5 423.6 428.6 434.3 437.2 439.5 441.3 442.4 444.1 442.7 441.3 440.2 437.9 435.3 433.4 432.4 431.4 430.6 429.7 427.7 427.8 423.2 424.5 431.3 434.5 439.5 444.6 451.2 457.5 463.5 469.1 474.2 479.3 484.2 488.5 492.8 496.5 500.6 505.5 507.5 507.7 506.2 503.3 498.7 494.4 489.9 484.1 477.9 471.2 464.3 457.5 449.8 441.3 435.1 429 422.2 413 402.7 388.1 367.1 352.1 346.8 361.6 375.3 385.8 396.4 405.3 416.4 426.6 435.2 441.8 452.9 461.6 466.6 469.8 470 466.8 466.8 464.4 460.9 457.4 456.2 450 451.8 450.6 447.8 446.7 445.4 436.7 428.3 422.1 423.2 421.8 417.9 419.5 421.7 425.3 428.5 429.5 429 428.6 429 433.9 437.7 441.2 444.1 448.5 454.2 462 471.4 481.8 486.4 493.9 503 512.6 522.9 534.9 545.2 554.6 563.8 573.3 586.7 599.5 610.9 621.7 628.3 636.4 644.4 648.4 649.5 649.9 649.9 647.5 640.5 632.5 627.5 625.3 623 612.2 589.5 576.5 568.7 566.1 561.3
105.1 105.1 105.1 105.1 105.1 105.1 105.1 105.1 105.1 105.1 105.1 105.1 105.1 105.1 105.1 105.1 105.1 105.1 105.1 105.1 111.5 123.7 134.3 145.2 156.2 166.1 174.6 183.7 189.8 198.7 209.8 222.6 233.5 250.2 268.3 282.9 292.7 299.8 311 323.8 336.7 343.9 347 349.4 349.8 349.2 354.4 365.5 373.2 380.6 388.1 395 402.3 408.1 412.8 418.7 424.2 431 437.1 440 445 447.9 451.5 457 458.3 454.6 451.7 449.6 448.3 446 443.8 441.2 439.4 437.7 436.6 433.9 433.9 428.7 431.9 437.2 440.7 444.9 449.8 457 462.9 468.5 473.9 478.9 483.7 488.9 493.6 498.5 502.4 506.6 511.4 513.5 513 510.9 507.2 502.5 497.9 492.3 486 480.1 472.2 464.9 458.2 451.6 443.6 439.3 432.8 424.4 414.2 398.5 384.2 382.1 361.2 345.7 364.2 377.8 387.1 396.9 405.9 416.8 427.6 437.1 447.6 456.8 465.3 470.9 471.2 470.1 469.8 471.5 468 468.4 466.2 460.2 459.9 458.5 454.3 456.6 453.4 447.3 439.9 438.5 435.4 433.3 432.9 425.1 428 428.5 431.3 433.2 431.3 431.4 432.9 431.5 434.1 437.4 443 446 449.7 454.5 461.1 470.5 476.8 484.2 491.6 501.8 510 519 529.4 539 547.6 557 568.3 582.1 595.1 604.1 614.7 625.4 632.5 639.7 639.9 640.4 642.9 643.6 641.8 637.6 628.7 624.4 620.2 607.3 600.3 590.4 580.4 571.3 566.5 562.1
105.1 105.1 105.1 105.1 105.1 105.1 105.1 105.1 105.1 105.1 105.1 105.1 105.1 105.1 105.1 105.1 105.1 105.1 105.1 107.9 121.8 132.8 143 153.9 165.6 175.8 184.4 193.9 201.7 211.1 222.7 237.5 248.2 267.6 288.9 299.7 310.3 318 324.8 334.7 344.4 352.4 357.3 358.5 359.7 361.2 367 373.6 380.8 388.5 396.4 404.3 412.3 419.1 423.8 428.9 432.4 437.4 442.3 446.3 450.7 454.5 457.7 462 464 461.6 459.6 459 459 456.4 453.4 450.2 447.7 445.4 444 441.3 440 435.6 437.8 441.3 444.7 449.1 455.2 462.3 468.2 473.7 478.3 483.3 488.3 493.3 499.1 504.3 508.9 512.6 516.6 518.4 517.3 514.6 510.7 506.1 501.4 495.3 488.9 482.2 474.6 467.7 460.3 453.1 445.3 436.2 425.5 421.1 418.2 409.7 399.1 387.8 366.8 346.1 366.5 380.1 389.7 398.9 409.7 420.7 431.1 439.9 452.8 463.6 468 471.4 470.7 471.9 474.4 474.3 470 473.4 470.2 469.2 468.5 462 462.3 464.2 460.4 449.5 442.4 440.3 437.8 434.7 432.2 431.1 432.1 430.5 434.8 436.9 433.1 435 435.8 437.1 433.3 437.7 443.8 446.2 449.8 453.3 459.9 466.7 472.1 479.5 486.9 496.2 505.9 513.6 523.4 532.6 541.1 551 565 579.9 592.6 601.3 611.5 620.6 626.5 630.6 633.3 636.2 640 642.2 644.8 641.4 627.6 616.7 599.7 590.7 587.2 583.6 576.8 569.9 568.1 569.2
105.1 105.1 105.1 105.1 105.1 105.1 105.1 105.1 105.1 105.1 105.1 105.1 105.1 105.1 105.1 105.1 105.1 105.1 105.1 116.6 130.6 141.2 150.8 161.7 174.8 184.2 193.3 202.8 209.8 220.9 234.5 250.4 265.1 281.3 300.2 313 325.8 335 339.6 345.5 352.2 357.4 362.6 364.8 368.8 375.3 378.1 382.2 388.9 396.9 404.9 412.7 421.1 428.1 433 436.5 441.3 445.7 448.9 452.2 456.8 460 464.2 472.5 477 474.4 470.6 468.8 468.8 466.2 462.6 459.2 456.5 454.3 451.7 447.8 446.7 441.6 443.7 446.9 449.7 453.9 460.5 467.7 473.6 479 483.8 488.7 493.6 499.7 505 510.1 514.5 518.3 520.5 522.3 522 518.3 514.3 509.6 504.9 498.2 491.5 485.1 477 470.2 462.4 455.8 448.9 442.4 436 429.5 421 411.8 400.1 387.4 371.9 352.1 368 381.1 393.6 403.1 413.5 425.2 436.1 443.8 455.5 465.7 472.4 475.3 476 475 478.2 476.5 476.7 478.4 477.6 474.4 474.6 467.9 467.2 464.2 463.6 454.9 450.4 450.7 446.7 438.1 434.5 433.4 432.7 431.7 435.9 437.2 437.2 440.7 440.9 439 437.6 438.9 443 445.9 449.2 452.8 457.8 463.9 469.8 477.3 483.6 494.4 503.8 511 518.9 528.8 539 550.6 563.6 577.8 590.5 598 606.9 616.2 621.9 626.3 630.8 637.3 642.7 646.2 647.8 636.5 614 598.6 594.1 591 585.6 580.2 575.2 571 571.5 572.1
105.1 105.1 105.1 105.1 105.1 105.1 105.1 105.1 105.1 105.1 105.1 105.1 105.1 105.1 105.1 105.1 105.1 105.1 108.8 124.4 137.3 148.8 157.8 168.1 180.8 190.9 201.2 211.2 219.7 232.3 247.2 264 280 294.3 309.2 323.1 336 346.2 353.1 358 361.9 364.2 370.1 375.7 379.1 382.9 386.9 391.2 396.9 404.5 411.9 419.7 427.2 434.1 440.4 444.6 448 453 457.1 460.8 463.3 466.3 473.6 481.8 490.4 485.6 481.6 478.3 476.4 472.5 469.7 466.4 462.7 461 456.6 455.5 453.4 448.2 449.5 452.4 455.8 460.9 467 473.4 479.1 484.7 490.1 495.5 501.2 506.4 511 515.2 519.4 523 525.1 526.8 526.1 522 517.7 513 508.1 502.3 495.9 489.5 481.3 474.1 467 459.7 452.4 445.5 439.3 432.4 423.5 414.7 405.1 398.3 383 357.5 372.2 384.5 396 405.7 417 429.3 440.1 447.5 456.8 470 478.5 480.8 482.3 481.8 487.5 487.5 485.7 485 486.1 484 481.4 474.9 477.4 471.8 468.6 461.2 455.9 450.8 446.9 441.9 438.6 438.3 435.6 435.7 436.6 440.3 440.4 441.6 442.2 440.9 440.6 441.6 442.3 446 448.8 452.5 457.5 463 469.6 475.8 483.2 493.2 500.7 508.3 516 526.2 537.4 550.5 565.4 577.4 588.9 595.7 605.5 614.6 619.4 622.9 627.1 636.2 642 642.7 631.7 608.7 600 597.2 595.8 594.5 585 577.8 575.1 573.6 573.1 576.5
105.1 105.1 105.1 105.1 105.1 105.1 105.1 105.1 105.1 105.1 105.1 105.1 105.1 105.1 105.1 105.1 105.1 105.1 115.4 131.3 142.9 152.5 163.2 174.2 186.9 198.3 209.6 219.7 230.1 243.9 258.3 275.7 291.2 303.1 317.5 331.8 344.7 355.7 363.8 368.8 371.9 373.6 376.9 382.5 384 387.9 393.3 398.8 404.8 412.3 419.5 426.4 433.5 440.8 446.4 452.5 457.2 461.3 465.1 468.1 472.1 476.2 480.6 485.3 489 487.7 485.3 483.7 480.4 477.3 475.4 472.3 469.3 466.4 462.2 462.2 460.2 455.6 455.5 459.6 463.2 468.5 473.8 479.8 485.6 490.7 497.4 503 507.9 513.4 517.6 521.1 524.8 528.4 530.5 531.1 529.5 526.2 521.1 517.1 512 506 500.3 493.8 486.8 478.6 470.7 463.3 456 449.6 443.2 435.9 427.3 418.4 410.1 403.4 382.7 356.5 372.2 388.5 400.4 408.3 420.2 432.7 443.1 452 460.4 475 482.8 485.9 486.6 490.4 497.6 497.2 497.1 495.2 495.3 491.3 486.1 483.6 486.8 480.1 475.5 467.6 460.2 454.6 453.6 447.7 444 440.6 440.1 442 443.8 446.3 443.4 443.7 443 442.3 443 444.1 444.1 446.7 449.4 452.8 457.5 463.2 469.1 475.9 484.8 491.6 498 504.9 513.9 523.5 535.2 549.3 562 572.6 582.3 591.4 600.6 609.8 614.1 619.2 625.4 630.5 634 628.6 608.1 601.5 596.1 594.2 593.5 591.1 584.8 579.2 575.9 575.5 577.1 579
105.1 105.1 105.1 105.1 105.1 105.1 105.1 105.1 105.1 105.1 105.1 105.1 105.1 105.1 105.1 105.1 105.1 105.1 120.1 134.1 145.9 156.3 167.3 179.2 193.4 206.9 218.4 229.9 241.8 255 268.8 285.9 297.7 308.5 324.6 340.1 352.1 364 372.9 377.8 381 381.9 383.1 386.4 389.9 395.7 400.8 406.2 412.4 420.1 427 433.9 441.6 449.5 456.2 461.6 464.3 468.3 471.4 475.4 479.6 482.4 484.7 487.3 490.1 490.6 489.9 488.3 486.2 483.4 480.3 477.1 474.3 470.1 468.4 466.6 465.3 462.4 463.2 467 470.6 475.7 481.5 486.3 492.2 498.9 505.1 510 514.6 520.1 523.1 526.1 530.3 533.7 535.4 535.1 533.6 530 525 520.4 515 508.3 502.4 496.6 490.6 481.3 473.7 466.4 459.4 452.9 446.4 438.8 430.2 421.7 413.9 407.3 389.8 364.4 371.6 389 399.5 410.6 423.4 435.2 445.4 455 463.5 473.4 484.4 490.5 494.3 500.5 508 509 507 506.7 503.9 499.4 495.2 494.8 492.7 488.1 483.7 477.9 467.1 467.1 468.1 459.9 447.6 450.8 451.5 452.5 454.9 454.9 450.2 449 448.9 447 449.5 448.4 446.3 446.7 450.9 454 458.2 463.4 468.9 475.6 483.2 489.6 496.3 505.2 514.2 523.3 533.9 546.3 557.8 566.4 577.2 588 600.6 607.7 611.9 617.5 624.4 628.3 624 622.8 606.9 599.8 594.1 591.2 588.4 585.2 582.5 578.4 576 577.2 578.3 578.6
105.1 105.1 105.1 105.1 105.1 105.1 105.1 105.1 105.1 105.1 105.1 105.1 105.1 105.1 105.1 105.1 105.1 106.9 122.8 135.4 147.1 159 171 184.2 198.3 212.8 225.4 236.9 249.2 262.8 277 292 301.1 311.6 330.7 347.4 359.8 372 381.3 386.4 388.3 388.6 388.7 392.2 398.7 405.8 411.6 416 420.5 427.8 434.3 441.8 450.7 459.4 468.4 471.1 471.3 473.9 476.8 480.1 483.7 486.3 488.7 490.7 492.7 493.8 492.5 491.2 489.9 487.2 484.1 480.4 478.2 476.3 474.3 471.9 471.3 471.1 469.1 473.8 477.9 482.3 487.6 491.7 499.2 505.8 512.1 517.2 522.1 526.4 529.3 532.3 536.2 538.7 539.8 539 536 531.6 529 523.8 517.9 510.7 505.3 500.4 493.5 483.7 476.4 468.9 462.5 456.1 449.6 442.1 433.6 425.3 417.5 410.8 394.1 370.2 369.5 390.2 401.4 412.4 425.5 437.1 449 457.9 467.5 475.2 484.9 494 500 505.8 518.7 522 518.5 514.1 509.2 506 501.4 499.3 497.3 494.3 485.9 481.4 475.3 470.2 467.6 463.5 457.3 460.4 464.2 462.8 458.4 455.5 453.6 452.5 452.5 452.2 453.6 453.8 451.6 448.9 451.1 454.3 459.2 464 469.4 475.8 483 490 497.6 505.7 514 523.5 534.2 544.8 554.5 566.4 578.1 588.5 599.9 606.9 612.7 621.6 626.5 625.6 619.1 613.9 607.8 596 592.6 591.3 587.8 582 577.9 576.5 575.4 576.2 575.3 576.5
105.1 105.1 105.1 105.1 105.1 105.1 105.1 105.1 105.1 105.1 105.1 105.1 105.1 105.1 105.1 105.1 105.1 113.6 125.4 137.5 150.2 162.3 174.2 187.2 201.1 216.2 229.8 241.7 254.1 266.8 281.3 295.6 305.7 316.1 336.9 354.2 367.2 380.2 390.7 394.4 395.2 394.2 394.5 398.4 404.5 412.9 421.5 426.3 429.8 435.8 443.3 451.5 459.2 465.7 470.9 474.7 476.2 478.4 482.9 486.2 489.5 492.2 494 495.6 496.5 496.4 495.7 494.4 492.8 490.3 487.6 485.3 482.6 481.4 480.4 478.8 478.4 478.5 478.3 480.6 485.3 489 493.2 498 504.8 512.4 518.6 524.2 528.7 532.7 536 538.7 540.9 542.9 543.3 543.1 541.3 538.4 533.4 528.4 522 514.2 509 503.1 494.9 486.5 478.7 471.7 465.2 458.6 452.5 445.8 437.5 428 420.3 414.1 402 376.2 368.5 389.6 403.1 413.9 426.4 439.2 450.6 460.4 468.7 477.7 485.6 497.1 504.9 512.5 524.8 526.4 523.6 519.2 515.7 511.8 508 505.6 502.7 499.4 492.8 486.6 474.9 472.6 471.1 470.4 463.2 464.9 468.1 466.5 462.8 459 458.2 457.1 456 457.2 459.5 457.1 454.4 452.4 455.5 455.6 462 464.8 470.3 476.3 483.8 491.2 498.8 505.9 514.9 525.2 535.7 545 555.7 568.7 580.3 589 597.7 605.2 615 622.8 624.1 619.9 616.3 613.5 610 604.4 591.1 590.1 583.6 577.5 576.6 575.5 574.8 575.8 575.8 577.4
105.1 105.1 105.1 105.1 105.1 105.1 105.1 105.1 105.1 105.1 105.1 105.1 105.1 105.1 105.1 105.1 110 119 130.5 143 155.2 166.8 177.1 189.7 203.2 219 233.3 247.3 259.9 272 284.6 298.9 311.4 325.7 344.8 361.3 374.5 386.8 397.4 401.2 400.4 399.6 401 405 410.2 418.7 426.9 433.4 438.4 445.2 452.9 459.4 464.6 468.7 473 477.6 481.8 485.1 489.4 492.4 495.3 497.2 499.1 500.7 500.6 500.2 499.2 497.8 496.5 494.9 492.5 489.9 488.7 487.9 486.8 485.8 485.3 486.9 487.7 487.9 491.2 496.2 499.5 504.6 511.4 519.4 525.9 531.5 535.9 539.7 542.3 544.4 546.1 548.5 549.2 548.6 546.8 543.3 538.3 532.6 525.5 517.7 512.8 506.5 499.2 490.9 481.4 473.8 467 460.4 454.7 448.6 439.4 429.6 422.3 416.7 404.9 380 367 388.1 403.6 416.2 427.7 440.7 451.2 462.8 469.3 478.6 486.8 498.7 509.4 519.7 526.2 527.2 525.6 523.3 520.8 517.5 514.5 512.7 510.5 507.5 500.1 494.4 483.9 484 481.6 477.9 473 475.4 475.4 471.8 469.2 466.6 467 462 463 462.8 462.6 462.3 459.8 458 460.5 458.6 462.8 466 471.2 476.7 485.2 492.1 500 507.5 518.2 527.3 536.8 546.5 557.3 568.1 578.1 587.4 596.2 606.1 616.7 617.7 614.4 612.7 613.6 610.9 607.9 603.5 588.9 578 574.3 573.4 573.7 573.5 574.6 576.4 577.5 579.5
105.1 105.1 105.1 105.1 105.1 105.1 105.1 105.1 105.1 105.1 105.1 105.1 105.1 105.1 105.1 108.9 115.4 125.1 137.5 150 160.7 170.8 180.8 191.4 205.5 222.9 239.3 253.4 266.1 276.6 287.9 304 318.5 334.7 352.6 368.1 380.6 393.1 402.6 406.3 405.8 405.6 407.7 411.8 417.3 424.5 431.3 439.1 447.2 454.3 460.7 466.4 469.6 473.6 479.4 485.4 489.9 493.5 497.4 500.2 503.1 504.4 505.5 505.8 506.1 505.1 503.9 502.6 502.2 500.6 498.8 497.4 496.4 495.7 494.3 493.3 493.2 494.8 495.6 495.4 498.6 501.9 505.6 511.5 518 525 533 538.2 542.1 545.1 548 550.5 552.5 554 554 552.8 550.3 546.6 541.2 534.8 527.3 520 515.2 509.7 503 495.1 485.4 476.6 469.3 463.2 456.2 448.6 439.6 430.3 423.9 418.2 400.1 378.4 370.3 389.5 406.6 416.9 428.7 440.6 453.8 464.8 471.4 480.6 490.1 506.5 518.7 528.5 528.1 529.6 529.4 527 524.2 522.5 520.9 518.1 518.8 513.5 503.8 500.6 498.7 494.5 489.3 485.7 481.7 483.7 482.2 478.2 476 474.4 471 466.2 467.5 466.2 464.9 465.2 463.6 465.4 462.4 460.8 465.5 468 471.6 476.3 485.9 492.6 500.9 510.8 521 529.8 538.4 548.5 557.5 568.7 578.5 588.3 597 606.5 610.5 608.2 604.2 604.4 599.5 597.1 594.2 581.3 572.5 567.6 568.1 569.2 570.5 572 574 576.9 578.6 582.8
105.1 105.1 105.1 105.1 105.1 105.1 105.1 105.1 105.1 105.1 105.1 105.1 105.1 105.1 105.1 112.7 120.7 131.7 144.1 156.1 166.9 176.3 185.7 195.8 211.4 229.5 245.8 260.9 272.6 281.7 294 310.5 325.6 340.9 358.4 375.1 387.6 399.5 408.4 411.3 411.4 411.3 413.5 418.6 425.6 432.7 439.7 447.6 455.9 463 469.7 474.8 476.7 481.4 488.1 494.5 499 501.9 505.4 508.2 510.6 512.4 514.5 514.8 514.2 512.7 511 509.6 508.9 508 506.6 505.3 504.4 503.5 502.6 502.6 502.2 502.5 503.8 503.9 507 509.4 512.9 518.6 524.6 531.9 538.6 544.1 548.3 551.3 554.3 556.4 558 558.6 558.5 557.2 554.7 549.4 543.4 536.9 529.4 523 517.2 512.6 506.2 498.2 488.8 479.4 471.5 464.9 457.9 449.2 440.7 432.1 425.2 414.7 395.9 380.1 375.7 397.6 408.4 419.4 430.2 441.9 453.3 463.9 474.3 483.6 493.7 511.6 528.1 534.5 533.5 534.6 537.2 536.1 531.9 533.3 531.7 528.3 524.7 518.6 513.9 510.6 508.3 503.3 496 493.1 491.6 490.3 488.6 486.6 485.2 481.4 478 474.6 472 468.4 468.4 467 466.2 466.2 465.7 466.7 463.6 468.3 472 477.1 484.9 493.3 501.7 511.5 521.6 531.5 540 548.5 558.3 568.8 577.4 585.6 594.1 601.4 603.4 601.8 599.8 596 589.1 586.8 582.9 580.2 568.4 565.2 566.1 567.3 569.1 570.9 573.6 577.4 579.9 585.2
105.1 105.1 105.1 105.1 105.1 105.1 105.1 105.1 105.1 105.1 105.1 105.1 105.1 105.1 109.3 117.5 127.1 138.7 150.8 162 173 182.6 191.7 201.8 217.3 235.8 251.8 265.9 279.2 289.9 302 316.5 331.6 346.7 363.5 381.3 395.5 407.4 415.6 416.7 416.6 416.5 418.8 425 433.5 441.7 449.2 457.2 465.5 472.9 479.5 485.2 488.2 492.4 498.4 504.4 508.8 510.8 513.1 515.9 518.6 520.6 522.5 523 521.4 519.7 519 518.4 518 516.9 515.4 514.5 513 512.1 512 512.4 512.3 511.3 511.4 512 514.5 514.7 520.5 525.7 531.5 537.8 543.5 549.3 553.6 556.1 558.8 560.1 561 561.9 561.4 559.4 557 552.5 545.3 538.6 531.3 524.9 519.6 515 508.6 499.9 491.4 481.9 473.8 466.6 459.5 449.3 442.3 433.9 426.5 417 399.5 383.8 375.1 400.1 411.5 422.2 432.7 443.4 454.6 463.6 475.8 485.8 496.3 511.9 526.3 533.4 537.4 541.2 543.9 543.8 542 543 543.1 539.5 535 528.5 523.3 518 515.2 511.5 505.1 501.2 500.2 498.3 495.7 494.9 491.4 487 484.6 482 479.5 474.8 472.2 470 471 470.9 470.7 468.9 465.6 469.5 472.7 480.6 484.3 491.3 500.8 511 521.9 531.6 540.8 549.4 558.6 568.2 577.7 586.9 594.3 599.2 599 597.2 596.9 589.7 585.5 585.6 588.3 585 575.7 565.6 564.3 565.4 567.3 569.1 572.3 577.9 581.4 584.5
105.1 105.1 105.1 105.1 105.1 105.1 105.1 105.1 105.1 105.1 105.1 105.1 105.1 105.1 112.6 122.8 134.3 145.7 157.2 168.2 179 189 198.1 207.8 222.9 240.9 256.4 270.5 284.8 296.9 309.4 323.6 337.9 352.3 368.6 386.5 403.3 415.7 421.9 424.3 424.7 424.5 427.2 431.8 441.1 450.2 458.4 466.8 474.7 482.2 488.9 495.6 499.4 503.9 509.5 515.7 520.3 520.8 521.9 524 526 527.3 528.2 527.9 527.5 528.3 527.5 527.2 526.6 525.4 523.9 522.7 521.5 521.2 520.8 520.4 520.8 520.1 519.3 519.9 521.6 522.4 527.3 532.8 537.9 543.1 548.7 554.4 557.5 559.7 562 563.1 564.5 563.2 562 560.1 557.2 552.7 546.6 539.7 533.2 527 521 515.9 509.1 501.3 493.3 483.9 476 468.9 460.7 450.6 443.3 434.7 427.6 422.1 406 385.5 376.5 402.8 414.7 424.1 434.2 444.2 455.8 466.8 477.5 488.4 500.5 513 524.3 532.9 540.6 546.5 549.6 550.3 550.3 552.1 553.1 547.8 543.3 537.1 532 525.6 523.2 521 517 513.4 511.3 505.5 503.9 503.4 500.9 495.8 494.2 491.5 485.8 481.5 477 476.7 479.7 478.8 476.3 473.6 473.7 468.8 475.6 478.8 483.4 489.9 500.9 511.1 521.3 531.3 541.5 550 559 571 582.8 589.2 595.2 597 595.8 592.4 587.5 583.5 583.3 586.2 583.8 579.3 572.2 567.2 562 559.9 562.1 566.3 568.6 574.1 578.8 581
105.1 105.1 105.1 105.1 105.1 105.1 105.1 105.1 105.1 105.1 105.1 105.1 105.1 105.1 117.4 129.3 140.9 152.1 163.1 174.1 185.2 194.4 202.2 212.6 228.2 244.9 260.9 276.4 289.8 302.5 314.7 329 343.7 357.1 373.3 391.2 408.4 421.7 428.5 432.5 435 436.8 439.4 443.2 448.9 458.2 467.1 475.5 483.9 491.7 498.7 506.1 510.6 515.4 520.5 526.9 532 532.5 531.8 533.1 534.3 535.3 535.5 535 535.8 537.6 537.8 537 535.7 533.9 531.9 531.2 530.3 529.4 528.7 528.6 528.1 527.4 527.3 527.8 529.3 530.8 534 538.9 543 548.1 554 559.3 562.1 563.3 565.6 565.9 566 564.5 562.1 559.4 557.4 552.7 546.4 539.7 533.3 526.8 521 515.3 508.7 502.6 494.5 485.7 477.4 469.8 461.7 453 444.5 435.6 429.4 424.2 412.7 388.8 382.7 401.4 416.1 425 436 446.9 457.5 469.5 479.2 489.8 501.9 512.7 522.8 533 544.1 551.7 554.4 555.4 557.4 558.1 557.9 554.2 550.3 546.3 541.1 536.7 533.5 530 526.3 522.8 520.9 515.4 512.9 511.9 508.7 504.4 502.2 496.4 492.9 488.8 487.1 485 482.9 481.4 479.5 477.3 476.2 476.5 475.1 480.4 486 490.6 503.2 512.5 522 531.9 540.9 551.1 561.2 573.6 581.1 586.5 591.3 593.6 590.2 582.7 577.1 576.1 573.1 572.3 570.4 569.4 566.8 563.1 558.8 556.2 557.6 561 564.7 567.8 570.7 571.2
105.1 105.1 105.1 105.1 105.1 105.1 105.1 105.1 105.1 105.1 105.1 105.1 105.1 112.5 123.4 135.3 146.5 157.4 168.2 179.7 190.8 198.7 206.3 217.2 234.3 251.1 267.6 283.3 297.7 310.5 322.9 337.6 352.9 366.9 382.4 398.4 414.5 427.6 435.2 441.1 444.7 447.9 451.8 455.6 460.4 467.6 476 484.3 492.6 501.3 509 516.5 523 528.3 533.4 538.7 543.4 544 543 543.2 543.2 543.7 543.7 543.4 545 546.8 546.8 546.5 545.4 543.9 540.8 540.4 539.7 538.5 538.1 536.9 536.6 536.1 535.7 536.5 537.2 538.7 541.6 544.6 548 551.7 557.6 562.9 565.3 566.1 566.1 566 564.5 562.8 560.1 556.6 554.2 550.5 544.5 538.4 532.3 525.5 519.9 514.3 507.6 501.1 494.4 486.4 478.6 470.8 461.4 453.8 445.8 437.5 431.2 425.9 417.3 392.7 381.2 396.8 415.9 426.4 437.4 448.4 459.4 470.6 481.3 491.8 501.8 511.9 522.7 533.2 544.5 554.2 558.8 560.2 564 562.8 561.8 560.6 559.4 558 555.1 550.4 544.4 539.7 535.6 531.4 529.8 527 522.1 519.6 516.7 512.2 510.2 506.2 500.4 495.5 490.6 490.1 488.7 486.2 483 480.8 478.8 477.9 477 487.9 493.7 494.3 506.3 514.1 521.8 530.5 540.2 550.7 559.7 568.8 575.9 583.9 592 583.9 576.9 573.3 571.7 570 567.5 564.7 562 560.8 559.2 558.1 557.2 555.8 555.4 556.9 562.9 562.6 563.9 563.4
105.1 105.1 105.1 105.1 105.1 105.1 105.1 105.1 105.1 105.1 105.1 105.1 110.4 119.3 128.1 140.8 153.4 162.6 172.2 184.1 195.4 203.4 211.9 223.7 241 258.6 275.4 291.8 306.7 320.2 332.9 347.2 362.7 378.8 394.1 408.1 421.8 434.4 442.3 448.7 453.9 458.1 462.8 467.6 472.8 478.8 485.1 493.2 502.2 510.8 519.3 528.3 536.5 543.6 548.1 552.4 554.8 555 554.5 554.2 553.5 553 550.9 552.4 554.6 556.1 555.3 554.5 553.3 549.7 548.6 548.3 547.4 546.1 546 545.3 544.6 543.7 543.5 543.4 543.8 545.2 547.8 549.2 552.5 555.6 561.3 565.2 567 567 565.5 564.2 562.1 559.5 556.4 552.1 549 545.5 540.1 535.5 530.1 525.3 519.1 513.8 506.8 500 493.5 485.9 478.5 470.9 462.7 454.5 446.9 439.7 432.5 427.4 415.7 392.5 388.2 404.9 416.9 428.5 438.4 449.6 461.4 472.9 484.4 494.2 502.5 512.7 522.7 533 543.6 552.9 560.9 567.1 570.8 568.9 568.8 569.3 569.8 573.4 572.6 567.1 558.9 552.6 546.5 541.6 538.7 536.4 530.6 527.6 525 521 517.3 514.4 506.4 499.7 495.9 495.3 492.8 490.1 486 482.8 480.9 478.5 482.7 497 497.4 498.9 506.9 516.2 522.6 530.3 540 548.9 557.9 565.4 573.6 579.6 576.1 571.4 569.8 569.3 568.3 567.7 565.9 564.4 562.6 561.2 560.7 560.8 560.7 559.1 555.4 554.2 555.9 557.7 557.9 560
105.1 105.1 105.1 105.1 105.1 105.1 105.1 105.1 105.1 105.1 105.1 105.1 116.1 125.6 134.7 146.5 159.2 166.6 176.1 187.4 197.4 205.6 215.2 229.7 246.8 266.7 284 300.4 315.9 329.5 342.6 356.8 372.8 390.3 406.5 418.4 430.3 441.1 448.8 455.4 461.4 467.6 472.8 479 485.2 491.6 497.3 502.9 511.5 520.7 529.4 539.4 549.3 557.3 561.8 566 566.1 564.7 564.6 564.8 564 562.5 562.3 563 564.9 565.1 564.4 564.1 562.5 558 556.7 555.5 555.2 555.1 554.5 552.9 552 551.4 551 550.1 550 551.3 553.7 554 556.9 559.7 564.3 566.9 567.5 566.3 564.5 562.3 559.3 556.2 551.2 547.4 543.3 538.6 535.2 531.8 527.3 522.9 517.3 512.1 506.3 500.1 492.4 484.9 477 468.8 460.5 452.9 446.3 438.7 432.7 428.2 412.6 391.3 391.2 410.1 421.3 430.1 438.7 450.8 463.3 474.7 486.5 494.8 503.3 513.6 524.4 533.1 541.9 550 559.3 567.6 571.8 572.8 574.5 578.5 582.2 584.6 582.8 579.2 575.8 567.4 559.7 553.6 549.5 544.9 540.4 538.1 533.7 530 527 523.1 514.2 505.1 502.5 503.7 499.6 493.3 488.9 485.2 485.5 482.5 489.6 498 498.4 500.2 508.6 521.2 526.6 530.4 539.5 548.2 555.5 562.3 570.2 568.9 567.2 566.2 566.1 566.4 566.1 566.8 565.8 565.5 565.6 564.9 563.9 564.3 565.4 560.4 556.5 554.2 554.2 555.3 557.1 558.3
