ncols 200
nrows 82
xllcorner 370000
yllcorner 662300
cellsize 50
266.3 273.8 284.5 297.4 304.2 308.5 312.5 313.5 312.5 309.1 302.9 295.8 286.4 279.8 274.7 253.4 251.1 271.6 269.4 264.9 265.7 279.6 295.2 309.7 323 337.3 350.1 358.1 366.5 374.5 380.8 383.9 383.9 381.8 377.7 373 366.7 359.7 351.7 344.1 335.7 328.3 321.3 313.2 306.6 318.3 325.3 329.5 329.8 327.8 324.6 321.1 318.6 316.7 315 312.8 311.8 308.8 308.1 307.5 305 304.6 304.2 304.2 303.8 302.6 301.8 298.9 295.1 290.4 286.3 284 280.8 278.1 275.9 274.8 273.2 271.9 269.7 267.4 265.9 264.8 263.7 262.3 260.8 258.3 257.7 257.7 259.5 261.9 268.3 275.1 281 285 285 281 275.3 271.2 265.9 259.7 252.8 247.7 244.2 240.2 236.3 236.7 237.9 238.6 239 236.9 234.3 231.6 228.5 224.2 219.8 217.1 215.7 213.8 212.1 209.7 203.4 202.5 207.9 211.2 216.6 220.3 222.7 224.4 224.8 224.2 223.7 223.8 222.6 221 221 221.7 221.4 220.9 219.4 218.8 218.4 217.6 216.9 218 218.1 218.1 219.1 220.4 221.2 222.5 223.8 225.1 225.6 225.7 224.9 223.9 222.6 220.8 218.9 217.1 215.3 213.5 211.3 209.2 206.9 204.1 200.7 197.1 192.2 190.4 195 198.8 201.6 203.9 205.6 206.1 206.5 208.8 209.6 208 204.9 200.2 194.2 187.3 179.6 170.5 159.4 147.4 142.8 143 143.3 141.2 138 128.3 117.8 120.4 120.3 126.4 135.1 140.9
250.7 251.7 263.6 275.7 289.4 298.2 302.6 306 305.4 303.3 298.4 293.9 285.6 279.9 275.8 261.5 247.1 253.1 258.1 271.3 283.4 297.7 311.5 324.1 338.8 347.7 354.7 360.9 366.6 372.3 376.9 379.4 379.5 377.2 373.2 368.3 362.1 354.7 346.6 338.7 331 324.1 317.8 309.2 301.1 313.5 320.3 324.2 324.6 322 318.5 315.2 312.7 311 309.4 308 307.1 306.3 305.1 303.7 304.9 305.5 306.4 306.6 306.8 307.2 306.7 305.3 301.6 296.9 290.9 287.1 284.2 282.7 281.8 279.5 277.7 275 272.6 269.4 267.6 266.3 265.3 263.6 261.7 260.9 261.3 261.6 263.2 265.7 272.6 280 286.2 288.1 288.3 285.5 281 275.6 270.4 263.8 257 251.4 247.7 243.9 236.9 232.8 232.6 235.6 237.1 236 233.7 231 228 224.8 220.4 216.4 215.4 213.2 211.9 210.9 207.3 202.5 203.4 207.5 210.4 213.8 217.4 219.9 220.5 220.4 220.8 220.7 219.2 218 218.6 218.8 218.6 218.1 217 216.5 215.6 214.3 213.1 214.2 214.9 215.2 216.2 217.4 218.8 220.3 221.8 223.4 224.3 224.6 224.4 223.3 222 220.2 218.3 216.5 214.7 212.8 210.9 208.8 206.5 203.3 199.7 195.9 197.1 200.8 204 206.7 208.9 211.2 212.6 212.3 212.7 214 213.3 212.1 209.4 205.1 199.4 192.8 185.6 177.5 168.1 156.5 147 142.5 139.3 136.3 133.7 129.1 121.6 119 121.1 121.5 122.9 127.9
249 247.5 250 254.7 265.4 280.2 291.7 295.4 296.4 295.8 294.4 289.5 284 279.2 274.5 266.7 249.6 244 267.1 291.4 305.9 316.5 327.4 336 342.9 349.9 356.1 361 365.4 368.4 371.2 372.6 372.7 370.8 367.1 362 355.5 347.6 339.6 331.7 325 318.7 313.1 307.6 296.6 308.3 314.9 318.7 318.6 315.8 312.3 308.7 306.1 305.1 303.8 302.5 301.6 301.1 300.5 300.3 302.8 305.2 306.5 307.6 309.2 309.9 311 310 307.6 302.5 295.1 290.2 288.7 288.7 287.2 284.8 281.5 278.3 275 271 269.2 267.8 266.5 264.6 263.6 263.3 263.8 265 266.5 270.6 276.6 283.3 288.3 289.8 289.9 286.9 283.2 278.1 272.9 266.6 260.7 255.8 251 248.8 243.8 233.9 230.1 230.1 231.9 232.4 231.3 229.4 227 224.1 221.1 218.3 214.4 212.8 211.8 210.8 207.1 201.7 201.4 202.4 206.1 209.3 212.1 215 216.5 216.5 217 217.3 216.2 215.4 216.6 216.6 216.2 215.5 215 213.9 212.8 211.6 210.3 211.2 211.9 212.9 213.9 215.4 216.8 218.4 220.3 222 223 223.8 224 222.6 220.9 219.5 217.7 215.8 214.1 212.8 211.2 209.3 206.8 204.7 202 201.9 202.9 206.5 209.4 211.7 213.7 215.5 216.7 217.5 217.5 217.4 216.8 215.9 212.4 208.5 203.7 197.2 190.2 182.9 175.5 166.4 157.8 151.4 145.4 137.6 133.7 128.8 123.9 121.9 121 121.7 121.6 121.9
259 247.3 246.8 248.2 249.8 251.5 268.1 283.4 285.3 286.6 287.7 285.7 280.8 275.6 273.2 265.6 249.7 246.5 267.7 296.3 315.1 323.6 331.1 337.4 343.5 349.4 354.6 358.3 360.7 362.7 363.4 363.8 363.8 362.3 358.8 354.2 347.8 339.8 332.9 326.1 320 313.9 308.2 303.3 294.6 304.2 309.4 312.3 311.9 309.5 306.2 303.1 300 297.9 297.7 297 296.4 295.8 295.3 295.8 298.8 302.9 306.2 308.9 311.3 312.5 314.3 313.8 311.4 306.3 299.2 294.4 294.7 293 290.4 287 283.5 279.5 277 273.7 271.7 270 267.4 266.2 265.5 265.6 266.3 268.1 271.2 274.8 279.9 285.8 289.4 290.8 289.9 287.1 283 278.6 273.7 268.3 263.6 258.9 253.4 248.6 244.5 237.9 232.4 228.2 226.3 226.1 226.2 225.7 224.4 221.9 219.3 217.2 214.6 212.1 210.9 210 206.9 204 200.7 200.1 202.5 205.9 208.7 211.1 212.5 212.9 213.2 213.6 213.1 212.9 214.2 214.2 213.6 212.9 212.1 211.1 210.1 209 208.1 208.3 209.2 210.5 211.6 213.2 214.9 216.6 218.6 220.5 221.8 222.8 222.8 221.4 219.7 218.2 217 215.9 214.6 213.3 211.6 210.2 208.7 206.9 205.1 206.1 208.1 210.7 213 215.5 217.3 218.7 220.1 221 220.1 218.9 218.9 217.8 214.7 211 206.3 200 193.3 185.9 179.1 172.4 166.5 161.1 154.5 147.5 139.6 132.7 126.5 122.6 119.9 119.9 121.4 119.7
269.9 262.6 252.3 244.7 244 243.5 245.4 252.9 270.2 276.2 278.2 280.8 276.8 272.6 270.1 263.1 250.7 243.4 268.6 296.6 315.3 322.7 330 336.2 341.7 347.1 351.2 354.1 355.2 355.1 354.4 353.8 353.6 352.7 350.5 346.3 340.4 334.5 327.6 320.6 313.9 305.6 299.3 297.1 291.1 298.4 303.6 305.5 305.5 303.7 300.8 297.5 294.2 290.5 291.4 291.8 291.3 290.6 289.4 290.8 294.7 299.4 304.4 308.7 312.3 315.1 316.5 315.8 313.2 308.6 302.8 300.6 299.4 295.6 292.4 288.4 284.4 281.1 279.4 278.1 275.9 272.8 269.9 268.1 268.3 268.1 269.4 271.4 274.2 278.7 283.7 287.2 288.7 289.5 288.3 285.8 282.1 277.8 273.6 269.3 264.6 260.5 256.1 250.8 246.1 241.4 236.1 231.6 226.3 223.6 220.5 220.3 219.9 218.6 217.3 215.7 214.3 211.3 210.2 208.5 205.6 204.2 202 199.7 200.6 202.9 205.7 207.7 208.7 209.7 210.2 210.5 210.1 210.6 211.5 212.1 211.4 210.6 209.9 209 208 206.7 205.9 205.9 206.7 208.2 209.6 211.2 212.8 215 217.1 219.2 220.7 221 220.5 219.5 218.5 217 216.5 216 214.9 214.3 212.9 211.7 211 209.7 209.3 210.5 213 213.6 216.1 218.3 219.9 221.4 222.2 222.6 221.8 220.9 219.8 218.5 215.4 211.7 206.5 201.3 194.6 188 181.4 175.4 169 164.1 157.8 153.3 147 137.3 135.3 130 122.5 118.4 118.9 118.8
282.8 276.1 267.4 257.1 245.1 243 242.9 242.3 243.6 254.1 267.4 270.4 272.4 269.2 266.1 260.4 249.5 243.6 269.4 296.8 312.1 319.4 325.8 332.3 338.1 343.1 346.3 347.7 347.4 345.9 344.6 343.6 345.2 346.3 345.1 341.3 336.1 329.5 322.2 314.3 310.5 308.9 305.8 300.1 293.3 287.2 296 298.7 299.1 297.9 296.3 293 289.6 284.8 285.6 286.4 286.2 285.6 284.1 285.3 290 296.5 303.2 308.2 312.8 316.5 317.6 316.1 313.3 310.7 307.3 305.4 301.9 297.1 293.3 289.3 286.2 284.5 283 281.5 279.9 276 273 271.3 270.9 270.8 272 274.3 278 282.6 286.1 287.5 287.6 287 286.3 283.3 280 276.3 272.3 268.5 264.6 260.6 256.6 252.6 248.7 245.1 240.4 235.2 229.6 224.6 220.4 217.4 216.2 215.4 214.2 213.7 212.6 210.5 208.3 207.1 205.9 204.2 201.8 198.8 199.4 200.2 202.6 204.7 206 207 207.6 207.8 207.4 207.7 208.6 209.3 209.3 208.6 208.1 207.1 205.5 204 203.5 203.9 204.9 206.4 207.8 209.3 211 213.3 215.4 217.4 218 218 217.9 217.1 216.1 215.7 215.9 216.1 216 215.7 215.1 214.4 213.8 213.3 213.3 214.2 215.6 216.9 218.5 220.1 221.4 222.7 223.6 223.7 222.8 221 218.8 217.3 213.5 211.1 207 201.7 195.6 189.5 183.8 176.9 169.9 163.9 159.5 155.3 148.4 143.5 145.5 143 137.4 128.7 119.6 117.1
297.5 292.9 283.6 274.4 266.3 261.7 251.3 241.8 241 239.4 241.7 258.3 261.7 264.6 261.4 256.8 246.3 243.7 268.9 295.9 308.2 315.4 322.4 328 333.7 337.8 340.2 340.2 338.4 334.2 329.6 330.5 337.9 341.5 341.6 338.4 334.1 327.9 324.5 322.4 319.8 315.7 309.4 302.6 296.4 288.8 283.3 289.9 292.5 292.1 290.6 288.9 285.9 280.9 279.5 280.9 280.8 280.4 279 278.9 286.9 295.1 302.4 308.6 314 317.8 317.8 315.8 313.1 310.5 309.4 306.4 302.5 298.1 293.5 290.4 287.9 286.8 285.5 284.5 282.9 279.7 277.2 275.2 274.3 274.4 275.6 277.9 281.7 285.2 287.1 286.9 286 284.1 281.8 279.5 276.8 273.7 270.2 266.6 263.2 259.1 255.3 251.9 249 245.2 241.4 236.4 231.9 227.2 222.4 217.7 215 213 211.8 211.4 210.4 208.2 206 205 203.7 202.2 200.1 198.5 197.9 198.9 200.4 202.2 203.2 203.9 204.7 205 204.4 204.6 205.9 206.4 207.2 206.7 206.2 205.2 203.6 202.2 201.7 202 203.3 204.6 206.2 207.7 209.6 211.9 213.5 215 215.2 215.2 215 214.3 214.1 214.9 215.7 216.8 217.6 217.7 217.4 217.2 216.9 216.4 216.4 216.6 217.7 218.9 220.6 221.1 222.3 223.4 223.1 223.4 222.2 220.1 217.8 215.5 212 210 205.7 200.9 196.1 190.1 183.7 177 169.9 163.4 156.4 143.9 152.6 154.8 154.4 152.7 148.7 141 128.6 117.5
309.8 306.6 301.5 291.3 283.1 276.5 266.2 262.3 252.2 240.6 237.7 237.4 247.2 253.6 257.1 252.6 244.5 242.2 267.5 291.3 302.5 310.5 317.4 323.6 328.7 332 332.6 331.5 327.1 313.9 308.7 316.9 331.9 340.3 341.5 339.8 338.2 335.3 332.6 329.5 325 320.4 313.5 306 298.8 291.3 285.1 280.6 282.7 285.1 285.5 284.3 282 278.3 274.4 275.6 275.5 274.8 274 277.2 285.4 294.4 301.9 308.8 314.6 317 315.9 313.3 311.1 309.7 308.4 305.8 302.6 298.3 293.3 291.1 289.1 288.3 287.4 286.1 284.6 283.2 281.7 279.5 279 279.2 279.6 281.7 284.9 286.6 287 286.3 284.7 282.2 279.1 276 273.2 269.8 266.5 263.9 260.7 257 253.8 250.4 246.8 243.8 239.9 235.9 231.4 227.5 223.6 218.2 215.4 212.5 210.5 209.1 208.2 206.1 204.3 203.2 201.7 200.5 199.3 198.6 197.2 197.1 198 199.5 200.2 200.8 201 201.2 201.6 201.9 203.4 204.5 204.9 204.7 204.1 202.9 201.7 200.5 200.4 200.9 201.9 203.2 204.6 206 208.2 209.9 211.4 212.4 212.5 212.5 212.4 212.2 213.4 214.7 216.2 217.7 219.3 219.6 219.3 219.1 218.8 218.7 218.6 218.8 219.8 220.9 221.4 221.6 222.7 223 222.7 222.4 221.2 219 216.7 213.1 210.2 207.1 203.7 199.2 194.6 188.9 182.3 176.7 171.7 163.3 155.8 157.6 158.9 163.2 162.6 161.9 157.6 150.6 140.7 124.7
318.6 315.5 309.9 303.5 296.9 288.7 280 270.2 263 254.8 240.2 239.1 235.6 239 245.6 246.8 242.1 239.8 262.6 275.8 291.2 304.6 311.8 318 322.8 325.3 325.1 322.4 306.2 292.6 308.8 326.2 336.5 340.4 343.4 343.7 342.8 340.5 337.4 334.3 328.7 327.1 316.9 308.6 299.8 295.5 290.2 283.5 278.3 275.6 276.3 277.6 276.5 275.7 271.9 270.1 269.9 269.8 268.8 275 283.7 293.1 300.7 307.5 312.4 313.5 311.9 309.6 307.6 306.9 305.9 303.9 301.1 296.5 292.1 289.7 289.2 288.5 288 286.8 285.7 285.7 285.1 283.5 283.5 283.7 283.8 284.5 286.3 287.1 286.9 285.9 283.3 280.8 277.5 273.6 269.9 267.1 264.5 261.8 258.3 254.2 251.5 247.9 244.1 240.6 236.9 233.1 229.2 225.3 222 217.9 215.4 213.2 211.1 209.2 207.4 206.1 205 203.9 202.9 201.1 199.4 197.6 196.3 196.3 196.4 196.8 196.7 197.6 197.7 197.7 197.9 199.5 201.3 202.7 202.7 202.8 202 201 199.8 198.2 198.5 199.3 200.5 201.7 203.1 204.4 206 207.7 208.6 209.3 209.5 209.4 209.9 211.5 213.3 214.9 217.3 219 220.6 221.3 221.1 220.9 220.7 220.7 220.7 221 221.3 221.5 221.8 221.9 222.2 222.5 221.9 220.9 219.8 217.7 213.8 210.1 206.3 204 200.4 196.4 191.4 185.6 180.1 175.1 169.4 157 166.3 167.8 171.1 171.8 169.9 166 161.4 156.2 148.4 135.4
324 320.9 315.4 310.5 303.4 296.5 285.4 278.9 273.5 266.5 260.5 250.4 236.2 235.2 234.9 239.4 239.6 237.5 257.8 274.1 286.6 297.2 304.8 310.6 314.5 317 317 306 288.9 293.7 314.1 331.6 339.8 344 346 347.9 347.5 345.7 342.6 338.2 332 326.3 319.7 312.5 308.9 303.7 297.6 290 284.3 278.8 273.9 271.8 269.6 269.9 267.7 266.3 264.9 263.9 265.6 272.1 280.4 290.3 297.8 304.1 307.9 307.8 305.5 303.9 304.3 303.9 302.9 301.4 298 293.7 290.7 288.8 288.3 288.5 288.1 287 286.3 286.8 287.4 286.5 286.8 286.5 286.3 285.4 286.3 286.8 286.4 284.5 281.9 279.3 276.2 272.2 269 266 263 259.4 255.5 253.3 250.3 246.1 241.7 237.3 233 229.5 226.3 223.6 221.5 219.8 217.8 215.3 213.2 211.4 209.6 207.7 206.1 205.3 203.9 203 200.4 198.5 197.7 195.3 195.2 195.4 194.4 194.4 194.3 193.3 193.7 196.4 198.8 200.3 200.9 201.2 200.2 199.2 198.2 196.6 196.7 197.7 198.6 199.7 201 202.3 203.8 205.1 205.8 206 206.4 206.3 207.7 211.2 213.1 215.7 218.4 220.4 222 222.8 222.6 222.6 222.4 221.8 221.9 222 221.7 221.9 222.2 222 221 220.9 220 218.9 217.2 213.8 210.5 206.4 202.6 199.1 195.9 191.5 186.4 182.1 173.1 163.5 172.3 174.4 174.5 177.2 178.7 176.6 173 169 164.2 158.8 152.3 142.6
327.5 324.9 320.6 315.6 310.1 303.9 296.9 288.5 285.5 280 273.5 266.9 257.3 247.6 235.1 234.2 235.8 234.8 248 262.9 276.8 288 296 302 305.8 308.3 307.3 290.3 274.9 296.2 318 331.5 340.3 346.1 349.7 351.1 351.2 349.3 345.6 340.8 334.9 328.9 324.1 318.9 314.6 309.1 303.5 297.4 290.6 285.1 282.1 278.5 274.7 271.1 268.7 266.3 265.4 263.2 259.2 264.5 276 285.5 292.7 297.7 299.9 299.6 298.3 298.9 299.7 300.2 299.8 298 294.6 291.4 288.3 286.3 286.9 287.5 288 287 286.7 287.4 287.8 287.7 287.8 287.9 287.5 286.2 286.3 286.3 285.2 283.4 280.8 278.1 275.1 271.8 268.6 265.5 263 260.1 255.8 251.9 249.2 245.2 241.4 237.3 234.3 232.1 229.4 228.1 226.3 224.1 221.9 218.8 215.5 212.3 210.2 208.4 207.4 206.2 204.4 202.1 202.3 202.6 203.6 202.1 198.1 196.3 195.2 193.9 193 192.6 192.1 192.6 195.1 196.8 198.5 199.6 199.1 198.3 197 195.5 194.5 195.5 196.6 197.7 198.9 200.2 201.5 202.4 202.8 203.1 203.2 204.7 207.8 211.3 214.3 217.1 219.9 221.7 223.2 224.3 224.4 224.5 224.3 223.7 223.1 222.6 222.1 222.1 221.8 220.7 219.4 218.7 217.3 215.5 212.2 210.1 207 203.2 199.1 195.3 192 187 183.1 170.5 178.5 181.5 183.2 184.1 184.6 184.6 183.7 181.1 177.8 173.3 168.8 162.9 156.5 147.1
330.6 328.3 324.3 320.7 316.3 311.4 305.1 300.7 295.9 291.1 286.8 281.2 273.1 263.9 255.7 244.2 234 231.5 236.2 248 260.9 275.5 287.1 293.8 297.1 298.9 297.2 277 274.7 298.2 317.1 328.9 338 345.6 351.1 354.3 354.2 351.6 347.6 342.6 337.1 331.1 327.4 322.4 318.1 313.2 307.9 302.8 297.2 292.5 288.6 285.4 282.5 279.9 276.9 274.6 271.9 269.5 265.9 258.6 264.6 278.9 285.7 289.7 291 290.3 293.5 293.2 294.7 296 295.2 292.6 290.5 288.2 285.5 283.2 284.4 285.9 286 285.3 286.5 287 287.4 287.6 287.5 287.5 287.2 286 285.6 285.1 284.1 282.5 279.8 277.7 274.9 271.9 268.8 265.6 263.3 260.8 257.1 253.4 250.4 247.1 244 240.7 238 235.2 232.5 230.3 227.5 224.8 222 219.2 216.3 213.4 210.7 209.3 208.1 206.6 204.2 204.2 204.8 206 207.4 207.4 205.6 202.9 201 198.8 194.2 191.6 191 190.8 190.9 192.5 194.9 197.1 197.3 196.5 195.3 194.4 192.5 193.8 194.7 196 197.1 198.4 199.3 199.8 200 200.3 203.5 206.7 209.5 212.6 215.9 218.7 221.2 222.8 224.3 225.5 226.1 226.4 226.2 225.6 224.5 223.1 222.5 222 220.6 218.9 217.6 216.1 214.5 210.9 208.6 206.4 203.4 200.3 196.6 192.8 189.1 182.2 179.1 183.6 187.8 191 191.8 191.5 191.4 190.5 187.9 185.4 182.3 178.7 174.2 168.5 162.3 153.3
331.1 330 327 324.7 320.8 317.3 312.8 309.4 305.4 300.9 296.3 291.4 285.8 277 265.2 256.1 241.9 235.3 233.9 238.4 247.5 259.7 276.5 286.3 290.6 291.8 289.6 268 272.3 290.8 300.9 314.9 333.1 342.6 349.7 354.1 355.2 353 348.4 343.3 337.9 332.8 328.8 324.9 320.6 316.3 312.6 308.3 304.1 300 296.4 293.1 289.8 286.5 283.2 280.8 277.7 274.6 269.6 263.1 254.4 270.1 277.9 280.8 280.9 285.1 287.7 285.6 287.6 290.2 289.9 289.6 288 286.2 283.5 280.7 280.6 282.8 282.3 281.9 284.1 285.7 286.1 286.4 286.2 285.9 285.4 284.1 283 283.3 282.7 281.3 279.2 277.1 274.4 271.3 268.6 265.8 263.3 260.9 257.6 253.1 250.7 247.8 245 242.5 239.5 236.6 233.6 230.3 227.6 224.9 222 219.1 216.5 214 211.4 209.6 208.2 207 206.1 207 208.2 209.5 210.3 209.9 209 206.8 204.3 202.6 198 194.3 190.8 190 190.1 189.9 189.5 194.2 194.4 194.2 193.8 193 191.2 192.8 193.9 194.4 195.4 196.1 196.6 197.1 197.5 201 205.2 208.5 211.3 214.3 217.4 220.7 223.5 225 226.4 227.3 227.7 228 227.9 227 225.2 223.7 222.8 221 219.1 217.2 215.6 214 211.9 209.1 206.3 203.6 200.3 197.2 194.6 191.3 183.2 181.9 186.9 192.3 194.8 196.2 196.6 196.1 195.4 193.8 191.4 188.3 184.9 181 176.3 171.5 166.5 159.7
330 329.7 329 326 324.1 322.5 319.9 316.6 313.1 309.4 305.3 300.6 295.1 286.2 273.2 255.8 251.5 245.5 236.2 233.4 235 247.2 261.8 277.2 283.9 285.9 284.1 263.6 260.7 273.2 285.3 300.6 319.8 338.6 346.4 351.8 353.6 352.2 347.9 343 338.1 333.6 329.3 325.5 321.8 319.3 316.3 312.8 309.5 306.8 303.6 300.1 296.4 291.8 288.2 284.6 281 276.4 270.6 264.1 255.5 257.5 266.3 267.6 272.2 279.1 280.7 277.4 282.1 284.9 286.2 286.6 285.7 284 281.5 277.3 277 278.4 278.3 278.5 281.2 283.7 284.9 285.3 284.8 284.3 282.6 281.5 280.2 281.2 281.1 279.8 278.3 276.3 273.8 270.8 267.6 265.2 263 260.7 257.5 252.5 249.5 247.1 245.5 243.2 240.4 237 233.9 230.7 227.9 225.3 222.6 220 217.8 214.4 212.1 210.4 209.2 208.7 208.9 210 211.1 211.7 212.1 211.6 209.6 207.8 206.4 204.8 200.8 197.5 195.1 191.5 189 189.1 188.9 188.8 191 191.9 191.7 191 190 192.7 193.6 193.3 193.3 193.6 194.1 195.2 198.5 202.7 206.9 210.3 213.2 216.3 220.5 224.4 226.2 228 228.4 229.3 229.6 229.6 228.9 227.4 225.4 224.1 222.9 220.4 218.5 216.5 214.2 212.2 210.2 207.4 204.6 201.5 197.8 194.1 192.1 185.7 187.9 189.9 194 197.1 198.5 198.5 198.5 198.1 197.4 195.7 193.7 190.3 186.3 182.3 178.3 173.6 168.4 162.9
326.9 326.6 326.6 325.4 324.7 323.8 322.7 321.1 319.4 316.8 313.7 309.4 301.8 287.2 269.2 268.4 263.2 256.9 245.3 231.8 229.4 232.5 249.1 266.3 276.7 278.8 270.6 253.1 258.1 273.4 283 288.2 311 334 340.1 349.1 351.2 350.1 346.5 341.7 336.6 332.2 328.7 325 322.1 320.3 318.4 316.5 314.6 311.9 309.4 306.1 301.8 296.8 292 286.8 282.3 276.4 270.4 264.8 260.1 252.4 253.4 257.6 265.9 271.4 272.5 271.6 277.4 281.8 283.2 283.9 283.3 281.6 278.6 273.8 273.2 273.8 274.2 275.1 278 281.1 282.9 283.9 283.5 282.4 280.4 279.1 277.9 279.4 279.2 278 276.7 274.8 272.6 270.3 267.2 264.1 261.3 259.2 256.6 252.4 248.5 246.5 245.2 243 239.7 236.5 233.9 231.1 228.9 227 224.8 222.3 219.1 215.8 213.4 211.4 210.8 211.2 212 212.8 213.6 214 213.7 212.1 209.5 208.2 207 205.1 202.5 199.2 196.9 196 192.7 189.6 188.7 187.9 187.4 187.7 188.9 188 189.5 192.1 193.6 193 192.2 190.9 192.3 195.5 199.4 203.5 207.9 211.5 215.4 219.1 223.6 227.5 229.6 230.9 231.4 231.4 231.2 230.6 229.3 227.7 225.9 224.4 222.7 220.2 217.9 215.7 213.4 211.2 209 206.7 203.4 200.2 196.8 193.9 189.9 190.6 194.1 195.8 197.4 198.8 199.3 199.4 199.3 199.1 197.9 196.4 194.1 191.2 186.9 182.5 178.2 173.7 168.8 163.4
317.5 321.9 323.9 324.1 323.8 323.7 323.9 324.2 323.5 321.8 319 312.9 301.6 288.2 286 282.8 277 268.9 255.1 247.5 234.4 228.2 233.1 249.6 265.2 267.2 252.4 246.8 267.6 285.6 298.9 312 320.4 333.8 337.5 346.6 348.4 347.1 344.2 340 334.8 329.5 326 323.2 320.8 319 318.4 317.8 316.8 315.1 312.6 309.9 305.5 300 294.4 288.9 283.1 276.4 270.4 264.8 260.5 255.9 250 251 257.5 262.7 262.2 269.1 274.4 278 280.5 281 280.6 279.1 276.1 270.8 269.3 270 270.8 272.3 275.6 278.4 280.6 280.9 281.5 281.3 280 277.8 275.7 276.2 276.7 276 275 273.2 271.2 268.9 266.3 262.4 259.4 256.6 254.4 251.4 247.7 245.1 243.5 241.4 238.4 236.1 233.6 231.5 230.1 228.8 227.4 225.3 220.8 217.2 214.9 213.9 213.2 213.8 214.6 215.7 216.5 215.2 213.2 211.1 209.8 208.7 207.5 205.8 203.2 202.1 201.5 200.8 197.8 193.2 190.8 187.6 187.2 187.1 187.1 186.3 185.8 189.5 191.6 192.2 191 188.8 192.9 195.7 199.2 203.5 208 212.7 217.3 221.7 226.5 229.8 231.5 233.1 233.6 233.5 232.9 231.7 230.4 228.3 226.5 224.9 223 220.2 217.6 215.3 213.1 210.7 208.6 206.5 203.7 201 197.9 194.3 194 195.6 196.8 197.2 198.1 199.1 199.4 199.2 199.1 198.8 197.8 196.5 193.5 190.3 187 182.1 177.5 172.9 168.2 163.2
302.2 313.6 322.3 322.2 322.8 323.6 324 324.9 325.6 324.8 321.9 314.4 305 301 299.4 295.8 291 284.1 271.5 256.9 246.1 235 228.2 233.8 245 250.3 238.6 256.9 277.5 295.4 313.3 323.4 332.9 336.1 342.3 343.9 344.6 343 340.4 336.7 332.1 326.7 322.5 318.6 316 316 316.5 316.6 316.5 315.5 313.3 310.3 306.2 301.1 295.2 289.2 283 276.3 269.6 264.3 260.3 256.9 253.4 248.5 248 254.5 259.4 266.5 271.4 275.4 277.3 277.6 278 276.6 273.6 268.4 266.2 266.9 268 270.3 274 276.2 277.5 278.2 278.8 279.4 278.6 276.8 275.1 274.7 274.4 273.9 273 271.6 269.8 267.6 264.8 260.8 258 255.2 252.3 249.5 245.5 243.4 241.7 240.2 237.4 235.3 233.3 232.2 231.4 230.1 229.5 228.4 223.5 218.7 216.5 216.3 216.1 216.4 217.9 218.9 218.4 216.8 213.8 212.1 210.7 209.4 208.1 206.5 204.9 204.7 204.4 202.8 199.5 198 196 192.9 189.6 187.5 186.5 185.6 184.9 184.7 186.2 187.4 186.6 189 192.1 194.9 197.9 202.1 207.3 212.4 218.3 223.6 227.9 231.7 233.3 234.6 235.5 235.1 234.7 233.2 231.5 229.4 227.4 225.8 223.5 220.9 218.3 216 213.6 211.2 208.9 206.4 204 201.8 199.8 196.8 196.6 197.7 197.8 198 198.3 198.5 198.8 199 198.7 198.3 197 195.1 192.2 188.9 185.1 180.7 176.1 171.7 167.2 162.3
309.2 302.2 317.1 322.2 322.2 323.7 325.4 327.4 327.3 326.7 324.3 319 316 315.7 310.5 304.7 299.1 293.6 283 271 257.4 246.1 229.7 228.4 230.9 233 246.3 266.9 287.6 306.4 319.8 327.7 333.9 338.4 340.5 341.2 340.6 338.9 336.4 333.1 329 324.1 318.6 310.7 310.3 311.3 312.6 313.4 313.7 313.5 311.8 308.7 304.7 299.8 294.4 288.1 281.9 275.2 268.9 265 261.1 257.2 254.4 251.5 247.9 249 256.8 261.7 267.4 271.6 273.7 273.8 274.4 272.8 270 267.5 264.7 263.1 265.1 268.6 271.5 273.8 275.2 275.9 276.5 277 276.4 275.4 274.1 273.6 273 271.7 268.7 267.8 266.6 265 262.5 259.1 257.5 254.6 252 248.3 244.4 242.1 240 238.5 236.5 234.2 233 232.1 231.7 231.1 230.8 229.3 224.1 219.8 218.4 217.7 218.2 219.2 220.4 220.6 220.3 217.1 214.6 213.6 211.9 211 209.3 208.1 207.3 207.1 206.2 205.2 204 204.1 202.8 200.2 197.4 193 187.2 185.7 183.3 184.1 183.9 184.2 185.2 186.4 190.1 193.3 198 202.6 207.6 213.6 219.3 224.2 228.9 232 234.7 236.6 237.2 237 235.8 234.5 232.6 230.4 228.6 226.7 224.2 221.6 219.1 216.7 214.3 211.9 209.7 207.4 205.4 203.4 201.5 200.1 199.8 199 198.6 197.7 197.5 197.8 198.1 198.1 198 197.4 196 193.5 190.4 187.5 183.8 179.5 175.1 170.4 166 161.6
308.7 300.4 309.1 322 322.3 325.3 328.2 330.1 329.6 329.1 327.7 325.4 324 320 315.5 311.4 306.2 299.3 290 278.8 266.6 257.3 242.8 231.8 225.7 224.2 241.9 262 282.8 304.5 320.3 328.6 333.9 337.8 338.5 337.9 336.3 334.2 331.7 328.5 325.4 321.4 315.6 308.8 300.2 302 304.7 307.7 308.9 309.4 308.1 305.8 301.7 296.8 291.7 285.5 280.3 274.1 269.6 265 261.3 258.2 254.4 252.7 250 245.6 246.2 256.6 260.2 265.9 268.7 269 269.5 269.2 267.2 264.9 262.3 260.9 263.5 266.8 268.9 270.9 272.4 273.4 273.8 274.1 273.8 272.9 271.7 271.5 271.5 270.5 267.5 261.8 260.9 260.8 259.6 257.5 256.1 254.2 251.5 248.6 243.8 241.2 238.9 236.6 234.8 233.7 232.6 232.2 231.8 231.4 230.5 228.1 224.4 220.6 219.3 219.1 219.8 221.3 222.3 222.2 221 217.6 216.2 215.3 214.2 212.9 212 211 210 209.8 209.6 209.3 209 208.6 206.9 204.3 201.1 199.9 196.6 195.5 192.3 189.4 185.4 183 183.1 183 185.3 191.1 197.7 202.8 209 214.3 218.9 224.3 228.1 232 235.7 238.3 238.6 238 236.3 235.7 234.3 231.7 229.7 227.3 224.8 222.3 219.8 217.3 214.8 212.6 210.3 208.3 206.6 204.8 203.8 203 201.8 200.1 198.6 197.6 197.2 196.7 196.6 196.7 196.5 195.9 193.8 191.3 188.4 185.9 182.4 178.5 173.9 169 164.4 161.4
301.3 298.5 296.8 315.3 322.4 330.1 332.8 332.2 332 331.4 330.3 329.1 326.8 323 320 314.5 306.8 297.5 289.3 280.2 271.5 265.1 254.4 240 228.1 225.5 229.2 244.6 264.2 285.1 305.3 325.4 331.9 334.7 334.5 332.7 330.6 328.5 326.7 324.9 322.5 318.7 314.4 307.2 299.5 289.6 289 295.8 299.7 302.2 302.4 300.2 297.1 293 288.7 283.3 279.4 274.7 270.3 265.3 261.3 259.7 258.8 257.6 255.5 252.8 244.2 243.5 252.1 257.3 261.2 264.1 265.3 265 263.9 262 259.5 259.4 262.1 263.9 265.9 267.9 269.3 270 270.4 270.6 270.7 270 268.4 267.9 268.5 267.3 264 259.9 255.5 255.6 255.9 256 254.8 253.3 251 248.1 244.1 240.3 237.8 235.3 233.8 232.9 231.8 231.7 231.1 230.6 229 227.1 225.1 221.8 220 220.3 220.7 222.3 224.1 224.1 221.8 219.5 218.4 217.5 216.4 215.5 214.9 213.7 213.4 213.2 213 212.9 212.4 211.2 209 206.8 205.2 204.2 201.9 200.9 198.2 195.9 192.1 187 181.8 181.9 181.8 186.9 196.2 202.9 208.5 213.5 218.7 223.4 227.6 231.7 235.5 237.8 238.3 238 237.4 236.7 235.9 233.4 230.5 227.9 225.4 222.9 220.3 217.6 215.1 213 210.9 209.1 207.5 205.9 204.7 203.7 202.1 200.1 198.8 197.5 196.6 195.5 195.2 194.8 194.4 193.1 191.5 188.9 186.8 184.4 181 177.6 173.4 169 165.1 161.6
293.1 288.2 286.1 294.9 311.8 321.7 326 327.2 327.8 327.5 326.6 325.8 322.9 317.4 311.8 306.9 300.3 294.4 288.2 281.1 274.2 269.2 261.9 248.9 229.8 224.1 225.8 228.3 247 265.5 286.5 307.1 326.3 329.6 328.9 326.3 324.3 322.1 321.3 320.7 319.7 317.6 313.8 309.4 304.8 299.9 292 281 279.3 290.2 293.3 293.1 290.7 288.3 285.7 282.6 278.9 274.4 270 266.1 265.8 266 265.7 264.7 262.6 259.2 254.4 247.4 241.2 247.8 253.7 258.4 260.3 260.8 260.7 258.7 256.6 258.6 260 261.5 263.3 265 265.7 266.3 266.6 267.7 268 266.2 263.8 262.3 263.5 262.9 260.8 257.5 252.8 251.2 252.1 253.7 253.3 251.8 249.8 246.6 242 238 236.5 234 232.9 232 231 230.3 229.2 228.5 227.5 226.8 224.9 222 219.5 219.3 220 222.7 224.5 224.6 222.5 221.1 220 219.3 218.8 217.6 216.9 216.5 216.2 215.7 215.7 215.6 214.3 213.1 211.8 209.6 208.9 206.6 205.5 204.3 200.8 198 197 193.6 188.7 180.9 180.8 181.7 191 201.4 207.3 211.7 217.3 222.5 227.2 231.4 234.8 235.7 236.2 236.8 236.8 237 235.9 233.9 231.2 228.6 226.1 223.3 220.6 218 215.3 213.5 211.8 210 208.4 206.8 205.4 203.8 202.3 200.2 198.7 196.7 195 193.9 193.1 192.2 191.3 190.1 189 187.2 185.2 183 179.8 176.7 173.5 169.7 166.5 162.7
299.4 291.9 282.2 278.5 292 306 312.4 315.4 316.9 317.4 318.2 318.8 316.5 311.3 305.6 303.1 298.6 293.2 287.7 281.4 275.5 269.3 262.7 253.7 239.5 225.2 222.3 226.1 229.4 245.9 267.3 289 311.3 323.7 322.7 319.4 315.8 313.3 314.9 316.8 316.8 316.2 314 310.1 305.7 301.4 296.4 289.5 277.6 268.2 278.7 283 283.9 284.3 283.5 281 278.4 275.5 272.4 271.4 272.1 272.7 272.4 271.5 267.8 262.9 258.6 251.5 241.7 240 247.2 253.4 256.9 258 257.1 255.1 252.5 257.3 258.8 260 260.8 261.2 261.7 261.8 263.2 264.7 264.7 262.4 260 257.9 259.6 258.8 257 254.4 250.4 248.4 250.2 251.4 251.3 250 248.2 245.2 241 236.1 234.3 232.8 232 231 229.7 228.7 227.6 226.4 226.6 226.1 224.6 222.3 218.9 218.3 219.5 221.4 223.7 223.8 222.9 222 221.1 220.8 220.7 219.6 220 219.6 218.9 218.2 218.2 217.6 216.3 214.9 213.6 212.9 211.9 209.1 207.3 205.9 203.4 200.3 199.1 196.7 193 187.2 180.3 180.7 184.9 197.8 203.8 209.1 215 221 226.1 229.6 232.3 233.6 234.4 235.6 236.5 236.7 235.7 234.3 231.5 229 226.3 223.6 220.9 218.5 216.3 214.4 212.6 210.8 209.4 207.9 205.6 204.1 202.1 200.2 197.8 195.5 193.6 192.1 191 190 188.6 187.2 186.7 185.5 183.5 181.3 179 175.8 172.9 169.7 166.4 163.4
302.7 296.7 288.9 277.3 273.7 287.4 293.8 296.4 297.5 298 298.7 303.4 308.1 305.6 299.5 295.5 291.4 285.1 278 270.9 264 256.3 247.9 236.9 229 226.6 220.4 222.2 225.1 231 249.5 272.2 297 316.7 315.5 311.8 306.5 291.7 307.9 312.1 313.4 313.7 312.5 309.4 305.5 301.6 296.7 289.9 283.3 269.1 259 265.5 277.6 279.5 279.3 278.7 277.8 277.5 277 277.6 278.3 279.1 279.1 276.9 272.1 266.8 261.6 257.4 251.7 242.5 239.1 246.9 253.5 254.7 254.1 251.7 250.7 254.5 257.6 257.7 257.5 257.9 257.5 258 259.7 261.1 260.8 259.8 257 252.9 255.1 254.5 253.1 250.6 246.9 245 248.8 249.4 248.7 247.6 245.9 243.8 240 234.8 232.8 231.7 231 229.7 227.6 226.7 225.8 224.8 224.8 224.1 223 220.8 218.4 217.2 218.4 219.7 222.1 222.5 221.9 221.6 221.3 221.8 222.3 222 222.9 222.3 221.6 220.8 220.6 219.6 218.5 216.9 215.6 214.6 213.5 211.6 209.9 208 205.7 203.1 200.9 198.6 195.6 190.4 183.9 178.3 180.4 192.7 200.5 206.5 212.3 218.7 223.1 226.4 229.6 231.6 233 234.9 236.3 236.3 235.5 234.3 231.9 229.3 226.4 224 221.5 219.4 217.3 215.3 213.5 211.6 209.7 208.4 205.7 203.7 201.7 199 196.3 194 192.2 191.2 189.5 187.7 186.1 185 184.4 183.8 181.8 179.4 177.2 175 172.1 169.1 165.9 163.3
306.3 300.4 293.5 284.8 275.5 271.6 274.9 279.3 283.3 286.5 288.6 290.5 290.8 290.6 289.4 285.2 281.2 274.2 266.3 258.9 251.7 243 232.7 234.8 242.7 242.5 235.6 227.4 220.2 224.4 233.8 259.2 285.3 308.7 308.1 303.9 296.4 274.9 297.3 303.4 310 311.5 310.1 307 303.8 299.9 295.1 290.1 284.7 277.1 264.4 252.2 268.6 273.4 274.3 274.4 277.7 279.4 280.6 282.2 283.4 284.3 284 281.6 277.1 271.9 266.4 261.9 256.8 249.8 239.4 236.7 249.1 251.8 252.3 249.4 248.8 254.3 255.4 254.9 254.3 254.1 253.4 253.7 255.2 256.6 256.6 255.5 253.3 247.9 250.4 251.5 250 246.7 242 241.9 246.4 246.5 245 243.9 243.2 241.3 238.6 234.1 232.1 231 230.4 229.6 227.5 225.8 223.5 222.4 222.4 221.3 220.3 219.4 217.9 216.6 216.9 218.2 219.8 220.7 220.2 220.3 221.1 222.6 223.5 224.8 225.4 224.7 224.1 223.5 222.6 221.6 220.6 219.2 217.7 216.2 214.4 212.2 210 208.4 206.4 204.5 202.7 200.6 197.8 192.9 187.1 183.5 178.6 186.3 196.8 202.6 209.1 215.4 219.2 223 227.1 229.8 232.1 234.2 235.1 235.2 234.7 233.6 231.8 229.3 226.8 224.6 222.3 219.7 217.8 216.2 214.2 211.8 209.9 207.9 205.6 203.1 200.1 197.2 194.7 192.7 190.9 190 188.5 186.7 184.2 182.9 182 181.6 179.7 177.3 175.8 173.8 171.4 168.5 165.8 163
309.9 304.1 299.9 296.1 290.2 280.7 270.4 266.7 265.5 269.7 271.6 273.8 274.4 274.6 273.5 271.9 269 263.1 255.2 248.5 242 234 246.6 257.7 259.6 252 242.8 232.4 226.2 222.5 223.7 245 272.6 297 300.6 295.1 282 262.9 278.5 301.2 307.2 308.6 307.5 304.1 300.7 297.1 292.9 288.3 283.2 277.6 270.3 253.7 255 265.5 264.2 270 277.8 280.9 283.9 286.3 287.7 288.6 288.7 286.5 281.9 277 271.8 266.3 260 253.3 245.4 235.3 241.9 248.2 250 244.2 249.9 253.3 253.9 253.6 251.8 250.4 248.7 249.1 250.1 251 251.2 249.8 248.1 243.7 244.6 246.8 246.1 243 238.5 238.9 243 243.1 242.1 241 240.3 238 236.6 233.7 231.6 230.5 229.7 228.9 227.4 225.3 222.3 219.2 219.3 218.9 218.4 217.8 217.4 216.1 215.3 216.6 218.4 218.7 218.4 220.2 222.1 224 225.4 226.7 227.1 226.9 226.4 224.9 223.9 223.1 222.6 222 220.1 218.2 215.5 213.1 210.5 208.4 206.9 205.2 203.8 201 197.9 193.8 188.6 183.4 178.9 181.2 193.1 200 206.1 210.7 215.7 220.3 224.4 227.2 230 232.5 233.6 234.2 234 232.5 230.4 228.2 226.2 224 221.8 219.7 217.9 215.6 213.4 211.8 209.6 207 204.7 201.2 198.3 195.8 193.2 191.2 189.3 188.2 187.5 185.9 184 181.5 179.7 178.6 176.9 176 174.6 172.8 170.4 167.9 164.9 161.6
315.6 310.3 306 303.7 299.9 294.4 288.7 280.8 270.7 264.7 259.9 256 256.6 258.7 257.9 256.8 255.7 252.9 246.9 239.1 235.8 250.8 265.7 270.1 264.6 256.3 246.5 236.4 228.2 223.3 222.5 231.9 258.3 282.2 293.4 285.7 267.1 260.5 280.9 298.2 304.1 305 303.8 300.4 296.3 293.7 289 284.8 279.7 274.5 269.9 259.3 245.4 259.6 255.2 261.8 275.6 282.7 286.8 289.7 291.7 293 292.6 290.9 287.2 281.5 275.6 268.6 261.8 254.3 247.2 240 233.2 244.7 246.2 241.9 252.4 254 253.8 253 251 247.5 245.5 245.1 245.3 246.1 245.4 243.8 242.5 240.2 239.4 241.6 241.3 239.3 234.9 233 238.4 239.1 240.2 240.5 238.6 236.5 235.4 233.6 231.9 230.2 229.1 228.2 227.3 224.4 221.4 218.2 216.2 216.4 216.3 216.1 216.1 214.5 213.2 214.3 215.5 216.7 219.3 221.4 223.8 225.2 226.6 227.9 228.7 228.1 227.3 226 225.2 224.7 224.4 223.2 222.2 220.2 217.5 214.4 211.9 208.9 207.4 205.7 203.1 200.8 197.4 193.7 188.7 184 178.8 177.8 189.9 198 202.3 207 212.1 216.5 220.8 224.7 227.6 230.5 231.8 232.1 231.6 230.7 228.8 227 225.2 223 220.8 218.9 216.8 214.5 212 210.4 208.7 206.1 203.3 199.9 197.5 195 192.3 190.2 188.6 185.8 185.1 184.9 183.6 181.2 178.1 175.8 174.6 174.2 173.2 171.3 168.6 165.6 162.4 159
321.8 316.6 311.6 308.8 306.8 302.9 298.7 292.6 282.9 272.9 266.4 261.5 255.9 251.9 251 248.8 245 245.9 246.5 254.8 262.8 274.6 279.7 274.6 268.5 260.2 250.4 239.7 230.3 224.5 220.2 222.9 244.5 271.4 285.2 271.9 253.9 261.8 282.7 297.6 301 301.2 299.7 297.2 292.5 288.5 284.9 280.3 274.7 270.8 266.6 260.6 247.8 243.9 248 266.4 277.8 284.7 289 292.4 295.2 296.9 296.6 294.8 292.3 286.3 278.4 270.3 262.1 255.6 247.6 240.1 232 240 238.4 244.6 251 254 254.1 252.5 250.3 247.4 244.2 242.3 240.6 241.1 240 238.8 237.5 236.3 234.4 237.2 236.8 234.9 231.6 228.3 232.6 236.5 238.4 238.6 237.6 235.4 233.8 232.2 231.3 230.2 229.1 227.9 226.4 223 220.5 217.5 215.3 213.5 214.1 214.4 214.3 211.8 211.5 213 214.7 218 221 223 224.7 225.9 227.4 229 229.4 228.9 228.1 227.3 226.7 226.3 225.6 224.6 223.5 221.5 219.1 216.2 213.4 210.5 207.8 205.7 203.2 200.1 196.8 193.1 188.1 184.4 181 177 185.7 193.2 197.4 200.9 207.6 213.7 218.4 222.7 225.4 228 228.6 229.1 228.8 228.1 226.7 225.2 223.1 221.4 219.6 217.7 215.3 212.6 210.7 208.6 206.7 204.1 201.9 199.4 197.9 196.5 193.9 191.6 189 185.4 182.6 181.8 181.3 178.6 176.8 174.2 172.4 171.7 170.2 168.6 165.9 162.8 159.8 160.4
327.8 323.8 318.4 314.7 312.2 309.1 304.9 298.5 289.9 278.3 268.3 263 256.5 260.4 265.6 266 267.1 266.2 271.3 279.1 287.6 288.6 285.1 279.9 273 264.8 256.2 242.8 233.2 221.7 217.7 221.4 234.7 262.2 275.4 258.1 243.6 264.2 286 295.3 297.4 298.1 296.6 293.8 289 283.8 277.9 274.5 269.3 265.5 261.5 257 248 238.7 249.7 268.5 280.3 285.9 290.8 294.8 297.7 299.2 299.4 297.5 294.6 289.5 282.8 274 264.2 257.7 248.9 241 231 230.5 234.6 244 248.6 250.9 251.8 251.5 249.4 246.9 244.1 240.8 237.1 237.2 236.8 235.2 233.7 232.5 230.3 232.7 232.2 230.9 228.3 224.8 229.6 234.6 235.9 236.3 235.7 233.9 231.9 231.5 231 229.9 228.7 227.2 225.2 222.4 219.8 217.2 213.8 211.5 211.4 211.8 211.5 209.9 210.3 212.5 216.6 220.5 223.1 224.2 225.4 226.4 227.5 228.9 229.3 229.6 229 228.6 227.9 227.2 226.3 225.3 223.6 221.6 219.7 217.3 214.8 212 209.1 206.7 203.5 200.4 197.7 193.2 188.8 184.7 181.5 176.9 179.9 187.8 192.3 197.6 205.7 212.3 217 220.4 223 224.1 224.7 224.9 224.9 224.3 223.6 221.9 220.1 218.5 217.4 215.6 213.5 212.1 210.6 209.1 206.8 204.3 202.7 201.7 199.8 198 195.8 193.2 190 186.5 183.4 180.4 177.7 176.1 174.7 172.8 170.6 168.7 166.8 164.8 163.2 162.4 163.6 165.1
333.4 330.6 324.2 319.4 316.6 311.5 306.5 302.1 294.1 281.2 266.4 265.8 272.1 279 282.5 283.9 285.3 288.2 292.5 296.8 296.5 294.3 290.4 285.1 277.8 269.3 255.9 247.5 237.5 224.3 220.9 217.3 224.3 248.4 262.1 246.9 245.4 266.3 286.2 291.7 294.3 294.9 293.2 290.4 285.3 280.4 271.7 266.5 263.8 260.2 256 251.5 241.7 234.6 256 271.7 280.4 286.1 291.5 295.6 298.7 300.8 301.5 300 296.9 293.2 287.2 278.5 267.8 260.4 251.6 243.5 235 227.9 230.7 236.9 242.2 247.2 249.1 249.4 248.2 245.7 243.5 241.1 236.8 234.5 235.2 233.6 231.5 228.9 226.6 228.1 227.9 227 224.6 221.9 227.4 231.8 233.7 233.7 233.2 231.7 230.4 230.3 229.5 229.1 227.8 226.1 223.5 220.7 218.3 216 213.1 210.9 208.9 209.2 208.7 208.1 210 213.5 218 221.7 224.1 225.2 226.1 227 228 229 229.4 229.8 229.4 229.6 228.6 227.8 226.7 225.6 223.9 222.1 220.2 218.3 215.7 213.1 210.4 207.7 204.2 200.9 197.3 193.4 189.4 185.3 181.1 177.6 176.5 183.1 190.4 198.8 206 211.6 214.8 218 220.3 221.6 220.6 220.5 220.3 219.7 219.4 218.3 216.8 215.6 214.6 213.5 212 211.3 209.9 208.9 207.1 205.6 204.5 202.4 200.5 198.9 196.8 194.4 191 187.6 184.4 181.9 178.8 175.5 173.6 171 169.2 167 165 164.6 165.1 166.4 167.9 168.9
336.3 334.5 328.3 323.3 318.1 312.2 307.4 302.1 293.1 276.8 271.9 285.2 293.4 295.7 296.1 296.5 297.9 301.4 303.8 304.3 303.4 300.2 295.5 289.1 282.4 273.3 264.4 254.8 241.1 233.3 219.5 219 217.9 233.8 248 235.3 248 269.2 282.2 288.3 291.3 291.5 290.4 286.8 282.5 277.5 271.6 263.5 251.9 251.3 249.1 242.2 233.3 244.2 264.8 274.1 280.2 285.1 290 294.6 297.5 300.6 301.2 300.5 298.5 295.2 291.5 283.8 273 261.2 253.4 246.1 237.9 231.7 226 230.9 234.5 240.7 245.2 246.3 246 244.4 242 239.5 237 232.7 232.1 233.6 231.7 228.7 222.3 223 223.4 223.3 221.5 220.4 226.3 229 230.8 230.5 230.1 229.5 228.8 228.6 228.5 228 226.5 224.2 221.5 219 216.3 214.2 212.2 210.2 207.9 207.2 206.8 207.1 210 215.1 219.1 221.9 224.2 226 226.9 227.7 228.5 229.5 230.1 230.4 230.6 230.2 229.4 228.5 227.6 225.9 224.2 222.4 220.6 218.7 216.5 213.9 210.8 206.8 204.7 202.1 199.1 195.3 190.7 186.1 182.7 178 175.9 180.4 193.7 201 205.9 210.3 213.1 215.7 218.1 218.2 217.3 216.4 215.8 215.4 215.3 214.9 213.7 212.1 211.1 210.2 209.4 208.8 209.1 208.3 207.3 206 204.9 202.8 201 199.7 197.7 195 191.8 188.4 185.8 183.6 180.9 178.9 176.2 173.4 170.6 168.5 167.6 167.9 169.4 170.4 170.7 171.1
337.1 334.9 329 324.1 318.7 313.1 307.3 299.8 286.3 272 287.3 303.6 303.8 303.4 304.3 306.4 308.1 310.2 311.3 310.7 308.6 304.9 299.7 293.3 286.2 278 268.4 257.1 243.1 234 225 218.4 215.4 224.5 236.4 232 249.8 268.4 278.7 284.5 287.3 288.2 286.8 283.7 278.2 275.6 270.3 263.6 256.4 246.4 236.5 231.9 228.4 252.9 267.9 273.8 279.3 283.7 287.6 291.3 295.2 297.7 299.5 300.1 298.9 298 295.1 289 277.4 266.2 256.6 249.3 242.4 235.2 228 225.6 228.6 234.7 239.8 241.8 242.2 241.1 239.8 237.3 235.5 231.6 229.6 226.8 226.9 225.6 221.1 216.7 217.4 218.7 217.3 219.9 224.9 226.8 227.7 227.5 227.7 227.6 227.1 226.4 226.9 226.6 224.9 222.7 218.9 216.4 214.7 212.7 210.8 208.7 206.7 205.1 204.9 206.6 210 215.1 218.6 221.6 223.6 225.4 227 228 228.5 229.4 230.9 231.7 231.8 231.5 230.8 229.6 228.1 226.3 224.5 222.7 221 219 216.8 214.5 211.1 208.8 207.1 204.4 200.2 196 191.7 186 183.3 181.6 175.9 178.4 194.9 201.5 205.6 208.5 211.4 214.3 215.7 215.5 215.1 212.8 211.7 211.5 212 211.7 210.5 209.1 207.9 207.1 206.4 205.9 207 206.8 206.3 205.5 204.7 203.3 201.7 200.4 198.1 195.1 192.1 190 187.3 185.2 182.9 180.8 178.5 175.9 172.4 171.5 171.8 172.3 172.3 172.2 171.9 172.2
338.1 334.2 326.2 317.7 308 298.1 291.8 284.3 278.2 283.8 302.9 308.5 309.7 309.4 309.9 312.3 313.9 315.3 315.8 314.7 312 307.8 303.1 296.3 289.7 281.5 271.9 259.4 247.6 240 231.6 219.1 215 219.2 223.8 233.9 247.2 262 273.7 279.4 282.7 283.2 282.5 279.7 275.4 272 266.8 261.3 255.9 250.4 240.3 227.2 233.3 255.6 265.9 271.9 277.2 281.4 284.4 287.3 290.8 293.5 296.1 298.9 299.4 299.2 297.9 294.1 283.4 270.3 262.1 256 249.7 243.3 234.4 227 224 225.6 231 235.5 236.8 236.3 235.1 234.2 232.4 229.9 230.7 229.4 222.7 217.6 218 214.8 212.4 212.1 214.2 221 222.7 224.4 225.3 225.1 225.2 224.6 223.9 223.8 225 224.7 223.2 220.9 217.3 215.2 213.6 211.3 209.5 206.9 205.4 203.4 203.8 206.1 210.5 214.8 217.7 220.5 222.6 224.2 225.4 227.4 227.9 230 231.3 232.1 232.7 232.7 231.7 230.6 228.5 226.6 225 223.4 221.7 219.5 217.1 214.9 212.6 210.7 207.2 204 199.4 195.3 191.1 186.6 184.2 183.3 175.4 178.8 197.7 200.6 203.5 206.6 209.5 212.1 213 212.9 211.3 210.3 209.6 209.2 209.4 208.9 207.9 206.7 205.5 204.5 203.5 203.3 204.5 205.4 206.2 205.2 204.3 203.5 202.9 201.1 198.8 195.8 193.3 191.2 189 187 184.9 182.4 179.9 177.8 176.5 175.1 174.3 173.5 173.7 173.2 172.7 173
326.3 315.9 309.4 310.1 312.6 311.5 308.7 304.2 293 297.8 309.5 311.6 312.3 313.1 313.5 314.9 315.9 316.9 317.3 316.1 313.5 309.6 304.5 298.8 292.2 284.7 275.6 263.5 253.8 240.8 229.4 224.9 214.6 216 218.9 227.5 238.6 251.9 264.4 272.1 275.7 278.1 278 275.4 271.8 268.6 263.4 257.6 252.5 248.3 232.9 223.4 236.1 254.4 262.4 268.4 274.1 277.2 279.6 282.2 284.8 287.6 292.8 296.8 299.8 300.7 300.8 299 289.9 278.4 270.3 264.6 257.8 250.7 244.9 236.1 228.1 222.2 219.4 225.8 230.2 231.1 230.5 229.8 229.7 226.9 225.8 225.4 221.9 216.7 214.2 211.6 210.7 208.3 213.8 219.5 220.7 221.7 222.5 223.1 223.1 222.4 221.2 221.3 222.9 222.8 221.5 218.9 216.8 215 213.2 210.6 207.6 204.9 203.6 202 203.2 206.2 210.7 213.8 216.5 219.1 220.7 222.3 223.9 226.1 228.5 230.4 231.8 232.6 233.7 233.7 232.8 231.4 229.2 227.1 226.2 224.9 223.4 221.7 218.7 216.1 213.5 210.4 206.1 202 197.8 193.9 190.1 186.6 183.7 181 173.4 187 196 198.9 201.4 204.2 207.4 209.2 209.9 209.4 208.7 207.5 206.8 207.6 207.5 206.5 206 204.3 203.1 201.8 200.6 200.7 201.8 202.9 204 204.3 204 204.2 203 200.6 198.5 196.7 194.3 192.2 190.3 188.4 186.1 183.7 181.1 179.5 178.3 175.6 175.1 173.6 173.4 173.2 173.4 173.2
335.1 336.2 339.9 340 337.5 326.1 319.6 315.9 306.7 304.7 309.8 311 311.3 311.3 311.8 312.7 314 315.6 316.4 315.9 313.8 310 305.2 300 293.9 286.8 279.4 263.3 254.9 246.5 242 235.6 220.3 213.6 215.9 219.9 226.9 237.1 246.5 255.7 263.5 269.6 271.3 271.1 268.9 265.9 260.8 253.7 246.5 242.8 225.7 226.6 249.2 253 257.9 264.3 269.4 272.3 274.4 275.8 276.8 279.9 289.7 295.2 299.2 302.1 302.9 301.2 295.6 287.2 279 272.4 265.9 258.7 252.2 243.5 236.2 228 221.5 219.5 222.9 223.9 225.2 225.8 226.1 224 221.3 219.8 217 214 210.1 208.3 207.3 205.3 204.5 204.3 215.4 218 218.9 220.3 220.6 219.1 217.8 218.7 220.8 222.2 220.5 218.7 217.1 214.8 212.1 209.6 206.7 204 202.8 201.2 202.7 206.2 209.9 212.2 214.6 216.5 218.2 220.4 223.4 226 228.8 230.8 232.2 233.5 234.2 234.2 233.6 232.5 230.6 228.9 227.6 226.3 224.8 222.9 219.8 216.1 213.1 209.2 204.8 200.8 196.8 192.7 189.2 185.6 182.8 178.5 171.7 189.2 193.1 195.9 198.8 201.5 204 206.1 206.7 206.3 205.2 204.6 204.3 205.1 206.3 205.6 204.3 202.2 200.7 199.4 198.1 197.9 199.1 200.3 201.6 203 203.5 203.4 202.2 200.2 198.7 196.7 194.6 192.8 190.7 188.4 186.3 183.9 181.7 180.1 179.3 177.4 174.3 173.6 172.9 172.5 172.3 171.4
348.3 345.9 344.1 340.4 336.6 331.4 327.5 322.9 317.8 310.3 310.7 309.6 307.3 307 306.5 306.8 308.8 310.8 312.6 313.5 312.7 309.4 305.5 300.9 295.6 288.5 282.2 273.4 263.2 256.4 247 237 232.4 214.6 213.3 214.6 215.8 220.6 230.7 238.3 244.2 252.3 264.5 265.8 264.2 262.5 258.7 252.4 245.4 230.7 220.9 229.8 247.5 247.6 251.9 259.2 263.5 265.6 267.3 265 261.9 280.4 286.5 293.3 298.6 303 303.2 302.1 297.4 291.3 283.8 277.8 271.3 263 255.6 247.8 240 233.8 227.9 221.4 218.9 217.5 217.5 218.4 219.9 217.6 215.8 214.5 212 209.5 208.8 207.3 205.2 206.9 207.9 204.1 201.1 208.2 215.4 218.3 218 216.3 215.6 216.7 219.4 221.8 221.7 219.3 217 213.7 211 208.5 205.8 204 201.7 200.1 201.7 205.3 207.6 209.6 211.8 214 216.9 219.8 222.8 225.7 228.5 230.8 232.7 233.6 234.2 234.3 234.3 233.3 231.9 230.3 228.7 227.2 225.4 223.1 219.7 216 212.5 207.8 204 200.1 196.1 192.2 188.9 184.6 181.7 179.4 172.3 183.5 189.6 192.9 196.2 198.9 201.2 203.2 203.8 203.1 202.3 202 201.6 203.3 204.1 203.3 201.7 199.9 198.2 196.7 195.3 194.9 196.8 198.3 199.7 201.7 202.4 201.8 200.7 199.9 198.3 196.5 194.5 192.5 190.3 187.9 185.6 183.9 182.1 180.4 178.7 176.9 175.1 174 172.1 171.7 170.6 168.2
353.3 350.8 346.8 342.7 338.8 334.9 331.5 327.3 322.9 317.8 312.9 308.6 305.4 300.3 299 299 300.3 303 306.6 308.3 309.6 308.1 304.6 300.8 296.4 291 285.2 277.9 269.8 262.6 252.6 245.1 237.6 230.2 214.6 212.9 213.5 212.8 215.5 223.1 229 236.6 246.9 257.9 259.2 258 255.7 251.5 246 239 218.1 225.9 242.9 242.9 245.9 252.6 256 257.4 257.3 252 263.4 276.8 283.8 290.1 297.3 301.6 302.6 301.4 296.8 292.1 286.2 280.9 273.1 265.3 256.9 249 241.9 235 228.2 225.7 225 221.3 218.3 216.2 214.5 212.5 211.7 211.3 209.8 209.2 210 210 214.5 217.4 217.5 216.5 206.3 199.6 213.9 216.9 216 214 213.9 215.6 217.9 219.8 220.4 218.6 214.8 212.6 210.6 208.2 205.6 203.4 200.8 199.3 201.3 203.7 205.1 207.9 210.6 213.7 216.3 219.1 221.9 225.1 228.4 230.5 232.5 233.3 233.7 234.1 234.3 233.4 232.1 230.7 228.9 227 225.1 222.5 219.3 216.1 212.1 207.5 203.4 199.9 195.6 192.9 188.8 184.9 181.1 176.9 170.2 174.6 183.6 189.3 192.9 195.8 198.3 200.1 200.1 199.6 199.1 198.4 198.8 200.2 200.7 199.8 198.4 196.9 195.2 193.6 192 192.3 194.1 196.3 199.1 201.1 201 200.1 199.3 198.7 197.4 195.5 193.5 191.7 189 187.4 186 184.4 182.3 180.4 178.4 176.6 175.7 174.2 172 169.2 167.6 165
357.3 353.7 349.3 344.8 340.9 336.4 333.7 331.2 326.4 321.9 316.9 311.1 308.1 303.5 296.5 289.8 289.4 292.5 295.9 301.2 303.9 304.7 303.7 300.4 297 293 287.5 281.3 274.9 267.6 259.6 250 243.3 232.4 228.4 213.3 211.6 211.2 212.4 212.7 217.2 221.1 228.8 239.3 246.2 248.4 250.1 248.1 245.1 240.9 223.1 217.1 236.3 237.3 238.9 244.2 245.1 243.8 239.9 237.7 251.3 273.7 282.1 288.2 294.7 299.6 300.8 299.8 296.7 292.5 287.6 282.4 273.7 264.3 255.7 246.5 238.2 235 234.5 234.5 232.8 231.3 229.6 226.5 222.1 217.3 213.9 213.9 216.3 217 216.4 215.4 217 219.2 218.1 216.2 210.5 199 206.8 215.3 213.9 211.6 212.2 215.1 217.7 218.7 218.4 217 214.6 212.9 210.7 208.7 206.3 203.4 200.4 198.1 199.7 202.5 205.2 208.7 211.4 214.1 216.1 218.7 221.5 224.6 227.8 230.2 232.1 233.1 233.6 233.6 233.4 232.6 231.9 230.4 228.5 226.7 224.6 221.7 218.5 215.4 211.7 207.1 203.5 200.1 195.6 192.5 189 185.4 181.3 177.6 172.7 171.7 176.2 183.9 189 192.2 194.1 195.3 195.7 195.5 195.1 194.2 195 196 196.5 195.8 194.6 193.2 191.8 190.6 190.5 190.6 193.9 196.2 198.5 199.4 198.6 198.4 197.2 196.5 195.8 194.4 192.2 190.5 187.8 186.4 185.3 184.3 182.2 179.9 178.3 177.2 175.9 174.2 171.9 168.5 165.2 162.5
357.4 353.1 348.8 344.4 340.8 338 335.3 332.4 329.3 325 320.9 316.8 310.5 305 299.9 297.9 293.9 284.5 280.5 290.7 296.6 301.1 302 300.6 297.3 293.8 289.2 283.6 277.1 270.7 263 252.9 243.5 243.4 237.8 232.7 222.5 210.7 210.3 209.9 209.8 211.2 214.5 220.2 227 231.3 234.9 238.5 239.5 237.6 229.5 209.8 224.2 230.7 232.7 236.4 236.4 227.5 225.8 236 250.3 265.7 279.5 287.4 294.2 297.9 300.2 299.5 297.2 293.4 288.3 281.5 269.1 258.4 253.7 250.1 249 247 245.3 244 241.8 239.3 236.1 233 227.7 224.5 223.1 220.6 219.5 219.8 218.6 218.2 218.1 217.9 216.6 214.2 209.9 203 199.4 213 211.1 208.9 211.6 215.2 217.7 218.1 217 216.2 214.8 213.3 211.8 210 207.7 203.5 200.5 197 199.3 203.4 207.1 210 212.4 214.8 216.4 218.8 221.2 224 226.6 229.6 231.1 231.9 232.8 232.7 232.4 231.6 231.2 229.9 227.9 225.7 223.4 220.5 217.6 214.6 211.3 206.7 202.9 200.3 196.9 192.2 189.8 187.2 183.7 180.4 173.6 171 171.6 177.7 184 188.5 189.8 190.9 191.8 191.5 191 189.4 190.5 191.6 192.1 191.4 190.4 188.7 187.7 187.7 188.3 191.1 194.3 196.5 197.7 197.7 196.3 195.7 195 194.1 193.4 192.5 190.7 188.2 186.7 185.6 184.4 183.1 181.8 180.2 178.6 177.8 175.5 172.9 170.6 166.8 164 160.9
355.8 351 346.6 342.5 339.4 337.2 335 332.9 330.9 327.5 323.3 319 314.2 309.8 305.6 301.8 297.7 292.4 287.3 274.7 289.2 295.7 299.5 299.6 297 293.6 289.5 284.6 278.8 271.8 264 258.5 253.1 247.7 241.8 234.8 225.8 217.8 210.5 209.4 208.4 207.6 208.1 208 210.4 215.2 218.7 222.7 226.4 229.8 229 216.7 211.4 222.7 227.2 230.2 226.7 221.8 241.1 254.5 264.2 272.7 279.6 287.7 294.3 298 300.1 300.7 298.7 295.9 291.2 285.7 279.7 271.8 267.2 262.9 259.4 255.7 253.1 250 246.5 243.5 240.2 236.8 231.2 230.8 230.2 228.4 226.2 223.7 221.8 220.1 218.9 217 214.2 212.3 209.4 205.2 197.3 208.7 206.7 207.5 211.3 214.8 217.2 217.6 216.3 214.8 214.5 213.1 211.7 209.8 206.5 203.3 199.9 196.1 198.3 202.4 206.4 209.6 212.5 214.8 216.9 219.1 221.3 223 225.4 228.2 229.5 230.4 231.8 231.9 231.7 231.2 230.5 229.3 227.1 224.6 222.2 219.5 216.2 213.5 210.7 206.4 202.8 200.8 198.2 193.8 191.5 189.2 186.3 183.3 177.8 170.4 170.1 170.9 178.3 183.4 186.2 187.6 188.3 187.8 187.1 185.2 185.4 187.3 186.8 186.1 184.9 184.5 184.8 186 189.7 192.8 194.9 196.2 195.7 194.5 193.2 192.1 191.4 191.1 190.5 189.8 187.6 186.3 185.3 184.4 183.1 181.8 180.9 180.1 178.4 176.8 174.8 172.1 168.7 165.2 162.3 159.1
353.4 349.4 344.9 341.4 338.5 336.2 334.5 333 331.1 328.1 324.5 320.2 316.1 311.6 307 302.7 298.1 293.7 288.9 274.6 277 291.2 296.1 297.1 295.6 292.8 289.2 284.8 279.3 274.3 268 262.6 256.6 250.6 241 227.1 216.6 217.5 227.2 222.7 216.8 207.8 207.1 205.4 204.8 203.5 205.7 209.5 212.2 214.1 216 216.4 206.2 211.9 220 223.9 216.3 227.3 243.2 256.6 266.1 272.6 280 287.8 294.2 298 301.8 302.4 301.3 299.5 295.3 290.5 285.5 279.5 274.8 269.4 265.6 261.7 257.3 253.3 249.7 245.9 241.9 238.8 234.8 233.9 232.8 231.8 230 227.8 225.9 223.7 220.5 216.8 214 210.5 207.4 203.8 195.5 201.3 202.7 208.3 210.9 214.1 216.6 216.9 216 215 213.1 212.5 211 208.3 205.2 201.9 198.7 195.1 197.5 201.6 205.8 209.1 212.4 214.4 217 219.1 221.1 222.7 224.3 226.6 227.8 229 230.6 231.5 231.5 231 230 228.7 226.3 223.9 221.5 218.7 215.9 212.9 210.1 207.3 203.9 201.8 199.7 195.8 192.6 189.5 187 183.8 180.1 172.1 169.3 168.9 172.6 178.2 181.6 184.8 185.2 184.7 183.7 181.8 180.6 181.5 181.9 181.3 181.6 181.4 183.3 186 190.4 193.8 194.9 194.9 193.2 191.6 190.5 189.7 188.9 188.2 187.8 186.4 184.9 184.5 183.8 182.9 182.2 181.3 180.5 179.4 178.1 176.1 174.1 171 166.9 163.4 160.4 156.9
350.3 346.5 343 340.1 337.5 335.3 333.7 332.7 331.3 328.4 324.8 321 316.7 312.2 307.5 301 296 291.2 287 281 269.4 286.4 291.4 293.2 292.8 291 287.3 283.5 279.5 274.6 269.3 263.1 256.7 249.2 233 219 231.1 238.7 239.7 235.6 229.3 221.2 209.4 206.3 206.1 204.9 204.2 203.4 203.9 204.3 204.1 204.2 202 200.4 209.5 212.1 209.7 217.4 227.9 235.1 241.2 248.6 267.8 285.7 294.1 298.8 303.6 306.3 304.8 302 297.8 292.4 287 281.9 277.1 272.3 268.6 263.7 259.3 255 251.4 247 243.1 240 236.5 234.4 233.6 232 230.7 228.7 226.7 225 222.1 219.1 213.8 210.2 207.1 204.1 198.3 195.8 201 208.5 210.5 213.4 214.7 215.4 214.9 213.3 211.5 210.2 208.6 206.2 203 200.2 196.3 194.2 197.2 200.6 205.4 208.8 212 214.4 216.7 219.2 220.9 222.5 224.1 225.2 226.7 228.3 230 231 231.3 230.8 229.6 228.2 226 223.4 221 218.3 215.6 212.7 210 207.4 204.7 202.3 198.2 195.6 192.4 189.6 186.7 183.4 180.6 177.9 168.8 168.3 167.2 173.2 179.3 182.3 181.9 180.9 179.5 178.6 177.4 177.1 177.3 178.4 178 179.5 182.8 187 191.8 193.4 193.9 193.2 191.3 189.8 188.4 187.9 186.6 185.6 184.1 183.4 182.5 182.4 182.4 181.4 181 180.6 179.6 179.2 178.3 176 172.9 169.5 165.5 162.3 158.8 154.5
346.4 343 340.4 338.3 336.3 334.4 332.8 331.5 329.7 327.6 324.5 320.9 316.2 310.8 303.4 298.9 289.4 280.3 279 276.2 262 273.4 278.1 280.7 288.7 286.2 283.3 280.9 277.5 273.1 267.8 261.2 254.3 239.2 224.5 232.1 250.3 253 250.1 246.1 240.5 234.7 229.4 223.4 216.9 208.9 204.6 203.9 203.1 202.6 202.7 202 201.3 200.5 199.8 201.8 202.8 202.4 200.8 200.3 208.7 223.6 247.7 276.3 291.6 298.3 304.1 307.7 306.8 303.2 298.6 293.4 287.6 282.6 277.7 273.6 269 264.1 259.3 255.3 251.6 247.3 243.3 240.1 237.1 232.9 231.9 231.5 230.1 228.1 226.2 224.6 222.1 218.9 216.4 212.5 207.8 204.1 199.6 193.3 198.3 205.6 208.8 211.7 212.1 213.3 212.1 210.2 208.2 207 204.9 203.1 200.2 196.9 194.5 193.5 196.4 199.5 203.1 207.3 211.2 214.7 217.6 219.3 221 222.5 224.1 225.4 226.5 227.9 229.9 230.8 230.4 229.9 228.5 227.3 225.7 223.4 221.1 218.3 215.1 212.2 209.6 207 203.6 200.3 197.3 194.4 191.5 188.9 186 182.6 180.7 177.7 174.4 168.3 167.4 169.9 177.6 178.8 178.6 177.6 177 175.5 174.1 173.3 173.1 175.8 178.8 181.3 185.3 188.7 191.3 192.3 192 190.9 189.7 188.7 187 185.8 183.6 181.9 180.5 180.3 180.1 180.4 180.9 180.1 179.7 179.3 178.4 179.2 177.6 174.6 171.4 168.6 165.4 161.9 157.8 153.5
342.4 338.7 337.1 335 333.1 331.7 330.8 329.8 328.1 325.8 323.6 320.2 315.8 310.3 305.5 299.2 290.7 280.2 276.1 268.5 262.1 258.7 256.8 259.8 264.4 272.5 278.5 275.6 272.6 268.7 264.3 253.4 240.5 226.4 235.3 250.7 261.9 261.7 259.7 256.1 252.9 249.5 246.5 242.4 238.4 230.4 220.4 213.6 207.9 205.5 203.1 202.1 202.1 201.4 200.6 198.5 199.4 198.5 195 197.6 199.2 207.3 232.3 264 288.8 295.3 302.8 306.1 305.8 302.8 297.8 292.1 286.5 282.2 277.3 272.8 267.9 263.1 258.8 254.6 250.3 246.2 242.7 239.1 236.4 232 229.8 228.3 227.7 226.9 225 223 221.1 218.4 216.7 214.2 211.3 206.1 201.2 194.2 192.9 203.3 207 209.7 210.8 210.7 208.9 206.4 203.3 201.2 201.8 200 197.7 194.8 192.8 195 197.6 200.7 204.3 207.8 211.6 215.5 218.1 220.5 222.2 223.6 224.9 225.5 226.7 228.4 229.9 229.7 229.2 228.8 227.7 226.5 225.1 223.4 221 217.7 214.5 211.6 208.9 205.8 202.6 199 195.8 192.7 189.5 186.9 184.4 182.3 180.2 177.6 174.6 170.2 167.8 165.6 172.2 174.4 175.2 174.4 174.1 172.8 171.2 170.7 172.5 175.1 179.4 184 187.1 188.5 190.5 190.7 189.6 189.5 188.5 187.2 185.5 183.2 180.6 178.7 178.1 178.2 178.6 179.5 179.8 178.9 178.4 178 177.3 177.1 175.9 172.9 170 167.8 164.8 160.8 156.5 151.8
335.8 332.6 331 330.6 328.7 327.2 326.7 326.5 325.6 324.2 322.3 319.2 314.7 310.6 304.9 297.7 291.9 283.4 276.5 271.1 265.9 264.9 259.2 252.4 248.7 252.1 255.9 255 253.5 249.6 242.2 231.8 230.5 240.8 254.1 265.4 270.1 269.5 268 267.6 265.9 264.1 262.2 260.5 258 253.8 245.7 239.9 234 229.6 225.5 222.7 218.7 213.9 211.2 208.6 208.9 210.3 204.2 197.4 197.9 199.3 227.2 262.4 286.9 292.2 298.5 302.8 302.8 300.5 295.7 290.1 284.9 280.4 275.4 270.3 265.2 260 256 252.1 247.7 243.8 239.4 236.9 234.3 231.1 227 225.1 224.6 223.9 223 221.5 219.9 218.6 217.5 215.4 212.8 209.8 206.1 199.3 192.3 190.9 202.7 205.5 206.1 205.3 203.8 202.3 201.6 200.1 199.4 197.2 195.1 192.3 193.7 197.5 200.8 202.8 206.6 210.3 213.4 216.8 219.7 222.5 224.1 225.5 226.8 227.5 228.3 228.6 229.1 228.6 227.6 226.6 225.7 224.8 223.4 221.5 219.4 216.9 214 211.1 207.5 204.4 201.3 197.5 194.3 191.1 187.9 185.4 184.2 182.6 180.5 177.9 175.2 172.2 169.1 165.4 166.3 169.4 171.2 171.2 171 169.8 167.9 170.9 173.7 177.4 182.1 185.5 186.7 187.9 188.5 188.9 189.4 188.7 186.9 185.6 183.4 179.7 177.5 176.5 176.6 176.9 178.1 179 178.7 177.7 177.2 176.7 176.2 175.1 174 171.8 169.1 166.5 163.3 159.5 154.9 150.2
328.3 324.5 323.5 325.5 323.8 322.4 321.7 322 322.5 322.2 320.5 318.4 314.8 311.2 306.9 301.3 296.1 292.2 285.2 283 278.5 276.2 271.7 265.5 258.8 251.2 244.5 243.6 240.3 239.4 239.1 242.6 251.4 259 269 273.6 275.8 277.3 277.3 277.7 276.2 276.1 276.1 276.9 276.7 275.1 273.2 267.7 261 256.8 252.4 249.2 245.5 243.9 241.3 234 230.3 227.4 224.4 205.1 193.3 198.2 227.5 261 283.2 288.7 291.9 297.2 299.3 297.5 293.8 287.8 282.4 277.5 272.3 266.4 261 256.3 251.9 247.8 243.9 239.5 236 233.5 231.2 228.6 225.5 223 221 220.1 220.2 220 219.3 218.5 217.3 215.7 213.5 210.9 207.7 202.9 195.1 190.8 193.1 200.8 202.7 202.2 201.3 200.5 198.9 198.5 196.9 193.5 190.7 190.1 198 202.3 204.3 206.4 209.9 212 216.3 220.3 223 224.7 226 227.4 228.9 229.6 229.9 229 228.8 227.5 226.3 224.7 223.4 222.5 221.2 219.4 217.4 215.2 213.1 210.4 206.7 203 200 196.6 193.4 190.7 187.6 185.3 184.5 182.7 180.7 178.3 176 173.2 170.3 166.4 165.1 165 164.4 165.7 166.4 166.4 166.9 170.9 174.7 179.3 184.1 185.4 185.9 187.3 187.5 188.6 188.9 187.7 185.7 183.5 179.7 176.7 175.4 174.3 174.3 175.9 177.3 178 177.6 177.7 177.2 176.4 175.6 173.9 172.2 169.9 167.7 164.8 161.6 157.4 152.9 149.1
320.7 318.2 317.5 319.9 319 317.7 316.1 316.8 318.2 319.1 318.9 317.2 314.9 311.9 308.8 304.3 300.9 297.2 292.9 290.2 286.9 283.2 279.5 275 270.5 269.1 267.5 264.9 264.5 262.3 260.5 259.1 256.2 265.3 272 277.9 281 282.1 283 285.3 286.1 285.8 286.8 286.6 286.7 286.6 285.8 285.3 284.2 282.1 278.4 271.6 266.7 261.2 252.7 242.8 236.4 233.1 226.6 209 195.7 195.3 226.8 262.4 277.5 283.6 287.4 290.1 293.5 292.2 289.8 283.5 278.3 273.2 267.3 261.5 256.2 251.5 246.7 242.9 239.3 234.9 231.6 229.5 227.3 224.9 222.6 221.7 219.9 218.7 218.4 218.3 217.6 217 216.1 214.4 213.1 210.5 207.5 203.3 198.2 192.2 189.1 190.9 197.8 199 199.7 197.3 195.5 195.7 194 188.7 193.8 199.4 202.6 205.9 208.2 210.2 212 215.3 219.3 222 224.3 225.9 227.2 228.6 229.9 230.5 230.5 229.6 228.1 226.6 225.3 223.9 222.3 220.2 219.1 217.4 215.6 213.5 211.5 208.4 205.1 201.6 198.8 196.4 193.2 190.5 189 187.1 185 183.3 181.3 179.3 176.5 174.8 172.8 170.7 163.5 163.4 163 162.9 162.8 163.1 162.8 163.7 170.9 178.3 184.2 185.5 185.5 186.5 186.9 188.3 187.3 186.4 184.3 181.3 177.7 174.6 173.7 172.7 172.7 174.3 175.9 176.8 177.5 177.6 177.2 176.6 175.4 173.2 170.8 168.3 166 163.2 159.6 155.8 151.8 147.8
313.8 309.1 313.2 315.7 314.5 313 310.3 309.7 313.8 315.9 316.5 316 314.6 312.4 309.6 306.2 303.4 300.8 297.8 294.9 291.8 289.2 286.2 282.4 279.7 278.6 277.1 275.7 273.7 271.4 268.8 266.5 263.1 264.9 273 279.6 283.9 286.8 289.5 291.2 292.5 293.3 293.5 293.3 292.8 292.7 291.7 291 289.6 286.2 282.6 277.5 271 264.7 255.1 244.7 237.8 233.8 228.7 212.3 195.3 192.9 224.7 260.6 271.5 277.5 282.2 284.5 286.7 286.7 283 278.4 274.2 268.2 262.5 257.4 251.9 246.5 242 239.3 235.8 232.2 229.6 227.2 225.1 223.2 221 219.8 218.7 217.2 216 216.1 215.7 215.1 214.2 213 212.2 209.5 205.3 201.2 199.5 197.1 193.3 187.6 190.3 194.1 194 194 193.7 193.1 189.6 191.4 198.5 202.2 205.5 207.9 210.2 212 214.3 216.7 219.8 222.5 225.2 226.8 228.1 229 229.9 230.4 230.2 229.1 228 227.1 225.1 223.6 221.8 219.6 217.5 215.5 213.6 211.7 209.2 206.4 203.5 200.7 198.2 195.8 194.7 192.7 190.5 187.9 185.8 184.2 182.4 180.6 178.4 177.5 175.4 174.5 173.6 173.5 173.1 166.8 162.1 162.2 161.2 160.5 163.1 175.1 182.4 182.5 183.9 184.3 185.3 186.6 185.3 183.8 181.8 179 175.5 172.6 171.5 170.7 170.3 172.6 174.5 176.7 177.7 177.5 177.3 176.4 174.1 171.7 169.5 167.2 164.2 161.2 157.9 153.9 150.2 147
307.1 300.7 309.6 311.3 310.9 308.9 305.4 302.2 309.1 311.7 313 313.3 312.6 311.8 310.2 308.2 306.2 303.7 301.3 298.8 296.3 293.7 290.8 288.4 286.6 285.4 283.3 281.2 278.7 275.8 273.3 270.7 268.5 268.2 273.6 280.8 285 288.6 291.7 294 296 296.5 296.9 296.6 296.4 295.4 294.5 293.5 291.1 288.3 283.8 279.3 273.4 266.8 258.6 249.1 239.6 234.3 229.7 215.2 196.6 194.7 225 249.5 261.1 271.4 278 279.1 279 279.1 277.5 273.9 269.4 263.7 258.2 252.9 247.9 242.8 238.7 235.6 232.6 230.1 227.6 225.6 224 222.3 219.6 218.3 217 214.8 212.5 212 210.2 208.9 208.2 207.8 208.7 206.5 202.2 200 199 197.6 194.7 191.3 186.1 187.3 190.6 191.8 192 191.3 185.4 194.4 199.9 203.5 205.7 207.6 209.8 212 214.1 216.7 219.8 222.6 224.7 226.8 227.6 228.4 229.3 230.2 229.7 228.8 228.2 227.5 225.5 224.3 222.3 219.5 216.5 214 211.9 210.5 208 204.8 202.9 201.3 199.7 197.8 195.8 193.2 190.9 188.7 186.7 185.1 183.4 182.1 181.2 179.8 178.7 177.3 176.5 175.2 173.8 171.7 168.5 169.7 167.5 163.4 159.9 162.7 171.3 174.8 177.3 179.6 182.6 182.9 181.6 180.2 178.3 174.7 171.9 169.2 168.9 168.2 168.8 171.9 174.7 176.8 177.6 177.4 177.1 174.8 171.9 170.1 168.2 165.6 162.6 158.9 155.1 152.1 149.6 146.7
300.7 299 305.9 306.2 306.3 304.4 299.1 298.8 305.2 306.8 308.2 309.2 309.4 309 308.8 308.1 307.1 305.2 302.9 300.8 298.7 296 293.7 292 290.5 288.6 286.7 284.8 281.7 279.2 276.1 273.6 270.8 270.2 273.3 279.9 284.8 288.5 291.6 294.2 295.7 296.8 297.6 297.6 297 296.1 294.3 292.3 289.8 286.7 282.6 277.6 272.4 266.1 259.8 251.2 244 235.8 229 219.7 199.9 192.1 220.4 234.4 249.2 262 271.1 273.9 273.9 273.8 272 269.6 265.2 261.1 255.2 249.5 244.8 240.9 237.3 233.8 230.6 228.4 226.7 224.6 223.1 221.2 218.7 216.8 215.1 213 211.5 211.9 211.2 208.6 205.9 203.2 202.2 201.5 199.4 198.7 198 196.6 193.4 190.1 188.2 185.5 185 186.1 189.2 188.9 185.1 194.6 199.1 202.3 204.5 206.4 209 210.8 212.6 215.5 218.9 221.7 223.8 225.9 226.9 227.8 228.8 229.1 229.6 229.5 228.9 228 227 224.9 222.7 219.9 217.1 214.3 212.9 211 208.8 206.9 205 203.1 201.1 199.1 197 194.9 192.7 190.3 188.1 187 186.1 185.3 184.5 183.4 182.3 180.8 178.8 176.8 175 173.4 171.8 172.7 171.4 168.6 162.2 159.3 158.2 160.5 166.6 171.8 176.1 178 176.9 175.6 172.7 170.5 167.5 166.3 166.4 166 168.3 172.4 175.3 177.2 177.5 176.6 175 172.3 169.8 168.1 166.1 163.7 160.5 156.8 153.6 150.1 147.8 145.7
294.9 297.8 302.2 302.8 302.7 301.1 296.1 294.9 299.8 301.4 302.2 303.3 304.9 305.8 306.5 306.5 306 304.8 302.8 301.1 299 296.7 295.3 293.8 292.3 290.4 288.3 285.9 283.2 280.4 277.1 273.2 269.6 267.6 270.2 277.5 282.5 286 289 291.3 292.8 295.1 296.1 296.6 295.8 293.9 291.9 289.9 286.6 283.3 279.6 275.2 270.3 264.8 258.8 251.6 244.9 237 229.5 225.5 206.5 192.4 201.5 216 224.4 237.8 253.9 265.1 264 264.2 266.2 264.3 261.8 258.8 254.5 248.6 243.7 239.8 236.8 233.8 230.7 228 225.9 224 221.7 220.7 219.8 219.5 218.7 218.4 218 217.1 215 212.5 210.1 207.1 204 199.6 197.6 196.3 195.8 194.8 192.6 196 195.6 192.4 185.9 183.5 182.7 183.8 184.7 193 196 200.2 203 204.9 206.6 208.6 211.1 213.6 217.2 220.8 223.1 225.3 226.6 227.6 228.5 229.6 230.3 230 229.8 228.9 227.6 225.5 223.2 220.5 218.7 216.2 214.6 213 211 209.5 207.1 204.9 202.6 200 197.2 196 194.3 192.3 191.4 189.8 189.7 189.2 188.2 187.1 185.9 184.3 181.6 179.3 177.4 175.5 174 173.1 172.3 170.2 167.4 164.1 159.3 158.5 157.9 157.1 161.9 167.1 169.7 169.2 167.4 165.3 164.3 164.3 163.3 164.1 168.8 172.8 175.8 176.7 175.9 173.8 171.5 169.3 167.2 164.9 162.7 160.1 156.9 153.1 151.3 149 147 144.7
285.7 292.6 297.7 299.6 299.3 298.8 296.3 286.9 293.7 294.4 295.1 296.8 299 300.5 302.2 303.3 303.4 302.5 301.3 299.5 297.9 296.3 295 293.7 291.4 289.5 287.5 285 282.3 279.4 276 272.3 268.3 263.7 266.5 271.3 274.8 278.5 280.8 284.1 287.7 290.6 292.3 293.4 293.2 291.4 289.1 285.8 283 279.3 275.8 271.7 267.1 261.6 257 251.8 244.9 238.2 230.1 223.7 211.5 195.2 191.8 192.5 202.5 218.2 232.4 241.2 242 237.5 244.5 258.2 258.6 256.1 253.2 249.6 244.6 241.3 239 235.4 232.3 229.7 227.2 224.9 225.4 225.4 224.3 223.2 222.4 220.9 220.1 219.1 217.6 214.8 211.7 207.6 204.3 200.9 198 196.8 196 197.1 200.5 202.9 201.5 196.7 193.8 192.6 188 182.4 181.3 189.1 194 197.3 199.4 200.7 202.5 206 209.5 212.4 215.7 219.1 222.8 224.9 226.4 227.5 228.6 230.2 230.5 230.2 230 229.3 227.8 225.5 223.5 221.2 220.3 219.5 217.7 215.7 214.1 212.5 209.6 206.9 204 201 199.4 197.8 195.9 194.2 193.6 192.5 192.9 193 191.8 190.6 188.9 186.6 184.3 182.1 180.1 177.4 175.2 173.4 172.6 170.6 167.7 164 162.2 161.9 158.6 157.6 156 157.4 158.6 160.5 161.6 162.6 162.1 160.8 160.6 163.8 169.3 172.9 175.4 174.8 172.8 170.1 167.4 164.9 162.9 159.4 156.3 153.2 151.6 149.8 148.4 146.7 145 144.3
290.8 283.6 290.1 294.8 295.5 295.7 294.2 289 282.6 286.5 288.7 290.6 292.4 294.7 297.4 299.4 299.9 299.3 298.9 297.1 294.9 293.2 292 290.4 289.3 286.8 284.9 282.6 279.9 276.7 273.6 270.5 266.4 260.4 260.5 263.6 265.5 267.2 269.7 273.4 277.9 283.3 286.6 288.5 289.8 288.5 286.4 282.6 277.9 274.9 271.8 268.2 263.8 256.3 253.2 251.9 247.4 242 234.2 226.3 220.8 208.1 193.8 190.7 191.1 194.8 204.9 211 214.2 214.8 239.7 253.1 254.4 253.2 251.7 249.4 246.1 243.3 240.3 235.8 233.3 230.6 227.9 228 229 228.9 227.2 226 224.8 223.4 222 220.5 218.2 215.9 212.3 207.9 203.5 201.7 199.6 199.1 199.5 203.5 205.6 205.2 203.6 202.2 200.5 198.5 195.3 189.7 182.8 179 185.7 192.6 194.4 197.2 200.1 203.2 207.1 210.6 214.4 218.1 221.5 224.2 225.9 227.4 228.7 229.5 230.2 230.1 229.8 228.4 227.1 226.3 225.2 223.8 222.8 222 220.8 219.2 217 214.5 211.4 208.4 205.9 203.3 200.8 198.7 196.8 196.2 196.1 197 197.2 196.9 195.1 193.5 191.3 189 186.7 185.1 182.5 179.5 176.9 174.5 173.3 170.6 168.2 168.7 171.3 170.6 166.3 161.8 155.2 156.2 155.9 155.3 156.3 158.7 158.2 158.3 160.5 162.1 167.7 171.4 171.7 170.7 168.4 165.1 161.1 157.3 155.2 153.7 150.5 147.1 144.4 142 141.7 143.9 142.1 141.2
291.7 286.8 280.4 287.4 288.7 291.3 292.1 289.2 283 278 282.5 284.8 286.4 288.1 291.3 294.3 296 296.4 295.8 294 291.3 289.9 289 287.4 285.2 283.1 281 277.9 275.7 272.9 270.1 267.2 262.9 257.4 253.6 253.2 253 253.9 255.4 257.6 265.1 273.6 280.8 284.9 286.7 286.2 283.8 279.9 274.1 268.8 266.5 262.8 259 254.3 252.9 251.2 247 242.4 236.3 228.4 222.6 218.2 212.7 206.2 195.5 190 188.8 188.9 192.9 217.1 239.4 249.2 251.4 250.6 249.7 248.6 246.8 244.2 240 236.5 234 231.4 231.1 231.3 232.1 231.9 229.8 228.4 226.1 224.5 222.3 219.8 218.2 215.2 211.2 206.9 204.4 202.7 201.2 202 205.1 207 206.9 206.2 205.6 205.8 204.7 202.8 200.9 196.2 189.4 184.1 178.5 183.5 188.4 194.9 196.2 200.4 204.7 208.6 212.6 216.1 220.2 222.8 224.9 226.5 227.7 228.6 229 229.1 228.7 228.1 227.7 227.4 226.8 226.4 225.2 224.4 222.9 220.8 218.6 215.9 212.7 209.5 207.2 204.9 202.3 200.3 200.4 200.4 200.9 201.7 202.2 201.3 198.6 196.2 194.1 192.8 191 188.8 185.5 181.9 178.7 176 173.5 171.5 170.8 171 172.4 172.8 170.6 167.6 163.5 155.4 155 154.6 154.2 153.9 155.2 153.7 154.8 157.8 162 164.1 165.3 165.3 162.1 157.2 153.7 148.8 144.7 144.2 142.9 143.4 143.7 143.3 142.5 141.4 140.2 139.3
290.2 287.1 281.2 276.1 281.1 285.3 286.9 286.7 283.2 277.7 275.8 281.8 280.4 282.3 285.8 289.6 291.5 292.5 291.8 290.2 286.9 283.3 283.3 281.9 279.8 278.2 275.6 272.4 270.5 268.5 265.4 262.1 257.8 252.6 247.6 244.4 243.2 242.6 243.6 244.1 249 258.3 271.2 279.4 282.6 282.7 280.5 277.1 270.9 262.7 259.1 256.4 252.3 249.9 249.3 247.9 244.6 240.6 235.5 229.5 222.8 218.7 214.2 208.8 201 194.1 189.2 188.1 187.8 208.8 232.6 244.5 248.1 249.3 248.7 247.9 245.8 244.2 240.7 237.2 235 233.5 233.6 233.8 234.1 233.7 231.6 229.4 227.6 224 221.6 219.1 216.8 214.1 210 207.4 205.3 203.8 203.3 205.3 208.5 211 210.3 208.1 207.8 208.9 208.5 206.3 203 200.1 194.7 190.1 183.6 177.5 183.3 189.8 193.7 197 201.4 205.7 210 214.5 218.3 221.3 223.7 225.2 226.4 227.1 227.2 226.8 227 227.9 228.2 228.2 228 227.7 227.5 226.6 225.1 222 219.5 217.1 213.9 210.7 208 206.3 205.5 205.7 205.8 205.6 205.8 205.7 206.7 204.2 202 199.6 197.6 195.9 193.1 189.6 186.5 183 179.9 177.4 175.9 174.5 173.8 173.6 173.3 173.1 172 168.6 165.2 161.4 158.5 154.6 152.1 153.7 153.2 152.3 151.5 150 152 156.8 158.1 157.4 155 149.5 147.2 146.1 146 145.5 147.1 146.4 148.2 146.8 144.6 142.5 141.4 142.8
288.1 283.9 281.5 276.3 273.3 278.5 282.1 282.1 280.7 279 270.5 279 274.9 277.1 280.6 284.3 286.8 288 287 285.2 282.4 274 275.7 274.9 273.8 272.3 270.7 266.8 263.9 261 258.2 252.9 246.6 241.3 236.9 233.6 230.9 228.5 228.8 228.5 230.3 238.4 252.2 265.3 276.5 278.3 276.8 273.5 268.1 258.9 249.6 246.5 244.2 241.9 244.5 243.6 240 236 230.2 227.2 222.1 218.1 214.8 210.5 204.8 193.9 188.7 188.1 187.8 194.5 220.3 240.9 247.1 248.4 248.7 246.6 244.6 243.4 240.7 237.6 236.7 235 234.3 234.7 234.8 234.7 233 230.7 228.3 225.6 221.5 219 216.4 213.1 209.9 207.7 206.7 205.4 206.1 208.5 211.7 213.5 213 210.5 211.1 211.6 210.5 208.5 205.2 201.2 197.1 192.5 187.2 183.3 177.3 180.8 187.5 192.4 197.3 202 206 211.2 215.9 219.5 221.7 223.5 224.2 224.8 224.2 223.9 225.7 227.5 228.6 229 227.8 227.1 228.1 227.7 225.9 223.5 220.9 218.3 215.6 212.4 211.7 211.5 211.4 211.4 211.1 210.4 209.8 209.6 209.2 207.1 204.9 202.4 199.6 196.8 192.7 189 186.3 183.6 181.1 179.4 180 178.8 176.8 175.6 175.2 173 171.4 168.9 165.8 163 160.6 157 155.2 155.1 154.2 158.4 156.7 154.4 154.2 150.4 151.2 149.7 147.5 146.9 147 146.2 146.5 152.8 157.3 157.8 156.2 151.2 147.2 144.9 142.7 142.8
288.1 284.3 281.1 277.4 272.9 270.5 270.8 274.1 274.8 274.7 268.2 275.4 275.2 269.7 275.6 279.6 282 281.2 280.1 277.8 275.1 269.4 267.1 268.1 267.2 264.7 259.5 254.1 247.2 244.4 240.9 236.5 233.1 234.5 231.3 234.4 235.9 235.7 233.7 231.1 226 225.4 233.8 250.2 265 272.4 272.2 269 264.8 257.1 246.2 232.7 235.2 234.6 239.7 236.9 227.8 217.9 213.7 212 211.8 211.1 210.5 206.2 191.9 190 189.4 187.9 186.8 187.5 206.3 231.5 245.3 247.6 247.1 246.5 244 242.8 240.7 239.6 238.9 237.7 236 235.6 234.5 234.3 233.3 231.1 228.9 225.6 222.2 218.7 215.6 212.7 209.9 207.9 207.4 207.4 208.4 210.9 213.9 215.7 216.3 215.1 214.5 213.6 212.2 209.5 206.6 202 198 195.5 193.1 187.9 180.5 176.1 182.5 189.5 193.5 198.4 204.2 209.4 213.7 217.1 219.3 221 221.3 221.1 221 222.7 225.6 227 228.6 228.7 227.1 225.9 226.6 228.7 226.8 224.5 222 220.3 218.5 216.6 216.4 216.4 216.5 216.2 215.5 214.5 213.5 213.1 211.5 209.3 207.2 203.8 201.1 197.9 193.2 189.4 187 185.8 185.6 185.8 186.7 184.9 183.4 179.2 176.6 173.8 171.3 169.3 166.5 163.9 160.9 159.3 159.1 160.9 162.7 163.8 162.4 158.9 154.2 154.2 149.5 148.8 148.1 149.3 150.8 153.2 158.7 164 166.8 166.5 163.2 156 151.7 147.2 143.5 141.9
288.5 287.1 285 280.9 276.1 276 271 266.9 265.3 265.8 264.5 270.6 271.3 265 268.9 271.6 274.5 273.5 272.2 268.7 265.8 262 256.5 257.5 253.6 247.4 243.3 240.3 239.6 238.4 236.9 245.5 246.9 249 249.1 251.1 256 251.7 246.4 243.9 238.7 228.9 223.6 234.3 250.6 262.9 265.8 264.1 261.1 254.5 247.4 238.4 226.9 224.9 233.7 219.5 204 200.8 199.4 198.9 197.4 193.7 193.3 199.2 207.5 200.4 194.2 189.9 186.2 186.9 204.9 231.3 244.9 246.1 245.8 245.6 244.8 242.9 240.6 240.3 240.3 240.3 239.4 237 235.6 234.1 232.5 230.1 227.9 224.9 220.7 216.8 214.3 211.6 209.6 207.6 207.5 208.8 210.6 213.5 216.8 219.5 219.8 218.9 217.1 214.8 212.8 210.6 206.9 203.2 202.9 203.1 199.2 193.5 186 182 174.6 186 190.5 196.2 202.8 207.4 211.6 214.1 216.9 217.9 217.5 217.3 218.9 222.1 225.1 227.1 229 228 226.9 225.7 225.6 227.4 227.6 225.4 223.4 222.3 221.4 220.4 219.7 218.9 219.3 218.8 217.9 216.9 216 215.1 213.4 211.5 208.4 204.9 201.3 198.8 193.9 190.2 187.8 188.5 190 191.5 190.8 190.1 189.7 184.8 180.1 176.2 172.9 169.5 166 163.7 163 162.7 162.9 163.6 165.3 165.8 164.6 161.7 158.3 154.2 150.9 149.7 148.8 154 160.3 165.9 169.3 171 172.1 171.3 167.8 161.4 155.6 150.5 145 141.8
289.5 287.8 284.3 281.8 281 281.4 279 275.5 271.7 267.7 264.6 261 260.6 258.8 257.1 254.9 253.8 256.6 257.4 255.7 253.4 250.1 246.7 246.9 243.6 243.5 245.9 249.2 251.2 253.8 253.1 258.1 261.2 263.7 266.1 264.2 258.8 254.5 250.4 247.8 244.4 238.1 227 221.8 235.6 246.5 252.6 255.1 255 251.6 245.4 239.6 233.7 219.2 220.1 204.4 202.2 199.6 201.7 210.3 210.6 210.3 210.7 216 214.6 206.8 198 189.2 185.8 186.6 214 241.6 245 245 245.2 244.7 244 243.1 241.9 241.4 241.4 241.3 241.1 239.2 236.5 234 230.9 228.6 226.3 223.6 219.3 215 212.5 210.4 208.1 206 206.6 208.7 212.2 216.3 219.9 222.6 222.6 221.3 219 215.6 214 211.9 210.6 209.7 209.3 208 205 198.2 189.7 184.1 175.9 180.9 188.8 194.6 200.9 205.4 209.5 211.5 214 214.1 214 215.9 218.1 220.7 224 226 227.3 228.3 227.2 226.1 224.9 225.7 227.3 225.6 223.9 223.6 223.7 223.8 222.4 221.7 221.6 220.7 219.8 219 218.1 216.9 215.5 212.7 209.3 204.5 201.2 199.2 195.7 191.7 191 192.9 195.3 197.5 195.1 192.5 191.9 187.6 182.2 177.5 174.5 170.4 167.5 167.5 168 168.1 168 167.6 168.4 167.2 166.6 165.2 162.5 159.6 155.4 156.6 160.7 164.1 168.4 171.6 173.5 174 173.9 173 170.2 165.9 159.1 153.5 146.9 144.1
289.3 287.6 286.3 285.5 285.8 286 283.9 282.3 280.6 275.2 276.2 274.5 272.2 270.2 266 262.9 255.3 254.6 252.8 252.1 252.1 252.8 255.4 257.5 256.4 245.1 255.7 259.4 264.6 267.1 269 272.5 272.9 273.8 271.6 267.9 262.8 257.9 254.1 250.4 246.3 242.4 235.9 227 220.8 225.2 232.4 237 241.1 243.9 238.6 234.1 231.7 226.3 211.2 215.2 221.7 220.5 221 223.4 225.2 226.4 226.1 224.3 219.5 210.8 201 188.9 185.4 194.6 216 237.1 244.4 244.1 244.7 244 243.4 242.5 241.7 241.2 241.2 241.2 241.2 239.2 236.9 233.8 230.3 227.4 224.6 221.3 217.3 213.2 209.6 207.3 205.5 203.8 205.6 209.7 214 219 222.6 225.3 225.3 223.7 220.1 217.3 216.2 216.4 215.4 215.2 214.2 213.1 210.2 204.1 192.6 186.3 181.4 176.2 188.4 193.6 198.9 203.1 206.9 208.8 210.1 210.4 211.9 215 217.8 220.3 222.4 224.3 225.4 227.1 227.3 226.4 225.2 224.9 225.8 225.9 224.5 225 225.8 226.1 224.7 224.6 224.3 223.3 222.3 221.3 220 218.4 216.9 213.2 208.8 205.5 202.1 198.8 196.6 196.3 197 198 199.7 199.7 197.8 195.9 192 187.7 183.1 179.2 175.5 173.3 172.8 173.9 174 174.2 172.6 172 171.6 170.4 169.3 167.9 166.1 163.4 160.2 162.4 165.6 169.1 172 175.1 176.6 175.7 175.2 174.4 171.7 168 162.3 156.9 150.4 145.4
289.6 289.3 289.2 290.1 290.6 290.6 289.2 288 286.2 282.5 281.6 280.2 277.7 275.2 271.8 263.7 264.4 263.1 264.4 267.2 267.9 267.9 265.9 264 258.8 252.9 263.5 268.8 272.5 276.7 280.1 279.8 281.1 279.1 275.4 271.5 266.5 261.4 256.3 251.6 247 242.6 237.8 230.7 223.2 220 217.3 218.1 222.4 226.6 223.8 221.1 223.2 213.1 218.4 232.7 235 233.9 234.8 235.3 235.1 234.9 233.5 229.9 223.4 216.7 205.4 189.1 183.9 188.2 205.3 220.2 229.3 238.2 243 243.4 242.9 241.6 241.7 241.2 240.9 240.5 239.7 238.6 236.5 233.5 230.1 226.6 223 217.8 213.4 210.4 206.4 203.1 201.7 201.8 205.7 211.2 215.9 221.1 225 228.1 228.3 226.6 223.4 220.9 221.5 220.8 220.5 219.6 217.9 216.2 213.2 207.8 197.2 187.4 182.5 173 188.2 192.5 196.6 200.5 203.9 205.1 206 207.2 212.1 215.2 218 220.9 221.7 222.6 223.8 225.5 226.6 226.1 225.3 224.8 225 225.2 225.3 226.2 227.9 227.8 227.7 227 226.3 225.1 223.5 222.4 221.4 219.3 216.6 212.3 208.8 206.3 203.6 200.3 199.7 200.9 201.3 202.1 202.4 201.5 199 195.4 191.2 187.1 183.1 179.3 177.3 177.7 179 180.1 180.5 179.6 178.1 176.3 174.9 174 172 170.4 169 167 164.2 166.6 169.5 172.4 174.1 175.2 176.2 175.7 175.1 174.1 171.9 169 164.5 159.8 153.7 147.9
291.9 292.6 294.5 295 294.7 294.6 293.5 292.1 289.2 287.5 285.9 283.3 280.6 277.5 271.4 262.8 269.5 270.9 274 274.6 275.3 273.7 271.8 267.7 255.4 265.7 272.3 276.4 283.8 287.7 287.2 285.1 287.6 285.5 281.4 275.8 269.8 265.1 257.9 250.8 242.6 236 231.2 230.5 230 225.3 226.2 222.2 217.9 215 212.9 212.9 213.4 226.3 239.4 243.6 245 244.4 242.8 242.6 241.7 239.8 237.1 233.6 227.7 221.7 214.2 196 185.2 183.7 189.9 197.3 206.9 218.5 230 236.7 241.7 237.7 238.6 240 239.9 238.6 237.7 236.7 235.2 232.4 229.3 225.6 221.5 215.8 209.8 206.6 203.4 200 197.6 197.7 205 211.6 218 222.4 227.7 230.6 231 229.4 227 226 226.6 225.7 225.8 224.5 221.9 218.5 214.7 208.9 201.5 190.7 181.7 171.6 186.9 189.7 193.3 196.5 200.3 202.1 202.3 207.3 212 215.2 217.7 219.9 220 220.7 221.5 223.3 225.4 225.6 224.9 224.6 224.8 225.2 225.6 226.5 228.2 228.8 229.4 229.4 228.5 226.9 225.2 223.5 222.1 218.9 215.7 212.1 209 206.7 204.3 203.5 204.6 205.8 205.9 204.9 203.5 201.6 198.4 193.9 189.5 185.2 182.8 181.9 182.7 184.2 185.6 186.6 186.2 184.7 181.9 180 178.3 176.5 174.7 173 171.1 169 167.4 169.6 173 174.5 175.1 175.5 175.8 175.5 174.7 173.1 171 168.1 164.5 160.4 156.1 150.5
295.3 297.2 298.2 299.1 298.8 298.3 297.4 295.3 293.1 290.6 288 285.1 281.7 277.7 267.5 272.7 275.9 280.2 279.1 282 282.5 280.3 277 268.9 262.9 272.3 278.7 286.8 293.6 295.8 295.9 295.5 291.7 290.3 285.9 279.1 273.2 267 257.3 246 247.9 245.4 243.4 240.3 233.2 229.4 230.8 228.9 227 224.2 218.7 225.5 235.4 244.5 250.4 252.9 253.2 252.4 249.7 248.4 246 243.2 239.7 235.7 230.1 225.2 219 212.3 199.9 188 182.1 182.9 185.9 195.4 207.3 213.6 221.2 225.4 230.2 237.1 238.5 236.7 235.3 235.4 234.3 231.7 227.7 223 218.4 212.3 208 202 196.8 193.9 192.9 194.8 202.7 209.4 217.6 225.1 230.5 232.9 233.6 232.2 232.1 231.1 230.7 230.6 230 228 224.5 220.8 215.2 209.5 203.3 193 183.8 171.2 184 187.5 189.5 192.5 196.3 197.9 202.4 207 211.5 214.2 216.6 216.6 217.6 218.8 219.6 220.6 222.3 223.4 223.9 223.3 223.7 225.2 226 226.9 228.4 230.1 231.1 231.3 230 228.7 227.2 225.5 222.4 219 215.5 212.4 209.9 207.9 206.7 207.6 209.1 210.2 208.9 206.5 204.1 201 197.1 192.3 189.7 188.8 188.9 189.1 190 191.5 192.1 191.7 190.6 188.7 186.1 183.6 180.6 178.2 175.7 173.7 172.2 170.6 170.2 172.2 173.9 174.1 174.4 174.7 175.1 174.5 173.5 171.4 168.5 165.8 163.5 160.4 156.4 152.2
298 299.9 301.6 302.5 301.8 301.8 300.1 298.1 295.4 292.6 289.3 285.2 281.4 271.1 275 281 283.7 284.3 284.5 288.4 286.1 283.5 277.6 266.8 269.3 279.2 286 294 297.5 300.1 301.1 298.7 294.8 292.7 288.8 282.2 276.1 267.2 254.8 261.7 259.2 255.2 251.5 244.3 236.7 238.1 237.8 236.6 235.2 230.3 224.7 235.2 247.4 253.1 257.4 259.8 259.5 257.8 255.3 252.3 249.3 245.7 241.9 237.3 232.5 227.4 223.3 218.4 213.4 207.6 193.3 183.1 181.7 182.1 182.2 189.3 195.4 200.6 223.4 235.1 235.7 233.6 232.6 232.5 232.2 228.7 223.9 218.7 211.5 205.1 201.2 197.3 193 190.2 185.7 187.1 195.7 205.3 216.7 227.4 231.8 234.7 236.1 236 235.7 235.5 235.4 234.8 232.8 230.1 226.4 222.2 216.8 210.5 205.5 195.9 185.1 172.9 174.5 184.5 186.6 188.7 191 196.5 202.4 205.7 210.4 212.6 214.2 213.2 213.5 216 216.6 217.3 218 219.5 220.9 220.9 222.8 224.6 226 227.4 228.8 230.6 232.4 232.3 231.4 230.3 228.5 226 223.2 219.6 216 212.8 211.1 209.4 210 211.8 213 211.8 210.1 207.5 204.5 200.8 196.4 195.4 195.1 195.9 196.4 196.6 197.7 197.8 197.3 196.2 194.6 192.4 190.1 186.4 183.3 180.1 176.8 174.9 173.6 172.6 172.1 172.6 173.4 173.3 173.6 173.9 173.2 171.9 170.8 168.5 166 164.1 160.8 159.1 155.4 151.7
299.6 301.8 303.9 304.9 305.2 303.6 302.7 299.7 296.7 293.1 289.1 283.7 277.5 280.2 284.1 287.7 289.5 288.5 291.2 292 290.6 288.6 279.6 266.2 277.6 287.4 292.9 298.9 302 304.2 304.7 302.6 299 296.4 292.1 286.8 278.9 263.4 270.8 271.4 268 263.7 256.2 247 247.1 247.6 248.2 246.5 241.4 236.2 229.2 242.6 253.9 260.4 264.4 264.8 263.8 261.7 258.1 254.5 250.6 247 242.7 238 233.3 228.6 223.7 219.4 212.9 207 198.9 187.4 184.9 180.2 180.6 180.2 181.6 194.8 217.9 231.4 233.1 231.6 227.9 226.9 227.5 224.7 221.6 213.1 201.5 196.5 194.5 192.4 191.1 189.9 185.4 179.8 191.6 205.4 219.2 229 232.4 235.2 237 237.6 238.6 239.1 238 236.6 234.8 231.2 226.8 222.3 217.3 211.1 206.2 198 188.2 180.3 169.1 179.2 182.3 183.4 188.8 195.7 201.1 205.8 208.7 211.1 211 210.2 208.9 209.6 211.1 213.5 213.3 214.5 215.9 218 221.8 225.1 226.6 228.1 229.2 230.9 232.7 232.7 232.3 231.1 229 226.7 224.3 221.1 216.7 213.7 212.3 212.3 213.5 215.1 214.2 213 210.8 207.6 203.9 200.6 198.7 199.7 201.4 202.5 203.4 203.7 203.6 202.8 201.3 199.1 196.9 194.2 191.9 188.8 185.2 181.4 178.1 176.5 174.8 174 173 173.2 172.8 172.6 172.2 171.4 170.9 169.1 168.5 167.3 165.7 164.1 160.6 158.6 156.4 152
301 303.1 305.1 306.4 306.9 305.9 304.1 301.5 296.7 292.3 289.6 285.5 285.8 288.3 291.3 293 293.5 294.8 296.7 296.3 294.3 291.4 284.3 271.6 284 292.2 299 304 306.8 308.5 308.4 306.1 302.7 299.2 295 288.4 274.8 279.3 280.4 277.7 274.3 269.6 256.6 256.6 257.4 258.6 258.1 254.6 246.6 241.4 234 245.5 258 266.4 270.1 270.5 268.1 264.5 259.9 255.5 251.5 247.9 242.3 236.6 231.8 225.8 218.9 213.4 213 206.8 203.9 202.3 196.2 188.6 182.1 180.8 179.4 187.1 214.3 226.8 229.6 228 222.7 217 220.9 220.9 217.3 210.3 197.4 192.9 193.9 193.5 194 195.6 187.3 176.7 188.2 203.8 216.6 228.2 232.8 235.5 237.8 239.2 240.3 240.5 239.2 237.3 234 230 225.8 221.6 216.5 210.4 206 200.2 192.9 182.6 174.6 171 175.2 182.7 188.1 193.9 199.1 203.4 206.2 208.2 208.3 207.7 207 208 209.9 210.7 209.9 210.4 211.2 214.7 221.6 226.3 227.4 229 230.1 231.2 232.6 232.6 232 230.9 229.4 226.8 224 220.3 217 215.4 215 215.5 215.8 216.4 215.2 213.7 210.4 206.7 203.8 203.3 203.6 204.8 206.8 208.3 209 208.5 207.3 205.2 203.2 200.6 197.5 195.7 192.8 189.7 186 182.5 179.6 178.1 175.7 174.8 173.7 173.2 172.9 172.4 172 171.6 170.7 170.2 169.8 168.5 166.7 165.7 163.7 162.6 160.8 156.1
302.3 304.1 305.6 306.5 306.7 307 305.8 303.9 300.6 298 293.1 292.6 293.5 294.5 296.2 298.1 299.1 300.6 300.8 300 297.5 292.9 283.1 279 291 298.6 305.5 308.6 311.9 312.4 311.6 309.2 306.2 302.3 297.5 286.1 287 287.8 286.6 283.7 280.2 272.9 264.4 267 268.1 268.8 265.2 260 253.1 247 238.7 246.3 260.6 269.8 273.6 273.7 270.8 266.3 261.8 256.3 251.5 246.2 240.4 235.7 230.1 226.7 222.4 221.3 218 213.9 211.5 208 202.2 195.6 187.7 180.9 178.4 179.3 203.4 219.3 224.6 222.7 217.1 209.9 208.6 210.4 204.3 201.5 195.3 186 183.1 180.1 182.7 191.5 187.3 172.5 171.7 183.3 201.7 219.9 229.4 235.6 238.8 241 241.7 241.6 239.8 236.5 232.3 228.4 224.5 220.3 215.3 209.5 205.5 201.2 195.8 186.9 180.7 170.8 169.4 179.3 186 191.3 195.8 199.4 202.6 203.5 204.4 202.4 203.2 203.8 205 206.1 206.2 206.5 209.3 216 222.8 227.1 228.6 230.1 231.7 232.6 231.9 231.6 231.3 230.5 228.8 225.3 222.6 219.7 218.2 218.1 217.8 217.9 217.7 217.7 216 213.1 209 206.4 206.2 207.1 209 210.5 212 213.1 213.2 212.2 210 207.1 204.5 201.8 198.1 195.6 192.7 189.5 186.2 183.2 180.9 179.3 177.2 175.4 174.2 173.3 173.1 172.6 172.4 171.9 171.8 171.8 171.3 170.2 170.9 170.8 169.4 166.9 163.9 158.2
301.6 303.8 305.9 306.6 307.6 307.3 307.3 306 304.3 301.5 299.3 298.2 298.7 299.3 301.1 301.9 302.9 304 303.6 302.6 300.3 296.3 283.8 288.1 300.6 307.5 311.6 312.9 315 313.9 312.4 311.8 309.5 305.7 301.8 298.7 296.3 294.5 292 289.2 284.7 278.9 277.5 277.4 277.2 276.8 270.7 266.5 260.2 252.5 244.7 249.5 263 272.3 276.2 276 273.6 269.8 263 255.5 251.2 246.2 243.2 240.3 235.8 232.4 229.1 225 220.9 217.1 215 212.9 207.7 201.4 191.4 185.7 178.4 178.7 191.5 209.7 217.6 217.2 209.7 198.9 187.4 184 177.4 174.4 170.9 169.7 167.5 166.2 165 167.8 166.6 166.4 167.5 167.5 182.7 207.5 225.9 235 241.2 242.7 242.3 241.4 238.1 234.8 230.7 226.9 223 218.1 213.5 209.3 205 200.5 194.7 189 182.2 177.8 168.3 168.2 182.6 189.4 193 195.6 197.2 198.6 199.3 197.8 200 200.7 201.7 202.4 202.8 203.6 207.2 217.8 223.4 227.1 229.9 232.6 233.8 234 232.6 230.6 229.6 229.2 227.7 224.3 221.5 220.3 219.3 219.5 219.9 219.8 219.2 217.7 214.9 211.3 208.9 208.5 210.1 211.9 213.8 215.2 216 216.2 214.7 213.2 210.2 206.8 204.5 201.5 198.3 194.9 192.5 189.3 187 184.9 182.5 179.9 177.9 175.6 174.7 173.9 173.8 173.8 173.8 173.7 174 173.9 173.6 173.8 174.2 173.7 171.6 168 164.3 159.3
300.8 302.7 304.8 306.6 307.8 308 308 307.4 305.2 304.4 303.6 302.9 303.2 302.9 303.3 303.7 304.4 305.3 305.3 304.7 303.4 297.4 288.1 296.4 305.3 312 314.7 316.2 315.8 314.3 312.8 311.7 310.8 308.5 304.8 302.3 299.7 297.3 294.6 292.3 289.9 287.7 286 284 282 280.3 276.7 272.8 266.9 258.2 261.9 252.2 264.4 273.8 277.9 277.4 275 271.5 264.3 257.5 254 252.1 248.8 244.4 241 237.9 233.9 228.9 225.2 221.1 217.5 216.1 213.7 203.6 198.6 191.4 184 178.6 183.3 196.4 203 200 190.4 178.3 173.6 171.9 169.4 169.8 169 168.9 168.3 168.5 169 165.9 165.3 165.8 165 164.5 169.5 196.7 221.9 236.5 243 245.4 244.8 240.7 235.9 232.2 229.1 225.2 220.7 215.4 211.6 208 203.9 199.3 193.7 189.4 186.5 184 176.9 168 174.9 181.6 188.7 190.4 191.1 191.4 191 192.1 197.7 198.4 198.1 199.6 199.9 202.3 209.2 216.8 222.6 227.9 230.8 233.7 234.5 233.8 231.3 228.8 227.5 228.1 226.1 223.2 221.6 220.6 220.3 220.2 220.4 220 218.2 216.1 213.1 211.6 211 212.7 214.6 216.4 218.2 219 219.1 217.4 215.7 213.1 210.2 206.4 203.5 200.1 197.6 194.8 193.1 190.9 188.7 186.6 184 180.9 178.6 176.5 175.6 175.1 174.8 174.9 175 175.2 175.3 175.5 175.7 175.6 175.2 174.1 171.6 168.5 164.5 159.2
299.4 300.8 302.6 304.1 305.5 307.1 307.9 307.5 307.5 307.1 305.8 305.4 305.3 305 305.2 305.4 305.7 305.7 305.9 305.5 304 299.5 295.5 301.5 308.3 314.6 315.7 318.5 316.1 313.9 311.7 310.4 308.9 306.4 304 301.6 300.2 298.9 298.1 296.9 294.9 292.7 290.9 288.7 286.7 284.8 282.3 278.3 273.4 269.3 267.5 263.1 267.3 276.5 278.8 278 275.8 272.9 266.9 264.1 260.8 257.2 253 249.1 246.8 243.7 239.7 234.6 229.6 224.4 220.2 218 214.7 211.2 206.6 197.9 190.3 179 178.4 178.6 178.7 177 175.3 172.9 171.9 179.9 186.7 188.3 186.4 183.3 183.2 182.5 182.2 178.9 172 165.5 163.8 158.4 164.8 192.7 222.1 242.8 245.1 246.1 244.4 241.1 235 230.8 227 222.8 217.5 212.6 209 206.8 202.2 198.6 196.4 194.8 191.3 186 180.9 175.1 162.6 172.7 178.6 180.2 183.2 183.9 183.3 189.2 192.6 188.6 190.5 194.2 197.6 206.5 211.1 215.9 222 227.1 230.8 232.3 231.9 230.3 227.4 226.1 225.9 226.1 224.7 223.1 221.7 220.8 220.8 220.6 220.3 219.6 217.3 215.4 213.8 213.1 214.5 216.2 218.1 219.9 221.4 221.4 220.6 217.7 215 212.5 209.8 206.2 202.8 199.8 198.9 198.4 194.1 192 189.9 187.7 185.2 182 179.1 177.4 176.8 176.3 175.9 175.9 176.1 176.5 176.6 176.8 176.8 176.5 175.6 174 171.5 167.6 163.4 158.4
297 298.2 299 299.9 301.5 303.3 304.9 305.4 306.6 307.1 307.7 307.4 307 307 307.3 307.2 306.9 306.7 306.7 306 305.3 302.1 302 306.4 310.4 313.5 314.5 316 314.7 312.9 311.3 309.2 306.7 305 303.3 302 301.2 300.5 301.1 300.6 298.6 296.6 295 293.1 291 289.4 287.6 284.5 280.8 277 274.7 272.2 267.4 277.4 279.5 278.4 276.6 274.3 271 269.1 266.5 261.9 258.3 254.7 252.3 248.7 244.6 240.1 233.7 226.5 221.6 218.8 217.5 216.4 213 207.7 205.6 199.2 185.8 187.6 186.6 185.5 185.2 188.1 197.1 196.5 199.5 200.4 194.5 197.3 197.9 198.4 196.2 190.6 182 172.2 165.9 162.8 158.8 187.7 224.7 246 245.5 244.8 243.1 240.1 234.9 229.1 225.3 221.2 216 211.8 208.6 206 202.7 200.3 199.8 197.9 194.4 188.4 182.3 177 167.7 162.5 165.7 167.2 168.9 171.8 173.7 181.3 179.3 178.1 191.9 196.1 202.6 205.7 211 215.4 220.7 225.5 229 229 228.3 225.9 224.8 223.9 223.2 223.5 222.1 222.4 221.4 221.2 221.1 220.7 220.3 219.8 218.4 216.8 215.9 216.5 218 219.6 221.6 223.5 223.3 222.1 220.4 218.5 215.9 212.5 209.4 205.7 203.1 200.4 199.3 197.6 195.4 193 191 188.4 184.8 182.2 179.8 179.2 178 177.4 177 177.1 177.3 177.6 177.8 177.6 177.1 176.7 175.7 174.4 171.6 167.8 162.8 156.3
293.7 294.4 293.9 294.8 296.5 299 302.1 303.2 303.8 305.7 307.7 309.7 308.5 309 309.3 308.4 307.9 307.6 307.5 307.3 307.2 307.3 306.9 309 310 311.7 312.5 312.2 312 311.3 309.5 307.9 306.9 305.5 304.1 303.6 302.3 301.5 301.6 301.1 300.1 298.8 297.6 296.5 295.2 293.8 292.2 289.8 285.8 282.2 280.6 278.5 274 277.5 279 278.6 277.4 275.7 274.3 272.4 269.5 266.3 263.4 260.8 256.9 252.3 249.6 244.7 236.6 230.3 223.6 221.7 220.9 219.5 217.4 215.3 214.4 212.2 207.6 207.6 205 205.4 205.6 205.1 204.4 205.7 205.8 204.9 205 209.3 212.3 214.4 210.1 202.6 191.8 178.3 167.7 162.7 161.1 191.3 227 241.9 244.6 244.1 242.2 238.9 234 228.5 223.7 219.8 215.3 211.8 209.2 206.5 204.6 202.3 201 200 196.9 192.3 186.1 179.3 175.5 170.9 160.7 161.5 161 161.2 162.3 164.6 168.3 180.3 191.4 196.7 202 201.8 208.6 214.4 219.5 224 225.6 224.9 223 222.8 221.6 220.7 220.2 219.1 220.6 221 220.7 221.1 221.1 220.8 220.6 220.8 220.9 219.6 219.6 219.8 221.4 223.1 225.5 225 224.1 222.5 220.4 217.9 215.5 213.3 210 206.5 203.8 201.7 200.7 199.4 196.8 194.2 190.8 187.6 184.8 182.5 181.1 180.2 179.9 179.6 178.9 178.5 178.7 178.9 178.3 177.7 177.2 176.7 175.6 174.3 171.6 167.5 161.3 155.6
288.7 289.9 288.6 289.1 291.2 293.6 296.5 298.4 300.1 302.7 305.1 307.4 309.5 311.3 309.9 309 308.9 308.6 308.5 308.7 308.9 308.8 308.7 309.5 309.7 309.8 310 309.5 309.3 309 308.3 307.2 306.2 305.4 304.6 303.7 302.6 302.3 302.2 301.6 301 299.9 299.5 299 298.3 297.6 296.8 293.6 289.8 286.9 284.4 281.9 279.4 278.7 278.6 278.4 277.9 276.9 275.5 274.1 272.1 269.9 267.9 265.2 262.3 256.7 253.3 248.8 243.7 238.9 231.3 225.8 223.8 222.1 220.9 219.6 218.7 217.7 214.6 213.1 212.4 214.4 214.1 213.6 212 213.1 213.5 213.8 211.8 218.3 221.6 226.1 226.7 213.2 199.4 183.3 169.5 161.8 162.3 195 222.6 234.7 241.8 242.4 240.1 236.7 232.2 227.4 222.2 218.1 214.6 211.8 209.9 207.9 205.9 204.3 202.4 200.2 197.6 193.6 189.1 182.2 178.6 177.9 176.5 174.3 169.3 163 159.7 157 157.6 169.3 184 191.9 193 195.3 205.4 212.1 217.2 221 221.3 221 218.9 218.4 217.6 216.8 214.9 215.6 218.3 219.3 219.3 220.1 221.2 221.3 222.2 222.4 222.5 222.6 222.8 223.7 224.8 227 228.1 226.9 225.4 223.2 221.2 218.9 217.2 214 210.8 207.1 205.4 204.1 202.7 200.5 197.7 194.7 191 188.7 186.6 184.4 182.9 181.9 182.1 181.4 180.7 180.2 179.7 179 178 177 176.5 176.2 174.8 173.1 170.4 163.7 158.5 154.3
284.7 283.8 281.1 282.5 284.1 286.5 287.8 290.2 294.2 298.7 301.3 303.1 305.2 307.1 309.5 309 308.7 309.4 309.6 309.4 309.5 309.5 309.2 308.9 308.5 308 307.6 307.1 306.6 306.4 305.8 304.5 304 302.5 301.6 301.6 302.2 302.2 302.2 301.9 301.5 301 301 300.2 300.5 300.5 299 296.6 293.5 289.8 287.1 284.5 281 279.7 278 278.1 277.9 277.1 276.2 274.5 273.6 272.6 270.9 268.7 266.3 262.9 258.3 254.6 250.6 245.9 241.3 236.6 232.6 230.2 226.4 225.4 226.1 226.1 224.2 224.4 223.1 223.3 222.5 221.8 219.6 220.1 220.5 221.1 218.3 223.9 229.1 232 230.9 221.9 207 189 169.9 157.6 164.1 190.4 203.9 218.2 230.5 237.7 236.4 232.5 228.8 224.4 220.3 216 213 210.7 209 207.3 205.9 204.3 203 199.2 196.8 195.3 191.5 185.4 180.7 179.9 179.1 177.7 174.9 172 169.9 165.9 157 156.2 166.9 173.9 178.5 186.2 195.9 205.8 212.4 215.9 216.4 216 214.3 212.8 212.2 211.6 210.8 212.3 214.3 215.8 217.3 219 220.7 222.5 223.7 224.4 225 225.7 226.2 226.8 227.6 229.2 230.2 229.3 227.5 225.5 223.9 220.9 217.2 214 211.2 209 207.9 205.6 203.8 201.6 198 194.6 192.9 190.8 188.5 187.3 186.1 185 184.4 183.2 182.1 181.4 180.4 179.1 178.2 177 175.6 174 172.6 170.8 166.8 161.7 156.4 153.5
278.7 277.4 273.4 277 276.1 278.7 278.3 279.2 289 294.5 296.7 297.5 299 300.7 302.8 304.9 306.6 308.7 308.7 308 308 308 307.9 307.6 307.3 307 306.4 305.6 304.6 303.7 302.8 300.3 299.2 296.7 296.3 296.6 298.3 298.8 300.3 300.4 300.4 300.4 300.4 300 300.1 300.1 299.6 299.1 296.1 292.9 289.9 286 282.6 279.5 276.5 275.3 276.2 275.6 274.9 274.7 274.2 273.6 272.4 270.7 268.9 266.6 263.8 261.1 257.4 253.9 250.3 247.1 245.2 241.8 239.1 238.2 237.7 237 235.7 235.7 233.3 231.3 230.4 229.3 227.6 228.2 228.1 227.7 225.4 229.5 235.4 238.1 237.3 229 215 197.6 172.5 156.7 159.3 170.2 182.2 193.7 209.8 224.7 229.2 226.5 224.1 220.3 217.6 213.9 210.2 208.1 206.3 205.2 204.7 203.6 201.7 199 197.8 196.7 195.5 189.9 183.8 182 180.8 179.2 177.4 174.6 172.5 169.3 160.2 155.1 158.9 165.3 163.9 168.1 175.9 186.9 206.2 208.7 209.8 209.5 207.2 205.2 206 206.7 208.6 210 212.5 214.3 216.7 219.3 221 223.3 225 226.4 227.6 228.7 229.7 229.9 230.6 231.5 231.8 230.9 228.9 227.2 225.2 222.5 218.8 215.7 213.3 211.8 209.7 207.5 204.9 202.1 198.4 196.7 195.5 193.6 191.7 190.5 189.5 188 186.2 184.8 183.6 182.3 180.8 179.3 178.4 177.5 175.5 173.5 170.3 168.1 163.9 159.1 155.3 152.2
271.9 269.6 267.9 271 268.3 270.7 268.3 278.8 284.4 288.4 290.7 292 291 292.4 294.7 296.6 299 304.7 304.9 306.8 307.3 306.8 306.3 306 305.7 305.9 305.1 304 302.9 301.8 299.3 295.5 292.7 284.8 286.7 289.3 290.7 292.8 295 297.2 298.9 299.2 299.3 298.9 298.6 298.4 298.1 298 297.7 295.1 290.9 287.3 283 279.4 274.6 270.7 269.2 269.5 270.9 272.6 272.9 273.3 272.3 271.6 270.3 269.2 268.5 267.8 266.1 264.4 261.4 257.8 255.4 252.9 251.3 250 248.3 248.3 247.7 246.4 244 240.1 238.6 236.1 235.6 235 233.6 234.5 235.2 236.4 240.4 244.3 244.6 237.6 224.8 207.9 182.7 160.5 155.7 158.2 159.5 167 183.1 201.8 216.4 218.3 216.1 213.5 211.8 209.5 206.7 203.8 202.7 202.6 202.3 202.2 201.3 200.1 199.9 199.7 199.7 195 186.5 183.7 181.7 180.2 178.7 176.1 172.5 169.1 159 153.8 160.7 179 182.6 179.8 181 179.5 189 192.9 191.2 192.8 193.9 196.8 198.9 203 206 207.5 210.1 213.2 216.4 219.3 222.1 224.9 226.6 227.9 229.7 231.4 232.6 233 233.5 233.7 233.3 232.1 230.4 228.2 225.8 223.3 220.4 218 215.8 213.6 211.2 207.8 204.6 201.3 199.6 199 198.1 196.5 195 193.5 192.1 190.1 187.7 186 184.2 182.9 181.8 180.8 179.5 178.6 176.3 173.7 170.2 166.5 162.1 157.1 154.3 149.8
267 263.5 263.3 264.4 262.4 262.2 266.9 275.6 280.3 282.1 283.9 284 283 281.9 282.9 283.8 287.5 297.4 303.5 306.4 305.8 305.1 304.5 304.1 303.8 303.7 303.1 302.1 301.3 299.5 295.8 286 282.5 279.3 276.5 281.1 283.2 285.4 287.8 290 293.8 295.8 297.5 298.3 298.3 297.9 297.4 297.6 297.8 294.1 290.7 287.5 283.3 279.2 275.5 269.9 264.8 265.1 265.9 268.2 269.2 270.9 271 271.1 270.8 270.8 271.2 271 271 269.6 268.3 266.6 264 262.1 260.3 257.6 256.9 256.9 256.8 255.5 252.5 248.9 245.4 243.9 243.6 242.8 242.5 243.4 243.3 244.5 246.4 248.6 249.2 245.1 236.5 222.4 204.5 179 165.8 154.8 155.8 157.5 158.9 175 195.5 208 203.1 202 201.5 200 199.4 197.2 196.8 197.3 198.7 200.6 200.7 200.9 202 202 201.9 199.2 190.8 184.7 182.3 180.4 178.8 176.6 172.2 167.1 155.4 153.5 166.4 181.6 188.3 191 194.5 194.1 194 192 192.4 195.6 198.8 200.8 202.2 202.3 204 208.1 211.5 216.6 219.4 222 223.7 226.1 228 230.1 231.9 233.7 235.1 235 235 234.8 234.7 233.1 231.5 229.1 226.4 223.1 221 219.2 217.3 215 212 208.2 205.2 203.8 202.9 201.8 200.4 199.4 197.4 195.5 193 190.8 188.7 186.8 185 183.3 182.5 182.2 181.4 180 177.4 173.8 169.7 165.5 160.7 156 152.2 148.2
265.2 258.5 260.2 259.5 256.6 253.8 264.1 271.9 275.8 277.4 277.9 276.3 275.3 270.9 271.5 267.6 272.7 289.6 298.8 304.1 304 303.7 302.8 302.2 301.8 301.3 300.8 299.9 299.2 297 293.4 289.9 285 276.9 260.8 266.6 273.4 277.7 280.2 283.3 287.3 290.8 292.9 294.8 296.4 297 297.4 296.8 292.6 290.9 288.7 286.3 283.7 279.4 275.3 271.3 265.5 258.5 261.7 264.6 266.2 266.9 268.1 269.4 269.9 271 272.6 273.2 273.4 272.5 270.8 269.5 267.7 265.7 264.1 263 262 262.1 262.1 260.9 258.7 256.4 253.9 251.7 251.3 250.6 250.6 251.3 251.5 251.8 252.3 251.9 251.9 248.3 243.7 236.3 221.4 206.6 184.7 172.9 164.5 155 152 156.6 168.7 181.2 186.3 187.9 187.4 186.3 186.4 186.7 187.7 189.7 192.2 194.8 197.5 200.1 201.9 202.7 203.6 202.1 197 186.8 183.2 180.1 177.9 175.8 171 165.1 151.2 156.6 179.7 191.5 199.2 201.8 203.4 205.3 206.8 205.8 203 204.3 206.9 209.8 209.9 209 209.3 211 214.9 220.2 222.7 224.5 226.3 227.6 229.5 231.5 233.8 235.9 236.4 236.5 236 235.5 235 233.9 231.8 229.3 226.6 224 221.9 220 217.8 215.6 213.1 209.5 207.5 206.8 205.8 203.8 202.5 201.3 198.7 196.3 193.7 191 188.7 187 185.4 183.8 183.3 182.9 182.5 181.1 177.1 173.3 169.1 164.6 159.3 155.4 151.6 147.6
262.5 258.7 255.7 255.8 252.2 251.9 262 268.1 271.2 272.4 272.3 269.2 267.8 262.8 262.8 257.5 265.4 278.1 293.3 299.9 302.4 302.2 301.2 300.5 299.8 299 298.4 295.8 294.7 292.5 289.5 286.8 283.8 280.6 275.7 260.6 257.2 265 270.9 276.2 279.9 283.3 286.7 289.8 292.2 293.8 295.4 295.2 290.1 287.5 286 284.4 282.7 280 275.5 270.7 266.1 260.4 254.1 258.3 261.3 262.9 264.5 266.7 268.2 269.7 271.5 273.4 273.9 273.5 272.4 270.8 269.4 267.4 266.2 265.5 265.2 266 265.2 264 262.7 262 261.4 259.3 258 257 256.8 257.1 256.2 255.8 256.1 255.7 255.4 252.5 248.6 243.2 237.7 226.1 212.5 198.7 179.1 164.2 154.4 152.8 154.3 155.1 163.1 167.2 170.1 171.6 173.1 174.2 177.1 181 186.2 190.5 194.5 197.2 199.3 200.7 202.1 203 200.5 193.4 183.9 179.5 177.1 175.9 171.3 160 152.3 169.9 193.1 198 204.4 207.3 209.3 211.1 212.2 211.2 210.4 211.2 212.9 215.6 215.6 215.2 215.3 215.3 217.7 222 225 227 227.9 229 230.9 232.7 234.9 236.9 236.9 236.8 236.1 235.2 234.9 234.3 231.8 229.1 227.2 225.5 223.1 220.8 218.4 216.1 213.9 211.7 210.5 209.7 207.6 205.6 203.6 201.6 199.4 197 194.3 191.5 188.8 187.3 185.9 184.6 184.1 183.2 182.1 180 176.4 172.2 168 163.7 158.7 154.7 151 147.8
258.8 257.1 252 249.8 246 251.4 259.4 264.6 266.5 267.9 265.6 263.7 260.6 258.8 253.6 251.3 260.2 270.8 285.9 295.6 299.9 302.2 299.9 298.6 297.6 296.1 293.6 291.4 289.3 287.9 285 282.2 279.4 277.9 274.9 270 260 250.7 260.9 267.3 271.1 274.9 279.5 283.6 287 290 292.1 291.1 287.5 285.3 283.5 282 280.3 278.7 275.1 269.4 264.5 261 250.4 250.5 254.9 257.5 260.5 264.1 266 268.1 269.8 271.5 272.3 272.9 271.9 270.2 269 267.5 267 267.6 267.8 267.6 266.8 266 265.9 266.1 264.7 263 261.9 261 260.9 260.8 260.4 259.8 259.5 258.7 258.1 256.7 253.4 248.1 242.2 236.6 229.6 217.8 203.3 183.6 171.1 161.1 152.3 152 152 151.5 150.5 151.7 160.1 159.1 159.5 159.9 164.2 173.8 188.3 192.3 195.8 198 199.8 200.7 201.3 197.4 187.1 179.7 175.8 174.4 170 152.1 157.2 183.4 196.3 202.7 208.8 211.5 213.7 215.7 217 216.9 216.6 217.7 219.3 220.8 221.3 220.2 219.7 219.8 220 223.3 226.4 228.2 229.3 230.3 231.8 233.5 235 237.1 237.2 236.5 235.3 234.5 234.5 233.2 231.3 228.7 226.9 225.4 223.7 221.7 219.3 217.2 215.4 213.5 212.7 211.2 209.2 207.1 204.4 201.9 199.6 196.8 194.1 191.5 189.1 187.7 186.4 185.4 184 182.5 180.8 179 175.4 171.5 167.2 162.8 158.4 154.1 150 148.5
255.7 253.1 251.5 245.7 241 250.3 257.1 261.2 263 264.4 262 257.5 252.3 253.8 249.4 248.8 259.6 271.9 280.6 288.9 297.2 300.2 297.9 296.1 295.3 291.9 289.1 285.6 282.6 280.2 278 276.7 273.9 272.5 270 266.9 262.2 249.7 245.6 254.1 258.5 262.7 268.7 275.6 280.6 284.5 287.8 287.5 284.9 282.8 281.3 279.6 277.9 276.2 273.3 268.4 263.8 259.9 253.2 242.7 246.8 250.9 254.6 259.4 263.6 265.9 267.9 269.6 270.5 271.2 270.5 269.2 267.8 266.5 266.8 267.4 267.8 268.4 267.6 267.3 267.2 267 265.9 265.1 263.9 263.5 263.8 263.8 263.6 263.3 262.5 262.1 260.7 259.1 256.1 252.3 246 241.5 237.6 232.2 221.2 204.7 189.7 179.5 166.8 157 154.5 151.6 146.4 147.4 146 145.8 144.3 144.9 144.4 144 157.7 177.4 185.8 192 195.3 197.2 198.6 197 191.3 182.4 175.5 172.3 162.7 150.4 164.7 191 200.2 206.9 212.4 215.8 218 220 221.1 221.8 222.4 224 225 225.9 225.9 225 224.1 223.7 223.4 225.9 227.6 229.6 230.7 231.7 232.6 234.2 235.9 236.2 236 235.1 234.1 233.2 232.8 231.8 230.2 228.2 226.6 225.3 223.6 221.7 219.9 218.4 216.6 215.2 213.5 211.7 210 207.8 204.9 202.1 199.3 196.2 193.5 190.8 189.3 187.9 186.5 185.4 183.5 181.2 179.4 177.3 173.7 170.5 166.3 161.6 157.7 153.7 149.9 148.6
252.1 250.8 249.3 245.1 238 246.6 252.1 256.4 258 259.4 257.5 253.2 247.4 246.2 242.6 245.6 252.7 260 272.8 287.7 294 297.2 296.5 294.4 292 289 283.8 278.8 275.2 271.9 271 268.3 263 262 259.2 256.5 251.4 247.3 236 241.7 244.5 246.3 250.3 262.8 274 278.3 281.7 283.4 281.8 279.4 277.8 276.1 275.1 273.6 271.1 266.9 262.6 258.8 254.8 249.7 238.9 243.2 248.8 254.5 259.7 263.4 265.5 267.5 268 267.6 267.4 266.5 265.3 264.3 265 265.7 266.6 267.5 267.8 268.2 268 267.8 267.4 266.6 265.8 265.6 265.7 265.2 264.7 264.5 264.7 263.9 262.1 260 257.3 254.4 250.3 246.3 242.4 238.6 230.4 218.1 203.3 191.1 180.6 171.3 164.5 159.9 153.9 150.9 147.8 148.2 149.5 149.2 147.7 147.2 144.5 151.3 163.9 173.1 179.2 186.5 195.4 194.5 190 186.9 175.8 171.9 159.2 149.9 173.2 195.1 203.3 209.9 215.5 219.3 222 224.2 225.4 226.4 227.3 229 230.2 230.4 230.4 229.3 228.3 226.6 227.2 228.1 229.7 231.3 232.1 233.1 233.5 234.8 235.3 234.9 234.5 233.9 232.9 232 231.2 229.8 228.4 227 225.9 224.6 223.4 221.7 220.4 219.1 217.8 216.4 214.5 212.5 210.2 207.6 204.7 201.8 198.5 195.3 192.8 190.7 189.2 187.7 186.4 185 182.8 180.2 178.1 175.5 172.7 169.8 165.7 161.2 157.1 153.1 150.1 148.4
248 246.6 246.3 242.4 234.9 240.6 247.9 253.3 255 255 253.6 248.5 241.6 236.7 242.9 251.4 257.3 257.3 268.5 279.4 288.2 292.8 294.1 292.5 288.6 284.8 279.2 271.7 265.9 262.4 259.6 255.4 251.2 248.2 245.6 242.1 243.3 240.1 236.4 231 231 230.8 237.2 250.1 265.5 271.8 275.9 277.5 277.8 276.2 274.1 272.2 270.4 270 268.4 263.9 259.4 254.9 252.7 249.1 238.2 237.1 244.1 249.8 255.3 260 263 264.7 265.2 263.4 262.9 262.9 261.7 260.3 260.9 262.6 265 266 266.9 267.2 267.7 268 267.6 267.3 266.7 266.9 266.3 265.5 264.9 265.2 264.7 264.1 262.2 259.7 257 254.2 251.5 247.8 242.9 237.2 230.1 222.9 211.6 199.7 187.3 177.6 169.5 162.5 156.1 151.8 147.8 148.5 154 151.5 149 148.6 147.4 145.8 142.4 151.4 160.4 167.1 175.5 186 185.6 184.6 176.5 169.9 158.5 149.9 174.3 198.4 205.9 212.7 218 222.3 225.9 228.3 229.7 230.6 231.7 233.5 234.3 234.5 234.4 233.1 231.5 229.7 230.1 230.4 231.7 232.7 233.4 233.9 234.4 234.5 233.8 233.1 232.5 231.8 231 230.1 229 227.8 226.5 225.6 224.6 223.7 222.9 221.9 220.6 219.4 218.4 217.1 215.2 212.5 208.8 206 203.2 200.6 197.2 194.2 191.6 190.7 189.1 187.6 186.3 184.4 182.1 179.4 176.8 174.3 171.7 169.1 165.2 161 156.9 152.9 148.4 149.4
