ncols 200
nrows 81
xllcorner 260000
yllcorner 742650
cellsize 50
382.6 379.4 370 363.8 358.9 358.8 354.8 354.5 357.1 362.7 361.2 359.3 358.5 359.4 348.3 334.8 321.8 315 305.8 296.7 289.6 286.2 283.6 283.3 275.6 294.8 297.7 298.8 298.8 298.7 299.7 301.5 301.4 298.8 298.3 293 292.5 289.3 289 285.5 282 277.3 272.1 262.4 258.2 253 245.4 236.9 229.7 227.8 231.3 229.9 226.9 229.2 228.4 228 231.2 229.9 227.6 225.8 228.1 228.8 231.2 233.9 237.8 238.3 242.4 246 252 256.6 261 268.8 272.8 283 293.4 304.1 314.4 324.1 335.8 352.4 369 391.6 418.1 435.5 448.5 452.5 445.8 433 433.4 452.6 471.1 486.9 492.7 499.1 504.5 494.7 482.3 478.5 486.3 489.4 488.1 476.6 451.1 423 427.2 438.9 450.2 456 461 466.8 472.9 469.5 459.8 450.5 436.1 415.9 424.8 443.2 463.9 479.3 486.4 493.1 498 515.8 528.9 534.2 535.9 542.3 559.7 564.2 567.6 574.3 581.7 588.8 603.5 602.2 595.6 595.5 598.3 593.7 579.5 567.9 558.6 547.1 533.8 524.1 518 513.1 509.8 505.1 501.3 500.6 499.8 502.5 512.2 520.4 530.7 543 554.2 561.3 566.5 569.1 566.9 565.2 568.2 572 570.8 560.7 550.1 542.7 535.3 527.1 518.2 506.7 495 475.5 454.6 432.1 419.2 403.9 395 381.8 365.7 355.9 352.5 346.8 340.5 330.5 319.4 312 307.7 303.4 304.5 324.9 327.2 323.3 309.8 293.3 284.4 278.5
424.7 420.1 420 427.4 413.5 391.5 390.6 388.3 392 398.6 405.9 388.2 376.8 370 357.6 344 330.2 320.5 314 313.9 310.2 307.3 305.2 299.6 291.5 295.7 301.2 302.2 306.5 312.2 314.8 319.4 319.4 303.8 302.7 305.4 306.7 303.7 301.7 297.2 290.9 283.9 278.6 274.3 265.2 253.4 248 239.9 233.1 240.5 238.7 235.9 236.6 236.8 237.4 238 240.7 241 241.1 241.3 242.8 244.6 247 249.2 252.2 256.7 261.1 263.9 269 275.5 278.8 286.9 295.1 304.4 319.2 330 340.4 355.2 371.6 385.3 405.6 426.2 446.2 467 468.2 457.6 452 456.1 468.8 486 503.9 513.2 518.3 518.7 516 513.7 504.4 490.4 486.4 479 475.8 465.7 438.4 432.5 445.4 462.7 472.7 479.6 485.4 486.4 491 482.3 470.5 459.3 447.8 429.9 423.7 441.3 456.2 465.7 474.9 483.6 493.2 507.6 518.1 524.7 530.3 543 552.5 560.2 566 572.2 582.7 596.8 610.7 611.9 605.9 623.2 625.8 609 589.4 575.1 563.9 552.1 541.3 534.6 527.4 523.8 519.4 515.5 512.1 511.4 512 514.8 523.8 535.5 547.4 559.5 571.7 574.5 580.3 583 585.6 593.2 600.7 599.9 593.8 589.5 579.2 569.1 555 544 534.6 520.8 505.1 484.6 464.3 448.5 431.1 420.7 408.4 395 379.6 372.6 364.1 351.8 340.9 338.5 334 333.5 329.6 322.3 318 318.2 338.5 342.1 325.9 310.8 302.3 298.4
467.8 465.9 469.1 468.8 461.1 447.5 440.8 437.1 430.3 422.8 419 406.2 397 390.1 373.8 361.3 345.5 338.4 331.3 330.8 330.7 328.4 320.5 310.1 296.4 304.2 311.2 318.4 325.9 329.9 332.9 325.1 316.7 310.4 314.3 318 316.8 316.6 312.9 304.6 295.5 292 286.7 280.6 268.6 258.2 252.5 247.5 242.4 243.2 244.8 244.7 245.6 245.5 248.2 251.7 252.8 253.8 256.2 257.1 257.6 259 262.3 265.5 269.3 273.4 278 280.5 284.9 294.2 302.1 310.8 321.2 336.1 346.6 358 380.3 391.7 414.5 425.5 446 464.6 470.2 477.8 475.7 473.7 478.3 486.4 497.8 514.2 530.6 535.3 531.9 525.7 515.4 514.4 508.3 491.2 483.2 477.8 470.6 453.2 441.1 456.8 479.3 492.3 498.4 505.3 508.4 503.2 493.3 484.7 479.8 473 463.4 447.6 431.2 434.6 447.2 461.9 476.8 488.5 499.5 512.3 522.9 528.8 543.3 556.2 561.9 563.3 564.8 575.4 591.4 606.5 618.9 618.8 625.2 647.3 655.8 650.2 624.1 591.6 571.5 559.1 548.8 543.4 538.7 530.7 527.9 525.3 523.9 525.9 527.5 528.9 535.6 546.6 560.9 578.5 588.9 595.7 597.7 599.7 613.1 622.2 630.4 620.5 615.1 607.6 601.9 583.6 571.8 560.6 545.4 531 512.5 492.9 472 453.2 442.2 425.1 410.8 398.8 392.3 382.5 376.7 367.5 364.2 362.4 361.1 354 342.4 332.3 332.5 321.3 340.4 359 361.2 355.9 349.2 337.6
514.8 514.5 521.6 518.9 513.6 504.3 491.9 481.4 464.3 465.1 443.2 429.5 422.4 428.2 402.1 382.5 362.5 354.3 346.1 343.9 344.2 340.2 328.9 309.9 306.2 315.9 322.2 332.6 339.3 341.9 339.8 328.6 319.7 320.6 324.7 326.7 325.2 320.7 313.6 307.9 303.9 298.3 290.7 280.9 273.4 265 258.8 249.6 248.9 252.3 253.6 255.3 257.5 260.8 267.9 272.3 274.2 275 275.8 276 278.5 281.6 281.9 283.8 289.9 293.2 297.2 300.3 307.8 318.2 330.1 343.1 350.2 367.8 377.6 394.7 409.9 432.1 459.7 468 479.3 495.1 494.5 500.4 505.5 508.3 517.6 514.9 520.6 533.4 539.2 535.9 526.2 518 509.2 505.1 495.2 486.2 481.7 477.7 469.6 453.2 458.9 479.2 497.3 510.1 519 518.2 511.8 507 504.3 494.9 484.7 473.2 463.9 458.6 447.9 437.7 454.7 468.6 480.7 493.6 505.2 515.1 523.1 541.4 554.7 566.9 571.6 573.4 575.9 582.7 596.6 609.7 615 626.5 646.1 659.4 667.1 663.2 641.9 612.2 587.6 573.7 565.6 555.6 546.3 539.7 538.7 538.3 540.2 543.1 541.3 541.3 549.7 563 579.8 593.9 608.1 614.5 619 632.6 640.2 642.7 645.5 647.4 640.3 631 616.3 596.5 583.2 571.8 555 536.4 515.9 496.4 478.5 468.5 451.5 436 424.7 415.4 410.8 400 386.3 378.9 374.2 373.4 369.4 362.8 350.5 342.7 345.2 339.4 336.1 363.5 373.4 382.2 382.2 371.9
570.2 563.8 569.6 563.9 562.7 557.1 545.5 528.8 503.2 496.9 485.1 462.3 441.7 432.5 414.5 395.1 380.4 371.1 362.9 356.2 348.9 339.9 330.2 307 315 321.6 326.3 334.1 337 339.3 335.7 332.5 331.3 338 343.7 335.8 330.3 326.2 321.2 316.7 311.4 306 297.4 288.9 280.2 270.3 265.6 259.2 253.7 264.9 266.3 271.7 275.4 281.3 290.1 296 297.9 298.1 299 298.6 300.4 304.1 305.9 308.7 311.3 315.6 319.7 325.7 333 347.5 362.3 375.7 378.8 398.4 413 434.7 450.4 469.9 489.1 502.9 508.3 517.1 518.6 534.5 543.6 551.2 550.6 546.1 541.9 539.1 540 536.7 529.8 521.8 513.8 508.9 504.5 495.4 489.9 485.5 478.6 461.1 472.8 494.6 512.4 524.3 535.1 532.9 527.6 519 507.4 497.6 488.5 475.7 472.7 467.2 458.7 442.3 455 470.3 484 499.1 507.7 516.3 533.3 559.6 576.5 582.7 585.6 585 584 595.4 605.5 614.1 629.3 642 655.5 666.6 671.9 668.6 653 623.1 602.7 595.7 588.3 578.6 569.9 560.9 554.3 551.9 550.6 552.2 552.8 556.4 567.6 581.6 597 610.3 619.5 629.6 643.1 655.3 662.1 663.8 656.5 646.3 638.8 627 613.8 598.5 584.7 571.6 556.3 536.7 513.9 501.1 484.8 471.3 456.8 446.7 440.5 426.9 413.4 402 392.7 389.8 386.6 376.9 374.4 368 362.1 362.2 359.9 355 339.8 367.2 379.3 390.6 399.5 394.3
610.7 606.9 615.6 613.5 612.5 604.9 588 573.4 563.7 545.2 525.4 484.8 471.2 451.1 423.4 401.7 389.1 380.2 370.9 362.2 351.4 340.3 326.1 311.9 326.2 328.7 335.8 343 345.8 350 352 347.1 343.5 348.5 347.6 347.4 345.3 341.9 337 329.8 323.2 316 309 306.2 291.9 280 274.7 271.2 263.5 275.7 281.9 288.2 292.2 302.8 311.8 317 320.9 322.3 320.7 319.8 322.9 328 328.5 329.2 331.9 338.7 345.8 353.5 364 385.5 391.6 403.8 413.2 431.3 447.8 465.5 487.5 511.2 536.7 544.3 533.5 535.1 556.1 569 574.4 571.8 559.6 551.5 547.6 546.6 545.8 542.1 537.4 526.8 516.2 512.7 510.2 506 500.5 494.1 487.2 465.2 483.2 511.6 532.2 539.3 541.3 537.3 528 521 512.7 503.3 490.8 483.6 481.5 473.1 463.9 453.7 457.8 472.4 488.9 501.4 512.7 522.7 549.6 576.7 588.7 597.9 594.8 592.6 592.3 602.2 610.1 622.8 635.2 647.6 665 677.6 685.8 679.3 662.3 643.6 630.2 622.6 612.1 603.1 593.8 584 575.2 574.5 568.8 566.6 570.1 574.5 583.5 595.1 608.8 623.3 635.6 651.9 665.4 680.7 687.2 688.3 680.2 671.6 655.4 634.1 609.5 597.9 585.7 571.1 552.8 531.4 516.5 498.9 486.7 478.3 471 457.7 443.5 431.7 425.4 419 412.4 405.2 398 392.7 387.6 378.1 378.2 377.5 370.7 362.9 349.1 365.6 378.2 395.1 408.9 414.8
635.2 627.8 622.7 614.7 611.3 609.4 595.4 567.2 557.7 541.1 524.6 499.2 470.9 447.6 424.4 404.4 392.8 383.2 372.6 363.5 353 338.9 328.6 325.4 334.3 340.1 352.4 358.6 364 371.2 364.2 356.6 361.7 362.9 364.8 364.9 360.3 355.5 349.8 344.5 337.5 329.4 321.9 313.8 297.9 289.9 286.9 280.9 281.6 288.1 296.2 304.2 313.4 321.4 331 340.8 348.7 353.2 350.8 350.5 346.5 348.2 350 352 356.9 364.5 376.1 388.6 403 411.8 421.5 435.5 460.4 468.4 485.3 497.4 513.2 541.4 564.1 568.3 558.2 567.3 586.8 592.5 589 576.8 567.6 560.2 554.2 552.8 553.4 550.5 546.4 540 529.9 523.5 521.8 518.9 514 506.7 494.9 474.2 502.7 523 538.7 543.7 546.4 545.8 536 531.4 524.8 513.5 497.2 492.9 490.3 483.5 471.5 464 459.6 477.2 494.2 508.5 518.2 538.3 569.7 592 600.9 599.6 599.7 597.6 597.6 602.5 613.5 629.4 639.8 651.5 675 689.7 696.5 694.2 685.1 669.5 660.2 647.8 635.3 624.1 613.6 605.9 597.5 593 592.1 595.7 595.4 597.1 603.6 612.5 625.2 638.5 653.3 672.2 686.1 696.2 707.2 707.5 698.2 688.9 670.6 647.4 630.4 611.1 588.4 567.2 550.4 534.6 522.6 510.1 497.6 487.6 481.8 471.4 462.4 450.2 441.1 432.3 420 412.3 405.4 401.1 393.8 391.6 387.6 380.4 372.7 365.7 358.5 365.6 382.9 397.7 407 424.2
632.9 624.4 615.5 611 599.6 591 581.1 552.4 525.7 516.9 504.3 481.4 453.2 431.6 417.4 404.4 393.7 384.4 374.6 363.2 352.5 342.9 332.1 323.6 345 358.5 373.2 384 383.3 380.2 369.8 374.5 377.5 381.9 385.2 387.1 381.9 371.6 365.8 361.4 356.2 342.9 331.7 320 311.9 302.3 297 288.8 294.6 301 312.1 323.5 334.8 342.1 352.9 370.1 378.2 387.4 377 380.1 372.9 379 377.5 381.7 387.4 401.4 419 438 444.5 447.5 458.4 468.4 494.8 513.7 525.1 533.7 558.2 577.4 584.8 580 578.1 593.5 609.9 611.6 604.1 589.5 575 566.8 563.4 565.5 565.3 564.4 559.4 555.2 547.7 538.8 535.1 531.4 524.8 517.1 507.1 488.6 510.8 530.3 545.2 557.3 561.4 558 549.6 545 535 517.6 505.4 500.8 497.7 493.2 482.5 475.6 459.9 480.7 496.7 507.8 525.9 550.8 571.2 584.3 596.5 599.5 600.5 602.9 603.4 607.6 621.1 631.1 641 654.9 683.1 696.6 707.5 707.4 701.6 692.3 680.7 670.7 655.1 644.7 635.4 634.9 635.4 629.9 628.1 624.6 618.2 614 620 628.6 641.4 654.9 671.4 691.2 707.6 721.7 728 721.6 710.9 696.4 677.8 660.1 641.3 621.2 597.9 582.9 567.9 556.5 539.5 522.4 504.9 494.3 484.7 475.6 469.4 461.9 451.3 440.2 433.6 425.8 422.9 415 408 405.7 399.7 391.5 383.5 376.1 368.1 368.6 380.5 390.9 411.1 433.2
623.1 619.1 603.1 595.4 586 575.2 556.8 530.7 503.3 492.6 480.2 459.3 439.6 424 410.8 400.2 391.5 383.8 374.6 365 354.4 345.8 329.4 344.7 357.5 372.3 385.9 386.6 378.9 381.1 388.3 395.9 400 405.3 409.3 414.3 407.7 393.6 387.5 383.3 369 352.7 339.9 331.3 322.2 311.3 305 290.9 304.2 314 327.8 338.6 348.4 357.2 367.2 396.3 400.4 404.8 397.9 401.1 399.8 399.2 406.4 415.2 429.1 460.9 476.3 479.6 474.6 479.1 493.5 499.7 534.1 552.3 564.2 573.3 589.1 597.7 605.3 612.3 606.6 604 611 612.3 608.5 594 592.5 588.4 581.1 579.5 576.2 572.7 569.3 566.2 559.4 553.2 553.9 548.6 535.9 525.2 509.5 501.4 522.9 540.2 555.5 566.9 571.3 572.9 566 557.7 542.2 533.9 523.9 517.2 506.7 497.7 489.2 481.6 467.2 480.5 494.6 508 532 549.6 565.5 586.9 604.5 610 612.4 612.7 609.5 612.8 621.7 632.5 646.2 665.7 687.6 702.1 719.1 721 717.6 712.4 700.4 686.6 680.4 674.9 673.8 668.2 662.4 652.7 645.3 641.4 636.2 631.4 634.4 642.5 656.8 674 690.7 711.3 730.3 743.2 749.7 744.6 727.6 703.7 684.4 665.7 647.7 630.7 612.5 594.1 580.4 567.2 553.5 540.6 526.9 512.1 495.5 483.5 473.7 463.7 457.8 456.8 450.3 441.6 436.2 431.4 423.8 416.3 405.9 397.1 392.3 381.1 373.1 372.3 384 397.2 414 438.6
611.9 605 590.4 579.1 566.3 552.2 540 513.1 489.1 475 460.3 443.7 431.5 415.7 406.4 396.9 388.7 381.9 373.8 365.5 354.5 348.3 336 358.5 369.9 376.7 380.5 384.3 393.2 403.3 412.9 424.4 431.4 440.6 441.1 441.4 430.1 419.3 412.8 396.7 378.1 367.2 354.8 339.6 325.6 318.6 312.3 298.1 315.2 328.4 340.7 350.3 358.8 373.7 381.6 411.7 415 418.8 414.8 420 421.7 429.3 446.2 456.8 484.9 509.6 521.1 533.1 510.6 511.2 522.1 532.3 564.4 581.9 594.2 599.2 611.1 619.2 625.5 622.2 612.2 609.2 615.3 615.8 615.8 615 612.3 605.9 599.7 594.8 589 586.1 581.9 578.6 575.5 566.8 562.1 550.9 541.6 530.3 509 523.5 538.8 553.5 568.1 581.7 586.6 582.4 574.1 562.2 555.3 545.4 534.5 525.7 513.4 506.6 500.7 493.2 479.6 477.8 491.9 508.5 528.2 542.9 562.3 589.8 614 620.2 620.5 619.5 621.3 621.7 626.5 638.8 652.8 672.4 694.1 708.5 721.6 728.6 728.7 727.9 723.8 717.8 709.3 701.1 694.7 687 677.9 670.8 668.8 664.1 655.5 650.4 652.9 666.2 678.9 695 712.5 729.5 747.3 757.1 757.5 743.4 723.7 707.6 700.4 692.8 677.3 656 633.2 615.3 599.7 583.4 568.2 555.4 542.6 528.4 511.9 497.7 489 482.7 475.7 470.3 463.8 459.7 458.9 449.4 435.8 424.5 412.6 403.8 395.6 389 383.6 378.4 392.2 407 422.6 445.6
595.2 588.3 581.7 559.4 543.2 528.1 515.9 491.7 472.1 457.3 444.5 432.8 421.4 408 397.8 392.3 385.7 381.1 372.6 363.8 356.9 349.1 346.2 370.1 375 378.6 386.6 397.6 411 426.9 445.1 458.5 475 478.3 483.5 480.7 474.8 448.5 428.7 407.9 390.5 378.2 364.6 350.2 336.2 327.2 316.9 308.4 327.4 340.8 352.5 360.7 368.4 380.4 393.9 421.1 431.3 434.4 443.2 442.6 450.8 471.3 482.1 498.7 529.5 548.2 556.5 551.5 541.7 540.5 549.9 568.3 587.7 605 612.6 615 620.5 625.8 625.7 618.4 613.8 619.3 623.3 631.3 631.4 628.6 622.1 618.9 613.9 613.3 610.3 606.5 601.1 597.3 587.9 571.7 562.5 555.1 544.1 530.3 524.9 541.4 553.6 567.5 581.3 593.9 593.1 585.1 583.6 580.5 568.2 554 541.4 533.9 520.5 513.3 507.3 498 484 480.2 496.4 511.6 525.1 539.2 563.3 584.8 606.6 615.4 623.1 629.6 629.8 627.1 632.7 645.7 656.8 679.4 697.6 711.8 723.8 731.5 746.4 752.6 744 729.9 721.9 718.2 717.8 714.6 706.6 700.6 690.3 676 669.8 674.9 682.5 693.3 701.2 712 723.5 737.1 749.8 759 764.9 764 757.7 746.2 733.9 715.4 693.1 669.4 655.1 639.9 619.6 600.2 582.6 568.3 556.6 545.5 531.8 518.9 509.3 502.6 496.8 489.4 482.2 481.3 471.2 459 446.2 437.3 433 422.6 414.6 407.2 395 385.9 399.4 413.6 430.9 452.4
577.1 566.5 551.6 536.8 518.9 504.4 488.5 470.5 457.8 445.1 433.6 425.9 414.4 409.1 394.8 386.9 382.4 377.7 370.5 363.2 358 346.9 363.1 375.5 378.9 383.8 395.1 410.8 430.1 451 473.2 497 514.8 527.1 519.4 506.6 491.1 459 441.1 419.9 404.2 392 377.2 360.5 346.9 333.2 322.3 320.9 340.4 352.7 363.6 370.6 378.4 391.1 406.1 428.2 442.7 455.3 462.7 473.2 497.1 516.2 531.1 546.9 573.1 585.2 589.1 589.8 585.4 568.2 577 592.3 610 628.6 632.8 634.7 635.9 630.7 630.4 628.7 626.4 632.3 636.8 644.2 650.2 649.5 644.2 642.8 641.3 640.6 636.8 632.1 620.8 604.3 590.4 573.2 564.6 557.5 542.2 528.6 542.7 554.5 566.4 578.6 593.5 601.8 601.5 605.4 602.3 591.6 579.9 565 552.6 540.1 525.7 518 509.1 497.4 490.5 479.8 497.3 508.6 521 540.1 556.9 575.6 597.1 615.1 622.7 629.2 630.7 631.1 638.6 651.1 660.6 683.5 698.1 711.4 721.7 732.7 748.8 753.6 750.9 752.3 755.2 748 736.3 728.8 719 707.6 699.3 696.1 691.3 693.3 702.6 708.6 715.2 723 733.6 746.8 758.1 772.7 780.6 779.6 778.6 771.5 755.9 737.1 714.3 690.6 668.7 650.4 628.6 611.3 598 585.6 574.3 563.7 553.6 541.8 531.8 526.3 520.9 512.1 502.6 493.8 481.9 468.5 457 447.1 435.7 425.8 417.3 406 395.8 392.7 403.8 417.5 433 451.1
555.1 537.9 521.3 509.8 495.8 480.9 467.7 453.8 442.8 433.2 425 416.7 407.5 403.6 395.1 382.8 381.4 373.6 367.1 361.3 365.5 369.5 375.2 378.2 382.8 391.4 406.4 423.9 446.2 469.7 500.1 539.6 550.4 549.8 533 525 512.7 482.6 460.6 441.4 421.8 407.4 392.3 370.6 353 340.8 325.4 333.7 344.3 358.7 368.8 376.8 387.1 399.3 415.4 437 453.3 466.9 480.5 505 543.2 566.2 575.5 581.9 603.2 610.2 614.3 612.2 609.3 602.7 600.7 605 622.4 638.2 645.6 654.4 656.4 658.5 654 642.6 636.5 642 647.9 655.3 664.6 674.6 677.8 672.2 664.8 657.6 640.1 633.9 620 604.5 593 578.3 568.1 559 536.4 551.7 557.8 567.9 578 589.7 602.4 611.5 617.4 619 611.4 605.1 595.4 580.8 564.5 545 534.1 521.9 512.3 506.6 501 490.7 494.5 509.2 524.2 536.7 551.7 570.7 594.1 615.9 628.8 637.1 636.8 635.4 640.6 653.3 662.4 679.8 691.3 705.5 718.3 734.3 746.2 754.9 765.7 769.4 767 762.4 753.3 748.6 740.9 731.1 723.4 712 707.6 713.5 719.6 725.2 731.2 739.8 749.3 762.2 772.9 782.8 789 787.8 784.1 780.5 770.7 754.5 735.1 713 691.2 665.5 640 625.5 616.6 607.1 597.4 586.3 571.8 561.1 550 535.3 526.3 522.7 515.3 501.8 484.8 470.1 457.2 445 432.9 422.6 412.5 404.1 398.9 396.5 407.9 419.1 431.6 446.6
526.2 509.8 496.8 487.2 473.4 463.5 451.7 439.3 431.6 423.3 416 406.7 396.5 390.7 382.2 378.7 378.5 368.9 360.4 364.8 371.9 374.3 379 383.9 391.4 404.7 420.8 440.6 462.6 490.1 534 562 573.6 565.9 552.9 548.4 539.6 509.9 484.8 466.2 439.2 422.7 404.8 379.4 362.2 349.3 338.1 337.1 350.6 364.7 375.4 383.5 395.2 408 424.9 441.5 460.9 476.4 496.9 525.8 559 597 611.1 615.1 625.5 626.6 634.2 634.1 630.7 621.2 617.7 628.8 639.9 658.8 668.2 673.8 668.9 670.4 659.9 648.8 648.8 653.5 658.9 664.9 674.6 687.3 696.1 689.9 678.2 658.5 636.6 625.4 614.2 605.2 595.2 580.7 570.2 551.3 555.1 564.5 574.2 581 590.1 599.6 610.5 621.9 630.5 631.9 626.7 619.6 606.6 588.5 567.4 552.3 535.2 525.7 520.4 514.8 507.7 501.4 493.1 507.8 523.1 534.5 550 569.7 596.7 612.1 621 630.7 638.3 637.3 640 647.2 656.4 675.7 688.9 703.2 714.8 725.9 738.7 749.5 760.6 765.3 764.4 765.3 764.3 760.1 752.4 742.9 733.1 725 725.3 730.8 735 741.1 748.8 758 771.4 781.4 791.7 792.8 795.5 793.3 786.3 781.3 781.7 772.4 755.4 739.4 717.5 697.5 674.7 663 645.4 629.1 614.1 601.2 587.2 575 561.2 544.3 539.2 527.9 512.5 499.7 485.4 472.6 458.9 445.3 433.3 422.7 415.2 407.7 401.8 399.3 409.3 421.5 432.8 443.9
500.5 489.6 478.7 468.7 458.5 447.8 437.1 428.4 420.9 412.8 408.3 403.1 390.3 380.8 371.1 366.8 365.8 361.9 363.6 366.3 372.4 380 386.2 394.5 407.7 420.7 435.4 457.3 482.2 513.4 549.6 581.9 590.6 586 570.6 561.2 553.1 529.7 496.6 472.4 451.5 432.9 416.2 393.2 372.9 358 349.4 336.4 352.9 366.7 379.3 390.1 402.5 415 432.5 448.9 469.8 486 509.4 533.4 563.1 592.1 617.3 631.2 643 653.4 662.8 664.4 659.9 648.2 641.2 647.4 663.5 677.7 685.3 690.4 687 677 674.4 660.7 659.1 663.4 666.8 672.3 682.9 694.7 703.8 696.2 677.2 656.2 634.9 623.2 611.6 604.4 594.5 582.3 564.5 562 573.3 580.5 586.2 591.8 600.1 609.2 620.3 633.2 637.9 636.8 632 622.1 607.7 591.4 575.3 553.7 539.5 534.7 528.4 523.7 519.8 513.7 503.5 507.3 519 530.4 545.1 564.5 594.7 609.2 617.5 625.8 631.6 633.2 637.3 644.3 653.7 667.5 681.3 693.2 704.6 718.3 731 742.4 754.4 766.4 777.9 782.7 782.4 777.7 770.2 757 746.5 737.4 742.6 746.1 748.6 760.1 771.1 783.9 796.5 800.7 793.2 787.3 794.1 789.4 780.4 771.6 762.3 760.1 748.4 742.5 726.8 714.4 701.6 685.9 664.2 646.1 629.7 612.5 596.4 579.3 560.2 543.7 532.6 521.2 510.4 504.5 497.5 484.5 468.9 451.7 437.9 427.4 420.3 414.2 406.4 402.9 415 426.8 436 441.3
489.9 477.8 468.4 458.5 446.7 436.9 426.8 419.6 413.5 404.6 397.7 391.6 385.9 379.3 369.2 367.9 369.4 371.1 375.8 373.7 381.9 385.5 396.3 407.4 420.4 434 451.6 476 502.5 536.8 571.2 591.2 599.8 596.2 587.6 575.7 556.2 529.1 508.7 484.6 463.7 445.4 426.7 405.4 385.3 368.5 357.3 345.8 354.4 369.3 382.6 393.1 409.1 421.5 438.8 452.9 475.5 494.1 515.9 536.5 564.9 590.5 610.7 633.7 648.9 654.6 661.3 662.7 662.3 659.8 659.6 670.8 682.5 698.5 706.4 707.6 703 694 688.7 681 669.8 674 677.1 685.2 693.7 703.1 704.3 695.5 676 648.4 632.2 622.5 614.2 604 594 582.7 566.8 579.7 587.4 591.5 596.1 602.3 610.2 619.4 629.1 637.4 642 640.5 632.8 620.3 612.6 601 581.1 566.8 557.3 548.4 544 539.5 529.3 520.8 511.8 507.5 516.5 528.1 543.3 564.5 580.6 596.6 609.8 617.8 623.5 628.2 635.7 644 657.5 671 681.3 690.2 703.3 719.3 734.5 746.3 755.8 774.2 792.2 807.1 810.4 805.6 795.1 769.2 752.2 749 753.6 761.8 771.3 782.3 796.1 800.3 803.6 799.1 789.9 780.7 778.4 773.2 766 753.6 745.1 737.1 733.1 727.6 718.2 715.2 704.2 691.5 674.7 656 636.8 616.7 594.8 573.1 551.4 540.1 534.8 525.8 517.1 511.4 504.2 488 471.7 457.4 444.9 432.5 422.3 415.8 409.3 406.8 415.4 424 432.2 442.9
482.3 468.5 458.1 448.9 437.1 425.6 416.1 409.2 400.1 391.8 387.9 386.1 380.8 374.9 371.6 373.3 375.7 378.2 380.6 378.3 386 396.7 406.1 420 434.4 447.8 467.2 493.8 522.8 555 589.5 601.7 609.9 607.4 597.4 583.2 563.1 541.8 519.5 498.4 476.7 458 439.2 417.5 398.2 379 365.1 357.7 351.3 368.8 384 398 413.2 427.6 443.5 456.6 476.1 497.7 519.6 536.6 564 587.3 608.1 631.9 641.3 651.3 654.1 658.4 661.3 667.6 676.2 687.6 702.7 719.5 730.5 729.2 722.5 712.4 701.5 686.7 683.2 686.4 688.5 697.5 704.5 711.1 707.3 693.6 673 649.9 633.5 623.3 615 602.6 593.3 574.7 580.7 591.7 596.8 601.6 606.3 613 620.5 629.5 638.8 646.5 650.3 651.4 643.1 634.4 624.5 608.4 593.9 581.8 573.5 563.8 556.1 543.8 533.8 526.8 518.8 512.5 519.3 531.2 543.6 564 583.3 599.4 610.3 618.6 623.7 631.1 641 651.8 662.6 673.8 683.8 694 708 722.6 736.8 750.1 766.4 785.3 801.1 811.9 819.7 819.4 810.6 785.8 763.8 767.2 774.5 784.3 789.6 800.9 807.1 804.4 801.8 798.5 789.2 771.9 758.9 750.6 739.4 729.3 723.6 718.7 712.3 707.5 706.3 707.3 703.5 692.9 676.9 660.3 642.7 621.3 592.3 565.8 548.2 546 543.2 529.8 516.2 506.9 497.4 485.1 470.5 456.6 445.6 435.8 426.1 419.3 411.9 409.2 417.2 428 437.1 448.4
469.1 457.6 450.3 440.4 424.9 410.5 400.5 393.6 385.4 382.7 382.3 382.1 377.3 375.9 371.1 374.6 376.4 379.3 385.6 388.1 395.3 408 419.5 433 445.6 463.1 486.1 512.1 539.4 576.7 599.5 610.4 616.2 611.6 602.4 592 572.4 553.4 531.4 514 488.8 469.4 450.1 427.9 408 388.1 374.1 367.9 356.5 366.8 384.1 400.4 416.4 432 445.5 458.4 476.5 497.9 520.3 540.6 568 591.3 617.8 637 653.2 654 654.4 660.6 674.5 689 697 709 728.8 742 749.2 750.6 740.3 728.3 713.7 698 697.1 700.5 703.2 710.6 714.8 714.1 707.5 693.9 670.7 648.2 633.1 625.5 618.5 606.5 596.2 578.7 592.5 600.7 607.1 612 616.9 623.2 630.8 640.1 649.4 657.1 659.4 656.2 652.6 647.3 633.8 623.6 615.6 608.5 592.6 581.2 566.1 550.4 539.3 530.7 521 517.4 526.2 533.4 549 567 588.1 609.9 625.1 635.7 640.8 641.6 647.8 655.7 665 675.5 684.6 697.3 713.3 725.6 738.2 753.2 773.6 788.9 799.2 809.4 816.6 817.3 806.9 800.1 785 788.9 794 792.2 797.2 798.5 800.4 797.5 791.8 786.7 777.4 762.5 747.5 734.3 725.3 713.5 706.8 699.8 695.3 693.1 690.3 684.9 680.4 673.9 664.4 652.2 636.5 622.9 598.5 573.6 554.8 543.6 534.3 525.2 514.7 503.7 490.8 479.2 467.9 456.8 445.8 438.8 430.2 423.3 419.8 416.2 421.9 428.8 438.8 448.4
460 449.1 441.6 431.2 417.7 407.4 400.6 391.5 385 383.9 382.3 379.6 376.8 375.4 372 372.3 376.9 382.4 394.1 402.7 408.3 421.3 431.9 444.3 458.7 478.5 504.5 528.7 562.3 595.5 611.3 620.5 622.3 617.5 608.3 598.7 580.9 558.6 542.9 521.7 499.1 480.6 460.8 439.5 418.2 400.5 386.6 376.5 369 363.2 380.9 399.3 415.7 432.5 446.3 461.2 476.9 500.6 527.6 546.9 572.8 598 629.2 654.8 662 656.8 664.1 675.4 686.7 704.7 722.9 732.3 752.8 764.2 765.2 758.3 747.4 737.9 725.2 714 710.8 712.6 719.3 720.6 719.5 714.4 703.8 686.8 665.7 649 637.4 628 619 609.4 589 598 605.8 610.7 616.1 621.6 626.6 633 641 651 659.1 667.8 669.7 667.3 662.6 660.8 656.5 650.4 641.6 626.7 617.9 599.3 580 561.1 542.5 534.3 528.6 524 534.5 542.9 555.2 573.7 595.3 613.3 630 640.1 643.6 648.3 653.4 658.8 667.5 678.9 692.4 706.8 719.6 730.4 739.6 757.1 773.9 785.7 797.4 807.4 818.2 822.8 820.3 809.3 795.3 798.5 792.8 791.6 791.2 785.7 781.4 780.8 773.7 763.1 754.9 747.9 733.6 726 718.3 704.3 693.7 684 681.4 680.9 676.1 670.4 663.1 652.9 642.3 630.5 619.5 608.6 592.4 572.1 556 539.1 527.5 518.4 510.2 499.9 487.8 477.9 469.8 462.8 454.3 448.1 439.6 431.2 426.5 421.2 424.5 431.8 439.3 445.4
454.1 443.2 430.3 418.3 415.4 407.4 399.9 391.8 384.7 383.2 383.9 381.2 378.1 373.9 372.6 375.2 382 392 403.7 412.2 421.9 434.4 443.5 455.3 473.3 499.5 522.8 553.7 582 611.6 623 629.4 629.4 623.1 615.2 602.7 586.2 568.1 550.1 526.4 506.3 489.1 470.6 448.4 426.9 412.9 400 386.2 377.4 364 382 401.5 418.5 431.6 447.4 464 480.8 506 529.9 552.3 582.6 606.2 639.6 669.7 680.2 676.2 685.1 696 704.5 719.3 737.7 750.7 766.3 780.1 776.9 766.3 759.9 749.8 738 726.4 726.2 727.8 734.3 733.3 728 719.9 705.6 686.3 664.3 648.6 639.3 630.7 622.5 611.8 592.4 610 614.2 618.9 624.6 630.2 635.7 642.8 653.1 661.2 669.7 677.6 683.4 687 690.3 689.7 685.1 677.8 664.5 649.6 626.7 608.3 585.5 564.2 550.8 545.1 537.1 529.8 541.1 554.2 570 582.4 601.2 616 627.1 636.7 642.6 651.8 664.3 665.8 672.8 684.3 698.5 711.2 724.3 733.1 738.9 750.5 769.9 787.2 800.4 809.8 814.3 814.6 809.9 807.1 799.5 793.4 788.1 782.3 774 767 759.8 752.6 745 736.3 730.1 722.8 717.3 711.3 699.2 689.5 679.7 668.8 664.4 660.6 656.1 652.2 646.8 639.1 630.5 619.8 610.1 595.7 582.6 567.5 550.3 533 520.8 514.1 507.1 496.5 489.1 483.4 475 466.4 461.1 454 446.4 437.7 428 425.5 428.6 433.1 438.7 445.2
445.2 433 421.5 409.7 406.7 399.3 392.6 388.8 383.7 383.1 383.8 382.4 381.4 375.4 373.8 379.9 391.5 404.2 412.6 422.9 433.6 446.1 456.3 471.1 492.1 515.7 548 574.4 601.9 617.5 629.3 634.6 635.4 629.6 618.6 606.3 590.5 573.3 555.6 535 513.9 495.6 476.9 455.5 437.6 422.6 412 396.3 384.2 367.9 378.7 396.4 417.2 431.5 447.7 466.3 485.2 510.8 531.3 559.4 587.6 615.8 652.1 682.9 689.7 691 705.4 721.1 731.9 743.2 757.1 762.3 779.5 786.9 777.8 776.3 772.5 766.5 757.1 747.3 746.8 750.4 749.2 748 743.1 727.6 701.4 679.5 661.6 647.1 638.7 632.8 625 611.5 605.6 617.4 622.4 627.9 633.5 639.5 646.1 655.6 665.1 673.6 681 690 698.2 705.5 708.4 708.1 701.7 693.4 686.8 666.3 639.6 613 589.3 572 563.2 556.8 545.2 535.4 547.6 559.9 575 592.7 612.1 624 635.6 643.8 647.1 652.7 661.7 669.3 677.5 687 700.9 713.3 724.1 730.8 737.2 751.2 768.8 785.4 803 816 818.3 817.2 816.6 810.7 799.9 793.5 786.8 777.9 764.9 752.6 740.8 727.3 718 713.5 709.4 704.7 700.2 694.5 685.1 675.7 667.2 660.4 653.2 646.9 643.1 639.3 637.6 634.9 629.1 622 614.2 602.2 589.6 576.2 555 536.9 528 525.2 518.2 506.7 500.1 491.2 484.4 473.5 466.6 458.7 448.9 439.2 429.8 430.8 433.6 441.6 445.7 450.2
436.8 427.2 416.5 408.2 399.9 396.6 390.5 383.9 382.3 382.4 383.6 380.1 375.3 375.9 379.2 389.6 399.1 413.1 425.2 435.9 446.2 457.8 470.9 487.9 508.8 532.9 564.8 594.4 616.5 624.8 633.9 639.8 640.1 632.3 621.2 609.3 592 575.5 554.5 535.1 518 500 482.5 462.8 445.1 428.5 419.9 407.1 391 373 378.7 396.5 414.8 431.6 447.8 467.5 488.6 512.9 534.8 566.1 595.9 629.8 670.3 690.1 698.7 711.7 729.6 749.1 765.2 772.9 769 774.5 789.6 797.9 791.7 787 784.9 782.9 777.5 772 770.4 766.6 763.2 759.8 747.4 725.9 702 684.7 668.8 648.4 638.3 633.3 627.8 613.8 618.5 625.9 631.6 638 644.6 650.7 659.5 669.6 678.8 686.8 695 705.2 715.3 721.3 720.8 718.8 710 696.3 685.7 662.3 634.4 612.5 596.4 583.8 569.6 559.5 550.5 541.8 556.9 568.1 583.1 596.3 609.6 622.2 634.4 645.9 653.6 659.3 664.6 670.7 682.1 695.8 706.5 717.1 723.8 726.7 736.4 751.3 769 785.2 799.7 815 819.2 819.9 816.9 810 801.3 794.7 786.4 776.1 766.4 754.6 740.2 724.2 709.1 701.7 696.8 694.4 690.6 685.7 680.6 674.1 665.5 657.2 649.2 642.7 636.9 633.3 631.1 629.4 626.4 621.3 614.3 603.6 592 580.3 564.1 548.1 541.3 537.3 528.8 520 508.4 497.4 488.6 479.1 471.8 462.5 451.7 439.8 435.7 436.8 437.6 442 445.8 450.3
431.2 420.4 412.7 405.6 400.7 395.7 389.9 383.5 381.9 381.3 380.7 378.7 381.7 386.3 396.4 401.7 408.2 425.3 438.7 447.9 460.4 471.6 485.4 504 524.1 549.8 578.8 604.4 620.7 630 639.3 644.2 639.9 631.8 622 608 591.1 574.5 557.6 539.3 525 504.5 488.2 469.6 450.1 436.2 427.6 415.5 399.2 384.2 380.2 393.1 412.7 434.6 450.9 471.5 492.8 513.3 536.4 571.3 606.4 643 679 701.3 711.4 729.2 748.2 769.5 790.3 794.8 786.8 789.1 800.4 806.8 804.3 802.5 799.2 792.8 788.5 789.7 786 781.3 775.4 771.5 758.6 743.4 716.1 696.3 678.1 656.1 645 636.2 630.8 616.7 627.9 634.3 640.7 648.3 656.3 664 671.9 682.7 692.4 700.4 710.5 721.2 729.4 733.8 732.7 725.9 714.8 697.1 684.1 662.3 637.9 618.9 603.8 589.5 574.9 561.9 553.2 549.8 559.9 571.3 586.3 600.9 614.1 628.5 645.2 655.8 659.1 663.6 669 676.7 690.2 702.1 714 721.1 723.5 728.5 740 756 775 790.5 807 820.7 824.1 819.9 815.9 809 799.3 787.4 775.1 764.3 754.8 743.2 732.6 722.2 710.4 699.7 691.6 683.8 680.3 679 673.4 666.7 659.1 651.1 643.9 637.4 631.3 626.4 623.1 620.9 618.7 614.7 608.1 600.1 591.8 580.9 567.6 554.2 545.7 542.1 531.2 521.6 510.5 497.4 486.5 476.8 468.5 460.2 450 441 440.2 440.6 442.6 447.6 453.1 460.2
429.2 417.1 411 406.2 397 390.8 384.7 385.7 382.6 382.1 384.2 385.7 387.7 396.2 406.3 412.3 420.4 437.8 449.3 461.5 473 487.5 502.9 519.9 539.3 563.2 586.6 608.5 623.1 632.6 641.2 643.6 638.3 630.6 620.8 606.1 592.1 579 559.8 542.6 525.8 508 491.7 475 456.5 440.4 430.9 419.9 404.9 390 380.9 391.7 408.3 432.6 454.2 475.7 495.3 514.8 539.7 577.3 616.8 651.1 685.6 712.2 724.3 745.5 767.6 789.9 801.5 806.8 804 804.3 819.1 826.7 822 817.1 814.4 810.7 803.5 800.7 796.9 792.2 788.9 782.6 769.7 749.6 727 704.6 683.9 671.5 653.2 641.8 635.1 629.5 637.2 643.1 650.5 659 666.4 673.1 681.5 692.4 702.9 714.5 726.5 737.4 745.6 746.6 743.5 731.2 718.9 702.9 686.3 662.4 638.4 615 597.3 583.7 572.7 563.2 552.6 556.8 563 576 590.2 605.1 618.3 630.4 643.6 655.5 664.2 670.3 680.5 687.8 698 707.4 716.2 721.6 725.4 733.4 749.1 766.4 783.2 795.8 810.9 824.4 823.7 817.4 809.5 798.7 787.6 775 762.6 752.2 741.3 730.8 722.2 712 702 692.7 684.8 675.9 668.2 663.8 662.8 659.2 652.6 644.4 636.2 630 624.5 617.2 617.5 612.9 609.8 605.1 598.9 592.1 584.2 576.1 566.5 556.8 546 537.9 529.2 519.5 507.8 496.6 485.3 476.9 468.3 458.6 450.3 444.7 445.6 449.2 454.1 458.9 464.5 471
421.2 416.8 408.3 399.2 392 396.1 391.1 384.5 383.7 385.6 388.5 392.3 397 404.2 412.8 421.7 435.9 450.3 463.3 474.1 489.5 504.6 520.3 535.1 553 573.5 594.6 615.7 629 640.8 646.3 646.3 641.5 635 618.5 604.9 592.8 579.3 561.4 545.1 528.4 510.7 494 476.9 460.4 445.2 434.9 423.6 412.3 398 383.4 391.2 408.8 432.9 454.7 476 498.1 517.9 544.6 584.5 625.6 658.5 696.2 721.4 735.7 759 786.3 806 815.9 819.1 820.5 821.4 829.4 839 840.3 836.9 833.6 827.1 822.5 815.7 811.2 806.2 799.1 784.9 763.9 747.2 727.3 707.8 691.4 674.6 658.5 647.8 635.4 640.4 646.5 652.7 659.7 667.4 674 680.2 688.6 701.1 714.4 728.2 741.4 755.7 762.6 760.5 756.1 743.5 726.8 707.6 683.8 660.2 639.2 615.2 597.8 585.7 576.7 569 558.3 563 567.5 578.2 591.3 609.4 628.2 641.8 654.5 660.4 669.6 678.9 688.4 698 705.9 712.8 717.8 722.2 728.2 737.4 752 770.1 783.3 796.6 813.9 818.3 815.7 808.2 803 792.5 782.9 773 761.1 749.1 736.3 724.2 714.2 704.8 695.9 686.6 678.9 671.1 664.1 658.2 652.4 647.4 642 635.1 629.3 623.1 616.3 611.4 608.5 606.4 604.7 600.5 594 585.7 578 569.2 562.2 555.3 545.7 534.9 524.4 512.8 503.4 493.6 486.1 480 472.5 463.2 456.2 455 458.1 460.1 462.2 467.5 473.9 480.3
414.1 405.4 398.9 393.7 392.7 396.3 395.5 391 388.9 389.3 393 400.6 410 415.4 422.8 433.6 447.9 463.9 478.3 489.9 506.9 522.6 535.4 549.2 565.4 585.3 607.8 628.1 641.9 650.5 652.9 649 644.3 632.9 618.4 606.2 592.2 578 562.9 547 531.7 513.9 496 479.6 464.3 449.4 438 426.6 416.8 403.7 388.5 393 408.8 434.1 453.9 476.6 501 519.9 547 588.1 628 664 707.9 727.9 745.1 773 793.5 810 823.7 833.8 839.3 833.5 838.9 847.8 853.2 851.8 847.4 842.3 841.2 832.9 822.6 818.3 804.8 779.4 755 736.9 720.5 704.9 687.1 673.3 660.3 652.1 644.6 650.9 655.6 661.2 667.7 673 679.9 685.8 697.8 711.4 727.2 741.8 756.8 767.9 773.6 770.1 759.5 745.8 726.7 702.2 678.6 657.3 637.5 619.5 602.8 589.6 583.4 574.4 565.9 569.6 573.6 583.6 597.7 616.7 634.6 648.5 657.5 665.5 680 692.1 701 711.6 719.2 722.1 723.9 725.6 732.4 741.8 754 768.8 782.4 797.1 809.7 810.9 808.2 802.9 794.4 784.3 775.7 768.9 757.4 744.3 733.5 721.1 709.9 699.6 692 680.8 670.9 665.9 657.5 650.7 643.4 636.8 630.9 627.2 623.4 618.6 613.4 608.9 606.8 602.2 600.9 596 589.5 580.8 571.7 563.7 556.7 550.6 542.6 533.4 524.2 513.5 505.3 499.8 494.8 488.7 479.1 472.4 461 469.1 470.8 472.6 475.6 480.6 485.6 490.8
414.8 405.2 398.5 394.7 391.4 398.9 395.5 394.1 393.2 396.6 403.7 411 419.1 426.9 437.9 448.5 461.2 480.2 493.8 509.7 523.6 536.6 548.8 563.9 580.5 598.6 619.2 638.6 652.9 660.2 656.9 651.2 644.2 630.1 618.4 605.3 591.5 577.2 562.2 548.3 533.9 515.6 499.9 484.2 469.6 454.9 440.2 428.5 418.1 402.3 393.1 403.6 409.9 433.9 458.4 478.4 500.1 521.2 547.2 587.7 630.2 667.7 712.3 727 745.5 772.4 791.4 808.3 821.8 833.7 841 837.2 846.4 855 862.5 863.5 860.7 862 855.1 844.7 831.7 822 807.2 780.8 755.4 730.9 709.3 697.3 682.3 671.6 662.6 652 655.3 659.7 664.1 669.1 673.6 679.1 684.8 693.7 707.1 723.4 740.1 756.1 770.7 784 785.1 778.7 766.7 749 725.7 697.7 678.4 659.3 641.1 621.7 606.8 598.6 589.3 578.6 571 575 581.2 592.6 612.5 628 649.9 658.4 665.8 678 697.1 710.1 715.1 723.2 729.5 737 739.9 743.1 751.1 761.7 779.9 795.6 803.4 807.5 804.4 798.5 794.5 790.4 784.9 774.9 766.6 757.6 744.1 732.8 723.5 711.9 701 690.7 680.9 670.5 662.1 657.5 648.6 641.8 634.6 626 621.8 620.8 617.1 613.5 609.3 606.3 602.2 597.1 591.7 588.2 582.1 575.2 568.3 561 552.4 544.6 536.7 529.5 521.7 514.4 508.1 503.5 498.1 490 482.3 472.5 479.6 483.1 483.8 485.4 488.9 493.9 499.4 504.1
415.9 405.3 394.7 399.6 399.7 398.1 396.7 397.1 399.2 407.1 413.7 421.9 429.6 442.3 456.1 465.8 477.8 497.7 512.2 525.9 537.6 550.7 561.9 577.6 595.3 611.2 630.4 651.6 664.9 669 659.1 649.5 641.3 628.1 614.8 602.6 587.4 573.6 561.1 546.3 532.6 517.5 505 488.5 473.1 457.4 441.8 429 419 409.2 397.5 413.4 414.1 433.7 459.6 480 499.9 519.8 544.5 585.8 626.5 665.5 707.2 724.9 741.2 765.4 785.3 801.1 810.4 818.4 829.2 834.9 847.3 857.4 862.2 867.4 871.9 869.7 865.2 853.4 841.5 830.4 804.8 773.7 744.6 718.1 698 687.3 677.2 669.6 662.3 654.6 662.6 667.5 672.2 675.8 679.6 685.2 693.3 704.4 720.3 736.5 754.4 771.4 789.6 804.5 805.8 789.9 774.3 751.5 727.3 699.1 678.2 658.5 641.7 627.6 616.5 605.4 595.5 585.6 577.9 580.3 588.9 602 617.7 635.5 655.2 673.4 684.6 693.1 706.9 718.7 727.4 734.1 741.2 749.1 761.8 769.8 778.1 793.2 806.8 817.9 823 819 812.3 803.6 794.1 784.7 774.7 767.9 759 748.3 737.1 724.3 711.3 697.2 687 677.5 667.3 658.5 650.1 644.5 638.7 633.2 627.1 620.6 616.2 614 610.6 606.9 604.7 601.8 597.4 591.9 585.8 579.6 574.9 569.5 564.8 558.2 549.1 540.1 532 526 519.2 512.2 507.4 502.5 496.4 487.7 486.7 488.7 491.4 494.1 496.4 500 503 507.4 511.7 517.9
412.2 402 396.7 400.1 402.8 400.7 398.8 403.4 410.2 418 428.4 437.4 448 457.7 473.3 486.2 500.1 515.5 529.8 540.3 551.3 562.8 575.5 593.3 613 624.7 645.4 664.8 674.6 670.8 660.9 647.2 637.9 623.3 610.1 598.4 587.4 574 561 546.5 533.5 521.2 507.7 491.9 477.2 462.1 446 431.1 421.4 414.3 404.8 415.5 418.6 429.6 457.7 478.2 498.9 518.5 543.1 579.7 620.2 660.2 701.3 715.4 732.5 751.9 770.3 786.8 794.1 802.9 815.1 825.9 838.2 851.2 861.6 866.7 868.4 866.7 862.5 857.3 852.5 830.4 794.1 760.4 731 706.3 691.7 681.9 674.6 669 662.5 665.8 669.8 674.6 679.1 682.8 686.9 693.5 704.2 718.1 732.8 749.7 769.8 787.9 809.3 828.8 821.3 801.9 779.2 767.3 740.5 707.5 685.4 676.4 662.6 648.7 632.5 616.1 602.8 593 585.7 585.6 595.5 607.8 624 646.3 669.8 683.4 695.3 701.6 718 730.8 737 741.2 750.1 762.4 777.1 788.3 795.9 806.9 816.8 822.2 823.2 816.5 807.5 798.6 786.3 773 762.7 758.1 752.9 746.1 737.2 724.5 711.2 698.2 685.8 674.6 666.6 659.5 651.4 644.5 637.3 632 625.3 619.1 614.4 611.3 608 605.4 601.4 597.9 593.2 587.5 582 576.6 571 566.1 560.8 554.9 546.8 538.1 529.5 523.3 517.3 510.4 502.8 500.1 497.8 497.7 499.3 501.6 504.6 507.1 509.8 513.6 517.2 521.6 526.4 536.5
409.3 402 398.7 403.7 405.6 406.4 407.4 418.6 423.2 431.2 443.6 458.3 467.3 481.8 494.4 504.2 518.3 533.5 544.9 554.4 565 575.4 590 608.5 631.3 642.1 662.2 679.6 684.7 672.3 658.3 645.2 632.2 620 607.7 597.9 587.8 576 564.3 550.8 537 523.9 510.8 496.6 482.5 468.8 452.1 436.4 423.7 420.8 404.4 416.5 422.5 427.1 453.8 475 498 518.5 538.6 572.5 610.8 651.7 689 707 719.8 735.6 751.8 767.6 779.4 791.2 800.4 812.8 826.4 841.1 853.6 860.9 861.9 862.8 867.6 872.9 869.6 837.8 800.6 759.1 730 702.9 688.9 681.8 674.7 670.2 669.2 672 676.6 681.8 686 689.7 695.7 704.1 714.3 728.8 745.8 765.5 787.8 808.3 830.3 846.7 832.6 810.7 783.1 765.4 739.1 712.7 701.1 687.6 670.9 654.4 637 623.7 611 599.4 590.1 593.6 602.6 612.4 630.7 651.5 666.7 678.4 690 701.8 720.2 735.2 745.7 751.2 757.5 772.3 791.1 802.5 809.6 815.1 819.8 821.4 821.6 816.2 806.5 794.5 777.2 760.1 748.9 747.2 742.3 736.5 732.8 725.8 717.4 706.6 693.5 679.5 666.2 654.7 647.6 641.7 636.1 630.3 624.2 621 618 613.4 608.6 604.7 599.5 594.1 588.2 582.9 578.8 573.9 568.4 562.3 556.4 550.5 542.2 532.5 525.2 518.3 515.5 514 512.8 510.6 509.5 510.5 513 514.3 516.6 518.9 522.2 526 529.1 534.9 545 553.5
410.4 402.1 402 409.9 409 414.5 422.1 430.7 437.4 448.9 464.2 474.6 485.3 501.1 509.5 523.4 537.2 548.5 559.2 569.1 577.4 588.4 604.8 624.1 647.3 660.4 675.5 691.2 689.2 669.6 655.7 638.8 628.8 617.6 608.4 598.4 587.1 576.1 565.2 552.8 540 527.8 514.7 500.5 487.3 473.8 456.6 439.7 429 420.8 408.3 418.2 422.7 424.1 448.1 472.7 495.3 517.6 536 566.4 602.2 640.4 677 696.1 707.6 719.9 735.1 749.8 765.2 776 786.9 801.5 816.2 831.3 845.6 854.8 860.4 872.1 881.1 888.1 871.5 840.4 799.9 762.9 733.1 707.4 693.9 680.9 674.3 671.8 672.9 677.2 683.3 688.6 692.9 698 705.4 713.9 725.5 742.9 762.8 784 804.9 823.7 846.5 851.7 837.8 818.3 791.2 760.7 742.1 725.6 708.8 694.3 673.8 655.9 638.7 625.5 613 604.3 596.4 599.6 608.4 619.7 634.5 649.7 662.7 674 685.5 701.2 721.2 737 748.1 756.8 764.9 777.9 795.6 807 819.4 825.3 827.4 818.9 813.6 808.6 799.8 786.8 770.9 755 743.7 737.6 733.6 730.3 726.8 721 711.7 702.1 691.2 679.1 668.3 656.2 645.6 639.3 631.6 625.2 621.3 618.2 615.2 610.1 606 602.6 599 594.2 584.5 577.3 571.6 568.9 564.6 558.5 552.4 547 541.7 534.6 528.7 525 524.8 523 521.6 521.6 521.7 521.3 523.3 524.7 526.9 529.5 533.3 537 543.5 551.2 558.3 565.3
410.1 403.7 403.5 408.9 414.4 422.8 434.2 443.7 455 468.5 485.7 494.8 507.7 520 540.2 549.2 555 565.2 575.2 582.4 591.5 603.2 619.3 638.9 657.9 673.5 689.9 702.8 692.2 672.3 651.3 636.6 626.5 618.6 609.2 595.5 586 578 567.6 555.2 543 531.2 517.5 504.9 492.9 477.8 460.4 443.7 434.9 426.3 412.2 416.2 418.3 420.4 440.7 466.7 491.5 513.6 531.2 561.1 594.4 627.6 661.6 684.5 692.6 704.7 717.8 733.3 747.8 761 774.3 789.8 806.4 822.1 837.8 851.2 868.8 882.1 892.2 897.4 871.6 833.9 796.5 759.6 732.3 703.8 688.1 677.5 675.3 674.4 676.6 682.2 688.7 694.7 701 707.3 715.3 725.4 739.9 758.9 778.8 798.8 818.5 839.8 861.6 864.6 853.2 827.8 792.9 762.4 744 732.1 708.4 689.3 668.7 651.1 638 625.9 615.2 607.3 602.7 605.1 611.6 622.3 636.9 650.6 661.8 672.4 684.2 700.1 722.2 739.2 749.7 761.8 774.8 788.6 796.9 809.8 821.7 828.7 830 826.4 811.1 798.6 787.7 777.4 764.6 753 742.1 733.5 725.8 722.1 718.9 713.2 705.7 696.5 686.6 676.9 665.2 654.1 645.9 638 629.7 629.5 627.3 623.2 617.8 610.4 601.3 595.6 592.9 587.8 579 572.6 568 564.3 560.3 557.5 554.1 550.1 543.4 533.8 532.7 533.8 532 531.5 531.3 532.2 530.9 531.7 532.6 534.5 537.1 539.3 543.6 549.8 558 565.1 570.4 574.5
413.4 405.3 404 411.3 419.4 432.5 444.5 458.6 473.4 492.1 507.1 518.5 527.3 546.1 563.4 566.5 572.5 582 589.4 597 606.6 617.3 636 655.6 671.2 686.3 705.3 712.5 701.1 675.1 651.3 639.1 627.9 617.4 605.6 593.1 586.3 579.5 570 557.9 546.1 534.1 521.6 510.1 500.7 487.9 470.8 454.5 441.3 429.7 422 419.7 416.3 414.7 436.1 460.4 485.4 508 527.1 555.7 586.1 615.1 643.1 667.1 678.4 690 703.5 718.7 732.1 747.7 762.8 777 794.1 812.1 828.9 851.5 870.1 884.1 899.2 912.4 891.1 852.9 812 776.7 743.6 716 689.1 678.5 678.2 677.5 682.3 688 694.8 703.8 710.8 718.7 726.5 738.6 754.8 772.2 791.9 813.2 836.8 863.9 873.8 870.7 858.7 834.2 801.8 770.5 742.8 727 711.4 692.4 672 657.4 642.4 630.5 620.3 612.3 609.2 611.7 615.7 623.7 635.6 649 661.1 671.6 684 701.5 720.7 742.6 757.6 775.5 788.7 801.6 810.5 815.2 817.1 820.8 822.4 818.1 807.2 792.2 777.8 764.9 759.1 748.2 737.5 730.2 720.5 714.1 709.4 703.5 696 687.1 675.7 666.4 660.5 651.7 643 640.4 639.6 637.2 633.7 628.3 621.4 615.2 609.5 603.5 593.9 589 584.9 579.1 573.2 568.7 561.5 556 550.6 544.4 545.5 543.7 542.7 541.4 541.4 541.5 542.9 542.9 542.6 542.4 543.8 545.4 547.5 551.4 556.4 562.3 570.2 575.9 579.2 582.5
417.6 406.1 405.4 409.7 427.2 445.1 460.2 474.6 491.3 512.2 526 535.6 549 567.9 577.5 582.5 588.6 597.1 604.4 613.4 621.5 633.4 654.4 672.6 684.8 705 723 725.7 711.6 680.8 659.7 642 627.6 612.7 599.3 590.7 586.2 581 572.8 559.8 550.9 539.5 527.9 518.1 510.3 497.2 479.9 468.9 450.5 438 430.8 418.3 416.9 416.2 429.8 454.8 480.7 502.7 523.8 548.9 577 602.7 626.3 649.1 664 679.6 693.2 704.8 718 734 751 766 784.4 801.5 826.6 848.8 869.2 886.1 905.3 922 913.1 877.3 833.8 794.3 762.8 734.4 703.8 686.6 684.9 686.7 689.2 693.7 704.4 714.4 722.5 729.6 739.8 751.1 766.6 783.3 804.4 826.9 848.3 862.2 867 861.8 847.4 823.4 806.1 787.6 752.7 726.6 716.7 707.8 689.1 673.9 654.8 638.4 627.5 621 619.3 620.8 623 626 635.8 647.9 660.1 671.1 684.4 702.2 722.6 749.2 766.9 786.3 798.6 813.1 829.3 830.5 824.8 817.7 815.3 807.6 796.2 784 769.3 758.8 750.5 740.3 732.3 722.1 713.8 707.8 704.9 699.6 692.8 683.8 672.6 666.9 658.8 651.9 650 650.1 649 646.2 642.8 639.5 636 631.6 627 621.8 615.6 608.6 600.5 594.3 585.8 579.3 573.9 568.5 563.5 557.7 554.2 551.6 552 552.7 553.4 555.1 554.4 554.2 553.4 553.8 555.1 558.4 561.2 564.6 569.1 574.6 580.6 586.9 589.3 589.8
419.9 408.5 407.6 420 441.4 457.8 474.6 489.7 510 530.2 542.3 554.4 572.4 583 590.6 597 606 612.2 618.6 627.2 636.5 652.6 672.9 688.9 703.5 723.6 739.6 743.3 727.2 699.9 671.8 643.4 626.5 615.2 606.5 596.6 591.9 585.2 576.8 567.3 558.1 545.4 535.8 526.7 517.7 506.7 494 478 462.3 451.7 433.8 418.8 417 416.4 424.8 448.7 474.4 499.8 521.1 542.6 569.6 591.4 610.3 629 648 665.7 678.8 691.7 709.2 723.7 740.7 756.3 774.4 798.2 822.3 847.5 867.7 887.5 908.9 926.5 915.3 880.8 839.4 802.4 768.5 745.3 714.9 695.2 692.5 694 701.7 708.3 716.4 725.3 733.5 743.3 752.9 763.4 777.2 794.1 813.1 833.6 853.2 859.7 858.7 852.2 836.2 818.7 795.2 782.2 755.8 731.9 721.4 708.5 694.3 678.8 658.4 645.1 635.2 633.8 630.8 630.4 631.4 632.3 638 650.5 661.1 672.3 686.9 703.6 723.4 749.4 771.1 795.4 808.5 819.8 839.2 844.9 840.4 832.3 824.2 812.8 801.2 786.4 769.6 750.1 742.7 735.3 728 718.9 712.4 703.8 699.8 695.3 688.7 681.6 673.3 665.6 659.4 657.8 656.7 657.2 657 655.5 653.8 652.4 649.9 646.7 641.8 636.7 631.5 625.4 617.9 609.8 602 593.1 585.1 579 573.3 567.5 564.9 558.9 561.5 564.6 565.3 566.2 565.7 564.3 564.9 566.3 568.5 571.1 573.2 576 580.8 585.7 590.5 595.5 598.2 598.2
420.5 408.4 414.7 433.1 452.6 469.8 486.3 507.4 526.7 545.4 561.7 574.8 587.2 598.9 606 615.3 621.9 628.8 636.1 645.9 657.1 671.5 689.8 706.6 723.4 738.7 753.7 756.7 733.5 700.4 670.6 644.1 628.8 622.6 611.6 602.1 596.2 587.8 578.7 570.3 558.1 547.6 543 535.7 526.8 516.8 501.4 484.7 470 458.4 441 423.2 417.9 418.8 424.3 445.8 470.7 496.3 518.2 539.4 563 581.6 599.8 616.3 633.1 649.1 665.1 679.5 697.4 713.2 729.9 748.5 771.3 795.7 818.6 845.1 866.2 884.9 907.2 923.3 915.7 881.6 843.9 814.1 782 751 725 709 703.2 706 717.2 724.2 731.6 739.1 747.8 759 768.1 775.6 785.8 801.4 818.1 836.1 854.1 860.5 858.7 843.8 827.7 810.1 791.5 776.8 758.2 735.5 718.9 708.4 696.5 680.3 667.1 656.3 650 647.9 643.4 641.6 639.6 639.9 643.9 656.5 664.8 676.6 690.7 707 727.7 746.8 772.7 797.8 814.9 824.5 847.3 857.7 854.6 846.7 839.9 827 805.8 787.8 768 752.7 736 726.9 717.1 710.2 704.4 699.4 695.1 690.8 686.4 680.1 677 674.7 672 668.5 665.7 666.4 666.4 664.4 661.9 660.3 658.3 656 652.2 647.6 643.3 638.2 631.7 624.3 615.8 607.1 597.6 589.9 584.1 579.5 575.4 568.5 572.3 574 573.9 574.6 574.2 573.8 575.1 576.8 579 581 583.5 586.1 589.9 593.9 597.3 599.9 600.2 599.7
420.2 414.1 423.8 442.7 464.5 481.2 501.2 523 542.9 560.9 582 590.6 601.1 612.7 623.9 633.1 641.2 649.7 658.6 667.6 678 688.5 705.6 723.7 737.3 752.3 770.3 763.1 739.6 703.8 668.4 646.3 635.3 626.2 617.8 609.1 599.8 588.4 578.8 568.3 557.5 553.6 550.7 545.7 536.9 522.9 507.6 490.8 477 462.6 446.8 426.7 418.6 420 426.9 445.4 467.8 490.1 513.6 535.3 558 575.2 591.1 605.8 622.9 640.4 656 669.3 686.6 703.5 720 741.4 769.2 791.4 815.3 839.5 861.1 882.3 903.9 919.1 913.1 879.9 844 811.2 781.6 755.7 741.3 727.7 725.3 723.3 733.4 741 745.1 753.5 765.4 776.2 783.8 788.1 796.5 807.6 823.3 839.5 855.9 871.1 867.4 852.8 833.1 809.6 790.8 774.5 757 737 718.1 707.3 692 685.2 674.7 669.3 665.8 661.4 655.5 650.7 650.6 651.8 655.3 661.9 672.7 682.1 695.3 711.7 730.4 747.3 772.5 801.5 819.5 831 852.6 862.9 860.6 855.2 853.7 844 832.5 813.3 788.7 768.5 747.8 732.6 725.7 714.3 703.8 697.3 694.3 693.1 691 685.6 684 684.6 685.7 683.2 680.4 679.7 679.6 677.4 674.3 671.6 667.5 661.4 657.2 652.9 648.1 643.3 637.9 632.1 625.4 617.8 609.6 601.6 593 587 577.6 577.5 579.9 582 582.5 582.6 582.7 582.2 582.8 584 586 587.8 588.6 590 592.4 595.8 600.6 601.2 600.5 597.8
417.1 422.4 432.3 451.5 473 491.9 514.4 536 557.5 578.6 595.7 606 614.7 627.8 639.2 650.2 658.6 669.1 679.2 689.2 698.2 708.5 724.2 740 753.3 770.5 783.4 779 753.1 721.2 686.3 661.5 641.9 633 627.8 615.5 602.4 590 579.9 571.2 565.6 560.9 563.4 556.7 544.9 529.2 513.1 498.6 484.2 468.8 450.5 429.8 421.5 421.3 428.9 443.4 463.8 484.9 509.3 530.5 552.4 568.7 585.4 600.6 615.1 630.5 645.8 660.9 676 691.1 710.1 735 764.2 788.1 810.8 833.5 854 878.6 899.9 915.8 927.6 908.6 869.3 833.8 803.5 775 760.2 760 752.2 742.3 744.4 751.9 762 773.8 787.3 795.4 800.8 803.9 810.1 817.7 831.3 849.4 865.8 871.4 863 847.6 826.1 805.8 785.9 774.7 757.8 739.8 721.5 709.2 699.7 690.2 685.6 682.7 680 673.3 666.7 662.4 660.7 664 671.6 676.8 681.6 687.8 699.5 715.9 732.6 749.4 772.2 804.2 826.9 839.6 856.9 866.2 862.5 859.5 856.8 850.1 839 826.4 808.7 792.1 779.4 762.5 736.9 716.2 707 700.9 697.5 697.7 696 691.8 693.8 696.1 697.7 698.6 696.9 693.5 691.8 689.7 685.6 681.6 677.2 672.4 667.3 661.2 655.7 649.8 644.4 637.5 631.7 625.2 618.2 611.6 603.1 593.8 585.3 584.4 585.5 589.1 591.4 591.7 591 589.8 589.3 587.7 588.1 589 589.1 589.4 590 592.5 597.1 599.2 598.6 595.9
419.4 429.1 438.2 456.5 480.6 501.5 525.2 549.4 570.7 590.8 606.4 619.2 628.3 640.9 652.4 662.7 675.2 687.2 697.4 710 719.9 729.9 740.4 753.1 769 784.8 798 802.4 780 742.6 707.8 676 655 646.4 635.7 620.5 604.1 593.5 587.4 579.5 578.5 577.4 575.4 565.1 551 535.2 518.8 504.6 490.7 475 456.5 434.4 422.9 421.8 429.1 441.7 459.5 479.8 504.4 525 545.2 562 578.7 595.2 608.3 622.9 637.2 652 667.7 682.7 701.5 725.9 756.3 783.2 805 827.4 851 874 894.6 919.9 932.5 929 892.3 855.8 825.7 807 796.9 781.8 769.4 763 758.6 767.9 783.8 796.6 809 815 818.6 821.4 826.1 836 849.2 865.3 883.2 885.9 868.5 846.6 825.3 803.6 787.1 778.9 760 740.2 725.3 712 702.9 699.9 697.8 696.5 694 690.3 683.3 677.4 677.4 678.9 690.4 702.3 707.1 702.7 712.6 721.8 736 753.5 775.1 806.8 829.2 842.6 854.5 867.3 865.4 862.2 858.9 849.4 841.1 827.8 814.8 804 788.1 769.1 747 727.6 713.5 704.6 701.1 698.3 695.5 695.5 698.7 702.3 704.7 705.6 706.1 706.1 705 701 695.7 692.2 688.9 685.4 681.3 676.6 670.6 662 653.5 645.8 638.5 632.3 626.3 619 611.6 601 591.3 591.5 592.8 597.4 598.2 597.5 596.4 594.8 593.1 591.2 590.2 589.6 588.8 588.5 589.1 589 594.3 593.4 592.9 589
426.6 436.1 449.8 469.8 489.3 510.9 536.2 558.8 582.8 601.1 617.1 628.1 639 652.3 665.2 676.4 689.6 703.5 715.3 726.1 737.2 745.7 754.8 768.3 783 797.6 809.7 819.8 804.9 765.7 728.9 699.5 679.5 664.2 646.4 626.6 611.5 602.2 603.4 600.5 597.8 593.8 584 571 557 541.6 524.1 508.9 493.9 478 460 439.9 424.8 422.6 427.5 438.3 458.5 481.1 506.5 527.1 542.9 552.9 570.4 588.7 604 617 629.9 643.7 661.4 677.2 694.2 717.8 747.6 776.1 800.6 821.5 845.9 870.4 895.3 919.3 933.1 933.8 919.3 889.9 865.8 843.3 819.3 799.2 785 775.1 774.6 789.6 806 818.5 832.4 836.3 837.4 838.6 844.4 854.3 867.1 884.6 898.6 888.6 871.4 844.6 818.5 797 776.8 770.1 758.7 739 726.5 716.9 712.4 714.5 713.5 711.5 710.6 708.4 703.6 697.6 697.6 715.6 734.9 732.4 722.9 719.5 726 730 741.2 759.4 782.5 812.5 836.7 846.5 850.9 861.2 860.7 856.4 851.4 844.7 834.2 823 814.6 805.5 794 778.7 759.3 739.3 725.5 714.4 706.6 700.5 699.1 699.8 704.7 711 716 717.9 719 718.2 716.2 713.1 709.6 708.8 705.9 700.9 694.6 686.9 679.4 672.3 664 656.6 648.4 640.2 633.4 626.2 617.8 606.6 597.8 599.5 603 604.9 604.4 603.8 601.4 599.7 597.6 595.4 593.7 591.6 588.9 586.9 589.3 586.6 583.9 581.5 579.6 578.5
432.5 444.5 461 481.4 502.7 522.2 544.4 569.2 589.8 606.9 622.5 633.9 646.7 661.3 674.4 691.2 703.8 716.4 727.8 740.2 752.1 760 769.6 781.3 794.8 807.7 820.3 829.3 828.3 791.8 754.3 727.8 709.6 694.3 671.2 648.4 626.1 617.3 619.9 622.3 614 601.2 588.1 574.8 560.6 543.7 527.3 511.7 496.7 481.3 464.6 444.4 428.5 424 425.5 433.6 457.7 480.6 506.1 527.9 547.3 562.4 573.5 580.9 597.1 613.9 627.2 641.5 657.7 675.2 693.5 711.1 739.7 768.5 794.9 816.3 842.6 869.6 894.2 916.8 931.5 936.8 927.7 901.6 874.8 850.6 825.9 806 791.5 789.6 796 801.8 825.7 838.6 849.7 854.8 855.3 854.8 862.8 874.4 886.6 903.4 904.2 889.1 865.5 838.8 814.7 790.9 768.5 762.2 750.9 737.1 731.5 721.6 725.9 728.3 729.1 728.8 725.4 723.1 720.4 723 732.1 744.9 748.7 743.7 734.1 730.7 734.6 738.2 747.9 767 793.3 819.1 841.2 848.2 851.5 855.3 858.1 856.8 850.9 838.7 829.3 822.9 813.2 801.7 787.9 772.9 759.4 745.4 733.6 722.3 716.6 709.9 707.9 709.6 713.4 719.5 724.1 727.9 729.2 729 727.2 723.3 718.7 715.8 712.2 708 704.6 697.1 690.7 682.7 673.9 665.3 657.6 650.1 641.7 631 619.5 609.1 606.6 609.1 614 615.3 615 613 610.4 607.5 604 600.7 596.6 592.1 588.2 585 583.4 580 576 573.2 571.9 574.1
439.2 452.1 472.1 490.4 509.2 529.9 555.3 577.8 592.9 608.9 622.5 635.8 650.8 666.4 683.3 699.4 714 727.2 741.6 753 762.7 772.4 780.9 791.7 805.1 818.2 831.5 840.6 841.3 819.8 787.6 761.2 745.7 732 717.4 688 673.5 657.5 647.4 632.6 619.7 606 591.5 578.6 563.6 546.2 529.5 513.9 499.3 482.8 466.7 448.4 433.7 425.2 427 433.5 454.4 480.4 505.8 527.9 548.2 564.6 580.3 592.5 599.1 610.7 628.3 643 659.2 675.2 690.9 707 730 757.5 784.9 810.1 837.7 865.5 890.2 915.1 928.6 931 924.4 906.2 879.8 853.1 833.1 813.4 810.4 817.2 824.6 824.2 843.9 859.5 870.6 872.7 873.6 871.8 877 885.8 895.9 900.2 894.9 884.7 864.8 835.8 808.5 784.6 764.1 756.2 750.5 740.7 735.9 734.9 740.6 743.8 747.9 747.9 745.3 741.3 746.6 754.4 772.2 774.7 764.8 752 743.2 738.7 742.3 746.3 757 775.8 805.8 832.2 851 855.7 856 858.3 860.2 859.2 852.6 842.9 833 824.2 814.1 802 787.4 772.2 762.6 750 741.1 737.4 734.6 728.7 725.5 724.7 726.6 729.7 733.2 735.2 736 736.7 735.5 731.6 727.9 725.7 725.6 724.5 721 714.7 706.3 697 688.9 680.1 670.7 662.1 650.8 638.5 624.8 616.4 619 621.8 624.2 624.5 623.7 621 617.9 614.8 610.5 605.4 599.6 593.5 588.3 583 578.5 573 570.4 566.3 563 561.8
441.3 462.8 484 499.7 517.3 538.1 565.8 590 603.8 613.4 622.7 635.5 652 668.7 685.9 702.4 717.8 733.5 747.4 760.5 771.1 782.1 791.1 803.1 816.5 830.8 844.5 852.6 857.3 858.2 844 806.9 796.3 792.1 769.1 745.6 718.5 686.2 661.3 643.2 626 610.6 595.6 580.6 565.2 548.7 532.1 517.1 501.5 484.2 467.8 451.5 434.5 427.9 429.2 437.2 451.3 479.6 507.1 528.2 548.2 567.7 586.5 603 614.5 623 629.1 646.5 661.5 677.4 690.5 707.6 722 743.9 772.2 802.3 831.7 860.6 884.3 907.4 924.8 928.3 923.4 915.6 893.9 866.5 845.3 836.2 839.5 847.5 850.9 847.9 860.7 877.5 891.1 892.9 891.8 889 890.5 899.1 906.2 902.8 896 883.7 863.4 835 811.4 787 770.7 756.7 752.3 743.8 745 746.1 750.5 756.9 759.4 758.9 761.9 765.9 777.7 789.3 802.1 791.3 776.7 761 752.6 749.4 752.2 756.1 770 790.8 820.1 839.8 856.1 863.6 862 859.8 860.7 861 856.1 848.3 837.8 827.3 816 805.6 793 784 775.6 767.3 761 759.6 755.5 749.7 744.3 742.4 743.4 745 744.9 744.3 743.9 742.9 739.3 738.6 740.9 742.7 743.8 743.4 740.5 735 728 719 706.7 695.5 684.8 673.1 660.8 647.6 634.2 628.6 631.1 634.6 635.3 634.2 631.8 630.2 626.9 620.7 614.3 608.1 600.9 592 585.6 579.1 578.1 569.1 562.5 558.1 554.5 549.4
449.7 472.3 492.6 510.3 529.7 554.4 580.5 602.9 614.7 624.3 630.9 635.2 649.9 668.8 686.8 702.8 717.8 733.6 749.9 765.1 776.8 788.9 802.2 816.4 829.5 844.6 857.6 863.9 868.4 868.7 863.4 849.9 831.9 808.8 782.6 758.3 731.6 704 672.9 649.9 631 615.6 600.1 582.8 566.6 549.3 533.9 518.7 502.5 484.6 467.7 450.2 436 429.9 431.7 439.7 455.1 479.6 506 527.8 549.4 573.1 599.6 618.1 627.3 635.4 639.9 647.6 662.3 677.1 692.5 707.7 720.8 733 759 793.8 824.7 852.8 877.8 902.3 922.4 932.1 929.4 919.6 902.3 885.4 876.5 872.2 870.7 877.7 877.5 867.7 877.2 897.4 911 913.4 909.5 906 907.2 915.7 918.4 914.8 906.2 893.4 864.5 833.1 808.8 795.2 783 768.4 755.8 750 749.4 752.8 760.3 766.8 771.6 776.7 786.9 800.3 811.2 826 811.4 796.4 779.1 767.3 758.6 760.4 762.9 767.9 785.4 806.3 831 843.6 854.1 859.4 859 858.4 859.9 863.4 858.8 851.7 843.2 834 823.7 814.2 804.7 795.2 787.8 783.6 779.7 776 772.1 767.3 763.3 759.2 756.7 756.9 757.1 755.8 753.6 750.9 751.9 753.2 754.3 756.5 756.6 754.3 749.8 744.6 738 730.5 722.8 712.7 701.1 690 676.2 660.2 650.3 645 646.9 646.8 644.1 640.5 637.2 633 628.4 620.6 612.3 604.9 596.6 588.9 580.6 575.1 570.8 564.6 558.1 552 546.3 541.1
467.1 480.6 505.6 524.1 550.5 576.3 599 615.4 626.5 634.5 641 645 650.1 666.3 686.2 702.6 719.2 734.3 751.8 768 781.9 797.5 813.2 828 842.2 857.9 868.5 874.9 878.6 876.2 868.9 857.8 841.8 815.7 783.3 756.1 733.4 709.5 686.6 653.9 635.3 618.4 602.7 583.8 566.5 549.5 534.9 519.6 505.1 488.7 472.3 455.3 443 427.4 441.8 442.8 457.9 480.6 505.9 528.9 549.4 590.4 623.6 637.1 649 650.8 653.1 653.4 662.3 677.6 691.6 704.3 714.2 724.8 747.3 780.1 812.2 840.7 871.8 896.1 918.6 936.7 941.3 938 936.6 929.4 919.8 910.9 905.4 898.4 890.4 884 896.6 918.2 929.8 931.1 926.6 924.5 926.6 928.6 931 928.5 916.4 892.1 858.7 838 820.6 811.5 796.7 776.3 763.5 753.6 756.7 763.6 770.3 780.5 788.9 801.8 821.6 835.7 844.4 834.9 814.3 796.8 782.2 773.6 769.6 768.6 774.6 785.6 804 826.6 844.3 848.3 852.9 857.3 857.9 858.5 861.8 867.1 863.9 856.6 851.6 847.2 840.5 827.4 816.4 809.3 803.6 798.2 792.7 788.5 784.3 781.4 778.5 774.8 771.2 768 768 770 770.3 769.1 768.7 768 766.5 764.2 762 760.2 757.9 751.8 744.1 736.3 728.1 719.5 709.8 698 685.6 672.4 662.8 657.8 657.2 655.3 651 646.3 641.4 635.6 627.7 619.3 609.7 600.9 591.4 584.7 577.5 571.8 567 560.6 553.1 547.5 539.2 531.7
478.3 495.6 519.9 548.7 581.9 600 618.5 630 641 649.2 653.1 657.9 660.9 671.2 689.8 705.9 724.9 742.8 757.8 773 790.2 806.9 825.1 838.5 855.8 869.9 879.3 884.8 886.7 882.1 874.4 863 845.8 825.6 799.8 767.6 732.4 702.9 678.9 656.7 638 620.1 603.5 584.5 566.3 549.7 535.1 521.3 507.9 492.1 476.8 459.9 445.5 435 443 447.1 458.2 481.4 505.8 528.7 562 615.6 641.7 665.2 672.8 669.1 664.9 666.2 669.4 676 687.2 699.8 710.6 724.1 740.6 769.9 800.6 831.6 862.8 890.2 922.7 942.1 953.6 969 972.9 962.2 948.5 936.1 925.8 913.8 903.1 904.6 916.7 936.9 947.4 949.8 947.3 945.6 945.5 946.1 945.9 942.7 927.8 898.6 871.8 847.2 830.1 818.4 801.6 781.1 769.5 764 762.6 765.7 782.2 794 809.6 838.2 861.7 867.6 856.6 835.6 815.9 797.1 788.5 783.8 781 785 796.4 807 825.9 846.5 854.2 862.1 862.1 861.6 859.7 859.2 864.9 868.3 865.2 862.9 856.9 849.6 840.2 833.8 827.4 821.8 813.9 806.2 802 797.5 793.4 793.7 794.5 794.7 795.1 792.1 792.3 793.8 795.1 793.2 788.9 785.7 781.9 777.6 772.6 768.5 764.6 757.3 750.4 741.9 732.7 723.6 714.9 704.4 693.3 683.1 672.8 666.1 662.2 659.1 655.3 650.6 644.5 637.8 628.8 617.7 606.1 597.3 588.8 582.3 576.6 568.6 561.9 554.1 546.5 538.5 531.2 522.3
487.9 511.7 534.9 568.5 597.3 616 632.5 644.3 655.5 661.1 664.5 672.1 678.9 678.3 693.7 712 732.1 751.3 766.2 781.1 798.6 817 834.8 850 867.2 880.3 890.2 895.1 893.3 886.2 878 865.6 846.8 826.9 803.5 772.2 735.9 705.3 678.3 658.2 638.1 621.5 602.5 583.1 566.5 549.9 535.7 522.8 510.7 494.9 479.5 466.6 451.9 438.9 440.3 448.8 460.5 480.8 506.5 532.8 579 628.2 665.6 698.6 701.1 698.6 682.1 679.8 679.3 681 685.4 696 708.3 720.8 738.2 759.8 789.5 819.1 851.3 882.7 914.4 934.9 954.8 975.3 986.1 979 964.8 949.8 937 925.8 918.6 922.2 933.8 949.5 964.5 973.8 970.5 966.9 965 965 964.9 961.7 944 903.9 874.7 854.7 845.2 831 813.8 796 781.5 775.7 773.2 776.7 793.5 809.4 830.8 858.4 868.7 867.1 860.6 849 831.2 810.4 801 801 798.7 806.6 816.7 826.7 842.5 856.8 867.8 874 873.9 868.7 864.6 864.9 876.8 876 868.7 864.3 857.2 850 842.1 836.7 831.4 824.8 817.5 810.8 805.3 801.5 803.4 807.6 810.3 813.1 813.8 814.4 815.9 814.9 812.7 809.7 805.2 800.4 795 789.2 782.4 775.6 770.1 762.3 753.6 744.5 736.2 727.2 717.2 709.8 700.3 691.4 681.8 676.7 673.1 667.3 661.3 656 648.3 639.7 628.3 615.6 604.2 596.3 589 579.4 572.4 564 553.7 546.1 541.5 533.1 523.6 515
502.2 524.3 552.2 588.8 611.9 631 644.1 657 666.8 672.5 678.4 691.2 696.8 698.8 700.2 717.9 737.2 754.9 771.5 787.8 807.8 825.2 842.2 860.5 876.4 889.7 898.2 902.2 898.3 888.7 878.7 863.7 845.2 824.9 801.4 769.1 733.6 704.3 679.2 657.7 639.7 621.3 601.3 582.7 565.9 550.3 536.7 524.4 510 496.1 481.8 469.7 460.1 440.8 443.9 452.6 459.8 481.7 509.6 541.7 579.9 638.7 689.3 714.7 728.2 719.8 700.5 692.9 690.4 690.2 691.9 695.3 705.9 717.8 733.9 749.4 775.3 807.4 837.6 865.7 900.2 927.9 952.7 973.5 989.6 993.4 984.7 966.1 950.6 939.1 932.6 936.8 947.6 961.6 980 989.8 987.4 985.9 986.4 987.5 986.9 977.3 951.6 913 886.8 868.4 855.2 837.9 819.2 802.9 797.3 787.6 784.9 784.7 801 823.9 844.3 857.9 861.4 858.3 851.6 841.5 835.5 826.1 819 813.5 812.3 821.2 830.8 843.8 862.1 875.2 880.4 883.8 882.1 879.2 883.6 887.5 895.3 891.2 883.3 876.4 868.8 864.2 858.3 847.9 839.3 832.9 826.7 820.9 817.7 817.1 821.5 826.4 828.4 830.4 832.2 832 830.2 825.7 818.4 814.5 809.1 803.8 799.5 793.4 787 779.6 771.2 764.8 757.7 748.7 740.8 732.4 724.6 717.6 710.1 701.4 691.8 689.5 683.1 675.5 668 659.9 649.8 635.9 623.8 610.8 600.7 591.9 584 575.2 566.8 557.4 546.5 540.3 533.8 524.9 514.1 503.3
511.4 533.7 571.8 601.5 623.8 639.8 652.9 665.9 676.1 684.8 697.1 709.7 715.8 716.6 716.6 725.7 741.2 757.5 776.9 797.3 817.5 833.3 851.1 869.9 883.6 896 904.8 906.1 899.9 888.6 875 858.4 839.6 818.6 792.8 761.8 728.1 699.8 676.8 657 639.5 620.1 599.3 581.8 565 550.3 537.6 525 510.9 497.8 483.1 468.4 457 442.6 453.7 458.9 463.7 480.8 512.5 547.2 608.7 646.2 693.2 718.7 738 744.5 726.5 713.6 709.8 713.5 712.9 707.7 708 717.6 728.2 742 763.7 792.5 822.9 852.3 886.8 919.1 947 973.3 992 1005.3 997.6 982.3 964.9 953.3 947.6 951.6 961 974.3 989.7 1001 1003.3 1004.8 1005.9 1005.6 1002.3 988.6 959.9 930.3 906.9 890.6 871.2 852.5 837.2 825.4 814.5 803.3 797.9 798.1 810 833.9 846.7 854.9 861.6 863.1 852.8 842.9 841.1 838.1 832.2 827.3 828.6 836.5 852.1 864.8 879 890.6 894.8 905.4 906.6 903.9 901.7 905.2 910 903.7 901.1 899.9 896.6 889.4 880.2 869.5 858 848.9 846.4 842.8 840 843.8 845.6 845.6 845.7 846.7 845.7 842.5 838.4 831.4 822 813.2 808.5 803.1 796.5 790.3 786.5 781.8 773.8 764.1 757.9 751.7 744.6 738.2 730.6 724 717.4 711.3 705.3 699.9 694.8 685.8 675.4 662.3 649.1 632.9 617.5 606.7 596.6 586.5 577.1 569.9 558.3 548.4 538.4 530.1 523.6 514.5 504.3 493.3
518.1 545.3 581.7 609.3 629.7 646.1 659.7 672.2 684.7 695.5 711.2 723.9 732.3 734.6 735.7 736.7 747.7 767 785.8 804.6 823 840.2 859 874.3 888.6 902.1 908.9 907.3 898.4 885.3 869.4 851.1 830.7 807.8 781.7 753.3 724.2 695 673.5 655.2 637.4 618.9 598.6 580.9 564.4 549.7 536.6 524.4 512.1 498.7 485.5 471.1 460.5 441.6 457.1 464.4 468.7 485 520 558.3 619.9 655 690.6 716.6 744.3 753.9 758.8 755.3 744.4 739 726.3 717.6 712.4 716.9 725.8 738.1 754.3 780.3 810.1 838.9 875.7 907.6 939.5 968 992.1 1008.7 1007.9 996 978.7 966.8 961.7 965.5 973.9 986.6 1002.5 1012.9 1018.5 1023.6 1025.9 1025.1 1019.6 1003.2 983.3 958.5 931.9 906.7 887.2 870.8 862.8 849.8 837.8 824.2 817.4 811.6 825.2 839.6 849.2 854.1 859.4 861.4 855.6 850.4 848.1 846.9 845.8 844.7 846.3 856.1 869.8 885.1 903 915.2 919 918.9 921.8 919.9 917.8 920.7 924.1 919.3 918.1 917.8 910.6 900.8 891.6 883.1 875.2 869.3 865.7 862.4 859.9 859.9 859.6 858.7 857.4 856.2 851.3 844.7 841.2 833.1 823.4 812.8 803.8 796.6 789.6 783.7 779.3 775.4 769.6 763.5 756.9 749.9 743.6 739.7 736.2 732.4 725.7 719.8 714.7 707.5 699.2 687.7 674.1 657.6 642.2 627.2 615 603.4 590.6 578.1 568.9 559.7 550.6 540.3 528.2 521.2 513.1 503.7 493 481.6
525.2 554.2 587 612.3 632.1 648.9 664.1 677.9 691.4 706.1 721.7 734.9 743.3 747.3 748.5 752.4 762.7 776.9 792.2 810.5 829.4 847.7 863.7 879.1 894 906.5 911.2 907.2 895.7 878.1 859.3 839.4 818.1 795 770.8 742.1 715.1 690.9 670.3 653.2 636.6 616.1 596.8 581 565.1 550.8 537.3 524.9 511 494.2 476.4 462.8 453 450.8 461.6 470.4 477.2 493.5 521.7 581.8 623.5 654.1 683.7 716.4 745.1 764.3 783.2 786.6 780.9 763.4 741.1 723.4 718.2 719.5 724.5 733.4 752 775 801 827.5 862.7 893.3 925.9 957.5 990.1 1011.2 1015.3 1006.3 991.4 980.8 976.7 979.7 987.9 999.6 1015.9 1027.5 1037.6 1043.2 1047.9 1045.1 1032.9 1024.6 1009.3 986.3 960.8 934.2 910 899.6 883.4 865.8 854.5 839.5 829.1 822.7 828.9 841.8 854.3 855.6 857.1 857 857.9 864.7 866.8 867.5 864.9 861.5 864.7 875.1 890.4 903.4 921.8 929.8 927.5 924 931.5 930.8 925.4 925.2 931.3 933 933.1 930.8 920.8 911.8 905.4 899.1 894 891 888.3 882.9 875.9 870.7 866 864.1 862.2 857.9 849.3 839.8 830.3 824 821.2 812.1 801.5 792.2 784.9 779.2 773.1 767.9 763.3 759.2 754.8 750.6 747.2 745.5 743.5 739.9 733.7 729.2 723.4 711.8 703.8 689.3 669.4 649.5 632.9 617.6 605.1 592.6 579.6 568.3 557.9 548.1 540.2 530.3 521.8 512 503.2 491.2 478 466.9
533 560.2 589.8 613.5 632.8 648.5 664.9 680.9 696.4 712.4 728.9 741.4 751.8 762.5 768.8 775 778.9 789.4 804.4 820.5 838.5 854.7 870.7 886.4 901.1 910.7 913.1 905.3 888.5 866 845 824.2 802.4 780.1 755.6 728 706.1 684.9 667.7 651.1 633.8 615.4 596.9 581.3 565.8 550.9 537.1 524.9 510.3 491 475 458.4 447.9 450.6 463 479.1 485.9 507.6 535.4 589.6 624.2 653.3 678.4 714 745.6 765 786.5 809.3 808.3 783.9 749.4 732.2 721.5 721.4 725.7 732.4 747.6 770.5 794.6 817.3 847.6 878.2 913.8 947.6 982.9 1012.3 1022.8 1017.2 1006.4 996.7 994.5 994.9 1002 1013.8 1028.6 1042.4 1054.6 1061.2 1061.9 1051.8 1034.9 1017.2 1008.9 1000.9 987.5 963.3 936.7 913.5 895.2 875.8 860.6 848.5 839.9 833.2 830 842.7 853.3 856.8 853.4 854.9 858.1 867.1 874.9 880.5 883.4 881.2 882.2 888.1 899 907.8 918.5 923 918.5 921.7 925.8 929.1 923.2 924.8 936.4 942.1 944.4 946.1 940.7 930.8 924 919.6 917 913.2 906.1 896.6 888.7 881.9 874.9 866.4 858.1 848.1 834.4 822.2 812.2 804.4 802.5 802.4 796.5 787.4 780.4 774.3 769 761.9 758.1 756.2 756 754.6 753.1 750.8 747.6 742.5 737.7 731.2 718.8 707.9 699.9 683.9 661.6 640.9 623.5 606.3 592.7 578.5 566.5 557 547.9 539 532 519.1 513.2 505 489.8 475.5 463.6 451.7
537.6 561.9 588.4 610.3 629.4 646.2 662.2 681.4 698.4 717 731.8 745.4 759.1 772.8 781.3 789.2 796.7 805.4 818.3 833.7 850.5 864 878.7 894.8 908.8 915.4 913.6 898.4 872.3 847.5 827.4 806.5 784.7 763.6 739.6 715.9 697.4 681.4 664.6 650.1 631.4 612.8 596.5 580.1 564.4 549 536.8 524.3 507.9 489.6 472.2 454.6 448.6 452.8 467.9 483.9 496.6 518.2 550.9 594 623.7 651 678.4 711.6 742.4 762.2 784.2 803.4 815.9 794.5 761.3 739.8 724.6 723.9 727.8 734.3 747.9 768.7 788.3 809.1 835.9 866.9 902.8 938.7 976.5 1011.4 1039.8 1035.6 1024.1 1015.5 1013.6 1013.2 1017.1 1028.1 1043.7 1057.6 1065.9 1067 1061.5 1047.5 1027.5 1009.6 997.5 990.4 984.9 967.2 942.9 923.5 902.2 883.4 867.5 854.9 843.8 837.1 832.9 839.3 847.8 851.1 851.5 857.7 863.6 870.6 878.4 881.5 885.3 887.7 886.2 888.6 899 906.6 911.1 909.8 909.9 914.6 915.5 919.7 919.6 923.4 938.3 947.3 949.2 957.7 962 955.2 947.5 940.9 934.5 930.7 923.6 915.8 904.9 891 880.4 867.4 850.3 831.1 816.6 803.1 792 785.5 782.6 781.1 781.2 776 768.4 762.1 756.6 751.4 748.2 748.6 750.5 751.6 753 751.4 747.7 744.3 735.9 721.3 705.6 695 684.6 667 647.5 629.3 611 593 579.2 567.3 556.2 546.1 537.8 529.5 520.1 511.5 501.3 492.4 477.8 462.2 450.2 437.7
538.7 562.3 584.2 605 624.4 642.5 659.1 681.1 699.6 717.4 733.4 747.3 762.9 776.8 787.5 797.6 806.9 817.6 830.3 846.2 859.1 872.8 888.1 903.1 915 918.7 911.8 881.4 852.6 827.3 810.5 792.3 773.5 751.9 731.5 712.5 695.5 677.2 662.6 647.9 629 612 595.6 578.9 561.5 546.5 535 521.2 505.6 487.7 469.2 452.4 448.9 455.7 474.7 492.4 518.7 544.7 566.2 595.9 627.9 653.6 680.3 706.9 733.5 756.1 780.7 801.1 819 810 775.6 751.2 733.4 729.2 730.8 738.4 753.1 769.5 786.5 805.1 828.5 859.1 897.6 933.7 971.5 1015.1 1052.6 1057.6 1045.1 1034.4 1032.5 1031.4 1035.3 1044.2 1060.2 1069.9 1067 1061.1 1053.7 1039.6 1020.7 1002.1 988.1 976.5 971.2 961 944.8 922.9 903.3 884.7 872.9 858.4 853.3 846.9 835.7 837 844.3 849.8 853.6 861.4 865.8 873.1 878.1 883.2 885.6 885.8 884.4 883.6 893.4 901.7 907.2 906.6 905.4 905.9 906.3 912.8 919.1 922.5 934.4 940.6 944.3 958.9 971.8 970.6 965.2 959.5 949.3 946.3 941.6 933 917.7 897.2 877.5 863.1 841.3 819 802.4 788.8 779.2 770.4 764.6 762.3 759 755.2 751.2 746.6 740.2 736 734.2 736.6 737.3 739.1 740.9 741 743 738.2 725.7 711.4 697.2 680.9 665.9 651.1 633.8 615.8 598.2 584 569.6 558.8 548 537.6 528.8 520.2 510.1 500.7 489.5 475.5 463.7 450.2 437.7 423.4
538.9 560.1 579.6 599.7 620.2 636.9 657.4 678.6 697.2 715.9 731.8 745.7 763 777.3 789.6 801.1 813.1 824.8 839.7 856.2 869.1 882.7 897.2 909.2 918.9 922.1 909.4 870.6 840.1 818.4 801.4 785.3 765.8 745.6 730 713 693.5 676 660.6 644.4 627.7 611.1 593.8 577.4 560.2 546 531.2 517.5 501.4 484.1 465.5 452.5 452.4 463.5 488.4 523.2 545.8 560.2 579.1 603.1 631.9 656.4 679.8 702 724.5 750.2 775.9 796.8 814.3 817.4 797.9 772.3 752.2 744.2 738.3 745.1 756 770 786.2 802.7 825.3 854 894 929.8 968.9 1019.3 1053.3 1078.5 1065.4 1052.6 1049.6 1049.3 1052.2 1061.9 1072 1067.2 1057.3 1047.2 1039 1028.7 1013 995.1 980.9 968.4 956.5 945.7 929.9 911.2 900.2 890.2 873.2 860.6 855.3 842.3 830.7 834 844.3 848.5 850.8 855.4 860.9 868.9 874.4 878.3 887 885.6 882.5 877.1 881.4 883.9 886.9 893.1 895.6 899.1 900.2 910.8 917.8 918.6 922.6 929.3 936.7 954.1 969 976.4 979.2 974.7 964.4 958.9 953.8 942.7 924.8 901 870.4 850.9 832.1 812.5 796.3 783.4 772.7 761.7 753.5 747.6 741.7 736.2 731 726.2 721.4 717.8 717 718.3 721.1 723.6 725.1 727.7 727.6 723.5 714 700.5 687.5 671.9 656.3 639.3 620.7 603 587.5 573.6 561.4 551.2 540.2 529.4 519.4 509.2 499 488.5 475.9 462.2 450.5 437.4 424 409.8
538.2 556.8 576.6 595.7 614.5 634.5 656 674.9 694.4 713.8 729.3 742.9 760.6 774.2 787.8 801.3 814.7 828.4 844.4 861.8 874.6 890.7 904 915.5 923 924.2 910.2 872 836.9 812.5 793.8 776.4 758.2 740.6 729.3 711.6 691.6 673.6 657.9 642.8 626.4 609.1 591.4 574.4 559.7 543.9 528.4 514.4 498.9 479.5 462.4 453.1 456.9 473.1 505.2 535 562.1 574.8 586.1 610.2 634.9 655.7 677.3 698.2 718.9 743.7 767.2 789.3 810.6 823 820.5 793.9 774.5 758.9 751 751.3 758.4 772.3 786.5 803.8 824.5 853.1 891 929.3 969.8 1012.7 1051.6 1078.8 1084.7 1074.7 1069.9 1069.6 1071.4 1075.9 1071.4 1058.3 1043.2 1030.8 1022.1 1013 1000.8 987.3 973.2 960.2 943.9 932.2 917.2 902.4 899.5 895.7 875.9 859.4 852.5 843.2 827.3 829.2 840.7 845.4 844.9 851.4 854.2 858.7 864.1 867.4 879.8 881.9 877.8 869.5 868.1 871.1 873.3 880.8 890.4 896 899.4 904 907.9 908.1 912.7 921.2 930 944 960.8 976.3 988.3 987.8 979.8 971.2 965.3 954.2 928 896.3 867.6 842.4 823.7 810.5 794.5 782.4 769.3 754.2 741 733.1 725.6 720.7 715.2 710 704.4 700.7 699.3 698.3 701.2 705 708.6 710 711.1 708.8 700.3 689.3 676.4 659.7 644 627.3 609.8 593.6 577.6 563.3 551.4 541.2 529.6 519.8 508.3 496.8 487.9 476.9 463.2 449.4 438.6 426.4 413.4 399.5
535.7 553.7 572.4 591.2 610.1 631.2 653.4 671.4 691.4 709.1 725.4 740.2 754 766.8 780.9 796.1 811 827.6 847 863.1 879.6 894.8 908.9 919 924.1 924.5 913.1 874 839.3 812.4 789.6 771.5 752 738.8 724.6 707.4 687.8 671.2 656 640.8 623.8 605.6 587.7 573.4 558.5 542.5 528 512.4 495.5 475.6 461.6 452.9 461 479.8 509.3 538 562.5 583.6 595.8 618.1 639.9 657 676.7 698 715.6 737.8 762.2 785.3 807.7 823 834.7 818.8 790.8 772 759.8 757.1 762.3 774.2 788.3 808.2 827.7 852.7 890.3 928.2 968.3 1011.4 1055.3 1079.6 1095.2 1092.3 1090.1 1089.7 1089.7 1084 1068.7 1050.1 1031.2 1017.4 1009.3 1002.2 991.4 978.9 965.6 951.5 938.1 922.5 912.2 900.5 886.7 873 864 851.1 842.3 831 821 821.3 829.7 838.8 836.1 841.4 846.7 850.8 854.4 857 862.7 862.4 858.8 852.9 852.1 863.1 874.1 883.6 888.7 892 893.3 893.9 895.6 894.8 901 910.3 919.7 933.4 953.1 972.3 983.4 984.6 984.1 982.7 976.7 961.4 933.3 899.1 868 839.8 823.4 810.6 799.5 789.1 770 754.6 739.6 725.3 707.5 703.3 701.3 696 688.2 683 679.6 679.6 679.2 683 688.2 690.6 692.2 691.8 686.2 677.5 665.2 649.4 634 617.4 599.9 583.9 567.7 554.3 541.1 531.2 520.9 509.9 497.9 486.4 474.9 463.7 451.8 438.3 427 414.7 401.7 388
534.2 550.6 568.5 587.2 606.4 628.6 648.8 666.1 686.2 703.2 721.1 734.1 745.7 758.8 772.6 787.3 804.9 823.3 844 862.6 880.5 896.6 909.6 918.2 921.7 922.1 916.3 883.5 845.2 818.9 793.1 769.1 746.7 730 715.8 702.3 686.4 670.1 653.6 637.9 621.6 604.1 586 570.2 555.8 541.6 526.7 509.6 491.5 472.5 461.1 457.8 464.6 485.4 513.5 540.7 568.4 589.1 603.8 627.4 650.9 667.8 679.9 697.1 713.4 734.7 759.9 785.5 807 824.2 838.6 827.8 803.1 786.1 771.1 766.5 769.5 777.6 791.4 812.2 833.6 856.4 887.4 923.6 961.1 1000.8 1041.5 1077.3 1097.7 1107.7 1104.2 1100.8 1102.6 1083 1060.9 1038.2 1019 1007 1000.7 996.2 988.1 975.5 962.6 948.9 934.5 922.3 906 901.3 892 874.4 858.3 845.2 833.1 824 813.6 812.3 819.7 825.3 828.1 833.6 839.3 843.9 846.4 848.4 845.5 844 838.5 838.1 843.5 859.6 869.2 874.9 879.1 881.7 880.8 879 878.4 880.5 887.6 897.9 909.9 924.9 945.7 964.7 977.9 984.8 986.9 994 989.5 971.2 943.1 904.1 872.6 842.6 828.1 812.3 799.9 787.1 771.6 754.5 737.4 723.1 710.6 695.9 683.1 680.1 675.9 672.2 670 670.1 669.8 669.9 670.8 672.6 674.1 674.2 672.3 664.2 652.5 638.1 623.3 606.8 590.4 574.9 559 545.9 533.7 522.6 511.5 500 488 475.5 463.8 452.6 440.6 427 414.4 402.3 389.6 376.6
532 548.9 565.7 583.2 601.8 624.4 643.8 660.8 680.2 696.4 713.8 726.8 737.4 748 761.2 775.9 795.7 816.7 839.3 857.7 877.6 894.2 906.2 913.9 915.6 915.4 912.8 899.9 866.5 838.9 812.1 778.6 748.4 724.5 711.6 700 685.2 668.8 650.3 634.2 617.4 599.7 585 569.3 554 539.4 524 507.1 488 471.5 461.8 459.8 468.4 488.6 517.6 546.2 572.2 593.7 611.5 634.9 661.6 679.2 693.6 702.9 716.3 733.8 761.2 787.5 808 826.5 842.9 837.3 813.7 794.1 780.7 776.1 778.1 785 800.1 819.3 837 857.8 892.7 932.5 975.8 1023.9 1060.7 1086 1110.5 1108.2 1102.4 1102 1103.3 1076.9 1051.8 1027.6 1005.9 994.6 989.5 985.9 982.8 972.4 958.4 944.2 929.8 917.4 902.4 894.6 894.7 884.3 867.4 849.6 836.3 824.2 811.8 803.8 811.3 818.3 819.1 822.5 827.5 833 838.7 843.1 842.6 839.1 835.2 833.9 838.8 851.5 858.3 861.4 864.3 864.9 863 860.1 860.4 864.7 872.5 886.7 901.5 918.7 937.1 954.9 968.5 975.8 979 988.3 993.6 982.4 950.6 914.7 880.5 844.5 825.3 811.8 801.2 789.8 774.1 756.9 738.6 722.8 708.4 691.6 678.5 669 664.8 663.1 663.1 663.9 662 660.6 659.8 660.2 660.3 660.4 657.7 650.8 639.2 625.8 611.9 596.9 582.9 568.1 552.2 538.9 525.7 514.3 501.9 489.2 477.4 465.2 453.5 442.1 430 416.2 403 390.8 378.6 365.7
529.5 546.1 561.5 577.4 596.6 618.6 637.8 654.9 671.5 686 703.4 716.3 725.6 735.2 743.5 762.8 785.2 808.3 831.6 850.3 870.2 887.9 898.4 904.2 905.9 905.4 903 898.6 888.6 861.9 823.5 788.8 757.9 731.4 713.8 697.9 681.5 663.4 645.2 627.8 610.4 596.3 580.8 566.5 552.6 538.6 523.1 504.7 487 472.3 464.4 461.3 470.8 491.1 520.7 548.3 576.4 599.3 619.2 649 675.2 696.4 708.4 716.3 725.3 740.4 766.4 790.3 810.9 831.9 852.2 860.6 839.8 820.4 798.8 789 786.3 796.7 809.1 829 847 869.4 899 934.4 971.1 1013 1054.5 1090.2 1118.9 1099.3 1092.8 1094.6 1103.1 1072.2 1043.8 1016.6 992.2 974.8 969.2 968.7 969.3 964.3 951.9 937.3 922.2 907.8 894.8 883.9 885.4 880 867.4 848.8 836.2 823.3 808 787.5 800 807.9 806.7 808.6 811.8 824.8 830.9 836.9 839 838 836.3 832.6 834.2 842.4 846.9 847.1 846.5 846.6 844.9 844 844.2 849 859.3 875.4 892.7 910.3 927.9 942.7 954.4 960.2 964 972.8 977.5 977.4 959 917.5 881 847.7 822.7 812.9 802.3 791.8 776.7 758.1 738.1 721.7 708.9 694.8 678.6 663 652.2 651.1 651.4 651.3 648.3 646.4 646.1 646.8 647.3 646.6 644 636.5 624.9 611.5 598 584 570.3 556.3 544.5 530.3 518.6 505.6 492.6 480.2 468 455.7 443.7 432.2 420.2 405.9 392 380.4 368 355.1
524.6 541.2 555.9 572.6 591.5 612.6 630.3 646.6 661 674.2 690.7 703 712.3 720.2 727.4 754 776.8 799.5 822.4 841.9 860.4 877 887.2 891.8 892.6 892.1 891.3 889.2 882.6 865.6 833.7 796.4 763.1 737.2 711.8 691.8 674.9 655.4 636.9 620.2 604.9 590.5 576.4 562.7 550.1 536.2 520.8 504.3 486.5 473.6 467.4 462.3 475.2 495.5 524.7 553 589 608.6 636 680.1 708.2 715 724.9 735.1 743.4 757.7 776 798.2 819.8 842.4 864.4 884.3 891.3 862.7 834.4 818.7 807.7 810.7 823.1 837.7 855.3 882.3 911.9 947.8 991.3 1033.5 1066.3 1094.2 1110.2 1087.9 1081.8 1084.9 1089.9 1064.7 1034 1007.3 979.2 955.5 943.8 941.4 940.5 944.8 942.4 930 910.3 891.8 876.7 866.7 864.1 862.2 851.6 836.2 826.2 816.5 805 778.1 788.7 792.4 790.8 791.9 798.3 807.5 814.2 822.3 825.6 827.1 828.5 828.1 828.6 832.6 835.6 834 831.1 830.7 830.9 830.5 829.8 834.2 848.3 865.3 882.8 900.7 917.1 928.2 936.8 943.2 946.4 952.8 960.1 961.5 947.8 912 877.6 846.4 821.6 812.7 803 791.9 776.1 758.5 738.4 723.5 710.5 695.3 680.8 667.3 656 642 630.5 635.7 629.1 629.8 630.3 630.6 631.3 632.1 629 622.7 611.5 598.4 584.2 570.8 557.5 546.4 534.1 523.4 509.3 496.2 484.2 472.3 460.4 448.1 436.8 424.4 411.8 397.2 382.6 370.5 358.1 345.2
519.7 534.8 550.3 567.9 586.1 605.5 622.2 638.9 651 662.9 678.5 689.4 698.2 711.5 724.7 745 766.7 790.4 811.5 830.5 847.9 862 871.9 876.9 877.6 877.8 877.8 877 871.5 850.1 825.8 790.1 754.5 727.6 703.6 686.9 669.3 647.4 627.8 613.4 600.5 585.1 570.1 557.2 544.6 531.7 517.8 501.3 485.7 476 468.2 468.7 482.1 501 526.6 556.8 596.4 624.8 665.5 713.4 730.8 741.9 751.2 760.3 765 775.9 793 811.8 833.2 854.7 875.2 893.8 909.7 898.7 870.8 851.9 837 832.7 837.3 849.2 870.5 900.7 929.8 959.4 997.4 1041.3 1081.4 1110.4 1098.9 1081.5 1076.4 1075.2 1072.7 1053.5 1030.7 1005.4 976.9 942.4 917.2 909.2 904.6 903.4 906 904.7 890.8 874.7 857.4 845.4 842.1 842 834 824.6 813.9 804 795.9 773 776.7 777.8 777.2 776.8 781.9 788.8 793.5 800.8 807.7 810.2 812.1 812.6 818.7 820.9 820.4 818.9 815.5 816.3 817.1 816.5 813.2 825.6 839.1 855.9 871.9 889.6 903 910.7 916.9 919.4 923.8 929.7 937.8 943.7 931.9 905.3 873.4 848.2 824.1 813.8 803.1 792.5 780.8 765.2 747.8 734 720.3 707.4 694.2 675.3 662.2 649.8 636.3 617.4 604.1 606 612.8 614.4 614.8 616.4 614.6 607.9 597.6 585.7 573.2 559.3 548 537.8 526 513 498.9 487.1 475.7 464 452.7 441.1 429.4 416.3 404.4 390.2 376.3 363.6 349.7 336
514 527 545.5 564.6 582.1 598.6 614.3 630 639.6 652.5 665.2 676.5 684.6 697.2 714.8 735.9 757.1 779.6 799.2 817.2 832.9 845.7 854.9 859.1 861 862.2 863.4 863.9 859.8 833.7 807.3 774.3 740.9 711.2 695.5 682.1 662.9 641.3 623.4 612.8 597.1 581 566.2 552.7 539.5 526.8 514 499.3 485.8 473.6 468.8 472.9 486.1 508.1 534.9 565.8 602.9 640.9 691.9 726.4 748.5 761.3 771 779.8 788.8 799.4 812.7 829.4 846.1 865.3 883.5 902.2 920.5 930.7 906.9 878.1 857 846.2 852.9 863.2 885.6 916.4 951.5 977.6 1022.7 1053.6 1085.6 1100.1 1085.3 1072.8 1073.7 1068.1 1061.7 1046.8 1025.7 1004.4 977.9 942.1 903 881.3 870.4 866.6 864.2 863.3 858.5 853.3 837.5 825.8 820.2 816.7 815.6 808 798.9 789.9 782 758.9 762.8 765 763.1 762.5 765.9 769.1 774 780.2 783.9 788.3 788.4 790.6 800.5 804 804.1 802.1 800.8 799.8 799.7 799.1 801.8 817.7 831.9 846.1 860.1 874.3 885 891.6 893.2 893.2 901.9 909.5 916.5 925.1 918.7 893.6 868.9 845.5 829.3 816.8 807 795.7 783.9 770.1 754 742.2 732.3 722.4 709.5 688.8 666.1 649.3 637.8 629.2 619.4 590.4 588.2 599.4 599.1 597.3 598 593.1 585.5 574.1 560.1 549 539.5 529 515.3 501.1 488.4 477.1 465.4 455.8 444.9 433.4 421.9 408.6 395.7 381.7 368 354.8 340.2 325.7
512.1 524.1 541.6 559.9 576.9 592.3 606.1 620.9 631.5 643.1 653 662.4 675.9 685.3 703.7 725.6 746.3 766 784.3 801.7 816.4 828.8 836.8 841.3 843.4 845.8 849.5 851.1 841.7 809.7 783.2 753.7 720.7 698.2 685.6 668.7 648.3 631.9 620.6 607.9 593.6 577.6 562.7 549.2 536.2 522.9 509.8 495.8 480.8 472.6 472.8 480.8 499.4 527.2 554.2 591.7 617.6 653 693.2 730.3 754.5 767.7 781 790.3 801.3 814.1 826.5 839.8 856 873.7 892.3 911.2 930.2 947.7 928 894.8 871.8 864.9 867.2 876.1 899.3 930.8 967.4 996.4 1038.2 1069.4 1088.4 1098.5 1075.8 1061.8 1065.5 1061.6 1053.9 1040.3 1020 999 973.6 939.7 898.6 866.1 844.3 835.2 827.2 825.2 828.9 824.9 816.4 805 792.8 790.6 796.6 793.2 785 776.3 767.6 749.8 748.4 752.3 751.6 750.2 751.2 751.5 752.6 757.1 760.5 763.4 764 767.2 777.9 783.9 786.6 786.9 786.3 783.3 780.7 780.8 796.7 810.1 824.8 837.1 846.6 858.8 866.7 870.1 871.5 876.3 882.9 891 898.4 904.3 905.4 888.9 868.4 857.5 836.1 827 819.8 805.9 791 774.2 758.3 746.9 740 730.7 716.1 697.4 673.8 652.3 635.3 622.1 614 604.7 576.8 569.8 577.6 577.9 579.6 577.1 569.4 558.9 548.4 539 529.4 518 503.8 489.7 477.7 466.3 454.5 445.7 435.2 423.6 412.8 400.6 386.7 372.9 359.2 345 330.2 316.4
512.7 523.3 537.7 555.7 571.2 585.9 599 613.4 624.3 634.2 643.3 651.2 660.9 674.7 691.5 712 730 749.5 766.9 783.1 797.1 809.3 817.8 822.8 826.4 830.2 835.2 836.6 817.9 787.9 761.3 733.6 702.9 688.2 672.1 653.5 639.5 628.2 615.7 603.9 589.7 574.5 560 546 532.2 518 503.8 489.8 478 473.9 481.3 491.3 513.7 539.8 569.6 610.2 659.6 673.2 718.3 739.4 755.4 770.6 784.4 794.7 809.3 823.3 833.6 847.7 863.9 882 900.7 919.8 939.1 960.9 954.8 919.9 894.9 884.3 883.2 891.1 914.2 952.4 987 1018.1 1044.4 1058 1071.7 1078.6 1067.2 1050.7 1058.4 1055.8 1050 1035.5 1015.1 991.8 962.1 926.4 888.9 851 820.5 803.3 798.4 795.6 799 798.2 787.9 786.7 775.7 771 770.9 770.7 767.6 758.8 752.2 742.1 729.9 738 738.5 735.3 736.8 736.6 737 736.9 740.6 743.9 743.8 749.9 756.8 764 769.8 771.9 772.2 768.7 767.6 774.4 788.4 802 816.6 826.4 832.3 841.3 848.8 853.1 854 860.6 864.5 871.1 878.4 883.7 885.6 877.2 871.5 863 843.7 826.9 816.7 803.8 789.7 774.4 758.4 746.9 739.7 727.1 714.2 695.3 673 650 631.1 616 604.1 595.9 588.1 566 552.9 556.7 559.3 557.5 553 546.1 535.9 527.6 518.1 506.3 492.9 479.1 467.5 456.5 445.4 435.6 425.4 413.8 403.2 391.8 378.8 364.3 350.2 335.2 320.5 306.8
510.8 521.6 536.5 552.1 566.8 579.9 592.5 603.8 614.9 624.5 632.2 638.5 649 660.6 676.3 694 710.7 730.6 747.9 760.9 773.7 786.4 796.3 803.4 808.7 814.9 821.2 821.6 799.9 769.8 742.2 712.5 691 674.5 661.6 645.6 634 623 611.6 598.6 585 570.3 556.1 541.6 526.6 510.7 498.7 485.7 480.7 484.2 497.5 509 522.8 549.8 585 641.1 676.4 693.7 714.1 732.7 749.9 767.1 781.3 795.4 811.4 824.2 837.1 852.7 870 887.8 905.9 926.1 945.9 965.4 968.4 941.3 916.5 907.8 901.4 911.2 936.9 973.8 1009.9 1036.6 1036.6 1047.8 1048.2 1044.1 1037.4 1036.8 1049.6 1048 1045.1 1030.3 1009 981.8 945.7 909.7 872.3 834.3 801.9 781.5 773.6 770.7 766.1 762 763.3 766.6 753.8 752.2 749.5 749.8 747.3 742.2 737.6 729.4 716.7 723.6 723.9 724.6 723.9 723.7 723.4 724.2 723.9 726.4 727.9 734 740.4 747.8 753.4 756.7 757.4 757.4 755 768.9 781.2 793.9 804.3 812.7 818.8 824.1 831.6 835.9 836.4 841.8 845.7 850.5 857.7 862.9 866.6 866.5 863.9 857.8 843.3 827.8 812.2 799.1 784.7 770.3 755.9 742.8 730 716.3 700.8 680.4 659.8 639.6 623.1 608.5 596.1 586.2 576.5 565.2 552.8 535.5 542.5 540.5 536.9 532 523.4 516.9 507.2 495.9 482.8 469.5 458.4 448.4 438 427.6 416.7 404.5 394 382.5 370.1 355.5 340.2 325.5 312 299.4
511.3 522.1 535.7 547.6 561.2 573.6 584.7 594.7 604.5 613.6 620.7 628.6 637.6 649.2 662.2 678 691.8 709.9 725.2 737.4 750.7 763.4 774.6 782.8 790.1 800.1 807.8 809 782.3 748.4 719.6 700.1 682.2 665.7 653.8 639.4 627.6 617.9 605.5 592.2 578.9 564.7 549.8 534.1 519.5 506.9 495.6 485.1 489.8 497.9 510 523.2 540.9 571.9 600.9 644.9 673 692.1 710.2 726.7 742.6 760.2 775.1 791.5 806.9 820.9 837.3 854.1 871.4 889.4 909.3 929 949.6 969.4 985.6 967.9 939.5 927.2 922.3 932 965.3 983.5 1012.6 1021.9 1011.5 1026.6 1025.2 1019.2 1012.5 1020.1 1030.6 1034.4 1032.5 1022.1 1002.8 978.9 942.5 901.2 859.4 824.1 792 771.6 755.2 749.1 746.8 742 744.5 742.1 738.8 734.4 732.9 731.4 730.9 727.1 722.5 715.3 706.2 711.2 710.2 712.4 711.7 712.2 710.6 710.4 712.2 712.8 713.5 718.9 724.9 731.6 737.6 742.6 745 746.6 749.6 761.6 772.6 783.7 791.8 799.5 805.7 809.3 813.8 817.3 819.6 822.5 826.7 830 835.9 844 851.3 853.5 852.5 847.8 835.9 821.9 808.4 795.5 781.6 766.1 752.7 738.3 721.4 709.8 693.1 673.6 651.9 631.7 613.9 598.6 585.7 574.7 563.1 551.5 540.4 532.5 519 521.7 520.3 516.5 511.7 505.1 496.4 484.5 472.2 459.4 449.3 440.2 430.6 419.9 408.4 396.3 385.4 373.2 359.7 344.4 330.5 317.4 304.6 292.5
512.7 522.4 533.3 543.4 556.6 565.8 573.3 585.6 594.8 602.8 608.8 617.5 627.2 636.3 648.4 659.8 673 685.4 697.8 709.6 727.9 740.8 752.8 763 773.7 786.3 795.9 798.5 772.9 735.4 709.4 688.6 676.2 660.4 648.5 638.5 627 613.4 599.6 587.6 574.2 560.4 546.1 531.2 517.9 506.7 490.6 493.3 499.7 508.3 523.4 538.3 560.9 588.9 617.3 648.5 672.8 695.6 714.7 730.6 748.3 766.2 782.3 794.7 808.2 822.7 838.7 855.1 871.7 890.2 911.7 932.3 953.2 973 992.1 992.1 964.7 954.6 953.9 960.5 975.8 988.2 998.2 992.9 985.1 998.9 1000.6 1003.3 995.3 1000.3 1009.2 1012.9 1015.4 1010.1 996.1 978.2 944.5 903.6 863.1 821.9 791.3 765.4 742.4 730.6 729.4 728.8 729.4 727.7 723.8 719.4 718.1 717.9 717.4 714.1 710.6 705.2 697.1 700.9 698.7 700.5 699.2 701.2 699.5 700 700.4 702.2 702.7 708.1 711.7 716.4 722 728.3 732.3 733.9 741.7 752.2 761.3 769.9 779.3 784 790.9 795.9 799 801.5 803.5 806.1 810.2 815.3 821.9 827.6 832.8 835.6 835.4 831.6 824.9 816 803.6 790 776.3 764 749 731.5 712.4 699.9 686.8 667.1 645.8 627.1 609.9 591.4 576.5 563.9 552.3 541.7 531.5 523.4 508.5 507.9 506.1 504 499 491.5 483 472.4 461 450.1 442 433.6 424.1 412.5 402.1 390.5 377.3 363.8 348.3 334.4 322.2 309.2 297 284.5
516.3 522.8 530 537.5 547.5 553.3 560.6 573.7 583.7 592.7 599.5 608.8 617.4 625 634.5 644.6 655.1 666.3 674.4 686.4 702.7 716.4 730 744.1 760.2 774.7 788.6 792.2 764.7 727 702.5 686.6 669.7 656.8 644.6 634.6 622.9 609.6 596.1 584.7 571.8 559.3 546.7 532.1 517.8 507.2 493.9 501.2 505.9 519.8 536.2 555.4 575.8 602.2 629.5 652.1 672.1 695.4 715.8 734.2 752.9 772.4 787.2 799.6 812.5 829 845.2 860.8 877.5 896.9 917.7 937.8 958.8 980.5 1001.1 1008.5 999.5 999.1 1000.5 1003 991.1 989 993.6 977.9 968.8 973.7 973.1 978.1 975.2 980.3 989.1 991.4 996.8 996 988 971.9 939.1 899 856.8 822.9 791 755.8 729.6 719.2 713.5 713.8 713.9 713.1 710.6 707.4 705.1 704.9 704.9 702.8 699.6 697.4 687 692.1 688.6 689.5 688.1 688.7 689.8 690.5 691.5 693.2 693.3 697.9 701.6 706.1 710.4 715.1 719.9 723.1 733.1 741.7 749.4 758.3 767 773.2 778.2 783.3 785.8 788.6 791 793.2 798.6 804.7 810.1 815.7 819.5 822.2 823.7 823.6 818.1 809 797.4 782.4 770.2 756.4 739.5 722.5 704.9 691.6 676.2 660.5 641.8 622.8 604.1 586.2 568.3 554.7 543.2 533 522.2 514 506.1 489 488.9 490.1 484.7 477.2 469.8 459.4 449.9 442.5 434 426 416.6 405.9 394.6 381 367.2 353.8 339.4 326 313.7 301.1 289.5 277
514.1 520.7 528.8 539.7 551.2 560.1 570.6 579.3 585.3 593.3 601.7 602.9 611.2 617.8 626.9 634.3 643.9 654.2 664.2 672.1 681.2 694.4 709.6 728.6 747.3 763.8 780 784.5 763.4 723.9 700.7 681.3 665 653.1 641.7 631.8 622.5 610.4 594.8 585.4 576.6 564.5 548.4 532.4 519.9 510.2 500.4 504.4 515.8 524.7 545.9 571 592.6 612.9 633 654.8 672.6 696.9 717.7 736.2 758.3 775.6 791 806.6 820.5 835.9 851.7 867.4 884.6 904.9 925 945.1 968 990.6 1014 1030.1 1046.5 1054.1 1055.4 1052.1 1016.2 994 981.8 971.6 964 951.8 951.9 953.7 960.1 960 966.9 967.6 972.7 976.4 974.4 955.8 923.8 884.4 852.3 818 782 752 729 716.4 705.8 701.1 700.9 700.3 700.5 697.7 694.4 692.4 692.8 693 690.9 687.7 680.4 682 680 679.7 680.6 680.4 681 682.5 683.4 684.5 686.2 689.6 693.1 697 701.3 705.2 708.3 715.6 723.4 732.5 739.4 747.5 755.9 761.7 766.2 771.1 774.8 778 779.8 782.2 787.5 793.1 797 800.3 803.9 809.8 815.6 817.3 812.1 803.7 792.1 776 763 746.9 725.7 708.8 694.2 682.2 669.5 654.1 636.3 614.7 596.5 576.6 560.9 547.2 536.4 524.1 515.1 506 498.5 490.5 475.7 476.5 472.3 465.7 457.4 449.1 442.8 435.9 426.8 417.7 407.3 396.9 384.7 370.8 356.7 344.2 330.9 317.8 305.4 293.1 281.5 269.3
513.7 521.7 531.2 543.2 554 563.2 570.6 580.6 590.7 600.4 608.1 616.1 620.1 627.4 636.8 645.5 651.8 656.9 660.9 668.9 674.7 683.9 698.6 714.1 734 753.3 768.7 776.8 773.5 738 704.3 682.1 670.1 663.3 653.3 641.9 626.9 610.8 598.9 591.1 584.1 572 558.6 543.4 529.6 517.9 511.9 509.5 528.6 542.3 558.5 579 601 621.2 639 657.2 673.4 697.7 718.5 738.8 759.6 778.4 795.7 810.5 827.6 843.1 858.1 875.1 893.2 913 932.7 952.5 976.5 1001.6 1024 1043.8 1066.3 1093.7 1103.7 1080 1028.9 993.6 977.2 963.5 944.9 935.2 934.4 932.7 935.3 934.4 940.4 942.2 947.1 952.8 950.2 927.3 900.7 870.9 841.9 813.6 788.9 756.2 733.5 713.1 707.5 701.7 692.2 688.1 691 690.5 688.4 684.3 683.5 686.1 684.8 681.6 676.5 671.9 672.4 671.3 672.2 672.9 673.7 674.7 676 675.7 679.7 682.4 685.3 688.8 692.2 695.3 699.3 707.8 714.4 723.5 731.6 738.1 745.3 752.2 756.7 760.9 763.3 766.3 768.5 771.2 775.1 780.3 785.4 792.2 798.5 807.6 812.9 813.8 808.1 795.8 781.5 770.2 756.8 739.7 721.2 701.8 685.2 672.8 659.9 644.7 626 606.1 589.5 571.3 555.2 541.2 530.4 518.9 509.1 500.4 491.2 482.5 474.4 457.3 459.8 454.8 449.5 443.9 436 428 420.1 410.3 398.4 387 374.5 360.7 344.9 334.6 322.5 310 297.8 285.6 272.9 259.2
514.7 524.1 533 542.5 551.5 560.7 573.3 586.3 597.3 610.3 621 624.8 629.9 641.1 653.1 660.9 667 671.2 675.2 680.4 685.4 688.4 692.1 703.9 719.3 739.8 756.3 769.5 778.3 759.6 729.9 702 685.8 673.1 659 645.5 628.2 615.9 605 597.3 596.1 584.2 569.7 564 547.9 536.8 524.7 519.4 535 554.2 570.6 587.6 610 626 641.1 657.9 673.9 697.3 719.4 737.5 758.5 778.8 795.3 812.8 832.1 848.3 862.4 880.2 899.3 919.7 939.9 960.4 985.8 1011.1 1034.2 1058.4 1083.3 1106.8 1106.5 1067.8 1030.6 982 961.1 949.1 937.6 922.7 915.1 910.4 913.7 909 914.8 915.4 920.8 922.5 914.9 895.3 887.6 866.6 820.9 790.9 764.6 745 727.6 714.3 704.1 697.6 689.4 683 680.6 683.4 683.3 682.2 677.7 677.3 679.6 676.5 674.9 662.6 664.5 663.7 665.3 665.6 665 666.1 667.2 667 671.5 674.4 676.8 680.1 683.3 686.2 692.6 698.6 704.1 712.8 722 728.8 735.1 740.9 744.8 748.5 750.9 751.8 755 760.7 765.9 770 777.2 785.6 793.2 801.4 805.6 805.6 797.5 786.3 770.4 756.3 743.1 725.9 706.7 689.4 675.3 662.1 647.4 631.9 614.4 597 582.7 566.3 551.9 538.6 526 514.9 504.8 495 485 476.2 467.9 458.4 443.6 445.2 443.4 437.9 428.4 420.6 411.9 400.5 388.1 376.1 363.9 351.6 337.6 328.2 315.4 302.8 290.5 277.3 264.6 252.2
516.6 522.4 533.4 542.1 547.7 560.9 575.5 589.9 602.9 616.9 624.7 630.6 640.9 656.8 671.2 680.8 687.7 689.9 694.3 699.4 703.3 705.7 704.6 703.2 709.8 724.6 741.8 759.2 771.6 775.7 756 723.2 704 688.8 678.9 678.5 654.9 639.2 624.2 611.6 604.9 595.2 589.4 580.3 566.5 549.7 538.5 527.2 546.1 560.8 579.5 601 619.9 633.6 644.5 658.2 674.2 699.2 719.5 735.5 755.9 775.2 792.2 811.5 831.7 848.3 865.1 883.8 902.6 924.1 946.1 968.4 993.2 1019.3 1043.6 1072.7 1094.7 1113.1 1092.1 1041.4 1004.1 959.9 932 927.1 914 900.2 889.6 882.3 886.2 880.1 886.8 888.3 891.3 886.5 871.4 867.9 854.4 828.6 804.1 781.3 763.2 747.1 733 720.4 707 695.9 689.4 680.9 675.5 675.9 678.3 679.1 675.5 670.3 671.4 670 666.5 661.6 656.2 658.2 658 658.2 656.3 657.9 658.2 659.8 663 666 668.8 671.4 674.7 677.7 684.8 689.5 693.2 698.7 707.9 715.8 721.2 726.5 731.8 735 737.3 738.9 740.7 748.6 760.8 768.1 775.2 783.8 790.7 795.5 800 796.7 791 777.7 758.2 737.2 720.7 709 692.2 676.8 663.9 649.1 634.8 618.7 603.9 587 574.2 558.4 546.1 533.6 522.1 511.5 500.4 490.3 481.6 473 464.3 454.8 443.9 429.7 433 426.7 419.4 411.3 402 390.4 377.5 365.2 354 343.5 332 321.7 308.7 295.9 283 270 258 246.5
516.7 522.8 533.6 540.4 549.3 565.8 581.4 593.5 604.3 619.7 629.9 640.9 656.1 677.4 692.3 703.1 708.6 709.7 715.1 719.8 722.8 722.3 722.1 719.5 719.4 719.8 729.2 744.7 761.6 772.5 775.3 754.3 732.6 721.4 731.3 716 688.2 656.8 639.5 626.9 624.2 625.1 612.5 594.1 578.6 559.6 548.3 535.1 551.4 570.7 591.6 609.7 625.8 639.4 653.2 665 679.7 698.2 717.1 734.7 752.7 770.1 786.6 808.4 829.1 845.4 864.1 884.1 904 924.4 948.1 972.6 997.3 1022.9 1049.8 1079.1 1103 1093 1071.8 1045.4 990.3 939.7 900.2 889.2 887.4 877.2 857.2 851.9 856.2 848.5 857.2 859 863.5 852.2 839.1 837.2 819.8 804.4 796.8 780.3 761.8 747.1 735.9 726.7 713 699.1 687.8 678 673.5 672.6 673.9 674.4 671.9 665.8 664.9 661.5 660.3 657.5 649.2 650.8 651.7 649.7 648.4 649.2 648.7 651.3 654.6 657.6 661 663.2 666 671.4 675.9 679.4 682 685.8 690.6 697.6 704.8 710.8 715.4 719.4 722.5 722.7 728.9 742.7 752.5 761.4 767.2 773 780.3 786.3 798.2 803.4 794.4 767.5 742.2 721.8 704 691.6 678.4 663.4 649.3 632.2 621 607.2 591.7 577 563.3 551.3 539.9 528.6 517 506.7 495.6 486.4 477.8 469.2 459.7 450.9 447.1 437 416.6 414 406.9 399.8 391.6 381.4 368.4 356.6 346.5 336.6 325.5 314.3 301.5 288.1 273.9 261.5 250.6 239.6
516.1 524.3 534.7 541.9 552.6 566.5 575.9 591.9 611.4 627.5 641.8 656.6 677.7 697 715.2 727.2 732.8 733.9 737.9 739.8 739.8 742.2 740 737.4 733.8 731.5 729.9 734 748.6 767.9 782.8 792.8 783.8 781.8 783.5 771.4 721.6 687.1 676.3 666.1 654.4 647.2 623.8 603 587.9 572.1 564.5 548.2 553.7 577.7 596.6 613 628.4 643.8 660.4 674 691.6 702.2 712.2 732.8 750.2 765.5 781.4 802.6 823.4 838.7 858.6 879.5 898.3 917.7 941.6 968 994.5 1021 1048.3 1078.5 1084.2 1068.7 1045.6 1013.8 974.3 930.3 876.1 842.8 833.5 834.3 823.9 817.7 817.8 815.9 825.2 825.3 829.6 808.9 807.3 803.8 797.8 793.6 774.8 761.5 753.7 744.3 733.7 725.8 717.9 706.5 692 680.2 671.7 670 670.7 671.2 667.2 661.6 657.7 655.9 654.1 652.6 645.9 645.6 649.3 643.6 640.9 640.4 639.6 642.7 645.4 649.3 652.8 654.5 658.8 663.8 667.1 669.5 671.6 674.3 677.6 682.9 689.1 694.1 699.4 703.2 705.3 702.7 720.7 731 738.4 746.1 748.2 749 755.4 777.9 791.6 797.8 786.4 761.4 726.9 704.4 687.4 677.1 662.9 647.1 632.6 618.3 607.4 593.8 578.2 565.9 554 542.6 531.8 521.2 511.6 502.1 491.9 482.8 473.5 464.2 453.7 446.1 440.3 431.9 419.1 400.1 394.9 388.8 380.9 370.6 360.4 350.3 340.2 330 319.1 306.3 293.2 279.9 266.5 254.5 243.2 232
519.4 526.6 533.8 542.7 554.4 567.1 577 599.2 616.9 639.2 659.1 677.8 697.7 717.1 734.4 748.8 757.7 762.1 764 764.8 763.3 758.6 754.4 750.8 746.4 744.8 742.5 739.2 743.3 762.9 783.5 800.8 813.6 823.3 831.3 811.3 768.4 725.9 717 701.6 682 665.8 637.5 616.8 599 585 573.8 558.2 554.5 572.3 596.6 613.5 629.7 645.9 666.2 686.8 705.7 715.6 726.1 733.5 747.3 762.7 779.3 795.5 813.8 834.7 853.3 870.4 889.5 908.3 932.4 959.3 984.7 1009.1 1034.7 1063 1064.6 1040.1 1017.2 989.4 954.3 916 872.7 816.4 795.9 790.8 786.7 781 781.5 785.7 793.4 800.1 793.5 785.5 783.8 780.4 779.3 774.5 760.9 753.6 743.6 736.1 729 721.5 712.9 705.8 698.1 686.1 676.2 669.7 670.4 670.8 665.2 658.8 655.5 651.8 650.1 649.7 644 641.1 645.7 639.2 634.3 633 632.2 634.6 636.9 640.5 642.7 643.2 651.8 655.1 657.9 660.1 662.2 663.1 665 669.4 674.1 679.3 680.1 682.8 686.1 695.3 709 716.8 724.1 729.6 725.5 729.2 748.7 769.7 781.5 786.1 776.1 750.5 715 688 672 662.7 647.7 630.4 617.4 606.8 593.3 580.1 565.9 553.9 543 531.9 522.7 514.2 505.7 497.1 487.8 477.4 467.5 457.1 447.7 439.8 430.6 422.6 414.1 398.8 388.9 380.5 371.5 362.1 353.2 343.5 334 323.9 312.1 298.7 285.2 272 259.5 248 236.2 223.5
525.2 527 533.5 541.8 553.9 567.1 581.9 603.5 625.5 654.1 673.4 694.4 713.9 732.7 748.3 763.9 775.8 786.4 789.4 787.5 781.2 772 765.4 761.2 757.5 757.2 756.5 752.4 748.2 758.2 780.6 801.6 819.4 833.7 843.9 842.4 804.2 766.4 755.6 736.9 707.5 683.8 655.4 628.5 606.9 589.7 573 560.2 554.4 568 592.2 611.2 629.7 649.9 679 702.6 721.9 730.3 739.3 748.8 753.5 760.2 777.7 790.3 806.3 829.1 847.8 864.6 882 898.6 920.7 947.4 972.3 994.9 1018.8 1046.5 1042.7 1016.7 995.6 969.3 933.4 891.4 856.2 791.2 771.4 760.5 753.9 753.4 758.9 762.4 767.2 772.3 769.8 769.7 766.2 760.3 754 751 749.5 743 734.7 728.1 723.4 717.6 709.9 700.7 694.4 686 678.2 671.8 668.8 669.4 661.6 657.4 654.2 650.5 647.1 646.4 641.7 638.1 640 632.8 628.5 625.8 625.3 625.9 627.4 630 631 636 641.8 644.5 647.2 649.4 650.6 651.9 653.7 655.3 658.4 662.4 666.5 666.6 665 683.2 694.1 701.2 706.7 704.6 700.4 718.8 745.8 760.1 771.2 772.6 758.1 732.4 699.2 673.7 657.3 644.2 629.9 616.8 606.9 596.3 581.4 566.7 553.3 541.2 532.5 521.3 513.4 507.3 499.6 490.5 480.7 470.3 460.4 450.2 441.4 430.8 423.9 415.7 404.9 394.1 381 371 363.7 354.4 344.4 335.2 327 316.5 304 290.2 277.2 265.4 253.6 241 226.5 213.2
530.4 527.9 532.7 542 552.4 569.6 587 610.9 638.3 662.9 682.4 703 722.5 740.5 756.7 773.4 788.6 799.1 805.2 806.8 799.7 789.6 779.9 774.8 768.8 768.7 768.2 765.6 760.5 760.6 776.1 801.5 823.4 840.3 852.5 859.9 842.5 807.1 782.1 749.3 716.1 689.1 657.6 629.5 608 590.7 577.2 566.1 558.5 565.5 585.4 608.2 628 651.3 681.9 708.7 736 742.7 750.9 760.3 767.9 774.1 777.2 787.3 803.2 822.2 841.9 858.6 874.5 891.3 909.8 936.2 960.8 982.5 1003.7 1032.5 1029.6 1003.2 969.9 943 916 862.8 817.5 767.5 747.5 736.7 732 731.5 734.7 740.7 745.8 749.2 754.9 758.5 753.7 740.9 736.6 739.3 738.9 731.9 728 724.9 720 713.5 706.1 698.7 692.8 685.1 678 670.9 669.3 666 661.7 657.2 652.4 648.7 645.4 640.5 637.3 631.7 624.7 626.7 623 620.2 619 618.9 618.4 619.4 619.9 625.3 629 632.5 635.2 637.3 638 640.1 642.2 643.6 645.5 648.5 651.2 652.3 650 666.1 672.4 680.6 678 674.4 683.8 717.7 733.1 746 758.5 760.7 754.8 724.2 685.2 659.5 641.5 627.3 615.9 605.7 595.7 582 565.4 553.3 539.6 531.9 521.6 514.3 507.4 500.6 492.2 483.3 472.9 463.5 453.3 445.4 440.2 427.6 420 409.6 397.1 385.1 376.7 365.4 353.5 344.9 334.8 326.7 318.2 307.5 295.2 281.9 269 258.4 245.6 232.2 217.5 204.5
531 528.7 533.3 543.8 560 576.3 593 617.2 642.6 664.9 686.9 707 726.9 744.6 761.8 780.8 795.5 808.6 815.8 818.5 816.3 809.9 797.6 792.9 790.3 781.8 780.5 776 771.9 766 774.3 799.1 826.8 846.2 858.7 862.8 842.9 805.7 770.4 739.8 712.8 682.5 655.1 631 611.4 595.6 581 571.8 566.4 562 579.6 604.5 625.3 649.7 677.8 706.4 737.6 749.5 759.1 769.8 780 787.1 790 796.5 807.8 824.3 838.9 855.8 871.2 885.7 903.1 930.9 954.6 974.9 994.9 1020.1 1007.5 975 942.8 884.8 842.7 798 770.3 742 727.5 721.8 720.8 720.9 719.1 720.9 726.2 730.3 736.5 746.5 746 735.6 727.9 731.3 728.5 723.9 723.9 724.1 719.4 713.1 705.5 699.4 694.6 688.6 682.2 676.3 675 673.6 667.9 661.7 656.2 652 648 643.7 638.6 632.3 625.2 617.9 613.2 614.8 613.3 612.2 610.6 611 610.7 613 615.7 618.8 621.8 624.1 625.3 627.6 629.8 631.3 632.7 634.3 635.8 635.6 637.1 643.1 650.4 650.7 651.7 660.6 691.3 705.8 718.4 731.7 742.7 745.3 737.3 711.8 672.7 646.6 627.9 614.2 604.8 594 580.6 565.5 551.8 537.2 527.4 519.9 514.2 508.9 501.5 492.9 483.4 474.8 465.7 456.9 449.5 444.7 433.9 424.1 413.5 402 389.7 378.6 368.2 358.5 347.3 335.9 324.7 316.6 307.8 297.7 286.1 274.1 261.9 249.9 236.2 222.4 209.5 198.4
531.7 531.9 532.7 549.3 563.8 578.1 594 617.6 642.8 667.4 684.4 706.6 727.1 745.6 763.2 783.9 799.4 813.3 822 825.6 829.4 830.4 822.1 812.9 806.7 798.7 791.5 786.7 782.1 774.9 780.8 802.4 829.9 851.2 864.3 862.8 830.9 795.6 760.5 733 700.9 676.7 656.4 637.6 615.6 596.5 585.6 578 572.5 565.5 575.9 597.6 622.9 646.3 671.1 700.5 728.8 748.5 761.7 775.5 787.9 798.6 808.2 816.3 823.5 835.5 848.8 859.6 873.2 889.6 901.3 922.9 948.9 968.1 989 1003.9 975.8 940.8 891.7 837.9 808.1 771.7 743.1 724.9 717.6 717.3 717.3 717.3 717.3 717.3 717.3 718 723.4 728 731.8 727.4 724.3 721.7 719.8 720.9 722.4 723.3 718.2 711.5 706.4 701.1 696.3 690.5 684.3 679.7 674.8 671.4 667.5 661.6 656.3 649 644.6 640.7 637.9 632 626.1 621.3 612.9 606.7 604.1 598.7 595.6 602.8 600.8 602.9 601.8 605.1 608.1 610.4 611.8 613.3 614.9 617.1 618.3 618.4 620.4 619.8 622.9 625 626.4 633.8 643.1 659 679.8 691.7 702.8 716.2 725.6 732.2 726 696.6 659.1 632.2 615.8 603 591.8 580.4 567.7 551.1 538.9 528.6 520.8 513.5 508.3 502.9 493.9 485.3 475.9 467.2 459.1 452.1 445.2 437.5 430.3 418.3 406.2 395.2 385.3 372.7 359.8 349.1 339 327.5 314.5 307.1 298.5 288.3 276.8 265 253.2 239.8 226.1 214.7 203.9 192.8
534.4 534.7 532.7 550.7 565.2 580.2 595.4 614.6 641 666.4 681.3 705.7 725.1 742.8 761.9 782.9 799.5 813.5 823.6 832.6 840.9 844.1 844.2 834.3 820 810.2 803.3 799.6 793.8 786.9 788.9 803.5 831.9 856.7 868.8 867.4 837.8 802.1 766.3 739.2 707.5 677.6 652.1 632.2 613.5 600.2 591.9 584.9 578.7 574 573.4 592.9 618.1 643 665.5 692.4 719.7 743.7 760.1 776.1 792.1 805.3 817.5 827.7 840.8 854.8 863.5 870.5 878.7 894.4 902.1 920.7 940.8 962.6 967.1 967 930.6 891 850 816 783.8 753 730.8 721 717.3 717.3 717.3 717.3 717.3 717.3 717.3 717.3 717.3 719.8 719.1 718.9 717.6 717.3 717.3 717.3 721.2 721.3 715.6 709.8 704.7 700.8 696.7 691.8 686.1 681.4 676.9 671.6 667.1 661.1 653.3 651.9 644.8 638.3 635.6 634.2 631.2 624.3 619.5 615.7 611.9 607.3 596.8 586 583.3 590.5 578.6 584.3 594.5 597 598.3 599.3 600.1 602.7 602.6 600.7 603.2 600.8 605.5 607.4 614.2 624.8 630.2 650.1 662.8 674.6 685.5 697.2 709.5 716.1 711.7 682.8 643.7 621.1 601.8 591.3 579.7 570.4 557.5 543.3 533.2 525.2 516.8 509.2 502.3 494.8 486 477.7 469.7 461.7 455.3 447.2 442.1 432.8 423.4 411.4 399.8 390.6 378.8 368.1 358.1 346.4 332.7 320.4 306.5 297 289.2 279 267.5 256 244.5 231.3 218.9 208.6 198.4 187.5
