ncols 200
nrows 82
xllcorner 270000
yllcorner 350650
cellsize 50
771.4 781.1 788.9 797.2 807.4 819.1 827.7 837.1 849.8 854.5 858.7 856.2 846.9 809.3 767.4 735.3 670.8 637.8 607.9 587 574.1 574.1 575.1 554.8 546.2 542.8 534.4 534.4 534.4 534.4 536.4 537.5 535.7 523.1 509.5 491.1 480.7 465.2 462.4 447.3 436.3 422.3 419.6 417.1 397.5 392.2 374.4 356.3 346.8 330 330.8 334.3 326.6 332.1 334.8 332.3 327.7 321.4 310.9 305.4 297.4 287.5 280.8 277 273.1 270.9 270.7 271.3 255.8 252.8 252.2 252 251.2 250.8 252.6 255.1 248.8 247.2 246.2 246.1 247.5 248.4 248.6 247.8 247.4 248 248.7 250.5 252.9 254.6 256.1 259.1 262.5 265.5 266 266.9 268.7 272.8 275.6 271.5 270.5 270.3 267.1 267.9 270.4 275.7 268.8 272.9 279.4 281.9 286.1 286.2 288.9 286.8 285.7 285.2 281.6 274.8 269.7 271.8 271.1 269 254 247.5 248.4 252.3 252.5 255.6 255.8 251.3 234.3 242.5 236.5 235 231.8 229 230.5 216.6 225.6 237.7 243.2 249.4 255.7 251.7 253.7 251 246 252.9 250.8 243 244.4 256 262.2 262.4 264.1 260.7 254 250.5 259.3 257.2 256.6 243.9 238.1 236.3 221.2 215.9 226.2 217.3 214 214.6 211.1 218.5 234.4 233.4 233 232.3 218.2 218.1 221.4 213.1 206.7 200.5 176.3 168.3 165.8 173 166.5 134.4 93.9 83.5 76.2 64.8 65.3 50.5 27.2 25.7 17.5 25.7 35.5 52.2
775.4 784.6 794.5 802.7 811.1 820.8 830.9 841.2 852.6 861 866 859 837.4 789.4 750.7 716.7 677 636.7 610.6 598.5 596 589.1 585.2 555.2 548.3 539.6 534.4 535.9 535.2 542.2 544.5 542 535.8 508.8 485.4 473.6 463.6 452.9 448.6 427.8 417.1 415.3 416 400.8 391.8 374.7 353.7 343.6 331.3 327.7 330.1 326.6 324.4 330 327.4 323.5 316.7 314.6 311.9 306.6 299.4 283.3 279.3 275.7 272.6 271.3 270.9 274 252.6 251.7 251.6 251.9 251.7 250.6 250.5 249.5 248.7 245 245.8 245.8 244.9 245.6 245.8 246.4 247 247.6 248.7 250.4 251.6 253.3 255.2 257.7 263 262.4 263.1 264.5 266 270.8 270.3 266.6 267.7 268.1 259.5 261.6 262.9 258.3 261.3 268.4 272.4 276.5 279.6 282.2 282.8 280.4 278.7 277.3 275 271.5 267.6 268.1 265.4 252.2 247 245.3 246.7 248.8 249.3 249.1 244 239.9 228 230.6 232.2 229.6 228.2 227.1 222.5 214.4 222.8 241.9 246.6 247.6 247.2 253.9 249.2 242.9 247.7 251.7 248.6 243.3 243.9 252.6 251.5 253.6 259.3 253.4 256.5 244 248.5 253.4 257.8 239 232.5 232.8 225.2 211.3 222.5 210.2 205.4 201.5 203.1 216.5 230.1 230.9 231.4 230.9 213.3 214.7 218.4 210.5 207.8 190.3 176.8 163.7 162.7 171.9 149.4 117.4 101.4 90.8 82.2 77.2 75.6 58.9 42.7 25.2 17.5 27.7 39.9 48.4
779.1 787.5 799.2 806.6 817.1 823.6 830.9 841.4 852.6 863.6 866.1 843.2 820.1 799 780 717.8 675.6 650.5 626.7 617.3 609.2 594.1 577.6 562.3 550.7 542.1 540.1 545 550.1 547 545.4 532 518.9 494 484.5 466.1 450.2 439.1 428.1 414.2 409.8 404.1 398.6 394.5 367.1 359.4 338.2 325.9 322.8 319.3 318.7 321.7 321.3 318.7 316.4 314.2 314.2 315 308.6 302.8 290.8 284.5 277.1 274.2 271.2 270.5 275 258.5 252.6 251.4 251 251.3 251.1 250.6 249.7 248.3 247.2 246.1 246.7 246.6 245.2 244.3 245.2 246.2 246.8 247.4 248.5 249.8 250.4 251.9 253.3 255.2 255.8 258.5 262.1 263 265.1 266.3 264.7 260.8 261.6 255.6 258.7 252.2 251.2 252.3 260 264 271.5 275.2 279.7 281 277.8 273.3 274.6 274.4 276.3 269.8 265.8 264.4 260.6 248.5 245.1 248.9 251.1 248 251.4 245 238.2 230.6 219.5 217.5 216.6 217.8 217 223.1 218.9 211 230 245.9 251.7 248.7 246.1 245.7 243.5 241.3 247.1 237.6 237.9 237.5 243.5 251.5 252.1 249.9 252.4 251.8 248.5 237.1 243 246.8 237.9 236.4 235.3 222.5 223.5 205.4 204.5 200.5 197.2 195.6 197.8 217.1 230.4 229.3 227.1 225.9 209.9 214.1 205.7 210.9 207.9 187.5 184.3 161.1 163.5 153.2 138.4 125 111.8 101.6 88.2 87.3 72.3 48.9 39.9 23.7 21.2 34.9 41.5 48.6
784.3 796.5 808.2 811.4 814.6 823 826.7 833.7 839.5 836.8 826.5 808.8 792.1 775.1 764.8 749.6 705 677.3 651.3 638 634.9 613.3 595.1 585.8 580.7 557.8 546.6 550.8 553.5 548.6 529.4 513.6 498.5 481.5 458.3 448.4 446.4 422 409.4 406.4 395.8 393.2 388 370 351.2 345.1 327.1 316.4 312.4 307.4 312 315.1 316.1 315.2 312.4 311.1 311.3 309.7 301.2 293.4 287.9 284.3 278.7 271.8 269.2 267.2 255.2 253.5 252 251.1 250.6 250.1 250 249.2 248.1 246.4 247.4 247 246.8 245.4 243.3 244.1 245.1 246 246.6 247.2 247.9 248.5 249.1 249.6 250.8 252.4 256 260.4 262.8 262.1 265.5 262.2 258 256.9 253.2 252.8 251.8 248.8 246.8 252.4 256.9 262.3 268.8 272.4 274.5 272.6 267.6 271.5 275.6 271.6 267.5 269.8 266.1 254.5 245.8 244.7 248 254.6 246.9 244.8 242.1 241.4 233 222.8 220.2 223.6 217 213.6 210.4 216.1 209.5 213.8 229.6 246.9 244 240.8 242.6 246.4 248.3 249 244.9 238.8 226.7 232.2 241 253.3 249.6 253.5 243.9 242.5 241.8 234.8 239.6 240.8 240.4 236.3 232.5 219 221.7 204.6 196 196.8 194.5 193.5 196.2 212.5 233.1 229.1 226.5 219.3 209.4 209.3 203.6 207.9 205 187.3 178.6 159.2 158.7 150.4 139.7 140.2 128 110.9 103.2 98.8 77.8 51.7 37.9 21.1 23.7 35.8 41.9 48.3
789.1 800 807.8 812.6 807.7 803.7 807.8 812.3 809.9 805.2 793.4 777.1 765.5 755.8 743.9 731.8 718.6 709.6 694.8 689.9 664.4 639 622.5 590.3 583.2 561.9 551.7 550.9 545.4 531.6 510.9 504.5 484.7 473.9 456.3 446.9 443.5 436.2 413.4 395.3 391.5 383.6 362.1 360.4 344.7 342.7 317.3 305.6 301.8 301.7 307.4 309.5 303.3 309.4 310.3 306.1 303.3 296.8 291.8 288.3 284 280.4 272.6 267.2 261.7 257.7 256.3 252.1 250.6 250 249.5 249.3 248.9 247.1 247.7 248.4 248.8 247.5 245.7 244.1 244.1 244.7 245.3 245.8 246.4 246.9 247.3 247.9 248.4 249.2 251 252.4 253 258.8 255.5 256.7 255.9 257.5 253.6 251.2 253.3 247.8 245.4 247.8 248.3 251.3 254.1 262.2 266.7 267.2 267.9 264.9 263.7 266.2 269.6 257.3 256.8 262.9 245 241.2 234.7 246.3 254.4 249 244.3 237.3 235.9 239.8 231.9 222.6 223.1 225.8 222.3 216.4 209.8 210.1 210.7 210.6 221.5 235.8 237.3 239.9 243.8 243.9 244.1 239.6 239.4 236.5 221.3 227.4 232.7 240.2 242.1 243.4 245.5 245.5 242.1 233.1 243 235.2 245.6 240.2 220.1 217.9 213.6 206.3 190.8 190.4 188.3 189.2 195.1 207.3 222.3 226.2 221.8 212.3 207.9 205.2 201.6 207 196.8 183.9 167.5 157.9 156.7 161.7 150.5 145 132.9 117.7 107.1 94.4 76.3 53.1 31.8 22.7 24.5 35.8 41.8 47.1
784.4 787.9 791 789 788.6 788.7 789.1 786.6 780.4 773.9 764.1 754.4 743.8 731.5 724 707.7 701.6 689.2 672.3 661.6 636.4 624.7 592.6 578.7 556.8 549.7 539.4 529.9 525.2 517.3 504.1 487.9 486.1 467.7 456 449.3 440.5 420.3 404.8 399.4 397.2 385.2 365.8 351.2 340.3 322.2 310.8 302.1 299.7 299.5 301.4 298.8 297.6 304.6 308.5 302.8 296.3 290.5 285.8 284.6 281.3 272.8 266.3 260.8 258.3 257.2 254.4 251.3 249.4 249.1 248.6 248.4 248.3 248.9 249.8 249.3 248.6 246 244.4 243 244 244.7 245 245.5 246.2 246.8 247.3 247.9 248.5 249.8 252.3 251.9 251.7 251.3 252.8 254.6 258.9 252.3 250.5 248.6 246.5 243.4 241 242.5 249.2 249.9 251 262 266.6 266.9 257.4 255 264.4 259 255.5 251.8 242.3 235 231.4 228.3 234.5 241.9 242 237.2 237.2 235.4 231.9 233.1 222.6 224.1 214.2 215.9 218.7 224.1 211.9 202.2 206.1 208.8 217.9 227.3 232.7 240.5 241.7 240.1 230.2 233.4 227.9 224.5 216.6 222.3 226.2 238.6 245.1 243.2 246.3 243.7 226.1 235.4 238.4 231.5 230.3 226.9 223.7 222.7 214.5 206.9 188.7 187.1 185.8 190.5 195.2 202.5 213 218.1 215.3 203.1 202.3 200.6 202.6 201.1 190.9 183.2 159 158 166.2 177.9 164.5 145.3 132 118.2 111.6 96.7 72.2 45.8 29.5 23.1 19.6 33 42.1 45.8
767.3 773.4 775.7 778.7 779.2 781.6 779.3 770.4 759.5 750.3 739.9 728.9 720.3 712.6 696 684.4 670.3 656.2 637 626 617.8 599.7 586.1 550.1 532.5 532.4 531.8 511.7 508 498.6 487.8 484.7 476.1 471.1 472.4 456.1 428.6 400.8 400.9 404 392.4 384.4 360.1 351.9 328 317.7 310.7 301.9 295.1 295 293.8 284.6 291.9 301.1 300 297.3 288.5 283.9 282.4 281.3 277.4 270 261.8 258.9 257 254.2 252.6 251 251.4 250.5 250 249.6 249.8 249.7 249.6 248.4 246.7 243.6 243.4 243.9 244.5 245 244.9 245.4 246.2 246.7 247.3 247.6 248.3 250.4 252.7 252.4 249.2 250.1 251.4 251.2 249.4 251.8 245.1 236.7 237.6 234.7 239.9 243.1 247.2 245.1 253.3 257.8 259.6 253.8 248.6 247.7 252.3 239.6 238.6 226.4 222.6 230.2 223.3 230.4 235.5 234.9 235.7 235.3 231.2 222.6 223.3 215 221.5 218.2 208.7 209.2 207.9 207.8 209 199.7 199.2 205.4 211.9 229 232.8 237.3 235.8 232.9 231.1 228.9 223.9 210.3 207.7 217 223.7 236.1 232.8 238 226.9 220.6 220.9 225.3 219.1 230.2 225.8 224.7 219.4 228.7 224.8 201.5 186.5 186.5 187.9 197.7 198.4 203.3 200.7 204.3 201.9 200.4 200.5 200.7 205.4 200.9 188.5 184 157.4 158.5 176 186.7 173 149.3 126.7 113.3 112.1 93.3 70.9 45.7 29.1 22.6 21.5 37.6 45.7 44.5
757.5 765 768.5 770.6 772.9 767.7 760.1 750.4 739.3 729.4 715.5 707.5 700.5 686.4 672.7 656.6 643.7 632.2 620 607.2 594.7 590 578.7 551.4 533.4 522.1 516.5 506 504.6 503.8 500.3 486.4 483 473 454.8 437.7 421.1 405.3 400 399.2 395.3 371.2 356.4 340.3 327.1 314.6 305.6 298.6 286.6 286.2 283.5 280.2 287.5 293.2 290.7 286.6 281.7 279.4 279 275.9 267.4 263.9 260 257.4 255.6 252.9 251 253.7 250.9 251.3 250.8 250.3 250.6 251 249.3 247.1 243 242.7 243.2 244.4 244.5 244.8 244.5 245.2 245.9 246.6 246.9 247.3 251.2 250.6 250.5 247.1 249.2 245 249.1 244.4 246.3 240.2 235.2 232 232.4 241.7 237.7 239 241 241.6 252 256.1 252.5 245.9 245.6 242.2 240.7 229.6 222.5 218.3 214 214.5 221.6 227.9 233.2 236.8 228.9 222.5 204.1 200.1 201 205.3 210.3 209.8 213.8 221.3 206.4 207.9 207.8 206.1 197.9 203.2 207 219.1 228.4 230.9 232.4 233.7 238.8 229.4 217.2 206.8 199.5 208.4 214.7 217.5 220.4 220.3 212.9 210.5 215.1 210.6 216.6 217.4 218.5 212.8 214.8 219.5 203.9 188.9 186.2 184.8 192.5 201.1 203.8 202.5 201.6 200.4 199.5 202.2 195.2 199.1 199.3 186.9 183.9 170.5 156.1 159.6 180.2 187.9 168.5 140.8 121.9 107.8 98.3 89.8 69.3 44.2 29.4 21.9 22.3 38.6 47.7 45.4
752 759.8 763.2 766.1 760.2 745.2 735.8 722.8 719.3 710.9 698.5 682.2 668.2 658.7 649.9 639.7 628 614.1 607.6 592 589.1 579.1 568.8 552.8 535.1 522.6 518.2 516.1 502.4 493.9 491.1 484 469 456.9 445.8 423.1 414.3 407.2 392.4 388.6 380.8 362.5 355.3 347.7 325.8 311.7 312.3 306.5 279.9 277 271.9 278.7 285.8 288.3 284.1 279.8 277 274.6 271.7 266.9 262 261.2 259.3 255.5 254.2 251.6 254.5 253.8 252.2 251.9 251.5 251 250.8 249.8 246.8 245.2 242.9 242.9 244.7 244.1 244 244.1 243.9 244.5 245.1 245.9 248.1 249.7 249.3 248.9 246.8 245.1 243.7 246.3 243.2 238.6 237.3 235.9 229.8 228.2 231.5 235.6 234.5 235.1 235.4 240.8 241.7 241.4 242.9 239.6 241.6 230.1 224.3 213.8 215.9 211.7 205.9 212 218.7 226.5 227.9 231.4 225 207.7 187.8 182.1 194.5 201 203.9 211.1 213.1 208 191.5 187.7 189.9 194.1 193 204.8 211.3 199.6 219.6 227 225.5 212.4 217.6 219.1 209 201.3 192.6 204.1 208.3 212.5 217.8 210.3 204.6 207.5 199 201.9 213.3 204.7 215.8 211.4 215.8 218.9 196.7 190.3 179.8 184.5 194.1 205 207.2 202.5 198.4 191.7 194.1 195.9 191.5 193.5 184.2 181.6 177.4 173.5 152.8 163.4 172 176 159.1 134.6 115.1 103.4 97.8 91.4 58.5 36.9 30.6 21.9 23.5 37.7 41.5 42
744.8 750.2 751.6 750 733.1 717.5 704.4 698.3 694.8 684.6 672.3 658.4 650.9 638.7 630.2 620.5 618.9 615.5 604.1 593.8 582.4 570.4 551.6 539.9 534.2 521.9 515.7 502.3 489.2 481.5 479.3 472.7 463.8 452.8 427.4 409.8 402.8 393.3 389.1 390.2 368.3 361.1 354.8 331.9 319.9 315.5 308.6 300.5 272.7 266.3 268.3 277.8 283.1 282.4 277.8 273.9 272.5 269.2 265.1 263.5 259.7 258.3 257.1 255.7 253.9 254.7 255.1 253.7 253.6 253.1 252 251.6 248.1 248.8 245.8 244.7 242.9 241.9 243.8 244.1 243.9 243.6 243.5 244.5 244.8 250.9 251.6 253.4 250.8 247.6 246.9 243 241.7 240.2 237.6 236.3 238.2 231.6 226.9 228.1 228.2 231.8 228.9 227.9 231.2 237.7 229.2 232 226.1 235.4 222.2 224.6 209.8 201.7 194.5 198.6 205.1 221 221.1 219.9 225.7 218.5 198 183.6 177 179.3 191.4 195.7 205.4 202 192.1 185.2 173.9 172.3 180.4 185.5 188.7 203.3 198.4 188.9 205.8 205.9 200.6 198.7 195.9 192.8 191.6 192.5 189.7 196.8 201 214.2 202.4 198.6 200.3 204.5 189.9 204.9 211.4 201.9 203.3 206.5 204.7 197.3 184.9 176.7 174 190.8 194.2 212 200.6 202.3 194.2 178.7 176.3 179.3 180.3 181.5 171.3 165.7 165.4 151.5 146.7 156 166.8 165.8 150.8 123.4 107.3 91.8 80.5 61.8 45.1 35.9 29.9 24.7 21.9 26.6 37.5 40.2
719.7 722.6 725.6 713.7 701.2 692 682 675.6 670.6 659.6 651.1 641.4 632.6 627.3 619.1 614.6 611.7 604.8 592.9 588.6 573.2 570.1 560 542.4 524 513.7 504.2 492.5 481.4 481 475.4 468.2 452.6 438.6 423.4 408.4 395 388.3 389.2 383.4 369.2 357 346.9 327.7 325.7 311.2 305.4 280.9 264.5 263.4 268.6 275.8 278.4 276.9 272.8 269.3 268.1 264.9 264.1 260.4 257.5 256.5 254.9 253.4 255 254.8 255.6 255 254.8 254.4 252.7 250.5 247.7 247 245.7 244.6 242.7 242.6 243.1 243.4 243.3 243.1 243.1 244 246.3 251.2 250 249.4 248.9 247.5 249.9 242 240.1 236.2 237.6 235.6 233.4 225.7 225.3 225.3 228.8 224.6 218.9 226.5 229.4 222.3 222.6 223.5 217.1 214.5 217.8 199.6 190.9 187 188.7 196.7 209.3 219.4 214.3 216.3 211.5 195.9 180.3 186.8 171.2 181.2 186.3 189.5 185.6 180.2 167.3 156.7 152.1 164.6 161.5 163 169.2 173.8 171 170.1 190 187.1 189.4 197.3 191.2 186.9 182.9 189.7 170.7 185.8 191.9 185.3 183.5 186.7 191.1 191.5 183.7 199.2 202.2 194.7 198.7 192.2 183.8 177.3 172.3 164.4 176.1 186 188.7 192.6 192.8 194.7 191.3 170.8 166.3 171.4 180.8 176.8 161 142.4 128.2 127.3 132.9 142.1 153.5 152.9 137.2 120.7 93.7 73.9 54.3 43.2 36.7 32.8 30.5 25.4 21.9 28.6 23.1 24.4
690.1 690.6 691 686.5 678 665.5 656 647.9 645.2 640.1 633.3 627.2 624.7 621.2 611.5 606.1 602.3 597.3 591.1 582.7 578.8 564.4 552.3 536.3 521.7 507.2 502.3 489.3 482.3 468.1 463.2 449.7 432.8 426.4 418.1 403.7 386.6 388.2 392.8 375.2 359.6 353 335.2 325.5 315.5 305 282.9 268.1 260.7 261.9 269.6 272.4 273.5 271 268.3 265.5 265.1 264.5 262.3 258.9 256.3 255.4 255.5 255.4 257.4 257.8 257.7 257.3 256.6 256.2 252.8 248.2 246.5 246.5 245.1 244.3 243.4 241.1 242.4 241.9 242.1 242.3 242.7 245.5 250.7 253.2 249 249.7 247.4 247.4 244.6 245.9 237.8 234.6 234.6 234 225.3 225.3 225.7 228 222.8 213.2 220.2 226.3 217.5 206.7 208.9 204.1 208.1 203.3 197.3 180.7 178.7 180.7 188.6 200.6 203.8 211.3 200 199.7 177.8 158.2 161.9 160 170 165.9 170.5 178 178.4 152.6 133.5 132.4 135.8 138.5 137.8 142.3 150.8 161.4 161.7 151 166.7 179.8 185.7 185.8 181.5 171.3 160.8 154.2 149.2 165.4 167.1 169.4 176 177 176.4 169.9 181.6 189.3 194.1 187.3 189.4 192 183.6 177.6 169.9 162.6 169.8 192.3 181.4 177.9 175.6 177.2 170.3 158.2 161.6 167.6 168.1 147.4 124.3 107.4 103.4 106.2 113.7 129.3 134 131.7 127.5 114.9 67.5 48.6 37.3 34.6 29.9 26.2 27.9 22.7 28.7 35.9 39.5 38.6
665.6 659.5 660 657.8 649.9 639.9 631.1 627.1 622.9 620.5 619.3 614.2 612.4 609 605.1 603 601.3 600.3 593.3 587.8 580.8 567.7 557.9 541.9 533 499.9 485.5 482.9 472.9 455.3 442.3 432 431.7 424.2 408.6 392.1 384.2 388.4 377.3 364.9 354.4 344.3 326.7 317 309.7 287.2 270 260.6 260.4 261 267.2 268.7 267.6 265.1 263.6 262.9 263.6 261.4 258.9 256.9 255 257.5 257.6 258.2 259.4 259.7 259.5 259.9 257.5 256.8 251.9 248.1 247 247.4 245.1 244.1 243.2 241.7 241 240.9 240.8 242.1 244.2 248.6 250.5 250.4 248.4 248.2 245.3 245.4 244.2 239.9 233.6 230.7 223 222.3 225.3 225.3 230.6 231.1 211.2 210.2 214.7 218.2 202.5 200.3 197.9 198.2 207.6 196.1 186.9 169.6 172.6 182.9 191.2 192.4 200.3 208 192.5 182.2 159 146.1 143.6 151.4 158.4 157.7 170 144.5 135.3 117 118.7 124.8 119.6 118.8 115.3 117.2 122.5 130.7 140 131.9 148.6 161.1 174.7 152 154.4 149.4 125.1 117 131.2 147.8 133.6 147 164.7 157.5 147.7 171.3 176.5 182 180.8 181.7 181.8 179.5 184.5 168.3 147.9 151.6 159 165.2 173.9 164.3 164.2 158.6 151.3 144.8 144.9 140.6 119.5 100.2 88.3 81.8 81.3 82.6 85.7 97.3 89.4 78.9 66.8 52.9 43.7 35.2 32.5 31.2 29.3 32.4 31.5 32.5 36.9 42.4 46.5 46.7
639.4 638.6 632.8 629.6 626.7 614.4 612.1 608.2 605.1 602.2 601.9 603 603.6 602.7 602.6 606.1 606.8 602 594.4 584.7 577.3 564.7 549.8 540.4 527.2 496.9 476.8 473.3 466.3 445.6 430.4 422.2 413.9 404.5 394.1 380.6 379.2 373 360.7 354.4 339.7 329.7 318.3 312.3 302.8 280.3 262.9 260.3 259.8 260.8 265.1 263.3 261.5 261.7 261.2 260.6 261.3 258.8 255.8 256.4 256.4 259.5 260.4 261.3 261.7 262.6 263 261 257.1 254.2 250.7 247.7 247.2 246.5 245.9 243.8 242.9 242.1 241.8 240.5 240.5 242.7 247.2 248.8 249.2 248.7 250.4 246.4 244.9 238 237.7 238.2 233 224.7 218.2 216.9 221.2 227.5 226.7 221.2 204 209.1 218.6 202.9 196.8 198.4 194.9 201.1 192.2 178.2 163.5 164.5 180.2 182.8 187.6 195.4 185.7 184.9 167.5 160.4 136.3 132.2 136.3 141.7 134.5 133.9 131.4 124.8 110.1 96.2 103.9 115 112.5 110.9 108.3 104.2 102.7 103.2 108.5 109.4 115.9 122.9 131.2 119 111.8 108.2 97.7 99.6 105 108.4 105.1 112.9 123.2 122.9 128.5 156.5 147.4 158 177.4 190.1 184 173.2 181.9 154.7 136.6 140.5 144.3 145.2 144.2 147.2 146.7 139.8 126.7 117.9 108.9 99 86.6 69.3 63.7 60.2 59.4 59.9 60.2 57.1 55.6 48.3 41.5 37.7 33.8 28.8 28.4 29.6 35 37.7 38.1 36.9 43.3 48.1 51.4 55.5
616.7 613.7 610.5 606 599.6 596.3 592.8 587.5 589.2 590.8 592.1 595.2 601.7 605 607.2 605.8 598.1 594 588.6 583.6 572.3 558.7 544.5 533.9 518.9 488 460.9 453.9 448.8 431.8 422.9 417.6 400.1 382 378.3 373.1 369.8 365.6 356 344.4 332.6 325.5 316 305.2 283.1 269.3 261 259.8 259.5 260.8 262.4 260.9 260.8 259.9 259.2 258.1 258.3 257.7 258.5 259.7 261.2 262.1 263.1 263.7 264.4 265.8 263 259.2 256.4 254.4 251.5 248.2 245.6 245.2 244.7 243.8 242.8 242.1 241.2 240.6 241.5 243.4 245.7 248 249.8 249.4 247.5 244.8 239.9 234.7 227.1 225.3 221.9 218.7 214.4 218.8 230.7 230.5 213.8 202.1 200.9 213.8 210.4 196.1 198.4 194.6 201.2 188.2 169.3 156.9 160.9 166.9 168.1 175.4 188.1 181.5 181.3 160.5 149.6 150.4 127.4 122.5 117.5 115.1 109.1 106.8 108.5 113.3 98.4 104.4 103.5 93.3 110.4 117.9 111.3 96.2 87.9 90.9 93.6 92.1 100.1 106.3 100.6 95.5 91.9 86.5 82.5 79.9 87.6 95 101.4 90.5 90.5 89.4 104.5 112.5 112.6 117.4 130.6 150.9 152.9 162.2 164.1 134.7 119.5 127.3 129.2 130 123.3 123.1 113.5 103.8 99.6 88.8 78.5 64.2 56.3 48.9 49.3 48.7 47.3 46.5 44.1 40.2 37.7 36.1 33.6 30.7 33.2 35.4 37.5 41.2 40.6 42.9 43.4 43.6 48 54.6 58.5 61
595.7 592.9 587.1 584.1 584.1 583.2 571.3 567.1 569.9 573.4 581.8 589.9 598.5 605 602 602.3 589.5 588.6 586.6 576.9 565.4 551.3 539.3 521.6 507 498.2 460.6 451.7 449 433.5 422 408 378.7 377.9 377 361.7 361.6 353 342 330.9 324 316.7 304.8 281.3 269.2 262.3 260.3 258.9 259.7 260.6 259.8 259.5 259.9 258.3 259.2 260.3 260.3 261.2 261.9 263.2 264.2 264.4 264.6 265.1 265.7 264.3 260.4 258.8 256.4 254.2 250 247.6 245.1 244 243.5 243.1 242.6 242.1 241.1 240.9 241.2 242.9 248.2 249.8 253.3 249.3 249.4 245.2 242.2 231.6 225.4 219.1 214.8 211.2 207.9 214.4 224.4 224.2 206.5 193.5 203.3 206.8 194.4 194.7 182.3 183.8 172.3 156.4 146.1 153 159.9 164.7 168 159.1 150.2 146.7 142.7 133 131.1 125.8 124.8 117.5 112.7 110.7 106.7 106.2 103.2 103.3 103.2 107.4 104.5 96.3 87 85 84.5 84.5 83.6 81.7 80.7 79.8 87.6 87.7 83.8 80.3 76.6 74.3 74.9 73.8 73.4 74 80.8 74.8 75.6 79.5 74.2 81.4 84.7 83.4 94.8 107.1 119.6 124.5 122.8 113.1 102.8 118.1 107.8 112.8 97.6 92.2 89 79.9 77.2 64.7 52.9 43.9 40.9 38.6 37.1 39.2 37.3 36.7 36.3 32.9 32.9 35.8 36.2 37.5 40.2 43.3 45.3 46.7 47.4 49.4 50.9 51.3 52.3 58.1 63.3 66.7
578.8 577.6 571.3 565.9 563.6 562.4 551.7 557 558.6 563.8 564.8 571.6 584.6 588 588.9 580.9 576.6 576.8 577.9 570.7 556.2 537.2 525.9 509.4 495.8 476.1 455.8 438.1 431.6 424.4 399.6 384.3 382.7 367.9 368 352.3 349.2 341 333.6 322.8 311.2 295.3 280.4 269.3 262.7 260.4 259.8 259.1 260.1 259.7 260 259.6 258.3 259.2 261.2 262.4 263.1 264.1 265.3 265.7 266.4 267.1 266.7 266.8 265.6 264.3 261.5 258.9 261.6 252.1 249.4 246.7 244.4 242.9 242.8 242.6 242.8 244 240.4 239.9 241.7 245.4 252.7 252.9 250.5 248.5 248.8 241.7 237.8 231.8 225.6 219.9 217.7 215.9 213.3 201 194.2 201.9 187.5 191.3 200.9 188.5 191.1 172.2 169.7 158.9 151.2 137.1 138.5 145.6 153.2 154.8 146.6 142.8 129.2 119.8 116.6 114 116.4 112.8 110.3 110.1 111.4 112.1 108.1 104.7 105.6 110.2 107.6 104.7 103.2 104.1 108 107.6 88.1 82.1 80.1 79.2 78.2 76.3 77 75 72.6 72.9 73.9 72.6 71.1 70.4 71.2 72 72 71.5 72 76.4 69.4 68.9 67.9 69 82.2 78.2 83.8 92.3 94.2 93.2 90.2 102.6 85.7 88.8 84.3 77.1 72.5 65.9 56.8 45.7 39.3 38.9 38.3 37 37.7 37 37.5 38 38.4 42.3 45.7 48.9 47.1 48.4 51 54 57.9 59.4 59.5 61.1 60.5 59.3 58.1 63 63.6 65.3
559.3 552 549.1 543.6 542.3 543.8 544.1 548.1 549.3 553.4 555 557.7 562.6 564.2 567.8 570 572.9 569 566.1 555.5 535.7 522.5 507.9 490.4 473.8 457.1 444.1 429.2 425.2 404.4 381.2 373.7 365.2 357.5 349.3 348 342 335.6 326.1 311.4 291.2 279.4 270.7 263.8 260.8 259.8 258.9 258.9 259.3 257.5 258 258.7 260 261 263 264.6 266 267.2 268.5 268.7 269.2 269.1 269.2 269.1 266.2 262.9 260.5 258.3 255.1 251.9 249.2 246.2 244.8 243.8 243.2 242.1 241.9 244.6 239.4 240.5 245.5 253.7 251.8 251.5 247.4 246.5 242.3 238.1 233.1 229.3 226.6 225.3 219.5 218.6 210.7 207.5 207.4 191.3 180.4 178.5 179.9 186 169.1 157.3 153.6 152.1 137.5 134.8 134.8 133.9 130.1 131.8 131.5 123.8 120.8 122.7 110.6 111.5 108.7 108.2 109.9 109.5 108.3 105.5 105.1 114.1 128.1 151 130.1 114.4 109.7 111.7 113 107.2 90.3 84.2 83.2 83 83.8 84.6 82.4 81.5 76.5 74.2 73.8 72.8 72.7 71.9 71.7 71.2 71.1 69.4 69.2 69.3 73.5 77.7 76 68 68.2 60.8 64.9 68.1 75.6 75.3 73.7 73.6 72.7 70.6 67.2 61.9 58.1 53.9 42.2 39.9 39.5 37.6 37.1 38 39 40.1 42.5 48.2 52.8 56.7 60.5 60.9 64.8 68 70.5 73.4 78.5 75.4 75.3 74 75.5 77.1 79.6 79.3 75.3 73.4
535.6 530 530.4 532.1 528.4 527.5 530.7 538.7 541.7 546.6 546.1 547.3 550.4 554.3 561.3 564.5 561.5 556.5 547.5 531.6 518.3 499 483.4 469.1 458.1 446.1 440.1 428.3 417.8 386.1 375.3 369.8 354.7 345.2 343.4 340.2 332.8 329.1 327.7 297.7 280.8 273 265.3 262.5 260.8 259.5 259.7 259.9 259.5 260.2 260.4 260.7 261.2 262.8 264.2 266.7 269.2 270.5 270.9 271.3 271.1 270.9 270.9 269.4 266.3 263.1 261.3 257.9 254.2 251.1 248.1 246 245.1 243.9 242.6 241.4 240.2 239.9 238.8 243.4 251.5 254.5 250.7 246.9 246.1 244.3 244 244.2 236.4 234.4 236.7 224.2 221.2 208.8 206.9 208.4 205.1 182.5 177.1 178.7 174.9 161.7 152.5 150.2 155.9 152.4 135.4 134.2 131.7 134.5 134.5 141.6 149.3 146.9 141.5 125.7 111.6 109.5 119.9 118.1 119.6 118.4 113.7 113.6 115.3 129.1 143 163.8 149.3 125.4 110.8 106.6 106.4 99.6 92.1 84.7 83.4 83.3 85.1 90.3 87.9 84.1 80.3 74.8 73.1 75.3 82.4 87.3 84.4 72.6 72 72.2 72.2 79.4 87.1 96.2 87.3 77.6 72 56.7 58 54.5 56.9 58.3 56.7 55.4 59.9 57.6 52.9 52.5 48.5 41.1 37.1 38.8 40.7 41 40 39.8 46 52.8 59.5 67.3 68.5 73.7 74.2 77.6 80.3 84 86.2 89.2 93.5 95.2 96.4 98.5 93.5 95.4 103.6 105.2 99.4 94.1
519.5 520.4 515.9 514.6 512.2 514.7 513.3 521.1 522.6 531.3 535.3 535.4 542.5 550.7 557.9 558.4 552.2 553.7 545.2 531.4 516.5 499.9 488.3 483.3 471.7 459.1 450.8 439.5 404.1 378.5 366.6 352.2 341.5 339.5 338 329 324.4 329.6 304.7 284.2 276.3 270.4 265 262.4 260.2 260.3 262.9 261.9 260.2 260.5 261.7 261.6 262.6 263.9 266.4 269.2 271.8 273.9 275 275.1 274.6 273.2 271.6 269 266.8 263.3 260.4 256.7 253.8 249.6 247.6 245.5 244.8 244.6 241.6 238.4 237.9 236.7 242.2 247.1 249.2 248.7 247.6 247 246.7 251.7 245.4 243.2 237.7 241.4 232.5 218.5 217.4 208.6 204.3 200.3 190.7 176.7 174.4 174.7 174 161.4 146.7 150.6 161.1 147.9 134.4 131.2 134.8 142.9 151.2 149.5 131.9 128 128.1 117.6 112.8 119.1 131.5 145.4 148.1 140.5 129.4 115 128.1 145.4 157.4 156.7 152.4 130.8 110.8 107.6 105.2 102.6 98.6 88.1 83.5 84.2 85.1 85.3 95.6 101.9 94.9 82 86.3 93.2 98.4 100.3 98.5 92.3 87.5 87.3 88.6 94.4 99.5 102.7 94.4 89.9 79.4 64.2 49.4 53.1 52.3 52.9 53.5 52.1 47.8 44.1 43.3 42.9 40.6 38.1 40.6 41.3 41 40.1 41.8 52 62.4 66.4 69.8 80.6 88.2 93.4 96.9 97.5 98.6 98.7 102.5 106.4 109.8 112.1 113.9 114.7 117.2 118.4 122.5 124.5 119.1 115.2
504.1 499.8 500.9 499.8 501.5 498.9 503.9 509.3 511.4 516.7 517.5 525.1 530.7 536.9 537.2 543.6 546.9 540.6 526.6 515 503.6 490.7 485.3 474 462.8 457 452.4 418.7 388.1 369.3 357 343.7 340 344.4 353.5 326.1 306.5 294.6 284.6 277.3 274.4 270.2 270.3 270.3 262 264.7 265.9 262.8 260.8 260.8 261.4 262.3 263.7 266.6 269.3 272.3 275 277.7 278.7 278.8 277.2 274.6 272.2 270 267.4 263.6 260 256.1 251.4 249.4 246.1 244.5 244.7 240.8 238.1 236.8 235 240.6 245.6 248.2 248.8 248.5 248.1 248.3 251.8 248.8 242 239.8 238.8 234 218 222.1 211.7 205.8 196.6 197.8 185.6 155 173.8 168.5 168.3 157.3 145.3 144.8 150.2 135.1 131.5 134.1 142.2 156.4 163.2 146 133.3 128.5 120.1 120.9 125.8 144.3 165.1 174.1 179.2 163.8 146.6 128.9 141.7 150.4 150.5 145.8 138.2 128.1 121.6 120.8 120.2 117.6 110.3 103.4 101.2 92.5 89.8 89.9 92.9 96.7 96.2 97.3 101.3 106.3 111.9 111.2 109.4 100.7 96.7 100.8 102.9 104.4 106 104.2 96.5 92.7 78.8 65.3 52.5 48.2 45.8 43.6 51.2 46.6 44.7 44.4 42.7 38 42.2 42 41.9 41 40.8 49 55.6 68.2 79.6 86.3 88.6 91.3 103.2 114.2 118.1 120 121.8 122.1 124.7 128.8 128.1 129.2 131 132.1 135.2 136.4 142.6 143.1 139.4 136.3
491.2 489.1 487.1 487.1 486.2 486.3 490.9 494.3 507.6 512.6 511.7 508.5 507.7 517.6 522.5 526.9 528.2 523.5 514.4 501.3 489 479.3 466.9 461.1 451.7 445.1 435.9 427.8 367.7 362.7 355.8 343.3 346.6 348.7 337.9 330.7 312.4 295.4 280.9 277.2 279.4 277.2 273 263.7 263.7 265.3 263.2 261.6 261.3 261.6 262.7 264.4 267 269.5 272.3 275.2 279.2 281.9 282.2 281.4 278.8 276.2 273.7 271.6 267.2 262.6 258.8 254.6 249.9 247.4 243.9 242 240.1 236.9 236.3 237.6 234.4 241.6 244.7 248.1 249.3 251.9 248.7 248 250.3 247 240.6 238.1 229.6 227.4 215.4 213 208.7 196.1 202.1 192.3 192.1 190.7 178.1 169.7 158.6 149.3 142.3 138.2 135.6 132.8 134.7 138.7 148.8 157.6 165.6 161.4 149.6 138.6 131.5 134.1 150.4 172.8 193.5 202.7 207.1 190.1 164.5 151.3 156.2 163.3 164.5 158.1 143.2 137.1 136.1 135.6 131.9 131.2 124.4 118.5 116.6 111.2 101.5 100.5 100.1 101.7 107.4 108.9 115 119.9 122.2 119.1 114.9 110.7 109.5 110.1 111.6 112.2 112.5 106.7 94.6 86.4 75.6 63.8 55.1 51.5 47.5 44.6 42.6 45.4 44.9 40.7 41.6 46.7 45.5 46.5 48.7 52 55.6 61.5 72.8 88.1 99.8 111.3 111.5 112.4 122.7 130.2 138 142.2 145.8 148.9 152.2 155.8 153.1 154.2 151.4 155.4 156.7 156.6 161 160.3 150.4 145.8
476.6 478.8 480.2 478.8 478.1 483.2 481 480.2 483.9 490.6 493.4 496.3 494 500.2 508.8 511.3 507.7 502.3 490.8 482.2 472.8 466.7 459.1 454.2 447.9 438.9 426.2 399.5 358.8 363.6 346.5 340.9 343.3 345.6 329.1 325.2 301.3 295.1 283.5 284.1 283 277.8 267.2 265.6 265.8 265.1 263.2 262.7 261.9 264.9 267.8 271.6 271.1 273.8 274.8 278.8 283.6 285.2 284.3 282.6 280.4 277.8 274.2 271.1 266 260.7 257.8 252.7 248.4 246.3 242.8 239.6 237.4 235.6 237.9 233.6 238.7 240.8 243.3 245.4 250.2 251.9 250.1 248.3 248.8 242.4 245.4 239.9 226.3 217 214.4 215.1 199.1 194.7 201.4 187.3 189 178.1 177.7 168.7 162.7 152.7 143.3 135.2 134.2 134 144.1 154.5 160.1 158.7 163.4 156.3 158.1 148.6 145.3 157.8 180.8 195.9 206.9 215.8 220.2 202.7 184.9 180.4 175.7 183.8 186.3 179.4 171.5 154.7 152.5 148.3 141 136.4 131.9 128.4 125 122.1 118.6 115.9 118.6 122 123 129.7 137.9 140.6 136.8 130.7 125.8 121.4 122.1 120.7 118.8 116.7 112.6 102.9 93.1 82.3 70.8 60.5 54.6 51.1 47.4 47.6 44 42.9 43 41.9 52.7 52.2 51.5 53 56.6 61.1 69.1 80.3 99.2 113.4 125.4 137.7 138.6 131.5 138.9 149.3 159.3 165.6 169.2 171.8 173.8 171.4 173.5 174.1 172.7 173.1 175.4 176.8 177.1 174.8 168.9 165.1
464.4 467.3 475.8 472.9 466.8 476.8 469.7 462.9 459.6 468.8 470 475.2 482.6 488.7 478.6 475.6 479.5 478.4 478.4 472 466.1 460.8 452.1 442.6 439.2 429.3 410.7 380 354.6 356.4 348 339 334.5 331.2 321.5 304.9 295.6 291.2 287.2 286.4 284.1 269 268.6 272.9 265.8 264.5 263.1 262.8 264 269.5 272.7 274.2 274.7 276.2 279.1 283.1 286.2 286.5 285.5 284.1 282.2 278.4 274 271 262.9 259.8 256.3 251.3 247.9 244.8 240.9 236.9 235.9 234.7 231.5 235.6 238.1 239.5 241.9 246.4 251.9 249 247 244.6 243.1 245.4 246.8 228.4 220.8 211.4 208.8 204.1 199.8 184.5 178.4 176.6 176.2 171.4 169.1 167.6 164.6 155.3 135.3 133 131 138.7 155 169.7 174.3 176.9 169.5 165.6 183.3 163.3 169.8 188.3 198.9 206.7 217.3 228.1 234 226 221 209.4 204.5 213 218.5 222.5 223.6 205.6 199.3 169.1 163.2 159.3 145.3 143.1 139.4 138.5 142.8 140.8 145.8 152.5 161 173.7 177.5 169.8 159.5 149.8 139.1 134.4 130.8 128.9 127.1 122.4 114.4 102.4 91.1 82 71.6 57.4 54.4 51.6 52.9 52.7 42.2 41.1 42.6 54.6 59.1 61.4 63.1 62 66.3 77.1 89.7 105.7 122.7 136.1 151.8 163.3 166.7 158.5 161 171.2 183.1 186.3 188.5 191 191.9 190.3 188.5 188.4 189.5 191.5 194.8 197.3 195.3 193.4 188.7 186.2
440.3 445.4 469.2 467.3 452.2 452.3 446.8 445.9 446.3 446.9 453.3 461.7 469.8 461.8 463.1 461.3 463.9 466 467.5 462.3 459 453.4 437.4 431.6 429.4 422.6 406 360.4 350.7 347.2 337.1 334.4 330.3 317.4 307.5 303.3 296 294.2 289.4 287.3 278.8 270.8 271.4 272.9 265.9 264.5 263.4 263.6 268.9 272 275.1 277.8 279.3 281.3 282.9 285.2 287 287.5 287.6 286.2 281.6 276.3 271.4 266 262 257.6 253.3 250 247 243.7 238 235.9 234.6 233.7 230.5 232 236.3 237.4 239 244.3 245.8 246.6 246.2 243.1 245.8 248 236.1 220.1 215.5 206.6 196.7 184.2 177.3 168.4 165.3 166.4 166 164.2 154.8 151 143.3 135.4 133.3 133.4 136 147.7 165.7 170.4 175.6 182.6 186.1 188.8 178.5 176.8 193.7 202.2 211.8 223.7 225.3 231 232.1 242.6 257.1 251.1 225.1 232.9 247.6 259.5 260.9 248.3 215.4 200.7 200.3 199 186.6 163.9 161.8 159.5 170 174 180.2 187.6 209.1 231.7 232.5 199.7 183.2 179 158.8 144.2 141.8 138.5 133.6 125.2 115.4 102 91.6 79.3 64.9 56.7 53.8 53.8 54 53.8 56.8 56 61 63.3 65.3 68.3 70.3 74.4 85.5 97.5 109.5 126.3 144.6 159.4 173.1 186.7 185.6 181.4 184.2 193.7 204.1 213.8 217.6 219.6 215.6 209.6 209.5 210.1 211.7 212.4 215.5 219.2 219.6 216.7 215.4 210.8
426.4 430 430.2 432.5 436 436.8 430.8 432.8 435.3 440.4 443.6 445.3 445.3 440.3 444.6 451.2 452.7 460 460.1 448 440.4 438.2 422.6 417.5 419.5 411.4 383.7 347.1 341.3 334.3 332.1 330.8 324.1 310.1 306.4 301.6 296.7 294.5 287.9 283.2 273.4 273.5 275.7 266.6 265.7 266 264.3 266.8 270.3 277.1 277.9 283.2 284.5 283.8 286.5 288.8 290 290.5 290.3 283.6 278.9 274 267.1 262.8 261.3 255.7 252.1 249.2 245.3 241.1 234.2 234.4 232.9 229.3 229.7 228.4 232 234.9 238.3 241 242.5 244.4 241.2 242.9 244.1 235.7 218 211.8 204.8 184.3 178.2 168 160.4 154 152 149.6 149.3 147.2 137 136.4 135.1 133.8 133.9 131.4 138.1 153.1 166.6 174.2 179.1 182.9 187.6 192.1 182.2 191.7 205.3 226.5 239.4 244.1 241 238.7 247.2 260.7 269.8 275.1 273.8 278.2 280.7 284.9 281.9 268.3 241.4 244.1 243.7 238.6 215.4 207.6 200.8 195.1 209.4 215.1 214.7 227.6 249.5 274.9 277.7 242.7 230.7 218.9 177.8 160.7 151.6 140.9 131.3 123.6 116.8 106.9 91.5 77.3 65.6 56.8 54.3 55.1 54.8 55.6 66.5 69.2 74.8 73.4 72.3 75.8 84.2 94.6 105.6 119.1 134.1 150.8 166 180.9 193.4 202.4 204.8 206.2 208.4 212.6 229 239.3 240.1 240.9 237.2 230.1 227.5 227.9 232.6 232.9 235.8 240.9 243.2 246.3 241 233.3
411.2 414.8 409.5 417.9 421.7 419.4 420.1 423.8 432.5 437.9 428.6 421.4 422.4 428.8 433.2 434.2 441 449.1 437.9 433.4 430.2 428.5 417.8 401.8 391.9 381.4 357.1 346.1 331.5 326.9 326.3 320.6 311.7 309.5 304.6 300.4 297 291 285.1 277.7 272.8 271.3 269.3 266.8 266.4 266 267.9 271 271.8 275.2 278.2 283.2 283.8 285.3 287.8 292.4 292.6 291.5 286.9 279.1 274 268.9 264.3 260.2 256.1 252.7 249.2 244.6 240.9 234.7 230.5 231 228.9 224 220.9 225.7 229.3 232.5 234.9 235.4 237 238.3 239.6 241.6 232 221.7 205.6 200.9 183.5 164.9 154.4 149.8 147 142.8 140.2 138.8 137.5 135.9 135.2 132.1 132.1 132.1 131.4 135.5 156.4 169.6 177.5 194.7 201.4 206.5 216.8 190.8 194 210.6 234.5 247.8 256.9 260.3 258 257.1 266.2 281 288 289.1 296 296.7 298.5 295.6 289.6 276.2 277 282.2 282.2 273 240.6 239.2 235.1 229.3 241.6 247.5 258.3 269.2 285.6 294.5 294.4 281.9 265 236.7 192.8 178.8 162.7 142.6 125 121.1 115.1 107.2 90.7 74.2 61.9 56.9 55.1 57.8 57.5 67.7 75.4 82.2 84 87.9 88.9 98 106.1 117.2 131.3 145.1 156.8 173.5 186.6 202.3 209.2 215.1 217.9 233 241.7 243.8 258 261.9 259.6 252.5 249.8 244.9 238.2 240.4 253.3 253.3 253.9 260.7 265 267.2 265 254.1
397.6 401 403.1 407 407.3 410.4 413.9 413.3 406.9 405.1 403.2 403.5 406.6 407.9 418.5 418 420.9 419.6 417 413.2 414.2 407.7 395.8 379.5 371.4 361.1 341.5 335.9 326 323.2 319.8 314.8 311.1 308.3 302.1 299.6 296.6 292.3 289.8 273.5 271.6 269.6 267.9 267.5 267.3 268.2 273.8 273.8 275.1 277.6 280.8 283 284.4 285.9 288.8 293 291.8 286 278.9 275.7 271.3 265.1 262.8 256.3 252.9 248.1 244.3 241.7 233.6 228.2 227.1 226.6 224.2 220.7 216.4 223.7 225.9 226.8 229.4 230 233.2 235.2 233.6 230.8 229.5 217.7 207.2 206.5 182.5 162.5 149.6 147 145.6 139.5 136.6 133.4 133.3 132.8 133.2 133.6 133.3 132.9 133.2 142.3 164.9 187.1 199.9 210.8 214.9 218.8 213.7 208 218.6 236.6 249.8 261.9 273.5 278.1 276.5 275.4 284.4 294.5 303.7 307.3 310.1 308.9 307.4 302.2 291.4 294.9 296.5 296.9 296.3 277.4 262.7 264 265.8 261.7 267.1 278.3 288 297 303.2 310.5 309.2 300.6 292.1 263.3 235.2 217.2 185.9 147.8 123.7 115.6 110.3 101.7 86.1 73.6 65.6 60.8 61.3 63.4 69.9 86.4 93.1 95.4 97.7 104 110 117.2 130.1 143.8 154.2 169.2 182 194.3 208 220 227.5 233.4 242.7 252.4 261.8 264.4 267.3 269.6 266.5 261 256.5 251 250.6 252.2 261.4 264.9 266.1 274.6 281.8 285.2 285.2 273
386.5 391.9 394.4 400 402 402.9 403.9 403.5 400.3 398.1 393.6 390.5 392 391.4 390.9 401.8 407.6 402 393.1 385.2 374.5 361 359.1 356.2 355.3 339.8 333.3 329.5 321 317.1 314.5 311 306.9 303.5 301.6 299.6 294 288.1 281.1 270.6 270 272 268.1 268.1 267.7 269.5 274.8 277.6 281.2 283 283.7 284.6 285.1 289.1 290.4 289.7 285.1 279.5 275.2 270.4 263.9 260.4 256.1 252.7 248.9 243.7 237.8 232.1 225.5 224.4 223.4 222 217.6 215.6 217.1 219.6 222.1 222.4 224.9 227.4 229.6 232.1 238.1 237.8 231.3 219.5 215 192 183.6 156.4 147.8 161.5 165.3 139.8 134.6 132.1 134.9 144.2 136.1 136.3 136.4 135.6 137.8 153 168.6 182.7 200.9 211.9 215.2 216.5 219 224.4 236.9 249 260.4 274 281.1 288.5 289.5 287.6 292.8 304.8 315.1 320.4 320.8 319.6 319.3 318.5 315.2 318.3 317.3 315.8 313.5 295.7 293.1 297.5 296.5 285.4 292.2 297.2 303.7 309.3 314.4 319.1 311.6 300.1 291.3 279.2 271.2 251.1 187.3 149.7 125.1 115.4 106.5 96.9 89.5 82.8 74.3 68.7 71.7 79.3 88.9 99.9 107.1 112.2 115 123.8 131.4 137.7 153.5 170.5 182.6 193.3 205.6 215.3 224.6 232.6 241 249.4 260 266.6 271 273 274.5 275.4 272.9 268.9 264.2 262.1 261.2 262.9 266.2 270.5 276 282.6 288.9 297.8 292.4 280.5
382.4 388.3 392.5 396.8 400 402 402.6 404.9 414.4 408.4 405.7 390.2 387.3 378.8 381.1 379 378.2 371 363.9 353.5 350.3 348.8 345.6 341.8 337.6 330.1 326 320.1 312.1 309.4 307.7 306.7 303.9 302.5 300.4 295.4 293.3 290.7 272.7 269.3 269.2 268.7 267.7 267.3 269.6 272.5 277.8 281.6 281.5 281.9 283.5 284.3 286.7 289.7 288.5 284 279.2 275.6 270.7 263.4 259.2 254.8 251 246.8 241.9 237.1 230.9 224.5 222.5 220.4 215.7 214.1 213.4 212.1 216.2 217.9 218.1 219.9 220.8 222.2 230.3 235 241.2 235.4 217.6 214.2 203.8 205.5 184.6 152.8 146.5 151 144.8 135.7 132.5 133.3 151.9 155.9 153.7 138.9 136.8 142.5 162.2 179.3 190.6 198.2 205.5 216.4 217.7 221.5 229.1 239 249.1 256.2 265 273.7 284.6 289.1 290.7 294.1 301.9 312.5 319.8 323.5 326.2 326.9 326.4 326.1 321.6 324.4 327.3 329.7 322.2 322.3 320.3 312.3 309.2 298.5 302.5 310.1 314.8 317.3 320.1 317 301.4 295.8 289.3 278.5 263 245.4 220.5 152.2 126.8 116.9 105.5 98.5 96.7 91.4 86.1 83 88.2 98.7 106.3 116 122 130.7 131.1 139.9 150.7 164 178.8 193.6 206.3 216.2 222.9 231 237.9 246.9 252.1 263.7 270.5 275.1 280.4 281.5 281.7 281 280.8 277.3 279.2 271.7 268 268.5 271.9 275.8 281.7 288.5 291.4 296.2 293.8 280
385.5 390.4 394.3 397.6 401 402 400.6 401 401 397.9 390.4 387 380 373 367.6 365.8 361.4 355.1 352.2 345.8 339.9 337.8 335 326.2 318.5 315 312.1 310.4 303.1 303.4 305.1 304.5 304.3 301.2 300.3 296.1 292.8 279.8 268.4 267.9 268.8 266.7 265.5 267.2 267.5 271.8 275.5 277 278.9 279.9 282.5 285.5 287.8 286.4 282.9 279.3 273.9 269.1 262.9 258.5 253.1 248.5 245.1 239.7 235.9 230.5 222.1 219.4 217.7 215 212 212.6 212.7 211.9 215 216.9 218.9 218.9 218.5 221.2 226.7 230.9 229 218.1 215.1 211.1 213.9 199.5 187.2 142.2 137.8 136.2 135 133.4 132.8 134.4 144.7 152.2 153.3 147.4 144.6 155 165.6 177.7 186.5 194.3 203.1 211.7 222.4 228.3 236.6 251.3 261.2 270 282 287.4 290.9 294 298.2 302.6 312.8 322.3 326.9 330.3 334.8 334.7 330.9 327.7 329.4 330.3 330.2 332.6 335.5 329.1 330.8 320.3 316.2 308.1 311.4 319 323.1 323.6 314.1 308.4 300.1 287.6 277.9 271.1 262.3 247.5 193.6 158.8 129.4 115.5 104.4 102.8 104.1 101 98.1 98.9 106.3 116 127.3 132.2 141.5 154.1 157.1 162.8 179.3 191.4 206.9 214.1 222.9 232.6 236.4 243.7 250.8 256.8 263.9 274 282 287.1 292 293.6 292.2 291.3 290.8 288.4 283.3 282.7 281.3 280.9 280.9 282.1 288.2 295 293.7 294.5 287.4 276.9
385.6 390.4 393.4 396.4 397.5 398.6 400.3 400.1 396.6 394.6 390.7 385.2 378.6 371.6 364.7 352 349.5 345 340.1 333 328 322.5 315.5 306.1 304.1 303.4 300.9 295 294.4 294.1 298.9 303.4 303.4 299.4 299.5 293.8 281.9 269.5 267.2 265.6 262.6 262.5 263 264 265.5 267.7 272.2 274.7 277 279.8 282.5 285.2 284.1 280.5 275.4 270.7 266.4 262.1 256.6 251.4 247.3 242.6 238.1 236.2 233.4 222.1 215.8 214.3 212.7 208.8 208.6 212.3 212.9 214.5 218.2 219.4 220.6 216.5 217.3 227.2 224.4 226.7 222.9 216.4 215.7 206.9 208.3 187.3 163.9 137 135.5 135.1 134.7 134.1 133.8 137.5 149.3 158.1 160.2 158.6 159.4 176.3 197.3 191.9 199.5 217.2 225.8 226.6 242 250.5 254.3 263.1 274.1 281.7 286.4 291.5 295.3 300.9 305.6 311.5 321.6 328 333.6 341.2 346.8 342 335.1 340 340.1 334.1 334 335.8 335.9 334.1 335.8 330.3 320 313.6 315.4 325.2 326.9 320.9 312.8 301.9 290.6 281.2 272.7 268.9 257.3 241.1 186.5 155.6 130 111.5 110.4 116 120.6 114.1 116 119.3 128.3 140.5 145.7 153 167.5 182.1 174 182.3 202.5 211.8 222.5 230.5 238.1 243.6 249.4 253.5 260.9 268.1 272.9 282.5 292.2 298.2 302.5 299 298.3 298.4 298.4 292.5 289.1 292 291.3 291.5 285.9 290.1 295 296.6 294.1 296.6 291.6 285.1
383.4 387.5 389.8 390.4 391.8 394.2 395.7 395.2 396.6 394 389.5 381.7 374.6 365.5 355 346 336 333.5 331.6 322.5 310 306 301.4 296.7 290.8 289.4 288 289 291 292.4 297 301.2 296.7 291.2 289.5 279.5 270.2 268.1 264.1 263.8 259.8 259.8 260.8 262.6 265.5 269.1 271.1 273.9 276.2 278.6 280.6 278.6 273.5 270.8 269.7 266.1 261.1 254.6 248.6 244 240.4 237.8 233.6 232.2 222.5 212.3 210.3 207.6 207.3 210.4 212.2 214.9 214.2 215.6 219.1 221.6 217.2 214.2 215.2 221.9 217.1 217.3 219.3 210.4 209.4 204.4 195.7 165.3 144 137.3 135.8 135.1 134.1 132.5 133.6 139.9 161.4 171.4 173.6 170.7 170.1 182.4 206.8 223.7 231.7 241.9 248.1 255.9 255.1 261.7 266.7 272.6 280.2 286.4 290.3 296.4 299.8 307.6 310 317.2 323.2 331.8 337 344.5 346.8 345.9 342.9 343.4 341.2 341.5 344.4 341.3 344.2 341.9 335.6 332.3 323.1 319.4 322.6 325.1 326.9 320 303.9 294 286 279.8 267.6 258.6 248.2 241 193.3 157.8 128.1 120.8 121.6 124.7 129.9 134.3 138.4 143.3 145.8 158.5 166.8 178.9 198 196 191.7 203 216.1 227.9 237.3 243.3 250 253.9 260.2 265.6 271.8 275.3 283.4 288.5 298 305.4 306.1 304 302.2 298.5 298.3 295.3 293.5 302 298.2 297 290.2 292.5 297.8 294.1 293 297.3 297.5 289.2
380.6 384.2 386.1 386.2 387.5 389.4 391.7 391 392.6 395.9 390.8 385.2 373.8 364.8 354.4 342.4 328.4 316.3 308.3 303.7 299.2 298.6 287.1 282.8 283.2 282.1 285.8 287.3 289 297 300.5 295.6 292.4 279.6 273.5 270.5 265.8 263.3 260.7 259.3 257.6 258.4 260.2 262.9 264.8 267.8 270.7 271.7 272.8 271.9 270 267.4 267 265.1 263.3 257.3 252.8 245.3 240.9 236.4 233.5 230.7 222.1 215.2 206.3 204.7 204.5 205 211.1 213.2 215.5 214.8 214.8 215.7 219.1 216 211.6 209.7 211.5 214.6 216.6 216.7 204 201.4 199.4 195.6 180.5 163.4 140.9 140.6 140.8 135 134.5 132.5 133.5 143.2 161.8 168.8 173.3 172.6 179 193.9 219.7 235.8 237.6 242.8 253.7 262.8 267.5 265 278.5 285.7 287.9 290.5 295.4 299 304.7 312.7 317.1 324.2 329.4 333.8 342.1 349.7 350.8 345.5 345.6 348.3 347.8 353.3 351.8 347.9 351.4 346.8 340 334.6 328.4 319.7 317.6 309.6 314.6 306.5 296.7 287.8 276.1 265.8 255.6 250.9 245.9 233.4 186.8 159.7 130.3 136.1 139 143.7 149.5 153.7 158.8 162.3 160.4 174.6 184.8 198.6 207.2 202.4 210.3 220.2 231.4 239.8 247.5 252.8 259.3 262.9 272 278.6 282.1 283.3 292 294.3 304.2 310.3 310.1 309.1 302.6 300 300.8 301.1 301.5 304.5 301 297.3 297.3 300.4 304.7 300 294.4 295.1 295.3 287.9
375.8 378.4 379 380.4 379 378.6 381 377.8 377.3 375.5 372.2 370.8 371.4 356.4 347.6 335.2 317.5 301.9 299.8 297.9 291.7 283.6 277.7 275.8 275.6 278.6 281.5 282.1 283.5 288.8 286.5 279.3 272.2 272.3 267.4 262.9 260.9 259.2 257 255.8 255.1 256 258.1 259.7 261.7 264 265.9 266.4 265.5 264.2 263.3 262.6 261.4 258.6 256 251.3 241.6 238.7 233.3 227.8 224.9 222.9 215 209.1 204.7 203.8 209.4 214.3 218 221.1 216.5 214.5 214.9 218.5 215.5 216.5 210.4 205.4 206.3 212 215.9 209 206.2 206.9 198.7 193.1 177.5 156 141.5 142.9 136.5 135.8 133.2 132.5 134.9 150.6 163 172.1 183.6 188.3 198.3 221.1 232 240.7 243.7 253 261.1 267.7 268.2 276.3 283.3 288.6 289.6 295.6 299.4 301 307.6 317.2 323.4 329.5 334.5 338.8 346.3 351.6 351 349 347.3 348.5 350.6 353.8 351.8 353.4 353 350.7 344.7 335.4 324.7 313.9 298.8 295.9 292.9 294.8 286 279 257 253.7 248.8 245.5 233.2 225.2 193.4 167.3 146.1 153.2 157.3 163.2 169.2 173.5 179 179.5 176.9 195.9 204.5 212.2 212.9 212.2 227.1 234.1 242.2 245 253.3 259.5 266.9 276.8 281.7 285 288.5 294.2 298 300.9 311.3 314.6 314.1 313.7 311.6 306.9 304.1 304.4 305 303.3 301.1 298.6 304.5 306.9 306.4 302 297.9 294.6 287.9 278.2
367.4 368.4 370.4 371.3 373.1 374.5 375.1 374.4 373.8 371.2 364.9 360.5 358.4 346.6 333.3 321.8 308.9 295.1 291.7 286.6 283 273.4 270.7 272.3 272.1 273 274.6 274.2 274.5 272.9 271.8 268.9 267.1 265.2 261.3 260.1 258.6 257.3 254.9 252.3 251.4 251.9 253.3 255.8 256.4 257.9 260.3 259.5 259.4 258.4 258.1 255 252.7 246.8 242 239.6 235.9 231.4 227.8 222.2 221.6 214.9 211.4 208 199 211.4 215.1 223 225.5 216.8 213.6 214.2 218.4 221.1 224.6 217.6 214.1 205 204.3 217.9 212.2 210.5 207.3 200.8 191.3 181 177.9 158.7 148.3 146.3 137.5 133.9 132.6 133.4 138.9 153.8 169.5 182.8 193.6 203.7 211.9 224.1 235.5 247.6 250.8 258.5 264.5 271.3 276.8 283 288.3 288.9 294.8 295.9 300.6 303.7 313.7 320.6 326.7 338.4 341.5 344.4 354.2 356.7 358 354 349.6 349.2 351.8 352 354.2 357.1 353.7 350.9 338.3 332 318.2 298.5 287.1 285 279.3 275.6 271.3 260.9 249.6 241.4 234.8 228.5 219.5 202.3 189.7 170.2 161.2 171.2 177.7 183 188.1 192.8 198.3 201.6 202.5 212.7 219.4 220.7 221 228.2 236.9 239.4 246.2 252.2 258.9 268 280.6 286.6 287.3 289.5 292.9 302.1 304.4 308.4 315.6 323.9 326.3 322.6 316.4 311.3 306.9 308.3 305.4 305.7 304.6 303.2 308.9 308.9 306 302 298.6 290.1 275.7 258.7
360.9 363 362.4 363.5 365.7 367.4 365.8 368.6 367.4 365.1 356.7 346.1 340.5 336.7 326.3 317.4 309.9 292.6 278.2 277.8 270.8 267.1 267.4 266.9 267 269.2 269.7 267.1 267.5 265.8 265.2 264.8 264.9 263.3 260.2 255.5 253.8 251.5 249.3 248.1 246.1 247.1 250.2 251.8 254.2 255.9 254.5 253.9 252.7 250 247 244.7 242.4 238.8 235.6 233.1 226.7 224 220 217.9 215.7 213.3 210 196.3 204.9 210.3 213.8 215.3 213.1 213.5 213.6 216 218.3 215 216.1 215.7 214.4 206.7 200.8 207.1 217 216.1 201.4 194.6 185.6 181 152.4 148.7 147.9 139.1 136.3 133.9 132.5 135.6 145 166.8 185.8 196.9 211.7 225.4 235.5 237.2 249.5 252.7 263.9 264.9 268.6 274.4 287.1 290.3 294 299 298.5 307.3 305.6 307 317.1 323.7 331.5 340.3 345 353.4 358.7 361.5 364.5 360.3 353 352.2 351.3 351.5 353.2 355 351.5 342.1 332.6 320 303.8 288.8 279.2 280.1 268.8 260.9 254.2 235.2 229.8 224.4 217.1 212 203.3 192 181.4 166 181 188.9 194.6 201.9 205.9 207.5 210.2 209.7 210.2 222.1 227 226.6 232 236.2 243.9 249.7 254.7 262.3 268.2 279.5 287.3 292.7 297.6 300.8 306.5 312.6 315.1 319 325 332.2 333.1 326.8 320.5 312.3 308.5 307.1 305.5 306.8 307.5 307.9 304.6 304.5 299.8 297.1 283 276 262 251
355.7 357.7 357.4 357.6 357.8 355.6 354.2 353.4 354.1 348.8 342 335.8 331.8 324.6 318.4 302.2 292.3 290.3 271.2 267.7 265.9 262.4 263.6 262.3 262.4 262.6 262.2 262.4 262 261.3 263.6 265.2 263.8 255.5 250.9 250.1 246.5 244.8 243.7 243.2 240.8 244.9 247.8 249.5 251.8 249.5 248.1 248.1 243.4 241.5 238.8 238.2 234.9 228.3 225.4 221.8 220.3 219.1 218 221 220.1 221.4 205.6 196.8 204.8 207.4 209.7 212.8 221.6 220.3 220.8 214.8 209.8 210.2 214.8 215.1 225.6 196.7 201.9 219.9 227.8 209.1 195.6 191.4 179.3 174.2 181 148 137.7 137.4 134 133.7 132.5 137.8 151.3 168.3 187.1 203.7 217.3 230.2 235.5 240.3 250 259.7 267.9 269.4 272.7 285.1 288.1 290.9 296.1 301.6 304.3 307 312.1 320.8 327.2 327.8 335.5 340.8 349.3 355.9 360 362.3 362.3 362.5 352.4 350.9 352.8 351.9 355.4 350.7 349.5 337 327.8 317.1 295.3 279.7 260.7 253.2 248.1 248.7 222.8 214.3 213.3 208.3 206.2 202.6 194.6 189.7 187.8 189.8 196.9 203.6 207.6 212.1 217.4 219.3 221.6 222.9 223.3 228.4 231.4 234.2 238 243.2 252.3 258.4 265.8 267 279.4 287.1 294.5 300.1 305.3 308.4 315.5 319.6 325.2 327.7 326.5 332.9 333.5 327.8 320.9 315 311.1 309.6 306.1 306.4 301.4 299.9 298.8 299.2 296.3 290.8 284 267.7 253.1 243.1
339.3 347.1 345.3 346.7 346.8 347.8 344.5 344.4 340.8 337.9 333.3 322.9 316.5 303.2 295.9 282.9 274.8 271.1 266.9 264.6 261.8 260 258.9 258 256.9 256.9 256.5 255.8 256.8 258.4 258.1 257.6 250.4 248.4 246.2 243.3 239.9 240.6 239.8 239.2 238.2 241.3 242.2 243.6 243.4 242.5 239.9 238.7 237.6 233.3 231.5 228.6 223.3 223.9 220.5 218.4 223.7 221.2 213.6 211.7 211 205.3 191.2 200.3 201.3 204 208.4 213.4 222.4 224.3 214.9 210.4 209.2 210.8 214.6 217.1 210.6 193.5 206.6 218.4 213.4 196.8 200.8 189.6 172.1 175.7 168.2 153.8 137.6 135.3 134.2 133.7 132.5 139.1 154.3 169.8 191.2 207.4 220.6 223.3 234.2 243.5 254.4 264.1 273.7 274.7 279.1 285.5 291.2 296.1 302.3 305.8 302.6 306.9 312.6 323.4 328.8 334.4 345.6 354.9 356.8 358.4 362.4 361.1 364.9 365 352.5 351.5 350 348.2 348.6 344.3 339.1 331.7 317.6 311 288.9 285.7 250.7 225.5 222 214.9 205.4 202.6 201 200.5 198.5 196.5 194.5 193.5 195.2 203.4 211.2 216 221.1 223.9 227 233.3 233.5 233.1 230.8 232.2 236.3 239.8 244.2 250 259.7 263.6 269.1 278.9 290.4 296.5 303.4 309.4 312.9 315.4 319.9 327.4 328.2 331.3 326.7 326.2 330.3 327.6 324.2 319.2 320.8 314.9 309.4 310.9 294.1 295.9 297.5 294.4 295.8 290 279.2 255.5 253.7 233.3
332.2 329.5 328.1 326.8 327.1 326.1 328.3 326.9 324.9 319.1 318.3 310.3 302 297.5 288.9 276.2 271.2 268.2 263.3 259.7 257.4 255.9 254.3 253.5 252.8 252.1 251.4 249.7 253.1 252.6 250.2 247.2 244 242.6 240.1 237.4 235.6 234.2 233.7 232.2 233.6 237.2 237.9 236.8 236.5 236.2 231.9 229.9 224.7 224.7 224.4 219.8 217.7 218.5 219.1 211.6 209.2 208.2 207.4 205 204.3 194.9 190.4 196.7 201.8 203.1 204.1 206.7 211.6 209.3 205.6 206.2 208.8 201.8 200.7 204.1 192.3 190.2 192.2 191.3 191.5 187.9 190.9 171.5 168.6 147.7 139.3 135.5 135.9 135.1 135 134.7 135.5 141.6 161.3 179.6 194.8 203.3 214.5 231.1 237.1 247.2 259.2 267.3 274.2 276.5 281.5 285.3 294 297.8 304.9 306.7 312.6 320.6 316.6 322.3 330.7 347.7 356.7 365.5 364 362.6 358.8 359.4 357 355.5 353.5 348.3 346.6 345 343.4 333.2 327.9 321.3 312.7 298.5 286 285.7 257.3 214.6 206.9 202.3 199.1 198.5 197.8 196.8 196.6 196.4 197.7 200.7 209.2 215.9 222.2 228.8 231.6 235.4 238.9 236.7 239.2 241.3 241.6 237.3 241.8 246.1 250.4 256.6 262.4 268.7 277.4 291.1 299.2 306.4 312.6 316.2 318.7 321.9 327.7 333 334.5 329.3 326.5 324.9 326.4 323.5 320.6 325.4 317.3 312.1 311.6 306 293.6 294.3 296.1 289.1 285.8 278.7 263.2 250.2 239.7 228
323.8 323.1 315.8 313.3 317.7 310.4 308.9 309.5 311.2 309.1 304.9 301 293.9 288.2 277.1 271 268.7 265.2 259.3 256 254.1 252.6 251.3 249.2 247.5 245.2 246.8 246.7 246.5 244.9 242.5 240.1 238.2 235.7 234.5 233.1 231.7 230.9 229.9 229.3 230.4 231.5 232.7 232 227 224.4 222.8 221.8 219.3 216.9 216.4 217 212.7 213.9 210.6 209 207.2 204.7 201 197.2 192.3 181.6 192.4 196.2 200.3 196.6 200.8 204.1 203.9 199.8 192.2 191.4 192.8 194.2 193.5 190.3 181.2 178.4 180.4 181.3 181.7 179.2 171.8 160.2 153.2 140.6 137.1 135.7 135.4 135.1 133.5 132.7 136.3 152 168.7 187.3 206.1 218.4 225.6 231.5 237.8 250.1 260.3 266.3 273.5 281.1 288.3 294.8 300 303.3 305.5 310.5 312.4 316.8 322.2 323.8 329.4 337.3 350.3 355.8 352.2 350.9 351.3 350.4 349.4 348.1 343.4 344.3 343.8 342.2 334.9 323.7 317.9 314.2 305.4 286.6 284.3 282.2 265.3 209.8 203.2 199.8 198.7 198.4 198 197.5 200.3 203.5 208.8 213.9 221.5 227.7 233.4 236.1 239.9 243 245.9 245.5 247.5 248.6 243.5 244.5 248.2 253.9 260.5 266.4 270.2 279.2 282.9 300.5 307.5 315.4 317.7 320.8 327.6 330 331.7 333.7 338.2 334.8 332.2 324.4 323.8 323.9 320.9 315.9 313.1 311 307 299.4 292.7 293.5 297.1 291.4 279.9 270.4 255.8 248.9 242.6 230.6
311.4 307.5 301.4 299.5 291 289.5 287.3 291.1 293.3 295.1 294.9 291.9 286.3 285.5 276.6 269.1 264.2 260 257.2 253.4 249.9 248.8 247.8 245.6 244.1 242.6 243.4 242.3 240.9 239.7 238 236.1 234.1 232.7 231.6 231.2 229.6 228 227.7 226.9 228.4 228.5 226.8 224.6 221.3 222.5 221.6 215.5 214.3 212.9 212.9 209.4 207.1 210.8 210.9 209.3 213.5 214.4 203.1 196.2 188.9 181.5 189.9 191.7 191.7 193.8 197.4 199 199.4 191.8 186.4 185.1 184.9 186.8 188.7 188.2 179.8 170.3 173.9 176 178.3 181.9 168.3 162.2 154.2 142.3 137.2 135.6 134.5 133.6 133.2 133.4 142.4 156.9 170.6 188.3 207.3 214.5 222.2 228.1 239.7 252.5 258 266.5 275.7 284.7 292.9 292.5 293.7 300 306.6 312.4 316.2 324.3 325.7 329 330.1 336.1 341.7 344 350.5 346.9 348.3 343.5 344.8 342.5 341.9 341.1 335.6 330.4 326.4 317.7 312.2 306.1 291.7 283.8 282.5 279.9 253.9 207.5 202.3 199.8 199 198.5 198.3 199.3 206.3 212.1 217.8 224.5 232.9 238 239.3 242.9 245.4 247.4 249.2 249.8 252.3 255.8 245.4 249.9 255.6 264.3 268.7 274.3 277.7 281.7 291.2 304 314.5 319 322.2 329.6 334.6 335 336.1 338.9 339.9 343.8 338.9 329.7 324.2 322 321.7 315.3 314.8 312.2 306.3 295 290.5 289.1 290.3 283.1 276.3 259.2 254.4 247.5 240.3 229.6
295.9 291 283.7 279.7 276.1 277.5 280.7 282.8 284 283.6 282.3 281.6 277.7 272 267 264.7 261.8 258.2 255.4 252.3 250.2 247.8 244.8 243.8 242.8 241.3 240.9 240 238.3 237 235.3 233.4 232.2 230.8 229.7 229.6 227.4 226.7 224 221 218.2 220.3 218.1 221 217.3 214.4 210.8 210.1 206.6 203.3 204.1 199.1 198.7 202.8 203.1 206.7 208.1 204.5 199.8 194.6 186.1 179.3 188 192.5 188.5 185.5 187.4 186.9 180.3 179.4 175.9 178.4 180.2 178.8 179.3 182.6 164.5 163 166.9 170.1 169.8 170.6 164.2 157.2 146.9 139.7 136.5 134.2 134.1 133.4 134.9 139 148.3 161.6 177.4 192.1 207.7 218.4 224.4 233 245.2 257.3 262 268.3 277.8 285.1 285.9 290 296.4 301.8 305.6 313 320.4 326.1 332.7 335.6 334.9 336.2 340.3 343.9 343.5 343.3 342.6 342.5 341.5 341.5 339 335.8 329.8 324.9 315.7 310 302.2 292.4 287.6 280.1 279.6 274.7 261.1 206.2 200.9 199.8 199.4 200.2 203 209.5 215.6 222.8 228.9 232.7 238.3 242.8 244.2 246.6 247.5 248 250.9 253.8 256.9 254.7 254.2 256.6 265.2 274.1 276.5 279.8 282.2 286.6 297.6 313.8 317.7 325.5 330.8 334.8 335.9 339.5 341.3 347.5 350.8 346.8 341.2 331.8 324.1 322.3 322.8 316.8 311.1 311.6 303.6 294.1 288.9 284.8 278.6 277 269.4 258.1 249.5 247.3 236.9 230.6
272.9 271.1 272.1 265.9 269.1 271.3 273.8 275.4 276.8 277.5 276.8 275.7 273.7 271.5 267.7 260.2 257 254.7 252.7 253.1 247.2 244.4 242.5 242.2 241.1 240 238.3 238.1 237 235.6 234.4 233 231.7 230.9 229.3 227.7 226.9 226.9 230.7 228.9 220.9 213.2 215.8 219.2 220.4 216 206 207.3 202.9 201.2 191.5 188.4 189.5 192.8 195.7 197.8 200.1 201.5 201.1 190.4 183 177.2 184 186.7 181.8 179.2 174.2 170.4 166.4 167.6 167.7 167.3 166.6 165.9 165.7 160.5 155.3 155.5 158 157.8 155.3 150.8 146.2 140.9 138.7 135.5 134.2 134.5 135 134.4 136 140.1 149.9 169.9 184.8 200.5 210.9 219.7 230.3 238.5 250 261.1 268.5 271.4 276.9 281.6 286.7 292.9 298.6 303.5 307.6 314.4 322 325.3 327.2 327.6 330.7 334.2 339.4 343 344.2 342.5 342.3 345.3 345.2 339.9 336.4 332.2 319.5 313.5 309.9 306.1 294.7 285.8 280.9 274.9 269.2 266.5 242 211.4 201.1 200.3 200.1 206.7 212.1 217.1 223.8 230.9 236.6 241.6 242.9 248.9 249.7 251.7 252.3 250 253.5 260 262.5 266.2 266.1 263.4 271.8 279.9 283.9 286.1 288.7 295 306.8 318.9 327.8 333 337.1 337.5 338.2 340.3 348.2 354.6 357.8 349.9 345.3 333.5 321.1 320.7 316.3 309.7 305.6 308 299.8 290.4 286.9 283.8 272.7 265.8 263.8 255.4 238.2 229.3 223.5 197.9
272.3 257.3 258.2 262.1 264.2 266 268.1 269.6 270.1 272.3 273.8 273.2 273.7 269.6 260.5 255.8 254.2 252.4 249.5 246.8 244.4 243.1 240.8 240.4 239.7 238.8 237.5 236.5 235.5 234.6 233.8 233.1 233.5 234.3 227.8 226.7 226.3 226.1 225.4 220.9 216.1 216 208.4 212.5 202.9 198.2 200 193.2 191.5 192.1 180.9 180.1 183 187 188.4 187.3 188.3 187.9 184.1 180 165.2 172.2 181 176.1 174.8 172.9 171.2 171.2 157.8 160.9 162 157.9 156.5 154.9 149 144.9 140.4 141.8 143.9 141.9 141.9 138.4 135.5 134.8 134.6 134.7 134.6 134.5 133.4 135 136.8 149.5 163.2 174.1 194.3 204.7 216.1 220.5 230.4 244.5 259 265.1 273.6 279.7 281.1 287.4 292.4 294.4 301.1 306 312.1 317.3 322.6 325.6 325.9 327.5 330.1 333.1 336.6 338.9 340.1 341 342.5 339.5 338 335.9 330.1 321.9 314.8 303.8 301 297.6 287.8 280.1 273.5 265.4 253.1 241 227.9 210.9 201.8 201.3 203.6 212.2 219.4 224.9 233.1 237.9 242.2 247.7 248.3 251 253.3 254.9 256.6 256.2 259.2 265.2 268.9 272.5 271.2 273.8 275.3 283.7 287.5 291.7 293.6 301.8 314.1 327.5 336.1 340.8 340.9 342.1 343.6 344.8 355.4 361.7 357 351.1 347.8 336.2 319.3 317.6 308 305.2 303.9 301.5 297.6 291.3 284.8 277.7 268.6 260.1 252.4 245.3 228.1 219.7 207.3 186.4
260 252.8 253.4 256.3 258.7 260 262.2 263.8 263.6 264.3 265.5 263.4 262.9 257.5 255.6 255.3 254.4 252.3 252.3 249 246.3 242.3 239.3 239.2 238.2 237.8 236.8 235.4 234.2 233.7 232.9 231.7 229.4 227.4 227.3 227.9 227.7 232.8 234.8 227 224.1 209.1 202.4 198.8 198.3 191.6 184.7 177.4 173.7 173 172.2 172.6 176.6 178.4 179.4 178.8 177.1 174.9 174.1 172.2 164.4 177.5 179.5 177.4 175.3 174.8 169.2 158.2 151.2 149.3 144.9 145.1 144 140.2 138.8 135.8 134.4 135.4 134.1 135.9 134.7 135.5 135.5 135.2 134.8 135.1 135 134.9 135.3 138 143.6 160.4 182.2 196.8 199.9 205.8 205.7 218.6 236.7 249.7 259.5 267 272.6 279 283.8 289.7 295.7 298.6 305 310 314.2 322 325.6 328.9 329.3 331.5 332.6 342.1 343.7 341.1 342.2 345.9 346.8 344.9 337.9 324.1 316.7 314.5 314.2 299.5 295.4 283.8 275.9 270.9 260.7 244.6 233 226.6 218.1 206.3 202.6 202.7 207.5 215.4 222.2 229.3 235.8 241.5 248.4 252 250.4 254.7 256.8 257.6 259.1 260.8 264.7 270.1 271.6 273.7 274.4 280.7 286.6 289.4 291 294.6 299.2 309.8 321.7 334.8 341.8 342.5 344 347 350.1 355.5 358.8 359.1 359.2 355.7 347.9 334.2 321.9 313.7 306.8 303.3 300.1 296 293.3 282.5 283.6 276.1 263.3 264.5 258.7 251.4 242.9 226.7 215.7 188.9
251.6 245.1 246.9 247.9 250.3 252.3 252.8 255.4 258 263.4 274.1 265.7 264.7 264 268.4 268.2 270.9 262.1 260.1 253.2 247.4 242.4 238.3 236 236.6 236.9 235.9 234.7 233 232.1 231.4 229.8 229.3 230.7 242.1 246.1 236.7 233.8 232 226.6 216.2 209.9 203.9 204.9 202.4 196.1 183.2 170.2 166 167.7 168 166.4 167.7 168.1 165.8 165.5 165.5 164.8 163.8 163.8 162.2 173.3 175.5 178.4 166.4 158.3 150.3 147.9 142.9 139.8 139.3 138.6 136.6 136.2 135.5 134.2 135.1 136.2 135.7 135.6 136 133.7 133.7 133.7 135.3 135.2 133.4 135.4 136.2 140.6 155.9 170.5 184.4 199.5 209 217.5 224.2 232.3 243.4 252 260.1 265 270.1 276.9 283.8 295.4 298.3 301.7 310.3 314.9 319.9 326.3 331.9 333.8 335.5 338.4 345.3 346.5 346.4 346.6 346.5 348.3 347.3 344.4 336.6 330.1 322.5 307 303.7 290.5 284.1 278.6 268.5 256.9 250.3 232.6 224 214.1 209 205.3 204.4 206.1 214.1 221.8 229 236.8 252 250.6 252.9 256.9 258.9 259.9 260.9 261.6 264.7 265.1 268.3 273 276.2 278.9 280.7 286.9 298 299.7 297.2 298.7 304.3 317 328.7 335.6 340.5 342.9 346.3 350.1 356.4 359 361.1 360.4 359.6 356.7 344.9 334.9 321.9 312.2 305.4 301 298.1 294.8 289.3 278.9 280.5 270.6 265.2 263.3 261.3 250.5 233.4 225.2 211.6 183.4
244.3 239.3 241.3 242.6 244.2 246.1 247 251.3 253.3 256.5 262.6 263 262.5 267.7 271.5 279 275 272.6 265 260.1 250.3 240.6 237 235.4 235.4 236.3 237.1 237.8 232.5 231.1 231.5 241.6 249.5 258.7 253.3 250.4 246.6 256.1 256.5 243.1 216 204.3 203.7 211.1 209.4 191.9 177.9 170.3 160.9 161.3 161.7 162.4 162.5 162.4 161.6 160.8 160.4 160.2 160.3 154.9 164.1 165.2 165.5 160.4 156.3 152.2 148.1 145.5 143.5 139.3 138.5 136.8 136.4 136.5 136.4 136.3 136.3 136.3 136 135.5 135.5 135.4 135.8 135.5 135.8 136.3 136.4 139.6 147.2 157.6 165.9 176.8 188.3 201.8 213.5 220.4 229.1 237.6 248 256.5 264.5 269.7 275.8 280.9 292.1 298.8 304.3 309.5 316.7 319.9 323.2 326.5 332.1 335.6 340.1 344.7 347.1 350 349.2 348.6 350.3 351.9 351.3 343.9 332.8 322.1 314.9 300.9 289.1 282.2 275.4 270.4 262 253.7 251.8 245.2 234.8 228 219.9 207.2 208.9 216.8 223.8 231.9 237.6 245.9 254.2 254.7 257.8 261.3 264 264.3 265.9 266.9 269.8 272.2 274.4 279.9 281.7 282.9 288.9 304 304.7 303.3 303 304.9 310.4 323.8 331.2 340 342.8 343.1 344.8 350.4 356.7 358.5 359.1 358.9 354 349.9 342.4 334.2 324.4 310.7 303.6 298.8 292.2 291 283.6 274.1 275.8 270.2 264.6 261.9 255.9 242.4 229.4 219.7 209.6 188.9
238.1 236.7 235.5 236.1 238.1 239.8 245.1 249.5 251.3 255.6 261.6 268.7 264.2 262.7 266.5 272.4 268.2 266.8 272.5 265.7 256.5 244.4 238.2 234.3 233.9 235.5 235.6 233.6 233.7 236.5 247.6 252.4 262.4 268.2 273.1 264.5 262.8 268.8 257.7 241.4 216.2 203.1 205.1 216.2 188.9 177.6 171.8 166.4 160.2 156.8 156.2 158.1 155.9 154.9 153.7 154.8 156.2 156.4 152.7 157.7 158.4 161.7 163.3 163.7 166.2 165.7 165.8 150 141.6 138.9 137.7 138.2 136.8 136.5 134.6 136.6 137 137 136.7 136.7 136.9 136.5 138.4 137.2 137.7 140.8 155.6 169.4 175.1 183.3 183.5 186 189.7 201.9 214.9 225.8 236.1 244.3 252.6 262.2 271.4 275.1 283.4 288.5 300.6 304 315.4 318.8 323.6 333.5 338.5 344 339.8 348.6 351.6 357 354.8 352 351.7 355.5 356.3 352.2 342.1 335.1 326.9 320.9 312.7 306.4 295.4 287.4 284.3 275.8 268.8 269.8 276.9 272.9 245 229.2 220.5 219.6 220.6 227.5 233.4 243.1 246.9 254.7 260 264.6 266.6 265.2 268.6 267.2 275.7 277.2 276.2 279 282.7 285.6 286.8 291.8 297.9 308.2 309.5 308.9 307.9 308.1 317.3 326.3 332.4 339.8 341.5 343.3 346.5 349.1 352.8 354.8 353.8 356.4 352.5 345.4 340.6 334.5 321.5 310 303.4 296.1 290.7 285.5 277.6 267.7 275.4 263 259.1 255.1 246.5 238.1 230.1 215.2 196.8 176.8
236 235.6 234.3 233 234.4 237.9 243.2 253 252.5 258.7 260.8 254.6 254.9 258.9 259.4 262 261.2 261.3 259.4 259.9 252.1 242.8 241.2 236.4 233.3 233.1 233.6 237.1 238.1 244.1 256.3 262.5 277.3 279 271.1 270 266.4 255.2 238.6 226.5 209.5 200 187.6 181.9 172.9 169.3 165.7 163.4 156.6 155.6 154.1 153.1 152.6 151.7 151 150.3 154.1 150 152.2 155.4 160.8 171.5 177.4 180.6 168.9 166.9 166.1 153.1 142.2 138.2 138 138.3 137.8 136.8 136.8 137.8 137.4 137.3 137.1 137.5 138.1 138.5 139.3 139.3 141.6 159 179.4 194.1 204.8 212.2 207.3 223.6 203.8 208.5 218.3 229.4 240.4 250.2 267.5 275.3 284.6 288.7 288 302.9 307.6 318.7 324.9 331.1 339.7 348 354.3 350.7 347.6 355.3 362 363 365.3 361.3 362.7 364.6 366.1 361.5 357.2 336.4 330.2 328.1 323.6 318.8 310.7 299 286.9 278.6 273.8 277.7 276.6 267.8 245.1 229.7 224.2 233.3 234.9 235.3 244.7 255.4 259.2 261.2 268 273 274.5 274.3 276.3 276.2 282.6 281 280.4 283.6 286.7 288.6 293.5 300.1 304.8 311.2 314.6 313 309.4 313.4 324.1 330.4 333.4 338.3 341.5 344.5 346.5 349.2 350.2 350 352.6 354.3 349.8 345.9 339.7 328.2 316.3 305.1 299.3 294.1 286.4 279.8 267.5 263.2 262.7 259.7 254.9 241.5 233.6 224.6 214.1 191.3 176.3 160.2
233.9 233.9 233.9 232.9 232.2 234.8 239.7 244.8 252.3 252.7 255.6 248.2 249.3 252.6 253.5 255.5 256.2 256.8 257 255.8 267.5 264.9 250.3 249.7 235.1 232.5 233.7 241.9 265.4 267.9 268.4 270.2 274 270.3 264.5 260.7 254.6 243.8 229.4 222.8 219.6 195.5 177.6 171.3 167.9 165.9 163.9 158 155.8 154.7 153.1 152.1 151.5 149.6 148.7 148.9 150.4 151 150 149.2 157 164.5 174.4 171.4 167.7 166 166.5 156 142.8 138.4 138.2 138.3 138.5 138.2 139.1 138.9 137.8 137.1 137.4 138.5 140.6 147.4 152.7 152.9 155.5 168.5 185.3 194.4 194 221.8 222.5 218.3 218.4 225.9 234.2 241.4 246.8 256.2 273 279.4 292.2 299 302.4 309.9 320 330.2 337.2 344.1 353.2 358.9 360.2 354.3 360.5 366.9 371.6 369.5 372.1 372.7 371.1 368.1 367.5 358.3 350.2 347.5 333.3 330.2 330.5 324.9 316.2 304.5 289.9 282.9 276.3 269.1 269 267.9 251.7 233.3 238.2 244.1 245.7 251.4 255 259.5 265 270.5 273.8 278.3 281.5 282.4 283.2 280.6 283.6 283.7 285.1 288.5 290.9 293.3 300.9 307.6 311.9 318.5 321.1 314.5 313.3 320.9 329.2 332.4 334.2 337.5 342.4 345.1 346 348.4 348.2 346.9 350.2 351.8 349.5 345.5 336.4 323.2 305.9 298.2 293.2 287.9 281.6 270.4 258.7 261.1 251.9 253.6 246.3 232.3 216.7 206.9 192 175.4 164.9 150.6
231.8 232.2 233.7 232.5 230.4 228.8 229 231.5 237.4 243.4 242.2 242.7 243.8 246 248.7 252.5 254.7 256.7 259.5 271 256.6 256 249.3 238.9 234.1 229 238.2 247.1 253.3 256.8 258.1 258.7 260.4 258.4 255 248.1 245.4 238.4 237.1 239.8 219.9 193 176.8 171.7 171.6 165 162.3 162 160.8 167.3 154.4 152.1 150.8 150.1 149.8 150.2 148.2 148.4 153.6 151.4 150.5 144.6 145.7 145.3 149.2 151.1 152.7 149.5 139.7 138.5 138.5 138.4 138.2 135 140.6 139.7 140.2 139.7 139.3 142 153.7 162.7 166.3 179.2 181.9 182.7 193.5 203.3 212.8 225.9 225.9 224.2 233.7 246.7 254.3 257.2 263.2 266.9 278.6 289 301.2 306.1 312.3 319.6 331.6 339.1 343.6 355.5 364.8 360.2 358.6 365.6 372 378.4 376 378.5 379.9 378.4 377 377 363.3 363.3 360.7 345.6 338 333.3 330.5 321.5 315 301.5 289.1 284.7 277.6 268.2 255.9 247.8 243.1 240.5 246 255.6 255.7 262.5 263.8 266.1 273.8 278.5 281.4 286 289.7 286.9 286.1 283.3 284.4 287.2 289 292.4 297 301.6 308.2 314.9 317 324.3 322.1 315.2 316.8 327 331.5 333.2 334 339.3 343.1 345 345.8 346.2 344.6 343.7 341.8 339.3 338.2 333.4 320.4 311.6 300.9 293.5 287.6 281.7 270.7 258.5 248.3 252.1 241.6 242.2 228.4 216.4 201.2 192 178.2 162.2 152 142.6
230.7 231.1 231.2 232 226.8 224.5 222.6 224.3 228.4 231.3 234.3 239.7 237.5 240.5 244.4 250.9 260.5 272.5 257.9 253.6 250.8 254.8 240.5 236.4 230.2 232.1 238.3 241.7 244.5 248.3 248.9 246.5 247.3 251.9 244.8 242.1 237.3 234.5 229.8 219.7 207.5 198 176.2 178.3 169.1 164.3 156.6 155.3 155.1 154.1 151.3 150.4 149.1 150.2 150 150.8 152.9 156 158.2 161.8 167.1 165 155.9 147.6 147 139.4 137.6 140.3 139.5 138.7 135.7 136.8 137.4 138.6 139.8 143 156.1 150 152.2 156.6 163.6 167.9 175.7 198.6 213.9 216.1 213.2 220.2 234.1 238.3 241.2 241.8 248.8 261.1 269.5 264 278.6 281 286.1 294.9 304.6 311.3 318.1 328.5 337.2 344.9 352.2 356.8 363.1 362.4 372 378.6 384.9 382.5 385.6 388.6 391.2 391.9 383.5 375.2 371.6 364.8 357.6 344.3 343.3 339.8 330.8 321.4 316.1 301.7 287.6 282.5 273 269 264.6 253.5 249.6 249.9 254 259.9 264.1 267.9 272.3 273.9 282.8 288.1 292.2 295.7 295.2 296 291.3 286.6 287.3 290.7 294.8 296.5 301.6 306 314.9 319.9 321.9 323.9 318.9 316.7 319.2 330.3 332.7 333.1 334.2 339.4 342.2 344.3 345.2 343.4 339.9 338.1 333 332.4 329.2 322.6 314 304 297 290 280.5 272.1 262.1 256.7 245.1 237.8 235.1 228.5 220.7 201.9 184.1 168.8 158 146 141.5 138.2
229 230.9 230.6 226.3 218.7 216 215.2 218.8 221.6 224 225.8 228.8 233.1 241 244.2 243.5 251.3 247.7 242.1 237.3 233.6 230.8 230.9 231.6 221.2 229.2 233.3 236.2 239.7 242.5 241.2 239.8 241.1 247.8 238.7 237.4 227.8 224.3 219.2 214 210.1 209.9 210.1 181.7 168.5 158.5 152.8 151.5 151.5 149.9 149.3 149.4 150.3 153 159.9 163 156.5 157.7 166.1 173 186.9 177.9 189.9 168.1 154.3 144.9 139.9 137.1 136.5 140.2 139.2 140.2 140.6 138.9 143.3 142.3 148.7 153.7 159 166.1 168.3 174.3 183 202.5 219.2 232.7 245.9 249.3 255.8 253.7 253.3 252.2 255.5 267.5 272.6 277.3 282 284.9 291.6 298.9 308.8 318.7 327.6 333.2 343.3 351.9 355.6 363.1 366.3 370.9 380.3 383.9 388.3 390.8 394.8 398 397.1 390.9 383.5 380.6 374.9 365 350.1 347.5 347 340.4 328.2 325.4 313.6 301 289.3 280.3 276.1 280.4 281.6 262.8 259.2 263 266.6 269.9 271.2 273.6 280.6 286.6 296.8 301 302.8 303.6 302.4 300.6 295.6 291.4 291.1 295.2 299 302.9 308.5 314.5 322.6 324.3 323.5 322.2 320.7 318.1 323.8 331.3 332.3 333 333.8 337.3 339.2 343.1 342.5 338.4 333.2 328.8 324.7 321.8 316.3 308.9 305.4 298.6 289 282.3 275.9 267.3 256.7 250.2 239.5 228.4 226.7 219.7 200 182.1 169 159.5 146 141.2 137.7 135
229.7 228 227.7 223.6 217.5 211.3 210.2 212.6 210 211.1 216.3 220.1 222.1 226.5 240.7 230.6 227.9 225.9 226.9 232.1 224.1 220 219 218.4 215 224.4 227.8 229.7 229.9 232.1 235.2 238.7 239.4 237.8 229.4 226.2 221.9 217.7 215.5 214.2 211.7 207.2 205.8 187.3 163.4 153.7 151.2 149.6 150.2 150.2 150.6 151.9 154.3 160.4 172.9 169.8 166.3 168.9 173.7 183.8 190.2 180.7 170.6 160.1 151.7 147.1 144.7 142.4 142.8 142.1 146.6 141.2 142.5 139.6 144.9 148.7 153.2 158.4 166.7 170.7 177.1 186.5 193.7 187 196.1 216.1 240.8 253.6 258.1 260.9 259.8 265.8 266.8 269.8 281.5 280.5 284.5 290.1 298.6 307.6 313.1 321.7 330.7 343.2 354.8 360.1 362.6 365.5 373.4 380.5 386.4 391.7 397.8 400.4 403.4 402.4 400.1 396.3 388.5 384 373.8 362.3 353.3 352.4 342.2 337.8 330.6 321 311.8 302.5 298 291.9 286.3 290.4 286.3 274.4 275.2 274.1 276.2 280 283.5 283.1 292.4 300.9 308.4 311.5 310.9 309.4 307.5 304.4 301 298.3 297.3 301.3 306.3 309.3 314.4 321.8 325.2 326.4 325.4 323.3 320.6 322.1 328.4 331.3 332.4 333.3 333.8 335 335.7 334.4 330.3 325.8 320 317.4 313.7 311.9 308.6 304.3 301.4 291.2 284.4 276.7 271.5 257.7 254 246 233.3 213.7 206 197.1 176.5 161.9 148.2 143.2 136 136 137.4 137
234 225 220.3 217 214.3 221 209.9 206.2 199.4 198.5 206.2 209.8 211.3 211.5 214.2 217.7 219.2 216.7 216.2 215.7 211.1 210.7 212.2 210.4 214.2 216.3 220.8 219.4 220.4 226.2 228.6 227.5 227.4 224.6 221.7 219.4 215.7 215.8 214 205.7 201 198.9 196.8 177 155 150.2 150 150.7 151.4 151.2 158.1 156.7 160.9 165.6 174.6 182 182 173.3 172.1 177.5 175.4 171.6 166.4 160 157.9 155.1 151.7 148.1 146.3 148 146 145 143.9 141.4 147.8 151 157.7 163.4 171.6 169.9 182.5 195.6 205.7 220 224.3 237.8 248 254.7 260.9 263.7 272.1 276.5 281.9 277.8 288.7 290.2 298.3 302.9 306.1 309.9 320.2 330.8 338.9 347.8 356 361.4 366.9 373.5 383.3 388.1 398.2 400.2 407.5 407.5 412.2 409 405.3 399.8 390.3 382.5 371.1 365.6 360 356.8 342.3 343 334 315.4 309.8 307.9 311.7 304.2 297.6 296.1 293.3 285.5 285.1 290.1 290.1 293.2 296.6 300.2 303.4 310.5 318.6 320.6 319.2 317.9 314.9 312 304.7 304.3 303.3 307.3 310.3 313.9 321.9 324.8 326 328.4 327 324.9 321.4 323.3 329.7 331.7 332.6 333.2 332.5 332.2 329.9 324.4 319.1 315.3 311.9 310.1 308.9 308.5 304.2 300.3 295.5 281.8 278 269.8 253.2 252.7 248.1 233.5 222.8 191.7 185.6 171.8 157.7 147.4 140 137.6 137.9 137.7 137.7 137.9
245.5 240.9 236.2 240.4 224.4 214 210.5 201.1 195.8 195 200.1 200.5 201.5 199 202.6 204.2 206.2 207.7 206.4 205.6 203.7 203.6 203.4 201.3 206.5 209.1 216.9 212.4 215.5 219.4 218.4 218.7 219.9 217.8 216.5 215.2 214.9 214.9 213.9 211 198.8 190.6 185.4 163.8 153.2 152.9 152.3 152.8 156.2 163.4 187.3 175.9 170.3 173.6 174 179.1 178.1 175.9 176.7 177.5 179.9 180.8 170.7 165 166.3 168.1 163 154 152.2 154.2 158.2 154.2 148.5 144.9 149.9 156 163.5 170 177.4 185.4 189.5 207.3 219.1 231.6 238.7 244.5 249.4 256.7 262.4 269.6 278.2 282.7 287.7 284 289.9 295.9 301.4 306.7 311.4 317.5 323.5 330.3 340.4 350.1 357 364.1 374.4 375 383.3 390.2 397 404.4 413 418.1 419.5 419.4 414.1 406.6 391.6 381.8 378 373.8 363.6 354.1 350 346.2 324.8 317.4 315.7 316.5 317.3 314.3 308.6 298.7 299.3 296.6 294.9 300.9 308.1 301 304.7 308 311.4 318.2 326.7 327.5 325.4 323.8 320.8 316.2 311.8 308.5 307.8 310.7 316.8 320.2 325.1 327.3 328.5 328.1 328.1 325.7 322.8 323.4 329.1 332 332.3 332.2 331.4 328 323.9 318.9 315.2 312.1 309.3 306.8 304.9 301.2 298.8 295 283.5 275.2 270.1 252 247.1 240.1 231.3 216.6 202 181 171.1 161.6 150.4 141.5 138.6 138.2 137.9 137.9 138.1 139.1
239.8 234.9 219.4 215.5 205.1 200.8 193.8 190.4 189.4 186.7 188.8 188.4 190.8 192.8 190.9 192.4 193.6 195.2 200.2 200.7 200.3 200.1 199.1 191.9 195.6 200.8 206.4 208.8 209.6 211 212 213.6 214.3 215.8 213.7 210.7 210.7 211.9 216.6 210.2 193.8 192.9 191.8 161.3 152.5 153.4 155.2 161 164.6 177.2 177.4 176.9 177.1 180.9 178.7 180.7 186.8 179.2 181.6 188.1 194.9 189.6 179.7 178.5 185.5 187.9 171.4 161.3 159.8 164.2 161.9 162.4 155 148.1 151.6 158.9 172 178.6 186.7 193 202.1 225.7 232 244.4 251.6 249.6 250.6 258 263.5 271.8 279.7 284.2 290.7 288.4 293.8 297.1 299.9 308.6 312.8 322.2 328.1 339.9 345 353.7 363.8 370.6 379.3 379.1 388 398.1 407.6 412.6 418.3 425.4 426.6 425.1 417.5 410.9 396.7 387.6 382.1 371.6 359.7 354.5 352.8 341.5 323.1 325.3 323.4 323.6 322.6 319.5 313.4 305.4 304.7 306.5 313.7 311.8 315.3 313.9 314.3 316.7 318.6 325.5 330.9 331.8 333.3 329.6 325.9 321.9 316.6 311.6 312.8 318.4 321.7 323.7 327.2 328.9 330.4 329.7 330.9 324.1 323 324.4 330.5 331.9 332.2 330.5 329 326.4 320.6 316 311.4 308.5 306.6 305.3 299.4 295.5 292.1 283.6 274 267.6 254.8 243.1 234.7 223.5 213.7 198.7 190.7 173.2 162 157.2 148.8 138.3 138.6 138.4 138.1 138.1 138.3 140
233.9 223.8 207.9 200.3 195.1 190.2 186.6 186.1 186.3 183.5 185.8 184.6 181.5 181 181 180.4 179.4 180.8 182.7 186 187.8 194 191.6 185.2 190.4 195.3 199.9 203.5 205 208.1 211.8 212.8 216.6 210.4 207.3 206.4 205.6 207.5 210.7 210.2 200.5 185.8 172.5 157.1 153.3 162.2 177.2 166.9 172.3 182.5 183.5 185.9 195.9 184.2 184.3 183.6 185.1 188.2 188.8 197.7 195.3 187 187.2 190.6 193.2 194.7 200.3 190.7 173.1 171.4 171.2 166.4 162.9 158.3 154 163.6 175 186.4 196.4 206.9 216.9 229 244 247.4 253.8 261.2 265.4 262.4 269.7 278 283.9 286.9 294.5 297.8 302 299.6 303.1 308.1 315.3 324.3 333.3 339.4 345.5 349.9 358.1 373.7 380.4 382.1 392.2 404 414.1 421.6 425.5 430.5 431.1 430 420.5 409.2 400.7 391.8 382.9 376.2 364.9 359.7 346.7 331.7 331.2 332.7 328.9 330.9 331.6 325.1 318.3 317.7 317.6 315.4 322.8 320.1 321.4 322 322.5 324.1 325.8 331.4 335.5 336.7 333.5 331.2 328.8 326.3 323.1 314.8 317.7 323.3 325.3 327.1 329.9 331.1 330.7 328.8 327.3 325.3 323.9 327.3 330.8 332.2 331.1 329.4 328.8 323.8 318.5 313.4 309.4 306.9 304.1 302.2 298.2 290.2 284.2 276.6 264.7 257.1 248.6 240.5 227.8 213.2 201.6 186.7 176.1 167.1 161 152 143.7 139.1 137.9 138.5 138.4 138.4 138.4 140.4
207.7 209.2 199.1 184 182.6 183 183.6 183.8 184.3 183.9 180.1 178.1 177.4 176.9 176.2 175.8 175.3 174.5 173.9 173.7 174.6 176.9 178.2 181 185.4 193.3 193.1 196.4 204.4 212.1 206.5 208.7 208.1 207 205.8 203.3 200.2 202 208.2 209.4 201.8 182.8 161.3 157.6 153.1 163.9 177.3 178.2 180.9 190 192.3 192.3 193.2 197.1 200.4 200.3 196.6 195.7 198.4 204.8 196.9 194.8 200.1 208.2 215.3 215.5 228.1 229.9 198.9 179.1 175.5 176.1 169.4 166.4 162.3 169 181.1 193.2 205.5 215.9 225.1 236.1 246.3 254.6 262.1 265.5 270 273.8 274 279.8 284.7 290.8 296.6 297.3 298 300.4 305.5 311.6 320 328.8 336 345.4 348.1 351.4 357.1 371.1 377.8 389.2 399.7 409.1 420 426.4 431.7 434 437.1 425.7 420 410.8 398.2 392.7 386.6 374.7 367.6 356.8 339.2 335.8 337.7 336.8 338.2 335.6 335.6 338.8 338.8 331.4 326 327.4 329.2 331.6 328.2 328.6 330.1 330.9 330.3 336.2 340.3 340.9 339.4 337.7 334.6 330.9 325.5 320.6 321.8 326.2 327.3 328.9 332.1 331.1 330.6 328.3 327.2 326.5 325.9 330.1 332.7 332 329.3 328.2 325.9 321.6 317 311.8 307.7 302.4 300.3 298.6 295.2 288.2 280.3 267.4 261.4 254.8 246.7 235.3 221 204.7 189.8 177 168.4 161.2 155 148.2 142 139 138.9 138.9 138.6 138.6 140.3 147.9
197.5 191 180.8 179.4 179.8 180 180.6 181.4 181.3 180.2 178.3 177.1 176.4 175.7 175.4 175 174.8 174 174.1 174.6 173.5 175.2 176.3 178.8 184.2 182.6 187 190.5 195.2 196.6 197.5 198.6 200.1 201.7 204.1 205.6 202.3 196.1 199.4 198.6 195.8 180.7 159.4 156 158.9 168.8 177 180.9 194.8 195.2 203.4 211 204.6 205.9 203.6 199.4 196.6 196.8 203.5 210.4 216.6 217.1 214 218.5 227.2 234.7 249.1 254.7 253.3 215.5 200 191.9 183.4 171.3 168.6 173.6 187 199.2 210.9 222.2 231.6 243.7 252.3 257.8 266.3 272.3 275.8 276.4 278.2 280.9 289.7 295.8 295.9 299.5 300.3 304.4 312 316.4 328 334.9 341.3 345.7 349.6 353 363.4 368.7 378.2 396.2 401.7 411.4 422.8 431 433.6 437.6 437.4 428.8 420.7 413.3 407.7 396.5 388.7 376.7 368.4 359.9 345.7 337.5 338.5 342 343.2 342.2 342.2 344.5 347.2 347.6 346.9 339.8 337.4 336.1 335.2 336.8 337.4 338.1 335.5 341.2 343.1 345.4 345.5 346 338.1 334.8 329.3 323.9 325.3 327.3 328.4 329.6 330.4 330.9 331.3 329.4 327.7 327.4 328.9 330.3 331.1 329.8 327 324.9 321.9 319.8 315.7 310.9 305.1 300.2 297.4 295.6 289 282.7 273.3 263.4 256.2 247.6 235.9 224.8 209.3 193.8 180.4 171.5 157.6 156.2 148.9 143.3 139 139.1 139.2 138.9 138.7 139.3 144 153.5
185 181.6 177.9 177.9 178.3 179 180.1 180.6 179.4 178.5 177.2 176.2 175.6 175.2 175.1 175 173.8 174.2 174.5 173.9 174.1 174.5 174.9 175.3 176.2 177.6 179.1 182.5 187.7 189.6 190.5 192.6 193.3 197.6 205.2 203.2 196.3 186 187.8 190.3 186.3 168 157.5 160.1 166.9 175.6 183.3 195.3 204.5 209.3 221.3 210.2 207.5 208.6 205.8 210.1 205 206.4 220.4 221 223.9 229 234.8 241.4 248 258.5 266.3 270.1 268.7 235.2 218.7 203.4 185.5 170.3 175.3 179.5 191 203.7 215.2 226.1 235 247.4 254.3 260.1 273.1 278.1 278.5 282.2 282.7 292.3 293.7 296.9 300.2 303.9 303.8 308.2 314.2 317 329.8 337.4 338.8 343.7 349.5 355.5 363 371 379.9 391 402.3 413.2 425.6 436.2 436.7 442.8 437.4 429.5 423.3 415.9 411.2 399.7 385.1 375.5 373.1 355.8 346.9 346.9 343.6 346.1 349.8 348.4 349 350 351.4 353.2 351.3 348.5 345.5 346.6 341.8 342.5 344.3 343.7 342.9 344.8 347 349.9 350.5 349.2 339.6 337.3 332.9 327.7 327.4 328.6 329.9 330.1 331.2 331.2 331.4 329.6 328.6 328.9 329.5 329.8 327.7 325.3 323.9 322.7 320.5 319.6 315.5 309.3 303.9 299.4 293.5 289 281.4 274.9 261.7 258.2 248.1 236.8 224.1 212.5 198.5 187.9 175.3 166.5 158.7 150.9 143.9 139.8 139.4 139.5 139.1 139 138.9 144.3 149.2 155.8
178.2 177.2 176.4 177.2 177.3 179.8 180.4 179.5 177.8 177.4 176.3 175.4 174.7 174.1 173.9 174.5 175.1 175.4 174.9 174.3 173.2 173.4 175.9 173.8 174.8 176.4 177.2 177 181.5 181.5 183.2 182.8 184.7 192.3 199 197.7 185 181.2 174.2 174.5 176.4 157.6 161.4 166.7 179.6 191.2 198.2 215.3 214.1 215.9 217.5 223.6 221.1 221.9 220.1 218 222.7 224.6 233.4 237.6 242.5 246.7 251 257.4 265.5 273.1 279 281.6 278.4 265.2 237.4 237.4 194 179 174.3 183.2 194.6 209.7 221 230.7 238.6 247.5 255.7 263.4 277.1 283.6 283.1 281.9 286.7 289.7 294 301.9 304.3 304.2 305.2 308.6 312.4 317.4 324.9 331.6 336.6 342.9 350.9 360.5 368.3 373.8 380.9 391.8 403.3 412.3 425.6 436.6 446.4 451.5 443.3 437.6 424.8 416.2 411 401.1 386.8 381.4 362.9 350.6 347 348.1 348.1 349.3 351.6 352.9 354.5 356 357.6 356.1 357.4 359.3 354.2 354.6 354.5 348.9 350.8 350.1 349.1 351.1 354 353.6 352.8 348.1 345.4 339.9 334.7 331 330.2 329.9 330.2 330.5 332.5 332.3 331.2 330.8 330 329.4 329.3 328.2 325.6 323.7 323.2 322 320.9 319.1 314.3 308 303.9 299.2 292.7 286.3 278.3 264.9 255.2 244.3 235.7 225.5 214.4 201.7 191.9 181.6 169.6 161.5 154.2 148 140.1 139.5 139.4 139.7 139.2 139.6 143.9 148.4 155.1 161.4
176.8 177.6 176.9 176.7 175.4 178.7 182.6 177.5 176.2 175.6 174.4 174.5 174.2 176 177 177.2 177.6 177.2 176.7 177.2 175.8 175.2 174.6 172.6 174.3 175.8 175.5 174.4 175.8 176.6 177.3 178.6 181.6 190.5 201.9 186.4 181.9 173.2 169.5 166.4 165.3 167 166.8 175.3 189.7 199.2 205.4 225.7 227.1 230.3 231.5 232.5 239.3 237.6 228.5 229.6 239.9 232.4 241.5 246 250.8 256.3 261.8 269.2 274.8 281.1 286.9 289 288.2 284.6 254.3 230.5 212.8 189.6 181.9 181.6 195.4 210.5 222.5 232.7 241.8 249.5 257.6 265.7 273.4 283.6 288.5 288.8 292.1 295.8 300.1 302.5 303.7 304.8 305.6 309.2 313.4 320.6 327.1 331.6 338.6 344.8 350.2 358.2 366.4 376.4 382.9 394.1 403.8 414.2 422.7 436 448.7 450.4 440.5 438.6 431.6 413 403.5 391.9 378.3 371.8 362.1 360.8 348.9 351.3 351.3 352.5 355.1 357.5 360.3 362.3 363.8 363.3 363.3 362.3 365.2 363.5 362 359.4 363.1 361.3 353.6 354 357 357 354.6 350.7 349.5 347.4 340.7 333.4 331.6 330.6 330.6 331.1 332.1 330.7 330.1 330.1 330.1 329.7 329 328.1 325.8 323.3 322.7 321.3 320.8 319.6 314.7 309 303.6 298.6 292.2 284.8 272.2 261.3 251.6 241.9 230.7 220 209.1 197.5 184.5 174.5 165.2 158 151.5 143.3 140 139.7 139.6 139.4 141.7 146.1 149.9 155.1 163.2 171.1
179.2 177.9 176.8 176.4 176.5 176.7 176.4 176 175.2 174.2 176 176.8 176.9 177.5 179.5 179.7 179.2 179 178.4 177.8 177.1 176.3 185.4 174.5 174.2 174.2 172.6 173.2 174.5 174.8 175.5 177.8 179 188.9 198 178 169.7 167.2 167.8 171.2 173.4 171.6 175.9 185.1 198.7 207.4 218.7 232.8 233.4 243.2 246.5 244.7 243.9 236.7 238.2 237.2 244.6 246.8 249.3 252.3 258.7 265.9 270.5 275.9 281.8 287.1 292.3 294.7 294.5 290 265.2 239 209.9 195.4 190.5 186.8 197.5 211.5 222.8 232.8 241.3 250.2 259.2 269.8 274.7 279.8 290.7 296.2 296.6 299.3 300.1 304.1 307.1 309.2 312.8 315.8 319.7 324.1 329 337.5 346.9 350.5 356.9 361.1 369.1 378.4 384.8 396.4 403.2 412.5 420.8 432.5 445.2 447.7 441.9 434.6 425.9 416 397.7 391.5 383.4 378.5 365.1 356.6 356.1 357.2 355.5 356.7 359.5 363.5 366.3 368.3 370 371.5 373.2 371.9 375.9 367.3 362.8 362.6 361.7 359.9 356 356.4 359 359.5 358.4 356.1 355.1 352.5 341.1 334.2 331.9 331.6 330.6 330.7 331.1 329.4 329.2 329.3 330 330 329.9 328.8 327.7 324.5 322.4 321.3 320.2 319.7 315.1 309.4 302.8 296.8 289.4 280.5 267.2 257.5 248.9 239.9 225.2 211 200 188.6 178.8 169.8 162.3 154.7 146.5 141 139.9 140 139.3 141.6 147.6 150.7 154.7 161 167.6 174.1
179.9 188 183.3 176.4 176.2 176.5 175.1 175.4 174.6 176.7 187 186.2 180.7 184 183.5 184.4 183.9 184.8 185 185.7 191.8 202.9 202.7 190 173.5 174.3 174.4 174.3 172.9 173.6 182.5 178.6 178.2 177.8 170.7 174.4 172.8 171.7 171.6 176.4 176 174.6 181.4 193.2 204.7 212.1 225.7 236.7 238.4 245.5 251.9 241.5 242.4 236.2 239.4 247.1 251.6 254.9 258.4 263.1 269.7 275.4 279.3 284.7 288.6 294.3 297.5 299.5 299.1 290 289.2 248.5 222.8 206.4 193.3 192.3 198.8 215.6 222.5 230.6 240.9 250.3 260 267.7 274.9 281.5 291.3 297.7 300.7 301.9 306.1 307.7 312.3 315 319.3 322.2 327.2 332.3 336 340.5 348.6 355.6 358.4 364.5 377.2 386.4 392.6 396.5 402.4 409.3 417.6 427.4 440 442.3 437.9 425.6 419.5 410.2 405.8 395.7 386.2 384.2 380.4 366.1 364.1 361.5 360.4 362.6 365 368.6 372.1 376.4 378.8 379.4 378.8 378 372.6 366.4 365.2 363.8 361 358.5 357.5 361.7 363.5 362.5 360.9 360.8 360.7 352.6 340.8 334.4 332.1 330.9 330.3 329 327.9 327.1 328.1 328.7 329.3 330.7 331.4 330.2 328.6 325.6 321.8 319.1 317.8 316.2 313.5 308.7 301.7 297.1 287.3 274.6 262.7 255.4 247 234.9 218.4 203.9 193.1 183.5 173.2 163.1 157.9 151.8 143 140.5 140.5 140.6 140.1 148 152.7 157 161.7 166.1 171 178.2
181.1 180.1 177.1 176.3 175.9 175.1 175.1 174.6 174.4 178.4 185.4 188.4 187.4 191.6 196.4 197.9 195.8 191.3 189.5 195.9 212.9 232.9 237.8 195.4 178.2 174.5 174.6 174.4 173.9 173.7 172.5 172.5 172.3 177.9 181.7 186.3 173.7 171.3 171.9 171.5 176.8 184.5 195.8 205.6 210.5 219.7 234.3 239.7 242.2 246 244.2 250.1 241.3 240.3 249 254.9 259.2 263 267 271.6 283.1 283.6 288.1 294.4 298.1 302.4 304 302.5 304 299.5 289 270.3 235.1 216.5 199.9 194.4 204.1 220.4 226.8 233.7 238.7 252 260.1 268.1 275 284.2 292.3 297.8 300.8 305.7 310.7 314.2 320.4 324.8 324.1 328.5 335.3 340.4 342.7 347.5 353.5 359 367.8 372.4 382.9 389.2 391.9 398 403.2 409.6 417.2 424 433.7 437.1 428 424.3 417.3 412.6 408.7 396.9 391.1 390.1 383.2 372 370.7 365.4 366 369.3 372.2 374.8 378.7 381.1 385.6 385.4 382.5 379.8 377.1 375.8 375.6 368.5 362.4 359.1 360 365.5 366 367 364.3 363.6 360.5 357.3 337.8 333.6 331.4 330.3 329.1 327.8 326.8 327.1 328.8 329 329.7 332.3 332.6 333 330.3 325.5 319.3 316.4 315 313.5 311.8 307.5 301.4 293.8 282.7 273.7 264.4 257.3 247.4 228.9 212.3 199 187.3 177.9 167.7 159.5 151.8 148.7 141 140.6 140.9 139.8 143.7 151.1 158.4 163.3 170.2 170.8 177.1 190.4
184.2 178.8 176.8 175.4 175.5 175.8 176.1 176.6 176.4 178.7 185.8 191.7 196.3 203.9 212.7 219.8 198.8 193.1 201.5 222.5 246 261.5 248 218 193.8 180.2 174.9 175.4 174.5 174.5 174.6 175.6 174.8 178.5 194.2 197.5 187 184.1 180.3 182.2 194.7 202.8 206.6 223.4 221.4 237.6 247.1 242.5 247 246.6 246.2 245.2 247.1 253.2 259.5 263.7 267.9 272.7 276.9 282.2 284.8 289.7 294.7 300.7 306.4 309.2 311.5 309.1 308.5 306.6 298.8 288.1 244.9 221.9 206.4 196.8 208.8 228.4 238.1 244.2 246.2 256.3 261.3 269.1 276.7 289.5 293.7 299.6 305.8 309.8 315.5 320.8 325 328.5 331.8 336.9 343.8 349.2 352.3 357 361.9 369.8 376.5 379.2 383.8 391.6 398.3 402.3 404.2 410.8 414.9 426.3 430.4 434.4 429 428.4 423.3 422.9 421.6 408 405.7 395.7 379.4 378.3 375.6 370 375.1 376.9 379.3 380.7 382.5 388.6 391.8 392.5 387.2 382.9 380.5 379 377.3 369.3 363.5 361.9 362.7 365 367.8 367.5 364.8 361 353.6 346.8 336.6 333.1 330.1 328.9 327.8 326.6 326.6 327.6 329.5 330.6 333.1 335.2 335.8 335 333.4 324.9 318.4 315.5 313.5 313.4 310.9 305.6 298.8 289.9 281.7 274.3 261.5 252 235 216.8 205.7 193.4 181.8 171.3 161.3 154.4 149.8 144.5 141.1 140.8 140.9 139.8 145.5 152.8 160.8 166.3 171.5 178.2 188.2 195
176.7 177.4 181.9 177.6 176.7 176.7 177.6 178.4 178.6 186.9 193.5 204.5 215.1 222.2 215.2 210.6 202.2 209.4 220.3 252.6 263.1 260 245.7 216.5 195.8 185.5 177.7 175.7 176.1 175.6 175.7 175.5 174.8 181.6 196.8 206.9 194.9 191.4 183.2 193 210.4 218.3 217.1 224.3 229.4 242 245.4 252.3 250.3 259.7 254.3 254.4 258.5 263.8 268 273.8 279.3 283.2 287.2 289.7 291 295.3 304 308.1 312.5 315.4 316.4 314.4 313.6 315.2 308.5 295 259.3 229.7 208.7 199.2 212.6 233.5 247.4 256 253.4 258.4 262.8 269.8 278.9 285.3 294 301.1 308.6 315.3 322.1 327.6 331.9 334.5 337.9 342.1 352.1 357.7 362 363.3 369.5 376.7 380.3 381.6 388.6 395.3 400.5 403.7 407.3 410.6 415.8 423 428.7 432.6 430.6 432.5 430.8 433 426.1 424.9 417.8 402.6 387.6 377.3 382.3 379.9 381.4 382.3 384 386.7 386.9 389.7 392.9 393.2 391.1 387.6 387.6 389.3 378.9 369 364.2 364.7 364.8 364.9 366.2 364.4 361 356.8 350.3 344.4 336.5 331.2 328.9 327.2 325.9 325 325.3 328.4 332.1 334.8 339.1 339.3 339.1 338.5 330.9 322.2 316.6 315.3 311.2 312.4 307.5 302.9 295.7 286.6 278.1 269.3 253.9 237.3 223 212.1 199 186.1 174.6 164.4 156.6 150.7 145 142.2 141.3 140.8 140.1 141.9 146.8 154.9 161.5 168.8 178.6 184.6 191.4 200.2
189.1 185.4 177.5 176.9 177 178.4 179.6 185.5 188 193.5 210.5 226.6 235.2 218.3 215.3 216.1 213.1 223.4 243 259.2 252.4 253.6 230.5 206.6 196 185.7 180.2 181.4 178.9 178.4 179.1 177.9 178.1 177.8 191.6 203.9 199 195.9 191 200.3 212.3 220.2 221.4 227.6 236.1 247.5 248.2 251.7 256.8 261.4 268.7 266.5 272.2 274.1 279.8 284.9 289.4 292.9 297.9 301.3 302 306.3 310.7 312.8 316.5 319.6 321.3 320 320 317.4 313.3 303.8 257.8 236.4 219.7 202.6 217.3 236.8 251.2 256.6 256.1 260.9 263.1 272.9 276.6 283.2 291.8 301.4 310.1 320.6 327.7 333.4 338.9 342.4 346.3 355.2 360.6 367.2 369.5 372.1 378.2 383.9 389.3 390.6 391 397.8 403.4 409.9 412.4 411.1 415.1 423.5 427.3 431.5 431.9 435.4 439.6 439.4 442.5 437.8 429.8 411.6 394.2 386.4 385.5 383.7 389 391 392.4 393.2 390.9 395.5 398.2 397.3 398.2 403.4 397.4 387.3 373.6 367 367.7 367.8 366.7 365.2 363 361.3 359.2 354 348.7 342 334.5 329.7 327.6 325.8 324 323.5 324 329.1 333.8 340 343.4 343.6 341.9 337.3 328.9 321.5 318.6 315.4 312.6 307.4 300 296.1 292.9 286.9 278.7 265.4 246.5 232.1 218.3 203.8 192 180.8 168.6 158.6 152.6 144.6 141.9 141.6 141 139.8 140.8 149.1 148.2 157.3 162.1 170.9 181.5 188.3 197.9 206.9
182.5 178.4 177.2 177.4 178.5 189.8 190.5 193.5 200 218.8 220.2 227.7 223.1 219 224.5 227.8 230.4 244.1 253.8 253.1 248.9 234.8 215.6 205.2 211.6 205.4 196.5 183.2 187.5 183 181 182.7 186.4 177.6 180.4 193.5 199.8 199.1 199.4 206.8 214.5 220.4 226.1 234.7 241 249.5 252.7 266.4 274.8 275.5 273.4 274.8 273.8 280.2 284.6 285.7 293.4 300.5 305.4 306.8 308.7 311.5 313.8 316.5 319.7 324.1 325.9 325 323.2 317.2 310.8 300.7 261.8 242.2 224.8 203.6 219.3 238.3 251 255.6 257.3 261.1 267 274.5 279.8 285.8 292.7 299.8 310.3 320.7 331.5 339 345.3 348.8 354.1 364.6 369.1 370.2 376.3 382.1 386.9 389.9 396 397.1 404.9 405.9 408.8 411 413.5 415.3 418.1 423.5 430.8 432 438 439.9 443.8 444.8 444.8 437.7 433.5 415.9 402.1 404 399.1 400 401.6 401.6 401.5 404.9 402.1 400.4 400.2 400.7 403.5 402.6 390.2 377 368.4 367.8 368.6 369.1 367.4 364.9 361.2 359 356.2 351.9 346.5 340.2 332.8 328.1 325.9 324.2 322 322 324.8 330 334.7 341.6 346.5 346.9 343.6 335.8 325.3 320 316.9 314.9 312.9 304.3 297.2 295.3 292.6 286.2 274.7 254.6 242.7 229 211.8 197.3 182 170.8 160.2 152.6 146 142.2 141.7 141.5 141.5 140.7 143.2 150.2 152.6 156.5 163.3 172.9 189.5 191.1 198.6 204.6
182.1 179.6 179.5 182.6 192 198.5 194.6 199.9 211.3 219.5 222.4 228.3 224.8 226.2 234.1 235.9 245 252.5 254.6 255.5 228.9 223.3 216.3 207.3 216.8 220.3 199.7 186.7 185 190.3 197.5 205 198.1 185.8 180.4 191.3 203 210 215.3 225.8 219.6 223.1 230.3 238.1 249.6 255.8 269.6 275.6 286.2 282.3 275.5 276.9 278.9 286.1 284.4 288.6 292.4 297.1 305.7 308.7 311.7 314.3 317 319.8 322.6 326.6 327.7 327.8 324.8 318.7 307.9 283 261.1 248.5 223.4 208.3 224.1 237.1 249.2 254.8 256.1 260.1 270.8 272.9 281.3 289.3 295.5 303 312.5 322.1 335.6 345.4 353.7 360.5 367 375.8 380.9 379.8 385.3 392.9 394.9 399.2 401 401.1 405.1 411.3 410.8 415.4 421.7 424.6 423 431.3 436.2 437 442.7 447.5 451.8 450.2 445.5 441.1 430.8 423.7 422.7 418 412.5 414.6 412 408.3 410 415.5 413.4 404.7 405.6 405.4 402.6 395.8 388.9 375.9 368.9 368.2 369.2 368.6 367.3 366.3 361 356.3 353.2 349.5 344 336.8 329.9 326.7 323.9 322.5 320.8 321.7 325.7 330.7 334.1 339 342.9 344.5 339.5 329.9 325.7 319.1 312.2 311.2 306.2 299.3 296.8 295.3 293 282.2 264.9 247.7 234.9 222.1 203.9 190.1 175.6 163.4 152.9 148.1 143 142.3 141.6 141.4 140.9 146 147.3 152.4 155.4 158.8 167.4 171.7 183.1 189.3 197.5 204.9
188.8 188.9 191.5 194 202.2 203 200.3 204.5 215.3 221.9 223.3 225.3 227 234.3 240.8 246.7 256.1 258.7 260.6 235 228.6 219.4 216.9 217.5 224.7 213.1 200.9 197.1 197.3 209 215.2 212.3 205.6 193.7 187.6 191.6 207.8 216.6 223.2 228.4 229.4 230.9 235.9 244.2 253.8 267.2 281.9 285.8 294.5 281.5 283.5 283.9 286.6 290.3 296.5 291.7 295.3 298.4 304.2 307.7 312.8 317.4 320 322.5 325.8 329.3 331 330.3 326.7 321.3 312 291.7 268.5 251.5 218.2 212.6 228.6 237.1 247 251.9 256 260.6 266.8 275.6 280.7 290.9 298.6 308.2 320.7 328.5 339.6 350.2 361.5 370.6 375.1 382.2 386.1 387.8 392.1 398.8 406.8 408.5 411.9 409.4 414.1 422.5 426.5 430.9 432.4 430 430.9 438.6 447.8 448.9 456.4 455.3 457.6 459.8 457.4 447.9 432.1 428.6 431.2 429.5 421.9 425.5 417.4 416.9 416.8 419.4 415.8 413 416.1 413.7 410.3 397.9 387.4 375.6 370.2 369.4 368.8 367.6 365.4 363.1 358.6 355.1 351.3 347 341.6 334.3 327.6 321.8 319.7 319.2 319.3 321.9 327 330.1 332.4 335.3 338.7 336.8 334 330.2 323.6 317.7 305.2 301.7 297.8 297.6 295.5 294.5 286.5 273.4 258.2 241.4 229.7 213.1 197 183.3 167.2 155.3 148.7 145.1 142.7 142.1 141.7 141.1 141.9 146.6 151.7 155.5 159.1 164 172.5 180.4 189.1 198.5 204.6 207.1
199.7 201.8 198.8 209.9 213.1 210.5 205.7 204.8 216.7 223.8 226.3 227.7 232.9 241.9 246.8 250.7 259.8 257.6 248.2 240.2 230.3 227.7 231.3 230 218.1 210.8 207.2 207.6 219.9 224.6 228.3 224.4 214.7 207.7 200.2 192.4 210.9 223.4 229.5 233.8 244 236.7 242.4 254.8 263.5 274.4 286.7 288.9 286.7 287.1 291.6 292.1 292.7 300.1 304.3 300.8 304.6 302.8 304.8 310.5 314.5 319.1 321.7 326 329.9 333.4 335.2 335 332.5 325.3 320.3 311.8 282.1 234.6 218.4 214.2 229 236.1 246.1 252.6 259.6 260.6 267 274.8 280.1 288.8 301.1 313.1 326.7 337.1 345.5 358.1 366.6 375.2 383.9 389.8 395.8 397.1 403.5 407.3 414.3 421 424.3 423.7 425.4 428.1 436.9 444.5 448.3 441 438.8 447.9 454.1 463.7 465.9 466.6 469 469.9 468.9 462.1 447 441.6 440.8 430.1 427.7 424.4 424.1 424.6 428.1 433.3 428.7 428.1 422.4 429.4 403.6 393.8 383.3 374.7 371.3 369.4 367.8 365.3 362.4 359.1 357.1 353.6 349.5 344.3 337.8 331 325.1 320.4 316.9 314.8 320.8 324.5 327.1 329.1 328.7 330.3 333.6 335 333.7 326.5 320.8 312.8 300.7 293.1 293.8 294 292.1 287.3 274.8 259.6 241.1 225.4 214.2 199.6 183.4 170.4 160.1 152.2 146.3 143.7 142.7 142.8 142.6 140.9 142.1 151.7 154.7 158.5 162.6 167.3 175 184.3 194.2 206.5 212.6 212.6
209.2 210 218.4 216.8 219.3 218.1 213.5 205.6 216 224.5 232 233.4 240.9 246.6 249 251.3 251.5 251 246.4 240.8 237.3 236.3 244.9 233.3 218.4 214.8 223.8 230 235.3 234.5 222 217.2 218 213 207.3 201.7 206.1 224.5 232.7 238.7 242 242.3 249.7 261.2 275.2 279.6 285.7 286.7 286.9 288.4 294.6 295.1 296.9 303.4 309.9 310.4 303.8 305 308.7 316 320.2 324.5 328.3 331.2 334.5 338.2 339.5 338.9 337 336.4 328.9 313.4 266.2 229.2 218.1 215.5 225.5 234.8 245 256.6 263.9 266.9 271.5 278.9 285.9 293.9 304.4 317.8 336.9 347.9 356.3 367.2 374.7 382.3 393.5 399.6 402.9 407.4 411.4 418.6 424.9 429.9 433.3 436.6 442.5 443.2 450.6 453.7 457.8 462 451.3 458.5 467.4 477.4 480.5 481.5 479.4 480 480.2 467 450.1 450.9 440.6 440.2 436.1 429.1 431 430.3 433.2 435.3 440.9 433.1 418.9 413.9 403.5 386.4 380.6 374.6 371.5 368.3 365.7 362.5 358.8 356.2 353.8 349.7 346.3 341 334.6 328.3 321.7 316.2 314 312.5 320.5 323.4 323.9 324.7 324.1 326.5 333.5 333.3 325.6 321.8 312.9 304.2 297.2 289.8 287.9 289 285.6 272.7 259.6 239.7 224.4 209.8 198.5 186.4 175.6 165.4 155.8 148.5 143.3 143 142.8 143.1 143.2 142.8 145.1 155.5 159.5 161.9 166.1 177.5 181.7 185.8 202.1 212.5 221.4 219.2
223.8 233.6 235.1 226.2 228.5 231.8 223.5 211.8 225.3 229.9 235.6 239.5 244.4 244.8 249.9 252.4 251.9 248 248.5 249.7 249.6 242.7 241.5 228.6 216.9 225.3 237.5 248.6 243.7 228 220.6 220.8 220.9 225.1 212.9 206.2 203.6 222.4 233.9 241.9 242.7 246.1 252.5 265.7 277.6 282.2 286.6 287.9 288.3 293.6 299.6 305.5 304.3 309.5 309.2 311.2 311.6 313.3 320.8 323.6 326.5 330.5 335.4 337.6 339.8 342.5 344 345.5 345.5 340.9 321.6 288.6 252.5 226.3 216.3 218 227 239.1 248.6 266.5 270 275.4 282.6 290.8 301.1 312.5 317.2 326.6 339.9 352.5 367.1 377 387.1 393.3 401 408.8 421 423.2 427.8 431.5 433.5 438.4 450.3 447.9 457.4 464.5 466.1 459.9 465.5 467 462.2 467.5 475.1 483.8 489.5 491.5 491.1 490.8 488.6 480.5 459.4 454.4 445.7 450.2 444.4 438.6 445 443.8 445.2 447.4 436.2 418.6 407.8 395.3 389.5 384 378.8 374.1 369.9 366.4 362.3 358.7 354.9 352.1 347.7 343.7 339.3 336.6 332.1 325.1 318.5 313.7 310.1 307.9 317 318.6 319.3 320.3 321.1 321.5 320.7 317.9 315.2 309.2 301.1 296 289.9 285.1 281.5 280.8 271 257.1 239.6 223.5 209.1 198.1 187.3 179.5 168.7 158.6 152 146.2 143.6 143.4 143.2 142.9 142 142.9 154.2 159.7 163 166.8 170.9 180.3 186.1 194.5 213.6 223.8 228.7 226.6
247 241.5 243.9 235.3 238.1 231.3 225.8 220.1 234.2 240.3 246.2 251.1 249.5 247.9 249.3 250.5 252.2 252.3 258.2 252.5 250.5 248.8 243.6 231 231.3 249.2 252.1 244.1 233.3 230.5 228.4 231.2 236.1 238.6 233.2 218.9 216.6 212 231.1 240.8 244.5 249.7 258.6 271.8 282.2 287.1 293.7 295.6 299.2 305.1 307.9 312.1 316.4 312.6 316.2 317.4 319.8 317.5 326.6 331.3 335.9 341.4 342.1 340.9 340.2 343 345.7 346.5 346.3 339.7 321.3 280.1 242.3 219.9 215.9 218.8 228.7 239.7 255.6 268.5 275.3 287.2 293.2 300.9 314.1 323.4 330.6 336 349.4 365.5 379.1 387.8 395.3 402.4 409.1 418.4 425 435.6 442.2 444.7 446.6 452.3 457.5 463.8 468.7 477.8 473.1 477.4 481.2 484.5 479.6 479.4 486.8 497.5 503.9 504.4 503 504.8 503.3 493.5 474.5 461.1 463.6 460.8 453.1 461.9 463 461.1 457 458.5 449.8 429.1 408 387.8 384.6 380.8 376.8 372.9 368.5 364.1 358.2 353.1 350.9 347.6 343.1 338.6 333.3 330.4 329.4 321.8 314.7 308 305.2 301.7 310 311.9 314.4 315.2 314.8 314.6 313.6 310.8 304.2 297.6 291.9 284.8 277.5 271 273.1 268.6 257.6 241.3 227.6 212.5 202.4 189.7 180.7 172.8 162.6 153.9 148.1 144.8 144 143.9 143.7 143.4 144 153.6 158.5 162.5 165.9 170.9 175.3 181.8 196.4 203.2 221.3 229.5 231.7 232.7
248.8 256.7 249.7 249.7 232.9 233 232.6 228.3 238.8 247 258.3 246.8 249.2 250.6 259.4 255.6 255.1 257.8 256.3 254.9 253.2 249.2 248.4 238.2 257.2 268.7 261.7 252.7 246.2 242.1 238.3 232.4 239 240.4 238.6 230.1 233 229.5 219.6 238.3 247.5 259.9 265.3 279.1 288.1 295.1 296.7 299.5 304.4 310.3 315.4 317.2 318.1 315.9 322.9 325.6 327.3 326.9 329 336.3 342.1 344.1 346.3 345.7 344.1 343.9 347.6 352.8 353.4 336.1 322.1 272.5 235.6 216.7 216.1 220 230.2 243 256.5 270.2 286.4 308.5 309.7 319 330.4 338.5 345 350.4 364.5 377.8 391.2 397.7 404.5 416.5 420.9 423.9 440.8 442.1 448.8 457.9 461.3 465.8 471.6 480.7 484.5 488.3 489.5 496 498.9 494.2 495.3 493.4 501.8 513.1 519.4 521.6 519.7 516.4 510.5 502.3 491.5 469.6 478.2 478.6 466.2 470.1 474.6 475.1 467.4 458.2 442 416.5 395.8 389 384 379.4 374.8 370.9 365.8 360 352.9 350.4 346.3 341.8 336 329.8 320.6 320.5 319.7 316 307.3 300.4 297 296.3 299.1 305.3 307.6 305.5 307.2 305.8 304.7 303 298 290 283 274.7 269 264.3 263.4 260.8 246.8 231.7 218 205.8 193.6 181.7 174.4 166.7 157.8 149.6 146.2 144.9 144 144.2 144.1 140.9 150.8 156.2 161.6 165.7 169.8 175.6 181.8 188.5 201 212 227 233.2 235.9 237.9
262.8 261 246.6 239.2 234.3 239 234 234.7 239.9 243.7 244.7 244.8 247.3 253 258.3 256.2 257.3 261.6 259.1 255.4 249.9 255.3 254.8 251.7 266.7 276 274 264.3 254.9 251.3 247.5 245.4 245.8 253.5 244.6 236.1 245 247.5 232.3 242.2 252.2 258.9 266.8 278.2 289.8 296.2 303.1 306.6 310.2 314.6 318.1 322.9 323.6 329.1 334.7 338.3 338.7 333.4 334 337.9 345.1 351.9 349.5 347.8 348.8 345.4 348.3 351.2 358.3 340.2 307.7 269.2 227.7 217 216.7 219.8 232.1 244.3 257.7 275.5 296.5 323.3 325.2 337.7 345.9 350.1 355.6 364.2 379.8 391.4 404.3 409 418.9 430.3 435.3 441.3 450.2 459.6 464.9 466.3 475.7 481.1 486.4 491.5 499.2 501.1 506.1 516.3 516.3 512.4 507 510 518.3 529.7 533.5 535.1 531 523.4 517.8 506.9 492.6 489.5 491.6 489.7 476.9 486.3 487.6 480.8 466.7 452.2 426.9 408.5 397 388.9 382.7 377.7 373.2 367.6 361.5 356.1 348.6 344.6 341 334.7 327.7 316.9 308.7 312.3 308.8 305.5 298.1 292.5 290 293.3 299.3 298.4 293.9 295.9 296.5 295.1 294.8 290.3 284.1 278.6 274.2 266.3 263.6 259.9 255.4 247.6 236.1 223.4 208.5 193.2 184.4 175.1 168.8 160.4 153.9 148.4 146.3 145.1 144.3 144.2 143.9 147.2 154.3 159.6 164.3 168.5 175.4 180.4 186.2 192.2 208.8 216.5 225.9 236.6 241.5 247.4
269.6 251.2 245.7 236.7 238.9 237.7 238 239.3 238.3 238.5 241.2 243.1 247.9 251 257 257.3 260.7 264.3 261.7 258.1 255.6 255.4 256.1 260.3 272.2 272.1 270.7 264 268.5 260.5 260.9 257.2 261.6 256.3 250.9 246.3 255.5 258.9 243.1 242.9 254.8 262.1 268.3 278.6 289.4 296.8 304.4 314.2 315.5 323.2 323.5 326.6 330 335.3 344.1 347.8 348.9 343.2 341.5 344.1 348.4 352.2 351.8 352.8 351.7 348.5 347.7 349.5 354.5 329.4 295.2 255.2 229 218 216.8 218.6 231.6 245.9 260.6 287.4 315.6 329.7 342.8 353.7 357 363.1 373.1 377.6 393.4 403.8 410.7 422.9 437.3 445.7 451.3 456.4 460.3 474.2 478.3 486.4 488 492.9 500 507.1 510.8 516.3 524.7 528.3 527.5 527.9 526.8 529.5 534.9 543.4 542.7 540.8 535.2 527.9 519.8 509 497.8 498.3 496.4 490.3 494.8 499.3 500.4 505.4 476.8 440.3 415.4 407.2 401.4 388.1 381.9 376.5 370.6 364.4 357.1 351.6 346.5 339.9 334.8 328.4 318.5 307.3 298.4 299.4 298 292.6 285.7 280.3 281.5 286.7 289.1 283.9 282.1 285.9 290.2 286.9 281.1 277.7 273.5 268.1 262.4 257.6 253.3 246.1 248.3 234.3 218.4 208.6 192.5 184.9 175.2 167.2 161.9 152.5 149.3 147.6 146.5 145.9 145.3 145.1 143.9 152.6 158.3 162.8 167.1 172.7 179 184.8 190.8 198.2 215.5 224.5 232.8 242.3 251.1 255.8
261.4 260.2 246 240.4 245.1 239.1 238.1 238.4 237.8 239.6 240.3 245.2 247.5 250.3 257.4 258.5 260.9 267.9 263.2 257.4 256.1 256.3 258.2 264.8 269.2 273.3 271.9 272.4 273.2 270.6 272.6 273.3 265.9 253.6 251.9 253.9 259.3 257.6 248.1 243.4 253.9 262.9 269.2 277.3 288.5 295.5 300.9 306.3 312.4 318.5 325.5 333 341.3 345.2 353.5 357.9 357.4 354.6 355.1 358.2 358.7 360.6 360.2 354.3 354.2 352 350.9 349.4 343.1 316 286.8 248 223.5 217.8 216.8 219.6 232.1 249.1 271.5 327.3 331 344.7 358.4 366.1 365.9 373 382.1 394 405.8 411.9 424 437.4 451.1 463.4 466.7 471.2 478.3 481.7 492.2 501.9 505.2 505.6 513.9 518.9 521.8 528.1 535.8 537.9 536.5 538.8 541.3 543.7 544.1 543.1 542 542 540.9 536.2 525.8 509.3 512 504.3 503.9 502.4 505.5 509.6 514.1 510.2 470.9 433 414.4 406 397 387.7 381.8 375.3 368.2 361.5 352.6 349.5 344 333.8 322.7 312.4 301.2 293.7 282.7 284.4 283.1 279.1 271.7 268.3 267 271.3 269.3 268.1 267.1 270.7 273.2 273.2 268.4 264.2 259.5 251.8 245.1 239.3 229.2 222 223.5 213.4 199 191.8 184.9 175.6 167.9 159.9 153.3 150.1 148.7 146.5 144.3 145.5 144.7 144.3 150.9 156.4 160.3 165.2 170.5 175.2 181.7 187.6 193.8 214.4 224.7 232.6 241 251.4 260.2 263.9
269.7 264.8 253.1 248.8 249.2 247.4 241.4 242.5 238.3 239.4 245.5 249.9 248.9 255.8 257.8 258.8 264.7 267.7 257.9 257.4 257 262.8 269.9 274.4 271.6 276.6 278 281.3 273.7 275.2 279.2 270.5 259.8 255.4 255.9 258.8 262.9 261.5 257.9 252.6 256.8 264.7 270.6 276.8 285.5 292.8 298.5 307.8 314.1 322 330.3 338.2 352.1 355.7 357.3 359.5 364.1 367.5 369.4 369.1 366.3 365.3 365.9 366.8 360.8 357.1 353.5 343.6 332.2 298.5 269 243 223.5 217.7 217.3 220.8 233.7 252.8 282.7 336 358.1 360 369.2 378.4 374.1 390.1 395.9 409.8 420.2 426.2 439.4 456.9 465.3 479.8 486 492.6 496.7 502.2 503.6 515.3 518.5 524.1 525.6 531.4 533.8 543.5 544.9 542.9 546.4 546.7 548.1 544.9 542.2 541 540.7 544.2 544.5 540.4 523.1 513.8 514.4 508.1 506.5 516.5 516.1 517.3 522.3 500.9 453.9 427.3 416.2 405.8 396 389.3 381.4 372.7 364.1 357.8 352.6 345.5 333.6 323.2 309.1 295.6 283.1 275.1 269.9 271.3 267.9 263.8 262.1 255.6 253.9 253.9 253 251.3 253.7 257.1 252.7 246.9 242.9 241 233 227.1 222 216.6 210.2 204.1 195.3 192.2 187.3 180.5 174.5 166.5 157.4 153.5 151.9 149.6 149 147.7 146.3 145.3 145.1 146.6 154.9 159.6 162.7 167.5 173.7 180.1 184.5 188.9 200.1 220.5 228.3 238 248 259.6 269.7 266
