ncols 200
nrows 82
xllcorner 270000
yllcorner 111650
cellsize 50
169 167.9 171.1 172.6 171.6 168.8 164.1 159.3 155.8 151.4 147.7 144.6 141.8 139.2 136.8 134.4 133.1 128.6 117.6 102.3 105.1 111.4 114.7 113.8 110.1 104 98.1 102.9 106.8 110.2 115.8 123.5 126.1 124.7 119.8 115.8 117.4 126.3 134.5 142.8 147.4 150.8 153.2 155.5 157.8 160.5 163.4 167.5 170 172.5 175.9 179.3 181.9 184.2 186.5 188.8 190.5 191.8 193.2 195.2 197.2 199.1 201.9 204.7 207 209.3 211.2 212.4 213.5 212.9 212.8 213.3 212.9 211.7 210.9 210 207.2 204.7 201.8 198.3 196.2 195.7 192.9 190.6 188.3 187.7 188.2 187.5 186.2 186.4 189.1 190.4 189.7 186.9 183.2 181.4 179.5 176.5 172 171.7 176.9 181.9 185.5 187.6 188.6 188.7 188 187.9 187.7 187.5 187.7 187.1 187.3 187.5 187.1 186.1 184.7 183.5 181.7 180.3 176.8 173.6 167.3 162.7 161.8 159.9 157.4 165.5 172 175.7 177.9 179.3 179.9 180.4 180.7 181.2 181 179.2 177.4 175.7 173.7 167 174.5 177.6 179.3 180.4 181.6 183.6 185 186.1 185.9 185 183.5 182.1 179 179.9 176.8 172.9 164.6 159.4 154.8 148.6 145.3 143.3 144.5 151.1 156.6 161.8 165.4 168.7 172.6 174.9 176.9 177.4 179.3 180.6 181.1 181.5 182.6 184.1 184.1 184.6 184.9 185.2 184.3 183.2 182.8 182.3 180.1 179.3 178.3 177.4 175.4 172.2 162.7 152.7 164.9 174.5 179 182
164.1 164.9 169.4 172.4 172.2 169.2 165.6 161 157.5 152.8 148.8 145.7 142.4 138.6 136 132.8 130.2 126.8 116.2 103.5 103.4 106.1 110.2 108.8 102.5 98.7 98.3 105.7 108.6 116.2 124.6 130.1 133.1 132.5 129.6 123.8 120.8 121.9 131.4 139.3 144.3 148.1 150.6 153 155.7 158.4 161.1 164.2 167.4 170.2 173.2 176.6 178.9 181.1 183.3 185.3 187.1 188.3 189.6 191.6 194.7 197.1 200 202.8 206.1 208.7 210.6 212.2 213.6 214 213.3 213.9 213.7 212.4 210.7 207.6 204.4 201.2 198 194.7 192.1 190.8 189.1 186.8 184.6 183.8 183.9 182.3 183.5 187 189.1 189.6 187.9 183.8 178.9 175 173.6 169.2 167.6 174.4 177.3 180.2 185 187.1 188.8 189.2 189.2 189.1 188.9 188.8 189 188.8 189 189.6 188.3 186.9 185.4 184.1 182.2 179.9 173.4 169.5 169.6 169.8 166.7 162.4 156.5 161.4 167.3 171.5 175.6 176.8 177.9 178.4 178.7 178.4 178.1 176.3 173.7 172.1 170.5 167.8 172.6 174.1 175.3 176.5 177.7 180.5 182.1 183.8 184.5 184.7 184 182.8 180.1 175.5 170.8 165.5 160.2 154.7 154.3 154 148 143 143.3 151.5 155.4 160.4 165.9 170.5 172.9 174.3 175.3 175.8 177.7 177.4 178 179 179.8 181.7 182.8 184.7 185.7 186.2 186.6 185.9 184.7 183.1 182.1 179.8 177.1 174.4 171.8 168.4 161.9 150.7 158.3 171.6 176.8 179.5
158.7 165.7 169.5 172.7 172.2 169.3 166.2 161.6 156.9 152 147.4 143.2 139.7 135.6 131.9 127.3 124.3 121.7 115.1 104.3 100.4 102.4 106.8 103.2 98.2 96.2 104.6 106.9 112.8 124.2 132.4 137 140.2 139.3 137.8 134.4 128.6 121.6 126.1 134.6 140.4 143.6 146 148.3 151.5 154.1 156.8 159.5 163.3 166.9 170.2 173.2 175.6 176.7 177.9 179.4 180.8 182.8 184.9 188.5 191.9 194.9 197.2 200.5 204 207.3 209.8 211.4 213 214.1 214.2 214.3 213.9 211.9 209.3 206.2 202.8 199.2 195.7 191.8 189.3 186.2 185.4 183.3 181.9 179.8 177.2 181.1 184.8 187 187.8 187.8 185.5 180.1 175.3 169.8 165.2 166.8 172.9 176.7 179.7 181.1 185 187.4 189.5 190.1 190.2 190.3 190.2 190.6 190.9 190.4 190.2 190.2 187.7 186.4 184.7 179.5 177 174.9 174.1 176.3 175 173.4 170.5 164.7 158.9 156.7 161.9 167 171.1 172.7 174.2 175.7 176.3 176.3 175.4 173.5 170.8 169 167.4 165.5 170 171 171.1 172.4 175 178.1 179.8 181.5 183.3 184 184.2 182.9 179.6 173.5 167.6 164.3 162.6 162.7 163.6 159.5 152.6 143.1 142.6 149.3 151.9 156.9 163.5 167.9 170.4 172.2 173.5 174.2 174.7 174.2 174.8 175.9 176.9 178.4 180.3 182.8 184.3 185.6 185.6 185.4 184.5 182.3 179.8 176.5 173.4 171 166.7 162.6 156.6 153.2 149.8 164.6 172.8 175.4
155.4 164 169 171 171.4 169.5 164.7 159.9 155.2 149.2 143.3 138.6 132.6 127 122.3 120.4 120.3 118.6 114.3 105.6 99.1 99.9 100.4 98.9 95.3 101.5 104.7 109.9 120.4 132.9 139.6 143.8 146.5 147.4 146.5 142.3 137.8 131.5 124.1 127 133 136.1 139.8 143.1 146.4 149.4 152 154.4 159.2 163 166.4 169.6 170.8 171.8 172.6 173.6 174.2 176 179.2 183.6 187.6 191.2 193.9 198.4 202 205.3 208.4 210.8 212.3 213.9 214.1 213.5 212.3 210.5 207.8 204.5 200.9 197.4 193.8 190.3 187.5 185.4 179.8 179.2 177.2 175.1 174.1 180 183.2 185.4 185.8 185.1 182.8 178.3 173.5 167.4 165 170.9 173.1 175.3 176.3 177.6 183.7 187.7 190.1 191 191.2 192.1 192.1 192.5 192.8 192.3 191.9 190.4 187.6 184.3 182.3 181.8 181.6 180.2 179.2 179.8 178.1 176.2 173.6 168.8 162.7 156.6 157.4 162.4 166.1 168.6 170.1 171.6 172.5 173.2 172.9 170.5 168.2 166.1 164.1 163.4 167.6 167.6 167.1 169.7 172.8 175.7 177.4 179.1 181.4 182.6 183.6 183.6 180.4 177.8 174.4 171.8 170.7 169.2 166.6 161.2 155.5 148.7 141.9 142.7 147.5 153.5 160.2 165.1 167.4 169.7 171.3 172 171.5 171 171.1 171.6 173.2 175 178.3 180.8 182.1 183 183.9 184.4 184.3 182.8 180.4 176.8 174.9 174.1 170.7 167.6 164.7 158.7 147.6 157.9 167.8 169.3
156.4 155 165.2 168 168.8 167.2 163 157.8 151.7 145.7 138.2 131 124.2 117.6 116.6 116.1 116.2 114.4 112.1 107.5 102.3 95.5 96.9 94.7 100.6 105.3 109.8 119.9 130.9 138.8 144.9 149.1 152.6 153.6 153.1 149.3 143.7 137.9 131.8 127.8 126.6 127.8 130.4 134.9 138.5 143.2 146.6 150.6 155.1 158.7 160.7 161.7 164.7 165.5 163.5 165.3 170.2 170.7 171.5 176.4 182.5 187.2 191 195.2 199.5 203.4 206.3 209.1 210.8 212.6 213.2 212.6 211.4 208.2 205.9 203 199.6 196 192.5 189.3 187.1 184.4 181.7 177.3 172.2 171.8 171.3 176.8 179.4 182.1 182.3 181.7 179.7 176.6 171.8 167.1 168.1 170.9 171.8 172 172.2 178.1 183.1 187.3 190.3 192 193.9 194.4 194.5 194.4 194.6 194.2 193.1 190.9 188.9 187.1 186.7 186 185.1 183.9 182.6 182 180.1 177.9 175.3 171.3 166.5 160.8 154.9 156 161.6 164 166.1 169.5 171.3 171.6 171.3 169.6 167.3 164.3 159.9 162 164.8 164.9 163.7 166.3 169.4 171.6 174.2 176.6 179.6 182.6 183.9 184.6 183.6 181.8 179.2 176.2 173.4 171.2 168 164.9 159 154.6 147.3 140.9 142.6 149.3 157 161.6 164.1 166.5 167.9 168.3 167.8 166.9 164.8 167.9 169.9 173.4 176.5 178.6 180.3 182.1 183.9 184.6 184.4 183.5 181.5 179.1 178 177.3 175.5 172.9 169.1 163.3 151.7 147.7 157.6 159.6
156 148.6 155.9 164.3 165.8 163.9 160.5 155.3 149.4 142.5 133.6 125.3 116 113.7 112.4 110.7 110.4 109.3 107.8 104.3 101.7 95 93.5 98.9 105.4 108 114.2 124.1 133.7 141.3 148.3 153.3 157.3 159.2 158.5 156.2 151 147.4 141.3 136.5 135.1 135.7 135.9 140 140.3 137.6 137.6 145.7 150 152.7 151.8 152.3 153.5 161.1 166.5 170.8 175.2 177.7 179.9 181.6 181.5 182.9 188.6 193.2 197.3 200.7 203.9 206.9 209.2 211.4 211.7 210.3 208.5 206.2 204.1 201.2 198.2 194.7 191.1 188.7 186.2 183 180.3 177 171.8 167.7 165.8 171.4 175.4 178.2 178.8 178.2 176.7 174 170.1 162.2 163.5 166.6 166.7 167 170.2 175.3 180.1 184.9 189.8 194.1 196.4 196.7 196.8 196.7 196.4 195.3 194.3 192.7 190.9 189.7 189.3 188.4 187.5 186.8 185.9 183.7 181.8 179.8 175.9 171.9 167.7 163.7 158.9 152.4 155.4 160 162.6 166.7 169.5 169.8 169.5 168.1 166.4 163 158.2 160.3 161 159.9 160.7 163.7 167.5 170.9 174.2 177.2 180.7 182.8 184.1 184.2 183.3 181.2 178.8 176.8 174.8 172.4 169.2 166 161.1 157.9 155.2 149.3 142.3 144.2 152.6 157.6 159.7 162.8 164.3 165 163.6 163.5 165.9 167.9 171.4 174.2 175.7 178.6 180.4 182.2 184 184.8 185.1 184.3 183 182.1 181 180.3 178.5 176.6 173.2 168.1 159.4 148.5 142.7 147.9
157.3 146.2 150.3 161.9 162.3 160.3 156.3 151.2 145.1 137 126.3 117.3 111.4 108.5 106.9 105 104.7 104 102.9 101 98.1 93.4 95.8 102 106.6 111.3 119.2 127.5 136.7 144.7 151.7 157.7 161.9 164.4 164.8 162.6 158.5 155.3 151 145.8 141.3 140.6 141 144.9 146.9 146.1 145.7 144.6 145.4 149.9 152.4 154.9 161.2 165.8 170.4 174.8 178.7 182 184.5 185.4 186 184.6 186.4 191.1 195.1 198.8 202 205.1 207.5 209.3 209.8 208.2 206.6 204.4 202.3 199.3 196.3 193.3 190.3 187.4 184.4 181.1 177.9 172.4 167.6 163.7 161.3 166.1 170.2 173.9 175.2 174.6 173.1 170 166.6 159.6 158.8 162 163.7 165.4 168.4 172.1 177.1 182.4 188.9 195.2 198.1 198.7 199.6 198.9 198.1 197.2 196.1 194.5 192.8 192 191.5 190.6 189.9 189.2 188.4 185.6 183.7 180.1 176.7 173.4 169.8 166.4 163 158.1 151.2 154.6 158.3 163.1 166.2 166.8 167.1 166.7 164.5 161.4 154.5 157.1 156.1 157.1 160 163.6 167.6 171.6 174.5 177.5 180.7 182.7 183.1 182 181.2 178.1 175.6 174.2 172.2 170.6 168.7 166.1 163.7 161.5 158.4 153.2 142.9 139.9 145.6 149.4 154.2 157.7 160.3 160.2 158.5 165.6 170 172.2 174.9 176.9 176.2 178.6 180.4 182.3 184.1 185.4 185.3 184.6 184.1 183.3 183.2 182.5 180.3 179.1 176 172.8 165.1 159.7 151.2 144.6
152 142.7 145.8 156.6 157.1 154.5 150.7 144.5 139.1 128.7 118.4 110.7 107 103.1 102.1 100.1 98.3 98.4 96.6 93.7 93.9 95.2 98.7 104.7 110.3 117.2 124.7 133.1 141.1 149.2 155.8 161.6 166.3 168.7 169.1 167.3 164.8 160.8 155.6 151 147 146.1 145.8 148.2 151.1 152.3 153.1 151.5 152.6 155.2 157.9 160 160.6 167.9 172.4 176.1 179.9 184.2 188.4 190.7 190.9 190.5 188.9 189.6 194.1 197.5 201.2 204.3 205.7 207.2 207.9 206.5 204.9 202.6 200.4 197.5 194.4 190.9 187.6 184.9 182.1 178.4 171.6 167 167.7 166.4 161.5 160.5 165.8 169.6 171.5 170.7 169.1 166.7 163.4 157.9 157.1 159.5 162.3 166 168 170.9 176.6 181.4 187.8 194.5 199.1 200.6 201.2 200.7 199.8 198.9 198 196.3 195 193.9 193.3 192.6 191.8 191 190 187.6 185.1 181.9 178.7 176.3 172.7 169.4 165.4 161.4 157.4 150 153.9 158.5 161.2 162.1 162.5 162.7 160.8 157.8 151 153.7 156.1 157.8 159.6 163 167.2 170.4 173.5 177.2 180.4 182.3 181.8 180.5 178.6 176.4 172.6 171.5 169.7 168.2 167 165.4 163.2 160.4 157.6 153.5 145.4 139.1 147.9 152.3 152.4 154.4 155.9 157 160.7 166.1 169.2 172.1 175.4 177.2 177.3 177.7 179 180.2 181.7 183.2 183.7 183.5 183.5 182.7 181.8 180.8 179.5 178.2 175.9 173.5 169.5 164.8 159.8 151.9
145.2 137 146.3 152.5 151.7 148.1 145 138.4 130.3 122.2 113.3 103.1 98.1 97 97.1 94.2 92.7 93 91.3 93.8 96.6 101.3 104.6 105.6 115.7 122.5 129.6 139 145.5 152 158.4 164.2 169.2 172 172.8 172 169.7 165 159.7 154.4 150.7 150.3 149.2 151.5 154.5 157 158.3 157.5 158.6 160.2 163.8 165.8 166.2 167 173.4 176.8 182.2 187.2 191.3 193.7 194.5 194.2 193.7 193.4 196.4 198.6 200.7 202.7 203.9 205.2 206 204.8 203.2 200.9 198.6 195.6 191.9 187.4 183.8 181.3 178.9 173.7 172.4 175.9 175.2 172.6 167.9 158.8 160.1 164.3 167.8 166.8 165.1 163.1 160.1 155.3 157 160.2 163 166.5 170 174.3 179 184.4 190.5 195.9 200.4 202.1 202.9 202.6 201.7 200.7 199.8 198.2 196.5 194.8 194.1 193.7 192.7 191.7 190.7 188.8 186.4 183.8 180.7 178.5 175.4 171.2 167.1 163.2 159.7 156.4 150.7 152.7 155.7 157 157.6 156.8 154 151.9 148.1 152.9 156.9 158.7 160.1 162.3 165.7 169 172.7 176.7 180.1 181.8 181.7 181.6 178.5 175.9 173.6 169.6 165.6 163.8 162.3 162.5 161.9 159.4 155.9 151.1 143.2 139 150.5 155.3 158.2 160.2 161.2 162.1 163.1 164.5 167.7 170.9 174 175.5 175.8 175.8 176.1 176.6 177.3 178.6 179.7 179.7 180.6 179.2 178.3 177 175.5 173.4 170.8 169.2 167.1 166.2 163.1 155.5
132.7 137.2 147 147.9 145.9 143 139 133.5 124.9 116.3 107.7 97.7 94.8 92.2 92.2 91.9 93.1 93.5 97.1 98.6 103.3 108.8 113.8 116.1 115.5 125.5 134.4 141.4 148.1 154.6 160.9 166.7 171 174.6 176 175.2 173.2 168.9 163.5 158.2 155.7 154.8 153.8 154.9 157.6 160.1 163.2 164.7 166.2 168.9 170 170.9 170.8 169.7 173.5 178.9 184.4 189.8 192.8 195.1 196.4 196.8 196.5 196.8 198.5 200.6 202.2 204.3 204.8 204.6 204 202.7 201.3 198.7 195.9 192.8 189.3 186.2 182.7 178.1 174.6 175.5 179 179.3 176.6 172 167.9 163.4 153.9 159.8 163.3 162.9 161.1 158.9 155.2 154.6 158.7 162.3 165.4 169.9 174.4 178.9 183.7 189.1 194 197.4 201.6 203.7 204.5 204.5 203.6 202.5 200.9 199.2 197.5 195.8 194.6 193.8 192.8 191.6 190.4 189 186.8 184.7 182.5 179.3 176.1 172.9 168.8 164.9 161.4 158.2 156.1 150 149.3 151.2 151.9 150.5 149.1 145.7 144.9 151.6 155 156.9 157.6 159.7 163 166.4 171.6 175.9 180.1 182.3 183.1 181.6 179.7 177.5 174.6 170.9 166.9 160.9 158.3 158.5 159.4 158.6 155.3 150.1 140 138.9 150.8 156.6 159.6 161.5 162.6 164.1 165.8 167.1 168.9 171.1 173.7 175.2 173.6 173.4 172.6 173 173.1 174 175.6 175.9 176.8 175.3 173.6 172.1 170.1 167.3 165.8 164.2 162.4 160.5 157.3 150.8
131.4 140.3 143.6 142.2 140.2 138 133.7 127.5 118.9 110.7 100.4 92.7 91.2 90.5 91.3 93.8 97.6 103.1 106.9 111.4 116.1 121.7 125.9 127.8 127.9 126.1 135.2 142.3 149.3 155.1 160.7 166.1 170.3 174 177.4 177.7 175.8 172 167.1 162.3 160 159.1 159 160.4 164.2 167.5 170.8 172.4 174.1 174.3 175 175.9 175 174.6 176.3 180.4 185.9 190.1 193.6 196.1 197.9 199.3 199.3 199.7 200.5 202.6 204.7 206.3 205.6 205 203.2 201.4 199.9 197.5 193.7 190.5 187.9 184.9 180.5 177 180.6 181.5 181.6 179.8 176.4 171.3 167.6 163.6 155.9 153.8 159 159.2 155.7 151.4 155.2 160 161.9 166 170.6 175.7 180.3 184.8 189.2 194 198.8 201.7 204 205.5 206.2 206.4 205.2 203.7 202 200.3 198.6 196.6 194 192.1 190.8 189.6 188.4 186.9 184.5 182.4 180.3 179.1 175.9 173.2 170.5 166.6 163.7 161.3 159.9 156.3 151.1 145.4 145.7 145.2 146.2 145.6 139.2 146.4 151.6 153.9 153.7 157 160.3 163.7 168.2 175.2 179.7 182.7 183.8 183.4 181.4 178.6 175.6 171.7 167.7 163.6 159.5 155.3 155.9 156.1 153.6 148.5 139.2 140.1 152.1 156.7 159.2 161.1 162.7 164.4 166.4 170.3 172 173.1 173.8 174.9 173.3 171.1 169.6 169.4 169.3 169.5 171.2 172.1 173 171.7 170.2 167.6 164.7 162 159.5 158.3 156.3 154.5 151.8 143.8
131.3 137.3 137.7 136.6 134.5 131.9 128 122.7 112.3 102 90.8 89.5 90 93.6 98.4 102.7 109 116 120.4 125.1 129.6 133.8 136.6 138.1 137.2 138.3 135.1 139 144.8 153.2 158.5 165.3 169.3 173.5 178.1 179.8 177.8 174.7 171.1 169.5 168.7 168.7 169.2 168.4 172.2 175 176.4 178.6 179.8 180.3 180 180.6 180 180 181.1 182.9 187.1 190.6 194.2 197 198.9 200.7 201.6 201.7 201.5 203.3 204.9 206.3 206.2 205.6 203.8 201.7 200.1 196.1 192.1 188.7 185.8 182.7 183.9 184.1 184.7 184.2 182.6 180.1 176.7 172.7 167.3 162 158.6 151.4 153.1 153 150.2 157.8 163 165.7 168.6 171.2 175.8 180.7 185.7 190.4 194 198.9 202.2 203.9 205.8 207.3 208.6 207.8 206.3 204.5 202.8 201 199 196.6 193.6 190.4 188.8 187.6 186.4 184.7 182 179.9 178.1 177 175.3 172.6 169.6 167.6 164.6 163 161.1 160.1 157.8 156 157.7 156.2 157.2 153.6 144.7 138.4 147.2 150 151.4 154.7 158 161.2 165.1 170.9 177.2 181.7 184 184.1 182.3 179.5 176.2 172.4 168.4 164.5 160.3 155.7 150.6 152 151.8 147.5 138.9 142.2 151.2 152.8 155.3 158.4 161.6 164.5 168.4 171.3 172.6 173.2 173.9 174.5 172.8 170.6 166.9 164.3 164.6 164.3 165.8 168.5 169.1 168.5 167.3 164.9 161.2 157 151.6 151.9 148.8 147 144.5 138.1
129.9 131.4 131.7 130.4 127.5 124.5 122.1 117 108.2 93 88.1 90.3 97.6 105.3 111.7 110.8 114.9 123.2 129.4 135.2 139.2 141.8 143.6 144.1 143.7 144.7 145.7 146.9 149.6 155.2 160.4 165.8 170.6 175.8 180.3 182.3 182.8 180.5 179 179.4 179.1 179.5 179.7 179.1 179.1 180.5 181.9 183.8 184.3 184.6 185.2 185.7 185.7 185.3 186 187.8 189.6 191.4 194.4 197.7 200 200.8 201.2 201 200.7 202.2 204.2 205.8 206.6 206.3 204.5 202.8 200.2 196.4 193.6 190.1 186.8 184.7 187.3 187.6 186.9 185.4 183.1 180.4 177.1 173.5 168.7 165.3 162.5 157.2 148.9 148 157.8 165 167.8 170.4 173.4 176.4 180.9 185.7 190.3 194 198.2 201.2 203.6 205.8 207.6 209.1 210.2 208.8 207 205.1 203.3 201 198.4 195.9 193.3 190.1 186.8 185.6 184.5 182.6 179.7 177.4 176 175.8 173.6 170.3 167.2 165.8 164.3 162.6 160.8 160.6 160.5 160.6 160.7 160.7 159.3 155.8 150.3 143 138.8 145.9 149.1 152.4 155.6 158.9 163.3 167.4 171.9 178.3 182.2 182.5 181.3 178.7 175.7 172.2 168 164.1 159.2 153.1 148.7 147.2 148.3 146.1 138.9 140.9 149.1 156.7 159.6 161.3 163 165.4 168.9 171.1 172.5 172.9 172.8 173.4 171.7 168.4 163.9 158.8 157.7 157 158.1 161.9 163.3 164 163.5 162 159.2 154.7 146.2 142.3 139.1 136.8 133.6 132.1
124.2 125.7 125 123.2 121.3 118.6 115.9 110.9 103.4 88.8 89.6 96.6 106.1 115 120 122.4 120.5 126.2 134.5 138.6 143.1 145.7 147.5 149.1 149.1 150.3 152.8 154.6 158.5 162.9 167.6 172.2 176.4 179.7 183.3 185.4 186.5 186.5 186.8 186.7 187.2 186.9 186.3 186 186 186.2 186.5 187.4 188.3 188.9 189.6 190.3 190.5 190.6 190.9 192.6 193.6 194.4 196.1 197 198 199 200 200.2 199.9 200.9 203 205 205.9 206.1 205.6 204 200.8 198.9 195.8 192.3 190.2 190.4 189.9 188.9 187.3 185.3 183.1 180.4 177.3 173.7 170.4 167.6 164.9 158.6 147.7 151 162.7 168.5 171.2 174 177.1 180.1 184.5 188.7 193 196.4 199.7 202.3 204.3 206.2 208 209.8 209.5 208.6 206.4 204.3 202.1 200 197.1 194.9 192.6 189.7 186.5 183.6 182.6 180.4 177.6 175 173.8 172 170.1 167.9 164.9 163.5 161.5 160.6 160.4 160.3 160.5 160.8 160.6 160.5 159.6 156.3 151.6 146 139.2 141.2 146.7 150 153.3 156.6 161.2 166.3 170.5 174.7 178.8 179.3 178.8 177.1 173.8 170.5 167.3 163.3 158.1 153 148.5 144.5 140.9 140.6 135.4 142.7 152.4 157 160.4 162.7 165.1 167 169.4 170.8 171.9 172.6 172.4 172.3 170.4 167.9 163.7 160.3 156.6 151.5 150.4 152.8 155.8 157.2 157.8 156.6 150.6 142.4 136.7 133.1 131.2 131.2 131 130
120.3 120.2 117.5 115.1 114.1 111.9 109.2 105.5 96.5 88.1 92.6 101.6 112 119.1 123.9 127.4 130 133.2 137.7 141.8 146.7 149.7 152.3 155.3 156.5 159.5 161.6 166 168.4 171.7 174.4 177.9 181.7 183.9 186.3 188 189.2 190.1 190.6 190.8 190.7 190.6 189.9 189.1 189 189.5 189.8 190.7 191.6 192.5 193.3 194 194.2 194.6 195.4 195.7 194.4 193.9 193.7 194.4 195.8 196.9 197.7 198.4 199 199.8 201.3 203.7 204.9 205.5 205.5 205.2 203.3 201.3 198 195.2 192.7 192.2 191.1 189.9 187.1 185.2 181.8 178.9 176 173.4 171.1 168.2 164.1 157.1 144.1 153.3 163.3 168.8 171.9 175.2 178.5 181.9 185.9 190.2 193.3 196.3 198.8 201.1 203.3 205.4 207.4 208.6 208.5 207.2 205.2 203 201.2 199 196.2 193.4 190.7 188.5 184.9 182 179 176.4 174.5 172.4 169.8 167.5 165.5 163.7 162.6 160.8 158.5 157.6 157.7 159.2 160.2 160.5 160.4 160.1 157.9 155.4 152.2 147 140.9 138.3 142.2 146.2 150.3 155.2 159.8 165.9 169.9 173.3 176.8 177.2 176.8 174.9 172.6 169.5 166.2 162.1 157.8 153.7 149.2 145.3 143.5 137.5 133.4 142 151 154.5 158.6 162 165.2 168 169.9 170.3 170.6 171.6 171.4 170.3 168.6 167.4 165.4 162.4 160 156 153.2 147.1 140.2 143.9 148.1 144.4 136.9 131.5 130.2 130.2 130 130.6 132.2 135.8
115 113.7 111.5 107.8 106.4 105.1 102.2 96.7 85.8 88.9 95.5 105.6 114.5 121.7 127.4 131.5 134.7 139.1 142.6 147.2 152.3 156 159.3 161.9 164.1 167.1 169.9 171.8 174.4 176.4 178.2 181.4 183.9 186.3 188.3 189.6 190.3 190.3 190.2 190.4 190.8 191.3 191.5 191.8 191.9 192.2 192.5 193 193.8 194.7 195.5 196.3 196.7 197.1 197.4 197.4 195.8 194.5 192.3 191.7 193 194.1 194.2 194.9 195.4 197.5 199.1 201.2 203.3 205 205.2 206.1 205.2 203.9 201.3 198.3 195 194.3 192.7 190.1 187.3 184.6 179.6 175.4 171.9 170.9 169.4 167.3 162.9 154.7 143.3 154.7 163.3 168 171.6 175 178.7 182.6 186.3 189.2 192.2 195.1 196.4 198.8 202.1 204.2 206.3 207.1 207.4 205.9 203.8 201.9 200.2 198.1 195.3 192.5 189.8 186.7 183.7 182 180 178.7 176.6 174.9 173 171.1 168.9 166.7 164.1 163 160.9 156 150.1 153.2 156.6 158.5 158.7 158.4 156.1 153.6 151.1 147.5 142.4 137.4 138.2 143.3 149 154.6 160 165.5 169.9 172.3 174.3 175.1 174.5 172.3 170.1 167.8 165.2 161.1 157.1 153.5 150.7 149.6 148 142.1 136.4 140.3 148.3 153.4 158.3 162.1 165.8 168.5 170.4 170.8 170.5 169.9 169.5 167.6 165.8 162.6 160.2 158.9 155.6 149.8 147.1 143.4 138.3 135.9 133 130.3 129.8 129.8 129.7 129.7 130 134.5 136.9 144.3
107.7 104.7 102.6 100.9 99.3 98 92.9 87.6 84.9 91 96.4 103.2 112.9 122.3 129.4 135.1 140.7 144.7 148.8 153 157.4 161.7 165.2 167.8 170.1 172.2 175.1 177.6 178.7 180.5 182.3 183.7 185.9 188.1 189.1 190 190.6 190.3 190 190.3 190.8 191.2 191.1 191.1 192 193 193.7 194.4 194.9 195.6 196.3 197.1 197.5 197.8 197.8 197.6 196 193.9 191.5 188.4 189.8 189.2 189.5 190.3 192.1 194.7 196.4 199.1 201.2 203.3 205 206.1 206.9 206.4 204.3 201.4 198.1 196.3 193.5 189.2 185.9 181.7 177.5 171.9 165.6 164.6 165.4 164.7 161.5 152.3 142.9 153.2 161.9 166.8 170.5 173.8 177.8 181.6 184.8 187.6 189.4 192.1 193.7 197 200.4 203.1 205 206 206.6 205.7 204.3 203.1 200.5 198.5 195.8 193.2 190.6 189 187.7 186.2 184.8 182.8 180.6 178.6 176.9 175.2 173.4 171.3 169.5 167.3 164.3 160.3 155.9 148.8 149.7 154.6 155.8 155.8 153.9 151.6 149.1 146.5 142.2 137.5 135.6 142.5 147.7 152.2 157.1 163.2 167.1 170.7 172.1 172.8 172 169.8 167.5 165.3 163.1 161.1 158.6 155.3 153.3 152.6 150.9 146.8 135.8 137.1 151 154.8 158.5 162.2 165.5 168.6 170.6 170.4 170 168.6 166.3 166.1 163 157.8 153.8 149.9 146.3 139.9 134.9 132.3 132 129.7 128.6 128.8 132.8 129.6 131.9 135.1 138.2 141.9 147.2 157.5
98.7 94.8 93.1 90.7 88.7 86.2 84.7 85.1 90 96 104.1 111.7 113.7 120.2 128.9 137.5 143.9 149.1 153.7 157.4 161.2 165 168.1 171 173.9 176.1 178 180.3 181.7 183.7 185.1 185.6 186.9 188.6 189.4 189.9 190.1 189.7 189.4 189.8 190.4 190.3 190.2 190.5 191.2 192 192.7 193.5 194.4 195.1 195.7 196.3 196.8 197.3 196.8 196.1 193.9 191.8 189.1 186 185.3 183.8 184.9 186.6 188.8 190.8 192.4 195.5 199.1 202.8 204.1 205.8 207.5 207.4 206.7 204.3 201.2 197.6 192.2 185.1 181.4 178 174.4 167.7 162.5 158.4 158 159.3 157.6 151.6 141.5 150.3 158.5 163.7 168.1 171.7 175.2 180 182.8 184.4 186.6 188.8 191.5 194.9 198.7 201.7 203.6 205.6 206.6 206.9 205.7 204.5 202.7 200.9 199.4 197.4 194.8 192.6 191.3 190.8 188.4 186.4 184.7 182.5 180.6 179 176.9 175 173.1 170.1 167 162.9 158.2 155.4 148.1 148.3 150.9 152.8 151.5 149.3 146.7 144 141.4 136.2 134.3 140.1 144.6 149.4 153.6 158.5 162.9 167 170.4 170.5 169.6 167.7 165.7 163.8 161.8 159.8 157.7 156.8 155.6 154.5 153.3 149.2 136.4 133.7 150.2 152.6 159.4 162.8 165.8 168.4 169.8 170.3 168.2 165.8 162.6 159.6 156.8 153.1 150.2 144.3 137.4 131.6 129.9 128.5 128.5 128.3 128.4 128.8 132 137.9 140.5 144.6 152.1 155.2 156.9 163.4
88.9 85.2 83.1 82.7 83.7 83.4 86.9 94.3 99.8 105.7 115.2 120.8 124.3 124.3 125.9 134.4 144.3 150.4 156.3 160.7 164.4 168.2 171.1 173.8 176.7 178.5 180 182.1 184.7 185.9 186.1 186.3 186.6 187.2 187.9 187.8 187 186.6 186.3 186.3 186.8 186.8 187.5 189 189.1 189.9 190.5 191.8 192.9 193.8 194.8 195.6 195.8 195.6 195.2 193.3 190.5 187.8 185.5 181.7 177 179.2 179.1 183.2 185.4 186.9 188.6 191.9 195.5 200.4 203.3 205.2 206.5 206.9 206.7 205.4 201.2 196.4 187.9 181.6 176.4 172.9 170 165.3 157.2 153.9 150.7 149.1 148.9 146.9 140.5 147.1 153.2 160.5 164.8 168.6 172 175.3 177.6 179.1 182.3 186.9 190.5 194 197.1 200 202.7 205.1 206.6 207.8 207.1 206 204.9 203.4 201.7 200 198.3 196.6 194.9 193.4 191.9 189.9 188.2 186.4 184.4 182.6 180.4 178.3 176.2 173 169.7 165.9 161.9 158.2 153.7 147 143.7 148.6 149.2 146.9 144.5 142.2 139.9 135.3 133.6 138.2 142.2 147.2 151.8 158.1 163.7 167.2 168.4 168 165.5 163.6 161.6 159.7 158 156.7 155.8 155.8 155.8 156.1 155.2 152.1 139.9 133.6 150.3 155.4 160.2 164.6 168 170.5 170.6 169.7 167.4 165 161.4 157.7 152.4 146.2 144.3 141.3 131.2 128.6 128.3 128 127.9 128.2 131.5 137.5 143.9 150.8 156.5 160.5 163.2 164.7 164.8 164.8
80.2 79.1 83.7 86.8 90.7 97.3 103.2 108.7 112.1 118.5 125.3 129.7 132.2 134.5 135.5 136 142.8 152 158.4 163.7 167.6 171.4 174.1 176.7 179.4 180.9 181.2 180.5 183 183.5 183.8 183.8 184.5 183.9 183.2 183.8 182.8 183.4 183.1 183.1 183.5 184.2 185.6 187.1 187.7 187.7 188.3 189.6 190.8 192.1 193.4 194.6 194.8 194.2 192.8 190.3 187.2 183.9 180.3 177.7 171.3 173.9 174.7 177.7 180.9 182.5 184.3 186.5 193.3 197.6 201.2 203.3 204.7 205.7 205.6 204.7 201.4 193.1 183.8 177.6 172.2 167.1 163.5 163.7 165.1 164 160.6 156 150.4 145.9 141.9 142.7 149.3 156.6 161.6 165.4 168.7 170.8 173.4 177.1 181.1 185 188.6 191.9 194.7 197.2 200.5 203.3 205.9 207.6 207.8 207.1 206 205 203.8 202.1 200.3 198.6 196.9 195.6 194.1 192.6 191 189.5 187.9 185.9 183.3 181.3 179.2 176.2 173 169.4 165.5 161.4 155.5 151.5 145.8 140.2 144.2 144.7 142.3 140 138.5 135.2 132.3 137.2 142.1 147.8 153.7 158.4 164 165.9 165.6 164.8 162.1 159.4 157.7 156 154.3 153.1 152.2 153 154.2 155.5 156.1 152.2 138.9 132.9 144.7 154.6 159.5 164.4 168 170.3 170.3 168.8 166.5 163.8 160.3 156.6 152 145 136.4 131.8 128 127.9 128 127.3 128.7 133.7 140.5 148.8 153.8 156.9 159.7 163.2 166.3 167.9 168.4 170
83.8 91.9 97.7 102.5 107.4 112.7 116.2 118.2 121.8 126.6 131.3 135.5 138.5 140.9 141.9 143.6 145.7 153.2 160.3 166.6 170.9 174.2 176.8 178.3 179.5 179.2 179.5 178.8 179.2 178.9 178.9 178.3 178.3 178.1 178.1 178.7 178.3 178.9 179.8 180 180.9 182.1 183.6 184.8 185.9 185.9 186.2 187.4 188.7 190.2 190.3 191.9 193.4 192.2 189.4 186.1 181.3 177.9 175 173.2 169.9 167.1 168.7 170.9 173.9 178.6 182.2 187 192.2 194.6 198.1 201.1 202.5 204.2 204.3 204.1 201.4 196.6 189 182.5 177.7 173.7 173 174.7 175.3 174.2 169.4 163 157.3 152 146.8 138.4 146.7 153.5 157.6 161 163.5 167 171.2 175.4 178.9 181.9 184 186.3 189.3 193.2 196.7 200 203.3 206.1 207.7 208.1 207.1 206.1 204 202.4 200.9 199.4 198 196.7 195.1 193.2 191.2 189.9 189 188 186 183.7 181.3 178.6 175.6 172.3 168.6 164.6 159 153.7 148.7 143.2 136.3 140.8 140 138.8 136.9 133.8 133.3 140.1 143.5 150.5 157.9 162.4 165.1 165.1 162.9 160.4 157.6 155.2 154 152.3 150.7 149.5 148.5 149.9 151.9 154.4 154.8 151.4 138.3 131.7 146.6 155.2 160 164.6 167.2 169.5 169 167 163.5 159.8 155.8 150.2 143.5 137.3 129 127.6 126.9 127.5 129.2 130.7 132.1 141.2 148.1 152 154.7 157.5 160 162.9 165.4 168.9 171.6 173.6
92.7 101.3 107 112.5 118.7 124.7 127.5 129.1 131.1 134.2 137.4 141.6 145.2 148.1 150.5 152.4 153.4 158.7 165.4 170 173.1 175.2 176.8 177.8 177.4 177 176.4 176.1 175.9 175.2 174.4 173.2 173.3 173.4 173.3 173.6 174.1 174 174.9 176.8 176.7 178.5 179.9 181.3 182.7 183.4 184.1 185.3 186.8 188.1 189.5 190.3 191 189.1 185.9 182.6 178.7 175.2 170.6 168.2 165.3 160.4 169.3 173.2 176.5 179.6 182.5 187.4 190.5 192.8 194 197.4 200.7 202.8 202.7 202.2 201 198.5 193.9 188.1 183.4 180.8 182 183.7 182.6 179.5 175.6 169.8 162.2 155.1 149.3 138.2 143.9 149.3 153 156.8 160.7 164.7 168.2 171.7 174.7 176.5 177.6 180.2 184 187.8 192.1 195.8 199.8 203 205.8 207.9 207.8 206.5 204.1 202.6 201.1 199.5 197.7 196 194.2 192.4 190.8 189.2 187.5 186.7 185.6 183.8 182 179.5 176.8 174 170.4 166.4 161.8 156.7 151.6 146.3 141.8 134.2 135.3 136.8 133.7 130.4 139.7 147.4 150.1 152.4 160.4 164.5 164.5 161.6 158.4 155.4 153.4 151.4 149.9 148.5 147.1 146 145 147.3 150.7 152.9 153.1 149.2 136.8 129.6 149.4 156.7 161.7 165.6 167.4 168.2 167.3 164.8 161.2 157.9 153.4 147.1 137.5 128.7 127 126.5 127.1 130.7 133.6 138.4 138.5 135 147.8 155.6 155.3 154 154.9 158.3 162.4 167.9 171.3 174.2
96.6 104.9 114.5 122.7 130.4 135.9 138.5 141.2 142.1 143.6 146.5 151 154.9 158.5 159.8 160.7 162.9 165.9 168.1 171.1 173.9 175.2 176.4 176.5 175.6 174.8 173.7 172.5 171.6 170.8 169.7 168.2 167.8 167.3 168 167.3 166.8 166 166.5 169.7 171.5 174.2 175.8 179.6 182.9 183 183.3 184.6 185.9 187.6 189.5 190.6 189.7 187.4 183.5 179.6 175.9 172.5 167.2 162.5 158.1 164 170.6 173.9 177.3 180.6 183.4 186.2 187.7 189 190.5 195.6 199.6 201.3 200.6 199.8 199 197.7 194.9 189.7 189.8 189 189.6 188.4 186.5 182.9 178.2 170.7 161.1 154.6 149.4 140 138.4 143.7 150 154.1 156.7 160 164.2 167.7 170 171.1 171.6 174.2 177.8 182.2 185.6 190.5 195.9 200.6 205.3 206.7 206.5 205.6 204.3 202.4 200.1 198.1 196.2 194.4 192.3 189.9 188.2 186.6 185.8 185.2 184.2 182.8 180.9 179 176.7 174.3 170.5 167 162.8 158.3 153.8 149 143.7 137.9 133.1 132.5 130 134.9 146.9 153.3 156.4 157.9 162.3 165.9 165.9 164.2 160.2 155.2 152.2 149.7 145.3 144.6 142.8 142.4 142.5 145.2 148.4 150 149.8 145.9 132 131.7 146.1 154.8 161.1 165 165.1 164.6 163.8 161.6 158.6 155.1 150 143.3 131.4 125.8 126.1 126.9 130.8 140.2 147.3 150.3 151.6 145.1 139 145 145.7 151.5 155.3 153.2 158.5 166.7 172.1 174.2
94.1 106 119.6 130.1 137.6 144.1 148.3 151.3 153.8 155.4 158 161.2 163.7 165.3 165.1 166.3 167.3 168.5 170.3 172.3 173.4 174.1 174 172.6 171.4 169.5 167.3 166.6 165.7 164.5 163.4 161.5 160.2 158.4 155.9 153.6 155.7 160.2 162.9 165.1 167.7 169.8 174.1 179.1 183.2 183.3 184.3 186 187.3 188.6 189.9 189.3 187.3 185 181.9 178.3 175.1 171.6 165.1 158.4 156.2 164.4 169.5 172.1 175.1 178.3 180.3 180.7 182 183.7 189.4 194.3 198 199.2 198.1 197.2 195.9 195.1 193.7 192.9 192.6 192.4 191.1 189.6 187.5 183.9 178.5 172.2 166.8 162.1 155.2 143.4 135.2 140.6 147.1 151.2 153.3 156.4 160.3 161.9 163.7 164.1 165.8 169.5 170.7 173.9 179.1 185.6 192 199.6 203.9 205.3 205.1 204.2 202.4 200.5 198.4 196.6 194.6 192.6 190.2 187.6 185.6 184.9 183.7 182.4 181.3 180 178.3 175.8 173.7 172.2 168.6 164.8 161.5 157 152.1 146.6 140.8 137.3 133.4 128.8 134.5 141.2 153 158.6 161.3 163.3 164.7 167.3 167.4 166.3 164.3 161 158 154.6 148.8 144.1 139.8 139.9 140.2 143.1 145.7 147 144.1 135 130.6 135.8 149.5 156.6 160.6 163.8 163.4 162.3 160.1 157.5 154.8 151.1 144.6 134.6 129.1 125.8 127.1 130.7 138.6 150.6 154.4 157.7 159.3 155.5 148 149.3 154.4 159.6 161.7 160.8 156.8 160 167.7 171.8
91.7 102.2 119.5 132.3 142.6 149.7 155.5 158.9 160.4 162 163.8 166.7 168.1 169.7 169.4 170.4 170.4 171.1 171.6 171.7 171.3 169.7 168.9 167.4 164.3 161.9 160.1 158.1 157 156.8 152.4 146.9 144.9 149.7 153 157.7 162.8 168.6 170.6 172.3 173.7 173.8 176.5 178.7 183.4 184.1 185.8 187.5 188.5 188.7 189.3 188 185.8 183.6 181.2 178 174.8 171.6 166.8 161.1 153 160.4 165.9 169.9 172.2 174.5 175 174.8 176.6 182.7 189.5 194.1 196.2 196.6 195.9 194.1 192.8 192 191.6 192 191.5 190.9 190.2 189.3 187.9 184.7 180.2 177.6 173.5 170.7 163.2 152 135.2 138.4 142.8 146.8 145.4 151.9 154 155.4 155.3 157.4 162.8 167.1 173.1 181.1 186.1 192.4 196.8 200.2 202.3 204 203.7 201.9 200.1 198.2 196.4 194.4 192.4 190.3 187.9 185.4 182.6 181.3 180.1 178.9 178.2 176.8 174.5 171.8 169.3 168 165 161.6 157.5 152.9 147.2 141 138.1 134.9 131.3 130.8 142.1 147.7 152 160.4 164.2 166.6 168 168.6 168.5 168.4 165.8 162.8 159.7 155.1 150 144.2 136.6 137.2 138 141.4 144.6 142.4 134.8 129.5 130.6 140.9 154.7 159.8 162.2 162.4 161 158.5 155.5 151.6 149.3 146.4 142.6 130.1 125 125.8 128.6 135.5 143.4 153.2 158.6 162.9 165.4 164.9 162.1 161.1 163.9 166.9 168.7 167.9 164 158.4 161.1 164.8
90.9 101.4 116.9 131.1 142.7 152.1 158.3 163.1 165.7 167.3 169.1 170.1 170.9 172.2 172.7 172.3 171 170.2 169.6 167.3 165.4 164.2 162.8 160.6 157.5 154.3 151.1 148.4 144.5 139.7 139.1 144.4 151.1 158 162 166.1 170.5 173.9 175.4 176.2 176.9 177.4 179.6 181.4 183.7 184.9 186.3 187.8 188.9 189.1 187.8 186.5 184.5 182.3 180.7 177.7 174.5 171.4 168.7 164.5 155.8 155.9 160.2 164.4 166.8 169.8 170.3 169 175.4 182.7 190.1 194.7 196 196.2 194.3 192.2 190.2 188.8 188.4 188.8 188.6 188.3 188.1 187.4 186.5 184.9 183 180.6 178.2 173.8 167.1 158.3 142.5 133.3 137.3 139.5 140.7 143.6 145.7 149.6 157.7 163.8 170.5 176.6 181.6 186.5 190.6 194.1 196.9 198.5 200.6 201.7 201.3 199.3 197.5 195.7 194 192.2 190.2 188 185.7 183.1 180.1 177.5 176.3 175.9 175.1 174.3 170.6 168 165.2 163.7 160.8 157.7 153.7 148.8 143.2 137.8 134.2 130.8 128.8 137.7 152.2 157.8 161 163.2 165.8 167.4 169.4 170.1 170.2 169 166.3 163.3 159.4 154.9 149.1 143.4 139 132.4 135.4 138.2 137.7 134.3 129 129.8 138.8 151.5 160 162.6 162.7 162.3 160.2 156.5 152.1 147.4 142.6 139.6 132.2 125.5 124.6 128.5 129.2 143.2 152.5 157.6 160.9 164.2 166.7 167.6 169.1 170.4 172.6 174.9 175.5 174.8 173.1 169.2 166.6 165.7
93 102.9 117 128.8 141.2 152.5 159.5 164.6 167.7 169.3 170.8 171.5 171.9 171.5 171.5 170.8 169.6 166.9 164.3 161.7 158.8 156.1 152.7 150.7 147.8 144.5 140.9 133.4 132 137.9 145.1 152.7 158.6 164.4 168.9 171.5 175.1 177.1 178.9 179.9 180.3 180.8 181.9 183 184.9 184.6 186.2 187.8 187.7 186.6 185.1 183.6 181.8 180 178.4 177.4 174.7 172 168.9 165.2 158.9 147.3 154 158.3 159.8 159.9 161.8 168.5 175.1 184 190.8 195.3 195.5 194.8 192.7 190.8 188.7 185.4 184.9 185.2 185 184.6 184.4 184.3 184.3 183.6 182.1 180.5 177.8 173.6 168.1 161.2 153.9 141.7 133.8 141.6 148.1 150.7 152 155 161.7 168.5 174.5 179.6 183.7 187.6 190.1 193.5 195.7 197.4 198.9 199.3 198.8 197.1 194.9 193.2 191.5 189.8 187.9 185.7 183.4 180.6 177.6 174.6 173 172.8 171.7 170 168 165.1 162.3 159.5 156.5 153.4 150 145.2 140.3 135.1 131.9 128.7 133.6 148.5 157 160.2 162 163.1 164.2 165.8 168.7 170.4 170.9 169.6 166.8 162.9 158.5 153.2 147.6 142.6 139.9 136.3 130.5 133.1 131.5 128.3 129 140.7 153.1 160.4 163.4 164.4 163.5 162 159.4 155.9 151.6 146.8 141.4 133.3 127.2 124.9 125.3 129.9 135.7 148.1 155.1 159.7 163.2 165.3 166.6 169 171.4 173.7 175.8 177.4 178.7 178.8 177.9 177 176 174.9
92.8 104.2 119.8 131.2 140 149.8 157 161.6 164.4 166.4 167.8 168.4 168.1 167.8 166.4 166 163.2 157.3 153.8 152.2 148.3 144.5 140.6 139.4 136.9 131.4 127 130.3 137.8 144.4 150.7 156.5 162.2 168 171.9 175.2 177.9 179.6 180.5 181.8 183.3 183 183.5 184.6 185.8 184.9 185.8 187.1 185 183 181.3 178.3 177 176.1 174.7 173.8 172 168 160.2 154.4 151.1 144.3 146.2 149.7 154.3 161.4 167.8 174.9 182.2 187.4 191.4 195.1 195.2 193.4 191.5 189.6 187.3 184.6 180.6 181.4 181.3 181 180.8 180.6 180.5 179.7 178.1 178 176.6 172.2 166.9 159.8 153.2 141.1 132.1 143.3 155.9 160 161.6 163 164.8 168.7 173.5 178.2 182.5 186.7 189.6 192.4 194.7 196.3 197.2 196.6 195.8 194.7 193.8 192.2 190.5 188.5 184.9 182.3 180.8 178.4 175.2 171.2 170 169.5 167.9 165.6 163.6 161 157 154.4 151.8 148.6 145 141.6 135.9 132.4 129.4 128.9 142.2 152.2 157 159.3 160.1 161.5 162.3 164.4 166.9 170 170.4 169 166.5 162.6 157.1 152.4 147.2 142 137.7 134.8 130.1 126.9 126.3 129.1 140 150.9 157.6 162.2 164.1 163.6 163 161.3 158.9 155.6 149.9 145.7 139.3 130.1 125.5 124.8 126.7 132.6 143.1 142.6 153.3 158.3 161.2 163 165.2 167.8 171.1 174 176.8 178.5 179.7 179.7 179.5 179.3 178.9 178.6
95.3 107.4 123.3 133.8 142.4 148.2 153.6 157.1 160.2 162.2 163.5 163.6 163.8 161.2 158.6 153.9 148.8 143.6 141 139.3 135.6 133 131.3 130.9 125.8 123.9 131.1 137.4 142.3 147.8 153 159.3 165.1 170 173.7 176.6 179.1 181.1 181.4 182.7 184.5 185.1 185.6 186.2 186.6 185.8 185.5 185 182.4 178.3 175.7 172.7 171.3 170.4 169.2 168.2 165.7 160.5 149.6 143.5 140.5 142.4 150.2 157.9 162 166.6 173 179.2 183.8 186.8 190.4 193 192.9 191.7 190.3 188.2 185.8 183.5 178.7 176.2 177.6 177.3 177.1 176.5 175.1 175.7 175.6 175.5 175.4 171.3 166.4 159.5 146.2 131.9 133.7 147.2 160.7 164.7 166.4 167 168.4 170.3 173.6 176.1 180.4 184.7 189 191 192.9 194.3 195.7 195 194.3 193.3 192.6 191.1 189.2 186.4 182 178.6 175.9 173.4 169.4 167.8 165 164.3 161.2 159.3 156.9 155.2 151.4 148.5 145.5 142.5 139.5 135.4 133.1 130.8 127.1 133.1 146.1 152.8 155.9 157.2 158 159 159.9 161.7 164.4 167.4 168.2 167.4 165.2 162 155.7 150.4 147 141.9 137.1 131.7 126.9 124.9 130.8 138.6 145.3 154 159.7 162.9 163.7 163 162.1 160.4 157.9 155.4 150.9 145.6 135 126.7 124.7 124.3 128.8 141.3 147.6 147.8 148.2 153.5 156.9 159.8 164.1 167.3 170.9 174.1 176.4 178.3 179.5 180.2 181 181.2 181.3 181.5
99.9 115 127.1 135.4 141.3 144.5 146.5 147.9 152.2 155.5 156 157.2 156.4 154.6 148.3 142 137.7 132.7 130.1 128.9 127.2 125 123.7 122.3 120.3 127.8 136.5 141.9 146.3 150.4 155.8 162 168 172 175.3 177.4 178.1 179.1 180.3 182.2 184 185.9 187 187.5 187.3 186.4 185.6 183 178.6 173.5 168.6 167.1 165.5 164.1 162.8 161.1 156.9 144.9 139.8 137.2 143.2 147.9 152.1 161.8 166.5 170 174.6 179.9 184.6 187.5 190.4 190.9 191.4 190.3 188.3 187 184.7 182 178 172.4 173.2 172.8 172.2 170.6 169.8 171.3 174.2 173.9 173.6 171.7 168.7 161.3 140.3 130 143.3 154.9 161.6 166.2 169.7 170.1 171 170.9 173.6 175.1 178.6 182.7 187.4 189.1 191 193.4 194 193.4 193 192.3 191.3 189.8 187.1 184.4 179.9 177.7 176.3 174.5 171.6 170.3 166.9 164.2 161.6 158.6 157.2 156.3 154.2 152.6 149.7 150.1 148.4 145.5 140.4 134.8 126.4 132.7 147.4 152.2 153.6 154 154.1 154.6 156.1 158.5 162.5 165.4 166.3 165.6 163.7 160.2 153.7 147.9 144.5 141.1 134.7 126.1 126.6 135.8 144.4 149.9 153.6 157.8 161 162.8 162.8 161.9 160 157.6 153.7 149.7 145.3 140 128.1 124.3 123.1 125.5 131.2 142.6 149.9 152.6 153.2 154.6 156.9 159.8 163.2 166.8 170.7 172.9 175.4 177.5 178.2 178.9 179.8 180.4 180.1 181.7
107.8 120.9 129.4 133.6 136.4 138.7 138.4 139 141.1 142.9 145.1 148.2 148.2 144 137.1 131.4 127.6 124.8 123.4 121.6 119.1 116.7 114.7 117.5 125.4 135.2 141.6 146.2 150.7 154.9 159.2 164.9 170.4 173.2 174.8 175.3 174.9 175.4 175.9 177 181.4 184.5 185.9 187.1 186.9 186.7 185.8 183.2 179 173.7 167.8 159 156.7 156.6 154.9 150.6 143.9 139.4 134.9 143.1 150.6 155.8 156.4 162.1 169 173 177.2 180.8 185.4 188.2 190.2 190.5 190.3 189.4 186.5 186.3 183 180.2 177.3 172 167.5 165.9 164.7 163.2 164.4 167.5 170.4 172.2 172 170.7 169 164.2 140.3 126.7 137.1 145.8 153 160.1 164.4 166.9 168.6 169.3 171.6 173.8 177 180.9 185.7 188.3 191.1 192.3 193.5 193 192.4 191.5 190.3 189.7 187.8 184.8 184 182.6 181.4 180 178.5 176.1 172.5 169.7 168.2 166.2 164.9 164.7 164.4 162.4 160 157.5 153.6 150 146.5 138.9 129.1 127.1 142.3 149.2 149.8 149.1 149.6 151.3 153 156.8 161.6 163.8 164.9 163.4 162 157.4 151.3 145.5 142.2 138.8 131.5 123.3 132.8 143 148.7 153.2 156.7 159.9 161.3 161.7 161.1 159.8 157.6 154.5 150.1 144.7 139.3 131.6 123.7 122.5 124.4 128 133.2 145.5 151.4 154.6 156.8 158.6 159.9 161.9 164.5 166.9 169.5 171 173.7 175.3 175.5 176.2 177.3 178.5 179 180.8
109.5 119.5 124.8 127.9 129.8 130 130 130.6 132.9 133.7 136.6 139.4 138.6 134.6 129.3 124 119 116.5 114.3 112.8 111.7 109.2 115.5 122.3 131.2 143 149 151.6 155 160.1 163.7 167.4 170.4 171.4 171.6 170.9 168.9 168.5 169.4 172.4 177.1 181.5 183.6 185.7 186.7 187 186 183 178.7 173.1 166 159 151.9 148 146.4 140.9 139 132.4 139.5 147.5 155.6 160.7 163.1 165.3 169.6 175.3 178.9 182.6 186.1 188.2 189.6 190.2 189.8 188.5 186.6 186.6 182.9 178.1 175 173.8 170.9 168.5 165.7 162.5 158.9 161.1 166 167.9 166.7 163.3 160.1 157.2 147 127.5 125 132.1 141.8 152.3 157.7 161.6 164 166.3 167.6 171.7 177.1 181.2 184.7 188.1 190.5 191.6 193 192.3 191.6 190.6 188.7 188.5 188.5 186.6 186.6 185.1 183.3 182.4 182.1 180.3 177.4 174.1 172.8 172 172.1 171.6 170.2 167.8 164.8 161.5 157.6 154 150.5 144.3 134.6 125 135.6 146.4 145.9 144.8 148.2 152.2 155.3 158.6 161.2 162 162.6 161.5 160.3 156.5 151.2 145 140.2 135.7 128.2 123.7 132.2 141.1 147.4 152.6 156.8 158.9 159.5 159 157.6 156.1 154.1 151.4 147.4 141.5 132 125.2 122.9 123.8 128.1 132.9 141.3 146.7 151.4 155 158.5 161 162.8 164.4 166.1 167.8 169.4 170.7 172.3 172.9 173 173.5 174.6 176.8 178.3 179.9
108.4 115 117.9 119 120.5 120.9 121.2 121.2 123.9 125.9 127.4 131.5 131.2 127.6 121.6 112.9 109 106.3 105 101.3 107.9 113.5 118.6 129.7 141.3 151.4 155.2 156.7 157.5 162 164.6 165.1 166.4 166 164.4 162.6 160.7 159.9 160 164.9 171.7 177.7 181.4 184.2 186.2 186.8 185.5 181.6 176.7 170.2 162 155.5 147.3 143.2 139.8 137.1 132.9 138.4 146 153.1 160.3 164.6 167.9 170.4 173.4 176.6 180.3 183.9 186.3 188.1 189.1 189.8 189.1 188.5 187.9 186.7 184.2 179.5 178 176.5 175.3 173.2 170.3 166.7 160.8 153.8 158.9 161.3 158.9 153 148.2 145.7 142.1 130.8 129.4 122.5 126.2 137.2 148.5 154.2 158.4 160.3 163.4 172.2 176.5 182.3 185.3 187 189.3 190.6 191.3 191.1 190.4 189 187.3 187.3 187.4 187.4 187.3 186.5 185.2 185.8 185.6 184.5 183 180.3 178.7 177.8 176.1 175.1 173.2 171 168.4 165.6 163 158.4 153.6 148.4 138.9 127.5 129.5 139.5 140.6 148 152.7 156.4 158.4 158.7 161.3 161.8 160.7 159.9 158.9 155.9 152.2 146.3 139.8 134.7 128.5 123.3 130 139.1 145.2 151.6 155 156.8 157.4 156.8 155.3 153.5 151.9 149.1 144.9 138.4 127.6 122.5 122.9 125.6 130.5 137.1 141.8 145.8 150.6 154.5 158.7 160.9 162.8 164.5 166 167.6 168.9 170.2 169.7 169.5 168.3 172.5 174.8 177 177.3 178.5
105 107.1 107.3 107.2 110.1 111.4 110.2 111.2 114.2 116.4 118.1 122.5 121.3 117.4 108.9 102.3 96.8 97.8 103.6 109.8 113.7 122.9 133.3 142.7 150.2 154 154.7 156.5 158.4 159.8 161.1 160.5 160.4 159.7 157.8 155 152.2 150.1 151.2 156.8 167.4 173.4 178.4 181.2 183.4 184.7 183.3 178.7 173.7 166.4 158.9 152.8 146.2 138.8 132.4 129.7 133.6 142.8 151.3 157.9 163.6 167.4 170.7 173.4 176 178.6 181.6 185 186.6 188 188.9 189.3 189 188.5 187.9 186.9 184.5 180.9 179.6 177.4 175.3 172.5 169.5 166.5 161.7 153.4 150.4 150.5 145.4 144.8 142.4 141.1 141.4 143 143.1 132.9 120.7 125.3 137.2 144 153.1 158 163.3 171.3 175.2 178.9 182.9 185.7 187.5 188.8 189.4 189.2 189 188.1 186 185.6 185.2 185 185.4 186.4 186.5 186.4 187 186.5 185.8 183.9 182.9 180.7 179.6 177.8 175.2 172.7 169.9 167.1 165.8 160.8 155.9 150.4 142.5 129.8 124.5 132.3 143.3 149.5 153.5 157.1 160.9 161.4 161.2 160 158.9 158 156.8 155.5 151.9 146.2 139.4 134.3 128.1 121.6 128.7 139.2 145.6 151.1 153.1 153.8 154 153.7 152.5 150.3 148.4 147.2 142.8 131.3 123 122.5 124.5 128.2 134.7 142.9 146.3 148.2 151.7 155 158.8 160.6 162.4 164.1 165.4 166 167 166.5 165.4 164.6 168.3 172.2 174.6 176.3 176.7 177.1
101.4 98.2 97.6 97.1 97.7 97.6 98.7 100.5 103.7 106.7 110.1 114.1 113.8 107.2 96.7 94 100.9 105.8 111 118.5 128.6 133.4 135.9 140.7 144.4 145.7 147.1 151.1 152.6 153.7 154.2 153.8 152.7 151.1 149.2 146.6 143.2 141.3 144.2 156.5 164 170.2 174.1 176.9 179.8 181.1 179.6 175.4 170.7 163.2 155.8 150.4 143.6 134.8 127.7 129.6 138.8 147.1 155.3 160.4 165.5 168.6 172.1 175 178.2 180.9 183.5 184.6 186 187.5 188.3 188.7 189.2 188.5 187.9 187 184.7 182.2 179.3 176.9 174.5 171.7 168.7 166.4 161.8 158.6 152.5 144.9 150.1 154.9 155.8 155.9 155.3 154.1 148.3 137.6 121.4 131 146.8 155.6 162.3 167 167.8 169.6 173.5 177.6 181.6 184.3 186.7 187.7 187.2 187.3 186.2 184.3 183.9 183.4 182.9 182.7 182.8 183.4 184.4 184.2 185.3 186.1 185.4 184.3 182.6 181.1 179.4 177.6 175.3 173.2 170.6 167.3 164.4 161.3 156.5 151 143.6 130.8 125.1 138.8 144.7 149 152.7 156.1 159.1 159.7 158.9 158.1 157 155.8 154.5 153.5 150.3 145.9 140.3 132.4 126.1 121.4 126.5 139 145.8 148.8 149.7 149.5 149 148.4 147.1 144.7 143.7 141.6 131.2 122.7 122.7 124 128.3 136.5 142.5 146.7 148.8 151.1 154.4 156.8 157.8 159.4 159.7 159.6 160.1 161.8 161.9 161 160.7 160.6 165.1 168.6 171.6 173.9 174.8 175.3
92.9 88.5 87.3 87 87.5 89.1 90.3 92.4 95.9 99.6 101.4 101.7 101.5 95.1 91.2 102.7 110.4 115.5 117.1 119.4 123.3 125.8 128.2 130.7 133.2 135.2 138.1 139.4 143 143.6 143.3 142.1 141.7 141.8 139.7 134.9 132.1 131.2 145.6 155.5 161.1 165.6 169 172.4 175.3 176.8 175.6 172.2 166.6 159.4 151.6 145.5 137.6 127.9 124.3 134.3 139.5 145.2 150.5 156.9 162.6 168.4 172.4 175.5 179.4 182.2 184.6 184.8 184.4 185.9 186.9 187.9 188.5 189.1 188.4 187.3 185.2 182.3 179.3 175.8 172.6 170 167.3 164.5 162.8 161 155.9 151.9 162.3 164.7 164.8 164.6 164 162.1 153.9 138.5 119.2 131.5 146.1 156.7 164.7 169.1 170.4 172.3 173.4 177.4 181.6 183.7 185.6 185.8 185.8 185.5 184.4 182.8 182.3 181.3 178.9 179.4 179.8 180.5 182.3 182.5 183.6 184.4 183.7 182.6 180.7 179.2 177.6 175.8 173.8 171.4 168.8 165.7 164.1 161 156.8 151.2 144.5 133.3 122.4 134.5 143.7 147.3 150.9 154.7 156.5 157.9 157 156 154.7 152.6 152.7 152.7 150.7 147.9 143.8 134.7 126.1 120.3 124.9 137.4 141.2 144.1 143.5 142.9 142.8 142.6 141.4 138.4 137.4 130.1 122.2 121.4 124 124.8 125.4 130.7 139.4 144.1 146.5 147.9 150.4 151.2 152.3 153.3 154.1 153.9 154.3 155.5 155.7 154.9 153.1 154.6 158.7 163.3 167 170.2 171.1 171.1
84 79.4 79.4 79.4 80.4 82.3 84.2 87.5 90.4 93.7 96 95.5 93.4 85.7 91.7 99.3 104 107.2 109.1 110.9 111.9 114.3 116.7 118.7 121.2 123.7 126.4 128.8 129.2 130.1 130.1 128.7 128.3 130.4 127.5 124.5 122 132.5 143.4 150.6 156.3 160.1 163.3 166.1 169.2 171.5 172 167.2 160.5 152.4 143.9 137 130.1 123.3 127.5 133.8 139.4 144 149.5 156.9 163.2 169.2 172.5 176.4 180.6 183.6 185.1 185.3 184.6 184.2 184.8 185.9 187.2 187.8 188.3 187.4 185.3 182.4 179.4 176.4 172.7 169.3 164.9 163.2 159.4 159.5 156 161.9 167.8 169.1 169.4 169 167.5 164.6 156.6 139.8 116.5 130.6 141 151.1 161.1 168.2 171.4 173.3 175.7 178.9 180.8 182.5 183.3 183.7 183.4 182.4 182 181.3 180.8 179.1 176.7 175.3 175.1 177.3 179.7 180.9 182.6 182.8 181.8 180.3 178.9 177 175 172.5 170.1 167.9 165.9 164.1 162.7 159.4 154.7 149.8 143.8 133.5 122.9 130.7 138.9 144.6 149.2 153.2 154.2 156.1 155.2 154.1 151.7 149.5 149.5 150.1 151.5 150.2 146.6 138.1 127.6 120 123.9 133.8 136.3 137.1 136.5 135.2 135.2 135.5 134.3 132 128 122.4 120.8 123.9 127.6 136.1 136.7 133.6 129.4 134.1 139.5 141.9 143.3 143.2 145 146.7 147.6 148 148.3 149.1 149.5 149.4 150.6 151.8 153.7 155.6 161.4 164.1 166.7 167.3
75.2 72.2 71.1 71.8 73.7 76.2 78.9 83 85.8 86.8 89.1 90.1 87.8 81.4 87.8 91.7 94.4 96.5 98.1 98.7 99.9 102.8 103.1 104.2 107.1 109.9 112.1 114.4 114.9 116.1 116.3 114.5 116.3 117.8 117.5 115.1 117.9 129.9 138.1 144.9 150.1 153.6 156.5 159.3 162.4 166 163.6 160.7 152.1 143.1 133.9 127.8 121.7 125.8 133.3 139.8 145.4 151.3 157.4 161.7 167 171.1 175.2 178.8 182.1 183.7 185.4 184.7 184.1 182.4 182.4 184.4 185.7 186.6 187.1 187.1 186.6 185.3 182.4 179.6 176.3 172.4 169.6 167.7 165.3 165.3 168.2 171.4 171.4 172.1 171 168.9 167.4 165.4 158.4 141.3 115.5 124 135.3 145 154.4 162.4 168.8 171.1 175.2 179 180.9 182.6 183.4 183.6 182.9 181.1 181 179.9 179.2 177.4 176 171.8 170.5 172.5 178.3 180.3 181.5 181.1 180.6 179.2 176.6 174.3 171.9 169.3 166.1 163.9 162.4 160.7 159 157.2 152.5 145.9 139.9 132.1 122.4 122.9 133.8 141.7 147.2 151.7 153.4 154.1 153.2 151.1 148.5 146.3 146.3 147.7 150 149.5 147.5 142.6 133.2 120.4 121.4 127.4 128.4 128.4 128.1 128 128.4 128.2 126.9 123 120.2 120.6 122.4 127.1 135.2 141.3 143.6 143.1 137.4 135.1 134.5 134.5 136.4 138.2 138.6 140.4 140.8 144 145.6 145.8 149.7 153.8 157.3 160 162.3 162.5 161.7 161 163.4 167.7
68.5 68.2 69 69.3 69.8 71.2 73.4 77.3 79.5 80.7 82 84.2 82.4 78 82 83.9 85.3 86.8 88.3 88.9 88.8 89.9 91.2 92.7 94.3 95.7 97 99.5 101.2 103.4 103 103.4 105.2 106.6 104.6 108.8 117.1 124.3 131.6 138.3 142.8 146.7 150.4 152.8 156.2 160.1 158.7 152.9 143.6 133.6 125.7 119.4 124.8 131.6 142.6 149.6 154.6 157.9 161.2 165.2 169.3 172.9 177 180.3 183 184.5 184.8 183.9 182.2 180 178 180.3 183 184.4 185.5 186.1 186.3 185.9 185.4 183.4 181.4 178.4 175.4 174.1 174.2 175.1 175.6 175.1 173.9 172.7 169.4 166.3 165 162.6 158.6 146 124.1 116.2 125.6 136.4 147.8 158.5 166.3 171.6 175.1 178.3 180.6 181.5 182.4 182.4 181.3 179.1 178.7 178 178.3 177.7 176.8 174.8 168.1 168.7 177.1 179.3 180.4 179.9 179.5 178.6 177.4 174.4 172.8 169.9 167 161.6 157.3 154.6 151.4 148.6 143.9 139 133.1 132.7 124.4 120 126.1 141.6 147.8 151 152.8 151.7 150.7 148.7 145.8 141.2 143 145.1 146.9 147.3 147.2 145.3 141.3 127.5 118.4 121.5 122.6 122.2 121.4 121.8 121.6 120.9 120.4 119.2 122 124.2 124.9 129.1 142.6 150.7 152.4 151.7 149.2 147.1 146.2 143.8 145.9 149.2 148.6 146.5 148.1 148.3 152.7 153.9 159.4 163.9 167.7 171 172.6 172.3 169.8 168.4 170.3 167.6
68.1 68.3 69.9 69.6 69.6 70.1 69.6 70.9 73.4 75.7 76.1 77.7 78.6 75.9 78.5 79.6 79.5 78.3 79.7 81.5 82.3 82.6 82.6 85.1 86.1 87 88.6 90.2 91.2 91.8 93 94.7 95.8 95.6 97.3 104.6 110.7 117.5 124.9 130.2 134.6 139 143 146.9 151 155.1 154.8 148.1 138.7 128 119.7 120.1 128.4 138.4 149 156 158.1 160.1 162.6 165.2 168.7 173.8 178.1 181.1 183.6 184.1 183.2 181.5 179.3 177.2 175 176.6 179.3 181.9 183.3 184.5 185.2 186.1 186.6 185.5 184.1 182.3 180.9 180.2 179.6 179.3 178.5 177 174.1 171.3 167.3 163.9 161.9 157.9 154.2 149.5 136.6 118.2 117.8 133.8 154.1 164.6 171 173.5 176.4 177.9 179.5 179.9 180.2 179.2 177.2 175 173.2 174.7 175.6 176 175.7 174.1 167.3 165.7 175.3 178.1 178.9 179.2 178.7 178 177.4 176.2 174.3 172 169.6 166.6 161.6 158.5 155.7 153.4 151 148.6 145 140.2 129.3 121.3 122.3 136.4 146.1 149.9 151.4 151.3 148.6 148.3 145 142 136.2 139.2 141.3 142 141.2 139.1 136 129.9 121.5 118.5 118.9 119.3 119 118 119.4 120.5 122.4 129.4 132.7 135 129.5 128.9 127.4 151.8 154.5 157.3 156.9 156.5 156.3 154.9 157.7 160.1 160.2 161 159.5 161.3 163.7 165.6 168 173 175.6 177.9 178.9 178.6 177.3 176.1 176.8 176.9
68 67.9 67 68.1 68.5 68.8 69 69.5 71.1 70.6 71.3 72.8 74.2 73.5 73.2 74 73.6 73.5 73.6 74 73.9 73.6 72.3 73.8 75.7 76.6 78.8 82 84.5 84.6 87 88.8 89.5 91.1 93.7 97.7 103.1 109.5 115.5 120.1 123.7 128.2 134.1 141.9 148.5 152.7 151.3 146.2 138.7 126.5 116 122.3 131.9 142.9 149.1 153.6 156 158.7 161.1 163.8 168.4 173.2 177.7 180.4 181.8 180.7 179.2 177.4 174.7 172.2 170.3 176 177.5 179.7 181.3 182.7 183.5 184.5 185.7 185.7 185.5 184.8 184.2 183.4 182.6 181.6 179.7 177.6 174.3 169.9 165.6 161.2 156.6 152 147.9 143 139.3 125.3 111.4 130.1 153.9 165 169.6 172.8 175.6 177.8 178.6 178 176.6 173.3 170.2 167.9 168.2 170 171.9 173 173.3 172 166.3 162.1 172.7 175.6 177 177.5 177.5 177.5 176.7 175.5 174.4 173 171 168.9 166.2 164.7 162.8 160.4 157.7 154.6 151.1 144.6 132.7 121.1 119.5 131.5 144 146.7 146.5 146.3 146.1 145.8 144 142 136.8 131.4 135.3 133.8 130.1 126.8 124.1 122.3 118.2 117.7 118.4 118.8 125.1 129 131.5 133.8 138.5 138.9 139.4 140.9 139.6 130.2 134.9 147.6 153.4 157.6 160.4 161.5 161.8 162.5 162.3 165.7 168.9 171.1 172.4 173.9 174.4 174.4 173.8 178.2 181.1 182.4 182.9 182.7 181.1 179.9 180.8 180.7
70.4 69.8 68.7 67.9 68.7 69.1 69.3 69.8 69.6 69.8 70.2 71.6 72.2 71.7 73.9 73.8 73.2 73 72.3 73.4 73 74 74.4 74 74.5 74.7 75.4 76 77.5 78.6 78.3 82.5 83.7 87.8 90.3 92 95.5 100.3 106.1 110.6 114.6 119.3 127.6 138.3 146.3 150.9 148.9 143.3 135.6 122.4 116.8 123.4 131.8 140.1 146.5 150.8 153.8 157.7 161 164.8 168.5 172.8 177.3 178.8 179.4 178.9 177.3 174.4 171.3 168.3 168.2 172.5 173.9 176 177.8 179.9 181.8 182.9 183.8 184.9 184.6 184.1 184.2 183.9 183.5 182.7 181.5 179.5 175.9 171.4 166.6 161.5 156.9 153.6 146.8 139.8 126.9 116.5 108.8 126.3 147.5 159.2 164.4 169.6 172.8 175.5 176.2 174.8 172.3 168.4 165.6 161.8 161.1 164.8 167.4 169.9 170.2 168.6 163.8 160.1 169 171.5 173.5 175 175.4 175.5 175.2 174.7 173.7 172.8 171.2 169.9 168.8 166.6 163 161.4 160.2 157.7 154.1 148.9 137 122 118 129.7 141.2 143.3 142.6 142.1 142.7 142.5 141.7 140.2 132.7 124.2 125.4 122 119.4 118.5 117.8 117.2 117.7 119 124.2 130 139.5 145.8 149.1 149.1 149 147.6 147.3 148.9 149.2 140.7 130.4 141.8 152.9 157.1 161.4 163.5 164.2 165.4 167.2 169.2 171.4 173.5 176.3 178.4 178.8 179.2 179.7 181.4 184.1 185.3 186.1 185.8 185 184.4 184.5 186.1
86.7 77.9 73.9 73.3 71.6 70.3 70.4 70.5 69.8 69.9 69.9 71.9 72.5 74.6 76 77.7 76.4 75.7 74.8 74.5 74.4 75.6 76.2 75.7 74.5 74.1 75 76.4 77.2 77.2 77.7 79.4 79.7 84 86.8 88.7 90.5 93.8 98.6 103.6 110.7 117.7 126.5 136.3 145.7 148.8 147.1 142 132.3 117.1 116.2 123.3 133.7 140 145.4 151.2 154.8 160.1 164.4 167.6 171 174.2 176 176.3 177.1 177.2 174.8 172.2 167.7 162.2 164.3 168.3 170.1 172.1 174.1 176.4 179 180.7 181.8 182.9 183 182.7 182.9 182.9 182.7 182.4 181.6 179.7 176.9 172.8 168 164 160.5 158 154.3 148.9 136.4 115.2 109.5 120.4 136.7 150.8 159 166.2 169.7 172.6 172.3 169.9 166.3 163 158.2 153.7 152.8 156.8 161.9 165.7 166.4 164.9 159.2 156.6 165.3 168.8 170.8 172.6 173.4 173.4 171.9 171 171.9 169.9 167 167.5 166.6 164.7 161.6 160 158.2 155.9 153.1 148.8 140.4 126 117.3 126.8 139.2 141.5 140.7 139.4 136.4 135.5 135.3 131.1 121.9 117.5 116.7 116.6 116.9 117.6 117 117.6 120 128.3 135.6 140.2 145.5 152.1 155.6 157.4 158.1 157.3 157.5 158.1 157.9 151.2 136.7 134.9 148.3 155.2 159.8 163.5 166.2 167.8 169 171.1 173.4 175.8 178.6 181.2 182.3 182.2 184 185.7 187.4 188.4 189.3 188.8 188.4 188.8 190 191.2
100.2 92.4 83.7 81.8 78.2 76.8 75.2 74.2 73.9 73.2 72.7 74 78.4 84.4 93.7 101.1 104.6 100.1 91.5 85.4 83 81.6 79.8 79.4 78.2 77.1 74.2 75.1 77.8 77.6 77.2 77.7 78.7 78.9 80.4 85.4 87.2 90.1 93.9 100.6 109.8 118 127.6 137 144.2 146.2 144.7 140.4 125.1 111.1 118.1 127.1 138.1 145 150.8 156 159.5 163.9 168.1 169.9 171.4 173.3 174.8 175.8 175.7 175.8 173.9 171.8 168.7 162.3 157 162.8 165.4 167.2 169.6 172.5 175 177.2 179.1 179.7 179.4 178.7 179.4 180.2 180.7 180 179.5 178.4 176.8 174.1 170.6 166.8 163.6 161.2 157.7 152.2 140.2 117.4 109 116.9 129.9 140.8 153.6 162.5 166.8 168.5 168 163.8 158.5 152.1 148 144.7 142.7 147.5 155.8 161.8 162.7 161.3 153.2 152.8 162.5 165.6 169 170.9 171.4 170.1 167 164.6 163.3 161.3 157.7 156.5 158 157.5 156.8 155.2 154.3 153.2 151.3 147.3 140.8 128.1 116.7 125.6 134.3 135.3 135.6 131.2 128.6 127.7 126 120.2 118 115.9 115.9 116.3 115.6 116.9 118.8 122.5 127 134.3 144.2 147.8 152.8 157.2 160.8 163.1 164.4 165.4 166.3 165.2 162 157.2 145.3 135.8 140.8 152.4 157 160.8 164.9 166.9 168.1 169.5 173.2 176.8 179.5 182.7 184.7 184.9 187 189.1 190.8 191.9 194.3 194.2 194.1 194.3 195 195.7
109.3 100.2 94.7 99.4 95.9 90.9 87.3 84.3 82.9 83.3 81.7 80.8 97.6 106.2 115.5 120.8 122.3 120.6 112.4 102.3 93.5 88.5 86.8 85.8 84.8 83.7 82 80.5 75 77.3 75.7 76 77.9 78.3 78.9 79.6 84.1 86.1 91.3 97.1 106.5 119.8 128.9 137.2 141.3 142.5 141.4 134.4 117.2 112 122.5 136 145 151 155.5 157.7 159.4 159.9 164.6 168.1 170.7 172.4 173.3 173.3 172.9 173.5 172 169.7 166.8 160.9 152.2 155.3 159.9 162.4 164.9 168.2 171 173.2 175.4 175.5 175 174.4 174.9 175.8 177 177.3 176.8 176.3 174.8 173.2 171.4 169.2 165.2 161.9 158.2 151.5 140.4 121.6 107.4 114 126.8 141.6 153.8 162.4 165 166.9 162.8 150.9 142.7 135.1 133.3 133.6 133.7 141.3 151.2 157.1 158.9 158 151.7 148.9 156.5 162.2 164.6 165.9 165.4 162.5 157.7 154.9 153.7 151.4 148.7 147.1 147.2 148.8 147.9 146.1 147.5 148.4 147 143.1 138 125.2 115.3 123.5 125.6 124.6 121 118.7 117.4 117.1 115.3 115.7 115.1 116.3 115.4 115.8 118.5 120.6 122.4 125.8 131.9 139.2 149.2 152.3 155.4 160 163.7 166.1 168.1 170.1 170.6 170.1 167.9 164.2 156.1 146.5 137.6 144.1 151.5 155.4 158.3 161 163.3 164.5 169.1 174.1 178.7 182.5 185.3 187.6 189.8 191.9 194 196.2 197.4 197.7 197.8 197.8 198.7 199.4
117.4 108.7 105.1 109.3 108.3 109.1 106.7 105.2 104.2 103.4 99 86.9 105.2 114.3 123.1 130.2 135.5 133.6 127.7 119.7 110.6 100.6 93.6 92 91.4 90.2 88.3 87.2 86.6 86.1 83.6 80.9 75.6 77.8 78.6 79.4 79.8 82 87.4 91.3 103.2 114.6 125.7 134.5 138.5 136 133 126.2 108.1 112.7 128.4 138.6 146.3 148.3 146.5 145.3 146.3 150.7 157.5 164.2 167.7 169.3 170.1 170.3 170.1 170 169.7 167.7 164.8 159.8 151 148.4 156.3 158.5 160.2 163.5 167.1 169.4 171.9 172.1 171.2 169.2 169.1 171.4 172.4 173.2 173.2 172.5 172.5 170.6 169.3 167.7 165.9 165 160.7 155.3 147.1 128.7 107.5 109.6 124.8 142.2 155.4 162.2 163.5 161.5 153 136.7 125.3 122.2 121.9 124.3 126.2 133.4 143.1 149.7 153.5 153.8 149.9 144.2 152.2 157.8 159.9 160 155.8 150.8 144.6 141.2 138.4 136.9 133.5 131.6 131.3 130.3 129.3 131.2 134 136.7 136.1 136.6 133.2 124.9 114.4 116.1 117.7 119.5 116.1 114.5 114.6 113 113.9 115.8 116.1 116.5 116.3 119.1 123.2 125.2 130.9 133.7 134.6 142.7 149.8 153.4 155.6 160.3 164.3 167.4 169.8 171.3 172.8 172.9 172 169.6 165.6 158.5 151.7 142.5 139.2 145.6 148 151.1 154.9 159.9 165.8 170.2 174.7 179.4 184.2 187.8 190.2 192.7 194.7 196.4 197.2 198.5 198.4 198.4 200.1 202
125.6 116.8 114.6 117.8 119 121.8 122.2 121.6 121 118.7 111.5 97.3 107.7 116.9 128.3 136 141.1 140.4 136.8 130.7 125.7 116.7 109.1 102.4 99.3 98.6 98 95.6 96.8 93.6 88.9 86.3 83.8 78.1 78 77.9 78.1 79.9 80.9 86.2 98.7 112.3 125.1 131.5 131.7 128.3 123.8 119.6 107.8 114 126.7 135.7 137.6 130.5 127.6 128.3 130.9 137.5 147.3 155 159.6 162.8 163.8 163.6 164.9 166.5 166.2 165.8 161.9 158.5 152.9 142.8 150.4 153.4 154.8 158.4 162.4 165.7 167.9 168.2 165.8 163.2 163.3 165.6 167.8 168.5 169 168.8 169 167.5 166.3 166.6 166.3 165.9 164.7 160.5 154.8 135.9 113.4 104.9 120.6 140.8 152.4 156.1 154.3 148.6 136.9 120.8 114.4 116.1 116.4 118.4 121.2 125.1 132.7 139.3 146 148.6 146.6 140.3 147.4 152.7 154.7 152.5 146.1 134.6 126.8 122.1 118.8 117.2 115 114.6 114.7 114.7 114.6 116.3 118.6 120.4 122.8 124 124.3 121.1 116.4 114.6 114.7 114.7 114.4 114.1 112.7 115 115.5 116.4 117 119.1 123.9 127.9 133 138.3 142.9 146.8 148.9 150.2 151.7 154.4 156.5 160 164.2 168.1 170.4 172 173.2 174.2 173.8 172.3 169.1 165.4 160.6 152.6 145.7 146.2 144 142.5 147.5 156.1 164.4 168.4 171.6 176 181.6 185.7 189.5 191.8 194 195.6 194.9 196.8 198.4 199 200.5 201.5
129.6 122.7 122.7 125.8 126.5 128.6 131 130.7 130.3 128 121.7 106.4 108 116 128.5 134.9 139.8 142.7 141.4 137.7 133.5 128.4 125.2 118.8 114.1 110.9 111.7 113 113.5 111.3 108.6 105.7 98 92.2 81.1 78.2 77.9 78.5 79.3 83.4 92 111.8 122.8 127.9 124.4 117.7 113.2 105.4 106.3 116.5 125.3 124.9 117.4 111.7 109 111.9 114.5 119.3 128.3 140 148.5 153.3 155.8 158 160.3 162.1 162.2 161.8 159.3 155.5 150.7 137.8 143.9 147.5 149 152.7 157.4 161.3 164.2 162.7 160.7 156.4 157.4 159.3 161.6 162.1 161.9 162.5 162.1 161.3 160.3 159.8 163.2 164 164.9 160.4 150.2 133 116 101.8 117.4 133.7 142.6 146.3 142.1 130.6 109.1 103.7 107.2 110.5 111.5 115.8 118.2 120.2 124.2 130.9 137.4 141.7 138 138.1 146.9 150 148.6 142.6 127.5 116.5 112.2 110.4 109.4 110.1 109.3 109.1 109.1 109.1 109.9 109.6 110.5 112 113.7 114.8 115.5 114.5 115.1 113.4 112.2 114.4 114.4 115 118.8 119.2 117.3 118.8 123.9 130.8 135.5 139.2 143.9 150.1 153.3 155.3 157.4 159.1 159.3 161.5 162.7 164.5 165.4 168.7 170.7 172 172.9 173.9 174.6 173.6 172.2 169.2 164.7 161.5 155.9 157 155.8 156.5 150.5 148.9 161.7 165.7 169.2 172.7 178.9 182.8 187.6 189.7 192 193.5 193.5 195.1 196.9 198.8 199.3 200.2
134.7 132.4 133.1 133.3 133.2 135.7 136.1 135.9 135.4 134 127.6 111.1 108.9 118.3 131 137.6 141.2 144.5 144.9 144.5 142.8 139.5 136.4 132.8 129.7 126.9 124.3 126.3 125 124.2 123.7 119.5 112.1 100.7 91.6 89.4 80.7 78.2 79.1 80.2 88.7 107.7 119.9 123.9 117.8 108.3 101.8 105.6 113.9 122.3 121 104.3 96.8 96.2 99.9 102.4 103.9 107 112.1 123 135.5 142.4 147.1 150.3 155.7 157.7 158.5 157.9 156 151.5 144.7 133.5 139.5 140.5 143.2 150 155.9 159.9 160.6 158.7 155.4 151.5 151.7 153.5 154.9 154.8 152.1 153.7 154.1 153.3 152.1 152.7 155.7 158.1 157.3 148.3 133.4 121 111.1 100.7 113.5 120.5 128.5 134 130.8 106.5 102.5 102.9 103 106.8 109.6 112.9 115.2 117.5 120.3 125.8 131.1 133.5 132 140.1 145.9 146.1 141.2 124.8 112 109.9 109.6 109.5 108.6 109.3 109.6 110.2 109.9 110.1 111.3 110.1 110.9 111.8 111.6 112.2 112.6 112.7 112.7 112.7 111.8 116.1 120.4 123 127.4 127.1 119.8 118.3 128.9 136.6 141.1 145 148.7 153.4 157.5 159.5 160.4 162.2 163.1 164.5 165.7 166.2 167.8 169.3 170.3 171.5 172.3 173.3 174.5 174.2 173.5 172.4 168.2 164.7 163.4 164.3 164.7 166.6 163.5 151.4 154.6 162.1 166.6 169.7 174.6 179.1 182.4 185.5 188.5 189.6 192.7 195.3 197.8 197.7 198.2 198.7
141.2 140.3 140.5 140.3 140.2 140.3 140.9 140.9 140.1 138.4 125.5 113.4 112.9 122.3 134.4 141.7 145.2 147.8 149.5 150.2 149.6 147.8 145.6 142.9 141.8 141.5 140.6 137.2 133.6 132.2 129.4 123.7 114.6 103.8 102 101.1 91.7 80.1 80.2 79.7 87.1 107.1 120.7 123.6 112.7 100.7 106.6 115.8 122 120.4 100.5 90.1 88.1 88.8 89.8 93.5 96.2 99.6 105.7 112.5 123 130.3 136 142.8 149 152.9 154.2 152.8 151 143.5 130.1 126.7 130.4 137.2 144.2 150.5 155.1 157.5 156.9 152.7 147.3 143.7 144 144.4 145.1 145.1 141.9 141.4 140.1 140 143 145.1 148.2 150.7 146.8 128.3 111.6 103.5 100.8 100.2 104.9 111 115.8 122.8 121.4 101.4 102.9 104.5 103.9 103.9 105.3 109.5 112.4 114.6 117.1 120 123 124 132.5 139.2 141.1 139.7 124.7 110 108.6 108.5 108 107.7 112.2 115.5 119.3 120.7 121.4 121 120.6 117.6 113.8 112.4 111.5 111.4 111.8 112.5 113.5 118.2 124.8 128.1 131.1 136.4 138.4 135.1 126.1 118.1 127.3 138.7 142.9 146.3 149.7 153.4 157 160 161.7 163.8 165.1 165.2 165.2 165.9 167.9 169.8 170.4 171.1 171.8 172.6 174.6 173.5 173.1 173.2 170.9 168.1 169.3 168.5 168.1 168.3 166.2 158.2 149.7 155.1 160.4 166.3 170.6 176.6 180.1 182.1 185 189.5 192.5 195.1 196.4 196.6 196.4 196.2
146.4 146.4 146.2 146.2 145 145.4 145.7 145.5 143.4 138.6 123.1 129.3 132.1 126.1 130.7 140.4 148.1 150.4 152.4 154 155.4 154.5 153.4 152.7 151.1 149.4 148.7 145.8 143 139.2 134.9 129.3 121.1 110 110 111.9 104.6 93.7 82.1 80.3 83.9 101.3 116 119.1 104.3 98.5 112.7 121 120.7 99.1 88.8 86.6 86.1 84.9 85.5 87 87.8 91.9 98.7 105.6 113.7 121.6 130.5 137.2 143.9 146.8 146.7 145.4 143.3 131.1 122.2 125.1 136.8 143.5 147.9 151.6 155.8 156.2 154.2 147 136.7 135.2 134.9 134.2 132.1 131.7 130 129.7 129.7 129.8 131.3 136.4 140.6 143 132.6 107.5 97.4 98.4 99.2 99.7 100.4 104.1 109.7 114.3 114.9 102.2 104.3 106.5 104.5 104.4 105 105.6 108.9 111.7 113.6 114.5 120 127 130.8 132.6 131.9 122.6 110.2 107.8 108.9 110.3 114.3 117.2 121.3 125.1 128.9 132.1 134 135.9 136.3 133.4 126.1 120.7 117.4 115.2 115.8 118.1 121.5 126.5 132.1 137.2 140.9 143.7 144.5 142.5 135.9 122.6 126.1 138.4 143.2 146 148.3 150.6 154.1 157.7 159.5 162.3 163.6 164.3 164.3 165.6 167.4 168.4 169.1 169.4 170.3 171.3 172.4 173.6 174.3 174.8 174.6 174.3 174.1 173.2 171.9 171.2 168.9 163.1 153.4 157.2 164.4 168.7 171.3 174.5 179.8 181.7 185.9 188.8 190.4 192.8 193.6 193.6 193.4 193.2
147.9 149.7 150 150.1 150.8 150.8 150.2 149 146.6 138.2 133.4 141.4 144.3 139.2 135.4 134.8 141.6 146.4 153.5 156.5 159.3 160.4 160.5 159.1 157.9 156 153.3 150.4 147.4 144.3 139.9 133.3 121.9 117.4 117 116.4 112.3 103.6 90.7 79.2 82.8 98.1 112.1 116 99.3 97.4 112 121.5 100.5 89.4 86.2 88.1 91.8 96.3 98.4 95.1 91.2 85.9 86.4 91.1 101.8 112.4 122.3 130.3 135 136.8 137.5 135.8 133.4 125.8 115.2 129.2 138.7 145.3 149.9 152.7 153.3 150.3 145 139 128 120.7 116.4 115.7 112.7 112.7 113.4 115.4 117.3 117.8 119.2 125.3 131.1 136.3 119.6 97.6 97.7 101.4 108.3 106.6 100.4 101.9 103.2 108.4 109.9 103.6 105.6 107.9 109.7 102.3 103.4 105 105.4 107.7 110.3 112.6 119.4 123.5 123.9 121.2 114.7 108.5 108 108.5 110.1 114.6 123 126.6 131.2 135.1 139.1 142.1 143.7 145.5 147 145.5 142.4 137 131.4 128.7 125.5 126.3 130.2 134.1 137.3 142.7 146 147.7 147.5 144.4 139.3 127.9 124.4 137.2 141.9 144.8 146.6 148.6 150.5 154.1 159 160.1 162.1 163 163.4 164.9 165.8 166.4 167 167.7 168.1 169.1 171.1 172.4 173.9 174.9 176.3 175.9 175.6 175 174.2 172.6 170.9 166.6 158.4 155.8 165.7 170 174.1 177.7 181.7 184.1 185.7 187.3 188.4 190.1 190.9 190.7 190.4 190.2
148.3 150.9 152.5 153.3 153.6 153.6 153.2 151.8 149.4 140.1 142.1 151.5 152.8 152.4 150.5 147.8 145.6 145.2 153.6 157.9 161.4 162 163.5 162.8 161.1 159.1 156.5 153.4 150.4 146.6 141.5 135.6 129.7 124.7 120.6 118 114.3 107.6 95.3 81.1 82 89.5 107.3 110.7 97.6 94.4 107.1 113.1 95 85.6 85.8 92.1 96.1 101.6 105 108.6 107.3 99.7 90.9 88.2 86.8 91.1 99.3 107.8 114.1 117.8 120.1 119.9 119.6 119.1 113.1 126.1 132.4 137.2 141.7 143.6 144.1 141.4 135.7 123.8 105.8 100.2 96 93.8 94.1 97.4 98.9 102.5 106.7 107.8 112.3 115.9 118.7 122.6 110.1 97.2 98.3 105.3 110.5 115.7 108.4 99.9 102.1 104.7 103.8 102.7 105.3 107.9 110.7 113.3 110.9 102.9 105.3 105.7 106.7 107.3 111.8 110.4 110.2 109.1 106.5 107.7 111 113.8 116.2 113.3 119.5 132.7 137.9 141.4 144.8 148.9 151.5 154.6 154.3 153.1 151.9 149.6 147.7 144.5 142.8 143.8 147.5 146.9 147.3 148.6 151.4 152.1 150.6 146.5 138.4 129 123.2 129.9 139.1 142.1 143.9 145.4 147.1 149 152.8 156.8 159.9 161.4 161.9 162.6 163.2 163.9 164.3 164.6 164.8 166.3 168.8 171 172.7 174 175.3 176.8 177.1 176.4 175.3 174 171.4 166.5 162.7 154.2 165.9 170.7 174.8 178.6 181.5 183.7 184.4 185.6 186.7 187.5 188.1 187.8 187.4 187.1
148.9 151.5 154 154.9 156.2 156.3 156.1 154.9 152.8 146.5 147.5 155.7 157.4 158.3 157.9 155.9 152.1 149.2 152.1 157.6 160.1 162.7 165.2 164.8 163.7 161.6 158.8 155.7 152.7 148.7 144.8 140.7 135.3 130.6 128 122.2 111.7 99 87 83.4 81.2 84.1 97.9 105 95.9 93.6 103.6 100.8 87 85.3 87.5 94.3 100.1 104.7 109 117.7 121.7 117.3 105.9 93.2 92.3 86.5 88.4 88.8 92.7 95.9 100.1 102.8 106.7 107.6 108 118.1 123.6 126 130 133.5 133.9 130.7 120.3 98.9 93.1 94.9 97.3 98.2 99.1 97 94.7 97.1 98.2 100.3 105.2 108.2 110.3 113.2 98.7 96.8 100.7 105.8 111.2 118.8 119.9 101.6 100.7 102.1 101.7 102.1 106.1 108.5 111.3 115 119.5 120.8 110.6 107.6 103.1 105.4 106.3 105.6 105.6 107.7 109.2 113 118.7 124 128.4 122.6 116.2 129.7 139 144.6 149.6 153.3 156 158.7 160.4 160.4 160.6 159.8 157.2 154.5 153 154.9 157 158 158.1 157.5 156.9 156 154 149.3 137.1 126.3 125.6 124 126.2 130.7 132.6 136.9 141.7 146 149.3 153.8 156.9 158.8 159.3 159.8 160.4 161.1 161 161.1 161.4 163.5 166 168.5 170.6 171.9 173.5 175.1 176.4 176.7 175.9 175 173.4 172.1 169.5 159.5 163.1 170 173.3 176.4 178.7 180.5 182.2 183.5 184.3 185.1 185.5 185.2 183.9 182.3
149.6 152.9 154.9 156.5 157.8 159 159 158.4 156.8 151.2 152.2 157.4 160.3 162 162.7 161.1 157.6 155.8 157.2 160 161.1 163.5 166 166.8 165.7 163.9 161.2 158.1 155 151.2 147.3 143.1 139.2 134.8 130.4 119.1 100.6 88.5 86.7 85 80.4 82.3 88.9 96.2 92.7 88.3 94 90.2 84 84.7 91.1 97.1 103.5 112.7 123 128.3 128 114.8 101.1 109.3 105.9 93.9 86.6 87.2 91.1 89.5 91.7 93.8 97.8 98.2 103.6 109.6 113.2 117.5 121.6 123.9 121.3 114.5 102.6 94 96.3 99.8 102 102.9 103.6 102.2 98.2 95.9 97.7 98 99.3 102.8 105.9 104.4 97.5 98.1 102.5 107.7 117.8 125.3 131.7 112.5 99.2 100.7 100.7 105.5 111.1 112.5 114.2 116.9 123 129.8 132.1 123 113.1 110.9 108 106.1 110.7 115.4 116.4 120.9 126.4 131.8 134.1 134 118.1 127.8 140 146.4 152.2 156.3 161.9 163.4 164.8 165.9 166.6 166 164.3 162.4 160.8 161.4 163.1 162.4 162.5 162.2 161.3 160 156.5 151.6 134.8 133.2 137.9 135.1 129.7 130.5 130 127.1 132.1 142.7 147 151 154.1 155.9 156.6 157.2 157.7 157.9 157.7 157.6 158 160.6 163.1 165.4 167.7 169.9 171.8 173.3 174.7 175.3 175.1 174 173.4 173.2 171.2 165 157.4 163.2 167.7 172.5 175.2 176.8 178.5 180.1 181.4 182.1 182.3 180.7 177.8 175.4
151.8 154.3 155.9 157.3 159.1 160.5 161 160.7 159.1 154.2 156 160.3 162.7 164.6 165.1 164.1 162.6 162.4 162.4 163.3 164.3 165.7 167 168.8 167.9 166.1 163.5 160.5 157.5 153.7 149.3 145.3 141.3 136.6 122.9 102.2 91.4 97.1 104.7 93.9 80.2 81.7 83.6 88.3 89.6 87 86.2 84.8 83 84.9 93 100.1 111.3 120.2 129 135.6 126.3 108 122.5 125.6 118.5 108.7 103 100 97.6 94.8 93.4 90.9 91.4 94.2 96.8 102.1 106.2 109.4 111.8 110.4 104.2 98.8 93.5 96.4 100.4 103.4 105.4 106.8 109.1 110.1 108.8 106.4 96.2 96.4 96.8 97 97 96.8 98.6 100.9 104.7 110.6 124.7 132.4 139.8 134.3 119.5 110.6 111.6 113 115.5 117.4 119.4 121.6 123.4 132.2 137.1 136.8 129.8 124.3 119.2 118.6 119.5 121.9 124.4 129 133.5 138.9 141.3 137.9 120 134.2 144.2 149.8 155.5 160.4 164.5 166.4 167.7 168.9 170.1 170.7 169.7 168.1 167.4 166 164.8 164.2 164.2 164 162.5 160.5 157.9 150.8 134 139.1 146.9 144.1 136.9 139.4 140.6 136.6 129.3 135.8 143.4 148 150.4 151.9 152.7 153.9 154.7 154.5 154.3 154 155 157.5 159.9 162.3 164.8 166.9 169 170.6 172.4 173.3 173.1 173.4 173.4 173.1 172.1 169.2 167.3 164.1 159.5 163.1 166.9 170.7 174.3 176.2 177.6 178.4 177.4 175.5 175.6 178.3
153.7 155.2 156.7 158 159.2 161 160.9 161.3 161.5 160.6 161.1 163.2 164.2 165.8 165.8 166 165.1 165.1 164.7 165.5 165.9 166.8 168.2 169.3 168.3 166.9 164.8 161.8 158.9 155.2 150.9 147 143.1 136.4 112.9 98.3 102 116.3 117.1 104.3 86.2 81.2 83.1 85.6 86.2 84.8 83.5 85.2 84.3 89.9 95.4 103.7 113.6 123.4 133.2 136.6 126.9 115.4 129.9 132.5 128.5 120.1 112.4 109.3 106.4 103.6 102.2 97.5 92.5 90.1 90.9 93.5 96.6 98.2 99.4 98 95.3 92.9 94.5 101.3 104.6 107.3 111.7 116 119.2 118.4 120.5 119.5 115 100.2 97.4 95.8 96 95.3 98.7 101.8 107.8 119.9 131.3 136.6 144.9 147.5 144.7 135 130.6 126.7 124.6 125.2 126.8 129.3 127.3 134.9 140.6 143.6 143.8 138.1 128.9 130 129.2 130.4 133.5 135.7 140.4 146.1 147.8 137.4 120.9 135 147.9 153.1 158.6 163.5 165.9 167.8 169.1 170.5 171.9 172.3 172.2 171.1 169.7 168.2 166.6 166 165.3 162.8 161.2 158.9 156.2 149.2 133.4 145.8 151.9 149.9 146 150 150.2 146.4 138.7 130 135.2 142.4 146.1 146.1 146.6 148.9 150.7 150.9 150.9 151.5 153.1 155.3 158.3 160.6 162.8 164.4 166.2 168.2 170 171.4 171.4 172.1 172.9 172.9 172.4 172.3 171.5 170.6 169.5 167 164.8 165.3 165.3 166.3 169.2 171.8 174.5 177.9 180.1 181.3
154.4 155.9 157.5 158.7 159.9 160.9 161.6 162 162.3 163 163.8 164.8 165.9 167 166.6 166.8 166.5 165.9 165.5 166.4 166.3 166.8 167.2 168.1 167.2 165.8 164.4 162.2 159.3 156.5 152.6 148.7 143.8 127.7 104.7 101.6 119.2 127.2 126.4 117.3 101.3 85 82.6 83.5 84.2 82.8 82.8 83.9 86.8 93.1 98.1 110.2 119.2 125.9 133.4 138 130.7 114.3 130.4 136.7 135.6 129.1 120.9 114.1 111.6 110.4 111.2 108.9 106.7 101.3 96 89.3 91.3 91.6 92 93 93.3 92.9 101.9 106.2 110.9 115.8 121.8 128 129.9 130.6 130.5 129.1 126.2 118.8 105.6 100.6 100.5 101.8 105.3 104.6 116.2 130.1 134.6 140.2 146.6 150.6 151.3 149.4 146.7 143.8 140.8 137.5 135.4 134.9 131.5 137.4 143.6 149.3 151.9 150.6 148.4 144.1 141.2 141.5 145.4 149.7 152.9 153.5 154.1 138.6 122.1 133.7 150.5 156.7 161.7 164.5 166.3 167.7 169.7 171.3 172.4 172.6 172.9 172.1 170.8 169.5 168.2 166.5 164.4 160.7 158.5 155.9 151.4 141 141.8 153.2 157.2 156.9 155.8 155.6 155.6 154.3 148.4 138.5 131.1 134.5 133.6 134.8 140.3 144.1 146 145.7 146.4 146.1 151.4 153.7 156.7 159.8 161.4 162.4 164 165.7 167.5 169 169.8 170.4 171.2 172.2 173.7 174.4 174.3 174.3 173.6 173.2 173.1 173.9 173.3 172.8 174.8 179.5 183.2 184.2 185 185.7
155.1 156.7 158.2 159.4 160 161 162.2 162.8 163.2 163.6 164.7 165.8 166.8 167.7 167.3 167.5 167.1 166.7 166.3 166.6 165.9 165.2 165.1 165.8 165.6 164.7 163.2 161.1 158.6 155.6 151.2 145.3 137.5 114.7 104.8 111.9 129.4 136.8 134.5 129.5 120.1 106.9 95.1 83.9 81.9 82.2 82.6 88.3 93.2 97.8 108.7 119.2 125.9 132 137.8 140.8 136.9 121.5 122.4 132.5 139.2 136.3 130.5 125.5 121.9 120.3 120.1 121.2 122.8 119.3 110 97.6 95 94.8 95.3 94.8 97.4 103.5 108.3 112.1 118.2 123.7 129.6 134 137.2 137.3 136.8 136.2 135.2 130.5 125.3 118.9 116.7 120.6 125.4 114.2 112.3 131.9 137.3 141.1 146.5 150.9 153.5 153.7 152.4 150.1 147.1 145.7 142.5 140.2 137.6 141.3 146.3 152 156.8 157.6 157.5 156.9 156.3 154.8 156.4 160.2 160.9 162.5 160.2 143.2 124.4 131.3 146.6 157.8 161.6 163.6 164.5 165.9 169.6 170.9 171.9 172.6 173.3 172.2 171.5 170.2 169 168.1 166.2 163.5 160.1 153.8 142.1 143.8 154 160.9 160.5 160.9 161.4 161.2 160.2 158 153.1 144.2 133.4 139.4 144.5 146.5 144 140.8 141.5 142.4 142.4 144.1 147.6 150.7 153.5 156 158 158.6 160 161.7 163.5 165.1 166.1 167.9 169 170.6 173.4 174.9 176 176.5 177.1 177.8 178.6 179.4 180.2 178.5 179 183.5 186 187 188.2 189
155.6 157.5 158.9 159.2 159.5 161.1 160.8 161.1 162.1 161.3 163.5 165.7 166.6 167.6 168 168 167.6 167.3 167 166.1 165.2 164.5 163.7 163.4 163.4 162.8 161.4 157.7 154.7 150.5 146.1 136.5 118.3 108.9 105.9 118.3 133.3 141.6 142.4 139.5 134.7 127.2 113.6 108 103 102.5 105.8 109.7 112.1 102.4 116.3 128.7 135 139.7 143.5 145.9 144.3 133.4 123.4 125 135.1 138.9 136.5 133.1 130.1 127.2 126.6 126.7 126 122.7 115.5 104.2 103.2 103.5 104.8 101.1 102.3 110.6 114.5 118.2 124.3 129 134.9 139.5 143.2 144.4 144.8 144.1 142.7 139.6 136.8 133.4 132 131.4 131.6 126.2 111.7 124.7 132.7 138.3 145.6 150 154.2 156.7 156.4 155.6 153.6 150.8 147.8 145.7 143.6 148.8 149.9 155 161.2 165.2 165.5 166.3 166.5 164.5 165.7 166 167.4 168.1 166.5 151.4 130.1 128.9 140.1 153.7 158.8 159.8 161.7 164.2 168.4 171 173.1 173 173.7 172.6 172.2 170.9 170 169.3 168 165.8 162.7 152.3 145.2 156.2 161.3 163.9 163.8 163.9 164.6 164.5 163.2 159.4 153.5 139.5 139.3 147 148.1 150.5 150.5 149.5 148.1 149.2 150.1 146.3 144.4 145.4 147.9 151.1 151.1 153.6 155.4 156.7 159 160.1 161.6 163.7 165.9 169.1 172.9 175.6 176.7 177.3 178.6 179.9 181.1 182.1 183.1 182.3 181.7 186.3 188.3 189.8 191 192
156.1 157.4 158.2 158.1 158.9 159.8 158.7 158.8 159.6 160.3 162.4 165.4 166.5 167.6 168.6 168.3 167.8 167.3 167.1 166.9 165.1 163.7 162.8 162 160.7 160.1 157.6 152.6 148.1 135.8 124.9 121.9 114.8 112.9 109.3 120.7 136 143.7 147.7 147.2 144 137.3 131.7 127.7 125 125.3 130.4 132.7 128.1 109.7 122.9 134.8 141.8 146.1 148.7 151.1 149.5 146 141.8 130.8 132 139.8 139.9 137.5 134.8 131.7 130.1 128.2 124.6 121.3 121.6 122.4 122.4 121.6 119.3 105.5 103.5 115.9 121.4 126.5 130.1 135.2 141.4 145.4 148.9 149.9 150 151.1 150.7 148 146.3 145 142.7 141.4 137.6 130.3 115.3 121.5 122.6 132.3 142.6 148.8 154 157.3 159.9 160.5 159.5 158.9 156.6 155.2 151.8 155.2 158.4 161.1 166.4 170.2 171.2 172 171.7 170.5 170.3 169.6 170.4 171.5 170.7 160.9 140.8 126.4 134.5 146.9 152.3 155.2 160.8 165.4 170.3 171.9 173.8 174.7 174.1 173 171.3 171.7 170.3 168.9 167.7 165.9 160.9 148.7 151.2 157.1 162 165 165.5 166.3 166.8 166.7 165.1 159.5 152.5 139.8 150.4 153.4 154.1 154.9 155.2 154.9 153.2 154.3 155.7 152.4 148.9 151 150.8 150.6 154.4 159.1 161 163 163 164.9 165.7 166 166.3 166 171 175 177.7 179 180.3 181.7 182.5 183.7 184.9 185.4 185.6 188 190.2 191.3 191.7 192.6
156.1 156.4 156.7 157 157.2 157 155.9 155.1 155.4 159.2 161.1 163 166.4 167 167.3 167.3 167.2 166.9 166.6 166.4 164.9 163.5 162.2 161 158.5 155 153.7 146.9 137 131 129 132 130 114.4 113.2 125.8 139.8 147.6 152.3 153.5 151.2 147.4 145.1 145.1 143.3 141.5 143.5 143.1 135.6 117.9 125.7 135.7 141.4 146.8 148.7 150.6 149.4 146.6 143.6 136.3 132.2 141.4 143.7 143.3 140.9 137.9 134.5 131 128.9 131.6 135.1 135.9 135.5 133.6 125.8 103.6 105.8 119.6 127.8 133.1 138.3 143.6 148.9 152.4 152.9 154.7 155.9 157.3 156.6 155.1 153.4 150 145 141.3 135.4 124.9 123.6 130.6 130.7 129.7 136.6 147.9 154.7 158.3 161.5 164.1 165 165.7 164.7 163.6 160.9 161.8 165 167.1 170.2 173.5 174.9 175.4 175 174.5 174.8 173.8 174.2 173.2 170.8 164.7 150.4 134.8 128.9 137.3 148.8 160.7 166.3 170.1 172.1 173.3 175 175.7 174.2 172.4 170.5 168.6 167.4 166.6 163.8 160.8 154.2 155.8 161.8 162.3 164 166 166.5 167.3 168.4 168.2 165.8 160.1 152 145.3 157.5 159.2 159.6 159.2 159.4 159.6 159.6 160 160.4 157.2 153.7 159.6 159.6 156.6 154.1 160.1 164.1 165.5 166.3 166.9 168.6 169.8 170.2 169 168.9 173.2 177 179.7 180.6 182.1 183.4 184.9 186.2 186.7 188.5 190.3 190.8 191.7 193 194.2
155.1 154.7 154.4 153.1 153.7 152.4 149.6 146.3 154.6 157.5 160.3 162.5 164.2 165.7 167.1 166 165.6 165.6 165.5 165.3 164.8 163.4 162 159.7 157.2 150.6 144 144.6 143.2 145.3 145.4 142 125.1 113.2 121.9 135.5 147.5 153.7 156.9 158 157.1 155 153.4 153.9 154.2 152.8 148.7 146.2 141.2 127.9 121.7 133.1 139.2 144.2 148 150.4 149.8 145.8 141.5 137.8 131.8 139.5 143.7 147.3 146.6 144.2 140.8 137.4 136.7 139.6 141.8 141.7 141.1 138.3 127.2 106.4 107.5 122.7 131.3 138 144.5 149.8 154 155.3 156.8 157.8 161.3 161 160.5 158 154.9 150.9 145.6 139.2 130.6 125 131.6 140 140.5 136.7 136.2 148.4 155.9 159.3 162.4 165.4 168 169 168.5 168.2 166.7 166.5 169.3 171.5 174 176.4 177.1 177.7 177.6 176.3 176.6 177 175.8 173.3 170.1 165.6 157.4 145.5 130.6 141 155.3 164.3 169.6 172 173.3 174.5 175.6 174.9 173 171.1 169.2 167.5 164.4 162.9 160.8 156.1 157.8 163.9 166.4 167.5 168.1 168.6 168.9 169.4 169.9 169.7 166.8 162.8 155.4 145.2 157.7 161 162.4 163.3 163.2 163.3 163.3 163.3 162.8 160.8 156.6 160.3 163.1 163 160.4 155.3 160.5 165.3 166.6 168 168.5 170.3 172.2 172.5 171.1 171.8 175.7 179.1 181.2 182.8 184.3 185.8 187.2 188.4 189.6 190.5 191.2 191.8 193.1 194.1
153.6 152.3 151.7 149.7 149.3 144.6 140.5 149.2 154.3 156.9 159.8 160.9 161.5 162.7 162.8 163.8 163.4 163.6 163.3 163.9 163.6 162.7 160.4 160 158.9 153.7 153.2 152 151 150.4 149.9 143.2 121.1 119.1 133.7 147.6 155.1 159.9 162.4 162.3 161.5 160.4 160.1 160.1 160.2 159.8 156.2 151.9 145.1 137 128.3 132.5 139.9 145.1 148.8 150.1 149.9 147.4 144.4 141.1 137.4 137 145.7 149.1 149.4 148 145.7 143.7 144.4 146.1 147.3 147.4 146.7 143 133.2 114.7 105.8 118.1 130.2 138.9 147.2 152.1 155.9 158.1 161 162.3 164.5 164.9 163.2 161 157.5 153.4 149.1 142.4 131 135.6 143.3 150.6 152 149.3 135 146 157.4 160.3 163.3 166.6 169.3 171.5 171.7 171.5 171.6 172 173.3 175.7 177.4 178.2 178.9 179.7 179.1 178 177.1 175.8 174.3 172.4 169.9 166.1 161.1 149.3 132.1 143.9 157.3 164.4 168.8 171.3 172.5 174 175.4 174.8 173.2 171.7 170.4 168.8 166.9 165.7 163.2 157.8 164 167.3 169.4 170.4 170.6 171.2 171.5 171.6 172.2 170.6 169 164.6 158.4 146.7 153.9 159.4 162.2 164.2 164.3 166 166.1 166.1 166.4 164.4 162.6 162.1 165.3 166.6 166 164.7 160.7 157 162.4 165.2 168.1 170.5 172.5 174.3 175 174.7 175.2 177.7 180.1 182.1 183.8 185.4 186.9 188.2 189.6 190.2 190.5 190.8 192.3 193.2
152.1 149.7 147.1 143.1 140.6 134.6 146.6 152.9 154.7 156.2 157.5 158 158.6 158.7 158.9 159.2 159.5 160.6 161.1 161.7 161.9 161.4 161.8 161.1 160.3 157.8 155.3 153.9 151.3 149.3 146.8 143.4 126.2 120.9 136 152 159.5 165.3 166.6 166.6 166.2 166.2 166 166.1 166.1 165.6 162.4 157.5 152.3 142.8 135.1 137.7 145 149.2 153 152.9 152.7 150.5 148.7 147.3 144.5 137.9 147.8 151 152.2 151.2 151.1 150.4 149.7 151.4 152.3 151.8 150.7 147.9 142.2 130 108.7 111.8 120.8 132 142.1 150.6 157.1 160.9 164.1 165.9 168.1 167.8 165.9 163.9 161 157.8 154.3 148.5 137 139.8 148.8 153.1 154.8 154.5 146.4 145 156.1 160.7 163.5 165.5 168.5 172.5 174.1 174.6 174.3 174.9 175.5 177.6 179.3 180 180.4 180.5 179.6 177.5 175.5 174.2 171.8 170.1 167.5 162.6 158.1 146.5 133 148.2 158.7 163.8 167.8 170.5 172.1 173.7 175 175.1 173.9 173 171.7 170 168.6 167.3 163.8 162.1 166.2 168.9 171.6 173.2 173.4 173.8 174.1 174 173.7 172 170.4 165.2 158.1 149.7 149.3 155.4 159.4 163.2 165.3 167.7 168.9 169.1 169.4 169 168.2 167.4 169.1 170.1 170 169.2 167.3 165.3 165 163.2 164.8 168.8 171.3 173.5 175.7 176.4 175.8 177.3 179.5 181.7 183.3 185 186.6 187.6 188.2 188.8 189.4 189.8 190.8 191.6
151.6 151.4 149.2 144.4 139.3 133.7 146.1 152.6 154.1 154 152.8 153.2 154.4 154.8 154.9 155.2 156.1 157.4 158.6 159.1 159.4 159.6 160.5 161.4 161.4 159.6 157.7 154.6 150.5 144.7 141.6 138.2 129.5 119.6 131.8 146.6 159.8 165.3 168.5 169.7 169.4 169.2 170.1 171.3 171.4 170.4 167.7 164.2 158.9 149.7 139.8 146.7 152.9 155.8 156.5 156.3 155.8 154.1 152.4 150.6 148.3 143 148.7 152.2 154 154.6 155.1 154.6 154.7 156 156.7 155.8 153.3 149.3 144.2 135.1 117.1 109.6 112.8 123.9 136.2 146.7 154.6 161.7 166.3 169.3 170.7 169.7 168.5 166.2 162.9 159.4 154.7 148.6 144.3 141.4 150.8 155.1 157.4 158.2 154.9 148.2 151.2 156.9 160.8 164.3 167.6 172.3 174.8 176.2 176.3 177.4 177.9 179.4 180.3 180.9 181.4 180.9 179.2 176.6 173.6 170.9 167.8 165.4 162.7 158.4 154.3 143.3 137.2 152.1 157.9 161.8 165.8 168.6 171 172.7 174.7 175.6 174.8 173.9 173 171.5 169.8 168.8 164.4 165.8 169 171.1 172.8 174.6 175.8 176.5 176.7 176.5 176.3 174.9 172.4 167.8 161.4 152.4 148.6 153.8 160.1 163.4 166.1 168.9 170.8 172.4 172.5 172.5 172.1 172.1 172.7 173.7 173.8 172.9 171.3 169.7 168.2 166.5 166.3 166.1 170 173.6 175.7 177.6 178.3 178.5 179.1 181.4 183.1 184.6 185.6 185.9 186.5 187 187.7 188.4 188.7 188.8
149.5 148.6 146.8 144.1 141.2 126.2 142 146.2 147.1 147.2 147.3 147.6 149.3 150.3 151 151.5 152.6 153.3 154.4 154.8 155.8 158.8 160.5 161.7 161.9 159.8 157.5 153.6 148.1 145.5 140.9 138.2 136.6 125.8 130.8 142.8 154.6 160.3 164.8 167.6 168.5 170.1 171.3 172.6 174.2 173.4 171.1 168.6 162 156 146.4 154.7 157.9 159.2 160.3 159.6 158 156.4 154.7 152.8 150.2 145 147.2 153.8 155.5 157.3 158.1 158.6 158.8 159.4 158.6 157.5 152.9 149.5 145.4 137.5 129 119.1 111.8 120 134.5 145.8 154.3 161.4 165.3 168.6 170 170.5 169.7 166.8 162.3 158.5 158.1 157.6 154.3 147.1 150 158.1 161.5 161.9 158.8 154.7 153.2 155.4 157.4 160.2 167.2 172.2 175.5 177.3 178 179.6 180.3 180.1 180.4 181 181.6 180.5 178.8 175.8 172.9 168.2 160.8 158.5 155.7 149.5 143.7 137.9 139.3 151.7 156.2 159.4 162.6 165.8 168.2 171.8 174 175.7 175 174.1 172.6 171.1 169.7 168 166.4 168.5 170.1 171.6 174 175.8 176.9 178.2 179 178.6 178.4 177.7 174.7 170.1 164.3 158.9 149.1 155 163.1 166 168.7 170.9 172.2 173.8 175.3 175.4 175.6 176.1 176.8 177.2 177.4 176.1 174.6 172.7 170.5 169.4 170.7 170.1 170.2 173.4 175.7 177 179.6 180.5 180.7 181.4 183.1 184.3 184.2 184.4 184.8 185.3 185.9 186.7 187 187.3
143.3 141.6 137.6 132.4 130 125.3 133.5 135 136 136.2 137.6 140.9 143.3 145 145 145.4 146.7 147.7 151 154.9 157.2 158.9 160.6 162.3 161.9 160.1 156.9 153.7 153.6 152.9 151 149.2 145.4 134.5 128.4 141.3 149.5 154 159 163.4 166.9 169.7 171.7 173.7 175 175.1 172.7 170.4 166.7 162.4 154 158.3 159.9 161.5 162.5 161.6 160.2 158.6 156.9 155.1 153.2 147.2 150.1 155.9 158.5 159.7 160.3 160.5 160.7 160.9 159.6 159 156.9 153.7 151.8 148.1 140.3 128.4 114.1 120.4 135.3 143.9 152.5 159 163.6 167.5 169.4 170.2 169.3 167.8 167.2 165.8 165.8 164.2 162.4 156.1 149.3 158.8 165.2 165.4 162.8 162.8 159.5 159.9 162.1 163.4 164.3 170 174.2 177.3 179.3 181.4 181.9 181.7 180.9 180.1 180.4 179.9 178 175.4 170.2 163 152.5 147.3 145.9 145.4 149.6 146.4 139.3 143.3 148.6 152.7 156.9 161 165.4 169.4 173.4 175.6 175.2 173.7 172.7 172 171.2 167.7 168.6 169.6 170.5 172.9 175.2 177.1 178.7 180.2 180.3 180.4 180 178.8 176.3 173.1 168.4 161.7 150.4 157.4 163.4 167.8 171 172.5 173.8 175.2 176.7 178.3 178.7 179 179.4 179.8 179.7 179 176.6 174.8 172.9 173.2 173.5 173 173.1 175.7 178.3 179.1 181.1 181.4 181.6 182.8 183.7 184.5 184.1 183.5 183.2 183.6 184.2 185 185.1 185.1
132.9 128.8 121.2 120.4 122.7 121.9 125.9 128.8 132.1 134.6 134.6 134.6 136.9 139.2 143.9 146.1 146 150.4 154.5 158 159.7 161.3 162.8 164.5 163.7 163.1 161.5 159.6 158.9 157.3 155.4 152.7 149.8 142.4 130.2 132.4 141.6 148.4 154.7 161 164.5 168 170 172.7 174.6 176.2 175 173.2 170.3 167.5 162.4 160.8 162.1 164.3 163.4 161.6 159.5 157.3 156.1 154.1 151.4 147.8 153.4 157 159.6 160.3 160 159.7 159.4 159.2 158.9 159.7 159.6 158.4 155.9 153.4 148.6 131.8 116.1 123.6 137.5 146.1 152.8 159.3 163.9 167.3 169.3 169.9 170 169.8 170 170.1 169.6 169.1 168 165.8 158.2 160 168.5 169.3 170 171 171.6 172.5 172.6 172.5 169.6 172.4 176.3 179.2 181.2 182.9 183.4 183.1 182.5 181.7 180.9 178.2 174.9 171.2 164.7 153.4 154.4 157.7 159.1 157.2 154.2 149.4 141.8 141.8 142.1 144.4 149.4 155.5 160.9 166.1 171.1 175.1 175.9 175.1 174.3 174 173.4 170.7 171.7 173 173.5 174.2 176.5 178.5 180.2 181.8 182 181.8 181 179.2 177.3 175 170.9 165.2 151.1 161 165.8 168.8 171.1 172.4 173.9 175.2 176.8 178.5 180.3 181.8 182 182.2 181.7 181.1 179.4 177.3 175.5 175.9 176.2 175 175.4 178 180.1 181.6 182.5 182.5 183.1 184.1 184.4 184.5 184.1 183.6 183 182.4 182.5 182.2 182.7 184.1
116.3 118.1 122.2 128.4 130.7 128.8 130.5 135 138.6 140.2 141.2 140.9 139.1 144.7 147.5 150.2 151.2 153.1 156.8 160.4 162.3 163.9 165.5 166.9 167.2 164.8 164.6 164.2 163.2 161.8 159.4 156.7 152.5 140.9 140.4 141.9 139.5 140.5 150 157 162.7 166.3 169 172.3 174.6 176.5 176.1 175.1 173.7 171.4 167.5 164.7 165.5 166.5 164.8 162 159.1 156.5 155.3 154 150.2 153.2 154.5 157.6 159.2 159.1 158.9 157.5 156.9 156.1 155.4 155.3 156.8 156.8 156.5 155.5 151 134.3 116 127.3 138.4 146 152.4 159.2 163.7 166.5 168.5 170 171.5 171.9 172.3 173.1 173.5 173.4 172.5 171.8 166.2 160 170.4 173.8 176.4 177 176.7 177.5 176.8 175.9 174.9 173 177.4 180.5 182.6 184.3 185 184.6 184.1 182.8 180.4 177.2 172.9 168.3 159.5 156.4 165.3 164.6 162.8 160.2 155.6 150.3 151 150.4 150.4 147.6 147.5 155.4 160.2 165.5 170.3 174.5 177.4 176.7 176.4 175.9 175.3 173.6 174 175.6 176.7 177.2 177.7 179.7 181.4 182.9 182.9 182.7 181.3 179.5 176.8 173.9 170.9 165.2 158 164.1 167.4 168.3 169.4 170.6 172.2 173.8 176.2 178.6 180.3 182.3 183.4 183.9 183.6 182.7 181.4 180 178.9 177.4 177.7 177 177 178.4 180 181.7 183.5 184.2 184.8 185.2 184.9 184.3 183.8 183.6 183.1 181.8 177.9 178.5 182.5 184.9
123 126.3 125.1 131.7 134.9 134.5 131.2 136 140.5 142.3 145.1 145.8 142.4 147.7 150.3 152.8 154.5 154.8 158.5 161.8 163.8 166 167.6 169 169.8 168 167.9 168 166.7 165.3 162.7 157.7 149 150.6 148.6 148 147.3 143.5 142.6 152.3 159.3 164.2 167.6 170.9 175 176.9 177.3 176.9 175.5 173.4 170.4 166.6 169.1 167.7 165.2 162.7 160.5 159 158.1 156.2 154.4 157.2 157.9 158.6 158.9 158 157.3 155.5 152.9 150.9 150.6 150.4 149.5 151.1 152.6 154 151.6 138.8 120.6 123.2 130.3 137.4 145 153.9 158.2 161.4 163.9 167.4 169.9 171.6 173.7 175.6 175.7 175.5 175.9 174.6 171.4 163.5 169.4 174.2 177.4 178.4 179.3 179.8 179.4 178.5 177.5 177.1 179.6 181.2 184.2 185.8 185.6 185.7 184.9 182.2 179.5 176.1 171.6 166.6 156.6 160.1 165.1 166.3 165 161.2 156.2 152.9 155.9 156.5 156.7 155.3 149.3 157.4 162.7 167.8 172.8 175.7 177.8 178.7 178.4 177.8 177.2 176 176.2 177.8 179.3 179.7 180.1 180.6 182.1 183.6 183.6 182.7 181.2 177.4 174.8 171.8 168.7 164.7 154.4 163.2 165.8 166.6 167.3 168.6 170.1 171.8 174.6 178 180.4 182.7 184.5 185.6 185 184.8 182.9 181.8 180.5 178.9 178.3 178.2 178.1 179.2 180.9 182.6 184.3 185.1 185.2 185.4 185 184.2 183.4 182.8 182.7 180.4 178.3 183.2 183.6 184.6
134.6 134.1 132.5 133.3 138 138.7 138.1 136.3 142.4 145.2 148 150.2 148.5 148.5 152.7 154.8 156.6 157.8 160.1 162.6 164.9 167.2 169 170 171 171.7 171.1 170.7 169.7 167 164.3 157.3 158.9 158.2 155 153.3 154.6 153.8 152.3 146.1 155 161.8 165.1 170.6 174.7 177 177.5 177.9 177 174.9 172.7 171.8 171.1 170.1 167.5 165.3 163.2 161.4 160.3 157.5 157.4 158.6 159.3 159.8 159.4 157.5 155.3 153.5 148.8 145.7 144.3 143.7 141.6 144.9 148.2 148.9 146.3 140.6 130.1 121.1 126.1 124.5 132.2 142.1 149 154.5 157.8 162.9 165.8 169 172.5 175 175.8 176.1 177.5 177.3 175 168.7 167.9 175.9 178.3 180.3 181.2 182 182 181.1 179.3 179.3 181.5 183.7 186 187 187.1 187.2 185.2 182.8 179.8 175.8 170.5 164.3 156.1 162.2 166 166.2 166.3 164.1 161.2 158.4 157.5 157.7 157.9 154.4 150.6 158.6 164.8 169.1 173 176.6 178.1 179.5 180.3 179.8 179.2 178.9 178.7 179.9 181.4 181.9 182 181.7 182.9 184.2 183.8 182.7 180.8 176.3 171.7 168.7 165.4 162.1 155.1 160.4 162.5 163.1 163.9 165.4 167.3 169.3 173.1 176.5 179.9 182.6 184.4 185.6 185.5 185.8 185 184.5 182.8 181.6 181.1 180.1 179.8 180.9 182.6 183.8 184.9 185.3 185.4 185.4 184.8 184.1 183.3 182.6 181 177.6 179.2 182.9 184 184.9
140 139.9 139.6 138.8 142 143.2 143.5 136.1 145.2 148.5 151.6 153 151.7 148.6 153.7 156.1 158 159.7 161.5 163.3 165 166.7 168.7 170.7 171.6 172.6 173 171.9 171 169.2 164.4 164.5 165 163.5 160.9 159.2 158.7 157.5 154.8 148.7 152.9 159.3 164.8 170.4 174.7 177.3 178.3 179.3 178 176.7 175.3 174.3 173.3 172.5 170.1 168 165.8 164.1 162.6 159 160.7 160.1 160.7 161.1 160 157.3 154.4 149.9 144.6 141.1 139.1 137.8 134.3 135.2 136.1 135.8 134 128.7 125.5 135.9 143.4 144.7 142.1 134.3 136.1 139.8 146.6 151.2 157.2 162 169.7 172.5 175.6 177 178.4 179.2 178.4 173.7 170 178.2 180.1 181.9 183.1 183.6 183.9 183.4 182.4 183.7 185 186.5 187.1 187.7 188.3 187.9 185.8 182.6 179.3 175.4 171 165.3 157.8 162.3 166.5 168 169.6 167.3 164.4 161.8 160.6 160.7 160.3 155.2 153.6 161.7 166.2 170.2 173.8 176.1 178.3 179.6 180.5 181.2 181.2 181 181.3 182.4 183.6 183.7 183.7 183.4 184 184.8 183.8 182.6 179.7 175.8 172.7 168.7 165 161.7 158.8 157.1 159 160.1 161.7 164.4 167 170.6 172.9 175.1 179.1 183.2 184 185.1 186.1 186.7 186.8 185.6 186.1 184.4 183.6 182.4 181.7 182.2 183.3 184.4 185.6 185.6 185.5 185.2 185 183.9 183.2 182.4 178.5 174.7 180 181.9 183.3 184.1
144.5 145.2 145.8 145.8 146.4 147.4 144.8 138.9 146.6 151 154 156 155.1 153.6 153.3 157 158.5 160 161.2 162.8 164.6 166.2 168.3 170.9 172.2 173.1 173.6 173.1 172.2 171.7 170.1 169.3 168.4 167.1 164.9 163.1 161.4 157.4 154 151.3 151.4 157.6 164.3 169.9 174.4 177.7 179.6 180.2 178.8 178.2 177.7 176.7 175.7 174.7 172.2 169.8 168 166.5 164.3 161 163.5 162.9 162.4 162.3 160.7 158 153.6 146.8 145 145.7 146.5 144.9 138.1 131.3 130.1 133.3 131.1 137.2 141.4 146.7 151.6 155.5 153.9 143.7 149.4 158.2 161.8 163.8 166.2 169.2 169 169 174.9 177.3 179.2 180.4 180.1 176.7 172 178.8 180.5 182.3 184 185.1 185.9 186.3 187 187.6 188.3 188.9 189 189.6 190.2 188.7 185.2 181.3 178 174.7 169.8 165.4 157.7 164.1 168.3 171.1 173.2 170.9 168.6 165.7 164 163.8 161.4 156.4 154.5 163 167.2 170.9 173.5 175.6 177.3 179.5 180.5 181.2 181.9 182.3 183 183.8 184.6 185.2 185 184.7 184.3 183.8 182.2 180.8 179.8 176.6 173.6 170.1 166.6 163.4 160.3 158.3 159 160.9 163.6 166.1 169.6 173.5 176.5 178.2 182.3 182.9 183.6 184.6 185.9 186.7 186.7 186.3 186.9 187.2 186 184.5 184 183.9 184.4 185.1 185.8 185.6 185.3 185.1 184.8 184.1 183 180.8 177.2 173.7 180.6 181.4 183 183.1
148.9 149.6 150.1 150.6 150.6 150.1 147.6 141.1 148.4 153.3 156.3 158.3 159.3 158.6 155.8 154.8 156.7 158.2 159.9 162.4 164 165.8 168.9 171.1 172.4 173.7 174.1 173.9 173.9 173.7 173.4 172.6 171.6 170.5 168.7 166.8 162.5 159.6 157.7 155 154.3 157 161.9 168.2 174.3 177.6 180.1 181.3 180.9 180.4 179.8 179.1 178.1 176.7 173.8 171.3 169.3 167.1 164.6 164.7 165.2 164.6 163.8 162.9 161.2 158.3 151.6 150.3 152.4 151.9 149.2 144.7 134.5 143.2 149.9 150 144.5 147.5 154.5 158.5 161.6 162.8 161.4 152.9 150.6 164.8 171.1 172.9 175.9 175.8 175.3 173.6 174.2 178.4 180.3 181.8 181.5 179.8 175.4 178.1 180 181.7 183.9 186.2 187.3 188.4 189.4 190.2 190.9 191.5 191.8 191.6 191.2 188.8 185.4 181.8 177.1 171.7 168.1 164.8 160 167.3 170.8 173.9 175.9 175.9 173.5 170.3 167.3 165.6 162.5 157.4 153.9 161.8 167.5 170.7 172.4 174 176.2 178.3 179.7 180.1 180.8 183 183.7 184.7 185.6 185.9 185.9 185.5 184.8 183.8 182.8 180.8 179 176.8 174.4 171.4 168.1 165.1 162.2 160.1 158.6 160.8 164.2 168.4 172.7 176.7 179.5 181.3 182 182.7 183.3 184.2 185.7 186 186 186.1 186.4 187.1 186.8 186.3 185.8 185.5 185.8 186.3 185.4 185 184.7 184.5 184.2 183 181.6 179.5 177 172.1 177.6 178.7 180.3 181.6
153 153.5 154 153.7 153.3 152.9 151.8 144.9 149.4 155.1 158.1 160.2 161.4 161.3 159.5 159.7 159.9 160.5 161.9 163.9 165.1 166.4 169.6 171.3 172.6 173.9 174.7 175.1 175.6 176.2 176 175.7 174.9 173.8 172.1 169.5 165.7 165.3 162.8 159.6 162.3 164.2 165.1 167.6 173.2 176.9 180 181.9 182.1 182.1 181.5 180.9 179.6 178.4 176.4 174 169.5 168.2 167.5 166.6 166.2 164.8 163.7 162.7 160.7 156.2 154.6 157.4 157.3 155.9 151.3 142.6 139.4 151.9 157.1 158.4 155.1 155.6 162.8 166.7 167.8 167.3 165.5 160.7 158.7 160.6 171.9 177.5 179.1 179.6 179.4 177.9 176.5 179.1 181 182.3 182.9 180.8 179.2 178.5 179.6 181.2 183.8 187.1 189.3 190.4 191.5 192.5 193.3 193.9 194 193.4 191.6 189.4 186 182.5 178.2 173.3 168.8 164.9 164.4 171.1 174.7 177.7 178.3 179.2 177.4 173.7 170.1 167 162.7 160.4 158.6 157.3 163 166.8 170.2 172.6 174.7 176.5 177.9 178.4 180.6 182.8 184.2 185.2 186.1 186.3 186.4 185.7 184.9 183.8 181.5 179.1 178.3 175.9 173.6 171 168.6 166.3 162.7 160 159.7 162.5 166 171.2 175.2 178.3 180.6 182 182.6 183.3 183.6 183.9 184.9 185.3 185.3 185.9 187.2 188.2 187.9 187.6 187 186.2 186.3 186.6 185.2 184.5 183.9 183.7 183.2 181.4 179.7 177.5 175.3 170.8 172.8 174.7 176.1 177.6
156.3 157.1 157 156.2 155.8 155.4 154.6 148.5 151.5 156.1 159.3 161.4 163.2 163.3 162.2 162.7 164 164.4 165.2 166.4 168.1 169.1 170.3 171.2 172.6 173.9 174.9 175.6 176.2 176.9 177.7 178.1 177.9 176.6 174.5 172.3 170.6 169.9 168.3 168.3 168.6 170.2 171.3 172.3 173.6 175.9 178.7 181.4 182.1 182 182.2 181.6 180.5 179.5 178.4 176.3 173.1 171.8 170.8 169.8 168.7 164.5 160.9 158.5 156.5 155.5 160.6 161.1 161.1 158.8 152.4 142.6 145.7 157.5 163.3 164.2 162.8 160.7 165.5 170 171.7 171.5 170.2 170.8 170.7 163.8 172.7 178.8 182.1 182.7 183.1 181.7 180.5 179.6 181.6 183 184.3 183.1 181.9 181.6 181.7 183.1 184.5 187.5 189.9 192.4 193.5 194.6 195.3 195.4 194.6 193.6 191.9 189.7 187.5 183.5 179.4 175.1 171.4 166.7 167 173.9 177.6 180.6 181.6 182.7 181.1 177.4 173.7 169.9 165.3 164.7 164.1 161.1 157.1 162.6 165.2 168 170.4 172.7 174.5 177.8 180.8 182.2 183.8 185.3 186.2 186.3 186.4 185.8 184.7 182.3 179.9 177.6 176.2 174.1 171.5 168.5 165.8 163.7 162.1 161.5 161.2 164.4 167.9 172.4 176 178.9 180.9 181.7 182.3 183 183.7 183.8 182.6 183.5 185.5 186.8 188.1 189 188.9 188.5 187.5 186.6 186 185.5 185.1 184.1 183.5 183 182 180.3 178.6 175.8 174.1 171 167.7 170.8 172.2 173.6
159.6 160.1 159.5 158.8 158.1 156.5 153.5 147.7 152.6 157.8 160.6 162.6 164.4 165.4 165.6 165.8 166.9 167.8 168.6 169.3 169.6 170.3 170.7 170.3 171.5 172.9 174.5 176.1 176.9 177.6 178.5 179.2 179.2 177.9 176 174.2 173.7 173.1 172.6 171.7 172.4 174 174.4 175.2 174.5 175.9 178.6 180.9 181.6 181.9 182.2 182.3 181.4 180.6 180 178.2 176.5 175 173.9 172.7 171.6 167 165.7 163.3 159.3 161.9 161.9 161.9 162.3 158.6 149.3 143.1 152.8 163.1 166.6 167.3 167.4 167.1 168.7 171.9 174.7 175.7 175.9 175.7 175.1 169.8 175.8 180.5 183.8 185.5 186 185.2 183.8 183.3 185.2 185.8 185.8 185.2 184 184.7 184.9 186.3 187.7 188.7 190.7 193.2 194.3 195.5 196 195.6 195.2 193.6 191.9 189.8 186.9 183.6 180.3 177.1 174.2 167.6 169.2 174.6 179.6 183.2 185.9 186 184.7 181 177.3 173.6 169.3 169.3 168.5 166.5 162.2 162.4 166.5 170.8 173.7 175.4 177.4 180.3 182 183 184 185 186.2 186.3 186.4 185.5 183.2 181.1 178.9 176.7 174.5 171.3 168.3 167.2 166.1 165.3 164.5 163.6 162.7 164.6 168.5 172.4 176.4 178.6 180.1 181.4 182 182.6 182.9 182.2 180.9 180.8 184.2 186.6 188.1 189.1 189 188.5 187.5 186.6 185.4 184.1 183.8 183.7 183.5 183.3 182.9 182.2 181 178.7 176.9 175.6 171.4 168 167.3 171.7
162.2 162.1 161.4 159.4 157.4 155.1 151 150.8 156 159.5 161.3 164 166.6 167.1 167.5 168.4 169.4 170.2 170.6 170.9 170.4 170.6 171 170.7 170.5 171.9 173.5 175.2 176.8 178.2 179 179.4 179.4 178.9 177.4 177.3 176.7 176.2 175.6 174.9 176.3 176.6 177.2 176.8 176.6 176 178.5 179.8 180 180.5 182.1 182.4 182.4 181.8 181.1 180.1 178.7 178.5 177.1 175.7 174.6 172.1 170.5 168.2 165.7 165.9 166 165.1 164.2 160.4 149.2 149.1 158.9 165.3 168.1 169.5 169.8 170.3 172.9 174.2 176.6 178.4 178.7 178.2 177.5 176.4 179.8 183.3 186.1 187 187.7 187.8 187.1 187.1 187.3 187.5 187.4 187.3 186.2 187.5 188 189.4 190.3 190.9 191.5 194 195.1 195.9 195.7 195.3 194.6 193.1 190.7 188.4 186.1 183 179.6 176.8 173.2 167 170.4 175 180.4 184.8 187.4 188.3 186.3 183.9 180.9 177.8 175.7 174.5 173.4 171 167.5 165.2 168.8 172.3 174.9 177.8 180.4 182.1 183.1 184.2 185.2 185.5 185.6 185.7 185.9 186 184.1 182 179.8 176.5 174.7 172.6 171.4 170.4 169.8 169.1 168.2 166.9 165.3 165.6 168.7 172.8 176.2 177.8 179.5 180.7 181.5 182 180.8 179.9 178.1 178.8 180.9 183.7 186.6 186.9 187 186.4 185.7 184.5 183.3 182 181.4 181.7 181.9 182.1 182.7 182.9 182.2 181.6 180.2 179.3 176.7 174.1 170.5 168.3
163.4 162.6 161.2 158.9 157 153.4 152.8 153.5 155.7 158 161.8 164.5 166 167.4 168.4 169.4 170.2 171.1 171.4 171 170.5 170.7 171.1 170.8 170.3 169.7 172.3 174.2 176.7 178.3 179.3 179.5 179.3 179.1 179.4 179.8 179.8 179 178.2 177.7 178.1 178.4 178.2 177.5 177.2 177.5 178 177.8 177.6 178.1 179.7 181.3 182.7 182.7 182.1 181.9 181.2 181.2 181.1 179.7 178.3 176.8 175 173.2 171.1 170.8 169.8 168.5 165.2 162.4 151.7 149.4 160.6 166.2 168.2 169.6 171.4 172.5 174 175.3 178.4 180.1 181 180.9 180.1 180.9 183.2 185.6 188 188.5 189 189.1 189.5 189.3 188.9 188.9 189 188.9 188.4 189.8 191.1 191.9 192.6 193.1 193.4 194.8 195.6 195.5 195.3 194 192.6 190.9 188.9 186.6 183.6 180.5 177.8 174.3 170.5 171.8 173.4 176.5 180.6 185.4 187.8 187.8 186.9 185.2 182.8 179.9 178.5 177.2 175.8 174 169 169.2 172.7 174.4 177 179.6 181.6 183.2 184.3 184.6 184.7 184.8 184.9 185.1 185.4 185.8 185.2 183.3 180.8 179.9 177.7 175.4 174.6 174 173.3 172.2 170.5 168.8 167.1 168 169.5 172.3 175.6 177.5 178.7 179.9 180.8 180.5 179.6 178.1 176.8 176.7 178.8 181.4 183.2 184.2 184.5 184.3 183.6 182.3 181.1 179.9 178.7 179 179.1 180.1 181.1 181.9 181.5 181.5 181.8 181 178.8 177.2 173.6 166.1
161.7 161 160.3 158.6 157.5 155.8 155.9 157.1 159.5 160.8 163.1 164.1 165.6 166.8 167.3 168.1 168.9 169.7 171 171 170.6 170.8 170.8 170.7 168.6 168 172.1 174.7 176.8 178.1 179.4 179.4 178.7 178.5 179.4 179.6 179.9 179.9 179.9 179.6 178.9 178.3 178.1 177.8 177 175.5 174.7 175.1 175.2 175.6 177.4 179.2 180.8 181.8 183.2 183.7 183.7 183.7 183.8 183.5 182.3 180.3 178.1 176.8 175 174.3 172.9 170.7 167.9 164.4 158 147.4 158.2 164.8 166.7 168.7 170.5 172.6 174.9 176.7 179.7 181.9 183.1 183.2 183 183.5 185.8 187.8 189.7 190 190.1 190.4 190.6 190.4 189.8 189.4 189.6 189.7 190 191 192.1 193.3 194.4 195 195.7 196 195.9 195.3 193.9 192.3 190.7 188.4 186.5 184 180.7 177.4 174.5 171.5 172.5 173.8 176.3 179.1 182.8 185.5 187.7 187.3 186.4 185 183.5 181.9 180.5 178.5 176.8 175.1 168.6 170.8 175.5 176.9 178.3 180.3 182.3 183.8 183.8 183.9 184 184.1 184.3 184.4 184.9 185.3 185.3 184.4 183.5 182.3 180.2 177.2 176.7 176.3 175.3 173.9 171.9 170.4 168.8 168.8 170.8 173.1 175.5 176.9 178.1 179.2 179.4 179.6 178.9 177.4 175.9 175 176.5 178.7 179.7 180.8 181.8 181.8 181.4 179.9 178.7 177.4 176.1 175.1 175.6 176.7 177.8 178.8 179.4 179.7 180 180.1 180.4 178.5 176.3 170.5
159.9 159.3 159.4 159.7 158.9 160.1 161 161.8 162.7 163.6 164.2 164.6 165.7 166.9 167.3 167.8 168.2 168.7 169.2 169.7 170.3 170.4 170.1 168.9 166.6 168 171.9 174.2 176 175.9 176.6 176.7 175.6 175.2 176.7 177.3 176.8 178 177.7 177.2 176.8 176.6 176.3 174.8 172.9 172.2 171.6 170.8 170.9 171.9 173.7 176 178.3 180.3 182.3 183.9 185.5 186.2 186.4 185.9 184.4 183 181.6 180.3 179 176.6 174.2 172.2 167.5 163.6 156 147.7 155.2 159 162.8 166.1 168.7 171.1 173.7 176.5 179.6 182.8 184.7 185.4 185.1 186.9 187.9 189.3 190.5 190.5 190.4 190.7 190.5 189.3 188.8 188.4 188.6 188.9 189.7 190.6 191.7 193.9 194.3 194.6 195.1 195.8 194.6 193.8 192.4 190.4 188.7 185.7 183 180.3 177.4 174.7 174.4 176 176.8 176 179.6 182.7 184.4 186.7 187.7 187.2 186.7 185.6 183.7 181.7 179.3 176.9 175.2 173.6 169.4 171.3 175.1 176.9 178.3 180.1 182.1 183.5 183.4 183.2 183.3 183.5 183.6 183.9 184.4 184.8 185.2 184.7 184.3 183.6 181.4 179.3 178.8 178.3 177.4 175.8 173.7 171.8 171.6 171.4 171.7 173.9 175.9 176.9 177.9 179.1 179.2 179.2 179 177.6 176.1 173.4 174 175.5 176.6 177.6 178.7 179.3 179.3 177.9 176 174.5 173.3 171.2 172.1 173.2 174.4 175.5 177 177.7 178 178 178.8 178.3 176.6 176
