ncols 200
nrows 82
xllcorner 210000
yllcorner 74300
cellsize 50
187.1 183.1 187.4 193.6 201.5 208.2 212.9 215.7 216.7 215.7 211.7 208.7 214.2 219.4 222.3 224.9 226.5 227.2 227.9 227.5 227.4 227.7 228.2 228.6 229.7 231.1 232.4 234.1 236.6 239.9 243.8 248.8 254.1 259.5 264.1 267.4 268.8 268.4 265.7 261.6 256.7 252.1 247.5 243.2 241.4 243.1 246.2 247.4 248 249.2 251 253.6 256.1 258.5 259.5 260.7 260.9 261.1 261 260.4 259.1 257.9 256.8 255.8 255.4 255.4 255.2 254.6 253.6 252.7 251.2 250.6 250.1 250.1 250.1 250.2 251.1 252.6 255.4 260.3 265.9 272 278 285 292.3 300.7 309.8 316.1 320.6 316.1 304.5 294.7 283.9 275.7 266.8 259.3 252.2 246.4 251.8 261.7 269.3 275.8 281.5 286.1 289.6 291.9 296.2 301.4 306.6 310.6 308 300.4 290.1 277 269.7 269 269.1 270.9 271.6 271.6 271 270.9 270.6 269.8 270.3 272.3 276.3 279.2 279.7 278 276.3 278.4 281 286.1 291.7 299.4 310.1 320.3 330.8 337.3 339.9 338.2 335 331.1 327.5 324.1 321 318 314.7 311.3 307.4 303.1 299.4 295 290.4 286.8 282.3 277.7 273.8 267.5 262.5 259.4 255.3 257 264.1 266.7 268.4 269.8 267.5 261.5 256.4 252 245.4 239.9 237.5 239.4 245.3 253.1 253.6 246.5 248.3 255 261.1 263.7 265.9 269.4 272.5 280.2 288.2 293.8 298.9 301.4 302.5 302 299.8 300.8 301.6 301.7 300.8 299.2
184.3 185.4 194.1 202.2 208.8 213.7 216.9 219.3 220.1 219.4 216 211.4 213.5 218.7 221.9 224.6 226.1 227.5 227.8 227.4 227 227.3 227.7 228.1 228.6 229.8 231.5 233.8 236.6 240.5 245.1 250.4 256.1 261.4 265.7 268.4 269.3 268.2 265.1 260.4 254.9 249.5 244.1 240.3 242.2 246.3 249.5 250.2 250.7 251.8 253.5 255.8 258.6 260.1 260.8 261 261.2 261.1 261 260.5 259.1 257.7 256.4 255 254.2 253.9 253.7 253.5 252.6 251.4 251 250.6 250.6 250.5 250.8 249.8 250.1 252 255.2 259.8 265.8 271.8 278.2 285.5 293.2 302 310.4 314 315.2 309.8 300.3 291 279.8 271.4 263.6 256.5 250.3 247.1 252.8 262 269.8 277 283.2 288.6 293.1 296.2 300.9 305.1 310.3 314.5 311.5 302.3 291.9 279.5 271.3 269.3 269.1 270 270.7 270.9 270 270.3 270.7 270.2 271.2 274.2 277.9 280.6 281.4 279.7 276.8 278.4 280.5 285 290.7 297.4 305.9 316.8 326.1 332.3 334.9 334.2 331.6 327.7 324.2 321.2 318.1 315.1 311.8 308.7 305.3 301 296.8 293 289 285.5 281.2 273.1 266.9 262.5 261.1 260.9 262.2 265 270.2 272.8 274.1 275.8 275.2 270.8 265.7 260.2 251.6 241.5 238.2 238.3 240.6 246.9 246.2 243.8 245.6 249.9 255.3 258 261 265.5 270.6 279.3 286.6 292.2 296.9 299.5 300.2 299.5 298.8 300.3 301.3 301.5 300.7 298.7
182.6 190.6 200.7 208.4 214 218 220.4 222.2 222.6 221.8 219.6 214.9 214.1 218.9 221.6 224.2 225.6 226.9 227.3 227.2 226.7 226.9 227.3 227.7 228.5 229.8 231.7 234.2 237.7 242.4 247.9 253.5 259.7 264.3 268 269.4 269.4 267 263.8 258.7 253.3 247.3 241.3 240.4 244.7 248.6 251.3 252.4 253.3 254.8 256.4 258.5 260.5 261.5 261.8 261.3 261.3 261 261 260.4 259.3 257.8 256.1 254.5 253.7 252.7 252.1 251.6 251.1 250.9 251.1 250.9 252 253.8 254.7 253.4 250.1 251.5 254.4 259.5 265.8 271.9 278.7 286.3 294.3 303.8 310.1 313 311.9 307 298.4 287.6 275.8 267.3 260.9 254.3 248.8 247.8 255.1 262.5 270 278 284.8 290.5 295.4 299.4 303.1 306.3 309.8 313.1 310.1 301.4 291.8 280.4 272.6 270 270.2 270.3 268.4 268.8 269.2 270 271 271.2 271.5 274.3 277.8 280.5 282.1 281.2 277.5 278.3 280.4 283.7 289.4 295.1 301.7 311.9 321.3 326.8 329.6 329.9 327.9 324.4 321.3 318.4 315.5 312.9 309.8 306.9 304 301 297.7 293.5 288 283.4 277.8 271.5 272.1 272.5 271.3 268.2 267.8 269.2 273.1 276.1 278.7 280.6 280.7 277.9 272.5 265.3 254.3 243.3 238.8 237.6 239 240.9 241.2 242.6 244.3 246.4 250 254 257.9 264.1 270.3 279.2 284.9 290.2 294.2 297 297.7 297 297.1 298.8 300.2 300.7 299.6 296.2
187.5 198.1 207.2 214 218.2 221.1 223.2 224.9 224.5 223.6 221.5 217.5 215.7 218.7 221.5 223.6 224.9 226.1 226.7 226.6 226.4 226.5 227 227.5 228.4 230.1 232.9 235.9 240.5 245.9 251.2 257.2 263.3 267.7 270.5 270.7 268.8 265.7 261.8 256.1 250.4 244.5 239.5 242.8 247.6 250.2 252.7 254.7 256.1 257.6 259.7 261.8 263 263.2 263.1 262.6 261.2 260 260.8 260.3 259.1 257.3 255.6 254.2 253.2 252.3 251.9 251.5 251.1 252 252.7 253.7 255 256.5 256.5 255.3 250.3 251 253.6 259.3 265.4 271.8 279 286.9 295.6 305.4 310.6 312.1 309.8 304.5 296.3 285.6 274.1 264.2 256.6 249.8 247.3 248.9 256.7 263.8 271.5 278.5 285.5 291.5 296.4 300 303.1 305.9 307.7 308.4 306 300.3 291.4 281 273.8 269.9 269.7 269.7 268.8 268.9 269.6 270.3 270.9 271.4 271.8 273.3 276.9 279.6 281.9 282.1 278.8 278.3 280.1 282.4 287.3 293 298.1 305.8 314.7 320.2 323.7 324.9 323.9 321.9 319.4 316.5 314 312.2 310.6 308.7 307 304.9 302.8 299.4 294.6 287.5 280.1 278.2 281.3 280.8 276.7 272.1 271.3 271.8 273.8 277.1 280.3 282.3 282.5 280.5 275.9 268 254.9 243.2 238.5 237.2 238.2 239.2 241.4 242.7 245.1 246.7 248.7 252.6 257.2 263.8 271.5 278 283.3 287.9 292.1 294.4 295.3 294.6 295.6 297 298.4 299 295.6 299.5
195.7 205.8 213 218.1 221.6 224.4 226.4 227.1 226.8 225.3 222.4 219.2 216.9 219 221.6 223 224.3 225.1 225.6 226.4 226.2 226.4 226.8 227.3 228.9 231.4 234.7 238.3 243.7 249.1 255 260.9 266.1 269.8 271.5 270.6 267.5 263.7 258.9 253.2 247.4 241.3 240.3 245.7 249.7 251.6 253.9 255.9 258.9 261.2 263.7 265.5 266.1 265.7 264.5 262.9 261.2 260.9 260.3 259.7 258.3 256.4 255.1 254.2 253.4 252.4 252 252 252.5 254.3 255.8 256.9 257.3 257.6 257.3 255.3 249.9 250.7 253.4 259.3 265.5 272.3 279.6 287.9 297.1 305.2 309.3 310.4 307.6 301.9 294.4 284.7 272.9 261.3 252.6 247.4 246.2 250.1 258 264.7 271 278.4 285.5 291.4 296.3 299.4 301.9 303.4 305 305.1 303 298.5 290.8 282 275.5 271.2 269.6 269 267.8 269.2 269.6 270.2 270.9 271.4 271.8 272.6 276 278.9 281.3 282.5 280.4 279.1 279.7 281.9 285.5 290.5 295.7 301.2 308.5 314.3 318.3 320.2 320.9 320 318 316.5 315.6 314.4 313.5 313.1 312.7 310.9 308.9 306.2 302.3 296.7 290.6 286.6 286.7 284.6 279.9 273.9 272.1 271.5 272.4 276.5 280.6 282.6 282.8 280.9 276.8 269.7 256.9 244.4 238.9 237.2 237.5 238.9 243.9 247.4 251.9 253.6 251.7 253.7 258.4 263.6 270.4 276.3 281.2 285.7 290 292.4 292.7 292.2 293.5 295.1 296.7 294.2 297.9 298.9
204.1 212.5 217.3 221.3 224.3 226.9 228.5 229.2 228.4 226.3 223.7 220.8 219.1 219.8 221.3 223.2 224.4 225 225.1 225.6 226.1 226.2 226.7 228.5 230.4 233.3 236.5 241.3 246.8 252.2 258.3 263.9 268.4 271.1 271.2 269.4 265.7 261.5 255.8 249.9 244.1 238.8 244.2 248.2 250.6 253 255.5 258.3 262.3 264.8 267.4 268.7 268.9 267.8 265.5 263.5 261.7 260.5 259.8 259 257.2 255.9 255 254.1 253.3 252.7 252.8 253 253.6 254.9 256.4 257.4 258 257.7 256.9 253.4 248.8 250.3 253.4 259.3 265.6 272.8 280.1 288.8 297.5 303.8 307.6 308.4 305.8 300.7 293 283.6 271.6 259.6 250.3 246.4 245.6 250.5 258.4 264 269.6 277.5 285.1 291.2 295.7 298.9 300.8 301.1 302.3 302 300.3 296.4 291.1 283.3 277.4 272.5 270.4 270 269.4 269.7 270.1 270.4 270.8 271.3 271.9 272.8 275.5 278.7 281.7 283.8 283 280.1 279.9 282.1 284.4 288.4 293.3 297.8 303.4 309 313.4 316.5 318.2 318.8 318.8 318.6 318.4 318.8 318.4 318.4 318 317.2 316.2 313.3 309.4 303.5 297.8 293 290.4 286.8 281.9 274.9 270.7 269.2 270 275 279.2 281.4 281.7 279.7 276.1 268.9 256.8 246.5 239.9 237.8 237 240.2 245.3 250.3 255.5 259.5 259.1 257.2 259.5 263.9 268.5 274.3 279.8 285.2 288.4 290.6 288.6 289.9 292.4 293.2 292.2 295.5 296.7 297.6
211.5 215.8 220.3 223.6 226.7 229.2 230.5 230.6 229.7 227.1 224.6 222.9 221.1 222 223.9 225.8 227 227.5 226.6 226.2 225.8 226.1 227.8 229.7 232.2 235.2 239.2 244.9 250.3 255.4 261.3 266.3 269.5 271.6 270.7 268.1 264 258.7 252.7 246.6 240.6 240.5 246.1 248.7 251 253.8 257.2 261.4 265.1 268 270.2 271.5 271.6 269.7 266.8 264.2 262.3 260.7 260 258.9 257 255.8 255.1 254.3 253.5 253.2 253 253 253.7 254.8 256.2 256.9 257.5 257.3 256.2 253.7 248.7 249.7 253.8 259 265.5 272.8 280.3 288.1 295.9 301.9 306.1 306.9 304.8 299.5 291.2 281.6 269.6 257.5 248.5 245.5 245.7 250.6 256.9 262.8 268.3 276 283.9 290.6 295.2 298.5 299.3 300 299.8 298.8 297.5 295.3 290.7 284.4 278.4 273.8 271.2 270.6 270.1 270.5 270.9 271.2 271.5 271.7 272.4 274.6 279.3 282.4 285.4 287.8 287.9 283.9 280.7 281.7 283.6 286.7 290.9 295.1 299.4 304.6 309.4 313.6 316.5 318.4 320.4 321.8 322.5 323.3 323.2 323.4 323.9 324.6 324.3 321.9 316.6 309 302.2 296.4 292 287.3 281.5 274.7 269 267.3 267.2 272.8 278 279.8 280.1 278.1 274.1 266 255.7 248.1 241.2 237.3 236.3 239.3 245.1 250.5 255.9 260.9 262.1 260.5 260.3 263.4 269.6 276.1 281.6 285.5 287.6 288.6 286.7 288.9 290.2 289.2 292.9 294.3 295.7 297.4
215.1 219 222.8 226 228.6 230.5 231.6 231.7 230.6 228.4 225.8 224.2 223.2 224.5 226.4 228.3 229.7 229.8 229.1 227.5 226.7 226.8 228.8 231.5 234.6 238.2 243.5 249.2 254.2 258.8 264.5 268.1 270.9 271.7 270.3 267 262 255.5 249 243 238.5 241.6 245.3 247.3 250.6 254.4 258.5 262.8 266 269 271.8 273 273.2 271.5 268.7 265.1 262.8 261 260.2 258.9 257.8 257 255.3 254.5 253.9 253.7 253.5 253.7 254.1 254.7 255.7 256.6 257.6 256.9 254.5 251.6 247.9 249.6 253.3 258.2 264.4 271.6 279.2 286.7 294.1 300.4 304.2 305.3 303.9 297.9 288.8 278.8 267 256 247.2 245 248.4 251.2 256 261.8 267.3 275.5 284 290.6 295.6 298.4 299.1 298.3 296.9 296.1 295.2 293.5 290.5 285.5 281.5 276.8 273 271.1 270.9 271.3 271.5 271.8 272.1 272.7 274.7 278.9 283.4 287.7 290.8 292.5 291.8 287.5 282.9 282.3 283.4 285 288.8 292.5 296.6 301.3 306.1 310.5 314.5 318.3 321.6 323.9 326 327.6 328.6 329.3 330.5 332 333.1 330.1 321.9 311.5 304 297.4 292 287.4 280.4 273 267.5 264.7 265.6 271.7 275.7 277.5 277.8 276.2 272 263.8 255.3 247.9 241.6 237.2 236.9 237.2 244.2 249.7 255 259.4 261.2 260.7 261 265.5 272 277.2 281.5 284.5 286.2 286.8 285.1 288.1 285.6 290.5 292.3 294.3 296.5 298.2
217.2 220.6 224.4 227.2 229.3 230.8 231.6 231.9 231.3 229.2 227.4 225.9 225.3 226.6 228.7 230.7 232 232.2 231.6 230.4 228.5 228.1 230.9 233.9 237 241.5 248 253.1 258.1 262.6 266.7 270.1 272.1 272 269.6 265.9 260.1 252.8 245.9 240.3 236.3 239.5 243 246.2 249.9 254 258.5 262.8 266.2 269.2 272.1 274 274.5 272.9 270.3 266.7 263.6 261.5 260.2 259.7 259.4 258.5 256.8 254.9 254.4 254.2 254.1 254.4 254.8 255.5 256.2 256.8 257.8 256.9 253.6 250 247.3 249.2 252.2 257.2 263.1 269.8 277.3 284.7 292.8 299.3 302.6 302.9 301.3 293.9 286.1 275.5 263.8 252.3 246.1 244.8 249.8 252.1 256.4 261.5 267.7 276.1 283.9 290.8 295.3 297.8 297.9 296.6 294.3 293.4 292.6 291.3 289.6 286.7 283.8 280 275.7 272.1 271.6 271.9 272.1 272.4 273.3 275.7 280 284.2 288.8 293 295.6 296.4 294.5 289.8 285.4 283.1 283.5 284.6 287 289.7 293.8 298.4 303.1 307.8 313.1 317.8 321.8 325.7 328.5 331.5 333.4 335.2 337.1 339.6 340.1 335.4 324.4 311.3 303.3 297.1 291.8 286 278.1 271.2 266.1 262.8 264.2 269.4 273 275.1 274.9 274.3 270.2 263.1 254.3 246.5 241.1 237.6 235.9 236.3 242.4 248 252.3 256 257.6 258 259.9 266 271.4 275.6 279.3 282.3 284.1 283.6 283.6 281.8 287.7 290.2 292.4 295 297.5 299.5
219 222 224.9 227.3 228.5 230 231.1 231.4 231.1 230.2 228.7 227.2 226.8 228.3 230.3 232.1 233.5 234.2 234.1 233.3 230.9 230.6 233.4 236.5 240.1 246.2 253.4 257.3 261.3 264.8 268 270.5 272.6 271.5 269.3 265 259.5 251.5 244.3 238.5 235.1 237.1 241.5 245.7 249.8 253.7 258.2 261.7 264.9 268.5 271.1 273.2 274.3 273 271.1 267.9 264.3 262.2 261 260.6 260.2 259.6 258.7 256.9 254.9 254.7 254.8 255.1 255.5 256.9 259.2 259.6 259.2 257.8 256 251.8 248.1 248.7 250.8 255.3 260.8 267.5 274.9 282.8 291 296.9 298.9 298.6 294.9 289 282.5 273.3 260 249.6 245.3 244.5 249.3 253 257.1 261.5 268.3 275.9 283.4 290 294.3 296.4 296.4 294.8 292 291.1 290 289 287.9 286.5 284.5 282.3 278.1 274.2 272.5 272.6 272.8 274.2 277.2 281.3 285.5 289.7 293.2 295.9 297.9 298 296.3 291.5 287.3 284.5 284.2 284.3 285.8 288 291.9 296.1 300.7 305.9 311.2 316.6 321.7 326.1 330.3 333.8 336.7 339.7 343.7 344.9 343.9 335.1 322 309.8 301.6 295.6 290.2 284.5 276.7 269.7 265.1 261.5 261.1 266.2 269.6 271.9 272.4 272.1 269 264 255.5 246.4 239.6 237.2 235.8 235.3 240.6 245.5 248.3 251.5 253.1 254.8 258.9 264 268.7 273.1 276.7 279.2 281.1 274.6 280.1 284.2 287 289.5 292.2 295.5 298.2 300.7
219.3 221.8 224.8 226.1 227.3 228.8 229.8 230.2 230.4 229.4 229.1 228.5 227.7 229.5 231.3 233 234.6 235.5 235.9 235.4 233.7 233.3 235.8 239.1 243 249.5 255.8 259.3 262.8 265.7 267.9 270.3 271.8 271.2 268.9 264.7 259.6 252 243.6 236.8 234.1 235.9 240.7 245.1 249.3 253.5 257 260.3 263.6 266.8 269.6 271.9 272.7 272.2 270.7 268 264.7 262.6 261.5 261.1 260.8 260.4 260 258.3 256.6 255.8 255.7 256 256.8 258.8 261.4 262.2 261.4 259.9 258.1 254.7 250.2 248.9 249.4 253.2 258.4 264.6 271.8 280.6 288 291.8 293.3 292.3 288.4 283.3 277.5 269.3 256 247 243.8 245.2 248.4 252.4 257 262.6 268.6 274.8 281.9 288.3 292.5 294.9 294.7 292.4 289.6 288.4 287.5 287.4 286.7 285.8 285 283.2 280.1 276.7 274.9 274.7 276.5 279 282 286.5 290.8 294.2 296.9 298.6 299.5 299.3 297.5 293.8 290 286.9 285 284.7 285.7 286.8 290.6 294.8 299.1 303.9 309.2 314.9 320.5 325.3 330.1 334.4 337.3 340.8 344.8 345.7 340.7 330.2 317.8 307.2 299.5 293.9 288.4 282.7 275.8 269.8 264 260.1 258.8 262.7 265.8 268.1 269.2 269.5 267.7 262.4 253.9 244.2 238.5 237 235.6 235.2 238.1 241.1 242.4 245.2 249.7 254.3 257.8 260 264.3 268.7 272.4 274.7 269.6 274.6 279.3 282.6 285.8 288.8 292.1 295.7 298.9 301.4
220.4 221.8 224 225 226.1 227.1 227.9 229 229.3 229.5 229.2 228.9 228.6 230.3 231.9 233.5 234.9 236.1 236.5 236.4 235.4 235.2 237.9 240.8 245.2 251.3 257.1 260.6 262.9 264.9 267.2 269.1 270.5 270.2 268.3 264.5 259.4 252.7 244.4 236.4 233.4 236.3 241.5 245.8 249 252.2 255.3 258.4 261.5 264.3 267.2 269.3 270.7 270.8 269.7 267.8 265.1 263.2 261.9 261.7 261.4 261.3 261.3 259.9 258.7 258.4 258.4 258.4 259.4 260.9 262.9 263.3 263.1 262 260.2 257.1 252.8 249.3 247.7 250.9 255.7 262.2 268.2 276.2 281.4 283.9 283.6 282.3 279.3 275.9 270.2 262.4 251.4 244.5 242 244.4 247.9 252.5 257.2 262.5 268 274.1 280 286.1 289.3 292.5 292.9 290.7 287.9 286.5 285.9 286.3 286.2 285.7 285 283.5 281.3 279.5 278.6 279.1 281 283.5 287.2 291.1 294.7 296.6 298.6 300.2 300.4 300 298.6 296.1 293.4 290.6 288 286 285.8 287 289.5 293.5 297.9 302.3 307.5 313.2 319 323.9 328.5 332.8 335.9 338.6 340.8 339.2 333.4 324.8 314.6 305.4 297.5 291.4 285.9 280.6 275.8 269.8 263.9 259.1 256.4 257.7 260.6 262.9 265.2 266.1 264.4 258.5 250.4 242.3 238.6 236.8 235.8 235 235 237.5 240 243.8 249.6 254.2 256.5 256.7 258.8 262.8 262.5 265.4 268.9 274.5 277.9 281.1 284.3 287.7 291.6 295.6 299.5 302.1
221.5 222.2 222.3 223.1 223.4 224.6 225.4 227.4 228 228.9 228.9 228.8 228.8 229.8 231.4 232.9 234.4 235.6 236.1 236.4 235.8 235.7 238.8 241.6 245.7 251.5 256.9 259.8 261.9 263.9 265.5 267 268.4 268.7 267 263.5 258.4 252.3 244.2 235.9 233.1 236.2 241.4 245.2 247.6 249.9 252.9 255.9 258.8 261.5 264.1 266.6 268.2 269 268.7 267.2 265.1 263.1 262.3 262.2 262.9 263.1 263.3 262.2 260.9 260.9 261.1 260.6 261.5 262.2 263.5 263.9 264.1 263.7 261.9 258.7 255 250.2 246.4 247.3 252.3 259.3 265.7 271.2 274.6 275.7 275.3 273.5 270.9 267.2 261.8 255.4 247 242.8 241.3 243.6 248 253 257.8 262.4 267.4 273.2 278.6 283.8 287.3 290.9 291.3 289 286.4 285.1 285 285.8 286 285.5 285 283.6 282.8 281.7 282.2 283 284.8 287.3 290.8 294.3 296.6 298.5 300.2 300.7 301 300.6 299.9 298.6 296.7 294.3 291.7 288.6 287.3 287.5 289.7 292.5 296.8 301.2 306.1 311.8 317 321.3 326 328.9 332 333.5 334 332.3 327.4 320.2 311.5 302.9 295.5 289.1 283.9 279.4 274.7 270.2 264.3 258.6 254.6 253.1 254.1 255.8 259 261.5 259.8 255.3 249.2 243.1 239.5 237.1 236.1 235.2 234.5 235.5 238.4 243.1 248.6 252.7 253.4 253 252.5 256.9 257.9 260.4 266.6 272.2 276 279.4 282.9 286.9 291.4 295.4 299.5 302.2
220.5 220.1 220.3 220.5 220.5 221.7 223.1 225.2 226.7 227.7 229 229.2 229 229.2 230.8 232.3 233.5 234.4 235 235 234.7 235.3 238.6 241.7 246.5 251.5 256 258.8 260.2 261.7 263.1 264.6 265.9 266.4 265.3 262.1 257.2 251.1 244 235.3 232.7 235.8 240.7 243.4 245.4 247.6 250.4 253.1 255.6 258.1 260.7 263.2 266 267.1 267.8 266.8 264.4 263 262.7 262.9 264.1 264.8 264.6 263.6 262.7 263 263.3 263.1 262.8 263.2 263.8 264.3 264.4 263.8 262.4 259.9 256.1 251.8 244.6 243.7 248.8 256.1 262.3 266.8 268.9 268.9 267.4 265.5 262.7 258.7 254.2 248.7 242.9 241.4 240.4 244.2 249.6 254.2 258.4 262.9 267.5 271.9 277.1 282.1 285.7 289.3 289.5 288.2 285.9 284.3 284.1 284.7 284.7 284.6 284.2 284 283.5 283.7 284.7 286.2 288.1 290.7 293.4 295.8 297.8 299.6 300.5 300.8 300.9 300.9 300.5 299.5 298.4 295.9 293.2 290.4 288.7 288.9 290.4 292.8 296.2 300.6 305.5 310.1 314.8 318.7 322.6 325.1 327.5 329 329.1 326.9 322.8 316 307.9 300.1 293.3 287.3 282.5 278.2 273.8 269.4 265.2 260.2 256 251.9 249.3 248.1 250.8 254.7 253.5 250.2 246.6 242.7 239.5 236.9 235.6 234.9 234.5 234.7 236 240.5 244.8 247.8 248 248.6 249.9 250.8 251.2 258.1 264.7 269.7 273.7 277.5 281.4 286.6 291.1 295.3 299.5 302.3
218.3 217.6 217.3 217.3 217.7 218.8 221.3 223.9 225.9 227.6 229 229.4 229.3 228.7 230.3 231.3 232.2 232.8 232.9 232.9 233 234.4 237.6 240.7 246.1 251.2 255.2 257.1 257.9 258.9 259.9 261.4 262.9 263.7 263 259.8 255.3 249.4 242.9 234.6 232.2 235.1 239.1 241.3 243.2 245.1 247.2 249.7 252.2 254.8 257.3 260.3 263.3 265.2 266.3 266.2 264.3 263.1 263.1 263.6 264.6 265.1 265 264.4 264.1 264 263.8 263.4 263 263 263.1 263.5 263.9 263.4 262.2 259.8 256.2 251.7 245.4 240.7 244.3 252.7 258.5 261.8 263.5 261.5 259.3 256.8 254.5 251.3 247.3 243.1 241 240.2 240.9 246.1 251.9 255.9 259.3 263.3 267.2 270.9 276 280.6 284.5 287.7 288.5 287.8 285.8 284 283.4 282.9 282.8 282.9 283.1 283.2 283.3 284.2 285.1 286.7 289.4 292 294.4 296.5 298.5 299.6 300.1 300.4 300.7 300.8 300.7 300 298.7 296.4 294.4 291.7 289.9 290.2 291.7 293.7 296.9 300.8 304.9 308.9 312.6 316.1 318.8 321.3 322.6 324 323.9 321.8 318.3 311.9 304.5 297.5 291.5 285.6 281.1 277 272.9 269.7 267.1 264.3 260.6 255.6 250.4 245.8 244 245.8 245.8 244.9 243.2 240.5 238 236.3 235.3 234.9 234.6 234.5 234.6 236.4 239.3 239.6 241.1 243 242.6 244.4 250 256.8 262.9 267.5 271.8 275.9 280.9 286.1 290.7 295.1 299.2 302.4
216.3 215 214.3 214.3 215 216.9 220.2 222.8 225.4 227.2 228.9 229.7 229.5 228.7 228.8 229.3 229.9 230.4 230.6 230.7 230.8 232.9 236.4 240.2 245.3 250.3 254 255.5 255.6 255.3 256.5 258 259.3 260.2 259.1 256.4 252.1 246.9 240.2 233.7 231.3 234.4 237.1 238.7 240.4 242.3 244 246.4 248.8 251.4 253.9 257.5 260.4 263.1 264.3 265.1 264.2 262.5 262.4 263 263.7 264.4 264.6 264.2 263.8 263.4 263 262.7 262.2 261.8 262 262.4 262.8 261.9 260.3 258 253.9 249 243.4 239.1 241.6 249.2 254.5 257.1 256.7 252.2 248.8 247 245.1 244.4 242.7 240.9 239.9 239.9 241.3 247.3 253.1 257.4 260.5 263.4 266.7 270.3 274.9 278.9 283.1 285.9 287.2 286.9 285.3 283.5 282.2 281.8 281.3 281.2 281.4 281.6 281.7 283.3 285.4 286.9 289.5 291.9 294.2 296.1 298.1 299.2 299.6 300 300.3 300.5 300.2 299.3 297.9 296.2 294.4 292.5 290.9 291.6 293.2 295.1 297.7 300.7 304.1 307.2 310.3 313.2 315.2 316.6 317.7 318.9 318.8 317.4 313.7 308 301.7 295.3 288.8 284.3 280.5 276.6 274.1 271.5 269.8 267.7 264.2 258.9 253.4 247.7 243.1 241.4 240.4 240.2 239.5 237.8 236.9 236.1 235.2 234.9 234.6 234.4 234.1 234 233.9 233.1 232.4 235.6 238.5 241.4 247.8 255 260.6 265.4 269.8 274.1 280.1 285.4 289.6 294.1 298.2 301.1
214 212.4 211.8 212 213.3 215.7 219.3 222.8 225.2 227.3 228.9 229.4 229.1 228.1 227.1 227.5 227.9 228.2 228.1 228 228.1 231 234.9 239.1 244.3 249.5 252.8 253.8 253 252.4 253.4 254.4 255.5 256.1 255 252.2 248.5 243.4 237.2 231.5 229.5 232.1 234.5 236.1 237.7 239.5 241.2 243.3 245.6 248 251.1 254.7 257.8 260.9 262.4 263.1 262.7 261.3 260.7 261.4 262.3 262.9 262.8 262.4 261.6 262 261.8 261.3 260.8 260.5 260.8 261.2 261.7 260.5 258.9 255 250.2 244.1 239.7 238.3 239.9 244.5 249.1 250.4 245.6 240.5 240.3 240.5 240.5 240.5 240 239.8 240.6 240.7 241.4 246.2 252.4 257.2 260.6 263.4 266.5 269.8 273.5 277.7 281.5 284 285.4 285.3 284.4 282.8 281.3 280.7 280.2 279.6 279.7 279.9 280.4 282.5 284.9 287.2 289.3 291.7 293.8 295.7 297.3 298.4 299.2 299.4 299.7 299.9 299.3 298.3 296.5 294.8 293.1 291.4 291.1 292.8 294.5 296.7 299 301.4 303.3 305.9 308.6 310.1 311.8 312.4 313.4 314.1 313.9 312.3 309.4 304.3 299.3 293.2 287.5 284.1 280.4 277.6 275.1 272.9 271 268.7 265.2 260.1 254.2 248.4 242.8 240.8 239.2 238.3 237.9 236.7 236 236 236.1 235.6 235.1 234.6 234.2 234.5 233.6 236.5 233.4 233.3 234.5 237 243.4 251.7 257.8 262.1 266.1 271.1 277.4 283.5 288.1 292.5 296.5 299.7
211.9 210.5 210 210.6 212.6 215.5 218.9 222.4 225.3 227.4 228.7 229 228.5 226.9 225.1 225.3 225.3 225.1 224.8 225 226.2 229.4 233.5 238.7 243.8 248.6 251.8 252.4 251 249.6 250.4 251.2 251.3 251.6 250.4 247.5 244.3 239.2 234.2 229.6 228.2 229.9 231.6 233.3 235 236.6 238.6 240.5 242.8 245.1 248.6 252.5 255.6 258.6 260.6 260.9 260.9 260 258.5 258.9 259.3 259.8 259.8 259.3 259.7 260.5 260.3 260 259.5 259.4 259.7 260.1 260.5 259.5 257.7 252.9 245.9 240.4 238.2 237.8 238.5 240.6 242.6 240.3 237.7 237.4 237.1 240.9 241.1 240.5 240 239.9 240.2 240.6 241.2 242.3 249.2 255.8 259.7 262.9 265.7 268.7 272.2 276.5 279.8 282.1 283.4 283.8 282.8 281.8 280.5 279.4 278.7 278.1 277.8 278 280.1 282.8 285.7 288.3 290.2 291.7 293.3 295.1 296.4 297.4 298.2 299.1 299.4 299.7 298.2 297.1 295 293.2 291.7 290.3 290.7 292.6 294.7 297.3 299.5 301.4 303.3 304.8 306.2 307.7 308 308.5 308.9 309.1 309.1 307.8 305.4 301.6 297.1 292 287.6 284 280.8 278.3 275.9 273.5 270.5 267.8 264.1 259 253.8 248.4 243 240.4 239.2 238.1 237 236.9 237.3 237.1 237.2 236.7 236.2 236 235.3 234.9 235.8 235.6 233.8 233.3 233.5 233.6 236.6 246.7 254.3 258.5 262.5 268.2 274.8 281 286.1 290.6 294.7 298.7
209.8 208.7 208.8 210.1 212.4 215.4 218.8 222.3 225.4 227.2 228.3 228.2 227.2 224.9 222.7 222.4 222.2 221.9 221.7 222.1 224 227.7 232.8 238.4 243.3 247.4 250.4 251 250.6 248.1 247.7 247.9 248.1 247.7 246.2 243.1 240.1 235.1 230.3 228 227.1 228 229 230.4 232.1 234.3 236.1 238 240.1 243.1 246.7 250.5 254 256.8 258.5 259.1 258.8 257.4 255.4 255.3 256.1 256.6 256.4 256.7 257.7 258.6 258.9 259.3 259 258.7 258.7 259 259.4 258.6 256.7 251.7 244.2 239.5 237.6 237.2 237.3 237.3 237.2 236.4 236.3 241.8 247.3 251.2 249.9 244.2 240.3 240.2 240.7 241.1 242.3 241.2 244 253 257.7 261.3 263.4 266 269.9 274 277.3 279.3 281.2 281.7 281.5 280.6 279.2 277.8 277.2 276.6 276 277.6 280.9 284.1 287 290.6 292.6 293.9 294.3 295.4 296.4 296.8 297.4 298.1 299 299 298.1 296.1 293.9 292 290.4 289.9 290.3 292.2 294.2 296.7 299.4 301.8 303.6 304.3 304.7 304.7 304.3 304.8 304.6 304.6 304.4 303.5 301.5 299 295.6 291.2 287.6 284 281.1 278.5 275.5 273 269.3 265.8 261.2 256.5 251.5 246.4 242.8 240 238.9 237.9 237.3 237.8 238.3 238.9 239.4 238 237.4 236.9 236.1 237.1 238.3 239.4 238 234.1 233.4 232.1 232.9 237.8 247.9 253.9 259.7 265.3 272.1 278.5 284 288.8 292.9 297.1
208.1 208 208.1 209.7 212.1 215.2 219.4 222.8 225.5 226.7 227.2 227.1 225.6 223.3 220.9 219.9 219.6 219.3 219.2 219.9 222.2 226.6 231.8 237.5 242 245.9 248.7 249.7 249.5 247.8 246 245.8 244.9 243.9 242.4 239.4 235.8 231.4 227.6 226.4 225.8 226.8 228 229.5 230.9 233.1 235.1 236.7 238.7 241.5 244.8 248.5 252 255.3 256.4 256.3 255.7 253.4 251.4 252 252.8 253.4 253.3 254.6 256.4 258.1 259.4 259.8 259.4 258.2 258 258.3 258.3 257.4 255.7 251.6 244.1 238.6 237.5 236.9 236.6 236.3 234.3 239 244.3 250.1 254.5 255.7 253.1 247.2 242.2 242.7 244.5 245.8 248 245.3 242.1 247.8 254.8 258.5 261.3 263.7 267 270.7 273.6 276.5 278.7 279.4 279.4 279.1 277.8 276.4 275.8 275.2 274.9 278.5 281.7 284.9 288.9 292.6 294.9 296.5 297.4 297.9 298 298.2 298.6 299.1 299.9 300.2 298.4 296.3 294.1 292 290 289.2 289.5 291.5 293.8 296.2 299.1 301.9 304 304.8 303.8 302.3 300.9 300.6 300.2 300 299.7 299.1 298.2 296.3 293.4 291 287.6 284.5 281.5 278.5 275.2 271.2 267.3 261.8 257.2 252.2 246 241.9 241.2 239.6 238.1 237.7 238.5 239.1 241 243 243.2 241.1 238.3 237.5 240 239.3 241.8 243.4 243.7 241.5 238.3 233.6 233.7 233.3 236.4 247.6 255.7 262.2 269.1 276 281.9 286.8 291.6 296.1
206.8 207.2 207.6 208.9 211.4 214.6 219.1 222.7 224.9 226.2 226.1 225.9 224.3 221.7 219.2 217.8 217 216.9 217 218.2 220.7 225.2 230.9 235.8 240.1 243.8 246.9 248.2 248.1 247.7 246.4 245 243.1 241.4 239.3 236 232 228.3 225.6 225.3 225.3 226.4 227.8 229.9 231.7 233.3 235.5 236.4 237.9 240.2 243.1 246.6 250.2 253.5 254.5 253.9 251.6 249.3 248.4 248.9 249.6 250.1 251.4 253.9 256.7 259.3 261.5 261.5 260.7 258.9 257.3 257.2 257 256 254.4 250.8 243.9 238 237 236.6 236.2 235.9 238.7 243.9 249.7 254.2 256.7 256.7 254.3 249.6 247.3 249.2 252.5 253.4 254 252.5 244.2 244.3 250.5 254.7 258.2 261.2 264.5 267.8 271 273.9 276.2 277.1 277.2 276.9 276 274.9 274.3 273.8 274.7 278.7 282.5 286.3 290.8 294.6 297.3 298.9 299.6 299.7 299.7 299.8 300.1 300.9 301.9 301.8 300.5 298.6 295.5 292.2 289.7 289.2 288.7 290.7 293 295.9 299 302.3 304.5 305.1 304 301.8 299.2 296.5 295.9 295.3 295 294.5 294 293.3 292.2 290.3 287.7 284.9 281.6 277.9 273.5 268.9 263 254.6 250.3 246.1 242.8 241.5 240 238.7 238.6 239.1 240.6 244.1 245.7 248.5 247.6 244.7 240 242.4 239.1 242.2 244.3 246.1 248.2 250.9 250.1 245 242.5 236.9 232 242.5 252.8 259.5 267.2 274.2 280.3 285.7 290.6 295.6
206.1 206.6 207 208.1 210.7 214.6 218.2 221.4 223.6 225.2 225.2 224.7 222.9 220.3 217.6 215.9 215.7 215.4 215.6 216.7 219.5 224.4 230 234 238.1 241.8 245 246.6 247.6 247.2 246.8 245.9 244.7 242.3 239.6 236 230.7 226.8 224.8 224.6 225.6 228.8 231 233.2 234.4 235.7 235.8 236.5 237.1 239.1 242.1 245.8 249 251.8 252.1 250.8 248.2 246.2 245.7 246 246.8 248.3 251.9 255.4 258.4 261.3 263.2 263.6 262.2 260.3 257.3 255.2 254.9 254.2 252.5 249.8 243 237.8 236.5 236 235.1 237.5 242.1 248.2 252.8 255.8 257.1 256.3 253.5 251.1 251.5 253.9 256.5 258.4 258.5 256.5 250 243.4 244.7 249 253.5 257.8 261.6 265.1 268.4 271.1 273.5 274.4 274.5 274.1 273.6 273.3 272.6 272.8 274.7 278.9 283 287.7 292.6 296.3 299 300.4 300.9 301.9 301.6 301.8 302.1 302.9 303.7 303.5 302.5 300.1 296.7 293.1 289.7 287.8 287.8 289.6 292.7 296.1 299.4 302.9 304.8 305.4 304.2 301.7 298.2 294.6 292.1 291.1 290.6 290.3 290 290.2 289.7 288.8 286.7 283.9 280.5 276.6 271.4 265.5 257.5 250.2 245.8 243.6 242.5 241.9 240.6 240.1 240.1 240.7 243.9 248.7 250.4 251.6 250.7 245.7 243.5 240.2 241.6 244.8 246.7 248.9 254.5 260.1 262.5 256 249.5 236.1 231 239.9 250.2 257.7 265.3 272.3 278.8 284 289.1 294.3
204.8 205.4 206.1 207.4 210.5 214.4 217.7 220.4 222.5 223.8 224.2 223.1 221.2 219.2 216.5 214.3 214.2 214.2 214.7 215.9 219.2 223.7 228.2 232.2 236.3 239.9 243 245.1 246.1 247.1 247.1 246.8 245.7 243.6 240.9 237.3 232 226.4 222.7 224.5 228.3 231.9 234.1 236 237.1 237.4 236.8 236.6 236.9 238.5 241.1 244.9 247.7 249.9 250 247.9 245.4 243.9 243.9 244.4 245.3 247.7 251.3 255.2 259.3 262.7 265 265.3 263.4 260.6 257.1 254.2 252.4 251.4 250.2 247.9 242.2 236.7 236.2 235.7 236.6 240.2 244.8 250.7 254.2 256.3 256.4 254.6 251.7 249.9 251.7 255 257.8 260.1 261 260.5 256.4 248.4 243.6 244.8 247.9 253.5 258.8 262.5 265.9 268.3 270.8 271.7 271.8 272.2 272.2 272.6 272.1 272.3 274.8 279 283.3 288.3 293.2 297.4 299.8 300.9 301.9 303.6 304 304.1 304.2 305 305.8 305.4 303.7 301.2 297.5 293.1 288.6 286.8 287 288.7 292.4 296.2 299.6 302.6 305 305.6 304.6 301.9 297.7 293.5 289.8 287.3 286.8 286.3 286.4 286.8 287 286.2 284.6 282 278.4 274.5 268.9 260.8 251.8 246.7 244.1 243.8 243.3 242.8 241.8 241.3 241.4 242.4 246.2 251.1 252.8 253.2 246.2 247.2 242.8 241.8 242.3 246 249.2 253.7 262.6 269.1 270.2 263.7 252.6 232.4 229.6 237.3 248.5 256.6 262.7 269.9 276.9 282.2 287.2 292.2
204.5 205.2 206.1 207.6 210.5 214 216.8 219.3 221 222.2 222.2 220.6 219.3 217.3 215.2 213.3 213.4 213.5 214.6 216.5 219.3 223.3 226.6 230.6 234.2 237.5 240.5 242.9 244.6 246 246.7 246.3 245.2 243.8 241 237.7 233.2 226.6 222.7 225.8 230.3 233.7 236.1 237.5 238.6 238.6 237.6 236.7 237 237.9 240.4 244 246.8 248 247.9 245.9 243.8 242.4 242.7 243.2 244.3 247.4 250.7 255.1 259.5 263.4 266.1 266.5 264.8 261.3 256.9 253 249.5 248.1 247.3 244.8 240.5 236.4 235.9 235.5 237.5 242.6 247.1 252 254.7 255.8 254.9 252 249.4 249.1 250.1 253.2 256.7 259.7 261.7 262.3 260.6 255.8 248.5 244 244.6 249.5 255.5 259.8 263.4 266.1 268.9 270.9 272.4 273 273.9 273.4 272.8 272 274.5 278.5 283.2 288.4 292.9 297.1 300.2 301.9 303.7 305.4 306.4 306.4 306.5 306.9 307.5 306.4 304.6 301.7 297.4 292.5 287.6 285.2 284.9 287.7 291.8 295.7 299.6 302.2 304.8 305.2 304.9 302.1 298.1 293 288.3 284.6 282.6 281.8 281.9 282.6 283.7 283.4 281.9 279.5 276.1 271.2 264.2 255.5 248.1 245.2 244.2 244.5 245.9 245.5 243.1 242.5 243.7 244.8 247.3 251.5 252.8 248.3 251.2 246.5 243.4 243.4 244.1 247.3 252.2 259.1 269.5 274.6 274.9 268.8 255.6 231.7 229.6 236.1 245.6 253.1 259.7 267.1 274.4 280.1 285.1 291.1
205.1 206 206.8 207.1 209.7 212.6 215.2 217 218.9 219.4 219.6 217.7 216.3 215.2 213.4 212.6 212.9 213.7 215 216.9 219.5 222.7 225.8 228.4 231.8 235.1 237.9 240.5 242.2 244.2 245.6 245.2 244.4 242.8 240.4 237.2 232.4 225.9 223.1 226.9 231.6 234.9 236.7 238.1 239.1 238.9 237.9 236.8 237.3 238.1 239.8 243.1 245.9 247.3 246.9 245.1 242.8 241.6 241.9 242.4 244 247.1 250.4 254.9 259 262.6 266.3 267.7 266.3 262.6 257.5 252.4 248.4 244.2 242.9 240.7 237.1 236.2 235.8 235.4 238.8 244.4 248.8 252.2 254.2 254.7 253.1 249.3 248.3 248.5 249.1 251.1 254.8 258.2 260.6 262.5 263 261.6 257.2 250.6 245.7 245.7 251 256.5 261.6 265.2 268 271.2 273.6 274.9 274.8 274.3 273.4 272.5 273.8 278 282.5 287.5 292.1 296.5 299.4 302.4 304.9 306.7 307.9 308.2 308.4 308.6 307.6 306.4 304.7 301.2 296.1 290.4 285.8 283.5 283.5 286.6 290.4 294.6 298.2 301.6 303.8 305.3 304.7 302.2 298 292.9 287.5 282.9 279.5 278 278.2 279.2 280.2 280.2 278.7 276.6 273.2 267.8 259.5 251.8 246.6 245.4 246.9 248.9 250.5 247.8 244.5 244 244.7 245.7 246.7 251.7 251.1 251.7 249.7 246.3 244.5 245.3 246.9 249.6 256.2 264.1 272.6 276.9 277.1 271.3 257.5 239.7 228.8 233.8 242.2 249 255.7 263.2 271.4 278 283.6 290.3
206.2 206.8 206.9 207 208.4 211 213 214.8 216.2 216.8 216.2 214.7 213.2 212.6 212.4 212.2 212.9 213.7 215 216.4 218.4 221.5 224 226.2 229.5 232.4 235.4 238.6 241 242.9 244.1 243.9 242.8 241.1 238.8 235.7 230.7 224.1 223.5 227.9 232.5 235.1 236.9 238.2 239 239.1 238.1 236.8 237.2 237.4 239 242.3 245 246.1 245.9 244.3 241.9 241 241 241.7 243.8 245.8 249.9 253.9 257.8 261.7 265.7 267.9 267.5 263.2 257.4 251.5 246.4 241.3 238.1 236.8 236.2 235.9 235.5 235.1 239.9 245.5 249.6 252.2 253.4 252.9 250.6 247.7 247.7 247.9 248.4 250 253.3 256.7 259.3 261.7 263.3 263.3 261.8 258.1 252.4 245 248.4 254.4 260 263.8 267.1 270.5 273.5 275.1 275.1 274.8 273.6 272.4 272.5 276.7 281 285.9 290.6 295.3 299 302.3 304.9 307.2 308.3 309 308.9 308.2 307.1 305.6 303.2 299.3 294 287.9 283.9 281.5 282.1 285.7 289.6 293.3 296.9 300.2 302.6 304 303.7 301.2 297.1 292.2 286.4 281.4 277.2 274.6 274.6 275.4 276.3 276.5 275.3 273.1 269.7 263.6 254.3 248.3 246.7 248.8 253 254.9 254.4 251.2 246.8 246.1 246.5 251.8 253.8 248.3 250 250.5 249 247.3 246.6 247.7 249.8 253.9 259.6 267.3 274.3 278.4 278.4 272.9 257.9 242 228.2 231.1 237.9 244.8 251.1 259.2 266.6 274.9 282.2 289.2
206.9 206.6 206.2 205.9 206 208.6 210.3 212 213.4 213.4 212.7 211.1 211 211.9 212.3 212.4 212.8 213.9 215.2 216.5 217.9 219.8 222 224.3 227.2 230.2 233.7 236.8 239.4 241.4 242.4 242.2 241.1 239.5 236.9 233.6 227.3 222.7 223.9 229.1 232.9 234.9 236.6 237.8 238.1 238.2 237.4 236.1 236.4 236.9 238.2 241.2 243.9 245 244.9 243.3 241.3 240.7 240.1 241.3 243.4 245.1 248.5 252.4 256.2 259.8 263.4 266.3 267.4 264.1 259 251.4 244.5 239 236.3 235.6 235.6 235.6 235.2 235.1 239.8 246.3 250.2 252.7 253.2 251.9 248 246.8 247 247.5 248.8 250.6 254.9 259.2 261.8 263.5 264.2 264.1 262.1 259.4 254.8 245.2 247.2 252.7 258.3 262.2 266 269.5 272.3 274.3 274.5 274.3 273.5 272.3 271.7 275.1 279.4 284.2 289 293.7 297.9 301.5 304.4 306.7 308 308.5 308.3 307.7 306.3 304.4 301.4 297.1 291.2 285.6 282.2 279.7 280.9 284.1 287.4 290.9 294.4 297.8 300.4 302.1 301.8 299.6 295.7 290.9 285.6 279.9 275.6 271.6 270.9 271.7 272 272.3 271.4 269.5 264.9 257.2 250 248.7 253.5 256.5 260 260.5 257.9 255.4 251.3 249.8 256.1 256.2 248.8 249.3 250.2 251.6 251.3 250.1 249.9 251.1 253.9 258.5 263.1 269.9 275.2 278.9 278.7 272.8 259.1 244.7 229.6 228.9 234.1 240.3 246.5 254.2 261.9 271 279.4 286.5
205.6 205.5 205.1 204.6 204.6 206 207.6 209.1 210.1 210.6 210.1 209.6 211.1 212.8 213.6 213.4 213.2 213.9 215.2 216.5 217.5 218.4 220.2 222.9 225.9 228.9 232 235 237.8 239.4 240.4 240.2 239.3 237.8 235.3 231 224.3 222.1 225.2 229.7 232.8 234.8 235.9 236.8 237 237.2 236.6 235.2 235.5 236.2 237.6 240.1 242.8 244 243.8 241.8 240.7 239.9 239.6 240.8 242.4 244.3 247.6 250.9 254.2 257.9 261 263.7 264.8 263 258.6 252 244.1 237.5 235.5 235.1 235.1 235.2 235.4 236.3 240.2 245.6 249.7 252.4 252.8 251 247 246.1 246.4 247.5 248.9 252.3 257.9 262.2 265 266.7 266 264.1 261.1 257.7 254.1 246.1 246.4 251.9 256.7 260.9 264.6 268.3 271.4 273.5 274 273.8 273.3 272.1 270.5 273.1 277.6 282.2 287 291.8 295.9 299.7 302.8 305.5 307 307.1 306.7 306 304.4 301.8 298.4 293.6 288.6 283.5 280.2 278.1 278.2 281.5 285 288.5 292 295.3 298 299.4 299.4 297.2 294 289.6 284.6 278.8 274.1 270 267 267.4 267.3 267.3 266.7 264.5 257.9 251.8 250.9 254.3 259.6 263.1 265.2 265 262.7 259.5 254.4 259.1 254.2 251.7 251.3 251.5 252.4 253.5 255.2 254.9 254.6 256.6 260.1 262.9 266.9 271.2 275.8 278.2 277.7 272.4 262.5 251.2 235.1 228.4 231.9 235.9 242.1 249.5 257.7 267.1 276.2 284.1
204.4 204.2 203.9 203.5 203.1 204.2 205.4 206.8 207.3 208 209 211.8 213.5 213.8 214.9 214.4 213.5 213.9 215.2 216 216.8 217.8 219.8 222.3 225.2 228.2 231.2 233.7 236 237.4 238.2 238.2 237.3 236.2 233.5 228.2 222.1 221.8 227.3 231 232.9 234.3 234.9 235.6 235.8 235.6 235.1 234.3 234.7 235.4 237 239.4 241.8 242.9 242.3 241 240.1 239.1 239.1 240 241.4 244 246.7 249.7 252.7 255.7 258.2 260.4 262.2 261.6 258 252.7 244.4 236.7 235.3 233.8 233.5 238.5 239.2 237.9 240 244.6 248.5 251.1 251.8 249.8 246 245.7 246.5 247.6 249.7 254.7 260.3 264.2 266.6 267.7 267 265 260.9 255.8 251.2 246.4 246 250.2 255 259.5 263.2 266.9 270.5 272.9 273.3 273.3 273.1 271.8 269.8 271.5 276 280.6 285 289.8 294 297.4 300.7 303.4 304.6 305.2 305 303.5 301.8 298.5 295.1 290.1 285.7 281.5 278.2 276.2 276.2 279 282.6 286.1 289.6 292.8 294.8 296.3 296.4 294.8 292.5 288.5 283.4 277.8 272.7 268.5 265.3 263.8 263.3 263 262.4 258.6 253.6 251.6 254.6 259.5 263.7 267.7 269.7 269.4 266.6 263.3 260.9 256.3 255.1 255.5 254.9 254.6 255.7 257.8 260 260.2 259.8 261.7 264.8 267.2 269.9 272.8 275.3 277.2 277 273.4 264.1 252.6 234 227.6 229.3 232.3 238.3 246.1 253.8 263.2 272.6 281.2
202.9 202.5 202.2 202.3 202.9 203.8 204.5 205.2 206.3 208 211.4 214.3 215.8 216.6 216.2 214.9 213.9 214 214.8 215.7 216.6 217.5 219.5 222.4 225.2 228.2 231.1 233.6 235 235.8 236.2 236.2 235.4 234.3 231.6 226.2 221 223 228.2 230.7 232.3 233.3 233.8 234.3 233.9 233.6 233.1 233 233.7 235 236.7 238.8 240.9 241.8 241.3 240.3 239.4 238.7 238.4 239.7 240.8 242.8 245 247.3 250.3 253 255.2 257.4 259.4 259.5 257.7 253 244.6 236.3 235.1 236 239.8 244.4 245.1 241.5 239.7 243.1 247 249.5 250.3 248.2 245.2 245.3 246.6 248.1 250.9 256 261.7 265.1 267.1 267.8 267.6 265 261 254.9 249 246.3 245.8 248.6 253.1 257.5 262.4 266 269.4 272.1 273.1 273 272.4 270.7 268.6 270.6 274.9 278.6 282.5 287 290.8 294.2 297.3 299.8 301.2 302.3 302.1 300.9 299.1 295.7 292 287.7 283.4 279.5 276.3 274.5 274.4 276.6 279.9 283.5 287 289.8 291.7 293 293.5 292.5 290.7 287.5 282.3 277 272.1 267.7 264.4 262.4 260.5 260 258.4 255.5 253.5 253.6 257.3 262 266.6 270.9 273.1 273.1 265.4 263.3 266 263 261.5 260.3 261.3 261.7 262.6 265 266.8 266.5 265.8 266.1 268 269 270.5 272.2 274.2 275.6 275.5 273.6 265.4 255.2 241.1 226.2 227.7 230.9 236 243.8 251 259.4 269 277.8
201.6 201.7 201.8 202.1 202.9 204.2 205.4 206.6 207.2 209.3 212.6 214.6 216.5 216.8 216.8 215.8 215 214.4 214.9 215.4 216.3 217.2 219.2 222.4 225.3 228.1 231.1 233.4 234.4 234.4 234.4 234.1 233.4 232.3 229.7 224.3 220.6 223.7 228 230.1 231.2 231.8 231.9 231.9 231.8 231.6 231.5 232.6 234.3 235.7 237.4 238.2 240.2 240.9 240.5 239.6 239 238.4 238 239.1 240.1 241.6 243.7 245.4 247.9 250.2 252.1 254.3 256.5 257.5 256.9 253.2 245.2 236.2 234.8 236.4 242.4 247.1 247.6 245.3 241.8 241.8 245.2 247.8 248.5 246.5 244.5 245.4 246.8 249.4 253.8 258.5 262.8 266 267.5 268.3 267.9 265.3 262.2 256.8 250.2 247 245.9 246.8 250.8 255.3 260.3 265.2 268.7 271.3 272.7 272.6 271.3 269.8 267.7 268.6 272.3 276.1 280 283.5 287.2 290.8 293.5 295.9 297.8 299.1 299 298.3 296.4 293.2 289.7 285.3 281.1 277.5 274.7 272.5 272.7 274.6 277.3 280.8 284.2 286.7 288.5 289.7 290.4 290 288.3 286.4 282 277 272 267.2 263.8 261.9 260.1 258.2 256.7 255.6 254.9 255 258.1 263.3 268.2 272.8 274.8 268.3 265.5 272.6 270.8 268.9 267.7 267.9 268.6 269.2 270.2 272.1 273.4 272.6 271.1 269.5 269.5 269.8 270.1 270.8 272.2 273.6 273.2 270.9 264.9 256.7 248.6 240 225 229 233.8 241 248.2 255.7 265.4 274.5
200.7 201.4 201.6 202.3 203.2 204.9 207.5 208.9 209.7 210.9 212.6 214.5 216.6 217.2 217.6 217.2 216.4 215.6 215 215.7 216.3 216.9 219.1 222.4 225.5 228.3 231.1 232.9 233.1 233.3 233.1 232.1 231.3 230.2 227.4 221.5 219.7 223.6 227 228.6 229.4 229.8 229.6 229.3 229.4 230.1 231.4 233.4 235.7 238.2 238.3 238.6 239.7 239.8 239.3 238.6 237.9 237.2 237.6 238.5 239.5 240.5 242.4 243.9 245.9 247.5 249 251.3 253.5 255.3 255.7 253.5 246 236.5 234.9 237.9 243.9 249 249 247 244.2 242 243.3 245.9 245.9 244.3 244.2 245.5 248.1 253.1 257.7 261.8 264.7 266.9 268.5 268.8 268.2 266.1 263.3 259.7 253.2 247.8 246.3 246.1 247.8 253.2 258.4 263.5 267.3 270.6 271.6 271.4 270.5 268.9 267.2 266.6 269.7 273.3 276.9 280.2 283.7 286.9 289.7 292 294.3 295.7 296 295.7 294.2 290.9 287.3 283 279.1 275.5 273 270.5 271 272.6 274.9 277.6 281.3 283.7 285.3 286.5 287.3 287.3 286.5 284.9 282.9 277.9 272.5 267.2 264.3 262.6 261.1 259 257.2 256.7 257.8 257.3 258.8 264.6 269.3 273.4 271.2 266.1 278.2 277.3 275.2 273.6 273.4 274.2 275.7 276.6 277.4 278.1 278.1 276.9 274.3 271.5 269.8 269 268.5 268.3 269.2 269.9 270 268.1 261.5 255.9 252.6 248.2 234.6 226.4 230.9 237.9 245.1 252.4 262.1 270.6
200.2 200.8 201.1 202.3 203.6 206 208.9 211.3 212.3 212.4 212.8 214.6 216.6 217.7 218.4 218.4 218.1 217.3 215.7 215.8 216 217 219 222.2 225.6 228.4 230.9 232.2 232.3 232.4 231.3 230.3 229 227.1 223.9 218.6 219.1 223.6 225.5 226.9 226.8 227.1 227.9 227.8 228.3 229.9 232.6 234.8 237.8 241 241.3 240.5 239.3 238.4 237.6 236.9 236.3 236.8 237.4 238.3 239.3 240.2 241.3 242.4 243.6 244.5 245.2 247.5 249.9 252.5 254.4 253.8 247.3 236.1 234.5 239.5 246.5 250.1 250.4 248.6 245.2 242.8 241.9 242.7 243.1 243.4 244.1 246.3 250.7 255.9 261 263.9 266.5 268.3 269.5 269.8 269.1 267.5 265.4 263.5 259.4 253.5 248.4 246.6 246.8 251.2 255.5 260.1 263.8 266.8 268.6 269.1 268.8 267.8 266.4 265 266.6 270 273.5 276.9 280.2 283.2 286 288.8 291 292.7 293.8 293.5 292.1 289.4 285.8 281.1 277 273.5 270.7 269 269 270.4 272.6 274.8 277.1 279.8 281.9 283.2 283.8 284 285 283.8 282 278.8 273.1 267.8 265.9 266.3 265.2 262.6 261.8 262.6 262.5 261.5 259.4 266.3 270 274.1 266.6 278.4 279.7 279.6 279.3 278.7 278.7 279.1 280.4 282.2 282.3 282.2 281.6 279.6 276.2 271.4 268.6 267.2 266.2 265.1 265.3 265.8 265.1 261.9 255.5 252.8 252.2 250 239.2 224.9 228.2 233.9 242.1 249.3 258.8 266.6
199.8 200 200.6 202.1 204.4 207.7 210.9 213.5 214.5 214.3 214.5 215 216.6 218.5 219.2 219.3 219.6 219.3 217.7 216.6 216.7 217.4 219.4 222.2 225.5 228.4 230.5 231.4 231.5 230.6 229.5 228.4 226.3 223.8 219.8 216.9 218.6 222.4 224.3 224.8 224.8 224.8 226.1 228.6 230.3 232.1 234.4 237.4 240.9 243.2 243.3 242.1 239.6 237.5 236 235.5 236.6 237.3 238 238.9 239.8 240.2 240.7 240.9 241.2 241.5 241.5 243.3 245.5 248 251.3 251.5 245.5 235.1 234.7 241.1 248.5 251.6 251.4 248.8 245.9 243.5 242.6 242.5 242.8 243.8 244.9 247.8 252.8 258.3 262.8 265.8 267.9 269.7 270.4 271.1 270.6 269.9 268.9 267.9 265.7 260.9 254.5 250.7 247.3 248.9 252.3 256.3 260.1 262.8 264.7 266.5 266.6 265.9 264.6 263.5 263.5 266.7 270.1 273.4 276.7 279.6 282.4 285.3 288.2 290.2 292 291.7 291 288.3 284.8 280 275.4 272 269.4 267.8 268 269 270.5 272.5 274.2 276.2 278.3 279.7 280.4 281.3 282.4 282.6 281.2 278.7 273.7 269.3 269.6 271 271 271.3 270.7 269.3 268 265.5 265 259.1 271.2 267.7 275.4 279.5 280.9 281.7 282.5 283 283.1 283.8 284.9 285.1 285 284.6 283.1 280.9 276.2 270.9 266.6 264.6 262.7 261.6 261.1 260.7 259 255.5 251.8 249.7 249.8 249.5 243.2 229 225.6 230.4 238.4 246.8 254.4 261
199.3 199.8 201 202.8 205.8 209.3 212.9 215.4 217 217.3 217.1 216.7 217.5 219.2 220.8 221.8 222 221.8 220 218.5 218.5 218.8 220.2 223.1 225.9 228.1 229.7 230.5 229.7 228.5 227.4 226.7 224.8 222.6 218.6 216 217.5 220.4 222.4 222.7 222.9 224.1 227.5 230.3 232.7 235.5 238.2 241.2 244.3 245.2 244.7 243.3 240.4 236.9 234.8 234.9 236.2 237.5 238.7 239.4 240 240.1 240.2 239.6 238.6 237.3 237.5 238.8 240.7 243 245.7 246.4 240.1 234.3 236 245.4 252.4 254.7 253.2 250.1 247 244.8 243.5 242.8 243.1 244.1 245.4 248.8 254.4 259.8 263.9 267 269 270.9 271.8 272.2 272.7 272.4 272.5 272.4 270.9 267.5 262.5 258.2 251.9 247.8 249.5 252.8 256 258.7 261.2 263.2 264.3 263.8 262.9 261.9 260.7 263.2 266.6 269.9 273 275.9 278.8 281.7 285.1 288.5 290.4 291 290.5 287.8 284.1 279.3 274.5 270.9 268.3 267.1 267 268 268.9 270 271.8 273.5 274.9 276.2 277.7 278.9 280 281.4 280.7 278 274.6 272.6 273.4 275.7 277 278.6 278 275.3 271.7 268.8 266.4 262.9 269.6 271.1 275.8 278.8 281 282.9 284.1 285.2 286.3 286.8 287 287.2 287 286.2 284.4 280.7 274.9 269.2 265.2 263.1 261.1 259.2 257.7 255.9 254.3 251.5 248.4 246.4 246.6 246.6 243.4 233.3 223 227 233.9 242.8 249.2 254.9
199.7 200.5 201.9 204 207.7 211.4 215.3 218.2 220.2 220.6 220.3 219.6 218.7 219.8 221.2 222.5 222.8 222.6 221.3 220 220.2 220.5 221.6 223.5 225.8 227.3 228.5 229.1 227.7 226.6 225.7 225.1 224.4 222.5 218.5 215.4 216.1 218.4 220.3 220.8 221.9 225.1 228.5 232.3 235.5 238.7 241.4 244.4 246.3 246.4 245.7 243.4 240 236 234 234.9 236.9 238.6 240 240.5 240.1 239.7 238.7 237.6 234.6 231.5 232.1 234.7 236.5 238 240.1 240 234.2 234.4 241.4 250 256.9 259.1 257.1 253.5 249.6 247 245.2 243.8 243.7 244.7 245.8 249.4 255.9 260.1 263.9 267.3 269.3 271.2 272.6 273.5 274.4 274.8 275.1 275.3 274.5 272.4 267.9 262.9 256.6 248.4 248 249.8 252.5 254.9 257.6 259.8 261.1 261 261.4 260.2 258.8 259.9 263 266.3 269.4 272.3 276.2 280 283.8 287 289.7 290.6 290.3 288 284.5 279.7 273.8 269.8 267.2 266.1 265.9 266.7 267.7 268.6 269.4 270.8 272.2 273.7 275.2 276.6 278.2 279.9 279.9 278.5 276.2 275.8 277.4 280.1 282.2 282.9 282.5 279.8 275.3 270.7 267.2 261.2 268.3 270.9 274.4 277.9 280.4 282.6 284.8 286.4 287.3 287.9 288.2 288.3 287.9 286.7 284.3 279.4 273.8 268.8 265.4 264 263.4 261.3 258.2 254.9 252.5 250.1 246.9 244.1 244.3 244.4 243 236.3 226.1 225.1 228.8 236.5 243.5 250
200.4 201.8 203.6 205.5 208.7 214 218.2 221.1 223.1 223.7 223.1 222 221 220.7 221.5 222.4 222.9 222.6 221.7 221 221 221.7 222.3 223.1 224.8 226.1 227 227.7 226.6 225.1 224.1 223.6 222.9 221.6 218.5 215.2 214.9 216.5 218.5 219.6 222.1 226.2 230.3 234.6 238.3 241.3 243.7 246 247.2 247.4 245.8 243.2 239.6 235.3 234.1 236.7 239 240.2 241.2 241.4 240.5 239.3 236.1 233.6 229.2 227.9 230.1 232.7 234.4 234.9 234.6 234.2 234.7 238.3 245.1 253.9 261.5 264.8 263.5 258.3 253.6 249.8 246.9 244.9 244.4 245.2 246 249.6 255.3 260 263.5 266.5 268.7 270.5 272.1 273.2 275.1 275.9 276.9 277.4 277.1 275 271.3 266.4 259.3 251.2 248.2 247.8 248.9 250.8 253.1 256 257.7 258.4 259 258.1 257.4 257.6 259.8 263.1 266.8 270.3 274.4 278.7 282.4 285.8 288.9 290.2 290.3 288.1 284.8 279.4 273.3 268.7 266.2 265.1 265.5 266.3 266.8 267.6 268.5 269.3 270.4 271.7 273 275 277.1 278.5 278.7 278.2 277.7 279.3 281 284.5 286.4 286.8 286.1 283 276.6 271.4 267.4 267.7 267.4 268.9 272.5 276.3 279.4 282.3 284.7 286.2 287.4 288 288.5 288.4 287.9 286.8 284 279.2 273.9 269.3 266.1 266.1 267.7 266.4 264.6 261 258.2 255 249.7 243.4 242.4 242.5 242.3 241.2 235.3 223.8 224.8 229.8 238.4 247.9
202.5 204 206 208.2 211.9 216.9 221 224 225.9 226.4 225.7 224.4 223.4 222.3 221.6 222.1 222.3 221.7 221 220.5 221.2 221.9 222.5 223.3 224.1 225 225.6 226.2 225.6 224.2 223.1 222.1 221.5 220.3 217.2 214.5 214.3 215.5 217.1 220.1 223 227.9 232.7 237 240.3 242.9 244.7 246.3 247.3 247.4 244.8 242.2 238.2 233.4 233.2 236.7 239.3 240.8 241.7 241.6 240.5 237.9 233.5 228.4 226.2 230.4 235.2 234.6 230.5 232 233.3 234.6 237 241.6 247.7 257.6 265.4 271.4 269.9 263 258.1 253.8 249.3 246.7 245.2 245.6 246.1 249.2 253.9 258.8 261.9 264.6 266.8 268.8 270.3 272.9 274.9 276.7 278.1 279.4 278.7 276.9 273.4 268.6 261.7 255.3 252.1 250 249 248.6 249.8 252.2 254.5 255.3 256.1 256.5 256.2 256 258.4 260.7 264.4 268.4 272.8 277.3 281.5 285.1 288.1 289.7 289.7 287.5 284.4 279.1 273 267.7 264.9 264.9 266.8 267.6 268.2 268.8 269.4 269.7 269.7 270.9 272 274 276.1 277.3 278.1 278.7 279.5 281.7 284.6 287.7 289 289.7 288.3 284.9 278 271.8 267.3 268.1 265.2 267 270.2 273.9 277.6 281.1 283.7 285.3 286.6 287.1 287.6 287.8 287.6 286.6 284 279.8 274.1 270.1 267.6 269.4 270.9 271 271.1 269.1 265.4 260.3 253.1 245.1 240.9 240.9 243 244.7 240.2 228.5 221.4 225.7 236.2 248.4
204.8 206.7 208.7 211.2 214.9 220 224 226.7 228.6 228.8 228.1 226.8 225.3 223.3 221.8 222 221.4 220.9 220.3 220.3 221.4 222.1 222.8 223.5 224.1 224 224.3 224.8 224.5 224 222.7 221.2 220 218.1 215.7 213.7 213.8 214.9 216.7 220.6 224.6 230.1 235 238.8 241.7 243.3 244.1 245.3 245.9 245.2 243.4 240.9 236.1 231.5 231.6 235.8 238.4 240.3 241.2 240.9 239.4 236.3 228 225.5 229.1 234.5 237.6 238.9 237.4 236.1 235.9 237.5 240.9 244.3 249.4 259.1 267.5 273.7 273.6 267.5 261.9 257.6 252.9 249.8 246.9 245.9 246.4 248.5 252.4 256.6 259.5 261.7 263.3 265.2 267.3 271.2 274.5 276.7 278.6 279.7 279.5 278.1 275.1 270.5 265.9 260.6 257.4 254.5 251.3 249 248.9 250.1 252.3 253.5 254 254.5 254.5 255.4 256.8 258.7 261.6 266.6 271.3 275.8 280.1 283.7 286.7 288.4 288.3 286.1 283.2 278.2 271.9 266.6 264.6 265.5 268.2 269.8 270.5 271.1 271 270.6 270.4 270.9 272 273.5 275.1 276.6 278.2 279.8 280.9 283.6 287.2 290.1 291.4 291.6 290.1 286.4 279.7 272.2 267.7 263.3 263.9 265.8 268.3 271.8 275.6 279.5 282.5 284.1 285.2 286.1 286.7 287 287.2 286.2 283.7 280 275.4 271 270.5 272.4 273.9 274.7 276.1 274.8 270.7 263.7 255.1 246.8 240.3 239.6 241.5 240.7 233.6 224.8 222.2 226 238.1 250.7
207.7 209.7 212 215.1 219.1 223.1 226.4 229 230.7 230.8 229.8 228.5 226.9 224.8 222.8 221.1 220.6 220.1 220 220.2 221.6 222.3 223 223.7 223.6 223.5 223.5 223.8 224 223.7 222.6 221.2 219.1 216.3 214.4 212.8 213.2 214.2 216.6 220.8 226.5 232.2 236.4 239.7 242.1 243 243.4 243.8 244 243.4 241.6 239.2 234.2 228.3 228.6 233.6 236.6 238.9 239.8 239.4 238 233.5 224.9 226.5 231.2 236.4 240.4 242.5 242.5 242 241.8 242.6 244.2 247.1 251 258.9 270.2 277.2 276.5 269.9 265 260.8 256.4 252.6 249.7 247.5 246.8 248.5 250.7 253.9 256.8 258 258.8 260.6 264.3 269.5 273.2 276.6 278.5 279.7 279.9 278.8 276.4 273.1 269.6 265.2 260.6 257.7 254.5 250.9 249.1 249.6 250.5 252.1 252.8 253.4 253.7 254.4 256 257.5 259.6 264.6 269.7 274.2 278.5 282.1 285 286.3 286.1 284.4 281.2 275.8 270 265.3 263.8 266.8 269.9 272.6 273.5 274.1 273.7 272.7 271.5 271.5 272.7 273.9 275.7 277.5 279.1 280.7 282.4 285.2 289 291.3 292.3 292.5 290.8 286.9 280.7 273.6 269.3 261.8 262.5 263.9 267 270.4 274.9 278.7 281.2 282.8 283.8 284.6 285.5 286 286.3 285.8 283.2 279.7 275.2 272.4 274.3 275.8 277.1 278.3 279.1 277.8 273.7 266.3 256.7 248.2 239.9 237.6 236.7 231.7 223.9 222 222.3 229.2 242 252.2
211.1 212.8 215.5 218.8 222.1 225.5 228.2 230.6 232.1 232.2 231 229.4 227.5 225.6 223.2 220.5 219.8 219.1 219.7 220.8 222.2 223 223.6 223.9 222.9 222.3 222.1 222.8 223 223.1 222.4 220.7 218.4 214.8 213.2 212.1 212.6 213.8 217.1 222.7 228.4 233.1 237.1 239.7 241.1 241.8 241.5 241.6 241.7 241.2 239.6 236.4 229.4 224.5 225.4 229.9 234.2 236.9 237.8 237.8 236.2 231.2 224.6 227.7 234.2 240.3 245 247.9 248.7 248.6 248.1 248.6 249.3 251.3 254.2 259.9 271.1 280.4 278.7 271.6 267.3 263.5 259 255 252.3 249.3 247.7 247.3 248.9 251.1 253.3 253.8 254.3 255 260.5 267 271.8 275.3 277.7 279.1 279.6 278.8 276.8 274.4 271 267.5 263.2 259.6 256 252.4 250.3 249.2 249.9 250.9 251.7 252.3 252.8 253.4 254.8 256.5 259.3 262.7 267.9 272.6 277 280.4 282.9 283.9 283.6 281.3 278.2 273.4 268.2 263.3 264.1 268.5 272.1 274.6 276.1 276.5 275.9 274.7 272.9 272.4 273.6 275 276.5 278.3 279.9 281.4 283.5 286.4 289.1 291.6 292.9 292.8 290.9 287 281.2 273.1 269.2 260.1 261 262.5 265.8 270.6 275.1 278.1 280 281.3 282.2 282.5 283.7 285 285.5 285.4 283.1 279.3 276.7 274.9 277.1 279.2 280.5 281.5 281.3 280.1 275.8 268.8 258.7 248.3 238.5 234.3 230.4 223.3 219.7 225.5 229.4 234.5 243.8 251.5
214.7 216.1 218.1 221.1 224.3 226.9 229.1 231.8 232.9 232.8 231.5 229.7 227.9 225.7 223.3 220.6 218.9 218.6 219.8 221.3 222.7 223.5 224 224.3 223.1 221.6 220.3 220.6 221.6 222.2 221.8 220.4 217.4 212.3 211.9 211.5 212.1 214 218.6 224.7 229.3 233.8 237 239 240 240.1 239.4 239.1 239.3 238.9 237.4 232.3 225.5 223.2 223.7 226.2 229.8 233.3 234.4 233.4 230.6 226.4 224.4 230.5 239.5 246 250.8 254 255.5 255.8 254.7 254.1 254.6 255 257.6 261.6 271.7 279.9 277.7 273.8 268.6 264.8 260.8 257 253.9 250.6 246.9 244.9 246.1 247.6 248.6 249 248.1 251.5 257.7 264.6 269.6 273.8 276.4 278.1 278.8 278.9 277 274.9 272.5 269 265.1 261.4 257.5 253.8 251.8 250.6 249.6 250.2 250.8 251.4 252 252.7 253.5 255.8 258.4 261.5 266.3 270.9 274.9 278.2 280.2 281 280.4 278.1 275 270.2 265.5 262.4 264.9 269.9 273.8 275.9 277.2 277.7 277.2 276 274.4 273.4 274.7 276.1 277.5 279 280.3 281.6 283.6 286.3 289 291.5 292.8 292.6 290 286.2 280.7 273.1 271.9 257.5 259.7 261.1 264.3 269.3 274.4 277.5 279.3 280.2 279.9 280.6 282.5 284.3 285.1 284.9 282.6 279.5 276.4 277.1 278.9 281.3 282.5 283.2 283.2 281.4 278 271.3 260.4 247.4 235.5 229.4 224.1 220.9 227.7 233.5 235.1 237.6 242.2 247.9
217.8 219.5 221.3 223.2 225.8 228.2 230.5 231.8 232.6 232.5 231 229.4 227.4 225.2 223.2 220.7 218.3 217.7 219.4 221.6 222.9 223.7 224.1 224 223 221.2 219.9 218.9 220.4 221.4 221 219.7 215.5 212.4 210.2 211.6 212.7 215.4 220.7 225.9 229.8 233.1 236.1 237.5 238 237.5 236.2 235.6 235.8 235.6 234.2 228.2 221.6 222.6 221.9 223.8 225.9 227.2 227.8 226 225 224.5 224.1 235.5 244.5 251.2 255.8 259.4 261.7 262.6 261.7 260.3 258.9 258.6 260.6 264.5 270.5 275.7 276.3 273.1 268.8 265.2 261.6 257.9 254.6 251.5 247 242.8 241.6 242.1 242.8 242.3 243 248 255.4 261.5 266.4 271.2 274.3 276.2 277.5 278 277.6 276 273.8 270.9 267.6 264.8 260.9 257.3 255 252.6 251 250 250.5 251.1 251.6 252.3 253.1 254.6 257.4 260.7 264.8 268.9 272.6 275.4 277.1 277.8 276.9 274.7 271.7 267.6 263.5 261.6 265.3 270.6 274.1 276 277.3 277.8 277.9 276.9 275.6 274.4 275.3 276.8 278.1 279.1 280 281.1 283.5 286.1 289.1 291.7 292.4 291.8 289.3 285.3 279 276.3 266.9 260.5 259.1 259.6 262.6 268 273.3 276.7 278.1 278.1 277.7 278.8 281.5 283.7 284.2 283.5 281.7 279 277.3 278.8 280.3 282.3 283.3 284.1 283.4 282 278.8 273 262 247.3 234 226.4 222.5 220.3 224.2 231 234.3 235 237.4 243.4
219.4 221.6 223.6 225.5 227.5 229.3 230.5 231.3 232.2 231.5 229.9 228.5 226.7 224.7 222.7 220.8 218.3 217 219 221.2 222.6 223.5 223.5 222.8 221.6 219.6 217.4 217.6 219.4 220.4 220 217.9 213.8 210.2 211.2 211.7 213.9 217.1 221.3 225.7 229.3 232.5 234.6 235.7 235.8 234.4 232.2 230.7 231 231.6 230.3 223.8 220.6 224.3 224.2 223.2 223.3 221.9 223.5 224.1 221.9 227.7 234.2 241.6 248.9 254.4 259.1 263.1 265.9 267 266.5 265.2 263.8 262.3 263.5 266.4 270.6 273.8 274.2 271.6 267.9 264.7 261.2 257.5 254.3 250.9 246.2 242.2 240.2 239 238.3 239 240.6 245 250.9 257.5 262.6 267.7 271.3 273.7 275.8 276.8 278 277.7 276.2 274 271.4 268.8 265 261.6 259.7 258.9 256.2 252.4 250.4 250.8 251.1 251.8 252.6 253.6 256.5 260.2 263.4 266.5 269.6 272.2 274 274.2 273.3 271.2 268.2 264.9 261.3 261.4 265.8 270.2 273.2 275.8 276.6 277.6 278.2 277.4 276.1 275.4 275.9 276.9 277.6 278.5 279.4 281 283.5 286.6 289.8 291.9 292.2 291.5 288.8 283.5 279.3 275 263.3 260.6 258.6 258.7 260.1 265.3 271.1 274.8 276 275.6 274.5 277.1 280.6 282.8 282.8 282.7 280.8 278.7 278.5 279.4 281.3 282.5 283.5 283.6 282.8 281.4 278.6 273.2 263.4 248.2 233.6 225.8 221.3 219.3 220.7 226.1 228.8 230.9 234.2 239.1
220.6 222.7 224.8 226.5 228.7 229.8 230.4 231.2 231 230 228.6 227.1 225.5 223.9 222 219.9 218 216.3 218.5 220.5 221.9 222.5 222.6 221.5 219.7 217.2 214.3 215.2 217.8 218.8 218.7 216.9 213 211.2 211.5 212.2 214.3 217.7 221.1 225.4 228.9 232.2 233.3 234.3 232.5 230.8 227.1 225 225 225.2 223.9 220.1 221.8 227.9 227.1 224.5 223.7 223.6 222 224.1 229.5 235.3 240.7 245.7 250.6 255.5 260.3 264.9 268.1 269.9 270.7 269.5 268.4 266.5 266.7 268.1 271.9 272.8 272.6 270.3 267 263.6 259.7 255.7 252.7 250.1 247.4 243.7 240.5 238.8 237.6 237.5 238.6 241.8 247 253.4 258.6 263.6 267.6 270.8 273.2 276.2 278.5 278.8 278.2 276.8 274.8 272.7 269.4 265.8 265 264.6 262.5 258.2 253.6 251.3 250.8 251.3 251.9 252.9 255.3 257.1 260.4 263.7 266.3 268.5 269.9 270.1 269.3 267.5 264.7 261.7 259.8 261.7 265.7 269.8 272.8 275.3 276.6 277.6 278.2 277.5 276.3 275.7 276 276.2 276.8 277.6 278.8 280.9 283.8 287.4 290.5 291.7 292.4 292.6 290 284.7 282.1 269.9 262.8 260.2 258.2 258.2 258.9 262.6 267.4 271.3 272.2 271.3 271.7 275.3 279.9 282.2 281.8 281.2 279.9 277.6 278.5 279.9 281 281.9 282.6 282.8 281.6 280.3 277.4 272.5 263.1 247.9 233.3 224.6 220.3 218.8 220.1 222.2 224.5 227.6 231.9 237.5
220.6 222.7 224.9 226.9 228.8 230 230.4 230.1 229.4 228.4 226.9 225.3 223.5 221.9 220.3 218.8 216.8 215.4 217.7 219.8 221 220.8 220.6 219 215.3 210.5 209.2 212.6 215.7 216.9 216.9 215.6 211.5 210.8 211.8 213.5 216.5 219.5 222.4 225.8 228.9 231.1 232.1 232.1 230 226.5 221.8 219.2 219.2 219.6 218.9 218.5 225 231.5 231.1 228.1 225.1 224.2 224.2 226.8 232.2 237 241.5 246.1 250.7 255.7 261 265.6 269.1 271.1 272.5 272.6 271.9 271.1 271.2 271.3 272.6 272.2 271.2 269 265.9 262 258.1 253.5 252.9 252.6 251.2 248 241.9 239.3 237.1 236.3 236.8 239 242.9 248.5 253.7 259.2 263.4 268 271.9 275.7 278.3 279.6 279.8 279 277.4 275.6 273.1 270.1 269.4 268.4 266.7 263.3 258.4 254.2 251.7 251.4 252.3 253.1 253.7 254.9 257 259.9 262.5 264.3 265.7 266 265.3 263.8 261.8 259.6 259.4 261.8 265.7 269.3 272.3 274.7 276.6 277.7 278 277.4 276.3 276 275.8 275.9 275.9 276.3 278.3 280.5 284 287.7 290.9 292.9 294.3 293.8 290.7 287.5 284.4 271.8 263.1 260 258 257.6 257.7 259.9 263.7 266.2 266.5 266.6 270 275.3 279.8 281.6 281.8 280.9 278.4 276.4 277.5 278.8 279.9 280.9 281.6 281.2 280.1 278.4 276 271.5 261.5 245.8 231.6 223.9 219.7 218.5 219.1 220.9 223.4 226.2 230.5 236.4
220.2 222.2 224.2 226.2 227.9 228.9 229.1 228.6 227.6 226.5 224.9 223.2 221.5 219.9 218.3 216.7 215 213.7 216.4 218.3 219.4 219.3 217.7 214.8 208.9 205.9 206.9 209.8 213 214.6 215 213.2 210.4 210.9 213.2 216.8 220.2 223.2 225.7 226.8 229.7 231.7 231.6 230.1 227.6 223 218 216.5 216.6 216 219.8 226.1 232.4 235.8 235.5 232.8 229.2 225.7 224.9 226.1 231.6 236 240.4 245 249.4 254.2 259.6 264.4 268.1 270.4 272 272.9 272.9 273.2 273.2 273.2 272.7 271.6 270.2 267.7 263.5 259.6 256.4 253.9 255.1 255.9 254.6 251.4 245.9 240.3 237.6 236.5 235.8 236.6 239.2 243.6 248.4 254.3 259.9 265 270.4 274.4 277.4 279.3 280.5 280.3 279.5 277.8 275.8 273.6 272.6 271.2 269.4 266.5 261.8 257.4 253.1 251.6 252.2 252.7 252.8 253.6 254.4 255.9 258.3 260.2 261.8 262.3 261.5 260.5 258.8 258.4 260 263.1 266.7 270.3 273.4 275.8 278 278.9 278.6 277.8 276.5 275.4 275.5 275.1 275 275.6 277.6 279.9 284 288.1 291.4 294.2 295.8 296.3 294.8 287 286.7 279.6 269.9 260.4 258.1 257.4 257.2 257.6 259 260.5 262.5 266.9 272.7 277.7 280.1 281.1 281 278.8 275 272.9 274.8 277.1 278.3 279.2 279.7 279.3 278.1 276.4 274.6 269.7 260.2 245.3 230 223.2 219.6 218.7 218.7 220.3 222.7 225.1 229.9 236.5
218.5 220.5 222.8 225 226.3 227.2 227.2 226.6 225.8 224.2 222.6 221.1 219.5 217.9 216.1 214.2 212.5 212.1 214.5 216.1 217 216 214.4 209.3 205.4 206.4 206.2 207.8 210.1 211.9 210.5 208.5 210.9 214 216.5 219.9 223.5 226.3 228.7 230.1 230.5 232.4 231.5 229.9 226.8 221.7 216.5 214.9 215.6 225.5 231.8 235.8 239.2 240.7 240.1 237.7 233.9 229.2 226.3 225.7 229.3 234.2 238.7 243.2 247.5 251.9 257 261.4 265.5 268.2 270.3 271.5 272.4 273.1 273.9 273.5 272.9 271.1 268.8 265.5 261.6 258.2 255.7 255.5 257.6 258.5 257.8 254.9 250.3 243.6 238.5 236.3 235.6 235.4 236.6 239.8 244.9 251 256.9 262.6 268.1 272.4 275.7 278.2 279.9 280.6 280.5 279.3 277 276 275 273.6 271.6 268.8 264.6 259.9 255.2 253 252.2 252.2 252.4 253.1 253.9 254.7 255.6 257.6 258.1 258.7 258.5 257.5 257.4 258.6 260.9 264.4 268 271.5 274.6 277.3 279.5 280.6 279.8 278.7 276.6 275 274.4 274.2 273.7 275.1 277 279.9 283.7 288.1 292.3 295.2 297.1 298.4 297 290.9 292.5 287.2 276.7 264.5 258.4 256.8 257 257.2 258.1 262.2 266.7 271.5 275.9 278.1 279.2 279.6 279 275.1 271.1 269.3 271.7 274.1 275.9 276.8 277.3 276.7 276.4 274.8 273 269.5 261.6 246.6 229.8 222.3 219.3 218.7 218.2 219.9 222.2 224.6 230.1 238
216.4 218.8 220.8 222.8 224.1 225 225 224.4 223.3 221.8 220.2 218.7 216.7 214.5 212.7 210.9 209.4 209.4 211.7 213.4 213.7 212.5 209.6 205.9 207 208.9 206.8 207.3 208.6 209 208.9 210.1 213.7 217.3 219.7 222.8 225.9 228.6 230.5 231.8 233 233 231.4 229.4 226.3 220.3 214.9 214.6 223.5 231.7 237.1 240.7 243.3 244.4 244 241.8 238.5 233.6 228.6 226.2 227.2 231.2 236 240.5 244.8 248.8 253.2 258 262 264.8 267.4 269.2 270.8 272.3 273.2 273.5 273 271 267.6 264.2 260.6 258.6 257.6 258.2 260.1 261.5 261.6 258.9 255.4 249 241.1 237 235.2 234.7 235.8 237.6 241.2 247.4 253.9 259.4 264.8 269.4 273.3 276.3 278.6 279.7 280.1 279.3 278 277.6 276.8 275.5 273.4 270.9 267.4 263 258.3 255.5 253.5 252.6 252.5 252.7 253.3 253.8 254.4 254.9 255.4 256 256.5 256.6 257.7 259.4 262.1 265.4 269.4 273.4 277.1 280.6 282.4 282.6 281.7 279.3 276.6 274.1 273.2 273.2 273.1 274.6 276.7 279.9 283.8 288.2 292.6 295.8 298 298.9 291.3 298 295.5 290.9 282.2 268.8 259.3 256.7 256.8 256.9 258 264 269.2 273 275.2 276.5 276.8 276.9 275 271.1 267.2 267.2 269.9 271.9 273.6 275.3 275.1 274 274.1 273.1 271.4 268.6 262.9 250.1 231.8 222 219.2 218.1 218 219.1 221.5 224.4 231.1 238.2
214 216.2 218.4 220.6 221.3 222.2 222.3 221.6 220.4 219.1 217.6 215.9 214 211.4 208.8 207.3 206.3 206.7 208.1 209.4 209.6 207.2 205.1 204.2 210.6 211.7 209.7 207.3 207.6 208 209 212.7 216.5 219.4 221.8 224.6 227.3 229.7 231.2 232.4 233 232.7 230.9 228.9 225.7 219.1 212.5 217.9 226.1 233.4 239 243.1 246.4 247.9 247.2 245.5 242.7 238.1 233.2 228.8 227 228.8 233.4 237.6 241.7 245.8 249.9 254.1 257.8 261.3 264 266.5 268.5 270.6 272.3 273.2 272.9 270.7 266.9 263.6 261.9 261 260.9 261.8 263.3 264.9 265.3 264 261.2 255.8 246.9 238.7 235.4 234.1 234.5 235.7 238.5 244.2 251 255.8 261.1 266 270 274 276.7 278.6 279.2 278.5 277.9 277.9 277.8 276.9 275.4 273.2 269.8 266 262.2 259.8 257.8 255.4 253.2 252.9 253.3 253.9 254.3 254.6 255.1 255.7 256.2 256.5 257.8 260.2 262.9 266.4 271 276.2 280.6 283.9 285 284.4 282.3 278.8 275.5 272.8 272.4 272.6 272.8 273.9 276.8 281.1 285.1 289.3 292.8 295.6 298.2 299.4 291.7 300.2 297.7 293.1 285.1 272.8 261.4 257.2 255.9 256.2 257.3 262.2 267.7 271.3 273.3 274.3 273.9 272.8 270.4 266.7 263.7 266.1 269.1 271.1 272.8 274.1 274.8 274.1 273.1 271.9 270 267.6 262.9 253.2 234.9 222.9 219.8 218.3 217.9 218.3 220.5 223.6 230.6 237.5
212 214.7 216.6 218.4 218.9 219.4 218.9 218.2 217.2 215.7 213.9 212.6 210.7 204.3 201.7 202.6 203.1 204 204.4 205 204.8 203.8 201.7 210 213.1 213.3 212 208.6 207.3 207.7 209.1 213 216.6 219.3 221.8 224.5 227.3 229.2 230.8 231.8 232.1 231.2 229.8 227.4 223.3 217.1 214.5 220.5 226.7 233.5 239.5 244.2 248.3 250.3 250.1 248.2 245.8 242.1 237.9 233.3 228.3 228.2 230.3 234.6 238.7 242.8 246.6 250.5 254.3 257.7 260.7 263.3 266.4 269 271.3 272.5 272.7 271 267.8 265.7 265 264.9 265.1 266 267 268.5 269.4 268.6 265.6 260.7 252.6 243.1 236.7 234.1 233.6 234.6 237.1 241.4 247.4 252.3 257.3 262.3 266.9 271 274.5 276.8 277.7 277.2 277.2 277.8 278.1 277.7 276.9 275.4 272.9 269.9 267.1 265.4 263 260.1 257.1 254.2 253.7 253.7 254.1 254.2 254.8 255.3 255.8 256.4 257.9 260.4 263.7 268.1 273.7 279.4 284 286.7 287.2 285.4 282 277.7 274.5 272.4 272.3 272.3 272.6 274.4 279.2 283.6 287.4 289.9 292.9 295.7 298.1 293.6 300.5 300.8 299 294.4 287 276.6 264.5 258.4 255.9 255.4 256.1 260 264.8 268.3 270.1 270.1 269.8 267.9 264.4 260.7 262.6 266.1 269 271.4 273.1 274.2 274.9 274.2 273.4 272.1 270 267.5 262.3 255.1 241.3 226.8 220.3 218.4 217.8 217.5 219.5 222.3 229 236
211.2 213.7 215.1 215.9 216.3 216.2 214.6 213.6 211.9 210.6 209.7 208.9 205.9 199.6 199.4 200.6 201.4 202 201.4 203.2 203 203.1 205.9 211.3 213.4 213.8 212.7 209.7 208.1 207.9 208.8 211.2 215.5 218.4 221.2 224 226.4 228.3 229.8 230.9 230.8 229.6 227.9 224.2 218.5 213.6 215.6 221.4 227.4 233.9 239.5 244.7 249.8 252.3 252.4 250.9 248.5 245.1 241.1 236.4 231.5 228.2 228.6 231.6 235.7 239.3 242.9 246.9 250.8 254.1 257.3 260.9 264.2 267.3 270.4 271.6 272.6 272 269.7 268.9 269.2 269.2 269.6 271 271.6 272.6 273.5 272.3 270 264.9 257.5 247.3 238.7 234.5 233.1 233.8 235.8 238.9 243.5 248.4 253.5 258.5 263.5 268.3 272.1 274.7 275.8 275.5 275.9 276.7 277.4 278.3 278.1 276.9 275.7 273.7 271.8 270 267.7 264.7 260.8 257 255.1 254 253.9 254 254.5 255 255.5 256.3 258 261 265.3 270.5 276.5 282.2 286.5 288.7 288.1 285.1 281.5 277 273.4 272.2 272.2 272.1 272.8 275.7 281.6 286 289.1 291.5 293.9 295.6 297.6 295.3 301.1 301.6 300 295.7 289 279.4 267.6 258.2 255.9 255 255.2 256.5 260.5 264.4 266 265.9 264.8 262.3 259.2 259.1 261.4 265.2 267.9 270.5 272.4 274 274.7 274.9 274 272.4 270.2 267.7 263.1 256.1 243.7 229.7 221.7 218.6 218 217.6 218.7 221.1 226.6 233.1
211.6 212.8 213.4 213.4 213.8 212.9 209.7 208.4 206.1 204.1 203.1 201.2 198.9 198.8 201.5 198.3 198.3 202 198.9 200.6 202.1 204.1 207.1 211.3 213.2 214.2 213 210.4 208.9 208.4 208.3 209.7 212.5 215.8 218.9 221.7 224.5 226.5 228.3 229.2 229.1 227.7 225.6 220.7 215 212.8 217.4 223.2 228.6 234.4 240.5 245.9 250.9 253.3 254.6 253 250.7 247.7 243.7 239.3 234.7 230.1 228.5 229.5 231.8 235.4 239.2 243.4 247.3 250.6 254.1 258.7 262.4 265.7 269 271.2 272.5 272.7 272.4 272.6 273.3 273.7 274.7 275.8 276.2 276.9 276.5 275.1 272.6 268.3 261.3 251.3 241.3 235.8 233.3 233.3 234.6 236.8 239.8 244.6 249.7 254.9 259.8 265.1 269.7 272.5 273.6 273.4 273.4 275.1 276.9 278.1 278.7 278.6 277.7 276.2 274.3 272.4 270.3 267.1 263.1 259.9 257.7 255.5 254.5 254.2 254.4 254.8 255.1 256.3 258.3 262 267.1 272.7 278.7 283.8 287.3 289 287.8 284.2 280.3 275.9 272.6 271.6 271.6 271.6 272.8 277.1 283.1 287.1 290.3 292.6 294.4 296.4 294.3 299 301.6 301.8 300.8 297.2 291.5 283.7 272.5 260.5 256.3 255.3 254.5 254.6 255.8 259.3 261.3 261.4 259.9 257.6 257.6 257.9 258.9 263 266 268.2 270.9 272.7 274.6 275.3 275.6 274.7 272.5 269 263.4 256 243.7 230.7 222 219.4 218.1 217.5 218.3 220.1 224.9 230.8
211.5 211.7 210.9 210.3 211 208.7 192.2 203.3 201.1 196.1 196.4 197 197.5 202.5 207.1 207.8 209 210.2 210.7 211.6 211.1 210.8 212.1 213.8 214.6 214.6 213.7 212.3 211 209.7 208.4 208.8 210.1 211.9 215.1 218.5 221.6 224.1 225.8 226.6 226.5 225.6 222.7 217.1 214 213.4 219.2 224.9 229.8 235 241.2 246.8 252.4 255.2 256.6 255.1 253 250.6 246.9 243.1 238.2 233.1 229.3 228.5 229.8 232.1 235.3 239.3 243.5 247.4 252 256.6 261 264.3 267.4 270.4 272.3 273.6 273.6 275.6 276.3 278.3 279.6 280.8 281.1 279.6 278.4 276.8 273.9 270.4 263.6 254.2 243.2 237.5 233.7 232.7 233.3 235 237.3 241.4 246.5 251.8 257.1 262.7 267.1 270.4 271.7 270.9 271.4 273.8 276 277.8 278.9 279 278.3 277.3 275.8 274.1 271.2 267.8 264.7 263.4 260.9 257.9 255.5 254.7 254.9 255.2 255.6 256.8 259.1 263.3 269 274.5 279.7 284.1 287.1 288.1 286.9 283.1 278.8 274.2 271.9 271 271.1 271.3 272.8 278.2 283.4 287.3 290.7 292.7 294.4 295.8 297.9 299.5 301.2 301.8 301.3 299.1 294.8 288.3 278.3 266.9 259.3 255.4 253.4 253.4 254.1 254.9 257 257.4 256.4 256 256.1 256.3 257.6 260.7 262.7 265.5 268.5 271.5 274.1 276.1 277.1 276.5 274.6 270.8 264.5 256 242.6 229.4 221.8 219.6 217.8 217.2 215.6 219.1 222.6 228
210.9 210.1 207.8 206.8 207 200 192.2 195.6 196.4 199.1 195.6 195.2 200.8 208.7 211.6 213.3 214.3 216.5 218.6 219 219.6 219.3 218.5 217.7 216.8 215.8 215.4 214.8 215.1 213.5 210.5 208.4 208.5 209.5 210.4 212.9 216.8 220.5 222.5 223.6 223.3 222.4 218.1 214.2 213.5 215.3 221.2 226.5 231.3 236.6 242 248.5 254.1 257.5 258.5 257.3 255.3 252.7 250.3 247 242.4 237.6 233.1 229.8 229.4 230.4 232.8 235.8 238.8 244.4 249.6 254.6 259 262.7 265.9 268.9 271.9 273.7 275.4 278.3 279.8 283.3 284.5 285.7 284.6 282.3 280.2 277.6 274.3 270.5 263.9 255.4 245 238.1 234.3 232.1 232.5 233.7 235.6 238.8 243.4 248.7 254.2 260.3 264.7 268.1 269.5 268.5 270.4 272.9 275 277.3 278.5 278.9 278.9 277.9 276 273.8 271.2 268.4 267.9 266.9 264.6 260.9 256.8 255.3 255.5 256 256.5 257.5 260 264.4 269.9 275.3 279.6 283.5 286.2 286.9 285.5 281 276.4 272.6 270.7 270.3 270.3 271.1 273.3 278 282.7 286.9 290.6 292.9 294.4 294.7 297.3 298.7 300.1 301.2 301.2 299.7 297.2 291.8 283.7 273.5 264.2 257.6 255.3 253.4 253.4 253.1 253.4 253.4 254.7 253.9 253 255.9 257.3 260.3 263.1 266 269.2 272.4 275.5 277.8 278.9 279.2 277.2 272.9 266.2 256 241.2 227.6 222.4 220.1 219 217.1 216.8 218.2 220.7 224.6
209.1 207.3 204 199.1 196.9 195.4 194.4 193.4 189.8 198.5 201.5 207.2 211.6 214.6 216 217.3 218.5 220.5 222.4 223.6 223.6 223.4 222.3 220.4 218.6 217.4 216.7 216.2 217.1 216.8 214.2 212.3 210.7 210.1 210 210.3 211.6 215.1 218.1 219.9 219.5 217.1 213.7 212.4 213.5 218.1 223.2 228.1 233 237.8 243.9 250.5 256.3 260.2 261.1 259.8 257.2 254.4 252.1 249.6 245.8 242 237.7 234.8 230.9 230.3 230.9 233.3 236.1 241.7 247.2 252.2 256.9 261 264.3 267.4 270.4 273.3 276 280.1 285.1 288.7 291.5 292.1 288.6 284.4 280.9 277.9 274.4 269.7 263.2 255.1 245.8 238 234.6 232.3 232.3 233.1 234 236.7 240.7 245.6 251 257.1 262.7 265.8 267 266.8 269.1 271.7 274.5 277 278.1 278.8 279 278 275.7 273.3 270.6 270.8 271 269.8 266.8 262.8 257.6 256 256 256.7 257.5 258.8 260.3 265 270.1 275.1 278.8 282.2 284.7 285.3 283.6 279.5 274.8 271.6 270.5 269.7 269.9 270.9 273 276.9 281.8 286.4 290 292.7 293.9 294.7 296 297.4 298.8 300.1 300.6 299.8 298 294 287.2 277.9 269 260.4 256.1 252.3 251.2 251.2 251.2 251.2 251.2 251.2 254.4 255.4 257.7 261 264.2 267.4 270.6 273.8 277 279.6 281.6 282.4 280.7 276 268.6 258.1 242.9 229.9 224.4 222 220.9 218.4 216.8 217.3 219.5 223.6
206 201.2 193.6 173.5 179.4 191.5 187.1 195.1 202.6 209.7 213.1 215.1 217.2 218.6 219.8 220.8 221.7 223.1 224.2 225.3 225.1 224.7 224 222.4 220.4 219 218.1 217.6 217.9 217.7 217.4 216.2 214.7 213.2 211.8 211.1 210.7 211.9 213.8 215.7 214.9 213.2 211.2 214 217.4 221.7 225.7 229.5 233.7 239.5 245.9 252.5 259.4 262.5 262.3 260.2 257.8 255.2 252.5 250.1 247.9 244.7 241.6 239.1 235.1 231 230.3 232 234.9 239.2 244.7 249.9 254.7 258.6 262 265.8 269 272 275.3 282 291 295.9 300.6 300.1 292.6 285.5 281.4 277.9 273.7 269 261.9 253.6 244.9 237.8 234.2 232.3 231.2 232.1 233 234.8 237.9 242.7 247.4 253.4 259.9 263.3 264.1 265 268 271 274.4 277 278.6 279.4 279.1 277.8 275.3 272.8 272.7 273.4 273 271.9 268.9 264 258.3 256.2 256.5 258.4 260.8 260.8 261.1 264.8 269.4 273.7 277.1 280.2 282.5 283.1 281.6 277.9 273 270.6 270.1 269.3 270 271 272.9 277 282.8 287 290.7 292.8 293.1 294.2 294.9 296 297.2 298.5 299.2 299.4 298.1 294.7 289.2 281.4 272.2 263.1 256.7 252.6 251.2 251.2 251.2 251.2 251.2 251.2 253.4 256 260.1 264.1 266 269.1 272.2 275.1 277.6 281 283.3 284.3 283.3 279.6 271.8 260 245.3 233.2 227.9 224.8 222.8 220 217.2 216.2 218 221.8
198.2 164.9 172.2 180.3 191.7 196.8 203.1 206.8 211 214.3 216.5 218.5 220.2 221.2 222.1 222.8 223.4 224.6 225.6 225.8 225.8 225.4 224.3 222.5 220.6 219.1 218.3 217.5 217.8 218.1 218.5 218.1 217.4 217.2 216.2 213.9 211.4 210.1 211.5 212.8 212.9 210.5 213.6 216.6 220 223.5 226.9 230.4 235 241.9 248.9 251.5 261.3 263.7 261.2 258.4 256.1 253.9 251.8 250.2 248.5 246.2 244.2 242.2 239 233.9 230.7 231.3 233.7 237.7 242.4 247.4 252.3 255.9 259.8 263.7 267.4 270.7 274.4 280.8 290.9 297.8 301.1 300.2 292.9 286.8 282.4 277.9 273.1 268.2 261.6 252.4 242.9 237.2 234 232.6 231.3 231 232 233.7 235.8 239.9 244.4 249.3 255.3 259.8 261 264.1 267.8 271.3 274.7 277.5 278.6 279.3 278.6 276.8 275.3 274.2 274.8 275.4 274.8 274.1 271.5 267.4 262.2 256.9 257 261.9 265.5 266.2 264.5 263.5 266.9 270.8 274.3 276.9 279.1 279.6 278.6 275 270.5 269.8 269.3 269.3 270.5 271.5 273.6 278.6 284.4 288.5 291.2 292.6 294 294 293.4 294.4 295.5 296.6 297.7 298.3 297.6 294.7 290.3 283.6 274.2 264.1 256.4 252.1 251.2 251.2 251.2 251.2 251.2 252.9 254.5 257.8 261.8 265.7 268.2 270.3 273 275.4 278.3 281.7 284.1 285.5 284.8 281.6 274.4 262.3 248.5 236.3 231.6 228.1 225.6 222.8 218.1 216.5 216.4 219
149 165.1 171.2 182.5 194.8 200.6 205.6 209.8 213.4 216.2 218.2 220 221.5 222.6 223 223.6 224.8 225.1 225.1 225.1 225 224.4 223.4 222.2 220.8 219.2 218.4 217.7 217.6 218 218.5 218.7 219.4 219.5 219.5 218 214.7 211.5 211.1 212.4 212.3 210.6 214.3 217.6 220.6 224.5 228.5 232.3 237.4 242.9 248.2 256 260.4 259.9 258.5 256.5 254.3 252 249.9 248.3 247.3 246.2 245.7 244.1 242.1 237.7 232.5 231.5 233.1 236.4 241.3 245.9 250 253.6 257.7 261.7 265.2 268.9 273 278.6 286.6 293 296.9 295.8 291.3 287.2 282.5 277.7 273 268 261.8 252.5 242.3 237.3 234.3 232.6 231.4 230.3 230.8 232.4 234.1 237 241.3 245.6 250.6 255.7 259.4 263.8 268 271.6 275.3 278 279.1 279.2 278.3 276.4 275.7 276.3 276.8 277.5 277.5 277 274.8 271.7 266.9 258.2 257.2 263.8 268.3 270 269.6 266.5 264.9 267 269.8 272.7 274.4 275.1 273.9 271 268.8 268.8 268.8 269.7 270.8 272.2 275.5 280.1 285.5 288.3 291.2 292.9 293.5 293 292 292.4 293.4 294.5 296.2 297 296.8 295.1 291.4 284.8 276.7 266.5 257.7 253.9 251.2 251.2 251.2 251.2 251.2 251.2 251.9 258.5 262.9 266.6 269 270.8 273.4 275.8 278.7 282 284 285.4 285.1 282.4 275.8 265.1 252.5 242.4 236.9 233.6 230.7 225.7 220.4 217.5 214.3 217.2
185.9 170.4 168.1 171 185.2 196.2 203.7 209.5 213.2 216.4 218.3 220.1 222.1 223.1 223.7 224.3 224.4 224.4 224.4 224.3 223.9 223.2 222 220.8 219.6 219.4 218.3 217.7 217.8 218.1 218.4 219.4 220.8 221.9 222.3 221.7 219 215.1 211.5 211.5 211.4 213.3 216.2 218.6 221.1 225 228.8 233 237.3 242.8 247.8 253.3 255.2 255 254.4 252.9 251.2 249.5 248 247.3 246.3 246.2 245.8 245.2 243.3 240.4 235.1 231.6 232.5 235.3 239.6 243.9 247.7 251.3 255.4 259.6 263.2 267 271.5 277 282.9 289 292.4 292.8 289.9 286.4 282.2 277.5 272.8 267.8 261.5 253.1 243.2 237.1 234.5 232.6 231.3 230.2 229.8 230.6 232.3 234.8 238.3 242.4 246.9 253 258.3 263.9 269 272.9 276.1 278.6 279.6 279.4 278.5 277.4 277.7 278.3 279.4 280.4 280.6 279.8 278.2 275.3 270.9 260.6 257.6 264.7 270.2 272.7 273.8 272.5 269.7 266.8 266.1 268.2 269.4 270 268.7 267.8 267.9 268.4 269.2 270.1 272 274.9 277.9 281.8 286.3 288.8 291.1 292.8 292.5 291.7 290.7 290.6 291.4 292.4 294.1 295.7 296 295 292 286.9 279.4 270.5 260.7 255.2 251.2 251.2 251.2 251.2 251.2 251.2 253.2 259.2 263.5 266.7 269 270.8 272.8 275.4 278.7 281.5 283.7 284.7 284.6 281.9 276.4 266.5 255.8 248.2 243.9 241.5 237.7 229.4 221.8 219.8 217.2 215.9
178.2 178.2 166.8 166.4 165.7 181.2 197.4 207.5 212.1 215.5 217.7 219.8 221.8 222.5 222.7 222.9 222.6 222.4 222.4 222.2 221.7 221.2 220.3 219 218.1 218.6 218.4 218 218.6 219 220 222.1 223.5 224.8 224.8 223.9 221.8 218.4 215.6 214.8 215.6 217.5 218.7 220 221.3 224.6 228.2 232.3 236.7 241 245.7 248.9 250.8 250.8 249.9 249.2 248.2 246.6 245.3 244.5 244.9 245.8 245.6 245.2 243.8 241.7 237.3 232.5 231.9 234.4 237.6 241.8 245.4 249.1 252.8 257.6 261.1 265 268.4 273.2 278 285.2 288.5 288.9 287.9 285.1 281.5 277.2 272.6 267.5 261.7 255.5 249.3 240.8 235.6 233.1 231.8 231 230.2 229.3 230.9 232.5 234.5 236.6 244.2 251.3 258.5 264.9 270.1 274.5 278.4 281.2 282.1 281.4 279.9 279.3 280.1 281.3 282.6 283.4 283.9 283.5 282.1 279.3 274.6 264.6 258.1 264.2 271.1 274.6 276.4 276.7 275.2 272.5 268.6 266.3 266.4 266.4 267.2 267.4 268.2 269.1 269.9 272.1 275.8 278.2 280.2 283.8 287 288.7 291.1 291.8 291.4 290.4 289.4 289.1 289.5 290.4 292.4 294.2 295.3 294.6 292.1 288.2 281.4 273.3 263.3 256.6 251.2 251.2 251.2 251.2 251.2 251.2 255.5 259.2 262.6 265.4 267.9 269.6 271.6 274.8 278.2 280.8 282.5 283.3 282.7 280.2 275.6 267 258.8 253.1 250.6 249.1 243 233.7 226.2 224.8 220.6 217.5
190 187.4 169.7 164.6 162.2 163.7 188.1 203.5 210.3 213.6 216.5 218.9 220.4 220.9 221.3 221.5 221 220.5 220.4 220 219.6 219 218.5 217.3 217.2 217.9 218.6 218.8 220.1 221.4 223.1 225.5 227.4 228.1 227.2 225.5 223 220.2 217.9 217.3 218.9 220.6 220.8 220.9 221.7 224.3 227.5 230.3 234.3 238.3 242.1 244.7 246.1 246.4 246.4 245.8 244.8 243.8 242.6 242.7 243.6 244.5 245.1 244.8 243.1 241.2 237.8 233.2 232 233.8 236.7 240.4 244.6 248.4 252.3 255.6 258.9 262.4 265.7 269.5 273.3 278.5 283.8 284.4 283.9 282.7 280.4 276.6 271.6 267.2 263 260.8 256.8 248.5 240.2 234.8 232.6 232.8 232.1 229.3 229.4 230.8 232.8 236.8 242.3 250 258.6 265.5 272 277.3 281.4 283.8 284.4 283.8 282 282.1 283 284.6 285.9 286.9 287.6 287.5 286.1 283.7 278.8 269.2 259.2 263.4 271.9 275.8 277.9 278.5 277.7 275.3 271.9 268.4 267.1 267.2 267.6 268.3 269.6 270.2 273 276.2 279.4 280.8 282.8 285.5 286.8 289.3 290.2 290.8 290.5 289.7 289 288.1 287.5 288.4 290.7 292.7 294 293.8 291.5 288 282.4 274.5 264.7 257.9 253.8 251.2 251.2 251.2 251.2 251.2 254.6 257.7 260.2 263 265.9 268.3 270.5 273.9 277.2 279.4 281.1 281.6 280.8 278.8 274.1 267.4 260.9 258.1 255.9 253.1 247.1 239.3 234.4 231.6 226.9 222.2
182.7 187.5 166.3 164.7 163.1 148.9 168 197.9 207.2 210.7 214.2 217.2 219 219.4 219.7 219.9 219.3 218.7 218.2 217.8 217.4 216.8 216.3 216.2 216.5 217.6 219.4 221.2 223 225.1 227.5 229.8 230.9 230.8 229.2 226.6 223.9 221.1 219.4 219.4 220.6 221.5 221.4 221.3 221.5 223.3 226.1 228.9 232 235.5 238 240.2 241.4 242.5 242.8 242.4 241.4 240.5 240.4 241.4 242.6 244 244.2 244.4 241.9 240.1 236.7 232.9 231.9 233.4 236.2 240.1 244.2 248.1 251.3 254.2 257.2 259.9 263 266.1 269.3 272.9 277 279.6 280.2 280.2 278.4 275.9 273.7 271.6 267.8 265.3 262 255.7 246.9 239.6 236.5 238.3 237.7 233.6 228.8 229.6 231.4 235.4 241.4 249.6 259 267.1 273.9 279.3 283.5 286 286.4 285.6 284.6 285.1 286.3 288 289.5 291 291.8 291.5 289.6 287.3 282.7 272.9 261.4 263.1 271.6 275.6 277.9 279.3 279 277 273.9 270.2 268.2 268.1 268.4 269.2 270.8 274.7 278.6 281 282.2 283.4 284.9 285.3 287.5 288.3 288.6 289 289.3 289.2 288.4 287.1 285.4 286.5 288.6 290.8 292.3 292.4 290.7 287 281.9 274.5 265.5 258.9 254.1 251.2 251.2 251.2 251.2 251.2 251.2 254.1 257.3 260.5 263.6 266.5 269.4 272.5 275.7 278.1 279.2 279.3 278.9 276.8 272.4 267.8 263.3 261.5 259.5 256 251.3 246.7 243.7 240.4 235.3 229.3
175.4 184.2 179.3 166.2 164.6 146.7 144.9 190.5 202.3 208.1 212 215.9 217.9 218.5 218.6 218.3 217.7 217 216.4 215.7 215.3 214.9 214.9 215.2 216.8 219.1 222 224.7 227.3 229.3 231.7 233.4 233.6 232.8 230.7 227.6 224.8 221.1 220.1 220.3 220.7 220.9 220.1 220 220.8 222.4 224.7 227.5 229.8 231.7 234.3 236.1 237.6 238.6 238.9 238.9 238.3 238.5 239 240.5 242.5 243.8 244.3 243.9 240.7 237.9 234.7 232 232.6 234 236.4 240 244 247.4 250.1 252.8 255.6 257.2 260.3 263.1 265.8 269 272.7 275.3 276.7 277.2 277.8 277.6 276.6 274.7 271.5 269 265.2 260.6 252.3 244.4 241.3 241.9 240 235.8 229.9 228.2 229.6 233.6 241.6 249.1 258.8 267.5 273.9 280 284.3 287.3 287.5 288 287.4 288.2 289.6 291.3 292.9 294.6 295.5 295 292.9 289.7 285.2 276.2 264.2 262.5 270.5 274.5 277.1 278.8 278.7 277.5 274.3 270.7 268.9 268.8 269.4 270.9 275 279.8 283.4 284.7 284.9 284.7 285.1 286.2 286.7 287 286.9 286.9 287.2 287.4 286.6 285.6 283.7 284.2 286 288.3 290 290.7 289.1 285.7 281.2 275.1 267.2 261.3 255.8 251.2 251.2 251.2 251.2 251.2 251.2 253 256.7 259.3 261.8 264.7 267.9 271.2 274 276 277 277.2 277.3 275.6 271.9 268 264.9 262.9 261.3 258.9 256.2 254.6 252.6 249.4 244.1 237.8
168.5 179.4 169.6 176.3 164.9 147.9 148.3 175.7 196.6 206.7 210.9 214.7 216.9 217.3 217.3 216.7 216.1 215.4 214.6 214 213.8 213.4 213.9 214.9 217 220.6 224.6 228.5 231.6 233.4 234.9 235.5 235 233.8 231.6 228.5 224.4 220.9 219.1 219.8 220 220.1 219 218.8 220.1 222.1 224 224.7 226.7 229 230.5 232.5 234 234.8 235.3 235.8 235.9 237.4 239.1 240.6 242.5 243.8 244.2 243.3 240.2 235.8 232.7 232 233.4 235.1 236.9 240.3 244.2 247.1 249.4 251.6 253.1 254.5 257.2 259.8 262.5 265.3 268.3 270.8 272.6 274.3 275.6 275.9 275.7 274.7 272.6 270.1 267 263.2 257.4 248.4 244.3 242.6 241.2 238.1 233.3 227.7 228.2 232.1 241.3 247.9 257.6 266.3 273.5 279.3 283.6 286.5 287.6 288.7 289.4 290.6 291.9 293.7 295.8 297.8 298.5 297.9 295.5 291.6 286.9 279.1 268 261.2 267.4 272.8 275.8 277.7 278 276.9 274.2 271.3 269.6 269.9 271 275.2 279.7 284.1 286.8 287.3 286.7 284 285.1 284.6 285.1 285.2 284.8 284 284.3 284.7 284.3 283.5 281.8 281.4 283.3 285.7 287.8 288.5 287.8 285.1 280.9 275.5 269.9 264.6 258.4 251.2 251.2 251.2 251.2 251.2 251.2 251.2 256.1 258.2 260.6 263 266.4 269.3 271.8 273.5 274.6 275.2 275.5 274.4 271.8 269.6 266.5 263.6 261.5 261.5 261.3 261 259.5 256.4 250.5 242
158.2 172.9 165.4 170.6 165.2 136.4 142.1 167.4 194.5 205.7 210.9 213.8 215.6 216.1 215.8 215.1 214.4 213.7 212.9 212.4 212.3 212.2 213.3 214.5 217.8 222.9 227.2 231.6 234.7 236.3 236.7 236.7 235.4 233.7 231.4 227.5 222.7 219.1 217.5 218.5 219 217.9 216.5 216.9 219 221.2 222.9 223.4 223.6 226.2 227.5 229.5 231.1 232.4 233 234.2 235.8 237.5 239.2 240.8 242.5 243.9 243.9 242.8 239.6 234.6 232.2 232.8 234.6 236.4 237.6 240.8 244.3 246.9 248.8 250.6 251.7 252.3 253.8 256.5 259.2 261.5 263.9 266.4 268.4 270.5 272.1 273.6 273.5 272.7 271.7 270.4 267.8 264.6 259.6 250.9 245.6 242.2 241 239.2 236.3 229.9 227.4 231.6 239.6 247.3 255.3 263.8 271.2 277.5 281.9 285.1 287 287.9 289.5 291.1 293.1 295.6 298.1 300.5 301 299.8 297.1 292.7 287.8 280.5 271.1 263.1 264.1 270 274 275.9 276.4 275.4 273.3 271 270.5 271.6 275.5 279.7 284.1 287.7 289.6 289.4 287.1 286 283.2 282.2 282.6 282.5 282.2 280.9 281.4 282 281.9 281.3 279.7 278 280.2 282.9 285.2 286.8 286.6 284.8 281.4 277.4 273.1 267.9 262 255.8 251.2 251.2 251.2 251.2 251.2 251.2 254.9 256.9 258.8 261.2 264.5 267.4 269.6 271.6 273 274.4 275.3 274.8 273.1 271.1 268.2 264.5 263.3 264.3 265.5 265.7 264 260.4 253.3 243.1
149.2 165.2 167.1 156.3 146.8 133.1 145.4 173 197.8 205.6 210 212.9 214.3 214.2 213.8 213.1 212.5 211.9 211.2 210.9 210.9 211.4 212.3 214.6 219 224.4 229.6 233.7 235.9 237.2 237 236.2 235.2 233.2 230.2 225.6 220.6 216.5 215.5 216.4 216.6 215 213.8 215 216.9 219.6 221.5 222.2 221.6 222.7 225.6 227.3 228.9 230.7 232.1 234.3 236 237.6 239.3 240.9 242.6 243.9 243.5 242.2 238.4 233.7 232.3 233.6 236.3 238.3 239.3 241.4 244.1 246.4 248.2 249.6 250.5 250.8 251.2 253.2 255.8 257.8 260 262.7 264.9 266.8 268.5 270.4 270.8 270.7 270 270.1 268.1 265.1 261.2 254.4 246.6 241.2 238.9 237.5 235.6 230.6 227.2 231 238.4 245.2 251.8 259.7 267.5 274.5 279.1 282.3 284.8 286.3 288.2 290.1 292.7 295.1 298 301.3 302.3 301.2 298.1 292.9 287.4 281 272.1 264.7 262.9 267.5 271.7 273.5 274.4 273.9 272.6 271.8 272.4 274.5 278.4 283.6 287.1 290 291.2 290.5 287.9 285.9 282.8 280.7 279.5 279.3 278.2 277.7 278 278.9 279.3 278.9 277.5 274.9 276.9 280.1 283.5 285.2 285.5 284.1 281.7 278.1 273.8 268.6 263.2 253.6 251.2 251.2 251.2 251.2 251.2 251.2 252.3 256.3 257.8 259.8 262.3 265.1 267.3 269.3 271.4 274.1 275.7 275.1 274.1 272.2 269.2 265.5 265.2 266.5 268.5 268.8 266.6 262.8 254.8 244.6
138.1 147.5 149 140.4 129.4 131.9 157.2 180.6 198.9 205.2 209.3 211.8 212.4 212.2 211.7 210.7 210.3 209.9 209.9 209.8 210.7 211.6 212.6 215.5 220.7 226.6 231.4 234.5 236.5 236.9 236.2 235.2 233.7 232.1 229.1 224.2 218.6 214.7 213.9 214 213.1 212 212.7 214.3 216.2 219 220.9 222.6 222.8 222.9 224.5 227.1 228.9 230.4 231.9 234.3 236.1 237.8 239.4 241.1 242.7 243.5 242.7 241.7 238.2 233.4 232.1 233.6 237.7 239.3 240.1 241.6 243.5 245.7 247.2 248.4 249.2 249.4 249.3 250.3 252.1 254 256.1 258.8 261.3 263.1 265.3 267.1 267.5 267.3 269 269.7 268.6 266.1 262 256.6 248.5 240.8 235.8 232.1 231.9 228.6 226.3 231.1 237.2 243.3 248.2 255.7 263.1 270.3 275.1 278.8 281.6 283.8 285.9 288 290.9 294.8 298.2 301.3 302.8 301.8 298.4 293 287.1 280.4 272.2 265.3 263 264.8 268.9 271.1 272.1 272.3 271.9 272.1 274 276.1 281 285.8 288.5 291 291.6 288.5 289.3 286.4 282.8 280.3 278.7 276.4 275.4 274.8 274.6 275.9 276.5 276.2 275.1 272.5 274.4 278.2 282 283.8 284.2 282.9 281 277.8 273.5 268.4 262.7 251.2 251.2 251.2 251.2 251.2 252.4 253.2 254.7 256.9 258.1 259.5 261.6 263.8 266.3 269.1 272.3 275.3 276.6 276.7 274.9 272.6 270 266.6 266.7 268.5 270.2 270.5 268.8 264.9 257.6 247.5
125.3 126.7 125.5 124.1 127.3 148.9 169.8 188.5 198.5 204.1 207.4 209.2 209.8 209.9 209.4 208.7 208.7 208.4 208.8 209.3 210.7 212.1 213.2 216.5 222.6 228.6 232.1 234.7 235.9 235.3 234 233.1 232 230.2 227.4 223.2 217.2 213.4 212.2 211.4 210.5 210.8 212.5 216.2 219.4 221.8 222.6 223.2 223.3 224.6 225.7 227 228.9 230.3 231.8 234.2 236.3 237.6 239.1 240.7 242.3 243.1 242.8 241.3 238.2 233.4 232 233.9 237.7 239.4 240.3 240.7 241.6 244.2 246 247.2 247.8 248 247.7 248.1 248.9 250.3 252.3 254.7 257.8 259.9 262.1 263.4 263.8 264.2 268.1 269.2 268.6 266.2 262.5 257.8 250.2 240.3 232 227.8 226.9 225.6 225.9 229.8 235.5 240.7 245.7 251.5 258.4 265.1 270.8 274.4 277.3 280.2 283 285.8 289.5 293.6 297.6 301.3 303 302.3 298.9 292.6 286.2 279.5 273 266 263.5 263.9 266.5 268.7 269.9 270.9 271.5 272.9 275.1 277.5 281.7 286.3 288.8 290.7 288.6 291 289.6 286.9 283.8 281.2 278.6 276.6 274.9 273.4 272.6 273.4 273.8 273.5 272.7 270.5 273.2 277.2 280 281.6 282.1 281.1 279.2 276.1 272.3 267.4 259.2 251.2 251.2 254.6 257.1 256.8 257.5 257.6 258 257.6 258.5 260 261.8 264.1 267.4 271 274.6 277.3 278.2 278.2 275.9 272.9 270.1 268.2 268.3 270.1 271.4 271.8 269.8 267.1 261.3 253
116.8 118.1 116.1 124.3 144.7 161.1 181 190.3 198 202.7 205.2 206.5 207 207.2 206.9 207 207 207.6 208.2 209 210.5 212.3 213.9 218.2 224.8 228.8 231.7 234.1 234.7 233.3 231.5 230.5 229.6 227.7 225.2 221.1 215.8 211.9 210.4 209.9 210 210.5 214.6 219.1 221.4 222.7 223.4 224.1 225.4 226.9 228 229.1 230.2 230.9 232.5 234.6 236.7 238.2 239.4 240.6 242.3 243.2 243.3 241.7 238.6 233.6 232.2 233.7 237.1 238.8 239.2 239.6 239.9 242.1 244.1 245.1 246.1 246.5 246.2 246 246.5 247 249.2 251.8 254.6 256.8 258.7 259.8 260.1 263.2 267 268.3 267.9 266.2 262.5 258 250.3 238.6 231.2 226 223.8 224.5 225.4 228.3 232.7 237.5 242.3 247.7 254.1 260.3 265.9 269.9 273.3 276.5 279.3 283 287.4 292 296.6 301.1 303.3 302.8 299.1 292.7 286 279.6 273 266.6 263.9 263.3 264.7 266.6 268.4 269.8 272.7 275 276.6 278.9 282.5 286.5 288 289.4 290.4 290.7 289.9 288.3 286 283.6 280.8 278.5 275.5 273.7 271.9 270.8 271 270.8 270 268.8 271.4 275.4 277.4 278.9 279.5 278.5 276.6 273.7 269.9 264.8 253.9 251.2 251.2 261.2 263 261.7 261.3 261.1 260.9 260.1 260.1 261.2 262.6 265.2 268.8 273.3 276.8 278.7 279.3 278.6 276.2 273 270.6 269.8 269.7 270.7 271.8 272.7 271.7 269.3 265.7 259.5
119.6 136.4 143.8 145.3 161.8 178 185.1 191.7 196.7 200.1 202.6 203.7 204.6 205.4 206 206.9 206.6 207.5 208.2 209 210.1 211.9 214.8 219.9 224.8 228.3 231 232.7 233 232.2 230.4 228.5 226.9 225.2 222.4 218.5 213.9 210.7 209.7 209.1 209.6 211 215.8 219.1 220.8 222.1 222.7 224.1 225.9 228.6 230.2 231.2 232.1 233 233.1 235.1 237.2 238.6 240.1 241.6 242.9 243.9 243.6 242 239 234.5 232.9 233.4 236.3 238.3 238.4 238.1 238.6 239.5 241.1 242.4 243.7 244.4 244.5 244.4 244.2 244.4 246.4 249.1 251.5 253.8 255.7 256.3 259 262.4 265.5 266.6 266.5 264.9 261.7 257.7 250.5 237.8 229.3 224.4 219.7 219.7 224.1 226.5 229.9 234.1 239.3 244.5 250.2 255.6 261.1 264.9 268.6 272.2 275.7 280 285 290.2 295.9 300.8 303.7 303.7 299.8 293.6 286.3 280.1 273.3 267.9 264.6 263.5 264.2 265.3 267.4 271 274.4 276.5 277.3 279.8 283.1 285.7 286.3 286.5 289.3 289.8 289.8 288.9 288 286.5 283.9 281.2 278 275.1 272.5 270.9 269.3 268.3 267.8 267.4 269 272.1 273.9 275.6 276.6 275.7 273.8 270.6 266.8 259.4 251.2 251.2 257.2 265.8 267.9 266.8 265.7 265.2 263.8 262.8 262.6 263.3 264.8 267.7 270.9 274.9 277.6 279.3 279.2 278.4 275.4 272.6 270.2 269.3 269.9 271.1 272.3 273.6 273.4 272.6 270.4 267.4
120.3 141.8 158.6 164.5 174.3 180.2 185.7 190.9 195.1 198.1 200.3 201.9 203.1 204.5 206.2 207.3 207.4 207.6 208.4 208.6 209.5 211.4 214.1 219.4 223.2 226.6 229.7 231.2 231.3 230.8 229.3 227.5 224.7 222 219.1 215.7 212.4 210.4 209 208.4 209.2 211 214.6 217.4 219.2 220.3 221.1 223.8 226.4 229.5 232 234.3 235.3 235.1 234.8 235.9 237.6 239.6 241.7 242.7 243.6 244 244 242.7 239.2 234.7 233.3 233.4 235 236.7 237.8 237.5 237 237.4 238.2 239 240.1 241.4 242.1 242.1 242 242.3 243.4 246.2 248.5 250.7 252.2 254.1 257.7 260.8 262.9 264.5 264.1 262.7 260.1 256.1 249 236.2 219.7 219.7 219.7 219.7 219.7 224.2 228 231.3 235.9 240.9 245.9 251 255.8 260 264.1 268.5 272.2 277.3 282.8 289.2 295.1 301.1 304.6 305 300.8 294.8 287.2 280.7 274.3 268.9 264.9 264 263.6 265 267.2 271.2 274.8 276.1 277.3 279.7 282.5 283.8 283.9 286.2 287.8 288.2 288.6 289.2 289.2 288.6 286.6 283.7 280.6 277.8 275.9 273.4 271.2 269 266.9 265.8 266.2 268.5 270.1 271.7 272.9 272.5 270.6 267.3 262.5 251.2 251.2 251.2 262.1 269.3 271.3 271.3 270.3 269.2 267.8 266.9 266.5 266.5 267.6 270.3 273.4 276 278 278.6 278.6 277.3 274.3 272.2 270.1 269.4 269.8 271.5 273.5 274.8 275.4 275.5 274.3 272.2
124 143.7 163 169.4 176.1 181.6 186.4 190.4 194.3 197.1 199.9 202.3 204.7 206.2 208 208 208.2 207.9 208.3 208.3 208.8 210.8 213.7 218 221.8 225.2 227.8 229.2 229.6 228.9 228.5 227.1 224.2 220.9 216.8 214.3 211.5 209.9 208.7 208 208.1 208.9 212.1 214.9 216 217.2 218.9 221.6 224.9 229.2 232.4 235.4 237.1 236.8 236.8 238 238.6 240.7 242.4 243.4 244 244 244.1 243.2 240.3 236 234.1 233.4 234 235.1 236.2 236.1 236.2 236.5 236.8 237.4 238.3 238.9 239.6 239.8 240.3 240.4 241.8 243.7 246 248 249.1 251.5 255.7 258.6 260.7 261.4 261.5 260.1 257.5 253.5 245.6 220.6 219.7 219.7 219.7 219.7 219.7 228 227.1 229.1 232.9 237.5 241.9 246.8 251.6 255.9 260.2 264.6 269.4 275.4 281.4 288.8 294.9 301.3 305.7 305.3 301.8 295.9 288.5 281.6 275.5 270.1 266.2 264.9 264.2 264.8 266 269.7 272.6 274.6 276.8 278.9 280.9 281.2 282.2 283.8 285.4 286.9 287.5 290 290.4 290.4 288.9 286.2 283.5 281.5 280 277.4 274.7 271.8 268.7 265.6 264 264.9 266.4 268 268.9 269 267.4 263.9 256.7 251.2 251.2 258.4 265.3 271.6 274.3 275.8 275.8 273.9 273.2 273.3 272.5 272 272 273.2 275.7 276.9 277.8 278.1 277.2 275.4 272.6 270.7 269 268.9 269.9 271.7 274.3 276 277.3 277.9 276.9 275.3
126 145.2 158.6 169.9 178.5 184.5 188.8 192.5 196 199.2 202 204.9 207.5 208.5 209.1 209 208.4 208 207.9 207.9 208.1 209.7 212.4 216.5 220.4 223.3 225.9 227.1 227.8 227.8 227.5 226.7 225.1 221.8 217.2 213.3 211.5 209.7 208.5 207.7 207.3 207.6 208.8 211.1 212.4 213.1 215.9 219 222.2 227.7 231.6 234.7 237.6 238.7 238.9 239.3 239.6 241.5 243 244.1 244.5 244.7 244.8 244.2 241.8 237.5 234.7 234.3 234 234.2 234.6 235.1 235.7 236.1 236.4 236.8 237.3 237.8 238.6 239.2 239.7 239.7 240.8 241.9 243.7 245 246.9 249.2 252.8 256 257.5 258 258.1 257.2 254.9 250.1 241.6 219.7 219.7 219.7 219.7 219.7 219.7 227.9 231.5 226.2 231 234.9 238.9 242.8 247.4 251.9 256.7 261.6 267.3 273.5 280.8 288.2 294.9 301.4 305 305.1 302.4 296.4 289.4 282.6 276.6 271.4 267.4 265.9 265.1 264.6 266 267.7 271 273.2 275.6 277.7 278.4 279.6 280.1 281.4 283 284.6 287.1 289.8 291.1 291.4 290.5 288.3 285.5 284.3 284.1 281.8 278.6 275.9 272.1 267.1 263.1 262.3 263.6 265.1 265.7 265.6 264.7 260.9 253.4 251.2 251.2 260 266.6 272 275.9 278.6 279.1 278.6 278 278.2 278.1 277.4 276.9 276.5 277.4 277.7 277.8 277 275 271.9 269 267.9 267.5 267.8 269.6 271.8 274.4 276.9 278.7 279.6 279.4 277.8
126.7 146.7 158.9 169.7 178.9 186.3 191.1 195.1 198.4 201.5 204.5 207 208.8 209.8 209.8 209.4 208.5 207.3 207.2 207.1 207.4 208.7 211.7 215.4 218.2 221.1 223.8 224.9 225.7 226 226.5 226.2 225.4 223.2 219.4 214.3 211.6 209.5 208.3 207.5 206.7 206.4 206.6 206.8 208.2 209.5 212.9 216.6 219.9 224.7 229.7 233.7 237 239.1 240.4 240.6 240.9 242 243.4 244.5 245 245.2 245.1 244.7 243 239.7 236.1 234.6 234.4 234.3 234.4 234.8 235.2 235.7 236.3 236.9 237.4 237.8 238.2 238.8 239.5 239.9 240.4 241.4 242.3 243.2 245.3 247.9 251 253.6 254 254.5 254.9 258.1 261.1 246.5 237.4 219.7 219.7 219.7 219.7 219.7 219.7 220.6 228.1 225 229.1 232.2 235.8 239.3 243.7 248.8 253.9 259.1 265.6 272.3 280 287.9 294.3 299.9 303.3 303.5 301.5 296.6 290.3 283.1 277.1 271.7 268.8 266.5 265.8 264.9 265.6 266.9 269.6 271.8 274.2 275.8 276.9 278.3 278.8 280 281.5 283.6 287.1 290.2 291.7 291.9 291.5 289.9 287.3 286 286.3 285.5 283.4 280.5 276 271.1 265.3 260.9 261.3 262.3 262.8 262.6 262.1 258.9 251.2 251.2 251.2 256.6 265.5 271.9 276.8 279.7 281 281 281.4 281.6 281.5 281.2 280.2 279 277.8 277.5 276.6 275.1 272.3 266 266 266 266 266 268.5 270.9 273.9 276.6 279.1 280.6 280.6 279.8
131.2 150.4 160 169.9 179.2 187 193 197 200.2 203.1 206 208.3 209.5 210.3 210.2 209.4 208.1 206.8 206.3 206.1 206.7 208.5 210.8 213.6 216.3 219 221.3 222.7 223.5 224.3 224.8 225.9 225.5 224.3 221.6 216.5 211.9 209.7 208.4 207.6 207.2 207.7 208.3 207.2 205.7 206.3 210.3 214.5 217.2 221.4 226.7 231.6 235.5 238.5 240.5 241.9 242.1 242.9 243.5 244.4 245 245.3 245.2 244.7 243.3 241.1 237.9 235.3 234.7 234.7 234.7 234.7 235.2 235.8 236.6 237.6 238.4 238.5 238.8 239.5 240.1 241.6 242.1 241.7 241.4 241.6 244.1 246.7 249.6 251 251 251 252.1 258.2 264.4 255.8 238.9 230.6 219.7 219.7 219.7 219.7 219.7 224.1 226.2 224.5 226.8 230.4 233.4 237 240.9 245.8 250.9 257.4 264.1 270.9 278.8 286.9 293.2 298.4 301.5 301.7 300.1 296.1 290.2 283 277.3 272.9 270.1 267.4 266.6 265.3 265.6 267.2 268.6 270.3 272.3 274.2 276.1 277 277.6 278.9 281 284.3 287.5 290.6 292 292 291.7 290.7 288.3 286.6 287.2 286.7 285.6 283.3 279.8 274.9 269.3 263.8 260.2 259.3 259.6 259.3 259.3 257.2 251.2 251.2 251.2 255.8 264 270.6 276.5 280.2 281.5 282 282.7 283.3 283.6 283 281.4 280 278.4 276.1 274.5 272.5 268.3 266 266 266 266 266 266 269.5 273.1 276 278.7 280.5 281.4 281
139.5 153.7 162.1 170.3 178.8 187.2 194.8 199 202 204.5 207.2 209 209.5 210.2 209.8 208.9 207.6 206.3 205.6 205.3 205.9 207.3 209 211.2 213.9 216.6 218.6 220.1 220.9 221.9 223.8 225.1 225.5 225.1 222.8 218.6 213.2 210.5 209.3 209.1 209.5 211.1 211.9 209.6 206.1 204.7 207.8 212 214.9 218.5 223.3 228.3 232.9 236.6 238.8 241.7 243.3 243.7 243.9 243.7 244.2 244.6 244.9 244.3 243.1 241.1 238.2 236.1 235.4 235.1 235 235 235.3 235.9 237.2 240.9 242.3 242.2 241 242.3 244.1 245.4 245.2 244 242.4 241.3 242.2 244.9 247.3 248.3 248.6 248.5 247.9 250.1 251.3 245.2 238.5 235.2 228.5 219.7 219.7 219.7 219.7 221.7 224.1 223.7 225.5 228.5 231.7 235.4 239.6 243.4 248.3 255.8 262.6 269.8 277.8 285.6 291.8 296.8 299.6 300.3 298.8 295.4 289.1 282.3 277.6 274 271.4 268.8 267.2 266.3 267 267.8 269 269.6 271.9 272.6 274.5 275.7 277.4 279 281.8 285.1 288.4 290.8 292.2 292.1 291.7 290.3 288.6 286.8 287.6 287.1 286.6 285 282.2 278.3 272.9 267.3 261.4 256.4 256.5 255.6 257 256.2 251.2 251.2 251.2 256.7 262.4 268.7 274.3 278.6 280.3 281.6 282.5 283.8 284.5 283.6 282 279.9 277 274.3 271.1 267.6 266 266 266 266 266 266 266 268.8 272 274.8 277.5 279.8 281.1 281.6
145.7 157 164.4 171.4 179.8 188.3 196.3 200.7 204.1 206.7 208.2 209 209.6 209.4 208.9 208.2 207.1 205.8 204.7 204.3 204.5 205.8 207.5 209.5 211.5 213.8 215.3 216.8 217.9 219.4 221.7 224.2 225.5 225.3 223.8 220.1 215.1 211.8 210.8 210.7 211.8 213 212.8 210.6 207.5 203.9 205.3 208.9 212.1 215.1 219.5 224.5 229.5 233.9 238.4 241.4 243.2 243.9 243.8 243.5 243.5 243.8 244 243.2 242.2 239.9 238 236.9 236.3 235.9 235.6 235.5 235.5 236 239 243.1 245 245 244.2 245.5 246.1 245.9 245.6 244.6 242.8 241.2 240.8 242.2 244.8 245.7 246.4 245.9 244.5 241.8 241.9 239.7 238 233.6 225.5 219.7 219.7 219.7 219.7 219.7 219.7 223.1 225 227.5 230.7 234.1 238.3 242.3 247.5 254.2 261.2 268.2 275.9 283.5 290 295 297.7 298.9 298 294.8 288.1 281.6 277.7 274.3 271.9 269.8 267.8 267.9 268.4 268.7 269.1 270.8 270.9 272.6 273.9 275.5 277.2 279 282.2 285.6 288.8 291.2 292.3 292.1 291.4 289.6 287.7 286.2 286.8 287.4 287 286.3 283.8 280.7 276.1 270.4 264.4 257.8 251.2 251.2 251.2 251.2 251.2 251.2 251.2 252.6 261.1 266.7 271.5 275.6 277.7 279.5 281.2 282.9 283.9 283.2 281.6 279.1 275.9 272 266.5 266 266 266 266 266 266 266 266 267.9 271 273.7 276.6 278.9 280.8 281.5
153.4 161.2 167.6 173.7 181.1 189 196.3 202.4 206.4 208.8 209.7 209.4 209.7 208.8 208 207.3 206.6 205.5 204.3 203.3 203.1 204.3 206 207.5 208.8 210.2 211.5 213 213.8 215.2 219.4 222.5 224.4 224.4 223.7 220.6 216.9 214.6 213.3 212.9 212.9 212.7 212.6 210.5 207.9 204.1 203.5 206.4 209.3 212.4 215.9 220.5 225.2 231.2 236.8 240.4 242.7 243.6 243.5 243.3 242.8 242.3 242.3 242.1 241.4 239.8 240.3 238.9 238.6 238 237.1 235.9 235.8 236.6 240.6 244.2 245.6 246.4 246.6 246.3 246.3 245.9 245.3 244 241.9 240.3 239.5 240.1 242.2 243.5 244.1 244.2 242.8 240.3 238.6 238.6 238.3 231.9 224.2 219.7 219.7 219.7 219.7 219.7 221 223 225 227.3 230.3 233.2 237.5 242.5 247.3 252.3 259.4 266.7 274.1 281 288.1 292.7 295.7 297.3 297 294 289 281.8 277.7 274.6 271.9 269.9 268.4 268.6 268.8 269.2 270.6 270.2 271.6 273.4 274.5 275.9 277.4 279.2 282 285.8 289.2 291.4 292.1 291.4 290.4 288.4 286.3 284.6 285.2 286.3 286.5 286.2 284.3 281.6 278.3 273.5 267.4 260 251.2 251.2 251.2 251.2 251.2 251.2 251.2 251.2 258.8 263.6 268 271.8 274.3 276.2 278.8 280.7 281.8 281.4 280 277.6 273.9 268.9 266 266 266 266 266 266 266 266 266 267.9 270.5 273.2 275.4 277.6 279.9 281
162.6 166.7 170.7 176.2 182.7 189.7 196.8 203.6 208.1 210.1 210.9 210.5 209.8 208.9 207.9 206.9 206.1 205 203.9 202.8 202 202.6 203.4 204.2 204.9 205.7 206.7 208 209.1 211.7 216.3 219.8 222.3 223.2 222.4 220.9 218.4 216.6 215.3 214.2 212.8 212 210.9 208.7 205.8 202 201.5 204.4 207.4 210.3 213.7 217.8 223.1 229.4 235 239.2 241.8 242.9 242.9 242.7 242.1 241.6 241.1 240.8 240.4 241.2 242.1 241.8 240.9 240.1 238.7 236.8 236.1 237 240.4 243.2 244.7 246.1 246.4 246 245.5 244.7 243.6 242.6 241.3 239.8 238.2 238.4 239.7 241.3 241.9 242.9 242.7 241 239.6 238.2 234.7 231.5 229.8 227.1 223.5 219.7 219.7 219.7 222.2 223.7 225.2 227.3 230.3 232.8 237.4 242.3 246.6 252.1 258.7 265.6 271.6 278.3 285.3 290.4 293.4 295.4 295.2 293 289.1 283 277.7 274.9 272.1 269.6 268.5 269.1 269.2 269.8 269.7 270.8 272.4 274.3 275.6 276.9 278.2 279.3 281.8 285.7 289.1 291 291.4 290.5 288.8 286.9 285 283 282.9 284.2 285.3 285.2 284 281.8 278.6 274.9 270.2 262.4 257.5 251.2 251.2 251.2 251.2 251.2 251.2 251.2 254.2 260.8 263.6 267.9 270.6 273.2 275.7 278 279 279.2 277.6 275.1 271.1 268 266 266 266 266 266 266 266 266 266 268.4 269.9 271.8 274.1 276.2 278.8 280.7
168.9 171.7 174.5 178.5 184.4 190.7 197.2 203.5 208.1 211.1 212.4 212.4 211.5 210 208.6 207.3 206.1 204.8 203.6 202.6 201.6 201 200.6 200.9 201.1 201.1 201.8 203.1 205.5 208.2 213 217 219.5 221.4 220.3 219.3 218.2 216.5 215.1 213.8 212.5 210.4 208.1 204.3 201.1 199.9 201.1 203.6 206.6 209.1 212.1 215.9 221.4 227.4 233 237.2 240.4 241.6 242.4 242.3 242 241.3 240.7 240.4 241.1 242.7 243.3 242.8 242.1 240.9 239.2 236.9 236.6 237.1 239.2 242.1 243.7 244.9 245.4 245 244.5 243.4 242.4 241.2 240 238.9 237.9 236.7 237.8 238.7 239.7 241.2 241.6 242 240.3 237 232.5 232.4 235.5 236.5 233.4 224.6 220.2 221.2 222.9 224.2 225.5 227.5 230.3 233.1 237.3 242.1 246.2 250.4 256.4 263.4 269.4 275.5 282 286.8 290.7 293.1 293.5 292.2 289.6 282.7 277.5 274.5 271.7 270.1 268.5 269.2 269.6 269.8 270.6 271.7 273 275.2 276.8 278.1 279.3 279.8 282.4 286 288.5 290.3 290.8 289.7 287 284.2 282.4 280.7 280.5 281.7 283.1 283.6 283 281 278.2 275 271.2 266.9 261.1 253.2 251.2 251.2 251.2 251.2 251.2 251.2 251.2 254.8 259.1 263.4 267 269.6 272.5 274.6 275.6 276.2 274.6 273.2 270.1 268.3 267.7 266 266 266 266 266 266 267.7 269.4 270.7 271.6 272.5 273.7 275.5 278.4 280.8
172 174.8 177.8 181.5 186.7 192 197.5 202.8 207.5 211.4 213.3 214.3 213.5 211.7 209.7 207.9 206.6 205.3 204 202.7 201.3 199.8 199.2 198.5 198.4 198.4 198.9 199.6 201.9 204.6 209.1 214 216.8 218.7 218.7 218 217.2 214.9 213.1 211.6 209.8 207.4 203.5 199.6 199.1 202.1 204.7 206.4 207.7 208.7 211.6 214.9 219.3 224.8 230 235.2 238.6 240.6 242.1 242.5 242.3 241.6 240.8 240.3 241 242.3 242.8 242.9 242.4 241.2 239.3 237 236.8 237.1 237.9 240.5 242.6 243.9 244.6 244.6 243.9 242.7 241.6 240.4 239.6 239.1 238 235.9 234.3 234.6 236 238.8 239.4 240.4 239.7 236.5 232.4 232.2 234.1 235.4 234.3 231.9 222.3 221.9 223.5 224.8 226.7 228.6 230.6 233.3 237.2 241.9 247.2 250.6 253 260.6 267.8 273.3 278.9 283.6 287.3 290 291.3 290.9 288.6 282.6 277.4 274.5 271.3 269.1 270.7 270.4 270.3 270.6 271.4 272.5 273.9 276.4 278.7 279.2 279.8 280.3 282.7 285.2 287.9 289.5 290.2 289.1 286.7 283.1 280.7 278.6 277.7 279.2 281.4 282 281.8 279.9 277.3 273.9 270.8 267.7 264 259.1 251.2 251.2 251.2 251.2 251.2 251.2 251.2 251.2 254.9 260 262.6 265.7 268.9 271.3 272.6 273.2 272.9 271.7 269 268.6 268.3 268 266 266 266 266 267.3 271.4 272.6 273.5 274.4 275.3 275.6 276.1 278.3 280.6
