ncols 200
nrows 83
xllcorner 320000
yllcorner 295750
cellsize 50
77.1 77.1 76.8 77.3 77.6 77.5 77.4 76.1 75.2 75.7 76.1 75.7 76 76.3 79 85 84.4 82.1 82.8 84.2 86.5 88.4 89 86.9 83.8 80.7 77.6 76.2 78.8 83.1 87.5 91.5 91.8 91.3 93.4 96.1 97.5 94.2 94.8 98.6 104.9 107.8 110.6 113 115.3 118.3 120 119.3 119.4 119.2 115.9 113.1 110.3 107.2 104.6 102 94.3 91.3 88.5 86.3 85 84.3 84 83.3 81.5 80.9 81.4 81.6 81.6 81.7 81.3 81.4 83.2 84.7 85.2 85.3 84.8 85.6 86.2 88.3 91.2 92.8 91.1 90.1 92.8 94.4 93.4 90.2 84.7 82.3 82.3 82.5 82.7 82.8 82.9 83 83.2 83.9 83.1 82.9 83.1 83.8 84.4 84 85.8 86.1 85.5 86.3 87 88.1 89.1 90.7 94.6 97.4 99.6 101 103.5 103.9 104.4 104.6 104.2 98.1 91.9 89.5 90.9 96.6 98.7 102.1 105.3 104.6 105.3 106.9 109.6 109.3 107.1 102 96.4 101.2 102.7 101.7 104.5 104.8 105.1 105.3 105.6 105.8 107.2 112.3 115.9 114 108.6 97 94.9 99.6 110.1 122.3 145.3 159.8 171.8 187.4 202.7 195 175.1 164 156.6 155.1 159 166.5 173.7 179.1 192.7 208.6 207.8 196.4 182.8 177.2 173.5 175.4 180.9 187.1 196.8 206.2 210.8 207.3 205.8 207.4 208.1 207.6 209.7 204.5 196.4 191.8 197.5 197.7 203.5 206.8 208.6 212.5 220.6 229.6
76.8 76.4 77 77.5 77.7 77.7 77.1 76 75.3 75.7 75.7 75.3 79.1 83.2 86 83.3 82.3 82.9 84.3 85.7 88.1 89.7 87.5 83.8 81 79.7 75.3 76.2 79.9 85 88.2 88.7 88.9 91.6 95.2 94.9 92.1 93.3 99.1 103.1 105.2 104.9 105.9 111.3 115.8 117 118.2 118.7 118.7 117.9 114.9 112 109.4 106.7 103.8 100.3 96.5 90.9 86.6 84.5 81.7 81.6 80.7 80.2 79.8 79.9 79.9 80.8 81.2 80.9 81 81.3 82.3 84.2 85.8 86.7 87.4 88.9 91.6 92.2 93.9 94.2 92.3 91.8 94.7 96.2 94.8 90 84.3 81.7 82.2 82.4 82.6 82.7 82.8 82.9 83 83.7 83.8 82.7 83.9 83.4 83.3 86.4 88.4 88.9 90.7 91.5 92.9 94 95 96.5 100.1 103.1 104.8 105.6 105.7 105.7 105.6 105.1 102.5 97.4 92.1 89.3 91.4 100.4 101.2 103 104.9 105.3 106.9 108.5 110 108.2 105.6 103 98.7 101.7 103 103.2 104.1 104.7 105 105.3 105.6 105.9 107.5 111.2 115.7 116.2 112.1 105.1 95 95.6 109.5 124.7 148.3 160.2 175.4 194.7 202 178.7 166.1 163 163.8 163.7 165 173 176.3 184.6 202.2 213.4 211.7 202.7 185.6 179.1 176.6 178.7 184.6 192.1 201.3 206.5 206.8 206.8 209.2 213.1 216.3 220.3 213.8 204 196.1 192.1 195.2 198.8 206.6 213 212.2 218.5 226.9 235
76.4 77.4 77.6 77.5 77.9 77.8 77 77 77.1 76.5 77.1 79.2 87.7 87.9 85 84 83.8 84.2 85.7 87.3 88.7 88 86.6 83.3 80.4 79.6 76.3 77.2 80.8 84.6 86 87.3 88.5 91.2 91 89.3 88.5 97.3 102 104.1 102.1 100.9 102.3 107.8 110.2 111.4 112.6 113.4 113.3 112.4 111 109 106.3 104.1 102.1 97.7 94.6 91.5 87 82.9 81.8 81.2 80.6 80 79.3 79.6 79.7 80.3 80.4 81 81.1 81.2 82.1 84.2 86.2 87.5 89.3 91.4 91.8 91.5 93 93.1 91.6 92.7 94.9 97.5 95.9 89.6 83.7 81.6 82 82.2 82.5 82.6 82.7 82.8 83 83.3 82.9 83.4 84 83.5 85.4 89.7 91.5 94 96.5 99.1 101.3 102 103.1 102.4 103.5 106 107.3 107.3 106.8 106.4 105.7 104.9 102.5 97.4 92.9 90.1 88.3 97.1 102 103.7 104.8 105.4 106.3 107.6 106.6 105.7 104.4 102.6 98.7 99 100.2 101.2 102.7 103.8 104.5 105.2 105.6 106.2 107.7 111.5 115.1 115.3 112.2 109 94.9 95.7 106 122.4 145.3 158.7 163.9 176 175.7 162.6 164.8 178.4 177 172.5 176.3 179.9 183.1 195.1 215.6 219.4 216.5 203.8 188.5 182.8 182.2 184.3 188.9 196 200.5 205.1 206.4 207.4 213.7 217.8 221.9 220.7 209.8 200.3 196.3 194.6 197.1 202.6 210.5 214 215.6 222.5 231.1 239.2
77.5 76.9 77.2 77.7 78 78 77.7 77.9 78.1 78 78.3 81.6 88.9 88.6 88.2 86.9 85.1 85.7 86 87.8 89.6 89.2 85.8 81.4 80.2 79.6 76.1 77.4 79.9 83.1 86.4 88.7 87.3 87.8 86.2 89.1 86.6 97.2 99.4 99.1 98.1 97 100.1 103.2 104.9 106.4 108.2 108.6 108.7 108.8 107.5 106 102.2 101 98.3 93.2 90.4 86.9 85.1 80.8 80.2 80.4 79.7 78.8 79.4 79.6 79.9 80.1 80.2 80.4 80.6 81 82.4 83.1 84.2 86.2 88 89.2 88.6 88.6 89.5 89.9 89 89.9 91.8 94.9 95.2 90.6 85.4 82 81.9 82.1 82.4 82.5 82.7 82.8 83 83.3 83.1 83.9 82.9 85.7 89.5 92.9 95.1 97.6 100.1 103.5 109 109.9 108.1 107.4 107.2 108.3 108.4 108 106.7 105.7 105 104.3 102.4 98.1 93.9 90.6 88.6 94.5 102.6 103.9 105.1 105.1 105 105.2 105.8 105.1 103.9 102.9 98.6 96.8 97.7 99.3 102.4 103.9 104.7 105.3 105.8 108.2 111.1 113.4 114.4 116 112.8 110 101.3 95.9 101 121.7 140.9 156.3 158.9 159.3 160.8 163.1 173.1 184.5 184.6 184.1 186.4 189.6 190.9 205.3 225.4 223.9 221.6 204.9 193.4 187.6 189.6 192.2 194.5 196.2 199.7 202.7 204.7 208.5 217 220.9 223.1 212.8 204.3 198.7 195.2 196.3 200.3 204.7 210.6 215 218.8 226.2 234.4 242.1
77.5 76.7 76.2 78.3 78.2 78.1 77.8 77.9 78.4 78.9 81 89.1 89.4 86.1 89.5 87.7 86.9 86.3 87.9 89.6 88.8 85.6 82.2 80.5 80.1 79.7 77.8 76.8 79 82.1 85.4 86.2 84.9 84 84.6 87.9 88.7 91.8 93.2 95.3 95.7 95.6 95.2 98 101 103.6 104.1 105.7 105.9 106.4 104.9 102.8 99.6 96.7 92.3 87 84.4 83.6 82.2 79.5 80.1 80 79.7 80 80.1 80 80.2 80.3 79.8 80 80.4 81 80.6 81.9 82 83.2 84.4 85.9 86 86.6 87.1 86.8 86.3 86.6 88.6 92.4 94.7 92.7 89.5 86.3 81.9 82.3 82.3 82.9 82.7 82.9 83 83.8 83.1 83.7 84.8 89.4 92.8 96.2 98.9 101.4 104.3 107.8 111.9 113.2 112 111.7 110.5 109.8 108.3 107 105.7 104.5 103.6 103.2 101.5 97.8 95.7 93.8 88.6 95.4 103.7 104.9 104.8 104.6 104.9 105.7 105.3 104.7 104.5 103.9 101.2 99.8 98.1 99 102.9 103.9 104.7 105.5 106.6 108.9 113.2 115.3 115.9 116.4 114.6 110.7 102.3 96.8 98.8 120.1 142.4 151.1 155.1 156.7 162.5 167.8 177.5 188.9 196.6 196.4 195.6 199 198 214.7 226.5 226.7 223.5 205 197.9 193.4 196.4 197 198 197.7 198.2 199.9 207.2 214.3 219.6 221.7 216.6 206.7 201.9 197.5 196.8 199.6 202.7 206.7 210.1 217.4 222.5 229.3 237.1 244
78.3 77.3 75.2 78.2 78.1 77.9 77.7 78.3 79.9 84.5 93.5 93.9 92.2 89.3 88.8 87.5 87.5 88.8 89.7 86.6 83.9 81.8 80.5 80.5 80.2 79.8 79.3 76.6 78 79.1 81.4 82.4 83.4 83.3 83.9 85.5 87 88.7 90.7 92.5 92.8 92.5 94.1 96.2 99 101.8 102.1 103.2 104 104.6 103.2 100.4 97.2 93.6 87.9 83.1 81 80.4 79.5 79.7 79.8 80.6 79.9 80 80 80.4 80.4 80.5 80.3 80.3 80.6 80.5 80.7 80.9 81.1 82 82.6 82.8 83.6 84.4 85.3 85.3 85.1 85.1 87.3 90.3 90.3 88.8 86.5 83.3 82.3 82.3 82.4 82.9 83.1 83.1 83.3 83.7 81.7 86 89.1 92 95.4 99.7 103.7 106.5 109.6 110.6 111.8 113.6 113.5 113 111.7 110.3 108.4 106.7 105.2 103.6 102.2 101.8 100.3 98.9 98.3 94.4 88.8 95 102.9 105 104.2 104.7 105.7 105.8 105.5 104.9 104.8 103.3 101.7 102 100 100.3 102.6 103.3 104.3 106.2 108.1 111.7 115.2 116.9 117.4 117.1 115.6 113.1 102.4 96.4 101.7 116.4 131.5 139.9 153.7 159.8 165.7 174.7 184.3 195.7 205.1 208.5 205.5 206.6 207.8 221.6 229.5 229 220.8 208.1 200.2 198 201.4 201.8 201.3 201.2 201.1 202.8 211.8 218.1 218.6 219.5 210.5 202.6 199.9 197.8 199 203.1 206.6 211.9 214.6 219.7 226.4 231.7 237.2 243.9
79.3 78.3 76.7 75.4 78 77.9 77.8 80 89.4 95.7 98.4 96 93.3 89.3 89.4 89.2 89.1 88 84.5 81.7 80.8 81 80.8 80.6 80.3 80 79.1 76.5 77.5 80.4 82 82.7 82.2 81.5 81.5 81.9 83.4 84.9 86.6 89.5 91.3 93.1 95.1 97 98.8 99.8 99.6 99.2 100.2 100.7 99 96.8 94.6 90.7 84.4 81 80 79.3 79.5 79.5 79.6 79.6 79.8 80 80.2 80.2 80.5 80.5 80.2 80.3 80.4 80.6 80.8 80.9 80.7 81.5 81.3 81.3 81.8 82.9 83 85.5 83.6 84.6 86.5 86 84.7 83.5 81.4 82.2 82.2 82.3 82.8 82.8 82.9 83.2 83.4 83.8 85.2 88.1 91.4 94.8 98.1 103.2 108.1 110.2 109.3 109.9 111.1 113 113.8 113.2 112.4 110.6 108.8 106.9 105.1 103.6 102.1 101.7 101.1 100.8 100.5 95.9 89.6 95.5 104.4 105.5 104.8 105.6 106.2 105.8 105.4 104.5 103.5 104.3 103.6 102.8 101.1 100 101.4 103.6 105.8 107.6 109.6 113 115.2 116.1 117 116.2 116.9 115.8 104.9 96.6 100.7 115.3 133 148.4 158 162.5 167.8 180.1 188.3 201.8 213.9 217.2 213.9 214.2 216.3 228.4 231.7 226.5 216.3 209.8 203.5 202.9 205.9 205.5 205 205.7 204.1 205.4 211.8 214.7 215.5 213.8 206.1 201.2 199.8 199.7 202.2 206.2 210.9 216.5 218.9 222.7 230 233.9 238.6 245.8
79.2 78.4 77.9 77.3 77.7 77.9 79.8 86.3 93.5 97.7 97 95 92.9 90.5 90.1 86.9 84.5 82.2 81 81 80.5 80.5 80.6 80.6 80.4 80 79.6 77.2 77.5 80.2 80.9 80.6 80.1 79.8 80.3 80.5 81 82.8 84.8 87.2 89.5 91.8 95.4 97.5 97.2 96.2 95.4 94.8 96.4 97.6 96.3 92.7 91.9 88.8 82.6 79.9 79.5 79.5 79.5 79.5 79.6 79.7 80 80.1 80.2 80.3 80.3 80.3 80.5 80.4 80.4 80.5 80.6 80.7 80.5 81.3 81.5 81.3 81.5 81.8 82.3 83.2 84.4 84.9 83.9 82.4 82 82.1 82.4 81.8 82.3 82.6 82.6 82.8 83 83.1 84 85.7 87.3 90.3 93.8 97.4 100.4 104.8 108.9 109.5 109.5 109.8 111.2 112.5 113.9 113.4 112.8 110.7 109 107.2 105.4 103.6 102.2 102 102.3 102.5 102.3 98.7 91.3 93 103.7 105.6 105.7 106.5 106.2 105.4 104.7 103.7 103.9 105.2 104.3 101.9 99.9 99.5 101.9 104.3 106.7 109.1 111 113.6 114.9 116.8 117.9 118.5 119.2 116.8 102.4 96.8 100.4 119.9 138.1 152.8 162.6 169.4 176.1 185.3 193.5 206.4 220.7 224.5 219.1 222.4 224.3 233.5 227.9 219.5 214.9 210.2 204.8 207.3 208.4 207.6 208.8 209.4 205 205.3 208.1 210.2 209.6 206.5 203.5 202.3 201.9 202.5 205.4 209.7 215.8 222.9 224.1 224 231.3 235.3 241.4 248.1
78.9 78.4 77.7 77.5 76.9 79.6 81.9 84.6 89.6 91 91 88.1 87.7 86.4 83 81.1 80.8 80.8 80.7 81 80.7 80.7 80.6 80.5 80.4 79.9 79.4 78.5 77.5 77.8 76.8 78.7 79.1 79.4 79.3 83.7 78.6 78.9 79.5 82.3 85.7 89.1 92.7 94.2 94.2 92 91.3 90.9 92.6 92.6 90.3 86.5 86.6 84.5 80.5 79.9 79.9 79.8 79.7 79.7 79.7 79.8 80.2 80.4 80.4 80.4 80.4 80.5 80.6 80.6 80.4 80.5 80.6 80.6 80.6 80.9 81.9 82.1 81.7 82 82.1 82.6 82.7 82.2 82.2 82.1 82.1 82.1 82.3 82.5 82.3 82.3 82.6 83.1 83.4 83.7 86.1 87.8 89 91.6 95.5 99 101.9 106.6 107.7 108.5 109.4 110.9 112 113.5 114.8 114.6 113.1 110.8 109 107.3 105.5 103.5 102.5 102.3 102.6 102.9 101.2 97.7 91.5 92 104.5 106.1 106.3 106.7 106 105.2 104 104.4 104.9 105 103.3 100.3 98.9 99.8 101.6 103.5 107.1 109.6 112.9 115.4 117.1 118.4 119.8 120.1 118.5 110.7 102.1 97.1 104.7 126.8 144.1 157.1 167.9 178.7 183.6 190.1 197.7 210 226.6 231 225.9 229.8 231.5 231.1 220.5 216.1 214.5 209.9 209.3 210.6 210 208.1 209.5 210.5 203.1 203.2 205 206.2 205.8 205.2 206.5 204.9 204.3 205.2 208.8 214 220.6 228.7 230.8 228.2 231.9 237.4 243.3 249.7
78.2 77.9 77.6 77.7 75.7 80.7 82 82.2 83.1 83.4 83.4 83.3 83.8 82.1 81.1 80.9 80.9 81.2 81.2 81.2 80.7 80.7 80.5 80.6 80.1 79.6 79.4 79.3 78.7 77.6 76.9 77.6 79 79 78.1 78.4 77.6 77.5 78 78.9 81.2 83.6 86 87.2 87.1 86.3 86.2 86.7 85.6 84.7 82.6 81.6 81.3 81.3 78.6 79.8 79.9 80 79.9 79.9 79.9 79.9 80.5 80.1 80.2 80.3 80.3 80.2 80.7 80.8 80.8 80.5 80.6 80.6 80.9 81.3 81.9 80.2 80.8 80.1 82.5 82.5 82.6 82.5 82.6 82.3 82.1 82.2 82.4 82.6 82.3 82.7 82.5 83.1 81.8 83.8 86.4 88.7 91.6 93.7 95.7 98 101.6 107.3 108.5 109.7 111.4 113.6 115.1 116.5 117.2 116.2 112.8 110.3 108 106.6 105.2 103.9 102.8 102.5 101.9 100.5 98.4 95.2 91.5 92.2 105.7 106 105.8 106 104.3 103 103.1 104.6 105.5 104.8 101.4 98.9 98.7 100 102.3 104.7 107.5 110.7 115.6 118.8 120 121 121.2 119.3 115.5 109.1 103.7 97.3 114.6 136 151.8 162.7 173.2 184.6 186.2 194.1 201.3 213.8 231 235.7 233 234.5 233.9 227.1 217.5 215.6 213.1 211.5 212.8 212.1 209.5 206.1 210 201.7 198.9 200.4 203.1 204.1 207.7 209.5 209.5 207.4 206.9 209 213.3 219.7 228.3 230.8 232.4 232.6 237.5 243.6 247.8 253.4
78.1 77.9 78.1 77.5 77.2 78 81.7 82 82 82.2 82.4 81.9 81.1 80.9 81.1 81.4 81 81.7 81 80.8 80.3 80.4 80.8 80.4 79.9 79.4 79.4 79.4 79.1 79 76.8 77.5 78.4 78.5 77.8 77.5 77.6 78.2 78.2 78 78.3 78.5 79.9 80.1 78.9 78.8 81 82 81.5 80.5 80.6 80.2 79.8 79.8 79.9 80.4 79.8 80.2 80.1 80.1 80.1 80.2 80.5 80.1 80.2 80.3 80.2 80.2 80.9 80.9 80.9 81.1 80.6 81 81.4 81.7 80 81.8 81.5 81.9 82.2 82.3 82.1 82.6 82.8 82.5 82.3 82.3 82.4 82.5 82.5 82.9 83.1 83.4 83.2 83.9 86.5 90.2 93.9 96.6 99.8 102.1 102.8 108 109.2 111.9 114.1 116.2 118.5 118.9 118.1 114.7 112 108.9 106.8 105.3 103.9 103.1 104.9 105 104.9 104.1 102.1 99.1 93.2 91.3 103.2 102.3 102.7 102.9 102.6 102.7 103.6 105.5 105.8 103.6 99.7 99.5 100.3 101.8 104.2 108.6 112.5 111.6 117 120 120.5 120.8 119.3 115.9 111.3 107.7 97.5 101 127.1 143.5 155.6 164.2 172.2 179.5 187.3 196.9 202.7 216.7 231.7 241.6 237.2 231.9 229 219.8 216.4 214.4 213 213.6 212.8 210.6 205.9 201.6 198.8 196.3 196.5 199.2 202.4 207.2 211.1 212.5 211.2 209.3 209.4 213.7 218.7 225.8 229.8 231.9 233.6 235.4 242.6 249.2 253.1 258.4
77.8 78 77.5 78 76.2 77 80.6 81.9 81.7 81.7 81.5 81.2 81.2 81 81.2 81.5 81.3 81 80.6 80.9 80.3 80.3 80.5 79.6 79.1 79.5 79.5 79.1 79.2 79.3 78.4 76.8 77.3 77.4 77.9 77.6 77.6 78 77.8 78.1 78.2 78.7 78.5 78.8 78.9 78.8 79.2 79.6 80.2 79.7 79.7 79.6 79.5 79.9 80.1 79.9 78.6 80.1 80 80.3 80.4 80.5 80.4 80.5 80.2 80.2 80.1 80.6 80.5 81 81 81.1 79.5 81.4 81.2 81.3 81.4 81.5 81.8 81.9 82 82.2 82.4 82.7 82.8 82.8 82.5 82.3 82.4 82.5 82.7 83.2 82.9 82.7 83.6 85.2 87.9 92 95.9 99.3 102.3 104.8 106.7 109 112.1 115.1 116.9 118 118.3 117 114.6 111.3 108.7 106.6 105.7 104.2 103.3 103.9 105.7 106.7 106.7 105 102.9 100.7 95.4 91.8 97.3 99.3 103.5 104.9 104.7 104 105.8 106.4 104.8 101.5 99.5 100 102.4 104.7 107.6 112.7 116.7 114.9 113.5 116.4 118.5 115.4 112.9 109.6 106.1 97.9 98.1 114.3 133.7 148.8 156.5 162.5 170 185.8 190.5 200 208.2 221.7 236.1 244.2 237.6 230.7 225.6 218.5 216 214.7 213.8 212.9 210.4 207.5 202.7 197.8 196.3 195.6 195.3 198.7 205.3 209.4 211.6 213.1 212.1 211.7 213 216.7 220.9 226.8 230 233.5 235.9 238.6 247 252.1 256.1 261.7
77.9 78.2 77.4 78.3 77.6 76.1 78.2 81.8 81.3 80.2 81.1 80.6 81.3 81.2 80.9 80.9 80.8 80.5 80.2 80.7 80.4 79.3 79.9 79 79.4 79.6 79.3 79.1 78.8 78.8 78.5 77.7 77.5 77.2 81.1 77.7 77.6 77.8 77.9 78 78.2 78.3 78 79.1 79.2 79.3 78.7 79.3 79.7 79.6 79.8 79.6 79.5 79.5 80.2 79.7 80.1 80 79.4 80.2 80.2 80.3 80.5 80.5 80.4 80.8 79.9 81 80.7 81.2 79.2 80.9 81.1 81.2 81.3 81 81 81.5 81.7 81.8 81.7 81.9 81.9 82.9 82.6 83 82.9 82.8 82.5 82.3 82.7 82.9 82.5 83.5 85.7 88.5 89.5 92.6 98 101.1 103.8 105.9 109 109.3 110.2 112 113.5 114.9 115 112.3 109.3 107.8 105.7 104.3 103.7 103.5 104 104.3 105.1 105.1 104.5 103.1 99.9 97.5 94.4 92.1 96.1 103.7 106 106.5 106.2 106 106.3 105.7 102.7 100.6 99.5 102.2 104.7 107.1 110.2 115 118.1 118.2 113.6 113.5 115.1 112.7 110.1 108.5 98 99.3 101.5 119.8 136.7 147.4 154.3 161.1 168.9 178.6 191 199.8 210.1 223.3 236.7 244.2 241.9 231.1 222.6 218.2 216.5 215.1 212.7 207.7 208.6 203.2 200.5 197.4 196.2 195.4 195 198 204.5 208.5 211.1 213.7 214.8 215.4 216 219.9 224 226.4 230.4 235 238.2 241.9 247.3 252.7 259 264.9
77.9 78.3 77.7 77.8 77.3 77.4 75 76.3 76.4 76.3 77.2 80.4 81.3 81 80.7 80.9 80.4 79.8 79.4 80.4 80.3 79.6 80.3 79.9 78.9 79.7 79.5 79.2 78.9 78.6 78.2 77.4 78 78 80.8 78 78 78 78.2 78.3 78.2 78.5 78.6 77.8 78.8 79.5 79.1 79.7 78.3 79.5 79.7 79.6 80.1 79.1 79.9 79.2 81.7 80.8 80.4 80.2 79.7 80.1 80.3 79.7 80.7 80.8 78.8 80.5 80.7 80.5 80.9 80.7 80.9 81 81.2 81.2 81.5 81.5 81.5 81.4 81.5 82 82.9 84 83.3 82.9 82.9 83.4 83.5 82.6 81.8 81.8 82.5 83.9 87 90.9 93.4 93.6 99.2 101.7 103.4 105.4 106.3 106 106 107 108 109.4 110 107.3 104.5 102.5 102.1 100.6 102.1 103.7 104.6 104.1 104.9 104.2 103.4 100.6 97.2 93.2 92.2 92.1 95.5 101 103.2 105.7 106.3 105.6 105.8 103.7 101.6 100.7 101.2 104.2 106.3 109 112.5 117.3 120.9 121 115.7 116.3 121.2 112.6 107.6 97.2 99 106.1 111.5 123.5 138.5 147.8 155.2 163.4 171.8 179.6 189.9 198.7 208.8 224.3 236.5 246.5 248.1 228.6 221.4 217.6 215 210.7 211.3 211.6 210.8 208.9 202.2 196.5 195.8 195.2 194.8 196.4 200.5 206.1 210.4 213.6 217 218.5 218.4 220 223.1 226.7 230.9 235.5 240.6 245.1 249.5 254.1 260.9 268.1
77.7 78.4 77.9 78.2 77.8 77.3 78 78 78.2 78.8 77.9 80.3 81 80.6 80.5 80.5 79.9 79.7 80 80.2 79.8 79.8 80.5 79.7 79.4 79.2 79 78.7 78.4 78.1 77.9 77.9 78 78.1 77.9 78.1 78.2 78.1 78.2 78.5 78.4 78.6 78.7 78.6 78.6 78.6 78.8 79.4 79.3 79.3 79.3 79.2 79.1 79.4 78.8 80.5 82.5 81.2 80.4 80 79.7 79.7 79.8 80.2 78.3 79.9 80.2 80.2 80.5 80.6 80.4 80.5 80.9 80.9 80.9 81.4 81.5 81.7 81.6 82.9 82.9 83.1 84.1 85 84.6 84.5 86.1 86.6 86.6 85.1 82.7 82.5 83.1 84.9 89.6 94.8 98.2 97.8 99.7 100.2 102.7 104 104 104.3 104.7 106.8 107.5 106.2 104.8 103.4 102.2 99.8 99.6 99.3 99.9 100 99.8 99.9 102.7 101.7 98.5 95.1 92.4 91.9 91.5 91.9 92.8 97.6 101.3 104.3 105.6 106.4 106 105.6 102.9 102.1 103.9 106.3 108.8 112.9 116.7 120.1 123.3 122.6 117 120.3 125.1 111.9 100.4 98.4 104.5 117.5 129.9 140.9 146.4 151.7 157.4 166.7 176.3 184 192.9 199.3 211 226.2 236.5 247.7 242.8 227.1 220.4 216.1 213.3 212.6 214.4 214.9 213.8 208.9 202.4 196.6 195.4 194.9 194.6 196.7 201.5 207.2 211.1 214.8 217.8 218.7 219.5 221.2 224 228.1 233.2 237.5 243.6 248 251.5 255.9 263.5 271
78.6 78.5 78.1 78 77.9 77.8 77.3 77.7 78.2 76.7 78.2 77.9 80.2 80.2 80.2 80 80.1 80.5 80.3 80.3 79.2 78.9 80.4 79.4 79.1 78.7 78.5 78.2 78 77.8 77.9 76.6 77.9 79.1 78.2 78.2 77.6 78.2 77.9 78.8 78.2 78.9 79 78.7 77.3 78.3 79.1 79.3 79.1 79.2 79.1 79 78.8 78.9 78.4 79.9 80.7 81 80.7 80 79.9 80.1 80.2 80.1 80.4 80 79.8 79.9 80 80.2 80.4 80.3 80.6 80.9 81.2 81.5 82 82.9 83.9 84.8 84.7 85.1 85 85.8 86.2 87.7 89.3 89.3 88.9 85.9 83.2 82.9 84.4 86.6 90.5 96.7 99.8 101.8 102.9 102.9 104.6 105.4 105.3 105.3 105.5 106.7 107.4 106.7 106.1 103.5 101.6 100.2 99.3 99.6 100.4 100.8 98.3 96.1 96.4 95.8 93.4 93.1 92.6 92.2 92 93.7 95 100.1 103.2 103.5 105.3 105.3 105.7 104.4 104.2 105.1 106.7 109.2 112.2 115.6 119.3 121.9 124 122.6 117.2 119.5 123 103.4 99.5 101.2 110.8 126.6 138.6 146.9 151.3 159.2 165.7 167.9 177.5 184.5 195.3 201.2 212.7 222.7 235.7 243.2 232.9 224.7 218.1 213.9 211.3 213.5 216.8 217.4 214.8 209.7 202.5 197.1 195 194.5 195 197.3 203.3 209.7 213.5 216.4 218.2 218.2 220.5 222.8 225.9 230.7 237.3 241.6 248 252.4 254.3 259.7 266.2 274
78.8 78.8 77.9 77.9 78 78 77.6 77.5 78 77.4 77.4 78.6 78.4 78.7 80.3 80.8 81 80.5 80.5 79.9 78.8 79.7 79.9 79.1 79 78.6 78 77.9 77.9 77.9 78 78.1 78 78.8 77.6 77.6 78.3 78.6 77.9 77.4 78.4 78.7 78.5 79 78.4 78.7 79 79.3 78.9 79 79 79.7 78.8 78.7 78.6 79.1 79.6 80.4 80.9 80.7 80 80 80.2 79.9 80.1 79.8 79.9 79.8 80 80.1 80.6 80 80.9 80.8 82.1 82.4 84.3 85.7 86.8 86.9 86.9 86.9 87 88.2 88.9 90.6 91.2 90.6 89.2 86.2 84.2 85.1 88 88.8 90.5 95.5 98 101.4 102.6 104.1 106.3 107 107 108 109.8 109.7 110.1 109.4 107.7 105 102.7 101.7 100.7 100.3 100.7 101.4 100 97.4 95.1 93.7 93.3 92.9 91.8 90.8 93.3 96.3 101.5 104.1 104 103.2 105.2 103.4 105 104.9 106.2 107.3 110.1 112.9 116.1 119.4 121.5 122.9 120.8 119.5 118.1 118.7 112.7 100.1 99.6 105.3 115 134.3 146.3 149.1 154.1 164.6 171.3 172.1 177.3 186.9 197 204.4 214.4 226.7 238.6 241.5 230.9 222.5 215.3 211.5 212 214 217.6 217.6 215 210.5 203 197.9 195.1 194.4 195.6 198.2 204.2 209.3 213.9 216.2 216.6 217.2 220.1 223.7 227.9 233.4 240 245.8 252.4 254.9 258.1 263.2 268.2 275.5
79.1 78.6 78.6 78.1 78 78.1 77.8 77.7 78 78.6 78.7 78.7 78.6 78.6 79.4 80.5 80.4 80.7 80.5 80 78.8 80.5 79.2 78.4 78.2 78.4 78.3 77.7 77.3 77.5 77.3 77.6 78.2 78.1 78 78.1 78.2 78.3 78.5 78.1 78.2 78.7 78.5 79 78.8 78.5 78.5 78.8 78.8 78.8 78.9 78.8 79.1 79.2 78.5 79 79.6 79.9 79.9 80.1 79.7 80.3 80.2 80 79.4 80 80.3 80 80.2 80.2 80.5 80.6 81.2 81.6 81.8 82.4 84.8 86.5 87.9 88.3 88.8 89.3 89.7 90.9 91.9 92.3 94.3 93.1 89.1 85.8 85.7 88 93.7 94.1 94.3 99 101.4 103.1 104.9 106.5 107.8 108.4 108.9 111.5 114.5 115.2 112.2 110.2 107.7 105 104.7 104 103 102.6 102.1 101.4 101.6 99.1 95.5 93.8 93.2 91.5 92.2 93.4 93.7 96 102.4 104.4 105.3 104.7 105.4 104.4 104.3 106.1 108.2 110.4 113.5 116.6 119.8 122.6 123.4 122.4 118.5 115.9 112.1 108.9 99.7 99.9 101.5 108.4 115.4 133.5 146.8 150.6 158.2 167.7 176.3 178.4 182.3 191 200.8 210.3 223.5 234.8 241.5 240.1 229.7 220.9 213.6 211 212.9 214.9 217.6 216.4 214.7 213.3 208.3 200 195.6 194.9 196.6 199.2 202.6 207.5 211.5 213.1 217 221.2 222.6 225.4 230.5 237 244.6 251 254.2 257.9 262.4 267.7 273.7 280.5
78.8 78.3 78.6 78.4 78.2 78.1 78.6 79 78.6 78.6 77.7 79 79 79.1 79.9 81.5 81.3 81.2 79.7 79.5 79 78.8 78.2 77.6 78.3 77.8 78 77.6 78 78 78.1 77.5 79.5 78.3 78 78.1 78.3 78.4 77.5 78.5 78.4 78.6 78.3 78.9 78.6 79 79.1 78.8 78.9 78.9 78.9 78.2 79.1 79.3 78.6 79.5 79.7 79.8 79.5 79.9 79.9 80 80.1 79.1 80.8 79.6 80.1 80.1 80 80.2 80.6 81.7 81.7 82.5 82.9 83.4 82.6 85.6 87.6 88.9 89.4 90.3 91.5 92.4 93.1 93.8 95.1 95.7 91 89.4 88.9 91 97.9 99.5 99.7 101.5 104.6 106.8 108.8 110.4 111.1 111 112 115.5 119.1 119.2 114.9 110.7 107.7 105.8 106.3 106.2 105.3 104.1 102.9 102.2 100.7 96.7 94.1 94.5 95.8 95.8 97 96.8 97.5 100.1 101 103.2 104.5 104.7 105.1 104.2 105.1 107.8 110.6 113.7 116.8 120 122.6 124.3 123.8 121.9 119.5 116.2 109.4 100.7 100.9 101.6 109.6 114.6 116.6 133.4 147.6 153.2 163.3 172 178.4 180.2 186.3 197.2 207.7 219.7 230.2 239.7 245.8 238.4 228.1 219.3 212.9 211.1 211.3 214 215.2 216 216.6 217.1 208.4 199.2 195.1 194.6 196.4 200.1 202.6 205.9 210.7 215.3 221.1 225.7 227.3 229 234.6 241.9 250.6 255.6 257.9 262.7 267.2 273.1 277.8 286
78.6 78 78.4 78.3 78.3 78.2 78.8 78.8 78.9 78.8 78.5 79 79 79.1 82.2 81.1 80.6 80.5 80.5 79.4 78.2 78.4 78.8 78.2 78.3 78 78.1 77.5 78.1 78 78.2 78.2 78.3 78.2 77.8 77.8 77.9 77.9 78.8 78.4 78.4 78.4 78.5 78.3 78.9 78.6 78.3 78.7 78.9 78.8 79 80.1 80.6 79.9 80.5 79.3 79.7 79.4 79.4 79.1 79.1 79.8 79.4 80 80.6 80.4 80.1 80.3 80.4 80.9 82.6 83.4 82.9 83.9 84.5 85.3 84.6 83.8 85.3 88.1 89.3 90.9 92.3 92.5 93 93.7 94.6 95.4 95.3 95.5 94.8 95 99.8 101.5 101.9 104.2 107.3 109.8 111.3 112.6 112.7 113.5 114.7 117.8 120.3 119 114.8 110.3 107.7 107.1 107.1 107 105.9 104.6 102.1 100.6 97.6 94.7 95.2 99.6 100.6 101.8 105.2 102.8 98.8 99.5 102.5 105.4 105.8 105 104.8 105 105.8 108.1 111.1 114.6 119 122.6 124.1 125.5 124.9 123 121 118.9 100.4 100.4 100.9 108.9 112.4 117.6 123.2 133.4 149 155.5 167.3 175.5 178.9 181 190.3 203.5 213.8 223.2 232.1 241.5 239.3 233.9 226.2 218.4 213.3 211.4 211.1 211.8 214.5 216.5 219.5 216.1 205.9 198.4 194.7 195 197.8 201.1 203.1 206.6 213.2 220.3 226.1 229.7 230.6 232.7 238.7 246.6 254.3 258.2 260.8 266.4 271.8 278 283.9 291.2
79.3 79.1 78.9 78.4 78.2 78.2 78.9 78.9 79 79.1 78.5 78.4 78.9 80.2 81.7 81.4 81 80.7 80.5 78.8 78.4 78.2 78.3 78.3 77.6 78.2 77.7 77.6 78 78 78.1 78.3 78.1 78.2 77.3 77.6 77.8 78.2 78.4 78.4 78.4 78.4 78.4 78.4 78.6 78.2 78.4 78.7 79 78.9 79.6 81.2 81.2 80.7 80.2 80.5 79.1 79.6 79.8 79.2 79.5 79.6 79.4 79.3 79.8 81.2 80.2 80.3 80.5 82.7 85.2 85.7 85.9 86.2 86.4 86.5 86.3 85.4 84.7 86.8 87.5 88.4 90.1 91.8 93.8 94 95 97.1 98.2 99.3 98.9 98.4 100.9 102.2 103.3 107.1 109.8 112.7 113.8 114.7 114.9 115 115.4 116.9 118.9 116.3 112.8 108.8 107.2 107.4 107.7 108.1 106.5 104.8 102 98.3 95.7 95.9 98.3 103.4 103.8 104.4 106.7 106.2 100.6 100.7 104.9 106.6 106.1 105.5 105.3 105.7 106.6 108.4 112.2 116.6 121.1 124.7 126.7 126 124.5 123.6 122 112.1 99.7 101.3 101.6 110.3 118.4 122.7 130.5 134 146.7 154.9 165.9 174.2 178.3 183.2 195.1 208.9 218.1 226 233.3 244 237.3 230.9 224.1 218.4 213.7 211.1 211.1 212 215.3 217.3 219.8 210.8 202.8 197.4 194.5 195.2 198.7 200 202.8 209.9 219.1 227.2 232.7 234.4 235.9 238.4 245.6 256.8 259.9 261 265 269.7 274.7 281.7 289.2 300.2
79.3 79.4 79.4 78.5 78.4 78.6 78.7 78.7 78.8 77.3 78.9 78.4 79.3 80.2 81.3 81.9 81.4 79.8 78.8 78.8 78.7 78.5 78.5 78.6 78.3 78.1 77.9 77.8 78.1 78.2 79.9 77.5 77.6 77.8 78 77.8 78 78.2 78.4 78.5 78.5 78.5 78.5 78.1 78.3 78.7 78.8 78.3 77.8 79 79.9 79.8 80.3 80.2 80.4 80.5 79.9 79.7 79.9 79.7 79.9 79.8 79.6 79.8 79.8 80.8 79.9 80.2 81.4 83.7 86.4 86.9 87.7 88.3 89 89.4 88 86 85.5 86.4 87.2 89.6 92.1 94.8 96.8 96.3 97.6 98.7 98.7 99.9 100.9 101.6 101.3 102.4 105.4 109.3 112.7 114.9 116.4 116.9 116.7 116.6 116.8 116.3 116.5 113.8 111.3 108 107 106.7 108.4 109.2 106.9 104.2 101.2 97.4 94.6 95.8 98.4 104.7 104.3 104.8 107.2 107.4 103.5 101.3 106 106.8 106.4 106.9 106.4 106.5 107.5 109.9 114.5 119.2 123.6 126.9 127.3 125.8 124 123.5 121.3 106.5 100.5 101.2 107.9 114.2 124.6 132.4 136.2 141.4 149.7 156 165.1 174.4 178.6 185.6 199.2 212.6 221.6 229.7 237.3 244.5 237.1 230.2 222.8 217.6 214 211.2 211.4 214.1 216.7 216.8 215.1 206.3 199.8 196.9 194.6 194.9 197 200.2 206.1 218.4 226.6 233.6 238.1 240.9 241.9 243.4 246.2 253 256.8 260.6 266.5 272.6 277.8 287.8 297.3 307.1
80.3 79.2 79 79.3 79.2 78.5 78.7 78.6 78.6 79 78.3 78.7 79.2 79.9 80.7 79.9 79.6 79.1 78.6 78.6 78.8 78.7 78.7 78.7 78.5 78.3 78 77.8 77.6 81.9 77.7 78 77.7 77.6 78.2 78.7 78.8 78.4 77.9 78.7 78.8 78.8 78.8 78.7 78.6 78.4 78.3 78 77.8 78.5 79.8 80.2 80.2 80.5 80.6 80.2 79.9 79.8 79.8 80.4 80.4 80 80.3 80.2 81.1 81 80.9 81 82.7 85.1 86.5 88.3 90 91.8 92.5 92 89.6 87 86.8 87.8 89.5 92.5 95 97 98 96.8 97.5 97.5 98.3 99.8 100.6 100.6 101.4 104.3 109.1 113.7 115.7 117.7 117.1 116.9 116.7 116.7 116.3 115.4 114.5 112.8 110.4 108 106.6 106.4 108.4 109 106.5 102.1 99.5 97 95 95.7 98.2 105.3 105.7 105.1 107.5 108.9 104.7 103.3 106.2 107.6 107.3 108.1 107.9 107.7 108.6 111.9 117 122 126 127.5 126.1 124.5 124 124.3 119.8 103 101.7 104.2 112.7 117.2 131.1 138.3 143 147.8 152.8 157.5 165.3 175.7 179.7 187.9 199.3 211.5 220.6 229.1 239.7 252.5 238.4 229.9 222.4 216.3 213.2 211.7 213.2 215.4 214.3 212.3 208.5 200.4 196.6 195.5 194.2 196.5 198.9 202.7 217 228.8 236.5 239.8 242.5 246.9 246.7 246.6 247.4 250.5 254.9 259.5 265.5 271.9 278.2 289.7 301.7 310.5
79.6 79.9 80 79.9 79.3 78.5 79 78.9 78.6 79 79.1 78.7 79.7 80.3 80.9 80.3 79.3 78.9 78.9 78.4 78.6 78.1 78 78.5 78.2 78 77.8 77.8 81.1 77.9 77.6 77.7 77.7 77.5 78.8 78.4 78.9 79 79 78.8 79 79.2 78.7 78.8 78.9 78.8 78.3 78.8 78.5 79 80.3 80.2 79.5 80.1 81.4 81.8 81.8 80.7 80.5 80.3 80.8 80.6 82 83.4 84 83.4 81.5 83.1 85.6 88.1 89.7 92.6 95.1 95.4 95.1 93.2 89.9 86.6 89 90.4 91.5 95.9 97.2 98.4 98.9 98.4 98.7 98.7 99.4 100.1 100.9 101.7 104.5 109.2 114.2 117.1 118.2 117.5 117.1 116.8 116.8 116.3 115.6 115 113.1 112.1 110.8 108.3 106.9 107.3 108.5 108.9 107.6 102.6 98.4 95.9 95.5 96.3 97.8 100.5 105.6 105.7 107.8 107.1 107.2 107.6 108 108.2 108.4 108.6 108.1 108.3 109.9 114.7 121.1 124.9 128.6 127.3 125.3 123.4 124.4 124.8 114.4 102.4 101 102.9 111 118.5 133.9 141.8 148.5 153 157.2 161.8 164.9 170.4 177.1 186.1 196.9 206.8 215.7 225.8 238.4 248.3 235.3 226.6 219.7 214.9 213.2 213.1 213.6 212.8 210.6 206.4 201.8 195.7 193.4 194.3 194.9 198 202 215.3 227.9 238.2 239.5 242 245.8 250.1 249.1 247.9 246.4 248.5 251.8 257.1 261.6 268.4 276.7 290.3 304 315.6
79.6 79.7 79.3 79.2 79.7 78.6 78.9 79 78.7 78.9 78.8 79.6 77.5 81 81 80.3 79.9 79.7 78.9 78.3 78.6 78.9 78.2 78.2 78.1 77.7 77.4 78.5 77.7 77.7 77.4 77.5 77.9 79 79 79.1 78.8 79.2 79.3 78.7 78.9 79.3 79.3 79.4 79.1 79.1 79.1 78.6 78.4 79.5 80.3 80.2 79.2 80 81.4 83.3 82.5 81.2 81.4 81.5 81.4 82.6 84.8 85.9 85.3 83.6 83.3 85.7 89.2 91.8 92.9 94.7 95.5 96.6 95.3 93.3 88.9 90.3 93 96.3 95.6 98.9 99.1 99.9 100.3 101.4 102.8 100.2 100.6 102.3 102.9 103.1 107.7 113.4 116.9 118.2 118.1 116 115.6 115.3 115.6 115.6 115 114.2 112.1 110.8 109.8 108.8 108 109.1 109.6 109.6 106.4 103 98.5 95.7 95.5 97.6 97.7 97.3 104.2 105.9 106.4 106.6 107.7 107.6 107.7 108.2 109.7 110.5 109.2 109.1 112.6 119.2 126.1 129.5 128.6 126.4 124 124 125.4 124.8 109.4 101.9 101.8 107.3 112.9 121.5 138.1 146.9 152.6 156.8 161.2 164.9 170.3 175.2 180.2 189.3 199.7 205.9 211.4 220.9 237 247.1 234 224.1 217.7 214.5 214.8 213.9 212.7 209.7 206.4 200.9 195.4 192.5 193 193.7 195.6 201.1 207.6 222.2 232.6 235.2 238.5 241.9 249.2 249.2 248.7 244.6 243.8 246.3 250.6 256.5 259.7 263.5 273.4 285.8 301.9 309.8
79.9 80.2 79.5 79.2 79 78.8 78.6 79.1 78.7 78.9 78.9 78.9 79 77.7 79.1 80.7 80.1 79.6 78.9 79.3 78.7 78.6 78.1 77.8 77.5 77.6 79 78.4 78.1 78.6 78.6 78.3 78.5 78.7 79.2 79.3 79.3 79.4 78.8 79.3 79.3 79.5 79.5 79.3 79.2 78.9 79.5 80.1 78.9 79.3 79.5 80.4 80.8 81.4 82.5 84.2 83.3 82.2 81.7 81.6 82.6 84.6 86.4 84.9 85 84 85.9 88.1 91.1 93.5 95.1 96.3 96.1 96.1 95 92.7 89.3 92.8 95.9 98 98.6 99.4 99.5 100.8 100.6 101.8 101.7 101.3 102.5 104 104 104.8 109.8 114.5 117.4 117.3 116.7 115.7 115 114.2 114.6 114.8 113.8 112.8 111.3 110.2 108.6 107.6 106.6 108.5 109.5 106.7 105 102.3 98.9 95.9 97.5 99.8 101.8 97.9 99.4 107 106.8 107.6 107.6 107.8 109 108.9 110.7 112.4 111.5 110.9 116.8 123.4 128.5 128.7 126.7 124.6 122.9 124.6 126 124.6 112 101.8 101.5 112.1 118.6 121.4 140.4 149.9 155.7 160.6 165.5 170.3 173.7 179.5 186.5 194.4 199.4 205.5 209.7 218.8 237.4 238.9 231.4 220.4 215.4 214.3 215.1 214.9 211.6 207.7 202.7 197.4 192 191.9 192.6 193.4 197.1 204.5 212.6 224.2 232 233.3 235.1 240.8 245.7 245.9 244.4 240 241.5 246.5 255.3 263 269.9 272.5 270.2 274.2 277.2 285.4
80.2 80.1 79.7 79.4 79.2 79.4 79.3 78 79 78.9 79 79.1 79.2 79.1 79.3 78.4 80 79.1 79.4 80.4 79.5 79.1 78.8 77.9 77.8 79.1 79.6 79.5 79.9 80.2 79.8 79.2 79.5 78.8 79 79.5 79.5 79.6 79.4 78.4 79.2 79.1 79.7 79.7 81.4 82.2 83.9 84.1 81.1 80.4 82.4 83.2 83 83.2 83.9 85.6 85.5 82.9 82.5 81.6 82.4 82.5 84.5 84.6 85 83.8 85.7 89.8 93.4 95.6 96.5 96.5 95.6 96 94.5 91.5 90.9 94.8 97 99.1 100.3 100.1 99.4 99 99.9 100.5 101.1 101.6 102.6 103.8 104.5 106.3 110.2 113.4 116.2 117.4 117.9 116.4 115.3 114.4 114.4 113.4 112.5 111.1 110.5 109.8 108.3 105.8 103.7 105.3 104.7 103 100.8 99.7 97.9 96 100 103.1 104.9 101.1 99.8 106.9 108 109 108.7 108.2 109.1 109.3 111.5 113.4 113.1 115.2 120.2 126.3 129.1 126.9 124.6 122.8 122.9 125.1 126.2 124.7 112.4 101 101.5 118.8 122.8 126.3 132.4 148.3 157.9 163.3 169 176.1 180.3 185.4 191.3 193.4 198.2 202.8 208.1 220.1 231 229.6 223.7 215 210.9 212.2 214.5 219.1 213.7 205.1 199.9 194.6 192.2 191.2 192.1 193.7 199 206.9 214.8 223.6 226 229.2 235.2 240.5 241.5 240.8 235.9 237.8 240.8 248.5 258 267.1 274.7 287.7 285.6 281.1 281.4 285.5
80.4 80 79.8 79.7 79.6 79.6 79.7 79.5 79.5 79 79.2 79.3 79.2 79.4 79.1 78.7 78.1 79.6 79.4 80.3 80 79.4 79.6 79 80.2 82.1 81.4 81.5 81.8 81 80.5 79.7 79.5 78.8 79.1 79.5 79.7 79.8 78.7 79.1 79.5 79.8 79.7 80.4 85.9 87.3 87.1 86.8 85.3 85.2 86.2 86.4 85.3 85 86 86.7 87.3 84.4 83.2 82.2 82.8 82.8 83.7 85.2 85.2 85.5 86.7 90.2 93.3 94.8 95.7 95.1 94.7 94.7 93 91.6 93.8 96.2 98.7 101 101.1 101 100.2 99.6 101.2 101.2 101.7 102 102.8 103.5 105.3 107.4 112 116.4 119.6 120.2 119.1 116.8 116.2 114.4 112.9 112 111.1 110.4 109.8 109.1 107.2 104 105 105.2 104.3 103.9 102.5 100.6 98.5 98.2 102.6 106.1 106.6 98.7 103.7 108.3 109.5 109.6 108.8 108.6 109.4 112.1 114.8 116.5 118 119.7 123.7 127.8 126.2 124.5 123.2 123 124.1 125.6 126 123.2 100.6 101.9 102.2 119.5 124.9 133.9 138.2 137 160.7 166 171.7 179.5 190.3 191 192.5 195 197 202 212.4 223.6 226.8 226.5 218.7 210.2 207.6 209.3 214.2 219.1 212.4 204.2 197.4 193.6 190.6 190.8 192.3 194.7 200.4 207.4 214.1 219.7 221.4 224.5 231.7 235.9 236.1 234.6 231.7 236.4 243 251 260.7 270.9 280.4 294.8 301.7 304.1 295.6 293.6
81.2 80.2 79.7 79.8 78.4 79.8 79.9 79.3 79.7 79.8 79.4 79.5 79.5 79.1 78.8 79.5 77.1 79.2 79.3 79.4 79.5 80.2 81 82.9 85.3 86.5 87.8 88.1 87.1 83.6 81.8 81.3 80 79.7 79.8 80.1 80.2 80.1 79.9 79.7 79.8 79.8 80.2 83.2 87.1 87.9 88.5 91 90.6 90.2 89.6 88.7 87.4 87.8 87.3 87.1 88.3 84.7 83.2 83.2 83.3 83.2 83.4 83.6 83.1 84 84.7 88.8 92.7 94.6 95.6 94.7 94.6 93.5 92.2 93.5 97.6 99.3 101.9 103.1 101.1 101.7 101.4 102 102.9 102.8 102.2 102.6 103.3 104.4 106.4 110.3 114.7 120.7 122.8 121.8 118.9 116.8 114.9 112.9 111.7 111.4 111.1 110.8 110.2 109.6 105.9 105.3 107.7 107.9 106.8 104.8 102.7 101.2 99.1 99.5 104.7 108.1 101.2 99.4 106.8 108.7 109.8 109 108.8 109.9 110.5 114.6 117.5 120.8 122.9 124.7 126.7 127.9 126.5 124.8 123 123.7 125.6 127.3 127 101.7 101.8 102.5 107.9 120.3 128.7 138.6 145.7 142.3 155 168.1 173.2 183.3 194.3 193 191.7 193.8 196.3 204.2 212.3 222.4 227.3 224.4 215.1 206.4 204.5 206.7 211.2 214.2 208.3 201.1 195.4 190.8 190.5 190.8 192.5 195.4 200.5 206.7 212.9 218.5 220.9 222.4 228.5 230 230.5 230.2 232.5 237.4 246.3 254.7 265.1 274.5 287.2 298.7 309.2 321.6 321.5 316.6
80.6 79.7 79.9 79.9 79.6 79.9 79.9 79.2 79.5 79.6 79.7 79.6 79.3 79 79.3 79.5 78 78.8 78.8 80.5 80.6 81.4 83.1 85.4 90.7 94.5 100.3 97.3 94.4 90.1 85.6 82.9 81.3 80.8 81.3 83.1 85.2 84 82.2 79.9 80.2 80.5 80.8 85.8 87.5 88.5 90.4 93.3 92.6 93.4 92.9 93 91.9 91.9 90.3 89.6 87.2 83.7 84.3 84.4 83.9 83.8 84.7 86.3 85 85.5 88.1 92.2 95.2 96.7 97.7 96.6 96.3 96.1 94.4 96.4 99.5 100.9 101.7 101.7 100.7 102.4 103.4 104.8 104.7 103.7 102.2 102.8 103.8 106.1 109.4 112.8 117.6 124.4 123.1 119.6 116.6 114.7 113.6 112.3 111.7 111.5 111.3 111 110.7 108.4 105.3 108.1 108.6 108.3 107.1 106.1 105.1 102.2 100.7 99.5 106.8 107.9 103 99.4 104.3 108.9 109.3 109.1 109.1 110.6 111.7 115.7 120.3 124.2 127.1 129.4 131.1 129.6 126.5 124 122.4 123.9 125.9 127.9 121.7 101.9 102.5 103.1 116.4 123 129.3 139.7 149.6 148.4 153.7 171.4 176.9 188.3 193.6 190.8 189.5 191.7 196.1 205.5 216.4 230.4 230 221.6 212 204.5 201.5 204.4 208.7 211.2 204.2 199.8 194.8 190.8 190.7 191.5 193.3 196.4 202.7 209.4 215.9 221.2 219.7 218.9 223.3 226.9 225.5 229.5 234.2 239.8 248.3 257.6 269.2 278.8 292.3 302.3 316.9 326.8 327.1 326.1
80.2 80.4 80.6 80.3 79.9 79.5 79.2 80.1 79.9 80.4 80.1 79.7 79.3 79 79.5 78.7 77.9 79.6 81.2 81.5 83.2 83.6 85.8 90.4 97.3 104.1 107 104.1 100.1 96.1 91.6 86.5 85.7 84.4 86 89.7 93.3 92.4 86.9 80.6 80.5 80.9 81.7 85.4 87.5 88.8 91.8 93.2 94.8 94.5 95.6 95.8 94.6 94.1 92.1 89.7 87.5 85.2 84.3 85 84.6 85.2 86.3 87.1 88.2 89 90.5 93.3 96 97.8 99.6 100 100 99.6 97.3 95 98.7 100.1 100.4 100.8 101.2 103 104.8 105.6 105 103.2 103.3 104 106.4 109.9 112.2 116.9 122.2 123.5 121.5 118.2 114.4 112.6 111.8 110.9 111.4 111.6 111.3 111.1 110.9 108.2 107.9 109.4 109.6 109.6 110.2 109.6 108.3 105 103.9 103.2 104.2 108.5 107.3 102.2 101.4 107.6 109.1 109.8 109.6 111 113.6 119.3 124.5 128.1 131.4 133.3 132.4 129.6 126 123.2 121.7 123.2 125.3 127 117 103 102.6 102.8 116.1 124.4 133 147.4 154.4 154.6 155.8 165.7 177.1 189.6 189.3 187 188.8 192 199.9 212.1 225.5 236.5 226 216 207.3 201.8 199 200.5 204 205.4 203.1 198.6 194.3 191 192 193.3 195 197.1 203.7 210.6 215.4 215.1 215.1 219.3 222.7 223.8 225.3 231.1 235.7 240.9 248.4 257.6 271.4 282 295.9 308.6 324.3 330.9 331.9 333.3
80.9 80.2 79 79.8 80.9 80 80.3 80.3 79.9 80.3 80.2 79.8 79.3 79.2 79.4 77.2 81.1 81.2 82.8 83.5 85.9 86.5 87.8 92.1 99.7 106.8 107.7 106.6 102.9 98.9 93.7 93.8 92.5 91.7 92.5 97.4 98.8 94.7 88.1 82.6 81.1 81 82 83.7 86.1 89.4 92.8 93.9 95.4 95.2 94.2 93.4 91.8 91.6 90.1 88 86.5 85.8 85.2 85.1 85.2 87.9 90 91.8 93.2 94.2 96.4 97.3 97.9 98.7 100.2 100.6 100.6 99.1 97.2 97.2 100.3 100.3 100 101.5 103.2 104.9 104.6 104.2 103.4 103 104.6 106 109 112.4 115 119.4 121.9 124 120.7 116.8 112.9 111.6 110.3 109.7 110.1 110.8 111.5 111.2 111.2 108.4 107.9 109.7 110.4 110.4 110.3 109.9 109.7 108.5 108.4 105.7 104.4 109.8 109.8 107.7 100.3 105.1 108 110.1 111.8 112.5 117.1 123.5 129.4 134.4 136.3 134.8 132.3 129.2 125.5 123.2 121.1 122.8 126 126 118.7 104.7 103.2 105.7 116.7 127.5 140.2 152.6 158.7 162.3 174.8 173.3 178.2 182.4 182.3 187 190.8 195.4 202.7 215.5 226.3 229.1 221 212.8 204.4 199.6 196.1 197.4 200.2 202.5 201.7 197.9 194.2 191.4 192.4 194.3 196.8 199.1 202.8 207.4 210.2 217.4 220.6 221.9 224.2 224.4 227.8 232.4 236.9 243 250.8 258.7 271.8 285.6 298.7 314.4 327.2 331.4 332.7 336.4
80.8 80.4 79.8 79.7 78.4 80.5 80.1 79.7 79.7 80.3 79.9 79.8 79.3 79.7 80.3 83.4 82.9 83.1 85.2 86.2 87.8 88.9 90.3 94.5 101.9 109.6 110.3 108.5 105.7 102.5 101.3 100.8 99.4 97.8 96.7 98.9 97.9 93.4 88.1 84.1 81.8 81.3 82 82.3 83.2 86 89.2 92.1 91.8 91.7 91.6 91.2 90.6 90.5 89.3 88 87.4 87 84.6 85.6 85.9 89 91.6 92.8 93.8 95.5 96.7 99.7 99.8 99 99.6 100.2 99.7 98.4 97.7 97.2 100 100.8 101.8 103.9 105.2 106.4 106.1 104.9 103.8 103.5 104.9 107.9 111.1 114.8 117.7 120.2 120.7 121.1 118.4 115.1 112 110.7 109.7 109 108.9 109.6 110.2 110.6 109.3 108.3 108.9 109.8 109.8 110 110 109.8 109.7 109.8 110.2 103.5 108 110.1 110.2 109.8 100.9 101 107.2 111.5 112.5 114.8 120.3 125.7 131.2 135.9 135.9 132.4 130.1 127.9 125.5 123.2 120.8 122.8 125.1 123.8 120.4 107.4 104 106 114 130.7 147.5 158.2 162.5 168.7 180.4 184.4 189.7 187 188.2 191.1 195.9 200 209.2 219.6 225.1 226 219.7 211.7 202.6 197.4 194.3 195.9 198.1 198.9 198.9 197.3 194.1 191.5 192.8 195.6 198 200.6 203.4 209.5 214.9 220.2 222.9 223.6 223.9 225.2 227.9 232.7 238.3 245.5 254.7 263.8 275.2 289.7 303.8 317.1 326.1 328 329.2 337.8
80.9 80.5 80 80.4 78.3 78.6 79.4 80.3 80.2 79.7 78.4 78.8 80.1 81.5 84.2 84.7 85.4 85.7 87.7 89.8 92.3 93.8 97.5 104.9 110.7 114.2 114.9 112.2 110 107.9 107.8 106.4 103.9 101.5 101.1 101.2 100.3 97.5 93.4 89.2 87.4 87.3 85 83.8 83.3 83.2 84.6 87.9 90.4 90.8 91.7 92.3 92.9 93.4 92.9 91.5 90.1 88.4 87.2 87.1 88.8 91.9 92.8 93.4 94.1 96.1 97.5 98 98.2 98.4 100.3 100 98.9 99.4 98.8 97.4 97.7 100 101.2 103.4 107.4 107.3 106.7 105.3 104.5 104.4 105.9 108.9 112 114.2 117.1 119.3 119.6 118.6 114.4 111.8 110.5 110.3 109.7 108.9 109.1 108.5 108.8 108.8 109.4 110 110.6 111.4 111.6 112.3 111.9 111.7 110.9 111.1 105.6 106.8 110.5 110.6 110.5 110 105.4 101.4 102.5 112 114.8 116.4 119.7 124.1 129.8 134 133.7 129.7 127.2 124.6 122.3 120.3 119.1 118.3 120.8 113.4 109.4 107.2 104.7 104.6 106.8 128.1 149.4 160.8 163.8 170.1 181.7 190.2 190.4 187.7 189.4 194.9 201.1 208 223.5 228.2 228.8 226.8 218.6 209 199.9 195.4 193 195.2 195.1 196.8 199.2 195.1 190.5 191 192.2 195.3 198.6 201.9 205.2 211.3 216.2 221.7 225 222.9 222.5 225.9 228.7 233 240.4 249.8 259.8 268.8 281.9 294.7 311.9 322.1 317.6 316.4 324.4 338.9
80.2 80.7 80.4 80.3 78.5 78.6 79.7 77.1 84.1 85.3 85.9 85.7 85.4 85.7 85.6 86.8 88.5 90.1 91.9 93.7 96.3 100.7 107.1 113.3 119.6 122.2 119.8 116.6 111.5 111.6 112.1 110.6 108.3 108.5 107.7 107.8 106.4 103.3 99.8 95.7 91 90.8 91 89.3 88.2 86.5 84 86.7 90 90.3 91 91.5 92.3 92.2 91.8 90.9 89.1 88.9 87.8 87.2 89.1 93.5 94.8 95.1 95.1 96.2 96.5 97.2 96.8 97.5 99.1 99.2 99 99.4 100.4 98.9 98.3 99.2 99.7 102.9 105.6 107.4 106.1 105.8 105.2 105.4 107.5 110.2 112.5 114.3 115.1 117.5 117.9 115 112.5 110.5 111.1 110 110.2 109.8 109.5 109 109.1 110.8 111.2 111.6 113.3 114.9 115.9 115.8 114.8 113.8 112.3 107.4 106.9 111.5 111 110.8 110.8 110.5 108 106.8 102.5 102.1 110.7 116.6 120.8 125.1 129.7 132.3 131.4 128.3 125.9 124 122.4 120.1 119.1 118.4 118.6 122.5 124.2 117.5 106.9 105.3 104.3 120.9 142.6 159.6 165.2 174.2 186.4 189.4 188.6 188.7 190.3 198.8 205.3 214.1 228.2 234.4 234.8 227.9 218.5 209.3 200 194 191.6 192 191.4 195.8 198.4 191.2 188.6 191.3 192.2 195.6 198.5 202.6 206.5 212.6 217.5 228.3 222.2 220.1 222.1 225.8 229.5 237 245 254.3 265.1 276.5 290 301.7 314.2 313.9 304.7 309.1 326.2 338.2
81.8 81.1 81.1 81.9 82.9 85 86.4 86.1 86.6 86.2 86.4 86.8 87.2 88.5 90.6 93.3 90.6 94.2 96.9 99.6 102.7 109.9 117.9 124.8 128.4 127.5 124.1 121.1 117.7 117.5 116.4 117.6 117.4 114.5 113.5 110 106.7 102.6 98.1 94.3 90.8 90.7 91.1 90.6 88.5 86.8 84.9 86.2 89.2 89.9 89.7 89.4 89.5 89.7 89 88.3 87.7 87.6 87.9 87.7 89 91.5 93.1 95.2 96.8 98.2 98.4 97.1 96.9 96.7 97.6 98.7 98.8 100 101.1 99.5 99 99.5 100.3 101.9 103.2 104.3 104.8 105.3 106.5 108.2 110.3 113.3 116.3 117.5 116.5 116.5 115.2 113 111.9 111.5 111.5 111.7 110.8 110 110 110.5 112.2 112.6 113.9 115.9 117.6 118.9 118.9 116.3 113 110.3 107.8 107.7 111 111.7 111.4 110.9 110.9 111.2 110.9 110.9 109.2 103.7 105.1 114.1 119.2 124.3 128.3 130 129.5 128.2 127.3 126.6 125.5 121.2 120.2 120.9 123.6 125.6 125.9 121 114.6 107.9 104.6 109.4 133 157.3 163.8 174.4 187.1 191.5 189.7 189.8 191.9 201.2 208.3 214.1 225.6 243.3 239.7 224.4 214.4 206 198.6 194 191.3 189.3 188.3 192.3 194.5 187 190.7 194.8 196.4 195.8 198 203.4 207.9 213.3 219.6 230.2 216.8 216.9 221.2 225 231.4 240.7 250.1 258.9 268.9 282.9 295.4 310.5 312.6 300.4 295.9 313.7 330.9 328.5
85.8 83.8 84.3 84.8 84.9 85.9 86.7 87.1 86.8 87.8 88.7 90.2 93.3 95.2 96.6 95 94.9 98.7 102.6 107 113.9 122.5 127.1 129.9 131.4 131.1 129.2 127.3 125.2 123.1 122.7 120.4 117.4 113.4 108.3 103.3 99.4 95.8 93.5 92.2 90.5 90.5 90.5 89 88 86.4 85.7 87.4 89.4 89.6 89.5 89.7 89.7 89.3 89.8 89.2 88.6 87.8 88.5 88.6 89.3 91.9 94.2 97 98.6 99.2 99.3 97.3 97 96.6 97.2 98.6 100.5 101.4 100.4 99.9 100.4 101.2 102.2 102.5 103 104.1 104.2 105.7 107.8 110.1 111.9 114.8 117.2 117.1 116.4 114.8 113.9 112.6 112.2 111.9 111.8 111.7 111.4 110.8 111.7 112.4 112.7 113.3 115 118.3 120.4 119.3 116.3 111.9 107.4 108.2 110 111.6 112.2 112.4 111.7 111.1 111.4 111.9 111.7 111.5 109.9 103.6 108.7 113.5 117.8 122.3 126.9 128.1 128.4 127 126.1 124.3 123.6 121.2 119.6 120.9 124.4 125.9 127.6 127 121.3 115.4 108.5 104.7 121.5 135.9 152.8 173.4 190.5 192 190.5 190 192.1 200.4 208.6 216 228.9 244.5 234.2 222.5 211.7 204.2 198 194.9 191.9 188.4 185.5 187.7 187.7 189.4 194.7 199.6 201.4 196.9 198.9 203.7 207.8 213.4 221.6 211.7 213.8 217.4 220.7 225 234.2 243.5 252.4 264.3 273.9 286.3 301 310.4 300.2 289.3 294.5 316.4 321.7 307.9
86.6 86.8 87.1 85.3 86.2 87 87 87.5 88.6 88.6 92.5 93.9 99.9 101.2 99.3 95.7 100 105.1 109.7 117.1 124.2 127.2 129.4 131 132.4 133.2 133.6 131.9 129.1 124 119.9 114.5 108.5 103.9 99.1 96 93.8 92.3 91.9 90.9 89.6 89.6 88.5 87.6 87.1 85.7 87 89.7 89.9 92.3 92.9 93.4 92.8 92.4 91.7 91.7 89.7 88.9 89.3 89.2 89.9 92.3 95.3 97.5 98.7 99 100.4 98.8 97.4 96.6 96.5 96.9 99.4 103.4 104.1 103 102.2 103.7 104.1 103.8 103.8 104.1 104.6 106.4 109 111.7 113 114.6 115.6 115.9 115.8 114.6 113.7 113.5 112.6 112.3 112 112.6 112 111.6 112.2 112.4 112.7 113 114.2 115.9 116.8 114.6 111.4 107.2 108.3 110.3 112 113.9 113.9 113 112.5 112.1 111.9 112.6 112.5 111.9 109.8 103.8 108.6 114.6 117.7 121.1 124.2 126.8 126 124.6 122.6 120.5 119.9 119 119.8 122.6 125.7 127.6 131 133.1 131.3 128.7 119.9 105 111.7 128.5 143.3 175.2 188.9 189.8 190.7 190.3 192.8 200.4 210.7 216.8 233.4 242.9 238.1 220.2 212.1 204.9 200.3 196.6 192 187.2 185.8 184.3 187 191.6 197.2 202.6 202.3 199.6 199.1 202.1 204.9 210.2 212.2 214.9 217.8 218.3 221.3 226.6 237.3 246.1 254.2 266.1 280.2 293.4 305.9 298.8 284.6 281.8 296.2 307 301.3 297.1
87.1 87.5 87.1 86 87.2 88.7 88.3 88.4 90.4 92.1 99.6 103 103.3 103.2 101.1 98.3 104.8 111.4 117.5 124 125.8 127.2 127.4 129.1 130.3 130.2 129.8 126.6 120.9 116.9 112.1 107 102.3 99.1 95.6 93.8 92.7 92 92 90.7 89.9 89.8 88.2 87.7 87.4 87.9 89.4 90.5 93.4 96.3 98.4 99 99.1 97.9 97.3 95 92.2 91.1 90.4 90.8 90.9 93.3 97 99 99.4 100.3 101.9 102.3 100.8 97.3 96.3 97.5 100.7 105.9 106.8 104.9 104.5 106 105.9 105.6 104.8 104.1 104.8 107.1 110.5 113.5 113.7 114.6 115.8 116.5 117.7 116.6 115.8 115 114 113.3 113.9 114.7 112.6 112.2 112.4 112.7 113.1 113.4 113.6 112.5 112.1 110.5 108 108.6 110.3 111.9 112.9 116.1 117 116.2 114.9 113.1 112.6 113.1 112.9 112.2 108.4 107.1 111.7 113.9 115.3 118.8 121.1 123.6 123.9 122.5 120.8 119.1 118.2 118.4 119.8 123.2 127 129.1 131.7 134.3 136.2 137.6 126.8 106.2 109.1 127 142.7 173.5 189.2 189.6 190.3 192 194 199.4 208.7 216.7 233.8 243.1 235.3 221.5 213.3 207.4 203.4 198.2 192.6 186.6 183.8 183.5 188.3 192.7 197.4 203.2 202.3 199.8 200.6 202.7 205.1 208.4 212.9 217.6 221.7 222.6 223.2 225.1 232.9 244.4 254.7 270.5 283.8 297.5 298 281.6 273 275.6 281.7 284.7 289.7 296.5
86.2 87.9 86.9 87.7 88.9 89.3 90.2 92 92.5 99.3 103.9 104.3 102.4 103.6 104.4 103.1 110.2 117.3 122.4 124.5 124 123.8 124.1 126.3 128.1 127.3 123 118.4 113.6 110.6 108.2 104.3 100.4 98.2 96.8 96.2 95.1 93.4 92 91.7 91.1 89.9 89.5 88.5 88.4 89.9 91.2 92.4 96.3 100.3 102.7 104.4 103.9 103 100.4 97.5 96 94.5 92.3 92.4 91.4 96.3 99.6 100.2 100.1 101 103.1 104.7 104.2 103.7 103.1 104.7 105.7 107.9 105.7 105.1 105.8 107.9 108.2 108.2 107 105.6 105.1 108.3 111.1 114.5 115.8 116 118.9 123.2 124 121.2 118.3 116.3 114.7 113.3 113.9 114.3 113.4 113.6 113.6 113.5 113.6 114 114 112.2 109.7 109.5 110.3 111.7 112.2 112.9 113.8 115.3 117.3 116 114.4 113.2 112.8 112.5 113.1 111.9 105.5 110.9 115.9 116.6 116.4 117 117.7 119.5 120.5 120.4 118.7 118.2 119 118 120 123.5 127.1 129.7 133.2 135.9 137.7 138.6 126.8 107 109 122.6 138.1 173.1 187.6 190 191.9 193.8 195.6 199.7 208.8 219.1 234.3 243.3 229.6 220.6 213.4 207.2 204.1 198.2 191.7 186.1 181.8 183.4 188.1 192.9 197.1 201.8 202.5 200.4 202.5 205 207.7 210.5 214.6 218.8 222.2 224.3 228.3 229.5 230.3 238.1 251.1 267.9 281 292.1 277 267 266.9 277.4 286.6 289.6 293.5 299.8
86.3 87.7 88.6 88.9 89.6 92.1 91.8 90.6 95.1 103 104.3 103.3 107.2 108.1 109.3 108.7 108.7 120.7 123.3 121.5 123.5 124.7 126.9 129.7 127.1 123.7 118.4 113.9 110.3 108 106.8 104.8 103.9 103.9 104.1 100.5 98.7 95 93.1 92.7 91.2 91.2 90.8 91.2 89.6 91.1 92.3 93.8 96.8 101.2 104.8 107.1 107.7 105.2 102 98.9 98 96.7 95.4 96.8 94 93.3 98.5 99.8 99.8 99.8 101.7 103.8 104.5 105.4 105.4 107.6 108 106.8 105.3 105.6 107.2 109 110 109.1 109 108.5 107.1 108.7 111.9 113.8 116.2 117.6 123.1 129 126.4 122.2 119.4 116.7 114.6 114.5 114.9 115.2 115.5 116.9 118.2 117.5 116.8 114.9 112.8 111.4 110.7 110.9 113 113.5 113.7 113.7 114.6 115.4 115.5 114.9 114.8 113.6 112.9 112.4 112.5 111.4 105.9 112.1 116.2 118.5 117.7 119.1 119.8 119.7 119.5 119.2 118.5 118.2 118.8 120 120.6 124.8 129.1 130.3 133.7 137.1 138.2 137.4 127.3 107.4 106.9 132.6 150.5 176 188.7 191.1 192.3 193 195.1 201.1 209.6 229 238.4 239.9 225.2 217.2 211.2 206.4 202.5 197.3 190.9 184.9 181.6 183.8 188.3 192.3 196.2 199.9 201.1 201.7 204.3 207.2 210.3 213.2 216.2 220 223.6 227.3 231.6 235.4 235.6 235.9 242.4 251.8 268.5 267.2 259.4 260.7 272 293.6 300.7 302.8 299.1 304.5
87.7 88.8 92.3 89.4 89.8 89.2 89.9 94.6 98.4 104 103.5 105.4 109.4 110.6 111 113.5 111.8 114.1 119.1 124.3 125.9 127.2 130.8 128.7 125.3 120.9 116.9 113.6 111.1 109.9 110.8 110.6 110.2 109.2 106.2 102.7 100.5 96.1 94.1 93.2 92.2 92.4 93.1 92.3 91.8 95.3 95.4 96.2 97.4 101 104 106.2 105.9 104.1 101.2 98.4 96.3 95.4 97.2 98.9 98.5 95.7 93.4 96.8 98.9 99.5 100.9 102.2 104.3 104.5 105.7 106 107.1 106.3 106.3 108.5 110.1 110.3 109.9 108.9 108.8 109.2 109.8 112.9 114.9 116.3 116.8 119.3 122.3 125.4 123.6 120.1 118 116 114.7 115 115.7 117.3 118.8 120.9 121.4 121.7 119.4 116.7 114.8 111.9 112.6 113 114.1 114.5 114.6 114.5 114.8 116.2 116.3 114.6 114.2 114 113 112.5 111.7 110.5 105.7 111.2 113.9 115.8 118.8 119.9 120.9 121.1 121.2 120.9 119.4 118.9 119.2 119.8 121.7 126 130.5 131.7 134.8 137.3 138.3 137.8 127 107.2 109 142.5 165 180.1 188.3 191.9 192.1 191.9 194.8 204 212.8 230.9 240.8 228.4 220.4 212.9 208.5 202.8 197.3 193.6 189.6 184.1 180.1 183.8 187.9 191.5 195.3 198.5 200.3 202.4 204.8 208 213 215.5 218.9 222.9 225.6 229.2 235.1 239.7 242.8 243.3 242.5 246.4 247.3 252.1 258.4 266.3 283.7 307.9 321.1 318.3 310.1 311.4
88.6 88.2 89.2 89.8 89.3 89.7 92.1 97 101.6 104 105.5 108.3 111.1 111.3 112.8 117.3 121.5 122.7 127.2 129 128.5 130.2 132.9 130.1 126.5 126 124.8 123.1 119.4 117.6 116.2 116.3 113.9 111.2 107.4 103.8 99.4 96.5 94.9 94.1 93.1 93.6 93.7 92.3 93 95.7 96.4 96.6 98.2 100.2 102.6 104.2 103.9 102.5 100.7 97.9 96.4 96.6 98.3 100.1 99.6 98 95.2 94.8 98.9 99.5 100.6 102.3 104.8 105 105.8 106.2 106.9 108.3 108.9 110.7 111.7 111.7 111 110 109.6 110.8 111.5 114.6 115.4 116.8 117.5 118.5 119.3 120.7 119.8 117.8 116.4 116.1 116.4 117.1 118.7 120.9 122.8 123.5 123.1 122.4 120.5 118.1 115.4 112.9 112.4 113.8 114.5 114.9 114.8 114.6 115.4 117 116.6 114.8 113.6 113.4 113.3 112.6 111.9 106.9 107.5 112 113.3 115.6 118.8 120.4 121.3 121.6 122.3 121.8 120.5 118.7 119.1 121 123.1 127.6 131 133 135.7 137.2 138.2 137.9 125 105.4 112.3 146.8 169.5 182.3 190.3 190.7 190 192.4 196.3 205.7 215.2 229.1 228.5 218.7 214.5 209.2 205 200.1 194.4 190.4 187.2 181.8 177.8 183.5 187.7 191.7 194 197 199.8 202.5 205.1 210.6 218.9 222.1 222.9 224.5 227.6 232.3 238.2 243.7 250.2 259.7 258.8 261.8 255.8 259.2 265.7 275.3 295.7 318.6 328.9 324.4 321.9 321.4
88.6 87.9 88.9 89.8 90.1 91.3 94.4 100.3 102.9 105.5 106.9 109.9 113.1 116.7 121 124.1 127 129.6 131.4 130.6 130.9 133.7 133.1 131.9 130.2 127.4 128.9 131.7 132.1 129.7 121.5 119.1 116.9 113.2 103.7 100.2 101.4 99.5 97.5 94.9 94.3 94.9 94.4 93.7 93.7 95.1 96.2 97.1 97.9 99.7 101.2 102 102 101.8 100.1 99.1 98.8 98.9 100.2 101.1 101.2 100.4 98.9 95.9 96.5 100.2 99.5 102.3 104.7 104.4 104.7 105.9 108.5 110.2 112.2 114.1 115.5 115.6 114.3 112.1 113 115.2 115 115.8 117.7 119.1 119.6 119.8 120 119 118.2 118.4 117.4 117.1 118.3 120.1 121.4 121.6 122.2 122.7 122 121.1 120.3 118.5 115.7 113.1 112.2 113.4 113.8 113.9 114 114.8 116.6 118.1 116.6 114.5 113.6 113 112.9 112.4 111.7 106.6 109 112.3 114.6 117.2 120 120.9 121.8 122.6 123.3 122.6 120.9 119.3 119.8 122.2 124.7 128.1 132.3 134.5 136.6 137.1 137.7 138.3 121.3 106.2 117.8 149.7 172.1 187.5 187.2 186.5 189.9 194.1 198.9 205 214.2 222.4 217.4 211.6 209.1 205.3 200.9 196.4 191.6 187.7 184.2 179.8 179.7 185.6 189.6 192.2 193.9 195.8 198.4 202 204.1 218.2 226.4 225.4 224.5 226.3 230.2 235.6 241.6 251 261.6 272.5 277.7 287.4 271.5 268.7 276.8 289.8 313 328.5 330.3 327.9 328.7 331.6
89.3 89.2 89.6 90.1 90.4 91.3 95.9 98.9 103.3 106.8 110.9 115.7 121.7 126.7 129.2 131.6 132.4 132.2 131 131.6 133.5 135.9 134.4 132.2 131.3 132.4 136.8 141.4 143.8 135.4 129 123.6 116.9 107.7 103.5 110.1 107.4 101.8 98 96.2 95.7 95.6 95.4 95.3 96.2 97.8 98.3 98.6 99.9 100.9 102 102.5 102.6 102.6 103.4 103.5 103 103.5 104.2 104.4 103.9 102.7 101.3 98.7 97.1 97.5 100.1 103.3 103.9 103.7 104.9 108.3 112.4 114.7 116.7 117.9 118 117.1 115 113 115 117.4 117.4 118.3 120.6 123 122.2 121.9 122 120.5 118.5 118.7 118.1 119.4 122.1 123 123.3 122.9 120.9 120.2 119.8 119 118.4 117.8 116 115 114.6 113.2 113.6 113.7 114.5 115.2 117.3 117.4 115.9 115.1 114.1 113.2 112.6 112.1 111.4 108 107.3 110.8 113.5 115.5 118.4 120.3 121.6 122.4 123.2 122.5 121.3 121.6 122.3 123 124.3 127.6 131.6 135.1 136 136.4 138.5 141.6 120.5 106 121.5 153.9 174.2 180.6 182.5 185.8 190.9 195.3 200 203.1 210.7 214.3 209.7 208.3 205.6 201.2 196.9 193.6 189.2 185.3 181.2 175.6 182.4 186.9 190.5 191.4 192.4 196 199 201.7 204.4 226.6 226.6 224.5 223.9 227.5 231.5 237.6 246.2 256.7 272.9 280.8 290.5 302.5 294 286.8 294.4 313 327.4 331.2 330.1 332.1 334.5 335.2
90.2 90 90.3 90.8 90.5 91.6 94.4 98.6 105.2 110.9 118.3 127.9 131.3 134.2 136.2 135.6 133.1 131.4 132.1 133.9 138 138.5 136.2 132.7 132.5 137.7 146.2 147.4 141.3 136.6 133.3 127.3 113 112.8 115.1 113 110.7 104.6 99.8 97.8 96.7 96.9 95.6 97.7 100.5 102.5 101.9 100.7 101.2 102.3 103.3 103.9 103.8 104.5 106.1 106.9 108 107.8 107.5 106 106 104.5 102.7 99.8 98 98.1 100.5 102.6 103.2 104.6 105.9 109.8 114.9 118.9 118.9 117.9 116.5 114.5 113.9 114.9 118 119.5 119.6 119.7 122.3 123 122.8 123.2 121.7 120.4 120.1 121 121 122.8 124.6 124.1 122.9 121.6 120.2 119 117.6 117.6 117.6 118.1 117.5 118 119.6 118.5 117.6 116.6 114.9 115.8 117.6 117.5 116.5 115.6 114.7 113.7 112.5 112 110.4 107.3 107.1 109.2 111.3 114.4 116.2 117.8 119.4 120.4 120.8 121.1 121.3 121.8 121.1 121.4 123.4 127.9 130.9 133.9 135.8 137 140.1 142.6 122.6 105.6 121.3 149.2 171.3 177.3 180.9 184.9 190 194.8 196.6 199.5 204.7 203.7 204 204.3 201.6 197.4 193.8 190.9 186.7 181.8 176.6 179.2 184.9 188.4 189.4 189.2 191.5 196.3 199.5 202 206.4 226.6 223.2 221.9 224.2 227.5 232.5 238.8 248.9 263.7 278.5 287.7 300.6 305.5 305.8 305.7 316.6 332.9 330.9 323.4 327.6 331.8 335 339.6
90.8 90.6 90.8 91.2 91.4 93 95.8 103.8 111.3 121.9 132.1 136.9 139.7 141.8 140.6 136.2 133.1 131.7 133.9 137.3 141.7 139.7 137 134.5 133.9 137.2 137.7 136.8 138.3 137.3 130.5 117.7 112.3 117.9 117 116.9 116.3 111.5 103.6 98.8 98.1 98.1 99.1 105.6 112.1 110.5 106.3 104.3 103.2 103 104.9 103.9 105.6 106.7 107.3 109.6 111.4 111.5 110.2 108.4 106.8 105.3 103 100.4 99.5 98.7 100.7 104.1 105.3 106.9 106.8 109.7 114.4 117.7 117.9 115.7 114.6 114.2 114.5 117 120.2 121.6 121.6 122.8 125.2 124.5 124.5 124.5 122.4 120.7 120.7 123.3 124.5 125.1 125.8 124.1 121.6 119.8 118.2 117.2 117 117.5 117.8 119.3 120.7 122.3 123.4 123.3 121.4 118.6 115.6 117.2 118.9 118.5 117.3 115.2 113.9 112.7 111.4 109.7 107.5 108.4 109.5 108.2 111.6 113.9 116.6 118.6 120.5 121.3 121.4 121.2 120.9 120.5 119.5 119.8 123 128.6 131.8 134.7 136.2 137.4 140.7 143.1 124.6 106.5 118.8 146.5 171.7 176.6 180.5 184.4 189.2 191.4 193.2 195.2 197.5 199 199.3 199.4 198 193.9 191 188.1 184.2 177.9 174.3 182.4 187.2 188.4 187.5 188.4 191.5 195.3 199.8 202.8 211 216.5 217.9 219.9 223.6 227.5 233.8 242 254.5 271.4 282.1 294.6 301.3 301 307 314 329.6 326.5 315.4 311.3 320.3 332.8 338.2 343.9
91.4 91.2 91.4 91.7 92.8 95 105.8 112.5 120 132.5 140.7 143.4 145.8 144.7 139.4 134.8 132.5 133.3 136 140.6 141.7 139.8 136.8 134.9 132.9 130.3 128.2 130.1 130.8 126.8 117.2 108.5 120 122.3 122.8 123.9 120.2 112.9 105.4 100.9 99.1 99.3 100.7 108.8 113.3 112 110 107.1 105.7 105.2 106.1 106.1 107.4 108.5 110.6 114.3 116.5 116.5 113.8 109.6 107.6 105.7 101.7 101.5 100.4 100.3 102 105.6 108.1 108.4 108.8 109.4 111.7 114.1 115.7 115.1 115.2 116.1 116.7 118.6 121.3 124.9 125.3 125.8 126.9 125.9 124.6 124.8 124.2 121.7 122.7 125.5 125.3 125.6 125.4 123.3 121.2 119.9 118.9 117.8 118.1 118.9 120.6 123.1 125.2 124.6 123.7 121.3 119.7 118.2 117.2 119.7 119.5 119.3 117.9 116.1 113.9 111.6 110.3 107.8 108.7 111.1 112 111.3 111.7 112.7 117 119.6 120.7 120.3 119.3 118.2 118.2 118 118.1 119.6 123.2 128.6 132.7 135.3 136.9 139.1 142.1 144.3 124.3 107.8 115 142.8 169.9 176 179.8 183.9 186.4 187.9 190 192.3 193.2 194.3 194.4 194.4 193.3 190.4 187.4 185 181.6 174.4 176.9 182.2 185.1 186.4 185.3 188 191.8 195.7 198.8 203.1 207.5 212 214.9 219 222.8 227.2 235.4 245.9 258.7 272.9 286 296.6 292.1 295.8 305.5 318.3 310.6 302.4 298.9 302.6 323.5 335.9 341.8 347.7
92.4 91.6 91.9 92.3 94.2 103.9 112.6 119.9 130.3 140.6 144.9 148.1 147.6 142.8 138.8 135.2 134.6 136.5 139.4 141.8 141.4 138.2 135.6 134.4 130.9 124.8 122.3 121.8 120.2 115.5 109.3 122.3 123.8 128.3 132.2 131.6 125 121.3 111.4 105.5 101.9 101.6 101.1 104.7 110.2 111.2 111.7 110.1 108.9 107.8 108.2 108.8 110.1 111.9 114.9 118.5 121.6 118.6 113.2 109.5 107.4 106.3 105.1 102.7 101.9 101.8 102.3 107.8 110.7 111.1 111 111.3 112.1 112.1 113.8 114.8 116.3 117.8 118.5 121.1 124.6 125.9 126.7 128.3 128.8 127.8 127.1 125.5 123.4 122.3 124.3 125.8 126.1 126.1 124 123.4 122.5 121.8 120.1 119.4 120.4 121.7 123.3 124 123.3 122.6 120.1 118.6 117.4 118.6 119.8 121.6 121.7 121.4 118.7 116.8 114.1 112.2 109.9 108 111.3 113.1 113.9 113 112.4 113.6 111.3 112.1 113.6 114.1 115.2 114.5 114.8 115.8 117.7 120.5 125.3 130.5 134.3 136.3 137.7 140.3 142.5 144.4 125.2 107.9 116.3 143.7 170.1 176.9 180.1 184.4 186.1 185.1 187.2 189.2 190.3 190.5 189.4 189.4 188.3 186.6 184.2 182.1 178.4 172 176.2 179.2 181.1 182.2 183.3 187.4 190.7 193.2 197.4 202.2 207.1 210.8 215.2 219.2 223 228.3 236.5 249 264.2 274.6 289.8 286.4 283.4 290.4 304.7 296.4 285.9 284.3 292.8 311.9 327.4 338.6 346.5 353.7
93.7 92.6 92.5 92.9 98.9 109.2 116.7 128.3 138.7 144.1 148.2 148.8 144.4 140.6 137.1 135.1 137.3 140.3 145 144.5 139.2 136.8 134.5 134.9 128.7 122.1 120.6 118.9 118.9 114.9 120.5 126.5 130.1 136.2 138 138.7 138.6 135.1 124.3 111.4 106.8 105.8 105.2 104.8 109.7 113 115.2 114.4 112.2 110.9 111.3 112.1 113.9 114.7 116.7 120.8 121.2 119 115.3 111 108.9 107.5 107.9 106.7 104.8 104.2 102.8 108.5 112.9 114 114.2 115.5 115.9 114.4 114.2 115.7 117.5 118.7 123.4 126.1 126.9 127.9 128.4 128.3 129.3 128.2 125.8 125.2 121.9 122.9 124.4 125.8 125.6 125.3 124.5 124.5 123.7 123 122.2 122.4 124.2 124.8 123.6 123.2 120.2 119 117.6 118.3 120.1 122.6 123.9 124.5 124.9 123.7 120.3 116.1 113.2 111.6 109.2 108.3 111.3 112.8 113 113.3 113.7 114.3 116.3 118 117.4 116.1 114.4 113.6 114.3 115.7 117.9 122.3 127 131.9 134 135 136.5 138.6 141.1 143.2 125.9 107.1 115.1 143.2 170.2 176.7 180.5 184.1 185.6 184.2 184.3 186 187.2 187.8 186.6 185.7 184 182.4 181 179.3 175.8 168.9 172.5 176 180 182.2 183.8 186.7 189.7 193.2 197.2 202.1 206.8 211.2 216.2 220.6 223.8 227.7 237.2 252.7 266.1 275.9 277.5 274.6 273.5 289 289.6 275.9 273.7 285 296.5 315.3 330 342.3 352.9 361
95 93 93.2 95.5 105.6 111.5 122.1 134.4 139.1 144.9 146.7 144.5 141.9 138.4 136.3 137.4 140.1 146.2 148.5 144 140 139 137.1 132.7 126.6 122.5 120.1 117.7 114.5 116.7 124.4 133.5 138.5 142.7 144.5 147.2 154 153.1 146.3 131.5 116.8 111.9 110.1 107.7 110.5 115.7 117.4 117.2 116.6 114.7 115.4 114.7 115.3 117 117.4 118.5 119.1 118.8 115.7 112.6 111.6 109.5 110.2 110.6 109 106.9 105.4 107.5 112.2 116.1 118.4 119.8 117.8 115.7 115.5 116.7 118.7 122.4 125.8 128.3 130.3 130.1 127.8 129.5 129.4 127.9 125.1 124.2 122.4 122.6 124.4 124.9 125.1 125.3 125.3 124.9 124.8 124.1 123.2 122.6 122.8 122.4 121.1 121 120.2 118.1 119.5 120.6 123.1 126.3 129.8 130.4 128.6 124.8 120.1 116 112.4 110.5 109.1 110.1 111.1 112.4 112.3 112.7 113.2 114.1 116.2 118.4 118.8 117 114.6 113.7 114.1 115.7 118.6 122.7 126.8 129.5 131.4 133.4 135.3 137.2 139.5 141.1 126.1 107.3 112.2 144.5 169.6 176.2 180.8 184.4 185.8 184.4 182.5 183 184.1 184.7 184.7 184 182.8 180.7 178 176.6 172.4 168.4 173.7 179.1 183 184.9 185.8 188.5 191.2 195 198.3 201.9 206.6 211.3 216.6 222 223.2 226.7 237 249.8 261.9 266.5 265.6 262.5 268 282.8 268.5 264.2 274.1 287.8 301.7 316.7 332.7 348.2 359.4 367.2
100.8 93.9 94 99.7 107.8 114.5 125.2 131.1 136.2 141.5 142.4 140.7 138.8 137.9 138.2 140.3 144.8 150.4 147.9 144.4 141.8 139.9 136.9 133.8 127.1 121.4 119.7 116.7 119.8 126 132.5 139.7 143.7 148.1 152.3 156.7 166.5 166.1 161.4 148.5 127.4 118.2 114.9 113.4 110.8 116.6 118 118.5 118 118.4 119.5 119.8 118.9 119 118.7 119.3 119.5 117.4 115.5 113 111.9 111.6 112.3 112.3 111.5 111.2 109.6 106.8 109.6 116.3 119.9 118.8 117.3 117.1 118 121 122.7 124.3 128.1 129.5 130.4 128.8 129.2 129.5 129.2 128.8 126.7 123.8 122.5 122.8 124.2 125.4 125.6 126.2 126.2 126.4 126.6 125 123.6 122.6 121.4 119.7 120.2 118.7 118.8 121.1 122.6 123.1 125.3 128.7 131.2 131 127.7 123.4 118.5 114.3 112.5 111.2 110.6 109.8 110.8 111.8 112.8 113.4 114.9 114.7 116.7 118.8 119.5 117.9 115.4 114 114.6 116.3 118.9 121.8 126.5 129.1 131.3 134.2 136.6 138.1 139.8 141.8 129.3 106.9 114.1 148.7 172.8 178.1 181.5 184.2 183.6 182.3 180.1 180.9 180.8 181.3 182.2 183.5 183.2 180.5 178.2 177 169.4 169.3 175.4 180.5 184.2 186.9 188.3 190.3 193.2 195.7 198.6 201.7 205.8 210.3 217.8 221.8 220.2 222 229.6 238.2 251.2 251.5 249.8 251.8 269.2 260.2 256.3 259.4 269.5 282.3 299.9 313 336.4 352.7 365.5 371.1
100.2 93.8 95.7 103.9 110.3 118.1 122.9 126.9 132.1 135.7 137.3 138 138.7 139.6 141.7 144.4 149.6 152.2 148.2 145.9 143.8 138.3 135.9 133.6 125.1 120.6 117.8 121.1 124 132.1 138.3 144.7 149.3 157.2 162.7 167.7 174.8 179.4 172.9 156.8 132.4 123.2 118 115 111 115.2 116.9 118.2 119.2 121.7 123 122.6 121.4 120.9 121 121.1 121.1 118.2 115.9 114.7 113 114.5 116.1 116.8 115.7 114.7 113.7 112.3 109.2 110.7 116.4 118.4 117.6 119 121.4 124.3 126.3 126.4 129.9 130.8 131.1 130.8 131.4 131.6 132 130.2 127.4 125.3 122.8 122.7 123.5 124.5 125.9 127.3 128.1 127.9 126.9 125.4 123.5 121.7 120.2 120.1 120.1 122.2 123.3 124.4 125.9 125.8 124.8 128.2 130.4 129.9 126.1 121.8 117.2 114.7 113 111.7 110.7 109.8 110.8 112.7 114.7 115.8 117.1 116 117.1 119.2 119.8 117.8 115.7 114.5 115.3 117 119.6 122.3 126.3 129.1 132 134.7 137.1 139.3 141.6 143.6 132.8 108.5 113.6 149.9 173.9 179.5 182.5 183.5 181.4 179.5 178.3 180 181.1 180.6 180.2 181.6 183.3 181.8 179.2 176.1 167.7 171.4 176.8 181.9 185.2 188 189.7 192.1 195.6 196.5 198.7 201.8 204.8 208.9 214.5 214.2 214.7 216.7 221.5 227.6 232.6 236.7 238.3 252.4 251.1 246.9 251.6 257.6 265.6 276.4 288 309.8 339.2 354.9 366.1 367.3
99.8 95 97.2 106.9 112.5 117.8 121.5 124.6 128.1 131.8 135.4 139.6 141.4 143.1 145.8 149.1 153.4 151 147.7 146 140 135.7 132.9 128.5 122.3 120.7 126 128.3 129.1 136.8 142.5 149.9 159.7 169.4 177 181.1 189.1 189.6 173.5 156 134.7 126.1 120.4 117.3 114.5 115.4 118.5 118.5 120.3 122.7 124.3 124.7 124.4 125.1 125 125.6 125 122.9 118.9 115.4 115.6 119.1 122.5 123.5 121.9 119.7 118.6 117.4 115.3 111.2 110.5 113.3 120 122 124.7 126.7 127.3 127.2 129.1 131.7 132.8 133.1 134.1 134 131.5 128.7 126.8 125 123.1 123.4 123.5 124.2 124.9 125.7 126.3 126.1 125 125 123.1 120.2 119.6 120.4 122.6 125.4 127.5 128.5 128.4 126.1 125.1 126.6 129 129.5 126.7 123 119.3 116.4 114.6 113.8 112.8 111.7 111.9 115.3 117.8 118.6 118.4 116.8 117.4 118.2 119 117.7 115.6 115.3 116.1 118.8 121.7 124.7 126.3 128.4 131.7 134.9 137 138.9 141.7 144.6 137.9 109.4 110.1 145.9 171.1 177 178.9 179.2 178.1 176.5 176.7 179.2 180.8 179.7 178.7 179.6 181.2 181.2 177.9 173.4 163.6 172.8 178.6 183.3 186.9 187.4 189.3 193.2 195.9 196.5 198.2 201.7 203.1 205.3 208.7 207.8 211.3 214.2 218.3 220.7 224.8 229 234.7 236.8 241.9 246.5 253.7 263.8 274.6 278.3 285.3 312.4 324.2 336 344.3 346.3
99.3 95.8 99.5 108.6 112.1 115.9 120.2 123 127.4 132.1 137.4 142.4 144.9 147.8 150.2 152.4 151.4 149.5 145.2 141 137.6 132.6 130 125.3 124.2 129.6 135 134.4 137.7 142.4 150.2 158.9 172.1 182.9 187.8 195.4 201 191 168 148.4 134.2 126.7 122.7 118.1 116.9 117.9 119 121.4 121.7 122.2 125.9 127.8 130.6 131.4 129.6 126.8 124.8 123.6 119.8 116.4 119 124.2 128.2 128.9 126.6 123.6 121.6 120.5 119.8 118.9 119.6 114.1 117.3 126.2 126.4 126.8 127 127.5 130 132.7 134.5 135.6 136.2 133.7 130.3 127.6 126.1 125 124 124.5 124.8 125.7 125.7 124.5 123.2 122.6 122.5 122.5 121 119.5 121.4 123 124.9 127.4 128 127.8 127.6 125.8 125.3 126.9 129.2 129 128 126 122.5 119.8 117.5 115.9 114.8 112.5 111.4 114.8 116.5 117.1 117.5 116.8 117.4 118.1 117.7 116.7 116 116.6 117 119.7 123.9 126.2 127 129.4 132 135.2 137.1 139.5 142.4 146.2 142.9 109.2 109.5 137.3 162.3 168.7 173.1 175.2 175.3 174.9 174.6 176 177.7 177.4 177.6 178.5 179.2 178.6 175 169.2 166.9 174.2 179.4 184.3 185.9 185.8 188.4 190.6 192.4 194 197 198.3 199 202.4 205.4 209.5 214.4 218.3 220.1 222.3 225.2 230 234.2 238.5 243.7 249.3 259.4 275.5 292.5 300 289.6 294.3 301.9 310.1 318.7 328.5
101.1 96.8 98 108.1 110.2 114 119.1 123.5 128.4 134.1 140.7 146.2 149.9 152.4 151 152.1 150.3 147.7 143.7 138.9 134.9 133 127.8 127.8 130.9 136.5 139.2 143.2 146.5 151.6 160.5 171.6 185 195 202.2 209.2 207.8 187.9 165.5 145.2 134.4 127.6 123.7 122 119.3 120.6 121.6 122.9 125.2 125.6 126.9 131 134.9 136.4 133.9 128.7 124.2 120.8 119.7 120.1 121.7 126.2 128.4 127.8 127.1 124.4 123.3 122.6 122.1 123.1 122.5 116.2 116.3 127.8 127.1 127.5 127.4 128.5 131.3 134.2 136.4 138.1 137 134.1 131 127.8 125.7 124 124.2 124.5 125.5 126.2 125.7 124.5 122.3 120.3 121.3 121.3 122.7 123.6 121.2 126.5 127.4 126.4 125.7 124.8 124.4 124.9 125.5 127.6 130 129.2 127.8 126.4 124.2 121.8 117.9 115.5 114.5 112.4 111.6 113.2 114.9 115 115.4 116.3 117.4 117.8 117.1 116.1 116.9 117.8 117.8 119.5 122.4 124.2 126.1 128.4 132 135.4 137.7 140.1 143.2 146.2 142.9 110 108 129.1 161 169.1 170.2 173.9 174.9 173.9 172.8 174.4 175.4 175.6 176.5 177.4 177.4 176.1 173.4 164.2 168.9 175.2 179.9 183.6 183.2 182.5 184.4 186.5 188.5 190.8 192.2 193.6 199.2 203.7 207.3 210.9 215.4 222 224.5 229.4 232.3 237.3 243.1 246.5 251.4 255.5 263.6 281.9 298.6 309.6 307.2 305.4 314.2 318.7 319.6 321.5
107 100.5 96.2 101.5 110.9 117.6 121.8 125.8 130.8 137.7 144 149.6 153.4 152.4 149.7 153.2 148.9 146.9 141.2 134.9 135.4 131.3 128 130.4 131.6 137.3 143.9 148.9 153.6 160.3 171.1 184.1 198.2 206.1 213.8 221.9 211.2 186.1 163.1 144.4 134.8 129 126 123.4 121.5 124 124.4 126.5 129.4 129.6 129.1 130.3 131.5 134.2 133 127.9 122.9 121.6 122.5 123.3 125 128.2 131.6 132.6 130.4 127.9 126.4 126 126.2 125.3 118.4 116 120.3 125.7 127.5 128.6 128.3 130.1 133.6 137.3 139.4 137.7 136 133.2 130.7 128.2 125.9 125.4 125.2 125.5 126 126 124.6 121.8 121.6 120.5 121.1 125 127.4 125 121.3 126.2 125.7 124.2 123.4 123.9 123.9 125.4 126.8 128.1 130 129.3 126.4 124.3 121.5 118.7 116.4 114.9 114.1 111.5 111.7 112.2 113.2 114.2 115.8 116.1 116.2 117.3 117.9 118.6 119.8 119.6 119.6 120.8 121.2 123.3 125.4 127.7 130 133.4 136.2 138.7 142.9 145.8 143.2 110 108.9 125.4 156.5 168 168.6 171.4 174.1 173.5 171.7 171.8 173.9 175.9 176 175.8 175.1 172.8 167.9 159.3 164.1 173.5 178.5 181 175.2 177.6 178.4 181.9 185.1 188.2 192.6 197.5 202.3 207.1 210.8 214.5 218.8 225.1 228.9 234.3 240.1 247.6 254.9 261.4 266.2 272 275.5 285.6 298 308.8 321.4 329.3 332 336.5 337.6 336.9
111.1 103.9 96.4 100.1 113.3 120.9 123.5 127.6 133.2 140.2 146.5 150.8 150.5 148.2 152.1 151.9 146.1 140.1 134.3 132 130.5 127.9 129.8 134.1 136.2 143.6 150.1 156.5 162.9 170.6 180.4 194.9 204.5 218.2 227.8 238.2 218.1 193.1 163.1 146.2 137 133.7 129.8 129.6 126.7 126.3 127.3 130.2 132.6 133.3 130.5 129.5 129.7 130.1 129.4 125.1 122.9 122.7 124.4 126.7 128 130.1 133 134.4 134.2 131.4 128.8 128.6 127.6 121.6 118.1 125.4 127.4 128.1 129 129.9 130.5 133.1 136.9 139.4 138.2 137.9 135.7 132.3 129.4 127.2 126.8 127.7 128.9 128.4 127 124.9 122.4 121.2 120.6 121.2 124.3 128.1 128.4 124 120.7 123.3 123 122.5 124.2 124.8 127.1 128.4 129.1 130.2 130.4 129.9 126.7 122.3 118.5 116.4 116 114.4 114 112.3 112.2 113.1 113.1 114.6 116.4 118 118.2 117.4 116.9 117.5 120.9 121.4 121.8 120.9 121 123 125.5 127.7 128.8 131.2 134.1 138.3 142.2 144.3 142.7 118.5 109.4 121 151 161.3 162.7 167.1 171.2 171.6 170.5 174.1 177.3 179.1 178.4 176.4 172.7 168.7 158.7 162.9 165.4 166.3 169.8 174 176.7 179.7 183.5 187.8 190.1 188.5 193.2 198.2 203 208.6 212 215.3 220 226.1 230.7 237.3 244.4 254.6 265.2 275.4 283.3 291.8 299.7 308.7 314.6 322.5 329.6 341.2 350.6 359 362.1 363.4
104.1 98.2 97.4 98.2 107 121.6 124.5 129.2 135.2 141.4 146.2 147 145.4 148.2 152.6 148.1 140.2 134.2 130.3 128.6 127.7 129.7 135.6 139.7 144.4 143.7 153.5 164.2 169.8 177.9 189 202.6 220.3 229.2 242.7 241.5 218.8 193.1 163.5 149.2 142.1 140 136.7 138.5 133.6 129.4 129.2 132 133.4 133.4 132.9 131.7 129.4 128.1 126.7 124.5 124.9 126.2 127.8 129.3 130.2 132.9 134.7 136.6 136.3 133.7 131 128.5 122.4 118.2 126.5 130 131.2 130.8 131.1 132.6 134.1 136.4 139.2 138.2 138.1 137.1 134.4 131.7 129.5 126.5 127.8 129.4 131.2 130.2 126.2 123.4 122 121.7 122.4 126.7 130.6 130.6 128 123.1 121.1 122.4 122.1 123 125.1 127.3 130.2 131.3 131.1 132 132.2 128.9 124.1 118.8 118.5 118 116.3 114.7 114.1 113.5 113.4 114.1 113.4 115 117.6 118.9 119.4 118.2 117 117.4 120.3 122.1 121.9 121 120.8 123.1 125.6 127.2 128.3 129.5 133.5 138.6 141.9 142.5 141.9 129.9 110.4 112.6 137 154.3 160 165.9 166.2 168.6 172.1 175.6 178.8 180.8 179.5 175.9 172.1 167.9 156.8 165.8 170.3 173.3 173.8 175.6 178.2 181.5 185.2 188.7 191.9 194.5 194.3 198.3 204 208.9 212.3 215.7 221.3 227.1 232.6 239.1 246.3 257 268.8 283.8 295.4 305.3 318.5 331.4 337.8 343.5 349.6 357.1 375 391 387.9 376.9
98.6 97.5 103.1 101.7 101.4 112 125.4 131 136.3 140.6 142.4 141.8 144.3 148.2 145.4 139.3 136.4 132.2 128.3 128.8 130.4 134.9 141.1 146.2 151.9 152.5 157.4 169.2 177.6 182 201.7 219.5 228.3 240.8 247.6 238.7 216.3 190.6 170 160.1 152.5 164.1 183.3 167.9 150.3 132.6 131.6 132.7 133.3 135.4 135.2 133.6 131.5 130.4 127.2 126.6 129.2 131.5 132.5 133.3 133.9 135.9 137.2 137.3 135.5 132.4 130.5 126.5 121.3 123.7 129.4 130.6 131.5 133.5 133.6 135 137.3 140.5 140.6 140 138.5 136.7 134.7 132.1 129.4 127.2 127.8 130.1 131.6 129 124.5 122.9 122.8 125.5 128.7 132.4 133.7 131.3 126 122.1 122 122.2 122.7 124.5 127 129.5 132.4 131.5 131.3 131.6 129 122.3 119.3 121.9 123.4 123 120.7 118.3 116.7 115.9 115.7 115.6 115.6 113.7 117.8 119.6 118.7 117.5 116.9 117.4 119.5 121.7 122.3 121.4 121 122.6 125 126.7 128.1 129.2 132.9 137.4 140.6 141 141.9 141.1 110.9 111 135.5 156.6 164.8 169.6 173.2 173.5 174.3 176.5 179.3 181.2 179.2 174.9 171.1 165.3 156.9 165.3 171 176.1 178.9 177.7 179.4 182.6 185.8 189 193.4 197.2 196.3 198.8 204.6 209.1 212.5 216.9 222.5 228.1 234.6 241.1 249.2 259.1 271.8 288.4 302.1 316.8 331.6 348.5 362.2 373.2 381.3 382.7 396.7 401.5 394.5 383.6
98 100.9 113.3 107.6 102.3 109.1 125.2 131.4 134.7 137 135.7 139.9 145.2 141.6 135.1 133.2 132.1 130.4 131.6 136.7 136.9 141.3 147.2 154.1 164.3 161.6 160.3 169.2 180.6 189.4 210.1 221.9 234 242.2 242.2 234.7 211.4 197.8 183 174.8 167.5 175.9 192.7 188 162.8 137.4 132.4 133.6 135.8 137.8 138.5 136.2 133.8 131.4 129.9 130.3 130.7 133.1 135.6 135.5 136.7 138.2 138.8 137.3 132.5 129 127.1 125.9 121.2 129.1 130.8 131.2 131.5 133.4 134 135.3 137.6 141.5 141.7 140.2 139.2 137.5 135.5 132.4 128.3 126.9 128 129.6 129.9 127.7 124.7 124.1 127.1 130.5 133 133.7 133.4 129.6 126.9 124.8 124.5 124.9 125.5 128.9 129.4 131.8 128.8 127.1 125 125.7 122.8 123.3 125.8 127.6 126.7 126.1 124.6 123.3 121.5 120.2 119.2 118.7 119.1 116.7 114.1 117.3 118 117.4 117 117.2 119.3 121.1 122.1 122.1 121.7 122.9 124.6 125.9 127.5 129 131.3 135.1 139 141 142.9 142.2 124.1 110.5 131 146.7 161.7 169.4 174.9 176.1 177 178.3 180.9 182.4 179.2 175.2 171 164.3 155.5 164.5 171 176.8 179.7 178.7 180.9 184.1 186.8 189.2 194.9 198.5 197.6 199.7 205 209.1 212.8 217.4 222.6 228.4 237 244.9 254.2 266.5 279.6 295.1 311.6 326.2 343.5 364.4 382.6 393.4 401 400.2 405.6 404.4 395.4 387.8
98.7 105.7 112.8 102.9 104.4 110.6 122.3 130.2 131.3 132.7 136.8 140.6 138.8 133.5 130.5 129.7 128.9 132.7 138.1 141.7 144.3 147.9 154.3 165.3 166.8 158.9 163.3 174.2 181.6 195.7 208.7 223 235.5 238.1 235 218.8 211.6 201.5 192.6 184.7 180.5 183.1 196.4 197.6 166.1 144 137.4 136.5 139.1 142 140 137.1 135.4 131.4 133.2 133.5 132.4 133.1 134.6 136.2 137.3 137.8 136.5 134.8 131.1 127.6 127.4 128.7 127.3 124.1 126.1 131.6 132.6 132.7 133.2 135 136.4 139.9 139.9 140.2 140.2 138.8 135.8 131.4 128.4 127.2 127.7 129.4 128.6 127.4 125.8 125.6 128.7 130.3 131.2 132.5 132.6 131.2 131.8 132.1 131.8 132 132.4 133.1 132.4 128.8 125 124.5 124 123.3 125.5 129.9 131.4 131 128.1 125.2 122.7 121.7 121.6 121.1 119.8 119.2 119.6 117.4 114.8 116.5 117.4 116.8 117 117.5 119.4 121.5 123.3 123.3 122.6 123.3 125.6 127.6 128.9 129.1 130.9 134.7 138.9 141 143.1 143.8 127 118.8 131.4 147 160.3 171 176.1 178.1 179.3 181.1 183.7 184.3 180.6 176.2 172 163.1 152.8 160.9 169.1 175.2 179.1 179.6 182.3 184.7 187 189.4 195 199.3 199.4 201 205 209 212.4 218 222.8 229.1 240 252.6 263.9 275.1 292 308 321.8 336.5 355.2 374.4 393.1 410.1 414.9 407.3 406.2 401.8 395.8 391.3
99.7 108.4 104 102.3 106.3 116.1 123.4 127.8 132.9 134.7 135.8 134.7 131.6 128.9 127.5 128.3 129.8 137.2 142.3 146.3 148.8 154.7 164 170 165.4 165.9 168.2 176.8 186.9 203.1 214.4 225.4 231.8 228.3 216.1 215.4 211.7 205.9 200.6 192.3 191.5 190.2 197.2 202 163.5 148 141.7 143.6 149.9 149.7 143.1 137.7 135.6 133.9 136.4 136.7 136.3 135.6 135.5 136.4 136.7 137.9 136.8 132.9 129.8 128.9 130.1 131.1 131.4 130.9 126.8 128.6 132 133.7 134 134.3 134.4 136.2 136.7 138.1 139.2 136.9 133.5 130.2 128 127.7 128.2 129.3 129.9 128.8 127 127.5 128.3 129.5 131.3 131.7 131.5 131.9 135.2 137.3 137.8 136.7 135.2 132.4 128.8 127.7 126.2 126.4 126.4 127.2 130.3 132.5 132.4 130.1 127 122.9 121.5 121.2 120.7 120.8 119.7 119.2 118.3 116.2 116.5 117.4 118.2 118.5 118.4 118.4 119.6 121.4 123.5 124.4 123.8 123.3 124.5 127 129.6 129.2 130.9 134.9 139.1 141.3 143 145.1 117.8 112.2 127.7 145 159.6 171.8 177.3 179.8 181.3 183.7 185.8 185.9 180.7 175.3 169.7 162.2 154.1 154 167.5 174 178.7 180 182.4 184.8 187.2 189.9 194.7 198.6 200 201.3 205 208.8 212.9 218.4 223.7 230.9 242.2 260.2 275.4 285.9 298.7 316.2 334.4 352.7 369.7 386.3 402.8 415.9 420.4 408.1 402.5 398 393.6 393.1
102.8 106.4 102.1 105.5 113.7 125 131 134.6 135.9 134.2 132.3 130 128.7 127.7 128.3 130 135.3 140.9 145.5 150 152.5 157.2 163.5 169.2 167.5 172.1 174 178.8 193.5 206.5 222.7 227.7 224.8 216.2 216.6 216.1 214 213.7 207.8 203.1 200.9 199.7 201.4 199.1 163.9 150.6 147.2 153.8 157.5 154.7 146.9 140.4 136.9 135.6 136.5 138.1 138.8 139.2 140.6 140.6 139.9 139.2 137.6 134 131.9 132 132 132.5 131.2 129.3 127.8 130.9 131.9 132.6 133.5 135.5 134.6 133.4 133.4 135.6 135.2 132.6 129.6 128.6 128.4 128.6 130.7 131.9 131.5 130.5 128 128.1 128.1 129.5 130.6 132.2 133.7 133.7 136.1 138.4 138.1 135.7 133.2 130.6 131.5 132 130.4 128.7 129.2 131.2 132.7 132.7 130.9 127.8 126.1 122.5 122.3 123.4 124.8 123.5 121.7 119.4 117.9 117.2 117 117.1 117.7 119.1 120.7 121.1 120.1 121.7 123.1 124.9 124.4 123.2 123.7 126.5 129.4 129.8 131.1 134.6 139 141.8 143.2 125.2 112.8 115.7 120 138 156.6 172.4 177.6 180.4 182 183.2 185.9 184.8 179.4 174.2 168.5 159 150.1 153.6 168.8 175.7 179.1 179.4 182.2 184.7 187 189.6 193.3 197.1 198.8 200.6 204.7 208.8 214.6 219.9 226.8 234.5 243.8 261.9 281 293.7 307.9 326.1 344.3 362.6 383.7 401.1 411.1 417 414.8 406.1 399.5 395.1 390.7 392.1
107.3 105.6 101.9 111.1 124.7 132.3 136.8 138.5 136.1 133 130.2 128.5 127.4 128.5 129.8 132.1 139.9 144.9 149.8 154 157.6 162.5 166.2 169.8 172.9 176.8 176.8 187.2 202.9 217.7 227.5 223.5 218.3 217 220.1 221.1 220 215.8 214.5 214.9 214.5 204.1 206.4 196.8 162 153.6 155.8 160.7 159.5 153.7 147.3 141.5 138 137.4 138.6 140.5 143 144.7 146.1 146.5 145.3 143.4 140.3 137.1 134.1 131.1 130.1 128.4 128.8 129.7 132.5 133.3 133.6 134.5 135.3 135.3 134.7 133.5 132.3 131.9 131.5 130 129.6 129.1 129.5 131 133.2 133.9 134.3 132.9 130.6 129.6 128.3 129.4 130 131 132.9 134.7 137.5 136.8 135.6 132.3 131.7 133.8 136.2 136 134.8 133.1 132.7 133.7 134.4 132.4 128.6 125.5 123.8 123.8 125.4 127.8 128.3 127.1 124.6 121.1 118.5 118.2 117.5 116.8 117.3 119.5 121.6 122.8 122.6 121.6 122.9 124.5 125.5 124.4 123.8 125.2 128.8 130.3 131.7 135.1 138.9 142.4 133.7 113.1 113.7 121.5 123.4 130.9 146.4 162.7 176.4 179.3 181.6 184 186.9 185.1 181.5 175.5 168.5 156.7 152.8 159.6 167.8 174.5 180.6 181.5 182 184.2 186.9 189 192 194.9 197.6 200.5 203.4 206.9 213.3 223.3 232.2 244.1 252.6 271.6 285.4 299.1 316.5 335.3 353.1 375.5 396.7 411.7 411.2 409.2 406.9 403.3 396.6 391.6 386.2 389.1
110 106.3 103.7 116.8 130.5 136.5 141.6 140.2 136.5 132.6 129.2 128 128.1 130.5 132.3 135.3 141.9 148.4 155.9 161.9 167.1 168.5 171.4 172.2 174.8 178.1 180.2 189.5 212.2 222.6 223.3 221.9 222.1 222.4 226.1 227.8 224.6 225.8 229 222.2 215.2 208.2 207.4 187.9 163.4 159.4 163.9 166.6 162.2 153.4 146.9 142 140.4 140.1 142.7 144.3 146.4 148.4 149.3 148.7 144 140.4 138 135.2 131.9 132.7 132.4 131.8 132.5 132.7 134.7 134.6 135.1 135.6 135.5 136.9 136.2 135.3 134 132 131.2 130.6 130.4 129.9 131.8 132.6 135.2 136.8 136.7 134.4 133.2 131.1 129.2 129.3 130.2 130.6 132.7 136.4 138.8 136 132.9 131.8 134 138.7 139.7 138.2 136.4 133.9 133 132 131 130.8 127.3 126 125.4 126.7 129.2 129.5 128.3 126 123.8 120.9 118.7 119.2 118.8 118.4 118.5 118.7 119.5 121.3 122.1 123 123.9 125.1 126.1 124.7 124.1 125.1 128 129.2 131.4 135.8 140.5 143.3 131.4 113.7 114.4 128.5 133.6 134.6 140.6 161.2 175.9 179.6 181.5 186.6 189.7 186.3 182.6 176.7 168.4 158.6 150.8 162.9 168.7 174.5 181.1 182.3 184.1 185.4 187.4 189.2 192 195.7 197.8 200.5 203.5 207 212.3 221.9 231.5 255.4 267.6 280 292.7 306.9 325 345.6 364.3 384.8 389.9 396.6 399.5 402.3 406.1 400.3 391.7 385.8 378.1 386.4
109.7 105.5 108.1 119.1 134.8 140 143.5 140.7 137 132.5 129.1 128.3 129.2 130.6 133.3 138.9 144.1 153.2 159.9 167.2 174.2 178 175.4 174.7 176.7 180.2 183.2 190.4 208.1 211.5 215.5 220.3 222.2 224.6 229.3 233.1 231.9 237 236.3 229.8 221 212.6 204.3 184.1 165.7 162.8 167.7 171.4 166.9 157.9 149.7 144.5 141 140.9 144.1 145.9 147.9 149.1 148.9 144.8 139.3 135.8 134.6 134.6 134.6 135.7 134.9 134.9 134.4 134.5 134.6 135.9 138.2 138.6 137.4 137.8 137.6 135.3 134.6 133.4 132.4 132.5 133.1 134 134.9 133.9 136 138.7 137.7 133.5 131 129.9 129.5 129.3 129.8 131.6 133.9 137.1 137.5 134.6 131.5 133.2 138.3 141.1 141.1 137.4 135 132.5 131.3 131.1 133.3 133.8 131.9 130 128.9 129.8 130.6 129.7 127 123.6 121.5 120.3 119.9 120.5 120.5 120.2 120 119.6 119.3 119.8 119.9 121.6 123 124.9 126.1 125 124.2 125.1 128 130.4 131.3 135.3 140.8 143.7 141 113.4 112.6 148.9 153.3 155.2 141 158.6 176.8 179.9 182.5 186 190.2 187 182.3 177.9 171.4 160 146.9 163.8 169.7 175.1 180.4 183.5 186.2 187 187.1 189.3 193.7 197.8 197.9 200.6 204.2 208.1 212.3 221.5 241.1 258.2 272.5 283.6 295.6 312.3 331.9 352.5 369.1 372 377 380.7 384.2 399.2 407.4 395.9 387.5 376.3 374 382.4
108.2 105.4 109.1 120 136.5 141 147 145.9 141.8 134.4 129.7 129.4 131.1 132.2 133.6 138.3 146 156.8 165.5 172.4 179.3 180.5 176.3 177 180.1 185.6 185.7 190.1 200 208.3 214.1 219 222.9 226.8 231.5 237 238.2 243.7 241.6 232.7 225.1 213.5 199.3 180.5 165.7 164.2 169.8 173.1 167.1 157.8 150.5 145.4 142.6 142.7 143.2 143.4 145.7 147.4 148 144.6 138.9 135.2 134.6 134.6 134.6 134.7 137 136.9 135.8 135.3 136.6 138.2 139.4 139.7 138.1 137 137 137.5 136.1 135.5 134.7 135.4 135.4 136 136.5 136.7 137.4 137.9 135.9 132 130 129.4 129.4 131.1 131.9 134.6 135.9 137.3 136.1 132.6 132.5 135.6 141.4 141.7 139.9 136.1 132.7 131.9 131.7 132.3 134.6 137.1 136.4 134.9 133.1 132.6 130.7 128.1 124.8 122.7 121.8 121.1 120.8 121.1 122 122.3 123.1 121.5 121.9 121.7 120.9 121 122.7 124.6 125.4 125.6 124.7 125.6 129.1 132 132.4 135.2 140.4 144.8 146.7 119.9 113.8 146.2 164.4 164.6 147.8 157.6 176 180.1 182.3 186 190.7 187.1 181.5 174.8 170.2 158.8 145.1 164 170.6 175.1 179.3 183.7 186.4 186.4 186.6 189.7 193.9 197 198 201.3 204.6 207.8 213.1 227.4 241.6 258.6 269.9 279.9 290.7 309.1 328.9 345.1 358.8 353.6 358.5 360.3 371.3 399.9 407.9 391.4 383.1 369.5 371.4 379.3
106.5 106.2 109.9 121.5 134.8 141 150.3 149.4 145 136.6 131.9 130.5 132.1 133.8 135.7 137.7 145.2 155.9 163.6 169.7 175.1 177.5 177.6 182.5 188 190.1 192.9 198.3 203.7 209.4 214.4 220.2 224.8 229.3 236.5 240.5 244.8 249.6 247.7 237.7 230.7 213.8 187.7 176 167.7 167.3 171.6 174.7 167.9 156.1 148.8 145.7 144 143.5 142.8 143.3 143.8 144.9 145.4 142.7 138.5 133.9 134.6 134.6 134.6 134.8 136.8 137.8 137.3 138.3 138.5 140.9 140.9 138.9 137 137.7 138.7 138.4 137.3 136.5 136.4 136.4 136.6 137.2 137.6 137.3 137.8 137.6 135.2 131.7 130.2 129.9 130.5 134.5 137.1 137.8 138.2 135.6 133.8 133.2 135 139.1 142.6 140 137.3 134.1 132.6 132.6 132.6 133.9 136 138.3 139.1 137.5 134.8 131.7 129.1 125.4 124 123.1 122.6 122 121.9 122.1 123.2 125 124.8 124.3 123.3 122.4 121.3 122.4 122.7 124.3 125 125.8 125.5 126.1 129.6 132.7 133.6 135.3 139.9 144.4 148.1 128.9 112.6 136.8 161.5 172.8 160.8 159.2 173.2 180 181.8 185.3 190.6 185.7 180 172.7 167 148.3 147.9 164 169.6 174.1 178 182.5 185.2 185 186.6 189.9 193.4 196.1 197.6 201 205.1 209.1 216.4 229.3 239.4 249.3 264.8 274.5 284.6 301 317.6 330.1 340.8 334.5 338.2 339.9 361 390.8 396.1 385 376.8 364 366.4 373.5
105.4 106.6 112.1 120.8 129.6 141.3 148.5 148 143.9 138.5 133.6 132.1 133.2 134.5 136.4 138.4 143.2 150.3 157.2 164.7 169.7 176.6 181.4 188.6 190.6 194.4 201.3 206.8 209.6 212.9 217.1 222.6 228.6 234.3 243.1 246.6 252 257.6 257.2 246.7 234.4 215.5 188.1 178 169.7 169.4 172.7 172.2 166.7 158.7 151.4 147.2 145.8 143.9 143.8 143.4 144.2 145 145 142.6 138.1 135.6 134.7 136.5 139.9 139.5 139.3 139.6 139.4 139.7 141.1 141.5 140.6 138.5 137.4 138 138.9 139.2 139.5 137.8 137.6 137.3 137.8 138.3 138.7 137.7 137.2 136.8 135.7 132.8 131.4 130.8 131.9 137 140.1 137.5 135.6 133.7 134.2 135 138.6 142.4 142 138.6 136.2 134.6 134.1 136.3 136.8 137.9 138 139.4 139.1 137.6 134.5 130.9 127.7 126.4 127.2 126.5 124.9 124 123.4 125.2 125.5 126.1 124.6 123.9 123.8 123 121.7 123 124.2 124.3 124.5 125 125.8 127.2 130.2 132.3 133.7 135.3 140.2 144.6 147.8 133.6 113.1 133.3 159 172.6 167.1 166.6 175.6 178.6 180.8 185.7 187.3 182.7 176.6 170.5 148.6 140.1 154.9 162.4 169.6 175.1 178.1 182.1 184.7 184.4 187.1 191.5 194.9 195.6 197.8 201.7 205.8 209.9 217.9 230.3 237.6 246.7 256 262.6 272.8 290.5 305.3 314.9 318.4 313.6 319.2 329.4 352.7 375.4 378.7 376.9 368.6 356.3 359.4 366.6
105.9 107.1 109.9 116.8 127 134.7 138.7 140.9 142.5 140.3 138.3 137.9 138.6 139.7 138.2 139.9 143.5 149.1 153.3 162.1 170.5 178.1 185.7 191 196.1 203 209.5 214 216 218.6 220.9 225 232.9 241.7 248.3 251.9 259 262.6 262.6 248.8 233.1 207.2 188.3 181.8 171.2 168.1 166.2 167 164.3 159 151.8 149.4 146.2 145.9 144.6 143.9 143.6 145 146.7 144.4 139.9 136 135.1 139.9 144.4 144.3 142.6 141.8 143 143.2 142 142.2 141.8 139.7 138.4 139.7 140.7 141 139.6 138.6 138.7 138.6 138.9 139.2 139.8 139.1 138.4 138 137.3 135.4 133.6 133.3 134 137.7 138.7 135.6 134.7 135.4 135.6 138.3 141.5 142.8 141.3 138.2 136.8 136.1 137.2 139.8 141.1 140.4 139.9 138.8 137.3 134.2 131.5 129.6 128.7 130.9 132.2 131.5 129.2 125.5 125.7 127 127.3 126.6 125.3 123.3 122.7 122.4 122.5 122.6 125.4 125.6 125.6 125.5 126.4 128.9 132.6 133.7 134.4 136.4 140.4 143.1 146 132.9 113.1 133.2 165.6 168.4 167.1 169.5 175.2 178.9 181.5 187.3 186.4 178.6 170.5 148.6 139.7 151.2 160.6 164.5 170.5 176 178.7 182.3 183.6 184.3 187.7 191.9 194.9 195.1 197.2 200.8 204.6 208.8 215.9 224.3 224.7 233.5 239.7 248 259.7 275.4 285.4 297.4 297.9 301 311.8 329.8 349 363.2 371.4 368.8 363.8 353 353.6 363.5
107.3 108.4 109.9 112.9 118.7 123.9 129.2 133.5 141.2 145.4 146.1 146.4 147.1 143.1 138.9 140.9 144 147.9 153.4 157.6 168.4 182.1 188.1 193.5 199.6 206.9 215.4 220.7 223.4 224.3 226.6 232.1 242.9 249.3 253.3 256.6 261.3 263.9 257.5 239.9 226.2 201 183.8 177.1 173.1 167.2 163.1 160 158.2 154.9 151.9 150.4 146.9 145.6 145.8 145.3 145 144.7 146.5 145.7 140.8 137.7 136 141.4 144.7 143.7 142.1 142.1 143.1 144.9 145.1 144.3 142.4 140.3 140.1 142 141.8 140.6 140.2 140.4 139.8 139.9 140.9 141.7 142.1 142.4 142.2 141.4 140.3 138.2 136.7 136 136.5 138.5 138.2 136.5 135 136.1 138.5 141.4 142.2 142.7 141.4 138.7 137.8 138.8 141 140.8 138.5 137 136.4 135.1 133.3 131.7 130.6 129.6 131.7 134.1 134.4 132.6 129.8 125.6 128.7 128.4 127.2 126.4 125.3 123.5 123.1 123 123 123.1 124.6 126.1 126.2 126.2 127.3 129.9 132.5 134.4 136 138.5 139.1 141.8 144.5 129.9 114.8 137.6 164.2 164.4 158.8 166.7 176.1 179.4 183.1 188.1 184.1 173.2 154.4 137.3 152.1 158.4 162.9 167.3 171.9 175.2 178.6 181.6 182.1 183.8 187.3 191.4 193.5 194.4 196.4 199.9 203.2 208.2 213.1 220.2 225.9 236.7 242.4 245.7 252.9 260.2 269.8 280 293.3 309.1 322.9 341 355 361.4 362 361 356.3 346.2 347.8 359.5
108.7 110 111.5 116 116.6 120.1 128.4 134.6 142 150.4 151.5 153.5 151.2 142.4 139.3 141.5 147.2 152.5 160.4 167.5 171.5 170 184.9 190.6 197.3 207.8 221.5 230.8 231.4 233.5 236 240.4 247 252.8 260.3 267.1 266.8 264.6 251.7 235.2 213.5 194.7 182.9 179.5 173.9 166.9 166.6 167.6 164.7 157.5 154 150.6 148.4 146.7 144.7 143.4 142.9 143.3 145.1 147.6 143.9 139.8 139.1 143 144.3 142.4 141.6 142.4 144.6 145.7 145.8 146.5 144.8 142.6 142.6 144 143.9 142.7 141.5 142.2 141.7 143.4 144.6 143.9 143.7 145.5 145.5 143.9 143.6 141.4 139.7 138.8 138.4 138.7 138.9 138.7 136 138.7 141.8 143.4 143.7 143.7 141.7 139.8 139.5 141.5 142.3 140.2 135.6 133.1 132.5 132.5 133.1 134.8 134.4 134.2 135.5 135.4 135 132.4 127 129 130.3 128.5 127.2 126.2 125.3 124.2 123.7 123.7 123.6 123.7 123.6 125 126.4 127.3 128.3 130.6 131.8 133.6 136.6 138.2 138 140.2 142.6 124.2 114.4 142 159.9 139.9 129.3 147.2 167.6 179.4 184.4 185.7 179.2 165 141.3 139.3 154.6 159.8 164.2 168.7 173.3 175 178.2 181.4 181.4 183.2 186.3 190 190.1 191.5 195.3 198.7 202 206.6 215.8 224.9 231.8 244.6 253.4 262 262 267.6 277.8 289.9 307.9 327.4 345.1 350.1 357.3 358.2 356.8 352.9 349.3 342.9 342.3 356.6
109.4 110.8 112.4 114.9 116.6 121.2 128.9 136.2 145.7 152.6 156.2 156.7 148.9 142.4 140.6 141.9 149.8 156.9 164.5 172.3 180 179.8 180.8 187 196 209.9 224.1 238.1 238.8 243 245.6 248.4 252.8 258 266 266.4 266.1 262.8 255.4 240 213.9 195.7 185.7 182.1 175.8 170.7 174.8 178.7 177.3 170.8 162.8 155.8 149.7 146.6 144.4 142.8 142.1 142.1 143.8 146.1 145.2 140.5 139.7 145.6 144.5 142.7 141.7 144.9 147.3 148 146.4 146.8 145.7 146 145 144.9 145.1 145.4 144.8 143.7 145.4 145.8 146 144.4 145.7 146.7 146.8 144.6 142.4 141.5 140.4 140 138.7 137.8 137.4 137.1 136.5 140.7 142.2 142.8 144.2 144.4 142.8 140.5 140.4 141.6 142.7 139.6 134.3 132.9 132.7 133.7 136.6 139.4 140.3 139.7 138.7 136.9 134.8 127.9 131.1 132.7 131.6 129 127.3 126.2 125.2 125.7 126.3 126.4 125.5 124.6 124 124.2 126.1 127.9 129.6 131.7 133 134 136 137.7 137.7 139.5 141.9 117.6 115.7 142.8 132.2 115.3 115.1 115.5 137.6 169.6 182.9 184.1 172.5 158.9 135.2 141.2 155.3 160.1 165 169.3 174.5 175.9 177.9 181.1 180.6 180.7 183.4 185.4 184.7 188.7 193.1 197 200.8 207.2 219.1 231.5 238.9 243.2 255.1 269 276.6 278.7 286.9 303.7 324.3 342.8 354.2 354.2 354.2 356.8 350.8 347.6 344 337.7 339 352.5
110.1 111.2 113 115 116.8 122.9 131.6 142 147.9 151.9 156 153.3 147.3 142.9 142.2 146.9 152.7 162.9 171.5 178.9 185.2 184.9 182.9 187.9 197.1 213.3 226.9 241.4 246.5 249.1 250.6 256 258.8 260.1 263.6 267.2 271.8 265.4 251.7 238.6 217.1 200.6 189.4 184.5 182.2 175.9 179 183.8 182.2 177.9 169.6 161.1 153.9 148.6 144.5 143.1 142.3 142.2 142.2 143.3 144.2 141.9 141.9 143.9 143.7 143.3 143.3 147.8 150.2 150.7 149.2 146.6 146.4 147.6 147.7 148.2 149.1 149.3 148.2 149.1 149.7 148.3 146.1 144.7 144.7 145.7 146.1 144.2 141.9 139.7 138.5 138.5 137.9 137.7 137 136.9 137.3 140.2 141.9 142 142.7 143 142.3 142 140.6 139.8 140.1 138.5 134.8 133.8 134.1 138 141.8 143.2 142.2 140.2 138.2 136.2 133.9 129.7 134.3 134.8 133.4 131.2 129.4 128 126.8 126.4 127.1 127.5 126.9 125.5 125 125.4 126.9 126.5 128.6 130.6 132.6 135.1 137.1 138.1 138.9 141.8 141.9 114.2 116.2 138.7 116.3 116.9 117.6 117.3 116.6 151.5 182.5 179.8 168.6 157.7 142.5 136.7 154.4 160.1 165.4 170.6 175.5 176.3 178.7 179.9 178.3 174.4 177.4 182.2 182.5 188.7 192.6 196.9 201.1 206.2 221.1 236.8 250.4 254.8 254.9 269.3 283.6 290.4 298.5 312.7 327 340.5 350.2 351.2 347.9 344.7 343.1 341.8 338 332.7 339 345.6
110.8 111.8 113.5 115.5 117.7 122.2 131.1 141.2 146.3 150.2 151.7 150.6 146.6 144.5 145.3 149.3 159.6 169.1 178.5 186.2 190 188.4 188.1 191.4 199.2 215.1 228.7 244.8 252.5 254.7 257.6 263.8 266.1 266 270.9 276 277.6 270.7 254.4 243.3 225 209.3 193 188.4 186.1 180.4 181.3 187.5 187 182.2 173.9 165.1 156.4 150.7 145.9 144 143.7 142.6 142.2 141.9 142.8 141.9 141.9 141.9 142.9 145.2 147.5 150.7 153 152.9 151.8 150 148.8 149.2 151 151.7 151.2 151.1 149.3 150.5 150 148.3 146.5 145.1 144.4 144 144.5 143.8 141.6 139.3 138.6 138.9 139 139.1 138.6 138.3 138.5 139.2 141.1 141.5 142 142.5 143.3 142.4 140.3 139.4 138.7 137 136.1 135.5 136.1 140.2 143.7 143.7 141.8 140 138.8 137.3 135.8 134.3 133.8 136.4 135.8 134 132.2 130.5 128.9 127.3 127.5 126.7 125.3 126.3 127 127.7 128.7 126.7 129.2 130.5 132.4 135.5 138.2 139.2 140.6 143.7 143.5 115.7 115.9 117.7 115.9 118.9 121.3 119.2 116.4 142 179.2 176.4 167.4 158.3 150 133.2 153.9 158.5 164.3 171.2 176.6 178.2 178.9 173.4 172.4 180.4 184.8 188 188.2 190.4 194.2 198.2 202.4 208.3 222.8 239.3 257 264.8 267.4 277.9 290.5 300.7 310.5 321.2 335.6 344.9 350.7 355.4 344.1 336 332.8 333.6 331.5 326.3 336.2 343.1
110.9 112.1 113.9 116.9 123 121.3 124 135.2 145.1 149.4 150.6 145.1 143 145.1 147.4 152.8 162.2 171.1 181.6 190.3 190.3 190.4 192.2 197.8 207.3 213.5 229 244 252.8 256.5 259.9 264.8 264.8 270.4 277.4 282.1 281 269.6 259.8 243.1 230.8 217.6 202.6 193.1 189.7 184.7 182.1 187.9 189.3 186.1 178.2 169.8 157.7 151.2 147.8 145.6 145.4 147.1 145.9 144.1 141.9 141.9 141.9 141.9 142.6 147.4 151.9 153.7 154.8 153.5 151.9 150.4 150.9 150.7 150.2 150.7 150.3 150.6 149.8 150.3 149.4 147.5 145.1 144.2 143.9 143 142.6 142 141.1 139.6 140.1 141.1 140.9 140.6 140.5 141.3 140.7 142.2 142.9 141.8 142.2 142.7 142.8 142.3 140.2 139.3 139.3 138.8 138.2 138.2 139.3 140.2 143.3 143.1 142.4 141.5 140.2 138.9 137.7 136.7 134.2 137.1 136.7 135.7 134.5 132.9 131 129.2 127.7 126.7 126.3 127.3 129 129.7 130.1 129.8 128.6 130.2 132.4 135.5 137.8 139.1 141.5 144.6 145.7 133 115.1 136.3 138.7 136.6 128.7 122.6 116.8 134.1 177.1 172.7 165.1 153.1 137.8 139 154.4 159.1 164.2 170.9 177.5 177.9 174.4 169.1 176.6 183.5 187.5 190.5 189.9 192.8 195.9 199.6 204 209.9 223.8 237.6 254.8 266.9 274.8 286.3 299.2 311.1 321.6 330.8 342.4 349.6 356.3 359.7 357.1 336.9 325.8 325.9 323.2 325.3 331.4 337.2
111.2 111.8 115.9 122.7 129.4 131.4 123.9 135.3 143.8 147.2 139.1 138.6 141.8 145.4 146.7 154.1 161 169.2 180.8 185 189.5 193.5 198.8 206.3 214.2 221.4 231.4 240.3 247.4 254.8 257.6 259.3 264.6 273.3 283.2 285.3 284.6 268.9 257.9 243 234.2 222.1 207.7 196.8 191 185.5 183.9 186.4 188.9 188 181.6 171.8 159.2 152.6 150.3 147.1 147.9 149.2 148.7 146.8 143.5 142.4 141.8 141.9 142.8 147.3 152.4 153.4 153.2 151.4 150.8 149 148.1 147.4 147.7 148.2 148.2 147.5 148.2 147.1 146.1 145 144.9 146.6 146 144.5 143.1 141.9 140.6 139.5 142 143.4 142.4 142 142.4 143.9 144.7 145.3 145.6 144.9 144.1 143.3 144.3 144.1 141.6 141.1 141.4 141.2 140.4 140.6 140.7 141.4 142.1 142.5 141.8 141.2 140.5 139.8 139.1 137.8 135 137.4 137.1 136.7 135.5 134.2 133 131.3 129.3 128 127.6 127.6 129.4 130.9 131.3 131.3 130.3 131 131.9 134 135.9 138.6 141.8 145.9 147.8 149.3 148.4 156.8 158.2 156.4 136.8 123.1 116.5 126.8 173.9 167.5 154.1 138.7 128.7 143.8 154.7 160.4 165.7 171.2 176.6 174.4 167.6 172.1 177.6 184.3 188.6 191.6 191.6 194.7 197.8 200.9 205.2 212.8 227.5 243.3 262.5 273.6 280.2 289.7 306.1 319.2 329.3 337.4 348.4 349.6 354.6 354.5 349.2 346.5 328.9 318.8 316.7 324 326.4 331
111.7 113.7 121 126.9 135.1 138.3 127.1 129.8 138.6 132.9 136.8 141 146.4 153.2 151.3 156.2 162.2 168.4 176.4 184.1 190.4 198.1 205.4 211.9 224.1 234.1 240.5 242.5 248.4 253.4 256.8 259.8 266 279.9 289.5 289 278.9 268 255.8 242.7 232.1 217.6 206.4 199.1 191.7 188 187.4 190.4 190 189.5 183.7 174.2 163 155.4 153.7 151.2 151 150.2 148.1 145.6 143.8 142.7 141.7 141.3 144.3 147.5 150.6 149.8 149 148.5 149.3 148.9 148 146.9 146.5 146.6 146.9 146.5 147.2 147.2 145.1 144.7 146 146.9 148.5 147.3 145.5 143.9 140.9 139.7 141.6 143.6 142.4 142.3 142.7 146.6 146.8 147.4 147.2 146.3 145 144.4 145 145.3 142.4 141.9 142.8 143.6 143.4 142.7 142.1 142 141.8 142 140.1 139.3 138.6 138.3 137.5 134.2 137.2 137.8 137.8 137.6 136.3 135.1 133.8 132.7 131 129.8 129.6 129.3 129.3 131.4 132.3 132.7 132.3 132 132.6 133.8 135.4 138.3 142.7 148 150.8 152.4 153.8 159.5 163.1 162.4 142.5 118.2 117.1 135.7 165.2 152.7 138.5 128.6 132.2 142.1 154.2 159.6 166.8 173.1 176.4 167.3 160.6 167.6 172.6 180.5 185.7 189.5 192.3 196.4 199.6 202.7 207 215.4 230.6 245.4 266.2 278.6 285.6 293.5 311.4 326.7 334.5 341.2 349.2 347.3 346.6 345.7 338.6 341.1 329.1 315 313.8 317.7 322.5 328.9
112.4 118.2 124.9 133.8 139.7 140.6 135.1 131.2 131 135.5 140.4 148.5 156 159.2 154.5 162.2 169.7 176.7 185.4 190.5 197.6 204.6 211.4 224.3 239.3 244.5 248.1 249 251 255.4 259.1 263.3 272.2 289.8 292.8 287.8 275.1 267.9 253.5 243 236.4 218.8 207.2 201.3 197.1 194.2 193.3 196.5 193.8 192.3 189.3 180.1 171.8 164.6 158.4 156.1 153 151.5 149 146.1 143.8 141.3 141.3 142.2 143.2 146.5 147.7 148.9 148.1 148 148.9 149.9 148.9 147 146.7 147.4 147.4 147.6 147.8 145.8 144.8 144.8 146.4 147.5 148.2 148.9 146.7 144.4 141.6 140.6 140.5 143.3 142.7 144.1 147 148 150.1 149.5 148.9 148 146.1 146 145.2 145.1 143.8 143 143.3 144.5 146.7 146.6 145.6 143.6 141.6 141.2 139.5 137.4 136.7 135.9 134.3 135.1 137.4 138.5 137.7 138.4 137.2 136.1 135 133.7 132.3 131.2 131.5 130.9 130.1 131.4 132.7 133.3 133.7 132.5 133.3 134.5 136.5 139.2 143.1 148.3 150.5 153 156.9 159.1 158.8 154.2 131.8 117.8 118.4 146.8 150.4 131.1 126.9 129.5 142.6 136.5 135.9 152.8 161.8 168.8 173.3 161.2 164.2 172.9 178 180.2 180.2 187.7 192.5 197.9 201.3 204.2 208.4 216.2 231.3 245.7 265.2 277.5 285 295.5 313.6 332 337.5 343.6 345.4 344.3 343 334.1 328.6 331.6 323 311.4 309.6 314.6 321.8 326.3
115 122.6 130.2 142.2 145.1 143.1 138.4 134.4 136.2 138.8 150.7 160 164.9 164.5 158.5 166.8 176.4 184.2 190.5 197.3 205.9 209.5 219.3 234.5 245.4 249.8 252.7 252.5 254.7 258.2 262.8 269.9 290.1 298.6 296.4 284.9 275.7 267.4 253.8 253.7 243.3 226.8 212.3 206.5 202.3 199.5 199.3 200.5 199.4 198.4 194.1 185.5 178 170.8 166.3 162 157.7 154.7 153 148 144.7 141.5 141.3 141.3 143.9 145.5 147.1 147.2 147.8 147.8 149 149.7 148.7 146.9 146.1 146.5 148 147.6 148 146.6 145.2 145.2 146.9 149.2 148.5 147.4 145.6 145.1 143.1 141.2 141.1 142.6 142.9 146.2 149 150 150.8 150 149.9 149.4 148.6 147.5 146.8 146.1 144.6 144.2 144 146.9 148.5 148.8 148.2 144.8 142.7 141.2 139.4 136.5 134.6 133.7 132.7 135.1 136.6 137.7 138.5 139 138.3 137.2 136.1 134.6 133.2 132.7 132.8 131.7 130.9 131 133.4 133.1 133.7 133.3 133.9 135.4 137.5 140 143.5 147.5 151.1 155.2 157.8 159.8 154.6 135.6 118.2 119.2 125 141 125.3 126.7 130.4 134.8 150.8 147.6 142.2 141.6 154.3 162.9 163.7 156 169.2 175.7 181.1 186.1 187.7 188.1 194.3 198.8 202.9 205.8 210.4 217.3 232.8 244.6 261.3 276.7 284.9 296.1 314.6 330.2 336.8 340.6 343.6 342.9 338.2 327.2 315.5 319.2 316.1 304.6 308.2 313.4 321.2 321.9
120.5 129.1 140 148.7 148.3 143.7 138.9 138.8 139.6 151.4 162.9 169.1 169.1 165.2 164.4 173.1 182.9 191 197.6 204.6 213.3 217.7 226.5 239.8 244.8 253.5 256.7 259.1 261.2 262.6 272 289.6 303.6 305.7 296.7 286 277.2 268.1 258.3 262.7 251.4 234.3 219.3 210.6 206.8 205 204.1 205.8 206.9 206 201.2 193.4 184.8 176.3 171.4 167.7 162.9 160.5 158.4 155 149.7 143.3 141.3 141.8 143.8 145.1 146.5 146 146.8 148.3 149 149.1 148.6 147.1 146.1 147.1 149.2 150.5 148.6 148.6 147 145.9 147.6 150.2 148.4 146.6 145.5 145.5 143.6 142.6 141.3 141.7 142.6 146.5 150.1 151.1 151.5 149.3 148.6 150 150.6 150.5 149.7 148.3 145.9 146.4 147.8 149.7 149.7 148.1 147.1 145.8 143.7 142.5 140.6 138 135.5 133.9 133.9 134.1 135.6 136.9 137.7 138.5 138.7 137.7 136.6 135 134 134.6 133.9 132.5 131.3 131.8 134.3 134.6 134.2 134.1 134.5 136.3 138.4 140.8 144.4 148 151.8 156.1 156.9 156.1 150.1 124.4 120.4 121.4 139.4 125 130.9 146.9 149.7 145.4 146.4 154.1 152 153.3 155.2 149.4 149.4 159.1 171.7 177.4 183.8 189.1 191 189.8 194.7 199.1 202.8 206.6 211.2 217.5 233.9 247.6 264.5 282.7 291.2 298.1 313.6 329 334.9 338.4 340.3 339.8 338 325.8 310.2 308 307.6 302.8 308.7 313.6 319.3 324.1
128 137.3 147.6 152.9 150.1 144.4 145.8 148.9 153 165.1 171.7 170.3 166.5 169.8 174.3 177.5 188.6 195.7 203.3 210.7 220.4 225.5 232.1 237.2 243 252.5 257.7 262.5 263.6 271.2 288 304.8 312.6 306.8 294.9 287 281.2 275 266.3 269.1 259.7 245.9 227.4 218.4 211.3 210.8 209.8 210 212.8 213.4 210.8 205.4 195.2 185.2 178.3 171.7 168.5 165.8 163.9 159.7 155.1 148.6 143.8 142.9 143.2 144.4 144.3 144.8 145.8 148 149 148.5 147.9 147.3 146.6 147.9 149.5 149.5 148.4 149.5 148.7 147.4 148.1 150.3 149.1 146.5 145.5 146 145.1 144.1 142.2 141.6 142.6 144.1 147.6 149.3 151.2 151.4 150.8 151.6 152.1 153.4 153.1 151.2 148.6 147.6 149.8 151.3 149.4 148.5 147.5 146.2 145.1 143.9 141.8 139.4 136.8 135.5 134.9 134.5 134.5 135.8 136.6 137.4 139 138.1 138.3 136.1 135.7 136.3 135 133.7 132.9 132.1 134.8 136.1 134.9 135.1 135.9 137.5 139.7 141.6 145.1 148.7 152.2 156.3 157.8 154.3 146.6 127.4 119.5 120.9 131.3 139.9 145.8 151.6 155.5 154.3 150.1 157.9 161 164.8 165.9 164.2 162.5 166.2 173.3 179.4 184.9 189.4 192.3 190.5 194.9 198.7 202.5 207.2 211.6 218.2 230.8 244.9 259.6 276.2 282.9 295.2 314 330.8 336.5 334.7 333.9 334.6 331.8 320.1 307.7 301.6 298.2 302 308.9 313.1 313.1 320.1
