ncols 200
nrows 84
xllcorner 200000
yllcorner 682250
cellsize 50
17.8 18 17.4 17.4 16 17.6 18.3 23.4 35.4 48.1 61.4 76.6 83.5 91.5 102.6 107.1 107.2 109.4 114.2 126 133.7 135.1 139.1 140 140.7 141.6 139 142.5 149.6 156.4 167.2 174.9 178.4 184.4 188.2 186.2 203 208.8 210.4 213.7 217.8 221 224.7 228.4 232.7 237.9 241.1 244.3 247.2 250.1 252.6 257.4 260.9 261.1 262.9 266.5 267.7 268.6 268.9 268.9 268.8 268.9 279.6 284.7 289.3 290.5 301.4 306.8 306.4 299.2 285.7 288.3 298.9 302.4 305.5 308.8 311 306.2 298.3 300.1 303 300.5 292.8 289.7 282.6 287.7 290.3 289.3 284.6 290.3 289.7 287.1 275.2 264.8 261.3 236 228.2 216.4 199.6 176.4 152.1 126.1 95.1 101.2 113.5 116.4 119.2 137.6 152.1 132 124 115.6 105.4 84.3 80.7 87.3 86.1 88.3 98.5 122.5 148.7 171 190.1 198.3 212.5 228.6 252.7 266.6 283.5 293.6 307.8 319.1 328.1 331 332.7 340.3 346 355.8 359.7 365 368.7 371.9 373 373.4 374.2 374.7 374.8 373.5 374 372.2 368.7 366.7 361.4 350.2 326.2 310.6 296.8 277.8 251.8 235 220.6 199.3 188.8 176.9 167.1 161.9 155.8 151.6 150.8 147.7 147.6 151.9 159.9 166.7 175.9 185.4 193.6 204.9 217.9 227.8 237.9 244.5 257.3 266.2 279.1 286.6 300.6 307.1 326.1 341.7 357.8 375.6 386.3 396.7 401.3 409.9 417.4 425.1 433.9 450.9
17.1 17.2 17.2 16.9 17.2 17.1 18.1 24.5 35.8 48.6 62.2 73.9 81.9 89.6 103 101.9 102.1 106.5 121.5 131.8 138.2 141 140.9 143.2 147.3 144.3 142.1 144.2 154.5 160.9 169.5 176.7 184.8 191.1 193.5 197.4 203.2 207.6 210.8 215.2 219 223 225.9 228.9 232.5 238.7 240.7 243.6 246.6 249.8 254.1 258.5 261.8 263.7 265.5 269.7 269.4 269 268.9 268.9 268.9 269.2 278.8 287.9 289.5 285.9 295.5 299.2 302.4 289.4 281 291 296.3 301.3 306.3 313 315.2 307.1 300.6 307.8 314.1 306.7 296.8 290.4 285.5 292.8 294.3 297.4 292.8 299.6 297 292.3 282.4 277.7 260.2 251.7 232.2 221.9 211.1 194 173.3 142.3 113.4 89.4 81.3 89.4 98.2 109.8 130.1 114.5 106.7 100.3 91.2 66.2 65.9 69.9 65.6 86.1 109.8 134.8 157.3 179 199.3 211.9 218.8 235.9 256.9 271.1 282.7 299.2 311.8 321 326.1 329.6 335 338.1 342.7 350 355.2 364.1 370 373.2 372.5 374.3 374.5 375.6 373.4 371.7 371.2 368.8 365.7 364.5 362.4 354.1 323.8 290.1 276.4 262.6 244.2 223.7 211.4 193.6 182 169.1 161 154.2 150.1 150.8 142.8 145.1 149.3 157.3 164.3 171.6 181.5 190.2 201.7 214.4 221.8 234.4 245.5 255.8 266.2 276.9 288 298.8 310.3 326.9 334.8 353.3 369.6 382.1 391.7 399.9 410.8 414.2 421.1 429.3 436 441.5
17.4 16 16.6 16.9 16.4 16.6 19.5 26.1 37.6 50.4 61.5 73.6 80.9 82.8 93.1 98.6 101.4 117.1 128.6 136.1 144.6 147.2 145.7 147.7 152.7 146.2 145.2 148.3 159.1 169.2 175.3 180.8 189.5 194.9 198.1 201.8 207.6 207.8 210.2 215.4 220.6 225.4 229 229.2 231.9 236.9 239.5 242.5 246.2 250.1 254.4 258.7 261.4 262.3 264.3 269.8 269 269.6 269.6 269.5 269.8 274.8 279.8 284.4 284.6 280.6 290.9 292.9 291 281.6 282.8 290.1 296.9 301 306.9 311.5 314.7 308.1 304 312.3 315 309.9 298.1 293.6 291.7 294.2 298.1 306.1 306.3 301.1 305.6 299.3 292.7 280.6 270.8 267.7 249.2 230.5 229.7 220.2 194 167.8 128.4 110.1 84.4 69.1 76.4 89 104.7 85.8 88.1 78.7 66.9 53.4 55.3 55.6 69.5 94.4 119.8 142.7 165.6 189.7 202.6 215 230 236.7 258.4 270.1 278.3 305.2 313.7 319.3 321.4 331.3 337.3 337.2 340.6 350.9 358 364.4 370.1 372.8 374 375.4 375.7 375.6 373.2 369.3 367.3 364.7 361.9 357.5 350.5 336.1 312.7 278.3 260.7 253.2 233.8 216.2 196.8 183.6 171.3 160.5 155.9 152.7 149 145.6 139.8 144.1 152.2 160.4 168.8 177.7 187.4 197.3 207.8 222.6 236.1 244.2 255.6 265.8 274.3 284.4 296.1 316.1 335.7 340.8 355.5 364.7 375.3 385.9 394.7 407.9 413 424.3 424.6 432.3 439.9 443.2
18.2 17 15.3 16.5 15.8 19 21.5 30.5 41.1 52.2 62.5 72.3 79.2 83 95.7 101.9 112 124.5 134.7 141.4 142.7 145.9 147.6 150.1 149.2 150.6 150 156.7 162.5 171.4 178.1 186.1 191.9 199 202.3 206.5 210.2 210.5 211.2 215.3 222.4 227.3 230.6 230.5 232.6 235.9 239.9 243.4 246.2 250.2 254.5 258.8 260.7 262.4 263.5 268.8 269 269.8 269.2 269.3 272.1 276.9 277.5 278 278.6 275.9 283.4 286.2 281.2 272.8 284.4 291.4 296.3 301.6 306.4 309.8 311.2 306.4 306.6 313.2 314.2 310.5 300.5 297.3 297.4 298.2 301.1 309.9 314.7 309.5 307.5 308.4 290.9 283 283.1 277.9 265.7 232.2 232.4 237.2 222.7 173.7 148.3 122.3 96.5 82.6 62.9 71.1 81.5 73.4 69.3 60.9 54.6 40 40.7 53.9 75 102.6 122.3 144.6 180.1 191.9 199.8 221.9 240.3 244.2 254.6 270.1 283.9 301.7 309 319.1 320 332.7 329.8 336.1 342.8 353.2 358.5 362.9 368.9 372.2 374.3 376.3 376.7 375.2 373.3 368.9 358.9 360.7 360.5 342.8 323.7 299.6 282.4 266.5 254.1 232.3 218.2 204.8 188.3 172.5 160.6 153.9 150.9 148.5 140.4 139.2 140.8 146.6 154.5 162.7 171.2 183.9 193.6 204 216.4 230.5 244.4 255.1 267.9 270.6 283.6 294.6 310.3 330.9 345.8 363.4 370.4 383.9 386.5 390.5 400.3 409.5 416.4 424.7 428.1 434.9 443.5 450.5
18.2 17.3 16.6 15.4 15.5 20.5 23.9 33.2 44.7 54.6 64.9 73.9 82.3 92.5 102.5 115.5 122.8 126.8 138.5 144.9 146.3 146.1 146.7 149.3 150.8 153 157.4 166.8 171.5 179.8 181 186.2 195 201 205.4 209.6 211.9 213.4 215 213.7 222.1 227.3 230.4 230.4 233 236.3 239.7 243.1 246.6 250.9 254.7 258.8 261 262.6 264.9 267.8 270.6 270.8 270.8 270.9 272.9 278.4 278.6 277 270.5 270.8 274.1 273.7 269.2 275.4 286.7 292.2 297.2 302 305.9 309.6 306 305.9 306.7 308.5 311 306.8 301.8 302.5 304.5 305.8 305.9 311.6 317.1 317 314.1 311.8 306.3 297.4 290.2 281.9 266.6 240.7 226.8 244.4 225.7 181.6 160.1 134.6 117.3 94.6 71.2 49.6 57.6 65.7 59.3 53.1 45.7 38.2 54.3 68.9 85.7 105.3 132.4 153.6 183 193.3 208.4 230.1 239.5 251.2 260 270 281.5 301.1 311.3 316.8 316.2 322.2 330.9 336.8 341.5 349 356.5 365.1 369.7 372.4 375.3 377.5 378 377.2 375 374.1 368.2 338.5 342.8 323.7 302.5 283.4 265.8 256.6 240.4 225.9 209.3 191.5 179 163.9 153.5 148.6 144.2 143 139.5 139.6 142.8 150.9 158.8 168.4 180.3 188.3 198.4 211.9 225.1 240.7 251.3 262.6 273.8 281.1 289.3 306.2 326.1 345.9 371.2 386.8 395.8 395.1 398.3 404.8 408.7 412 417.4 425 431.5 437.6 447 451.8
18.3 17.5 17.1 16.7 17.1 21 27.2 36 46.8 57.1 67.5 77.1 85.9 94.9 107.4 121.9 130.6 136 142.5 149.7 150.6 149 149.6 152.2 154 158.5 166.2 174.4 176.6 182.6 188.3 193.2 196.3 202.7 206.9 210.2 213.5 217.2 220.9 219.7 222.7 230.1 230.8 230.5 232.5 236.3 239.6 243.1 247.6 251.9 255.5 259.3 261.7 264.6 267.3 268.8 270.4 270.4 270.6 270.8 271 277.4 281.1 273.1 269.1 269.4 266.7 266.6 267.4 277 287.1 292.2 296.6 301.7 306.4 305 304.7 305.8 306.7 308 307.4 305.1 305.7 308.3 311 312.1 313.9 311.2 322.7 323.9 320.3 319.3 318.2 306.7 296.1 291.6 280.6 245 222.1 235.2 218.1 189.3 169.3 155 134 112.7 84.2 56 43.8 56.1 51.1 47.9 32.9 35.8 60.5 75.8 93.5 115.7 146.4 159.1 176.5 190 212.1 230.5 243.7 254.3 260.8 268.8 277.4 289.3 305.6 301.2 313 321.3 335.1 338 341.6 349 357 366.6 370.8 372.5 376 377.4 379.8 381.7 379.3 376.8 369.5 351.3 308.4 303.7 293 270.2 256.8 244.1 230.5 216.5 202.2 186.7 167.9 154.9 145 140.8 138.7 139.2 139.7 139.6 146.1 155.3 163.4 172.5 186.4 196.8 205 218.9 234.4 248.6 259.4 270.1 278.9 287.3 306.8 325.8 341.2 360.2 377.1 398.9 406.3 414.3 411.2 414.8 419.4 422.3 425.1 426.2 432.3 438.4 448.3 454.6
18.2 17.1 16.2 16.1 19.7 21.5 28.3 38.1 47.9 60.3 72.7 82 90.1 98.8 110.7 126.7 134.8 141.3 147.2 151.1 152.8 153.1 156.3 158.4 159.8 167.1 175.1 180.7 184.6 187.5 191.4 195.8 200.6 203.6 209.9 213 215.5 218.4 220.5 220 220.1 229.5 231 229.7 232.4 236.4 239.1 243.1 248.5 252.8 257.1 260.6 262.8 265.5 267.9 269 270.5 270.3 270.3 270.5 269.6 273.2 275.7 269.8 270.8 265.5 262.3 263.5 273.6 279.8 284.8 294.2 298.2 299.6 300.4 302 303.7 305.9 306.3 306.3 306.6 307.2 308.4 312 317.2 320.3 325.4 323.8 318.3 331.4 328.1 330.5 337.2 322.2 310.9 300.2 287.2 255.5 219 219 203.7 191.4 184.7 178.6 143.3 130.5 98.8 62.4 40.2 50.8 45.5 42.2 32.3 36 56.7 76.1 95.2 115.4 159.9 172.7 181 186.6 222.3 235.4 247.2 259.9 267.6 274 280.7 283.5 290 303.2 313.6 322.4 334 336.9 344.2 350.5 359 366.2 370.8 373 376.1 379.1 382.2 383.4 383 376 367.5 351 314.8 280.4 270.4 258.8 247.4 235.3 222.2 205.8 189.2 179.4 160.6 150.1 141.5 135.8 132.7 130.9 135.7 142.1 148.5 159.1 169.8 182 192 203.3 214.8 227.5 240.2 253 267.6 278.2 288.8 301.9 322.2 342.1 363.2 375.9 394.5 406.1 414.2 421.8 425.7 425.1 428.2 431.1 433 435.4 440 442.9 450.1 457.8
17.6 15.3 15.3 18.1 19.8 23.5 29.4 39.7 50.4 64.8 78.4 87.5 95 103.5 117 131.2 139.4 146.2 152.2 154.8 156.4 158.2 163.2 169 169.1 175.9 184.4 190.3 193.5 195.7 200.7 202.7 205.2 209 212.8 216.2 217.6 220.4 221.3 220.6 219.6 227.4 229.6 229.8 233.9 238.7 240.7 243.5 248.7 253.1 257.9 261.5 263.8 266.3 268.7 270.1 270.4 270.7 270.2 269.6 266.7 268.2 270.6 270.4 263.4 259.8 262.1 266.9 278 284.1 284.9 291.9 294.2 295.8 296.8 302.1 304.8 305.3 305.4 305.7 306.7 308.4 312.3 319.6 323.4 326.1 331.2 337.1 335.4 324 332 340.2 352.9 340.8 320 299.9 289.4 259.5 221.9 209.2 203.3 199.6 191.6 191.3 152.4 146.1 106 72.1 51.6 37.6 38.1 37.3 32.1 31.6 56.8 67.2 84.7 111.9 135.4 165.6 180.8 192.3 222.4 234.5 247.9 261.2 269.7 276 283.1 288.6 296.8 304.2 311.8 322.1 326.9 334.2 344.3 353.8 361.3 367.5 370.3 372.5 376.9 383.6 387.9 387.5 388.6 376.7 358.2 337 304.1 275.8 250.6 245.9 233.9 228 210.9 196 181 165.6 151.6 142.3 136.9 130.4 129 129.6 136.1 144.1 154 162.1 171.9 185.9 197.6 209.4 223.1 238.2 250.5 261.9 274.4 286.1 297.4 316.6 340.8 361 380.4 389.9 401.7 424.7 426 427.9 433.4 437.1 437.1 432.9 439.2 444.8 447.5 450.1 451.7 459.6
16 16.8 16.8 18.4 19.6 23.5 29.6 37.6 50.3 65.6 80.6 92.6 101.3 110.6 123.2 135.6 143.8 150.9 156.5 159.2 159.1 162.9 170.1 174.7 174.4 183.9 191.2 198.8 202.3 206.4 209.7 211.4 214.6 216.9 217.3 219.1 223.9 225.5 225.5 223 220 224.3 228.2 231.7 235.8 240.3 242.7 245 249 253.6 258.7 261.6 264.4 267.1 269.1 270.8 270.9 270.2 268.1 265.2 262.6 263.6 268.2 265 258.6 262 267.2 272.6 279.7 283.2 284.1 285.9 288.6 291.5 297.8 303.6 306.1 305 304.5 305.4 306.5 315.4 319.6 326.7 332.8 339.5 337.6 342.8 345.7 331 330.1 344.9 359.1 350.9 332.7 302.4 279.6 249.8 220.2 206.9 205.9 202.6 183.4 185.8 155.4 154 112.3 72.9 51.9 39.9 31.9 30 28.6 29.9 52.9 69.5 92.6 116.5 139.8 157.5 179.3 195.5 212.3 228.6 251.3 265.4 271.2 275.7 283.5 292.9 300.8 308 313.9 319.5 324.7 335 348.2 361.2 368.9 366.7 368.1 371.6 379.2 383.1 386 397 396.5 380.9 363.7 322.8 286.9 263.9 250.1 233.5 219.7 216.4 204.1 187.1 167.4 155.4 144.7 137.8 131.5 128.9 129.7 135.1 141.4 147.1 156.2 165.4 181.7 193.6 205.3 216.3 230.6 247.8 263.9 272.1 282 294.2 310.3 331 357.8 377.5 392.6 410.6 418 422.4 441.6 444.5 444.4 450 450.9 446 448.1 452.1 451.6 457.1 456.8 461.6
15.7 16.4 16.9 18.3 19.4 21.7 32.1 41.8 54.5 72.9 84.8 97.6 107.6 118.1 133.3 141.7 147.2 154.3 160 161.1 163.2 170.2 173.3 178 181.3 193.3 202.6 207.5 213.5 214.8 215.2 219.5 220.8 224.9 223.8 226 230.5 234 231.9 229.4 229 229.6 230.3 234.9 236.7 240.2 243.1 246 250.2 255.2 260.7 263.1 265.7 268.3 269.9 270.8 270.6 269 267.8 264 259.2 259.1 260.5 258 255.1 262.4 268.6 276.3 279.1 281.9 281.4 283.5 286.5 292.1 297.2 301.2 303.3 303.5 302.9 303.9 306.9 317.4 326.5 331.7 336.5 345.4 344.9 344.2 344.8 339.3 345.1 340.4 355.4 352.6 339.5 293.6 252.7 225.4 205.2 203.1 207.4 197.4 171.9 170.2 146.3 136.9 98.1 72 49.5 36.7 34.7 26.4 27.2 33.8 54.1 76 96 118.3 149.7 165.9 182.6 200.1 228.5 241.1 256.8 266.3 274.2 279 284.3 294.3 303 309.3 315.4 322.5 326.4 338.9 357 370.1 370.9 365.6 365 371.2 379 385.2 385.8 396.5 394.8 380.4 364.5 327.8 297.9 264.6 242.6 222.2 204.4 203.3 190.6 177.9 160.8 149.7 138.7 132.2 128.7 128.8 131.7 136.6 143.6 152.5 161.8 172.1 185.4 198.5 211.8 223.5 238.6 254 269.6 279.8 290.4 304.3 328.3 344.5 367.6 383.1 405.6 426.3 436.1 443.3 444.9 457 464.1 459.4 458.9 454.8 457.4 460.3 460.2 462.4 462.1 462.9
15.7 15.6 17.2 18.7 19.5 23.6 34.2 47.2 60.8 75 88.7 102.3 113.4 123.9 137.8 150.1 150.4 155.9 162.1 164.4 169.2 176.6 178.8 182.5 188.4 202 211.2 217.1 221.7 223.1 223.5 224.3 226.4 229.3 226.8 232.2 234.1 238.4 239.3 237.7 235 235.5 233.1 236.3 238.1 240.2 244.9 248.9 253 256.3 261.9 264.3 266.7 269.5 270.9 270.8 270.5 270.5 269.8 263.8 255.6 254.2 252.7 249.2 260.5 264.6 273.6 276.2 278 279.2 278.8 281 286.6 293.1 296.6 298.9 301.6 300.9 300.4 303.4 310 320.1 330.8 338.6 341.5 347.5 350.4 346.1 341.5 348.4 358.3 352.3 351.5 348.6 333.6 303.5 246.6 220.3 199.7 198.2 206.4 191.4 162.2 136.1 125.6 115 85 72.4 43.7 32.8 32.5 25.7 26.4 34.8 53.8 78.7 99.1 116.4 141 160.7 182.7 197.2 225.4 240 247.6 256.5 267.3 281.4 287.7 294.7 301.4 309.5 315.9 320.5 327.6 338.8 355.1 366.6 372.3 361.8 363.2 370.4 374.9 379 381.6 390.7 380.1 374.9 354.1 316 300.2 259.6 237.6 219.3 195.7 179.9 176.4 167.3 153.7 142.8 132.4 127.6 127 130.1 134 139.4 147.3 155.1 165.5 178.2 193.9 205.8 215.6 229 246.6 260.5 276.1 289.2 302.2 320.2 339.3 358.7 372.9 394.1 413.9 433.9 452.4 463.1 462.1 464.1 470.6 477.3 467.4 464.2 466.5 467.6 466.5 464.5 464.2 465.5
16.6 15.4 15.3 18 19.1 27.3 36.8 50.4 66.2 79.4 92.9 105.2 120 127.1 141.7 150.9 149.6 156.6 163 168.2 175 180 182.4 187.9 196.9 208.8 215.3 222.3 228.4 234.9 234.5 235 234.6 232.6 230.7 238.4 238.9 239.8 239.3 240.4 243.2 241.5 239.5 240 242.1 244.7 247.9 252.3 256.8 260.5 263.8 265 266.5 269.1 270.1 270.6 270.2 269.5 266.9 260.2 252.8 250.5 248.2 249.2 258.6 264.9 269.1 274.1 275.3 276.2 276.6 281.7 290.7 292 296.3 297.5 299.5 298.6 300.1 304.8 312 320.7 331.1 338 343.5 350.5 352.4 350.1 345.1 357.2 362.8 359.4 354.4 343.3 313 289.3 250.8 219.6 197.5 190 207.7 192 153.6 122.8 106.4 102.7 74.4 52.3 41.5 31 30.8 25.3 25.2 33.7 55.6 73.7 101.9 116.4 133 156.6 181.9 199.9 220.5 229.3 238.8 252.4 261.5 275.4 287.9 296.1 300.3 310.7 315.3 319.7 329.1 340.4 350.1 357.7 361.7 356.9 361.8 368.1 372.7 381.3 379.8 374.9 373.3 357 327 303.8 293.1 255 228.8 211.2 191.3 178.9 161.1 158.2 147.3 134.2 127 125.9 127.4 130.5 135.4 140.6 147.4 155.8 168.9 184.1 201.4 214.7 225.4 237.2 252.6 266.5 281.9 296.7 316.6 334.9 349.1 364.6 383.1 411.8 419.7 439.2 461.4 468.6 477.7 486.6 478.9 487.1 479.9 473.2 474.6 476.1 474.3 470.6 466.6 471.4
15.8 14.9 14.9 15.4 20.1 27.2 40 55.1 70.5 84 94.3 105 117.3 128.1 139.2 147 151.3 158.6 165.6 171.3 178.3 184.2 189.1 197.8 202.4 212.9 220.3 229.9 235 240.5 240 240.7 237.9 236.4 234.7 239.4 240.5 240.9 242.8 245.3 249.6 247.4 245.5 244.9 247.1 249.7 252.2 255.4 258.6 262.4 268.1 266.5 265.3 267.9 267.2 267.5 270.1 267.4 259.8 255.3 254.3 250.2 242.2 253.4 263.2 264.4 265.6 272.7 272 270.6 275.3 283.5 289.2 292 293 294.2 295.8 294.5 301.8 307.1 314.2 318.7 327.2 336.4 342.5 349.3 358.1 351.6 351.1 360.4 371.9 367.3 360.7 348.3 330 286 256.1 225.9 188.4 183.1 194.2 181.1 148.3 110.6 96.6 82.1 66.7 50.2 41.6 30.2 25.3 23.1 24.3 35.5 58.7 82.2 106 124.5 142.7 162.3 181.3 197.9 215.2 224.6 236 245.7 255.7 268.9 285.4 298.3 302 307.2 313.2 321.6 331.4 339.6 347.7 353.7 355.3 353.7 361 367.1 375.5 387 382.5 372.6 362.8 329.9 310.5 291.9 277 240.6 221.7 202.9 185.3 170.5 155.3 145.3 140.2 130.4 125.9 125.9 126.7 129.3 135.3 142.2 150.1 160.4 172.9 188.9 207.6 220.6 234 248.5 261.1 277.4 291.9 306.1 326.8 346.1 359.7 382.5 412.5 422.7 435.8 447.6 460.3 474.8 489.9 490.4 495.4 484.6 483.3 480.2 480.9 480.3 479.8 477.7 470.9 475.4
16 14.3 14.6 16.2 24.5 34 43.7 59 73.1 88.9 99.5 109.3 120.3 128.7 137.9 146.6 154.4 162.1 168.2 176.2 184.4 190.2 196.6 203.2 207.6 216.4 226.9 234 239.8 243.4 245.9 243.4 240.8 238.9 238.4 239 241.3 244.8 244.2 249.1 250.7 250.8 250.3 249.8 252.2 254.8 258.2 258.7 261 266 270.5 267.1 265.9 264.4 263.9 263.2 263.9 262.6 255.6 250.4 252.1 246.2 248.5 255.3 265.7 263.8 263.8 268.3 269.4 267.7 275.8 284.5 288 291.1 290.8 290.6 290.2 297.9 306.2 308.9 313.5 319.7 331.6 334.9 343.1 352.3 354.7 354.9 350.2 362.3 374 371.2 372.7 346.7 318.5 296.6 257.1 216.4 187.7 178.6 174.7 157.4 127.7 102.3 87.8 72.5 51.1 40.4 39 30.7 24.1 22.3 24.3 39 63 85.9 109.4 127.5 145.2 166.5 183.5 197.1 214.8 219.7 234.3 245.6 260.8 271.9 280.2 292.9 299.1 306.2 315 323.2 334.4 339.5 346.7 351.1 350 352 359.5 369.4 386.7 389.2 386.8 368.1 348.2 320.6 301.5 284.4 258.3 232.3 214.4 193.6 177.5 163.1 151.1 140.2 133.3 128.9 125.9 125.9 126.9 130.5 135.5 145.5 155.8 169.2 182.6 194.3 209.7 222.8 243.4 258.1 270.7 283.6 298 319.6 336.6 356.3 371 389.1 414.8 440.1 449.4 454.9 465.6 482.1 488.4 498.3 497.3 491.1 487.9 485.3 486 485.6 485.9 484.9 477.6 476.7
15.2 15.1 15.5 18.3 27.9 38.8 51.8 62.3 75.5 89.7 104.1 113.1 122.5 132.6 141.1 149.3 160.6 164.9 170.4 179.9 188.3 195.5 201 207.4 213.2 221.6 234.3 238.3 243 248.1 250.6 250.3 244.1 239.3 240.8 240.7 243.8 247.2 247.9 250 251.3 252.1 253.9 254.8 258.8 258.8 259.9 261.4 263.2 267.9 270.4 266.8 263.9 262.1 260.4 259.4 258.2 256.9 249.9 247.4 247.3 240.2 247.7 253.6 262.2 261.7 262.1 263.5 264 266.9 271.8 280.8 287.4 288.7 288 286.2 291.8 299.7 307 309.7 315 319 329 338.2 342.3 350.7 356.4 357.6 356.6 356.5 371.6 376.6 374.8 352 312.8 290.3 261.3 218.4 188.1 171.6 170.4 152.2 127.7 102.3 79.9 65.4 46.9 37.6 34.8 23.1 22.4 21.2 25.9 45 63.6 88.6 112.2 129.9 144.7 166.4 187.3 193.5 211.6 217.9 230.9 245.6 264.2 275.4 286.5 295.3 300.7 309 315.9 327.3 335.4 340.4 343.5 347.2 348.2 351.1 363.1 374.5 388.4 393.1 387.5 366.3 331.4 310.8 291.7 276.5 245.7 226.9 200.5 185.3 166.3 155.4 143.4 131.1 129.1 125.9 125.9 125.9 127.3 132 139.7 151.7 162.7 178.9 193.6 200.1 212.7 222.1 243.4 263.9 276.4 292.7 306.8 325.1 347.7 364.8 379.4 395.6 411.8 439 455.8 466.9 473.6 486 488.9 500.7 495.1 495.3 499.9 494.6 491.9 490.6 488.5 493.2 480.1 475.5
14.8 14.5 14.6 19.2 28.6 41.3 58.3 70.6 81 96 108.4 116.7 126.5 136.2 145.9 155.1 162.6 166.2 172.5 182.9 191.3 199.8 205.8 214.5 219.2 228 236.8 240.2 245.5 248.4 251.7 249.8 246.6 240.6 240.8 240.5 243 245.4 248.2 250.6 251.8 254.9 258.9 264.3 268.5 263.6 263.6 264.6 265.3 267.9 266.3 263.5 259.8 260.2 257 254.8 253.5 251.1 245.6 241.8 241.5 237 248.3 254.1 258.6 260.2 260.7 260.6 263 268 271 278.9 286.7 285.9 284 287 293.8 304.4 306.2 309 316.6 318.8 329.4 334.7 346.1 350.7 356.7 358 359.6 359.1 359.9 371.6 356.1 340.2 333 296.2 256.7 225.8 193.5 174.3 165.5 150.5 137.4 107.1 83.9 66.5 44.5 28.2 25.1 21.2 21.1 20.8 25.5 39.9 59.5 88.9 107.8 127.2 143.9 165.1 179.5 189.2 203.9 218.3 229.4 249.7 263.1 274.5 284.8 293.7 299.8 310.1 317.7 328.9 337.7 342.8 343.5 343.8 347.2 351.3 366 378.6 380.2 382.9 373.2 348.7 329.3 299.5 275.5 254.1 233.3 214.6 191.6 180 154.7 146.2 134.4 125.9 125.9 125.9 125.9 125.9 128 134.7 144.8 156.9 166.7 184.2 199.9 215.2 230.7 241.6 260.5 271.4 281.8 295.9 316.6 334.4 352.1 372.4 386.8 408.1 415.7 433.1 452.2 465 487.4 491.4 496.3 499 500.2 504.4 508.9 507.9 501.1 502.2 491.5 487.7 482.3 475.8
14.9 15 15.8 19.7 30.3 42.9 60.3 76.2 88.5 102 110.5 119.5 131.5 139.9 149 155.1 162.6 168.2 176.1 187.5 199.2 205.5 214.8 220.9 224.5 233.5 240.9 245.3 249 249.4 252.6 250.2 243.9 240.8 240.1 240.1 240.9 243.4 245.9 249.9 253.7 259 268.8 273.8 272.2 268.1 267.7 267.2 267 266.1 263 259.8 256.1 253.8 249.7 248.3 249.2 246.6 241.4 237.8 233.8 238.8 246.6 253 258.2 260.4 259.9 260.4 263 267.7 270.6 275.3 280.8 282.9 280.7 287.8 298.8 302.8 304.1 308 312.1 316.1 325.5 333.2 344 352.8 356.9 360.7 373.3 375.1 364.7 361.3 345.1 342.6 328.7 294.3 264.2 231.5 199.8 177.7 157.3 143.9 141 108.1 85.6 68.9 44.1 37.4 21.1 19.9 20.4 18.1 31.7 50.9 72.1 94.9 111.6 127.2 149.4 164.9 183 189.9 201.7 218.7 230.7 246.6 260 272.9 285.3 294 303.4 311.3 323.4 331.3 337.6 342.1 341.3 342.9 345.5 351.2 366.3 375.4 381.3 375.2 365.7 348 321.1 299.1 263.5 237.9 220.9 202.9 183.7 167.9 150 136.3 128.8 125.9 125.9 125.9 125.9 125.9 129.4 135.7 150 165.7 178.2 192.1 205 219.8 237.3 251.1 266 280.1 293.3 306.2 318.2 334.5 358 374.7 392.9 415.5 424.1 439.7 454.3 470.2 490.9 494.3 495.8 500.5 511.2 513.3 513.7 514.6 509.5 503.2 497.4 487.5 480.4 475.2
14.1 15.2 17.3 22.7 34.1 47.8 62.5 78.8 91.6 101.7 114.8 125.2 134 142.7 149.3 156.2 163.4 174.3 184.6 192 199.2 214.1 224.9 229.6 228.8 232.4 242.6 248.6 250.2 249.3 249.3 246 238.2 240.1 240.6 240.7 240 240.9 243 248.6 257.1 266.1 274.4 279.4 277.5 272.7 272 270.5 268.4 265 260.7 256.6 251.6 248 245.6 244.4 243.9 242.4 239.1 232.7 229.4 236.9 246.8 250.1 255.5 259.9 258.7 258.7 261.1 264.8 269.6 275.1 278 278.1 280.5 288.9 294.7 304.1 304.7 309.4 312.4 316.7 328.9 333.5 344.5 350.4 360.8 366.9 372.8 385.1 375.1 358.4 346.5 342.2 336.2 306.5 279 239.2 211 186.8 158.1 138.7 140.3 104.3 87.2 74.3 42 28.9 19.2 19 19.6 18.2 33.3 52.1 77 97.5 113.7 130.2 150.9 169.4 179.2 187.4 199.5 216.2 233.8 249.7 265.5 276.5 285 295.3 307.3 314.7 324.8 333.3 335.8 338.1 339.6 343.3 342.9 349.2 360.2 375 377.6 368.3 350.4 332.1 313 283.8 249.4 233.2 213.7 192.3 172.9 159.4 141.8 128.6 125.9 125.9 125.9 125.9 125.9 125.9 131.7 142.8 153.7 166.6 185.6 204.4 221.2 228.1 243.6 262.3 273.1 291.7 300.6 314.4 329.7 345.3 361.1 379.3 395.9 411.7 432.1 442.4 461.9 485.8 488.1 490.2 499 509.2 516.6 526.5 522.4 522 511.4 502.8 502.5 490.1 481 477.2
14 16.3 21.6 27.6 37.8 53.5 70.2 85.1 99.2 108.8 117.8 128.9 135 142.1 149.9 158.6 168.1 180.3 186.9 196.4 206.1 219.6 229.6 234.5 234.2 233.9 241.5 251.4 250.5 246.8 242.8 240.2 236.7 238.4 239.5 239.4 239 239.4 243.2 249.1 259.9 271.9 276.9 283.7 280.5 277 278.6 273.4 269.2 264.2 259.7 254.9 249.8 244.7 241.9 241.6 238.5 236 232.1 227.6 230.1 238.8 244.2 247.8 252.6 256 255.3 260.1 260.8 262.4 264.4 271.6 274.8 273.6 279.6 289.1 299.1 301.9 305.4 311.8 314.5 319 329.3 338 348.8 357 363.2 377.7 380.8 381.6 369.7 365.2 349.2 349.8 330.7 310.8 299.7 256.3 220.5 195.7 164 138 119.8 100.5 89.1 67.3 41.6 21 18.1 18.6 18.9 19.1 33.6 55.8 75.4 102.8 114.4 131 146.3 161.8 170.6 185.7 201.9 219.2 235.8 252.6 263 275 288.6 297.6 308 315.3 324.3 334.3 334.8 337.4 340 345 340.2 348.2 355.6 363.6 369.8 351.7 344.9 330.1 308.9 277 242.1 225.2 204.2 186.1 167.4 149.5 133.1 125.9 125.9 125.9 125.9 125.9 125.9 128.1 136.4 150.3 163.2 175.8 190.7 207 220.1 239.8 256.6 272.6 284.2 295.2 304.4 320 337.3 351 370.2 395.9 403.5 413.4 431.4 444.4 465.6 481 484.1 496.7 508.7 516.7 522.1 525.3 532 526.5 528.8 507.8 500.1 490.6 483.9 476.1
14.4 20.5 24.5 31 41.8 58.8 77.8 90.6 102.9 112.3 123.3 132.9 139.4 144.4 152.2 160.3 171.9 182.5 192.9 201.8 209.2 221.5 232.1 239 240.4 238.8 241.7 250.8 248.2 243.1 238.9 235.6 232.2 232.5 233.2 236.1 238.8 238.7 244.4 251.7 261 274.6 280.5 284 281.6 279.7 281.4 275.4 270.8 265.5 259.4 252.9 247 241.9 237.1 235.9 232.5 229.3 225.1 220.5 226.9 234.8 238.6 242 249.3 252.6 255.8 258.5 260.6 260.8 262.9 266.6 268.2 273.4 277.9 285.3 296.3 301.3 307.9 317.1 316.9 320.2 326.2 337.1 350.6 355.5 365.4 375.2 385.9 376.5 371.6 378.8 357.1 351.3 334.5 325.6 315.3 258.8 231.6 205.7 168.5 138.8 115.1 98.4 84 53.4 40.9 22.3 17.2 17.2 17 23.8 34.9 55.6 81 94.3 114.6 133.2 149.2 160.4 168.9 186.1 200.9 219.4 240.1 250.4 262.2 275.6 288.8 299.4 307.2 315.8 325.8 333.6 335.5 336.6 344.6 341.8 337.8 349.3 353 358.3 353.3 348 337.1 324.7 299.4 260.7 233.9 211.6 194.6 180.6 162.2 141.2 129.3 125.9 125.9 125.9 125.9 125.9 127 131.6 140.8 155.5 171 183 198 215.7 234.5 251.8 267.8 280.7 292.7 304 315.6 322.7 340.2 357.6 382.4 395.5 414.9 429.3 436.5 446.8 460.8 477.2 484.3 500.2 515.1 528.4 538.2 544.1 534.8 530.5 522 511.2 504.3 492.7 483.2 478.9
21.6 22.6 29 38.7 46.8 61.9 81.6 95.2 106.8 117.5 126 136 143.1 145.8 152.3 167 180.7 188.2 198 205 213.7 222.2 231 239.2 241 239 239 243.5 241.1 237.4 233.2 231.5 229.7 230.4 229.6 232.7 238.3 244.7 250.9 253.4 262.1 275 287.3 284.6 283.4 282.4 280.7 276.5 271.9 265.6 258.8 251.7 244.7 240.7 232.2 228.6 226.3 221.6 220 221.9 229.9 229.8 235 238.1 246.8 252.5 253.4 255.5 256.4 257.8 260.1 260.9 266.6 270.9 276.8 283.1 290.2 296.7 305.7 314.2 318.9 322.9 329 340.8 348.3 358.9 370.2 374.2 377 376.7 380.5 384.7 372.1 341.6 327.5 333.8 309.4 260.3 230.4 212.7 176.9 138.3 115.1 99.2 68.5 43.6 42.7 27.4 15.9 18.4 24.7 33.8 39.2 50 76.5 93.2 114.5 143.4 155 153.3 165.1 184.1 206.7 219 240.7 253.5 265.8 272.8 282.7 299.2 309.8 316.4 325.6 332.8 330.2 340.3 344.8 336.5 336.4 345.4 352 350.3 346.4 341.9 335.1 307 285.1 246.2 226.4 206.4 192 176.3 157.3 137.5 125.9 125.9 125.9 125.9 125.9 125.9 128.5 137.4 147.8 161.5 177.8 192.2 205.3 225.2 249.7 267.6 279.1 292.9 302.2 314.7 326.9 334.4 348.2 364.7 383.3 398.4 422.3 438.5 450.5 456.2 462.9 472.4 486 502.9 522.2 539.2 544.9 557.8 551.6 537.6 524.5 517.2 506.2 500.2 488.2 484.5
24.9 24.8 31.7 45.3 55.2 66.6 84.4 99.8 110 119.8 128.4 139.4 144.3 148.9 155.2 174.4 188.5 200.9 204.5 212.4 222.4 230.3 235.9 246.8 245.6 236.1 237.5 239.6 234.3 229.1 229.8 230.4 228.9 228 231 235.3 245.9 253 259 262.8 265.4 273.5 286.2 286.8 287.3 284.6 282.3 279.9 273.1 265.5 258.3 250.6 243.1 237.3 230.4 221 219.8 217.7 215.6 221.8 228.1 224.1 230.9 234.7 245.9 250.3 249.4 250.5 253.3 255.3 256.6 259.7 264.7 268.1 274.1 280.7 286.4 295.9 309 314.7 321.5 329.9 334.7 342.9 355.6 359.4 372.1 380.2 379.3 386.5 389 394.4 374.6 352.3 321.7 303.6 290.7 249.8 227.4 212.8 185 136.7 112.3 93.3 63.2 41.4 37.2 28.4 15.8 16.4 28.2 36.4 38.6 54.2 70.1 92 115.4 134.8 150.3 150.2 163.4 182.6 198.9 220.2 238 256.7 268.2 271.2 278.1 295 309.2 315.9 322.7 327.3 338 344.6 340.9 331.8 334.8 339.8 353.6 345.9 345.5 332.4 326 304.2 264.3 240 224.8 199.8 184.9 169.5 153.3 133.6 125.9 125.9 125.9 125.9 125.9 127.6 134.4 143.8 155 166 181.4 200 213.5 241.6 265.6 280.5 292.5 302.9 314.7 324.8 335.5 345.5 353 372.3 386.4 402.2 430.6 446.7 455.6 462.6 468.2 476.3 494.7 513.3 530.6 538.9 553.4 546.5 543.5 538.9 532.6 527.7 517.8 507.6 494.2 488.9
22 28.8 37.2 51.4 61.3 74.2 91 102.2 112.5 123.3 135.6 143.7 147.1 153.4 162.5 177.5 188.9 201.4 205.6 213.9 224.7 232 237.8 250 240.3 237.5 229.7 232.5 229.3 228.9 231 225.9 222.7 227.7 232 239.8 249.6 260.4 268.9 271.5 272.2 276 285.6 288.7 287.2 286.3 284.4 281.2 273.6 267.4 257.4 249.1 241.2 235.2 230 223.9 219 213.4 210.8 218.3 218.4 225.5 229.3 233.3 241 250.5 250.2 251.9 254.1 255.7 257.7 259.4 264.9 269.4 274.6 279.1 286.5 298 307.4 314.9 327.1 334.4 336.2 345.3 360.5 365.1 368.5 377.8 383.7 401.4 399.3 392 383.2 364.2 326.5 299.9 276 239.4 217.3 195.8 177 135.1 109.9 90.6 62.3 45.1 25.9 18.5 13.6 14.8 21.6 34.3 39.3 51.4 64.6 84.1 108.6 130.5 139.9 145.8 161.4 180.6 196.8 217.6 236.2 262.1 270.5 270.4 281.8 292.3 299.5 311.1 319.9 327.8 335.5 340.8 332.1 327.8 332.9 336.2 343.1 344 340.2 321.7 311.2 288 249.5 231.4 213.1 192.6 176.1 160.9 146.3 128.3 125.9 125.9 125.9 125.9 126.7 131.3 139 149.6 161 175.3 188.8 207.5 223.5 252 273.2 294.8 307.2 316.4 324.8 333.5 344.7 355.2 368.6 379.7 395.9 411.3 432.5 446.5 464.1 469.8 474.4 482.5 497.9 514.9 533.1 549.2 549.3 545.9 545.7 550.1 546.9 539.9 528.1 520.4 508.5 497.1
23.4 29.5 41.6 53.3 66.5 80.7 95 108.1 119.3 129.7 138.3 142.9 148.6 153.9 166.5 178.7 189.5 200.5 207.3 214 223.5 232 237.9 240.8 239 234.4 226.2 223.1 224.4 226.9 223.5 220.7 221.1 228 234.2 242 252.3 264 272 275.9 280 280.5 288.8 292.6 290.3 289.5 286.2 281.1 275.1 266.7 255.8 247.7 240.9 235.3 231.3 225.5 217.9 211.8 210.2 212.4 210.3 220.7 225.7 230.2 237.4 244.3 248 251.6 251.7 252.6 255.3 259 264.3 268.7 273.2 278.7 286.5 298.4 308.5 315.2 328.2 339.3 342.5 343.8 357.3 367.9 371.3 379.2 393.5 396.3 402.8 388.1 389 382.5 337.1 297.4 273 239.4 226.2 207.9 169.2 136.1 106.5 86.3 67.6 51.2 23.6 15.9 14 14.9 18.1 23.5 32.5 48.5 64.8 80.1 112.8 124.5 130.6 141.7 158.3 178.3 195.5 219.7 237 255.5 266.9 268 281.1 290.1 301.3 312.2 324.8 331 330.2 328.9 326.7 325.9 328.8 331.6 333.3 332.1 323.6 306.6 291.5 266.2 239.8 223.4 207.1 187.5 168.4 150.6 139.8 127.9 125.9 125.9 125.9 125.9 127.2 132.8 142.7 153.8 165.7 182.7 200.1 213.9 235.2 264.7 292.3 307 316.1 328.4 333.9 341.1 354 368.4 377.5 390.8 404.2 418.3 432.8 445.3 465.2 475.3 485.3 489.5 504 522.5 526.8 539.8 542.8 549.4 551.7 561.8 560.8 557.6 545 533.9 520 509.6
24.8 35.2 44.4 56.6 73.6 86.9 101.8 112.1 122.2 131.8 140.5 144.6 150.8 155.3 169.3 179.9 189.3 201.3 207.1 214.3 226.3 231.8 235.7 235.9 229.5 229.6 221.9 218.7 218.2 216.1 217.8 218.8 222.7 231.6 240.4 248.4 256.9 264.8 271.9 277.4 280.7 284 289.3 296.4 295.1 296.2 291.1 280.4 275.5 267.1 254.9 246.9 239.9 234 230.5 225 218 214.6 210.5 209.8 213.1 216.1 221.2 223.3 231.1 239 243.3 249.5 250.4 250.3 253.1 258.8 265.2 269.2 273.3 278.5 289.5 302 314.9 318.4 331.8 342 350 350.6 356.8 372.4 377.7 387.5 393.2 402.5 397.2 388.8 392.2 394.6 351.7 296.8 260 236.5 231.1 200.2 172 138.6 106.2 88.6 72.4 47.5 20.3 12.2 13.5 13.8 18.6 21.1 30.7 45.6 62.9 80.8 100 119.2 122.1 138.3 156.9 176.9 192.9 218.7 238.8 249.6 259.6 270.1 277.5 293 301.3 314.7 325.9 330.9 330 327.2 324.3 323.2 325.2 326.7 326.1 326.3 320.2 301.5 276.4 251.5 232.2 218.4 203.7 181.9 160.2 144.8 131.9 125.9 125.9 125.9 125.9 125.9 127.1 133.8 144.3 157.6 172.1 189 205.1 220.4 244 276 305.4 314.1 322.7 334.8 342.1 352.1 367.1 376.1 387.3 402.9 415.3 428.3 443.7 455.9 466.1 477.7 487.7 496.7 503.4 522.6 524.6 530.9 539.3 550.8 562.9 559.4 559.5 557.5 554.3 551.7 547.8 526
28.1 37.2 49.4 62.3 78.2 90.6 105.2 115.4 126.2 136.7 140.8 139.8 148.7 155.3 176.7 188.9 193 200.8 206.9 213.4 223.1 231.3 232.4 231.7 221.5 222.6 219.5 210.2 209.9 209.2 214.2 220.7 226.7 238.9 245.5 253.3 260.6 267.3 273.4 278.6 282.4 287.5 289.4 297.3 296.3 296 292.4 282.8 277.9 265.6 254.1 245.3 238.6 232.9 230.6 223.4 215.9 212.9 210.3 208.7 209.4 214.9 216.1 221.6 232.6 238.1 240.7 244.5 245.6 249.4 252.7 259.1 265.8 270.3 273.8 278.2 288.8 305.2 316.1 322.3 338 348.6 357 362.5 360.3 372.2 390.2 398.8 392.3 397.8 390.1 391.6 395.4 394.4 352.4 309.4 257.5 233.8 216.9 198.6 169.7 141 107.2 88.7 76.3 47.1 30.9 12.5 13.8 14.3 17.1 18.3 29.5 42.8 61.8 78.3 90.9 102.1 115.7 132.2 148.8 176.9 194.3 214.9 231.9 246.7 258.5 269.7 278 292.7 297.2 319.3 325.3 326.8 326.9 325.9 322.1 321.2 323 323.3 322 321.8 321 305.2 275.6 250.7 230.5 209.1 189.5 170.8 156.8 140.3 127.9 125.9 125.9 125.9 125.9 125.9 126.9 135.6 148.5 167.2 182.2 194.9 209.3 226.7 248.9 277.5 303.2 318.4 328.4 336.9 347.4 361.7 372.6 384.8 398.2 413 426.5 437.2 447.8 459.5 473.8 479.6 490 500 507.4 517.5 519 537.2 544.3 550.1 556.9 561.1 564.1 564.1 565 565.9 563.3 551.3
30.8 39.1 56.5 68.3 81.5 91.8 104.4 116.5 129.8 138.2 138.6 140.9 159.5 163.3 180.3 186 197.9 200 206.5 215.5 222.9 227.2 229.5 224.5 219 220.1 208.9 206.1 206.7 214.4 220.2 223.4 230.8 237.7 246.8 254.5 261.6 269.5 277.8 285 289.1 289 289 291.7 293.3 291.9 289 284.7 280.1 265.9 254.4 244.1 236.3 230.9 225 219.4 214 211.9 209.4 203.6 207 210 211.7 218.2 228.9 234.6 237.2 239.6 243.4 245.8 251.3 259.4 265.9 270.6 274.7 278.6 288.7 306.4 315.4 327.2 340.1 352.2 362.5 371.1 370 375 394.4 404.4 396.1 400.5 391 392.3 396.5 394.9 351.7 300.2 258 233.7 219.2 197.7 167.5 141.4 107.6 85.5 70.6 55.3 30.6 11.5 14.1 16.1 16.3 16.6 24.6 40.1 60.8 72.5 78.4 93.8 114.7 130.3 152.5 176.4 199.7 216.8 229.2 240.2 255.1 263.4 274.6 283.7 299.9 317.2 327.2 326.7 327 323.3 320.8 320.3 321.3 318.8 315.1 315.8 315.7 297.6 271.4 254.7 230 208.6 188.9 166.2 145.2 134.9 125.9 125.9 125.9 125.9 125.9 125.9 126.8 138.6 155.6 170.5 185.5 201.4 217.6 234.5 255.8 276 305.3 325.1 335.2 341.6 352.4 366.3 378.1 391.7 404.8 422.1 437.8 449.6 462.7 467.9 478.4 485.2 493.9 503.1 514.5 514.2 523.3 532 541.6 549.6 560.5 567.1 570.6 571.9 574.5 570.3 572.7 553.5
35.5 43.2 58.4 71.1 84.5 98.8 110.3 119 131.9 140.3 139.5 153.5 169.2 172.5 174.1 187.2 193.7 198.3 206.2 215.8 221.9 223.9 225.2 216.4 212.9 209.7 202.6 206.8 209.5 215.7 223.4 230.2 233.1 239.1 246.9 254.9 264.5 274.2 281.6 288.6 288.6 288.9 289.1 289.1 289.7 287.6 285.4 283.1 279 266.2 255.4 245 238.5 227.2 223.7 218.2 211.9 210.8 205.4 200.5 202.9 205.2 209.2 216.5 223.7 227.5 230.6 237.2 242 247.8 253 255.7 264.8 270.8 275.3 278.8 289.2 304.4 314.8 328.6 339.1 358.7 370.6 372.3 383.2 386.2 391.3 398.7 396.8 395.9 393.4 398.5 400.8 387 341.8 299 260.2 233.4 217.3 185.7 160.2 141.3 107.7 77.4 75.7 53.9 25.6 12 12 14.7 15.5 15.8 22.7 39.1 58.6 68.6 71.1 89 112.7 126.2 148.2 168.6 188.8 206.4 227.6 238.9 248.9 263.2 271.5 284.1 307.1 322.5 332.8 331.8 332.8 322.8 320.8 319.6 319.2 313.5 308.6 311.4 301.4 278.8 268.6 249.2 228.6 205.9 188.1 160.8 146.4 129.5 125.9 125.9 125.9 125.9 125.9 125.9 129 140.3 158.1 175 193 209 225.3 242.5 262.7 281.2 294.8 320.2 338.9 343.8 354.9 368.7 386.4 401.3 412.3 430.9 444.5 462.5 474.3 477.6 490 497.4 504.2 513.8 517 516.4 522.2 529.7 538.2 551.1 565.9 573 573 571.9 577 572.3 573.3 569.7
37.5 47.6 60.1 75.7 87.4 103.1 115 123.1 130.3 129.7 143.8 163.4 177.7 183.2 179.8 182.4 189.6 195.9 203.4 213 220.8 221 220.6 212.2 205.6 202.6 207.9 211 211.2 217.4 227.3 235 239.1 241.2 248.2 259.8 268 275.2 282.1 286.1 287.5 288.7 288.2 288.7 287.5 288.4 281.1 278.2 272.6 263 254.3 248.3 234.6 225 220.1 214 208.8 206.7 202.8 199 199.7 202 206.1 208.7 217.1 223.3 231.8 238.7 244.4 251.7 258.1 263.3 269.8 266.4 275.1 281 289.2 302.4 310.4 326.9 343 358.1 374 382.2 396.5 399 394.4 397.1 398.9 399.3 404.1 414.1 397.4 386.6 337.3 307.5 258 233.2 210.1 183.3 165.8 133.9 106 74.8 73 53.2 33.4 13.3 10.2 13.6 14.9 15 20.7 50 62.1 58.5 63.9 79.9 99.1 115.6 143.3 168.4 191.4 208.8 230.4 239.4 250 266.2 274.3 296 312.4 326.4 334.4 339.6 330 322.8 321.6 318.7 312.2 310.3 302.2 298.9 285.4 274.3 267.1 241.2 221.1 200.1 183.5 156 141.7 127.6 125.9 125.9 125.9 125.9 125.9 125.9 130.9 148.5 165.8 183.4 199.7 216.6 231.5 249.7 267.5 286 299.3 315.6 327.2 343.4 357.7 374.8 397.3 408.3 421.1 448.3 454.3 470.9 478.3 488.2 499.4 506.3 511.5 516.3 520.6 516.9 519.6 530.6 533.7 547.6 578.6 591.8 575.6 565 561.1 568 563.9 561.2
40.6 54.2 69.9 81.3 90.5 102.3 113.3 119.3 127.9 133.9 149.9 169.2 181.4 182.2 181 180.2 187.6 192.9 197.9 205.6 212.6 216.1 214.5 206 199.3 204 210.6 210.4 213.6 219.4 230.1 237.2 241.4 245.6 251.6 259.1 267.7 276.1 281.7 285.6 286.6 287.7 287.3 282.8 285.7 287.1 283.1 276.3 270.9 263.3 256.6 249.1 235.8 226 218.5 211.3 206.5 203.3 199.5 197.5 197.6 200.2 201.4 209.8 216.5 222.8 231.3 239.1 246.3 255 261.9 267.2 272.7 275.8 279.4 282.6 290.7 298.6 310.3 328 345.3 360.2 372 390 402.2 407 403.3 403 402.7 405.2 405.6 407.6 400.5 366.6 330.8 291.3 258.2 241.9 217.1 194.4 157 130 101.7 75.7 56.7 43 35.7 18.9 9.8 13.5 13.4 14.2 23.6 48.3 62.5 56.4 59.5 80 96.3 117.4 140.9 167.5 191.3 212.4 224.9 238.2 253.3 262.7 278.1 297.7 316.9 330.7 339 337.4 327.1 323.5 321.8 321.1 316.3 311.9 298.6 283.9 273.3 264.9 258.6 240.7 217.1 194.9 175.3 153.2 136 125.9 125.9 125.9 125.9 125.9 125.9 125.9 135.7 153.4 170.4 191.9 206.5 223 234 252.1 263.8 281.4 297.6 317.5 328.6 343.4 360.8 380.5 403.3 411.9 427.1 445.3 458.3 469.8 480.7 494.4 503.7 513.6 517.2 517.3 519.7 519.1 518.2 519.6 529.9 538.1 573.6 600.5 594.4 559.2 552.4 563.6 549.4 549.3
48.1 59.2 71.8 86.8 94.7 103.9 112.3 123.2 130.6 141.4 156.4 170.7 180.2 182.2 181.8 179.4 186.3 193.6 198 202.3 207.5 210.3 208.8 198.6 200.3 205.1 209.2 212.5 217.4 222.6 231.2 238 242.9 247.6 254.4 262.6 271.5 278.2 282.2 286.1 286.7 289.5 288.2 282.7 282.3 283.3 282.3 276.2 270 263.4 255.7 245.8 235 227.7 218.2 208.8 204 200.9 197.9 195.9 198.4 198.4 204.3 211.9 215.8 221.6 231.4 241.5 248.5 258.4 265 271.5 276 279.9 284.3 284.2 291.6 299.2 311.5 325.3 344.7 358.9 377.9 392.9 405.7 410.5 410.1 414.1 411.6 413.9 413.7 411.9 392.5 363.8 323 285.7 260.4 249.6 215.8 194 167 133.2 105.6 78.4 51.3 36.5 29.1 16.4 9.7 11.9 13.3 13.9 22.9 51.7 57.5 50.1 62.8 77.8 100.6 123.4 141.3 162.8 189.3 212.4 224.8 233.7 247.7 262.3 284.4 298.3 312.7 326.6 339.8 338.9 326.2 324.2 323.1 322.2 321.4 312 299.8 280.2 264.7 251.3 243.2 228.2 208.2 187.3 165.9 151 131.5 125.9 125.9 125.9 125.9 125.9 125.9 125.9 142.3 160.1 178.4 196 214.1 225.5 236.5 253.3 266.3 282.1 294.3 320.8 329.9 354.8 368.2 382 398.4 416.3 433.4 443.9 460.4 474.7 482.2 496.9 505.3 512 516.6 519.3 520.5 519.7 515.9 514.7 522.5 529.5 544.8 576.9 586.3 553.8 542.1 541.3 541.6 541.3
48.4 63.3 74.1 87.4 98.1 107.4 116 124.4 134.1 149.1 162.5 173.3 181.3 185.7 185.9 182.4 187.1 192.6 196.8 200.6 200.9 204.2 198.2 199.7 203.3 209.1 213.4 218.5 221.1 229.4 238.4 242.4 246.8 251.6 257.1 265.9 273.5 279.3 283.7 287.3 286.1 288.5 287.8 286.4 283.2 278.4 279.7 277.1 269.5 261.4 253.5 245.9 236.4 228.8 219 210.1 202.7 199.1 194.7 195.1 196.8 197 200.8 209.3 214.1 222.9 232 242.9 251.3 261.4 268.1 274.6 279.6 287.2 287.1 289.6 293.3 300.9 309.3 324.5 341.2 352.9 375.1 392.8 402.8 415 423.3 419.1 417.3 417.3 423.1 405.5 385.4 357.6 312.6 278.2 262.8 248.8 214.6 185.4 168.1 144.3 107.1 79.1 52.9 28.6 19.9 12 9.5 9.6 13.2 12.9 18.8 43.7 45.3 48 59.2 79.6 100.6 120.3 143 160.7 185.1 205.9 222.5 230.3 244.5 267.1 286.9 300.1 309.9 326.8 337.4 330.3 327.8 327.2 326.9 324.9 322.7 313.4 299 280.2 267.6 250.6 231.6 208.1 194.2 176.8 161.4 148.1 129.6 125.9 125.9 125.9 125.9 125.9 125.9 125.9 143.2 162.4 183.5 203 219.4 231.2 239.3 251.6 266.4 284.5 296.1 314.6 335.1 362.1 375 390.2 402.3 423.3 442.4 445.3 465.9 472.7 483.9 499 508.3 513.4 510.8 515.4 519.6 519.4 512.2 507.4 516.7 521.3 525.5 536.3 552.9 543.6 525.5 529.4 530 539.2
52.5 65.2 76.7 89.8 100.2 109 117.6 125.9 142 158 172.5 178.6 185.2 190.9 190.3 188.8 188.7 190.1 195.1 199.6 197.4 198.1 198.6 201.9 208.1 212.5 216.9 224.3 230.6 231.7 245.6 249.5 252.3 257 259.3 265.9 273.2 280.5 285.3 288.7 289.5 288.8 284.7 279.1 280.6 273.8 275.9 274.4 268.7 259.5 252.3 243.3 235.7 230.3 221.1 208.2 200.7 195.9 192.8 195.1 195.6 194.5 200.3 206.8 213.7 222 236 248.8 256.3 263.7 271.6 277.4 285.3 290.9 293 294.7 295.6 304 310.1 320.1 332.2 348.8 367.6 390 405.9 419.1 430.7 422.4 417.1 419.7 417.5 407.8 379.7 340.8 306.3 280.9 256.5 236.1 206.3 177.2 162.8 138.3 116.5 79.5 54.1 26.4 15.2 8.8 9.2 8.8 9.7 10.7 15.8 22.3 34.1 41.8 56.4 82.3 109.3 125.8 144.5 160.5 180.1 198.2 213.7 226.6 242.2 266.2 283.4 299.3 311.2 328.4 325.5 328.4 327.8 327.9 330.8 326.7 320.1 312 297.8 280.8 268.3 254.7 244.6 219 195.5 175.1 153.7 136.8 125.9 125.9 125.9 125.9 125.9 125.9 125.9 128.4 144.9 166.8 196.1 213.5 223.2 232.9 240.6 261.4 269.9 284.9 298.1 323.8 341.9 357.1 372.1 385 402.1 435.8 442.3 444.2 459.4 474.9 494.2 503.5 512.7 521.4 509.5 509.1 514.3 515.4 508.5 498.6 502.1 512.1 503.2 504.2 505.6 509.9 508.6 519.7 526 536.3
59.5 70.2 78.8 92.9 102.9 113.4 118.3 129.6 150.8 161.1 178.3 183.6 189.9 193.9 196 197.4 189.1 190.9 191.3 192 192.3 195.9 200.1 205.8 212.1 218.4 220.8 228.7 236.1 240.9 245.3 250.4 258.7 260.9 260.3 268.3 275.7 282.1 286.7 290.3 291 290 289.6 287.1 278.1 270.8 270.2 269.5 266.1 259.7 252.4 246.1 241.5 234.4 222.8 210.9 201.5 196.1 192.6 194.3 194 194.4 200.8 208 214.3 222.2 239.3 250.6 259.7 267.6 273.9 282 288.4 295 297.1 299 297.3 305.3 311.3 316.2 330.9 342.2 366.8 383.2 398.5 420.8 430.7 412 415.5 426.7 418.2 402.3 366.4 336.7 301.6 284 256 224.7 202.3 182.5 153.4 142.1 116.2 84.4 56.3 29.1 8.1 8.4 8.1 8.2 9.5 12.2 14.2 20.8 33.7 39 55.3 83.5 113.7 134.1 152 164.9 181.3 194.5 209.1 224 242.2 270.4 280.6 298 316.6 322.9 322.8 331.7 333.8 329.4 332.1 328 319.3 309.1 297.5 281.8 269 253.4 238.3 220.3 203.3 178.5 157.7 142.1 128.7 125.9 125.9 125.9 125.9 125.9 125.9 131.8 145.1 174.7 203.7 213 215.4 229 242.3 255.1 271.7 284.4 302.6 327.4 348.5 364.4 371.8 383.1 397.2 416.2 431.7 443.1 458.1 476.7 494.1 499.8 507.4 499.6 501.6 503.2 503.2 502.4 497.4 492.3 486.4 489.3 488 485.4 485.4 489.7 498.6 510.4 521.9 531.3
63.2 72.7 81.2 93.9 104.9 113.3 119.8 139.4 155.1 166.3 174.9 182.7 191.2 195 199.7 201.6 188.7 188.9 189.1 191 192.7 197.1 198.1 204.7 213.4 221.3 227.7 235.1 244.1 248.6 251.8 255.8 258.7 260.7 264.4 269.5 276.5 281.8 285.6 290.6 290.4 293.6 292.7 291 278.3 269.5 268.3 266.5 264 260.2 251.7 250.2 245.5 236.2 224.8 213.7 203.5 196 191.3 192.6 191.4 194.6 200.8 207.3 215.1 224 241.4 252.4 261.8 270.4 277.7 285.1 292.3 298.3 299.9 301.2 301.7 308.2 311.8 317.1 329.7 336.1 360 381.8 400.6 409.3 418.5 409.3 419.4 422.1 418.7 395.8 359.2 327.2 306.4 280.9 250 222.5 194.4 171.2 152.1 130.6 102.8 89.4 64.7 30.3 13.4 6.9 8.1 8.2 8.4 11.6 13.5 16.1 26.8 30.3 55.7 81.8 109.8 132.9 150.6 169 181.6 191.9 204.8 224.3 243.6 264.7 279.4 293.9 311.5 316.6 320.8 332 333.2 330 333.1 332.4 321 310.5 296.1 281 266.6 252.7 235.7 219 202.9 179.2 157 140.5 129.8 125.9 125.9 125.9 125.9 125.9 125.9 130 145.1 173.7 199.5 203.2 208.7 227.9 242.4 250.9 267.9 285.5 296.5 314.8 341.2 361.9 365.9 379.2 392.1 409.2 428.6 442.1 460.2 475.3 485.7 487.2 483.5 490 494.2 494.2 492.3 491 489.5 485.7 480.4 475.9 473.7 479.8 481.5 484.1 490.7 502.7 515.7 527
64.2 77.1 87.6 98.1 106.1 114.4 127.4 144.2 154.9 165.8 174.2 180.3 184.8 191.1 196.1 194 188.8 188.7 191.2 195.2 198.8 198.6 200 204.5 213.7 222.8 228.6 238.7 250.1 256.5 260 259.9 261 263.9 266.8 269.1 272.4 278 283.6 289.6 291.8 297.4 295.8 286.1 276 269.5 268.6 267.1 262 260.6 259.7 253.8 246.4 237.1 226.2 214.4 204.4 196.7 191.8 190.6 190.8 195.9 200.6 207 214.6 224.1 240.4 252.9 261.7 272.3 281 289.2 298 302.7 303.3 306.5 306.4 304.6 312.8 319.4 325.6 334.2 349.2 377.4 394.1 406.3 405.3 413.1 420.7 418 415 392 360 321.7 302 272.2 252.9 229.2 189.1 161.7 145.9 128.8 100.6 88.2 64.4 39.2 16.6 7.2 7.8 8.1 9.2 10.5 14.2 14.6 18.7 30.7 55.9 80.1 103.6 124.2 146.9 160.4 171.6 182.8 199.2 223 246.8 261.3 275.8 288.1 300.9 309.5 318.9 329 333.7 329.4 331.3 328 318 309.5 295.9 279.7 266.2 258.3 236 220.6 206.4 183.6 160.7 145.5 130.6 125.9 125.9 125.9 125.9 125.9 125.9 128.8 143.1 160.5 183.8 193.2 208.7 228.4 241.4 255.9 263 276.8 294 308.6 325.4 347.2 363 377.9 389.2 403.2 415.9 438.7 466 467.7 469.5 473.9 477.6 483.9 484.6 486.2 482.4 480.8 479.9 476.8 475.9 472.2 470.6 471.4 473.3 480.2 481.9 499.3 509.8 523.9
65.9 79.8 89.5 100.9 105.8 118 134.4 146.4 156.7 166.8 174.5 178.8 181.9 185.2 188.9 189.4 190.4 190 193.9 199.6 202.2 204.3 205.7 210 212.2 220 228.5 241.7 250.5 259.5 265.8 268.4 267.8 267.4 268.9 269 271.4 276.4 281.8 287 290.4 293.3 290.3 283.2 275.8 270.4 270.5 271.1 265 260.4 261.2 257.2 247.2 237.1 228.9 215 204.8 196.1 191.7 190.3 190.3 195.8 200.7 207.9 217.1 227.2 241.2 254.5 261.6 272.4 283.8 291.1 300.4 305.9 307 308.9 309.3 303.4 312 316.7 324.2 331.1 344.2 362.9 388.8 399.7 398.8 407.6 414.1 420.1 406 388.1 350.3 319.1 293.2 273.9 259 233.1 201.9 157.2 138.6 116.7 100.6 85.9 75.2 45.2 23.9 7.1 7 7.5 8.3 10.5 12.3 13 13.8 25.6 59.1 81.7 96.9 117.1 133.9 143.1 168.2 184.2 205.6 226.4 249.1 264.1 274.3 288.6 299.2 308.7 322.3 331.7 335.4 328.5 327 322 314.8 306.6 296.2 280 268.4 257.1 238.3 223.9 205.9 183.4 162.9 146.4 134.4 125.9 125.9 125.9 125.9 125.9 125.9 127.5 142.2 156.2 170.8 187 207.7 226.9 242.3 258.6 268.5 277.4 294.4 305 316.4 335.4 354.4 368.9 380.8 397.1 411.4 428.7 452.8 450.6 456.4 466.1 469.6 472.2 477.8 477.9 473.4 471.6 470 469.1 469.3 469.6 467.9 467.1 467.8 473.7 479.2 491.5 503.3 517.9
71.1 81.2 90.3 101.4 110.9 124.2 139.3 150.7 160 170.2 178.1 184.8 186.6 185.5 187.6 189 191 193.8 198.6 204.4 208.5 210.7 213.9 215.8 219 225.3 231.6 243 251.4 260.6 271 272.3 269.8 269.7 270.9 269 270 275.2 279.7 282.6 286.2 288 284.2 278.9 276.4 272.2 269.2 271.1 264.2 265.9 264 259.4 250.4 237.2 225.8 214.2 203.2 196.1 190.8 190.3 193.3 195.5 201.4 210.2 220.9 231 241 253.6 263.1 272.1 285.1 293.7 302.7 307.8 309.2 309.4 309.5 305.7 312.8 313.9 316.7 322.3 338.1 350 366.3 372 381.7 401.7 400.7 400.3 393.2 383.5 349.1 322 290.6 270.3 257.9 242.9 209.8 151.4 129 114.8 99.3 93.7 79.8 45.3 27.1 7.4 7 7.2 7.8 10.2 11.9 13.3 14.2 25.3 45.2 64.7 81.9 104.3 119.9 139.7 162.1 188.4 205.4 231.8 250.5 262.1 278.2 294.3 302.3 315.8 326.2 328.6 341.3 328.2 323.9 319 312.6 306.9 297.3 283.8 271.4 261.9 246 231.6 208.3 189.5 166 148.2 133.5 125.9 125.9 125.9 125.9 125.9 125.9 125.9 138.5 152.1 166.5 181.6 207.2 220.5 240.9 260.1 272.2 276 286.5 301 314.5 324.7 338.4 352 368.8 388.7 405.6 413.4 427 436.9 450.8 457.1 463.2 464.4 463.8 461 462.4 464.3 462.3 461.8 462 462.5 463.1 463.7 464.2 471.9 479.8 489.2 499.8 513.9
74.5 82.8 91.4 101.6 115.5 129.6 143.2 153.9 163.8 173.6 183.5 190.6 189.9 188.7 187.8 191.5 194.7 198.8 204.3 211.2 214.4 217.5 220 220.5 228 232.4 239 244.9 250.1 263.6 275.3 274.8 270.5 272.2 272.2 269.3 269.8 271.3 275.4 277.5 280.2 280.8 278.9 275.5 274.4 272.3 269.9 267.4 266.6 270.6 266.8 262.6 252.7 238.4 223.7 212.6 203.5 196 191.3 193.5 195 198.2 201.9 211.6 222.6 231.8 240.9 252.9 263.9 274.8 283.9 297.8 309.2 311.5 310.5 310.1 307.9 308.8 310.8 312.9 313.9 318.3 326.1 338.5 350 365.7 377.5 390.7 395.8 395.8 387.5 360.8 338.6 313.7 286.9 266.1 261.7 235.8 191.8 149.9 120.7 104.4 93.2 92.4 75 46.7 29.1 10.7 6.3 6.9 8.5 10.1 11.4 13.6 17 24.3 33.7 54.8 75.9 93.1 111.7 134.3 164.6 190.5 208.2 232.4 250.1 264.7 284.1 299.9 309.4 318.1 326.4 330.5 337.9 327.6 321.3 316.3 311.2 305.8 299.3 285.9 272.3 261.6 249.8 234.1 213.4 188.7 169.6 149.2 132.4 125.9 125.9 125.9 125.9 125.9 125.9 125.9 135.9 149.8 165.8 176.8 192.3 209 236.9 250.1 261.8 270.8 279.2 292 305.7 319.9 326.5 340.2 361.2 374.4 392 398.3 410.7 427.9 438.8 450.2 458.2 455.3 453.3 453.4 453.5 456.2 455.1 455.3 456.2 457 458.7 458.1 462.7 469.9 478.1 486.9 497.5 511.7
77.9 86.3 93.5 106.1 124.4 134.9 145.2 156.7 164.8 174.7 190.8 191.4 189 189 194.1 198.1 204.2 209.5 211.3 217.4 220.9 222.4 223.9 226.6 231.5 236.6 246.9 250 253.9 261 276.2 274.8 271.5 274.7 274 269.4 270.6 269.6 270.8 271.9 274 275.1 272.5 271.2 270.8 271.2 268.9 267.2 269.1 270.9 268.4 264.1 255.2 237.8 221.6 212.7 204.1 196 190.8 192.7 196.3 200.4 207.1 213.7 225.5 233 244.1 253.3 263.6 275.2 282.6 294.6 311.1 315 313.2 311.4 309.3 308.2 310.9 311.7 312.7 317 321.7 330.1 349 371.3 382.1 397 399.5 394.4 378.3 354.6 344.9 318.6 289.8 259.7 248.7 229.5 183.1 149.4 114.4 98.1 92.8 80.9 62.1 43.7 32 12.2 5.7 6 6.5 8.4 10.3 12 15.9 23 39.7 56.6 71.3 85.6 111.9 136.3 164.2 188.5 210.1 234.6 249.6 270.1 289 304.8 318.1 322 326 327.8 331.1 329.7 320.7 316.3 312.1 306.8 297.8 289.5 272.7 257.5 246.8 226.6 209.4 190.8 170.2 151.3 131.6 125.9 125.9 125.9 125.9 125.9 125.9 125.9 131.4 143.6 160.3 176.8 193.2 209 228.7 235.5 249.9 256.4 272.2 286.6 294.4 310.6 316.6 327.6 353.6 358.2 368.9 381 398 413.5 430.5 434.7 437.9 439.2 448.6 445 447.4 446.9 447.7 450.8 450.6 451.4 452.2 457.5 462.5 467.5 472.6 481.6 494 507.4
78.9 87.2 96.1 111.4 129 138.5 147.6 157.5 164.6 173.4 191.5 180.1 183.7 194.9 203.6 206.1 212.6 221 222 225.7 225.2 225.6 227 231.3 236.9 243.6 252.1 257.8 261.6 259.5 268.4 271.2 271.9 272.9 270.7 269 267.4 266.3 267.1 267.3 269.3 269.5 269.3 270.6 270.8 273.5 268.9 268.8 271 271.3 268.4 263.5 255.1 234.2 220.3 212.5 205.3 196.3 191.8 193.7 197.9 203.6 208.5 216.4 225.4 234.5 242.9 256.1 264.5 276.2 286.4 294.1 303.9 311.7 312.9 311.5 310.1 309.7 309.1 310.3 312.3 315.8 319.7 324.2 340.1 370.7 387 400.3 399.6 390 373.5 367.1 338.9 317.4 285.1 256.4 229.4 196.8 176.7 139.5 110.3 98 85.2 66.2 56.3 38.1 26.9 21 5.9 5.3 5.5 7.8 9.2 10.6 15.3 21.7 34.7 50.5 68.8 89 110.4 136.8 162.3 186.3 210 233 255 277.5 292.7 310.9 322.1 335.7 335.2 335.2 332.9 329.5 322.1 317 314.1 307.2 299.4 291 275.1 260.4 239 222.9 206.5 190.9 175.6 155.5 133.8 125.9 125.9 125.9 125.9 125.9 125.9 125.9 127.6 137.8 149.8 171.6 187.3 210.6 215.1 221.6 236.1 245.7 261 283.8 281.1 300.2 307.7 316.7 342.5 345.8 357.3 369.6 381.5 397 409.9 415.4 420.4 427 432.5 438.1 436.1 440.1 441.2 443.4 443.1 445.6 450.3 455.6 461.1 466.5 472.2 480.7 493.4 504.3
80 88.6 100.2 114.4 129.7 140 149.2 156.5 164.1 173 179.7 178.9 191 200.7 209.2 215.9 223.2 230.7 228.8 231 230 229.5 232.6 237.2 241.4 246.3 254.1 261.6 261.3 261.3 270.2 274.7 273.2 272 271.2 269.6 265.1 262.1 262.6 264.3 266.2 266.5 268.9 269.8 271.1 271.3 270 270.4 271.7 271.5 267.5 262.7 250.7 231.9 220.8 212.7 205.3 194.8 191.3 189.7 196.8 202.5 209.8 216.5 225.7 234.8 244 254.8 266.5 275.9 286.9 296.3 304.5 305.9 309 310.1 311.2 310.3 310.5 310.3 311.6 312.4 315 321.9 345.5 355.6 382.4 392.8 394.9 378.5 364.8 364.2 336.5 310.8 281 237.3 203 186 159.7 135.9 113.9 98 83.2 63.1 59.6 35.4 27.4 25.5 7.9 5.4 5.9 7.2 8.8 9.9 12.9 19.9 29.2 50.1 73 93.3 117.5 139.9 165 189.4 212.5 236.1 262.9 282.7 297.4 309.6 325.9 337 337.6 337.3 335 330.5 323.7 319.1 316.7 308.4 301 292.9 280.4 263.4 242.7 221.7 203.9 191.8 168.8 150.8 135.3 125.9 125.9 125.9 125.9 125.9 125.9 125.9 125.9 131.7 140.9 154.6 171.1 193.7 203.2 206 216.3 236.8 257.7 265.2 272.2 283.9 294.1 304.5 319.2 329.3 344.4 357.7 369.6 376.9 384.6 396.3 406.1 417.5 425.3 424.5 427.7 432.9 435 436.3 435.6 443.5 448.1 453.3 458.4 463.5 471.1 483 490.9 499.6
82.3 91.6 104.2 117.3 128.8 139.7 148.8 154.3 161.2 170.5 178.9 185.3 197.1 206.9 214.6 223 229.8 234.2 235.7 236.1 237.2 235.4 239 245.3 248.3 251.4 261 259.3 260.1 263.7 269.2 274 272 271.8 272.7 271.2 261 258.6 260.2 262.1 262.3 266.7 268.8 269.4 270.6 271 276.9 277.9 277 274.2 270.6 264.2 248.3 230.6 218.7 209.1 202.3 194.1 190.4 191.5 198.4 203.5 208.5 215.7 225.4 234.7 243.5 256.1 269 276.2 286.2 294.8 307.1 304.2 307 308.8 311.4 314.6 314.8 311 310.1 311.5 313.6 318.4 339 350.9 366.1 376 376.9 368.9 368.5 354.7 335 306.6 277.7 230.5 200.2 177.7 152.6 136.3 109.8 91.6 72.1 59.3 48 27.9 25.5 32 13.5 3.4 5.2 7.1 8.1 9.1 11.5 18.1 33.7 56.4 80 104.7 126.2 150.5 169.5 194.5 219.2 238.9 261.9 285.7 306.2 308.9 326.9 334.5 337.7 334 332.3 331.3 331.4 322.9 317.6 310.7 300 286.8 280.6 264.1 243.7 218.9 202.8 189.3 167.5 150.2 135 125.9 125.9 125.9 125.9 125.9 125.9 125.9 125.9 128.4 136 146.7 161.9 175.6 188.5 197.4 204.6 220 236.9 243.5 263.9 272.9 285.1 295 304.7 314.4 327.3 342.3 353.1 360.9 367.6 380.2 396.8 405.4 407.9 414 416.5 421.2 426.4 425.3 433.2 440.5 444.7 449.5 456.3 461.9 470.7 478.8 486.5 495.4
83.1 96.4 112.8 122.3 128 135.6 146 149.6 159.5 169.1 180.9 190.1 201.3 213 220.9 229.1 234.7 239.3 240.1 241 241.7 242.1 247.8 254.5 255.5 258 265.8 261.6 260.6 264.1 269.9 273.7 272.3 271.9 270.3 265.1 257.6 257 258.7 260.9 259.5 264.9 269.3 270.3 270.6 271.4 278.2 280.8 279.4 275.3 271.2 260.2 249.6 230.7 217.6 206.1 197.8 192.1 185.5 191.1 197.8 203.4 207.9 214.5 222.6 234.5 242.7 255.7 267.8 278.6 290.2 296.7 299.4 302.6 305.6 307.8 311.5 319.9 322 314.6 312.4 311.7 312.6 317.3 333 348.6 363.9 377 371.2 370.2 366.4 357.9 325.9 321.9 281.3 233 197.9 169.8 154.9 133.8 101.9 84.1 72.5 53.4 35.6 27.3 20.9 30.5 4.1 3.4 5 6.1 7.6 9 11.5 18.7 36.4 60 84.5 109.9 138.5 158.7 175.8 201.9 223.1 247.4 265.9 289.7 305 308.3 325.8 332.6 332.8 335.1 333.9 330.9 331.1 329.6 315.9 306.2 296.4 277.3 268.1 251.2 232.5 216.6 202.6 184.8 165.1 148 136.5 125.9 125.9 125.9 125.9 125.9 125.9 125.9 125.9 126.3 130.2 143.9 160.8 170.6 174 183.5 193.5 200.1 214.4 232.3 257.7 261.7 269.8 285.5 291.7 301.9 315.7 327 333.2 344.2 354 363.8 375.2 387 398.2 401.4 406.8 412 413.5 420.8 427.8 434.9 439.8 445.3 452.5 460.8 468.3 475.4 482.8 491.4
87.8 102.6 115.2 124.1 129.4 136.7 143.9 151.8 161.6 174.9 184.7 193.8 204.8 215.6 224.8 233.5 239.5 241.8 241.9 243.2 244.9 247.8 253.9 262 263.9 263.2 262.3 261.4 259.2 262.5 269.6 274.5 269.6 273 272.9 263.4 254.2 251.9 256.3 258.5 259.1 263.6 269.9 271.4 269.3 275.4 280.3 281.3 280.4 274.4 269.5 257.8 245.2 230.2 215.6 204.6 195.2 190.9 185.4 190.9 197.5 201.6 207 212.4 220.6 230.9 241.4 252.7 265.3 282.5 295.5 294.4 296.5 301.4 304.9 308.2 314.3 327.3 326.3 319.7 315.5 312.7 313.1 315.9 330.4 338.7 360.4 368.4 372.8 379.1 368.9 351.6 317.3 303.1 268.6 231.8 192.3 165 154 130.7 98.7 81.7 66.5 42.4 32.8 18.1 10.8 6.7 4.1 4.5 4.4 5.1 6.5 8.2 9.9 24.6 42.4 68.3 91.1 111.7 141.8 162.2 181.9 205.7 232.4 254.4 272 285.3 295.6 303.3 320.2 323.4 332.7 333.1 332.1 329.7 331 326.6 317.3 303.6 286.8 274.7 258.5 240.7 227.8 216.9 205.3 188 169.8 149.3 134.3 125.9 125.9 125.9 125.9 125.9 125.9 125.9 125.9 125.9 127.2 133.7 149.7 160.6 164.3 168 181.2 191.7 201.5 219.4 240.2 246.9 255.5 266.8 273.6 283.8 298.8 310.7 317.5 329.5 346 354 360 370.1 380.4 390.1 398.8 402.4 404.8 413.9 421.4 428.5 434.7 441.9 448.8 456.9 465.4 471.4 477.9 485.7
91.3 103.8 112.8 123.6 132.8 140 147.8 155.8 166.5 178.4 191.6 197.8 209.4 224 230.5 235.5 241.5 243.7 245.4 248.1 248.3 251.7 259.3 265.6 270.7 269.7 260.5 260.1 259.5 262.5 270.3 271.3 268 273.7 270.8 260.1 248.5 248 252.2 254.9 258.7 263.4 266.7 266.4 268.6 275.8 283.1 282.7 280.5 273.9 265.6 250.6 237.7 225.7 214.7 204.4 194.1 187.8 185.4 192.2 197.2 201.5 205.7 210.8 217.2 226.3 238.2 249.9 264.4 279 290.4 287.2 293.9 300.2 304.2 307 312.9 320.3 333.1 323.7 318.9 315.3 316 315.8 319.6 336.4 350.4 364.5 379.1 387.1 361.5 331.2 312.9 283.2 261.4 225.1 191.8 165.4 146.5 126.6 99.1 81.2 50.3 38 34.4 19.2 4.6 3.7 2.6 4.1 3.8 7 7.1 7.5 13.1 30 50.9 75.1 97.4 125.4 147.9 166.6 184.2 213.3 242.3 257.6 272.3 283.2 290.8 301 314.6 321.8 333.5 331.6 325.2 326.1 327.4 323.8 314.9 301.3 286 271.6 251.8 233.8 224.9 215.2 203.3 185.3 171.3 151.8 132.2 125.9 125.9 125.9 125.9 125.9 125.9 125.9 125.9 125.9 125.9 131.7 144.4 150.9 153.7 157.4 171.2 186.2 196.2 204.9 220.7 232.8 244.1 250.9 260.1 267.6 276.4 289.3 305.1 313.1 328.2 340.6 346.7 358.4 367.8 376.3 384.6 387.4 401 408 414.7 422.5 431.7 437.2 443 452 460.1 468.2 474.7 481.7
92.8 103.2 113.3 124.3 131.3 140.6 148.6 160 171.4 176.9 189.8 202 214.8 227.7 234.6 238.8 242.8 246.3 248 250.7 251.6 255.3 262 269.6 274.8 270.7 260.4 256.5 258.2 266 274.5 269.1 264.5 268.2 262.9 250.7 243.1 241.2 246.7 251.6 257.8 262.1 264.5 265.2 269.4 278.2 288.3 289 279 273.8 262.6 249.9 233.2 222 212.9 202.1 193.4 186 186.3 192 196.7 201.8 205.9 210.6 214.7 221.6 234.7 248.2 259.8 274.3 280.1 284.5 291.3 302.1 306.6 307.3 310.3 313.5 322.6 322 318.7 317.2 317.5 316.2 316.9 323.5 349.9 372.1 382 380.6 343.2 321.1 291.6 271.4 245.9 212.8 186.1 163.7 140.4 111.6 94.3 70.8 39.9 30.1 15.5 6.8 2.9 3.3 2.8 3.3 3.4 6.7 6.8 9.1 21.4 36.7 55.7 81.3 102.5 128.6 153.1 175.3 198.9 222.6 246.1 259.6 271.3 281.2 293.2 303.2 315.1 322.2 332 323.8 318.9 321.2 322 314.2 308.1 289.8 273.1 258.6 241.3 227.9 222.6 208.5 198.8 183.6 166.1 151.5 137.1 125.9 125.9 125.9 125.9 125.9 125.9 125.9 125.9 125.9 125.9 128.5 140.7 145.9 147.2 150.1 162.2 176.9 186.2 190.3 203.6 219.7 237.4 236.6 245.6 252.5 261.9 274.4 288 295.4 308.7 320.6 331.8 345.8 357 360.5 370.5 384.1 393.8 402 408.2 415.7 423.2 432.1 438.7 446.4 456.5 466.5 470.7 477.1
97.3 104.7 115.4 125.7 135.2 144.4 153.3 160.4 171.5 177 187.2 199.9 213.2 226.2 237.1 242.7 247.8 251.2 252.6 255.1 256.2 258.9 264.1 271.1 271.4 269.3 259.8 254.6 255 261.2 272 267.7 260.3 256.7 253.3 246.2 240.2 238.4 243.2 250.8 257.8 260.6 260.7 265.4 271.8 279.4 287.1 289 278.1 268.9 258.2 246.9 228.5 222.2 212.1 200.7 192.8 186.3 186 189.7 195.1 200.3 206.3 210.2 214.2 218.5 228.8 241.8 255 266 269.7 282.8 290 297.4 306.9 307.1 307.6 310.3 315.9 319.3 325 327.6 321.2 322.5 318.7 318.2 335.1 373.4 382.7 353.7 328.1 311.7 266.3 248.6 224.1 201.7 180.2 162.6 128.7 104.4 93.5 62 41.1 16.6 8.1 3 3.2 4.1 2.7 3.4 3.9 3.6 3.8 9.6 25.6 43.1 66.8 89.3 112.6 135.1 157.5 181.6 205 232.4 245.7 263.8 274.9 288.5 295.9 303.8 309.8 317 322.1 315.2 311 317.4 311.2 302.1 291.2 278.1 259.7 245.7 229 223.1 213.9 210.2 190.8 176.7 163.6 148.1 134.6 125.9 125.9 125.9 125.9 125.9 125.9 125.9 125.9 125.9 125.9 125.9 134.6 139.3 140.1 142.5 151.3 164.8 175.1 178.2 186.3 202.8 214.8 222.5 228.8 238.5 246.4 261.8 271.3 280.5 293.5 309.6 321.8 332.5 343.4 350.6 366.6 375.4 383.1 393 401.7 410.1 417.8 425.7 432.4 442.8 451 459.4 465.4 473.2
101.8 109.4 117 128.6 139.8 148.2 157.7 167.3 172.8 178.3 187.7 199.6 214.3 227.9 237.7 247.1 254.7 258.3 257.4 259.4 262 264.7 269.4 270.1 271 267.1 259.9 254 254.5 257.9 264 265.1 255.7 250.6 244.9 242.3 239 235.4 244.2 250.5 256.2 260.4 259.7 266.3 285.4 287.5 284.6 280.5 278.8 265 253.5 240.2 226.4 222.1 211.5 200 193.4 185.3 180.8 189.2 194.5 198.6 205 208.2 211.5 215.2 222.1 235.6 245.7 254.4 263.2 278.7 287 295.8 302.1 308.3 304.9 307.1 314.4 317.5 330 334.5 332.3 323.4 320.3 322.1 328.3 347.7 359.7 342.1 314.1 284.3 252.2 235.2 219.5 203.5 187.1 157 120.1 105.1 85.9 61.1 33.2 10 4.8 2.7 2.3 -0.9 3 2.8 2.7 3.6 5 12.2 29.9 50.5 76.5 95.2 117.2 138.2 163.9 188.3 210.9 234.2 250.7 267.3 282.6 291.9 298.8 305.1 309.7 317.7 314.6 305.7 303.1 306.7 302.1 294.5 281.6 267.1 248.6 232.7 219.5 213.7 203.2 197.2 194.2 170.2 158.1 150.7 134.9 125.9 125.9 125.9 125.9 125.9 125.9 125.9 125.9 125.9 125.9 125.9 128.5 132.6 132.7 139.6 147.9 153.8 158.9 164.4 170.1 184.9 195 206.2 213.3 222.2 230.3 245.4 256.3 266.6 280.1 292.6 306.6 315.4 327.6 343.7 356.1 364.2 373.6 385.8 395.9 404.4 412.5 419.8 429.2 438.2 443 453.5 462.4 469.9
105.2 113.9 125.1 132.6 139.2 157.3 164 174.2 183.1 185 190.6 200.5 210.7 223.1 236.9 250 260.4 263 263.4 268.9 268 271.5 275.9 270.5 269.5 263.9 260.4 258.4 251.1 250.3 247.2 255 246.9 243.9 238.5 236.1 231 232.9 243 248.4 253 256.5 262.8 272.5 290.6 293.1 287.6 278.8 268.3 255.7 247.9 236.9 225.8 221.5 210.3 199.3 193.4 184.6 175.4 188.6 195.2 198.1 204.3 206.9 210.9 213.6 217.5 228 239.6 247.9 259 267 281.7 291.8 296.1 304.1 304.9 301.1 312.6 326.9 328 338.8 336.5 323.6 318.9 319 322.3 333.6 334.5 336.9 300.9 279.3 246.8 233.2 214.3 202.5 186.8 145.3 117.7 106.1 84.3 67.5 39.4 5.3 3.7 1.8 1.7 -0.9 2.5 1.7 1.7 2.5 5.7 20.2 37 55.9 79.8 101 122.4 143.2 170.2 194.1 216.1 235.7 258.5 272.4 287.7 293.1 299.5 307.1 308 312.7 306 302.8 298.3 296.1 293.1 287.6 268.4 252.6 236.3 223.3 210.8 201.8 192.1 188.6 176.5 162.1 150 146.6 138.9 125.9 125.9 125.9 125.9 125.9 125.9 125.9 125.9 125.9 125.9 125.9 125.9 128.3 132.4 135.9 141.4 138.9 144.1 151.5 156.8 166.6 179.1 190.3 196.4 203.6 212.8 224.4 237.7 254.7 265 279.8 285.6 307.3 320.7 332.1 343.6 353.1 367 378 389 397.5 406.8 415.6 422.8 434.8 444.6 452.3 461.5 469.4
107.6 122.7 139.7 145.4 152.4 158.4 164.6 178.8 188 190.5 194.9 204 211.6 218.8 233.4 249.2 260.8 267.1 270.5 280.9 280.4 277.1 281.9 285.3 271.3 266.6 261.5 260.8 256.1 242.5 241.6 241.2 238.4 237.7 233.1 227.8 220.3 232.8 240.9 245.4 249.3 251.2 262.6 275 291.9 294.5 286 278.1 266.4 250.5 243.1 230.5 223.4 218.9 205.8 196.6 191.4 181 179 185.9 190.1 195.9 199.9 205 209.3 211.9 213.9 223.6 232.4 241 249.6 260.2 272.5 282.8 296 291.9 292.9 295.4 312.2 324 334.3 334.2 332.3 328.5 317.2 315.1 317.1 323.4 324.8 321.2 294.9 269.8 243.6 225.7 209.6 198.6 169.5 131.9 113.7 99.3 77.2 58.1 39.2 3.5 3.3 1.7 2.1 -0.9 2.1 1.7 1.9 2.6 10.1 24.9 45.1 66.5 84.8 106.5 127.8 152.1 177.1 199.2 219.7 246 263.5 278.2 290.6 295 299.7 306.8 304.4 305.3 300.4 302.2 292.5 289.4 285.3 274.6 265.7 236 223 213.2 205.5 193.7 180.5 172.1 161.3 145.1 140.6 135.1 132 125.9 125.9 125.9 125.9 125.9 125.9 125.9 125.9 125.9 125.9 125.9 125.9 125.9 125.9 129 132.5 133.7 138.6 143.6 143.9 152.7 164 174.5 182.6 187.1 196.6 210.1 225 239.3 248.6 258.5 282.5 294.5 307.3 319.8 333.4 347.8 361.2 371.6 382.3 391.9 401.6 411.3 420.7 431.5 441.5 451.4 460.5 468.8
115.2 134.1 145.2 152.6 164.2 170.6 171.6 178.4 189.6 190.6 196 205.5 218.5 224 234.2 248.2 261.5 272.1 279.8 288.7 291 287.7 286.8 288.5 277 275 271.6 266 256.7 244.3 231.9 231.4 231.8 228.7 223.4 219.2 219.5 231.7 237.1 240.7 246 252.6 260.5 274.3 289.2 289.9 280.4 274.2 262.5 247.1 243.2 228.5 221.7 213.3 198.6 192.4 187.1 176.4 179.1 185.7 188 193 197.7 204.2 205.3 209.3 211.7 215.7 223.7 232.1 238.2 253.7 265.9 278.6 293.9 288.5 280.2 289.5 315.9 321.7 327.2 330.9 330.2 328.6 320.2 314 313.8 309 314.1 301 277.8 258.4 240.7 220.5 202.4 182 151.3 126.7 111.3 91.2 72.4 48.2 21.4 3.1 2.2 1.7 1.7 -0.9 1 -0.9 1.7 4.2 12.1 29 47.6 65.2 89.6 114.2 134.5 156.1 181.6 202.1 225.2 248.9 273.8 282.2 289 294.4 297.7 300.2 299.5 298.8 298 294.7 287.4 278.4 275.2 258.7 249.8 226.3 214.5 204.2 200.5 185.7 170.4 156.2 147.5 136.9 132.2 125.9 125.9 125.9 125.9 125.9 125.9 125.9 125.9 125.9 125.9 125.9 125.9 125.9 125.9 125.9 125.9 125.9 125.9 129.3 131.8 134.5 135.9 140.9 150.3 161.9 167.3 172.1 183.5 197.4 212.1 223.2 230.7 253.9 267.9 282.2 294.1 306.4 323.7 338.8 353.6 365.1 374.8 384.6 396.2 406.6 417.2 427.2 437 449.1 458.6 468.4
120.9 136.9 147.7 159.8 168.6 177.4 181.6 180.4 184.7 190.6 195.8 206.5 218.3 228.1 236.2 247.6 267.8 276.3 285.5 296.5 300 298.7 290.7 285.2 277.6 278 275.5 270 262.9 244.2 231.5 222.7 220.7 218.3 214.8 212.9 216.1 222.7 229.5 237.8 243.2 250 256.9 270.6 281 280 273.5 268.7 260.1 245.8 238.7 226.4 219.9 209.1 201.4 191.9 182.3 170.8 177.9 183.1 186 190.7 195.7 200.2 201.7 205.4 209.1 211.8 218.3 224.7 228.8 242 252.6 271.5 295 285 274 290.4 321.6 318.9 318.1 326.4 327.7 326.2 320 314.3 304.6 303 299.1 287.2 274.9 256.7 229 214.7 202.9 179 141.4 124.9 115 84.3 58.2 38.9 5.7 2.5 1.1 0.5 -0.9 -0.9 -0.9 -0.9 1.7 9.3 13.7 31.1 54.5 74 95.6 120.5 137.9 158.1 184 206.3 228.8 251.4 276.6 285.7 294 296.8 296.9 295.5 296.6 295.9 295.1 290 281.6 272.2 257.6 246.8 229.5 214.8 207.1 195.3 191.4 179.6 164.4 146.1 131.1 128.8 125.9 125.9 125.9 125.9 125.9 125.9 125.9 125.9 125.9 125.9 125.9 125.9 125.9 125.9 125.9 125.9 125.9 125.9 125.9 127.2 123.5 124.8 127.3 132.5 139.2 150.1 154.6 161.6 173.4 184.5 193.5 209.5 225.6 240.4 254.4 268.9 282.2 296.8 314.8 327.8 341.9 353.1 365.5 377.8 390.2 401.8 414 425.4 435.7 447.2 457.3 468.3
121.8 136.5 149.2 159.9 171 181.6 187.9 190.7 190.5 191.3 197 205.4 216.7 228 236 243.9 265.5 282 295.3 303.1 307.3 303 297.9 285.2 277.5 276.4 275.4 269.8 261 238.6 229.2 219.1 213 211.9 209.1 210 214.8 220.6 226 232.5 240.4 248.5 255.9 267.5 275.4 275.1 270.3 261.8 252.4 241.5 234.8 227 216.8 207.6 202.1 189.7 183.9 173.2 177.8 179 181.6 188 193.8 196 199.2 202.4 204.7 207.9 212 216.5 223.2 231.3 242.5 255.5 271.7 271.3 269.1 283.9 301.1 309 314.2 323.1 326.3 327 325.6 315.9 302.7 296.9 290.3 272.8 264 247.6 218.4 207.3 185.1 156.7 136.9 123.9 119.3 76.7 55.5 24.1 3.2 1.2 0.5 -0.3 -0.9 -0.9 -0.9 0.4 6.2 13.4 20.6 36.4 58.7 80.4 98.9 121.7 141.8 162.8 187.9 207.7 229.9 254.1 273.9 287.1 297.2 300.2 293.6 292.7 294.9 295.5 288.7 281.7 274.9 260.4 247.3 232.9 217.4 206 193.8 182.7 177.5 166.2 152.7 136.2 128.9 125.9 125.9 125.9 125.9 125.9 125.9 125.9 125.9 125.9 125.9 125.9 125.9 125.9 125.9 125.9 125.9 125.9 125.9 125.9 125.9 123.4 120 121.7 122.7 127.4 129 138 141.9 152.2 158.6 166.6 179.1 198.2 212.4 225.6 236.9 254.9 272.7 287.4 302.4 316.6 330.2 341.8 353.7 369.2 384 396.6 410.5 422.8 434.1 446.2 458.1 468.4
120.7 135.9 150.5 162.5 172.1 180.9 189 195.5 196 197.6 199 205.2 214.9 228.8 234.7 246.3 270.3 289.6 299.2 304.2 307.3 305.4 300.5 287.7 276.8 270.7 270.9 263.2 250.4 235.7 225.6 218.7 208.3 206.5 208.7 211.3 216.8 222 225.9 230.8 239.1 247.4 257 267.4 272.2 271.6 266.4 256.9 247.8 239.2 233.4 226 215.8 206.8 200.2 188.1 183 176.7 167.4 175.4 179.1 182.8 189.2 192.5 195.4 197.5 200.7 204.7 208.5 212.4 216.8 223.7 235.3 245.5 257.1 259.5 260.2 278.9 288.8 300.6 317.8 327.9 335.4 332.6 327.5 325.5 316.4 294.1 275 267.7 250.8 224.3 209.4 189.2 165.2 150.6 133.9 122.4 106.1 67.7 46.9 13.3 2 0.8 -0.1 -0.9 -0.9 -0.9 -0.9 -0.9 7.7 15 28.8 39.7 60.2 85.2 106.3 126.3 144.1 164.4 189.9 208.4 228.9 251.3 274.2 282.9 287.8 294.1 287.5 292.8 295 292.1 286.5 274.1 263.5 249.2 235.6 220.8 206.7 194.2 181.3 170.9 162.1 150.1 138.6 126.5 125.9 125.9 125.9 125.9 125.9 125.9 125.9 125.9 125.9 125.9 125.9 125.9 125.9 125.9 125.9 126 126.7 126.6 125.9 125.9 125.9 121.8 119.8 120.6 120.2 121 124.4 129.6 137.9 142 148 153.4 169.6 184.9 198.8 211.1 225.9 243.8 259.9 275.4 290.7 301.3 318.3 335.1 349.6 364.3 378.6 394.1 410.1 423.5 434.1 446.7 459.4 469.7
118.9 131.6 148 161 170.5 180.5 189.3 199.7 199.1 201.6 201.9 206.3 215 226.4 233.4 247.5 267 287.5 294.5 303.1 304.9 300.7 297.2 287.3 280.5 270.3 258.9 254.8 242.4 229.9 222.5 212.2 205.8 202.9 207.1 212.5 217.3 221.5 225.5 230.4 239.2 247.8 256.1 265.7 271.1 268.8 259.4 250 242.4 236.5 232.1 223.8 214.5 203.7 194 186.2 180.8 175.7 169.1 170.9 175.4 178.3 184 188.2 190 191.9 198 202.8 204.9 207.9 213.7 218.7 225.8 236.7 245 245.5 254.5 272 280 305 319.3 334.6 337.5 335.8 335.2 348.5 337.3 302.2 273.4 255.9 232 208 188.8 171.6 154.8 146.5 121.5 116.4 91.9 56.6 38 5.5 1.1 0.2 -0.9 -0.9 -0.9 -0.9 -0.9 -0.9 4.2 17.9 31.7 39.1 62.2 87.4 108.8 130.9 144.2 166.3 188.8 206.5 231.4 244.6 268.1 278.4 281.4 281.8 281.5 286 293 280.4 273.6 260.4 254 240.1 221.7 206.7 197.8 181.2 169.1 159.1 147.6 133.9 125.9 125.9 125.9 125.9 125.9 125.9 125.9 125.9 125.9 125.9 125.9 125.9 125.9 127 128.3 130.7 131 131 133.1 131.3 130.6 128.6 128.8 123.9 120.8 119.7 118.5 119.6 122 125.5 129.7 134.6 138.8 148.8 159.7 172 185.1 198.8 213.3 229.6 248.7 263.6 278.1 291.9 312 328.1 345.2 361.8 377.7 393.6 411.2 425.3 436.7 450.1 461.2 470.9
117.1 130 144.1 158.8 169.6 180.1 189.3 197.3 204.3 208.4 208 209.4 215.2 224.5 233.9 245.2 256.1 271.9 286.8 295.3 298 294.4 286.5 284.4 283.1 271.1 253.1 244 237.7 225.9 216.6 208 202.2 199.7 203.5 211.2 216.6 222 227.2 232.2 239.5 247.9 255.1 262.5 268.8 263.2 255.5 247.5 241 236.1 230.9 221.6 210.5 198.1 191.3 184.6 178.6 173.1 168.5 167.8 171.8 175.6 180.5 184.1 186.3 188 193.9 199.3 202.5 204.1 206.6 215.3 220.5 226.7 235.1 235.7 248.9 261.9 277.2 296.3 326.1 333 337.3 331.7 345.7 356.2 350.4 313.6 279.2 249.1 225.9 202.9 180.7 162.9 144.1 124.8 110.5 104.4 75.1 51.3 15 2.1 -0.9 -0.9 -0.9 -0.9 -0.9 -0.9 -0.9 -0.9 6.2 13.4 26.5 40.7 66.2 88.4 110.4 130.1 143.6 165.9 184 202 223.1 240.7 258.5 268.2 268.7 268.6 274.2 278.6 281.3 271.4 259.5 243.9 237.4 228.4 207.7 195.8 184.2 173 155.7 146.7 134 125.9 125.9 125.9 125.9 125.9 125.9 125.9 125.9 125.9 125.9 125.9 125.9 125.9 130.3 131.1 134 139.7 141 140.9 142.7 142.3 141.1 137.3 135.7 132.8 127.5 122.3 118.2 117.9 119.8 121.8 125.6 129 129.9 143 150.2 160.8 171.3 189 202.4 218.9 235.3 248.3 268.9 285.8 304.4 323.9 342.9 361.3 377.1 394.1 411.7 425.8 437.1 451 462.5 472.2
112.7 127.4 143.1 158.7 169.7 180 190.9 200.5 210.2 210.6 209 214.4 222.2 231.6 239.4 245.7 253.3 258.9 269.2 283.6 288.7 286.3 279.9 284.4 278.3 270 255.1 233.3 231.5 221 206.7 201.2 198.7 198.9 203.1 211.3 217.8 224.8 229.8 235.8 241.9 246.3 251.9 258 261.6 257.9 253.2 245.7 238.9 238.4 233.5 226.1 214.4 197.4 188.2 181.6 175.7 169.9 161.2 164.3 168.5 172 175.9 181 182.7 186.2 191 195.7 199.4 201.7 204.5 210.9 218.1 221.9 225.4 239.8 248.2 254.1 266.7 283.7 305.4 319.5 336.4 330.8 357.5 358.1 345.9 322.1 291.2 255.9 223.3 196.2 179.1 162.8 139.7 117.1 97.7 90.1 56.3 32.4 9.5 2.2 -0.9 -0.9 -0.9 -0.9 -0.9 -0.9 -0.9 -0.9 2.3 9.7 23.4 39.1 67.1 84.4 108.6 124.7 140.9 164.9 180.3 195.2 212.6 234.7 247.3 256.6 259.2 255.4 264.9 271.4 267.1 257.2 252.7 233.8 222.9 208.6 195.4 183.9 170.9 161.6 148 135.2 125.9 125.9 125.9 125.9 125.9 125.9 125.9 125.9 125.9 125.9 125.9 125.9 126.4 132.9 137.5 139.7 146.4 151.6 151.7 150 151.6 151.6 150.6 147.2 144.7 140.3 136.6 130.5 124.2 116.1 116.7 119.1 121.7 122.5 130.1 135.9 141.5 150 160.8 175.7 192.7 204 221.3 244.4 263 279.8 296.3 317.4 331.4 355.4 377 394.8 412.8 427.3 441.4 451.9 465 473.4
110.8 125.7 144.9 158.9 169.8 179.9 191.1 202.3 210.5 210.9 215.3 219 226.9 247.1 251.6 250.9 254.4 257.6 264.2 268.3 271 278.4 279.5 278.1 274.4 263.3 254.7 229.1 227.8 216.3 200.7 196 195.9 198.4 203.3 210.5 218.1 226.9 234.5 240 244.1 247.1 249.5 252.9 253.3 252.6 250.5 240.5 235.9 236.6 239.1 231.1 211.7 193.7 185.2 179.2 173.1 169.9 159.9 164 167.6 171.3 173.9 174.3 178 183.3 187.4 191.9 196.1 199.2 201.5 206.1 212.6 215.2 224.3 239.6 249.8 251.3 256.1 271.3 293.4 310.5 316 331.8 356.9 359 342.8 322.5 299.1 262.5 226.5 197.3 175 155.8 128.3 101.5 79.9 67.1 43.1 21.7 10.2 -0.9 -0.9 -0.9 -0.9 -0.9 -0.9 -0.9 -0.9 -0.9 -0.9 5.4 18.3 35.1 61.2 80.5 99.9 121.6 137.2 160 172.3 195.8 210.3 224.7 233.2 239.1 249.4 244.8 251.9 256 251.1 246.1 236.2 224.3 207.6 197.2 186.1 171.4 157.8 147.1 134.2 125.9 125.9 125.9 125.9 125.9 125.9 125.9 125.9 125.9 125.9 125.9 126.3 129.9 133.1 137.9 148.9 153.3 151.3 159.2 160.2 160.6 161.7 162.3 160.4 158.9 159.7 153.6 144.9 138.7 130.8 120.3 114.1 115.7 117 118.7 122.8 129.5 135.3 143.9 154.8 167.3 179.3 197.6 214 234.4 255.6 271.4 285.9 307.1 326.9 352.6 378.4 398.5 414.9 430.6 442.8 454.6 465.3 473.3
106.8 124.1 141.5 154.5 167 180.6 189.7 199.4 208.7 212.4 220.6 226 232.1 250.6 262.5 258 258.3 262.3 265.8 275.4 270.1 273.1 273.7 268.5 260 253.3 249.4 225.8 211.8 206.4 197.1 192.4 195.3 198.7 202.6 209.9 219.7 229 238.1 242.6 246 248.4 250.7 250.8 250.6 250.7 247.3 238.3 234.3 230.6 230.6 231.1 208.7 192.8 183.9 177.8 173.4 167.7 159.1 161.5 165.7 168.2 170.6 171.6 176.2 181.6 184.3 187.8 191.5 196.8 198.8 204.6 209.8 214.1 221.8 236.8 245.6 248.2 252.6 259.9 291.8 302.4 303.9 320.2 343.8 345.6 332.1 313.5 295.8 272.1 233.9 205.9 170.6 145.4 120.5 97.2 78.4 58.7 42.3 24.7 10.4 4.6 -0.9 -0.9 -0.9 -0.9 -0.9 -0.9 -0.9 -0.9 -0.9 6.3 20.1 34.9 54.4 76.8 94.9 112 132.5 150.6 168.7 188.9 207.4 219.1 221.5 228.1 234.8 231.9 233.4 237.4 235.8 234 224.9 214.9 194.8 185.9 176.7 159.9 146.5 132.2 125.9 125.9 125.9 125.9 125.9 125.9 125.9 125.9 125.9 125.9 127.7 132.2 134.8 139.2 139.9 144.8 152.2 160.4 158.8 164.3 170 172.5 173.6 172.9 171 168.4 166.9 162.4 159.4 148.7 138.3 125.2 115.3 112.5 114.2 115.5 118.8 122 127.8 134 149.1 162.2 173.9 191.1 204.4 222.7 245.6 263.2 279.6 302 324.2 348.9 373.2 396.8 415.1 429.3 441.9 456.8 466.7 473.8
105.2 121.4 137.1 148.9 161.3 174.6 189.3 199.1 208.5 217.2 224.2 229.7 236.4 244.5 262.5 266.7 267.8 261 261.6 273.9 267.4 279.9 278.7 261.5 251.5 238.5 226.1 210.9 203.3 198.5 191.2 190.2 194.6 198.3 202.6 212.2 221.4 230.1 238.7 240.6 245.4 248.2 250.6 250.3 250.6 250.4 244.4 239.1 236.2 231.7 226.8 221.7 205.6 192.5 184.4 178.4 172 164.7 159.2 157.8 162.7 165.4 168.1 169.2 173 181.9 183 184.6 188.1 193.9 196.9 203.5 208 212.2 218.8 232.8 239.8 248.6 256.7 252.2 270.3 289.6 289 318.5 332.7 338.9 324.2 300.4 285.9 262.9 236.5 217.5 178.6 141.9 118.2 97.8 78.4 61.3 45.3 27.9 11.9 6.7 -0.9 -0.9 -0.9 -0.9 -0.9 -0.9 -0.9 -0.9 -0.9 7 21.9 35.2 53 68.2 89.6 104.1 125.3 141 153.8 173.9 193.9 208.8 211.6 216.2 219 221.9 221.1 223.5 224 217.3 209.9 196.8 184.3 172.6 159.5 147 136.1 125.9 125.9 125.9 125.9 125.9 125.9 125.9 125.9 125.9 130 135.4 138.3 143.3 145.9 149.5 148.7 153.4 158.9 165.3 169.8 172.2 180.4 186.8 189.1 187.6 183.4 178.1 175.8 169.6 164.3 157.4 144.3 129.9 117.2 110.8 112.1 113.1 115.3 116.6 122.3 133.9 147.1 158.4 167.3 181.5 196.4 213 232.8 251.9 271.4 297.8 320.3 343.7 366.9 387.7 407.1 425.2 443.8 457 467.6 476.1
102.8 118.3 129.2 141.3 155.8 172.6 184.4 200.2 211.2 222.2 230.6 231.8 239.5 246.9 258.7 271.8 268.1 261 257.8 258.5 263.6 270.9 281 277.2 256.2 233.6 218.5 205.7 199.8 197.8 190.9 191.5 195.6 198.6 202.9 212.5 221 230.4 236.5 239.3 244.3 249 250.4 250.2 250.5 249.4 247.1 245.4 242.6 239.3 223.9 214.9 205.5 192.5 180 174.5 170.6 163.6 157.9 157.5 161.3 163.3 165.3 167 170 174.4 179.6 183.8 188.3 190 194.4 202.5 205.1 208.3 215.6 227.9 239.4 246.9 250 246.8 260.3 274.8 282.9 306.7 327.6 326.8 309.5 290.6 275 250.5 230.3 211.1 177.7 143.5 118.6 95.5 73.6 57.4 43.2 30.2 18.5 7.8 -0.9 -0.9 -0.9 -0.9 -0.9 -0.9 -0.9 -0.9 -0.9 7.1 20.3 33.7 50 68.8 88.6 102.1 121.8 136.3 146.9 169.2 189.4 207.8 205.1 209.2 207.7 211.5 212.6 208 206.8 216.3 201 185.3 174.5 165.9 152.9 138.3 125.9 125.9 125.9 125.9 125.9 125.9 125.9 125.9 125.9 132.3 141.1 146.8 151 154 156.2 161.5 161.2 162 168.7 173.4 178.1 182.7 190.9 194.8 197.1 200.7 197.5 190.9 186.8 179.4 173.3 160.4 151 140.1 129.1 112.6 109.7 111.9 112.9 114 119 124 136.7 150.4 160.5 171.4 186.2 202 222.5 242.8 264 292.1 313 335.6 361.6 382.8 402.9 424.1 441.9 454.6 467.3 476.2
90.5 110.6 122.7 138.9 154.6 169.7 182.2 193.8 214.4 230.4 231.2 236.2 240.1 246.5 255.4 267.4 270 261.3 255.9 254.6 253.8 260.7 273.9 273.1 263.2 232.3 218.7 202.1 193 192.3 187.1 193.6 196.4 199.1 205.9 211.5 219.5 229.9 235.3 242.4 247.1 251 251.2 250.9 250.2 248.8 248.7 253.3 255.5 249.8 228.1 212.3 209.6 193.6 183.1 177.4 171.8 163.5 156.7 158.3 161.3 163.3 164 164.9 167.3 170.6 175.6 182.1 185.3 190.2 195 200.3 203.8 205.6 210 219.3 230.9 241.5 241.8 237.8 251.6 261.7 263.4 280.4 309.7 316.6 293.2 275.2 253.4 242.4 226.3 202.2 174.7 147.9 121.8 97 74.4 55.8 46.4 43.3 27.4 7.8 -0.9 -0.9 -0.9 -0.9 -0.9 -0.9 -0.9 -0.9 -0.9 4.4 19.7 33.2 47.6 66.8 83.3 97.6 116.7 130.8 145.4 156.6 182.2 195.1 191.2 201.1 196.1 196.9 196.8 194.6 199.5 205.4 188.4 170.9 164.5 156.9 144.7 131.4 125.9 125.9 125.9 125.9 125.9 125.9 125.9 128.9 136.4 143.6 152.6 158.2 161.9 164.6 167.8 169 171.5 170 179.4 183.7 186.9 192.4 196.8 201.3 206.8 210.3 206.3 203.4 199 196.8 182.7 170.3 161.3 150.9 143.2 126.8 109.4 108.9 110.7 111.8 114 120.7 130 139.1 150.5 161 176.5 197.9 215 233.4 256.9 282.8 303.9 326.1 352.3 377.1 400.4 421.8 438.9 454.3 465.4 472.1
75.8 92.5 106.6 123 143.5 158.1 175.8 188 202.3 220.2 227.6 239.7 243.5 245.7 249.3 259.9 264.9 258.3 254.5 253.5 248.7 249.4 257.5 264.2 252.7 234.3 219.2 202.5 190.3 180.3 194.7 195.8 197.3 201.5 208.3 214.6 221.8 227 233.7 243.7 248.4 251.6 253 252.5 251.6 249 249.8 260.8 257.6 252.1 225.9 214.4 205.5 193.3 185.6 179.3 170.2 162.3 156.1 159.2 161.1 162.6 162.3 163.6 164.4 169.8 175.9 184.7 188.8 192 195.8 198.7 202.3 204.8 206.9 212 219.4 232.6 234.8 229.9 240.2 243.8 251.3 265.2 292.5 295.7 272.8 259.4 244.5 232.1 213.5 187.9 169.3 140 118.2 95 76.3 57.9 52.7 52.9 35 5.7 -0.9 -0.9 -0.9 -0.9 -0.9 -0.9 -0.9 -0.9 -0.9 2.8 16.1 30.7 46.2 61.5 81.9 96 113.6 127.1 139.2 152.3 162.7 171.9 177.3 185.9 181.7 177.9 180.2 183.1 192.1 189.7 168.3 159 151.2 144.6 136 123.7 114.9 109.8 125.9 125.9 125.9 125.9 126.6 142.1 148.3 158.5 165.4 171.1 173.2 176.1 180.3 179.2 180.3 183.1 194.8 197.4 202.3 203.3 210.9 211.8 215.7 218.7 215.9 216.9 213.9 208.4 193.9 181.6 169.6 160.6 145.7 131.8 116.5 109.8 109 110.2 109 115.2 119.6 129.2 141.3 152.5 166.6 186 207.4 226.6 247.2 269.7 294.5 319 341.7 365.8 390.4 415.7 433.4 449.5 462.3 469.7
63.2 74 83.8 100.7 122.7 143.4 160.9 180.6 196.7 207.6 217.9 232.7 241 247.1 250 252.6 256.4 254.3 252.8 248.7 242.8 240.2 243.5 246.2 240.4 237.5 224.1 199.4 180.8 187.2 193.1 195.5 196.7 201.4 209.2 217.7 223.3 226.4 231.2 240.8 250.1 253.8 255.2 255 253.7 250.7 254.2 259.1 254.1 243.8 226.2 209.7 202 193.8 185.6 180.4 174.5 166.7 155.9 157.9 160.5 164.2 161.5 162.4 163.1 168.3 173.3 181.4 187.4 191 194.8 197.9 201.7 203.9 204.6 206.4 217.4 221.2 223.3 222.7 228.7 231.2 242.6 250.7 273.2 273.9 251 238.6 231.4 210.4 193.4 175.4 156.5 133.2 117.8 101.3 77 59.1 52.7 49 31.1 2.9 -0.9 -0.9 -0.9 -0.9 -0.9 -0.9 -0.9 -0.9 -0.9 1.4 13.8 25.3 39.6 58.2 74.6 93 108.3 120.3 135.6 146.1 151.8 155.9 169.4 175.1 167.7 166.8 165.3 174.7 171.4 165.6 151.9 143.3 138 132 125.5 117.5 111.7 103.8 109.2 111 119.1 125.9 131.7 144.7 161.4 173.1 182.3 186.6 186.5 188.5 192.1 190.9 191.8 193.2 202.5 208.7 218.5 217.6 220.4 225.6 229.5 234.3 234.5 231 227 218.2 207.1 196 183.3 168.6 145.5 131.9 117.2 108.1 107.4 108.8 108.6 109.5 113 119.6 131.1 141.7 157.2 173.7 194.8 215.1 237.1 257.4 284 305.7 330 353.5 379.2 407.1 426.7 438 448.3 460.4
55.3 61.8 73.6 88.4 101.8 116.8 145.6 165.5 185.3 195.2 209.8 226.5 237.5 246.6 250.3 249.5 249.9 251.5 252 247.7 241 230.5 230.1 230.1 233.3 229.1 219 191.9 177.5 187 190.8 193.1 193.5 198.9 208.4 216.3 222.2 227.3 233.5 239.7 248.1 252.4 258.3 258.8 257.7 254.7 258.8 254.3 246.9 237.9 225.6 210.9 203.2 200.7 194.9 187.9 178.7 169.3 160 157.6 167 168.7 161.5 158.3 160.9 164.7 171.7 179.9 182.6 185.7 190.7 197.2 199.8 201.2 202 203.9 215.2 222.1 216.2 216 218.9 225.3 229.7 234.1 240.9 241.4 225 216.5 206.2 192.2 178.8 165.1 152 135 117.5 104.3 80.2 51.6 47.2 44.8 29.7 -0.9 -0.9 -0.9 -0.9 -0.9 -0.9 -0.9 -0.9 -0.9 -0.9 1.4 8.1 22.5 34.2 56.5 68.7 89.3 100.2 112.9 125.8 138.5 142.9 146.1 150.9 157.9 155.9 150.9 148.1 155.1 148.8 144.6 135.1 130.9 126.1 121 115.6 111.5 105.7 108.1 111.8 116.5 122.8 131.5 142.5 151.5 169.2 189.7 199.3 196.7 196 198.5 202 208.6 202 204.3 214.6 223.1 227 230.2 232.7 237.4 242.6 247.4 246.2 243.5 236.1 227.4 220.7 210.1 195 174.5 155.6 143.4 122.3 112.5 108.6 107.8 108.1 108.9 108.6 113.1 121.6 132.2 147.6 166.3 182.6 202.8 225.2 245.5 266.3 287.2 309 331.6 367.6 397.8 419.8 430.6 438.3 448.9
43 48.8 57.5 77 89.1 105.3 125 142.5 153.1 177.2 193 212.7 224.7 235.7 243.4 249.9 249.1 249.5 248.7 247.2 241.3 233 221.8 211.3 220.6 215.2 199.3 183.4 177.2 187.7 198.9 196.2 189.5 195.3 204.6 211.6 219.2 226.7 233.6 239.1 246.6 253.5 259.9 261.6 261.3 261 257.9 253.4 245.2 236.3 225.1 213.1 205.7 204.5 200.9 192.7 180.7 169.3 160.8 155.6 170 174.1 162.4 158.3 159 161.4 167.1 178.6 178.7 181 185.3 194.8 196.6 200.8 200.1 202 207.8 214.1 208.6 206.9 211.3 219.6 224.5 225 225.7 219.7 209.9 204.6 192.6 183.4 173.3 161.1 149.7 134.3 113.2 98.5 74 48.3 39 36.2 18.6 -0.9 -0.9 -0.9 -0.9 -0.9 -0.9 -0.9 -0.9 -0.9 -0.9 1.6 9.5 20.7 35.4 54.1 66.9 86.1 96.8 109 116.8 129.2 132.1 138.6 138.6 139.9 142.1 136.9 133.1 137.9 135.7 128.4 126.7 121.6 115.7 114.4 107.6 103.8 107.9 112.3 115.7 121.8 132.7 142.6 151.1 168.5 183.4 201.8 209.6 205.9 204.9 210 215.4 220.5 215.7 219.1 228.2 237.2 238.6 241.7 247 250 253.5 259.7 260.8 252.4 247.5 242.5 233.6 222.3 210.3 192.9 169.5 151.5 136 117.2 108.1 107.3 107.1 107.5 107.6 108.7 112.7 122.5 137.1 156 171.6 190.5 210 229.6 254.2 275.8 299.8 323.4 356.9 383.3 408.9 422.8 429.7 438.6
37 38.8 47 60.7 81.4 96.8 111.5 126.1 147.8 167.1 182.5 192.5 210.4 230.5 242.2 250.8 251 249 245.5 243.3 239.3 234.3 224.6 208.6 196.3 202.9 186.7 179.4 174.7 185.9 200.3 189.3 186.6 190.8 199.8 210.2 217.3 224.8 231.7 239.7 247.3 255.3 260.8 262.4 262.8 261.7 259.1 253.7 246.9 239.8 230 218.3 206.6 204.3 201.4 192.3 181.7 170 161.5 158.7 155.8 161.4 157 157.1 157.8 158.8 164.4 170.6 173.4 177 182 189 193.9 195.2 196.5 198.7 204.5 214.2 200.1 198.3 206.5 217.7 221.2 220 218.1 201.7 197.2 191.1 183.7 175.2 169.4 156.7 151.2 142 123.4 95.9 73.5 46.7 32.2 26.8 12.6 -0.9 -0.9 -0.9 -0.9 -0.9 -0.9 -0.9 -0.9 -0.9 -0.9 1.6 8 18.4 35.2 47.9 62.5 81.7 92 101.6 103.4 109.5 119 129.5 125.6 124.9 123.7 122 123.2 121.4 118.7 116.7 117.2 111.9 107.3 102.9 102.9 106.2 110.5 115.7 121.8 127.4 136.6 148.2 163 185.2 194.9 204.8 210.5 212.2 217.6 225.4 229.8 234.9 234.8 234.1 238.4 248.5 253 256.9 261.7 263.3 270.4 268.6 268.6 265.8 270.5 260.9 250.3 242.6 223.1 210.1 192 165.9 150.8 127.9 109.9 107.6 107.2 106.5 107 107.8 109 113.4 127.4 144.7 160 178.1 192.7 215 237.7 258.4 285 314.1 343.7 369.5 393.5 415.1 416.9 420.9
32.7 29.8 35.9 50.9 73.2 88.3 106.6 124.8 140.7 157.3 176.4 189 200.1 218.7 235.9 251 254.4 258.6 241.9 240.5 237.1 232.5 219.1 205.2 191.2 185.3 180.2 172.1 174.3 179.7 186.7 181.4 180.3 189.8 198.1 208.4 216.7 224.4 230.7 241.5 248.5 257.1 262.2 264.7 264.9 263.8 262.4 259.9 250.7 241.2 231.9 221.9 209.6 204.5 199.6 192.3 177.6 170.4 163.9 155.9 151.4 156.6 154.1 161.1 158.2 157 159.6 163.8 169.8 172.8 177.6 183.9 187.8 189.5 190 192.1 195.1 201.3 194.2 195.2 200.7 209.7 217.2 211.7 199.8 193 191.1 187.4 178.8 171.8 164.6 159.3 154.9 145.2 129.7 93.4 68.6 42.7 24.5 15.3 -0.9 -0.9 -0.9 -0.9 -0.9 -0.9 -0.9 -0.9 -0.9 -0.4 -0.9 -0.9 9.5 14.6 36.2 50.6 59 69.6 84.9 91.5 92.4 93.8 106.3 115.6 116.3 114.5 108.7 113.1 113.1 109.4 107.5 107.6 108.4 105.6 100.2 104.6 108.4 109.6 116.2 119.7 124.2 132.4 139.7 157.9 176 192.7 201.4 205.7 212 217.2 229.5 241.1 245.3 249 250.9 247.6 250.4 261.8 269.1 272.7 278.1 280.1 280.4 281.7 280.6 281.4 281.7 278.8 270.7 260 245.2 221 198.5 186.4 170.7 142.7 119.9 108.1 107.1 106.3 106.4 107.4 106.4 108.3 116.9 133.7 149.9 162.5 178.8 198.8 217.4 244.8 272.9 297.2 324.6 351.5 375.5 390.3 404 403.6
13.7 19.7 26.4 37.4 59.1 77.2 94.4 121.7 137.7 154.5 169.7 184 196.4 209.6 219.5 242.8 253.4 262.7 235.6 229.9 233.4 229.4 215.8 195.9 186 182.2 177 170 171.1 173.6 176.1 170.7 177.9 184.4 197.5 207.2 214.6 221.1 230.5 238.5 250.4 260.7 267.1 267.1 267.3 266.4 264.5 260.4 251.2 244.5 236.4 222 213.8 206.6 200.7 191.1 180.4 171 162.5 153.1 140.2 152.1 152.5 157.6 153.1 155.5 156.1 159.2 164.1 168.4 174.5 179.7 183 186.7 185.7 186.4 187.3 191.3 189.1 193.8 196.4 201.4 206 195.9 189.7 187.4 187.5 183.6 179 171 167.4 163.9 159.1 146.8 129 93.3 67.6 38.1 18.9 8.4 -0.9 -0.9 -0.9 -0.9 -0.9 -0.9 -0.9 -0.9 0 0.7 0.3 -0.9 6.1 15 31.2 48.5 53.3 60.1 70.7 75.6 75.5 83 91.8 99.2 104.8 101 102.4 101.3 99.6 98.2 96.6 96.1 96.5 97 103 108.1 111.4 114.9 122.6 128.4 136.2 139.5 152.6 163.3 181.8 197.2 201.4 209.5 219.8 229.5 241.3 253.5 260.1 263.1 266.5 263.9 271.3 274.7 281.8 287.6 290.7 292 293.7 293.8 295 295.8 293.5 290 281.9 274.4 259.2 241.5 227.1 206.8 186.5 155.9 137 113.9 108.2 106.3 105.7 105.6 106 105.9 108.7 123.4 136.1 148.8 163.3 183.6 204.4 230 257.4 280.3 301.2 323.9 350 368.6 382 383.9
8.5 13.9 18.7 30.8 50.1 68.9 86.9 112.4 134.9 154.9 166.9 177 191.1 201.3 214.3 224.2 234 248.5 230.3 211.4 220.5 219.3 213.8 189.2 183.2 178.6 174.1 167.8 170.7 167.7 165.4 163.5 172.2 180.6 196.5 207.2 212.2 218.2 230.3 239.3 251.4 264.4 270.9 271 270.3 269.4 264.6 259.6 250.1 244.2 239.3 226.8 220.1 208.4 194.8 183.9 178.1 173.5 160.3 150.4 133 143.6 148.8 150.1 148 151.2 152.7 155.5 160.1 164.1 170.9 177.1 177.4 181.2 183.2 184 181.4 181.1 186.5 189.7 187.8 191.5 189.7 185.6 183.1 179.9 180.1 180.1 176.6 172.8 168.7 163.1 157.5 145.1 123.9 91 59.4 34.6 13.8 -0.9 -0.9 -0.9 -0.9 -0.9 -0.9 -0.9 -0.9 -0.9 1.6 1.6 1.6 -0.9 -0.9 13.4 26.2 42.1 46.1 52.1 59.5 61.1 66.1 73 83.5 88.4 90.5 88.9 90.9 89.8 90.8 87.4 76.3 82.4 89.2 104.3 108 113.6 115.3 120.3 129 138 146.2 154.7 151.2 172.7 184.1 197.3 211.1 222.4 227.8 240.2 256.8 268.2 272.3 275.4 281.9 279.7 286.3 289.5 300.7 303.8 305.9 307.5 308.3 309.3 309.5 313.3 307 301.5 290.9 281.6 272.5 262.6 247.8 227.3 189 172.8 146.9 135.5 124.4 112 105.8 105.3 105.1 105.4 106 108.6 122 132.6 148.8 170.8 191.4 214.6 235.7 257.1 278.5 300.2 323.6 342.3 360.7 364.9
7.5 12.9 15.2 24.8 41.7 63.2 84.9 106.3 128 149.2 163.3 172.1 183.7 194.9 210 218.2 223.6 226.3 218.5 201.5 197.7 207.4 201.1 182.2 180.9 176.6 173.9 161.1 167.8 160.4 158.4 159.4 166.5 175.6 189.5 201.5 209.2 215.6 226.9 238.1 251.3 257.4 270.2 270.9 270.8 270.7 272.4 260.4 251.6 244.1 236.3 230 229.5 209.3 194.4 178.6 175 174 157.8 143.7 120.2 131.1 147.1 141.1 144.4 148.1 151 151.3 158.9 160.7 165 175.3 171.5 171.3 176.9 177.4 178.1 180.3 175.9 178.2 177.6 179.6 179.1 175.1 175.9 174.8 176 178 177.2 174.4 166.7 159.2 150.6 138.9 117.3 87.6 57 33.3 8.8 -0.9 -0.9 -0.9 -0.9 -0.9 -0.9 -0.9 -0.9 1.8 4.3 5.2 2.6 -0.9 -0.9 12.1 21.2 34.3 36.9 43.4 47.2 52.4 62.4 66.4 72.9 76 77.8 76.1 78.8 78.7 72.6 69.6 84.8 97.7 105.3 112.8 115 119.4 123.4 129.7 140.6 149.2 158.8 170.6 176.8 168.5 187.6 209.9 220.2 229.8 243.3 253.6 267.4 273.9 284.9 289.9 294.3 295.8 298.3 309.3 312.4 318.6 323.8 327.8 325.7 326.8 326.3 328.5 324.2 320.2 306.1 300.4 290.1 280.4 262.9 228.9 210.9 185.8 158.5 140.7 139.8 129.4 110.8 105.3 104.8 104.3 105.2 105.9 114 126.5 136.2 154.6 175.9 196 216.4 237.6 257.8 279 297.8 314.3 334.4 340.5
8.4 7.9 12.7 21.5 38 61.1 83.8 107 124.5 141.6 159 172.1 180.7 188.4 201 214.1 220.6 208.9 195 191.4 179.3 185.2 180.9 174.6 173.6 170.2 171.7 148.8 160.9 156.4 152.8 154 159.3 169 179.6 191.5 198.2 210.4 223.3 238.6 253.9 256.3 260.7 265.1 269.5 273.3 276 263 258.9 250.2 238.8 229.1 226.5 214.5 194.2 179.1 173.6 167.6 150.9 134.6 116.3 121.8 133.5 129.3 137.7 144.4 149 148.4 152.3 156.1 159.4 165.2 165.7 164.8 167.6 170.6 175.6 173.1 168 168.9 167.6 169.3 168.2 168.3 169.8 172.4 175.7 179.6 176.6 175.7 165.2 154.2 147.2 128 105.5 82.9 58.6 32.4 5.6 -0.9 -0.9 -0.9 -0.9 -0.9 -0.9 -0.9 -0.9 -0.9 4.3 4.6 2.9 2.6 6.6 9.8 10.1 15 27.3 30.8 40.1 44.6 53.2 55.5 62 62.9 64 64.2 65.1 66.1 64.2 85.8 100.9 108 112.2 118.7 124.7 128.4 132.8 141.4 154.7 165.4 172.5 187 189.7 192.8 180.1 213.2 227.1 238.9 258.9 269.2 272.6 288.8 298.6 305.4 306 310.3 311.1 320.7 325.9 339.6 339.7 340.9 346.7 345.8 341.5 343 337.1 332.9 326 318.8 306.7 294 272.4 249.1 224.6 200.6 176 155.7 148.3 139 119.2 106.2 105.1 104.8 104.8 105.1 106 115 128.4 138.3 160.6 176.5 197 218.6 238.9 257.7 272.6 288.4 307.9 310
8.4 9.1 11.4 19.2 34.2 57.3 81.1 108.3 123 141.5 156.7 171.6 180.6 183.5 189.8 202 212 197.4 183.5 171.2 166.5 168.9 169.9 171.1 170.4 160.1 159.6 149.4 153 150.3 147.6 150.3 154.6 162.4 171.5 180.6 190.3 202.2 216.2 229.8 250.7 252.3 256 261.6 267 270.3 269.5 260.6 258.1 247.8 242 228.5 217.7 207.4 195.1 183 169.6 161.6 145.1 128.4 113.3 108.2 121.1 125.5 134 142.1 146.4 146.8 145.5 148.9 154.7 158.5 157.9 157.7 160.2 167.3 167.5 162.8 158.6 158.8 157.1 160 161.7 164.2 167.2 170.3 174.5 175.2 173 169.1 159.4 148.5 139.8 124.7 106.2 84 62.1 30.6 4.6 -0.9 -0.9 -0.9 -0.9 -0.9 -0.9 -0.9 -0.9 -0.9 2.3 6.8 5.5 5 5.9 6.4 7.8 10.6 11.9 18.4 35.6 24.4 27.5 37.9 43.7 48.5 47.3 48 49.3 60.7 81 96.7 109 113.4 119.6 127.6 134.1 139.3 144.8 157.4 169 181.1 194.1 200.3 202.5 214.1 214.6 219 238.7 259 271.6 278.6 290.9 294.7 307.5 313.1 316 319.8 326.3 334.9 339.8 350 352.8 367.1 361.3 364.8 357.9 357.5 352.1 354.7 351.6 336.8 328.1 316.7 305.6 283.5 249.4 222.8 193.6 167.9 155.9 143.4 124 110.8 105.9 105.6 105.1 105.3 103.9 108.3 118.8 129 143.3 159.7 178.4 199.4 218.3 236.8 253.1 264.1 275.2 284.9
7.5 10.4 13.2 21 31.5 57.6 74.5 98.7 121.2 137.2 150.2 162.5 174.5 177 179.8 182.5 183 181.9 169 152.6 156 159.6 167.1 171.2 167.5 156.4 141.7 140.8 143.8 140.2 139.6 142.5 145.9 155.5 168.2 177 185.3 195.2 213 224.9 236 246.5 252.6 258.9 263.3 266.5 264.4 260.1 254.3 239.9 248.4 230 221 221.7 208 184.9 167.1 152.3 136 122.1 108.1 100.4 111.5 121.1 129.4 138 144.2 142.4 140 142.7 147.7 152 149.6 150.6 152.5 161.2 160.3 158.6 152.3 149.8 152.5 156.1 158.7 163.3 169.2 171.8 175.3 178.3 172.3 164.3 155.3 147.4 134 122.3 103.6 81.6 59.3 29.2 3.8 -0.9 -0.9 -0.9 -0.9 -0.9 -0.9 -0.9 -0.9 -0.9 -0.9 6.2 7.8 10.3 8.4 7 11.3 13.9 15.4 17.9 19.5 26.2 40.3 33 39.1 45.1 48.3 64.7 72.9 68.9 92 105.2 112.7 121.7 129.4 138.9 144.5 150.1 159 172 184.1 198.3 206.9 211.5 217.2 228.6 235.4 238.4 244.3 264.5 278.2 297.9 309.4 309.6 313.5 318.8 321.8 328.3 338.3 345.6 353.5 360 366.9 378.8 379.6 386.5 378.6 373.8 372.4 374.6 370 359 354.8 344.1 324.9 300.8 264.4 235.3 207.5 175.8 165 146.6 130 119 110.2 105.2 104.6 104.6 104.4 104.9 108.4 118.2 129.4 146.1 162.3 181.3 196 211.6 227 240.2 251.5 263.4
8.5 19.5 19.6 24 33.5 42.5 59 88.2 113.2 132.2 143.7 153.1 164.4 167 161.9 151.8 158.5 166.4 152.2 141.9 139.8 151.9 160.6 165.2 162 153.4 138.9 140.9 140.3 132.2 137.1 132.8 136.4 151 160 170 180.5 189.3 209.2 221.6 226.7 232.7 245.5 252.9 256.6 258.9 249.7 250.3 248.4 231.8 242.6 218.2 230.8 230.6 214.6 197.6 169.2 149.2 131.3 118.3 106.1 99.5 112.5 116.7 122.6 131.3 134.4 137.7 134.2 135.5 141.9 143.8 142 144.8 147.8 154.6 151.8 150.4 148.3 145.4 151.7 155.8 158.2 162.8 168.6 177.4 181.1 178 174.9 168 159.3 154.7 137.5 114.7 94.4 74.5 54 27 5.6 -0.9 -0.9 -0.9 -0.9 -0.9 -0.9 -0.9 -0.9 -0.9 -0.9 -0.9 6.1 8.7 11.2 12.8 14.1 16.3 18.4 20.4 22.8 36.7 51.3 54.3 59.6 64.3 73.4 83.6 89.9 93.9 88.9 107.7 123.2 130 139.7 150.3 156.1 161.6 173.3 189.5 200.1 208.9 220.5 228 232.8 247 259.5 261.4 259.4 254.1 284.3 296.3 309 309.2 316 322.6 328.6 336.5 344.7 355.4 368.2 372.9 384.2 394.7 393.4 392.4 393.7 398.4 398.6 393.9 390.4 390.7 380.9 367.1 355 329.7 300.7 269.5 222.1 187.9 171.8 159.9 140.1 126.7 114.6 106.1 104.2 104.1 104.1 104.1 104.9 107.5 119.1 134.5 151.6 165.7 181.2 196.3 208.3 218.5 230.3 245.5
11.6 21.1 24.2 26.4 33.1 39.7 52.6 68.6 108.5 123.6 130.5 143.9 150.1 143.1 131.1 127.4 136 148.9 137.3 119.2 128.1 144.6 149.9 153.1 148.3 141.1 133.2 133.9 130.2 130.6 131.6 127.7 130.7 141.7 152.1 162.3 173.1 186.3 201.7 214.6 225.6 230.7 234.1 238.4 243.9 248.3 234.8 227 229.2 229 216.9 217.1 230.4 232 220.9 198.9 176.5 144.5 129.5 116.1 103.5 99 108.5 112.8 116.9 123.4 127.3 127.8 127.8 130.3 134.6 137.8 136.6 139.1 142.1 145.9 146.6 145.8 143.9 148.4 150.6 154 158.4 160.7 169 175.2 180 175.8 175.4 162.9 159.1 151.3 131.5 113 89.7 74 51.2 29 6.1 -0.9 -0.9 -0.9 -0.9 -0.9 -0.9 -0.9 -0.9 -0.9 -0.9 -0.9 2.7 8.2 10.8 12.6 14.4 16.1 17.4 22.8 29.8 43.1 53.7 67.1 72.5 76.1 86.4 93.1 102 105.5 106 116.7 130.7 139.6 148.1 163.6 163.5 170.6 192.5 202.1 209.8 224.5 241.7 248.9 251.8 270.8 272.1 275.9 282.8 277.5 280.8 298.6 304.3 309.9 317.3 325 332.6 340.4 352 361.9 380.4 388.2 393.5 399.9 400.6 410.7 414.7 417.9 418.5 419.6 418.6 411.4 401.1 384.4 365.7 337.5 310.5 270.9 237.1 205 188.7 177.9 149.8 134.4 122 110.8 107.3 104.8 104.4 104.1 104 104 108.7 121.3 135.9 151.7 166.2 178.4 191.2 200.7 209.3 223.2
9.6 18.2 24.4 30.6 31.5 36.3 47.8 57.6 83.3 98.1 114.6 131.6 137.9 120.1 117.1 109.2 108.8 111.8 106.8 97.2 117.1 133.6 139.4 143.4 136.6 129 126.7 121.7 120.8 126.4 127.9 114 122.3 130.9 145.9 157.5 169.6 182.8 197 207.5 226.5 231.8 230.4 225.3 224.3 220.4 213.5 212.7 207.3 208.1 204.8 211.4 218.5 217.2 216.6 193.2 170.8 143.7 127.8 113.8 100.6 97.8 102.3 109.5 112 117 121.7 121.1 121.2 124.1 128.3 131 129.3 133 136.9 139.9 140.8 141.7 145.2 147.6 150.5 153.9 158.9 160 165.8 173.3 175.5 173.1 169.7 159.3 156.2 145.6 128.6 111.2 88.7 70.1 49.7 28.7 9 -0.9 -0.9 -0.9 -0.9 -0.9 -0.9 -0.9 -0.9 -0.9 -0.9 -0.9 1.6 6.9 10 12.4 14.2 16.2 17.6 26.6 36.8 45.4 56.8 68.8 78.6 87.4 96.8 106.7 115.1 117.7 118.8 124 137.1 151.6 157.1 164.3 167.9 189.4 201.7 213.3 230.2 247.8 259.5 273.5 277.3 286.5 288.9 292.1 296.9 294.8 284.9 292.4 302.1 308.4 317.8 330.5 337.3 346.5 352.4 367.4 381.8 393 405.1 410.1 419.9 430.9 431.3 440.6 444.6 443.8 441 432.4 417.5 402.3 368.5 344.9 303.6 269.9 241.4 216.6 202 191.8 171.7 144.8 130 118.7 108.1 105 104.7 104.1 103.6 103.1 103.7 108.9 122.4 137 148.8 160.9 172.6 185.7 195.3 202.3
8.5 16.9 28.5 40.9 35.9 33.5 40.9 54.9 62.5 76.5 94 107.4 104.4 95 103.4 97.1 86.1 81 84 90.7 107 120.9 126.8 131.3 125.8 120.1 121.9 118.5 113.9 121.7 122.1 103 109.9 129.5 141.6 151.1 165.4 180.8 189.3 198 218.8 229.5 229.5 211.8 209 209 200.5 199.5 195.9 190 201.5 210 211.2 206.8 204.5 194 173.4 147.1 121 108.9 97.4 90.1 99.2 106.7 109.9 112.2 115.6 116.9 117.6 119.2 121.7 122.1 125 130.2 133.5 135.7 136.2 141.2 145.6 148.3 151.1 153.8 158.2 157.7 162.2 172.4 173.1 169.1 166.6 156.9 153.4 141.3 127 113.1 85.4 69.4 51.1 31.8 12.9 -0.9 -0.9 -0.9 -0.9 -0.9 -0.9 -0.9 -0.9 -0.9 -0.9 -0.9 -0.9 -0.9 7.8 10.5 13.6 16.8 19.5 25.6 37.2 47.7 57.9 71.5 81.9 92.7 109.4 123.1 135 134.7 132.6 130.3 145.6 156.8 161.3 171.4 179 199.5 214.1 243 255.7 273.1 289.6 294.7 290.9 302.2 306.1 310.4 309.6 308.1 305.4 298.7 299.3 311.4 319.6 332.8 340.9 352 361.7 368.8 384.3 398.3 415.8 427.9 436.9 445.6 461.2 464.5 465.9 466 461.2 452.1 435.4 405.8 383 347.8 315.3 280 251.7 228.6 218.1 201 176.2 163.5 150.9 133.1 113.5 106.6 103.9 103.3 103.5 104.3 102.7 103.4 110.4 125.2 137.8 143 156.4 169.1 179.4 185.7
8.1 15.9 33.8 44.8 45.7 35.7 34.6 46.6 54.1 48.9 57.7 70.1 64 77.9 82.8 80.2 71.9 62.4 59.8 80.8 98.6 110.9 114.6 118.1 116.4 114.7 117.7 110.7 103.9 108.2 107.7 95 109.4 125.1 133.9 147.5 165.2 178 187.5 193.7 201.2 215.6 221.1 198.8 195.5 191.2 184 186.1 183.3 184.9 200.7 201.9 203.5 192 198.6 192.8 175.8 150.6 122.8 101.3 91.4 89.8 96.8 104.5 106 108.2 111.7 112.9 113.6 113.5 115.4 114.8 120.7 125.3 129.7 131.5 131.8 139.1 144.5 148.7 151.1 153.5 156 155.9 158.4 165.4 169.2 165.3 160.1 155.3 149.1 134.2 122 103.9 85.5 61.3 47.6 31.5 15.8 2.7 -0.9 -0.9 -0.9 -0.9 -0.9 -0.9 -0.9 -0.9 -0.9 -0.9 -0.9 -0.9 -0.9 6.4 10.6 15 20.9 26.3 36.4 48.1 61.5 74.6 84 106.3 119.8 145.5 144.7 146.5 146.7 151.3 149.9 162.6 166.7 177.9 189.4 209.6 237.5 267.7 277.5 295.5 299.2 312.1 313.7 319.5 326.5 330.1 320 319 316.6 315 315.9 310.2 322.5 333 343.2 356.2 370 375.5 388.1 404 429 441.4 454.8 470 482.4 488.4 487.6 485.9 475.8 462.2 436.1 415.1 390.3 359.6 328.2 290.1 270.6 247.1 229.5 211.5 197.4 182.4 167.7 143.6 126.7 111.8 106.1 104.9 106.5 106.5 103.7 102.7 103.3 111.5 120 127.9 141 153.9 162.1 171.5
7.8 11 38.2 47.7 55.5 41 33.9 34.3 35.1 35.8 36 38 39.3 60.9 63.6 57.1 52.7 50.9 53.2 72.7 90.8 95.1 98.6 103.1 105.1 108.9 104.9 95.4 90.8 93.7 95.1 89.5 103.4 113.1 121.1 140 159.5 174.5 185.3 192.7 195.4 198.3 198.1 185.4 181.5 177.3 171.9 175.6 164.2 183 191.1 181.1 178.4 174.9 176.3 176.7 164.4 136.8 114.4 96.9 88.2 90.2 94.8 101.3 101.1 104 108.7 110.1 109.9 110.1 110.7 113.5 118.7 121.4 125.8 127.3 131.4 138.3 143.7 146.6 148.6 151.4 154.2 154.4 156 159.9 165.2 164.3 153.7 150.1 142.5 132.2 117.8 97.1 92 65.5 45.5 30.6 15.3 6.2 -0.9 -0.9 -0.9 -0.9 -0.9 -0.9 -0.9 -0.9 -0.9 -0.9 -0.9 -0.9 -0.9 -0.9 4.7 9.4 17 25.4 36.8 51.7 64.5 75.4 93.5 116 129.7 145.7 150.2 156.8 159 161 164.5 170 179 190.3 203.3 246.8 265 283.4 295.2 308.7 315.6 318.7 324.9 336.4 336.9 332.5 329.6 330.4 332 330.8 326.3 319.4 328.4 337.9 350.1 358.8 370.5 380.2 393.1 414.5 435.3 455.4 472.8 486.2 500.7 507.4 510 510.6 497.4 471.3 444.9 418.5 394.3 365.1 339.6 312 289.7 262.2 242.6 235.1 216.2 194.5 177.9 155.3 137.7 118.9 109.2 107.5 108.3 107.7 104 102.9 102.7 103 110 118.2 128.3 140.9 150 158.7
5.1 9 29.3 49.2 59.6 55.9 36.4 32.7 29.5 27.1 29.3 32.9 35.8 36.1 37.6 41.1 40.2 38.5 45.7 58.3 84.2 83.1 82 88.1 91.4 102.7 93.4 85.5 78.5 79.6 80.3 80.5 99.3 105.4 112.5 123.5 151.6 167.1 179.1 189.4 190.7 188 187.3 177.6 169.8 165.4 157.9 155.5 149.2 164.1 167.1 164.2 151.6 155.6 147.2 156.8 138.3 121.9 106 93.9 88.4 88.8 90.7 94.1 96.8 100 104.4 106.2 107.1 106.5 108.9 111.4 116.5 116.7 118.8 125.1 130.9 141.5 143.4 144.8 146.6 148.3 151.1 153.4 154.8 157 158.3 158.7 148.4 144.4 138 127.4 115.7 105.8 88.6 74.7 46.9 31.1 17.3 5.9 -0.9 -0.9 -0.9 -0.9 -0.9 -0.9 -0.9 -0.9 -0.9 -0.9 -0.9 -0.9 -0.9 -0.9 -0.9 5.2 10.8 22.9 38.6 53.2 66.8 77.4 101.5 121.7 133.3 149.7 155.9 164.7 172.2 173.9 182 182.6 190.8 203.6 216.5 269.1 278.4 295.7 314.2 327.9 323.1 335.1 333.5 344 342.3 349.4 341.1 343.3 348.6 339.6 335.8 328.3 334.6 343.7 353.3 363.3 374.6 386.3 401.1 419.3 452.9 467.3 480.5 499.6 515 526.5 534.6 533.7 516.8 491.2 464.1 433.9 403.4 379.6 348.8 328.1 298.1 273.8 256.8 253.8 233.8 212.8 185 167.6 149.4 133.5 119.7 112.6 109.4 110.4 105.7 103.3 102.4 102.5 105.1 109.8 118.1 126.9 139.2 146.9
6.5 5.9 16.4 40.9 54.1 54.2 40.2 24.3 20.3 17 20.1 25.2 30.4 32.6 34.6 33 33.7 34.6 39.1 48.7 62.3 70.8 67.4 67.6 75.4 93 81.5 77.8 70.5 59.2 65.4 71.4 89.9 100.1 108 117.1 135.3 155.8 161.5 179.3 184 180.3 177.8 168.1 160 152.9 142.9 139 134.5 143.3 145.7 142 130.6 128.7 125.1 122.5 117.5 112.7 98.2 89.6 86.3 87.1 88.4 90.7 91.7 95.6 101.1 102.9 104.1 105.2 109.8 108.6 109.4 113.5 121.6 126.2 133.7 139.9 142.6 144.8 146.7 147.7 152.9 156 152.3 153.5 155.3 153 146 139.2 131 126.1 113 103.7 89.4 75.4 53.3 32.6 18.3 5.8 1.4 -0.9 -0.9 -0.9 -0.9 -0.9 -0.9 -0.9 -0.9 -0.9 -0.9 -0.9 -0.9 -0.9 -0.9 1.7 10 22.3 37.1 55.5 66.9 92 110.8 123.4 138.6 156 163.7 174 183.6 190.2 194.8 200.1 201.5 211.4 229.8 276.3 286.9 296.8 317.9 339 333.4 334.2 337.3 357.8 357.2 358.8 354.8 355.7 359.4 352.5 350.1 341.3 343.5 351.9 358.5 367.9 378.3 389 402.8 431.4 454.3 471.2 497.7 507.4 525.6 540.7 550.8 548.8 535.2 507.9 473 448.1 422.5 388.7 358 337 310.4 291.8 272.5 261.1 254.6 230.9 202.6 177.2 163.6 145.4 142.1 131.2 122.5 116.6 109.7 104 102.7 102.1 102.7 104.5 106.9 115 125 134.6
7.2 6.8 7.5 22.4 34 38.4 31.9 15.1 11.8 9.2 9.7 16.2 22.7 24.3 25 24 23.8 27.7 33.6 40.6 49.7 53.5 52.7 52.9 56.2 66.8 63.6 67 58.3 46.6 50.4 65 79.7 92.3 102.3 111.1 123.9 139.6 154.5 164.4 174.2 170.3 167.8 150.9 147.4 141.7 132.8 129.1 126.4 119.9 118.6 113.6 109.1 106.2 103.7 102.4 103.7 99.7 91.4 84.9 82.6 84.2 86.5 87.7 89.3 91.8 96.6 100.4 100 103.3 110.2 106.6 111.1 116.2 122.3 127.8 134.5 139.6 141.8 144.7 145.9 147.5 150.9 153.8 150.6 150.1 150.2 148 140.8 134.1 134 118.4 108.8 99.2 84.5 70 52.1 36.4 24.3 9.6 2.6 -0.9 -0.9 -0.9 -0.9 -0.9 -0.9 -0.9 -0.9 -0.9 -0.9 -0.9 -0.9 -0.9 -0.9 1.4 10.3 20.6 36.1 56.4 73.4 99.2 117.3 132.8 141.6 159.2 174 183.8 194 200.6 206 204 205.1 218.4 241.1 288 291.3 305.9 320.1 331.1 332.5 337.5 348.3 363.8 362.3 372 370.2 371.4 375.5 366.5 355.5 351.1 350.7 360.1 365.1 372.7 383.5 394.7 410 432.6 451.7 475.3 499.5 516 538.8 550.7 554.5 554.2 543.4 515.7 485.5 457.7 430.8 402.5 373.2 348.6 325.9 305.2 285.4 270.1 258.4 238.2 216.4 195.3 181.6 168.8 158.1 146.8 129.6 133.1 117.1 106.5 103.5 102.4 102.2 102.4 101.9 106.7 111.6 119.1
