ncols 200
nrows 84
xllcorner 360000
yllcorner 154800
cellsize 50
156.4 156.9 156.6 156.3 156.2 156.1 156 156.2 157.2 158.2 159 159.1 159.7 160.6 160.6 159.8 158.9 158.1 157.7 157.4 157.4 158 157.7 157.5 157 156.1 154.9 153.8 152.8 151.1 150 149.1 147.1 145.3 143.4 141 138.4 138.5 141 134.5 128.7 124.9 123 122.1 119.9 116.6 113.8 112 110.3 110.8 110.2 108.4 115.5 104.7 104.2 103.8 103.1 104.7 106.4 109.9 111.8 110.7 109.5 109.3 111.4 113.6 115 115.3 115.3 115.3 114.8 115.3 114.4 112.8 116 120.6 124.6 129.3 135 143.3 153.2 152.2 155.8 158.2 159.1 157.2 154.7 149.1 147.1 144.6 136.9 127.8 121.7 124 131.7 139.4 150 155.8 159.9 160.4 158.2 153.2 146.2 139.1 138.7 144.7 149.2 149.4 145.7 139.7 137.4 145.4 154 157.5 158.6 158.8 159.5 160.1 160.6 161.5 163 164.4 165.4 165.5 166.2 165.3 163.4 160.6 158.3 156.9 154.2 151.4 150 147.7 148 148.2 147.6 147 146.5 146.3 146.1 145.9 145.5 145.2 144.9 144.6 144.4 144.2 144 143.5 143 142.5 142 141.7 140.9 140.1 140.2 140.1 141.6 142.6 142.7 141.8 141.4 142.1 143.3 145.7 149.3 151.6 151.1 149.9 149.2 149.2 149.3 149.2 148.8 148.2 148.3 148.2 148.1 148.4 148.3 146.6 144.6 143 140.7 138.4 134.7 130.2 126.3 121 116.1 111.2 106.4 106.3 104.2 96.9 88.5 83.6 80.5 76
159 159 158.7 158.4 158.3 158.2 158.2 158.1 158.8 160 160.3 160.4 160.9 160.8 160.6 159.9 159.1 158.4 157.2 156.4 156.6 157.6 157.4 157 156 155.2 154.8 153.5 152.1 150.6 149.8 149 148.3 146.5 144.3 142 137.8 136.7 138.8 130.5 125.7 121.5 118.6 119.2 118.6 117.7 114.6 112.2 109.6 107 107 106.8 111.9 106.8 106.6 105.8 103.3 102.7 105 108.8 111.5 110.6 108.4 109.1 111 113.3 113.7 113.8 112.9 112.2 111.5 111.2 111.7 112.8 117 120.4 124.1 127.5 135.8 138.5 148.5 152.2 154 155.1 155.2 154.3 152.9 150.8 149.9 145.5 136.8 128.7 121.7 119.1 125.8 134.6 142.2 147.3 151.6 152.4 150.3 145.4 140 134.7 133.2 137.9 141.8 140.3 136.9 132.4 136.6 147.5 156 159.6 159.5 158.8 158.4 157.1 157.1 157.7 158.8 159.9 161.2 161.3 160.8 159.5 157.3 155.3 154.3 152.9 151.2 150.6 150.1 149.7 150.3 151.8 148.6 147.6 147.3 147.1 146.9 146.6 146.3 145.9 145.5 145.2 144.9 144.8 144.5 144.2 143.7 143.2 142.8 142.5 141.7 141.3 141.3 141.3 142.1 143.3 142.1 140.9 139.7 138.4 138.4 139.1 141.1 142.6 143.9 142.4 141 141 142.1 142.3 141.9 141.9 141.5 141.8 142 141 140.1 138.4 136.8 135.7 132.9 131.1 128.4 124.6 120.7 116.5 113.1 107.4 102.9 99.2 99 94.6 85.4 80.8 77.1 75.1
160.6 160.6 160.7 160.5 160.4 160.4 160.3 160.1 160 160.7 160.9 160.9 160.8 160.7 160.5 160.1 159.3 158.7 157.7 156.2 155.5 156.4 156.7 156.4 154.5 151.9 150.4 148 146.4 144.8 144.7 145.8 147.3 146 143.6 139.8 134.7 134.1 132.1 127.5 122.6 119.1 116.4 115.2 115.5 114.8 115.7 114 109.9 108 108.7 108.6 109 108.6 107.8 107.3 105.2 102.7 102.5 106.3 107.2 106.3 110.8 110.8 110.9 112.4 113 112.5 111.7 110.8 109.7 109.1 111.4 113.1 117.2 120.2 123.7 127.9 135.9 136.5 142.7 150.5 155.1 155.3 155 154.4 154.3 152.8 149.2 143.6 137.9 129.8 122.5 117.2 118.6 126.2 133.3 138.6 142.3 143.6 143.2 140.5 135.6 129 128.5 132 134.9 133 129.3 128.2 136 146.7 157.3 160.8 159.6 158.8 156.3 152.8 155.1 155.9 157.5 157.9 157.9 157.8 157 155.9 155 154.4 153.8 153.5 153 152.5 151.6 151.4 152.5 160.9 152.6 148.9 148.2 147.9 147.6 147.4 147 146.6 146.1 145.7 145.5 145.2 145.1 144.9 144.4 143.8 143.5 143.3 142.8 142.5 142.6 142.4 143.5 143.8 141.9 140.2 138 135.3 135.2 135.4 137.2 139 138.7 136.7 134.7 134.5 135.3 135.7 135.9 135.8 135.1 134.3 134.2 133.5 132.8 131.7 130.3 128.4 126.6 124.8 122.4 119.1 115.3 112.3 108.1 105.2 100.5 95.4 95.6 96.3 93.2 88.6 82 76.8
161.7 161.7 161.6 161.5 161.4 161.2 160.9 160.7 160.7 160.8 161 161.1 160.8 160.6 160.3 160.1 159.8 159.4 158.2 155.5 153.2 152.6 153.4 152.1 148.3 145.5 143.4 141.1 139.2 138 137.3 140.3 146.2 144.3 141.9 136.9 132.1 133 129.4 124.7 120.1 116.8 114.7 113.3 112.9 112.9 113.8 111.7 110.3 112.3 112.8 112.6 112.3 109.7 107.9 107.1 105.9 103.8 102.1 102.1 104.2 107.9 111.4 112.9 113 113.4 112.4 111.6 110.6 109.7 108.4 109.2 112.1 115 117.7 120.6 124.1 127.6 135.8 136.3 139.3 147.7 155 156.6 156.1 155.2 153 149 145.3 141 136.6 131.2 125.1 118.4 113.2 119.2 123.2 128.5 133.8 136 136.4 134.6 130.8 125.3 123.4 125 127.2 124.8 123.2 128 136.5 144.3 153.1 158 156.4 152.6 147.7 147.1 154.8 157.3 157.4 157.8 156.1 156.8 156.2 156.3 155.7 155.3 155.2 154.9 154.4 153.9 153 152 156.2 156.3 150.8 150.2 149.7 149 148.5 148 147.2 146.9 146.4 146.1 145.9 145.7 145.5 145.3 144.6 144 142.7 143.4 143.5 145.2 146.4 147.6 148.7 144.1 138.8 137.1 135.1 132.9 132.6 133.2 134 134 134.2 133 131.4 130.8 130.4 130.3 130.2 130.2 129.7 128.9 127.9 127.2 126.6 125.4 124.1 122.6 121 119 116.6 113.7 110.4 107.6 103.3 101.1 97.8 91.7 92.4 97.1 93.9 88.5 81.1 76.1
162.2 162.1 162.1 162 161.9 161.6 161.4 161.3 161.1 160.9 161.2 161.3 161 160.9 160.7 160.5 160.2 159.8 158.6 156.7 152.1 147.4 148.3 144.3 143.1 141 138.8 136.7 135 134.1 133.7 133.4 136.2 137.6 138.1 134.1 129.4 131.1 128.5 124.4 120.2 116.4 113.9 113.6 112.9 112.3 111.6 110.6 113.6 116.1 115.5 114.3 113.7 110.4 108 106.5 105.4 103.9 101.7 101.6 104.2 108.2 110.9 113.2 115.3 115.1 113.6 111.3 109.2 108 106.3 109.7 112 114.2 116.6 122.8 124.4 143.1 136.4 136.7 138.1 145 151.4 154.7 154.7 152.6 149.3 144.4 142.2 138.5 134.5 130.6 125.9 120.6 113.5 111.5 113.9 119.7 123.3 125.8 127.1 124.5 123.5 121.6 115.9 117.3 118.5 118 122.3 128.8 136.5 141.6 145 147.4 146.1 142.4 138.7 144.5 153.3 157.8 157.1 156.1 154.8 155.2 157.4 157.4 157.1 156.8 156.6 156.3 155.8 155.3 154.6 153.3 152.4 152.7 152.4 151.5 149.9 149.5 148.9 147.7 147 146.7 145.8 145.4 144.8 143.3 142.8 144 142.3 140.9 139.8 142.5 147.7 150.3 152.5 153.9 151.4 143 135.6 133.7 132.4 131 131.2 132.3 132.8 132.6 132 130.8 129.3 127.2 125.3 125.1 125.8 125.3 124.5 123.1 122.1 121.4 121.2 120.4 119.5 117.9 116 114.1 111.7 109.2 106.4 103.4 99 95.7 92.8 88.6 88.4 90.7 88.3 82.3 77.5 70.2
162.6 162.5 162.4 162.2 162.2 162.1 161.9 161.6 161.4 161.1 161.3 161.5 161.3 161.3 161.2 161 160.8 160.2 159.6 158.1 155.5 150.1 145.1 141.8 140.9 139.2 137.3 135.9 134.7 133.6 132.8 132.6 131.6 131.7 129.5 127.9 124.9 127.6 127.4 124.9 122.5 116.7 114.8 114.6 113.9 113.2 112.2 111.2 113.7 116.2 116.8 115.7 114.3 111.6 109.1 106.6 105 103.6 101.5 101.1 102.8 107.1 109.7 112.2 114.1 114.8 114.7 113.2 110 106 107.4 113.3 111.9 113 113.9 117.8 136.1 145.1 145.4 136.8 139.5 142.3 146 148.7 149.7 147.8 145.7 143.4 140.4 136.6 129.9 127 123.5 118.8 114.4 109.1 108.6 113.4 114.8 116.9 117.9 118.2 117.8 116.4 114.3 113.4 113.7 116 121.7 130.7 136.6 138.8 138.9 138 136.3 134 136.7 142.2 150.3 157.9 155.7 152.2 150.8 154.2 158.2 158.7 158.6 158.3 158 157.7 157.2 156.7 156.1 154.9 153.7 152.9 153 152.1 150.3 149.6 148.7 147.4 145.5 144.8 144.7 144.3 143.5 143 139.7 138.6 139.2 135.2 135.7 141.6 150.9 153.6 152.6 150.5 144.5 138 133.4 131.2 130.5 129.8 129.8 131.2 131.6 130.8 129.8 128.8 127.2 123.5 120.2 120.2 121.4 121.3 120.2 118 116.7 116.7 116.3 115.6 114.9 113.4 111.9 110.2 108 105.7 102.8 99.7 95.5 91.4 89.2 85.7 83.4 84.1 82.6 76.9 75.5 75.8
162.3 162.7 162.7 162.5 162.5 162.5 162.2 161.9 161.6 161.4 161.5 161.7 161.7 162 162.1 161.8 161.7 161.1 160.6 159.7 157.5 154.3 147.9 144.3 142.2 141.9 140.1 138.5 136.6 135.2 138 140.9 139.8 137.1 133.9 129.1 124.7 122.6 123.7 122.4 122.5 117.4 118.1 116.8 114.8 113.9 112.8 111.4 112.4 115.4 116.6 116.1 114.6 114.9 111.2 108.6 105.8 104.1 101.8 101.1 101.6 104.6 107.8 109.9 111.2 110.5 112 111.5 108.6 105.6 115.6 115.5 115 115.2 117.8 119.7 120.6 133.8 134.6 136.1 139.6 140.9 143.6 144.3 144.9 145.1 144.1 142.2 140 136.1 129.7 125.5 120.8 116.5 112.3 109.2 106.3 107.8 108.6 110.3 111.3 112 112.6 112.3 110.2 109.8 111.4 115.7 122 127 131.8 131.7 130.4 128.9 127.6 131.2 139.4 139.5 143 145.8 145.7 143.6 144.5 153.1 158.9 160.1 160.1 159.8 159.5 159.1 158.6 158.1 157.5 156.4 154.7 153.2 153 152.1 150.4 149 146.7 144.6 141.8 140.9 141.8 140.4 140.1 137.8 136.4 134.5 133.2 132.1 133.1 138.6 146.1 147 146.2 144.5 139.4 134.4 131 129.6 129.6 128.8 127.8 128.9 129 127.3 125.2 124.5 123.8 120.2 115.9 114.8 116.8 117.7 116.4 113.8 111.5 111.3 111.2 110.9 111.3 110.4 108.8 107.1 104.8 102.1 99.1 95.9 92.1 84.7 84.1 82.6 77.7 76.8 76 73.9 73.7 63.9
162 162.6 162.7 162.6 162.8 162.7 162.5 162.2 162 162 162.3 162.6 162.8 163 163.2 163.2 162.8 162.2 161.6 161.1 159.8 157.5 154.1 148.8 146.4 146.5 145.5 142.5 140.6 138.3 142.6 147.3 145.3 141 136.7 131.4 126.8 122.5 121.2 120.2 119.2 120.8 124.2 121.8 118.3 115.9 113.2 112.4 112.5 113.9 115.3 116.6 116.9 117.8 116 113.3 109.8 106.5 103.1 101 101.1 104.1 107.8 107.6 106.8 104.1 102.7 104.5 106.1 111.9 115.4 115 117.8 119.1 120.5 121.9 123 124.3 132.2 139.5 136.9 139.3 139.8 141.3 142.5 143.2 143.5 142.7 138.3 135.1 129.9 126.3 121 115.7 113.4 112.4 108.9 105.1 103.2 104.7 106 107.7 108.9 108.3 106.1 105.8 110 114.5 118.7 123.1 124.8 124.7 123.6 122 121.8 125 130.4 134.2 136.3 136.2 135.8 135 141.5 153.7 159.9 160.4 159.9 160.1 159.9 159.6 159.4 159.4 157.8 156.5 154.9 153.6 151.9 150.5 148.5 143.4 141 138.4 136 134.3 134.8 134.2 133.8 133 132.5 131.2 130 129.4 129.3 133.8 137.8 138.9 138.3 137.8 135.9 131.9 129.8 128.6 128.3 127.5 125.5 125.4 125.7 124.2 121.4 119.7 119.1 115 108.6 105.3 106 107.1 107.6 106.1 105.4 104.3 105.6 106.9 108 107.2 105.6 103.9 101.7 98.7 95.2 89.4 84.4 79.3 78 76.7 73.5 74.2 73.9 72.2 68.8 68.9
161.8 162.4 162.5 162.6 162.8 163 162.8 162.5 162.8 162.9 163.2 163.5 163.8 164 164.3 164.5 163.9 163.3 162.8 162.3 161.5 160 158.7 154.7 152.7 152.4 150.3 147.5 144 141 145.4 148.6 145.1 139.6 139.6 130.7 126.9 124.1 123.4 121.8 121.9 123.6 124.8 124.3 122.7 119 114.7 113.7 113.2 113.5 114.1 114.7 116.3 118.3 118.8 117.9 115.4 111.6 107 103.8 100.8 100.8 103.9 104.5 103.8 103.7 106.8 107.6 112 115.6 115.1 118.7 119.9 121.2 122.6 123.9 124.8 125.3 125.2 132 134.2 135.4 135.9 137.2 139.1 139.6 139.4 139.8 137.7 134 130.1 126.3 121.5 118 117.1 116 112.8 108.9 106.5 99.4 96.4 100.7 103.6 105.2 101.9 104 108 111.5 115.5 118.2 119 119.7 119 118.2 119.9 123.4 128.2 129.6 128.7 128 128 130.8 138.3 149.8 156.9 158 158.6 158.7 158.7 158.5 158.9 158.8 157.6 155 152.1 149.4 145.8 140.9 139.1 135 133.2 130.7 129.2 130.7 131.3 131.1 130.8 130.4 129.5 128.4 126.7 125.7 126.9 130.1 133.4 133.2 132.9 132.4 131.4 130.6 129.7 128.2 126.6 126.3 123.8 122.2 121.8 122.3 119.3 113 111.2 109.1 103 96.9 95.4 94.6 95.7 95.9 96.4 96.9 97.3 101.9 104.6 104.3 102.2 100.1 97.9 92.3 87.5 78.8 74.2 69.8 67.2 65.4 65.4 66.3 74.5 74.9 81.7 87.8
162 162.2 162.5 162.7 162.5 162.7 163 163.3 163.6 163.7 164 164.3 164.7 165.2 165.7 165.6 165.1 164.5 163.9 163.5 163 162.1 161 159.4 158.7 157.2 154 150.7 146.9 144.9 148.7 149.1 139.7 139 133.4 130.7 128 125.9 124.7 122.2 123.9 124.8 125.5 124.8 123.9 121.4 117 115.3 114.4 113.7 113.9 113.8 115.6 118.3 118.9 120.1 120.2 119.3 116.1 109.9 102.9 100.7 100.6 101 101.2 104.7 109.8 113.3 115.4 117.5 119.3 119.8 122 123.5 124.6 125.3 126 126.4 128.2 130 130.8 131.3 131.7 132.5 134.6 135.1 135.9 136 135.2 133.4 130.7 126.8 124.8 123 121.5 120.2 117 112.8 109.7 107.2 104.3 99.1 95.6 101.1 98.9 101.9 105.2 108.2 110.8 113 113.5 112.8 111.2 112.4 117.8 122.3 123.5 123.7 122 120.8 123.9 129.6 135 140.2 146.1 150.3 152 153.8 152.9 153.7 155.5 154.9 153 150.8 148.2 142.7 138.9 136.2 132.7 126.5 122.6 122.2 125.9 129.3 129.9 130.1 129.6 129.4 128.6 127.8 126.2 123.4 126.2 129 130.4 130.6 130.2 129.2 129.3 129.6 129 127.7 124.4 124 123.4 116.3 117.5 122 118.8 111.3 102.7 99.5 96.4 90.5 83.9 83.9 84.8 85.6 85.4 86.2 87.6 92 99.5 102.9 101.2 98.5 90.1 79.2 72.7 67 63.8 61.9 61.5 60.8 61 60.6 68.5 80.7 81.9 75.9
162.2 162.5 162.9 163.1 163.2 163.4 163.8 164.1 164.4 164.6 164.9 165.3 165.7 166.2 166.7 166.4 165.9 165.4 165 164.4 164 163.7 162.9 162.1 160.9 158.9 155.8 152.4 149.8 149.2 151.7 150.5 146.4 141.2 138.4 134.5 130.7 128.1 126.3 124.9 125.3 125.8 126 125.6 124.3 120.9 118.5 118.1 117 115.4 114.3 113.7 114.3 115.6 118 119.6 121.6 122.2 122.1 119 108.7 101.7 100.3 106.3 106.1 111.3 113.3 115.4 116.4 120.2 121.9 123.1 124.8 125.6 126.3 126.7 127.2 127.7 128.7 128.6 126.6 126.6 127 127.7 129.6 131.2 131.3 132.4 133.4 132.2 130.9 129.9 128.7 129.8 128.2 125.3 121.2 116.9 114.2 111.2 107.7 104.6 97.2 93.2 94.2 98.5 101.3 103.1 106.6 109 109.1 107.2 104.7 110 114 116.8 117.4 117.6 115.1 116.2 121.5 126.7 128.6 131.3 134.9 138.7 144.1 144 144.4 147.1 148.3 147.9 147 145.8 141 138.2 134.6 132 129 127.6 116.8 112.7 124.2 127.7 129.1 128.3 127.2 128.5 128.1 127.9 124.1 121.6 124.6 127.2 128.6 128.8 128.6 127.6 128.4 128.6 123.8 124.1 122.7 122.1 121.1 115.5 110.3 115.5 115.3 110.3 101.5 94 88.3 82.7 80 79.6 77.7 75.7 75.1 74.7 75.9 80.9 90 98.8 97.6 92.9 83.9 72.9 64.3 62.4 60.7 62.4 66.4 70.4 70.1 67.9 66.7 64.7 62.8 64.3
162.6 163 163.4 163.8 164 164.1 164.4 164.9 165.2 165.5 165.9 166.3 166.7 167.2 167.1 166.8 166.4 166 165.7 165.3 165 164.7 164.4 163.7 162.2 159.4 156.2 153.2 152.2 153.4 154.3 152.9 148.8 148.1 146.2 140.2 135.8 132 130.1 128 126 126.7 126.5 126 125.6 123.9 122.1 123.5 123.4 118 116.3 115.6 114.9 115.6 117.7 118.7 120.2 122.2 124.1 124.1 120.2 109.1 101 100.2 104.7 110.7 112.4 115.5 118.6 123.1 125.7 125.8 126.5 127.2 127.8 128.1 128.3 127.8 126.6 125.8 125 123.8 123.1 123 126.2 128 127.8 128.7 129.7 131.5 132.2 132.7 132.1 132.7 132.1 129.3 125.4 120 117.1 111.8 106.9 104.5 101.4 97 91.4 93.1 95.5 97.5 100.9 103.6 103.6 101.6 101.3 106.7 109.6 110.4 110.7 109.9 109.4 111.3 117.8 120.4 121.7 124 127.2 130.2 135.7 137.7 139.8 141.1 142.4 141.9 141.8 138.8 137.5 135.9 133 131.9 131.6 128.6 118.8 109 119.5 126.4 128.2 126.7 124.7 127.2 128.3 127.7 124.6 118.4 118.2 125 126.6 127 127.7 126.6 126.7 126.9 123.6 122.9 121.8 120.7 118.9 114 106 105.4 104.5 102.8 97.2 88.7 88.3 91.1 93.2 91.2 89.4 86.2 82.4 75.6 70.8 70.1 82.6 91.4 88.8 81.7 73.9 64.8 61.3 62.1 67.6 74 77.1 77.1 76.2 74.9 74.4 73.7 73.6 73.3
163.1 163.5 163.9 164.4 164.7 165.2 165.6 165.8 166 166.3 166.7 167.1 167.4 167.4 167.4 167.2 166.9 166.5 166.2 166.2 165.9 165.7 165.4 163.9 161.8 159.4 156.8 154.2 154.9 157 156.1 154.8 150.8 149.3 150.8 146.7 141.4 137.6 134.4 131.7 129.3 126.9 126.9 126.7 126.3 126.1 126 125.5 125 123.8 121.8 118.7 117.6 116.5 116.5 117.7 118.3 119.6 121.3 122.6 124.3 119.7 109.4 101.8 99.6 99.1 107.8 112.1 116.2 121.3 126.3 126.6 128 128.8 128.9 128.9 128.2 127.5 126.1 124.9 123.5 119.9 118.9 126.3 126.7 125.7 124.3 124.6 126.6 129.7 131.7 134.3 134.5 134.8 134 132.1 128.3 123.4 119.8 116.6 111.8 109.3 105.7 102 96.8 91.6 90.5 91.6 95.2 98.2 98.5 96.4 97.8 102.6 104.6 105.4 105.3 107.4 105.4 105.9 109.7 112.9 116 117.9 124.1 129.1 132.2 135.1 137.9 138.7 138.7 138.6 138 136.8 135.5 134.6 133.9 134.3 132.2 126.8 113.8 105.5 116.6 125.6 126.8 123.1 121.8 124.5 127.2 127.2 125.6 119.3 113.5 120.2 124.3 124 124.7 125 124.9 124.8 124.3 122.7 121.2 121 118.8 114.3 107.9 103.1 99.5 96.6 94.5 94 97.3 98 94.7 90.5 86.4 82.2 78.6 73.1 69.3 66.8 74.3 82.1 79.4 72.9 65 61.6 61.1 68.2 76 81.1 82.6 83.4 84.2 83.8 83.4 82 83.8 83.8
163.6 164 164.5 164.9 165.5 166.2 166.6 167 166.7 167 167.2 167.5 167.6 167.5 167.4 167.3 167 166.7 166.5 166.6 166.6 166.5 165.3 162.9 160 157.2 155.7 155.2 157.7 159.9 157.8 155.8 154.8 154.9 154.5 152.1 148.7 143.2 139.5 135.8 132.7 129.7 127.6 127.4 127 127.3 127.6 127 126.6 126.4 126.6 125.9 121.9 119.1 117.9 117.7 118.2 117.9 118.2 119.9 122.5 124.3 120.9 115.7 105.8 99.8 99.6 105.9 111.3 115.8 121.4 125.1 127.9 130.7 130.8 130.4 129.6 128.1 126.5 123.6 120.2 116.3 117.8 124.2 125.8 125.2 121.5 121.9 124.2 127.5 131.5 134.9 136.4 136.7 136.2 134.3 131.4 127.3 123.4 120.3 116.4 112.6 110.1 107.8 102.7 97.5 92.6 88.7 89.4 94.5 95 91 94.3 97.4 99.6 100.6 99.8 104.9 105.5 102.2 105.1 112 121.9 128.6 133.1 136.2 138.3 138.5 139.1 138.7 137.8 137.2 136.6 136.1 135.6 135.1 134.5 133.5 131.1 120 107.7 104.8 116.2 124.9 123.7 118.6 116.6 121.4 124.8 125.6 124.4 116.5 110.6 116.9 120.6 122.6 122 123.3 123.7 124.7 124.3 124.2 123.5 120.9 119.1 116.4 112.3 108.3 105.6 102.4 99.7 98 97.4 93.7 89 83.1 77.3 72.5 69.1 64.3 63.6 65 73.3 74.8 69.1 64.1 61.8 62 66.1 75.4 81.9 85 87.8 90.8 92.3 92.9 93.7 90 93.5 94.2
164.1 164.5 165 165.4 166.1 167 167.9 167.3 167.4 167.6 167.7 167.7 167.6 167.5 167.5 167.2 167.1 166.9 166.9 167 166.6 165.5 162.7 158.6 156.8 156.1 156.1 156.5 159.2 161.8 159.5 158.2 157 157 156.1 155.3 154.5 149.9 144.3 139.1 134.9 131.4 128.7 128.2 127.7 127.8 128 128.2 128.1 128.1 127.8 127.4 127.6 125.7 122.4 119.4 118.5 117.5 116.6 117.1 119 122.5 124.4 123.3 119.8 110 101.2 98.6 101.4 110.7 110.9 115.9 121.5 128.4 131.6 131.4 131.2 130.6 126.6 122.7 118.4 114 118.7 119.1 116.6 119.5 121.7 124.8 125.1 126.4 129.2 132.9 136.6 138.2 138.4 136.7 134.4 132 127.9 123.2 118.2 114.6 112.1 109.8 106.7 101.6 96.8 92.1 87.2 88 89.5 88.3 92.1 93.2 93 93.2 91.1 100.9 103 106.1 111.8 119.8 130.3 136.9 140 141.2 141.2 140.6 139.9 138.9 137.7 137 136.4 135.9 135.7 135.4 133.7 131.7 125 113 99.4 104.6 117 122.6 118.7 112.7 115.3 117.8 118.1 118.4 117 111.6 106.2 112.9 117.5 120.3 120.6 122.7 124.7 125.2 125.4 124.8 123.3 120.1 116.7 115.1 112.2 108.9 106.2 104.2 100.6 96.1 91.2 84.9 81.3 73.6 69.5 66 63.5 63.1 63.8 63.9 65.1 62.2 62.8 63.1 62 61.4 71.8 80.4 84.7 88.4 92.7 98.3 102.1 101.5 101.5 99.1 100.1 100.7
164.6 165 165.5 165.9 166.8 167.4 167.9 167.5 167.7 167.8 167.6 167.2 167.2 167.3 167.3 166.4 165.6 165.8 165.5 164.8 162.6 159.5 156.4 154.4 151.8 151.3 153.3 156.2 159.8 162.8 161.7 160.3 158.9 157.7 156.2 158.1 159.2 154.7 147 140 135.5 131.7 129.4 128.2 127.8 128.2 128.3 128.4 128.9 129.5 129.2 128.8 129.1 129.1 128.7 124.3 120.2 118.1 116.3 115.6 116.2 119.2 124 128.1 128.2 123.8 112.1 101.9 98.2 98.1 105.1 110.9 111.3 119 127 131.6 131.8 131.8 127.3 121.4 116.5 110.2 111.4 112.7 115.4 125.7 127.8 127.6 130.1 130.4 130.6 132.2 135.7 138.6 138.8 136.9 136 134.4 131.3 125.8 121 118 114.7 111.3 108.8 106 100.3 95.1 90.1 86.3 85.8 84.8 87.7 88.7 88.5 86.2 90.8 97.5 104.6 109.9 118.9 128 137.4 140.5 141.6 141.9 141.6 141 140.3 139.4 138 137 136.2 135.6 135.3 134.7 133.1 129.4 118.9 105.6 95 104.7 115.1 119.7 112.6 105.8 101.1 116 115.5 108.9 106.6 102.9 102.5 108.4 114.1 117.9 121.8 123.8 125.3 125.6 125.1 123.8 121.3 117.7 114.2 110.6 107.6 105.1 102.4 100 95.5 89.4 83.7 92.4 97.5 90.3 67 63.8 64.8 65.4 63.8 62.8 62 61.6 62.4 62.4 64.2 66.1 73.7 81.2 85.9 91.6 97.9 104.2 106.5 104.8 104.3 104.2 104.5 104.8
165.1 165.5 166 166.4 166.8 167.2 167.6 167.5 167.4 167 166.7 164.7 162.3 160.6 159.2 158.3 156.2 156.3 156.9 155.3 153.2 151.1 148.9 146.1 143.4 142.1 144.2 149.5 157.9 163.6 162.3 160.9 158.7 155.6 155.6 158.7 160.3 154 145.7 138.7 134 131.2 129.1 127.8 127.6 128.1 128.6 128.7 129.1 129.9 130.7 130.6 130.7 130.7 131.4 130.6 126.2 120.3 117.5 115.7 114.9 115 116.8 122.5 129.1 132.1 127.7 116.7 106.7 99.2 98 97.8 104.3 110.3 115.6 122.5 124.6 125.3 124.6 118.7 111.5 107.6 107.8 110.6 115 123.4 128 130.5 131.9 132.9 134.1 134.8 136.1 137.6 138.4 137.1 136.3 135.2 132.4 128 124.3 120.5 116.6 113.3 110.3 109.8 105.9 99.3 95.8 91.4 86.8 84.2 84.7 85.4 85.3 88.5 94.2 100.4 108.1 115.3 124.1 135.6 140.6 141 141.7 141.5 141.5 140.7 140.2 138.4 137.2 135.5 135.4 135.2 134.8 134 132.4 125.6 114 100.4 93.8 102.7 109.1 110.7 105.9 101.1 96.6 97 99.5 96.5 97.8 99.4 104.8 111.3 115.3 119.1 122.5 123 121 119.2 118.9 118.1 115 111.8 108.5 106.1 103.4 100.2 96.6 92.7 87.7 82.6 90.1 120.6 108.2 84.5 65.6 65.2 64.7 65.4 64 62.4 61.9 61.8 62.5 63.5 68.2 72.8 73.6 79.7 85.2 91.1 97.1 103.8 107 107.5 107.9 107.9 108.3 108.6
165.6 166 166.3 166.4 166.4 166.8 166.9 166.6 165.5 162.9 159.4 155.5 152.5 148.4 147.8 146 143.9 144.8 145.6 145 143.6 141.3 139 137 134.9 132.3 136.8 143.7 153.9 162.5 163.2 161.1 156.5 151.7 153.7 154.9 153.9 148.9 141 136.2 132.7 130.4 128.6 127 127.3 127.9 128.4 128.9 129.4 130.2 131.1 132.1 132.9 132.6 132.7 133.9 132.8 128.1 120.5 116.8 114.2 112.8 112.7 113.5 118.3 126.6 133.9 132.5 121.5 111 102.8 97.5 97.4 98.2 109.1 111.3 115.3 114.7 114.1 110.5 110 115.3 115.8 115.1 113.4 118.4 125.2 129.1 132.3 135.7 136.5 136.3 135.4 135.1 136.4 135.5 135.3 134.3 131.2 128.2 122.5 120.8 117.5 115.9 113.6 114 112.6 106.1 101.8 97.5 93.2 89 84.9 83.8 84.2 89.5 93.8 98.4 106.6 115.2 124.6 135.2 140.8 141 140.4 137.8 136.8 136 135 134.2 131.3 130.3 131.9 131.9 130.7 130.1 126.7 120.8 111.4 94.9 91.3 100.5 104.6 104.3 101.5 96 89.9 97 97.3 94.5 97.7 101.4 104.5 104.6 105.9 109.8 113.1 113.7 111.1 109 107.4 107.5 107.1 105.1 102.5 99.7 96.9 92.7 87.6 82.9 79 78.9 96.2 97.8 85 66.7 65.5 64.4 64.5 67.6 69.4 67.6 66.2 64.9 67.6 72 77.2 80.9 80.1 81.4 84.5 90.3 96.4 105.7 111 112 112.1 111.4 112.1 113.7
165.9 166.1 166.3 166.3 166.1 166.4 166.1 162.7 158.7 154 147.8 141.9 136.6 133.9 131.3 130.4 132 134.9 136.7 136.2 135.1 133.3 131.2 129.4 127.3 126.2 129.9 137.4 148.6 159.2 163.2 158.7 150.8 146.2 145.5 145.3 144.8 140.1 136.3 132 130.7 129 127.4 125.4 126.9 127.8 128.4 129 129.7 130.7 131.6 132.4 133.8 134.2 133.9 134.3 134.6 135.1 130 121.2 115.5 112.4 110.2 109.1 109.9 114.3 121.8 130.9 133 125.4 115.5 106.5 98.7 96.4 97.5 106.8 107.1 105.1 103.1 104.6 112.7 123 129.1 125.4 123.5 119.3 119.5 124.7 128.3 133.3 135.5 136.2 134.3 132.2 132.7 130.5 132.4 129.4 127.7 122.5 118.1 121.8 115 114.3 117.6 116.9 114.3 110.2 106.9 104.3 101.3 94.7 88.9 82.9 83.5 86 90.5 95.4 103.5 112.2 120.2 128.2 133.7 133.4 130.8 127.8 126.1 125 123.9 122.9 122.1 121.6 121.8 121.2 120.5 119.8 117.9 113.7 105.8 93.4 85 97 101.9 101.4 97.9 91.7 84.1 96.1 97.6 98.9 100.6 99.8 97.7 95.9 95.1 97.4 99.5 99.9 98.2 96.9 96 96.2 96.8 95.2 92.7 90.8 87.5 84.3 80.8 77.3 74.9 77.6 76.5 76.8 67.4 64.4 64.6 66.2 65.4 70 78.8 78.3 77.5 78.9 80.1 83 85 84.9 85.5 89.1 93.2 97.4 102.1 109.6 114.3 116.3 117.8 117.5 118.6 119.4
165.5 165.9 166.1 166.1 165.9 164 160 155.1 148.6 141 134 130.5 126.8 123.1 120.7 121.1 126.3 128.7 129.3 129.1 128.4 126.5 124.7 123.1 121.4 121.2 124.9 132.2 144.3 153.9 157.6 151.5 143.8 138.4 137.3 136.3 135.3 133.6 130.6 128.4 127 126.6 126.2 125 126.1 127.5 128.5 129.2 130 131 131.9 132.9 133.9 134.8 134.9 135 135.2 136.1 136.3 129.7 122.1 115.4 110.4 107.8 106.2 108.4 110.9 118.1 128.3 133.4 128.2 119.8 109.4 99 96.6 96.1 96.9 99.7 102 102.8 110.2 122.9 131.2 135.5 132.3 128.5 124.5 130.2 132.4 133.4 136.3 137 135.7 131.3 129.9 127.9 127.2 125.6 123.5 117.1 109.5 109.8 109.1 106.8 114 117.2 112.3 108.9 107.1 108.7 105.4 100.3 94.3 87.2 81.5 81.8 87.2 92.4 99.3 108.7 116.7 121.9 122.6 122.6 120.3 117.5 114.9 113.5 112.5 112.6 112.3 111.3 111.5 111.5 110.8 109.1 107.7 104.1 100 92.5 82.4 89.8 97.8 97.9 94.1 87.7 81.4 91.2 94.5 96.5 94.6 93.4 90.7 88 86.3 87.6 89.1 88.9 87.5 86 87.4 86.7 87 86.1 84.3 83.1 80.7 78.4 74.5 71.2 71.2 67.4 66 66.1 65.9 66.8 71.9 74.4 68.8 70.6 84.3 89.1 89.7 89.6 88.6 87.8 88.7 89.1 90.5 94.8 100.2 105.8 107.7 111.5 116.4 120.9 124 126.7 128.4 128.2
164.7 165.4 165.3 164.5 162.3 157.3 151.2 143.8 135.9 129 124.2 120.1 116.7 115.4 115.6 118.6 121.6 122.9 123.2 122.6 121.6 119.9 118.5 117.4 116.2 115.8 121.1 128.6 135.9 143.4 143.8 140.2 134.7 131.6 131.3 130.4 128.7 127 125.8 124.5 123.5 121.8 122.4 122.3 123 127.2 128.1 129.5 130.3 131.2 132 132.6 132.8 134 135.5 136.3 136.7 136.7 137.6 137.4 131.1 121.8 114 109.3 106.6 103.6 105.7 109.5 117 128.9 134.8 129.8 122.2 107.2 97.7 95.8 95.5 100.4 105.6 107.2 109.6 118.7 128.6 136.5 138.6 136.2 132.8 134.7 136.2 135.9 139.2 138.1 136.3 132.2 130.2 125.7 124.3 121.6 117.9 111.4 105.8 101.4 99.8 99.4 103.5 108.5 105.8 99.6 102.7 107.7 105.9 101.9 96.8 91 84.2 80.1 83.9 89.3 95.8 105.2 112.4 115.2 114.6 112.7 110.2 108.1 105.1 103.4 102.2 102.8 102.6 102 102.1 102.6 101.6 100 98.9 96.3 93.4 89.7 83.1 83.8 91.9 93.2 90.9 83.7 77.8 89.6 91.5 89.6 87.8 86.3 84.6 81.2 78.9 78.4 78.5 78.2 76.4 75.2 76.4 77.7 78.9 78.7 78.4 78.1 76 78.2 80 68.9 65.4 65 66.9 67.8 71.4 75.1 80.9 80.4 73.1 71.6 86.8 92.7 93 92.8 91.7 90.9 92.3 94 96.1 96.9 104.8 112 114.2 115.5 118.8 124.6 130.7 134.3 137.6 136.1
161.9 159.7 157.5 154.9 150.4 146.3 142.9 135.6 127.6 123.4 118.7 115.3 113.1 111.3 112.7 115.4 117.1 117.1 118.1 117.3 115.9 114.7 114.1 112.8 111.4 110.4 116.9 121.8 124.8 128.2 128.3 125.9 125.8 125.7 126.5 126.3 123.3 121.7 121.3 120.9 120.2 117 116 118 118.5 124.5 128.3 129.8 130.5 131 131.6 132.1 132.3 133.3 135 136.7 138.2 138.2 138.1 139.2 139.1 132.5 122.2 114.1 107.2 101.7 100.8 102.8 110.1 120.5 132.3 136.1 128.2 115.7 103 95.9 95.5 107 113.9 116.1 115.1 116.4 126.8 134.9 140.9 139.7 136.6 134.1 134.1 135.1 135.9 135.7 135.1 133.6 129.6 125.1 118.6 118 116.2 113.8 109.9 103.7 98.4 95.5 98.2 101.3 99.6 94 93.3 95.8 97.4 96.2 92 88.1 83.4 79.6 81.6 87 93.2 101.7 107.2 107.6 106.4 104.5 102.1 101.2 98.8 94.9 94.5 94.8 93.8 93 93.4 93.9 93.5 92.9 92.4 90 87.7 85.6 79.9 77.7 85.7 86.9 85 79.6 79.9 89 88.6 86.4 82.4 80.8 78.1 73.1 72.6 72.8 69.5 68.7 68.5 68.3 69.6 70.5 75.1 74.5 74.2 74 72.9 71.7 67.3 67.6 67.8 68.9 72.1 76.2 79.7 83.5 84.7 82.3 73.4 71.6 86.3 94.4 95.2 95.6 96.2 95.9 98.2 101.5 104 105.4 110.3 116.5 118.1 119.9 123.7 130.1 135.8 143.1 146.6 145.9
149.1 145.9 143.4 141.2 142.5 143 139.8 133.6 127.1 122 117.4 113.8 111.2 109.3 109.4 111.7 112.9 113.4 114.3 113 110.5 110.4 110.1 109.2 107.2 106 109.8 113.5 116.3 118.3 117.6 118.3 119.7 122.3 125 122.6 118.9 116.3 116.6 117.2 116.2 114.9 112.2 114.6 116.3 121.6 128.8 131.5 131.3 131 131.5 131.8 132.4 133.3 134.7 136.1 136.5 139.1 139.1 138.7 139.6 138.4 115.2 106.2 104.4 102.5 99.5 99.8 106.1 114.8 125.2 135.1 132.2 118.3 101.8 93.3 99.4 114.2 119.3 122.2 124.3 122.9 124.9 130.1 135 131.1 132.4 131.7 132.4 132 132.4 131.7 130.1 128.2 126.3 122.4 118.4 111.9 113.4 115.1 112.5 105.5 99.4 94.1 93.1 95.5 93.1 89.4 85.8 86.2 87.4 88.1 87 84.3 81.3 78.5 80.6 85.6 91.6 96.1 100.1 100.3 98 96.4 97 94.1 91.8 88.8 87.5 87.8 86.6 85.3 86.1 87.7 88.7 87.7 86.3 84 81.6 79.6 76.8 74.2 78.3 79.8 79.1 77.3 82.9 87.3 86 82.5 77.8 74.3 76 68.4 68.6 67.9 66.6 66.7 67.2 67.5 66.6 70 72.9 71.1 70.3 70 69.5 74 68 67.5 70.9 75.8 80.3 84.9 87.1 88.1 87.5 83.8 75.3 71.6 84.5 95.4 97.5 98 99.1 101.4 105.2 109.2 113.8 116.1 116.1 119 122.8 125.6 130.7 136.5 141.7 149.5 151.6 150
136.2 133.9 131 130.2 131.5 138.7 136.6 133.8 131.1 122.9 116.8 113.9 110.9 108.5 106.8 108.2 109.2 110 110.5 109.2 106.3 105.6 105.8 105.5 104.3 103.1 105.3 108.3 110.3 111.7 112.2 114.7 119 122.2 123.8 120.2 115.9 112.8 112.7 115.8 112.3 111.2 112.4 109.8 112.6 117.8 125.1 132.4 132.1 131.3 131.2 131.3 132.1 133.1 134 134.6 135.4 131.8 139.8 138.5 136.3 140 120.1 105.4 103.7 102.2 97.1 96.5 101.1 109 118.2 124.5 118.2 109.1 92.3 95.6 115.3 119.9 122.4 122.8 125 124.9 124.9 128 129 127.7 128 128.8 129.3 128.7 128.8 128.4 126.1 122.7 120.8 116.5 112.7 109.5 108.8 111.8 107.1 102.8 99.6 95.6 87.9 89.2 87.3 84.9 83.2 80.1 81.5 80.7 81.5 79.7 77.6 78.2 81.3 84.5 89.3 92.6 94.2 94.1 93 90.9 101.4 89.5 85.9 82.2 79.4 80.6 79.9 80.1 81 82.3 82.9 82.5 81.3 77.8 74.6 73.3 73.6 71 71.1 72.4 72.6 72.2 81.9 84.1 81.7 78.3 76.3 70.4 67.9 67.5 66.9 66.6 66.9 66.9 69.3 68.2 67.8 68.3 70.1 68 67.9 66.1 66.3 66.9 68.5 71.4 77 82.7 88 90.4 91.6 92.2 91 85.8 76.8 71.9 82.5 94.2 96.1 97.1 100.2 105.8 111.1 117.5 122.6 123.3 122.8 122.2 125.8 131.4 137.4 143.7 147.1 150.7 152.7 151.1
127.6 125.5 125 124.8 125.5 127.9 129.5 130.5 130 126.2 117.2 113.2 110.8 108.3 105.8 105.4 105.9 106.8 107.9 106.6 103.5 101.8 102 101.7 101.3 100.7 102.5 104.2 105.2 108.5 112.6 115.5 119.2 122.8 124.8 121.7 116.7 111.6 109.8 115.2 112.5 108.5 108.7 106 109.6 111.2 118.5 128.7 129.7 129.5 130.4 130 129.6 132.1 131.3 130.7 129.9 131.1 130.1 135 130.8 125.2 123.5 120.3 111.5 102.6 95.9 95.2 94.6 100.1 105.2 108.6 103.5 91.9 87.1 115.1 117.9 120.8 118.8 118.4 120.8 122.1 122 124.6 123.9 124.5 123.7 124.9 125.7 125.2 125.2 124.4 122.6 118.8 114.2 110.7 107.6 104.7 106.3 109.4 105.8 100.8 97.5 93.8 86.9 82.9 82.9 82.2 80.3 77 76.4 76.5 76.6 76.6 76.9 77.8 81.1 83.9 87.6 90.7 90.5 90 89.2 86.6 95.9 93.6 79.9 77.8 75.4 73.2 73.1 73.7 73.5 75.6 75 75.1 74.1 73.8 73 72.2 71.6 70.7 70.5 71.1 70.9 73.7 75.5 77.4 77.4 75.6 69.9 68.9 67.9 67.1 66.4 66.9 68.4 77.5 75.6 72 70.9 72.7 71.3 68.7 68.4 68.6 68.4 70.8 74.5 79.6 84 88.9 93.5 96.1 98.1 97 95 88.2 76.9 73.4 81.3 91 93.8 97.4 101.9 109.3 117.1 125.8 127.8 126.9 126 126.7 128.9 135.6 142.8 150.1 154.7 156 157 155.9
121.1 119.8 116.2 115.4 119.1 123.9 125.1 126.2 126.5 125.7 117.5 112 109.9 107.5 105.4 104.5 101.9 103.3 103 101.6 101.4 99.6 99.2 98.6 98.5 101 102.5 105 108.2 110.9 114 117.2 121 124.4 126.5 123.8 118.2 111.1 107.8 113.2 108.7 106.1 103.2 102.9 106.4 109 112.4 123.2 124.8 125.6 127.4 126 123.2 124.4 125.1 125.2 118.5 115.3 115.8 115.1 111 108.8 106.7 104.9 101.1 97.3 93.8 93.3 91.2 91.9 94.8 96.5 96.6 89.3 85.8 105.9 114.6 113.5 110.8 113.9 116.6 118.1 118.9 120.3 121.7 120.9 117.8 118.8 120.4 121.5 121.1 119.9 118.1 115.2 111.7 107.3 102.4 96.6 103.2 105.5 103.5 98.3 93.4 89.2 84.9 81.8 78.9 79.4 77.4 76.9 75.6 75.2 75.5 76 76.3 77.2 79.8 82.9 85.7 88.1 87 85.5 83.4 81.7 79 80.1 75.3 73.4 73.3 73.5 74.2 73.9 72 71.5 71.6 71.3 71.9 73.4 74.6 74.4 73.7 73.2 71.4 70.6 70.1 69.6 69.1 70.1 74.1 70.7 68.9 68 68 68.1 73.7 78.5 82 81.5 77.8 74.1 75.8 77.8 76.1 74 74.1 75 76.3 78.4 83.5 89.7 94.2 98.7 102 102.1 100.1 98.3 94.3 83.3 76.5 77.5 76.2 86 92.6 96.8 102.4 109.5 117.9 128.2 130.4 129.7 129.3 132.2 132.5 137.6 145.5 153.9 156.7 158.2 158.9 158.4
114.1 114.6 117.3 119.9 121.8 121.9 121.5 122.7 123.3 121.3 115.4 112.7 111.8 107.5 104.1 103.1 102.2 102.2 102.3 100.5 99.6 99.9 100.2 98.6 98.6 101.1 106.1 109.3 113.9 117.2 119 121.6 124.7 127.9 125.2 119.9 113.8 109.7 105.3 104.2 103.6 102.5 100.2 100.7 103.9 106.3 107.2 114.5 118.7 119.2 115.6 112.4 109.3 108 108.1 107 108 106.1 106.4 104.5 102.9 102.2 101.2 100.3 96.9 94.8 91.6 90.4 88.6 86.2 88.3 93.5 94.1 90.3 84.6 85.8 99.7 103.9 106.5 109.8 112.8 113.9 115.5 116.7 117.6 118.1 115.2 113.1 113.3 114.9 115.4 115.1 113.7 111.1 107.7 104.8 99.8 93.2 97.9 101 99.7 94.7 90.4 87.4 84.3 80.4 77.9 77.1 77 79.2 78.7 78.2 74.9 75.5 75.8 76.5 77.2 78.8 82.1 83.4 82.2 80.2 78.3 76.9 74.2 72.7 73.2 74.1 75.7 75.8 76.7 75.6 74.1 72.4 71.9 71.9 73 77.9 79.8 79.5 79.1 78.1 75.9 73.1 69.7 69.3 68.5 68.4 68.9 68.9 69.9 72.6 75.8 78.1 82.1 86.7 87.6 83.5 78 78.6 82.5 83.6 81.6 80.5 82 83.2 86 88.8 93.9 98.2 103.5 106.5 106.4 104.3 100.6 97.2 88.8 80.6 84.2 87 81.5 80.5 87.3 95.3 102 108.5 115.9 125.8 130.4 130.8 132.2 134.6 135.3 139.1 147.7 154.8 157.7 158.7 159.2 159.6
114 108.5 115.4 116.7 117.1 116.9 116.2 118 119 116.9 114.6 112.5 108.5 104.3 102.6 102.3 102.3 102.3 102.3 102.9 100.6 101.9 101.7 99.7 98.5 99.4 106.6 114.4 120.2 123.7 123.6 123.7 125.6 125.6 119.8 113.8 108.2 105.4 102.8 100.6 99.3 98.5 97.7 98.9 101.1 102.8 103.2 103.2 106.1 104.5 103.5 101.8 100.4 98.8 97.3 96.1 96.6 97.2 97.7 98 97.2 96.2 95.4 94.8 93.1 91.4 90.9 89 87.9 85.8 84.3 84.5 83.9 84.3 83.5 87.4 95.7 100.5 103.4 106.3 109.5 110.6 112.6 114.3 115.6 116.2 115.2 111.1 108.9 108.4 111.1 112.2 109.9 107.6 106 104.1 100.9 95.1 88.7 92.1 92 89.4 86.5 83.7 81.6 78.7 76.9 77.1 76.4 77.8 78.6 78.7 78.1 74.5 75.3 75.7 76.1 76.4 76.6 77.2 77.3 76.6 75.3 73.3 73.1 73.8 75.8 77.1 78.3 80.1 81.6 81.1 79.1 76.3 73.9 74.4 77.7 83.1 86 86.3 85.7 84.6 81.9 79.2 75.9 72.7 72 72.7 73 74.4 74.8 77.3 83.7 87.2 89.9 91.6 88.8 84.5 84.8 88.1 90.5 91.6 89.1 91.7 92.6 94.3 97 99.2 103.3 105.8 105.4 106 104.8 102.8 99.8 93.3 85.2 86.2 89 90.5 87.3 83.5 82.6 91.6 99.3 106.1 112.5 123.4 128.9 130.1 133.4 135.4 137.2 140.8 149.2 155.9 158.2 158.9 159.4 160.4
116.4 115 112.8 111.5 110.3 109.9 110.3 112.4 111.8 111.9 111.1 108.1 103.2 102.7 102.7 104.5 105.4 106.7 107 107.4 106.7 105.8 104 100.1 98.6 99.8 104.9 113.6 118.2 122 119.5 119.2 119.5 117.1 113.9 108.4 104.9 102.4 99.8 97.6 97.1 96.3 95.6 97.6 98.5 99.1 99.9 100.2 99.6 98.6 98.2 96.9 94.9 93.4 92.2 91.2 91.5 92.1 92.8 92.7 92.3 91.3 90 89.6 89.2 88.7 91.8 86.6 86 84.9 83.5 83.4 83.1 83.2 83.4 86.9 93.9 96.8 99.6 102.3 104.1 108.3 109.6 110.2 111.1 112.6 112 109.2 105 103 107 109.5 108.2 104.9 104.4 102.4 99.3 96 90.5 86.9 85.6 84.6 83.2 80.9 78.5 77.2 77.2 77.2 76.7 79 78.8 77.8 79.7 78.3 74.3 74.6 73.9 75.3 73.6 74.2 74.3 74.3 74.4 73.9 74.5 75.8 78.6 81 82.7 85.1 87.2 87.4 86.1 82.2 77.3 78.7 80.5 85.2 91.7 94.2 94.5 92.7 90.4 85 81.3 81.1 80.3 80.9 83.1 82.5 84.3 85.4 92.2 99.2 99.7 96.3 90 91.5 96.9 100.4 100.4 98.4 99.9 102.7 103.7 105.4 105.9 106.5 106.7 105.6 104.2 104.3 101.8 99.8 95.7 89.4 86.8 92.3 92.8 92 92.4 89.9 87.4 87.3 96.5 104.8 110.9 120.4 127.5 130.1 134 135.7 136 140 147.1 155.3 158.2 158.9 159.8 160.8
118.7 117.5 116.7 115.8 114.2 110.1 107.6 108.1 106.8 107.3 105.7 104.2 103.8 102.7 105.9 108.7 109.9 111.7 112.9 114.2 112.9 108.7 105.1 102.4 99.6 98.3 100.9 105.2 109.2 110.6 111 109.9 109.9 107 105.1 103.1 100 99.3 96.9 95.4 95 94.6 94.4 94.9 95.4 95.9 96.2 96.5 96.9 95.9 94.2 92.7 90.5 87.8 87.2 86.8 87.2 87 86.8 87.6 86.5 86.1 85.7 85.6 85.6 87.2 89.2 84.7 84.2 83.6 84 84.3 83.2 83.3 82.9 86.4 90.7 93.9 96.8 98.8 100.8 102.8 103.9 103.8 104.1 104.1 104.3 103.6 101.2 99.5 102 104.4 103.2 100.3 98.7 97.9 95.4 93.1 89.6 84.6 81.7 81.2 80.5 78.5 78.1 77.7 77.7 78.3 80.7 83 81.4 78.7 76.2 81.8 87.2 85.1 76 75.6 74.8 73.9 73.8 73.9 74.2 74.9 76.9 79.6 83.6 86.6 88.6 90 91.6 92.1 90.4 85.5 80.2 83.1 87.3 87.8 95.6 102.3 104.5 102.6 95.8 88.9 83.1 88.3 88.4 92 93.9 94.9 97.5 97.9 100.2 110.2 110.2 103.2 98.9 102 107.3 110.1 109.5 107.2 107 109.3 110.1 108.7 108.4 107.9 106 104.5 103.4 101.5 99.4 96.6 91.8 92.3 94.7 96 96.2 96.7 97.3 96.4 92.5 89.6 92.9 102.3 110.6 120.7 127.2 129.7 133.9 135.2 133.6 135.8 142 149.8 156.6 158.4 160.2 161.6
121.7 119.7 119.9 116.7 111.6 110.5 111.2 110 108.9 108 105.6 102.9 106.8 110.7 113.4 116.2 117.9 118.3 121.6 122.1 119.9 112.1 107.4 104.2 101 97.8 96.8 99.1 100.6 101.3 101.9 101.4 101.9 100.8 98.5 98 97.2 96.3 95.3 94.4 93.8 93 92.9 92.9 93.1 93.5 93.9 93.7 93.6 91.7 91.6 88.9 87.7 87.4 86.9 86.6 86.6 86.5 86.2 86.1 85.9 86.1 85.5 85.1 85.4 88 92.8 85.3 85.1 85 85.7 86.7 84.6 83.4 82.8 83.2 86.2 90.5 93.9 95.5 97 98.6 99.8 98.8 98.6 98.5 99 99.5 98.9 96.7 97.2 98.3 98.7 96 95.2 93.6 92.3 89.6 85 82.3 79.6 78.7 78.7 78.1 78.4 78 78.7 81.1 85.1 88.1 87.3 84.9 81.2 77.7 77.5 77.6 76.7 76 75.2 75.4 75.5 76.2 76.6 78.9 81.5 84.9 88.4 90.9 92.4 93.3 95 95.3 92.6 90 84.1 87.3 93.7 91.2 98.8 109 112.2 108.9 102.7 94.1 87.7 93.7 101.1 104.7 106.3 107.7 110.4 111.5 111.1 116.8 115.8 110.5 109.7 111.5 114.8 114.3 114.1 113.7 113.7 112.6 109.6 110.3 108.8 106.5 104.4 102.8 102.1 100.4 98.7 97.8 96.8 99.4 102.2 104.5 105.5 106 105.8 103.5 99.1 93.1 90.9 99.1 109.5 121 126.6 126.6 130.6 131.6 130 131.3 136.3 142.9 151.6 156.4 159.1 163.3
124.7 123.9 123.5 118.5 111.7 116.4 117.2 113.7 111.6 109.9 105 106.4 115.1 119.3 122.1 124.3 125 125.9 126.8 126.9 122.2 114.5 111.6 106.2 102.8 99.2 97.9 96.6 96.4 96.3 96.2 96.5 96.6 96.4 95.3 94.9 94.6 94.4 94.3 93 91.9 91.8 91.6 91.4 91.3 91.3 91.7 91.6 91.6 91.1 89.2 88.5 87.8 87.7 87.6 87.6 89.4 88.6 87.9 87.9 87.9 87.7 87.5 88 87.9 95.4 93.3 87.9 87.8 87.1 88.7 89.4 87.4 85 82.6 82 84.5 89.8 92.2 93 94.4 95.6 95.9 94.9 95.3 95.4 95.8 96.1 95 93.3 93.9 94.3 93.2 93 91.4 89.5 87.5 84.7 80.7 79.3 78.2 77.8 78.3 77.8 77.8 79.2 81.1 85.6 90.2 93.6 92.8 91.1 87.3 82.7 80.3 79.4 77.8 75.5 77.2 77 77 77.8 80.4 83.9 87.1 88.7 93 94.7 96.5 96.9 96.9 96.5 93.4 91 88.3 93.7 99.6 98.4 102.8 113.2 118.8 116.7 110.5 101.6 95.4 99.9 110.8 116.2 118.3 120 119.8 119.1 117.6 119 118.5 117.3 116.5 116.6 117.3 117 116.5 115.6 114.1 112.6 111.2 109.3 108.2 105.3 103.2 102.1 101.5 101.3 103.1 104.3 103.4 107.4 112.2 114.1 115.2 115 113.4 110.8 103.8 95.6 92.9 95.2 106.5 117 123.3 121.4 123.9 123.3 125.3 129.5 132.8 138.4 145.9 153.5 157.6 161.7
127.2 126.8 122.3 113.7 121.2 124.9 121.7 118.9 117.4 110.3 106.8 117.3 125.5 127.7 128.6 130.1 130.1 130 131.1 127.8 121.6 120.8 118.6 110.3 105.3 101.5 98.7 97.2 96.3 95.6 95.3 95.1 94.7 94.2 94 93.7 93.2 92.8 92.4 91.9 91.6 91.3 91.1 90.9 90.7 90.4 89.9 90.3 90.2 89.7 89.2 89.1 88.9 88.7 89.2 92.6 94.2 90.8 90.9 91 91 90.6 90.4 91.6 92.4 95.8 93.8 91.3 90.4 90.2 91.3 91.6 90.3 87.7 83.4 81.8 83.3 87.2 89.2 88.2 89.6 91.1 91.6 91.4 92.5 92.3 91.6 91.3 90.2 88.9 88.5 88.8 87.7 87.3 86.5 84 81 78.9 79 78.5 78.3 78.3 78.6 77.8 78 81.2 84.3 91 95.2 97.1 96.4 94.8 91.5 86.5 84.9 85 79.4 77 79.9 81 81 80.6 83.9 88.8 90.9 93.8 96.8 99.5 100.8 100.8 98.9 96.6 92.4 89.3 93.9 101.7 109.5 107.1 107.6 114.4 122 121.2 117.3 111.3 105.2 108.3 116.7 122.6 125.2 126.9 127 124.2 121.8 121.7 121.4 120.7 121 122 120.5 119.2 116 114.8 113.1 111.5 109.9 108.1 107 104.4 105.2 105.1 103.1 105.7 109.4 112.1 110.4 114.3 119.2 122 123.1 122.1 119.8 115 108.2 100.9 96.4 96.2 106.6 115.1 120.7 117.7 118.3 121.9 126.7 131.9 136.4 142 147.5 153.8 156.8 158.9
127.3 122.5 118.8 124.6 128.6 128.6 126.9 126.7 119.6 109.7 111.4 125 131.4 132.6 133.6 134.3 134.4 133.3 131.7 129.8 128.9 128.3 123.8 114.9 110.4 105.1 101.3 99.6 97.6 96.4 95.6 95.4 94.8 94.2 93.7 93.2 92.7 92.3 91.9 91.5 91.3 91 90.8 90.6 90.3 90 89.7 89.5 89.5 89.4 89.2 89.3 89.2 89.1 91.1 93.7 94.1 94.3 94.7 95.1 94.4 93.6 93.6 94.6 95.4 95.6 94.6 94.9 93.9 93.8 92.8 93 91.8 89.5 85.4 82.6 83.6 83.7 84.2 83.1 85.3 86.8 87.5 88.5 88.8 88.4 87.8 86.9 85.8 85 84.6 83.7 81.6 81.3 82.4 80 78.5 78.5 78.3 78.2 78.6 79.1 79.6 79.5 77.4 82.3 88.7 95.5 98.5 100 99.5 97.7 94.8 91.7 89.8 86.4 83.8 82.2 85.9 87.9 86 83.6 87.1 93 95.5 100.1 103.8 107.1 107.2 105.1 99.7 95.2 90.7 92.3 100 109.9 117.6 113.2 112.3 122.9 123.9 124.3 122.4 120.1 114.2 113.9 121.6 127.5 131.3 133.5 134 131 128.4 128 128.1 128.4 128.3 128.7 127.6 123.4 116 112.7 110.7 109.6 108.6 107.7 108.2 108.9 109.7 109.9 107.4 108.9 114.2 118.3 118.4 119.3 122.7 125.6 126.3 125.3 122.4 117.3 112.2 105.2 97.4 96.4 107.8 115.7 121.2 126.6 130.3 131.9 137.8 134.8 142.2 147.8 152.5 155.4 157 157.5
126.5 123 130 132.8 132.5 130.7 131.7 128.6 119.3 109.4 112.7 128.5 135.3 136.7 136.8 137.2 136.7 136.2 135.4 134.3 133.2 130.8 124.9 118.5 113.4 108.4 105 101.8 99.1 97.2 96.2 95.6 94.9 94.3 93.7 93 92.5 92 91.7 91.3 91 90.7 90.4 90.2 90 89.7 89.5 89.4 89.3 89.1 89.2 89.4 89.5 89.7 90.9 93.4 93.7 98.7 99 99 97.8 96.4 96.3 97 97.2 95.5 94.4 94.6 94.1 93.7 92.3 89.7 87.8 86.6 84 82.9 83.2 82.7 82.3 81.9 82 83.1 83.9 85.1 85 84.6 83.8 82.4 80.8 81.5 81.2 80.4 79.2 78.9 78.8 78.2 78.3 78.3 79.6 80 80.3 80.8 81.2 80.9 78.6 82.8 89.5 96.5 100.5 102.2 101.7 101.1 98.8 97.3 94.5 89.7 88.1 86.4 90.3 93.4 91.1 86.9 88 95.8 101.1 108.7 114.6 118.4 115.7 108.6 100.1 95.6 93.4 96.7 106.3 115.5 122 120.7 117.7 123.6 125.4 126.4 126.3 126 123.4 121.7 127.3 133.1 137.8 140.4 140.6 139.2 137.3 136.8 136.8 136.7 136.7 136.1 134.2 128.1 119.6 116.6 115.3 113.3 111 111.7 112.7 114.4 116.2 115.4 115 115.7 120.2 123.5 124.1 124.2 126.7 128.2 128.6 127 124.2 120 115 108.9 101.7 103 110.7 117.8 124.4 132.3 139.9 144.7 144.6 145 145.1 152.9 156.2 156.2 156.1 156.5
123.3 130.8 133.9 135.7 134.3 133.9 132 125 115.7 108.6 115.4 130.7 137.9 139.1 139.2 139.3 138.9 138.4 137.5 136.4 133.7 129.1 125.3 120 115.3 111.7 107.7 103.3 100.4 98.2 97.1 95.6 94.8 94.2 93.5 92.8 92.3 91.8 91.4 91 90.7 90.4 90.2 89.9 89.6 89.5 89.4 89.3 89.2 89.3 89.5 90 90.9 91.3 91 94 97.6 101.6 102.4 101.7 100.3 98.8 98.1 98.2 97.9 95.6 94.3 92.6 91.5 90.2 90.5 89.2 87.7 86.6 85.9 85 83.4 81.9 81.8 81.4 81.9 82.4 81.7 81.2 81.7 81.3 80.5 79.7 79.9 79.8 79.6 79.3 79 78.8 77.2 78.9 78.7 80.6 82.7 82.7 82.7 82.8 83.3 82.8 80.2 81.3 87.8 96.6 101.8 104.4 103.9 103.8 102.8 101.2 97.6 94.6 95.5 91.4 93.6 96.6 96 90.4 89.4 96.3 105.8 115.5 124 125.8 121 111.5 101.5 99.8 99 101.3 112.4 121.7 124.6 123.1 123.1 125.7 128.2 131.4 133.3 134 131.6 130.6 134.9 140.2 144.4 146.7 147.4 146.8 145.7 144.4 144.4 144.5 143.9 142.8 140.1 134 127.3 127.8 126 118.8 115.7 119.8 121.6 122.3 123.6 122.8 120.3 121.4 125.5 127.2 128.3 128.6 129.9 130.7 131.1 128.7 125.8 121.6 117 111.9 104.7 108.2 114.4 120.8 127.2 136 141.5 145 149.8 152.1 153 154.2 156.2 156.2 156.3 155.5
131.4 134.2 136.2 137.1 136.7 133.8 126.8 118 111.1 109.9 112 126.5 137.6 140.9 141.2 141.3 141 140.6 139.1 135 130.1 126.1 123.3 120.7 116.9 112.5 107.4 102.8 99.9 97.7 96.2 95 94.2 93.8 93.3 92.7 92.1 91.6 91.2 90.8 90.5 90.2 89.9 89.7 89.6 89.6 89.5 89.3 89.3 89.4 90.4 91.5 92.9 93.2 93 95.5 99.5 102.8 103.9 103.1 102.1 100.6 100 100 99.2 97.1 95.3 93.8 92.8 92.6 93 92.5 90.9 88.9 88.3 87.4 85.4 83.1 82.8 81.9 81.8 82 83.2 81.8 81.2 81.2 81.8 81.4 81.1 80.8 80.5 80.2 80.1 80.3 80.5 81.5 82 83.9 85.2 85.2 85.3 85.3 85.4 85.3 81.9 80.6 88.1 97.3 103.8 106.8 106.5 106.4 106.3 104.2 101.4 101.3 101 95.8 97.1 99.6 99.3 95.1 90.6 97.2 108.4 120.6 129.2 128.7 123.4 113.4 105.7 109.6 108.2 107.6 116.5 125.7 125.9 125.3 126.8 131 134.6 139.2 142.9 143.5 141.3 140.1 143.6 146.9 150.2 151.8 152.5 152.4 151.5 149.7 149.8 148.7 149.4 147.8 143.9 140.1 137.6 136.3 132.6 122.9 121.8 126.7 129.9 130.3 130 129.1 126.5 127.4 129.4 130.6 131.6 132.2 132.9 134.3 134.8 131.8 128.4 123.5 117.1 113.1 108.8 112.3 117.8 123.3 130.4 138.5 144 148.5 153.8 153.4 153.9 154.2 154.7 155 155 155.1
134.2 135.7 138.2 139.2 137 130.2 121.2 113.4 111.8 113.4 113.6 119 134.1 141.5 142.7 142.7 142.5 141.9 138.8 132.6 126.9 123.7 121.2 118.8 114.4 109.6 105.9 102.1 99.3 97.1 95.5 94.5 93.8 93.4 93 92.5 91.9 91.5 91 90.6 90.3 90.1 89.9 89.6 89.5 89.6 89.7 89.6 89.5 90.5 91.9 93.7 94.9 95.3 95.1 94.9 99.7 103 104.6 104.4 103.5 102.4 101.9 101.7 100.9 98.6 97.1 95.4 95.3 95.6 95.9 95.8 93.8 91.7 90.6 91.4 89.1 85.9 84.2 82.6 82.3 83.5 84.7 84.2 84.7 85.2 84.4 83.9 83 82.4 82.1 82.3 82.3 82.5 83 84.7 85.6 87 87.3 87.4 87.2 87.1 87 86.2 82.8 82.7 88.7 97.9 105.5 108.8 108.9 108.8 108.2 106 104.6 105.4 103.2 99 101.6 103.7 102.3 98.8 93.3 98.2 110.3 123.1 131.1 130.4 125.5 118.1 114.4 120.2 118.1 116.4 121.1 127.1 128.7 129.6 134.2 137.9 142.4 146.8 150.1 150.7 149.5 148.1 150.2 152.5 154.3 155.5 155.6 155.3 154.3 153.5 153.1 152.4 150.8 149.3 146.2 143 141.8 138.8 133.3 129.1 129.7 132.2 134.8 134.7 134.7 134.1 132.9 132.5 133.8 134.4 135.4 136.5 137.3 138.9 138.8 136.1 131.2 123.6 119.6 116.8 114 117.6 121.7 127.4 135.5 142.5 146.8 148.9 153.8 154.5 154.4 154.1 154.1 153.4 153.3 153.6
136.8 138.5 139.8 139 134.2 125.6 116.7 113.5 116.1 118.4 116.6 116.8 129 140.1 143.2 143.4 142.7 140.3 135.8 129.6 125.1 121.7 117.5 114.9 110.8 107.6 104.7 100.9 98.8 96.5 95 93.9 93.5 93.1 92.7 92.2 91.7 91.3 91 90.6 90.3 90.1 89.8 89.5 89.3 89.4 89.5 89.8 90.6 92 93.9 95.7 96.6 97.5 97.4 97.2 99.5 102.7 105 105.1 104.7 104.2 103.7 103.4 102.9 99.4 99.8 98.5 98 98.2 97.7 97.2 95.8 93.9 92.9 91.7 88.5 85.7 83.8 83 83.5 84.7 86.8 89.1 90.4 90 87.7 85.7 84.6 84.1 84.4 84.7 84.9 85 86 87.3 88.6 89.6 89.9 89.8 89.6 89.4 89.2 87.5 83.7 83.4 89.7 98.9 107.2 110.5 111 110.7 109.9 108 108.5 108.6 106.6 104.4 106.3 107.3 106 102.3 97.9 100.5 112.2 125 132.6 132.2 129.4 125.6 123.9 126.7 125.8 126.9 129.3 129.5 132.3 137.7 142.9 146.7 150.3 153.5 155.6 155.4 153.6 153.6 154.8 156.1 156.6 157.3 156.9 156.3 155 154.6 153.3 151.2 149.9 148.5 146.8 144.6 142.9 140.9 137.1 136.5 136.7 138 138.6 139.2 139.4 138.8 138.5 138.6 139.3 140.2 141.3 142.3 143.5 144.6 143.6 141 137 131.2 126.1 121.3 120.1 122.4 126.5 133.7 140.3 145.4 147.8 149.3 150.4 152.5 153 153.3 152.6 151.8 151.8 151.8
139.2 140.4 140.1 138 130.7 121.8 115.7 118.2 124.9 125.6 121 118.4 124.1 134.4 139.6 141.4 140.3 136.9 132.1 127.3 122.7 117.6 114 111.5 108.8 105.9 103.4 100.1 98.1 96 94.7 93.8 93.2 92.8 92.4 92 91.6 91.2 90.9 90.6 90.2 90 89.7 89.4 89.3 89.7 90 90.4 91.5 92.8 94.6 96.2 97.2 98.3 99.1 99.8 100 103.6 105.8 105.9 105.1 104.6 104.3 104.4 103.6 97.6 101.9 101 100.2 99.7 99.4 97.7 96.8 94.9 92.7 89.4 87.2 85.1 83.8 84.4 85.3 87 88.8 92.7 94.3 93 90.2 87.9 86.8 86.2 86.5 86.8 87.4 88.7 89.8 91.2 91.7 92.4 92.8 92.8 92.3 91.9 90.8 89 86.2 82.9 88.3 97.9 107 110.2 111 112.3 112.1 111.4 111.4 111.6 110.5 109 110.5 112.6 110.6 107.3 105.2 107.1 115 126.9 134.3 134.8 133.6 132.9 132.2 132.2 132.1 132.3 131.8 132.9 139.2 146 150.6 153.6 156.5 158 157.8 157 156.3 156.1 156.9 157.6 157.7 157.4 156.7 155.8 154.8 152.8 150.7 149.2 148 147 145.7 145.6 143.9 143 141.9 141.2 141.8 142.3 142.8 143.5 144 144.2 144.8 145.2 145.8 146.9 147.8 148.6 149.8 149.7 147.9 144.7 141.2 136.5 130.8 126.5 126.6 129.1 133.6 139.1 142.9 146.7 148.1 148.8 149.4 149.7 151.4 151.1 150.7 150.3 150.3 150.3
140.9 140.9 139.4 135.5 127.7 119.9 116.4 121.7 128.7 129.1 125.5 121.6 123.3 127.9 135.5 140.9 138.6 135.4 130.5 125.5 119.2 113.5 110.9 108.6 106.5 104.4 101.7 99.4 97.4 95.4 94.8 93.8 93.1 92.6 92.2 91.7 91.4 91.1 90.7 90.4 90.1 89.9 89.7 89.5 89.7 90.1 90.4 91.1 92.3 93.6 95.2 96.6 97.9 98.6 99.7 101.7 104 105.1 106.8 105.9 104.5 104.4 104.1 103.6 103.4 103.5 101.9 102.2 100.9 100 100 98.1 96.6 93.5 90.4 87.7 86 84.7 84.7 85.8 87.2 88.4 89.8 94 94.8 93.8 92.7 90.2 89.2 88.5 88.4 89.1 91.2 93 93.8 97.8 99 95.7 96.2 96 96 95.7 92.4 90.5 86.4 85.4 87 94.2 102.8 106.9 108.4 112 114.3 114.7 114.8 114.6 112.7 113.3 117.6 121.3 119.4 116.8 117.9 119.8 125.1 132.4 137.2 138.1 137.1 135.6 135.1 134.6 134.4 134.2 133.6 136.3 144.6 152.9 156.6 158.4 158.3 158.8 158.5 157.9 157.5 157.7 157.8 157.6 157.7 156.5 155 153.6 151.4 149.5 147.5 147.3 146.8 146.6 146.5 147 146.8 146.3 145.9 145.6 146.1 146.6 147.1 147.7 147.9 148 149.3 150.8 152.3 153.5 153.9 154.1 154.1 153.5 151.7 148.8 143.9 138.8 134.5 131.1 130.9 134.3 139 142.3 145.5 147.2 147.8 147 148.2 148.6 149.2 149.3 148.8 148.7 149.1 149.1
141.4 140.4 138.1 132 125.7 120.2 117.3 123.1 130.9 132.5 130.5 125.4 127.2 135.7 139.5 141.1 140 134.8 128.5 124 117.7 111.3 108.4 106 105.2 103.3 101.2 98.8 96.8 95.1 94.4 93.7 93 92.5 92.1 91.6 91.2 90.9 90.6 90.3 90 89.8 89.6 89.6 90.2 90.6 91 91.5 92.6 94.4 95.9 97.3 98.6 98.9 101.2 103.9 106.1 108.4 106.8 105.5 104.2 103.6 103 101.8 101.6 101 100.2 100.5 100.8 100.1 99.1 97.2 94.5 91.4 88.7 87.3 86.3 85.3 86.3 87.5 89.4 91.2 92.9 93.7 94.3 93.5 93 92.8 91.8 90.5 91.6 92.6 95.3 99.5 99 99.8 101.7 101.1 100.8 100 100.2 98.3 94.4 92.5 90 86.8 86.9 92.6 99.1 101.9 111 114.7 116.4 117.1 117.9 117.6 117 119.3 125 132.2 130 129.3 131.4 133.6 136.3 139.5 141.2 141.5 141 138.5 137 136.6 136.5 136.3 136.2 139.5 148.2 156.4 158.6 158.3 158.6 158.7 158.5 158 157.3 157.5 157.5 156.8 155.8 154 149.5 148.6 147 146 145.8 145.9 146.5 147 147.3 147.8 148.5 148.7 148.4 148.7 148.9 149.4 150 150.9 151.2 151.6 153 154.5 155.9 157 156.4 156.3 155.6 155 154.2 151.5 146.5 140.7 136.3 133.4 133.9 138.6 142.4 144.8 146.8 147.4 147.5 149.1 149.1 147.1 147 146.6 146.6 146.2 146.5 146.8
141.5 140.6 138.8 133.3 126.3 120.8 118.3 123.2 131.9 135.8 135.4 130.9 130.7 138.4 142.5 142.4 139.5 132.3 126.5 122.9 116 110 106.8 104.2 103.6 102.7 100.3 97.8 96.2 94.8 94.1 93.5 92.9 92.4 92 91.5 91.1 90.7 90.4 90.2 90.1 89.9 90 90.5 91 91.3 91.6 91.7 92.5 94.8 97.1 98.5 99.7 100.4 103.3 106.2 107.3 107.1 106.7 105.4 103.8 102.8 101.8 101.1 100.4 99.4 98.6 98.7 99.4 98.8 97.7 94.8 92.2 89.9 88.9 88.3 87 86.4 87.9 89.9 91.9 92.9 94.4 95.4 95.9 96.2 95.5 95.2 94.3 95.5 95.8 94.7 97.8 101.4 101.4 101.9 102.6 102.8 107 106.1 103.7 101.6 98.4 94.4 91.6 89.3 89.7 96.1 102.5 109.6 115.2 117.1 119.1 121.3 121.3 122.5 121.5 125.1 133.2 140.4 140.2 139.6 141.4 142.9 144 145.4 146.5 146.8 145.4 142.3 139.9 140 140.5 140.1 141.7 145.1 150.2 155.9 157.7 157.8 157.8 158.1 158 157.5 157.1 156.3 155.1 153.5 151.2 148.9 145.8 144.4 144.3 144.3 144.4 145.1 145.8 146.3 147 148.1 149.5 150.2 150.9 151.5 151.7 152.2 152.7 153.1 153.7 154.1 154.9 155.8 157.2 157.9 157.6 156.4 155.7 155 153.9 151.7 148.3 142.9 137.9 136.7 140.2 143.5 146.1 147.1 147 146.9 148.4 146.8 146.2 145.5 145.2 144.8 144.7 144.8 145.1 145.5
141.9 141.3 139.9 135.1 127.7 121.1 120.2 126.5 134.5 139.7 139.2 136.5 136.4 140.6 144.5 142.5 138.3 130.9 124.5 119.2 113 108.5 105.4 102.6 101.9 101.4 99.4 96.7 95.3 94.5 94 93.4 92.8 92.3 91.9 91.4 91 90.8 90.7 90.7 90.5 90.4 90.8 91.5 92.5 92.7 92.7 92.5 93.8 96.2 97.9 99.8 100.8 102.1 104 107.7 108 107.7 106.9 105.5 103.4 102.2 101.8 101.5 100.2 98.3 96.2 95.5 95.7 95.7 94 92.4 91.4 90.8 90.8 89.6 87.6 87.5 89.7 92.3 94.3 95.3 95.7 96.8 98 99.3 98.8 98.2 98 97.7 97.6 98.5 100.7 105.5 111 111.4 110.6 111.2 113.9 113.8 109.7 105.5 101 95.4 92.9 90.3 93.5 100.7 110.3 117.1 120.5 122.3 123.1 122.7 125 126.7 130 135.6 141.6 145.3 145.9 146.5 147.6 148.7 150 151.2 152.4 151.9 149.5 144.3 144.7 145.4 145.9 146.2 147.8 151.2 153.9 155.7 156.4 156.6 156.5 156 155.7 154.4 153.2 151.8 150.2 148 145.5 143.3 142.5 142.5 142.4 142.9 143.7 144.4 145.1 145.7 146.5 147.5 149.4 151 153 154 153.7 153.8 154.2 154.6 155.1 155.4 156.1 156.9 157.7 158.1 158 156.7 155.3 154.1 153.1 151.3 148.7 145.4 143.1 144.3 146.2 146 146.7 147.5 146.8 148.3 146.3 145.4 144.7 143.8 143.2 143 143.1 143.4 143.7 144.1
142.3 141.7 140.5 134.9 127.7 121.9 123.1 131.2 139 143.9 144 142.3 143.3 145.2 146.6 142.7 135.8 128.3 122.1 114.2 110.6 107.3 104 101.8 100.2 99.7 98.4 96.1 95 94.5 93.9 93.3 92.7 92.3 91.8 91.4 91.3 91.2 91.1 91.1 91 91 91.8 92.7 93.7 94.2 94.4 95.1 96.3 98.4 100.1 101.3 102.6 103.9 105.6 108.4 109.2 108.8 107.5 105.7 103 102.2 102.3 102.3 100.8 98.8 97.2 94.9 94 94.4 94.5 93.1 93.4 93.6 92.2 90.2 88.5 90.5 92.4 94.7 96.5 96.9 97.2 99.1 100.7 103.1 105.1 105 103.7 102.6 100.7 101.9 105.7 109.7 112.3 113.3 113.7 113.7 114.5 114.1 113 108.2 103.6 100.5 96.2 91.9 97.4 109 117.2 121.7 126.4 127.3 129.7 129.6 130.6 135.7 140.6 144.5 147.6 148.8 149.5 150.2 151.6 153.4 154.7 155.3 156.3 155 151.8 148.9 150.3 150.6 150.3 150.7 151.8 153.5 154.1 153.8 153.2 152.9 152.6 152.3 151 149.6 148.2 146.5 144.6 142.6 141.3 141.1 140.2 140.4 140.8 141.5 142.7 143.7 144.4 145.1 146.1 147 148.6 150.6 152.2 152.3 151.7 152.8 154.5 155.3 156.2 156.6 157.3 158.1 158.5 158.3 158.3 157.1 155.5 154.3 153.4 152.2 151.1 149.8 149.9 149.7 148.8 147.6 146.3 147 147.6 145.9 144.9 144 143.2 142.2 140.7 140 140.2 141 141.8 142.8
142.8 142.1 140.7 135.2 127.2 123.1 127.6 136 143.4 146 146.8 146.8 147.6 148.1 145.9 140.1 132.8 125.8 118.9 111.8 108.4 105.6 103.2 101.2 99.5 98.1 96.8 95.5 94.9 94.4 93.8 93.2 92.7 92.2 91.8 91.8 91.7 91.6 91.5 91.5 91.5 92 93 94 94.9 95.6 96 97 98.6 100.5 102.2 103.6 104.9 106.2 107.6 109.4 110.4 110 108.5 107.1 103.3 103.8 104.4 103.5 101.8 99.8 98.8 96.8 96 95.3 95.1 95 95.5 95.6 92.9 89 92.1 93.7 96.3 99 100.7 101.5 99.7 102.8 105.9 111.1 113 113.8 111.7 109.9 103.9 106.3 111.5 113.4 115.6 116.4 116.4 116.1 115.9 115.9 115.1 110.9 107.8 105.4 98.9 94.7 97.8 114.1 119.5 121.9 126.3 132.5 132.6 131.3 132.7 141.7 147.4 149.5 150.9 152 153 154 154.7 156.2 156.7 157 156.7 155.6 154.1 153 152.5 151.6 151.1 151.1 151.4 151.9 150.7 149.7 148.9 148.7 148.6 148.1 146.4 145.1 143.7 142.2 140.3 139.3 138.7 138.5 138.2 138 138.7 140.2 141.4 142.6 143.6 144.2 145.1 146.2 147.3 147.7 148.5 149.5 150.4 152.6 154.6 155.8 156.9 157.9 158.5 159.3 160.2 160 159.7 158.7 157.4 156.5 156 154.7 153.9 152.7 151.8 150.6 149.7 148.2 147.3 147.3 145.7 144.5 143.3 142.5 141.6 140.6 137.2 134.6 134.7 136.9 140.2 141.6
143.2 142.4 140.7 135.4 127.5 125.2 132.7 140.9 145.3 147 147.8 148.5 148.5 148.4 144.1 136.2 128.3 121.1 115.4 110.5 106.9 104.3 101.8 100.3 98.8 97.5 96.2 95.4 94.8 94.3 93.7 93.1 92.6 92.1 92.2 92.2 92.2 92.1 92 91.9 92 93 94 95 96.1 97 97.7 98.4 100.5 102.8 104.6 105.9 107.2 108.5 110.4 111.6 111.9 111.7 110.9 110.1 109 108.4 107.3 105.9 104.2 102.2 102.2 98.9 98.1 97.5 96.6 96.1 96.3 96.5 92.1 92 96.6 97.6 100.5 103.1 104.8 105.1 103.1 107.9 113.6 120 120.3 120.7 118.6 115.9 111.4 109.5 114.3 115.8 117.1 117.8 117.9 117.7 117.2 116.7 116.7 112.5 109 107.9 99.5 96.9 99.1 114.7 119.5 121.5 124 123.7 124.5 124.6 129.4 137.2 144.8 148.9 152.3 153.8 154.7 155.5 156 156.4 156.7 156.7 156.1 155.3 153.8 153.1 152.3 151.7 151.1 150.5 149.9 148.7 147.4 146.2 144.6 144 143.8 143.9 142.9 140.8 139.2 137.1 134.7 132.8 133.6 134.7 135.7 137.1 139 139.7 140.7 141.5 142.4 143.4 144.3 145.9 147 147.7 149.2 150.7 152.2 153.5 155.1 156.2 157.2 158.3 160.1 161.6 162.7 162.5 162 160.8 159.6 158.5 157.6 155.8 154.5 153.2 152.1 150.9 149.6 147.4 146.7 145.9 144.7 143.1 141.8 140.9 140 138.7 135.7 129.9 128.3 132.7 138.5 140.3
143.5 142.5 140.4 134.7 127.3 129 136.8 144.1 146.4 147.5 148.5 149.2 148.8 146.5 140.4 130.7 123.2 118.1 113.6 109.2 106.1 103.4 101 99.6 98.1 96.9 95.9 95.2 94.7 94.1 93.6 93 92.5 92.4 92.5 92.5 92.5 92.5 92.5 92.4 92.9 94 95 96.3 97.6 98.4 99.2 100.5 102.5 105 107 108.2 109.6 111.1 112.5 113.5 113.7 113.8 112.7 112.2 112.2 112.2 110.7 110 108.7 108.6 104.1 100.6 100 99 98.1 97.1 96.3 94.7 90.9 96.9 100.5 101.4 103.5 106 108.3 108.1 106.9 112.6 119.3 124.7 124.1 122.5 120.3 117.8 112.9 111.7 114.9 117.4 118.5 118.8 118.8 118.6 118.2 117.1 115.6 113 110.7 102.9 98.1 97.4 98.9 105.2 118.2 118.8 118.9 119.2 120.2 122.2 125.8 131.5 138.6 147.2 153.2 154.6 155.3 155.9 155.8 156.3 156.7 156.1 155.5 154.6 153.4 152.4 152 151.6 151.2 150.6 149.6 148.4 147 145.5 144.6 139.6 137.2 137.1 136.5 133.3 130.1 127.9 129.6 135.1 136.2 136.3 137.6 139.2 140.7 141.9 142 142.2 143.1 143.7 145.2 147.5 148.9 150 151.6 153.1 154 154.7 156.2 156.9 157.4 158.9 161.3 163.5 164.6 164 162.5 160.8 159.5 158.1 156.6 155.1 153.6 152.4 151.1 150.3 148.4 146.9 145.8 144.7 143.6 142 140.4 139.4 137.8 135.9 132.3 125.5 123.1 130.1 136.3 138.5
143.7 142.5 139.6 133.2 129.1 134.4 141.6 145.6 146.6 147.7 148.8 149.1 148 143.3 134.6 126.1 120 114.9 110.8 107.3 105 102.5 100.3 98.9 97.5 96.5 95.7 95 94.4 93.9 93.4 92.9 92.7 92.7 92.8 92.9 92.9 92.9 92.9 92.9 93.7 94.8 95.9 97.7 99 100.1 101.4 102.7 104.6 107.1 109.2 110.5 112.1 113.7 114.6 115.2 115.4 115.6 115.5 114.5 114.4 114.3 114 113.5 112.9 111.4 107.5 104.3 101.1 100.9 100.2 98.8 96.4 93.4 95.8 100.8 103.3 103.7 104.9 107.8 110.7 111.8 112.8 118.6 123.4 126 125.4 123.7 121.7 120.1 118.5 117.2 118.2 118.9 119.5 119.8 119.6 119.4 118.7 117.6 115.2 110.1 106.8 104.8 101.7 100.7 101.9 102.9 108.3 111.9 114.5 116.2 118.5 122 126.5 131.7 135.9 143.8 150 153.6 155.5 155.2 155.7 156.1 156.3 155.6 155 154.5 153.5 152.7 152.2 151.8 151.4 150.8 150.2 149.2 148.2 147.2 146.3 142.5 135.9 129.9 128.2 125.5 126.9 134.5 139.2 141.9 141.7 141.4 142.4 144.4 144.9 145.4 145.5 146.2 145.9 147.3 148.9 151 152.4 152.7 154.3 155.8 156.4 156.7 157.1 157.8 158.1 159 161.6 163.5 164.3 162.9 161.3 159.8 158.4 156.9 155.5 154.2 152.8 151.5 150.2 149.8 147.8 146.2 145 143.8 142.6 141 139.5 137.4 134.5 132 127.5 120.4 119.1 125.9 133.2 135.9
143.7 141.7 137.7 131.9 132.9 140.1 144.1 146.6 147.5 148.6 149.3 148.4 144.8 137.7 128.7 122.6 116.9 111.6 108.1 105.6 103.3 101.1 99.4 98.1 97.1 96.3 95.5 94.8 94.2 93.6 93.3 93 93 93.1 93.1 93.2 93.2 93.2 93.2 93.8 94.5 95.6 96.7 98.7 100.7 102 103.8 105.8 107.4 109.6 111.3 112.8 114.4 116 116.9 117.4 117.8 118 118.5 116.5 116.3 116.1 115.4 114 112.8 110.5 107.7 106.8 105.3 103.3 102.9 102.1 97.9 93.1 99.7 103.5 105.5 106 106.6 108.6 111.1 113.9 116.5 123.9 127.7 127.5 126.4 125.3 124.2 123 121.9 121.3 120.9 120.8 120.8 120.8 120.4 120.1 119.3 118.7 115.8 110.5 112.3 112.1 108.5 106.1 107.7 110.1 108.8 112 113.5 115.1 118.9 126.8 135 140.3 144 148.4 150.8 153.8 155 155.3 155.4 155.8 155.9 155.3 155 154.7 153.7 152.9 152.5 152 151.6 150.6 150.2 149.4 148.8 148.4 146.7 144.3 139.1 130.3 122.7 122.6 130.7 139.9 144.6 146.8 147.4 147.6 148.7 149.6 149.9 150.4 150.5 151.8 151.3 151.8 153.4 155 156.9 156.6 158.2 158.6 159.4 159.3 159.3 158.7 158.7 159.5 161.6 162.8 162.6 161.2 159.9 158.7 157.2 155.8 154.3 153 151.7 150.4 150.1 147.7 146.4 145.5 144.3 143.1 142 141.3 139.9 138.4 135.7 131.2 124.7 117.4 114.4 119.1 127.1 132.4
143.7 140.6 134.9 132.8 139.2 144.6 145.9 147.4 148.3 149.1 149.4 147.4 141.2 132.5 124.1 118.5 113.5 110.1 106.6 104.1 101.9 100 98.6 97.7 96.8 96 95.3 94.7 94.1 93.7 93.4 93.3 93.3 93.4 93.5 93.5 93.5 93.6 94.2 94.7 95.3 96.4 97.9 100.1 102.1 104.4 106.4 108.5 110.3 111.9 114 115.5 116.9 118.3 119.4 119.9 120.1 120.2 119.8 118 117.6 117.2 116.2 115.3 113.1 111.8 111.7 110.5 107.8 108.7 103.3 101.9 97.7 93.3 101.5 105.2 106.9 108.8 110 111 112.4 114.6 118.4 125.8 130.3 129.8 129.1 128.1 126.9 126.2 125.4 125 124.5 123.7 122.6 122.1 122 121.6 120.9 120 119 116.5 117 117.7 113.9 112.4 114.5 116.3 111.9 114.2 116 117.2 119.4 128.5 139.5 146.5 150.4 152.4 154 155.3 155.8 156 156 156 155.7 155.4 155 154.7 154 153.2 152.7 152.2 151.4 150.3 149.3 148.8 148.1 147.2 145.9 143.2 137.3 129.8 121.3 120.7 127.2 138 147.6 150.8 150.9 151.5 151.9 152.4 153 153.7 154.5 155.5 156.4 156.9 157.8 158.9 162.6 159.7 159.6 159.6 159.8 159.5 159.2 158.7 158.7 159.2 160.3 161.3 160.8 159.6 158.4 157.4 156.1 154.6 153.1 151.8 150.4 150.2 147.3 145.4 145 144.3 143.6 142.4 141.4 140.7 139.9 138.9 137.2 134.1 127.8 120.3 112.6 113.6 119 122.5
142.9 138.7 136.8 136.5 143.9 146.3 147.2 148 148.8 149.6 149 144.9 137.3 127.8 120.1 113.7 110.5 107.9 105.4 103 101.3 99.4 98.3 97.4 96.6 95.9 95.3 94.7 94.1 93.7 93.6 93.6 93.7 93.7 93.8 93.8 94 94.6 95 95.7 96.7 97.8 99.5 101.7 103.7 106.2 108.6 110.6 113 114.7 116.8 118.3 119.5 120.8 121.5 121.8 122 121.8 120.9 119.7 118.9 118 117 116.1 115.3 114.9 115.2 114.8 112.2 111.9 105 100.6 97.2 94.1 103.7 106.7 108.1 108.9 109.5 111.4 113.9 116 118.7 124.8 131.2 132.5 132.1 131.3 129.5 128.4 128.9 128.4 127.8 126.7 124.8 125.4 125.1 124.7 123.9 122.9 121.3 120.1 122.2 119.7 116.6 115.8 118.3 120 116.6 116.4 118.2 124.4 122.9 127.2 138.1 148.5 153.5 155.5 156.6 156.8 156.9 156.8 156.6 156.5 156.2 155.8 155.3 154.8 154.2 153.4 152.8 152 151.2 149.6 146.9 144.3 143 142.2 141.1 138.6 133.8 127.2 120.1 118.2 126.3 136.6 147 151.6 151.8 151.3 151.1 151.1 152.5 153.9 155.4 156.6 157.5 158.1 158.9 159.1 159.5 159.1 159.1 159.2 158.9 158.6 158.1 157.9 157.8 158 159 159.6 158.9 158 157 155.9 154.9 153.5 152 150.5 148.6 146.9 145.7 143.9 143.6 143 142 141.3 140.4 139.5 138.7 138 136.5 134.2 129.7 122.3 113.9 108.4 112.4 116.3
142.8 139.9 143.2 143.5 145.2 147 147.9 148.6 149.3 149.8 147.7 140.9 132.5 124.3 116.5 110.7 108.8 106.4 104.3 102.4 100.8 99.2 98.1 97.1 96.5 95.9 95.2 94.7 94.1 93.8 93.8 93.8 93.9 93.9 94 94.1 94.5 95.4 96.3 97.2 98.3 99.7 101.2 103.2 105.3 107.9 110.4 112.8 115.2 117 118.6 120.2 121.6 122.2 122.6 122.9 122.8 122.2 121.6 120.8 119.8 118.8 117.8 116.8 116.2 116.8 116.4 114.2 111.9 109.6 105.5 101.5 100.3 96.8 104.5 106.8 107.5 108.1 108.7 109.8 112.6 116.1 119.5 123.7 128.7 130.5 131.9 131.8 129.9 129.7 131.4 131.4 131.3 129.5 129.9 129.9 129.3 127.9 126.9 125.7 124.2 123.2 124.8 123.5 120 119.7 122.5 123 121.3 120.4 121.3 120.3 120.6 123.8 134.7 143.4 151.9 157.4 158.1 158 158.1 157.6 157 156.8 156.3 155.7 155.1 154.6 154.1 153.4 152.9 152.3 151.1 149 145.6 141.5 137.8 136.6 135 132.9 129.2 123.6 118.1 115.8 123.6 133.7 143.1 149.1 149.7 149.4 149 149.6 150.9 152.9 154.5 155.8 156.7 157.6 158 158.1 157.8 157.7 157.9 157.7 157.3 156.9 156.5 156.2 155.9 156.4 157.6 157.8 157.3 156.7 155.6 154.5 153.4 152.4 150.9 148.5 146.6 145 143.7 142.1 141.5 140.9 140.1 139.1 138.3 137.3 136.6 135.8 134.4 132.7 128.8 119.9 110.8 102.8 108 115.6
143.2 144.6 146.1 146.5 147.6 148 148.5 149.2 149.8 149.3 144.6 137.5 129.7 121.6 114.1 109.8 107.7 105.6 103.6 101.9 100.3 99.1 98 97.1 96.5 95.8 95.2 94.6 94.3 94.2 94.1 94 94 94.1 94.2 94.5 95 96.4 97.6 98.7 100 101.5 103.1 104.7 107 109.5 111.8 114.3 116.6 118.4 120.1 121.9 122.5 122.7 123.1 123.3 122.9 122.4 121.7 121.1 120.2 119.3 118.4 117.4 116.5 115.6 114.9 112.6 110.3 108.3 106.4 105.4 103.2 98.5 104.1 104.7 107.1 108.1 108.8 109.5 110.9 113.5 117.4 121.4 123.8 125.4 126.6 127.2 127.1 128.2 129.7 133.3 134.6 135.2 135.2 134.4 132.8 131 129.3 127.8 126.2 126.3 127.4 127 123.2 121.6 125 125.9 125.4 124.9 124.3 123.5 122.6 124.2 130.9 138.9 149.2 158.1 159.7 159.4 159 158.4 157.7 157.2 156.3 155.5 154.9 154.3 153.7 153.1 152.5 151.8 150.6 148 144.3 139.5 133.4 130.9 129 127.1 122.5 118.3 115.5 112.8 119.9 129.9 138.5 145.4 146.1 145.5 144.2 143.9 145.9 148.9 150.9 153.6 155.3 156 156.5 156.4 156.4 156.3 156.1 155.9 155.6 155.1 154.4 153.8 153.5 154.6 156 156.2 155.9 155.3 154.4 153.3 152.2 150.7 148.9 146.7 144.9 143 140.4 139.2 138.5 137.7 136.9 136.2 135.1 134 132.9 132.7 131.6 129.6 125.2 116.6 107.8 100.1 110.9 118.2
144.8 146.2 147.3 147.9 148.3 148.8 149.2 149.7 149.6 147.2 141 133.2 126.9 119.4 112.6 109.2 107 104.9 103 101.4 99.9 98.9 97.9 97.1 96.4 95.8 95.2 94.9 94.7 94.5 94.4 94.2 94.2 94.2 94.5 95 95.4 97.1 98.3 99.5 101.5 102.9 104.2 106.1 107.4 109.7 112 115.2 117.8 119.7 120.9 121.7 122.2 122.8 123.6 123.3 123.1 122.5 121.9 121.2 120.2 119.1 118 117.2 116.9 115.9 114.8 113 111.1 109 109.1 108.5 104.8 99.8 102.4 104.9 108 109 110 111 112.6 113.5 114.3 116.9 119.7 121.4 122.7 123.8 125 127.7 130.6 135.2 139.1 138 138 136.5 134.7 132.6 130.7 129 128.4 129.1 129.9 129.6 126 122.4 129.1 129.1 128 127.3 126.7 125.9 125.5 125.4 129.1 137.7 147.8 157 159.8 159.6 159 158.3 157.6 156.9 156.1 155.3 154.5 153.6 152.9 152.3 151.6 150.5 148.6 145.6 142.6 139.4 136 133.6 129.8 125.3 122.5 120.5 117.1 112.8 116.2 126.3 136.1 141.7 141.2 139.4 137.4 137.3 138.9 141.1 144.7 149.2 152.6 154.2 154.8 154.6 154.5 154.3 154.1 153.7 153.4 153 152.4 151.6 151.3 152.9 154.4 154.5 154.3 153.9 153.2 152.2 151 148.4 146.7 144.8 143 140.4 136.6 134.7 132.8 132.6 132.5 131.4 129.9 128.1 126.6 125.8 126.4 126.1 119.9 110.9 102.7 103.6 113.5 120.9
146.6 147.3 148.2 148.7 148.7 148.7 149 149.6 148.4 144.2 136.8 128.8 123 116.6 112.2 108.9 106.2 104.1 102.5 101 99.5 98.7 97.8 97 96.4 95.9 95.5 95.2 95 94.9 94.8 94.5 94.3 94.6 95 95.5 95.9 97.5 99.1 100.2 102.2 104 105.5 106.8 107.7 108.8 111.3 115.5 117.8 118.8 120.4 121 121.7 122.4 122.9 122.9 123 122.5 121.5 120.5 119.5 118.6 117.6 117.2 116.8 116.6 115.9 114.6 112.3 110.5 112 110.7 105.5 100.8 105.2 108.1 109.9 111.1 111.9 113.1 115.7 117.8 118.3 118.7 118.5 119.6 120.7 122.2 124.9 129 135.4 140 141.2 141.3 140.4 139.2 137.4 134.1 131.8 131.2 131.3 132 132.6 131.6 128.6 126.8 128.5 131 130.3 129.7 128.6 127.5 126.7 126.9 130.2 139.1 146.9 154.8 159.1 158.9 158.3 157.7 157 156 155 154 153.2 152.4 151.8 151.1 150.4 149 147.7 146.3 145.3 143.4 140.7 139.5 136.2 133.3 130.1 126.1 118.7 112.8 113.4 122.2 131.6 135.8 135.1 133.4 131.4 129.9 131 133 137.7 142.6 147.3 150.6 152.6 152.7 152.2 152.4 152.1 151.5 151.1 150.7 149.8 148.9 149.2 150.9 152.2 152.8 152.6 152.2 152.1 151.6 149.4 148 146 144 141.8 137.5 133.9 129.8 125.8 124.8 124.5 123.3 121.2 119.1 117.6 116.3 117.4 118.7 115.5 105.6 100.1 104.5 114.3 121.8
148.1 148.7 149.2 149.5 149.5 149.6 149.6 148.6 144.8 139.7 132.8 125.6 120.5 115.8 111.3 108.5 105.7 103.6 102.1 100.6 99.2 98.4 97.7 97.1 96.6 96.1 95.7 95.5 95.4 95.3 95.2 95.1 94.8 95.1 95.5 95.9 96.4 97.9 99.5 101.1 102.4 103.7 104.4 105.1 106.1 107.4 108.8 110.9 112.6 116.5 119.8 121.2 122 122.7 123 123.1 123.1 122 120.8 119.8 118.8 118.1 117.6 117.1 116.9 116.8 116.6 115.2 113.2 112.5 112.3 109.8 105.2 102 106.1 109.4 111.2 112.8 113.6 115.1 117.2 120.4 122.8 123.9 122.6 121.3 122.3 122.6 124.8 128.9 136 143.5 145.4 144.1 143.4 142.8 140.2 137 133.9 134.5 134.7 135 134.7 133.6 131.4 130.3 129.1 130.6 131.9 131.4 130 128.6 127.7 128.3 132.3 141.7 156.8 157.3 158.6 158 157.4 156.3 155.3 154.6 153.6 152.6 151.8 151 150.2 149.9 149.7 149.3 148.4 146.9 145.5 144.3 141.8 142.1 140.3 137.8 134.1 129 121.7 113.4 111.6 117.7 125 128.6 128.9 127.3 125.2 123.6 123.5 125.5 130.3 135.3 140.5 145.1 148.7 150 150.2 150.4 150.1 149.5 148.6 147.1 145.9 144 144.6 146.9 150 150.8 151.2 151.5 151.5 149.3 147.7 146.3 144.9 143.7 141.7 139.6 136.6 132.8 129.3 118.8 117.2 116 113.7 111.4 108.7 108.5 108.1 110.3 110.5 103.5 100.1 104.5 112.9 121.3
148.8 149.4 149.9 150.2 150.3 150.4 149.5 146.7 141.2 134.4 127.1 121.5 117.7 114.1 110.4 107.9 105.5 103.3 101.8 100.2 99 98.3 97.7 97.2 96.8 96.4 96 95.9 95.8 95.7 95.6 95.5 95.4 95.6 96 96.5 96.9 98 99.2 100.4 101.6 102.4 103.2 103.9 104.5 105.9 107.1 108.8 114 116.5 119.3 120.9 122 123 123.2 123.2 122.9 121.7 120.3 119 118 117.3 116.7 116.4 116.3 116.4 115.9 114.8 112.5 111 111 106.5 103.3 102.3 106.4 110.2 111.9 113.6 115.3 116.6 118 121.3 125.2 127.4 126.6 125 125.9 126.2 126.7 128.1 131.6 139 144.9 146.9 146.4 145.2 142.7 139.5 136.4 136.4 137.7 137.7 137.1 135.9 133.8 132.7 131.9 132.6 134.1 133.5 132.2 131.5 129.6 129.6 135.2 154.5 155.9 157.3 157.3 156.7 155.9 154.6 153.6 153 152.2 150.5 148.9 147.8 147.2 146.8 146.5 144.8 142.6 140.8 139.4 138.2 137.9 140.4 141.2 138.8 135.1 130.1 124.2 117.4 111 113 121.8 124.3 123.3 121.9 120.6 119.4 119.3 120.2 123.4 128 133.5 139.5 143.4 148 147.9 148.4 148.1 147.2 144.6 142.7 139.6 137.5 139.6 143.2 147 148.5 148.8 150.2 148.9 147.7 146.1 144.5 143.1 141.5 140.1 138.7 136.8 133.5 130.5 120.3 121.1 121.2 120 118.4 114.1 107.5 102.5 102.2 105.4 102.4 93.2 103.9 112.8 120.6
149.5 150 150.5 150.9 151.2 151.4 150.2 146.6 139.9 131.7 123.2 119 115.7 112.2 109.3 107.5 105.1 102.9 101.2 100 98.9 98.2 97.8 97.4 96.9 96.5 96.3 96.2 96.1 96 95.9 95.8 95.7 95.6 95.9 96.4 96.9 97.5 98.5 99.7 100.6 101.2 101.9 102.7 104.1 104.8 106.6 110.4 114.6 117.4 119.8 121.4 122.5 123.2 123.3 123.2 122.6 121.3 120 118.7 117.3 116.5 116 115.8 115.4 115.1 114.3 113.5 110.8 108.2 107.1 104.3 104.5 103.5 106.6 110.1 111.5 113.6 116.1 118 119.3 122.3 126.1 129.8 129.9 129.2 130.5 131.2 131.8 132.8 133.3 135.6 140.7 146.8 148.4 147.8 146.5 143.5 142.4 140.8 140.6 139.9 139.2 138.2 136.1 135 134.7 134 135.3 134.9 133.8 133.2 130.5 130.5 132.7 137.8 145.1 151.2 154.1 154 153.6 152.7 151.7 150.2 148.6 145.9 144.1 142.6 141.5 139.8 138.9 136.9 135.5 133.9 132.7 131.5 131.8 134.6 134.9 133.7 131.6 127.7 123.8 120.4 114.4 109.7 116.9 118.1 117.3 117.1 116.7 116.3 116.3 116.9 118.4 121.3 126.4 134 140.9 145.2 147.4 146.8 146.3 144.3 140.2 136.3 132.5 131.5 135.4 139.6 143.6 145.9 148 147.4 146.7 145.9 144.6 142.9 141.4 140 138 135.8 133.8 134.1 130.2 128.2 130.2 130.2 128.5 125.9 119.5 112 105.7 100.4 99.8 99.4 91.5 101.7 112.1 118.8
150.1 150.6 151.1 151.7 152.7 152.5 150.8 146.9 139.1 132.6 124.6 118.8 114 110.5 108.4 106.8 104.6 102.3 101 99.9 98.9 98.3 97.9 97.5 97 96.8 96.7 96.6 96.5 96.4 96.3 96.2 96.1 95.9 96 96.5 97 97.5 98 98.8 99.7 100 100.8 102.3 103.6 104.6 106.3 110.3 114.6 117.7 120.1 122 122.7 123.4 123.3 122.9 122.3 121 119.7 118.4 117.2 116.1 115.3 114.4 113.8 112.7 111.7 110.4 107.5 106.1 106.6 106.4 107.4 106.1 105.3 109.3 112 114.5 117 119.2 121 123.6 127.4 131.2 132 132.2 135.1 138.1 141.4 142 142.2 142.4 144.3 148 149.6 149.3 148.7 148.1 147.4 145 143.3 142.6 141.2 139.8 138.1 137.3 137 136.6 135.8 135.6 134.1 134.6 133.5 132.3 133.1 135.2 138.9 144.5 149 150.1 150.4 149.4 148.4 146.6 144.4 141.9 139.3 137.6 136.1 134.4 132.5 131 129.9 129 128 127.1 127.2 129.3 130.1 129.3 127 124 122 120.1 118 113.4 109.6 104.7 106.9 109 111 111.8 112.9 112.6 115.8 118.5 123.4 130.6 136.8 140.6 144 143.5 144 142.9 138.8 133.8 127.2 125.9 129.7 135.2 140.8 143 145.6 145.4 145.1 144.2 143.3 141.9 140.3 138.8 137.5 134.7 133.9 132.9 133.8 134.3 134.7 134.1 132.1 129.6 123.9 117.2 112.1 106 99.2 94.3 91.5 96.2 108.7 115.7
150.8 151.3 151.7 152.8 153.2 153.1 151.8 147.4 142 135 125.1 117.2 112.3 109.7 107.6 105.7 103.5 101.6 100.7 99.8 98.8 98.4 98 97.6 97.4 97.2 97 96.9 96.8 96.7 96.6 96.5 96.4 96.3 96.4 96.8 97.3 97.8 98.3 98.6 99.9 100.2 101.3 102.2 103.1 104.3 105.8 108.8 114 117.7 120.4 122.3 122.9 123.3 123 122.7 122.4 121.3 120.1 118.8 117.4 116.4 115.6 114.3 112.5 111.1 109.8 108.1 106.3 107.3 110.3 112.3 111.5 108.7 106.4 108.8 111.9 114.7 117.6 120.3 123.4 126.3 129.5 131.9 133.5 134.7 137.4 141.3 149.8 150.9 150.1 149.5 150 150.5 150.5 150.4 150 149.5 148.7 147 145.5 144.1 142.7 141.3 139.9 139.4 139 138.6 137.8 137 137.3 136.2 135.2 134.3 133.9 133.8 134.9 139.1 143.7 146.1 147.1 146.1 145.3 143.4 140.8 138 136.1 134.5 132.9 131.4 129.9 128.9 128.2 127.9 126.8 125.1 124.7 125.6 126.3 125.1 124.3 123.5 121.9 123.6 123.2 119.2 113.6 108.4 102.6 101.5 102.9 105.6 114 115.8 117.4 119.4 121.8 126.8 133 136.6 138.2 139 138.5 137.5 135.6 131.9 126.3 121.1 125 130.3 137.1 143 144.5 144.4 144.3 143.6 142.9 141.9 140.7 138.9 137.4 136.4 136.9 137 138.1 138.5 138.4 137.7 137.1 134.9 129.9 124.2 118.1 111.8 106.1 100.3 93.7 91.5 99.3 110.8
151.8 152.3 152.3 152.8 153.5 153.6 152.6 149.3 142.6 133.4 123.4 115.8 110.9 108.7 106.7 104.4 102.4 101 100.1 99.4 98.9 98.5 98.2 98 98.2 97.9 97.6 97.2 97.2 97.1 96.9 96.8 96.7 96.6 96.8 97.1 97.6 98.1 98.5 98.8 99.6 100.4 101.3 102.1 102.9 104.6 105.5 108.8 113.6 117.7 120.1 122 122.6 123 122.9 122.4 122.1 121.8 120.6 119.2 118.1 117 115.8 114.3 113.2 112.4 111.3 108.6 107.7 111.2 114.3 115.7 114.3 111.5 108.7 109 112.1 115.4 118.6 121.9 125.1 128.1 130.2 132.3 134.3 135.7 137.1 139.9 145.6 150.6 152.8 153.2 152.6 151.9 151.2 151 150.7 150 149.4 148.1 147 145.6 144.2 142.8 141.7 141.3 140.9 140.5 140.1 139.6 138.8 137.9 137.1 136.5 135.6 135.1 136.7 138 140.5 143 144.8 143.7 142.4 140.3 137.9 136 135 134.6 133.8 133 131.8 131.4 131.2 131 129.3 125.9 123.4 122.6 122.7 121.6 122 122.1 120.1 118.7 116 112.2 107.9 103.9 101.1 99.6 98.9 103.8 115.2 116.9 118.7 122 123.4 124.3 128 132.5 137 137.1 136.9 135 128.3 125.6 121.1 118.8 121.1 129 136.4 143 144 144.4 144 143.3 142.4 141.5 140.9 139.9 140 139.2 139.5 140.4 140.8 141.1 140.7 140.5 139.8 137.6 134.8 130.2 123.8 117 111.7 106.7 98.9 91.5 88.9 101.4
152.9 152.8 153 153.3 153.8 153.7 152.6 149.7 141.9 131.7 121.1 114.6 110 107.8 105.2 102.7 101.5 100.4 100 99.6 99.1 98.7 98.4 98.6 98.8 98.7 98.4 98.1 97.7 97.3 97.2 97.1 97.1 97.1 97.2 97.4 97.8 98.3 98.7 99.8 100.2 100.7 101.2 102 102.5 104.4 106 108.8 113.7 117.2 119.4 121.2 121.9 122.6 122.7 122.1 121.7 122.3 121 119.9 118.5 117.2 115.8 115.5 115.2 114.8 113.4 109.9 110.9 114.4 116.8 117.7 117.2 114.4 111.9 111.6 114.1 117.2 120.5 123.5 126.7 128.8 130.7 132.4 133.2 135.1 136.5 139.6 143.6 149 155.9 153.7 153.3 152.3 151.4 150.9 150.7 150.5 150 148.9 147.8 147 145.6 144.2 143.7 143.3 142.9 142.4 142.1 141.9 141.3 140.2 139.8 139.3 138.9 139 139.2 140.1 140.6 141.4 142.6 141.2 140 138.8 137.6 136.7 136.3 135.8 135.9 135.2 134.6 134.1 133.8 132.1 129.8 126.8 123.2 121.6 120 117.4 113.1 112.8 110.5 108.3 106.8 105.7 105.2 103.9 102.8 101.2 98.5 97.6 102.7 109.1 113.7 120.3 123.4 125.7 125.4 134 135.7 136.9 141.3 142.7 144.9 126.8 118.1 118.7 122.5 129.7 136.4 142.6 144.8 145.4 144.8 144.1 143.8 143.4 142.9 141.6 141.5 142 142 142.1 141.9 141.8 141.8 141.1 139.9 139 136.7 133.5 128.4 122.1 115.9 110.5 104.6 96.4 89.4 94
153.5 153.4 153.6 153.9 154 153.7 152.6 147.2 137.6 128 118.9 112.9 109.2 106.7 104 101.7 100.8 100.5 100.2 99.7 99.3 98.9 99 99.2 99.4 99.5 99.2 98.9 98.5 98.2 97.8 97.4 97.3 97.4 97.6 97.8 98.1 98.6 98.9 100 100.7 101.2 101.7 101.7 103.1 104.7 106.6 108.9 113.6 117.1 118.7 120.4 121.1 121.8 122.1 121.6 121.3 122.6 121.2 119.8 118.5 117.2 116.8 116.5 116.1 115.7 114.3 111.7 113 116.1 118 119.2 119 117.9 116.2 115.8 117.5 120.3 122.9 125.3 127.2 128.9 130.5 131.5 132.3 133.6 135.9 139.3 143.3 147 150.6 152.1 152.6 152.1 150.6 150.6 150.7 150.3 150.1 149.4 148.4 147.6 146.7 145.7 145.4 145.1 144.8 144.3 144.1 143.9 143.7 143.1 143.1 142.9 142.3 141.8 141.4 141.5 140.6 141.3 141.3 140.4 139.3 138.5 137.9 137.6 137.3 136.9 136.4 134.8 134 133.3 132.5 130.5 128.3 125.7 123.8 120.8 124.1 122.2 118.2 114.6 114.5 114.2 114 114.4 114.8 114.3 112.1 107.7 102.3 97.7 95.4 97.8 102.4 109.4 115 120.1 123.3 124.3 125.2 147.1 128.8 131.7 131.1 125.4 114.8 113 121.9 128.7 135.3 142 145.8 146 145.7 145.3 145 144.7 144.6 144.2 143.9 144 143.6 143.8 142.9 142.2 141.4 140.7 139.9 139 137.4 135 131.2 125.8 118.6 112.4 106.9 100.5 89.8 89.8
154 154 154.3 154.2 154.4 153.3 149.6 141 131.3 122.9 116.7 111.6 108.2 105.3 102.7 101.2 100.7 100.4 100.1 99.9 99.5 99.4 99.6 99.8 100 100.1 100.1 99.7 99.3 99 98.6 98.2 97.8 97.8 98 98.3 98.6 98.9 99.5 100.8 101.4 101.9 102.6 103.1 103.6 104.8 106.3 108.9 111.6 117.1 118.2 119.6 120.2 120.8 121 121.2 122 121.7 120.9 119.6 118.4 117.8 117.5 117.2 116.8 116 114.1 112.7 114.2 116.9 118.7 119.9 120.7 120.4 119 119.7 121.3 123 124.9 126.2 127.1 128.6 129.8 130.5 131.3 131.8 133.4 137 141.5 143.6 145.3 146.5 148.6 148.9 148.3 148.9 149.4 149.4 149.2 149.3 149 148 147 146 146.2 145.7 145.9 146.2 145.9 145.7 145.4 145.2 145 144.7 143.8 143 142.2 141.5 140.9 140.9 140.3 139.8 138.8 138.1 137.6 136.8 136.4 135.9 135.1 134.4 133.4 132.4 130.7 128.7 126.7 125.5 125.8 125.5 125.1 123.2 122.6 121 121.7 122.3 122.7 122.9 122.8 121.6 119 113.2 110 104.3 98.2 95.2 93.8 97 103.5 108.5 113.4 117.3 121.1 121.2 126.2 117.6 115.8 114.4 110.1 111.7 120.7 125.9 133.1 140.5 145.4 145.9 145.8 145.4 144.9 145.1 145 146.4 144.4 144.2 143.4 142.8 142 141.2 140.5 139.8 139.3 138.6 137.3 135.4 132.4 127.9 120.4 112.9 107.5 100.8 88.9 87
154.2 152.8 151.2 151.2 150.1 146.4 140.8 132.5 125.1 119.1 113.3 109.4 106.6 104.1 102 101.1 100.8 100.5 100.2 99.9 99.8 100.1 100.2 100.4 100.6 100.8 100.9 100.5 100.1 99.8 99.4 99 98.3 98.1 98.5 98.9 99.2 99.9 100.6 101.4 102.2 102.8 103.5 104.2 104.8 105.3 106.9 109.1 112.4 115.3 117.4 118.6 119.2 119.7 120 120.1 120.3 120.5 119.9 119.6 118.8 118.5 118.3 117.9 117 115.8 114.5 114.1 115 117.1 119.4 120.4 121.3 122.2 122.1 122.7 123.1 124.3 125.8 126.1 126.9 128.2 128.8 129.5 129.9 130.1 131.3 134.5 136.9 138.3 139.3 140.5 142.4 144.1 143.9 144.7 145.4 146.2 147 147.6 147.7 147.2 146.8 146 145.9 145.7 146.5 147 147.1 147 146.7 146.3 145.9 145 144 143.1 142.3 141.5 140.9 140.3 139.5 138.9 138.2 137.7 137 136.2 135.4 134.7 133.8 132.9 132.2 130.8 129 127.3 127.1 127.4 127.9 126.9 126 125.2 125.7 126.3 126.4 126.2 126.2 126 124.9 123.5 121.5 119.7 118.4 114.2 107 100.1 96.3 93.1 93.8 96.7 101.6 104.8 108.4 110.6 114.9 111.7 111.6 107 102.4 111.7 117.7 125.1 130.9 137.5 143.3 145.2 145.1 144.8 144.6 144.6 144.2 144.2 143.4 142.8 142.2 141.5 141 140.3 139.6 139 138.4 137.8 136.7 134.9 132.1 127.5 120.2 112.9 107.2 100.8 88.8 84.2
149.6 146.1 142.7 141.2 138.1 134 129 124.2 119.7 114.9 110.9 107.2 105.4 102.9 101.8 101.3 101.1 100.7 100.4 100.3 100.4 100.7 100.9 101.1 101.3 101.5 101.5 101.3 100.9 100.5 100.1 99.6 99 99.2 99.6 99.9 100.2 101 101.7 102.4 103.2 103.9 104.6 105.3 105.9 106 106.7 108.6 110.7 113.7 116.3 117.8 118.2 118.7 118.9 119.4 119.6 119.8 119.8 119.7 119.4 119.3 119 118 117 116.3 115.8 115.4 115.9 117.6 119.3 120.7 121.6 122.4 122.9 123.9 124.4 125.5 126.2 126.7 126.9 127.1 127.6 128.2 128.4 129.5 130 131.2 132.3 132.4 133.4 134.5 136.2 137.9 139.4 140.5 141.2 141.2 141.9 143 144.4 144.3 143.8 144 144.4 144.8 146.4 147.8 148.4 148.2 147.8 147.2 146.1 145.1 144.2 143.4 142.6 141.8 140.9 140.5 139.9 139 138.1 137.2 136.4 135.9 135.6 135 133.8 132.6 131.4 129.9 128.8 128.6 129.3 129.5 129.1 128.1 127.2 126.8 127.3 127.7 127.7 127.4 126.8 126.5 125.5 124.2 122.8 122.9 123.4 122 117.7 111.3 104.9 98.9 94.9 92.2 92.1 93.9 96 98.3 100.3 103 102.3 99.8 100.5 111.5 115 122.4 127.1 132.1 137.4 141.8 143.3 143.5 143.1 143.3 142.8 142.5 142 141.4 140.9 140 139.6 139.2 138.5 138 137.4 136.8 135.5 134 131.2 125.7 118.5 112.2 106.4 100.1 89.6 80.7
142 138.9 133.3 129.8 127 124 121.1 118.2 114.4 110.6 107.6 105.5 104 102.4 101.8 101.7 101.5 101 100.7 100.8 101 101.3 101.5 101.8 102 102.3 102.1 101.9 101.7 101.3 100.9 100.4 100.4 100.7 101 101.3 101.4 101.9 102.6 103.5 104.3 105 105.7 106.5 107 106.8 106.7 107.4 109.1 111.9 114.9 115.8 117.3 117.7 118.2 118.8 119.2 119.8 120 119.9 120 120 119.6 118.9 118.3 117.6 117.1 116.8 116.8 117.7 119.4 120.6 121.6 122.5 123.4 124.4 125.2 125.6 125.9 126 126.1 125.9 126.3 126.6 127.4 128.9 129.2 128.7 128.6 128.7 128.6 128.7 129.6 131.4 133.2 136.8 137.8 135.7 137.3 139 140.3 141.1 140.8 141.1 141.3 141.9 143.8 145.9 147.6 148.2 148.3 147.9 146.4 145.2 144.7 144.2 143.2 141.9 141 140.6 140.2 139.4 138.2 137.5 137.1 136.7 136.6 136.4 136.2 134.8 133.2 131.7 130.7 130.5 130.8 130.6 130 129.1 128.7 128.3 128.7 128.7 128.6 128.2 127.5 127.1 126 124.8 123.7 123.7 125.1 125.8 124.2 120.6 115.6 109.6 103.9 99 95.3 93.7 92.4 90.9 90.8 90.9 91.9 91.4 100.3 101.3 109.9 115.2 122.8 126.3 129.9 134.5 139.4 141.3 141.6 141.9 141.7 141.1 140.6 140 139.5 138.9 138.1 137.5 136.9 136.3 136.1 134.9 133.6 131.7 127.9 121.8 116 110.5 105.8 100.6 90.8 80
133.5 129.5 125.8 122.3 119.5 117.2 115 112.2 109.8 107.2 105.3 103.9 102.9 102.3 102.1 102.1 101.8 101.7 101.7 101.6 101.7 102.1 102.5 102.7 102.8 103 102.8 102.6 102.4 102 101.7 101.7 101.9 102.1 102.4 102.6 102.7 103 103.7 104.6 105.5 106.3 107.2 108 108.3 108.4 108.6 108.6 109.6 111.1 112.8 114.9 116.1 116.7 117.8 118.5 119.2 119.8 120.1 120.2 120.4 120.6 120.3 119.9 119.5 118.9 118.5 118 117.9 118.5 119.7 121.3 122.1 122.8 123.5 124.6 124.7 125.1 125.3 125 124.3 124.4 125.3 126 126.8 129.3 128.6 126.3 126 125.8 125.6 124.2 123.7 124.9 129.4 133.7 133.2 130.2 133.3 134.9 136.2 137.2 137.6 137.2 137.5 138.5 140 141.9 143.5 144.6 145.8 147.1 145.9 144.5 145.1 143.9 143.1 142 141.1 140.7 140.3 139.8 138.3 138 137.8 137.7 137.6 137.5 138 138 136.1 134.5 133.3 132.8 132.5 131.8 131.1 130.6 130.3 129.8 129.4 129.3 129.3 129 128.3 127.5 126.6 125.6 124.7 124.7 125.6 126 125.3 123.6 121.6 118.8 115.3 111.1 107.4 104.3 101.6 99.2 94.8 92 89.2 89.6 89 92.5 97.7 101.1 107.5 111.2 121.5 124.7 130.3 136.3 139.6 140.3 140.6 140.1 139.4 138.6 138.2 137.9 135.5 135.2 135.1 134.6 135.1 132.8 130.5 127.4 123.2 118.6 113.6 108.8 105.1 101 92.7 81.2
125.5 123.1 120.6 117.3 114.7 112.2 109.9 108.5 106.8 105.4 104.2 103.4 103.2 102.8 102.6 102.8 103 103.3 103.2 102.8 102.9 103.3 103.5 103.7 103.6 103.6 103.4 103.3 103.1 103 103 103.1 103.3 103.8 104.2 104.6 104.7 105.1 105.8 106.5 107.2 107.8 108.7 109.6 110.3 110.5 110.6 110.4 110.6 112.3 114.1 116 116.8 117.5 117.9 118.6 119.3 119.8 120.2 120.8 121.2 121.2 121.1 120.6 120.2 119.8 119.4 119 119.1 119.6 120.6 121.9 122.7 123.5 123.9 124.5 123.8 123.8 123.3 122.9 122.5 124 123.8 122.8 124.3 128.9 126.3 124.3 124.4 124 123.1 121.8 120.7 120.2 123 126.8 127.1 123.9 127.2 129.7 130 131.4 131.6 130.7 131.3 133.8 135.3 137.6 139.8 140.8 142.4 143.7 143.6 142.3 142.3 140.4 139.8 139.2 138.8 140.7 141.4 139.3 137.7 137.3 137 136.7 136.7 138 140.7 140.8 139.2 137.3 136.2 135.4 134.6 133.9 133.2 132.6 132 131 130.6 130.1 129.6 129.4 128.6 127.7 126.8 125.9 125.3 125.1 125.3 125.5 125.2 124.5 123.4 121.7 119.9 118.1 116.1 114 111.9 109.5 105.4 103 97.2 91.4 85 84.8 90.6 89.1 92.9 98.2 106.6 114.6 120.9 128.4 135 138 138.8 139 138.3 137.2 135.9 134.1 133.8 132.8 131.6 137.3 138.3 130.3 126.1 122.5 118.5 114.7 110.3 107.2 105.1 101.4 93.9 83.9
120.3 117.3 115.1 113.2 111.3 109.5 107.8 107 105.9 104.7 104 103.6 103.3 103.7 104.1 104.4 104.6 104.9 104.6 104.3 104.1 104.4 104.5 104.7 104.7 104.6 104.4 104.3 104.2 104.4 104.6 104.7 105.3 105.7 106.2 106.7 107 107.3 107.9 108.6 109.2 109.5 110.3 111.1 112 112.5 112.7 113.2 113.2 114.5 116.5 117.6 118.1 118.6 119.2 119.3 119.7 120.3 120.9 121.5 122 121.8 121.6 121.4 121.1 120.7 120.3 119.9 120.2 120.7 121.4 122.5 123.3 123.5 123.5 122.3 122.7 122.1 121.6 121.1 121.2 124.4 123.3 122.3 122.5 126.6 124.7 122.8 122.7 122.3 121.2 120 119 118.2 119.3 120.4 120.6 119.4 121.8 122.5 122.8 123.7 124 124.2 126 128.7 130.9 133.2 135.7 137.8 138.6 138.8 138.1 137.1 137.5 136.8 136.2 136 136.2 137.4 137.8 136.9 135.8 134.9 134.3 134.5 135.4 139.5 141.9 142 140.8 139.2 138 137.1 136.3 135.5 134.7 133.9 133 132.3 131.8 131 130.2 129.4 128.5 127.7 126.9 126 125.5 125 125.3 125.4 124.9 124.1 123.1 122.3 121.1 119.5 118.3 117.3 116.2 114.8 113.6 111.9 109.2 104.4 99.9 93.5 86 85.6 84.7 83.1 91.2 102 112.6 120.3 128 134.4 136.7 136.7 136.8 135.7 133.1 128.7 126.4 125.1 134 137.7 137.6 137.5 123.1 117.2 113.9 110.8 107.5 105.4 103.7 100.4 93.9 85.3
114.8 112.9 111.5 109.6 108.6 107.7 107.1 106.1 105.3 104.5 104 104.1 104.3 104.8 105.6 105.9 106.4 107.2 107.4 107.3 107 107.2 107.1 106.7 105.8 105.7 105.5 105.4 105.5 105.9 106.2 106.5 107.2 107.7 108.2 109.3 109.9 110 110.5 111 111.2 111.8 112 112.7 113.7 115.2 115.9 116.1 115.8 116.9 119.1 119.4 119.7 120 120.4 120.7 120.9 121.2 121.7 122.5 122.6 122.3 122.1 121.4 121.1 120.9 120.5 120.2 120.8 121.2 121.9 122.9 123 122.9 122.8 122.6 121.3 120.6 120.1 119.6 119.3 123.8 122.4 121.3 120.8 124.9 121.3 120.9 120.9 120.4 119.5 118.4 117.3 116.6 117.2 117.2 117 117.8 118.4 119 119.6 120.7 120.8 121.4 122.8 125 126.7 129 132.5 136 136.1 134.9 134.1 133.7 133.8 133.1 133.2 133.7 134.3 135.1 134.6 134.1 133.5 132.6 131.6 132.5 137.1 141.4 142.7 141.6 140.5 139.5 138.5 137.4 136.8 136 135.2 134.4 133.4 132.4 131.6 130.8 130 128.8 128 127.2 126.5 125.5 124.9 125 125.2 125.1 124.5 123.7 122.9 121.9 121 119.9 118.5 117.4 116.6 116.3 115.4 114.5 112.8 110.7 108.1 103.9 96.3 89.4 83.7 80.3 82 90 104.6 113.6 121 128 132.1 134.7 135.3 131.5 128.3 123.1 120.8 119 119.7 137 135 136.3 130.2 112.5 109.4 106.9 104.5 102.7 100 94.8 89.9 83.3
111.2 110.2 109.3 108.5 107.7 107.1 106.5 105.6 105.1 104.8 105 105.2 105.6 106.2 107.1 108 108.9 109.8 110.3 111 111.7 112.1 111.4 110.1 108.1 107 106.6 106.8 107.5 107.8 108 109 109.7 111.1 111.9 112.8 114.3 116.4 116.1 115.5 115.3 115.1 114.8 115 116.1 117.8 121.3 122 121.9 122.3 122.8 122.4 121.7 121.4 121.7 122.2 122.3 122.5 122.9 123.5 123.2 122.9 122.3 121.5 120.7 120.1 119.8 119.5 120.2 120.5 121.3 121.9 121.9 121.9 121.5 121.1 119.9 119.1 118.6 118.1 117.9 117.7 121.4 120.2 124.6 124.2 119.5 118.4 118.7 118.1 117.6 116.9 116.2 115.5 115.2 115.2 115.3 115 115.5 116.4 117.4 118.1 118.8 119.8 120.9 122.4 123.7 131 133 134.1 133.4 132.4 131.1 130.9 130.7 129.3 129.6 132 133 133.5 133.4 132.8 131.5 130.6 129.9 133.1 138.7 142.1 141.9 141.2 140 138.4 137.7 137.1 136.8 136.2 135.4 134.7 132.5 132.3 131.4 130.5 128.8 127.3 127.1 126.3 125.5 124.3 122.9 123.2 124.5 124.8 124 123.1 122.2 121.4 120.6 119.7 118.6 117.9 117.3 116.7 115.9 114.6 113 111.3 109.6 107.1 102.9 99.7 93.8 85.4 78.6 77.8 95 107 115.6 121.4 126.1 130.3 130.5 127.4 122.8 118.8 115 113.1 113.7 131.5 137.1 127.4 137.1 117.7 105.9 103.6 101.4 95.7 92.5 88.9 83 79.2
109 108.6 108.2 107.7 107 106.4 105.8 105.2 105.3 105.4 105.9 106.8 107.6 108.3 109.1 110.3 111.7 112.4 114.4 116.6 120.3 121.3 119.8 114.5 110.2 109 108.1 108.2 109.5 111.2 111.9 112.9 114.9 116.4 117.1 117.5 120.5 123.6 122.9 121.3 121.7 121.3 121 119 119.2 123.5 127.5 130.8 132.1 131.7 131 127.8 125 123.5 124.3 125.2 124.5 124.1 124.6 125 124.4 123.5 122.8 121.6 119.9 119.4 119 118.8 119 119.1 119.7 120 120.2 120.3 120 119.3 118.5 117.7 117.3 116.9 116.7 116.6 115.9 115.9 120.3 120.7 117.3 115.9 116.3 115.8 115.6 115 114.2 113.6 113.4 113.1 113.8 113.8 114.1 114.8 115.7 116.5 117.2 118.1 119.1 119.8 121.9 136.8 138.7 131.9 131.4 130.1 128.9 128.5 128.3 126.1 127.7 131.1 132.4 132.4 131.9 131.7 130.1 128.6 129.5 135 140.1 141.6 140.9 138.8 135.3 132.9 131.7 131.2 131.1 130.8 130.2 130.3 127.9 129.5 129.3 127.9 125.8 124.5 124 122.3 120.2 118.3 116 116 119.3 122.5 122.9 122.3 121.4 120.6 119.7 118.8 118.2 117.8 117.2 116.5 115.6 114.4 113.1 111.7 110.1 108.3 106.1 103.6 99.9 89.6 80.2 75 85.2 98.6 110.8 116.2 120 122.8 123.2 121.5 118.1 113.7 110.1 109 108.1 106.6 114.4 115.7 126.5 125 105 100.4 101.5 90.1 85.3 79.7 77.6 75.1
108.6 108.3 107.8 107.4 106.7 106.5 106.3 106.4 106.6 106.4 107.1 108.3 109.5 110.4 111.2 112.9 114.6 116.5 120.1 125.6 130.2 129.9 124.6 118.3 113.5 110.9 110.1 110.7 112.5 115.1 117.2 120.7 123.9 125.8 125.7 126.2 130.1 134.4 133.6 133.4 131.5 130.4 128.7 126 124.3 128.7 135.6 142.9 147.4 145.9 141.3 136.6 133.6 131.4 130.3 128.9 127.9 127 127.1 126.5 126.2 125.3 124.2 120 120.1 119.6 118.9 117.9 117.4 117.6 117.8 118 118.2 118.4 118.4 117.5 116.7 116.2 116.1 115.7 115.5 115 114.6 114.9 115.2 115.5 114.5 114.4 114.3 114.2 114.1 113.1 112.3 112 111.8 111.7 112.6 112.9 113.1 113.7 114.2 114.8 115.6 116.5 117.2 117.8 133.8 137.1 134 129.9 129.5 128.2 126.4 126.3 124.9 123.6 126.7 129.8 130.7 130.2 127.5 129.1 128.6 126.4 131.6 137.5 140.8 138.8 134.8 130 126 123.6 121.5 120.1 119.5 120.1 119.5 119.4 118.1 117.3 118.9 117.8 116.5 115.2 113.8 111.9 109.8 108.3 106.3 107 110.2 114.8 119.2 120.4 120.4 119.5 118.7 117.9 117.6 117.6 117 116.3 115.3 114.1 112.8 111.4 109.9 108.6 106.9 104.5 101.7 94.4 83.6 75.2 73.3 91 101.8 111.5 114.7 115.9 115.7 114.7 113.3 110 107.2 105.3 103.7 103 103.5 103 109 111.5 100.5 103.1 102.8 89.5 77.9 73.9 70.8 69.4
108.2 107.9 107.5 107.2 107.1 107.1 107.5 107.8 108 107.9 108.5 109.7 110.8 112.2 113.4 115.7 119.1 122.3 127.6 134 138.1 136.2 129.7 122.2 116.7 113.8 112.5 113.4 115.7 119.8 125.6 130.6 134.6 137.9 139.3 141.4 144.3 147.3 148.7 151.1 148.5 143.9 139.8 134.9 131.2 134.7 144.4 154.3 159.7 158.3 153.3 147.2 143.4 141 139.1 135.3 132.7 130.2 129.6 128.6 128 127.8 122.6 122.3 121.5 119.7 118.6 117.3 116 115.6 115.9 116.2 116.4 116.6 116.4 115.6 114.9 114.4 113.9 113.8 113.7 112.9 112.6 112.3 111.8 111.5 110.6 112.2 112.5 112.8 112.2 111.2 110.4 110.1 109.9 110 110.5 111.8 112.1 112.7 112.9 113.2 114 114.7 115.6 116.8 128.3 145 137.7 128 127.3 125.8 122.9 124.7 121.6 118.2 125.3 128 128.9 127.9 124.9 124.2 124.1 126.7 131.8 135.7 134.6 130.1 125.9 121.5 118.2 115.2 114.5 112.7 107.8 109.1 108.8 108.4 106.8 104.3 107.3 107.1 105.6 104.1 102.2 101 100.5 99.7 98.5 98.5 101.5 106.2 111.6 116.6 119 118.5 117.8 117.1 117 117.2 116.8 116.2 115 113.2 112.1 110.6 109.1 107.8 106.5 104.6 102.2 98.7 89 77.9 71.4 81.9 96.2 108.7 110.1 111.1 111.3 110.3 108.3 106.3 104.9 103.8 99.2 95.6 98.6 99.7 97.2 96.7 102.8 103.7 104.3 87.7 69.6 67 67.9 67.1
107.8 107 108 107.9 108.4 108.9 109.3 109.6 109.7 109.7 110.2 111.1 112.2 114.1 117.6 119.5 123.3 127.7 133.7 138.8 142.4 140.8 134.7 126.4 119.7 117 115.6 114.2 117.6 124.3 131.8 138.8 144.6 150.1 154 157 158.1 158 160.6 160.2 159 156.5 151.8 145 137.4 142.9 151.4 157.3 161.1 163.3 162 157.3 153.2 150 146.7 142.7 138.3 134.6 132.9 131.5 130.7 126 126.3 126.1 124.4 122.3 119.9 117.3 115.2 114 114 114.2 114.5 114.7 114.4 113.8 113.1 112.6 112.1 111.6 111.3 111.2 110.4 110 110.1 110 108.4 108 108.8 108.8 109.2 108.9 108.4 108.1 107.8 108.1 108.8 109.9 111 111.4 111.6 111.7 112.3 113 113.6 115.1 128.2 144.5 138.4 125.3 124.8 123.6 119 121.7 116.8 115.1 124 125.2 127 124.8 120.1 118.4 122.8 126.6 125.3 127.5 125.2 121.4 117.7 115.5 111.9 108.6 105.2 116.9 108 101 100.7 100.5 97.9 98.9 98.3 97.1 95.7 94.9 93.7 93.2 92.9 93.2 91.9 91.7 94.2 97.9 103.3 109.3 114.3 116.9 117.1 116.3 116.5 116.7 116.4 115.6 113.9 111.9 110.8 109.6 108.3 107.1 105.8 104 101.8 99 89.9 79.6 71.6 70 88.7 100.2 105.4 106.6 107 106.7 104.7 104 102.7 100.6 94.2 86.1 88 90.6 91.5 94.5 100.7 95.7 79.8 68.7 66.3 66.4 67.2 66.8
108.4 108.7 109.3 109.8 110.3 110.8 111.3 111.4 111.6 112 112.6 113.5 115.2 117.5 120 123.6 128.3 133 138.5 143.4 145.7 145.5 138.6 130.6 123.9 120.3 118.7 117.6 120.2 127.9 137.6 147.9 156.5 159.7 160.8 162 163.1 164.1 164.5 164.1 164 162.9 159.8 157 149.6 150.6 155.9 158.1 161 163.5 164.9 164.1 162.3 158.4 154.4 149.4 144.5 140 136.7 133.6 130.5 129 129.1 129.8 128.1 125.6 121.9 118.6 116.1 114.3 113.8 113.9 113.7 113.5 112.8 112 111.4 110.8 110.1 109.5 109.1 108.8 108.4 109.5 109 108.3 106.7 106.6 107 106.7 106.4 106.7 106.3 106 105.7 105.9 107.4 108.7 109.7 109.8 109.9 110 110.6 110.9 111.1 115.8 118.3 120 131.5 121.6 120.4 119 114.7 116.3 112.6 111.6 113.6 119.9 122 119.7 116.4 116.9 123.3 123.3 121.2 119.9 118.4 114.6 112.6 110.1 107.7 103.9 100.8 108.8 104.8 94.5 94.2 93.7 92.4 93.6 92.5 90.9 89.5 88.3 87.6 87.5 87.8 87.7 86.8 86.3 88.5 91.5 95.4 101.1 107 112 115.6 115.6 115.7 115.4 115.3 114 112.1 110.3 109 107.7 107 105.9 104.6 102.5 100.4 98.4 90.5 80.6 71.4 69.9 79.4 92.3 98.6 99.1 100.8 100.3 100 99.4 96.8 93.6 86.9 80.7 79.3 81.6 95.5 97.5 85.9 72.4 65.6 66.1 66 65.8 62.2 59.3
109.3 109.6 110.4 112.2 112.9 113.2 114 115 115.5 116.1 116.8 117.6 119.2 121.8 126.1 131.8 136.5 139.9 143.3 148 151.4 149.5 142.3 134.8 128.1 124.1 121.2 120 123 132.6 143.7 155.6 160.5 161.7 162.4 163.1 164.1 164.7 164.4 164.5 164.6 164.8 163.9 160.8 157.1 156.6 157.8 158.4 160 162.4 164.2 165.5 165.1 164.1 160.9 155.7 149.7 145.6 141.3 137.5 134.6 132 128.9 126.4 126.2 124.1 121.2 118.4 116.8 115.6 113.9 112.9 112.5 112.3 111.6 110.7 110.1 109.5 108.7 108.1 107.7 107.4 107 106.6 106.5 106.2 106.1 109.1 105.3 105 103.8 103.5 103.5 104.1 104.1 104.8 106 107.3 108.2 108.5 108.2 108.3 109.3 109.6 109.7 108.3 116.5 116.8 118.5 112.9 114.6 113.5 110.7 110.2 109.9 108.6 110.4 112.4 113.3 113.6 112 114.8 119.1 120.1 118.5 116 114.4 111.8 110.2 107.9 105.4 101.5 96.7 94.7 92.8 91 88.9 88.5 88.8 89.3 88.5 87.6 86.2 83.8 83.2 83.6 84.1 83.6 83 83.2 83.9 85.9 89 93.3 98.9 105 110.6 114.3 113.6 112.2 112.9 111.9 109.5 107.9 106.7 105.6 104.4 103.3 101.8 100 97.9 96.7 91.7 80.9 71.5 70.3 69.4 83.7 88.9 90.6 89.9 91.2 90.1 89.2 87.6 83.5 80.7 73.8 70.4 92.6 88.5 76.2 67 66.2 65.4 65.3 68 68.9 91 73.1
110.3 110.7 111.6 113.3 115.1 116 117.6 119 119.7 120 120.9 122.1 123.5 129.4 136.5 141.3 143.6 146.2 149.5 153.3 156.6 153.8 146.5 138.7 132.3 128 123.8 121.9 126.8 137.2 149.3 159 161 161.6 162.4 163.2 163.9 164.2 164.2 164.4 164.5 164.5 164.4 161.9 160 159 158.7 158.6 159.1 160.6 162.3 164 164.7 164.4 162.7 159.9 153.9 151.1 146 142 137.3 134 130.4 126.6 124.5 121.4 119.4 117.4 116 115.1 114.4 113.3 111 112 111.2 110.2 109.2 108.5 107.6 106.8 106.4 106 105.6 105.6 105.6 105.6 104.5 103.5 102.9 102.3 106.3 102 101.7 101.2 102.2 102.8 104.3 105.6 106.5 107 106.8 106.4 108.4 108.4 107.9 106.1 106.2 107.7 108.2 108.8 109.1 108.5 107.9 107.7 107 107.7 107.7 110.1 109.8 108.9 109 111.5 114.8 116.3 115.6 113.2 109.8 108.4 108 105.4 103.2 100.2 94.2 92.5 90.3 88.3 86.2 86 86.2 86 85.2 84.3 83.5 81.8 81.2 81.2 80.5 79.9 78.7 79.9 80.6 82.6 83.9 86.7 91 96.6 101 105.3 106.4 106.2 108.9 108.6 106.4 105.2 103.9 102.5 101.5 100.3 98.6 97 95.3 93.3 89.3 80 71.9 69.6 68.5 69.9 75.6 79.5 81.3 80.2 81.1 79.5 76.4 70.7 68.7 68 67.5 67.2 66.8 66.4 66.3 65.9 66 66.9 70.9 80.3 83.3 83.2
111.6 112.3 113.5 114.7 116.3 119 120.6 122 124.9 128.6 130 129.5 131.9 138.9 143.9 146.9 149 152.3 155.5 158.9 160 159 152.5 144.4 137.9 132 126.9 121.2 130.5 142.1 153.8 159.3 160.6 160.6 161.4 162.4 163.2 163.5 163.7 163.7 163.8 164.1 163.8 162.8 160.7 160.4 159.3 158.3 157.9 159.5 160.1 160.8 162.6 163 162.7 160.3 157.1 155.1 151.5 147.5 142 138.7 136.2 130.5 127.3 122.9 119.9 118.6 117 115.5 115.4 114.7 113.7 113.2 112.6 111.1 109.7 108.8 107.8 106.6 105.7 105.3 105.1 105 105.6 104.8 103.6 102.5 101.8 101.3 100.7 100 100.5 102.7 101.6 101.3 102.2 103.8 104.4 105 105.5 104.8 106.5 107 104.7 105 105.9 106.3 105 105.9 106.8 105.9 105.3 104.9 105.1 104.2 105.8 108.3 107.4 105.7 106.3 108.4 111.3 109.9 108.8 106.9 104.3 102.3 101.5 101.1 97.1 94.5 92.1 90.2 87.7 87 86.6 84.8 84.4 83 81.9 81 80.5 78.9 76.9 76.5 77.4 76.4 74.5 74.8 76.1 79.2 79.6 80.9 83.7 87.7 91.8 95.5 96.7 96.7 99.8 100.7 101.1 100.7 99.2 98.2 96.3 94.2 94 92 88.1 83.5 78.8 72.2 71.9 66.9 69.7 68.9 68.5 69 70.7 71.7 70 68.5 67.7 67.4 66.5 66.2 66.3 66.2 65.4 60.4 66.1 66.6 69.7 73.8 77 77.7 85.5 92.5
113.2 114.1 115.5 116.9 118.7 121.5 124.7 128.8 136 140.7 142.7 142.1 141.8 146.2 149 152.2 154.9 158.2 160 160.5 160.9 160.7 158.4 152.2 145.5 138.6 132.4 126.1 134.3 145 155.8 159.4 160.2 160.2 160.2 161.1 162 162.2 162.5 162.7 162.7 163.1 163.4 162.7 161.6 160.8 159.4 157.6 157.2 158.2 158 159.4 161 161.7 161.5 160.6 158.9 157.1 154.7 152.6 148.8 145.7 142.2 136 131.6 127.2 124.3 122.6 120.4 118.4 117.3 116.6 115.9 115.6 114.4 112.6 111.6 110.3 109 107.7 106.7 106.2 106.1 105.6 105.1 104 103 102 101.4 100.9 100.4 99.9 99.4 99.2 99.5 100 100.4 101.1 101.4 103.5 104 103.6 103.3 104.1 104.7 104.2 105.4 105.4 104.4 104.2 104.5 103.6 102.8 102 102.2 100.1 102.2 105.8 105.5 100.6 105.6 106.2 103.7 102.5 100.7 98.9 97.6 96.9 96.6 96.1 95.4 93.3 91.6 90.1 89.2 87.5 84.5 84.5 81.7 79.7 79.2 78.8 77.9 77 76.9 76.6 76 76.7 77 83.2 77.7 74.6 74.5 75.2 77.6 78.2 82.4 86 87 87.3 89.5 90.3 90.2 89.8 88.3 86.9 85.1 83.2 80.7 78.4 75.2 72 70.5 69.1 67.6 69.2 68.6 68.4 68 67.6 68.4 68.3 67.5 67.5 67.7 67.7 65.6 62.9 65.7 66.4 65.9 68.5 73.8 75.3 80.2 82.6 84.3 89 93.9 97.8
115.3 116.6 118.2 119.7 121.3 124.6 129.8 139.4 146.5 149.1 149.6 148.9 149.3 150.4 153.3 156.2 158.8 160.4 161.1 161.6 161.8 161.5 161.2 159.1 153.3 145.6 137.9 129.5 137.8 148.1 157.9 159.6 159.7 159.7 159.8 159.9 160.6 160.8 161.2 161.5 161.7 162.1 162.6 161.7 160.4 159.2 158.4 157.4 156.8 156.8 157.4 158.7 159.2 159.8 160 160.1 160 159.1 158.2 156.5 153.6 151.7 148.8 145 139.8 136.4 131.6 127.4 124.4 122.6 120.8 119.4 118.9 119.1 117.5 116.2 115.3 113.6 112.6 111.1 109.2 108.5 107.6 106.9 105.9 104.3 102.7 101.7 101.8 101.1 100.2 99.7 99 98.3 98.1 98.2 98.7 98.8 100.3 102 102.4 102.6 102.9 104.3 114.9 115.1 104.4 104.4 104 102.2 102.1 100.8 99.4 98 95.5 96.1 97.4 102.1 102.5 96.1 103.5 102.6 98.7 96.8 95.2 94.3 94.4 94.1 93.6 93.1 92.5 92.1 90.8 89.9 86.1 84.3 81 80.5 80.1 78.7 78.8 78.6 78.3 78.5 78.3 78.9 80.2 81 81.2 80.4 78.5 77.7 74.1 74.3 74.1 74.3 74.9 76.9 77.3 78.5 79.3 80 78.8 78.5 79.1 77.5 74.9 72.5 71.3 70.8 66.4 69.3 74.5 73.4 75.4 70 69.4 68.6 68.7 67.2 67.5 67.3 67.9 62.1 62.1 67.6 69.1 71.3 73.6 77 79.5 83.6 84.8 85.7 87.8 89.7 92.5 96.3 100.3 105.3
118.1 119 120.3 121.3 123.8 129.2 138.7 147 151.2 153 153.6 153.6 153.9 154.6 156.7 158.7 161 161.8 162.3 162.7 162.6 162.4 161.9 161.1 157.9 151.3 143.5 136 140.2 150.9 158 159.1 159 159 159 159.1 159.2 159.3 159.3 160 160.5 160.8 161.2 160.3 159 158 157 156.6 156.7 156.7 157.2 157.5 157.4 157.4 157.5 158.3 158.7 158.6 158.8 158.1 157.5 156.2 154.5 152.2 148.6 145.1 139.8 136 131.6 129 127.1 125.9 125.1 124.1 123.6 122.8 122 120.4 118.5 116.2 114 112.7 111 109.6 107.7 105.7 104 102.7 103 102.5 101.1 99.6 98.5 97.6 96.8 96.3 96.1 97.6 98 99.1 99.4 98.2 97.9 100.5 101.7 101.1 98.6 99 98.3 97.5 97.2 95.9 93.3 91.8 91 91.1 92.4 95.9 96.8 92.3 98.8 98.1 95.2 92.4 90.7 90.8 91.3 91.7 90.8 90.2 89.2 89.1 85.2 84.1 83.1 80.5 80 80.5 81 79.9 80.8 80.2 80.3 80.5 80.6 81.5 82.6 82.9 82 80.2 77.8 75.8 74.1 73.3 74.5 74.6 74.7 74.7 74.8 74.6 80.5 74.2 74 73.8 70.5 72.2 71.2 71.5 73.8 76.3 78.1 81.7 83.3 84.5 82.4 77.7 71.7 69.2 68.3 67.8 68.3 68.5 69.5 72.6 75.1 78.3 80 82.6 85.9 88.7 91.1 92.9 94 94.5 95.6 96.5 101.1 103.4 107.8 113.3
