ncols 200
nrows 87
xllcorner 320000
yllcorner 995050
cellsize 50
16.7 16.4 17.2 17.5 17.5 17 16.8 14.4 13.8 10.8 6.4 6.8 8.2 9.9 12.5 14.7 22.9 22.8 25.2 30.5 33.9 33.4 35 38.4 40.8 44.3 49.9 55.4 47.2 40.3 39.1 32.4 36.4 47.1 41.3 43.4 40.3 42.4 48.7 51.5 52.9 58.7 63.8 66.6 71.6 79.3 82.6 89.4 95.9 106.2 109.5 117.3 126.2 134.6 149 164.6 184.2 197.6 210.9 216.4 218.7 220 220.9 223.3 227.9 234.2 236.1 241.5 251.1 261 265.3 270.9 275.7 277.3 276.6 273.7 262.6 251.4 240.4 226.5 211.4 193.1 179.8 171.4 173.5 186 199.6 213.7 225.3 235.6 244.9 252 258.3 263.1 267.3 271.3 275.9 278 279.3 277.8 275.8 269.2 261.8 252.4 242.6 231 219.2 211.6 202.1 194.7 185.4 178.4 172.9 167.3 163.3 156.4 154 153.6 153 156.4 161.1 164.2 167.8 172.7 176.6 179.3 179.8 180.6 181.3 180.6 179.4 179.1 175.9 173.5 170.7 168.4 164.5 160.4 156.2 151.1 145.7 140.5 133.7 129 127.3 125.4 119.9 115.7 114 109.8 103.6 96.9 87.9 84.1 82.1 74.2 75.2 71.5 70.5 69.6 70 71.3 73.4 76.2 80.1 82.1 87.6 90.6 92.7 94.5 96.9 99 99.6 100.4 99.9 99.1 95 92 90.4 86.5 81 75.1 69.7 66 64 62.7 65.4 66.3 65.3 64.9 65.2 65 62.2 57.9 56.7 54.6 49.8 44.6 38 32.1
15.4 15.6 16.8 17.8 17.3 16.6 16.1 14.6 13.2 12.7 8.9 5.3 6.7 9.9 12.2 14.6 21.1 22.5 27.7 31.3 33 33.8 33.5 35.6 38.8 42.1 49.7 52.7 39.6 34.4 30.8 34.5 43.1 53.4 57.6 54.4 45.9 53 55.9 57.9 61.9 66.9 69.8 74.4 79.3 86.2 96.8 106.3 110.6 115.7 118.4 121.2 128.6 138.7 166.3 181.2 192.8 206.5 218 223.1 225.2 226.9 228.8 234.5 239.8 243.1 247.1 253.8 260.2 269.2 276.6 282.7 287 288.4 287.7 284.2 274.5 263.2 251.6 235.6 221.4 208.8 194.9 183.1 182.5 193.5 207.1 219.3 229.8 240.1 247.1 252.1 257.3 262.1 265.9 269.2 271.8 274.2 275.6 276 273.6 270.3 263.3 253.9 247.4 238.1 227.5 216.9 207.1 200.3 190.1 182.4 173.8 166.2 160.4 155.1 147.9 147.4 145.4 146.5 149.2 152.4 155.6 159.5 161.8 163.5 165.7 167.4 167 168.1 166.6 164.8 163.1 162.1 161.9 160.6 158.9 157.4 153.9 149.6 144.9 139.2 130.3 125.5 122.8 120.1 115.8 113.6 112.2 109 104.4 97 88.7 84.1 81.5 75.4 69.9 66.9 63.8 61.6 62 61.5 62.8 66.6 73.1 75.8 79.1 82.3 85 86.6 87.5 88.9 89.1 88.6 86.2 84.6 83.1 80 78.5 76 72.6 69.6 64.5 61.2 59.5 57.2 57.9 62.5 61.7 61.2 60.1 59.2 56.3 51.5 48.9 45.9 41.1 37 32.5 28.5
14.8 16.1 16.6 17.5 16.7 16.3 15.8 14.9 14.6 10.3 6.4 6.4 7.4 9.4 13.5 14.1 17 25.5 27.8 31.4 32.5 33.2 33.6 34 37.1 42.9 47.8 49.5 34.4 29.8 29.5 35.8 45.4 42.2 48.1 54.9 58.2 60.7 64.2 67.9 71.6 73.7 76.4 81.3 90.5 101.7 112.1 120.3 124.1 120 121.1 128.8 131.4 151.9 174.6 184.3 194 208.2 219.3 225.8 231.4 236 238.6 244 249.2 253 259 263.1 270.8 278.4 285 291.9 296 297.7 297.1 293.5 286.5 273.9 261.6 246.5 227.8 217 204.6 190.6 197.6 206.4 214.6 224.6 234.1 243 250.7 254.9 256.9 260 264.3 266.8 268.5 270.6 271.7 272.1 270.7 268.5 262.5 255.6 248.7 240.9 233 223.2 212.5 203.3 194.8 185.5 174.6 166.3 159.3 153.4 149.8 146.3 140.4 138.9 138.8 141.9 144.7 147.1 149.7 150.6 151.7 153.2 153.9 154.9 156.1 154.8 154.2 153.2 153.8 152.5 152.7 152.6 149.7 146.5 142 136.1 126.5 123.4 117.7 113.8 112.7 112.5 111.7 110 105.6 98.5 90.1 84.7 80.5 73.6 66.9 63.6 60.9 57.4 55.7 54.3 56.2 57.3 63.1 66.9 69.9 73.3 75.7 76.2 75.3 76.3 77.3 76.1 74.8 73.9 71.8 71.1 69.6 68.9 66.5 64.5 59.5 55.4 54.2 52.9 53.1 55.3 54.9 52.6 48.9 46.9 44.6 41.6 38.6 35.3 31.8 29.2 26.1 23.3
15.3 17.5 17.6 16.4 16.1 16.4 15.8 15.2 14.5 10.2 4.8 6.3 7.7 10.6 14.4 14.4 18.4 25.2 28.2 30.1 33.4 34.9 33.7 34.1 35.7 39.4 42.6 41.6 29.4 27.7 30 35.6 44.3 51.9 57.2 62 67.2 72.1 75.5 77.8 79.3 85.8 89.2 98 110 119.1 127.1 133.7 136.5 136 131.9 130 144.1 163.3 176.4 185.8 193.3 206.6 219.3 230.9 240.4 246.1 247.1 252.5 257.8 264.7 269.2 274.5 281.1 287.5 294.6 299.7 303.8 305.5 303.8 301.4 295.4 285.7 270.8 254.7 240.1 226.5 213.4 199.8 210.1 217.4 223.8 231.4 240 246.7 253.2 258.1 258.8 261 264.8 265.7 267.4 267.8 268.5 268.7 266.8 263.7 258.5 252.3 246.7 240.4 233.4 226 216.7 206.6 196.4 186.5 174.9 169 162.6 156.8 152.9 151.4 148.2 143.7 139.9 134.5 134.9 137 138.1 139 140.1 142.3 142.9 144 144.7 145.1 144.7 145.1 145.2 144.3 143.6 143.6 143.7 141.1 137.5 131.3 123.4 120 113.2 109.3 110.1 110.3 109.9 108.3 103.5 97.6 90.5 84.2 79.4 73.1 66.1 59.6 57.9 55.1 52.8 50.8 50.9 51.6 54.3 57.8 60.8 62.6 65.9 66 64.7 65.3 66.4 65.3 65.7 64.9 63.3 62.3 62.7 62.5 61 58.4 54.5 51.4 49.6 48.8 48.9 47.8 47.7 43.2 38.9 34.9 32.1 30.3 27.2 25.1 23 21.2 17.9 16.1
16 16.8 17.1 15.1 14.5 14.6 14.7 15.2 12.2 6.9 5.2 6.8 7.7 11.2 12.3 15.5 17.3 24.2 26.4 29.2 32.5 34.9 33.5 31 31.7 34.4 37.1 39.1 28.1 27 33.1 45 53.8 59.3 66.9 73.1 79.9 83.9 85.4 88.8 95.6 102 107.3 116.6 125.8 131.7 137.2 144.2 149.2 151.2 146.4 146.6 142.3 163.3 175.6 185.4 197.1 209.4 223.5 237 248.2 252.6 254.2 257.7 264.4 271.9 277.9 283 289.2 294.8 300.8 306.1 310.2 312.6 311.3 309 303.5 293.5 279.8 262.7 247.3 236.4 223.2 203.5 218.7 224.8 229.7 238 246.1 252.7 256.1 259.2 260.6 259.9 263.8 265.4 266.1 265.9 266.4 265.5 262.4 258.2 252.7 247.7 243 236.8 229.6 222.9 214.7 204 193.2 186 181.4 175.7 170.1 164.5 159.5 156.5 151.9 147 143.2 139.7 135.2 129.3 130.1 130 131 132.7 132.6 133.3 133.4 134.3 135.1 135.7 136.3 135.4 135.1 135.5 135.7 134.5 131.2 125.5 120 116.4 109.1 104.7 105.2 104.9 104.3 103.9 100.5 95 89.2 83.4 78.1 72.1 65.8 60.7 54.7 53.4 51.2 48.8 47.6 47.2 48.8 50.4 51.7 53.9 56.4 56.8 56.1 57 58.8 58.7 58.6 57.7 56.1 56.8 56.5 55.7 54.6 53 50.5 47.8 45.5 44.6 42.6 40.8 37.5 34.1 29 23.7 21 17.7 15 12.3 7 11.2 10 9
14.7 14.1 13.2 12.3 11.8 11.8 12.3 11.9 8 5.8 6.1 7.1 8.7 11.6 13.3 11.5 15.9 22.2 24.9 28.2 32.1 32.7 30.8 27.9 27.1 28.9 31.5 29.6 26.2 30.7 45 54.4 62 70.4 77.5 85.5 93.8 97.8 102.3 106.2 111.9 116.3 125.1 128.4 134 141.8 146.4 152.6 158.2 161.5 162.1 160.7 150.8 163.7 174.7 186.9 198 209.8 224.7 238 251 256.9 258.9 262.9 270 277.9 284.3 290.8 296.5 303.3 308.8 313.2 318 319.5 319.1 317 311.3 301.2 288.4 270.4 255.7 246.4 233.2 213.5 225.2 233.9 240.2 244.1 250.3 257.1 259.8 261.9 263.3 262.4 263.7 264.8 265.2 264.3 263 261.2 257.7 253.2 248.5 243.1 237.5 232.5 225.8 217.3 205.5 203.6 200.5 196.3 191.4 186.1 179.2 173.7 168.6 161.6 155.7 150.5 146.8 142.8 137.6 132.4 128.1 126.2 121.9 120 119.2 119.4 122.4 122.9 124.1 125.2 125.5 125.9 124.6 126.7 126.8 125.9 123.1 118.5 113.9 109.4 102.9 100 99.7 99.4 98.5 98.1 95.6 91.2 86.2 81.2 75.3 70.2 63.6 58.8 54.6 52.2 50 48.1 46.3 44.9 44.1 45.4 45.4 46.6 47.9 49.3 49.2 50.6 52.2 52.7 52.7 51.9 50.8 50.9 50.4 49.9 48.7 47.1 45.8 43.2 39.8 37.3 34.8 31.6 28.6 23.9 19.3 13.8 8.4 -0.9 -0.9 -0.9 -0.9 -0.9 -0.9 -0.9
12.5 11.7 10.4 9 7.8 7.7 9.4 8.3 4.9 5.7 6.9 7.5 8.8 10.1 13.2 10.6 20.3 22 23.6 27.2 29 29.3 28 24.7 23.7 24.7 23 22.6 27.7 38.8 48.5 62 72.4 82.7 94.3 102.6 107.2 109.5 113.2 116.2 119.1 124 131.6 134.2 139.7 149.5 152.8 160.8 168.6 171.4 174.1 174.1 170.6 158.2 175.4 186.2 198.2 209.2 222.3 236.8 249.7 257.3 262.8 268.2 274.7 281.6 288.2 294.9 302.9 309.2 314.8 319.6 323.5 326 326.6 323.7 318.9 310.2 298.1 283.4 265.5 252 241.2 223.2 229.9 239.7 246.6 250.7 256.3 263.1 266.3 267.4 269 268.4 268.7 267.9 265.3 263.8 260.9 256.8 251.9 246 241.7 237.6 232.4 226.6 220.3 217.9 215.7 212.8 209.5 206 201.5 196.2 190.2 184.2 177.5 170.6 163.6 157 151.3 147.5 142.1 137 134.2 133 130.8 128.9 126 123.1 119.6 116.3 105 108.4 110.9 112.7 113.7 115.7 115.7 114.4 111.2 109.5 105.5 101.3 98 94.9 92.6 92.3 92.2 91.2 89.6 86.2 81.6 76.9 71.8 65.3 60.4 55.3 51.7 50.1 48.9 45.8 45.4 44.2 42 40.3 41.8 42.8 43.9 44 44 44.7 45.1 46 45.2 45.3 45.6 45 44.1 42.9 41 38.8 37.2 35.5 31.5 28.3 26 22.5 19.1 13.9 9.4 -0.9 -0.9 -0.9 -0.9 -0.9 -0.9 -0.9 -0.9 -0.9
10.8 10 10.1 16.6 13.1 9.6 7.1 5.7 5.9 5.8 5.8 7.6 8.7 8.7 13.8 15.7 20.4 21.3 23.5 24.7 25.3 27.8 26.5 20.1 19.3 19.6 21.3 22.4 30.5 41.9 60.6 73 86.1 99.1 106.3 110.3 114.1 116.6 118.8 120.6 123.6 128.3 134.8 139.9 146.1 156 165.5 177.5 181.8 183.6 186.2 186.3 181.6 176.5 172.3 184.6 193 206.9 218.7 231.9 244.4 254.4 260.7 268.9 277.5 284 291 298.8 305.9 312.1 318.5 324.5 329 330.7 333.4 332.2 327.1 319.8 306.9 290.8 276.2 261.4 245.1 235.8 237.7 242.6 250.8 261 269.4 273.6 274.9 275.2 275.1 274.7 274.3 272.1 269.4 267.1 263 258.6 253.2 249.3 244.8 239.4 233.9 230.4 226.6 224.8 222.8 220.3 217.6 214.4 210.8 205.6 199.9 194.1 187.6 180.6 174.6 169.2 160.9 155.6 150.3 145.1 142.1 140.5 139.9 136.9 134.9 132.3 128.9 124.7 119.6 113.9 104.7 97.9 101.4 101.6 102.3 101.7 100.2 100 97 94.9 92.4 89.2 85.5 85.5 85.5 84.1 82.8 79.8 75.6 71.2 65.6 61 56.3 52 50.3 48.9 47.7 45.4 43.2 42.3 40.1 37.8 37.5 38.4 39.2 39.2 39.2 40.1 39.9 38.8 38.3 38.7 38.8 37.1 35.9 35.2 33.1 31 29.5 27.6 24.1 20 17.5 13.2 10 -0.9 -0.9 -0.9 -0.9 -0.9 -0.9 -0.9 -0.9 -0.9 -0.9 -0.9
7.3 14.7 20.8 23 14.2 11.3 6.7 5 5.8 5.8 5.7 7.4 8.4 10.9 12.7 17.9 19.4 21.4 21.3 20.6 22.6 24 19.7 17.4 18.6 18.4 19.8 26 35.4 55.5 72.5 88.6 100.4 104.4 109.8 113.8 117.3 120.3 122.8 127.2 133.9 139.9 147.4 155.2 166.1 175.8 182.3 190 194.4 198.3 199 197.9 195.7 192.6 187.7 178.7 189.7 204.6 215.8 226.5 238.2 249 259.2 268.7 278.5 284.9 291.5 300.2 307.2 315.2 322.4 328.4 333.4 336.5 338.4 337.6 334.5 327.2 314.4 297.4 279.1 268.5 259.8 253.1 256 265.7 275.3 286.9 289.1 288.4 287.5 286.7 285 283 280.1 276.4 274.8 272.3 267.4 263.4 259.6 254.2 251.2 244.9 239.5 235.2 232.7 230.5 228.8 227 225.1 222.5 220 215.4 211.4 206.6 199.8 194.1 188.1 183.8 176.6 169.4 161.6 155.5 151.3 149.9 148 146.2 143.3 140.1 137.1 130.8 125.6 118.7 112.5 105.6 100.3 93.4 91.8 88.2 89.4 91.2 89.8 88.3 85.6 82.5 78.5 79.2 79.1 77.7 75.8 72.8 69.4 65 60.7 57 52.2 50.2 49.3 47.8 46 43.2 40.3 40.4 38.5 35.6 34.4 33.5 34.1 35.2 35.5 35.2 35.4 33.9 32.3 31.3 31.3 30 29.6 28.7 27.6 23.7 22.2 20.5 17.2 13.9 11.6 8.1 -0.9 -0.9 -0.9 -0.9 -0.9 -0.9 -0.9 -0.9 -0.9 -0.9 -0.9 -0.9
1.3 1.7 4.1 8.9 12.3 8.6 6.8 5.7 5.8 5.8 5.7 6.9 7.7 9.5 10.7 16.6 18.5 20.3 16.1 17.1 21.3 17.2 14.8 15.1 16.9 18.8 20.2 30.4 48.2 70.4 87.2 99.6 106 108.7 113.3 117.5 123.6 128.6 133 139.1 148.8 159.5 171.6 176.7 184 194.9 202.4 209.4 211.9 212 210.3 210.3 210.4 208.7 205.5 200.3 199 196.6 212.6 223.7 235 245.4 256.4 265.9 275.3 284.8 291 300.3 307.9 316.6 323.7 328.4 333.7 338.4 341 341.7 338.8 332.6 319.1 298 289.4 284.6 276.7 270.3 282.9 292.5 299.1 302.8 302.5 301.9 301.3 299.6 295.9 291.1 287.5 284.6 280.5 276.6 272.7 269.9 265.2 260.7 256.1 249.3 242.8 239.7 236.2 234.5 233 232.9 232 230 227.8 224.5 220.8 216.6 211.1 206.1 201.8 197.1 192.8 187 177.6 168.7 161.7 157.8 154.1 151.1 148 144.7 141.1 135 128.7 122.9 117.9 110.7 105 101.3 97.4 95.1 91.4 86.3 79.8 77.1 74.2 71.9 71.1 71.7 72.1 70.9 68.3 65.7 62.9 59 56 53 49.9 48.2 47.2 45.7 43.6 40.6 38.8 36.9 36.9 34.4 32.5 31.3 31.6 32.1 33.1 32 31 29 26.9 25.4 24.4 24.6 24.3 23.8 21.8 17.5 14.6 13 11 8.2 4.1 0.8 -0.9 -0.9 -0.9 -0.9 -0.9 -0.9 -0.9 -0.9 -0.9 -0.9 -0.9 -0.9
0 0.3 0.9 1.6 4.6 7.5 7.3 9.3 5.7 5.8 5.6 5.9 7.3 7.2 9.8 16.1 18.6 13.4 7.8 10.7 11.2 11.9 12.9 15 16.9 18.7 26.2 42.1 63.2 84.6 97.3 107.6 113.6 116.9 119.8 126.1 134 138.7 143.7 151.1 162.2 176.2 188.8 196.9 207.7 217.8 224.4 228.2 230.9 231.8 230.4 227.3 223.8 222.3 220.1 213.4 212.2 210.1 204.7 220.5 230.8 241.2 254.5 261.7 272.4 280.8 289.5 299.7 308.3 316.5 323 328.1 333.6 338.7 342.3 343.2 341.6 336 319.2 313.1 309.6 305.7 295.6 292.6 299.8 307.6 313.5 316.4 318.7 317.2 312.8 307.7 304.3 302 297.3 292.1 287.6 284.5 279.5 275.8 271.3 266.1 261 255.1 248.5 242.3 239.2 234.5 234.3 234.1 234.7 234.1 232.6 231 227.8 225.5 221 216.3 212.3 209.5 204.7 199.8 192 182.7 172.8 165.4 157.9 154.4 150.8 147 143.7 138.1 131.3 124.8 119.7 113.9 109 105.7 102.2 98.1 95.1 92.1 86.7 85.1 82.7 78.7 75.3 70.4 58.9 61.3 62.2 60.8 58.4 55.6 52 49.6 47.5 46.6 44.9 43 40.1 38 37.2 35 32.5 32.5 31.7 31.4 29.8 30.6 30.1 29.3 28.1 25 22.9 20.3 20 18.6 18.5 17.6 15.9 11.9 8.7 6.1 1.9 1.9 1.3 0.2 -0.9 -0.9 -0.9 -0.9 -0.9 -0.9 -0.9 -0.9 -0.9 -0.9 -0.9 -0.9
-0.9 -0.9 -0.9 0.4 1.1 1.6 3.5 10 6.2 7 5.7 4.7 6.5 8.9 8 14.2 14.7 6.5 8.2 9 10 11.1 14.2 16.9 19.9 25 36.6 56.5 80.6 94.7 105.5 112.8 119.7 123.6 128.2 135.7 142.1 149.2 155.1 164.6 178.6 193.7 206.3 217.9 227 235.3 240.9 246.5 248.8 249.6 248.5 246.6 245.7 241.8 235.1 230.1 224.3 221.2 221.1 219.6 224.8 237 250.2 258.4 270 278.9 287 295.9 304.6 313.4 321.5 328.2 334 338.4 342.7 344.1 344 342 338.6 333.2 326.1 319.4 313.6 311.5 316.5 321.7 324.9 329.1 329.2 329.6 326.6 321.5 316 312.3 309.2 304.6 297.4 291.5 287.7 282.1 276.9 270.9 264.4 258 251.9 244.6 238.4 233.9 232.9 234.1 233.2 233.4 232.7 231.7 230.5 227.8 225.7 222.4 219.9 216.9 213.2 207.7 200.8 193.2 183.1 174.2 161 156.4 153.8 149.7 145.3 140.8 133.1 126.6 122 116.9 112.8 108.4 104.7 101.4 97.4 93.6 91.2 88.9 86.2 83.1 79 74 68.8 63.6 58.2 53.4 51.4 50 48.2 46.6 44.8 43 41.5 39.5 37.4 36.6 34.2 32.4 31 30 27.2 29.6 29.9 25.6 20.5 18.4 16.1 15.5 14.1 12.4 13.8 16.1 14.8 12.6 10.4 8.5 5 1.9 1.9 1.9 1.2 0.5 -0.5 -0.9 -0.9 -0.9 -0.9 -0.9 -0.9 -0.9 -0.9 -0.9 -0.9 -0.9
-0.9 -0.9 -0.9 -0.9 0 0.6 1.2 1.9 7.2 6.2 4.9 4.6 7 5.6 5.8 8.4 6.6 6.5 8.6 7.6 8.2 10.6 14.2 17.8 23.2 29.8 42.5 65.5 88.4 101.2 111.9 120.1 127.7 130.6 135.8 143.1 150.5 160.6 170.6 183.3 197.4 209.8 221.3 232.7 242.1 251.1 258 262.4 263.7 266.6 268 266.3 266.9 261.7 257.5 252 243.2 236.9 231.6 230.5 224.8 230.8 241.9 254.6 264.3 274.9 282.4 290.9 300.7 310.3 319.1 328.6 334.9 340.2 345.2 347.4 348.9 349.5 350.3 348.3 343.9 336.8 331.2 327.9 331.3 336.4 339.4 340 339.5 338.1 337.1 334.4 327 323.6 320.1 314.6 309 302.2 294.7 289 281 274.2 267.3 259.7 251.8 243.3 236.2 232 229.9 229.8 230.8 229.4 229.5 229.3 227.9 226.6 225.7 225.5 223.7 220.5 216.8 212.3 205.1 198.2 191.3 182 171.1 160.9 156 152.6 147.3 142.9 138 130.4 124.8 121.4 118.9 113.3 109.6 105.9 100.4 96.7 94.9 92.8 90 86.5 82.5 77.6 72 68.2 64.3 60.5 57.4 48.8 47.7 45.9 43.1 42 40.3 38.7 36.8 36.1 36.4 37.2 35 33 29.8 28.3 31 31.5 29.7 30.7 28 25.8 22.1 19 16.1 8.1 8.5 8.1 6.7 4.8 1.9 1.9 1.9 1.9 1.3 0.5 -0.4 -0.9 -0.9 -0.9 -0.9 -0.9 -0.9 -0.9 -0.9 -0.9 -0.9 -0.9
-0.9 -0.9 -0.9 -0.9 -0.9 -0.3 0.4 1.1 1.7 7.6 5.9 5.9 4.7 6 5.1 5.8 5.9 7.5 7.1 8.3 10.1 10.9 15.3 18.5 25 46.1 67.7 62.1 92.5 107.4 122.2 131.4 135 133.7 142.1 153.4 164.9 175 186.2 198.9 212 223.5 236.2 246.1 255.6 266.5 275.9 280.2 279.1 281.3 284.8 286.3 283.6 281.8 277.2 269.4 263.6 256.8 246.8 239.6 238 237.7 240.5 247.5 259 267.9 277.8 291.6 302 311.9 323.1 332.5 339.7 347 352.4 354.6 355.9 359.2 361.3 361.8 359.2 354.7 348.8 345.4 346.1 347.6 350.7 352.7 351.3 348.6 344.4 340.9 337.2 331.3 326.7 321.3 315.1 308.3 300.7 291.2 284.1 276.4 267.3 259 249.7 240.6 233.4 228.8 225.7 225.3 225.1 224.7 223.5 223.8 223.9 224 223.8 222.7 221.5 217.7 214.8 212.5 205.7 199.8 194.8 187.2 178.4 166.4 159.2 155.5 150 145.3 141 135.4 128.7 124.9 122.1 118.6 115.4 111.3 106.2 101.6 99.9 97.9 94.5 89.7 86 80.6 76.3 71.9 67.4 63.3 61 57 52 48 45.8 42.7 39.9 39.6 37.7 38 40.7 39.2 36.9 34.7 32.4 31.5 32 32.2 31.6 32.9 31 29.1 25.4 22.3 19.5 18.1 14.5 10.5 7 3.8 1.9 1.9 1.9 1.9 1.4 0.5 -0.3 -0.9 -0.9 -0.9 -0.9 -0.9 -0.9 -0.9 -0.9 -0.9 -0.9 -0.9
-0.9 -0.9 -0.9 -0.9 -0.9 -0.9 -0.4 0.3 1.1 1.8 5.7 -0.9 4.3 4.9 5.4 5.7 6.5 7.4 8 8 8.9 11.5 17.2 20.9 39.1 64.8 88.6 93.1 88.2 114.8 130.7 135.8 134.1 139.6 152.8 162.2 175.8 189.1 199.5 209.9 220.5 233.4 245.3 255.2 266.9 276 282.5 285.7 290 294.5 297.7 299.3 301.3 298.2 292.8 287.9 280.5 270.6 262.9 257.5 256.6 253.4 248.3 251.2 261.4 268.9 280.1 292.5 305.2 317.1 329 338.1 346.9 355.6 359.2 361.8 364.7 367.9 372.1 373.8 372.7 368.3 361.3 359.6 358.4 359.4 359.5 360.9 359.2 355.9 350.9 344.9 340.5 336 328.7 322.8 317.1 309.6 302.1 290.4 282.1 274.6 265.5 255.6 245.4 236 229.4 224.9 222.3 220.8 220.2 219.5 219.4 219.2 218.3 218 217.6 216.3 214.1 212.3 210 206.4 200.8 196.9 193.7 189.5 182.4 173 162.6 158.4 152 147.5 144.7 140.5 135 130.4 125.1 122.4 119.6 116.2 112.6 108.3 104.5 100.3 96.8 93 89.6 85.4 81.7 77 72.2 68.3 64.8 60.7 56.3 52.2 50.6 49.8 47.2 45.4 43.5 45.4 45.4 43.2 41 38.4 34 34.8 34.9 35.1 35.1 35.5 35.1 33.6 30.6 26.7 24.8 22.8 18.8 13 9.7 6.2 3.1 1.9 1.9 1.9 1.5 0.7 0.2 0 -0.9 -0.9 -0.9 -0.9 -0.9 -0.9 -0.9 -0.9 -0.9 -0.9
-0.9 -0.9 -0.9 -0.9 -0.9 -0.9 -0.9 -0.1 0.6 0.3 -0.9 -0.9 4.8 4.4 5.1 6.7 7.5 8.6 8 9.2 10 15 20 33.1 56.3 84 101.3 106.5 98.5 118.7 131.1 132.4 143.2 152.3 162.3 172 185.4 197.9 208.1 216.9 228.6 240.4 252.4 265.6 274.5 279.6 285.1 290.6 295.8 300.3 304.2 308.8 312 312.2 308.4 303.5 296.3 288.1 281.6 277.4 273.6 263.4 261.8 259.8 265.2 275.1 286.1 299.8 312.1 324 335 346.3 353.5 360.9 366 369.9 375 379.4 382.4 385 385.2 379.6 372.9 368.1 365.1 364.8 366.8 364.9 361.2 356.8 351.8 345.5 339.1 333 324.8 318.2 311.9 304.8 296.6 286.3 276.6 267.8 258.8 248.9 238.9 230.2 224.8 221.1 218.3 216.4 213.9 213.3 212.8 212 211.1 209.4 208 206.6 205.4 202.2 199.6 197.2 194 192.9 190.4 187.5 182 175.4 166.3 159.6 152.6 148.6 145.6 143 138.8 133.9 128 124.3 121.9 119 115.4 110.7 107.7 103.6 99.7 96.1 93.2 89.8 87.2 82.8 78.3 74.2 70.2 66 61.3 57.1 55.8 54.5 52.7 51 50.6 51 49.9 49.1 45.7 42.5 39.5 36.8 39.1 39.6 39.6 39.6 39.7 37.9 35.5 32.4 31 29.6 24.3 18 12.9 9.4 7.5 7.5 7.9 5.2 3.5 1.7 1.7 4 5.5 4.1 3.6 2.7 -0.9 -0.9 -0.9 -0.9 -0.9 -0.9
-0.9 -0.9 -0.9 -0.9 -0.9 -0.9 -0.9 -0.6 -0.5 -0.9 -0.9 4 5.6 3.2 4.7 5.5 7.4 7.7 7.7 8.9 11.6 16.3 28.7 50.9 73.7 102.7 113.4 118.6 118.6 116.1 131.1 141.4 151.5 161.3 172 181.3 193 204.5 213.9 221.5 233 245.7 258.9 269.4 275.7 282.4 287.4 294.2 300.1 305.4 310.3 315.7 319.5 320.4 320.8 316.7 309.3 299.8 294.9 289.3 283.2 279.2 277.7 275.8 273.4 285.1 298.3 307.2 317.2 329.2 341.3 350.6 358.5 365.5 372 378.9 382.5 386.3 389.7 391.9 392.1 388.9 379.8 374.2 370.2 365.1 366.1 362.5 357 352.3 346.4 339.5 333.1 325.5 316 306.2 295.5 287.2 281 273 264 255.4 244.9 236.4 229.4 224.2 220.1 215.2 211.8 209.3 206.8 205.3 204.6 202.9 202.3 200.7 197.6 195.3 194.6 192.1 189.9 188.1 186.9 185.7 183.9 181.1 178 175.3 169.4 161.1 154.2 147.3 142.9 140.2 136.6 133 129.4 125.1 122.3 119.1 116.1 112.3 108.6 106.8 103.4 99.7 97 94.4 91.9 88.6 84.6 79.7 74.2 70.8 66.1 62.5 61.2 60.4 59.2 58.1 57.9 57.8 56.1 54.7 51.4 47.5 45.5 43.5 45 44.9 44.1 44.7 46 43.8 42.5 39.3 37.9 37.1 31.8 25.3 18.2 14.3 13.7 12.9 14.2 13.1 11.8 10.4 11.7 12.6 12.3 12.7 13.2 11.6 13.5 14.6 14.7 13.5 8.4 -0.9
-0.9 -0.9 -0.9 -0.9 -0.9 -0.9 -0.9 -0.9 -0.9 -0.6 0.6 1.7 5 3.2 3.5 3.2 6 7.6 7.1 10.5 14.9 25.5 45 68.6 94.7 118.1 125.3 129.5 132.7 128.4 132.9 146.8 158.4 172.1 180.8 188.2 199 207.8 215.8 225.2 235.7 248.9 262 271.6 278.9 285 291.2 299.5 307.2 312.2 318.3 323.4 326.9 327.2 328.1 326.3 315.8 310.3 305.8 302.7 297.3 293.7 292.2 288 284.8 299.1 311 314.9 322.9 334.8 345.4 354.8 362.5 369.6 380.2 383.9 388.2 392.1 395 396.8 395.4 393.2 385 377 370.6 365.9 361.4 355.4 349 342.3 336.4 330.3 323 312.6 298.1 287.2 279.5 272.9 266.5 260.8 253.5 244.8 235.6 227.8 222.6 218.4 213.6 209 204.7 200.7 198.1 196 194.7 193.9 192.4 190.7 189 186.7 184.9 182.6 180.9 179.6 179.2 178.4 175.5 173.9 172.2 170.3 165.6 158.1 150.5 142.7 138.1 135.5 132.4 130 127.8 123.6 121 117.9 114.3 111.3 107.4 106.2 102.7 100.9 99.3 98.2 97 94.1 89.8 84.5 79.3 74.5 69.8 67.3 67.2 67.2 66.4 65.1 65.6 65.4 63.2 60.8 57.5 53.6 50.6 49.6 50.4 50.5 50.5 51 52.2 51.8 50.2 47.5 46.5 45.6 41.9 34.2 28.8 20.5 21.5 19.7 20.6 20.8 20.8 18.9 19.5 18.7 19.1 19.6 20.9 18.7 19 19.3 19.4 18.9 15.4 -0.9
-0.9 -0.9 -0.9 -0.9 -0.9 -0.9 -0.9 -0.9 -0.9 -0.6 0.3 1.1 2.4 6.7 3.2 3.2 5.1 6.4 9.2 14.1 22.1 40.1 62.5 88.3 115.9 129.9 137.4 142.1 145.4 145.1 130.6 151.4 167 178.1 186 196.2 203.5 211.6 217 226.9 241.5 255.2 266.6 274.9 282.7 288.2 293.1 305 313.6 319.7 326.5 332.7 334.7 335.9 334 331.7 327.6 322.4 318 314.5 312.7 310.3 308.2 304.5 300.3 306.5 315.2 319.7 327.4 339.5 350.3 358.5 364.4 373.3 384 387.2 390.9 394.6 397.2 400 397.1 393.4 385.7 377 370.3 362.1 354.7 345.3 336.7 329.6 323.7 315.9 306.7 295.4 283 274.1 266.5 259.7 255.4 248.5 241.4 233.4 226.4 220.3 215.6 210 205 198.7 192.8 189.5 187.8 186.2 184.5 182.5 181.6 179 178.1 176.8 173.9 172.4 171.6 170.1 168.8 167.2 166.2 165.2 163.5 161.7 157 149.5 142.2 136.5 132.9 128.6 126.8 125.6 123.6 120.1 117.4 113.9 110.8 108 105.3 103.7 100.9 98.9 97 96.7 96.8 94.5 91 85.9 82 77.8 74.3 71.7 71.4 73.1 72.1 72.2 72.7 71.6 69.1 66.6 63.7 60 57.8 56.8 56.4 56.9 57.4 58 59.7 60.6 58.6 57.3 57.6 57.3 54.9 47 38.7 33.8 31.4 29 28.5 29.2 29.9 29.4 26.8 25.8 26.4 26.8 26.9 26.6 25.5 25.6 25.8 24.3 22.2 18
-0.9 -0.9 -0.9 -0.9 -0.9 -0.9 -0.9 -0.9 -0.9 -0.9 -0.3 0.6 1.5 5.5 7.4 3.2 4.6 6.5 12.9 19.3 37.1 60.2 84.9 110.9 130.1 140.5 147.1 151.5 155.5 159.8 155.9 156.3 174 182.9 191 199.3 206.1 212.4 218.5 229.3 245.5 259.3 269.4 277.5 284.2 289.5 296.5 308.1 318.7 327.2 334.6 339.6 341.2 341.3 339.7 337.2 336.9 334.4 333.5 330.4 325.9 322.3 319.1 319.1 314.6 315.7 321.2 326.4 334.1 343.7 353.8 360.7 365.7 373.4 383.9 386.5 390.1 394 396.8 398.1 395.5 390.5 381.5 374.3 365.8 356.6 347 331.6 323.5 315.4 308.7 300.5 291.8 281.1 270.4 261.6 253.6 247.7 241.9 234.8 228.9 223.2 216.3 210.3 204.6 198.3 191.6 185.7 180.4 176.5 173.4 172.8 171.8 170.3 168.7 167.6 167 165.1 163.5 161.6 160.3 159.2 157.9 156.6 155.2 154.3 152.6 149.4 145.3 139.1 132.9 127.6 124.8 122.8 121.6 120.4 119 116.1 112.7 109.5 105.5 102.7 100.7 99.2 96.9 94.5 92.6 92.3 91.7 90.3 87.9 85.9 83.9 80.7 78.3 76.1 75.3 76.1 75.8 75.8 77.2 77.2 74.8 71.7 68.3 66 65.7 64.5 64.1 64.6 64 66.2 67.3 67.4 66.6 65.8 67.6 69.2 67.9 60.9 52.9 47.1 43.2 40.2 39.7 40.2 39.7 38.1 35.7 33.5 32.9 33.5 34.5 33.8 31.3 31.5 31.4 31.1 29.7 25.8
-0.9 -0.9 -0.9 -0.9 -0.9 -0.9 -0.9 -0.9 -0.9 -0.9 -0.5 0.4 1.1 1.8 10.1 4.1 6.7 12.2 18.1 35 57.8 83.8 110.8 127.9 142.1 149.7 155.9 162.3 166.2 169.3 171.4 155.1 177.3 185.7 194.2 200.5 205.9 213.6 220.9 232.2 247.8 260.9 271 278.2 285.1 290.7 297.9 309.5 320.8 328.2 336.2 342.3 343.7 345.3 342.9 342.5 342.6 343.9 343.8 343.4 339.6 333.5 330.8 328.1 324.1 325.3 326.5 329.9 334.9 346.1 355 361.5 366.5 371.6 379.6 383.2 386.6 390.6 392.9 392.8 391.1 384.9 377 369.5 359.7 349.6 335.7 322.2 311.5 302.9 294.8 287.7 278.6 268.1 260 252 244.1 235 227.8 222.3 216.6 210.9 203.6 197.1 188.7 186.3 184 181.5 176.5 171.1 168.5 162.9 160.3 159 155.9 154.4 153 151.7 149.3 147.4 145.7 143.9 143.8 143.3 141.6 140.1 139.3 136.5 131.9 128.1 124.1 120.9 119.2 117.6 116.4 115 113.5 110.6 106.8 103 99.5 96.4 94.3 90 88 87.5 86.3 84.5 85 85.2 84 83.2 82.6 81.4 79.7 77.8 77.1 77.9 78 78.7 79.8 79.5 78.7 75.9 73.8 73 72 70.9 71.7 71.4 71.7 72.1 73.4 74.2 74.2 76.1 79.5 81.6 81 75.6 65.8 59.6 55 52.9 51 50.4 50 47.6 44.9 42 40.5 40.8 40.3 39.4 36.9 37.9 38.2 37.9 35.4 33.2
-0.9 -0.9 -0.9 -0.9 -0.9 -0.9 -0.9 -0.9 -0.9 -0.9 -0.5 0.2 0.9 1.5 5.2 10.1 8.6 17.3 30.6 53.3 80.7 110.4 130.1 141.4 150 160.7 168.5 172.2 176.7 179 182.4 180.8 171.3 185.3 194.5 201.4 208.3 215.5 223 233.1 247.4 262.1 270.5 277.6 285.5 291.9 300.1 311.5 320.8 327.2 335.3 343.4 346.9 346.9 347.6 346.7 346.7 349.3 350.9 350.3 350.5 345.6 341 336.1 332.4 331.3 331 333 335.8 346.1 352.9 359.7 365.1 369.2 372.2 378.1 381.8 384.7 386.2 386.4 384.3 378.9 372.2 363.4 352.5 340.6 326.1 315.1 303.7 293.6 285.5 277.2 267.2 258.9 252.1 243.5 234.1 225.1 218 212 206.1 203.2 204.3 202.3 200.3 195.9 190.2 184.9 180.1 177.1 172.2 166.9 162.3 158.8 156.1 153.4 148.3 145 141.2 138.3 135.7 132.7 130.6 129.6 129.5 127.8 125 122.8 120.2 118 116.1 113.9 113.5 111.9 110.5 108.9 106.8 102.5 97.9 95.5 93.3 92.5 91.8 89.4 93.7 92.7 85.6 89.3 87.2 83.6 77.6 76.3 79.2 78.5 77 75.3 75.4 77.4 77.9 79.5 80.6 80.7 79.4 77.5 77.3 76.6 76.1 76.2 77.6 78.3 77.8 78 80.5 82.1 83.3 86.7 90.8 94.1 94.3 88.8 79.1 72.3 69.2 64.4 61.6 59.5 58.1 55.8 52.7 49.2 46.9 45.5 44.7 44.4 42.7 41.8 42.4 41.7 39.9 37
-0.9 -0.9 -0.9 -0.9 -0.9 -0.9 -0.9 -0.9 -0.9 -0.9 -0.9 0 0.6 1.2 1.8 11.2 19 29.7 49.8 76.7 103.9 132.5 141.3 150.6 160.4 172.3 180.1 186.8 187.8 191.8 192.7 191.2 187.6 186.2 193.4 201.8 209.8 216.2 222.9 230.8 245.3 260.1 269.2 277.7 285.6 292.3 301.2 311.3 320.4 327 335.5 342.3 346.8 350.3 352.7 352.2 351.8 353.1 355.5 356.8 356.1 355 350 344.8 340.6 336.4 336.5 335.4 340.3 346.3 351.4 356.3 361.1 364.4 367.5 372.3 375.7 378.3 379.4 378.9 376.4 371.7 365.9 356.4 346.2 334.3 321.9 312.7 300.3 286.6 272.7 265.2 258.9 251 243.6 236.9 228.4 218.2 217.1 215.2 214.1 213.1 211 208.9 205.3 200.5 194.3 189.5 184.3 179.5 174.5 169.5 165.1 160.9 157.1 154.6 152.6 149 145.7 140.8 134.7 126.7 126.6 123.8 122.5 121.2 118.2 116.3 114.8 113.4 111.7 109.5 109.1 106.5 102.2 101.6 104.5 103.9 103.1 100.4 99.2 98.3 97.9 97.4 96.2 95 93 91.3 88.9 84.8 80.9 75 74.2 74.3 73.3 72.3 73 74.7 75.9 76.3 78 78.2 78.9 78 79.3 80.1 79.8 80.6 82.4 83.1 82.2 83.6 86.7 89.6 92.6 98 102.3 105 105.2 101.6 92.4 87.2 83.3 77.2 71 68.6 65 61.3 58.7 55.4 51.7 50.3 49.3 49.4 46.8 44.9 44.3 42.7 41.7 38.9
-0.9 -0.9 -0.9 -0.9 -0.9 -0.9 -0.9 -0.9 -0.9 -0.9 -0.9 -0.2 0.4 1 1.6 6.6 27.5 45.1 71 100.6 130.9 144.8 153.7 166.2 179.7 187.6 197.1 200.9 205.6 206 203.7 200.3 196.1 193.3 194.2 200.3 208.9 215.9 222.9 231.1 242.6 256.4 268.1 276.6 284.7 292.3 301.8 311.5 319.8 327.4 334.5 341.5 348 352.3 355.8 356.3 355.1 355.8 358.4 361 360.6 358 354.4 348.5 343.9 340 338 336.8 340.5 345 349 351.2 355.1 358.4 360.9 364.4 369.6 371.7 371.9 371.1 368.9 364.2 358.5 349 339.9 331.5 320.3 311.4 297.9 282.6 267.9 257.6 246 241.5 236.6 229.8 222 224.2 222.6 220.7 220.1 219.8 219 215.9 211.9 206.2 200.1 195.2 189.4 184.4 178.4 172.9 167.7 161.8 156.9 153.7 151.1 147.9 143.4 137.8 131.9 127.3 123.3 122.6 120.4 118.4 116.6 113.9 112.1 111.5 110.3 106.7 105.9 103.6 109.5 110.7 111.1 110.2 107.2 104.8 102.3 101.7 100.8 99.3 98 96.2 93.6 91.5 87.7 83.3 79.8 76.1 72.9 70.2 70.6 70.3 71 70.7 70.7 71.6 74.5 75.1 75.8 76.3 77.1 79.7 81.1 85 85 84.8 85.5 87.5 93.5 98.2 103.1 108.2 111.8 113.3 112.9 109.6 103.9 99.4 95.3 87.9 80.2 73.3 70.4 66.2 63.4 61.1 57.3 54.9 53.4 52.6 50.5 47.3 45.1 42 40.8 38.4
-0.9 -0.9 -0.9 -0.9 -0.9 -0.9 -0.9 -0.9 -0.9 -0.9 -0.9 -0.5 0.1 0.7 1.6 4.6 43 66.2 95 129.2 145.7 157.4 173.9 185 195.5 202.7 213.8 218.6 218.9 218.8 217.7 209.4 204 201.6 202.6 205.5 210.9 217.4 224.4 231.7 239.9 254.4 265.7 275 283.9 293 302.3 311.7 319.8 328.5 336 343.5 349 353.8 356.9 356.7 356.4 357.1 359.4 362 361.4 358.9 356 350.7 343.5 339.1 337.2 336.7 337.6 340.8 344 346.3 348.3 352.6 355.6 357.8 361.7 363.9 364.8 364.3 362.5 358.4 352.8 346.5 338.8 331 321.9 309.9 292 274.2 262.4 249.1 246.2 239.6 230.4 232.3 232.5 232.2 231.2 228.5 227.4 226.6 225.3 223 217.4 213.3 208 200.8 194.7 189.2 180.7 174.9 169 163.1 156.2 152 147.3 141.8 137.8 135.7 134 133 131 129.2 124.7 123.6 121 117.8 117.6 116.2 111 112.1 114.1 113.6 115 115.6 116.5 115.7 111.7 106.7 105.1 104 102.7 100.5 97.6 96.1 92.9 90.6 87.3 82.2 78.6 76.4 74.9 71.9 67.9 68.3 67.7 67.3 67 67.6 69 70.8 73.1 74 75.5 78.3 81 84.1 85.4 87.2 88.9 93.5 101 106 110.6 114 117.4 118.5 118.4 115.3 110 106 102.5 96.3 87.9 79.9 76.7 72.6 67.8 65.4 63.2 58.1 56.3 54.3 48.9 45.6 43.3 39.9 38.1 36.6
-0.9 -0.9 -0.9 -0.9 -0.9 -0.9 -0.9 -0.9 -0.9 -0.9 -0.9 -0.9 -0.1 0.8 1.7 18.7 60.5 85.8 117.8 146.3 158.3 176.4 189.4 200.3 210.8 222.3 230 233.1 233.6 231.4 227.4 221.6 215 211.5 210.9 212.2 215.4 220.5 226.3 235.4 246.2 256.4 267.4 277.9 285.3 293.9 301.7 312.9 321.7 329.7 336.1 344.4 350.2 354.5 356.1 356.3 356.1 357.2 359.3 359.8 358.9 357.3 352.5 345.9 339.7 334.8 332.3 332.8 334.4 336.7 339.8 342.5 346 348.9 352 354.1 357.6 358.8 359.2 358.8 357.2 353.1 348.9 343.3 338.3 331 322.1 308 287.1 271.4 264.7 259.9 253.4 249.8 249.4 246.7 243.8 241.7 239.7 237.8 236.5 235.8 234.2 230.4 226.2 220.2 214.9 207.8 200.3 194 185 176.8 170.6 163.4 152.9 148 146.3 147.1 147 143.4 139.6 138.2 136.7 134.5 132 130.2 127.5 126 124.2 122.1 123.2 122.3 121.6 120.6 120.5 122.7 123.6 121.1 116.4 110.4 107 106.1 104.3 102 99.7 96.9 93.6 90.4 86.8 81.2 79.2 77.6 75.9 73.1 70.5 67.9 65.1 64.2 62.9 64.1 65 67.2 69.9 71.9 73.6 77.5 81 83.2 86.9 90.1 92.5 97.8 105.3 111 113.5 116.6 117.7 117.6 116.7 113.8 111.6 108 103.7 98.9 91.8 86.1 81.1 78.1 73.4 67.9 63.1 57.6 55.1 51.7 46.4 42.2 38.2 36.2 35.2 33.8
-0.9 -0.9 -0.9 -0.9 -0.9 -0.9 -0.9 -0.9 -0.9 -0.9 -0.9 -0.9 -0.9 0.6 2.7 32.2 77.7 107 142.5 156.9 176.3 190.3 204.3 215.8 227.9 238.9 242.4 244.6 244.9 242.2 239.9 235.9 229.4 223 219.7 219.2 221.2 225.9 230.9 240.1 252.3 261.1 270.8 278.7 287.5 296.6 305.1 316.7 326.5 332.6 339.4 345 350.1 353 353.3 353.8 354.9 355.2 355.2 354.8 354 350.7 343.9 338.2 331.5 327.5 325.7 327.6 329.4 332.6 335.8 339.6 343.4 346.4 348.4 350.2 353.1 354.2 354.6 353.7 352.6 349.7 345.9 341.9 337.2 330.4 323.6 315.3 301.1 288 279.1 270.3 267.5 264.2 261.2 258.8 257 253.9 250.5 248.9 247.7 247 244 239.4 234.8 228.3 222.4 215 206.5 198.9 188.7 179.9 169.7 160.4 155.2 153.3 154.5 156 156 152.7 148.6 147.2 146.1 143.8 142 138.7 136.5 136.1 134.6 133.4 131.9 130.7 130.6 131.7 132.5 133.5 132.1 127.2 122.2 115.7 110.8 108.5 105.7 103.2 100.7 98 93.4 89.2 85.1 81.9 80.3 79 78.3 76.2 73.6 70.9 68.2 68 66.7 64.7 61.1 63.6 66.5 68.2 72.3 76.2 80.1 82.7 86 90.2 94.7 100.1 104.7 106.3 107.5 107.7 108.7 109.3 110.5 108.9 107.3 104.4 101.1 96.9 91.8 86 82.8 79.3 73.1 67.2 59.9 54.1 50.4 46.4 41.9 36.7 34.5 32.6 31.5 30.9
-0.9 -0.9 -0.9 -0.9 -0.9 -0.9 -0.9 -0.9 -0.9 -0.9 -0.9 -0.9 -0.9 0.8 6.4 46.7 100.2 136.9 160.3 173.3 192.3 206.3 219.3 234.1 248.6 255.4 260.5 261.2 258 254.1 251 247.3 243.1 239.6 235.6 232 231.9 236.4 243.2 247.5 256.5 265.4 275.3 284.2 294.3 302.4 312.5 319.7 330.3 334.9 341.1 346.1 347.5 349 350.2 350.6 350.9 349.6 349 348.4 345 340 333.8 327.2 321.9 319 319.7 320.9 323 326.7 331.1 336.6 340.6 342.7 344.4 345.8 347.3 348.8 349.7 349 348.3 345.5 342.7 339.6 334.2 329.3 324.4 318.2 312.1 301.9 287.7 281.7 277.7 274.4 273.8 271.5 269.6 267 265.2 265.2 264 261.4 256.1 249 243 236.1 229.2 219.9 211.9 202.2 192.3 181.8 173.8 166.4 163.6 162.4 162.8 164.3 165.3 164.1 162.6 160 159.4 155.8 152.5 149.7 147.4 147.1 145.9 145.4 143.9 142.8 142.4 143.6 144.9 144.2 142.1 137 132.1 123.4 116.9 112 110 106.3 102.9 98.7 93.4 90 85.9 84.6 83.5 83.1 81.8 80.4 78.2 75.5 71.8 69.9 67.6 65.5 60.5 60.1 61.3 65 69.9 73.9 77.4 81.1 84.6 88.3 92.7 94.8 95.8 96.6 97.4 98.1 99.5 101.1 102.7 102 100.5 98.4 95.6 92.8 89.2 84.7 81.3 76.5 70.7 62.9 55.5 49.3 44.9 40.8 37.6 32.3 30 28.3 26.5 24.6
-0.9 -0.9 -0.9 -0.9 -0.9 -0.9 -0.9 -0.9 -0.9 -0.9 -0.9 -1 0.2 1.3 37 71.7 126.3 156.5 169.6 190.4 204.7 217.6 237.2 249.2 260 268.1 274.7 277.6 275.5 270.9 264.6 260.6 255.7 251.8 250.4 248.5 248.5 251.7 253.5 258.3 263.7 270 279.7 290.9 300.1 311.9 321.1 328.7 333.6 338.1 342.5 345.1 345.8 346.4 346.6 346.6 345.6 343.8 341.3 337.9 333.3 327.5 319.7 314.1 310.6 310 311.8 313.1 316.7 322.2 328.4 333.7 336.9 340 341.1 342.6 342.8 343.3 344.2 344.4 343.3 342 339.2 336.1 331.1 327.1 322.7 318.5 312.9 306.6 297.5 293 289.5 286.8 284.6 286.5 284.6 283.3 282.2 279 276.1 272.8 267.4 262.7 250.6 239.8 232.7 223.5 212.7 203.5 194.4 184.9 177.9 174.5 174 173.8 173.2 173.5 175.6 174.2 173.5 172.3 170.5 168.5 165.8 162.4 158.7 158.7 158.2 156.3 154.7 153.7 152.8 153.6 154.4 154.2 153 149.7 142.4 133.9 124.2 119.3 117.4 113.4 109.8 105.2 99.5 94.7 91.8 88.5 87.3 86.5 85.8 84.4 82.8 79.6 76.9 72.5 69.4 67.3 62.7 59 58.6 60.7 64.7 69 73.6 76.1 79.5 81.9 83.9 85.4 86.4 87.4 88.7 91.6 93.7 94.3 95 94.6 93.7 92.4 90.3 87.5 84.6 80.7 76.5 72.1 66.3 58.3 50.8 46.7 41.3 37.2 32.2 28.4 23.5 20.8 17.5 17
-0.9 -0.9 -0.9 -0.9 -0.9 -0.9 -0.9 -0.9 -0.9 -0.9 -0.9 -0.9 0.8 14.1 89.7 125.2 152 166.6 183.6 204.4 216.8 233.5 248.5 258.9 269.5 278.1 284.8 285.8 285 284 283.2 279.2 272.7 267.3 264.9 261.9 262.1 263.1 264.3 267.8 271.1 277.5 288.8 297.7 307.8 319.2 326.3 333 338 340.8 343.7 343.8 343.2 343 342.7 341.1 339.3 335.9 331.9 326.6 320.2 313.9 309.7 305.7 303.9 304 306.1 309.3 314.1 320 326.1 331.4 334.4 336.8 338 338.7 339 338.1 338.2 339.1 338 337 334.5 330.8 326.4 324 319.8 316.4 312.3 310.3 307 303.1 299.5 298.1 299 299.1 300 299 296.9 293.8 289.8 284.3 278.2 271.2 262 245.1 231.9 221.6 212.9 205.1 198.1 192.4 188.5 184.9 184.8 184.5 184.3 186.6 188.5 186.7 185.9 184.5 182.2 179.5 177.4 173.7 172.7 172.3 171.3 168.3 166.8 165.9 164.9 164.4 163.9 163.2 161.4 157.3 152.8 144.1 133.6 128 124.9 120.8 116.3 111 106.1 101.8 97 93.5 91.5 90.4 90.1 89.3 88 85 82.1 78.2 74.4 69.6 65.2 61.3 56.5 56.5 59 63.2 66.1 68.6 71.1 72.4 73.7 75.4 76.5 78 79.9 82.8 84.8 86 87 86.8 86 86 84.2 81.9 79.4 75.9 71.7 67.3 62 55 48.4 42.6 38.1 33.5 28.1 23.3 16.1 13.6 11 1.8
-0.9 -0.9 -0.9 -0.9 -0.9 -0.9 -0.9 -0.9 -0.9 -0.9 -0.9 -0.9 1.7 84 114.9 145 176.5 179 199.9 212.6 230.8 243.3 254.9 266 277.6 285.8 290.3 293.6 296.2 298.1 296.1 294.3 290.2 283.4 278.3 276.1 275 275.4 274.8 278.3 281.5 289.7 298.7 304.1 314.5 325.4 332.5 339 342.6 343.7 344.6 342.9 341 339.5 337.3 335.5 330.8 326.3 321.1 314 308 305.4 302.9 299.8 298.6 299.3 302.2 306.7 311.7 318.3 323.6 328.2 331.3 333.4 336.4 336.3 333.9 332.9 331.9 331.9 331.7 329.2 325.7 322.8 321 318.8 316.7 313.8 312 311.7 310.9 309.4 308.5 308.1 311 313.2 313.6 312.1 311.4 306.2 301 296 289.4 279.7 265.4 243.1 228.8 221.8 215.3 210.9 207.3 204.4 201.2 197.9 198.3 199 199.8 201.2 201.8 201.6 200.6 199 196.2 194 189.3 186.5 183.3 182 182.2 180.2 178.7 177 175 173.9 173.4 171.6 167.5 162.7 156.5 147.4 140.1 137.1 133.5 129.1 123.9 118.6 112.3 106.8 102.3 98.4 96.1 95 94.5 95.6 94.2 91.2 88.1 84.8 79 75 70.4 64.3 60.1 59.1 54.4 55.6 57.9 60.3 62.3 62 63.4 64.5 66.4 68.1 70.2 72.4 75.2 77.4 78.4 78.6 78.4 78.4 78.1 76.5 73.9 70.3 65.5 62.3 57.2 50.2 43.4 39.3 35.3 28 22.2 15.2 -0.9 0 -0.9 -0.9
-0.9 -0.9 -0.9 -0.9 -0.9 -0.9 -0.9 -0.9 -0.9 -0.9 -0.9 -0.9 74.5 107 132.7 164.8 187.7 191.8 212.4 220.4 242.5 250 262 272.2 282.9 293 296.7 303.5 307.3 309.9 308.8 306.7 302.6 300.1 294 288.6 286.8 287.7 287.6 290.4 296.7 301.6 308.3 313.7 323.6 332.4 338.4 342.8 345 345.2 344.1 341.7 338.4 335 331.7 327.2 321.4 314.8 307.5 302.2 300.1 297.8 296.1 294.6 293 293.9 298.9 304.3 309.5 314.3 320.6 324.9 330.1 332.4 334.1 333.3 329.8 326.8 324.2 322.2 319.2 317.9 314.6 314.1 313.8 312.8 311.1 311 310.8 310.9 312.4 313.1 313.2 313.2 314.7 317.9 319.6 320.8 320.6 317.5 311.8 305 299.3 288.6 267.8 248.2 234.3 227.2 221.6 218.6 216.9 213.8 211.1 209.2 209.3 210.1 212.2 213.5 213.4 212.9 212.3 210.3 208 204.3 200.4 196.9 193.2 191 189.3 189.2 188.3 187.4 185.8 183.6 181.4 180.8 176.9 170.5 164.3 153.9 148.2 145.2 142.4 138.6 132.2 125.7 119.4 113.1 108.5 104.2 101.8 98.8 98.8 99 99 97 93.9 89.6 84.2 80.8 76.2 69.6 64.7 63.9 61.3 60.3 52 52.1 52 51.3 52.1 52.5 57.4 59.7 60.4 61.4 64.1 67.4 69.5 70.4 71.1 71.4 71 69.8 66.5 62.7 58.4 55.9 51.7 45.3 39.7 36 30 22.7 15 -0.9 -0.9 1.4 -0.9 -0.9
-0.9 -0.9 -0.9 -0.9 -0.9 -0.9 -0.9 -0.9 -0.9 -0.9 -0.9 -0.9 104.4 131 159.6 179.1 193.4 201.1 218.4 232.8 246 254.2 266.1 274.9 282.5 291.9 301.8 310.5 316.1 319.5 319.8 315.9 313.1 309.1 307.7 305.9 301.9 299.8 299.3 302.5 310.1 313.1 317.8 324.3 330.5 336.4 340.7 343.8 345.1 345.7 342.4 339.6 335.9 331.1 324.9 318.2 310.4 303.1 298.4 295.2 292.7 291 289.7 288.7 285.4 291.3 297 301.5 307.2 310.7 317.4 325.2 330.3 331.6 331.2 328.7 324.4 319.1 315.4 312.5 310.3 309.5 306.8 306.5 305.4 305.8 305.8 307.8 309.3 310.7 311.6 312.6 313.4 314.2 315.9 317.3 320.5 322.7 323.2 322.3 319.2 315 310.1 302.1 284.3 264.1 248.3 236.6 229.6 227.2 226.4 224.4 222.2 221.4 221.2 222.3 223.6 224.4 223.9 223.2 221.6 219.6 217 213.2 209 204 200.5 196.7 195 194.6 195.3 193.8 193.2 191.8 190.7 190.9 188 180.4 172.1 163.8 155.2 149.4 147.2 143 138.4 132.1 125.3 119.4 116 110.5 105.8 103.6 101.8 101.6 101.9 100.9 98.9 96.8 91.7 87 82.6 76.8 73.5 71.2 69.6 65.3 62.4 58.3 52.2 48.8 47.8 46.4 47.3 55.1 55.5 54 54.8 55.8 58.1 59.8 61.7 62.9 62.7 61 58.6 55.1 52.4 49.9 45.9 38.9 35.8 30.2 23.3 7.8 1.9 13.4 12.2 9 -0.9 -0.9
-0.9 -0.9 -0.9 -0.9 -0.9 -0.9 -0.9 -0.9 -0.9 -0.9 -0.9 3.6 126.1 146.6 171.4 184.2 193.8 202.2 219.5 235.5 246.6 254.4 264.5 272.1 278.4 287.3 300.2 310.9 319.1 323.3 323 322.8 318.4 317.3 317.9 318.6 316.6 313 312.4 315.2 318.7 321.6 325.8 328.8 333.7 338.9 343.8 345.7 346.1 345.3 341 336.8 332.4 326.7 317 308.8 303.1 297.8 292.7 288.8 287.1 285.5 283.8 282.3 280.5 287 292.3 298.6 305.4 310.5 316.7 321.5 325.7 325.8 325.5 323.2 318.6 314 308.8 306.5 304.8 303.3 300.1 298.2 297.8 298.3 300.2 303 305.2 306.4 307.7 308.4 310.8 313.1 314.6 317.1 320.6 323.2 324.2 323.9 324.3 322.1 318.6 312.4 302.7 283 269.8 255.8 244.6 242 240.9 239.5 236.7 235.6 236.4 235.9 234.6 235.1 233.2 231.3 229.1 226.2 222 219.4 215.3 210.2 206.7 203 200.9 199 199 199 197.1 195.7 193.2 192.9 192.2 185.1 177.9 170.3 162.6 155.9 150.3 149.1 144.2 138.7 131.5 127.2 122.5 116 112.2 108.6 106.3 105.9 106.1 106.1 104.7 103.8 100.1 95.8 90.5 85.1 84.5 80 78 75.4 70.8 66.3 62 58.7 58.1 57.2 51.6 44.2 45.8 41.2 40.6 44.8 46.2 48.3 50.4 51.6 51.8 51.3 50.4 48.2 46.1 43.9 39.6 34.8 30.2 21.1 5.1 1.9 13.9 16 13.5 10.2 1.2 -0.9
-0.9 -0.9 -0.9 -0.9 -0.9 -0.9 -0.9 -0.9 -0.9 -0.9 -0.9 1.4 150.5 167.7 180 186.5 194 204.4 217.2 230.2 244.8 253.5 260 266.4 271.3 283 293.6 304.2 313.2 318.4 320.5 320.9 319.4 322.6 325.1 324.8 323.5 324.2 324.7 324.5 327.5 329.8 331 332.5 336.4 341.3 345 346.3 344.9 341.9 337.5 333.7 328.7 321.6 312.1 304.8 298.4 291.5 286.1 282.1 280.4 279.6 277.8 275.8 281.8 286.7 294.5 299.1 303.6 309.2 314.3 318.4 321.1 322 321.6 317.9 313.2 308.1 304.7 299.7 298.6 297 294.8 293.2 293.2 293.7 295.9 296.7 299.3 301.1 302.4 303.6 306.2 310.4 314.2 316.6 320.8 323.9 325.6 326.9 327.8 326.9 323.4 320.1 312.3 303.7 286.7 274.8 262.6 262.6 260.1 257.1 254 251.8 250 247.3 245.5 243.7 240.5 236 233.5 229.7 224.5 220 216.2 212.9 210.7 206.7 206 203.1 202.8 202.1 200.8 198.1 194.5 193 191.9 186.2 179 172.6 166.9 160 154.9 153.2 148.2 143.5 138.6 133.2 128.1 124.7 121.1 115.2 111.6 110.8 110.3 110.3 110.7 109 106.3 104 99.4 96.3 94.7 90.7 87.5 85.4 80.7 76 71.1 68.4 66.3 63.4 60.3 56.1 51.7 49.3 46.7 38.9 36.2 35.4 39.6 41.8 42.1 41.3 40.9 39.5 36.8 34.9 32.6 27.8 19.5 5.5 13.6 16.2 16.7 17 14.5 11.6 2.1 -0.9
-0.9 -0.9 -0.9 -0.9 -0.9 -0.9 -0.9 -0.9 -0.9 -0.9 -0.9 1.4 34.8 132.9 179.6 189.7 195.9 203.5 213.9 222.9 236.6 247.7 253.8 260.9 266.9 277.2 288.1 296 303 307.7 311.7 313.6 317 321.1 325.6 327.3 328.9 331.1 332.5 333.8 335.7 336.7 337.2 336.1 338.3 341.7 343.3 344.1 341.7 337.9 333.9 329.5 324.5 316.4 308.9 302.5 295.5 287.7 278.1 274.2 272.2 269.8 271.1 278 282.1 286.4 293 297.6 302.5 306.5 310.5 315.5 317.9 318.5 318.4 314.7 308.9 304.6 298.1 292.3 290.6 289.5 289 287.6 289.2 289.4 291.5 293 294.2 295.4 297.7 299.8 303.2 308 312.4 317.1 321.7 324.4 326.7 328.3 329.2 329.3 327.8 325 320.9 316.1 307.7 297.5 287.9 284.2 278.3 274.8 270.1 266.1 262 258 253.6 249.9 245.8 240.3 235.4 230 224.3 221.1 217 213.1 210.7 209 207.2 203 202.2 202.1 201.2 197 193.2 190.8 187.9 181.7 175.1 169.4 165.2 159.7 154.8 152.8 148.4 144.9 141 136.7 133.4 131.4 126.1 120 119.2 115.7 114.5 112.8 113.2 111.1 111.6 109.3 107.7 106.7 104 101.1 97.7 95.7 92.6 87.5 83 78.6 75.3 71.4 68.1 65 61.7 55.6 48.4 44.3 41.2 37.7 32.8 32 33.4 33.2 33.2 30.5 28.3 26.9 25.7 11.9 9.2 18.2 19.9 19 18.6 19.1 16.8 13.1 8.1 -0.9
-0.9 -0.9 -0.9 -0.9 -0.9 -0.9 -0.9 -0.9 -0.9 -0.9 -0.9 2.3 104.6 153.9 181.5 191.7 197.4 204.5 209.7 217.8 225.3 233.7 240 252.2 261.3 269.5 277.8 287.9 295.5 302 303.5 310.2 314.2 316.6 321.6 325.9 330.5 335 335.9 337.1 340 340.7 340.1 338.1 337.7 339.5 341.1 340 335.1 332 329 324.9 318.8 311.4 304.6 297.8 290.6 282.6 274 266.9 265.1 267.8 274.7 277.6 281.7 285 289.2 294.3 299.4 303.4 307.5 312.1 314.4 315.6 314.7 310.5 305.7 298.9 292 287.3 283.5 285 285.2 284.5 285.6 286.3 286.7 289.4 289.3 291 292 296.2 302.8 308.3 312.3 316.4 320.5 324.4 326.6 328.7 330 330.7 330.4 328.8 327.1 323.1 319.1 311.5 306.2 301.6 295.8 288.3 281.6 274.9 268.7 265.4 259.5 253.8 248.3 242.6 237.6 232.2 225.2 221.3 216.6 213 208 206.4 204.3 200.3 199.2 199 197.4 192.2 188 184.4 180.6 175.8 169.1 164.6 160.9 155 152 148.1 145.1 143.1 139.9 137 135.2 133.3 130.6 123.4 122 118.1 116 114.2 114.3 111.8 112.7 113 112.9 112.9 111.9 109.5 106.8 105 102.4 98.5 94.3 91.4 85.2 80.1 76.1 71.5 68.9 62.1 53.1 46.3 42.1 40.5 37.7 36.2 34 25.7 23.4 22.6 23 21.6 14.7 11.8 22 22.5 22.6 22 21.4 21.2 19 15.8 9.4 -0.9
-0.9 -0.9 -0.9 -0.9 -0.9 -0.9 -0.9 -0.9 -0.9 -0.9 -0.9 -0.9 170.1 178.6 188.2 193.2 197.5 201.4 206 211.6 216.6 222.5 228.3 238.7 245.9 255.4 265.2 276.9 286.3 295.2 297.9 303.6 308.5 310.6 317.2 326.1 329.9 334.4 336.4 337.7 338.2 338.4 337.3 335.5 335.4 335.4 334.9 332.1 328.1 325.6 322.7 318.4 313.3 306.8 299.9 292.9 285.7 275.8 268.2 262.5 263.6 268.5 272.8 276.9 279.3 281 283.5 288.5 294.3 299.1 303.3 307.4 310 310.9 309.7 306.5 301.2 294.7 289.4 285.4 278.7 279.1 280.3 281 280.9 282.9 283.9 284.5 283.8 279.7 288.3 294.2 301.2 308.4 313.3 317.1 321.7 324.7 326.1 328.3 330.7 332.8 333.5 333.4 331.7 328.6 324.2 319.2 313.1 309.2 304 298 289.6 282.2 274 269.1 263.3 255.1 248.7 243.1 237.4 230.4 225.6 220.6 216.4 210 204.8 203.1 200.1 197.3 196 194.5 191 186.7 182.3 178.6 174.9 170.1 165.4 159.2 155 150.3 147.1 142.9 139.1 137 135.3 133.7 132.5 132.1 129.5 124.8 122.7 116.6 115.3 112 112.6 111.6 112 114.5 115.7 116.8 116.9 114.9 112.3 112.7 110.6 108 105 101.6 95.1 88.7 83.7 80.5 75.4 67.4 58.4 51.3 45.3 43.2 41 39.5 37.5 34.3 29.9 27.4 25.2 24.3 23.8 24.7 25.4 25.8 25.7 25.2 24.5 23.7 22.3 19.4 14.2 -0.9
-0.9 -0.9 -0.9 -0.9 -0.9 -0.9 -0.9 -0.9 -0.9 -0.9 -0.9 -0.9 79.5 173.6 185 191.6 196.3 199.5 202.7 208.4 212.4 216.5 222.3 230.1 235.9 241.7 250.3 263.4 278.1 287.2 292.8 297.8 296 304.3 314.5 324.1 327.9 330.7 333.3 334.6 334.1 333.6 332.7 332.7 330.8 329.4 328.2 324.7 321.1 317.4 316 312.2 307.7 300.9 295.4 288.3 280.5 270.1 261 255.4 261.8 265.6 268.8 270.7 273.7 276.5 280 283.3 288.1 292.8 297.1 300.5 302.7 304 303 300.1 296.1 290.8 287.1 282.3 275.6 270.9 272.2 274.9 275.9 276 277.2 273.8 279.8 287.4 293 298 301.9 309.4 313.8 317.8 321.8 325.1 327.4 330.4 332.5 335.4 337.2 337.2 335.1 331.7 328.5 324.6 319.4 314.3 308.1 300.6 293.5 285.9 278.5 271.3 263.8 255.2 248.3 241.3 235.1 228.9 223.5 218.1 212.7 206.5 201.8 198.2 195.6 193.5 191.3 187.3 183.8 178.8 175.6 171.9 167.2 162.3 158.7 154.2 150 144.4 141.1 137.4 133.8 131 129.6 127.7 128.3 127.1 125.8 121.9 118.7 115.1 112 109.3 109.4 108.2 108.5 112.1 114.1 116.8 118.5 118.4 118.3 118.2 117.8 116.1 113.9 110 104.4 96.6 93.2 89.4 84.4 76.2 66.7 59 50.1 46.8 44.3 42.2 40.1 38 34.5 32.8 30.4 28.5 28 27.4 27.6 29 29 28.4 27.3 26.8 25.6 23 18.3 9
-0.9 -0.9 -0.9 -0.9 -0.9 -0.9 -0.9 -0.9 -0.9 -0.9 -0.9 -0.9 60.5 173.8 181.6 186.6 193.3 197.4 199.8 204.8 207.9 213 216.8 223.8 229.9 234.2 243.5 257.9 269.1 273.4 279.9 285 287.8 296.6 307.9 315.5 321.3 324.6 328.6 328.9 328.8 328.1 327.5 326.2 324.6 323.2 319.8 315.2 311.5 309.4 307.1 304.4 300 296.5 290.4 283.2 273 261.5 252.2 253.5 258.1 261.5 264.7 266.3 267 269.7 273.9 276.5 281.3 285.8 289.5 293.5 295.3 296.3 295 292.5 288.5 284.8 282 275.5 271.2 263.3 266.9 265.6 267.8 266.4 270.3 277.2 284.7 290.3 296.2 301.4 305.7 310.4 315.2 319.3 323.6 327.3 331 333.6 335.5 338.3 339.2 338.7 337.9 336 332.8 329.6 325.1 319.4 312 304 294.1 287.1 280.1 273.8 265.4 255.4 247.3 238.9 232.2 226.2 220.9 215 208.6 203.4 199.2 191.9 189.8 188 183.9 178.2 173.7 170.4 167.1 163 156.6 152.4 149.9 147.3 143 138 134 130.7 127.7 125 123.1 121.8 122.3 121.6 119.5 117 115.2 111.2 107.6 105.6 104.9 102.8 103.4 107.5 110.8 115.1 117.6 119.6 120.8 122.7 122.7 121.5 120.2 117 111.3 105 102.7 96.4 92.5 85.4 76.2 64 55.8 50.9 48.5 46.1 44.3 42.9 41.2 38.6 35.8 33.6 32.1 31.9 32.1 33.6 32.7 31.6 30.2 29.9 28.5 27 23.5 18
-0.9 -0.9 -0.9 -0.9 -0.9 -0.9 -0.9 -0.9 -0.9 -0.9 -0.9 3.8 78.2 109.1 147.2 182.8 187.7 192.7 195.1 200.1 203.9 209 212.4 220.4 223.2 228.2 237.5 249.7 258.8 266.5 271.6 272.8 279.9 288.4 298 306.7 314.6 318 320.8 322.3 322.3 322 321 319.3 316.6 312.4 308.3 305.2 303.4 301.5 299.8 298.2 294.2 289.8 285.1 277.8 267.5 254.5 243.8 246.3 251.6 253.5 257.7 258.9 261.4 263 265.3 270 274.1 277.4 281 283.3 284.5 285.7 282.7 278.5 276.8 274.6 272.2 270.2 264.2 256.5 258.2 256.7 258 266.3 274.3 282.2 289.1 294.2 298.5 304.4 308.8 313.6 317.5 322 327 330.1 334.9 337.1 337.3 338 340.5 341.8 341.9 341.1 339 334.9 328.7 322.6 315.1 306.1 295.2 289.2 283.3 276.6 270.7 261.1 252.6 243.7 237 230.8 223.4 216.1 208.7 202.9 199.2 189.7 186 180.3 173.3 171.3 162.4 156.1 154.4 150.4 145.1 143.2 141.9 139.7 135.9 131.6 128.8 125.1 121.5 118.5 116.3 115.6 115.7 114.8 112.9 110.1 109 105.5 102 101.2 99.7 98 98.4 102.6 105.4 111 114.7 117.8 120.6 123.2 125 124.8 124.3 121.8 118.3 112.8 108.4 103.3 99.1 92 82.8 71.3 62.5 56.8 53.4 51.2 49.8 48.7 46.7 44.4 41.8 40.3 39.5 39.5 40.1 39.2 38.9 37.8 35.7 34.1 33.6 32.8 27.9 22.8
-0.9 -0.9 -0.9 -0.9 -0.9 -0.9 -0.9 -0.9 -0.9 -0.9 -0.9 -0.9 7.8 164 171.2 177.2 181.2 184.6 190.3 194.5 198.8 202.7 209.5 213.9 221 227 233.4 240.6 250.5 259.4 263.1 266.2 273.8 282.3 289.7 297.9 306.9 312.8 314.5 316.9 316.1 315.7 313.4 310.4 307.5 304.2 302.5 299.5 297.9 296.8 295.5 292.4 289.1 285.4 279.7 270.6 259.4 247.1 238.8 240.5 243.7 245 246.8 250.5 252.5 255.9 258 261.6 264.3 267.1 270.4 272.1 272.2 271.8 270.6 268.1 267.4 266.4 264.5 261.4 257.8 250.5 252 255.3 262.4 268.4 277.2 286 292 296.7 301.3 306.6 311.2 316.9 320.7 325.3 330.3 333.7 336.8 338 338.8 342.6 344.7 346.1 347.2 346 343.9 339.8 333.8 325 317.1 310.2 302.5 295.3 287.4 280.9 275.5 267.5 258 248.8 241.1 234.6 226.9 218.9 211.5 205.4 200.4 192.4 188.5 183.6 180.7 178.3 170.3 162 153.9 145.6 141.8 134.8 133.8 132 129.3 127 124.2 119.9 116.8 113.1 110.6 108.7 107.4 106.5 105.1 102.2 99.8 97.5 94.4 92.9 93.3 93.3 92.1 95.1 99.9 105 109.7 113.7 117.8 121.4 124.3 126 126.3 125.9 123.3 120.1 115.3 109.5 104.9 97.6 89.7 81.7 72.9 65.3 60.2 56.9 55.6 53.7 52.7 50.7 48.9 47.3 46.3 45.2 45.5 45.5 44.8 43.2 41.7 40.6 38.3 35.2 32.5 27.4
-0.9 -0.9 -0.9 -0.9 -0.9 -0.9 -0.9 -0.9 -0.9 -0.9 -0.9 -0.9 1.7 161.7 165.8 168.9 172.5 177.1 183.2 186.3 193 199.6 204.8 210.7 218.3 226.6 229.6 236.6 243.9 250.2 255.5 260.6 269.4 277 284.3 293.9 302.1 307.1 310.9 311.8 311 309.2 307.5 303.7 301.7 299.8 297.9 294.9 292.6 291 289.4 287.3 284.6 280.2 273.2 264.3 251.2 240.4 233.4 236.3 238.1 239 239.8 242.3 243.1 244.9 246.5 248.4 251.5 253 255.7 257.6 258.9 260.1 260.3 258.6 257.9 257 255.6 252.3 253 247.3 252.4 258.6 265.3 273.6 282 288.7 294.1 298.5 303.5 308.4 314.2 318.6 322.4 328.1 333.6 337.3 339.9 341.5 342.9 346.9 349.2 350.8 352 351.5 347.7 343.3 336.7 328.7 319.7 313.1 306.4 300.8 292.8 286.8 279.9 273.6 263.8 253.8 245.2 238.2 229.9 221.9 215.9 208.9 203.2 196.3 191.7 187.1 185.1 180.8 174.1 166.3 159.9 151 142.2 139.6 136.4 132.1 128.9 125.1 119.1 115.2 112.2 107.9 105.2 104.1 102.3 100.2 98.4 96.1 92.8 89.7 88.2 85.9 85.8 85.8 84.8 86.1 92.2 97.5 102.6 107.8 112.8 117.8 121.5 124.1 127 128.6 127.3 125.7 122 115.2 109.2 103.4 97.4 89.8 81.9 73.5 67.4 64.8 64 62.3 60 58.2 55.4 52.8 51.2 50.1 50.8 50.7 49.7 48.3 46.7 44 40.8 37.9 36.1 32.1
-0.9 -0.9 -0.9 -0.9 -0.9 -0.9 -0.9 -0.9 -0.9 -0.9 -0.9 -0.9 1.7 158.3 160.6 162.9 167.9 172.6 176.1 181.1 188.5 192.2 201.9 208.6 215.9 221.3 227.6 234.1 240.4 245.6 250 256.8 267 274.8 282.1 292.5 301.1 305.7 307.4 308.1 307.1 305.1 301.4 298.3 297.2 295.2 291.7 289.2 287.6 286 284.6 283.6 280.3 275.6 266.4 253.1 242.3 236.9 232.4 232.1 232.7 233.6 234.2 235.7 236.3 237.7 238.6 240.1 241 241.9 244.7 246.7 248 248.7 250.7 249.5 249.1 247.2 245.9 239.7 243.5 250.9 256.1 260.7 268.2 278.4 284.9 290.4 295.8 300.3 303.8 308.9 314.3 320.5 324.7 330.9 336.3 339.7 341.7 343.9 346.1 347.9 349.9 351.6 353.3 354.2 350.4 344.6 338.2 330.2 321.7 315.4 310 305.8 299.8 291.7 284.8 278.2 269.4 258.7 249.6 241.2 232.4 224.5 217.9 212.2 206.5 200.7 194.6 190.2 189.2 182.7 176.5 171.7 164.6 155.4 147.6 143.7 141.3 136.5 131.4 127.6 123.8 121.2 118.3 113.8 110.1 106.8 102.4 97.5 93.7 91.7 90.9 88.4 85.5 85.1 82.5 80 79 79.4 80.1 87.9 93.4 99.9 106 112.1 116.6 122.6 126.6 129.2 129.4 128 126.1 119.1 113.3 109.3 104.5 98.5 90.2 82.4 75.6 72.7 72.5 71.3 68.6 66 62.9 61.1 58.6 57.3 58.2 57.1 55.4 53.3 49.8 46.6 43.4 40.6 38.9 36.8
-0.9 -0.9 -0.9 -0.9 -0.9 -0.9 -0.9 -0.9 -0.9 -0.9 -0.9 -0.9 1.7 150.3 152.6 156 159.2 164.9 171.7 178.3 183.4 190.1 199.4 204.9 211.4 215.5 221.9 227.4 233.9 237.7 243.5 253.3 266.7 274.7 283 293 299.4 304.1 304.9 304.6 303.3 300.2 297.4 294.4 291.9 288.6 286.3 284.9 283.6 282.2 280.8 279.5 275.2 266.1 254 244.1 238.4 234.1 229.1 228.8 228.9 229.1 229.7 230.7 230.8 231.8 234 234.4 235.7 236.6 237.8 238.7 240.7 241.1 241.9 241.9 240 237.1 236.7 242.2 249.6 254.6 261.1 264.2 273.1 281.7 286.4 291.4 296.7 300.7 305 310 316.5 323.4 328.7 334.9 338 340.6 343.3 345.4 347.3 349.1 350.3 351.9 353.5 354.7 351.2 344.4 338.4 331.2 323.2 316.8 313.2 309.9 304.9 295.1 288.1 280.9 273 262.9 252.8 242.5 233.8 226.5 219.7 213.5 207.8 203.5 198.1 194.4 192.1 185.2 182.9 176.1 168.4 159.9 153 148.2 144.8 140.9 135.1 130.9 126.8 123.5 121.9 118.8 114.8 111.5 108.1 104.8 101.1 97 94.1 90.7 87.6 84.4 83.3 82.3 81 77.5 74.7 77.6 85.7 93.2 99.7 106.2 111.6 118 124.8 129.1 130 131.2 129.7 124.8 119 114.9 111.2 105.9 98.4 91 83.8 81.5 80.4 79.4 76.2 73.3 72 69.8 67.2 66 66.3 64.7 61.2 57.7 54.7 49.2 46 43.3 41.7 39.5
-0.9 -0.9 -0.9 -0.9 -0.9 -0.9 -0.9 -0.9 -0.9 -0.9 -0.9 -0.9 -0.9 -0.9 28.4 63.5 64.6 108.4 136.7 166.4 178.3 186.2 196 198.9 203.1 211.8 220.9 226.3 230.6 237.2 244.2 252.4 265.3 277.6 286.4 293.7 299.4 302.7 303.2 301.5 299.7 297.5 294.7 290.5 285 282.2 278.9 278.4 277.4 277.2 276 271.7 264 254.8 247.3 241.6 235.3 229.9 225.1 224.4 225.1 225 224.6 224.5 224.6 225.8 227.3 229.1 230.5 231.8 232.8 233.6 234 234.8 233 229.6 231.3 240 244.6 247.7 250.1 255.4 263.1 271.7 277.9 283.4 288.1 292.6 297.6 302.4 308 313.1 320.7 326.9 333.3 336.7 340.2 343.4 345.2 346.9 348.5 350.1 350.7 351.9 353.2 353.7 349.1 342.8 336.9 329.9 323.4 317.7 314.8 311.2 306.1 296.8 289 281.9 274.7 264.5 254.5 244 234.8 227.3 220.4 214.7 211 206.5 199.9 196.9 193.1 190.9 186.9 180.6 174.2 167.5 158.8 155.6 150.7 146.2 140.8 134.5 130.4 126.5 124.4 123.3 120 116.3 112.7 108.5 104 100.8 97.7 94.4 91.1 88.6 87.4 86.3 85.6 82.7 77.5 69.6 76.1 86.2 93.8 100.4 107.7 114 121.5 127.3 131.1 132.9 133 129.4 124.5 119.5 115.5 110.3 104.1 98.2 91.8 89.3 87.5 85.9 83.3 80.7 79.3 78.4 77.2 76 73.8 71.7 68.2 64.1 58.8 53.6 48.7 46.1 43.9 41.3
-0.9 -0.9 -0.9 -0.9 -0.9 -0.9 -0.9 -0.9 -0.9 -0.9 -0.9 -0.9 -0.9 -0.9 1 29 99.6 156.5 157.7 163.9 171 178.6 187.4 192.4 197.1 207.3 218.1 226.5 232.8 236.4 246.3 251.8 261.9 276.1 285.6 292.8 297.7 300.5 301.2 299.2 297.6 294.8 290.7 285.9 279.1 275.6 273.5 272.3 271.7 269.5 266.7 260.7 255.7 249.1 243.9 238.8 231.1 225.6 221.3 219.3 219.9 220.1 219.6 218.4 218.9 220.6 222.5 224 225 226.6 227 225.5 223.7 223.8 228.3 235 238.8 243.2 249 253.7 258.1 263.6 268.4 274.7 280.5 285.5 291 295.7 302.1 306.9 312.6 317.9 323.8 330.7 336.6 339.7 342.3 345.5 348.9 349.9 350.8 351.7 352.8 351.8 352.5 350.9 345.4 339.5 333.8 326.3 321.1 316.5 314 310.9 303.9 295.1 289.2 281.9 274.1 265.5 254.4 244.8 235.9 228.9 223 217.4 212.5 208.2 202.1 197.7 195.5 193.9 191 185.4 181.7 176.1 169.7 163.9 157.9 152.1 146.2 139.6 135 130.6 127.9 126.1 124.3 120.7 117.2 112.3 107.5 103.8 101 97.8 93.4 92.4 91.5 90.7 90 87.4 83.9 77.4 66.6 75.2 86.2 93.5 101.3 109.6 117.4 124.3 129.6 132.4 133.8 131.4 127.5 122.7 117.9 113.2 108 102.3 99 96.4 94.2 93 90.3 88.2 87.6 86.6 85.3 83.8 81.9 79 73.9 68.1 62.7 57.3 50.9 47.5 44.6 41.7
-0.9 -0.9 -0.9 -0.9 -0.9 -0.9 -0.9 -0.9 -0.9 -0.9 -0.9 -0.9 -0.9 -0.9 1.1 33 118.1 159 163 166.1 172.8 179.1 186.5 192.8 201.1 206.6 215.5 225.5 231.5 238.2 242.4 252.8 260 273.1 284.1 292.4 296 298.5 299 297.1 294.6 291.7 287.6 281.4 273.2 267.9 265.5 264.6 263.4 261.5 258.4 254.3 249.6 245.3 240.5 232 225 222 218.7 213.5 214.9 214.8 214.6 214.1 215.5 216.8 217.6 218.6 219.3 219.7 218.2 218.4 222.9 228.1 233.7 239.3 243.2 247.4 252.5 257.1 262.2 266.7 274.1 279.8 284 289.4 296.3 304.1 308.9 315.1 320.8 327.2 332.3 337.2 340.6 343.5 346.3 350.6 352.6 354.3 354.2 354.9 353.8 352.4 350.9 346.8 340.5 334.3 328.2 321.8 317 314.1 310.8 306.9 300.2 291.4 286.2 279.9 272.6 263.3 253.8 244.6 236.7 228.4 223.5 218.8 213.7 210 203.7 198.2 198.6 197 194.9 191.9 188.7 184.2 179 174.4 167 159.4 152.3 146.3 139.8 135.1 132.5 129.7 126.7 123.6 120.9 116.7 112.7 107.9 103.9 100.5 96.7 95.7 94.9 93.9 93 91.1 87.9 81.8 74.3 61.8 77.8 87.6 95.8 104.8 113.6 121.8 127 130.5 132 131.5 128.7 124.3 120.2 116 111.1 107.1 104.2 102.6 101.1 99.3 96.4 94.1 94.3 94.4 93.3 91.5 88.8 84.8 79.1 72.8 67.4 61.6 54.1 48.6 45.6 42.1
-0.9 -0.9 -0.9 -0.9 -0.9 -0.9 -0.9 -0.9 -0.9 -0.9 -0.9 -0.9 -0.9 -0.9 1.4 140.1 158.3 159.9 163.2 167.7 171.8 179.5 190 196.8 206.5 210.6 214.3 226.9 231.3 236.5 242 250.6 263.3 275 282.8 290.1 294.2 295.4 295.8 294.2 291.3 288.1 283.4 276.8 268.9 262.7 260.3 259.1 256.3 253.3 250.7 248.6 244.8 239.6 233.8 228.6 221.3 218.3 216.4 212.3 211.3 208.9 209 210.1 211.1 213.3 213.1 214.1 214.4 213.3 218.1 223.6 227.4 232 237.6 243 248.1 251.5 255.5 259.5 264.9 271.2 279.5 284.8 290.9 296.9 304.8 310.8 318.4 324.2 330.4 335.4 338.4 342.1 347.4 350.6 353.5 354.4 355.9 357.8 357.4 356.1 354.7 352.5 348.9 341.5 333.7 327.4 321.2 315.3 310.9 308 304.5 300.2 291.3 285.9 279.9 275 267.8 258.6 250.2 241.7 234.2 228.1 223.2 218.8 214.8 211.3 207.1 201.5 201.9 201.5 199.2 198.7 196 193.6 187.7 183.3 178.7 168.4 161.2 154.5 148.2 142.6 137.4 133.2 129.6 127 124.3 120.4 115.7 111.8 106.9 103.1 100.2 99 98.3 97.3 95.5 93.4 91 85.3 77.7 64.1 68.4 81 90.6 100.3 109.8 118.3 124.6 129.1 131.7 131.7 129.7 125.9 122 116.7 111.9 110.2 108.7 107.2 105.2 103.9 102.3 100.2 100.1 101.5 100.7 97.7 93.4 88.6 82.9 76.9 70.4 64.2 56.4 47.4 43.1 39.7
-0.9 -0.9 -0.9 -0.9 -0.9 -0.9 -0.9 -0.9 -0.9 -0.9 -0.9 -0.9 -0.9 -0.9 24 155.9 158.5 160.7 162.7 165.1 171.7 179.1 189.6 199.8 208 212.1 215.8 226.4 229.8 235.9 242.2 252.2 258.7 269.3 280.3 287.3 291.8 295.5 295.6 293.6 289.8 286.8 281.8 274.9 266.3 260 257 253.2 249.5 246.9 245.7 243.2 238.9 234.4 228.2 223.9 221.3 217.5 213.6 207.2 204.9 203.7 204.6 205.8 207.5 209.7 210.2 209.3 210.8 216.8 222 226 229.8 233.9 239.6 245.5 250.1 255.8 261.6 266.5 272.2 278 282.9 290.1 296.4 304.4 310.9 317.5 324.8 330.2 335.1 339.7 344 346.9 350.9 354 356.9 358.7 359.5 359.7 358.2 356.5 354.7 350.2 345 336.9 324 310.8 303.1 300 300.1 297.5 293.9 287.6 281.8 277 272.5 266.2 257.7 249.8 242.8 235.7 230.2 226.6 221.9 218.2 214.8 211.7 209.5 206 203.7 201.4 202.5 201.9 201.4 200.6 196.6 192.7 187.9 180.3 170.2 163.6 156.4 149.2 142.7 137.8 133 130 126.1 122.6 118.4 113.1 108.2 104.6 102.8 102.1 101.3 99 97.6 96 93.4 88.1 79.5 66.4 63.2 76.9 88.7 99 108.6 117.6 125 130.4 132.7 131.9 130.1 125.9 122.5 116.6 112.8 110.5 109.3 109 107.5 106.4 106.3 105.3 106.4 106.6 104.9 101.2 96.3 91.4 85.4 79.4 72.4 64.2 55.2 45.4 40.2 37.1
-0.9 -0.9 -0.9 -0.9 -0.9 -0.9 -0.9 -0.9 -0.9 -0.9 -0.9 -0.9 -0.9 -0.9 97.9 152.3 156.1 160.2 164.9 165.5 171.5 177.3 187.4 200.4 207.1 212 217.6 226.7 229.8 235 244.5 255 263.9 275.5 282.5 287.7 291.2 294.1 293.9 291.7 289.1 285.5 281 274.1 264.8 258.4 254.8 249.1 243.3 242.4 241.5 239.3 235.9 231.3 225.9 221.9 218.1 214.3 209.2 202.5 200.7 200.5 201.8 201.9 202.9 205.9 207 209.2 214.7 219.1 223.4 227.1 231.2 236.8 242.3 248.7 254.1 260.4 266.8 273.2 279.5 284.5 290.9 297.3 303.1 309.8 317.7 322.6 329 334.8 339.2 343.4 347 350.6 353.9 356.5 358.5 360.2 361.2 359.5 357.5 356 354.4 349.1 341.1 332.5 320.4 300.4 287.5 286.1 283.5 283.5 280.1 274.9 267.6 262.7 260.5 253.6 246.9 241.7 236.8 233.2 227.2 224.4 220.8 218.2 216.6 211.4 209.6 206.8 202.4 201.9 202 202.5 203.2 203.6 202 200.2 195.5 189.9 182 174.6 167.5 159 149.9 142.1 136.7 132.1 127.5 123.1 119.6 115.1 108.7 106.6 105 104.4 103.5 101 98.9 96.7 93.9 89 79.1 62.9 60.3 76.8 89.2 99.8 109.1 117.8 125 130.1 132 130.9 128 125.1 122.3 117.5 113.6 110.9 109.4 108.7 108.6 108.9 109.3 109.4 110.5 108.3 106.2 102 97.3 92.3 85.9 79.1 71 61.8 51.8 42.1 37 33.2
-0.9 -0.9 -0.9 -0.9 -0.9 -0.9 -0.9 -0.9 -0.9 -0.9 -0.9 -0.9 -0.9 -0.9 135.4 147.1 152.7 157.3 164.2 165.1 169.9 176.1 182.9 193.9 198.6 208.5 219.2 225.7 229.8 236.7 245.6 254.6 265.4 275.6 281.8 286.7 289.8 292.4 290.8 289.3 287.2 284.9 279.1 274 263.6 258.4 254 248 241.7 239.6 239 236.3 231.4 227.2 223.1 218.2 214.3 208.3 203.6 199 197.6 198.4 199 200.4 202.7 204.3 208.2 211.5 215.8 221.4 226.8 230.5 236.4 241.2 246.6 253.3 258.2 265.3 273.4 281.9 287.1 292.9 299 304.7 311 318 323 328.1 333 338 342 345.1 348.2 351.4 354.4 357.1 358.9 360.5 361 359 356.5 355.1 352.5 345.9 337.8 329.2 316.9 299.7 282.9 269.4 270.4 270.4 265.8 259.6 254.7 250.6 246.5 243.2 238.8 234.2 230.2 226.4 221.8 220.7 217.9 214.5 212.5 210.2 208 205.3 202.1 201.3 202.4 202.2 203.3 204.2 204.3 203.6 202.6 198 191.7 185.5 178.7 168.2 157.1 148.6 140.9 134.9 128.8 125 121.3 116.3 110.3 107.2 106.3 105 103.7 101.2 98.2 96.5 93.4 88.4 77.9 59.3 58.8 76.8 89.9 99.6 108.4 116.6 122.5 126.3 126.5 126.3 124.3 121.8 119.1 115.4 111.7 108.9 107.1 107.2 106.8 107.6 108.9 109.7 109.4 108 105 101.6 97 92.6 85.6 78.4 69.7 58.5 46.7 37.9 33.5 29.3
-0.9 -0.9 -0.9 -0.9 -0.9 -0.9 -0.9 -0.9 -0.9 -0.9 -0.9 -0.9 -0.9 -0.9 126.2 143.5 149 156.3 160.4 164.4 169.5 176.4 181.6 186.7 197.1 205.9 215.6 222.5 229.3 236.8 243.5 254.2 265.8 274.2 280 284.4 287.6 287.9 287.7 286.8 285.7 281.7 278 273.7 263.2 259.4 253.9 246.8 241 237 233 229.6 224.4 221 217.1 211.3 206.7 202.2 198 196.3 195.7 195.8 197.6 201.7 203.6 207.3 211.3 214.4 219.8 223.9 229.4 236.1 241.9 245.8 252.5 259.1 265.6 273 280.2 287.6 292.4 299.6 306.2 312.9 317.9 323.7 328.3 333.1 336.9 340.1 343.3 346 348.7 351.8 354.4 356.6 358.7 359.6 359.6 359 356 353.4 349.2 341.6 334.2 322.8 309.8 293.2 277.2 259.8 251.3 254 252.6 247.8 244.3 240.5 236.2 232.7 229.1 226 222.1 218.8 214.5 213.6 211.8 208.5 205.1 204.6 203.4 201.1 200.5 200.2 200.7 201.7 203.7 205.5 204.6 203.2 204 203.4 197.8 191.9 186.8 176.6 163.2 152.7 142.1 135.4 130.3 126.2 122.9 117.9 111.5 107.6 105.6 103 101.9 100.2 97.7 96.5 92.5 85.7 74.5 55.9 59.2 76 87.1 95.9 103 110 115.1 118.5 118.3 117.4 115.2 113.3 111.4 109.8 107.3 105.2 103.7 102.7 103.4 104.6 105.4 105.9 105.4 104.8 102.5 99.7 94.6 89.4 82.7 76.5 66.6 55 39 38.5 34.8 31.5
-0.9 -0.9 -0.9 -0.9 -0.9 -0.9 -0.9 -0.9 -0.9 -0.9 -0.9 -0.9 -0.9 -0.9 -0.9 139.5 148.4 153.3 157.4 161.4 167.2 169.5 174.6 184.5 196.1 203.4 211.6 221.6 228.9 236.4 242.9 252.9 261.8 271.2 277.6 282.1 283.3 283.2 284 285 282.5 278.1 275.9 271.2 263.1 257.4 251.2 245.8 238.9 232.6 225.6 221.3 217.6 213.9 211.4 206.4 202.5 197.9 195.2 194.4 194.5 199.1 201.1 202.3 206.2 210.1 213.8 216.8 221.1 226.7 234.2 241.4 248.9 254.9 259.6 265.3 271 277.5 285.4 292.3 299 306.1 312.1 316.9 323.3 328.5 332.7 337 340.1 341.8 344.3 347 349 351.6 354.1 356.2 358.4 359.2 359.2 357 355.8 351.9 346 334.7 320.6 307.6 293.2 281 266.9 253.7 239.7 234.9 233.8 230.4 227.7 224.8 223.1 219.7 216.6 214.6 210.2 207.5 205.4 203.6 202.5 200.7 197.9 197.5 197.1 196.9 195.9 197.5 199 200.4 201.9 202 202.4 203 204.8 204.6 199.9 194.4 190.2 182.1 167.4 155.8 143.8 135.7 128.7 124.5 122 117.3 113.2 109 104.9 101.2 100.2 98.7 96.9 94.1 90.5 83.9 71.3 55.2 56 71.1 81.6 89.2 95.8 100.5 104.5 105.4 105.5 105.5 104.8 102.6 100 100.6 99.2 96.8 95.2 94.5 96.3 97.9 98.8 100.1 100.6 100.7 98.9 95.2 90.5 86.4 79.4 73.1 62.3 51.5 43.2 40.4 34.9 28.9
-0.9 -0.9 -0.9 -0.9 -0.9 -0.9 -0.9 -0.9 -0.9 -0.9 -0.9 -0.9 -0.9 -0.9 -0.9 -0.9 145.2 62 106 144.7 163.8 169 174.3 183.8 192.1 198.8 208.8 218.8 227 236.5 242.2 250.4 257.4 264.7 271.3 277.9 278.8 279.7 280.5 281.4 276.6 274.6 271.7 269.2 260.2 253.6 250.2 243.5 235.1 227.6 221.8 215.9 211.3 208 205.2 200.4 195.9 194.7 192.8 193.1 195.8 199.5 202.5 204.7 207.7 211 214.9 218.8 223.5 230.4 237.6 247.2 255.6 261.6 265.1 269.6 274.2 282.4 290.5 297 304.1 310.4 315.8 321.6 326.5 330.9 334.6 337.7 339.9 342.1 343.5 345.3 347.2 351.1 353.9 356.3 358.1 359.1 358.3 356.1 354.9 351 344.4 325.6 303.8 285.3 272.4 261.5 253.1 244.3 234.9 225.6 220.9 218.8 215.6 214 211.4 208.2 205.4 203.2 200.6 197.7 195.7 192.8 191.4 191.3 191 190.7 190.6 190.6 191.9 193.2 195.4 197.1 198.7 199.2 199.9 201.7 202.3 201.1 197.8 193.8 190.7 182.5 168.2 155.8 143.3 132.5 126.3 123.9 120.9 117.2 115.1 109.4 102.5 100.9 96.2 94.6 93 90.8 87.8 79.6 69 55.9 51.3 64 72.9 80.4 85.3 89.2 91.5 91.2 91.5 91.8 90.5 88.4 87.4 88.3 86.3 84.5 84.5 86.6 88.6 90.4 91.1 92.2 94.2 94.9 94.5 91.6 87.6 84.2 77.4 69.8 59.6 51.1 46.3 39 33.9 30.1
-0.9 -0.9 -0.9 -0.9 -0.9 -0.9 -0.9 -0.9 -0.9 -0.9 -0.9 -0.9 -0.9 -0.9 -0.9 -0.9 -0.9 39.2 65.5 125.3 161.6 168.5 176.3 181.6 189.2 193.6 206.6 216.1 228.2 234.6 241 246.9 251.1 256.2 261.2 267.1 275.4 276.4 275.8 273.3 270.7 269.3 268.3 263.1 255.7 251.5 248 239.5 231.4 225.1 219.3 212.8 207.2 202.8 199.1 194.4 191.8 191.9 192.7 195.8 197.9 200.5 205.1 208.6 211 213.1 218.4 222.2 228.6 236 244 252.3 260.7 267.6 272.1 275.7 281.5 287.2 293.4 299.5 306.2 312.8 318.5 321.4 327.1 330.9 334.4 336.9 339.1 340 340.7 342.9 346.5 350.5 353.3 355.6 357.4 358.8 358.6 356.7 354.5 352.1 345.4 332.4 310.6 292.5 274.3 258.1 243.1 233.7 226.6 219.8 213.9 210.8 207.7 204.4 201.2 196.1 192.8 192.2 190.4 189 187.2 185 184.5 183.5 183.2 184.2 184.3 185.5 186.5 187.9 189.9 192.5 194.4 196.9 197.8 199.4 198.8 195.3 192.4 189.8 187.2 177.8 165.6 152.3 139.3 128 125.5 121.7 119.3 117.5 113.7 107.4 100.8 98.2 94.5 92.3 90.4 86.6 82.8 74.8 65.7 54.6 44.8 55.6 62.5 67.9 71.8 76.1 77.9 77.1 78.2 77.9 78.2 77.1 76.3 76.4 74.9 73.4 76.6 79.2 81.1 82 83.7 85.2 86.8 88.7 89.7 89.5 86.5 81.6 77 70.5 62 55.7 48 41.5 35.9 31.5
-0.9 -0.9 -0.9 -0.9 -0.9 -0.9 -0.9 -0.9 -0.9 -0.9 -0.9 -0.9 -0.9 -0.9 -0.9 -0.9 7.1 44.1 78.5 118.3 156.6 166.5 177.6 181.6 188.5 196.5 205.7 215 224.6 232.1 238.8 243.4 247.6 251.4 256.2 262.2 265.1 265.6 267.8 268.3 266.5 263.8 260.3 256.9 251.9 248 243.6 236.1 228.5 222.9 215.1 208.7 203.1 198.6 195.9 193.5 190.3 193.4 196.1 198.6 199.9 202.2 206.2 210.1 213.2 216.5 222.1 228.1 233.7 241.7 248.2 255.1 261.7 267.8 274.1 278.5 283.6 289.9 295.1 300 307.1 313.7 318.2 320.9 324.7 327.2 330.1 331.4 333.4 335.7 338.4 341.2 343.8 347.8 351.4 355.2 357.8 358.4 358.2 356.6 354.7 352.7 346.9 336.3 321.5 304.7 285.8 268.4 252.7 240.7 231.8 222.6 216.2 210.4 208.4 205.2 201.3 196.2 193.9 189.5 183.5 173 167.2 162.5 164.3 168.1 171.3 176.2 178.3 178.9 179.9 181.2 184.1 186 189.9 193.3 194.1 193.6 192.2 189.1 186 183.5 177 167.5 156.6 144.5 132.2 124.2 122.2 118.1 116.5 114.1 110.9 106.3 101.2 97.3 93.1 91.8 88.2 83.6 78.3 69.6 60.6 51.9 44.1 47.5 52 55.9 59.7 63.1 64.6 65.5 66.9 67.7 68.9 67.5 66.4 65.3 64.3 64.8 67.5 69.8 72.8 74 77.6 79.8 82.6 84 85.3 85.4 84.2 81.4 77.2 72.2 65 58 51 44 38.8 35.5
-0.9 -0.9 -0.9 -0.9 -0.9 -0.9 -0.9 -0.9 -0.9 -0.9 -0.9 -0.9 -0.9 -0.9 -0.9 -0.9 101.2 57.4 81.1 142.4 153.2 164.7 176.3 184.2 188.5 196.4 204.4 211.7 220.4 226.2 233.1 238.5 241.4 244.7 249.4 253.9 257.8 261.3 261.5 262.3 260.3 258.7 256.4 254.5 249.9 246 238.6 232.5 226.2 219 211.7 205.8 200.4 195.7 194.5 192.2 190.6 193.6 197.8 200.4 202.6 204.9 207 210.8 213.6 219.8 226.9 232.9 238.5 245 250.9 255.6 261.6 268.1 274.5 279.7 285.4 291.8 296.1 302.1 307.4 313.3 317.4 318.6 320.4 321.8 323.9 326.2 328.4 330.7 333.4 336.9 340.9 345.9 350.2 355.5 358.7 359.4 359.5 357.5 354.8 353.7 348.3 337.6 327.5 311.7 293.7 276.4 259.6 245.5 235.6 225.3 218.9 216.9 215.5 213.6 211 208.6 204.1 198.6 193.9 188.7 183.5 177.3 166.8 156 146.3 156.3 165.8 169.9 171.8 174.2 177.8 179.6 182.5 185.2 186.1 185.8 183.7 180.8 176.5 171.1 162.6 154.2 143.7 133.6 123.6 118.4 114.2 113.1 111.8 109.8 107.2 105.5 100.2 94.5 91.4 89.6 85.6 81.1 75.2 67.5 58.2 51.4 45.5 42.3 44.3 46.1 49.3 51.8 53.2 55.4 56.4 57.6 59.1 57.2 57.1 56.2 55.9 56.2 58.6 61.9 64.5 67.2 70.2 74.3 77.4 79.2 80.5 82.4 81.3 80.1 76.6 73.3 68.2 62.7 54.1 46.8 42.1 37.6
-0.9 -0.9 -0.9 -0.9 -0.9 -0.9 -0.9 -0.9 -0.9 -0.9 -0.9 -0.9 -0.9 -0.9 -0.9 -0.9 136.1 144.5 135.4 156.2 156 164.7 177.5 185.4 187.5 193.5 202.3 208.6 214.7 220.2 226.6 231.8 234.9 238 240.9 244.6 250.7 254.3 257.6 258.4 255.9 255.7 256 253.2 248.4 242.3 234.6 229.2 221.9 214.9 209 203.5 199.1 194.9 192 188.5 189.2 191.2 196.5 202 205.2 207.1 209 211.8 217.2 225.7 230.9 235.7 242.2 248.1 253.5 258.2 263.9 270.9 277.9 282.9 287.8 293.1 296.9 302.4 305.9 310.5 314.6 315.2 315.3 316.5 319.2 321.8 323 326.7 330.1 333.7 339.3 347 351 355.8 359.1 360.5 361 357.6 354.9 353.7 347.9 338.9 328.7 314.3 298 280.3 262.3 246.7 236.8 228 226.3 226.5 224.3 222.8 221.7 219.2 214.2 208.7 203.7 198.5 192.6 186.5 179.7 170.1 157 137.1 142.6 158.4 164.1 167.1 170.1 172.1 175 176.6 177.8 177.3 175.5 170.8 165.9 157.5 148 139.8 129.9 121.8 116.2 110.9 108.3 107.1 106.5 105.3 103.3 100.5 96.1 90.2 89.9 86.8 83 79.3 73 65.3 57.1 50.7 44.9 38.9 39.4 39.9 42.2 42.9 43.7 45.5 47.3 48.4 48.6 47.9 47.9 48.6 49.2 48.3 51.6 54.6 58 62 65.2 68.1 71.7 74.5 76.4 78.6 78.8 78.2 75.9 73.4 70.5 66.1 58.3 51.1 44.8 42.2
-0.9 -0.9 -0.9 -0.9 -0.9 -0.9 -0.9 -0.9 -0.9 -0.9 -0.9 -0.9 -0.9 -0.9 -0.9 50.7 143.3 152.2 157.3 162.3 168.6 171 178 184.1 187 191.5 200.4 203.3 208.6 214.8 219.9 225 228.2 232.2 237.6 241.9 247 250.1 252.1 253.2 252.5 254.2 254.9 251.9 247.1 239.1 231.8 225.3 218.8 212.5 206.9 202.6 198.6 194.4 191.7 187.3 189.9 193.4 197.5 202.3 206.3 208.8 211.5 216.2 223.4 228.9 233.1 239.4 245.4 251.7 259.4 264.5 270.7 276.4 282.4 286.2 290 292.7 296.1 300.7 303.2 304.6 306.9 309 309.2 310.6 313.3 314.9 317.5 321.1 325.8 332 340.1 347.8 352.8 356.6 359.1 360.6 360.8 357.8 355.1 353 346.3 337.3 327.5 312.1 299.2 280.3 262.6 247.7 243.2 239.5 235.8 233.8 232 231.7 230.3 227.9 225.1 219 212.6 206.7 200.7 194 187.2 179 168.2 153 133.3 137.5 153.8 159.8 163.1 165.7 168.5 169.7 169.6 169 165 159.5 152.1 143 132.9 125.5 119.1 112.9 107.9 104.5 101.6 100.6 100.5 99.1 97.8 95.4 90.6 85 85.3 82.3 79.9 75.6 70.1 63.3 55.1 48.5 43.2 38.8 37 36.9 36.4 36.2 36.1 37.6 37.6 40 40.1 40.8 41.3 43.3 42.9 44.4 47.2 49.4 52.2 57.2 60.8 63.5 65.9 69.6 71.7 73.9 74.9 74.7 74.2 73.2 71.1 66.6 59.6 52.7 47.8 45.7
-0.9 -0.9 -0.9 -0.9 -0.9 -0.9 -0.9 -0.9 -0.9 -0.9 -0.9 -0.9 -0.9 -0.9 -0.9 145.3 153 161.3 167.4 172.6 178.2 182.1 182.1 179.8 181.7 190.1 193.9 198.6 204.9 210.7 216 221.2 224.9 229.7 232.6 237.5 243 245.9 245.4 247.1 250.6 253 253 250.2 243.1 237.6 230.8 224.6 217.5 209.9 205.1 200.2 195.4 192.8 189.1 187.5 191.3 194.4 198.3 202.4 205.9 209.8 213.7 219.4 227.2 232.7 237.5 245.4 251.5 259.1 266.8 272 278.2 281.7 284.9 288.2 291.1 292.8 295.1 297.7 297 297.9 298.2 299.2 301.2 304.5 307.2 310.8 314.5 320.3 324 332.4 341 349.3 353.4 356.2 358.7 360.2 359 355.4 353.3 351.1 342.4 335.2 323.3 311.7 299.7 282.2 267.9 260.6 253.9 249.3 245.6 243 240.4 236.8 235.7 234 231.3 227.5 221.7 215.4 207.2 200.2 192.7 183.8 174.4 162.2 143.5 121.8 138.6 149 154.6 158.5 160.9 162.1 160.9 157.7 152.5 145.4 138 127.3 119.7 114.2 107 101.9 99.4 96.7 94.7 93.3 93.3 92.4 90.8 88 84.4 82.1 78 75.5 74.8 69.6 64.6 57.9 52.2 46.3 41.9 39 35.8 34 33.7 32.5 32.2 31 31.4 32.6 34 35.5 36.9 36.1 37.8 40.6 41 44.1 47.1 52.5 56.3 59.2 61.6 64.6 66.6 68.7 70.7 71.2 72.4 71 67.9 64 58.2 54 49.8 48.5
-0.9 -0.9 -0.9 -0.9 -0.9 -0.9 -0.9 -0.9 -0.9 -0.9 -0.9 -0.9 -0.9 -0.9 -0.9 143.2 161.1 167.7 173 177.5 183.2 188.1 189.9 189.8 192.6 196.2 199.4 201.9 205.8 210.7 215.8 219 222 225.3 228.4 231.6 236.1 238.9 241.6 244.6 246.9 250.1 249.7 244.1 240.7 234.8 228.5 222.5 215.4 206.5 202.6 197.4 191.2 188.2 191.1 192 192.6 194.3 198.8 202.8 206.9 210.7 215.5 223.5 231 237.2 244.5 251.8 258.4 266.2 274.6 281.3 285 288.1 288.6 289.1 290.9 292.1 292.2 292.2 291.4 289.9 288.3 287.8 291.4 295.4 298.6 306.7 314.3 323 326.4 333 340.6 348.8 353.2 355.8 358 357.8 355.4 354 351.9 346.9 338.8 331.2 320.9 310.7 301.2 289.2 279.3 273.2 265.9 258 252.4 249.2 244.5 240.2 239.1 237.7 234.8 232.1 227.3 220.3 212.3 204.3 195.7 186.8 176.9 165.8 152.3 128.2 121.2 137.2 143 147.2 149.2 148.8 146.7 143.3 137.3 130.3 122.8 113.6 107.2 102.5 95.8 92.7 90.8 90.4 88.6 86.4 84.2 83.3 81.1 80.2 77.1 74.9 73 69.2 67.9 63.7 59.4 55.2 49.7 43.8 40.6 37.7 36 32.5 32.3 30.6 29.5 29.4 28.1 29.1 29.4 30.1 30.9 30 29.3 33.1 35 38.6 42.2 46.9 51.8 54.8 58.5 61.1 63 65.9 67.2 67.6 67.6 66.2 63.5 60.1 56.8 54.1 52.6 51
-0.9 -0.9 -0.9 -0.9 -0.9 -0.9 -0.9 -0.9 -0.9 -0.9 -0.9 -0.9 -0.9 -0.9 -0.9 161.8 167.4 171.8 176.1 180.8 185.8 189.9 192.9 195.5 198.8 200.7 204 206 208 211.8 215.5 217.8 219.2 221.7 224.5 227.3 231 235.6 239.4 240.4 241 239.8 238.2 236.7 234 229.4 224.7 218.6 209.6 202.6 195.9 189.7 186 188.4 193 194.2 194.8 196.1 198.8 202.8 206.9 212.4 219.8 226.4 233.1 240.1 248 256.7 263.2 272.9 280.2 288.7 292.8 294.4 293.1 290 288.7 287.8 287.4 284.3 281.3 286.4 286 284.9 284.5 289.8 296.9 304.4 315.2 323.3 328.2 334.1 340.1 348.1 352.3 353.8 353.6 354.1 352.2 350.6 348 340.5 335 325.8 317.6 310.5 303.3 293.8 284.7 278.6 272.2 263.9 256.2 251.5 247.3 242.6 239.9 237.8 235.6 233 228.3 220.9 212.8 205.3 196.7 186.9 176.5 165.4 153.6 136.5 114.5 120.7 131 134.5 135.5 135.3 132.4 129.1 124.8 117.7 109.2 101.3 96.9 91.7 88 85.9 84.4 81.9 80.5 78.3 76.1 73.1 70.6 70.1 68.7 67.7 65.9 63.4 61.3 58.3 54.8 50.5 45.8 42.2 38.3 35.4 33.7 32.8 33.1 31.6 31.2 29.5 27.9 27.3 27.4 26.8 26.5 26.4 25.8 26.1 27 31.1 34.6 40.1 45.6 49.4 53.8 57.8 59.8 62.5 63.8 64.9 64.8 62.2 59.5 57 54.5 52 51.8 51.7
-0.9 -0.9 -0.9 -0.9 -0.9 -0.9 -0.9 -0.9 -0.9 -0.9 -0.9 -0.9 -0.9 -0.9 -0.9 165.1 150.5 166 177.6 181.8 186.2 190.9 195.2 198.1 201.6 204.2 205.7 208.2 210.2 211.6 213.6 215 216.5 219.2 222 224.7 228.1 229.5 230.9 229.5 226.8 226 226.6 226.2 225.3 222.6 216.1 210.1 201.7 195.7 190.1 185.9 182 187.6 191.2 191.9 194.3 196.1 199.2 203.6 209.5 217 223.8 228.4 235.9 242.7 250.5 258.5 265.4 275.4 282.3 291.6 295.2 297 292.1 287.7 284.8 279.5 276.1 274.4 272.9 272.2 276.5 281 282.6 286.8 300.4 311.6 317.1 323.1 328.4 334.4 338.9 343.6 347.8 349.1 349.8 349.9 348.5 345.8 341.7 335.6 328.4 319.3 314.8 309.4 304.2 293.4 286.5 278.9 272.7 263.7 255.9 250.8 243.9 239.4 237 234.8 232.2 228.8 223.7 216.5 210.1 203 193.4 183.7 172.6 161.6 151.4 140.3 122.8 109.4 118.5 122.5 123.7 122.9 121 117.9 112.6 106.1 99.9 93.4 88.8 85.3 81.8 79.5 76.6 73.1 71.5 70.1 67 64 61.4 62.1 60.8 59.9 58.5 56.5 54.6 51.6 48.1 45.3 39.3 37.5 37.3 34.5 35.6 34.5 33 32.1 32.6 31.6 31.6 28.3 27 25.8 24.8 24.3 24.2 23.4 23.1 23.4 25.8 33 37.3 42.3 48 53.6 57.3 58.6 59.8 61 61.1 59.6 56.5 54.1 51.9 50 50.4 50.8
-0.9 -0.9 -0.9 -0.9 -0.9 -0.9 -0.9 -0.9 -0.9 -0.9 -0.9 -0.9 -0.9 -0.9 -0.9 47.8 101 137.8 177.6 181.6 186.1 190.7 195.3 198.5 201.9 204.5 206.9 208.8 210 211 211.8 211.9 214 215.4 216.4 216.8 218.4 218.4 215.7 214.8 216.4 216.7 215.7 214.1 211.6 208.3 203.3 196.9 191.5 189.2 185.9 182.5 181 184.2 186.2 187 191.1 194.8 200.1 205.2 212.6 219.1 225.3 231.5 237.9 245 252.8 259 264.7 273.6 279.7 287.2 289.1 287.4 283.1 278.1 271.6 269.5 266.6 266.3 266.8 266.6 268.9 274.3 278.8 285.1 297.9 311.1 318.4 323.7 328.9 333.2 336.6 339.9 342.7 344.6 346.1 346.1 343.6 339.1 334.1 327.4 319.9 314.3 311.1 306.4 298.7 290.2 283 275.5 268.8 260 250.9 245.7 238.1 234 231.1 226.9 223.7 220.2 215 208.8 202.8 194.7 186 175.3 165 156.4 148.9 136.9 125.2 111.2 103.1 108.3 110.9 111.4 109 106.7 101.3 97.7 90.8 85.4 80.6 78.3 75.4 71.4 68.4 65.6 63.2 62 59.8 57.2 56.2 54.4 53.6 52.9 51.3 49.6 47.1 42.1 41.5 40.6 39.6 42.1 40 36.5 36.5 36.4 35.8 34.9 34.4 34 34.1 32.8 31.6 31 29.5 26.8 24.8 22.8 21.9 22.3 22.9 29.7 33.6 37.7 43.7 49.1 53 55 56.1 57.2 57 56.7 54.7 52.5 50.5 47.8 48.8 47.6
-0.9 -0.9 -0.9 -0.9 -0.9 -0.9 -0.9 -0.9 -0.9 -0.9 -0.9 -0.9 -0.9 -0.9 -0.9 49.8 170.9 173.7 176.6 181.1 185.8 190.4 193.9 197.8 201 203.4 205.5 206.8 208.4 210.1 210.3 209 208.5 208.9 209.6 206.9 204.6 199.4 200.7 202.4 203.6 203.3 202.7 201.7 199.3 195.4 192.6 187.8 185 185.2 182.6 180.2 179.7 181.9 182.7 184.7 189.4 195 201.4 206.7 214.4 222.1 229.8 235.4 241.8 247.7 252.8 258.5 263.4 268.8 275 278.9 278 273.8 270 266.3 263.6 261.8 260.4 260.2 261.6 265.1 267.4 270.5 275.4 284 293.6 306.9 317.4 323.6 329.1 332 334.3 336.7 338.1 339.7 339.4 337.9 334.9 330.1 325.7 318.4 311.5 307.7 305.2 298.5 291.5 283.3 275.4 267.4 259.8 252.3 245.1 237.4 230.3 224.7 218.7 214.1 210.6 206.7 201.8 195.7 189.1 180.9 173.2 164.8 157.9 150.5 142.6 132.9 123.8 112.5 101.3 95.9 99.7 99.7 98.5 95.7 92.2 87.9 82.5 77.8 73.6 70.9 68.6 65.1 63.4 61 59.1 57.2 55.4 53 51.3 49.9 47.2 48 46.4 45.7 43.5 41.9 42.2 43.6 44.5 44.1 42.9 41.1 40.4 39.4 38.5 37.9 37.5 36.3 36.3 35 33.5 31.7 31.3 28.8 26.7 25.9 22.3 20.4 21.5 24.6 27 33.1 38.7 44 48.8 51.7 53.3 55 54.3 52 50.9 50.1 47.1 44.9 46 45.9
-0.9 -0.9 -0.9 -0.9 -0.9 -0.9 -0.9 -0.9 -0.9 -0.9 -0.9 -0.9 -0.9 -0.9 -0.9 14.6 170.4 172 173.9 172.1 182.9 186.7 190.8 194.1 197.7 201.4 203 204.7 206.6 207.5 207.2 205.8 202.3 201.5 200.4 194.8 192.1 190.3 191 192.3 192.3 191.7 190.7 190 187.1 185.2 181.6 180.9 180.1 181.3 179.3 176.9 178.1 180.5 182.8 186.4 190.4 196.2 203.3 210.4 218.5 225.4 233.2 239.3 246.7 251 255.7 258.4 262.5 265.2 267 266.4 264 260.9 259 257.8 257.1 258.4 258.5 259.3 259.1 262.9 266.5 272.3 276.5 283 291.8 305 316.2 320.6 324.7 327 329 330.9 331.3 330.4 328.4 325.5 319.8 314.8 308.6 305.8 302.3 299 292.8 285.5 279.2 270.7 261.6 254.5 250.4 242.2 233.6 224.7 217 209.7 203.2 199 195.9 191 184.9 178.7 172.1 167.3 161.5 156 149.7 142.3 136.3 128.4 120.1 110.1 101.9 94.8 88.8 89.5 88.6 85.4 82.6 78.5 75 71.6 68.8 65.9 63.8 61.6 60.4 58.6 56.1 55.5 53.6 52.5 50.7 49.5 47.9 46.7 45.9 45.2 48.2 48.5 48.1 48.3 47.3 46.6 45.9 43.7 42.9 42.1 41.4 41.2 39.9 38.5 38.1 36.2 34.3 32.5 31.8 30.2 28.8 27.6 26.2 24 20.3 23.2 23.5 27.2 33.6 38.7 43.9 47.2 49.9 50.6 50.9 48.5 46.8 46.1 44.3 42 42.3 42
-0.9 -0.9 -0.9 -0.9 -0.9 -0.9 -0.9 -0.9 -0.9 -0.9 -0.9 -0.9 -0.9 -0.9 -0.9 -0.9 13.7 76.3 110 147.6 178 181.5 185.7 190.7 195 198.7 201.5 204.1 205 204 203.1 201.1 196.1 188.2 186.7 185.7 185.4 184.9 184.8 183.5 183.6 181.9 180.4 179.7 178.8 177.6 177.7 178.1 178.1 177.7 176.1 176.4 179.6 181.8 183.4 187.8 192.5 200.1 207.3 214.9 222.4 230.3 238.9 245.5 249.8 255 258 260 261.3 261.7 261.6 258.9 257.7 254.6 253 253.1 253.9 253.4 250.5 252.5 253.8 260 262.8 269.6 275.2 282.6 291 302.2 311.8 317.1 319.1 319.6 321.7 322.3 321.1 316.4 311.8 306 302.4 299.7 297.5 292.9 286.7 281.1 271.9 264.8 258 251.4 245.2 241.3 233.8 223.2 213.1 204.2 196.4 191.5 187.7 183.4 179.3 174.9 170.7 167.1 161.9 157.5 152.7 148 141.7 136.2 130.3 122.6 114.6 105.7 98.8 93.1 86.2 82.2 80.8 77.8 74.4 72.7 70.7 68.2 66.3 63.9 62.8 60.7 59.7 58.4 56.1 54.1 52.8 51.5 50.9 49.7 52.5 53 52.3 53.2 52.6 52.8 52.9 52.3 51.9 50.8 49.5 47.4 46.2 44.4 43.9 43.6 42.3 40.8 38.7 37.7 35.8 35 32.9 31.7 30.3 29 27.7 27.8 25.6 19.1 18.7 22.4 27.6 33.1 38.7 42.3 45.6 46.3 46.6 46.2 44.6 43.3 42.6 39.5 37.9 37
-0.9 -0.9 -0.9 -0.9 -0.9 -0.9 -0.9 -0.9 -0.9 -0.9 -0.9 -0.9 -0.9 -0.9 -0.9 -0.9 1.8 54.3 94.2 167.9 175.8 178.2 181.8 186.5 190.6 195.2 199.1 202.9 203.1 201.8 199.5 195 188.6 181.1 179.1 179.7 180.1 179.5 177.3 176.6 175 174.5 174.6 174.8 173.9 174.3 174.7 174.8 175.2 174.8 175.3 177.9 180.1 182.2 184.6 189.1 195.9 204.8 211.1 218.3 228.4 236.9 243.2 248.5 252.3 256.3 259.5 261 260.1 259.8 255.2 252.2 250.7 249.7 250.3 249.7 246 244 243.4 244.8 250.4 257.7 261.4 268 274.2 279.4 289 298.6 306.3 309.7 310.6 311.3 311.7 310.3 305.7 298.8 294.8 289.7 288 287.3 284.2 278.9 271.5 261.4 251.2 244.5 239.6 234.5 228.2 219.7 211.1 201.7 193.4 188.5 183.7 180 175.4 172.2 169.2 166.2 163.1 158.7 153.9 150.2 144.9 140 134.1 128.3 122 114.5 106.3 100.9 94.7 89.2 85.4 80.5 77.6 75.4 72.2 70.6 69.8 66.5 64.9 67.6 66 63.4 62.5 59.9 58.6 56.6 55.3 56.6 56.5 56.3 56 55.7 56.2 56.9 57.4 57.3 57.9 56.8 56.2 54.6 53.1 51.1 48.6 46.6 46.3 45.6 44.9 43.4 42.5 40.6 40 38.8 36.3 35.2 32 30.2 29.8 28.9 24.6 21.3 18.8 17.5 22.6 28.3 33.6 37.6 40.9 42.5 43.2 43.1 42.4 41.2 38.8 38 35.9 33.3
-0.9 -0.9 -0.9 -0.9 -0.9 -0.9 -0.9 -0.9 -0.9 -0.9 -0.9 -0.9 -0.9 -0.9 -0.9 -0.9 -0.9 54.1 82.1 151 176.5 178.1 180.9 184.5 188.2 192.3 196.5 199.2 199.5 197.3 192.2 183.8 180.2 176.9 175.3 174.4 173.5 171.5 170.3 169.4 169.4 170.1 170.9 170.1 170.8 171.6 173.3 172.7 171.6 173.3 177 180.2 180.9 182.7 185.8 191.1 200.1 209.1 216.1 225 233.6 240.5 246.1 251 256.4 258.3 259.2 258.7 257 252.4 249 247.5 246.3 247.3 246.1 244.9 238.7 233.8 237.7 240.3 244.9 250.3 257.6 264.4 273.9 280.4 284.8 293.8 298.1 300.1 300.2 299.7 297.5 291.5 285.6 279.4 274.9 272.6 270.8 269.9 267.5 260.9 252.7 242.5 236.2 230.2 225 218.3 209.9 200.5 192.9 186.2 181.9 177.8 174.8 172.1 169.1 165.6 162.8 158.5 155.6 150.4 147.8 142.2 136.9 131.7 126.3 120 110 102 97.6 94 89.6 85.5 80.7 78.2 77.4 75.7 77.2 77.1 75.7 75 75.7 75 73.1 71.3 69.4 65.9 63.6 60.9 59.4 60.2 59.9 59.8 59 59.1 60.1 61.9 63.1 63.1 62.9 63.2 62 60.9 58.2 55.5 53.2 51.2 49.4 48.6 47.6 47.4 48 46.4 45 41.5 39.1 36.8 34.2 32.2 32.8 29.6 25.3 21.5 21.9 17 20.6 25.1 27.8 32.4 36.1 38.3 39.9 41.1 39.6 37.6 35.1 34 32.7 29.8
-0.9 -0.9 -0.9 -0.9 -0.9 -0.9 -0.9 -0.9 -0.9 -0.9 -0.9 -0.9 -0.9 -0.9 -0.9 -0.9 -0.9 44.1 89.8 142.8 170.4 174.1 177.5 182.8 186.3 188.9 192.6 194.5 194.3 188.8 182.6 177.9 174.8 173.6 171.1 168.9 166.1 164.9 165.2 165.8 166.2 166.7 166.4 166.2 166.8 167.3 169.7 172.2 175.9 178.1 180.1 181.8 182.5 184.9 190 197.2 206.4 214.9 222.3 230.6 237.3 244 249.1 255.1 258.3 257.3 257.6 255.1 251.5 246.6 245.5 244.3 244.3 240.7 235.7 233.5 229 223.6 227.3 237.7 241.5 246.7 261.6 263.7 268.5 277.3 283.5 285.4 288.6 286.7 284.6 282.6 277.7 271.8 263.9 256.8 254.4 251.2 248.7 250.4 248.9 244.3 236.5 231.4 225.2 219 210 200.2 191.7 186.3 182.6 178.5 175.9 172.1 169 165.8 162.9 157.9 153.7 150.5 147 142.7 139.7 134.1 128.5 123.8 117.9 110.5 102.2 96.8 93.9 93.4 91.4 92.1 92.2 92.6 90.1 89.7 88.6 87.2 87.6 85.2 83.1 83 81.5 78.5 75.3 70.7 67.3 63.6 63.3 63.4 65 64.8 64.7 64.9 65.6 67.8 70.6 71.8 71.4 71.1 70.4 69.2 66.7 63.5 59.9 57.3 54.2 52.2 51.9 51.3 51.4 51.8 49.6 45.6 42.5 39.7 37.3 33.7 31.2 29.6 25 25.9 24 18.1 16.6 22.2 24.9 28.4 32 34 35.3 36.4 35.2 33.2 31.9 30.6 30.5 27.2
-0.9 -0.9 -0.9 -0.9 -0.9 -0.9 -0.9 -0.9 -0.9 -0.9 -0.9 -0.9 -0.9 -0.9 -0.9 -0.9 -0.9 15.4 109.9 129.2 165.3 168.6 173.4 178 182.4 184.7 186.9 186.4 181.8 180.4 176 173.3 169.8 167.4 165.2 162.7 161.7 161.5 161.5 162.6 162.3 161.9 164.8 168.9 171.7 173.1 171.1 176.5 178 180.3 182.7 185.1 187.3 189.7 196.5 206.3 212.7 220.6 227.9 234.7 240.6 245.3 251.9 256.1 255.7 254.9 253.6 250.8 246 242.2 240 239.2 233.9 229.4 224.5 220.4 218.3 216.6 220.6 226.5 233.7 243.8 257 262.2 264.3 264.8 269.6 271.8 272.8 270 263.9 259.3 254.4 250.1 245.4 243.8 241 236.2 233.1 233.3 233.3 233.2 228.3 223.5 217.3 207.3 197 188.4 183 179 176.7 173.8 171.7 169.5 164.8 161.5 155.6 150.2 144.8 142.5 138.9 132.8 128.4 124.9 119.8 113.7 107 102.8 105.8 109 110.2 109.8 108.5 108.7 107.5 106.3 105.4 103.5 102.6 101.1 99.1 96.6 94.6 90.5 88.4 85 80.1 75.7 69.8 65 68.3 69.9 70.8 71 71.4 72.1 73.3 75.6 78.1 80.8 81.7 81 80.1 79.4 75.9 72.6 69.9 66.1 62.2 59.6 59.1 57.9 58 56.6 53.7 49.5 46.2 42.5 40.1 35.8 32 28.9 26.3 26.8 23.9 17.9 15.7 18.6 21.5 24.5 27.3 29.1 30.6 31.6 30.6 28.4 27.1 27.5 27 24.7
-0.9 -0.9 -0.9 -0.9 -0.9 -0.9 -0.9 -0.9 -0.9 -0.9 -0.9 -0.9 -0.9 -0.9 -0.9 -0.9 -0.9 -0.9 1.9 20.5 133.7 164.9 171.3 173.4 175.7 178 175.1 176.3 174.9 174.8 172.5 169.8 165.1 162.2 159.7 158.6 158.7 158.2 157.2 159 161.7 165.9 168.3 171.7 174.6 175.4 177 179.7 181.3 183.4 186.2 189.7 192.1 197.6 206 213.9 220.2 227.1 232.5 238.6 244.1 247.3 252 253.6 253.4 252.8 248.4 245.2 241.8 237 233.6 228.6 222.8 218.5 216.2 213.1 206.1 201.5 209.3 214.1 219 228.9 239.5 244.9 250.4 250.9 256.2 258.4 255.7 252.8 249.2 240.9 237.5 235.2 232.5 232.5 231.3 227.5 225.2 224.8 224.6 225.4 222.3 216.9 209.8 198.3 188.6 183 179.3 175.5 172.3 170.4 168.9 166.2 162.2 155.2 146.3 141.5 136.1 132.6 127.3 122.2 117.5 118.7 118 119.7 121.7 123 124.7 125.9 126.8 126.4 124.7 123.3 121 120.8 119.1 116.7 114.7 112.1 108.6 106 101.4 98.2 94.5 90.2 85 78.8 72.1 73.9 76.1 78 79.2 79.5 80 81.4 82.9 85 87.3 89.4 91.2 91.1 90.9 88.4 85.4 81.7 78.2 74 70.9 68 66.4 64.7 63.2 61.3 56.7 52.9 49.5 45.1 40.7 36.4 32.2 27.9 26 26 22.5 19 14.3 16.1 18.9 21.5 23 24.2 25.2 26.7 26.1 25 25.1 25.1 25.3 22.5
-0.9 -0.9 -0.9 -0.9 -0.9 -0.9 -0.9 -0.9 -0.9 -0.9 -0.9 -0.9 -0.9 -0.9 -0.9 -0.9 -0.9 -0.9 -0.9 154.1 158.8 162.3 165.8 167.3 166.5 165.3 167.8 168.7 170 169.4 167.5 164.5 159.9 154.7 153 153.3 153.7 157.5 161.6 164.9 166.7 169.6 172.6 175.2 176.5 179.8 181.7 184.2 185.5 188.8 191.5 196.5 202.6 209 216.2 222.8 229 234.1 238.6 241.6 245.5 248.3 249.8 251.4 251.6 249.3 243.4 239.1 234.9 226.9 220.6 215.2 210.7 209 204.5 198.1 194.8 192 197 200.2 207.9 217.3 226.7 232.4 235.5 237.7 240.3 240.9 238 236.3 233.3 230 227 225.6 225.8 225.8 224.9 223 220.6 218.9 219.3 219.4 216.8 209.4 201 190.3 181.9 177.3 175.4 173.6 170.3 167 165.3 161 156 149.5 139.2 131.7 127.3 126.9 128.4 131.5 134.1 135.7 136.1 137.9 139.1 139.7 140.2 140.2 141.1 140.8 139.8 137.6 135.1 134.6 132.5 128.8 125.1 121.4 116.7 112.2 106.6 102.4 98.9 94 87.4 80 78.1 82.4 84.6 86.7 88.4 89.8 90.5 92.1 93.8 96 97.7 99.9 102.2 101.8 100.9 98.1 94.9 90.3 86.7 82.7 80 76 73.2 70 67.9 64.6 59.7 55.7 50.4 45.9 39.9 34.3 29.8 26.6 26.6 24.4 22.8 21.5 17.2 14 13.3 16.4 20.1 20.9 21.6 21.6 21.4 23.5 22.7 21.6 21.8 19.5
-0.9 -0.9 -0.9 -0.9 -0.9 -0.9 -0.9 -0.9 -0.9 -0.9 -0.9 -0.9 -0.9 -0.9 -0.9 -0.9 -0.9 -0.9 -0.9 1.9 153.6 157.4 158.2 121.8 159 160.4 162.3 164.4 164.4 163.6 161.4 157.6 145.4 155.3 161.8 160.8 162.1 162.8 166.1 167.9 170.1 173.7 176.9 180.2 182.7 185.4 187.5 189.2 193.1 196.3 201.3 205.9 213.9 220 228.3 233.4 236.6 238.9 242.2 244.9 247.3 249.1 249 248.8 247.8 242.2 236.3 231.2 222.4 213.7 208.1 203.1 201.9 199.8 193.7 190.3 186.9 182.3 184.6 192.1 201.3 208.6 215.9 222.8 225.6 225.7 224.8 224.2 224.5 221.4 218.9 218.9 219 218.2 217.7 219.6 220.6 219.9 219.6 217.5 216.8 214.1 211.1 202.5 192.2 183.1 178 174.8 173.4 171.8 168.9 165.4 157.6 149 146.6 140 139.8 141.7 142.7 144.8 147.1 148.6 148.8 151.3 152.5 153.5 153.4 155.5 155.8 156.7 157 156 154.4 151.6 150.2 148.2 145.4 140.2 134.9 128.8 122.8 117 111 106.2 100.9 94.1 84.2 83.2 88 91.8 94.2 97.6 99.9 100.8 101.9 103 104.5 107.9 110.1 112.9 113.3 112.4 110.6 107.7 104.3 99.9 95.7 92.3 88.2 84.8 80.5 76.3 73 67.9 61.9 57.9 51.5 45.8 39 33 28.1 26.8 26.6 25.1 23.7 19.3 16.8 15.8 13.8 14 17.1 17.2 17.8 17.3 17.5 17.6 17.7 18 18.9 17.1
-0.9 -0.9 -0.9 -0.9 -0.9 -0.9 -0.9 -0.9 -0.9 -0.9 -0.9 -0.9 -0.9 -0.9 -0.9 -0.9 -0.9 -0.9 -0.9 -0.9 1.2 98.8 67.1 134.8 155.3 156.5 157.8 158.3 158.5 158 156.5 146.4 152.5 158 161.6 164.2 166.3 167.7 172 175.1 176.8 179.5 183.4 186.3 189.9 193.1 195.8 199 202.8 208.7 213.9 220 226.1 232 236.2 239.5 242.1 243 244.3 244.8 247.3 246.9 245.2 242.2 238.4 233.7 227.1 217 208.4 203.3 200.2 195.7 192.6 188.5 184.9 180.6 176.8 175.1 179.8 185.9 191.9 199.2 207.9 213.1 214.5 214.9 213.8 213.1 210.2 210.1 210.3 211.8 212.4 211.3 211.2 212.9 213 214.9 217.9 216.6 214.1 211.9 204.9 194.8 184.3 178.6 175.6 173.9 173.9 172.2 172.6 171.4 169.1 165.8 160 155.9 155.5 157 158.1 158.1 160.7 161 162.8 164.6 167 168.5 169.9 170.8 170.9 172 170.9 169.7 166.4 164.8 162.8 160.1 155.2 148.5 142.2 135 127.8 120.1 114.3 107.2 100.6 90.9 90.8 94.8 98.7 101.8 105.4 108.8 111.5 113 114 115.1 117.7 120.4 123.3 123.5 123.5 122.3 119.5 116.1 112.6 107.8 104.3 100.6 96.9 92.8 87.8 82.3 77 70.4 63.4 58.2 51.3 44 36.7 31.1 27.8 27 25.7 23.8 20.1 17.9 16.1 15.2 13.3 12.5 12.7 15.7 16 15.7 14.3 16.1 15.7 15.9 15.8 16.4
-0.9 -0.9 -0.9 -0.9 -0.9 -0.9 -0.9 -0.9 -0.9 -0.9 -0.9 -0.9 -0.9 -0.9 -0.9 -0.9 -0.9 -0.9 -0.9 -0.9 0.2 1.9 74.3 136.5 150.2 151.3 152.4 153 153.2 151.3 141.6 149.9 157.2 160 163.6 166.4 170.1 173.2 176.3 181 185.3 189.1 193.3 197.1 200.4 203.1 207 209.9 215.6 220.1 225.8 231.3 236.1 240 243 245.3 246.1 246 243.9 244.9 245.2 242 239 234.8 227.2 219.6 210.6 203.2 199.1 194.1 190.7 187 183.1 179.6 176.4 174.4 167.6 166.2 174.9 181.6 187.1 192.7 197.4 204.1 207.1 207.3 205.4 204.8 205.6 206.6 207.5 207.9 207.9 206.7 207 208.4 210.1 213.6 215.3 213.8 212.2 209.7 200.1 187.6 179.9 178.9 175.4 176.6 175.1 175.9 176.3 176.3 176.7 174.8 173.4 170.8 168.8 167.3 167.4 169 170.1 173.2 175.6 178.3 180.8 181.4 182.8 184.3 184.7 184.1 183.5 181 175.4 172.4 172.6 169.4 162.6 154.6 147.1 139 131.7 123.8 116.4 106.7 96.7 97.4 100.5 105.5 108.9 112.6 116.6 119.4 122.8 125.3 126.5 128.5 131.1 133 133.4 133.9 132.5 130 127.1 123.8 120.1 116 112.1 108.2 104.2 98.5 91.9 84.8 78.2 71.3 64.4 57.5 49.1 41.2 36 30.4 27.8 26.2 23.2 21.3 19 16.7 15.3 14.2 12.7 11.2 11.8 12.2 12.5 12.1 12.1 12.2 12.1 11.7 12.5 12.4
-0.9 -0.9 -0.9 -0.9 -0.9 -0.9 -0.9 -0.9 -0.9 -0.9 -0.9 -0.9 -0.9 -0.9 -0.9 -0.9 -0.9 -0.9 -0.9 -0.9 -0.9 1 45.7 90 142.7 143.9 145.4 141.8 138.9 140.5 150 157.1 159.2 161.8 166.4 170.6 173.9 179.2 183.4 188.1 194.6 200.6 202.7 206.2 210.1 213.5 216.3 220.3 224.6 229 233.2 238.2 242.2 244.9 247.3 248.3 247.4 245.5 241.2 239.8 238.2 235.9 229.3 218.6 209.6 202.7 196.9 192.5 184.6 181.4 179.2 175.1 171.8 170.5 169.6 166 159.2 159.1 165.4 175.5 183.1 187.3 189.9 193.5 196.7 198.1 198 200.1 201.8 204.4 204.9 202.8 202.5 203.5 205.8 207.4 209.2 211.2 213.8 213.6 212.6 208 200.7 191.1 185.4 179.9 180.6 180.9 182 181.2 180.6 181.3 181.9 181.7 179.9 178.3 177.2 177.1 178.7 180.9 184.5 187.1 191 193.9 194.4 195.1 194.3 195.5 195.8 194.8 193.4 189.7 181.3 177.1 175 172.2 164.8 155.9 149.7 142.7 135.5 127.3 118.5 108.5 97.1 107.2 114 119.7 121.9 125.4 127.7 129.8 132.3 136.2 139.2 141.1 142.6 143.3 143.4 142.8 141.4 138.4 134.6 131.2 126.8 122.5 118.2 114.7 109.1 102.9 93.5 85.9 78.6 70.5 62.8 55.2 47.6 39.5 33.8 29.1 26.6 24.6 22.8 19.9 17.9 17 15.2 13.5 12.9 10.7 10 11.4 11.5 11.8 10.5 11.4 10.8 10.5 11.1 11.5
-0.9 -0.9 -0.9 -0.9 -0.9 -0.9 -0.9 -0.9 -0.9 -0.9 -0.9 -0.9 -0.9 -0.9 -0.9 -0.9 -0.9 -0.9 -0.9 -0.9 -0.9 12.7 48.4 61.3 118.6 126.7 139.7 146.8 152.7 157.1 158.8 160.2 162.7 165.5 169.2 173.8 181 185.1 190.8 197.1 202.4 207.7 210.1 213.3 216.7 220.1 223.7 226.9 230.2 234.2 238.8 243 246.2 248.4 248.7 248.7 247.4 241.6 237.8 231.1 230.3 221.9 213.7 203 195.8 191.5 183.8 177.8 175.4 173.7 168.1 164.2 161.6 161.7 161 157.3 155.4 155.3 159.2 166 174.2 181.1 185.8 188 190.3 192.4 194.3 196.1 197.6 198.3 197.6 197.1 198.6 204.3 205.8 207 208.9 211.4 214.3 213.9 212.8 209.7 204.2 197.5 192.2 186.8 183.6 183.5 186.2 185.6 185.4 185.4 185.5 185.7 185.7 185.5 186.1 188.4 191 194.2 198.7 202.2 204.7 205.8 206.4 205.5 203.8 203.4 201.7 199.1 195.8 191.7 182.9 177.8 174.9 171.1 163.9 156.1 150.8 143.5 136.5 127.6 117.6 105.7 110.6 118.9 125.3 130.8 134.7 137.4 139.7 140.8 143.5 145.7 149.2 151.7 152 151.9 151.2 148.8 147.2 144.3 139.2 135.4 131.2 127.4 123.8 119 112.2 103.8 94.1 84.7 77.1 69 60.8 53.4 46.6 39.2 33 28.6 25 23.3 22.3 18.7 17.6 16 14.6 12.6 11.8 10 9.2 9 10.9 10.9 9.6 7.9 10.4 10.4 8.3 8.5
-0.9 -0.9 -0.9 -0.9 -0.9 -0.9 -0.9 -0.9 -0.9 -0.9 -0.9 -0.9 -0.9 -0.9 -0.9 -0.9 -0.9 -0.9 -0.9 -0.9 -0.9 33.8 103 112.7 146.1 148.7 153 155.5 158.1 161.5 163.2 165.2 168.3 171.2 176.4 180.6 184.8 190.4 196.3 201.3 207.5 212.6 214.3 216.6 220.3 224.5 228.2 231.4 234.2 237.9 241.5 246.1 248.2 249.7 249 245.6 242.1 235.8 231.5 221.4 211.8 205 197.7 190.3 183.7 175.2 171.8 167.7 166.4 163.7 160.4 156.6 155.5 154.3 155.2 152.7 152.6 152.4 154.3 162.2 172.5 178.4 185 190.8 194.6 193.4 194 193.5 193.1 194.2 195 196.3 200.2 204.8 206.5 206.8 209.2 212.3 214.6 214.4 213.8 211 207.7 203.7 198.4 193.4 190.8 190.9 192.8 192.6 192.9 193.2 193.6 194.5 195.5 196.3 198.3 200.2 202.9 206 209.5 210.3 211.1 210.9 210.2 207.9 206.1 202.9 201.4 198 194.1 188 180.8 175.5 171.7 166.5 160.8 155 149.2 142.4 135.7 125.9 116.2 114.4 122.1 128.8 136.1 141.1 145.7 148.8 150.1 150.7 151.3 152.2 154.2 157.8 158.6 157.4 156.6 153.7 150.9 148 142.9 138.1 134 129.3 124.3 118.7 112.4 103.5 92.7 83.7 74.6 67.7 59.1 51.8 43.9 37.8 32.5 27.6 24.1 21.1 18.4 17.5 15.8 14.2 13.8 14.5 13.3 11.6 8.8 6.5 7.8 7.6 7.3 6.2 4.6 3.4 3.5 -0.9
-0.9 -0.9 -0.9 -0.9 -0.9 -0.9 -0.9 -0.9 -0.9 -0.9 -0.9 -0.9 -0.9 -0.9 -0.9 -0.9 -0.9 -0.9 -0.9 -0.9 -0.9 8.6 73.2 152.3 152.1 153.3 156.2 157.9 160.4 162.9 165.5 168.6 172.9 178.8 183.9 187.7 192.2 196.7 201.7 206.1 211.4 215.3 218.1 220 223.3 227.7 231.6 234.4 237.1 240.3 243.8 245.9 247.1 247 245.5 241.5 236 230.4 218 206.1 194.9 189.3 183.8 176.8 168.9 163.8 160.1 156.4 154.5 154.1 152.3 150.5 148.1 149.6 150.6 150.8 150.9 151.8 154 164.6 171.4 180.4 187.8 192.7 196 195.9 194.2 191.6 191.1 192.6 195.9 198.9 201.6 204.7 205.9 206.7 208.4 210.8 213.1 213.8 212.7 214.1 212.3 208.7 204.9 202 199.8 199.4 200.4 201.4 203.2 204.2 204.7 205.1 205.1 205.5 206.7 207 209.2 210.8 212.7 214.3 213.1 211.9 210.8 209.9 206.5 200.8 199 194.7 188.7 183 177.2 170.8 165.6 161.5 156.7 152.1 146.2 141.1 132.4 123.4 113.6 125.7 133 138.9 144.8 150.1 153.8 156.2 156.5 156.3 156.8 157.6 159.2 162.1 161.4 160.6 158.6 154.1 150.1 147 142.6 137.9 133.4 129 123.6 117.4 110 101.5 91.4 81.2 74.1 66 58.6 50.9 41.8 37.3 31.2 26.5 23.4 23 20.3 19.1 17.8 17.2 17.2 16.9 16.7 14.4 8.3 8.1 6.3 5.5 5.8 5.9 4.8 6.1 6.2 -0.9
-0.9 -0.9 -0.9 -0.9 -0.9 -0.9 -0.9 -0.9 -0.9 -0.9 -0.9 -0.9 -0.9 -0.9 -0.9 -0.9 -0.9 -0.9 -0.9 -0.9 -0.9 94.2 105.9 158.1 156.9 156.6 157.4 158.9 161.1 164.8 167.9 172.9 179.2 184.6 188.6 193 195.5 200.1 205.3 208.5 211.6 214.3 217.8 221.2 225.8 229.4 233.1 235.2 236.9 240.7 242.4 243.6 242.9 242 239.2 234.3 228.3 216.6 203.2 194.4 184.1 178.4 171.4 163.5 159.8 155.3 149.8 146 144.2 147.7 145.6 143.8 144 145.7 148.3 148.6 150.4 151.2 154.2 156.1 161.5 172.6 182.2 190.8 192.6 191.4 188.3 185.5 187.8 193.8 197.7 201.7 204.1 205.8 205.7 207.3 207.9 211 214 216.3 217 217 217 214.6 211.6 208.9 207.8 207.5 209.1 210.1 212.4 213.4 213.4 212.9 212.5 212.4 211.5 212.1 211.9 213.1 214.9 214.3 212.9 211.9 210.3 208.1 201.9 195.5 190.8 186.1 182.5 177.1 171.2 165.3 159.9 156.9 152.8 148.2 143.4 137.4 128.1 119.6 128.8 134.4 139.4 145.6 151.9 156 158.8 160.7 161.9 160.6 160.5 161 161.7 162.5 161.8 158.8 156.2 151.7 147.8 143.9 139.3 135.3 131 126.4 122 115.7 107.6 98.4 88.4 78 70.9 64.3 57.6 50.5 42.1 36.4 32 27.7 26.5 25.1 23.8 22.3 20.9 20.1 19.8 19.8 18.6 15 11.4 10.9 9.6 6.8 7.6 11.2 11.9 10 9.2 7.4
-0.9 -0.9 -0.9 -0.9 -0.9 -0.9 -0.9 -0.9 -0.9 -0.9 -0.9 -0.9 -0.9 -0.9 -0.9 -0.9 -0.9 -0.9 -0.9 -0.9 9.6 108.5 134 163.7 160.3 158.4 158.5 160 163.1 167.3 172.4 178.4 183.4 187.5 192.3 197.3 200.1 204.7 204.7 206.8 209.8 212.3 216.4 221.6 225.5 228.7 231.3 233.9 235.8 236.9 238 238.6 237.3 235.2 231.9 223.9 213.2 201.9 193.4 182.9 172.5 167.2 161.7 159.6 154 146.1 143 138.3 138.5 139 140.1 140.6 141 144.3 144.8 149 149.2 148.6 148.8 150.9 156.4 168.9 180.1 186.5 187 185.5 185.5 185.5 186.1 194.7 198.7 202.2 202.6 202.6 204.4 207.7 210.6 213.2 216.3 220.8 222.3 221.7 220.6 219.7 217.8 215 213.1 213.3 216.5 220.5 222.7 224.1 223.6 222.2 219.6 217.4 216 215.3 214.9 215.7 214.8 213.2 212.4 210.3 207.9 201.9 195.7 189.1 184.1 180.5 176.6 170.9 166.4 160.8 156.1 152.3 148.9 144.3 138.1 131.3 133.1 133.9 137.7 140.7 145.6 150.9 156.3 161.1 164.6 166.3 165.7 164.4 163.9 162.8 161.4 159.5 158.1 155.6 151.6 148.2 143.7 139.7 135.7 132.8 129 125.2 118.8 111.8 104.5 94.7 85.4 76 69.2 62.5 55.4 48.3 41.5 34.9 34.5 34 31.6 30.4 28.7 27 24.8 23.2 21.8 21.5 18.7 17.3 15.1 13.8 12.7 11.1 10.9 12.6 12.4 10.6 9.1 7.7
-0.9 -0.9 -0.9 -0.9 -0.9 -0.9 -0.9 -0.9 -0.9 -0.9 -0.9 -0.9 -0.9 -0.9 -0.9 -0.9 -0.9 -0.9 -0.9 -0.9 -0.9 115.2 156.7 151 164.9 163.3 163.1 164.6 169.8 175.6 180.3 184.5 189.1 192.3 196.1 200 201.6 200.8 200.6 204.8 207.7 210 213.6 218 221.2 224.3 227.1 229.6 231.6 231.6 231.5 230.9 229.3 225.4 219.4 211.5 202.2 193.2 184.9 173.8 165 161 157.4 154.2 147.1 140.9 137.1 135.7 134.1 136.1 136.4 134.5 137.3 139.4 145.2 145.6 144 141.6 144.9 149.4 154.9 166.3 177.7 184.1 189 185.5 185.5 185.7 191 196.8 201.5 203.8 203.4 205.2 208 213.1 216.9 218.3 222.5 224.8 226.2 225.1 225 224 222.5 220.1 218.9 223.5 227.7 232.5 235.7 235.9 233.5 231.2 228 224.5 220.4 218.6 217 216.6 213.8 212.6 208.6 207.2 200.2 193.8 188.6 183.6 179 174.6 170.4 165.9 161.5 158.3 154 146.7 144.4 141.2 140.3 139.9 142.2 143.2 143.9 146.6 150.5 155.1 160.7 165.8 169.8 171.2 169.1 165.9 163.6 162.6 159.8 155.9 153.2 150.6 146.8 143 140.1 136.5 133.4 130.7 126.8 121.7 114.9 108.3 100.8 91.2 82.5 75.2 67.9 61.9 54.9 47.3 39.3 41.4 39.8 38.2 35.9 33.8 32.5 30.5 28.2 26.9 25.5 24.2 22 19.4 17.6 16.6 15 14.6 13.7 14.6 13.9 12.5 11.1 8.9
-0.9 -0.9 -0.9 -0.9 -0.9 -0.9 -0.9 -0.9 -0.9 -0.9 -0.9 -0.9 -0.9 -0.9 -0.9 -0.9 -0.9 -0.9 -0.9 -0.9 -0.9 14.9 117.1 74.8 78.4 149 171.6 172.7 175.7 182.1 186.5 190.4 194.9 197.1 199.7 199.7 197.2 197.3 199.8 202.4 203.8 205.7 208.4 210.9 213.6 216.1 217.5 219.7 221.4 222.1 221 221 219.9 216 210 203.3 196.6 187.7 176.9 166.3 159.5 153.5 149.4 143.7 138.4 134.3 133.6 133.4 132.8 133.8 132 130.1 132.8 136 137.5 137.6 139.2 142.7 145.2 150.1 156.9 167.9 176.4 184.6 187.5 189.1 191.5 196 199.3 202 204.6 206.4 207 209.9 213.6 216.7 219.4 221.6 224.8 227.9 229.1 229.7 228.9 228.3 227.7 228 230.6 234.8 239.3 244.5 247.2 247.7 243.8 241.1 236.1 231.1 225.8 221.1 219.1 216.5 214.4 209.5 205.4 198 192.3 188 183.2 179.5 174.8 170.4 165.8 162.4 159.3 155.8 153.6 151.8 149.3 149.4 147.6 149 149.1 148.8 149.9 153 156.5 160.1 164.7 170 173 174.6 169.9 164.8 161.7 159.4 154.9 150 147.2 144.6 142 139.4 136.8 133.6 130.6 127 123.3 117.6 110.9 103.9 94.6 86.4 80.5 73.7 66.7 60.3 54.1 47.2 47.1 46.2 45.1 42.6 40.3 38.6 36 34.2 32.2 30.4 28.7 27.1 24.9 22.5 20.7 20.9 20.5 19 18.2 17.1 15 14.1 13.2 10
-0.9 -0.9 -0.9 -0.9 -0.9 -0.9 -0.9 -0.9 -0.9 -0.9 -0.9 -0.9 -0.9 -0.9 -0.9 -0.9 -0.9 -0.9 -0.9 -0.9 -0.9 -0.9 7.1 18.5 25 58.9 143.8 181.7 184.2 186.9 192 196.6 199.3 198 196.2 195.4 194.6 194 194.6 194.2 195.1 197.2 199.4 202.7 205.5 206.5 208.3 210.7 212.8 214 214.7 213.3 210.7 208.1 203.6 197.4 187.6 175 165.1 154.2 149.1 145.4 138.8 132.5 129.2 128.3 129 129.9 131.7 131 128.3 128.1 128.4 128.6 131.2 135.6 139.8 144.3 149.2 155.7 166 171.8 176.4 180.8 186.1 192 198.1 201 203 204 206.6 208.3 210.9 213.5 216.1 218.9 221.9 225 227.5 229.5 230.5 231.1 231.5 232 233.6 236.7 240.9 247 252.6 257.6 258.5 256.9 254.8 250.7 247.4 242.7 236.9 229.6 225.3 221.4 218.5 213.5 205.7 197.5 192 186.5 179.5 175.1 170.6 167.3 165.2 163.1 161 159.7 157.4 156.8 155.5 155.3 155.3 155.7 155.2 155.4 158.5 162.1 164.8 166.6 169.8 172.9 175.4 174.8 169.5 164.1 159.5 154.7 149.8 145.1 143 138.9 136.6 135 133.2 129.8 126.1 122.6 118 112.4 106.6 98 90 81.7 77.1 71 63.8 58.4 50.8 50.6 51.9 51.2 50.4 47.5 44.7 42.6 39.6 37.2 36.3 33.4 31.6 30.2 27.8 26.2 25 24.2 24.8 24.2 21.2 19.3 17 15.2 13.3 10.4
-0.9 -0.9 -0.9 -0.9 -0.9 -0.9 -0.9 -0.9 -0.9 -0.9 -0.9 -0.9 -0.9 -0.9 -0.9 -0.9 -0.9 -0.9 -0.9 -0.9 -0.9 -0.9 -0.9 -0.9 0.5 1.1 36.8 67.3 171.1 182.7 194.8 197 196.3 193.8 190.4 188.1 187.4 186.8 186.4 186 187.6 189.5 192.9 196 198.7 202 204.5 206.4 207.1 206.4 205.4 204.6 201.8 198.6 194 185.8 175.5 164.4 155.2 148.7 143.1 136 129.2 125.4 123.3 122.8 124 125.1 126.4 126.3 126.2 125.7 125.3 127.1 130.2 134.3 139.1 145 154 161.6 168.2 173.6 178.7 183.6 189.1 197.2 201.8 204 206 206.7 210 211.2 212.6 215.5 218.4 220.4 223.3 225.9 227.8 230.5 230.8 231 233.8 235.8 239.3 243.2 250 256.1 262 265.9 267.2 265.4 261.4 258.7 255.6 253 248.2 242 234 228.4 224.1 218.5 212.4 204.8 197.8 190.4 184.4 179.2 175 171.5 169.7 167.9 166.2 165.9 166.2 164.6 164.6 163 161.8 162.4 163.3 164.5 167.4 170.1 171.9 173.1 173.4 175.8 176.1 173.6 168.3 163.4 157.4 150.4 145.9 141 136.8 134 132 131.1 128.8 124.8 121.4 117.8 113 107.3 101.9 92.9 84.7 79.4 73.7 67.4 61.5 56.7 57.1 56.6 57.2 56.8 54.6 52.3 49.5 46.7 44 41 39.1 37.8 35.5 33.4 31.4 29.8 28.8 28 27.8 26.7 24.4 21.7 19.8 16.5 14.3 11.5
