ncols 200
nrows 81
xllcorner 260000
yllcorner 734850
cellsize 50
484.4 485.5 489.1 499 502.3 504 512.7 524.7 535.8 543.4 555.4 570.8 593.8 610.2 624 635.5 650 633.6 620.4 601 585.2 584.2 581 580.9 580 567.9 582.8 580.4 583.2 591.1 601 607.2 614.1 622.9 631.9 640.2 647.5 653.2 655.7 657.3 656.8 654.5 651.4 648.1 644.2 640 636.1 632.1 628.8 618.9 611.3 599.6 600.2 604.7 607.5 619.7 630.2 641.3 651.1 656 659.1 661.9 664 660.1 646.3 621.7 603.9 589.3 578.5 565.3 546.9 523 504 490.2 484.2 477.7 469.9 459.5 449.2 439.7 429.5 419.1 411.1 403.6 393.2 384.9 378 375.7 369.9 356.9 357.3 353.5 349.8 344 338.7 333.5 329.2 324.1 318.6 313.1 309.6 305.3 298.7 295.5 292.1 287.7 285.4 280.3 274.1 275.8 267.8 268.8 269.6 270.4 269.4 268 270.1 268 269 268.1 268.7 266.5 267.8 263.9 260.4 262.4 260.2 256.9 254.6 253.6 248.9 246.4 242 235.1 232.9 230.4 224.2 221 220.1 216.6 215 214.2 212.7 209.7 206.9 203.9 200.5 195.9 191.1 187.5 183.3 178.4 170.8 167.8 165.1 161.9 158.1 150.8 141.7 131.4 121.9 112.5 105.1 105.1 105.1 105.1 105.1 105.1 105.1 105.1 105.1 105.1 105.1 105.1 105.1 105.1 105.1 105.1 105.1 105.1 105.1 105.1 105.1 105.1 105.1 105.1 105.1 105.1 105.1 108.3 119.7 128.5 135.3 139.7 139.2 148.3 157.3 162.6 163.8 166
486.5 485.2 485 487.3 489.8 493.3 505.7 517.3 526.9 536.6 547.5 562 572.7 586 599.5 619.4 625 612.6 594.9 580.7 574.9 573.4 570.4 570.6 570.3 562.1 573.4 573.4 577.6 583.6 592.8 601.1 606.5 616 624.4 633.3 641.8 645.2 648.8 649.6 648.9 646.5 643.3 640 636.3 633.7 630.1 626.7 618.1 610.2 602.4 594.8 585.1 592.2 596.5 608.4 620.4 632.3 641.9 651.1 655.2 659.2 656.9 650.3 630.8 606.3 588.7 573.1 560.5 541.8 518.9 502.8 488.2 472.8 467.3 460.6 449.5 439.4 428.3 418 408.1 399 392.1 385.6 378.8 372.6 365.2 360.7 356.8 348.1 345.8 340.7 337.3 330.9 326.3 319.1 316.7 312 307.7 302.5 298.3 295.1 294.2 287.5 286.6 281.1 276.4 272.1 267 266.1 267.1 264.1 263.5 264.1 262.6 264.1 264.7 266.6 264.4 261.6 264.8 263 261 261.2 257.1 255.3 256.4 252.5 249.2 247.1 242.5 237.4 233.5 230.2 228.5 225 223.6 220.9 219.5 218.4 219.5 216 211.4 210.2 208.2 202.6 196 192.3 188.2 180.6 177.1 172.6 170 166.5 162.6 159.1 152.1 144.2 134.3 123.5 112.7 105.1 105.1 105.1 105.1 105.1 105.1 105.1 105.1 105.1 105.1 105.1 105.1 105.1 105.1 105.1 105.1 105.1 105.1 105.1 105.1 105.1 105.1 105.1 105.1 105.1 105.1 105.1 105.1 119.1 127.8 136.3 144.1 147.4 151.2 162.1 173.5 177.1 177.7 181.6
487.7 488.1 484.9 481.8 482.1 485.9 496.1 509.3 519.8 530.2 539.8 549.3 560.4 574.8 590.1 602.5 596.4 589.2 576.9 571.1 566.9 564.8 559.9 560.9 562.4 553.3 564.4 566.8 570.9 575.6 582.4 590.8 599.2 608.8 616.8 624.6 632.3 636 638.8 641.1 640.6 639.3 636.5 632.9 628.4 624.7 622.4 615.3 608.2 601.7 593.6 583.5 572.3 577.3 586 597.1 609.8 620.3 629.4 636.8 641 643.2 639.1 630.4 616.6 592.9 561.5 548.6 524 507.2 492.6 485.6 469.6 457.8 446.6 437.1 427.4 417 408.5 398.3 390.9 383.1 378.9 372.2 366.5 359.6 353.1 347.3 345.8 340.6 330.8 328.8 322.4 319.1 313.5 309.4 303 299.2 296.9 294.1 290.9 287.4 285.1 279.9 279.8 273.8 269 264.3 264.5 261.3 257.9 259.8 259.2 261 261.6 263.8 264.6 260.5 258.9 257 256.3 256.4 258 256.7 253.8 249.1 249.3 245.6 242.5 240.1 237.5 235.4 234.6 232 228.2 228.8 227 223 220.8 223.4 217.7 213.2 210.3 206.4 203.6 199.3 191.8 189.8 181.8 175.9 172.8 170.6 167.3 164.3 160.1 153.7 144.8 136.9 127 117.1 105.1 105.1 105.1 105.1 105.1 105.1 105.1 105.1 105.1 105.1 105.1 105.1 105.1 105.1 105.1 105.1 105.1 105.1 105.1 105.1 105.1 105.1 105.1 105.1 105.1 105.1 105.1 105.1 112.5 125.8 135.5 142.5 148 153.5 161.6 173.7 180.8 184.3 188.4 193.1
490.8 492.3 486.9 481.2 476.7 483.6 490.3 506 516.9 527.6 538.1 550.9 555.5 560.2 574.4 571.6 568.5 567.5 565.7 561.5 557.7 555.8 552.2 555.2 556.5 546.7 554.6 559.8 563.4 566.4 572 583.4 592.3 601.6 610.4 617.3 623.7 628.5 631.4 632.4 632.3 631.5 628.5 625.2 622.1 616.8 612.4 605.3 599 591.9 582.3 572.9 563.9 564.8 574 585.5 594.6 605 614.1 619.4 623.7 620.3 617.4 606.4 586.2 562.8 538.2 517.6 498.6 484.1 471.4 460.5 448.2 438.8 426.9 416.4 409.5 400.3 390.5 384.1 378.1 371.6 366.2 360.1 352.9 345.9 341.3 336.6 332.7 326.6 322.3 317.1 314.6 309.1 305.9 302.3 297.5 293.4 294.1 289.2 283.6 280.2 280.2 274.1 271.9 267.7 262.8 261 260.5 259.8 253.1 255 256.4 257 255.2 256.3 256.9 257 252.1 251.9 248.7 248.3 250.1 249.3 246.2 242.6 240.7 239 238.6 237.8 237.9 234.8 233.6 234.2 231.7 233 226.9 221.3 220.5 219.9 211.8 207.5 202.2 199 198.1 193.7 185.8 178.4 174.8 172.6 169.2 166.3 162.9 159.2 153.9 145.2 137.4 128.5 118.3 107 105.1 105.1 105.1 105.1 105.1 105.1 105.1 105.1 105.1 105.1 105.1 105.1 105.1 105.1 105.1 105.1 105.1 105.1 105.1 105.1 105.1 105.1 105.1 105.1 105.1 105.1 105.1 105.1 117.4 129.9 140.2 147.7 154.6 161.9 172.5 182 187.3 190.8 196.4 201.3
485.9 493.8 489.4 478 472.2 479.7 484.6 498.9 510.1 519.8 521.7 533.3 537.7 544.6 550 552.6 557.7 557 556.4 549.2 544.5 544.4 544.9 548.2 542.7 547.9 551.4 553.9 555.3 559.2 564.3 575.1 584.9 593.8 602.1 609.4 616 620.9 622.5 623 623.6 622.6 620.4 618.1 613.4 609.1 603.2 596.4 588.8 580.9 573.2 565.3 556.2 547.6 560.8 571.9 581.6 586.7 592.3 595.2 593.8 592.1 588.8 578.5 563.9 544.6 517.3 494.9 477.8 464 451.2 438.3 428.4 419 408.8 396.9 392.2 384.3 377.1 370.7 365 359.5 353.3 346.6 340.5 334.3 330.7 325.3 323.9 316.7 314 308.7 306.2 300.7 297 295.8 293 287.9 284.4 282.2 277.5 272.2 271 269.9 264.9 262.6 258.6 257.3 256.3 252.8 249.9 250.3 250.3 253.1 249.7 248.8 252.4 250.1 245.1 244.8 243.8 242.8 241.6 240.1 239.4 239.3 237.4 237.2 238.5 237.9 236.9 235.8 235.1 235.8 230.6 227.6 223.2 221.7 215.2 207.3 200.2 196.2 194.2 191.5 189.4 183.9 179.5 174.8 171.9 167.6 163.7 161.3 158 153 146.4 137.3 127.8 117.7 105.7 105.1 105.1 105.1 105.1 105.1 105.1 105.1 105.1 105.1 105.1 105.1 105.1 105.1 105.1 105.1 105.1 105.1 105.1 105.1 105.1 105.1 105.1 105.1 105.1 105.1 105.1 105.1 105.1 109.2 123.2 136 145.9 152.3 160.6 169.2 179.9 187.5 192.6 196.7 203 209.3
480.9 485.7 480.7 472 471.7 476.6 478.1 488 497 501.9 509.4 515.4 521.4 526.5 535.9 546.6 549.5 549.2 549.5 540.1 536.4 535.8 536.9 536.6 535.1 542.7 545.5 548.8 549.4 552.5 558.6 567.1 574.6 584.2 592.3 600.3 607.5 611.9 613.9 614.1 613.6 612.8 611.5 608.3 604.8 599.2 593.7 586.4 579.3 572.1 563.4 554.1 543.7 527.3 545.6 556 563.5 568.5 572 575 570.3 563.3 555.3 545 527.9 506.4 487.9 474.3 457.6 443.6 430.7 421.6 412.7 404.3 392.6 384.1 374.3 369.4 363.6 357.7 352.4 347.1 341.2 335.5 332.1 327.9 325 316.9 315 309.8 304 302.9 297.5 296.2 290 290.9 287.1 282 278.8 274.7 273.3 268.5 264.2 262.2 260.9 260.6 252.5 248.2 246.6 246.6 245 247.2 246.3 245.5 244 242.3 241.8 242.3 243.4 242.5 241 239.7 238.3 237.7 237.5 238.1 238.7 238.5 239.3 239.6 239.3 237.5 232.8 231.1 227.1 224.6 221.2 216.9 206.6 197.8 190.3 188.7 185.5 182 179.1 177.3 172.3 170.8 165.8 162.1 159.3 155.8 151.2 145.2 137.1 128.2 117.2 107.5 105.1 105.1 105.1 105.1 105.1 105.1 105.1 105.1 105.1 105.1 105.1 105.1 105.1 105.1 105.1 105.1 105.1 105.1 105.1 105.1 105.1 105.1 105.1 105.1 105.1 105.1 105.1 105.1 105.1 121.5 133.6 143.7 150.3 157.6 166.6 176.9 185 192.2 197.7 202.7 210.2 217
475.3 478.1 474.3 472 473.4 478.6 475.1 485 492.9 496.2 502.4 508 510.9 517.9 527.1 527 525.1 527.1 529 528.5 529 529.9 530 529.6 523.2 535.8 540.5 543.3 543.8 546.3 551.1 559.7 567.5 575.7 584 591.1 597.7 600.8 602.9 603.5 603.9 602.1 599.9 597.7 593.4 587.3 580.5 574.2 567.1 559.4 551.7 542.5 530.9 517.2 529 539.2 545.3 549.4 550.9 554.1 550.2 534 518 498.3 486.5 469.6 461.3 448.5 434 423.1 414.2 407.6 398.7 387.7 376.8 370.5 363.2 355.1 351.9 346.3 340.8 337 333.6 329.9 326.9 321.8 315.5 309.1 307.7 300.6 294 295.3 290.2 290.9 285 280.6 278.2 276.7 272.1 269.3 264.3 261.4 262.5 255.7 255.2 253.7 251.4 243.1 242.3 242.3 239.8 245.5 242.6 241 239.9 240.1 241.6 240 241 240.1 239.8 238.5 237.3 237 237.2 236.7 236.2 237.2 238.1 238 236 235.6 228.4 225.7 223.4 217.4 213.1 206.8 197.7 189 184.7 182.4 179.6 176.6 176.7 173.2 167.1 163.8 160 157.3 154.4 148.4 143.4 136.3 128.2 116.7 105.1 105.1 105.1 105.1 105.1 105.1 105.1 105.1 105.1 105.1 105.1 105.1 105.1 105.1 105.1 105.1 105.1 105.1 105.1 105.1 105.1 105.1 105.1 105.1 105.1 105.1 105.1 105.1 105.1 105.1 112.7 127.1 140.8 149.9 156.7 164.7 173.8 183.5 189.5 196.4 202.1 209.5 216.7 226.9
473 473 473.6 473.1 467.7 474.9 472.8 478.8 486.7 495.7 496.6 499.5 498.4 500.7 506.1 508.3 511.7 516.7 520.7 522.4 524.4 525.7 522.6 521.3 511.4 531.8 535.4 537.8 538.3 542.5 545.8 551.4 558.3 566.7 574.7 583.5 588.4 592.9 595.2 595 594.7 592.4 590.6 586.9 581.6 574.3 564.8 559.2 552.2 544.4 537.7 529.2 520.7 508.6 512.9 522 524.9 525.6 526.7 529.5 528.5 510 491.1 471.9 458.1 446.6 436.5 425.7 416.2 408.3 398.9 388.9 379.4 369.5 362.4 356.3 351.5 346.5 341 336.2 334.4 330.6 328.9 321.3 316.1 312 308.3 301.3 296.6 290.2 286.1 288.1 284.8 282.2 279.2 276.5 272.6 272.7 267 264.8 256.6 256.3 260 252.4 245.4 244.1 242.5 239.1 239.9 238.8 235.2 238.5 238.2 238.8 238.4 239 237.9 239.9 238.1 237.4 236.8 236.7 236.8 238.1 238.3 235.7 235.8 235.5 235 231.8 229.9 226.2 223.4 223.1 217 211.7 206.6 196.5 187.3 185.3 181.2 178.7 175.6 173 173.3 168.7 162 159 155.5 151.9 146.7 141.3 135.3 124.8 115.4 105.1 105.1 105.1 105.1 105.1 105.1 105.1 105.1 105.1 105.1 105.1 105.1 105.1 105.1 105.1 105.1 105.1 105.1 105.1 105.1 105.1 105.1 105.1 105.1 105.1 105.1 105.1 105.1 105.1 105.1 106.4 120.9 135.2 147.3 154.7 162.4 170.7 180.2 187.6 194.7 201.4 207.2 215.1 225.1 238.3
472.5 465.8 464.8 470 465 467.6 471.7 476.3 480 486.9 486.4 486.4 487.2 490.4 496.6 500.1 507.1 513.9 517.5 519.2 522.5 523.4 517.9 514.1 514.8 526.3 529.8 531.7 533.6 536.8 536.9 542.1 547.2 553.9 563.1 573.3 578.6 584.4 587.5 587.7 586.9 581.7 576.6 573.5 568.4 556.6 548.6 541.1 534.4 528.1 521.6 515 508.9 500.4 496.2 505.6 507.6 507 503.9 498.4 493.7 481.9 462 448.3 437.3 427.2 418.6 411.2 401.2 390.5 380.4 371.8 363.3 356.6 352.1 346.6 342.2 337.9 335.2 329.7 328.9 322 318.3 313.5 306.9 301.3 300.4 293.9 283.9 281.8 280.4 281.5 278.2 274.2 274 270.8 267.2 263.6 260.6 259.3 252.4 249.6 248 245.1 243.6 241.1 242.2 237 237 236.2 234.3 234.7 234.9 236 238.5 234.8 235.1 236.5 234.6 235.2 235.1 235.1 235.9 237.5 234.5 233 232.6 232 228.7 226.7 225.5 222.3 218 213.8 209 203.6 195.6 187.4 182.9 180.9 176.3 172.4 170.6 170.8 164.6 158.7 154 152.5 148.5 143.3 138.6 132.3 123.6 113.9 105.1 105.1 105.1 105.1 105.1 105.1 105.1 105.1 105.1 105.1 105.1 105.1 105.1 105.1 105.1 105.1 105.1 105.1 105.1 105.1 105.1 105.1 105.1 105.1 105.1 105.1 105.1 105.1 105.1 105.1 105.8 116.6 130.1 144.2 153.4 161.2 169.1 177.4 187.1 193.7 201.9 210.3 215 224.5 238.2 253.2
480.4 476.1 465.4 459 463.1 462.1 466.6 472.9 474.7 474.2 474.3 478.7 477.9 486.1 490.9 494.5 502 510.8 514.6 513.7 516.8 515.3 510.4 503.6 514.9 518.6 522.4 524.1 527.3 527.2 530.3 534.6 539.8 544.5 554.2 562.8 568 571.9 574 575.8 573.9 568.8 559.4 551.6 543.3 535.7 530.6 522.5 513.9 508 502.9 498.9 494.6 488.6 478.2 487.9 490.6 491 485.2 472.8 462.2 451.5 438.2 430.2 422 413.8 403.5 392.2 382.6 372.4 363.8 358 352.2 346.9 341.9 337.3 332.9 332.4 328.5 326.4 318.6 317 312.4 308 301 294.1 291.9 289.1 280.5 275.2 274 274.5 272.2 268.7 268.4 265.2 261.1 258.3 256.3 253.2 249.3 247.5 246 242.5 242.6 238.7 238.6 238.9 233.4 232.3 231.7 227.3 231.8 232.1 232.8 232.3 232.5 232.4 232.8 233.4 232.9 236.4 233 230.1 231.4 228.9 227.9 226.5 223.8 224.3 223.3 218 212.3 207.6 200.6 194.4 187.8 183.9 180.2 175.4 169.8 167.5 168.2 166.8 157.8 153.4 150.4 145.8 140.1 134.7 129 120.4 112.2 105.1 105.1 105.1 105.1 105.1 105.1 105.1 105.1 105.1 105.1 105.1 105.1 105.1 105.1 105.1 105.1 105.1 105.1 105.1 105.1 105.1 105.1 105.1 105.1 105.1 105.1 105.1 105.1 105.1 105.1 108.3 116.3 127.7 139.3 151.8 162.2 169.6 177.8 185.5 194.7 203.1 212.5 218 226.7 237.8 251 262.1
477.8 476.2 473 465.6 457.1 458.3 458.5 462.7 464.9 463.8 465.7 468.8 474.5 480.4 484.8 489.8 496.2 502.6 503.8 503.3 504.2 502.4 496 490.3 504.6 508.1 513.7 518.5 517.8 519.8 524.7 529.2 534.2 539.3 546 553.1 556 556.9 557.7 558.1 557.2 552.8 541.7 529.2 519.5 512.3 508.2 500.2 493.5 489.2 484 478.2 472.7 469.1 465.2 466.8 468 467.8 463.6 453 439.1 430.5 424.2 419 406.2 394.2 382.6 373.4 364.8 359 353.4 347.7 342.4 337.8 333.8 329.3 326.7 323.9 321.5 317.7 312.6 307.1 299.8 299.5 294.9 290 283.1 280.9 277.5 270.7 269.5 268.5 266.9 262.3 262.1 259.9 256.4 254.1 252.7 249.1 247.1 245.6 246.3 240 238.9 239.1 236.1 238.8 232.9 228.5 227.2 224.7 230.9 230.2 228.3 229 230.2 230.9 231.5 233.1 230.8 232 230 227.4 225.5 223.6 221 220.3 219.4 218.1 214.4 206.8 203.2 200.1 194.4 189.6 184.2 179.6 173.8 168.2 164.5 162.1 159.3 155.7 149.7 146.6 142.7 137.5 131.5 125.5 117.1 107.7 105.1 105.1 105.1 105.1 105.1 105.1 105.1 105.1 105.1 105.1 105.1 105.1 105.1 105.1 105.1 105.1 105.1 105.1 105.1 105.1 105.1 105.1 105.1 105.1 105.1 105.1 105.1 105.1 105.1 105.1 112.5 124.1 127.7 137.6 147.6 158.7 170.1 179.3 187.4 194.4 203.3 210.5 218.6 223 234.9 247.6 259.6 272.4
478.4 474.8 477.4 471.2 459.7 458 457.3 455.4 456.3 459 460.4 463.7 469.8 472.2 477.5 485.3 486.6 492.7 494.1 493.8 493.7 490.2 483.5 487.7 493.7 500.1 505.8 507.6 509.6 512.4 519.7 523.3 525.2 530.2 536.3 540.6 544.3 544.5 543.3 543 540.8 534.8 523.9 511.9 501.8 494.4 487.8 481.8 475.8 469.4 463.5 457.5 452.4 449 447.8 444.5 444.9 443.2 436.8 427.4 419.1 413.3 410.7 397.1 382.3 374.3 364.8 357.8 350.8 347 340.8 337.6 333.3 327.7 324.4 323.1 319 317.3 313.2 312.4 305.2 300.6 296.9 290 288.6 282.9 280.2 275.5 270 268.7 265.5 264.8 262.1 259.7 257.9 256.8 253.6 252.2 249.9 247.2 245.1 243.2 242.3 239.4 236.7 234.8 232.5 233.3 233.1 226.2 224.4 221.8 224.8 227 224.7 226.9 228.6 228.1 228.9 228.8 228.7 226.5 225.4 221 218.5 216.8 216 217.1 215.3 210.8 205.9 201 196.4 192.8 188.2 184.5 178.4 172.4 166.5 163.7 160.2 155.6 150.7 146.8 141.6 138.9 134.4 129.7 122.9 112.8 105.1 105.1 105.1 105.1 105.1 105.1 105.1 105.1 105.1 105.1 105.1 105.1 105.1 105.1 105.1 105.1 105.1 105.1 105.1 105.1 105.1 105.1 105.1 105.1 105.1 105.1 105.1 105.1 105.1 105.1 105.1 113.1 125.5 134 138.6 147.2 157.2 167.6 178.2 187.6 196.1 200.5 206.9 216 222.9 231.8 243.8 255.6 268.4 285.2
485.2 475.1 471.6 467.2 462.3 466.2 464.4 456.8 455 456.5 458.2 460 463.1 464.6 468.6 475.4 480.7 482.5 485.8 483.3 481.8 479.9 475 478.1 486.1 493 499.1 498.5 501.1 504.9 509.4 511.9 512.7 518.3 523.5 525.3 527.5 527.7 527 527.1 524 519.2 515.2 501.9 488.4 479 472.2 467.4 462 453.7 445.7 439.7 434.1 431.4 428.6 419.5 422.7 420 415.3 408.9 397.9 390.1 382.1 375 366.5 359.4 352.8 345.9 338.6 332.9 328.6 327.5 324.2 319.8 315.7 313.5 310.7 308.9 305.1 303.2 299.1 292.8 289.2 288.4 283.8 279.6 274.9 271.6 267 263.4 261.3 259.4 258.4 258.2 256.4 253.7 253.5 250.3 248.2 246.5 245.8 241.7 241.1 240.3 239 236.2 230.1 227.5 225.4 221.4 221.7 220 221.6 223.8 222.8 223.6 224.4 224.9 224.6 222.8 221.2 220 218.9 216.5 213.5 212.9 211.3 209.5 206.4 203.1 198.9 193.9 189.3 185.8 180.4 174.8 169.5 162.9 158.9 157.2 152.3 147.4 142.5 137.7 132.3 129.7 126 118.3 110.4 105.1 105.1 105.1 105.1 105.1 105.1 105.1 105.1 105.1 105.1 105.1 105.1 105.1 105.1 105.1 105.1 105.1 105.1 105.1 105.1 105.1 105.1 105.1 105.1 105.1 105.1 105.1 105.1 105.1 105.1 105.1 113.1 128.1 136 142.9 148.9 158.2 168.2 177.6 184.5 192.9 199 203.4 213.7 222.3 230.5 240.7 253.9 266.3 280 296.5
495.4 484.8 475.2 466.5 462.6 463.1 460.5 457 454.5 457.2 456.3 455.7 458.2 460.9 461.8 468.1 473.5 470.9 471.7 471 471 470.7 463.6 470.4 481.5 486.1 487.8 491.4 493.5 496 498.7 500.5 504.4 507 509.9 511.8 512.5 511.5 509.6 508.4 509.7 503 496 485 469 461.2 455.3 452.6 447.9 439.2 426.9 422.4 417.6 412.8 409.3 410.4 406.9 405 395.9 388.2 380.8 374.2 366.8 360.6 355.1 348.2 341.8 338.9 328.8 328.1 325.1 320.2 316.9 313.2 310.5 307.1 303.8 302.6 300.7 295 289.8 290.4 287.1 283.7 278.2 273.6 270.5 268.1 264.9 262.8 259.5 260.4 255.9 253.9 253.1 250.9 249.1 247.8 248.7 244.1 243.9 240.8 240 236.6 235.3 233.6 228.2 225.8 223.6 219 219.4 217.2 219.1 220 220.8 219.6 220.8 218.9 217.5 216.5 215.7 214.1 213.8 211.7 210.5 208.3 205.3 203.5 200.6 197.2 193.4 187.5 182.2 176.1 169 163 157.8 155.3 153 146.5 142.2 139.5 134 129.4 124.3 120.6 115.4 105.5 105.1 105.1 105.1 105.1 105.1 105.1 105.1 105.1 105.1 105.1 105.1 105.1 105.1 105.1 105.1 105.1 105.1 105.1 105.1 105.1 105.1 105.1 105.1 105.1 105.1 105.1 105.1 105.1 105.1 105.1 105.1 112 126.4 137.9 147.3 154.2 157.5 166.8 176.6 183.8 190.5 197.5 201.6 211.5 220.9 229 238 249.2 262.7 276.1 291.2 307.4
504.2 495.6 483.1 470.5 462.5 459.9 459.5 457.4 455.3 455.8 456.2 453.9 455.2 455.9 455.5 457.5 458 459.2 461.3 462 461.7 461.4 452.7 469.3 475.7 474.9 478.3 481.5 484.5 485.9 485.8 490.5 493.4 495.5 496.2 497 497.6 497.9 494.8 488.3 484.5 485.5 473.2 458.5 448.3 444.2 439.5 435.7 429 422.1 418 410.8 403.3 400.4 399.1 394.3 387.7 383.2 378.5 373.2 368.7 361.3 350.3 345.7 340.3 334.6 330.4 325.5 320.7 315.8 316.2 314.1 309.5 308.7 304.5 300.2 295.8 293.5 290.9 288.2 287.3 284.1 281.1 281 274.1 271 267.5 264 262.1 259.4 257.1 256.2 253.4 254.6 251.7 247.3 245.5 244.9 244.7 242.7 242 240.1 240.6 235.8 230.6 230.9 227.3 226.8 224.9 218.7 216.9 215.9 219.3 215.6 218 217.9 215.9 213.9 212 210.6 211.8 210.5 211.4 210.6 204 201.5 200 198.8 194.6 190.4 185.1 179.3 171.8 163.9 157.1 152 148.2 145.1 140.2 136.4 133.4 129.3 124.3 120.2 114.9 110.8 105.1 105.1 105.1 105.1 105.1 105.1 105.1 105.1 105.1 105.1 105.1 105.1 105.1 105.1 105.1 105.1 105.1 105.1 105.1 105.1 105.1 105.1 105.1 105.1 105.1 105.1 105.1 105.1 105.1 105.1 105.1 105.1 116.8 131.2 141.2 148.2 156.2 161.6 164.1 175.9 183.7 189.4 195.8 204.3 211.8 220.7 229.7 240.8 249.1 258.3 273.9 289.1 304.4 322.4
509.9 499.9 487.3 474.4 464.2 460.1 460.9 460.4 456.3 457.3 452.8 450.2 449.9 449.1 449.3 450.1 450.5 451.5 453.6 454.5 454.1 448.8 455.7 462.7 464.4 466.5 468.7 471.1 473.3 473.5 474.9 477 478.2 480.6 481.6 482.4 483.1 483.7 481.5 473 464.5 455.5 447.2 437.2 433.7 431.3 425.2 418.6 413.2 408.7 407.1 399.1 392.2 387.9 389 379.7 368.7 367.8 364.2 355.4 352.2 345.8 339.2 335.7 327.7 323.9 320.7 317.2 316 312.5 306.8 304.9 302.9 301.7 298.8 293 288.7 286.5 285.4 284.1 283.5 280.5 275.7 274.2 269.5 269 263.1 261.9 260.3 256.1 257.6 256.5 254 250.3 251.7 248 243.7 245.5 242.3 238.8 240.5 237 233.7 231.3 230.5 226.6 224.7 221.3 223.6 217.3 216.3 214.3 216.8 214.5 215.7 215.9 213.5 211.3 209.5 210 207.7 208.1 202 200.7 197.5 195.5 194.1 190.3 185.4 181.2 175.1 166.2 158.6 152.9 147.8 142.8 138.4 134 129.4 126.2 122.9 117.7 113.3 110.6 105.1 105.1 105.1 105.1 105.1 105.1 105.1 105.1 105.1 105.1 105.1 105.1 105.1 105.1 105.1 105.1 105.1 105.1 105.1 105.1 105.1 105.1 105.1 105.1 105.1 105.1 105.1 105.1 105.1 105.1 105.1 105.1 105.1 112.7 131.3 149.2 155.8 161.6 164.2 170 171.7 181.7 190.1 195 201.7 212.6 223.5 231.2 243.1 253.1 261 271.9 288.3 305.3 319.9 337.4
511.7 497.9 484.3 476.9 470.4 464.1 460.6 460 456.9 454.9 448.7 441.1 442.7 443.7 443.3 442.5 444.7 445.3 445.9 446.6 445.4 439.1 452 451.9 454.3 456.8 458.4 460.7 461.5 461.4 463.3 463.7 464.7 466.1 466.6 467 465.8 464.4 461.3 454.3 448.8 439.2 431.2 423.6 421.5 417.8 413.1 407.7 400.4 395.4 390.2 387 380.9 372.8 373 366.1 357.1 347.7 342.5 337 335.9 332 323.5 320.7 316.8 318.6 312.6 312.8 307.1 301.7 299.9 298.1 298.9 293.4 290.9 287 284.9 283.1 281.9 279.2 277.6 275.2 270.1 267 266 263 261.3 258.7 257.7 254.1 254.9 252.4 253.9 250.9 247.7 246.7 244.4 239.8 242.5 239.6 235.8 236.1 234.1 229.7 227 227.2 224.7 219.7 217.4 215.5 214.5 213.6 212.9 212.5 212 212.3 210.5 210.1 212.2 211.9 201.6 195.8 193.9 192.6 191.2 188.2 183.9 179 172.9 167.1 162.2 153.3 148.8 146 142.4 137.4 131.8 122.6 116.8 114.1 111.4 108.5 107.4 105.1 105.1 105.1 105.1 105.1 105.1 105.1 105.1 105.1 105.1 105.1 105.1 105.1 105.1 105.1 105.1 105.1 105.1 105.1 105.1 105.1 105.1 105.1 105.1 105.1 105.1 105.1 105.1 105.1 105.1 105.1 105.1 105.1 105.1 126.1 144.8 159.6 167.3 173.5 177.1 180.2 180.9 185.9 194.6 203.1 211 220.9 231.3 239.8 252.1 261.7 271.5 288.4 304.9 320.1 335.8 352.8
503.6 493.7 482.8 473.4 470 463 459.3 457.9 454.6 453 451.8 448.1 438.6 434.6 435.8 436.8 436.4 436.7 436.6 437.8 437.8 436 441.3 443.4 446.2 448.3 450.4 453.1 453.7 453.1 453.2 451.8 452.5 453 452.8 451.5 448.4 447.6 443.8 441.8 434.9 424.3 416.5 409.8 406.9 407.1 400.4 394.3 388.5 385.2 382.4 375.7 370.6 360.8 359.1 353.1 345.1 333.6 323.7 322.9 321.8 318.4 314.8 312.3 309.3 308.5 307.1 300.8 298.6 297.3 293.3 290.4 291.8 287.5 283.9 282.2 278.3 277.1 274.3 273.7 270.4 267.1 264.4 263.6 262.8 260.8 259 257.1 256.3 252.6 252.2 251.1 248.4 247.6 246.6 243.8 245.6 239.4 237.6 238.2 235 233 232.1 229.8 225.9 224 221.9 222.6 219.2 217.4 216.2 216.3 216 213.2 210.2 206.5 209.3 211.7 206.2 198.1 195 189.4 184 182.8 180.9 176.1 169 163.3 157.2 150.9 148.9 147.1 146.5 144.9 142.7 134.8 122.2 113.5 109.5 109 108.2 107.7 105.1 105.1 105.1 105.1 105.1 105.1 105.1 105.1 105.1 105.1 105.1 105.1 105.1 105.1 105.1 105.1 105.1 105.1 105.1 105.1 105.1 105.1 105.1 105.1 105.1 105.1 105.1 105.1 105.1 105.1 105.1 105.1 105.1 105.1 115 135 154.8 170 178.6 183.6 187.1 188.8 193.4 197.9 203.1 211.3 220.1 228.8 239 247.1 260.2 273.9 288.9 305.6 321.6 332.7 347.7 364.5
498.8 491.8 481.4 469.6 463 464.1 458.6 455.2 452.5 450.5 445.8 444.5 439.5 437 430.6 432.6 434 433.9 433.7 434.1 433.8 428.4 437 437.5 438.2 439.3 441.4 443.6 444.7 444.9 444.1 443.1 442.8 442.9 441.1 438.3 436.4 431.6 425.9 422.9 418.9 410.6 402.1 396.4 393.6 390.9 386.1 382.7 379.1 375.3 371.5 364.9 359.3 350.9 343.4 335.7 329.5 325.9 323.4 313 309.5 309.1 305.2 304.8 304.5 300.2 299.3 295.2 294.2 292.1 288.2 284.9 283.2 282.3 277.9 275.9 273.8 269 267.3 264.6 264 262 261 262.2 259.5 257.3 256.6 254.7 253.1 251.3 248.2 248.8 248.9 244.5 244.8 241.7 242.2 238.6 238.4 231 235.9 232.5 231.2 229.4 228.5 224.2 222.6 221.7 219.7 219.6 220.1 221.1 217.8 212 208.7 204 203.1 200.8 193.4 188.9 186.4 183.9 176.4 172.3 168.4 162.7 155.2 149.2 149.2 149.8 150.6 151.9 151.4 147.5 138.3 125 114.8 110 108.7 108.1 108 107.2 105.1 105.1 105.1 105.1 105.1 105.1 105.1 105.1 105.1 105.1 105.1 105.1 105.1 105.1 105.1 105.1 105.1 105.1 105.1 105.1 105.1 105.1 105.1 105.1 105.1 105.1 105.1 105.1 105.1 105.1 105.1 105.1 105.1 105.1 125.3 141.1 158.5 172.6 180.4 187.7 192.1 196.6 203.9 211.9 214.8 222.3 228.6 239.2 247.5 255.7 273.1 291.8 308.2 320 332.8 346.1 359.6 380.4
493.2 481.9 473.3 467.7 465.1 461.2 458.2 451.5 449.7 446.2 441.7 438.2 436 434.5 431.5 428.8 432.1 431.3 431 430.8 429.7 423.1 429 430.9 430.7 429.4 430.3 432.6 434.3 435.2 435.5 434.9 433.8 432 427.4 425.2 422 418.1 413.4 410.6 404.1 394.3 386.1 383 379.3 377.9 376.3 372.7 369.6 363.9 361.1 354.9 347.6 340.3 332.3 326.9 322.2 317.5 313.1 307.5 305.5 301.3 301.8 297.9 294 294.6 291.6 289.2 285.1 282.7 283.8 282.3 278.3 276.3 272.6 269.3 267.2 267.2 263 259.5 258.9 257.9 258.5 256.8 256.6 254.4 253.4 252.3 250.3 249.4 247.7 244.3 246.5 243.9 241.4 240.5 237.6 236.1 234.9 232.9 232.1 231.1 229.5 228 227.2 224.3 222.7 221.9 220.8 219.9 218.7 218 214.3 206.9 202.7 200.3 197.9 192.8 187.3 183.1 180 175.9 173.5 168.3 164.2 157.6 151.4 150 151.3 154.5 156.9 150.9 142.7 134.6 126.9 118.9 111.4 108.7 107.4 106.9 106.8 106.8 105.1 105.1 105.1 105.1 105.1 105.1 105.1 105.1 105.1 105.1 105.1 105.1 105.1 105.1 105.1 105.1 105.1 105.1 105.1 105.1 105.1 105.1 105.1 105.1 105.1 105.1 105.1 105.1 105.1 105.1 105.1 105.1 105.1 122.5 138.1 151.8 167.7 178.4 185.3 194.2 202.3 211.5 217.4 222.5 228 229.3 240.1 247 258.1 269.3 287.6 301.5 315.8 329 341.4 357.8 373.9 395
487.8 486.4 483.3 472.5 465.5 459.7 452.5 450 448 444.4 440.2 435.4 433 431.5 430.4 418.7 428.7 429.2 428.3 427.8 427 424.5 415.7 419.9 421.8 419.7 419.5 422 423.9 425.5 426.2 425.1 422 418 414.1 411.7 411.8 414.9 404.7 394.9 387.9 380.6 373.5 374.1 370.4 367.2 363.6 362.5 357 353.5 349.4 342 333.7 329.6 324.6 319.2 314.1 310.4 305.6 300 299.9 294.3 292.6 287.8 286.4 284.5 282.1 279.5 279.3 278.9 277.5 276.4 274.2 272.9 269.1 266.8 262.7 258.6 257.9 258.3 255.2 255.8 254.3 253.5 252 252 250.4 250.3 249.2 247.1 245 243.1 240.6 238.8 238.9 237.6 236 233.9 233.9 230.3 226.7 229.9 228.2 227.6 226.6 225.4 224.5 224.4 222.4 221.5 217.9 212.6 208.1 203.9 201.2 198.5 193.8 188.1 183.1 178.9 174.9 172.4 171 167.9 161.6 155 151.7 152 152.6 155.5 149.8 136.7 129.5 125.3 120.8 115.2 108.8 105.8 105.1 105.2 105.1 105.1 105.1 105.1 105.1 105.1 105.1 105.1 105.1 105.1 105.1 105.1 105.1 105.1 105.1 105.1 105.1 105.1 105.1 105.1 105.1 105.1 105.1 105.1 105.1 105.1 105.1 105.1 105.1 105.1 105.1 105.1 105.1 105.1 117.7 138.2 149.9 163.2 177.9 188.7 195.4 206.2 217.5 225.3 230.2 235.8 235.5 238.5 247.4 255.8 266.5 280.8 295.1 308.4 325.2 336.1 351.9 369.5 386.3 409.1
496.5 492.3 484.6 477.9 469.9 462.6 454.1 451.2 447.5 445.2 443.8 438.6 431.6 427.9 426 421.3 423.1 424.6 424.8 423.9 423.1 421 414.2 406.7 411.5 410.9 409.5 412.2 415.5 416.8 417.2 415.8 412.3 408.5 404.7 401.3 398.9 397 391.1 382.6 375 370.1 369 360.3 358.4 356.9 355.4 351.9 347.8 342.2 336.5 329.2 323.7 319.4 315 308.5 309 304 300.7 296 293.2 289.3 283.9 282.3 282.6 277 275.5 273.8 272.2 272.6 270.9 270 269.4 267.5 263.5 260.2 257.6 255.5 253.3 252.6 252.3 250.9 251 250.2 249.3 249.9 248.8 247.2 246.2 244.2 241.2 240 239.2 237.6 235 234.4 233.8 232.3 230.9 229.2 225.4 227.4 227.6 227.2 226.7 225.8 224.8 223.1 221.4 218.6 211.5 207.4 205.6 202.5 198.6 194.6 189.5 186.4 182 178.7 174.2 170.2 167.9 165 158.6 153.6 152.5 150 146.4 143.1 133.9 125.8 125.2 121.9 117.4 111.1 105.1 105.1 105.1 105.1 105.1 105.1 105.1 105.1 105.1 105.1 105.1 105.1 105.1 105.1 105.1 105.1 105.1 105.1 105.1 105.1 105.1 105.1 105.1 105.1 105.1 105.1 105.1 105.1 105.1 105.1 105.1 105.1 105.1 105.1 105.1 105.1 105.1 115.5 134.6 148 159.2 173.2 185.8 197 212.5 224.8 227.6 233.8 240.8 242.6 247.1 248.6 251.4 260.9 278 289.3 302.1 314.2 329.8 344 361.4 380.4 399.6 425.9
504.1 496.1 487.8 479.8 471.2 464.5 458.2 453.8 450.7 448.1 445.2 440.5 433 424.1 422 411.2 414.9 419.3 419.3 418 418.1 416.6 414.5 410.1 401.2 398.1 402 404.3 408.7 410.7 410.7 407.1 404 401.6 395.9 391.4 385.4 379.3 374.8 372.5 368.6 358.6 358.1 350.7 348.6 348.8 347.1 343.1 336.8 331.5 327.4 320.9 314.8 311.1 307.2 303.5 300.8 297.8 294.5 291.5 291.6 286.1 278.9 274.7 271.3 270.4 269.2 269.4 267.7 266.9 265 263.6 262 260.1 258.7 257.5 253.9 251 247.6 247.4 246.7 246.4 248.4 247.9 247.2 246.9 245.3 243.2 241.4 240.2 238.8 236.8 236.2 235.3 233.1 230.7 230.7 229.9 229 228.6 225.9 225.2 227.2 225.7 225.1 224.6 222 218.1 215.4 212.5 209 205 202.5 198.7 194.6 190.7 188.2 185.5 182.2 178.1 172.8 169.4 167.1 162.5 158 159.5 147.6 138 131.5 127.9 124.7 122.5 120.8 117.1 112.7 105.1 105.1 105.1 105.1 105.1 105.1 105.1 105.1 105.1 105.1 105.1 105.1 105.1 105.1 105.1 105.1 105.1 105.1 105.1 105.1 105.1 105.1 105.1 105.1 105.1 105.1 105.1 105.1 105.1 105.1 105.1 105.1 105.1 105.1 105.1 105.1 105.1 105.2 130.8 142.8 155.1 167.3 182.7 193.6 209.7 227.1 231.8 238.2 239.4 247.9 248.1 255.4 256 264.3 274.7 288.4 298.5 310.8 322.6 337.3 354.1 371.4 391.2 417.4 439.3
507.1 497.9 487.4 478.1 472.9 468.8 462.2 456.9 453.9 450.2 446.9 441.5 434.7 425.5 417.1 414 410.8 413.7 412.9 411.8 412 411.8 410.1 406.7 401.7 393.1 395.5 395.6 396.7 400.3 399.6 396.9 393.8 391.4 386.4 381.7 375.3 368.2 362.8 360.9 355.1 348.2 346.4 344.9 340 339.2 335.8 331.3 326.4 322.9 318.6 314.8 311.4 304.6 301.8 299.4 298.5 295.8 292.4 288.4 284.9 281.7 278 270.3 266.4 264.1 262.6 261.3 260.6 259.6 259.5 256.7 255.9 254.5 246.2 253 249.1 245.8 242.7 242.2 243.1 244.1 243.8 243.3 242.9 239.6 236.8 237.2 236.7 237.2 236.6 234.4 232.1 231.4 229.7 228.1 227.4 227.6 227.1 226.8 225.3 224.1 224.8 225.7 221.6 219.4 216.2 213.6 211.3 208.5 204.9 201.4 197.5 194.1 190.9 188.8 186.7 183.6 180.3 175.9 172.2 167.1 162.3 157.9 153.5 147.4 133.3 126.7 123.5 121.4 119.7 116.9 112 109.8 105.1 105.1 105.1 105.1 105.1 105.1 105.1 105.1 105.1 105.1 105.1 105.1 105.1 105.1 105.1 105.1 105.1 105.1 105.1 105.1 105.1 105.1 105.1 105.1 105.1 105.1 105.1 105.1 105.1 105.1 105.1 105.1 105.1 105.1 105.1 105.1 105.1 105.1 120.7 139.6 152.6 163.5 174.5 187.3 199.9 222 233.2 243.5 247.3 248.5 246.9 251.7 257.7 267.2 282.7 290 297.3 306.3 317.6 331.4 346.3 365.1 387.8 405.8 430 455.3
507.9 497.2 487.4 481.3 476.5 471.9 466.6 460.7 456.2 452 447.9 442 435.1 426.5 414.7 408.8 406.9 408.3 406.8 406 406.8 405.9 402.9 399 394.6 389 386.3 389.2 386.7 388.4 387.3 384.9 382.2 379.4 377.8 370.1 364.1 357.8 351.4 348.4 344 342.6 337.8 335.4 332.2 329.7 327.1 324 318.4 313.5 310.3 306 302.7 300.4 296.3 295.3 294.4 292.6 288.7 284 281.8 277.7 275.2 270.3 265 262.7 261.2 260.1 259.1 258.1 257.3 260.3 259.1 254.4 248.3 245 242.1 239.8 239 239.2 239 236.6 238.3 236.9 234.5 233.3 232.4 232 234.7 233.1 231 229.5 228.2 227.2 226.4 226.2 226.1 222.5 222.7 223.6 223 218.6 217.9 216.7 216.2 213.9 212 209.9 205.7 203.5 200.4 197.1 193.7 189.7 187.1 185.3 182.3 178.6 174 173.8 172.7 160.5 154.3 148.2 136.8 125.3 120.1 117.9 117.5 115.1 110.3 105.1 105.1 105.1 105.1 105.1 105.1 105.1 105.1 105.1 105.1 105.1 105.1 105.1 105.1 105.1 105.1 105.1 105.1 105.1 105.1 105.1 105.1 105.1 105.1 105.1 105.1 105.1 105.1 105.1 105.1 105.1 105.1 105.1 105.1 105.1 105.1 105.1 105.1 105.1 105.1 113.1 129 142.7 155.5 168.3 180.5 193.6 209.6 228.1 237.4 246.5 251.5 251.4 249.4 253.4 264.2 277.4 292.9 298.7 307.5 316.6 326.8 339.7 358.1 376.3 401.1 421.5 444.7 463.6
507.9 496.7 488.5 483.2 478.3 473 468.2 463 457.2 451.9 446.9 440.8 433.6 424.6 412.5 408.4 405.9 403 401.9 400 399.7 396.9 395 392.1 390 388 381.1 378.8 377.8 378 376 373.8 371.3 367.7 362.8 358.1 352.4 347.3 344 339.8 337.1 334.6 333.1 328.2 325.5 321.9 320.9 316 312.4 309.6 305.3 303.7 300.2 297.3 293.9 291.2 289.4 287.3 284.2 279.6 276.5 272.9 269 266.6 264.2 261.5 260.5 260 261.1 259.1 260.7 260 256.5 252.8 249.8 246.9 242 236.5 235.8 236.4 234.6 232.6 232.5 231.4 230.9 230.7 228.4 226.9 225.2 224.8 225 225.6 224.6 224.9 223.8 222 220.9 218.4 217.9 217.3 216.9 213.4 212.5 212.1 212.2 210.1 206.7 203.4 200.5 198.9 196.7 191.5 189 185.4 182.5 178.6 174.1 170.7 164.8 158 151.1 146 142 133.6 119.1 115.8 113.9 112 107.6 105.1 105.1 105.1 105.1 105.1 105.1 105.1 105.1 105.1 105.1 105.1 105.1 105.1 105.1 105.1 105.1 105.1 105.1 105.1 105.1 105.1 105.1 105.1 105.1 105.1 105.1 105.1 105.1 105.1 105.1 105.1 105.1 105.1 105.1 105.1 105.1 105.1 105.1 105.1 105.1 105.1 109.9 123 136.5 147.2 160.8 173.8 186.7 197.6 211.1 225.6 237.1 243.9 247.9 249.5 252.8 264 273.9 287.9 297.3 304.1 314.1 326.7 337.4 353.1 369.7 388 410.3 432.1 454.6 471.6
507.6 498.2 490.5 484.4 478 472.8 468.1 463.4 457.1 451.1 445.5 437.5 430.5 423.6 415.2 411.2 410.7 407.5 400.4 388.5 389.8 387.3 387.5 387.1 385.8 383.8 381 367.4 365.9 367 366.5 363.7 361.1 358.6 354.4 349.9 346 340.4 336.1 335.1 331.9 327.3 325.7 319.4 317.1 314.5 311.4 308.6 306.5 303 300.1 298.7 295.2 292.3 289.6 287 284.2 280.5 276.1 273.1 270 269.4 266.2 263.4 263.1 262.4 264.4 266.4 264 265.6 264 258.7 254.6 251.2 247.7 246.4 244.8 237.4 233.5 234.5 233.3 230.5 229.5 229.8 229.4 228.8 227.3 224.9 221.2 219.7 220.6 219.2 219.1 218.5 217.6 216.2 214.6 212 210.4 209.3 208.1 209 210 209.4 207.6 204.6 202.1 199.3 196.6 194.1 191.4 186.2 183 181.2 178.1 170.5 166.9 162.4 152.1 145 136.2 130.8 125.2 119.9 115.1 111.7 107.1 105.1 105.1 105.1 105.1 105.1 105.1 105.1 105.1 105.1 105.1 105.1 105.1 105.1 105.1 105.1 105.1 105.1 105.1 105.1 105.1 105.1 105.1 105.1 105.1 105.1 105.1 105.1 105.1 105.1 105.1 105.1 105.1 105.1 105.1 105.1 105.1 105.1 105.1 105.1 105.1 105.1 105.1 105.1 123.5 134.9 145.2 155.3 164.8 178.6 190.8 202.1 215.9 232 242 247.9 250.5 254.8 261.2 275.5 283.1 292.2 301.9 309.2 322.4 336.6 350.4 366.9 385.9 401.2 418.4 441.2 464.2 483.3
509.7 500.8 493.2 485.4 478.8 472.8 468.1 462.3 456.1 449.5 441.8 433.4 426.7 420.7 416.1 412.8 408.7 403.9 398.8 392.7 386.6 381.2 380.3 380.9 378.9 376.8 374.3 370.5 365.6 354.6 352.9 353.7 353 351.7 347.8 344.3 340 336.1 331.6 327.2 324.6 320.5 317.6 311.9 309.2 308.1 304.7 303.6 300.9 297.2 293.6 292.4 290.4 287.4 284.6 280.6 275.6 274.4 273.4 272.4 267.9 267.3 265.9 265.5 267.3 272.3 276.3 272.7 268.5 266.9 263.3 259.8 257.4 250.5 246.7 242.3 237.7 235.3 232.6 231.2 230.1 228.1 228.4 226.3 227.3 227.1 225 221.2 217.2 217.2 215.2 215.2 215.1 214.3 211.7 209.9 208 206.2 202.9 202.7 203.4 205.2 205.7 203.4 201.1 198.6 196.3 193.3 190.5 187.1 184.6 182.6 180 176.3 170 164.7 162 157.6 150.4 144.3 137.5 130.7 124.8 118.3 113.2 108.8 105.1 105.1 105.1 105.1 105.1 105.1 105.1 105.1 105.1 105.1 105.1 105.1 105.1 105.1 105.1 105.1 105.1 105.1 105.1 105.1 105.1 105.1 105.1 105.1 105.1 105.1 105.1 105.1 105.1 105.1 105.1 105.1 105.1 105.1 105.1 105.1 105.1 105.1 105.1 105.1 105.1 105.1 105.1 116.1 135.6 145.9 152.5 159.8 167.2 180.3 193.3 206.1 221.3 236.4 249.8 255.2 257.4 263.9 271.5 286 290 298.7 305.7 316.3 330.6 346.3 364.3 382.5 398.1 415 437.1 453.9 471.9 488.7
510.8 501.7 493.3 485.2 479.3 472.9 466.8 460.2 453.2 445.6 436.6 428.4 423.4 419.2 415.8 412.1 406.6 401.2 396.1 388.7 384.3 376.5 369.9 369.6 358.3 368.3 365.3 361.7 356.6 353.3 350.8 342.2 345.3 344.4 341.4 336.6 333.2 328.8 325.8 321.5 317.7 313.7 310.5 307.1 303.2 302.2 298.4 294.8 290.6 287.1 285 282.9 281.7 280.3 276.6 273.4 272.4 272.2 269.7 268.9 270.4 269.8 271.9 276.8 290.1 292.3 284.6 275.8 269.2 268.1 264.9 262.7 261 254.1 247.7 244.2 236.1 233.6 232.9 230.4 231.5 232.1 231.8 228.5 224.3 219.5 217.3 214.8 211.9 209.8 211.4 210.8 209.3 209.8 205.5 202.6 200.1 197.2 196.9 200.8 202.7 200.8 199 196.8 195 192.7 189.8 186.2 183.6 180.6 177.6 175.2 172.3 170.8 166.6 162.9 163.2 165.8 156.5 145.7 139.2 133 128.5 118.5 108.3 105.1 105.1 105.1 105.1 105.1 105.1 105.1 105.1 105.1 105.1 105.1 105.1 105.1 105.1 105.1 105.1 105.1 105.1 105.1 105.1 105.1 105.1 105.1 105.1 105.1 105.1 105.1 105.1 105.1 105.1 105.1 105.1 105.1 105.1 105.1 105.1 105.1 105.1 105.1 105.1 105.1 105.1 105.1 106.7 131.3 146.1 153.4 158 166.9 174 187.7 199 212.5 226.7 242.6 252.4 258.8 264.5 272.2 280.7 291.4 296.4 305.2 313.2 323.2 338.5 356.1 375 392 415 429.3 452 469.1 484.5 496.6
511.6 502.5 493 485.6 477.7 469.1 462.1 456.2 448.4 439.4 433.1 427 421.8 417 413.3 409.2 404.2 399.7 393.8 386.7 381.1 378.1 374.9 368.6 350.9 360.4 355.5 352.3 349.7 347.2 344.5 341 338.3 337.1 331.9 327.4 324.9 321.7 318.9 315.2 312 308.2 304.6 301.3 299.1 294.1 289.8 286.9 284.8 281.7 280.1 278.8 278.4 276.8 273.4 272.7 272.5 270.4 272 275.1 278.8 282.2 284.9 287.4 291 293.2 282 272.9 270.2 267.2 266.2 263.9 258.9 252.6 246.4 241 236.1 233.8 235.3 235.6 236.9 236.6 234.3 229.9 224.1 222.5 218.7 217.7 214.6 210.3 208.8 208.7 205.8 202.4 201.5 202.9 203.1 199.4 193.5 195.4 193.1 190.7 192.1 191.1 188.8 185.5 182.6 179.7 178.1 176 174.6 172.4 171.1 170.6 164.6 163.6 163.5 160.3 151.8 145 136.5 130.7 120.7 106 105.1 105.1 105.1 105.1 105.1 105.1 105.1 105.1 105.1 105.1 105.1 105.1 105.1 105.1 105.1 105.1 105.1 105.1 105.1 105.1 105.1 105.1 105.1 105.1 105.1 105.1 105.1 105.1 105.1 105.1 105.1 105.1 105.1 105.1 105.1 105.1 105.1 105.1 105.1 105.1 105.1 105.1 105.1 105.1 117.9 141.8 153.2 159.5 163.8 171.5 180.3 192.2 207.7 221.9 234.4 247.3 255.5 262.4 271 281.3 289.6 299.5 305.8 314.8 321.2 334 348.3 365.6 386.8 401.5 421.8 442.2 464.7 484.1 496.1 504.6
510.6 500.4 491.7 483.2 474.7 465.6 457.7 449.2 443.8 436.6 429.8 426.7 421.2 415.9 411.8 406.9 401.6 396.8 392 387.5 382.7 378.5 374.6 369.2 352.7 355.8 349.7 343.7 341 339.3 337.2 334.4 329.4 323.8 323.6 319.8 315.8 312.3 312 310.3 306.9 304.9 298.8 292.5 290.7 287.8 286.5 285.3 283.5 282.3 280.2 278.4 275.4 274 273.2 272.8 274.8 276.4 279.3 282.1 289.3 290.2 287.1 288.6 289.7 284.7 274.4 269.2 269.5 267.4 264.3 260.3 255 246.3 242.2 237.1 235.9 235.9 238.1 239.6 239.2 237.6 234.4 231 224.8 224.6 225.2 223 220 218.6 215.5 209 206.5 208.6 210.7 209.7 205.2 197.8 194.4 189.9 183.2 179.8 183.3 183.7 181.4 179 177.4 177.7 177.4 176.2 174.3 171.1 167.5 166.3 166.5 169.1 172.8 162.3 146.7 133.8 120.8 107.4 105.1 105.1 105.1 105.1 105.1 105.1 105.1 105.1 105.1 105.1 105.1 105.1 105.1 105.1 105.1 105.1 105.1 105.1 105.1 105.1 105.1 105.1 105.1 105.1 105.1 105.1 105.1 105.1 105.1 105.1 105.1 105.1 105.1 105.1 105.1 105.1 105.1 105.1 105.1 105.1 105.1 105.1 105.1 105.1 105.1 105.1 124.6 145.8 158.4 162.7 168.1 177.8 187.2 199 212.5 227.9 244.5 256.6 265.6 268.3 275.5 288.9 298.1 309.2 316.9 322.9 330.2 345.1 359.5 375.7 395.2 409 427.6 451.5 474.1 491.4 506 514
506.4 497.9 488.4 480.4 472.2 461.4 453.4 446.3 439.1 434.5 428.6 423.6 417.7 412.9 409.7 403.9 398.4 392.5 389.2 386.2 380.8 375.8 369.6 362.9 354.1 349 345.2 342 337.5 334.7 332.5 328.4 323.4 319.4 316 314 310 306 303.9 304.7 302.4 297.1 292.1 289.8 289.3 287.7 285.3 285 285.2 282.1 280.6 277.9 276.6 276.2 276.4 277.5 278.4 280.1 281.9 282.8 288.2 290.7 283.3 281.6 279.7 278.6 271.3 269.4 268 263.9 259.7 254.5 249.6 244.8 240.9 241.8 238.4 238.9 239.9 239.2 237.2 236.3 232.2 229.2 231.3 229.9 228.9 226.5 226.3 220.2 212.5 211.6 215.3 218.7 217.9 211 201.8 201.8 198 191.6 185.1 174 170.6 176.3 175.5 176.5 178.8 179.1 179.7 174.6 168.9 166.9 165.5 167.4 170.4 173.1 169.4 153.6 134.6 118.7 105.1 105.1 105.1 105.1 105.1 105.1 105.1 105.1 105.1 105.1 105.1 105.1 105.1 105.1 105.1 105.1 105.1 105.1 105.1 105.1 105.1 105.1 105.1 105.1 105.1 105.1 105.1 105.1 105.1 105.1 105.1 105.1 105.1 105.1 105.1 105.1 105.1 105.1 105.1 105.1 105.1 105.1 105.1 105.1 105.1 105.1 105.1 108.7 131.1 146.2 158.2 163 170.6 181.4 190.9 202.1 216.7 237.3 255.4 266 272 274.3 282.3 293.5 307.9 320.9 329.7 336 343.4 357.1 371.6 385.7 405.1 423.5 435.9 459 480.6 498.4 513.6 523.9
503.4 494.4 486.3 477.2 467.4 456.2 449 443.1 438.5 432 424.8 420.2 417.9 409.9 404.9 399.6 394.8 390.3 386.2 382 377.1 369.4 361.8 354.2 348.2 343.6 342.6 336.9 334.2 330.2 327.9 321.4 317.8 315.7 313.4 309.3 305.9 301.2 298.3 296.9 294 292.2 290.1 289 286.6 284.7 283.8 283.9 281.7 279.5 279.8 282.4 279.4 279 278.6 278.8 279.7 280.6 282.2 281.7 283.1 281.1 281 281.1 276.6 270.1 266.4 267.4 262.8 259.1 253.1 249.2 247.6 245 242.4 241.7 240.5 240.3 239.1 238.6 236.9 232.6 234.7 235.6 233.7 232 230.3 226.9 223.5 220.6 222.5 222.2 224.2 224.4 218.8 212.5 210.4 208.1 201.1 192.2 182 172.8 165.6 173.1 175.6 177.5 180.8 180.5 178.4 168 162.3 161.9 161.4 162 161.1 158.3 148.4 133.9 119.2 105.8 105.1 105.1 105.1 105.1 105.1 105.1 105.1 105.1 105.1 105.1 105.1 105.1 105.1 105.1 105.1 105.1 105.1 105.1 105.1 105.1 105.1 105.1 105.1 105.1 105.1 105.1 105.1 105.1 105.1 105.1 105.1 105.1 105.1 105.1 105.1 105.1 105.1 105.1 105.1 105.1 105.1 105.1 105.1 105.1 105.1 105.1 105.1 120.3 137.7 153.5 162.5 168.7 173.9 182.1 193.7 208.9 225.6 245.4 265.9 273.5 276.9 282.4 293.1 303.2 317.4 330.9 336 349.5 356.2 369.8 384 395.4 414.8 436.1 449.7 467.2 485.5 504.8 522.3 535.2
498.2 491.2 483.2 473.5 463.7 455.2 449.4 442.3 436 430.2 423.6 414.8 411.1 406.2 400.7 397 392.1 386 380.4 375.4 367.1 360.6 356.3 349.6 343.3 334.9 334.4 331.6 328.3 325.4 322.7 318.5 314.6 311.1 311.6 307.9 302.3 297 293.2 292 292.2 290.1 286.4 284.8 284 282.6 281 280 279.4 279.5 282.4 281 279.9 279.9 278.7 276.7 278.5 280.3 279.4 277.7 277.4 278.7 274.3 274.2 270.9 265.6 263 259.7 256.3 253.3 251 250.2 247.1 245.4 242.3 240.5 239.6 240.3 239.4 238.3 237 239 235.4 235.3 234.3 233.9 231.5 230.8 227.9 228.4 229.6 232.1 233 233.5 228.4 223 217.8 209.9 200.6 189.6 176.8 170.7 166.5 162.9 169.6 171.8 172 170.8 165.8 154.9 153.2 153.4 152.7 150.3 145.4 136.3 129.2 119.6 110.2 105.1 105.1 105.1 105.1 105.1 105.1 105.1 105.1 105.1 105.1 105.1 105.1 105.1 105.1 105.1 105.1 105.1 105.1 105.1 105.1 105.1 105.1 105.1 105.1 105.1 105.1 105.1 105.1 105.1 105.1 105.1 105.1 105.1 105.1 105.1 105.1 105.1 105.1 105.1 105.1 105.1 105.1 105.1 105.1 105.1 105.1 105.1 110.4 129.4 142.9 156.8 166.5 174.4 180.4 186.5 203.8 218.7 234.5 252.9 270.5 278.2 284.1 293.6 309.5 314.8 325.7 336.1 345.8 361.4 368 380 392.3 405.7 423.9 444.2 462 477.2 490.9 509.8 529.4 542.6
493.8 485.8 477.9 468.3 460.3 455.1 444.4 438.8 431.8 423.8 417.3 410.8 405.1 402.8 395 392.2 387.4 380.7 376.1 369.4 366.1 359.1 352.3 347.9 344.9 328.8 328.9 324.2 320.9 320.8 316.3 313 309.2 307.5 305.1 303.1 297.7 292.4 285.5 287.1 288.5 285 283.6 284 281.5 280 279.7 279.1 279.8 280.8 280.3 279.4 279.7 279.5 276.2 275.3 275.5 273.6 273.7 274.4 273.2 270.8 265.4 266.8 264.6 262.4 259.6 258.9 254.2 252.2 251.3 247.2 244 243.3 242 243.3 243.3 241.8 241.2 242 239.4 239.4 239.4 241.6 238.3 241.2 239.2 240.5 234.8 237.4 240.2 244.6 247.3 250.3 241 233 221.3 209.3 198.1 185.5 178.8 174.7 171.3 159.6 155.8 159.8 155.7 151.1 146.7 144.8 145.1 145.4 144.7 139.5 132.5 125.6 119.4 111.3 105.1 105.1 105.1 105.1 105.1 105.1 105.1 105.1 105.1 105.1 105.1 105.1 105.1 105.1 105.1 105.1 105.1 105.1 105.1 105.1 105.1 105.1 105.1 105.1 105.1 105.1 105.1 105.1 105.1 105.1 105.1 105.1 105.1 105.1 105.1 105.1 105.1 105.1 105.1 105.1 105.1 105.1 105.1 105.1 105.1 105.1 105.1 105.1 121.2 140.1 152.8 162 169.8 179.3 187.6 197.7 214 229.9 244.8 259.1 273 285.4 293.7 303 319.8 324.1 333.7 343 355 370.5 376.2 388.8 404.8 419.3 440.3 451 469.8 487.4 499.7 516.2 533.7 544.1
488.1 478.5 470.3 462.3 454.3 447.2 441.9 435.4 430.2 422.7 415.1 408.1 402.6 395.9 392.1 387.8 383.2 375.2 370 367.3 360.7 356.3 349.3 344.5 338.2 333.1 321.2 319.3 315.9 315.4 311.8 308.5 305 303.7 298.2 295.9 291.8 288.2 285.4 283.5 282 280.6 279.9 279.9 278.1 279.5 278.2 279.8 279.2 277.8 276.9 277.9 276.1 276.8 274.2 272.1 272.2 271.5 271.3 270.4 269.7 268.1 264.2 261.9 260.2 260.4 260.2 259.1 254 250.9 247.6 245.7 245.9 246.2 246.3 246.5 244.6 243.1 241.3 242.2 242.3 240.9 244.5 249.5 254.6 248.3 241.5 242 244.1 249.8 250.7 253.4 259.3 258.5 246.9 232.9 218.1 206 201.9 199.7 191.1 178.8 171.9 165 150.6 146.5 144.4 143.4 142.5 142.5 143 142.3 137.4 127 120.1 116.5 110.3 105.1 105.1 105.1 105.1 105.1 105.1 105.1 105.1 105.1 105.1 105.1 105.1 105.1 105.1 105.1 105.1 105.1 105.1 105.1 105.1 105.1 105.1 105.1 105.1 105.1 105.1 105.1 105.1 105.1 105.1 105.1 105.1 105.1 105.1 105.1 105.1 105.1 105.1 105.1 105.1 105.1 105.1 105.1 105.1 105.1 105.1 105.1 105.1 119.1 133.1 149.8 159.7 168 178 187.8 198.5 210.2 223.1 235.7 250.7 264.8 278.8 292.5 301.8 313.1 328.5 330.8 342.1 351.3 363.6 376 383.7 403.1 425.6 434.5 451.1 461.8 476.6 495 509.8 521.3 536.7 545
476.1 468.9 462.3 455 447.1 443.4 437.5 431.1 425.7 419.7 411.7 405.6 398.9 392.4 385.3 382.1 378.4 371.5 366.8 364.6 356.4 351.3 346.8 339.7 337.8 327.5 320.6 313.9 311.5 310 308.1 300.1 294.9 291.2 289.2 287.6 286.2 281.5 277.7 277.9 278.6 279 276.1 275.4 275.1 277 275.3 275 273.9 273.3 273.3 273.3 273.2 273.2 271 270.9 268.4 267.2 267 266.3 266.9 266.8 263.5 260.7 260.8 257.4 253.8 252.7 251.7 249.5 247.4 247.6 248.3 250 249.1 247.5 247 245.1 245.4 245.5 246.2 247.5 254.7 260.6 258.4 253 248 246.9 250.3 255.5 257.6 258.7 257.7 251.9 237.9 224.9 221.8 221.1 215.5 202.7 195.2 186.7 172.7 161 151.1 145.5 143.1 143.9 145.6 145.8 144.2 137.9 125.1 116 112.5 109.6 105.1 105.1 105.1 105.1 105.1 105.1 105.1 105.1 105.1 105.1 105.1 105.1 105.1 105.1 105.1 105.1 105.1 105.1 105.1 105.1 105.1 105.1 105.1 105.1 105.1 105.1 105.1 105.1 105.1 105.1 105.1 105.1 105.1 105.1 105.1 105.1 105.1 105.1 105.1 105.1 105.1 105.1 105.1 105.1 105.1 105.1 105.1 108 119.4 129.5 143.9 156.1 166.8 178.5 190.9 200.4 208.3 217.6 227.8 241.5 256.7 270.4 286 299.4 312.3 321.3 333.4 337.9 348 358.6 370.5 381.3 393.3 414.8 438.3 448.6 457.9 471.9 484.1 502.2 515.9 523.7 538 549.7
469 460.8 453.3 447.5 441.6 437.7 433.7 427.3 419.5 412.9 408.5 403 395.9 391.3 382.4 374.8 371.7 368.3 360.9 360.6 356.1 347.3 344.9 335.9 330.6 322.5 317 312.7 303.7 299.4 297.8 294.1 291.2 286.8 284.7 282.2 278.2 275.1 271.6 275.8 275.4 274.3 272.1 271.3 272.2 272.7 271 269.8 270.3 270.8 270.6 268.5 267.6 266.5 266.7 264.2 263.7 262.1 264.6 264.5 263.4 261.6 259.3 257.3 253.5 251.1 251.9 248.7 248.9 248.4 249.8 250.1 249.9 250.7 249.3 249.2 247.6 246.1 245.7 246.4 247.5 250.1 252.4 252.4 254.6 261.3 257.7 248.9 250.6 255.6 256.1 251.2 247.1 239.8 232.1 231.8 229.4 219.7 212.1 203 199 178.4 163.8 159 151.6 146.9 147.7 150.1 150.9 146.3 136.9 126.1 115.8 111 109.2 105.2 105.1 105.1 105.1 105.1 105.1 105.1 105.1 105.1 105.1 105.1 105.1 105.1 105.1 105.1 105.1 105.1 105.1 105.1 105.1 105.1 105.1 105.1 105.1 105.1 105.1 105.1 105.1 105.1 105.1 105.1 105.1 105.1 105.1 105.1 105.1 105.1 105.1 105.1 105.1 105.1 105.1 105.1 105.1 105.1 108.1 109.2 110.6 121.7 130.2 138.2 150.1 162.2 175.1 186.2 197.5 207.6 212.7 223.5 234.3 247.8 262.5 276.5 291.8 304.4 316.1 328.7 337 343.4 353.6 364.2 376.4 389.9 404.2 422.8 445.7 459.5 469.4 480.9 492.7 505.4 517 527.1 541.9 554.1
463.1 454.1 447.2 440.6 435.8 433.5 427.9 422.7 414.2 408.4 405.4 400.3 390.8 384.1 376.4 370.9 364.9 363.9 358.7 353.2 345.3 339.9 333.6 327.5 322 316.8 312.1 303.6 296.4 292.2 289.4 288.2 285 282.8 278.7 275.1 273.1 271.1 270.5 272.5 270.9 268.6 267.8 267.6 267.9 269.7 269.3 268.3 271 268 266.1 264.1 260.7 262 259.6 256.6 258.8 264.1 264.8 263.2 261.4 259.5 255.3 254.8 253.9 249.7 247.2 247.3 248 249 250.3 249.8 249 249.2 248.2 246.7 244.6 244.2 243.6 243.5 243.1 242.3 242.8 247.7 255 255 246.6 243.8 246.1 245.8 242.5 241.1 238.6 234.7 236.4 232 221.2 212.3 204.8 191.3 177.1 162.9 159.2 155.5 151.1 150.6 150.8 147.8 140.9 133.5 124.9 116.4 108.9 108.1 106.9 105.1 105.1 105.1 105.1 105.1 105.1 105.1 105.1 105.1 105.1 105.1 105.1 105.1 105.1 105.1 105.1 105.1 105.1 105.1 105.1 105.1 105.1 105.1 105.1 105.1 105.1 105.1 105.1 105.1 105.1 105.1 105.1 105.1 105.1 105.1 105.1 105.1 105.1 105.1 105.1 105.1 105.1 105.1 105.1 106 107 112.3 118.4 130.4 135.4 144.3 156.1 167.6 181.2 192.2 200.5 210.6 218.1 228.2 240.8 254.5 267.1 282.1 295.6 308.7 320.7 333.9 340.3 348.1 360.1 372.5 387.7 404.8 414.1 432.6 450 467.1 479.7 490 499.2 508.3 520.5 533.9 547.2 559
456.7 449 444.4 438 431.2 428.4 423.8 415.8 412.1 404.6 401.4 394 386 378.7 372.9 367 363 358.5 351.4 347.2 339.2 334.6 327.2 320.2 314.6 309.8 299.8 295.8 292.2 287.4 282.1 279.8 276.6 274 272 268.5 266.9 267.7 267.2 266.4 266 266.2 267 269.9 270 268.4 268.5 264.6 265.1 263.7 262.5 261.5 259 256 254.1 258 259.6 259.3 258.2 257.6 257.3 257.3 255.4 252 247.1 243.8 243.9 245.1 246.3 248.8 247.1 247.1 246.3 246 245.1 242.2 240.4 239.8 238.5 235 233.5 235.9 239.5 241.7 241.1 240.4 237.1 236.5 235.9 237.6 239.1 235.8 233.4 234.4 232.9 224.4 212.2 201.4 187.4 171.9 162.7 156.9 153.7 150.9 148 146.5 140.3 133.4 127.9 123 115.8 107.3 105.1 105.1 105.1 105.1 105.1 105.1 105.1 105.1 105.1 105.1 105.1 105.1 105.1 105.1 105.1 105.1 105.1 105.1 105.1 105.1 105.1 105.1 105.1 105.1 105.1 105.1 105.1 105.1 105.1 105.1 105.1 105.1 105.1 105.1 105.1 105.1 105.1 105.1 105.1 105.1 105.1 105.1 105.1 105.1 105.1 105.1 105.1 106.5 111.2 112.9 123.8 133.9 137.5 149.4 161.4 172.9 185.6 196 204.4 214.4 223.3 234.4 247.6 259.6 271.7 287.4 303.1 312.8 324.7 336.9 344.4 354.4 367.9 382.5 399.5 416.5 424.8 440.4 458.7 471.7 485 497.6 509.1 515.4 526.3 540.4 553.6 565.8
453.2 450.9 442.8 433.2 426.1 423.1 418.7 412.7 409 402.4 393.9 389.5 383.5 378 369.3 362.8 358.3 354.4 347.7 339.7 332.2 330 327 319.4 311.2 300.1 293.3 291 285.6 280.7 272.6 271.2 269.6 267.6 264.7 264.6 260.8 261.4 261.8 263.7 263.3 264 265.2 266.1 264.4 262.4 261.9 263.2 260.8 259.3 257.5 256 254.8 252.9 252.5 254.7 255.2 255.6 255.9 255.5 254.6 251.8 246.9 243.6 241.8 242.9 245.8 243 239.3 244.9 243.5 242.5 242.4 240.7 237.6 236.4 233.2 231.2 230.8 230.1 230.7 231.8 233.3 233.1 232 229 227.9 229.8 231.5 233.7 235.5 229.6 224.5 223.1 218.2 210 197.5 182.2 167.7 158.2 152.4 148.6 146.2 143.7 139.9 135.2 128.8 121.6 115.8 108.6 105.1 105.1 105.1 105.1 105.1 105.1 105.1 105.1 105.1 105.1 105.1 105.1 105.1 105.1 105.1 105.1 105.1 105.1 105.1 105.1 105.1 105.1 105.1 105.1 105.1 105.1 105.1 105.1 105.1 105.1 105.1 105.1 105.1 105.1 105.1 105.1 105.1 105.1 105.1 105.1 105.1 105.1 105.1 105.1 105.1 105.1 105.1 105.1 105.1 105.4 112 117.8 117.9 133.8 141.1 154 165.6 177.9 189.9 200.3 208.1 217.9 228.8 241 253.7 264.9 277.2 291.9 304.9 316.1 328 339.7 348.6 360.4 374 392.8 409.7 421.4 432.8 447.9 463.8 477.5 489.8 503.4 514.7 524.4 532.7 546.1 559.5 570.1
448 442.8 436.6 429.6 424.6 421.1 414 408.3 405.9 399.8 392.6 385.3 378.3 369.8 364.5 355.8 350.7 348.1 344.2 337 326.4 321 325.7 313.6 305.9 294.7 285.1 280.2 278.1 273.2 263.6 267.3 262.8 262.6 263 258.4 256.1 252.8 258.2 257.3 258.4 260.6 259.8 261.1 259.7 260 262.8 259.9 255.4 253.4 251.5 251 250.6 250.6 251.4 253.6 255.1 255.2 255.2 253.9 250.3 243.3 240.4 237.8 239.7 240.6 239.4 235 236.5 239.9 240.2 238.2 236.1 236.8 234.7 230.9 227.4 224.4 225.4 224.9 227.9 227.4 224.5 222.7 222.2 221.9 222.4 222.9 222.3 222.7 223.9 219.1 210.4 207 202 193.5 178.2 164.1 153.2 148 143.6 141 138.2 134.4 129.2 123.7 117.6 110.5 105.1 105.1 105.1 105.1 105.1 105.1 105.1 105.1 105.1 105.1 105.1 105.1 105.1 105.1 105.1 105.1 105.1 105.1 105.1 105.1 105.1 105.1 105.1 105.1 105.1 105.1 105.1 105.1 105.1 105.1 105.1 105.1 105.1 105.1 105.1 105.1 105.1 105.1 105.1 105.1 105.1 105.1 105.1 105.1 105.1 105.1 105.1 105.1 105.1 105.1 105.1 107.8 115.7 126.4 136.8 138.7 140.3 153.2 168.8 182 192.4 202.7 212.4 222.9 234.1 247 258.9 269.4 281.6 295 306.7 318.9 332.8 342.1 353.7 366.3 381 399.2 416 426.9 438.9 454.3 469.2 481.2 493 505.1 520.5 532.8 540.3 549.5 564.4 573.6
444.6 438.6 434.4 429.6 424.6 418.8 412.4 405.6 401.1 398.6 391 385.8 379 369.5 359.9 353.5 352.3 345.3 340.9 335.1 333.3 321.8 308.8 305.2 299.5 297.4 285.9 276 267 265.4 258.3 264.8 259.7 253.5 254.9 253.7 243.5 249 252.4 253.9 253.6 253.2 252.7 255.8 260 257.1 255 251.3 251.4 248 246 245.7 247.6 250.5 252 253.8 257.9 255.4 249.4 246.5 241.4 237.2 233.6 230.8 232.6 232.2 232.4 232.7 236.6 235.3 235.2 231.9 231.5 230.4 229 226.9 221.5 218.9 220.6 220.2 218.8 216.4 215.1 213.7 214.4 214.9 213.8 212.3 211 209.7 206.8 201.6 195.9 191 184.4 174.6 161.6 149.4 139.1 136.7 135 132.1 128.4 122.7 117.6 111.9 105.1 105.1 105.1 105.1 105.1 105.1 105.1 105.1 105.1 105.1 105.1 105.1 105.1 105.1 105.1 105.1 105.1 105.1 105.1 105.1 105.1 105.1 105.1 105.1 105.1 105.1 105.1 105.1 105.1 105.1 105.1 105.1 105.1 105.1 105.1 105.1 105.1 105.1 105.1 105.1 105.1 105.1 105.1 105.1 105.1 105.1 105.1 105.1 105.1 105.1 105.1 105.1 106.3 114.6 127 135.8 142.7 147.8 151.4 157 166.7 184.8 196.4 205 216.9 227.8 240 252.6 263 273.1 284.7 298.3 309.7 321.9 334.5 344.3 356.2 369.8 385.4 402.7 419.2 430.5 443.4 458.8 472.5 484.4 495.8 510.2 525.6 537.3 547.1 553.9 565.1 576
442.9 439 433.1 427.1 422.6 417.1 412.1 407.2 403.1 396.3 388.7 384.3 376.8 367.8 358.8 351.4 348.4 347.1 347.5 341.2 331.2 322.9 315 307.1 298.1 290.5 280.3 270.2 262 260.7 254.5 258.7 253.2 251 244.8 248.5 246.1 242.5 247.4 248.3 246.8 245.5 249.6 250.7 250.5 250 247.2 243.8 244.9 243.9 242.3 243.1 244.7 245.6 246.8 248.9 248.4 244 241.2 238.6 234.2 229.9 227.7 225.4 225.6 227.2 228.1 231.8 230.5 229.4 228.9 227.5 228.2 227.4 224.9 215.9 213.6 213.3 213.1 210.2 208.7 206.6 205.7 204.7 206.8 204.6 203.3 201.1 198.7 196.2 191.6 186.4 180.8 174.8 166.6 156.2 144.7 134.7 128.8 126.7 124.9 120.3 115.8 109.7 105.1 105.1 105.1 105.1 105.1 105.1 105.1 105.1 105.1 105.1 105.1 105.1 105.1 105.1 105.1 105.1 105.1 105.1 105.1 105.1 105.1 105.1 105.1 105.1 105.1 105.1 105.1 105.1 105.1 105.1 105.1 105.1 105.1 105.1 105.1 105.1 105.1 105.1 105.1 105.1 105.1 105.1 105.1 105.1 105.1 105.1 105.1 105.1 105.1 105.1 105.1 105.1 105.1 105.2 112.8 127 138.6 145.8 153.7 159.2 163.8 172.4 178.2 184.4 201.3 211 221.7 233.3 244.9 255.9 266 276.3 287.2 300.8 313 324.5 336.5 347.9 358.1 372.6 387.5 402 418.2 430.8 443.8 459.1 471.5 486 498.9 513.7 529.1 540.4 546.5 555.2 566.9 578.3
441.9 435.7 430.4 425.4 421.2 417.3 411.3 406.2 400.8 396.4 393.5 385 377.5 368.5 360.8 356.4 356.1 352.8 349.9 341.6 335 325.3 315.1 304.7 295.5 287.6 276.4 266.1 258.8 250.4 254.4 249.8 242.3 239 238.3 238.4 241.1 239.1 238.8 239.5 240.3 240.7 242.7 243.4 243.4 245.3 242.5 238.9 237.8 239.2 240.1 240.1 240.8 239.7 239.3 239.2 238.1 234.4 234.2 230.7 226.7 222.3 221 219.6 219.3 224.7 224.8 226.1 223 217.3 216.4 218.5 220.8 216.1 208.4 205.1 204.8 204.3 203 201 199.7 199 197.8 195.9 196.3 194.5 192.7 189.6 185.8 181.5 176.3 170.1 163 155.4 146.3 136.3 127.4 122.3 118.9 115.8 111.9 107.6 105.1 105.1 105.1 105.1 105.1 105.1 105.1 105.1 105.1 105.1 105.1 105.1 105.1 105.1 105.1 105.1 105.1 105.1 105.1 105.1 105.1 105.1 105.1 105.1 105.1 105.1 105.1 105.1 105.1 105.1 105.1 105.1 105.1 105.1 105.1 105.1 105.1 105.1 105.1 105.1 105.1 105.1 105.1 105.1 105.1 105.1 105.1 105.1 105.1 105.1 105.1 105.1 105.1 105.1 105.1 111.7 124.4 138.7 148 154.3 163.1 169 172.7 180.5 188.5 197.6 205.1 214.8 225.7 237.4 248.6 259.5 268.9 279.3 290.5 303.1 314.8 326.2 338.7 348.7 358.5 370.7 385.1 398.7 413.3 427.4 443 456.2 471.8 488.1 499.3 514.2 530.8 541.4 548.4 556.5 566.6 579
438.5 433.4 429.3 426.5 423.2 419.7 412.7 407.3 402.7 398.3 393.7 386.1 378.6 372.3 366.1 366 361 356.2 352.6 347.5 336.6 328.8 315.7 306.4 294.6 282.5 271.8 262 253.2 243.1 231.8 241.9 237.3 236.3 233.1 234.7 233.3 237.1 234.6 234.6 232.8 233.5 233.5 235.4 237.5 237.5 235.7 236.4 235.4 235.4 236.1 236.2 236.6 235.1 233 231 229.1 228.1 227.3 225.6 221.6 218.1 215 214.2 213.1 217.2 211.8 210 205.8 206.3 205.6 206.4 206.3 204.1 200.7 195.7 196.2 193.9 192.5 191.6 191 191 189.6 188.2 185.5 183.4 180.8 176.6 171.1 164.5 156.6 150.1 142.8 135.3 127.1 121.1 116.7 113.3 109 105.1 105.1 105.1 105.1 105.1 105.1 105.1 105.1 105.1 105.1 105.1 105.1 105.1 105.1 105.1 105.1 105.1 105.1 105.1 105.1 105.1 105.1 105.1 105.1 105.1 105.1 105.1 105.1 105.1 105.1 105.1 105.1 105.1 105.1 105.1 105.1 105.1 105.1 105.1 105.1 105.1 105.1 105.1 105.1 105.1 105.1 105.1 105.1 105.1 105.1 105.1 105.1 105.1 105.1 105.1 105.1 105.1 110.9 123.2 133.9 146.8 155.1 161.5 169.8 176.7 178.6 186.8 195.9 205.3 214.1 220.8 224.8 239.4 250.9 261.8 271 281.3 292.5 304.3 316 327.1 339.2 349.6 360.3 369.9 382.8 394.5 408.6 423.6 443.7 455.5 469 486.7 499.3 510.2 523.6 535.4 546.2 556.2 565.6 577.9
437 431.7 428.5 426.8 422.6 418.3 413.6 409 403.7 399.5 393.6 386.4 378.5 376.3 373.8 366.5 360.8 356.8 355 347.3 336.2 323.9 309.1 299.8 289.3 276.6 263 255.3 246.4 241.8 229.5 230.3 233.4 236.2 230.9 232.2 225.5 230.4 229.4 226.7 224.2 226.8 228.8 230.2 231.2 230.9 230.9 231.1 231.2 232.3 231.1 230.8 230.5 228.5 226.8 225.9 223.1 223.2 223.2 222.3 217.9 214.1 209.6 206.6 206.2 204.1 202 200.2 200.2 197.7 197.7 198.8 199.4 198.4 193 185.1 184.5 183.5 183.7 184.5 184 183.8 182.3 179.6 175.4 171.7 167.6 161.9 153.9 145.7 137 130.4 124.9 118.1 112.8 107.8 105.1 105.1 105.1 105.1 105.1 105.1 105.1 105.1 105.1 105.1 105.1 105.1 105.1 105.1 105.1 105.1 105.1 105.1 105.1 105.1 105.1 105.1 105.1 105.1 105.1 105.1 105.1 105.1 105.1 105.1 105.1 105.1 105.1 105.1 105.1 105.1 105.1 105.1 105.1 105.1 105.1 105.1 105.1 105.1 105.1 105.1 105.1 105.1 105.1 105.1 105.1 105.1 105.1 105.1 105.1 105.1 105.1 105.1 105.1 108.4 121.6 134.6 145.3 153 160.4 169.2 177.4 181.5 186.3 193.7 202.2 212.8 221.6 229.4 233.7 236.7 240.3 257.9 270.6 280.6 290 302.5 315.3 327.3 339 349.9 359.6 367.8 378.7 390.9 404 420.4 435.5 451.7 462.6 478.3 494.5 505.1 516.5 527.5 540.2 550 561.3 573.1
435.6 430.5 427.3 426.1 423.2 418.6 413.9 409.5 407.3 402.9 396.9 387.8 385.6 384.6 379.8 367.8 360.8 354.3 351.2 346.4 331.5 319.2 301.5 291.1 279.6 266.5 257.6 248.9 242.8 234.9 232 222 230.5 230.2 226.9 227.4 226.5 221.3 224 218.1 218.3 223.2 223.7 224.6 225.9 226.7 227.3 226.5 226.7 226.9 222.4 222.7 221.4 219.2 217.6 216.8 217.5 219.1 217.4 215 212.7 209.6 202.4 203 204.9 196.6 194.7 191.1 191.1 189.7 188 188.6 190.3 188.8 182.6 177.6 176.6 177.6 178.6 179.3 178 175.7 172.5 167.5 163.6 158.2 151.8 144.2 135.7 128 121.1 115.6 107.9 105.1 105.1 105.1 105.1 105.1 105.1 105.1 105.1 105.1 105.1 105.1 105.1 105.1 105.1 105.1 105.1 105.1 105.1 105.1 105.1 105.1 105.1 105.1 105.1 105.1 105.1 105.1 105.1 105.1 105.1 105.1 105.1 105.1 105.1 105.1 105.1 105.1 105.1 105.1 105.1 105.1 105.1 105.1 105.1 105.1 105.1 105.1 105.1 105.1 105.1 105.1 105.1 105.1 105.1 105.1 105.1 105.1 105.1 105.1 105.1 105.1 106.4 118.1 132.4 143 154.5 163 167.4 173.5 181.6 185.7 192.7 201.1 211.5 219.3 228.5 235.1 242.4 250.7 256.1 257.2 261.7 272.1 279.6 289.2 310 322.5 335 347.4 357 365.4 375.7 385.9 397.3 412.1 427.4 441.8 453.8 467.3 482.4 496.6 507.9 518.8 530.1 541.6 552.7 564.1
433.9 426.5 428.1 425 423.2 420.7 418 414.5 408.9 403.9 397.3 389.5 393.9 386.3 379.7 367.7 355.7 350.5 343.7 332.9 320.6 307.3 293.6 279.2 268.1 259.5 252.9 243.4 236.9 229.3 222.5 229.3 227.8 225.1 218.5 221 218.2 207 215.7 210.2 208.7 215.8 217.6 219.7 221.1 221.2 223.4 221.1 219.6 219.7 218.2 213.9 212.6 210.7 208.6 209.2 212.6 212.3 206.9 205.5 204.3 199 195.2 197.8 194.9 186.1 183.2 184.9 180.3 180 178.9 178.8 180.6 179.3 173.4 170.9 172.6 172.6 172.1 170.4 168.2 165.4 161.1 154.6 148 141.9 135.2 128.4 121 113.6 105.1 105.1 105.1 105.1 105.1 105.1 105.1 105.1 105.1 105.1 105.1 105.1 105.1 105.1 105.1 105.1 105.1 105.1 105.1 105.1 105.1 105.1 105.1 105.1 105.1 105.1 105.1 105.1 105.1 105.1 105.1 105.1 105.1 105.1 105.1 105.1 105.1 105.1 105.1 105.1 105.1 105.1 105.1 105.1 105.1 105.1 105.1 105.1 105.1 105.1 105.1 105.1 105.1 105.1 105.1 105.1 105.1 105.1 105.1 105.1 105.1 105.1 105.1 105.1 114.9 129.2 141.1 152.9 161.2 169.9 174.2 179.3 185.6 192.4 200.2 208.8 218 228.3 234.7 244.2 250.6 261.1 269.2 276.6 281.3 287.6 296.9 307.4 313.2 316.9 327.6 341.6 353 362.7 371.1 380.1 391.1 406.1 420.3 433.6 445.5 458.7 474 487 499.3 509.4 520.4 531.5 541.3 553.4
422.3 424.5 426.7 425.4 423.4 423 422.4 415.4 407.5 405 396.8 391.3 387.8 386.4 377 362 348.7 338.8 331.7 320.9 305.8 296.8 275.9 266.1 260.3 251.1 243.5 235.6 227.2 222 215.8 224.7 222.1 219.3 210.1 213.6 212.4 205.6 206.3 202.3 204.3 210 212.5 214 216.7 215.3 214.6 212.8 211.8 210.9 207.8 206.5 205.6 202.7 200 200.4 203.6 200.9 196.7 195.3 193.9 190.3 190.4 188 183.8 179 176.3 175.7 175.9 177.8 175.3 172.8 173 169.9 164.5 167 167.5 165.8 161.6 158.8 156.8 153.8 147.1 139.8 133.1 127.4 121.3 114.8 108.3 105.1 105.1 105.1 105.1 105.1 105.1 105.1 105.1 105.1 105.1 105.1 105.1 105.1 105.1 105.1 105.1 105.1 105.1 105.1 105.1 105.1 105.1 105.1 105.1 105.1 105.1 105.1 105.1 105.1 105.1 105.1 105.1 105.1 105.1 105.1 105.1 105.1 105.1 105.1 105.1 105.1 105.1 105.1 105.1 105.1 105.1 105.1 105.1 105.1 105.1 105.1 105.1 105.1 105.1 105.1 105.1 105.1 105.1 105.1 105.1 105.1 105.1 105.1 105.1 111.2 122.5 136.8 150 160.7 168.7 176.1 180.5 184.9 191.3 200 207.1 215.6 225 234.8 243.5 252.4 263 272.5 281.5 290.7 297 302.1 311.2 318.5 324.2 328.7 328.8 331.5 345.9 358.4 367.6 376.6 386 400.5 415.6 428.9 441 452.3 464.7 477.5 489.2 500.4 510.9 522.6 533.6 545.8
415 419.6 423 423.5 418.8 415.5 411.3 405 399.6 393.5 383.2 388.5 385.7 378 368 353.8 334.8 322.2 311.4 300.6 283.5 273.9 265.3 257 252.2 245.5 234.7 226.3 220.4 214 218 217.7 214.1 211.8 201.2 204.8 204.1 199.8 189 193.9 198.6 204.3 207.3 208.8 208.9 210.2 206.8 204.8 202.7 202 201.5 198.5 196.9 195.3 194.4 192.9 193.3 191.8 189 184.7 182.6 182.7 183.9 182.4 177.6 172.9 169.9 171.2 172.7 173.6 169.6 164.3 161.3 158.4 157.2 157.7 157.6 155 151.8 148.3 145.2 140.6 134.9 126.5 119.4 114.1 109 105.1 105.1 105.1 105.1 105.1 105.1 105.1 105.1 105.1 105.1 105.1 105.1 105.1 105.1 105.1 105.1 105.1 105.1 105.1 105.1 105.1 105.1 105.1 105.1 105.1 105.1 105.1 105.1 105.1 105.1 105.1 105.1 105.1 105.1 105.1 105.1 105.1 105.1 105.1 105.1 105.1 105.1 105.1 105.1 105.1 105.1 105.1 105.1 105.1 105.1 105.1 105.1 105.1 105.1 105.1 105.1 105.1 105.1 105.1 105.1 105.1 105.1 105.1 105.1 105.1 107.9 118 130.9 143.9 157.2 167.3 174.5 179.7 185.5 191 197.4 205.3 211.9 222.6 232.4 242.4 252.7 263.2 274.5 283.2 293.7 302 308.8 314.1 321.6 327.9 333.8 335.6 336.3 340.4 341.1 348.3 364.1 373.7 384.6 395.9 410.8 424.1 436.4 447.7 457.8 468.9 478.7 489.2 501 515.2 525.5 537.7
407.8 413.8 414.5 413.6 411.5 407.6 403.6 396.4 388.7 377.5 380.9 376.6 373.1 369.5 357.3 339.8 313.7 300.7 286.2 277.5 269.5 262.5 257.4 250.7 244.2 232.9 226.4 218 214.8 205.5 208.7 206.2 200 195.5 186.3 191.4 191.8 189.7 186.7 188.8 193.5 198 200.5 201 199.8 199.3 199.3 200.2 197.7 196.2 192.9 187.8 186.6 185.7 186.1 182.9 183.6 182.8 177.7 175.6 177.3 177.3 175.8 174.1 169.4 164.9 164.7 167.3 167.5 165.1 158.7 154.7 151.9 149.3 147 145.9 146.2 144.4 141.1 136.6 131 125.6 120.6 114.4 105.9 105.1 105.1 105.1 105.1 105.1 105.1 105.1 105.1 105.1 105.1 105.1 105.1 105.1 105.1 105.1 105.1 105.1 105.1 105.1 105.1 105.1 105.1 105.1 105.1 105.1 105.1 105.1 105.1 105.1 105.1 105.1 105.1 105.1 105.1 105.1 105.1 105.1 105.1 105.1 105.1 105.1 105.1 105.1 105.1 105.1 105.1 105.1 105.1 105.1 105.1 105.1 105.1 105.1 105.1 105.1 105.1 105.1 105.1 105.1 105.1 105.1 105.1 105.1 105.1 105.1 105.1 106.8 114.2 127.2 141.8 151.8 163.6 173.3 179.2 185.4 191.5 198.2 202.2 210.3 218.3 230.1 241.6 254.5 265.3 275.5 284.2 295.9 304.4 311.9 319.2 325.7 332.3 339 343.4 345.6 349.1 353.1 355.2 355.9 355.8 373 384.9 396.3 408 419.9 432.6 442.6 452.3 461.5 470.2 480.2 493.4 505.8 519.4 530
396.4 404.5 407.9 407 406.9 400.1 398.1 385.2 376.1 369.5 368.4 364 362.7 349.5 327.9 308.1 293.5 280.5 273.6 267.1 261.3 255.4 248.7 238.8 232.3 225.4 218.1 212.5 209.4 211.5 198.8 189.7 190.4 184.8 178.6 178.2 182.5 178.2 178.6 183.5 185.8 189.3 190.1 191.5 190.1 190.1 189.5 188.1 185.8 184 181.3 177.5 177.2 177.3 175.5 173.7 173.9 171.2 170.8 170.1 170.5 170.2 166 162.7 159.5 158.6 158.9 157.7 155.3 148.9 148.3 146.5 141.4 140 138.8 137.7 136.8 132.7 125.4 118.7 112.5 105.1 105.1 105.1 105.1 105.1 105.1 105.1 105.1 105.1 105.1 105.1 105.1 105.1 105.1 105.1 105.1 105.1 105.1 105.1 105.1 105.1 105.1 105.1 105.1 105.1 105.1 105.1 105.1 105.1 105.1 105.1 105.1 105.1 105.1 105.1 105.1 105.1 105.1 105.1 105.1 105.1 105.1 105.1 105.1 105.1 105.1 105.1 105.1 105.1 105.1 105.1 105.1 105.1 105.1 105.1 105.1 105.8 107.3 107.5 106.4 107.3 105.2 105.1 105.1 105.1 105.1 105.1 105.1 105.1 107.3 112.1 124.3 140.1 153.7 162.7 170.6 177.8 182.7 189.7 196.7 205.6 212.9 215.9 227.9 240.9 251.9 263 274.7 285.5 296.8 307.7 315.2 323.1 329.6 336.3 343.7 348.9 352.9 358 361.8 363.6 363.6 364.4 364.4 365.2 384.1 397.2 407.5 416.7 427.5 437.5 445.7 454.4 463.6 472.6 485.9 498.4 510.3 521.5
389.9 397.5 400.8 399.5 393.6 387.1 382.7 373.5 364 360.7 355.4 348.3 330.1 312.5 298.2 284.6 276.1 270.4 265.2 258.7 253.1 244.2 236.1 230.8 226.2 217 212.6 210.4 204.8 196.2 190.6 172.8 173.5 177.1 176.4 170.3 175.8 173 171.2 175.9 178.1 179.9 179.5 179.8 178.1 176.2 176.2 175.9 174 172.3 171.5 169.7 169.2 167.9 165.7 165.2 163.6 164.2 164.1 162.6 161.5 158.7 155.5 154.1 151.6 150 150.3 147.2 144.2 141.2 140.4 137.6 133.1 131.2 127.7 125.8 122.8 116 106.9 105.1 105.1 105.1 105.1 105.1 105.1 105.1 105.1 105.1 105.1 105.1 105.1 105.1 105.1 105.1 105.1 105.1 105.1 105.1 105.1 105.1 105.1 105.1 105.1 105.1 105.1 105.1 105.1 105.1 105.1 105.1 105.1 105.1 105.1 105.1 105.1 105.1 105.1 105.1 105.1 105.1 105.1 105.1 105.1 105.1 105.1 105.1 105.1 105.1 105.1 105.1 105.1 105.1 105.1 105.1 105.1 105.1 107.5 108.4 108.6 108.7 108.3 108.5 108.4 108.1 105.1 105.1 105.1 105.1 105.1 105.9 112 122.1 135 148.7 161.4 170.6 176.3 182.4 187.4 196.7 205.3 212.1 219.4 226.2 239.1 252.4 263.3 275.6 284.8 296.6 307.6 317.1 324.9 332.5 338.9 346.3 353.5 357.7 363.5 368.5 371.9 370.9 372 373.1 372.5 374 377.3 390.8 403.2 413 422.7 432.9 442.1 449.9 456.7 467.5 479.4 490.4 502.2 514.2
381.9 384.2 385.6 380.7 374.4 370.2 367.5 359.5 352.9 347.1 332.5 318.1 300.5 289.9 280.3 271.5 266.6 258.6 252.5 244.3 235.1 230.6 228.8 222 213.4 210.9 204.6 197.5 189.7 182.6 180.3 176.2 168.3 170.1 171.1 167.3 168.2 168.1 168.9 170.1 169.3 170.4 170.3 170.3 168.5 167.3 169.1 166.4 164 163 162.6 162.4 159.8 157.4 158.3 158.2 156.5 156.1 155.1 152.2 150.7 149.3 147.9 149.4 146.5 142.2 143.1 143.7 139.9 135.9 134.5 132 127.4 122.5 117.6 113.1 106.7 105.1 105.1 105.1 105.1 105.1 105.1 105.1 105.1 105.1 105.1 105.1 105.1 105.1 105.1 105.1 105.1 105.1 105.1 105.1 105.1 105.1 105.1 105.1 105.1 105.1 105.1 105.1 105.1 105.1 105.1 105.1 105.1 105.1 105.1 105.1 105.1 105.1 105.1 105.1 105.1 105.1 105.1 105.1 105.1 105.1 105.1 105.1 105.1 105.1 105.1 105.1 105.1 105.1 105.1 105.1 105.1 105.2 106.1 108.1 108.1 108.8 109.1 109.2 108.9 108.6 108.7 108.5 108.8 107.6 106.3 105.3 107.8 112.2 120.6 131.8 144.6 156.8 167.8 175.5 180.8 187.2 194.1 204.7 215.2 219.4 226.6 237.5 249.7 261.5 273.4 284.8 295.9 306.2 316.7 325.8 335.1 342 349.9 356.2 363.3 369.5 374.6 377.8 378.2 377.8 378.5 380.2 381.3 383.8 385.4 394.9 402.1 411.4 419.9 428.6 436.9 445.3 454.2 464.3 475.2 484.5 495.2 507.4
369.6 368.6 365 361.5 359.3 352.7 343.9 336.2 327.1 319.6 302.4 290.5 281.9 275.4 268.6 264.1 252 244.5 239.7 232.5 226.9 224.6 218.7 210.7 204.3 195.2 189.5 181.2 177.8 176.2 173.7 170 159.3 165.8 165.7 163.9 161.5 162.2 163.6 163.8 160.1 161.1 162.1 162.3 161.5 161.6 159.9 157.7 156.6 156.2 155.6 154.6 152.3 148.5 149.2 149 147.4 146.3 145.5 146.3 146.1 144.3 143.5 143.9 141 136.4 137.2 137.5 133.1 129.9 128.9 127.1 120.8 111.6 105.7 105.1 105.1 105.1 105.1 105.1 105.1 105.1 105.1 105.1 105.1 105.1 105.1 105.1 105.1 105.1 105.1 105.1 105.1 105.1 105.1 105.1 105.1 105.1 105.1 105.1 105.1 105.1 105.1 105.1 105.1 105.1 105.1 105.1 105.1 105.1 105.1 105.1 105.1 105.1 105.1 105.1 105.1 105.1 105.1 105.1 105.1 105.1 105.1 105.1 105.1 105.1 105.1 105.1 105.1 105.1 105.1 105.1 105.1 109 107.9 108.4 108.9 109.4 109.8 110.1 110.1 109.7 109 108.5 108.6 108.6 109 109.4 112.3 119.1 128.4 140.7 154.2 164.4 172.3 179.2 185.1 191.9 201.3 212.7 220 227.5 237 247.2 259.1 271.4 283.6 294.3 304.9 316.7 326.4 335.4 343.7 351.6 359.4 365.4 372.6 378.9 383.7 385.8 384 385 386 387.8 390 391.2 398.9 403 406.8 411.3 419.1 425.9 434.7 444 453.8 463.2 472.7 482.4 492.6 503.9
350.7 347.4 342.9 338.6 335.8 329 315.2 305.5 296.1 288.4 282 277.4 270.1 260.4 254 249.4 239.6 231.6 228.3 224.2 219.3 212.9 206.7 199.3 189.3 178.9 176.3 173.3 171.4 170.3 167.6 164.7 156.7 160.1 160.3 159.7 155.1 154.7 155.1 155.1 153.1 153.8 153.8 154 154.5 153.4 151.7 151.8 151.2 150.8 147.3 145.8 144.9 141.3 139.5 138.7 137.5 137 138.8 141 143.2 139.5 134.9 133.8 131.6 129.5 129.6 129.8 125.3 119 116.2 112.5 105.1 105.1 105.1 105.1 105.1 105.1 105.1 105.1 105.1 105.1 105.1 105.1 105.1 105.1 105.1 105.1 105.1 105.1 105.1 105.1 105.1 105.1 105.1 105.1 105.1 105.1 105.1 105.1 105.1 105.1 105.1 105.1 105.1 105.1 105.1 105.1 105.1 105.1 105.1 105.1 105.1 105.1 105.1 105.1 105.1 105.1 105.1 105.1 105.1 105.1 105.1 105.1 105.1 105.1 105.1 105.1 105.1 105.1 105.1 105.1 106.3 109 108.5 108.5 109.4 110.2 110.7 110.9 110.8 110.5 109.8 109.4 109.2 109.5 110.7 111.5 117.1 123.3 134.2 148.8 161.4 171 178.3 184.3 189.7 196.8 206.3 218.8 227.1 236 245.1 257.5 269.4 282.2 293.7 304.3 314.7 326.1 335.2 344.1 353.2 361.4 369.5 375.5 381.2 387.6 391.1 390.6 389.2 390.6 392.5 395.8 397.6 399.5 404.8 408.3 414.2 417.6 422.9 430.4 438.7 443.7 452.7 464.5 473.2 482 491.6 501
332.5 327.5 324.4 320 313.3 303.7 294.1 286.8 281.6 275.3 270.1 265.8 254.9 248.8 242.6 236.7 225 221.5 222.8 216.2 207.7 201.1 194.1 186.7 177.7 169.4 168.4 168 166.8 164.4 162.1 159.3 153.5 154.8 155.8 155.3 145.1 146.7 143.4 144.5 145.2 146.9 145.8 145.6 145.6 144.4 144.3 144.3 142.2 140.6 138.6 135.6 132.5 131 130 128.9 128.2 128.3 128.7 131.4 132.6 128.9 124.1 122.3 120.7 118.9 118.9 117.5 114.3 110.1 105.1 105.1 105.1 105.1 105.1 105.1 105.1 105.1 105.1 105.1 105.1 105.1 105.1 105.1 105.1 105.1 105.1 105.1 105.1 105.1 105.1 105.1 105.1 105.1 105.1 105.1 105.1 105.1 105.1 105.1 105.1 105.1 105.1 105.1 105.1 105.1 105.1 105.1 105.1 105.1 105.1 105.1 105.1 105.1 105.1 105.1 105.1 105.1 105.1 105.1 105.1 105.1 105.1 105.1 105.1 105.1 106.7 105.3 105.1 105.1 105.1 105.1 108.5 110.9 111.4 109 110.4 111.3 111.8 112.2 111.8 111.1 110.6 110.7 110.5 111.1 113.5 116.5 121.9 131.4 142.5 154.9 167.4 175.9 182.6 189.5 194.4 204 214.9 223.7 236.5 245.5 255 264.9 278.2 291.1 303.8 313.3 323.6 334.7 343.7 353.2 362.7 371.2 378.1 384.6 390.5 394.9 396.9 396.9 396.7 398.5 400.9 405.3 408.2 408.3 412.5 417 415.8 421.8 426.1 433.3 444.8 452.8 454.7 466.2 475.3 481.2 491.9 500.7
309.9 308.4 308.9 305.6 295.3 285.8 279.2 273.5 266.1 260.9 257.3 248.9 241.5 237.2 232.7 225.3 216.4 211.7 210.4 202.2 196.3 191 183.6 175.5 166.8 164.4 164.3 163.1 160.9 158.5 157.4 156.3 152.2 151.2 152.6 153.1 149.8 136.8 133.3 134.9 136.3 138 137.1 137 137.6 137 136.2 134.6 132 129.7 126.8 124.3 122.7 121.5 120.3 118.9 118.4 117.6 117.1 117.7 118.4 115 113 110.2 109.4 107.8 105.9 105.1 105.1 105.1 105.1 105.1 105.1 105.1 105.1 105.1 105.1 105.1 105.1 105.1 105.1 105.1 105.1 105.1 105.1 105.1 105.1 105.1 105.1 105.1 105.1 105.1 105.1 105.1 105.1 105.1 105.1 105.1 105.1 105.1 105.1 105.1 105.1 105.1 105.1 105.1 105.1 105.1 105.1 105.1 105.1 105.1 105.1 105.1 105.1 105.1 105.1 105.1 105.1 105.1 105.1 105.1 105.1 106 112.9 114.9 114 112.7 105.5 105.1 105.1 108.1 111.4 112.8 113.5 111.7 111.4 112.6 113.4 113.3 112.8 113.3 112.3 112.7 113 115.2 118.1 120.5 127.6 138.3 149.9 161.7 171.8 178.6 186.5 195.3 201.8 212.2 223.4 232.8 242.2 253.9 264.8 275 286.3 298.7 311.4 322.7 332.2 342.9 352.7 363.5 373.1 380.8 386.6 393.1 398.7 401.2 403.2 404.7 408.7 407.2 410.1 413.5 420.5 422.4 424.2 423.7 424 425.1 431.8 438.7 448.1 457.3 463.2 470.4 475.2 486.3 494.7 499.5
296 294.7 294.6 283.2 278.4 270.9 263.8 258.1 254.6 245.3 240.4 234.8 231.6 226.8 220.6 211.1 205.9 201 196.2 192.3 188.8 180.8 173.9 166.3 161.6 162.7 161.6 159.6 156.5 153 153.1 150.3 143.2 147.5 145.2 143.6 141.7 136.7 121.6 127.4 130 129.9 129.3 129.7 129.8 129.2 125.5 122.6 120.8 119.1 116.7 115.1 113.8 111.1 109.3 108.2 106.3 105.1 105.3 105.1 105.1 105.1 105.1 105.1 105.1 105.1 105.1 105.1 105.1 105.1 105.1 105.1 105.1 105.1 105.1 105.1 105.1 105.1 105.1 105.1 105.1 105.1 105.1 105.1 105.1 105.1 105.1 105.1 105.1 105.1 105.1 105.1 105.1 105.1 105.1 105.1 105.1 105.1 105.1 105.1 105.1 105.1 105.1 105.1 105.1 105.1 105.1 105.1 105.1 105.1 105.1 105.1 105.1 105.1 105.1 105.1 105.1 105.1 105.1 105.1 105.1 105.1 110.5 117.3 121.6 122.6 119.5 115.2 112.5 109.9 109.1 112.2 113 114 114.5 115.2 111.7 114.3 114.9 114.5 114.6 115.2 114.5 115.1 117.2 122.3 123.8 124.4 133 145 156.8 167.3 175.7 182.5 190.9 200.8 210.5 219.3 231.5 241.5 251.9 263.9 274.8 285.1 295.3 306.3 319.3 331.2 341.1 350.3 362.4 373.2 383.8 390.8 394.6 400.3 404 407.5 410.2 413 415.7 417.3 422.2 427.5 432.1 433.2 431.9 428.8 430.3 433 433.7 443.8 451.8 459 466.4 473.3 483.2 490.3 495.7 501.2
283.8 279.2 273.6 267.4 261.6 254.8 249 245 239 234.5 230.2 226.4 221.6 211.9 201.5 197.4 194.6 191.7 188.4 184.7 178.4 171.8 164.9 160.8 159.5 157 157.8 158.6 155.9 150.1 145.2 140.8 134.9 133.9 131.5 129.2 130 127.9 122.2 120.7 123.3 123.6 122.9 121.5 120 117.7 114.2 112.1 111.1 109 106.2 105.1 105.1 105.1 105.1 105.1 105.1 105.1 105.1 105.1 105.1 105.1 105.1 105.1 105.1 105.1 105.1 105.1 105.1 105.1 105.1 105.1 105.1 105.1 105.1 105.1 105.1 105.1 105.1 105.1 105.1 105.1 105.1 105.1 105.1 105.1 105.1 105.1 105.1 105.1 105.1 105.1 105.1 105.1 105.1 105.1 105.1 105.1 105.1 105.1 105.1 105.1 105.1 105.1 105.1 105.1 105.1 105.1 105.1 105.1 105.1 105.1 105.1 105.1 105.1 105.1 105.1 105.1 105.1 105.1 105.1 111 118.4 124.5 128.5 129.5 123.6 117.7 113.4 113.5 114 114.8 115.7 116.5 116.4 116.8 117.4 116.6 116.3 116.2 116.6 116 116 119.2 121.9 125.8 128 131.4 136.8 149.8 161.3 171.6 180.5 189.1 197.2 205.8 218.3 227.8 238.1 250.5 262.1 274.4 284.3 296 306.3 315.6 328.5 339 349.2 359.8 371.1 382.5 390.8 398.1 404 408 412 416.6 420.6 423 426 427.8 432.5 436 438.4 439.6 437.2 434.2 436.5 438.3 444 447.6 454.1 463.1 470.4 477.2 487.8 497.3 503 507.9
268.2 260.9 256.4 250.5 243.1 242.4 239 234.5 232.1 229.2 225 219.6 209.4 205.1 201.6 195.7 188.1 185.2 182.4 176 170.1 163.5 159.7 157.6 154.8 153.5 154.5 156.6 154.3 145.6 139.8 134 126.7 122.1 120.7 118.3 120.4 120.2 118.1 116.2 117.4 116.7 115.3 112.3 107.8 105.1 105.1 105.1 105.1 105.1 105.1 105.1 105.1 105.1 105.1 105.1 105.1 105.1 105.1 105.1 105.1 105.1 105.1 105.1 105.1 105.1 105.1 105.1 105.1 105.1 105.1 105.1 105.1 105.1 105.1 105.1 105.1 105.1 105.1 105.1 105.1 105.1 105.1 105.1 105.1 105.1 105.1 105.1 105.1 105.1 105.1 105.1 105.1 105.1 105.1 105.1 105.1 105.1 105.1 105.1 105.1 105.1 105.1 105.1 105.1 105.1 105.1 105.1 105.1 105.1 105.1 105.1 105.1 105.1 105.1 105.1 105.1 105.1 105.1 107.5 114.6 120.4 127.2 132.7 133.9 131.2 126.4 120.4 115.5 115.1 115.8 116.4 117.5 119.3 119.3 119.6 119.6 116.9 119 119.3 121.2 118.6 121.8 125.3 128 130.1 132.6 138.3 146 157 170.1 178 188.4 196.2 206.7 216.9 226.9 236.2 248.3 259.1 271.4 283.1 294.7 304 315.3 325.7 336.8 346.8 358.1 369.1 380.9 390.2 399.7 405.4 409.9 414.6 419.9 424.7 429.8 433.6 435.9 437 440.6 443 444.6 444.1 443.7 441.3 443.5 445.9 450.7 454.6 456.9 466 472.6 482.4 493.2 501 507.5 512.7
248.8 242.7 241.8 239 237.6 234 232 227.8 225.3 221.5 216.5 214 210.7 206.9 204.9 191.7 183.6 179 174.3 169.2 165.6 161.4 159.2 157.5 154 151.4 150.6 149.2 141.8 135.3 129.1 122.7 117.9 116.2 110.7 110.6 111.1 113.3 113.7 113.7 114.4 112.9 107.7 105.1 105.1 105.1 105.1 105.1 105.1 105.1 105.1 105.1 105.1 105.1 105.1 105.1 105.1 105.1 105.1 105.1 105.1 105.1 105.1 105.1 105.1 105.1 105.1 105.1 105.1 105.1 105.1 105.1 105.1 105.1 105.1 105.1 105.1 105.1 105.1 105.1 105.1 105.1 105.1 105.1 105.1 105.1 105.1 105.1 105.1 105.1 105.1 105.1 105.1 105.1 105.1 105.1 105.1 105.1 105.1 105.1 105.1 105.1 105.1 105.1 105.1 105.1 105.1 105.1 105.1 105.1 105.1 105.1 105.1 105.1 105.1 105.1 108.8 114 119 123.6 127.7 131.9 137 140.2 136.8 131.2 125.1 119.5 117.9 117.3 117.5 118.6 120.1 120.6 120.7 121.5 121.5 121.5 125.2 122.8 123.9 124.1 127.1 130.1 135.2 135.2 137.6 145.5 155.3 163.9 176.1 188.6 196.4 206.2 216.7 226.4 236.2 245.8 257.4 267.9 279.6 292.5 303.3 314.6 325.7 334.3 344.7 355.5 366.3 377.2 388.2 397.9 405.9 412.5 416.4 422.3 428.1 432.6 438.4 442.2 444.4 446.5 448.5 449.7 450.7 450.5 450.1 448.8 449.8 452.6 457.5 463.4 466.8 467.6 479.1 487 496.4 503.8 510.3 516.7
242.5 235.9 236.1 238.5 237.2 233.7 229.4 225.8 224.1 215.4 213.1 210.6 207.4 204.1 194.5 183.4 177.1 172.5 168.1 166 164 161.5 159.8 157.8 154 150.1 146.3 142.7 136.6 129.8 121.2 114.6 113.4 113 110.5 109 108.8 108.4 109.5 109.6 109 107.3 105.1 105.1 105.1 105.1 105.1 105.1 105.1 105.1 105.1 105.1 105.1 105.1 105.1 105.1 105.1 105.1 105.1 105.1 105.1 105.1 105.1 105.1 105.1 105.1 105.1 105.1 105.1 105.1 105.1 105.1 105.1 105.1 105.1 105.1 105.1 105.1 105.1 105.1 105.1 105.1 105.1 105.1 105.1 105.1 105.1 105.1 105.1 105.1 105.1 105.1 105.1 105.1 105.1 105.1 105.1 105.1 105.1 105.1 105.1 105.1 105.1 105.1 105.1 105.1 105.1 105.1 105.1 105.1 105.1 105.1 105.1 105.1 114.4 119.3 124.8 130 134 138.1 141.1 142.1 143.2 143.1 138.9 132.9 124.7 119.7 119.1 119.4 120.6 122.5 124.6 123.8 123.8 123.4 123.2 124.5 126.9 125.7 128.8 131.9 132.8 134.8 139.9 140.8 144 150.7 161.9 174.6 186.6 196.9 205.7 214.4 226 235.9 244.5 255.9 264.6 276.5 289.6 300.9 312.1 323 334.3 342.9 353.6 364.2 374.5 384.9 395.3 405.5 412.8 418.2 424.3 431 436.5 442 446 449.8 452 455.6 455.9 457.4 457.3 456.6 457.4 457.5 458.1 462 466.1 470.5 476.9 480.9 476.8 490.2 499.5 507.1 513.5 520.3
233.5 235.7 233.8 235.5 235.2 232 229.6 222.2 214.4 210.6 207 204.6 198.5 193 186.9 179.5 171.8 167.9 164.8 163 161.6 161 161.3 160 156.2 151.2 146.7 142.1 135.9 129.3 122.8 116 110.3 109.2 108.1 107.3 107.5 108.1 108.4 108.1 105.6 105.1 105.1 105.1 105.1 105.1 105.1 105.1 105.1 105.1 105.1 105.1 105.1 105.1 105.1 105.1 105.1 105.1 105.1 105.1 105.1 105.1 105.1 105.1 105.1 105.1 105.1 105.1 105.1 105.1 105.1 105.1 105.1 105.1 105.1 105.1 105.1 105.1 105.1 105.1 105.1 105.1 105.1 105.1 105.1 105.1 105.1 105.1 105.1 105.1 105.1 105.1 105.1 105.1 105.1 105.1 105.1 105.1 105.1 105.1 105.1 105.1 105.1 105.1 105.1 105.1 105.1 105.1 105.1 105.1 105.1 105.1 112.1 120.1 127.9 134.6 140.1 144.8 149.5 152.8 152.5 150.5 147 144 139.2 134.1 126.5 121.6 122.7 123.4 126.1 128.4 129.7 128.6 127.6 126.9 126.1 127.1 128.2 130.5 133.6 137.4 140 143 146.3 147.2 150.4 157.3 171.8 185.5 195.2 206.7 216.6 225.5 234.3 243.1 253.8 264.7 274.9 286.9 298.2 308.9 320.2 330.8 341.6 351.1 361.2 372 382.3 392.5 402.5 411.9 419.3 424.9 432.2 439.5 445.3 451.9 455 459.4 460.9 463.7 464.8 463.9 464.5 464.3 464.7 466.4 467.7 470.7 474.1 478.8 484 488.7 491.6 486.9 501.5 510.4 517.4 523.8
227.2 223.1 223.8 223.4 226.1 230.1 218.1 211.1 207.7 202.5 199.3 195.4 193 191.6 179.4 173.4 168.4 165.6 163.5 164.9 164.9 164.9 163.8 163 157.7 151 145.3 140.9 133.5 127 120.3 113.8 107.1 106 105.1 105.1 105.1 105.3 107.1 105.1 105.1 105.1 105.1 105.1 105.1 105.1 105.1 105.1 105.1 105.1 105.1 105.1 105.1 105.1 105.1 105.1 105.1 105.1 105.1 105.1 105.1 105.1 105.1 105.1 105.1 105.1 105.1 105.1 105.1 105.1 105.1 105.1 105.1 105.1 105.1 105.1 105.1 105.1 105.1 105.1 105.1 105.1 105.1 105.1 105.1 105.1 105.1 105.1 105.1 105.1 105.1 105.1 105.1 105.1 105.1 105.1 105.1 105.1 105.1 105.1 105.1 105.1 105.1 105.1 105.1 105.1 105.1 105.1 105.1 105.1 110.2 117.3 125.6 133.6 140.7 147 151.8 158 164.4 167.9 164.2 159.5 153.6 146.3 139.9 136.3 128.7 127.3 127.9 130.1 132.7 134.9 134.8 133.7 133.4 131.2 125.6 132.3 133.2 137 140.1 143.5 147.8 151.8 154.8 154.4 156.9 167.3 182.9 194.9 204.9 216.3 227.3 236.9 243.8 252.1 262.5 273.9 284.4 296.7 307.4 316.5 329.3 339.8 348.3 358.4 369 380.2 390.2 401.1 410.1 418.9 425.6 432.8 440 447.3 455 460.8 464.3 467.7 471.1 470.9 471.1 471.9 472.4 472.9 472.9 473.6 476.8 478.1 481.5 485.9 490.8 495.2 499.5 501.7 501.4 513.4 520.2 526.9
213.7 213.4 210.9 210.4 210.6 212.4 207.2 202.1 199 195.8 192.5 192 193.3 177.6 174.2 170.3 167 166.1 168.8 173 173.9 172.8 172.1 167.6 156.4 147.3 140.4 134.1 125.5 121.3 113.1 105.1 105.1 105.1 105.1 105.1 105.1 105.1 105.1 105.1 105.1 105.1 105.1 105.1 105.1 105.1 105.1 105.1 105.1 105.1 105.1 105.1 105.1 105.1 105.1 105.1 105.1 105.1 105.1 105.1 105.1 105.1 105.1 105.1 105.1 105.1 105.1 105.1 105.1 105.1 105.1 105.1 105.1 105.1 105.1 105.1 105.1 105.1 105.1 105.1 105.1 105.1 105.1 105.1 105.1 105.1 105.1 105.1 105.1 105.1 105.1 105.1 105.1 105.1 105.1 105.1 105.1 105.1 105.1 105.1 105.1 105.1 105.1 105.1 105.1 105.1 105.1 105.1 105.1 115.4 123.4 130.9 138.7 145.3 151.5 157.9 164.2 171.3 177.9 180 174.9 169.4 162.6 152.7 147.3 139.1 134.7 133 134.4 137.2 140.7 142.1 139.8 141.2 139.9 136.8 136 139.1 141.2 143.5 147.6 152.1 157.7 158.8 159.2 159 164.8 180 193.9 204.1 215.8 228 236.4 245.7 250.2 261.9 273.7 283.5 295.5 306.9 316.8 327.5 338.1 347.6 356.5 366.3 376.2 388.1 400.3 407.5 417 425.5 433.3 441.4 449.3 457 462.9 467.7 472.7 475.3 477.6 477.5 478.1 480 481.1 481.8 481.7 478 484.6 486.8 488.8 494.1 498.2 502.4 506.5 509.9 510 514.3 523.4 531.2
207.3 208.6 205.7 204.2 204.3 200.3 197 194.9 193 188.9 186.5 185.2 176.8 173.5 172.8 170.6 168 169.7 175.5 183.1 182 179.7 178.5 174.7 161.1 142.4 134.2 123.8 114.4 111.5 105.1 105.1 105.1 105.1 105.1 105.1 105.1 105.1 105.1 105.1 105.1 105.1 105.1 105.1 105.1 105.1 105.1 105.1 105.1 105.1 105.1 105.1 105.1 105.1 105.1 105.1 105.1 105.1 105.1 105.1 105.1 105.1 105.1 105.1 105.1 105.1 105.1 105.1 105.1 105.1 105.1 105.1 105.1 105.1 105.1 105.1 105.1 105.1 105.1 105.1 105.1 105.1 105.1 105.1 105.1 105.1 105.1 105.1 105.1 105.1 105.1 105.1 105.1 105.1 105.1 105.1 105.1 105.1 105.1 105.1 105.1 105.1 105.1 105.1 105.1 105.1 105.1 108 116.4 126.2 135.4 143 148.8 154.9 161.6 168.1 175.9 183.3 188.6 191.6 186.6 177 168.6 155.6 147.4 144.5 139.7 139.5 141.2 144.4 147.1 145.4 145.2 146.3 143.3 138 142.1 145.1 146.9 151.3 156.1 160.7 161.7 161.5 162.2 164.9 176.1 191.5 203 213.7 226.5 236.5 245 255.8 260.4 271 282.8 292.4 304 315.5 325.7 336.8 347.3 355.1 365.5 375.1 384.5 395.7 405.3 413.9 423.1 433.4 443.6 451.2 460 467.2 473 477.3 480.9 482.3 483.8 484.9 486.8 487.4 490 490.8 490.6 485.9 492.6 494.7 496.9 501.2 506.3 510.3 513.9 517.6 519.9 515 526.5 534.8
198.8 199.3 198.2 196.1 194.4 190.1 188.6 186.4 183.9 181.8 179.4 175.8 172.3 169.7 170.7 170.5 171.5 175 180.4 184.9 184.8 182.8 179.5 173.7 159 135.8 120.7 107.9 105.1 105.1 105.1 105.1 105.1 105.1 105.1 105.1 105.1 105.1 105.1 105.1 105.1 105.1 105.1 105.1 105.1 105.1 105.1 105.1 105.1 105.1 105.1 105.1 105.1 105.1 105.1 105.1 105.1 105.1 105.1 105.1 105.1 105.1 105.1 105.1 105.1 105.1 105.1 105.1 105.1 105.1 105.1 105.1 105.1 105.1 105.1 105.1 105.1 105.1 105.1 105.1 105.1 105.1 105.1 105.1 105.1 105.1 105.1 105.1 105.1 105.1 105.1 105.1 105.1 105.1 105.1 105.1 105.1 105.1 105.1 105.1 105.1 105.1 105.1 105.1 105.1 105.7 113.4 120.6 128.7 136.7 145.5 153.8 159.9 165 171.5 178.4 186.3 192.1 196.6 198.7 189.8 178.4 169.6 159.3 151.8 149.1 147 148.4 148.6 150.1 151.7 147.9 151.9 149.8 147.5 138.2 149 150.7 154.4 160.5 164.9 165.7 167.2 167.7 169.4 172.7 190 202.7 213.6 224.3 235.4 245.1 256 260.1 271.3 282.3 291.6 304 315.6 323.5 334.8 345.4 355.3 364.4 373.4 383 393.5 403.4 411.5 421.8 431.3 441.8 452.1 460.5 470.4 477.6 484.1 490 492.8 492 492.5 492.9 494.4 496.8 498.8 499.8 499.1 495.3 501 503.5 506.5 509.9 514 518.3 521.8 525.1 527.1 528.7 525.3 537.4
188.1 188.4 187.5 186.1 183.4 182.9 182.4 179 178.1 176 173.7 171.5 169.3 168.5 170.6 169.9 173.3 178.4 180.3 180.8 180.8 178.3 173.6 164.5 147 123 105.1 105.1 105.1 105.1 105.1 105.1 105.1 105.1 105.1 105.1 105.1 105.1 105.1 105.1 105.1 105.1 105.1 105.1 105.1 105.1 105.1 105.1 105.1 105.1 105.1 105.1 105.1 105.1 105.1 105.1 105.1 105.1 105.1 105.1 105.1 105.1 105.1 105.1 105.1 105.1 105.1 105.1 105.1 105.1 105.1 105.1 105.1 105.1 105.1 105.1 105.1 105.1 105.1 105.1 105.1 105.1 105.1 105.1 105.1 105.1 105.1 105.1 105.1 105.1 105.1 105.1 105.1 105.1 105.1 105.1 105.1 105.1 105.1 105.1 105.1 105.1 105.1 106.3 112.5 118.7 126.3 134.1 141.9 149.9 157.7 164.8 171.3 175.9 181.9 189.9 195.5 199.9 201.8 197 189.8 185.1 176.3 167.6 163.1 157.5 156.8 156.8 156.2 155.7 155 154.8 153.9 154.6 149.9 138.5 153.5 157.3 162.9 167.5 169.7 172.6 172.9 180.2 173.4 189.4 202.9 215.6 225.7 235 246 255.7 264.3 267.7 283.1 293.7 302.6 313.4 324.4 332.4 343.6 354 363.3 372.3 381.9 393.5 401.3 408.5 418.4 428.3 439.7 452.4 461.1 470.4 479.5 487.6 495.2 500.6 506.4 506.7 503.3 504 505.8 507.7 508 508.7 507.8 503.2 509.7 512.4 515.9 518.7 522.2 526.1 529.9 533.2 535.5 536.9 537.2 539.1
180 179.4 176.9 176.5 175.5 174.1 173.6 173.7 171.8 169.7 167.2 168.4 168.1 167.5 168.4 169.8 175.2 177 178 175.3 171.7 168.1 162.7 149.6 131.6 106.1 105.1 105.1 105.1 105.1 105.1 105.1 105.1 105.1 105.1 105.1 105.1 105.1 105.1 105.1 105.1 105.1 105.1 105.1 105.1 105.1 105.1 105.1 105.1 105.1 105.1 105.1 105.1 105.1 105.1 105.1 105.1 105.1 105.1 105.1 105.1 105.1 105.1 105.1 105.1 105.1 105.1 105.1 105.1 105.1 105.1 105.1 105.1 105.1 105.1 105.1 105.1 105.1 105.1 105.1 105.1 105.1 105.1 105.1 105.1 105.1 105.1 105.1 105.1 105.1 105.1 105.1 105.1 105.1 105.1 105.1 105.1 105.1 105.1 105.1 105.1 106.2 113 118.8 125.1 132.2 139.6 147.4 155.2 163.2 171.1 177.1 183.1 187.4 192.9 201 205.5 208.7 208.3 200.1 197.8 192.6 184.7 178.5 172.9 168.3 167.7 165.6 163.6 160.8 159.4 160.8 158 157.6 156 146.1 160.4 163.3 169.3 172.3 175.4 176.6 181.4 186.7 183.6 204.6 213.6 225.7 236.9 245.7 257.7 265.2 273.8 282.5 295.1 302.3 314.1 322.5 331 342.4 350.3 361.5 370.7 380.5 391.1 401 407.7 415.2 425.7 436.8 448.8 459.3 468.7 478.9 488.6 496.1 504.1 509.4 512.7 514.7 515.2 516.5 518.4 519.2 518 517.1 515.9 512.9 518 520.5 524.2 527.6 531.2 534.9 538.6 541.7 544.5 546.5 548.1 538.9
173.2 172.4 169.8 169.8 168.8 168.5 169.2 169.3 169.2 163.2 163.9 167.6 168.7 166 167 172.6 173 171.4 167.7 163.4 160.9 156.1 146.6 135.2 121.2 105.1 105.1 105.1 105.1 105.1 105.1 105.1 105.1 105.1 105.1 105.1 105.1 105.1 105.1 105.1 105.1 105.1 105.1 105.1 105.1 105.1 105.1 105.1 105.1 105.1 105.1 105.1 105.1 105.1 105.1 105.1 105.1 105.1 105.1 105.1 105.1 105.1 105.1 105.1 105.1 105.1 105.1 105.1 105.1 105.1 105.1 105.1 105.1 105.1 105.1 105.1 105.1 105.1 105.1 105.1 105.1 105.1 105.1 105.1 105.1 105.1 105.1 105.1 105.1 105.1 105.1 105.1 105.1 105.1 105.1 105.1 105.1 105.1 105.2 110.4 115.6 121 126.7 132.3 138.5 145.7 153.1 160.7 168.5 176.5 184 190.2 195.9 201.2 206.1 211.9 216.6 220.3 215.9 207.7 205 199.7 194.8 190.1 185.3 180.6 176.1 173.1 169.9 165.1 165.2 164.5 162.8 161 159.3 156.2 166.4 169.3 172.6 175.9 179.6 182.4 186.7 190.3 198.7 213.4 222.4 236.1 247.4 257.7 266.6 274.1 285.6 296.2 305.1 312.6 323.7 332.8 341.1 350.3 359 367.7 377.4 389.5 400.8 408.9 416.2 423.8 433.6 444.9 458 467.4 477.1 486.9 497.3 506.1 513.6 517.5 520 522.5 524.6 526.5 527.5 527 525.6 525.3 523.8 520.8 526.1 529.1 533.4 536.8 540.3 543.9 547.5 550.4 553.9 555.9 557 554
165.5 163.5 164.4 165 166.2 165 166.6 166.8 162.5 159.2 162.2 163.8 164.8 161.5 166.7 166.5 165.3 158.2 152.9 149.8 149.6 143.9 134.3 124.3 109.1 105.1 105.1 105.1 105.1 105.1 105.1 105.1 105.1 105.1 105.1 105.1 105.1 105.1 105.1 105.1 105.1 105.1 105.1 105.1 105.1 105.1 105.1 105.1 105.1 105.1 105.1 105.1 105.1 105.1 105.1 105.1 105.1 105.1 105.1 105.1 105.1 105.1 105.1 105.1 105.1 105.1 105.1 105.1 105.1 105.1 105.1 105.1 105.1 105.1 105.1 105.1 105.1 105.1 105.1 105.1 105.1 105.1 105.1 105.1 105.1 105.1 105.1 105.1 105.1 105.1 105.1 105.1 105.1 105.1 105.1 105.1 105.1 109.7 117.6 123.9 129.2 134.7 140.3 145.7 151.9 159.5 166.7 174.1 182 189.9 198.2 203.5 208.1 214.1 219.4 223.1 227.5 229 222.3 216.4 211.9 207 204.3 200.8 196.2 191.3 186.4 181.4 175.8 172.7 170.8 167.6 167.6 166.6 159.9 158.6 171.8 173.4 176.3 180.3 183.2 187.6 191.3 197 209.6 221.1 232.5 245.3 256.1 266.5 274.4 284.7 295.9 306.1 315.8 322.2 332.3 342.3 348 358.7 367.6 376.9 386.5 397.7 409.1 417.4 424.8 432.6 442.5 453.3 463.9 475.7 485.3 496.8 506.6 513.8 520.9 527.3 530.7 533 534.1 534.9 535.6 534.9 534.4 533.5 533.2 528 534.4 538.3 542.4 545.8 549.7 553.3 557.2 560.5 563.8 565.7 567.1 566.8
157.5 158.7 160.5 160.8 161 162.4 164.1 162.5 158.9 155.5 155.2 155.2 155.6 153.9 151.8 154 148.9 144.3 142.2 141.9 140.1 135.4 126.3 112.8 105.1 105.1 105.1 105.1 105.1 105.1 105.1 105.1 105.1 105.1 105.1 105.1 105.1 105.1 105.1 105.1 105.1 105.1 105.1 105.1 105.1 105.1 105.1 105.1 105.1 105.1 105.1 105.1 105.1 105.1 105.1 105.1 105.1 105.1 105.1 105.1 105.1 105.1 105.1 105.1 105.1 105.1 105.1 105.1 105.1 105.1 105.1 105.1 105.1 105.1 105.1 105.1 105.1 105.1 105.1 105.1 105.1 105.1 105.1 105.1 105.1 107.5 110.4 110.3 110.3 112.4 116.6 115.3 114.1 110.2 114.2 112.4 117.3 124.6 130.8 137.1 142.9 148.2 153.6 159.4 165.4 173 180.5 187.6 195.5 205 212.8 217 221.5 226.4 230 233.5 236.9 235 228 223.9 219.3 217 214.4 212.3 207.7 203.2 197.3 189.1 183.2 178.9 174.5 174.4 174.1 171.9 163.7 162 174.3 176.7 178.9 183 187.1 191.3 196.4 205.8 217.4 229.2 242.3 254.2 265.5 274 282.1 294.5 304.6 314.2 324.5 331.4 341.6 350.3 355.9 367.2 377.4 387.7 397.3 406.2 416.3 425.5 433.6 441.5 447.5 458.8 472.6 483.3 493.8 504.9 516.5 521.4 528.1 535.5 541.2 544.2 545.3 544.7 544.5 544 543.5 542.1 541.3 541.1 542 546.8 551.3 555.2 559.1 563 566.8 570.4 573.5 576.1 577 577.1
153.9 154.8 155.4 156.3 157.8 158.4 159.7 156.5 153.4 147.9 145.2 149.2 146 143 140.6 139.1 137.7 136 134.7 133.9 131.1 126.1 117 105.1 105.1 105.1 105.1 105.1 105.1 105.1 105.1 105.1 105.1 105.1 105.1 105.1 105.1 105.1 105.1 105.1 105.1 105.1 105.1 105.1 105.1 105.1 105.1 105.1 105.1 105.1 105.1 105.1 105.1 105.1 105.1 105.1 105.1 105.1 105.1 105.1 105.1 105.1 105.1 105.1 105.1 105.1 105.1 105.1 105.1 105.1 105.1 105.1 105.1 105.1 105.1 105.1 105.1 105.1 105.1 105.1 108.4 110.4 108.4 109.8 112.3 115 118.4 120.8 125.2 131.5 126 126.8 132.1 131.9 131.4 131.7 132.2 138.5 144.5 150.7 157.2 162.9 168.1 173.9 180.3 187.2 194.2 202.3 209.9 218.2 223.4 228.8 233.7 237.8 240.4 242.6 245.4 245.5 237.6 232.2 228.7 226.7 225.8 224.8 221.4 215.1 206.9 198.6 191.9 186.4 183.5 181.7 180.7 176.5 164.8 173.4 167.4 177.9 181.4 186 191 196.8 204.8 214.6 225.5 237.8 251 262 273.5 281.8 292.4 302.5 311.8 321.5 332.2 341.9 351.6 358.4 365.5 377.3 387.5 399.1 407.3 416 425 434.2 443.2 450.1 457 469.3 480.4 491.6 500.9 513.2 525.7 530.7 535.8 543 548.7 552.5 554.1 553.5 553.9 553.5 553.2 552.6 551.1 551 548.8 555.9 560.1 564.6 569.3 573.3 577.1 580.5 583.8 586.8 587.7 588.2
149.3 150.7 151.8 152.5 152.9 152.6 152.1 148.3 144.5 139.7 139.1 136.2 133.9 132.6 131.5 130.3 129.7 128.6 126.8 124.8 121.9 116.1 107.8 105.1 105.1 105.1 105.1 105.1 105.1 105.1 105.1 105.1 105.1 105.1 105.1 105.1 105.1 105.1 105.1 105.1 105.1 105.1 105.1 105.1 105.1 105.1 105.1 105.1 105.1 105.1 105.1 105.1 105.1 105.1 105.1 105.1 105.1 105.1 105.1 105.1 105.1 105.1 105.1 105.1 105.1 105.1 105.1 105.1 105.1 105.1 105.1 105.1 105.1 105.1 105.1 105.1 105.1 110.5 118.9 123.2 125.6 119.9 120.3 121.6 123 126.8 128.8 131.5 134.2 134.2 135.5 139 142.5 141.8 141.1 143.4 148 154.2 160.5 167.8 176.1 184.1 189.6 194.1 199.2 204.6 210.9 218.2 223.7 229.9 233.7 241.4 247.4 251.9 252.8 251.8 249.5 245.1 239.9 237.3 236.7 237.9 237.6 235.5 230.5 223.4 215.6 208.8 203.4 200.2 194.6 191 187.7 181.7 167.2 178.6 176.4 178.7 185.7 190.6 194.4 200.3 211.4 222.1 234.7 246.2 259.2 269.8 279.7 291.7 301.9 311.3 319.9 328.5 338.5 348.8 360.1 369.1 374 386.6 397.4 408.8 417.6 425.2 433.6 443.1 452.4 459.5 468.3 478.2 487.6 497.5 507.4 522.2 534.5 539.4 542.9 549.6 555.5 559.7 561.6 562.2 562.8 563 562.5 561.8 560.8 560 555.1 564.8 569.7 574.9 579.8 583.7 587.6 591.4 594.7 597.1 598.4 599.3
146.1 148.2 149.6 149 148.8 147.1 141.2 138.6 133.6 130.3 127.9 126.4 124.8 124.1 124.2 124.1 124 120.8 118.6 116.7 113.5 106.8 105.1 105.1 105.1 105.1 105.1 105.1 105.1 105.1 105.1 105.1 105.1 105.1 105.1 105.1 105.1 105.1 105.1 105.1 105.1 105.1 105.1 105.1 105.1 105.1 105.1 105.1 105.1 105.1 105.1 105.1 105.1 105.1 105.1 105.1 105.1 105.1 105.1 105.1 105.1 105.1 105.1 105.1 105.1 105.1 105.1 105.1 105.1 105.1 106.5 109.5 111.6 110 110.1 120.9 129.7 136.5 141.6 136.2 130.1 129.4 130 130.5 134.6 137.9 139 141.2 141.3 141.3 142.8 145.9 149.2 149.9 151.7 157.6 164 170.2 178.6 186.6 196.6 206.1 213 216.1 217.6 219.7 224.4 229.5 237.5 247.3 253 257.2 262 267 269.6 263.9 255.6 251.6 246.6 245 246.1 248.5 248.8 244.7 237.8 230.6 224 219.5 213.6 210.8 208.6 204.5 198.2 194.2 182.1 177.9 186 180.8 187.4 195.6 198.5 205.8 218 230.3 241.4 254.6 267.8 277.2 289.4 300.4 310.2 318.4 327.1 336.2 347.8 358.2 367.9 376.8 381.7 394.5 406.1 417.8 427.2 433.4 442.5 450.8 460.8 469 477.4 486.4 497.1 505.9 515.8 530.5 540.1 545.8 549.3 554.9 562.8 566.8 569.1 571.1 571.7 572.3 571.9 570.1 569 569.1 567.6 572.7 577.7 583.5 589.7 594.2 598.4 602.1 605.8 608.2 609.2 610.2
144.5 145.8 146.7 144.7 139.7 135 129.5 128.9 125.2 121.8 119.9 118.2 117.5 118.3 117.5 115.7 113.1 111.9 111.4 111 110.9 105.1 105.1 105.1 105.1 105.1 105.1 105.1 105.1 105.1 105.1 105.1 105.1 105.1 105.1 105.1 105.1 105.1 105.1 105.1 105.1 105.1 105.1 105.1 105.1 105.1 105.1 105.1 105.1 105.1 105.1 105.1 105.1 105.1 105.1 105.1 105.1 105.1 105.1 105.1 105.1 105.1 107.4 111.7 122.1 127.9 119.6 111 112.5 112.1 111.9 117.7 122.6 125 132.9 138 142.7 144 142.7 138.6 140.6 141.6 139.8 139.3 143.9 147.1 146.5 147.8 150.8 151.1 150.1 152.7 155.5 158.4 162.1 169.7 178.1 186.1 195.2 205.1 214.2 222.9 229.1 228.7 229.4 231.7 235.9 245.9 255.2 266.5 274.9 277 279.4 285 288.5 283.1 272.2 259.6 253.8 253.1 255 258.1 258 252.3 245.1 240.9 236.5 227.6 223.4 220.2 218.4 214.3 207.6 203 192.1 177.6 196.7 181.3 196.5 199.7 204 212.4 224.9 237 250.4 263.8 274.7 284.4 296 308 316.9 324.8 334.2 343.9 356.5 368.4 376.8 384.1 392.8 405.1 414.7 425.9 434.5 442.7 452.7 459.8 468.4 476.2 484.2 493.8 504.4 513.4 522.8 532.9 544.1 549.5 554.2 560.2 567.5 572.4 575.5 578.2 580.6 581.4 581.1 580.5 578.3 577.9 578.6 576.2 586.2 592.5 599.1 605.1 609.4 614.3 617.6 620 622.2 622.1
141.8 142.8 139.5 136.7 129.5 128.4 121.7 116.6 114.3 111.8 111.1 109.8 110 110.6 109.6 108.8 108.2 110.3 110.2 109.6 107.6 105.1 105.1 105.1 105.1 105.1 105.1 105.1 105.1 105.1 105.1 105.1 105.1 105.1 105.1 105.1 105.1 105.1 105.1 105.1 105.1 105.1 105.1 105.1 105.1 105.1 105.1 105.1 105.1 105.1 105.1 105.1 105.1 105.1 105.1 105.1 105.1 105.1 105.1 105.1 105.1 109.2 113.5 123.6 133.1 138.3 135.8 123.2 119.5 116.2 120.4 126.1 131.3 136 141.5 144.3 146.7 148.5 147.8 149.5 151.2 147.4 145.4 145.6 148.1 150.2 151.7 154.1 156.7 156.8 158.2 160 163.6 168 174.4 181.7 190.5 200.3 210.1 218.6 226.1 234.4 241.8 242.1 244.8 248 256.1 266.4 275.7 284.1 288.3 295.6 301.3 305.6 307.2 302.5 284 269.9 263.1 260.6 263.5 265.3 264.1 259.3 254.3 251.1 244.5 237.5 233.3 227.7 221.4 215.6 211.5 206.1 195.8 185.6 199.7 186.5 200.7 203.7 207.7 218.6 230.3 243.7 257.8 270 280.9 291.9 304.2 315.8 322.3 331.3 341 351.8 364.8 377.3 384.9 393.6 402.1 411.4 421.3 431.3 439.8 450 461.3 469.3 475.5 482.8 489.9 498.4 508.2 517.9 526.1 534.8 544.7 551.5 558.6 564.2 571.1 578.1 582.3 585.6 588.3 589.3 589.4 589.3 587.7 586.4 587.5 588.1 593.5 600.3 607.7 614.6 620.5 624.9 628.3 631.7 633.3 634.2
141.8 135 130.1 127.5 119.8 115.4 113.7 110.8 105.1 105.1 105.1 105.1 105.1 105.1 105.1 105.1 105.3 108.6 105.1 106.4 106 105.1 105.1 105.1 105.1 105.1 105.1 105.1 105.1 105.1 105.1 105.1 105.1 105.1 105.1 105.1 105.1 105.1 105.1 105.1 105.1 105.1 105.1 105.1 105.1 105.1 105.1 105.1 106.2 107.3 106.7 105.1 105.1 105.1 108.3 108.7 105.1 105.1 105.1 105.1 110.4 116.3 122.2 129.3 134.9 136.9 136.5 131.9 129.1 129.2 132.8 136.7 140.2 143 147.2 152 155.4 155.7 154.6 157.3 155.6 153.2 152 152.8 155 158.5 161.4 162.3 162 163.3 166.2 167.9 172.9 179.7 186.1 193.6 203 212.8 221 228.1 234.8 242.1 249.3 252.4 257.1 260.4 269.3 279.2 286.1 291.3 299.9 312.9 323.2 325.3 323.4 320.6 296.6 279.1 271.6 270.3 271.6 273.4 270 265.6 263.7 259 249.9 244.8 240 228.9 220.6 216 212.1 209.5 193.1 195.7 201.6 192.4 201.7 212 214.7 225.1 235.9 248.7 262.9 276.2 288.5 299.8 311.5 321.9 329.1 336.1 345 358.3 371.8 386 395.1 403.1 410.1 418.1 426.3 436.1 447 460.8 470.9 477 483.8 489.7 495.3 502.8 510.6 520.6 528.3 536.1 546 556 562.9 568 575.9 583.3 588.3 591.1 594 595.8 596.2 596.6 597.1 596.6 596.3 598.2 600.1 607.8 615.9 622.8 629.8 635.1 640.8 645.8 647.2 646.8
130 125.6 120.9 118.3 114.7 110.2 105.1 105.1 105.1 105.1 105.1 105.1 105.1 105.1 105.1 105.1 105.1 105.1 105.1 105.1 105.1 105.1 105.1 105.1 105.1 105.1 105.1 105.1 105.1 105.1 105.1 105.1 105.1 105.1 105.1 105.1 105.1 105.1 105.1 105.1 105.1 105.1 105.1 105.1 105.1 105.1 105.1 108 112.3 110.4 108.3 105.1 109.6 118.2 124.8 125.2 116.8 105.1 105.1 112 119.5 124.8 129.3 133.2 135.8 137.7 140.2 140.7 141.1 142.5 145.2 149.1 154.3 157.5 160.4 163.3 163.9 163.7 165.2 163.9 161.5 160.8 162.2 165.3 166.3 166.2 168.3 169.3 170.6 172.4 176.3 180.4 184.9 190.6 197.9 207 216.8 224.6 231.7 237.8 242.4 248.9 255.2 258.9 264.4 271.3 277.6 288.1 296 299.6 309.4 325 331.9 334.9 330.9 319.2 304 291.8 285.5 280.7 277.9 275.6 273 270.4 267.3 258.5 254.9 252 241.4 229.4 222.6 217.9 214.5 208.8 192 190.4 204.3 207.1 197 209.8 216.7 226.1 239.5 253.5 267.7 281.5 293.5 303.9 313.9 325.5 332.9 338.2 346.6 359.5 375.3 393 406.3 411.3 415.3 423.2 431.6 440.6 452.1 468.1 476.1 482.3 491.3 499.5 501.4 506.7 513.1 522 530.4 537.9 546.6 557.9 565.4 570.9 579.9 586.7 592.1 595.7 598.9 601 602.3 604.2 604.7 605 605.4 607.2 608.4 616.3 623.7 630.7 638.6 645.4 652.5 657.8 660.9 659.3
