ncols 200
nrows 82
xllcorner 270000
yllcorner 611650
cellsize 50
395.9 392.8 389 386.2 383.7 380.8 376.3 371.5 365.4 360.9 351.4 340.3 349.7 347.2 344.8 340.8 336.5 330.2 323.3 316.1 313.9 308.2 297.6 289.7 287.6 288.3 287.6 287 285.4 284 270.3 272.5 287.1 294.5 297.2 299.9 302.2 304.6 302.4 319.7 330.4 333.1 348.6 355.3 367.1 379.8 392.1 401.6 411.7 418.6 429 435.8 434.2 431.1 427.5 423.8 420.8 416 410 401.8 395.4 407.6 413.1 416.1 419.2 419.8 416.7 402.3 378 350.7 346.9 328.1 311.3 304.5 306.2 309.4 324.7 343 367.2 393.6 404.7 414 419.8 422.7 424.4 425.4 425.5 425.8 425.4 422.9 420.4 417.5 414.5 410.9 407.1 405.3 405.6 403 401.1 399 394.7 400.3 404.9 409.7 413.4 418.1 424.9 435 445.5 455.4 465.9 474.8 482.5 488.6 491.2 490.5 487.1 482.4 476.4 471.1 465.3 458.9 452 451.3 452 450.6 451.8 455 458.5 460.3 462.1 463.1 462.5 460.2 455.8 453.8 456.8 460.7 463.9 465.5 466.7 464.6 459.3 450 437 423.1 421.1 424.7 432.6 440.8 449.6 455.7 457.3 455.3 449.8 440.6 425 404.5 383.8 391.9 412.9 430.6 444.8 450.6 452 447.2 440.2 433.3 424.6 425.7 424.1 422.7 419.4 413.9 406.7 399.1 390.9 381.6 374.2 366.8 358.6 351.4 343.4 332.9 315.7 322.6 337.5 352 365.4 383.5 401.2 414.7 428.1 437.1 440.6 441.3 442.1 442.1 440.1 433.6
389.8 386.2 380.7 377.3 375 372.4 370.2 367 359.9 354.2 346.8 335.6 337.9 338.3 332.6 328.2 323.7 316.9 310 306.3 301.5 295.9 288.9 283.3 281.2 280.9 280.5 279.5 278.7 276.5 281.3 284.2 287.2 288.9 290.7 292.5 294.5 293.6 301.5 312.7 320.6 327.3 335.4 346.5 355.1 364.3 375.5 389 399.5 405.1 409.8 413.5 412.4 411.7 409.9 409 404.9 395 383 378.4 392.4 399.9 406.3 412.2 414.7 414.2 404.1 379.2 353.7 331.1 313.8 302.5 300.1 305.8 322.2 323.4 333.7 346.8 381.4 397.6 410.5 418.1 422.7 425.7 427.6 428.5 428.8 428.3 426.5 422.9 419.2 415.2 412.4 413.3 412.8 411.6 409.4 407.4 404.8 402.1 401 396.4 402.7 407.1 411 415.5 421.1 430.6 442.2 454.2 465.1 475.1 483.7 490.8 494.2 493.7 490.4 486.5 480.7 474.8 470.4 464.5 456 448 442.9 442.3 442.1 446.8 450.5 452.8 455.3 456.2 455.8 452.9 446.3 445.4 448 452 456.2 458.2 459.7 458.8 454.7 446.3 434.3 416.6 403 413.1 419.7 429.4 441.1 448.4 452.7 452.2 445.6 436 418 397.3 373.9 384.1 405.3 423.7 438.8 445 447 444.6 439.2 433.7 428.5 428.9 429.3 429.9 425.5 419.9 413.3 405.2 396.3 387.3 378.4 370.6 362 354.1 345.3 335.6 321.9 301.2 324.4 339.7 352.1 367.3 382.4 397 412.1 421 425.9 426.3 426.5 427.9 427.5 423
382.1 377.8 374.5 370.5 367.5 364.9 361.9 358.7 354.2 346.9 340.5 332.6 320.3 322.2 317.3 312.6 309.9 306.1 301.7 297.3 293.3 288 284.7 279.7 276.6 275.9 274.9 273 271.8 264.7 277.1 280 282.4 284.4 285.4 286.7 287.9 286.6 294.8 302.7 298.7 310.5 320.4 328.9 338.3 348 354.6 369.1 380.8 389.4 395.7 396.4 396.6 397.6 397.4 396.2 384.5 370.9 365.8 380.7 390.6 397.7 403.4 408.1 407.7 398.6 381.1 361.6 336.3 307.9 295.4 299 316.3 329.3 341.3 350 347.1 367.9 389.1 402.3 411.6 418 424.1 427.9 430.1 431.4 432 430.6 427.4 421.9 418.1 417.4 416.9 416.6 415.2 415 413.7 411.3 410.7 408.1 406 403.3 399.6 402.8 409.3 414.3 419.3 427.2 436.1 449.6 461.7 473.8 483.6 492.1 496.7 496.5 494.3 489.8 484.4 479.4 477.5 472.3 465.3 456.3 447.2 437 430.4 437 437.2 441.8 443.3 445.5 445.9 442 437.5 436.6 439.9 443.2 447.8 452 454.5 453.1 449.3 442.6 431.3 413.5 397.1 396.7 406.8 418 432.3 441.7 447.4 447 440.2 429.4 412.4 391.3 370.2 377.2 397.6 416.2 429.9 438.1 441 441 437.3 432.7 430.7 432.2 434.6 435.5 431.1 426 419.3 411 402.1 392.8 382.6 373.8 365.3 355.7 343.9 336.8 326.4 311 306.4 324.8 339.1 352.5 364.7 377.2 391.2 398.9 405.9 409.4 411.2 412.4 413.2 411.5
376.5 372.4 368.5 362.5 358.6 356 354.7 351.3 347.6 342.2 335.7 327.2 311 311 307.3 305.1 303.3 301.2 298.6 293.9 287.7 282 279.3 277.7 274.8 271.4 271.6 270 266.8 261.3 272.5 275.4 277.7 279.4 280.4 281.7 283 279.5 287.1 293.1 293.6 299.3 304.3 313.1 323.4 333 341.1 350.1 360.3 368.5 374.9 379.2 381 383.6 385.7 377.3 358.6 358.8 371.4 382.1 391.1 398.8 403 401.8 393.3 372.3 357.3 338.9 318.5 292.1 300 319 334.5 352.9 369.7 376 356.7 380.9 391.9 399.2 408.7 416.5 423.8 429.2 432.2 434 434 432.9 429 422.2 419.5 421 420.2 419.9 420.8 421.3 421.3 420 418.4 416.3 412.3 408.7 400.9 406.4 406.2 413.8 419 428.3 437 445.5 458.5 471.6 483.1 492 497.6 498.8 497.2 493.7 490.2 488.4 485.5 481.9 476 468.4 458.3 447.5 436.9 426.6 425.7 427.8 428.8 432.9 434.4 432.7 428.4 425.9 430.7 434.1 437.7 442.2 445.1 445.2 442.6 436.7 427.1 413.3 396.8 381 399.5 409 421.8 433.1 439 438.3 433 421.2 404.8 385.4 364.5 368.3 388 404.2 419.3 429.4 434.6 434.1 432 430.6 431.1 433.7 436.7 436.7 434.3 430.8 425 417.1 407.5 398 387.6 377.1 369.8 362.3 353.6 343.6 332.5 318.8 300.2 305.4 324.3 337 349.7 358.8 368.6 379.1 385.8 390.5 394.3 398.4 400.9 401.1
377.9 370 354 354 349.8 347.5 346.5 344.9 341.5 336.4 330.7 322 311.2 296.6 299.9 298.4 297.8 296 294.5 292 288.8 282.3 274.3 272.4 273 271.2 266.6 267.2 262.4 265.5 268.7 270.9 273.3 275.2 276.2 277.8 277.6 276.8 282 282.8 284.1 287.5 292.1 297.1 309.1 316.3 330 337.4 344.7 351.8 358.8 365.3 363.2 367 366.3 349.1 347.9 362.4 373.5 383.1 391.8 396.9 397.7 391.3 369.6 346 326 307.5 293.1 292.3 315.4 335.2 357 377.7 393.7 393.7 372.4 395.8 401.8 407.7 413.6 419.9 425.7 431.3 434.9 437.1 437.3 435.4 431 425.1 422.4 424.5 424.4 425.4 428.5 429.7 429.4 427.6 423.9 420.9 415.4 409.6 406.9 412 415.7 418.8 422.2 425.9 440.5 450.5 462.2 474.1 484.5 492.6 498.2 500.3 499.3 497.9 496.2 493.8 491.2 488 483.2 478.2 469.4 455.3 445.8 434 423.2 414.8 419.6 418.9 421.5 421.3 417.7 411.7 418.3 419.7 426.1 430.8 433.3 435.4 434 429.1 421.8 410 394.2 380.1 391.2 400.2 411.9 424.5 431.3 431.8 425.2 411.8 396.3 378 359 357.5 375.7 391.2 405 418.8 424.6 425.5 425.9 425.1 426.4 430 434.4 436.7 436.2 434.9 430.8 423.1 413.3 404.3 395.3 383.5 378.4 370.5 363.1 354 342.5 329 316.2 298.5 302.3 318.1 334.1 344.8 353.3 358.6 366.3 371 377.3 384.6 389.1 390.3
375.5 368.1 358.4 344.2 343.5 337.9 338.5 336.3 334.7 330.5 323.9 314.9 303.6 296.1 294.1 293.8 292.3 291.9 290.5 288.7 286.3 282.7 275 269 269.8 270.5 268.1 259.8 257.6 263.9 265.9 267.6 270 271.6 273.1 272.8 272.3 273.3 271.2 274.6 276.2 278.7 282.5 288.1 294.9 302.8 316.5 327.1 335.1 340.5 346.7 350.3 353.7 344.1 344.6 330.2 350.4 362.7 372.9 381.9 389.6 393.6 390.3 374.7 346.7 320.8 298.8 286 299.7 312.9 329.5 353.2 378.3 398.6 404.1 402.4 389.4 400.8 407.4 413.7 419.6 425.7 431.3 436.2 440.3 443.1 443.5 441.4 437.6 430.5 430.2 429.9 431.7 434.6 436.4 436.7 435.4 433.1 429.2 423.2 416.5 406.7 411.5 418.8 425.4 430.8 436.2 440.4 444.1 457.6 468.3 478.7 486.7 493.4 499.5 502.2 501.8 500.7 498.7 496.5 494 491.7 488.2 483.4 476 466.1 453.3 441.6 431.6 420.1 410.3 407.8 407.4 406.6 404.3 398.4 406.9 409 412.7 417.4 420.2 421.7 420.9 418.6 413.8 404.8 389.9 378.1 380.5 393 402.8 414.8 421.9 422.5 416.5 403.9 388.6 372.6 353.9 349.5 362.3 373.7 388.5 400.9 410 412.9 414.3 412.7 407.6 416.7 427.4 434.1 437.7 438.7 435.5 429.3 421.4 412 404.2 396.5 388.7 379.6 372.2 362.2 352.9 338.9 327.1 312.7 292.9 299.4 316.6 328.8 339 344.8 349.3 355.4 364.1 371.5 376.7 376.4
371.2 362.1 352.8 341.9 333.9 331.2 327.1 327.6 326.1 324.6 320.5 312.2 296.8 290.6 287.9 288.8 287.5 287.2 285.9 283.7 282.4 280.1 275.5 267.6 266.3 268 265.7 262.9 254.2 261.3 262.5 263.9 266.8 268.6 267.5 267.2 269.3 270.6 268.4 268.1 269.8 272.2 276.5 280.8 284.8 290.7 303.2 313.2 323.1 330.2 337 339.2 337 334.8 327.1 333.4 350.3 361.4 370.8 377.9 384.5 382.1 373.6 353.6 325.3 296.8 283.2 298 310.6 322 346.8 372.9 395.6 406.5 409.1 407.9 402.1 403.3 412.2 419 424.9 430.9 437.1 441.8 445.4 447.5 447.2 446.4 442.5 435 436.3 437.2 440.4 441.9 443.5 442.4 440 436.7 431.6 424 417 410.9 419.7 426.2 434.9 442.3 449.5 455.3 459.3 464.5 474.1 483.6 490 497.3 502.2 503.6 502.9 501.5 499.6 497.2 494.5 492.8 490.2 486.3 479.7 472.6 462.9 452.3 440.9 427.4 417 411 403.8 393.1 389.8 391.2 394.4 396.1 399.2 402.1 405.5 409 409.8 407.4 403.7 397.6 385.2 373.5 373.5 383.7 391.7 401.1 407.7 409.3 405.7 395.7 384.3 368.6 350.7 331.2 342.3 349.7 368.1 376.7 383.4 389.5 393.3 389.7 374.8 395.5 414.5 428.6 437.2 440.7 438.2 433.2 426.8 418.6 410.4 405 396 389.2 377.1 367.5 357.3 346.4 333.2 322.8 310.4 286.5 297.4 314.1 326 331.9 336.6 342.7 352 361 361.3 359.5
364.1 352.7 342.8 334.3 327 324.4 321.3 319.3 317.3 313.6 312 303.2 293.7 288.1 281.4 283.7 282.6 282.8 281.7 279.6 277.5 276.1 272.4 265.7 264.1 265.9 262.7 259.8 253.9 252.1 258.3 259.7 263.2 263.8 263.3 264.7 265.9 267.2 266.5 261.8 263.5 265.4 270 272.8 275.4 279.6 288.8 301.3 309.8 317.5 321.4 327.2 324.3 322.1 314.5 324 346.4 357.7 365.7 371 374.8 367.6 353.1 331.8 309.4 281.6 293.3 305.3 320.4 342.8 366.6 391.9 409.1 412.1 412.3 409.8 403.5 407.5 415.2 421.7 428.3 434.3 440.9 446.6 449.4 451.1 452.3 452 448.3 444.6 444.5 447.1 449.3 449.9 449.3 447.3 443.4 438.9 432.1 423.2 414.3 417.5 423.6 432.4 442.8 450.9 457.9 464.2 470.3 474.2 481.5 488.6 495.1 499.6 502.1 503 501.5 499.4 497.6 495.4 493.1 491.6 489.7 486.9 482.4 476.9 468.5 458.3 450.2 438.8 427.9 417.1 413.6 405.9 401.7 393.1 382 383 383.6 387.1 390.4 394.3 395.7 395.8 394.3 389.2 379.2 366.7 364.2 375.1 380.5 383.9 388.1 392.8 391.8 386.5 375.7 363.8 350.3 329.8 320.1 331.2 338.7 346.4 354.5 360.4 365.6 365.1 350.8 376.6 395.1 410.1 416.7 425 433.3 432.7 428.9 422.8 416 411.9 403.2 395.7 383.4 371.3 361.1 350.4 338.1 326.1 315.2 308.1 285.3 299 312.1 319.1 324.6 331.8 337.6 345.7 349.6 346.9
348.8 341.4 335.4 327.5 320.5 317.8 313.2 310.6 307.5 301.2 293.4 294.3 291.6 285.3 281.4 276.5 278.9 277.9 276 274.9 273.4 271.5 268.5 262 259.9 262.2 260.4 258.1 255.1 250.1 248.4 256.6 257.9 260 262 262.6 262 263 262.5 262.1 257.4 258.1 262.6 265.5 267.5 269.9 274.8 286.2 295.3 303.6 307.4 302.2 310.3 305.4 306.7 326.7 338.7 349.2 356.9 359.6 356.2 348.6 331.2 310 288.4 278.8 298.5 312.2 332.6 359.8 385.5 404.9 411.6 414 414.1 412.1 411.2 412 417.9 422.6 429.5 436.2 442.6 448.6 452.7 455.8 458.1 459.2 457.9 455.1 456 458 459.2 456.9 453.7 450.3 445.7 438.5 429.7 422.4 415 420.9 427 436.9 448 456.9 464.6 470.1 476.2 482.1 487.5 492.8 496.9 499.5 500.2 500.1 498.6 496.5 493.9 491 489 487.4 487.2 485.6 482.8 479.7 473.6 465 456.8 447.5 437.6 431 425.2 420.7 414.9 407.6 398.2 387.5 371.5 375.2 376.6 378 381.2 382.1 383.1 379.6 371.8 360.8 358.8 362.1 368.7 371.8 375.1 377.5 374.6 372.6 365.8 357.9 347.5 333.3 318.5 307.2 305.5 314 322.8 329.2 335.2 333.8 331.7 352.4 366.4 375.3 379.9 393.1 408.2 419.9 425.4 424.4 419.7 414.9 406.6 397.8 385.4 375.6 364 344.3 331.8 330 323.7 315.1 298.6 280.2 294.6 304.8 314.7 323.1 328.9 331.7 332.1 329.2
338 332.3 325.8 319.3 309.2 302.9 306.2 298.9 291 280.3 273.7 278.5 281 283 278.1 276.4 271.2 272.6 271.9 270.2 269.1 267.6 264.7 258.1 256.6 258.5 258.9 257.8 255.6 251.8 247.8 244.6 251.9 257 258.5 259.2 257 258.5 258.1 257.4 256.9 254.9 253.5 255.3 260.1 260.4 263.7 269.3 285 291.4 296.6 278 296.8 296.8 305.9 318.1 326 331.8 337.5 341.2 338.4 325 307.6 285.9 276.6 291.6 305.9 324.1 349.8 377.1 400.4 408.7 413.5 416 415.4 414.6 415.6 417.3 420.3 424.3 431.6 438.8 444.9 451.6 457.3 461.5 465.8 467.4 467.4 466 465.5 465.9 465.3 462.3 457.4 451.7 445.5 438.3 431.2 424.4 416.3 423.9 429.1 440.1 450.5 459.7 467 473.7 480 486.1 491.8 494.8 497.1 497.8 496.8 496.2 494.6 492.2 489.7 485.7 482.9 482.2 483.6 484.3 483.9 481.9 477.3 469.9 462.4 454 445.5 441.6 438.2 434.5 429.3 421.2 412.2 400.8 389.5 378.5 373 362.6 368.8 369.5 368.8 365.2 363.4 357.3 351.3 345.9 355.3 358 359.4 360.9 360.8 356.9 352.3 346.1 336.6 323.3 314.5 304.3 305.6 298.9 290.2 293.6 296.1 299.8 311 324 334.2 340.9 347.8 360.1 375 384.9 396.7 407.7 413.2 408.9 402.4 393.4 385.8 378.6 360.3 338.9 342.9 337 328.8 319.8 309.4 297.8 277.1 283 302.3 311 315.1 317.8 317 310.7
328.1 321.2 317.4 296.9 282.8 275.2 283.9 277.2 270.7 258.7 256.8 263.3 268.4 276.1 276.1 274.6 272.1 267.9 267.1 263.5 257.9 258.9 258.6 254.5 253.5 254.8 255.3 255.4 254.9 254.1 249.3 242 243.5 252.1 253.5 254.3 253 253.3 253.1 252.2 253.1 248.3 249.6 249.6 253.2 253.8 253 255.2 262 273.8 273.4 268.2 285.8 287.5 297.6 305.5 312.9 316.5 320.7 322.5 319.1 301.3 283.5 271.7 282.7 300.9 318.3 343.1 367.4 391.2 405.4 411.3 414.6 416.5 416.9 416.7 418 420.3 422.4 425.7 432.6 440 448.2 456 462.5 467.7 471.4 473.6 474.7 474.2 472.5 470.4 468.9 465.3 460.5 454.1 446.4 439.5 432.1 426.5 421.7 423.2 429.9 440.2 450.4 459.1 466.9 474.4 481.8 488.5 492.2 494.2 494.2 494.1 492.9 491.7 489.7 487.5 484.7 479.8 476.6 475.4 477.6 480.8 483.1 483.6 481.9 476.7 469.3 463.4 459.5 455.5 452.6 449.5 444.6 435.7 425.9 414.5 404.2 394.3 384.8 377 366.7 356.5 357.4 356 350.8 347.1 341.6 337.8 336.1 340.7 342.6 344.1 342.4 339.8 334.7 326.4 318.8 315.3 324 325.8 325.1 320.5 315.2 306.1 299.3 287.1 279.3 296.6 306.3 311.6 318.1 327.5 339.3 349.8 361.6 376.2 392.4 398 393.2 389 384 376 356.5 355.7 354.9 347.2 337.3 327.3 316.6 307.5 291.8 268.7 288.6 293.3 300.4 305.8 306.4 304.2
321.8 308.4 288.6 278.4 265.9 256 262.4 250.9 250.6 246 242.1 248.2 255.2 261.2 272.1 271.2 269.7 267.3 264 262.8 264.7 262.3 258.4 254.4 250.7 250.7 250.4 251.8 253 253.8 252.6 247.2 239.8 247.7 249 248.6 248.6 248.9 249.2 247.1 249.2 248.3 246.1 246.1 245.8 245.6 245.8 247.2 250.5 255.3 258 268.4 270 280.4 283.1 287.9 293 298.2 300.9 303.1 298.5 276.1 269.3 282.9 296.5 315.9 338.5 361.9 383.1 396.5 404.9 410.7 415.6 418.4 419.8 418.7 419.8 421.7 424.6 427.3 434.2 442.2 451.6 460 466.7 471.9 475.8 477.9 479 478.1 475.8 473.5 472.4 468.6 463.8 457.6 449.7 442.8 436.9 429.7 426.3 422.6 431.3 437.6 447.9 457.1 465.2 472.1 478.9 484.9 488.9 490.3 490 489.1 487.9 486.7 485.5 483.3 480.6 473.9 468.4 466 468.3 473.2 479.4 483.5 484.4 481.3 476.9 473.3 469.9 467.2 464.3 461.2 456.1 448.1 438.5 428.5 417.5 407.7 398.4 390.9 382.7 374.2 369.1 363.6 361.5 358.8 353.9 347.8 345.1 334.7 331.5 327.3 325.6 319.9 318.6 325 325.1 337.1 341.5 338.5 334.3 330.4 326.9 322.2 311.3 303.3 294.1 274.7 281.4 284.8 290.2 295.8 306 316.7 328.7 343.5 361.5 378.3 380.8 381.4 378.7 369.3 365.1 369.8 366 359 349.8 338.5 327.1 315.9 305 288.9 257.6 271.3 277.3 285.4 290.6 293.5
300.9 286.9 272.7 260.2 253.1 246.1 246 243.6 232.5 228.7 235.3 241 247 276.1 272.6 269.7 267.9 266.7 266.4 266.3 265.4 264.2 261.9 258.2 255.4 251.9 245 241.3 246.8 249.5 250.5 250.3 242.6 238.5 245.1 243.4 243.2 244.2 244.3 243.7 243.6 243.2 244.4 240.9 243 242.3 243.6 246.2 249 251.6 254.6 251.5 264.4 269.3 271 276 280.2 283.6 287.2 289.7 272.8 266.7 281.7 293.4 312.6 331.7 350.6 367.3 381.2 393.9 403.5 410.8 416.1 420.3 419.9 420.1 421.2 423.7 425.3 429.1 435.6 443.9 453.1 461.7 468.4 472.8 475.3 477.5 479.8 478.9 477.4 475.9 474.3 470.7 466.7 460.9 454.2 448.8 444.2 437.7 429.1 423 430.3 437.3 445.3 454.2 463.1 470.2 475.9 480.3 482.8 482.6 481.7 480.4 481.2 481.8 481.6 479.5 477 470.8 460.1 456.5 457.7 465.2 474.1 480.8 484.1 483.8 482 479 475.8 474 471.5 468.1 463.7 457.3 448.3 439.8 431.8 423.3 412.9 403.8 394.5 388.3 381.5 378.3 374.9 371.9 367 359.7 352.6 348.6 349.3 346.2 341.9 342.6 344.6 348.1 352.6 357.1 356.5 353.1 344.9 336.1 331.6 327.5 324.4 317.3 307.7 290.6 269.6 267.4 264.4 270.3 274.3 285.4 298.9 313.6 333.3 355.8 366.9 371.2 370.8 373.1 378.2 377.6 376 372.3 361.4 348.4 335.6 323.9 313.6 304.6 278.1 264.8 253.1 258.9 258.1 272.2
288.8 273.7 257.3 250.2 240.7 238.4 236.1 220.5 225.8 210.3 222.3 236.2 272.8 275.3 273.8 271.3 268.9 268.2 267.7 267 265.8 264.3 262.6 262.2 259.4 255.6 252.4 250.6 242.5 239.2 245.8 245.8 245.3 236.2 240.5 239.5 239.3 239.8 240 239.4 239.2 240.4 241.7 240.5 240.7 240.6 242.4 244.8 246.5 248.8 251.5 254.8 258.5 257 255.5 261.2 266.7 272 258.3 261.6 270 280.9 292.9 308.7 321.5 333.3 346.7 360.5 374.1 386.3 397.8 407.8 413.8 409.3 416 420.1 422 425.3 428 432.2 437.9 446.2 453.6 459.7 465.6 469.6 472.5 475.8 479.1 479.1 480 478.6 476.2 472.7 468.6 463.9 459 453.1 447.7 441.9 431.4 429.9 431.7 440.6 448 454.2 460.6 469.6 475 478.5 480.1 479.3 476.4 475.3 474.9 475.9 477.1 476.5 474.3 468.4 456.7 445.2 448.7 454.8 466.4 475.5 480.6 482.7 482.2 480 477.5 475.2 473.5 470.6 466.1 460.5 455.4 448.9 441.7 433.7 425.4 418.5 410.1 405.6 401.1 395 388.7 382.8 377.1 369.1 359.8 360.2 358.9 357.7 358.5 360.7 363.3 365.6 369.5 370.7 369.9 367.1 359.1 350.2 340.8 333.7 329.2 325.7 320.4 303.8 281.5 257.9 254 257 258.9 263.4 271.6 285.2 307.9 330.6 349.9 358.3 363.2 366.7 373.9 381.7 386.4 380.5 369.4 356.1 341.6 330.4 320.3 311.9 295.2 288.7 274.5 258.4 251.5 249.6
276.5 261.5 249.1 238.8 230.3 235.5 223.4 225.6 213.5 205.4 233.8 273.5 271.2 278.7 276.1 273.6 270.4 269 268.3 267.3 265.6 264 262.8 261.9 262 259.1 255.1 250.6 245.9 237.5 238.8 241.9 240.9 235.3 237.3 237.6 236.9 236.7 236.3 236.7 237.1 238.2 239.5 238.7 238.7 239.7 241.5 242.6 244.1 245.8 243.7 245.9 247.4 249.2 248.4 247.1 253.6 258.8 263.4 270.1 278.3 284.7 295.8 308.6 319.1 328.9 338.2 351 364.8 375.6 385 385.5 385.4 393.1 407.3 417.9 423.4 427.3 431.9 436.1 441.3 446.3 452.5 458.1 462.2 465.5 469.4 474.2 477.8 479.7 480.5 479.6 477.4 474.1 470.4 465.9 460.9 455.2 449.5 442.5 433.5 436.6 439.5 446.1 452.6 459.3 465.2 471.1 475.2 478.3 478.2 474.9 472.5 471.6 471 472.2 473.6 473.6 471 465.2 455.4 442.1 438.3 445.9 460.2 469.5 475.4 477.2 476.3 475.6 474.6 472.6 470.2 467.4 464.2 460.3 456.3 451.4 446.1 441.1 435.8 432.3 426.4 421.2 414.6 406.5 397.6 389.6 379.8 374.9 373.2 372.3 371.7 372.2 374.3 378.6 382.3 386.2 387 388.5 388.6 384.1 375.8 365.9 356.2 346.6 336.6 327 309 299.8 290.6 278.8 262.4 247.5 249.3 252 250.3 262.3 282.3 305.6 329.1 345.8 352.9 358.1 366.6 378.5 385 380.1 370.9 356.3 343.2 334 321.5 315.8 311.3 303.5 293.5 286.8 272 247.4
269.8 257.6 243.1 230.8 232 226.4 215 219.6 210.2 226.3 268.9 271.4 279.4 277.8 276.2 274.6 272.9 270.6 269 267.4 265.6 263.4 261.8 261 259.6 258 255.4 251.5 246.6 240.7 235.1 237.5 235.5 234.6 235.2 235.5 234.7 234.4 234.5 235 235.5 236.5 237.1 236.6 236.5 239 239.9 238.9 241.1 238.8 238.1 237.9 242.3 242.3 245.9 254.7 258 260.6 264.6 269.3 273.4 279.6 290.7 300.6 310.6 321.7 332.3 341.1 348.6 354.8 359.2 361 365.8 395.2 413 420 425.1 429.8 434.2 438.1 442.5 447.3 452.4 457.4 461.5 464.5 468 471.7 474.8 477.4 478.9 477.8 477.3 474.9 470.5 466.1 460.4 454.9 449.2 439.9 441.8 443.6 448.9 455 460.3 464.9 469.4 473.5 476.3 477.5 475.5 471.7 469.5 467.4 467.2 468.3 469.6 469.2 466.8 460.9 450.3 436.7 432.7 441.2 453.8 464.7 470 470 468.7 467.6 466.4 464.2 462.7 461.1 458.5 455.7 453.1 450.6 449 446.2 442.5 438.8 435 428.9 421.5 411.9 402.6 394.7 390.3 387 388.4 387.1 387.2 390.3 392.4 396.6 400.9 405.3 409.3 411.8 410.3 403.5 393.6 381.3 369.6 357.8 341.9 328.9 327.6 322.7 314.1 301.4 286.2 265.8 248.9 237.7 239 244 259.1 279.2 299.9 319.3 339.9 348.7 356.9 367.6 376.8 372.6 363.8 352.7 343 328.7 326.7 324 319 311.9 304.6 294.7 283.5 268.2
264 248.8 234.2 221.3 225.8 217.6 220.8 209.5 222.3 261.2 279.5 278.9 278.1 276 274.4 273 272.2 271.4 270.4 268.2 264.9 262.7 260.6 257.6 254.3 253.2 250.9 249.3 245.4 241 233 234 231.6 233.6 233.6 233.3 233 232.9 233.3 233.9 234.3 234.9 235.5 236.3 232 236.3 236.7 234.2 233.1 235.4 238 244.3 246.7 250.5 254.3 257.1 259.7 262.7 262.8 264.6 267.5 271.6 282.7 290.7 300.6 309.8 320.9 327.8 333.1 340 338.5 356.1 376.4 399.8 414.3 423.4 428.5 431.5 434.5 438.4 444 448.7 453.6 457.5 459.3 462.2 464.5 466.9 470.4 473.1 474.5 475.5 476.2 474 469.3 465 459.8 453.1 446.9 443.9 445.2 447.8 456.5 463.7 468.3 471.4 473.4 475.4 476.7 474.9 471.4 467.7 465.3 462.8 461.9 463.5 465.3 464.1 460.7 454.1 443.1 431 428.7 437.2 449.6 461.1 466 465.8 461.5 458.8 455.9 454.7 454.2 453 451.3 447.8 447.3 447.6 447.2 446.9 446 443.4 439.6 433.1 422.3 414.9 409.4 405 400.7 400.5 402 404.3 406.5 407.4 410.7 415.3 421.7 428.3 433.9 433.3 429.6 421.4 410.1 395.8 380.7 360.2 344.6 344.6 343.1 342.3 336 319.1 297.8 291.5 275.1 256.9 239.1 229.6 231.1 250.9 270.7 293.2 314.9 336.5 347.2 356.3 364 361.7 353.8 346.2 334.9 335.4 333.7 329.5 322.3 314.4 305.8 295.5 284.5 273.6
257.8 241 224.9 216.5 216.4 212.5 213.5 218.3 251.3 275.7 275.9 275.7 275 274.9 273.5 270.9 269.7 269.4 269.5 268.2 264.4 260.5 258.8 255.4 252.6 249.5 244.1 243.8 241 236.6 230.2 232.6 229.7 232.3 232.3 232 231.7 232.1 232.6 233.1 233.4 234.1 234.7 235.6 231.7 230.3 229.6 235.7 241.9 243.8 243.1 244.7 244.9 248.2 251.2 253.8 256.7 259 260.6 259.9 259.6 259.4 266.7 280.9 288.6 292.6 308.2 317.7 311.9 331.4 344.4 358.3 382.5 395.8 407 418.1 424.9 430 432.4 436.8 441.9 445.7 449.2 451.8 453.7 455 456.9 461 464.5 468.3 470.8 472.8 473.6 471.2 467.2 462.6 457.3 450.4 447 447.4 448.4 452.5 460.6 467 472.1 475.1 475.8 475.2 474.9 471.3 469.5 464.4 459.1 456.7 454.6 455.4 456.7 457 453.9 448.1 435.7 421.6 426.2 434.8 447.7 457.1 460.1 457.6 453.5 449.5 446 444.6 443.3 441.7 440.6 438.2 437.9 440.9 443.5 445.8 445.3 443.6 440.1 432.9 428.5 425.9 421.4 417.3 415.9 416.6 419.9 422.8 427 429.6 432.3 437.1 443.4 450.5 454.2 451.1 443.8 433 419.2 403.5 384.3 369.8 353.5 358.1 357 351.6 342.4 330.8 321.9 314.8 293.7 277.3 262.5 245.4 225 225.9 245.5 267.1 286.2 309.3 330.3 342.9 347 347.7 343.6 337.9 340.2 339.2 336 330 322.5 313.6 304 290.9 283.5 276.1
253.9 236.9 221.2 214.9 214.4 215.1 211.4 240.4 268.7 270.9 271.5 271.8 271 271 270.9 269.4 267.3 265.9 267 266 263.6 260.2 256.1 253.3 250.5 246.9 240.1 235.8 234.4 231.7 228 228.9 229.4 231.4 231.1 230.8 230.7 234 234.3 234.4 233.9 233.3 234.3 231.7 229.6 237.4 239.5 241 244.5 247.8 248.2 246.1 244.5 245 247.5 249.2 251.3 253.3 254.9 255 251.8 250 257.5 265.2 279 291.8 292.9 304.6 319 328.8 349.5 368.1 382.9 395.6 404.6 411.8 416.6 423.9 428 430.5 435.3 438.8 441.5 443.7 445.8 446.5 447.9 451.8 457.5 463 466.8 469.5 469.7 467.7 464 459.6 454 449.2 448.9 449.6 450.5 456.7 463.4 469.8 473 474.4 474.3 472.9 470.7 467.7 464.8 459.7 454.3 450.4 447.7 449.6 451.3 450.4 446.7 440.2 426.7 410.6 423.4 432.6 442.2 448.3 449.1 447 444.3 440 436.9 435.7 434.1 431.2 429.1 427.6 429.2 433.3 438.8 442.9 444.9 443.5 440.9 437.3 437.7 434 432.2 430.6 431.3 435 439.5 445.5 449.2 451.7 454.1 461 465.5 468.2 467.5 461.5 450.5 438 422.6 405 385.9 373.9 368.7 366.6 363.1 355.5 348 339.8 332.4 325.4 315.3 297.7 280.7 263.7 247.2 223.3 222.3 242 260.6 282.3 307 328.2 337.3 335.4 335.6 340.5 341.1 338.8 335.8 329.3 320.6 310.3 300.3 290.1 283.9 276.4
251.1 233.9 217.9 213.8 213.9 213.5 229.6 258.8 263.8 265.1 266.2 266.6 266.6 267 267 266.7 266.6 264.6 261.7 262 260.8 258 254.9 251.4 246.5 245.9 240.8 235.5 232.6 229 229.2 227.8 228.6 229.9 229.7 229.3 233.9 234.8 235.2 235.5 234.9 233.8 233.1 227.4 232.5 237.6 238.8 240.1 241.6 244 246.9 250.1 248.7 246.4 245.5 245 246.3 248.7 249.2 247.2 245.6 249.7 255.1 262.6 274.2 284.4 295.3 303.6 312.5 331.3 344.3 360.4 374.3 386.9 397.4 404.5 412.9 414.9 416.8 422.3 425.7 428.8 431.9 434.2 435.7 436.5 438.4 442.8 450.1 457.4 462.5 465.7 465.4 463.3 459.4 455.6 451.8 449.9 450.3 451.5 453.4 459.1 464.8 468.6 470.4 470.6 468.9 467 464.7 462.8 461 457.8 453.3 446.3 439.9 442.3 443.1 441.5 438.6 431.6 418.3 407.7 418 427.6 433 436.4 436.6 436 433 429.4 426.5 423.9 422.2 418.4 416.7 416.1 419.3 426.3 432.7 437.3 441 440.8 439.5 441.4 442.8 442.7 442.9 444.3 448.5 452.6 458.4 463.1 466.2 468.8 473 477.1 477.9 478.3 473.8 463.5 451.8 437.2 421.1 403 389 382.4 376.7 369.5 364.1 358 351.4 343.7 337.8 333.5 327 314 295.2 281.9 261.2 241.9 218.4 230.5 243 262.9 287.4 313 323.4 328.4 334.6 338.7 338.7 336.1 332.8 324.3 315 305.4 294.2 289.6 282.7 274.1
250 232.6 216.6 211.6 209.9 203 224.5 257 252.4 258.2 261.9 262 261.7 262 263.2 262.9 262.9 262.6 260.1 255.1 256.3 255.3 252.5 249.5 246 244.2 239.6 235.1 231.2 229 226.8 225.3 227 228.1 228.2 229.5 233.1 234.7 235.3 235.5 235.3 234.2 233.1 229.5 224.3 235.7 236.9 238 239.1 240.9 243.5 246.2 248.9 249.3 246.3 243 241.4 242.4 243.1 241.8 243.4 247.3 252.9 260.6 269.9 278.4 288.6 296.5 304.6 319.9 332.1 343.9 356.8 370.9 382.1 392.4 400.5 403.2 407.8 413.2 417.3 419.7 423.3 427.4 430.2 431.5 429.5 434.4 442 450.5 456.9 459.9 459.8 458 455.2 452.4 451.6 451.3 451.7 453.1 456.3 460.6 463.6 465.7 465 463.5 461.2 459.7 458.3 458.1 457.1 455.9 452.8 444.6 433 433.4 433.5 432.2 429.1 423.1 412.2 402 410.4 418.5 421.4 423.5 424.2 424.3 421.5 417.2 413.3 410.2 408 405.6 404.9 404.5 410.2 418.4 426.3 431.9 435.6 435.8 438.4 444.2 446.9 449.2 452.5 456.8 461.3 464.7 469.8 473.5 475.5 478.3 482.2 483.7 482 477.3 470.2 459.8 446.8 433.2 418.1 401.9 389 380.4 373.7 366.9 360.3 355.2 351.4 344 339.2 337 329.5 318.8 305.8 291 273.8 250.5 221.5 217 231 249.4 272 295 312.6 325 332.4 337.5 338.6 335 328 321.1 310.9 301.7 293.2 285.7 277.8 270.8
249.6 232.4 216.6 211.1 206.2 203.7 196.9 219.3 258.7 251 258.2 259.3 258.7 258.2 257.6 258.5 258.5 258.7 258.9 255.9 251.8 251.7 250.7 247.2 244.1 241.3 239.1 234.8 231.3 228.1 226 224.4 224.8 226.7 227 230.5 232.1 233.3 233.8 234.3 234.2 233.5 233 232.8 221.3 231.6 234.2 235.4 235.7 237.3 238.8 241 242.2 245.3 245.4 242.1 237.4 236.4 235.5 237.6 240.8 244 249.6 257 264 272.4 279.4 285.7 296.7 309.3 319.2 332.2 341.4 351 361 370.3 378.4 387.1 395.9 404 409.3 411.8 417 421.8 424.7 424.2 421.9 425.3 432.1 440.6 447.3 451 451.5 452.1 450.9 450.7 451.7 453.1 455.2 457.8 459.6 461 462.3 461.5 459 456.1 453.5 450.7 450.3 452.4 454.7 455.5 454.2 449.6 438.8 421.8 422.7 422.4 419.9 414.5 404.9 395.2 401.2 406.3 410.3 413.2 413.5 412 409.1 404.9 399.8 396.4 395.2 393.8 393.4 394.9 402.3 410 417.4 423.6 428.1 429.4 436 443.3 449 455.1 460.5 464.8 468.1 471.6 476.3 479 480.5 481.4 482.6 481.2 475.8 469.7 462.4 451.8 440.9 428.6 413.9 398.8 384.7 375.1 366.9 359.8 354.3 350.1 345.7 338.1 335 330.2 323.8 315.7 305.5 294.3 280.7 267.3 245.7 215.9 217.5 230.8 256.1 283.2 307.1 320.6 329.1 337.1 337.2 332.4 326.7 317.1 308.1 299.1 291.7 285.1 276.8 270.1
250.5 233.7 218.2 214.8 206.4 204.6 202.1 204.5 243 255.3 256.2 256 255.2 254.5 253.7 254 253.1 253 253.5 253.9 253 247.9 250.2 249.3 243.2 239.2 234.9 232.6 231.6 227.9 226.4 224.7 223.2 225.6 224.7 229.2 231 231.7 231.5 231.7 232.2 232.3 231.6 231.1 221.4 226.2 230.4 232.3 232.5 233.6 233.6 234.1 235.4 237.7 238.4 236.7 233.6 230.7 231.7 234.4 237.4 240.1 244.8 253 260.9 266.8 272.3 279.5 287 294.9 307.3 319.5 332.8 342.9 351.7 361.3 371.8 381.4 389 395.9 401.1 405.6 410.4 412.9 414.4 413.9 412 413.5 419.1 427.8 435.7 439.3 445.1 446.2 446.8 449.3 452.7 456.2 460.4 462.2 461.8 459.6 458.1 455.7 451 448 444.6 442.2 445 448.9 452.6 455.3 456 453.3 445.8 431.6 413.8 413.1 410.5 406.8 401.1 391.9 391.2 398 402.1 405.3 403.5 400.5 396.6 392.1 388.1 383.7 383.8 382.2 381.9 385.5 391.2 399 407.2 413.6 417.5 424.8 435.5 444.6 451.4 459.7 466 469.8 473.1 476 478.7 479.1 480 478 473.6 468.9 464.6 457.9 450.4 442.7 434.2 423.5 409.7 396.2 382.3 370.4 361.4 353.9 347.1 343.4 338.7 330.6 326 320.7 316 309.8 302.2 293.9 284 271.5 250.8 235.8 216.8 211.7 251.3 277 298.1 314.4 325.1 334.8 334.4 332 323.2 313.4 304.6 295.1 285.7 279.6 273.6 269.6
252 235.5 220.9 217.5 207.9 204.4 203.4 188.2 214.8 253.8 245.3 252.1 250 249.5 249.4 248.4 247.3 248.2 249.1 249.8 250.1 247.2 244.2 247.3 246.7 240 234.2 230.9 229.8 228.4 227.7 226.4 223 223.1 224.2 227.1 229 230 229.5 228.7 229.1 229.2 229.4 228.3 227.4 222.2 224.6 227.6 229.2 229.9 229.3 229.2 229.1 228.8 229.4 228.8 227.5 226.6 229.5 231.7 234.1 238 243.1 250.3 256.7 262.1 268 275 280.9 287.7 294.8 305.9 318.4 329.6 343.1 354.5 366.3 376 382.9 388.3 392.9 397.1 401.4 403.3 404.1 402.8 400.9 401.4 407.4 414.9 422.2 430.8 435 438 438.7 448.2 453.4 458.9 463.2 463.5 459.9 455.6 450.9 447.6 442.5 437.8 434.7 435 438.6 441.9 446.7 449.6 451.1 449.8 444.6 437.5 427.8 411.8 401.3 397.3 393.5 388.3 381.4 386.2 389.6 391.2 390 387.4 383 379.8 376.3 372 370.6 370.1 368.8 374 380.9 389.1 396.2 402.5 409.4 420.8 433.8 445 453.5 463 470.6 474.2 477.2 478.5 477 475.6 472.3 466.3 459.3 453.6 448.1 442.6 436.8 432.1 425.6 417.4 406 393.5 381.5 370.9 360.1 350.5 340.5 334.1 328 322.8 317.9 311.8 306.9 302.4 298.3 292.1 284.3 273.2 252.7 239.6 231.6 209 242.8 271.7 292.7 307 321.7 330.8 332.1 328.7 318.8 312.1 301.4 290.8 283.2 277.7 273.7 269
252.8 238 225.7 221.6 213.1 204.2 202 188.6 196.9 249.2 245.4 246.3 245.3 246.2 245.9 245.2 243.1 243.5 245.4 246.6 246.5 245.9 242.7 241.4 244.1 243.4 237.7 231.4 229.8 229.3 230.6 230.8 228.8 221.2 223.1 226.7 227.2 228.2 228.2 227.2 226.3 225.6 225.2 224.3 222.7 222.4 218.8 224.1 225.6 225.2 225.6 225.1 223.1 221.7 223.8 223.7 224.6 226.5 227.7 229.7 233.7 238.3 242.8 247.9 253.2 258.4 264.1 270.5 275.5 281.2 286.3 293.7 303.3 315 326.5 338.2 350.6 360.8 369.5 377 381.4 387.1 391.1 393.1 393.2 391.9 388.4 391.1 397.2 403.4 411 418.9 425.4 427.9 437.1 446.5 451.9 457.2 460.2 457.9 454.2 448.8 443.2 436.9 431.7 426.3 422.5 425.4 430 435 439.7 440.9 444.1 445.8 445.3 440.1 432.6 420.8 408.1 399.9 393.1 387 377.1 373.9 375.8 377.2 375.6 373.7 369.2 366.4 362.8 358.2 354 353.9 352.1 359.3 368.7 376.9 383.3 387.7 400.6 414.8 430.5 443.9 454.7 463.8 472 478 479.5 477.4 474.1 469 462.5 454 445.3 437.4 430.7 426 422.7 419.3 415.2 409.9 400.4 391.9 382.6 371.4 359.9 349.3 339 330.2 320.4 314.3 308.3 303.6 299.4 295.8 293.2 288.6 283.9 274.9 258.2 243.9 224.4 206.3 236.7 263.8 283.3 299.7 315.6 325.2 329.2 325.4 318.6 310.5 297.9 288.5 282.4 278.5 273.6 266.7
257.3 242.7 229.8 224.9 220.2 210.9 203.5 200.2 203.3 214.5 245.4 243.9 238.7 241.4 241.5 241.7 241.4 241.8 243.7 243.9 243.6 243.9 241.5 238.3 237.6 238.1 238.7 234.4 230.4 231.2 233.8 233.1 231.1 227.1 221.5 221.6 222.3 225.7 227 226.1 223.9 222.3 221.5 221.7 221.7 219.7 215.6 219.7 220.3 219.8 219.8 219.2 220.3 221.3 222.3 223.2 224.4 225.3 228.3 231.2 236.3 239.8 243.3 246.8 250.7 256.1 261.4 266.8 270.7 275.5 281.1 286.7 291.5 299.1 310.4 320.2 329.8 336.2 345.1 356.6 368.7 373.9 377.6 379.6 379.1 380.5 378.8 387.1 389.8 394.2 401.1 408.5 413.7 425.3 435 441.8 447.7 452.2 453.8 450.7 446.9 442.1 436.3 428.9 422.5 417.7 412.9 417.2 422.3 426.8 430.2 434.6 438.7 442.3 442.3 437.9 432.9 427 418.8 411.2 403 396.2 390.7 383.9 376.2 365.4 363 358.2 354.8 351.5 345.8 345.3 341.1 336.2 338.3 341.8 353.2 360.9 371 386.5 399.2 414.8 431.7 446.9 457.1 464.6 472.7 478.8 479.2 475.3 470.6 463.2 454 443.6 434.1 422.8 414.9 405.6 404.5 403 402.5 399.9 395.8 392.4 383 369.2 357.5 347.1 336.8 327 316.6 306.9 299.3 295.3 292.4 288.8 286.6 284 281.9 277 263.4 248.5 234.3 201.5 223.7 253.2 274.1 294.2 308.9 319.1 323.3 322.1 312.7 308.8 298.6 288.8 281.6 276.1 269.1 261.9
262.5 249.6 237.3 229 225.3 222.3 218.5 216.7 219.9 223.3 239.6 242.1 242 232.5 238.3 239.2 239.8 240.5 241.4 242.2 242.8 243.5 240 238.4 236.9 235.3 234.6 233.2 232 233.2 234.7 234.1 233.1 231.6 228 220.6 218.7 217.1 221.9 224.4 223.6 221.4 220.7 220.6 220.7 219.3 214.6 217.7 218 218.7 217.5 218.6 219.2 220.7 221.7 222.8 224 227.3 230.1 233.5 236.7 240.4 243.6 247.2 251.4 254.7 258.3 263.4 266.6 268.6 272.9 279.4 280.7 282 293.9 301.7 311 321.2 327.9 336.3 346.2 354.9 359.4 362.8 366.8 367.1 373.9 377.9 383.5 390.5 396.5 402.7 414.8 424.2 430.9 435.6 438.3 442.3 444 443.4 440 435.6 429.5 422.1 412.2 409.5 403.7 408.4 410.5 414.5 421 425.9 430.2 433.7 435.6 433 430.2 429.1 427.2 421.6 413.4 407.1 401.3 396.9 390.7 382.7 376.2 374.4 372.7 370.5 368.4 364.7 360.4 353.5 342.8 328.2 336.8 355.5 369.8 385.5 399.8 417.9 434 445.6 455.8 463.9 470.5 475.5 475.5 472.3 466.6 458.4 447.6 433.8 420.9 412.1 395.3 386.1 383.7 383.6 386.1 389.5 390 386 376.5 363.1 351.8 342.1 331.4 320.7 311.2 303.5 294.9 287.3 284.9 283 281 280.3 279.2 276.3 268.9 254.1 238.9 214.2 202.1 236.7 264.3 287.7 302.6 311.9 319.4 318.9 310.9 302.8 294 287.5 280 271.7 264 254.3
262.8 256.9 246.2 235.3 226.1 226.4 228.3 229.9 233.4 235.3 243.4 242.1 239.5 234.4 235.5 237.4 238.6 240.4 241.4 241 241 242.7 241.2 239.2 236.3 235 233.7 232.6 234.2 235.4 235 235.3 234.4 233.1 230.3 227.4 224.6 219.7 216.5 215.3 220.6 220.4 220.1 220 219.7 219.2 217.2 216.7 216.4 218 218 218.6 219.5 220.4 221.6 222.9 225.3 228.4 231.6 234.7 238.2 241.8 245 247.8 250.9 253.7 256.7 260 263.2 265 267.6 271.5 272.3 271.8 278.9 290.7 299.1 305.1 313.5 323.1 330.8 339.3 347 351.8 354.6 350 362.3 369.8 379.9 386.4 393.8 402 410.4 418 423 425.7 429.3 433.6 436.3 436 432.1 428.4 423.4 416.4 410 403.1 396.8 398.8 400.6 405.3 411.3 417 421.9 427.3 424.9 422.8 423.6 429 435.7 433.6 428.2 420.4 414.9 410.2 403.4 396.2 391.2 390.1 389.7 388.2 384.8 379.5 374.5 367.2 352.6 327.1 336.7 351.6 367.7 385.1 402.1 418.5 433.1 443.3 452.2 459.3 465.7 468.3 468.3 464.5 459.6 454.4 446 435.7 425.6 414.4 404 392.3 381.2 365.6 366.3 374 376.9 372.3 363.2 352.4 343.7 334.8 325.2 316 306.8 296.8 290.9 284.3 277.3 276.1 275.3 276.6 276.7 273.6 269.7 257.1 242.8 224.4 196.5 225.8 257.5 282.6 298.1 306.2 310.1 307.2 302.4 295.4 289.4 284 275.9 269.1 260.3 246.9
263.2 259.5 253.9 242.5 232.1 227 229.9 233.9 241.1 244.6 244.5 247.1 244.6 238.8 231.4 233.5 238.2 240 241.3 240.3 239.7 240.1 240 238.6 236.8 234.7 233.8 233.8 234.7 235.4 235 233.9 233.8 233.5 231.7 228.7 225.5 222.7 219.1 217.6 213.7 216.2 218.3 218.7 218.5 219.1 215.5 219.2 220.7 221.1 220.8 220.4 220.1 220.8 222.3 223.8 225.9 228.9 232.3 235.3 237.8 241 244.5 247.1 249.8 252.4 254.6 256.6 259.1 261.8 264.7 267.1 268.7 265.3 270.3 275.1 282.4 290.7 301.4 308.2 318.1 327.6 334.7 338.9 342.1 332.4 356.9 368.4 377.4 384.7 390.8 397.9 403.7 410.3 415.3 420.8 424.2 427.5 429.4 429.8 426.5 422.6 418.2 411.7 405.5 399.4 391.4 386.4 392.5 396.3 402 408.5 411.3 413 412.9 414.2 420.2 426.7 432.7 439 439.6 435.7 431.8 427 419.5 412.7 407.4 404 402.4 398.8 393.8 389 383.1 374 355.3 330.5 331.1 347.4 365.7 385.6 401.4 417.4 429.2 437.9 445.7 452.3 455.6 456.8 455 453.7 455.3 454 448.9 442.1 434.1 422.8 412 399.7 386.2 372.5 357.1 350.3 357.3 355.1 348.4 340.8 333.4 326.3 317.4 308 297.5 291.9 285.8 279.7 274.2 268.5 270.2 273.2 271.7 268.3 265.8 257.7 245 226.2 195.5 220.2 252.7 278.6 294.3 300.3 303.5 300 296.1 291.2 282.7 276.7 270.3 261.5 250.4 232.4
263.5 260.2 254.7 246.5 236.5 230.1 230.8 236.6 240.6 241 244.1 245.1 245.4 241.1 237.5 230.3 238.1 239.3 240.8 239.9 239.2 238.7 238.5 237.6 236.3 234.6 234.7 234.1 233.7 234 234.3 233.3 232.4 232 231.1 228.9 226.5 223.8 220.3 218.7 215 212.2 210.6 215.3 214.6 214.7 210.9 216.6 219.4 220.6 222.1 223 223.2 223.3 223.9 225 227.1 230 232.6 234.7 237.2 239.5 242.7 245 247.2 248.9 251.5 253.7 256 258.9 261.4 262.8 267.7 266.3 262.5 266.6 270.9 278.2 292.8 300.6 307.2 313.2 313.2 323 322.4 340.2 353.6 364.4 374.2 382.2 389.6 394.2 399.2 403.9 410.1 414.7 417.4 419.1 419.9 418.3 415.3 413 410.8 406.6 397.3 389.7 381.9 372.6 384.4 390.3 394.3 397.3 400.1 400.5 405.1 410.8 418.6 428.9 437.1 442.9 446.2 446.2 443.5 438.6 432.4 427.1 421.3 414.6 407.1 402.2 397.7 392.5 387.7 378.4 357.2 332.3 323.6 340.2 360.8 381.3 398.4 412.6 422.7 430.3 435.1 439.4 439.4 438.9 439.3 444.7 453 456.4 455.5 450.3 441.2 431.4 420.9 408.5 392 374.1 357.7 336.4 332.1 337.6 333.9 328.7 323.1 316.2 307.4 299.4 293.3 287.2 279.2 273.5 270 265.9 266 268.2 269.4 271.7 266.8 259.9 246.5 227.7 195.1 217.2 251.4 273.3 283.3 290.1 293 289.8 289.3 284 276 267 257.9 247.8 236.7 213.7
262.3 259.2 255.1 243.7 236.5 230.8 232.9 236.2 238.6 237.3 238.8 239.1 239.4 238.9 235.6 233 237.3 238.3 240 239.8 239.2 236.8 235.1 234.4 233.7 233.7 233.7 233.9 233.2 232.1 232.2 232 231.1 230.4 229.1 227.9 226.8 225.2 221.4 218.7 218.2 213.9 212.6 210.2 213.7 212.8 209.5 211.7 214 217 218.7 220 220.7 222.8 224.1 225.8 227 229.7 231.8 233.9 236 237.8 240.2 242.3 244.4 246.3 248.3 250.4 252.5 255 257.7 257.6 263.1 266.8 260.8 254.3 262.2 266 274.9 288.1 297.7 282.2 310.9 318.1 327.8 340.9 352.8 361 367.8 376.2 380.7 387.3 391.7 395.2 399.4 403.6 405.8 405.2 406 404.4 402.9 401 398.3 393.1 385.8 376.3 374.5 363.5 377 383.1 388.4 389.1 389.4 397.1 405 415.2 424.4 433.2 441 446 447.9 446.6 445.6 441 434.1 428.5 421.5 412.5 405.2 401.6 399.6 394.4 388.4 379.8 358 330.3 318.8 334.2 352.9 374.6 392.8 405.5 413.4 419.9 420.7 418.4 416.9 416.2 426.3 443.2 453.9 458.1 458.9 452.8 442.2 434.5 425.7 410 392 373.2 355.3 338.2 316.6 317.1 320.5 316.9 310.6 303.3 296.7 292.4 287.9 281.7 274.4 268.8 264.1 258.7 259.5 264.7 267.7 267.7 266.3 260.6 246 224 194.6 218.4 248 258.6 263.9 266.9 269.9 274.5 275.1 270.8 264.5 254.2 243.3 233.8 217.2 194.6
260.4 257.7 254.2 243.1 236.7 232.4 233.2 235.3 235.9 231.7 233.9 235.4 234.6 233.6 232.1 225.9 235.3 237.1 239.1 239.6 238.6 235.3 232.4 231.3 231 231.2 231.8 231.9 231.9 231.7 231 230.1 229.2 227.8 226.5 225.9 225.4 224.5 222 218.2 217.3 215.8 216 210.6 208.9 212 210.2 207.3 209.8 209.3 210.6 211.9 215 216.7 219.9 222 224.5 227.2 229.9 231.9 233.8 235.3 237.5 239.2 241.4 243.5 246.1 247.7 249.1 250.8 253.3 253.1 257.2 261 255.8 251.6 252.7 256.7 262.9 271.4 272 291.4 300.8 311.2 322.8 332.7 342.5 350.8 355.4 362.8 368.9 373.5 376.7 382.4 386.7 389.3 390.3 389.9 390.3 389.8 388 385.9 383.2 378.7 374.9 370.9 362.3 363.7 367.7 371.9 375.9 383.7 390.7 398.5 408.1 417.6 426.1 433.9 440 443.1 442.9 441.5 439 434.3 427.6 419.2 410.2 402.2 401 399.7 398.1 393.3 386.7 377.4 360 331.7 311.3 328.3 346.2 366.8 384.7 397.1 403.8 405.8 401.2 394.8 387.8 404.9 425.1 441.2 452.4 458.5 455.5 449.8 441.9 434.6 423.8 405.4 386.2 368.2 352.4 337.3 323 303.1 304 302 296.5 291.6 288.3 284.9 281 275.5 270.1 264.5 259.3 245.1 246.5 258.4 263.2 264.8 264 258 246.4 222.3 188.7 212.5 234.8 236.6 239.3 242.1 247.1 252.8 256.9 256.8 250.9 239.5 228.1 208.3 193.5 191.8
259.3 256.6 254.3 245.1 236.2 234.2 232.6 232.1 231.4 230.6 227.8 230.1 230.2 230.2 229 226.4 232.5 234.6 237.1 238.8 237.6 233.9 231 230.3 229.6 229.2 229.1 229.5 230.6 231.1 230.9 229 226.7 225.7 223.9 223.6 222.7 222 219.4 217.6 216.1 215.5 215.2 212.8 210.5 209 210.2 210.3 209.6 205.3 209.8 208.6 199.9 203 215.1 218.8 221.8 224.6 227.3 229.6 231.6 233.4 235 236.1 238.3 240.6 243 244.7 246.2 247.6 248.6 248.9 250.9 251.1 248 245.6 243 248 254.2 258.4 267.8 281 292.6 302.7 313.4 320.7 327.4 333 341.8 346.8 349.7 351.1 358.2 368.6 374.4 375.8 375.3 373.2 372.5 374 373.8 372.2 368.5 364.4 359.1 355.5 355 351.4 362.6 370.5 376.3 383.2 388.5 396.8 406 414.7 422.9 430 434.6 436.4 435.2 433.9 429 420.1 412.9 405 397.7 394.7 394.6 394 394.5 389.4 383.5 374.4 360.6 333.3 308.1 321.8 338.4 355.6 372.7 382.1 388.6 386 377.7 375.9 385.4 405.4 424.1 439.7 449 451.9 450.6 446.7 440.7 431.3 415.9 396.1 376.9 358.9 344.5 332.4 319.4 305.2 293 284.9 285 284.2 281.3 277.6 273 268.8 264.4 258.3 249.3 234.2 226 246.8 256.7 258 256.1 251.6 243.3 223.4 187.6 206.5 211.1 208.1 212.7 214.1 222.8 230.1 235.9 237.1 231.7 221.3 207.3 189.3 189.8 192
259.1 256.4 253.7 249.1 240.2 235.7 234.8 230.7 230.6 230.4 228.7 224.4 227.8 222.1 221.2 229.3 230 232.5 234.4 236 236.6 233.3 229.8 229.8 229.1 229.1 229 228.7 228.4 228.7 229.7 229 227.4 223.7 221.5 219.9 219.1 218.3 216.1 215.5 213.6 213.2 213.5 213.7 214.8 216.8 218.1 217.6 217.8 218.4 218.6 217.3 212.1 204.7 202.5 213.4 218.7 221.4 223.3 225.7 227.9 230.6 232.2 233 235.4 237 239.5 240.1 244 244.4 245.9 244.8 245.8 244 241.6 239 239.3 244.2 248.4 255.9 265.1 273 280.3 291 301.5 309.4 316 322.5 328.3 332.4 338.5 343.4 347.1 350.3 358.7 361.8 361.8 358.7 359.5 361.1 361.2 359.4 356.3 345.7 338.7 345.5 352.7 362.3 366.6 371.6 376.9 381.5 386.6 393.7 401.8 408.7 416.8 423.8 427.5 427.8 425.7 423.4 418.3 411.2 404.1 396.2 387.5 385.1 385.9 386.9 387 382 375.8 368.4 358.1 333.4 303.2 315.5 328.3 341.9 355.8 363.9 369.2 367 361 370.1 387.6 405.9 424.8 437.8 444.7 447.6 446.7 443.1 434.8 420.8 403.7 384 364.6 347.7 334.9 324 310.6 298.4 287.6 275.8 265.9 275.7 274.8 271.3 266.3 259.6 252.3 244.8 236.7 231.8 210.4 234.1 241.9 243.5 241.9 238.1 232.2 220.6 187.9 186.4 187.1 188.8 189 190.3 194.4 202.6 206.7 210.8 208.8 198.4 188.5 191.6 201.2 208.5
258.9 256.6 253.6 249.4 247.3 245.6 241.7 237.5 232.5 230.1 228.6 226.3 224 224.5 227.3 228.2 228.5 229.4 231.1 232.4 233.6 233.3 230.4 229.6 228.7 228.9 228.6 228.2 228.1 227.8 227.4 226.9 226.6 223.9 221.1 219.5 218.9 218.3 216.9 215.8 216.5 216.1 216.3 217.7 219.8 220.7 221.4 220.8 219.8 219.5 219.5 218.8 215.4 195.5 203.4 216.6 215.4 219 220.5 221.4 222.8 225.6 227.2 229.1 231.3 233 233.7 236.3 238 238.1 241.1 239.6 239.8 239.1 237.2 235.7 237.1 241.8 243.9 254.1 260.4 265.9 271.2 278.9 287.5 297 306.4 313.9 323 329.9 334.2 333 337.9 343.5 348.3 351.6 354.5 352.7 351.6 351.4 352.1 350.9 340.7 334 346.6 356.5 367.1 372.7 372.7 373.4 375.4 377.7 382.9 388.2 394.2 401 407.7 414.5 417.9 417.2 414 410.3 409.2 405.6 397.9 391.3 383.3 376.5 377.2 377.9 377.7 374.1 366.4 361.8 353.7 334.1 302.6 309.1 316.1 328.9 340.7 348.5 351.2 348.1 345.3 372.5 387.8 406.8 424.2 434.2 439.3 442 442.8 435.2 422.9 409.4 389.9 372.1 354.8 337.8 324.3 310.5 300.3 289.3 279 271.8 247.8 257 265.7 263.1 253.4 240.3 228.2 220.9 216.5 216.8 201.9 220 225.1 224.3 224 220.5 217.2 204.9 187.1 187.7 184.8 185.1 186.3 189.7 190.5 190.7 190.9 190 189.9 187.4 191.7 201.6 214.1 221.7
258.9 257.3 255.9 256.2 257.5 258.1 256.3 250.8 243.6 238.2 232.5 224.6 219.8 225.5 228.2 228 228.1 228.4 228.9 229.4 230.7 230.9 230.2 228.6 227.7 227.8 227.7 227.6 228 228 226.9 225.4 224.3 224.2 223.4 222.2 222.3 222.3 222.3 221.1 219.7 220 220.2 221.3 222.4 222.9 223.2 222.2 220.4 218.7 217.7 217.1 210.6 201.6 206.4 218.2 216.9 217 218.2 219.4 220.5 222.4 224.1 226.2 227.4 228.7 229.7 231.3 232.1 232.4 232.9 232.8 232.2 231.9 232.4 231.9 234.7 237 245.5 250.8 254.5 258.4 265.1 271.1 278.3 287.7 291.4 303.4 311.6 318.9 321.2 323.4 328.9 337.1 342.9 347.7 350.7 348 343.8 343.7 341.6 329.7 320.2 339.8 352.3 363.9 377.7 381 379.5 375 373.3 373.3 376.2 381.5 386.3 391.6 397.8 403 404.5 404.8 404.6 405.7 403.8 398.1 392.9 387.8 381.8 375.2 365.2 366.1 365.5 363.9 358.2 353.3 348.4 336.9 313.6 302.9 311.1 317.9 328.1 335.2 335.2 332.6 356 371.1 388.3 405.5 419.7 426.9 430.8 434.7 432.2 421.3 409.1 394.4 378.3 361.2 342.2 325.3 312.3 300.7 291.1 280.5 270.3 264.2 247.5 240.6 254.4 240.3 224.5 208.6 195.7 185.1 186.5 189 196.8 198.1 198.7 201.4 200 196.3 193.4 187.4 182.5 186.6 191.8 201.2 197.8 193.4 189.6 185.8 186.2 186.6 186.7 191.1 208.8 219.8 234.3 239.4
259.4 260 262.9 264.1 264.9 267.7 266.4 261.5 254.2 245.2 234.3 225.1 210.2 213.8 225.8 228 228 228.3 228.3 228 228.3 229.3 229.1 227.7 226.9 226.5 226.7 227.7 228.1 228.6 227.4 227.1 226.3 226.6 227.2 226 225.5 225 224.6 223.8 223 222.7 223.5 223.6 223.8 223.3 222.5 221.3 219.4 217.3 215.6 214.5 204.4 196.2 207.5 218 217 216.8 218 219.4 220.6 221.3 222.4 222.8 225.6 225.8 226.8 227.7 228.3 228.4 228.9 229.5 228.4 227.9 228.4 229.1 231.5 237.4 241.4 244.3 247.6 250.3 258.2 265.2 270.4 276.8 282.7 291.7 300.4 306.7 311.8 314.1 319.1 325.3 332.3 337.1 339.4 337.2 331 331.9 327.6 322.5 335.5 346.7 359.4 374.7 381.8 383.7 381.2 376.4 372.2 369.2 368.6 371.7 375.6 380 385 389.9 393.3 396.5 398.4 400.4 399.4 394.2 389.5 385.4 380.8 374 365.6 356.6 353.1 350.8 347.4 343.6 339 333.1 321.2 297.3 304.8 309.7 313.2 318.2 321.2 341.2 360.5 374 388.2 402.6 413.5 419.5 423.2 422.6 418.6 409.2 396.1 382.6 366.9 347.9 329.3 314 301.7 291.8 282.7 272.3 263.5 254.2 236.1 228.4 234.2 209.1 188.1 179.7 179.8 180.2 182.5 185.4 185.7 184.5 185.5 185.7 187.3 186.4 185.8 184.5 184.8 195.1 207.4 215.4 219.9 218.3 216.8 214.3 211.3 210.7 214.2 211.5 207.1 237.3 243.7 246.4
262.5 264 267.7 270.2 272.2 273.4 271.9 265.6 256.1 247.4 231.5 223.9 221.7 220.9 225.4 226.7 226.7 227.2 228 227.5 227 227.3 227.6 227.2 226.1 224.8 225.7 226.4 227.7 228.5 228.2 227.9 228.7 229.9 231.1 230.3 228.2 227 225.7 224.5 223.5 222.8 222.9 223 222.6 221.4 219.5 218.7 216 214.5 212.5 209.6 200.2 199.4 214.4 217.3 217 216 216.5 217.9 219.8 221.2 221.7 222.2 223.2 223.9 224.3 224.6 225 225.5 225.7 224.7 225.3 225.3 222.5 228.5 233.4 235.7 238.2 240.5 242.9 247.2 252.5 257.8 262.7 267.6 273 281.5 292.1 299.2 305.7 310.3 311.9 315.1 320.1 324.8 327.5 328.2 324.6 318 312.1 327.9 339.1 350 367.1 376.3 379.4 381.3 379.6 376.1 371.3 366.3 362.4 362.7 366.6 372 377.5 381.1 386.6 389 391.5 394.9 393.2 389.9 386.7 383.6 380.2 373.2 364.7 355.6 346.4 340.7 337.6 331.8 328.6 324.4 316.2 305.8 294.2 300.1 309 318.5 331.8 348.9 362.4 373.3 385.5 396 404.4 409.6 410.2 409.5 405.1 394.1 383.8 370 352.1 334.4 318.3 304.2 292.8 282.9 273.1 264 256.6 244.2 224.2 212.2 203.9 177.8 176.3 178 178.7 179.9 180.8 182.7 182.9 183.8 184.7 185.6 185.7 184.2 183.6 182.6 201.4 209.6 219.9 229.8 235.6 237.9 236 233.5 230.9 230 228.9 233.5 223 228.9 248.3 252
265.5 269 272.8 273.3 270.5 266.9 264.1 260.8 251.7 240.8 224.9 220.9 201.5 217.3 224.6 225 225.2 225.8 227.2 227.3 226.6 223.8 223.2 223.4 224.4 223.6 224.3 225.3 226.8 227.5 228.5 229.2 230.6 232 233.2 233.6 232.7 229.8 226.8 224.8 224 222.9 220.7 220.1 219.6 217.6 216 216.8 215.7 215.3 211.8 210.9 192.3 204.6 215.3 217.3 216.7 215.4 215.1 215.8 217.7 218.9 220.4 221.2 221.9 222.4 222.5 222.3 222.3 222.6 221.7 221.2 222 221.9 224.4 227.2 230.7 231.6 235.6 238 241.1 244.6 248.2 250.2 253.8 259.7 262.5 267.2 276.9 286.9 295.6 301.5 305.9 307 309.3 314.4 318.7 318 315.4 304.1 320.1 331.1 342.6 358.4 366.4 372.9 374.2 375.2 374.9 373.1 367.5 361 355.3 356.8 360.5 365.7 369.3 373.1 375.2 379.1 382.2 384.3 385.7 385.5 383.5 381.3 378.6 372.1 364.7 357.3 348.5 339 325.2 326.8 317.1 309.9 304.1 295.1 284.8 292.6 307.5 318.1 334.3 350.2 362.4 373 380.6 387.7 392.7 394 396 395.4 389.8 381.4 371.8 356.4 339.1 322.7 307.5 295.4 284.8 274.3 264.4 254.8 244.3 232.7 213.1 186.8 174.1 178.3 178.7 179.2 180.7 179.7 182.1 178.3 177.3 183 182.9 183.4 183.2 180.9 192.9 204.3 214.4 223.6 234.5 246.3 253.7 254.7 253.7 252 249.3 246.6 248 249.7 248.9 224.1 252 256.6
268.1 268.1 267.4 264.1 259 258.4 256.7 256.4 246.6 231.7 218.2 202.5 200.1 220 221.5 222.1 223.2 224.7 225.8 225.4 223.2 221 220.1 219.8 220.4 221.4 222.4 223.7 225 225.8 228 229.4 230.5 231.5 232.5 233.1 233.5 233 231.3 228.3 224.7 222.8 221.4 220.1 218.8 217.8 218.8 220.8 221.5 220.4 218.4 214.1 201 207.6 213.5 215.5 216.8 215.6 214.3 213.7 214.7 215.7 217.3 219.5 220.3 220.6 220.9 219.9 218.8 218.1 218.1 217.4 217.3 216.2 223.9 226 224.5 226.2 230.8 233 236.2 239.7 242.1 246.8 251.3 253.9 255.5 257 261.9 269.4 280.9 289 294.8 296 296.5 299.8 303.3 304.3 301.2 314.6 324.7 336.3 346.2 355.3 361.8 366.5 366.9 366.3 366.6 365.6 361.6 356.8 352.7 351 353.7 358.9 361.3 362.6 365.8 370.6 375.8 379 381.9 381.7 380.2 378.1 376.6 372.4 366.9 361 353.4 343.5 336 330 320.2 313.7 308.4 304.1 296 278.7 302.1 313.1 328.6 346.6 362.5 370.6 372.3 374.6 377.3 379.6 382.3 380.8 373.9 366.5 356.5 342 323.4 307.9 297.5 286.8 275.3 265.6 255.1 241.5 228.2 219.3 199.6 188.7 177.3 178.1 178.5 179.5 180.8 189.7 196.9 198.8 195.9 196.8 188 192.3 198.3 208.4 212.7 222.2 232.9 243.4 255 265.5 267.1 268.1 270.2 266.7 264.5 261.4 262.1 259.9 256.5 238 254.9 260.1
262 260 256.8 252.7 247.4 246.3 245.2 248.7 243.6 227.7 211.8 192.5 208.3 217.8 218.5 219.2 221.2 222.6 223.6 223.3 221 218.3 215.8 215.6 216.6 217.8 219.7 221.1 222.6 223.3 225.2 227.4 229.5 230.4 231.2 231.6 232.7 233.2 233.6 232.2 229.1 225.7 224.1 222.7 220.7 220.9 220.4 221.8 223.3 224.2 222.9 219 206.2 192.9 207.5 210.6 212.7 214.9 214.3 212.4 212.6 213.9 214.4 215 216.3 216.3 215.7 215.6 214.9 212.5 210 211.2 213.4 221.5 225.8 228.5 229.5 230.6 228.6 234.8 238.4 241.3 244.1 246.7 249.7 251.6 252.3 253.7 255.9 259.7 264.5 273.8 280.8 279.3 281 278.3 280.1 294.4 310.1 319.9 327.6 336.7 344.6 350.6 354.6 354.8 356.2 355.5 356.8 357 354.4 351.5 349 346.9 347.3 350.8 355.2 358.8 361.4 365.2 369.8 373.8 377.4 377.3 376.7 375.3 374 371.9 367.9 363 357 350 345.1 340.1 333.3 327.1 321.8 317.2 297.4 274.3 289 305.8 319.7 340.4 354.3 360.4 363 363.7 365.6 365.8 365.6 364.9 361.8 356 345.9 334.7 317.5 301.4 290.7 279.3 267.1 253.7 239 224.8 211.2 194.6 186.9 174 177.2 177.8 178.2 188.3 198.1 209.9 218 224.3 222.7 221.8 220.9 221.1 223.1 228.9 236.2 244.8 253.4 265.3 272.2 279 282.3 286.1 284 280.4 275.7 272.9 269.1 265.7 261.3 258.1 258.3 263.8
250.7 246.5 242 238.8 234.4 230.8 229.8 240.7 240.6 225.8 209.7 190.3 201.5 215.1 213.5 215.4 217.5 218.4 218.9 219.7 219.2 216.4 213.5 211.4 213 214.6 216.5 217.4 219.4 221.1 222.4 224.5 226.3 228.2 229.6 230.6 231.5 232 232.5 233 232.3 230.8 227.5 226.3 225.8 226 224.7 224.4 225.5 226.5 225.3 222.4 215.5 188.5 194.5 200.7 208.4 211.3 212.1 212.2 210.3 213 212.5 210.5 211.9 208 212.2 208.9 206.3 212.7 214.4 215.7 217.5 221.9 225.8 228.9 231.5 232.8 234.3 235.3 236 239 242.4 245.5 248.1 249.5 250.8 252.5 254.3 256.5 258.4 261.4 263.9 272.6 283.3 291.1 298.8 306 313.3 319.8 326.2 333.2 339.5 344.4 347.3 347.4 348.8 346.6 350.5 351.3 349 347 342.7 340.2 339.8 341.9 346.4 350.2 353.6 358.4 363.9 367.8 371.4 373.2 372.8 372 371.1 369.8 366.6 362.3 358.2 355.7 353.3 348.8 343.3 336.7 327.4 326.9 314.6 294.6 269.8 293 304.9 323.2 339.8 347.3 350.7 351.1 351.7 351.8 351.1 352.7 351.2 348.6 339.6 325.2 307 292.5 280.2 269.1 255.2 237.5 222.9 208.3 190.8 185.7 177.6 173.4 176.7 177.6 193.2 205.9 216 226 235.6 243.9 248.5 249.9 249.2 250.5 248.9 254 264.3 270.7 275.4 283.4 289.1 295.7 298.9 301.3 298.3 294.1 288.4 281.7 275.5 268.3 263.4 260.3 260.4 267.3
239.6 233.6 227.6 224.6 220.7 217.2 216.4 236.3 238.3 224 209.2 189.5 190.8 210.3 210.5 212.8 213.8 214.3 214.7 214.6 216.1 215.3 212.1 209.8 210.3 212.4 213.5 214 215.4 217.4 219.4 221.1 222.8 225 226.7 228.3 229.5 230.5 231.1 231.7 232.2 231.7 230.9 229.6 230.3 230.6 229.1 226.8 227.4 227.4 226.2 222.9 218.6 209.7 185.9 191.8 202.6 207 205.8 207.9 204.9 209.4 203.8 194.7 195.8 206.6 202.1 204.6 211.2 213 214.2 215.2 217.1 221.1 225.4 229 231.8 234.7 236.4 237.9 239.4 240.7 242.3 244.8 247.4 249.6 250.7 251.8 253.3 254.2 255.5 257.9 264.5 272.9 281.3 289.8 296.9 303.4 310.4 317.6 323.7 329.7 334.6 339.5 344.4 343.6 343 338.5 341.5 345.1 343.1 341.2 337.8 338.1 339.1 337.6 341.9 344.3 347.5 351.7 357.5 362.4 366.6 368.5 369.6 368.3 367.7 366.9 366.7 365.6 363.6 360.9 358.9 356.1 351.2 342.7 342.8 338.1 331.1 311.5 287.4 269.6 290.5 305.4 325.5 335.1 340.6 342.3 336.6 329.6 336.2 342.1 344 342.1 331.7 311.3 289.3 281.2 272.3 260 241.8 222.7 208.5 191.7 183.6 180.5 175.5 176.4 176.3 185.9 206.6 220.6 232.7 242.7 254.8 263.2 269.3 275 277.1 275.2 276.4 273.5 289.2 296.9 299.7 303.7 308.3 314.6 317.1 315.4 311.5 303.1 295.4 285.7 277.8 269.9 265 260.8 266.1 270.9
228.5 225.2 219.2 214.9 212.1 207.8 208.3 231 233.8 223.6 211.2 192.8 181.8 204.6 208 209.7 210.8 211.6 211.9 211.5 211.4 212.1 210 207.6 208.9 210.5 211.5 212.1 213 214.4 215.7 217.5 219.3 221.6 223.7 225.4 227.1 228.3 229.2 229.8 230.8 231.4 231.5 232.1 232.2 232.2 231.5 229.6 227.3 226.2 225.1 222 217.8 212.2 203.4 186.9 185.1 194.4 200.8 202 191.5 188.6 195.9 210.3 213.2 213.3 212.5 211.4 211 213 214.1 215.5 217.3 220.2 224.3 228.7 231.7 234.7 237.2 239.3 241.5 242.9 244.6 246.3 247.5 249.9 252 252.5 251.6 252.2 253.7 255.3 260.5 267.5 274.3 283.3 290.4 297.6 305.7 312 318.4 325.4 329.7 334 334.1 335.2 333.3 331.9 336.9 340.1 339.3 337.4 336 337.8 334.7 334.3 337.4 338.9 341.6 346 351.5 356.6 361 363.5 363.1 363.9 364.7 366 366.6 365.7 365.4 365 361.7 355.9 351.8 350.8 350.1 346.2 337.6 323.1 307.5 284.3 266.3 289 308.4 324.4 329.1 330.3 323.5 319.5 318.7 316.7 318.6 319.2 317.5 307.1 289.6 280.1 266.1 248.9 226.6 208.9 196.6 184.3 179.6 178.7 174.7 175.9 189.2 207.6 223.8 236.5 249.8 261 270.2 279.7 284.9 290.1 295 297.4 297.6 303.1 313.6 322.9 327 330.6 335.8 339.8 334 326.8 317.3 307.8 298.1 288.7 280.2 272.2 268 262.3 266.9 272.9
219.2 215 212.7 210.9 207.9 201.6 210.2 231.6 236.6 226.2 210.4 194 182.5 188.7 204.6 206 206.8 207.8 208 208.6 208.5 208.4 206.4 205.5 206.9 208.2 208.8 209.8 210.2 211.2 211.4 213.2 214.6 217.1 220.4 222.5 224.3 226 226.7 227.8 229 230 230.8 232.7 233.1 232.3 231.6 230.7 228.4 226.1 224.2 220.5 217 213.3 208.4 200.1 187.4 184.2 189.3 189.6 194.5 201.8 208.3 211.4 214.2 215.5 215.4 214.7 214.8 215.6 215.9 216.5 218.7 221.1 224.4 228.1 231.6 234.7 237.8 240.2 242.6 244.7 246.3 247.6 248.7 249.9 251.8 253.4 254.2 250.7 251.5 253.7 257.7 262.9 268.7 275.1 280.4 288.9 299.2 306.2 311.2 315.1 320.5 325.1 325.5 324 323.5 327.4 331.3 334.3 334.9 331 331 333.4 331.5 331.1 332.6 333.8 334.9 339.4 344.9 348.7 352.9 354.8 355 358.8 362.6 364.5 366.8 365 364.7 365 364.4 357.2 354.7 354 353.4 351.3 345.7 333.5 316 297.7 271.8 270.6 291 308.6 314.5 316.1 312.2 318.1 319.4 312.2 304.3 299.6 294.1 288.1 280.9 272.7 259 237.2 213.7 198.5 187 179.2 177.9 176.6 175.2 195.9 212.4 228.5 241.1 253.1 266.5 277.2 285.7 291.9 299.7 305.1 308.9 311.5 316.9 330.4 340.7 349 355.8 360.8 365.1 357.3 345.5 332.6 320.9 310 299.2 290.6 283 275.5 270.3 265 267.6 273.8
212.4 207.4 207 207.2 205.6 196.9 211.6 230.5 233.7 223.1 208.6 184.7 178.9 180.8 197 203.4 203.6 203.6 204.6 205.3 205.4 205.1 204.3 202.8 204.7 205.9 206 206.2 206.8 208 209.1 209.7 210.8 212.5 214.7 217.5 221.1 223.5 224.1 225.5 226.9 228.2 229.3 230.8 231.4 231.6 231.6 230.7 229.1 226.8 224.3 220.6 216.6 212.6 209.8 207.3 205.8 194.3 183 180.8 193.9 203.9 210.6 213.6 215.9 217.1 218.4 218.6 218.7 218.9 217.2 220.7 222.6 224.3 226.4 228.8 231.6 235.1 237.9 240.1 242.5 245.5 247.7 248.9 250.3 251 252.3 253.7 253.7 250.5 248.7 249.9 254.1 257.9 263.1 267.5 272.1 278.7 290.5 297.3 302.6 306.9 310.4 313.3 315 317 321 326.3 326.9 329.3 331 328.8 327.3 327.8 328.8 328.5 331.2 326.7 328 330.5 338 340.4 342.5 346.8 352.2 356.8 359.9 361.5 363 363.3 363.2 359.7 359.6 358.2 356.9 355.9 354.3 350.9 341.4 332.5 317.4 304.1 276.2 258.2 280.7 293 300 305.5 312.2 317.7 321.5 317.7 316.5 310.9 301.8 288.9 281.6 269.3 252.3 226.7 206.2 194 182.7 177.6 174.4 174.8 201 218.7 234.9 247.8 259.7 272.6 284 293.1 298.7 306.9 312.2 318.3 322 327 340 352.4 365.3 374.1 382.8 382.2 374.2 363.7 350.9 336.5 322.4 309.7 299.1 292 286.7 277.3 271.7 266.9 269.6 274.5
206.6 205.1 204.5 204.4 204.1 195 207.2 222.2 225.7 213.1 203.1 192.4 183.6 173.9 182.7 200.9 201.2 201.3 201.6 201.8 201.9 201.9 201.3 201.1 202.8 203.2 203.3 203.8 203.9 204.8 205.9 206.5 207.4 209 210.5 212.6 214.7 216.3 221 222.6 224.3 225.1 227 228.8 229.4 229.6 229.2 228.4 227.9 226.7 223.1 220.5 217.5 214 211.1 208.8 208.8 209.1 196.5 187.5 186.7 201.1 209.7 214.9 217.3 218.4 220.3 221.4 221.5 221.4 221.5 222.8 225.2 227.1 228.3 229.6 232.1 235.5 238 240.2 242.6 245 247.2 249.4 251.6 251.9 253.6 255 255.2 250.3 245.3 247 248.6 253.7 258.3 262.3 266 270.8 275.9 287.9 296.9 301.2 303.7 306.3 306.2 298.6 310 315.5 317.3 322.4 326.7 321.7 324.6 325.5 323.8 325.9 329.5 322.5 320.4 324.2 330.7 336 342 347.1 350.7 354 356.4 358.4 359.8 359.6 356.9 355.3 356.3 356.2 355.3 354 351.4 343.4 336.5 326.1 312.9 304.6 281.2 246.9 266.7 279.2 293.6 303.3 308.8 312.9 312.9 309.1 307.2 299.2 290.6 282.7 274.5 262.4 244.2 221.4 201.3 191 179.1 173.7 171.5 197 221.9 239.1 253.7 266.4 278.5 289.3 298.4 303.8 312.5 319.5 323.9 329.6 335.7 346.1 359.6 369.3 381.5 391.9 394.1 387.7 377.5 366.1 354 338.3 324.4 311.4 300.7 295 290.1 279.4 273.4 268.1 270.6 274.7
202.7 203.2 202.3 202.3 203.4 194.6 202.3 210.2 207.8 204.2 200.7 198.8 188.8 183 175.2 194.1 198.9 199.1 199.2 199 199 198.3 197.5 194.9 198.6 199.7 200.7 201.4 202 202.1 202.4 203.9 204.7 205.7 207.4 208.4 209.1 211.7 214.8 216.7 219.9 219.6 222.3 224.6 226.2 226.3 225.8 223.6 222.3 220.5 220.4 218.8 217.2 214.3 211.3 209.2 209.7 210.7 204.6 190.1 179.3 200.6 209.8 215 217 219.9 222.7 223.7 223.8 223.6 223.8 224 225.4 226.7 228 229.4 231.8 235 238 240.6 241.8 244 245.4 248.5 251.4 253.1 254.6 255.9 257.2 255.6 248 243.7 244.8 247.2 252.8 256.2 258.9 261.2 265.2 271.7 283 290.6 292 292 285.7 286.2 295.8 301.4 306 310.5 313.9 317.8 320.7 320.3 321.2 315.1 317.3 316.5 318.4 323.5 327.8 331.8 337.6 342.7 347 350.8 353.4 354.7 354 353.8 350.7 351.3 350.9 350.7 350.1 348.8 339.2 330.7 320.8 313.8 307.1 293.9 278.6 262.2 250.4 267.2 280 296.2 303.3 307.3 308.1 302.4 291.2 282.8 280.8 275.8 270.9 259.2 241.3 214.5 184.9 174.3 172.9 172.7 181.4 208.8 235.8 252.7 267.5 281.2 292.2 298.7 300.9 312.3 322.2 330.1 333.7 339.6 347.8 358.9 369.9 381.3 390.3 400.8 398.1 389 379.1 368.2 357.3 342.8 328.1 315.7 306.2 300.3 294.2 282.8 275 270.8 272.1 275.2
198.6 198 199.1 199.2 198 185.1 198.9 200.4 200.5 199.4 196.9 197.2 197.8 184.7 176.2 171.9 193.6 196.9 196.9 197.2 196.8 196.6 195.1 190.6 194.1 195.5 195.3 196.9 198.9 199.6 200 201.2 202.1 203 204.3 205.2 206.1 208.4 210 211.5 214.2 214.9 216.7 219.9 221 219.4 218.4 217.7 216.9 216.7 216.8 217 214.7 212.1 209.1 206.8 207.5 209.1 202.5 183.2 185.7 205.8 212.8 214.5 217.7 221.4 224.5 225.6 225.3 225.3 225.5 225.4 225.8 225.9 226.5 228.4 230.9 233.7 236.7 239.4 241.1 242.8 244.6 246.5 250.4 253.5 254.2 255.2 257 257.5 251.3 242.9 242.2 242.9 247 249.7 251.7 252.4 255.5 258.3 262.9 271 280.2 278.6 272.5 276.8 285.7 291.6 297.6 302 307.9 311.8 315.4 319.9 316.8 310.7 314.9 315.7 317.1 319.2 321.6 325.7 329.2 334.9 340 343.9 344.9 345 346.1 344.3 346.7 348 347.4 344.4 344.4 342 342.7 340.6 334.4 324.8 310.2 296.5 291.1 276.5 250 248.7 263.1 275.3 296 302.1 302.9 295.5 286.8 287.7 283.9 278.3 270.8 260.8 242.7 215.4 182.3 172.2 172.1 175.3 191.8 211.8 235.8 257 272.8 286.4 288.2 290.6 299.7 314 324.8 333.2 339.5 344.7 351.6 363.3 373.5 384.5 396.2 403.7 398.5 388.7 379.7 370.5 361.3 349.1 333.6 320.4 310.9 305.8 297.7 286.1 277.3 272.5 271.7 275.1
183.3 186.7 194.6 194.5 194.4 185.5 195.9 195.1 195.6 193.2 191.7 190.6 183.2 179.7 173.6 165 186.9 191.5 189.9 190.9 190.5 193 193.3 192.6 183.4 190.9 191.2 192.5 194.7 196 197.9 197.8 198.8 199.4 200.2 201.9 203.5 204.9 206.4 208.8 209.9 211 213.2 214.7 215.9 215.2 214.4 214.2 213.6 213.4 213.3 213.7 211.7 209.1 206.1 204.1 204.5 204.5 192 175.8 195.6 208.5 213 214.2 216.9 220.8 225.4 225.9 225.6 225 225.7 226.3 226.8 227.1 227.6 228.2 229.7 232.3 235.3 237.8 240.2 242.1 243.5 244.9 247.9 251.5 252.8 254.6 256.3 255.3 252 245.8 239.7 240.6 242.2 245.5 247.1 249.6 251.7 253.4 256 258.4 263 265.7 268.2 274.5 279.5 283.1 288.1 293.9 300.1 303.5 308.7 312.9 314.3 306.5 312.1 309.6 310.9 315.1 317.6 320.3 323.6 325.8 329 332.6 335.3 337 337.6 338.9 340.4 341.2 339.9 339.6 339.2 337.8 336.5 333.3 327 315.8 311.1 307.4 299.3 287.7 272.1 250.2 245.7 255.5 276.7 292.6 294.1 291.9 287.1 285.2 280.8 273.2 267 260.3 246 220.4 188.2 171.4 174.8 180.5 197.7 208.5 233.4 255.4 267.8 274.5 276.3 286.2 299.5 312.8 323.2 329.8 333.2 343.3 348 359.7 369.5 382.6 395.9 400.7 396.9 389.5 381.5 373.8 365.4 356 340.7 328.4 319.9 311.1 302 290.4 280.8 275.8 272.3 274.4
163.5 171.2 175 184.1 188.5 187.3 191.7 190.1 188.8 187.6 183.9 177.1 171.3 166.6 166 169 169.9 169.5 169.7 178.1 182.7 186 188.6 190 183.1 187.8 187.7 189.4 190.9 193.9 195.8 195.4 194.9 195.5 196.8 198.4 199.7 201 202.8 205.5 207.4 208.3 209.4 210.8 212.8 213.1 213.1 211.7 210.5 210.1 210.4 209.8 208.5 206 203.5 202.6 202.6 202.7 181.6 178.2 197.1 207.3 211.1 211.9 214.9 218.2 221.8 225.7 225.5 225.1 225.5 226 226.9 227.9 229.4 231 231.2 232.2 233.3 235.4 238.1 240.1 241.8 243.2 244.5 246.3 246.9 246.1 247.2 247.6 246.2 244.8 241.5 237 238.1 241.5 244.3 246.8 249.1 250.6 252.4 254.8 257.7 260.1 264.3 268.1 273 276.6 281 285.9 293.1 297.8 303.5 306.2 305.9 302.3 305.5 303.8 306.4 311 312.5 313.6 315.9 318.6 322.1 323.9 329.2 331.1 331.6 332 333.7 334.5 335.4 335.5 335.3 332.5 329.7 325.4 320.2 319.1 317.5 313.3 305.6 295.9 284.5 271.4 247.8 230 254.7 283.1 287.7 287.5 286.7 281.3 274.7 270.4 265.9 259.8 246.9 226.4 198.9 169.4 174.3 177.4 196.7 205 229.6 249.4 257.4 265.6 271.8 281.6 294 304.5 313.9 321.9 327.9 334.2 341.3 352.5 362.9 376.2 386.5 392.5 392.5 389.5 383.7 377.2 369.9 362.1 349.1 338.1 327.8 316.9 306.7 294.7 285.5 279.7 275.1 274.7
167.4 166.1 166.6 168.1 171.5 173.6 173.8 176 175.7 174.9 173 172.3 166.7 162.1 160.4 161 161.7 162.7 162.4 160.2 160.2 167.1 169.8 174.9 185 177.5 182.2 185.6 189.6 191.7 193 192.9 191.6 191.5 193.9 194.8 195.6 196.8 199 201.3 203.8 205.1 206.1 207.3 207.8 209.1 210.5 210.7 209.6 208 206.6 205.6 205.3 205 202.2 201.5 201.4 201 193.2 176.9 185.9 203 206.9 208.7 211.6 214.7 218.3 221.6 223.8 224.7 225.6 226.2 227.3 228.6 230.2 232.7 233.1 233.9 233.2 234.1 236.8 238.4 239.4 239.8 238.6 238.5 238.8 240.4 239.8 240.5 240.6 240.6 240 239.1 233.2 235.9 240.3 242.7 244.3 246.3 248.5 250.3 252.1 253.5 257.5 261.3 262.6 269 273.2 277.2 282.3 288.8 294.1 297.8 299.1 297.2 297.6 298.6 302.2 303.5 306.6 306.9 307.1 311.2 315.2 316.3 320.9 321.3 322.9 323.6 326.4 328.7 330 330.3 329.1 328.1 326.6 323.2 322.9 322.5 320.4 316.7 308 299.6 292.5 283.5 269 245.1 228.3 263.1 279.3 281.7 281 277.5 273.5 268.9 262.3 256 245.5 228.5 207.3 179.2 171.7 176.2 191.3 200.5 225.8 243.5 250.1 258 267.8 279.1 285.9 292.8 300.9 309.3 315.5 321.5 327.1 335.3 348 359.3 369.1 377.3 382.9 384.6 383.2 378.1 373.6 366.6 356.5 346.6 334.5 323 311.6 298.9 289.7 283.5 279.2 277.1
186.9 176.3 164.6 165.7 166.8 167 168.4 168.6 169.4 167.1 164.5 163.7 161.8 169.3 168 166.4 163.7 163 162.2 162.2 161.8 161.3 159 162.1 169.2 176.4 170.5 184.8 188 189.4 189.7 190 189.4 188 187.9 189.3 189.8 193.5 196.2 198.3 200.4 201.8 203.2 204.3 205.4 206.8 208.1 208.5 208.3 207.2 205.1 203 203.6 203 201.6 200.6 200.4 199.9 194.7 174.8 187.9 200.7 203.2 205.2 207.5 210.3 214.3 217.4 219.9 222.5 224.7 227 227.6 228.2 228.9 232.1 233 233.6 232.8 233.1 233.9 234.9 237 237.5 236.2 234.8 234.4 235 235.9 234.7 235.6 236.3 237.8 237.7 237.3 233.1 235.1 238.2 239.2 240.6 241.6 244.6 246.5 249.1 251.6 256.3 258.1 261.1 264.4 268.4 274.3 279.4 285.3 288.2 289.8 287 289.9 293.5 295.7 296.8 299.6 301.6 301.1 302.5 303.9 306.5 310.6 311 313.3 316.5 320 323.5 324.7 323.3 322.5 323.7 323.2 322.5 322.4 322.2 320.6 314.4 307.9 302.6 296.3 287.1 273.5 256.6 222.7 244.8 267 274.8 276 274.1 269.4 264.8 259.5 254.3 244.9 232.6 213.4 189.7 170.8 173.4 182.5 190.9 204.4 234.2 248.6 257.7 265 273.5 279.6 284.6 289.2 296.3 303.8 309.4 313.5 319.2 330.7 340 348.6 356 364.2 372.1 376.8 375.8 372.6 368.1 358.2 350.9 340.4 329.2 316.4 302.9 293.5 287.4 282.8 280.4
186.9 184.5 180.2 171.1 163.2 164.7 164.9 165.1 164.9 164.5 162.3 162.2 175.2 179.9 175 175.4 176.3 171 170.7 171.9 173.1 171.8 161.8 160.9 161.1 162.2 172.2 182.8 186.8 187.4 186.7 186.7 186.2 185.3 180.7 184.1 186.7 189.1 192.3 195.3 196.6 198.3 199.6 201.2 202 203.1 204.1 204.6 204.6 203.4 202.4 200.1 200.2 199.6 199.5 199.2 198.7 198 193.8 173.6 179.3 198 200.2 201.9 203.6 205.2 208 210.6 213.9 217.5 219.8 221.8 224.1 225.6 225 226.4 228.4 229.6 229.4 229.3 227.3 228.8 230.4 232.1 234.3 232.6 231.4 231.6 232 231.8 232.4 234.4 236.4 237.7 237.4 235.3 229.1 233.4 234.8 234.9 235.6 237.6 237 243.2 244 250.5 253.5 255.2 258.1 262.5 266.5 270.8 275.1 279.8 281.3 280 289.1 291.7 293.4 293.9 294.8 296.5 296.3 294.7 294.5 295.3 300.2 301.2 306.1 307.7 311.2 315 316.6 315.5 318 319.8 319.6 318.2 318.2 317.1 314.1 310.3 305.2 300.8 293.8 285.9 277.9 266.3 240.5 226.2 243 257.1 266.2 264.9 263.1 260.9 258.3 253.3 247.5 235.2 215.8 195.7 173 168.6 175.1 183.8 207.1 242.2 251.1 257.5 263.5 268.5 273.7 277.5 280.7 285 289.3 294.2 299.2 304.1 309.5 316.3 325.3 335.9 346.9 355.1 363.9 367.4 366.2 363.8 357.7 351.7 343.9 334.2 320.8 308.3 299 291.3 287.2 284.9
187.8 184.1 183.4 181.3 178.7 177 169.2 166.8 164.1 167.1 167.1 168.8 180 182.4 179.3 179.3 179.2 180.9 181.2 182.2 181.5 179.2 175.7 170.1 160.7 160.1 158.4 169.5 183.8 186.2 186.2 183.4 182 180.9 178.5 176.7 180.4 182.4 185.4 188.8 191.6 194 195.4 196.8 197.6 198.9 200 200.4 201.6 200.1 199.5 198.1 197.2 196.6 196.3 196.3 196.5 195.8 194.2 171.9 171.8 194.8 197.1 198.6 200.1 201.1 203 203.8 205.6 209.2 212.2 215.2 217 220.1 220.3 220.5 221.8 223 224 224 223 223.5 225.1 226.6 227.6 228.7 229.8 229.6 229.5 230.2 232 233.5 235.2 236.1 236.7 235.7 233.4 227.3 228.6 229.6 230.1 231.7 234.3 237.1 238.2 243.1 247.2 249.8 251.2 257.1 261.3 267 271.4 272 276.2 282.2 285.3 288.3 291.5 291.8 291.6 292.3 291.3 289.4 288.2 289.3 292.6 293.8 296.7 299.7 301.5 305.3 308.2 310.9 313.7 313.7 313.9 312.1 310.9 310 307 304.6 301.1 297.4 291.5 285.2 279.6 271.2 248.7 220.8 221.5 228.6 235.6 245.7 250 256.1 254.1 250.9 246.2 234.1 215.6 198.2 176.5 171 168 173 198.3 237.3 249.7 257.3 262.4 264.9 269.2 273 275.5 276.4 279.3 283.5 288.5 290.6 291.5 296.6 304.4 316 325.9 335.8 345 351.4 355.3 356.2 353.3 350.1 343.5 336.2 324.9 315.5 305.2 296.5 292.8 290.6
187 184.9 184.9 184.7 183.5 181.5 179 173.7 165.5 168.7 168.9 171.7 178.8 181.5 180 180.2 180 179.4 180 179.8 178.6 176.3 174.4 172.7 164.5 160.6 160.5 158.2 169.7 183.1 185.6 184.6 180.5 175.8 175 173.6 173.6 176.7 179.6 183.5 187 189.3 190.8 191.8 192.5 193.9 194.7 196.4 196.6 196.8 196.6 196 195.3 195.3 193.1 191.9 192 192.2 192.1 170.3 169.7 187.1 191.4 194.5 196.4 197.7 197.7 198.6 200.7 203.3 205.7 207.9 210.6 211.9 213.6 214.3 215.4 216.1 216.1 216.7 216.9 218 219.5 222.1 224.8 226.7 228.7 229.3 226.5 228 230 232 233.2 234.1 234.2 233.7 233.1 231.1 225.4 224.3 226.6 227.4 228.5 228.8 234.8 238.3 241.6 243.7 246.4 250.5 254.3 259.8 264.2 265.4 271.2 276.2 280.8 285.3 288.4 288.6 287.8 288.2 286.4 285.3 285.3 285.6 287.3 287.3 291.7 293.4 295.7 298.9 300.9 304.6 307.1 308.3 307.6 306.2 305.7 302.7 301.4 299.6 296.7 291.3 287.7 282.6 278.7 272.8 263 243.2 222.3 211 203 209 224.4 237.6 245 245.9 240.5 230.6 214.8 198.9 183.5 172.5 169.8 169.8 190.7 232.5 248 254.5 259.1 262.4 265.9 269.3 270.7 273.2 275.1 278 279.7 280.2 280.5 279.6 281.7 290.8 303 314.2 324.6 333.6 340.8 345.1 345.8 344.4 342.5 335.9 328.2 320.3 310.1 301.9 298.7 296.8
186.3 185.3 185.9 186.4 186.1 185.9 182.6 179.2 167.3 169.1 171.9 175.5 179.5 180.2 180.2 180.5 180.5 178.7 177.8 177.8 177.5 174.1 172.9 171.8 170.4 162.3 160.2 160.2 161.3 169.5 179.9 180 179.2 175.6 173 172.6 173.5 174.9 177.6 181.1 184.1 185.7 187.4 188 188.5 189.2 189.9 191.5 192.3 192.7 193.5 193.3 192.3 190.6 190.7 189.1 188 188.4 188.6 169.1 186 190.4 191.6 192.8 193.2 194.1 195.3 196 197.6 200 202.4 204.1 206.6 207.9 208.6 210 210.7 211.1 213.1 215.3 216.1 216.5 216.8 217.1 220.9 223.8 226.5 227.1 225.2 224.2 226.3 228 229.9 231.1 231.8 231.3 230.4 227.6 225.4 221.8 224 224.7 222.4 226.4 229.9 234.4 238 239.9 242.2 245.7 248.1 252.5 253.8 260.3 266.5 270.9 276 280.2 282.8 284.7 284.3 284.1 284 283 282.7 283.5 284.8 285.5 287.1 289.6 290.6 294 293.9 298.4 300.7 302.2 301.4 301.6 300.6 297.9 294.5 293.2 290.2 285.7 284 281.1 276.9 272.6 270.3 259.7 250.1 235.9 225.6 212.4 193.4 216.9 225.2 229 224.9 215.6 206.1 197.1 187.4 177.9 169.2 167 182.7 226.2 243.6 250 254 256.8 262.1 266.2 267.6 268.7 271.6 271.5 271.8 271.3 271.1 271.1 270.7 274.5 282.8 295.2 305.6 316.7 326 331.6 336 336.4 336.9 333.5 327.8 321 313.9 308 304.6 302.3
186.9 186.3 186.6 186.8 185.7 183.7 182.8 181.2 170.8 171.5 178.2 178.9 180.5 181.7 182.8 181.7 180.6 179.6 179 177.5 176.1 175.7 172.5 171.6 170.6 167.5 160.5 160.1 160 172.5 169.2 174.3 173.4 173.4 172.4 172.6 174.1 175.1 176.7 179.3 181.8 183.1 184.1 184.3 185.3 185.5 185.9 186.9 187.7 188.8 189.9 190.6 190.5 188.7 187 186.5 185.6 185.8 184.6 167.9 181.5 189.1 191.4 192.4 193.4 195.5 197.3 198.4 199.4 200.1 200.8 201.5 202.3 203.6 205.2 206 206.6 206.9 212.1 215.6 217.1 217.4 217.4 217.3 216.1 220.2 220.8 222.2 221.9 221.2 222 223.8 225.6 227.6 229.2 229.2 228.2 225.5 223 220.8 222.2 221.8 221.1 223.7 227 231.7 235.3 237.6 239 240.6 243.1 245.4 250.5 257.3 262.1 266.4 271 274.8 277.2 280 280.6 281.7 282.3 282.1 281.5 282.4 283.7 284.4 286.3 287.2 286.2 288.6 289.6 291.2 293.7 295.9 296.9 297.2 295.5 294.1 290.5 286.3 282.9 281.2 279.6 277.5 275 273 270 264.8 261.1 254.7 248.3 236.9 213.4 193.1 201.6 203.8 196.1 190.7 182.7 183.1 173.7 175.7 169.4 168.3 178.9 221.1 239.4 244.7 247.7 252 257.1 260.4 263.9 266.1 267.6 266.9 265.8 265.2 265.1 265.4 264.4 265.5 270.5 279.5 290.2 300.6 310.8 317.7 322.4 326.4 330.2 328.7 324.4 319.6 316.4 312.5 309.4 306.5
190 186.2 186.8 186.6 186.3 183.6 176.6 173.4 171.3 180.9 178.6 181.8 183.7 184.8 186.2 186.9 185.6 184 180.7 179.1 180.1 178.4 173.5 171.4 171 169.6 164.7 160.1 157.8 167 171.7 169.6 169.6 170.5 171.8 172.7 174.2 174.8 175.3 176.8 179.8 182.3 182.6 181.7 181.6 182.1 182.3 181.4 181.9 183.7 185.3 186.6 186.9 186.4 184.9 183.5 182.5 180.8 170.1 167.3 186.2 188.8 189.8 189.4 192.8 195 196.5 198 199.8 201.4 201.9 202.1 201.9 202.2 202.7 203.5 203.9 207.3 212.1 215.9 218.3 218.8 218.5 218 217.2 215.7 217.4 218.3 219 219.1 219 220.4 221.3 223.1 224.9 226.9 226.6 224.4 221.1 219.9 219.6 226.5 225.4 223.3 226 228.5 232.1 234.4 236.2 237.9 239.2 244 249.4 253.9 258.3 261.9 265.8 269.3 272.9 274.4 274.1 280.1 282.2 281.5 282.7 283.2 283.8 285 285.6 285 282.6 281.8 284 284.5 286.2 288.6 290.8 291.3 290 288.7 286.7 282 278.3 276.7 274.1 272.8 271 270.1 267 263.5 261.7 258.1 252.3 244.3 234.5 218.9 200.5 193.8 193.7 193.1 194.7 190.4 185.1 173.8 171 168.6 178.4 217.7 229.3 236 240.7 247.8 253.6 257.7 261.3 262.5 263 263.4 261.8 261.7 260.8 260.7 259.8 260.1 263.2 269 276.5 283.9 294.1 304 310.3 319.2 321.8 321.1 318.3 316.9 316.3 313.3 310.4 306.4
190.7 189.3 186.5 184.6 181.5 176.6 174.7 173.1 182.9 181.6 181.1 181.3 182.3 183.7 185.6 187.5 188.8 187.5 184.3 179.8 180.6 182.5 180.5 175.2 172 170.7 168.7 162.4 157.7 160 163.2 166.1 168.8 169.8 171 173.7 174.5 174.4 175 175.6 177.4 179.2 180.3 180.3 178.4 177.6 178.5 177.8 176.5 178.7 180.6 180.8 181.7 182.5 182.3 180.5 180.1 174.7 164.7 181.4 185.4 186.7 187.6 186.5 190.4 192.4 193.9 195.7 197.8 199.2 200.1 201.3 201.5 202.2 202.4 203 204.8 208.6 212.8 216.8 219.5 220.1 219.2 218.7 218.1 216.4 215.8 216.4 217.6 218.3 218.8 218.4 216.8 219 220.7 223.2 224 221.7 219 221.6 226.3 228.9 229.8 229.9 229.8 229.1 229.2 232.2 234.8 236.8 238.3 241 245.8 249.8 253.6 257.1 260 263.6 256 272.9 275.8 279 281.8 284.7 286.6 285 284.1 281.9 282.5 280.6 277.7 276.6 279.8 280.6 280 281.8 282.5 284.4 284.2 282.5 278.6 275.9 273.3 270.1 268.6 267.5 266.5 266 264.8 262.8 261.2 257.6 253.8 248.7 243.4 234.7 226.4 222.8 221 217.5 212.8 206.5 192.3 180.6 171.5 167.6 173.6 201.3 216.3 214.9 236.9 245.6 249.5 256 258.2 258.3 259 259.6 259.3 258.2 256.7 256.2 257.3 256.7 257.8 261.5 266.8 272.6 279.8 288.9 299.9 308.6 311.1 312.3 311.3 310.2 310.4 309.5 307 303.9
189.8 189.3 186.7 181.2 175.6 176.2 184.5 186 185.4 184 183.3 183.4 184 182.6 183.2 185.2 187.6 187.8 185.3 181.7 178.5 179.9 181.9 179.5 174.9 171.6 168.5 166.3 158.7 159.4 159.6 164.3 167.4 168.3 168.7 172.8 174.7 174.5 173.4 173.6 176 178.1 178.5 177.7 176 174 173.4 173.4 172.2 173 175.3 175.9 175.7 176.1 176.2 177.8 178.6 174 163.2 181.1 182.3 183 183.8 184.4 187.5 189.6 191.4 192.7 194.7 195.7 195.6 196.7 198.6 199.9 199.1 201.8 205 209.2 213.6 217.7 220.4 220.9 219.8 219 218.7 216.6 213.3 215.4 216.4 217.8 219.4 219.3 217.1 213 215.3 217.5 217.4 217.2 223.3 226.6 228.5 229.5 230.6 232.3 233.7 234.3 234 233.5 234.5 235.5 235.7 238 240.9 243.6 248.5 251.4 250.4 256.1 265.9 270 273.6 276.3 278.2 279.8 281.8 281.6 281.9 280.1 277.5 274.8 273.1 271.5 273.3 274.5 275.9 274.8 275.8 276.8 277.6 276.7 273.1 269.9 268 264.3 261.9 261.2 261.2 260.7 259.2 258 256.8 254.6 252.3 251.1 247.6 242.8 240.5 238.1 234.7 230.4 227.9 218 200.6 179.9 175.7 167.6 166.6 180.1 192.3 217.5 229.3 238.6 245 249 252.4 253.4 254.9 256.1 255.5 254.1 252.3 253.2 254.4 254.9 253.4 255.9 261.2 265.5 271 278.4 288.6 296.3 299.3 302.2 303.9 304.1 303.6 304.1 302.8 301.4
188.2 186.3 183.7 180.9 181.1 188.3 188.9 186.7 186.2 185.9 185.4 185.1 186.3 185.7 183.9 181.8 183.2 183.8 181.2 177.4 176.4 176.5 176.4 177.5 175.7 175 170.1 167.2 160.8 158.9 159.1 160 163.9 166.1 166.8 168.7 171.8 170.8 169.8 170.6 170.8 172.7 174.7 174.3 172.1 168.9 167.9 168.1 167.6 166.8 167.8 168.7 169.8 171.3 172.6 175 175.7 163.6 164 179 180.1 180.3 180.5 181.1 184 186.8 189.1 189.9 192.1 192.2 192.3 193.3 194.7 196.4 197.7 200.4 204.8 209.6 214.1 218.2 220.5 220.2 218.8 217 215.2 212 210 211.6 203.3 207 208.3 207.6 209 217.8 219.1 218.5 218.5 221.8 224 226.2 228.9 230.8 232 233.7 234.7 234.8 235.4 235.8 235.1 233 232 234.6 237.8 239.7 241.7 243.5 251.5 257.2 262.3 266.3 270.2 272.6 274.6 275.8 276.8 276.8 277.1 276.1 274.2 271 270.1 268.5 269.5 270.3 270.2 270 270.3 270 269.5 269 267.6 265 264.3 260.4 255.1 253.6 254.4 253.5 253.4 254.5 253.3 253.7 252.9 251.9 248.6 245.8 243.6 239 235.4 234.4 231.6 225.6 212.3 187 173.7 167.3 167.2 169.7 185.7 201.6 219.2 229.6 238.5 242.3 243.6 245.6 247.5 248.5 249.8 249.7 250.1 250.9 251.6 252 252.7 254.4 257.9 261.2 265.1 270.1 275.3 281.7 285.3 288.2 291.4 295.2 298.8 298.9 298.8 298.4
190.1 188.1 190.4 182.5 186 189.2 187.5 187.9 187.1 186.4 185.7 184.9 185.2 184.8 185.1 183.2 179.7 179 178.9 179.3 176.3 174.3 173.6 172.3 170.5 170 167.6 163.3 162.1 157.2 158.9 159.2 159.4 162.7 165.2 165.6 165.4 166.2 168.5 169.8 168.2 166.5 167.9 168.7 167.9 165.3 164.6 164.9 165.2 165.8 165.2 165.8 167 168.5 170 172.4 169.3 160.9 174.3 176.8 177.9 177.7 177.2 178.9 180.4 183.5 186.3 187 188.5 189.2 189.3 189.5 190.5 191.5 195.2 199.8 204.9 209.1 212.7 216.3 217.9 216.9 214.6 212.1 208.8 205.7 202.9 206.5 214.9 217.2 219.2 220.6 220.8 220.6 220.4 221.2 220.4 221.8 223.6 225.3 227.4 229.5 231.3 232.7 234 234.8 235.1 236.1 236.3 236.3 234 228.9 231.3 230.2 237 244.4 247.6 252.3 257 261.5 265.2 267.3 270.6 272.8 275.8 276.6 275 273.6 269.4 267.6 265.5 264.8 259.8 264.4 264.9 264.6 263.7 263.6 262.5 262.5 260.6 259.8 256.4 253.3 250.2 248.9 248.4 249.3 251.3 251.7 251.5 251.3 251.3 250.9 247.7 244.5 242.4 237.6 234.7 232.9 230.6 227.8 220 198.3 172.6 166.7 166.6 167.4 185.3 192.9 206.8 216.8 223.9 229.9 234.6 237.8 240.7 242 243.1 244.6 245.1 246.2 247.8 251.2 252.8 253.4 254.9 257.5 260.9 265.3 268.8 272.8 274.2 279.6 283.4 288.6 292.2 293 294.6 296.6
195.7 189.4 188.6 183.1 185.6 186.4 187.1 188.8 188.7 188.4 187.5 185.9 183.9 183.2 182.1 181.7 181.5 180.5 178.8 178 177.6 177.1 176.1 174.5 172.1 170.8 169.7 168.4 164.6 159.5 158.7 158.8 158.9 159.1 160.3 161.7 161.9 161.8 161.9 166.4 165.5 165 163.7 165 164.9 164 163.9 164.2 166.2 167.6 167.2 166.8 167.6 169.1 170.6 171.4 169 161.6 173 174.9 176.1 174.4 173.3 177.7 177.6 180.2 181.6 181.1 184.3 185.7 185.5 186.2 187 189.3 193.9 198.3 203.2 207.7 211 213.7 214.4 211.5 207.3 203.2 202.5 208 209.6 212.4 214.8 216.9 219.3 221.2 222.2 222.2 222.6 223.2 222.9 222.3 222.5 223.9 225.7 227.5 229.4 230.4 231.1 233.4 235.2 235.5 234.7 234.6 234.1 230.3 232 236.1 238.8 242.2 245 248.1 251.3 255 258.7 261.4 265 267.4 269.6 274.1 276.4 273.5 271.7 266.7 261.5 260.2 257.6 259.8 260.6 260 258.8 257.8 258.3 256.9 256 253.7 252 249.6 248.7 248.3 247 247.8 249 249 248.6 248 247.5 246.2 243.4 241.7 239.3 237.2 233.5 227 225.6 223.9 220.3 209.7 188.5 166.3 163.2 166.4 180.1 190.8 195.7 208 214.5 221.6 227.7 230.3 233.1 235.5 237.4 238.7 240 243.9 246.8 248.6 249.7 250.5 252.4 254.6 257 260.8 263.4 265.8 268.9 273.1 277.8 282 285.6 287.3 289.1 291.1
202.5 199.1 194.1 184.9 186.8 188.1 188.9 189.6 188.6 187.5 186 185 184.3 184 185.3 186.1 186 184.1 181.2 179.9 178.7 177.8 177.4 176.4 174.8 172.7 173.1 171.2 170.3 169.8 159.9 158.4 158.4 158.3 158.6 158.9 159.4 159.5 159.3 162.4 166.5 164.3 163.1 165.2 164 164 164.1 164.7 165.9 167.2 167.4 167.7 168.4 170.2 173 170.6 164.6 161 170.6 171.9 172.4 170.6 171.2 174.1 174.9 176 176.9 176.7 179.1 181.5 182.9 182.5 184.4 187.4 191.8 196.3 201.3 205.3 208.6 211.2 209.8 205.3 205.6 208.4 209.7 211.4 212.4 213.8 215.1 217 219.2 221.5 222.3 222.7 223.4 224.8 224.9 223.7 222.5 221.8 223.3 224.9 226 226.2 227.7 229.7 232.3 233.4 233.3 232.4 229.6 231 232.6 233.9 234.7 237.5 240.7 244 247 250.5 254 257.4 260.5 263.4 265.4 267 269.2 267.4 265.1 263.6 259.3 255.2 250.4 256 256.9 256.8 256.2 255.7 255.3 254.5 253.7 252.6 250.8 247.9 248 246.7 247 246.3 246.6 246.1 245.8 244.2 242.3 239.9 237.7 235.4 233.3 232.3 231 225.3 222 219.4 217.2 213.7 205 187.3 166.1 165.4 172.2 181.6 190.1 198.1 209.5 217.9 222 224.6 226.3 228.8 232 233.5 239.8 242.7 240.8 246.2 246.9 248.3 251 253.1 253.8 256.7 259.8 262.2 265 267.5 271.7 275.3 279 282.3 284.7 286.5
202.8 199.2 196 183.4 188.6 189.8 190.8 190.8 188.8 191.1 193.3 193.5 192.5 189.6 186.2 185 184.5 182.8 183.6 180.5 179.8 179.2 178.5 178.5 177.5 176 174.7 175 174.9 173.4 167.5 157.2 158.2 158.1 158.2 158.3 158.6 158.6 158.4 158.2 162.7 168.3 168.2 168.5 165.7 163.7 164.3 163.9 163.9 166.8 167.8 167 169.5 171.5 172.2 168.9 160.8 165.1 168.5 168.6 168.2 167 166.4 168.5 170.4 172 171.4 171.8 175.2 175.4 179.1 180.8 181.4 185.5 189.4 193.8 199.3 203.8 206.5 208.1 203.8 201.9 205.9 208.9 210.9 212.2 213.3 215.8 216.9 218 219.6 221.5 222.7 223.7 224.6 226.2 226.6 225.5 223.8 221.8 219.6 221.1 222.6 222.5 223.4 224.8 227 229 229.4 229.4 223.7 230.6 231.2 231.8 232 233.1 234.5 237.9 241.4 245.9 249.4 252.9 256.7 259.6 261.4 260.8 261 256.6 256.7 255.2 253.5 252 242 252.3 253.3 253.2 253.5 253.2 252.2 250.3 250.5 249.7 248.6 246.7 247.8 246.7 246 243.4 244 244 243.1 241.4 239.7 237.4 235.1 232.2 229.1 226.3 224.4 221.6 219.1 217.2 215.2 214 208.2 198.2 184.9 165.7 165.2 172.7 182.4 189.9 205.6 214.8 217.5 217.6 215.6 218.9 227.3 233.8 236.6 239 240.8 243.8 245.3 246.9 248.8 249.8 251.8 254.1 256.2 257.5 261 262.3 265.6 268.9 273.1 277.1 279.6 282.1
200.4 197.5 191 186.9 189.3 190.8 191.9 191.2 192.5 195.3 196.6 197.2 197.3 195.7 192.8 191.4 190.5 190.5 188.9 187.5 186.5 185.3 183.2 181.6 180.5 179.8 178.5 177.9 176.8 175.4 174.7 166.5 155.6 157.9 157.9 157.9 158.2 158.2 157.9 157.6 157.3 158.4 163.3 162.8 165.2 165.8 166.5 167.7 168.2 167.7 168.1 164 162.8 166.5 166.6 167.6 157.6 158.9 165.7 164.4 163.9 163.5 164.3 165.5 167.1 168.9 170.8 171 174.5 175.3 176 177.1 177.7 181.9 185.3 190 195 200.9 204.9 202.2 198.2 200.5 203.9 207 210 212.4 214.9 216.6 218.1 220.6 222.7 224.2 225.3 225.7 226.3 227.5 228.3 226.9 224.9 222.6 219.9 218.1 219.4 219.5 219.2 221.2 222.8 224.7 225.9 226 223.6 228.8 229.5 229.8 229.4 226.8 227.1 229.7 232.3 237.5 242.2 245.5 251.9 254.2 254.8 253.8 253.8 252.4 251.1 249.9 248.8 247.3 239 247.4 248.5 249.4 249.1 247.5 247.4 246 246.6 246.1 245.4 245 244.7 244.3 243.9 243.4 241.3 242.1 241 239.6 237.7 235.5 232.9 229.9 226.3 222.1 220.3 217.9 215.4 214.6 213.1 211 207.4 200 188.7 171.5 165.1 164.7 171.4 187.7 192.8 205 208.5 203.2 215.6 223.2 226.5 229.3 232.1 234.9 239.1 241.3 242.4 244.4 247.6 249.3 251 252.4 253.6 255.1 256.6 259.6 261.6 264.4 267.9 270.8 273 275.7
195.7 192.9 191.9 189.2 192.3 192.3 192.1 191.8 195.7 198.1 198.8 199.4 199.7 199.4 199 198.3 196.9 195.2 193 191.8 190.6 189 187.4 185.7 184.2 182.8 180.9 179.3 178.5 177.2 176.2 176.5 164.7 155.7 155.6 157.8 157.7 157.8 157.5 156.4 156.8 154.8 154.8 159.1 162.1 162.3 162.8 163.7 167.8 164.5 157.4 156 159.3 164.1 166.4 164.5 161.6 158.1 159.4 160.5 157.4 157.8 163.2 164.2 165 166.7 168.8 170.8 172.4 173.2 173.6 173.4 173.7 175.2 179.3 183.6 188.1 193.5 198.1 193.1 194.7 197.7 201.1 203.9 207.7 210.2 214.2 215.7 218.5 221.2 223.8 225.8 227 228.2 228.5 229.1 230.2 229 226.8 223.7 221.3 218.1 216 217.4 216.3 218.6 219.5 220 221.4 221.5 221 225.2 225.5 226.7 225.8 224.2 222.7 222.7 224.6 227.3 230.6 236.1 240 246.4 247.4 247 247.6 246.9 245.6 244.4 243.3 242.6 239.5 242.7 243.1 243.1 245.2 243.8 242.3 241.8 242.4 242.7 242.5 243 242.2 241.5 241.3 240.4 239 239.7 239 237.9 236.7 234.9 233.1 230.1 226.9 222 219.1 218.5 217.1 214.9 211.3 206 204.3 199.5 192.3 175.9 166.3 165.3 163.9 176.2 192.3 199 202.2 203.3 210.8 217.5 221.5 225.1 229 233.1 236.3 239.3 240.5 242.7 245.6 245.7 246.6 248 249.6 252.3 255.5 256 258.3 261.8 264.1 265 268 271.2
191.9 193.2 200.2 199.6 197.8 195.8 194 193.7 195.9 197.1 199.7 201.3 201.6 202.3 202.5 201.8 200.8 199.8 198.4 196.1 193.7 191.9 189.7 187.8 187 185.7 184 182.3 181 178.8 178 177.5 175.7 173.9 162.4 158.8 155.6 157 155.6 159.1 157.7 157.3 157.1 156.7 155.1 158.8 158 157.4 156 155.3 155.4 152.6 154.6 154.3 152.4 164 162.7 157 157.4 158.8 160.6 156.9 161.4 161.8 162.5 164 166.4 168.2 169.2 169.1 168.7 169.4 170.1 171.1 174.9 178.3 180.3 184.9 189.3 189.8 192.4 195.6 198.7 201.8 204.9 208.6 212.3 213.7 216.9 219.8 222.6 225 226.7 228.3 229.4 230.5 232.5 231.8 229.4 226.1 223.2 219.7 214.6 212.5 213.4 215.2 216.6 216.1 216.8 211.8 219 221.1 222.1 222.6 222.4 221.4 220.9 219.5 219.3 220.7 223.2 227.2 230 233.7 235.7 238.8 239.5 240 239.3 238.5 238.3 237.6 236.6 235.9 236.6 237.7 238.8 237.2 238.5 236.8 237.8 238.3 239.3 240.2 239.6 239.1 238.3 238.2 237.1 236.9 237.1 236.1 235 233.8 232.1 230.1 226.5 223.6 221.5 219.2 217.4 213.7 210.1 206.4 200.3 195.4 191 177.4 165.8 165 164.2 166.7 180.6 178.1 180.8 199.4 205.9 215.6 220.2 223 228.8 232.1 235.1 238 239.3 240.2 241.1 241.8 242.9 244.1 246.4 249.7 252.8 252.8 255.4 258.9 260.1 261 263.5 266.7
196.4 203.4 203.4 203.3 201.6 200.1 198.6 195.9 194.5 195.6 197.8 199.7 200.8 201.7 202.2 201.2 200 199.4 198.9 197.9 196.7 194.2 191.7 190.3 188.9 187.9 186.4 184.4 182.7 177.3 179.2 178.7 176.2 176.2 175.3 174.1 171.8 169 166.5 163.1 161.2 158.5 157.7 156.3 156.3 155.6 156.4 155.9 155.9 153.5 155.1 155.1 154.9 154.3 153.6 156 160.5 156.5 156.3 156.4 156.3 157.3 158.7 159.9 159.8 160.2 161.7 164.2 165.7 165.4 164.8 166.1 166.9 167.7 169.7 172.8 173.5 173.4 183.5 186 189.2 192.7 196.1 198.8 201.8 205.3 208.8 210.9 215.3 217.9 221.5 223.8 225.4 226.9 228.2 229.3 231.4 232.6 231.9 230 226.8 223.5 218.7 213.5 208.6 209.3 212.2 212.7 213.2 205.6 215 216.4 217.9 219 219.4 218.7 218.4 217.7 214.8 215.4 217.7 219.7 222.4 224.5 226.5 228.6 231.1 232.5 233 233.3 233.3 232.5 232 229 231.3 229.3 229.6 230.1 231.2 230.7 234.1 234.6 235.5 235.3 236.5 236.2 235.5 237.2 236.9 235.3 235.4 234.7 233.6 232.3 230.5 227.9 226 224.5 221.5 220.6 217.9 213.1 208.8 204.8 200.4 195.4 188.6 172.8 166.7 164.8 163.6 161.3 178 188.9 208.3 214.3 217.8 221.3 224.8 228.5 230.8 232.3 234.8 236.7 237.9 238.6 238.4 238.8 240.2 241.4 244.5 247.5 249.3 250.3 251.7 254.5 256.3 257.6 259.7 262.6
212.4 209.8 208.3 207.8 206.8 205.3 203.1 199.9 197.8 196.2 196.6 197.7 198.8 200.5 200.9 200.1 198.7 197.7 197.7 197.1 195.9 193.7 193.1 192.5 189.7 189.5 187.6 185.3 175.2 173.6 170.3 170.5 169.3 168.5 172.1 171.6 168.7 168.3 163.6 167.8 158.7 160.4 159 158.1 158.1 156.6 155.1 156.5 160.3 158.9 157.6 156 154.8 154.4 154.1 151.9 154.6 155.6 155.2 155.4 155.3 156.9 157 157.8 157.4 156.8 159.4 159.1 159.1 159.1 161.4 162.5 164.2 164.4 165.5 167.2 162.8 173.6 179.4 182.8 185.9 189.2 192.1 195.3 198.3 201.8 205.4 208.4 212 216.1 220.1 222.3 223.5 224.2 225.3 226.2 229.4 230 230.1 229.7 227.6 224.6 221 215.8 211.7 206.2 207.8 208.6 208.6 199.9 210.8 211.9 213.7 215.5 215 214.8 215.1 215.1 213.7 211.3 213.2 214.4 216.2 217.9 220.3 222.1 224 226.7 227.9 227.6 228.2 228.3 227.7 225.6 226.7 225.7 225.2 223.9 224.4 226.8 228.9 230.4 231 232 232.3 232.8 233.5 234.2 235.4 233.3 233.7 233.1 232.2 230.8 228.8 226.6 225 224 222.3 220.4 216.9 212.7 208.9 203.2 198.1 193.8 188.8 178.9 165.1 163.3 160.7 164.1 186.3 204.8 216.8 222 225.8 228.9 231.4 233 234.6 235.2 234.7 235.3 236.5 237.4 237.4 237.4 237.9 238.2 241.2 243.7 245.7 246.9 250 251.8 252.6 253.8 256.1 259.5
217.5 214.8 212.6 210.6 209.3 207.8 206.4 204.9 201.8 199.4 198.1 198.2 198.6 198.7 199 198.5 197.2 196.2 194.9 193.6 192.7 190.6 190.5 191.6 189.1 189 178.6 173.2 175.5 174.3 173.1 173 171.7 168.8 165.2 166 165.1 166.2 167.2 166.9 166.5 163.7 160.5 160.3 160.7 161.1 161 159.8 166.1 164.2 162.8 161.6 159.3 155.2 154 153.2 153.8 152.7 154.8 154.7 154.6 154.5 154.2 154.9 157.5 154.8 155.8 155.3 155.2 155.6 157 157.4 157.7 159.4 160.6 161.4 156.5 168.2 173.1 178.8 182.7 185.4 187.8 190.7 194.2 197.6 201.4 205 209.1 213.2 217.4 219.4 221 221.4 221.5 221.2 222.7 224.6 224.9 225 224 222.7 219.2 215.2 212.1 206.9 203.4 204.3 203.2 198 205.2 207.7 209.9 211 210.6 209.8 211.7 211.6 211.3 210.1 209 211.5 212.4 212.9 215.2 217 218.5 220.7 222.2 223.3 223.5 223.7 223.3 220.8 217.9 218.5 218.3 218.9 219.9 221.9 225.2 226.8 227.2 228.1 228.8 229.8 230.9 231.9 232.7 232.1 232.4 231.7 230.7 229.1 227.8 225.1 224 223.2 221.6 218.4 215.3 212.1 207.9 202.3 196.4 192.5 186.5 173.1 163.1 159.5 167.6 187.2 202.6 211.5 221.1 225.5 229 231.9 234.3 236.6 237.6 238.1 237.2 235.7 235.5 236.5 237.5 237.2 236.5 235.9 238 240.5 243.1 245.8 248.8 250 250.2 251.1 253.5 257.5
217.3 214.9 212.8 211.2 208.7 207.8 206.1 205.3 204.3 203 200.7 199.9 199.3 197.9 197.7 196.5 193.6 191.9 191.3 187.2 184.3 181.9 181.8 178.5 176 174.8 180.6 185.7 185.3 182.6 182.8 182.8 180.6 178.3 179.9 179.2 178.3 176.5 174.6 173.7 171.1 168.3 165.5 162.7 163 164.1 166.2 168.5 168.7 167.7 166.2 164.9 164 164.4 162.8 156.9 151.8 153.8 154 154.1 153.8 153.4 153.4 153.9 153.2 149.4 149.1 148.9 152.3 152.4 153.4 153.4 154.7 154.9 153.7 153.9 156 159.5 165 170.6 176.4 181.4 184 185.7 189.2 192 196.1 200.2 204.4 206.9 209.6 212.2 215.4 216.9 217.3 216.4 215.7 216.3 217.4 217 217.3 216.5 213.6 211.3 207.9 206.8 198.6 200.7 199.5 192.2 200.5 201.7 205.4 205.8 206.3 205.6 208.1 208.7 208.9 208.5 207.5 208 208.6 208.4 210.2 212.2 213.9 215.6 217.3 218.6 219.4 219.8 219.5 217.8 216 210.1 213.1 214.8 215.5 217.3 220.6 222.6 224.1 225.4 226.1 226.8 227.7 228.6 228.8 228.9 229.9 229.9 227.8 226.4 225.8 224.3 222.9 221.6 219.5 216.8 213.7 210.2 206 199.9 195.3 190.8 181.1 169.9 162.2 161.5 180.3 197.3 206.2 214.4 222.7 227.2 230.8 233.4 235.9 234.5 240.4 240.4 240 238.6 236.8 235.2 235.4 238 236.6 234.6 235.5 238.7 241.2 244.1 246.3 247.2 247.8 250.6 253 255.3
220.3 217.2 212.4 211.1 210.8 209.7 208 205.5 203.9 203.5 202.1 201.5 200.1 197.5 196.6 195.3 194.5 192.7 190.4 188.9 183.7 187.3 186.9 186.7 188 188.2 189.8 190.1 190.4 189.3 188.5 187.6 186.9 185.9 186.5 185 181.8 178.5 177.8 177.7 175.1 172.5 170.1 168.7 167.8 168.4 169.1 170 170.8 170 168.8 166.4 163.9 162.3 164 166.3 168.6 166 151.2 153.4 153.7 153.5 152.8 150.3 152.6 152.3 152.4 152.1 151.5 150.5 148.4 150.4 151 150.7 150.1 150.9 150.8 151.3 152.6 156.6 161.3 173.5 178.3 182.5 185.1 187.3 190.8 194.4 198.1 201.7 204.8 206.5 208.6 209.4 210.3 210.8 210.2 209.1 208.8 209 208 208.8 207.4 205.4 204.1 202.6 200 195.6 194.5 196.4 198.7 198 200.8 201.4 201.7 201.5 203.1 204.8 205.7 206 205.7 203.4 205.3 205.5 206.2 208.2 209.6 210.9 212.4 213.5 214.8 215.4 214.3 213.3 212.8 210.3 202.6 210 210.9 211.7 215.6 217.6 219.8 221.9 222.9 224.2 224.9 225 225.6 225.3 226 225.9 223.6 222.7 222.6 221.7 220.6 221.1 218.6 216.1 213 208.3 204.6 198.2 194.1 188.9 179.7 171.1 161.3 170.2 187.6 198.5 205.5 214.4 222.5 227.6 230.6 233.7 236.3 238.1 240.2 241.3 242.5 242.1 240.7 238 235.9 234.2 232.8 232.7 234.3 237.5 239.3 241 243.2 244.3 246.3 249.7 251 252
224.2 221.1 217.9 216.6 215.5 214 211 208.8 207.8 205.1 204.7 205.5 204.4 202.1 199.6 197.7 196 194.4 191.7 188.6 190.7 192.9 192.6 193.6 194.3 194.3 194.7 194.5 194.2 193.6 192.6 191.6 190.6 189.3 188.7 187.6 186.7 185.7 183.8 183 179.7 176.9 174.1 173.6 173.4 173.3 173.1 172.7 172.8 171.9 170.5 167.9 166.4 163.6 163.4 165.3 167.1 168.7 168.7 166.3 153.8 150.4 153.6 153.9 153.6 153.3 152.9 152.9 152.8 152.3 151.7 150.7 151 149.6 147.3 149.6 150.7 149.7 149.4 148.8 149.4 154.6 160.3 175.9 179.9 179.5 187.1 189.6 191 194 196.1 198.7 200.3 201.2 201.7 203.5 204.9 204.9 203.7 203 202.3 202.3 201.7 199.8 199.6 198.7 197 190.3 183 193.3 195.2 195.2 196.4 196.2 197.1 197.3 197.2 199.2 200.8 200.2 200.9 198.9 202.9 203.3 203.3 204.6 204.8 206.1 206.8 208.1 209 209.2 208.5 208.2 208.3 207.8 206 202.2 207 209 211.5 212.2 213.9 216.1 217.2 220.7 221.1 220.8 221.5 217.8 220.9 221.3 220.8 220.2 219.4 218 216.2 216.8 217.2 219.7 211.8 206.6 202.8 197.5 191.4 185.2 178.1 168.9 161.4 163.5 187.4 197.1 205.6 214 222.6 227.3 230.5 233.6 236.7 238.4 239.1 240.1 241.2 242 242 240.9 239.2 237.9 235.8 229.9 234.3 236.5 238 239.8 241 242.8 244.3 246.5 248.7 249.7
227 223 221 220.3 220.8 219.4 214.5 215.4 215 212 208.6 208.2 208.9 207.6 205.7 203.5 201.1 198.1 196.1 197 198.1 198.3 197.8 198 198.5 198.9 198.5 198.2 197.8 197.1 196.4 195.5 194.6 192.8 191.5 190.1 189.5 189.7 187.3 187.5 184.7 181.8 179.6 178.3 177.9 177.5 177.1 176.6 175.1 174.3 173 170.5 167.5 165 163.7 164.2 165 166.8 168.7 168.6 165.2 157.5 156.3 154.9 153.7 153.5 154.1 153.4 153.5 153.2 153.8 153.4 152.9 151.5 151.2 150.4 147.3 148.8 149.4 148.6 146 148.4 147.4 154.3 159.4 168.1 184.3 185.1 186.3 187.1 188.4 190.9 193 194.5 194.1 195.5 196.7 198.7 199.2 199.2 197.9 197.1 197 194.9 194.2 193.8 192.4 185.5 189.9 191.4 192.3 192.2 192.1 191.7 193.6 194.1 193.8 193.6 194.2 195.7 196.7 196.4 199.8 201.1 201.5 201.7 202.1 201.6 202.7 202.7 202.9 203 203 202.9 203.4 202.9 203.3 197 201.9 204.8 206.8 207.8 208.5 210.2 211.5 214.6 217 216.1 216.3 215.6 216.8 217.4 217.6 217.5 217.5 216.4 214.3 211 210.9 209.4 207.6 204.4 199.8 196.9 190.9 183.9 177.7 167 160.5 162.1 186 198 205.9 215.7 222 226.6 229.4 232 234.5 236.5 238 238.6 239 240.1 240.6 239.7 238.4 237.1 235.2 228.5 231.4 235.6 236.4 239.1 240.7 243.3 244.3 245.2 246.5 247.9
228.9 225.8 226.9 225.2 223.7 224.4 221.9 218.4 218.1 215.7 214.4 212.2 211.6 212.8 212 209.5 206.3 203.3 201.9 201 202.7 202.5 201.4 201.2 201.3 201.4 201 200.8 200.5 199.8 199.4 198.7 197.8 196.5 195.3 194.2 193.3 192.7 191.4 191 189.4 186.3 184.3 182.8 182.5 182.2 181.8 180.8 179.4 177.8 175.7 173.7 171.1 166.8 164.5 164.9 166.4 165.5 166.6 166.3 162.2 160.8 157.5 156.4 155.6 155.3 155.4 154.5 153.7 153.9 153.8 153.4 152.6 152 151.7 151.1 150.2 149 149.1 149 148.9 148.7 146.8 147 148.5 154.5 161.9 177 181.3 183.2 182.8 183.9 184.3 185 184.9 186.8 188.7 190.6 191.6 192.1 192.3 192.4 191.7 189.7 188.9 188.8 187.4 180.4 185.5 188.3 188.9 189.6 188.1 187.2 188.1 188.2 188.4 187.9 189.3 190.8 192.3 193.5 195.2 197.6 198.4 198.7 199.6 199.8 198.5 198.4 198.2 197.8 197.4 197.1 197.8 197.5 198.6 192.9 200.6 201.8 202.5 203.8 203.8 203.9 205.7 206.9 208.7 209.7 211.5 212.3 213.2 214.1 215.2 215.2 215.1 214.2 213.7 212.7 210.7 207.2 203.6 200.6 196.7 193.6 189.7 186.8 183.1 173.1 157.4 164.7 189.3 201.2 210 216 222 225.1 228 230.7 232.7 234.7 236 237 237.5 238.4 238.1 237.6 236.7 235.7 231.2 231.7 235.6 236.4 237.6 239.3 240.9 242.5 243.8 244.4 244.9 245.6
233.9 232.4 231.4 232.9 230 226.9 220.8 222.8 222.2 220.9 221 221.5 219.8 216.4 215.6 215.1 211.6 208.5 193.8 206.4 206.5 206.3 205.2 204.2 204.1 203.9 203.5 203 202.6 202.5 202.1 201.3 200.7 200.2 199.3 198.2 197.2 195.8 195.3 194.6 193.3 191.2 188.4 187.1 186.4 186 185.6 185 183.3 181.3 179.2 177 174.3 170.5 166.3 166.6 167.3 166.3 165.6 164.4 168.3 168.5 164.9 158.6 156.7 155.8 155.3 155.1 154.9 154.4 153.2 154 155.3 159.7 158.1 157.9 156.9 157.3 156.3 156.8 153.5 155.1 153.9 147.5 147.3 146.4 154.6 160.9 171.2 175.4 177.6 177.9 178.1 176.8 175.9 177.5 181.8 183.6 184.5 185.4 185.1 187.4 186.9 185.6 184.1 183.4 181.9 178 181.4 183.9 183.8 183.5 183.5 181.8 182.6 182.9 183.1 182.5 182.4 183.1 183.8 187.7 188.8 192.1 194.5 194.3 195.4 196.3 195.7 195.1 193.9 194 192.7 191.9 192.1 192.4 194.8 184.4 198.2 199.9 201.2 199.7 199 197.8 196.8 198.8 200.7 203.8 201.4 207.2 209.1 211.1 213.1 213.4 213.3 213 212.4 211.8 212.5 209.2 204.1 200.8 196.5 192.8 189.9 187.9 185.2 172.1 168.3 185 192.9 202.1 210.7 216.2 220.7 223.7 226.5 229.2 230.8 232.4 234.1 236.4 236.4 235.9 235.6 235 234.4 232.7 225.4 233.9 236.8 237.9 239.6 239.2 240.6 241.4 242.7 243.4 243.5 243.5
239.1 236.1 233.7 230.5 226.3 227.3 228.2 228.1 228.1 228 228.6 227.4 226.1 224.7 221 221.8 218.6 206.9 206.3 213.7 213.6 210.9 208.3 207.2 206.6 206.4 205.9 205.8 205.7 205.8 205.3 203.9 203.5 203.1 202.6 201.3 200.8 198.8 199.3 198.4 197.1 195.5 193.1 191.6 190.7 190 188.8 187.6 186.4 184.4 182.3 180.1 177.6 174.2 170.1 168.2 167.4 168.5 165.3 164.7 170.5 172.3 170.5 166.4 159.1 156.1 156.2 156.4 156 155.9 155.3 157.1 159.5 161.1 161 158.8 159 157.4 157.6 157.5 155.1 152.9 153.7 157.1 147.3 147.7 144.9 149.9 160.1 165 169.9 171.7 172.7 170.5 169.8 169.2 174 176 177.1 177.1 178.8 180.3 182 181.6 179.3 178.3 176.5 172.5 174.2 177.1 179.6 179.3 178.4 177.8 177 176.3 177.3 177.7 177.5 177.2 179.8 179.5 179.2 185.4 188.9 188.4 188.9 190.5 190.4 191.4 190.4 190.8 189.9 188.3 191.2 188.8 190 181.3 194 195.6 197.5 198.5 195 192.2 189.9 190.2 193.5 197.3 199.7 197 203.6 210.4 223.8 214.2 213.6 212.4 212.1 210.8 209.1 207.8 204.4 200.9 197.9 194.2 189.1 186.4 186.5 167 166.9 185.8 193.4 203.6 210.4 215.7 218 218.9 222.9 226.4 228.3 229.7 230.7 233.3 234.2 233.7 233.1 231.6 231.7 228 225.6 234.3 236.8 238.5 239.1 240.6 240.9 240.4 240.7 241.7 242.1 241.3
242.6 240.4 236.8 233.8 231.2 226.7 231.7 232.1 232 232.4 232.4 231.3 230.7 229.2 226.3 224.1 212.5 202.3 215.7 219.8 218.2 215.4 213 211.5 210.5 209.3 209 208.9 208.8 208.7 208.4 207.2 206.8 206.9 205.9 205.2 204.2 204.3 202.7 201.4 200 198.8 198 196.7 195.4 193.9 192.3 191.3 189.7 187.5 185.3 183.3 181.3 178 174.3 170.4 169.1 167 167.2 169.9 173.2 174.6 173.6 170.4 166.5 161.8 159.2 159.3 157.4 158 158 158.3 158.6 161.3 161.6 161 159.3 158.8 157.4 154.5 154 154.6 154.4 153.2 155.8 161.2 157.6 144.9 148.8 154.3 162.7 165.9 166.3 165.5 164.2 163.6 165.6 167.7 170.5 171.7 172.7 172.9 174.7 175.7 175.8 175.1 173.7 168.3 160.9 172.9 174.2 174.6 174 173.4 171.9 171.2 170.2 170.4 170.8 171 172.1 173.6 175.7 178.8 179.9 177.4 182.6 184.4 186.7 187.6 187.1 187.9 187.8 186 183.1 183.3 184.4 184.4 189.8 191.3 193 194.7 193 189.6 184.3 183.1 186.2 189.1 191.8 190.2 201.6 202.5 221.4 221.9 214.5 213 211.4 208.8 206.2 204.6 203.5 201.2 198.3 195.5 188.9 184.9 181.9 162.9 167.7 184.4 192.2 201.2 208.8 213.2 217.5 216.3 217.5 221.1 224.8 226.8 227 228.4 229.7 230.4 229.5 228.4 228.1 222.6 224.2 234.4 236.6 237.8 239.2 240.5 240.1 239 239.4 239.3 239 239.4
247 245.9 240.1 237 234.1 233.2 232.3 233.1 234.4 234.8 235.8 234.8 232.3 230.1 229.6 229.4 207.2 216.3 222.6 224.4 223 222.3 219.2 217 215 213.4 212 211.8 211.8 211.6 212.1 210.8 210.4 210.7 209.9 209.4 208.7 207.9 206.7 205.5 203.8 201.8 200.7 199.7 198.8 198.1 196.6 195.1 193.6 191.3 189.3 186.7 184.7 181.9 178.5 175.5 171.5 169.4 168.2 170.4 174.6 177.3 176.8 174.4 170.7 167.1 161.9 160.5 160.5 159.2 159 159 158 158.2 159.7 159.8 158.9 158.1 157.1 155.3 154.7 154.4 154 153.6 152.7 156.8 157.3 154.8 145.6 149 149.2 154.2 159.5 160.6 160.7 160.6 161.1 162.9 164.4 167.7 168.1 168 167.5 169.8 169.5 169.8 169.1 165.4 161.7 168.3 169.1 169.8 169.4 169.3 167.5 166.5 165.4 163.6 163.4 163 163.9 166.2 171.2 172.6 173.3 175 176.8 178.8 180.3 181.2 181.8 183.1 185.7 185.2 184.2 182.6 182.8 177.4 185.9 187.8 188.6 189.3 189 187.4 185.2 180.3 181.6 179.9 187.6 193.5 192.1 191.7 204.2 220.2 212.1 211.5 209.4 206.7 205.2 203 201 199.7 196.3 193.4 189.1 182.9 174.9 158.2 161.4 183.4 190.9 200.5 205 208.8 215.9 216.6 216.9 217 220.4 221.7 222.6 224 225.2 226.4 226.8 225.8 225.1 219.1 229.1 233.2 235.3 236.7 238.3 239.7 240.3 239.1 237.5 236.7 236.5 237.1
250.5 250.2 247.7 241.9 237.8 236.1 235.4 232.9 236.7 237.5 238.1 235.9 236.5 234.3 231.6 228.7 223.9 212.9 224.8 228.3 228.7 227.7 225.4 222 219.6 217.6 216 216 216.1 216.1 215.6 214.7 214.4 214.2 213.8 212.8 210.6 211.1 209.6 209 207.7 205.8 203.9 202.6 201.6 200.8 199.9 198.6 197.3 196 194.5 192 189 185.9 183.1 179.3 176.2 173.5 170.8 170.4 172.6 176.7 177.7 177 175.8 173.7 170.6 163.6 161.4 161.1 160.6 159.3 158.6 157.8 158.5 158 159.3 158.7 156 154.7 154 153.9 153.7 152.2 151.5 151.5 151.8 151.2 150.3 144.7 147 146.9 150.9 154.9 159.5 160.1 159.3 159.9 162.1 163.1 164.4 165.5 164.9 162.6 162.3 165.2 164.6 161.5 160.1 159.8 162.8 166.2 165.2 164.7 164.2 162.1 160.2 158.7 158.4 157.1 157.1 162.8 164.1 166.1 168.2 165.2 171.7 173 173.9 175.1 175.2 195.5 197.1 183.4 179.5 178.7 179.9 168 182.3 184.6 185.5 184.8 184.6 184 183.1 180.3 175.4 178.7 183.7 179.6 181.8 186.4 194.7 204.5 210.3 207.4 207.1 205.6 204.1 202.5 199.3 197.1 194.6 191.4 187.3 183.3 170.5 157.4 156.6 181.9 190.3 198.4 201.4 204.1 207.8 212 215.8 217.2 216.9 217.6 219.1 220 220.1 221.4 222 222.1 220.1 222.7 229.3 231.8 233.6 235 235.8 237.4 237.7 237.6 236 234.6 234.7 235.5
