ncols 200
nrows 82
xllcorner 210000
yllcorner 231300
cellsize 50
148.3 145.4 143 139.7 136.7 134.2 132.2 129.5 127 124 118.8 114 111.3 106.8 104.5 101 114.6 119.1 121.3 123.5 125.3 126.1 126.4 126.4 125.7 125.4 124.3 123.5 121.4 119.3 116.3 113.3 109.9 105.3 98.3 106.9 116 120.1 123.3 125.7 127.5 128.3 128.8 128.7 128.1 126.8 125.4 123.9 123.5 122.2 121 120.6 119.4 120.9 120.8 121 120.4 119.3 117.4 115.9 115.1 113.8 110.7 118.2 120.1 120.4 118 116.9 114.8 113.3 111.4 109.7 108.8 108.7 109.4 110.2 111.5 111.9 112.6 112.3 111.7 111.5 110.7 109.2 109.3 109.5 109.6 110 109.5 109.7 110.9 111 111.1 111.4 112.8 115.3 116.4 117.1 118.7 119.9 120.6 121 120.9 121.8 122.7 123.8 125.3 126.2 127.7 128.6 128.9 130 130.6 131 131.1 131.3 131.7 131.7 131.6 131.5 131.3 130.4 129.5 129.1 129.7 132.1 135.3 139.1 142.4 145.3 148.9 152.4 155.6 159.1 162.7 165.2 168.2 170.2 171.7 172.9 173.5 172.4 171.6 169.8 167.3 163.2 157.5 147.3 145.2 153.6 159.7 163.5 167.3 170 172.4 175.4 178.2 180.3 182.3 184.4 185.7 186.6 187.7 188.1 188.7 189.9 191 192.3 193.7 196.1 198.6 201.2 204 207.3 210.8 215.2 219.2 222.7 229 235.6 242.8 250 258.7 267.4 274.6 278.9 282 284.1 286.1 288.6 292.2 296.3 302.1 308.8 316.3 324.3 330.6 335.5 340.1 342.4
147.1 144.9 142.1 138.8 136.7 134.2 131.9 128.6 126.7 123.9 120.3 117.2 112.1 105.7 103.1 101.8 117.3 121 123.4 125 126.8 127.2 127.4 127.6 126.6 125.9 124.6 123.9 122.3 119.8 116.5 113.4 109.2 105 97.8 104.3 113.4 117.3 121.3 123.7 126.2 126.5 127.2 127.7 126.5 125.3 124.5 123.3 122.5 121.7 121.3 121.4 122.1 123.5 124.4 124.8 124 122.5 120.5 118.4 116.9 117.3 114.1 120.4 123 123.8 122.1 120.4 117.6 114.9 112.5 110.4 108.6 109 110.5 111.5 112.2 113.4 113.2 112.9 112.7 112.5 111.7 110.5 110.4 111.4 111.3 111.1 111 110.2 111.3 112 112.3 112.2 112.7 113.6 116 118.5 119 120.1 121.2 121.1 121.8 122.4 123.7 124.9 126.3 127.4 128.9 129.7 130.4 131.7 132.4 132.4 132.6 132.8 132.9 132.8 132.7 132.6 132.5 132.3 131.3 130.5 130.5 130.7 134.6 138.8 141.5 144.7 148 151.6 155.1 158.5 161.7 164 166.3 168.7 170.9 171.5 171.8 171.3 170.5 168.5 166.5 161.6 158.6 150.8 144.3 147 156.2 161.6 165.4 168.2 171.2 174.6 177.9 180.4 183.2 185.5 186.7 187.7 189 189.9 190.3 191.7 192.8 194.1 195.4 197.8 199.9 201.8 205 208.2 211.4 214.6 217.6 222.1 226.9 234.1 242.5 250.2 259.5 268.4 275.8 280.1 282.9 284.7 286.2 288.2 292 297.2 303.9 311 320.7 329.3 336.7 343.1 347.9 350.2
147.1 144 141.4 138.4 136.9 134.3 132.1 129.1 125.6 121.5 120.3 119.5 108.7 104.3 103.3 113.1 120.4 123.3 124.6 125.9 127.1 127.7 128.5 128.3 127.3 126.5 125.1 124 122.2 120 117.6 114.7 109.8 110.1 99.4 102.8 108.8 114.8 119.1 121.5 124.5 125 126 126.4 125.2 124.3 123.5 123.2 122.5 121.9 121.5 121.5 123.5 125.7 126.9 127.5 126.7 125.7 123.8 121.7 120.7 120.1 120.3 123.1 126 125.5 124.3 123.1 120.5 117.8 113.9 109.9 109.8 110.9 112.2 113.8 114.6 114.4 114.3 114.4 114.1 113.6 112 111.7 111.5 111.8 112.7 113.2 111.5 110.5 111.3 112.7 112.9 113.1 113.5 114.5 115.9 117.3 118.5 119.3 120.8 121.8 122.6 123.3 124.3 126 127.5 128.4 129.6 130.8 131.7 132.8 133.4 134.3 134.4 134.6 134.6 134.7 134.8 134.9 134.2 133.8 133.2 132.5 132 131.3 133.2 137.8 141 144.1 147.2 150.7 154.2 157.5 160.5 162.7 165 167.3 169.6 170.4 170.2 169.8 168.7 167.2 165.2 161.9 158.7 153.4 146.4 147.9 147.5 155.5 162.9 166.4 169.8 173.7 177.2 180.3 183 185.4 187.2 188.7 189.8 191.2 191.8 193.1 194.5 195.7 197 199.1 200.2 202.3 205.4 208.6 211.8 214.3 218.5 223 227 232.6 241.2 250.1 259.6 269.2 276.3 281.7 283.7 284.7 285.7 287.7 291.2 296.4 303.7 311.5 321.9 332.1 341.4 349.4 354.6 358
146.2 142.9 141.1 138.6 136.3 132.9 132.7 130.3 124.5 116 115.4 109 108.1 107 106.5 120.2 123.2 124.5 125.8 126.9 128 128.9 128.6 128.8 127.9 127 126.1 124.6 122.8 120.9 118.6 115.5 115.3 114 104.9 105.8 106.9 111.7 117.4 120.5 122.5 123.6 124.1 124.8 124.1 123.9 123.7 123.6 123.2 122.8 122.9 124 125.7 127 128.6 128.8 128.8 127.2 126.1 124.5 122.7 122.3 124.4 124.8 127.2 128.1 127.6 126.4 123.9 119.4 113.4 110 110.6 113.2 115.8 116.7 116.9 116.4 116 116 116 115.8 113.9 113.3 113.5 112.8 113.2 113.1 112.7 111.8 112.5 113.3 114.9 114.1 114.7 115.8 116.6 117.3 118.2 118.6 120.7 121.3 122.9 123.9 125.2 126.4 127.9 129.5 130.6 132.4 133.3 134.5 135.2 136.4 136.5 136.9 137 137 137.2 136.9 136.3 135.6 135 134.5 133.8 132.8 132.8 136.1 139.9 143.3 146.7 149.9 153.2 156.4 159.2 161.9 164.2 166.2 168.2 169.4 169.2 168.6 167.8 166.7 164.8 161.6 159.2 152.2 150.3 153.6 152 149.1 154.5 163.2 167.7 171.8 175.6 179 182.2 184.7 187 189 190.3 192 193.4 194.4 195.9 197 198.4 199.6 200.7 202.8 205.9 209.1 212 214.5 218.9 223.4 227.1 233 240 248.3 258.5 268.4 275.5 280.7 282.6 283.2 283.6 285 288.3 293.7 300.2 309.2 320.3 332.3 344.2 353.9 361 364.2
146.2 143.6 141.8 140 138.8 137.1 135.4 132.6 123.8 113.7 109 110.9 110 109.4 114.7 120.7 124.2 125.7 127.4 128.4 129.3 129.6 129.3 129 128.5 127.4 127.1 125.4 123.5 121.6 118.8 118.5 117.4 115.6 105.9 107.6 108.5 109.7 116.8 119.6 121.8 122.8 123.4 123.5 123.9 124.1 124.2 124.4 124 124.1 123.7 124.8 125.9 128 129.8 130.2 129.9 129.2 128.6 127 125.8 125.4 127.3 126.9 129.1 130.1 129.7 128.8 126.9 121.5 114.3 112.4 113.5 118.1 119.7 119.9 119.9 119.5 118.9 118.2 118.8 118.4 116.6 115.5 115.2 114.9 115.3 114.6 114 113.7 114.3 115.2 115.3 115.2 115.4 116.9 117.5 118.1 118.6 119.7 120.4 121.3 122.3 123.9 125.7 127.3 128.8 130.6 131.7 133.3 135.1 136.4 137.6 138.3 138.7 140 140 139.9 139.9 139 138.3 137.6 137.1 136.3 135.3 134.3 133 134.6 139.1 142.5 146.4 149.2 152.3 155.2 157.9 160.5 163.2 165.3 167 168.4 168.2 168.1 167.4 166 164.5 161.6 158.9 149.6 153.8 159.5 156.7 154.7 150.4 155 164 169.2 173.1 177 180.6 183.5 185.7 188.1 190.7 192.2 193.9 195.1 195.9 196.9 198.4 200 201.1 203.3 206.4 209.4 212.4 215.1 219 223.2 227.3 232.8 238.3 246 254.6 264.1 271.2 276.4 278.3 279.5 280.2 280.9 283.3 287.9 295.2 304.2 316.4 330 343.4 355.8 365.3 367.9
146.5 144.5 143.5 141.5 140.6 139 135.1 130 117.5 113.1 112.4 112.5 112.1 111.9 117 123 125.9 127.6 128.9 129.8 130.6 130.7 130 129.6 129.3 128 127 125.5 123.9 122.5 121 119.6 118.3 117.2 112.9 109.7 111.5 112.6 113.7 115.1 119.6 120.9 121.6 122.7 123.6 124.3 124.8 125.2 124.9 124.7 124.6 126.1 127.1 129 131.1 131.5 131.3 131.2 130.6 129.3 127.5 127.6 128.7 129.9 131.1 131.9 132 131.5 130 127.2 120.2 116.8 119.2 123.5 124.8 124 123.9 123.2 122.5 121.2 122.1 120.6 119 117.7 117.1 117 117.3 117 116.4 115.4 116.4 116 115.7 116.1 116.8 118.2 118.8 119.3 120.2 120.5 121.4 121.5 122.6 124 126.4 128.5 130.1 131.3 132.8 134.4 136.4 138.2 139.5 141 142 142.9 143 143.1 143 142 140.9 139.7 139.1 138.2 137.2 135.9 135.4 134.8 137.4 142.5 145.9 148.9 151.9 155.1 157.9 160.5 163.1 165.2 166.6 168 168.6 168 166.7 165.5 163.8 161.3 156.8 150.8 155.9 158.3 159.1 159.1 157.7 151.2 156.1 164.8 169.5 173.9 177.3 180.1 183.4 187.1 189.4 191.6 193.2 195.1 196 196.5 198.1 199.9 201.5 203.8 206.1 209.3 212.2 214.7 219.2 223.4 227.3 231 236.1 241.9 248.8 256.2 262.3 266.3 268.8 270.2 272 273.1 276.1 281.3 288 297.9 310.5 324.4 339 352.7 363.3 366.6
147.2 145.4 144.1 142 140.5 137.8 134.2 124.4 117.3 114.9 114.6 114.6 114.9 118 121.2 125.2 127.7 129.8 130.5 131.2 131.7 131.8 131.3 130.9 130.4 129.2 128.3 127 125.6 124.1 122.4 120.9 118.4 116.4 111.7 113.1 113.5 115 116.1 116.5 117.9 120.1 121.3 122.2 123.9 124.6 125.1 125.6 125.9 125.6 125.8 126.6 128.4 129.7 131.5 132.3 132.7 132.6 132.6 131.3 130.5 129.6 131 131.7 132.6 133.4 133.8 133.4 132.3 129.9 125.4 124.8 126.6 129.5 131 130.1 128.5 127 126.2 125.4 124.7 123.2 121.6 119.8 119.4 118.7 119.2 119.2 118.8 117.3 117.8 117.7 117.3 117.9 118.5 119.5 120.5 121.3 121.8 122.4 122.4 122.6 123.2 124.7 126.8 129.2 131 132.8 134.2 135.5 137.8 139.7 141.4 143 144.2 145 145.3 145.5 144.9 144.8 143.4 141.9 140.9 140 139.1 137.5 137.7 135.4 137.1 141.2 145.7 149 151.9 155.1 158.1 160.5 163 165.1 167.2 168.3 168.9 168 166.6 165.2 163 159.8 152.3 155.3 158 160.1 161.4 162.2 161.2 159.4 152.5 154.6 163.4 169.4 173.8 176.9 180.3 183.2 186.1 188.7 191.3 193.1 194.7 195.5 197 198.9 200.4 202.5 205.1 209.4 212 215.5 219.1 222.9 226 229.2 233.5 237.2 241.9 246.9 250.7 254 256.9 259.7 262.2 264.8 268.4 273.2 281.1 291.3 303.3 316.2 330.1 343 353.7 362.1
148.5 146.6 144.6 142.1 140 137.2 127.9 121.4 117.9 113.5 117 117.8 118.2 120.6 124.6 127.5 129.7 131.7 132.5 133.6 134 134.3 133.8 132.9 132.3 130.9 129.8 128.7 127.2 125.7 124.1 122.4 119.1 114.7 114.3 114.5 114.8 115.3 117.4 118.8 118.4 119.9 121 122.7 123.8 124.7 125.5 126.1 126.3 126.4 127.1 127.3 129.1 130.4 131.9 133.3 134.4 134.1 135.1 133.8 132.3 132.3 132.8 132.9 133.1 134.8 134.9 135.1 133.5 132.2 130.7 131.2 132.4 134.5 135.3 134.8 133.5 131.3 130.4 129.4 127.4 125.8 124.1 122.2 121.2 121.1 121 120.7 121 120 119.8 119.8 118.9 119.5 120.2 121.2 122.2 122.7 123.1 123.7 123.7 123.8 124.4 125.5 127.2 129.7 132.1 134.1 135.4 136.8 139.2 140.9 142.8 144.2 145.7 146.8 147.1 147.8 147.7 146.6 146 144.7 143.5 142.4 141.3 139.8 139.9 138.6 137.5 141.4 146.1 149.3 152 155.9 159.1 161.1 164.2 166.3 167.8 168.6 168.9 167.9 166.4 164.7 162.4 159.1 152.6 156 160.1 161.8 163.2 164.3 164.5 163.7 161.4 156.6 154.2 161.2 167.9 171.9 175.7 179.1 181.9 185 187.6 189.9 191.6 192.9 194.5 196.4 198.6 200.8 203.7 208 211.7 214.3 217.8 220.6 223.7 227 229.2 231.9 235.6 237.6 239.4 241.9 243.9 248.9 251.7 255.2 261.5 266.9 274.6 284.1 294.7 306.5 318.6 330.8 342.8 353
149.6 147.3 145.1 141.8 139.5 134.3 124.5 121 117.6 115.1 121.3 120.7 121.2 123.4 128.4 130.7 133 134.6 135.3 135.8 135.8 135.7 135.1 134.8 134.1 132.7 132.1 130.2 128.7 127.3 125.7 123.7 121 117.7 115.8 116.1 116.5 117 118.2 119.4 119.8 120.3 121.2 122.1 123.4 124.5 125.4 126.7 127.5 128.1 128.7 129 130.4 131.8 133 134.3 135.3 135.5 135.9 135 134.7 133.4 134.4 135.3 135.7 136.9 137.9 136.5 135.9 132.2 135 136.5 137.8 138.8 139.4 138.8 137.8 136.7 135.4 133.8 132.1 129.8 126.9 125.3 123.8 123.1 123.5 123.4 122.7 121.3 121.3 120.8 120.8 120.7 121.9 123 123.8 124.9 125.1 125.2 125.4 125.8 126.6 127.6 128 129.9 133.3 135.5 137.2 138.9 140.4 141.8 143.4 145.6 147 148.5 149.2 150.1 150.1 149.4 148 146.5 145.2 143.9 142.6 142.4 142.3 140.7 137.6 141.5 145.1 147.5 152.3 155.9 159.5 162.6 165.8 167.9 168.5 169.3 169.5 168.7 167 164.8 162.2 158.3 153.5 159.2 162 163.6 165 165.7 166.3 166 165.4 162.9 159.1 156.6 160.1 165.7 169.6 172.9 176.2 179.3 182.9 185.8 188.2 189.6 190.9 192.5 194.8 197.5 202.1 205.9 209.2 213.1 216 218.3 220.6 222.6 224.7 226.9 228.6 230.3 232.4 234.9 236.2 239.1 242.7 246.1 253 259.6 267.5 275.7 285.2 294.6 304.8 318.2 330.7 342.1
149.9 147.4 144.5 140.5 137.4 130.7 122.7 118.9 118.5 120.8 121.2 123.6 124.8 126.9 130.8 132.9 134.7 136.2 137.1 137.9 137.9 138.1 137.8 136.7 135.6 134.6 133.4 131.8 130.3 129.1 127 124.7 121.8 118.8 117.4 117.8 118.5 118.6 119.4 120.9 121.2 121.3 122 122.7 123.7 124.8 126.8 127.8 128.5 129.5 130.2 130.7 131.5 132.5 134 135.4 136.1 136.4 136.6 136.7 136.4 135.9 136 136.9 137.1 138.3 138.6 138.7 136.7 137.1 139 140.1 141.5 142.5 143 142.3 141.2 139.9 138.4 137 135.5 133.2 130.8 129.2 126.2 125.7 125.9 125.4 124.2 122.4 122.3 122.3 122 122.8 124.1 124.9 126.3 127.1 127.5 127.4 128.3 128.6 129.6 130.8 131.1 131 133.4 136.7 138 139.7 141.1 142.6 144.2 146.8 148.3 149.9 151.2 151.9 152.4 151 149.5 148.2 146.9 146.2 145.3 144.5 144.1 142.2 138.8 142.2 146.3 149.1 152.1 155.7 160.3 164 167.3 169.1 170.4 170.9 170.7 169.5 168 165.8 163.2 158.3 154.9 160.7 163.9 165.6 166.5 167.3 168.1 167.8 167.4 166.7 163.8 160.2 159.1 158.6 159.6 161.5 165.7 170.5 175.4 179.5 182.7 185 186.3 187.1 189.2 193.4 198.4 202.2 206.2 208.9 213.7 215.8 216.8 217.9 219.2 220.4 222.2 224.5 224.9 226.7 228.8 231.5 234.3 238.4 244.5 252.4 259.7 267.2 275.3 282.9 293.3 305.5 317.7 329.9
148.6 145.9 142.7 136.9 127.3 124.2 123.1 120.7 123.2 124 122.7 126.7 127.9 129.2 132.3 134.3 136 137.6 138.4 139.3 140 140.3 140.4 140.2 138.2 137 135.6 133.2 131.7 130.2 128.6 126.2 123.1 120.5 119.8 119.4 120.1 119.7 121.1 122.2 122.5 122.7 122.9 123.6 124.3 126 127.4 128.7 129.5 130.5 131.6 132.4 133.1 133.8 135.2 136.7 137.5 137.7 138.1 138.3 138 138 139 138.3 139.2 139.5 139.6 139.4 138.9 139.9 141.5 142.9 144.2 145.5 145.3 145.4 144.4 143.1 141.7 140.3 138.7 136.7 134.5 131.6 128.7 128.7 127.5 126.7 125.9 124.7 124.4 124.5 124.6 125 126.3 127.1 128 129.2 130.3 130.8 130.9 132.2 132.5 133.2 133.4 133.6 134.8 137.6 139.3 140.9 141.9 143.4 145 147.7 149.7 151.5 152.7 153.5 154 152.7 151.8 150.8 148.9 148 147.3 146.4 145.4 142.9 139.6 142.2 146.2 149.8 152.1 155.6 160.3 164.4 167.6 169.6 170.9 172 171.5 171.2 169.8 167.3 164.8 159.8 156.1 160.6 166 167.5 168.5 169.3 169.9 169.6 169.2 168.5 167.2 165 161.8 162 163.7 163.8 163.5 163.9 166 170.5 174.1 176.7 177.3 178.7 181.6 186.4 191.7 195.6 200.2 203.7 205.4 210.3 211.4 212.7 213.3 212.5 212.5 213.9 216.4 219.3 222.5 225.9 226.3 230.8 237.3 243.6 250.9 257.1 264.4 271.9 281.2 292.8 305.1 317.5
145 142.9 133.5 126.6 125.7 125.5 125 124.5 124.9 125.7 126.4 127.1 129.7 131 133.5 135.2 136.8 138.2 140 140.9 141.8 142.3 142.3 142 140.9 139.5 137.9 135.6 132.9 131.4 130 128.6 125.2 122 120.9 121.2 121.7 122 122.4 123.4 123.7 124 124.1 124.7 125.5 127.1 128.2 129.4 130.5 131.8 133.1 133.8 134.5 135.3 136.6 138 138.8 139.2 139.6 139.9 139.5 139.4 140.2 139.2 139.9 140.9 141.1 140.8 140.7 141.2 143.1 144.9 146.6 147.8 148 147.8 146.8 146 145 143.5 141.9 140.2 137.4 135 132.3 131.3 130 129.7 128.7 128.8 127.6 127 127 127.7 128.1 129.2 130.3 132 132.6 134.1 134.9 135.7 135.8 136.1 136.4 136.8 137.4 139 140.4 142.5 143.6 144.6 145.8 148.8 151.5 153 153.7 155 155.5 155 154.3 153.3 151.1 149.7 148.6 147.6 146.1 143.9 142.2 140.9 144.5 148.8 152 155.6 159.7 164.3 167.8 170 171.4 172.8 172.3 171.9 171 168.5 166.1 159.7 158.8 165.5 166.8 169.4 170.3 171.2 171.6 171.9 171.2 170.2 169.1 167.4 164.4 164.6 167 168.5 168.5 167.6 167.5 166.8 167.4 168.5 169.9 170.5 172.7 176 186.1 189 190.4 195.9 198 199.5 202.9 201.4 203.2 203.7 205.3 207.8 209.4 212.3 213.9 215.6 219.9 223 229.2 234.5 241.9 248.7 255.7 263.1 270.6 280.7 293.1 306
133.3 130.5 128.2 128.7 128.3 128.1 127.6 128.2 129.6 129.4 129.4 129.3 130.8 132.1 133.8 135.7 137.4 139.2 141.5 142.3 142.7 143.1 143.1 142.9 142.8 142 139.9 138.3 135.1 133.1 131.5 129.1 125.9 123 122.5 122.9 123.4 123.8 124 125.1 125.3 125.4 125.3 125.9 126.9 128.2 129.4 130.7 131.9 133.4 134.6 135.3 136 136.7 138 139.5 140.3 140.7 140.9 141.5 141.2 141.7 141.3 141.6 142.1 142.8 143 143.1 143.3 142.9 144.9 146.7 148.9 149.8 149.9 149.9 149.7 148.9 148.3 146.8 145.3 143.5 140.7 138.2 134.6 134.1 133.9 133.3 132.1 131.8 130.9 129.8 129.8 130.7 131.6 133.2 134.6 135.3 135.8 136.8 137.7 138.5 139 139.3 139.6 139.6 140.1 140.7 142.3 143.9 145.4 146.5 148.1 149.7 152.1 154.2 154.9 155.9 156.3 156.2 155.4 154.3 153.4 151.9 150.7 149.6 147.5 145.9 144.4 143.4 143 147.1 150.9 154.3 158.2 163 167.3 170 171.6 172.3 172.7 172.5 171.8 169.7 167.3 159.8 160.5 166.7 168.8 170.4 171.3 173.1 173.8 173.8 173.3 172.8 171.1 169.4 167.3 167.4 169.3 170.4 171.5 171.4 171.2 171.1 169.5 169.5 174.6 176.7 177.8 176.9 180.9 180.4 180.9 186 189.9 191.3 190.8 192.5 201.1 194 195.4 197.3 200.8 203.2 205.7 210.3 214.8 218.6 223.2 228.5 234.8 241.9 248.9 256.8 265.1 274.2 283.5 294.2
135.7 134.4 136.5 135.1 134.1 133.3 131.7 132.9 132.1 132.6 132.7 131.6 131.7 133.3 135 136.7 138.2 140.5 141.9 142.5 143.1 143.5 143.5 143.5 143.5 143.5 142.3 141 138.7 135.6 132.5 130.1 125.4 124.4 124.7 125.1 125.5 124.9 125.3 126.5 126.8 126.8 126.9 127.2 128.1 129.5 130.9 132.2 133.3 134.9 136.2 136.9 137.6 138.4 139.7 140.7 141.6 142.5 142.9 142.7 143.6 143.6 142.8 143.6 143.7 143.8 143.7 144.4 144.6 144.7 146.5 148.3 149.9 151.1 151 151.5 151.9 152 151.4 150.2 148.8 146.5 144.1 141.3 137.3 137.6 137.2 136.7 136.1 135.5 134.4 133.9 133.5 134.5 135.9 137.1 137.9 139.2 139.6 140.2 141 141.5 142 142.7 142.7 142.9 143.8 143.8 145 146.2 147.4 148.9 150.6 152.3 153.8 155.5 156.1 156.7 156.9 157.1 156.2 155.3 154.8 153.8 152.8 151.1 149.8 148.1 146.5 145.6 145.2 145.8 149.3 152.9 156.3 160.8 165.4 169 171.1 172.6 173.2 173 172.1 170.5 168.1 162.1 163.3 168.2 170.5 172.5 174 175 176 176.2 175.7 174.8 173.8 172.3 171.1 170.7 171.7 172.9 173.9 174.1 174.7 174.2 172.9 173.8 176.5 179.4 181 182 181.8 186.8 177.9 179.4 181.5 183.8 185.4 195.2 196.8 200.8 202.5 204.9 206.4 207.5 208.4 209.2 211.7 215.5 221 226.2 232.3 239 245.7 253.9 262.4 270.9 280 288.8
138.8 138.4 138.9 138.6 137.9 136.9 135.4 135.5 134.6 133.8 133.8 133.7 133.9 134.5 136.6 138.5 139.6 140.9 142.1 142.7 143.3 143.9 143.9 143.9 143.9 144.1 143.7 142.8 142.7 140.4 133.4 129.5 127 126.2 126.8 127 127 127 127.1 127.2 127.9 128.3 128.4 128.7 129.8 131.2 132.5 133.6 134.8 136.3 137.7 138.5 139.3 140.3 141.2 142.2 143.2 144.8 145.4 145.8 145.9 145.4 144.7 145.6 145.6 145.7 145.6 146 146.1 146.1 147.6 148.8 150 151.2 152.3 153.4 153.9 154.2 154.1 153.7 152.4 150.2 146.8 143.7 139.1 141.2 140.5 140.1 138.9 138.8 139.1 137.1 138.8 139.1 140.8 141.6 142.2 143.3 143.5 144 144.6 145.1 146.2 146.5 146.6 146.7 147.5 147.6 148.1 149 150.3 152 153.2 154.9 155.7 157 158.3 158.8 158.8 158.6 158.2 157.9 156.5 155.8 154.6 153.6 152.1 150.4 148.8 147.6 146.7 146.2 148.1 151.4 154.3 157.5 161.4 165.9 169.7 172.6 173.6 173.6 172.5 171.1 169.4 164.4 164.2 169.5 172.6 174.3 176.1 177.3 177.7 178.4 178.3 177.3 176.2 175.7 174.7 174 174.6 175.8 176.3 176.9 177.4 177.3 176.4 176.6 178.5 181.3 183.4 185 185.7 188.6 182.6 180.6 181.4 184.5 189.6 194 198.8 202.3 205.6 207.8 209.5 211 212.1 212.6 213.6 215.2 220.1 224.7 229.7 236.3 243.7 251.6 261 269 277.8 286.4
143 141.9 141.1 140.8 140.1 139 137.3 137.7 136.5 135.9 135.5 135.6 136.2 136.6 138.9 139.9 140.7 141.4 142.3 142.8 143.4 143.8 144.2 144.2 144.3 144.6 144.9 144.4 143.5 141.3 133.9 129.3 128 128.3 128.9 129 129.1 129.2 129.2 128.8 129.6 129.9 129.9 130.4 131.9 133.4 134.8 136 137.2 138.1 139.5 140.4 141.4 142.5 143.5 144.1 145.3 146.4 147.6 147.9 147.9 147.3 146.5 147.1 146.9 147.5 147.2 147.6 147.8 148.1 148.7 150.2 151.1 152.3 153.5 155 156 156.6 156.6 156.6 155.9 153.6 150 146.4 144.5 143.8 143.6 143.7 143.3 143.2 143.7 142.7 143.4 145 146.6 146.9 147.2 147.8 147.6 147.9 148.7 150.1 151.7 151.6 151.7 152 152.6 152.7 152.4 153.1 154.5 155.6 156.8 157.9 158.6 159.9 161.3 161.1 161.2 160.5 160.6 160.3 159.6 158.6 157.4 156.6 155.1 153.6 151.8 149.8 149 147.9 148.6 150.9 153.4 155.4 158.8 162.6 167.2 171.2 173.5 174 173.3 171.9 170.3 165.8 164.1 170.5 173.6 176.2 177.9 179.6 180.4 181.4 180.9 180 179.5 178.9 178.4 178 178 178.5 179.1 179.8 180.2 180.4 179.9 179.7 180.8 183.9 185.7 188.1 189.2 189.7 188.1 184.9 183.6 184.9 191.1 196.3 200.4 203.6 205.9 209 211.2 213.2 215 217 218.9 218.9 220 224.6 228.5 234.2 242.3 252.3 260.4 268.3 277.4 285.6
146 144.7 143 141.9 141.6 139.3 138.7 138.9 138.5 137.9 137.6 138 138.8 138.8 139.7 140.7 141.4 142.1 142.4 142.8 143.2 143.6 144.2 144.4 144.4 144.9 145.1 144.9 143 139.6 133.9 130.7 129.3 129.8 130.4 131 131.2 131.3 131.3 130.9 131.4 131.7 131.9 133 134.2 135.7 137.1 138.5 139.5 140.4 141.5 142.5 143.7 144.8 145.8 146.4 147.1 148.3 149.5 150 150 149.4 148.9 148.9 149 149.1 148.8 149.2 149.7 150.1 150.4 151.6 152.7 153.7 154.9 156.5 157.5 158.4 158.8 158.8 158.3 156.8 152.6 149.1 146.8 146.7 146.9 147.1 147.1 148 147.4 147.7 149.1 151.3 151.8 153.2 153.5 153.2 153 153.1 154.5 155.8 157.5 157.4 158 158 158.8 158.2 157.7 158.1 159 159.6 160.6 161.6 162.7 163 163.6 163.7 163.7 163.3 163.2 162 162.1 161.1 160.7 160.2 158.9 157.6 155.8 152.7 150.4 148.9 151.1 153.6 155.7 157.2 159.2 161.2 164.9 168.3 172.2 173.1 173.1 171.9 170.5 167 163.9 171.1 174.4 177.4 180.1 181.7 182.7 183.5 183.3 183.2 182.8 182.5 182.1 182.5 182.5 183.1 183.7 184 184 183.7 183.4 182.4 183.3 186.9 189.1 190.6 191.5 192.2 192.8 191.5 186.9 185.5 190.2 196.7 200.9 204.5 207.7 210.1 213 214.7 217.2 219.9 222.5 224.6 224.8 224.8 232.3 241.4 248.2 254.3 261.1 270 279 285.8
147.8 146.1 144.5 143.4 143 140.6 141.4 140.1 140.5 139.9 140 140.3 140.4 140.2 140.4 141.5 142 142.6 142.9 143 143.2 143.6 143.9 144.4 144.2 144.6 144.8 144.4 141.8 136.9 134.6 131.7 130.8 131.3 131.9 132.4 133.1 133.4 133.1 133.4 133.9 134.2 134.4 136.1 136.9 138.2 139.7 141 141.8 142.7 143.7 144.8 145.9 147.1 148.2 148.9 149.6 150.3 151.3 152.1 152 151.5 150.8 150.7 150.7 150.8 150.7 151 151.3 151.6 152.1 152.7 154 155.4 156.9 158.3 159.2 160.1 160.5 160.9 160 158.4 155.3 152.4 150.3 150 150.2 150.6 151 150.8 151 153.2 154.1 156.6 156.9 158 159 159.9 159.8 160 160.9 162.7 164.6 165.9 166.6 166.8 166.7 166.2 165.4 165.7 164.9 166.1 167.2 166.6 167.2 167.2 167.2 167.1 166.3 166 165.8 164.9 164.7 164.8 164.2 163.8 162.8 162 160.3 156.3 153 151.4 153.8 156.4 158.2 159.8 161.1 163.4 164.8 167.9 170.8 171.9 172.3 171.7 169.7 164.6 163.9 169.9 175 178.4 181.2 183.8 185 185.9 187 187.3 186.9 186.6 186.9 187.3 187.5 188.4 188.9 189.4 189.9 188.9 187.8 186.4 186.2 190 192.8 194.5 195.6 195.2 196.1 196.3 193.1 191.4 188.1 195.6 200.4 204.2 207.4 210.7 213.5 215.8 219.2 222.5 226.5 230.2 232.1 230.1 236 246.1 254.4 260.9 267.7 274.3 280.4 286.4
149 147.5 146 145.6 144 143.3 142.6 142.1 142 142.2 142.1 141.8 141.7 141.5 141.8 142.2 142.8 143.3 143.7 143.7 143.7 144 144.2 143.8 144 143.8 143.3 142.6 139.2 136 134.6 132.4 132.9 133.4 134 134.5 135.1 135.6 135.4 134.6 136.2 137.1 137.7 139.2 139.9 140.8 142.4 143.5 144.3 145.1 146.1 147.4 148.5 149.5 150.5 151.3 152 152.7 153.5 154.5 154.1 153.9 153.2 153.2 153.3 153.3 153 152.7 153.2 153.5 153.6 154.3 155.4 156.7 158.1 159.5 160.8 161.8 162.8 162.5 161.1 159.4 157 154.8 153.7 153.3 153.5 154.1 154.6 154.4 155.5 157.2 159 159.9 161.8 163.1 164.1 165.3 166.1 167 168.1 170.9 172.9 173.7 175.1 176.5 177.1 176.7 176.8 177.3 177.4 176 176.3 174.8 173.5 171.7 171.7 171.3 170.3 169.1 169.4 168.9 168.8 169.3 169 168.5 167.6 166.4 164.4 159.7 154.8 152.8 155.6 160 161.1 162.3 164.1 166.2 167.3 168.5 170.4 171.3 171.3 170.5 168.9 166.5 165.7 167.8 175 179.4 182.8 186.2 188.7 190 190.6 191.5 191.5 191.8 192.2 192.5 193.2 194.2 194.5 194.8 194.7 194.2 193.2 191.4 190.2 194.4 196.8 198.6 198.5 200 198.6 198.1 197.2 194.2 191.8 192.3 197.8 203.9 207.4 210.9 214.1 217.5 220.9 225.1 231.1 236.1 239.5 242.5 239.2 250.1 259.3 266 272.2 278.1 283.2 287.7
150 148.6 147.6 146.7 145.4 145.7 144.9 144.2 143.6 143.8 143.2 143.1 143 142.9 143.3 143.6 144 144.3 144.5 144.4 144.3 144.3 144.5 144 143.5 143 141.7 140.4 138.1 136.4 134.9 135.3 135.7 135.6 136.2 136.7 137.2 137.8 138.1 138.2 138.6 139.8 140.8 142.4 143.2 144 145.1 146.1 147.5 148.5 149.1 150 151 152 152.8 153.6 154.5 155.2 156 156.8 156.7 156.2 155.8 155.7 155.7 155.4 155.3 155.1 155.7 155.5 155.9 156.9 157.6 158.9 160 160.6 162 162.9 164.3 163.9 162.5 161 158.6 157.1 156.5 156.5 156.7 157 157.6 158 159 160.4 161.7 163.8 166.1 168 169.1 170.8 171.8 173 175.4 177.5 178.5 179.8 181.1 182.2 183.4 184.4 184.9 185 184.7 184.1 183 182.2 181 178.1 176.8 175.4 174.4 173.3 173.5 173.2 173.7 174.6 174.4 173.9 172.4 170.9 168.2 162.8 156.2 157 159.5 164.1 165.9 166.6 167.9 169.6 170.6 171.3 172.4 172.6 172.3 171.8 171.1 169 167.8 167.6 172.5 178.8 183.6 187.4 192.4 194.8 196 196.4 196.5 197.1 197.8 197.8 198.9 200 200.7 200.8 200.9 200.3 199 196 194.8 197.6 200.1 201.4 202.3 202.4 199.1 199.5 200 199.9 194.6 191.1 202 199.7 205.2 210.1 214.3 218.2 223 229.4 235.4 241.4 246.3 249.2 253 252.5 264.4 270.4 276 281.3 286.3 290.2
151.7 149.7 149.6 148 147.8 147 146.4 145.7 145.3 145.1 144.5 144.4 144.2 144.4 144.8 145.2 145.5 145.6 145.8 145.7 145.5 145.2 145.2 144.5 143.6 142.4 141.3 139.5 138.8 137.4 136.9 136.9 137.3 137.8 138.3 138.8 139.3 139.7 140.4 140.2 140.7 142.3 143.9 145.5 146.6 147.5 148.3 149.8 151 151.6 152.2 152.9 153.5 154.2 154.9 155.7 156.6 157.5 158.4 159 158.8 158.6 158.4 158.1 157.6 157.3 157.3 157.4 158.2 157.9 158.2 159.1 159.3 161.1 162.2 162.7 164.3 164.9 165.5 165.2 163.9 162.7 160.8 159.5 159.3 158.9 159 159.8 160.4 161.2 162.3 163.9 165.1 167.4 169.9 172.1 173.9 175.6 176.6 179.3 181.5 183.8 185.1 186.2 187.4 189.6 188.5 190.5 191.6 191.7 190.9 189.7 188.4 187.5 185.2 184.6 183.3 180.7 179.2 177.9 177 177.3 178.6 179.5 180.6 181.4 179.7 177.5 173.2 167.1 158.6 161.3 163.4 166.5 170.3 170.9 172.3 173 174 174.7 174.7 174.9 175.6 175.3 174.4 172.7 171.5 169.6 169.3 176.6 182.9 188.4 193.7 197.3 200.2 201.7 202.6 203.6 203.8 204 204.7 205.8 206.8 206.5 206.4 205.6 204.2 200.7 198.6 201.2 203.5 209.3 206.7 205 205.1 203.5 204.3 201.5 202.3 200.4 197 198.3 201.7 208.3 213.5 218.9 225.2 232.3 239.4 245.9 251.8 256.1 261 264.9 269.8 274.7 279.5 284.4 289.1 292.7
153.1 151.3 150.2 150.5 148.8 148.8 148.1 147.4 146.8 146.4 146 145.9 145.8 146.1 146.5 146.8 146.8 146.9 147.1 146.9 146.6 146.2 145.9 145.1 143.8 142.8 142.2 141 140 139.4 138.5 138.7 139.2 139.7 140.3 140.8 141.1 141.6 142.6 142.8 143.6 144.8 146.7 148.6 150 150.9 151.8 153.1 153.7 154.4 154.9 155.1 155.8 156.6 157.4 158 158.6 159.6 160.5 160.8 160.5 159.8 159.7 159.6 159.5 159.6 159.6 159.7 160 160.4 160.8 161.3 163 163.6 164.5 165.3 166.4 166.9 166.6 166.4 165.2 164.1 163.1 162.2 161.9 162.1 162.1 162.6 163.6 164.1 165.5 167.1 169.5 171.2 173.7 175.6 178 179.7 182.7 186.3 189.3 189 191.7 193.5 194.6 195.5 196 197.4 198.3 197.9 197.1 195.2 194.4 193.7 191.7 189.9 188.3 185.9 183.6 182.1 181.7 181.8 183.4 184.3 185.5 186.3 185.6 183 180.5 172.4 163 165.3 169.9 171.6 173.7 175.9 176.9 178.3 179.6 179.7 179.4 178.7 179.4 178.9 178.6 177 175.7 173.4 171.2 173.4 180.6 187.6 194.2 198.8 203.7 206 207.6 208.4 209.1 210 210.2 211.8 212.6 212.5 212.7 211.3 210.3 205.9 202.6 205.9 207.5 211 211.6 209.3 209.3 209.8 205.2 204.2 204.1 200.3 201 201.4 200.2 204.5 212.5 219.7 226.7 234.4 242.2 249.1 255.4 260.9 265.4 270.3 274.5 278.4 282.3 287.4 292.6 294.8
154.8 153.7 152.5 151.4 151.4 150.5 149.7 148.9 148.3 147.9 147.5 147.4 147.6 147.8 148.2 148.4 148.4 148.4 148.4 148.1 147.8 147.5 147 145.8 144.9 144.1 143.4 142.7 141.7 141 140.5 140.6 141.1 141.6 142.3 143.1 143.8 144.5 145.2 145.2 145.6 147.3 149 151 152.9 154.2 155.1 155.7 156.3 156.9 157.4 157.9 158.5 159.1 159.7 160.5 161.1 161.5 162.3 162.6 162.3 161.9 162 162.3 162 162 162.2 162.4 162.7 163 163.6 164.2 165.8 167 167.6 168.1 168.6 169.1 168.6 168.1 166.9 165.7 165.1 165.1 164.9 164.8 164.9 165.2 165.3 168.2 168.4 169.7 171.8 174.3 176.9 178.9 181.5 184 187.3 190.4 192.8 194.8 197.2 200 201.8 203.5 205.3 205 204.5 203.9 202.8 201.6 200.8 199.5 197.7 195.8 193.4 191.6 190 188.4 187.3 187 187.7 188.6 189.7 190.4 189.6 187.1 184 178.3 161.9 171.8 175.4 177 178.4 181.3 183.3 184.7 186.1 186.3 185.8 182.9 182.9 184.5 182.9 181.7 179.7 177.5 174.9 172.1 177.6 185.1 193.9 200.2 205.5 211.3 213.8 215 215.8 216 215.8 216.2 217 217.6 217.1 216.4 214.8 210.9 209.3 209.4 211.8 213.5 213.6 211.7 213.7 213.4 211.5 207 204.1 205.7 206.4 206.8 205.7 203.7 209.4 218.3 227.6 236.2 244.1 251.8 259.2 264.8 269.9 274.5 278.1 281.5 284.9 289.7 294.2 296.6
155.8 155.5 154.3 153.1 152.2 151.8 151 150.3 149.7 149.4 149.1 149.1 149.3 149.6 149.8 150 150 149.8 149.7 149.4 149.1 148.8 147.9 146.9 146.2 145.3 144.6 144.4 143.2 142.6 142.5 142.6 142.9 143.6 144.4 145.6 146.5 147.3 148 147.7 148.4 150 151.7 153.3 155.2 157.1 157.6 158.1 158.7 159.3 160 160.5 161.1 161.6 162.2 162.8 163.4 163.9 164.3 164.5 164.2 164.4 164.6 164.9 164.7 164.8 165 165.3 165.5 166 166.4 167.1 168.5 170 171 171.3 171.9 171.8 171.3 170.5 169.2 168 167.5 167.9 168.2 167.9 167.9 168.6 169.2 169.9 171.3 173.5 175.1 177.1 179.6 181.9 184.9 188.2 191.4 194.2 196.3 198.6 201.4 204.5 207 208.9 209.9 210.9 210.5 209.6 208.6 207.7 206.8 205.2 203.2 203.6 201.6 199.4 197.2 194.7 193.3 192.3 192.5 193.1 194.1 194.7 193.9 191.5 187.4 182.2 169.5 178.1 181 182.5 184.3 187.8 191 192.5 193.8 192.9 192.8 189.6 188.2 188.6 188.5 186.4 184.7 182 179.3 174.3 176.8 181.7 191.1 198.4 207 214.2 218.7 220.2 221.1 221 221.1 221.3 222.3 222.3 221.2 220.1 218.9 215 211.7 213.4 215.3 217.4 218.2 218.5 217.8 217.2 216.1 212.4 209.5 211.8 212.1 212.6 212.4 209.4 208.2 215.7 226.3 236.5 245.6 254.4 262.4 268.3 273.3 277.4 280.8 284 287.5 291.6 294.9 297
157.3 156.9 155.2 154.1 153.9 153.2 152.3 151.6 151.2 150.9 150.6 150.9 151.1 151.3 151.5 151.4 151.3 151.2 151 150.7 150.5 150.3 149.1 148.3 147.6 146.7 145.8 145.6 144.7 144.8 144.7 144.7 145 145.8 146.9 148 149.1 149.9 150.7 151.4 151.5 152.9 154.5 156 157.6 159.7 160.2 160.6 161.1 161.7 162.2 162.5 163 163.6 164.1 164.7 165.4 166.1 166.5 166.9 166.7 166.8 166.9 167.2 167.7 167.7 168 168.2 168.6 169.4 169.9 171.2 172.4 173.7 174.7 175.2 175.7 175.6 174.2 173 171.7 170.9 170.7 170.9 171.1 171.2 170.9 171.8 172.7 173.1 175 176 177.8 180.1 182.3 184.8 188.4 191.5 194.3 196.7 198.7 201.7 205 208.1 210.4 212.5 214.5 215.1 215.6 215.1 214.4 213.8 212.7 212.1 212.9 212.8 210.3 208 205.5 202.6 200 198.3 198 198.1 198.9 199.5 197.6 194.9 191.1 182.2 172.8 183.4 186.3 189 191 194.5 198.5 200.7 201.5 200.5 200.2 197.6 197.2 195.5 194.2 192.2 190.2 187.8 183.5 178.8 177.8 179.8 187.5 196.7 205.2 214.9 222.1 226.6 227.9 227.1 225.7 225.9 225.5 224.3 224.6 223.6 221.1 218.6 215.4 217 218.9 220.1 221.6 223.3 222.2 221.1 220.2 218.4 216.2 218.4 219.3 219.5 219.4 218.3 213.2 214.2 225.3 236.1 246.1 255.8 264.3 270.7 275.4 279.2 282.6 285.5 289.5 293.4 295.9 297.7
159.2 157.9 156.5 155.5 155.1 154.6 153.7 152.9 152.6 152.5 152.6 152.6 152.6 152.5 153.2 153.4 153.2 153.1 152.6 152.3 152.2 151.7 150.6 149.8 148.9 148.2 147.5 147.7 146.8 147.5 147.4 147.1 147.4 148.1 149.3 150.5 151.6 152.5 153.7 154.8 155 156.3 156.8 158.5 160.6 162.2 162.9 163.3 163.7 164 164.3 164.6 165.1 165.5 166.1 166.7 167.5 168.3 168.7 169.4 169.1 169.3 169.4 170 170.8 170.7 171 171.3 171.8 172.8 174.6 175.7 177.5 178.8 180.1 180.5 180.9 179.6 178.3 176.5 175.3 174.2 174.2 174.4 174.7 174.8 174.4 174.8 175.3 176.2 177.9 179.3 180.9 183 184.8 188.4 190.9 194.2 196.7 198.9 200.6 203.7 206.8 210.4 212.6 214.9 218.4 219.5 221.2 222 221.7 221 220.9 221.3 220.7 219.7 218.4 215.6 212.8 210.6 207.2 205.9 206.8 206.2 205.5 204.2 201.5 198 190.6 180.1 177.6 186.8 192.2 195.2 198.8 202.9 207 208.9 209.1 208.1 207.8 206 204.9 203.4 201.7 198.3 195.3 191.5 187.5 182.9 179.3 179.9 184.2 192 202.6 212.2 225.3 232.8 233.7 232.4 230.8 229.8 228.7 228.1 226.2 225.3 223.4 221.1 217.7 219.5 221 222.8 224.2 225.2 225.8 225.1 224.3 223.5 222.8 224.6 225.5 226.5 227 226.4 224.7 217.9 223.8 235.5 245.8 255.9 264.5 271.6 276.5 279.5 283 286.8 290.9 294.4 296.3 297.7
161.1 159.6 158.1 157.7 157.3 156.3 155.3 154.6 154.5 154.6 154.8 154.7 154.4 154.3 155 155.2 155.2 154.9 154.3 154.1 154.7 153.2 152.1 151.6 150.9 149.8 149.7 149.9 149.8 149.8 150.3 150.1 150.3 150.8 151.8 152.9 154.3 155.5 156.7 157.9 158.3 159 160.5 161.4 163.2 164.9 165.9 166.4 166.9 166.9 166.9 167.1 167.4 167.9 168.4 168.8 169.5 170.3 171.2 171.8 171.6 172 172.4 173.3 174 174.1 174.9 175.5 176.7 177.9 179.2 180.4 182.7 184.8 186.1 187 186.7 185.3 183.2 181.6 179.6 178.3 177.8 178 178.2 178.5 178.1 178.7 178.9 179.9 181.4 182.4 184 186.6 188.7 190.9 193.4 195.7 197.9 200.6 202.7 205.6 208.7 211.9 214.6 218 221.6 223.9 226.3 227.8 228.6 228.2 227.3 227.4 228.3 227.3 226.1 223.7 222.2 219.7 217 217.1 217.1 215.6 214.1 211.5 207.3 201.1 191.8 182.3 182.9 191.8 197.3 201.8 206.1 210.3 216.1 218.7 218.3 217.3 215.7 213.9 212.7 211.8 209.4 205.6 201.3 197.2 192.8 187.8 183.5 180 183 185.9 196.7 207.1 219.9 233.4 236.9 235.1 233.2 231.9 230.4 229.3 228.6 226.1 225 222.8 219.3 220.6 222.7 224.2 226.2 227.8 228.5 229.2 228.8 228.5 229.1 230.8 233.1 233.5 234.1 234 233.4 230.7 223 235.5 246.2 255.8 263.7 270.4 275.7 279.5 282.6 285.8 290.9 294.6 296.2 296.8
163.2 161.5 160.7 160.3 159.7 158.3 157.5 157 156.7 156.9 157.1 156.8 156.5 155.8 156.7 156.9 157.1 156.7 156.4 156 156.1 154.9 154.2 153.7 152.9 152.4 152.8 152.9 153 152.9 153.9 153.2 153.8 154.3 155 155.9 157.4 158.8 159.4 160.5 161.3 162.8 163.9 164.6 166 167.8 168.7 169.6 169.9 169.9 169.9 170.2 170.6 170.7 170.9 171.4 172.4 173.4 174.3 174.5 174.3 174.4 175.6 176.4 177.2 177.8 178.5 179.8 181.1 183 184.5 186.5 188.2 190.6 191.4 191.9 192.1 191.4 189.7 187.2 184.7 183.1 182.3 182.1 182.2 182.2 181.4 181.8 182.6 183.4 184.8 186.2 186.9 189.7 191.9 194 195.9 197.8 199.8 202.7 204.9 207.5 210.5 214 217.9 221.2 224.8 228.1 231.1 233.4 234.4 234.4 234.3 236.3 236.1 236 236.5 235.2 235.3 233.8 231.4 230.3 228.9 226.7 223.8 220.6 215.9 210 201 186.6 183.3 195.1 200.6 208 212.7 218.1 225.6 228 227.6 226.5 224.7 222 221.6 219.9 216.7 212.8 208.4 203.1 198.1 193.1 188.1 183.4 184.2 190.6 193.5 200.8 211.5 221.3 228.9 232.8 232.7 231.7 231 229.4 228.1 225.8 224.9 222.1 217.1 219.2 223.2 225 227.4 229.4 230.7 232.2 233.2 234.2 235.1 236.8 237.8 238.6 239.7 241 240.5 240.1 234.4 236.3 246.7 255.9 262.8 268.4 273.4 277.8 281 284.2 288.9 293.3 294.8 295.1
165.8 164.5 163.8 162.6 161.9 160.9 160.2 159.5 159.4 159.3 159.1 158.8 158.5 158.5 158.5 158.8 159 158.8 158.1 157.6 157.1 156.6 156.5 156.1 155.4 155.2 155.9 155.9 155.9 156.2 156.9 157 158.5 157.8 158.6 159.6 160.7 162 162.7 163.3 164.1 165.1 166 168 169.3 170.5 171.5 172.4 173 172.9 173.2 173.9 174.2 174.6 175.3 175.9 176.3 176.9 177.8 177.4 177.1 177.2 178.1 179.2 180.4 181.2 182.1 183.6 185.9 188.6 191.1 193.6 195.7 196.4 196.5 196.8 197.4 197.3 197.4 196.6 191.9 188.8 187.3 186.5 186.1 185.5 184.8 185.8 186.8 186.9 188.3 190.2 191.9 193.7 195.3 197.5 199.5 201.1 202.6 204.9 207.6 210.6 213.1 216.8 220.7 224.9 228.7 232.6 236.6 238.9 240.5 243.3 245.2 245.7 247.1 248.3 248.6 248.2 247.9 245.7 244.2 242.5 239.7 236.8 233.4 230.2 225.5 220.2 212.4 196.3 187.8 197.3 206.5 213.1 218.7 225.4 233.4 234.8 234.5 234.1 232.4 231.1 229.8 227.8 224.8 220.4 214.6 209.4 203.8 198.8 192.9 187.8 183.6 195.5 200.2 203.4 205.2 213.3 218.5 222.9 226.2 228.1 227.6 227 226.7 224.7 222.8 221.5 216.6 217.2 221.2 223.9 226.6 229.8 232.2 234.6 236.5 238.4 239.9 241.4 243.1 244.8 245.5 246.2 247.1 247.1 246.5 245.1 249.9 256.2 262.3 267 271.6 275.1 278.2 281.2 284.8 287.8 289.7 290.9
167.4 166.3 165.4 164.3 163.5 163.1 162.3 161.6 161.3 161.2 160.9 160.7 160.8 160.8 160.9 161.2 161 161.1 160.9 159.9 159.2 159.3 159.2 158.5 157.7 157.8 158.5 158.8 159.8 160.4 161.6 162.1 162.5 162.6 162 163.3 164.5 165.3 166.1 167.1 168.1 168.4 169.8 170 171.7 173.2 174.4 175.3 175.9 176.6 177.6 178.4 179.2 179.8 180.7 180.8 180.8 180.8 180.8 180.5 180.1 180.3 180.7 181.9 183 184.2 186.3 187.9 190.6 193.6 196.9 200.3 201.6 202 202.5 206.6 209.4 208.9 206.8 204.5 199.1 194.8 192.7 190.9 189.9 188.8 188.5 190.3 190.5 190.5 192.3 194 195.5 197.1 199.1 200.7 202.6 204.9 207.1 208.7 210.7 214 216.8 220.6 224.8 229 232.9 236.7 240 243.2 246.8 249.9 252.6 256.4 260.3 261.1 264.7 264.3 263.3 260.8 257.5 253.1 248.9 245.7 242.7 239.4 235.2 229.5 223.2 210.9 194.9 196.5 210.4 218.1 223.3 230.6 238.4 240.2 239.8 239.6 238.9 238.3 237.2 235.1 231.9 228.2 222.4 216.1 210.2 204.7 198 191.7 185.6 197.1 206 208.2 210.7 213.1 217.2 221.2 222.9 225 225.8 225.8 224.6 223.5 221.5 219.1 214.3 215.4 218.8 221.4 224.1 228.9 232.6 235.9 239.2 241.9 243.9 245.5 247.3 249.1 250.8 251.9 252.1 252.3 252.1 252.6 254.9 258.5 262.1 265.9 269.2 272 275 277.4 278.8 279.8 280.4 279.6
168.9 167.8 166.9 166.1 165.3 164.8 164.3 163.7 163.3 163.1 162.8 162.8 162.8 162.9 163.2 164 164.1 163.9 163.2 162.2 161.7 162.5 161.6 160.8 160 160.6 161.2 162.2 163.4 165.3 166.6 166.9 167.5 167.3 167.4 167.4 168.2 169.2 169.9 170.9 171.9 171.3 172.3 172.8 174.6 175.8 177.3 178.7 179.9 181.1 182 183.3 184.5 187.6 189.2 187.3 185.2 184.2 183.7 183.5 183.1 183.2 183.4 185 186.2 188.1 190.2 192.5 195.5 198.5 201.8 204.9 207.1 207.9 212.2 217 217 217.4 214.7 211.8 204.6 199.7 197.3 195.2 194.1 193.2 193.5 194 194.6 194.5 196.4 198.2 198.9 199.7 202.8 204.6 207 208.8 210.8 212.8 215 218.2 221.2 225.1 229.5 233.8 237.8 241 244.7 251.1 257.5 260.2 266.4 274.2 278.3 281 280 280 276.5 271.7 269.5 265.6 259.6 253 248.8 244.4 241.4 237.3 231.6 221.4 208 196.9 213.1 220.5 226.3 233.1 240.8 243.8 244.6 244.3 244.7 244.6 244.4 242.5 239.3 235.2 229.6 223.1 216.9 210.4 203.9 196.9 190.4 194.2 211.7 214.9 216.5 218.2 220.5 221.9 224.2 225.2 226.1 225.6 224.4 223.3 221.8 219.2 211.9 211 214.6 217.1 219.1 223.6 229.6 235.9 241.1 244.9 246.9 248.9 250.5 252.7 254.1 255.3 255.9 256.4 256.4 257.2 258.4 260.6 262.8 265.3 267.8 270.2 271.6 272.6 273.2 272.8 271.5 270.2
171.3 169.7 169.6 168.8 168 167.3 166.9 166.2 165.4 165.1 164.9 165.2 165.3 165.2 165.6 166.3 167 166.3 165.6 164.9 165.1 164.9 163.9 163 162.7 163.3 164 165.6 168.7 172.4 172.4 171.9 172.2 172.5 172.8 173.3 173.9 174.1 173.5 174.3 175 175.4 176.1 176.4 177.2 179 181.2 182.6 183.9 184.9 186.4 187.7 190.5 193.2 193.5 191.8 189.8 187.5 186.8 186.3 186.2 186.5 186.5 188.1 189.6 191.4 194.4 197.1 200.2 203.3 206.7 210.4 214.4 219.8 227.5 228.7 227.9 225.8 225.8 220.9 210 204.8 201.7 199.6 198.2 197.6 197.5 197.7 198.4 198.8 200.4 202.1 203.3 203.6 206.6 209.1 211.5 213.3 215.4 217.8 220.9 224 227.2 231 235.2 239.9 243.6 248.5 255 260.9 266.9 276.1 282.5 289.9 295.3 299.2 299.3 297.9 292.6 288.3 282.4 276.3 271.1 261.6 254.8 249 245.5 241.3 237 229.9 221.1 208 214.8 223 228.4 234.7 241 246.2 247.9 248.4 248.9 250 250 249.3 246.2 242.2 236.9 230.1 223.8 216.4 210.2 202.9 195.1 197.7 217.7 221.2 220.8 223.5 224.9 225.7 226.3 227.5 227.9 227.7 228 224.8 222.8 222.2 220.6 217.3 208 208.8 210.4 217.2 224.6 232.8 241.6 247.2 248.6 249.2 251 254 255.2 256.2 257.5 258 258.9 259 259.5 261.2 262.8 265 266.6 267.8 268.5 268.8 267.8 265.9 263.7 261.3
173.7 172.5 172.5 171.7 170.8 170.1 169.5 169 168 167.5 167.4 167.6 167.8 167.8 168 168.8 169.5 169.2 168.1 167.4 167.6 167.5 166.5 165.5 165.4 166 167.5 169.7 173 176.4 178.6 178.3 177.3 177.6 177.9 178.6 179.1 179.4 179.2 178.6 178.5 179.1 179.7 179.7 181.4 183.3 184.4 185.3 187.1 189.1 190.6 193.2 195.9 196.8 197.4 195.9 193.3 190.7 190.2 189.5 189.5 189.9 190.5 191.5 192.9 194.8 198.2 201.6 204.5 207.6 212.3 216.5 222.1 228.6 235 236.6 237 239.7 238.7 223.5 213.6 209.1 206 204.1 202.8 201.7 201.3 201.4 202.4 203.4 204.5 205.9 207.5 208.5 210.9 213.4 215.8 218.3 220.5 223.6 227.1 229.7 233.2 236.8 241.2 246.2 252.2 257.1 262.4 270 280.2 290.1 295.9 305.6 313.9 316.2 312.5 310.2 305.5 299.7 293.8 283 278.3 270.5 261.6 254.8 249.4 244.7 240.6 233.7 227.2 218.3 217.4 224.8 229.6 235.7 241.9 248.1 249.6 251.8 252.6 254.1 254.7 254.3 252.5 248.6 243.7 238.2 231.2 223.2 215.8 208.8 198.6 198.7 220.9 225.6 227.8 229 229.8 230.4 232.2 231.4 231.4 229.5 229.8 229.4 226.3 225.4 223.4 220.2 216.7 213 205.2 211.2 218.4 227.4 239.5 247.5 249 249.8 251.3 253.3 255.3 256.6 257.6 258.4 259.3 259.9 260.4 261.4 262.4 263.7 264.7 265.1 264.9 264 262.5 259.8 257.1 254.8
176.8 175.7 175.3 174.4 173.7 173 172.4 171.7 170.9 170.2 169.9 170.1 170.3 170.6 171.1 171.3 171.9 172.1 171.3 170.9 170.6 170.1 169.1 168.9 168.8 169.1 171 173.6 176.8 179.9 183.7 185.4 184.1 183.4 183.3 183.7 183.5 183.9 184.3 183.9 183.1 182.4 182.8 183.8 184.8 186.1 187 188.2 190.2 192.2 194.1 196.8 198.6 199.8 200.4 198.9 196.8 194.1 193.7 193.1 192.7 193.2 193.5 194.3 195.7 198 201.4 205 209.2 213.2 217.7 222.9 228.7 234.5 239.4 242.6 246.5 254.3 243.3 226.4 218.4 214.2 211 208.7 207.4 206.4 205.5 206 206.7 207.6 208.7 210.4 212.1 213.1 215.1 217.8 220.5 222.8 225.2 228.8 231.9 235.8 239.2 243.1 247.9 252.5 258.1 263.4 271.1 284.2 294.3 302 309.3 319.6 328.7 331.6 330.5 323.9 316.8 309.1 300.8 290.1 281.8 273 265.8 259.7 253.9 248.5 242.9 237.6 231.7 223.4 220.9 226.3 231.9 237 243.5 248.8 251.3 253.7 256.2 257.8 259.1 259 257.6 255.1 251.1 245.9 239.5 230.9 223.1 213.6 202.6 201.5 224.7 229.5 232.1 233.5 234.2 234.3 234.7 234.9 234.2 234 231.7 231.5 229.1 226.7 223.8 221.1 218.8 214.5 208.2 204.3 210.4 220.2 231.7 243.3 247.6 248 249.4 252.1 253.9 255.4 256.9 258 259 259.5 259.8 260.5 261.7 262.4 262.7 262.4 261.4 259.2 256.6 253.4 250.4 248.6
180.3 179.2 178 177.2 176.6 176.1 175.5 174.8 173.6 172.9 172.5 172.6 172.7 173.5 174.2 174.3 174.5 175.6 174.5 174.4 174.3 173.6 172.8 172.3 172.1 172.5 175.2 178 181.3 184.6 188.3 190.6 191.5 189.9 188.9 188.8 188.5 188.5 188.6 187.8 186.9 185.9 185.7 186.6 187.2 188.6 189.5 191.3 193.2 195.1 196.9 199.1 200.6 201.8 202.5 201.3 199.6 198 197.1 196.5 196.4 196.8 197.1 198.1 199.6 201.9 205 209.4 214.2 218.7 223.2 228.4 234.3 239.4 243.2 246.3 249.2 259 238.2 229.9 223.9 219.8 216.9 213.9 212.5 211.4 210.2 210.6 211.5 212.2 213.2 215.3 216.7 218.5 220.4 222.5 225.1 227.4 230 233.5 237.2 241.2 245.1 248.9 254.2 259 264.3 272.4 281.8 292.7 301.9 307.9 318.5 334.4 342 346.9 344.5 336.1 326.5 316.1 306.1 295.2 282.7 273.5 267.5 261.9 256.2 250.8 245.4 240.2 234.2 227.1 226.4 226.4 233.6 238.9 244.4 248.7 252.2 255 258.6 261.2 262.6 263.1 262.6 260.3 257.3 253.8 247.6 238.6 230.3 221.1 208.6 206 226.5 231.9 235.2 237.1 237.9 237.5 237.2 236.5 234.7 234.2 233.1 232.4 230.2 227.9 224.9 222.3 219.3 215.7 211.8 205.2 203.8 211.6 221 232 239.1 240.8 243.2 247.2 250.1 252.2 254.3 256.4 257.1 257.8 258.3 258.9 259.5 260 260.2 259.3 257.4 253.8 250.5 247.1 244.8 242.9
183.8 182.7 181.5 180.9 180.1 179.3 178.7 177.7 176.7 175.9 175.2 175.1 175.5 176.3 177.1 178.1 178.4 178.9 178.7 178.1 178 177.7 177.4 176.2 175.8 176.5 179.6 183.4 187.5 190.5 193 195.4 196.4 197.1 194.8 194.3 193.9 193.5 192.8 191.8 190.7 189.7 188.8 188.9 190 191.4 192.3 193.8 195.7 197.6 199.3 201.3 202.7 203.7 204.6 203.8 202.5 201.4 200.6 200.2 200.6 201.5 201.7 202.5 204 206.4 209.9 214.7 219.5 224 228.6 233.2 238.8 244.3 246.4 248.3 249.3 247.5 240.9 234.7 229.6 225.7 223 220 217.6 216.5 215.3 214.6 216.2 217.1 218 220.1 221.9 223.8 225.6 226.8 229.5 232.1 235.1 238.8 242.7 246.5 250.3 254.7 260.4 265.4 271.8 279.3 287.8 301.2 310.1 317.2 326.3 342.5 355.4 359.6 355.4 343.3 331.4 318.8 307 295.7 283.3 273.2 267.9 263.1 257.5 252.6 247.4 242 236.2 230 230.2 228.9 235.2 239.5 244.5 248.9 252.6 256.4 260.1 263.3 265.5 266.5 266.4 265.6 263.5 259.9 255.5 246.6 237.8 230.5 218.4 204.6 227.5 233.8 236.7 238.7 239.5 239.8 239.3 238.3 237.1 234.8 233 232.2 231.1 229.5 226.3 223.8 220.9 217.6 213.7 207.6 201.1 204.9 210.5 217.2 224 229.1 234.1 239.7 243.9 247.8 249.5 252.3 254 256 256.2 256.2 256.7 257 256.2 254.9 252.7 249 245.4 242.1 239.9 237.6
187.3 186.1 185.3 184.7 184.2 183.1 182.1 181 180.2 179.4 178.7 178 178.8 179.4 180.1 181.6 182.3 182.7 182.4 182.8 182.9 182.2 182.7 181.8 181.6 182.8 186.5 190.9 195.2 198.1 200.4 201.1 202.6 203.7 203.3 201.4 200.5 199.2 197.6 196.1 194.9 193.4 192.1 192.3 192.7 193.9 195.1 196.4 198.2 199.9 201.7 203.6 204.8 206.1 206.7 206.1 206 205.6 206 205.2 206.7 206.6 206.9 207.2 208.8 211.6 215.8 220.5 224.8 229.9 234.5 238.7 242.8 246.9 249.6 250.5 251 249.1 244.9 240.1 235.4 231.2 228.3 225.1 223 222 220.1 219.1 220.8 221.8 222.9 224.8 226.6 228.4 229.8 231.2 233.7 236.3 239.3 243 246.6 250.8 254.8 260.3 265.7 270.9 278.2 284.9 295.3 307.1 317 323 334.4 349.5 360.3 362 356.7 342.2 329.7 316.2 303.1 291.9 281.7 274 269.4 264.4 259 253.9 249 243.8 237.2 235.3 233.9 231.2 237.1 241 244.9 249.3 253.3 257.4 261.5 264.6 267.1 268.9 269.4 269.1 268 265.7 262 254.8 246 238.9 230.7 211.7 223.8 235 237.3 239.2 240.5 240.4 240.1 239.7 238.3 235.6 234.7 232.8 231.6 230.3 228.7 225.9 222 218.9 214.8 210.1 200 198.4 203 206.9 209.5 214.4 221.7 228.5 233.4 237.8 241 244.3 247.4 250.6 252.8 253.7 253.8 253.5 252.4 251.1 248.3 244.7 241.1 237.2 234.6 232
191.2 190.3 189.6 189 188.3 187.2 186.8 185.6 184.2 183.1 182.3 182.1 182.5 182.9 183.5 184.9 186 186.6 186.1 187.6 188.1 188 188.4 188.5 189.7 192 195.7 199.8 203.8 206.5 208.8 209 209.6 210.8 210.6 209.2 207.6 204.8 204.9 201.7 199.1 197.2 195.9 196.1 196.9 197.4 197.9 199.5 201.1 202.7 204.3 205.8 207.1 208.3 209.6 210 210.4 212.3 212.4 212.1 212.2 212.5 212.9 213.1 214.7 217.8 222.5 228.4 234.2 238.8 243.8 246.5 250.4 254.8 255 257 256.1 253.4 250.2 245.5 241.4 237.7 233.6 230.1 228.4 227.1 225.1 224.5 225.6 226.6 227.6 229.5 231.4 232.6 234.2 235.9 237.4 240.3 243.5 246.4 250.4 254.4 259.2 265.1 270.1 276.2 282.9 289.9 299.8 309 318.9 327.4 344.3 354.5 352.5 347.8 339.8 327.3 316.8 308.1 297.3 288 281.3 274.9 270 265.1 260.2 255 249.6 244.5 241.5 238.5 236.9 235.3 237.3 241.7 245.7 249.7 253.6 257.9 261.8 265.3 268.4 270.2 271.7 272 271.6 270 267.1 262.6 254.7 247.1 240.1 224.5 222.9 236.3 238.1 239.1 239.9 240.1 239.5 239.1 237.8 236.4 235.2 234.7 231.8 230.8 229.4 228.7 224.2 220.1 217.8 214.6 209.8 197.6 196.3 197.8 200.2 204.2 208.6 214.4 221 225.9 230 234.3 238.2 242.8 246.8 250.2 251.1 250.9 250.1 248.1 244.7 240.8 235.9 232.4 229.6 227
196.1 195.7 195.1 194.2 193.6 192.7 191.9 190.9 189.3 187.9 186 186.5 187.2 187.5 187.5 188.2 189.7 190.7 190.6 192.5 193.5 194.1 194.6 196.4 199.1 202.4 206.8 210 213.8 217 218 218.4 218.7 218.3 217.5 216.4 214.8 213.6 211 207.2 203.7 201.8 199.9 199.8 200 201.2 202 203.1 204.6 206.2 207.8 209.1 210.2 211.8 213.6 214.9 216.2 217.5 217.9 218.5 218.4 218.8 219.4 219.6 221.4 224.9 230.1 237.9 245.1 248.3 252.8 255.9 258.3 260.6 263.7 264 263.9 260.9 255.8 251.8 248.2 244.9 241 237.9 234.6 231.2 230 229.8 230.5 231.7 232.9 234.5 236.1 237.1 239.6 240.6 241.8 244.2 247.5 250.3 254.2 258.4 263.1 268.9 274.1 280.2 286.9 294.3 302.8 310.4 319.4 327.3 337 339.1 339.3 333.8 323.5 315.9 308.8 301.5 294.3 287.4 281.6 275.5 270.7 265.7 260.8 254.3 251.2 247.9 244.6 242.2 239.7 238.9 239 242.3 246.6 250.6 254 258 261.8 265.3 268.8 271.4 273.2 274.7 274.6 273.8 271.2 267.2 260.6 253.1 246.5 233.5 234.3 238.9 238.4 238.6 238.8 238.7 238.2 237.6 237.3 236.4 235.5 234.7 234.5 233.6 230 228.8 226.5 223.6 221.3 217.5 212.9 208.8 202.9 194.7 192.7 193.4 198.9 201.2 207 211.4 214.8 219.4 223.6 229.2 234 240.5 246.3 247 247.4 244.8 240.3 235 230.8 227.5 224.1 220.9
202.1 201.5 201.7 201.6 200.4 199 198.2 196.9 195 193.2 191.5 191.8 191.9 191.9 191.2 192.1 194.1 195.7 197.3 199.3 200.2 201.3 202.3 204.5 208.7 212.7 217.9 221.4 223.9 225.7 228.5 228.2 227.3 228 225.9 223 221.9 220 217.6 213.3 209.1 205.5 203.9 203.9 204 204.3 204.9 206.1 207.7 209.4 211.1 212.9 214.6 216.6 218.1 219.1 221.3 222.6 224.2 225.7 226.1 226.9 226.5 226.9 229.3 233.6 238.6 246 252.7 259.2 261.7 263.6 265 268 271.2 274.8 275.3 271.2 264 260.6 256.1 252.1 248.6 244.2 239.5 236.1 235.2 235.2 235.8 237.2 239.1 240.6 241.7 243.3 245 246 247.3 249.1 251.4 254.7 258.2 262.4 267.3 272.8 278 284.2 290.6 297.2 307.8 313.5 320 325.4 331.4 333.2 329 320.4 315.5 310.6 304.6 298.9 292.9 287 281.3 275.7 271.4 266.3 261.2 257.4 253.9 250.9 247.4 245 243.4 241.8 242.4 244.9 247.7 252.1 254.7 258.1 261.7 264.7 268 271.8 273.9 276.1 276.8 276.1 274.2 270 264.6 257.6 251.2 246.1 242.8 240.6 239.8 238.3 236.8 235.7 235.2 234.5 234.6 233.7 234.1 234.4 233.4 233.3 232.2 229.9 228.5 226.1 223.5 220.5 216.5 213.6 211.6 208.2 203.2 195.3 187.9 185.8 190 192.9 202.6 205 209.1 212.3 215.5 220.3 226.8 232.4 233.4 234.4 231.6 227.5 224 220.7 217.2 213.7
207.9 209.1 209.7 209 207.3 206.9 205.7 204 202 200.1 199.8 199.2 198.2 197.5 197 196.7 198.9 200.4 202.2 204.3 206.4 208.7 210.6 213.6 217.1 222.6 227.9 232 234.4 236.4 237.7 237 235.4 235.4 233.6 231 228.4 226.4 224.2 220.7 216 210.1 208 207.5 207.4 206.9 208 209.1 210.5 212.3 214 215.8 217.8 219.9 221.7 224.1 226.5 228.7 231.1 234 235.9 236.3 235 234.9 238.3 242.8 249.7 257.4 264 268 271 273.1 276.5 277.8 280.7 283.2 282.8 279.8 274.4 270.8 264.8 259.8 255.4 250.5 245.5 242.3 240.9 240.7 241.7 243.2 245.3 247.2 248.6 251.1 253.4 253.6 254.7 255.5 256.8 259.5 262.6 266.6 271.7 277.2 282.6 288.5 294.8 302.1 308.5 314.3 318.2 320.9 322.8 321.6 319.2 315.7 312.2 307 302.4 297 291.8 286.9 281.3 275.9 270.6 267 263.4 259.4 255.2 253.1 250.5 247.9 246.4 245.2 245.7 247.2 249 251.5 255.2 258.2 261.9 264.8 268.1 271.4 274.4 277 278.6 278.2 276.6 273.5 268.6 261.9 255.3 250.4 245.7 242.6 240.5 238.6 236 234.3 232.6 232.8 232.3 231.5 231.9 232.4 233.2 232.4 231.9 230.9 229.7 227.8 225.6 223.2 220.7 218.1 215.9 213.7 211.2 206.6 201.8 195.7 187.6 176.8 178.8 183.7 197.2 201.7 204 205.8 209.2 210.3 216.1 218.8 213 212.1 212.1 210.5 207.3 202.9
214.7 216.2 217.1 216.7 216.5 216.2 214.7 212.1 211.2 209.9 209.4 208.3 206.6 204.9 203.5 203.3 204.3 205.5 208.3 210.3 214 216.7 220.2 222.4 226.1 231.8 237.2 241.6 243.9 245.8 246.6 246.5 245.3 244.3 240.6 238.3 234.2 232.1 230.2 227.3 222.8 215.9 213 211.8 211 210.7 211.2 212.6 213.5 214.9 216.7 218.8 221.1 224 226.5 230.3 234.5 237.5 240.7 244.8 246.1 246 245.2 245 248.4 253.3 259.3 266.2 272.8 278.3 281.1 283.4 287.7 292.9 294.7 293.2 291.1 286.5 281.2 277.1 272.1 267.8 263.5 257.7 252.1 249 247.6 247.9 248.9 250.3 251.8 254.1 255.7 257.9 260.1 261.4 261.4 261.9 263.1 266 269.1 272.5 277 282.5 288.6 293.7 299.3 305.1 310.4 314.2 317.4 319.7 319.9 318.9 316.8 313.6 309.9 305.5 300.9 295.8 291 286.2 281.4 276.5 272.7 268.8 264.8 260.7 257.7 254.9 252.3 250.5 249.2 248.3 248.3 249.1 250.6 252.8 256 259 262 265.1 269 272.3 275.3 278.2 280.3 280.3 278.8 276.1 272 266 259.1 252.9 247.9 244.4 241.6 239 237.6 235.1 233.2 231.7 230.2 228.5 228.1 230.1 230.5 231.1 230.7 230.5 230.3 229.1 227.6 226.4 224.2 222.4 220.1 218.3 215.4 212.5 208.5 205.3 200.4 184 174.9 173.1 174.7 182.7 188.1 191.6 196.5 197.6 197.8 198 197.2 196.7 196.3 195.6 194.3 190.9
222.1 224 225.4 225.5 226 225.7 224.8 222 221.7 220.9 220.4 218.5 216.7 214.4 212.4 210.7 210.2 212.6 216 218.9 219.7 225.1 227.8 230.1 234.6 240.7 246.6 251.2 254.7 256.8 258.1 258 254.7 252.2 249.5 245.1 240.4 237 235.2 233.3 228.9 222.1 218.3 216.4 215.4 214.3 215 216.3 217.1 217.7 219.5 221.9 225 228.7 234.6 239.6 244.9 250 254.1 258.4 258.3 257 255.6 255.5 259.5 264.7 270 276.1 283.6 288.9 291.5 294 299.1 307 310.5 309.1 304.8 298.6 289.6 284.4 280.7 276.6 272.9 267.7 260.1 257 256.4 256.3 257.8 259.9 260.9 262.3 263.2 265.3 267.2 268.8 269.4 270.5 271.6 273.8 276.7 280.1 284.1 289.6 294.7 299.3 304.9 309.4 312.4 316.4 318.2 319.5 319.1 317.6 315.5 312.2 308.6 304.8 299.9 294.7 290.3 286.3 281.9 277.9 274.1 270.2 266.3 262.6 259.3 256 253.5 251.7 250.7 249.7 250.2 250.6 253 254.8 257.6 260.5 263.5 266.7 270 273.7 276.9 280 282.1 282.8 281.7 279.2 275.2 269 261.2 255.3 249.9 245.5 242.6 240.5 238.8 235.4 234.2 232.5 231.4 229 227.1 226.9 227.7 228.2 229 229.2 229.5 229 228.3 227.1 226.4 225.5 223.9 222.1 219.5 217.2 214.2 212.3 208.9 203.3 195.9 190.6 183 176.1 172.5 168.9 174 181.9 184.1 186.4 186 184.1 183.8 183.7 182.2 180.4
231 233.3 234.1 236 236.9 237.4 235.3 232.5 232.7 232.4 231.5 229.5 227.3 225 222.4 218.4 217.6 221 224.1 226.5 229.2 232.9 235.2 238.1 243 249.2 255.6 261.2 264.9 267.4 268.2 268.3 265.3 262 257.3 251.9 245.9 242.4 240.1 238 233.3 227.2 223.1 219.9 218.5 217.4 218.4 220 220.6 221.3 222.5 225.2 229.2 235.3 244 253.5 263.6 270.5 272.6 273.9 271.7 269 267.5 266.8 271.5 277 281.3 286.7 293.1 298.1 302.8 308.8 320 317.9 321.6 322.8 318.1 309.5 298.9 292.7 289.2 285.5 281.9 277.9 272.4 269 267.2 266.5 267.3 269.5 269.9 270.3 271.4 273.6 275.7 277.3 278.6 280.1 281.2 283.1 285.6 288.8 292.2 298.7 301.7 306.1 310.3 313.7 316.8 319.6 320.5 320.5 319 317.8 315.3 311.6 307.8 304.2 300.4 296.3 292 287.6 283.2 279.2 275.4 271.6 267.8 264.4 260.3 257 254.3 252.5 251.4 250.8 251.6 252.7 254.4 256.7 259.2 262.3 265.5 268.8 272.8 276 279.4 282.1 284.4 285.4 284.3 281.6 277.9 271.4 264.1 257.4 252.2 247.6 244.8 242.3 240.2 237.9 236 234.4 232.4 229.7 227.8 226.1 225.1 224.7 226.2 227.1 227.7 227.8 227.5 227.6 227 226.5 225.5 224.4 223.1 222 220.2 218.4 216 213.3 211.3 207.9 203.4 197.7 185.9 180.4 174.1 169.1 168.2 165.9 170.9 176.8 176.3 173.5 171.3 169.4
244.6 246.9 247.3 249 249.1 249.3 248 247.2 245.2 244.7 242.7 239.9 237.9 235.9 233.4 228.9 227.5 228.5 232.8 235 236.9 239.7 243.1 246.1 251.5 258 264.2 269.9 273.8 275.7 276.9 276.3 273.5 270.2 265.4 259.8 252.9 248.7 244.2 240.5 234.8 230.6 226.6 224 222.8 221.6 222.5 223.6 224.9 225.2 226.5 229.2 234.3 243 254.2 266.9 277.5 291.4 290.9 285.7 283.5 282 279.7 276.5 284.7 288.7 292.9 296 300.9 305.4 311.1 317.3 325.1 332.1 327.9 326.2 323.6 317.5 307.7 300.5 296.7 293.6 290.7 287.5 283.6 281.7 280.1 279.4 277.8 279.1 279.3 279.6 281 282.4 284.4 285.9 288.5 290.3 291.3 293 294.7 298.3 302.8 305.7 309.9 313.1 316.8 320.8 323.2 323.4 323 322.7 321.1 319.4 316.9 313.9 310.2 306.3 302.3 298.3 293.6 289.2 284.9 280.3 276.1 272.1 268.8 264.9 260.7 256.8 254.3 252.8 252.1 252.1 252.8 254.1 255.8 258.2 260.9 264.3 267.7 271.7 275.7 278.9 282.1 284.7 286.8 287.4 286.8 283.9 279.7 273.3 266.7 260.5 254.8 250.5 246.8 244.2 241.7 239.4 237 235 232.9 230.8 228.1 226.5 224.8 224 223.5 224.5 225.7 226.3 226.5 226.6 226.4 225.9 225.6 225.1 224.4 223.1 222.1 222.4 220.6 220.4 218.7 216.5 212.5 207.5 204.6 199.2 192.4 186.9 184.4 182.1 177.6 170.8 165.8 164.3 160.2 157.3
259.2 262 264.5 262.5 262.4 262 261 261.7 258.4 256.9 256.4 253.9 250.5 248.2 245.1 241.1 239.8 239 241.8 242.8 244.7 247.2 250.1 253.6 258.8 268.3 273.2 277.8 281.7 283.5 284.1 282.9 280.4 277.8 273.4 268.2 264 256.2 250.1 245.3 240.8 235.3 231.1 228.2 226.7 225 226 227.3 228.8 230.7 233.9 235.7 240.9 250.3 261.6 273.5 283.4 293.4 294.7 294.5 294.4 295.8 296.3 295.4 298.8 301.9 305.2 308 311.8 315.3 318.7 323 328.7 332.4 331.1 328.5 324.8 319.8 312.6 306.7 303.3 300.4 299 298.3 297.1 293.9 291 289.2 287.9 288.6 288.9 289.4 290.5 292.4 293.9 295.5 298 299.7 301.6 303.5 305.1 307.2 309.8 314 318.1 321.7 325.3 326.4 326.6 327 325.8 324.9 323.4 321.3 319 315.9 312.6 308.8 304.5 300.4 295.3 290.6 285.9 281.3 277 272.5 268.4 264.3 260.1 256.4 253.6 252.8 252.4 252.6 253.7 255.6 257.3 259.9 262.8 266.5 270.5 274.7 278.5 282.2 285.4 288.1 289.4 289.6 289 285.8 281.9 275.5 269.6 264.2 258.5 253.4 250.2 246.1 243.2 240.7 238.1 235.6 233.6 231.3 229 227.5 225.4 224.3 223.2 221.7 223.8 224.8 225.2 225.3 225.4 225.4 225.4 225 224.7 223.8 223 223.4 223.2 223.2 222.5 221.2 219 217 216.6 214.9 211.9 208.5 203.4 200.2 195.7 190.5 184.5 176.6 181.4 179.7
274.1 277 278.5 278.5 276.9 275.5 274.9 275.1 273.6 273.5 271.1 267.6 264.5 261.8 258.4 254.6 252.5 250.7 251.9 251.8 252.9 255.3 257 261.3 267.9 276.6 282.1 285.4 288.2 290.2 291 289.9 286.7 284.3 280 275.1 269.3 263.1 256.8 252 247.3 241.4 235.8 232.5 230.3 228.4 230 231.8 234.1 237.8 241.6 245.6 250.6 259 270.7 281.6 291 299.1 304.1 306.6 308.6 310.2 311 311.3 312.7 314.4 316 317.4 319.4 321.8 325 327.6 330.2 331.8 332.4 330 326.2 322.3 316.6 312.5 309.3 306.6 305.7 306.9 307.7 307.7 304.5 299.5 298 298.4 298.9 299.5 301 303.5 303.7 304.9 307.5 309.2 310.7 311.6 312.9 315.9 320.2 326 329.5 330.3 330.3 330.8 330.8 329.9 328.7 327.4 325.3 323.2 321 317.9 314.8 311.1 306.9 302.3 297.7 292.1 286.3 281.1 276.6 272 267.7 263.2 258.3 255.3 253.1 252.3 252.4 252.9 254.5 256.5 258.8 261.5 264.9 268.8 273.1 277.6 282 285.7 288.8 291.4 292.2 292.2 291 287.7 284 278.8 273.5 268.3 262.7 257.1 253 249.5 245.3 241.8 239.2 236.6 234.2 231.9 230.1 228.2 226 224.4 223 221.7 220.8 222.9 223.8 224.3 224.6 224.8 224.9 224.6 224.4 223.7 223.3 223.3 223.4 223.5 223.6 223.2 222.6 222.3 221.8 220.2 218.4 216.6 213.7 209.9 206.4 202.2 198 193.6 189.7 185.8
288.7 290.2 292 291.9 289.3 289.3 289.2 289.7 291 289.1 285.2 282.1 279.4 276.8 273.7 269.3 265.2 263.2 262.3 261.8 260.9 263.1 265.7 269.6 276.5 284.4 289.3 292.4 294.7 296.4 297 296.2 293.7 291.2 287.8 282.3 276.9 271 265.2 260.3 255.1 247.6 241.3 236.6 234.4 232.9 234 236.4 239.4 244.5 249.9 256.5 262 270.2 280.9 291 300.7 309.1 315.3 320.1 322.6 323.9 324.2 324.6 325.1 326.1 326 326.5 327 327.7 328.5 329.7 331 331.3 330.3 328.1 326 323.1 319.6 316 313.2 311.4 311.7 312.5 314.5 315.5 314.4 310.4 307.6 308.1 310.4 311.2 314.6 314.4 314 314.3 316.7 317.9 317.4 318.5 321.7 325.3 331.8 335.6 335.9 335.1 334.8 334.1 333.1 332.2 331.2 329.6 327.4 325.2 323 320.2 317.4 313.6 309 304 299.2 292.4 285.7 280.7 276.2 271 265.4 259.7 256.5 254 252.2 251.4 251.8 253.3 255.6 257.6 259.8 263 267.4 272.2 276.6 281 285.4 289.1 292.7 294.9 295.5 295.1 293.8 290.8 286.8 283 277.4 272.3 266.9 261.1 256.3 251.7 247.4 244.1 240.9 238.3 235.8 233 230.7 228.4 226.4 224.4 222.9 221.6 220.2 221.4 223.1 224 223.9 224 224.1 224.5 224 223.3 222.4 222.7 223.1 223.5 223.7 223.8 223.7 223.4 223.2 222.9 221.3 219.2 217.2 214.7 211.6 208.7 204.2 199.5 194.6 188.9
302.8 303.2 302.5 302 302 304 304 305 306.5 304.2 300.9 297.9 295.1 292 287.6 283 278.1 275.8 272.5 270.7 269.4 270.6 272.5 277.6 284.4 291.1 296.3 299.2 301.1 303.4 304.5 303.1 301 298.8 296.2 291.6 286.1 280.6 275.8 270.1 262.7 254 245.8 241.4 239.2 237.7 239 241.6 245.4 249.8 257.3 264.9 272.5 281.2 291.7 302.7 313.3 322.6 329.5 334.1 336.8 337.4 337.6 337.2 336.2 335.7 335.5 335.3 334.8 332.7 331.3 331.3 330.7 330.5 328.5 326.7 324.8 322.7 320.5 318.8 316.2 315.6 316.3 317.5 320 321.8 321.8 318.7 315.9 316.6 317.8 320.4 322.6 323.2 324.6 327 326.2 324.1 324.9 327.9 329.6 334.4 337.2 338.8 338.8 337.6 336.6 336.1 335.4 334.2 333.1 331.5 329.4 327.2 324.5 321.8 318.9 315.4 311.1 306.4 300.1 292.1 285.2 280.3 275.4 269 262.7 257.8 254.5 252.4 251 251 251.7 253.8 256 258.4 261.6 266.3 271.1 275.9 280.3 284.5 288.8 292.5 296.2 298.4 298.8 298.3 296.6 293.9 290.1 286.3 281.3 276.2 270.6 264.4 258.8 253.7 249.5 246 242.6 239.5 236.9 233.9 231.1 228.6 226.6 224.5 223.1 221.6 220.1 219.6 221.4 222.8 223.5 223.7 223.6 223.9 223.3 222.3 221.3 221.6 222.3 223.1 223.5 223.2 223.2 223.2 223.3 222.8 222.1 220.9 218.8 216.8 214.2 211 207.3 202.8 196.7 191.6
316.1 315.4 315.3 315.9 317.6 317.8 318.1 319.1 319.9 319.5 316.7 313.8 309.8 304.8 300.1 295.2 290.5 287.6 284.2 280.4 278.4 278.5 280.9 282.9 289.6 296.3 302.1 306.1 308.9 311.2 312.4 311.7 309.8 307.9 305.4 301.3 296.2 291.6 285.5 278.6 270.5 260.9 252 246.6 243.7 243.1 244 247.1 251.7 258.1 264.3 273.3 282.9 290.8 301.2 312 324 334.9 342.8 347.6 349.6 349.5 348.7 347.3 345.6 344.2 343.2 342.1 340.1 337.4 334.5 331.9 330.5 328.6 326.6 324.7 322.6 320.9 319.5 318.7 318.3 318.4 319.5 322.4 327.3 329.2 329.1 326.3 322.2 322.7 323.7 325.9 327.4 328.5 330.2 332 330.3 330.1 330.5 331.7 334.1 336.6 338.7 340.3 340.4 339.4 338.1 337.5 336.6 335.6 334.2 332.4 330.6 327.8 325.5 322.9 319.8 316.4 312.4 307.8 301.2 291.3 283.7 278 272.9 265.3 259.4 255.8 252.4 250.3 249.5 250.3 251.4 253.6 256.3 259.8 264.2 269.1 274 278.6 283.4 287.8 292.3 296.3 299.7 301.4 302.2 301.9 301.1 298.8 294.7 290.9 285.6 279.7 273.8 267.7 261.8 256.8 251.2 247.4 243.5 240.5 237.7 234.6 231.7 228.8 226.8 224.8 223.2 221.7 220.1 218.7 218.2 220.3 222.2 222.4 222.7 223.1 222.6 221.2 219.7 220.1 221.3 222.1 222.1 222 222.1 222.2 222.2 221.8 221.1 220.2 218.6 216.5 214.1 211.1 207.3 202.4 195.1 188
329.9 329.4 328.6 328.8 331 332.6 332.8 334.7 335.4 334.5 332.1 329.5 325.8 320.3 314.6 309.1 302.7 298 294 291 288.7 287.1 289.8 291.7 296 302.6 308.1 312.2 316.2 319.5 321.1 320.9 319.6 318.2 316 312 307.3 301.2 295.6 288.6 278.9 269.2 260.1 254.1 250.1 249.7 251.1 253 258.2 265.7 273.3 280.6 289.2 298 307.5 318.9 330.5 342.7 351.6 357.4 359.8 359.1 356.4 354.6 351.5 347.9 345.6 344.6 342.6 339.1 336.1 332.3 328.4 326 324 321.5 319.5 318 316.9 317.3 318.1 319 322.3 327.4 333.8 335 335 335.1 329.6 330.1 329.9 331.4 331.7 332.3 333.4 334.1 333.8 333.5 333.5 334.3 335.4 337.2 339.3 340.5 340.7 340 339.2 338.2 337.5 336.3 335 333.2 330.9 328 325 323.1 320.1 316.5 312.6 307.9 297.8 287.1 280.9 276.3 269.8 261.6 256.6 252.6 249.8 248.4 248.1 249.4 251.4 254 257 261.3 266.5 271.4 276.6 281.2 286 290.7 295.2 299.5 302.7 304.6 305.7 305.6 304.7 303.1 300 295.8 289.8 283.6 276.9 270.4 263.2 257.8 252.4 248.7 244.7 241.7 238.1 234.7 231.8 229.2 227.2 225.1 223.6 222.1 220.2 218.9 218 217.5 219.1 220 220.9 221.8 221.8 220.3 218.9 218.6 219.8 220.6 220.5 221.2 221.1 220.9 220.7 220.3 219.3 218.2 216.8 215.1 212.5 209.4 205.1 198.4 189.3 178.6
342.9 344.5 345.3 345.1 345.6 345.5 347.5 349.4 350.3 349.8 349.5 346.7 340.5 333.3 326.9 320.2 313.7 309.6 304.4 300.6 298.8 296.5 297.7 299.5 302.7 308.8 314.2 318.6 324 327.9 329.2 329.1 328.7 327.7 325.5 322.4 317.8 311 303.9 296.8 289 278.9 268 259.9 256.4 256.4 257.8 259.3 266.1 274.2 282.6 290.8 296.8 303.8 313.9 324.5 335 347.7 356.8 363.4 365.6 364 360.5 357.5 353.7 349.5 346.5 344.7 342.6 339.7 335.2 330.9 326.4 322.9 319.7 317.3 315.6 315.1 315.5 316 317.1 320.3 324.7 330.8 338.6 339 340.6 341.8 340.1 336.4 335.9 337 336.7 338.6 338.3 337.6 336.6 335.5 335 335 335.4 337.1 339.2 340.2 340.6 340.2 338.8 337.8 336.8 335.5 334.4 332.7 330.2 327 324 321.8 319.2 314.9 310.3 302.6 290.8 282.9 278.1 272.2 264.8 257.8 253.8 249.8 247.8 246.5 246.9 248.6 251.8 254.4 257.5 261.8 267.7 273.5 278.5 283.6 288.5 293.2 297.8 302.1 305.6 308 309.1 308.9 308 306.2 302.8 298.6 292.7 286.2 279.2 271.7 264.7 259 253.6 250.3 245.9 242.4 238.8 235.5 232.4 229.8 227.6 225.9 223.7 221.8 220.3 219.1 218.1 217.1 216.7 217.5 218.6 219.6 219.9 218.7 217.5 216.8 218.7 219.7 219 219.2 219.5 219.2 218.7 218.5 217.4 216.3 214.6 213.4 210.2 206.6 202.1 194.2 181 182.7
357.7 359.7 360.3 360.6 360.8 361.8 363 365.2 366.4 366.1 364.2 360.1 354 346.9 339.3 333.2 326.8 320.7 315.8 311 309 306.4 306.8 308.1 310.5 315.1 320.3 325.4 330.4 334.6 337.4 337.9 337.7 336.6 334.7 330.9 326 320.1 314 306.6 298.3 287.4 277.2 266.1 262.6 262.6 264.1 269.7 278 285.6 294 301.4 307.3 313.5 322.3 332.3 340.9 351.8 360.3 365.3 367.1 365.4 362 357.7 353.2 348.3 344 342.2 339.4 336.4 332.2 327.9 323.6 318.7 314.7 311.8 311.1 311.1 312.3 313.6 316.4 320.3 325 332.3 338.1 342.1 344.6 346.5 346.4 344.3 344.1 344.3 344.7 345.1 344.8 342.7 339 335.2 334.4 333.8 334.5 336.4 338 339.7 340 338.9 337.3 336.1 334.7 333.1 331.8 331.3 328.9 326 323.1 320.1 315.7 311.1 306.5 297 286.6 278.8 273.4 267.9 260 254.6 251 247.6 245.9 245.1 245.8 248 251.1 254.4 258.2 263.4 268.8 274.1 279.5 284.9 290.2 295.6 300.4 304.6 308.2 310.9 311.7 311.3 310.5 308.9 305.7 301.6 295.3 287.4 279.1 271.4 265.4 259.8 255.3 250.4 246.9 243.2 239.5 236.2 233.1 230.7 227.7 225.6 223.5 221.9 220.4 219.3 218.2 217.1 215.6 215.5 216.6 217.1 217.6 217.2 216.2 216.2 217.4 217.9 218.4 218.9 218.6 218.1 217.5 217 216 214.8 212.8 211.4 208.6 204.1 196.8 185.2 194 186.6
373.6 376 376.6 376.5 375.4 375.5 377.1 378.8 380.1 379.7 377.2 373.4 367.5 360.1 352.5 344.9 337.2 330.5 324.9 321.7 319.1 316.1 316.5 316.8 319.4 322.8 327.3 332.2 338 341.4 345.8 346.9 345.9 344.9 343.1 339.4 336.3 329.1 321.6 314.5 305.7 296.9 287.8 278.4 271.7 273.4 281.1 286.5 291.1 299 305.6 312.6 318.5 325.3 332.3 340.6 349.1 357.4 364.2 367.5 368.5 367.2 363.7 357.5 352.1 345.9 341.1 336.8 332.9 329.8 326.8 322.7 318.1 314.4 310.2 308 307.3 308 308.9 311.3 315.2 319.7 325.2 333.6 340 346.2 349.4 351.3 352 352 351.2 350.7 350.5 350.3 347.4 345.7 338.9 333.9 331.8 330.1 331.1 332.7 335.2 337.3 336.9 334.3 331.7 328.9 328.3 328.4 328.9 327.3 326.2 323.8 319.8 315.1 309.7 303.8 296.2 285.5 279.8 274.7 269.5 262.7 255 251.4 247.4 245.1 243.9 243.5 244.7 247.4 250.5 254 258.9 263.6 268.7 274 279.3 285.3 291.4 296.8 302.6 307 310.4 312.8 314 313.6 312.9 311.1 307.8 303.8 297.6 288.7 279.1 271.5 265.9 260.4 256.5 251.7 247.5 243.6 239.9 236.4 233 230 227.8 225.4 223.9 222.2 220.5 219.3 218.1 216.9 215.8 215 214.8 215 215.3 215.5 214.3 214.9 215.8 216.8 217.8 218.4 218.6 218.6 218.5 218.2 217.2 216.2 212.6 209.6 209.9 207.7 203.8 205.4 201.2 189.6
389.3 391.8 391.7 391.3 390.8 390.6 390.7 391.8 392.2 391.7 389.6 385.5 379.6 372.3 363.3 354.3 346.2 339.4 334.9 331.3 328.1 327 327.1 327.4 328.8 330.5 334.5 339.2 344.3 347.9 350.9 352 352.2 352.4 352.2 349.9 345.6 337.5 330 322.2 314.2 307.8 300.8 294.5 287.4 293.4 295.6 299.1 305.4 312.6 317.7 324.4 330.4 336.3 342.5 350.8 358.5 364.7 369.8 370.7 370 368.4 365 359.8 350.1 343.8 337.5 332.2 327 322.5 319.3 315.7 311.9 308.1 305 304 304 304.6 305.5 309.2 314.2 320.2 326.9 334.4 343.2 352.3 354.6 355.2 355.2 355.2 354.3 354.2 353.2 360.4 347.3 342.8 335.6 329.3 325.7 325.1 325.2 326 326.8 327.2 326.5 325.5 323.1 322.6 322.8 323.1 324.2 324.5 322.6 318.7 313.7 308.7 301 292.6 282.3 277.7 272.8 268.5 260.6 255.5 250.7 247 244.6 242.7 242.1 241.5 243.9 247.3 250.4 254.2 258.7 263.2 268 273.4 278.9 285.2 293.2 298.9 304.4 308.4 311.5 313.7 315.6 315.5 314.2 311.5 308.2 303.7 296.6 288.5 279.2 272.4 265.9 261 256.5 251.7 247.7 244 240.5 237 233.8 230.6 228.2 226 224.2 222.5 220.9 219.5 218.2 216.8 216.1 215.3 213.9 213.6 213.4 213.7 212.9 212.8 213.9 214.9 215.4 217.3 217.9 218 217.9 217.5 217.8 218.1 217.7 217.1 216.4 215.9 214.3 211.9 202.9 207.7
403.6 406.2 407.2 406.9 405.7 405.2 404.3 404.7 404.6 403 400.1 395.6 389.9 382.2 372.7 363.9 355.4 348 343.3 339.6 336.9 336.9 337.1 336.7 337.4 339 342.1 345.9 350.4 353.8 356.9 359.3 360.7 362 362.2 360.7 355.1 346.4 339 332.7 325.6 319 313.1 307.2 305 306.4 308.2 312.1 318.3 324.5 331 336.7 341.4 348.6 356.1 363.1 369.7 374.1 375 374 372.2 369.7 365.5 360.6 350.4 341.5 334.7 328.4 322.5 318 314.4 310.8 307.1 303.3 301.2 300.3 300.1 300.7 302.3 306.8 312.9 319.1 327.5 338.5 349.4 353.8 356.6 357.8 357.8 357.4 357 355 352.3 349.8 342.3 335 327.1 322.4 319.8 318 317.8 317.3 315.9 317.7 317.1 315.7 314.4 314.3 314.9 315.9 318.8 321.2 317.6 312.2 305.3 295.6 287.2 279.2 273.2 270.3 266.5 260 254.1 250 246.6 243.2 241.5 240.7 240.3 240.4 243.4 246.5 249.8 253.6 257.9 262.4 267.3 272.4 278.4 285.3 293.6 299.9 305.8 309.5 312.6 314.8 316.9 316.9 314.7 311.5 307.3 302.1 293.2 285.6 278.5 272 265.7 260.2 256.4 251.6 247.5 244.1 240.5 236.4 234.1 230.7 228.6 226.4 224.5 222.8 221.3 219.9 218.5 217.1 216.2 215.8 214.2 213.6 213.1 212.6 212.1 211.7 211.7 211.7 212.7 214.1 214.7 215.3 215.3 215.3 216.6 217.2 217.4 217.8 217.6 217 215.7 213.6 210 215.5
415.8 419.2 421.2 421.3 420.4 419.3 418.6 417.8 416.1 413.2 409.2 404.5 398.3 391 381.5 371.7 364.1 357.4 352.1 348.2 346.2 345.3 346 345.9 346.4 348.3 351.3 354.7 358.1 360.9 363.9 366.9 368.3 369.2 368.8 367.1 362.8 353.9 346.8 341.3 335.3 328.3 322 317.5 315.3 316.3 318.7 322.2 328.2 335.3 342.3 346.2 352.2 360.1 366.6 373.7 379.4 381.8 381 377.5 373.5 370.4 366.5 360.2 350.8 341.6 333 324.4 318.6 314.2 310.1 306.4 303 299.7 297.5 296.6 296.3 297.5 299.1 304.2 310.3 316.6 331.8 347.1 351.2 357.1 358.8 360.3 359.8 358.9 358.3 358.2 349.1 343.9 334.2 326.6 321.2 317.6 314.3 311.8 310.8 309 306.7 305.4 304.7 305.2 305.6 306.5 307.5 309.5 312.1 312.3 306.6 301.1 291.2 282.2 274.4 269.4 265.9 262.3 257.5 252.8 249 245.3 242.4 240.3 238.9 238.5 238.3 240.4 243 245.9 249.4 253.2 257.3 261.9 266.5 272 278.7 285.9 293.6 300.3 306.3 310.6 313.7 316 317.6 317.3 315 310.5 305.4 299.9 291.9 285.5 278.6 272.1 265.8 260.2 255.6 251.4 246.5 243.2 239.3 237.1 233.8 230.7 229 227.1 225 223.5 222 220.4 218.9 217.3 216.3 215.5 214.8 214.2 213.6 213 212.3 211.7 211.3 210.9 211 211.5 211.3 211.9 212.7 213.3 214.2 215.5 216.2 216.8 217.2 217.2 216.9 216.3 216.5 217.8
425.4 430.7 433.1 434.3 433.2 431.2 430.1 428.6 425.9 422.3 418 412.2 405.6 398 388.5 379 372.5 366.8 362.6 358.3 354.9 354 354.4 355.8 357.2 358.5 359.3 361.3 364.5 366 368.3 370.2 371.4 371.8 371.1 368.9 365.2 359.2 353.6 348.3 341.9 333.8 328.8 324.3 323.2 324.4 327.4 332.2 338 345.4 352.3 356.3 363.8 369.9 375.6 380.3 385.4 386.6 385.4 380.6 373.8 369.8 364.4 358.1 350 343.1 333.8 323.3 314.8 310.1 305.6 302.4 299.3 296.2 294.3 292.9 292.5 294.4 296.9 301.5 307.8 314.2 325.1 334.1 345.3 352.4 358.9 362.2 361.4 358.7 354 351 339.8 334.2 327.1 321.3 316.2 312.6 308.7 305.4 304 300.4 297.9 297.5 297.2 297.9 298.7 299.6 301.2 301.5 303 301.7 294.1 286.2 278.1 270.8 265.8 262 258.4 255 251.4 248.2 244.5 240.7 238.7 237.5 236.6 236.6 236.7 239.3 242.7 245.2 248.6 252.5 256.6 261.3 266.3 271.9 279.1 286.3 294 300.6 306.7 311 314.6 316.9 318.3 317.2 313.6 308.7 303.1 297.9 291.9 285.6 279.3 272.8 266 260.1 255.3 250.3 246.2 243.1 239 236.3 233.1 230.3 228.6 226.9 225.2 223.6 222.1 220.3 219 218.1 217 216.2 215.6 215.3 214.4 214.2 213.5 212.4 211.6 211.3 210.5 209.6 209.4 210 210.3 210.4 212 213.3 214.1 215.5 216.7 217 217.4 217.4 218.2 218.7
434.2 438.6 442.5 444.1 444.8 443 439.7 437.4 434.4 430.4 425.9 419.2 411.5 403.9 394.5 387.5 381.1 376.2 372.4 368.3 363.9 362.6 361.8 363.1 365.2 367.2 368.8 368.6 368.5 369.5 371.2 372.6 373.3 373 371.9 369.8 366.2 361.8 357.5 351 344.3 338.1 333.8 331.1 330.6 332 336.1 341 349 356.3 362.4 368.3 374.1 379.5 382.9 384.8 387.4 387.6 387.2 381.7 373.3 368.6 362.4 355.8 349.1 342.6 334.4 321.2 313.9 307.6 302.6 298.9 295.6 293.1 291.2 288.1 289.7 291.4 294.5 299.5 307 313 319 325.8 333.2 344.9 358.9 363.4 363.2 358.5 345.8 338.4 332.2 327.8 321.7 316.1 310.5 306.4 302.6 299.4 297.5 294.9 292.8 290.9 290.7 291.5 292.7 293.4 294.4 293.9 292.9 287.3 280.4 274.3 268.5 263.8 258.8 255.8 252.4 249.6 246.2 242.2 239.2 237 235.5 234.8 234.7 234.2 235.9 238.4 241.2 244.2 247.7 251.7 256 260.9 266.2 272.4 279.2 287.3 294.7 301.1 307.3 311.4 315.5 317.7 318 315.6 312.4 307.5 302.7 297.2 291.5 285.5 279.3 272.9 266.5 260.2 255.2 250.3 246.5 242.2 238.5 235.5 232.3 230 228.1 226.4 224.8 223.1 221.7 220.3 219.5 219 218.1 217.3 216.6 216.2 215.4 214.9 214.2 213.1 212.5 211.8 210.9 210.2 210.1 209 209.3 209.1 209.7 211.1 212.6 213.8 215.5 217 217.8 218.2 219 219.1
441.1 444.7 448.3 451.3 455.5 453.1 448.6 444.4 440.3 436.3 430.1 423.4 416 407.8 400.1 394.6 388.8 384.3 382.5 379.2 375.8 372.5 370 369.6 370.2 371.5 371.8 371.8 372 371.5 372.5 372.4 372.5 372.7 371.4 368.5 364.8 358.8 354.1 348.8 344.2 340.4 337.7 336.3 336.4 338.3 342.1 348.1 355.3 362.7 370.2 377.6 383.6 386.8 388.4 388.6 388.6 388 386 381.4 373.9 367.2 360.5 354.2 347.8 341.3 333.2 322.7 313.4 306.5 300.6 295.8 292.2 290.1 287.6 283.6 286.9 289.1 291.8 297.5 304.3 310.8 316 320.8 329.1 333.7 340.7 347.9 344.1 341.4 334.4 330.8 326.9 322.5 315.8 309 304.2 300.4 297.2 294.3 290.9 289.2 286.9 286.7 285.3 286 286.8 287.2 287.4 286.1 283.7 278.3 270.6 265.2 260.5 256.1 252.3 249.5 246.4 244.1 240.9 238.3 235.9 233.8 232.9 232.5 232.6 233.3 235.3 237.7 240.8 243.7 247.8 251.6 256.1 260.7 266.4 272.6 280.7 287.3 295.3 301.7 307.7 311.9 315.5 317.5 317.1 314.7 310.9 307.1 302.7 297.1 291.5 285.7 279.3 272.9 266.5 260.5 255.4 250.1 245.7 241.4 238.2 235.1 232 229.6 227.6 226.1 224.3 222.6 222 221.2 220.4 220 219.3 218.5 217.7 217.3 216.9 216.5 215.6 214.3 212.9 212.2 211.3 210.8 210.5 209.4 208.2 208.1 208.7 209.9 211.6 213.3 215 217.1 217.9 218.7 218.9 219
446.3 449.5 453.1 457.5 464 459.6 453.3 446.9 442.5 438 431 424.3 416.4 409.7 404.7 399.6 395 392.9 392.2 390.4 385.3 380.2 376.9 375.3 374.1 373.5 373.1 373.4 372.9 372.6 372.4 371.5 369.9 368.6 366.4 362.5 357.9 353.5 350.4 346.6 343.5 341.2 339.6 339.1 340.3 342.9 347.2 352.3 359.7 368.5 377.6 384.8 388.7 390.2 391 390.8 389.9 388 385.2 381.2 374.3 366.4 359.1 352.8 346.5 339.7 330.5 321.5 313.4 305.5 299.1 294.4 289.8 286.3 284.7 280.4 284.3 286 288.9 294.2 300.5 307.9 313 316.4 321.6 327 331.6 332.5 332.4 330.6 327.9 325.3 321.9 315.4 308.5 303.3 299 295.7 292.5 289.3 285.9 284.4 281.7 280 280 279.1 279 280.2 279.6 277.4 274.9 269.1 263.8 257.7 254 250.1 246.6 243.7 241.5 238.7 236.9 234.8 232.6 231.5 230.7 230.6 230.7 232.9 234.4 237.2 240.8 243.3 247.2 251.1 256.3 261.4 266.2 273.2 280.3 287.2 295.6 302.4 307.5 312 315.1 316.7 316.1 313.8 310.4 306.9 302.6 297.1 291.6 285.9 279.6 273.1 266.5 260.7 255 249.4 244.8 241 238 234.9 231.9 229.6 227.4 225.6 224.4 223.1 221.8 221.7 221.6 221.1 220.4 220 219.9 219.5 219.1 219 217.8 216.4 214.6 213.1 211.9 211.2 210.1 209.3 208.9 208.2 208.3 209 210.7 212.6 214.3 215.8 217.3 218 218.1 218.1
450.4 452.4 454.8 458.1 461.7 455.3 446.8 440.5 436.8 432.5 428 422.3 415.7 412.1 409.3 405.8 402 400 398.4 396.6 392.1 385.9 381.6 378.9 376.5 374.7 373.7 372.4 371.6 370.8 369.2 367.5 365.7 363.7 360.1 356.5 352.5 350 347.5 344.6 342.2 340.1 339.7 340.4 342.2 346.4 351.1 357.5 365 373.3 381.8 387.7 391 392.6 393.5 393.4 392 388.8 385.5 380.7 374.6 367.4 360.5 353.1 346.1 337.3 329.3 321.1 312.7 303.7 297.1 292.2 287.4 283.6 281.3 278.5 280.5 283 285.7 289.4 294.8 301.5 307.5 312.6 316.9 320.5 323.8 325.6 325.6 323.9 322.2 318.4 313 307.4 302.6 298.1 294.4 291 287.7 284.2 281.2 278.8 275.8 274.2 274.6 273.5 273.2 272.4 271.1 267.7 264.8 259.2 253.7 251.1 246.7 243.5 241 238.5 236.6 235 233.2 231.5 230.3 229.3 229.6 229.4 230.2 231.8 233.1 236.2 239 242.6 246.7 250.6 255.6 260.5 266.4 273 279.9 287.3 295.2 301.2 306.5 311.3 313.8 315.5 314.9 312.9 309.7 306.2 301.7 296.9 291.6 286.4 280.3 274 267.1 260.9 253.9 249.3 245.2 241.4 238 235 232.1 229.7 227.6 226.5 225 223.8 223.3 223.3 223.1 223.1 222.3 222.1 222.2 221.8 221.5 221.4 220.6 219 217.1 214.6 212.8 211.4 211.2 210.7 210.6 208 207.7 208.5 209.9 211.7 213.1 214.5 215.9 217.3 217.6 217.3
451.3 451 450.4 450.3 447.5 441.8 436 431.1 426.1 422.1 418.4 414.3 413.2 413.8 414.6 410.6 405.7 403.8 402.1 399.8 395.6 389.6 384.5 380.8 377.6 374.6 372.1 370.5 369 366.6 363 359.7 358.4 356 352.2 348.3 346.4 345.1 343.5 341.6 339.7 338.3 337.8 338.3 341.8 347.3 352.4 359.7 368 375.5 383.7 389.9 393.3 395 396.1 395.9 394.1 389.9 385.4 380.1 374.8 369 362.6 354 345.3 335.8 328.9 320.5 311 299.7 294.6 289.6 284.6 280.5 278.3 275.4 277.6 279.9 282.1 285.7 290.3 296.1 301.9 307.5 312 315.8 318.9 320.7 320.4 318.7 315.8 311.7 307.1 302.3 297.8 293.9 290.3 286.5 282.6 278.9 276.6 274.4 272 269.5 268.3 267.3 266.8 264.5 261.1 257.5 254 250.6 247.7 244 240.2 238 235.7 234 232.7 231.5 230.6 229.1 228.1 227.4 228.4 228.6 229.3 230.4 232.4 234.3 237.6 241.5 245.3 249.7 255.2 260.1 266.4 272.7 279.2 286.2 293.3 299.4 304.7 309.3 312.1 313.8 313.2 311.4 308.6 305.2 301.4 296.7 291.8 286.7 281 274.9 267.6 261.8 256.4 251.2 246.5 242.5 239 235.6 232.5 229.8 228.1 227.3 226.5 226 225.5 225.9 225.5 225.2 224.7 225.3 225.4 224.9 224.3 224 223.4 221.8 219.7 216.5 214.2 212.1 211 211.2 210.8 208.7 207.9 208 209 210.8 211.8 213.2 214.5 215.8 216.8 216.5
449.2 446.5 443.8 440.5 437.2 432.3 427.5 423.1 417.5 410.3 405.6 405.3 408.4 412.6 414.6 410.6 406 405.5 403.4 400.1 395.4 390.2 384.8 379.7 376 372.5 369.6 366.7 364.3 359.8 356.7 352.3 350.5 347.2 344.1 340.7 340 339.1 338.3 337.1 334.8 332.4 329.4 330.8 337.2 344.4 351 358.6 367.6 375.9 384.1 391.1 394.9 396.9 398.1 397.7 396.3 391.3 385.8 381 375.9 370.5 363.4 354.3 344.1 334.1 326.2 320.9 302.9 294.9 290.2 284.5 280.4 277 275.2 273.4 274.8 276.4 278.5 282 285.8 290.8 296.3 301.8 307.1 310.7 314.1 315.1 314.5 311.8 310.2 306.6 302.5 298.1 294.1 289.7 285.4 281.3 277.6 274.3 272.7 269.5 266.2 263.6 262.6 261.3 259.5 257.2 254.7 251.8 248.4 245 241.3 238.6 235.2 232.9 231.2 230.5 229.2 228.5 227.6 226.5 226 225.9 227.3 227.4 227.7 229.8 231.3 233.1 236.4 241 244.3 248.4 253.2 259.7 265.6 272.2 277.9 284.8 290.5 296.6 302.2 306.6 309.5 311 310.8 309.3 306.5 304 300.5 296.6 291.6 286.8 279.8 275.2 269.9 264.1 259 254.2 248.4 244.7 240.2 236.8 233.5 230.8 229.7 229 229 228.6 228.1 227.4 227.4 227.3 227 227 227.4 227.3 227.1 226.9 226.3 224.3 221.6 218.5 215.7 213.6 211.5 210.7 210.7 208.6 207.1 207.3 208.4 209.8 210.9 212 213.2 215.1 215.8 215.3
446.3 441.5 436.5 432.4 428.6 424.5 419.8 414.3 407 399.9 394.3 394.6 399.2 404.9 408.6 405.4 403.1 402.4 400.9 397.6 392.9 387.3 381.5 376.6 372 367.3 364 359.3 355.6 350.9 347.1 343.9 341.1 337.9 335 332.9 332.5 331.9 329.9 327.6 325.1 320.7 320 322.7 328.6 336.5 344.7 354.1 364.1 374.7 382.8 390.4 395.4 397.6 399.6 400.1 397.4 390.6 385.4 381 376.1 369.9 362.5 352.8 341.5 330.8 319.3 307.8 296.7 290 284.7 279.7 276.3 273.6 271.8 269.8 271.2 272.8 274.6 277.6 280.8 284.7 289.5 293.5 298.3 302.6 305.1 306.5 306.1 305.9 304.5 302.5 299.1 295.2 290.4 285.4 281.2 277.4 273.6 270.4 267.8 264.2 261.6 258.7 257 256 253.8 251.1 249.2 245.8 242.5 239.5 236.3 233.4 231.2 229.3 227.5 226.8 226.1 225.4 225.1 224.8 223.9 225.4 226.2 226.9 227.1 228.4 230.2 233 235.5 238.9 242.6 246.6 251.1 256.9 262.8 269.7 275.9 282.4 288.5 294.5 299.9 304.3 307 308.3 308.6 307.3 305.2 303.1 300.4 296.9 292.7 287.7 282.9 277.2 271.6 265.7 261.7 255.8 250.2 246.2 242.2 238.5 235.1 232.3 231.6 231.7 231.4 231.3 231 230.1 229.5 228.9 228.3 227.3 228.5 228.6 228.3 227.8 227.3 226.2 223.4 220.1 216.3 213.8 211.4 210.6 210.8 208.4 207.5 207.1 208 208.9 210 211.1 212.9 214.6 214.9 214.5
441.8 435.9 429.8 423.8 419.9 414.5 409.2 402.3 394.6 385.7 380.7 382.7 385.4 389.6 393.5 394.6 394.8 395 393.6 391.2 386.8 380.8 375.5 370.2 364.6 359.5 355.3 350.4 346.4 343 339.8 336.3 332.7 329.6 326.3 324.9 322.6 319.1 315.9 313.3 311.2 310.5 312.4 317.1 323.1 330.5 338.8 349.6 360.6 372.1 380.8 386.9 393.3 398.2 400.2 400.8 397.6 390.3 384.7 380 375.2 369.2 360.4 350.2 337.8 325.4 312.6 299.3 291 284.8 279.7 275.4 272.6 270.4 268.7 267.1 267.9 269.2 270.8 273.4 276.5 279.7 282.8 286.2 289.5 292.5 295.7 298.5 300.5 301.7 301 299.7 296.1 292.3 286.9 281.6 277.4 273.4 269.5 266.4 263.5 260.4 257.4 254.6 252 250.7 248.3 246.5 242.7 239.9 237.8 234.6 231.7 229.4 227.3 225.6 224.5 224 223.7 223.5 223.3 223 223.5 224.6 225.2 226.1 226.7 228.1 230 231.9 234.9 238.8 240.5 244.8 249.1 254.5 260 266.6 271.9 278.8 285.4 291.4 297.5 301.9 304.7 306.2 306.9 306.1 305 303 300.5 297.2 293.5 288.8 283.5 277.5 271.8 267.4 262.7 257.5 252.8 248.7 244.8 240.6 236.9 234.3 234.7 234.4 234.3 233.9 233.2 232.9 232.2 231.5 230.5 229.8 229.4 229.4 229 228.4 227.6 226.4 223.8 220.7 217.2 213.9 211.1 210.5 208.9 207.5 207.1 206.6 207.4 208.3 209.6 210.9 212.7 214.2 214.7 214.2
434.1 426.7 417 409.4 405 400.3 394.9 388.1 379.5 368.5 361.5 367 368.4 371.8 375.6 379.4 382.1 384.1 383.6 381.6 377.8 371.9 365.7 359.9 354.2 350.3 345.9 342 337.5 334.5 332.3 329.2 323.9 317.9 314.1 311.2 306.8 304.8 302.8 302 303 300.7 308.1 312.2 319.8 326.1 335.5 346.1 357.3 368.7 378.3 385 390.9 397.6 399.8 400 396.2 389 383.8 379 374.2 367.1 356.5 344.3 331.7 317.8 305 293.8 286.5 280.4 275.5 271.5 269.1 267.4 265.4 264 264.3 265.4 266.9 269 272.6 275.5 278.3 281.8 285.3 288.2 291.2 294.7 297.4 298.7 298.5 297.1 294.3 290.6 284.9 279 273.6 269.5 265.6 262.3 258.4 255.8 253.5 250.1 246.4 245.9 243.4 241.1 238.1 234.8 232.7 230.3 227.8 226 224.5 223.1 222.1 221.7 221.7 221.6 222.1 221.8 222.9 223.3 224.3 225.8 226.4 227.7 229.4 231.4 233.8 236.5 239.5 243.1 247.4 252.4 257.5 262.5 268 273.3 279.5 285.9 293.6 298.7 302.1 304 304.8 304.6 304.1 302.5 300 297.2 293.9 289.2 283.9 277.9 272.5 268 264.1 259.6 254.9 251.3 247.5 242.9 238 237.5 237.8 237.7 237.6 237.2 237 235.8 234.8 233.7 232.4 231.5 230.1 229.4 228.9 227.5 226.2 224.5 221.9 218.6 215.6 212.7 210.9 208.8 207.3 206.8 206.3 206.7 206.7 207.8 209.1 210.8 212.5 213.8 214 213.7
423.1 413.6 399.3 388.4 387 384.2 379 372 363.9 353.9 349.1 352.3 353.5 354.8 357.4 361.6 365.7 369 370.1 368.3 364.5 359.5 352.8 346.7 341.6 338.3 333.9 329.5 326.3 324.2 321.5 316.8 312.3 307.4 304.1 301.8 299.5 297.7 296.3 296.1 296.7 299.2 303 307.1 313.6 320.2 329.4 340.4 352.8 364.3 374.7 381.8 389.7 396.5 398.9 398.4 394.9 388.4 383.1 378 371.4 363.1 351.4 338.9 326.1 312.4 299.1 289.7 282.7 276.3 271.6 268 265.7 264 262 261 261.5 262.2 263.6 266.1 268.9 271.5 274.3 277.6 281.3 284.5 288 291.7 294.6 296 296 294.8 292.7 288.7 283.5 277.6 271.2 266.1 262 257.7 254.6 251.5 249.6 246.1 243.4 240 239.2 237.5 233.9 230.8 228.2 226.7 224.9 223.3 222 220.9 220.4 219.9 220.5 220.5 221.3 221.9 222.3 223.1 224.6 225.1 226.4 227.5 228.9 230.8 232.9 235.6 239.2 242.2 246.5 250.7 255.1 259.9 264.8 270 274.4 280.3 287 294.1 299 301.5 303.1 303.8 303.9 302.5 300.3 297.6 294 289.4 284 278.4 273.1 268.5 264.5 261.3 256.8 252.9 249 244.2 240.6 241.5 242.2 241.4 240.6 239.8 238.5 236.9 235.7 234 232.1 230.6 229 227.9 227 225.7 223.9 221.7 219.3 216.4 213.7 211 209.6 207.1 206.9 206.7 206.2 206.4 206.8 207.6 209.5 211.1 212.4 213.1 213.1 212.8
409.2 397.1 381.1 369.9 368.5 367 362.5 354.9 348.6 342.2 337.5 339.5 340.4 340.5 342.2 345.6 349.5 351.5 353.4 352.5 349.2 344.1 336.7 331.8 328.2 324.8 323 321 318.4 315.8 312.3 308.6 304.8 300.7 297.5 295.5 293.8 291.9 291.2 290.8 290.8 294.9 298.2 302 308.1 314 323.4 335 347.7 360.1 370.6 377.7 387 394.7 397.1 396.5 393.5 387.6 381.8 375.8 368.5 359.2 347.8 335.4 323.6 309.2 295.5 285.9 278.5 272.6 267.9 264.7 262.5 260.6 258.6 258.1 258.1 258.8 260.6 262.9 265.5 268.2 270.8 274.7 278.4 282.4 285.9 290 292.9 294.3 294.4 292.7 291.1 286.9 282.1 276.2 269 262.9 257.7 254.3 251.2 248.1 244.6 242.2 239.3 235.9 234.3 232.9 230.2 227.6 225.5 223.5 222.2 221 219.8 219.4 219 218.6 218.6 219.2 220.3 221.4 221.7 222.7 223.7 224.7 226.1 227.5 228.7 230.2 232.6 235 238.6 241.3 245.1 249.1 253.1 257.5 261.9 266.7 270.8 276.9 283.9 291.5 296.7 300 302 302.8 303.5 302.7 300.4 297.4 293.8 288.7 283 277.9 272.6 268.6 265.5 261.5 257.5 253.8 249.9 245.9 245.6 246.2 245.1 243.8 242.3 240.7 239.4 237.5 235.2 233.3 231.1 229.2 226.9 225.4 223.8 222.6 221.1 218.9 216.6 214.3 211.6 210.3 208.2 206.4 206.3 205.8 206.1 206.5 206.9 207.9 209.3 210.8 211.8 212.3 211.8 211.1
388.6 378.1 364.2 353.9 350.5 349.7 345.4 339.8 334 329.7 323 327.5 328.6 328.3 330.8 333.3 336.1 338.7 339.2 339.3 336.6 332.9 329.4 325 321.3 318.6 315.9 314.5 312.6 310.3 306.8 303.2 299.2 295.8 293.3 290.4 288.5 286.9 286.4 285.9 286.2 290 293.3 298 303.8 310.6 318.9 329.6 342.5 355.6 366.7 374.1 383.2 390.8 393.9 394 391 385.5 379.7 373.2 366.1 356.1 345.3 333.6 321.1 308 295.1 283.3 274.5 268.2 264.8 261.3 259.3 257.7 255.8 255.6 255.7 255.9 258 259.7 262.2 264.8 267.6 271.6 276.1 280.7 284.9 288.9 292.3 292.7 292.8 291.3 288.9 285.4 280.1 274.4 266.1 259.6 254.7 250.1 246.2 244.3 240.3 238.7 235.8 232.9 229 229.1 226.8 224.5 222.4 220.8 219.7 218.8 218.4 218 218.4 217.4 217.9 219.1 220 221 221.7 222.5 223.3 224.3 225.6 227.1 228.6 230.7 232.6 234.8 237.3 240.1 244 247.8 251.7 255.4 259.5 264.4 268.8 274 280.5 288.6 295 298 300.7 302 302.5 301.6 299.3 296.4 292.7 288.1 282.7 277.6 273.2 269.1 265.2 261.1 257.6 254.2 250.5 247.9 248.4 248.4 247.3 245.2 243.6 241.9 239.7 237.7 235.3 232.9 230.4 227.2 224.5 222.2 220.7 219.8 218.2 216.2 214 211.9 210.4 208.5 206.6 206.3 206.3 205 206.3 206.6 207.3 208.4 209.5 210.8 211.4 211.6 211.3 209.5
366 359.6 349.9 338.9 335.8 333.5 329.5 325.5 319.8 316.9 311 315.1 314.8 316.5 318.6 322.1 325.1 328 329.7 330 328.6 325.8 322.8 319.4 316.1 314 311.5 308.6 306.5 304.1 301.5 298.2 294.7 291.2 288 285.3 283.3 281.9 281.2 280.8 281.9 285.5 288.9 294.2 300.2 307.4 314.7 325.1 337.6 350.1 361.1 370.1 379 386 389.9 390.4 388 383.5 378.3 372.5 366 357.4 346.7 334.4 321.6 309.2 295.6 282 269.9 264.6 261.1 257.9 255.8 254.4 252.6 252.9 252.8 253.4 254.8 256.7 258.9 262.2 266.2 270.4 275.4 280.4 284.8 288.6 290.9 291 291 289.3 286.5 283.2 277.8 270.2 263.1 256.1 250.9 246.6 242.7 240.1 237.2 234.2 231.8 229.8 226.7 225 223.4 221.6 220.2 218.8 218 217.4 217.1 217.3 216.5 217.1 218.2 219.4 220.2 221.1 221.8 222.4 224 225 226.3 227.4 228.7 230.6 233 235.2 237.2 239 242.8 246.6 250.7 254.2 257.7 261.8 265.9 271 278.3 286.9 293.3 296.7 299.2 301 301 300 297.8 295.3 291.5 287.3 282.2 277.7 273.2 268.7 265.3 261.2 258 254.7 252.9 251.2 250.5 249.4 248.6 246.6 244.5 242.8 240.3 238.4 236 233.6 230.9 227.2 224.3 220.8 218.7 216.8 215 213.9 212.2 209.9 208.3 206.5 206.6 205.4 204.8 206.4 206.7 207.4 208.4 209.6 210.7 211.8 212 211.7 210.6 208.4
339.7 338.6 333.4 325.3 322.1 318.3 314.8 310.2 307.2 304.8 304.5 303.1 303.5 304.4 307.3 310 312.4 316 319 320.2 319.8 318.2 315 312 309.2 307 304.2 302.3 300.5 298.4 295.8 292.5 288.9 285.6 282.7 280 278.5 277.2 276.7 275.2 278.9 282 286 291.3 296.8 303.9 310.1 320.1 332.1 344.3 356.2 364.6 374.5 381.9 386.1 386.9 385.4 381.7 377.5 373.2 367.8 360.2 347.9 335 322 308.9 294.1 278.8 266.3 260.7 257.6 254.7 252.5 251.2 250.4 249.2 250 250.8 252 254.3 256.6 260.4 264.4 269.3 274.6 280 284.4 287.4 289.6 289.6 289.5 287.1 284.2 279.6 273.5 266.3 260 252.9 247.4 242.4 238.9 236.4 233.5 231.2 228.6 226.5 224.1 222.7 221.4 220 218.6 217.5 216.7 216.2 216.5 216.8 215.6 216.4 216.5 219.4 220.2 221.1 222.6 223.3 225.1 226.7 227.8 229 229.5 231 233 235.3 237.4 240.3 242.5 245 248.9 252.4 255.6 259.9 264.3 269.4 276.5 285.8 292.1 296 299.2 301.1 300.8 299.5 297.2 294.2 290.3 286.1 281.9 277.5 273.7 269.3 265.3 261.5 258.6 256.5 254.4 252.5 251 250.2 249 246.7 245.8 243.4 241.3 239.3 236.8 233.8 231.6 227.8 224.2 220.5 218.1 215.1 212.9 211.5 209.8 207.9 206.3 205.4 204.8 204.3 205.9 207 208.1 208.4 209.7 211 212.3 213 213.1 212.9 211.7 209.6
326.3 318.9 316.9 311.8 309.8 306.5 302.2 299.2 297.9 295.7 296.6 293.3 295.1 294.8 296.1 297.9 299.4 302.5 306.3 307.5 307.5 307.2 305.5 303.6 301.6 298.1 296.6 295.2 294.7 293.8 291.7 289.3 284.4 279.8 277.2 274.8 273.8 273.4 272.8 271.8 275.8 279.1 282.8 287.8 293.4 299.6 306.3 315.6 326.4 337.4 350.5 360.6 371.2 377.9 382.7 384.3 383.6 381.4 377.4 373.2 368.2 360 347.2 333.6 319 304.2 289.1 273.6 261.3 255.6 253.4 251.1 249.8 248.4 247.2 246.2 247 248 249.4 252.1 255.2 258.7 263.1 268.8 274.5 279.4 283.3 286.4 288.5 288.5 288 285.5 282 276.1 269.3 262.2 255.8 249.1 244.1 239.3 235.1 231.9 229.5 227.3 225.3 223.8 222.1 221 219.7 218.4 217.1 216.3 215.8 215.5 215.5 214.9 215.6 216.9 217.6 219.2 220.3 221.4 223.2 224.1 225.1 226.9 228.3 229.6 231.2 232.6 234.5 236.1 238 240.7 243.7 245.6 248.4 251.5 254.4 259.2 262.9 268.5 276.2 285.9 293.2 297.8 300.9 301.9 302.1 300.8 297.8 294.5 290.5 286.4 282.1 277.8 273.7 269.3 265.9 262.7 260 257.8 255.3 253 250.9 249.9 248.8 246.6 245.4 243.7 241.6 239.5 238.1 235.4 232.6 228.1 224.7 220.6 217.3 214.5 211.8 210 207.9 206.3 205.4 204.7 204.1 205 206 207.5 209.1 210.6 211.8 213.1 214.2 214.7 214.1 214.2 213.1 211.3
319.5 306.9 303.8 300.7 300.7 298.7 295.4 293 291.4 289.3 290.1 289.4 287.9 287.5 287.8 288.6 289.1 290.5 292.5 295 296 296.1 295.7 294.8 292.6 291 290.2 289.9 289.6 288.6 286.9 284.7 280.4 275.2 272.6 269.9 269.5 269.1 269 269 272.6 276.6 280.4 284.4 289.3 296.1 303.7 312.8 323.4 333.5 346 357.3 369.4 376.1 380.5 381.9 382.1 379.6 376.6 372.7 367.4 356.4 343.2 327.6 312.4 297.7 282.8 268.4 258.3 251.4 249.6 248.2 246.9 245.6 244.9 244.3 244.3 245.6 247.6 250.3 253.5 257.7 262 267.3 273 278.3 282 285 287.3 287.6 286.4 283.7 279.6 272.2 264 256.6 250.5 246.2 241.1 236.3 232.4 229.2 225.3 223.7 222.5 220.8 220 218.8 217.7 216.7 215.9 215.6 215.1 214.4 214.5 215.3 215.9 216.7 218.6 221 222.7 223.2 224.8 225.1 225.9 227.5 229.9 230.7 232.2 233.4 235.8 237.2 238.7 241.9 244.7 248 249.8 252.8 255.7 258.5 262.4 268.2 274.9 285.9 294 300.1 303.4 305 305.2 303.1 299.3 295.3 290.9 286.7 283.3 279.1 275.2 271.9 268.1 264.3 261.8 259.1 255.8 252.5 249.2 247.7 245 244.1 243.7 242.3 240.7 239.1 237.4 235.1 232.3 228.5 224.5 220.9 217 213.5 210.6 208.7 207.3 205.7 204.5 203.6 203.5 205.2 207 208.8 210.5 212.5 214 215.2 215.9 216.5 216.5 216.2 214.8 213.2
318.3 306.2 298.7 295.7 294 292.2 289.8 285.9 283.6 283 284.6 284.3 284 282.1 282.2 282.2 281.7 281.9 282.7 284.5 286 287.9 288.2 287.5 286.3 285 284.6 284.3 284 282.9 281.6 279.6 276.2 271.4 268.4 266.3 266.1 266 265.8 266.8 270.4 274 278 282 287 293.2 301.2 310.3 320.8 331.6 345 358.2 369.5 376.2 379.6 380.3 380.3 377.8 375.3 371.5 362.4 350.4 337.7 321.1 305.5 289.5 275.5 264 256 248.7 246.3 244.6 243.2 242.5 242 241.7 241.2 243.1 245.2 247.8 251.4 256.3 260.6 266 271.9 277.3 280.5 283.3 285.8 286.7 284.9 280.9 273.7 264 257.3 251.3 246.6 242.2 237.6 234.2 229.5 225.9 222.9 220.9 219.7 218.7 218 216.6 215.5 215.1 214.7 214.5 214.2 213.7 214.7 215.4 216.4 218.5 221.7 223.5 223.9 225.1 226.3 227.3 227.6 228.8 230.3 231.9 232.7 234.8 236.9 238.7 240.4 243.5 245.5 248.1 251.1 254.1 257.3 260.4 264.5 269.8 276.5 286 294.9 302.4 306.6 308.3 308.3 306.5 302.4 298 292.9 288.8 285 281.1 277 274 270.6 266.8 263.7 260.2 256.1 252.4 249.9 246.7 243.3 241.2 239.9 239.1 238.1 237.3 235.8 234.3 231.5 227.4 223.9 220.5 216.9 213.4 210.3 208 207 205.2 204.4 203.5 204.4 206.4 208.4 210.2 212.3 214.5 216.3 217.2 218.3 218.6 218.2 217.5 216.7 215.8
321.6 306.3 297.9 293.4 290.2 287.6 285.2 283.7 282.9 278.5 279.3 280 279.9 277.9 278 277 276.1 275.7 275.5 276.7 278.4 279.6 280.1 280.1 279.8 279.2 278.9 278.6 278.3 277.1 276.2 274.7 270.1 267.3 264.1 262 263 263 263 264.1 267.9 271.4 275.2 279.1 284.6 290.8 299.8 311.3 324.4 337.4 350.2 361.7 370.3 375.6 378.5 379.4 378 375.7 373 368.4 356.7 345.4 331.4 315.2 295.8 280.4 269.1 259.3 252 247.4 243.4 241.6 240.1 239.5 239.3 239.1 239.2 240.7 242.9 245.5 250.2 254.7 259.7 264.8 270.7 275.7 278.4 280.9 282.2 282.1 278 271.9 262.5 255.6 251.3 246.9 242.5 238.2 233.8 230.3 226.9 223.4 220.6 218.3 217.2 215.9 215.4 214.6 214.3 214 213.6 213.2 212.5 214.3 215.2 216.3 218.7 220.2 223 225.2 226 226.8 227.5 229 229.6 230.9 231.8 233.1 235.1 236.8 238.4 240.8 241.8 245.5 247.1 250.3 253 256.4 259.6 263.3 266.2 271.7 279.6 288.8 297.1 305.2 310.4 312.3 312.4 311.2 306.3 301.1 296.2 292.2 287.9 284 280 276.5 273.4 269.6 266 261.8 258.3 254.5 253.3 247 244.1 241.5 238.5 236.4 235.5 235.3 233.1 231.5 228.9 225.9 223.5 220.1 216.8 213.7 210.2 207.7 206.7 204.7 203.9 203.4 203.9 207.1 209.5 212.1 214.7 216.7 218.6 220 221.2 221.5 221.5 220.9 220.4 219.7
323.4 307.3 296 292.4 289.6 286.9 287.3 288 287.2 282.6 275.5 275.2 275.4 274.1 273.4 272.3 271.1 270.2 269 268.8 269.4 271.3 272.7 273.5 273.5 273.1 273.2 273 272.8 272.2 271.3 268.9 266.2 263.2 261.5 258.7 259.5 259.8 259.8 261.9 265 268 271.9 276.8 283.2 290.1 302.2 315.7 329.5 342.7 354 363.9 370.3 374.4 376.6 376.8 375.3 373 369.9 363.6 353.4 339.3 324.2 305.6 287.1 272.9 263.2 255.5 249.4 245.2 241.7 239.1 237.1 237 237.1 236.3 236.7 238.4 240.4 244.4 249.1 253.8 258.7 263.8 268.6 273.2 275.9 277.3 275.9 272.6 267.6 259.7 254.7 250.2 246.3 242.6 238.6 234.6 230.7 227.5 223.9 220.2 217.9 215.7 214.3 214 213.8 213.5 213.2 213.1 212.7 212.8 212.7 214.1 216.3 217.9 219.4 221 223.7 226.2 227.2 227.9 229.1 231.4 232.1 232.9 234.2 234.6 236.3 238.4 240.9 242.5 244.3 247.2 250.4 252.7 255.7 259.2 263.3 266.9 270.5 275.3 284 293.4 301.8 309 314.3 317.5 316.4 315.2 311 304.5 299.7 295.5 290.7 286.9 283.2 280.1 276.9 273.3 269.2 265.1 260.7 256.6 254.5 249.7 245.5 241.9 238.7 235.7 233.3 231.3 229.8 228.4 226.6 224.8 222.4 219.3 215.8 212.5 209.6 207.4 206.2 204.3 203.1 202.8 203.2 207.8 211.2 214.8 217.3 219.7 221.4 222.9 224.1 224.7 224.7 224.8 224.9 225.5
319.4 303.4 295.7 291.7 289.6 288.6 289.5 292.8 290.9 284.7 278.2 273.2 271.1 269.7 268.9 267.4 266.4 265.4 264 263 262.9 264.3 265.4 266.2 267.1 267.3 267.9 267.7 267.6 267.6 266.3 264.5 262.3 260.2 258.3 255.4 256.1 257.1 256.9 259.4 262.1 265.2 269.1 274.3 281.7 291.1 303.3 317.7 331.9 345.9 356.9 363.7 369.2 371.8 373.7 373.3 372.3 369.8 366.1 359.2 347.4 331.7 314.9 297 279.4 266.9 259.1 252.2 247.1 242.7 239.6 236.8 234.5 234.6 234.4 232.5 234.2 236.1 238.7 243.3 247.7 252.2 257 261.8 266.4 270.2 272.7 272.8 270.2 264.7 258.8 253.5 249.6 245.1 241.4 238.1 234.1 230.7 228.4 224.2 220.5 217.2 214.9 213.4 211.9 212.2 212.2 212.2 212 211.8 211.8 210.5 213.3 214.9 217 219 220.6 221.9 224.4 226.6 227.8 229.1 230.9 232.4 236.4 235.5 236.3 237.5 239.5 241.9 243.2 245.7 247.6 250.4 252.9 255.9 259.6 263.3 267.9 272.5 276.8 281.2 288.7 299.3 306.8 312.9 318.7 321.5 320.6 317.7 315.1 308.4 302.7 298 293.6 290 286.3 283.1 279.8 276.5 272.8 268.8 264.3 260.3 256.1 252.1 248 244.2 240.7 236.5 232.2 228.5 226.4 225.1 224.6 222.8 221 218.2 215.2 212 210.3 207.6 205.4 203.5 202.5 200.9 202.4 208.8 213.5 217.1 219.8 222.3 224.2 226.2 227.8 228.9 229.2 229.6 230.4 231.6
316.1 303.1 297.3 294.8 293.2 290.2 292.5 294.4 291.8 284.5 278.6 273.1 268 266.5 265.3 263.5 262.3 260.6 258.7 258.9 259 258.7 259.6 260.5 260.9 261.8 262.4 262.4 262.8 262.9 261.6 260.4 257.6 255.9 254.8 253 253.5 254.2 254.1 257.1 259.5 262.6 266.8 272.4 281.2 291 305.2 319.4 333.9 348.3 357.8 363.7 366.7 368.7 369.5 368.8 367.1 364.2 359.4 351.2 336.8 322.4 307.3 286.8 271.6 262.4 255.6 249.9 244.5 240.4 237.6 234.7 232.7 231.9 232 230.8 231.9 234 237 241.2 245.7 250.3 254.7 259.2 263.5 266.4 267.3 266.4 263.6 258.5 252.9 249.2 244.9 240.5 236.7 233.5 230 227.4 224.7 220.9 217.1 214.2 212.1 210.5 210 210.5 210.6 210.8 210.7 210.5 209.1 211.8 214 215.5 217.5 219.7 221.6 222.7 224.8 227 228.3 231.1 233 234.9 238.5 238.2 239.7 240.8 242 243.7 247 248.8 251 253.9 256.9 260.7 264.4 269.6 275.6 280.6 286.2 293.1 299.7 307.4 313.6 319.2 323.2 324.7 323.6 320.3 316.1 310.3 305.4 300.6 295.9 291.7 288.5 285.3 282.5 279.9 276.3 272.2 270.2 265.3 261 254.4 250.2 246.9 242.1 237.4 232.8 228.8 226.4 223.3 221.4 220.3 219.5 217.6 214.8 212.1 209.6 207.1 204.9 202.9 201.1 199.6 202.5 210.5 215.1 218.7 222.5 226.9 228.2 230.5 232.7 233.9 235.3 236 237.6 240
315.5 308.6 310.3 307.9 301.9 297.3 297 296.2 291.4 285.9 281.2 278.7 277 275.6 271.3 268.9 266.4 263.6 260.1 256.3 254.3 254.2 254.8 255.4 255.9 257.1 257.4 257.4 257.2 257.2 256.5 255.5 253.8 252.4 252.1 250.1 250.9 251.7 252.1 254.8 257 260 264.6 271.1 279.6 290.2 304.9 320.1 334.6 348 358.5 362.4 364.3 365 364.7 363.5 361.2 355.4 349.3 338 326.1 310.9 293.8 278.2 266.8 259.3 253 246.9 242 238.4 235.2 232.6 230.6 229.7 229.6 228.4 229 230.7 234.3 238.9 242.9 247 251.6 255.5 259 260.7 260.6 257.9 254.4 251.4 248.8 244.1 240 235.6 232.1 229.2 226.3 223.8 221.3 217.9 213.9 211.7 208.9 208.1 208.1 208.8 209.2 209.2 209.3 208.2 210.7 212.8 214.4 216.2 218.4 220 221.8 223.6 225.5 227.5 229.7 232 234.2 237.1 238.4 240.1 241.5 243.9 245.7 247.8 250.6 252.6 256 260.5 264.4 267.2 272.3 278.3 286 293 298.4 304.1 309.9 315.4 320.5 325.7 327.2 327.2 325.7 322.2 317.9 311.2 306.5 302 297.5 294.3 291 287.9 285.1 282.3 278.5 271.3 269.9 267.1 259.4 257.4 254 248.8 245.2 240.6 235.3 230.9 226.8 224 220.4 217.5 216.9 215.9 214.2 211.1 208.8 206.4 204.6 202.2 199.5 199 205.2 212.2 216.9 221.4 225 229.2 232.3 234.8 237.3 239.1 240.8 242.7 244.2 246.5
316.9 320.5 320.2 314.6 309.2 304.4 300.7 297.9 293.5 289.5 285.8 282.7 280.9 279.1 276.1 272.5 268.8 265 260.8 257.4 253.4 249.9 250.9 251.5 251.9 252.8 252.8 252.8 253.1 252.8 253 251.7 249.9 248.5 248.7 247.2 248.1 248.8 250.5 252.2 254.5 258.3 263.4 270.5 278.4 289.2 303.9 319.6 334.4 345.8 357.7 361.1 361.3 361 358.6 355.2 350.2 343.8 334.9 325.9 313.1 297 283.3 272.5 263 255.7 249.6 243.9 239.6 236.2 232.9 230.6 228.5 227.1 226.8 225.5 226.4 227.8 231.8 235.9 239.8 243.8 247.3 250.6 253.9 254.3 253.3 250.7 247.5 246.5 242.8 238.1 233.9 230.7 228 225.1 222.9 220.4 217.7 214.6 211.3 208.2 205.7 205.8 206.6 207.4 207.8 208.1 206.8 208.7 211.7 213.4 215.1 216.8 218.8 220.6 221.6 223.4 225.6 228.4 231.1 233.2 235.7 238.4 241.1 243.3 245.6 247.7 251 251.9 254.1 257.6 262.4 267.5 272.5 277.7 282.8 291.1 297.7 303.9 308.6 315.3 319.6 324.8 329.3 330.7 330.6 329.2 326.8 323.6 319.1 312.4 306.4 302.4 299.3 295.8 292.5 288.7 285.7 283.1 280.3 277.5 273.4 268.2 263.8 259.5 256.6 251.2 247.7 243.4 238.5 233.1 228.2 224.4 220.6 218.1 214.9 212.4 210.8 208.2 207 205.5 204.2 201.9 198.4 197.2 207.2 214.2 219.1 223.9 227.4 231.5 235.1 238.7 241.6 244 246.7 249.2 250.9 251.7
324.7 327.1 324.5 318.9 313.1 308.6 304.4 300 297.1 293.7 290.1 287.1 285.2 282.7 279.5 275.5 270.9 266.4 261.6 257.9 254.3 251 247.1 248 248.7 249.1 249.3 249.5 249.5 249.3 249.1 247.6 246 245 245 245.1 245.3 246.5 248.5 250.1 252.7 257.4 262.6 269.7 276.9 287.6 301.3 317.9 329.7 342.4 355.2 359.8 358.5 357.3 353.5 348.8 342.2 335.7 327.1 315.7 299.3 285 276.2 267.8 259.7 252.8 247 241.7 237.4 233.9 230.9 228.5 226.5 224.6 224.8 223.2 223.6 225.1 228.7 232.5 236.3 240 243.3 245.6 246.8 247 246.5 242.8 241.1 237.7 233.7 230.5 228.8 226.4 223.8 221.5 219.4 216.9 214.3 210.8 208.4 204.9 203.9 205 205.4 206.2 206.6 205.4 208.5 210.2 212.2 214 215.7 217.5 219.4 221.5 223.4 225.3 227.2 229.4 232.3 235.1 237.6 240.3 243.2 246.4 249.3 252.7 254.8 256.6 259.5 263 270.3 276.6 283.6 290.8 298.7 305.1 310.3 315.1 319.1 324 328.5 333.1 334.8 334.8 332.6 330.4 326.9 323.6 318.4 312.1 306.2 302.8 299.6 296.4 292.4 288.1 285.5 283.2 280.8 278.5 274.1 269.7 265.1 261.3 258.1 254 249.1 245.2 240.8 235.3 229.9 225.5 220.5 217.5 215 212.6 210.3 207.6 204.7 202.5 201.4 199.8 197.1 195.6 209.1 217.1 222.4 226.4 229.9 233.6 237.9 241.3 244.4 247.4 250.4 253.6 255.3 256.6
