ncols 200
nrows 82
xllcorner 270000
yllcorner 783400
cellsize 50
647 662.6 670.7 676.9 681.8 686.8 687 688 687.9 689.6 690.2 691.9 696.3 704.7 714.1 725.3 740.6 753.8 768.4 782.7 795 810.4 823.5 837.1 847.2 855.8 860.8 865.2 870.4 874.3 879.1 883.9 884.6 882.5 881 876.5 863.9 840.2 813.2 785.2 757.7 734.8 710.2 684.3 663.8 649 634.9 623.4 613.4 603.3 594.4 589.6 588.6 593.6 598.9 607.7 625.4 639.6 655.5 669.6 680.3 663.3 685.5 683.4 678.4 676.4 675.1 671.1 667.2 668.7 669.3 668.6 669.4 669.3 669 666.3 664.7 663.9 669.2 672.2 671.9 672.4 674.7 675 675.7 673.7 671.9 668.7 666.9 663.7 660.5 659.2 656.2 653.4 648.1 643.4 639.9 634.7 628.2 622.2 618.1 613.2 610 606.5 600.1 591.8 586.5 582.3 574.2 567 558.2 549.3 538.5 525 509.9 491.5 475.1 447.7 425.5 427.2 430.2 430.8 431.3 431.6 431.4 431.5 432.2 437.8 453.8 480.7 494.7 507.9 530.8 556.3 577.9 597.3 610.8 619.3 620.9 617.7 612.4 606.6 601.5 596.7 589.5 585.1 579 571.8 563 564.9 564.1 565.3 568.3 569.7 571.4 573.8 570.4 575.2 577.4 580.5 583.5 587.6 592.3 597 601.8 605.2 605.4 606.5 608.7 612.8 612.4 609.1 606 603.6 603.8 602.1 600.1 600.2 606.4 610.1 610.1 609.5 609.3 609.9 609.5 610.8 611 608.7 605.3 601.7 598.2 593.4 589.6 584.1 576.2 571.6 561.2 558 552.2 544.1
648.1 658.8 666.7 670.3 672.4 674.7 675.3 675.9 677 678.1 677.9 679 682.5 691.6 701.8 713 728.5 742.5 757.2 772.3 783.9 798.8 811.8 823.7 832 838.8 845.4 849.8 855.1 860.9 867.1 871.7 870.9 868.9 864.2 856.8 844.2 821.3 790.6 766.4 739.8 716.9 692.3 672.3 653.3 637.7 625.7 617.3 609.1 599.7 592 591 596.4 601.4 611.6 626.5 646.3 662.9 678.4 687.9 681 693.8 693.8 691.6 686.8 683.7 680.1 677.5 677.9 677.4 678 678.4 679.1 679.6 678.9 676.3 677.7 681.7 683.1 683.7 684.1 685.8 688.1 689.6 690.2 689.7 686.1 682.7 681 680.6 677.4 671.6 667.3 664.2 658.8 652.3 646 642.1 637 631.2 623.7 618.3 614.5 611.6 605.1 596.3 590.3 584.4 576.9 565.4 555.5 545 535.2 523.8 506.3 488.4 465 440.2 425.5 427.5 431.5 430.9 431.7 432.4 432.4 431.9 431.4 432.9 453.6 481.9 492.7 513.9 539.6 563.5 587 608 626.2 632.1 629.3 624.2 618.8 613.4 608.3 601.4 595.5 591.3 584.2 575.6 568.1 571.7 571.7 571.1 574.5 575.7 578.4 581.5 578.7 584.7 588.9 593.3 596.8 601 604.7 612.3 616.8 617.7 617.4 619.2 622.1 621.8 620.4 618 616.3 612.8 610.5 607.6 604.6 606 611.4 614.5 614 614.1 613.3 614.9 615.1 616.4 616.1 613.7 610.5 606.9 603.8 598.8 594.4 589.3 581.4 572.6 565.8 560.6 553.4 546.7
649.5 661.7 664.6 665.2 664.1 662.9 663.5 665.2 665.4 664.9 660.9 661.5 667.9 680.1 689.5 702 716 730.8 746.8 760.2 773.8 786.8 799.8 809.6 818 824.1 830.9 836 842.1 848 854.2 858.9 858.7 853.5 847.7 841.7 830.9 806.6 771.9 745.8 723.4 700 680.8 660 640.9 629 622.9 615.7 605.3 594.7 594.4 599.9 606.5 610 628.8 648.3 669.1 683.9 696.5 702.7 705.6 705 702.3 700.6 695.8 692.6 690.3 688 687 687.3 688.3 689.5 689.6 691.5 694.5 690.8 692.7 693.2 695.7 697.4 697.2 700.4 704 704.8 705.8 706.5 704.7 700.6 698.1 697 690.3 690.2 683.1 677.6 670.9 663.4 659.2 652.4 646.9 640.4 632.5 626.6 619.7 615.3 610.2 600.9 595 587.6 579.4 565.8 555.4 544.7 532.9 519 501.5 477.7 455.3 432.1 425.5 425.5 429.4 430.1 429.5 430.4 432.4 432.7 432.3 434.9 457.5 479.3 498.2 521.6 544.3 573.8 599.3 621.2 636.9 640.9 635.5 631.4 625.7 619.8 614.3 605.7 604.2 598.1 590.2 579.1 573.1 579.7 579.3 575 581 583.4 586.1 590 587.1 593.3 599.9 605.5 612.1 618 622.3 630.2 632.8 632.3 631.2 632.9 633.8 633.7 631.8 628.8 626.7 620.6 616.6 613.2 608.7 612.8 617 617.6 618.6 617.8 617.4 620.1 620.3 622.2 620.4 618.7 615.2 610.3 606.9 602.5 598.6 592.6 584.7 573.9 568.3 562.6 556.9 548.6
643 650.8 657 659.6 656.1 653.9 654.6 657 657.1 654.7 651.6 650.3 656.4 668.2 678.2 690.6 706.1 721.7 736.2 751.3 762.6 774.3 787.8 795.8 803.7 809 815.7 821.5 828.3 834.8 840.1 843.4 843.8 840.3 835.3 827.6 816.2 792.2 758.2 729.1 705.8 686 667.4 647.2 631.8 624.3 619 610.9 598.9 596.5 603 610 619.1 629.1 652.2 672.2 688.9 704.7 717.2 719.2 716 714.4 710.2 707.8 703.3 701.1 699.5 696.8 696 696.6 700.9 701.8 704.3 709.4 709.9 709.1 707.9 708.5 710.4 712.7 715.5 718.8 720.5 721.9 723.9 723.1 722.7 719.5 714.2 712.5 709.6 706 699.2 693.4 684.8 675.2 668.9 665 659.1 650.6 641.5 633.6 625.6 620.8 612.3 605.7 599.6 592.2 580.3 566.9 555.5 544.1 529.8 516.3 496.4 473.3 448 425.5 425.5 425.5 425.5 431.1 430.2 427.7 430.2 430.8 432.2 435.7 465.9 484.6 501.8 526.2 554.3 584.4 611.4 635.4 650.5 648.6 644.5 637.5 631.2 625.6 618 615 612.4 604.4 593.6 580.6 577.7 587 587.3 582.3 588.5 592 595.1 599.4 600.3 603.1 612.1 618.8 625.9 633 639.2 644 645.5 646.3 645.8 645 645.6 645.2 642.2 638.3 634.2 629.2 623.1 618 615.1 619.3 621.8 621.5 622.7 623 622.8 624.2 625.8 628 627.8 624.4 619.1 615 609.8 604.9 602.2 596.6 587 577.2 572 565.8 558.2 550
630.8 643.1 648.5 649.2 648.7 646.5 644.4 646.5 645.7 642.1 644.7 640.8 645.8 660.4 671.6 682.6 698.2 713.4 728.1 742.3 753.2 763.1 775.6 783.2 788.4 793.9 800 806.4 814 821 826.4 829.5 829.1 826.3 820.1 813.2 800.9 775.3 743.4 714.3 693 673.1 655.8 639.2 629 621.5 612.1 600.1 599.5 604.4 613.9 624 636.3 651.6 675.1 690 709.4 728 730.5 729.2 726 722.3 718.8 714.8 712.7 710.2 709.9 707.2 707.2 708.7 712.4 716.1 721.4 721.5 721 719.7 721.9 723.8 725.9 731.2 734.4 735.8 740.6 741.2 743.2 743.8 741 739.1 734.8 729.5 725 720.7 716.7 710.8 700.8 693.7 688.9 680.9 669.6 659.9 650.6 642.6 632.8 627 619 610.3 602.4 594.1 582 570 557 542.1 527 511.6 489.5 462.2 439.7 425.5 425.5 425.5 425.5 425.5 425.5 425.5 425.5 431.5 433.4 442.1 463.8 484.7 505.7 534.4 565.9 595.5 624.7 647.8 657.8 657 651.1 643.9 636.6 629.2 625.2 622.5 618.1 609.7 597 587.5 582.2 593 596.8 590.5 595.2 600.3 607.4 612.9 616.4 611.2 623.3 631.4 639.5 646 652.4 655.5 656.8 658.2 659.8 657.9 656.5 654.8 649.6 645.1 639.3 633.5 627.4 620.2 622.2 623.6 625.9 624.8 625.2 626.4 625.9 630.1 633 634.3 633.8 629.2 623.5 617.2 611.8 607.4 603.9 598.2 591.2 582.3 574.3 567.5 560.5 553.3
620.5 627 631.7 632.5 633 634.7 636.5 636.9 636.2 627.3 633.9 627.1 640.2 652.2 664.3 674.9 690.3 705.3 720.7 734.7 745.5 754.6 763.7 771.2 776.1 781 786.2 792.3 799.6 807.3 813.2 816.6 816.3 813.2 807.7 799.9 783 754.5 726.6 700 679.4 660.5 644.3 632.8 625.9 616.8 602.6 600.1 607.1 615 627.6 641.7 657.4 673.6 687 706.2 732.6 741.2 741.4 741 734.7 730.6 726.3 723.7 722.6 722.6 720.9 719.4 719.5 721.8 724.8 731.2 735.3 734.2 737.8 738.6 738.7 742 746.2 750.6 754.4 759.3 766 770.3 773.6 771.4 765.9 758.5 758.1 754.8 752.9 750.1 742.5 733.7 718.5 708 698.5 689.6 678.5 668.9 656.6 649.2 639.3 631.9 622.7 614.6 605.6 595.7 584.1 571.2 555.8 540.3 524.4 506.7 480.1 452.6 429.8 425.5 425.5 425.5 425.5 425.5 425.5 425.5 425.5 434.4 435.4 445.3 464.4 486.5 512.8 545.4 578.7 609.6 639.4 661.8 667.1 662.8 657 650.1 642 634.9 634.4 629.7 623.5 617.1 605.9 597.1 590.1 600.1 605.7 599.6 604.3 612.6 621.1 628 630.7 629.5 634.4 643.6 650.6 656.8 661.5 665.2 666.4 667.6 668.7 672.4 667.3 660.9 654.4 649.2 642.1 635 628.2 629 629.1 629.1 629.8 629.7 630.3 630.9 633.8 636.3 639.5 640.4 638.2 634.1 627.6 620.8 615.1 609.4 604.8 599.5 591.7 584.8 577.9 571 562.8 555
609.2 614.6 619 621.6 622 624.1 625.9 627.1 627 614.8 618.3 620.6 631.7 644.6 658.3 668.8 684.4 698.4 713.3 726.1 737.1 745.8 753.3 758.8 763.6 767.5 772.3 778.2 785.6 792.8 798.7 801.9 802.7 799.9 794.5 786.6 769.8 738.2 710.3 687.5 667 648.4 634.5 625.8 621 606.9 600.8 609 618.2 629.8 644.6 659.9 674.6 686.4 701.7 727.3 750.8 753.4 753.2 751.2 745.3 740.2 737.9 737.3 735.6 735 732.5 733.1 734.1 736.9 742.7 748.8 752.2 754.9 755.4 758.6 760 761.8 764.7 770.5 776.6 785.7 794.3 800.1 799.6 797.5 790.2 783.5 781.9 782.2 778.8 772.8 763 749.4 736.7 723.2 708.9 696.5 684.2 674.2 663.3 653.7 645.7 635.7 626 617.4 609.2 597 585.3 571.2 554.1 538.8 522.5 498.4 467.4 441.5 425.5 425.5 425.5 425.5 425.5 425.5 425.5 425.5 425.5 434.1 435.9 453.3 468.7 493.6 525.6 557.7 590.2 623.3 652.3 673.4 673.3 667.9 661.9 655.6 646.1 644.3 641.6 638.4 633 622.9 614.7 605.4 595.8 604.7 614.3 607.2 614.6 625.2 635.1 641.6 645.5 645.5 640.9 654.2 660.9 665.5 670.3 673.7 675.7 676 676.5 676.7 674.6 666.9 659.2 650.6 641.6 636.9 636.9 635.8 634.9 633.3 634.4 636 636.7 638.4 640.4 641.7 643.6 644.3 641.1 637 631.5 624.7 617.9 613.2 608 601 594 588.3 580.4 572.7 565.3 556
597.5 604.3 608.1 609.7 612 614.4 615.6 615.8 614.2 601.9 600.9 615.9 629.2 641.2 652.9 663.1 678.2 692.8 706.7 718 728 735.6 741.4 745.5 748.5 752.5 757.5 763.7 770.8 777.8 784.2 787.6 788.1 785.9 780.7 773.2 757.5 725.1 696 676.3 659.4 642.7 627.7 621.2 611.2 601.6 608.1 619.4 634.7 648.9 662.7 676.4 688.1 702.8 720.4 751.3 765.4 767.4 765.5 761.1 760 756.9 753.7 750.4 749 748.9 748.9 748.9 748.6 754.6 760 765.2 769.9 774.1 778.1 777.5 782.8 785.5 788.3 793 803 814.3 822.9 824.1 822.2 820.1 815 809.4 805.7 802.5 797.3 790.2 779.8 767.3 752.1 737.9 723.1 706.7 692.1 680 669.5 659.9 650.3 641.7 629.4 618.9 608.9 595.8 582.6 565.4 548.7 529.3 513.3 485.3 456.6 429.4 425.5 425.5 425.5 425.5 425.5 425.5 425.5 425.5 425.5 425.8 443.7 449.9 476.2 504.7 536.6 569.8 604 642.1 668.8 681.4 678.5 672.8 667.1 659.9 652.7 652.2 649.8 645.5 640.6 634.4 626 614.4 601.8 608.8 622.9 617.1 624.2 636.4 646.7 652.4 656 658.4 655.5 667.2 672.7 676.5 681 683.9 685.4 684.7 683.3 680.3 676 669 658.6 649.2 645.3 643.7 642.5 642.4 640.6 641 641.2 641.8 641.5 642.9 645 647 648.7 647.2 644.4 640.6 634.2 627.7 621.1 615.3 608.8 602.7 596.9 589.7 582.3 574.3 565.6 557.4
580.7 587.3 593.4 597.6 599.9 602.4 603.6 604.8 599.5 586.6 597.3 613.2 624.6 634.7 646.3 659 673.1 686.9 699.5 710.1 718.2 723.8 728.2 730.3 733 737.4 742 748.8 755.8 762.5 767.8 770.7 770.4 768.7 764.7 754.3 738.6 714.8 687 664.3 650.6 632.8 622.2 613.2 604.8 606.1 620.4 635.3 653.2 667.4 681.8 692.4 704.9 719.9 743.7 773.8 778.6 778.6 777.5 775.4 773 768.7 764.8 765.9 765.3 763.8 764.9 763.6 769.8 773.8 780.8 786 790.9 794.2 798.2 802.2 804 807 813.3 820.8 830.4 838.1 841.7 844 842 839 832.3 829.4 828.8 821.1 813.3 803.4 792.6 780.3 765.1 749.3 736.3 720 701.8 690.1 678.8 664.7 655.9 647.1 634.2 619.7 606.2 591.2 577 556.2 538.7 517.1 499 469.9 439.8 425.5 425.5 425.5 425.5 425.5 425.5 425.5 425.5 425.5 425.5 425.9 441.8 453.3 479.5 512.9 546.4 580.4 616.1 652.8 684.2 689 684.7 678.7 671.8 665.2 664.2 663.1 659.4 655.9 651 644.8 638.5 622.8 619.9 619.8 627.6 627.9 639.3 646.1 656.5 663.5 667.6 671 671.1 678.3 684.8 688.8 692.5 695.2 695.9 693.4 690.2 685.2 678 667.4 657.6 654.8 651.9 649.3 648.6 649.1 647.8 647.3 646.8 647.5 645.8 647.1 649.4 652.5 652.4 650.8 647.6 643.9 637.8 631.1 624 616.3 608 602.8 597.9 589.8 583.7 575.7 567.2 558.6
562.8 569.3 576.2 581.4 585.3 588.6 590.6 590.8 578 585.1 598.1 608.4 620 629.7 642 653.9 668 681.4 692.4 700.8 707.2 711.5 714.2 714.6 717.2 721.2 726.3 733.9 740.5 746.6 750.4 750.2 750.5 749 744.3 734 721.7 706.5 679 656.4 639.5 625.1 616.1 608.2 604.8 617 636.3 657 675.4 687.5 700 711.6 724.9 743.5 776.7 791.9 793.7 793.3 790.8 787.7 786.3 784.3 784.4 784 779.8 778.7 779.9 784.6 789 792.9 799.4 807.4 815.4 819.9 822 825.2 829.7 833.1 839 845 850.6 854.7 857.7 858.7 857.2 851.6 845.6 840.2 837.5 831 822.9 813.8 803.2 790.7 775.7 761 747.1 731.6 713.5 699.6 688.5 674.3 662.4 650.2 634.7 618.5 602.5 587.9 572.5 548.6 525.6 508.4 486.9 456.1 425.5 425.5 425.5 425.5 425.5 425.5 425.5 425.5 425.5 425.5 425.5 430.1 439 456.5 486.7 520.9 555.3 595.1 629.6 667.5 694.8 696.4 691.7 684.6 678.3 670.1 672.7 671.2 670 665 661.2 655.2 646.9 634.1 634.3 630.6 636.5 648.3 653.5 662 668.4 677.5 680.7 682.4 682.6 684.2 696.3 702.1 704 705.8 705.8 701.6 695.9 688.1 676.8 665.6 664.3 660.8 659.3 660.6 659.6 657.2 656.5 655.1 653.9 652.2 650.7 651.6 657.8 660 658.4 655.6 651.9 647 640.7 633.9 627.4 618.4 609 601.6 597.4 589.7 583.9 575.8 568.5 560.6
547.8 554.4 560.7 568.1 572.5 576.1 578.5 576.3 569 582.8 593 602.3 613.9 625.2 638.4 650.1 662.5 675.3 686 692.9 696.5 699.8 700.7 700.9 700.9 704.6 710.4 718.3 725.6 730.1 732.1 731.4 730.4 728.1 722.2 713.6 703.9 694.3 676.5 649.8 630.8 620.1 611.5 606.4 614.8 631.1 656.3 677.9 689 705.7 719.1 732.9 750.1 773.4 803.4 807.9 807.1 806.2 804.3 800.9 799.8 798.7 797.5 795.4 792.9 797.5 800.4 799.5 802.5 809.4 819.5 829.6 834.4 839.1 846.6 851.7 852.6 854.3 857.9 861.2 865.4 868.2 870.2 870.7 866.6 860 852.2 846.4 841.8 835.8 829.1 821.3 811.6 799.6 786.7 773 757.6 740.2 723.1 709.9 694.7 682.4 667.9 651.9 634 616.2 600.9 585.5 564.2 538 515.1 497.5 471.5 440.7 425.5 425.5 425.5 425.5 425.5 425.5 425.5 425.5 425.5 425.5 425.5 428.1 442.2 464.2 495.3 528.7 565.9 608.8 646.4 682.4 703.4 703.3 699.9 693.7 686 682.8 684 682.4 681.5 677.2 673.5 667.7 656.3 643.4 648.5 643.3 651.2 664.6 668.6 674.6 679.1 688.9 694.6 699 698.4 704.2 707.6 713.9 716.1 716.8 714.2 707.6 698.1 686.8 675 674.9 672.9 670.2 671.6 670.6 669.2 665.7 666.7 666.1 663.5 663.5 663.5 664.7 666.7 666.9 665 661.6 657.7 652.4 646.4 638.9 630.2 620.5 611 601.8 596.2 590 583.4 575.9 568.3 561.2
533.1 541.1 548 553.7 559.5 564.6 566.7 564.5 564.3 575 586.2 597 608.5 619.2 632.4 643.7 655.5 667.9 678 684.3 686.3 687.6 687.3 686.1 681.1 685.7 693.8 702.1 709.7 713.6 713.5 714.7 713.9 709.6 704.4 697.2 691.5 682.7 666.2 642.9 624.9 616.3 609.2 611.8 627 651.5 676.2 698.4 716.8 730.6 743.8 758.4 777.8 808.2 819.7 819.9 819.6 819.7 817.8 816.9 814.4 812.2 811 809.5 814.6 816.2 814.9 809.4 813.6 822.3 835.2 845.5 852.7 860 864.5 866.7 867.5 868.9 871.2 873.2 876.5 878.8 879.8 879.1 873 866.3 858.1 851.2 845.1 839.4 833.3 826.3 817.6 806.7 795.4 782.7 766.8 749.6 731.7 717.8 699.4 687.4 670 652 633.6 616.9 598.1 577.7 553.8 525.5 504.5 482.9 454.5 425.5 425.5 425.5 425.5 425.5 425.5 425.5 425.5 425.5 425.5 425.5 425.5 429.4 450.1 474.3 503.3 540.2 576.8 621.2 658.7 695.8 710.9 710.2 706.1 702.5 696.3 694 694.9 694.4 692.8 690 686.3 678.9 668.1 661.2 660.7 656.7 670.6 677.5 682 686.7 695.6 702.7 709.6 713.4 716.1 719.9 716.6 725.2 726.8 725.8 718.4 707.9 696 686.6 683.9 684.2 682.7 679.5 679.2 678.6 677 674.8 675.5 674.7 675.5 673.8 673.5 673.5 673.6 673.9 672.7 668.8 663.8 658 651.1 642.9 632.4 622 611.3 603.9 595.5 590.7 582.3 569.4 572.8 569.8
522.3 528.5 536.3 542.5 547.5 553.2 556.5 548.2 558.6 568 579 590.5 601.7 612.5 624.8 634.9 647.2 658.1 666.3 672.5 674.3 673.1 671.3 667.7 659.5 669.8 679.6 685.9 693 696.2 699.3 700 696.8 692.2 686.9 681.2 673.3 664.3 649.9 631.7 621.4 612.6 612.4 624 643.7 669.5 694.2 716.7 739.4 752.8 777.2 793.5 815.2 827.5 833.3 833.3 832.9 832.7 832.6 831.4 829.5 829.7 828.8 831 831 828.3 826.5 822.3 826.4 836.3 846.8 856.5 864.9 872.1 876 876.7 877.4 879 880.6 882.6 885.7 888.1 889.2 883.9 877.6 870.2 862 852.9 847.7 841.8 835.9 829.8 822.1 813.3 802.4 790.8 777.5 762.4 742.5 724.7 704.1 687.4 671.3 652.5 633.2 613 591.1 567.6 544.2 516 495.4 467.7 441.7 425.5 425.5 425.5 425.5 425.5 425.5 425.5 425.5 425.5 425.5 425.5 425.5 430.7 450.6 480.6 515.8 551.9 589.4 636.1 673.1 706.7 717.5 716.6 714.4 710 706.3 706.2 706.6 704.5 703.8 700.7 697.4 692.4 677.1 678.2 677.6 677.3 686.6 692.1 697.5 703.6 710.8 718.6 724.2 729.7 732.8 735.6 733.3 736.8 736.3 729.9 718.2 704.9 701.7 695.9 693.6 695.4 694.9 691.9 687.5 685.8 685.1 685.3 684.1 685.7 685.1 684.6 684 682.8 682.2 681 680.5 677.2 670.4 664 655.8 646.9 633.8 623.5 613 606.6 597.8 592 578.4 582.3 578.8 575.5
512 519.4 525.3 530.6 536.4 540 543.9 540.4 552.4 559.1 570.3 580.8 590.8 603.9 614 624.1 634.3 643.3 650.8 656.2 658.9 657.7 655 647.9 638.9 655.9 665.2 670.9 675.8 679.5 681.1 678.2 674.8 672.4 668.2 661 653.1 641.2 630.3 618.3 612.1 610.9 617.8 633.1 657 683.5 707.9 731.4 755.2 782.5 798.6 813.3 828 835.6 840.1 842.1 844.1 844.1 844.2 842.9 844.1 845.5 845.7 843.2 840.5 836.9 835.6 832.6 836 844.9 855.1 864.1 871.7 877.8 881.4 883.5 884.9 886.1 887.2 888 891.2 892.8 892.1 885.9 879.9 872.9 863.1 854.3 849.1 843.6 837.4 830.9 824.4 816.5 807.7 798.4 786.5 773.5 751.7 733.7 706.6 686.1 669.6 651.8 630.4 604.5 581.9 556.9 530.9 505.4 481.9 455 425.6 425.5 425.5 425.5 425.5 425.5 425.5 425.5 425.5 425.5 425.5 425.5 425.5 430.1 456.3 489.7 525.2 563.6 605.7 650.7 683.7 716.3 725.5 724.8 724.1 723.6 719.5 721.9 721.9 722.2 721.9 719 713.4 704.6 688.3 693.8 696.8 698.8 701.7 707.3 715.7 721.3 727.1 734.8 743.4 750.4 752.1 751 747.3 747.1 740.4 731.3 719.6 713.8 712.8 703.8 706.3 707.2 705.2 703.5 702.4 699.8 695.7 697.4 698.5 697.5 697.1 695.1 693.7 691.2 689.4 686.4 685.6 683 676.2 668.3 660.4 648.9 634.5 622.2 614.5 609.1 599.9 588 591.1 589.8 585.4 582.5
503.2 509.7 515.2 520.1 523.9 527.7 521 537.6 544.9 550.4 559.6 568.7 578 588.4 600.3 610.1 617.6 626 632 636.5 638.5 640 639.2 625.8 627.4 642.2 650.8 657.4 661.5 662 660.6 658.6 656.9 653.3 647.9 644 636.7 627.5 618.5 611.5 610.9 617.7 625.7 645.9 672 698.3 719.3 743.3 772.5 800.5 810.4 819 828.7 836 841.4 846.3 849 852.7 854.5 854.9 855.5 857 855.7 853.2 848.9 845.9 842.6 839.5 842.7 850.4 859.6 867.6 874.8 880.4 884.7 887.1 888.9 889.9 889.5 891.8 894.1 893.5 892.2 886.5 879.5 872.1 864.6 856 848.5 844.4 838.5 831.7 824.5 817.4 810.8 803.2 793.9 780.7 757.5 740.5 712.9 688.7 669.4 648.6 624.7 597.9 571.3 544.9 517.9 493.1 468.2 443.6 425.5 425.5 425.5 425.5 425.5 425.5 425.5 425.5 425.5 425.5 425.5 425.5 425.5 442.4 466.8 497.1 534.1 577.2 625.7 670 703.7 728 734.3 737.4 739.2 735.5 734.9 736.8 739.2 741.8 741.6 739.5 736.4 722.4 698.8 710 715 719 722 729.7 735.6 740.9 746.5 753.7 761.9 767.3 767.5 765.1 758.1 754 744.8 733.3 730.1 722.1 722.5 714.9 717.7 717.1 714.9 713.3 712.1 710.3 708.2 707.5 707 705.6 704.9 705.1 703.4 699.5 696.9 692.1 689.6 685.9 680.4 672 662.1 648.8 633.5 623.9 616.5 607.5 593.8 600 597.3 595.5 591.9 588
493.2 497.9 503.7 508.1 513 510.9 520.6 529.2 536.5 540.8 547.5 554.9 562.2 571 579.2 589.1 598 604.1 608.6 612.7 617 620 620.1 611.6 612.6 627.1 635.6 641.2 644.2 645.5 645.3 642 638.9 635.4 631 626.7 622.1 614.1 611.2 606.4 613.4 621.7 635.3 659.1 684.9 707.9 729.6 756.5 787.4 808.1 813.9 822.7 827.8 835.6 841.7 847.4 852.6 857.1 860 862.6 864.3 863.6 862 859.3 855.4 851.5 848.5 845.8 848.4 854.1 862.1 869.6 876.6 882 886.2 888.5 890.7 889.6 889.8 890.4 893.2 892.8 890.1 884.2 878 871.1 863.5 855.1 848.2 842.8 837.8 830.4 824.1 818.2 812.4 805.1 795.9 783.1 766.7 747.7 715.8 689.1 667.1 641.9 614.7 585.9 559.2 531.4 505 479.6 457 435.9 425.5 425.5 425.5 425.5 425.5 425.5 425.5 425.5 425.5 425.5 425.5 425.5 425.5 448.1 476.5 507.1 545.1 583.9 632.2 677.8 704.5 737.1 744.3 749.3 754.1 756.4 757.3 759.8 761.3 761.2 759.8 757.2 752.3 742.9 724.9 728.9 732.5 735.4 740.9 746.9 755.8 763.4 769.3 773 781 783.4 780.9 776.1 768.7 762.5 751.5 747.6 739.6 736.1 735.9 724.8 728.3 729.1 724.7 724.6 723.9 720.8 717.3 717.2 717.4 717.4 717.1 715.7 712.9 708.8 704.6 698.9 694.1 689.8 683.6 674 660.7 645.3 634.5 625.1 617.6 607.2 606.7 603.7 602.2 599.9 596.7 592.8
477.3 484 489.7 494.7 498.3 497.2 510.7 520 526.8 532.3 536 542.3 547.9 554.4 561.4 567.7 573.1 580.9 586.4 591.1 596.1 599.9 601.6 600 596 610.3 618.1 622.5 625 625.8 625.3 624.2 621.4 619 615.5 611.5 608.6 605.9 603.4 604.4 615.7 626.4 645.4 670 690.7 713.3 738.2 770.4 796.9 809.8 818.8 825.8 830.9 836.2 842.2 848.8 854.8 859.6 864.4 867.6 868.9 867.3 865.8 863.5 859.8 855.2 851.3 848.9 851.3 856.2 862.5 870 876.2 882.1 886 887.8 889.4 889.6 890.1 890.7 891.8 891.2 887.3 882.1 875.9 869.3 862.2 854.8 847.9 841.2 834.5 828.7 821.4 815.4 810 803.8 795.8 783.7 769.3 748.1 716.3 685.6 659.8 628.7 600.8 572.3 544.2 517.1 492.9 470.9 448.3 431.9 425.5 425.5 425.5 425.5 425.5 425.5 425.5 425.5 425.5 425.5 425.5 425.5 425.5 452.6 485 516.4 556.6 601.4 647.4 686.2 721.9 744.6 755.6 767.1 776.7 778.1 776.6 780.2 781.8 778.4 775.9 772.6 765.1 754 745.2 748.1 750.8 756.3 763.2 770.8 777.2 783 789.5 792.7 797.6 796.3 791.9 783.6 779.8 773.2 762.5 759.9 752.8 747.5 746.5 732.4 743.8 745.1 742 742 737.4 733.1 729.1 730.5 730.4 729.9 727.9 724.8 721.5 717 711.1 705 698.3 692.7 684.5 671.4 654.4 644.1 634.4 626.4 615.6 617.1 611.3 608.2 607.1 604.4 601.2 597.2
457.3 460.9 467 476.5 480.4 490.6 498.6 506.6 511.8 518.2 524.6 529.6 534.8 538.8 543.6 548.6 551.7 557.3 563.8 569.1 573.8 576.9 580.9 580.8 582.6 593.8 598.7 603.5 605.6 606.7 608.1 608.1 606.2 604.3 602.5 601.1 599.2 597.4 595.3 604.6 617 629.8 652.3 675.6 698.1 720.3 748.6 781 801.2 812.4 825.7 830.4 834.1 837.6 843.1 848.9 855.1 860.1 865.3 870.7 872.1 870.3 867.7 864.8 860.9 856.1 852.7 850 852.2 856.3 861.7 867.9 874.3 880.6 883.9 885.6 887.2 888.9 889.5 890.1 890.2 887.5 882.8 878.7 871.6 865.8 860.1 853.1 845.5 837.2 830.6 824.2 817.6 812.1 806.7 800.8 794.1 782.6 764.4 736.2 706.2 674.8 643.6 612.8 586.8 558.7 532 505.5 482.4 459.7 441.4 428.1 425.5 425.5 425.5 425.5 425.5 425.5 425.5 425.5 425.5 425.5 425.5 425.5 438 460.1 495 530 571.3 614.8 655 695.1 727.9 755.5 775.2 789.8 796.4 796.7 798.4 798.7 799 795.1 792.6 787.4 779.2 762.5 761.5 767.2 773.7 778.5 785.7 792.6 799.3 807.6 811.1 813 811.3 808 800.6 795.9 790.6 783 779.7 774.4 768.8 762.1 757.5 741.8 757 757.1 758.5 756 751.9 748.6 747.1 744.6 743.7 741.4 738.3 734.5 730.4 724.3 716.7 708.2 701.4 694.1 683.2 664.3 651.8 642.6 631.9 632.7 627 620.9 615.8 613.6 611.5 609.3 605.5 602.3
480.8 480.8 479 471.4 475 477.4 483 487.1 494 500.6 505.2 511.4 515.9 517.8 523 527 531.7 535.4 540.4 545.9 552.3 556.7 560.2 559.7 564.2 571.2 579.3 584.8 587.9 589.3 590 590.7 590.7 590.9 590.2 589.8 588.9 588.9 591.5 604 618.2 630.7 655.5 680.5 703.4 729.1 759.7 789.1 806.7 819.2 832 833.2 835.1 838.6 843.5 848.2 854.4 859.7 865.2 870 871.3 869.5 867.4 863.9 859.8 856.4 853.2 850.7 852.4 855.7 860.5 865.7 871.5 878.1 881.2 882.9 884.4 885.9 888 888.4 886.4 882.9 878.3 873.6 867.9 862.5 856.9 850.1 842.5 833.5 826.6 820.2 814 807.7 802.2 796.4 788.3 774.5 751.4 720.1 687.3 655.4 628.2 602.5 573.8 546.2 518.8 496.3 473 453.4 438.1 425.5 425.5 425.5 425.5 425.5 425.5 425.5 425.5 425.5 425.5 425.5 425.5 425.5 443.5 473 500.2 539.5 582.2 623 676.4 710.4 742.1 772.6 797.6 808.7 811.8 812.6 814 815.6 815 811.8 807.2 801.1 790.5 774.3 782.7 787.8 794.5 799.9 809 817.2 824.4 827.7 828.8 827.7 823.8 817.5 807.7 807.8 804.9 802.2 797.7 790.3 786.3 781.3 774.6 759.6 768.8 766.9 772.7 770.5 766.9 763.5 760.6 759.5 757.7 754.5 749.8 746.1 739.9 732.6 722.9 711.2 702.1 693.4 678.2 661.9 651.4 644.7 643.5 638 633.3 625 620.2 616.8 615.8 613.2 611.2 606.8
493.4 493.9 491.3 494.3 495.5 493.4 489.5 486.7 485.3 488.6 491.1 494.6 497.6 499.5 502.3 507.2 510.3 513.1 519.6 524.1 528.9 534.5 539.3 542.5 549.2 554.6 558.4 563.4 567.9 571.1 571.7 572.9 576.6 577.7 578.1 578.7 577.8 579.7 590.7 604.7 620 633.5 660.2 684.4 711.4 739 767.7 795.6 812 825.5 835.3 835.6 835.9 839.9 843.5 847.6 851.5 856.8 861.3 865.2 867.2 866.5 864.8 862 858.9 855.3 852 850.9 851.5 854.9 857.9 863.6 868.9 874.1 877.8 880.1 881.6 883.1 884.9 885.5 883 879.1 873.3 869.4 865.1 859.4 853.5 847 839.3 830.5 823 816.7 810.1 803 795.5 787.7 778.4 760.3 733.4 704.2 673.8 643.1 615.5 587 560.7 534.7 509.8 485.4 463.9 446.3 432.9 425.5 425.5 425.5 425.5 425.5 425.5 425.5 425.5 425.5 425.5 425.5 425.5 432.3 456 481.2 510 548.3 591.4 639.2 675.3 719.3 747.6 789.2 816 821.1 824.2 826.4 828.5 828.7 827.5 823.8 819.9 812.5 801.5 796.9 800.7 807.5 813.6 820.5 828.4 836.8 841.1 842.2 841.3 838.5 833.7 827.1 825.9 823.8 820.5 813.5 810.1 806.2 800.8 795 788 775.8 778.6 785.6 787.6 786.4 783.1 778.1 775.7 775.4 772 767 763.3 757.3 748.5 738.7 727.6 711.6 702.4 690.3 673.4 660.8 656.5 653.8 649.7 643.8 638.9 630.7 625.9 621.9 619.5 617.6 615.4 612
505.2 502.9 504 506 508.5 507 503.6 499.4 492.7 486.5 488.6 490.2 492.6 494.5 496.4 498.3 500 502.1 504.2 509.5 512.3 516.9 523.8 529.9 534.6 538.6 542.6 546.8 550.3 556.2 557.7 560.9 564.5 566.2 566.9 566.4 571.9 578.8 588.9 606.4 622.6 638.8 663.2 690 719.5 748.2 776.9 799.7 814.9 828 833.6 835.6 837.9 839.4 842.7 845.9 848.7 853 856 858.9 862.3 864.5 863.2 860 856.9 853.8 851.1 849.8 850.5 852.7 855.7 860.2 864.8 868.9 872.7 874.6 876.5 878.8 881.3 881.5 880.2 876.6 871.8 867.5 863 857.2 850.1 843.8 836 826.6 819 812.4 805.7 796.4 785.8 775.1 764.4 744.2 720.6 691.2 660.5 629.1 600.6 573.3 546.6 522.2 496.8 474.6 456.5 441.1 425.8 425.5 425.5 425.5 425.5 425.5 425.5 425.5 425.5 425.5 425.5 425.5 425.5 432.5 457 486.8 520.7 552 606.8 652.8 689.1 724.1 763.2 804.7 827.3 829.8 832.8 835 836.7 838.1 836.8 834 829.4 822 816.8 815.3 820.3 824.5 829.4 835.8 843.5 849.4 851.8 851.1 849.1 846.1 842.2 838.5 836.5 834.7 832.2 828.6 822.5 817.9 812.8 806.2 799.6 790.9 786.3 798.5 801.4 800.1 796 792.6 791.1 788.1 784.5 780.4 773.9 766.1 755.8 744.2 730.4 712.5 702.7 690.7 675 670.6 666.1 661.7 655.3 649.3 645.5 638.8 630.9 627.2 623.8 619.7 619.3 617.5
504.7 507.6 510.1 513.4 517.1 516.8 516.4 511.5 505.4 499.6 492.1 491.2 493.1 493.7 494.8 496.7 498.4 499.5 501.5 503.6 507.1 511 516.6 521.7 523.2 523.7 529.6 534.4 539.7 547.2 548.3 551.8 553.4 556.2 555.3 562.2 566.4 577.3 587.6 605.2 623.2 642.1 668.8 697.8 727.3 752.6 779.1 800.6 816.1 826.6 833.9 837.1 839.4 840.2 841.8 844.3 845.4 847.3 849.7 852.8 857 861.1 860.9 857.9 854.7 852.2 850.5 850.1 849.6 851.3 853.6 856.7 860 864.2 867 869 870.9 873.8 876.1 877.2 877.3 874.9 871.2 867.1 861.6 854.9 847.3 840.8 832.5 822 813.5 806.2 797.7 784.3 770.3 757.1 746.8 729.3 704.5 674.9 645.2 615.5 587.6 560.8 534.1 507.7 487.4 466.7 448.3 433.8 425.5 425.5 425.5 425.5 425.5 425.5 425.5 425.5 425.5 425.5 425.5 425.5 425.5 439.7 466.6 497.1 535.9 572.4 616.4 642.1 683.5 716.8 760 804 835.3 836.7 837.1 839.3 841.3 843.5 844 841.8 838.4 834.1 830.4 829.5 832.4 836.5 841.8 848.1 854 858.2 857.8 856.3 854.4 851.7 849.7 848.1 846.9 845.3 842.6 839.2 834.5 828.2 822.9 818.3 810.9 802.3 790.7 808.4 813.3 813.1 809.6 806.3 803.6 800.7 796.8 791.2 783.9 774.8 761.6 747.5 730.8 711.9 704.6 692.2 681.2 678.7 674 667.5 660.3 655.6 651.3 645.4 636.9 633.2 629.5 625.4 624.3 621.5
504.3 507.6 511.8 516.5 522.6 524.1 524 523.7 518.7 513.8 507.1 500.6 497.1 496.2 501.3 502.8 500.1 501.2 504.4 506.8 505.6 507 510.9 513.1 515.3 517.1 520.6 529.1 534.1 539 542.7 544.5 546.9 546.9 556.3 556.8 562.6 574.6 588.3 605.2 623.6 644.2 677.5 705.6 732.3 756.2 779.9 801.1 816.8 826.9 834.2 837.9 837.8 837.9 838.6 839.6 841.6 842.2 844.6 847.4 850.9 854.4 856.8 855.3 852.7 850.2 849.4 848 848.8 849.9 851.8 853.6 856.5 860.7 862 863.5 865.4 868.1 870.9 872.1 872.2 871.1 869.3 866.2 860.6 853.3 846.5 838.4 829 815.6 800.9 785.5 769.2 756.4 741.7 728.7 718.6 702.6 681.1 656.5 628.1 598.2 575.7 547.9 521 495.7 477.6 455.9 438.9 425.5 425.5 425.5 425.5 425.5 425.5 425.5 425.5 425.5 425.5 425.5 425.5 425.5 425.5 446.9 476.3 509.5 547.4 591.4 631 675.3 700.8 730 768.8 816.3 837.7 838.9 838.1 840 842.5 846.3 848.2 847.6 845 842.3 838.8 837.7 842.4 846 851 856 860.6 863 861 859.9 858.1 857.2 856 855.3 854.4 852.9 850.7 847.1 843.7 838.5 832.6 826.6 823 814.5 801.6 816.8 823.3 823.9 821.3 817.3 814.4 810.7 805.8 799.6 791.9 781.6 767.6 748.5 732.1 714 706.8 692.1 690 685.9 680.8 673.3 668.8 663.7 657.9 652.2 645.3 640.2 636.9 631.9 629.8 626.3
506.6 513.4 517.4 521.8 530.1 531.5 530.9 532.9 532 529.7 526.1 521.1 515.1 510.5 507.4 508 505.4 507.9 510 510.6 512.7 513.4 513.1 511.4 513.5 515.9 518.5 521.6 527.4 535.3 539.2 540.6 541.6 542.2 553.6 560.8 563.5 574.3 587.6 604.9 626.3 649.4 683.6 711.9 736.2 756.7 778.3 799.9 815.7 826 833 837.1 838.7 837.1 836 836.3 836.6 837.2 839.4 841.7 844.6 847.2 850.9 850.7 848.6 848.3 847.3 846.9 846.6 847.6 850 849.1 853 856.5 858.2 858.4 860 861.9 864.1 865.5 866.3 866.5 865.4 864.1 859.6 852.9 845.1 836.2 819 793.3 769.4 757 742 729.3 715.9 704.2 691.7 677.4 658.6 637.2 610.4 583.6 559.6 532.3 504.8 486.3 467.6 448.3 432.9 425.5 425.5 425.5 425.5 425.5 425.5 425.5 425.5 425.5 425.5 425.5 425.5 425.5 428 455.2 482.7 522.3 559 603.7 637.8 665.9 705.4 756.2 793.4 825.8 836 837.8 837.4 839.5 842.4 845.8 847.9 849.6 848.6 846.7 843.7 844.8 848.2 852.8 856.8 860.4 864 864.4 862.3 862 861.3 860.6 860 859.7 859.8 858.5 856.4 854.6 851.3 847.1 842.3 838.8 834.5 825.3 812.1 823.4 831.5 832.5 830.2 827 823.1 818.1 811.6 804.6 796.6 786.5 771.9 752.5 735.2 719.9 709.3 706.5 701.8 695.7 688.5 682.4 676.6 671.1 664.2 658.1 652.3 646.9 644 639.7 636.5 633
508.7 518.3 524.4 528.3 535.8 536.2 536.8 540.4 542 542.7 539.9 537.7 532.7 527.7 522.9 519.6 518.7 516.1 513.8 514 513.9 514.7 515.3 516.2 515.9 525 526.5 526.7 526.6 527.6 534.2 535.6 537.3 537.8 550.7 558.2 563.2 572.1 585 602.4 625.8 652.6 684 715.2 740.1 762.7 782.2 801.2 815.9 825.9 832.2 837.3 838 836 833.4 833.5 832.9 833.5 834 836.2 838.4 841 844 846.2 845 845 844.5 843.8 844.2 845.4 847 846.6 849.5 851.7 853.5 854.4 854.3 855.5 857.6 859.2 860.3 861 859.9 860.4 858.9 851.4 842.2 822.1 792.5 768.5 747.1 731 716.9 703.5 691.9 679.4 665.7 651.9 634.9 614.6 591.9 568.1 544.4 516.1 492.7 475 456.2 441.1 425.5 425.5 425.5 425.5 425.5 425.5 425.5 425.5 425.5 425.5 425.5 425.5 425.5 425.5 437.4 465.3 496.3 532 571.3 615.1 645.5 689.4 729.5 772.5 811.6 825.1 830.2 834 835.3 836.9 839.5 843.1 846.5 848 849.3 848.4 846.3 848.1 852 856.3 859.6 860.6 862.8 863.6 863.3 863.5 863.9 863.6 863.5 863.2 863.2 862.3 861 858.4 856.6 854.4 851 847.7 844.5 836.1 820.9 829.4 837 836.5 835 832 828.5 822.8 815.8 807.8 800.4 789.9 774.3 754.2 739 724.1 716.9 716.7 712.1 705.2 696.8 689.7 684.6 679.3 671.7 665.6 659.3 653.2 649.8 646.3 642 639.2
507.7 523.8 529.5 533.6 536.7 539.1 541.1 546.5 550.5 551.5 550.9 549.8 545.2 544.4 538.3 535.9 533.1 530 528.4 524.5 523.9 523 523.3 522 519.4 524.1 529.2 532.2 534.4 534.1 534.2 533.5 536.4 541.8 547 553.4 561.9 571.6 583.8 601.1 624.9 648.1 680 711.8 740.7 758.2 780.6 802 816.1 825.7 831.5 836 836.1 833.6 830.2 830.2 828.7 827.7 830 832 833.6 836 838.3 839.9 840.5 840.1 840.9 841.1 840.6 841.2 843.5 842.9 846.1 848.3 849.9 849.8 850.7 851.5 852.6 853.6 854.8 856.1 857.5 859 856.1 849.1 832 801.3 773.1 748.9 730.5 712.8 698.2 683 669.2 657.1 643.3 630.2 613 594.2 574.9 554 527.7 503.4 482.6 465.3 448 430.7 425.5 425.5 425.5 425.5 425.5 425.5 425.5 425.5 425.5 425.5 425.5 425.5 425.5 425.5 444.4 477.4 503.1 543 583.7 627.7 662.8 696.8 746.3 777.7 817.2 821.5 823.3 826.3 829.9 832.7 835.7 839.2 842.8 845.7 847.3 846.7 845.8 848.2 852.2 856.3 858.8 860.4 862 863.1 864 864.2 864 863.8 864.1 864.4 865.2 863.8 862.6 861.8 860.5 857.5 855.9 852.7 848.3 842.7 829.8 834.1 841.3 841.1 838.5 836.2 832.2 826.2 816.8 809.3 803.1 793.5 777.2 753.9 740.5 732.7 728.6 725.6 720.4 713.6 707.1 700.8 694.9 686.9 679.6 674.4 667.9 662 656.5 651.7 647.7 642.8
515.2 526.7 534.5 539 542.2 545.4 547.9 554.7 558 561.3 562.4 561.3 559.1 556.1 553.2 551.7 546.5 544.1 541.3 539.2 537.7 536.3 535.7 532.3 529.8 530 530.3 535.9 539.8 539.4 540.4 537.1 536.7 538.2 542.8 548.8 556.1 568.6 581.7 601.1 623.6 646.9 676.5 710.3 742.3 769 774.5 802.2 816.1 826.6 831.2 833.1 833.1 830.9 828.1 826 824.6 822.9 825.9 827.6 829 831.3 832.8 833.4 835.4 836.9 837 838.4 839.8 839.2 840.4 840.8 844 845.8 846.9 847.3 846.7 848.6 850.2 851.3 852.5 853.1 854.2 854.7 852.8 845.2 818.4 787.3 759.8 737.6 719.7 703.1 685.7 671.6 655.3 641.1 627.8 613 597.7 579.1 560.4 539.3 514.2 493.5 475.4 459.3 440.2 425.5 425.5 425.5 425.5 425.5 425.5 425.5 425.5 425.5 425.5 425.5 425.5 425.5 425.5 429.2 455.7 487.3 519.9 554.9 593.6 629 671.9 719.1 758.5 792 805.9 812.4 813.4 815.6 819.4 824 831.1 835.4 839.8 842.6 844.7 844.6 845.4 848.3 851 854.4 856.6 858.5 860.4 862.5 863.5 864.1 864.1 863.8 863.9 864.4 865.9 865.2 864.1 862.7 861.2 859.2 857.6 854.2 849.7 844.9 836.7 838.8 844.8 844.9 842.9 840.5 836.6 830.4 823.2 814.7 808.1 797.6 780.5 757.6 750.6 739.6 737.6 733.2 725.9 719.8 714.8 710.7 702.7 694.1 688.1 681.9 675.1 669.3 664.5 657.8 654.4 649.8
529.4 528.8 538.7 543.7 549.1 553.3 556 561.7 566 569.3 573.8 575.1 573.1 570.9 571.2 567.4 562.6 559.8 556 554.1 551.7 551.1 549.2 546.5 543.4 542.3 540.2 541.7 544.5 545.6 545.6 539.4 540.9 546.6 551.6 549.6 553.8 565.4 581.7 602.7 626.1 650.1 681.9 715.4 750.3 776.7 783 799.9 811.5 823.6 828.7 830.1 828.9 827.3 825.1 823.1 821.4 820.1 821.3 822.5 822.5 824.3 826.1 826 826.6 830.5 832.4 834.1 836.5 836.5 835.7 837.3 841 843.5 844.9 845.1 844 846.3 847.7 848.9 849.2 849.3 849.9 850.3 848.5 841.2 809.7 778.1 752 731 715.8 694.5 675.4 662.6 649.4 635.8 620 605.8 588.7 569.9 550 523.5 502.7 484.7 467.8 451.5 432.2 425.5 425.5 425.5 425.5 425.5 425.5 425.5 425.5 425.5 425.5 425.5 425.5 425.5 425.5 440 467.8 500.9 533 570.8 608.8 653.6 698.6 736.8 770.8 780.8 785.3 791.2 797 801.7 807.5 815.7 824.7 832 837.2 840.6 842.2 843.4 843.9 846.5 848.8 851 853.4 856 858.7 860.2 861.4 862.6 863 863.6 863.6 864.5 865.5 864.7 862.9 861.3 858.8 857 856 853.9 850.6 846.1 840.9 842 846.9 848.7 846.5 844.4 841.2 836.7 830.6 823.4 814.6 804.9 792.2 768.6 760.8 753.7 747.9 742.7 735.4 728.4 719.9 716.5 708.8 702.1 695.8 689.4 682.8 676.1 670.2 665 662.2 657
538.8 529.5 543.4 549.6 554.7 559.7 565.5 571.3 577.6 584.7 585.2 590.8 588.2 588 589.5 586.2 581.3 577.2 573.3 570.9 569.7 568.8 566 561.8 557.5 552.3 548.4 549.3 551.1 551 547.9 543.5 548.4 553.8 553.5 555.1 557.9 570 584.6 606 632.1 658.3 687.3 723.1 757.1 780.8 792.7 802.7 810.8 818.7 824.6 825.8 824.8 824.4 822.8 818.9 817.1 816.5 816.8 817.3 817.7 817.4 818.1 816.9 820.2 822.1 823.4 825.9 830.1 831.2 830.1 831.7 836.4 840.6 842.3 844 843.2 841.7 843.8 844.6 844.6 844.9 844.1 844.4 842.9 837.2 811 776.9 748.9 727.6 711.9 691.4 670 653.5 643.7 630.1 615.6 600.5 582.3 561.2 535.1 515 490.5 474.3 459.5 445.6 426.2 425.5 425.5 425.5 425.5 425.5 425.5 425.5 425.5 425.5 425.5 425.5 425.5 425.5 427.7 447.5 478.7 512.4 546.9 584 621.8 668.3 711.4 743.3 754.9 757.6 760 764 770.9 777.2 794.6 807.3 819.2 827.7 832.5 834.6 836.8 839 840.7 843.3 845.6 847.6 849.4 852.3 854.9 857.3 858.5 859.7 861 861.7 862 863.1 864.4 863.4 861.5 859.1 856.5 854.1 853.1 851.7 848.9 845.7 840.9 843.8 848 851 849.9 847.9 845.8 841.6 836.6 829.7 821.7 813.6 802.3 783.9 776.7 771 763.3 756.8 748 734.4 723.2 721.8 715.2 709 702.2 694.4 687.3 679.8 674.4 670.9 668.3 661.3
545.8 541.4 546.3 555.2 560.2 567.1 575.6 582.2 589.4 598.6 603.3 606 605.6 603.7 603.3 601 597.9 593.2 591.1 589.1 587.5 586.2 582.7 579.2 571.5 566.3 561.7 557.6 558.3 556.6 553.4 549.9 548.2 548.8 553.2 556.4 560.7 570.4 587.3 611.9 637.6 664 694.3 730.6 766.9 785.4 791.2 801.4 808.4 814.9 820.6 821.4 821.6 821.2 820.3 818.3 815.7 812.9 813.9 813.6 814.1 813.6 814.9 813.2 815 816.8 816.9 820.2 823.2 825.4 822 829.1 834.4 839.1 841.6 842.3 841.7 839 839.6 840.7 840.7 840 838.9 838.2 836.3 832 819.8 783.4 752.5 728 710.7 689.8 667.1 648.5 637.2 624.9 610.9 596.7 578.2 556.1 526.9 504.6 486.3 469.7 453.3 435.1 425.5 425.5 425.5 425.5 425.5 425.5 425.5 425.5 425.5 425.5 425.5 425.5 425.5 425.5 433.4 459.5 487.3 521.4 556.6 592.1 630.6 674.9 708.3 724.4 729.2 731.4 730.2 731.5 740 754.1 786.1 802.9 813.9 821.1 825.9 828.9 828.9 833.9 836.7 840.4 841.8 843.2 844.6 847.7 850.9 852.6 855.3 857 858.3 859.6 859.8 860.7 861.8 861.9 860 857.4 853.9 851.8 850.9 850.7 847.6 844 843.1 846.1 849.5 853.3 854.1 851.7 849.9 846.2 840.8 835.4 828.4 822.6 816.1 806.3 794.4 786 780.7 775.2 759.8 747.9 735.6 729.7 722.5 717.7 707.7 698.7 688.8 679.3 676 673.3 671 667
551.8 549.3 547.4 558.2 567.8 576.6 585.2 594.6 602.7 608.8 613.5 614.9 615.7 614.3 613.3 612 610.2 606.4 603.7 602.6 600.9 599 597 591.9 587.5 579.1 573.7 569.8 567.3 564.8 561.7 562.4 558.6 554.9 555.2 559 560.1 569.8 588.1 615.2 643.5 671.6 700.8 739.9 773.7 787.6 794.4 798.5 806.7 812.8 817.4 819.5 819.8 819.3 818.5 816.9 814.5 811.8 809.8 810.3 811.3 810.3 810.6 810.2 810.6 811.6 813.1 817.2 819.7 818.7 821.9 827.4 833.1 838 841.4 841.3 841.4 838.6 836.5 836.4 835.5 834.6 831.7 829.5 827.9 824.8 817.8 795.2 759.4 731.3 708.2 682.2 661.1 644.5 631.1 617.4 603.8 590.1 570.9 546.6 521.9 498.5 481.1 461.2 444.1 429 425.5 425.5 425.5 425.5 425.5 425.5 425.5 425.5 425.5 425.5 425.5 425.5 425.5 434.8 448.5 474.3 496.1 529.6 564.6 599.5 631.8 667.5 687.3 696.6 700.3 698.1 694.6 700.3 719.2 746.1 778.1 791.9 805 814.1 819.4 821.5 826.2 831.2 834.7 836.5 837.7 838.6 839.7 841.8 844.2 846.4 850.6 853.9 855.6 856.7 857.2 858 859 859.1 858 855.4 851.5 851 849.8 849.1 847 844.2 845.1 847.9 850.9 855.1 855.9 855.5 854 851.3 844.9 840.2 835.6 829.9 827.5 822.9 816.2 808.4 803 790.4 780.7 767.6 753.4 737.7 728.1 721.5 713.6 704.9 695 686.6 679.1 676.2 673.7 668.5
558 557.3 552 564.7 574.2 583.9 592.6 602.3 611.5 617 620.7 623 624.8 624.2 623.6 623.8 622.1 619.5 616.6 614.9 613.9 612.3 609 605.8 601.9 595.2 588.7 580 575.5 573.3 575.3 571.8 563.3 558.5 557.8 560.6 562.8 570.4 592.3 619.2 646.1 674.5 706.1 746.3 777 788.6 794.7 798.9 805.2 810.4 815.1 817.2 817.8 817.4 817.3 814.8 813.1 810.8 807.4 805.9 807.5 807.8 808.5 807.2 807.2 807.6 810.1 813.5 816 816.9 821.8 827.1 832.7 838.1 841 842.4 841.4 838.8 834.7 830.5 830.4 827.5 823.7 820.6 818.8 816.4 810.6 797.9 773.7 739.5 706.8 676.6 653.5 638.6 625.8 611.3 597.2 579.3 559 533.2 509.6 485.3 469.5 457.9 437.8 425.5 425.5 425.5 425.5 425.5 425.5 425.5 425.5 425.5 425.5 425.5 425.5 425.5 432.8 441.4 455.8 478.4 505.1 534.1 565.3 598.3 627.8 648 657.5 663.3 666.7 661.8 691.3 716.7 741.4 760.2 773.1 781.1 799 807.6 812.8 820.1 824 828.5 831.4 832.8 833.8 835.7 836 835.8 838 841.4 845.3 848.7 851.2 852.5 853.8 854.2 855.3 856.1 855.5 853.2 849.8 848.6 848.1 847.1 846.9 846 846.6 848.2 851.6 855.1 857 858.8 857.5 855.6 850.7 845.5 840.8 839 838.7 838.7 835.4 829.1 823.1 810.6 796.8 784 768.3 748.6 732.7 728.5 721.6 713.1 701.6 692.7 684 678.6 675.2 669.1
564.5 564.6 554.4 567.6 582 593.1 603.8 612.7 618.7 623.2 625.8 629.7 631.7 632.8 634.4 633.8 631.8 630.1 628.1 627.5 625.6 623.2 621 618.6 614.6 607.8 600.6 590.5 582.7 584.8 583.8 578.8 570.2 567.7 564.9 566.2 565.2 570 593.3 620.3 648.4 677 709.4 752 779.8 789.1 794.7 797.5 802.8 807.8 811.6 813.7 815.4 815.6 814.7 813.7 811.2 808.7 807.6 803.5 802.1 803.6 804.1 803.9 802.8 804.8 805.8 806.8 813 816.8 822 826.7 831.3 836.4 840.2 842.7 841.1 837.2 833.2 826.1 821.8 819.7 815.9 811 807.4 803.7 798.4 782.6 759.4 735.2 706.6 676.5 647.9 632.2 619.3 605.3 587.8 570 548.6 526.4 503.4 484.4 467.8 451 430.5 425.5 425.5 425.5 425.5 425.5 425.5 425.5 425.5 425.5 425.5 425.5 425.5 425.5 430.8 442 463.9 486.3 494.3 519.7 544.7 578.1 603.4 613.3 622.3 625.1 651.4 679.4 706.1 732.6 758.9 776.2 779.5 797 801.8 809.4 812.4 819.2 823.1 825.9 827.1 827.6 829.8 832.6 832.1 832.8 834.2 836 839.1 842.5 844.7 846.2 848.4 850.4 851.4 852.3 851.6 850.7 848.9 848.8 847.4 845.7 845.7 846.3 847.3 849.2 852 855.3 857.2 858.3 859.1 856.9 855.3 851.5 849.2 849.4 848.7 849.3 849.7 847.9 845.1 836.3 824.7 805.9 791.3 770.4 746.8 731.5 727.9 718.5 709.2 700.9 689.8 681.3 675.2 668.5
571.6 570.5 559.1 573.1 587.9 599.1 610.9 618.2 624.2 630.5 632.8 638 642.8 644 645.6 645 643 640.4 639.7 638.7 636.9 634.2 631.5 629.7 625.1 621.5 613.6 603 594.4 595.2 592 586.5 585.1 581.7 575.4 571.5 570.9 578.1 594.5 620.4 647.3 676 711.4 751.9 774.7 784.6 792.1 796.7 802.2 805.3 808.1 809.5 812 812.8 812.3 812 810.2 807 805.2 803.7 799.3 799.2 800.9 800.3 802.2 802.3 802.6 808.6 813 816.7 821.4 825.7 829.8 834.1 838.8 840.7 840.1 836.3 831.2 824.5 816.6 811.4 808.8 803.6 795.2 788 778.5 760.1 739 716.2 691 667.3 645.7 628.6 612.8 596.8 578.6 560.3 539.2 519 499.6 480.6 463.8 446.1 425.5 425.5 425.5 425.5 425.5 425.5 425.5 425.5 425.5 425.5 425.5 425.5 425.5 425.5 426.5 446.2 475.5 503.2 522.4 529.5 536.4 557.7 575.3 606.8 630.1 651.1 676.3 700.5 725.1 748.7 773.4 797.8 803.3 798.6 806.4 812 816.1 819.2 822.7 823.3 824.5 824.9 827.2 830.1 828.5 828.4 829.6 830.6 833.2 836.4 838.2 839.1 841.1 844.3 846.5 848.1 849.5 849.1 848.2 847.4 846.3 844.7 844.7 846.4 848 850.1 852.7 854.7 857.8 859.7 860.6 859.8 856.7 855.2 855.5 856.8 858.9 860.8 861.3 861.6 861.5 859.1 850.6 838.9 814.7 795.6 774.7 744.5 736.7 727.1 719.9 710.7 696.2 685.6 680.2 672.5
580.1 578.4 565.7 576.1 593.2 606.2 616.9 622.8 629.1 635.6 639.3 647.2 651.7 654.9 659 658.4 655.7 652.3 651.9 650.2 649.5 649 646.6 643.6 639.5 633.4 625.3 616.4 605 607.8 603.6 598.8 596.9 593.4 588.1 579.6 579.9 583.7 598.7 621.4 645.6 674.4 711.4 755.3 772.8 781.2 788.5 793.7 798.5 802.4 804.4 806.4 808.4 809.9 810.6 810.2 809.1 806.2 803.2 802.5 799.8 795.7 796.6 797.6 799.5 799 801.7 806.8 812.3 816.9 819.9 823.9 828.2 832.4 836.9 839.5 838.3 835 828.8 821.1 814 803.7 797.1 784.6 770.1 757.3 749.9 734.4 715.6 695.5 674.9 654.2 634.6 617.1 600.5 584.1 567.9 547.8 528.8 510.4 491.8 473.7 455.3 433.3 425.5 425.5 425.5 425.5 425.5 425.5 425.5 425.5 425.5 425.5 425.5 425.5 425.5 425.5 433.4 456.3 482.5 511.1 533.7 554.9 572.3 591.2 610.4 628.2 655.4 677 698.9 723.2 745.9 768.8 792.6 810.9 812.2 807.5 805.8 811.9 820.4 821.5 820.8 821.8 822.5 823.5 825.3 826.1 825.8 825.9 825 826.3 828.5 830.8 832.1 833.3 835 839.1 842 844.7 846.3 847 846.5 845.3 843.8 842.9 844.8 846.5 848.5 850.2 851.9 855.4 857.7 861.5 861.9 861.4 860.8 860.6 860.5 863.8 866.3 868.8 869.6 870.1 870.2 869.6 865.8 857.3 844.4 816 797.5 766.6 743.4 738.2 729 718.1 708.7 693.1 685.9 675.4
590.3 586.8 571.6 583.5 594.4 610.2 621.1 625.3 633.4 641.9 649.3 656 662.8 671.2 674.9 674.2 669.2 667 667 664.9 664.8 663.6 660.1 656.7 650.9 645.3 638.5 628.4 618.5 620.5 615.8 611.3 610.2 607.9 603 593.2 588.1 594.2 602.6 622.2 646.1 672.8 713.7 755.9 769.3 778.7 784.8 788.6 794.9 799.5 801.9 803.8 804.7 808.3 809.6 808.8 807.6 805.9 803.6 800.4 798.3 796.5 793.1 796.3 796.7 795.8 799.6 806.4 811.9 816.4 819.4 823.5 827.2 831.3 834.1 836.3 835.4 831.8 825.9 817.6 808.3 795.8 764 749.1 737.9 726.5 718.9 706.4 690.5 673.6 654.5 634.6 618.3 602.4 587.9 573.3 556.7 538.6 521.1 503.3 486.9 466.7 446.6 426.6 425.5 425.5 425.5 425.5 425.5 425.5 425.5 425.5 425.5 425.5 425.5 425.5 425.5 425.5 442.6 464.9 494 520.8 542.8 563.9 586.8 611.2 629.9 648.5 676.3 699.2 721.8 745.8 767.6 788.1 812.3 820.1 817.1 811.8 806.1 808.9 815.3 817.7 818.3 820.2 820.2 821.3 822 823 822.6 823.1 822.1 823.7 824.5 826 827.2 829.5 830 834.9 837.6 841.3 842.5 843.4 844 843.1 842.6 842.1 843.5 846.4 848.7 851.2 853.1 853.9 856.3 860 860.2 860.5 861.2 861.4 863.1 867.6 872.4 874.3 875.4 876.1 874.5 874.2 871.3 866.4 855.4 842 817.8 793.2 758.9 749.6 739.4 728 715.8 701 690.8 679.6
599.8 593.5 578.6 599.1 605.2 613.9 624.8 629.1 639.8 646.8 657.3 666.1 676.9 686 689.1 690.2 687.8 686.4 683 680.4 682.2 678.9 673.4 668.5 664.5 661.4 654.4 642.5 631.5 632.1 629.2 625.6 625.2 625.2 622.3 611.7 604.1 602.4 612.8 624.1 649.3 679.1 716.9 761.3 773.1 780.3 782.4 787.1 793.3 797.7 799.8 802.3 804.7 806.1 807.6 808.1 806.5 806.3 804.1 799.8 796 794.7 790.9 793.8 793.5 797.8 802.8 806.9 813.7 816.7 819.8 822.6 825.6 829.1 832.1 832.2 830.8 827.7 822.1 812.8 800.9 774.5 746.4 720.7 707.8 698.6 690.5 678.2 665.2 650.3 632.1 614.1 600.2 586.6 573.3 559.7 543.6 529.7 514.8 497.4 479.7 461.6 443 427.7 425.5 425.5 425.5 425.5 425.5 425.5 425.5 425.5 425.5 425.5 425.5 425.5 425.5 425.5 448.5 478 500.9 532.4 554.1 573.2 596.1 621.5 641.3 668.2 687.3 720.2 742.5 766.1 788 806.9 819.7 823 817 811.5 807.7 808.1 809 812.1 815.4 817.7 818.6 819.9 820.6 821 819.8 819.8 818.8 819.8 820.9 822.4 824 824.2 826.9 830.7 833.8 835.7 838.1 839.3 840 840.7 838.8 839.6 842.4 845.4 848.8 851.3 853.3 853.8 854.4 855.5 856 856.6 857.4 859.1 861.8 867.3 874 876 876.8 877.6 877 874.8 872.3 869 863.2 852.6 839.9 815.3 792.5 765.9 758.4 742.3 732.4 713.9 697.2 686
605.3 599.4 593.7 607.8 617 623.7 630.9 638 645.5 654.8 664.4 675.5 687.8 694.3 707.2 712.3 718 711.4 704.6 700.3 698.6 695.1 687.9 683.1 677.4 670.7 666.4 656.8 649.9 652.2 646.8 642 643.5 644.1 642.5 633 623.4 613.6 624.7 637.1 654.9 684.8 723.2 766.1 777.7 784.6 788.8 792 791.3 794.7 797.6 800.5 801.9 804.9 806 807.4 806.8 804.6 803.4 800.3 796.7 793.7 789.2 790.2 793.1 797.7 803 809.8 813.9 817.6 820.2 822.7 825 826.5 829.7 828.9 826.5 822.7 817.8 808.9 791.7 762.7 729.6 708.8 688.1 675.1 667.8 655 642.2 624.9 610.9 597.8 584.7 572.3 559.8 548 536 522.5 508.8 496.6 476 457 445.9 429.6 425.9 425.5 425.5 425.5 425.5 425.5 425.5 425.5 425.5 425.5 425.5 425.5 425.5 425.5 454.9 486.7 517.5 547.2 564.5 581.9 606.6 627.6 654.3 682.9 703.2 731.2 759 782.7 799.9 816.2 817.3 814.5 812.2 809.2 806.9 806.8 807.5 808.6 811.1 813.1 814.1 815.2 814.8 816.3 817.4 818.2 815 816.1 816.1 817.3 820.8 820.9 824 826.5 829.8 830.2 832.9 832.7 835.6 836 834.2 836.1 840.5 844.1 848.2 850.4 852.5 852.4 851.5 851.1 850.4 851.7 853.3 856.1 860.6 865 871.3 874.9 876.9 877.7 877.2 874.7 872.9 869.4 865.6 858.7 849.9 836 806.1 786.4 768.4 760.6 746.6 726.3 708.1 691.9
616.1 606 604 615.1 624.8 631 637.2 644.9 652.2 662.1 672.5 684.4 693.6 712.7 725.1 734.8 746.2 744.9 734 726.3 720.6 711.5 705.7 697.4 690.7 685.5 678.7 668.8 664.4 669.9 665.3 660.5 658.7 654.8 652.3 648.6 640.9 633.4 644.2 656.1 669.5 691.6 734.8 772.1 782.5 788.9 792.2 794.2 796 796.5 795 798.8 800.6 802.3 804.7 805.9 805 803.8 800.4 798.8 795.9 792.2 790.1 788.4 792.1 796.6 801.3 809.7 814.8 817.6 819.9 822.5 824.8 825.4 826.3 826.5 824 819.6 812.5 802.4 770.1 741.4 706.4 693.3 675 657.9 645.9 635.2 624.1 612.3 600.1 586.9 575.1 562.2 550.9 539.6 529.2 517.5 505.3 490 474 457.8 440.7 434.3 426.8 425.5 425.5 425.5 425.5 425.5 425.5 425.5 425.5 425.5 425.5 425.5 425.5 432.8 463 494.9 528 559.7 577.4 593.1 617.2 638.7 667.7 694.4 720.1 733.4 766.5 790 802.3 806.8 802 794.8 803.5 805 803.4 803.8 804.4 806.5 807.3 808.8 810.6 811.3 810.7 813 816 814.9 814 812.7 813.2 816.2 816.8 820.6 820.8 824.2 824.8 827.1 830 830.3 831.6 830.7 828.4 832.7 838.4 842.7 845.8 847.2 848.6 847.1 845.4 843.6 844.9 846.8 849 852.9 857.4 861.5 866 871 874 875.3 874.3 873.3 872.5 869.3 865.8 861.3 856.2 848.3 826.5 806.4 785.5 773.9 760.7 739.7 717.9 697.8
622.4 610.7 611.5 622.6 630.6 636.1 639.8 649.6 659.1 668.4 680.6 691.9 708.1 728.3 742.2 756.7 768.2 775.6 770.6 754.4 745.9 736.8 723.7 712.3 704 699.2 691.1 681 673.1 687.1 680.7 676.1 674.6 668.9 663.5 663.7 658.2 650.6 663 678 692.2 712.3 744.3 775.4 786.4 792.9 795.6 795.8 797.3 798.5 798.6 797.8 799 799.8 802.8 804 801.8 799.6 798.5 796.6 794.5 791.7 787.9 788 793.3 798.8 804.2 810.4 814.5 818.2 821.7 824.6 825 825.7 826.6 825.7 820.6 815.2 806.3 784.2 744.5 708.5 690 672.8 657.6 645.4 632.2 619.3 605.8 595.2 585 573.9 564.8 554.8 543.9 533.8 524.3 513.6 500.9 485 470.4 459.4 452.6 439.8 426.5 425.5 425.5 425.5 425.5 425.5 426 425.5 425.9 426.2 426.2 425.6 425.5 436.6 469.8 503.1 536.3 571.8 594.5 605.1 626.1 650.8 678 705.6 732.1 753.6 773.5 785 785.5 782.7 771.4 772.2 794.8 797 798.2 799.9 802 801.7 802.7 804.5 805.4 804.9 806 810.1 812.4 812.3 810.6 813.1 814.3 816 816.6 818.1 820.5 820.5 824.3 826.3 827.1 826.1 826.6 825.7 824.9 829.7 835.5 840 841.3 841.5 840.9 840 838.1 837.6 839.3 842.4 845.9 849.8 853.8 857.8 861.1 864.9 869.4 872 871.5 871.3 870.6 868.4 866.3 863.1 860.3 856.3 848.4 823.6 801.3 781.8 773.8 751.8 726.4 711.8
628.2 616.7 622.3 631.7 636.2 636.5 646.5 656.7 666.9 678.2 691.8 702.9 723.1 741.5 758.5 772.7 786.5 794.9 800.5 788.4 774.1 760.7 747.9 734.9 719.4 710.1 703.4 690.9 697 701.6 696.4 696 691.3 685.9 679.3 678.4 676.1 675 683.7 697.6 714 737.3 760 772.5 786.4 793.5 796.4 797 798.1 798.8 800 799.9 798.5 799.3 800.8 800.7 799.8 798.6 797.1 794.7 793 789.9 785.8 790 793.7 798.7 804.2 810.3 814.5 818.1 821.3 824.4 824.7 824.4 825.2 824.5 820.3 812.5 790 756.3 716.9 690.8 672.2 660.7 647.9 636.5 623.6 610.2 597.5 584.4 574.6 565.1 556.7 546.8 537.3 528.7 520.7 509.1 496.3 478.9 475.3 467.4 458.4 438.5 426.3 425.5 425.5 425.5 425.5 425.9 426 425.7 426.7 427.3 427.6 426 426.1 440.4 475.7 511.8 547.7 584 613.3 625.9 639.9 668.7 695.1 717 746.4 766.3 766.2 766.4 758.8 753.1 740.7 766.9 786.5 791.2 794.8 796.1 796.6 796.2 792.3 797.5 794.6 797.7 800.7 802.8 804.9 806.9 809.5 813.1 815.2 816.4 817.1 817.9 818.8 820.2 822.6 823.4 823.3 822.1 820.8 819.2 825.4 828.5 830.6 832.3 834.1 832.7 834.4 833.1 833.3 833 836.6 839.8 843.5 847.3 849.5 853 856.8 858.9 862.6 866.1 867.5 867.9 868.4 868.6 866.6 865.8 864.2 861.6 857.1 846.9 821.7 799.5 784.4 759 739.2 725.1
636.1 628 630.6 637.8 644.4 642.6 657.8 666.4 676.6 689.1 698.1 720 736.2 754.7 770.5 787.1 800.7 811.3 819.1 820.3 813.2 800 783 762.1 738.9 725.6 713.5 693.8 713.2 715.3 721.3 723.1 715.2 705.6 696.3 693.6 695 697.8 706.7 723.7 742.2 772.1 782.6 781.1 780.1 792.2 795 796 798.5 799.8 799.6 798.5 797.4 797.4 798.6 797.6 797.9 797.1 796.4 794.3 791.5 788.5 782.7 788 793 796.7 804.4 809.5 813.8 816.9 820 822.6 823.6 822.7 822.4 821.4 816.8 803.2 766.7 734.2 701.5 677.8 663 655.3 643.8 629.9 615.3 602.3 589.6 579.4 565.8 559 550.4 540 531.8 524.8 514.4 501 495.4 491.6 481.1 474 456.7 436.8 425.4 426.1 425.7 425.5 425.6 426.6 426.8 425.9 426.5 427.1 427.5 426.1 426.8 444.1 479.7 516 553.9 595.5 634.7 653.5 661.1 679.1 711.2 735.1 750.4 748.1 741.5 739 730.5 722 716.7 757.7 782 788.2 789.8 790.9 791.1 784.1 789.2 796.9 801.6 802.9 805.1 807.6 811.9 813.5 813 812.9 815.2 816 817.1 818.3 819.1 820.7 821.4 821.8 821.9 819.5 814.9 821.2 823.8 824.4 824.5 826.3 826 827.5 827.8 827.1 828 830.7 833.3 837.5 841.1 843.6 844.6 846.9 849.4 852.4 856.2 860.5 863.1 865.2 867.3 868.2 867.5 866.9 867 865.7 862.4 856.9 841.8 812.3 793 768 746.8 732.2
642.9 636.3 633.3 647 654.1 660.6 666.9 676.5 688.7 698.4 718 734.1 750.6 766.3 781.4 798.5 814 825.5 833.1 832.9 826.3 815.8 801 782 757.9 735.7 720.5 719.4 728.2 736.6 751.4 750.9 738.4 731.4 724.9 721.5 717.5 733.3 746.7 767.5 782.6 792.9 794.9 790.7 781.2 790.3 791.8 793.5 797 798.3 797.9 795.6 795.1 796.2 796.4 797.1 797.3 796.9 795 793.3 790.2 785.9 783.2 788.3 793.2 798.2 803.5 808.1 812.5 815.4 817.6 819.8 820.5 819.2 818.2 817.2 811.8 784.1 750.2 718 692.7 670.2 652.5 653.1 637.7 624.6 608.5 596.1 584.5 574 565.7 554.3 544.7 536.6 528.6 519.8 509.9 504.1 504.6 498 485 475.4 456.1 442.2 426.4 426.5 426.3 425.9 425.9 427.3 427.2 426.6 426.4 427.4 428.1 427.4 426.7 445.4 481 517.7 556.9 604.9 648.9 679 692.2 701.4 719.3 731.7 725.4 717.5 707.6 702.7 696 687.7 710.1 748.6 771.1 782.2 787 787.2 783.2 787.3 793.2 797.9 801.5 803.4 805.5 808.1 813 815 814.7 814.2 816 816 816.4 817.6 817.9 820 821.3 821.8 821.2 810.7 818.7 819.8 820.5 821.2 820.1 818.5 819.9 821.7 823.1 824 826.1 827.7 829.5 833.3 836.7 837.1 838.2 840.6 842.6 846.6 849.9 855.2 860.4 863.6 866.6 868.1 868.1 868.7 869 868.5 865.5 860.9 849.8 822.7 794.2 772.1 757.6 739.6
649.7 642.1 641.5 653.1 660.5 667.3 675.7 688 698.8 714.7 730.2 745.6 760.6 776.5 794.8 812.4 827.2 839 845 842.2 834.4 823.4 809.4 792.7 772.6 748.7 726.3 738.1 744.1 765.9 784.9 787.4 773.4 769.4 763.8 756.5 754.2 769.1 770.5 788.5 795.2 799.5 800.4 797.1 791.8 788.7 786 789.5 793.5 793.3 794 794.4 794.4 793.4 795.5 795.7 796.6 796.4 794.9 792.6 790.5 786.2 784.3 789.8 793.1 798.1 803.5 807.7 810.6 813.6 815.5 816.9 817.1 816.2 814.4 811.8 800.1 769.4 737.5 708.4 685.1 664 649.4 646.7 642 623.8 608.6 595.9 582.8 571.9 563 554.1 544 535.7 526.4 518.3 515.1 516.9 512.4 505.9 495.8 481.8 467.4 452.4 434.8 426.4 425.3 425.8 425.9 427.5 427.5 427.2 426.5 427.4 428.1 427.8 427.3 450.9 485.8 521.2 557.1 602.7 646.1 693.6 717.4 725.8 722 709.7 695.8 682.5 673.4 666.7 661.4 667 697.9 718.4 754.9 779.4 783.1 777 771.1 786.7 792.3 797 799.5 802.9 804.8 807.6 813 815.1 814.9 815.4 816 815.9 816.9 816.8 817.6 818.4 820.4 821.4 819.3 815.2 816.9 817.8 817.8 818.2 814.7 812.4 813.3 813.7 818 820.2 822.1 825.1 827.1 828.9 833.6 836.6 839.7 841.1 842.4 843.6 847.6 853.4 859.3 862.7 864.9 867 867.6 868.8 869.9 869.1 866.4 861.1 849.7 819.2 789.5 768.5 756.3 738.9
656.1 644.4 646 659 666.8 674 684.6 694.8 709.3 724.2 740.7 755.4 772 789.8 807.4 824.8 840.4 851.1 854.8 850.2 841.7 829.6 815.6 799.5 782.4 763.7 741.1 753.9 771.4 788.8 799.3 802.2 800.7 799 796.3 792.5 788.8 789.2 783.9 794.5 800.4 803.7 803.1 799.3 793.4 793.7 790 788.4 788.9 792.2 792.9 793.5 791.6 793.3 794.3 794.4 794.5 794.6 792.7 791.2 789.5 785.3 783.8 790.2 793.8 797.7 802.8 807 809.2 811.8 813.6 814.7 814.4 814 811.9 809.5 792.2 759.5 729.7 707.7 683.5 664.4 646.3 633.5 634.6 618 604.4 592.5 581 571.5 561.7 552.1 544.2 539.6 534 529 526.5 525.1 522.8 513.6 504.8 493.1 476.2 455.7 440.1 427.2 426.1 425.7 426.2 427.3 427.7 427.6 427.3 427.9 428.3 428.6 428.6 450 483.7 518.9 555.5 600.4 650.9 708.3 731.3 722.1 704.5 682.6 663.8 647.6 636.5 628.3 629.4 648.4 672.3 708.3 738.5 760.7 768.8 763.1 777.3 786.4 792 796.2 799.9 802.7 804.7 807.2 812.5 815.4 815.8 814.6 816.4 816.5 816.3 816.3 816.5 817.2 816.6 817.2 813.5 802.1 812.5 814.1 814.5 813.5 809.2 806 811.3 815.8 820.8 823.4 824.5 827.9 829.5 831.8 836.9 839.9 842 846.4 849.1 849.7 847.3 851.9 858.3 863 864.9 866.2 867.4 868.8 870.2 869.6 866.4 859.8 846 813.4 785.5 766.6 753.2 730.2
660.4 647.9 654.7 666 673.1 680.5 690.1 701 715.8 732.4 749.2 764.5 784.1 800.8 819.6 836.7 850.9 860.4 861.4 856 846.9 834.7 821.1 805.2 789.3 768.5 768.6 778.3 791.5 802.2 808.7 811.8 810.9 808 805.5 800.6 796.8 796.3 787.8 797.6 803.6 805.7 803.3 797.7 795.4 792.4 791 789.9 787.9 790.5 791.1 792 791.3 791.9 792.6 792.3 793.1 793.6 792.4 789.8 788.6 782.2 784 789.6 793.3 797.1 800.1 804.8 808.1 809.9 812 813.2 812.8 813.1 811.7 810.2 797.4 763.7 733.8 710.7 689 668.6 649.3 633.3 613.8 614 598.9 586.3 577.3 569.2 559.9 552.9 547.3 544.3 542 540.7 540.9 540.2 532.1 520.3 520 505.9 486.3 460.7 442.3 430.4 427.5 426.4 426.8 426.9 427.5 427.9 427.5 428.3 428.8 429.6 429.4 446.8 480.9 517.2 554.4 592.1 656.8 702.2 722.5 705.7 684.7 657.6 633.6 612 601.8 614.5 630.9 633.7 659.9 679.7 717.2 728.6 750.4 763.9 781.6 783.1 789.7 794.9 801 803.5 803.9 807.4 810.5 813.2 814.4 814.7 815 815.5 815.7 815.2 814.7 813.6 812.4 809.8 804.3 797.2 806.1 808.1 808.7 806.7 802.7 807.4 816 818.7 822.9 825.6 826.7 828.4 830.8 834.6 838.8 843.9 847.3 850.9 853.5 854.4 854.3 850.7 857.4 863.9 866.3 866.7 867.3 869.2 870.4 869.2 865.4 857.6 841.7 810.6 783.2 768.3 749 728.4
660.8 656.7 663.8 671 679.8 688.5 697.4 707.3 723.9 741.8 757.4 775.8 794.1 814 831.3 846.9 860.1 866.5 865.6 859.2 850.3 839 825.8 812.4 798.5 781.1 785.3 797.9 805.7 808.5 814.3 816.5 816.3 814.7 810 803.6 800.8 797.9 791.3 801.2 805.6 805.2 801.6 795.3 793 794.8 790 790.4 789.1 787.9 789.9 789.6 791.3 792.3 791.9 790.9 790.3 790.5 790.3 789 786.3 777.2 784.7 789.2 792.4 795.3 798.5 803 806.1 808.5 810.5 811.7 812.2 811.4 809.4 808.9 804.9 775.5 743.8 717.3 696.9 676.6 654 629.4 607.8 595.9 592.7 585.9 573.9 564.7 560.2 552.6 554.5 551 553.9 552.7 557.2 556.8 553.9 547.1 538.9 520.3 497.2 473.5 451.1 432.3 426.7 426.8 426.9 426.9 427.1 428 427.6 428.7 429.7 430.4 431.4 444.5 477.4 512.8 549.9 591.7 646.8 690 703.6 684.4 662.8 636.6 606.3 594.8 616.8 632.2 646.9 667.6 673.2 697.8 715.3 741.6 762.8 779.3 788.3 792.3 795 791.3 798.4 802.3 804.9 806.9 811 811.8 811.9 812.5 813.7 812.5 812.1 810.9 811.8 811.8 808.4 801.7 798.2 792.9 798.6 801.8 801.7 800.6 801.5 808.4 817.1 822.4 823.8 827.7 830.2 829.6 832.5 837.1 841.4 845.7 850.9 855.6 857 857.7 857.3 855.3 856.7 862.1 866 866.3 867.5 869.9 870.6 868.9 864.2 855.2 830.7 803.4 783.6 767.5 747.7 726.2
668.7 661.9 671.8 677.6 686.3 695.4 703.8 715.8 733.5 748.8 766.1 787.8 806.7 824.6 841.7 856.7 868 871.5 868.6 861.5 853.2 842.7 831.9 820.3 806.7 802 802.8 808.5 815.5 814.9 818.8 821 819.7 817.2 812.6 806.2 802.7 797 793.4 801.3 805 803.3 798.1 794.7 793.4 792 790.8 790.6 789 787.3 787.3 787.8 789.2 788.9 788.6 788.7 789 788.1 788.1 786.6 782.7 780.6 785.2 788.4 792.4 795.4 797.8 801.4 804 806.7 808.6 810.2 809.9 807.4 806.3 806 805.3 796.1 761.6 732.5 707.7 684.9 655.9 631.8 612.9 597.2 582.9 576.7 576.4 566.7 562.7 559.8 565 562.7 573.1 575 578.3 577.3 576.6 568.4 552.4 529.9 505.3 482.1 456.1 434.1 427.5 428.2 427.9 427.8 427.5 428.3 428.2 429.1 429.7 430.9 432.3 438 470.8 506.3 542.3 586.4 640.2 667.9 679 659.8 637.5 614.8 586.3 593.8 612.1 632.2 656.5 680.6 704.5 725.8 746.2 765.6 784.3 789.4 792.6 796.2 798.8 799.5 795.4 799.6 803.9 807.1 809.4 810.7 810.9 809.9 808 807.7 806.3 804.2 807.5 807.6 805 798.3 792.8 790.1 794.2 798.5 798.7 797.1 803.6 811.7 819.8 825.3 827.8 830 831.9 833.2 834.9 839.3 843.5 848.7 853.8 859.3 862.2 861.4 860.8 858.8 857.5 860.5 863.7 865.9 867.6 869.4 869.5 867.1 861.5 851.4 822 798.4 784.3 767.4 746.5 723.8
679.8 673.9 675.5 687.9 697.7 702.2 710.4 724.2 741.4 756.8 777.3 797.3 816.7 834.3 850.3 864.2 873.1 875.1 870.9 864.1 856.2 847.8 837.8 826.8 820.3 814.8 814.7 816.6 821.8 820.1 821.5 823.1 821.2 817.8 812.5 807 802.5 796.6 797.7 799.9 802.1 799.4 798 795.1 793.5 791.8 790.9 790.1 787.4 785.5 785.2 784.7 785.3 785.6 786.3 785.7 785.2 785.2 786.4 783.3 769.9 783.7 786 788 791.2 794.2 796.8 800 802.3 803.9 805.7 806.5 807.2 806 804.6 803.1 803.2 802.1 785.2 751.8 723.3 695.4 665 641.5 620.9 601.4 586.7 578.3 577.2 572 570.3 570 580.4 580.8 592.1 596.7 600.9 601.1 598.2 588.8 562.2 532.1 509.1 486.4 461.9 439.7 428.5 428.5 427.6 428.4 428.6 428.8 429 429.4 430.2 431.4 433.2 434.6 461.8 498.1 532.4 569.9 611.1 649.7 652.7 633.7 613.3 588.4 563.5 593.3 616.2 641 666.6 691.3 719 745.1 769 786.4 792.8 796.7 797.2 799.6 801.5 802.1 801.9 800.2 800.9 805.5 807.4 808.4 806.3 804.5 803.9 803 801.7 799.4 801.8 799.9 794.9 787.9 783.3 784.3 788.8 792.1 793.6 797.7 804.3 813.8 821.8 828 831.4 833.3 834.9 836.5 836.4 841.3 846.6 851.1 855.9 861.2 864.4 865.2 863.8 862.1 859.7 860.8 862.8 864.8 866.7 867.4 867.1 864.5 860.1 848.8 818.9 797.7 783.7 762.8 742.9 722.7
689.9 687.3 680.1 698 703.8 708.2 716.4 731.1 746.7 766.6 786.7 806.5 825.8 842.8 857.5 869.1 875.3 876.6 872.1 866.5 859.3 852.1 843.7 836.4 828.8 826.8 824.2 822.3 825.6 822.9 823.7 823.4 820.7 817 811.2 806.3 801.8 796.1 801.4 802.5 802.1 796.9 796.9 794.6 792.3 790.6 789 787.6 784.9 783.5 782.3 782 781.3 782.1 783 782.5 782.6 783.5 782.3 779.5 774.2 783.3 785.2 786.3 789.4 792.5 795 797.4 798.8 800.6 802.9 802.5 803.6 804 802.2 800.8 799 797.2 791.3 772.2 739.6 704.9 675.2 650 625.6 610.7 601.1 586.3 581.2 584.7 581.9 590.7 594.7 606.5 614.5 620.9 623.1 623.3 621.5 600.7 570.3 536.6 514.8 488.3 464.7 444.8 428.6 429 428.8 428.9 429.4 429.5 429.5 430 431.2 432.4 434.4 437.8 453.9 488.4 524.3 558.9 594.6 630.9 625.2 609 586.7 556.4 564.1 592.3 621.2 648.7 675.5 702.9 731.1 759.6 781.1 790.7 796.1 801.2 801.8 801.6 803.6 804 803.4 804.2 801.3 799.3 802.3 803.3 803.4 801.3 800.7 799.1 796 790.4 793.8 787.9 780.3 779.9 788.7 795.8 792.9 792.1 793.9 799.1 804.3 816.3 824.6 830 834.6 836.1 837.8 840 841.8 843.5 848.4 852.1 856.8 861.8 865 866.5 865.6 863.6 862 862.1 864 864.6 866 866.2 866.2 865.1 861.4 848.3 819.1 798.3 785.6 763.5 746.9 728.4
698.1 699.6 692.7 700.8 707.5 713.2 723.4 737.2 753.5 772.9 795.6 815.8 834.2 851 863.1 872.5 877.2 877.3 873.2 868.3 862.4 857.1 850.9 844.4 839.1 835.7 832.1 828.1 828.2 824.6 824.3 822.1 818.8 815.1 809.2 804.4 800.1 798.2 802.6 802.6 799.7 797.1 796.1 793.1 792.2 788.8 787.5 784.3 782.3 780.6 778.9 778.4 778.8 779.2 780.1 780.4 779.5 780.6 780.3 775.9 768.1 780.6 782.7 783.8 786.2 788.6 792 792.9 792.7 797.5 799.4 797.9 799.6 799.5 797.4 795.1 792.2 789.2 785.6 777 757.1 723.6 691.4 663.8 649.3 635.8 619.3 606.6 598.9 598.9 604.5 610.2 615.1 632 639.2 643.4 645 648.2 639.3 613.3 580.1 549.9 517.1 491.1 469 451.5 429.3 429 429 428.8 429.4 429.2 429.9 430.7 432 433.3 435.7 437.4 444.5 477.8 511.9 543.7 577.5 603.6 595.1 582.8 565.3 542.2 577.6 606 632.6 659.2 685.7 714.9 745.5 772.2 786.3 792.6 798.1 802.8 805 805.8 806.2 807.1 806 804.4 803.2 798.4 800.6 800.8 800.2 800.1 796.3 792.1 789.6 782.5 779.8 777.7 779.8 790.5 798.4 801.9 799 800.5 802.7 803.7 809 819.1 825.4 831.9 838.4 841.1 843.4 846.2 846.9 846.6 849.6 853.5 857.9 861.3 864.2 865.3 865.1 864.7 863.7 863.2 864.8 864.7 865.3 866.9 867.6 867.2 863 847.9 819.2 801.9 785.6 766.9 753.4 733
706.1 705.2 702.6 701.8 710.3 718.2 729 742.8 760.2 780.5 801 821.3 840.6 855.7 867.3 875.3 879.3 878.4 874.2 869.7 865.8 860.8 855.6 849.9 843.9 838.5 834.3 831.5 829.6 826.2 823.2 819.7 816.6 812.5 806.8 806.8 806.9 800.4 803.9 802.2 800.7 798.2 796.2 792.9 790 787.7 784.9 781.3 780.4 777.6 776.6 776 773.8 772.6 776.2 778.3 777.6 776.4 776.3 772.4 765.2 778.1 780.8 780.9 782.1 782.6 785.2 786.8 789.4 792.3 792.9 795.5 791.6 790.4 789.6 784.1 783.4 781.5 778 769.6 760.1 742.9 722.2 700.5 689.4 667.5 649.2 633.2 625.3 626.4 634.5 638.2 643.1 653.3 663 669.2 671.7 674.6 659.5 628 594.7 562.8 528.3 498.1 473 451.7 429.8 429.9 429.6 430.2 429.8 429.5 430.6 431.4 432.8 434.3 436.5 438.7 441.6 465 499.7 530.7 563 570.9 561 556.3 545.5 543.8 582.9 612.4 641.6 670.7 699.1 729.1 760.5 784.8 792.8 797.1 801.3 805 807.8 809.4 809 807.7 807.3 802.7 800.8 800 798.2 798.5 797.7 797.1 795.5 790.9 779.6 775 772.3 784 790.6 798.5 802.2 804 804.5 800.6 806.1 810.5 815 820.9 826.8 833 840.1 844.3 848.5 849.7 850.3 850.6 850.8 853.7 857 859.6 862.6 864.3 864.5 864.9 864.6 865 865.1 865.4 867 868.3 869.6 869.8 864.3 852.7 825.7 805.3 789.5 774.9 761.9 737.6
713.5 712.8 709.7 704.9 717.3 723.5 734.3 748.2 764.2 785.6 804.3 825.2 844.3 859.8 870.4 877 879.8 878 874.8 871 867 862.1 857 851.2 844.9 840.2 834.7 832.9 829.8 826.1 821.9 818.9 814.9 809.5 809.9 810.8 807.1 801.8 802.6 801.9 800.4 798.3 795.8 792.6 788.8 784.9 780.9 777 775.6 773.7 772.9 772.9 774.8 773.2 770.7 775 774.9 772.8 771.2 767.4 753.9 772.6 776.7 777.1 777.6 778.3 779.1 781.2 786.1 787.1 787.2 790.1 773.3 755.1 756 763.2 755.3 765.6 770 766.4 759.7 751.4 742.1 731.4 721.1 718.8 686.4 666.6 655.9 660.9 670.4 672.7 677.4 683.6 693 702.1 707.3 706.2 682.1 644.3 608.6 573.8 539.5 507.1 475.9 454.8 431.8 430.2 429.9 430.7 430.6 430.3 431.2 432.2 433.6 435.1 437.1 440.2 442.7 455.1 487.4 518.7 541.4 538.4 536.3 537.5 523.3 557.7 588 616.9 647.4 680.3 710.9 744.4 778.3 791.6 796.5 800.7 805.3 808.7 810.8 811.9 811 809.6 805.7 802.9 801.2 799.4 799.1 797.7 796.5 794.9 791.5 786.5 773.3 768.5 785.4 788.9 797 801.5 803.7 806.6 806.9 804.2 810.7 815.6 817.6 821.7 828 833.5 840.4 847.1 850.2 851.6 852.1 852.2 852.3 853.5 855.5 857.7 861.2 862.2 864.2 865.2 865.1 865.8 866.6 868.2 870.1 871.9 872.3 872.4 867 858.6 831.8 814.1 794.3 781.9 766.8 746
720.4 719.9 717.2 711.9 720.9 728 738.8 752.9 768.6 787.7 808.6 828.8 846.6 861.2 871.1 876.8 878.1 876.6 873.1 869.6 865.9 861.3 856.2 850.2 844.8 839.6 834.2 834.4 829.7 825.4 820.5 817.5 811.6 810.8 812.8 812.7 806.3 804.1 803.7 802 800.3 798 794.8 791 786.9 782 775.3 772.1 771.1 768.8 768 767.3 767.9 768.8 767.3 768.7 768.4 767 765.5 762.8 753.9 763.3 768.7 770.9 772.5 773.2 774.8 776.7 779.8 780.7 779.5 764.3 738.1 715.5 704.5 704.3 706 735.2 735.1 750.7 753 749.2 750.3 742.2 738.1 738.5 729.8 708.3 695 701 706.6 709.2 714.5 722.2 728.5 735.3 738.9 728.8 696.3 659.1 620.9 584.2 548.6 512.7 481.6 461.8 436.9 430.9 431.1 431.2 431.1 431.2 431.2 432.1 433.3 435.1 437.6 440.9 445.7 446.5 474.3 500.4 511.4 505.3 507.8 511.7 542 575 602.4 630.3 657.9 691.3 723.6 757.8 787.3 794.4 799.9 804.2 808.4 811.5 812.7 812.5 812.5 809.3 803.9 802 800.2 798.2 795.5 793.9 792.8 791.7 788.7 781.5 766.2 781.3 790 795.6 799.1 802.7 804.8 808 809.3 811.3 813.2 817.4 821.1 824.6 828.9 834.2 839.3 843.8 846.9 849.2 851 851.5 852 853.1 855.4 856.8 860.2 861.7 863 864.1 863.8 864.9 867.2 869.1 872.3 874.7 876 876 871.1 862.4 839.3 821 804.1 788.5 779.3 759.4
734 730.4 727.1 723.5 721.2 731.6 743.5 756.2 773 791.9 813.8 832 848.3 861.2 870.3 875.2 875.9 874.2 870.4 866.4 862.9 858.9 853.6 848 843.6 838 837.1 833.4 828.3 823.9 820.5 816.9 811.3 813.8 814.4 813.9 813.3 810.4 806 802.9 801.1 796.8 791.8 787.9 784 775.2 774 775.8 774.1 774.4 771.7 768.9 766.5 764.1 762.5 759.6 757.2 755.3 752.8 751.4 746 750.1 755.6 760.5 764.5 766.9 769.5 770.5 773.1 771.3 764 738.6 704.3 680.1 659.5 660.3 663.3 677.8 696.6 732.4 748.9 747.6 746.4 745.1 742.3 746.2 746.5 743.2 740.9 743.4 746 749.7 754.2 763.4 767.8 768.6 765.9 741.3 705.2 666.6 629.2 591.3 555.8 523.7 496.4 470.8 444.6 431.4 431.3 431.3 431.7 430.9 431.7 432.5 433.6 435.2 438.2 442.3 448.9 453.6 464.7 474.3 482 501.7 522.8 544.7 572.1 596.2 623.2 650.6 678.4 708.9 741 772.5 790.9 797.4 802.7 806 809.6 812 813.3 812.3 810.4 805.4 804 800.7 798.2 796.4 794.9 790.8 791.1 790.4 786.6 778 769.7 785.6 793 797.1 800.2 803.1 806.4 808 810.3 812.7 815.9 819 822 827.3 832 835.6 838.9 842.5 845.3 848.5 850.5 850.3 850.3 852.5 854.5 857 859.7 861.3 862.4 860.7 862.2 865.9 867.7 870.7 874.2 876.8 878.9 878.4 873.5 865.2 846.2 827.7 812.2 797.4 786.1 771.6
747.6 740 736.5 732.4 729.6 737.3 748.1 762.4 779 797.3 817.7 835.1 849.8 861.3 869.4 873.7 873.6 871.5 867.9 863 858.8 854.4 849.8 844.5 841.6 840.3 837.1 833 828.3 824.8 822.5 819 814.4 816.9 817.7 816.4 813.2 812.7 806.1 803.2 799 794.6 789 784.6 776.3 773.8 776.9 780.5 781.3 780.5 779.7 778.6 776.7 774.8 773.9 771.2 770.6 770.2 769.6 769.3 763.8 746.6 744.8 738.1 743.5 752.7 760.8 763.3 764.6 767.9 751.6 709.8 676.8 649.4 630.5 617.7 625.2 640.4 664.1 696.1 725.7 737.3 739 736.5 731 741.6 751.4 756.5 761.6 766.7 770.6 777.1 784.3 791.2 794 794.6 778.9 744.5 705.6 667.5 629.9 600.7 568.5 530 495.5 470.3 449 436.7 431.5 431.7 432.1 432.1 432.4 432.9 433.5 435.1 437.8 440.7 448.1 457 461.9 481.5 499.6 526.5 548.6 573.3 599.5 624.6 647.6 676.2 704.7 732.2 762.9 786.3 795.1 800.9 804.9 807.6 809.8 810.4 811.1 810.2 807.4 804.1 802.8 800.1 798.3 796 793.6 790.2 787.5 786.7 782 764.6 777.7 788.1 793.5 797.1 800 802.4 805.1 807.7 810.5 813.2 815.8 820.5 825.4 829.4 833.9 837.3 839.5 843.2 846.7 848.3 850.1 849.4 847.6 850.7 853.5 856.6 859.2 860.5 860.4 859.3 862.4 865 869.2 872.9 876.6 879.1 881.1 880.7 876.7 868.9 851.9 836.7 818.9 807.9 793 779
760.6 754.6 749 743.8 736.3 745.9 753 767.4 784 802.9 821.8 838 851.5 861.9 868.8 871.7 870.6 867.3 864.1 859.8 855 850.4 847.1 844.1 840.5 839.2 836.5 831.4 827.6 826.2 823.3 820.4 817.3 820.2 819.9 818.3 816.3 812.3 806.3 802.3 798.1 789.6 785.7 777 777.8 779.7 784 786.7 786 785.6 783.2 782.8 781 780.1 780.7 779.2 777.4 777.2 776.8 775 771.7 764.6 762.7 762 750.2 726.6 744.8 743.2 746.8 753.6 738 699.1 659.9 627.4 601.6 597.5 588.3 611.3 634 658.2 674.9 695.3 697.6 709.5 703.6 721.6 742.9 750.6 757.8 765.9 770.7 777.1 785 791.8 796.5 799.3 783.9 745 710.1 674.2 641.8 613.6 574.9 535.4 494.8 468.3 449.4 437.7 431.8 431.9 433 432.1 432.8 433.1 433.6 434.8 438.2 441 446.4 450.3 463.5 481.7 503.6 529.9 556.6 582.1 615.2 643.4 670.5 699 728 744.8 773.5 789.1 797.7 802.5 805.6 807.2 807 807.4 807.6 806.7 804.8 803.2 799.6 799 797.5 795.7 792.6 789 784.7 775.4 772.7 763.6 781.7 786.6 792.1 796.4 798.7 801.6 804.6 808.9 810.4 814.3 817.6 822.2 826.7 830.5 833.9 838.6 841.3 842.9 843.7 845.8 845.2 844 844.6 847.9 851.8 855.5 858.1 859.5 857.4 860 862.7 866.6 871.1 876.1 879.5 882.7 884.5 883.2 879.3 872 857.1 841.4 828.9 813.6 801 790.5
772.9 766.2 760.1 753.8 746.4 754.8 763.4 774.1 788.9 807.7 825.3 840.1 852.6 861.4 866.5 868.2 867.2 864.4 860.9 856 851.6 846.8 843.1 840.7 840.1 838.8 834 831.5 829.5 826.8 822.2 820.4 820.3 822.4 822.9 820.3 818 811.3 803.7 800.2 794.1 787.4 778 782.2 785.8 790.1 791.8 792.2 790.6 789.9 789 787.4 784.8 785.4 785.5 784 781.9 782.8 781.2 780.4 777.9 772.7 772.4 768.5 757.9 730.3 722.5 727.7 726.3 727.1 712.1 675.6 637.6 635.1 631.7 611.5 589.1 582 605 623.1 635.8 647.8 657.8 670.2 676.2 689.8 720.6 733.9 745.8 751.8 758.8 767.8 778.6 787.1 793.3 797 779.6 743.9 711.6 687.1 654.7 617.9 579.1 539.7 498.8 469.7 452.6 438.7 435.4 433 433.3 433.1 433.1 433.2 433.8 434.7 436.7 439.8 442.6 447.4 457.7 477.8 497.8 528.3 557.5 587.6 622.2 654.9 684.4 714.3 741.1 754.9 776 791 799.5 802 804.3 804.5 804.4 803.9 803.7 802.8 801.4 799.6 798.5 797.5 795.9 794 790.9 787.5 784.6 780.2 768.6 768.1 778.9 785.3 791.8 795.3 797.8 801.1 805 808.4 811.2 814.3 818.4 822.5 825.7 829.3 832.8 837.1 839.5 841 841.2 841 839.6 836.3 842.2 847.2 849.8 853 856.4 856.7 855 860.4 863.9 869.1 875.3 879.5 882.5 887 887.6 885.3 880.7 872.9 861.1 845.1 833.6 821 807.8 796.8
782.3 774.9 767.7 760.2 758.5 764.2 772.4 784.1 796.8 813.4 828.5 842.3 853.5 861 865.3 866 864.5 861.8 857.6 853.2 848.5 846.1 841.6 841 838.5 836.6 834.2 832.3 829.4 826.1 821.9 816.8 822.6 823.9 823.6 819.6 817 808.2 801.8 795.4 788.3 779.3 783.3 789.1 793.1 796.8 799.5 798.7 796.5 794.1 793.1 791.5 790 790.8 790.3 788.9 788.2 787.1 784.5 782.6 779 776.6 775.4 771.2 763.1 750.1 724.4 723.5 691.5 694.2 671.1 652.9 674 678.6 652.6 625.8 601.7 573.7 576.1 590.9 600.8 611.5 620.8 630.9 640.8 657.6 681.6 702.2 720.3 730.3 740.7 755.5 769.7 781.1 787.8 782.6 757.6 736.2 714.6 674.7 644.8 611.9 573.5 532.6 493.6 467.7 447.7 440.9 439.4 433 433.8 433.4 433.4 433.8 434.2 434.9 436.5 438.9 440.6 447.8 459.4 469.2 489.9 522.2 554.6 586.1 620.4 654.5 689.2 719.3 744.3 758.4 775.8 789.9 797.5 800.2 802.2 801.8 800.9 800 798.4 797 797 796.2 795 794.6 793.3 791.7 789.1 785.7 781.9 779.1 766.9 767.5 779 786.3 789.6 794.4 797.6 800.5 804.6 807.9 810.8 814.6 820.1 821.7 823.4 826.2 828.8 831.9 834.3 836.3 836.3 835.9 830.6 836.2 841.2 844.9 847.5 846.1 849 855.6 856.2 862.1 866.5 872.7 880.2 884.2 887 888.8 889.5 886.1 878.4 870.8 861.4 848.8 836.7 826.8 813.6 804.2
789.7 781.4 774.9 766.8 765.7 771.9 777.1 793.9 804.2 821.7 833.3 844.9 855.1 861.8 864.9 864.3 862.5 859 854.1 849.4 845.2 844.4 841.8 840.5 836.7 835.1 833.7 831.8 828.4 824.5 821.9 817.9 823.2 824.3 824.7 820.1 815.4 807.1 799.1 788.7 779.8 788.1 792.1 795.4 798.5 805 806.5 805.9 802.7 798.8 798.3 796.2 794.1 793.9 793.2 792.5 791.3 788.8 787.2 784.1 782.4 779.5 777.4 773.8 766.1 758 750 729.9 694 694.7 700.9 695.8 712.2 693.8 662.7 632.6 607.5 580.5 556 560.7 570 577.4 584 593.9 605.5 622.7 643.6 670 688.4 701.4 718.3 738.7 752.8 759.1 767.7 764.7 751.5 738.9 706 669.1 629.8 594.3 557.4 520 485.7 463.5 443.9 441.7 439.7 434.1 434.2 434 434.3 434.8 434.9 435 435.7 437 438.4 444.9 454.1 476.1 501.1 523.4 543.6 579 612.5 644.1 675 712.1 745.4 760.7 777.3 786 793.3 796.9 798.6 798 796.9 794.2 792.6 791.7 792.5 792.7 792.8 792.5 791.6 790.1 787.9 784.6 778.9 775.3 759.8 771.5 780.7 783.9 788.4 793.8 796.7 799.5 802.4 806.3 809.9 813.9 817.8 819.6 820.5 822 823.8 825.3 828.7 829.9 828.4 822.8 829.2 836.8 842.1 844.8 839.9 849.4 855.4 858.6 859.8 863.2 868.5 874.6 883.4 888 890.4 890.4 888.9 884 876.8 869.1 861.5 851.8 840.5 830.9 818 808.6
795.4 787.3 781 774.4 773.6 777.6 790.6 803.8 814.1 829.3 838.6 848.9 857.4 863.5 865 863.9 860.6 856.1 851.5 846.9 845.8 843.7 840.9 837.6 835.9 834.2 832.6 829.8 826.2 824.7 822.4 820.4 823 824 824.6 820 811.6 805.2 794.8 782.6 787.1 793.9 797.8 801.6 807 811.5 813.2 811.8 808.2 804.6 801.5 799.8 797.3 797.2 795.2 794.8 793.6 791.1 789.3 785.9 784 781.9 778.9 775.8 770.7 764 754.3 756.2 746.6 739.2 740 744.1 734.3 696.9 663.9 634.9 605.4 579.4 560.8 545.9 544.2 546.8 550.9 560.2 573.4 592.8 610 630.1 653.8 669.7 687.5 709.7 717.3 723.1 747.9 759.6 739.5 714.7 688.4 655.1 627.9 591 551.2 513.2 483.9 458.2 443 441.6 439.4 434.4 435.4 435.3 435.5 435.8 435.9 435.8 435.6 436 436.6 439.6 448.3 479.8 512.1 539.9 565.3 580 605 639.6 674.4 709.8 746.6 761.4 772.9 782.2 787.8 790.8 792.1 792.4 791.4 787.3 786.9 788.8 790 790.6 790.9 790.3 789.4 788.4 786.2 782.5 776.2 766.3 752.4 773.5 782.3 785.2 788.1 793.4 794.9 796.7 800 802.3 807.4 811.1 813.7 815 815.7 817 819.7 820 821.1 820.6 820.4 819.6 829 837.4 842 841 839.7 848.9 852.7 858.3 862.5 865.3 871.4 877.1 885.2 889.6 890.4 890.3 888.1 880.7 873.6 866.9 857.8 848.6 839.7 832.1 821.4 813.3
801.5 793.2 785.8 780.4 779.5 792 802.7 812.3 819.8 834.4 843.5 852.5 859.8 864.1 864.8 862.8 859.4 854.6 850 844.8 844.5 842.2 837.8 836.5 834.1 832 829.2 826.3 824.8 822.7 820.5 822.2 822.4 823.3 822.2 817.1 809.6 801.8 790 786.1 792.8 797.8 803.2 808.9 813.2 816.6 817.9 817 813.2 809.4 806.3 803.1 802.5 800.6 798.9 796.4 795.1 793 790.5 787.3 785.1 783.1 779.7 776.2 771.6 765.4 765.8 767.6 766.2 765 763.6 760.9 737.3 698.3 666 636.5 609.8 585.1 561.2 543.3 540 537.3 534.6 533.2 544.3 561.1 578.6 596.2 616.8 640.5 655.4 670.2 679.5 698.2 732.9 730.8 715 690.7 664.4 642.1 607.6 584.3 545.3 508.9 473 446.5 444.1 442 440.2 434.4 435.4 436 436.3 436.7 436.9 436.4 436 436.6 437.8 437.8 454.2 486.6 518.6 548.6 576.5 603.8 620.4 638.3 679 717.4 749.7 760.3 766.6 774.9 782 785.3 786.5 785.1 783.9 782.2 782.1 784.8 786.8 787.9 788.3 787.9 787.1 786.2 783.5 779.3 770.6 753 765.1 778.7 782.8 784.6 788.1 791.2 792.7 794.8 796.2 798.2 803.5 807.3 808.7 810.8 810.9 812.4 813.1 814.3 813.4 815.4 814.2 815.8 826.4 835 836.5 827.5 837.2 848.5 853.7 858.4 862.6 867.9 874.3 880.3 887.3 892.2 892.3 889.8 886.1 879 871.4 863.4 856 847.6 840.5 831.7 825.4 817.5
803 796.8 790.8 788.8 792.5 801.3 807.1 816.4 827.8 838.4 846.4 854.8 861 864.1 863.8 861.3 857.5 851.8 846.9 844.5 843 839.2 838 834 832 829 826.5 824.7 822.6 821.6 818.4 820.4 820.3 820 817.7 812.3 804 795.8 784 790.2 798.6 802.3 808 814 817.9 820.5 821.9 820.8 818.8 815.5 810.8 808.3 806 803.3 801.3 798.5 796.4 794.4 790.5 787.8 785.3 782.5 779.4 776.1 772.5 767.4 769.6 772.5 773.4 772.6 771.3 767.2 741.3 701.6 669.8 642 612.7 586.8 563.4 542.8 535.8 525.3 535.8 525.6 522.6 534.2 549 566.4 584.2 602.8 619.6 634.3 646.6 682.2 697.7 696.5 680.5 662.5 635 613.2 591.8 560 526.2 493.3 459.1 445.6 445.4 443.2 439.8 435.8 435.3 436 436.5 437.5 437.2 436.9 436.6 436.9 438.8 437.8 459.8 491.4 523.5 555.1 586.2 619.6 648.5 646.4 686.6 724.6 749.5 757.9 763.5 767.7 772.3 776 778.1 777.5 777.5 777 778.8 781.9 783.6 784.9 785.1 785.3 784.4 782.1 779 774.5 757.5 757.2 773.9 780.5 782.9 783.6 786 788.2 788.9 791.7 793.2 795.4 799.4 803 804.7 805.1 805.3 807 806 807.2 803.4 806.3 804.4 810.7 820 826.3 822.5 834.5 841.7 848.2 853.4 857.8 863.1 869.3 875.7 882.4 888.4 892.2 893 889.9 884.8 877.3 869.7 862.8 854.2 845.2 841.8 836.6 828.1 820.3
802.7 799.1 793.6 796.3 799.6 805.3 814.7 824.2 833.7 841.4 848.3 855 860.5 862.6 862.2 859.3 855.3 850.2 846.3 842.5 840.7 838.7 834.8 831.4 829.6 825.3 824 821.6 820 818.3 816.3 815.5 815.6 815 812.3 806.6 801.3 794.4 785.5 794.7 801.3 806.1 812.3 817.6 822 823.3 825 824.7 822.2 819.5 815.6 812.6 809.8 807.6 803.8 800.5 798 795.1 790.7 787.7 785.3 781.7 778.4 775 772.4 763.6 771.9 774.9 776.7 776.7 775.8 771.5 757.2 715.6 680 650.7 618.6 590.7 567.3 543.9 531.1 525.7 518.9 514.6 517.4 513.8 522.7 537.8 554.5 572.5 586.5 598 624.1 651.4 660.5 656 645.1 628.4 607.7 587.3 565.6 534.1 505.8 475 449.3 444.9 447.1 442.5 439.7 440.8 435.6 436.2 437.5 438.1 437.9 437.8 437.6 437.8 439.2 439 466.3 498.1 530.3 561 594.2 629.9 666.1 690.9 700.4 728.8 740.8 752.8 757.4 761.3 764.8 767.6 766.7 769.9 772.6 774.1 776.7 778.1 780.3 781.4 782.1 782.5 781.7 778.8 773.5 758.3 744.4 766.4 776 779.8 781.4 782.3 782.7 784.2 786.8 787.4 788.2 790.7 794.8 799.4 801.4 801.2 800 799.7 797 796 795.2 793.5 791.3 801 811.3 815.6 818.4 833.2 840.7 848.2 853.7 857.7 861.2 869.1 876.4 882.5 887.6 891.1 892 889.4 883.4 875.2 867 860.3 852.2 844.2 839.3 835.3 828.7 821.5
799.6 799.6 799.9 802.5 808 814.7 821.1 828.6 836.8 842.2 848.8 854.8 858.4 859.6 858.8 856.3 851.8 848.2 845.2 842.4 838.6 836.5 833.4 829.7 826.2 824.5 821.3 818.8 817.9 815.3 812.9 811.9 811.3 810.2 808.5 802.9 797 786.8 790.2 796.7 803.3 808.2 815.2 820.5 824 826 828.1 827.8 825.1 822.7 819.9 815.6 812.6 809.3 805.9 802.1 798.5 795 790.6 787.4 783.4 781.1 777.4 774.1 770.5 766 772.4 774.8 777.8 779.1 778.5 772.2 753.7 728 689.3 654.1 621 597.2 568 550.7 559.7 553.1 546.6 526 512.9 508 507.5 514.3 527.1 541.1 553.9 570.5 596.5 614.2 622 618.7 610.9 597 577.6 558.7 534.9 507 480.1 464.3 449.5 444.5 444.5 438.3 440.9 442 437.5 436.8 437.5 437.7 438.6 438.4 438.4 438.1 439.5 453 475.4 503.6 535.7 568.8 602.4 637.8 676 717.2 736.9 742.1 736.8 742.9 751 754.9 754 760.2 763.1 766.8 768.1 772 774.8 775.9 777.6 778.7 779.5 779.7 779.3 775 760.1 742 761.1 770.3 774.7 777.2 778.5 779.8 781.2 781.5 781.8 781.9 783.5 787.6 791.3 795.6 796.2 794.9 794.5 790.1 786 784.7 784.4 782 785.1 790.1 792.8 799.8 816.9 829.6 841 847.5 852.7 857.7 863.1 869.7 876.6 882.3 886.5 889 890.3 887.7 880.8 872.6 864 855.4 846.9 838.9 834.8 830 825.1 819.5
794.2 798.2 802.1 807.6 813.8 819.4 824.3 830.3 837.5 842 847.7 852.9 855.4 856.4 855.4 853 850.2 847.8 844.9 842.4 838.6 835.1 832 828.3 824.8 821.7 819.5 816 814.4 812.7 809.4 808.3 807.5 805.1 802.9 798.2 791.9 785.8 793.6 798.4 803.9 809.6 816.1 821.1 824.6 828 829.8 830.5 828 825.7 822.5 818.6 814.6 811.3 806.9 802.8 798.4 794.7 790.2 785 782.7 780.4 777.7 774.5 768.8 766.3 771.7 774.5 777 777.9 774.1 764.2 742.3 719.4 690.7 654.9 622.7 610.1 602.7 593.8 584 573.4 559.4 545.3 525.3 509.6 504.4 502.2 510.3 510.1 526.8 543.7 563.2 578.9 583.5 583.2 576.9 565.1 549.2 528.8 516 490 470 453.7 451.3 442.4 440 436.4 438.9 436.8 436.3 436.7 438.4 437.8 439 439.4 439.4 439.4 439.7 455.8 479.2 511 541.4 574 609.8 647.2 687.1 729.4 751.4 753.8 753.5 752.2 751.1 750.5 752.6 757.9 762.8 764 766.7 769.8 771.2 772.9 774.3 776.3 777 776.8 776.9 773.4 754.9 735.9 759.2 768 772.1 774.2 775.9 776.3 777.5 775.1 775.9 776.7 779.8 781.9 786.8 789.2 788.6 785.1 783.7 776.3 774.5 776.6 774.8 785.4 798.1 812.1 814.8 815.4 821.1 829.7 840.8 847.5 852.2 857.9 864.5 870.7 876.5 881.3 884.5 885.9 883.8 878.9 873.6 867 859.2 851.2 845.6 839.5 834.9 830.4 826.1 824
785.7 794.5 800.4 808.4 814.2 819.8 825.4 831.3 836.9 841.3 845.4 850.5 853.1 853.8 852.7 851.4 849.8 848.2 845.2 842.3 838.9 836 831.7 828 823.5 821 817.1 812.7 811.3 809.5 806.7 804.6 803.9 800.6 796.5 792.9 788.8 786.5 795.4 798.8 804 810.1 817.2 821.8 825.2 828.6 830.3 831.9 830 827.6 823.6 820.5 816.4 812.7 807.9 802.3 797 792.7 788.1 784.3 781.1 778.9 775.4 771.3 767.2 765 768.9 771.1 772.4 771.4 763.6 749.1 728.8 704.3 678.8 645.9 655.3 648.4 636.1 627.7 617.8 600.3 583.4 565.5 549.3 533.6 509.8 502.4 498.2 495.2 500 514.3 531 542.3 546.4 547.4 541.6 532.5 517.7 516.8 497.8 474.8 461.1 454.6 447 442.4 439.9 436.9 436.3 439.1 436.7 441.9 438.8 438.7 439.4 439.8 439.9 439.9 440.3 461.3 484.5 514.1 549.3 584.4 621.4 653.3 687.2 723.8 754.3 759 759.3 757.8 757 755.2 755.6 757.3 759.7 760.5 764.7 766.1 767.6 769.6 771.2 772.8 773.4 774.2 773.1 769.2 754.6 728.6 749.9 764.5 768.6 770.7 772.1 773 773.4 773.5 773.4 774.2 775.2 777.9 781.5 783 779.5 771.7 765.8 762.7 764.1 774.6 785.1 794.9 812.2 819 822.6 826.3 830 837 842.7 846.9 853.1 859.4 866.2 871.4 876.4 879.5 881.6 880.3 876.4 872.2 866.5 861.1 854.9 850 843.8 839.6 834.8 832.6 830.1 827.2
772.4 785 794.7 804.3 811.7 817.8 824.1 829.4 835 839.7 843.5 848.2 851.4 851.5 851.4 851.1 849.9 847.6 845.6 842.9 839.3 835.8 832.1 827.4 823.8 819.4 815.9 811.5 806.2 805.4 803.3 801.2 798.1 795.8 791.7 790.5 788.7 792.5 796.6 800.2 806.3 811.2 817.1 822.8 826.4 829.6 831.8 832.9 831.3 828.9 826 822.4 817 813.6 808 801.6 795.1 791.4 787 783.8 778.9 773.2 770.1 767.9 765.6 761.6 764.1 764.4 762.9 756.9 746.5 732.5 714.6 681.2 686.1 689.8 696.5 682.5 675.6 674.2 650.3 629.6 608.5 591.5 569.7 547.7 523.5 512.5 499.7 493.4 493.5 492.9 501.2 508.1 512.5 513.4 513.2 506.2 497.3 490.6 475.9 461.9 460.7 455.7 446.4 444.2 439.9 437.3 438.3 441.5 441.4 443.4 439.8 439.2 440.5 440.5 440.8 441.1 443.3 460.9 483.8 517.2 550.7 586 624.5 661.6 699.9 734.3 758.5 761.9 762.7 761.8 760 759.5 759.2 758.3 759.7 759.7 761.7 762.8 765.5 766.9 767.2 769.2 770.5 771 770 767.2 756.2 729.8 738.6 757.3 764.4 765.4 768 770.1 769.2 767.3 768.5 770.3 771.6 774.3 777 776.8 771.2 751.1 765.9 772 779.5 788.7 801.4 807.5 814.9 821.2 825.8 830.8 836.1 840.4 845.5 849.9 854.5 861.2 866.4 870.3 875.1 877.3 877.5 874.6 870.5 867.3 863 857.1 852.7 849.4 844.2 841.7 838.9 835 830.5 825.6
757.1 771.5 784.5 794.8 804.4 812.6 820.4 826.4 832 837.4 841.6 846 849.5 849.7 849.8 849.9 849.1 847.8 846.2 843.4 839.3 835.6 832.2 827.6 823.8 819.5 816.3 813.5 810.2 807.6 805.4 798.2 796.2 793.6 791.7 795.4 789.9 793.8 797.5 801.6 806 812.1 816.7 822.1 825.5 829.6 832.3 832.9 831.9 829.6 826.4 822.3 817.3 812.4 806.2 799.6 794.4 790 785.4 780.8 773.4 769.7 767.1 763.3 758.4 756.6 752.4 753.3 746.3 737.9 726.6 708.9 692 703.5 720.2 733.1 734.9 723.2 729.7 703 670.5 645.5 623.3 601.1 577.8 561 541.7 526.3 515.5 508.9 500.4 492.2 483 485.1 484.9 488.8 491.7 488.2 482.1 471.7 463.8 459.2 454.9 451.2 445.5 443.2 442 437.9 438.1 440 443.2 444.3 440.1 440.4 441.1 441.2 440.9 441.8 447.1 465 486.4 518.7 555.1 593.2 634.2 671.9 708 748 761.2 764.1 764.5 764.1 763.2 761.8 760.4 759.7 759 759.5 760 759.9 762.9 763 764.8 766.7 766.8 767.6 766.4 763 753.8 728.1 730.9 749.4 758.1 762.7 764.4 766.5 766.9 761 765.6 766.1 768.8 768.6 767.7 762.9 751.4 753 767.8 778.2 787.8 793.6 803.8 810.8 817.4 823 828.4 832.6 837.4 842.5 845.9 850.3 856.4 861.4 866.2 869.6 873.5 873.7 872.9 870.7 867.8 865.3 861.2 854.8 849.7 847.3 844.4 841.4 838.4 834 832.1 826.3
738.9 754.3 768.7 780.3 791.1 803.5 814.4 822.5 828.8 834.3 839.1 844.3 847.4 848.6 849.3 849.1 849.3 848.2 846.3 843.1 839.6 836.3 832.8 828.3 824.2 820.2 817.5 814.1 812.4 810 806.5 800.1 798.3 794.2 792.3 796.7 791.8 793.8 798.7 802.5 807.8 812.9 817.4 821.4 824.2 828.4 830.6 832.2 831.4 828.6 825.4 821.6 816.5 810.1 804.7 798.7 793.8 788.5 782.7 776.2 771 764.7 762.1 757.1 754.3 748.3 737.7 735.3 724.8 713.9 709 704.5 717.4 729.5 739.7 755.3 763.6 760.6 739.1 706.6 673.4 646.1 627.3 612 595.9 580.6 566.9 553.1 540.7 524.9 511.7 499.7 491.5 482.1 471.1 472.6 475.6 475.1 472.5 469.5 470.8 461.8 452.3 448.5 444.8 443.8 442.9 440.3 439.3 438.7 444.7 445.1 441.1 441 441.9 441.9 442.3 442 452.3 470.3 493.9 524.8 559.6 597.1 642.7 681.6 716.7 752.3 762 765.3 765.1 764.4 763.7 761.4 759.9 759 757.9 758 758.3 758.7 758.5 759.9 761.1 762.1 763.8 763 761.9 759.5 753.5 726.6 725.6 744.5 754.4 758.1 759.4 761.7 761.1 756.6 760.3 754.7 760.8 746 742.2 739.8 756.7 773.5 778.8 778.7 787.6 796.3 804.7 810.8 817.6 822.8 828.3 833.4 838.3 843.2 847.9 852.7 857.6 861.9 865.6 868.8 870.9 871 869.5 867.3 865.5 863.4 858 854.4 849.1 847.1 844.4 840.7 837.8 835.1 830.7 825.8
718.1 734.1 748.8 760.6 777.4 795.3 808.3 816.9 824.4 832 837.7 843.1 845.9 847.6 848.5 848.9 848.5 847.4 845.7 842.6 839.5 835.7 833.4 828.7 825.3 820.8 817.3 816.1 814 811.1 805.6 799.9 799.7 794.8 793.3 797.1 796.5 789.2 799.7 802.6 808.8 814.1 817.6 820.5 824.3 827 829 829.8 828.7 827.3 825 820.3 815.2 808.8 804.3 798.4 793.6 788.9 783.1 776.4 771.3 763.7 760.6 756.2 749.6 744.1 735.9 724.1 725.6 726.5 733.2 735.3 732.7 742.2 754.8 764.7 770.7 761.1 739.6 708.4 679.3 654.2 638.2 624.9 608.7 600 583.5 569 554.6 540.1 526.2 510.8 497.6 489.4 479.1 468 467 471.8 473.5 469.9 464.7 459.1 449.6 447.4 445.7 444.1 442.4 442.2 440.2 439.9 443.8 445.6 444.9 442 442.6 442.4 442.3 442.2 456.1 480.5 505 530.2 564.1 601.3 636.4 678.5 717.1 750.7 761.5 763.7 763.1 762.4 758.9 757.7 757 754.9 755.1 754.3 754 755.4 755.9 755.9 756.7 757.5 758.5 758 757.8 755.4 749.9 726.8 719 737.1 746.3 751.3 753.3 756.5 754.4 748.1 747.5 740.1 740.4 727.4 745.9 758.5 771.5 776.4 777.9 786.3 788.5 793.9 802.4 809.1 816.9 822.7 828 834.2 838.7 844.7 849.2 854 857 861.1 864.4 866.2 867.3 867.2 866.8 865.2 862.5 858.1 855.1 853.6 849.4 846.5 843.8 840 836.4 832.9 828.6 826.8
693.9 711.8 727.2 750.9 770.3 789.1 802.9 812.8 821.8 829.5 836.5 842.6 845 846.4 847.2 847.1 846.6 845.1 843.5 840.9 839 835 833.3 828.8 825.2 822.3 819.6 816.6 815.1 812.3 808.3 801.4 798.4 795.8 798.6 799.2 797.6 789.7 799.2 803.4 809.4 814.8 818.4 820.7 823.6 826.3 828.1 828 827.4 826.5 823.1 819.3 814.7 810.4 804.8 800.3 795.9 791.3 784.3 778.1 771.2 764.7 758.4 750.5 737.8 732.4 731.7 726.3 739.7 742.7 747.3 741.4 743.2 751.3 762.1 770.8 771.4 761.8 744.7 714.1 686.1 666.7 651.5 641.5 635.1 618.3 595.2 578.3 562.5 545.8 534 523.5 510.1 497.7 486.5 477.9 463.9 463.8 466.1 468.2 454.2 451.7 449.8 447.9 446.1 444.6 444.8 440.3 439.6 442.2 445.1 447.4 445.6 442.2 443.4 443.2 443.2 443.2 457.8 482.9 503 538.2 574 609.7 649 689 725.4 747.7 757 757.3 756.6 754.8 752.4 748.8 752 751.3 750.8 750.5 748.9 749.3 750.1 750.4 750.7 752.6 751.8 751.3 752.6 751.4 748.4 736.2 706.4 711.5 719.7 728.3 739 749.6 739 723.8 721.9 719.2 733.3 743.4 762.8 770.3 774.6 776 780.9 786.8 790.9 795.6 801.1 806.1 814.7 821.2 828.6 834.5 841.2 845.9 849.3 851.5 855.3 859.4 861.5 863.2 864.1 863 862.5 862.4 859.1 855.8 853.8 851.5 848.8 845.7 842.6 838.6 834.7 832 828.2 825.6
673.5 702.4 726 746.2 763.7 785.1 798.6 809.1 820.6 830.1 837.2 842.3 844 845.3 845.5 845.1 844.4 842.4 841.2 840.4 837.6 835.2 833.6 830.3 827.8 823.7 822.1 818.5 816 813 809 803.4 800.3 799.1 801.6 799.9 799.4 798.8 792.9 803.9 809.3 815.4 818.2 820.9 823.3 825.6 826.9 827.9 827.6 825.8 822.2 819 814.9 811.5 807.1 801.6 797.3 791.5 784.6 777 768.9 760.4 750.1 739.4 746.6 742.5 730.5 736.3 748.8 750.9 750.9 749.4 747.1 757.6 767 773.6 772 767.7 753.5 723.3 695.8 677.7 670.9 659.6 647 635 612.5 588.7 571.7 549.8 536.6 527.1 516.6 506.2 493.7 483.4 475 459.3 459.9 457 454.6 452.3 450.1 448.4 445.9 444.2 441.4 445.5 447.9 448.3 446.7 447.6 442.9 442.6 444.1 444.3 444.5 444.7 462.4 485.2 510.2 543.1 578.3 622.7 668.8 702.5 721.8 737.5 743.3 743.3 745.5 746.4 742.9 744.5 746.5 746.3 745.6 743.7 738.3 737.4 736.3 738.4 738.7 740.3 742.2 747.2 746.7 748.2 746.3 740.2 735.5 720.2 693 699.4 729 728.5 711.1 706.6 729.6 738.2 753.9 761.2 766.1 768.6 776.7 779.5 783 787.9 793.6 798.4 803.9 810.5 816.7 824.9 830.9 835.5 839.9 844 846 847.8 850.9 856 859.6 861.2 861.2 860.4 859.9 858.7 856.8 855.2 852.3 850.3 848.1 844.1 841.3 836.7 833 829.8 827.4 824.4
665.9 690.8 719.4 740.4 759.4 779.7 795.9 808.6 822.6 833.5 839.6 841.7 842.5 843.6 843.7 843.4 842.1 841.4 840.6 838.5 837 834.5 832.9 830.2 828.9 825.9 822.2 818.9 816.1 813.2 808.6 803 803.8 804.3 803.3 802.5 801.6 801.5 791.3 804.3 809.4 815.5 818.3 821 823.1 824.2 825.9 827.1 826.4 824.7 822.1 819.3 815.7 811.4 807.1 802 797.1 790.4 781.5 773.4 765.3 745.9 747.2 752.9 750.2 739.1 736.2 743.2 753.4 756.6 757.2 757.2 752.5 760.6 768.7 774.3 775.9 774.6 761.4 736.9 723.4 705 693.8 682.5 664.8 649.8 632.7 609.9 583.5 560.5 539.4 527.9 518 502.7 491.2 483.5 477.4 457.9 458.4 456.2 453.7 451.4 450 449 444.9 442.8 446.2 451.5 452.8 451.4 449.7 447 443.5 444 445.1 444.3 444.4 448.2 468 489.8 519.5 554.7 585.9 630.6 673.6 708.1 718.8 726.3 721 734.3 735.8 738.3 736.4 736.2 737.3 737.1 732.2 733.1 738.8 742.4 745.2 746.8 749.6 751.2 747.3 743.5 749.2 748.9 747.4 747.2 742.9 732.3 716.4 685.5 703.6 700.1 699.9 722.2 741.5 750.1 757.3 762.7 765.7 771.9 775.2 777.1 784.2 784.6 793.6 797.8 805.5 813 819.8 826.9 832.5 837.3 838.1 840.2 841.8 844.2 848.1 853.3 856.8 857.6 857.4 856.7 856.4 855.2 854.8 853 850.8 848.2 845.3 842.3 838.4 834.3 830.6 827.1 824.6 822.7
656.1 681 707.2 728.4 744.6 766.4 791.1 809.9 824.3 834.9 838.9 838.5 839.4 840.6 841.1 840.5 839.5 838.7 837.7 836.2 834.4 832.4 831.2 830 828.6 825.9 822.3 818 815.3 812.1 805.6 807.8 807.6 800.4 805.4 804.8 804.4 803.7 791.5 803.8 808.8 814.9 818.5 820.6 823.2 825.2 825.9 826.8 824.4 823.8 821.9 818.9 815.4 811.2 806.6 800.3 794.2 787.9 776.6 766.4 752.3 763.9 761.9 760.9 755.5 751.8 742.6 750 758.2 762.3 762.6 761.9 760.3 762.6 769.6 774.2 778.4 785.1 783.7 770.6 756 740.4 729 708.8 686.6 664 648.2 628.4 602.8 572.7 547.9 528.5 517.2 505.6 494.3 481.5 468.9 456.4 455.2 453.4 451.8 450.5 450.5 450.2 444.9 442.1 441.8 452.1 454 453.1 451.4 450.1 445 444.4 445 445.3 446.4 446.6 471.9 498.3 530.8 566.6 603.1 643.8 686.9 703.8 706.1 712.9 720.3 725.3 728.1 727.5 727.2 725.6 720.1 719.8 734.7 741.3 744.4 746.3 749 749.9 752 752.8 751.4 751 749.8 748.9 748.3 747.4 745.1 739.6 724.2 691.1 679.7 687.9 709.7 731 744.4 752.2 758.4 762.3 766.4 770.1 774.9 780.3 783.9 787 794.9 799.5 806.8 814.1 821.5 827.3 833.1 836.5 836.5 836.9 838.6 841.4 844.4 849.9 852.5 853.1 853.1 852.8 853.1 852.7 851.1 849.9 847.5 844.9 843.2 839.5 836.9 832.4 828.7 825.3 823.1 822.2
638 664.3 689.4 705.4 730.6 757.7 784.1 807.9 823.4 831.9 834.9 834.4 835.4 837.6 838.4 838.4 837.3 836.7 835.3 833.9 832.3 830.7 829.8 828.9 826.4 823.7 819.1 816 812.2 812.4 813 813 811.7 800.9 807.9 806.9 806.7 806.2 796.9 802.7 809.2 814.6 818 820 823.2 825.1 825.7 825.8 824 822.9 821.3 818.3 815.5 809.6 803.6 797.6 791.6 781 770.1 754.5 768.7 771 766.7 763.8 755.9 759.7 750.4 755.9 763.2 766.8 767.8 765.7 769.1 769.9 773.5 775.4 781.1 790.5 796.3 800 791.6 778.9 764.6 736.1 711 686.9 662.2 641.2 611.9 578.4 551.9 531 515.9 501.6 488.3 475.2 457.7 453.7 452.8 452.3 450.6 449.7 449.3 450.1 448.1 445.3 441.7 451.3 451.3 450.9 452.2 450.7 449 445.1 446.2 446 448.1 450.7 472.6 506.8 542 577.8 614.7 659 696.9 698.4 705.5 707.2 713.1 708.1 698.8 705 699.4 696 721.5 734.9 739.4 744.8 748.2 749.8 752.1 753.2 754.1 755.4 755 752.1 751.4 749.9 749.7 748.4 745.1 737.1 713.9 685.6 685.7 715 726 719.5 735.4 750 757.5 761.1 763.9 769.9 772.6 778.7 781.1 786 793.2 800.6 808.1 815.7 823.1 828.5 832.4 833.2 833 833.5 833.9 837.8 841.5 847.2 848.3 847.4 847 848.3 848.9 848.6 847.3 845.7 844 842.2 839.4 836.7 833.5 830.7 826.3 823.3 819.6 818.5
619.9 643.9 664.9 691.7 718.4 744.9 770.5 794 811.8 822.1 827.5 828.4 830.5 832.3 833.6 834.7 834.8 833.9 831.6 830.4 828.4 827.8 826.7 825.8 822.8 819.4 813.8 817.2 816.9 814.6 815.4 815.1 813 809.4 809.4 808 808.8 808.3 805.4 796.5 810.7 814.8 817.6 820.3 822.8 824 824.5 824.8 823.2 821.9 820 816.7 812.2 807.5 800.9 794.1 784.5 771.9 755.8 768.9 774.9 771.9 768.4 771.2 771.8 768 754.2 761.4 769.2 771.8 773.7 774 777.4 777.5 779.1 781.4 785 790.4 796.8 802.9 807.7 807.6 790.2 761.2 736.5 710.7 683.4 652.2 618.3 584.9 554.8 530.5 513.4 495.5 481.1 461.5 451.7 452 451 450 449.2 448.5 447.5 447.2 445.4 442.9 440.7 448.2 450.7 452.7 452.7 451 450 445.8 447.1 447.2 448.4 454.3 477.7 512.1 549.1 592.8 631.9 674.2 696.2 692.3 695.9 700.1 693.6 677.9 660.7 677.1 696.7 715.5 730.3 737.9 743.6 747.7 750.6 752.9 753.6 754.7 755.7 756.5 756.7 755.2 754.4 752.8 751.7 749.3 744.4 727.4 701 673 688.6 722.1 735.9 743.9 744.9 749 749.7 760.2 765 768.8 772.8 777.1 783.2 786.3 792.8 800.9 810 818 824.1 829.4 831.8 831.3 830.3 827.3 831.9 834.6 837.8 841.8 843 841.7 841.3 842.2 843.3 843 842.5 842.1 840.7 839.2 835.9 833.5 830.8 827.2 824.3 820.7 817.5 814.9
603.4 630.5 655.1 677.4 701.3 723.1 748.9 765.6 783.2 788.1 813 823.8 827 829 829.9 831 831.2 830.1 828.8 827.1 824.4 821 820.6 818.9 817.4 821.6 821.7 820 819.6 819.1 817.7 816.7 811.2 811.7 810.5 809.5 810.3 810 808.8 795.8 810.7 813.7 816.2 818.9 821.2 821.8 822.1 821.9 820.7 819.6 816.7 813.9 809.6 804 795.1 786.5 773.1 760.1 772.4 776.8 779.1 781.6 779.2 777.5 776.5 772.4 763.3 765.4 773.1 776.7 780.1 781.9 782.8 783.2 782.8 784.4 786.1 789.1 795.1 800.9 804.4 796.4 786.7 774.7 750.2 722.2 688.7 652.8 616.3 580.5 546 525.5 504.3 486.2 468.6 449.7 449.3 450.1 449.8 448.5 448 446.3 446 445.2 444.5 442.5 442.2 442.9 444.6 452.9 452.5 448.4 451.5 447.4 447.6 447.9 449.5 454.6 476.3 512.9 558.4 597.1 634.3 660.8 669.3 661.4 665.2 665.5 660.8 645.6 674 701.8 717 725.5 733.5 740.3 745.2 748.7 751.3 753.4 755.3 756.8 757.3 758.2 757.6 757.2 755.6 754.7 752.8 749 734.8 708.8 666.1 657.8 704.5 727.9 742 746.6 751.3 754 757.7 757.2 762.2 768 770.8 776 779.1 784 792.5 801.5 810.7 817.5 824 827 827.6 827.2 824.4 821.9 829 831.9 833.9 836.1 834.6 833.2 833.2 836.2 837.2 838.2 837.6 836.9 836.2 833.4 831.9 829.2 825.8 823.4 819 812.4 813.4 812.4
594.4 613.9 638.6 658.2 679.5 703.1 721.7 738.3 744.6 769.7 805.4 818.3 823.5 825.2 826.8 828.3 828.3 826.2 824.5 822.9 821.8 824.8 825.4 825.4 825.7 825 824.6 822 821.6 820.9 818.1 817.7 808.1 812.6 811.7 811.6 811.5 811.4 809 795.8 810.9 813.4 815.5 817.6 818.8 819.7 819.6 818.5 817.1 814.9 812.8 809.2 804.9 799.3 792.4 776.9 761.2 771 779.4 785.1 788.3 787.4 785.5 783.3 779.3 775.2 768.7 769 776.7 780.6 785.7 787.5 787.9 787 785.4 784.6 785.5 787.8 792.3 796.9 797.7 793 781.1 771 744.5 713.1 677 642 604.6 565.9 536.5 512.8 492.6 473.2 457.9 446.9 447.5 447.8 447.3 447.1 446.9 446.4 445.6 444.4 443.6 443.3 445.4 448.9 447.3 448.6 448.7 448.8 452.6 453.2 448.2 448.6 451 451 477.6 513.1 547.7 584.4 611.7 630.9 637.8 633.6 630.2 627.9 615.5 646.5 681 711.3 724.7 731.7 736.4 741.3 745.2 748.4 751.6 754 756.3 758 758 758.7 759 758 756.1 753.4 749.3 737.6 712.4 683.8 650.3 669.3 710.8 735.1 747.3 748.4 751.6 757.1 760 762.9 763 765.3 770.1 774.1 779.4 787.1 789.2 800.7 809.7 818.1 822.1 822.8 821.3 819.9 818.3 819.3 823.2 824.3 827.7 827 826.1 825.3 826.3 829.5 831.1 831.2 831.4 831.9 831 828.4 825.1 824.1 820.6 815.9 812.2 811.9 812 809.2
596.5 605.8 618.2 639.4 659.6 681.7 700.5 701.4 727.6 763.2 801.2 814 818.6 821.6 824.2 824.8 826.2 827.1 827.3 827.8 827.5 827.7 828 827.9 827.5 828.2 826.3 824.1 823.2 821.6 818.6 817.7 808.7 813.2 813.3 813.6 813.1 812.2 803.2 799.3 809.2 811.8 813.9 815.3 816.1 816.8 816.2 815.1 813.2 810.9 807.3 802.1 799 794.1 782.5 765.2 771.8 781 788.9 792.9 793.2 791.8 789.8 786.9 782.6 776.5 769.4 772.4 780.4 786 790 791.3 790.2 789.1 786.5 784 783.6 785.3 788 790.2 788.7 784.4 775 754.6 725.7 697.2 662.1 624.2 587.2 552.5 522.3 498.7 475.2 460.6 446 445 445.7 445.7 445.8 445.7 445.7 445.4 445.5 444.1 443.8 451.7 454.3 454.6 453.6 454.4 453.6 451.7 453 453.3 448.4 449.9 452.1 450.8 468.4 500.9 533.5 561.5 581.3 597.8 605.4 600.7 590.2 585.9 628.9 661.7 692.1 717.4 728.1 736.7 741.5 744.1 747 749.8 752.3 754.1 756.1 757.7 757.8 758.3 757.8 756.4 752.5 745.5 731.6 715 690.3 660.7 639.1 676.9 715.1 742.3 750.1 754.5 749.8 759 763.4 766.6 767.8 768.2 769.3 773.7 778.4 786 789.5 798.8 806.9 811.8 815.6 815.7 816 816 813.8 815.3 817 818.1 819.2 818.3 816.6 816.6 819.9 821.6 822.2 822.2 824.5 825 824.5 821.5 820 816.9 809.7 809.6 811.8 810.7 809 804.1
593.4 606.6 615.4 628.4 644.6 661.9 671.9 698.1 722.7 763.3 793.8 804.9 811.4 819.3 823.7 826.8 829 829.9 829.7 830.4 830 829.8 830.6 830.8 831 830.5 827.5 825.1 823.9 822.3 820.2 817.9 809.4 814.5 814.8 814.6 813.8 812.2 801.7 796.7 803.5 810.4 811.4 812.1 813.1 813.1 811.8 810.1 807.5 804.6 798.5 794.3 789 781.5 765.8 775.7 784.1 790 795.5 797.6 797.3 795.5 793 789.6 784.2 778 773.2 777.5 786.1 791.1 794.4 795.5 793.5 791.5 789.3 785.2 782.8 780.4 781.3 779.8 774.6 768.6 756.6 735.7 702.4 670.7 640.1 605.6 572.6 541 511.9 485 468.1 451.3 444.9 444.9 445.7 445.3 444.8 445 445.2 445 444.7 444.1 451 460.5 459.6 462.2 464.2 463.6 461 455.8 453 451.2 449.8 449.1 452.4 452.8 456.3 487.1 515.4 537.4 554.7 570.6 580.7 567.9 576.3 607.4 640.8 669.5 697.6 714.3 729 737 742.4 745.5 747.7 750.6 752.4 753.7 754.6 755.5 756.2 756.3 753.1 748.4 734.6 719 705 690.5 666.9 637.1 648.9 693.1 726.2 746.9 756.7 758.6 751.3 761.1 765 769.2 770.6 773.1 771.9 770.2 777.1 781.8 788.8 794.3 799.3 805.9 809.4 810.8 812.5 812.3 810 811.3 811 811.2 811.9 810.2 807.7 808.5 811.9 811.9 812.3 811.6 813.1 815.9 816.1 815 813.9 808.1 811.7 809 809.4 807.8 806.4 801.8
603 613.6 620.1 630.6 641.3 656.3 679.4 701.5 726.2 761.7 790.8 804.5 812.6 820.4 826.2 828.6 830.2 831.5 832.9 832.1 831.9 832 832.1 831.3 831.1 830.5 828.1 824.9 824.9 823 820.9 818.4 809.7 816.1 815.9 815 813.8 810.6 809 802.9 797.7 806.3 808.6 808.7 809 808.2 806.8 802.9 798.2 791.4 789.4 785.2 779.7 766.8 779.1 788.6 792 795.4 799.5 800.7 799.8 798.2 794.8 790.3 783.9 777 781 785.2 792.4 795.9 798.5 799.4 797 794.9 791.1 785.7 783.1 779 769.2 767.3 753.1 739.4 723.1 710.1 682.2 651 619.1 587.8 556 526.5 499.6 477.3 456.3 447.2 442.5 442.5 442.5 443.3 443.6 442.5 442.5 442.5 442.9 454.7 463.4 469.9 479.3 481 483.2 483.2 472.6 465.7 459.3 453.3 450.6 450.3 451.5 450.9 453.2 468.2 492.2 510 526.1 540.6 551.2 547.6 578.1 609.2 636.9 667.7 693.7 714 726.9 735.4 741 743.8 746.9 750.1 751.2 752.2 752.9 753.1 752.5 747.7 734 723.6 710.5 690 675.1 663.5 648.6 625.9 666.8 701 735.7 753.6 763.6 763.6 753.5 763.2 769.5 771.8 774.9 777.7 777.2 777.5 771.7 781.8 784.1 791.4 796.6 801.4 805.1 807.5 806.3 804.6 802 804 803.5 803.1 802.2 801.3 799.1 795 799.2 800.6 805.4 801.6 804.9 805.6 807.4 806.6 809 813.6 811.4 809.1 806.5 805.1 802.8 797.4
