ncols 200
nrows 90
xllcorner 170000
yllcorner 680350
cellsize 50
-0.3 -0.3 -0.3 -0.3 -0.3 -0.3 -0.3 -0.3 -0.3 -0.3 -0.3 -0.3 -0.3 -0.3 -0.3 -0.3 -0.3 -0.3 -0.3 -0.3 2.1 12.1 37.1 52.8 65.5 58.8 54.6 50.4 56.7 70 86.2 98.4 96.8 95.6 76 54.7 46.6 45.5 49 47.3 60.7 63.8 57.1 54.5 42.5 34.2 23.7 16.7 7.5 8 12.4 11.4 2.8 8.9 10.8 -0.3 -0.3 -0.3 -0.3 -0.3 -0.3 5.8 18.4 28.7 27.3 22.9 21.1 21.4 18.8 19.6 19.2 22.6 23.9 20.9 5.5 3.5 -0.3 -0.3 -0.3 -0.3 -0.3 -0.3 -0.3 -0.3 -0.3 -0.3 -0.3 -0.3 -0.3 -0.3 -0.3 -0.3 -0.3 -0.3 -0.3 -0.3 -0.3 -0.3 -0.3 -0.3 -0.3 -0.3 -0.3 -0.3 -0.3 -0.3 -0.3 -0.3 -0.3 -0.3 7.6 16.5 24.2 28.5 32.2 34.3 47 59 64.2 74.5 82.2 86 87.5 93.4 100.9 106.8 108.2 114.9 122.6 134.1 142.4 150.6 160.1 165.9 165.2 167.9 177.9 188.1 186.6 177.8 173.1 168.1 163.3 160.4 159.7 157.6 155.6 152.6 149.9 149.6 150.7 150.4 148.9 150 148.1 145.3 142.2 129.1 130.8 125 132.3 148.3 160 166.8 169.1 159.8 160.5 157.2 156.5 157.2 161.5 167.1 173.3 182.8 189.8 199.7 208.4 214.9 207.6 207.2 204 202.5 200.9 197.7 199.9 202.8 208.4 215.3 223.6 233.9 249.8 281.7 288.4 292 286.1 281.8 283.1 282.1 262.6 259.6
-0.3 -0.3 -0.3 -0.3 -0.3 -0.3 -0.3 -0.3 -0.3 -0.3 -0.3 -0.3 -0.3 -0.3 -0.3 -0.3 -0.3 -0.3 -0.3 -0.3 1.3 25.4 40.4 56.5 60.3 54.8 56.2 51 56.1 73 89.4 101.3 97.2 86.4 66.2 51.8 45.5 45.5 48 49.3 61.2 58.3 59.6 48.5 41.9 28.3 19 10.9 4.8 5.7 6.4 3.3 2.9 9.2 8.8 -0.3 -0.3 -0.3 -0.3 -0.3 5.4 15.5 32.8 30.8 22.9 23.3 26.5 26.8 17.7 18.3 20.6 26.3 23.1 9 3.2 -0.3 -0.3 -0.3 -0.3 -0.3 -0.3 -0.3 -0.3 -0.3 -0.3 -0.3 -0.3 -0.3 -0.3 -0.3 -0.3 -0.3 -0.3 -0.3 -0.3 -0.3 -0.3 -0.3 -0.3 -0.3 -0.3 -0.3 -0.3 -0.3 -0.3 -0.3 -0.3 -0.3 -0.3 -0.3 13.3 18.9 23.6 27.7 33.2 40 50.9 60.2 73.4 85.2 92.9 99 103.3 106.3 114.4 117.4 122.5 129.4 134.5 144.9 155.6 161.8 169.4 175.6 174 185.9 199.9 205 195.8 192.5 188.9 181.9 175.9 174.1 176.3 177.2 178.3 175.3 168.4 168.8 170.7 170.7 169.9 170.9 167 162 154.8 150.8 148 147 145.6 144 143.6 149.3 152.3 152.9 152.4 151.6 153.7 159.9 167.3 178.8 182.8 191.7 200.7 204.5 202.7 199.6 195.5 193.5 195.3 195.2 194.1 197.1 201.2 206.4 214.3 224.1 237 250.1 278.3 284.9 287.2 284.6 279 277.3 279.8 268.5 255.8 254.7
-0.3 -0.3 -0.3 -0.3 -0.3 -0.3 -0.3 -0.3 -0.3 -0.3 -0.3 -0.3 -0.3 -0.3 -0.3 -0.3 -0.3 -0.3 -0.3 -0.3 7.3 28.2 49.3 63.9 54.7 55.3 71.2 53.7 56.2 72.4 95.4 110 94.4 74.1 61.2 50 45.6 44.6 44.5 56.6 57 58.6 52.8 47.6 39.6 19.3 22.1 6.8 2.7 3.1 2.3 1.5 4.8 8 4.7 -0.3 -0.3 -0.3 -0.3 16.6 23.7 26.1 32.3 22.5 22.3 24 30.3 17.8 17.4 20.4 28.2 27.7 20.1 4 1.7 -0.3 -0.3 -0.3 -0.3 -0.3 -0.3 -0.3 -0.3 -0.3 -0.3 -0.3 -0.3 -0.3 -0.3 -0.3 -0.3 -0.3 -0.3 -0.3 -0.3 -0.3 -0.3 -0.3 -0.3 -0.3 -0.3 -0.3 -0.3 -0.3 -0.3 -0.3 -0.3 -0.3 -0.3 7.7 15 19.3 25 30.8 38.1 49.8 58.2 70.7 86.7 101.9 108.1 113 118.4 121.6 127.4 129.6 141.6 146.6 149.1 156.8 163.7 171.8 179.7 183.4 190.5 204.8 215.7 210.8 205 201.5 196.3 190.8 185.8 184.7 187.4 192.5 188.7 186.4 182.7 184.5 186.5 186.9 186.9 189.5 190.2 187.1 180.5 163.4 157.4 156.9 153.6 151.8 151.2 154.9 150.8 150.8 150.8 152.7 160.7 169.3 177.6 191.7 197.1 199.9 197.6 192.3 190.2 189.8 189.5 191.1 191.7 192.5 195.1 197.8 202.8 210 219.2 230.7 242.9 262 275.7 277.5 277.4 275.6 270.4 271.1 268.4 251.9 248.4 246
-0.3 -0.3 -0.3 -0.3 -0.3 -0.3 -0.3 -0.3 -0.3 -0.3 -0.3 -0.3 -0.3 -0.3 -0.3 -0.3 -0.3 -0.3 -0.3 -0.3 17.2 31.5 52.2 53.6 58.6 67.2 79.4 53.5 57.7 70.3 101 103.7 86.3 67 58.3 50 44.8 44.4 46.2 55.9 58.5 55 49.7 46.5 32.4 14.1 20.6 2.9 1.3 1 1.3 2 2.1 5.9 -0.3 -0.3 -0.3 -0.3 3.6 19.7 29.5 35.7 24.3 22.5 23 32.1 20.9 17.6 20.8 25.7 31.5 29.7 8.9 4.6 1.4 -0.3 -0.3 -0.3 -0.3 -0.3 -0.3 -0.3 -0.3 -0.3 -0.3 -0.3 -0.3 -0.3 -0.3 -0.3 -0.3 -0.3 -0.3 -0.3 -0.3 -0.3 -0.3 -0.3 -0.3 -0.3 -0.3 -0.3 -0.3 -0.3 -0.3 -0.3 -0.3 -0.3 8.3 15 17.3 23.5 29.7 36.6 47.7 58.6 64.8 85 103.4 112.6 117.1 126.9 135 140.5 139.6 151.8 157.3 159.2 158.9 163.6 171.9 179.5 187.3 193.3 207.1 218.1 224.9 214.3 211.8 206.4 201.3 196.7 193.6 193.1 196.2 195.3 192.7 190.2 191.8 194.3 197.8 200.5 202.6 205.2 208.6 208.6 207.7 192.4 175.2 165.8 162.5 156.1 158.2 161.3 157.9 151.4 152.3 157.3 168.6 179 187.2 188.4 189.3 189.7 185.6 182.2 183 185.3 188.7 190.5 191.3 193.1 194.8 197.4 202.3 211.6 220.7 232.1 245.1 255.7 261.4 264.9 263.7 261.4 260.7 258.5 252 244.1 241.5 242
-0.3 -0.3 -0.3 -0.3 -0.3 -0.3 -0.3 -0.3 -0.3 -0.3 -0.3 -0.3 -0.3 -0.3 -0.3 -0.3 -0.3 -0.3 -0.3 18.9 23 46.6 59.3 62.1 72.3 79.8 77.4 55.2 52.3 69.5 104.4 89.9 75.6 63.8 56.3 48.1 43.6 44.6 56.1 56.7 54.3 49.9 47 44.1 27 12.3 12.6 1.7 0.9 0.3 -0.3 -0.3 -0.3 -0.3 -0.3 -0.3 -0.3 -0.3 8.7 21.9 32.4 26.4 22.9 22.4 33.8 23.3 17.6 20.6 22.9 35.7 29.2 17.2 7.3 3.6 -0.3 -0.3 -0.3 -0.3 -0.3 -0.3 -0.3 -0.3 -0.3 -0.3 -0.3 -0.3 -0.3 -0.3 -0.3 -0.3 -0.3 -0.3 -0.3 -0.3 -0.3 -0.3 -0.3 -0.3 -0.3 -0.3 -0.3 -0.3 -0.3 -0.3 -0.3 -0.3 -0.3 5.2 8.4 13.1 19.9 26.7 35.5 43.2 56.5 62.7 77.3 96.5 112.1 120.8 128.5 140.4 150.5 153.8 160.5 166.8 166.6 166.3 167 171 179.1 187.7 195.7 204.9 217.8 228.1 223 219.8 217.2 211.5 205.8 201.2 199.3 198.3 197.5 197.4 195.5 196.6 200.3 202.6 206 209.7 217.6 222.5 226.2 227.6 217.5 209.2 195.3 181.2 171.2 166.8 162.7 162.7 157.3 155.3 158.5 156.6 159.8 170.6 171.5 172.8 173 174.4 175.7 177.7 179.4 180.9 183.9 186.2 187.4 190.6 193.5 197.2 201.8 211.4 221.5 229 238.3 244.9 249.8 250.6 250.8 249.6 248.7 243.2 241.9 238.2 235.8 237.8
-0.3 -0.3 -0.3 -0.3 -0.3 -0.3 -0.3 -0.3 -0.3 -0.3 -0.3 -0.3 -0.3 -0.3 -0.3 -0.3 -0.3 -0.3 9.3 15 34.8 52.7 61.6 73 74.4 71 67.9 62.4 54.1 77.3 96.7 79.5 60.3 66.8 55.2 46 44 49.6 54.9 52.9 51.2 49.7 45.1 35.9 13 13.8 5.3 3.7 1.4 -0.3 -0.3 -0.3 -0.3 -0.3 -0.3 -0.3 -0.3 -0.3 9.2 23.8 21.6 21.1 21.2 31 29.6 17.5 18.1 26.9 33.5 34.9 24 14 9.2 2 -0.3 -0.3 -0.3 -0.3 -0.3 -0.3 -0.3 -0.3 -0.3 -0.3 -0.3 -0.3 -0.3 -0.3 -0.3 -0.3 -0.3 -0.3 -0.3 -0.3 -0.3 -0.3 -0.3 -0.3 -0.3 -0.3 -0.3 -0.3 -0.3 -0.3 -0.3 -0.3 -0.3 5.9 8.8 16.4 22 29.3 39 50.7 61.9 74.8 92.5 107.8 119.5 126.6 142 155.7 160.7 160.9 178.5 175.3 175 174.7 178.3 178.1 188 195.9 204.1 214.1 225.6 229.5 222.9 223.5 221.8 215.8 210.2 204.7 203.7 202 200.3 199.5 201.1 202.7 206.4 210.2 213.8 219.3 229.5 237.1 240.1 237 230.9 227.1 213.3 197.9 185.9 177.9 170.4 161.7 164 171.6 171.5 169.5 163.1 161.5 165.2 167.7 170.3 171.5 172.9 174.8 176.4 177.8 177.7 180.1 182.8 185.4 190.7 196.4 203.4 212.1 222 229 234.2 239.1 241 242.2 241.8 237.2 234.7 234.4 233 231.7 230.6 235
-0.3 -0.3 -0.3 -0.3 -0.3 -0.3 -0.3 -0.3 -0.3 -0.3 -0.3 -0.3 -0.3 -0.3 -0.3 -0.3 -0.3 3.1 10.1 23 38.5 48.6 67.1 68.2 65.7 64.8 60.3 62.7 73.1 74.9 86 68.4 56.8 63.8 48.5 42.8 45.9 49.7 50.4 49.8 49.8 45 38.2 26.1 9.4 4.8 16.2 -0.3 -0.3 -0.3 -0.3 -0.3 -0.3 -0.3 -0.3 -0.3 -0.3 -0.3 12.3 22 19.6 17.7 29.4 33.2 20.5 17.5 29 30.2 42.4 38.4 17.9 13.5 6 -0.3 -0.3 -0.3 -0.3 -0.3 -0.3 -0.3 -0.3 -0.3 -0.3 -0.3 -0.3 -0.3 -0.3 -0.3 -0.3 -0.3 -0.3 -0.3 -0.3 -0.3 -0.3 -0.3 -0.3 -0.3 -0.3 -0.3 -0.3 -0.3 -0.3 -0.3 -0.3 -0.3 -0.3 7.4 14.4 23 25.1 33.3 44.9 57 65.4 86.6 104.4 117.1 125.2 138 154.3 163.2 161.5 176.6 186.6 180.6 180.6 182.6 187.1 186 194.4 202.2 210.4 219.1 223.1 222.9 225.2 225 221.9 217.5 212 207.4 206 204.6 203.4 202.1 204.7 207.7 211.7 216 222.7 232.1 240.8 243.5 248.1 242.9 245.3 246.1 232.1 208.6 193.6 182.4 175.5 172.2 173.8 175.8 174.7 169.9 167.3 162.9 164.5 168.2 171.9 173 172.4 171.7 172.7 173.8 173.1 174.3 177.8 184.7 192.2 201 212 216.5 219.2 224.1 232 238.6 242.8 238.2 233.9 228.6 226.1 225.3 224.7 224.3 228.7 230.4
-0.3 -0.3 -0.3 -0.3 -0.3 -0.3 -0.3 -0.3 -0.3 -0.3 -0.3 -0.3 -0.3 -0.3 -0.3 4.7 7.4 9.4 16.1 25.7 35 48.8 52.7 58.2 58.2 57.6 60.5 66.9 79.5 71.8 74.8 57 60.1 57.5 43.2 40.1 44.8 47.2 45.6 48 43.2 45.2 35.1 19.3 4.9 5.3 12.6 -0.3 -0.3 -0.3 -0.3 -0.3 -0.3 -0.3 -0.3 -0.3 -0.3 8.5 14.2 16.2 16.6 22.5 35.8 27.7 19.3 17.6 35.8 38.4 45.8 32.8 17.7 7.2 2 -0.3 -0.3 -0.3 -0.3 -0.3 -0.3 -0.3 -0.3 -0.3 -0.3 -0.3 -0.3 -0.3 -0.3 -0.3 -0.3 -0.3 -0.3 -0.3 -0.3 -0.3 -0.3 -0.3 -0.3 -0.3 -0.3 -0.3 -0.3 -0.3 -0.3 -0.3 -0.3 -0.3 5.7 11 18.4 24.5 28.9 39.1 50.2 60.8 80.9 99.2 112.9 126 134.1 146.7 157.1 161.5 171.3 181.9 184.2 184 185.3 189.2 189.9 191.9 199.8 206.2 212.9 219 221 225.2 227 226.4 227 219.3 212.8 209.9 210.4 207.9 205.8 204.2 206.6 211.2 216.7 221.2 231.1 239.1 244.3 247.4 249.9 252.1 255.2 247.1 236.2 205.5 193.4 185.7 180.5 173.9 176 177.5 175.1 170.4 168.7 166.3 164.9 168.2 170.2 172.1 170.5 168.9 169.4 169.9 171.2 175.2 183 188.9 197.1 208.6 214.5 213.7 215.1 220 222.9 226.9 228.7 225.7 221.4 219.5 219.2 219.3 218.4 223.1 226.4 228.1
-0.3 -0.3 -0.3 -0.3 -0.3 -0.3 -0.3 -0.3 -0.3 -0.3 -0.3 -0.3 -0.3 -0.3 -0.3 8.4 14 13.6 21.2 23.5 34.8 39.1 42 46.9 50.9 53.3 57.6 72.7 76 67.6 62.7 52 60.2 50.6 42.7 39.4 45.2 45.1 45.5 41.3 43.3 40.9 27.1 6.1 4 9.7 -0.3 -0.3 -0.3 -0.3 -0.3 -0.3 -0.3 -0.3 -0.3 -0.3 -0.3 20.2 17.5 15.5 17.1 26.5 34.2 21 17.5 32.4 34.2 50.4 46.6 30 13.7 5.3 -0.3 -0.3 -0.3 -0.3 -0.3 -0.3 -0.3 -0.3 -0.3 -0.3 -0.3 -0.3 -0.3 -0.3 -0.3 -0.3 -0.3 -0.3 -0.3 -0.3 -0.3 -0.3 -0.3 -0.3 -0.3 -0.3 -0.3 -0.3 -0.3 -0.3 -0.3 -0.3 -0.3 5.3 9.2 14.3 20.7 26.5 35.6 46.3 57.4 73.4 94 110.8 124.9 137.5 139.4 153.4 163.1 167.8 180.3 186.6 185.1 185.7 190.4 194.6 202.2 197 203.7 207.6 214 218.9 221.9 226.7 231.7 234.5 233.4 221.7 218.2 215.8 222.6 216.5 211.5 208.4 210.5 213.6 220.4 232.9 247.7 253.1 249 254.3 256.9 256.9 256.2 246.9 224.6 206.5 196.7 195.4 185.6 177 178.8 176.7 170.9 169.9 166.8 164.8 166.8 166.3 167.4 168.5 167.9 168 168.2 169.3 170.3 173.3 178.8 185.8 192.7 201.1 205.1 208.3 213 217.7 218.8 216.5 216.2 216.3 217.8 212.5 213.8 215.5 217.7 222.3 227.6 229.2
-0.3 -0.3 -0.3 -0.3 -0.3 -0.3 -0.3 -0.3 -0.3 -0.3 -0.3 -0.3 -0.3 -0.3 9.8 15.9 10.3 18 19.8 30.1 33.2 40.2 37.6 40.4 43.8 50.3 61.2 76.7 74.2 55.9 50.9 50.9 48.6 46.3 38.9 36.8 41.3 41.6 40.6 41 45.8 32.9 16.5 6.1 2.4 -0.3 -0.3 -0.3 -0.3 -0.3 -0.3 -0.3 -0.3 -0.3 -0.3 -0.3 16.4 28.7 16.6 15.9 22.4 27.5 25.2 17.6 22.5 38.5 41 54.5 41.6 28.2 8.7 2.6 -0.3 -0.3 -0.3 -0.3 -0.3 -0.3 -0.3 -0.3 -0.3 -0.3 -0.3 -0.3 -0.3 -0.3 -0.3 -0.3 -0.3 -0.3 -0.3 -0.3 -0.3 -0.3 -0.3 -0.3 -0.3 -0.3 -0.3 -0.3 -0.3 -0.3 -0.3 -0.3 4.3 11.8 16 17.9 23.5 30.6 42.4 53.2 63.2 86.6 106.8 123.8 135.4 141.9 142.5 156.3 168.2 180.1 184.7 187.7 186.7 189.2 195.9 208.8 208.5 206.9 206.9 211.9 220.4 225 232.2 232.4 237.5 241.1 230.4 225.6 224.8 232 228.4 224 218.7 215.3 213 217.7 228.4 244 254.5 252.8 249.6 254.4 257 253 244.4 242.1 217.6 209.1 208.4 202.4 189.4 185 179.9 175.9 177.7 180.1 183.3 179.9 169 169.5 170.6 170.4 171.4 171 170 168.8 169.6 170.9 173.1 176.6 183 188.1 197.2 204 210.5 215.8 214.5 213.2 213.2 213.3 208.4 207.8 211.7 215.3 221.3 228.3 231 227.6
-0.3 -0.3 -0.3 -0.3 -0.3 -0.3 -0.3 -0.3 -0.3 -0.3 -0.3 -0.3 -0.3 4.6 16.7 9.6 15 19.9 28.4 34.7 35.6 37.8 39.8 45.7 47.5 50.1 70.6 73 69.2 51.9 41.9 47.4 44 41.4 35.4 32.5 37.8 39.3 38.1 41.3 34.8 27.3 17.2 6.3 -0.3 -0.3 -0.3 -0.3 -0.3 -0.3 -0.3 -0.3 -0.3 -0.3 -0.3 -0.3 25 26.7 17.4 17.4 29.4 23.3 18.9 17.1 35.5 38.1 55.3 49.5 43.4 18.4 6.3 1.7 -0.3 -0.3 -0.3 -0.3 -0.3 -0.3 -0.3 -0.3 -0.3 -0.3 -0.3 -0.3 -0.3 -0.3 -0.3 -0.3 -0.3 -0.3 -0.3 -0.3 -0.3 -0.3 -0.3 -0.3 -0.3 -0.3 -0.3 -0.3 -0.3 -0.3 -0.3 -0.3 9.5 20.5 20.5 21.8 29.6 38.3 47.5 59.8 78.6 98.6 116.8 130.5 136.3 140.2 150.8 166.4 179.1 185.8 185.6 187.2 190.1 193.3 209.8 218.1 215.8 214.3 212.4 228.8 232.8 237 245.5 239.4 243.7 241 230.4 228.1 236.8 250.3 234.7 228.5 223.1 223.6 215.4 222.8 235.8 246.1 251.9 251.7 248.8 251.7 248.7 245.3 240.2 226.4 220.6 217.1 221.3 205.9 196.9 199.1 188.1 187.7 182.8 193.9 194.8 192.4 188.1 191 188.6 193 193.3 189 184.2 177.1 175.7 175.9 174.5 173.7 174.5 176.4 188.9 200.7 206.8 210.5 212.1 213.8 216.4 208.3 202.2 206.8 214.3 220.5 226.7 226.1 224.4 229.4
-0.3 -0.3 -0.3 -0.3 -0.3 -0.3 -0.3 -0.3 -0.3 -0.3 -0.3 -0.3 2 9.1 9.6 7.3 14.7 19.5 29.3 37.9 36.9 39.5 47.7 51.3 48.3 60.9 74 66.7 59.2 44.3 36.5 40.6 43.6 41.1 32.4 31 36.4 40.4 38.1 36.3 29.6 24.4 10.6 9.1 -0.3 -0.3 -0.3 -0.3 -0.3 -0.3 -0.3 -0.3 -0.3 -0.3 -0.3 12.5 31.8 19.4 25.7 18.8 27.5 22.9 17 24 38.1 46.3 53.6 48.1 34.2 8.6 3.4 1.4 -0.3 -0.3 -0.3 -0.3 -0.3 -0.3 -0.3 -0.3 -0.3 -0.3 -0.3 -0.3 -0.3 -0.3 -0.3 -0.3 -0.3 -0.3 -0.3 -0.3 -0.3 -0.3 -0.3 -0.3 -0.3 -0.3 -0.3 -0.3 -0.3 -0.3 -0.3 7.5 15.9 20.5 22.2 25.6 38 46.5 64.2 65.7 89 108.5 123.4 130.8 136.3 143 162.6 174.9 183.3 187.4 187.7 190.9 190.9 201 214.8 222.4 220.6 217.9 219.3 242.4 240.7 254.3 250.8 250 247.3 237 232.6 233.3 251.6 256.2 239.7 232.7 228.9 225.1 217.8 229.5 238.5 244.9 248.9 249.3 245.9 244.9 243.9 243.3 234.1 228.1 228.3 238 220.2 205.8 215.1 208.6 204.5 206.2 206.2 214 214.5 206.1 205.1 202.2 205.7 208.2 206.7 205.5 204.1 196.9 192 194 188.4 190.2 183.2 178.8 178.6 194.1 205.9 212.1 219.6 222.4 211.3 203.1 199.6 202.6 209.8 217.8 216.8 219.7 223.3 221.5
-0.3 -0.3 -0.3 -0.3 -0.3 -0.3 -0.3 -0.3 -0.3 -0.3 -0.3 -0.3 4.2 5.1 4.5 7.1 14.3 22.7 33.4 38.8 37.8 46.1 45.9 48.5 58.2 69 71.5 60.4 50.2 42.7 33.8 40 39.3 33.7 25.3 29 35.3 34.3 35.6 29 24.1 17 11.5 13.3 4.6 1.1 -0.3 -0.3 -0.3 -0.3 -0.3 -0.3 -0.3 -0.3 5.3 17.8 24.7 29.1 27.9 22.7 19.6 17.7 17 33.8 40.2 54.7 52.2 45 23.7 6.9 3 -0.3 -0.3 -0.3 -0.3 -0.3 -0.3 -0.3 -0.3 -0.3 -0.3 -0.3 -0.3 -0.3 -0.3 -0.3 -0.3 -0.3 -0.3 -0.3 -0.3 -0.3 -0.3 -0.3 -0.3 -0.3 -0.3 -0.3 -0.3 -0.3 -0.3 -0.3 4.3 10.7 16.6 20.8 22.6 32.4 46.3 56.3 60.8 76.7 98.6 115.7 125.5 132.4 139.3 155.2 167 181 184.5 189.9 191.2 190.6 193.7 212 224.6 233.9 221.8 219.9 229.9 245.7 243.4 256 251 254 247.3 236 235.2 249.1 262 245.9 238.4 233.4 228.5 220.2 226.1 235.5 243.8 248.2 249.4 248.3 244.4 239.5 240.4 236.5 233.3 236.8 241.9 233.3 213.2 224.9 222.4 211.1 219.6 221.1 238.3 237.6 232.4 222.7 222 218.7 219.7 222.7 225.5 227.6 221.3 212.8 212.3 212.6 211.5 213.6 209.9 198.6 185.1 181.9 192.9 205.9 210.4 203.4 200.5 200.7 196.7 197 196 203.6 208.1 209.6 212.1 212.1
-0.3 -0.3 -0.3 -0.3 -0.3 -0.3 -0.3 -0.3 -0.3 -0.3 -0.3 -0.3 2.4 3.4 3.5 7.1 17.4 30.2 38.5 39.6 37.6 40.3 47.3 56.7 64.2 73.7 71.3 60.2 50.4 35 34.3 39.1 34.9 27.2 23.4 27.9 31 30 26 22.3 16.6 14.1 12.1 9.9 13.2 3.6 -0.3 -0.3 -0.3 -0.3 -0.3 -0.3 -0.3 -0.3 11.8 24.4 25.1 32 23.2 20.9 17.3 16.7 19.4 35.7 48.5 55.7 52.1 35.7 12.4 6 3.5 -0.3 -0.3 -0.3 -0.3 -0.3 -0.3 -0.3 -0.3 -0.3 -0.3 -0.3 -0.3 -0.3 -0.3 -0.3 -0.3 -0.3 -0.3 -0.3 -0.3 -0.3 -0.3 -0.3 -0.3 -0.3 -0.3 -0.3 -0.3 -0.3 -0.3 3 5.9 10.9 16.1 21 28.2 39.6 52.3 56.7 63.1 87.4 105.6 118.6 129.8 140.3 148.9 161.6 176 185.1 192.9 196.6 194.8 192.8 207.4 221 239.4 232.4 221.1 220.1 248 245.5 246.4 250.3 262.6 259.6 240.1 238 239.6 254.8 256.7 239.8 236.8 234.3 227.1 226.3 235.3 245 253.1 251.8 252.4 250.2 241.5 238.8 236.7 235 236.6 239.7 236.3 222.9 229.1 233.8 220.7 225 229.8 243.1 260.3 257.3 251 240.8 238.8 233.6 238.9 241.9 248.4 251.5 239.5 227.6 234.7 230.6 228.4 233.8 227.3 211.6 198.9 190.8 193.2 194.9 191.9 189.1 188.7 188.5 190.1 190.9 192.1 194.8 199.9 205.6 208.6 205.9
-0.3 -0.3 -0.3 -0.3 -0.3 -0.3 -0.3 -0.3 -0.3 -0.3 -0.3 -0.3 2.6 2.7 3.1 6.3 17.5 33 32.3 32.9 30.5 35.1 44.3 50.2 70.2 80.9 68.7 55.3 44.9 39.4 29.1 32.8 27.3 21 23.8 26.4 26.5 27.1 18 14.7 12.7 11.3 13.6 19 16.5 -0.3 -0.3 -0.3 -0.3 -0.3 -0.3 -0.3 -0.3 4.9 22.9 34.6 33 27.9 21.4 19.7 17 16.6 26.6 42.2 55.5 56 47.8 25.7 11.3 5.7 3.3 -0.3 -0.3 -0.3 -0.3 -0.3 -0.3 -0.3 -0.3 -0.3 -0.3 -0.3 -0.3 -0.3 -0.3 -0.3 -0.3 -0.3 -0.3 -0.3 -0.3 -0.3 -0.3 -0.3 -0.3 -0.3 -0.3 -0.3 -0.3 -0.3 -0.3 8.6 13.7 14.7 18.5 23.5 29.6 39.5 45.8 53.5 73.4 92.4 111.3 126.8 138.6 140.7 158.4 166.8 174.6 189 199.7 201 195.6 204.1 215.4 229.5 247.3 224 219.3 227.6 246.3 246.7 246.9 259.8 270.8 254.5 241.5 241 250.2 257.4 250.4 239.4 236.8 233.8 229.7 240.4 244.1 254.1 258 256.3 253 253.5 241.3 237.6 235.4 234.8 237.5 236.6 225.8 232.4 241.5 236.1 228 232.7 243 267.7 263 262.9 252.7 246.8 248.4 248.9 256.3 256 263.5 261.5 252.1 241.7 246.3 248.9 248.9 247.7 244.5 227.5 211.6 203 212.1 217.1 211.7 202.5 192.2 189 189 189.8 190.5 190.6 191.1 193 195.4 201.4
-0.3 -0.3 -0.3 -0.3 -0.3 -0.3 -0.3 -0.3 -0.3 -0.3 -0.3 12.1 4.7 2.9 3.5 7.1 21.1 24 20.2 20.3 27.7 32.1 39.6 55.9 76.3 83.4 64.4 53.3 42.3 50.4 28.9 28.3 23.3 19.2 22.3 24.9 25.3 19.6 12.6 11 10.2 12 21 21.3 12.5 -0.3 -0.3 -0.3 -0.3 -0.3 -0.3 -0.3 -0.3 9.4 33.2 31.6 28.9 21 25.6 21.8 16.7 17.1 32.2 46.5 56.6 53.4 40 16.5 9.8 3.3 -0.3 -0.3 -0.3 -0.3 -0.3 -0.3 -0.3 -0.3 -0.3 -0.3 -0.3 -0.3 -0.3 -0.3 -0.3 -0.3 -0.3 -0.3 -0.3 -0.3 -0.3 -0.3 -0.3 -0.3 -0.3 -0.3 -0.3 -0.3 -0.3 3.6 9.9 15.8 18.2 15.5 21.4 26.7 37.9 49.4 54.7 60.6 79 100.7 118.4 132.1 136.8 155.2 165.9 175.5 178.6 195.2 205.4 203 209.7 219.6 213.9 236.7 238.9 223.6 219.7 237.9 245.6 247.1 247 266.3 265.3 244.7 241.4 245.4 255 256.6 251.8 247.7 240 233.4 241.5 254.9 253.9 259.7 258.6 263.2 256.4 249.2 244 239 234.5 233.1 235.9 232.1 232.9 240.4 238.2 231.5 232.6 243.8 267.8 270 263.7 262.1 249.8 248.2 254.6 271.6 280.5 285.8 287.3 268.4 261.9 272.7 269.5 285.2 271.2 263.3 259.9 245.5 233.6 218.7 226.7 229.8 226.5 218 207.7 205.7 192.4 189.7 189.9 190.2 190.6 191.4 191.7 193
-0.3 -0.3 -0.3 -0.3 -0.3 -0.3 -0.3 -0.3 -0.3 -0.3 11.2 12.6 5.5 4.5 8.6 9.7 16.9 10.8 7.4 10.3 20.3 26.4 39.3 62.8 83 83.8 63.9 50.3 53.7 47.6 28.8 22.1 17.2 20.2 20 25 17 14.4 9.7 9.6 10.2 23.5 27.7 16.4 5.1 -0.3 -0.3 -0.3 -0.3 -0.3 -0.3 -0.3 -0.3 23.9 32.5 27.8 23.9 22.2 30 20 16.5 19.1 37.2 50.6 56.7 45.9 26.7 15.9 8.4 -0.3 -0.3 -0.3 -0.3 -0.3 -0.3 -0.3 -0.3 -0.3 -0.3 -0.3 -0.3 -0.3 -0.3 -0.3 -0.3 -0.3 -0.3 -0.3 -0.3 -0.3 -0.3 -0.3 -0.3 -0.3 -0.3 -0.3 -0.3 -0.3 1.5 8.1 18 21.8 20.5 20.4 26.6 32.2 48.9 57.4 60 65.8 81 105.5 119 130.9 145.9 162.9 172.6 183.2 189.4 204.4 211.5 203.7 223.1 212.2 216.1 240.6 223.6 222.6 225.4 246.5 246.5 245.6 250.9 259.3 245.2 243.9 246.1 247.4 258 257.4 251.9 251.5 238.9 242.4 261.7 271.3 263 262 263.9 265 254.6 252.4 251.7 246.5 233.3 233.6 232.6 235.4 238 236.4 233.5 236 242.6 263.2 266.7 268 264.7 261.2 249.7 252.8 266.7 288.2 291.4 294.9 294.9 289.1 274.9 285 282.8 291.3 285.5 279.2 272.5 264.6 260.9 240.2 238.3 239.3 235.5 230 228.8 222.8 214.7 210.8 194.4 192 190.8 190.3 191.1 192.4
-0.3 -0.3 -0.3 -0.3 -0.3 -0.3 -0.3 -0.3 -0.3 -0.3 12.1 29 8 6 8.1 15.1 5.9 3.2 3.9 6.1 12.3 26 44.5 70.3 88.6 79.7 64.2 54.8 53.3 41.9 27.3 16.4 19.1 16.6 19.3 19.8 12.7 10 10.5 8.9 21.6 24.3 15.5 6.1 -0.3 -0.3 -0.3 -0.3 -0.3 -0.3 -0.3 -0.3 8.9 28.5 26.3 25.9 21.9 29.5 24.7 18.3 16.1 28.2 42.5 53.3 49.8 35.2 19.5 15.3 6.6 -0.3 -0.3 -0.3 -0.3 -0.3 -0.3 -0.3 -0.3 -0.3 -0.3 -0.3 -0.3 -0.3 -0.3 -0.3 -0.3 -0.3 -0.3 -0.3 -0.3 -0.3 -0.3 -0.3 -0.3 -0.3 -0.3 -0.3 -0.3 -0.3 8.7 16.8 26.3 24.8 22.1 23.5 31.9 41.4 56.3 67.8 66.2 67.8 89.9 109.2 122.9 135.4 153.3 163.9 180.5 189 199.9 212.4 214 213.3 216.7 212.4 222.9 222.9 222.2 220.8 241.9 245.9 244.3 243.5 250.6 246.1 243.4 243.5 251.7 250.9 254.6 257.4 252.2 248 243.3 256 273.6 271 270.5 269.6 274.7 268 258.1 261.1 259.6 245.1 233.3 235.3 236.1 238.4 240.2 233.9 236.4 246.5 254.6 269.9 273.5 267.9 262.2 251 250.1 264.1 287.9 297 299 299.7 296.9 294.2 302.7 304 302.7 302.5 297.2 295.8 285.6 278.7 277.5 254 247.7 249.9 246.1 244.7 247 229 229.4 223.9 207.3 212.9 213.3 211 195.2 192.3
-0.3 -0.3 -0.3 -0.3 -0.3 -0.3 -0.3 -0.3 -0.3 11.1 33.6 25.4 20.2 6.4 6.2 5.2 2.6 2.5 3 4.8 15.7 28.3 54 79.6 89.2 71.5 62.9 74.6 55.8 34.4 23.1 14 13.3 15 18.7 9.5 9.7 9.4 8.8 15.5 21.7 13.9 4.6 -0.3 -0.3 -0.3 -0.3 -0.3 -0.3 -0.3 -0.3 -0.3 21.6 21.5 30.1 19.3 30 31.1 22.5 18.4 16.4 38.3 48.3 46.4 42.4 23.8 19.2 14.8 -0.3 -0.3 -0.3 -0.3 -0.3 -0.3 -0.3 -0.3 -0.3 -0.3 -0.3 -0.3 -0.3 -0.3 -0.3 -0.3 -0.3 -0.3 -0.3 -0.3 -0.3 -0.3 -0.3 -0.3 -0.3 -0.3 -0.3 -0.3 -0.3 1.6 15.6 24.4 26.4 26 26.5 30.8 42.6 52.6 69.5 68.8 65.5 73.1 99.3 111.3 124.8 144.6 157.6 171.1 187.2 197.3 205.9 214.8 214.2 225.3 214.4 213.6 215.4 220.1 232.1 224.8 240.5 241.9 242 245.3 246.4 240 242.3 258.1 255.8 253.3 256.5 253.8 250.8 246.1 254.3 269.8 275.1 274.3 283.9 282.5 273.6 261 261.6 273 260.8 243 235.4 239 240.9 240.6 237.8 235.3 260.6 254.5 263.9 280 279.1 269.4 256.8 250.9 253.7 271.8 290.9 303.3 308.6 305.7 307.7 302.9 320.3 315 325.9 327.8 317.1 312.6 301.8 294 291.2 269.2 268.6 260.6 256.9 259.7 253.6 236.5 236.4 230.7 228.3 229.2 231.6 221.5 217.8 205.6
-0.3 -0.3 -0.3 -0.3 -0.3 -0.3 -0.3 -0.3 16.9 29.9 36.7 16.6 11.1 4.5 2.7 2.2 2.3 2.3 3 5.1 21.2 41.8 64.9 84.5 80.8 64.1 67.9 73.5 47.4 29.4 22.8 14.2 12 14.2 11.6 8.3 7.7 8.2 11.3 16.3 14.2 7.7 3.1 -0.3 -0.3 -0.3 -0.3 -0.3 -0.3 -0.3 -0.3 7.3 19.6 19.9 18.7 25.3 39.6 30.2 20.7 16.2 29.1 39.4 44.5 42.1 32.2 20.9 16.2 9.7 -0.3 -0.3 -0.3 -0.3 -0.3 -0.3 -0.3 -0.3 -0.3 -0.3 -0.3 -0.3 -0.3 -0.3 -0.3 -0.3 -0.3 -0.3 -0.3 -0.3 -0.3 -0.3 -0.3 -0.3 -0.3 -0.3 -0.3 -0.3 -0.3 8.3 23.1 27.6 27.2 27.3 34.6 36.5 50.5 60.2 64.3 64.2 66.6 83.4 103.6 114.7 129.4 149.5 156.7 173.3 185.4 196.1 209.7 214 223.2 222.3 215.9 216.6 217 229.7 225.2 232.3 235.1 237.3 241.5 250 239.7 240.9 252.4 259.3 260.2 255.5 255.2 247 245.1 254.7 265.4 277.7 278.9 284.8 291.2 285.7 267.5 264.8 272.6 274.9 251.8 240.9 241.3 245.4 246.9 243.8 237.1 252.8 265.2 264.7 283 288.7 280.2 273.8 253.8 252.2 257 274 292 307 309.3 308.7 307.3 329.2 330.6 338.1 340.3 347.7 340.8 331.9 321.5 304.3 299.5 278.4 281.6 272.8 272.4 271.3 256.2 245.5 245.9 242.2 245.6 245.4 240.6 235.4 229.7 218.5
-0.3 -0.3 -0.3 -0.3 -0.3 -0.3 -0.3 10.5 29.9 38.2 29 15.2 5 3.3 1.5 1.6 2.1 2 6 12.4 34 52.6 74.3 79.8 68.9 63.8 78.7 66.9 41.7 27.4 22.5 13.9 17.5 8.2 8.2 7.4 8 8.9 12.5 15.7 13.5 9.7 -0.3 -0.3 -0.3 -0.3 -0.3 -0.3 -0.3 -0.3 3.9 18.1 14.7 19 18.4 38.6 32 25.3 18.7 16.4 36.3 44.1 45 36 24.5 17.7 10.1 2.6 -0.3 -0.3 -0.3 -0.3 -0.3 -0.3 -0.3 -0.3 -0.3 -0.3 -0.3 -0.3 -0.3 -0.3 -0.3 -0.3 -0.3 -0.3 -0.3 -0.3 -0.3 -0.3 -0.3 -0.3 -0.3 -0.3 -0.3 -0.3 3.7 16.1 27.3 28.7 28 32.5 41.1 45.6 59.2 62.4 65.1 64.8 73.2 96.8 105.5 110.1 135.9 145.8 158.4 177.4 192.4 197.2 210.7 215.3 224.5 219.9 219.1 219.6 221.2 236.8 224.8 228.8 231.6 235.9 249.5 238.4 237.8 248.9 264.8 260.4 263 262.4 247.9 241.4 246.4 261.7 271.9 278.7 280.5 291 294.7 277 266.7 269.3 274.6 264.5 251.9 239.7 244.6 250.3 251.6 242.3 249.1 263.2 276.4 293.1 297.8 288.2 284.6 269.2 259.3 263 266.8 280.9 295.6 304.1 308 308.4 328.2 329.2 339 353.6 359.1 357.1 353.5 341.9 332.5 322.7 306.6 298 293.4 290.4 294 270.7 259 260.7 259.5 254.3 256 253.9 251.9 247 235.7 222.5
-0.3 -0.3 -0.3 -0.3 -0.3 -0.3 -0.3 14.6 32.2 31.2 20.2 5.8 4.2 1.5 1.3 1.3 2.2 3.4 9.6 18.6 45.9 67.1 80.3 73.7 63.8 74.6 71.9 52.5 36.3 30.2 19.5 17.1 16.3 7.5 7 7.2 7.5 8.8 13.4 16.7 13 4.9 -0.3 -0.3 -0.3 -0.3 -0.3 -0.3 -0.3 -0.3 13.2 11.7 13.9 15.9 32.5 33.2 26.1 21.1 16.6 28.7 38.1 45.2 42.9 28.8 19.9 12.7 5.8 2 -0.3 -0.3 -0.3 -0.3 -0.3 -0.3 -0.3 -0.3 -0.3 -0.3 -0.3 -0.3 -0.3 -0.3 -0.3 -0.3 -0.3 -0.3 -0.3 -0.3 -0.3 -0.3 -0.3 -0.3 -0.3 -0.3 -0.3 1.1 6.4 23.9 29.3 29.3 30.5 42.4 47.3 55.2 65.4 72.1 66.2 70.5 82 99.6 105 118.6 135 151.1 173.7 189.3 200 204.8 212.1 222.7 225.9 221.3 228.9 223.1 235.1 226 229.9 229.9 229.4 241.2 239.4 237 242 262.6 257.1 261.6 262.9 245.2 242.4 246.1 261.8 271.6 277.1 279.5 282.8 292.4 293.3 270 267.9 271.9 268 256.5 251.9 242.1 250.6 254.6 248.6 246 262 272.4 296.2 298.6 297.8 294.6 289.9 281.8 273.8 271.6 274.7 288.3 303.8 308.9 310.7 318 326.5 340.6 366.3 362.4 372.5 368.1 356.9 351.4 341.4 328.9 328 321.8 310.6 309 299.8 279.8 271.7 272.1 270.7 267.4 264.9 262 258.1 250.1 238.9 239.1
-0.3 -0.3 -0.3 -0.3 -0.3 -0.3 4.3 24.3 31.1 19.2 8.5 3.4 2.1 1.3 1.3 2.3 3.9 7.3 16.9 32.5 51.7 77.2 73.3 64.3 72.8 72.2 58.6 41.5 37 21.5 18.6 18.9 11.3 6.7 6.5 7.9 8.7 8.5 14.2 16.2 8.8 3.4 -0.3 -0.3 -0.3 -0.3 -0.3 -0.3 -0.3 5.4 16.1 10.5 13.1 21.8 34.1 25.9 22.2 17.5 22.4 33.6 42.8 43.3 35.4 22.7 14.7 7.7 2.7 -0.3 -0.3 -0.3 -0.3 -0.3 -0.3 -0.3 -0.3 -0.3 -0.3 -0.3 -0.3 -0.3 -0.3 -0.3 -0.3 -0.3 -0.3 -0.3 -0.3 -0.3 -0.3 -0.3 -0.3 -0.3 -0.3 -0.3 0.9 2.1 16.3 28.6 29.6 30.3 39.5 46.3 54.4 61.2 75.5 71 73.6 83.9 87.9 98.6 110.3 132.2 137 159.9 180.4 200.9 207.6 214.8 215.1 224.1 231.1 236.6 230.5 230.9 229.2 227.8 237.2 230.5 231 239 236.2 238.5 260.8 261.8 256.9 254.1 241.4 241.4 248.1 259.1 264.5 279.4 282.4 283 284.9 289.3 283.3 280.5 269.7 272.6 262.3 257.8 242.3 250.3 261 260.6 254.7 254.2 266.5 291.6 301.4 300.1 302.4 303.8 297.9 288 285.6 290.6 286.2 296.7 313 319.2 315.8 326 345.5 369.5 370.8 377.8 385.1 385.8 369 358.1 349.8 341.4 348.5 336.7 324.1 323.4 306 288.8 284.5 280.4 277.8 273.9 270.7 267.6 263.1 252.4 244.9 246.3
-0.3 -0.3 -0.3 -0.3 -0.3 -0.3 5.7 27.5 29.3 6.6 1.9 1.3 1.3 1.3 1.3 1.7 3.3 12.1 24.9 49.1 68.8 72.3 69 68 76.7 64.6 49.7 40.6 25.5 20.9 18.1 14.5 7.2 6.6 6.5 16.5 8.4 12.5 16.6 14.7 5.5 -0.3 -0.3 -0.3 -0.3 -0.3 -0.3 -0.3 -0.3 10.4 8.7 11.5 14 27.7 24.8 21.7 17.6 16.7 27.2 36 44 38.4 24.9 17.8 8.3 3.9 1.7 -0.3 -0.3 -0.3 -0.3 -0.3 -0.3 -0.3 -0.3 -0.3 -0.3 -0.3 -0.3 -0.3 -0.3 -0.3 -0.3 -0.3 -0.3 -0.3 -0.3 -0.3 -0.3 -0.3 -0.3 -0.3 -0.3 -0.3 1.4 11.3 30.8 31.5 28.9 39.3 47.2 52.8 64.3 72.2 80.3 78.1 88.2 91.6 89.9 97.1 117.5 129.9 153 172.2 190.5 213 218.8 215 221.4 227.7 241.3 244.1 235.8 230.4 228.5 233.5 237.4 231.3 236.1 232.1 236 252.5 265.9 254.5 250 241.4 241.4 241.4 257.6 265.1 274.9 281.6 284.1 284.9 286.9 288 290.7 283.5 271.4 273.3 258.2 252.1 247.2 258.1 267.2 254.9 262.5 263.9 280.8 295.6 300.1 301.4 309.7 307.6 305.7 296.5 302.3 305.5 303 314.8 317.2 322.7 329.1 352.7 370.3 390.4 383.8 395.1 403.1 380.6 375.1 367.4 351.6 352.4 362.3 353.8 334.4 333.3 311 303 296.5 290.7 284 278.7 272.4 268.3 260 256.3 256.7 258.1
-0.3 -0.3 -0.3 -0.3 -0.3 2.7 7.3 24.7 13.7 2.4 1.3 1.3 1.3 1.3 1.3 3.5 7.2 13.5 35 60.4 72.2 72 65.2 77.1 72.5 61.5 46 36.6 25.8 21 18.4 8.2 5.9 6 14.9 16.6 10 10.1 13.2 8.6 3.9 -0.3 -0.3 -0.3 -0.3 -0.3 -0.3 -0.3 -0.3 5.2 7.3 9.5 18.5 23.3 21.8 18 14.4 20.9 29.9 41.2 39.6 29.5 17.9 10.1 4 3.1 -0.3 -0.3 -0.3 -0.3 -0.3 -0.3 -0.3 -0.3 -0.3 -0.3 -0.3 -0.3 -0.3 -0.3 -0.3 -0.3 -0.3 -0.3 -0.3 -0.3 -0.3 -0.3 -0.3 -0.3 -0.3 -0.3 -0.3 1.5 4.3 27.9 32.1 28.1 32.5 46.7 55.1 60 72.8 82.8 79.5 84.3 93.3 89 90.9 102.5 125.4 137.3 155.5 180.3 202.6 219.9 226.8 218.3 223.2 228.9 246.7 249.5 239.5 229.8 229.9 236.6 236.4 230.9 231.2 232.8 247 270.4 263.4 246.1 241.4 241.4 241.4 252.3 270.2 270.9 281.9 286.9 287.6 290.2 288.9 289.7 292.6 281.4 271.4 260.1 256.1 247.1 254.1 266.6 266.1 262.7 266.6 273.9 289.4 300.6 301.5 307 319.2 310.8 305.4 306.7 318.1 321 322.1 325.2 324.5 330.3 347 357.8 405 398.3 402.5 412.9 401.5 388.1 381.5 375.9 354.7 365.6 375 356.4 354.8 337.8 324 314.2 306.4 299.7 292.6 279.5 270.2 263.8 262.3 266.5 268.7 270
-0.3 -0.3 -0.3 -0.3 -0.3 4.3 7.8 15.6 3.7 1.3 1.3 1.3 2 4 6.1 13.8 18.7 23 46.6 63.7 77.2 67.8 78 81.2 72 55.1 49.5 34.1 31 29.5 15.1 5.9 5.1 7.5 19.3 16.9 7.6 9.1 8.7 9.7 8.7 -0.3 -0.3 -0.3 -0.3 -0.3 -0.3 -0.3 -0.3 2.3 5.2 8.5 20.2 21.2 18.4 15 16.8 23.7 33.2 38.9 31.2 20.8 11 4 1.3 -0.3 -0.3 -0.3 -0.3 -0.3 -0.3 -0.3 -0.3 -0.3 -0.3 -0.3 -0.3 -0.3 -0.3 -0.3 -0.3 -0.3 -0.3 -0.3 -0.3 -0.3 -0.3 -0.3 -0.3 -0.3 -0.3 -0.3 1.5 3.2 18.6 25.7 28.4 35.9 44 54.3 67.2 73.7 84.6 84.5 86.5 96.1 91.4 94.4 97.2 105.2 119.8 143 162.7 182.5 208.9 221.3 220.5 220.3 222.6 236 247.1 238 236.3 230.9 235.3 237.6 232.5 231.2 231.2 241.2 270 270.1 247 242 243.2 252.5 251.7 272.9 274.4 285.9 292.2 302.4 299.6 292.5 290.4 288 286.1 273.3 266.5 258.1 254 251.1 262 267.6 262 264.7 265.8 281.7 296.7 301.3 307.4 318.5 319.6 313 312.2 320.6 335.5 330 333.1 330.1 330.3 341.9 356.1 389.9 409.4 407.1 422 425.7 402.9 395.7 389.3 378 369.5 372.8 370.8 356.2 346 337.9 330.7 320.7 314.3 310.6 297.3 284.1 275.2 267.6 270.7 275.7 276.1 268.6
-0.3 -0.3 -0.3 -0.3 -0.3 2 5.5 3.2 1.3 1.3 1.3 3.2 5.6 8.6 23.2 32.9 31 34.1 52.7 69.3 71.6 75.6 86.6 80.7 69 53.8 47.8 39.8 42.5 24.3 7.4 4.5 5.9 8.7 13.4 6.4 8 9.4 8.4 10.4 -0.3 -0.3 -0.3 -0.3 -0.3 -0.3 -0.3 -0.3 -0.3 1.9 4.7 12.9 19.6 18.7 15.8 13.4 18.1 26.4 36.7 34.5 23.9 16.1 5.8 1.4 1.3 -0.3 -0.3 -0.3 -0.3 -0.3 -0.3 -0.3 -0.3 -0.3 -0.3 -0.3 -0.3 -0.3 -0.3 -0.3 -0.3 -0.3 -0.3 -0.3 -0.3 -0.3 -0.3 -0.3 -0.3 -0.3 -0.3 1.3 3.6 19.1 18 23.6 29.3 35.3 53.2 64 70.6 81.1 89.1 85 95.9 100.8 96.8 101.5 103.2 109.9 124.8 153.6 168.3 188.8 202 215.3 215.9 218.2 229.4 240.2 236.7 243.6 237.4 233.9 237.1 235 231.2 231.2 238.8 264.7 261.5 250.2 241.5 241.7 255.4 254.2 272.3 275.4 280.6 297.3 307.5 312.8 305.9 295.3 290.7 286.9 280.6 274.4 261.6 256.7 251.9 258.9 265.6 267.4 264.2 264.2 279.2 290.5 300.7 302.2 320.8 330.2 323.2 316.5 325.9 341.2 344.2 341.4 338.3 334.4 344.4 345.2 376.6 404.2 410.8 424.7 434.7 413.6 412 403.9 395.9 386.8 381.9 378.8 373.5 360.9 347.3 341.9 334.7 329.3 324.8 313.9 301.3 292.2 279.6 271.8 275.6 279.8 274.5 269.8
-0.3 -0.3 -0.3 -0.3 -0.3 6.8 6.1 2.9 1.3 1.3 6 4.9 13.1 27.3 29.5 35.2 35.5 40.7 57.6 70.9 70.4 83.8 97.3 87.3 72.9 53.3 45.1 43 36.2 14.9 5.9 4.1 6.1 6.9 4.8 6.1 6 8.2 9.5 5.8 -0.3 -0.3 -0.3 -0.3 -0.3 -0.3 -0.3 -0.3 -0.3 2.2 5.3 12.4 17.7 16.2 13.6 14.4 19.4 30.9 35.8 26.3 15.2 10.4 2.5 -0.3 -0.3 -0.3 -0.3 -0.3 -0.3 -0.3 -0.3 -0.3 -0.3 -0.3 -0.3 -0.3 -0.3 -0.3 -0.3 -0.3 -0.3 -0.3 -0.3 -0.3 -0.3 -0.3 -0.3 -0.3 -0.3 -0.3 -0.3 1.1 10.7 15.4 17.8 26.9 32.9 53.1 58.4 72.8 80 85.5 89 92.3 107.9 106.5 106.2 108.9 111.9 121.1 150.1 164.7 180.1 195.6 211.2 208.1 216 217.5 232.2 233.6 241 248 240.9 236.5 238.2 231.2 231.2 234.7 256 256.2 249.9 241.2 241.2 250.2 250.7 257.6 275.2 277.9 292.2 306.9 315.2 316.2 315 302.5 291.2 287.7 280.7 275.2 260.6 255.4 257.4 268.5 273.7 267.8 270 277.3 299.3 308.6 305 319.7 336.7 333.7 327.2 325.1 336.7 347.7 346.6 340.8 340.7 343.3 352.9 365.6 384.5 407.3 424.8 442 430.7 419.5 415.9 406 398.3 400.9 399.3 394 388.7 366.3 355.6 345 338.3 337.6 330.4 313.8 305.2 294.4 281.1 277.7 278.6 276.6 273.5 274.9
-0.3 -0.3 -0.3 -0.3 -0.3 4.8 1.3 1.3 1.3 1.3 3.9 11.2 32 31.4 30.4 33.3 37.5 52.6 63.5 71.6 81.9 100.3 108.8 95.6 76.2 57.1 46.3 41.1 22.3 6.9 4.3 4.3 5.7 4.6 4.6 4.8 5.2 10.8 5.1 -0.3 -0.3 -0.3 -0.3 -0.3 -0.3 -0.3 -0.3 -0.3 -0.3 3.3 7 13.9 15.2 13.9 11.7 15.8 23.4 30.4 27.8 15.9 9.2 4.8 -0.3 -0.3 -0.3 -0.3 -0.3 -0.3 -0.3 -0.3 -0.3 -0.3 -0.3 -0.3 -0.3 -0.3 -0.3 -0.3 -0.3 -0.3 -0.3 -0.3 -0.3 -0.3 -0.3 -0.3 -0.3 -0.3 -0.3 -0.3 -0.3 9.1 15 16 22.4 29.9 36.4 55.1 65.1 77.6 84.1 91.2 87.4 108.5 118.7 109.9 110.8 113.7 124.5 137.7 170.6 176.9 192.5 204 217.7 223 217.6 220.6 229 245 254.1 251.6 239.6 239.9 231.2 231.2 231.2 246.4 252.1 248.8 242.3 241.2 241.2 244.8 246.4 268.3 275.6 289.9 303.9 314.4 318 323.1 321.3 308 298.9 289.6 281.2 272.7 260.4 258.6 272.6 276.2 278.2 271.5 285.3 308.4 319.5 312.3 314.6 337 343 339 330.4 338.1 350.7 347.6 343.1 343 341.1 358.8 355.9 384.5 400.3 422.6 441.9 441 427.8 419.5 416.6 410.6 408.9 409.9 406.2 403.5 390.2 365.8 365.3 353.8 341.4 337.6 327.7 315.6 310.3 297.6 289.6 285.9 279.9 274.7 278.2 281.5
-0.3 -0.3 -0.3 -0.3 10.1 1.2 -0.3 0.9 1.3 2.5 5 14 27.6 26.9 31.2 34.8 54.3 66.7 71.2 76.3 92.3 115.1 112.3 104.8 75.7 61.9 54.2 31.4 12.1 5.6 4.4 3.7 3.9 5.2 4.7 4.9 6.8 4.2 1.7 -0.3 -0.3 -0.3 -0.3 -0.3 -0.3 -0.3 -0.3 -0.3 1.4 6.3 10.5 14 12.9 11.7 13 17.4 24.7 24.9 18 8.9 5.8 2.4 -0.3 -0.3 -0.3 -0.3 -0.3 -0.3 -0.3 -0.3 -0.3 -0.3 -0.3 -0.3 -0.3 -0.3 -0.3 -0.3 -0.3 -0.3 -0.3 -0.3 -0.3 -0.3 -0.3 -0.3 -0.3 -0.3 -0.3 -0.3 -0.3 13 13.5 19.7 32.6 34.3 45.7 60.3 75.8 81.6 87 88.5 98.5 119.5 121 112 117 120.8 131.8 158 179.4 192 205.3 213.5 221.4 218.7 219.2 221.6 248.4 256.7 255.1 253.5 241.3 235.8 231.2 231.2 233.7 251.1 252.4 244.1 246.8 241.7 241.1 242.3 256.2 269 282.3 301 310.9 317.3 320.2 319.3 314.5 309.5 299.7 290.3 280.2 265.9 259.6 265.6 275.6 280 275 280.1 299.2 335.4 325.3 323.7 332.7 348.3 354.1 344.7 341.3 351.3 353.5 351.2 346.9 348.5 358.4 361 386.3 409 414.8 439.6 452.3 433.2 428.8 422.1 418.9 417.9 417.9 418.9 412.3 405.4 395.3 372 368.5 359.1 341 332.7 327.5 325.4 316 297.9 296.3 293.4 283.2 275.3 280.1 288
-0.3 -0.3 -0.3 -0.3 -0.3 -0.3 -0.3 -0.3 1.7 8.8 9.1 16.3 22.9 26.2 39.1 54.7 65.1 74.8 73.4 81.3 108.8 117.7 118.7 108.2 81.9 66.2 50 22.7 6.9 4.1 5 3.7 4.4 4.4 4.3 7.3 3.8 2 -0.3 -0.3 -0.3 -0.3 -0.3 -0.3 -0.3 -0.3 -0.3 -0.3 2.5 7.4 12.6 12.1 11.1 12 15.7 21.3 22.2 17.5 9.1 4.8 2.8 -0.3 -0.3 -0.3 -0.3 -0.3 -0.3 -0.3 -0.3 -0.3 -0.3 -0.3 -0.3 -0.3 -0.3 -0.3 -0.3 -0.3 -0.3 -0.3 -0.3 -0.3 -0.3 -0.3 -0.3 -0.3 -0.3 -0.3 -0.3 -0.3 6.9 9.9 14.9 29.7 30.3 37.4 59.8 67.9 79.6 83 93.9 90.8 117.3 122.6 118.5 113.7 118.7 130.8 140.3 179.2 193.4 205.1 217.5 225.5 229.9 218.7 218.1 238.6 254.1 257.4 255 251.6 241.5 240.1 231.2 231.2 247.2 249.2 243.3 250.9 248.4 241.4 241.2 249.7 258.4 264.5 291 304 312.7 321.9 324.4 326.1 316.3 301.7 297.5 286.7 275.1 264 263.9 269.3 273.9 278.9 277.6 291.4 339.8 340.2 335.9 328.2 341.9 356.5 357.4 349.5 352.3 357.8 358.1 356.1 349.2 358.9 373.9 373.3 416 418.8 432.5 453.3 443.2 435.2 429 426.9 423.2 426.6 430.4 427.4 421 417.3 399.1 376.4 373.5 355.2 339.3 333.8 330.7 322.8 305 300.5 300.6 293.2 284 276.7 283.9 292.2
-0.3 -0.3 -0.3 2.2 -0.3 -0.3 -0.3 -0.3 4.4 17.2 25.6 27.8 21.6 24.5 45.4 59.9 71.3 76.2 75.9 99.2 121.7 123.3 121.9 113.1 85.4 64.9 40.2 12.7 5.8 3.6 4.3 4.4 3.6 4.1 5.1 8 2.5 1.1 -0.3 -0.3 -0.3 -0.3 -0.3 -0.3 -0.3 -0.3 -0.3 2.2 3.9 7.9 11.7 10.9 10.5 12.2 16.7 21.6 19.4 7.5 4.5 4.3 1.6 -0.3 -0.3 -0.3 -0.3 -0.3 -0.3 -0.3 -0.3 -0.3 -0.3 -0.3 -0.3 -0.3 -0.3 -0.3 -0.3 -0.3 -0.3 -0.3 -0.3 -0.3 -0.3 -0.3 -0.3 -0.3 -0.3 -0.3 -0.3 1.8 6.9 8.8 20.2 29.2 30.9 49.1 64.9 77.6 86.4 92.1 89.4 106.7 121.6 122.5 120.4 116.2 126.1 137.7 154.7 182.3 201.3 219.6 224.7 230.2 229.4 220.3 218.4 244.4 255.5 253.9 253.6 256.6 243.3 240.4 231.2 237.6 248.9 240.3 245.8 250.5 242.5 241.6 242.9 249.9 246 271.2 297.3 311.5 316.8 330.2 335.6 330.5 319.6 301.7 290.9 280.7 272.5 265.8 266.7 270.1 274.6 278 287.2 331 353.5 352.2 342.7 339.1 346.1 357.1 356.9 361.8 364.6 361.8 365.5 357.4 354.5 378 380.3 402.7 431.4 435.8 454.7 452.4 447.8 433.2 433.4 426.4 433 439.7 437.2 434.2 428.3 417.5 395 377.1 370.6 355.9 337 333.3 329.7 312.6 304.3 304.6 298.2 292 285.8 282.9 289 293.8
-0.3 -0.3 3.7 -0.3 -0.3 -0.3 -0.3 -0.3 7.9 30.8 31.8 27.3 25 28.8 38.1 57.1 72.1 73.9 85.8 106.8 121.3 128.5 118.3 112.1 77.3 52.8 26.9 6.5 4.2 3.2 4 4.1 4.2 4.7 7.5 3.2 2.4 -0.3 -0.3 -0.3 -0.3 -0.3 -0.3 -0.3 -0.3 -0.3 -0.3 2.5 4.2 8.3 13.1 10.8 10.5 13.1 17.7 18.2 13.9 4.6 2.7 -0.3 -0.3 -0.3 -0.3 -0.3 -0.3 -0.3 -0.3 -0.3 -0.3 -0.3 -0.3 -0.3 -0.3 -0.3 -0.3 -0.3 -0.3 -0.3 -0.3 -0.3 -0.3 -0.3 -0.3 -0.3 -0.3 -0.3 -0.3 -0.3 -0.3 3.7 7.9 10.6 22.7 22.2 39 58.5 74 84.4 81.4 89.9 92.7 122.1 123.5 121.2 120.7 120.4 131.2 144.5 164.9 192.4 205.9 219.9 228.1 236.7 228.3 221.5 223 246 251 252.5 252 249.8 243.5 231.2 231.7 244.5 243.2 240.2 247.8 245.5 243.2 242.7 250.7 245.7 248.7 280.9 299.5 311 322.5 334.9 338.6 334 313.8 299.9 294.4 279.3 272.6 266.9 268.1 271.6 278.6 285.2 306.8 353.9 357 357.8 342 344.9 352.8 360.9 365.4 370 371.9 369 367.4 358.7 377.5 390.7 392.7 431.6 440 449.3 457.8 454.7 440 438.4 435.3 435.4 443.6 449.3 442.7 436.3 429.2 412.3 386.1 372.4 364.7 348.1 336 332.4 324.9 309.7 307.9 305.1 297 291.3 287.3 286.8 291.3 296.1
-0.3 -0.3 -0.3 -0.3 -0.3 -0.3 -0.3 -0.3 18.4 40.7 36.2 31.9 28.1 30.8 39.2 53.8 74 81 104.4 115.4 124.6 122.9 118.3 96.2 65.4 38.8 13.5 4.9 3.8 3.6 3.5 4.4 4.1 5.6 3.5 1.4 -0.3 -0.3 -0.3 -0.3 -0.3 -0.3 -0.3 -0.3 -0.3 -0.3 1.5 2.5 4.1 9.3 10.9 9.9 11 15.4 16.4 12.1 4.1 3 -0.3 -0.3 -0.3 -0.3 -0.3 -0.3 -0.3 -0.3 -0.3 -0.3 -0.3 -0.3 -0.3 -0.3 -0.3 -0.3 -0.3 -0.3 -0.3 -0.3 -0.3 -0.3 -0.3 -0.3 -0.3 -0.3 -0.3 -0.3 -0.3 -0.3 -0.3 3.8 5 11.5 14.7 24.9 46.5 62.3 71.9 83.8 80.8 87.8 111.1 121.5 122.3 127.7 121.9 126.8 138.5 160.1 186.5 194.4 210.6 217.1 234 236.8 233.8 218.3 227.3 245 250.6 249.7 253.2 245.2 239.4 231.2 234.6 243.1 237.6 249.2 248.8 245 244.7 253.9 245.7 245.7 261.9 285 302.3 313.7 326.3 335.4 338.6 334.4 318.8 304.8 293.3 279.8 274.5 270.1 271.6 275.3 287.4 296.4 346 363.4 364.8 355.1 345.5 350.5 357.5 357.2 364.5 375.9 374.9 375.2 371.8 375 395 404.5 418.8 447.7 449.8 459.1 452.9 445.3 442.7 442 432.5 445.5 453.7 458.1 442.8 437.7 418.1 404.1 383.1 368.9 359 349.8 334.2 336.2 312.5 310 311 302.7 298 292 285.1 290.1 292.2 295.4
-0.3 -0.3 -0.3 -0.3 -0.3 -0.3 -0.3 5.6 36.7 47.6 40.2 42.5 32.3 36.9 56.1 66 70.1 95.8 112 115.5 122.2 121.5 111.3 82.3 51.2 26.9 6.2 3.3 2.5 3.7 4.9 6.7 5.9 1.9 -0.3 -0.3 -0.3 -0.3 -0.3 -0.3 -0.3 -0.3 -0.3 -0.3 -0.3 1.5 1.7 3 4.8 10.1 9.7 9.9 12.7 14.6 11.9 6.3 2.2 -0.3 -0.3 -0.3 -0.3 -0.3 -0.3 -0.3 -0.3 -0.3 -0.3 -0.3 -0.3 -0.3 -0.3 -0.3 -0.3 -0.3 -0.3 -0.3 -0.3 -0.3 -0.3 -0.3 -0.3 -0.3 -0.3 -0.3 -0.3 -0.3 -0.3 -0.3 2.8 4.1 6.2 7.6 11.3 30.2 49.2 64.7 76.3 74.4 80.5 105.4 120.6 121.1 123.5 123.3 121.3 126.5 150.2 180.7 193.3 197.3 208.3 230.1 234.7 223.1 218.3 218.3 224.9 246.8 248.5 249.6 254.9 242.3 240.4 236.8 231.2 233.9 247.4 250.4 247.2 246.1 249.4 247.3 245.7 245.7 271.9 291.1 302.7 316.5 327.5 334.2 338.8 335.5 319.7 306.8 289.6 282 277.4 274.1 274.6 281.3 292.5 313.3 353 364.4 365.7 353.6 346.2 350 354 362.2 370.6 379.7 380.5 380.5 381.3 402.7 423.3 420.4 439.9 454.1 461.6 452.5 445.3 443 443.8 435.2 439.5 455.7 463.1 452.9 443.5 432.3 409.6 393.3 385.8 367.1 358.1 348.3 341.7 322.7 309.2 306.7 305 300.9 295.2 288.5 287.5 289.3 290.9 293.3
-0.3 -0.2 -0.3 -0.3 -0.3 -0.3 -0.3 26.2 53.1 47.5 46.9 39.2 42.1 53.6 72 75.8 86.5 106.8 112.6 117.1 117.9 116.6 95.3 62.2 38.7 8.6 4.4 2.7 3.9 4.5 8.5 8.5 6.6 1.3 -0.3 -0.3 -0.3 -0.3 -0.3 -0.3 -0.3 -0.3 -0.3 -0.3 -0.3 2.8 2.4 3.7 5.9 7.2 8.7 9.7 12 11.4 3.9 1.7 -0.3 -0.3 -0.3 -0.3 -0.3 -0.3 -0.3 -0.3 -0.3 -0.3 -0.3 -0.3 -0.3 -0.3 -0.3 -0.3 -0.3 -0.3 -0.3 -0.3 -0.3 -0.3 -0.3 -0.3 -0.3 -0.3 -0.3 -0.3 -0.3 -0.3 -0.3 -0.3 1.4 2.4 4.4 7.3 16.8 33 48.4 66.4 75.8 72.7 88.9 120.4 117.8 117.8 123.7 121.7 123.5 135.8 160.7 184.4 193.6 203.6 219.3 228.8 225.9 218.3 218.3 218.3 240 245.4 248.6 252.6 251.4 241.2 239.9 237.2 231.2 242.3 249.1 251.8 249 248 259.4 245.7 245.7 245.7 278.3 297.3 304.2 317.7 327.6 333.1 338.7 334.2 323.8 304.6 291.9 285.9 282 279 284 292.3 300.8 331.5 349.2 359.9 357.5 348.3 354 353.1 355.9 365.5 381.5 386.9 384.4 387 395.1 420.4 426.5 425.4 453.5 461.7 452.3 450.1 443.2 443.7 438.4 436.9 450.2 461.3 463.9 450.5 441.4 423.1 404.5 392.4 383.1 359.5 356.5 349.2 339.4 312.8 305.2 302.6 301.8 301.2 295.6 293.5 290.9 289 290.1 293.3
-0.3 -0.3 -0.3 -0.3 -0.3 -0.3 13.2 55.4 51.9 52.6 43.8 49.2 58.8 65.9 77.7 85.7 103.3 106.6 109.6 113.1 110.3 91.3 69.4 45.5 25.4 5.9 3.9 2.9 4.2 5.3 7.4 7.3 5.6 1.1 -0.3 -0.3 -0.3 -0.3 -0.3 -0.3 -0.3 -0.3 -0.3 1.4 2.1 2.9 3.7 3.2 4.3 5.8 8 9 9.4 4.4 2.7 1.3 -0.3 -0.3 -0.3 -0.3 -0.3 -0.3 -0.3 -0.3 -0.3 -0.3 -0.3 -0.3 -0.3 -0.3 -0.3 -0.3 -0.3 -0.3 -0.3 -0.3 -0.3 -0.3 -0.3 -0.3 -0.3 -0.3 -0.3 -0.3 -0.3 -0.3 -0.3 -0.3 1.4 2 10.1 14.8 22.8 36.5 53.4 66.8 68.6 74.2 107.4 119.8 113.2 122 123 123.4 128.5 141.1 167.1 182.8 197.3 213.5 230.7 224.2 218.3 218.3 218.3 238.9 245.4 247.8 250.4 253.1 244.8 241 238.8 231.3 231.2 243.7 251.9 257.5 251.5 264 253.9 245.7 245.7 248.3 284.4 302.4 305.8 319.7 328.3 333 338.7 334.1 321.1 303.9 296.1 290.5 286.4 284.2 297.7 301.3 312.3 343.5 360.5 363.6 358.7 350.6 353.4 354.8 357.9 370.8 389.1 394.3 395.7 397.2 410.6 425.5 429 440.5 444.8 448.5 450.6 445.1 444.8 442.9 438.4 443.2 456 465.3 453.3 444.7 429.5 412.1 400.9 390.6 370.9 354.5 353.3 347.2 325.3 307 303.2 300.9 299.4 297.6 296.9 292.5 290.4 289.9 289.9 293.6
-0.3 -0.3 -0.3 -0.3 -0.3 6.4 43.8 63.8 54.9 49.1 60.1 58.2 67.3 77.7 84.1 102.6 100.1 102.7 108.2 111.4 96.1 71 49.5 30.8 7.4 4.4 2.6 3.5 3.7 5.1 6 4.9 2.3 -0.3 -0.3 -0.3 -0.3 -0.3 -0.3 -0.3 -0.3 -0.3 1.5 2.1 2.7 2.6 2.9 3.6 3.9 4.6 5.9 6.9 5.4 2.9 1.3 -0.3 -0.3 -0.3 -0.3 -0.3 -0.3 -0.3 -0.3 -0.3 -0.3 -0.3 -0.3 -0.3 -0.3 -0.3 -0.3 -0.3 -0.3 -0.3 -0.3 -0.3 -0.3 -0.3 -0.3 -0.3 -0.3 -0.3 -0.3 -0.3 -0.3 -0.3 -0.3 -0.3 1.4 9.5 17.6 18 25.9 45.1 55.5 66.5 69.4 89.1 110.4 117.9 112.5 127.8 125.8 126.4 134.4 151.3 174 191.3 207.5 227.1 236 228.1 218.3 218.3 228.7 243.6 249.8 251.5 256 251.2 246.2 236.9 231.8 231.2 237.8 246.4 256.8 257.7 257.7 261.5 246.1 245.7 245.7 265 291.7 297.4 307.2 317.1 323.9 329.9 337.4 330.8 317.5 307.8 301.4 295 289.7 293 307.7 308.5 326.1 358.6 368 369.4 360.8 356.9 362.4 362.4 365.7 381.6 396.8 403.3 404.2 407.1 428.6 425.3 429.3 438.9 439.4 443.2 444.3 445.9 442.9 448 443 452.6 461.9 455.8 446.6 431.6 413.5 408.1 397.3 377.9 356.4 354.7 351.8 335.2 316.6 304.2 302.8 299.7 298.9 299.5 295.8 293.3 294.4 289.9 292 295.4
-0.3 -0.3 -0.3 -0.3 6.2 32.9 64.5 57.9 49.9 55.4 64.3 69.9 83.4 86.7 91.6 101.7 100.3 103.6 108.5 113.9 84.9 56.5 35.1 20.2 5.8 3.4 2 3.2 3.7 4.1 4.1 3.6 1.3 -0.3 -0.3 -0.3 -0.3 -0.3 -0.3 -0.3 -0.3 2.6 1.9 2.2 2.2 2.4 2.6 2.9 3.6 4.4 5 5.7 4 1.4 -0.3 -0.3 -0.3 -0.3 1.7 -0.3 -0.3 -0.3 -0.3 -0.3 -0.3 -0.3 -0.3 -0.3 -0.3 -0.3 -0.3 -0.3 -0.3 -0.3 -0.3 -0.3 -0.3 -0.3 -0.3 -0.3 -0.3 -0.3 -0.3 -0.3 -0.3 -0.3 -0.3 -0.3 -0.3 24.2 14.8 19.1 32.2 43.7 59.8 68.6 73.5 99.3 112.4 110.9 114.8 127.5 130.5 130.9 147.7 160.8 196.8 204 222.4 230.7 239.1 218.3 218.3 218.3 242.1 250.2 251.3 252.4 252.1 251.9 237.4 231.2 231.2 231.2 235.2 250.1 255 257.8 268.8 252.7 245.7 245.7 249.3 272.1 282.9 293.1 303.2 313.4 318.2 326.5 334.1 330.1 318.6 311.5 304.4 297.5 291.4 301.4 308.7 317.6 353.7 369.4 375.3 378.8 366.4 371.2 371.1 371.5 378.3 401.1 407.9 409.1 412.9 436.4 442.6 435.8 436.1 436.1 440.7 437 439.1 440.4 448.2 447.7 449.6 452.3 450.5 443 432.8 417.5 408.3 400.5 391.4 361 356.5 352.5 343.4 324.9 309.1 303.7 301.5 299.6 298.9 298.5 297.4 298.6 293.4 290.4 292.8 294.3
-0.3 -0.3 -0.3 6.4 28.7 63.5 56 49.9 49.9 54.9 68.9 83.7 91.5 85.6 97.9 102.2 103 100 103.4 100 71.6 41.3 21.4 10.2 4 2.8 2.2 2.8 3.5 3.5 3.3 1.4 -0.3 -0.3 -0.3 -0.3 -0.3 -0.3 -0.3 -0.3 1.5 2.1 3.2 2.2 2.2 2.4 2.3 3.2 3.6 4.2 4.1 4.1 2.4 -0.3 -0.3 -0.3 -0.3 6.9 1.7 -0.3 -0.3 -0.3 -0.3 -0.3 -0.3 -0.3 -0.3 -0.3 -0.3 -0.3 -0.3 -0.3 -0.3 -0.3 -0.3 -0.3 -0.3 -0.3 -0.3 -0.3 -0.3 -0.3 -0.3 -0.3 -0.3 -0.3 -0.3 -0.3 17.7 13.8 13.5 22.2 36 51 62.7 67.7 86 103.6 108.4 111.7 131.6 129.9 134.5 140 151.3 183.1 203.7 215.4 226.1 234.8 227.6 218.3 218.3 234.2 244.1 251.1 252 252.5 251.6 248.4 232.5 231.2 231.2 231.2 238.3 249.2 258.5 268.2 254.4 245.7 245.7 256.3 257.9 282.7 293.1 297.8 304.4 311.1 325.8 335.3 338.1 327.7 321.3 312.6 305.1 296.5 295.7 300.6 314.9 333.4 373.4 387.5 388.6 386.2 381.5 385.1 381.7 373.2 392.4 410.9 417.3 419 424.3 451.3 444.8 440.1 437.5 446.7 439.1 433.2 433.2 439 445.4 443.7 445.6 446.1 439.1 425 417 407.6 402.1 394.2 370.6 362.3 362.2 347.9 331.1 317.4 308 304.2 301.6 300.7 299.8 298.6 299.1 299.5 292.1 291.9 294.1 293.3
-0.3 -0.3 4.8 21.5 60 64.7 49.9 49.9 49.9 57.4 76.6 91.9 85.5 91 100.9 107.6 109.4 114.2 90.6 72.5 52.5 30.6 11.3 5.1 2.8 2.8 3.8 4 3 2.1 1.5 0.9 -0.3 -0.3 -0.3 -0.3 -0.3 -0.3 -0.3 1.5 1.5 1.6 2.8 2 2.3 2.4 2.5 2.8 3.3 3.4 3.3 2.4 -0.3 -0.3 -0.3 -0.3 10.1 5.9 -0.3 -0.3 -0.3 -0.3 -0.3 -0.3 -0.3 -0.3 -0.3 -0.3 -0.3 -0.3 -0.3 -0.3 -0.3 -0.3 -0.3 -0.3 -0.3 -0.3 -0.3 -0.3 -0.3 -0.3 -0.3 -0.3 -0.3 -0.3 -0.3 -0.3 14.2 8.9 12.3 26.7 38 56.3 63.1 70.7 91.7 101.8 108.6 117.9 137.5 131.1 134.7 146.3 158.9 191.5 202.7 214.1 232.6 232.1 221.2 218.3 223.2 238.3 255.6 254.5 255.2 252.9 254.7 243.9 235.5 231.2 231.2 231.2 243.2 255.9 262 257.2 252 245.7 254 261.6 268 285.3 294.8 299.1 312.4 320.5 330 336.5 338.9 331.8 326.3 310.5 304 298 309.7 305.6 328 363.7 384.7 396.9 404.3 396.2 395 384.3 384.4 383.8 406.9 426.2 420.6 428.6 445.8 454.3 448.1 444.5 442 441.3 435.4 427.9 429.8 429.6 443.9 445.1 443.5 437.8 429.5 414.5 404.6 402.8 391.8 382.1 370.7 372.7 357.5 345.4 328 317.8 311.5 306.7 305.9 306 305.5 299.8 298.4 292 289.6 292 292.8 289.2
-0.3 -0.3 21.9 54.2 78 60.1 49.9 49.9 50.5 61.5 83.9 84.3 77.7 98 105.3 109.2 114.4 110.3 86.5 56.9 32.8 19.4 4.6 2.5 2.5 3.8 4.6 6 2.4 1.6 1.2 0.7 0.2 -0.3 -0.3 -0.3 -0.3 -0.3 -0.3 -0.3 -0.3 -0.3 -0.3 -0.3 -0.3 -0.3 1.8 2 2.2 2.4 2.4 -0.3 -0.3 -0.3 -0.3 11 7 7.4 -0.3 -0.3 -0.3 -0.3 -0.3 -0.3 -0.3 -0.3 -0.3 -0.3 -0.3 -0.3 -0.3 -0.3 -0.3 -0.3 -0.3 -0.3 -0.3 -0.3 -0.3 -0.3 -0.3 -0.3 -0.3 -0.3 -0.3 -0.3 -0.3 15.3 6.9 8.4 16 29 48.4 57.8 63.3 90.9 106.4 105 110.3 126.1 129.9 137.4 137 146.3 171.9 194.4 210.6 220.6 223.9 224 221.2 218.3 234.8 258.4 259.7 257.4 255.8 260.8 256.8 246.5 240.4 231.2 231.2 231.2 251.7 256.3 255.7 253 245.7 246.9 259.2 268.3 281.1 295.5 301.8 305.5 312.9 329 337.2 341.2 343.2 334.8 333.5 312.4 304.1 302.6 315.7 319.2 361.3 377.4 391.5 403.6 404 402.1 401.7 393 387.8 398.2 414.4 423.4 427.3 435 458 454 453.2 447.2 443.2 433.2 431.5 421.6 421.2 428.8 441.8 444.3 437.9 434.8 425.6 401.2 399.1 396 386.8 374.8 379.1 373.4 364.3 340.6 330.6 321.3 318.7 310.1 310.5 308.6 304.7 299.7 294 292.1 289.5 288.7 289.2 289.2
-0.3 6 46.7 73 75.2 56.1 52.6 55.3 60.1 72.1 79.1 71.4 81.8 97.6 99.9 108.3 111.4 99.9 71.5 45.8 22.6 6.1 3.5 2.1 2.3 7.5 8.7 6.8 3.7 1.4 1.1 0.6 0.1 -0.3 -0.3 -0.3 -0.3 -0.3 -0.3 -0.3 -0.3 -0.3 -0.3 -0.3 -0.3 -0.3 -0.3 0.8 1.3 1.5 1.5 -0.3 -0.3 -0.3 8.9 7.6 5.9 -0.3 -0.3 -0.3 -0.3 -0.3 -0.3 -0.3 -0.3 -0.3 -0.3 -0.3 -0.3 -0.3 -0.3 -0.3 -0.3 -0.3 -0.3 -0.3 -0.3 -0.3 -0.3 -0.3 -0.3 -0.3 -0.3 -0.3 -0.3 -0.3 12.5 7.3 7 9.6 19.5 35.9 51.9 56.4 76.6 104 114.7 118.6 115.3 124.5 133.8 139.9 142.4 152.8 182.1 200.3 210.8 224.6 230.3 228 227.3 239.1 253.8 262 257.1 256.5 265.5 266.4 257.4 249.8 241.7 231.7 231.2 240.7 251.4 253.9 249.1 245.7 245.7 257.2 269.4 274.3 291 300.8 302.6 304.4 322.4 336.5 350.5 356.9 347.4 339.2 343.2 314.7 305.8 317.6 323 342.2 373.8 385.7 396.3 402.3 402.6 402.7 405 395.6 391.9 406.2 425.5 427.3 429.5 457 450.6 446.3 442.8 438.3 431.9 425.2 424 416.5 413.8 436.5 440.5 437.5 439.6 435.6 415.4 400.6 395.5 389.6 379.1 382 380.8 377.5 358.6 342.8 327.8 329.6 321.1 314.2 314.6 311.5 304.9 297.3 305.4 296.4 296.8 289.2 289.2 289.2
-0.3 17.9 57.3 82.2 64.3 58.1 55.7 58.5 65 73.2 69.6 65.4 86 91.9 99.8 107 103.6 81.1 56.6 34.1 14.3 3.8 1.8 1.6 2.9 5.2 5.9 3.6 2.1 1.5 1 0.4 -0.1 -0.3 -0.3 -0.3 -0.3 -0.3 -0.3 -0.3 -0.3 -0.3 -0.3 -0.3 -0.3 -0.3 -0.3 -0.3 -0.3 0.1 -0.3 -0.3 1.8 6.4 7.3 6.6 -0.3 -0.3 -0.3 -0.3 -0.3 -0.3 -0.3 -0.3 -0.3 -0.3 -0.3 -0.3 -0.3 -0.3 -0.3 -0.3 -0.3 -0.3 -0.3 -0.3 -0.3 -0.3 -0.3 -0.3 -0.3 -0.3 -0.3 -0.3 -0.3 7.1 6.3 5.5 7.3 11.9 20.9 41.3 52.5 65.6 100.1 119 130 129.1 125.8 133.9 137.2 152 147.5 161.5 182.3 202.5 215.4 231.8 231.3 233.8 238.4 240 253.8 256 256.7 272.6 279.3 262.5 253.9 248.7 242.6 234.8 232.2 244.7 248.6 249.6 246 245.7 248.4 260.4 270.7 282.2 292.5 298.9 300.3 308.5 332 347.8 363.7 362.4 352.7 348.9 338.9 317.7 317.4 334.4 327.8 364.4 380.9 391.5 394.7 395.2 401.6 403.8 408.2 400.8 397.4 421.5 434.4 429.3 447.1 457.5 440.8 432.2 432.7 434.3 427.6 421.1 419.7 412 410.5 433.6 443.1 445.1 439.1 425 409.8 400.1 394.9 383.1 381.1 387.9 384.5 374.4 349.5 333.5 331.4 329.6 324.5 319.8 315.2 311.3 305.9 311 314.3 300.4 294.2 290 290.9 290.4
7.9 40.6 69.8 79.1 66.3 60.9 58.6 61.9 70.5 66.9 61.9 69.4 83.5 90 98.4 103.9 86.8 63.9 43.1 19.5 5.4 2.9 2.4 2.3 3 3.4 2.6 1.7 1.8 1.6 1 0.4 -0.3 -0.3 -0.3 -0.3 -0.3 -0.3 -0.3 -0.3 -0.3 0.6 0.8 -0.3 -0.3 -0.3 -0.3 -0.3 -0.3 -0.3 -0.3 2.7 6.4 7.4 5.6 -0.3 -0.3 -0.3 -0.3 -0.3 -0.3 -0.3 -0.3 -0.3 -0.3 -0.3 -0.3 -0.3 -0.3 -0.3 -0.3 -0.3 -0.3 -0.3 -0.3 -0.3 -0.3 -0.3 -0.3 -0.3 -0.3 -0.3 -0.3 -0.3 -0.3 3.8 4 5.5 13.8 22.6 30.5 46.5 55.4 82.8 116.6 128.4 131.8 139.3 135.2 140.8 146.1 149.9 156.3 167.4 190.3 211.6 230.2 234.2 239.4 241.1 242.3 251.5 255.1 257.1 261.7 281.6 271 258.4 253.5 247.5 245.1 237.4 238.9 246 251.7 245.7 245.7 245.7 252.7 265.9 273.3 281.8 286.8 292.9 300.9 314.7 339.7 358 371.6 356.7 352.7 350.8 331.1 320.8 322.3 339 343.7 369.7 384.4 389.8 388.8 398.8 402 405.8 413.6 408.1 407 428 427.7 429 449 431.9 430.3 420.9 433 430.9 429.9 419.1 412.6 406.2 412.2 431.2 435.5 428.6 424.9 419 405.5 398.1 390.4 384.5 388.2 388 382 366.6 339.4 333.8 332.2 331.2 327.6 320.5 319.9 314.4 312.9 315.1 308.6 299.2 294.1 292.6 294.6 297.9
25.7 44.5 71.9 81.8 73.7 60.9 60.9 64.6 67.9 61 61.3 69.3 80.7 89.6 97.6 93.8 72.8 51.5 30.7 9.4 4.5 2.5 1.4 1.5 2.4 2.9 2 1.4 1.5 1.5 1 0.4 -0.1 -0.3 -0.3 -0.3 -0.3 -0.3 -0.3 -0.3 -0.3 1.3 1.4 2.2 3.9 -0.3 -0.3 -0.3 -0.3 -0.3 -0.3 4.7 7.1 7 -0.3 -0.3 -0.3 -0.3 -0.3 -0.3 -0.3 -0.3 -0.3 -0.3 -0.3 -0.3 -0.3 -0.3 -0.3 -0.3 -0.3 -0.3 -0.3 -0.3 -0.3 -0.3 -0.3 -0.3 -0.3 -0.3 -0.3 -0.3 -0.3 -0.3 1.5 1.3 3.1 6.8 19.4 27.5 38.9 49.8 68.7 100.2 118.8 131.6 137 148.2 142.2 142.4 144.3 148.7 161.1 180.9 196.8 221.4 231.5 235.3 247.1 253.9 249.3 252.3 256 265.8 274.1 276.2 255.4 253.3 247.7 248.3 246.6 245.3 244.1 253.7 245.7 245.7 245.7 245.7 256.3 265.4 275.2 282.8 288.9 294.3 305.9 324.7 351.1 367.9 362.9 356.7 355.8 339.2 334 328.4 332.3 336.5 352.8 368.3 379.2 379.2 389.5 397.6 406.5 402.8 407.8 403.6 417.1 427 421.7 435.9 424.1 425.7 421.4 435.8 431.3 434.2 433.6 415.3 406.3 404 412.6 421.2 419.7 422.3 421.1 415.5 398.8 393.2 385.9 388.6 389.6 388.5 377.6 348.3 333.9 332.9 332.1 332.9 326 324.6 319.7 313.8 313.1 309.6 302.9 296.4 294.2 294.8 297.5 303.1
54.6 65.7 73.9 78 71.1 66.5 72.8 67.6 61.2 60.7 61.6 75.3 83.9 91.1 96 75.1 57.6 39.9 22.1 6.1 3.6 2 1.2 1.3 1.5 1.8 1.5 1.3 1.5 1.4 1.1 0.5 0 -0.3 -0.3 -0.3 -0.3 -0.3 -0.3 -0.3 -0.3 1.3 2 3.8 1.3 -0.3 -0.3 -0.3 -0.3 -0.3 1.1 6.2 6.1 -0.3 -0.3 -0.3 -0.3 -0.3 -0.3 -0.3 -0.3 -0.3 -0.3 -0.3 -0.3 -0.3 -0.3 -0.3 -0.3 -0.3 -0.3 -0.3 -0.3 -0.3 -0.3 -0.3 -0.3 -0.3 -0.3 -0.3 -0.3 -0.3 -0.3 -0.3 1.3 1.5 3.6 13.3 21.9 33.6 46.3 59.6 89.5 107.5 122.8 135.1 149.9 155.6 142.8 143.9 145.4 153.4 169.8 187 208.5 219 229.8 238.8 257.7 255 247.8 254.6 254.9 266 265.5 251.9 253.4 247.3 247.6 257.9 251.8 252.4 251.6 255.6 246.7 245.7 245.7 250.2 266.5 278.2 286.2 287.3 291.2 301 314.4 330.1 361.3 373.9 355.8 353.5 348.1 338.1 340.8 329.5 338.3 338.2 355.3 372.5 382.7 376.7 387.6 394.1 399.5 399.3 398 403.3 422.9 423.8 419.5 413.4 411.4 417 423.5 433.9 435.6 428.6 430.3 408.2 402.5 402.6 410.7 413.3 417.3 418.6 414.5 403.7 395.5 386.8 387.9 388.6 391.4 382.4 357.1 344.9 332.8 334.1 337.4 336.4 327.7 327.8 320.8 316.3 314.6 310.3 304.3 298.4 292.2 297.4 304.2 313.5
66.2 77.2 73.6 69 65.8 72.7 74.1 61.9 60.8 61.4 71.2 79.7 87.8 92.8 81.4 62.6 45.6 26.5 11.5 5.1 2.9 1.3 1.3 1.3 1.6 2.3 1.5 1.3 1.3 2 1.4 0.7 -0.3 -0.3 -0.3 -0.3 -0.3 -0.3 -0.3 -0.3 1 3 4.1 1.4 1.3 -0.3 -0.3 -0.3 -0.3 -0.3 1.3 5.8 -0.3 -0.3 -0.3 -0.3 -0.3 -0.3 -0.3 -0.3 -0.3 -0.3 -0.3 -0.3 -0.3 -0.3 -0.3 -0.3 -0.3 -0.3 -0.3 -0.3 -0.3 -0.3 -0.3 -0.3 -0.3 -0.3 -0.3 -0.3 -0.3 -0.3 -0.3 -0.3 2.4 3.6 11.9 18.6 28.8 39.8 54.5 78.9 96 107 124 144.7 153.5 153 142.1 145 145.9 160.3 172 203.1 208.1 218.5 235.9 256 256.8 259.6 245.1 245.4 256.1 259.4 246.7 250 254.8 244.3 250.9 254.1 258.5 257.7 254.2 258.3 245.7 245.7 251.2 260.3 275.1 285.3 290.5 291.7 295.6 308.5 319.3 340.6 367.1 361.2 354.3 348.6 338.2 339 325.4 328.6 338.8 345.2 370.8 383.1 377.2 372.5 375.8 388.3 390 389.6 392.8 406.6 420.9 412.6 413.3 402.5 405.7 415.2 422.9 431.2 430.5 427.5 419.1 409.8 402.2 403.2 408 412.9 414.8 415.1 408.9 398.7 385.7 386.9 387.3 389.6 385.1 364.2 347.5 334.3 330.4 342.3 343.3 335.8 331.8 331.2 323.4 319.7 314.5 310.4 305.2 294.1 296.6 301.9 311.4 320.9
82.3 76.1 71.3 65.3 65.4 73.7 63.3 61.2 60.8 64.1 71.5 82.3 91.5 85.7 70.7 50.6 33.4 17.7 7.2 3.6 2 1.3 1.3 1.4 2 2.7 2.2 1.3 1.3 1.7 1.4 -0.3 -0.3 -0.3 -0.3 -0.3 -0.3 -0.3 -0.3 0.8 1.9 3.2 1.4 1.3 1.3 1.4 1.3 -0.3 -0.3 -0.3 4.3 6.3 -0.3 -0.3 -0.3 -0.3 -0.3 -0.3 -0.3 -0.3 -0.3 -0.3 -0.3 -0.3 -0.3 -0.3 -0.3 -0.3 -0.3 -0.3 -0.3 -0.3 -0.3 -0.3 -0.3 -0.3 -0.3 -0.3 -0.3 -0.3 -0.3 -0.3 -0.3 3.4 5.6 14.1 19.8 25.2 30.7 45.5 65 80.2 94 107.2 130 143.7 142.7 142.9 136.6 140.8 147.4 171.9 192 201.6 208.3 226.9 246.4 258.4 254.9 248.6 238.4 241.9 258 245.6 241.5 255.1 241.3 242.8 250.5 262.1 272.7 273.7 258.8 251.8 245.7 251.1 257.9 269.4 288.7 288.6 292.4 304.3 312.8 313.9 328.7 351.6 352.7 354 343.1 343.6 336.7 333.8 322.4 332.9 346.4 356.5 378 384.8 371 370.2 374.6 381.6 387.1 384.7 391.7 406.3 410.2 401.9 395.1 396.3 404.8 420 422.5 428 421.7 421.5 414.1 404 402.2 404.6 416.1 414.1 415.2 411.3 398 385.3 384.1 385.4 387.7 381.7 362.8 353.5 341.5 330.6 332.9 340.9 344.4 337.1 335 330.8 326.8 320.5 316.5 311.7 300 286.2 297.7 313.6 321.8 322.7
78.6 69.6 62.3 64 69.8 64.4 61.3 61 69.6 77.3 80.1 75.7 75.8 71.2 56.4 37.8 21.6 11.2 4.2 2.3 1.4 1.3 1.3 1.4 1.7 2.2 2.2 1.3 1.3 1.8 2 -0.3 -0.3 -0.3 -0.3 -0.3 -0.3 2 1.6 1.3 1.6 2.7 1.4 1.3 1.4 3.2 1.3 -0.3 -0.3 -0.3 3.1 -0.3 -0.3 -0.3 -0.3 -0.3 -0.3 -0.3 -0.3 -0.3 -0.3 -0.3 -0.3 -0.3 -0.3 -0.3 -0.3 -0.3 -0.3 -0.3 -0.3 -0.3 -0.3 -0.3 -0.3 -0.3 -0.3 -0.3 -0.3 -0.3 -0.3 -0.3 1.9 5.6 9.5 23.8 26 24.7 36.3 49.4 58 65.5 84.4 101.8 99.8 114.3 124 132.4 131.5 138.8 154.4 177.3 183 196 214 241.4 250.4 249.6 242.2 240.1 231.5 246.9 241.2 235.1 246.8 236.5 238.7 245.7 259.1 270.9 286.1 270.1 262.5 248.9 245.7 253.5 257.9 266.9 279.2 286.2 301.5 319.7 322.6 321 335.5 346.9 341.1 341.2 339.6 333.2 338.4 319.4 324.6 343.7 351.7 359.5 383.3 378.9 366.6 375.7 375.6 377.5 380.7 384.6 393.2 403.3 403.2 392.7 395.3 401.5 408.6 415.4 419.4 420.6 412.3 412.9 407.1 402.6 404.4 409 411.2 411.9 406.9 397.8 386.3 384.1 383.5 385.4 379.8 359 353.2 346.6 335.6 319.7 326.6 335.9 339.2 339.2 334.1 331.7 318.5 320.8 313.1 305.9 281.1 290.8 313.9 323.3 322.1 319.2
69.2 60.7 57.9 66.9 64.9 59.8 60.7 63 80 87.9 88.1 80.7 66.3 51.4 40.2 23.8 16.7 6.9 3.4 1.5 1.3 1.3 1.3 1.3 1.4 1.4 1.3 1.3 1.3 1.4 1.7 -0.3 -0.3 -0.3 -0.3 1.5 2.2 3 6 1.3 2.2 1.3 1.3 1.5 4.8 2.8 -0.3 -0.3 -0.3 -0.3 -0.3 -0.3 -0.3 -0.3 -0.3 -0.3 -0.3 -0.3 -0.3 -0.3 -0.3 -0.3 -0.3 -0.3 -0.3 -0.3 -0.3 -0.3 -0.3 -0.3 -0.3 -0.3 -0.3 -0.3 -0.3 -0.3 -0.3 -0.3 -0.3 -0.3 -0.3 0.6 2.1 6.8 11.9 21.6 32.6 55.5 57.2 69.7 83.9 86.9 99.2 107.7 118.8 122.3 121.6 123.3 127.3 131.8 149.2 172.9 187.8 205.3 222.4 236.4 244.3 235.8 232.3 233.5 228.6 231.2 228.6 238.8 233.1 231.9 237.8 255 265.4 280.4 273.6 261.5 258.8 246.4 250.6 256.8 258.2 260.7 271.2 289.7 314.2 319.5 322.6 331.3 336 338.8 340.2 338.9 332.2 328.7 327.4 313.8 329.3 345.1 353.8 365.8 370.5 360.9 375.4 375.7 375.3 379.5 382.9 388 391.3 392.8 395.4 393.5 396.4 401.6 406.6 410.3 410.6 410.8 406.5 406.3 403.1 403.2 406.3 409.4 414 412.5 403.9 386.9 387.5 382.7 385 377.7 363.3 349.1 343.4 332.7 324.6 316 324.8 328.6 335.1 335.4 317.7 309.3 316 317.8 305.2 278.9 283.1 303 322.7 318.8 317.3 302.8
61.7 55.1 60.8 66.3 59.5 60.7 64.4 65.9 85.8 90.6 86.4 70.2 59.9 46.5 27.2 20.1 10.7 4.6 2.1 1.3 1.3 1.3 1.3 1.3 1.4 1.9 1.6 1.4 1.3 1.3 -0.3 -0.3 -0.3 -0.3 1.3 1.6 2.5 4.9 3 1.3 1.3 1.3 1.3 2.7 4.6 5.7 -0.3 -0.3 -0.3 -0.3 -0.3 -0.3 -0.3 -0.3 -0.3 -0.3 -0.3 -0.3 -0.3 -0.3 -0.3 -0.3 -0.3 -0.3 -0.3 -0.3 -0.3 -0.3 -0.3 -0.3 -0.3 -0.3 -0.3 -0.3 -0.3 -0.3 -0.3 -0.3 -0.3 -0.3 -0.3 1.7 4.8 6.7 17 34.2 57.8 78.1 82.6 93.6 109.2 108.2 114.3 121.7 130.1 130.6 130 140.9 147.1 146 146.8 164.1 187.2 208.3 216.1 232 229.8 220.4 224.6 220.1 218.6 220.2 229.4 226.1 225.5 231.3 244.6 259.7 273.1 274.8 255.1 256.7 256.6 246.7 257 261.1 260.9 260.7 277.6 296.3 312.8 316.6 324.5 333.1 343.8 342.7 343.8 329.4 320.3 319.3 311.4 317 334.4 346 353.9 357.9 350.1 359.5 372.3 371.1 377.4 386.1 395.4 396 392.2 383 385.4 392.2 397.6 399.3 404.1 403.2 404.1 400.6 400.5 401.4 404 405.1 408.1 414.7 414.2 406.4 388.8 383.9 384.8 381.2 379.3 367.8 348.1 343.6 330.5 327.4 314.1 320.7 324.4 326.2 328.8 316.3 291.4 292.7 305.3 300.7 277.5 283 288.3 308.8 309.1 300 295.2 274.8
55.3 53.1 62.9 69.1 57.6 66.7 81.2 83.6 83.7 87 75.9 64.3 54.8 36.3 23.9 17 7.9 3.3 1.5 1.3 1.3 1.3 1.3 1.3 1.3 1.5 1.4 1.7 1.7 0.6 -0.3 -0.3 -0.3 1.7 1.7 1.3 2.1 2.3 2.3 1.3 1.3 1.3 3.4 5.9 3.5 -0.3 -0.3 -0.3 -0.3 -0.3 -0.3 -0.3 -0.3 -0.3 -0.3 -0.3 -0.3 -0.3 -0.3 -0.3 -0.3 -0.3 -0.3 -0.3 -0.3 -0.3 -0.3 -0.3 -0.3 -0.3 -0.3 -0.3 -0.3 -0.3 -0.3 -0.3 -0.3 -0.3 -0.3 -0.3 -0.3 6.6 9.1 15.4 30.9 58.3 73.1 85.1 100.3 114.4 120.1 125.3 130 141.4 148.1 143.6 151.1 155 151.5 152.5 152.7 162.2 183.2 205.1 215.6 208.3 203.7 215.3 212.4 210.9 212.6 217.2 219.4 219.6 223.3 235.1 248.1 259 276.1 249.7 246.5 250.2 246.3 250.7 262.6 262.9 262.5 262.9 280.2 299.5 313 318.6 333.2 342.4 347.2 342 331.7 316.7 312.5 306.8 310.6 322.8 334.7 340.2 342.9 341.6 351.5 358.2 366.8 378.3 388.3 399.4 404.1 405.1 395.3 381.4 378.4 391 392.7 396.6 398.9 397.5 398.9 393.4 393.6 395.9 402.3 403.2 411 415.2 408.6 395.7 380.1 384.1 389.9 386.1 378.1 356.6 339.3 328.1 324.5 320.8 312.4 324.2 322 320.3 314.5 290.8 277.6 260.4 280.3 266.7 275.6 274.8 280 293.2 289.4 286.1 264.7 246.4
52 54.9 63.3 56.4 59.3 80.4 88.8 85.7 85.1 72.8 63.9 56.7 40.2 28.4 21.6 13.3 6.4 2.7 1.4 1.3 1.3 1.3 1.3 1.3 1.3 1.3 1.3 1.6 1.3 -0.3 -0.3 0.6 1.3 2.2 2.3 1.3 1.3 1.3 1.3 1.3 1.3 1.9 6.1 3 -0.3 -0.3 -0.3 -0.3 -0.3 -0.3 -0.3 -0.3 -0.3 -0.3 -0.3 -0.3 -0.3 -0.3 -0.3 -0.3 -0.3 -0.3 -0.3 -0.3 -0.3 -0.3 -0.3 -0.3 -0.3 -0.3 -0.3 -0.3 -0.3 -0.3 -0.3 -0.3 -0.3 -0.3 -0.3 3.9 5.5 18.1 23.7 33.2 51.3 68.1 82.9 97.9 116.3 122.4 142.3 146.5 145.4 153.6 163.2 156.2 160.3 168.2 161.8 166.8 163.9 163.6 171.2 194.3 195.3 195.5 202.8 204.8 204.7 205.1 209.6 211.2 213.1 217.1 223.9 236.2 250.4 258.3 240.8 233.5 238.5 248.1 246.6 254.5 266.8 267.7 265.3 265.6 284.4 303.7 315.9 330.6 338.2 343.2 344.9 340.8 317.6 303.9 303.7 303.3 316.1 328.1 331.5 332.1 333.8 341.9 349.2 357.4 369.2 384.4 392.3 406.5 410.3 400.7 380.6 384.5 373.5 381.1 388.7 392.1 384.9 390.7 387.7 388.6 391.9 393.6 399 402.1 409.3 403.7 397.7 376.9 380.1 391.6 386.3 384 359.2 341.2 322.2 318.6 318.7 312.4 312.3 323.3 308.6 302.4 291.3 280.6 256.3 237.1 248.3 255 251 253.3 267.3 276.9 269 249.3 238.8 218.9
52.5 60.2 55.1 55.9 69.7 91.2 88 89 77.9 69.1 61.7 48.7 32.3 25.5 18.2 9.4 3.7 1.4 1.5 1.5 1.3 1.3 1.3 1.3 1.3 1.3 1.3 1.3 -0.3 -0.3 0.4 1 1.3 1.4 1.7 1.3 1.3 1.3 1.3 1.3 -0.3 -0.3 -0.3 -0.3 -0.3 -0.3 -0.3 -0.3 -0.3 -0.3 -0.3 -0.3 -0.3 -0.3 -0.3 -0.3 -0.3 -0.3 -0.3 -0.3 -0.3 -0.3 -0.3 -0.3 -0.3 -0.3 -0.3 -0.3 -0.3 -0.3 -0.3 -0.3 -0.3 -0.3 -0.3 -0.3 -0.3 -0.3 5.7 12.8 27.4 31.5 34.6 49.5 67.5 82.3 96.1 106.8 120.4 139 154.8 163.8 157 173.8 176.1 175.2 172.7 176 182.8 180.8 183.1 191.2 195.8 199.7 191.6 201.6 204.7 203.2 202.1 202.7 204.3 207.6 212.7 217.1 226 237.5 245.1 226.3 227 228.1 239.5 242.6 246.6 261.7 270.4 275 277.4 272.4 295 312.3 322.6 332.8 337.6 341.9 343.2 327 310.3 303.3 303.3 307.8 320.3 329.7 326 327 334 340 347.8 361.3 372.1 384.9 394.9 406.1 399.6 377.6 376.6 371.4 371 373.9 385 373.6 382.2 381.1 373.7 382.6 388.1 396.7 398.2 401.1 401.1 392.5 371.8 374.3 388.5 391.5 373.3 356.4 345.7 315.9 313.4 310.6 310.6 291.4 294.9 293 282 271.3 262.8 245.4 221.1 211.4 227.9 247.3 228.8 244.7 243.8 245.1 226.7 218.2 210.1 187.3
55.7 59.3 52.7 65.7 86 89.3 92.3 80.5 73.1 69.3 57.4 39.7 29.9 22.9 13.3 7.1 2.6 1.6 1.8 2 1.8 1.3 1.3 1.3 1.3 1.3 1.3 1.3 1 0.6 0.9 1.3 1.3 1.3 1.3 1.3 1.3 1.3 1.3 -0.3 -0.3 0.3 -0.3 -0.3 -0.3 -0.3 -0.3 -0.3 -0.3 -0.3 -0.3 -0.3 -0.3 -0.3 -0.3 -0.3 -0.3 -0.3 -0.3 -0.3 -0.3 -0.3 -0.3 -0.3 -0.3 -0.3 -0.3 -0.3 -0.3 -0.3 -0.3 -0.3 -0.3 -0.3 -0.3 -0.3 -0.3 7.9 14.3 30.4 48 52.1 46.3 63.1 84.1 90.9 98.9 117.1 131.8 147.1 160.4 165.6 169.7 185.9 184.2 191 191.8 189.3 188 187.6 194.5 205.6 211 213.6 212.2 209.2 208.5 205.8 203.9 202.2 204.3 208.2 212.2 217.7 219.4 223.3 215.2 213 215.6 229.3 238.4 244.8 253.4 273.1 279.4 283.1 282.6 286.3 305.5 319.8 325.8 331.2 339.2 343.9 339.2 311.8 309.8 303.3 303.3 313.8 324.5 325.6 325 327.3 333.2 340.5 353 363.6 372.7 381.6 387.6 387.1 375 370.4 366.1 377.2 364.9 367.9 367.8 365.6 374 367.5 375.2 379 396 395.2 399.3 399.5 395.1 367.2 365.3 379.3 391.8 378.5 361.5 344.6 320.2 307 304.6 299.3 281 259.9 253.4 247.4 249.7 232 224.6 211.3 200.3 193.8 213.1 227.1 216.4 230.2 214.4 199.7 198.7 196 185.6 185.7
57.9 49.8 55.2 75.4 85.5 89.2 89 79.8 72 66.5 49.8 34.6 26.9 17.1 8.9 3.5 2.4 1.6 1.9 1.9 1.7 1.3 1.3 1.3 1.3 1.3 1.3 1.3 1.4 1.3 1.4 1.4 1.4 1.3 1.3 1.3 1.3 1.3 1.3 1.3 -0.3 -0.3 -0.3 -0.3 -0.3 -0.3 -0.3 -0.3 -0.3 -0.3 -0.3 -0.3 -0.3 -0.3 -0.3 -0.3 -0.3 -0.3 -0.3 -0.3 -0.3 -0.3 -0.3 -0.3 -0.3 -0.3 -0.3 -0.3 -0.3 -0.3 -0.3 -0.3 -0.3 -0.3 -0.3 -0.3 7.9 20.5 29.6 48 61.1 61.3 58.7 79.9 95.1 103.4 111.1 128.9 142.9 155.9 160.3 165.4 178.6 186.6 194.3 201.4 202.2 200.1 195.5 198 205.5 212.7 218.9 225 223.5 222.4 212.3 206.4 203.2 202.5 205 207 210.7 208.8 207.6 209.2 209.6 211.5 213.3 226.2 240.5 246.8 257.2 274.8 280.3 283.7 289.4 296.7 315.2 322.9 329.8 334 337.5 340.6 325.1 311.6 303.3 303.3 304.7 319.2 324.7 323 325.5 330.5 337.9 346.2 354.6 363.4 369.3 371.9 374.4 370.8 366.4 360.1 367.5 361.1 356.9 349.8 353.8 360.1 357.8 365 372.1 390 390.5 395 389.1 394.2 369.9 358.8 375.9 386.2 379.1 357.1 340.5 323.9 303.2 299.5 279.1 266.4 248.4 233 229.9 222 223.7 219.5 206.1 193.3 187.6 187.7 191.7 195.8 195 187.7 184.8 185.9 184.9 185 185.5 185.8
49.8 47.8 64.2 76.3 80.9 85.1 81.3 75.5 71.8 56.3 39.8 31.7 21.5 11 4.3 2.5 2.2 1.5 1.5 1.5 1.4 1.3 1.3 1.3 1.3 1.3 1.3 1.3 2.1 1.9 2.2 2 1.7 1.6 1.5 1.5 1.8 2.4 2.4 4.5 1.3 -0.3 -0.3 -0.3 -0.3 -0.3 -0.3 -0.3 -0.3 -0.3 -0.3 -0.3 -0.3 -0.3 -0.3 -0.3 -0.3 -0.3 -0.3 -0.3 -0.3 -0.3 -0.3 -0.3 -0.3 -0.3 -0.3 -0.3 -0.3 -0.3 -0.3 -0.3 -0.3 -0.3 -0.3 -0.3 25.6 33.6 46.7 61.7 68 66.6 73.4 89.6 102.2 108.5 124.6 139.1 154.1 163.7 167.9 174.2 184.2 192.9 202.1 205.1 203.4 203.1 205 206.4 213.4 217.2 224.8 230 234.8 224.3 216 209.1 204.6 203.8 203.8 203.1 204.5 208.7 214.5 216.2 216.1 216.3 222.1 219.9 229.9 244 259.5 277 282.4 289.4 296.1 300.1 313.9 325.3 329.3 335.7 336.1 323.7 305.6 312.5 303.3 303.3 314.3 321 322.6 325.1 328.7 335 341.2 348 354.7 364.1 366.9 368.7 366.6 357.6 353.8 358.8 352.9 354.1 349.5 341.5 346.8 348.7 353.7 365.2 373.2 383 386.2 381.4 379.8 369.4 355.2 360.6 377 374.5 359.4 338.1 327.6 302 293.9 274.6 267.1 242.1 233.2 214.2 214.9 204.9 204.1 195.8 186.7 185.2 185.2 186.1 185.2 184.4 184 184 184.3 186.1 185 185.8 189.1 197
41 52.1 65.2 73.3 78.5 78.8 72.8 68.8 61.5 46.4 36.7 26.4 15.9 7.2 2.8 1.8 1.7 1.5 2.4 1.3 1.3 1.3 1.3 1.3 1.3 1.3 1.3 1.3 1.4 2.9 3.1 2.7 2.3 2 1.9 1.9 2.2 3.5 4.1 3.2 -0.3 -0.3 -0.3 -0.3 -0.3 -0.3 -0.3 -0.3 -0.3 -0.3 -0.3 -0.3 -0.3 -0.3 -0.3 -0.3 -0.3 -0.3 -0.3 -0.3 -0.3 -0.3 -0.3 -0.3 -0.3 -0.3 -0.3 -0.3 -0.3 -0.3 -0.3 -0.3 2.4 2.7 4.1 28.1 37.3 41.3 57 68.8 75.8 79.5 87.6 96.5 109.7 118 135.5 151.3 164 167.6 174.4 179.7 197.7 202.2 211.8 217.1 217.4 216 211.4 213.9 218.7 223.8 232.1 238.5 231.7 227.8 217.5 213.7 210.2 209.3 210.3 218.4 232.9 226.8 234.3 224.7 222.6 226.6 237.6 229.6 229 239.5 257.5 275.7 287.9 292.9 296.9 297.3 305.8 313 323.1 328.4 316.1 299.7 306.1 304.4 304.2 304.2 314.5 318.9 323.5 327.6 332 336.7 342 352.6 362.7 368.4 372.4 364.4 358.6 341.5 349.1 345.3 344 342.2 337 336 340.7 345.5 354.1 360.6 367.2 370.7 372.1 372.4 365.5 348.2 349 363.2 358 350.2 340.7 326.9 307.7 285.3 270.7 252 237.5 226.5 208.3 200 195.1 192.5 189.5 186.4 183.5 183.2 183.6 184.3 183.6 183.3 184.1 187.3 190.8 196.1 205.2 210.5 213.6 216
44.1 53.5 66.4 72.8 75 71.5 69.3 75 64.9 43 33.1 21.7 10.8 4.5 2.2 1.9 1.6 1.5 1.9 1.7 1.3 1.3 1.3 1.3 1.3 1.3 1.3 1.3 1.4 2.8 3.5 3.6 3.1 3.1 2.3 2.2 2.9 5.7 6.2 8.8 -0.3 -0.3 -0.3 -0.3 -0.3 -0.3 -0.3 -0.3 -0.3 -0.3 -0.3 -0.3 -0.3 -0.3 -0.3 -0.3 -0.3 -0.3 -0.3 -0.3 -0.3 -0.3 -0.3 -0.3 -0.3 -0.3 -0.3 -0.3 -0.3 -0.3 -0.3 3.7 6.9 5.8 21.1 42.1 42.7 52.2 70.1 75.4 82.4 90.3 97.8 107.3 124.5 136.5 145.6 162.5 165 172.9 172.5 192.2 200.7 210.5 219.3 228.9 225.2 222.7 225 220.9 226.6 231.2 236 234.9 232 227 223.7 221 221.8 224.4 228.8 236.8 236.9 250.8 238.4 233.6 235 245.9 254.2 234.5 233.7 247.4 257.6 264.6 268.1 277.7 276.2 282 283.9 290.8 301.4 304.6 290.3 295.5 301.9 317.5 307.6 306 314.3 322.2 325.7 328.8 332.5 338.2 349.5 355.5 359.8 361.7 361.5 347.1 334 340.4 336.9 333.5 329.1 326.4 326.8 331.4 332.9 336.4 347.1 350.9 351.8 347.7 348.7 347.6 342 339.3 342.2 338.6 333.6 330.2 325.2 312.6 286.6 274.1 252.4 233 218.2 209.1 198.3 192.9 187.8 183.8 181.7 181.8 185.2 185 185.8 184.7 184.2 186.2 201.9 207.7 213 219.6 225.3 231 237.2 239.4
46.2 57.2 66.6 70.8 78.3 75.1 79.3 79.9 58.4 41.2 30.5 19.2 7.6 3.5 2 1.8 1.6 1.5 1.5 1.4 1.3 1.3 1.3 1.3 1.3 1.3 1.3 1.3 1.6 3.1 3.6 5.7 3.7 3.6 2.7 2.7 4.5 6.6 9.8 -0.3 -0.3 -0.3 -0.3 -0.3 -0.3 -0.3 -0.3 -0.3 -0.3 -0.3 -0.3 -0.3 -0.3 -0.3 -0.3 -0.3 -0.3 -0.3 -0.3 -0.3 -0.3 -0.3 -0.3 -0.3 -0.3 -0.3 -0.3 -0.3 -0.3 -0.3 -0.3 7.3 10.7 16.7 36.8 46.3 51.3 65.8 73.8 82.1 90.2 102.3 109.1 126.4 148.8 156 164.5 163.3 173.6 168.4 174.2 201.1 211.7 220.3 227.4 231.6 231 226.8 227.4 227.9 233.2 236.3 236.7 237 236.7 233.6 232 229.6 228.7 232.2 236.4 244 249.6 248.2 248.4 240.4 250.8 264.8 262.6 239.4 240.9 261.4 269.1 276.2 273.7 271.3 279.8 277 275 277.7 280.3 283.8 288.4 299.2 314.5 312.4 309.5 314.8 318.1 322.1 325.4 329.1 332.8 341.5 341 340.1 340.8 338 331.7 327.3 324.1 321.1 323 326.7 328 322.3 328.7 328 332 333.9 339.3 345.5 347.8 332.8 348.7 341.5 335.6 333.3 333.8 327.1 319.2 313.9 304.8 292.4 278 265.8 248.1 233.1 219.1 206.4 201.9 194.2 185.3 177.3 185.6 187.2 185.6 187.8 185.2 186 189.8 200.4 216.7 224.2 230.7 238 241.2 245.4 251.2 252.3
63.5 67.9 72.2 79.9 82.4 74.6 85.3 76.2 52.8 41 26.8 15.8 5.9 2.9 1.9 1.6 1.5 1.5 1.4 1.3 1.3 1.3 1.3 1.3 1.3 1.3 1.3 1.8 3.6 5.1 5.5 4.3 3.5 3 2.9 4.1 8.5 10.7 -0.3 -0.3 -0.3 -0.3 -0.3 -0.3 -0.3 -0.3 -0.3 -0.3 -0.3 -0.3 -0.3 -0.3 -0.3 -0.3 -0.3 -0.3 -0.3 -0.3 -0.3 -0.3 -0.3 -0.3 -0.3 -0.3 -0.3 -0.3 -0.3 -0.3 -0.3 -0.3 8.8 11.3 18.1 33 44.6 50.1 58.9 73.4 83.2 86.4 100.3 116.3 127.8 152.1 163.2 176.8 175.7 183.7 194.7 170.9 179.7 200.8 217.1 223 229.3 235.4 233.6 231.4 233.1 237 239.3 239.9 239.9 245.7 244.8 244.9 250.8 247.4 260.2 246.6 250.4 253.6 252.1 251.1 246.5 251.4 266.5 273.2 251.6 247.4 252.4 272.7 275.8 278.5 274.9 282.5 287.9 284 285.1 284.2 285.9 286.1 292.5 301.5 306.2 310 317.5 319.8 319.5 320.4 325.8 327 330.2 330.6 333.1 331.7 327.6 324.7 326.9 320.8 318.1 315.7 319.9 323.3 317.7 317.6 319.6 323.5 325.7 329 337 340.1 326.1 337.5 341.1 333.4 329.1 326.3 328 333.2 336 319.5 306.6 289.9 274.1 257 247.5 229.5 218.4 206.7 202.9 192.3 178.5 174.3 186.4 184.1 182.2 182 184.6 191.6 198.2 213.4 223.9 235.6 239.2 245 251 261.1 270.6 268.4
70.5 75.8 79.1 85.5 76.3 84 87.6 72 51.6 38.2 23.7 10.2 4 2.3 2 1.6 1.4 1.5 1.5 1.4 1.3 1.3 1.3 1.3 1.3 2.4 4.8 3.2 7.8 7.7 8.4 4.3 3.8 3.7 4.1 8.9 10.3 6.5 -0.3 -0.3 -0.3 -0.3 -0.3 -0.3 -0.3 -0.3 -0.3 -0.3 -0.3 -0.3 -0.3 -0.3 -0.3 -0.3 -0.3 -0.3 -0.3 -0.3 -0.3 -0.3 -0.3 -0.3 -0.3 -0.3 -0.3 -0.3 -0.3 -0.3 -0.3 1.9 11.9 15.1 30.8 44.3 54.6 54.6 68.1 83.8 92.2 97.8 112.5 131.2 152.1 169.7 178.4 182.4 192.9 199.1 186 178.4 197.6 217 231 241.6 241.8 243.4 243.4 241.6 245.5 247.8 252.4 243.3 243.7 251.5 252.7 257.3 257.7 278.1 273.8 260.8 263.4 262.1 265.3 259.4 269.2 257.7 266.8 265.8 263.2 264.4 272.7 283 286.4 280.5 281.1 288 294.1 300.8 292.9 289.9 292.1 305.9 308.9 308.6 317.1 319.8 321.9 321 320.4 319.7 319.7 319.7 319.7 319.7 319.7 320 321.2 325 324 319.6 316.3 309.8 312.2 316.7 310.7 306.8 316.9 318.1 320.5 325.7 327.5 325.1 323.2 325.6 323.2 321.5 324 335.7 340.6 345.1 335.6 323.1 302.3 272.3 265 252.4 233.7 228.4 215 203.6 192.1 191.1 177.7 178.8 179 173.5 175.3 180 187.6 194.6 206.5 220.5 232 237.2 244.7 249 260.5 279.2 279.6 279.3
71.4 74.5 81 83.6 75.6 90.7 87.7 68.2 48.8 29.4 15 6.2 3.8 2.3 2.1 2.4 1.7 1.5 1.6 1.7 1.5 1.3 1.3 1.8 4.7 9.7 6.5 5 12.1 12.7 6.7 4.8 4.5 4.3 12.6 9.6 9.8 -0.3 -0.3 -0.3 -0.3 -0.3 -0.3 -0.3 -0.3 -0.3 -0.3 -0.3 -0.3 -0.3 -0.3 -0.3 -0.3 -0.3 -0.3 -0.3 -0.3 -0.3 -0.3 -0.3 -0.3 -0.3 -0.3 -0.3 -0.3 -0.3 -0.3 -0.3 -0.3 12.6 16.8 24.9 41.2 59.5 58.9 61.1 79.7 94.3 98.9 117.3 128.3 146.7 171.5 184.8 193.5 190.5 203 203 188 193.2 216.1 229.4 248.2 247.9 251.3 253 247.3 250.3 249 252.3 256.8 246.8 257.9 257.7 261.6 268.4 268 289 278 273.8 273.4 267.7 267.2 273.8 281.9 266.1 274.8 279.2 287.6 292.8 287.2 295.4 290.5 286.5 291.1 297.8 303.7 302 298.4 295.1 308.6 322.5 327.3 321.4 329.9 332.8 327.9 320.6 319.8 319.7 319.7 322.2 322.2 333.4 319.7 319.7 329.3 332.1 324.6 319.4 320.8 311.1 306.2 306.8 306.3 306.4 310.1 312.7 314.7 314.9 313.5 308.7 313 314.8 322.3 324.2 341.5 344.3 344.1 344.1 332.7 303.4 282.5 264.7 246.6 234.4 232.2 215.1 201.6 196.9 185.9 185.3 174.7 170.5 169.7 169.5 174.6 181.7 187.5 202 214.3 224.5 230.6 242 250.2 264.8 276.3 283.1 282.8 289.2
69 74.1 82.8 80.2 85.3 91.8 82.4 62.4 43.5 20.9 8.1 4.9 2.9 2.4 2.8 2.5 1.9 1.5 1.6 2.7 2.2 2.3 2.4 3.8 10.9 17 8 6.8 15.9 18.5 7.3 11.1 5.1 14.2 7.2 9.5 -0.3 -0.3 -0.3 -0.3 -0.3 -0.3 -0.3 -0.3 -0.3 -0.3 -0.3 -0.3 -0.3 -0.3 -0.3 -0.3 -0.3 -0.3 -0.3 -0.3 -0.3 -0.3 -0.3 -0.3 -0.3 -0.3 -0.3 -0.3 -0.3 -0.3 -0.3 -0.3 8.8 21.6 22.2 32.6 49.4 59.5 59.3 72.9 86.8 100.4 111.1 120.5 141.5 163.5 181.8 199 198.6 207.7 211.8 200.1 192 211.7 230.4 247.2 251.4 257.4 259.8 258.2 254.9 253.3 251.8 256.5 251.7 250.8 262.6 268.2 278.2 271.9 276.1 293.2 279.3 280.3 276.6 278.1 279.3 296.1 285 276.4 282.4 292.6 312.5 312.7 307.6 302.7 302.1 299.4 296.9 301.8 304.9 309.8 299.2 302.4 321.5 333.9 323.5 327.5 334.6 336.4 329.9 322.5 321.6 324.9 323.2 325.7 339.6 340.6 327.9 323.5 322.6 318.8 316.5 314.9 309 303.5 293.9 301.9 291.1 303.9 300.4 300.1 297.9 299.2 302.8 308.5 314.7 322.3 326.8 337.7 345.3 345.3 335 327.3 300.2 283.1 270.9 248.3 235.4 227.5 213.9 203.2 200.3 189.4 181.7 184.4 171.7 164.7 165 167.6 174.3 179.8 194.3 203.6 217.2 222.4 237.4 252.1 256.5 271.6 282.7 281.2 286.1 292.4
66.2 72.4 77.7 78.5 88.4 89.1 74.3 55.9 38.1 16.2 5.3 4 3.3 2.6 2.4 2.1 1.7 1.5 1.6 2.8 3.2 3.1 4.7 9.7 20.9 20.2 14.7 10.2 22.3 14 15.7 10 6.5 7.6 6 -0.3 -0.3 -0.3 -0.3 -0.3 -0.3 -0.3 -0.3 -0.3 -0.3 -0.3 -0.3 -0.3 -0.3 -0.3 -0.3 -0.3 -0.3 -0.3 -0.3 -0.3 -0.3 -0.3 -0.3 -0.3 -0.3 -0.3 -0.3 -0.3 -0.3 -0.3 -0.3 4.4 20.2 22.7 27.1 41.7 58.8 61.3 64.4 79.9 95.4 111 116.7 133.3 157.4 176.9 196.2 201.6 205.3 214.4 207.1 206.1 199.8 222.2 241.8 255.1 260.6 266.7 266.8 262.2 266.2 256.3 260.6 259.6 253.2 255.9 262.5 277.8 281.1 275.3 286.7 294.2 282.5 287.7 277.1 284.6 287.1 301.3 284.1 291.8 290.3 322.5 329.3 326.5 321.6 314.7 312.8 302.7 306.5 307.9 312.3 312 303.3 314.8 329.6 328.7 324.9 337.2 340.7 342.2 333 325.3 327.7 328 332.6 335 343.8 338 329.1 324.7 319.7 315.4 317.5 318.6 304.8 294.8 289.4 287.2 288.7 290.1 289.3 289.6 292.7 298.3 302.6 310 315 320.4 328 340.1 344.7 345.8 333.4 311.5 283.7 280 256.7 235.7 227.1 217.1 206 196.7 194.1 179.2 175 176.7 166.8 164.7 163.8 166.8 172 184.7 194.2 206.2 213.7 231.1 244.1 251.5 264.5 279.4 273.8 277.7 291.5 299.4
64.5 75.7 73.6 75.6 86.1 82.6 65.1 49.9 32.3 11.4 3.8 4 3.9 3.2 3 1.9 1.6 1.5 1.6 2.2 3.4 5.6 8.6 18.7 25.8 26.4 18 15.5 16.8 15.8 19.3 5.4 6.1 5.8 -0.3 -0.3 -0.3 -0.3 -0.3 -0.3 -0.3 -0.3 -0.3 -0.3 -0.3 -0.3 -0.3 -0.3 -0.3 -0.3 -0.3 -0.3 -0.3 -0.3 -0.3 -0.3 -0.3 -0.3 -0.3 -0.3 -0.3 -0.3 -0.3 -0.3 -0.3 -0.3 -0.3 12.2 19.2 21.7 34.7 55.9 65.5 65.7 68.5 86.7 105.8 118.5 125.5 147.9 166.7 186.2 204.6 210.2 214.9 217.1 208.5 210.4 217.4 237.8 250.2 260.8 268.7 278.3 276.5 271.8 264.5 259.7 262.9 255.3 254.3 258.2 274.9 286 273.4 272.1 300.7 289.8 294.3 289.6 282.2 287.4 291.7 297.5 290 295.9 306.5 324.8 332.2 332.2 324.7 319 309.7 315.1 315.1 314.1 313.7 309 309.6 326.8 330.4 325.9 335.9 350.5 351.3 345.3 338.2 330.5 338.2 338.6 333.9 340.7 346.4 344.3 332.5 330.8 324.3 325.5 323.6 324.4 310.3 302.3 299.4 286.8 289 290 281.7 285 290 291.6 299.3 305.2 308.7 318.1 328.4 334 337.4 334.9 315.5 283.7 278.4 265.3 239.8 230.8 220.6 207.3 196.9 192.3 179.3 173.4 170.8 163.6 162.5 160.6 165.3 169.5 175.4 183.1 189.6 203.6 220.4 233.7 246.1 257.7 266.1 261.5 270.2 288.1 294.9 304.8
66 78.2 70.6 74 78.8 71.7 55.3 43.4 26 9.6 4.6 4.3 4.5 3 2.6 1.6 1.5 1.5 1.6 2.6 5.8 11.2 12.8 22.2 33.1 29.9 21.5 18.5 19.6 21 19.7 5.4 7 -0.3 -0.3 -0.3 -0.3 -0.3 -0.3 -0.3 -0.3 -0.3 -0.3 -0.3 -0.3 -0.3 -0.3 -0.3 -0.3 -0.3 -0.3 -0.3 -0.3 -0.3 -0.3 -0.3 -0.3 -0.3 -0.3 -0.3 -0.3 -0.3 -0.3 -0.3 -0.3 -0.3 5.9 15.2 18.4 28.6 47.4 65.3 69.3 73.2 78.9 94.5 113.6 130.3 141.3 159.9 169.3 194.8 209.3 212.5 216 217.1 212.4 216.2 228.8 245 258.3 269.5 274.4 278.4 274.6 275 261.5 263.3 259.8 256.1 254.7 259.7 282.9 278 266.6 277 305.7 292.3 300.7 289.9 291.3 292.7 305.8 294.5 298.9 298 318.7 334.8 336.1 329.6 327.1 320.3 320.6 319.7 317.5 316.8 314.3 316.3 327.1 333.7 328.6 336.6 351.3 354.6 353.3 345.2 346.8 344.3 349.9 345.6 343.3 355.1 348.1 342 335.5 329.7 330.9 329.6 327.6 316.4 311.4 303.4 296.5 285.1 282.6 276.9 279 278.4 282.2 288.6 293.9 297.9 305 313.7 323 326.6 324.1 311.6 288.1 270.5 266.4 245.6 228.2 220.7 209.8 198.8 186.8 176.7 167.9 163.7 160.6 160.9 160 161.4 167 172.3 180.2 191.3 198.8 205.8 223.5 239.6 248.5 254.5 252 260.6 278.4 286.4 297 304.6
67.6 70.3 70.2 71.7 74.3 64.8 47.1 35 17.1 10.3 5.7 4.9 5.7 3 2.3 1.6 1.5 1.8 2.2 4.3 11.1 15.2 20.6 32.3 36.9 29.4 26.6 22.8 22.9 20.5 14.8 5.9 -0.3 -0.3 -0.3 -0.3 -0.3 -0.3 -0.3 -0.3 -0.3 -0.3 -0.3 -0.3 -0.3 -0.3 -0.3 -0.3 -0.3 -0.3 -0.3 -0.3 -0.3 -0.3 -0.3 -0.3 -0.3 -0.3 -0.3 -0.3 -0.3 -0.3 -0.3 -0.3 -0.3 -0.3 7.8 14.1 24.8 38.6 56.8 64.6 69.9 81 84.2 103.2 123.1 134.4 153.6 161.3 180.3 198.5 215.1 215.3 223.3 204.1 213.8 220.8 238 248.9 264.8 273.1 277.2 275.7 273.3 267 260 259 258.3 259 246 271.1 284.9 268.1 265.5 289 299.2 294.5 297.3 290.2 296.9 306.8 310 299.6 300.3 306.5 326.5 341 344.6 336.6 338.3 326.6 329.6 327.6 321.2 325.8 327.6 334.5 333.9 330.7 334.4 349.3 355.5 357.7 352.2 345.3 343.7 355.8 358.8 349.2 356.4 355.6 346.4 343 339.1 331.9 333.2 327.6 322.6 313.5 306.9 300.2 287.7 280.7 274.7 273.5 270.8 274.5 276.2 283.1 286.8 290.1 296.9 306.4 315.6 321.1 311.2 292 259.4 252.9 247.3 232.4 217.1 207.6 197.7 186.1 172 167 162.3 159.1 160.1 160.2 160 163.3 168.3 178.2 187.7 192.5 194.6 211.1 224.8 238.9 249.7 247.2 248.5 267.2 275.7 286.7 296.6 295.4
64.6 77.2 72.6 67.2 69.1 53.5 38.7 23 12.2 8 6.4 6.7 7.5 2.6 1.4 1.8 2.2 2.7 3.2 7.6 18.1 18.5 29.6 40.6 43.1 33.8 30.6 20 21.5 17.5 17.5 -0.3 -0.3 -0.3 -0.3 -0.3 -0.3 -0.3 -0.3 -0.3 -0.3 -0.3 -0.3 -0.3 -0.3 -0.3 -0.3 -0.3 -0.3 -0.3 -0.3 -0.3 -0.3 -0.3 -0.3 -0.3 -0.3 -0.3 -0.3 -0.3 -0.3 -0.3 -0.3 -0.3 -0.3 -0.3 8.7 19.9 29.2 48.5 59.8 66.1 79.5 84.4 88.7 108.5 126.7 141.4 162.9 162.7 180.7 205.8 215 222.7 224.4 197.9 208 228.3 240 252.9 267.3 279.1 276.2 274.2 275.6 264.8 257.8 256 253.7 245.9 249.5 278.9 273.8 261.6 272.3 296.9 293.8 297.5 295.9 296.8 298.3 317.5 306 303.8 299.8 317.5 336.6 350 347.3 345.2 335.9 335.1 333.8 330.2 328.9 329.7 338.3 339.3 330.5 332.1 346.1 354.3 355 357.8 354.6 346.7 348.3 364.2 361 353.2 365 352.4 347 345.7 340.2 331.2 328.5 326.5 314.6 310.8 304.2 296.4 287.3 275.2 269.9 265.5 266.8 268.6 273.5 275.3 279.3 285.6 292.6 298.3 306.2 309.2 290.8 263.1 245.1 244.8 230.9 217 199.9 192.7 183.2 171 164.2 161.5 157.3 156.9 160.6 156.7 160.3 167.9 174.9 181.6 189.8 191.8 196.5 214.4 227.1 236.7 247.2 243.8 256.3 266.4 275.4 287.2 291.3 297.2
68.8 77.1 73.6 63.5 55.4 41 25.5 13.3 6.4 5.4 5 6.8 3.2 1.9 1.3 1.7 1.7 3 4.6 14.3 19.6 26.3 39.2 45.8 43.6 35.4 19.9 17.1 17.7 17.3 -0.3 -0.3 -0.3 -0.3 -0.3 -0.3 -0.3 -0.3 -0.3 -0.3 -0.3 -0.3 -0.3 -0.3 -0.3 -0.3 -0.3 -0.3 -0.3 -0.3 -0.3 -0.3 -0.3 -0.3 -0.3 -0.3 -0.3 -0.3 -0.3 -0.3 -0.3 -0.3 -0.3 -0.3 -0.3 4.3 10.3 24.5 36.8 56.5 61.1 72.1 84.9 93.7 101.8 111.8 132.7 137.6 149.2 164.2 187.4 204.7 215.3 225.4 206.8 192.5 216.2 229 238.6 260.9 275.3 278.9 274.1 273.7 275.8 257.6 258.8 252.6 245.9 245.9 260.8 269.1 260.8 260.2 281.9 287.7 291.9 299.8 297.9 298.2 314.6 328.5 309.8 303.2 308.8 326.2 344.6 352.5 346.2 341.8 340.2 338.3 333.1 330.1 335.2 337.4 343.3 337 329.8 343 353.1 356.3 360.6 363.3 358.1 346.3 358.5 371.4 361.1 371.7 357.7 351.9 348.8 348.5 340.3 332.3 330.9 326.3 312.3 309 301.8 296.2 279.3 272.4 267.9 264.7 262.6 265.8 266.8 268.6 273.6 280.5 286.9 289.9 292.3 290.6 264.5 246.1 238 229.7 218.9 199.4 182.6 173.9 167.8 161.1 158.4 156.2 153.3 155.9 150.7 156.6 164.9 173.2 177.9 189.6 192 193.2 202.8 220.7 232.7 244.2 241.9 248.8 257.3 265 275.8 283.4 294.5 289.8
69.6 71.2 66.5 55.4 38.2 26.4 17.4 8.3 4.9 3.9 5 3.6 2.6 1.3 1.3 1.5 2.5 3.3 7.5 20.6 23.9 30.7 44.7 51.6 35.8 26.5 17.7 13 14.6 13.8 -0.3 -0.3 -0.3 -0.3 -0.3 -0.3 -0.3 -0.3 -0.3 -0.3 -0.3 -0.3 -0.3 -0.3 -0.3 -0.3 -0.3 -0.3 -0.3 -0.3 -0.3 -0.3 -0.3 -0.3 -0.3 -0.3 -0.3 -0.3 -0.3 -0.3 -0.3 -0.3 -0.3 -0.3 -0.3 4.7 22.4 29.5 49.6 58.8 66.4 82.6 100.1 112.8 118.8 119.7 128.7 132 145.2 169.5 192.7 204 213.7 205.3 188.1 200 218.1 231.8 246.6 268.9 282.6 274.7 271.1 276.9 262.9 252.6 252.9 248.2 245.9 245.9 261 260.8 259.5 269.7 280.2 288 296.2 300.4 299.6 306.5 334.9 325.3 308.9 303.9 318.8 335.1 348.4 350.8 349.1 343.7 340.8 341.5 331.7 339.7 335 342.9 339.7 329.7 333 347.7 353.1 360.4 370.3 373.1 359.1 349.4 373.7 373 365.7 367.4 354.3 354.4 349 348.8 343.5 333.7 332 314.2 312.2 309.2 298.7 291.3 279.7 283.4 275 274.1 263.1 267.6 264.5 264.3 267.8 274.1 279.5 279.5 276.3 267.7 254 230 227.3 223.3 202.3 188 168.8 161.5 155.7 154.6 152.7 150.2 153.4 151.8 152.9 162.2 174.5 177 183.8 191.5 192.8 196.3 210.1 226.3 233.6 237.3 243.3 253.1 255.6 263.2 273.1 284.6 281.9 292.2
65.3 63.7 55.3 39.9 27 16.6 7.7 4.2 5.3 4.3 4.6 2.1 1.3 1.3 1.4 2.1 3.1 6.8 16.5 21.6 27.9 41.2 51.8 42.9 34.6 21.4 15.4 9 6.4 3.1 -0.3 -0.3 -0.3 -0.3 -0.3 -0.3 -0.3 -0.3 -0.3 -0.3 -0.3 -0.3 -0.3 -0.3 -0.3 -0.3 -0.3 -0.3 -0.3 -0.3 -0.3 -0.3 -0.3 -0.3 -0.3 -0.3 -0.3 -0.3 -0.3 -0.3 -0.3 -0.3 -0.3 -0.3 -0.3 13.9 24.2 39.6 56.7 70.2 76.9 91.7 110.9 125.1 132.5 124 126 131.3 147.7 168.8 192.8 204.8 204.5 186.1 188 208.2 223.3 232.8 259.1 270.5 276.4 272.5 266.3 260.8 247.3 252.5 249.3 245.9 245.9 257.6 258.9 260.6 259.1 274.8 281.2 289 297.7 301.7 303.8 329.7 335.3 317.6 308 313.4 325.4 344.4 348 349.9 346.5 340.9 341.5 332.8 334.4 336.5 342.7 345 333 330.1 338.2 350.2 353.5 368.3 373.2 367.8 362.3 356.5 376.5 361.8 366.6 356.7 350.6 350.2 352.6 353.5 350.7 336.7 319.7 311.2 308.2 302.8 300.1 290.9 290.7 282.7 276.8 265.7 265 259.5 256.3 257.7 261.4 266.9 270.8 270.5 267.6 255.9 225.3 221.8 220.3 208.2 188.5 176.9 157.7 150.5 148.2 147.6 146.7 149.3 151.5 144.8 157.1 172.5 189.7 180.5 185.4 190 192.8 203.2 214.6 225.1 231.2 234.1 247.8 253.6 253.2 261.4 271.6 277 283.7 293.2
59 53.2 41.8 28.2 19.5 10.2 5.7 3.6 3.6 2.7 2.9 1.3 1.3 1.3 1.3 2.1 5.5 13.2 20.9 25.6 33.4 48.7 48 33.7 28.2 18.9 14 10.7 9 -0.3 -0.3 -0.3 -0.3 -0.3 -0.3 -0.3 -0.3 -0.3 -0.3 -0.3 -0.3 -0.3 -0.3 -0.3 -0.3 -0.3 -0.3 -0.3 -0.3 -0.3 -0.3 -0.3 -0.3 -0.3 -0.3 -0.3 -0.3 -0.3 -0.3 -0.3 -0.3 -0.3 -0.3 -0.3 4 18.7 26.9 48.5 63.2 74.6 89.1 111.6 126.5 132.5 145.3 129.5 127.3 145.1 159.8 171.3 193.5 204.8 197.4 182.6 197.6 209 231.3 250.5 265.5 262.4 265 261.4 262 247.2 247 247.3 246.4 245.9 249.8 255.6 256.3 256.5 264.8 274.7 289.1 289.4 298.7 302.7 318.3 334.6 333.6 318 312.3 327.9 335.5 346.3 350.9 348.9 343.5 340 334.3 332.6 346.5 342.3 350.9 341.2 331.6 336.7 351.6 350.3 354.6 369.9 368.8 364 359.9 365.2 364.5 368.5 363.6 358.7 350.2 350.2 357.1 357.8 351.5 334.9 320.6 314.7 309.6 307.7 304.1 294.4 296.2 288.1 272.8 265.7 258.7 254.2 248.6 250.8 255.1 260.5 263.8 261.8 249.2 227.7 217.2 215.8 205.7 186.6 180.6 155.7 148.6 142.8 140 140 142.4 148.7 131.4 148.3 163.9 184.2 183.8 178.9 186.3 189.1 194 205.1 215.7 222.2 224.3 237.4 247.1 251.7 251 254.1 266.4 274.4 280.2 291.1
49.1 40.4 29.4 18.4 13.2 6.7 3.3 3.2 2.5 2.1 1.3 1.3 1.3 1.3 1.8 3.7 9.3 15.9 23.8 29.2 44 51.3 34.2 33.8 15.2 12.4 13.1 19.4 -0.3 -0.3 -0.3 -0.3 -0.3 -0.3 -0.3 -0.3 -0.3 -0.3 -0.3 -0.3 -0.3 -0.3 -0.3 -0.3 -0.3 -0.3 -0.3 -0.3 -0.3 -0.3 -0.3 -0.3 -0.3 -0.3 -0.3 -0.3 -0.3 -0.3 -0.3 -0.3 -0.3 -0.3 -0.3 -0.3 11.3 20.8 39 55.6 70.1 84.9 102.1 120.9 132.8 143.7 149 130 134.4 152.2 163.1 175.6 201.2 196.8 180.6 181.9 198.1 219.7 244.2 258.2 258.7 255.6 257.3 259.9 256.4 245.7 247.3 245.1 249.6 245.9 255.4 254.4 255.3 256.4 271.9 277.2 285.4 291.2 299.1 318.7 334.3 343.3 325.2 317.4 321.9 336.9 339.7 349.4 352 344.2 342.1 337 333.9 347.8 348.6 352 347.4 336.6 333.2 354.4 353.7 352.1 359.3 364.5 365.7 360.8 358.2 362.1 369 367 359.9 354.3 350.2 358.7 362.6 363.1 355 332.5 333 320.6 313.2 311.4 304 301.1 291.7 288.4 268.4 265 260.7 257.7 251.8 246 248 254.2 253.3 241.9 224.4 212.2 210.1 206.7 187 181 156.7 146 139 134.5 130.7 138.5 142.6 125.2 137.9 153.2 171 182.8 176.2 175.5 180.7 189.6 197.1 209.8 219 218.1 228.9 239.1 247.7 249.7 249.8 253.8 261.2 269 276.7 283.6
37.7 26.5 22.4 16.1 7.7 4.2 2.6 2 1.5 1.3 1.3 1.3 1.3 1.7 3.9 9.4 16.5 20.5 26.4 33.4 49 37 34.7 26.7 11.4 9.5 15.9 14.2 -0.3 -0.3 -0.3 -0.3 -0.3 -0.3 -0.3 -0.3 -0.3 -0.3 -0.3 -0.3 -0.3 -0.3 -0.3 -0.3 -0.3 -0.3 -0.3 -0.3 -0.3 -0.3 -0.3 -0.3 -0.3 -0.3 -0.3 -0.3 -0.3 -0.3 -0.3 -0.3 -0.3 -0.3 -0.3 -0.3 13.7 27.4 47.9 63.2 80.6 92.1 112.3 125.5 130.5 146.6 142.7 137.1 140.5 153.7 166.5 187 199 182.7 178.4 181.6 203.5 229.6 246.1 248.1 248.8 250.8 252.7 266.1 247.2 244.2 248.6 247.6 246.2 250.9 253.9 255.4 256 258 273.4 284.7 286.9 293.7 306.4 338.7 354.2 335.8 326.6 315.1 332.2 340.3 340.9 345.7 346.4 346.6 346 336.6 340.9 355.3 357.8 350.8 339.8 338.4 348.1 360.4 357.2 356.8 364.7 370.7 364.8 360.1 360.2 364.5 372.8 361.8 357.4 351.7 350.6 360.1 368 364.1 350.2 338.8 338.5 332.4 317.2 312.4 304.4 304.9 291.2 282.1 270.6 265.2 261.1 256.5 247.9 243.9 245 245.6 238.8 224.1 206.5 204 202.2 189 177.3 161.8 146.3 139.5 128.9 123.8 136.2 139.7 124.4 127.2 142.8 157.9 175.1 171 167.9 169.3 182.2 188.2 201.5 212 214.8 221.2 230.4 239.2 245.1 248.3 250.9 253.5 260.4 272 283.5 290.7
24.3 19.3 14.8 7.8 4.6 3.2 2.1 1.5 1.3 1.3 1.3 1.3 1.3 2.9 8.9 16.1 22.1 25.5 28.8 43 38.2 33.1 30.7 11.6 8.9 12.6 19.5 -0.3 -0.3 -0.3 -0.3 -0.3 -0.3 -0.3 -0.3 -0.3 -0.3 -0.3 -0.3 -0.3 -0.3 -0.3 -0.3 -0.3 -0.3 -0.3 -0.3 -0.3 -0.3 -0.3 -0.3 -0.3 -0.3 -0.3 -0.3 -0.3 -0.3 -0.3 -0.3 -0.3 -0.3 -0.3 -0.3 4.8 16.1 37.4 56.2 71.6 87.5 105.1 119.3 128.6 144.4 152.5 134.4 140.3 148.1 156.5 173.9 198.1 192.9 177 177.2 184.1 212.2 234.8 238.8 236.4 243.9 246.3 261.5 256.8 243.5 244.2 253.3 246.5 249.9 253.5 254.4 256.7 257.5 263.5 279.6 286.6 294.6 303.3 316.7 350.9 343 331.1 326.6 328.5 340.7 343.3 342.5 345.7 348.4 350.4 348.5 341.6 354.4 358.8 355.6 345.8 344.2 350.2 364 363 360.7 360.5 370.7 361.1 362 362.9 361.2 369.5 361.8 359.1 354.5 354.5 358.4 370.4 371.5 363.2 344.7 342.3 341.2 334.3 320.2 311.7 308.9 300.6 297.5 278.1 271 266.9 261.1 258.1 247.4 244.6 231.5 230.2 228.2 211.4 196.9 191.9 185.9 172.7 153.8 146.7 139.6 134.5 117.8 124 137.7 119.9 116.4 129.7 143.9 160.9 160.3 162.3 160.7 167.1 181.4 189.8 206.5 209.1 214.7 224.2 234 241.7 247.1 248.2 251.3 253 264.9 282.1 290.2 296.9
14.6 10.2 5.8 4.6 3.4 2.1 1.4 1.3 1.3 1.3 1.3 1.3 1.3 4.7 16.1 23.9 24.8 28.3 33.8 42.5 29.4 23.5 10.1 9.1 9.7 18 -0.3 -0.3 -0.3 -0.3 -0.3 -0.3 -0.3 -0.3 -0.3 -0.3 -0.3 -0.3 -0.3 -0.3 -0.3 -0.3 -0.3 -0.3 -0.3 -0.3 -0.3 -0.3 -0.3 -0.3 -0.3 -0.3 -0.3 -0.3 -0.3 -0.3 -0.3 -0.3 -0.3 -0.3 -0.3 -0.3 -0.3 9 27.9 45.6 61.5 77.7 94.5 114.2 124.7 146.4 166.2 138.3 130.9 135.8 149.2 160.1 188 192.7 176.9 177.2 177.8 189.4 219.8 227.2 228.5 235.9 241.5 249.6 262.1 245.3 247.8 252.3 258.8 249.3 255.9 251.8 255.8 259.1 258.7 272.5 289.2 290.7 300.3 314.1 329.5 333.3 330.9 332 333.1 347.3 348.6 345.1 345.4 349.9 352.9 349 344.3 351.5 355.7 354.3 351 348.7 365 367.8 365.1 359.1 363.6 359.1 358.9 359.1 362.6 359.6 364.1 359.4 354 354.7 355.4 367.5 370 374.9 371.1 356.1 347.5 346 343.2 337.8 316.9 313.4 316.4 302 292.3 277.7 270.2 267 261.7 257 249.7 248.4 227.2 218.6 211.1 196.5 186.9 179.2 170.5 155.3 144.1 139.5 133.4 127.6 117.3 119.3 115.7 105.9 114.6 131.3 145.3 148.4 154.2 145.9 159.7 176.4 180.6 197.2 203.5 204.7 219.1 232.1 245.3 249.8 252.9 253.5 252.1 254.5 272 286.6 289 289.5
6.3 3.9 4 3.3 1.9 1.3 1.3 1.3 1.3 1.3 1.3 1.6 3.3 8.3 20.7 23.8 25.2 30.5 42.8 26.6 24.7 7.9 6.5 7.3 12.9 12.9 -0.3 -0.3 -0.3 -0.3 -0.3 -0.3 -0.3 -0.3 -0.3 -0.3 -0.3 -0.3 -0.3 -0.3 -0.3 -0.3 -0.3 -0.3 -0.3 -0.3 -0.3 -0.3 -0.3 -0.3 -0.3 -0.3 -0.3 -0.3 -0.3 -0.3 -0.3 -0.3 -0.3 -0.3 -0.3 -0.3 6.2 14.5 34.7 54 66.6 83.1 102.1 118.6 137.5 153.1 141 130.3 135.4 137.3 153.6 169.2 198 187 176.8 181.9 180.4 198 214.4 223.3 234.7 238.9 246 264.9 255 243 249 260 253.8 250.6 250.8 252.4 255.2 257.1 261.5 284.5 294.9 301.8 307.6 317 322.8 328 331.8 331 354.2 359.5 348.2 345.1 347.5 354.3 352.8 349.7 354 351.8 352.8 350.4 347.3 355.3 360.2 367.6 359.1 359.1 359.1 359.1 359.1 361.6 360 358.9 361.3 353.4 353.1 355.1 364 373.8 374.5 374 368.3 350.3 349.3 347 342.7 334.2 321.2 322 320.3 305.2 290.2 286.4 274 267.9 265.4 259.8 256.7 249.2 228.1 211.3 201 191.8 177.7 166.4 156.3 143.9 135.8 131.6 125.8 122.7 118.7 97.2 98.8 103.3 117.9 130.8 136.1 141.4 137.6 146.1 163.8 174.5 187.5 194 198.9 215.6 232.1 245.6 253.5 253 256.2 254.3 254.2 258.7 281.3 282.8 281.2 283.8
3.7 2.8 2.1 1.8 1.3 1.3 1.3 1.3 1.3 1.5 2 3 6.1 16.1 23.1 24 28.2 35 27.9 22.2 8.1 4.6 5.4 8.8 19.2 -0.3 -0.3 -0.3 -0.3 -0.3 -0.3 -0.3 -0.3 -0.3 -0.3 -0.3 -0.3 -0.3 -0.3 -0.3 -0.3 -0.3 -0.3 -0.3 -0.3 -0.3 -0.3 -0.3 -0.3 -0.3 -0.3 -0.3 -0.3 -0.3 -0.3 -0.3 -0.3 -0.3 -0.3 -0.3 -0.3 6.1 9.8 25 39.3 56.1 71.1 88.3 106.2 135.3 147.4 136.3 127.8 143.7 149.4 147.9 153.8 178.3 182.3 175.9 179.7 181.8 181.8 201.9 212.1 221.4 236 243.8 254.2 261.4 244.5 245.7 251.7 257.9 251.2 249.8 250.7 252.7 254.7 258.2 272.6 296.4 295.9 304.6 308.7 315.3 321.3 327.9 330.6 345.7 361 361.3 346.5 346 350.6 358.6 353 356.9 353.4 352.3 355.7 346.4 344.8 360 359.1 363 359.1 359.2 359.1 359.1 359.1 362.2 358.9 367.4 356.9 352.3 352 363.7 369.7 372.8 373.2 365.7 354.5 349.7 351.9 349.8 342.4 335.1 336.4 335.9 316.6 302.8 285.8 284.3 278 276 270.2 262 260.5 250.3 232.1 219.7 205.1 193.2 181.6 163.5 149.3 134.4 127.3 121.1 116.5 114.6 111.7 91.6 94.6 104 116.9 123 128.4 128.2 132.5 149.8 168.7 178.4 189.2 197.9 211.8 229.6 240.7 252.1 254 257 259.7 258.6 259.8 267.4 281.5 278.7 281.3 281
1.9 1.8 1.4 1.3 1.3 1.3 1.3 1.3 1.6 1.9 2.2 6.9 13.1 20.9 23.4 25.3 31.2 27.3 20.4 7 4.1 4.2 5.2 15.2 -0.3 -0.3 -0.3 -0.3 -0.3 -0.3 -0.3 -0.3 -0.3 -0.3 -0.3 -0.3 -0.3 -0.3 -0.3 -0.3 -0.3 -0.3 -0.3 -0.3 -0.3 -0.3 -0.3 -0.3 -0.3 -0.3 -0.3 -0.3 -0.3 -0.3 -0.3 -0.3 -0.3 -0.3 -0.3 -0.3 3.6 7.9 18.3 30.9 43.8 59.5 77.8 93.4 124.3 145.6 137.7 125 147.2 153.2 152.5 151.6 161.8 172.6 168.3 176.5 184.6 184.8 190.7 201.8 209.5 225.9 235.7 244.9 262.8 248.5 242.8 246.5 256 252.7 252.1 252.3 252.2 253.5 256.1 264.8 285.9 303.2 302.1 304.3 310.4 328.9 322.7 327.9 336.5 358 366.9 364.1 346.3 353.4 361.7 356.7 353.8 359.7 355.7 357.7 356.7 344.8 365.7 370.1 359.1 359.1 359.1 359.1 359.1 359.1 362.6 358.9 371.6 359.5 354.6 349.5 355.3 365 370.8 372.9 368.2 358.2 348.2 350.1 354.2 351.5 340 334.7 346.5 341.3 314.4 302.4 288.6 286 285.9 284.1 275.2 268.9 267.1 257.2 236.9 224 210.9 199 185.4 166 154 141.3 132.6 125.2 114.9 107.2 94.8 89.8 89 102.2 109.8 114.7 115.8 119.3 135.3 159.5 167.6 180.5 192.3 204.6 224 237.5 252 253.7 255.2 259.4 261.2 264.8 264.1 269.9 274.1 280.3 284.8 282.9
1.1 1.1 1.2 1.3 1.3 1.3 1.3 1.3 2 2.4 3.3 11.1 18.9 23.2 23.8 31.2 29.9 18.3 7.5 4.4 4.4 4.3 9.3 16.3 -0.3 -0.3 -0.3 -0.3 -0.3 -0.3 -0.3 -0.3 -0.3 -0.3 -0.3 -0.3 -0.3 -0.3 -0.3 -0.3 -0.3 -0.3 -0.3 -0.3 -0.3 -0.3 -0.3 -0.3 -0.3 -0.3 -0.3 -0.3 -0.3 -0.3 -0.3 -0.3 -0.3 -0.3 -0.3 -0.3 6.2 12.2 21.4 35.2 48.9 67.6 81.2 103.5 138.5 138 120.9 142.2 153.2 157.9 153.4 154.2 169.8 166.7 175.4 187.3 189.1 192.1 198.6 202 212.4 228.5 241.7 260.7 253.5 240.5 248.6 250.8 251.8 253.2 254.4 256.3 255.3 255.6 263.1 277.4 303.2 303.5 308.7 305.5 327.9 331 328.6 333 345.7 366 366.3 364.1 347.8 355.5 356 355.4 363.5 363.1 360.5 348.4 344.8 357.1 374.2 365.6 359.1 359.1 359.1 359.1 359.1 359.1 360.7 366.4 368.1 354.7 351.7 348.1 364 368.4 369.4 370.1 359.3 345.2 345 355.1 357 344.4 339.7 347.9 344.1 334.5 312.2 297.7 294.6 292.8 290.5 292 277.3 276.3 275.4 258.1 243.5 226.8 214 199.8 183.3 169.4 154.6 145.7 138.5 131.5 115.1 92.1 90.1 87.3 89.2 101 99.1 104 108.1 122.1 143.3 161.3 175.2 181.2 195.5 214.2 234.6 250.3 255.6 254.3 258.9 261 264.3 265.3 269.3 267 269.3 278.6 282.9 282.5
0.8 0.8 1 1.3 1.3 1.3 1.3 1.3 2 6.2 7.9 16.5 23.1 21.5 24.5 28.1 19.4 13 5.3 3.1 3.4 3.8 13.4 10.5 -0.3 -0.3 -0.3 -0.3 -0.3 -0.3 -0.3 -0.3 -0.3 -0.3 -0.3 -0.3 -0.3 -0.3 -0.3 -0.3 -0.3 -0.3 -0.3 -0.3 -0.3 -0.3 -0.3 -0.3 -0.3 -0.3 -0.3 -0.3 -0.3 -0.3 -0.3 -0.3 -0.3 -0.3 -0.3 3.6 8.2 16.2 26.8 43.5 56.1 72.2 88.6 117.4 131.7 120.1 127.2 145.6 155.1 156.8 152 162.8 165.3 166.5 187.3 199.7 202.8 201.2 201 206.7 222.7 236.5 248.1 256 239.8 246.7 253.1 251.5 251.6 252.7 256.1 256.8 258.6 263.5 271.1 289.2 303.4 305.8 306.4 331.9 337.7 322.7 332.8 336.8 365 366.9 367.1 355.7 354.3 360.9 355 365.3 365.1 369.9 354.1 348.4 344.8 369.3 381 372.9 359.1 359.1 359.1 359.1 359.1 362.8 371.7 372.2 368.7 351.4 347.1 350.9 365.8 364.7 364.2 357.7 341.8 342.3 351.1 356.9 348.5 339.7 348.4 346.9 340.3 325.1 311.9 296.4 299.6 302.9 303.8 300.9 285.1 286.6 281.5 266.8 249.2 229.4 213.2 199.1 184.5 171.7 152.1 144.8 138.8 129.8 105.7 88.5 83.3 76.4 89.3 87.5 93.3 97.2 109 127.3 146.9 167.8 180.5 187.7 206.7 224 242.8 254.2 252.5 253.5 257.8 263.3 263 265.1 262.8 265.9 271.5 277.8 282.8 278.8
0.5 0.5 0.8 1.2 1.3 1.3 1.3 1.3 3.7 11.2 14.8 21.6 21.2 21.5 26 25.9 12.7 10.9 4.1 1.7 2.8 8.4 14.2 -0.3 -0.3 -0.3 -0.3 -0.3 -0.3 -0.3 -0.3 -0.3 -0.3 -0.3 -0.3 -0.3 -0.3 -0.3 -0.3 -0.3 -0.3 -0.3 -0.3 -0.3 -0.3 -0.3 -0.3 -0.3 -0.3 -0.3 -0.3 -0.3 -0.3 -0.3 -0.3 -0.3 -0.3 -0.3 -0.3 5.1 9.2 20.5 38.3 48.2 61.6 74.9 102.6 114.6 110.2 114.7 133.7 143.4 148.3 154.2 153.8 169.7 167.5 188.3 201.7 208.5 206.3 204.7 204.7 215.4 227.5 237.2 255.2 241.5 238.9 250.1 250.5 252.1 252.3 252.8 255.9 259.6 267.9 271.6 283.5 298.8 302.3 309.5 310.3 344.5 321.5 334.8 336.4 346.3 364.3 365.5 367.5 352.5 351.9 357.9 354.3 357.9 364.8 369.1 349 344.8 356 378.6 372.8 375.5 360.2 359.1 359.1 359.1 359.1 363.7 372.8 367.1 362 348.4 344.8 357.8 364.5 354 347.4 340.2 340.8 346.3 353.5 345.3 338.5 345.3 347 341.9 340.7 319.1 304.6 302.9 304.3 309.7 313.3 307.9 296.8 299.6 286.2 273.5 251.9 234.1 213.9 202.1 188.7 172.7 155.8 147 140.8 119.8 101.6 90.4 77.7 72.3 81.2 81.9 83.6 98.1 115.6 127.1 151.7 172.4 176.9 195 208.9 229.9 248.1 248.7 250.8 256 259.6 262.6 261.2 258.3 259.7 269.6 277 281.1 279.9 273.9
0.2 0.3 0.7 1 1.3 1.3 1.3 3.4 13.5 13.6 19.6 22.5 21.4 24.7 22.2 15.1 11.9 4.8 5.7 1.3 3.1 13.7 -0.3 -0.3 -0.3 -0.3 -0.3 -0.3 -0.3 -0.3 -0.3 -0.3 -0.3 -0.3 -0.3 -0.3 -0.3 -0.3 -0.3 -0.3 -0.3 -0.3 -0.3 -0.3 -0.3 -0.3 -0.3 -0.3 -0.3 -0.3 -0.3 -0.3 -0.3 -0.3 -0.3 -0.3 -0.3 -0.3 2.3 6.6 14.9 31.5 45 56.3 68.5 88.9 101.4 97.4 105.2 121.8 136 136.3 144.8 151.8 167 167.5 173.8 195.1 204.8 208.4 214.5 207.4 206.7 217.8 235.1 245.4 240.5 237.2 242.6 246.6 252 252.8 253.2 256 263.5 267.5 273.7 279 295.3 301 307.8 314.6 331.2 319 320.4 338.3 336.8 359.5 362.1 364.9 355 345.2 354.9 345.6 350.1 355.6 368.5 353.7 344.8 345.8 364.5 366.8 386.7 373.8 371.1 374.3 371.2 373.3 367.5 381.7 366.1 365.1 356.7 347.6 345.2 358.9 351.4 342.9 341.1 340.3 340.6 348.1 345.5 336.3 336.8 340.6 339.5 340.2 324.2 307.8 305.6 306.1 310.8 319.2 321.4 312.4 308.5 308.5 293.2 275.5 258.8 235.5 213.9 206.3 190.1 167.6 153.2 148.2 133.1 111.3 100.7 85.3 74.7 74.3 71.7 73.8 83.9 104.4 116.9 128.6 154 167.7 175.1 189.1 215.2 236.3 242.1 242.9 250 257.6 255.5 256.9 254.7 255 261.8 269.8 279.8 279 272.6 269.8
-0.3 0.2 0.5 0.8 1.2 1.3 2.9 12.7 15.8 19.4 21 21.2 21.5 28.2 15 11.5 9.9 6.6 1.3 1.3 10.9 -0.3 -0.3 -0.3 -0.3 -0.3 -0.3 -0.3 -0.3 -0.3 -0.3 -0.3 -0.3 -0.3 -0.3 -0.3 -0.3 -0.3 -0.3 -0.3 -0.3 -0.3 -0.3 -0.3 -0.3 -0.3 -0.3 -0.3 -0.3 -0.3 -0.3 -0.3 -0.3 -0.3 -0.3 -0.3 -0.3 2.7 4.2 9.8 24.2 38.3 49.9 67.2 72.5 87.7 86.1 97.4 113 125.3 132.1 135.4 147.2 160 171.5 168.8 184.5 198.5 207.3 214.7 218.2 210.6 209.1 227.6 241 236.4 234 238.4 242.2 254 254 254.4 255 257.1 267.7 273.4 281.7 288.3 299.2 303.1 309.1 309.4 326.6 318.3 332.8 338.5 344.5 366.6 366.3 362.6 343.2 345.6 347.6 336.8 343.3 359.7 377.4 344.8 344.8 365.1 365.1 384.2 389.6 369.1 368.6 382.5 385.9 388.6 385.7 371.1 364 360 351.7 341.9 344.6 346.4 338.5 337.9 340.5 337.2 339.5 340.5 327.9 332.5 333.4 334.8 335.7 328.9 316.8 307.4 306.3 311.3 317.9 324.1 320.5 314.9 315.5 309.3 303.9 277.8 260 232.5 214.5 207.7 183.1 165.4 153.5 144.2 123.9 108.9 97.7 81.2 66.5 68.1 67.5 70.8 87.6 108.7 119.9 132.7 152.2 159.8 172 192.5 218.8 230.9 234.1 240.3 249.1 255.6 249.7 249.8 250.6 257.2 263.8 273.6 281.1 284.5 269.8 265.9
-0.3 -0.1 0.3 0.6 1 4.3 6.7 16.2 18.1 20.8 20.8 20.2 26.2 23.5 12.4 12.1 6.3 3.4 1.3 3.9 5.2 -0.3 -0.3 -0.3 -0.3 -0.3 -0.3 -0.3 -0.3 -0.3 -0.3 -0.3 -0.3 -0.3 -0.3 -0.3 -0.3 -0.3 -0.3 -0.3 -0.3 -0.3 -0.3 -0.3 -0.3 -0.3 -0.3 -0.3 -0.3 -0.3 -0.3 -0.3 -0.3 -0.3 -0.3 -0.3 1.3 3.9 7.4 17 31.9 45.6 59.7 69.6 73.8 77.5 90.2 104.6 122 127.4 130.8 139.9 156.1 171.5 173 171.7 191.3 204.8 216.2 228.3 226.2 216.8 217.7 234.3 233.6 233.6 236.1 239.4 249 252.9 254.9 263 257 261.2 275.5 287.3 297.2 300.5 302 307.8 303.5 312 315.4 328.2 334.9 342.1 357.5 371.9 369 359.1 339 345 331 334 344.1 369.3 363 346 354.3 362.2 358.9 386.9 370.1 363.6 376 380.9 405.8 392.8 375.7 372.5 362.8 353.6 344.9 339.9 334.9 337.3 334.5 338 341.4 335.2 333.8 324.2 328.8 330.4 331.2 332.3 333.2 321 306.7 312 307.2 317.1 329.8 329 325.8 320.5 318.7 317.7 311.1 277.2 258 222.5 213 197.3 176.1 164.1 152.8 137.2 114.5 105 94.8 79.8 65.5 65 64.3 72.9 92.9 109.6 112.3 131.7 150.2 151.9 175 194.2 215.6 223.6 230.4 239.1 243.7 239.4 237.2 239.1 246.3 256.4 265.9 286.9 286 281.1 265.9 267.6
-0.3 -0.3 0.2 0.8 1.6 6.8 13.1 15.8 20.8 22.7 19.9 24.5 27.6 17.8 12.5 10.8 7.2 1.3 1.3 6.3 -0.3 -0.3 -0.3 -0.3 -0.3 -0.3 -0.3 -0.3 -0.3 -0.3 -0.3 -0.3 -0.3 -0.3 -0.3 -0.3 -0.3 -0.3 -0.3 -0.3 -0.3 -0.3 -0.3 -0.3 -0.3 -0.3 -0.3 -0.3 -0.3 -0.3 -0.3 -0.3 -0.3 -0.3 -0.3 1.4 2.3 5.5 21.6 24 34.8 50.3 66.8 68.3 71.3 82.8 101.4 113.9 121 123.4 136.2 149.3 164.5 179.3 174.8 176.7 201.7 216.4 226.6 234.8 225.1 223.3 230.5 232.2 232.4 238.7 239.4 246.2 251.6 255.8 263.8 259.7 263.5 267.2 287.4 300.3 299 303.5 311.7 302 299.4 319.8 315.4 332.2 336.6 353.5 375.5 370.7 364 350.9 333.8 336.9 324.3 327.2 352.2 361.9 344.6 352.6 347.1 346.4 376.7 368.1 362.2 361.2 386.8 398.8 390.5 373.7 378.2 371.3 357.9 351 342.2 339.7 329.5 330.5 335.7 345.9 342.9 335.1 324.9 324 329.6 326.6 329.5 329.5 324 305.9 307.6 307.1 309.3 327.8 331.4 332.6 327.9 322.3 321.8 319.5 305.2 266.1 245.3 212.7 206.6 188.6 171.4 162.3 148.3 126.4 111.2 101.8 89.8 75 63.8 62.5 62.5 77.3 94.9 98 110.6 130.2 139 152.8 172.9 193.8 203.3 215.3 221.7 223.3 226 227.6 234.7 238.1 247.2 250.9 275.8 282.3 279 275.4 265.9 265.9
-0.3 -0.3 0.4 1 3.5 11.8 14.1 16.8 19.4 18.6 28.4 24.3 26.9 9.1 14.6 7.9 5.8 1.3 1.5 -0.3 -0.3 -0.3 9.3 6.2 -0.3 -0.3 -0.3 -0.3 -0.3 -0.3 -0.3 -0.3 -0.3 -0.3 -0.3 -0.3 -0.3 -0.3 -0.3 -0.3 -0.3 -0.3 -0.3 -0.3 -0.3 -0.3 -0.3 -0.3 -0.3 -0.3 -0.3 -0.3 -0.3 -0.3 1.7 2.2 4.2 19.7 30.8 39.1 38.5 52.8 62 66.8 73.8 92.5 102.5 111.6 119.6 129.9 143.6 157.7 178.9 182.9 179.5 197.6 214.4 222.9 228.8 230.5 226.8 228.9 234 233.4 234.4 237.9 251.5 258.7 257.4 259.2 263.7 268.9 268.9 278.5 293.8 294.8 307.7 308.9 303.8 296.8 316.3 315.3 326.4 330.8 338.1 372.7 377.7 365.5 357.9 340.5 333 318.6 316.4 335 351.3 347.5 349.1 342.1 340.2 346.3 369.2 354.7 358.3 376.6 380.2 378.5 373.4 373.1 374.2 363.9 352.6 346.5 341.2 340.1 327.3 334.3 341.1 343.4 335.1 326.4 321.8 322.7 323.8 325.3 327.5 324 314.8 300.4 309.7 306.3 321.5 329.5 332 327.4 323.2 322.1 323.3 317.7 293.7 258.2 228.7 206.3 200.4 179.2 168.2 162.3 144.5 115.5 105.8 96.2 83 67.6 62.4 61 65.5 82.1 85.8 96 111.1 125.8 139.5 152.1 174.4 184.8 195.1 204.5 213.8 217.1 217.5 226.1 231.6 236.6 241.3 251.1 273.9 274.3 278.2 274 265.9 272
-0.3 -0.3 0.7 2.4 7.6 12.8 15.1 19.8 19 27.9 24.2 22.2 10.1 9.3 10.5 14 1 0.7 -0.3 -0.3 -0.3 -0.3 9.5 -0.3 -0.3 -0.3 -0.3 -0.3 -0.3 -0.3 -0.3 -0.3 -0.3 -0.3 -0.3 -0.3 -0.3 -0.3 -0.3 -0.3 -0.3 -0.3 -0.3 -0.3 -0.3 -0.3 -0.3 -0.3 -0.3 -0.3 -0.3 -0.3 -0.3 2.5 2.8 3.7 11.4 28.8 44.3 54.1 52.6 58.7 65.5 70.3 81 100.8 100.7 114.3 128.2 138.8 149.3 173.1 184.2 182.2 196.4 212.6 222.4 232.8 239.3 232.6 236.5 240.2 233.6 234.3 235.2 251.8 265.3 265.1 256.9 264.1 265.8 267.5 273 282.2 291.7 308.3 309 302.7 296 313.2 321.4 306.7 326.8 328 356.8 369.3 369.2 359.6 351 328.5 328.9 313.6 315.9 339.6 333.4 337.2 346.9 341.2 327.8 354.9 354 344.4 361.9 368.8 365.2 368.6 364.2 366.1 364.1 352.5 348.2 343.6 339.8 332.2 325.2 338.9 338.9 336.9 329.2 319.8 318.2 317.5 319.4 321.6 322.2 317 299.3 304.1 304 306.5 324 327.5 327.3 323.5 321.8 321.2 319.5 313.1 279.1 250 214.6 196.1 183.8 173.7 164.7 151.4 121.7 111.2 100.5 88.3 72.7 62.4 60.4 59.2 69.5 78.3 84.8 97.2 108.3 122.8 136.1 154.4 161.7 173.5 187.7 201.6 209.6 213.8 211.2 221.5 230.6 231.5 244.7 251.8 258.1 271.5 278.7 270 271.7 261
