ncols 200
nrows 82
xllcorner 240000
yllcorner 744900
cellsize 50
340.5 340.7 340.1 339.8 339 338.5 339.7 338.6 338 336.7 337.4 336.8 335.2 335.8 334.6 334.9 335.4 337.5 339.1 339.7 340 340.5 342.4 345.4 348.7 349.6 350.5 351.9 352.9 354.5 356.3 358.3 360.5 363.1 365.9 367 372.5 375.3 376.7 377.2 379.9 381.3 382.7 386.4 388.1 389 390.7 395.3 400.4 405.4 410.1 413.8 415.5 418.5 422.3 427.4 433.1 437 439.9 444.4 448.4 452.3 457.3 457.6 459.5 464.1 467.8 474.8 479.7 481.6 489.7 495.1 494.4 497.7 498.1 503.9 506.5 506.6 512 513.9 517.8 520.7 524 525.8 528.7 532 534.3 535.2 538.1 539.1 530.6 536.9 543.1 535.8 547.5 551.7 553.2 556.5 560.5 559.2 565.2 570 571.1 572.5 575.6 578.6 580.6 583.7 587.4 587.7 587.8 596 596.7 600.5 602.6 604.1 607.9 611.4 617.3 625 630.2 633.5 640.1 651.3 652.6 666.1 673.1 678.8 688.1 694.8 700.7 705.5 714 722.3 731.3 740.7 750 757.9 765.4 772.8 776.7 781.9 785.7 786.8 780 767 752.2 743 736 731.9 726.3 720.7 709.7 707.4 704.9 705.7 706.5 708 711.7 713.7 716.1 720.4 724 729 735.2 740.9 747 756.3 763.5 766.3 768 771.2 761.3 756.3 743.5 725.1 718.8 718.2 723.2 728.2 728.9 732.4 733.5 739.4 744.5 750.6 762.8 771.4 782.3 794.1 804.9 819.2 827.3 840 852.2 864.3 876.2 886.8 897.1 906.6
340.1 340.3 340 339 337.9 337.9 338.7 338.5 338.2 337.7 336.3 335.8 336.6 335.1 335 335.6 336 336.5 337.2 340.2 340.9 341.8 345.9 346.8 350.6 352.5 354.2 355.9 357.4 358.5 362 361.5 362.7 366.2 369.8 371.9 376.1 378.8 380.4 380.9 382.9 385 385.6 387.8 390.5 392.3 395.7 399.5 403.7 407.9 412 415.5 420.7 424.6 428.7 432.9 436.8 441 443.8 447.8 454.3 459.2 459.6 460.9 468.9 470.9 477.8 481.2 485.9 487.4 497.5 501.8 500.3 503 505.8 509.8 514.2 515.4 518.7 523.3 526.6 528.8 531.4 532.8 534.5 535.9 537.4 540.4 542 540.6 536.4 549.7 546.3 538.4 546.8 551.3 558 565.2 561.3 562.7 568.2 572.4 574.2 575.8 578.4 580.9 583.9 584.3 590.8 591.6 590.2 593.7 598.9 602.2 604.7 607.6 612 613.4 619.9 626.9 631.1 635.9 642.2 652.4 656.9 667.2 678.5 686.7 691.7 700.7 706.8 711.3 718.5 726.6 736.7 746.5 755.1 762.4 771.1 775.6 779.7 786.2 790.1 786.2 777.6 766 752.2 742.9 737.6 731.9 725.2 721.1 712.7 712.3 711.9 712.1 713.4 716.7 718.6 721.7 723.8 728 732.4 739 745.1 750.9 758.6 765.1 766 768.4 770.3 772.9 760 750.6 736.2 717.4 709.5 709.5 715 717.4 718.4 721.3 723.7 727.9 734.7 742.7 753.4 764.5 776.4 790.4 801.9 815.5 824.1 835.3 847.2 861.5 872.3 885.3 894.2 904.2
340.1 339.8 339.8 338.8 337.8 337.3 337.6 337.8 337.5 337.1 337 336.7 336.2 336.6 336 335.5 336.4 336.9 337.9 338.9 340.3 341.9 344.6 346.8 351.3 353.4 356.2 358.5 360 365 364.2 363.8 366.5 369.7 373.3 374.3 377.6 382 383.5 384.6 386.5 388.3 388.7 389.6 393.1 396 400.3 404.5 407.4 411 414.3 418.6 423.8 429.2 432 437.4 439.5 444.2 448.8 457.7 461.3 463.9 464.6 468.7 474.5 480.8 485.7 490.9 491.7 496 501.8 506 506.7 510.5 515.7 520.6 522.6 523.7 527.2 531.6 533.6 534.9 537 537.1 540.6 542.2 543.7 545.3 545.8 544.5 540 551.8 544.4 549.1 550.4 553.7 554.2 560.5 563.5 567.7 569.2 573.1 575.9 578.9 579.4 584.9 585.6 587 591.6 591.1 594.2 596.5 602 604 608.1 610.1 615.8 616.6 619.9 627.7 629.8 638.7 646.8 652.4 662.6 664.9 677.4 684.8 697 705.1 710.4 716.6 722.2 731.8 741.9 751.1 759.3 765.6 774.5 779.8 784.5 787.7 788.5 783.5 775.2 764.1 753.1 744.8 738.2 731.7 725.7 723.1 720.9 719.1 718.4 719.9 723 725.4 729.4 731 734.6 737.9 742.6 749.1 752.7 758.9 767.7 775.7 772.7 767.5 768.1 764.4 752 736.1 723.5 710.7 704.3 704.8 705.3 707.8 708.3 710.7 714.2 715.1 722.5 733.4 744.1 758.8 771.3 784.4 798.4 809.3 820.9 832.6 845 858.9 870.1 881.6 891.8 900.9
340.3 340.3 339.4 338.8 338.2 337.5 338 336.8 336.5 337 337.6 337 339.3 338 337.5 337.1 337.3 337.8 339.6 339.3 340.6 342.2 345.6 348.9 352.3 355.5 358.3 360.7 362.8 363.8 365.3 367.3 369.1 372.7 377.4 379.8 382.4 384.2 386.7 388.2 390.2 391.3 392.2 393 395.9 401 405.1 409.3 412 415.2 418.8 423.5 427.5 432.3 435.5 440.1 442.3 449.4 456.5 462.8 464 467.9 469.9 474.2 481.4 486.7 492.3 494.1 496.2 501.5 507.6 509.8 514.8 519.2 524.9 526.7 528.9 531.3 534.1 538.1 540.3 540.5 541.1 542.9 545.6 547 548.6 551.5 549.1 546.9 541.4 554.2 547.4 553.4 554.3 560.5 557.8 563 565.7 571.4 572.6 574.5 578.5 583.3 581.2 587.7 587.8 591.3 592.9 593.1 600.5 603.1 602.8 604.6 610.4 614.8 622.2 622.2 625.2 628.8 633.2 640.7 646.7 653.6 663.4 669 671.3 687.3 695.8 704.7 711.7 718 726.2 735.4 745.4 753.4 760.8 769.3 776.8 783.4 787.6 788 784.4 778.6 772.6 762.6 754.2 748.4 739.1 731.9 730.2 726.5 725.6 724.5 725 727.9 731.9 734.7 738 741.1 745.9 746.6 754.2 759.6 765.2 772.9 777.7 784.5 780.4 772.3 764.7 756.9 745.2 729.5 715.2 702.1 697.3 695.8 698.1 698.2 699.1 699.6 701 705.4 711.3 723.4 737.4 752.1 768.1 782 795.9 805.4 817.1 829.2 841.2 853.8 865.9 878.2 887.2 892.7
340.1 341.7 340.2 339.2 337.4 337 336.5 336.2 336.1 336.4 337.7 338.5 338.9 339.4 338.9 338.9 339.3 339.8 341.9 340.8 342.1 343.5 345.9 349 353.5 356.9 360.2 362.6 364.6 364.6 366.9 370 372.5 374.9 379.3 381.7 385.7 388.9 390.9 392.2 394.8 394.9 395.5 397.3 399.6 405.3 410.3 413.9 416.7 419.5 423.8 427.2 431.1 435.4 439.6 443.2 447.2 455.9 462.5 465.9 470.2 471.2 473.6 481.1 486.8 492.1 495.4 497.2 499.9 507.4 513.1 515.3 524.1 527.9 534 535 535.4 538.4 541 542.4 544.1 546.7 547.6 547.9 550.2 549.9 550.3 552.5 549.4 548.9 545.9 554.6 554.7 555.9 560.3 565.1 566 564.7 571.1 575.1 574.4 577.9 581.9 585.4 587.3 590.6 590.5 594.8 597.4 598.4 602.5 606.4 608.2 611.4 613.7 618.7 624.1 627.8 628.7 634.7 639.5 640.9 646 654.9 661.6 669.3 675.4 683.1 692.8 701.6 712.5 721.3 727.9 734.5 744.2 754.5 765.5 770.8 778.9 783.4 784.7 783.3 779.4 773.7 771.6 763.2 757.4 748.5 742.2 737.6 733.5 732.3 731 733.1 735 736.5 740.1 745.5 748.1 753.3 758.2 761 767 772.4 779.4 784.9 789.9 793.3 789.6 776.3 762.5 753.4 737.9 722.8 711.5 702.5 694.6 692.6 687.8 686.8 687.5 688.3 691.2 693.7 705 714.2 729.1 747.8 764.1 779 791.4 802.9 813.8 826.8 837.7 848.7 860.9 874.8 880.5 884.6
340.4 340.9 340.6 339.9 338.1 338 336.4 335.7 336.3 337.3 337.9 338.6 339 339.9 339.7 340 341.1 342.7 345.3 345 346.3 348.1 350.5 351.2 354 356.4 359.7 362.2 364.3 366.7 368.3 371.1 374.7 378.7 381.7 383.2 385.8 390 392.9 396.4 398 397.3 400.1 401.9 402.9 408.5 414.5 418 421.7 424.3 428.8 431.4 434 439.6 447.6 449.5 454.3 461.1 465 469.4 472.6 476.3 479.5 485.7 491.9 497.2 499.4 501.3 504.2 514.1 517.1 521.6 530.3 532.3 538.5 539.3 541.3 544.6 546.1 549.2 549.5 552.4 552.2 551.2 554 551.7 554.3 555.9 554.5 555.6 547.5 558.9 558.6 557.4 567 568.6 568.9 568 574.7 579.3 577 581.8 585.7 590.4 590.1 592.2 597.6 597.6 600.1 602.1 605.9 606.9 610.7 616.7 617.7 620.9 624.8 627.7 627.3 635.2 640 643.9 648.6 652.9 662 664.5 672 678.5 692.7 699.3 709.7 716.3 726.3 734.9 744.1 757.8 766 771.3 775.7 779.5 779.7 776.1 774 771.1 770 766 756.6 749 743.1 741.2 738.4 736.9 737.7 739.9 742 744.9 750.5 756.1 761.5 768.2 773.3 779 785 788.2 791.9 796.7 801.4 802.4 798.1 778.6 760.4 745.5 729.3 717.5 706.3 698.5 693.2 684.8 680.8 678.7 677.8 675.6 678.7 685.6 691.7 705.8 722.1 737.4 759.7 775.9 788.7 800.3 811.1 823.6 833.5 844.9 856.2 865 870 874.4
340.7 341.9 338.5 338.1 338.1 335.9 335.4 335.2 336.5 337 337.6 338.6 339.3 340.7 341.1 341.4 341.6 344.3 347.6 343.9 346.1 348.9 353.3 355.8 356.3 357.9 359.8 360.7 361.5 364.4 367.2 371.2 376.5 380.3 383 385.3 387 388.9 394.3 396.2 399.5 399.8 402.9 408.3 410.4 411.6 418 422.9 426.8 430 433.4 436.1 438.7 443.4 449.7 456.6 463.3 466.4 472.5 471.5 479.8 481.4 485.4 491.9 496.5 499.4 504.4 509.1 512.1 518.9 523.8 530.1 534.7 539.8 544 546.8 549.1 551.4 553.4 553.1 553.5 555.1 558.1 556.7 554.3 555 554.7 559.8 560.5 560.2 553.8 560.9 565 556.7 569 569.2 571.4 570.5 574.8 580.6 582 586.3 588.4 593.7 592.8 594.3 599.8 601.3 602.4 607.5 611.1 613.6 613.6 618.2 620.5 620.5 624.2 628 633.1 640.6 643.5 647.1 647.3 654.9 662 661.8 670.9 677.1 683.3 692.4 706.3 713.5 723.3 735.6 746 754.8 761.4 769.6 771.5 772.6 772.2 769.2 768.2 769.4 766.9 764.8 757.3 749.8 746.2 745.4 743.8 745.2 746.4 747.4 750.6 754.1 763.4 768.9 773.7 781.6 790 794.9 800.6 803.2 803.3 805.1 807.6 809.6 808.5 792 760.1 741.5 725.9 712.8 703.1 696.9 689.4 683.3 671.7 670.4 670.1 663.9 669.7 677 687.6 695.9 713.6 733 755.2 772.1 784 797.2 807.8 818.9 828.9 837.7 848 854.1 856.2 861.4
340.1 339.5 338.9 337.7 336.3 335.5 335.8 335.1 336.5 336.5 337.5 339.2 340.8 341.8 341.4 342.9 343.4 348.9 347.4 345.9 346.9 350.3 355 357.6 357.9 359.4 361 363.3 364.7 366.2 368.3 372.3 377.7 381.8 385 387.4 389.4 392.3 394.9 396.2 398.1 404.1 408.8 413.8 416.9 417.4 421.5 427.8 431.8 435.5 437.9 440.6 443.3 448.3 453.7 462.1 467.5 471 473.7 476.1 481.9 485.4 493.1 497.5 500.7 504.4 511.7 514.6 518.6 526.6 529.6 536.9 540.4 546 546.8 549.1 552.2 554.3 554.6 556.1 556.9 556.7 556.7 556.8 558.5 559.7 561.3 561.4 561.1 562.7 561.7 561.5 568.5 560.4 572 573 574.3 575.2 578.2 583 586.2 588.4 593.7 596.8 597 600.2 602.7 605.4 610.4 613.3 611.8 615.2 618.9 619.8 619.9 627.1 629.7 630.5 637.8 642.9 648.1 650.6 655.1 653.6 657.8 662 669.6 674.8 680.9 692.5 702.5 709.3 715.4 727.8 738 747.6 754.8 760.4 763.7 764 764 765.2 764.9 765.4 762.3 761.6 756.6 753.2 751.5 750 750.4 753.5 754.7 756.2 761.5 765.5 773.2 780.5 786.7 791.8 798.4 802.6 808.3 810.2 812.3 809.9 810.4 813.4 813.9 797.5 759 740.3 722.4 713.4 702.1 695.9 687.6 680.1 669 663.3 659.8 654.8 661.8 670.3 672.8 689.3 705.4 729.5 749.1 766.4 780.7 792.9 804.3 814.8 821.8 833.2 839.8 840.9 844.2 846.9
337.4 338.9 340.5 338 336.5 336.2 335.2 335.1 335.9 336.7 339.4 342.1 341.3 342 342.3 343.1 343.6 349.2 349.1 347.7 349.3 350.1 355.1 357.4 359.2 360.7 362.6 365 368 369.5 371.4 374.3 378.7 383.3 387.5 389.8 392.8 395.5 401.7 401.1 404.7 408.4 414.1 419 422.2 423.6 425.3 431.4 436.9 441.1 443.3 445 448.7 452.8 460.7 464.6 471 474.2 477.1 480.7 484.9 491.4 499.2 501.5 507.1 513.8 517 522.6 525.4 534.1 533.4 540.3 544.9 547.1 551.4 554.6 557.1 556.3 561.8 559 560.2 561.6 561.4 561.8 562.4 564.5 566.5 566 563.7 563.7 562.2 568.2 566.8 569.3 573.8 576.8 578.5 577.1 581.6 585.5 589.5 592.2 596.4 598.5 603.5 604.8 608.9 613.3 612.8 615.7 617.9 619.9 624.8 624.3 629 630.9 637.8 640.1 641.5 644.9 649 653.1 655.7 662.8 665.9 664.4 669.8 675.1 679 684.8 691.4 705 713.6 721.9 730.1 738.6 747.1 750.4 753.9 758.3 761.3 761.3 761.8 762.7 760 757.9 755.2 755.7 754.6 755.3 757 761.8 764.3 765.7 773.6 777.2 784.8 791.6 797.2 798.9 801.7 806.1 810.6 814.3 818.4 817.3 811.8 814.7 811.3 791.5 763.2 739.5 722.3 709.7 701.4 696 689 678.4 668.3 657.9 654.1 646.8 653.9 662 666.5 682.1 698.8 721.6 742.9 760.6 775.3 786.6 798.2 808.5 816.6 826.6 829.4 830.9 832.7 835.3
337.6 338.7 338 337.2 334.9 335.3 334.5 335.1 336.3 338.2 340.1 340 340.7 341.9 342.7 346.3 345.3 347.3 353.4 351.9 351.2 352.2 355.3 357.8 361.4 363.9 365.3 367 369.7 372.8 375 377.4 381.9 385.2 389 393.2 396.2 399.8 405 405.6 411.6 415.5 418.7 422.8 426.3 429 430.9 434.8 440.8 446.5 449 449.2 454.2 461.8 466.1 471.5 475 476.8 480.8 486.8 491.8 499.8 502.4 508.4 513.2 518.5 524.3 527.5 531.9 533.8 539.1 543.9 547.8 549.6 555.4 559.8 558.1 557.8 560.5 562.4 564.8 565.4 567.2 564.3 566.5 568.2 570.5 570.7 566.9 564.1 569 574 568.4 566.7 575 577.9 579 581.1 587 587.4 592.9 598.1 598.4 604.4 606 610 614.8 620 619.7 621.1 622.5 626.8 629.3 631.9 637 638.2 639.3 645.2 648.3 651.4 655.5 656.1 659 664.5 666.6 666 669.3 675.5 679.2 681.4 689.7 696.8 709 718 726.2 733.1 738.1 744.8 748.3 753.7 756.5 757.4 756.2 757.1 756.2 755.3 756.7 759.3 758.5 760.3 765.6 768.5 773.5 775.6 780.5 785.7 792.3 796.8 801.7 802.9 804.9 808 811 816.5 821.9 821.7 813.9 815.1 809 787.4 775.4 740.9 720.4 703.8 698.1 694.9 686.7 677.2 667.5 656.9 645.9 645.7 646.4 652.1 658.2 671.9 689.6 710.2 734.1 753.3 768.8 777.8 789.4 799.7 808.6 818.4 820.8 822.3 822 825
336.4 337.9 337.3 335.3 335.1 334.5 335.2 336.3 337 338 339.9 340.3 341.1 342.5 345.2 351.6 346.7 346.3 353.4 353.3 352.9 354.2 356.2 359.1 363.7 366.3 367.7 369.4 372.5 375.6 378.4 380.6 383.1 386.3 390.2 394.4 398.6 406.8 411.2 411.5 416.3 421 423.5 426.5 428.6 432.5 436.3 437.5 446.6 450.5 451.6 455 460 464.9 470.9 474.3 478.8 481.8 485.3 488.9 497.8 502.8 507.6 512.8 520.4 523.7 529.7 533.5 534.3 539.2 545.3 548.6 553.8 555.6 560.5 561.4 561.3 564.2 565.4 566.9 568.4 567.6 570.1 572.3 571.8 572.6 573.4 570.9 567.9 569.5 577.8 577.8 574.5 575.3 576.3 580.6 583.2 587.2 591.1 593.5 598.9 604.5 600.3 608.5 610.9 616.9 615.7 620.1 624.4 626.4 627.4 630 636.2 640.2 643.3 645.1 646.3 650.8 654 657.2 660.9 661.4 661.7 666.2 668.8 670.2 673.9 679.3 677.3 680.8 685.2 690.4 697.1 709.7 720.1 727.2 732.8 738.8 744.4 747.6 751 750.5 750.6 750.2 751.7 751.9 757.4 760.1 763.1 767.7 768.3 774.3 780.1 781.5 782.7 788.3 794.7 801.3 805.5 806.7 804.3 808 811.4 814.2 820 819.6 815.8 814 809.4 793.6 767.1 754.8 716.7 702.1 695.1 692.3 681.2 676.2 667.5 654.1 649.1 637 639.3 644.7 649.7 662.8 679.6 701 723 744.3 758.1 770.8 779.5 790.8 801.2 809.7 812.6 814.6 815.4 818
336.2 337.2 335.2 335.9 334.9 334.1 335.2 336.6 338.2 339.2 339.6 340 341 344.6 348 356.2 348.1 349.3 353 355 355.8 357.3 359.3 361.9 364.2 367.1 368.8 370.5 375 377.7 381.1 383.8 385.1 390 392.1 394.6 399.7 404.6 411.6 416.6 419.7 423.8 425.4 428.7 434.4 437.9 440.6 445.6 448.1 450.1 454.3 461.5 465.9 469.2 474.1 477.6 481.3 485.1 489 493.4 501.4 509.1 512 518.1 525.1 529.7 533.5 536.8 539.7 546.4 547.8 551.9 555.6 560.7 565.2 568 568.6 569.9 572.3 571.4 571.4 574.2 575.9 577.9 577.4 576.8 575.7 574.1 573.7 575.8 582.4 582.7 580.7 581.8 582.1 582.1 586.4 591.6 587.2 597.9 603.6 607.4 606 611.5 613.8 617.9 620 624.3 628.8 632.1 633.2 638.3 640.8 645.7 652.1 655.2 657.5 658.9 660.9 659.5 664.2 666.5 669.1 669.7 673.5 676.3 675.5 679.8 678.9 681.5 686.9 688.9 692.5 701.4 713.4 719.1 724.7 730.7 735.2 740.6 742.9 744.7 744.3 746.2 747.1 751.6 755.2 759.4 765 767.8 771.6 778.6 782.2 782.3 784.8 793.4 802.6 805.8 808 808.7 804.5 806.7 809 811 816 818 813.2 811.9 812.1 805.1 768.5 746.4 718.7 700.7 690.1 685.8 679.7 675.3 661.4 651.9 645.9 638.3 624.3 635 641 653.5 667.7 690 711.9 729.9 746.7 760.7 770 783.6 792.2 798.9 803.1 805.1 808.5 811.9
333.6 333.8 334.7 335.1 333.8 334.6 337.6 337.4 337.1 340.3 338.9 339.2 342 346.7 352.7 351 349.7 351.4 354 356.6 358.2 361.1 362.2 363.7 366.4 367.9 370.6 372.8 376.9 379.5 382.9 386.5 389.2 393.1 395.3 399.6 403 410.7 414.1 417.4 422.9 426.2 432.1 438.2 440.5 443 446.3 455 454.9 457.2 459 463.8 469.2 473.5 478.4 481.1 485.2 489.3 494.2 499.4 504.7 510.6 513.8 520.9 526.8 532.5 535.4 540.8 548.4 553 554.8 554.9 559.5 563 570.5 572.4 570.9 573.1 575 579.1 579.3 578.8 579.8 581 580.3 579.2 577.5 578 578.9 583.9 583.3 583.7 583.3 584.5 583.4 585.7 586 592.4 601.2 601.8 605.9 608.6 611.3 615.4 617.4 621.9 624.7 629.7 635.4 638.4 641.6 647.8 650.3 655.5 659.5 661 666.9 669.8 671.4 669.1 668.2 671.1 672 675.3 679.2 679.5 680 681.4 683.2 687.1 688.1 689.9 690.5 694.1 702.9 711.9 718.4 722.3 728.6 732.3 734.4 736.4 740 740.3 743.3 748.7 754 759.2 763.7 766.4 774.9 778.7 781.3 782.7 786.4 794.8 801.4 805.7 808.6 806.4 801.2 801.3 803.8 805.2 809.6 812.8 811.3 808 810.2 810.2 779.2 740.3 720.4 702.8 688.3 681 676.4 670.1 660.9 652 643.5 636.1 623.3 617.8 636 643.8 656.4 679 699.2 717.1 735.1 748.9 762.1 774.3 784.7 790.6 794.7 799.1 802.2 804.2
336.1 334.3 333.5 333.8 334.6 336.4 336.4 336.1 336.4 337 338.3 339.5 345.6 349.6 355 352.2 351.7 352.2 355.4 356.8 359.5 361.4 362.8 364.3 367.2 370.9 373.7 377 380 382.3 385.4 389.5 394.3 396.7 401.4 405.7 409.9 414.8 419.4 423.4 430.8 435.1 441.2 442.2 444.2 448.2 452 458.7 460.9 463.9 465.5 469.4 472.8 479.5 482.2 485.5 489.9 494.7 500.7 507.9 513.7 516.7 520.4 525.6 531.5 536.8 539.9 544.4 551.2 555.2 558.7 560.3 563.1 567.5 577.4 581.1 577.1 578.6 582.9 587.6 585.8 583 583.3 583.6 584.5 585.4 584 581 585.2 587.5 586.4 587.2 588.7 588.2 590 592.8 593.2 594.3 603.6 603.9 608.2 609.9 617 618 621.4 627.7 629 635.5 641.2 647.1 650.1 656.1 661.8 664.7 669.6 673.5 675.3 677.8 679.4 678.9 678.9 680.3 681.8 680 681.9 683.8 686 685.8 686 687.3 688.3 692.8 690.1 692.6 696.8 705.2 712.4 713.8 720.9 725 726.2 730.9 733.5 735.1 741.1 745.8 751.1 756.1 761.6 767 773.8 775.4 779.2 783 792.2 794.8 801.1 800.2 802.4 801 796.2 795.1 797.5 800.1 803.8 803.7 803.5 803.6 802.6 802.9 800.1 742.7 719.1 705.5 690.1 678.8 672.6 664.7 657.8 647.3 638.1 631.2 626.8 607.4 621.4 631.7 643.8 667 685.9 706.3 725.7 739.2 754.4 766.4 775.7 782.6 788.7 793.4 795.9 797.4
334.5 333.2 335.6 334.7 334.9 335.9 335.7 336.6 338.1 339.3 338.7 341.5 345.8 353.9 359.8 354.6 353.7 354.7 356.1 356.8 360.1 362.2 365.3 367.8 369.9 371.8 375.2 380 383.1 386.6 390.2 395.2 400.5 405.6 410.8 411.9 416.9 418 427.6 434.2 434.1 438.3 443.1 445.5 448.6 452.9 460.1 464.5 467 468.1 472.7 478.2 475.4 483.3 488.1 491.3 495.3 501.5 508.1 513 517.4 521.8 525.6 532.6 537 542.4 546.2 548.1 551 557.2 563.8 570.4 567 570.5 579.9 583.3 584.2 586.8 588.3 592.1 589.5 588 588.8 588.6 588.7 588.1 588.7 587.4 588 588.5 589.2 590.5 592.5 592.4 595.5 596.7 597.5 598.8 604.2 607.9 610.6 615.3 619.6 623.4 627.9 633.7 636.8 640.7 646.2 654.2 659.4 665.6 670.1 674.3 678.2 683.3 685.3 687.1 689 688.5 687.8 689.9 689.5 688.9 689.7 689.4 690.8 691.3 692.2 690.5 691.9 694.4 691 696.7 695.3 700.8 705.6 710.8 715.9 718.7 720.3 726.7 728.7 731.7 737.4 742.7 747.3 754.5 759.5 765.3 770.7 774.7 780.5 784.7 792 793 795.3 796.3 793.7 792.4 789.2 787.7 794.3 792.8 795.8 793.9 796.9 797.7 794.2 790.9 791.1 744.2 721.1 705.3 690.9 679.9 667.3 660.1 653 643.1 635.6 627.4 618.6 602.7 609.1 619.9 631.9 654.1 676.3 696.8 715 731.8 744.2 758.6 767.5 773.7 781.6 787.3 790.9 792.8
335.9 334.3 336.2 335 335.3 335.7 335.8 336.7 337.6 339.9 340.2 341.5 347.7 357 360.5 354 354.6 356 357.4 359.1 360.8 363.9 365.6 370.6 373.7 377.8 379 383.2 386.5 390 396.4 403.4 404.5 406.8 411.9 416.3 424.7 430.3 426.9 440.8 439 441.7 447.2 451.9 456.9 460.5 467.2 471.3 472.2 475.8 481.1 481.5 485.8 490.8 496 497 500.7 507.2 512.1 517.6 521.4 526.9 532.1 536 542.5 546.5 549 551.8 559 560 569.4 576.4 574.8 576.9 581.8 586.2 590 590.6 594.3 595 595.6 596.1 594.9 594.7 594.7 594.9 594.2 595 591.3 592.7 593.9 592.5 593.6 596.4 595.5 597.2 602.4 602.4 610 615.8 614.3 618.7 621.2 627.4 632.2 638.9 645.6 648 656.7 662.1 667.9 674 679.4 685.2 688.5 692.9 694.3 695.1 697.3 698.2 697.8 698.1 700.5 700.9 699.4 699.9 696.7 698.2 696.7 695.8 698.6 701 694.7 697.8 696.1 700.5 703.2 705.9 713.4 713.3 716.7 718.4 724.1 729.1 733.7 739.4 744.5 750.7 756.9 763.5 768.8 773.5 782.4 785.1 790.3 787.5 792.3 791.7 789.6 787.1 782.9 782.3 787.7 785.8 785.6 784.4 784.5 789 785.1 781.2 777.3 753.7 720.8 705.5 691.1 677.4 664.7 655.2 646 637.9 631 623 614.6 592.4 597 612.7 620.6 642 667 688.9 709.2 723.9 737.8 751.1 760.1 766.4 773 781.2 786.1 787.2
336.3 334.1 336.7 336.5 335.5 335.5 336 336.7 337.2 339.3 341.4 343.1 344.8 350 351 351.8 353.4 355.4 358.1 361.3 362.9 366.9 368.3 370.2 381.3 381.3 384.2 388.4 392.4 398.2 405.7 408.6 409.3 413 415.2 425.2 431.7 435.1 436.6 441.2 446.5 448.3 452.4 457.1 462.1 468.8 471.6 474.7 478.3 482.3 486 489.7 489.6 493.3 499.7 503.5 508.5 514.2 519.4 521.6 529.8 532.5 537.2 542.9 546.2 549.6 557.5 558.2 561.2 565.6 573.6 577.6 584.7 585.6 593.1 595.8 594.8 596.9 599 603.6 605.2 602.6 604.4 599.9 600.6 599.7 599.2 598.1 596.7 597 597.4 596 599 601.5 599.3 602.2 605.2 608.4 610.2 613.1 621.9 623.1 628 629.9 635.9 644 651.2 659 665.3 671.6 677.6 683.4 690.6 696.1 700.2 703.7 706.4 705.8 706.7 706.4 708.4 709.5 708.8 709.6 709.4 708.5 706 705.5 706 707 707.1 702.9 699.4 704.6 700.4 703.3 703.6 705.3 710.7 711.2 713 718.5 720.9 726.2 730.6 734.8 740.9 746.3 752.7 759 765.4 771 778.8 783.6 787.1 784.3 782.3 782.7 782.7 780.5 777.9 775.8 773.9 772.4 771.8 771.3 771.7 775.7 773.9 774 771.8 751 720.7 706.1 690.6 675.5 663 651.5 640.8 631.2 624.3 617.8 610.8 597.5 582.1 599.7 613.2 637.6 661 683.5 701 716.7 729.9 742.8 751.1 762.1 770.2 776.6 780.5 780.4
336.8 333.8 337.8 336.2 336 335.9 336.1 336.4 338.6 340.9 342 344 346.4 349.2 351 352.4 353.7 356.3 358.8 362.7 367 370.7 373.9 376.5 377.8 387.1 394.7 395.2 401.4 412.7 412.1 412.4 413.9 419.5 424 430.4 436.6 442.3 447.1 446.3 455.9 461.3 457.4 464.7 470.2 475.4 474.7 483.6 484.7 487.9 492.9 492.8 495.3 499.6 502.8 507.8 516.6 520.7 522.7 529.7 531.7 536.1 540.4 546.7 548.6 554.9 561.3 565.1 568 572.8 578.9 584.5 588.7 595.4 600.4 605.7 604 607 609.6 610.4 611.4 610 608.9 606.9 607.4 605.8 603.3 602.1 604 601.8 602.8 600.7 604.1 602.8 603.6 605.4 608.3 611 612.4 615.6 624.3 626.8 631.5 635.7 641.7 651.4 659 665.7 672.2 680.6 686.8 695.3 700.9 705.7 711.4 713.7 715.9 719.5 717.3 717 717.3 717.1 716.6 716.2 716.6 716 716.3 713.8 714.6 713.3 711 710 708.3 708.4 702.8 705.9 703.6 705.1 709.3 708.1 711.2 713.9 716.9 721.3 726 732.1 737.4 743 749.8 756.4 763.3 768.1 774.8 779.7 781.2 779.8 780.9 778.2 779.2 775 769.6 770.6 768.2 761.9 758.1 755.1 754 753.9 759.1 759.6 760.9 747.2 719.3 703.5 687 673.9 662.1 650.6 638.7 626.9 617.8 609.7 604.6 588 575 585.9 610.5 634.7 658.6 677.4 695.5 711.6 724.4 735.7 743.8 754.5 765.5 772 774 773.7
334.3 336.8 336.8 336.9 336.9 338.1 338.8 338.1 339.1 341.3 343.4 344.8 346.9 348.9 352.2 356.2 357.9 359.8 361.8 365.2 374.1 375.7 379.4 383.6 387.4 392 401 402.5 407.4 415.6 416.1 418.2 422.5 428.4 434.7 437.2 445.3 451.6 454.4 458.2 463.4 467.6 467.7 474 477.4 480.3 484.4 486.4 489 492.8 499 496.9 500.7 506.3 511.4 515.8 520.1 523.9 527.9 531.8 535.2 541.6 545.1 547.8 552.9 557.3 561.8 566.1 574.2 577.1 584 589.2 594.9 601.6 604.4 606.3 609.1 612.9 617.6 622.5 620.7 620.8 616.9 616.6 612.5 609.3 607.7 609.3 610.8 606.9 608.4 609.6 605.7 608.2 605.1 608.1 609.6 614.4 619.1 621.1 626.2 632.1 636.9 640.4 645.1 656.5 665.1 672.5 680.9 690.1 698.2 705.3 713 718.3 724.4 728.4 733 731.6 732.7 729.8 729 727.7 729 727.9 725.6 724.9 723.7 722.8 720.9 718.6 718.5 716.9 714.1 711.7 707.7 704.9 704.6 707.4 705.8 706.4 707.8 710.4 713.9 717.8 722 728.2 734.1 739.5 745.7 752.8 759.5 765.8 771.6 776.8 775.9 775 777.5 774.1 771 768.4 764.8 763.3 756.7 753.1 748.6 745.1 744 746.6 747.6 752.8 751.6 737.3 716.3 701.9 686.5 671.8 658.1 646.1 632.8 620.4 608.1 599.2 597.3 590.3 565.5 580.3 604.3 631 651.3 671.3 689.4 707.3 721.6 729.3 737.7 747.5 758.8 766.3 767.1 764.7
336.5 338.4 338 338.4 338.6 339.6 340.1 340.4 340 340.1 342.4 343.5 347.3 352.8 357.9 360.2 364.6 368 371.4 377.3 379.9 381.1 386.5 392.2 396.5 397.3 403.5 412.5 413.1 417.2 420.6 426 431.4 438 443.8 446 452.4 459.4 464.2 468.2 467.3 472.1 477 481.1 481 485.2 489.6 489.4 494.4 498 499.6 501.1 508.4 512.2 517.6 523.2 521.3 526.8 529.8 535.3 540.3 546.2 548 551.6 556.4 562.5 566.3 569.5 577.1 584.3 589 596.3 601.2 605.5 611.3 613.8 619 623.6 627.7 632 632.2 630.9 628.2 625.8 621.3 617.4 618 614.6 613.5 613.2 617 614.8 616 615.9 616.3 614.7 617.3 616.9 627.2 624.7 629.2 633.3 637.6 644.4 648.5 660.6 670.1 679.8 689.1 697.1 707.1 718.5 729.4 738.2 745.5 751.3 756.1 754.6 747.7 744 741.9 739.1 739.2 736.8 735.2 731.8 730 729.4 726.5 723.6 721.5 719.1 716.8 715.3 712.1 708.9 705.3 704.3 703.9 705.1 707 708.5 711.6 714.2 718.4 722 729.1 733.9 741.2 748.6 755.2 762.8 768.7 776.9 774.3 772.2 770.9 769.2 765.2 762 759.3 755.4 750.3 744.3 742.3 738.6 735.6 737.8 739.6 743 744 726.6 714.7 705.3 683.5 668.6 652.7 640.8 627.4 613.9 602 587.1 589.5 583.1 560.3 581.7 605 632 654.8 672.9 690.8 704.3 715.9 725.4 732.4 741.7 750.1 757.1 758.2 755.4
335.9 337.9 339.2 340.3 340.5 339.4 343.4 344.1 344.3 343.4 345.5 346.7 350 355.3 362.4 365.6 370.6 379.6 383 383.6 386.5 390.3 393.5 400.7 404.5 405.5 414 423 420.5 426.2 431.6 434.8 442.2 445.1 450.4 457 457.6 465.2 470.6 474.6 474.4 478.5 481.7 483.3 486.1 491.7 493.6 496 500.5 500 503.2 507.7 513.5 518.8 523.9 524.2 525.8 526.5 534 539.4 544.9 549.7 553.3 559.9 562.5 565.1 569.3 574.7 585 589 594.4 603.1 609.9 613.8 617.8 622.6 631.3 633.8 637.7 644.2 647.2 641 637.8 634.6 630.7 629.4 623.5 620.3 619.1 621.3 624.2 624.2 624.8 625.9 626.6 625.8 628.5 622.6 625.3 627 630.3 633.1 641.3 645.3 653.9 661.5 674 684.3 696.7 709.4 721.6 734.7 749.4 761.2 768.3 772.6 777.5 777.4 766.5 757.5 752.7 752.5 748.9 746.6 742.1 740.6 736.9 733.6 730.9 727.9 725.7 721.7 720.1 717.5 714.8 710.7 706.3 705.4 702.8 703.5 704.1 706.9 708.9 709.6 714 718.9 724.8 730 738.1 744.9 752 760.3 765.7 773.2 773.7 770.3 767.7 768.3 762.3 759.1 755.3 749.9 742.4 737.8 735.2 732.9 729.8 729.5 729 731.8 732.3 721.8 715.6 704.8 682.9 664.5 650.7 633.9 618.8 604.2 595 589.2 578.9 571.2 556 580.7 604.6 633.1 655.5 674.2 688.8 702.3 712.5 723.5 731.6 737.1 740.4 744.6 746.1 741.4
337.1 337.9 341.2 342.2 342.8 344.6 346.2 345.3 346.9 348.2 348.4 351.8 355.9 362.1 368.4 374.6 378 384.5 388 392.6 397.5 403 404.8 411.2 415.3 407.8 418.3 432 430.8 435 439.1 444.5 449 452.9 458.1 462.8 465.9 474 477.9 479.9 481.6 483 487.4 487.7 490.6 493.4 496.3 498.5 501.2 503.2 509.4 513.7 521.6 521.3 525.9 528.5 530.9 534.6 536.7 542.8 548.1 552.2 559.6 563.6 564.4 567.9 573.1 582.3 588.8 595 602.3 607.1 615.1 620.2 625.3 632.5 639.6 644 651.3 656.2 654.6 650.9 647.7 641.4 641.4 633.9 629.2 632.4 633.4 633.2 636.5 633.8 634.1 634.2 633.7 632.3 631.1 630.5 629.2 627.4 630.3 639.1 646.3 649.9 657 667.3 678 688.6 703 716.7 730.4 744.5 759.6 766.4 777.9 785.1 789.2 790.5 779.4 772.4 763.6 761.6 757.5 753.1 749.3 746.5 741.9 738.1 735.5 732.4 729.5 724.6 722.4 720.9 716.5 711 708.5 704.5 702.7 701.6 703.2 704.9 705.2 706.1 709.8 715.1 720.4 727.1 733.5 740.2 749.6 758.1 763.1 770.2 773.2 769.6 767 763.8 761.7 755 749.7 744.3 738.8 730.4 727.2 723.7 721.5 720.8 720.9 720.8 717.1 715.7 711.1 699.8 675.9 658.3 644.4 629.8 612.1 596.2 588 581.8 575.8 557.6 555.4 580.5 606 632.9 656.3 676.8 692.2 701.1 712.7 723.1 731.9 731.3 733.1 733.2 733.6 725.4
340.1 341 341.9 344.7 346.8 348.9 349.6 349.7 351.7 352.9 353.6 356.8 362.5 370.4 379.8 382.2 385.5 391.3 398 401 406.4 414.1 420.5 423 427.7 420.9 430 435.7 439.8 445 451.7 453.3 458.8 463.7 466.3 471.2 471.9 478.9 483.2 483.1 488.5 489.9 489.7 490.9 492 495.5 499 502.3 505.5 510.8 515.9 521.5 524.6 527.5 531 535.5 537.1 539.4 540.6 545.5 551.2 554.8 562.2 564.4 567.9 573.1 579.2 588.2 594.5 601.7 606.9 613.5 621.1 630.9 635.1 641.9 648.7 656.6 664.2 668.3 665.8 657.4 653.9 652.4 650.6 643 643.8 646.1 642.9 644.8 647.2 649.2 644.3 641.8 641 640.3 638.9 638.3 630.7 631.6 631.5 637.3 645.1 650.9 657.5 666.7 680.1 690.3 703.7 719.5 734.3 751.2 766.7 776.1 790.5 797.7 805.2 805 803.2 799.7 783.9 773.4 762.6 757.8 754.6 750 746.3 745.5 740.4 735.6 732.4 727.6 724.6 723.4 719.4 713.8 708.7 705.2 702.7 699.4 700.3 701.1 702.5 704.3 707.9 711.1 716.9 722.9 729.5 737.8 746.8 754.1 761.7 767.7 771.7 770.7 771.2 764.3 762.3 756.2 746.2 737.4 731.9 725.4 718.5 714.3 710.4 709.8 709.3 710.9 709 705.5 698.2 690.9 675.4 653.5 639 622.8 605.2 587.6 580 570 567 544.1 556.2 580.7 606.8 635.9 660.5 678.9 691.5 705.2 715.8 725 726.8 723.8 723.7 722.7 717.5 707.4
343.1 344 343.6 345.7 349.9 351.9 353.9 352.7 357.2 360.6 361.4 366.4 368.7 376.4 384.8 391.2 398.5 403.8 409.5 415.3 423.4 428.7 430.3 436.3 438 437.6 440.1 441.7 449.1 457.9 458.8 463 466.5 470.6 473.7 478.6 478.2 484.3 486.9 490.1 491 491.7 491.3 494.6 496.2 499.8 502.8 506.2 509.6 515.7 522 527.7 528.8 531.7 535.4 541.8 545.1 548.1 549.6 551.1 556.2 560 562.7 568.6 574.8 580 582.7 589.8 598 605.9 615.6 622.7 629.8 638.2 644.1 652.2 660.5 667.5 676.2 677.9 676.5 668.9 664 660.2 655.3 657.5 653.9 656.8 657 658.4 662.5 660.5 658.2 655.9 651.2 649.9 645.1 640.7 636.4 634.1 634.7 638.2 642.4 647.2 657.9 667.6 678.5 689.9 704.5 719.3 734.3 751.2 770.5 785.8 801.4 812.5 822.6 824.8 825.1 820 807.5 787.1 769.6 759.5 756.1 753.6 749.9 744.6 738.1 736.4 737.3 732.4 727.4 722.7 719.9 714.5 709.9 705 702.5 698.7 697.8 699.5 700.7 701.6 704.5 709.2 714.6 720.8 727.1 733.1 740.8 751.5 759.4 767.4 772.8 774.9 772.1 767.2 761.5 759.8 742.3 730.6 720.3 716.5 710.7 705.6 701.3 699.3 697.6 698.1 698.8 695.6 692.3 679.1 664.1 643.8 629.9 614.9 596.2 576.6 563 563.9 551 535.3 557.6 582.9 612.2 638.8 664.3 685.4 694.6 708.9 717 722.6 718.7 710.4 708.8 707.2 697.7 687.5
346.2 348.7 348.4 351.1 354.4 355.7 356.9 357.6 364 367.6 371.5 375.4 379.1 385.9 391.5 399.3 407.9 414.9 424.6 430.4 435.8 441.6 437.3 441.8 441.1 443.7 448.4 450.1 454.1 464.8 467.1 471.2 474.5 480 482.3 484.3 486.1 490.9 493.3 494.5 494.8 495.8 494.4 496.2 498.1 508.5 510.2 512.2 516.2 520.8 526.8 531.2 535.9 537.1 541.9 545.8 550.2 552.2 556.6 552.6 558.4 566.8 572.6 574.3 577.8 582.6 586.7 596.1 602.7 612.2 621.1 630 635.8 644.9 654 664.3 674.2 682.9 686.7 683.1 681.2 676.1 673.6 669.9 668.9 668.3 669.1 669.9 668.4 668.8 674.9 672.5 671.6 667.9 666.9 658.3 653.3 649.2 643.8 639.6 637.9 636.9 642.8 646.8 653.5 663 674.6 689.2 700.2 715.5 732.4 750.3 771.4 788.5 802.1 814.8 824.4 827.3 825.9 819.7 810.6 797.3 774.6 764.7 761 752.6 749.3 746.6 739.6 737.9 738.4 736.5 729.4 723.3 717.6 713.7 709.5 703.8 700.9 697.2 696.9 697.5 698.5 699.2 701.5 705.8 712.3 717.9 724.7 730.8 737.6 749.1 757.2 766.6 773.3 773.8 776.9 775.2 759.9 755.6 735 725.2 714.4 706.5 702.2 693.5 692.5 688.9 687.1 686.2 687.8 685.8 686 674.5 654.9 636.9 620.9 605.5 583.5 566 549.8 552 525 528.6 558.7 584.8 611.8 642.4 667.6 683 698.6 712.2 713.7 711.2 706.6 698.2 696.1 686 676.4 664
349.3 351.6 353.4 356 357.4 359.1 360.8 364.5 370.5 374.6 380.2 384.2 390.5 395.5 405.6 412.5 423.7 430.4 437.7 443.9 449.9 448.2 447.9 449.3 450.8 457.5 449.4 462.8 463.8 467.5 473.3 476.3 481.9 484.9 488.9 492.9 489.9 492.8 495.9 498.2 497.1 497.1 500.5 499.7 502.9 510 517.8 519.4 523.2 528.8 533.7 539.5 542 544.2 546 549.6 553.4 556.8 560.9 561.1 565.8 572.5 576.4 577.6 583.3 587.7 592.4 601.2 606.5 616.9 623 633.3 642.1 652.1 661.1 669.9 679.1 687.4 686.7 687.2 685.1 683.1 681.9 681.3 682.7 686.4 685.9 684.8 688.2 689.5 692.8 688.6 688.4 688.7 682.4 674.6 663.4 654.6 648.2 647.2 641.9 641.8 642.3 644.8 650.4 658.4 670.6 681.8 696.9 714 730.2 749.5 767 783.7 797.2 809.7 818.8 824.4 825.2 815.6 801.8 795.2 786.1 765.7 764.5 754.1 746.6 743.9 740.9 738.5 737.4 735.3 730.5 724.2 718.3 713 708.4 703 698.9 695.8 695.1 695.2 695.6 696.7 698.7 702.4 709.3 715.4 721.7 728.3 736.1 743.9 757.5 767 770.3 771.5 777.7 782.8 767.6 746 730 723.6 714.3 702.3 692.2 686.8 681.5 678.8 674.1 677.2 672.5 672.3 673 664.8 643.9 628 609.8 590.3 568.3 552.6 527.9 538.4 518.8 544.7 563.8 587.3 615.1 645.5 669.7 684.5 697.2 710.2 708.6 695.5 690.5 681 674.4 668.8 653.2 640.5
352.5 356.9 357.8 360.9 364.9 364.9 367.3 371.9 374.7 382 387.4 393.3 400.1 406.8 418 425.3 436.9 445.8 455.8 461.6 460.7 463.1 462.7 458.3 463.4 464.9 465.2 468.3 471 476.8 479.6 481.6 487.7 491.9 492.1 495.2 494 498.9 500.6 501.8 500.1 500.5 504.3 502.8 508.7 515.9 520.6 526.1 530.7 534.8 540.4 547 547.3 548.6 551.3 554 556.4 561.7 565.9 565.5 564.7 574.2 580.9 582 584.6 589.9 594.8 604 609.9 618.8 629 637.7 646.2 658 665 671.6 678.8 683.9 686.1 690.1 688.6 688.8 690.2 693.8 696.3 695.3 702.6 705.2 705.8 709.9 712.7 706.1 708 703.7 694.9 682.6 672.1 666.2 656 651.6 648.3 644.1 642.9 644.6 648.2 655.5 666 677.9 696.4 713.1 729.7 744.4 762.8 777.8 792.4 804.5 813 815.3 813.6 808.7 801.3 792.4 785 769.7 758.8 752.2 742.7 740.8 742.1 739.5 737.7 734.6 730.3 724.7 719.4 713.4 707.3 701.1 696.7 693.8 691.3 692.1 692.6 693.8 695.6 699.4 705.8 711.7 717.8 725.2 732.4 742 756.2 765.6 769.4 770.3 775.8 779.4 770.9 748.6 729.4 718.8 712.4 703.8 690.4 677.5 670.4 666.5 662.2 662 659.2 657 655.2 646.7 632.2 615.8 596.4 571.1 554.7 540.8 523.1 516.1 529.7 549.7 566.3 585.7 615.9 639.2 655.3 677.9 692.1 698.7 689.7 679.7 673.7 662.3 654 644 626.6 614.2
357 358.3 362.2 363.3 366.7 369 372.2 377.1 381.1 385.8 392 402.2 409.1 414.7 424.6 434.5 444.3 454 462.3 468.9 477.3 479.7 476.9 472.1 472.1 474.1 473.1 474.7 481.8 480.9 484.3 489.8 495.6 496.3 496.1 497.2 501 502.1 504.5 502.6 503.8 508.8 511.3 507.8 513.4 519.6 526.8 531.5 534.6 540.5 544.1 550.9 552.5 554.9 557.1 559 560.5 565 569.2 567.8 572.4 577 582.2 586.9 590.2 593.6 602.8 607.4 612.5 623.5 632 639.6 645.7 657.8 666.9 673.8 677.9 683.9 689.4 692.5 694.9 695.3 699.1 702.2 708.2 711.3 716.3 719.7 722.1 725.2 726.5 728.3 726.6 720 709.3 695.3 681.8 677.2 668.2 665.3 654.8 651.2 647.5 647.3 649.7 655.6 665.4 677.9 693.8 711.1 729.9 742.9 757.4 774.3 785.5 797.4 802.5 804.4 805.9 801.4 793.4 786.1 779.4 771.7 760.5 750.1 740.7 738.9 739.3 739.4 737 734.3 731.1 726.1 718.5 711.7 705.1 698.9 695.4 689.5 687.9 689.5 689 689.4 691.8 696 702.5 708.5 714.6 722.7 732.2 741.8 752.8 761.4 766.8 770 779.9 779.1 771.1 749.1 729 716.1 713.1 704.6 689.8 674.9 660.2 654.5 649.4 648 645.2 643.2 641.3 632.7 618 597.2 577.6 551.4 538.5 530 505.5 515.8 537.7 556.7 567.1 582.6 605 621.8 638.8 662.1 676.3 678.3 667.1 657.3 651.3 642.8 636 620.6 604 589.1
361.5 361.9 364.5 368.5 370.6 374.1 379.8 386.1 389.7 396.9 399.7 410 414.5 427.2 436.1 447.3 460.7 469.5 478.1 484.9 490.9 489.9 483.4 481.9 484.2 482.1 478.9 480.2 483.3 484.3 489.9 494.6 498.8 504 506.9 502.7 503.6 503.9 505.8 508 511.7 517.5 519.1 514.3 520 524.3 531.5 538.5 541.8 545.3 551 551.9 558.6 558.8 560.2 564.6 568.3 571.1 571.6 575.2 580.3 580.7 586.8 590.6 593.9 599.7 610.2 614.1 621 629.6 636.5 647 654.8 659.9 668 674.5 682 683.4 686.9 694.5 700.3 703.7 705.3 712.1 718 721.7 727.6 732.3 735.5 739.2 740.5 743 742.8 736 722.6 704.7 694.3 689.5 680.5 673 662.8 660.6 654.7 655.8 656.5 658.1 666 678.3 695.2 712 728.7 741.8 753.6 765.8 777.8 788.8 794.3 795.6 795.4 791.4 787.9 784.4 777 765.6 755.3 745.2 736.5 738.9 736.6 737.2 736.7 734.2 731.7 725.7 716.6 710.9 703.6 697.1 691.9 685 685.2 685.6 685.2 686 688.4 693 697.3 705.7 710.8 720.9 731.3 739.9 751.1 759 768.8 774.2 782.6 786.4 768.5 750.6 726 710.7 709.7 702.9 687.5 671.7 658.9 645 638.8 631.4 629.4 625.5 625.9 622.6 596.8 583.5 551.4 532.8 523.4 502.3 499.4 519.2 540.7 557.2 563.5 569.3 587.2 601.1 618.5 638.3 651.9 649.3 636.5 629.9 625.4 622.3 618.7 601.3 586.6 571.9
361.7 364.2 368.8 375.8 377.3 382.4 387.1 393.1 401.3 406 415.8 416.5 424.8 435.6 446.8 460.4 472.6 484.9 493.8 503.1 504.8 508.3 494.5 495.3 492.8 491 484.4 485.6 487.7 490.6 498.6 502.2 502.6 505.9 506.1 509.2 509.5 508.8 511.1 514.5 518.6 521.9 523.5 523.3 524.5 532.4 536.5 546.1 546.1 548.9 554.1 554.2 559.7 563.3 566.3 567.7 573.3 574.1 576.2 582.3 586.6 587.3 590.5 595 600.9 608.5 612.8 618.5 627.4 631.6 640.1 650.5 655.7 663.5 670.9 676.6 682.9 688.4 692.8 697.7 704.2 708.3 715.5 720.5 726.3 731.8 738.2 742.1 747.1 751.1 752.2 752.6 753.5 746.5 737.2 722.4 705.5 699.7 690.6 685.5 681.6 676 674.1 668.6 664 665 669.4 681.7 696.9 712.5 727.4 739.6 749 760.2 769.2 777.4 780.9 786 788.5 784.8 783 777.6 769 758.6 748.1 740.8 734.5 731.5 732 733.1 732 731.3 727.9 722.1 714.9 707.9 702.1 694.2 688.5 678.4 680.3 680.9 680.4 678.7 684 687.8 695.1 702.6 710.1 718.9 730.8 741.5 749.5 760 768.6 775.9 783.6 776.6 766.1 743.8 726.5 711.5 703.9 695.7 681.6 667.1 655.7 641.4 627.6 618.7 613.5 609.5 609.4 602.1 574.4 552.8 531.3 519.3 508.5 490.8 497.4 520.4 540.2 556.4 550.7 551.1 563.4 582.4 599.2 615.2 619 616.5 606.7 600.7 601.4 602 596.9 583.9 577.8 567.9
366 368.5 372.3 381 385.8 396 397.3 404.6 411.6 417.7 423 424.6 436.7 445.6 461.3 471.7 484.9 494.7 505 515.7 509.5 510.1 498.1 497.2 498.7 496.2 493.4 491.5 494.9 500.1 503.8 507.4 511.2 511.3 511.6 513 511.4 515 516.6 521 523.9 526.5 523.9 529.4 529.7 535.2 540.8 549.1 553.2 554.8 559.1 559.9 563.9 567.9 573.6 575.8 579.1 581.3 581.4 583.8 587.3 591.1 591.8 596.7 605.1 610.5 614.1 621.8 628.4 639.2 639 646.5 654.1 661.6 666.4 672.3 679.5 686.5 694.9 699.5 706.8 713.7 720.1 726.4 734.9 742.5 748.6 754.9 757.2 761.5 763.5 765.7 765.5 757.9 748.5 730.5 715.9 710.9 702.2 701.4 699 691.5 687.9 682.8 679.3 674.7 678.6 687.2 698.9 712.5 724.9 736.4 745.8 754.7 763.3 770.7 775.8 778.9 779.5 780.5 778.1 770.7 760.5 751.8 743.4 736 730.7 727.9 727.1 724.7 727.3 726.2 722.9 717.1 711.2 703.2 697.8 690.2 682.5 669 675.3 673.7 672.5 670.7 680.2 685.8 691.8 697.7 708.6 719.4 729.5 740.5 748.8 757.5 767 772.8 779.9 772.9 759.4 742.1 727.1 710.7 701.7 686.5 675.6 664.6 651.7 635.5 620.1 605.9 596.3 593.1 586 576.5 557.9 532.5 514.9 506.7 498.6 481.2 496.4 519.3 533.8 532.9 531.6 533.9 541.6 559.3 574.5 590.2 588.6 582 579 579.8 577 578.9 568.7 564.5 562.3 544.7
373.4 373.1 378.5 385.2 391.2 401.3 409.7 416.4 421 424.5 434.1 443.7 444.8 461.5 473 481.2 491.7 505.6 512.2 515.9 513.2 510.5 499.7 504 502 499.4 502.2 499 504.3 508.7 509.7 512.7 516 515.6 516.6 517.4 515.2 521.4 523 525.9 529.3 530.1 528.9 535.8 535.8 541.5 547.3 552.8 557 560.7 565.6 564.9 568.1 574.8 577.3 582.7 584 583.1 585.4 588.5 592.2 594.1 597.2 599.8 609.7 617.7 621.5 626.5 634.5 637.6 644 647.7 654.5 659.2 666.3 672.1 677.6 684.4 695.3 702.5 709.4 717.2 724.1 732.3 742.4 752.4 759.8 767.6 770.9 772.4 776.4 778.7 774.1 766.8 751.9 734.4 725.5 723.8 715.8 717.4 711.2 701.9 701.3 694.6 689.8 688.2 682.1 688.8 700 711.4 722.9 733.7 742 750.4 757.9 763.4 769.3 773.3 776 777 775.3 770.2 764.7 757.5 751.3 741.8 733.9 727.9 723.1 719.7 720.1 720.4 717 712.1 706.7 698.7 692 684 675.4 661.3 666.9 665.2 664.5 669.6 674.8 681.1 686.9 694.7 706.3 719.3 730.6 738.8 747.1 756.1 766.4 770.9 773 766.2 755.1 742.4 726.7 710.7 701.9 683.2 670.6 658.6 645.5 629.3 612.5 595.1 587.3 575.6 564.2 555.6 536.8 510.6 503.3 497.1 486.5 479.8 493.1 507.3 520.9 514.8 518.3 518.1 523.4 535.5 548.5 558.5 554.8 552.5 552.9 553.6 551.5 553.5 548.4 548.8 546.8 546.2
374.9 378.9 383.3 390.3 398.1 405.9 413.8 419.9 423.5 433.6 444.7 446.8 456.5 470.5 482.2 491.5 499.5 507.4 513.9 516.5 513.3 512.3 504 506.7 506.9 506.3 506.5 504.7 506.5 510.9 516 516.7 517.9 518.5 518.9 518.8 520.8 526.1 529.8 532.3 535.3 536.2 533.7 534.5 539.6 544.2 549.4 556.1 559.9 564.3 567.7 570.6 572.9 582.7 584.2 587.3 590.2 589.6 592.7 596.5 597.9 604.4 600.5 608.7 614.3 618.6 623.1 626.8 633.2 639.1 646.5 653.9 653.1 657.9 664.1 671.5 678.7 685.3 694 704.2 712.5 720.1 728.3 737.5 747.1 759.1 768.3 774 779.6 774.7 776.6 776.8 768.4 759.8 748.1 738.1 735.2 729.9 725.3 722.2 715.5 710.3 708.9 702.5 697.3 694.9 691.5 693.5 705.1 712.3 722.1 731.1 740.1 747.7 755.1 761.5 765.6 770 773.1 775.6 776.3 773.7 769.1 765.2 758.2 748.3 737.9 728.6 721.9 718.3 707.8 712.7 711 707.4 702.3 695.9 686.9 677.5 664.9 652.2 656.3 657.3 652.9 663.5 669.8 675.6 680.4 692.7 706 718 731.9 741.7 744.1 751.8 763.5 771.1 763.6 755.9 751.5 741.5 724.1 711 702 679.7 668.8 654.6 639.5 626.9 604.5 587.3 577.5 563.5 533.5 527 511.8 492.9 492 488.1 481 474.5 485.4 490 492.4 499.6 500.7 502 508.9 515 520.7 528.3 527 527.7 529.5 530.6 533.3 530.9 535.8 532.1 528.8 516.3
377.7 385.3 390.6 396.5 402.3 412.4 419.6 423.7 430.1 438.8 449.8 458 467.6 478 492.2 503 507.6 511.6 517.4 518.4 514 512.4 509.3 511.6 512.1 511.7 513.7 512.5 511.4 516.8 518 520.8 521.9 522.8 524.2 523.2 528.1 533.1 537.9 538.5 542.2 541.8 541.7 543.4 542.7 552.2 557.3 560.8 562.2 566.8 570.5 579.6 577.8 584.9 589.5 594.9 595 598.5 602.5 604.1 604.7 606.2 606.2 613 616.7 619.7 626.9 632.7 636.4 642.1 646.2 650.9 654 659.1 666.2 674.4 686.6 694.6 701.5 708.2 715.8 722 731.8 743.1 754.2 761.7 768.9 768.8 770.6 772.2 774.5 771.5 764.6 754.7 745.4 739.7 736.9 731.1 726.2 723.9 720.1 715 712.1 706.9 703.8 701 696.6 699 707.8 712.9 719.3 728.5 735.9 744.6 752 757.9 763.2 767.1 769.7 772.9 776.1 777.3 775.7 771.1 763.1 756.1 743.1 730.6 721.5 716.6 708.1 702.2 702.2 699.2 696.3 690.3 680.4 667.5 654.4 647 646.3 644.7 652 656.1 661.2 667.6 677.7 688.6 702 715 730.2 736.1 739.6 748.8 760.1 771.3 767.2 753.7 747.8 738.8 721 708.1 698.9 679.4 662.6 652.9 639.7 628.9 611.3 576.6 563.4 545.4 525.5 498.1 489.1 487.7 481.2 476.4 469.7 466.1 471.3 477.4 480 478.4 480 484 489.8 492.5 497.2 499.1 502.7 504.8 507.6 510.7 510.1 511.5 513.4 513 510.2 501.9
384.4 390.6 398.6 404.5 410.6 417.9 427.1 430.9 436.4 445.7 457.7 467 476.8 487.1 498.5 506.9 511.7 518.1 520.4 518.6 518.6 513 513.7 517 516.8 515 519.2 517.9 517.8 521.1 526.1 523.4 524 525.4 527.8 529.1 535.4 539.2 544.1 547.7 547.9 546.1 547.2 551.7 551.9 557.1 563 564.7 565 570.4 572.9 579.9 584.6 587.9 595 597.4 603.6 607 609 609.4 610.2 608.4 609.1 614.2 617.4 622.7 630.4 633.4 637.7 638.9 646.1 653.2 656.7 661.2 669 677.1 683.9 697.6 706.6 711.1 722.1 732 736.7 747 754.7 758.8 764 764.5 763.4 765.3 768.2 765.2 758 751.2 743.1 737.2 735 730.5 725.8 724.1 722.4 718.8 712.3 711.4 707.7 704.8 700.6 698.2 706.1 711 717.5 724.3 731.1 740.5 747.1 753.2 759.5 763.2 767.3 770.7 773.9 777.4 780.6 773.7 765.4 760.4 747.3 735.2 724.9 716.3 707.1 698.7 692 690.1 686.2 681.9 669 658.7 651.3 636.4 638.3 633 645 649.5 652.5 662.3 671.4 685.9 695.8 709.6 721.9 727.5 733 744.6 753.5 762.6 760.9 751.4 751 750.6 714.4 700.1 683.1 667.6 657.4 643.5 630.3 605.1 590.2 556 545.2 525.7 501.8 482.3 469.4 473 467.7 463.1 465.4 456.6 459.5 464.7 463.3 461.4 464.9 469.1 471 473.5 474.8 478.1 480.7 484.3 488.8 490.5 491.3 492.5 493.9 493.1 492.7 487.4
394 401.7 404.5 411.3 417.8 426.7 437.9 438.9 445.4 452.5 465.9 475.2 485.7 498.8 508.5 513.5 518.3 522.3 522.8 523.8 522 518.2 519.2 522.7 519.5 522.3 521.5 523.8 520.8 525.5 529.6 528.2 528.1 534.7 531.9 535.1 538 544.5 547.1 550.9 550.5 551.9 555.9 556.8 556.5 557.1 566.2 568.6 569.7 571.5 577 585.6 588.9 594.9 598.9 604.2 607.7 614.7 618.2 615.8 614.3 615.2 618.5 621.4 621.1 626.4 634.2 633 638.8 644.8 649.1 653.2 655.5 662.8 671.2 682.3 688.2 698.9 710.2 715.5 723.6 734.9 740.3 744.7 751.8 757.8 757 759 757.6 759.7 759.7 759.4 753.6 746.9 739.7 735.4 733 731.2 726.2 724.5 720.3 715.7 713.5 710.4 706.9 703.3 696.9 698.5 703.5 709.4 711.9 718.6 726.3 735 741.7 748.6 753.1 757.6 762.6 767.3 771.5 774.7 777.3 772.6 767.1 759.4 749.2 740.2 730.7 720.5 711.5 699.8 686.8 675.7 671.7 668.1 658.1 651.2 643.7 630.7 626.2 629.1 635.5 635.2 644.5 654.4 667.4 681.2 693.5 702.7 711.3 719.9 725.2 733.6 743.7 753.4 750.4 749.2 748.6 743.4 718.4 690.1 661 645.6 635.4 616.8 595.3 577 551.9 539.5 524.2 507.5 481.6 469.4 464.7 462 456.3 457.3 453.7 450.9 450.4 452.7 447.3 446.6 450.9 455.1 458.2 459.2 459.1 459.4 463.1 465.6 469.1 473.6 473.5 473.5 474.6 474.4 475.4 477.1
401.2 404.5 407.8 417.2 430.1 433.4 441.9 446.6 457.1 467.4 477 483.7 496.2 509.6 518 519.7 523.2 525.3 526 528.7 527.8 523.4 526.3 526.1 525.2 528 526.6 529.6 525 530 532.9 532.6 536.6 542.1 542.4 543.3 546.1 547.5 550 553.4 556.2 555 558.9 558 559.8 562.2 568.6 572.6 575.8 576.2 582.8 588.5 596.2 600.3 601.3 605.7 612.9 617.4 619.1 620.3 621.2 621.1 618.6 622.7 621.1 625.6 632.2 635.5 640.5 644.2 647.4 652.1 656.9 664.2 675.7 686.2 696.3 705.2 716.1 720 726.8 737.1 738.8 742.7 748.3 751.9 751.3 752.9 751.9 752 752.7 751.1 745.7 742 738.7 734.4 732 730.2 725.1 721.8 717.4 713.5 710 705.4 702.8 697.5 694.8 695.7 700.4 703.1 706.6 712.1 719.4 727.7 734.3 737.7 747.2 753.2 756.4 761.5 767 770.2 773.3 773.7 770.2 761.6 751.7 745 738.7 727.5 716.1 704.4 691.9 680.7 666.5 641.1 644.3 642.6 635.6 627.5 619.3 619 621.1 628.3 632.9 644.9 657.4 671.2 684.4 690.4 700.8 711.6 717.8 727.6 736.6 742.4 739.1 738.8 738.8 716.5 702.7 664 638.4 617.1 603.3 583.6 562.8 548.9 531 515.7 505.5 488.7 469.7 459 456.7 453 452.5 453.6 448.7 444.4 443.9 442.7 436.6 429 433.8 442.4 446.7 448.1 449.5 447.3 447.2 448.9 452.6 456.9 459.5 459.3 458.5 458.6 459.6 469.5
407.5 411.1 414.7 423.6 435.8 445.1 450.2 455.5 465.8 478.3 485.9 496.3 508.6 519.4 523.8 528.4 528.9 529.4 532.3 534.4 534.4 528.5 532.6 531.1 532.3 530.3 532.7 532.6 531.3 532.3 533.7 538.4 542.8 549.8 551.8 549.8 554.2 552.2 555.2 558.7 557.8 562.7 564.1 560.5 568.9 569.4 569.3 578.2 581.9 583.1 588.4 595.1 598.8 605.8 608.1 612.8 612.7 618 619.6 621.7 624.2 628.4 623.1 621.1 623.1 624.6 630.3 635.1 639.7 645.2 648.1 652 658.9 673.6 683.1 693.1 700.1 707.4 716.1 721 728.2 734.7 738.3 740.8 743.2 743.3 745.6 745.4 747.1 746.4 745.1 742.5 742.3 738.9 735.5 732 729.4 724.4 722 717.1 713.2 708.6 703.5 696.8 694.1 687.3 687.6 687 693.1 694.2 698 704.7 710.2 716.4 723.2 733.1 741 748.2 752.9 758.8 763.7 767.1 770.9 773.9 774.7 768.9 758.1 753.4 746.6 736.7 723.7 709.6 695.2 681.5 669.7 654.3 632.4 629.7 621.5 616.7 614.5 610 611.4 616 623 633.6 643.6 658.8 672 682.3 688.4 698 711 719.8 728.1 727.8 727.8 721.6 697.9 689.7 680 643 607.5 589.7 566.9 547.1 529.9 516 503.7 491.9 486.8 469.9 453.4 448.8 448.4 443.6 445.6 448.9 443.1 438 437.2 430.5 428.2 428.2 428.2 428.2 432.4 439.8 440.1 437.3 432 432.8 438.4 442.3 445.1 445.3 445.8 446.5 450.6 454.9
409.9 417.2 420.7 432.1 439.9 450.6 457.5 467.1 474.1 487.3 497 509.4 528 530.3 533.5 534.8 536.4 535.9 538.3 541.3 539.6 535.7 537.5 535.5 533.9 535.9 535.1 535.9 536.2 532.7 538 542.4 551 555.3 553.9 556.1 558.7 558.3 560.4 562.6 565.8 569.9 573.2 567.9 571.8 576 577.9 577.5 581.8 586.6 593.3 598.3 605.1 609.8 613.3 615.6 617.8 623.4 623 626.4 630.5 632.5 627.7 626 625.7 627.5 631.3 636.4 639.5 644.8 649 656.6 663.9 680.7 691 698.8 704.9 710.5 716.1 723.8 729.5 729 731.8 734.3 734.9 736.4 737.1 738.3 738 738.6 739.5 738 736.3 732.3 728.4 725.7 722.1 718.9 712.7 709.1 706.3 701.2 694 685.7 685.8 680.5 678.1 675.6 677.5 680.4 686.7 690.4 691.7 698.9 716.3 726.9 736.2 745.4 751.9 756.9 760.4 763.9 768.4 773.1 775.7 774.1 768.2 762.1 756.3 747.4 734.9 718.2 700.6 685.1 671 658.2 641.2 624.8 615.9 608.4 603.8 602.4 605.3 603.1 607.8 618.5 627.6 641.6 655 667.9 679 689.2 699.5 710.5 717.4 718.2 711.7 691.6 670.7 666.7 644.9 618.9 578.5 560.1 542 518.2 500.6 490 480.6 472.6 462.2 451 440.2 437.5 436.4 435.4 439.5 438.2 435 428.2 428.2 428.2 428.2 428.2 428.2 428.2 428.2 428.2 428.2 428.2 428.2 428.2 428.2 428.2 428.2 432.9 433.2 440.1 442 446.3
412.9 421.1 430.8 444 448.6 458.9 463.3 472.6 484 499.4 508.2 521.6 538.2 540.2 547 547.9 544.2 544.5 546.1 547.9 544.7 540.9 542.3 540.3 539 542 541.1 539.5 542.3 535.5 540.1 546.9 556.6 555.8 557.6 561 562.1 561.9 566.8 567.9 570.6 576.4 577.7 577.6 577.8 580.8 582.6 579.7 583.8 588.8 598.1 602.8 610 612.3 615.1 619.6 623.3 624.5 627.9 629.8 632.7 633.3 632.4 631.6 630.1 629.9 633.3 639.5 643.4 646.1 650.6 660.2 667.8 683.5 697 701.6 706.7 712.2 716.5 721.1 723.8 724.6 725.7 727.2 728.7 729.5 727.9 726.6 726.7 727.8 729.3 728.4 726.1 722.8 718.6 716.6 711.2 704.4 698 693.3 689.6 692.7 684.6 675.7 672.7 669 665 649.5 656.4 658.7 665.5 667.1 669.8 702.9 714.6 722 731.2 741.1 747.6 751 755.1 757.4 759.9 765.2 768.4 767.3 772.4 772 767.2 757.2 744.3 730 710.5 689.9 675.8 657.7 641.5 628.7 617.8 608.1 601.7 595.3 593.9 587.7 590.1 602.1 612.4 622.1 637.2 653.4 666.7 675.8 683.7 692.6 702.9 701.9 667.7 653 643.8 634.4 612.7 587 547.9 527 513.4 489 475.8 473.1 461.4 451.4 445.3 434.7 428.2 428.2 428.2 428.2 428.2 428.2 428.2 428.2 428.2 428.2 428.2 428.2 428.2 428.2 428.2 428.2 428.2 428.2 428.2 428.2 428.2 428.2 428.2 428.2 428.2 430 431.5 436
417.1 425.1 432.2 443.1 452.6 466.2 475.4 486.9 504 513.3 525.2 535.1 547.2 552.7 558.5 557.5 554.8 553 552.9 552.8 550.6 546.4 547.6 545.8 543.2 546.9 544.1 543.9 546.8 539.9 543.3 552.4 561.5 565 562.6 565.9 567.1 569.4 572.4 575.3 577.2 582.4 582.3 579 583.3 584.8 586.4 583 585.9 592 600.6 609.9 615.7 615.3 619.1 624.5 627.2 627 629 631.5 632.6 634.4 632.7 634.6 635.7 635.9 634.9 640.9 645.4 648.7 657.5 667.1 679.5 692 697.3 704.7 708.8 712.1 715.7 716.3 717.7 718.5 719 720 719.9 718.4 714.3 711 709.4 710.9 712.8 712.3 709.2 704 697.9 696 692.9 682.3 675.9 671.9 669.4 673.2 666.8 659.2 651.4 648.9 643 628 634.1 633.1 635.7 650.3 677.3 695 705.5 715.9 725 734.9 738.4 740 738.9 739.8 742.2 739.4 735.7 740.2 769.6 777.4 776.1 768.5 755.1 737.7 716.7 697.9 679.7 662.3 646.1 630.7 621.7 612.6 604.5 597 594.7 580.9 570.2 588.7 595.4 603 613.1 627.7 641.4 644.8 655.2 665 673.8 665.9 634.8 625.2 619.2 606.6 575.3 556.9 525.2 500.5 479.7 462.3 456.5 448.2 442.6 440.1 432.4 428.2 428.2 428.2 428.2 428.2 428.2 428.2 428.2 428.2 428.2 428.2 428.2 428.2 428.2 428.2 428.2 428.2 428.2 428.2 428.2 428.2 428.2 428.2 428.2 428.2 428.2 428.2 428.2 428.2
420 429.6 440.5 449.9 460.7 475.4 483.3 496.2 509.6 524.2 540.2 546.5 559.4 563.8 566.7 566.7 565.5 562.3 561 561.8 555.8 553.6 554.3 553.4 548.6 551.6 547.3 547.7 550.4 542.5 548.6 556.2 564.1 565.2 567.2 571.3 574.2 577.1 581.5 584 584.8 585.1 585.5 583.2 589.3 589 588.4 588.1 590.2 598 606.1 613.5 616.8 618.1 625.3 629.9 631.8 629.5 630.7 632.9 634.5 639.5 636.3 639.7 640.7 640.3 638.2 639.5 646.6 654.5 661.6 673.3 687.2 694.6 702.3 707.8 710.3 712.6 711.7 713.5 713.7 714.2 713.2 711.1 708.7 704.8 700.5 694.5 688 688.8 692.2 689.2 678.8 674.1 665.9 660.5 658.7 651.8 644.9 642.3 640.6 640.9 640.2 638.4 628.7 624.9 616.9 609.4 610.7 611 638 650.8 667.4 680.5 688.7 694.8 705.1 711.6 716.4 711.5 703.9 704.6 703.7 699.8 702.1 737.4 764.7 774.2 776.5 769.6 759.7 743.5 725 705.1 685.9 671.8 653.3 639.8 628 618.7 610.1 601.2 595.5 584.5 571.2 562.1 579.6 585.1 591.5 599.7 608.2 615.3 621.2 626.2 621.9 610.1 607.3 602.4 594.4 572.3 554.3 525.9 495.3 473.3 456.4 445.3 441.6 434 428.2 428.2 428.2 428.2 428.2 428.2 428.2 428.2 428.2 428.2 428.2 428.2 428.2 428.2 428.2 428.2 428.2 428.2 428.2 428.2 428.2 428.2 428.2 428.2 428.2 428.2 428.2 428.2 428.2 428.2 428.2 428.2
428.4 439.7 449.6 458.9 470.9 485.1 499.1 508.8 524.6 540.5 550.1 559.2 569 576.5 578.3 579.1 578 572.7 569.8 566.4 565.4 560.7 562.4 555.4 556.7 555.7 554 552.5 555 547.4 554.4 559 566.9 569.4 572 576.8 578.3 583.9 590.4 590.8 595 590.7 588.6 588.5 593.5 594.8 591.5 594.2 596.5 602.6 608 616.6 619.5 625.1 631 634.3 632.4 630.1 632.5 636.5 637.7 642.4 642.7 641.5 641.7 642.1 641 642.7 648.5 656.4 664.7 677.7 687.1 694.9 698.2 705.5 709.2 710.9 709.8 710.1 708.4 707.6 704.8 699.6 694.9 689 681.8 671.9 664.2 663.7 662.4 654.1 643.9 635.7 627.9 620.7 618.5 614.7 608.8 607.5 606.8 610.4 614.4 613.4 608.4 602.5 586.5 584.4 604.5 620.5 627.4 633.2 640.4 653.9 658.7 661.3 671.6 673.9 681.5 681.2 672.1 668.5 668.9 668.9 697.5 729.5 750.8 762.6 766.7 761 748.9 744.9 731.7 716.7 700.2 683.8 664.9 653.2 639.1 627.4 615.8 607.6 599.2 587.3 576.6 558.9 561.5 572 573.7 578.1 580.4 583.2 587.6 587.3 585.3 581.7 579.3 573.3 565.5 548.2 524.1 504.1 465 454.6 441.7 432.3 428.6 428.2 428.2 428.2 428.2 428.2 428.2 428.2 428.2 428.2 428.2 428.2 428.2 428.2 428.2 428.2 428.2 428.2 428.2 428.2 428.2 428.2 428.2 428.2 428.2 428.2 428.2 428.2 428.2 428.2 428.2 428.2 428.2 428.2
438.7 450 456.9 468 483.8 498.6 508.4 520.4 538.5 549 562.4 572.1 582.8 588.8 591.5 590.5 589.2 586.1 580.1 572.6 570.4 567.3 565.8 564.6 561.9 562.3 560.9 554.5 554.5 552.7 557.8 564.8 566.1 573.3 578.4 580.8 583 589.1 591.5 592.5 595 594.2 591.9 595.1 597.9 597.3 597.8 596.8 602.6 608 614.9 620.6 623.4 630.8 634.9 636.2 632.4 637 639.9 639 641.9 645.6 646.9 646.8 645.8 643.1 643.3 645.5 650.8 657.5 665.5 675.7 687 694.8 699.3 704.3 706.9 708.1 705.8 705.4 702.3 699.3 694.1 685.3 677.2 667.1 653.4 642.2 632.1 630.1 624.2 614.6 606.7 600.6 593.6 586.6 584.3 580.1 574.2 574.6 575.3 578.7 582.8 584 580.8 571 561.1 576.5 588.7 596.3 597.9 599 603 616.2 621.1 621.2 630.9 640.3 642.6 641.9 633.7 633.3 639 649.2 685.4 712.5 732.2 740.8 741.2 737.1 734.1 732.5 734.5 726.3 715.6 699.7 684.1 674.4 655.6 641.7 626.7 613.5 599.7 587 576.1 561.1 553.1 557.1 559.9 559.9 560.3 561.3 559.7 560.7 560.2 555.6 553.8 549.9 538 524.1 505.3 473.2 445.3 439.7 429.6 428.2 428.2 428.2 428.2 428.2 428.2 428.2 428.2 428.2 428.2 428.2 428.2 428.2 428.2 428.2 428.2 428.2 428.2 428.2 428.2 428.2 428.2 428.2 428.2 428.2 428.2 428.2 428.2 428.2 428.2 428.2 428.2 428.2 428.2 428.2
446.1 455.6 470 479.3 495.3 508 521 533.7 552.4 561.5 575.9 586.1 594.5 601.4 604.4 604 602.8 597.5 592.8 585.2 580 574.3 570.9 569 566 564.6 563.9 564.6 554.9 557.5 562 570.3 572.6 576.1 584.8 588.7 587.3 589.1 593.7 596.6 598.3 597.9 600.3 602 601.8 602 601.1 603.9 609.2 615 618.4 624.8 629.8 632.1 636 635.6 638 640.1 638.7 638.9 643.4 647.2 650.8 652.3 651.7 649.5 648 647.1 652.1 657.7 665.1 675.7 685.6 691 697.9 702.9 706.1 704.7 700.9 698.7 692.9 688.2 679.6 662.8 650 636.4 620.7 609.2 601.8 594.5 591.6 581 573.6 569 562.1 556.7 552.2 547.8 544.6 544.1 544.8 547.4 551.1 553.1 550.2 549.8 545.6 549.8 555.5 559.1 561.4 565.8 567.4 578.8 584.6 584.2 594.9 602.3 605.3 604.5 599.6 605.7 600.4 642.9 667.4 688.3 703.3 711 709.6 713.4 718.8 716.4 714.2 711.8 707.6 710.5 699.3 689.8 677.9 666.3 640.7 631.1 598.1 585.7 574 563 549.5 539.7 543.1 545.3 544.5 541.4 540.7 537.9 535.5 534 531.2 521.3 519.9 504.6 484.1 451 436.3 428.2 428.2 428.2 428.2 428.2 428.2 428.2 428.2 428.2 428.2 428.2 428.2 428.2 428.2 428.2 428.2 428.2 428.2 428.2 428.2 428.2 428.2 428.2 428.2 428.2 428.2 428.2 428.2 428.2 428.2 428.2 428.2 428.2 428.2 428.2 428.2 428.2
453.5 466.6 477.6 492 504.7 516.8 531 547.8 561.2 577.1 590.3 600.1 608.5 613.2 616.3 616.3 614.8 608.9 601.1 595.1 588.6 581.3 577.4 572.6 571.8 570.9 567.1 565.5 561.7 564.4 565.4 571.5 578.2 578.2 585.4 589.2 592.8 597 601.3 600.5 600.5 601.5 604.2 605.7 605.3 605.1 605.5 609.2 612.2 614.7 618.1 626.1 631.3 634 637.6 636.9 636.3 640.1 639.6 645.2 650.8 655.3 656.8 657.1 655.6 654.7 652.4 649.7 652.9 659 665.9 672.2 682.4 687.1 692.7 697.4 699.2 698.1 695.5 688.2 681.1 671.4 657.3 640.9 619.1 606.8 596 585.4 575.1 564.1 558.2 554 545.1 538 532.1 526.4 523.8 519.9 518.9 517.1 517.2 518.1 519.4 523.1 519.9 521 517.3 522.8 523.4 524.8 528.6 531.8 536.6 545.1 550.5 551.3 560 566.7 569.6 569.4 572.3 569.3 600.5 621.4 642 659.4 672.5 677.5 686 690.5 698.9 698.2 698 698 697.7 711.7 712.9 703.7 693.5 677.9 652.8 637.5 602.6 588.6 574.3 565.2 551.6 539.2 529.1 526.7 530.4 526.6 524.2 522 517.8 513.1 506.8 503.5 501.3 484.9 465.6 438.8 428.2 428.2 428.2 428.2 428.2 428.2 428.2 428.2 428.2 428.2 428.2 428.2 428.2 428.2 428.2 428.2 428.2 428.2 428.2 428.2 428.2 428.2 428.2 428.2 428.2 428.2 428.2 428.2 428.2 428.2 428.2 428.2 428.2 428.2 428.2 428.2 428.2 428.2
456.6 472.1 483.5 496.3 513.5 527.3 542.6 558.8 577.2 594.3 606.3 613 620.2 623.3 627.7 628 626.5 619.2 611.8 605.6 598 590.6 584.8 577.1 578.4 574.5 570.9 566.8 566.7 566.1 567.2 573.4 579.6 584.2 587.2 591.2 596.1 601 603.5 603.2 606.3 604.6 610.2 611.1 610.1 610.4 610.5 610.8 615.7 616.2 620.2 624.1 629.1 633.9 639.3 636.7 637.3 640 645.9 654.8 658.6 660.7 662 660.6 657.3 655.1 652.7 651.6 651.1 655.5 662.7 671.3 677.1 681.3 686.5 689 691.3 689 684 673.3 660.7 644.8 626.8 611.6 596.5 578.8 567.2 555.7 546 538 529.6 525.4 517.1 512.4 504.9 500.4 500.3 496.4 497.8 497.8 497.9 492.9 493.1 493.1 493.1 491.9 489.5 493.3 495.3 495.5 498.9 502.1 506.8 512.3 518.2 520.5 527.1 536.1 538.8 539.9 543.9 558.3 576.9 594.8 613.2 626.6 638.7 649.5 659.6 669.8 675 671.9 673.3 688.6 696.1 707.7 724.6 716.8 696 685.8 665.2 646.1 607.5 581.5 571.8 561.7 549.6 539.3 528.4 518.5 517 514.5 511.3 505.6 503.4 490.7 487.2 485.2 478.5 462.7 449.8 428.2 428.2 428.2 428.2 428.2 428.2 428.2 428.2 428.2 428.2 428.2 428.2 428.2 428.2 428.2 428.2 428.2 428.2 428.2 428.2 428.2 428.2 428.2 428.2 428.2 428.2 428.2 428.2 428.2 428.2 428.2 428.2 428.2 428.2 428.2 428.2 428.2 428.2 428.2
459.5 474.9 489.9 503 521.8 537 558.4 578.4 596.8 608.3 618.2 624.6 632.9 636.7 639 640.2 637 630.8 626.4 617.1 605.6 597.4 590.9 586.2 581.3 578.5 575.6 572.1 573.3 573.1 573.8 573.4 580.6 587.7 593.5 595.2 600.9 604.5 606.2 610.2 609.9 609.4 614.3 618.8 616.2 616.8 614.6 614.9 615.7 618.2 621.7 626.4 630.8 636.5 641.8 640.3 643.5 651 656.8 664.6 667.4 667.5 665.8 661.9 658.5 655.4 652.6 651.1 648.3 650.3 656.4 663.7 670.7 674.8 678 678.2 679.6 675.1 666.2 650.2 632.9 620.9 600.5 592.6 571.7 555.5 541.2 532.1 524.3 517.2 509.9 499.3 498 493.9 487.1 481.2 478.1 477.6 481.5 482.5 478.2 477.5 474.6 472.1 472.4 474.3 475.7 473.4 472.1 472.8 473.8 475.5 480.4 483.6 486.7 493.2 499.6 505.2 512.8 520.3 518.2 536.1 550 567.1 580.1 593.3 602.5 619.7 634.7 641.7 637.7 643.4 647.6 664.1 671.7 685.5 726.5 729 703.3 679.5 668.1 641.4 603.9 581.2 568.1 556.7 547.8 536 524.6 512.8 502.5 499.8 495.2 490.5 482 472 469.5 467.3 460.3 449.7 437.3 428.2 428.2 428.2 428.2 428.2 428.2 428.2 428.2 428.2 428.2 428.2 428.2 428.2 428.2 428.2 428.2 428.2 428.2 428.2 428.2 428.2 428.2 428.2 428.2 428.2 428.2 428.2 428.2 428.2 428.2 428.2 428.2 428.2 428.2 428.2 428.2 428.2 428.2 428.2
461.2 476.3 493.4 508.5 530.8 547.3 573.3 591.2 606.2 619.3 628.5 638 645 649.2 651.4 652.3 648.3 641.9 635.1 624.9 612.8 604.4 595.6 595.4 590.9 584.7 581 577.8 576.2 578.6 578.7 580.1 584.1 588.7 594.1 600.8 603.5 608.7 612.7 614 615 614.8 620.4 622.5 621.9 620.5 621.7 620.9 623.6 623 625.4 628.6 634.2 639.3 643.9 646.9 652.2 660.2 666.3 670.6 671.5 670.4 666.6 666.3 660.7 658 653.8 653.6 646.2 645.5 647.9 653.4 659.1 663.4 666.7 667.4 664.5 656.8 640.8 621.7 611.5 589.5 579.6 565.3 550.5 536.2 527.4 514.6 507.5 500.8 494.2 491.5 485.4 475 467.7 464 462.1 459 459.6 463 460.4 462.6 463.3 458.3 458 458.3 461.8 458.9 453.1 452.4 455.1 456.3 458.4 459 463.5 470.6 475 482.4 489.7 499.2 498.3 507 518.8 531.9 546.4 558.3 571.7 592.3 607.5 612.3 606.1 608.4 621.5 633.4 637.5 671.2 714.2 734.8 708.9 674.2 655.2 625.9 598.7 571.9 563.7 553.1 541.3 527.6 520.2 512.3 496.1 488.1 483.7 479.5 468.6 457.8 462.6 459.4 450.9 443.2 428.2 428.2 428.2 428.2 428.2 428.2 428.2 428.2 428.2 428.2 428.2 428.2 428.2 428.2 437 428.2 428.2 428.2 428.2 428.2 428.2 428.2 428.2 428.2 428.2 428.2 428.2 428.2 428.2 428.2 428.2 428.2 428.2 428.2 428.2 428.2 428.2 428.2 428.2 428.2
466.2 481.5 498.4 516.3 534.4 555.2 578.4 600.7 616.9 629 640.6 650 656.6 660.7 664.2 663.2 659.4 652.1 640.9 633.3 620.2 611.6 602.4 602.6 596.2 591 585 582.1 583.9 586.8 582.7 587.7 592.1 595.8 596.1 601.1 608.1 611.3 614 616.9 617.9 619.6 623.9 628 623.5 623.2 625 626 624.2 626.6 629.1 634.8 638 644.9 650.8 655.9 662.9 668.8 670 672.4 674.8 677.7 677.4 675.4 671.7 668.5 658.2 651.6 645.6 640.7 638 641.6 647.3 649.9 652 651.7 646 636.5 621.7 599.6 585.4 569.5 556.1 545.9 534.4 521.3 512.8 504.3 495.2 488.4 479 476.3 473.9 472.3 473.4 467 465.6 461.8 456.7 454.1 452.3 449.3 451 449.1 448.8 450.1 450 449.3 446.6 440.7 441.1 440.9 439.7 442.2 446 452.6 457 466.7 471.3 479.4 479.8 486.7 491.6 502.1 514.4 527.7 546.9 565.2 575.5 582.3 579 577.1 593.2 599.2 622.1 660.2 685.9 708 698.3 654.4 624.5 604.7 577.1 564.4 552.2 543.6 531.7 517.6 510.5 503.3 492.9 473.6 470.8 469.2 461 453.7 447.6 447.3 443.7 437.2 428.2 428.2 428.2 428.2 428.2 428.2 428.2 428.2 428.2 428.2 428.2 428.2 428.2 434.9 438 438.4 428.2 428.2 428.2 428.2 428.2 428.2 428.2 428.2 428.2 428.2 428.2 428.2 428.2 428.2 428.2 428.2 428.2 428.2 428.2 428.2 428.2 428.2 428.2 428.2
466.7 482.8 505.3 524.9 547.9 569.9 589.4 608.1 624.8 639.9 652.1 662 669.1 673.4 675.4 675 669.1 661.2 648.2 635.9 628.5 616.4 609.9 607.2 602.6 597.2 589.7 588.8 592.6 591.7 588.8 596.3 595.2 602 603 608.7 614.9 617.4 620.2 622.4 624.3 623.4 627.6 630.8 628.7 626.3 626.5 627.9 626.7 628.7 633.6 638.3 643.1 650.4 657.7 663.6 668.7 672.1 676.3 679.6 682 683.9 687.3 684.5 677 668.9 660 651.6 644.6 636.9 629.4 627.1 630 632.6 632.8 629.2 625.2 609.8 597.6 581.6 559.9 552.7 537.4 526.1 511.3 497.9 491.8 490.6 485.7 483.9 482 481.1 478.6 481.9 479.3 483.7 480.4 477 471.7 462.6 456.8 448.8 446.2 443.4 444.7 444.9 443.7 442.6 440.8 436.6 434.1 430.7 428.2 428.2 430.3 437.1 442.4 449.4 454.8 458.9 463.4 469 468.3 475.6 485.9 503.7 515.8 532.6 543.6 550.9 551.5 552.6 564 576.9 616.9 639.9 652.5 667.6 652.3 625.7 594.8 576.4 558.9 547.9 540.6 532.4 517.3 506.1 496.7 490 481.2 466.5 452.3 452.8 446.7 445.9 441.4 437.7 438.5 435 428.2 428.2 428.2 428.2 428.2 428.2 428.2 428.2 428.2 428.2 428.2 428.2 434.7 438.8 440.8 441.7 437.7 428.2 428.2 428.2 428.2 428.2 428.2 428.2 428.2 428.2 428.2 428.2 428.2 428.2 428.2 428.2 428.2 428.2 428.2 428.2 428.2 428.2 428.2 428.2
472.5 493.3 514.6 533.4 558 580.4 601.8 619.5 636.8 650.9 663.1 673.9 681.1 685.2 685.7 683.6 678.7 669.6 656.4 642.9 633.9 625 617.4 611.4 606.3 602.9 595.6 596.2 597.6 597.9 594.6 599.9 599.4 603.6 609.8 611.5 621.9 629.1 628.1 625.2 627.2 626.2 629.1 629.1 632 628.8 627.9 630.3 629.3 631.9 634.8 639.6 649.4 657 662.9 669.3 675 679.1 684.2 688 688.1 687.5 686 682.3 684 670.2 659.9 650.8 640.9 629.9 622.8 614.1 612.2 610.5 613.4 608.6 602.6 592.3 578.2 561.5 548.6 530.2 516.4 507.1 507 511 511.7 502.1 501.8 496.6 494.9 494.9 496.6 499.7 503.7 505.3 501.5 495.5 484.4 477.3 464.2 460.6 450.4 444.4 442.5 439.8 438.6 437.2 436.4 435.8 433.9 429.7 428.2 428.2 428.2 428.2 429.2 434.7 441.3 447 450.4 448.6 450.1 454.4 466.6 479.3 490.8 504.4 515.6 523.8 527.5 533.6 538 563.4 580.2 600.3 617.8 637.8 606 583.6 565 552.9 544.6 534.7 521.3 512.3 501.2 492.4 485.1 477.2 468.6 461.4 451 442 436.9 438.8 439.6 436.3 428.5 428.2 428.2 428.2 428.2 428.2 428.2 428.2 428.2 428.2 428.2 431.7 428.2 438.3 441.7 443.5 445 445.1 441.5 442.6 437.9 438.6 443.6 448.4 446.9 444.2 444.5 436.8 431.7 428.2 429.1 442.4 439.6 438.6 428.5 428.2 428.2 428.2 428.2 428.2 428.2 428.2
480 501.6 522.8 545 569.4 590.9 611 631.1 646.4 659.7 672.4 683.8 691.4 696 694.6 690.5 687.3 678.2 665.5 651.7 642 630.7 624.5 617.8 611.1 605.8 602.7 601.8 604.2 604.2 601.9 606.9 605.7 609.9 614.5 619.3 632.8 636.9 633.8 633.2 632.4 632.1 628.6 628.4 630.4 630.7 632.3 632.9 632.2 634 639.4 646.9 654.7 662.6 668.6 675.9 678.8 684.4 685.3 688.2 686 686.7 684.5 680.5 676.2 664.6 655.4 642.4 633.7 623.6 612.9 601.9 593.8 589 593 589.6 582.5 576.7 565.7 548 531.8 520.4 529.6 532.5 530.1 528.5 523.3 518.1 514.8 511.8 512.3 518 520.1 526.8 530.3 535.4 528.8 518 502.9 493.4 478.7 466 454.3 447.2 441.8 440.3 438.1 437.7 435.1 434.5 433.6 431.7 428.2 428.2 428.2 428.2 428.2 428.2 431.1 437.6 434.4 439 438 436.1 444.5 455.7 472.7 485.9 498 507.1 510.4 518.2 516.7 534.7 555.9 570 586.3 592.6 568 553.7 540.7 532.1 533 515 504.2 493.5 485.6 474.9 470.7 466 460.8 451.8 443.6 439.8 435.3 429.6 432.6 428.2 428.2 428.2 428.2 428.2 428.2 428.2 428.2 428.2 428.2 428.2 428.2 434.8 435.3 445.1 448.2 453.9 454.5 455.7 454 451.8 449.5 459.2 468.4 468.5 469.9 462.8 459.9 458.7 454.6 451.7 446.4 453.1 458.5 458.9 451 447.7 444.5 428.2 428.2 428.2 428.2 428.2
482.7 506.6 526.1 548.7 571.9 595 616.8 634.8 651.9 666.1 679.5 691.5 699.9 702.6 701.3 698.7 694.6 686.6 676.1 661.2 651.7 637 629.4 622.5 618 613.1 608.7 608.5 610.8 612.3 608.5 611.1 614.5 617.4 619.3 625.8 635.1 640.9 644.1 647.8 645.6 645.4 638 633.7 631.4 632.2 634.2 635.5 636.7 639.1 646.7 657.1 662.7 670 676.5 679.8 681.8 687 686.2 683.6 682.2 678.8 676.3 671.3 666.3 653.9 644.4 637.1 623.1 613.1 600.1 590.4 589.3 586.1 581.2 576 572.9 565.7 553.1 542.3 524.2 542 547.8 547 544.2 538.9 535 527.4 528.6 529.8 534.6 541.7 551.8 555.7 560.7 561.8 552 539.5 528.8 513.4 498 484.5 471.2 463 452.3 440.1 437.3 436.9 435.3 434.3 433 430 428.2 428.2 428.2 428.2 428.2 428.2 428.2 428.2 428.2 428.4 428.2 428.2 428.2 436.9 449.8 464.4 477.1 484.7 486.4 500.8 496.7 508.1 523.2 534.9 545.1 548.2 534.5 528.6 518.1 515.9 503.9 492.5 487 477.1 468 462 457.1 456.1 456.2 446.9 440.4 439.2 429.4 428.2 428.2 428.2 428.2 428.2 428.2 428.2 428.2 428.2 428.2 428.2 428.2 434.2 439 441.3 440.7 451.6 459.9 466.8 474.9 476 467.8 470.6 471.1 472.6 483.1 490.9 490.7 485.1 481.2 479.4 478.5 477.1 470.4 468.5 474.8 476.5 471 465.2 462.4 458.1 446 430.9 428.2 437.5
485.9 500.7 525.5 548.1 572.6 599 622 642.3 659.3 674.1 688.4 700.8 708.1 709.9 708.1 704.6 700.2 693.2 685.1 675.8 659.7 644.2 633.4 623.9 623.4 618 614.5 613.7 615.2 615.5 614.5 614.4 616.1 621.4 624.5 633.5 640.3 647.4 653.3 660.5 663.8 660.6 648.8 644.8 640 639.8 637.9 639.2 643.2 647.9 656.5 663.8 668.9 675.5 678.8 682.5 682 683.1 684 679.8 673.9 668.7 663.1 655.7 649.5 640.7 629.1 621.5 610 598.4 600.3 600.3 597.6 592.7 588.4 584.1 578.5 569.2 559.1 541 542.9 556.2 557.7 557.3 554.4 552.1 548.8 549.5 555.2 560.7 564.6 571.4 580.3 585.7 589 585.5 577.8 568.4 553.6 537 522 509.2 494.1 481.4 463.7 445.7 436.9 436.6 435.5 434.4 432.9 431.9 428.2 428.2 428.2 428.2 428.2 428.2 428.2 428.2 428.2 428.2 428.2 428.2 428.2 428.2 429.5 442 448.6 462.5 473.4 480.7 486.8 493.8 496.2 502.7 508.9 508.9 504.6 500.2 496.6 495.3 487.3 477.7 472.8 460.7 456.9 450.4 448.2 449.5 441.6 436.6 435.4 428.2 428.2 428.2 428.2 428.2 428.2 428.2 428.2 428.2 428.2 428.2 428.2 437.4 434.7 428.4 439.7 444.2 448.7 459.1 470.1 480 491.9 501.1 491.4 491 497.7 498.4 501.2 508.1 516.4 516.6 506.4 502.5 503.2 502.7 503.2 491.2 494.6 497.9 495.1 487.9 481.7 475.3 468.3 458.6 449 454
492.7 513.5 535.8 558.2 583.5 605.6 623.7 644.8 666.6 685.6 701 709.7 715.9 717.7 715.1 712.5 707.6 702.1 694.1 683.6 670.3 655.5 634.7 633.2 628.6 622.4 616.8 618.6 620.1 618.7 618 619.2 623.5 625.4 631.9 638.3 646 654 659.6 665.8 670.1 667.3 660.9 658.7 653.8 649.7 647.4 646.9 650.8 655.6 663.1 667.6 673.4 677.2 679 679.9 678.2 676.3 674.6 668.2 661.9 653.3 647.5 639 633.8 626.1 613.2 609 612.9 612.3 607.5 603.1 598.8 596.3 593.2 586.6 582.5 572.5 558.1 545.2 557 565.3 566.4 565.3 565.7 572.8 574.6 578.1 586.8 589.8 596.2 601.8 605.6 608.4 610.8 610 607.1 599.7 581 565 554.4 536.9 521 498.7 474.4 452.5 441.6 438.1 437.6 436.3 434.4 432.8 432.5 428.2 428.2 428.2 428.2 428.2 428.2 428.2 428.2 428.2 428.2 428.2 428.2 428.2 428.2 428.2 436.6 444.6 455.9 453.2 471 474.2 477.5 476.1 479.7 482.6 486.3 476.8 477.7 486.4 472.2 460.5 451.4 444.9 443.8 442.6 442.5 436.1 429.4 428.2 428.2 428.2 428.2 428.2 428.2 428.2 428.2 428.2 428.2 428.2 428.2 428.2 428.2 439.6 444.5 441.5 446.4 452.7 459.3 466.3 477.4 486.8 498.9 509.1 521.8 535.3 521 524.2 529.2 529.9 536.6 542.4 537.4 530.9 527.8 523.4 521.3 517.8 515.8 521.7 520.9 515.5 506.3 496.5 489.7 484.2 473.8 469.4
493.9 517.5 539.3 563.9 579.7 608.1 629 651.6 677.2 697.2 711 719.8 724.7 724.7 723.6 718.6 714.3 708.1 699.7 688.8 676.6 660.3 651 648.4 638.7 629.4 623.5 626 627.7 625.3 625.5 622.5 624.8 630.4 637.2 643.8 651.7 660 663.8 670.8 674.3 674.6 672.3 673 675.9 665.9 656.4 655.3 658 662.7 668.9 672.2 675.9 675.5 677.4 674.6 671.2 668.2 664.2 656 649.4 642.8 632.4 623 625.7 625.2 626 624.8 622.6 619.9 613.9 608.2 603.6 600.2 594.1 589 580.4 570.2 550.3 558.2 569.6 575 577.8 583.1 588.8 594.3 598.4 605.1 613.1 616.7 619.7 624 629.5 632.5 633.2 634.2 634.6 630.3 611.1 598.8 592 574.7 544.8 517.9 485.3 461.3 445.6 440 439.4 438.5 436.5 435.8 428.2 428.2 428.2 428.2 428.2 428.2 428.2 428.2 428.2 428.2 428.2 428.2 428.2 428.2 428.2 428.2 428.2 430.2 441.9 441.6 444.6 449.6 449.4 454.9 460.1 455.9 456.6 458.7 458.2 457.6 448.4 441.6 432.9 429.6 437.9 434.9 428.2 428.2 428.2 428.2 428.2 428.2 429.2 428.2 428.2 428.2 428.2 428.2 428.2 428.2 438.1 439.3 444 444.1 448 449.6 449.3 456.9 466.7 473.7 484.1 493.1 503 518.3 538.5 566.5 581 558.1 550.8 555.4 560.1 564.2 569 563.7 565.6 565.3 551.5 544.9 537.8 548.4 546.8 545.1 546.4 522.7 516.9 507.2 498.7 490.4
497.4 517.8 539.9 565.2 589.1 613.6 633.3 660.8 688 708.5 720.1 728.9 733 733.1 731.7 726 719.2 711.9 702.1 690.7 681 667.8 661.4 659.8 645.4 639.8 632.1 631.2 633 634 631.7 626.9 633.1 633.1 640.1 647.7 655.4 662.9 669.9 675.3 679.9 682.2 682.9 690 686.4 674 665.7 667.9 672.1 676.9 675.3 677.6 676.3 673.7 670.9 665.8 662.2 657.8 653.1 647.9 639.6 639.9 637.5 636.9 638.2 637.3 634.9 633.4 629.6 626.4 621.2 616.5 610.9 601.4 592.2 581 569.2 568.8 572 582.2 583.7 589 596.8 602.7 607.7 613.7 620.6 625.7 629.6 635.7 643.2 647.8 650.6 653.8 660.3 663.4 661.5 657.2 644.1 636 619.2 604.7 564.3 528 496.2 472.1 456.3 442.6 441.2 439.2 437 434.7 430.5 428.2 428.2 428.2 428.2 428.2 428.2 428.2 428.2 428.2 428.2 428.2 428.2 428.2 428.2 428.2 428.2 428.2 428.2 428.2 428.2 428.2 428.2 428.2 428.2 428.2 433 440.6 438.7 433.6 433.3 428.2 428.2 428.2 428.2 428.2 428.2 428.2 428.2 428.2 428.2 428.2 428.2 428.2 428.2 428.2 428.2 428.2 429 439.4 445.3 443.2 450.2 449.3 453.2 457.9 458.5 463.7 472.8 481.8 490 500.6 511.2 524.3 545.3 570.1 596.9 619.9 606 589.4 592.8 602 601.6 598.2 598.3 597.7 598.3 576.6 567 575.5 577.1 576 571.2 556 541.2 530.2 521.8 513.8
498.7 519.9 544.4 572.7 599.8 628.6 655 680.7 702.9 721.8 731.6 736.6 739.3 739.6 735 730.7 723 714.9 704.5 692.5 683.9 673.4 672.3 668.1 662.7 653.2 645.9 642.5 636.8 634.4 634.8 631.1 638.5 640.6 642.8 650.2 658.9 666.8 674 679.4 684.6 687.7 689.8 694.3 692.1 686.4 678.3 683.3 684.5 681.9 678.6 674.7 670.8 667.1 661.5 658.2 653.6 649.8 648.1 642 643 645.2 644.5 645.9 644.9 644.3 644.6 642.2 641.1 635.1 630.3 622.7 615.6 593.4 595.2 594.3 593.1 586.6 597.8 601.4 600.1 608.7 613.1 620.6 628.8 632.6 641.4 644.1 649.1 654.5 661.5 666.6 672.2 680.5 685 687.5 690.9 689.9 682.9 667.6 651.2 608.9 568.8 534.1 504.4 482.5 460.2 445.6 442.7 443.9 442.2 441.6 439 437.5 428.2 428.2 428.2 428.2 428.2 428.2 428.2 428.2 428.2 428.2 428.2 428.2 428.2 428.2 428.2 428.2 428.2 428.2 428.2 428.2 428.2 428.2 428.2 428.2 428.2 428.2 428.2 428.2 428.2 428.2 428.2 428.2 428.2 428.2 428.2 428.2 428.2 428.2 428.2 428.2 428.2 428.2 428.2 428.2 428.7 441.8 441.5 448 451 450.8 454.9 459 461.2 464.4 468.1 468.3 480 488 495.3 506 516.3 530.4 550.2 574.3 606.1 637.3 656.7 631.9 641.7 651.7 648.2 652.3 660.5 645.4 629.9 613.3 599.8 602.7 606.9 609.4 615.2 601.9 568.6 559.6 542.9 535.3
511.2 535.4 564.4 592.7 618.6 648.2 676.9 707.3 724.1 734 740.5 743 744.9 743 738.4 731.7 723.6 715.7 705.3 695.8 687.6 682.3 679.9 673 672.6 665.3 658 653.1 647 643.2 642.3 636.9 645.1 649.2 651.7 654.8 661.5 670.1 677.1 683.1 688.3 691.6 694 697.9 697.9 692 686.8 687.9 685.8 680.4 674.4 668.6 665.4 661 660.1 656.3 655 651.8 651.6 652.5 652 652.2 651.7 654.6 653 656.2 654.4 651.9 648.4 643.7 640.8 634 623.2 615.6 618.3 615.6 615.8 614.3 616.7 619.1 620 626.8 632.2 638.9 644.2 651.9 658.7 664.1 667.9 673.4 679.9 688 693.1 697.9 704.9 709.4 711.9 713.4 705.3 684.2 650.2 602.6 566.1 533.7 504.8 481.2 461.4 446.7 448.2 454.1 458.6 464.1 467.7 461.5 458.1 448 437.7 428.2 428.2 428.2 428.2 428.2 428.2 428.2 428.2 428.2 428.2 428.2 428.2 428.2 428.2 428.2 428.2 428.2 428.2 428.2 428.2 428.2 428.2 428.2 428.2 428.2 428.2 428.2 428.2 428.2 428.2 428.2 428.2 428.2 428.2 428.2 428.2 428.2 428.2 428.2 428.2 439.4 432 449.2 451.9 457.4 457.3 460.7 464.5 468.6 471.9 474.5 476.4 480.9 481 491.8 500 508.5 518.5 534.1 552.7 576.9 606.4 645.5 672.5 669.4 686.3 696.9 691.2 698.6 703.2 710.6 691.1 648.4 634 643.1 640.4 639.4 634.9 637.4 606.3 594.9 571.6 558.3
524.2 552.1 584.2 612.2 637.4 668.1 701.1 735.6 744.5 748.4 750.2 752 748 746.6 740.1 732.4 723.4 715.6 707.3 698.4 693.6 690.2 683.5 683.8 680 676.3 669.7 663.4 655.2 652.2 649.7 642.6 650.1 655.2 657.9 662.2 666.8 673.7 679.4 686 691.4 695.5 696.6 698.6 697.1 693.7 688.5 686.1 680.6 676.8 673.5 668.1 665.1 664.4 664.5 661.7 660.7 663.6 664.3 665.3 664.6 665.8 664.3 663.2 661 664.3 661.1 660.5 657.9 657.6 652.7 647.1 641.8 635.9 636.3 634.3 632.9 631.8 633.7 633.6 638.3 644 650 655.3 662.7 669.1 676.3 681.8 685.8 688.2 693.8 699.3 706.9 714.2 720.7 723.9 725 716.2 694.1 666.8 625.8 593.6 554.6 524.5 497.2 475.2 454 451 461.2 469.6 477.9 486 491.3 492.2 489 476.4 456.4 444.1 431.2 428.2 428.2 428.2 428.2 428.2 428.2 428.2 428.2 428.2 428.2 428.2 428.2 428.2 428.2 428.2 428.2 428.2 428.2 428.2 428.2 428.2 428.2 428.2 428.2 428.2 428.2 428.2 428.2 428.2 428.2 428.2 428.2 428.2 428.2 428.2 428.2 437.9 443 449.1 445.9 457.9 459.9 466.9 468.4 474.5 477.4 484.4 484 483.2 484.5 488.8 487.9 492.2 502.7 512.2 520.7 534.4 551.8 575.4 610.6 644.7 674.4 691.5 704.2 721.8 735.7 738.2 746.3 757.3 747.9 708.2 672.5 679.9 679 673 655.9 653.7 663.1 629.7 599.5 579.5
539.2 570.3 598.6 632.1 667.6 701.7 732.6 750.5 755.4 756.2 757.5 757.2 753.6 748.5 741.5 732.9 722 715 710.2 705 700.1 695.6 692.6 690.8 689.1 690.2 687.2 678.1 663 656.1 652.2 647.1 655 659.1 662.8 667 670.9 677.8 684.1 688.2 691.2 694 696.5 696.5 696.1 693.2 690.1 687.2 685.9 683.5 680.6 674.3 669.8 671.1 671.1 672.9 676.3 678.5 681.3 680.2 678.2 675.5 673.2 671.6 673.5 672.5 671.9 670.1 669.6 666.6 665.3 661.5 655.8 651.8 651 649.1 646.8 646.1 648.7 650.1 656.1 656.6 665 672.7 677.2 685.5 690.2 694.9 696 699.2 704.4 711.2 718.5 725.4 730.3 733.9 725.9 709.4 681.7 643.4 604.1 571.8 546.7 517.4 489.9 473 454 459.9 473.5 487.6 496 507.2 515.4 518.2 518.9 508.5 482.2 464.5 449.3 440.8 428.2 428.2 428.2 428.2 428.2 428.2 428.2 428.2 428.2 428.2 428.2 428.2 428.2 428.2 428.2 428.2 428.2 428.2 428.2 428.2 428.2 428.2 428.2 428.2 428.2 428.2 428.2 428.2 428.2 428.2 428.2 428.2 428.2 428.2 428.2 448.5 444.6 454.2 457.9 466.8 472.6 477.5 483.5 493.2 494.8 502.8 502.8 500.8 494.3 497.1 495.7 497.1 502.9 515.3 524.3 536.6 553.3 575.8 611 642.2 673.5 689.7 706.5 730.8 747.9 756.6 769 776.8 783.3 753.4 706.2 712.2 712.1 703.6 685.5 666.7 663.8 661.5 631.3 609.2
556.4 588.3 619 656.3 693.4 722.3 748.2 758.5 767.7 769 769 761.9 754.5 747.7 741.5 731.9 721.2 717.1 714.4 710.3 702.5 702.3 700.7 697.9 696.4 697.8 692 685.7 672.8 664.2 659.2 651.3 656.9 662.1 665.7 669.7 673.2 680.1 686.2 692 696.1 699.3 700.2 700.2 700 698.9 698.7 697.6 695.9 696.1 695.7 696.5 690.8 682.5 682.8 692 700.4 692.2 692.1 693.9 691.5 689.1 688.4 686.9 687.8 685.9 683.4 681.9 678.3 677.8 674.1 669.6 669.5 667.1 665.7 662.5 661.4 658.9 662.2 666 672 671.2 677.4 683.9 690.6 696.7 702.8 706.6 708.2 710.9 713.1 719.1 725.8 731 735 734.6 720.6 691 658.6 617.8 586.1 557 532.1 506.3 486.8 468.4 460.6 475.9 488.2 501.9 514.9 528.8 540.9 548 551.3 524.6 499.7 485.3 469.3 455.5 445 428.2 428.2 428.2 428.2 428.2 428.2 428.2 428.2 428.2 428.2 428.2 428.2 428.2 428.2 428.2 428.2 428.2 428.2 428.2 428.2 428.2 428.2 428.2 428.2 428.2 428.2 428.2 428.2 428.2 428.2 428.3 443.2 444.8 441.3 456 458.2 465.4 472.8 478.9 487.6 495.7 499.7 509.8 515 523.1 528.5 520.2 511.2 513.4 514.9 509 511 517.5 527.7 538.4 554.2 579.5 606.7 634.4 665.6 687.6 706.7 731.4 755.5 767 780.4 789.3 796.7 788.8 740.4 739.9 739 733.2 716.2 696.2 678.4 673.2 661.9 637.7
562.1 594.2 624.3 668.6 709.7 746.4 767.4 780.6 785.3 786 782.5 769.8 759.2 750.2 741.5 735.5 725.4 721.5 718.6 714.5 711.1 709.3 706.7 705.2 703.7 701.4 694.2 688.4 678.2 668 663.1 655.5 661.3 665.1 668.7 671.6 676.1 681.7 687.6 695.3 702.3 706.9 706.9 707.9 709 710 711.7 715.5 720.9 722.4 725.2 723.8 707.5 693.8 699.8 710.4 712.9 712.7 713.1 714.9 710.4 707.2 707.4 705.4 703.8 698.4 694.1 692 688.4 687 685.2 682 679.6 678.6 677.6 675.9 671.4 669.9 674.5 680.8 683.1 686.3 691.4 697.2 701.4 707.6 714.3 717.7 719.4 721.5 722.3 725.1 729.7 734 732.2 723.3 698.3 662 627.5 597.2 571 545.7 517.9 498.1 478.6 462.6 475.7 492.2 504.3 520.5 534.8 550 566.8 578.4 582.2 548.7 526.1 506.9 499.1 473.1 454.9 444.8 433.6 428.2 428.2 428.2 428.2 428.2 428.2 428.2 428.2 428.2 428.2 428.2 428.2 428.2 428.2 428.2 428.2 428.2 428.2 428.2 428.2 428.2 428.2 428.2 428.2 428.2 428.2 428.2 432.8 448.7 449.9 458.5 459.6 468.6 472.8 477.1 486.9 493 505.8 514.2 520.8 533.3 537.9 549.3 557.2 559.5 539.7 530.2 531.9 531.2 541.2 537.1 534.8 544.6 556.9 579.6 606.1 635.3 663.5 682 707.7 733.3 750.4 770.6 788.1 799.7 806.1 809.3 781.3 770 762 752.6 739.3 721.9 707.5 685.6 676.8 654.9
576.4 609.6 649 687.3 738.5 769.2 780.9 792.6 796 794.6 787.2 774.3 764.5 755.2 748.9 740.5 731.2 728.2 724.5 721.7 719.4 718.7 715.1 712.3 709.6 706.7 701.1 688.1 679 670.6 665.1 661.9 665 667.8 670.2 672.4 677 682.4 689.2 698.2 708.4 716.1 717.5 719.5 722.1 728.7 733.2 743.5 752.1 754.9 753.9 742 730.2 707.8 721.6 732.7 740.8 744.5 741.5 740.9 734.2 729.2 726.8 727.4 719 712.1 707 703.1 697.9 695.4 692.9 690.4 688.8 688 688.2 686.4 684.9 686.3 686.4 689.1 693.5 697 702.9 708 712.4 719 724 727.2 727.2 728.3 730 730.7 730.6 729.8 721.2 697.4 663.9 633.6 605.6 577 553.3 527.7 509.2 489.3 465.5 475.9 492.3 505.6 521.1 537.1 559.8 579.3 596.4 610.3 610 601.6 579.2 531.1 509.5 491 473.4 461.8 446.3 432.7 428.2 428.2 428.2 428.2 428.2 428.2 428.2 428.2 428.2 428.2 428.2 428.2 428.2 428.2 428.2 428.2 428.2 428.2 428.2 428.2 428.2 428.2 428.2 428.2 445.2 441.4 441.2 460.8 461.9 470.2 475.4 481.1 482.9 497.5 501.5 510.4 522.3 533.5 544.4 556.1 566.7 574.6 582.7 586.9 568.5 556.3 552.1 557.1 562.8 560 557.9 558.7 561.2 583.9 606.9 635 663.4 680.2 706.3 728.4 748.7 767.2 787.2 802.1 816 828.2 817.5 802.9 787.8 772.3 760.9 749.7 723.2 710.8 687.6 673.6
595.1 634 666.6 707.6 748.2 776.5 788.4 792.6 795.3 793.2 783 772.6 767.2 757.1 753.2 744 737.3 734.5 729.9 732.5 731.4 730.3 727 719.9 716.4 712.7 706.8 695.2 684 678.4 672.3 667.3 664.8 670.3 672.2 673.6 677.5 682.8 689.2 699.9 714 728.1 734 739.3 749.5 757.3 761.5 768.8 772.4 772.4 769.1 758 742.5 739 748.8 757.8 766.5 771.8 772.4 761.7 764.2 748.6 748.3 743.9 732.9 722.9 717.9 713.1 709.1 703.7 699.8 699.7 699.4 699.1 697.8 695.5 695.1 696 697.2 699.5 702.8 707.7 711.7 717.8 723.6 727.3 731 733.5 733.6 733 733.4 730.6 728.6 721.5 702.1 670.3 638.6 609.8 582.9 560.6 537.9 516.5 498.6 477.4 477.9 492 506.7 524.7 540.8 560.9 583.2 604.1 624.9 641.2 639.9 615.9 591.3 565.2 534.7 512.1 494.2 478.6 462.7 450.5 440.1 428.2 428.2 428.2 428.2 428.2 428.2 428.2 428.2 428.2 428.2 428.2 428.2 428.2 428.2 428.2 428.2 428.2 428.2 428.2 428.2 428.2 440.6 447 457.9 449.4 457.2 467.9 476 476.4 487.8 490.2 495.9 507.5 518.7 530.9 541.5 554.1 570.1 584.6 591.7 602.8 610.8 605.8 606.1 589.9 583.1 576.9 585.1 581.6 579.5 586.9 580.8 584.5 606.9 632.2 654 676.2 703.1 725.5 746.8 765.9 782.3 799.7 817.6 833.5 840.9 834.9 824.2 790 773.8 759.9 740.3 722.9 710.6 692.6
611.5 643 685.4 721.2 768.2 778.2 783.5 788.2 791.2 787.2 778.5 770 762.8 755.8 751.7 744.3 740.4 738.8 741.3 745.8 747 747.4 739.9 733.1 727.7 725.2 729.3 715 698.7 688.2 681.4 678.2 675.3 668.8 673.3 675.5 677.3 683.7 691.7 702.7 718.1 737.7 754.6 762.8 771.9 776.5 778.6 783.7 784.7 785.2 780.4 770.2 742.8 763.6 771.6 782.6 789.7 792 794.9 790 788.3 773.9 770.6 764.7 761.9 745 736.7 725.2 717.6 712.7 709.2 709.5 710.1 707.5 706.1 702.4 704.6 705.5 706.6 706 711.7 715.7 720.7 725.1 729 732 735.9 739.5 737.1 736.3 734.7 730.6 719.6 702.2 678.5 645.7 618 592.5 564.8 543.8 523.7 505.5 488.7 478.5 492.4 510.2 523.7 542.4 558.4 580.5 608.8 636 660.9 675.4 681.8 646.1 628.8 589.8 562.3 535.7 512.5 497.3 481.6 465.4 453.8 441.1 428.2 428.2 428.2 428.2 428.2 428.2 428.2 428.2 428.2 428.2 428.2 428.2 428.2 428.2 428.2 428.2 434.3 441.6 450.3 445.7 455.4 455.5 469.3 465.2 470.1 475.6 487.1 493.7 499.4 502.5 511.1 521.4 537.7 546.3 559.4 575.5 592.7 608.7 614.7 625.4 628.1 627.8 625.1 617.4 611.5 602.2 599 603.4 600.8 601.6 601 602.1 607.9 628.2 647.5 674.8 700 724.8 745.3 763.9 780 800.9 816.2 832 844 842.8 846.5 809.1 787.3 775.7 750.4 738 725.2 708.9
623.1 654.6 696.6 750.3 778.3 776.1 777.8 778.6 781.2 777.1 773.7 763.6 756.7 750 745.3 742.6 741.7 745.4 757 765.7 769.7 770.4 760.5 754.9 743.4 745.9 749.5 731.9 718.3 704.5 694.3 689.5 686.8 676 672.3 674.6 677.8 683.4 691.6 706 717.6 741.7 759.2 770.5 778.4 786.1 792.3 797.9 799.3 796.9 790.2 759.9 777 786.1 793.4 797.4 805.1 808.4 812.3 807.8 811.6 801.5 799.3 794 780.9 767.4 749.8 738.5 728.3 720.5 720.1 718.8 718.2 717 714.9 712.6 712.2 713.9 715.5 715.5 720 725.5 728.6 732.6 736.2 739.3 741.5 743 740.9 738.4 731 725.1 706.1 678.3 653.7 623.6 598.2 574 549.9 530.1 512.1 492.5 482.7 496.6 512.7 526.2 543 563.1 583.1 612.1 650.2 678.8 703.4 712.2 721.4 690.3 663.8 634.2 591.2 559.1 533.2 511.4 494.8 479.8 466.5 453.8 440 430.6 436.7 434.5 432.8 429 428.2 434.1 428.2 428.2 428.2 428.2 431.1 428.2 446 448.1 452.1 456.4 460.9 458.3 469.2 470.1 481 482 484.1 487.1 499.1 501.9 508.7 517.7 531.4 542.9 558.3 567.9 580.9 597.1 614.7 630.2 643.2 647.8 652.5 650.9 646.9 643 633.2 622.7 616.8 615.2 613.4 618.9 617.5 619.6 616.1 631.4 649.3 673.4 699.7 720.8 739.6 758.6 777.6 799.3 814.4 833.3 844.1 847.4 854.9 839.5 794 781.2 760.2 747.9 735 720.3
643.6 677.8 728.1 757 773.2 770.9 766.1 766 768.2 767.4 766 756.2 748.9 746.3 742.3 746.8 751 764.5 780.6 787.7 795.3 795.2 789 778.3 769.4 761.5 763.5 752.7 737.7 730.8 710.7 706.8 696.2 684.8 678.3 678.8 684.9 687.2 691.1 703.5 724.3 741.3 758.6 771.4 781.9 793.3 802.5 807.2 809.5 807.4 796 794.8 790.7 807.3 809.4 814.6 818.6 822.7 824 823.3 828.7 825.2 819.8 815.3 794.6 778.5 763.1 748.4 734.5 732.9 733 731.2 729.3 726.6 724.3 721.4 722.5 722.5 725.6 730.1 731.6 733.4 734.6 738.5 742.1 744.7 744.8 746.2 743.3 734.5 728 708.7 688.1 661.9 629.1 603.1 579.7 556.1 536.5 518.6 503.3 485.2 492.2 512.9 531.7 550.3 568.9 586.1 611.5 648.2 680.7 717.1 738.8 758.3 755.9 729.7 693.1 651.2 619.7 592 554.1 526.7 506.7 490.5 476.8 464 454.9 452.6 451.8 451.5 447.5 442.4 440.8 440 430.8 433.8 437.7 439.7 445.6 450.3 452.9 462 464.8 466.7 472.3 473 480 484.1 490.3 496.5 498.6 501.5 507.1 514 521.1 534.6 545.8 556.8 570.3 587.2 599.5 616.6 633.9 650.8 665.1 675.9 680.7 677.7 672.8 666.1 651.7 645.6 636.6 628.3 624.2 631.1 632.6 634.7 637.8 633.3 653.9 673.2 695.9 719.6 736.8 755.4 773.4 795.1 812 828.9 839.8 847.4 861 858.6 808.3 783.6 768.5 755.5 745.4 732.6
663.9 702.8 743 770.7 767.7 761.8 756.6 755.8 758.2 757.7 754.3 748.2 745.7 745.8 748.6 754.3 764.8 775 782.8 791.3 798.7 803 801.5 800.9 787 778.5 773.9 769.2 760.6 748.5 730.5 721.2 713.6 694.4 688 684 691.2 695.3 700.7 712.9 726.5 743.9 758.1 767.1 780.8 794.5 806.8 813.6 817.3 817.4 807.2 812.1 813 818.9 824.8 826.4 832.4 836.7 836.3 837.2 839.2 839.5 835.8 828.2 810.4 789.9 774.8 759.6 751.6 748.3 747.3 745.1 744.7 741.4 740.6 735.4 733.3 734.9 738.7 741.7 743.6 744.6 744.2 744.1 746.9 749.3 749.1 747.7 742.9 730 714.5 692.5 668.1 640.5 611.4 586.1 565.2 539.5 523.5 508.4 490.4 497.3 512 530.2 548.7 570.9 592.2 614.1 636.6 681 710.2 745.6 772.5 790.8 787.4 750.5 705.1 663.1 625.4 596.1 557.3 533.3 510.4 497.8 478.9 468.8 465.2 461.3 458.8 453.6 450.9 448.1 444.8 438.2 444.6 446.6 457.3 460.1 463.8 462.7 470.6 472.4 474.5 479.3 485.3 485 490.6 497.8 501.3 505 510.9 513.7 522.1 528.3 536.3 548.4 560.3 575.1 587.3 600.7 613.8 633.4 651.5 667.5 684.4 699.8 712.6 712.1 693.9 684.4 669 656.7 651.2 643.6 635.3 640.2 642.5 647 650.2 653.4 665.5 681.9 701.4 718.8 736 754.5 771 789.7 808.2 824.8 834.7 849 861 864.8 847.1 801 780.7 767.9 757.4 746.5
726.8 772.5 762.9 764.2 758.9 753.5 749 746.8 749 749.8 747.8 744.7 745.6 746.2 750 757.4 766.3 772.8 779.1 786.7 795.5 801.5 803.4 808.3 804.1 800.5 790.2 783.5 777.2 770.9 753 738.7 718.9 703.1 699.6 696 701.1 706.1 711.7 724.5 733.7 749.2 761.1 773.1 783.8 795.1 805.1 814.1 820.3 824.5 822.7 827.7 831.1 835.2 838.2 842.7 845.8 847.5 849.6 849.8 849.8 848.6 845.1 834.7 820.7 798.4 783.9 762.4 768.2 769.2 763.9 764.5 761.8 757.3 757.7 750.6 747 747.6 749 751.4 753.2 754.3 753.8 750.5 749.8 752.2 751.7 748.6 739.9 723.7 703.7 674.8 647.8 620.3 595.2 569.4 546.9 527.3 511.2 500.4 504.9 512 530.8 550.5 569.8 594.4 615.9 636.7 665.1 693.7 723.3 757.3 784.9 803.8 792.6 753.9 711.1 673.7 623 586.6 558.9 531.9 512.8 498.7 481.5 471 468.9 463 458.1 453.1 451.7 444.3 449.5 456.7 464.5 467.2 473.2 478.7 478.9 482.2 479.7 484.5 490.6 491.6 495.9 498.8 502.8 508.8 514.7 519.7 520.5 526.8 530.1 540.1 551.5 563.6 580.2 591.4 609.4 622.4 641 654.3 671 686.4 700.6 718.4 737.1 740.1 720 703.8 681.7 665.6 658.9 653.5 649.7 652.4 654.1 657.8 661.3 667.2 674 688.3 703 720.3 738.9 756 772.1 788.2 804.7 822.1 834.4 852.1 863.8 871 865.5 834.8 798.4 784.8 773.9 762.7
755.2 767.8 756 753.6 750.3 745.3 743.1 740.1 742.7 745.1 743.7 741.6 744 745.9 750.1 757.2 763.4 769.6 776.2 783.7 792.3 800.4 804.8 811.6 815.8 818.3 816.6 799.7 790.8 788.1 772.8 755.7 729.5 713.7 707 707.7 710.1 717.1 726.4 738.9 746.2 753.7 770.7 779.1 790.2 803 815.3 821.8 825.7 829.4 831.9 837.3 843.1 848.2 852.7 856.6 859.6 860 861.6 859.2 859.3 856.9 852 840.4 829.5 812.7 794.1 779.3 787.9 785.3 785.6 781.6 779.8 772.3 771.8 766.6 760.8 759 757.7 760.8 762.5 762.5 761 758.3 754.9 754.6 753 747.1 728.3 707.7 688 656.3 627.4 602 580.7 559.2 535.9 518.2 501.4 508.9 517.3 534.1 552.3 568.6 592 617.5 647.1 667.6 695.6 723.7 752.3 777.3 803.2 808 773 737.1 700.6 664.2 610.2 582.6 555.5 529.5 513 496.6 481.5 470.9 465.9 459.8 454 448.8 448.5 456.1 467.5 476.5 485 487.8 491.7 496.8 494.3 501.3 495.9 499.3 503.4 503.4 504.3 509.7 515 519.4 526.8 530.2 534.2 537.5 542.8 553.2 562.1 576.1 593.3 607.8 624.3 637.5 649.5 668.1 692.4 706.5 718.5 733.9 748.7 762 737.4 711 693.9 670.9 663 661.4 660.2 662.2 662.8 663.6 669.8 679.1 684.6 692.2 707.2 721.2 738.5 756.8 772.6 787.6 802.4 818.6 834.8 853.2 865.2 874.7 875.1 866.2 834.2 804.6 789.8 784
751.6 756.5 750 742.8 740 736.8 735.3 735.4 739.2 741.1 742.4 739 742.7 745.9 750.4 756.3 761.7 769.8 775.3 782.5 791.5 801.1 808.9 816.4 821.4 824.7 826.7 822.7 807.2 800 785.4 763.7 739.8 725.2 715.6 717.4 723 731.2 742.7 750.7 760.8 766.3 776.9 785.4 801.1 810.4 818.5 829 836.5 839.2 838.5 846.7 853.1 858.2 862.6 867.8 871.1 872.2 871.1 869.1 865.1 862.1 858.8 847.9 836.1 821.4 792.2 804.4 806.1 803.3 802 799.8 796.7 791.2 784.7 777.8 772.2 770.3 769.6 769.6 769.6 768.8 767 763 756.9 751.1 746.3 738 713.8 688.1 664.4 637.6 612.9 590.5 572.7 551.4 528 507.7 511.3 523.6 538.6 558 573 594.2 618.5 646.8 681.1 700.3 734.1 753.3 786 806 824.6 800.9 759.4 720.3 688.5 648.7 606.9 577.6 551.3 529.2 511.6 495.9 483.2 471.7 463.6 457.7 451.1 448.7 458.4 473.3 486.3 496.3 503.9 509 516 515.5 512.3 518.2 513.2 511.7 515 513.7 516.2 521.2 521.8 531 534.5 541.3 541.9 545.4 552.8 562 575.2 592.6 607.5 629.3 644.6 658.9 669.5 689.7 709.7 726.5 739.1 755.5 768.6 773.1 744.1 715.3 694.4 674.7 666.1 666.3 664.9 667.7 669.6 672.5 679.9 688 694.4 702.7 709.1 722.4 738 755 772.1 787.3 800.8 817.8 835.9 853.4 865 872.8 878.3 877.3 866.5 836.8 808.6 808
741 742.2 740.1 733.4 732.4 732.3 730.9 733.4 734 737.5 739 735.6 738.7 743.1 748.6 755.2 760 768 772.8 781.2 791.1 801.4 809.8 817.9 821.6 823.4 826.5 826.9 822.5 815.5 786.1 769.2 755 745.2 726.1 721.4 729.8 738.9 754.6 767.6 775.7 776.3 782.8 792.2 805.3 816 828.1 837.1 845.3 849 847.9 851.9 858.8 863.7 868.7 875.6 877.6 878.1 878.2 875.5 869.7 867.2 862.6 855.9 845.9 830.6 815.2 818.3 820.4 822.5 820.1 816.3 811.5 805.5 798.6 791 784.4 781.1 778.7 778.2 775.8 774.4 771.1 765.5 757.4 747.4 738.1 722.9 698.8 668.4 647.2 624.5 600 580.1 559.3 540.2 517.4 518.3 530.8 549.5 560.2 576.4 597.8 623.1 662 713.9 728 735.7 781.5 795.9 813.8 829.3 830.5 793.7 750.1 711.2 672.9 637.6 604.8 576.1 548.9 521.7 508.2 493.3 480.7 470 461.6 452.3 450.7 458.1 474.1 490.6 507 521.1 534.2 539.6 538.7 535.7 531.9 535.9 533.4 527 526.8 527.4 533 533.3 538.1 543.4 537.9 546 550.6 554.8 563.4 571.5 585.6 606.2 622.5 645.1 662 678.8 692.1 707.7 726.4 752.2 771.2 790.3 798.9 780.5 747.1 722.6 698.8 683.3 672.7 671.5 669.9 673.3 678.5 683.3 693 699.4 704.7 711.5 719.9 724.2 737.7 752.5 768.7 784.6 801.5 818 835.2 852.5 864.8 873.5 881.7 881.5 874.3 869.9 854.5 832.3
732 733.9 730 724.3 724.7 726.4 729.1 729.1 729.7 734 734.2 731.6 735.6 738.4 744.8 751.9 757.8 762.9 770.5 780.3 790.6 799.8 808.6 816.6 817.9 817.6 820.8 822.6 825.2 821.6 795.3 777.2 766.2 760.6 740.3 727.1 732.3 741.7 753.5 765.5 780.4 782.1 792.3 797.6 810.5 824.4 837.7 847.1 852.6 858.3 861.7 862.1 866.5 871.2 875.4 878.5 879.9 879.7 878.8 876.7 875.1 870.7 866.2 860.3 851.4 837.6 830.5 832.8 836.7 834.3 832.9 829.1 823.5 818.3 811.4 804.2 796.5 791.5 787 784.6 781.6 778.9 773.2 765.1 754.2 742 728.9 707 681.2 654 631.5 608 586.3 567 550.3 532.7 516.4 531.8 547.6 572.1 591.4 609.4 641.1 656.3 691.6 732.1 762.3 783.3 802 813.6 823 832 828.9 789 743.8 701.5 659.3 628.2 601.3 574 544.8 520.9 507.1 490.6 476.8 470.7 464.2 456.5 456.2 467.8 485.1 506.8 526.3 544 564.9 597 605.9 562.2 560.6 553.8 555.8 550.7 546.6 545.3 549.6 555.7 560.1 570.6 552.1 554.9 562.6 567.2 574 584.4 597.2 617.3 638.7 659.1 679.2 694.3 705.9 721.5 740.9 766 790.8 818.2 828.7 788.1 747.6 722.2 699.4 685.9 679.1 678 676.2 681 686.8 694.4 700.5 710.1 716.2 722.1 729 734 740.9 753.5 766.9 782 799.9 817.5 838 854 865.6 875.4 885.3 886.6 881.9 876.1 858.3 822.6
721.7 724.5 722 715.5 720.5 721.6 726.1 724.1 724.8 728.3 729.8 728.8 730.5 736.2 742.9 749.4 754.5 759.8 769.8 780.5 790.7 800.3 806.1 812.2 811.9 809.6 813.4 818.3 820.8 819.2 807.3 789.6 775.9 770.2 755 738.4 735.6 744.3 754 764.9 778.8 784.8 795.5 801.3 810.3 828 848.6 858.8 865.7 873.7 874.3 878.2 881.9 880 884.4 881.1 879.5 875 875.8 874.8 873.5 870.8 867.7 864.6 860.7 850.3 848.4 847.7 846 846.3 839.4 837.3 834.4 828.7 822 816.6 808.8 801.7 796.2 789.7 785.2 780.2 774 763.2 750.5 733.9 715.7 693.6 668 643.5 620.3 592.7 574.3 555 539.2 523.4 531 549.2 568 589.7 615.6 649.2 693.8 727.5 740.5 760.5 780.1 795.1 805 814.4 822.5 828.4 820.6 790.9 744 693.9 651.2 619 592.8 567.1 540.8 520.4 505.4 490.8 477.1 468.7 459 460.2 467.5 485.2 504.5 528.7 545.5 569.6 592.8 617.3 627.6 598.8 591.4 583.7 581.1 571.1 573.8 571.4 570.6 578.4 586.9 596.4 579.3 568.8 575.1 578.7 584.2 595.2 612.6 633.3 654.2 677.5 696.8 710.6 727.2 736.5 751.6 773.1 801.7 833 844.1 790.4 748.9 721.5 703.5 689.1 685.2 685.9 681.8 685.3 693.3 701.7 709.8 719.2 725.9 732.3 736.5 742.7 747.2 754.8 767.4 782 796.6 816.1 839.1 855.9 869.2 879.1 887.8 887.2 880.9 864.2 824.5 797.4
712.9 713.5 709.3 714.2 716.8 719.4 723.1 722.4 721.9 723.7 724.3 724.5 727.1 731.9 740.3 747.2 751.2 760.4 771.7 782.6 791.4 795.6 798.8 802.7 803.7 802 806 810 811.9 811.7 807.7 796.7 782.6 776.9 767 749.9 739.3 746.9 755.5 765.3 775.5 782.5 793.4 800.5 817 831.9 849.2 863.3 874.1 885 891.9 894.3 892.7 895.1 892.9 890.7 885.4 877.9 867.1 866.8 865.9 866 865.6 864.2 861.8 859.3 859.4 858.6 855.8 853.2 847.8 844 842 837 831.2 825.9 816.7 808.2 802.4 795.8 787.8 780 770.5 759.1 742.1 721.9 702.1 677.8 655.8 631.2 607.4 581.3 559.8 545.7 530.6 536.9 552.6 570.2 592 613.7 637.9 676.9 713.5 740.3 758.1 769.2 784 796 805.2 813.4 819.5 822.9 814.2 783.4 736.9 690.4 644.1 610.5 584.6 558.4 537.7 518.7 501.9 486.9 475.8 465.4 456.9 467 484.8 502.2 522.5 546.6 561.3 587.6 615.2 637 652.3 628.8 615.5 615.4 612.3 597.8 610.5 606.9 604.2 611.1 625.4 636.2 611.7 591 588.3 591.7 593.4 606.5 625.2 646 669.4 693.9 706.4 725.3 741.4 761.6 777.3 795.4 813 841.3 852.2 798.6 748.8 719 704.7 691.5 688.7 686.9 686.7 690.4 698.3 708.6 718.9 727.3 734.7 740.1 743.8 749.3 754.8 759.9 769.1 782.1 796 813.6 836.6 852.9 865.6 875.8 877.3 868.3 845.9 818.8 791.8 774.2
700.5 701 701.9 710.5 715.8 714.8 719.5 718.6 719.2 720.1 721.4 721.4 724.7 729.6 738.9 745.9 752.5 760.6 772.1 781.4 786.1 787.9 787.9 790.5 790.8 792.5 797.3 800.4 802.9 802.6 799.7 792.1 784.3 775.9 769.1 752 742.5 746.1 754.3 763.1 771.7 779.1 787.8 801.3 816.6 830.9 846.3 857.7 871.8 884.8 897.3 903.6 899.7 900.1 900.9 898.5 891.3 881.5 866.8 858 857.1 859.2 860.3 860.1 860.8 860.9 862.4 863.6 863.5 859.8 854.8 851.6 848.4 843.7 838.4 832.1 824.3 812.6 806.2 798.3 787.6 775.4 763 747.1 728.6 707.2 684.1 662.2 642.4 622.3 598.2 582.2 567.1 544.7 539.3 557 575.3 593.3 615.5 648.8 673.9 702.4 726.2 742 754.6 769.2 784.6 795.5 804.6 810.7 815.2 816.9 809.7 786.4 729.3 679.5 639.7 603.4 577.4 555.2 532.8 518.1 503.1 485.6 472.7 462.8 463.3 480.6 495.9 515.5 536.8 556.5 577.5 602.9 631.7 651.5 670.9 671.5 648.5 644 642.2 635.4 628.8 636.7 637.8 642.1 659.2 669.3 646.2 610.8 604.6 600.5 600.9 609.8 632.1 662.5 687.1 705.2 721.2 736.4 762.4 787 801.8 820.3 849.6 866.3 865.3 801.9 748.5 712.6 699 692.4 690.9 688.6 690.1 695.8 703.8 714.7 727 736.1 742.5 749.2 753.9 759.3 764.9 770 774.4 784.2 797.8 813.3 832.7 848.9 861.1 867.3 857.6 833 804.3 778.4 758.8 750.6
675.3 678.8 700.2 707.8 709.8 709.9 715.5 715.3 716.4 717.6 718.8 720.7 723.1 726.6 737 742.7 750.9 757.9 769.8 774.4 779.2 778.9 781 783.4 783.3 785.7 788.6 791.8 793.6 792.8 791.7 784.7 779.5 770.6 761.6 750.9 743.3 745.5 750.4 758.5 767.9 775.4 784.5 795.8 813 828.3 838.7 850.9 864.2 877.4 892 901.1 901.6 902.5 903.2 900 894.2 884.1 875 859.9 852.1 849.6 851.9 854.6 857.7 859.4 861.8 863.4 864.7 863.4 861.3 857.4 854.2 848.8 844.2 836.9 829.6 818.3 805.5 796.4 782 766 746.6 730.9 711.8 689.2 667 648.9 627.7 606.2 588.2 575.3 556.8 539.6 556.9 574.6 594.8 616.5 642.6 664.5 685.9 708.3 727.3 737.2 751 767.1 780.8 791.9 801 806.9 808.7 809.4 806 774.9 726.5 677.6 637.4 598.8 573.1 550.5 528.5 514.6 500 488.4 476.2 465.6 473.1 492.2 508.3 532.2 552.9 570.2 601.3 629.5 652.4 673 694.4 698.8 686 673.8 669.3 660.6 661.3 662.3 671.5 677.1 690.1 700.6 690.9 630 617.4 609.7 607.8 621.8 641.9 673.2 694.9 716.5 736 750.6 780.8 797.6 824.4 847.2 870.6 899.6 877.8 804.8 751 713.1 696.2 693.2 690.1 689 693.1 698.1 706.8 718.9 732.7 744.7 750.4 755.5 760.5 766.6 772.7 778.3 783.2 791.5 801.8 814 830.6 847.1 856.9 861.8 848 809.9 771.9 752.4 738.7 736.6
661.1 685.7 699.1 706.1 709.1 706.3 710.4 712.2 713 713.4 716.1 718.1 720.3 722.9 729.7 741.4 745.5 755.3 766.1 769.8 771.3 772.4 774.1 774.5 773.7 779.2 781.2 785.2 784.3 783.8 781.7 774.8 768.9 763.1 756.6 749.7 742.7 744.1 747.1 755.5 763.9 771 778.9 789.4 804.7 821.6 834.3 845.2 857.3 872 884.3 894.9 902.2 905.7 905.2 901.6 894.1 881.3 872.1 863.7 856 847.7 844 846.8 851.6 855.7 858.5 861.2 863.8 863.1 862.6 861.4 859.6 854.4 847.8 841.7 833.4 822.7 806.7 789.1 771.5 750.2 731.1 713.8 693.2 671.2 649.1 634.8 611.8 594.9 583.1 572.2 543.1 557.6 574.3 592.6 611.3 630.5 650.9 670.7 689.6 703.4 719.4 731.3 746.1 761.9 776.4 788.1 796.6 801.4 802.3 802.9 800.1 763.8 715.3 673.1 636 601 571.9 548.5 530.1 512.9 501 488.5 479.1 466 481.4 504.6 522.3 545.9 567.2 594.5 624.8 649.7 666.6 687.8 708.4 724.2 714 706.4 705.3 700.9 702.8 708 700.5 711.8 721.7 731.2 672.3 638.3 628.1 614.8 615.4 633.2 652.7 686.9 707.2 724.6 748.7 766.1 787.5 807.9 834.7 863.6 883.4 901.8 884.1 814 758 715.5 696.3 690.5 689.6 689.6 691.8 698.6 708.7 721.2 737.3 752.3 759.7 764.4 771.3 775.7 780 786.1 793.9 800.4 808.2 816.8 829.6 844.3 849 844.3 811.8 781.2 752.7 733.9 725.9 724.1
660.8 681.4 696.1 700.9 703.1 701.5 706 708.6 709.2 709.9 711.5 715.9 719.7 722.9 727 735.6 744 749.5 756.7 763.2 763.2 763.4 768.2 769.5 768.1 773 774.9 774.8 777.2 774.4 769.3 764 760.1 753.9 749.6 745.5 739.5 741.6 742 749.5 758.2 767.6 773.3 782.8 795.2 810.9 828.3 838.7 851 864.5 878.9 891.6 903 907.6 907.3 902.4 892.1 881.4 869.5 858.9 850.5 846 842.9 840.6 846.1 850.8 855 858.7 859.1 860.6 862.1 862.7 862.4 860.5 855.3 845.6 836.7 823.4 803.3 780.4 756.1 733.1 712.1 692.8 673.2 653.7 638.3 614.1 602.1 589 571.6 550.7 564.8 576.8 588.9 604.8 618.3 633.9 656.4 671.4 683.7 697 710.6 725 739.9 756.3 770.6 782.7 791.3 797.7 796.8 795.1 793.9 756.4 713.2 671.3 637.9 601.2 572.1 549.5 532.1 517.6 503.1 490.5 480 480.1 493.6 514 538.1 559.8 584.9 613.4 639.9 660.1 678.2 698.5 716.6 738.2 744.8 737.3 742.9 737.7 752.3 754.5 751.6 746.6 755.5 730.8 687.7 660.9 639.7 628.4 631.6 650.3 668.7 700.1 727.5 756.1 779.9 788.7 807.1 829.2 851.4 878.8 900.8 920.4 888.1 827.4 761.6 720.7 697.4 689.6 689.6 689.6 689.6 698.9 709.6 721 737.5 755 771.2 778.3 784.9 786.8 788.8 796 803.3 810.2 815.5 823 833.8 843.1 837.8 812.5 783.3 759.4 739.5 730.6 717.4 715.9
662.3 682 695.3 699.4 700.3 697 699.5 703.9 703.8 707.3 712.6 717.5 719.6 723.3 731.5 734 741.2 747.2 751.6 755.6 758.4 762.2 762.1 764.1 769 766 767 768.5 765.6 768 760.7 754.7 750.6 750.1 745.4 738.9 735.9 737.3 739.2 743.1 754.5 762.9 770.9 778 788 801.5 816.6 829.8 844.2 858.3 872.2 886.4 899 905.8 907 902.8 893.7 879.8 863.3 852.2 841.9 836.2 833.9 832.9 841.5 846 849.5 853 855.5 857.3 860.4 861.7 862.7 860.9 857.1 849.1 837.3 818.7 795.2 769.6 740.2 714.6 691.4 672.7 655.8 639.1 620.7 607.3 594.7 580.1 560 570.4 575.8 590.7 601.1 613.5 626.2 641 654.9 665.6 677 689.9 701 714.9 731.3 747.6 762.8 775.5 786.9 791.2 789 789 787.8 757.6 707.4 668.7 634.7 599.6 572.8 551.8 534.4 517.2 502.3 491.9 479.3 490.3 503.7 527.2 552.4 575.1 599 627.5 650.2 668 686.5 707.1 726.3 739.6 760.6 770 776.5 779.3 786.8 799.6 804 799.4 789.5 747.6 708.5 686.1 663.9 657.3 660.4 674 691.3 723.2 748.7 778.3 797.6 814.8 826 845.7 875.7 895 924.1 938 908.8 843.3 773.4 730.2 702.1 689.6 689.6 689.6 689.6 697.5 708.3 721 736.3 754.5 777.7 793.1 801.4 801 801.2 808.9 813.8 820.1 826.7 830.2 838.9 844.6 828.2 796.5 772.7 743.1 736.5 728.5 717.7 713.4
