ncols 200
nrows 84
xllcorner 150000
yllcorner 732200
cellsize 50
-1.2 -1.2 -1.2 -1.2 -1.2 -1.2 -1.2 -1.2 7.6 10.8 13 13.3 17.2 23.1 28.2 32.8 37.4 38.9 40.5 43.2 45.7 53.3 54.4 62.1 66.5 72.4 78.5 86.6 93.3 101 108.6 114.3 123.7 133.4 142.3 149 163.6 174.4 184 194.2 205.3 223.1 238.4 252.1 274.2 293.5 314.2 336.4 349.4 366.4 385.8 415.9 439.1 455.3 451.2 433.5 411.9 384.4 368.1 340.6 313.4 293.7 273.7 254.1 252 253.2 260.3 263.3 272.8 286.3 299.6 315.3 333.1 351.2 362.8 385.2 416.5 434.5 441.4 448.9 453.1 463.9 474 485.1 488.4 475.8 460 435.2 421.6 407.7 397.6 386.3 383.5 386.6 397.1 415.5 426.1 430.1 435 434.8 436.7 433.7 428.6 424.6 421 417.9 410.4 401.3 391.9 382.5 371.5 358.9 346 330.1 316.3 307.8 299.1 289.8 283.2 276.4 270.8 259.8 255.1 239.4 210.7 178.8 147.9 144.1 137 122.7 127.9 131.9 119 100.6 79.4 76 65.3 54.1 44.4 38 32.7 29.2 25.8 22.9 26 26.5 30.9 29.6 32.2 34.5 36.7 37.1 38.2 38.4 42.2 38.5 35.4 29.4 29.2 25.8 23.5 21.1 18.5 17.5 19.2 17.8 16.7 15.4 14.1 16.8 16.8 16.8 16.8 16.8 16.8 16.8 16.8 16.8 16.8 16.8 15.2 24.2 35.7 54 67.7 80.3 93.6 107.9 118.9 134.8 152.4 169.1 187.5 213.7 237.1 263.7 285.5 309.1 335.8 343.4
-1.2 -1.2 -1.2 -1.2 -1.2 -1.2 -1.2 2.5 13.4 13.9 14.8 20 22.2 26.3 31.3 35.7 39.8 42.3 44.9 47.7 53.3 53.7 60 67.6 71.8 78.9 86.5 93.6 101.2 107.5 114.7 121.6 133.7 139.9 146.3 155.3 170.6 184.8 191.6 204.3 216.9 237.2 251.7 272.5 291.6 306.7 325.3 343.4 359.8 375.7 396.2 423.4 450.6 471.6 468.5 453.3 430.1 405.4 382.1 352.6 330.1 309.4 291.3 274.8 263.7 256.8 258.1 263.3 268.9 280.7 290.8 307.4 323 343.2 359.5 379.6 411.7 438.6 454.9 477.7 497.1 507.4 523.7 531.5 529 517.5 497.1 466.7 448.7 433.3 417.3 403.3 398.1 394.5 395.3 404.8 415 417.9 421.3 421.2 423.5 422.7 422.1 416.6 412.3 411.3 408 399.9 393.1 381.9 371 364.6 351.7 338.3 327.5 317.2 308.1 297 290.6 284.6 276.7 270.1 266.9 257.3 226.9 193.6 165.3 145.6 137.1 129.9 101.2 105.7 105.3 90.3 73.9 85.2 71.1 57.3 45.3 37.1 33.6 29.5 26.8 25.7 27 30.1 29.7 30.8 35.3 36.7 38.7 40.5 40.4 41.7 43.5 37.8 37 35.7 33.3 30.7 26.7 27.2 27.3 22.8 21.9 20.2 18.6 16.8 15.3 15.7 16.8 16.8 16.8 16.8 16.8 16.8 16.8 16.8 16.8 13 14.5 21.1 32 46 60.1 77.1 88.8 100.3 112.2 122.9 138.1 159.8 181.7 203.5 230.2 253.3 276.9 299.2 328.6 343.1
-1.2 -1.2 -1.2 -1.2 -1.2 -1.2 2.7 7.5 16.3 19.1 22.4 26 26.4 31.9 35.9 40.4 42.8 45.4 50.1 55.4 57.9 58.7 58.2 71.7 78.6 83.3 91 99.6 108.1 112.7 119.4 128.3 139.7 145.8 154.9 163.1 175.8 188.4 198.2 212.4 227.8 245.7 263.6 285.3 303 320.5 344.2 356.5 368.3 378.4 404.1 434.1 459.6 481 488.8 476 452.5 426.5 394.6 366.1 343.3 323 306.9 290.1 271.2 266.3 256.6 262.7 267.2 275.8 285.3 298.9 316.4 335.8 354.3 373.1 400.4 431.1 450.9 486.5 504.8 521.9 545.2 558.9 555.5 544.7 520.6 496.6 474.1 455.7 436.5 422.6 406.2 412.3 408.8 404.4 405.1 406.5 412.3 413.4 415.3 414.1 411.9 411.1 407.2 405.7 403.8 395.6 389.7 382.9 379.5 370.2 359.5 344.1 337.1 326.1 315.2 304.8 298.1 291.7 284 281.5 276.9 270.4 253.5 217.2 190.5 171.9 158.2 142.9 116.2 101.8 89.9 85.6 94.2 92.3 80.1 61.9 47.7 40 35.9 30.4 27.4 27.1 28 32 31.4 33.3 39.5 42.2 45.3 46.4 45.3 43.7 43.4 41.8 42.1 42.4 42 38.6 35.9 30.9 31.7 29 25.9 23.4 20.4 18.2 16.4 15.7 16.8 16.8 16.8 16.8 16.8 16.8 16.8 16.8 16.5 13 13.5 17.7 26.7 38.1 51.4 65.8 78.3 93 101.7 114.6 133.8 152.8 173.3 194.9 212.2 241.8 271.6 292.2 323.1 340.7
-1.2 -1.2 -1.2 0 0.8 2.3 6 14.7 20.4 24.1 28.9 30.3 33.9 36.9 41.4 44.9 46.3 48.6 51.9 59.3 61.6 63.8 70.1 72.5 80 86.4 94.3 102.5 110.2 115.6 124.1 135 143.4 152.5 160.2 170.1 183.3 194 206.7 216.4 233.5 250.9 276.4 292.7 310.6 330.2 352.4 367.6 376.2 393.9 424.6 447.2 469.2 492.5 502.8 497.5 469.5 438 409.4 380.9 357.1 336.7 320 301.4 284.9 273.7 264.4 261.2 266.4 275.4 282.7 294.2 307.4 326.3 347.3 366.2 386.8 420.6 442.7 467.6 499.9 522.2 542 556.2 560 559.9 547.1 520.6 498.7 477.5 457.1 438.6 427.7 422.5 416.5 412.9 405.8 405 405.6 404.7 406 405.8 403.2 402.1 402.2 400.7 398.8 394 390.1 387.7 384.5 375.6 364.8 351.3 343.8 334.4 323.8 313.5 306 301.2 293 291 290.1 282.4 270.1 241.9 215.3 190.7 171.1 149.8 123.8 128.9 116.8 111.4 106.8 98.4 85.8 68.9 51.3 43.5 36.4 31.8 28.2 28.3 29.7 34.3 33.7 34.9 39 49.5 52.6 50.7 51.9 50.8 49 46.6 46.4 49.9 49 44.6 40.4 38 35.5 32.2 29.4 27.6 26.5 22.4 20.2 16.7 16.8 16.8 16.8 16.8 16.8 16.8 16.8 14.8 11.6 14.2 13 15.9 21 30.3 42.3 56 66.4 77.9 93.2 111.8 129.1 143.3 159.6 181.6 203.6 229.2 253.9 282.1 313.4 339
1.1 2.4 1.6 2.1 2.4 5.1 20.2 22.1 29.3 29.8 33.4 37.9 41.6 43 48.1 48.6 50 53.5 57.1 63.3 67.5 68.8 73.4 78.8 82 84.9 97 104.5 111.3 118.9 127.9 138 146.3 156.7 163.6 173.2 183.1 200.9 212 224.2 239.4 254.9 284.1 300.5 316.3 335 356.5 373.5 381.8 406.7 437.8 454.9 480 507 515.7 502.2 480.4 458.8 423 394.6 371 347.9 332.8 312.1 295.3 282.8 272.3 266.3 268.4 274 279.9 289.5 301.5 317.2 335.4 354.2 374.2 405.1 433.4 452.4 486.7 510 537.8 551.9 557.2 563.3 555.5 539.2 515.9 498.2 480.3 458.7 443.5 436.4 424.6 416.1 406.8 402.9 400.5 397.3 399.3 399 396.5 396.3 396.4 397.1 397.2 396.4 395.5 391 384.2 378.1 368.7 357.6 352.9 343.9 334 323.8 316 308.5 305 300.6 297.3 296 282 259.2 231.7 206.6 182.8 155.2 152.4 146.7 138.3 128.8 119.5 106.4 88.6 73.5 56.9 44.5 37.3 32.9 29.4 30.3 33.1 33.5 34.6 40 44.5 53.8 58.1 58.9 59.2 56.1 58.8 54 55.9 54.9 50 47.8 47.2 44 41.2 36.9 34.2 34.3 32.6 26.8 25.2 20.8 16.5 16.8 16.8 16.8 16.8 16.8 16.4 15.1 12.7 12.8 13 14.3 18 24.9 34.1 47.8 58.1 69.5 85 99.7 111.1 129.2 149 169.6 195.6 223.9 246.4 274 306.5 331.6
5.6 10 8.5 14.4 18.2 22.6 23.5 30.2 34.2 39.7 42.4 44.4 46.2 47.6 51.2 53.9 57 58.7 62.4 68.9 72 77.2 81 83.4 87.5 90.5 90.8 103.5 115.3 120.9 129.7 138.2 149.1 157.2 167 175.2 188.3 202.7 216.3 226.3 242.1 258.1 285.3 301.2 320.1 339.5 358.5 373.6 389.4 415.9 443.5 461.7 480 506.6 522 517.4 491.9 466.6 433.3 408.2 383.7 363.6 344.8 326.6 307.7 293.7 279.7 271.6 270.5 273.7 277.5 286 295.5 310.8 328.7 344.7 363.7 389.1 417.5 442.5 466.5 498.3 520.9 539.1 560.7 567.4 558.8 551.3 524.6 510 495.2 481.9 462.1 450.2 434.5 423.2 408.4 399.9 394 390.8 391 393.5 393.1 391.3 392 394.2 398.4 406.1 398.5 394.7 385.9 379.4 370.1 362.2 358.1 354.1 343.7 333.8 327.1 319.1 312 309.9 305.2 300.9 288.5 266.6 242 217.8 193.9 173.3 176 165.7 155.1 142.9 131.4 115 97.6 79.9 60.6 45.4 37.5 33 29.6 30.2 32.3 33.8 36.3 42.1 49.6 58.7 63.7 66.5 63.6 61.8 60.9 61.1 61.8 60.8 58.3 56.9 52.4 51.2 48.4 43.1 42.6 41.5 46 37 30.6 27.5 21.3 13.9 16.8 15.5 12.9 12.9 15.3 13.5 12.9 12.9 13.2 14.5 18.1 22.1 28.7 41.6 51.2 61.7 72.4 86.3 98 114.8 136.2 155.3 180.5 214.1 242.6 269 293.7 323.3
13.1 15.3 17.1 24.6 28.4 30 30.7 37.1 42.5 46.5 51.6 51.7 49.8 55.8 56.3 59.6 61 65 69.9 74.8 78.3 83.3 88 90.6 94.7 98.1 100.1 101.7 112 123.6 131.6 139.2 150.2 158.4 169.6 176.8 188 201.8 218.5 227.5 240.9 258.6 285.3 299.7 320.3 338.7 359.5 378.3 394.3 418.9 450.4 464.2 478.4 508.3 528.1 530.7 506.9 472.9 443.9 422.5 397.8 378.2 357.9 338.6 320.6 304.4 290.8 276.7 275.1 273.7 277.3 283 291.7 304.1 319.9 334.3 352.7 374.1 405.1 427.2 448.2 474.9 500.8 535.3 563.3 567.9 565.2 564.6 540.9 528 514.5 499.2 478 461.2 448.1 430.6 416.8 399.4 390.8 385.6 382.7 385.2 387.1 388.3 387.4 386.9 399.2 408 399.9 392.4 387.6 380.2 372.1 369.7 372.9 360 351.6 342.2 335 326.3 321.9 317.5 310.4 303.9 291.1 270.2 248.5 225.9 198.8 193.9 192.5 181.6 170.5 154.9 138.9 123.1 104.7 84.8 63.5 46.3 37.7 33 29.2 33.8 34.6 35.2 37.7 44.3 51.1 62.5 70.8 74.1 69.8 68 65.6 66.7 68.3 65.4 62.3 60.1 56.6 55.6 53.2 48.9 51.5 47.9 46 41.8 34.2 29.7 24.2 16 15 14.7 12.9 12.7 13.8 13.5 12.7 13.2 13 14 16 20.8 26 31.6 40.6 51.5 61.3 74.6 87.1 105.1 124.3 145.4 167.3 192.4 229 258.9 287.6 323.6
22.5 25.3 27.3 33.7 33.5 37.8 44.2 48.1 50 51.3 51.1 54.9 59.2 67.1 63.3 69.6 69.5 70.4 74.5 78.4 83.1 89 95.6 98.2 101.5 106.7 110.4 110.5 109.1 119.7 131 138.2 148.3 159.9 169.6 178.2 189.3 202.8 214.7 225.4 237 254.4 276.7 294.4 316 334.6 354.7 374.2 399.2 425.4 451.6 468.3 487.3 520.9 536.8 539.2 520.9 483.3 452.5 433.3 412.7 393.3 370.8 352.6 331.9 317.5 301.8 286.4 280.5 276.8 280 283.6 289.2 298.6 310.5 326.4 342.8 363 388.9 413.6 432.4 457.7 491.1 522.2 550.2 562.4 566.7 564 557.9 542.8 525.8 506.2 487 469.1 454.9 438.7 423.5 409.2 395.5 385.2 378.9 376.8 379.8 379 378.7 381 385.5 392.4 391.3 388.8 383.4 380.1 374.9 375.4 379.9 364.6 355.7 349 341.4 332.9 328.2 321.8 315.8 309.9 299.8 274.3 254.3 232.9 219.8 215.3 203.2 194.5 180.3 161.8 145.5 129.6 110 87 66 49.2 39.2 33.7 32.3 35.9 39 41.1 42.2 47.9 57.7 67.2 75.7 81.5 80.8 79.2 79.8 78.8 77.7 76.3 72.5 67.2 65.7 59.8 59.3 54.2 54.5 54.7 51.6 48 40.4 32.9 29.5 23.1 14.7 13.1 13.2 13.2 13.2 13.8 13.8 13.4 13.2 14.4 14.8 16.2 20.8 26 34.1 44 54.1 64.3 78.4 99.1 116.6 132.8 153.9 178.9 211.7 245 272 306.4
27.5 30.5 36 39.1 45.5 48.6 50.2 56.2 59.2 58.3 62 62.6 63.3 68.6 73.2 72.7 75.1 78.9 81.7 86 91 97.4 102.7 107.9 109.7 115.3 118.4 120 119.5 112.4 125.4 140.5 148.7 159 168.6 179.8 188.4 199.3 216.4 224.5 231.1 244.7 262.1 288.4 306.8 328.9 347 371.7 396 425.6 447.5 466.2 486.9 521 540.8 546.7 532.5 500.1 468.9 443.2 424.2 404.8 385.6 364.1 345.2 328.2 311.4 299.7 284.7 283.9 280.1 282.8 286.6 294 303.1 316 332.7 349.3 370.7 399.3 419.1 446.6 465.6 499.8 531.3 554.5 556.5 563.1 557.3 546.3 541 521.4 495.4 475.2 458.8 447 430.6 414.4 399.7 387.9 378.5 372 368.3 369.6 367.5 372.6 375 378.6 381.3 382.1 378.2 378.1 377.5 378.6 374.8 366.3 357.7 350.9 345.3 341.2 334.2 325.8 321.5 314.8 302.7 282.2 263.5 246.3 242.5 233 216.3 205.9 190 169.7 152.4 132.9 112.1 90.2 66.9 51 41 32.6 35.9 37.1 39.4 40.9 48.6 54 66.5 74.7 83.5 86.7 91.1 90.4 90.1 90.3 89.1 89.5 85.2 75.6 74.1 72.6 67.9 64 62.7 59.8 56.5 53.1 48.7 40.6 33 24.9 17.9 15 14.2 13.6 13.5 13.2 13.6 14 13.9 14.1 14.4 15 17.6 22.3 29.2 38 46.1 60 75 89.5 106.7 122.9 142.5 168 193.8 228.8 260.2 294.7
37.5 42.3 47.3 50.8 52.3 56.1 62.1 63.8 65 66.7 68.8 70.7 74.3 75.8 76.6 77.7 79 80.2 90.1 94.5 99.7 105.2 111.4 115.9 120.1 123.3 126.7 129.5 129.4 131.4 126.7 132.8 148.5 160.6 168.4 179.4 188 196.6 213.2 221.4 228.2 240.4 253.5 270.8 295.8 318 338.3 365.4 387.8 416.3 439.2 461.2 481.9 509.8 531.3 547.1 546.3 517.8 483.9 456 437 418.5 400.2 377.6 356.7 337.7 324 310.2 296.2 289.5 286.3 284.1 286.6 290.9 298.6 308.7 322.7 337.5 355.8 382.5 408.3 428.1 451.1 485.3 506.9 538.2 547.8 553.3 554.5 552.4 546 521.2 503.4 481.3 462.3 449.4 434.3 419.5 402.6 388.8 380.4 371.4 365.1 358.6 356.7 361.9 366.2 368.1 368.6 370.2 372 373.9 376 374.8 371.9 365.2 359.4 354.5 348.8 345.1 338.6 330.2 325.3 318 306.5 287.1 270.5 267.5 259.4 249 233.8 217.3 200.1 179 159.2 137.1 115.4 92 69.8 51 42.4 32.9 35.9 40.4 44.5 45.7 52.8 59 72.5 82.3 95.4 101 104.4 107.6 105.8 101.6 99.3 99.5 96.6 89.6 89.1 83.6 80.6 77.1 73 72.3 64.6 61 56.7 48.7 41.3 31.6 25.6 20.4 15.2 14.7 14.2 13.8 14.1 14.5 14.8 14.8 14.9 14.6 17.1 19.3 24.7 32 39 50 63.9 79.1 98.3 115.2 135.6 156.7 179.9 208.8 243.3 274.3
44.2 50 55.1 58.6 60.6 67.7 69.3 70.6 73 75.6 76.3 80.5 81.5 84.2 86.3 86.4 90.6 94.8 97.5 96 106.2 112.1 118.1 124.2 128.3 133.3 137 137.3 139.5 140.1 141.8 136.8 141.6 159.1 169.7 178.8 186.9 197 211.3 221.3 227.4 236.5 248.4 264.1 281.4 305 327.2 351.4 375.3 403.2 425.7 453.4 478 492.7 513.7 538.8 556.1 534.5 504 476.7 454.2 430.8 412.2 391.1 368.6 351.6 335.9 320.4 309.9 299.7 294 289.9 289.5 293.6 297.8 301.9 314.7 329.5 344.4 366 395.3 410.2 437 461.3 480.3 513.6 529.5 538 543.9 548.5 542.4 521.2 503.1 481.7 467.3 453.5 436.2 422.3 404.4 389.5 380.5 371.1 362.3 356 346.9 351.3 355.1 357.5 361.3 362.3 364.9 367.7 370.7 370.9 370.3 366.8 360.8 355.2 349.4 348.6 343.4 335.4 327.9 320.8 310.2 296.9 288.8 282.1 275.3 263.4 248.1 232.5 210.8 187.2 165 141.7 118.5 96.2 71.1 52.4 41.4 32.9 37.4 43.6 45.1 49.7 56.2 66.2 79.3 86.3 99.4 105.8 115.6 117.6 115.9 115.1 112.4 109.6 107 103.5 103.7 95.6 93.6 92.7 88.6 82.9 77.1 68.7 64.6 60.6 51.1 40.9 32 25.4 19.9 14.8 14.9 14.4 14.8 15.2 15.7 15.7 15.6 15.8 15.7 18 19.5 25.2 33 43.9 55.4 69.4 85.2 105.7 126.2 145.9 167.7 194.9 225.8 263.7
51.6 62.4 65.9 68.2 71 74.5 75.5 78.2 80.6 83.2 85.9 86.8 87.6 92.1 92.3 94.5 97.8 101.8 108 110.6 113.2 116.1 123.1 130.7 136.4 140.7 144.2 146.1 149.3 152 156.1 156.9 157.8 162 166.6 176.2 185.4 194.6 206.7 220.6 225.9 232.8 244.6 258.6 273.8 286.8 311.6 339.9 363.7 386.6 416.8 439.2 460.7 478.7 499.7 525 553 547.8 533 496.6 472.3 446.8 429.3 408 385.7 366.4 350 335.4 323.3 311.8 306.1 299.5 295.3 298.1 301.6 305 310.8 319.9 334.2 351.9 376.2 397.8 421.6 441.2 458.6 486 515.6 524.5 528.3 534.8 535.8 519.8 503.3 480.6 466.7 455.3 436.5 423.8 406.7 391.9 378.8 371.3 364.5 354.1 345.7 338.4 343.8 346.7 350.7 354.1 356.5 360.8 362.8 366.5 369.3 367.4 362.8 357.4 351.7 349.3 345.1 338.4 331.8 326.6 319.6 310.8 307.8 301.1 289 274.3 262 243.6 219.6 193.6 170.2 146.8 122 96.3 70 52.7 43.4 34.5 41.1 44.4 47.6 54.1 62.6 74 81.4 91.8 104.8 115.4 123.1 125.4 127.6 128.1 124.8 121.9 118.3 116.8 111.9 110.4 108 100.1 104 96.6 91.8 83 74.5 69.7 64.2 52.4 41.9 34.7 25.3 17.6 15.5 15.3 15.8 15 15.5 16 16 16.3 16.2 16.2 18.1 21 27.5 36.4 47.3 61.7 74.4 90.8 111 131.8 158.1 183 212.4 250.2
66.9 70.2 78.1 77.6 80.2 81.1 84.9 85.4 87.5 91.8 92.2 92.3 96.2 98 100.2 103.2 105.9 111.3 114.5 119.8 123.3 127.8 126.3 131 142.8 146.6 150.4 155 157.6 162.3 166.3 169 170 171 168 180.5 185.7 195.3 206.8 218.5 223.8 229.5 239.6 250.5 264.1 278.3 296.9 322.4 345.4 372.8 398.2 419.8 441.8 469.1 489.4 520.9 546.5 554.6 550.5 517.4 491.2 467.8 446.6 422.8 403.5 382.9 365.1 350.3 337.4 323.9 316.1 309.3 302.3 300.1 304.2 307 312.8 317.2 326.2 342.6 362.1 384.2 403.7 425.4 441.7 469.7 506.8 516.4 516.9 521.6 524 512.1 494.4 477.2 464.8 450.1 435.4 420.7 405.4 392.9 382.3 371.7 363.7 356.7 347.6 338.4 336.2 337.6 340.4 343.3 344.9 349.4 355.3 359.5 362.9 363.6 360.9 354.8 351 347.3 343.3 338.2 334.4 330.8 325.4 322.8 320.3 311.3 300.6 290.1 272.8 252.3 227.2 200 174.2 148 122 97.4 69.1 52.8 44.3 36.4 41.7 46 50.9 56.6 66.5 75 86.9 97.6 108 117 129 133.6 135 135.3 134.5 132 129.6 130.2 124.9 120.2 118.7 111.8 112.5 110.7 105 101.5 91.5 81.3 71 63.7 51.7 44.4 35.8 23.5 17.5 15.8 15.9 15.8 16.4 16.1 16.7 16.5 16.4 16.5 16.9 19 23.1 30.7 50.2 59.1 66.3 79.7 101.8 123.8 145 172.7 198 225.9
78.6 81.5 84.5 86.8 86.7 89 93 93.9 95.6 97.2 100.2 101.4 103.4 105.8 108.3 110.9 115.7 119.2 124.3 128.8 133.7 136.3 140.2 142.8 145.6 150.1 157.6 163.6 168.3 171.3 173.5 178.4 179.6 182 181.9 183.3 185 193.3 202.4 213.9 222.1 226.1 234.4 247.6 256.8 271.7 284.9 304.1 326.1 353.7 378.9 402.7 428.5 453.6 476.8 499.3 532.6 541.7 533.5 528.7 512.4 487.5 467.7 444.5 421.3 399.2 379.7 364.3 350.2 336.8 327.2 318 311.9 307.9 306.7 311 316.4 323.2 323 336.8 351.1 369.3 389.5 412.4 427.9 453.3 486.8 508.3 513 508.6 504.7 498.5 486.4 473.6 459.3 447.6 430.3 416.2 402.5 391.6 380.2 367.7 360 355.2 348 339.7 332 327.6 330.2 333.1 334.4 339.3 346.5 354 358.7 359.9 359.3 356.4 351.8 344.4 340.5 339 337 334.1 332.1 329.9 330.1 329.7 322.8 304.7 286.6 258.3 231.4 202.2 177.6 150.4 121.8 95.5 69.1 51.8 45.8 36.9 42.6 48.3 54.3 62.3 73 87.3 92.7 101.8 113.1 122 129.9 137.3 145 147.5 145.7 143.5 141.4 139.2 133.7 130.9 128.9 123.2 127.4 122.6 126.2 119.3 108 95.4 82.4 74.6 63.2 54.6 44.5 33.8 24 19 16 16.5 16.9 17 17 16.9 16.8 16.7 16.7 16.8 18.5 24.6 34.7 45.6 62 76.5 92 113.5 134.2 162 185.2 211.3
88.6 90.8 94.9 94.3 93.7 98 99.5 102 102.4 105.9 107.3 109.4 111.2 115.3 117.8 121.3 125.1 130.5 135.9 139.8 144 147.3 149.4 152.5 157.6 165.6 164.9 171.7 174.7 178 182.2 185.6 185.2 188.5 189.1 190.3 191.1 189.3 197.6 209.7 217.4 221.9 228.3 240.1 255.7 265.4 278 297 318.9 342 368.7 391.4 409.7 436.8 455.3 479.7 501.5 514.1 521.5 532.7 530.6 509.8 489.9 465.7 443.4 421.6 400.6 382.2 366.6 351.8 340.9 333.1 324.2 319.2 315.6 315.9 321.8 328.9 334.8 337 345.4 362.5 378.1 398.8 415.8 431.6 463.4 482.2 499.5 497 494.3 487.5 479.1 465.8 453.9 440.8 427.8 412.9 400 385.2 373.7 365.3 356.3 351 344.8 339.8 329.2 316.2 317.2 321.3 322.6 329.3 334.8 343.7 349.6 354.3 356.9 356.5 353.6 349.3 343 339.8 336.8 335.6 334.1 334.5 335.4 340.7 340.8 328.3 297.5 265.6 232.5 201.7 176.9 147.1 119.8 93.9 67.6 52.3 44.2 39.7 47.3 51.3 61 67.4 79.3 88.3 97.5 104.7 114 124.6 135 146.5 150.6 155 154.9 154.4 154.4 151.1 145.9 143.6 143 133.7 139.6 139 139.6 143.2 129 112.4 97.8 87.9 76.1 64 53.8 44.3 30 22 16.9 17 17.2 16.9 17.5 17.4 17.4 17.3 17.3 17.2 17.5 21 29.2 37.4 51.1 65.9 84.9 101.7 124.1 150.2 177.9 201.4
98 98.6 99 101.3 100.7 105.7 107.3 107.5 110 112.7 115.4 118.3 120.9 124.1 127.8 132.1 138.1 142 145.5 148.9 156 159.2 162.8 165 166.4 172.3 178.4 179.1 183.7 185.4 189.8 191.1 195.5 198.4 199.3 200.1 200.2 199.8 200.2 206.9 213.9 221 226 233.8 245.4 256.3 269.6 290.1 312.9 334.7 361.9 374 389.3 408.4 436.9 454.5 475.3 492.2 506.7 520.4 541.8 534.5 514 490.1 464.5 443.8 419.4 397.7 381.9 368.7 355.7 346.6 339.6 334.2 327 326.3 329.8 337.1 340.5 346.6 352.1 360.5 369 387.4 402.4 418.8 441.3 458.6 472.9 483.3 489.6 483.8 471.6 458.5 448.4 434.6 422.8 408.8 395.4 382.1 371.8 362.2 354.4 349 343.4 340.1 332.6 323.7 307.2 305.9 309.8 315 322.6 330.6 340 345.8 350 352.2 352.9 348.2 344.9 341.7 339.1 338.4 336.1 336.7 338.2 346.1 344.7 337.3 306.5 268.5 232.5 199.8 169.2 140.8 114.7 90.3 67.2 52 44.1 44.8 48.6 57.5 63.4 69.7 78.4 93 101.7 109.3 122.1 135.9 148.4 157.9 163.2 168.8 172.9 171.7 170.7 166.4 160.6 157.8 155.9 149.8 151.8 156.5 154.3 152.3 141.3 129 115.1 103.7 91.2 76.1 63.1 53.8 43.4 28.9 20.7 17.1 17 17.9 18 18 17.9 17.9 17.9 17.9 18 17.9 22 29.7 43.5 58.6 74.5 93.6 114.1 142.5 166 191.4
105.9 107 106.3 108.8 109.8 113.3 113.6 117 117.8 120.7 124.8 128.9 131.1 134.2 138.7 143.5 147.3 151.1 156.9 159.7 166.2 171.5 174.8 178.4 179.3 185.1 187.2 189.9 191.2 190.9 196.5 200.1 204.9 207.6 207.8 209.9 208.2 207.9 208.5 208.5 211.5 216.3 222.9 231 237.9 250.8 263.4 280.1 298.5 317.9 335.9 350.7 372.3 389 407.9 432.6 452.3 469 483 503.9 523.4 536.5 537.6 515.7 490.5 468.1 443.5 419.6 402.9 388.1 377 361.9 355.2 351.6 344.6 338.9 342.2 347.2 351.9 359.8 361.7 364.7 367.5 384 400.5 415.4 431.1 448.8 456.3 466.7 480.8 476.6 466.3 453 443.5 432.7 419.8 407 396.5 381.8 374.7 366.8 357.4 353.7 348.5 342.9 335.3 327.6 313.3 297.2 291.9 298.9 307.5 316.1 325.7 335.5 342.3 347.7 347.7 345.8 341.4 338.6 337.7 337.3 336.4 337.6 340.1 346.3 348 340.9 310.9 270.7 230.6 195.3 164.4 135 108.2 84.1 64.2 49.4 42.9 45 51.1 57.5 67.4 73 82.8 93.8 105.9 115.8 126.6 141.2 154.5 158.9 170.8 179.3 184 185.1 184.6 180.4 176.1 174.9 167.9 161.5 164.9 166.9 167.3 162.4 155.2 144.2 132.8 120.2 103.7 89 74.6 67.7 53.1 40.3 29.1 21 17.8 17.7 18.3 18.6 18.5 18.5 18.6 18.6 18.5 18 19.8 28.3 38.8 52.6 71 86.2 108.7 130.8 156.7 177.3
110.2 113.1 115 116.6 120.1 118.8 122 124.3 127.4 129.7 134.4 136.5 141.1 144.9 149.6 152.4 156.6 162.7 168 171.9 177.2 179.3 187.8 192.1 195.5 196.5 199.3 201.2 202.6 205.2 205.4 207.5 211.8 214.6 220 219.2 219.4 220.2 219.3 218 216.9 214.5 218.2 226.9 234.4 240.8 251.6 271.1 286.7 301.2 318.8 332.8 354.2 373.2 391.3 415.1 425.4 444.6 460.2 480.9 505 525.4 536.7 533.6 514.7 489.9 468.3 447.3 426 411 398.5 386 375.9 371.3 364.5 358 357.2 360.9 367.2 376.1 371.4 373.5 378.8 390.1 397.7 420.5 441.1 455.2 464.8 469 474.1 473 465.6 453.4 442.3 432.7 420 410.6 402.7 393.7 381.9 371.9 364.5 358.3 355 346.3 340.9 333.1 321.5 304.3 291 278.5 288.3 299.1 307.3 320.3 330.7 337.8 337.4 338.1 334.9 335 333.3 332.9 334.9 338 341.1 346.7 354 346.2 309.9 252.5 217.9 188.2 157 128.1 101.4 77.6 59.7 47.9 41.5 46 51.6 61.1 69.7 75.1 84.9 93.5 106.7 118.7 129.1 146.9 159.3 169 180.9 191 197.4 201.8 201.8 198.3 196.7 189 182.4 175.4 176.8 183.8 183 179.1 173.2 162.4 148.1 132.9 118.5 101.1 89 78.5 66.4 51.2 38.3 30.2 20.3 18.5 18.7 18.9 19.1 19.1 19.2 19.2 18.9 19.2 20.2 23.6 33.4 46.9 64.7 80.9 99.4 120.1 139 164.6
117.5 117.6 121.7 123.3 126.7 127 129.2 132.1 134.4 137.9 142.7 145.7 150.1 154.8 159.3 162.6 168.1 171.6 173.1 180.7 184.1 194 199.4 202.8 205.7 208.9 210.9 213.1 214.7 215.5 217.7 222.1 223.7 227 231.6 235.2 233.5 232.1 227.8 224.5 222.4 220.9 218.9 223.2 231.3 235.6 242 257.1 274.1 289.6 301.6 317.2 333.8 348.1 364.6 382.7 399.7 411.9 429.3 453.8 483.2 507.4 522.7 533.7 536.9 515.9 494.3 473.4 453.4 436.4 422.3 404.4 402 392 384.7 377.6 380.5 383.5 382.8 385.5 380.8 384.7 388.7 402 409.2 416.9 439.4 460.3 471.9 478.3 479.2 475.7 467.6 454 446.6 436.8 426.2 421.1 412.1 404.8 393.5 384.1 375.9 369.3 362.2 354.8 347.6 338.6 327.6 314.1 300.4 285.8 267.2 274.7 285.2 295.9 311.4 320.7 326.9 328.7 328.9 327.8 327.8 327.6 329.6 335.6 345.3 347.7 347.9 344.7 318.8 243.5 209.1 175.6 143.5 117.9 95.2 71.4 56.3 48.1 43 47.1 54.6 63.1 72 77.8 87.5 97.1 109.1 121.1 134.3 147.1 160.7 174 190.7 203.1 213.1 219.3 222.2 220.1 214.4 205.1 198.5 191.3 176.2 195.7 195.8 194.2 192.3 180 164.1 151.2 134.9 117.3 100.7 89.7 79.2 64.6 51 37.8 26.3 18.6 19 18.8 19.5 19.5 19.6 19.5 19.6 19.6 20.6 22.6 28.3 40.7 52.2 71 90.6 114.3 130.9 151.3
122 126.6 129 128.3 134.8 134.7 138.6 141.2 142.7 147.4 151.2 154.2 160.8 164.7 170.8 174.3 178.4 180.3 185.8 191.1 201.4 202.7 209.7 214.7 218.1 218.2 220.6 224.3 226 226.5 229.2 232.8 237.2 240.5 241.7 241.1 241.4 241.1 238.8 235 230.2 228.2 224.7 223 230.1 232.2 236.4 250.3 264.6 277.9 287.1 302.1 315.2 330.5 344.4 358.6 372 388 406.1 428 454.5 480.9 502.7 527.3 536.1 543.9 521.9 501.8 479 459.9 445.9 426.7 416.2 415.2 406.4 398.6 394.9 394 395.8 396 398.2 401.1 409.8 417.4 424 431.1 440.2 456.2 474.8 482.7 485.9 484.4 479.3 465.6 454.6 443.5 438 431.3 423.3 416.2 408.6 398.5 391.2 385.9 377.2 365.4 356.3 347.1 335.6 323.3 309.5 293.8 275.8 259.6 260.2 271.5 288.2 305 313.3 320.3 322.1 319.8 319.5 320.1 325 331.3 334.9 336.8 333 319.6 300.5 232.9 195.9 163.2 132.7 107.3 83.8 64.3 52.8 44.6 50.2 52.5 56.5 64.5 74.2 81.6 92.8 102.2 113 124.4 138.5 154.1 167.4 183.6 198.9 215.6 231.1 238.2 244.8 242.8 236.4 226.2 213.6 205.8 195.1 202.9 215 211.5 214.2 202.5 185.3 173 154.7 137 117.5 102.7 88.7 73.2 62.3 46.8 31.5 21.8 18.7 18.9 19.8 19.9 19.8 19.7 19.8 20 19.9 22 27 34.8 46.8 64.4 87 110 125.5 147.8
129.5 133.2 133.3 135.6 140.3 143.9 147.6 148.6 150.5 154.7 158.6 163.4 168.2 174.6 180.9 186.3 190.7 193.9 201.7 204.6 209.6 214.4 220.9 225.4 230 231.1 233.7 235.1 238.2 240.4 241.2 244.4 249.3 251.5 254.1 252.8 250.2 249.2 247.9 247 239.1 237 234.5 229.3 227.8 229.6 233.1 240 254 261.1 277.4 290.7 302 315.1 325.9 341.6 355.9 369 386.1 411.8 434.2 455.3 478.1 508.4 536.2 572.9 558.6 533.4 507.7 485.7 466.3 452.5 443.5 440.3 428.2 425 417.4 415 412 415.9 418.1 414.6 429.4 433.3 443.1 453 460.3 466.6 476.3 490.1 492.7 495.9 490.9 478.2 467.6 459.2 452.6 442 432.2 427.9 423 414.6 408.3 400.9 392.9 381.3 370.1 358.8 345.8 331.8 319.5 305.7 293.2 279.3 263.5 246.6 267.9 284.8 299.3 307.7 310.5 311.2 311.4 316.4 316.8 319.9 320.7 319.3 310.7 299.5 281.1 221.2 183.3 150.8 119.8 95.6 71.9 58.1 49.5 46.2 49.5 52.4 58.9 64.2 73.1 82.6 93.3 102.1 115.3 129.6 145.6 159.6 176 193.1 210.8 232.2 248 259.3 266.6 265.2 257.8 244.4 232.9 222.4 212.1 209.9 224.8 227.4 230.2 222 215.6 197.6 174.7 156.9 138.1 119.9 102.2 86.2 67.7 53.3 38.1 25.7 19.9 19.1 20.1 20.2 20 20 20.1 20.4 20.6 20.5 22.6 31.7 41.2 55.4 76.8 97.3 118.3 139.8
137 140.1 142.2 145.4 148.6 151.6 155.9 155.9 158.5 162.3 165.7 172.4 177.8 183.5 191.5 194.8 200.4 206.7 213.8 217.6 222.4 228.1 233 237.8 240.8 243.4 246 247.8 251.4 253.5 255.4 257.4 260 262.9 266.2 267 262.5 261.9 262.1 257.3 247.9 252.1 244.8 239.4 234.9 233.5 235.7 235.8 245.9 256.9 267.4 277.9 288.6 302.2 314.6 325.3 338.7 353.7 367.2 387.7 412.6 435.5 461.5 488.7 518.3 564 584 572 548.5 517.7 494.7 474.4 462.8 458.2 452.2 450.5 444.2 442.1 440.6 441.6 440.4 439.5 451.2 461.3 468.9 474 474.3 482.7 487.3 493.3 502.6 509.8 509.8 498.4 482.4 473.2 466.3 455.2 444.9 440.8 439.5 431.2 424.8 420.4 409.4 396.3 385.4 372.6 357.5 345.2 332.2 319.7 306.3 292.2 276.6 253.1 247.9 263.5 281.2 294 299.1 299.4 303.7 307 307.4 306.2 303.4 296.8 286.8 272.9 258 203.4 166.8 135.8 109.6 83 63 54.1 45.2 49.4 54.5 60.3 59.6 70.2 79.2 84.9 98.5 109.2 119.5 136 149.4 165.8 184.9 203.8 225.3 244.6 262.9 278.7 285.6 286.6 278.5 266.1 252.7 241.3 229.6 211.3 233.1 242.9 246.2 243.7 234.9 224.4 201 181.4 163.4 140.4 117.8 97.2 78 60.8 47.2 27.2 19.8 20.1 20.2 20.3 20.3 20.3 20.5 20.8 21 20.9 21.1 26.3 40.4 52.2 72.3 86.9 110.3 137.6
143.8 145.8 149.2 152.4 153.8 157.7 162 163.4 167 171.8 177 182.5 189.1 194.4 199.1 205 211.6 218.4 223.6 230.1 236.9 240.1 244.7 249.3 253.9 256.4 258.6 261.7 263.6 264.8 266.1 267.8 272.9 275.8 279.8 278.5 278.1 271.7 270.7 268.5 263.5 253.2 256.6 252.9 245.8 240.4 241.8 244.6 243.2 249.5 258.8 269.5 279 287.9 299.1 310.4 322.6 335.5 353.2 368.4 388 409.9 440.5 466.4 496.6 530.9 580 589.4 578.5 546 524.3 500 484.4 480.2 479.7 471.8 464.3 462.9 459.6 465.8 466.5 469 470.8 476.9 489.7 505.6 501.1 507.2 508.9 511.2 513.5 519.5 524.9 518.3 506.6 495.8 484.3 473.1 464.6 458.3 456.7 451.6 445.3 438.3 427.1 413.9 404.8 389.9 375 362.1 348.3 334.5 318.7 301.9 282.5 262.1 236.4 249.8 257.2 272.7 282.3 287.5 285 287.1 286.3 285.8 280.7 276.1 265.5 252.9 219.9 184.9 153.4 122 96.2 73.3 58.6 48.5 49.2 55.3 65.8 68.2 63.4 72.7 83 91.5 98.7 111.8 124.5 140.3 157.1 175 195 216.3 238.9 261 281.9 300.3 309.5 307 300.6 286.9 272 260.9 251.1 231.4 243 257.1 266.2 270.7 261.3 244.2 225.4 206.1 185.9 162.7 133 112.1 90.8 73.2 48.7 30.7 20.5 20.3 20.3 20.6 20.5 21.2 21.2 21.3 21.4 21.2 21.3 23.7 34.3 47.5 66.4 81.4 96.8 126.5
150 152.9 158.2 157.5 160 164.9 167.9 168.8 174.7 181 186 194.4 199 202.5 212.4 218.5 226.2 233.1 238.6 239.8 250.9 252.3 254.9 260.9 265.1 268.7 272.4 276.8 280 280.9 282.5 284 287.5 289.9 289.8 292.3 292.5 289.1 282.5 281 277.6 270.3 262.9 262.3 256.7 252.1 248.8 249.6 250.1 245.9 255 262.1 270.5 276.7 285.8 297.5 308.5 321.7 338.8 354.9 372.4 390.1 419.5 448.7 476.9 510.2 566.4 591.4 589.8 577.5 552.5 531.6 512.2 500.6 499.7 496.1 493.2 493.6 490.9 487.4 486.2 487 497 501.6 515 529.3 532.3 529.9 528.5 525 529.3 533.8 543 539.5 533 519.4 503.8 493.4 487.3 478.3 476.2 471.8 465.9 458.5 451.5 437.9 421.6 407.2 396.9 379.8 365.5 348.8 329.1 309.7 288.9 265 240.2 230.4 239.6 247.1 255.6 263 260.1 261.3 270.9 267.7 263.3 254.5 244.7 235.5 210.9 169.8 136.1 110.1 84.7 64.2 51.9 48 55.6 59.8 66.9 72.3 67 77.5 84.1 94.3 109.5 115.9 131.4 147 165 184.5 205.7 228.2 254 279.8 306.1 325.4 342.8 334 324.1 305.7 291.8 279.9 268.6 256.3 256 274.9 285.7 293.3 284.4 267.6 248.8 226.2 206.5 181.1 152.4 125 103.7 80.4 56.7 37.5 23.8 20.8 20.5 21.2 20.6 21.1 21.6 21.6 21.5 21.6 22.7 23.7 30.4 44.1 57.1 72.4 94.3 119.1
154.5 158.9 160.8 164.6 166.9 169.3 173.9 176.1 181.3 188.2 195.5 202.3 207.2 212.8 223.3 231.7 239.2 244.9 249.5 255.5 263.7 266 270.9 274.9 279.9 284.5 286.6 291.3 296.6 300.3 300 300.1 303.1 306.6 310.4 308.8 310.4 306 300.3 295.1 288 283.6 270.8 270.2 269.2 260.9 260.9 257.9 254.8 257 256.3 257.2 262.1 269 277.2 285.9 297.4 308.3 324.1 341.7 357 381.1 403.6 431 459 492.6 545.8 580.1 587.2 594.7 582.2 560.7 543.7 528.7 520.3 517.9 515.7 518.6 514.8 517.1 517.9 516.6 522.5 520.8 526.5 541.7 545.9 541.2 549.2 550.1 551.7 555.1 554.9 556.3 554.1 548.4 536.2 524.1 517.1 509.5 503.1 496.4 489.4 481.3 471.8 458.3 444.6 428.4 413.9 400.1 383 365.6 344 319.5 294.6 268.1 242.9 217.9 231.1 227.9 234.5 232.7 236.5 241.8 244.6 246.7 243 233.2 221.6 211.5 197.5 159.3 119.9 98.1 75.4 60.3 50.6 48.6 61 64.6 71.1 76.2 71.5 80 88.2 99.2 113.6 127.3 141 157.7 174 195.7 220.7 246.5 274 299.8 324.6 346.6 367 364.1 352.3 337.2 318.2 300.8 286.3 276.1 277.1 287.4 298.6 315.5 314.2 303.5 270 248.9 223.3 199.8 169.7 140.4 115.8 89.8 66.6 46.5 32.5 22.9 21 20.6 21.2 21.6 21.9 22 22.1 22.1 22 23.8 31.2 40.5 53.9 67.9 85.7 106.3
160.1 165.6 170.3 171.1 170.9 173.9 179.8 184.1 187.3 194.5 204.5 211.2 216 225.8 234.8 242.3 249.8 256.2 260.8 271.3 277.7 283.5 287 293.2 297.2 301.2 305.1 308.5 313.5 316.7 318.1 323.1 328.7 331.4 332.7 331.2 328 324.3 316.1 311.6 305.8 297.8 291.3 286.7 281.2 274.6 271.8 270.9 266.6 268.9 266.9 261.9 260 263.8 270.2 278.3 286.6 296.8 312.4 328.7 343.4 364.9 386.8 410.8 440.9 469.8 510.2 551.9 576.1 588.8 595.6 589.2 580.6 568.1 549.7 543.9 542.1 541.5 539.7 542.5 544.2 545.8 553.6 554.6 555.8 558.5 555 561.4 560.5 563.1 567.7 572.3 562.3 560.7 558.6 560.9 558.6 554.2 547.5 544.4 531 525.6 515.7 505.9 495.8 481 468.6 452.7 434.8 421.4 400.6 378.3 355.5 325.7 297.3 267.1 240.4 220.8 216.1 219.9 214 205.9 202.9 205.6 216.8 224.4 220.2 212.5 201.1 191 173 134.5 106.1 82.4 65.3 54.9 48.5 52.4 58.8 67.9 73.5 81.4 78.2 84 93.7 106.4 120.6 131.9 148.3 164.1 183.9 206.8 231.9 259.8 288 324.7 347.3 368.6 389.4 397.8 387.8 378.5 360.2 342.8 311.1 293 294 302.6 319.2 335.7 342.7 331.3 304.5 273.2 240.2 215 181.7 152.9 126.7 103.4 76.5 56.4 39.2 28.2 22.6 21.7 21.9 21.8 22.4 21.9 23 22.9 22.9 22.6 29.6 35.3 45.4 61.8 77.5 94.6
168.4 169.4 174.5 176.3 178.9 179.8 183.6 191.1 195.3 201.4 212.3 220.4 225.7 236.5 245.3 254 260.1 267.3 276.5 285.1 291.8 296.6 301.2 309.4 316.7 321.9 327.6 329.9 334.6 341.2 347.1 349 353.3 353.7 350.9 350 343.4 337 329.6 324.8 320 313.5 303.6 294.2 291.3 286.6 284.5 281.7 275.6 280.3 278 272.6 267.6 265.4 270.5 280.9 285.5 288.9 300.5 315.3 332 351.2 370.3 395.2 421.9 448.4 472 507.5 553.8 571.6 588.4 597.4 600.6 596.3 591 580.5 583.6 580.4 575.3 575.4 573 574.5 581.8 585.2 579.7 580.7 583.6 574 573 570.6 573 579 567.4 558.9 555.3 555.4 559.3 560.8 562.4 563.4 564 556.2 547.2 536.6 524.8 509.3 494.3 477.5 457.4 435.3 414.5 387.9 361.7 332 303.3 279 256.5 238.2 218.9 197.2 199.2 195.7 171.6 163.4 185 205.4 207.2 195.8 176.3 160.9 143.1 118.6 88 71.3 60.6 53.6 49.2 55.6 62.2 71.2 77.2 86.7 89.8 90 101.6 113.5 124.3 139.6 156.7 176.4 197.7 222.2 248.7 278.5 307.8 342.1 367.1 382.6 399.1 417.2 415.3 409.9 391.2 365.2 335.3 315 301.9 323.8 332.5 348.7 351.1 348.5 340.3 303.3 279.2 233.8 195.9 165.7 140.2 111.9 87.2 63.1 47.4 34.1 25.2 21.9 22.3 22 21.9 22.3 22.6 22.8 23.3 23.2 26 32.3 39.7 52.1 67.9 85.4
172.5 175.7 178.1 179.3 185.2 187.3 191.3 196.7 205.8 211.5 220.6 227.6 238.7 249.1 256.6 265.1 270.8 279.4 288.1 297.8 303.8 311.7 322.4 336 343.7 349.8 356.2 361.5 365.5 368.6 372.3 375.3 379.8 383.4 381.2 373.4 363.7 355.2 344.4 336.3 331.2 327.7 319.7 308.3 303.5 302.2 297.6 294.6 293.4 288.9 288.9 286.2 279.8 270.2 270.1 278.6 287.9 295 295 306.7 321 337.4 357.2 378.4 401.6 429.3 449.2 478 514.1 548.2 571.7 593.6 610.7 616.3 620.8 614.5 621.1 623.2 615.8 613.8 608.2 611.6 618 614.8 605.5 603 601.5 592.6 586 583.2 582.8 577.2 567.9 554.3 547.4 546.8 550.1 555.4 558.9 567.4 575.4 577.5 571.6 565.1 552.6 535.9 520.1 503.6 486 453.2 423.8 399.7 374.2 348.4 323 299.9 279.1 259.3 243.3 225.1 214.5 204.5 204.4 184.3 155.1 181.6 187.5 178 162 142 118.5 96.7 78.1 67.2 58.1 52.9 52.6 58.7 64.6 76.9 81.8 91.8 97.6 101 108.4 120.9 135.5 148.5 166.2 188.6 215.6 240.7 262.9 294.5 318.6 349.9 377.3 394.4 408.7 422 432.6 427.4 411.6 389.5 362 337.2 327 334.6 351.6 362.3 359.7 350.5 345.5 328.1 297.1 266 206.3 173.9 145.2 120.3 94.7 72.7 53.7 40.1 29.9 22.8 22.8 22.5 22.8 22.8 23.2 23.4 23.9 23.8 24.3 27.1 36.2 47.6 62.5 84.7
175.6 177.5 183.3 186.1 189 193.6 199.4 205.3 212.3 220.3 227.7 235.5 247 259.6 268 278.5 284.4 290.3 301.4 312.3 326.2 339 350.6 359.8 366.8 375.2 386.9 396.9 403.4 402.5 404.4 410.7 414.7 418 411.3 398.6 385.9 372 359.5 351.7 346.8 342.4 333.3 325.7 317.1 314.5 310.1 307.2 304.1 300.4 298.7 299.6 293 284.5 275.5 277.5 287.4 296.8 302.1 302.3 312.3 328.7 342.8 362.6 387.4 409.5 432 454.5 485.7 522.1 555.5 578.3 598.8 617.8 633.4 644.4 644.5 654.6 660.7 652 656.4 650.7 645.9 632.3 631.3 630.2 622.2 613.6 605.3 593.9 590.8 581.7 565.9 533.6 528.5 529.1 536.4 542.8 553.8 563.7 572.6 578.5 580.9 579 573.7 558.8 542.6 525 504.3 473 443.2 417.9 395.5 369.9 347 324.3 303.9 287.2 271 258.2 247.4 235.3 224.1 199.7 166.8 150 160.5 154.7 142.4 126.5 100.9 85 71.1 62.6 58.3 52.6 58.4 60.5 70.9 82.2 88.8 96.3 101.7 108.8 116.7 130.6 145.1 164 180.6 201.9 227.5 253.9 280.4 306.6 332.1 355.6 378.8 400.4 418.8 429.2 438.9 440.5 430.4 414.5 388.4 361.5 354.9 350.2 360.7 369.3 367.8 359.9 343.5 334.7 302.3 270.9 216.9 186.3 158.7 126.6 99.4 79.5 58.9 44.4 30.6 24.7 23.6 23.1 23.6 23.8 24.2 24.5 24.5 24.5 24.3 26.4 33.3 47.2 64.4 80.8
177.5 186.9 189.1 192.3 197 199.3 207.3 212 218.2 226.2 234.9 242.8 256.9 269.2 280.2 288.2 295.9 303.7 317.8 333.4 347.9 362.1 375.7 385.7 395.6 409.7 421.8 430.4 437.8 443.1 449 453.5 448.2 447 438.2 420.2 403.9 391.3 379.3 368.8 358.7 351.9 347.7 343.7 333 329.1 323.6 321.1 318.5 314.5 311.3 309.3 307.3 297.6 290 282 284 295.1 305.5 309.9 310.7 322.1 337.7 352.4 373.1 395.5 420.2 439.6 467.7 506.4 534.1 556.6 580.9 601.4 619.5 639.1 653.6 662.8 676.6 694 698.7 679.6 666.2 654.4 648.9 644 635.5 628.7 621.2 608.9 592.3 576.3 550.3 519.8 502.4 500.1 511 521.8 537.8 551.4 562.9 571.3 571.7 572.9 577.8 571.3 557.3 537.6 517.3 486.1 455.8 431.9 408 388.2 368.2 347.9 329.4 312.7 299.6 285.2 272.7 256.2 238.1 215.4 190.8 170.4 147 128.6 122.9 109.9 93 81.3 68.5 64.3 59.6 58.2 61.6 69.7 73.6 79.3 89.1 99.2 109.2 116.7 127.3 143.9 158.2 172.9 191.9 216 240.6 264.6 294.3 321.7 345.8 370 391.9 409.5 424.4 437.8 447.5 446.9 445 433.4 417 395.9 381.7 368.5 377.5 377 374.7 365.4 350.7 342.6 307.5 266 222.3 191 160.3 130.7 104.3 84.7 67.5 47.6 34.2 26.8 23.7 23.7 23.4 23.6 24.5 24.7 25.2 25.1 25.3 26.9 33.4 44.9 58.6 73.6
184.1 188.5 193 197.1 197.8 206 213 219.4 225.5 236.5 243.7 249.9 265.3 276.2 285.2 300.4 306.6 323.5 337.5 352.2 366.8 385.2 400.9 414.8 427.4 438.6 447.4 457.6 466.3 473.9 479.5 477.8 475.4 472.3 464.2 450.1 425.2 410.3 396.9 385.9 374.5 368.2 362.6 358.5 351.1 341.1 338.2 335.8 333.7 330.3 327.2 321.7 321.2 313.5 304.5 296.1 287 294.8 303.7 316.1 320.6 322.6 332 346.3 362.5 383.3 404.6 424 456.7 487.6 506.9 535 559.9 583.8 606.1 622.6 643.9 656.2 663.1 674 682.4 669.5 663.1 665.6 660.3 654.4 647.5 639.1 630.9 619.9 597 567.6 540.6 508.6 482.4 471.7 480.1 500.9 518.1 531.2 542.8 553.1 555.4 555.4 543.9 538.9 527.4 509.3 488.5 469.2 445.6 424.9 401.1 385.2 369 350.7 337.1 320.6 307 293.5 276.9 256.9 231 206.2 184.2 167.2 148.7 135 119.5 102.8 84.3 73.4 67.1 64.2 57.4 61.3 66.3 72.8 80.7 87.6 91.6 102.2 113.3 123.9 136.3 150.6 167.2 187.1 204.2 227.3 252.4 279 308.3 337.5 364.6 386.3 404.3 421.8 436.7 445 452.7 452.5 450.7 446 436.4 425.9 405.6 394.6 387.3 384.2 382.5 378.3 363.8 342 319.7 269.7 228.4 194.4 165.3 137 111.7 90 69.2 51.3 37.8 27.6 24.5 24.4 24.2 24.1 25 25.2 25.8 26.3 26.5 26.7 29 37.5 51.3 60.7
188.2 190.3 198.5 203.4 208.1 211 216.6 225.2 232.7 242.3 248.5 259.6 271 282.9 295.6 307.5 323.3 337.1 353.4 369.8 385.7 403.1 421.2 435.5 451.5 466.3 477 488 499.7 504.8 509.4 506.2 504.8 499.9 493.7 478.3 457.5 430.6 414.9 402.5 391 382.8 376.6 373 366.3 359.4 356.2 351.9 348.5 346.6 345.7 342.3 334 327.8 320.1 309.5 303.8 294.8 310.3 314.9 327.2 332.8 333.3 339.1 356.1 375.6 396.1 419.5 440.4 459.1 482.9 508.8 538.8 562.2 585.6 606.5 623.5 638.9 649.3 650.5 646.5 636.8 635.3 637.6 644.9 649 650 647.3 637.2 611.8 577.6 547.9 520.7 491.5 466.2 445.2 455.5 474.5 495.9 507.5 516.2 523.9 525.7 523.4 513.6 500.7 490.3 474.2 454.8 437.3 418.4 399.3 385.2 365.6 349 338 325.5 312.8 300.8 284 264.2 234.4 209.1 189.2 169.1 152.3 135.5 123.2 107.7 93.9 81 71.5 65.8 61.2 63.2 66.7 71.4 77 83.4 96.5 109.8 114.3 118.5 124.8 141.7 157.3 174.9 194.2 218.9 241.9 265.1 290.3 319 347.8 374 398.3 417 434.6 444.3 451.2 456.2 463.4 457.9 454.7 451.1 442.4 429.8 417.2 400.1 392.7 391.3 391.1 370.3 349.1 323.1 280.9 237.2 196.9 170 143.2 119.8 95.3 78.3 59.1 43 31.9 26.3 25.2 25.2 24.6 24.5 24.7 26.1 27 27.6 28 28.6 33.3 44.6 58
191.9 194 199.9 206.5 213 216.2 222.9 226.8 240.5 249 254.2 265.5 276.5 286.7 303.5 317.5 337.8 351 369.5 386 402.9 422.5 441.1 459.2 477 492.4 504.2 515.9 524.8 529.3 529.8 529.4 527.1 523 515 506.2 481.9 456.2 434.6 420.1 407.2 395 390.3 387.1 380.8 372.8 372.7 366.2 363.4 358.6 358 357.9 351.4 340.7 335.8 323.4 314.2 309.5 315.8 323.1 329.1 338.6 343.3 344.9 349.6 367.1 387.1 410.2 427.8 451.4 473 490.5 520.9 544.7 568 589.4 605.2 619.5 627.7 630.6 608.1 602.3 599.9 604 612 621 628.7 635.3 630.3 597.8 562.3 531.5 503.7 474 442.4 425.3 429.6 452.4 470.5 480.9 487.1 487.4 487.2 484.4 475.4 468.9 457.5 445 425.5 408 390.9 374.8 362.4 343.3 319.9 307.2 298.4 288.3 272.1 258.1 235.6 211 187.6 169.3 153.4 136.3 121.6 107.8 95.9 84.3 75.4 70.5 65.1 66.2 70.6 74.5 80.3 85.3 93 103.8 114 124.6 136 143.6 143 161.9 182.2 205.6 231.4 255.1 280.4 306.2 331.1 359.4 384.6 406.3 427.4 438.1 454.8 464.7 469.1 474.3 469.2 464.5 460.5 452.6 445.7 432.7 411.6 408.7 401.4 395.8 386.3 361.3 331.3 307.2 250.7 213.8 179.2 151.6 125.8 99.1 80.4 62.4 47.9 35.4 27.8 25.8 25.4 24.3 25.6 24.9 26.5 27.6 28.1 28.5 29.6 31.8 43.4 51.5
194.5 197.3 204.4 208.9 215.5 222.4 225.4 234.1 243.1 253.2 256.9 269.3 282.2 293 307.9 325.9 349.5 365.3 381.8 399.5 417.6 436.9 457.8 475.9 496.9 512.5 526.1 538.7 546 551.1 550.8 551.5 551 546.4 538.8 527.7 508 480.3 455.3 436.7 420.3 411 403.8 399.1 393.1 387.8 384.6 379.5 376.2 373.1 373.2 369.5 367.5 356.1 348.4 335.5 326.3 322.9 322.2 329.8 336.6 343.6 350.9 358.1 363.1 369 379.9 404.8 426.6 441.4 463.2 487.1 509 531.6 556.1 579.1 595.3 601.2 608.6 603.1 576.4 566.3 563.9 568.6 577.4 587.5 599 610.4 614.9 589.7 553.3 521.3 489.7 457.7 426.3 395.7 402.9 427 440 450.9 453.8 448 444.7 438.2 434.4 426.3 417.6 405.8 389.6 373.8 360 346.1 332.3 318.1 295.7 276.8 265.6 251.6 236.2 221.4 205.5 187.2 168.3 150.7 136.8 123.4 110.6 97.7 86 77.1 71.5 67.4 70.5 71.6 78.1 82.5 91.5 92.4 102.3 113.4 120.4 133 143.9 153.1 159.5 168.1 191 214 241.3 265.6 290 314.2 341.2 365.7 392.3 416.5 436.7 452.8 465.1 476.3 482.3 484.6 481.6 473.8 468.3 466.1 459.9 445.5 422.5 416 408.1 398 393.7 378.1 343.8 310.8 270.9 224.9 186.4 154.4 130.4 106.7 85.8 69.5 51.4 37.1 29.9 26.7 26.7 26.6 25.7 25.6 26.8 27.4 28 29 29.9 33 41.7 53.8
193.5 199.5 205.1 211.9 218.5 225.3 231.9 238.3 246.7 255 260.4 271.2 283 297.4 313.8 331.9 353.1 371.3 390.7 409.1 429.9 448.4 469.2 487.2 505.6 523 541.8 553.4 562.1 567 568 568.2 569.7 566.8 561.2 551.8 530.3 503.3 476.7 454.8 435.4 423.9 417 407.6 405.6 399.7 394.5 390.2 384.6 384.9 385.6 384.4 380.3 373.3 360 349.3 335.6 338.3 336.9 336 344.6 350.1 356.7 369.8 379.8 383.7 394.3 404.8 417.4 439.3 463.2 484.9 506 527 544.7 565.6 580.7 592.5 591.3 574.7 552.5 529.7 529 533.1 542.2 554.5 568.6 581.9 588.9 580.4 546.7 511.5 479.3 444.3 410.4 370.4 377.1 400.7 410.2 413.9 417.2 411.5 409.3 402.9 399.4 390.4 381.3 373.4 357.3 341.3 327.6 314.9 297.5 285.9 268.2 250.3 235.9 223.3 209.4 195.5 178 163.8 150 137 124.4 111.7 100.3 89.3 79.6 74.3 69.4 72.6 77 79.5 83.5 88.4 98.2 103 111.9 122.1 129.3 139.2 154.7 164.2 175.4 170.7 196.5 218.7 244.9 271.9 295.6 321.2 345.1 369.3 394.8 421.1 442.1 458.9 473.6 481.7 492 495 490.1 486.2 477.3 473.2 467.7 453.9 435 421.6 412.5 402.8 394.4 384.8 355 324.7 285 254.4 196.9 157.9 134.6 109.3 88 70.8 52.5 39.8 31.6 28 27.5 26.7 27.4 26.3 26 27.4 28.3 28.4 29.7 33.5 35.8 47.8
195.2 204.2 207.8 212.6 220.9 229.2 236.6 243.3 248.6 257.8 267.3 273.8 286.4 300.3 319.5 336.9 355.7 375.1 396.9 413.7 434.6 454.7 473.6 491 509.2 527.8 547.9 564.2 571.8 576.2 578.1 579.6 581.8 580.5 578.3 569.3 550.9 524.6 496 473.1 454.3 438.9 429.5 419.7 418.7 413.7 406.5 402.9 396.3 393.4 398.2 398.6 395.9 388.3 377.1 364.2 350.2 352 351.3 347.3 351.4 358.2 365.3 373.4 390.8 400.6 404.8 415.2 423.7 438.4 464 483.3 499.8 517.6 537.9 556.2 581.8 587 574.3 552.1 527.5 507.2 495.7 501.9 507.3 519.5 535.4 552.8 564.3 563.1 543.8 506.6 471.1 435.1 400.6 349 352.1 370.7 378.2 382.9 377.8 374.2 370.2 369.5 367.1 358.3 347.8 339.7 327 312.4 296.6 282.6 269.8 257.2 239.1 224.5 208.7 197.7 186.4 171.9 160.5 145.7 134.9 122.2 110.8 100.7 91.1 81.9 74.3 71.7 71 76.8 81.6 87.4 91.6 97 108.2 114.8 122 131.9 143.2 151 164.6 177.4 188.8 195.2 189.7 220.5 249.8 274 297.4 319.5 347 366.8 394.3 420.4 444.1 464.1 480 491.3 499.2 504.2 501.4 497.9 492.3 481.2 470.1 460.9 445.2 429.6 416.5 408.7 400.8 385.4 354.2 323.3 298.3 258.7 206.1 166 137.9 112.2 91.4 74.8 55.8 41.1 33.2 29.4 28.3 28 28.3 27.9 27.7 27.2 27.3 29.7 29.6 29.8 31.2 38
198.7 207.8 213.1 216.2 223.8 230.9 239.5 249 259.2 265.9 271.9 280.5 290.7 304.4 322 340 357.8 372.6 394.7 414.7 434.4 450.4 472.8 490.6 509.8 524.2 546.1 562 572.2 581.4 586.9 589.9 590.6 593.6 591.5 585.4 570.9 546.5 514.5 488.9 472.5 457.9 444.2 434.5 429.1 423.5 419.6 414.2 410.6 406.6 409.1 409.1 406.5 400.2 390.2 379.2 371 370.3 366 364.8 363.5 370.2 375.3 383.8 395 406.8 419.2 430.4 441.9 456 468.6 482.2 495.8 512.5 529.1 543.4 558 563 547.1 526 507.2 491.3 460.1 470.3 474.1 485.8 501.9 520.2 533 529.8 520.3 498.7 465.5 430.7 391.9 356.7 315.5 341.2 346.9 354.4 346.9 340 335.6 330.2 327.7 324.3 317 311.4 296.1 280.8 267.8 256.3 242.5 228.9 215.5 201.1 188 173.4 163.3 152.8 141.3 130 119.4 109.6 99.3 88.7 81.7 75.5 74.8 77.5 77.5 79.8 86.2 94.6 99.3 111 118.9 127 138.1 146 157 169.4 180.7 192 204 215.6 207.9 208.4 242.6 269.8 295 317 339.6 363.7 387.6 415.9 443.7 463.5 481.8 494.1 503.8 510.1 510.1 507.3 499 487.3 474.8 462.2 449.7 430.8 418 406.8 399.6 378.3 353 322 294.2 261.6 206.6 172.2 141.4 112.8 93.2 73.5 57.9 43.7 33.7 32 29.9 29.1 28.7 28.4 28.7 27.4 28.6 30.1 30.7 32.3 33.6 32.1
203.1 209.3 218 221.5 228.2 237.1 243.1 254.8 263.9 272.4 275.2 276.9 291.4 304.8 320.2 336.5 353.8 371.3 389.7 409.7 433.4 449 467.6 485.8 502.4 518.6 537.4 554.2 567.8 579.3 589.4 595.3 600.6 603 602 599 585.4 569.7 542.1 511.2 487.9 474.3 458.3 446.2 442.1 435.9 432.5 428 421.6 419.5 416.9 417.2 413.8 409.9 402.9 392.4 382 387.6 381.6 379.1 376.1 380.3 384.7 393.7 397.2 413 428.2 439.6 455.3 468.8 480.5 492.1 502.7 514.1 523.1 533.3 540.7 535.3 520.3 504.2 487.8 471 455.3 437.2 441.6 453.9 471.3 489.9 498 492.4 483.7 469 443.7 421.4 390.8 353.5 305.5 298.5 317.1 318.7 317.1 307 301.8 297.9 293.4 289.2 282.6 277 266.6 254.9 241 229.1 217.4 204.6 193 180.1 167.6 154.1 144.9 137 127.6 117.5 108.1 97.8 88.4 82.2 79.1 81.2 81.4 81.4 84.5 86.6 92 99.8 109.4 123.2 129.7 144.7 149.9 162 174.8 189.4 202.7 216.4 226.8 236.3 235.8 217.6 234 260.7 284.1 311.8 334.3 359 382.7 406.5 433.7 459.9 477.9 494.6 504.6 509.4 512.6 511 502.1 490.5 478.7 466.8 451.2 433.8 422.5 406.2 394.8 372.2 348.4 318.3 291.6 248 210.5 171.5 143.5 116.5 93 74 57.8 45.4 38.2 35.4 31.6 30.5 29.6 29.6 29.8 29.4 29 31 34 34.8 36.9 37.8
205.1 213.7 219.9 227.1 231.1 241.6 250.3 256.1 266 273.2 279.5 285.1 293.4 297 311.9 329.5 346.6 365.5 382.7 402 423.2 443.4 459.9 479.1 496.3 511.5 529.2 548.9 564.3 577 589.4 596.3 605.9 610.2 611.8 608.8 598.4 586.5 563.2 536.6 511.6 488.6 473.4 463.4 454.4 447.1 443.2 435.7 431.3 430.2 424.7 427.7 423.6 416.6 413.3 404.3 398.5 402.9 399.5 394.8 392 393.4 397.1 403.9 409.3 418.9 431.6 444.9 457.3 473.5 485.7 495.8 506 517.5 525.9 531 528.5 515.5 499.3 482.3 463.5 450.1 441.8 424.9 407.7 422.4 442.3 455.2 462.5 456.6 446.5 437.9 411.8 391.1 368.4 345.7 318 273.6 287.7 288.5 284.2 280.1 276.5 268.4 263.5 258.1 253.1 246 238.5 227.9 217.4 206.4 192.9 182.3 172.2 162.6 151.5 141 129.4 122.3 115.7 107.4 100.2 91.1 84.6 79.5 83.1 85.1 85.6 86.3 91.2 95.4 102.5 110.7 120.3 132.2 147.8 154.7 168 179.2 194.8 210.7 227.2 240.7 258.4 265 259.2 245 228.6 252.6 267.6 300.2 326.3 347.8 372.5 396.8 424.9 454.4 476.9 493.2 501.8 508.9 510.1 513 506.4 493 480.2 469.2 457 439.6 430.3 414.1 394.7 370.7 341.9 310.8 285.6 243.1 211.2 170.7 144.7 119.6 94.7 75.8 57.9 47 40.2 36.8 33.3 31.7 30.6 30.1 30.3 30.9 31.1 32.9 34.7 35.8 37.8 39.6
208.7 218 223.5 229.8 235.8 244.1 253.1 260.6 266.2 274.1 279.6 286.8 294.5 303.8 313.5 322 328.7 354.6 375.8 394.4 412.7 433.5 451.1 470.3 488.8 504.3 518.8 539.6 558 572.5 586.4 597 606.5 610.6 616.5 615 606.6 601.4 586.1 559.3 537.4 511 487.1 471.7 461.6 456.5 451.6 445.7 442.2 438.6 437.1 432.5 430.7 428.5 421.1 415 411.6 417.1 412.8 407.9 408.2 412 411.3 416.9 423 433 442.2 455.2 468.6 481.7 493.6 508.6 512.1 519.3 532.2 534.3 528.5 506.9 484.2 462.2 443 426.9 416.2 407 389.3 393.1 411.1 422.5 430.4 419.1 410.5 401.9 386.6 362.5 343.4 320 299.2 278 250.5 260.1 257.8 251.6 249.6 243.7 236.5 231.4 227.7 220.6 215 204.1 195 187.4 177.3 166.9 156.1 146.5 137.2 127.9 117.9 111 107.3 100.4 93.1 86.5 80.5 83 87.1 90.6 92.9 97.2 101.4 106.6 115.3 124.1 133.8 148.9 162.7 174.4 186.8 201.2 217.3 234.1 252.5 268.1 283.5 298.3 294.9 276 258.2 266 286.2 295.4 324.5 344.5 360.6 394.6 424.3 455.2 479.8 502.2 509.8 512.2 509.8 509.3 507.1 495.7 483.9 472.4 459.6 444.6 432 412.2 392.1 363.7 335.6 306.2 276.3 240.6 196.9 165.7 135.7 113.1 91.2 71 60.3 49.3 43 38.2 33.9 32.5 31.4 30.3 31.2 31.5 30.7 32.7 34.6 37.8 44.5 45.7
212.9 222.4 229.2 233.9 239.3 246.8 254.6 263.1 269.1 275.4 282.1 289.9 298 309.5 319.9 330.6 340.9 343 360.4 383.2 404.6 423 442.6 459.1 475.8 494.3 510.6 527.7 547.4 567.2 583 594.6 603.3 609.7 614.6 616.7 615 611.1 602.8 585.7 559.8 538.7 506.7 486.9 470.3 462.5 457.1 450.6 446.9 446.2 444 440.3 438.6 435.7 428.6 423.4 423.4 427.5 425.8 424.8 423.9 427 426.4 432.4 441.2 446.1 454.9 462.6 474 485.9 498.5 511.5 524.6 534 543.4 545 528.9 503 479.6 448.9 425.2 407.3 391.2 381.3 374.7 365.4 380.8 388.8 390.5 384.9 375.8 367.9 355 337.5 315.7 294.6 277.5 257.6 241.4 228.5 231.5 229.8 226.6 220.1 217.6 205.6 204.2 199.5 194 187.6 179 170.6 162 151.9 145.2 136.2 125.5 115 107.1 100.5 94.5 91.4 87.2 83.1 87.6 87.5 92 97.7 103.9 108.8 112.7 119.6 129.8 137.5 152.2 163.5 177.9 192.9 208.5 223.5 242 260.3 278 298.6 315 325.9 328.5 312.1 294.6 276.8 310.1 319.1 325.8 350.7 376.8 403 425 458.6 487.3 503.7 509.7 511.8 514.9 509.5 504.9 496.8 486.5 477.1 459.5 445.2 427.3 407.5 381.6 356.6 327.8 293.8 265.1 233.6 195.6 162.8 135.3 111.5 90.4 73.7 62.3 50.9 42.8 38.6 35.2 33.3 31.9 31.1 32 31.5 31.3 32 34.4 42.1 50.3 62.8
215.3 224.7 231.9 236.9 242.6 249.7 258.4 265 274.7 279.3 284.9 293.2 302.5 313.7 327.1 336.7 346.6 361.2 371 361.6 381.9 405.9 429.6 447.7 463.8 481.1 499.5 514 532.3 557.4 575.8 588.7 600.2 608.8 614.7 616.7 622.2 623.2 618.5 608.2 579.4 555.4 528.6 503.2 485.2 471.6 464 458.5 457.8 456.2 453.9 453.5 451.1 447.3 438.8 430.7 429.8 434.1 437.8 438.9 438.2 439.2 445.7 451.3 457.6 460.8 462.5 469.8 477.7 488.6 498.2 514.5 532.6 545.2 560.3 558.9 537.4 502.6 477 447.9 419.6 393.4 370.9 357.8 349.2 342 352.1 358.2 356.6 351 342.7 332.6 322.1 307.5 291.4 270.7 254.5 240.1 232.7 218 206.6 210.7 210.7 206.6 198.6 187.9 184 183.2 177.8 172.1 167 158.4 151.7 142.7 135.6 127.5 117.9 110.6 99.6 94.3 90 87.3 84.8 87.8 92 91.7 98.1 102.8 111.1 118.2 127.1 132.6 142.4 155 166.1 182.8 199.3 214.4 232.8 248.4 267.2 287.5 304.7 326.3 344.7 357.2 355.2 342.6 324.8 304.9 324 349.9 361.1 363 389.1 420.4 444 465.8 489.3 505.7 510.2 509.8 510.7 503.8 498.6 496 486.2 473.8 458.4 442.3 420.9 404.8 374.6 345.6 315 284 255.1 224.7 190.6 160.6 133.5 112.6 90.1 75.8 62.3 52.1 44.9 38.3 36.9 34 33 32.8 31.9 32.6 32.6 32.6 38 48.5 57.8 72.2
219.3 227.1 235.1 241 246.1 253.2 262.5 268.1 276.3 281.7 287.9 296.2 308.1 324.9 333.5 343.4 353.8 372 384.7 395.8 405.8 413.8 415.1 433.4 451.1 470.2 489.6 507 523.7 544.4 563.7 582.9 596.8 606.6 612.8 619.8 625.2 629 629.4 624.2 601.9 571.7 544.5 519.5 500 485.4 476.1 469.5 470.5 464.6 463.4 461.9 456.2 449.7 444.2 439.4 438.6 441.2 445 449.7 449 453.7 460.8 464.8 469.6 472.3 474 477.8 482.4 492.4 501.5 519.6 538.7 555.9 573.6 576.9 549.6 513.2 480.4 450.6 425 395.3 365.2 341.3 325.3 314.2 323.6 326.1 325.2 318.6 312.6 301.3 291.3 278.8 264.4 249.4 234.2 221.5 210.7 203.4 195.1 190.9 188.5 188.2 182.8 175.5 168.3 164.8 164.1 160.8 156.4 149.6 141.8 135.7 126.9 120.6 115.1 110 101.6 97 90.1 87.3 89.6 91.5 97 98.1 105.9 110.1 117.7 127.4 136.6 148 160.1 168 184 202.6 218.7 238.3 258.2 276.9 293.6 316.4 333.8 352.7 370.1 378.7 380.5 365.6 347.4 328.6 327.4 359.4 387.5 405.6 420.3 437.3 454.6 479.7 493.4 506.4 513.6 510.7 507.7 504.4 498 493 482.6 471 456.9 435.7 413.4 396.9 367.5 334.3 303.4 276.1 246.8 219.1 187.1 156.1 133 109.8 90.4 74.5 61.4 51 42.6 38.6 40.8 35.6 33.8 32.5 32.9 33.1 33.5 36.4 47 57.2 70.5 86.8
220.1 228.4 238.9 244.5 250 256.2 263.3 270 276.4 284.2 291.9 301 315.2 328.7 340.1 348.1 362.2 379.4 393.5 407.2 421 431 435.8 440.4 436.9 456.4 476.7 497.2 515.3 531.7 549.8 572.4 589.6 601.4 610.8 620.8 628.6 639.9 642.7 647.4 623 591 562.6 534.8 514.6 495.8 483.5 476.8 474.7 469.5 469.3 465.1 461.5 457.1 454.1 449.2 443.4 450 450.9 458.3 459.3 466.3 467.7 475.8 479.1 481.4 483.4 484.4 489.3 495.6 509 525.6 546.9 569.6 588.7 591.4 564.5 529.4 490.6 458.6 428.4 399 370.3 341.7 315.7 289.8 292.7 296.6 295.5 288 281.5 271.7 262.6 251.1 241.4 228.9 216.1 205.3 196.5 188.7 181.2 176 175.4 173 171.3 163.6 156.9 154.2 150.7 148.5 146.2 142.1 134.5 127.6 122.5 115.4 111 105 100 96.5 89.9 91.2 92.4 94.3 101.1 105.9 111.5 122 128.7 138 148.8 161.9 172.6 191.1 204.9 222.2 243.2 262.5 284.1 301.5 323.1 342.7 367.5 380.8 393.3 400.3 398.3 384.8 371 352.5 325.8 367.4 401.7 425.9 445.8 460.9 477.6 493.3 511.3 510.1 511.8 511.9 508.2 502.7 498 490.1 481 467.8 450.8 429.6 407.8 386.2 355.9 323.1 293.8 264.6 240.6 213.1 177.2 149.9 128.9 107.3 90.9 75.2 61.1 47.9 42.5 39 38.1 36.1 34.2 33.3 34.1 34.1 37.3 43.6 56.1 70 85.9 95.6
220.7 229.8 238.8 247.9 254.4 260.2 265 271.1 277.6 284.7 294 304.1 319.5 332 342.5 353.7 370.6 384.9 402 419.4 431.5 442.4 450.2 457.1 464.5 466.9 467.6 483.3 502.8 519 537.6 558.9 579.1 595.3 609.9 620 629.8 640.9 651 650 647.1 609.1 576.9 547.6 521.5 510.1 492.1 482.1 478.8 476.7 477.1 474.3 471 465.4 464.2 458.1 451.9 458.1 459.7 465.3 468.9 474.3 481.1 478.8 488.6 492.9 493.7 495.1 496.5 501.5 513.7 535.1 555 579.8 599.4 607.2 583 546.1 516.1 481.4 436.4 404.4 373.2 345.7 318.3 295 272.8 269.6 266.3 260 251 246.7 239.3 228.2 220.9 214.3 205.2 192.7 183.2 175.4 169.1 166.9 164.7 163.4 158.4 153.6 149.1 146.3 141.3 140 136.8 135.9 133.7 127.1 119.2 112.2 108.6 105.7 99.9 96.1 93.1 95.3 99.5 102.8 110.1 115 120.2 129.5 139 149.1 160.1 175.1 193.7 208.4 226.4 244.3 266.4 289.3 309.7 328.3 352.3 373.2 393 413.8 425.1 425.1 418.9 405.5 392.3 379.6 361.7 376.2 410 441.8 465.1 478.9 496.2 512.2 518.5 517.6 514.4 510.9 507.6 501.5 496.1 487.6 475.3 459.8 443 423.2 400 370.6 344.4 313 284.3 256.1 229.8 202.5 170.9 147.4 125.9 105.9 93.1 80.9 62 47.5 40.5 38.3 35.9 35 35.4 36.5 36.2 38.5 42.7 51.4 65 82.1 94.1 106.1
221.2 230.9 240 250.1 257.2 263.5 268.2 272.7 278.8 286.4 296.5 307.7 323.3 334.3 348.8 361.8 376.5 391.8 411.2 428.7 443.2 456 463.5 471.7 480 487.2 486.1 489.6 488.1 510.4 527.4 549.4 570.9 585.8 604.9 619.1 635.5 644.1 650.9 652.9 650.6 634.9 590.2 563 538 515.7 505.2 493.5 487.6 488.7 490.2 486.8 480.4 477.9 474.6 468.3 461.6 467.2 468.9 474.3 479.2 482.2 489.5 493 495.3 500 505.5 506.2 508.8 513.5 523.5 545.6 565.6 590 614.9 623.1 602 572.8 538.8 506.2 465.3 416.7 382.3 352.4 323.6 297.6 276.7 253.2 242.3 235.9 226.6 221.6 216.6 212 203.5 197.9 191.4 185.1 174.9 164.5 160 157.6 154.5 154.1 151.6 147.9 143.3 136.8 136 132.4 130.9 130.8 127.1 120.9 115.7 110.3 106 100.4 98.1 94.8 97.6 101 103.3 110 116 123.5 132.2 141.1 147.8 160 175.7 187.8 206.1 225.2 243.9 265.9 289.6 314.4 335.6 353 374.7 398.1 420.6 435.3 450.7 454.5 446.2 429.9 415.1 403.4 393.1 385.1 422.5 455.4 481.1 498.2 512.1 526 530.8 529 521 510.4 500.3 494.6 486.5 475.4 463.7 450.2 433.9 413 386.6 357.8 329.2 302 276.5 247.4 219 188.8 162.4 141.3 118.8 102.4 92.6 81 63.2 50.3 41.1 37.6 36.7 36.7 37.6 38.1 38.1 41.8 47.1 59.8 73 87.5 100.4 115.6
223 231.5 241.3 250.8 259 265.2 270.3 275.6 280.7 288 299 312.5 325.6 339.1 354.7 366.3 382.8 398.7 419.5 438.5 453.8 465.3 475 485.6 495.5 499 503.9 505.9 514.7 516.1 517.4 543.5 562 579.1 597.9 617.8 635.3 643.8 650 654.4 655.3 647.8 610.3 579.1 555.3 531.3 516.1 509.3 503 504.1 503.3 498.2 492.9 488 480.1 478.4 476.2 478.6 478.2 487.7 492.2 493.3 496.4 502.3 505.8 512.1 512.8 514.7 515.8 522.2 534.8 555.4 575.6 600.3 622.7 634.5 623.9 594 556.4 514.1 475 427.8 391 359.5 331.2 302.5 276.9 260.7 244.3 225.8 211.7 201.2 196.3 195.8 189.1 183.4 178.4 172.6 167.1 162.3 156.6 152.3 148.1 149.1 143.8 141.8 139.5 137.6 129.3 129 125 123.5 117.4 113.2 110.5 107.2 102 97.1 99.3 100.6 104.1 105.5 110.2 118.1 125.7 136.9 144.9 158.8 158.2 173.1 188 203.7 221.1 241.5 263 285.8 310.6 335.5 360.7 375.3 400.4 422.8 445.6 462 471.9 476.9 472.7 461.5 450.5 430.3 422.1 415.1 433.6 466.1 497.2 517.1 525.4 540.1 543.9 540.6 531 508.6 490.7 480.1 470.4 460.2 447.8 433.1 419.1 397 366.6 338.4 313.7 290.1 262.7 237.3 208.3 179.9 152.4 131.3 112.2 100.1 86.9 77.3 62.2 47.4 40.7 37.8 39.5 38.9 39.1 38.1 39.2 43.3 52 63.6 79.3 92.7 107 123
223.3 233.1 243.8 252.8 260.4 266.9 272.2 278.1 283.8 289.9 301.1 313.4 330.9 344 360.2 372.3 387.4 405.8 427.7 447.2 461.4 475.5 489.5 500.3 509.4 514.6 518.2 526.5 527 531.5 535.1 530.9 555 575.1 591.1 611.8 628.2 644.1 653.2 655.7 657.1 653.6 631.7 593.2 567.6 550.2 530.7 520.9 512.5 507.4 506.1 505 502.5 497.5 491.5 490.7 490.6 490.8 493.4 499 504.5 506.6 509 513.6 514.3 515.1 521.4 524.5 526.6 533.3 545.2 564.3 586.5 609.7 633.2 643 630.8 601.4 563.1 515.6 479.6 429.7 391.4 361 331.7 306.9 282.6 260.6 245.1 226.9 215.5 205.8 197.9 182.6 176.8 173.2 169.2 170.8 159.9 153.7 149.8 145.8 143.5 141.5 139.1 136.8 135 134 129.5 125.4 121.4 116 112.9 109.8 106 102.2 99.3 101.2 104 107.3 114.1 113.8 120.9 129.9 138.2 147.9 160.5 167.7 174.7 179 197.8 216.9 236.8 256.5 280 304.6 330.5 355 378.3 399 420.7 445.8 467.6 488.7 496.6 501.2 499.6 490.8 481.4 463.1 453.1 448.2 451.8 480.9 512.3 534.7 545.6 554.7 556.1 549.4 535.5 504.2 471.4 455.6 446.8 436.2 424.2 411.1 395.2 372.2 344 320.8 295.9 275.1 252.4 227.3 203 168.1 144.3 124.7 106.7 92.6 83.5 71.4 59.8 47.7 40.8 38.3 39.8 40.6 39.8 39.1 41.7 46.9 55.8 74.9 89.3 99.6 115.1 135
222.3 235.4 245.1 253.3 261.1 267.2 273.5 279.9 285.9 292.1 302.5 315.2 332.6 348.9 365 380 392.5 413.4 434.7 455.1 470.8 489.5 501.7 512 522.9 529.5 535.8 540.6 545.1 547.9 553.9 555.3 560.5 563 586.8 607.2 620.6 637 648.8 659.7 660.6 659 649.7 612.3 587.9 565.3 544.7 529.9 519 514.5 516.5 514.9 511 507.5 505.1 504.6 506.9 508.5 518.1 525.8 521.8 522.3 525.5 523.9 524.8 526.4 527.6 531.5 540 546 560.8 578 599.7 617.8 636.4 646.8 615 582.4 548.1 508.9 460.6 422.4 388.4 353 323.7 298.1 276.5 258.5 235.7 219.7 213.2 201.1 196.1 189.3 177.8 168.3 162.4 157.8 152.2 150.8 147 143.4 139.4 138.8 136.2 133.9 133.1 131.3 127.1 123.8 118.7 115.5 108.3 104.9 101.8 102.9 101.9 107.5 109.4 114.5 120.7 124.3 130.1 142.2 150.3 163.7 172.8 181.6 189.9 196.6 197.4 226.7 247.6 270.1 295.2 321.6 348.4 370.6 394.8 417.8 437.6 461.5 485.3 503.6 516.4 524 525.3 518.8 514.6 501.3 489.3 485.5 491.9 502 528.5 551.4 565.1 569.3 568.1 555.6 531.7 500.3 461.6 426.5 419 408.7 396.9 382.7 367.6 346.3 323.8 301.3 281.1 258.9 236.2 216.4 193.4 163.3 139 119.2 103.3 88.4 77.4 65.2 54.8 45.7 41.1 40.8 41.5 41.7 40.7 41.6 44.5 51.3 62.3 76.3 93.2 107.8 124 142
224.6 235.8 244.9 253.1 260.2 265.7 272.7 279.9 287.4 293.8 302.7 316.9 335.7 353.5 370.1 384.6 402.3 422.6 441.4 462.5 483.3 498.5 513.4 525.3 533.5 542.4 549.1 554.5 562.9 566.3 570.7 571.8 575.7 579.9 586.4 599.4 618.5 637.3 649.2 663.8 663.5 661 651.5 639.1 617.2 587.2 561.6 547.2 535.1 527.2 525.7 521.8 519.3 517.7 517.3 520.3 521.7 538.2 539.7 539.1 538.5 536.1 536.4 532.7 535.1 535.7 536.1 540.4 548 558.9 575.6 592.7 616.1 632.2 643.7 636.6 600.5 566 529.4 492.4 453 419.2 385.3 351.1 312.9 293.2 269.8 255.4 229.9 211.5 203.2 194.7 186.4 177 170.9 164.3 160.8 154.4 147.6 146.4 143.8 142.8 139.1 136.5 131.5 128.1 131.2 128.9 124.9 120.5 117.8 109.9 108.3 108.9 109 108.4 108 110.1 116.8 124 129.3 138.4 145.9 157.2 169.1 179.3 189.7 201.6 207.1 210.2 208.9 235.8 260.5 284.3 310.8 335.6 359.7 382.8 405.1 426.9 446.7 467 488.3 511.1 528.8 536.1 543.8 547.3 546 539.1 532.6 527.3 527.9 536.5 549 570.9 586.3 589 576.9 555 527.1 491.6 455.4 411.5 382.6 376 367.2 354.4 337 317.3 299.4 281 263.5 243.4 225.1 203.9 180.4 154.1 131 111.6 97.4 85.8 72.5 64 54.4 45.8 40 41.6 42.6 42.5 42.3 45.4 49.5 55.7 67.6 81.1 97.5 114.3 132.9 149.9
227.1 237.3 243.7 251.5 259.1 264.3 270.2 277.4 286.1 294.8 303 316.6 334.6 352.5 370.1 389.4 409.3 430.5 450 470 494.5 510.7 523.9 537.2 544.6 555.3 559.3 569.4 579.1 586.3 588.6 590.9 591.9 594.8 602 607 608.5 633.8 651.9 662.3 666.7 665.5 665.4 646.3 638.7 601.1 578.2 561.4 548.6 541.6 538.1 536 534.2 531.5 532 533.6 536.9 546.1 544.8 544 543.2 546.1 550.2 545.3 549.1 549.1 546.3 550 558.9 571.3 589.2 608.2 629.2 647.5 657 623.3 583.3 549.6 517.9 484.8 449.5 415.2 378.1 346.1 310.7 284 257.4 243.3 221.8 205.4 201.1 194.3 185 174.4 166.1 160.1 155 152.4 149.4 146.4 143.2 138.6 133.1 133.6 130.7 126.5 119.9 118.7 116.2 112.9 111.9 110.4 110 114.6 115.3 114.4 115.1 118.9 127 136 144.4 152.5 162.2 174.5 187.6 196.8 208.4 221.1 232.6 233.8 217.9 244.6 273.4 296.7 316.4 338.3 362.7 380.9 402.8 421.8 441.4 463.8 484.9 506 530.3 546.2 558.2 568.5 570.1 567 562.7 558.6 558.9 563 569.9 587.8 600.2 584.4 563.6 541.2 511.8 481.4 449.2 414 367.3 338.6 334.9 323.6 308.5 290.8 273.6 257.8 244.7 230.8 214.5 195.5 167.3 143.6 122.3 105.1 91 77.7 70.6 58.3 45.7 40.9 43.3 44.8 43.9 44.3 44.9 46.7 51.7 61 71.6 87.6 104.4 122.4 140.5 161.4
226.4 238.3 244.9 251.1 258.9 264.4 269.9 276.7 285.9 294.6 303.4 317 335 352.1 371.8 392.8 415 433.9 455 478.4 501.8 522.9 536.1 544.5 559.9 567.6 578.5 585.6 590.5 600.4 604.6 607.4 607.1 609.6 614.7 620.2 624.2 638.4 647.5 663.6 669.7 673.3 671.7 655.8 644.5 609.4 592.8 575.9 564.4 560.1 558.6 552.3 545.6 540.4 542.3 548.3 547 549.5 555.4 566 561.2 561 559.8 560.7 558 561 560.4 560.2 571.9 581.8 600.3 620.7 644.2 659.7 657 615.8 576.1 543.1 510.8 480.3 442.7 405.1 370.6 336.5 304.6 275.5 251.8 228.7 218.2 207.2 194.1 190.5 184.3 177.2 170.3 164.6 160.9 155.5 152.4 150 147.5 143.1 137.7 131.8 134.4 131.5 124.6 127.6 129.4 118.2 116.1 116.8 117.6 122.3 125.8 124.7 127.3 131.2 138.3 146.3 157.6 166.8 180.6 192.1 208.2 220.2 232.2 246.7 260.6 259.4 241.8 239.3 261.8 276.2 295.7 320.1 344.2 366 384.6 404.7 427.4 451.2 474.6 499.3 523.5 545.5 565.4 579.2 588.5 588.4 584 578.5 575.7 577.7 580.9 574.6 567.5 551.3 530.1 510.8 488.4 461.3 434.5 406.2 375.6 337.4 300.3 294.2 279.4 265.3 251.9 238.4 226.2 214.6 200.1 182.6 159.6 135.1 115 98.5 84.5 78.5 64.1 53.7 45.2 43.3 45.2 46.3 45.7 48.2 47.3 50 55.9 65.6 78.7 95 113.2 134.4 155.8 174.6
224.3 238.7 246.1 253.1 260.1 264.8 269.1 276.5 285.4 294.2 304.6 317.5 335.5 351.8 370 393.5 416.4 438.8 460.5 484.9 510.4 529.6 543.6 558.4 570.4 579.2 589.2 594.5 602.2 610.8 616.3 619.2 622.2 623.3 626 627.2 633.1 649.3 658.4 665.2 671.8 679.5 686.3 670.4 649.1 627.9 605.3 589 576.5 568.3 568.8 567.6 559.8 550.2 551.2 553.4 552.7 555.6 568 572.2 571.2 571.3 571 571.9 571.5 578.1 579.2 578.6 584.5 595.8 611.3 631.5 661.6 675.7 656.5 612.2 570.7 538 506.6 474.1 440.1 401.5 364.8 330.9 298.3 268.8 246.5 238.1 230.9 220.6 213.4 202.2 194 186 180.8 175.8 167.3 160.8 157.3 155.7 151.4 145.2 140.9 135.6 133.3 130 128.9 128.4 129.5 128 125.4 127.3 127.4 129.3 133 136 139.1 146.6 152.7 160.9 171.2 183.9 198.7 213.7 228.4 245.4 260.8 276.6 287.8 292.7 280 271.9 273.2 268.1 282.9 299.3 317.2 342.3 354.3 387.8 413.4 436.5 462 490.4 518.8 541.8 564.3 586.8 595.1 598.3 594.8 590 574.2 559.9 551 544.1 533.1 518.5 497.6 478.8 459.2 436.1 413.4 390 362.7 335.9 305.4 272.8 250.1 241.3 228.4 214.6 209.7 201.3 185.6 171 152.5 128.6 108.9 94.5 80.1 68.1 56.9 50.2 44.9 45.7 47.6 47.6 47.9 51.6 54.3 58.2 63.6 72.1 83.8 101 118.6 141.3 164.7 185.9
229.3 236.8 246.2 253.8 260.1 264.7 269.4 276 283.9 293.2 303.4 316.5 334.6 352 370.6 395.1 418.4 442.7 464.7 489.8 514.9 535.9 554.5 569 582 590.2 600.5 605.7 614 619.6 626.1 629.3 632.7 633 635.3 642.3 645.6 657.1 662.1 668.4 676.4 688.8 697.7 690.3 663.8 640.8 625.5 598.8 591.1 578.7 577.1 574.6 573.2 567.6 561.8 564.9 565.3 566.1 572.1 575.1 577.3 578 579.6 583.2 593.3 605.8 602.9 601 602.2 612.6 627.9 650.6 676.8 689.5 655.8 611.3 566.9 535 503.6 469 433.9 397.3 361.6 330 301.4 283.6 271.7 260.9 248.8 234 227.4 218.3 206.3 200.4 196.1 185.7 177.7 167.9 160.7 155.5 152.3 147.6 142.1 137.4 135.5 135.3 133 130.6 130.1 131.6 135.9 136.1 138.2 137.1 141.3 148.3 155.7 160.9 167.6 177.5 188.8 200.9 215.5 234.4 254 270.7 291.6 308.3 320.7 325.6 314.7 310.3 309.9 303 318.4 328 323.5 349 372.5 389.6 400 437.7 465 491 516.7 539 562.5 586.2 596.7 596.6 581.6 563 544.4 527.3 512.5 503.3 497.3 485.1 465.5 446 427.8 406.1 385.8 361.6 338 314.3 289.1 267.8 246.9 218.8 207 196.3 194 186.4 171.8 159.4 139 120.1 107.8 95.3 77.9 60.9 53.7 48.7 43.6 48.6 49.5 49.5 49.3 51.5 54.6 58.4 68.8 81.3 94.7 107.7 129.3 149.7 174.3 198.1
232.2 236.4 246 252.7 259.7 265.5 270.3 276 283.8 292.5 302.5 315.4 331.5 350.1 370.9 394.3 419.8 445.1 468 493.6 518.7 541 560.3 576.1 588.8 597.9 608.4 614.7 623.3 628.9 637.5 645.4 647.2 651.9 654.2 656.7 659.3 666.6 671 673.7 687.9 700.1 709.2 711.1 679.7 654.7 633.7 620.7 609.4 590.3 585 581.1 576.8 573.1 570 572.7 574.5 577.9 570.5 581.4 578.3 580.7 587.6 603.2 620.7 638.4 633.5 627.6 625.2 633.6 647.2 672.6 697.3 696.5 647 601.5 566.5 532.6 499.2 464.3 428.5 396.7 362.9 333.9 316.1 315.1 304.8 291.9 269.7 255.3 242.8 232.9 224.2 213.9 207 195 184.9 176 173.1 163.3 159 153 147.7 142.8 138 140.8 137.7 134.3 137.2 137.4 141.8 146.7 145.2 145.5 151.1 161.4 171 178.2 188.1 196 212.2 225.1 235.3 257.4 281.1 301.9 324.8 341.7 359.4 360 352 347.4 341.6 339.4 346.3 362.5 372 376.7 395.8 420.6 433.8 452.8 474.6 503.2 523.2 543 559.1 574.8 583.4 568.1 549.3 531 511.4 494.6 476.6 466.4 460.3 450.5 433.3 414.7 395.6 375.7 356.1 334.2 308.9 288.9 266.1 247.2 228.7 209.4 187.4 175.6 175.3 167 157.3 145.1 128.2 113.4 99.9 89.2 75.6 58.1 52.5 45 49.1 51 50.8 50.8 50.8 53.8 57.5 63.1 73.8 86.3 101.2 118.8 140.5 159.5 183.6 217.8
234.2 235.4 245.8 252.2 258.5 264.3 270.2 276.5 284.6 292.7 302.3 316.1 331 349.5 367.8 391.1 418.1 443.9 468.4 494.6 520 543.6 564.6 581.6 595 606.4 617.2 624.2 629.5 638 650.1 658.7 663.3 664.6 666 668.9 677.9 677.2 676.1 683.6 695.6 710 722.4 743.7 697.4 669.7 655.2 637.4 624.3 612.4 597.2 589.7 584 578.6 581 581.8 583.3 579.9 578 578.5 584.5 587.4 603.9 630.1 662.5 690.6 680.7 662.8 653.9 660.6 673.5 697.2 719.2 687.8 640.8 597.5 563.9 532.5 496.5 462.8 430.8 398.3 371 343.3 344 344.6 340.3 323.9 306.3 283.1 263.8 252.1 241.7 229.7 219 208.6 197.5 188.9 182.3 175.4 166.5 161.7 154.9 151.3 148.5 147.1 145.1 145.2 146 153.4 152.3 153.3 153.4 157.2 166.2 174.6 182.7 192.4 207.3 218 232.4 250.4 263.7 280.4 309.5 332.3 356 380.9 396.6 396.1 387.7 382 374.1 374.6 381.9 393.6 403.3 416.2 428.5 446.1 463.9 482.4 503.2 526.9 539.6 554.6 563.9 566.9 557 535.7 512.8 502.1 480.8 460.7 443 429.5 422.3 416.2 399.4 380.8 362.7 344.2 324.1 305.6 282.5 262 241.4 226.2 206.3 189.4 176.9 160.4 155.5 152.8 142.8 131.2 120.2 108.9 93.2 81.3 70.6 60.4 52.4 50.3 52.4 53.3 52.8 52.3 52.9 56.3 63 68.3 80.3 94 107.7 126.1 147.4 173.1 199.6 233.3
239.2 239.3 243.6 248.4 256.9 263.9 269 275.9 284.4 292.8 301.9 316.1 329.5 347.4 366.8 389.6 414.7 441.1 467.7 492.9 518.7 542.1 565.8 582.9 597 610 620.6 629.4 635.6 646.9 659.2 668.8 672.6 676.8 679.7 679.9 689 688.6 687.5 692.8 705.3 722.5 740.1 759.2 764.3 697.4 674 654.1 645.3 632.6 617.3 604 599.1 591.3 589.3 591.2 586.8 583.9 580.4 581.1 590.4 605.5 626.6 657.2 710 724.3 706.3 698.9 688.3 693.5 708.3 722.6 749.3 698.3 641.7 599 564.6 530.9 496.3 463.5 431 402.5 381.4 374.5 377.7 404.7 396.1 384.5 352.1 324 297.2 277.2 262.8 250 240.2 229.5 214.1 205.2 197.6 189.1 179.8 174.6 169.9 163.1 162.6 155.6 156.7 161.6 157.1 160.1 162.5 168 165.7 171.2 185.4 194.7 202.3 210.3 226.1 242 257.5 277.9 296.9 302.2 334 362.8 390.1 421.8 436.5 435.8 428.3 417.8 407.6 404.9 414.5 425.6 435.6 447 457.9 474.4 493.2 512.3 534.5 560.7 576.5 574.3 573.7 571.2 541.4 507.1 485.1 466.9 447.6 428 408.8 390.5 385.1 381.8 367.6 349.7 331.5 312.4 290.6 273.5 254.1 237.6 217.8 199 183.5 170.2 160.4 146.5 140.8 136 128.3 124.6 113.9 100.5 90.8 74.9 64.8 60.1 53.5 51.9 55.7 55.6 55.1 54.7 56 59.1 68.2 75.5 88.1 99.2 116.9 134.8 154 182 213 253.8
242.9 243.4 249 251.5 254.4 262.7 268.8 275.7 283.6 292.2 301.3 314.1 327.8 345.3 365.2 387.7 411.9 438.5 463.7 489.3 515.1 542.4 562.2 580.5 596.5 610.5 622.2 631.8 639.8 655.5 668.9 677.6 688.8 697.1 697.7 697.6 698.5 700.7 700.1 709.5 722.3 742 757.1 772.8 792.4 775 730 677.9 660 646.4 634.7 620.7 612.4 601.8 604.3 610.2 604.4 596.4 595 592 605.1 625.4 652.3 682.9 746.5 742.4 725.5 728 726.4 734 741.8 757.8 760.4 703.3 651.1 605.6 572.3 539.3 503.8 468.1 436 412.9 400.8 401.1 424 412.8 413.3 409 395.3 355.4 344.8 319.9 301.3 290.5 271.2 251.8 238.6 225.4 217.4 207.6 199.4 191.1 184.4 177.5 175.5 172.5 168.2 172 170.8 171.2 175.3 180.9 188.4 196 201.7 214.2 227.3 237.8 249.1 265.2 281.5 304.3 330.2 342.8 357.6 391.1 421.7 453.2 473.5 474 465.7 455.3 445.7 442.5 448.6 458.2 469.7 479.3 490.1 504.5 522.6 542.9 569.8 583.4 594.5 596.1 582.6 562.1 533.6 498.9 462.7 434.7 412.1 397.8 375.8 354.6 343 341 335.2 321.5 303.6 285.8 267.9 243.5 227.4 206.4 195 174.3 158.4 149.8 141.7 134.6 125.3 122.5 118.4 114.9 106.8 95.8 82.7 69.4 63.6 59.4 53.4 56.4 57.7 57.9 57.4 57.1 58.8 63.1 70.7 80.9 92.8 109.1 124.8 141.5 167.7 196.1 226.7 264.1
249.7 245.3 253.1 258.3 258.3 259.6 267.5 274.8 283.2 291.5 300.3 312 324.7 344.2 363.7 385.5 408.2 433.9 458.7 484.5 509.1 534.5 555 573.1 590.8 605.8 620.4 632.8 643.8 659.7 674.3 689.5 709 722.5 728 727.9 728.3 727.1 728.4 732.1 745.8 760.9 775.2 790.6 808.2 822.9 782.5 732.3 688.6 664.3 649.4 636.4 626.2 618.1 615.7 621.2 616.7 610.3 608.4 613 623.8 649.7 686.5 725.3 762.4 767 754.6 754.8 762.6 769.8 779.6 798.1 759.4 713.8 665 618.3 583.7 546.1 515.6 481.8 455.3 435.4 423.1 425.2 426.7 421.3 418.7 415.5 391.9 376.1 369.9 364.3 357.3 351.5 327.6 290 269.4 255 242.3 235.8 224.7 217.1 213 204.7 197.4 192.7 192.1 189.7 190.8 188.5 192.7 200.4 211 221.4 224.1 233.9 248.3 264.7 277.9 293.5 314.2 335.1 359.3 379.3 379.1 410 441.3 472.6 499.5 510 506.6 494.8 483.4 480.8 479.9 494.1 504.7 513.7 523.9 535.3 553.1 571.5 595 605.5 601.1 578.5 561.7 527.7 505.6 475.6 442 400.6 385.8 363.4 348.6 325.4 305.9 302.8 302.3 290.7 277.6 259 235.3 217.1 197 185.1 169 153 137.2 123.8 119.6 117.3 116.7 109.9 109.8 105.2 99.6 86.3 73.6 61 57.6 55.9 53.1 57.4 59.5 60.2 59.9 60.2 61.9 65.9 73.7 85.9 101 118.7 135.9 156 180.9 207.2 246.4 275.2
257.9 247.1 254.9 260.8 264.6 259.3 265.2 274 282 290.4 299.3 310.6 323.7 340.4 360.2 381.6 404.6 426.8 451.5 477.4 502 524.1 546.9 564.2 582 598.2 615.2 628.9 640.4 657.6 674 690.9 710.7 736.2 754.9 762.2 759.5 756.9 755.6 757.1 766.6 780.9 794.3 809.7 823.7 837.9 823.2 791.9 754.2 703.9 678.3 659.9 648.7 639.8 634.7 632.7 625.5 624.6 628 633.6 646.1 670 711.5 747.3 789.3 795.6 785.8 783.8 792.4 808.8 825.7 818.8 776.6 736.9 681.4 631.2 589.6 556 523.3 497.5 477.7 471.5 452.8 444.4 439.1 432.6 424.8 416.9 408.1 398.5 395.9 391.6 386.2 373.1 356.1 339.6 310 314.6 302 277.8 260.1 251.7 242.1 236.5 227.9 223.1 223.7 216.9 215.9 217.7 218.2 222.4 231.1 240.6 249.6 254.6 276.5 293.9 309.5 330.7 355.4 369.4 391.2 404.6 421.3 440.7 461.9 484.6 505.1 526.1 534.4 534 523.6 518.3 518.1 526.5 537.4 551.3 562 575.5 588.6 607.5 617.9 606.2 581 550.1 526 505.1 468.6 435.3 409 383.6 355.7 332.2 319.8 299 274.4 268.3 267.2 260.1 248.9 233.3 214.1 191.5 177.1 162.7 148.4 134.2 125.3 122.6 115.6 104.2 100.7 101.2 97.8 94.9 85.9 75.2 69.9 68.5 68.8 60.1 60 55.8 60.5 61.9 62.5 63.8 65 69.7 77.8 92.5 107.6 125.9 144.2 165.6 190.1 217.9 257.1 282.8
258.8 253.1 258 261.8 267.5 268.7 264.3 271.2 280.4 289.4 299 309.2 321.9 336.4 356.5 378.6 398.6 419 442.8 466.4 489.5 511.1 532.2 550.8 568.2 586.2 602.2 617 630.7 646.7 667 685.8 705 729 751.5 772.3 787.7 790.6 784.8 783.4 791.8 800.9 815.5 833.1 851 864.2 854.4 832.6 810.6 756.6 708.2 688.6 675.2 666.2 661.9 657.2 653 650.3 655.5 664.4 675.7 697.1 732.1 765.5 808.3 825.4 821.4 824.4 833.9 847.2 858.7 821.3 781.7 739.9 689.1 640.4 595.6 565.1 535.4 520.4 507.7 497.1 491.1 480.8 465 452.9 438.6 426.4 414.3 412 406 402.4 402.6 393.7 381.4 355.6 346.8 337.4 340.7 341.8 317.5 298.4 296.2 274.3 265.4 257.9 252.6 249.7 245.2 247.2 251.4 251.6 259.1 267.5 269.3 284.2 300.9 324.4 348.6 365.3 388 399 406.2 419.8 437 452.2 471.2 493.1 513.7 534.4 554.9 562.9 564.5 557.6 554.6 561.9 577.4 591.7 604.2 616.8 627.9 623.8 609.5 585 553.5 524.2 494.6 465.4 429.5 400.7 376.4 352.4 334.5 310.3 290.7 274 252 231.6 233.4 226.4 219.8 202.6 188.9 170.9 150.8 142 139.1 137.5 143.1 136.6 122.5 112.6 105.5 97.2 91.9 89.5 89.6 83.9 77.9 73.3 65.3 61.8 63 62.8 59.3 64 64.5 66.3 68.9 73.3 83.8 99.2 113.1 133 152.4 178.5 207 235 267.9 293.9
262 259.6 258.9 262.8 267.7 271.4 270.4 272.6 280.8 289 298.3 308.2 319.4 334.5 351.5 370.8 390 411.1 432 453.2 476.7 496.7 515.3 533.3 551 569.3 587.3 603 620.2 635.1 653.2 673.6 691.5 712.9 735.7 758.7 778.3 795.9 808.7 817.4 823.1 828.8 841 856.8 873.3 890.6 884.9 867.3 839.4 808.1 765 737 712.3 707.7 707.2 695.5 689.5 690.7 699.8 705.8 711.4 730.7 750.8 791.7 814.8 819.6 825.9 836 845.7 854.9 849.2 813.6 777.7 734.4 693.3 643.7 607.1 571.1 549.4 540 531.1 516.5 507.3 497.4 481.1 469 449.7 438.4 435.1 423 417.4 416.2 413.3 401.9 387.7 373.5 365.2 358 356.4 361.1 361.6 353.3 347.7 334.9 334 296.3 286.5 284.4 278.8 280.4 281.5 288.8 289.4 291.7 302.7 304.9 327.9 352.5 369.4 381.2 402.4 407.1 419.2 434.2 445.4 462.7 478.7 497.3 514.8 538.5 565.5 585.9 595.2 600.4 594.9 597.1 615.4 633.8 645.7 650.7 635.7 615.1 588.9 557.7 531.1 500.7 472.3 441.7 409.4 375.5 348.6 322.2 302.8 286.5 270.2 248.7 231 209 197.8 198.3 191.6 181.1 161.9 157.4 157.2 152.4 150.5 154.3 151.6 141.9 130.4 118.4 109.3 101.5 94.7 90.3 88.6 82.4 81.3 68.3 64.9 74.6 65.7 64.1 60.1 61.7 63.9 68.2 72.4 74.4 88.3 103 121.1 138.2 159.7 191.8 223.2 250.1 278.6 302.4
264.4 261 259.5 265.1 267.3 270.4 274.4 273.5 279.2 290 299.3 308 317.9 330.7 345.6 363.9 381.3 401.9 421.6 440.6 460.5 480.1 498.4 515.8 533.9 552.4 569.6 586.7 604.3 619.9 637.9 657.1 676.5 692.3 711.8 736 758.6 778.5 797.4 813.1 827.5 840.5 853.8 869.7 889.8 908.8 923.8 911 881.2 832.9 800.8 776.2 759.8 748.8 737.3 734.6 730.2 729 737.5 747.3 775.8 768.9 768.7 777.2 777.8 787.8 794 803.9 819.5 828.5 820.2 793.4 763 728.7 696.3 659.1 618.7 588.7 574.6 560.9 548.5 530.8 520.5 520.1 499.1 482.1 469.7 463.9 448.5 432.8 431.7 428.7 422 413.9 402.5 394.5 388.8 384.1 378.2 374.2 374 371.4 364.9 364.7 361.3 349.1 327.3 316.7 310.3 314.8 321.1 321.7 325.1 321.1 331.5 338.7 348.4 370.3 391.4 399.5 405.3 410.2 412.5 428.7 447.9 462.8 484.3 501.5 520.9 542.2 564.5 594.4 612.3 631 634.4 638.6 654.3 670.1 670.4 657.9 632.2 603.8 569.5 536.4 506.2 475.1 444.5 415.2 390.2 360.5 328.1 290.8 275.3 260 245 228.2 211.9 205.4 207.6 196.6 188 182.4 180.6 180.5 171.2 161.7 164.8 167.6 161.1 147.1 137.1 126.8 114.7 105.5 98.2 94.2 89.9 83.9 77.6 66.3 71 72.6 67.6 66.2 66.4 65.3 64.3 67 73.8 78.4 89.8 108.6 127.1 147.6 172 201.1 237.5 262.3 289.2 310
263.9 262.4 261.6 265 266.8 269.1 274.4 280 277.1 286.6 296.5 307.3 317.4 329.3 342.3 356.1 373.1 392.5 410 427.9 444.6 463.6 482.8 499.6 516.6 535 552.6 569.7 586.4 603.3 621.6 636.8 653.6 669.8 688.1 707.9 728.2 753.5 774.5 793.9 813.7 832.9 849.6 867.6 888.2 909.6 930.7 945.6 928.6 882.9 839.7 815.5 798.3 784.6 776.3 768.4 762.2 763.7 790.5 798.8 768.2 751.8 739.8 733.7 733.2 745.1 751.2 767 787.5 795.4 788.7 767.7 738.9 712 689.5 672.1 639 619 600 585.6 573 555.7 542.1 530.2 516.2 500.1 487.7 473.9 457.9 448.6 446.3 443.5 439 431.2 423.8 418.6 413.8 403.4 398.2 384.2 375.6 372.3 364.7 356.9 353.9 355.2 343 331.9 336.5 336.6 343.4 351 357 355.1 361.1 365.8 376.4 380 391 413.2 414.4 411.7 411.2 421.1 434.4 454.7 478.4 500.2 521.1 542.7 566.2 588.9 619 639.5 659.7 674.6 692.7 695.4 682 663.3 628.7 594.2 556.5 520.6 483.6 449.7 416.8 389.4 366.8 343.1 313.2 285.8 254.7 238.6 230.9 232.9 233.4 236 231.4 220.9 211.3 210 206.3 195.5 183.1 178.8 182.4 181.2 176.6 159.8 147 132.8 120.2 110.1 102.9 98.2 88.4 83.3 75.8 74.3 73 71.2 68.8 69.5 70.2 71.4 70.5 70.6 70.8 82.8 94.6 112.5 133.4 156.3 183.8 212.6 245.3 271.1 296.9 316.6
265.2 263.2 261.3 264.3 267.1 268.9 272.4 279.1 281.4 284.4 293.1 304.3 316.1 328.6 338.6 349.7 365.6 382.1 398.6 414.1 430.8 447.8 465.1 480.6 497.4 515.8 533.3 552.6 570.9 587.1 604.6 621.7 633.9 649.1 665.2 682.8 702.8 724.9 746.4 768.9 789.6 809.9 830.9 851.4 872.5 895.2 918.2 939.8 954.5 937.1 879.2 856.3 844.6 832.2 801.5 799.3 798.8 822.1 803.6 769.3 740.9 728.5 718.1 701.8 697 703.6 718.7 734.4 756.9 764.6 758.5 740.7 714.7 697.2 681.6 672.3 660.5 648.4 635 622.9 610.1 586.1 566.5 560.1 545.3 524.9 504.9 490.9 480.8 469.2 464 461.7 455.8 451.9 445.2 437.3 429.4 411.8 403.1 385.9 376.3 361.2 350 338.8 331.3 336.4 329 322.2 323.1 330.5 338.9 356.8 368.1 381.7 383.3 390 389.6 393.4 387 394.3 397.1 400.7 408.1 411.5 419.8 440.2 470.7 493.3 517.7 543 561.2 585.3 609.4 639.7 660.9 681.3 694.3 688.6 676.7 655.1 625.5 590.1 551.9 518.1 479.7 443.8 408.1 367.2 336.4 315.4 294.8 268.6 259.5 263.3 261 260.2 260.3 253.6 247.6 243 234.9 230.1 220 206.2 198.8 198.4 200.1 197.3 188.2 170.7 156 137.4 125.9 112.5 104.8 94.5 88.6 80.9 74.6 78 76.4 73.6 70.7 71.8 74.6 77.7 79.1 75.9 77.4 80.9 97.9 115.2 138.7 161.1 186.3 217.7 244.8 273.8 297.3 317.5
265.5 263.9 264 264.8 266.3 268.7 271.7 277.2 284.7 289.1 288.8 300.6 311.8 322 334.1 345.5 358.2 372.2 387.2 401.2 417.6 432.7 444.2 463 480.5 495.3 513.7 533.2 553 572.5 590.4 604.3 621.1 633.5 646.2 661.8 678.6 697.7 718.6 735.4 758.3 777.6 803.1 824.5 846.8 871.2 895 919.2 942.8 957.7 950 906.2 877.5 860.4 852.5 833.8 826.2 802.9 769.3 745.6 716.9 701.4 694.3 677.2 668.1 675.7 688.2 704.7 724.1 735.8 726.4 710.3 696.4 681.8 672.1 667.3 658.9 648.9 639.7 631.6 626 612.7 602.1 588.4 566.6 544.4 525.9 513.4 504.8 499.1 487.6 476.3 472 465.6 456.5 441.1 432.2 422.2 409.6 388 375.3 360 347.3 333.5 317 306.3 309.6 309.4 311.7 319.7 326 340.5 369.8 384 391.4 398.9 397 398.1 387.8 386.5 386.2 382.1 388 398.9 410.6 423.4 453 484.5 511.9 538 562.2 575.5 597.4 618.3 641.6 658.3 664.8 661.6 650.7 632.8 606.1 573.9 537.9 502.4 469.8 435.9 401.5 362.2 329.3 297 266.7 276.2 286.3 290.4 291.3 290 283.6 276.2 270.8 262.4 255 242.9 233.2 217.6 214.8 219.9 217.2 209.7 197.1 184.1 163.6 148.7 133.3 115 106.7 97.7 90.5 78.2 81.1 82.5 79.8 76.8 76.9 76.2 82.6 87.3 84.7 82.8 89.4 81.4 93.1 118.4 138.7 164.4 185.8 214.7 241.3 269.8 293 314.4
267.5 266.2 267.6 269.7 267.7 272.9 274.4 276.4 284.3 291.7 293 294.8 304.9 316.1 326.6 338.6 350.5 361.9 375.4 390.3 403.4 414.6 431.1 446.9 461.3 478.6 496.3 514 537 556.1 573.2 589.4 603.1 618.8 628 642.8 658.3 676.8 690.1 706.7 725.2 742.3 761.4 785.3 815.1 842.3 869.8 897.2 924.7 948.4 960.3 967.1 933.4 897.9 864.8 825.6 802 764.4 740 717.7 691.9 676.2 670.9 655.6 647.4 647.8 658.6 672 688 704 699 689.7 672.1 665.8 659.3 656.1 652 642.4 635.2 629.1 619.2 614.3 606.2 596.5 585.5 570.2 554.1 541.8 533.4 521.3 506.3 493.6 485.6 476.8 465 453.4 441.5 426.4 408 387.7 374.2 356.7 341.9 326.5 314.1 300.5 294.7 289.2 288.8 296.1 310.5 325.1 344.1 366.4 388.6 403.7 398.1 398.7 398.8 385.9 382 376.8 376 384.2 395.2 412.4 434.1 469.5 499.6 524 552.4 568 584 599.5 613.7 626.6 632.5 629.7 621.9 607.7 587.5 556.1 525 490.5 456.7 425.9 391.1 357.3 323 292.8 291.7 300.5 312.8 321.9 325.4 319.9 313.1 301.8 292.5 281.1 270.6 259.8 245.4 234.7 236.3 237.3 232.4 223.4 209.5 193.7 173.3 155.3 139.8 123.3 109.1 101.7 91.5 79.6 85.4 86.3 86.3 85.1 85.5 87.5 98.7 98.9 90.5 88.2 94.1 98.3 81.5 109.2 133.6 156.7 179.7 208.3 236.7 262.1 286.9 308.8
272.5 270.8 273.3 273 274 272.4 277.5 279.9 283.6 291.6 296.6 296.3 299.5 308.3 319.6 330.9 342.3 352.3 362.8 376.7 390.5 401.6 417.1 430.5 448.1 464.5 479.5 500.3 520 535.5 552.7 570.7 587.7 600.2 615.2 627.5 642.8 659 677.4 684.9 697.6 715 732.3 753.3 773.9 810 842.9 874.5 903.4 932.9 951.6 951.2 913.4 871.4 829.3 796.5 766.7 737.4 715.7 694.1 668.5 653.8 645.3 635.9 629.8 628.3 634.9 646.1 656.8 663.3 660.3 656.8 653.2 651.5 643.1 643.8 639.7 632 625.9 621.2 612.3 606.8 603.5 594.3 588.3 582.3 570.7 560.1 552.3 534.8 520.7 506.7 495.2 483.3 470.5 457.4 441.9 427.1 406.2 387 372.8 356.2 339 323.6 308.6 298.2 290.1 283.6 280.1 289.3 302.4 321.8 337.4 363.5 377.8 396.4 412 395.1 392.4 377.6 377.9 375.6 372.8 374.6 386.1 402.4 422.2 445.5 479.3 507.4 536.1 567.7 577.1 589.9 607.2 615.4 614.4 608.6 602.1 587.8 563.8 536.7 506.7 475.9 446.9 416.3 383.7 353.8 323.5 295.2 314 329 342 350.8 353 351.4 351.9 327.2 314.6 302.8 291.9 275.9 262.1 260 258.4 255 248.7 239.4 226.9 209.9 188 165.5 147.9 127.4 111.3 100.1 88.1 88.4 92 93.2 95.5 98.3 101.7 107.7 117.1 114.5 101.8 90.6 101.6 104.5 94.6 90.8 121.6 150.3 170.7 196.9 224.9 253.8 277.8 302.4
277.2 275.3 277.3 277.7 277.4 277.5 279.8 283.5 286.4 290.6 298.8 302.8 306.1 303.7 313 324.2 333.1 340.9 351.1 359.1 376.7 389.8 404.3 419.3 434.1 449.9 468.3 482.8 497.7 514.1 533.2 552.6 569.5 585.5 598.2 615.7 630.2 645.8 660 674 679.3 688.8 705.2 726.5 750.4 777.6 815.3 850.5 883.2 914.7 939.9 931.9 877.2 846.4 812 780.1 749.4 720.5 698.7 675.7 654.2 643.2 633 618.6 611.9 609.5 611.4 614.6 620.4 629.7 627.9 629.5 632.8 633.7 631.7 629.9 629.1 624.6 617.7 611.8 605.4 595.5 589.7 586.4 584.1 583.4 573.1 565.3 555 542 529.3 516.6 505.4 488.8 470.7 457.6 440.6 423.5 403.9 388.4 371.8 356.4 337.9 321.2 306.7 295.6 285.1 277.2 275.9 281 295.8 308.8 325.8 348.3 374.5 390 408.5 399.6 390.7 376 370.4 373.3 371 373.8 382.6 397.2 415.8 433.1 463.6 495.4 521 549 571.5 582 595.1 600.6 597.7 594.1 588.9 580.7 555.7 524.1 491.4 462.2 434.4 403.8 372.5 347.7 324.6 320.4 337 355.7 370.7 380.6 382.7 382.8 382.4 378.1 345 327.7 311.4 296.5 285 280.9 276.7 273.4 268.1 257.7 244.2 222.7 193.6 170.2 148.7 128.7 114.8 100.3 88.7 97.4 99.6 106.2 108.3 113.1 119.6 128.2 134.1 126.2 112.7 91.2 111.4 114.1 111.2 95.2 103.2 137.7 165.5 190.5 214.4 241.1 265 286.9
285.7 284.1 284.5 283.5 283.8 284.6 285.4 287 291.7 292.9 298.6 305 310 310.4 311.6 316.5 327.4 337.4 348.9 359.1 369.6 380.4 388.5 404.2 417.5 434.1 451.7 467 482.5 498.8 516.9 534 550.6 569.2 586.5 599 617.2 628.7 645.9 659.6 666.8 676.7 683 702.3 728.8 757.2 786 830 865.4 900.7 928.7 911.7 862.5 823 795.8 763.7 735.6 709.2 683.5 660.8 640.9 638.1 617.2 609.7 601.5 597.5 594 598 599 599.8 598.7 603.6 609.8 612.8 615.5 616.5 615.3 612.1 608.2 602.8 597.5 592.3 585.4 582.1 578.9 576.9 572.5 564.3 554 542.8 535.6 519.7 509.4 494.6 474.7 457.9 438.7 421.4 403.9 388.1 371.5 355.4 338.4 320.7 306.6 292.5 280.8 273.8 268.7 276.6 286.6 298.8 309.5 332.8 357.8 379.8 396.4 407.2 385.7 374.2 364.6 368.3 368.8 371.3 379.8 395 412.7 435.7 454.8 484.5 512.3 535.8 552.9 564.7 571.1 575.1 576.5 580.7 580.7 575 557.4 525.8 496 467.8 439.9 417.7 389.1 365.3 337.9 348 362.3 381.6 396.6 409.2 417.6 419.9 414.4 394.9 370.6 350.1 332.5 320.3 310.6 304.1 298.5 295.3 293.5 282.9 262.6 234 202.4 175.2 150.9 129.4 114.6 97.5 97.5 106.6 112.7 117.2 122.2 128.8 137.6 150.4 153.1 137.6 121.7 97.8 116.8 125.8 125.2 111.5 96.2 128.1 157.3 182.9 205.9 220.3 250.9 279.9
292.5 294.5 291.2 292.2 292.8 292.4 294.2 293.6 296.1 298.5 300.5 306.2 311 316 317.8 319.8 320.5 330.6 341.5 351.5 360.5 373.2 387.3 395 407.8 420.5 438.5 453.9 470.7 486.4 499.8 516.2 532.1 551.7 569.3 581.9 603.3 616 631.7 643.8 649 662.5 673.7 684.5 709.9 738.1 772.7 814.8 854.8 889.7 919.4 890 851.3 805.9 773 742.3 717.7 694.7 666.4 642 627.8 620.7 605.7 598.5 588.9 580.2 580.6 581.3 581.9 581.8 580.9 581.9 586.6 590.2 596.3 602.6 602.1 600.2 598.1 592.9 588.8 582 578.4 575.4 571.5 569.4 563.8 560.7 553.8 543.2 537.4 526.3 511.6 497.2 476.7 458.2 438.1 420.6 404 388 370 352.5 337.4 321.5 305.4 294.9 281.2 272.1 265.7 268.4 279.3 291.2 303.3 321.7 343.3 368.8 380.2 398.2 398.1 373.6 362.7 361.5 364.2 369.1 378.6 388.9 410.3 429.6 453.2 481.5 500.8 520.9 540.3 543.9 545.4 547.5 552.9 561.9 567.4 574 567.7 543 512.5 479.4 451.7 426.8 401.4 372.4 368.7 373.6 387.1 403.9 423.3 440.9 452 456.1 447.8 419.9 395.6 374.5 358.5 344.6 335.5 329.4 321.4 318.7 316.7 304.1 276.1 243.3 210.5 180.7 154.5 132.1 113.4 97.7 107.9 118.2 125.1 133.9 140.9 149.8 160.8 172.1 171.6 156.2 136.6 114.5 126.9 137 139.8 127.4 106.9 127.2 147.1 166.7 193.9 213.2 235.7 258.6
302 303.5 303.6 303.4 305.2 304.7 302.8 302 300.7 301.3 305.1 307.2 312.7 318.1 321.1 328.3 332.9 333.2 332 343.7 354.4 359.7 374.2 388.5 397.5 415.3 426.5 438.1 452.8 467.4 483.5 499.7 520.8 536.3 554.3 569.5 583.9 602.8 614.2 623.3 632.6 640.6 657.1 672.2 693 723.2 760 802.3 842.3 884.1 911.7 881.1 841.3 803.6 764 728.5 700.2 676.4 650.2 631.1 623.3 605.5 595 587.5 577.7 568.1 566 566.7 567.6 567 564.9 564.2 567.7 573.6 579.9 587.4 592.1 589.5 586.9 583.2 578.6 573.7 570.4 567.3 562.6 559.6 557.3 555.6 542.5 535.6 534 524.8 512.2 495.7 476.2 456.8 437.6 422.4 405.9 391.1 372.7 352.1 335.9 321.1 305.8 293.5 283.1 272.9 262.6 264.6 273 283.7 296.9 312.5 338.6 358.4 370.5 393.5 398.6 378.3 362.8 358.1 360.9 365.6 376.1 388.8 401.7 424.7 450.5 476.2 498.7 511.2 525.8 529.8 524.8 529.4 532.7 544.6 558.1 574.9 574.7 552.9 521.2 485.1 456.1 431.4 407.9 383.7 390.4 402.5 415.2 430 448.8 469.7 482.7 488.3 488.7 453.6 419.6 398.9 383.2 369.5 361.3 352.3 348.7 347.3 339.2 318.3 286 249.3 216.5 184.8 156.8 134.1 113.5 103 117.1 128.9 136.2 150.2 160.4 175.4 184.1 196.5 194 178.5 156.4 138.6 141.2 148.9 151.1 136.7 118.6 135.9 156.2 174.8 191.7 203 230.2 248.6
315 315.7 316.9 316.8 318.2 317 312.7 310 307.4 306.3 310 313.4 315.1 318.5 323.5 330.8 338.6 343.5 344.9 340.4 344.5 353.4 365.2 376.8 391 403.2 418.7 431.5 444.9 460.5 472.5 487.1 500.5 517.8 537.3 552.6 567.7 581.5 594.4 609.6 616.9 626.8 639.9 658.8 677.4 709 744.9 795.3 841.5 879.9 908.6 879 838.4 806 766.5 724.7 694.8 668 642.8 629.7 616.7 603.1 589.9 578.3 567.2 558.4 551.6 550.1 552.1 551.4 551 551.3 554.2 559.8 564 574.6 581.2 583 580 578.5 571.2 565.3 560.5 557.5 552.7 548 546.5 540.6 532.3 529.2 526.7 517.7 506 492.2 475.3 457.7 440.1 425 410 393.1 377.3 358.8 336 321.4 306.9 296.7 287.8 277.6 269.4 260.6 266.9 276.2 287.6 302.7 324.7 351 362.1 374.1 392.6 392.4 362.7 353.4 360.7 362.9 369.2 385.9 401.4 429.8 446.5 472.8 495.5 508.5 512.3 517.1 508.8 512.3 522.2 539 558.4 576.9 585 565.6 527.2 494.2 463.7 438.4 418.6 408.9 413.3 425 440.3 456.8 475.4 496.7 511.4 521.7 522.6 489.3 448 424 410 398.8 390.3 382 379.4 369.9 351.5 322.8 290.6 255.9 220.3 190.8 163 134.3 112.7 112 128.8 141.1 152.1 164.8 181.2 197 212.7 220.4 216.6 199.5 176.8 159.8 141.7 165.5 167.1 152.1 130.9 128 155.5 166.9 179.3 198.3 217.9 241.5
331.5 333.9 334.4 334.1 330.3 325.3 321.3 317.6 316.8 313.5 314.1 315.7 319 320.9 325.2 332.9 346.4 351.4 354.6 355.7 356.4 356.6 359 371.2 382.5 393.7 405.7 419.3 434.2 445.2 458.9 473 487 499.2 518.4 534.7 548.8 561.7 575.8 593.9 606.3 616.7 630 652.3 671.2 699.6 740.6 797.1 841.4 878.4 904.1 880.1 836.6 806.9 766 725.1 691.6 660.8 638.5 624 613.5 602 591.3 574.1 557.2 549.6 543 537.2 539.2 539.4 540.6 540.4 542.3 547 550 562.8 570.4 572.9 572.1 573.7 564.6 562 556.3 548.4 543.2 535.7 530.8 526.5 524.9 524.3 524.4 512.9 503.2 491.4 477.9 461.4 444.7 426.4 412.5 395.7 379.9 362.6 341.2 326.1 309.6 297.2 285.8 278.9 270.7 253.5 260.4 270.7 281.5 291.8 308.1 337.3 350.4 361.2 373.5 384.2 369.9 347.6 351.8 357.6 368.1 379.6 397.9 420.8 444.3 466.8 488.6 504.2 503.4 496.9 495.2 493.6 506.1 526.2 545.8 569.5 584.7 573.5 534.8 501.4 474 453.6 434.2 431.9 436.5 443.2 464.1 483.4 502.6 520.2 539.6 552.8 558.6 530 482.3 454.6 441.1 430.9 426.8 418.5 399.3 375.2 350.1 319.2 290.7 257.3 223.6 191.7 163.7 135.4 110 116.4 131.3 150.6 167.2 173.1 194.8 208.3 226.8 237.3 231.5 214.7 195.2 175.4 149.8 175.7 173.5 164.5 143 124.1 139.2 157.6 175.6 193.6 213.4 228.7
352.6 353 350.5 347.4 343.2 339.5 332.8 325.8 323.1 317.8 317 318 323.6 325.7 329.2 336.9 348.1 353.1 359.2 364 367.4 371.8 373.4 368 371.4 385.2 399.2 412.1 422.5 435.2 447.3 454.1 469.4 480.7 501.2 514.9 533.3 554.9 571.1 589.3 605.5 614.5 626.9 639.1 664.7 696.2 748.1 794.4 839.3 871.6 894.7 882.3 838.6 804.8 773.7 734.1 692.4 659.6 636.3 621.7 611.8 599 593.8 572.2 552.9 540.6 531.9 524.1 523.8 525 527.8 528.4 532 533.2 538.2 551.1 563.9 560.1 560.8 563.9 558.1 556.6 550.8 542.9 532.9 528.3 523.8 521.6 516.2 516.4 514.9 509.1 503.2 492.6 480.6 465.6 448.6 430.7 414.8 398.3 380.8 362.2 343.7 330.5 316 302.2 288.7 280.4 272.5 260.8 250.1 261.3 272.5 281.4 293.4 314.5 334.1 343.7 347.6 367.9 372.6 340.2 340.2 348 361.1 381.8 399 414.5 440.6 467.2 482.4 494.3 494 488.3 480.1 484.7 496.7 516.6 541.5 558.7 581.3 579 546.1 512.4 485.2 467.9 456.7 456.4 460.5 470.7 485.1 507.4 527.9 547.3 568 582.6 589.7 573.1 536.1 508.7 490.2 476.3 466.5 436.9 406.6 376.3 347.2 316.4 285 254.8 226 192.7 166.7 137.3 113.8 125.2 134.6 150.9 172.6 187.8 204 217.9 237.7 246.8 246 230.2 212.4 190.6 159.8 184.4 185.5 172.7 156.7 129.2 133.2 148.5 164.9 182.7 202.8 224.1
368.8 371.2 368.6 365.7 358.6 353.5 349.8 338.5 333.4 328.9 324.9 324.9 326.8 331.5 334.2 340.2 350.8 356.9 363.7 371.7 376.4 381.5 384 386.9 388.2 387.8 387.6 394.2 410 417 430.7 449.4 471.1 489 506 523 539.1 554.4 568.8 586.6 602.5 613.6 625 639.9 662 696.4 749.8 797.1 834.6 862.1 884.9 892.8 847.6 814.1 781.9 750.7 703.8 662.1 632.4 617.2 608.4 596.2 593.1 572.2 552.7 535.9 519.8 511.3 510.3 510.7 514.3 518.2 522.4 524.9 533.7 540.1 546.7 551 551.3 551.1 547.5 548.5 545.5 537.5 528.6 523.1 518.3 516.6 510.5 509.3 508.4 506.3 505.6 494.7 485 468.2 452.8 436.1 418.7 400.5 385.9 368.9 348 333.3 317.2 303.4 291.2 278 270.5 263.5 253.6 250.4 258.2 270.5 282.3 292 308.5 322.5 334.9 338.5 356.7 333.3 326.8 335.7 347 369.7 386.8 406 433.6 462.3 481.1 489.3 485.7 478.4 471 477.8 489.4 509.4 533.8 558 570.5 581.6 561.1 526.2 500.5 483.2 476.1 479 484.3 497.6 514 529.9 553.5 576.6 594.4 611.8 615.7 603.5 580.8 555.5 527.9 500.4 473.2 442.3 412 379.9 347.4 317.1 286.7 255.2 229.4 200.6 172.2 142.9 117.5 130.5 141.4 153.1 173.9 194.8 210.8 226.2 244.3 257.5 259.2 244.7 226.3 209.8 179.4 187.3 190.7 183.3 166.6 138.7 130.4 146.3 161.1 177.3 198.2 218.2
390.1 388.4 386.1 382 377.2 370.3 363.8 356.5 349.1 341.6 335.9 333.8 333.5 336.1 339 344.7 351.9 362.8 372.2 380.1 387.8 392.9 398 401.6 403.1 403.5 405.7 408.4 410.2 413.6 429 447.8 461.7 478.8 499.5 517.5 533.5 549.4 562.8 580.3 599.3 609.3 625 644.3 668.7 701.4 746.4 795 827.2 852.9 873.1 890.3 872.9 832.8 800 763.3 723.2 664.6 631 611.7 600.3 588.6 584.1 568.6 548.7 531.9 510.9 496.7 497.8 493 500.1 508.1 512.6 514.1 520.3 528.3 535.3 539.3 543.6 544 543.9 544.5 540.8 533.5 525.5 519.4 517.1 508 506.6 502.5 501.6 501.8 502.3 495.8 484.2 471.6 457 440.4 422 403.8 387.9 371.4 350.2 331.9 315.6 305 288.6 278.4 268.5 260.4 253.1 239.3 250.5 259.2 267.6 277.6 290.6 303.1 318 322.2 322.8 331.2 309.1 321.6 337.8 350.6 372.3 393 420.9 440.7 460.2 473.7 471 467.8 468.7 475.8 487.2 511.8 532.8 551.6 571.9 581.9 572.9 546.7 521.9 503.7 496.4 500.2 508.5 524.3 540.7 558.2 579.9 599 622.1 635.1 636.6 613.9 585.7 557.9 530.4 500.5 471.7 441.5 415.6 380.3 349.2 317 289.3 262.7 232.8 204.8 173.1 146 122.9 132.2 143.6 156.7 175.8 198.1 215 234.1 253.7 266.5 270.7 262.2 242 220.1 198.3 182.3 195.6 188.8 176.2 151.7 133.3 138.2 153 173.3 197.7 218.4
406.7 407.6 406.4 402.3 398.1 389.7 383.2 373.7 364.3 355.4 348.6 344.5 343.5 339.8 342.5 348.2 357.2 368.4 378.8 388.7 399.7 407.4 413.4 417.8 417.8 418.9 419.3 422.1 424.2 428.2 429.7 432.4 453 474.1 491.8 507.6 525.7 540.4 556.6 573 591.7 601.3 620.4 644.7 675.1 708.1 750.1 790.8 818.8 841.8 861.1 878.3 889.6 862.8 826.9 775.9 737.4 666.2 629.6 610.7 596.1 583.2 573.8 563.5 540.9 518 501.2 488.5 482.6 480.7 486.6 499.8 500.9 503.3 511.5 515.7 525.1 528.8 534.7 536.6 539.1 542.3 535.8 525.4 520.2 518.1 512.5 507.1 500.2 495.2 498.3 498 504.4 495.9 481.4 471.4 459.2 446.3 425 405.1 387 370.9 350.6 331.1 314.3 299.5 286.3 276 263.6 253.8 243.8 236.8 242.3 253.2 261.8 271.1 278.6 289 297.6 302.9 305.5 311.7 300.8 311 322 340.9 355.5 381.5 404.6 421.8 439.5 446.2 455.5 463.9 468.2 476.2 490.1 506.2 527.4 552.9 574.5 585.6 584.8 568.5 542.1 526.8 520.5 521.7 531.1 546.4 570.5 589.2 606.5 623.1 646.1 654.7 635 608 580.7 559.2 530.6 498.9 468.1 434.6 398.3 367.1 338.3 311.9 288 262.8 232.7 204.7 174.9 150.9 129.8 132.6 146.7 161.1 175.8 198.8 221.7 240.3 258.6 275.3 278.7 272.2 253.9 232.7 210.8 199 206.1 200.3 188.2 163.5 140 134.6 150.2 166.7 189.4 207.1
421.5 422.5 422.4 421.2 417 409.1 400.5 390.7 379.4 370.2 361.5 354.3 351.6 348.8 348.8 353.7 362.7 373.8 387.5 399.9 411.2 422.1 427.4 431.2 432.7 433.4 434.1 436.9 442.9 447.7 450.9 456 458.5 460.9 481.6 502.7 520.5 535.4 551.9 569.1 585.9 598.3 619.4 650.1 681.4 718.3 753.9 784.4 809.3 831 848.7 860.6 853 845.2 816.5 769.9 731.3 663.2 627.7 602.1 588.1 576.5 566.9 548 522.5 506.2 492.5 477.9 472.9 476.1 473.1 482.6 489.6 495.7 501.8 508.6 515.8 523.3 521.6 528.3 536.8 530.4 524.6 517.7 514.9 519 513.5 505 499.4 484.5 488 490.3 499.2 490.1 480.4 472.8 461.5 446.7 425.6 404.5 388.5 368.1 351.4 331.7 314.3 299.5 285.9 272.8 265.7 250.2 238.1 230.6 236.3 244.9 254.2 261.6 268.5 275.7 285.7 287.6 288.9 292 292.3 297.3 314.2 326.8 345.9 370.9 391.2 407.8 411 420.4 444.3 458.2 464.2 473.6 491.2 509.3 532.5 548.8 568.1 587.6 590 586.6 567.3 554.4 551 546.1 554.7 571.6 597.4 619 635.9 651.3 662.7 652.7 628.4 600.5 570.3 544.4 518.4 492.1 452.3 421.7 384.2 351.3 325.7 295.2 271.4 252 229.3 201 176.6 152.2 135.8 136.8 149.8 166 185.5 199.2 222.5 245.6 263.3 283.6 289.5 284.4 267.3 244.6 221 203.2 214.8 209.6 193.6 175 153.6 138.1 146.2 163.4 179.2 197.7
434.1 438.2 437.7 436.9 433.4 427.9 419.1 408.6 396.7 383.9 373.4 366.8 361.7 359 358 359.5 365 374.3 390.3 407.1 421.8 432.4 442.2 443.2 446.3 448.3 446.4 448.9 454.4 459.1 464.4 470 475.2 481.2 488.2 498.8 515.4 531.5 550.5 568.2 585 599 621.6 655 685.4 721.1 750.9 776.8 798.7 816.9 830.4 823.5 817 811.9 788.7 755.4 704.8 657.1 624.6 596 579.2 564.1 553.2 534.2 513.2 494.9 486.1 471.8 464.7 466.5 466.2 472.9 486.8 488.8 495.6 502.6 505.9 511.5 513.4 518.6 535.4 521.9 517.9 510.1 511.7 521.3 508.9 498.6 492.4 479.4 478.8 481.1 493.4 487.2 479.4 472.3 464.9 449.7 428.7 407.5 386.4 372.6 351.7 332.1 315.9 299.6 286.7 273.4 259.8 245.8 236.2 225.6 233.9 237.1 244.1 247.4 256.8 265.7 270 274.1 278 285.6 284.4 283.8 305.7 319 342.3 359.5 378.9 392.6 400.1 415.2 429.2 445.9 461 472 489.5 512.1 536.5 552.2 567.2 583.7 592.6 598.4 594.6 584.6 574 571 581.9 598.3 623.7 646.1 665 670.7 664 643.6 616.6 589.5 562 533.8 507.5 480.7 444.2 398.9 357.9 326.4 297.4 278.2 255.8 233.5 216.5 198.7 175.6 156.4 141.5 138.5 155.4 171.4 190.5 207.6 225.5 248.5 269.4 289.7 299.3 295 281.3 256.1 232.7 207.9 226.6 218 208.4 188 163.6 144 142.2 162.7 173.2 189.2
452.3 454.1 453.8 451.8 446.8 440 430.1 419.2 404.3 394.1 383.3 376.1 370.6 366.3 366.5 364.8 367.6 377 395.1 411.6 427.9 443.8 453.3 458.7 461.1 463.9 462.6 462.5 467.3 469.1 474.1 478 483.8 491 499.1 510.5 520.8 535.4 552.3 569.3 585.7 601.3 627.2 656 686.2 717 744.6 766.1 785 799.2 787.2 781.7 781.7 778 761 733.6 683.8 651.7 620.1 586.8 563.8 552.5 539.4 522.7 506.3 493.2 480.2 471.5 460.3 454.5 451 460.9 474.7 481.8 485.3 497.7 501 501.5 506.1 509.3 523 518.2 509.4 504.5 506 516 501.7 489.3 486.6 472.5 469.7 475.9 479.1 479.5 475.8 472.8 462.2 450.5 431.6 408 386 365.6 345.9 331.4 312.1 297.3 286.2 275.2 263.7 247.1 235 220.9 223.7 229.3 234.9 241 247.6 254.3 258.5 261.8 267 270.4 275 279.5 296 311.4 329.8 346.5 368.4 373.7 386.8 402.5 421.4 438.6 454.8 469.2 483.3 508 534.7 555.5 573.4 587.8 600.8 608.3 611.6 604.7 602.1 602.5 611 629.2 647.7 672.2 681.3 666.4 652.5 629.7 602.4 577.5 550.9 522.5 497.4 467.5 433.8 393.1 356.5 314.9 276.2 252.2 237.8 220.1 201.4 183.2 166.7 161.9 148.5 150.1 162.3 179.4 198.3 214.8 232 259.2 281.4 297.3 312.6 308.1 292.8 270.7 244.1 218.2 232.4 231.3 219.9 198.8 176.6 155 141 155.7 168.1 181.4
464.5 465.5 463.5 459.7 454.4 446.1 432.9 421.7 409 398.6 388.6 378.3 372.2 370.8 370 368.4 373.2 380.7 397.7 416.6 433.4 455.1 465.7 473 482 480.7 483.9 479.9 477.7 480.4 484.3 488.5 493.6 499.3 507.7 516.8 529.8 543.2 558.6 571.7 589.3 607.5 626.6 654.7 684.8 714.7 736.4 753.6 765.6 746.1 740 746.1 746.8 742.4 727.1 697.7 669.9 639.9 611.5 575.7 555.1 542.2 526.2 512.2 499.6 490.9 479.5 466.5 452.7 443.2 440.9 447.8 470.8 480.6 476.6 489.7 496.1 494 498.7 502.1 507.4 505.7 501.3 497.6 497.3 501 486.7 479.5 479.6 468 462 465.7 474.5 471.5 468.7 463.6 455.2 443 425.5 400.9 383.7 366.6 351.5 334.6 317.1 297.5 288.6 278.5 263.9 248.9 237.1 226.1 209.6 221.4 226 232.3 235.2 243.3 247.5 253 255 259.3 263.5 273.1 284.6 303.2 320.8 338.1 354.7 368.3 376.7 388.8 403.9 427.5 448.9 469.1 489.5 508.1 528.8 547.4 574.3 596.4 614.6 625.8 630.9 635.7 637.2 636.2 646.1 662.1 675.6 678.2 661 645.7 627.5 613.2 584.5 560.4 539.1 516.3 488.4 459 426.4 383.7 341.3 312.2 273.2 239.8 215.7 199 193.6 187.8 184.8 172.8 159.2 161.8 168.3 185.7 205 224.1 240.9 266.6 292.7 308.7 315.1 315.6 302.7 281.1 255.9 232.1 228 239.3 225.3 211 189 165.8 147.7 151.8 161.9 172.2
472.4 471.7 468.7 462.5 456.2 446.9 430.1 419.4 410.1 400.9 392.3 382.9 374.9 371.9 371.9 371.5 376.4 384.3 400.9 418.1 441.6 465.8 486 495.2 500 501.2 499.3 500.3 491.6 494.9 496.8 498 503.5 508.3 517.1 526.3 539.1 551.5 563.6 578.8 595.2 616.3 635.5 664 688 708.9 724.3 729 704.7 698.8 697.2 697.6 700.5 701.5 690.6 671 647.7 627.5 594.9 567.9 549 528.9 516.1 505.2 495 487 474.6 456.6 440.7 435.3 431.8 435 464.4 474.3 465.6 477.3 490.5 483.3 490.2 493.3 492.2 498.2 491.8 487.8 484.4 480.7 472.3 468.5 464.4 460 453.9 456.3 457.6 464.1 458.8 451.5 446.9 439.6 416.4 394.5 382.5 368.7 353.3 338.7 320.9 300 290.8 279.1 264.7 250.8 240.8 229.6 218.4 203.2 212.9 220.3 227.3 235.3 240.8 241.2 247 249 253.8 263.1 274 292.3 310.2 332.1 347.7 359.7 367.2 375.5 406.6 423 442.4 467.5 487.6 509.4 527.8 542.8 565.8 594.4 621.3 641 655.1 657 666.1 673 684.4 690.1 682.2 656.5 634.5 617.9 599.6 588.1 570.9 549 523.7 502.9 477.8 448.3 421.9 391.3 354.3 320.4 289.9 253.9 237.2 229.1 218.8 209.7 198.6 185.5 167 179.3 181 194 215.2 234.7 253 277.9 305.7 321.8 326 323.4 312.4 291.5 267 242.9 225.6 243.7 238.4 222 200.4 177.9 156.7 152.3 162.6 182.2
475.4 472.7 467.8 461.1 453.7 442.7 428.7 417.5 409.5 400.9 391.5 382.9 376.3 373.9 371.7 374.1 379 386.3 405 421.4 449 477.7 499 509.6 516.1 519.5 522.3 516.7 513.1 510.7 510.6 509.1 512.1 518.3 526.5 535.8 545.8 561.1 576.9 592.6 611.7 630.4 651.8 672.1 688.7 701.7 708.3 690.3 674.4 665.6 663.2 664.4 668.9 665.5 655.1 643.7 627.6 606.1 584.3 561.3 541.5 518.3 510.8 500 494.3 484.7 464.8 453.4 434.7 425.9 426.8 425.5 461.3 466.3 458.7 467.3 479.2 479.2 481.3 484.5 483 485.1 484 482 474.8 467.1 459.4 456.2 451.8 450.4 442.3 447.2 446.2 441.7 440.8 440.8 439.8 428.4 401.7 393.2 383.1 372 357 341.7 325.6 306 295.5 281.7 268.6 255.7 244.2 232.2 218.3 206.5 198.6 207.6 216.9 223.1 230.9 230.3 232.7 238.9 240.9 253.2 257.5 280.3 300.2 321.3 341 346.8 359.6 372.9 387.5 415.2 442.9 458.5 479.1 504.1 518.6 537.9 564.5 594.6 624.2 644.4 670.9 687.2 692.5 694.8 700.6 686.9 661.9 634.9 613.2 593.2 571.3 556.7 544.6 529.7 514.7 487.9 462.8 436.5 413.9 389.5 358.5 327.7 298 288 272.5 260.6 245.3 229.6 213.1 199.1 177.3 194.1 195.3 204.9 223.4 247.6 265.9 291.4 318.6 337.2 346.4 338.9 324.2 303.3 279.9 254.8 229.7 250.6 247.4 233 213.6 189.6 170 155.1 163.3 172.3
