ncols 200
nrows 82
xllcorner 290000
yllcorner 361300
cellsize 50
239 237.8 236.1 234.6 232.5 228.9 231.5 235.2 235.1 231.1 224.1 214.9 215.2 229.8 236.5 242.5 253.1 262.1 266.2 274 274.4 275 277.9 281.5 290.5 293.5 294.5 292.6 287.3 280.5 276.1 273.4 266.3 264.1 261.3 259.7 254.6 251.7 250.7 245.9 240.8 238.9 237.9 239.4 242.5 241.3 237.1 232.2 228.8 227.7 226.2 226.1 228 228.7 228.3 232.8 243.8 250.5 251.7 243.6 233.6 223.9 215.5 207.4 201.8 195.3 185.1 171.8 170.4 165.9 169.4 168.4 164.4 163.7 164.1 167 180.6 197.7 196.4 192.5 199 199.3 199.5 206 213.6 218.7 222.6 225.9 227 226.4 228.4 231.8 234.2 237.8 242.4 246.8 250.7 253.4 256.8 258.7 260 260.2 260.7 259.1 258.6 258.7 257.1 257.5 255.7 255.6 253.6 250.8 246.8 243.5 241 239.2 236.7 230 217.9 203.7 194.5 186.6 174.1 187.2 204.7 216.2 222.8 232.7 239.6 244 248.2 250.5 256 258.9 260.7 259.7 258.9 255.2 247.4 239.2 248.9 254 258.2 261.7 275.9 294.8 316.8 336.1 342 346.8 350.9 354.3 357.9 362.5 362.9 363.6 363.2 363.3 360.5 358 356.9 359.2 364.3 368.3 371.9 372.7 374.8 375.6 372.2 366.6 357.7 351.4 344.4 338.5 338.7 341.6 347.4 349.1 348.5 345.3 338.8 334.5 329.1 321 313.5 307.3 298.1 292.1 285.2 276.7 266.8 257.4 246.4 234.9 223.5 218.4 213.5 211.1 208.6 205.2
244.7 239.9 237.8 235 231.5 230.7 232.7 236.9 238.7 234.3 228.3 217.8 213.8 228 236.4 241.3 250.9 258.7 271 274 275.9 275.6 275.8 280 287.3 291.7 291.7 289.6 284.6 279.2 275.4 272.2 268.3 267.9 264.1 258.6 252.9 249.1 244.7 241.7 240.1 237.8 236.4 235.9 238.9 236.4 233.1 229.4 228.1 227.5 226.2 226.1 228.6 228.6 228.8 236.6 247.1 246.3 240.3 238 229 222 216.4 209.1 199.9 187.1 174.4 172.3 169.8 168.3 172.8 173.5 172.5 164.4 164.8 165.7 170.1 194.7 180 178.4 191.5 194 202.3 208.1 214.8 219.7 224.3 227 226.2 228.6 231 233.7 236.6 240 244.8 249 252.2 256 259.8 261.4 261.4 262.1 261 260.3 260 259.7 258.2 256.7 255.4 254.1 250.6 247.2 242.4 240.1 235.9 233 229.3 222.1 207.8 198.2 191 174.6 178.8 209.3 215.7 219 227.5 235.8 242.4 246.6 249.4 252 256 259.9 263 264.3 263.4 261.4 255.3 249.2 244.3 245.4 247.2 252.3 259.1 278.4 300.5 315 324.5 328.8 333.6 342.2 347.1 349.6 350.7 355.4 361.5 364.2 363.4 362.8 361.5 356.6 357.1 360 361.3 360.5 360.7 357.3 354.1 350.9 342.5 337.6 333.9 330.9 330.6 335.2 339.5 342.9 345 344.2 338.6 332.6 326.7 319.9 313.7 306.5 297.1 289.3 280.4 271.8 263.3 252.4 241.6 231.7 223.2 216.6 212.2 208.7 206.9 205.4
247.3 242.2 236.9 233.2 230.7 231 234.3 238.6 242.2 238 230.9 220.9 216 222.5 234.6 240.1 247.7 255.6 269 270 271.8 275 276.6 282.3 285.1 287.6 289.2 286.7 281.7 280.7 276.2 272.7 268.9 266.4 264.2 258.6 252.6 247.7 244.4 241.2 241.1 240.6 238.4 235.5 233.5 231.9 231.2 230.2 228.1 226.7 225.5 225.6 226.5 226.1 228.7 237.9 245.2 236.3 232.4 227.6 220.5 217.3 214.4 209.2 197.4 182.8 173.7 171.6 168.3 169.2 178.9 178.6 178 167.9 164.7 165.6 167.1 175.6 175.5 196 192.8 182.2 193.7 208.1 215.5 221.2 225 226 226.6 228.6 232.2 234.3 237.4 241.7 246.6 249.9 254.7 258.6 261.5 263.1 264.9 264.2 263.2 261.3 260.2 260 257.9 256.5 255 252.6 246.4 242.1 238.1 234.8 229.6 225.4 219.1 212.3 200.4 191.2 186 181.9 194.3 202.9 212.3 223 230.8 240.2 246.1 248.3 250.2 253.6 257.2 261.7 264.5 267.3 267.9 266.9 264.6 262.2 263.1 263.3 259.8 251.9 250.9 266 288.4 299.7 307.4 317 318.4 324.2 326.4 332.2 342.3 353.6 357 361.8 364.7 363.8 362.1 353.4 351.3 349.8 345.2 342 340.9 341.6 342.9 338.6 335 332.9 329.4 321.9 320.5 325.2 328.4 332.7 336.1 337 333.8 328.5 323.1 316.3 310.5 303.4 294.6 284.9 276.1 266.6 258.5 247.4 236.7 228.9 221.4 214.5 209.7 208.1 207.6 207.3
248.7 242.8 237 233.7 231.6 231.6 234.3 240.1 245.8 241.9 235.2 225.5 217.4 216.8 229 239.5 248.3 255 257.2 260.7 269.6 273.5 275.4 278.2 281.9 285.6 287.2 288.4 281.9 277.6 274.8 272.3 269.1 264.6 263.4 258 252.6 247.3 246.7 244.1 246.3 246.5 244.4 239.9 237.8 234.2 231.9 230.4 228.5 226.7 225.3 224.2 224.5 225 227.5 236 237.8 230.4 224.8 216.5 211 210.6 208.7 202 190.5 175.5 173.4 173.6 173.8 175.8 181.8 182.9 182.3 180.6 169.3 165.9 166.8 168.4 177.7 199 197.4 196.7 202.8 204.5 215.5 221.2 224 226.1 227.7 230.1 233 235.1 238.1 242.9 248.7 252.6 257 259.3 261.6 264.6 267.6 266.9 264.5 262.4 260.7 259.7 258.1 256 253 248.9 244.3 240 233.5 228.1 222.8 215.9 207.7 201.9 198 197.2 190.5 182.2 186.9 196.1 209.3 225.1 231.2 236.7 241.8 245.8 250.1 254.4 258.1 262.1 265.7 269.5 270.8 270.2 269 267.6 268.1 268.3 266.2 257 251.2 255.2 274.2 284.8 289.2 295.5 302 311.1 316.6 317.7 325.9 342.2 352.3 361.3 361.8 360.8 354.8 349.2 344.6 340.1 336.8 333.2 329.5 331.1 328.5 328.7 329.8 326.2 321 311.4 307.8 313 316.8 322.5 328.9 330 327.4 323.8 319.6 312.6 306.8 299.5 291 282.3 271.7 262.7 253 243.5 234.5 226.7 219.3 213.4 209.8 209.8 210.3 213.7
249.6 244.2 239.1 234.2 232.4 231.2 234.4 241 247 245.6 241.1 231.9 223.3 217.7 218.1 232.4 249.4 253.5 256.1 257.9 260.5 263.9 268.5 276 280.3 281.9 284.1 290 286 277 272.2 271 266 263.2 261.4 255.4 249.6 249.8 249 249.9 251 249.4 246.1 242.1 239.7 238 234.5 232.6 231 227.9 226.1 224.9 224.8 225.3 225.6 231.1 231 223.7 219.7 209.5 204.7 201.8 198.2 193.7 180.4 177.5 183.2 180.9 179.3 184.5 187.4 188.7 186.8 183.6 179.1 166.2 166.1 167.2 176.4 195.1 198 203.9 208.3 212.3 219.9 221.7 225.2 226.3 228.8 232.1 234.7 236.7 238.5 243.3 250.1 255.1 258.6 261.9 264.6 266.1 268.9 268.1 265.8 263.8 262.2 260.6 257.3 254.5 251.4 246.1 240.8 236.6 229.9 225.1 219.7 218 213.9 210.1 202.8 198.3 193.6 181 183 194.2 205.7 219.9 228 233.7 238 242.5 248.3 253.7 258.1 263.7 267.1 270.1 271.5 271.4 270.7 270.3 271.3 272.4 271.8 263.9 252.9 252.4 256.1 262.4 267.6 276.2 283.3 295.6 302.3 304.1 320.1 326.6 338.6 348.7 352.7 354 353.1 344.4 338.9 335 331.3 326.2 324.4 324.9 318.5 312.9 315.4 315 310.3 302 296.2 295.7 302.3 306.1 314.2 316.9 319.1 316.7 314.7 310.2 304.1 297.5 289.1 280.8 271.4 261.3 252.3 243.6 233.7 224.6 217.2 214 214.6 216.3 218.3 220.5
250.1 245.5 240.1 235.5 233.7 232.4 234.6 240.4 246.2 248.6 245.9 239.8 229.7 223.4 219.1 234 249.5 252 253.7 249.5 258.8 266.3 272 276.2 278.9 279.7 282 283.9 280.5 275.5 271.1 269.4 268 264.2 258.5 255.3 255.2 256.2 254.2 254.9 254.6 252.2 248.4 246.5 244.4 240.8 238.2 235.6 233.4 230.3 227.8 225.9 225.1 225.4 226.5 226.9 225.6 220.1 208.2 201.9 200.5 197.1 194 181 180.9 190.9 192.2 189 192.2 195.4 193 192.4 189.8 184.8 181.9 178.7 169.1 166.9 176.6 194 200.6 207.8 211.9 213.2 220.3 223.4 225.8 227.7 230.3 232.7 234.8 236.9 239.7 241.6 248.6 255.9 260.5 264.3 267.4 268.2 268.9 269 267.5 264.3 262.5 260.5 257.9 254.4 249.2 244 238.2 232.4 228.3 224 224.4 222 216.4 210.6 204.2 198.6 191 181.2 186.5 200.5 207.9 214 222.1 230.8 238.9 243.6 249.7 255.4 260.2 263.7 267 269.7 270.8 271.5 272.5 273.3 274.8 276.5 276.8 272.7 261.7 253.9 253.4 254.3 259.8 265.7 272.1 279.2 286.4 293.4 307.2 323.4 332.7 340.2 344.2 346.5 344.5 339.3 334.3 329.1 322.8 317.3 313.5 307.8 304.9 301 301.8 302.8 301.9 294.8 281.7 282.3 288.4 297.5 302.2 309.3 311.3 311.2 311.3 308.7 302.6 295.9 289.1 280 269.7 255 248.1 239.7 231.4 223.7 219 220.9 225 227.9 230.6 228.8
249.4 246.3 241.1 237.1 235.2 233.4 234.8 239.2 244.3 249.5 249.7 243.1 236.6 230.7 222.3 222.6 237.9 238.2 240.3 250.7 260.5 270 274.9 278.6 279.2 280.4 283.6 285.1 284.4 278.7 271.7 274.2 274.4 269.5 263.2 262.8 262.1 262 259.7 260.1 258.2 254.4 252 251.8 248.4 245.8 242.4 238.1 234.7 233 229.6 226.4 226 225.6 226.1 227.4 225.7 219.2 209.2 202.8 191.2 183.1 181.7 189.3 198.6 205 199 200.4 204.2 203.5 198.1 193.5 190.3 186.3 184.5 182.2 169.3 167.6 181.9 195.4 205.7 210.3 212.7 216.7 220.9 224.7 226.7 229.6 232.2 234.3 236.8 239.4 242.1 244.3 248.9 254.3 259.9 265.6 269 269.9 270.4 268.9 267 265.3 263.6 260.7 256.7 252.6 249.4 243.2 235.7 229.8 226.9 227.3 227.9 222 215.4 209.8 204.6 192.9 191.9 188.8 186.3 198.1 205.2 214.7 224.2 237 241.7 245.6 251.3 256.3 261.4 266.7 269 270.6 272.1 273.7 274.8 276.2 278.3 280.3 280.5 277.6 271.1 263.3 257.4 254.2 259.6 266.8 271.5 277.1 282.5 290.9 307.7 325.1 336.8 341.9 344.9 346.4 344.4 339.5 329.5 322.9 313.8 309.2 305.3 300.7 298.4 295.3 293.1 290.9 285.3 277.1 272.2 270.2 272 279.2 294.8 304 307.1 305.6 302.9 297.7 292.6 286.7 280.1 272 262.6 253 246.3 238.2 230.6 223.7 222.5 227.5 233.1 238.7 239.9 239.5
249.6 247 243.4 237.9 236.8 234.4 234.6 237.3 242.4 247.9 248.7 244.6 239.4 236.7 226.6 222.2 231.6 233.5 244.2 252.8 263.1 271.7 275.4 277.4 278.8 278.3 280.4 288.9 287.1 281.4 273.1 272.5 272.9 270.6 265 271.8 269.1 267.6 265.3 264.5 261.7 258.7 259.4 255.7 252.7 249.7 246.4 242 237.9 235.6 230.9 227.9 227.4 226.8 227.5 227.8 222.6 215.7 209.4 201.6 202.3 183.5 197 204 213.4 212.1 208.6 211.8 216.4 211.6 200.8 193.7 187.9 185.5 185.7 184.4 168.9 169.4 187.1 198.8 209.7 213.2 215.1 218.4 221.8 224.5 228.7 231.9 234 237 239.7 243 245.4 248.4 252.3 258.2 264.9 267.9 268.7 270.5 269.3 267.8 265.8 263.9 261.8 259.5 255.1 249.6 245.4 238.6 231.9 227.3 226.3 227.9 227 220.8 214.7 209.9 198.1 197.4 197.3 187.2 193.2 198.6 209.2 219.1 229.6 238.9 245.2 248.8 253.7 259.6 265.6 269 271.3 272.5 274.5 276.2 278 279.5 281 281.7 281.9 279.1 274.2 268 263.2 254.5 261.7 267.1 273.2 279.7 287.2 304.5 318.4 331.8 340.6 342.9 344.4 347.9 347.4 338.2 322.4 314.2 309 301.7 299 296.2 294.1 291.3 287.5 279.5 276.1 273.8 265.2 261.5 262.9 267.5 281.8 293.5 299.5 296.4 289.4 286.4 282.1 277.6 272 265.9 258.9 251.9 245 238.2 230.2 225.4 228.2 234.3 240.7 247.6 248.2 245.9
250.7 247.7 244.8 242.1 238.8 235.9 234.5 235.3 238.6 243 243.2 240 239 237.4 222.3 234.4 240.8 241.8 244 252.3 262.1 271.8 274.7 274.7 279.6 278.4 277.2 280.3 285.6 280.7 274.8 271.1 269.6 269.8 271.9 276 275 272.3 270.3 267.9 264.3 264.3 262.8 260.5 257.1 253.3 250 245.8 242 238.3 234.7 231.5 230.2 231 231 225.8 216.8 215.4 209.3 206.3 194.6 198.6 207 219.2 221.4 216.9 217.2 223.1 225.3 220.2 205.1 196.1 186.7 182.1 182.5 180.8 168.9 169 194.6 203.8 213.5 217.9 217.8 219.6 223.4 225.4 230.2 233.4 236.8 238.8 242.6 246.8 249.2 252 256.1 261.3 267.2 269.3 269.5 270.4 269.7 267.6 265.3 263.3 260.4 257.3 252.6 246 239.2 233.8 229.4 226.1 226.3 226.6 223.8 219.5 214.4 203.9 203.2 204.8 194.7 186.7 197.2 206.9 214.2 219.7 228.9 240.5 246.5 251.6 257.2 264 268.4 271.7 273.6 276.1 279.4 280.6 280.9 281.2 281.6 281.4 280.4 277.7 273.1 268 262 254.7 268.9 278.9 287 294.4 303.7 313.4 324.9 334.7 341.7 344.1 340.8 345.9 344.2 330.3 314.1 308 303.1 298.6 294.9 292.5 290.8 287.6 282 285 286.8 284.8 277.8 267.8 258.6 262.4 271.5 281.2 286 285.6 279.4 277.7 275.6 273.2 269.2 264 258 251.7 244.5 238.3 232.6 229.6 233.9 239.5 246.2 253.8 253.3 250
251.6 248.4 247.2 245.3 242.1 238.1 234.7 233.6 234.9 236.9 236.8 237.2 237.1 225.9 232.9 239.8 247.7 247.5 248.7 250.5 258.1 264.6 267.6 271 275.7 277.3 281.1 281.9 280.3 278.5 279.4 276.5 273.7 273.7 277.8 282.5 279.8 277.5 274.5 271.3 268.7 267.5 265.8 263.2 260.1 257.1 253.5 248.3 244.1 242.1 237.5 234.3 233 233.1 230.4 223.8 221.2 217.4 211.1 202 195.8 209.7 223.4 228 227.9 220.2 227 231.7 233.3 226.2 218.2 202.5 191.2 183.1 177.9 176.9 169.7 168.8 196.1 209.8 217.1 219.5 219.9 222.1 225.3 229 230.4 234.4 239 240.3 243.3 250.4 252.9 254.6 258.9 264.5 268.6 269.8 269.4 269.6 269.5 267.5 264.4 260.9 259.1 254.5 249.3 243.8 236.5 231 226.5 224.4 224.7 222.6 221.1 217.6 210.8 208.5 210.2 200.9 186.8 196.4 207.9 216.2 221.9 230.6 235.4 243.7 250 253.8 259 265.3 270.7 275.5 277.9 281.5 283.3 283.5 282.1 280.8 280.9 279.6 277.5 274.7 271.1 266.7 258.3 255.7 270.5 286.3 296.8 305.6 312.4 320.5 324 332.1 337 336.5 335.3 334.2 328.1 317.9 309.1 303.7 298.5 294.2 292 289.7 287.5 283.7 285.6 289.5 290.8 286.4 278.8 266.9 256.2 258.2 265 269 271.6 271.8 271.5 270.5 269.3 267.8 265.3 262.6 259.1 254.7 247.9 241.4 236.6 235 237.3 243.2 250.9 257.7 257.7 253.2
253.4 251.6 249.9 248.1 245.1 240.6 236.7 233.7 233 232.1 232.1 232.6 232.8 227.1 236.6 243.3 251.3 251.7 249 248.8 252.6 256.7 259.4 262.9 267.8 276.2 278.3 278.9 280.1 281.5 278 277.5 277.5 281.6 283.5 285.4 284.3 280.7 277 275.3 271.7 270.1 267.7 265.2 262.4 260.1 256.1 251.1 247.1 243.8 241 237.8 235.3 233 229.9 225.1 222.6 215.8 209.3 207.6 217.6 225.9 232.8 236.1 231.4 229.2 234.5 241 240.5 235.1 225.7 214 199.6 189.2 182.8 176.1 170.7 170.4 191.3 214.6 219.5 220.2 221.7 225.1 228.8 231.7 233.8 237.3 239.7 242 246.4 252.7 255.9 255.9 261.4 265.3 269.1 270.2 270.9 270.3 268.1 265.6 262.4 261.3 256.9 252.8 247.3 242 235.1 228.8 224.3 222.7 221.9 220.1 216.6 210.9 214.8 215.7 211.9 195.8 191.8 205.6 216.4 223.9 229.3 236.4 241.4 247.5 252.7 256.5 262 268.4 274.3 280.6 284.2 286.6 286.8 285.2 283.4 281.2 277.8 275.8 274.1 271.1 267.9 264.4 256.9 256.5 264.3 287.6 302.5 315.3 318.8 320.7 321.7 324.5 327.4 327.9 326.1 327.9 322.7 317.6 306.6 300.2 295.5 291.5 288.9 286.6 284.1 284.4 289.2 291.3 290.2 283 275.1 265.6 255.7 254.9 257.7 260.6 262.2 263.8 263.9 264.6 262.4 262.2 261.2 258 256.8 253.6 248.2 244.9 240.1 239.8 240.9 246.7 252.7 258 258.6 254.6
255.3 254 253 251.1 248 242.8 239.9 235.8 233.1 232.4 232 230.8 229.2 230.1 239.9 245.4 252.2 253.1 249.1 247.6 248.6 252.2 259.3 259.7 265.6 274.3 275.4 276.3 278.2 280.1 278.3 280.3 285.2 286.2 289.1 289.9 287.7 283.7 280.6 278.7 275.3 273.6 270.8 267.6 263.6 260.7 258.2 253.6 249.7 246.1 242.1 240 236.9 236.7 229.7 229.1 219.7 212.7 202.8 216.7 225.4 236.3 240.6 240.6 232.9 233.8 239.8 248 247.8 242.7 233.5 223.6 209.7 198 189.6 180.3 173.1 170.2 186.4 217.1 220 222.2 224.1 229.9 232.7 234.5 236.3 240.3 242.7 245.6 249.8 254.6 256.3 257.6 261.8 267.2 270.7 270.7 271 268.5 266.8 265.4 262.3 260.3 256.1 251.9 246.6 240.3 233.6 227.1 222.6 221.2 218.4 215.7 216.5 218.5 221.1 219.7 214.8 195.7 197.2 214.5 224.2 229.8 237.6 242.8 247.9 251.8 255.5 261.8 266.4 273.7 281.9 287.2 290 290 288.7 286.6 284.4 280.5 277.7 274.5 269.2 267.6 264.4 262.2 258.1 256.7 259.4 278.8 303.4 315.2 317.1 316.8 316.9 317.9 321.1 320.1 322 323.5 321.5 313.6 303.6 297.3 293.4 290.1 286.9 285 285.1 288 290.1 289.8 285.5 277.7 270.2 260 253.5 252.4 252.7 254 255 256.3 257.3 257.9 256.2 253.4 252.7 252.7 250.5 249.1 247.3 245.4 242.9 243 244.3 250.1 255.6 258.7 258.2 255.2
256.6 256 254.1 253.6 249.5 245.4 241.2 237.1 235.7 236.1 234.3 230 229.7 228.8 235.8 241.2 246.3 251.2 246.2 246.1 250.1 256.1 262.3 261.8 267.3 274 277.3 278.9 282.1 282.5 284.3 288.5 289.3 289.6 292.5 291.9 290.8 287.6 283.3 281.9 278.9 275.4 271.9 268.5 265.4 263 260 256.3 252.8 248.5 244.6 241.3 240.6 234.8 235.1 228.6 218.7 210.9 212.4 223.2 234.2 242.6 245.5 242.5 234.4 237.5 244 252.1 252.6 247.8 240.1 229.7 216.9 202.5 193.5 185.7 181.6 172.2 185.8 215.4 220.3 223 227 233.9 235.6 236.2 239.9 242.3 246 249.8 254.7 256.9 259.1 262.7 266.2 269.2 270.6 270.1 269.5 267.5 265.6 264 261.4 258.1 253.4 249.6 244.1 237.2 231.3 225.7 223 220.7 219.2 218.9 220.1 222.8 225.2 222.3 213.4 196.8 201.6 219.5 229.5 237.3 244.5 249.2 253.9 257 260.9 265.5 273.7 283.5 290.8 293.5 294.6 293.7 291.6 288.5 285.2 281 277.2 274.8 271.8 267.6 263.8 260 258.4 257.6 258.5 267.1 291.3 307.6 310.7 311.8 312.4 311.9 311.5 317.7 323.6 320 315.9 305 300.5 296.4 292.1 288.9 286.2 287.3 288.3 288.8 288.6 286.2 277.4 271.2 265.5 256 251.2 250.6 250.2 249.1 249.2 249.6 248.4 248.4 249.1 246.8 246.8 247.1 247.3 243.3 243.3 243.8 244.2 245.4 246.3 249.2 253.5 255.3 257.8 258.7
256.3 257.2 255.7 253.8 249.9 246.1 242.7 237.9 240.6 240.8 237.9 233.9 231.8 232.7 229.4 236.6 241.1 244 250 254.9 259 263.8 269.3 267.8 266 274.6 279.5 280.3 281.9 286.4 290.9 291.4 289.2 291.4 292.5 290.8 291.1 289.8 286.2 283.3 279.5 278.2 274.9 270.1 264.6 260.3 260.3 257 253.7 250 246.4 243.8 240.4 240.1 235.5 226.6 218.6 209.2 216.7 226.4 236.3 244.7 244.6 241.7 236.2 240.1 247 254 254.3 250.8 243.7 233 221.9 206.7 197.3 192.2 188.7 170.3 177.2 210.8 220.8 225.8 230.4 234.3 235.8 239.1 244.3 245.4 250.8 252.7 257.1 259.7 263.1 267.4 269.6 270.9 270.7 269.9 268.6 266.3 264.5 262.8 260.3 255.9 252.6 247.4 239.6 234.7 229.9 226 223.6 221.7 221.3 223.5 224.2 225.4 226.8 222.4 209.7 194.2 205.7 221.8 232.8 243.3 250.8 255.1 258.3 263.7 267.8 272.9 284.3 293.7 299.3 300.7 299.4 297.9 295.8 292.5 287.6 281.7 277.9 274.8 271.9 268.3 264.9 260.3 260 258.4 259.4 261.2 274.2 293.7 299.1 304.6 306.4 304.8 298.5 302.3 313.9 307.7 304 301.2 298.5 295.9 294.3 291.4 290.4 290.6 289.4 288 285.1 280.5 273.9 266.1 260 252.7 250.5 249 248.4 248.4 247.3 246.2 245.8 244.8 244.7 242.9 241.6 241.1 239.6 243.2 240 235.3 241 244 245.9 247.9 251.3 258.3 262.1 260.8
256.4 257.5 256.8 254 250.5 246.5 243.4 242.1 243.5 245 243.1 238.2 233.8 235.4 238.2 231.1 234.6 245.1 253.3 257.8 262.4 267.7 274 274.1 269.5 275 279.6 281.6 284.5 290.3 294.2 292.3 291.8 292.5 293.7 292.7 291.1 290.6 287.3 284.4 281 278.7 275.3 271.9 266.1 261.2 256.3 254.5 253.2 251.2 246.7 243.6 243.3 241 232.2 225.9 215.8 206.7 218.4 228.2 237.6 243.5 243.5 241.7 242.4 241.6 249.6 252.7 254 252.9 245.5 234.2 224.9 211.1 202.2 196.5 189.9 171.8 176 202.8 220.6 227.9 231.9 234.7 237.6 245 248.1 248.2 253.3 256.4 257.8 263.3 266.9 269.3 271.3 271.7 271.9 271.3 269.7 268.1 265.3 261.8 258.8 254.7 251.2 246.7 240.7 233.8 230.5 227.1 225.2 224.4 226.8 226.8 226.6 227.2 225 215.3 201.9 194.9 214.8 226.6 239.8 249.4 256.5 260.5 264.9 269.9 275.2 282.3 287.7 300.5 305.4 306 304.9 302.3 299.1 295 288.8 283 278.9 275.6 272.4 268.4 266.5 263.9 261.1 259.4 260 261.1 262.2 269.1 275.6 281.6 285.7 284.3 281.7 287.5 298.3 302.5 303 299.7 297.9 299.8 299.3 296 293.7 291.8 288.4 284.5 280.3 274.8 267.7 260.8 255.2 250.4 251.1 252 252.8 253.2 251.6 252.8 253.5 253.7 253.7 250.6 250.1 250.9 252.3 250.8 245.5 228.8 230.6 239 243.5 245.7 255.2 262.5 261.7 260.3
257.1 258.1 255.7 254.2 250.4 248 243.5 244.7 246 248.7 246.9 242 236.8 237 242.8 232.3 238.5 249.2 254.9 259.2 265.1 271 277.2 281.6 273.9 275.9 282 283.8 288.8 293.2 296.3 297.8 295.9 294.6 295.3 295.8 293.4 290.9 287.1 282.8 279.8 275.9 275.3 270.7 265.6 262 258.8 254.9 252.9 250 246.8 245.2 243.4 237.3 228.9 220.4 210.7 209.8 219.7 228.8 236.8 242 243.8 245.9 245.8 247.7 249.1 251.5 252.8 251.7 243.4 234.6 224.7 215.8 209.1 198.3 185.9 173.3 176.3 203.8 221.1 228.6 233.4 235.8 241.3 249.6 251.4 250.5 253.7 258.6 260 264.2 268.2 271.1 272.9 272.4 273.4 271.9 271.1 269.1 265.9 261.6 258.5 256.3 251.4 244.8 239.3 235.3 231.3 228.6 227.6 229.1 229.9 229.1 227.6 226.3 222.3 207.6 194.8 206.6 220.8 234.3 246.9 255 261.7 266.7 271.9 275.5 279.6 289.2 298.7 305 308.9 309.8 308.7 306.2 302.9 296.5 290.7 285.2 279.4 276.5 273.6 269.9 267.9 265.4 262.6 263.8 262.7 264 264.7 264.4 265.9 268 268.6 271.1 274.5 280.5 296.7 302.1 302.7 301 301.9 305.9 303.6 298.2 295.2 290.5 286.3 280.6 274.9 267.2 261.7 255.2 252.4 253 256.1 259.5 262.2 262.2 260.7 263.3 263.7 261.5 263.1 263.9 264.6 262.7 258.5 253.1 244 235.2 217.1 228.8 234 238.6 247.6 257.1 255.4 253
258.4 257.5 255.6 252.1 251.3 249.1 245.6 246.5 247.8 250.4 248.5 244.2 239.9 239.7 243.1 232.8 244.7 250 255.2 259.9 265.7 272.5 279.7 288.8 282.6 282.6 285.4 287.6 291 292.6 297.5 299.6 300 298.3 297.9 297.4 295 291.3 287.8 280.8 277.9 276.7 274.5 272.6 267.6 263.7 260.4 257.1 254.3 250.4 246.7 246.7 240.9 231.2 224.4 215.7 210.2 214.4 224.5 231.6 239 244.3 246.7 247.9 249.6 249.6 248.7 248.9 249.3 245.1 237.7 231.4 225.8 218.8 209.9 197.4 173.8 173.7 180.5 209 222.5 228.7 233 237.2 242.3 250.2 250.4 252.7 252.9 259.5 262.4 266 269.1 271.5 272.6 274.5 273.6 272.9 272.1 269.9 266.1 262.4 259.4 256.8 251.1 245.7 241.2 238.2 233.2 231.3 231 232.4 232.4 230.7 227.2 223.3 216.4 198 202.4 213.7 226.3 240.5 250.8 258.7 268.7 273.9 276.1 280.2 285.6 292.3 303.4 309.8 311.9 313 312.6 308.8 304.5 298.7 291.2 284.3 279.3 275.6 271.8 269 266.9 265.8 268.6 271.1 272.5 271.3 268.2 269.1 269.9 269.1 270 269.4 271.7 282.6 297.2 304.6 304.5 306 308.7 311.2 306.4 300 295.4 288.8 282.4 276.5 271.1 264.2 256.5 254.6 257.6 260.9 263.2 266.2 268.1 267.7 269.4 270.7 270.8 271.7 272.8 274.3 271.5 264.5 256.6 249.2 240.5 233.4 225.5 207.4 219 226.7 236.3 247 247.6 248.6
259.1 257.2 255.1 251.8 250.2 249.8 250.3 248.9 249.3 249.8 249.3 245 242 241.5 236.8 235.5 242.8 249.6 256.6 263.4 269.3 278.9 287.9 293.8 286.2 284.8 287.7 290.5 292.6 294.7 298.6 301.9 302.7 302.1 303.4 299 295.2 290.5 287.1 284.5 282.5 279.5 276.7 273.1 267 263.2 259.7 256.9 252.6 248.7 249.1 243.9 235.1 226.7 218.6 211.9 214.3 222.1 233.2 237.7 244.5 247.6 251.4 252.4 251.9 250.5 248.7 245.4 243.9 239.8 233.2 228.7 223.3 215.6 203.3 180.1 174.8 173.6 187.4 210 221 226.3 232.2 237.3 239.1 243.9 247.7 250.6 253.5 257.3 263.7 268.1 271.2 272.2 272.3 273.3 274 273.7 271.7 268.7 266.4 265 260.3 257.6 251.9 248.1 245.8 240.7 234.8 234.6 234.7 234 233.6 230.4 225.4 220.3 211.1 195.9 209.4 218 231.3 243.1 253.2 263 275 280 282 286 291.5 302.3 307.6 312.5 314.7 316 314.1 310.8 307.1 300.6 291.8 284.9 278.5 273.7 269.6 269.8 270.3 273.7 276.1 277.5 278.6 276.8 273.7 274.8 276 276.9 275 272.7 273.1 281.2 293.5 300.6 304.5 307.5 312.6 311.6 306.9 300.8 293.8 285 277.4 271.6 263.3 258.3 259.5 261.1 263.8 266.4 268.8 269.9 272.1 274.6 276.1 277 278 279.2 280.5 274.9 267.5 258.3 250 242.2 235.9 232.1 227.9 215.1 204.5 214 218.4 233.3 242.5 244.2
259.8 256.9 254.9 252.2 251 251 252.3 251.5 249.9 249.2 249.2 245.7 243.9 242.8 236.5 236 243 251.9 258.8 265.7 273.8 283.5 293.5 294.3 287.8 286.8 290.6 292.4 297.8 298.3 302.2 305.7 305.6 304.6 301.9 297.1 293.4 291.8 287.3 286.2 282.2 276.1 272.3 269.4 264.6 260.4 257.3 254.4 251.4 250.5 248.6 240.6 228.2 219.7 213.3 215.4 221.1 234 242.6 245.8 250.1 253 255.3 255.7 254.8 252.5 249.2 245.5 240.2 233.5 227.8 224 218 208.8 186.5 176.4 175.9 175.2 194.3 212.6 221.3 224.5 231.7 236.7 234.3 237.9 246.5 252.3 254.3 257.8 265.3 270.1 272.4 272.6 272.7 275.3 276.4 275.8 271.9 268.8 269.6 267 262.5 257.4 252.5 248.9 243.3 242.4 241.3 240.2 237.6 235.1 232.7 228.8 222.2 217 205.6 203.8 212.9 221 238.2 249.1 259.4 269.2 278.9 285.9 290.1 292.6 296.9 305.9 310.6 317.6 317.3 318.6 316.1 311.6 306.8 301.5 293.7 284.4 278.4 273.8 273.1 274.6 279.7 281.6 282 282.6 282 279.6 277.5 279.9 283.4 283.5 281.5 279 275.7 275.5 285 294.5 300.3 304.5 310.1 310 304.7 298.8 290.7 282.1 272.2 265.7 262.8 262.9 264.3 267.4 270.1 272.2 273.1 273.8 276 278.8 280.3 282.3 282.7 281 274.8 266.7 260.2 251.2 242.6 235.1 230.3 226.7 225 220.9 202.2 201.1 206 209.7 218.7 228.4
260.1 257.6 254.8 251.8 251.4 253.4 255.1 253.2 250 248.8 249 247.1 244.3 241.1 236.9 237.9 244.8 251.4 259 268.4 275.8 287.2 295.3 292.3 287 288.4 291.6 296.3 299.8 303.5 303.7 306.2 306.3 304.1 302.6 297.8 292.2 287.3 285.5 283.7 280.3 279.2 273.7 269 264.4 259.8 256.4 253.9 251.2 251.9 245.6 234.2 222.1 218.8 220.2 223.5 232.3 246.4 250.9 253.6 256.5 258.5 260 259.5 255.9 253.2 248.6 244.2 238.4 229.2 221 214.6 202.1 187.6 175.7 178.4 189.6 176.4 198.9 215.4 223.3 222.9 228.1 224.4 221.1 236.1 246.2 252 255.5 259.9 267.4 272 273.8 274.1 276.7 280.3 278.3 276.6 270.5 270.8 269.6 267.8 263.3 258.5 254.1 250.5 251.4 250.6 247.9 244 240.5 236.8 233.2 227.5 220.5 211.2 200.4 207.5 214.2 228.4 247.2 252.1 264.4 276.1 287.3 295.4 298.7 297.8 301.6 309.1 312.8 320.3 320 319.3 318.1 312.4 307.1 302.8 290.2 282.2 277 278 279.9 285.5 289 288.1 287.6 285.6 284.1 281.5 281.6 284.3 287.7 288.8 290.5 289.7 287.3 280 279.3 287.8 294.8 298.7 302.6 305.9 300.1 295.9 287.1 276.3 268.8 270.6 271.3 273 274.2 276.3 276.6 277.3 277.4 278.1 279.5 281.7 283.8 284.8 280.2 272.2 266.1 260.2 252.5 243.4 235.6 226.6 221.7 218.4 215.2 212.4 206.1 192.8 197.4 198.8 201.8 204.3
259.7 257.8 255.2 252.8 252.1 254.1 254.9 253.6 250.4 248.6 250.1 247.3 243.7 238.3 238.9 238.7 240.7 252.6 260.5 267.9 276.1 283.4 290.5 288.2 288.2 289.8 293.8 298.7 305.4 305 305.8 306.2 305.4 303 300.5 297.1 291.5 287.5 285.2 282.6 277.9 276.4 275.6 271.4 265.5 260.3 255.7 252.3 252.3 247.7 238.2 224.3 224.5 224.8 228.3 235 244.1 254.5 258 260.9 263.1 264.1 263.8 261.7 257.5 253.7 249.8 244.3 239.3 233.2 227.2 220.6 201.7 176.6 178.2 187.8 197.8 178.8 190.8 214.7 206.7 193.2 210 205 215.9 238.1 245.7 252.1 258 263.4 270.8 272.4 274.6 276.6 280.4 280.8 278.5 277.8 272.3 272.2 269 266.1 262.3 259 256.2 255 256.3 256 251.9 247.8 243.7 240.1 234.6 227.9 219.1 208.6 198.9 207.4 213.5 231 246.6 254.8 270.3 286.2 297.3 302.4 304.1 307 311 312.9 315.7 320.4 318.8 319.1 316.4 312 306.3 297.6 287.1 281.6 283.7 285.6 291.3 293.8 294.2 293.6 291.9 289.9 287.5 283.3 285 287.6 291.7 295.1 298.2 296 291.9 288 282.1 281.7 288 293.6 297.1 299.3 296.3 290.2 280.8 277.1 279.5 281.3 282.7 282.1 283 281.8 281.8 283.1 282.4 282.7 282.7 284.8 285.7 283 275.6 265.6 258.4 251.8 244.3 236.1 226.9 217.3 213.4 209.1 206.4 205.1 194.4 194.7 191.6 189.5 192 195.1
258.9 257.8 255.5 254.7 253.8 254.2 254.4 252.2 252 249.2 246.4 246.2 241.9 239 240.3 240.7 240.3 252.3 259.3 267.3 274.8 285.7 285.7 285.4 288.6 295.5 304.2 312.2 312 311.4 310.1 307.6 306.4 303.4 299.7 295.4 290.2 286.4 280.3 276.9 273.4 267.1 267.7 267.3 263.6 258.8 254.5 253.3 249.7 242.2 226.3 230.9 231.6 232.5 240.1 250.1 254.8 262.3 265.8 269.9 270.3 270 266.4 264.4 260.3 256 251.6 248 243.3 236.2 227.4 217.1 193.3 177.1 184.8 198.4 204.4 185.2 180 187 184.6 194.4 193.3 188.6 215.6 235.7 247.8 254.8 260.1 265.3 270 273 276 276.1 278.7 280 278.3 276.5 272.3 271.6 270.7 267.6 265.9 261.7 267.8 265.5 264.3 261 256.1 252.5 248 242.4 237.2 230.3 216.7 206.5 199.7 205.8 215.6 232.9 246 257.8 277.7 292.3 305.6 307.9 309.4 317.2 321.7 323.1 319.9 320.2 323.1 319.9 316 313.2 305 292.4 287.8 289 291.9 298.1 299.9 299.9 299.4 298.3 294.8 292.3 288.8 287.5 287.3 290.4 294.4 297.6 297.9 295.6 293 289.9 287.1 282.9 284.8 289.6 294.8 295.1 290.8 285.3 285.9 286.7 289 290.8 291.1 290.2 287.8 287.6 287.8 288.3 287.4 286.4 285.5 286.7 282.8 273.3 266.4 258.6 251.2 244 234.5 225 216.2 211.1 205.6 205.3 205.1 204.5 203.7 201 198.3 194.2 189.1 188.1
258.1 257.3 257 256 255 254.2 253.1 252.1 253.1 251.2 247.4 242.8 241 242.7 242.7 243.1 248.4 243.7 255.2 264.6 277.7 279.4 281 286 294 304.3 308.8 313.9 313.2 314.5 314.4 312.6 308 303.6 299.9 294.5 288.6 284.5 281.9 277.7 273.2 267 261.7 260.8 258.5 253.2 252.1 249.6 242.6 233 236.5 236.8 237.2 240.9 252.1 258.1 266 270.8 273.6 276 276.7 275.9 272.3 268.5 263.2 258.1 252.1 248.5 243.4 235.4 225.8 211.8 184.3 177.4 189 203.4 211 203.5 186.8 181.1 193.6 207.6 207.4 196.2 208.8 235.1 247 256.2 262.1 266.9 270.4 273.4 273.9 275.7 275.8 276.8 278 274.9 273.8 271.7 271.6 270 266.7 270.2 272.2 269.8 270.3 266.9 261.3 258.6 253.4 246.2 238.9 229 217 207.1 200.4 205.7 220.3 234.8 247.1 265.9 280.7 295.8 310.7 313.3 314 321.3 327.4 328.3 324.7 321.2 323.4 321.9 317.3 311.7 298.9 294.1 294.4 299.8 305.5 307.5 307.2 306 303.6 301.4 297.7 294.9 293.4 292.7 292.4 292.2 295.8 296.3 296.4 294.7 291.9 287.9 284.9 284 285 289.2 293.5 293.3 294.5 295.3 295.2 295.2 297.4 296.7 297 295.8 293.9 293.6 293.1 292.7 291.2 289.4 287.4 284.7 276.7 267.3 258.8 251.7 245.3 233.8 226.2 218.3 210.6 211.9 215.3 216 213.4 212.3 212.8 213 208.8 201.4 191.8 185
258 257.5 257.5 257.2 256.2 254.3 252.8 253.3 253.6 252.7 247.7 242.4 241.6 244.2 245.3 245.9 254.2 248.6 248.9 263.8 271.5 273.7 279.7 290.2 297.2 307.6 311.6 312.1 312.1 311.6 312.7 314.6 310.6 304.2 299.1 297.7 292 286.1 280.8 277.8 273.8 269.6 262.7 259.1 251 246.5 248.2 242.9 230.2 236.1 239.7 242.3 244.5 250.8 263.6 269.9 274.8 277.1 279.7 280.6 282 280.3 276.1 271 266.3 260.7 255.4 247.1 240.3 232.4 223.6 205.4 183 180.2 194.6 208.6 214.8 208.9 209.3 208.5 214.7 223.1 210.4 200 207.3 234 248.6 258.8 263.4 267.5 269.1 270 271.4 272.4 271.1 273.3 277.8 274.6 276.4 273.1 272.2 272.4 271.7 276.6 278.1 277.8 276 272.7 267.8 263.2 257.4 250.8 241.8 228.8 216.2 206.7 201.4 209.1 221 236.9 255.6 274.9 293.9 299 305.7 314.4 316.9 324.9 331.4 333.7 329.4 323.3 322.2 321.1 317.7 304.1 301.5 303.7 310.4 311.7 313.3 313.2 312.8 310.9 308.1 305 299.2 300.7 297.4 298.1 298.1 297.8 297.4 297.9 296.9 295 293.9 292 289.7 285.9 287.2 290.8 296.8 299.1 300.6 302.2 303.8 304.4 304.8 303.7 302 301.2 301.4 299.9 297 294 292.7 289.1 283.5 276.2 270.4 261.1 253.9 243.1 237.7 228.1 221 214.6 215.3 220.1 222.9 221.8 221.2 221.2 224.5 223 217.7 205.7 194.5 187.8
258.3 257.7 257.3 256.9 256.6 255.2 252.8 253.9 253.9 253.7 248.5 243.1 243 244.6 248.7 253.2 260.6 253.5 246.1 256.3 261.5 270.8 280.1 289.7 298.7 305 313.4 316.2 315.3 312.3 312.3 313.1 310 306 302.4 295.4 293.6 285.6 278.8 272.7 269.9 268.5 263.6 256.4 248.4 242.1 240.7 233.9 235.6 239.2 242.3 249.9 254.6 270.1 274.8 280.1 281.6 283.3 285.1 286.1 285.7 283.2 279.7 275.1 270.3 263.8 257.6 250.2 239.3 228 217 198 185.1 180.2 188.1 212.2 216.5 212.8 216.5 220.8 226 232.8 220 206.9 194.6 215.7 236 242.9 249.9 262 264.2 263.2 261.7 263 265.6 269.1 271.7 274.5 278 274.9 273.9 274.9 276.2 282.9 281.4 280.5 278 276 272.4 268.6 261.9 253.5 243.4 227.6 215 203.9 202.4 212.5 230.1 246.9 260.2 276.7 297 305.8 317.3 319.9 322.7 329.1 334.1 334.5 332.8 329.5 324.3 321.3 316.9 316.6 317.6 317.4 319 319.7 320.2 318.6 316.9 315.4 312.3 308.6 307.7 305.7 302.3 304.3 303.1 301.9 301.5 301.6 301.1 300.5 300.3 299.1 297.6 294.9 290.3 291.8 301 304 306.3 308.8 310.8 311.3 311 311.3 310.4 308.2 307.4 303 298.2 293.3 290.6 284.2 278 269.3 262.5 254.4 242.6 235 228.5 221.2 218.9 221.9 224.8 227.8 229 227.4 227.7 232 236 232.6 223.6 213.6 200.6 192
257.3 258.1 257.7 256.5 256.2 254.6 252.8 254.8 253.5 252.3 247.2 244.3 243.4 246.5 254.6 261 263.1 253.5 246.1 257.1 258.2 269.1 277.5 287.4 296.8 302.3 308.5 312.9 314.3 312.7 311.9 311.6 308 305.9 303.2 297.9 293.5 287.6 280.9 278 277.4 272.8 264.8 257.2 248.9 239.8 235.9 239.1 240 243.2 249.4 256.2 267.7 277.6 282 285.4 287.1 288.4 290.1 290.1 287.7 285.9 280.9 278.2 272.7 266.6 259.4 248.5 237.6 226.1 215.2 200.4 186.1 179.7 203.1 216.1 218.2 218 222 226 232.8 241.7 235.3 220.6 209.9 196.4 213 224 235.4 244 251.3 251.7 251.1 252.8 258.2 268.4 272 273.4 277.1 277.2 276.7 276.6 279.1 285.1 283.3 282.2 280.2 277.9 275.3 271.3 264.2 255 242.6 224.7 212.4 201.6 206.6 215.8 235.3 258.1 272.8 273 292.2 308 314.2 322.1 325.3 329.8 332.9 333.9 332.8 331.2 324.9 319.9 322.8 322.5 323.1 324.9 326.6 327.1 326.1 324.6 322.9 320.7 317.6 314.5 314.3 311.3 307 309.2 308 306.8 307 308 307.3 307.6 308.1 306.7 306.8 305.2 301 297.6 305.6 311.8 312.4 314.9 315.5 316.9 318.6 317.5 316.8 313.6 309.5 303.9 297.5 292.8 287.9 281.1 272.8 264.2 253.3 244.6 233.6 228.5 221.7 221.7 227.1 228.8 232 233.5 233 234.6 235.4 240.6 241.5 235.6 226.1 216.3 208.8 197.6
257.3 258 256.9 256.8 256.4 254.3 254.3 254.8 253.1 250.6 248.7 244.6 244.5 250 261.3 265.5 261.2 254.1 248.8 258.5 264.4 271.4 274 280.8 294.5 301.1 306.7 307.9 311.4 311.4 311.3 311.4 306.2 304.5 303.8 299.8 295.4 291.5 285.8 285.5 281.1 273.3 265.8 257.4 248.2 237.6 240.9 243.4 241.4 251.9 258.4 266.5 276.5 283.3 287.5 290.9 291.9 292.9 294 292.6 290.9 287.1 284.3 279.3 273.7 267.5 256.6 243.9 234.5 221.9 210.3 204 189.1 192.9 208.1 219.9 220 221.5 227 232.3 239.2 247.7 241.2 232.4 220.3 199.2 210.3 222.3 230.4 238.6 246.5 247.2 248.2 250 259.6 264.3 270.8 273.8 278.8 280.5 280.6 278.3 280.7 282.1 282.7 284.4 282.4 279.8 275.9 272.4 267 258.4 243.6 224.5 207.1 204.3 208 217.9 238.7 264.8 276.4 286.3 281.4 291.6 311.8 318.8 325.1 325.7 328 333.5 335.9 332.7 323.7 320.4 326.5 328.9 328.1 329 331.3 332.6 332.3 330.6 328.2 326.2 321.1 320.1 319.5 317.7 313.8 315 314.1 313.2 313.8 315.3 317.2 320.3 320.2 316.4 315.2 313.1 306.5 303.6 310.4 317.2 318.7 320.5 321.3 323 322.4 320.1 319.2 314 308.2 303.1 294.6 289.8 284.5 276.7 266.8 257.5 245.1 236.5 228.6 224 227.3 231.2 232.3 234.9 237 238.4 238.2 240.1 244.1 248.6 248.6 242.3 234.6 225.3 215.2 204.6
256.5 255.9 256 255 254.6 254.5 255.1 255.3 253.9 251.4 249.9 245.8 249.1 258 268.1 265.2 256.8 262.3 257.2 250.5 265.7 273.8 279.7 276.5 288.6 298.9 305.9 309.6 310.2 310.7 310.2 309.8 306.3 302.1 300.4 297.4 293.8 294.1 292.1 286.2 279.6 271.8 265.1 257.4 248.3 243.6 250.6 249.7 247.5 256.7 265.4 274.9 281 286.9 292 295.1 296.5 297.5 297.2 295.5 292.4 290.4 286.9 281.5 273.8 264 250.9 239.9 230.2 219.2 210.2 207 185.1 196 211.9 221.4 222.2 224.6 230.6 236.4 243.2 250.1 243.6 233.7 224.8 202.4 218.1 227.4 233.3 238.2 242.6 248 251.1 251.7 256.5 263.4 271.6 271.9 277.3 280.5 283.7 281.1 282.3 283.6 284.8 285.4 284.5 280.7 277.3 273.6 268.3 260.7 248.3 226.1 208.3 205.1 207.4 217 240.3 262.9 276.2 288.6 293.9 288.7 296.3 310.1 319.3 323.1 321.3 325.2 331.9 334.4 322.7 320.8 326.5 330.9 332.2 334 337.8 339.8 337.6 335 330.9 328.6 325.8 325.7 325 322.7 319.8 321.9 322.1 321.6 322 323.5 326.9 329.8 330.5 331.1 328.4 320.4 312 307.3 312.8 319.6 321.7 322.9 324.8 328 327.6 323.2 318 314.1 309.2 300.1 292 285.1 277.8 271.1 258.6 247 238.1 230.1 225.6 229.9 234 236.7 236.8 239.2 241.2 241.9 243.8 245.9 251.1 252.3 249.8 243.8 236 226.5 216.5 204.8
257.2 257.5 256.3 255.9 254.4 255.7 254.5 254.7 254.4 249.9 248.4 251.7 256.5 265 269.5 262.8 262.4 266.3 266.5 259.5 269.2 276.7 284.3 279.4 282.7 294.8 306 310.3 310.8 311.2 309.1 309.3 306.7 306.2 302.8 300.3 299.4 298.3 291.1 285 278.2 270.5 263.4 255.9 245.5 254.7 256.9 252 255.6 264.3 273.4 282.7 287.5 292.8 296.5 299.2 300.3 300.9 299.9 298 295.9 292.7 288.4 282.5 273.2 259.8 246.7 234.8 224.7 215.6 210.3 205.9 193.6 206.7 216.5 222.1 223.3 227.5 234.9 240.9 250.3 250.4 242.2 231.1 217.9 214.2 229.3 234.1 239 244.1 248.8 253.6 254.2 255.1 256.4 262.5 272.9 274.5 275.7 282.9 287.1 288.1 286.3 285 286.7 285.9 283.1 281.8 278.9 274.9 268.7 260.9 247.8 226.7 213.7 205.2 207.7 215.5 237.5 258.4 273.9 286.7 293.2 300.8 304.6 309.2 312.8 318.6 318 326.2 323.7 322.2 320.5 323 324.7 332.1 335.9 338.4 341.7 343.7 342 338.9 335.2 331.8 330.4 329.7 328.9 329.2 326.7 326.5 329.8 331.3 331 333.1 335 336.4 337.7 339.1 337 328.3 319.8 311.6 315.8 320.8 324.9 328.4 329.5 332.7 330.2 324.7 317.4 313 305.3 297.1 288.3 278.6 269.5 261.8 249.7 240.5 232.9 228.2 232.5 235.6 238.6 240.6 242.3 243.8 245 245.8 249.1 252.1 252.5 251 247.9 241 233.5 225.2 220.1 212.4
256.5 256.4 255.8 255.9 255.1 255.3 256.8 255.7 253.9 249.6 250.1 255.2 261.3 267.9 266.5 261.5 267.9 271.2 261.5 265.1 272.4 280.2 289.6 282.4 280.1 291.5 300.7 309.1 307.5 307.7 307.7 307.5 306 303.6 302.4 302.3 303 296.4 289.4 282.6 277.1 268.4 262.1 255.8 254 260.5 260 255.3 264 270.8 278.4 289.8 295.2 297.5 300.9 302.7 304 304.2 302.3 300.1 298.6 294.6 290.1 283.8 274 263 246.7 236.5 221.1 212.1 205.8 193.4 206.8 213.6 220.7 222.9 223.9 228.9 236.2 244 252.1 246.5 235.3 224.1 210.4 221.8 235.3 237.2 243.2 247.9 252.2 254 257.8 258.4 259.1 265.2 274.8 279 279.6 283.4 292.6 293.4 290.4 287.9 288.1 287 282.8 283 280.7 275.2 269.9 262.3 246.3 224.8 209.5 207.7 208.6 215.6 235.2 260.6 272.8 284 292.6 296.7 299.2 302.2 308.9 307 310.5 313.7 320.1 321.7 319.5 323.2 326.5 332.3 337.9 341.6 345.9 346.2 344.3 341.8 339.6 337.6 335.5 334.1 333.7 333.7 333.4 331.6 335.4 338.3 340.2 341.9 343.7 345.6 345.9 344.5 344.7 339.3 330.1 323.9 325.7 328.2 331.1 335.5 335.4 334.2 330.4 321.1 316.5 312.4 302.4 292.4 283.3 274.2 262.1 251.2 241 234.4 231.3 234.2 237.1 240.4 244.1 245.9 246.4 247.8 249.1 250 252.9 252.4 251.4 249.2 246.3 242 236.3 231.1 223.4 213.6
255.4 254.9 255 255.6 256 256.1 256.4 255.2 252.3 250.6 252.1 259.1 266.8 268.4 264.1 265.4 270.9 273.9 259.1 268.4 277.2 286.1 294.8 288.4 282.1 282.9 292.9 301.4 304.5 303 305.6 305.5 302.5 300.3 300.7 303.9 299.3 293.2 287.2 281 274.9 267.6 260.4 252.2 260.6 265.5 264.7 260.8 269.5 276.5 285.1 293.7 298.9 302.2 305.4 307 307.6 306.7 303.9 303.3 300.6 296.5 291 283 272.5 259.9 245.7 236.5 221.9 209.2 196.5 189.6 197.8 215.6 221.9 222.5 224 229.3 238 247.2 242.6 236.3 226.5 211.4 211.7 227.6 234.3 238.3 245.8 249.8 255 257.5 258.9 260.5 262 269.5 276.6 283.9 283.8 287.9 296 297.6 292.7 290.6 287.7 286.1 284.1 284.5 279.7 274.6 268.3 261 243.3 223.3 207.6 209.1 210.5 214.8 235.8 258.9 269.4 283 292.5 294 296.2 297 299.8 302.4 310.1 314.8 311.3 310 314.9 321.3 327.4 331.2 338.7 344.4 350.3 349.6 346.7 344.1 342.1 341.4 340.5 340.1 339.5 339.1 338.8 338.7 341.1 344.2 347.5 350.7 352 353.3 354.2 353.8 351.9 347.3 340.3 337 337.5 338.3 337.9 338.3 336.8 333.7 327.3 317.4 313.5 309.5 301.1 289.8 279.6 268.5 256.8 241.5 234.9 233.9 234.3 237.9 243.5 247.2 250.1 252.8 253 253.8 254.7 254.6 256.1 257.3 256.5 253.5 249 244.8 239.3 232.8 226 219.7
258.1 255.3 254.8 255.8 256.3 257.6 257 255.1 252.8 251.9 256.3 265.6 267.8 266 264.1 269.4 274 274 257.6 275.9 284.1 293.7 301 294.8 287.1 282.4 286.1 293.4 300.7 300.4 302.6 303.1 300.5 299.8 302 300.4 294.8 288.3 283.2 277.4 270 265.5 255 261.7 270.4 272 272.2 265.3 272.5 281.7 290.5 296.9 302.3 307.1 310 311 311 308.9 307.7 305.7 302 297.4 290.1 282.2 270.9 254.5 245.3 234.3 219.3 207.4 197.5 189.7 206.3 215.5 220.3 221.8 224.6 229.1 238 243.9 234.6 227.6 220.3 212.5 211.4 218.9 222.6 229.5 240.9 251.7 256.6 258.5 258.8 260.7 262.3 268.6 276.2 285.6 286.1 292.1 296.3 296.6 296.1 292.6 288.3 286.1 285.1 282.3 277.8 273.1 267.4 258.5 237.2 221.4 209 210.1 211.8 215.6 230.8 252.9 269.3 283 289.1 288.9 290.3 285.8 285.2 294 301.6 302.9 301.6 300 307.2 319.4 329.3 333.1 337.7 346.5 352.6 351.5 348.8 347 344.4 344.3 344.5 344.4 344.8 346.2 346.3 345.5 349.1 352.3 355.1 357.4 361.7 362.3 362 359.7 357.6 355 350.7 350 349.6 347.4 344.5 341.1 336.2 332 325.4 315.2 309.2 303.7 297.4 285 271.1 254.7 244.2 237.1 237.8 240.6 244 247.3 251.8 255.5 256.8 258.7 259 259.8 261.2 261.1 263.3 263.1 260.3 257 254 249 244.6 239.3 232.3 225.4
257.4 255.1 256.2 254.7 256.7 258.2 256.5 253.8 253.2 253.2 262.1 266.6 264.5 263.5 266.1 273.1 276.9 269.7 269.3 278.4 289 298.5 306 299.3 292.5 284.8 284.3 286.8 292.3 294.9 299 298.6 297.8 299.9 299.6 295 289.9 283.7 278.9 272.4 266.2 258.1 264.5 273.4 280.1 280.7 278.9 272.9 281.1 288.9 296.7 302.8 306.9 311.2 313.7 314.4 314.4 311.9 310 307.1 303.2 297.5 288.9 270.2 257.5 251.9 246.2 235.4 220.9 207 194.1 191.1 206.3 213.5 220.1 223.4 224.1 228.1 235.7 234.2 228.1 221.4 216.5 213.3 213.7 214.3 214.9 215.8 223.8 236.5 256.7 257.7 259.1 260.9 262 267.4 278.1 286.7 288.1 292.8 296.6 295.7 294.5 294.1 289.5 284.4 283 281.6 277.1 271.7 265.1 254.3 232.4 218.5 208.8 211.5 212.2 216.1 224.4 244.8 261.8 275.2 280.2 277.1 267.9 260 263.9 272.6 279.1 280.3 287.4 305.6 315.1 319.6 326.1 331.6 337.3 345.5 353.6 353.3 351.2 348.3 345.5 345.6 346.6 347.2 350.8 352.7 354.5 354 356.4 360.2 368.3 372.7 372.4 371.1 368.9 366 364 362.4 359.6 356.2 355.7 356.1 346.7 341.6 334.2 327.4 320.4 317.3 305.9 297.1 289.2 272.1 257.1 246.2 239.3 241 243.6 247.7 252.2 257.2 259.8 263.8 263.6 264.6 265.8 267.4 268 269.6 272.4 270.3 268.1 264.9 260 255.2 250.1 243.5 236 229.6
253.6 253.7 254.5 254.7 256 255.9 255.3 254.4 255.2 259.2 257.8 263.8 263.7 264 272 276.6 277.9 264.4 274.6 281.5 289.6 301.9 306.7 298.6 292.6 287.5 290.2 291.3 292.3 291.9 293.2 295.9 298.1 299.5 294.3 290 284.3 277.8 273.5 264.6 261.6 265.7 276.8 285.4 288.8 289.3 283.6 283.8 291 298.1 303.7 307.5 311.1 314.5 316.9 317.3 316.4 314.5 311.3 307.6 303.3 297.2 288.6 267.2 269.2 259.9 250.6 237.5 222.3 206.9 192.3 194 208.1 214.5 221.5 225.4 223.9 225.2 228.7 227.5 223.3 218.8 216.5 216.3 213.1 214.7 215.8 216.6 216.9 218.8 238 255.3 258.4 258.8 262.8 268.1 271.7 279 288.7 289.7 292.5 295.7 292.1 291.6 288.8 284.2 282.6 279.1 276 268.5 259.6 246.4 230.1 218.9 211.1 212.8 214.3 214.4 222.1 229.8 242.8 249.4 257.1 258.2 252.1 256.2 260.3 265.2 273.6 287.3 302.8 313.1 318.6 322.7 326.3 331.2 336.2 343.4 351 355 352.7 349.2 347.7 347.7 349.2 351.5 356.1 360.1 362.4 362.3 367.3 372.4 377.3 382.7 383.6 378.5 374.6 374.2 372.1 369.8 366.2 362.1 360.9 357.8 349.8 344.7 338.5 330.8 322.6 312.3 302.8 291.3 275.6 259.3 249 242.5 244.8 248.2 253.5 256.9 261.2 264.3 266.7 268.5 269.1 270.8 272.1 272.4 273.2 276.1 277.8 278.3 276.4 269.5 268.5 262.8 255.1 245.8 236.9 229.8
250.5 249.8 252.1 255.4 256 255.3 255.6 256.4 259.4 262.1 260.7 262.2 264.1 264.9 274.7 279.7 277.4 265.4 274.5 283 295.2 305.2 303.9 295.8 290.9 289.3 293.5 295.2 294.6 293.6 295.1 298.1 299 296 290.8 285.4 278 273.4 267.7 263.4 271.5 278 287.1 293.6 296.9 295.7 292.4 291.2 298.7 305.2 309.2 312.2 315.1 317.6 319.3 318.9 316.9 314.1 311.5 308.9 302.4 296.3 289.2 281.3 269.8 259 249.4 235.2 218.8 202.1 193.2 202.4 214.6 217.5 225.6 226.7 225.6 224.3 223.2 222.1 220.7 224.3 223 220.6 224.3 223.1 220.7 223.9 216.9 218.3 222.9 234.6 246.7 253.1 261.7 263.5 265.3 273 284.2 285.5 290 290.6 290.6 289.1 287.8 283.7 280.8 277 272 264 256.1 244.5 232.6 220.1 212.6 213.5 215.2 216.8 218.2 224.4 231.4 237.7 246 253.6 258.7 258.8 262.6 276.5 290.1 298.4 310.3 317 320.6 323.9 327.1 330.1 334.7 337.8 342 351.3 350.8 348 349.2 349.6 352 356.6 362.2 368.4 369.2 370 372.9 377.7 383.9 386.4 387.3 383.9 381.5 378.1 375.4 371.8 367.7 363 361.9 359.6 354.5 349.9 343.1 333.8 323 308 293.3 276 262.6 253.2 248.3 250 253.9 260 264.5 265.3 267.7 270.5 273.5 274.7 277 278 278.3 279.6 285.1 286.7 284.3 281.5 277.2 274 272 269.5 260.2 248.5 237 235.8
249.9 252.1 253.9 253.7 254.4 255.6 256.9 260.6 263.5 263.6 260.7 267.2 265 265.5 276.4 280.5 276 264 275.9 284.5 297.1 302.2 299.4 293.9 288.8 291.2 294.9 298.3 297.4 297.8 298.2 296.3 294.7 291 287.2 282.4 275.7 269 264.5 273.7 278 285.1 293.5 299.3 301.3 299.4 298.7 297.2 303.6 311.1 314.6 316.7 318.7 320.1 321.1 319.8 319.4 317.9 315 310.9 304.7 297.4 288.1 281.4 271.2 260 248 232.9 217.4 202.1 191.4 211.6 220.1 222.3 227.5 230.3 230.3 225.8 224.2 229.3 234.6 237.1 235.6 228.3 231.5 235.8 240.4 230.6 227.6 218.7 219.4 225.7 233.9 241.1 248.6 254.8 260 269.3 283 286.6 286.1 289.9 287.4 285 283.6 282.6 279.7 275.3 268.9 260.4 250.9 241.1 231.1 223.1 213.1 213.9 215.9 218 218.8 220.9 224.1 232.7 243 256.5 264.5 264 265 272.1 289.8 308 313.2 317.4 318.5 320.7 323.7 326.8 330.6 332.2 334 338 340.3 344.4 347.6 350 354 360.9 367.2 372.7 374.4 374.1 377.3 380.6 384.7 387.9 391.8 389.2 386 381.8 376.7 369.3 365.4 361.2 361 359.5 356.7 349.6 340.2 333.6 321.8 303.5 289.9 275.5 262.8 258.1 258.3 261.3 268.1 270.3 271.9 271.9 274.7 276.9 278.9 281.9 284.5 286.4 290.8 298.1 300.6 298.9 295.7 290.5 286.6 279.8 274.1 270.7 264.8 251.4 241.6 241.3
247.9 251.4 255.9 256.8 257.6 259.9 258.6 263.2 264 262.7 262.2 267.2 267.1 267.7 277.5 279.7 268.9 266.4 276.3 286 292.9 294.2 294.6 291.7 287.9 291 294.7 299.8 300.5 298.4 295.3 292.9 290.7 287.4 284.3 279.3 274.3 266.6 269.9 278.5 283.4 292.5 300.2 304.8 305.2 304.3 304 304.3 310.3 315.5 318 319.9 322.3 323.3 322.5 322.3 321.9 319.4 317 311.5 304 297 289.3 281 272.5 262.7 244.7 229.7 213.9 199.9 196.2 218.3 223.7 226.3 229.7 232.3 232.7 229 230.5 235.4 243 245.2 236.2 235.8 239.3 244.1 250.9 240 230.9 220.5 219.8 222.6 230.1 237 242.8 247.9 253.8 263.7 280 291.2 288.3 286.9 286.2 283.5 281.5 279.9 278.2 272.5 266.3 259.4 247.2 235.7 227.1 215.6 215.7 216.8 217.8 220.2 223.1 226.3 225.9 225.6 238.8 249 260.5 266.7 269 270.1 272.2 284 302 307.3 311.2 316.1 320 321.1 323.5 325.3 326.7 326.7 332.4 334.7 341.4 346.1 352.9 361.1 368.1 371.8 374 374.8 377.9 381 384.8 389.9 395.4 392.1 386.8 381.7 375.9 368.9 364 361.2 361.1 360.7 356.3 351.1 343.1 335.5 318.5 298.1 282.8 273.4 267.9 270.1 275.6 277 276.9 278 278.6 279.9 283 287 290.6 293.4 295.2 299.3 307.9 315.8 315.5 311.3 305.4 303.2 297.5 289.4 281 273.4 268.5 254.4 246.1 243.8
250.6 256.5 260.4 260.4 261.3 263.7 262.2 260.8 264.1 263.2 262.2 266.8 269.8 270.5 278.7 278.5 268.6 270.1 275.9 281.2 285.7 288.1 291.5 289.5 286.8 289.3 293.2 295.6 294.3 292.7 290.4 288.8 285.8 283.7 277.8 274.9 274 270.8 275.3 282.3 288.8 297.9 305.4 308 308.8 309.2 308.5 310 317.3 319.7 321.8 324 325.7 325.3 324.5 324.7 323.5 319.9 315.9 310.4 304 297.3 288.5 279.1 268.3 256.3 241.5 228.1 208.8 193.5 205 220.5 224.9 227.7 232 234.3 233 231.3 235 242.7 250.4 246 239.8 243.7 249.1 254.4 261.9 251.7 235.4 227.6 222.2 221.6 227.6 232.6 237.8 243.5 254.1 265.2 277.6 284.7 288.9 287.8 287.2 284.7 282.5 279.2 275.3 269.8 263.6 257.5 242 230.5 225.2 218.6 223.8 228 227.3 226.3 232.7 236.9 243.8 231.9 226.8 243.3 251.3 260.2 268 267.5 266.5 269.1 278.2 288.5 293.7 302.5 311.7 314.9 317.5 321.8 323.9 324.1 325.8 328.8 329.2 336.3 342.3 351.9 363.8 370.7 373 375.8 379.9 382 387.6 393.4 397.3 391.5 383 378.9 370.8 365.2 362.9 361.5 362.1 362.8 357 346.7 337 325.1 308.8 294.6 284.3 281.4 281.1 283.5 287.6 286.9 287.8 289.3 289.2 292.6 293.9 298.4 302.7 306.6 308.3 313.7 324.7 331.7 328.1 321.6 318.6 314.6 308.6 300.1 288.7 280.4 272.3 259.1 251 249.9
253.2 256.1 260.8 262.5 264.6 265.8 264.7 263.9 265.2 264.5 263.3 269.3 271.8 274.4 280.4 278.2 269.6 269.9 275.5 279.2 282.2 284.7 291.2 287.8 285.8 287.7 289.4 290.6 290.3 288.9 286.2 282.8 279.9 277.9 277.3 274.8 275.2 273.3 280.1 286.7 292.9 299.9 306.4 308.6 312.1 313.5 312.4 319 321.7 323.1 325.5 328.2 328.6 328.7 328.5 327.2 324.6 320.5 315.6 310.1 303.5 296 287.9 275.8 262.7 249.8 237 222.3 205.1 193.8 207.1 221 225.4 229.1 233.4 233.7 232.6 235.1 239.8 248 251.1 244.2 245.1 251.2 260 270 269.9 260 243.6 235.3 227.1 222.1 223.5 227 232.8 246.6 263.8 272.6 287.8 294.3 291.4 290.3 288.2 286.1 283.2 280.7 274.7 270.3 264.4 257.9 249.1 237.2 227.7 227.1 236.6 237 239.3 240.9 241.4 245.1 248.3 245.1 228.4 236.6 244.2 250.7 256.9 263.3 260.4 262.1 270.7 278.4 289.6 299.8 307.9 314.4 317.7 320.2 321 320.3 321.7 323.2 320.8 320.2 325.6 340.8 356.7 369.5 376.6 378.3 382.1 386.4 388.6 387.8 386.1 383.8 379 371.3 363.5 361.7 364 365 361.2 359.7 351.7 342.2 330.8 317.1 305.3 296.3 292 293.6 294.8 295.6 296.2 297.9 297.2 297.9 301.7 302.6 303.5 307.9 311.3 316.5 321.1 329.3 339.7 342.4 336.5 330.7 329.5 323.3 318.1 309.8 298.8 290.4 280.1 257.8 264.9 261
255.5 259.7 261.8 263.7 266 266.5 266.2 265.7 266.4 268.8 268.8 273.2 274.3 278.8 281.8 276.4 274.2 269.8 274.4 277.9 280.5 283.4 289.1 286 284.7 284.1 285.2 285.8 285.2 284.2 282.1 279.8 280.3 279.8 277.3 276 276.2 277.5 283.8 288.3 292.6 298.5 303.7 309.8 315.1 317 318.8 324.4 325.5 327.1 329.6 330.7 331.1 332.3 331.6 328.9 325.3 321.2 315 310 302.5 295.3 287.4 277.5 260.7 245.2 231.8 217.8 198.1 197.8 206 217.5 226.2 230.4 234.5 233.1 233.6 238.7 245.2 252.6 248.3 245.9 251.6 260.5 270.3 279.2 273.4 265.2 256.1 246.5 235 222.8 223.9 230.3 235 255.1 276.1 286.3 287.7 297 295.7 293.7 290.9 288.9 284.6 280.8 276 271.4 266.1 259.3 250.6 237.4 231.3 222.1 239 244.5 249.4 249.7 250.9 251.8 253 253.2 252.5 240 232.9 242.7 247.7 249.7 251.7 257 265 274.7 292.3 303.3 310.5 314.3 315.4 315.9 315.7 315.8 315.6 314.1 312.7 313.3 321 333.5 349 365.1 374.2 377.4 382.1 385.8 387.5 385.8 380.4 375.1 369.5 363.5 361.8 358.9 362.7 363.8 356.9 353.6 347.2 339.2 326.4 312.1 305.1 300.4 298.6 300.9 303.6 305.5 307.9 307.7 308.6 307.2 309.3 309.8 310.4 313.5 320.5 328.6 335 342.4 349.9 350.6 344.2 340.3 338.4 331.8 326.7 314.6 307.4 299.8 290.4 279.5 278.3 272.6
257 260.7 263.9 264.8 267.3 269.6 270.5 268.1 270.6 273.1 272.2 274 277.1 282 280.2 276.9 277.5 270.7 270.7 275.9 278.7 283.6 287.3 289.9 287.5 283.6 283 283 282.4 280.9 280.4 280.5 280.8 278.6 277.7 278.6 278.5 278.7 285 289.2 293.6 298.4 304.8 311.2 317.5 320.8 325.8 327.4 328.5 331.4 332.7 333.7 336.6 335 333.3 329.9 327.3 321.7 316.1 308.9 301.1 293.2 285.2 274.8 263.3 243.5 230.5 213.8 195 205.2 217.4 223.9 228.1 229.2 234.2 234.3 238.1 243 248.9 249 247.7 254 260 269.4 281 285.4 277.4 268.9 266.3 258 242.5 226.5 224.1 232.1 239 258.4 283.9 289 300.7 300.9 297.9 295.8 292.5 291.8 288 283.3 277.6 270.9 268.1 262.3 258.4 243.4 235.6 221.8 236.5 246.9 252.5 255.1 258.2 259.3 259.6 260.1 261.4 261.7 248.4 236.1 238.6 241.2 244.7 251.2 262.7 273.7 288.8 301.1 306.6 309 310.5 311 310.7 307.6 308 305.3 306.5 311.6 319.8 333.3 343.6 354.9 365.8 370.9 378.1 383 382.1 379 374.3 366.3 359 356.4 354.3 346.1 357.9 358 354.3 346.1 340.6 333 318.7 307.5 302.5 300.4 301.8 307.5 310.9 314.2 316.5 319 318.4 317.4 315.3 313.4 316.4 317.6 327.5 340.4 348 352.7 357.8 356.6 350.4 352.4 344.2 337.4 327.6 317.9 312.1 306.4 298.3 293.2 289.7 279.3
258.8 263.3 266.1 268.9 269.8 274.1 276.3 268.7 273 272.6 272.2 276.2 279.6 282.8 278.8 279.2 280.7 276.3 272.7 273 278.1 283.1 290 294 289.2 283.8 282.9 282.9 281.9 281.9 281.9 281.7 280.9 280.1 281.1 281.7 281.9 283.9 285.1 290.5 296.8 302.4 311.5 316.9 322.2 327.2 329.1 330.7 332.9 335.8 335.9 336.6 336.5 335.9 334.5 331 327.6 320.4 314.1 306.6 298.9 290.9 280.9 273.6 261.8 242.6 227.5 208.4 195.4 206.1 220.4 225.6 230.1 234.6 234.4 236 242.3 246.7 248.5 247.5 251.4 259.1 266 274.9 288.1 285.2 277.4 277.3 272.1 263.8 247.4 232.4 224.5 233.6 243.3 258.5 281.5 293.6 302.6 300.1 297.8 295.4 294 292 288.9 284.5 279.6 273 269.3 267.6 262.8 255.5 241.6 231.3 240 251.6 258.4 260.8 261.9 264.1 264.6 266.3 267.7 268.5 268.6 264.7 264.4 261.8 257.2 249.8 259.9 272.2 284.1 291.7 298.3 303.5 306.7 306.7 305.7 304.1 302.4 301.6 303.2 308.5 317.8 333.1 349.1 355.7 359.6 362.4 363.4 370.1 372.8 370.2 363.6 357.1 351.4 346.7 341.5 335 339.5 347.9 346 340.1 333.1 325.4 309.4 304 300.7 298.6 304.9 310 318.7 323.3 325 327.7 325.5 327 320.9 318.2 318.6 321.1 331.6 346.4 357.1 358.7 362 361.6 354 354.1 350.6 343.1 334.2 325.4 316.3 309.5 305.1 302.1 297.3 284.9
261.8 267.4 270.5 272.8 275 279.5 281.6 276 270.4 272.6 271.8 276.4 280.6 282.9 281.1 281.3 282.2 278.9 274 273.2 281.3 287 294.9 294.3 288.8 284.1 283.4 283.3 282.7 282.1 283 282.3 282 281.7 282.5 284.2 287.7 290.1 290.2 295.2 301.2 310.7 318.3 323 328.7 330.2 331.8 334.6 337.9 338.7 339.1 339.2 338.9 337.8 334.6 330.7 325.4 320.4 313 303.8 295.7 287.1 279.4 269.4 253.6 237.4 222.5 195.9 200.3 210.2 221.8 227 232 235.3 237.7 240.6 244.2 246.3 247.5 250.1 255.4 264.1 271.8 280.1 287 282.9 282.7 283.1 276.2 265.4 250.3 236.2 225.1 234.6 245.6 260.6 286.9 299.4 299.6 299.7 297.5 296.2 294.5 291.9 288.7 284.2 279.3 273.5 273.7 272.1 266.5 255.8 242 240 248.4 258.5 263.2 263.4 264.8 266.4 269.3 270.8 273.2 273.2 272.5 271.3 268.6 263.5 258.4 257 253.3 266.6 276.9 286.2 294.1 299.7 302.9 303 302.1 301.2 300.9 299.1 300.5 305.2 315.3 330.1 345.7 354.7 359.2 358.7 358.4 356.3 355.5 356.7 355.7 349.1 344.4 336.8 333.1 324.3 324 331.1 333.2 334.1 329.9 315.3 302.3 297.4 294.1 294.5 298.8 310.8 322.4 329.7 333 332.6 332.4 328.6 325.1 322.4 319.9 321.8 330.2 345.4 357.4 366.8 370.5 366.6 357 354.2 356.1 353.2 342.5 331.4 320.5 313 306.9 304.5 303.6 288.9
268.1 271.2 273.1 277 279.8 284.9 285.6 279.9 271 272.8 274 278.9 283.9 285.6 283 279.6 283 281.1 275.5 278.7 284.3 291 298 295.6 290 288.8 285.3 283.5 283.2 283.6 284.3 284.1 284.4 287.7 284.4 286.4 289.8 293.7 295.9 299.4 306.9 317.5 323.7 329.8 332.6 334.5 337.5 341.1 341.8 341.6 341.5 341.9 342.1 339 335.2 330.7 323.6 318.3 311.8 301.5 293.3 285.3 276.9 266.6 246 232.6 219.5 197.9 203.3 216.5 224.3 228.8 234.3 235.9 240.9 244.9 247.8 247.3 248.9 254.1 258.9 267.2 276.9 285.9 282.9 283.5 286.6 282.9 275.5 265.8 254.8 237 227.3 232.5 245.5 266.4 292.6 299.4 301.3 300.6 297.6 297.1 294.3 291.4 286.9 284 278.5 277.4 278.1 273 263.8 252.1 236.3 247.3 254 262.7 263.6 265.1 267 271.4 274.8 275.9 277.1 280.5 280.3 276.3 270.7 265.7 264.7 264.3 264.2 257.4 271.4 281.7 291.5 296.9 299.8 302.4 303.3 302.7 300.6 298.2 297.9 304.9 316.3 327.8 336.9 348.7 352.8 355.9 357.5 356 351.8 348.5 346.2 340.5 331.1 326.2 321.6 316.7 315.2 314.7 321.4 323.9 328.2 306 297.7 293.1 287.9 286.8 293.7 305.8 323.2 333.6 338.8 338.6 337.2 335.3 332.9 325.3 321.4 318.5 322.1 336.4 351.7 369.2 371.9 366.5 360.4 357.9 357.2 354.8 346.3 332.4 322.7 313.9 307.3 304.5 302.1 291.9
271.1 275.3 278.2 281.4 284.5 288.4 288.2 282.2 272.3 274.4 277.6 282.1 287 290.2 284.8 279.3 279.2 280.9 276.2 280.7 287.4 294.5 297.2 295.2 293.6 291.7 291 289.8 285.5 286.5 286.2 285.4 288.6 291 287.4 289.9 293.9 296.5 300.8 304.9 316.1 322.9 330 332.9 335.9 338.4 342.8 343.7 344.8 343.9 344.5 346.3 343.7 340.3 336.4 330.2 323 315.9 308.8 297.4 288.7 282.3 272.2 259.1 239.2 227.6 217 199.4 204.4 216.2 226.6 230.4 234.2 238.5 244.1 248 250.9 250.6 250.6 256.2 262 271 281.1 282.7 280.3 285.2 288 283.3 274.8 265.5 255.2 233.9 227.9 235.5 249.7 272.4 293.5 301.5 302.4 299.6 298.9 296.8 294.6 290.9 287.2 283.4 282.9 283.7 283.1 278.5 272.3 254.9 236.9 253 259.4 261.8 264 266.6 271 275.5 278.1 279.5 280.7 281.2 282.3 279.1 275.7 272.3 271.7 270.3 272.6 270.5 260.2 278.6 288.6 295.3 298.8 302 302.1 299.6 296.4 294.9 296.9 308 319.2 326.9 334 338.3 344.7 346.8 350.6 350.7 349.5 347.3 339.9 330.1 323.2 316.4 312.1 308.5 306.4 304.3 310.2 311.7 308.4 297.8 291.3 287.3 282 280.8 288.8 298.8 311.7 332.2 340.8 344 343.7 342.2 335.1 322.8 317.4 301.5 302.8 322.7 345.2 360.4 367.3 363.9 364.9 363 357.9 349 336.8 329.7 325 316 312.4 307.2 305.8 293.3
273.3 277.4 281.1 285.6 289.7 291.4 287.6 282.4 273.6 277.7 280.8 284.7 289.5 293.9 288.1 283 278.9 277.5 277.5 282.3 289 294.7 294.4 295 296.1 295.1 294.9 294.8 293.6 291.1 289.1 288.8 292.5 294 295.5 297.5 300.9 304.5 307.5 312.8 320 328.4 333.4 337.5 339.8 342.5 344.3 346.8 347.2 346.2 347.5 345.3 342.1 339.9 335.6 329.2 321.3 312.9 305.4 296 287.1 276.2 267.7 250.3 236.2 223.7 210.2 199 206.7 213.4 228.6 231.8 234.5 240.8 246.7 250.8 253.2 253.2 254 259.2 265.2 277.3 282.1 279.4 280 286.6 288.4 282.8 273.2 264.7 254.4 238.3 228.8 237.8 258.1 278.1 294.7 298.1 298.5 299.2 300 298.6 295.6 291.3 288.1 285.7 286.2 286.7 285.8 281.8 274.8 257.4 237.4 254.8 259 261.1 265.1 272.3 274.7 277.8 279.6 282.2 284.2 285.8 284.7 282.3 281.8 278.1 278 278 280.3 281.9 280.5 263.9 282.3 295.1 299.6 298.7 297.4 289.4 295.1 292.8 294.4 299.4 310.2 319.1 325.2 330.7 332.2 336.7 340.2 340.8 339.9 339.5 333.8 322.9 315.8 309.1 304.9 301.7 299.3 295.8 294.8 297.4 294.8 290.9 286.8 282.7 274 274.1 284.5 297.1 305.2 324.1 340.5 345.8 344.8 342.1 333.5 317.7 300.9 283.8 287.3 307.8 330.6 337.7 344.4 350.2 356.4 357 351.3 340 326.9 328.6 324.7 318.4 313.4 310.7 307.3 293.9
274.6 280.8 283.7 288.7 294.8 290.2 286 281.5 275.1 280.1 283.2 287.4 292.2 295.8 290.4 285.4 279.3 278.7 278.6 282.6 286.7 290.5 292.4 295.8 298.5 299.1 300.5 300 296.7 294.4 289.6 293.1 295.6 297.5 299.2 302.8 307.4 311.6 313.2 320.3 325.6 330.2 336 341.4 343.2 345.1 348 348.4 348.5 349.4 347.5 344.6 341.9 339.7 334.9 328.8 319.8 310.2 301.6 291.9 283.8 274.1 260.5 242.9 232.5 222.1 200.7 203.7 215.8 224 229.4 231 236.4 242.6 248.9 253.6 256.1 254.8 257.6 262.3 268.9 277.2 278.9 278 281.2 286.5 282.9 276.2 268.8 261.2 251.9 240.9 229.9 242.6 262.7 279.7 289.3 293.5 297.6 301.2 300.9 298.5 295.3 292.5 290.3 289.6 288.2 287.8 286.6 283 276.1 263.5 244.8 254 258.3 261.4 266.6 273.9 276.4 279.7 281.4 285.3 286.8 289.5 290.8 290.3 288.1 286.5 284.1 283.6 288 288 289.4 289.7 275.5 277.6 290.1 286 287.2 296 297.9 297.6 295.4 296.4 297.5 303.1 310.8 320.8 327.2 330 332.6 333.1 331.9 329.9 323.9 316.7 310.5 303.9 299.1 296.7 294 291.7 287.3 284.6 283.2 280.5 280.5 273.6 265 266.3 279.1 297.8 306.2 315.4 323.4 330.8 337.1 335.4 328.4 310 288.4 275.7 276.5 298.2 316.5 325.8 327.1 329.5 333.9 341.2 334.7 320.7 306.9 312.6 316.6 323 321 313 309.6 295.5
278 284 289.3 292.3 290.7 288.2 283.8 280.5 275.9 282.5 285.9 289.6 295 295.7 290.9 286.4 281.1 280 280.4 284 289 291.2 293.6 297.3 300.9 304.3 305.1 301.8 298.8 294.3 290.3 295.6 298.9 300.8 303.3 307.5 312.1 315.5 321 324.1 328.5 334.6 340.2 344.7 345.9 347.8 349.3 350.1 350.7 351.1 347.7 343.8 341.4 338 333 325.6 317.9 308.9 299.1 290.3 281.4 269.6 252.6 237 223.6 211.7 203.2 206.8 219.3 226.2 228.8 231.6 239.1 246.6 252.9 257.9 259.1 257.1 260.5 266.1 270.7 275.3 277.8 280.8 284.5 285.1 277.1 269.4 262.2 255.5 249.4 236.1 233.6 248.1 264 278.4 285.1 292.3 297.4 302.2 301.7 299 295.9 293.4 292.1 291.6 290.7 288.8 285.3 281.4 275.1 265.1 248.4 248.9 259.1 263.4 267 274.3 280 283.1 285.7 290.8 292.9 295.1 298.2 300 299.3 293.3 292.4 294.2 295.4 295.4 295.9 297.5 297.1 293 288.2 296.2 298.7 299 299 296.5 296.5 296.8 297.2 297.8 303.6 313 322.4 326.7 328.8 330.1 328.7 325.1 319.6 310.5 304.6 298.7 291.7 288.2 288.2 287.6 283.2 279.2 272.4 268.3 266.2 261.7 259.3 254.7 273 294.2 303.7 309.7 312.7 312.8 318.6 320.2 309.6 295.2 277.4 267 267.1 287.2 306.2 317.6 322.7 320.8 323.3 321.3 316.9 302.6 288.4 303.2 315.7 320.5 318.4 317.6 315.9 295.3
280.3 286.4 291.9 291.1 288.5 285.7 281.6 281.6 278.1 284.8 288.6 292.9 296.5 293.7 290.3 286.2 282.7 282.6 282 287.8 289.9 292.2 295.6 299.1 303.3 307.7 304.9 303.1 301.5 299.2 292.3 299.7 302 304.4 308.8 311.4 317.5 322.1 325 328.5 333.8 340 344.3 347.8 349.3 351.1 352.7 353.3 354.3 352.3 347.8 346 342.5 337.1 331.1 322.7 315 305.8 297.4 288.8 279 263.9 247.1 234.9 226.5 216.9 203.2 214.7 222.7 226 230.7 236.6 243 251.4 258.2 260.9 260.6 262.2 266.3 271.1 273.7 277.4 280.4 283.9 288 283.4 274.1 262.3 255.7 249.4 243.9 232.3 242 253.1 262.2 277.7 283.6 291.1 299.4 302.9 301.3 298.8 297.2 295.3 294.1 292.4 290.7 288.4 284.4 278.6 272.8 267.3 259.7 253.8 254.9 262.4 268.3 275.7 283.6 287.2 290.4 295.1 298.7 303.3 306.1 305.4 303.8 300.6 308.7 305.5 303.3 303.8 304.1 302.8 301.3 298.5 299 301.4 301.3 300.5 299.1 295.9 298.1 297.8 298.1 301.4 306.9 311.3 320.6 326.5 330.9 330.4 328.7 325.6 321.7 312.7 306 303.4 300.2 294.1 291.1 283.1 279.5 276.9 276.8 278.2 279.8 278.6 272.3 254.9 270.4 289.5 300.7 306.5 306.3 305.4 302.8 298.6 293.7 286.3 266.6 260.9 259.5 273 295.9 310.1 314.2 314.7 316 311.1 302.9 280.6 283 304.6 314.2 317.4 320.6 319.7 313.2 294.9
283 287.5 292.8 289.4 285.9 284.4 285.4 284.7 281.4 289.2 291 296 296.1 295.5 295.2 292.3 285.9 286.1 283.9 289.4 291.8 294.1 297.6 301.1 305.1 310 307.3 307.1 306.9 303.9 294.4 302.7 305.8 310.3 313.3 317.5 322.6 328.2 330.5 332.9 338 344.9 348.9 351.1 353.1 354.8 356.3 356.4 355.9 353.2 349.7 346.4 342.1 336.9 328.4 319.9 311.7 302.2 294.8 285.9 273.9 256.7 241.2 228.4 223.6 211.8 203.9 221.4 226.6 230 233.9 240.3 248.3 257.8 262.9 263.4 263 267.2 272.1 274.9 278.7 281.2 284 286.1 287 279.5 270.8 259.8 251.7 245.6 238.1 232.9 243.4 253.4 265.2 277.4 283 291.7 301 302.8 301.6 300.5 299.8 297.5 295.6 293.3 291.1 287.8 281.4 275.7 269.8 266.1 258.4 260.6 249.6 263.3 270.9 279.8 285.6 289.5 295.8 301.3 308.8 311.4 310.5 310.8 318.5 318.2 317 316.1 314.4 312.1 310 306.7 302.5 302.2 303.2 303.5 302.5 299.8 300.5 298 298.8 299.5 303.6 309 313.7 321.7 321.7 323.5 328.9 333.3 329.5 329.7 326.7 320.4 311.5 306.2 300.9 298.5 295.1 291.1 285.2 286.6 288.5 288.8 285 278.1 269.3 252.2 268.6 286 297.8 299.5 295.3 295.5 290.9 287.9 286 273.4 260.7 253.3 254.4 264.2 285.9 302 308.3 307.9 304 295.9 281.5 268.3 279.2 303.5 310.9 314.5 314.4 311.2 305.6 293.1
285.3 289 294.1 290.4 290.7 292.2 292.5 290.4 285 292.7 295.7 298.3 298.1 300 300.9 298.3 293.2 290.4 284.7 291.1 294.7 296.6 299.3 302.3 306.2 311.6 311.9 313 314 311 298.9 302 310 315.5 320.8 325.1 328.7 332 334.4 337.6 343.6 349.5 352.6 355.1 357.1 358.5 360 360 359.3 355.6 351.8 345.8 340.4 337.4 328.4 320.3 312.5 304.5 295.7 286.9 273.1 261.8 245 230.2 219.9 207.3 214.6 227.3 230.6 234.7 240.3 247.2 256.8 264.6 267.6 265.6 268.8 272.8 277.8 280.6 282.9 285.9 287.6 289.7 285.2 276.9 264.6 254.6 247.6 241.4 235.3 237.2 247.2 258.4 271.1 277.8 284.5 293.4 302 303.7 303.9 302.8 301.4 300 297.2 294.4 291.2 286.4 279.3 272.3 267.3 263.9 264.4 265 255.9 266.1 274.2 284.1 290.9 296.9 301.7 309.5 313.9 314.8 317.2 324.1 324.5 324.8 324.3 323.8 321.1 316.7 313.3 309.6 306.9 306.2 304.6 304.2 302.5 300.1 299.2 300.3 300.8 303.1 309.2 317.1 321.1 327 326.6 327.5 328.3 331.8 330.7 328.9 328.7 326.7 317.1 310.6 303.9 300.9 299.6 295.8 295.7 297.3 299.8 294 284.6 276.5 263.3 250.4 262.5 276.1 281.5 282 282.2 281.7 278.2 276 269.4 260.3 252.8 246 249.9 256.3 276.5 294.7 303.6 303.9 297.1 287.5 270.2 261.5 271.3 294.5 305.9 310.2 310.8 307.8 301.2 287.6
287.7 291.3 295.5 294.8 296.7 297.4 297.3 294.6 286.8 295.9 297.7 300.5 302.7 306 307.2 303.1 298 294.2 288.1 289.4 296.3 298.7 301.4 305 308.3 313.7 316.6 318.2 319.2 317.5 311.9 306.1 311.5 317.5 324.6 328.5 332.2 335.4 338.3 342.6 348.3 354.1 357.2 359.6 361 362.6 364 363 361.2 358.1 353.9 347.2 343.5 337.1 329.7 320.3 312.7 305.2 294.9 283.5 268.4 258 242.9 229.3 217.5 204.6 221.8 229.9 235.6 241.7 247.2 253.3 264.6 270.9 270.5 270.7 273.9 279.4 283.1 285.3 286.4 289.7 290.1 288.3 282.7 272.3 258.3 249.2 242.6 236.3 234 239.2 247.6 260.5 272.5 278.8 285.6 297.9 304 305.5 304.8 304.8 303.5 301.4 298.6 296.1 292.4 284.9 277.4 270.8 265.4 264.5 267 265 254.1 269.3 278.6 288.8 295.2 303.7 312.9 318.6 319.4 324.8 329.5 330.6 331.6 332.4 332.1 329.9 326.4 319.7 316.6 315 311.2 308.6 306.5 305 303 300.8 301.8 302.3 306 311.7 319.1 324.1 328.4 331.4 332.7 336.7 334.5 333 333.3 330.3 331.2 329.2 324.1 318.6 309.3 303.9 301.4 304 304.7 306.1 300.4 290.8 281.1 271.3 257 243 257.7 262.8 262.2 261.8 260.1 254.7 252.1 255.6 252.3 245.5 243.9 243.1 245.1 247.3 263.6 283.5 291.9 292.4 288.7 281.5 260.5 255.4 263.9 284.7 297.8 302.5 303.3 301.3 293.2 285
289.9 295.2 296.4 298.1 301.7 302.1 300.1 297.2 289.9 298.9 301.1 303.2 307.5 313 311.2 307 303.2 301.4 295.8 289.5 296.4 300.6 303.2 307.5 311.2 316.6 322 323.8 324.9 322.9 319.7 304.6 314.5 318.1 322.9 327.7 332.1 336.4 342.2 347.5 353 357.6 361.4 363.5 365.7 367.6 367.8 364.7 361.8 358.3 353.8 349.5 344 338.4 331.5 320.9 313.1 306.2 294.5 279.6 263.2 255 239.5 228.5 214.8 207.7 227.4 234.1 241.4 247.6 255.4 265.2 268.9 274.9 274.5 276.7 279.2 284.5 288.3 287.9 289.3 291.5 292.4 288.4 282.8 272.1 255.7 246.5 236.8 236 237.6 242.4 249.1 263.4 273.1 279.5 288 301 305 307.4 307.4 306.2 305.3 303.5 300.4 296.7 290.7 283.4 275.2 270.5 264.3 264.1 264.5 262 263.2 273.2 283.1 293.4 304.2 316.1 322.2 325.6 326.9 329 333 336.6 338.7 339.3 338.6 335.2 331.8 326.7 324.5 319.3 314.4 311.2 308 305.9 303.3 302.5 308.6 313.6 317.7 323.1 326.7 330.9 333.3 338.2 340.1 341.8 340.6 342.1 340.3 335.4 334.1 334.6 327.4 321.3 315 309.5 307.7 311.1 310.1 303.9 293.7 286.7 277.9 269.1 257.3 242.9 237.8 248 248 243.8 238.9 232.3 232 231 235.2 236 234.2 235.1 235.8 238.6 248.7 264.6 275.1 277.5 277 269.5 254.6 249 255.9 272.5 290.8 299.8 299.8 296 288.7 278.3
292.1 297.1 297.4 301.6 304.7 304.1 302.5 301.8 290.8 301.3 304.1 306.4 310.4 315.8 315.4 313.2 311.3 310.1 306.3 293.6 295.4 302.6 305.6 309 314.1 318.2 325.6 329.5 332 330.1 322.7 312.6 315.3 321.1 326.5 330.2 334.7 340.8 346.5 352.6 358.1 362.3 364.7 366.4 367.7 370.5 370.1 367.1 363.1 359.1 355.7 350.6 343.4 336.8 331 322.6 315.7 306.9 293.7 277.4 261.5 247.6 236.5 228 215 212.3 231.6 240.5 246.8 254.2 266.2 273.6 277.1 278.7 280.6 283.9 289.2 292.9 293.7 291.9 293.4 295.8 293.9 289.7 282.7 270.2 252.9 242.2 237.8 237 238.1 243.8 260.4 267.4 274.8 282.1 294 303.7 307 309.4 309.2 308.8 307 305.2 302.6 297.1 290.1 283.5 277.6 270.5 263.3 261.3 259.7 260.4 265 279.1 291.3 301.3 315.2 322.4 327.2 330.6 331.6 335.9 339.3 344.1 346.2 346.2 343.2 341.7 337.4 335.1 330.1 325.6 319.6 315.2 309.9 306.5 303.2 305.5 321.2 328.9 329.9 331.4 337.2 340.5 346.7 349 347.1 348.4 350.8 348.3 345.8 341.7 336.1 334.1 330 323.1 317.3 313.1 313.3 312.7 307.7 300.4 290.4 281.9 270 256.5 249.9 248.9 247.3 239.4 232.4 232.5 230 225.8 222.8 219.9 218.5 219.6 223.4 226.3 228 229.6 236 242.1 251.5 262.6 264.3 255.4 244.7 246 251.3 266.1 286.2 296.5 299.2 293.7 283.8 273.9
295.6 299.3 299.9 304.3 306.3 305.9 306.2 304.7 295.7 304.4 306.7 309.5 313.8 318.6 320.6 319.5 318.2 315.5 311.3 305.2 298.7 305.8 308.9 312 317.4 323.3 330.1 335 337 334.2 327.8 321 316.5 325.2 330 334.2 337.2 343.7 350.7 357.1 363.1 366.4 368.2 369.6 369.4 369.6 367.6 364.8 361.6 358.1 355.4 349.1 342.4 337.8 330.7 323 316.8 304.1 294.9 275.8 257.9 243.7 233.4 224.8 214 212.3 237 245 252 263.5 277.9 281.3 283 283.6 286.2 292.5 298.4 299.9 298 296.8 297.4 299 296 291 282.5 266.9 253.3 243.7 238.7 238.7 240.4 249.1 262.4 272.1 277.8 285.9 299.5 305.2 309.2 311.7 311.9 310.5 308.7 306.9 303.2 298.4 291.7 284.6 278 268.4 263.3 261.1 259.2 258.6 267.6 285.8 298.7 316.8 320.3 328.9 333.3 335 340.9 347.3 354.9 355.2 354.9 351.3 350.9 352.2 349.7 343.6 337.8 331.1 324.7 317.8 313.1 308.5 303.8 307.5 326.8 335 338.3 338.6 342.3 347.7 355 356.9 359.1 359.7 358.4 356.3 354.4 349 342.4 337.6 332 328.1 321.1 315.4 315 312.5 303.9 295.8 286.6 281.4 276.9 262.2 263.2 266.7 262.7 254.9 250 247.5 243.9 238.6 230.1 224.8 219.7 215.6 215.6 217.9 219.1 219.7 222.1 229 231.4 236.4 243.2 239.9 236.6 239.9 244.2 255.9 273.1 282.3 284.4 279.1 269.4 259.2
297.9 300.3 302 306.9 307.6 308.9 309.8 306.5 301.7 307.5 310 313.6 317.9 323.1 326.9 325.8 323.4 319.7 317.1 313.6 299.6 306 313 316.3 320.5 325.7 330.9 337.6 341.9 336.7 332.8 328.3 320.2 328.6 331.3 336.5 341.4 348.8 355.5 361.1 366.6 369.6 371.5 371.4 371 371.9 370.6 367.4 362.3 357.4 355.1 350.4 343.5 336.5 330.6 325.4 312.8 305.2 291.8 275.1 255.7 242.9 232.6 225 211.9 212 240.6 248.1 260.6 277 285.6 287 287.1 288.3 296.2 302.1 305 304.2 302.5 303.1 302.6 301.2 297.9 290 280.5 266.2 254.1 244.1 239.1 241.2 242.1 249.3 264 274.4 280.8 292.6 303.1 308.1 310.9 313.1 313.6 312.6 310.7 308.2 303.1 298.6 291.8 284.5 273.9 268.2 263.9 261.3 260.3 260.6 273.2 297.7 307.4 320.4 326.5 334.4 336.8 346.3 360.4 364.1 364.5 364.3 359.3 358 357.8 359.2 357.2 350.9 343.9 335 327.7 320.5 315 309.7 303.5 308.9 324.8 339.1 344.2 344.9 354.6 356.7 361.2 365.7 364.1 363.4 364.2 363.2 359.6 355.7 348.4 346 341.3 333.7 325.2 319.9 316.3 309.9 300 292.7 291.6 290.1 286.5 270 274.9 278 276.1 270.1 263.5 259 253.6 249.1 241.2 233.7 228.2 221.1 218.1 210 209.3 208.8 209.8 211 216.2 220.5 225.6 228.7 230 234 236.2 252.5 265 269.9 266.4 260.6 253.8 250
300.5 302.7 305.8 308.3 309.6 312 311.1 301.3 307.2 310.3 314 317.6 322.3 326.6 330.3 329.9 328.3 325.6 322.7 318.7 310.5 306.8 313.2 317 321.1 325.6 332.7 338.3 343.6 340.9 336.9 332.3 327.3 330.5 334.9 340.1 346 353.8 360.1 365.7 370.1 373.1 374.6 373.8 373.3 373 369.8 366.3 363.5 360.9 357.3 351.8 343.7 334.2 328.1 321 311.7 300.3 285.3 269.8 254.4 240.7 231.4 222.1 209.6 218.4 240.5 254.3 269.7 282 289.6 293.1 290.5 295.2 305.2 310.5 309.3 307.6 307.3 307.6 305 303.5 297.1 288.2 277.5 265.1 254.3 242.8 239.7 242.5 245.2 256.2 268.5 275.8 284.9 298 304.4 310.5 312.2 314.1 314.8 314.6 312.7 308.9 303.9 300.6 293.8 290.5 283.7 269.6 263.4 262.6 261.7 263 284 299.5 317.5 321.8 334.6 336 350.2 367.9 370.3 370.7 371.4 369 367.5 364.8 370.2 368.9 363.3 359.9 349.7 338.4 329.7 322.2 317 311.6 305.6 308.8 319.1 338.3 346.6 356.9 362.2 363.6 367.1 372.3 373.1 378.2 377.4 369.2 362.9 357.5 354.1 352.2 346.8 340.2 329.1 326 315.4 308 305.1 302.3 299.2 297.2 289.2 273.1 284.5 288.4 287.2 285.4 282.5 275.2 267.6 260.1 249 242.1 236.2 230.1 224.9 222 216.2 210.6 202.3 201.4 203.9 209.5 216.1 221.4 224.7 226.6 232.4 249.7 252.8 256.1 254.6 250.5 246.7 245
302.8 304.7 307.2 309.9 311.4 314.1 311 303.7 310.4 312.4 316.2 321 326.3 331.2 332.9 333.2 333.3 330.2 325.3 321.1 314.6 305.6 312.8 317.1 321.5 326.1 331.5 337.7 344.5 343.1 339.1 330.3 330.4 335.4 339.4 344.2 352 358.5 364.5 369.8 374 376.5 376.9 375.4 373.6 371 368.8 370.6 365.2 360.1 354.6 348.8 342.7 331.6 324.6 313.4 306.5 292.2 276.4 265.8 252.2 242.8 231.5 214 211.1 224.8 241.4 257.3 279 286.7 293.6 296.7 296 301.9 310.8 315.6 313.2 311.2 310.7 310.1 307.1 301.5 294.6 286 274.4 264.8 255.8 245.1 242 244 251.9 262.9 270.7 278.6 288.8 301.2 307.4 311.8 314.4 315.9 316.1 316.1 313.5 309.2 306.3 300.5 297.9 294.1 286 272.7 264.8 263.5 262.1 263.9 281.3 303 321.2 332.1 337.2 346.6 366.7 374.8 375.2 375.9 375.6 374.4 373.6 371.7 370.2 370.7 366.4 360.4 354.3 342 333.7 325.1 318.4 313.3 307.1 305.6 318.3 335 350.7 360.1 362 364.3 374.6 374.3 382.4 379 374.8 370.5 365.4 361.4 357.5 353.9 350 345 338.1 328.1 323.1 318.6 313.4 311.8 308.1 298.5 286.7 289.4 296.6 296.7 295.7 294.4 292.6 288.1 281.3 273.6 266 256.9 249.5 242.5 232.7 227.2 218.7 207.7 202.5 198.2 195.6 202.2 207.8 217.8 219.1 220.7 229.4 239.9 240.6 241.8 244.4 244.7 244.1 242.3
304.2 307 308.7 311.3 314 314.9 311.5 308.9 312.8 315.3 318 321.7 327.4 332.5 334.9 335.7 335.8 331.6 327.4 323.3 315.5 307.5 309.9 317.2 322.3 327.2 331.3 337.9 344.1 341.7 338.2 333.2 333.1 339.7 345.3 348.7 356.9 362.3 368 373.8 377.6 378 378.8 378 373.4 371.5 371.4 369.2 365.8 361.2 354.4 344.9 337.4 330.3 317.2 308 300.6 285.6 271.9 261.6 250.6 241.8 227.2 211.2 220.6 229.2 246 270.6 283.8 293.7 299 299.9 306.1 308.9 313.5 318.7 317.5 313.6 313 310.9 305 297.4 290.1 282.6 272.5 263.2 255.7 247.5 243.2 246 255 263.5 271.8 281.2 295.2 304.3 310.3 313.8 316.1 316.9 318.2 317.3 314 312.1 307.6 305.9 303.1 297 289.7 277.8 267.7 263.6 263.6 267.7 285 306.5 326 337.3 340.6 360.8 379.1 379.5 380.9 379.9 377.4 377.4 378 375.8 374.4 370.9 368.7 364.4 355 347.2 337.8 327.4 321.3 315.6 307.9 305.5 315.4 325 345.3 359.8 360 373.3 372.4 375 376.7 374.6 370.7 366.1 363.7 361.7 357.4 354.4 352.9 346 342 333.8 330 325.3 322.1 317.6 308.9 306.2 299.6 304.4 305.6 305 303.3 301.8 299.1 294 287.2 280 271.6 264.2 254.9 241.7 231.3 221.3 207.1 209.9 207.7 204.1 200.4 194.7 201.6 210.3 213.5 213.7 215.9 226.9 233.4 236.1 237.6 241 240.7 242.3
306.7 308.8 310.5 313.2 316.5 315.9 309.5 309.7 314.6 316.8 319.7 323.9 327.6 332.1 335.2 338.5 339.2 333.2 329.6 323.4 320.5 320.2 310.5 316 323.1 328.4 332.8 340.5 341.7 339.4 336.7 341.3 342.5 344 349.8 354.6 359.7 365.7 371.5 376.6 378.9 379.3 380.7 379.2 376.5 374.1 372 370.2 364.5 357.8 350 342.1 334.3 323.7 312.5 300.2 289.9 279.4 271.6 262.4 246 242.9 223.6 211.6 222.7 232.7 253 278.9 291.6 298.4 304.1 305.9 314.3 314.7 319.9 325.5 320.2 316.3 315.7 311.3 305.3 296.7 288.3 279.3 270.7 262.4 258.9 244.8 245.5 250.7 258.5 266.9 276.1 288.9 300.6 307.5 312.1 315.5 317.9 319.3 319.2 317.2 316.3 314.8 314.1 309.7 305.9 299.1 291.8 282.2 272.5 266.1 266.1 275.2 291.4 313.1 331.2 339.1 347.8 376.7 381.7 382.2 384.5 380.3 381 380.8 379.7 377.7 376.6 375.5 370.4 367.1 360.4 349.1 341.2 333.9 325.3 319.1 311.1 307 310.9 320.5 332.6 348.8 362.4 368.4 370.7 371 369.2 366.7 366.6 365.9 366.1 364 361.2 359.3 356.6 351.2 344.8 338.6 335.1 331.6 327.1 320.4 317.7 316.4 313.7 313.2 312.6 310.7 308.7 306.7 303.2 296.5 288.4 281.4 273.4 263 252.6 235.3 224.8 216.3 226.1 224.6 213.3 208.4 209.3 199.4 191 201.6 205.7 207.4 205.1 210.1 219.9 225.5 228.4 230.5 237.1 236.9
309.7 310.9 312.3 315 318.2 315.9 310.9 312.2 315.8 318.2 320.8 324.3 327.6 331.8 336.1 340.9 338.7 334.4 329.7 325.8 327.6 320.4 317.8 323.7 325.2 330 334.5 340.5 340.4 340.1 343 345 347.3 348.6 352.7 358.8 364.8 369 374.8 377.7 379.1 380.1 379.9 378.4 376.5 375.5 373.6 368.1 363.1 355.7 350 342.9 336.7 321.6 309.3 297.4 284.3 276.1 268 256.2 255.7 252.3 231.3 211.1 226 236.6 261.1 290.4 299.2 305.2 310.8 314.5 321.1 320.6 320 323.2 322.6 318.7 315.2 311.2 303.5 295.2 285.8 275.6 267.1 259.8 255.1 245.4 246.8 255.5 264.5 272.8 281 296.9 303.6 309.7 313.7 317.4 319.4 320.2 319.1 317.6 317.6 318.9 316.1 312.9 307.7 300.2 293.9 287.1 277.8 269.6 268.7 278.6 295.9 317.2 332.8 340.5 354.5 375.4 383.1 384.8 384 381.5 381.7 383.5 381.6 378.5 379.4 376.5 370.1 365.1 360.1 355.5 348.7 339.6 330.3 321.6 314.6 308.1 308.1 315.2 321.4 333.2 346.3 359.3 362.4 364.2 362.9 362.2 364.3 363.7 362.8 363.5 363.4 362.4 359.1 352.8 347.7 343.7 340.6 337.2 327.4 329.8 327.2 324.7 321.4 319.9 318 314.5 311.8 308.5 302.3 296.2 288.9 280.3 269.6 259.4 249.2 228.8 222.2 230.9 234.5 229.5 226.7 228.3 225.4 211.1 199.1 189.3 193.6 197.4 196.6 200.6 206.5 217.2 220 222.9 226.8 228.9
312.6 313.7 315.7 318.9 320.6 318.6 310.2 311.2 316.9 319.7 322.3 324.8 328.2 332.6 337.6 340.5 338.8 336.7 333.7 332.6 331.9 319.6 326.7 328.3 328.2 331.9 336.5 340.8 341.2 344 346.1 349.1 351.8 353.9 357.4 362.5 368.8 372.9 376.4 378.4 381.4 381.9 380.7 380.4 381.4 376.5 372.1 366.1 360.1 352.8 346.4 340.5 333.2 320.6 304.6 291.7 282.2 274.1 261.4 266.4 264.1 254.8 229.8 215.5 228.7 241.3 265.6 294.7 306.2 315.2 316 323.8 326.3 328.7 324.7 322.8 322.3 319 316.4 309.6 303.3 294.6 284.9 273 263.9 256.5 252.7 247.6 248.8 252.5 267 277.8 286.5 298.7 306.5 311.8 315.4 319 321 320.8 319.2 319 321.1 321.3 319.8 314.5 309 302.1 296.4 289.4 284.9 271 271.7 281.2 292.4 309.5 327.4 343.3 354.9 372 380.7 384.9 384 383.8 385.4 385 382.2 380.1 378.8 375.9 372.4 368.5 363.1 358.3 351.8 344.3 334.6 325.9 318.2 310.2 307.7 312.8 318.4 325.4 329.3 338.5 348.4 352.1 354.3 358.4 360.6 362.4 364 365.2 365.5 364.9 361.6 357.4 351.9 348.8 345.3 337.7 339 336.6 333.4 330.7 327.4 324.2 320.7 316.8 312.3 306.4 300 292.5 285.3 277.1 265.8 253.8 242.6 227.7 239.4 241.8 241.5 240.1 243.8 240.5 233.8 224.9 209.8 199.6 189.6 184.6 190.7 192.9 194.9 201.5 209.6 213.6 217.9 220.4
314.8 316.9 319.6 322.2 324.3 322.2 312.9 311.6 317 321 323.9 325.9 329.6 333.7 339 340.8 341 340.1 337.1 336.9 333.1 323.8 331.8 327.7 330 335.4 340.8 343.1 343.1 345.8 347.9 352.2 358.2 358.9 361.8 366.5 372.2 376.2 378.3 380.8 383.7 384.2 385.2 381.1 377.8 375.1 370.4 365.2 356.9 350.1 344.2 337.2 329.6 320.3 300.8 289.1 281.4 273.8 276 276.8 275 260.9 228.8 216.4 229.9 242.8 271.9 301.2 310.9 316.4 325.5 330.2 330.8 331.7 327.7 322.3 320.3 321 316 309.1 303.3 292.9 282.9 271.3 261.2 261.2 258 250.9 250.1 256.2 275.7 281 291.6 300.4 309.8 314.8 318.1 321.3 322.7 322.4 321.1 323.7 324.6 322.9 321.7 317.7 310.2 303.9 298.3 292.2 285.1 270.4 275.2 284.3 300 313.1 323.3 335.5 350.3 366.7 376.7 380.4 382.2 383.1 386.3 383.8 383.4 382.5 381.2 377.4 375.9 372.6 367 360.5 354.3 346.7 336.8 328.5 318.7 310.5 310.7 311.7 315.3 320 324.3 329.7 337.6 343.6 346.2 351.5 358.5 362 364.7 367.1 367 365.2 361.7 359 356.3 352.1 345.4 345.9 345 342 338.5 335 331.5 327.8 322.8 318.1 312.1 304.7 297.1 289.1 280.1 273.3 262.1 248.8 237.6 243.1 249.5 250.8 251.9 254.4 252.6 245.1 236.7 231 217.8 207.3 197 190.1 182.3 186 186.8 189.1 192.6 200.1 210 210.6
317 320.3 323.5 326.3 327.9 325.5 316.1 313.7 315.3 322.9 325.1 327.6 331.7 334.7 340.4 343.3 344.3 342.9 340.2 338.7 328.7 333.8 334.1 334.6 336.1 338.1 342.5 344.2 345.3 345.9 349.8 354.6 360.3 363.1 365.6 370.5 375.1 378.1 381.3 382.8 384.4 382 380.8 379.1 375.4 372.9 368.4 363.9 354.4 345.4 338.5 332.1 324.2 314.7 298.4 283.4 285.4 284.9 285.5 284.2 282.7 266.6 233.9 214.4 231.7 244.7 273.7 304 310.2 325.2 332.8 333.9 333.1 333.5 328.9 324.6 321.5 321.7 316.6 309.8 302.4 291.6 278.9 273.7 270.6 267.4 262.9 250.2 252.9 268.7 277.1 284.9 295.4 306 312.7 317.2 319.8 323.1 327.5 326.7 325.5 326.6 326.9 325.9 323 319.3 313.2 305.1 299 292.9 286 273.2 277.7 288.4 301 313.2 327 339.3 347.7 358.6 366.2 372.3 379.9 378.5 384.1 382.9 384.5 386.1 383.1 382 382.6 378.1 373.1 364.6 355.1 347.4 337.7 328.4 318.9 312.2 312.3 314.4 317.5 320.3 324.3 332.1 337.1 339.9 344.3 353.3 359.2 363.7 366.5 367.4 367.3 365.2 363.2 361.5 358.8 354.6 350.9 351.8 349.5 345.8 342.2 338.2 334.3 329.3 324.3 317.6 309.1 301.5 294 286 276.4 265.8 255.7 240.4 247.6 254.8 257.2 258.3 260.5 262.7 258.3 249.7 242.4 232.6 222.2 208.3 198.4 191.5 185.4 181.3 178.4 179.5 181.8 185.5 185.8 188.5
320.5 323.3 327.3 329.8 332.2 330.6 327.8 325.6 317.2 325.3 327.2 330.7 334.8 338.3 342.6 345.8 346.8 344.9 343.3 339.1 329.2 336.7 337.3 338.3 340.2 341 343.3 345.2 347.5 349.7 350.8 358.1 362.2 364.9 368.7 373.2 377.4 379.8 385.6 382.9 382.6 381.7 379 376.8 373.8 370.6 366.1 360 354.1 347.4 336.5 327.5 320.1 304.6 301.6 296.8 294.8 293.5 293.5 290.6 287 268 238.3 213.4 232.5 245.5 274.9 300 314.2 327.6 336.3 336.5 335.7 334.7 329.5 325.3 324.5 321.8 315.7 308.7 300.8 289.5 282 279.4 276.8 274.5 270.8 253.6 255 275.3 279.6 289.8 300.4 309.8 315.3 319.1 321.1 326.4 330.4 329.7 328.7 328.8 330.3 327.7 323.9 320.6 315 307.5 300.2 291.5 282.1 272.5 279.6 289.7 303.8 314.2 328.9 338.1 347.9 356.2 362.2 367.2 371.6 375.7 379.2 381.9 384.8 386.9 386 386.1 384.8 381.1 375.8 368.3 355.8 347.1 339.2 328.7 317.2 311 314.2 317.4 320.7 327.6 335.9 339.5 342.2 343.9 348.4 355.8 359.8 364.1 368.4 368.9 368.2 367.9 365.8 363.8 360.3 355.7 356.8 355.6 352.6 348.4 344.6 340 335.3 329.7 322.1 313.6 305.8 298 290.5 281.8 269.8 258.6 244 243.7 256.6 260.2 263.4 265.5 267.2 267.9 257 249.3 243 234.4 225.2 207.2 203.3 200.1 189.3 185.1 180.9 178.4 175.3 173.5 172.6 171.9
324.6 327.3 330.9 333.5 335.6 336.9 333.8 331.6 323.1 326.2 330.3 333.3 336.7 339.8 344.3 348.7 348.1 346.7 343.6 340.1 331 339.8 341.1 342.2 344 344.9 346.5 348.4 351.7 355.4 357.9 359.2 364.3 367.9 371.3 375.3 379.3 381 381.1 381.8 381.6 380.8 378.8 375.5 373.1 369.1 365.2 361.2 358.5 352 338.4 328.6 320.5 314.3 309 305.9 305.9 305.5 302.9 299.1 295 272 241.5 215.2 230.4 243.6 274.6 296.8 318.6 333.3 341.8 339.7 334.9 331.9 328.2 326.7 326.3 320.8 313.3 303.2 297.2 292.4 289.9 288.3 286.2 280.5 271.2 256.4 262 277.7 283.6 291.6 303.6 311 317 320.5 323.9 330.1 333 331.2 330.9 334.1 333.3 331 326.5 321.7 316.8 310.4 301.6 290.2 280.9 273.5 280.8 290.6 302.8 315.1 327.1 335.7 349.1 357.7 365.2 370.1 374 376.8 378.5 381.3 384.2 386.8 386.4 388.4 385.6 381.7 375.8 368.7 358 346.3 335.9 327.8 318.8 314.1 318.1 323.4 331 345.5 346.8 347.5 349.5 353.7 356.1 359.8 362.9 366.6 367.3 368.1 369.6 370 368.1 364 363.2 362.7 361.4 358.8 354.6 350.6 345.7 339.2 331.6 324.8 317 310.1 302.3 294 285.5 275 261.3 253.2 260.1 254 261.4 265.1 266.9 270.7 272.2 265.7 256.3 249.1 241.5 233.3 213 222.7 210 202.9 195.7 189.7 185.5 182.2 179 179.8 175.9 173.8
328.2 331.9 334.4 338.4 339.7 342.6 338.9 336.8 330.2 327.9 333 335.4 339.6 342.4 346 350 348.8 346.2 343.6 344 336.8 343.3 345.5 345.9 347.7 349.1 350.5 353.8 357.2 360.2 362.4 362.6 366.7 370.5 373.9 377.6 380.5 380.3 379.8 380.4 380.6 379.5 378.2 374.6 371.8 368.8 364.1 360.1 357.2 350.4 344.4 336.2 327.9 322.6 319.7 316.7 315.4 310.7 308.9 304.3 293.6 267.2 240.5 215.6 220.6 244.9 277.4 298.1 320.3 338 341 339.7 333.8 328.6 326.9 328.2 325.1 320.1 312.5 304.4 303.2 301.7 299.5 296.4 293.4 287.8 270.8 257.3 269.2 279.9 288 296.5 306.4 313.2 317.7 321 328 333.4 333.8 333.2 337.9 337.4 335.3 333.3 329.4 324.5 319.9 314.2 306.6 296.9 284.8 275.3 285.3 296.6 308.1 317.1 325.8 337.9 353 358.7 363.9 369.8 374.1 378.8 380.6 383 385.2 386 384.6 385 383 380.2 373.9 366.7 356.7 340.4 332.8 326.1 317.4 317.5 324.9 329.5 346.9 350.8 352.5 355.1 358.5 362.7 362.3 364.7 366.6 366.7 367.9 370.7 372.2 370.8 368 368.5 368.5 366.2 363.6 359.1 354.7 350.1 343.6 335.5 328.7 323 314.4 306.7 297.8 287.9 280.3 266.1 261.2 268.3 267.6 260.2 266.1 269.8 272.6 275 273.9 265.3 257.1 244.2 236.6 235 238.9 232.7 222.6 208.2 201.7 196.1 190.5 187 186.5 191.4 187.9 184.4
331.6 334 337.8 342 345.6 346.8 344.6 341 329.4 335.1 337.4 337 341.6 344.5 349.1 350.2 349.2 348.3 348.1 347.1 346 346.9 349.7 351.5 352.1 354.2 356.1 359.1 361.9 364.3 363.8 365.2 369 372.8 376.4 379.4 380.7 379.5 379 378.6 378.8 379 377.6 373.3 370.9 366.9 363 360.2 353.4 348.6 345.1 340 333.4 327.2 325.7 323.3 321.3 316.1 312 306.4 295.3 260.4 234.5 217.5 221.6 249.3 282.9 302.3 328.8 338.7 338.3 334.1 331.1 329.8 329.5 328.2 326.2 322.6 313.1 313.7 314.6 313.3 309.2 303.7 298 287.4 272.4 258.9 273.5 282.1 292.3 302.8 310.4 317 319.7 324.9 332.2 335.1 336.2 339.1 340.5 339.3 338.8 334.3 330.7 326.6 321.7 317.5 309.7 299.9 288.6 278.6 286.7 303.2 309.5 319.2 328.5 349.3 354.2 359.4 364.8 370 375.2 378.7 382.2 384.5 385.5 384.4 382.5 379.4 376.4 373.1 367.7 361.3 347 337.6 331 326.3 318.1 324.6 330.5 338 350.7 353.3 358.6 361 364.4 368.3 367.5 366.3 366.8 367.5 370.2 372.3 371.4 371.4 371.9 371.9 370.5 367.6 362.5 356.8 350.9 345.4 340.2 332.2 326.5 318.4 310.4 302 290.2 280.3 265.5 267.2 275.3 276.3 271.1 262.4 269.3 273.8 277.1 276.4 272.2 264.4 252 256.9 255.8 252.1 247.7 240.8 229.7 219.1 211.5 209.8 197.9 194.9 193.4 197.8 193.4 193.3
333.1 336.5 341.6 345.3 348.6 353.7 348.5 343.2 334 338.8 340.8 342.4 344.1 348.8 352.3 351.8 351.5 351.6 351.5 347.3 350.3 351.4 353.3 357.4 358.9 362 361.2 363.4 365.2 365.3 364.7 365.5 370.1 374.2 378.4 380.1 380 378.3 378.4 378.6 378.7 377 375.5 371.7 367.4 365 362.6 358.5 354.6 348.7 344.5 339.2 332 326.8 326.3 327.8 322.9 317.2 310.6 303.5 288.1 253.3 225.1 218.9 229.4 254.3 282.6 306.2 335.5 337.2 334.2 332.8 332.6 332 330.9 329 326.9 320.9 321.9 322.6 322.8 321 317.2 311.3 301.2 287.1 274.4 260.7 278.9 287.7 297.5 306.6 313.9 319.5 326.8 329.7 335.1 336.7 341.4 342.4 343 340 337.8 335 331 327.3 326 321.7 313.7 302.1 289.6 279.3 286 302.4 311.9 322.6 330.8 351.2 355.3 360.2 365.2 370.2 377.9 380.6 382.4 384.7 384.1 381.6 379.3 375.3 371.2 366.4 360.8 353.3 344.6 336.6 331 326 319.2 326.8 334 342.1 350.4 356.5 362.5 364.1 366.9 367.4 367.9 367.9 369.1 370.6 371.7 371.4 371.2 373.7 374.3 373.5 370 366.6 361.1 354.8 348.5 342.8 336.2 330.3 323.3 313.7 305.5 294.7 279.7 272.9 280.4 285.1 285.1 281.3 271.6 268 272.7 277.1 277.1 274 267.8 263.5 268.8 268.3 266 263.1 255.3 244.9 236.7 234.2 224.6 220.6 212.5 208.2 203.1 203.9 201.1 200.7
334.4 338.7 342.9 347.3 353.1 354.3 349.5 344.1 339.9 343 344.2 346.9 346.9 353.4 354.5 354.2 353.8 354.7 354.9 351.8 355.1 357.4 361.6 365.5 364.8 369 366.6 367 367.5 366.4 365.7 366.3 371.1 376 379.5 380.1 378.3 378.2 378.3 378.5 378.3 376.6 373.9 369.3 365.4 364.6 363.1 359.2 354.1 348.1 342.5 339 333.3 327.1 325 325.6 319.2 312.3 306.6 300.6 277.1 242.6 220.4 224.1 240 259.2 291.9 311 334.6 333.2 332.7 336.1 333.8 332.1 330.3 330.2 329.4 328.1 327.8 329.8 330.1 327.9 323.2 316.1 305.9 290.3 276.1 263.1 284.1 294.4 302.8 310.7 317 323.1 328.3 331.3 336.1 338.7 342.3 342.8 343.7 339.6 339.6 335.8 332.2 329.9 328.1 324.7 315.7 302 290.6 280 293.6 303.6 315.1 326.1 336.4 352.3 356.4 360.5 365.5 372.5 379.6 381.7 383.7 383.9 382.8 380.4 379 374.9 369.4 363.8 357.4 352.5 346.7 336.3 330.6 324.3 321.3 328.5 336.4 345.5 353.5 359.4 364 367 367.8 369 370.6 370.6 371.6 371.3 371.8 371.6 374 375.2 375.5 373.4 368.8 364.2 359.9 355.3 348.9 340.5 334.3 322.3 316.2 307.7 297.9 283 283.3 291 294.8 296.7 292.9 285.5 273 276.7 278.4 280.6 278.8 278 278.2 274.8 278.5 280 279.6 270.2 260.7 252.3 250.8 247 245.8 241.9 230.6 215.4 211.3 212.9 209.5 208.8
335.7 341.3 345.7 351.7 358.1 353.9 349 341.3 343.3 347.2 349.8 352.4 354.3 355.3 356.5 355.9 356.8 358.4 358.8 358.4 361.8 364.7 367.7 370.8 370.7 372.4 370.8 371.2 370.5 371.1 367.7 367 373.4 378 380.4 379 378.1 377.7 378 378.1 378.1 374.9 371.1 368 363.1 363.5 360.6 357.6 352.8 348 340.7 335.9 331.5 328.3 323 318.3 307 306.5 302.1 295.2 270.7 230 223.9 233.8 245.2 262.8 292.1 313.3 330.9 331.7 334.4 334.7 333.9 333.1 332.6 332.2 332.5 330.8 333.5 336.8 336 333.3 327.4 320.1 307.3 282.9 277.6 266.4 286.3 297.6 305.8 311.5 321.2 327.2 331.8 334.7 337.3 340.7 343 343.7 342.1 341 340.8 337 334.7 331.6 326.6 322.6 313.4 299.8 287.2 287 297.7 307.7 320 329.8 342 353 357.1 361.1 366.7 374.8 379.3 382 384.6 384.1 383.3 379.8 375.7 372 366.2 359.4 354.1 351.8 344.5 336.9 329.3 326.3 323.8 329.2 338.1 347.5 354.4 361.4 366.6 369.3 370.2 371.6 373.2 372 371.9 371.8 372 373.7 374.5 374.8 373.1 371 366.7 364.5 358.1 350.8 344.2 337.9 329.9 319.5 308 298.9 286 287.7 298.1 302.2 304.1 303.2 298.1 288.7 284.7 284.5 285.4 285.9 284.2 284 284.1 283.5 286.3 283.7 277.5 272.2 268.3 265.6 261.7 259.8 257.8 253.3 237.4 217.5 224.9 222.4 221.5 221.7
337.3 342.5 346.8 352.1 357.2 352.7 346.2 348.2 350.4 352.1 355.7 357.5 359 359 357.9 358.5 361.7 363.1 360.2 363.1 366 368.9 369.9 373.1 375.6 375.9 375 375 374.6 375.2 373.3 371 374.7 380.2 379.8 378.4 377.7 377.5 377.4 377.8 374.4 372.5 368.3 365.8 362.2 360.7 357.3 354.5 350.3 344.8 337.2 335.3 331.1 324.2 320.8 313.5 306 299.7 296.8 289.2 259.5 221.2 228.5 238.5 255.2 269.9 293.2 317.7 327.2 329.3 333.5 336.2 335.7 335.9 334.9 334.2 335.1 336.8 339.5 341.8 339.5 336.2 329.4 310.1 303.1 297.7 286.3 268.6 285.8 298.4 305.9 310.2 314.2 322.6 332.4 337.4 339.3 342.1 343.6 343.7 342.4 343 341.4 339.4 337.1 334.5 327.6 322.8 313.9 298.6 286.3 288.6 302.3 313.1 324.1 332.1 339.6 352.7 357.1 361.4 369 375.6 381 384.6 386.9 386.9 383.1 380.4 377.6 372.5 366.5 359.6 353.8 347.8 342.6 337.4 332.9 328.4 327.6 329.5 338.3 346.7 355.2 362.7 368.9 371.6 372.3 372.9 371.8 372 371.9 372.9 374.3 374.8 374.1 372.6 370.6 369.3 367.2 362.9 355.5 348.8 340.6 333.4 325.6 314.1 299.3 299.8 301.6 308.8 312.7 315.4 312.7 308.3 302.8 290.4 296.4 294.4 292.9 292.3 291.6 290.7 291.2 287.2 288.2 288.7 287.9 282.6 280.4 278 273.7 269.1 265.3 257.3 228.9 234.6 238.4 241.9 240.4 240
337.7 342.8 347.3 352.3 356.3 351.3 351.3 353.4 357.8 358.2 361.4 363.4 363.9 362.9 362 365 368.3 368 363.8 369.2 372.7 376.5 377.5 377.7 378.6 379.4 379.4 378.5 379.7 376.3 376.5 376.5 378 380.2 380 379 377.9 376.4 376.2 374.8 373.5 366.7 364.6 359.3 358.3 355.4 352.9 349.7 346.9 340.8 337.4 335 327.7 321.9 316 308.8 303.5 296.3 284.2 258.9 236 222.5 225.6 242.6 248.5 278.4 297.7 309.3 325.8 330.2 334.1 337.5 338.5 337.8 336.3 337.9 339.7 341.8 344.2 343.9 341.7 337.9 326.4 320.7 321.8 306.1 291.2 275.5 279.6 296.9 303.8 308.4 312.5 318.7 335.6 339.9 341.7 343 345.8 347 344.9 343.7 342.3 339.9 338.2 334 327.3 321.1 306.6 292.5 289.3 295.1 307.3 316.9 326.2 335 340 351.2 355.6 360.4 369.5 376.4 383.5 387.1 388 386 383 380.2 376.3 373.5 367.6 365.1 358.2 351.7 345.8 340.4 335.2 330.6 330.3 330.2 336.6 346.2 356.2 364.2 369.6 372.1 372.6 372.2 372 371.9 372.8 375.1 375.2 373.5 372.1 370.6 369.2 367.8 364.3 357.6 351.9 345.4 337.7 328.7 319.6 302.5 311.3 315.8 318.7 320.1 321 320.1 318.1 312.4 298.8 305.5 304.7 300.7 300.6 300.9 302.1 300.2 299.5 298.1 297.2 298.4 297.8 295 291.1 287.3 281.1 277.1 270.8 248.2 244.9 252.7 255.3 257.3 254.5 253
338.9 344 348.8 354.3 356.9 356.2 358.6 361.2 364.2 363.9 367.5 369.4 368.8 365.9 368.7 372.6 374.6 373.4 369.7 373.8 378.4 380.5 383.3 383.6 384.4 384.8 384 384.5 384.3 380.2 381 380.3 381.5 381.8 381.1 380.2 379.1 377.6 373.7 369.7 365.7 358.6 354.3 352.8 352.7 352.8 350.1 347.1 343.8 338.9 337.8 331.8 325.4 318.3 311.1 302.6 298.7 283.3 264.3 244.3 224.1 228.8 245 261.1 270.4 276.6 302.7 315 324.7 333.7 336.8 340.2 341.2 340.9 341.2 342.4 344.1 346.1 346.7 344.9 342.7 338.3 326.4 332.4 326.8 317 298.6 286.1 274.9 295.1 301.9 306.8 311.5 324.9 339.4 341.5 344.2 344.4 344.8 345.4 345.6 344.3 343 341.6 338.6 332.8 325.8 317.6 301 297.3 295 292 305.3 316.3 325.8 334.1 338.6 349.7 352.3 361 368 374.1 382.8 386 386.5 383.7 381.8 380.1 376.7 372.4 370.4 367.2 362.3 354.8 348.8 343.7 338.8 333.4 330.3 334.2 337.8 346.1 356 364.8 371.2 373.2 372.7 372.4 372.2 372.5 373.6 374.1 373.8 372.8 370.7 369.1 367.7 364.6 359.5 353.5 347.2 340.4 331.8 320.6 306.9 316.9 321.6 326 329.4 330.5 330.7 327.4 321.3 308.9 313.7 313.7 311 310.2 311.6 310.9 311.4 309.8 307.4 306.3 308.8 309.1 309.4 303.6 297.9 291.6 285.3 279.4 267.9 253.9 265.6 266.6 266.7 268.4 267 263.5
341.2 345.7 352.3 358.4 359.8 361.1 365.3 368.9 370.9 371 374.3 376.4 374.2 375.2 378.9 380.7 380.6 378.1 372.4 378.3 381.5 386 387.2 389 389.8 389.5 388.4 388.9 384.3 384.3 385.2 382.9 383.7 383.3 382.6 381.9 380.5 379 375.9 371.1 362.4 354.7 349.9 346.8 348.1 348.1 348.2 348 343.1 338.4 335.7 330 321.3 310.5 288.2 264 254.3 244.1 233.9 226.9 231.5 240.7 259.3 275.6 288.7 282.2 310.8 319 326.1 335.9 340.4 342.4 343.9 344.3 344.8 345.4 347.2 348.4 346.9 345.2 342.8 331.6 338.5 336.3 330.9 324.6 307.3 290.8 271.7 294.8 301.6 306.3 313.6 337.3 339.2 340.3 341.8 343.8 345.1 345.3 345 345.2 344.2 342.9 339 332.1 320.2 310.7 298.7 304.4 305.4 297.8 296.7 313.2 322.6 328.5 331.3 341.9 349.4 358.2 365.9 372.6 377.9 380.4 381.4 378.7 379.1 380.3 376.1 373.7 371.8 369.7 367.2 359.3 353.1 349.2 341.9 337.1 332.5 331.6 339.4 345.6 354.1 363.6 372 375.7 374.9 372.7 372.8 374 374.5 373.9 374 372.3 370.4 367 363.3 356.5 353 347.1 340.4 334.5 323.1 316.3 322.5 325.3 328.6 333.3 337.8 338.8 333.1 326.9 324.5 322.6 322.1 322.6 321.1 321.2 322.1 320.3 319.3 317.9 317.1 318.5 318.7 319.4 314.2 307.9 300.7 293.3 288.4 275.4 277.6 279.7 279 278 278.3 275.3 271.3 263
343.4 349.3 356.5 362.2 367.3 370.5 373.3 374.2 376.4 376.8 380.1 381.4 381.6 382.1 386.7 387.4 385.4 384.7 383.3 387 389.4 391.7 393.3 394.5 395 395.1 393.6 390.7 386.7 386.6 385.8 384.5 385 385.7 385.4 384.7 383.9 381.5 377.6 373.1 366.6 360.2 352.7 343.6 341.9 346.8 346 346.4 342.7 338.5 333.8 326.7 302.7 285.1 262.9 243.3 230.6 227.4 235.4 243.3 247.9 258.3 278.3 297.8 308.5 296.7 306.2 324.9 329.8 338.8 344.4 346 346.7 347.2 347.8 348.3 349.3 349.2 347.9 345.8 338.3 341.3 341.5 339.2 334.6 328.6 315.3 300.1 293.1 284 299.2 303.6 319.9 337.1 337.3 339.4 340.5 342 344.6 346.2 345.7 344.8 343.3 342.7 338 328.8 318 310.6 304.9 308.4 310.8 312.6 298.9 306 316 320.9 322.5 329.3 346.5 356.1 363.7 364.9 367.2 372.2 376 376 378.8 378.6 376.2 374.1 372.7 370.6 367 364.2 358.7 354.9 346.9 342.3 335.3 338.7 337 347.5 354.3 362.2 371.5 378.4 377.4 375.6 374.9 375.6 376 374.9 373 371.8 369.8 366.2 359 352.1 343.5 340 333.9 322.5 325.8 326.3 329 331.9 334.8 341.5 343.1 341.1 337.7 334.3 331.9 331.8 332.1 332.4 328.6 330.1 329.5 328.9 329.2 328.3 327.7 327.8 328.8 324.5 316.3 310 300.9 295.7 290.7 291.3 291.4 288.8 286.9 284.2 280.9 276.7 270.1 261.9
348.2 355.9 364.1 368.9 372.6 375.4 377.6 379.7 380.3 381.7 384.4 386.4 388.1 388.2 392.7 392.2 391.4 383.8 392.2 395.9 398.2 399.6 400.9 402.7 403.5 401.9 398.3 394.2 391.5 389 387.3 386.1 386.4 387.4 388.3 387.6 386 381.9 377.6 372.7 368.1 362.5 354.7 345 338.3 340.3 340.7 340.5 336.1 330.4 322.7 299 280.5 257.3 238.5 239.9 250.5 255.1 256.3 266.6 272.9 286.1 303.5 315.7 320.9 311 323.2 329.6 335.1 342.8 347.2 349 349.5 350 350.5 351.1 350.8 349.6 348.3 345.5 345.3 345 343.6 341.7 337.7 332 320.7 309.4 303.3 293.7 298.8 304.8 318.8 332.3 340.4 340.6 340.8 342.3 344.5 347 347.7 345.8 343.9 341.6 337.4 331.5 324.3 316.7 310.2 311.4 314.1 315.5 314.5 300.5 305.8 311.2 312.8 314.9 316.6 333.4 355.4 357.9 356.9 366.6 372.3 376.5 380.2 378.9 377.8 377.4 376.1 374 371.1 367.8 361.9 356.8 352.9 350.2 342.6 345.5 342.8 348 356 363.8 371 379.8 378.2 378.1 377.9 378 376.4 374.6 373 371.7 368.6 362.5 355.6 348 339 335 326.6 327.1 330.4 332.9 334.9 339.1 345.2 350.8 351.8 349.5 344.9 341.1 341.1 342 340 340.6 340.7 339.6 337.9 338.2 338.4 338.3 338 338.2 332.7 325.8 318.1 311 303.6 300.7 297.5 298.4 296.5 293.3 290.2 286.2 281.8 276.4 268.1 260.4
354 362.2 369 374.4 379.3 380.7 382.4 384.8 385.6 386.4 389.6 392 394.2 394.8 397.5 396.7 395.2 395.6 398.4 400.8 403.4 405.3 406.6 408 407.7 406.5 404.3 400.4 394.2 390.6 388.6 388.3 389.2 390 389.5 387.8 384.2 380.1 375.9 371.8 367.7 361.6 355 342.4 335.5 332.8 330.7 330.5 327.9 315.6 296.5 274 250.7 240.5 257 267.5 278.1 283.9 285.7 293.6 300.5 307.7 319.5 325.7 329.3 323.3 331.3 335.4 339.9 345.2 349.9 351.7 352.5 352.7 353.3 353.4 352.3 350.6 349 348.3 348 347.3 345.9 343.6 339.6 333.6 325.8 313.3 304.8 295.5 296.8 309.9 326 336.5 340 341.5 342.4 345.1 346.7 348.5 348.5 347.3 345.9 342.6 338.5 334.1 329.2 324.5 315.5 314.4 316.1 318.3 320.2 318.6 311.2 307 313.6 327 339.1 344.9 343 349.4 350.6 357.7 368.8 374.6 376.4 375.2 376.8 378.8 379.2 378.6 375.8 369.7 363.8 362 359.6 356.8 349.5 349.2 349.2 345.1 355.4 365.3 373.4 375.9 378.3 379.1 379.5 378.2 376.5 374.9 374.1 368.9 364.6 357.8 351.7 345.4 332.5 327.9 330.2 332.1 335.7 338.4 341.4 345.6 353.4 359.1 357.9 355.1 352.8 350.2 350.2 350.1 349.5 348.1 348.3 348.3 347.8 347.1 347.2 347.2 345.9 340.5 334 327.3 318 313 308.8 305.5 304.7 303 300 296.3 291.5 286.9 280.2 274.8 268 260.1
360.3 367.7 374.5 379.6 384 386.5 388.5 389.6 389.5 391.5 393.7 397 399.8 400.4 400.7 400.2 399.5 400.7 405.4 403.7 405.7 409.5 410.3 410.2 410.9 412.1 408.7 403.7 398.2 392.6 390.2 389.9 390.6 390.4 388.1 385.1 381.3 377.6 374.5 370.5 366.1 360 353 337.9 327.8 319.2 313.3 308.2 306.5 292.3 274.4 253.4 258.3 272 287 301.2 308.7 309.8 312.9 320.5 323.6 328.7 334.3 339.3 337.1 323.7 337.3 339 344.6 349.3 352.8 354.1 355.4 355.6 356 354.9 353.6 352 350.1 350.4 349.9 349.4 347.9 345.2 340.9 334.6 326.7 313.2 302.6 296.1 290.1 309.7 322.3 304.4 314.8 337.1 344 347.3 347.4 348.8 349.3 350.4 346.7 342.8 341.4 337.1 332.6 328.1 325.5 322.1 320.9 322.2 326 324.9 317.1 307.7 315.4 327.5 339.8 346.5 348.1 344.4 347.6 355.9 368 373.7 374.3 377 376.8 376.3 377 376.2 375.6 370.6 369.8 368.5 365.1 362.3 358.1 355 352.8 343.6 353.8 361.7 366.7 371.7 375.3 379.2 380 379.6 379.4 377.5 373.4 367.2 361.6 355 348.8 339.8 342 338.7 338 340.1 343 345 349.1 353.8 359.2 365.3 362.5 360.9 359.3 358.4 359.1 358.9 357.3 355.2 354.7 356.1 355.8 355.8 355.9 353.9 348.9 342.2 335.7 329.4 321.5 316.8 313.4 312.5 310.5 306.3 302 297.2 291 283.5 278 272.9 266.4 256.9
366.1 372.5 378.1 383.9 387.6 391.2 393.2 393.6 393.5 395.9 398.7 401.2 404.8 404.3 404.9 404.6 402.2 405 407.9 407.3 409.2 411.7 412.5 414 416 416.3 411.4 406.2 401 395.8 392.8 391.5 391 388.1 384.1 381 378.3 375.1 372.4 368.9 363.9 357.7 350.6 336.6 327.1 318.5 312.4 307.4 300.1 290.2 274.9 252.4 278 297.1 312.4 316.2 318.5 323 330.6 336.7 343 344.9 347.5 345.7 342.3 329.4 341.8 343.7 348.1 353.2 355.8 357.2 358.3 358.4 357.8 357 355.4 353.6 352.7 352.7 352.1 351.4 349 345.7 341.5 334.7 326 310.5 298.7 292 295 299.8 301.9 323.2 339.1 326.3 344.5 347.3 348.7 349.6 350.4 351.7 351.1 347.5 346.5 340.9 334.4 331.8 332.9 334.2 330.4 331.5 334 330.1 319.5 309.3 318.2 328.4 339.1 348.5 351.9 345.1 351.4 360.7 368.5 372.8 379.2 375.3 373.3 372 371.9 371.9 372.1 372.8 370.9 369 365.9 365 364.7 360.7 354.8 350.7 349.2 353.8 358.8 367.1 374 378.5 381.1 382 380.9 376.5 371.3 365 359.9 351.6 351.5 349.2 348.4 346.5 347.5 348.1 351.1 353.8 356.7 362.3 368.1 369.8 368 366.6 367.2 367.1 368.4 365.9 364.3 362.6 362.7 362.5 363.8 363.2 361.7 356.2 349.4 342.4 335.9 329.7 324.7 322.4 318.6 317 312.7 308.3 302.7 296.6 289 282.8 278.2 271.6 264.5 256.6
371.8 377.3 383.4 388.5 392.1 394 395.7 397.4 399.6 402.3 403.8 407.2 408.4 408 408.9 409.4 405.8 404.6 408.1 409.3 411.9 412.9 414.2 416.6 419.8 418.5 413.6 408.2 402.6 398.7 394.7 391.9 388.6 384.8 380.9 378.5 375.4 372.9 370.4 366.9 361.3 354.6 346.8 337.5 331 324.4 319.2 314 305.5 296.7 271 264.5 291.5 316.5 324.9 324.6 328.8 338.5 344.7 349.4 350.5 350.3 351 349.3 347.8 340.9 344.2 347.5 352 355.6 358.6 360.4 361.1 361 359.7 358.9 357.1 355.3 354.8 354.7 354.6 353 350.4 346.3 341.5 334.1 322.7 310.4 300.6 294 298.2 305.2 314.6 326 339 340.7 341 346.3 349.7 350.5 352.5 353.5 355.1 352 349.1 344.7 336.1 336.2 340.1 341.5 340.5 343.5 344.3 331.5 323.1 312.8 321.5 332.4 343.6 354.4 355.1 349.8 355 361.1 369.1 373.1 377 373.6 372.3 372.2 372.2 374.8 377.6 378.3 377.7 371.7 368.3 367 365.2 361.9 360 358.1 350.6 352.9 355.8 364.8 373 379 382.9 382.6 379.8 374.6 369.8 363.1 359.9 359.7 355.9 355 356 354.7 353.1 358.7 359.7 363.4 367.9 371.3 375.6 375.1 374.4 373.8 375.6 375.7 375.8 372.4 370.2 370 370.5 371.8 371.3 368.3 362.6 355.8 348.9 343.6 337.9 333.4 329.1 325.8 323.3 319.3 313.3 307.8 300.7 294.9 288.7 283.1 278.2 269.8 260.8 252.9
379.7 384.8 389.7 393.9 397.5 399.3 400.9 402.5 404.7 407.5 410.2 412.1 411.9 411.9 413.5 411.6 408.4 409 409.2 410.2 412.1 413.6 415.3 419.7 421.9 419.3 413.9 408.1 402.5 398.4 393.9 389.5 385.4 380.8 377.5 375.2 372.7 370.9 368.1 364.5 358.9 352.2 345.5 341.6 335.5 329.8 322.8 315.8 308.4 286.5 255.8 276.5 299.9 322.2 332.6 331.9 341.3 349.3 353.3 356.6 356 354.8 354.4 352.8 350.1 347.9 346.3 351 355.3 359.1 361.6 363.5 363.8 363 361.6 360.5 358.7 357.3 357 356.7 356.3 354.2 351 346.3 340.7 333.6 323.2 312 301.1 300.9 300.8 306.6 317.1 328.7 340 342 334.2 346.2 350.5 353.1 355.2 357.2 357.2 356 351.6 345.6 345 342.5 344.1 347.9 350 348 345.2 334.8 322.3 321.1 325.7 336.6 347.4 358.3 358.3 350.1 356.8 365.6 368.3 372.1 374.9 374.6 379.6 378.5 382 383 377.4 375.2 375.1 375.5 373.9 368.1 365.2 363.1 360.8 359.6 356.2 353.9 357.8 364 372 379.4 382.4 381.8 377.7 373.1 367.7 368.3 366.2 364.8 362.9 361.4 362.4 364.2 367.4 371.6 372.5 373.1 376.5 378.4 380.7 382 381.7 383.2 383.3 383 381.8 378.8 377.3 378.5 379.8 378.7 376.4 370.7 364 357.2 350.8 344.9 339.7 336.1 332.1 329 324.6 319.4 313.2 306.8 299.8 293.3 287.2 281.8 274.9 264.2 257.9 252.3
