ncols 200
nrows 82
xllcorner 390000
yllcorner 462350
cellsize 50
378.3 377.3 376.6 376.2 376.1 379.8 384.4 384.2 377.7 373.6 374 373.7 373.1 372.5 371.9 371.6 370.9 369.9 369 368.4 372.6 379.3 383.5 388.4 392.2 393 396.3 403.1 409 411.8 414.1 415.6 415.8 416.2 417.6 420.6 425.2 429.5 430 429.1 428.2 426.1 424.9 422.8 424.4 423.5 424.7 424.2 422.2 419.8 416.7 413.5 410.9 408.5 405.2 402 399.4 397.7 395.6 393.5 391.9 390.3 394.1 397.3 400.3 405.1 409.9 414.9 418.9 423.3 424.7 423.8 425.9 427.3 425 421.8 420.5 418.6 413.7 409.9 407.1 401.9 396.1 388.8 387.3 388.1 388.4 388.1 388.5 387.7 387.5 388.9 392.1 396.5 398.7 397.6 406.7 421.2 424.7 427.3 432.6 424.8 408.4 401.4 400.3 394.4 384.4 370.8 360.4 356.7 355.1 352.8 348.8 341.8 336.3 336 334.3 334.5 334.6 332.2 327.2 321.6 318.9 317.8 316.6 313.2 308.7 317.9 325.5 325.6 332 333.9 327 322.8 323.4 323.3 317.8 311.3 310.6 302.9 294.1 291.3 282.7 280.3 269.7 265.3 260.3 259.7 259.1 254.9 231.8 216.1 198.5 194.1 190.9 187.2 183.7 184.5 179.5 180.3 186.1 186.5 185.6 186.4 187.1 189.7 194.8 202.3 209.2 216.6 224 229.2 235.3 247.1 259 267.6 263.1 261.2 274.9 289.1 291.5 295.9 290.3 293.5 285.1 293.1 292.6 286 276.7 273.4 269.8 266.5 266.3 266.7 267.6 268.3 269.8 271.8 272.9 279
380.4 379 377.5 376.5 375.8 375.9 380.9 381.8 377.5 373.5 373.6 373.8 373.4 372.3 372 371.5 371.4 369.6 369.1 368.3 368 373.8 378.3 383.2 388.3 389.4 393.8 400.2 406.5 410.5 414.5 417.4 417.7 417 417.9 420 423.9 428.8 430.7 429.8 429.4 426.1 421.5 419.2 418.6 420.5 423.7 423.5 419.2 415.9 413.1 410.4 407.6 405.1 401.8 399.4 397.4 396.5 394.7 393 391.3 388.9 391.7 395.3 398.8 403.7 407.2 412.6 416.6 420.4 422.4 421.1 422.4 424.5 424 422.1 420.5 418.4 413.9 410.8 407.5 404.1 398.6 392.9 387.2 386.4 387 386.4 385.4 385.7 386 387.4 390.1 392.2 397.2 402.7 412.4 423.9 428.1 438.5 437.3 431.9 418.8 412.8 410.7 404.5 392.4 378.9 365.7 363.6 364 362.5 359 352.9 345.7 345.2 343 344 344 340.4 336.6 330 327 325.9 324.6 320.4 315.9 316.3 326.3 330.3 337.5 340.9 335.4 328.6 328.8 325.8 322.5 319.6 310.2 305 296.3 285.5 279.3 279.4 269.8 267 269 266 262.7 258.5 240.2 217.5 204 195.4 192 185.9 183.4 183.1 179.7 175.7 186.8 187.4 186.8 185.8 186.5 188.3 193.4 200.4 206.9 213.1 221.2 226.2 231.5 239.5 254.8 262.2 259.4 261.4 279.3 286.2 282.1 284.4 278.8 279.7 283.2 278 282.6 278.7 273.6 271.6 268.4 266.9 266 266.7 267.9 268.2 270 272.1 274.3 277.4
383.5 382 379.8 378.6 377.6 376.6 374.1 372.6 373.5 372.4 372.9 373.1 372.8 372.5 372.5 372.3 370.6 369.8 374.1 370.1 367.3 366.2 371.9 377.5 382.7 386.3 390.7 397 402 409 413.1 416.8 417.7 417.7 417.7 418.6 421 425 428.4 428.8 428.9 428.1 423.5 419.4 417.6 417.2 419.4 418.1 414.5 411.7 409.8 407.5 404.8 401.6 399.1 397.1 395.5 394.9 393.4 392.2 391.5 388.5 389.5 393.1 396.4 401.3 405.6 408.8 413.4 417.8 419.6 418 418.7 419.9 421 422 421.6 418.8 414.6 410.8 407.3 403.3 398.9 392.9 386.1 384.6 386.2 385.9 383.9 383.5 384.4 386.2 389.7 394.6 400.6 404.6 415 423.6 436.2 441.5 440.2 437.8 429.1 426.3 422.7 413.5 405.7 393 375.5 372.8 375.5 373.4 368.6 363.4 355.5 353.9 350.9 351.6 350.1 347.3 342.9 337.5 334.9 332 330 325.9 323.3 317.4 322.8 334.4 342.3 344.5 341 335.3 334.3 335.4 330.6 323 311.4 304.8 295.4 285.9 278.5 274.2 270.9 271.1 274.6 273 265.9 261 248.4 221.9 212.1 195 192.5 185.7 183 182.3 179.2 175.1 186.5 187.8 186.8 185.9 186.4 188.4 192.6 198.9 204.3 209.8 218 223.6 228.1 234.2 245.9 252.9 255.2 263.5 276.9 279.7 272.8 267.6 275.1 271.3 272.5 274.7 274.6 272.5 267.3 264.8 265 267.1 267.6 267.7 269.1 269.7 276.3 281.6 279.9 281.6
390.3 388.6 385.3 384.4 383.5 383.1 380.4 378.5 375.5 372.2 372 372.1 372.2 372.5 371.7 371.5 371.4 374 376 373.7 369.6 367 365.2 374.1 379.7 383.7 389.1 394.1 398.7 405.1 409.8 414 416.1 416.7 416.8 416.9 418.1 420.8 423.8 425.3 426.6 427.7 426.2 423.3 418.6 416.5 416.2 414.4 411.8 410.4 407.8 403.2 401.4 398 396.5 394.9 394 393.4 392.2 390.9 390.8 388.6 387.7 391 393.6 398.4 402.1 405.1 410.2 414.9 415.5 413.4 413.2 414.9 416.9 420.8 421.3 418.5 414.2 410.7 407.3 403.1 398.6 392.2 389.7 385.2 385.9 384.2 383.8 381.6 382.4 385.2 389.8 396.3 402.5 407.4 416.8 429.3 439 445 443 440.8 437 430 425.4 419.8 414.4 404.7 388.9 388.7 389.6 386.7 380 374.6 366.8 360.6 357.3 355.4 352.8 350 346.8 344 340.6 338.3 337.4 331.3 328.4 325.4 323.3 333.4 338.5 340.9 341.4 335.9 337.2 338.5 334.2 326.1 317.4 304.5 295.3 289 280.9 275.9 276.1 279.3 278.5 275.9 269.6 263.9 255.3 228.7 216.6 200.6 193.6 186.4 181.5 180 178.5 175.1 184.2 187.8 187 186 186.4 189.8 193.3 197.8 203 207.4 213.6 220.7 225.1 229.5 235.2 240 248.7 262.1 257.3 265.9 262 261 262.8 267.2 267.7 267.9 261.6 270.3 264.7 264.9 270.5 270.7 271.2 270.8 273.5 276.3 280.4 279.7 281.6 282.7
391.2 391.4 390.2 389.2 387.1 385.8 384.7 381.9 379.6 376.4 374.2 372.9 372.3 372.1 372.3 372.5 372.9 375.4 376.7 374.4 372.5 370.7 364.5 373.9 379 383.6 388.3 391.3 395 400.3 405.3 409.7 412.7 414.8 415.7 415.8 415 415.5 418.1 419.8 422.7 425.4 426.6 424.8 421.7 417.8 415.5 413.7 414.4 414.7 411.2 403.7 398.2 395.9 394.3 393 392.5 391.8 390.8 389.7 389 387.3 386.5 389.8 392.7 395.3 398.3 402 407.6 411.7 410.8 408 407.1 409.1 412.5 418.1 420 418.3 413.6 410.7 407.6 404.2 399.2 394.8 391.1 387.5 385.9 382.9 381.8 380.3 380.6 384.5 389.9 397.1 403.3 408.9 418.5 433.5 440.9 443.9 445.1 443.2 440.6 434.5 424.2 421.5 415.9 411.3 407.6 403.9 400.5 396.4 390.7 385.4 376 367.8 360.8 359.1 356.6 351.9 350.7 349.3 345.8 342.4 340.2 336.6 330.2 329.6 325.6 331.1 336.2 336.3 338.7 334.3 335.2 334.6 332.3 325.6 314 305.7 298.5 292.9 284.1 278 277.8 280.6 283.9 279.2 276.4 268.3 258 235.8 214.7 200.2 190.1 185.1 181.3 179.4 178 176.3 181.5 185.9 187 186.4 186.8 191 194.3 198.4 202.4 205.7 210.8 217.6 221.7 220.8 219.9 228.1 240.5 243.6 235.8 232.4 230.2 236.1 258.8 266.1 263.9 274 287.1 277.2 270.1 267.1 271.9 271.6 273.7 273.1 272.8 277.9 277.3 280.5 281 282.7
390.5 390.5 390.8 390.2 389.5 387.9 388.1 387.3 384.3 380 378.8 374.4 374.2 372.9 372.9 373.1 373.8 373.6 373.4 374.1 374.5 373.5 365.2 375.6 381.6 385.6 388.7 390.6 393.4 396.6 400 404.7 408.6 411.1 413.4 414.8 413.3 412 411.7 414.4 417.6 421.8 425 424.7 422.5 419.7 417.4 415.6 416 414.8 410.7 404.5 397.4 394.8 392.3 391.2 390.5 390.4 390.2 389.1 387.5 385.9 385.7 390.1 392.9 395.5 398.1 401.3 405.9 408.3 406 403.1 402.6 404.6 408.2 414.3 417.7 415.8 412.4 409.4 407.1 404.3 400.6 396 392.4 388.3 384.8 383.7 381.2 378.8 380.1 385.1 391.4 397.6 403.1 407.9 417.2 431.5 440.7 444.5 446.9 445.4 443.9 440.5 432.6 428.1 420.4 420.3 419.2 416.1 409.5 403.1 397.4 393 385.3 373.8 365.5 361.6 358.6 357.3 356.4 354.7 352.4 349.8 346.5 341.8 334.4 329.6 327.1 329.2 329.3 329.6 331.1 328.9 327.8 324.9 322.7 318.4 313.7 306.7 301.4 291.4 291.7 280.4 282.8 287.5 283.2 280.4 277.8 271.3 259.8 243.1 217.4 207.3 193 185 180.7 179.1 178 177 180.5 182.4 183.9 184.9 187.6 192.2 195.6 199.5 202.5 205 208.7 215.5 220.1 212.7 230.4 214.7 219.8 219.4 228 241.8 272.7 280.9 289.2 282.1 276 281.5 282.3 277.5 273.4 271.4 271.6 273.5 273.4 273.2 274.3 278 278.2 279.2 280.5 282.2
389.2 387.8 388.6 390 389.5 388.9 389.5 390.6 389.8 385.4 382.8 379.5 375.9 373.7 373.4 373.5 373.3 372.2 372.7 374.2 375.8 373.3 364.3 378.5 381.2 386 388.1 390.2 392.5 395 397 399.5 403.8 407 409.9 412.2 412 410.5 409.5 410.1 413.9 419.8 424.3 423.4 421.9 419.5 416.2 414.1 413.9 413 409.9 405.1 398.9 394.7 392.2 390.2 389 389.2 388.7 389.1 387.5 385 385.1 390 394.1 397.3 399.1 400.9 403.5 404.4 402.4 399 397.9 400.4 404.3 410.5 413.4 413.1 410 407.9 406 403.6 399.4 394.9 391.4 387.7 385.3 382.6 377.3 377.4 378.9 386.2 391.7 397.5 403.2 408.7 416.2 426.3 437.6 442.7 444.8 446.9 447.4 444.1 436.5 429.9 423.8 425.3 426.3 424.1 417.3 409.7 402.8 399 391.8 381.1 373.8 366.4 364.5 363.5 363.4 363.9 359.2 355.9 352.1 346.1 339.1 333.9 329.1 336.1 335.8 337.5 337.6 337.1 335.5 331.5 332.5 327.2 319.7 310.3 305 307.8 303.8 288.3 283.8 290 293.1 289.9 280 274.4 263.8 252.2 224.2 204.5 197.1 181.9 180.2 178.8 177.8 176.9 176.5 182.4 183.7 185.4 187.7 192.7 194.9 199.4 203.1 204.8 207.6 210.6 206.2 221.8 240.1 246.3 241.7 250.1 262.4 281.6 286.9 288.3 292.3 291.1 277.7 279.1 281.9 276.9 273.9 274.9 276.3 273.6 275.5 273.8 274.1 275.5 279.7 279.6 280.6 282.8
390.6 388.2 387.7 389 389.9 390.2 390.4 393.6 393.9 389 383.5 378.7 378.9 377.3 375.9 376.6 376.8 373.7 372.9 377.4 377.5 372.4 364.8 381.6 384.6 385.3 387.5 389.5 391.7 394.5 396.1 397.2 399.7 403.3 406.1 408.7 410.3 409.7 408.3 409 412.5 419.5 423.2 421.7 419.4 418.4 415.8 412.7 411.5 410.8 408.7 405.6 401.3 395.5 392.4 389.9 387.9 387.9 387.4 387.2 387 384.3 383.4 388.6 393.1 397 399.4 400.4 401.1 400.7 399.2 396.8 395.3 397 400.2 407.1 409.5 409.9 407.5 405.7 404.6 402.8 399.6 395.2 391.2 388 385.9 382.6 375.2 379.5 382.2 385.8 390.9 397.4 403.1 409.8 415.6 421.3 431.2 440.6 443.1 450 449.5 449 438.1 430.7 425.6 425.6 430 428.2 424.4 417.6 409.5 403.4 396.9 388.2 379.9 374.5 373.4 371.2 371.3 369.6 364.8 361 355.6 349.7 344.7 335.4 331.4 334.3 334.2 338.1 338.9 339 337.4 337.3 337.6 329.1 323.3 314.5 309.5 313.6 306.5 291 283.2 285.7 288.6 293.4 288.4 283.3 273.1 261.2 236.7 210 198 182.8 179.8 178.2 177.1 176.4 175 181.9 184.3 185.8 187.6 189 190.5 192.6 194.8 197.4 199.9 205.1 208.9 230.2 248.5 254.9 264.7 270 277.9 285.8 287.7 285.1 285 289.5 288.2 279.4 280.3 275.2 275.3 278.8 278.7 279.2 276.8 275.3 274.8 276 283.2 282.6 282.7 283.8
390.9 390.1 388.5 389 389.9 390.6 391.3 393.6 394.7 390.6 384.4 380.4 378.5 380.4 379.8 380.6 380.4 377.7 373.9 378.4 379.2 375.3 367.2 383.2 386.7 387.3 387.2 388.6 390.8 393.2 395.3 396.4 397.6 399.5 402.4 405.3 409.3 409.3 407.6 408.2 412.3 417.9 420.1 418.3 416.5 415.7 414.4 411.5 409.7 409.7 408.4 405.4 402.4 398.5 393.4 390.5 388.1 386 385.4 384.9 385.1 383.5 383.3 387 390.7 395.3 397.8 398.3 398.1 397.3 395.9 394.2 393.3 395.3 398.7 404.3 407.9 407.4 404.9 403.4 402.9 401.8 398.8 394.6 390.3 387.3 384.2 380.3 374.8 376 381.6 383.9 389.9 395.5 402.1 408.6 412.3 414 422.5 432.5 443.5 447.9 445.8 448.1 435.7 433.3 426.6 426.4 427.4 427.3 426.4 424.3 417.2 405.7 399.8 393.2 385.7 379.9 376.2 373.2 369.9 368.1 365.9 363.4 356.5 350.4 346.4 338.4 335.8 335.9 335.7 339.6 339.9 342.5 340.3 338 338.6 333.5 323.7 316.3 311.2 311.2 307.8 292.4 281.7 283.8 282.3 287.6 290.5 285.5 280.3 272.6 254.3 221.4 203.8 188 180.4 177.5 176.8 176.3 175 181.4 183.2 183.8 190.3 195.4 198.7 202.7 205.2 206.1 208.9 213.8 221.6 237.9 253.9 262.3 271.6 278.6 288.4 288.8 287.8 283.4 283.8 283.3 287.7 289.5 279.7 276.6 280.5 282.1 282.8 283.1 280.2 277.4 276.2 277.6 284.2 284.7 284.5 285.6
391 390.4 389.1 388.9 389.6 390.4 391.1 392.9 394.6 393.6 388.3 384 381.6 382.7 383.6 384.1 380.5 374.4 378.8 377.7 380.1 369.4 370.7 384.3 387.6 388 388.4 389.2 390.2 393 394.9 395.5 396.8 398.3 399.6 402.1 407 408.8 406.5 407.2 411.4 415 416.3 414.5 413.7 413.2 412.5 409.6 407.9 407.7 407.6 405.1 401.8 398.2 394.1 390.7 388.1 385.2 383.2 383.4 383.8 382.4 382.2 385.1 388.6 392.2 395 395.8 394.8 394.2 393.6 391.9 392.1 394.7 397.5 401.5 404.8 404.2 402.3 401.2 401.1 399.7 397.5 393.4 389.8 385.5 381.5 378.3 373.8 373.5 382.5 382.3 386.6 391.9 398.3 404 406.3 405.7 410.2 423.8 436.1 442 441 443.1 435.3 430.9 428.2 427.9 424.8 427.8 427.5 426.3 422.9 409.5 402 395 388.6 384.8 378.3 374.1 371.3 366 363 361 356 351.2 347.5 339 341.1 343.1 340.6 341.8 344.2 345.4 341.5 338.5 336.3 329.4 322.7 317.2 309.9 308.1 301.7 291.1 279.3 279.7 275.6 279.4 283.8 283.4 281.8 277.8 268.1 241.4 211.7 191.8 179.5 176.8 176.2 176.1 174.8 179.1 181.9 182.8 190.1 197.6 201.4 206 207 208.2 210.3 223 234.4 245.5 256.2 267.3 273.4 283.1 290.7 292.7 289.3 283.2 285 287.3 290.4 288.4 281.2 281 284.2 285.1 285.2 286.8 284.3 279.9 277.4 278.5 286.2 286.6 288.4 286.4
389.9 388.9 388.3 387.9 388.6 389.9 391.1 392.3 393.9 393.4 389.3 386.6 384.7 385.3 385.2 384.5 379.7 374.7 382.8 382.7 378.6 362.2 373.1 386.1 387.9 388.3 389.4 390.2 389.2 391.8 393.5 395.8 397 397.3 398 399.3 402.1 404.9 404.4 405.8 409.4 412.2 412.5 411.8 411.2 410.8 410.2 408.6 406.1 405.3 404.6 402.9 399.6 396.1 392.8 390.3 387.7 384.8 382.8 380.2 381.4 381.2 380.6 382.9 386.8 390.1 392.4 393.2 392.2 392.7 392.3 391.1 392 394.1 395 398.6 402.8 402.7 399.9 398.8 398.6 398.1 396.5 392.8 388.7 385.3 381.2 377.6 373.8 374.3 377.2 378.7 382.3 387.7 393.5 396.7 396.6 396.4 398.5 415.6 426.3 431.5 431.6 440.8 432.5 428.8 428.7 432 423.9 425.4 425 425.5 423.8 412.8 403.7 396.2 391 386.1 377.4 374.8 369.8 367.4 364.2 360.3 358.5 353.6 349.2 343.3 344.3 346.1 340.7 346.3 346.1 347 343.7 335.7 334 324 318.5 315.2 316.7 314.6 303.4 296.2 285.3 278.9 274.1 273.2 278.8 280.8 281.6 280.9 280.7 257.1 225.1 192.8 178.8 176.4 176 176 174.6 179.3 181.7 182.3 191.1 198.4 203.8 206.7 209.5 215 223.4 232.8 244.7 254.2 264 272.1 279.4 286.8 291.8 293.2 293.6 290 292.1 292.8 292.6 291.4 285.1 285.3 285.7 288.7 289.8 290.9 290.1 284.8 280 279.6 286.9 288.2 286.4 286.3
387.5 387.1 386.5 387 388 389.6 391 392 392.5 392.7 387.9 387 386.5 384.4 385.5 383.8 380.1 372.7 379.2 380.3 372 362.7 383.3 385.7 389.4 388 389.1 389.1 387.4 390.6 393.3 395.3 395.2 396.4 397.1 398.6 399.5 400.6 402 403.9 406.9 409.3 409.8 409.4 409.1 408.7 407.9 407.4 404.7 401 400.5 399.5 397.6 393.9 390.6 388.8 386.8 384 381 379.1 379.2 379.4 379.3 379.8 383 387.9 391 391.4 390.5 391.1 391.1 389.9 392.2 392.5 393.3 397 401.3 401.3 398.1 396.3 396.2 396.3 394.9 392.3 390.4 387.9 383.3 379 374.7 370.8 370.2 374.5 377.2 382.5 387.5 388.3 389.3 387 395.7 407.4 415.6 422.2 428.6 436.3 431 429.2 430.2 434.2 430.8 420.3 417.6 418.3 417 414 405.6 397.4 390 386.6 381.3 378.2 370.6 367 363.8 362 359.6 355.3 345.8 345.1 346.3 345 344.5 347.6 349.1 347.4 348 336.5 330 324.8 316.4 314.3 312.2 308.2 303.2 296.7 288.8 278.3 274.7 273.6 272.7 277.5 276.7 283.5 285.4 254.2 229.8 198.8 181.8 176.2 175.9 175.9 174.6 179.7 181.3 183.5 191.3 198 202.9 209.5 216.1 224.5 236.1 247.1 252.6 263.6 269.6 277.8 284.1 291.7 293.7 291.6 292.8 291.9 292.8 293.1 293.6 291.7 290.5 286 285.1 291.3 293.3 292.6 291.9 288.7 285.6 280.7 284.2 288.8 285.8 285.5
384.5 385.2 385.4 386.6 387.7 388.7 389.8 391.3 390.3 390.7 389.1 387.8 386.9 384.7 384.4 382.7 378 372.3 376.8 377.9 370.6 361.3 382 382.1 388.2 387 385.5 386 385.6 388.9 392.4 392.3 395.6 398.2 398.8 397.9 398.2 399.2 400.4 401.9 404.7 406.6 407.2 407.1 407.3 406.6 405.8 405.1 402.3 398.9 396.9 395.9 394.5 392.1 388.4 387 385.2 382.8 378.4 377.3 377.5 377.8 379.2 379.7 381.9 385.8 390.2 390.3 388.7 389.2 389.9 389.6 391.9 391.8 392.4 395.9 399.3 398.2 396.1 394.2 394.3 395.2 394.5 392.9 391.1 388.5 383.8 377.5 372.2 369.4 368.4 371 372.5 377.2 380.7 382.1 380.1 378.3 385.6 394 402.7 410.4 421.6 427.5 433.7 430.7 431.1 435.7 433.8 418 414.1 411.7 413 411.6 407.9 401.2 390.6 387.1 387.5 380.8 373.6 368.2 364.8 362.1 364.2 354.8 347 350.1 346.9 351.1 355.1 355 355 353.5 345.5 342.1 329.7 322.5 318.1 319.9 316.2 310.4 307.5 304.1 299 286.2 275.2 269.6 269.9 272 273.8 277.4 266.5 252.1 230 205.5 187.7 175.7 175.8 176.1 174.4 179.3 181.2 186.2 195.5 202.3 210.5 218.2 221.3 233.7 243.4 253.8 261.9 268.7 273.1 281.5 287.9 294.8 297.2 294 292.3 291 297.7 291.9 293.1 291.8 289.5 284.9 287.3 292.3 291 292.8 293.6 289.8 285.9 283.5 279.6 283.3 284.3 282.9
383.3 384.2 385.7 386.6 387.5 388.3 388.8 388.1 387.8 388.7 389.9 389.2 388.6 385.4 384.4 384.2 378.3 370.8 374.5 375.7 370.8 358.3 374 379.6 380.6 380.7 379.9 380.7 382.9 385.5 389.3 390.8 395.7 398.8 400.9 399.2 398.8 399.2 400.3 401.1 402.5 404.2 405.1 405.9 405.7 404.5 403.6 401.1 398.1 397 395.1 392.4 390.8 388.7 386.6 384.5 383.6 381.3 376.5 376.7 377.4 378.5 379.5 381 382 385.8 387.7 387.7 386.2 387.6 388.2 387.4 391.1 391 391.7 394.8 396.1 395 393.1 392.1 392.7 394 394.1 392.5 390.2 387 383.7 378 374.8 369.1 368.1 369.2 374.4 374.8 377.4 376.9 373.3 371.6 376.3 379.9 382.9 399.9 410.9 422 430.8 431.1 430.7 432.8 434.8 425 409.6 406.6 406.4 408 408.6 403.3 392.2 388.3 390.6 384.1 377.8 369.8 361.9 359.9 361.4 351.4 349.1 347.5 351.8 356.5 360.8 361.7 360.7 360 352.7 344.1 336.2 325.7 324.7 329.7 328 315.4 303.1 300.2 296.9 286.7 283.7 275.3 265.4 269.1 271.7 265.9 258.2 248 232.3 206.8 194 175.7 175.6 175.7 174.4 178.8 181.7 195.7 201.1 215.2 231.7 225.8 224.2 237.3 243.4 255.2 268 271.7 275 283.8 293.3 297.4 299.6 296.7 291.5 291.5 294.8 294.5 292.5 292.6 290.2 288.6 286.5 291.1 291.2 290.2 289.4 287.7 285.8 283.9 280.4 280.9 280.7 281.2
382.6 383.3 385 386 387 387.6 387 386.2 386.2 386.4 388.1 391.1 390.9 387 384.6 384 380.3 374.6 369.1 373.3 368.6 362.2 366.5 376.4 377.5 377 373.7 377.4 379 381.6 383.6 390.1 394.9 398.7 400.8 401 399.4 399.5 400.9 401.4 403.1 404.7 406.6 406.6 406.2 404.1 399.5 398.2 397.2 394.6 393.2 390.9 387.8 386 384 382 380.7 379.1 375.8 376.6 378 378.7 380.7 381.1 381.5 381 382 382.8 382.4 385.1 386 387.7 390.2 389.1 388.5 390.7 391.9 390.7 388.3 388.2 389.8 391.9 392.8 391.7 388.5 384.7 382.6 378.6 374.4 371.5 365.7 366.1 370 372.1 370.4 369.6 368.4 368 369.5 369.4 373 389.5 403.5 412.9 422 428 430.9 428.5 430.6 426.2 415.4 403.5 402.7 401.3 404.3 406.1 393.4 386.3 391.1 388.5 379.5 369.2 362.7 359.5 357.5 348.6 349.1 349.9 355.9 362.5 366.5 365.3 363.7 361.2 354.7 345.9 334.1 333.1 330.9 330.8 327.2 323.5 303.3 296.9 294 289.4 283.3 278.8 267.9 264 267.9 261.2 254.8 243.5 231.8 207.7 192.8 181.6 175.5 175.7 174.2 179 183.9 197.4 212.4 225.5 246.6 250.2 247.3 239.8 239.4 254.3 266.5 273 277.3 283.7 293.3 296.5 299.4 295.3 294.7 290.5 291.1 290.6 297 292.3 292.2 289.2 283.3 285.4 290.1 288.7 287.2 285.5 283.6 281.3 280.6 276.2 277.1 275.7
382.9 383.4 383.9 385.4 386 386.6 386.2 385.4 384.5 384.3 384.9 388.8 391.2 388.8 386.6 384 381.9 379.7 367.6 365 366.3 358.7 362.4 371.5 373.8 371.4 378.1 379.4 379.6 381.7 382.4 387.5 392 396.4 399.3 401.1 400.2 399.5 400.7 401.9 403 405.6 407.9 409.8 407.4 404.6 401.3 399.5 397.4 394.4 391.1 388.5 386.1 383.7 381.8 380.2 378.2 376.4 375.2 376.3 377.3 377.1 379.6 379.2 378.5 377.7 378.8 379.2 380.1 381.1 383.1 386.9 388.8 388.2 386.3 386.7 386.8 385.9 384.4 384.6 386.4 389.9 391.1 389.7 385.6 383.3 381.3 379.8 375.2 371.4 366.8 363.6 364.9 366.1 367.7 369.2 369 368.8 367.6 367.3 371.1 382.7 395.7 404.2 413.8 422.7 426.3 426.8 431.3 428.4 411.4 400.3 399.7 400.5 402.8 407 394.5 384.3 386.6 389.6 381.9 370 364.1 358.4 354.6 349.6 350.4 356.1 359.5 368.3 375.7 374.5 364.1 360.1 355.5 345.5 334.8 324.3 331.3 328.5 326 320.2 304.2 296.2 293.9 288.5 283.3 277.3 271.7 256.8 260.2 256.4 249.3 239.1 228.2 211.4 201.2 187.1 176.1 175.3 175.6 178.3 185.1 206.3 220.6 234 245.7 257.9 258.6 256.5 250.6 258.7 268.8 273.2 278.7 282.1 290.7 295.7 293.6 293.6 292.2 289.9 291.3 289.1 295.2 293.7 288.3 288.4 284.1 278.2 288.4 286.9 285.7 284.5 283.8 279.7 278.4 275.6 273.4 273.5
387.2 386.9 387.7 386.8 385 385.5 385.5 384.8 383.8 382.6 382.4 386.1 387.3 386.1 386 386.3 383.9 381.3 375.7 364.6 365.1 358 360 361.1 372.7 377.8 380.6 381.2 382.2 383.7 383.9 384.3 387.3 391.2 395.3 399.2 401.3 399.5 399.2 400.9 401.8 404.1 406.5 409.2 409.3 406.2 403.3 400.9 397.7 393.8 390.3 386.4 384.8 382.4 380.3 378.1 375.9 375.5 373.4 374.3 375 375.9 378.1 377.9 376.6 377.3 378.6 379.5 380.2 380.5 380.4 385.1 387.7 388.7 386.9 386.2 385.9 384.1 383.1 383.4 384.1 385.3 386.2 386.1 385.1 382.6 380.2 378 376.3 371.7 369.1 362.8 364 362.9 367 371.1 372.6 370.5 370.4 370.9 373.3 380.1 388.3 397.4 410.2 415.7 420.3 422.8 424.7 414.4 407.5 401.7 400.2 398.8 402.2 399.8 394.9 385.5 382.2 387.7 384.7 375.7 364 356.5 352.2 350.6 350.8 355.7 366.8 375.6 380.2 377.2 364.2 359.4 352.5 343.5 329 316.2 298.4 295.1 309.8 316.8 305.8 296.7 292.9 288.9 281 276.8 271.1 261.3 251.5 251.7 243.4 234.2 222.2 207.7 196.6 185.8 176.9 175.3 175.5 175.9 185.6 206.9 236.1 248.9 248 251.9 260.7 262.1 263.2 260.6 269.4 273.6 278.4 279.4 287.2 292.2 292.4 292.7 285.5 288.6 290 291.3 294.1 291.6 283.6 284.5 283.5 277.2 287.8 286.2 285.8 283.6 281.9 277.5 276.2 275 271.7 271.7
392.5 392.5 392 391.5 389.6 386.8 386.4 384.6 382.9 381.3 381.8 384 385.4 383.1 383.3 383.8 382.9 379.9 375 369.4 362.6 356.2 358.2 365.2 372.9 377.5 380 380.4 382.4 384.4 385.8 385.7 385.5 386.2 389.9 394.9 400.1 401.4 397.4 399.2 400.6 402.7 404.7 406.7 408.7 407.3 404.9 401.5 397.3 393.6 389.1 383.9 380.9 380.1 378.5 376.1 373.9 373.8 372.2 373.9 374.5 374.3 376.5 377.1 376.1 376.9 379.8 380.5 381 381.5 381 382.8 386.3 388.4 387.6 387.5 386.8 384.9 383.6 384.7 385.3 385.3 384.3 384.5 384.9 382.9 379.9 377.1 375.6 372.7 369.7 367.3 359.9 358.6 365 370.4 370.8 368.9 370.7 373 375.6 381.8 388.5 396 403.7 408.5 411.3 416.6 417.8 412.5 408.4 402.8 401.3 400.7 399.3 397.2 392.6 387.4 379.7 384.5 385.4 377.9 366.8 355.7 352.9 352.7 353.1 355 371.4 378.4 378.7 376.6 365 359.9 347.5 339.3 328.6 315.7 295.2 292.1 289.3 313.3 309.4 297.8 294 292.1 288.1 278.4 274.8 267.3 254.9 248 237.2 228.1 217.7 204.8 192.8 185.5 177.4 173.9 174.8 175.1 181.7 205 242 258.5 260.7 261.8 261.9 263.3 266.3 271.4 269.7 269.4 275.3 276.1 282.2 285.5 289.8 289.8 283.4 282 290.2 292.4 295.9 293.6 284.2 276 279.1 275.8 280.9 283.3 283.6 279.8 278.5 274.5 273.7 273.6 270.8 268
396.2 396.9 396.4 395.7 394.2 390.6 389 386.8 384 380.9 381.6 385.2 386.5 385.3 384.1 382.5 379.8 378 373.7 369.5 363.8 359.1 355.5 361.5 370.7 376.2 376 381.1 383.2 385.3 386.4 387.5 387.4 387.2 387.5 391.6 395.7 399.5 397.4 397.7 400.2 401.5 403.3 404.8 406.5 406.6 405.3 402.4 397.5 391.9 386.4 380.9 377.8 377.3 376.3 374.9 373 371.8 371.7 373.2 372.9 372.7 374.8 376.4 375.4 376.2 379.3 382.1 383.2 384.3 383.1 381.3 384.3 387.1 386.4 387.1 387.1 385.5 383.9 384.5 384.3 385 384.6 384 383.5 381.7 379.6 378.1 375 372.6 370.7 369.5 364.6 360.8 360.1 366.6 364.6 370.6 375.1 374.7 376.4 380.4 383.3 391.6 400.7 401.6 407.5 410.1 412.8 409.2 406.8 403.1 402 400.8 401.5 393.7 389.6 384.7 381 383.1 385.2 377.9 368.1 360.4 355.2 357.5 357.9 359.4 371.8 375.2 375.6 371.4 362.7 351.1 346.5 333.1 328.9 302.9 296.6 291.8 287.1 287.7 284.3 302.5 296.3 293.7 292 282 276 267.9 250 238.4 231.1 222.4 212.2 201.3 190 181.9 176.8 173.7 175.4 175.1 178 200.2 221 241 254.5 258.9 259.8 268.9 276.3 279 278.8 275.9 271.9 274.3 274.5 280.4 286.8 288.1 283.2 279.5 282.8 293.6 295 291.6 287.2 281 273.4 272.6 271.9 279.3 276.9 276.5 272.8 270.9 270.9 271.2 267.7 259.9
397.9 399.8 400.2 399.8 398.5 395.5 393.5 391.8 387.3 382.1 380.4 386.1 389.4 388.5 386.7 384.9 381.5 377.4 370.4 366.3 363.6 359.2 352.4 357.5 366.4 373.4 375.1 379.9 383.2 385.7 386.7 387.7 388.8 389.5 388.6 388.2 390.9 394.8 395.4 395 397.5 399.1 401.1 402.2 403.2 403.4 402.2 400.8 397.3 390.2 382.9 379.5 377.1 376.2 375.6 375.2 373.7 371.6 371.2 370.9 370.1 370.4 372.4 375.3 378.3 378.7 378.6 381.8 385.1 386.2 384.8 382.5 380.4 384.1 387 387.6 386.3 385.5 384.3 381.9 382.5 382.9 383.4 382.9 381.5 382 380 377.6 375.3 372.1 369.9 369.3 366.5 358.2 355.4 359.1 366.5 370.7 374 376.7 376.5 377.4 384 389.9 396.4 398.4 401.1 402.5 405.9 405.5 403.8 401.2 401.2 399.7 399.8 395.8 387.7 382.9 379.8 377.6 381.7 378.1 368.6 363.6 361.3 360.8 362.7 361.9 366.3 370.3 365.5 359.6 353.1 350.1 338.6 331.6 331.4 313.7 297.3 292.7 288.4 284.9 285.8 282.3 305.2 300.4 298.8 288.9 276.8 260.7 243.9 232.6 225 215.3 207.2 199.5 189.3 179.5 176.5 175.2 175 175.2 174.9 192 207.2 219.2 246.7 261.2 261.7 265.3 272.9 278.6 283.8 285.8 288.1 289.2 283.5 272.2 279.6 284.9 274.2 274.5 280.9 294 292.3 289.3 284 279.4 274.2 267.2 264.9 274.2 272.3 273.8 271.7 267.7 267.7 268.1 265.3 261.2
398.6 400.4 401.7 402 401.4 399.4 398.7 396.5 391.5 383.4 380.5 385.2 391.9 393.2 390.2 387.4 384.1 380.2 375.2 369.5 364.5 358.1 354 353.2 361.2 367.1 374.6 378.5 381.5 384.2 385.9 387.8 389.2 390.3 390.3 390.5 390.4 392 392.3 389.2 392.9 394.4 396.2 396.9 396.4 398.2 397.5 396.7 394 388.4 381.6 378.5 377.7 377.2 376.5 376.7 376.4 374.7 374.7 373.4 370.8 369.3 375.2 376.4 379.7 382.4 383.4 383.7 385.6 388.1 387 385.7 384 381 386.4 386.9 384.7 385.9 385.3 378.9 380.5 381 383 383.6 383.5 383.3 381.3 379.1 376.4 373.3 369.5 366.6 364.4 360 352.5 359.1 368.7 371.8 373.2 376.5 379.9 381.6 383.7 386.8 393 396.8 396.6 397.1 399.3 398.8 397.9 396.8 398.7 397.2 394.1 393.2 386.7 381.4 378.6 376.8 375.7 375.7 370 366 362.7 358.6 361.9 361.9 364.9 360.7 356.7 345.9 343.2 339.3 333.9 335.7 324.9 306.4 297.9 292.8 289 284.8 274 274 306.4 305.1 300.9 290.6 277.2 260.8 249.6 228.7 223.1 213.5 205.5 198.3 189.7 180.3 176 175.3 174.8 174.9 175 182.6 198.5 210.4 227.1 254.7 260 263 266.8 270.6 276.4 281.7 288.2 289.9 289.5 278.1 265.5 267.4 273.1 271.8 276.5 288.4 289 285.2 280.2 276.5 270.2 265.4 258.1 258.2 269 270.1 268.3 265.5 262.9 266.2 263 259.8
399.9 401.3 402.1 401.9 400.2 399 406.1 402 397.1 387 381.6 383.2 388.9 395.6 395.3 391.5 386.3 382.1 378 372.5 362.5 358.5 353.9 356.2 356 367.8 373.3 377 379.6 382.5 384.6 388.2 390.2 390.6 390.8 390.9 390.9 391.6 390.7 388 388.2 389.2 390.7 391.1 391.2 391.4 392.4 392.1 390.6 387.4 383.5 380.7 379.3 378.9 378.4 378.2 378.3 377.6 377 376 375.2 368.3 376.8 377.8 380.3 384.5 388.7 389.6 388.3 389.4 390.6 389.2 388.5 385.9 385.3 384.9 380.9 379.6 380.7 377.4 376.2 378.3 381 382.5 382.9 383.6 382.9 381.2 378.9 375.3 371.1 366.3 363.3 359.6 350.1 356.5 367.2 371 372 373.3 377.2 380.1 382.5 386.9 392.1 393.3 395.1 393.9 393.8 390.4 390.4 391.6 393.9 392.8 390 388.2 384.2 379.4 377.3 376.9 377.6 370.4 369.7 367.8 367 363.7 357.4 356.7 356.3 352.6 346.2 343.7 343.6 338.6 333.7 335.6 324.6 303.5 298.2 293.7 289 284 279 274 306.5 296.8 294.4 290.3 273.8 256.1 249 231.7 222.4 207.9 203.2 195.5 186.9 182.4 178.3 174.6 173.6 174.8 174.5 176.1 191.2 203.1 214.4 243.3 253.3 253.5 259.4 263.6 264.9 269.6 275.1 276.8 275.8 274.7 278.6 270.2 263.2 267 268 278.4 278.4 278.7 275.1 273.2 267 261.6 256.6 261.9 262.6 262.9 263.8 260.7 258.8 263.9 260.6 257.2
400.1 401.2 402.2 400.5 398.2 398.3 404.9 409.5 400.9 389.7 383.8 381.5 385.4 388.7 393.2 391.7 389.2 384.4 380.6 376.2 364.8 359.4 355.3 347.9 362 366.3 371.3 375.6 379.1 382.6 386.1 389.3 391.3 392 391 390.6 390.8 390.1 390.8 389 386.5 385.6 385.9 386.6 386.9 386.5 387.4 388.2 388.3 387 384.8 382.5 382.9 382.4 381.5 380.9 380.5 380.3 378.7 377.3 376.5 368.7 376.4 378.3 380.7 384.5 389.7 392.3 391.7 393.1 394.8 393.3 392.3 391 388.1 381.2 378.9 375.8 371.8 373.1 366.1 370.7 374.9 378 379.9 382.2 383 382 380 376.2 372 367.8 365 362.7 355.6 351 361.2 368.3 371.1 372 375 377.6 379.6 381.9 388.4 390.4 389.7 386.2 383.5 381.9 382 384 388.1 388 386.8 382.1 380.5 378.3 376.5 376 377.9 375.3 374 372.5 370.7 369.5 363.8 361.3 356.8 353.7 349.8 346.8 342.5 338.2 333.7 331.8 325.3 304 297.7 293.9 289.2 284.8 281.4 279.5 297.2 294.7 290.4 282.2 268.7 254.2 250.8 233.9 223.1 213.3 206.4 198.6 188.5 184.3 179.8 174.3 173.5 175 174.5 174.8 183.5 196.8 206.8 219 244.4 248.6 247.5 251 255.4 257.8 258.8 258.8 261.3 263.8 270 275.6 273.7 265.6 259.1 262.4 264.4 265 265.5 266.9 264.1 258.6 255.2 259.7 252.9 253.3 256 257.3 255.4 260.6 258.4 254.7
399.9 401 402.3 400.6 397.8 397.6 400.1 413.3 403.5 393.5 385.6 380.9 381.1 384.1 387.1 387.8 387.6 386.1 383.3 380.2 368.9 361 356.4 346.7 358.2 366.7 372.6 377.7 381.1 384.8 388.6 390.9 392.9 393.6 393 392.1 391 390.6 390.2 388.6 387 384.8 385.1 384.3 384.5 384.5 385.9 386.5 386.8 386.3 384.8 384.6 385.5 385.2 384.1 383.5 383 382.2 380.3 378.3 377 368.2 374.1 378.5 381.2 385 389.3 394.1 395.2 397.1 398.1 397.5 396.5 395.3 393.2 387.5 380.1 373.6 367.4 361.4 359.4 361.8 364.4 370.8 372.4 376.2 379 380.5 380.4 376.5 372.9 369.6 366 362.7 357 348.9 365.2 371.4 375 375.2 375.6 376.5 378.7 379.3 382.4 384.8 383.8 380.8 378.4 378.7 377.4 377.6 380.8 380.9 381.1 378.3 378.7 378 375.5 374.6 375.3 375.5 375.1 374.2 373.4 372.6 368.1 363.6 359.7 357 353.5 349.6 345.9 340.7 334.7 331.7 327.7 304.2 294.5 291.6 288.6 285.9 283.7 282.1 288 291.6 285.4 279.5 268.1 257.9 249.1 236 221.3 212 204.7 196.9 191.9 191.7 181.8 174.3 172.9 174.8 174.6 174.2 180 189.7 197 205.8 216.4 223.2 239 241.8 243.6 247.3 250.4 250.3 248.7 251.8 255.1 263.9 268.6 271.5 266.4 254.6 248.1 249.4 250.4 256 260 254.2 252.5 254 246.6 245.3 249.5 254.1 251.4 255.7 255.2 253
398.6 400.3 400.9 401.9 397.5 397.4 398.6 407.7 408.6 399.4 386.2 381.4 378.9 379.9 383 384.6 385 385 384.4 381.6 370.9 362.2 359.5 351.2 358.5 371.4 375.6 379.9 383.4 388 391.7 392.6 394.2 394.9 394.3 393.5 391.7 390.8 390.7 389.3 388.3 385.7 385.2 385.1 385.2 385.1 385.9 386.8 386.7 386.3 386.2 386 386.4 386.7 386.2 385.2 384.7 383.6 381.3 378.4 376.6 367 374.3 379.6 382.7 386.5 390.8 395 398.1 399.7 400.7 401 400.4 399.8 397.3 392.6 386.5 377.9 369.5 361.8 353 352.2 353.1 361.9 367.2 370.4 374.1 378.2 379.7 377.5 373.7 370.4 366.6 363.4 356 353.8 367 370.6 373.6 375.5 377.3 378.7 379.1 378.9 379.3 381.2 380.6 382 382.6 381.9 378.2 373.6 373.8 373.2 374.3 371.7 374 375.4 374.3 372.2 372 371.8 372.6 372.3 370.7 371.9 371.2 363.9 363 359.5 354.8 350.5 346.2 345.3 342.3 338 334.3 324.3 300.6 291 288 285.3 282 280 280.4 296.3 291.7 285.5 277.6 256.8 248.1 235.7 223.7 213.5 206.9 201.9 199.2 196.8 192.4 178.8 172.8 172.9 174.6 174.5 179.8 188.1 191 196.9 205.8 210.4 213.1 219.1 230.9 236 237.3 236.5 237.1 238.6 241.3 244.9 254 259.6 259.1 256.1 249.3 234.9 234.7 241.1 247.2 249.5 244.9 242.8 233.9 242.2 242.7 245.7 248.1 249 248.8 248.2
397.5 398.3 398.3 398 397.5 396.4 397.6 402.6 408 398.7 387.8 381.7 378.1 377.8 379.9 382 382.3 382.3 381.4 381.4 374.4 363 358.2 350 357.3 376.1 380.5 381.8 386.9 392.6 395.2 394.5 395.5 396.1 395.4 394.6 393.4 392.2 391 390.9 389.9 387.1 386 385.8 385.7 386.8 387.3 387.2 387 386.5 386.5 386.8 387.1 387.3 387.1 386.6 386.3 385 383 379.8 375.8 366.7 374 381.6 384.4 388 392.2 396.7 399.9 401.4 401.1 402 401.7 401.4 399.5 395.4 389.2 382.8 375.2 368.8 359.7 346.4 349.7 356.1 361 365.8 369.7 374.3 377.8 377.7 374.8 370.2 365.4 362.1 351.7 355.4 365.1 369.8 374 377.8 380.7 382.8 382.1 381.9 383 384.5 385.7 388.3 391.4 389.4 384.1 379 374.9 372.8 367 365.4 365.1 369.7 371.1 370.2 368.4 367.7 368.7 368.8 366.7 369.2 366.4 363.3 359.7 359.5 355.9 351.9 349.6 347.7 346.6 343.7 336.4 336.4 333.9 291.6 287.8 287.8 281.4 279.7 279.3 298.1 289.3 286.6 280.3 259.1 246.8 236 227.3 219.8 213.2 207 206 202.9 199.4 193.3 180.6 175.9 172.7 172.8 178.7 187.6 191.2 190.9 196.9 202.3 205.8 210.9 219.7 230.9 233 232.3 229.9 229.2 228.9 231.2 230.3 234.3 242.7 244.2 241.6 235.8 225.8 224.7 227.3 228.6 228.5 226.9 222.6 238.2 239.8 240.8 240.7 241.3 241.3 242
398.3 400.2 400 399.1 396.9 395.4 395.1 398 400.5 398.6 389.4 381.6 378 375.9 377.3 380.2 380.7 380.4 380.4 380.5 376.9 365.7 360.7 343.8 364.9 379.6 381.8 382.6 387.7 394.2 397 396.7 396.2 397 396.1 395.2 393.9 393.2 392.6 392.4 391.7 389.4 387.1 386.8 386.5 387.1 387.7 387.6 387.5 387.8 387.6 387.1 387 387.2 387.2 387.6 387.8 386.3 384.5 381.1 377.2 366.9 371 379.5 383.3 388.2 391.4 395.4 399.7 401.5 402.3 402.1 405 406.5 402.4 396.5 390.2 383.8 376.6 370.6 364.8 349.5 340.9 349 353.5 360.6 364.2 369.5 375.3 376.2 374.7 371.1 365.5 359.9 348.3 346.8 363.2 370.4 374.4 378.3 381.1 385 386.6 386.9 389.4 392 393.7 394.5 394.7 394 391.5 389.1 386.9 383 373.9 367.4 360.6 361.2 364.7 366.3 363 362.9 364.5 364 363.9 368.7 368.9 361.7 355.9 358.2 357 351.9 350.6 349 349.2 347.3 341.1 335.5 332.4 292.2 289.4 294.5 303.3 282.5 278.9 294 290.9 287.1 279 258.7 249.3 237 232.5 225.3 218.7 214.3 212.3 213.5 209.8 200.6 194.2 183.3 176.2 174 176 183.5 189.5 190.8 192.1 195.5 197.7 205.1 213.4 221.6 228.2 226.8 224.7 222.4 221.4 221.3 219.6 217.1 216.9 218.3 220.8 225.7 224 216.8 214.4 215.2 217.4 218.2 217.6 229.8 234.7 232.9 233.9 236.4 234 237.3
398.1 401.6 402.4 402.9 401.6 397.9 397.2 398 398.8 398 390.5 381.3 377.8 374.3 376.3 378.1 380.3 379.6 379.6 379.7 379.6 369.7 362.8 342.9 365.1 378.9 381.1 382.8 385.7 393.6 398 397.2 396.6 397.6 396.7 395.7 395 394.5 394.1 393.9 393.5 391.3 388.6 386.7 386.6 386.8 387.6 388.2 388.8 389.3 389.3 388.2 387.3 387.1 387.2 387.6 387.9 386.9 385.2 381.5 378 369 367.5 376.1 380.6 385.3 388 390.7 396.1 399.9 399.6 399.6 400.6 404.8 401.9 394.6 389 383.2 377.8 369.2 360 351.3 340.2 336.6 348.5 353.5 359.6 365 370.3 372 372.1 371.2 365.8 359 350.9 340.7 358.1 367.4 373.6 378.2 384.1 388.8 390.8 391.1 391.6 394.2 396.6 396.3 396.6 395.8 395.4 391.6 388.5 384.5 377.7 372.9 366.7 360.2 359 360.3 359.2 356 360.2 359.2 360.3 366.8 369.3 368 358.8 355.4 354.2 351 350.2 349.7 349.9 348.5 342.8 337.7 333.4 294.7 312.1 310.9 305.1 298.7 280.3 280.7 292.6 286.4 274.5 259.1 249.8 239.5 234.6 229.3 224.1 220.9 218.9 220 219.6 211.3 204.9 195.8 187.4 178.7 172 172.8 178.2 183.2 185.1 191 192.6 195.1 203.4 212.2 221.6 223.4 220.6 218.5 215.7 215.9 217 212.5 209.6 209.3 207.9 206.2 209.7 210.4 207.1 203.4 201.5 202.3 208.3 210.9 221.1 218.9 229.5 230.6 227.6 229.4
398.7 400.6 402.4 404 405.7 400.8 398 398.3 399.8 400.4 392.8 382.2 377.6 373.2 375.6 376.5 379.5 378.6 378.9 378.8 376.7 370.7 363.2 349.3 354.7 377.1 379.5 381.9 382.9 390.4 394.5 395.4 396.6 397.7 397.4 397.5 396.1 395.3 394.2 393.6 393.2 391.3 389.1 386.7 385.8 385.7 387.8 389.5 390.8 391.4 391.5 390.9 388.5 387.2 386.8 386.3 386.7 386.8 384.7 380.5 376.8 369 366.9 375 377.9 381.1 382.3 382.6 386 390.2 392.1 392 394.6 397.4 399 390.9 384.3 380.1 375.3 367.3 354.7 346.4 337.3 331.2 343 347.1 354.6 359.3 364.3 366.6 368.4 369.1 364.9 359.2 352.9 338.7 358.3 368.4 374.3 381.1 387.6 392.5 394.4 394.2 394.1 397.4 399 397.7 397.6 396.6 396.1 393.5 389.6 384.9 378.8 373.9 370.5 363.8 357.9 356 355.9 351.6 354.4 354.7 357.9 364 366.6 366.5 363.5 351.5 352.3 350.2 350.3 350.3 350.1 348.6 344 339.1 332.2 327.2 323.9 318.7 305.1 304.5 295.9 278.3 296.6 285.3 270.4 260 253.5 242.2 236.5 231.9 227.8 226.2 225.1 223.9 221.2 217.4 211.1 205.3 200.9 195.2 188.8 181.6 176.1 171.4 172 176 179.4 189.6 194.7 204.1 211.6 213.6 212.2 210 209.8 209.6 210.2 208.4 205.4 204.9 203.5 202.6 201.1 201.3 200.4 199.6 198.3 197.6 198.4 200.5 200.8 203.9 221.6 222.3 223.6 226.5
399.6 400.9 402.3 403.1 404.9 404.4 399.2 399.1 400.4 402.9 401.9 386.2 378.7 373.3 373.6 375.9 376.4 377.8 379.3 379.4 376.7 375.6 363.8 350.2 348.2 375.2 377.8 380.5 381 387.9 390.9 394.7 396.9 398 398 397.5 396.8 395.4 394.3 393 392.7 391.2 389 386.3 384.8 383.9 387 389.5 391.8 392.6 392.7 391.8 389.8 387.8 386.4 385.8 385.2 385.2 383.5 379.1 374.9 367 363.2 373.4 376.9 378.2 379.2 379.3 379.3 382.7 385.9 385.8 386.9 388.2 389.2 385.4 378.2 372.7 370.2 362.3 351.6 340.2 333 330.2 333.8 340.1 344.4 349.1 353.2 357 360.1 362.8 364.4 358.3 349.7 337.5 361.6 371.2 376.1 384.1 392 396.9 398.9 398.7 397 401 403.1 400.1 399.1 397.1 395.4 393 388.5 382.6 379.6 375.2 370.6 365.6 359.6 356.1 353.2 350.1 347.1 350 354.2 361.1 362.4 363.8 361 357.8 345.9 349 348.9 352.6 351.3 348.3 345.1 339.6 335.7 329.3 324.4 320.3 315.3 301.3 277.2 277.7 293.5 295.3 273.2 260.6 254.6 247.6 240.5 233.8 229.6 227.1 226.3 225.2 223.7 221 217.1 212.1 207.3 205.7 205.3 204.7 203.5 195.6 186.5 178.4 174.5 171.1 180.3 194.7 206.5 208 207 205.7 204.2 205.1 205.2 201.6 200.7 199.9 201.2 201 199.2 197.5 196.9 197.1 196.5 194.8 193.4 196.7 199 197.9 198.6 205.1 214.6 222.3
400.8 402.5 402.4 403.7 404.5 406.5 405.5 400.9 400.8 403 402.5 389.1 377.5 374.5 372.4 374.1 376.4 378.3 379.3 380 377.7 375.7 365.7 347.7 347.9 374.8 375.5 377.4 379.2 381.7 386.3 391.6 394.2 397 397.4 397.2 397 395.7 394.5 393.2 392 391.1 389.1 386.5 382.9 381.4 384.7 387.9 391 392.6 393 391.3 389.4 387.4 385.9 385.3 384.5 383.4 381.4 377.6 373.1 369.2 357.8 370.2 374.1 375.3 376.5 376.1 376 376.1 376.6 380.9 379.1 375.2 371.6 372.7 368.8 363.6 356.8 351.5 340.2 334.9 329.6 327.3 328.4 334.3 334.4 336 340.1 341.8 346.4 351 354.6 353.3 343.3 347 361.2 370.5 375.2 386.7 392.4 399.9 402.6 405 405.5 406 407.4 403.9 400.5 399.4 395.7 391.6 387.4 382 378.8 374.7 368.3 364.8 362.2 357.4 354.8 353.6 345.9 345.1 349.3 359.4 361.1 361.7 358.1 356.5 349.2 346.2 345.4 349.3 348.9 348.2 344.9 341.5 336.7 330.8 324 319.4 315.2 307.2 282.1 278.4 284.5 294.3 283 266.6 255.8 249.2 240.7 233.8 229.9 226.2 223.9 223.4 221.6 221.7 218.8 214.6 208.3 206.4 204.4 204.1 203.4 201.7 198.4 195.6 188.3 177.8 170.8 175.4 195.8 202.7 204.2 202.1 201.2 201.4 201.9 199.1 197.5 197.9 197.1 196.8 195.6 195 194.2 193.9 193.7 193.4 192.6 194.5 195.5 196.1 196.8 198 201.9 210.8
402 403.6 404.4 403.6 404.2 405.5 408.3 402.6 400 402.6 402.2 396.9 375.8 375 371.6 372 373.8 377.1 379.2 378.7 378.8 377.4 373.8 349.5 342 374.3 374.3 375.5 377.2 378.8 381.5 388.4 393.1 394.2 395.5 396.9 396.8 396 395.1 392.7 391.1 391 389.8 387.2 381.9 378.6 380.2 385.4 388.9 391.5 391.1 389.9 387.9 386.6 385.4 384.4 383.7 383.2 381.1 377.8 371.4 367.6 356 366.5 369 370.8 372.9 372.6 372.1 373.1 369.8 371.6 373.7 368.4 360.6 359.9 357.2 351.8 345.5 346.1 338.4 335.3 332 326.4 323.6 324.5 326 327.8 329.5 332.3 335.5 339.1 338.4 340.6 334.1 337.5 357.3 365.5 372.5 382 389.2 397.1 405.3 406.7 408.7 406.4 408.8 408.2 403.6 402.7 397.6 392.5 386 381.2 377.7 374 368.2 362.8 359.6 356.6 351.9 349.3 345.9 342 345.8 351 359.7 358.4 356 354.2 352 343.2 339.9 344.3 346.6 345.8 342.6 338.9 335.3 330.6 324.4 318.7 317.1 309.3 281.5 274.7 282.9 278.6 279.2 269.5 259.5 249.5 243.1 235.1 232 226.4 222.5 221.7 218.8 219.5 217 215.2 210.6 206.8 203.5 201.1 202 201.5 198.9 195.7 192.1 189.2 176.7 170.8 182.7 194.3 197.2 195.7 197.6 199 202 199.2 195.6 194.8 193.3 193.7 193 193.1 192.8 192.5 192 191.6 192.3 194.1 194.4 195.1 196.3 197.9 201 215
402.3 403.8 405 405.6 405.3 404.5 408.2 405.5 398.4 399.8 402 397.5 380.4 369 370.4 370.3 370.5 374.5 379 376.4 378.1 377.8 376 346.1 335.4 374.1 373.8 373.6 375.9 376.1 378.1 385.9 390.6 392.7 394.2 395.5 396.3 395.8 394.7 392.1 390.8 390.4 391 388 381.5 375.9 374.9 379.2 386 389 388.6 387.9 386 385 384.3 383.2 382.9 382.4 381.4 378.2 371.2 363.3 352.8 359.1 364.1 366.4 369 370.4 369.4 368.9 367.1 361 359.7 361 358.6 352.9 349.2 343.3 340 340.3 341.9 337.7 332.6 326.6 322.1 319.5 318.8 319.8 320.8 320.7 317.5 327.4 329.2 329.9 321.2 338.3 353.9 362 368.5 377.2 384.4 392 398.7 401.6 403.1 401.8 405.1 408.5 405.3 404.9 399.2 393 387.5 381.1 375.1 373.3 367.4 359.7 356.3 355.2 352.4 346.7 344.7 340.4 341.4 343.7 347.8 355.1 354 351.7 350.5 343.1 332.3 336.7 343 342.8 339.5 337.9 334.3 329.6 324.4 317.5 315.1 307.6 300.2 272.1 292 275.5 272.3 266.9 259.8 252.2 246.5 237 229.4 223.9 219.8 218.6 216.8 216.3 213.5 212.1 207.8 207.5 204.6 201.1 199.6 198.8 197.2 195.7 192.8 190.9 184.2 173.7 172 188.4 192.7 193.4 192.4 194.1 200.3 201.8 195.8 193 191.9 191.8 190.8 191.6 191.4 191 190.2 190.5 191.8 193.5 194 194.9 195.7 197.2 202.8 212.3
402.6 403.2 403.3 403.6 406.4 405.5 405.3 405.6 396.5 395.9 399.9 397.5 386.5 369.3 368.5 369.5 368.1 369.2 373.7 376.1 375.3 376.8 375.1 367.1 332.7 372.9 373.3 373.1 373.7 374.4 375.9 382 388.2 390.1 392.2 394.4 395.1 394.6 393.7 391.9 390.4 390.3 390.4 391 382.8 373.2 371.2 372.8 381.2 385.4 385.4 385.2 384.7 383.7 383 382.4 381.9 381.4 380.6 377.7 372 361.7 355.6 350.3 357 361.7 362.4 366.6 367.1 363.7 362.4 356.6 352.3 353.7 355.3 350.5 345.3 341 343.6 343 339.5 337.4 333 328.1 324.4 321.9 318.3 315.3 313.5 310.7 310.8 317.3 320 318.2 323.5 337.3 349 357 364 370.6 378.1 385.1 389.7 389.7 392.6 392.6 394.9 403.2 404.1 402.1 397.7 390.2 387.2 384.3 373.4 371.3 365.5 358.9 355.6 353.8 353.4 347 343.7 344.1 337.7 338.8 339.8 340.8 347.5 346.3 339.5 336.7 332.7 327.4 338.8 337.5 335.2 333.5 331.3 326.8 321.3 310.4 310.2 304.9 295.2 274.1 271.1 287.3 272.5 265.3 257.3 250.3 244.6 233.8 228 222.7 218.8 215.6 214.3 211.1 209 208.9 205.3 203.1 200.7 199.6 197.7 198 195.8 193.4 192.1 191.8 189.8 177.6 170.6 177.8 189.9 190.7 190.3 189.8 192.6 198.8 196.5 191.3 188.6 188.1 187.8 188.4 188.2 189.8 190 189.3 190.3 192.5 193.8 194.1 195 198.7 206 208.1
400.1 401.4 401.4 401.9 402.8 404.8 404.3 403.9 396.1 392 395.5 395.3 387.8 370 367.5 367.5 366.7 365.7 366.3 373.8 374.4 373.4 375.5 372.8 337.4 358.7 373.3 373 372.3 373.2 374.9 378.1 385.1 386.8 389.4 391.5 392.9 392.7 391.7 390.3 389.4 388.2 390.2 391.1 384.8 371 368.5 369.8 372.4 380.5 381.4 383.2 383.5 382.6 382.3 382 381.5 380.6 379.2 377 372.9 363 354.9 342.3 352.4 355.8 357.7 360.3 361.1 361.1 359.1 357.4 350.8 349.4 354.1 348.4 344.7 341 341.5 341.9 338.9 336.8 332.8 332.3 328.3 322.8 319.2 317 314.1 311.6 311.5 313.5 317.8 322.2 330.8 339.6 347.3 355 362 368.8 373.8 379.7 383 382.4 381.2 384 386.6 392.3 396.6 395.4 392.6 386.5 385 383.4 370.8 368.6 364.4 358.2 354.9 351 352.7 346.6 342 342.8 339.3 334.1 335.7 336.2 338.6 338.6 335.9 332.7 331.3 322.5 327.1 332.8 331.7 327.9 325.2 322.8 319.2 313.3 300.6 292.5 294.4 294.2 270.1 272 272.4 265.1 260.3 255.8 248.5 241.1 235.9 225.4 216.3 212.7 210.3 206.9 205.5 204.6 201.7 200 197.7 196.4 195.7 195.1 195.9 193.8 192.4 190.8 190 186.5 171.5 173 175.7 189 189.7 188.4 188.4 189.5 189.5 187.4 186.6 185.7 184.9 185.4 185.2 186.4 187.5 190.7 190.5 191.7 191.9 192.3 194.4 198.9 207.8 203.2
393.9 399.2 399.5 400 400.6 401 401.2 401.6 397.5 389.4 391 391.3 383.1 371 365.8 365.6 364.9 364.3 364 365.6 368.1 373 373.6 376.1 352.9 332 365.2 371.4 371 372.1 374.2 375.8 381.6 383.8 386.5 389 390.5 390.6 390 388.8 388.4 388.7 390.5 392.1 385.5 371.7 366 366.1 368.2 371.1 379.1 381 382 382 381.8 381.6 381.2 380.7 379.6 378.2 374.9 367.5 357.5 342.1 349.8 349.8 354.1 355.1 356.5 358.2 355.6 354.4 353.8 343.8 349.1 348.1 341.6 340.5 339.7 339.5 337.3 335.5 335 333.5 329.4 326.2 320.6 316.8 312.5 309.4 310.5 315.8 321.5 328.1 332.7 344.8 353.1 358.9 364.3 369.9 374.9 379.8 381.6 382.3 381 378.8 378.5 379.2 382.1 381.1 380.9 378.2 375.5 372.2 363 360.4 357.7 357.4 351.5 343.9 340.1 340 340.1 336 335.5 332.4 331.9 332.8 334.4 335.7 333.6 333 328.7 324.1 316.5 321.7 321.7 320.4 317.4 317.3 311.5 307.8 299.1 287.8 290.8 291.4 269.9 287.5 269.7 261.4 262.2 221.1 221 236.4 241.1 234 217.9 213 208.9 205 203.6 200.5 199.4 197.6 196 194.3 195.1 194.3 194.1 193 192.4 192.5 191.5 189.7 180.5 170.4 173.4 173.6 185.7 188.4 185.8 187.2 187 187.2 186.3 184.4 181.9 183 184.3 184.4 184.8 187.3 189.9 190.6 190.1 191.3 193.6 197 204.4 201.1
389.6 396.9 397.6 398.3 398.6 399 398.7 399.1 398.1 388.2 384.6 386.2 380.3 370.3 365.1 364.4 363.7 363.1 362.8 363.2 364.7 367.9 373.2 373.2 362.7 331.5 347.1 365.1 369.4 371.8 373.1 373.8 378 380.8 384.2 386.3 387.8 388.7 387.9 387.2 386.4 387.9 389.9 390 387.5 374 363.7 364 364.6 366.7 370.6 379.2 380.6 380.7 380.8 381.1 381.2 381.2 379.3 377.2 374.6 373 362.5 342.4 337.7 346.2 349.6 353.6 354 354.6 351.7 350.8 351.3 347.4 338.8 344.7 339.2 341.8 338.6 337.7 335.6 334.3 332.9 332.4 330.1 326.9 321.4 311.5 308.5 306.8 310.6 320.9 327.1 336.9 343.1 348.8 350.3 362.1 369.7 377.4 381.1 387 390.5 385.1 380 376.8 374.4 373.1 372.6 371.3 369.4 368 366.7 361.9 352.9 353 348.9 337.8 332.9 331.3 328.3 329.8 333.2 332.4 330.4 330.1 329.2 330.1 335.6 348.1 346 345.7 338.4 331.2 324.9 318.9 313.2 309.2 308.2 309.5 307.9 304.7 298.4 282.9 279 280.7 280.5 273.4 264.7 260.3 227 220 219.6 220.5 241.5 233.8 224.7 212.1 207.8 205 202.6 199.5 198.6 196.2 196 193.5 193.4 193.2 192.9 192.6 191.3 191.9 191.9 190.5 189 178 170.4 172.8 172.8 181.9 181.4 183.6 186.8 185.9 183.5 183 179.7 182.9 183.4 183.8 184 183.9 186.7 188.4 188.7 190.2 194.9 195.6 195.7 198.1
388.1 390 395.5 396.6 396.6 396.8 396.7 396.5 396 388.4 382.4 378.6 375 372.1 364.7 363.4 363 362.5 362.1 362.7 363.8 366.5 372.9 369 369.2 354.7 326.5 349.5 368.1 370.8 372.7 372.4 374.6 378.7 381.3 384.2 385.3 385.4 385.3 385.5 385 386.9 387.8 388 385.6 377.3 362.7 362.3 363.2 363.5 366.1 375 377.3 378.2 379.1 380.8 380.4 378.2 376.5 374.7 371.4 369.9 364.8 350.3 336.5 343 346.4 351 350.9 352.3 350 347.1 346.2 343.2 339.1 331.6 337.9 335.8 334.8 333.1 333.6 332.7 333.1 332.8 331.3 325.8 316.9 312.1 306.3 307 313.2 325.4 334.5 340.2 347 352.1 360.2 362.4 372.7 382.5 387.7 393.1 391.8 388.4 383.8 377.7 374 371.4 370.1 368.2 364.5 363.2 361.2 357.2 353.2 355.4 355.3 345.7 333.6 328.5 327.5 326.6 327.8 327.6 326.8 327.6 327.8 328.6 339.3 355.1 353.2 348.3 341.7 335.3 330.6 326.1 324.4 321.2 312 302.1 300.9 295.4 285 276.1 267.8 265.3 264.4 259.6 258 253.5 234 220.9 219.7 219.2 240.4 231.7 227.1 212 210.8 206.8 202.5 199.5 195.5 194.5 193.9 192.4 191.5 190.8 191.3 192.6 190.6 189.6 189.5 190.7 190.3 189.5 182.4 172 170 173.2 175.4 177.2 179.8 178.5 179.3 177.9 176.8 182.9 183.2 182.1 182.1 182.2 183.8 185.3 187.4 190 196.5 193.9 193.1 196
385.2 388.1 389 394.8 395.3 395.2 395.7 395.6 394.3 388.1 380.3 378 371.2 367 365.3 363.6 362.5 362 361.9 363.2 364.4 366.3 366 367.4 365.7 358.2 326.5 331.6 368.4 371.6 372.2 371.9 373.7 377.3 379.8 382.1 384.5 381.8 382.4 381.7 383.1 385.3 386.4 385.3 384.3 379.2 362.9 361.4 362.8 361.9 362.7 368 373.7 374.8 376.8 378 377.6 374 371.8 370.8 366.1 364.7 361.4 359 341.4 333.2 337.4 343.6 347.7 349.2 348 344.8 340.4 338.1 337.4 331.2 330.2 325.7 323.2 328.3 329.7 329.2 331.4 330.6 327.4 319.6 313.9 311.4 301.9 306.2 319.6 328.4 337.2 344.5 350.1 357 363.7 370.7 374.9 384.3 389.7 391.2 389.7 386.9 384.1 381 377.6 375.5 372.5 370 366.7 363.3 363 361.5 359 355.1 350 343.7 341.4 336.2 331.8 327.6 327.2 325.5 326 325.9 326.3 326.5 338.7 350.5 351.9 350.2 347.2 339.2 335.9 329.1 323.3 324.4 316.5 309.9 301.5 289.3 275.6 270.8 264.7 258.6 253.1 248.3 251 248.1 247.7 247.9 217.9 219.4 237.4 230 224.1 215.7 209.4 208.8 207.4 201.5 196.4 195.2 194 191.8 191.3 189.5 189.6 191.1 189.8 189.5 190 190.1 192.8 189.9 189.1 185.4 174.3 169.8 173.5 172.2 167.9 166.5 170.7 170.7 173.2 179.9 180.6 180.4 180.3 180.8 182.1 184.1 185 189 192.5 193.4 192.6 195.8
380.2 385.1 386.7 390.2 392.4 394.3 395.4 395.4 395.1 389.6 380.4 375.1 371.1 366.4 365.6 363.6 363 361.7 361.6 363.4 365.3 365.3 365.4 365.2 366.1 365.5 328.3 327.4 368.7 372.8 372.2 371.4 372.7 373.5 378.2 380.7 381.7 380 380.1 379.8 381 382.9 384.4 381.9 380.5 379.3 366.2 362.6 362.7 362.3 359.8 363.5 368.3 371.9 373.5 378 376.5 372.7 369.1 369.1 370.9 371.2 365.1 359 346.4 336.4 329.9 340.3 342.3 345.4 343.9 343.5 338 334.7 332.1 328.1 324.1 323.1 321.3 322.5 325.3 326.1 326 325.4 325.9 320.2 314.8 308.9 301.1 310.8 324.2 331.1 337.2 347.5 353.4 360.8 367.2 374.3 382 389 391.2 390 388.3 386.4 385 382.2 379 376 373.9 369.9 367.8 367 366.5 363.9 361 353.7 355.1 353.2 349.2 341.8 334.6 331.4 330.2 326.8 330.7 329.5 322.5 328.8 336.2 348.9 351 348.8 346.4 341.6 339.5 331 323.9 321.1 318.2 311.2 307.6 300.3 291.7 274.5 266.3 259.3 256.7 249.7 248.4 245 241.2 237.4 231 218.9 230.5 226.3 221.4 217 210.4 207.9 206.9 204.2 201.2 197 195.2 192.2 190.6 188.7 187.8 188.3 189.1 189.8 189.6 189.7 189.4 189.6 189.1 187.6 186 173.3 169.2 169.9 181.1 178.3 174.4 165.3 167.1 169.7 174.9 181.1 180.1 178.1 180.8 182.9 184.1 188.1 190.7 192.7 192.5 195
370.1 377.5 381.3 386 386.3 387 394.5 395.3 395.6 394 381.8 375.2 370.9 366.1 365.8 363.4 364 364.5 361.5 363.5 367.4 367.3 366.4 366 368 363.4 354.9 323.2 365.1 372.8 371.8 370.9 371.6 371.6 376.9 379 379.6 378.6 377.6 378.1 379.3 381 381.7 380.2 377.4 375.6 372.5 365.9 364.2 362 359.2 359.4 362.7 363.7 369.1 376.1 374.4 368.6 369.6 372.4 372.8 371.7 369.3 365 355.5 339.7 326.9 327.4 336.1 341.2 341.3 340.1 336.4 332.1 329.7 326.8 325 324.9 322.6 320.8 321.1 321.7 321.9 320.7 320.7 319.4 314.6 295.5 302.6 314.7 322.5 331.2 339.7 348.5 354.4 360.8 367.5 376 390.8 393.1 392 389.2 386.3 384.6 384.9 384 379 375.4 372.5 370.5 368.3 368.7 367.6 365.8 362 362.2 361.5 357.7 352.5 345.6 338 337.6 333.5 330.2 330.1 328.9 321 324.8 335.8 340.5 344.2 345.9 339 342.1 341.4 332.2 326.2 320.4 319 308.9 305.8 298.3 285.7 277.1 269.3 258.5 257 257.1 256.6 236.7 234.7 230.9 226.6 218.6 219.2 224.3 219.1 214.6 210.3 210.5 205.7 203.6 202.4 198.2 196.5 194.5 190.9 188 186.7 185.9 186.5 189.7 189.6 189.2 189.3 189 189.3 188.7 186.2 186.3 182.1 184 183.9 179.6 176.1 173.3 164.5 168.2 168.5 172.9 177.5 175.1 178.1 181.2 184.7 186.6 191.3 191.2 190.9 191.9
370.8 374.9 380.3 381.5 382.3 386.3 392 394.7 395.7 394.5 383.8 375.2 370.6 366 366.8 364.1 364.1 366.3 359.2 365.9 369.4 369.5 370.4 368.7 368.7 368.1 364.4 342.6 354.6 366.7 370.5 370 369 370.6 375 377.7 378.5 377.4 375.9 376.3 377.3 378.6 379.2 377.8 375 373.5 372.5 367.6 365.2 360.1 357.5 356.9 360 362.3 364.6 369.7 369.3 367 371.6 371.3 369.3 366.3 363.5 363 360.7 351 338.3 330.6 323 333.7 336.1 335.8 332.7 326.3 322.9 323.8 324 327.4 324.3 319.1 316.1 317 317.1 317.5 317.9 316.4 304.5 293.2 306.7 317 323.7 330.5 337.8 348.3 355.5 363.5 371 384.4 393.3 393.8 390.7 386.6 384.2 383.4 383.8 385.3 379.8 377 376.5 372 369.5 367.6 366.1 365.4 366.3 365.6 364 358.5 353.8 348.1 344.5 343 339 334.3 329.8 326.1 321 320 329.4 334.8 337.8 344.2 338.8 338.7 338 334.6 327.5 317.7 311 307.3 301 288.9 279.8 274.4 270.4 257.2 256.7 264.6 245.1 235.3 225.1 221 217.7 218 225.3 223.8 222.2 217.8 213 210.1 209.4 207.1 204.9 202.9 198.9 196 194.1 193.2 190.4 188.7 186.8 189.6 188.4 188.8 189.1 188.6 189.3 188.1 186.7 185.3 185.5 184.7 182.1 179.7 181.8 180.3 176 164.7 168.4 168.8 170.2 174.3 176 178 182.4 183.2 186.3 187.6 188.4 191.6
361.6 367.9 374.3 376.3 379.9 383.1 388 391.3 392.3 392.4 386.7 375.2 372 366.2 363.9 363.3 359.1 359.9 360.8 366.7 369 368.3 371.8 367.6 369.6 367.7 363.5 359.7 319.9 339.3 361.7 368.5 368.1 370.9 373.5 377 377.7 376.3 374.6 374.9 376.1 376.9 377.2 376 373.6 372.7 373.1 371 366 361.1 357.8 358.6 360.3 361.6 362.3 362.6 364.2 367.8 370.8 368.6 365 360.6 357.7 354 352.4 350.6 338.3 331.7 326.7 321.2 321 322.5 322.2 313.3 307 317.1 318.9 324.9 324.1 319.3 311.1 312.5 311.1 312.5 312.4 309.5 290.9 295.2 312.2 319.2 326 331.9 337.2 345.5 354.1 363.4 369.8 382.4 392.5 391.3 388.4 384.3 383.3 383.2 382.8 381.6 380.8 380.8 378.8 376 373.7 371.9 370.9 370.8 370.8 370.4 367.6 364.3 358.5 353.2 351.5 347.2 342.7 336.2 333.6 321.5 318 317.2 324.4 328.2 330 330.8 329.1 328.9 327.9 326.2 318 307.6 300.4 295.4 286.5 272.2 264.9 261.3 262.8 256.4 259.2 266.3 265.4 271.3 259.4 217.5 217.6 218.2 219.5 219.8 225.3 223.5 219.8 214.9 210 207.7 207.6 204.5 203.1 200.9 198.6 196.4 195.7 193.9 189.8 190.3 187.4 187.3 188.9 188.3 187.7 186.5 185.3 185 185 184.7 184.4 183.1 182.5 181.2 176.4 163.6 167.2 168.3 168.3 170.7 174 175.3 177.7 179.1 182.4 185.9 190.3 193.4
353.2 360 366.6 368.6 375.2 380.3 385.4 386.8 390 392.1 390.9 375.9 372.6 369.4 363.6 359.1 356.1 354.7 361.6 367.9 369.3 370.1 370.2 372.1 367.8 367.7 367.1 355.4 332.5 311.4 342.7 363.3 367.7 369.8 372.7 375.7 376.8 376 374.3 374.5 375.2 375.6 375.7 375.1 373.6 372.1 371.9 371.7 365.4 359.1 358.1 358.8 361.2 361.3 361.9 363.4 362.5 365 367.4 365.4 362.3 358.8 355.3 352.1 348.2 346.6 343 333.7 330.4 327.9 325.4 320.6 312.8 312.9 294.1 301.5 306.5 315.3 315.7 313.9 307.3 306.7 304.1 306.2 306.2 301.5 277.5 293 310.6 321 325 331.2 336.5 343.1 350.6 356.9 366.9 380.2 388.4 387.7 384.9 382.7 382.9 382.9 384 384 383.1 381.6 379.5 377.2 375.5 374.8 373.8 374.7 376.5 375.6 374 372 364.6 361.1 358.3 353.3 347.8 341.8 331.5 333.5 329.4 314.1 313.3 317 317.8 316.8 314.4 314.7 310.9 305.7 300.1 294.4 288.3 278.1 274.2 264.3 257.3 253.3 251.2 250.9 254.4 263.6 259.8 261.1 247.6 232.7 225.4 221.2 216.8 217.4 222.3 230 226.1 220.7 214.2 209.6 207 205.3 204.2 201.7 201.1 198.4 196.9 195.2 193.3 192.2 189.1 188.5 188.8 188.5 187.1 186.5 185.1 185.4 186.1 185.7 187 186.3 182.9 181.2 176.2 171 163 166.9 167.3 169.5 171.9 174.4 175.6 177.8 182.3 185.6 191.3 195.8
348.4 351.9 358.4 363.9 374 379.3 383.3 386.1 384.8 388.2 388.2 385.3 373.2 371.6 365.6 359 354.4 352.1 358 367.6 369.9 371.1 370.9 370.8 372.5 364.9 360.8 357.2 349.5 323.5 320.7 351.3 366.3 368.6 370.6 374.6 376 374.9 373.9 374.2 374.7 374.5 375.6 375.5 374.5 372.6 371.8 371.7 365.4 361 358.9 358.2 360.2 360.6 361.3 363 362.3 360.6 362.5 361.7 360.1 356.7 354.3 352 347.9 344.3 340.3 335.7 331.7 332.7 328.3 322 320.7 317.7 311.6 301.7 297 299.5 302.2 303.1 301.2 299.5 298.5 297.5 298.4 287 282.9 290.1 304.7 313.4 322.2 330 335.9 343.8 353 361.9 369.9 382.1 386 384.8 382.8 381.8 382.5 383.1 385.3 386.7 384.1 381.8 379.9 378 376.7 374.9 374.4 375.3 376.5 376.6 376.5 372.9 369.9 371.8 366.2 358.3 351.9 343.9 335.1 340.2 335.7 325.7 313.9 307.9 307.6 305.8 305.7 307.1 304.9 298.8 287.8 283.4 280.5 267.9 266.4 261.2 253.5 252.4 246.1 243 249.1 251.2 251.6 249.4 239.6 230.7 222.7 218.2 216.3 212.2 220 228.8 229.1 227.8 219 213.4 206.3 204.4 203.7 201.9 200.1 197.4 196 196.3 194.4 191.9 190.1 189.4 188.7 188.4 187.9 186.9 186.7 186.8 186.2 186.4 187.2 186.8 184.6 182.6 178.8 174.8 164.7 166.3 166.8 168.4 170.8 173.6 174.3 175.9 181.6 184.7 190.1 195.4
342.5 349.1 350.2 353.5 367 371.1 378.3 381.6 379.4 381.8 387.7 386.6 373.8 369.5 368.1 361.5 354.3 350.6 355.8 364.4 367.3 370.3 370 372.3 371.2 362.4 358.4 356.4 355.8 331.4 302.2 333.7 359 367.2 369.6 373.3 374.6 373.7 373.3 374.5 375.5 374.8 376.6 375.9 375.2 373.2 372.6 370.4 367.4 360.8 359.4 357.1 358.6 358.4 357.7 358.8 358.2 355.8 357.1 356.8 355.5 353.1 351.5 350.4 347.4 344.9 341.2 338 336.7 333.8 328.4 323.9 319.9 313.9 311 307 288.6 281.2 276.6 286.7 294.8 291.6 291 288 289.1 272.3 281.1 290.5 303.7 309.3 319.3 327.4 334.8 342.2 350.5 360.7 370.2 379 382.2 382 379.7 381.2 382.1 383.1 384.8 385 384.6 383.7 380.3 378.8 376.7 376.2 373.8 373.3 373.9 374.8 374.5 373.4 374.5 380.4 375.8 367.4 359.2 347.7 350.1 346.2 339.5 333.9 328.6 316.3 312.2 308.3 304.2 300.9 304 296.7 292.7 287.4 273.5 270.6 269.5 260.2 255.7 247.6 244.7 241.9 236 244.3 238.5 240.3 235.6 229.5 222.8 214.2 212.1 209.7 212.9 209.5 230.8 226.8 221.9 214.8 209.5 204.5 202.8 201.5 198.9 197.6 195.7 194.3 194.3 192.1 190.7 189.6 190.8 189 189.2 188.5 187.1 186.7 186.5 186.2 186.9 186.7 185.8 183.9 182.4 179.2 171.5 162.5 166.5 167.7 169.9 172 173.4 174.9 179.3 182.5 190.9 195.1
336.5 344.1 344 345.9 351.5 354.6 360.5 366.1 371.8 381.3 384.2 385.5 378.3 366.8 364.5 360.5 358 348.6 354.6 362.4 365.3 370 370 370.6 371.1 362.5 358.4 355.3 347.7 346.7 303.1 314.8 342.5 364.9 370 372.5 372.2 372.5 374.1 375.8 376.7 376.7 377.4 376.4 374.4 372.5 371.8 370.5 367.3 360.5 358.8 355.9 356.6 355.4 354.2 354 353.4 351.2 350.8 350.5 349.8 348.9 349.1 348.3 347 344.7 342.4 340.3 338.8 336.1 330.8 325 319 313.6 309 303.9 307.3 300.3 291.7 276.6 278.4 286.9 284.1 282.4 277.2 269.1 279.4 288.2 298.5 302.8 314.4 323.9 332.6 340.7 348.3 358.3 367.4 375.4 377.9 378.1 377.2 381.9 382.6 383.4 383.6 383.9 383.7 383.9 381.4 377.7 375.7 375.2 373.4 372 371.5 371.9 372.2 372.5 374.8 378.9 380.2 372.1 366 354.7 352.4 352.6 348.3 341.2 332.6 327.9 322.6 310.4 311.2 306.1 295.9 294.2 287.7 292.4 288.2 284.6 281.3 273.2 266.3 255.1 250 241.7 239.9 233.4 233.6 229.6 229.9 228.1 221.5 213.9 210.2 207.9 208.4 217.3 224.7 222.8 221.7 217.8 205.7 204.2 204.1 202.5 202 200.5 195.7 194.5 191.8 192.7 191.5 190.3 190.2 189.9 190.2 189.2 187.9 187.5 186.8 186.7 186.3 185.9 184.9 184.6 182.4 182.1 180.1 166.9 164.7 166.9 167.8 169.8 171.3 173.8 178.1 181.4 186.9 190.6
331.3 339.7 337.8 339.5 342.9 343.6 348 354.1 363.5 373.8 381.6 385.4 374.6 365 362.9 358.5 358.5 351.3 350.7 358.3 362.3 366.3 368.8 370.6 375.3 368.1 355.2 344.4 322 306.4 311.8 315.4 354.9 365 366.7 370 371.4 372.6 375.3 377.4 378 377.8 377.5 376.8 374.8 371.5 371.3 370.6 367.6 361.2 358.8 353.8 352.9 352.5 350.7 349.4 348.3 346.1 344 343.8 343.6 344.1 346 346.7 345.4 344 342.4 339.7 337.3 334.4 330.3 324.8 319.2 313.5 314.7 322.1 321.5 313.4 306.5 291.6 280.8 279.7 280 278.2 270.6 266.8 273.4 286.2 293.4 300.2 311.6 320.9 329.6 337.8 346 354.3 363.4 370.8 373.3 372.1 378.2 383.4 382.9 382.8 382.1 381.9 382.6 383 380.8 376.9 374.1 373.6 371.9 370.7 369.7 370.2 370.2 371.1 373.5 377.4 378.8 375 370.3 365.2 362.1 353.1 348.5 342.7 339.2 332.6 324.9 323.2 325.9 320.1 315 308.4 301.9 299.6 293 286.7 281.2 277.5 271.2 265.1 256.2 249.6 239 235.3 230.4 222.5 220.6 219.2 217.1 216.2 209.9 207 205.7 206.2 219.8 216.6 210.2 214.8 204.1 204.4 201.5 201.8 202.8 201.2 197.8 192.5 191 191.6 192.1 191.5 191.9 190.9 189.9 188.7 188 187.3 186.6 186.4 185.7 185.1 184.3 184.1 184.8 185 183.2 177.8 162.7 166.2 166.5 167.9 169.3 171 175.1 180.8 190.3 193.5
321.3 327.6 328.4 335.6 335.1 334.2 338.5 346.9 351.2 364.9 374.7 378.6 374.7 364 363.8 360.2 353.7 343.2 350.5 354.4 364.2 365.9 371.2 372.9 371 371 335 312.8 278.5 248.6 296.1 333.7 362.8 368.4 371.6 372 372.5 374.2 377.5 380 380.3 380.6 378.7 377.2 375.1 372.6 371.2 371.5 367.3 361 355.3 354.6 354.3 350.9 348.5 346 343.7 341.5 340.3 339 339 339.6 342.3 343.5 342.5 341 339.2 336 332.5 328.8 325.4 318.2 315.9 316.6 319.5 323.2 323.9 318.7 310.9 299.1 284 267 273.9 273.9 270.7 263.8 266.9 274.8 288.9 295.8 308.3 317 326.6 333.4 342.7 351.5 358.3 364.6 367.2 366.7 377.5 382.7 383.2 381.7 380.3 380.1 380.7 381.6 379.3 376.1 372.4 371.3 370 369.1 368.4 368.2 368.7 369.6 371.4 375.5 377.8 376.7 373.2 370.1 367.2 363.3 356.7 347.2 345.2 334.3 335.9 332.8 331.7 324.5 317.3 308.6 302 294.4 288.9 282.5 276.1 272.5 267.9 259.5 252.1 241.5 232.1 231.6 230 224 220 217.1 214.5 213.9 210.5 206.5 204.8 203.4 205.4 212.6 204.7 211.5 205.8 200.3 199.7 199.6 199.4 200.5 196.1 192.8 190.3 191.2 192.7 192.1 193.6 192.8 189.3 188.1 187.8 187.7 186.2 185.6 185.1 185 184.8 184.5 185.3 185.7 185.7 182.8 176.2 162.7 165.7 166.2 167 168.4 174.2 181.5 190.3 192.8
319.3 320.5 319 320.7 325.9 327.5 331.3 338.9 344.3 351.9 363.3 372.3 368.8 362.9 360.4 358.6 348 333.4 349.7 351.6 363.4 367.3 371.7 375.1 371.5 365.3 318.1 280.4 250.4 252 309.8 356.9 363.5 369.7 371.7 372.6 372.8 375.8 378.4 381.7 383 382.3 380 376.8 373.6 373.4 370.6 371.3 368.3 363.7 360.6 357.9 354.8 350.3 346.6 347.1 344.9 343.7 341.6 338.7 338.1 334.6 337.7 338.9 337.7 335.8 331.6 327.2 321.4 325.1 330.6 328.7 323.6 319.6 319.5 320.1 320.8 317.5 305.2 291.5 278.4 266.6 265.3 267.5 266.1 262.6 264.4 270 279.3 291.9 302 312.4 322.4 331.3 340 348.8 355.1 356.5 357.9 364.8 375.1 379.7 380.7 380 377.9 376.9 378.4 379.4 377.8 375.4 371.8 369.6 368.7 368.1 367.7 367.6 368.1 369.3 370.6 373.2 376.8 377.6 376.4 374.8 372.1 367.9 361.8 354.3 345.3 344.4 340.7 337 329.8 324.5 318.9 312.1 300.8 290.4 288.4 280.5 273.7 269.8 261 254.4 246 235.2 230.8 229.9 227.7 224.7 223.4 217.4 213.1 211.3 209.9 206.8 204.5 203.2 201.6 202.8 203.8 206.1 202.5 198.7 198.3 197.5 196.1 196.5 194.4 192.5 188.7 189.5 192.5 193.2 193 192.2 190 188.3 187 187.1 187.5 185.6 184.7 184.3 184.5 184.7 185.3 185.7 185.5 185.2 182.3 173.7 162.3 165.4 165.9 166.6 169.4 180.8 185.2 191.2
316.9 319.4 317.1 318.2 321.4 323.7 326.1 332.9 340 344.9 347.6 353.8 361.3 356 355.6 352.9 342.3 329.6 352.7 347.4 354.6 366.9 369.6 371.7 370.1 347.1 308.6 267 243.1 255 306.2 346.4 363 371.3 371 369.8 372.4 376.5 379.5 382 384.8 384.5 380.8 377.2 372.9 370.9 370.1 370.5 369 366.3 362.9 357.5 351.3 357.9 358.3 355.1 352.1 348.4 346 342.7 341.5 333.9 330.9 327.8 327.2 328.4 330.7 337.8 343.1 343.3 341.6 336.7 326.1 318.7 316.8 316.9 317.1 316 311.4 303.3 289.8 274 261.9 262.1 262.3 259.8 263.1 268.9 279.4 288.2 298.2 309.1 320.4 329.6 337.1 346 351.6 354.7 353.9 362 369.8 375.3 376.6 376.1 374.2 372.7 375.4 376.7 375.2 373.1 370.5 368.7 368.5 367.7 367.2 367.8 368.5 369.5 371.4 373.3 376 378.6 379.7 378.3 374.9 368 362.3 357.2 351.9 346.5 344.4 336.3 330.8 325.2 320.2 313.6 303 291.8 284.2 279.4 271.2 263.4 258.7 248.8 240.4 233 230.7 230 229.5 227.6 224.5 220.6 213.1 210.8 208.7 205.7 203.8 202.9 201.1 199.2 197.8 199.3 197.3 195 196.6 195.3 192 191.6 192.4 192.5 189.5 189.5 191.5 192.7 191.4 191.1 190.1 189.2 187.3 187.1 186.5 185.7 185 184.3 184.5 184.7 185.7 186 185.5 184.9 184 180.6 178.6 162.3 164 165.3 166.6 177.6 186.7 191.8
307.7 310.5 310.6 310.4 318.7 320.7 323.5 328.5 333.6 339.2 344.8 345.8 346.8 345.3 342.7 340 318.1 337.7 354 347.2 341.9 358.4 368.9 367.6 365.1 348.1 301.6 263.4 240.3 255 295.8 339.4 361.5 366.5 368 368.4 373.1 378.4 381.3 383.8 385 385.8 382.9 378.3 374.4 370.1 369.6 369.1 367.7 366.1 362.6 358.8 364 365.8 365.7 365.3 363.9 357.5 354.3 350.9 347.4 346.8 342.9 340.2 343.2 345.9 347.3 347.8 349.8 352 350 344.6 330.6 317.1 311.6 312.1 314 312.7 310.7 306.9 297.5 277.3 265.3 260.2 259.6 259.1 261.4 267.4 277.4 286.5 295.4 307.6 320 329.1 335.4 341.8 347.6 350.1 350.8 357.3 365.9 371.3 372.2 370.6 369.7 367.9 371.2 373.1 371.6 370.2 368.5 367.3 367.9 366.8 366.5 369 370.4 372.1 372.7 374 377.6 380 381.6 380.7 378.7 371 363 358.7 353.7 349.4 341.8 334.8 330.8 324.8 320.4 315.4 305.9 295.3 283.3 276.3 268.8 264.7 258.5 253 241.8 236.8 235 231.6 231.8 227.8 226.9 221.8 217.3 213.4 208.9 206.9 204.7 202.6 199.7 198.4 197.1 194.8 193.1 192.5 192.8 190.7 189.1 188.9 190.6 192.3 190.7 189.4 190.5 191.8 190.9 191 191.3 189.8 188.5 187.8 187.5 186.2 185.6 184.7 185.3 186.2 187.3 185.7 185.7 186 185 181.5 178.8 174.8 166.1 162.3 165 175.1 182.4 191.3
290.8 298.2 301.9 307 315.3 317.3 319.7 324.1 329.4 333.7 339.9 339.9 340.2 338 336.1 306.8 314.8 334.8 344.6 346.3 334.3 338.6 350.8 346.8 344.2 340.7 300 262.3 237.3 248.4 289.6 329.9 357.8 364.3 364.3 368.4 374.6 381.1 384.2 386.7 385.9 385.5 384.2 379.9 374.9 371.9 370.1 368.8 367.3 365.2 363.6 361.3 366.3 370 372.2 372.9 371.1 369.6 365.9 361.5 358.1 354 353.2 355.6 357.6 356.5 356.5 357.4 357.3 355.7 351.9 346 336.5 320.9 310.3 307.6 309.9 310.3 307 304 299.5 282.8 268.5 258.7 257.5 256.8 259.2 264.1 269.9 280.6 289.1 303.8 306.1 321.2 334.5 339.3 342.9 345.5 348 354 361.9 365.5 367.2 366.2 365.1 365.3 366.8 367.9 366.9 365.4 364.3 364.3 366.1 365.6 368.6 369.8 370.8 374.2 376.9 378.2 380.7 382.8 381.2 379 374.9 368.5 362.8 358.9 353.8 348.3 341 335 329 324.1 319.4 316.4 309.4 298.7 288 276.7 270.9 269.3 265.4 256 246.8 240 235.6 234.4 230.8 227.6 224.6 219.8 215.3 214.4 210 207.3 206 203.3 200.7 197.3 196.7 195.2 191.4 189.6 189.9 189.1 188.6 189 191.8 194.6 190.2 189 188.7 189.3 192.7 190.6 191.6 191.2 189.1 189.9 190.3 187.9 186.9 186 185.7 186.2 185.7 184.8 184.4 185.6 184.3 181 179 175.7 172.3 169.2 162.5 169.5 183.7 187
280.1 284.8 288.3 296.8 313.5 311.7 313.1 319.7 324.6 330.7 335.4 335.1 333.7 333.3 330.9 293.5 309.5 323.8 334.4 333.4 328.9 325.8 324.4 325.5 326.6 328.7 290.2 256.3 235.2 239.4 275.8 315.2 345.5 360.9 361.9 363.7 375.3 384.5 389.6 389.7 386.2 383.2 383.8 382.5 377.7 373.4 372 369.9 367.7 366.5 366.3 365.5 368 372.6 376.1 378.4 377.8 376.5 375 371.1 367.3 362.2 363.9 362.7 365.1 364.1 362.1 359.7 358 355.7 351.7 347 339.3 327.2 316.7 308.5 305 307.7 303.7 298.7 293.9 285.4 270.7 258.3 255.9 255.8 256.6 263.3 272.2 282.1 293.2 311 329.6 336.6 334.4 337.2 339.3 341.9 344.6 349.7 355.1 360.6 362.8 362.2 362 363.7 365.1 366.1 364.4 363.4 361.9 362.5 363.3 364.2 366.3 368.3 370.3 374.8 379.5 382.5 383.8 382.9 380.8 377.2 372.5 366.5 361.3 358.3 354.4 348.6 341.4 335.7 329.9 323.6 323.4 318.6 310.8 302.1 290.9 280 274.8 273.1 269.3 262.7 251.5 248.2 245.6 238.9 227.8 228.6 224 219.7 217.5 215.6 214.8 208.8 204.9 203.1 202.2 199.3 195.3 193 191.5 189.2 189.3 188.4 188.9 190.3 191.5 192.5 192.8 190.7 188.5 188.2 194 193 192.3 192 189.4 190.5 191.1 192.9 190.1 187.7 187.1 187.4 186 184.9 185.1 185.8 184 180.6 179 176.3 174.7 168.7 162.3 168.1 183.8 183.3
272.2 275.9 280.9 286.6 296.4 304.2 304.6 313.6 319.5 325.1 327.8 332.3 328.2 328.5 318.3 293.8 295.5 315.6 318.4 321.3 311.8 309.5 301.7 303.3 309.2 301 275.7 246.7 233.2 237.2 271.3 306.9 334.6 357.3 355.5 352.9 369.7 385.6 394 391.9 385.2 381 381.2 381.2 378.7 375 372.5 372.9 370.6 369.7 368.3 366.2 369 374.5 378.8 381.8 382 381.3 380 377.4 373.6 371.4 369.7 368.7 367.7 364.7 362.3 359.3 356.3 354.4 352.1 347.5 340.3 329.7 319.7 313 303.2 304 302 296.6 286.5 279.2 271.9 259.7 254.4 254.5 253.4 260.4 269.5 279.4 294.5 311.2 329.1 337.7 336 336.5 337.4 338.7 341.1 346 350.2 355.1 358.3 358.2 361.8 362.9 364.5 365.4 365.7 365.7 363 361.8 362.7 365 365.9 367.3 369.4 373.6 379.2 381.3 382.7 381.6 379.6 375.8 371.2 366.1 360.6 357.1 353 349.6 344.4 338.1 333.4 333 329.3 320.2 313.2 305.7 293.7 286.8 280.5 274.3 271.5 267.1 257.7 248.8 243.1 237.9 232.5 230.6 227.1 225.9 221.8 218.9 215.4 209.5 205.2 203.1 201.6 200.5 198.1 193.8 190 189.6 188.7 187.7 187.2 187.8 191.4 191.6 192.2 190.4 187.5 183.1 186.6 190.6 191.3 190.6 190.5 191.3 193 191.5 190.6 190.2 189 188 187.5 186.7 186.3 185.1 184.4 181.5 180 177.4 172.3 167.1 162.3 168.2 180.1 182.8
264 267.8 274.9 281.6 286.1 292.3 296.2 303.4 313.8 320.3 326.1 326 324.4 313.2 297 286.4 285.9 305.7 304.9 300.6 287.6 284.5 280.3 275.8 279.4 273.8 261.5 239.9 231.5 241.8 264.9 292.7 315.5 332.4 339.2 338.3 357.8 382 391.3 385.7 380.7 377.1 374.8 376.8 378.9 374.9 372.1 371.7 370.3 370.3 371.2 370.9 373.2 375.1 380.9 383.8 384.6 384.1 382.7 380.2 376.3 373.6 371.8 370.3 368.7 365.2 361.5 357.4 354.3 353 351.1 347.6 342 332.7 321.9 311.4 304.9 300.8 300.8 298.3 293.8 286.7 279.6 266.1 253.7 252.8 251.7 258.3 265.8 277.2 292.3 306 323.8 335.2 336 335.5 335.3 336.3 338.6 343.4 347.9 349.7 354 358.7 361 361.9 363.5 365.2 364.9 365.1 365.2 360.4 361.4 365.5 365.8 368 369.6 371.9 374.8 376.7 379.8 379.9 379.2 374.9 372.1 367 361.2 358.4 355.4 350.6 345.8 339.4 335.8 334.6 327.6 321.1 314.5 307.1 300.5 292.2 283.6 276.4 272.9 268.7 264.3 254.6 248.3 243.4 239.3 236.2 235.6 233.6 225.9 220.3 217.3 213.9 207.5 204.4 203.9 202.3 200.3 195.2 191.2 189.4 189.1 188.1 186.8 186 187.1 187.8 186.7 184.2 182.5 182.1 182.3 184.3 189.2 191.4 191 192.5 193.1 194.3 192.8 190.7 189.6 188.3 188 188.5 188 184.6 186.8 186.8 183.4 177.9 172.8 167.6 162.3 165.7 178 181.2
254.4 259.8 263.4 273 276.5 279.6 286.1 291.3 299 308.6 314.4 313.6 311.5 298.9 282.8 272.9 273.4 282.3 280.5 274.3 268.8 265.2 261.6 256.6 253.4 252.6 243.1 229.1 230.5 241.6 259 275 291.6 301.5 310.1 319.8 342.3 379 383.6 375.5 376.4 372 370.9 372.4 379.1 374.8 372.1 369.5 369.5 373.9 375 377.4 379.4 377.1 382.3 384.8 385.6 384.8 383.7 381.6 377.9 374.9 372.8 370.9 368.2 364.5 359.8 355.3 352.1 350.4 348.9 345.3 340.1 332.7 323 315.5 310.5 302.3 296.2 296.4 293.3 289.5 285.4 277.5 258.4 252.1 251.1 253.1 262.8 274.6 287.3 299.8 318.6 334.5 336.4 336 333.5 334 336.5 340.6 344.7 347.2 351.8 358.1 359.5 360.4 362 363.5 362.9 364.6 366.8 364.8 359.6 361.8 365.8 368.7 369.5 370.2 370 370.8 372.9 374.9 374.5 373 370.9 365.1 360 358.9 355.7 351.3 345.8 341 338 330.8 324.8 319.2 313.5 307.7 300 293.3 286.7 281.9 277.3 270.4 266.4 259.9 254.5 250 245.1 240.4 241.2 239 230.6 225.7 220.1 218.4 211.8 208.1 205.1 203 197.8 198.5 192.5 189.7 188.1 187.5 186.9 185.7 185.8 184.8 183.7 183.1 182.5 182.4 182 182.5 190.7 191.9 191 190.9 193.2 194.9 195.4 192.6 190.2 189.1 188.6 189.3 188.7 184.8 188.8 189.3 186.4 178 173 167.4 162.3 164.2 164.6 178.3
246.2 249.6 250.6 254 260.4 265.2 271.8 279.6 284.9 287.2 291.5 289.9 286.9 281.4 276.9 271.5 261 262 262.9 261.7 258.3 253.8 249.6 242.6 235.2 233.3 229.6 228.6 234.2 241.7 255.4 266.4 278.2 280.9 292.3 303.5 322.4 344.6 366.5 363.1 367.1 365.8 365.3 367.9 371.4 371 366.1 367.1 372.6 379.4 381.6 384.9 384.8 383.6 382.6 385 385.8 385 384.1 382.2 378.7 375.8 373.3 369.8 366.7 362.8 358.2 353.7 351 349 347.3 344.1 337.6 328.7 322.6 313.9 308.7 301.1 295.2 290.8 289.6 285 279 276.9 265.7 251.2 250 249 258.7 269.8 282.3 292.7 308.1 328.4 335.6 336.1 331.8 330.5 334.2 338 340 345.8 351.3 357.3 357.6 358.8 360.2 360.6 359.6 362.6 365.5 364.9 360.8 359.8 363.2 364.8 365.5 365.7 365 366.4 366.2 365.5 364.8 363.8 360.2 356.6 354.6 352.2 350.9 347.3 344.5 341.8 336.3 328.9 323.3 317.8 312.1 307.2 300.7 295.5 289.8 284.8 279.7 274.3 270 265.6 258.2 255 249 245.5 243.1 239.4 233.8 226.5 222.8 217.8 217.1 211.3 207.3 201 202.7 201.4 193.7 189.2 188.2 187.4 186.5 185.4 184.6 184.4 183.4 183 182.8 182.1 181.7 181.7 187.6 189.1 188.6 188.4 191.6 194.3 195.8 193.5 191.6 190.7 190.8 190.3 189.6 184.6 188 186.8 186 179.7 174.3 170.3 162.3 163.2 163.1 168.6
238.7 241.5 244.1 249.4 253.5 257.9 265.5 271.9 278 279.9 280.2 281.1 280.9 279.1 276.2 273.3 264.9 255.3 254.2 256.7 252.8 251.3 246.1 239.8 231.9 226.6 227.1 228.9 235.8 240.2 249.1 257.5 265.2 270.9 281 290.5 300.7 314.1 329.2 344.3 348.3 355 357.4 363.4 359.3 359 358.8 365.5 374.5 383 389.3 389.4 388.4 386 383.8 385 385.7 385 384.2 382 377.8 376.9 374 370.6 367 362.1 356.6 353.4 350.3 347.6 346.7 343.9 337.9 331 324.2 316.8 309.9 300.9 282.3 274.9 277.1 271.5 264 265.6 265.1 252.5 249.7 247.3 254.8 266.3 277.9 288.1 305.4 322.5 334.5 334.9 332.7 327.9 330.3 334.5 337.3 344 350.1 355.5 355.7 357.3 358.7 358.8 358.5 357.2 361.2 360.5 360.1 358.1 357.2 358.3 359.7 360.9 360.8 361.7 361.3 359.4 356.6 353.9 350.2 346.7 344.9 343.4 339.8 338.4 337.2 334.8 330.8 326.4 321 315.7 312.3 305.7 301.1 295.4 290.1 283.3 279.8 277.5 271.4 267.1 261.9 255.7 248.6 249.3 247.3 240.4 233.3 226.8 223.5 218.7 215.2 212.1 208 207.7 204.8 203.5 200.7 192.7 188.1 187.9 188.3 186.9 184.6 185.1 185 184.1 182.1 181.8 181.7 181.1 184.1 186.4 187.1 186 188.1 192.8 193.7 192.1 190.5 190.8 190.4 191.1 190.4 186.8 187.2 185.8 185.5 181 174.6 170.7 167.7 162.4 162.9 164.7
230.1 233.3 237.1 241 247.1 253.9 260.6 267.3 274 277.8 279 279.7 280.2 279.3 277.4 273 265.7 259.5 252.6 246.9 243.5 243.4 242.6 235.4 227.9 224.2 227.2 230.1 233.2 237.9 245 252.4 258.5 265.1 274.1 283.2 293.1 303.7 313.2 320.2 327.5 334.5 342.2 346 347.8 349.7 355.6 363.8 373.9 386.7 392.2 392.7 391.4 388.8 386 385.5 386.1 385.5 384.9 383.5 382 380.5 377.4 374.6 369.8 361.6 356.5 352.8 349.9 346.2 344 341.2 337 328.5 318.8 306.3 298.2 301.5 298.4 293.6 280.7 279.4 272.9 265.5 255.4 252.9 249.9 247 250 261.8 272.6 285.4 300.4 316.4 328.3 330.8 329.8 326.4 326.9 331.9 338.5 342.2 347.4 354.2 353.7 355.8 357.4 357.1 358.5 356 355.6 357.4 358.8 358.1 357.8 356.8 354.9 355.7 355.3 356.8 357 354.9 351.6 347.8 343.8 340.5 338.8 336 332.8 331.2 329.6 325.9 324.2 321.1 318.8 315.3 310.4 303.6 301 296.7 289.6 281.3 277.1 276 272.9 265.7 262.1 258.8 250.6 248.3 246.5 242.8 236.2 230.1 226.2 219.8 212.9 212.5 209.2 209.3 207.5 208.8 203.9 198.8 198.7 195.1 192.9 190.5 192.7 189 186.8 186.6 185.7 183 181.7 180.7 180.8 183.5 181.8 183.1 182.8 184.3 186.8 188.5 186.2 187.4 188.9 191.3 190.8 188.6 187 186.9 185.5 180.1 173.1 169.6 175.1 166.8 161.3 160.9
223.8 227.2 231.4 236.7 243.2 251.6 260 268.2 274.7 279.6 281.8 282.2 282.1 281.4 279 273.8 267.5 259.6 255.9 253.1 248.7 240 232.8 229.6 224.6 224.4 228.1 234.6 238.3 239.7 241.9 248 253.9 260.7 269 278.3 286.9 296.6 304.5 310.9 317.4 324.3 331.5 336 340.1 347.3 355.3 364.6 371.6 383.7 393.8 395.9 394.3 391.2 387.9 387 386.9 386.5 386.1 387 387.6 387 384 378.4 372.1 363.1 355.4 351.2 348.7 346 342.9 341.3 335.6 327.8 327.8 316.3 319.7 309.1 307.8 298.7 297.4 291.5 283.9 275.1 265 255.3 249.2 247.3 245.9 255.6 269.1 279.8 294 310.7 323.1 328.8 328.5 324.7 325.7 330.3 336.1 340.3 345.7 351.9 352.8 352 355.7 355.7 356.1 355.4 352.4 353.7 355.2 355.6 355.9 353.8 349.9 350.8 350.9 352.1 352.2 350.7 348.3 344.6 339.9 337.5 334.4 331.5 328 324.1 320.9 318.9 315.7 313.6 313.6 311.7 306.9 302.8 301.3 297.2 289.7 283.1 278.1 273.6 272 269.9 265.9 259.8 255.9 251 248.2 244.3 236.2 233.5 229.6 224.5 218 215.5 211 210.3 210.5 210.8 208.1 207 203.7 203.4 201.8 200.7 196.7 192.3 192.2 192.4 189.6 186.5 183.2 182.2 180.7 179.1 179.5 179.6 179.7 180 181.5 181.3 179.4 179.8 183.4 187.8 188.7 186.8 187.8 186.9 182.8 178 171.5 169.4 185 182.2 166.8 161.5
219.1 222.9 229.1 235 241.4 248.9 257.6 270.4 276.7 282.5 284.9 284.8 284.2 282.9 279.9 274.9 266.6 259.2 256.4 257.3 250.5 242.9 230.8 223.3 221.2 227.5 233.7 241.6 243.3 246.6 249.9 254.6 258.5 264.9 263.1 272.1 278.3 289.3 297.5 305.8 312.2 320 327.9 334 341.9 350.6 358.8 368.9 380.3 388.2 396.2 397.7 396.7 394.1 390.9 389.6 389.2 389.5 389.5 390.5 391.9 390.3 387.1 380.8 373.6 364.9 356 352.9 349.9 347.7 347 343.6 340.1 333.5 331.7 330.7 325.8 316.8 313.5 310.2 306.1 300.8 293.2 286 274.4 260.6 254.4 249.3 245.5 250.9 263.5 274.3 288.1 306.3 318.1 324.4 322.6 320.7 324.1 329.5 334 338.1 345.7 349.1 350 349.5 352.9 354.2 354.3 352.6 349.7 349.5 350.2 351.4 352.8 350.1 348 349.3 350.6 351.3 350.6 349.6 345.3 341.3 337.6 335.6 333.2 328.7 323.1 318.8 314.7 311.8 307.7 306.2 307.2 305.4 304.5 301.8 299.6 295.4 291.2 286.4 281.9 276.2 272 270.1 267 259.9 257.5 253 249.8 242.8 239 237.4 232.9 228.5 223.7 219.4 220.6 216.7 214.5 212 212.5 212.4 213.3 211.1 210.8 207.5 201.3 200.7 203.8 199.4 194.5 190.2 186.6 187.7 185.6 183.2 179.9 178.5 177.8 176.7 177.3 176.9 175.8 174.8 175 177.3 180.8 182.7 183.4 183.6 181.4 176.2 170.1 169.3 179.4 174.4 171.7 163
213.8 219.6 228.5 234.5 238.6 246.3 257.9 271.1 280.9 287 290.6 290.6 287.3 284.3 280.3 273.1 265.3 257.7 254.1 255.1 251.4 240.9 221.7 220.1 226.2 232.9 238.5 246.6 249 251.6 256.1 261 263 272.3 278.9 284.1 290.6 296.5 301.8 307.9 315.3 324.9 331.6 339.2 344.9 355.2 364.3 374.8 386.4 396.3 399.4 400.5 399.4 398 396.1 395.4 394.8 393 390.6 392.7 393 390.4 385.5 379.4 371.7 362.5 358.6 356.7 352.3 351.7 348.5 347.4 342.6 339.2 338.4 334.5 330 321.5 322.7 319.9 314.8 307.8 300.1 292.7 284.1 273.3 261 256.6 249.8 245.7 259.1 268.8 281.4 298.7 309.2 316.1 315.5 319.6 322.7 327.1 332.3 336 340.9 345.1 347.4 347.4 348.8 350.6 350.6 349.1 347.4 347.3 348.5 347.8 348.2 348.2 347.5 349.2 350.5 351 351.4 350.3 346.8 342.9 339 337.2 334.9 329.6 323.4 318 312.3 307.3 302.2 299 298.8 299.1 300 295.2 295.7 292.9 289.9 285.7 283.8 277 271.8 270.1 266.3 263.1 260 255.7 250.7 245.3 244.8 242.6 237 230.8 221.5 226 222.2 220.2 220.9 218.6 217.5 217 214.3 213.7 211.6 210.6 205.7 209.7 205.4 204.2 200.4 195.5 194.7 197.6 193.5 189.1 185.1 180 177.2 176.3 175.8 174.7 174.5 173.9 173.6 172.6 173.2 175.2 172.4 170.4 176.8 172.7 168.6 168.2 169.9 169.1 167.4 164.7
210.3 216.5 230.1 232.7 236.7 244.9 256.1 269.2 286.3 294.1 297.7 296.9 293.3 285 279.4 271.3 257.9 249.8 246.9 245.9 228.8 206.8 218.6 226.8 231.8 237 243.2 249.6 253.9 257 260.7 266.5 271.6 270.9 285.3 292.3 296.8 301.3 305.8 313.9 322 331.7 337.6 345.4 354.9 360.7 372.9 383.3 393.6 400.1 403.8 404.6 404.1 402.6 401.4 399.7 395.8 390.9 389.3 389.8 390.6 387.2 384.3 378.5 372.3 362.8 359 356.7 353.9 353.3 352.4 350.7 346.8 343.7 341 337.9 334.5 331.9 330.2 326 319 308.4 297.3 290.3 284.9 279.5 270.4 260.1 256.6 246.6 249.1 260.2 273.8 293 305.3 308.8 308.9 311.5 319.6 325.2 329.8 333.6 335.9 340.8 341.7 345.9 346.8 347.6 346.2 344.5 344.5 346.4 347.2 345.7 346.1 346.6 348.2 349.1 350.1 351 351.5 353 351.1 346.4 342.3 341 336.8 330.8 324.7 318.2 312.6 307.2 301.8 296.5 293.5 291.3 291 286.9 283.8 282.4 280.6 280 278.1 276.2 271.8 266.5 265.3 265.1 263.4 259.4 252.8 247.5 245.9 242 236.4 226.5 230.7 228.6 228 223.2 223.3 225.9 222.9 219.3 217.6 214.9 212.5 211.1 211.5 213.3 211.4 210.3 209.8 207.2 204.4 198.9 194.7 192.3 188.7 180.9 178.2 176.9 175.5 175.2 173.9 173.3 175.6 181 171.8 171.8 171.1 170.6 169.7 169.2 167.5 167.3 166.7 164.8 164.7 163.8
206.2 217.5 224.8 229.2 233.5 242.8 257.7 266.7 283.1 296.2 300.7 300.6 295.9 285.1 275.6 265.2 251.5 243.4 239.3 209.8 209.2 216.7 227.8 231.2 238.3 243.4 248 254.6 259 262.1 265.8 272.1 277.3 284.6 287.6 295.6 303.3 308.3 316.5 318.6 329 341.3 351.8 359.3 364 378.5 376.8 391.7 399.1 407.5 409.5 410.8 407.3 400.9 397.1 395.2 392.1 388.7 387.5 386.7 387.2 383.7 380.8 374.9 368.6 360.2 357.5 355.8 353.9 353.5 355 353.4 349.7 345.6 342.8 340.6 337.9 337 333.9 329.2 317.5 308.5 300.5 291.6 284.1 283.3 270.6 267.6 261.5 242.9 242.8 251.7 266.5 286.2 294.9 298.1 300.2 302.4 310.5 320.3 325.7 330.5 332.8 334.8 337.3 342.5 343.7 344.6 343.4 341.4 340.6 342.6 343.5 344.7 346.3 347.5 348.2 348.8 349.7 350.7 352.2 353.8 352.7 349.1 346 344 339.3 332.1 325.8 318.6 312.2 306.9 303 297 292.5 287.5 286.1 284.1 280.9 276.7 275.5 273.3 272.9 272.4 270.7 266.3 264.4 264.8 264.1 260 254.2 249.5 245.8 234.4 237 240.4 237.3 232.6 231.3 229.6 227.4 229.8 225.4 222.6 221.5 220.6 218.6 219.2 217.2 213.8 213.7 211.5 212.4 211.5 203.2 198.2 195.8 196.5 195.4 188.6 185.2 181.8 179 175.9 175.4 176.9 177.3 173.4 172.1 171.9 171.5 171.8 172.1 173.4 168.5 167.4 166.4 166.2 167 174.5
198.6 215.7 222.3 226.2 231.3 238.6 250.7 269.9 279 291.5 298.6 299 294.2 281.4 266 254.4 241.7 237.2 218.1 210.9 232.6 244.7 244.7 246 248.4 251.2 253.2 258.4 263.3 268.2 272.8 278 285 291.9 297.4 301.7 307.8 315.4 326.3 339.3 345.9 356.6 367 375.4 380.7 387 393.3 395.9 403 408.9 410.1 409.1 404.1 397.4 393.5 391.8 389.3 386.5 385.1 384 384 380.7 377.7 373.6 369.2 364.1 356.9 355.8 353.3 353.4 355.3 354.2 350.9 347.1 344.5 342.4 341.3 339.2 335 330.2 326 312.9 302.4 294.8 289.3 279.1 265.7 259.8 255.7 249.5 241.7 247.2 260.8 277.1 288.4 289 292.9 296.2 304.4 310.1 318.4 325.7 327.8 329.3 330.4 339.5 341.2 341.1 339.9 338.5 335.8 333.4 343.4 345.5 347.2 348.2 348.3 348.5 349.1 350.1 352.3 354.2 354 351 347.6 346.3 341.4 334.8 327.1 319.9 313.8 308.7 303.5 298.8 294.2 288.9 284.7 281.1 279.6 277.5 274.5 271.8 269.6 269.6 268.4 265.1 263 262.4 261.7 257.6 255.4 250 239.4 245.7 242.6 240.2 238.7 237.5 236.4 234.2 233 232.5 231.6 230.2 226.9 224.4 223.8 224 219.4 218.1 215.2 210.8 207.6 205.1 205.4 200 195.8 193 193.9 193.1 193.8 187.3 183.4 181.1 178.9 176.9 181.9 174.2 172.8 172.3 174.1 175.2 178.7 177 174.8 169.9 168.8 170.6 180.4 186
199.2 210.2 220 222.4 227 233.2 246.9 266.7 277.9 285.2 293.8 295.7 289.1 270.3 255.6 241.2 235.5 230.7 206.1 217.3 244.4 255.4 257.4 257.6 256.4 257.7 259.8 262.9 267.6 274.4 280.3 284.4 289.8 297.6 304.5 308.5 313.8 321.1 335.7 344.2 353.1 363.4 375.7 384.9 389.5 391.2 395.9 398.1 402.9 407 406.8 405.5 401.5 395.8 391.7 389.9 387.1 383.9 381.7 380.5 379.7 378.2 376 372.9 369.4 363.7 355.2 353.4 351.1 351.9 355.3 354.1 351.6 347.4 344.6 344.3 343.4 339.9 335.5 331.3 326.9 322.2 316.3 306.2 297.2 287.1 278.7 266.2 252.1 245.8 240.4 243.4 253.6 267.4 281.9 283.7 286.7 289.2 298.2 305.6 314.4 319.9 321.6 323.6 326.6 330.2 337 337.2 336.7 336.1 333.2 337.5 343.2 345.5 347.3 347.9 347.6 347.4 348.2 349.4 351.5 353.7 352.9 351.8 348.2 345.3 341.9 336.4 328.7 322.9 316.3 311.4 306 300.5 296.4 290.4 285 282.6 279.4 276.2 273.9 271.2 268.8 266.9 265.1 263.1 262.3 260 259 256.5 248.9 251.4 249.4 245.3 243.5 243.6 240.7 240.1 239.6 238.1 236.8 235.2 234.7 234.1 232.7 233.3 229.9 225.4 223.5 221.3 220.3 216 211.3 208.3 205.6 202.7 200.5 196.9 194.9 192 193.8 193.8 191 187.9 186.6 180.4 178.8 176.4 174.1 173.1 176.1 178 180.1 181.5 181.7 180.1 182.2 182.3 184.8 186.7
198.7 198.7 212.7 215.8 219 228.8 239.8 254.8 267.2 274.5 286.1 285.3 273.1 257.2 244.7 234.9 230.6 223.1 203.5 219.1 246.2 259.1 262.6 264.7 263 263.9 264.8 267.4 272.6 279.3 284.6 288.4 295.8 303 312.5 319.6 323.8 330.7 339.6 346.2 354.7 365.8 377.2 385.2 392 392.8 395.4 397.6 400.7 403.5 403 401.6 398.3 393.8 390.1 387.7 384.5 381.2 378.7 376.8 376 374.8 373.1 371 368.2 362.3 356.7 350.1 348.6 351.6 354.1 353.1 350.3 347 344.8 345 344.6 340.6 336.3 332.4 328 323.1 314.9 305.8 295.2 287 280.1 273.1 261.5 245 240.3 239.8 246.1 257.1 267.6 275.4 280.5 284.1 290.9 300.9 307.3 311.9 315.9 318.3 320.9 323.6 330.2 331.6 332.1 331.8 330.7 336.3 341.8 346.2 347.3 347.4 346.8 346.3 347.2 347.9 349.4 352.1 352.3 350.6 350.3 345 342.8 336.7 329.9 323.6 318.2 312.6 307.8 302.9 297.5 293.9 287.9 283.6 280.2 277.2 274.3 271.9 269.2 266.8 264.3 262.9 260.4 257.1 255.1 257.1 258.2 256.7 254.6 254.1 248.1 244.5 242.4 241.2 241.4 241.3 239.6 239.8 237.5 237.8 235.9 236.4 234.1 228.5 225.6 223.8 220.9 218 216.9 213.9 211.8 206.2 204.8 202.2 198.1 192.9 191.7 191.2 191.5 191.3 189.7 186.1 179.7 173.9 175.1 181.6 180.8 182.1 185.8 188.2 188.5 184.6 183.8 184.2 185.4 187.1
199.5 197.8 207.4 209.9 211 214.8 228.7 238.8 248.8 257.5 264 265.7 254.2 243.2 232.8 229.7 225.8 218.5 202.7 219.5 243.9 262.2 266.2 266.8 266.5 268.2 268.4 269.9 275.9 282.5 287.2 293.7 302.8 312 325.9 336.7 340.9 342.9 343.9 347.1 355.3 366.4 375.8 383.4 389.2 391 393 395.8 397.9 400.6 400.1 398.1 395.9 392.6 389.2 386 382.3 378.9 376 373.5 372.6 371.4 369.2 368.7 365.2 359.3 353.6 347.8 347.1 350.1 352 351.2 348.7 345.8 343.8 345.2 344.5 339.6 336.3 332.4 328.2 323.2 315.2 305.3 295.6 285.1 277.1 270.3 263.9 250.3 240.8 238.4 241.3 251.3 260.1 268.9 274.2 276 285.5 294.9 300.2 302.6 305.7 312.2 314.4 316.8 324 326.6 327.1 319.2 330.8 336.2 342.4 348.4 347.4 345.6 344.2 343.6 345.8 346.4 347.9 348.8 350 348.4 347.4 345.6 342.5 337.1 330.3 323.9 317.1 312.8 308 305.1 300.2 295.8 291.3 285.5 280.3 278.8 275.9 273.3 271.4 269.8 267.2 265.6 263.8 262.2 259.6 262.3 262.5 260.5 257.5 255.9 255.9 254.7 244.5 249.3 246.6 240.1 238.4 241.3 239.2 238.4 237.8 238.3 237.3 232.7 227.8 226.4 221.8 219.9 215.2 213.9 212.6 209.2 206.6 203.3 201.2 197.9 193.6 190.8 189.9 192.1 190 189 179.8 175.4 182.3 184.3 186.4 188.7 189.7 189.9 185.9 185.5 186.1 186.5 185 186.3
199.6 196.3 203.9 206.5 207.4 209.5 212.5 218.9 226.7 239.3 245.8 246.3 240.6 232.6 227.4 223.9 220.9 209.9 202.1 213.5 238.2 260.3 268.5 267.7 266.9 267.6 268.9 271.7 277.2 283.3 288.7 296.3 304.9 322.3 336 343.8 348.1 350.5 351.9 351.9 356.7 365.4 373.3 379.6 384.9 387.8 389.8 392.3 394.7 397.5 397 395.4 394 393.7 391.5 388.5 384.3 381.4 378.9 376.3 374.4 374.8 373.3 369.8 363.9 356.3 353.8 347.4 346.2 347 349.3 348.9 346.5 343.7 343 345 344 339 334.5 330.7 327.2 322.7 316.3 308.4 299 289.7 278.8 270.1 264.7 257.2 243.1 237.3 239.1 247.3 256.9 266.3 272.5 272.2 278.7 288.6 292.3 295.2 295.9 301.2 305.8 309.8 312.8 319.1 318 324 329.8 336.1 342.8 350.9 348.1 343.8 340.3 339.5 342.9 344.2 345.8 346.3 345.2 345.8 348.6 344.5 340.7 335.9 330.6 322.9 315.7 309.8 304.1 302.8 299.2 294.8 290.7 285.6 281.9 279.7 278 275.8 274.7 276.3 274.6 268 266.7 265.1 262.8 265.2 265.5 265.3 263.7 260.9 259.9 259 258.9 248.6 247.9 248.7 241.8 237.7 236.9 236 238.9 239.2 237.1 233.8 228 227 226.1 223.5 218.2 213.1 213.9 211.9 211 206.1 202.2 198 195.1 193.3 190.4 191.6 191.3 187.7 180.7 175.5 184.1 185.7 178.3 178 178.7 183.5 185.5 186.9 188.5 187.3 186.1 185.5
198.3 194.2 197.7 202.3 203.7 205.5 208.7 211.5 217.1 223.3 229 233.4 230.6 226.5 222.5 219.2 216.2 205.3 201 205.6 231.1 252.4 262.7 263.5 263.1 264.1 266.9 271.2 277 283.4 290.9 298.2 308.9 327.7 337.7 346.4 350.6 353.7 356.5 356 358.6 364.6 369.5 375.4 379.5 383.9 386.4 389 391.9 394.3 394.1 393.6 393.1 394 394.5 393.4 390.5 387.5 384.2 382.3 380.8 376.1 370.6 365.6 356.1 354.7 353.6 343.6 342.6 344.6 346.2 346 344.1 341.9 341.7 343.6 342.8 337.3 332.5 329.4 325.7 320.7 314.4 308.5 298.4 291.2 282.9 273.2 266.8 261.4 248.8 237.7 236.3 247.2 256.3 262.7 266.3 267.8 273.9 280.7 283.3 284.9 289.5 294.2 299.2 299.4 302.5 311 312.4 322.8 328.9 336.4 343.5 351.1 349.1 341.9 336.4 336.7 338.8 340.7 342.3 342.1 341.8 340.7 342.6 342.9 337.7 334.2 328.4 320.8 315.3 308.3 301.5 298.9 296.6 292.2 287.5 284.7 281.7 280 279 278.7 278.2 276.4 274.1 271.4 269.5 266.9 265.8 269.2 269.8 270.4 270.1 265.8 265.6 264.3 263.2 259.4 242.7 248.2 242 238.8 232.3 232.5 237.5 239.1 239.2 234.3 230.7 228.9 226.5 221.6 220.4 216.9 212.6 211.8 210.4 206.7 203.9 201.6 198.2 195.4 193.4 189.6 188.6 185.8 184 177.9 177.3 177.3 179.9 182.9 179.8 180.6 185.6 187.2 191.5 190.7 187 187
198.1 195.8 196 197.2 201.9 203.8 206.6 209 213.6 218.3 223.5 226.5 225.4 222 218.3 215.3 212 209.7 200 201.1 218 233.7 245.6 256.1 256.3 259.2 263.3 268.6 274.3 281.9 289.7 299.4 310.6 325.3 338.1 346 351.7 353 356.5 358.1 358.7 362.9 366.8 371.7 377 381.3 382.8 386.2 389.1 391.3 391.5 391.4 394.2 396.8 398.3 398.4 397.3 394 389.5 383.6 376.7 368.1 364.4 360.4 355.7 353.6 348.8 342 340.5 340.2 342.9 344.2 341.9 339.8 339.7 341.4 340.3 334.6 330.5 327.8 323.5 314.8 311.5 304.2 295 288.7 282.5 276.4 267 260.3 252.2 240.9 236.3 242.1 251.7 257.1 262.9 263.4 270.5 273.9 275.9 278.7 283.6 287.2 291.5 292.5 297.1 301.1 313 322.2 329.3 336.8 344.1 349.5 347.7 341.8 335.4 332.8 333.4 335.9 337 337.4 336.9 335.9 334.9 337.1 334.5 331.4 326.4 318.7 313.4 308.2 302.1 299.4 298.3 293.3 289.3 284.8 281.6 279.7 279.5 278.8 279.3 279.2 278 275.1 275.3 268.1 269.7 271.2 273.4 276.1 273.2 269.7 268.4 266.9 266.3 265.5 254.5 233 241.2 234.6 232.6 228.7 235.2 233.4 237.6 235 234 232.1 228.5 224.1 216.3 214.8 212.8 216.1 217.7 217.2 212.2 206.8 202.2 196.5 194.3 188.9 187.4 186.9 185.4 183.8 184.3 185.7 186.3 186.3 183.8 179.9 184.6 185.5 191.5 192.3 187 185.6
197.7 195.2 194.4 195.9 200.1 202.5 204.7 207 209.9 213.1 217.3 218.7 218 216.6 214.4 211.9 208.7 205.2 199.9 200.7 206.5 223.2 233.9 245.8 250.1 254.3 259.5 265.3 272 279.1 290.1 299.4 311.2 325.9 336.3 342.6 348.6 351.7 355.2 357.3 358.5 361.3 365.2 370.1 374.3 377.4 379.5 383 386.3 388.3 388.7 389.3 394.4 399.8 402.7 403.1 401.8 396.6 387 378.4 370.7 366.2 363.7 361.6 358.4 353.5 348.4 340.8 334.6 336.3 339.9 342.5 340.6 338.6 337.3 339 338.5 333.2 329.5 326.1 320.9 313.9 305.4 300.1 294.8 288.9 278.7 272.3 266.7 260.2 250.7 252.3 235.7 235.6 244.8 252.8 258 260 266.6 268.4 271 276.1 279.4 281.8 285.4 286.9 292.9 308.1 317 323.9 330 336.7 344.1 346.2 345 340.8 333.7 329.6 328.1 330 331.2 331.5 331 331.6 332.6 329.9 329 327.5 324.2 317.5 312.1 307.7 304.5 303.4 300.9 298.8 295 288.8 282.6 280.3 279.7 279.1 278.6 280.6 280.7 277.3 274.2 271.4 272.8 273.5 274.4 277 273.9 269.8 269.8 270.7 267 264.7 252.9 225.6 226.2 232.2 231.4 225.6 236.3 230.8 231.2 231.6 232.8 232.4 227.8 224.5 219 214 215.5 219.6 220.5 219.2 217.1 211.1 205.7 197.7 196.7 191.4 188.7 187.3 186.8 189.9 188.8 190.3 190.8 189.5 184.9 182.4 179.2 183.7 185.8 187 184.6 185
196.4 193.8 193.9 195.1 199.2 200.8 202.5 203.8 206 208.3 211.5 212.6 212 211.6 210.3 208.4 205.6 201.7 199 200.6 203 217.6 231 238.4 243 248.7 254.7 259 270.9 273.7 287.1 299.7 311 324.9 334.1 339.6 344.3 348.2 350.9 354.6 357.4 359.6 363.5 368 372.2 374.2 376.7 380.8 383.2 385.3 384.9 387.4 393.7 401.9 404.9 402.3 398.7 390.8 383.8 376.3 366.8 362.9 361.4 360.1 355.8 350.7 345.9 338 331.8 333.2 337 340.5 339.6 337.7 333.7 335.8 336.6 331.8 328.6 324.1 318.1 310.7 304.5 297.5 291.5 286.7 278.7 272.6 269.2 262 258.5 252.5 238.4 233.1 240.1 248 254.2 257.8 262 265 268.6 274.2 278.3 278.2 282 288.2 297.5 309 318.6 324.6 330.1 336.2 341.4 343 342.4 339.3 332.1 327.3 324.3 325.4 325.8 325.8 325.1 323.7 325 322.7 321.5 321.8 319.6 315.5 312.4 307.7 306.8 307.9 305.7 302.9 297.8 293.6 287.6 280.6 279.4 279.2 278.8 278.7 279.9 278.8 275.4 275.1 275.5 274.8 278.2 278.6 273.8 270.5 272.1 272.5 266.2 264.2 254.8 245 221.9 220.6 234.6 224.8 233.4 234.6 230.6 227.4 229.6 230.6 226.5 220.8 218.7 214.1 218.1 220.9 221.2 219.3 216.2 212.6 207.9 201.3 195.6 193.6 191.8 188.9 188.5 190.5 190.3 190.1 191 187.7 185.3 183.7 182.3 183.3 183.8 183.7 184.6 184.9
195.3 193.7 193 194.2 197.5 199.6 200.7 202.1 203.9 205.8 208.1 209 208.8 208 207.2 205.4 202.3 198.7 199.9 201.5 203.3 211.6 222.6 229.5 236.5 244.5 245.3 261.8 273.2 281.2 292 300.4 309.9 323.1 331.9 336.7 340.8 345 349.4 352.4 354.8 357.6 360.9 364.6 368.4 369.1 373.6 376.7 379.3 380.6 380.6 383.1 390.3 398.6 400.9 398.2 391.1 385.4 379.8 371.8 366.1 362.9 357 353.8 349.9 345.7 340.2 334.1 329.6 331.6 335.5 339.9 339 336 333.7 333.8 334 330.1 326.4 321.1 315.3 308.2 303.5 297.9 291.9 285.6 283.8 279.6 273.6 265.3 258.3 247.3 235.9 233.4 236.8 242 246.9 255.5 262 263.6 266.9 268.8 275.2 277.5 281.8 290.3 297.2 307.1 317.8 324.9 330.2 334.7 338.1 339 339.2 336.4 330.8 324.9 321.2 320.9 320.7 319.6 318.7 317 315.9 316.7 315.1 313 314.3 312.5 310.4 307.7 308.1 312.9 313.7 308.5 302.7 297.4 292.6 286.3 280.1 279.3 278.8 278.6 278.6 278.3 278 279.2 280 279.3 281.3 278.8 273.9 269.2 273.2 270.9 266.9 265 260 249.8 232.4 216.8 217.8 222.8 217.9 231 229.1 223.2 227.5 226.4 224.6 218.8 214.6 212.9 219.1 221.2 221.3 219.4 215.8 210.1 207.5 202.1 195.6 194.9 192.7 191 193.9 191.8 188 186.8 186.6 187.5 187.9 186.5 182.1 185.7 185.2 183.5 185.5 186
194.8 193.1 192.9 193.7 197.2 199.4 200.1 201.2 202.7 204.4 206.6 207.8 207.9 205.9 203.2 201.3 198.2 198.1 198 201.3 204.3 206.8 215 220.7 229.5 241.7 254.9 262.2 268.3 280.4 291.9 300.5 308.8 319.8 327.5 333.5 337.2 340.9 344.6 349.1 353.1 355.6 358.5 361.4 365.4 369.2 370.9 372.1 374.7 376.1 375.2 377.8 382.5 389 393.3 391.9 386.6 381.9 376.3 368.5 363.8 360.1 352.1 348.6 345.2 341.1 335.1 329.8 328.5 331.4 335.4 338.4 337.7 335.5 333 330.6 330.6 327.3 323.5 317.9 310.2 304.3 299.7 295.9 290.3 287.4 283.2 279.4 272.4 260.3 249.9 241.1 234.5 231.3 235.4 247.3 248.8 254.4 260.6 265.5 269 272.5 277.8 278.9 283.7 289.7 296.8 305.9 314.6 323.7 328.6 332.5 334.8 335.2 335.5 333.3 328.2 322.9 318.9 316.8 316.1 314.5 312 310.4 309.7 308.7 308.5 306.5 306.1 306.4 306.1 305.6 305.9 307.9 308 305.6 301 299.5 296.3 289.9 281.1 279.5 279 278.9 278.6 279.8 281.4 283.9 286.2 284.6 280.4 278.3 272.2 268 269 268.7 267.6 267.1 267.7 265.2 247.1 229.8 219 211.9 213.4 225.4 224.8 222.3 223.9 223 220.8 215.3 208.9 213.2 219.3 221.8 221.7 218.2 214.4 205.6 203.2 197.4 195.6 195 189.8 193.2 192.8 189.7 186.3 186.1 188.3 189.6 188.6 186.5 183.2 185.1 186.1 186.4 185.9 187.4
194.1 192.3 192.5 194 197.3 199 199.5 200.4 201.7 203.6 206.5 207.9 207.4 203.3 199.4 196.1 196.4 197.3 200.1 205.6 218.8 224.3 214.3 219.2 227 236.2 246 255.3 269.6 283.8 291.9 299 307.3 315.4 324.7 329.8 333.6 337.4 340.9 345.9 350.6 350.6 357.1 360.8 364.7 367.4 368.3 366.4 367.1 370.9 368.9 373.7 377.1 383.1 387 387.2 382.4 378.1 372.9 367.3 364.1 357.7 350.1 346.5 342.8 337.7 334.5 331.3 327.9 331.7 333.4 336.1 335.7 334 331.3 324.8 327 323.9 320.4 314.5 308.4 301 297.6 294.7 290.4 286.5 282.1 277.8 273 263.7 252.3 245.5 244.6 229.9 234.9 250.7 251.4 252.4 260.5 263.4 265.8 271.4 277 279.1 283.2 289.6 296.5 304.8 314.3 321.9 327.2 330.2 331.5 331.8 332.3 329.7 326.6 320.5 317.1 313.9 311.5 309.5 306.7 305.5 304.6 303.7 302.6 301.2 301.4 302.2 303.3 302 302.1 301.8 300.7 300.1 299 299.5 296.5 290.9 282.1 279.9 279.8 280.7 281.4 282.9 286.8 289.8 290 285.7 278.8 274 270 266.5 261.9 266.1 266.8 267.4 267.8 266.4 254.1 240.4 237 222.4 208 214.1 221.1 217.1 220.5 219.9 217.7 209.4 207.7 217.3 220.5 219.5 220 216.6 212.9 203.9 199.9 194.6 194.7 193.9 194 192.3 190.8 187.2 186.6 186.6 188.4 187.6 187 186.3 183.6 185.5 186.6 188.7 189.1 188.4
192.5 191.5 191.9 194.3 197 198 197.9 199.7 200.8 203.2 206.4 206.4 202.5 198.4 195.2 193.3 196.8 199.2 207.5 216.9 207.3 212.9 221.4 226.5 230.2 227.5 236.7 248.5 259.4 273.5 287.1 297 304.6 314.3 323.7 328 331 335.6 338.5 346.1 349.8 351.1 356.4 360 363.3 365.7 366.4 363.7 356.8 362.7 362.8 367.8 371.9 377.4 380.2 380.4 377.8 373.2 368.9 363 357.2 351.7 347.1 343.8 340.3 336.1 331.9 329.1 326.5 331 331.4 333.3 332.8 331.9 329.5 325.4 321.6 320.8 317.6 312.3 306.7 300.7 296.2 294.2 290.6 287.1 282.6 276.7 271.2 263.7 254.7 243.4 237.6 229.6 231.4 243.7 252.5 253.2 259.4 261.5 263.1 267.7 274.8 278.8 284.7 290.5 297.3 306.5 316.9 321.9 325.8 329.2 329.5 329.7 328.8 327.6 323.7 319.1 314.7 311.7 309.4 305.5 304.5 303 301.9 300.2 299.1 297.6 296.6 298.2 300.1 299 297.9 296.9 296.2 296.3 298.1 299.7 296.7 291.5 283.3 282 283.6 284.8 287.1 292.8 295.1 294.3 292.3 288.1 278.4 270.7 267.7 263.8 258.3 261.6 264.1 264.6 265.4 262.4 253.7 242.1 230.1 230.4 219.7 205.6 210.3 209 217 216.4 214.3 207.4 209 217 219.6 218.5 217 214 210.3 199.6 195.4 189.9 192.5 190.1 188.1 187.5 186.6 186.7 187 188.1 186.9 185.7 185 184.2 183.8 185.7 187.6 189.4 191.7 196.8
191.8 191.1 190.7 193.4 195.6 196.3 196.7 198.8 199.3 201.1 204.2 198 195.3 194.3 193 198.1 202.9 208.5 224.4 228.4 220 222.1 224.7 237.5 237.5 245.6 249.5 250.6 254.7 261.4 271.6 284.4 300.4 302.4 322.2 325.6 328.7 334.8 340 345.9 351.4 355.1 357.4 359 361.5 363.4 364.1 363.2 354.3 355.6 359.9 363.5 366.9 372 375 375.3 372.1 367.4 363.2 358.4 352.8 348.3 345 340.8 337.6 333.1 328.4 326.7 326.1 329.4 330.7 326.9 330.2 329.8 326.2 322.3 316 317.7 315 309.9 304.5 298.5 293.9 292.4 289.1 285.1 279.9 273.2 263.9 254.2 250.4 241.7 230.3 227.8 234.3 242.3 249.4 251.6 254.2 258.1 260.7 266.7 274.8 279.8 285.5 289.3 297.1 304 314.4 321.4 325.1 327.4 328.6 328.8 327.4 324.8 322 319 313.1 310 307.4 305.4 302.6 301 299.9 298 296.4 294.9 294 295 296.5 296.3 294.8 293.3 292.5 292.7 296.4 301.4 296.1 291.8 286.3 286.4 290.2 293.4 298.1 300.8 298.6 297 292.8 283.5 275.8 268 262.4 258.3 251.6 254.9 260.1 260.7 260.4 256.4 248.8 240.1 234.3 226 224.3 215.3 203 202.1 207.5 212.9 211.1 202.9 211.8 215.2 217.2 214.8 213.6 210.2 207.1 196.9 191.6 188.8 189.9 188 187.6 187.5 187.2 187 186.3 187.8 186.5 185.1 185 184.4 184.4 185.9 188.3 188.5 191.8 199.5
191.9 190.9 190.2 191.8 194.1 194.7 194.5 194.5 193.7 193 192.9 191.9 192.1 193.6 196.7 204.3 216.9 226.8 236.3 238.4 224.3 235.5 232.4 249.1 260.3 257.7 259.1 270.5 273.1 289.7 291.9 302.9 310.4 316.7 322.4 325.8 330.2 335 339.6 346.1 351.4 354.6 356.3 357.2 359 360.4 361.3 360.5 356.3 350.9 354.4 356.7 356.6 360.9 368 369.5 367.4 363.3 360.2 357.1 352.8 347.5 341 337.5 334.7 331.2 327.6 327.1 322.7 328.7 330.2 329.4 324.8 326.3 323 319.4 316 314.4 312.3 306.9 302.9 298 294.1 290.2 288.6 282.5 277.1 272.2 265.2 256.7 249.7 242.6 229.1 226.3 236.6 240.6 248 249.7 251.3 254.6 257.9 266.1 276.7 282.8 289.2 295.4 302.1 307.7 313.7 320.9 325.1 326.6 326.8 326.5 326 323.2 321.3 318.8 313.9 309.8 306.5 304.1 301.9 299.1 297.8 295.8 294.6 293 292.2 292.2 294.2 293.8 292.9 290.9 289.7 290.3 294.6 296.7 294.9 293.7 292.5 295.7 298.8 302.8 304.1 303.1 301.2 297.9 287.4 280.2 273.7 268.2 257.2 248.8 241.5 250.1 255.5 256.1 254.6 249.4 244.3 239.7 234.8 224.8 221.4 218.1 210.8 203.8 197.5 203.2 208.2 204.2 208.5 211.4 211.9 210.1 207.9 205 201.2 196.5 188.9 188.6 189 187.6 187.9 187.4 187.2 187.2 186.6 186.9 186.6 185 184.6 183.6 185.3 188 188.3 188.7 195.2 202.6
191.2 190.3 189.6 190.4 192 192.7 191.2 190.3 190.4 191.5 193 193.1 193.4 195.5 206.6 217.9 227.4 237.5 241.1 245 229.9 250.7 246.7 246.7 267.1 274.3 271 288 290.7 291.3 301.2 306.1 311.7 316.3 320.4 324.4 329.7 334.6 339.4 344.8 350.1 352.8 354.1 354.4 355.3 357.6 358.5 357.3 354.4 348 346.6 347.5 348.7 351.2 357.6 362.8 362.6 359.5 357.5 354.5 350.7 346.7 342.4 338.8 336.2 332.7 330.2 329.1 325.1 327.6 328.6 328.4 325.5 320.5 320.3 317 314.4 310.9 308.9 305.6 301.4 296.3 293.7 288.7 285 280.3 275.3 269.3 261.5 254.3 246.1 241.7 229.9 225.6 231.5 239.5 243.7 243.9 250.1 252.6 258.1 270.4 279.5 284.1 292.4 297.7 304.4 309.4 314.5 320.2 323.9 325.6 326.5 326 324.5 322.4 321 319.9 316.4 310.9 306.2 303 299.8 297.8 296.2 294.8 292.7 291.4 290.5 290.1 290.8 291.4 291.2 289 288.8 289.6 290.5 293.7 297 299.9 301.8 305 308.8 305.1 303.6 304.4 295.8 288.6 281.6 277.5 272.2 264.5 257.7 246.9 242.1 243.6 250.6 251.1 249.5 244.7 239.5 236.2 233 229.1 218.7 214.7 212.9 212.5 204.8 196.6 198.4 203.9 205.2 206.9 206.4 203.8 201.1 198 195.4 194.1 189.9 188.2 188.4 188.5 188.9 188 187.4 186.7 186.8 186.2 186 184.7 185.3 188.2 188.1 186.8 186.8 190.8 197.3 208.3
190.4 189.6 188.7 188.9 190.4 189.7 189.3 189.7 189.2 192.1 194.9 209.7 207.2 217.2 226.7 233.4 237.2 241 244.6 250 246.3 247 260 257.4 264.4 277.8 286.8 294.8 299.1 300.7 302.8 304.6 309 314.5 318.2 323.2 329 334.6 338.8 342 347.3 350.6 351.8 351.7 352.3 355 355.3 354.3 352.3 350 346.5 345.2 351.2 348.5 348.4 354.3 356.3 356.3 354.7 352.2 349.1 345.7 342.8 339.9 337.1 333.5 329.8 326.8 321.2 326.9 327.8 326.5 323.4 319.3 314.6 313.7 311.4 309.4 304 301.2 298.4 294.4 290.4 286.3 281.6 275 271.6 266.7 260.2 253.1 241.9 235.7 231.5 225.5 228 232.7 238.1 245.3 251.7 255.8 262.7 273.9 284.1 290.6 293.8 301.3 306.6 309.9 314.3 319.3 323.2 325.6 326.4 326.6 324.3 322.4 322.2 320.7 317.5 312.3 305.9 303.1 298.8 296.7 294.9 293.9 291.1 290.5 289.4 289 288.2 289.2 288.9 287.3 289 292.4 295.5 299.1 304.3 308 309.9 310.3 304.1 301.9 297.9 292.2 287.5 282.1 278.9 275.7 270.1 262.8 256.4 248.1 233.7 239.7 245 246.3 244.4 239.6 234.7 232.7 230.1 227.2 220.7 213.1 209.8 210.9 209.2 196.7 194.8 202.5 200.4 200.4 200.3 197.4 194.4 193.4 190.9 190.8 190.1 189.7 189.8 188.2 188.3 188.4 188.7 188.6 188.7 186.7 186.4 186 185.3 185.2 185.4 185.6 186.5 191 197.3 212.2
