ncols 200
nrows 82
xllcorner 320000
yllcorner 342550
cellsize 50
179.3 196.1 212.7 234 261 295.9 319.4 340.4 362 370.3 375.9 380.9 384.9 389.1 392.5 396.2 399.7 399.1 398.2 391.4 370.6 340.1 309.9 286.7 265.9 254.1 247.5 267 292.3 311.4 306.3 282.4 257.7 232.2 210.9 200.5 196.4 200.6 212 223.7 239.2 259 287.6 310.7 345.9 387.8 417.6 425.6 440.6 452.8 456.5 461 462.9 464.3 468 470.3 474.1 478.7 487.6 489.5 490.8 492.2 492.1 491.6 490.7 490.8 491.6 491.6 489.5 486 480.9 477.2 475.9 472 466.7 459.6 452.8 450 448.4 447.5 446 443.9 442.4 441.4 439.8 437.5 434.1 431.5 428.8 426.2 423 419.3 415.7 411.9 406.9 408.4 407.3 404 401.8 399.5 396.6 393.8 390.9 388.4 384.7 380.6 376.2 372.5 369.6 365.4 358.8 354.7 351.4 344.7 341 339.3 337.2 333.8 331.1 327.4 325.1 321.8 315.2 307.7 302.4 284 296.6 300.7 297.4 291.3 284.2 279.2 275.9 273 266 257.6 252.8 250.9 256.4 258.8 259.1 256.3 257.2 253.9 251.5 249 246 244.2 242.8 239.6 236.5 236.7 236.5 236.2 235.7 235 232.1 224.7 221 217.3 215.5 212 208.6 205.2 203.2 202.9 200.3 197.5 194.2 190.4 187.8 185.1 181.6 179.9 179.6 177.4 175.7 175.8 176.6 175.7 176 176.1 177.6 179.2 177.9 177.2 173.1 171.3 167.1 162.1 159.5 153.8 152.2 152.6 152.8 146.8 143.4 136.3 133.2 129.3
177.4 187 201.7 223.6 246.8 273.9 298.8 323.1 344.3 357.1 362.5 367.4 372 376.6 380 384 388.1 391.3 391.6 384.8 371.5 340.8 312.5 283.8 262.1 250.3 241 256.9 279.2 303.2 303.9 277.4 251.1 224.9 197.7 195.2 199.8 207.3 219.2 229.8 245.6 262.2 288 318.7 353.6 399.7 441.7 446.3 452 458.1 463.3 466.7 467.6 468.2 471.4 474.5 479 486.2 491.2 493.7 495.4 495.9 495.8 495.6 495.3 496.9 496.3 494.4 490.4 484.8 479.9 476.5 474.2 470 463.5 456 452.4 450 448.2 447.3 446.1 444.3 442.4 440.7 438.9 437.2 434.1 430.9 427.7 424.8 421.5 418.3 414.6 411.2 406.7 403.8 403.2 400.6 398.6 396.3 393.9 391.6 388.9 386.2 383.3 379.5 376 372.6 369.3 365.4 361.3 357 352.6 345.4 342.3 340.9 337.7 333.1 331.1 326.5 322.2 317 311.9 305.7 300.9 289.9 292.4 301.3 294.5 287.5 284.3 282.6 277.4 275.4 275.2 267.3 258.6 246.6 248.1 256.6 258.4 254.1 253.3 252.2 249.3 248.1 247.2 244.7 241.3 238.2 238.8 238.4 237.2 235.7 234.8 235.3 232.9 227.2 222.4 218.6 215.5 212.2 209.2 205.8 202.6 201.5 199.3 197.4 195.1 192.9 187.5 184.8 182.1 181.3 179.7 177.1 175.5 176.7 176.7 175.7 175.3 176 176 178.5 176.8 175.8 172.5 169.6 165.7 160.2 154.8 152.8 152 150.8 150.8 148.2 143.3 135.7 130.1 129
174.8 182.3 193.8 212.5 233.5 257.3 285 306.9 326 339.5 347.8 352.9 358.8 364.1 367.8 371.8 375.4 378.1 376.2 368.8 357.6 335.5 310.3 283.5 261.7 248.6 236.4 243.4 265.2 289.8 301.8 271.6 243.8 219.8 194 193.7 200.5 213.2 226.2 237 247.8 267.5 296.1 325.2 359.2 398.5 438.8 454.2 458.6 465 469.1 470.2 470.8 472.1 475.5 478.6 483.6 491.2 493.7 495.9 497.8 499 500.5 500.8 501.3 501.5 498.4 494 489.4 484.3 479.9 476.5 472.1 466.9 459.3 453.3 451.7 450.4 448.2 446.1 444.6 444.6 442.8 440.9 439 436.2 432.8 429.4 426 422.8 418.9 415.5 412.9 409.1 405.8 402.5 399.4 398.8 395.8 393 390.5 388 385.5 383.1 380.3 377.4 375.1 372.2 369 365.2 361.4 357.1 351.4 346 341.8 338.5 335.7 332.8 330.9 327 322 316.1 312.2 305.9 291.2 282.4 295.3 296.5 288 283.9 282.5 279.3 278.5 279.4 274.7 264.4 256.5 253.4 244 254.2 255.6 250 247.6 246.3 242.3 245.1 246 244.5 241.3 237.8 237.1 239.8 237.1 235.8 234.8 234.5 232.9 225 220.3 217.3 214.8 211.7 208.4 206.2 203.6 199.8 199 197.8 195.5 192.7 187.4 184.7 182.6 181.2 179.7 177.6 174.6 174.6 175 175.1 174.2 175.1 176 176.5 176.8 176.5 173.3 168.4 163.1 158.9 153.8 153.2 152 150.8 150.9 148.3 141.2 135.2 131.3 128.8
177.5 176.3 185.5 201 219.6 241.1 264.8 291.7 310.1 325.7 333.8 337.1 342.4 348.2 352.1 356.1 359.3 361.4 360.7 353.5 340.4 325 305.6 283.1 265 250.1 236.2 228 247.1 265.6 276.9 259 233.9 212.1 190.2 191.9 202.7 220.4 233.9 242.8 256.8 276.6 304.8 333.4 368.2 403.3 445.9 459.1 464.4 470.6 472.4 472.5 473.6 475.2 477.5 481.9 490.4 493 494.7 497.7 499.5 502.1 504.3 506.4 506 502.4 498.5 493.5 488.1 483.7 481.5 476 470.3 463.3 454.9 450.6 449.6 448.5 446.9 444.6 443.1 443 442.6 440.6 438.5 434.9 431.3 428 424.6 421.9 418.5 414.4 410.1 407.1 404.3 401.4 397.4 394.6 390.1 389.2 386.8 384.3 381.5 379.6 377.3 374.7 372.9 370.8 367.2 363.5 360.1 352.9 347.6 343.8 340.9 336.2 332.6 331.2 329.5 326.2 321.9 317.3 311.5 305.2 279.7 287 297.9 299.3 290.3 284 281.2 279.3 279.4 278.1 272.1 263.1 256.1 252.3 248.3 242.5 251.7 248.6 243.4 242.9 240.6 242.4 243.2 243.7 241.9 238.2 235.1 235.4 234.8 235.1 234.6 233.4 229.8 223.7 219.7 216.7 214.3 211.2 208.4 206 204.2 202.2 200.7 198.5 194.5 191.7 186.5 183.7 181.4 180.9 179.2 176.8 175 173.4 173.7 175 173.2 173.9 176.3 174.9 175.2 174.5 171.9 167 163.5 157.9 154 153.6 152.3 151.3 149.2 147.5 142.5 134.7 126.6 128
183.8 170.3 174.9 190.6 207.8 224.8 247.8 276.2 295.6 313.7 322 319.2 319 323.7 328.7 334.2 338.7 339.9 337.7 333.6 326.9 318.1 307.1 283.9 266.7 252.6 238 220.6 230.1 246.2 254.8 246.8 222.9 199.5 188.6 193.8 204.3 227.7 242.8 252.4 264.5 290.3 311.8 345.6 377.8 417.2 454.5 462.3 471 473.6 473.1 472.5 473.3 474.9 477.7 482.2 490.3 491.8 493.9 497.6 501.1 505 508.7 509.5 507.5 502 496.7 491.9 486.8 484.1 479.9 472.8 466.5 458.7 451.6 449.2 447.9 445.8 444.3 442.8 441.4 441.9 442.5 440.2 437.2 433.6 430.5 426.5 423.4 420.3 417.8 413.4 408.9 405.6 402.8 399.9 396.4 393 389.8 383.6 383 380.5 377.7 375.7 374 371.9 369.6 367.5 365.2 362.4 357.2 352.9 346.1 342.4 338.7 335.9 333.3 330.3 326.9 323.9 320.8 316.9 310.3 294 275.7 289.1 299.4 299.7 290.6 283.6 280.9 276 276.8 273.6 264.3 259.9 254.8 250.3 248.3 240.7 241.6 238.8 236.7 233.7 240.1 245.2 241.3 240.9 240.3 239.5 236.8 234 232.8 232.2 231.6 230.5 227.4 223.8 218.4 215.2 213 211 208.7 206.5 203.7 201.7 201 198.2 194 190.7 185.8 183 181.4 179 178.9 177.4 175.4 172.6 172 173 172.4 173.8 174.6 175.3 175.3 171.3 169.2 166.6 160.9 158.3 156.1 152.7 152.7 151.8 149.2 146.5 134.7 132.3 127.4 127.8
189.1 178.8 167.5 181 193.3 211.6 230.9 254.6 278.4 299.7 308.1 303.1 297 299 302.8 307 309.5 310.9 311 308.1 303.9 300.5 296.5 286.4 266.1 252.5 240.8 226.2 215.1 225.3 230.6 231.6 214.4 190.2 190.3 197 208.5 228 243.5 254.2 271.5 293.9 318.9 360.2 394.7 427.5 457.1 463.7 473.2 473.8 472.6 471.2 471.3 472.6 476.2 482.5 488.6 489.8 492.8 497.1 500.9 504.4 510.8 510.2 505.5 500.3 494.6 489.7 486.3 481.3 475 469.1 463.5 455.8 448.1 446.4 444.1 444.2 441.6 439.8 438.3 441.1 442.2 439.6 436 432.2 429.5 425.1 421.8 418.7 415.9 411.5 407.8 404.2 400.8 397.5 394.3 391.2 383.3 377 375.2 376.2 373.9 371 369.4 368.1 366.3 364.2 362.2 359.7 356.5 351.8 347.1 341.8 336.7 334.4 331.9 326.3 323.3 319.9 318.1 314.2 301.2 280.2 274.4 293.2 302.8 297.9 294.6 283 273.2 271.6 268.5 264.4 260.3 257.5 255 252.4 250.1 247.9 245.9 247.1 244.1 232.4 237.7 242 242.1 238.2 238.3 237.8 237.6 234.8 232.8 232 230.3 229.4 225.9 222.2 218.7 215 211.2 210.3 208.5 205.6 202.6 201.3 200.4 198.3 193.7 189.3 185.7 182.1 180.5 178.4 177.3 176 174.7 170.7 170.9 171.9 172.3 173.6 174.9 175.7 175.5 171.4 168.7 167.6 160.5 157.8 156 153.9 152.7 149.4 146.2 138.7 134 132.4 129.4 130.2
194.9 183.4 169.3 171.1 183.5 196.7 215.6 240 262.5 281.3 295.9 286.8 275.7 275 277.5 278.2 280.8 281.7 283.4 281.1 278.8 278.2 282.7 283.2 268.1 251.3 241.7 227.4 215.8 204.2 209.7 216.5 198.3 186.6 190.7 199.3 213.6 232.6 241.6 252.2 268.1 293.2 323.6 364 421.9 448.9 453.7 459.3 468.4 471.8 470 468 468.2 469.7 473.5 481 486.1 487.2 490.9 495.2 499.2 504.1 510.9 509.3 503.2 497.7 492.3 487.3 484.8 480.6 471.3 466.6 460.8 453.5 446.9 444.4 443.2 443.5 438.1 435.3 434 436.9 440.7 438.3 434.4 430.5 427.8 423 419.7 416.4 412.9 409.3 405.3 401.6 398.4 395.1 392 388.8 385.3 379.8 366.3 368 369 366 364.2 362.9 361.5 359.7 357.9 356.8 354.2 349.6 345.6 340.9 336.2 333.3 330.3 326 321.4 316 314.8 311.3 292.6 275.5 283.3 297.8 308.4 300.5 296.5 282.1 273.5 271.3 266.2 265.7 261.7 256.4 253.4 250.9 249.3 247.3 245.5 245.4 243.5 238.5 227.9 240.5 240 237.4 236.7 237 237.5 234.3 232.8 232 231.3 229.9 226.3 220.6 216.9 213.5 210.9 208.4 207.2 205.6 202.6 200.6 199 197.7 193.7 189.6 185 181.7 180.1 179.2 178 175.8 173.8 172.3 170.3 170.1 170.8 174.3 175.5 176.3 174.8 173.7 169.9 165.1 160.5 158.5 154.5 152.4 150.3 149.9 147.4 142.3 134.9 131.6 130.9 132.1
201.2 187.4 176.8 165.5 173.8 188 204.6 221.8 245.5 265.5 279.5 277.9 265.2 257 252.5 250.9 252.5 255.5 258 255.7 253.2 256.8 262 268.3 266.3 252.3 242.3 231.1 218.5 208 198.1 194.6 186 186 193.1 202.9 216.5 227.7 235.4 246 262.5 287.5 315.4 349.8 388.5 420.7 441.5 447.3 456.5 463.5 466.3 464.6 464.8 466.9 470.4 477.7 482.4 485 488.6 492.9 496.4 501 509.6 507.5 501.2 495.8 490.4 485.8 481.9 477.2 471.4 464.6 457.9 450.9 446.9 444.8 443.5 442.8 439.5 435.7 431.1 430.6 430.6 431.5 430.9 427.6 424 420.2 416.9 413.5 410 406.4 402.2 399 395.9 392.6 389.1 385.6 381.9 377.7 366.7 362.2 362.4 361 357.9 356.3 356.3 354.9 353.4 352.4 350.7 346.9 342.9 338.7 333.9 330.5 329.3 327.4 323.3 318.5 313.5 304.5 285.2 272.9 283.9 298.3 310.3 307.1 303.9 289.6 278.5 270.4 266.8 269.6 265.8 255.6 252.7 250.3 248.9 248.5 247.7 244.8 242.2 236.6 230.9 242.1 239.1 236.9 233.4 233.1 234.6 233.8 232.3 231.2 229.7 229.4 227.4 220.9 216.6 211.3 208.4 207.8 207.2 205.7 203.4 200.4 197.3 196.1 193.4 188.9 185.4 181.5 180.2 179.3 177.8 176.7 174.6 174.6 172.1 168.3 170.3 174.3 176.3 176.1 175.6 173.9 169.1 165 162.4 159.1 153.3 154.4 151.4 150.1 146.2 141.6 133.4 129.8 130.2 133
209.3 194.4 179.3 166.4 163.7 174.4 190.2 208.3 229.2 249.6 261.5 261 254.5 248.9 243.4 233.3 231.3 233.6 236 236.4 237.1 239 242 249.4 257 259.6 244.1 235 222.9 208.3 197.4 188.6 183.1 187.3 194.6 202.7 213.8 220.4 227.8 239.2 259.1 277.9 300.5 333 362.1 391.9 413.7 432.6 440.7 450.8 459.4 458.8 460 461.8 466.1 472 477.8 481.7 485.9 490.7 493 497.3 506.4 505.4 499.3 493.8 488.7 484 479.9 475 468.6 461 456.5 451.2 449.1 449.2 447.9 447 444.5 439.1 436.4 430.4 426 423 419.2 421.7 420.2 417.2 412.4 409.2 406.1 403 399.3 396.3 393.4 390.3 386.4 382.5 377.9 373.7 366.1 358 356.3 355.4 352 349.3 349.8 349.6 348.7 347.9 346 342.6 339.9 335.7 331.9 328.7 327.2 325.5 322.5 318.4 314.3 301.6 282.5 272 284.8 299.6 309.2 310.3 307.9 296.8 282 277.8 278 272.6 267.1 255.8 252.6 249.7 249.7 249.8 248.8 244.1 240.9 222.8 238.1 242.4 239.3 233.5 229.4 229.6 232 233.2 230.7 229.6 229 228.5 227.6 221.3 216.4 211.6 207.2 206 206.3 206.2 205.3 202.6 197.5 194.3 192.3 189.2 185.5 181.8 180.5 179.6 177.7 176.9 175.7 172.7 170.8 167.5 171.2 173.3 175.6 175.5 175.5 170.8 170.2 164.2 163.6 158.8 155.9 153.6 152.7 150.6 147.1 139.4 133.9 126.9 129.8 130.7
223.8 203.7 183.6 172.3 160.5 162.5 179 196.1 219.1 236.5 244.3 246.2 243.7 236.3 226.3 220.7 214.7 214.5 216.3 216.9 220.2 223.6 222 230.3 238.5 248.7 251.8 237.7 227.8 213.1 195.6 180.6 183.7 190.3 195.7 202.4 208.7 215.9 225.3 233.8 243.8 268.2 284.7 312 339 362.2 384.2 408.7 422.9 435 440.5 444.2 453.1 455.7 461 466 475.4 480 483.3 488 491.2 494.4 500.6 503 497.4 492.7 487.5 483.2 479.4 474.1 468 462.2 456 455.1 455.8 459 456.2 452 446.4 445.8 444.7 441.5 436.7 431.6 425.3 414.1 414.9 413.1 408.7 405 401.9 398.8 395.4 392.4 389.8 386.7 383.3 378.5 373.2 368.1 364.1 358.1 354 345.6 339.4 344.2 343 342.8 342.7 342.1 341.8 339.1 335.3 331.3 328.5 326.6 325.2 324 320.8 316.7 312.2 291.7 281.1 269.2 286.6 296.6 308 306.4 304.3 301.3 292.9 287.7 284.7 273.4 267 258.1 251.9 250.8 252 253.1 249 244.5 243.9 223.4 219.6 229.5 235.9 232.9 230.8 228.9 229.1 230.1 228 228.3 229.3 228.5 228.4 219.9 215 210.3 205.8 204.6 203.6 204 202 202.3 196.7 193.7 190.5 188.3 185 183 180.9 179.2 178.2 176.2 175.2 174.4 169.5 168.4 171.8 173.5 175.7 175.9 175.7 171.2 166.5 165.9 163.9 161.7 158.4 155.4 153.5 149.9 145.6 139.6 132.5 127.3 126.5 128.4
229.7 210.2 191.1 176.9 166.9 159 167.3 189.1 206.6 218.6 224.9 225.9 223.8 217.8 212 206.1 202.5 199.6 197.8 196.1 193.5 197.2 198 201.3 212.1 225.5 230.8 236.1 236.4 222.7 197.5 180.3 184.5 191.2 198.1 205.6 212.3 219.1 227.5 234.5 246.1 263.2 274.7 292.8 313.6 333.7 352.5 377 400.7 412.1 417.3 426.2 436.9 450.3 458.5 464.9 474.2 477.7 481.5 484.8 487.7 492.4 498.2 500.9 496.1 492.4 489.1 486.2 480.9 475.2 470.8 466.2 464.4 465.4 466 461.5 458.3 455.1 451.8 449.9 446.7 442.4 437.7 432.5 427.6 420.8 409.9 408.7 405.5 401.3 398.4 394.6 390.8 388.5 385.6 382.2 379.1 374.1 368.8 363.1 359.1 353.7 350.8 345.3 332.9 336.4 335.8 336.7 334.9 335.8 336 334.4 332.9 329 325.9 323.9 322 321 318.5 311.5 296.9 288.5 274.2 269.4 283.9 296.2 305.8 305.5 301.8 300.1 297.8 297.2 287 275.2 265.5 259.9 254.8 252.6 253.6 253.9 249.6 245.1 245.8 245 239.6 224.7 215.4 224.2 213.9 215.3 217.7 227.2 226.2 224.8 227.8 228.6 228.4 219.3 213.9 208.3 205.5 203.5 202.4 201.6 201.5 200.5 197.4 194 190.5 186.6 185 183.9 181.5 179.6 176.3 176.6 174.9 172 168.6 168.6 171.8 174 176.4 175.4 175 174.1 168.3 166.8 163.5 161.1 158 156.3 152.6 149.6 145.6 141.3 130.7 124.7 123.7 125.5
232.3 213.1 198.2 184 171.8 158.4 157.2 179.3 193.3 198.8 202 202.1 201.8 198.4 193.7 191.2 186.7 184.1 175.5 171.9 171.7 174.6 174.4 175.5 177.1 183.9 195.7 210.5 220.4 219.9 191.7 178.8 186.8 193.2 202.3 209.7 216.9 223.7 232.8 241 259.1 272.7 283.8 299 318.6 338.8 365 385.6 400.6 414 429.8 443.4 455.2 458 463.3 469.1 475.7 477.8 479.7 483.8 487.1 492.1 496.8 501.5 498.5 494.3 491.7 488.1 484.5 481.6 481.2 478.4 476.4 472.1 468 465.4 461.8 458.8 455.4 452.6 447.5 442.4 437.7 432.7 427.8 422.9 415.7 410.8 404.2 402.7 397.9 392.9 387.6 383.5 379.9 377.1 371.4 367.5 360.9 356.2 352.4 347.8 345.1 340.5 332.9 328.9 327.5 329.3 329.1 328.6 328.8 329.1 327.9 326.5 323.4 321.1 318.7 316.8 315 301.6 294.5 282.1 269.5 275.3 294.4 301.5 307.8 305.9 301 298.3 296.1 295.1 289.7 278.9 273.9 261.9 255.7 252.2 248.9 248.8 247.7 242.6 242.7 243.1 241.4 237.3 233.4 226.1 230.1 229.2 225.3 208.2 222.6 217.9 221.9 225.7 227 221 214.5 208.3 204.6 204 204.6 201.1 201 198.1 194.5 192.5 189.6 187.3 186 182.8 182.8 183 176.3 176.8 175.4 169.3 168.6 170.6 172.5 174.6 176.7 176 174.7 174.2 168.8 165.9 163.3 160.8 158.9 156.9 153.3 149.6 145.8 142.2 133.9 123.2 123.4 127.1
245.6 226.5 205.6 189.9 178.3 166.6 152.7 168.9 181.5 186.2 188.4 188.6 187.4 183.4 180.7 175.1 170.3 155.1 156.5 158.7 159.4 160.9 163.8 167.9 173.6 166.8 169.9 174.8 187.1 182.6 175.6 177.9 189.1 195.8 204.8 212.2 222 230.9 241.5 255.2 273.6 289.1 304.4 325.2 347.8 378.7 397.5 415.3 426 439.1 448.7 457.1 458.1 460 464.4 472.3 475.2 476.3 478.2 482.3 486.9 490.8 500.3 504.2 500.4 496.6 495.4 492.4 491.7 493.2 489.3 486.8 481.5 476.1 472.6 470.6 466.8 464 459.6 454.6 448.3 443.1 438.1 433.3 428.4 423.5 418.7 413.9 409.1 404.7 400.5 396.3 392.3 388.1 384.2 378.1 370.1 366.9 361.9 354.6 345.8 338.6 337 334.1 331.5 326.2 320.5 321.9 322.7 321.5 322.4 323 321.9 320.9 320.5 318.1 315.8 313.5 312.7 298 290.7 275.4 267.3 286.9 299.3 310.7 309.5 306.7 302.1 297.7 294.5 292.7 289.1 277.5 275.4 263.3 257.8 253.2 248.9 245.1 242.5 241.5 238.4 237.9 237.1 237.6 235.2 233 233.3 231.1 228.9 216.7 202.9 198.4 200.1 212 223.2 221.1 214.8 208.4 205.2 202.5 202.6 201.7 199.2 197 195.6 194.6 191.2 187.8 186.4 183.7 183.3 183.7 177 176.8 173.8 167.2 167.2 172.2 172.2 174.5 175.9 176.3 174.3 171.6 168.6 165.8 163.7 160.5 158.5 155.7 153.4 149.2 145.8 141.8 134.9 123.4 122.8 125.9
254 233.8 211.9 194 181.8 169.4 155.1 155.4 167.4 176.2 181.4 180.4 172 166.1 162.1 160.7 155.1 155 161.4 164.2 166.5 169.6 172.9 175.1 179.8 182.5 177.5 175.5 173.2 178.2 183.4 182.2 186.8 196.9 207.3 217.2 226.9 238.1 252.4 272.2 291.8 312.1 332.9 353.5 386.3 413.8 429 438.8 448.5 452.4 455.3 456.6 457.8 460.7 464.4 471.5 472.9 472.5 476.2 480.7 485.2 489.3 498.9 502.3 500.4 500.8 498.2 496.9 501.4 499.8 495.9 489.9 486 481.6 477.3 474.9 472.1 468.1 463.3 457 450.3 444.2 439.1 434.1 429.2 424.5 419.6 414.8 410 405.3 401 396.7 393.1 389.8 385.8 381.9 376.7 372.4 367.7 361.8 354.4 347 341.2 334 329.3 320.9 317.6 314.7 309.7 315.5 315.8 316.3 315.9 316.3 316.9 314.3 311.8 309.8 310 293.5 286.8 272.5 263.6 285.2 299.6 310.9 311.3 306.3 301.5 298 295.8 293.9 290.2 279.6 269.8 265.2 258.6 252.5 249.4 244.6 238.7 238.7 237.9 238 236.5 236.1 236.5 233.5 232.9 230.9 229.5 227 225 221.7 206.5 198.7 204.7 215.2 210 206.7 205.5 201.8 200.8 199.1 196.5 195.8 194.6 193.3 191 188.5 186.1 184.3 183.9 183.9 177.1 176.3 175.9 168.3 165 171.7 173.7 173.7 174.8 176.5 173.5 171 168.5 165.9 163 160.5 157.9 155.2 152.2 149.9 146 141.8 133.9 124.5 122.8 126.5
261.5 240.2 221.8 202.3 187.2 175.9 164.7 149.5 155.3 167 171.7 165.4 161.3 152.1 152.4 153 153.5 162.4 166.6 170.4 175.3 179.4 183.8 185.6 187 189.3 191.9 192.3 190 190.2 189.9 188.3 188.5 198.9 212.3 222.8 232.9 244.9 262.8 287.8 313.6 341.6 365.6 396.8 417.7 433.4 440.7 449.4 455.5 456.7 455.9 456.4 457.8 460 463.3 469.8 469.7 470 473 478.3 483.1 487 497.2 499.4 500 500.8 498.6 504.1 504.2 502.2 499.1 493 489.1 487.6 484.2 479.5 476.8 472.4 467.3 459 452.1 446.2 440.1 435.1 430.1 424.9 419.7 414.7 409.8 404.9 401.1 397.2 393 389.8 386.1 381.5 376.8 372.4 367.8 362.6 356.3 349.1 343.8 338.5 334.1 330.2 327.3 320.8 314.2 307.1 306 307.6 309.9 310.6 310.8 309.1 306.2 304.2 301.3 288.3 276.7 267 258.6 282.7 301.7 312.7 311.2 306.3 302.4 298.9 297 295.6 289.5 280.6 273.6 270.4 264.2 254.3 250.8 243.6 237.7 234.9 234.6 234.2 235 234.3 233.2 233.2 231.5 229.1 230 227.3 224.7 220 216.5 213.2 202.9 196.4 207 205.9 205.9 201.9 199.1 199 196.3 194.3 193.1 190.7 190 187.2 186.3 185.1 184.5 184.9 177.1 174.8 171.8 171.4 163.3 168.4 170.9 173.1 175.8 175 172.8 170.5 166.8 165.1 162 159 156.7 154 151.9 149.1 145.5 141 133.5 124.4 122.8 124.8
266 250.1 233 216.1 201.4 188.6 173 154.8 146.1 155 157 153.7 151 149.2 149.8 157.1 165.1 170 176.2 181.4 188.8 195 194.6 193.2 193.9 196 197.3 198.3 199.8 200.2 199.1 190.4 198.7 208.9 217.3 225.2 238.2 253.1 276.2 302.7 333.2 363.2 400.7 426.1 433.8 438.2 445.4 455.2 459 457.8 455.8 455.4 456.7 459.5 462 467.4 466.8 467.5 471.2 475.4 479.6 483.7 493.8 496.2 496.1 498.7 496.6 502.6 503.7 502.7 499.5 495.6 493.1 492.1 489.1 485.4 480.3 475.3 469.1 460.9 454 447.1 440.5 435.3 430 424.8 420 414.7 409.3 404.2 400.3 396.5 392.6 389.1 384.8 380.6 376.4 372 367.2 362 356.7 350.5 344.9 339.2 334.8 330.8 328 326.1 317.9 312.5 306.4 303.7 294.5 297.1 303.1 301.9 300.2 297.8 291.2 279 270.7 261.2 255.6 275.7 292.4 304.7 308.6 306.4 303.3 300.8 297.1 294.8 290.3 283.7 276.2 273.3 265.3 255.7 251.5 243.5 236.4 233.6 235.5 231.9 233.1 235.1 234.9 233.7 230 226.5 228.1 226.3 223.1 217.7 215.1 213.4 210.4 194.7 200 205 204.3 200.6 197.3 196.8 195.9 194.2 192.3 191.4 190.2 187.2 186.1 184.3 181.8 183.2 176.9 175 171.6 169.8 164.1 166.3 166.8 170.2 173.8 173.8 172.1 169.8 164.5 162.9 160.6 158.3 156.1 154.1 151.9 148.2 144.5 141.9 132.8 124.5 122.8 123.5
269.6 255.7 237.5 222.3 205.6 191.1 176.9 157.9 147.7 147.4 145.2 145 151.5 158.4 161.5 167.8 173 181.6 191 197.1 206 211.1 210.4 206.9 204.1 202.6 202.1 203.1 203.4 203.2 202.4 193.5 201.6 209.1 215.2 224.9 240.1 264.7 286.1 313.2 350.5 388.3 417.2 432.5 434.8 438.8 448.3 457 458 456.5 454.2 453.5 455.2 457.4 460.4 464.4 463.6 463.6 467.8 472.1 476.1 479.2 489.4 492.9 493.2 494.5 494.3 501.3 503 501.9 500.3 499.1 497.5 496.4 493.5 487.5 482.3 476.6 470 463.3 455.6 448.3 440 435 429.8 424.2 419.5 414.9 408.8 403.4 399.5 395.5 391.1 387.8 382.9 379.4 375.4 371.1 366.5 361.5 356 349.7 344.2 339 333.5 327.9 319.4 315.4 311.1 308.6 302.6 296.7 295.1 286.7 288.1 296.4 294.3 293.1 291.1 282.2 274.9 260.9 254.3 270.7 286.9 300 307.6 307.2 303.2 300.3 297 291.9 287 283.4 277.3 271.3 260.7 252.2 248.7 243.2 235.7 231.2 231 230.9 232.4 232.7 233.6 232.3 229.9 225.7 225.8 223.6 221.8 217 213 209.6 205.4 200.5 191.8 201.4 201.5 199.3 196.4 195.4 194 193.3 190.5 190.3 190 186.6 185 183 180.8 182 176.3 175 174 172 169 165.6 160.2 169.2 172.9 173.7 170.5 167.7 163.9 161.8 160.3 158.5 156 154 151.6 147.9 145.5 142.4 134 126.4 122.8 121.7
262.7 249.1 230.2 214 194.8 181 170.8 158.2 146.7 142.4 145.2 156.2 160.8 165.8 169.7 178.3 188.7 201.4 212.4 222.6 228.2 233.2 230.2 223.6 215.8 211.2 211 210.4 208.6 207.5 205.8 197.4 198.1 206.3 214.1 225.1 240.7 269.1 291.6 323.6 363 412 430.7 432.9 435.5 439.8 453.1 458.2 457.3 454.7 451.9 451.3 452.5 455.4 458.7 460.8 459.4 460.9 463.6 467.8 470.5 475.8 484.8 488.2 488.7 491.1 490.5 497.8 503.1 502.6 501.1 500.9 501 500.1 495.8 489 482.1 476.1 469.7 463.2 456.2 448.4 439.7 434.1 428.1 423 419 413.4 407.7 402.9 398.5 394.1 389.7 385.5 381.9 378.2 374.2 370.1 365.5 360.1 353.4 346.6 343.3 338.3 333.2 330 326.6 322.3 316.8 311.6 308.2 304.1 296.4 295.3 285.8 276 277.4 287.9 284.2 283.7 270.6 263.1 251.3 268.5 288.7 297.9 298.8 303.7 300.8 297.6 293.1 288.3 284.4 281 274.5 268.1 258.2 246.8 244.1 241.8 234.9 229.7 229.3 228.8 229.4 230.3 231.6 231.4 229.5 225.8 221.6 220.2 217 215.3 211.5 207.3 203.3 201.8 190.2 197.3 198 197.5 195.6 193.7 192.1 192.1 190.1 188 188.5 184.5 185.7 183.9 180.5 180.8 176.6 173.7 168 170.5 167.1 164.3 160.5 167.6 170.8 171.5 169 164.8 162.6 161.4 160.8 157.4 155 152.5 148.5 147.3 145.6 140.6 132.9 126.9 125.9 125.9
249.7 230.5 212.5 198.5 184.6 173.9 164.7 155 141.2 145.3 157 163.7 168.3 174.1 184.7 199.9 212.8 224.2 236.5 247.7 253 255.1 248 239.3 231.6 223.9 220.8 217.4 213.7 210.8 206.8 196.6 201.5 207.1 213.4 224.4 244.9 266.1 292.2 328 375.9 415.3 429.8 432.4 435.9 444.6 454.5 456.4 455.5 452.2 448.9 448.1 450.4 452.5 456.3 457.7 455.4 457.6 460.5 463.9 466.7 470.7 480 484.4 485.5 486.8 487.8 491.7 496.5 500.3 499.9 500 502 500.3 496.3 490.1 483.4 476.2 469.8 463.2 455.6 447.1 439.7 433.1 427.5 423.1 418.3 412.7 406.8 401.9 397.7 393.3 389.3 385.2 381.2 375.7 371.5 366.9 365.4 362.1 357.6 352.9 347.7 342.6 337.5 333.3 329.6 324.7 319.1 315 311.8 306.5 300.9 296.2 288.6 277.2 267.1 280 279.2 275.8 265.9 256.4 247.7 267.1 282.3 283.3 285.3 289.3 293.9 293.4 288 284 280.5 276.8 267.3 258.1 254.3 244 239.5 237.9 233.3 230.6 227.5 226.3 228.2 229.6 230.3 229.2 228.1 225 220.8 217.6 211.6 211.5 210.4 206.3 203.7 200.2 196.5 188.1 195.9 196.3 195 193 191.7 187.2 184.6 183.6 183.6 183.6 183.5 183 179.2 178.4 175.8 174.7 173.6 171.5 164.5 160.5 158.4 163.3 167.5 168.5 164.4 161 159.7 157 157.5 155.9 154.1 149.9 145.9 144.2 144.3 142.3 136.3 129.7 129 127.8
230.6 211.4 197.4 186.1 175.4 164.9 157 138.9 140 157.1 162.7 170.1 177.6 184.9 202 217.6 233.2 248.1 262.3 274.7 277.7 273 262.7 253.8 244.2 234.3 227.2 221 216.4 211.7 206.8 201.6 198.7 206.7 211.9 222.2 243.2 265.1 290.3 329.9 371.2 420 428.4 433.2 437.3 447 453.5 452.1 452.1 449 444.9 444 446.9 449.8 453.4 454.5 452.4 453.5 457 460.7 464.5 467.6 474.4 479.6 481.9 482.9 484 487.9 495.4 498.1 497.4 498.6 500.4 499.1 495.6 490.2 483.7 476.8 470.3 462.7 454.5 446.6 439.2 433.2 427.9 422.3 417.2 412.1 405.9 401.1 396.9 393 389 384.9 382.1 379.3 376.1 372.5 369.1 364.9 360.7 355.7 351 346.3 341.2 336.5 331.9 326.8 320.2 314.6 311.7 306.8 305.1 301.6 290.3 281.5 273.2 260.4 263.2 265.5 260 252.2 241.5 254.7 267 268.2 275 280.6 286 286.8 275.8 270.2 267.1 264.7 257 248.1 243.5 240.9 235.2 232.7 230 229.9 227.5 226.1 226.3 224 225.3 223.3 223.4 220.3 216.3 212.5 207.3 207.1 206.4 203 199.8 198.4 195.9 184.6 196.2 197.6 195.9 192.7 189.9 189.2 187.4 186.4 183.9 181.7 180.3 179.6 177.6 177.2 175.8 173.3 173 170.8 167.3 164.4 158.7 157.9 163.6 166.1 161.5 158.9 155.3 154.5 151.9 151.9 150.4 143.2 139.5 139.5 139.2 139.3 132.7 130 128.6 127.3
210.1 197.9 185.5 175.2 164.3 156.8 144.9 137.9 148 161.9 169.8 178.6 186.5 200.4 219.3 236.9 253.5 269.7 284.9 292.4 291.8 286.1 275.9 262.5 251.2 240.6 232.1 224.8 218.1 212.4 208.6 203.3 200.7 205.6 210.6 219.3 236.6 262.5 285.3 322.8 361.1 408.5 424.9 431.7 437 445.7 450.4 450.4 447.6 444.2 441.6 440.6 443 446.2 450.8 451 448.7 449.8 453.8 457.8 461.2 464 469.6 475.8 477.8 477.4 479.6 482.8 492.8 495.2 494 495.2 497.3 497.1 493.8 488.3 482.4 476.6 469.7 462.5 455.1 447.3 439.8 433.8 429 423.5 418.1 412 406.2 401.8 397.3 393.4 390.3 387.2 384.4 380.9 377.8 374.6 370.9 366.7 362.5 357.9 353.1 348.5 343.9 339 334 329.4 320.5 314.5 310.8 306.3 303 299 294.8 288.1 274.5 269 259.3 254.5 247.5 247.6 239.9 237.7 246.7 255.4 271.7 273.1 277.7 279.2 267.7 262.6 257.9 253.5 249.2 244.2 239.6 237.9 230.4 228 226.2 227.3 226.2 224.6 223.3 220.7 219.2 217.1 216.1 215 211.1 206.3 203.2 201.3 201.5 198.4 196.1 195.9 193 184.5 193.3 197.2 196.1 193.1 190.3 189 188.9 185.4 184.1 182.9 182 180.8 179.1 178.6 177.1 175.2 173.3 171 169.2 166.8 162.2 155.3 159.1 159 156.4 153.9 153.8 152.2 150.1 149.5 143.3 138.2 133.3 132.6 135.2 133.4 130.3 129.5 128 126.7
198 187.1 175.9 165.1 156.1 147.1 136.9 137.3 159.5 167.7 178.3 188.8 202 219.3 238.1 258.5 276.8 293 305.6 304.8 298.4 290 279.1 265.4 253.7 240.9 232.3 225.6 218.4 213.6 208.8 205.4 204.8 206.9 211.7 219.2 234.2 256.8 275.5 307.6 344.8 376.8 397.9 427.6 433.8 439.6 445.3 445.7 443.1 439.9 437.3 436.3 439.7 442.8 446.8 447.4 445.3 447.6 451.3 455 457.9 460.9 465.8 472.2 474 473 475.2 480.6 490.7 490.9 490 491.3 494 494.2 491 485.4 479.8 474 467.9 461.7 453.2 446 439.9 433.5 428.5 423.9 419.1 413.4 407.4 402.5 397.9 394.2 391.1 388 385.3 382.4 379.2 375.9 372.4 368.6 364.3 359.9 355.3 350.6 345.6 340.4 333.1 327.2 321.6 315.6 311.7 308.7 305.6 300.6 295.5 290.6 284.2 277.2 266.6 262.4 258.6 249.9 245.7 234.5 232.9 246.1 260.2 264.6 269.6 270.2 262.3 256.5 252.5 248.1 244.4 239.5 235 232.6 228.1 223.6 223.9 225 223 222.2 220.4 216.5 213.6 212.1 208.9 206.9 203.7 201.9 200 199.4 198.3 195.2 192.4 191.7 190.2 178.5 193 197.2 196.3 193.7 190.3 188 186.1 184.6 185.9 182.6 181.9 181.2 179.5 178 175.2 173.9 173.8 171.8 169.9 167 165 158 150.2 152.1 151.3 149.2 149.6 148.6 139.8 140.4 140.7 139.5 145.8 143.9 132.8 131.4 129.4 137 126.6 124.9
189.5 180.7 169.6 160.6 148.6 136.5 134.6 152.6 164.2 174.7 189 203.4 219.9 238.1 258.2 278.7 297 313.5 318.7 311.3 301 292 280.5 264.2 251.5 239 231.4 225.2 219.9 214 209.5 206.9 206.3 209.9 214.6 220.4 231.3 251.5 269.7 294.8 322.1 347.6 383.3 417.9 427.7 431.6 435.4 438.8 439 434.9 432.7 432.7 436.4 438.4 442.3 444 442.3 445.1 448.7 452.8 455.2 457.6 462.8 469 470 468.4 471.1 476.3 487.2 488.3 486.6 486.8 488.6 489.5 486.6 482.2 477.3 471.3 465.9 460.4 453 445.1 438.4 432.8 428.7 424.2 419.5 414.5 407.5 403 398.8 395.3 391.8 388.9 386.2 383.4 380.3 377.2 373.7 370.1 366.2 361.6 356.5 351.8 347.1 341.2 333.7 330.7 326.4 319.6 314.3 310.4 306.6 301.9 295.6 289.8 283 277.1 272.8 270 265 258.9 254.6 244.3 231.3 235.9 249.9 254.8 259.8 263.4 259.2 254.8 248.7 243.2 239.8 235.9 231.1 225.9 222.1 220.7 220.4 221.2 220.8 219.5 217.7 215.2 212.9 210.3 207.9 204.9 203.2 201.1 198.6 197.2 195.4 192.9 190.3 190.3 186.4 178.8 191.2 194.1 193.7 191.3 188.8 185.9 184.7 183.6 182 182.1 180.2 179.4 178.4 178 175.8 173.7 172.2 171.3 169.8 168.1 167.1 162.8 160.3 158.4 153.6 145 147.1 146.5 154.4 156.8 155.8 154.2 152.5 151.5 147.8 143.5 141.5 137.9 129.8 123.2
183.2 176.3 166.8 156.3 141.5 132.8 144.4 157.8 169.6 187.4 203.3 223.4 240.3 257.4 276.6 295.1 312.7 324.6 319.4 311.2 299.5 285.8 273.5 260.2 249.6 239.6 232.2 226.7 221.1 215.5 212 207.9 208.8 211.9 216.3 221.5 228.4 246.4 260.2 278.3 302.1 326.1 365.4 406.6 418.5 418.8 421.7 426.1 434.3 429.2 426.6 429.5 431.7 433.7 438.3 440.2 439.9 442.8 446.5 450.4 452.3 454.7 460 465.7 466.3 465 468.2 472.9 482.6 485.6 483.2 481.8 483.2 483.9 482.1 479 475.4 470.6 465.2 458.7 451.4 443.9 437.6 432.2 428.5 424.4 419.9 414.7 408.7 403.7 399.3 395.9 392.5 389.2 386.2 383.1 380.1 377.1 373.9 370.3 366.6 362.1 356.9 352 348.2 340.8 337.5 333.2 325.5 320.5 315.3 311.7 307.9 303.5 299.6 294.3 284.1 278.9 275.4 269.9 266.1 263.9 258.4 246.3 233 229.6 234.8 242.2 247.5 249 249.7 249.3 245.7 239.9 232.8 229 223.1 219.4 216.9 216.6 215.8 217.1 217.3 216.5 214.7 212.9 210.9 208.7 206.3 204.3 202.1 199.7 197.6 195.2 193.2 191.5 189.1 188.1 184.7 180.9 176.4 186.3 188.2 187.8 187.3 184.1 182.7 182 181.8 180.8 180.5 178.7 176.3 175.1 175 173.9 171.7 171.1 170 168.4 166.9 166.3 165.2 162.7 157.5 150.8 155 156.3 157.7 159.7 159.1 158 156.7 154.9 150.4 147.8 142.9 138.6 135.1 128.4
176.2 170.7 163.9 155.2 134.3 131 150 163.9 180.9 199.1 217.8 237 255.2 274.6 293.2 311 323.9 325.8 318.9 308.8 297.3 286.1 276 264.4 252.3 240.2 232.5 228.8 223.5 218.7 215.2 210.3 208.6 213.1 218.2 223.9 229.3 239.3 252.1 267.8 284 306.5 334.9 378.7 401.9 406.8 405.7 411.5 416.7 422.7 412.1 424.4 425.1 428.1 431.4 431.5 437.8 440.8 444.2 447.8 448.7 451.4 454.8 458.4 462 460 464.8 470 478.5 481.8 478.8 477.4 478.1 478 477.7 474.6 471.5 468.6 463.6 455.9 449.1 442.4 436.7 431.6 428 424.2 419.5 414.3 408.8 403.8 399.5 396 392.3 388.9 385.6 382.5 379.5 376.7 373.7 370 366.3 362.5 357.3 351.6 349.7 343.7 341.5 336.5 326.4 320.8 316.6 311 307 303.4 301.1 294.8 288.4 285.2 278.2 272.4 268.4 263 259 252.4 243.6 235 227.5 224.8 232.1 238 239 237.1 233.6 232.3 231.1 224.8 219 212.6 211.8 212.6 209.6 212.7 213.1 211.2 212 204.6 200.7 200.7 197.5 198.4 197.3 191.5 189.8 185.2 184.9 188.7 185.3 181.1 178 177.9 179.2 176.3 180.6 182 182 180 175.7 172.6 174.1 181.2 179.9 178.4 175.7 171.4 171.2 170.7 171.4 170.9 170.8 168.7 169 166.6 164 163.5 161.9 159 158.3 160.1 161 161.9 162 160.9 159.3 157.6 155.1 151 145.8 141.9 135.7 130.2
167.4 164 159.2 150 130.3 141 158 173.9 190.4 212.4 232 251.7 272 292 311.9 325.7 332.2 329.7 321.6 311.5 301.3 291.4 279.9 268.1 255 242.1 235.9 230.4 225.2 221.4 217.9 212.3 210.7 214.5 219.6 225.1 232.4 240.5 248.5 258.4 270.2 289.7 318.4 365.1 377.1 383.1 388.3 389.7 397.1 401.1 405.6 417.4 419.1 422.3 423.3 428.2 436.3 438.8 441.9 445.6 446.7 447.9 450.7 454.1 457.1 455.8 459.3 463.6 474.5 476.9 475 472.8 472.8 473.5 473 470.7 468 465.2 460.8 454.1 447.6 441.1 435.1 430.5 427.2 423.1 418.2 413.4 408.6 403.7 399.6 396.1 392.1 388.7 385.4 382.2 379 376.4 373.6 370.1 366 361.9 357.7 355.6 350.9 346.2 342.4 335.7 329.2 323.3 315.2 309.6 305 303.3 300.7 294.6 293.9 290.3 284.2 277.9 273.4 267.7 263.3 256.2 254.3 245.4 232.4 227.8 222.6 220.2 218.2 218.2 220.8 222.3 221.7 217.4 215.7 206.6 205.7 204.9 204.7 203.1 200.7 200.7 200.7 200.7 200.7 200.7 196.8 192.1 190.3 188.9 187.4 190.1 188.7 182.9 181.5 185.3 184.7 176.5 176.7 175.7 172.3 174.5 176.4 175.2 173.3 173.3 172.5 169.8 168.2 172.4 174.8 172.2 167.8 166.2 167.2 168.5 168.9 169 168.7 166.7 165.3 163.3 162.3 161 161.6 163.4 164.8 165.2 164.5 163.2 161.9 160.3 157.6 153.9 148.9 143.7 137.7 131.9
158.7 148.6 152.9 143.6 129.5 142.2 165.4 185.1 205.1 223 242.6 264.4 285.6 305.6 324.6 335.6 339.5 333.9 325.9 316.2 304.9 294.4 281.7 269.8 257.3 244.8 238.1 234.1 230.3 225.1 219.4 214.6 211.9 215.7 220 228.6 238.1 252.3 261.2 272.1 280 282.4 303.2 331.4 349.3 359.5 381.1 390.9 397.4 400.4 399.5 402.3 410.9 415.1 419.5 429.1 434.7 437.8 439.9 442.7 443.2 444.1 446.4 449.8 452.2 450.5 453.4 457.3 464.8 470.7 469.3 467.8 467.6 468.3 469.6 467.8 464.8 461.7 457.7 451.4 444.6 439.4 433.2 429.7 425.4 420.8 415.9 411.1 407.3 402.3 399.5 395.9 391.9 388.5 385.3 382.1 379.1 376.8 373.8 370.2 366.9 364.1 360.8 356.5 351.1 346.5 341.7 336.2 330.8 324.7 312.9 309.4 306.1 304.2 298.2 296 293 287.8 284.5 281.5 277.3 273.7 270.6 263.5 259.2 252 239 231.5 225.2 221.4 218 215.8 215.7 215.7 215.7 215.7 215.7 216.4 207.2 214.5 214.6 209.6 213.9 217.4 208.9 217.4 217.5 214 212 209.5 207.1 202.5 201.4 196.4 194 191.6 189.6 188.4 188.3 188.2 186.7 184.5 183 176.9 171.3 169.9 173.3 172.5 171.4 168.8 168.7 165.9 168.5 171.2 167.4 164.9 164 164.7 168 167.9 166.8 167.5 165.3 163.4 163.4 162.1 164.5 166.7 167.7 167.9 166.9 165.2 164.9 163.2 160.1 156.4 151.1 145.1 138.9 132.3
156.5 150.2 139.9 134.4 127.6 134.7 167.3 193.4 215.9 237.3 257.2 275.5 292.5 312.3 330.7 341.7 341.8 337 329 317.2 305.4 294.2 281.4 270.7 258.1 249.5 242.7 238.6 233.8 228.5 222.2 217.7 214.5 216.3 222 239.9 254.4 271 285.6 301.5 317 318.5 317.6 329.3 354.5 385.2 401.3 412.3 419.8 418.6 415.6 410.7 408.7 414.2 420.5 431.4 433.5 435.7 438.5 440.1 440.2 440.5 443 445.8 447.5 445.3 447.4 451 456.5 462.1 463.1 462.5 462.4 463.4 465.8 464.6 462 457.8 454.1 448.9 442.9 437.4 432 427.1 423 418.5 413.6 409.7 405.5 401.4 399 395.6 391.7 388.3 385.2 382 379.2 376.5 373.8 370.5 367.9 365 361.4 357.2 351.7 347.4 343.2 338.5 332.6 325.2 316.3 312.8 309.1 306 301.1 295.9 291.6 287.4 284.6 282.5 278.2 275.2 269.2 265.6 262.5 257 240.5 239 236.9 233.2 227.9 214.7 215.7 215.7 215.7 215.7 215.7 215.7 221.6 225.2 222.9 218.1 222 228 225.4 218 214.6 216 212.4 208.2 205.3 203.3 199.9 197.2 194 191.9 192.1 192.3 192.3 189.9 188 186.4 184.4 183.3 179.2 179.5 168.4 166.6 165.9 165.1 166.1 164.9 162.8 162.2 159.6 161.6 160 161.8 165 166.3 166 167.3 165.9 164.3 162.9 163.9 166.9 168.4 168.8 169.2 168.4 168.1 167.8 166.3 162.8 158.3 152 145.7 138.5 131.2
154.7 151.2 147.7 143.4 126.9 131.1 164.1 193 219 244.3 267.1 287 305.7 324.1 337.1 344.5 345 342.7 333.2 318 304.9 291.8 281.6 271 262.3 253.3 246 241.9 236 232.6 226.7 222.1 217.9 219.8 240.1 255.9 274.3 296.4 316.4 334 350.9 367.8 360.4 364.1 383.5 404.2 418 428.9 427.3 424 419.8 418.4 417.6 418.4 424.9 431.5 432.1 434.1 436.6 437.1 436.8 436.5 438.9 442.1 443.3 441.7 441.2 445.6 446.2 453 458.3 457.3 457.7 459.1 462.7 461.5 459.2 455.2 450.1 445.1 440.3 434.6 429.6 424.8 420.5 415.8 411.4 407.9 404 400.3 397.5 394.3 390.8 387.6 384.4 381.7 379.1 376.3 372.9 370.6 368.3 365.4 361.8 358.3 353.2 348.8 344.6 340.3 334.1 327.5 320.9 316.9 312.7 308.7 304.1 300.2 291.6 291.5 288 284 280.2 277.1 273.2 270.1 268 262.7 246.2 249.9 248.6 244.6 236.6 231.6 223.1 222.3 221.9 219.9 223.5 226.8 233.3 229.7 223.7 219.6 224.6 227.9 224 215.4 212.8 211.8 211.1 210.3 205.7 202 199.6 195.5 195 192.7 193.2 190.8 189.6 189.1 186.4 185.7 185.5 184.1 183.9 182.3 180.7 176.3 168.5 164.7 163.8 161.9 160.3 160.6 160.6 160.6 160.4 157.4 157.3 157.8 164.2 166.3 167.5 165.6 164.4 164.4 167.4 168.8 169.6 170.2 171 171 169.6 167 163.5 158.7 152.2 145.1 138.4 130.5
153.4 148.8 145.4 141.9 126.8 134.1 163.6 191.6 220 246.8 272 291 311.5 328.1 343.9 350.8 353.1 351.3 341.3 324.4 307.6 294 283.4 273.6 262.8 254.2 248.9 245.5 239.5 235 227.7 223.3 220.7 230.7 248 270.5 298.4 326.7 351.1 380.8 384.8 396.2 397.1 405.1 413 423.1 434.9 432.6 428.5 425.2 422.6 422.1 421.6 422.4 426.4 430.7 430.7 432.7 434.1 433.6 432.9 433.6 435.8 438.2 439.1 436.1 436.1 440.7 438.7 442.3 446.1 452.4 453.4 454.8 459.5 459.1 456.8 451.9 446.9 441.9 436.9 432 427.5 423.2 419.1 414.4 409.5 405.7 401.9 398.2 395.3 392.9 389.7 386.5 383.8 381.2 378.4 375.9 373 370.7 368.4 365.4 362.2 359.1 355.2 351.2 346.6 342.1 337.6 331.7 327.3 322.6 317.8 311.1 307.2 302.1 300.7 297.3 292.5 285 281.3 279.8 277.2 273.3 270.1 261 253 255.9 256.3 253.1 246 240.7 229.3 232.7 234.5 234.2 236.1 238.5 235.1 232.9 228.6 222 225 226.6 221 214.4 211.5 210 211.6 213.3 208.3 204 202.1 196.3 194.4 193 194 190.2 186.2 184.3 183.3 182.7 183.4 184.2 184.6 183 181.6 182.3 179.5 179.5 172.5 173.8 169.2 164.5 162.1 162.4 160.5 156 155 154.6 154.3 159.3 165.4 165.9 165 164.2 167.1 168.4 170.3 171.8 172.6 171.8 169.2 166.7 163.4 157.8 151.6 143.9 137.3 129.6
151.6 145.7 143.4 134.9 125.1 138.1 162.3 189.5 220 248.3 273.7 295.5 314.5 333.1 347.9 360.3 365 357.8 350.3 333.4 313.9 297.4 285.3 275.1 264.8 256.4 253.4 249.1 243.3 238.4 233.3 228.5 225.2 243.8 260.5 284.6 319.3 349.9 394 397.3 410.6 415.4 419.1 425.1 432.7 438.2 437.2 433.2 429.9 427.6 426.4 425.3 425.2 430.4 430.8 428.3 429.4 430.2 430.9 430.4 429.9 431.4 433.2 435 434.5 431.6 431.4 434 434.7 435.8 439.3 443.5 448 450.7 456 456.5 454.7 448.8 444.1 439.4 434.6 430.1 425.7 421.7 417.7 412.6 407.8 403.5 399.7 396.1 393 390.7 388.3 385.4 382.4 379.4 377.1 375.7 373.1 370.8 368.4 365.3 362.3 359 355.7 350.4 347.3 343.5 339.2 335.7 334.1 329.5 322.8 315.5 308.8 303.9 309 302.4 294.8 289.1 284.1 282.1 278.6 274.7 269.7 260.6 261 264.4 262.6 261.1 255.8 244.6 237.1 243.6 246.4 249 247.7 246 241.4 234.9 231.7 224.3 221.6 219.6 216.9 214.7 211.1 205.9 207.1 210.5 207.9 205.4 203 198.4 193.3 190.5 189.9 190.6 188.6 184.5 182.3 182 181.9 180.7 180.7 179.5 179.7 181.7 180.5 181.3 180.7 177.6 171.9 166.7 165.3 163.7 161.1 154 153.3 152.7 152.3 152.3 154.1 162.9 163.9 164.2 166.2 168.5 171 172.9 173.4 171.3 168.5 165.9 162.3 156.3 149.8 142.5 133.9 126.7
145.6 141.5 139.6 137.6 125.3 136.3 157.8 183.9 210.4 238.3 265.5 289.4 311.3 335.7 354 368 376.8 364.4 353.1 340.7 320.3 304.7 287.9 277.8 268.1 261.6 259.2 253.4 251.6 246.7 241.4 235.1 232.2 249.8 270.3 299.8 334.5 376.7 395.3 407.6 411.1 413.9 422.3 434 440.9 439.5 436.7 434.2 431.2 430.8 428.7 428.1 433.8 434.8 432.6 431.5 430.2 427 427.7 427 426.4 427.8 429.8 430.3 429.9 427.2 425.5 428.5 429 431.1 433.6 438.7 444.1 446.8 451.8 453.1 451.1 446.4 442 437.3 432.5 428.2 424.6 420.6 416 410.8 406.5 401.3 396.8 393.2 390.2 387.9 385.8 383.4 380.4 377.9 376.4 374.7 372.7 370.1 367.5 364.9 360 356 352.9 349.8 346.8 343.7 339.9 336.6 336.2 330.5 326.3 318.4 311.7 309.5 310.9 309.1 300.9 295.7 287.4 282 277.8 274.5 270.7 267.4 261.8 266.7 266.5 262.3 257.7 246.5 244.7 248.6 255.6 261.5 257.8 251.6 247.3 241.8 234.3 228.4 222.9 220.7 218.5 211.4 206.3 202.3 202.5 207 204 202.1 204.9 202.6 197.5 195 191.2 189.1 186.2 185.6 183.2 182.6 181.9 180.6 177.5 177.1 176.3 176.7 177.6 181.6 179.6 178.6 177.1 174.4 170.7 166.7 163.6 160.9 162.6 154.7 152.1 151.1 150.2 152.6 156.7 161.4 164.3 168.7 171.8 174.3 174.6 170.8 167.8 165.6 162.4 157.5 151.5 143.4 134.4 125
139.8 138.1 137.4 136.8 123 122.1 139.6 167.7 191.7 221.9 249.1 274.8 296.8 324.9 350.8 366 371.6 365.7 356.4 347.8 336.3 315.4 296.5 285 274.3 272.8 268.7 263.6 259.7 255.2 246.3 240 237.6 257.1 278.3 312 347.8 391.7 395.1 407.5 410 414 424.5 439.1 444.1 440.5 437.2 434.8 433.9 431.5 430.7 435 438.4 436 432.6 431.7 431 427.5 424 423.3 422.9 424.1 425.7 425.7 425.2 422.9 418.8 422.5 425.9 424.3 427.6 432.6 439.1 441.8 446.5 449.6 448.5 444.7 439.7 435.2 430.7 427.1 423.4 419.5 414.2 408.7 404.2 399 393.9 390.5 387.5 385.4 383.3 381.2 378.6 376.8 374.9 372.9 371.5 369.2 366.7 364.1 360.2 356.9 351.9 348 345.4 343.3 339.8 337.7 335.8 333.1 326.7 320.2 313.4 311.6 313.8 315.3 308.1 303.5 295.1 284.4 278.5 277.7 275.6 274.9 267.6 269.4 270.4 265.7 260.4 250.2 247.5 252.2 257.4 260.5 258.9 251.6 244.3 240.6 234.8 229.5 224.1 223.4 220.6 209.5 204.6 200.3 198.8 199.5 197.3 198.1 198.9 199.3 198.8 197.1 193.4 189.7 186.4 183.3 182.1 182.4 183.4 181.8 179.2 177.9 175.3 175.8 176.9 176.5 176.7 176.4 179.1 176.2 175.5 171.1 165 161.5 159.9 159.5 157.7 152.8 148.7 147.5 147.8 155.6 162.3 167.9 172.7 175.2 175.2 172.5 169.3 168.5 164.9 159 152.6 144.5 134.5 124.8
135.8 136.2 136.4 136.8 120.8 119.2 121.8 146.3 172.9 197.7 223.7 249.3 277 305 341.5 356.6 362.3 359.6 354.5 349.4 340.1 324.9 304.2 293 287.2 284.1 280.3 274.7 267.9 260.2 251.7 242.8 241.7 260.8 285.4 319.4 353.5 392.2 393.2 400.8 407.9 413 424.3 438.8 444.9 441.2 436.8 433.3 433.9 431.4 433.2 441.5 439.2 434.6 433.2 433 431.5 428 424 420.2 419.1 420.2 421.1 421.7 420.4 418.1 414.6 416.2 418.4 417.9 419.1 426.3 434.4 437 441.6 445.8 445.8 442.7 437.7 432.7 428.6 425.3 422 417.7 412.3 406.6 401.7 396.2 390.6 387.4 384.8 382.7 380.7 378.6 376.7 374.8 372.8 370.7 369.1 367.4 364.9 362.1 358.8 352.6 349.3 346.5 344 341.9 339.9 336.7 334.6 331.1 326.2 320.6 315.4 312.3 313.9 317.6 313.6 306 296.7 286.2 280.9 278.8 277.6 274.1 272.8 273.5 270.4 264.1 261.7 253.9 251.9 252.2 257 258.2 254.8 252.5 249.1 246.3 235.5 230 223.9 219.2 215.2 211.6 205.9 199.6 199.4 197.7 195.8 196.4 198.1 196.8 197.3 196.8 195.1 191.3 189.9 187.3 181.6 180 180.6 180.8 179.9 178.7 175.8 173.8 177.2 172.9 172.3 172.1 174.3 173.1 173.6 172.4 167.3 162.8 160.9 158.6 157.7 155.6 152.2 148.6 146.4 148.7 158.5 167.1 172.8 175.7 175.8 174.1 171.9 169.4 167.2 160.7 153.1 146 134.7 126.2
132.6 135.2 135.8 136.3 135.9 124.4 118.8 125.2 151.7 176.2 201.7 227.6 257.7 287.9 320.7 348.7 354.1 353.3 351.3 346.4 339.7 328.6 311.9 301.5 296.3 295.7 290.7 283.1 272.8 262.8 252.3 243.4 244.3 264.3 289.5 322.8 354.7 389.3 391.6 397.1 406.3 411.5 420.8 435.1 443.6 439.7 435.3 431.7 433.3 430.8 432.9 441.2 438.6 433.8 433.7 433.8 432 427.6 422.7 419.9 415.8 415.8 416.7 417.1 414.8 413.1 410.2 408.9 411 410.4 413.5 421.6 429.3 432.4 436.4 441.2 442.5 439.4 434.4 431.1 427.6 423.4 420.1 415.6 409.9 404.2 399.2 392.7 387.7 384.5 382.1 380 378 375.8 374 372.2 370.2 367.6 365.8 363.9 361.8 359 356.4 353.6 348.4 345.5 343.4 341.4 339.3 335.5 333.5 329.5 324.6 321.4 318.5 315.2 313.9 315.4 312.4 304.9 296.4 287.1 281.4 277.4 275.8 274.6 275.9 274.1 270.2 263.6 259.4 256.5 257.4 254.1 256.8 254.7 252.6 250.8 250.1 242 234 228.6 224.8 219.4 212.4 209.1 206.7 202.9 198.3 196.2 194.5 195.1 196.5 195.5 192.6 191.4 190.9 193.3 191.7 189.5 185.2 182.2 176.5 177.5 177.4 176.4 176 173.5 171.2 170.5 169.7 169.5 169.6 170 170.5 169.8 167.8 164.4 162.4 160.5 159.2 157.2 153.8 149.5 146.5 144.4 153.6 164.3 171.7 175.4 176.7 175.8 173.8 171.9 169.9 163.8 154.4 146.7 136.7 126.9
131.2 134.3 134.9 135.4 135.1 134.6 122.2 118.8 135.7 161.8 184.3 208.1 237.9 267.1 300.7 335.4 349.1 350.4 348.2 344.4 339.3 331.3 324.2 314.7 309.4 305.7 299.9 287.6 275.5 263.3 254.7 249 252.7 268.2 291.8 323.9 353.3 381.9 389.1 395 404.9 408.6 417.6 430.5 441.4 438.2 433.6 429.3 430.2 430.2 433.6 439.9 437.3 432.8 433.5 433 430.6 426.8 422.6 418.4 414 411.6 411.9 411 408.7 406.2 405 403.1 406 403.6 406 413.9 423.5 427.1 432.3 436 437.9 435.2 432.4 429.7 426.7 422.5 418 412.3 406.6 401.5 396.5 389.8 384.9 381.8 379.5 377.3 375.2 373.1 371.3 369 366.5 364.3 362.1 360 357.8 355.7 353.5 351.4 349.4 346 344.5 340.2 337.6 334.6 331.5 327.4 324.2 322.3 317.3 315.2 314.9 314.1 310.3 304.5 298.5 289.5 282.6 278.7 276.3 277.5 276.4 270.7 266.4 262.3 260.1 255.5 256.6 253.8 249.4 250.6 250.9 248.9 244.8 238.5 233.4 229.3 225.1 218 212.2 207.9 205.8 203.1 200.5 196.4 193.8 192.2 192.1 191.4 188.7 186.9 187.2 188 188.8 188.5 185.3 180.7 177.4 173.5 174.8 176.2 175.4 173 170.2 169.7 167.5 168 167.8 167.6 167.5 167.9 167 165.1 162.6 161.6 161.1 158.4 154.9 149.6 145.4 143.1 150.8 161.9 170 175.6 177.4 176.8 175.8 175 174.5 165.8 155.2 143 137 129.3
132 133.3 133.9 134.3 134 133.6 126.6 112.8 126.4 146.3 169.1 192.5 223.2 249.2 283.2 317.5 342.4 349.8 348.6 344.2 339 335.6 330.1 323.4 319.3 315.5 306.8 290.4 276.5 263.9 257.3 252.2 254.9 271.8 295.7 329.6 352.6 378.7 387.6 391.1 399.1 406.5 413.4 427.2 439.5 436.5 431.8 428.3 427.9 428.7 432.5 438.6 435.4 432.7 432.7 430.6 427.4 423.5 418.1 414.8 412.4 409.2 406.2 404.8 403.1 400.8 398.8 398.4 400.6 401.6 395.9 407.8 417.1 421.5 428.5 431.1 432.5 431.7 429.7 427.8 424.7 420.2 415 409.3 404 399.5 392.6 386.3 381.5 378.7 376.8 374.6 372.4 370.4 367.8 365.1 362.8 360.3 358.6 356.6 354.4 352.2 350.8 349.3 347.5 345.4 341.2 337.9 335.6 333.2 331.2 326.7 323.3 319.5 317.4 315.2 314.7 312.5 307.7 303 299.7 295.2 286.6 280.7 278.9 279.4 275.3 270.9 264.6 259.4 257 251.9 249.1 247.5 242.3 242.6 245.7 242.4 238.4 232.7 230.3 227.4 224.7 219.4 213 208.4 206 203.8 201.1 196.4 194.1 191.8 190 188 186 183.8 183.7 182.9 181.3 182.3 182.7 179.8 176.9 174.8 171.6 173 171.7 169.8 168.6 167.2 165.3 166.2 166.1 165.9 165.8 166.3 166 166.4 163.2 162.2 160.7 158.2 155 150.8 146.2 142.8 146.4 159.3 168.3 174.5 176.6 175.9 176.7 177.6 174.8 167.2 156.7 143.9 136.5 129.9
131.8 132.3 132.8 133.3 133 132.8 127.5 115.1 116.9 137.6 153.2 176.5 204.4 232.4 266.2 300.2 329.8 344.5 346.5 344.9 342.2 341.4 337.5 331.6 324.4 320.4 315.4 304.1 285.2 267.6 260.9 254.2 255.3 274.4 300.5 334 363.2 377 385.7 387.2 397.5 401.5 408.1 420 431.2 432.6 427.9 426.6 426.9 428.2 431.1 436.1 434.7 432.7 432.5 428.7 424.6 420.1 415.2 412.4 410.7 406.7 402.2 400.2 398.8 396.7 395.4 395 395.8 397.1 392 398.6 410.8 416.1 422.6 425.7 426.7 427.2 426.4 424.6 422.2 417.8 412.1 406.5 401.9 396.1 389.3 382.9 378.2 375 373.1 371.2 369.4 366.6 363.9 361.3 358.8 356.1 354.4 353.1 351.1 348.8 348 347.1 344.8 342.4 338.9 336.4 334.2 332.6 330.5 326.7 322.4 319.6 315.8 311.8 308.9 308.9 305.7 301.3 298.1 297.3 289.6 283 281 278.1 274.4 270.3 264.7 257.6 252.5 247.6 244 241 240.9 238.7 239.7 236.6 234.1 228.1 227.7 228.1 225.3 220.4 214.3 210.4 206.9 204.7 200.9 197 193.6 192.8 191.7 188.6 185.7 183.8 181.5 179.9 178.4 177.1 177.9 178.3 174.9 170.4 169.4 171.2 170.1 166.2 165.5 165 163.5 164.5 164.3 164.3 164.2 164.8 164.5 163.3 163.7 160.7 159.3 158.2 156.6 152.3 147.5 143.2 143.1 160.4 168.8 173 174.8 175.6 175.3 174 171.1 165.2 152.4 143.5 137.6 131
130.2 131.3 131.7 132.1 132.4 132 127 114.9 113.6 133.5 140.8 163.6 188.8 216.5 249.2 281 312 336.4 345.1 346.4 344.1 341.8 338.7 334.6 331.3 326.1 322.2 314.1 298.7 276.6 263.5 255.6 254.4 270 293.2 325.4 364.2 380.4 383.3 382.9 394.7 399 404.3 412.2 420.1 423.1 423 425.3 426.4 428.3 431.3 436.7 435.1 432.5 434.6 429.6 424 419.1 414.8 410.8 410.1 407 403.4 397.9 396.7 394.3 392.3 391.5 391.2 393.1 392.3 390 403.4 409 416.4 419.5 420.7 422 422.6 421.2 418.6 415.3 409.6 404.7 399.8 393.6 386.1 380 375.3 371.1 369.1 367 365 362.2 360.2 357.7 355.8 353.7 350.4 348.6 347.4 345.2 343.6 343.3 342 339.8 337.6 335.5 333.5 330.9 327.8 325.8 320.7 316.1 313.2 309.5 307.5 305.6 300.9 298.3 296.7 296.7 294.1 286.3 280.4 277.5 270.5 266.8 261.8 252.1 248.8 244 240.6 238.2 237.9 236.3 234.8 234 230.3 225.4 225.9 227.1 224.2 219.1 214 209.7 206.9 204.6 200.8 196.5 195.5 195.5 195.3 193 189.3 185.3 181.5 180 179.8 177.4 173.5 173.3 171.5 167.4 167.9 169.7 168.7 165.7 163.9 163.1 162 162.9 163.1 163 163 163.1 163 161.9 161.3 160.6 160.5 158.7 157.8 155 148.7 143.9 140.6 156.3 170.1 171.5 173.1 171.1 170.1 167.8 165.1 161 151.2 143.7 137.9 131.2
129 131.1 131.3 131 131.1 130.8 125.6 117 112.1 130.1 133.7 149.1 176.1 199.3 230.5 258.8 287.3 314.4 333.3 340.6 343.1 342.7 340.7 338.6 335.5 328.7 324.3 319.1 309.6 291.7 274 260.9 253.5 258.7 281.4 305.7 333 363.6 379.7 379.5 382.2 391.6 400.3 405.6 411 419.3 426.2 427.5 427.6 428.5 433.1 438.9 438.1 436.7 435.3 432.8 426.2 420.7 418.7 416.6 414.9 411.5 406.6 400.8 395.1 392.4 390.1 387.2 386.1 388.9 387.1 384 392.8 401.8 408.2 412.7 415.5 417 417.9 416.8 414.2 411.8 406.8 402.6 397.2 390.9 383.1 377.1 372.4 367.7 365.5 362.8 362.1 359.9 357.5 353.6 352.5 350.6 347.9 344.4 343.3 341.7 338.9 337.4 336.7 335.4 334.8 333.7 332.2 327.6 324.8 319.4 315.9 313.3 311.8 308.5 305 302.5 297.7 295.8 295.1 294.7 292.5 285.6 280.4 275.1 267.6 261.5 256 254.8 247.8 240.9 239.1 237.7 234.8 232.8 233.1 231 227.8 224.2 223.9 223.4 220.1 214.4 211 209.3 206.7 204.1 200.1 195.8 198 199.6 197.3 195.1 192.6 188.9 184.4 180.7 176.9 174.9 172.1 170.2 167.8 166.5 166.9 168.9 167.7 167.7 163.6 161.9 160.3 161.3 161.9 162.4 162.5 163.2 161.9 160.5 160.2 160.5 158.9 156.7 156 155.3 154.4 147.8 140.2 149.9 169 172 170.9 166.9 164 162.2 158.4 154.8 149.9 143 137.9 131.9
133.6 130.5 130.1 130 129.6 129.4 123.3 118.8 111.8 116.6 131.3 138.1 160.6 188.4 212.2 236.7 262.8 288 310.3 329.1 337.8 339.8 340.4 340.4 338.1 333.3 324.5 319.7 312.6 301.6 285.6 268.2 254.5 251.2 264.8 286.5 308.5 327.4 339.8 357.3 371.3 376.5 391.4 400.5 412.3 425.4 430.9 427.2 428 428.8 433.3 438.5 437 436.6 437 433.9 429 428 428.6 426.7 422.2 414.8 408.8 403 397.5 392.8 390.3 388 386.4 379.6 382.3 378.3 383.1 394.9 401 405.6 408.1 410.5 411.6 412 410.7 408.3 404.3 399.5 395 387.7 380.2 374.4 369.2 365 360.9 359.2 358.6 356.7 354.3 350.1 347.4 347.5 345.1 341 339.3 338.2 336 332 331.8 331.7 332.9 332.6 329 325.5 321.5 317.6 313.9 311 308.3 307.4 305.5 303.3 299.6 295.7 293.2 292.7 290.3 287.2 280.9 273.1 265.2 260.5 260.7 258.7 254 247.5 243.4 239.6 235.6 233.1 232.3 229.8 225.8 222.6 223.7 221.6 217.5 214.6 212.3 209.8 207 203.9 200 196.8 201.2 201.2 198.7 196.1 193.4 189.8 186.1 181.6 176.5 172.1 169.9 167 165.6 163.9 166.7 167.6 166.1 164.9 164.2 162.2 158.6 159.2 159.7 160.8 162.1 163.4 161.2 159.6 159.3 158.3 155.3 153.4 153.3 154.7 155.4 152.7 140.8 143.1 163.2 171.5 165.6 162.7 160.3 157.9 155.1 151.4 147.1 142.4 136.5 130.8
143.1 131.3 129.4 125.6 126.6 127.3 121.6 118.7 109.1 110.9 129.7 130.6 146.2 172.8 195.7 217.8 244.3 270.3 294.5 317.5 329.9 336 336.9 337 336.1 333.8 327.3 317.5 306.5 297.8 286.1 269.9 254.1 248.1 255.4 268.8 286.8 301 307.8 319.4 347.5 373.7 394.4 402 414.5 427.2 431.8 428.1 427.8 428.1 433.5 438.4 436.1 436.1 436.4 435.7 434.7 435.5 436.4 432.7 424.4 416.6 409.4 405.3 400.4 396.1 394.7 393.9 391 387 379.6 371.6 376.4 386.1 392 397.7 401.5 404.1 405 406.3 406.4 404.2 401.8 397.9 393 386.6 378.2 371.9 366.5 361.6 357.4 354.3 353.4 352.1 350.3 347.4 341 343.5 342 337.3 335.5 333.7 331.4 326.8 326.4 328.1 328.2 325.3 325.5 322.5 317.3 313.6 311.5 307.4 305.1 304.3 302.7 300 297.7 295.8 293 290.8 288.1 284.9 278.8 271.7 266.4 262.1 258.1 255.3 252 252.1 246.3 240.7 236.8 234.8 231 228.6 224.1 222 222.2 220.4 217.3 213.5 210.9 209 205.8 202.5 199.1 201.4 204.2 202.2 199.7 197.1 194.3 190.6 186.3 181.2 175.4 171.7 170 166.3 164.6 164.6 163 163.4 163.6 164 164 161.5 158.2 156.1 157.4 158.6 161.6 159.1 159.1 155.2 156.1 155.6 152.6 151.5 153 154.9 154.5 156 141.9 138.5 142.2 154.3 161.9 158.4 156.1 153.8 150.6 147.2 143.7 140.8 137 131.9
152.9 139.9 129.3 124.9 124.5 126.4 120.1 116.4 111 108.3 128 129.1 135.7 154.6 178.7 200.7 227.4 254.6 280.3 304.6 321.9 330 333.4 334.6 334.1 330.8 326.2 315.8 305.8 293.9 282 268.9 254.9 243.9 249.3 258.1 266.8 278.6 298.6 331.2 375.1 381.1 397.8 402.9 412.7 426.2 432.5 428.6 426.6 427.4 431.7 438.3 436.6 436.7 437.3 437 439 443.6 441.2 434.2 427.7 422.1 413.8 407.8 403.2 401.5 400.9 400.1 398.4 395.3 391.1 383 368.1 368.2 382.9 387.3 393 397.1 399.5 401.5 401.7 400.1 398 395 390.1 384.3 375.9 369.9 364.7 359.5 354.7 350.5 347.9 346.6 344.6 340.9 335.6 336.9 336.7 332.2 330.3 326.7 322.3 320 320.6 320.2 322.1 322.5 321.2 317.9 313.1 309.2 306.9 304.1 301.9 300.3 298.5 296.1 293.9 292.3 290.5 288.3 285.6 282.4 277.5 269.8 265.1 260.3 257.3 251.1 250.2 248.5 243.5 242.4 239.1 235.6 231.4 225 222.6 221.3 221.6 220.1 216.2 212.5 210.7 209.6 206.5 203.1 202 205.3 205 203 200.5 197.7 194.4 190.6 185.8 180.9 175 171.6 169.3 166.1 165.4 164.4 163.6 162.7 160.8 160.3 162 160 157.8 156.5 155.2 156.7 155.8 156 156.6 154.3 153.5 153.4 153.4 151.6 151.5 155 155.6 155.3 143.2 137.4 138.6 159.3 156.9 154 151.5 149.2 147.8 145.3 142.4 140.9 136.7 134.4
165.3 148.8 132.3 126.8 124.7 120.7 117.2 113.9 110.3 107.9 122.9 127.6 130.2 142.8 162.6 186.4 212.5 240.3 267.6 294.8 316.8 327.7 332.4 333.7 332.9 332 327 318.8 304.2 290.6 272.6 259.7 246.5 242.2 246.6 254.4 261.8 273 299.1 337.2 380.8 383.5 399.5 400.4 409.1 422.1 431.1 428.7 425.3 426.8 429.6 437.9 437.2 436.6 437.2 438.4 443 447.9 442.9 434.7 429.5 422.5 415.7 410.3 408.2 407 406.7 406.3 405.3 400.9 394.7 389.3 382.6 373.1 365.9 376.7 383.3 387.8 392.9 396 396.4 395.3 393.1 390.9 386.5 380.6 374.1 368.8 363.1 357.7 352.3 347.7 343.3 340.9 338.2 334.3 330 328.2 328.1 327 326 322.5 316.3 313.9 314.3 315.3 319 316.8 314.3 311.9 308.8 305.6 302.7 299.9 296.9 296 294.3 292.2 290.3 288.7 287.1 285.5 282 280.2 273.5 268.2 264.2 260.2 256.9 252.8 251.1 245.7 244.1 242.9 240.4 236.1 229.5 222 221.5 222.5 222.5 218.7 215.3 212 211.4 209.7 207.3 204.9 204.9 206.7 205.7 203.6 200.5 197.2 193.8 189.8 184.7 179.6 174.6 171.7 168.7 166.4 165.2 164.8 163 160 158.5 158.6 158.6 158.1 156.7 154 153.1 152.5 155.6 155.9 155.3 150.7 152.9 152.9 152.9 152 153 154.8 154.5 151.5 139.6 136.8 134.3 147.9 146.7 144.3 143.5 142 140.4 139.5 138.7 140 137.3 135.5
179.9 164.3 143.7 128.6 123.4 119.1 117.4 112.6 109.2 105.9 120.4 126.4 128.7 136.9 154 176.3 201.6 233.3 263.6 294.6 317.4 328 331.7 332.5 330.4 330.3 326.5 322 307.8 293.6 277.1 257 244 240 243.2 249.9 257 268.8 295.1 326.6 370.8 384 395 399.3 401.8 412.1 423.6 428 424.2 423.5 424.4 434.7 436 436.4 437.3 439.9 442.9 450.3 444.4 435.2 428.9 422.7 417.5 416.2 413.8 412.4 411.7 410.5 406.3 401.6 399.2 395.9 391.4 384.6 372.8 359.8 369.8 377.4 383.2 389.4 391 390.3 388.1 386.6 382.7 376.4 371.2 365.5 360.1 353.5 350.1 345.2 339.9 336.6 333.6 330.7 325.8 320.4 321 321.1 321.5 316.1 313.1 309.1 310.4 311.1 310.4 308.5 307.6 306.9 304.7 301.9 299.1 295.9 292.6 292.5 291 289.9 287.6 285.1 282.7 279.8 277.4 276.5 271.2 266.2 261.8 258.9 254.5 251 249.4 245.4 244.3 241.8 238.2 233.6 224.2 222.5 222 222.8 221.4 218 215 212.6 211.5 210.3 208.3 206 206.3 206.8 205.8 203.4 200.5 197 193.2 189 183.7 177 170.5 166.8 165.5 164.2 163.1 163 163.1 159.8 158.5 157.1 155.1 154.7 154.9 152.9 151.1 149.9 150 152.2 148.9 151.5 151.9 152.4 152 151 152.5 153.4 153.9 151.8 138.8 137 134.8 135.2 133.5 131.6 131 128.7 128.3 129.2 131.6 138.7 137.9 136.8
199 187.5 165.1 139.9 124.8 117.7 116 110.8 107 105.8 107.5 125.6 126.8 132.8 146.1 169.3 198.1 227.3 257.2 284.6 306.4 318.9 322.5 324.7 324.9 324.2 323.5 319.2 312.9 294.2 275.1 258.3 247.6 239 240.6 245.3 252.6 265.1 284.7 309.6 342.9 377.5 383.4 397.3 396.8 402.4 413.4 424.2 422.8 419.3 421.2 426.7 433.9 434.8 435.9 438.5 442 450.7 445.8 438.7 436 433.7 426.3 421.2 418.7 417 415.5 412.3 408.2 405.2 402.6 399.5 394.4 386.9 377.6 369.4 357.8 359.9 372.2 378.9 383.2 385 383.9 382.4 379 372.6 368.3 362.5 356.6 351.4 346.7 342.5 338 332.4 327.8 325.2 322 316.1 313.9 313.6 315.3 310.3 307.3 303.8 306 305.7 304 302.9 302 301.2 299.7 297.9 294.9 292.3 290.3 288.8 288 287.4 285 282.1 279.2 276.8 274.9 273.5 271.5 267.3 261.8 257.5 252.5 249.1 247.1 245.8 244.3 239.1 233.8 228.8 223.8 223.6 223.8 222.1 218.2 215.5 212.4 211.8 210.8 210 208.1 205.9 207 206.7 205.2 202.4 199.6 196.8 192.6 187.3 180.8 174.2 168 164.9 162.5 161.8 161.1 161 161.9 161 157.4 155.7 153.5 152.2 152.6 151.7 150.2 149.8 147.1 147.1 147.8 149.3 149.9 150.6 150.4 151 151.1 151.9 152.8 153.6 149.8 139.6 135.9 134 131.9 130.3 131.8 130.7 128.6 125.8 126 128.6 138.1 137.6
210.7 198.6 180.1 158.7 128.7 116.9 115.1 109.4 106.4 105.7 103.8 124.4 125.3 129.3 140.7 161.1 188.5 218.4 248.8 275.1 294.8 307.2 313.2 316.3 319.8 321.7 320.3 317 305.1 286 268 257 248 241.7 240 243.3 250.3 262.3 277.1 291.5 317.3 346.3 374.4 381.7 393.4 395.7 404.6 419.9 421.1 418.2 418 421.1 431.4 432.8 434.1 436.6 440.3 449.3 447.9 442 439.4 435.8 429.3 425.9 429.2 421.9 416.8 413.3 410.7 409.2 406.2 401.8 394.8 387.2 382.6 375.8 370.6 357.4 356.4 370.3 376.7 378.8 379.4 377.8 373.6 368.8 364.4 358.4 351.6 346.3 343.2 339.5 335.7 329.8 323 319.7 317.6 312.7 306.3 307.4 305.7 304 300.6 299.5 301.2 300.1 299.3 298.3 297.4 296.6 295.7 293.3 291.1 288.9 286.9 285.6 284.6 283.5 281.7 279.2 276.4 273.4 271.9 271.3 270 266.4 263.4 258.9 252.9 247.8 247.5 245 244.7 238.3 231.9 228.5 223.9 224.5 222.6 219.5 216.1 212.9 211.5 210.7 209.1 207.5 206 206.2 206.4 205.4 204.3 201.5 198.6 195.5 191.2 185 178.2 171.6 165.6 162.5 159.6 158.8 159.1 159.3 161.2 161.7 158.4 155.3 152.6 150.6 150.6 150.7 149.5 149.5 147.1 147.1 145.1 147.8 146 147.3 148.9 149.2 150.2 150.7 150.7 152 152 150.7 149.4 147.4 145.7 143.5 137.7 133.5 132.3 129.5 125.3 124.6 135.6 138.7
210.9 192.3 164.6 143.4 127.3 115.9 114.2 108.9 105.9 104 103.3 122.6 124.2 127.2 135.4 153.9 177.8 206.6 240.6 269.9 286.4 296.5 303.6 308 314.8 318.8 320.2 318 299.3 276.2 261.2 250.3 242.8 236.9 245.6 248.7 248 257.4 265.3 276.7 294 318.6 344.6 371.3 383.1 390.5 396.4 411.8 416.8 413.4 414.2 417 423.7 430.9 432.2 434.2 436.5 444 449.6 443.8 439 437.3 431.5 430.3 432.3 424.7 418.8 416.1 415 410.9 407.7 400.6 397.1 393.9 388.7 381.6 375.1 365 344.4 359.6 365.8 370.6 372.4 372.4 369.4 365.5 359.7 353.8 347 341 337.8 336 332.4 326.7 320.7 313.2 312.2 308.5 302.7 299.5 298.4 297.3 295.3 294.6 297.1 294.8 295 294 293.1 292.1 291.1 290 286.4 282.5 282.9 281.6 280 279.2 278.2 276.1 272.7 269.6 267.9 268.1 268 264.1 259.4 255.4 251.2 248.4 246.7 240.4 239.1 240.2 234.4 229.6 226.6 223.2 218.5 216.3 213.2 210 209.7 208.9 206.9 205.8 204.5 205.5 205.4 204.1 202.9 200.5 197.5 194 189.6 182.9 176.2 169.4 163.7 160.8 157.3 155.8 156.4 158.2 161 161.7 159.6 157 151.8 149.5 148.8 147.8 148.2 147.6 146.3 145.4 144.2 147.9 145.1 144.7 146.2 147.2 147.3 148.2 147.9 148.8 149.6 148.7 147.6 146.7 145.5 144.5 142.1 134.2 131.5 128.4 122.9 124.9 135.7 139.3
193.5 174.8 156.6 140.5 125.8 114.8 110.8 107.3 105.2 103.4 102.1 114.9 122.8 125.3 131.1 145.8 171.2 199.9 235.9 262.3 275.9 284.8 292.2 299.7 306.6 310.9 313.4 309.9 289.7 265.3 249.5 241.2 235.7 235.5 252.6 254.4 248.9 249.7 253.9 263.7 277.4 293.9 316.5 343.1 362.8 378.3 391.6 397.6 405 405 401.3 410.7 417.8 428.6 429.7 430.7 432.3 438.1 446.5 442.5 438 437.7 433.7 433.4 434.2 427.7 423.9 425 418.2 409.9 405.7 402.2 400.8 398.8 391.1 382.4 373.6 364.4 346.3 349.4 352.7 360.2 364.2 367 363.9 359.2 354.6 348.8 341.6 335.2 332.1 331.1 327.7 322.3 316.9 310.6 304.5 301.6 297.3 293.8 294.1 291.7 288.6 291.5 293.9 293.5 291 289.9 289.1 288 287 283.1 281.2 277.7 275.2 274.7 277.1 274.1 273.7 271.8 269.2 267.3 264.5 263.8 264.4 259 255.4 251 248.3 244.6 240.4 236 235 234.1 229.7 226.7 223.2 219.8 216.4 213.3 210.2 208.4 208.2 206.4 204.8 203.3 202.4 202.5 203.1 202.4 201.1 199.3 196.4 192.9 187.6 181.2 174.3 168.4 162.6 158.7 156.4 155.3 155.8 158.8 162.4 162.1 159.1 155.3 150.2 147.1 145.9 146 146.1 144.9 144.6 145.3 145.7 150.4 144.4 142.9 143.5 144.5 145.2 146.3 145.2 145.6 146 146.6 145.5 144.6 143.6 143.4 141.2 134.3 131 130 123.9 122.2 133.6 140.1
202.4 189.2 171.6 155.5 135.7 115.5 110.3 106.2 103.4 102.6 101.8 109 119.6 123.5 129.2 139.4 162 192.1 228 252.1 264.6 269.1 277.1 284.8 290.7 297.1 299.6 296.5 275.2 254.1 241.2 235.2 229.8 236.9 254.9 257.3 251.3 246.7 247.3 251.2 261.7 275.8 290.3 313.1 339.3 363.3 384.5 389.6 388.1 384 388.5 405.3 413.1 422.4 427.6 427.1 427.3 432.6 439 441.8 436.3 435.7 434.1 432.4 435.7 431.6 433.9 427.1 419.2 412.3 410.1 406.6 403.7 401.1 391.3 382 372.8 363.4 354.7 344.1 338.7 346.2 354.7 356 356.2 353.5 349.9 343.3 335.7 329.7 326.5 324.1 320.2 315.1 310.4 306.5 300.4 296.6 293.3 290.9 288.3 285.6 283.7 287.8 291 291.4 287.1 286.8 286.9 286 282.1 279.9 277.7 273.3 272.7 270.8 272 270.3 269.8 268.2 265.6 264.2 262.3 257.9 258.1 253.4 249.3 245.3 241.6 237.6 234.3 232 230.7 230.2 226.8 223.9 220.7 217.2 213.1 210.3 207.4 206.3 205.8 204.3 202.5 200.3 198.6 199.1 199.7 199.4 198 196.1 194.7 191.5 185.9 179.6 172.5 166.3 161.1 157.3 156.2 155.7 156.3 159.5 163.8 160.5 157.4 152.3 148.7 145.9 144.7 143.9 142.1 143.5 143.9 143.8 145.4 150.3 146.3 143.1 142.4 143.6 143.5 143.4 142.6 143 143.3 143.6 143.6 142.8 142.5 139.7 140.3 136.4 130.8 129.3 127.9 121.3 129 139.5
214.3 206.7 189.2 163.4 139.6 119.5 107.3 104.6 102.8 101.3 101.2 116.2 119.3 121.9 127.3 135.1 156 181.6 213.6 239.4 252.4 259.5 264 268.4 276.2 282.7 286.1 277.6 260.5 243.9 234.3 228.3 226 234.4 252.6 256.5 252.6 244 241.5 244 248.4 257.8 271.2 287.1 316.1 345.2 362.3 375.3 368.8 371.4 392.9 405.5 406.5 412.5 422.8 423.1 423.2 425.9 428.6 433.5 433.7 430 432 430 433.9 432.5 434.1 429.1 420.9 416.1 415.2 411.2 405.5 399.2 390.5 383.3 374.5 364 355.4 348.2 340 328.1 341.3 347.1 348.5 348.4 344.4 340.8 332.2 324.5 321.8 318.7 315.5 311.5 306.1 300.6 295.9 291.7 290.2 289 283.1 280.9 280.7 283.8 287.4 288.4 284.8 284.4 284.2 282.3 277.6 275.7 273.9 271.4 271.9 269 267.5 268.1 266.6 262.8 258.5 258 253.7 250.2 247.8 246 244.4 240.4 236 232.4 229.9 226.5 225.4 225 224.5 220.7 216 213.3 209.2 207 204.6 202.4 201.7 200.2 198.4 196.7 194.9 196 196.3 194.2 192.7 191.7 190.9 189.8 184.5 178.1 170.8 164.6 160 156.8 155 154.8 156.5 158.6 159.8 157.8 154.7 152.6 149.1 145.9 143 142.3 143 143.6 143.2 142.4 142.8 144.4 146.5 144.4 141.4 142.2 141.4 140.8 140.3 140.1 140.8 141.1 141.6 141.2 139.6 139.3 138.6 136.9 133 129.3 128.7 120.2 124.5 135.4
222.2 209.4 193.8 172 146.4 122.7 108.9 103.2 101.8 100.5 99.8 116.3 117.8 120.8 127.1 135.7 149.7 174.1 203.4 223.2 235.3 243.7 250.6 254.7 259.4 263.3 266.3 260.5 248.3 237.2 228.2 221.4 224 232.3 246.3 253.3 250.4 241.7 232.1 234.7 240.7 245.3 253.4 267.2 286 312.8 340.4 346.1 344.7 373.5 394.7 404.6 401 403.7 413.3 417.8 419.6 420.5 420.6 423.5 427.3 426.6 425.4 427.3 428.2 430.1 429.4 428.4 421.9 416.9 411.9 409.5 405.9 397.6 387.5 381.7 375.5 366.1 358.3 351.2 343.5 334.4 324.4 335.7 338.8 338.6 338.7 335.2 329.6 322.4 317.2 314 311.1 307.5 301.9 297.6 293.5 289.6 288.8 286.5 282.3 277.3 277.8 281.7 284.1 284.2 282.1 280.1 279.6 278.4 277.7 275.6 270.5 269.8 268.3 265.2 261.3 258.6 254.5 252.6 251.7 249.5 246.4 243.9 241.6 240 239.4 235.9 232.8 227.4 224.2 222.6 221.1 220.4 220 217.7 212.9 208.7 205.2 202.2 199.7 198.1 196.9 195.6 194.7 192.9 191.8 191 191.3 189.6 188.1 187.6 187 187.2 182.9 177.3 169.8 163 158.9 155.7 154 154.9 156.3 156.8 156.8 155.2 152.2 151.9 149.2 145.8 142.7 143.8 144.1 142.4 142.8 142.4 142.4 142.6 146.1 144.3 141.3 141.3 141.1 140 138.8 137.7 137.8 137.5 137.2 137.8 137.7 137.4 137.1 136.3 132.9 129.1 128.3 122.4 116.2 127.5
218.4 206.5 187.5 168.1 157 131.5 114 103.7 98.8 98.3 108.4 114.5 118 119.9 125.4 133.6 146.1 166.1 195.1 218 227.3 233.8 238 242.4 248.3 253.1 254.6 251.7 239.5 230.8 223.3 214.9 221.7 235.5 240.3 244.8 244.1 238.2 224.4 221.8 228.9 235.7 239.6 250.3 265.7 284 307.5 316.8 335.2 367 388.3 401.3 399.6 396.6 398.7 408.9 412.3 413 414 415.4 419.2 421.7 420.8 420.3 422.9 424.4 427.7 425.8 422.9 418.9 410.7 408.2 406 398.8 389.2 382.4 376.6 370.1 364.5 359.4 353.1 343 331.9 319.8 325.2 328 326.2 323.5 323.8 318.2 313.3 309.9 306.4 302.5 298 294.5 290.7 285.3 286.6 282.9 278.4 275.3 275.5 278.7 279.3 278.5 277.1 275.1 274.5 274.5 274.5 272.7 269.9 266.5 262.3 260.1 255 250.7 246.1 243.9 244.2 243.1 240.4 235.3 233.2 232.1 230.4 229.2 225.9 222.7 220 219 217.5 216.6 216.2 213.8 210.2 205.4 201.7 197.8 194.4 193 192 191.3 190.9 189.9 189.1 188.2 187.4 186.9 185.3 184.2 184.7 184.9 181.9 176.8 169.7 163.1 158.7 155.2 153.6 154 155 155.9 155.1 153.6 151.3 149.9 148.1 146.5 143.5 143.5 142.8 141.6 143 144.6 144.2 143.4 143.4 142.8 139.9 139.2 139.9 138.9 137.4 135.6 134.8 134.6 133.1 134.4 136.1 136 136 135.9 134 131.6 128.3 124.2 118.3 119.7
226.3 213.3 196.9 180.9 167.6 145.5 122.2 103.8 98.4 98.4 109.2 112 116.8 119.6 123.8 130.4 140.2 158.9 183.6 214.2 227.1 227.4 222.8 228.9 240.4 245.9 249.5 246.2 233.2 224.9 219.3 212.4 218.9 241.9 244.7 241.5 240.2 230 220 213.6 215.6 221.7 229.2 237.2 248.9 264.4 279.1 296 332.6 361.1 374.9 393.5 398.4 393 390.4 394.7 406 405.1 405.9 406.8 411.3 413.7 414.5 415.7 415.3 418.3 420.8 423.3 421.7 419.4 413.6 409.4 408.1 403 394 389.2 382.6 376.5 369.9 364 357.2 350.2 342.3 335 325 314.5 312.9 313.7 312.3 306.5 303.9 302.5 299.8 295.7 292.4 288.5 284.6 281 281.8 279.5 277.7 273.1 272.6 273.2 272 268.3 265.1 262.5 264 269.1 270.4 268.1 268.2 263.7 258.1 254.8 250.6 247 242.4 239.3 237.7 235 233.9 228.3 225.4 223.9 222.7 221.6 220.3 217.4 215.3 213.9 213.7 212.2 210.3 208.1 205.9 202.8 198.4 195.5 192.2 190.8 189.4 188.3 187 186.3 186.3 185.5 185.1 183.8 182.4 182.2 182.4 182.1 180.3 175.7 169.8 164 159.3 155.5 154 154 154.3 154.7 153.3 153.1 149 150.3 146.5 145.7 144.6 143.7 141.8 141 143.7 145.2 145.6 145.4 144.8 142.6 141.5 137.9 138.2 138.3 136.9 134.6 134 133.4 132.4 131.1 132.5 134.7 135 135 133.2 132.8 129 125.4 121 115.7
229.6 220.4 207.5 188.6 169.1 153.3 124.7 104.7 98.8 102.7 108.3 113 116.1 118.4 122.1 127.4 137.2 150.9 173.4 194.7 212.3 218.4 213.1 215.1 228.3 242.1 245.2 240.4 228.1 220.1 215.8 206.4 211.9 234 239.2 239.1 233.7 226.4 216.2 208.2 205.8 209.6 216.9 224.7 235.2 248 262.9 291.6 311.4 351.5 366.6 372.8 385.5 391.7 386.1 385.8 391.8 400.6 397.4 398.8 402.5 405.5 406.5 409.4 409.7 410.9 414.7 418.7 419.2 417.3 415.7 412.6 411.2 407.8 400.8 396.2 390.7 382.4 373.2 367 361.8 355.8 349.3 342.1 334.1 327.3 320.3 309.7 301.3 301.2 296.3 294.3 292 289.4 287.4 283.4 275.7 277.1 276 274.7 272.7 270.8 266.8 260.7 255.1 253.1 254.9 253.4 250.2 261.9 266 265.5 265.8 261.6 256.4 253 249.1 244.7 240 235.6 233.3 229.7 225 221.4 218.5 216.7 215.5 214 212.7 211 211.2 210.2 209.9 207.7 205.7 203.3 201 199.1 195.7 191.2 188.6 187.1 185.7 184.9 183.6 182.3 182.5 182.8 182.9 182.2 180.5 180.3 180.2 180 178.3 175.2 171.1 165.7 161.4 157.6 154.9 154.2 153.8 153.2 152.2 150.3 152.5 155.1 147 145.3 144.4 143.8 141.7 140.2 143.5 144.9 147.8 147.8 146.2 143.4 141.1 138.1 136.8 137.8 136.3 134.8 132.8 132.1 131.5 130.4 131.8 133.7 133.8 132.8 132.4 131.9 130.2 126.7 121.7 117.4
225.1 221 208 186.5 165.1 139.6 116.3 102.9 95.6 97.9 105.2 113.5 115.4 116.7 120.2 126 135.9 147.1 166.8 180.8 193.1 198.5 201.9 205.5 210.8 216.6 220.5 218.9 214.7 211.9 211.3 205.5 202.5 223.3 233 232.8 227.4 220 211.1 202.6 197.8 201.7 210.5 221.8 231.6 240.3 255 276 307.2 337 357.7 362.7 372.1 389.9 384.9 380.6 381.5 390 395.4 390.3 392 395 398.4 399.8 403.7 405.5 407 410.3 415.6 415.7 414.6 414.4 414.3 411 405.2 402.4 394.7 386.5 380 370.4 364 358.2 351.2 345.8 339.5 334.9 329.1 324.1 318 308.6 301.8 296.9 293.9 287 286.4 282.4 279.4 276.7 271.3 269.9 267 268.5 268.5 268 266.8 267.9 267.2 264.5 257 248.9 259.4 262.8 263.4 258.7 252.9 250.6 246.8 241.8 236.8 233 228.7 224.6 221.2 216.4 212.4 210.2 208.2 206.4 205.2 205.1 204.3 205 204.3 203.1 201.4 199 196.8 195.1 191.2 188.2 184.6 182.8 181.4 181.2 180 178.7 178.1 179.1 179.9 179.3 178.6 178.4 178.3 177.7 175.8 172.9 169.8 166.1 161.7 157.7 154.9 152.4 151.8 151.1 150 149.2 151.5 151.7 147.3 145.4 143.8 143.5 144.2 143.7 142.8 145.1 148 149.6 147.9 143.8 140.4 138.1 135.1 136.1 136.1 134.4 132 131.3 130.5 130.3 132.2 132.9 133.2 131.1 130.5 129.2 127.3 125.7 122.7 121
218.1 209.2 194.4 179.9 154.7 132.5 113.2 103.2 94.7 93.2 100.2 111.9 113.8 116.3 118.9 124.5 132.2 143.2 164.2 181.2 183.1 185 187.5 190.2 194.5 199.9 202.1 202.7 203.3 202.8 203.9 203.6 193.5 216.7 230.4 228.1 223.4 211.3 203.5 194.6 191.1 199.9 212.8 223.2 229.3 232 241.4 259.5 282.9 306.1 336 350.5 361.7 383.6 386.1 379.6 374.7 376.5 385.5 390.5 383.8 386.7 387.9 392.7 393.9 398.8 401.4 403.3 406.1 412.2 413.1 413.9 414.4 413.1 408.5 406.9 399.4 392.5 385.1 375.6 366.5 360.3 355.9 350.7 346.1 342.2 337.5 330.8 324.8 317.4 311 306 301.5 297.2 292.7 287.2 283.1 280.7 278.7 276.4 275.2 274.8 273.5 270.2 269.6 269.3 269.3 266.4 262.2 246.6 242.3 249.3 260.6 253.7 248.1 245.3 240.5 238 234.1 230.1 226.3 220.5 216 213.2 208.7 204.4 202.2 200.2 200.4 198.4 197.2 197.5 197.6 197.3 195.8 193.9 192 189.6 186.3 183.7 181.1 179.2 177.4 176.8 175.9 174.6 173 174.4 174.7 174.2 175 176 175.6 174.5 173.2 170.4 167.2 163.5 159.3 156.5 153.3 151 150.1 149.3 147.9 147.1 149.6 151.5 146.4 143.2 143.2 144.5 145.7 144.9 141.9 144.6 147.1 148.9 147.2 144 140.7 137.1 135.6 134 135 134 131.6 130.5 130.3 131.2 134.2 134.4 133.6 129.8 127.4 125.2 125.3 123.1 121.5 121.1
217.3 202.1 184.8 168.9 147.7 127.6 112.7 105 97 92.7 93.7 109.4 111.8 113.6 117.8 122.4 130.3 140.4 161.5 182.1 184.4 182.4 181.2 179.8 182.3 186.3 190.6 191.9 191.7 193.4 194.4 193.8 188.2 217.4 232.1 226.8 217.6 207.6 200.6 189.8 186.2 193.2 206.4 219.1 222.4 223.1 231.6 247.5 260.3 288.7 305.2 343.5 355.2 367.3 381.5 380 372.3 369.6 372.8 385.1 384.3 376.5 380.1 382.4 386.9 391.4 395.7 398.4 399.7 402.7 407.9 411.6 412.8 413.8 410.3 408.4 403.7 397.5 390.2 381 372.4 366.7 361.7 354.7 349.4 345.6 341.2 334.9 328.6 321.7 316.1 309.5 305.4 300.4 296.2 293.6 288.8 284.2 282 280.1 279.1 277.5 276.6 272.3 273.2 269.7 267.6 267.2 264.7 258.5 246.9 239.7 234 241.9 243.4 238 233.4 230.7 228.7 225.6 222.6 217.4 211.7 209 205.5 200.2 197.2 195.4 194.1 194.1 192.3 191.3 191.2 190.7 189.1 187.2 184.9 183.7 181 179.7 177.3 175.4 173.6 172.2 171.9 170 168.3 169.7 169.4 169.4 170.4 171.4 171.5 170.5 169 167.4 163.8 160.2 156.9 154.8 151.3 149.8 148.4 146.9 146 147.1 148.3 145.6 141.3 142.2 142.7 144.6 144.2 142.1 139.7 142.6 145.1 146.8 146.4 143.7 140.3 136.5 133.4 131.5 132.8 133.2 131.8 130.5 130.7 133.2 135.9 136.7 133.8 129.1 125 124.4 124 120.9 118.7 117.3
211.1 191.7 175.8 153.6 135.3 120.9 112.8 105.3 102.3 97.5 90.4 103.2 111 111.9 113.5 117.1 124.8 135 158.3 175 183 182.6 178.2 175.1 174.7 180.5 181.2 184 183 184.1 184 183 191.2 217.5 227.4 220.7 214.6 204.9 198.4 190.3 180.7 183.5 193.4 204.4 209.7 214.3 220.1 234.9 247.4 266.7 292.5 326.1 346.4 359 376.6 381.6 373.7 367.2 363.8 367.9 379.4 376.9 369.5 373.7 376.8 382.9 388 392.2 394 394.2 398.3 403.7 408.1 411.8 412.5 410.7 407.7 401.6 394.6 385.2 378.3 373.2 366.1 359 351.7 346.7 342 336.6 330.1 323.1 317 311.8 308.7 307.1 302.7 299.8 295.6 290.3 285.3 282.3 280.8 279.4 276.1 275.3 278.9 276.4 269.8 265.5 269.4 267.3 262.9 260.5 248.3 235.6 230.7 236.3 231.4 226.5 223.5 221.3 220.1 216.3 208.1 204 202.4 199.4 194.1 192.1 190.6 190.1 188.1 186.7 186.4 184.2 183.8 182.7 179.8 178.1 176.5 175.1 173.5 171.5 169.8 168.1 167.1 166.1 163.4 163.6 164.5 164.8 165.8 166.8 167.5 166.4 165.1 163.8 160.6 157 154.6 152.5 150.1 147 145.2 145.2 146.1 147.5 149 141.1 139.1 140.2 144.1 144.4 142.6 139.5 137 139.6 142.2 144.7 144.1 142 138 134.2 131.6 129.6 129.9 131.6 130.4 129.8 131.7 134.5 137.5 136.5 132.4 128.1 123.2 122.4 120.5 117.5 116.1 117.2
197.7 186.6 168.2 147.3 130.3 117.8 112.2 104.7 103 97.8 90.7 96.7 110 110.3 111.6 114.6 119.4 132 154.7 165.9 174.9 178.3 174.6 171.8 170.5 173.7 177.6 176.1 174.9 175.5 175.5 179.6 196.6 223.4 224.9 216.7 205.7 198 193.1 187.8 176.8 175.9 182.7 189.1 194.6 207.8 213.7 221.5 233.7 250.4 274.6 300.4 332.1 348.8 358.8 376.4 374.3 368.1 360.9 359.8 361.1 366.2 367.3 361.9 368.3 376.1 380.7 384.3 386.8 386.2 388.4 393.6 402.9 405.6 409.7 410.9 408.8 404.7 398.9 389.8 382.8 377.9 369.6 363.5 356.5 348.7 342.8 335.9 331.2 324.2 319.4 318.8 317.4 314.5 309.3 303.6 297.7 291 287.4 284.6 283.5 282.7 279.8 278.5 284.8 283.7 275.8 267.8 271.2 265.1 260.8 259.8 247.9 237.6 226.3 231.3 230.6 227.8 213.4 209.6 206.8 201.2 198.2 198.5 198.1 198 195.5 191.3 188.2 186 184.3 184.1 181 179.6 178.1 176.9 176.4 174.7 173.1 170.6 169 167.8 166.1 164.6 163.3 162.2 159.5 157.4 159.4 160.3 161.2 162.2 163.2 162.4 161.5 160.3 157.1 153.8 152.3 150 147.6 145.2 145.2 146.5 147.7 149.1 142.2 139.5 139 141.5 144.9 144.5 141.7 138.8 135.8 136.6 140.3 141.2 141.6 140.2 135.7 132.2 129.7 128.1 127.6 128.9 129.2 130.5 132.7 135.1 137.1 135.1 130.5 125 121.2 117.5 115.7 116.2 116.1 117.2
179.8 167.1 155.6 139.4 125.7 117.8 113.3 105 99.2 93.6 89.5 90.5 93.6 96.6 100.6 109.3 114.9 128.1 147.2 158.3 163.1 164.8 166.7 168.2 166.8 169.8 173 170.8 167.2 167.2 173.3 181.7 206 224.8 221.1 212.8 201 192 186.9 182.6 174.2 173.6 174.2 178.8 187.6 201.7 211.9 218.5 224.4 236.1 257.1 284.2 315.8 337.8 351 360.7 371.7 369.4 363 355.8 351.9 349.4 349.7 350.9 360 368.9 372.5 375.3 378.6 378.4 379.1 381.6 390.2 399.5 405.1 409.2 408.4 405.8 402.2 394.8 387.2 381.5 373.3 366.2 360.1 353 345.5 338.4 332 326.9 325 324.1 322.2 318 312 305.6 297.7 292.4 290.2 289.7 289.3 289 289 289.5 289.7 286.9 281.4 272.8 264.9 262.6 256.2 250.1 242.4 236.5 232.2 221.5 223.4 219.4 220.8 220.7 217.6 215.6 210.9 199.6 189.9 194.4 194.7 191.6 187.6 183.9 181.8 179.8 177.8 176.1 174.9 173.2 172.7 171.4 169.7 167 165.2 164.1 162.6 161.2 159.9 158.7 156.4 153.9 155.9 156.5 156.7 157.6 159 158.7 157.9 156.7 153.4 152.1 150 147.8 145.6 145.5 148 148.8 145.9 143.7 140.4 140.2 138.8 142.7 144.9 143.7 140.7 137.8 134.9 134.9 136.5 137.7 137.7 137 134 130.7 126.7 125.8 125.7 126.5 130.7 129.1 132.8 135 134.3 132.6 127.1 120.4 116.2 115.3 115.4 115.9 115.9 116
158.7 144.1 135.3 126.6 117.2 110.3 105.5 93.3 88.7 86.4 86.1 87 87.4 90.4 91.5 93.8 107.1 124.1 141.2 151.6 155.6 155.7 156.6 159.9 163.9 166.9 168 164 161.7 163.3 170 184.4 211 220 215.3 205.3 191.3 182.1 179 174.1 170.3 169.7 170 172.4 179 192.2 200.4 210.1 216.6 224.5 246.1 266.5 299.1 323.9 339 350 359.2 368.8 363.6 357.9 349.6 341.6 339.8 339.9 354.7 356.3 366.4 367 368.1 369 371.2 373.7 378.3 387.9 399.2 403.1 406.6 406.3 404.4 398 390.5 384 375.9 368.7 362.8 356.8 350 342.5 335.1 331.7 329 326.1 323.9 318.6 311.8 304.3 299.1 297 295.3 295.1 295.1 294.8 294.3 293.5 292.1 286.7 282.1 274.5 266.4 261.6 255.7 250.6 244.2 236.8 232.5 230 228.4 227.9 225.2 220.4 218.7 214 207.1 200.9 195.5 184.2 186.5 190.5 187 182.4 179.9 178.1 176.5 174.5 172.1 169.8 168.9 167.2 165.9 163.2 161.8 160.6 159.2 157.9 156.5 155.2 158.1 150.7 148.3 154.9 152.3 154 154.9 155.3 154.6 154 151.6 149.9 148.4 147 145.9 146.7 146.2 144.6 142.8 141.6 140.3 139.5 139.5 140.5 141.9 140.6 138.4 136.2 134.5 132.1 132.9 134.9 134.8 135.4 132.4 128.6 125.6 125 124.8 125.3 124.5 125.3 131.7 132.6 131.7 125.5 121.2 115.9 117.2 115.9 115.4 115.4 115 116.1
141 129.2 121.9 110 100.8 91.3 87.6 87.2 87.3 89.4 90 89 88.1 85.2 89.2 90.5 100.6 116.7 129.9 138.2 140.9 145.3 151.8 157.5 169.4 163.9 164.3 161.5 156.3 160 165 184.4 203.9 212 208 199 183.2 175 170.5 168.8 166.8 166.9 167.3 167.7 170.2 178.4 189.1 204.1 206.9 213.6 235.4 255.7 278.3 299.9 324.9 338.6 347.1 356.1 363.3 358.4 352.4 344.6 334.8 330.5 337.6 350.3 349 357.1 358.5 359 360.2 364.6 369.6 374.6 386.6 398.1 403.3 405.6 405.3 401.6 395.2 386.7 378.2 371.8 366.3 361.9 353.8 347.3 339.6 334.8 330.6 327.2 324.2 321.4 314.1 306.2 301.2 301.8 300.8 300.6 300.6 300.5 298.9 296.5 293.1 287.8 282.4 274.6 266.1 259.4 261.5 254.1 249.1 240.5 236.2 231.5 228 225.4 223.4 219.7 217.7 212.1 204.4 198.5 193.1 187.1 177.3 185.5 184.4 181.5 178.7 176.1 173.8 171.5 169.2 166.9 164.9 163.2 161.5 160.2 159.1 157.3 155.9 154.5 153.2 151.4 151.3 147.6 147.5 152.6 151.4 153.1 154 153.4 153 152.3 150.3 148.5 147.4 146.3 146.8 144.4 142.8 142.6 142.8 140 139.6 140 141.7 142.7 140.7 137 135.8 134.4 129.3 130.3 130 131.7 132.8 132.9 129.7 125.2 122.9 126 123.4 123.7 123.9 124.6 131.8 130.4 127.4 115.9 120 114.5 113.6 113.6 114.5 114.6 114.9 114.4
123.7 115.8 105.5 95.6 87.8 87.6 93.8 97.1 99.3 99.6 98.8 98.4 94.3 89.5 84.5 90 93.6 110.2 118.6 124.9 134.1 143.2 152.6 163.6 173 170.5 162 156 151.3 156.9 162.2 176.4 197.3 205.7 198.8 193.5 180.5 169.2 165.5 163.6 163.6 164.2 164.5 164.7 166.7 171.8 178.5 190.8 200.7 207.5 218.2 241.4 263 289.4 301.9 331.3 336.3 342.6 350.8 357.8 352.5 347.2 337.6 327.6 320.8 328.9 340.4 340 345.3 350.3 349.9 353.6 359.6 365.9 375.4 388.3 396.6 403.4 404.5 402.5 398.2 390.7 383 375.2 367.5 361.2 356.3 350 342.9 335.1 330.2 327.5 326.2 322 315.7 308.1 304.5 305.1 305.4 305.4 304.4 302.8 300 296.3 291.9 287.9 281.4 274.9 266.6 254.4 256.6 257 250.5 243.6 238.2 232.6 227.7 222.9 220.4 217.9 213 206.9 201.3 196.1 191.2 188.5 175.8 182.8 181.6 178 174.9 173.2 170.8 168.5 166.7 164.5 162.4 160.5 158.6 157.5 156.4 154.1 152.7 151.2 149.4 147.1 145.7 144.4 148.2 143.8 147.7 148.3 148.3 157.2 158 153.5 150.8 148.7 147.3 144.8 142.1 143.8 144.1 144.3 142.9 140.4 140.7 142.5 143 145.3 142.6 143.2 138.5 133.3 128.5 128.4 127.5 128.1 130.1 129 128.5 124.1 122 121.6 121.7 122.9 123.7 124.4 131.1 123.1 119.4 122 115.1 112.9 112.6 114.7 114 114.2 114.7 113.7
106.4 100.3 92.7 88.1 91.8 100.8 109.3 109 107.9 102.2 100.4 99.1 98.7 96.4 92.3 85 89.9 105.1 116.3 123.9 134.3 147.5 162.8 178.8 181.2 176.6 165.7 154 146 150.8 158.1 170.7 192 196 189 178.9 170.3 164.9 162 160.8 161.2 161.4 161.6 162.3 164.7 169.4 173.7 182.3 197.4 206.6 210.9 223.8 242.1 267.4 290.2 301.2 328.6 329.6 336 349.2 352.6 343.2 341.6 331 321.1 310.5 317.4 326.2 330.8 331.1 335.6 340.7 348.3 357.9 367.6 377.3 390.6 396.7 402.2 401.4 400.4 395.2 386.7 379.5 369.7 361.2 357.3 352.5 344.9 337.8 331 328.6 326.1 323 316.8 309.9 307.7 307.6 307.2 306.6 305.6 302.9 299.7 295.5 290.8 286.4 280.8 275 268.5 257.2 247.1 251.7 250.7 245.4 240.2 233 226.4 220.7 218 214 209.3 202.9 198 193.3 189.3 186.7 184.7 170.8 174.9 175.4 172 169.9 167.9 165.4 164.3 161.7 159.6 158.3 156.4 154.3 153.7 150.9 149.5 148.1 145.3 143.2 142 140.7 140.2 140.6 144 142.4 145 148.6 149 147.3 153 144.9 143.1 141.8 141.6 142 143.5 144.2 144.6 142.6 143.3 147.7 147.5 148.4 147.8 144.2 137 131.6 126.4 126 126 127.7 127.8 126.4 125.9 124.5 122.6 121.6 123.2 123.2 122.9 126.1 119.9 123.2 121.1 118.6 116 114.6 113.3 113.3 114.1 113.9 113.9 113.4
94.5 88.5 88.1 98.7 110.5 117.3 119.1 116.8 117.3 110.3 103.7 100.9 98.9 98.5 96.3 84.2 90.3 100.4 116.2 131.2 146.7 160.7 174 191.6 192.2 183.2 168.8 156.1 144.3 144.9 151.8 164.8 183.5 182.9 177.6 169.3 166.7 163.2 160.7 158.7 158.7 159.1 159.5 161.8 164.9 168.3 172.2 175.7 186.6 196.5 207 213.4 226.1 246.5 270.1 290.9 298.4 321.7 323.8 333.1 346.3 345.3 333.9 334.9 323.5 314.4 302.1 303.2 306.5 311.9 306.7 316.9 329.7 338 359.8 366.6 378.9 389.6 395 397.3 399 398.8 390.9 381.1 373.5 364.8 359.4 354 347.5 341 334.4 329.2 326 324.1 318 311.6 309.8 308.7 307.5 306.1 304.6 301.9 299.1 294.9 290.3 285.8 281.1 275.8 269.4 262.6 246.6 244.3 250.4 246.6 238.7 230.5 224 218.1 213.5 209.7 206.5 200.8 195.3 190.2 186.6 183.5 181.9 180.3 171.1 160.4 167.2 166.6 164 161.1 161.3 158.8 156.9 155.8 154.4 151.6 150 149.6 148.6 145.7 141.9 139.7 138.5 137.4 137 138.4 138.6 139 142.1 143.3 144.7 143.4 143.8 141.9 140.2 137 139.9 141.1 142.2 143.1 144.9 145.9 146.5 150.8 152.9 153.8 150.1 142.2 132.8 127.6 124.6 124.4 125.8 127 126.8 126.2 125.1 123.8 121.3 120.5 121.3 122.1 124.3 117.2 121.6 121.4 118.5 115.7 114.4 113.9 112.9 111.6 113.4 113.9 113.4 113.1
89 96.4 110.8 118.4 129.4 134.3 132.2 127.9 121.7 116.5 107.9 101.8 99.6 98.4 95.2 84.3 90.2 93.1 113.6 132.9 151.6 169.9 184.3 199.1 195.4 184.3 168.5 157.7 146.1 140.5 144.6 154.5 166.3 164.7 162.8 161.5 161.9 161.3 159.7 159.4 162.7 164 165.5 169.5 169.1 169.3 171.3 175 179.1 187.6 197.1 203.2 214.5 227.9 243.6 263 281.2 295.1 309.5 321.6 326.9 331.7 335.6 326 325.7 317.6 305.5 296.4 283.4 285.3 279.8 291.8 300.3 321.6 337.4 357.2 365.5 377.2 388 388.4 393.7 397.8 394.6 387.1 376.7 369.6 363.9 359.7 353.3 347.2 338.7 330.2 327.1 324.8 318.8 312.3 310.5 308.8 307.3 305.6 303.8 301.2 298.5 294.4 289.9 285.6 281.4 275.3 268.3 261.7 248.4 236 242.6 243.5 234.6 226.7 219.8 214.4 209.9 205.5 202.4 198.6 193.2 187.7 183.7 180.9 178.7 176.7 172.9 163.3 157.9 158.7 160.6 158.6 157.5 156.1 154.2 153.1 152.4 149.2 146.4 145.5 144.4 145.2 139.4 136.2 134.9 133.6 133.6 133.4 138 139.4 136.9 140.9 141 142.8 139.3 141.8 140.8 140.2 139 139.5 142.1 143 142.4 146.2 148.8 152.9 156.4 152.9 146.1 136.1 130.5 126.1 122.8 122.8 122.4 122.6 123.3 122.9 123.9 123.6 121.4 120.2 119.4 120.3 119.5 121.8 121.8 118 115.5 113.9 113.4 112.9 112.2 109.8 112.4 114.1 113.6 111.1
102.3 113.6 123.3 140 147.6 150.5 146.3 138.9 132.9 123.4 111.4 103.2 100.3 99.2 97.1 84.4 87.4 90 108.1 129.9 150.3 166.4 177.3 188.4 188.2 179 168.4 160.7 147.3 136.3 138.1 141.8 146.5 151.5 154 155.1 155.8 154.4 158.5 163 167.9 177.1 189.5 194.3 196.5 194.4 190.5 185.8 183.1 185.6 193 201.3 213.7 229.1 237.1 245.9 256.7 269.8 283.1 291 299.7 305.9 306.3 306.4 306.5 300.6 287.5 286.8 287.5 276.1 266.3 263.9 274.9 296.6 323.4 340 352.7 361 372.6 383.3 384.9 391.6 394.2 391 380.8 374.8 369.7 365.4 359.7 353.4 342.7 334.3 329.4 327.4 319.5 311.7 309.8 307.9 306.7 305.7 304.1 301.9 299.4 296.2 291.5 285.3 280.7 273 266.2 260.3 251.8 231.1 227.3 226.5 223 219.3 214.8 211.8 207.3 201.8 198.6 195.4 190.8 185.5 182.1 178.5 175.9 173.4 167.6 168.1 162.3 152.8 149.6 156.6 154.2 152.9 151.5 150.3 149.1 147.6 144.1 141.7 139.2 137 134.6 132.5 130.8 131.1 133.9 130.6 134.6 138.4 138 134 135.9 135.7 136.4 141.5 141.3 140.2 137.9 138.5 138.3 138.5 146.9 147.2 151 155.5 155 148.8 139.2 131.6 126.8 123.7 122.1 121.9 121.4 120.9 122.4 122.2 122.8 122.4 121.3 124.9 116.6 120.5 122 123.3 123.6 116.2 114.2 112.9 112.4 111.9 110.4 110 111.7 113 112.2 109.4
118.6 129 141.8 158.5 163.3 166.2 157.7 146 140.1 132.8 112.9 102 100.9 99.4 97.2 83.8 84.8 89.3 98.5 125.6 150.3 164 169.8 173.8 171.7 171.8 166 152.9 139 130.6 136.3 139.2 140.6 142.7 144.6 148.6 151.8 156 161 169.6 184.3 198.3 210.7 222 226.7 226.1 222.4 217.7 212.2 207.6 208.6 210.5 217.8 228.6 235.3 239.1 245.5 249.4 259.1 272.5 282 284.4 284.1 281.9 281.4 276.9 277.6 278.7 280.9 279.8 270.6 255 254.9 276.8 300.5 321.9 334 343.4 353 364.5 371.1 376.9 385.1 390.6 384.8 378.1 372.8 369.5 365.2 357.9 345.5 335.4 330.6 326 319.2 312.1 309 307 305.7 304.8 303.8 302.5 300.2 297.7 292 285.6 279.1 271.1 264.6 257.1 250 240.1 228.8 219.8 213.7 206.4 205.2 205.8 201.9 198.4 195.7 192.5 188.2 183.7 179.8 176.3 173.4 170.8 169.6 166.1 163.4 158.3 150.8 145.4 142.4 144.2 145.5 146 144.2 144.4 143.2 138.4 135 133.6 131.4 130.2 129.1 130.6 128.2 129.2 130.4 131.4 131 129.2 129.8 133.4 130.7 140.7 141.5 139.1 134.2 136 137.5 141.5 148.2 149.7 152.9 156.5 151.1 146.5 132.3 126 123 120.6 120.3 120.9 120.9 119.9 120.8 121.8 123.7 122.9 121.3 118.8 120 121.6 123.4 124.3 117.6 115.6 113.4 111.9 111.4 110.7 110.6 110.4 111.7 111.6 111.1 109.2
133.6 146.4 166.8 174.7 175.4 173.7 164.1 153.9 147.4 129.1 113.8 103.8 100 98.2 95.6 85 84 88.3 96.1 120.8 146.7 159.6 162.8 164.4 161.8 159.7 152.8 142.1 128.1 138.5 147.6 152.5 151.8 150.5 151.5 153.1 155.2 163.1 174.6 188.9 204 220.9 237.7 249 256.2 257.8 255.6 250.6 244 236.6 231.4 227.5 228.9 224.7 234.9 236.6 240 240 245 250.7 255.6 259.8 258.7 264.2 266.7 259.9 254.6 251.8 251.2 249.8 245.8 241.8 234.4 259.9 277.3 297 314.5 322.3 332.6 338.9 348.1 356.7 365.8 377.2 388.8 378.8 374 369 366.9 358.9 344.3 335.8 331.4 326.3 319.2 312.2 308.1 306.1 304.8 303.5 301.5 300.7 297.7 294.3 289.5 283.5 276.8 270.4 265.3 253.6 245.5 238.6 232.7 224.8 219.4 214.6 208 197.6 193.1 192.2 191.2 190.5 186.1 181.6 177.5 174.2 171 168.3 165.1 163.3 160.6 159.3 157.4 151.3 147.5 141.5 138 136.2 137.7 136.7 135.5 133.3 132.3 131.3 129.5 127.4 126.9 125 125.6 125.9 127.3 130.1 127.6 128.6 132.6 132.9 132.3 132 132.4 129.1 135 135.6 136.7 148.9 149.3 151.4 153.8 153.8 146.8 143.3 128.1 122.6 120.5 119.8 119.6 119.6 120.2 119.9 120.1 120.6 122.1 115.4 119.4 118.8 116.9 114.4 113.4 113.7 114.5 114.2 113.2 111.6 111.1 111.2 111 110.8 111.7 110.8 110.2 110.7
149 168.4 179.5 184.2 185 180.6 168 154.3 143 121.1 108.5 102.2 98.9 96 93.7 84 85.9 88.3 93.6 110.6 137.9 151.2 154 155.9 150.1 147.4 138.9 128.1 133.5 143.6 152.6 163.4 162.4 161.2 160.8 160.5 168.6 178.9 193.2 208.3 227.4 246.9 263.1 275.8 284.4 291.5 292.7 286.8 275.4 258.9 249 236.9 227.9 219.7 221 227.1 233.5 230.9 233 239.8 245.9 243.6 241.5 242.7 244.4 245.6 245.3 241.2 237.7 235.8 230.7 227.9 215.5 241.8 259.9 270.9 288.9 304.3 311.4 316.7 320.8 330.1 340.2 356.2 368.7 376.5 374.4 369.4 363.7 355.7 346.9 338.7 333.3 331.2 322.8 313.1 306.1 303.6 302.4 300.2 298.4 295.5 293.1 289.6 284.3 278.9 274.2 268.1 258.5 249.4 241.1 237 231 225.1 222 216.2 209.6 203.4 193.8 184.4 181.5 185.6 183.5 179.9 175.8 171.8 169 165 163.1 160.4 160.4 158.7 155.8 152.8 149.8 146.8 146 143 135.8 128.2 126.6 127.6 127.8 128.7 127.8 126.3 125.7 125.4 124 124.3 124.5 124.1 123.3 125.5 125.1 123.1 123.8 125.5 133.9 135.1 134.7 134.8 136 148.5 150.4 153 155.1 147.9 146.2 137.1 123.6 120.4 117.7 118 118.6 118.3 118.6 119.1 118.9 116.2 114.7 119 120.3 118.2 115.5 112.4 111.2 111.4 113.4 113.2 113 111.4 111.3 111.4 111.5 111.3 111.3 110.5 111.2 112.3
167.2 182 192.6 191.4 187.2 179 169.3 153.4 131.7 116.6 107.5 101.9 97.5 96 87.9 84.4 86 87.5 93.6 103 129.2 137.6 141.8 142.6 139.2 137.8 127.1 127.4 138.8 150.4 162.1 173.9 177.1 177.8 176.9 178.5 184.9 196.1 211.3 226.9 248.4 263.2 281.3 300.4 314.6 319.7 315.4 306.1 292.2 274.1 258.8 240.2 229.7 219.6 210.1 208.4 212.9 219.3 220.6 227.2 235.5 238 235.4 229.7 226 224.8 225 225.9 224.5 221.7 218.9 212.9 199.1 219.9 240.5 255.9 265.2 281.2 295.5 303.4 304.5 306.8 319.5 328.8 339 350.2 360.3 363.8 362.2 359.8 352 343.4 334.7 330.2 324.3 314.3 305.8 301 300 298.2 294.6 289.8 287 282.6 280.1 276.5 270.7 263.5 254.6 245.2 238 234.3 230.4 224.8 218.9 213.7 208.3 204 196.9 189.6 181.7 178.2 180.3 178.7 175.1 171.8 167.8 163 159.1 157 155.8 154.3 151 148.1 145 141.6 139.6 140.2 136.7 134.1 127.2 115.7 121.3 124.7 126.6 125.6 124.5 122.7 121.6 121.6 121.6 122 121.7 121.7 121.4 120.9 121.8 126.5 132 136 135.1 135 136.8 148.9 151.4 154.3 151.8 145.8 140.2 127.6 120.8 118.5 118.4 118.1 117.2 117.4 117 117.7 117.1 116.4 117.5 119.8 119.7 116.8 113.3 110 108.6 108.7 110.8 111.6 112.1 111.4 111.5 111.6 111.7 112.1 112.2 111 112.2 113.2
187.9 202.3 209 210.7 207.1 199 185.4 165.4 147.8 131.3 115.9 102 96.5 95.1 84.2 85.2 86.4 86.5 93.6 101.6 120 123.2 123.9 129.4 130.5 127.7 118.1 131.1 142.6 155.2 168.7 179.8 185.9 187.5 189.1 196.6 198.6 205.4 214.9 224.7 243.6 261.5 279.9 302.4 310.8 312.6 310.6 301.1 288.6 274.5 265 235.4 219.6 211.6 202.8 197.5 190.4 195.8 205.1 211.3 217.4 226.7 225.8 224.3 220.5 213.6 211.2 208.7 205.8 203.3 199.9 194.5 192 199.1 218.7 239 251.1 261.8 276.8 286.1 295 293.5 299.8 305.7 311.4 318.5 326.4 335.7 345.5 358.8 352.5 346.8 336.5 328.5 320.7 313.7 305.5 296.1 292.3 293.7 288.9 281.7 276.3 271.8 269.9 265.1 264.6 259.7 252 244.7 238.9 232.4 229.1 222.2 216.6 211.1 205.8 202.3 197 191.1 185.8 179.5 175.3 174.6 174.3 169.8 165.4 160.1 153.2 146.6 145.3 144.9 144.1 142.1 138.7 135.3 133 128.6 129.5 130.1 128.1 124 122.4 113 124.3 124 121.6 119.9 114.6 119.9 117.4 117.3 118.8 116.9 117.7 119.4 121.3 125.5 133.6 135 135.1 135.5 138.1 147.4 152.6 153.5 147.8 142.2 130.7 123 119.7 119.6 116.9 116.6 115.8 116.8 117.1 113.8 116.8 116.4 119 119.4 118.2 114.7 111.1 107.7 107.1 107.2 109.5 110.4 111.3 111.5 112.3 112.5 112.5 112.7 112.9 112.6 113 114.3
217.6 224.8 227.5 227.3 222.6 215.6 204.2 189.3 168.9 149 128.7 109.2 96.5 94.9 83.6 84.3 86 86.1 93.6 101.9 111.2 115.7 117.9 120.8 125.6 121.3 121.5 135 143.9 159.2 171.4 179.5 188.7 191.7 198.9 201.8 198.3 196.3 200.8 211.3 227 242.5 265.3 287.5 297.8 299.7 295.1 287.1 272.3 262.8 251.6 229.9 205.7 199.1 194.4 185.9 178.3 180.2 183.6 200.5 203.3 207.1 209.6 209.4 211.6 209.6 202.4 201.4 199.1 194.8 188.6 183.1 182.1 182.2 195.7 216.3 236.4 246.1 257.1 274.4 284.2 284.6 282 285.4 288.6 291.9 296.3 302.8 316.1 327.6 337.1 342.2 337.4 328.9 317.9 312.6 305.3 294.8 285.7 285.3 282 276.3 268.7 262.5 256.6 254.2 252.4 247.9 243.2 239.8 234.4 232.1 227.7 221.9 216.3 211.1 205.5 199.3 195 190.8 186 181.2 175.2 171.4 171.3 166.8 162.2 156.5 154.6 153.7 153.1 151.3 146.4 142.9 145.1 142.7 139.1 133.9 130.6 125.9 121.5 121 116.7 108.3 118.6 122.7 120.2 117.8 115.6 112 111.2 112.9 116.2 117.5 118.6 120.5 123.4 125.4 128.4 133.4 135.3 137.2 142.3 149.1 153.6 150.6 143.1 133.2 126.6 124.1 119.4 116.8 115.8 115.2 115.4 116.3 116.4 116.9 116.3 117.2 116.7 116 115.4 112.8 109.3 106.5 105.3 105.6 108 108.9 110 111.3 112.3 113.3 113.1 113.3 113 113.5 113.3 112.5
238.8 242.4 241.4 239.7 234.8 228.6 217.8 202.9 181.9 159.8 137.5 116.3 98.4 93.8 90.3 83.3 84.9 86.5 90.6 101.4 107.3 111.2 113.2 114.8 113.9 114.5 128.1 137 147.7 158 170.2 180.8 188.8 188.9 196.5 195.8 189.4 183.2 185.3 198.4 210.4 225.9 250.2 271.9 277.8 279.7 277.5 266.4 257.3 248 235.1 215.9 192.8 174.1 171 162.8 154.8 154.3 165.3 176.3 182.6 189.8 198.4 196.1 198.4 197.2 193 191 188.2 185 182.6 178.9 173.7 168.1 178.8 192.8 200.8 235.4 241.4 257 271 276.9 274.5 271.8 271.9 271.5 275.7 280.3 289.4 302.7 315.2 316.6 322.8 324.6 319.4 309.4 303.4 296.8 283.4 276.5 274.5 272 264.8 257.1 249.6 245.7 241 234.6 232 228.5 226.3 225.4 223.4 219.5 216.7 211.8 205.5 199 193.3 188.4 184.2 181.7 175.3 171.7 167.4 164.1 161.4 160.4 156.9 155.6 155.7 154.7 155 152.8 148.6 144.5 140.1 135.2 130.1 128.8 127.2 122.6 115.9 111.6 108.8 115.1 113.6 114.1 112.2 108.5 108.6 114 110.8 110.8 112.6 117.9 122.5 125.6 128.1 133.6 135.2 138.8 136.3 145.6 150.8 146.4 134 127.2 123.6 119.1 117.1 116.1 115.1 114.8 113.3 115.5 116 116.1 116.4 116.6 116.5 115.7 112 109.9 107.9 105.5 104.4 104.2 106.2 106.9 109.6 111.4 112.2 112.7 112.9 112.6 112.4 113.9 113.5 108.9
250.9 252 250 245.9 241 230.8 216 199.7 179.3 154 132.6 116.4 102.7 95 90.5 83.5 82.1 86.3 89.8 95.2 102 103.9 103.5 109.3 115.1 121 129.8 136.6 145.7 156.6 168.1 175.1 178.7 178.8 184.5 184.4 177.6 171.9 174.1 182.9 195.1 213.7 240.6 256.1 255.4 255.8 251.3 243.4 235 226.1 213.1 197.3 181.3 159 154 145.4 135.9 136.9 145.4 152.3 158.6 164.9 170.2 174.5 177.5 178.7 181.4 178.1 175.5 175.1 173.3 169.5 163.3 156.8 164.8 172.7 188.3 188 198.9 247.4 260.3 260.9 259.5 259.9 258.3 255.9 258.6 262.9 270.2 279.3 290.9 304.8 305.2 313.7 316.8 310.5 306.2 298.4 284.9 273.7 270.6 269 264.4 256.5 248.4 240.8 232.7 228.5 224.3 221.2 220.3 217.2 214.2 214.7 212.9 209 203.8 198.2 193.3 186.5 182.7 181 181.1 176.1 169.7 166.6 163.9 161 157.9 157.2 157.3 158.2 159.6 156.3 149.2 143.8 139.1 133.9 129.5 126.8 124.6 123.3 120.4 114.9 108.8 103.9 106 109.6 109.2 108.6 105.2 106 106.9 108.9 109.3 115.8 119.6 123.9 128.9 135.5 140.9 144.9 149.7 150.7 137 130.5 130.6 125.7 119.6 116.9 116.1 115.2 114.4 112.2 114.3 114.8 115.4 116 115.2 115.9 116.7 114.3 111.5 109.5 106.8 104.6 104 100.9 104.5 107.3 109.2 111.3 112 112.2 111.9 111.6 111.7 112.8 110.6 104.6
262.9 262.3 260.6 255.7 247 233 216.7 194.2 172.5 149.1 130.6 115 103 92.8 88.8 86.2 81.8 84 87.6 93 95.9 100.9 107.7 111.5 115.3 119.2 129.7 135.9 145.3 157.7 168 174.7 178 174.3 169.8 169.5 168.2 163 166.1 171 180.6 203.1 223.6 227.1 228.7 233.2 229.6 224.1 217.2 210 202 189.2 171.9 155.2 141.5 134.2 125.6 127.1 128.8 133.2 139.6 145.4 151.1 152.3 156.5 161 164.9 159.5 163.8 163.7 162.9 161.6 159.2 148.7 151.2 159.6 171.2 188.2 191.5 232.4 249.5 251.9 248 244.4 240.5 237.8 238.7 243.2 248.9 255.7 267.1 279.8 290.6 297.6 301.3 303.3 302.9 298.3 290.5 276 271.6 266.2 261.9 252.1 242.5 234.9 228.2 223.5 219.4 216.1 212.1 208.2 203.7 200.5 203.5 202.6 200.4 196.9 193.6 187.5 183.5 183.4 183 177.1 169.6 166.4 162.8 159.2 155.8 156.3 155.3 157.7 160.1 154.2 147.1 142.1 137.6 132.7 130.1 127.2 120.8 123.4 120.7 114.9 108.4 105 102.3 105.5 107.5 103.8 103.5 103.9 104.8 104.8 107.4 112.9 117.5 121.9 130.2 137.3 142.4 147.9 152.1 136.2 129.4 129.3 126.1 119.7 117 115 114.7 113.7 113.4 113.8 114.2 114.7 115.3 115.9 114.9 113.9 115 113.3 111.1 108.2 105.3 103.8 103.1 99.6 102.8 107.2 109.3 110.8 111.3 110.7 110.1 110.3 111.3 112.4 107.8 102.6
275.3 274.3 274.5 268.4 259.5 240.1 215.6 195.4 174.9 154 132.5 117.1 104.9 89.1 88.4 88.6 83.2 85.1 86.4 90.8 101 106.9 109.2 111.5 116.7 119 128.1 139 151.1 162.4 168.6 174.5 174.4 171.1 165 159.1 159 156 160.2 166 176.3 197.6 205 202.9 202.1 204.7 202.6 200.2 198.4 196.3 191.9 185.6 175.8 166.1 153.3 141.9 127.4 119.8 120.7 121 121.4 126.8 132.3 134.2 140.1 142.8 145.3 139.3 143.4 145.9 151.6 154.8 153.4 140.2 139.8 146.9 158.8 173.7 185.9 213.6 221.9 226.9 229 229 228.6 224.2 222.1 223.8 228.8 234.1 240.8 254 268 279.6 288 291.8 294.5 297 293.9 281.7 281.1 269 258.2 247.2 236.9 227.7 219.9 213.7 210.2 207.8 202.2 196.4 195.5 195.1 194.4 196.7 197.6 193.3 191.5 188.8 182.8 179.2 179.4 174.9 167.3 162.8 159.4 155.7 152.9 153.6 152 151.4 152.5 151.3 146.5 141.8 138.7 133.4 130.7 126.7 123.8 121.8 118.9 113.7 108.7 104.4 101.5 101.9 101.2 101.1 101.1 102.1 102.6 105 107 110.3 117.1 123.9 127.1 135.6 144.9 154.4 152.7 129.7 129.5 129.1 120.4 116.3 115.1 113.8 111.7 113.1 112.2 113 113.8 114.6 115.2 115.5 114.6 113.6 111.6 110.4 108.7 106.7 104.3 103.3 103 99 99.3 106.3 108.5 109.9 109.6 108.7 108.8 109.9 111 111.6 105.9 102.1
290.4 288.6 286.2 274.2 255 231.3 205.7 183.6 169.2 153.3 134.7 117.4 103.8 91 88.7 88.1 85.6 80.6 83.3 90 93.6 102.6 108.8 109.1 109.4 110.5 116.5 127 137.8 152.9 160.4 165.4 167.9 162.8 159.4 153.6 150.1 149.7 155.8 163 172.3 187.3 189.8 185.9 184.2 182.2 181.1 180.7 183.1 183.2 180.7 175.9 168.6 161.1 152 143.1 136.1 119 115.5 117.5 114.2 115.2 118.6 122.5 125.3 126.8 129.6 129.1 133.8 135.8 138 143.5 141.9 128.7 130.8 137.4 151.3 161 175.3 186.9 190.8 192.8 209 209.7 211.7 210.8 205.1 204.1 210.9 217.8 225 234.1 245.5 257.6 270.3 276.5 281.1 287.6 293.5 287.4 285 274.3 262.8 252 242.4 231.7 223.4 215 205.8 199 194.7 192.3 190.9 189 189.7 191.8 188.4 185.6 182.9 182.1 180.7 174.1 171.6 166.9 159 154.5 153.5 152.4 149.7 149.5 146.9 145.1 143.4 142.2 141.6 139.9 138.4 132.8 127.4 123.4 121.3 118.1 116 111.3 107.4 104.1 100.8 99.1 98.2 98.7 96.7 97.7 98.7 98.6 104.1 109.7 116.4 122.7 133.4 139.6 148.5 155.9 150.5 132.2 129.8 126.5 117.9 115 113.5 111.3 112.2 112 112.3 112.9 113.5 114.3 115.1 115.2 114.1 112.8 109.8 107.9 106.1 104.6 103.9 103.6 103.7 102.7 96.9 106.2 108.2 108.8 107.9 107.5 107.8 109.7 110.8 110.6 104.9 101.5
295.2 291.3 285.5 271.6 252.7 230.8 206 183.1 163.8 145.6 128.8 115.3 102.5 92.3 89.6 88.8 87.1 83.1 80.6 89.4 90.4 97.2 107.2 108.8 108.3 109 110.1 117.3 129.3 141.8 151 155 155.3 149.2 148.6 146.7 143.4 147 153.9 158.4 165.5 174.9 177.9 174.3 173.8 171.8 172 174.1 174.7 174.3 173.3 170.6 161.9 154.9 144.9 136.8 129.5 121.4 111.8 108.8 108.2 108.2 110.6 111.6 113 113.7 116.8 119 122.5 125.1 127.4 129.9 129.2 120.2 123.9 130.7 143.2 149.4 158.7 170 181.2 181.7 188.4 197.4 198.4 194.7 191.5 191.9 190.2 200 208.4 216.8 225.8 237.4 249 259.4 266.7 273.2 278.8 284.3 281 276.1 268.8 257.1 246.9 236.8 224.4 212.6 204.4 198.2 193.5 190.8 188.7 186.7 186.6 186 177.7 173.1 170.6 171.2 173.9 172 166.6 160.8 153.8 148.3 144.5 143.7 140.4 132.8 141.6 139.5 137.7 136 134.9 134.9 135.2 131.5 125.4 119.7 117.6 114.9 112.4 109.2 106.1 102.8 98.4 96.9 96.3 91 91.3 92.7 94.9 97.2 102 107.8 116.7 126.9 136.5 143.8 156 155.6 147.2 137.1 128.5 122.1 116.6 114.7 113 113 112.2 111.1 113.1 113.5 114.1 114.7 115.3 114.7 113.4 111 107.9 105.9 104.8 103.5 102.8 101.8 102.2 95.6 102 105.9 108.5 108.2 106.9 107 107.2 108.4 110.2 109.8 104.4 102
294.5 290.4 280.2 268.3 253.8 233.6 215 196.6 176.9 156.6 136.3 120 110.3 93.2 89.1 88 87.2 83 80.6 85.5 90 94.6 98.5 103.2 107.1 107.8 108.9 110.2 117.8 131.7 145.4 148.9 146.9 140 139.6 139.6 140.3 146.5 151.5 154.2 159.9 159.5 162.5 164.8 162.4 165.4 166.6 169.1 171.6 169.9 166 164.7 155.7 148.8 141.1 131.2 123.1 116.6 109.8 105.3 104.4 100.9 102.2 100.2 100.3 104 105.2 105.3 110.6 113.6 113.8 118.4 118.5 119 115.8 122.2 132 138.2 144.3 152.7 162.1 168.4 180.4 183.6 185.6 188.3 184.2 183 181.7 182.4 191.5 198.5 205.7 216.2 227.6 237 246.3 256 260.2 267 277.1 272.7 266.1 257.6 244.9 232.9 220.3 210.7 203.4 197.6 193.1 190 187.9 185.3 182.5 177.6 171.3 167.7 163.2 161.3 162 165.1 163.6 159.7 151.8 145.5 138.7 135.2 130.9 124.2 123.3 134.7 132.7 131 130.2 129.1 127.4 127.4 122 120.8 116.3 113 108.4 106.4 104 100.4 97.1 96.1 96.9 88 93.6 95 94.6 95.8 99.3 105.9 116.1 124.8 135 145.8 156.3 154.7 144.1 135.3 125.5 117.5 115.8 114.3 113.4 113.3 113 112.5 113.6 114.1 114.7 115.1 115.5 113.9 111.7 108.8 105.8 103.4 102.7 101.9 96.1 93.4 91.6 101.5 107.5 108.3 108.5 107.9 106.9 106.7 107.5 108.5 109.4 108.8 103.2 100.5
286.5 277.4 268.4 258.6 246.8 232.8 218.3 203.6 185.2 164.2 149.6 133.5 118.8 105.4 91.3 87.6 87.6 81.3 80.1 83.7 89.5 93.2 92.5 99.8 99 102 107.3 109 109.5 117.5 128.8 135.5 136.7 132.6 133.4 136.1 141.5 146.7 149.2 149.3 149.3 148.5 148.8 148.2 148.4 150.9 152.8 156.8 159 156 151.5 147.2 142.3 136.2 130.3 124.6 116.2 109.1 103.2 99.3 97.3 93.9 94.3 90.6 90.4 91.3 91.1 91.1 93.5 96.4 99.4 99.2 99.2 101.3 109.5 111.8 117.5 124.4 130.4 138.2 146.6 153.5 161.3 171.9 174.7 177.9 181.3 179.5 178.6 179.9 182.8 187.5 191.7 194.6 204 213.1 221.2 229.5 235.6 241.2 248.4 253.3 253.8 249.8 242.5 234.4 223.7 213.5 206.6 199.9 194.9 189.6 186.9 184 179.5 174.5 167.5 160.4 155.6 153.8 153.7 154.4 159.8 158 153.1 146.9 139.6 132.3 127.4 122.3 121.7 129.8 130.2 128.4 125.5 123.9 121.9 120.8 120.8 119 115.8 112.3 106.1 104 101.3 98.1 96.1 95.8 94.9 93.3 92.7 94.7 93.9 95 94.9 102.9 113.7 120.4 133.9 148.6 157.8 144.1 137.5 130.9 121.3 116.4 115.3 107.2 113.7 113.9 114 113.7 114.1 112.2 113.7 114.1 114.5 112.3 109 106.1 100.8 98.6 99.1 93 82.5 88 101 107.4 108.6 109 108.3 107.6 106.9 107.7 108.6 109.4 110.1 107.6 103.9 100.3
