ncols 200
nrows 82
xllcorner 220000
yllcorner 733950
cellsize 50
521.4 532.2 539 544.5 551.5 555.5 556.7 566.7 569.5 565.6 552.3 538.8 528.8 517.6 506.6 492.8 478.3 459.7 447.9 435.1 430 421.9 416.9 408.3 396.6 397.7 399.5 405.3 410.1 417.4 431.4 436.8 435.5 440.9 444.4 441.7 446.9 449.7 458.6 466.5 470.3 477.9 483.3 484.2 490.6 491 485.1 488.3 494.2 491.6 476.5 453 412.6 386.8 373.2 362.7 360.5 353.1 353 344.5 351.3 359 365 373.1 381.8 393.8 405.5 413.1 423.2 428.1 438.4 447.3 460.4 467 471.8 477.6 485.9 499.3 507.9 514.6 524 531.3 530.8 536.8 537.9 539 525.9 523.2 513.4 507.3 514.2 511.4 508.6 500.9 503 507.7 516.9 533.2 557.5 571.3 580.7 597.9 605.6 608.5 615.6 626.9 631.9 632.2 627.6 620.2 611.2 587.9 572.7 551.5 523.6 502.5 486.5 469.7 449.6 441.4 417.5 404 402.1 401.9 397.6 395.2 396 399.7 407.9 418.7 434.6 449.1 465.7 494.7 528.2 550.8 575.1 604.5 615.6 609 607.3 604.1 594.9 582.5 576.4 566.3 556.3 545.1 530.6 516 502.5 492.5 482 474 455.5 435.7 419.9 405.6 388.5 372.9 352 324.6 301.9 279 263.2 246.9 228.1 214.1 201.5 184.7 174.9 162.8 154.6 149.5 145.3 147.2 149.9 144.4 134.6 142 142.9 144.1 145.5 145.3 146.3 150.4 162.2 169.8 175.7 178.3 179.8 175.7 170.1 169.8 168.6 168.9 169 166 166.7 168
520.2 531.8 537.4 543.8 549 555 556.3 559.3 565.9 557 547.8 536.7 518.4 514.5 504.1 483.6 474.7 458 449.1 435.7 431.3 422.2 423.6 407.5 397.5 397 400.1 405 412.4 431.8 437.8 434.6 439.7 442.8 442.9 449.9 455 465.5 469.4 473.3 480.9 478.5 489 487.2 492 493.9 488.6 479.7 492.9 485.8 455.2 420.4 393.7 376 367 359.5 358.4 357.4 357.1 357.4 367.7 376.2 385.1 398.9 407 411.9 422.3 435 442.1 442.3 457.4 465.3 471 478.9 485.3 494.6 504.7 513.1 521.9 525.6 533 535.8 542.7 542 542.7 529.8 521.4 511.1 510.6 517.2 520.5 516.6 509.1 505.8 510.5 517.9 529.4 547.3 564.3 581.1 593.4 610.3 614.3 610.6 632.2 638.8 641.9 639 633.8 624.6 609.6 581.6 569.9 550.1 515.4 496.3 487.3 473.8 459.5 439 421.4 410.5 414.5 411.6 410.3 406.5 407.6 413.7 421.4 434.6 447.3 465.4 485 517.2 543.1 572.4 587.3 609.4 614.5 608.1 601.9 594.3 585.1 573.8 564.2 550 538 526.8 517.2 504.5 494 485.2 476.4 456.1 434.8 420.1 401.5 382.8 358.1 340.3 317 299 278.6 264.3 251.2 232.7 215.7 201.2 188.2 176.3 163.3 154.3 150.1 146.4 143.4 143.1 143.5 137.6 137.9 141.6 142 142.4 145.3 146.4 147.9 156.8 162.6 164.9 166.8 170.6 173.5 169.7 167.6 168.6 169.8 169.1 170.5 169.3 166.9 168.1
521.7 527.7 538.4 547.3 550.1 553.1 553 554.6 556.4 551.7 542 530.5 516.6 510 501.4 483.3 472.5 457.4 444.5 436.3 437.5 429.4 424.9 410.6 398.1 398.4 400.1 407 413.3 434 432.3 435.3 437.8 444.8 447.9 455.9 465.3 472.7 480.7 481.5 481.1 487.6 494.3 493.2 493.3 496.7 495 473.5 451.1 445.5 429 400.4 385.7 369.5 362.7 364.4 365.5 364.7 367.3 375.9 386.1 396.8 409 424.4 435.5 431.8 441 448.2 456.7 462.9 466 472.6 476.6 489.5 498.3 507.3 518.5 520.4 517.6 525.8 534.7 541.5 542 540.1 529.4 521.6 516.4 519.3 527.6 523.9 515.5 510 510.1 512.2 518.5 523.3 539.6 562.5 580.2 592.6 605.4 614.5 617.6 622.1 632.8 640.1 644.7 638.1 628.1 614.9 604 577.8 563.1 541.5 514.1 503.8 490.7 477.4 463 443.8 433.1 427.4 427.2 423.7 424 419.9 421.8 427 438.6 452.8 463.2 482.2 497.2 526 555.1 585.7 598.2 608.2 612.7 605.5 594.3 588.3 577.8 563.1 552.4 536.6 528.9 516.6 505.1 494.1 483.1 475.8 462.5 428.2 413.4 400.8 374.4 352.9 333.9 319.8 294.7 280 262 250.3 233.1 218.2 199 185.6 175.4 164.7 152.7 147.2 146.6 142.2 140.9 141.7 142.1 134.3 139.8 140.9 141.7 141 143.2 145.5 148 155 160.6 163.2 165.2 166.9 165.2 166.3 167 168.4 169.8 169.5 170.3 171.7 171.2 164.6
521.4 526.8 535.1 541.7 539.3 548 547.3 546.6 550.9 543.8 535.8 525.8 516.6 510.9 495.4 480.9 462.1 450 444.7 435.7 434 428.9 425.7 410 398.7 398.4 404.1 419.8 430.2 434.8 432.7 438.2 443.6 444.5 452.3 467.2 475.1 482.6 482.7 481.3 486.9 493.6 496.7 495 496.1 501.6 487 460.6 432.3 416.4 402.3 385.4 373.4 365.7 373.1 370.4 373.3 378.8 384.3 398.5 408.7 415.7 422.5 437.8 443.9 449 453.7 460 466.8 468.8 471.8 476.7 486.2 498 508.1 522.2 521.7 514.7 515.9 525.7 530.9 527.5 523.7 526.9 535.4 531.9 522.6 527.1 530.9 528.9 514.1 512.8 512.3 518.4 527.1 536.5 554.8 574 594.3 609.5 619.4 619.5 620.7 633.9 644.6 648.8 646.6 632.7 623 613.4 596.7 572 559.2 534.1 513 503.2 488.6 477.4 463 455.5 451.5 446.1 444.9 438.9 435.1 435.3 435.8 443.3 452.6 467.6 485.7 498.8 517.7 537 567.1 589 605.4 605.1 605.4 594.3 587.7 578.3 567.4 553.8 544.2 532.2 524 511.5 496.5 473.5 464.4 453.2 428.5 410.8 386.9 364.2 345.2 329.7 313.7 299.5 276.2 259.1 243.2 231.1 213.7 199.1 183.8 174.5 166.3 153.6 146.9 142.6 141 138.1 138.1 138.8 138.2 137.9 139.9 140.5 141.9 140.9 147.3 149.1 150.7 154.2 157.2 159.3 163.7 164 165 165.4 168.1 168.7 169.8 170.6 170.8 171.7 172.9 170.9
521.4 524.5 532.7 533.7 530.5 534.2 540.2 542.1 542.3 538.3 532.9 524.9 514.4 508.1 493.8 474.3 461.6 448 441.8 434.2 429.6 430 422.1 409 399.1 406.1 425.7 432 431.8 432.9 436 442.4 444.6 449.3 456.2 469.5 478.7 485.7 482 484.3 491.8 497.3 499.3 501.8 502.9 494.6 479 446.3 423.7 406.4 390.3 383.5 370.7 373 377.9 380.4 388.9 396.3 409.5 418.1 426.7 432.9 440.2 452.2 455.4 463.3 462.5 475.2 479.2 479.2 480.7 481.9 494.3 506.7 521.5 526.7 510.9 514.3 513.6 518.7 521.7 527.9 535.6 538 536.9 532.7 533.1 533.3 533.1 521.7 514.3 513 515.9 522.9 533.9 549.3 565.7 581.7 607.2 620.6 621.3 620.5 636.3 645.8 650.3 651.8 644.7 630 616.2 598.8 584.6 573.4 552.9 529.4 507.9 493.9 485.8 469.6 466.8 471.8 466.1 470.2 467.6 459.6 458.2 454.4 453.7 459.1 467 481.8 501 511.9 530.3 555.4 586 600.4 611.2 608.6 599.8 588.1 583.1 577.3 565.8 547.6 535.2 522.8 504.7 487 467.5 447.5 434.1 418.9 410 383.4 361.4 339.4 318.8 308.1 296.3 279.6 256.5 240.6 223 208.7 195.6 182.1 172.5 163.8 154 145.4 144.5 146.5 138.9 138.2 139.7 139.4 133.9 137.7 139.7 140 140.8 143.6 153.1 152 155.5 161.3 162.2 163.6 166.3 166.4 166.5 166.7 168.1 170.7 173.2 173.2 173.3 172.2 173.6 171.9
520.2 527.2 532.9 531.3 526.4 525 526 530.7 534.2 536.3 533.8 524 514.2 501.9 482.7 471.7 458.6 443.3 437.1 434.1 424.2 426.3 415 401 405.6 431.1 435 427.8 433.7 437.4 439.6 446 454.2 456.2 461.8 468.5 478 485.8 495.1 501.3 506.5 506.9 503.6 503.8 506.7 488.3 467.4 435 415.7 399.3 384.4 378.9 381.3 386.7 391.8 397.5 405.2 413.7 423.2 428.3 437.1 450.8 460.6 464.5 467.6 470.5 476.3 482.3 482.8 479.1 482.2 485.8 497.4 497.5 520.8 521.8 510.2 512.8 517.1 523.3 531.9 534.8 543.7 540.8 533 533.8 531.6 531.1 531.6 520.3 516.6 519.1 521.3 532.4 537.7 555.7 570.4 591.9 613.7 619.9 621.6 639.4 649.4 653.5 656.4 649.1 633.4 617.5 605.4 594.2 583 561.9 540.5 523.4 496.3 485.6 480.6 481.1 487.7 476 478.4 479.8 481.3 480.8 475.6 469.8 464.3 470.3 483.2 494.4 507.7 522 547.3 574.5 599.2 608.4 610.5 605.4 595.7 581.3 575.6 561.6 545.1 536.2 514.5 492.1 469.3 454.2 437.8 421.6 407.6 395.9 377 356.6 338.9 314 300.2 289.3 276.1 259.7 235.2 219.4 204.5 192.6 178.7 167.7 158.3 151.5 145.1 141.4 140.3 138.6 137.5 139.9 139.5 139.3 134.7 138.4 139.6 139.5 139.5 142.1 146.7 149 154.4 158.5 159.8 164.8 167 166.7 167.1 169.1 171.7 173.3 173.3 172.9 172.8 173.9 175 175.6
520.7 528 531.9 529.2 522.5 520.8 521.6 528.5 534 533.7 531.7 523.7 513.4 494.8 478.2 464.7 453.7 447.1 436 423.4 419.1 413.4 403.2 405.9 431.7 432.6 431.6 429 435.6 444.2 448.3 456.1 460.9 459.2 463.7 473.2 485.7 501.7 508.4 517.7 516.8 511.8 510.6 510.3 494.9 474.6 447.6 421.9 407.5 393.9 385.6 389.1 398.1 401.8 407.7 412.8 420.6 426.9 437.5 435.2 449.9 463.5 467.6 475.8 476 477.1 473.7 476.4 481 479.8 482.7 492.4 495.3 497.6 508.2 509.5 516.1 521.1 526.4 528.8 529.9 538.4 536.5 532.3 534.2 526.6 519.8 518.3 519.1 519.7 524.2 528 527.6 538 539.6 558.4 577.7 595.7 615.4 622.7 625.7 648 655.1 659 653.6 641.4 623.2 612 603.7 589.8 572 555 539 520.2 496.5 489.3 489.6 488.9 481 485.4 488 496.4 494.4 484 480.3 476.1 476.3 488.9 492.7 511.5 522 538.9 560.9 591.7 610.3 616.1 608.3 599.9 584.6 575.8 562.5 541.9 524.2 502.9 482.8 462.8 445.5 429.1 410.7 389.6 381.7 361 348.9 334.4 313.8 293.7 281 267.3 249.7 233.8 214.9 200.8 189.2 177.6 165.2 159.1 150.4 143.8 138.6 137.2 137.5 137.3 139.5 143.2 145.7 136.4 136 139.5 139.2 139.2 144.3 148.8 151.8 154.5 157.8 160.5 164.2 167.5 168.2 169.3 169.1 171.3 170.8 171.1 172.1 173 173.5 175.4 177.1 175.8
515.3 525.9 528.6 523.2 517.7 522.5 511.7 525 529.4 531.7 528.6 523.2 509.8 488.8 472.1 459.4 444.2 433.9 423.1 415.7 407.6 402.7 402.4 413.5 426 435.8 425.1 430.5 437.7 446.4 457.7 463 467.3 466.7 473.6 490.2 504.9 515.7 522.8 523 522.2 519.9 512.8 506.3 492.3 459.9 438.4 416.4 406.2 396.7 399.3 403.2 408.6 413.7 420.5 423.1 428.7 430.6 438.9 443.4 457.1 471.6 473.6 473.4 479.4 481 477.6 483.5 485 485.5 496.6 504.3 501.2 495.6 499.9 504.7 517.9 525.9 527.9 527.1 517.7 526.1 521 521.9 523.3 520.3 518.2 520.6 523.2 528.6 537.6 536.9 533.8 534.3 542 559.3 584.5 602.9 619.3 625.5 639.9 657.2 662.8 654 646.6 630.9 620.1 605.8 594.4 579.5 561.6 548.6 534.1 519.1 497.6 494.2 494.3 485.1 484.2 488.5 496.7 500.9 493.9 498.3 491.3 484.6 493.1 501.7 513.1 528.3 540.8 562.5 582.9 604.4 612.6 618 605.5 599.3 583.5 569.4 548.3 526.3 497.4 486 468.2 446.7 424.1 408.2 388.6 363.6 346.6 325.3 314.2 303.6 286 268.4 257.8 245.3 227.7 211.8 197.6 183.5 173.1 165.5 160.5 153.8 142.9 138.2 136.4 136.5 137.7 144.5 144.3 140.6 138.4 133.9 137 139 139.1 138.8 145.5 150.4 153.7 159.7 163.7 168.8 170.4 174.1 174.4 175.1 175.6 175.6 174.7 173.4 173.4 173.1 174.8 175.7 176.7 176.4
509.7 512 514.9 514.9 521.9 518.3 508.7 519.7 525 526.5 524.2 518.9 495 474.6 458.6 449.3 435.3 428.3 420.4 409.1 404 403.8 408.8 413.7 420 422.4 426.4 434.8 453.1 456.1 463.6 468 471.2 477.4 490.7 503.9 514.1 528 530.1 528.2 526.6 526.5 521.3 513.8 482.7 455.3 436.4 420 410.9 407.9 407.4 412.3 412.6 420.5 420.3 425.7 426.2 434.4 433 436.6 454.9 465.5 465 473.8 481.1 483.7 487.1 489.9 495.7 499.2 504.8 500.8 496.5 494.3 503.2 507.6 509.2 521.7 523.1 516.8 519.1 523 522.7 520.4 515.5 511.9 520.6 525.2 529.7 533.2 531.1 530.4 533.4 539.2 542.9 566.5 598 610.6 622.1 628.9 648.7 657.6 660.2 655.1 645.1 631.9 614.9 592.6 583.7 568.9 549.3 545.3 536.6 514.5 496.2 496 486.9 484.6 484.5 484.5 493.2 500.4 506.9 499.7 497.3 498.5 505.1 516.7 535.8 545.6 563.4 584.5 594.6 606.9 608 608.4 600.1 589.6 569.3 550.7 529.4 500.2 475.8 462.1 449.5 425.4 401 386.9 367.2 348.1 326.5 307.1 289.2 279.1 264.3 243.7 227.8 218.3 204.4 193.3 183.8 172.5 161 157.2 151.1 143.9 139.3 136.2 136.9 141.8 145.4 145.2 140.3 136.7 137.5 133.9 137.8 137.9 139.5 145.8 150.7 154.6 158.6 164.8 167.5 172.3 174.7 176.5 178.5 179.7 181.6 179.9 177.4 176.1 176.8 176.9 176.5 179.6 178.3 178.5
491.1 497 500.8 507.9 515.4 508 504.6 509.6 520.9 516.6 509.6 488.7 478.6 465.4 457.5 450.6 439.2 428.4 416.7 407.5 404 405.5 409 415 421.3 427.5 436.2 453.9 458 465.8 473 476.7 481.4 489.7 497.9 509 524.7 530.1 533.6 536.1 537.3 535 534.4 507.2 468 448 441.9 430.7 417.1 412.8 413.4 410.9 412.6 412.8 421.1 420.9 423.6 426.2 427.4 431.1 442.2 450.8 460.5 470.4 478.5 489.7 490.4 492.6 495.8 512.4 514.9 506.5 495.6 498.6 510.3 505.8 513.5 516.1 516.2 520 517.4 521.4 526.5 517 511.6 511.8 526.4 531.1 535.9 533.3 527.1 531.4 540.9 543.6 549.6 573.8 607.8 620.6 622.5 638.1 648.8 661.8 661.7 649.8 638.8 622.8 604.5 592.8 568.4 557.7 549.4 542.6 527.3 506.6 493.4 492 488.2 484.5 485.3 489.3 492.3 501.9 506.7 511.7 504.6 508.9 517.1 534.2 545.4 567.1 583.1 593.1 599.2 601.7 596.3 586.4 572.3 560 545.2 529.2 507.2 476.5 453.9 440.4 414.4 400.2 375.3 360.1 343.8 322.2 304.7 289 272.5 258.3 243.4 224.7 206.9 199.5 185.9 178.4 169.1 160.9 155.1 149.5 149 136.5 136.3 137.5 139.6 145.7 146.9 143 136.9 136.5 136.8 133.9 137.7 140.8 144.8 150.5 155.1 158.6 163.1 168.8 172.1 174.1 178.2 180.5 183.8 189.6 193.4 190.4 184.2 181.6 180 180 180.3 180.9 179.1 180.9
469.1 474.5 482 488.4 498.6 498.1 501.7 509.6 501.8 494.7 488.6 486.1 481.5 472.6 461.9 446.7 433 422.5 412.4 405.7 405.9 411.8 414.6 423.1 427.2 444.5 449.8 464.6 465.3 476.3 482.7 488.3 494.2 498.6 507.5 510.9 522.3 537.7 537.7 542.4 538.6 528.4 502.8 471.7 460.5 455.2 449.1 436.3 423.2 415.4 413.5 405.3 405.7 405.1 412.1 410.9 413.3 416.3 420.6 427.8 435.2 448.3 463.5 472.1 478.5 487.6 489.4 495.4 496.5 512.9 518.6 502.1 486 493.8 503.2 508.2 514.3 514.1 516.2 513.6 521.1 522.1 515.3 509.4 512.3 519.3 529.1 533.4 534.3 529.2 527.1 536.1 545.4 539.8 558.7 586 604.7 615.1 625.2 638 650.1 652.8 646.2 637.8 619.4 599.1 574.2 568.1 561 550.7 545 531.2 521.3 499.2 490.7 491.2 488.9 490 494.1 494.4 497.7 512 514.8 511.9 506.5 522.8 534.9 549.7 558.4 586.6 599.5 600.4 598.3 591.5 580.8 562.1 546.9 534 522.6 500.7 476.1 455.2 427.5 400.9 385 371.9 356.3 338.6 316.8 301.9 284.9 268 254 245.5 228 208.4 194.1 184.3 173.6 164.9 156.5 153.7 154 151.7 136.8 135.2 137.1 138.1 140.5 146.6 147 137.3 137.2 136.6 133.4 136.7 146 147.1 148.3 154.9 157.5 161.7 165.1 172.7 176 179.9 185.1 190.9 199.3 201.5 202.9 198 190.5 189.9 187 185.8 182.8 182.8 183.3 183.7
455.9 470.3 479 492.9 495.7 496.7 501.2 513.7 507 504.5 501.1 492.3 485 475 460.3 444.2 426.2 417.6 407.4 406.5 415.5 419.7 425.1 435.3 443.9 455 467.3 474.8 477.7 487.4 492.4 499.3 505.5 509.9 513.3 522.2 530.3 538.1 544.6 539.2 530.2 505.8 473.9 463.4 460.9 453.4 449.1 442.2 424 409.4 406.8 402.5 398.5 398.1 400.1 401.9 408.5 406 412.5 425.4 439.9 450 456.2 463.6 466.5 473.1 483.8 500 491.2 494.4 494.5 488.2 480.8 491.3 494.6 499.9 511.3 511 507.8 512.1 518.7 516.8 510.2 514.7 517.3 516.6 523 527.2 527.7 526.1 527.6 537.5 537.6 534.6 561.2 591.1 614.6 620.2 633.1 646 650.8 647.3 629.3 623.6 606.5 580.5 571.5 561.9 557 544.8 537.9 522.3 514.6 491.4 493.6 494 494 498.4 498.1 495.2 511.5 515.8 515.1 508.1 510.6 529.2 544.6 557.1 572 599.2 603 597.2 586.3 568.6 556 542.4 529.3 509.8 490.2 468.4 447 422.5 398.3 377.5 363.3 350.3 335.6 314.3 297.5 283 265.9 252.5 238.6 224.6 211.3 193.3 183.9 171.7 161.9 155.3 150.3 148.4 150.4 142.8 135 135.5 137 137.4 139.7 145.1 140 137.2 132.9 133.4 136.4 140.5 145.6 150 153.9 159.8 162 166.6 171 176.8 181.9 188.2 191.7 199 204 206.6 209.1 207.6 199.9 198.1 193.8 193 189.6 187.3 187.1 186
464.4 476.2 490.1 502.6 507 509.8 513.3 518 512.9 505.9 503.1 492.1 479.7 470.6 452.6 436.8 426.1 407.4 406.7 413.9 431.1 437.2 440.9 449.4 462.8 466.8 478.6 483.8 488.2 496.8 503.9 513.1 519.1 524.2 531.3 538.5 541.6 543.5 538.6 518.7 497.5 474.8 467.5 460.7 459.6 447.6 446.1 438.2 420.9 408.3 404.3 397 394.2 394.8 392 394.5 398 402.5 412.1 422.6 428.2 445.7 451.1 453.4 458.4 467.9 477.5 486.5 482.6 481.9 486.6 478.7 482.9 485.2 490.3 493.6 499.7 504.3 507.1 509.5 510 507.5 517.1 508.2 511.9 518.2 520.1 523.1 521.1 512.7 520.9 524.7 521.9 536.2 568.8 595.4 608 633.4 642.8 648 646 641.8 631.3 601.2 587.1 581.7 570.4 555.8 543.3 525.8 511.2 503.1 498.4 485.1 497.1 498.3 499.9 505.1 496.9 502.9 510.6 512.1 515.5 508.5 518.7 537.9 556.3 562.2 581.8 600.8 598.9 593.2 572.2 546.7 533.3 520.3 500.5 480.8 460.1 442 414.6 393.8 379.8 359.2 344.2 324.5 312.7 294.1 278.2 264.3 247.6 233.3 217.2 204.8 187.8 177.8 170.9 165.7 157.5 151.9 150.4 149.6 146.5 134.7 136.1 136.7 136.9 136.9 137.6 136.2 133.3 132.1 138.5 141.5 143.1 144.2 149.6 153.1 157.7 163.9 166.5 169.9 177.2 182.3 188.7 193.2 197.4 202.6 207.6 211.3 212.2 212.4 209.9 206.4 203.2 201.9 199.5 194.8 192.1 189.1
463.9 476.6 495 503 508.8 509.6 516.5 516.8 517.8 507.1 501.1 486.5 473.3 460.4 444.5 434.1 418.8 406.7 420.1 432.5 443.5 449.3 458.7 463.9 476.1 484.4 491.3 494.8 502.5 511.6 524.7 530.9 534.2 539.6 546.8 555.9 557.8 550.4 518.7 494.2 477.3 469 459.1 460.5 446.5 443.4 439.4 433.5 419.1 411.1 399.5 389.2 390.7 390.1 390.2 394.3 398.1 399.2 405.6 406.8 412.3 427.2 432.2 435.4 452.1 461.6 472.1 468.1 476.8 473.5 462.7 459.9 465.9 477.1 484.9 483.8 486.1 489 488.3 492.3 502.1 509.2 507.4 499.9 508.3 516.7 516.5 516.2 507 508 515 515.7 521.7 533.3 567.6 592.5 611.6 629.9 638.3 644.8 640.6 632.3 606.6 596.6 580.5 566.1 550.4 537.5 529.2 517.8 507.3 495.7 489.4 481.9 493.4 489 493.6 487.6 494 508.6 513.8 508.8 511.8 517.6 527.2 548.3 558.3 574.1 586.9 598.4 594.2 580.1 554.4 534.4 516.4 495.2 478.2 458.9 438.4 412.6 391 375.7 362.3 337.8 321 306.3 290.3 276.8 258.2 243.3 227.9 210.6 202.7 186.8 174.2 166.5 160.3 157.9 154 144 144.6 142.9 141.8 134.6 135.9 137.1 136.3 137 136.4 135.8 131.6 142.3 141.1 144.5 146.6 149 153.3 156.7 161.9 168.4 171.2 176.6 185.8 192.7 195.2 200.4 206.1 209.5 215.7 217.2 218.4 220.6 221.9 220.4 215.2 212.5 208.5 207.4 200.7 198
459.5 476.6 484.1 491.6 496.1 498 508.7 509.9 503.8 494.9 490.7 471.5 468.5 449.1 436.9 424.8 408.4 415.3 432.1 441.5 456.2 462.3 472.9 483 486.1 493.5 500.8 504.1 514.3 525.9 539.3 546.8 550.8 560.6 565.5 564.4 560.9 534.8 502.6 487.1 476.2 462.7 453.8 448.4 443.2 441.4 441 425.1 417.3 409.6 393 386.2 385.5 385.9 390.7 392.2 392.6 388.5 388.8 393.3 395.1 407.6 415 428.4 438.8 455.4 457.3 458.6 455.7 458.6 449.6 449.6 456.6 466.5 468.6 474 482.6 474.4 468.8 485.3 494.1 494.1 497.3 498.1 499.9 503.9 505 498.6 491.5 499 506.3 508.9 515.4 533.3 562.9 588.7 613.4 624.4 630.4 637.9 628.9 614.3 599.1 575.1 565.2 543.1 532.6 517.1 513.9 509.9 499.4 492.5 489.5 481.8 482.4 493.4 488.7 488.2 506.8 511.6 512.6 507.5 507.6 525.1 533.8 543 564.8 578.8 584.7 584.9 570.1 551.2 533.8 517.9 499.7 474.9 454.9 436.4 408.6 391.5 374.9 354.9 341.6 319.7 305 290.2 272.3 255.3 242.3 224.3 206.2 196.9 183.1 173.7 161.3 157.5 153.6 153.2 143.3 140.3 139.4 141.5 135 133.6 134.5 135.4 135.1 136.7 132.6 131.6 144 145.9 143.8 147.1 151.2 152.8 156.9 163.7 168.6 174.3 179.6 184.6 192.6 197.5 202.7 207.9 213 217.1 224 228.2 229.3 231.7 232.2 232.8 232.3 226.9 223.1 216.5 215.5 210.2
452.1 459.8 473.4 485.7 489 486.4 485.9 497.9 499.2 484.7 468.8 467.1 453.7 439.8 425.2 411.7 410.9 422.9 444.1 453.6 468.5 480.6 486.6 492.9 497.6 501.4 510.3 512.3 524.7 537.3 548.2 550.3 556.8 564.8 555.2 552.8 538.4 510.3 492.2 483.4 473.8 462.1 445.3 440.5 441.8 446 436.4 422.5 411 400.1 388.3 383.6 384.4 384 382.2 383.1 379.8 379.5 375.1 380 385.2 394.4 401.1 410.1 421.5 429.6 434.7 435 443.3 435.4 439.8 427.4 441.2 444.4 452.9 461.4 457.3 460.5 463.2 474.2 480.5 485 487.8 492.4 497 494.2 483.4 480.9 483 485.5 488.2 494.5 506.9 528.5 555.7 586.8 603.2 608.4 614.8 613.2 606.7 593.3 573.9 562.1 542.5 524.3 516.8 506.3 498.3 499.8 480.2 480.4 465.5 468.1 473.8 480.1 486.2 495.4 501.7 506.5 511.8 508.1 510.8 526.4 535.4 550.1 567.9 564 568.1 559.9 543 526.1 513.9 496.7 475.4 449.8 433 412.1 389.6 376.5 356.7 338.3 320 301.6 280.5 266.8 251.5 235.9 219 205.9 192.6 178.9 169.4 160.6 155.3 150 146.3 143.8 138.9 136.9 136.5 139.4 132.8 133.8 133.7 131 131.5 131.6 133 140.6 144.3 146.3 148.4 150.7 155 159.3 163.3 171.2 177.2 182.3 188 195.5 199.8 210.9 211.3 216.1 222.5 230.7 234.7 240.9 241.3 244.8 248.6 250.8 242.9 239.1 236.8 234.5 228.4 224
444.2 454 471.3 477.8 479.9 472.6 468.1 486.4 483.6 474.6 458.5 456.1 440.9 428.2 410.6 415.2 416.4 427.5 458.1 465.6 482.5 489.5 495.4 503.5 504.6 510.9 518.4 524.6 532.5 537.9 541.4 549.7 562.8 550.8 542.1 523.5 514.2 500.1 482.4 470.9 466 452.7 443.4 435.8 439.8 437.3 427.6 422.3 409.5 401 385.7 379.8 377.8 371.9 373.6 372 370.2 367.4 367.7 370.1 377.5 381.3 387.2 395.7 405.8 416.7 413.4 416.5 415.8 422.5 423.5 411.8 422.1 430.9 435.9 441.6 445.2 451.5 457.9 461.6 460.9 466.5 475.7 479.2 480.7 477.1 474 464 464.9 474.2 476 488.9 505.3 523.1 549.4 575.5 585.4 588.4 591.8 580.8 562.3 556.5 542 532.3 520.5 516.2 502.9 484.2 475.9 468.7 464.7 458.6 458.5 468 469.2 475.9 497.7 506.5 510 509.8 511.1 507.7 514.7 528.4 548.1 559.9 558.8 555.2 546.1 535.6 521.7 505.7 487 468.7 450.5 429.7 411.8 390.7 371.3 357.5 336.4 318.4 298.7 279.9 260.4 243.2 230.8 215.7 198.9 187.4 177.7 165.5 159.8 153.7 149.4 144.1 140.8 138.3 134.6 135.1 137.4 139.1 134.2 131.5 130.6 133.5 135.8 137.2 140.8 141.5 143.1 146.1 151.1 154.8 160.6 165.3 169.9 176.6 182.5 188.2 195.5 202.2 210.9 215.7 218.8 226 236.6 242 246.8 253 257.3 261.3 259.8 257.9 255.4 252.1 248.7 247.2 242 235.6
435 444.5 453.4 458.5 470.1 451.4 452.4 459.7 464.5 457.8 448.7 436.2 425.4 401.5 412.1 412.2 424.6 442.5 465.9 476.5 492 497.2 501.1 504.9 512.5 522.6 529 536.4 541.3 541.7 538.9 534.1 533.5 524.8 505.4 501.3 502 484.8 475.8 464.3 458.4 447.6 435.7 433.5 437.1 430.9 434.2 422.3 402.5 392.8 380.9 373.3 370.9 365 365.1 366.1 361.9 362 360.9 361.4 364.4 370.6 373.9 380.8 386.3 397.1 394.4 396.1 401.7 408.1 397.2 395.9 406.2 415 419.4 422.9 430.8 435.2 442.2 450.3 453 458.2 467.8 466.1 465.4 466.2 460 448.3 448.5 452.2 466.8 476.7 494.1 518.5 552.6 566.1 567.5 567.9 556.8 545.7 535.3 527.9 518.2 514 513.4 500.8 482.7 474.7 469.1 459.9 450.7 447.5 459.1 456.8 462 478.3 492.1 507.8 507.5 501.1 506.4 507.5 516.2 536.2 552.1 555.4 548.7 536 522 514.2 500.8 487.2 465.2 447.4 422.2 406.3 390.7 367.3 350.8 334 312.6 294.6 280.2 260.3 237.3 226.3 212 202.5 188.1 175.1 164.6 155.1 150.3 146.1 142.3 138.7 135 133.4 130.8 130.8 130.5 127.7 126.3 131.6 134.6 136.3 137.4 138.6 142.1 143.3 144.6 147.7 153.7 159.5 164.1 170.5 175.7 182.5 187 196.1 202.9 211.6 218.4 225.7 230.2 237.9 246.8 254 260.4 266.4 270.5 274.2 271.9 270.5 268.4 267.5 264.6 261.2 256 251.6
423.8 442 447.5 450.2 449.6 432.6 453.3 460.6 459.9 449 439.1 415.5 392.4 399.1 406.9 413.1 427.3 450.1 468.2 481.1 496.3 501.1 503.6 503.8 518.4 528.8 529.1 531.7 529.7 529.5 518.4 519 505.8 495.3 488.8 487.2 479.4 475.6 464.8 457.5 449 439.9 430.8 432.9 433.7 424.6 426.3 409.5 398.3 384.8 377.5 368.3 365.9 361.2 358.6 357.7 354.6 353.5 354.4 353.6 354.2 358.1 359.5 365.9 371.5 381.2 375.1 376.1 376.3 379.4 376 379.3 389.2 398 401.9 411.6 418.2 420.8 432.8 438.6 442.2 444.7 446 447 450.3 448.7 442.5 427.5 428.4 435.2 449.3 459.4 484.5 511.9 542.6 545.2 547 539.2 533.2 528.5 520.4 513.5 513.8 513.8 496.7 481.5 480.9 478.4 463.5 461.4 441.1 431.5 439.4 443.2 463.6 478.4 493.4 500.6 504.4 501.2 504.7 509.7 517.7 532.7 544 535.4 522.3 513.7 498.2 487.7 475.4 461.3 443.1 423.9 402.7 388.3 368.4 349.1 326.4 314 294.2 274.4 258.5 243 222.1 211.3 200.3 184.7 173.9 164.2 154.5 149.7 142.6 140.7 136.7 134.1 130.9 130.4 125.2 125.2 125.9 128.4 131.4 134.2 136.3 142.8 139.6 141 142.9 142.9 144.8 151 158.5 165 169.5 175.7 180.4 188 193.1 200.8 211.5 218 227 239.3 245.4 246.4 256 265.6 272.1 277 283.5 285.4 286 284.7 284.7 281.1 279 275 271.6 267.5
412.9 427.9 422.5 425.2 418.2 428 450 455.2 444.5 436 424.9 390.8 392.8 400.3 408.6 415.5 428.4 444.7 463.3 484 494.1 494.9 501.4 501 510.8 513.8 502.8 503.7 513.9 500.2 500 485.5 481.2 484.9 479 469.2 471 466.1 459.3 452.6 438.5 431.3 430.5 429.2 428.1 418.5 406.8 398 393.4 381.7 374.3 366.9 362.4 360.3 355.8 352.6 350.7 349.5 346.3 347.1 344.3 346.9 345.7 348.6 351.9 361.8 358.9 358.4 357.8 359 359.5 362.9 374.5 379.9 382.7 391.7 396.8 407.6 412.3 421.3 426 423.4 427.2 431.2 432 424.8 418.7 401.2 405 420.5 433.3 445.2 469.1 500 520.3 522.9 523.5 517.5 514.9 505.1 497.8 494.2 491.9 492.7 484.6 478.1 474.3 469.8 454.8 451.3 434.4 418.8 426.7 440.6 460.2 477.1 492.9 499.3 499.5 499.9 500.6 513.2 516 527.6 521.1 513.7 501.9 486.8 474.8 461.3 451.2 435.7 417.3 399.9 379.5 364.6 346 326 304.9 289.6 273.8 253.9 238.6 224.3 211.3 198.9 186.6 173.8 161.9 152.3 143.9 141.6 137 134.6 132.6 130.8 129.7 128.1 124.5 129.1 130.5 131.5 132.6 136.9 138.6 139.1 140.3 141.7 141.6 143.5 147.9 154.8 163 167.2 173.6 180.4 186.8 194.5 202 209.2 217.2 228.6 236.6 247.1 249.9 255.7 264.2 274.6 282 290 298.8 300.3 302.1 302.2 301.6 297.3 293.4 292 286.3 284.5
412.1 417.8 410.6 405.5 405.2 418.1 433.9 433.8 421.9 413.2 390.6 380.1 402.3 403.5 400.7 405.2 417 433.3 453 472.7 485.7 489.2 496.5 494.1 490.9 486.2 478.6 482.7 481.4 481.6 465.9 462.4 461.5 466.8 462.6 465.4 462.4 464 452.4 444.6 430.8 431.8 431.7 421.9 422 409.4 399.2 393.2 390.5 378.5 371.4 365.1 362.6 357.9 354 349.7 348.4 344.7 342.1 338.5 337.1 335 336.7 336.9 340 343.5 344.6 342.4 341.8 343.8 342.5 350.1 357.9 363.1 364.8 370.2 381.3 391 393.3 394.3 398.3 406 412 410 407.7 403.1 397.4 386.1 391 408.5 421 432.5 460 477.3 494.3 493.6 493.1 492.7 487.6 478.6 478.9 479.8 479 472.4 462 457.7 459.5 453.2 442 432.3 417.3 410.5 423.9 437.5 455.5 474.5 485.2 492.2 496.9 498.9 490.7 500 520.8 514.7 500.6 490.2 478.2 462.5 452.6 440.8 425.1 407 390.6 373.7 359.8 342.9 325.3 305.7 290.2 275 254.9 238.4 220.5 208.5 196.3 186.7 171.1 161.9 152 142.6 138.6 137.5 134.7 131.7 129.8 129.2 128.5 123.5 126.6 128.7 130.5 133.3 135 136.9 139.1 138.2 139.1 140.7 143.2 146.9 151.7 157.8 166.7 171.9 175.8 187.2 193.9 200.7 208.3 219.1 225 234.6 244.9 250.7 257.2 264.9 277.6 287.6 297.4 304.7 309.5 314.5 319.7 317.7 315.2 311.5 308.2 307.2 300.8 293.8
396.7 397.2 385.4 391.2 394.2 400 401.9 400.4 393.4 375.2 361.3 385.2 400.8 393.1 387.4 394.7 405.7 421.2 441.6 454 468.2 468 460.9 460.3 462.1 449 452.2 448.9 443 441.1 439.5 440.9 444.4 451.3 446.7 456.3 456.4 453.8 444.3 431.3 422.9 427.2 422.8 416.6 411.5 401.8 392.3 387.3 381.6 376.3 368.6 365.9 365.9 364.5 362.8 358.1 351.2 341.7 334.4 333.4 330.1 326 326.1 326.5 324.7 330.8 329.6 327.4 327.2 326.8 334.3 339.7 345.5 345 348.3 352.1 358 367.4 370.8 374.9 380.4 384.7 388.9 389.6 388.4 385.3 380.4 366.7 380.9 392 409.6 417.7 437.9 455.5 464.8 468.2 465.8 466.9 467.3 462.5 466.8 469.5 458.5 450.1 444.5 442.9 441.6 433.7 425.8 421 410.3 402.8 422.5 436.7 452.2 469 479.1 484.7 489.3 489 481.9 498.3 502.8 492.5 484.7 470.4 452.1 436.7 427.1 418.4 407.2 391.2 369.2 356.7 339.2 323 301.6 284.5 268.9 255.9 241.3 221.8 205.4 192.6 180.9 167.8 160.1 149.9 143.6 138.5 136.3 133.5 131.5 128.7 128.6 127.4 127 122.9 130.2 131 131.7 133.4 133.8 136.8 137.5 137.1 139.3 142.5 146.8 150.6 156.1 161.7 170.9 177.2 183.4 191.5 201 209.5 216.7 227.8 234.8 247.1 252.5 258 265 278.5 289.9 298.8 309.7 319.3 325.1 329.2 333.9 336.4 330.1 326.7 324.7 322.2 313.1 307.3
364.5 361.1 360.4 370.5 372.6 376.3 376.3 369.6 361.3 340.8 362.1 374.2 384 372.6 368.1 382.5 393.8 407.7 420.3 430 429 425.7 415.8 415.2 417.4 412.7 410.5 411.3 411.1 420 421.8 426.2 431.6 432.1 433.4 437 434.9 425.9 418.7 421.4 411 417.8 412.7 406.3 398.7 396.9 386.5 379.8 377.4 373.1 372.1 372.8 375.5 374.2 372.3 365.5 358 349 337.6 330.9 323.9 320.7 316.9 318.3 316.8 318 318.1 316.4 317.4 316.4 326 332.7 331 330.9 335.4 339.6 343.6 349.5 355.3 359.3 360.5 365.1 366.1 367.6 368 363.6 359.9 353.4 368 375.4 386.1 402.1 420.1 430.8 439 441 443.4 453.1 447.4 446.1 446.8 441.6 441.7 440.3 431.8 424.5 424.5 423 413.5 401.7 403.6 401.9 421.3 436 453.1 461.7 465 474.2 472.2 471.9 465.8 482.4 482.4 466.1 456.6 446.6 429.3 416.1 409 399.4 388.4 367.6 349.6 334.2 321.6 303.3 286.1 268.5 253.1 236.7 217 203.2 190 176.8 165.6 157.7 150.1 141.9 137.5 133.5 131.9 131 127.8 126.8 126.5 126.8 122.9 130.8 131.8 132.6 132.8 132.9 133.2 134.8 137 139.2 142.1 145.6 150.3 155.7 162.1 168.2 175.7 182.9 189.5 199.7 207.5 216 226.5 232.5 242.8 251.8 261.8 269.3 280 291.2 302.9 314.1 322.9 332.3 342.4 344.2 347.8 346.5 345.8 342.4 338.1 334 328.8 322.5
342.3 340.3 343.9 350.1 350.9 347 345.6 340.7 331.8 313.4 349.9 357.8 357.3 351.6 356.6 367.2 377.3 389.2 394.4 396.5 392.7 384.8 382 381.5 377 368.8 368.5 380.9 384.4 398.4 401.3 407 407.3 405.5 412.4 412.4 408 406.5 404.9 408.6 402.5 407.6 400.1 395.3 390 384.6 378.1 377 375 374.6 380.3 382.2 387.8 383 378.7 372.1 363.2 353.4 345.9 334.3 323.8 313.6 309.9 307 306.4 304.4 306 304.8 304.1 305.6 308.9 314.6 316.9 316.1 319.9 323.2 333.9 334.6 340.3 340.3 339.5 345.5 347.7 348.7 348.1 347.9 339.3 343.4 353.8 359.7 368.1 384.6 398.7 410.1 415.7 421.4 424.3 424.5 421.8 430.7 422.9 424.9 429.5 422.2 411.1 408.4 415.9 406.4 401.5 389.4 388.1 400.4 419.3 433.4 448.1 453.5 465.9 467.3 462.4 457.1 461.3 471.3 454.8 434.8 424.7 415.5 403.2 396.4 387.1 376.4 364.6 348.9 335.1 318.1 302 286.9 269.6 249.5 232.8 216.2 199.9 186.8 174.3 164.7 156 148 141.1 136.4 133.3 130.5 128.9 127.4 126.5 127.2 127.1 124.1 122.6 132.1 133.3 134.2 135 136.3 137 137.3 138.8 142.2 145.2 147.8 155.7 160.7 167.1 174.3 182.4 190.3 198.9 207.7 218.6 223.3 232.2 242.4 252.3 260.6 274.4 282.2 290.3 303.9 314.6 325.6 338.4 349.9 355.4 359.3 363.6 362.6 360.9 357.6 355.9 351 345.1 340.9
318.9 322 323.6 325.5 329.5 320.4 314.9 306 293.3 322.6 327.1 331.8 333.8 337.1 344.9 348.6 355.9 359.6 359.3 359.5 354.3 350.4 346.7 346.8 346.9 341.9 349.5 355.4 370.7 376.2 380.1 383.9 390 391.6 395.4 395 388.1 384.5 391.9 398.6 391.2 397.6 385.5 384.9 380.9 377.2 376.3 378.9 378.8 379.7 383 391.1 388.5 385.9 384.8 377.6 369.1 358.8 350.2 339.4 328.5 320.5 310.1 301.2 294 295.8 294.5 295 295.1 293.3 298.6 303.2 308.5 306.3 309.6 313.5 317.7 318.7 320.2 322.2 321.9 326.8 327.7 328.6 330.7 329.2 323.1 326.7 332.9 345.5 352.2 370.5 382.4 389 397.8 405.2 406.8 406.3 405.6 404.1 408.1 412.9 409.4 407.7 400.8 402.4 399.8 388.9 376.9 371.2 379.5 393.8 413.3 427.3 434.1 446 451 449.5 445.5 447.9 452.4 448 432.7 412.4 398.2 388.7 383.4 376.8 371.3 355.3 343.2 330.7 317 301.7 287.9 266.4 246.7 229.8 212.7 198.6 186.6 175.1 164.7 155.1 147.4 140 135.6 132.5 130.7 128.4 126.9 125.9 123.3 122.4 122.5 122.6 133 134 136.3 136.4 137.4 138.3 138.6 138.6 139.9 144.3 149.7 156.4 160.7 166.2 173.8 182.2 190.7 196.2 207 216.9 227.7 234 239.9 253.8 261.8 272.7 285.2 296.8 306.9 315.7 326.6 338.9 351.6 363.5 371.2 378.7 381.9 378.5 377.3 377.3 372.2 367.6 361 355.1
301.5 303.7 306.5 305.6 305.2 295.9 287 262.6 288.5 312.3 312.2 313.2 317.3 319.2 330.8 326.8 326.3 326.4 322 318.2 317.4 318.2 317.6 319.5 324 322.1 335.6 336.8 349.2 350.1 358.9 362.4 369.6 375.4 374.9 375.7 364.7 378.1 385.7 386.7 385.3 380.2 377.4 376.5 371 373.5 380.7 381.8 382.1 386 392 399.3 398.7 395.5 391.1 384.4 374.8 364.8 354.1 342 333.3 324.3 316.2 309.1 296.5 287.9 284.8 291.8 291.2 290.7 290.3 292.6 299.3 297.3 299 300.9 305.2 306 309 307.4 308 311.7 313.9 315.4 313.5 313.9 309.1 314.5 320.6 326.8 337.8 351.7 365.3 376.6 383.2 388.8 390.1 389.6 386.2 393.3 395.3 393.5 394.7 393.7 386.9 379.4 376.3 368.5 355.8 342.4 377 394.5 408.6 415 424.3 429.8 437.5 432.8 429.7 427.3 418.6 416.5 405 391 381.6 374 364.3 359.7 350.7 334.3 324.1 310.7 299.1 286.4 268.1 250 232.1 213.9 203 192 175.3 162.7 152.7 145.6 140.6 135 131.1 129.9 129 126.8 125.6 119.3 126.8 127.6 129.8 128.7 133.9 136.6 137.2 138.2 138.7 139.5 141.7 140.9 142.7 147 152.1 159.1 165.6 171.2 176.7 187.8 196.9 208.1 215.4 224.3 238 246.2 251.5 263.9 273.3 288.5 298.8 308.3 317.5 324.2 338 351.3 367.5 375.6 388.4 394.8 397.9 398.5 394.1 392.4 388.6 381.9 374.8 369.9
286.7 290.8 289.1 287.3 282.2 276 245.5 259.5 289.5 296.2 292.1 290.1 298.6 304.2 310.1 302.8 298.1 296 291.2 288.7 289.3 294.9 296.7 301.3 303.3 303.5 308.2 316.9 321.1 335 340.1 348.3 349.4 358.8 351.4 348.6 352.1 364.7 370.3 370.9 366.8 366.4 366 363.9 368.1 378.6 387.1 388.7 388.3 396.5 400.5 414.3 413.9 407.3 402.7 388.8 380 368.4 358.1 349.1 339.2 328.7 319.6 310 302.5 295.9 287.8 278.7 275 282.1 284.9 286.9 288.7 288.9 290 289.1 294.1 294.4 296.3 295.1 295 295.7 297.9 298.1 300.9 299.8 296.1 304.5 308.1 317.4 327 339.7 354.2 359.5 364.2 368.8 371.6 372.7 373.8 375.7 375.4 368.7 377.4 379.7 372.4 365 360.5 355.6 319.9 354.5 377.9 391.7 407.2 414.8 416.7 422.5 420.3 416.6 413.3 398.9 388.7 383.7 381 379.1 370.4 357.5 348.9 337.2 330.4 318.1 304.5 290.3 278.3 262.6 248.9 234.2 217.9 205.5 190.5 177.1 163.5 151.6 143.9 138.4 135 131.5 128.7 129 127.6 126.3 118.8 128.5 131.8 131.8 132.7 133 131.7 138.3 140.2 140.4 141.3 141.5 143.1 144.6 147.5 149.3 156.5 162.2 170.3 176.4 184.7 194.7 204.6 215.4 225.6 235.1 243 258.5 265.4 277.9 285.9 298.8 311.8 324.2 333 340.3 352.1 365.1 379.8 394.2 406.4 415.7 416.5 415.5 411.1 410.4 404.2 398.1 393.5 385.2
277.9 273.1 271.9 264.2 261.6 253.2 236.4 253.7 274.2 272.2 271.6 276.6 277.1 287.6 282.3 275.8 270.7 271.6 271.2 270.7 270.7 277.3 278.7 282.2 284.2 289.5 289.3 295.3 306.7 321.7 327.1 329.2 329.4 336.2 330.9 328.5 342.7 348.3 351.5 356 353.6 355.2 352.4 364.6 378.7 386.9 394 397.5 398 402.7 411.1 421.5 425.9 414.8 415.2 393.5 383.6 371.5 359.5 350.3 341.8 330.5 321.8 314.1 305.6 297.8 291.8 288.7 282.4 271.4 266.2 267.3 274.9 279.5 277.4 280 284.2 284.1 282 282.1 282 281 283.4 286.2 287.9 288.6 288.1 291.7 300.1 307.5 315.7 330.3 336.4 342.8 345.1 347.6 354.8 357.3 358.1 357.3 355.2 354.3 357.6 360 354.9 345.8 342 328.2 327.7 352.9 373.5 389.5 405.3 409.5 408.6 408.9 409 400.3 387.6 378.7 362.1 356.5 354.8 358 354.4 344 327.6 323.7 315 302.5 285.1 269.5 258.8 245 231.4 220.3 203.1 193.9 180.6 162.4 152 143.9 138.3 133.9 131.5 130.1 127.3 129 124.2 122.1 128.3 129.3 132.5 133.6 135.3 136.1 135.5 136.4 142.3 142.8 144.1 144.2 146.3 147.3 152.4 154 158 168 174.1 181.9 190.7 202.3 213.8 222.3 235.3 250.9 257.3 264 279.8 288.6 300.4 310.5 325.8 333.6 344.6 353.2 362 378 398.9 419.4 432.2 439.4 438.1 434.3 432 429.6 421.9 416.7 407.6 396.1
261.1 252.5 250.6 245.3 240.2 239.4 224.8 242.4 245.8 253.3 253.6 257.4 263.7 265 258.2 250.9 250.4 250.9 249.4 253.1 251.9 257.9 261.4 261.9 266.7 269.9 276.1 285.7 292.6 302.3 308.7 309.9 312.9 316.9 316.5 315.1 328.3 331.7 338.3 338.9 335.9 351.9 358.6 370.8 387 392.6 398.9 403.6 407.7 416.6 420 432.1 436 428.5 422.1 398.2 385.2 373.8 363.4 354.3 348.5 338.2 328 317.2 307.5 300.4 292.2 287.7 285.3 290.7 287.2 266.1 260.7 257.5 265.5 267.9 273.4 274.8 271.9 272.7 272.9 271.1 271.9 275.4 276.9 278.5 279.8 286.6 293.3 297.7 304.9 313.8 323.9 324.8 328.8 332.4 338.6 342.8 340.6 340.6 344.3 343.2 339.3 341.8 338.1 329.6 314.7 302.3 331.4 352.3 367.1 378.5 389.3 390 387.4 385.2 385.2 376 361 355.2 339.6 336 334.9 335.5 331.6 318.4 310.9 303.4 297.5 281.1 267.8 256.4 245 228.4 215 200.4 195.2 177.1 164.6 151.6 143.9 139.4 133.4 129.6 129.3 128.9 123.4 118.4 123.8 128.1 129.4 130.8 132.6 135.2 137.3 140.5 141.5 140.1 138.4 145.7 146.7 147.4 148 150.6 153.7 159.9 162.2 171.9 180.4 189.7 199.3 213.6 222.7 235.1 240.4 257.1 268 279.5 283.9 299.1 309.5 327 340.9 346.7 350 365.7 376.6 393.8 416.4 440.6 452.1 453.4 455.5 451.5 451.3 443.4 436.8 431.6 420.4 415.2
243.5 236.4 236.1 228 221.6 216.9 222.5 228.9 233.3 240.5 242.7 235.8 241 241.7 234.5 231.8 230.7 232.6 234.4 233.3 235.5 240 245.2 249.8 249.9 257.9 263.5 272.2 278.5 286.2 289 294.9 299.3 302.1 301 309.9 312.8 318.9 311.7 331.1 344.1 356.6 366.9 375.4 393.3 401.8 405.2 410.9 416.6 422.7 430.5 437.9 446.9 435 423.2 403 391.9 378.9 367.1 359.1 350.8 342 331.6 321 312.4 301.9 294.4 292.4 293.6 290.3 287.3 283.9 281.8 273.8 258.1 253.2 256.6 261.7 263.7 264.6 264 264.5 265.6 266.5 269.1 269.3 266.4 272.9 279.2 283.8 288.5 301.9 310.8 312.4 317.4 323.3 327 326.4 324.6 324 327.8 326.7 323.5 323 320 306.1 282 307.1 323.6 341.2 353.6 364.3 367.9 367.8 365.1 363.8 359.9 353.5 337 333.4 324.7 322.9 317.2 314.3 308.1 295.6 291.5 283.1 273.9 264.5 251.5 240.1 225.5 211.1 201.1 190.9 179.1 167.1 155.5 145 138.1 133.3 129 126.3 125.1 121.4 118.6 125.6 129.1 131 132.8 133.9 135.8 137.1 138.3 141.1 143.9 146.2 148 143.8 146.4 149.6 152 154 156.4 166.8 167.6 178.3 187.3 196.1 209.8 222.5 230.9 242.9 255.8 265.1 273.8 289.6 304 309 320.2 336.1 352.6 365.4 371.7 380.2 391.5 413.5 438.4 453.7 462 467.7 472.3 474.9 470.1 460.7 453.4 445.9 437.2 431.2
232.7 226.5 219.3 211.6 204.9 206.6 209.5 216.5 219 219.9 222.3 218.7 221 220.4 219 216.8 216.3 219.5 220 221 221.8 227.9 233.1 239.1 248.3 245.6 239.7 248.9 262.2 271.8 278.2 285 288 292.2 289 292.4 293.6 315.5 327.8 336.8 348.8 368.6 379.5 380.4 394.6 403.8 408.8 417.5 422.9 433.1 441.4 444.5 451 442 432.5 409.7 397.5 383.3 373.4 364.6 353.7 344.2 334.9 326.9 317.2 302.2 300.3 299.6 296.3 292.4 286.5 282.1 281.5 276.8 272.6 265.7 259.3 246.9 247.6 249.5 257.2 257 260.4 261.9 263.1 261.4 257.8 264.6 269 272.6 277.7 289.1 295.8 299.9 303 307.3 315.9 307.4 307 304.7 307 305.2 301.1 301.8 291.4 273.4 293.9 311.1 316.9 327.7 337.6 341.8 346.1 348.6 344.2 340 335.6 329.2 319.8 314.7 311.7 306.1 305.1 299.2 288.6 278.3 271.4 264.3 258.5 249.3 236.8 220.9 207.7 196.3 185.8 179.2 164.3 153.7 146.4 139.6 132.4 127.9 127 122.1 118.3 122.1 124.9 127 132.5 135.5 133.9 137.1 137.2 139.3 140.7 142 141.9 147.3 149.9 151 148.4 152.2 154.6 160.4 162.2 167.5 175.4 183.4 194.5 203.4 217.2 228.8 238.6 249.2 260 273.8 285.3 298.8 314.6 320.7 331.3 346 363.7 378.6 386.4 394.5 406.4 431 459.6 470.3 475 485.7 492.6 492.5 486 479.8 473 464.3 453 446
218 217.9 211.6 199.5 200.4 202.5 203.3 205.9 207.3 206.2 203.7 204.1 206.3 204.4 203 204.7 205.5 209.4 208.3 209.5 211.4 218.5 225.2 230.8 236.7 241.5 252.9 263.8 260 258.3 254.9 258.4 265.8 280 288.2 299.8 311.3 321.1 331.3 343.5 354.5 369.8 383.9 386.7 398.9 412.1 416.5 425.6 429.9 442.1 452.3 456 456.6 447.2 436.6 411.2 397.9 386.9 376.8 366.1 356.5 347.8 337.6 326.4 314.7 312.3 310.4 309.4 304.5 300.5 289.4 282.7 278.2 272.8 269.3 268 264.8 262.2 255.2 241.3 243.4 247.6 254.5 255.1 257.1 250.9 251.1 254.7 260.5 265.6 270.3 275.2 282.9 288.2 290 290.1 293.3 291.5 290.5 289.2 294.3 287.9 284.2 278.5 270.7 272.2 288.8 299.3 307 318.7 323.9 328.5 331.8 331.9 328.2 320.4 320 310.8 306.2 297.5 298 297.5 292.7 276.2 267.9 261.2 255.9 245 238.1 225.7 217.9 202.5 192.7 184.2 175.9 166.5 155.8 144.4 136.4 131 131.9 123 120.5 118.5 124.2 124.7 128.2 129.9 136.9 138.5 136.8 136.7 139.7 140.6 143.2 144 145.4 148.8 152.2 153.5 150.8 154.5 158.2 163.8 167.5 169.8 177.5 187.6 195.3 205.7 218.8 231.5 246.8 253.5 268.2 281.2 296.9 304.2 324.2 335.1 343.5 359.7 376.9 391.5 399.2 409.9 423.8 447.1 477.3 485.8 494 503.6 507.1 508.6 503.2 496.2 490.5 479.4 468.7 458.4
208 211.4 201.3 187.6 191.7 195.8 193.5 194 194.1 190.2 190.4 192.7 193.5 191.3 192.3 195.6 197.1 200.6 198.6 192.1 203.6 210.3 219.1 223.3 226.5 245.1 265.3 267.5 270.4 276.2 281.6 282 286.2 293.9 301.4 305.8 314.1 325.9 337.7 351.2 360.2 373.9 389 396.1 406.5 418.4 429.8 435.1 443.2 459.4 467.6 467.5 465.4 452.8 442.3 414 401.3 388.1 379.2 370.2 364 354.1 334 326.9 321.3 323.3 319.1 317.9 311.8 307.5 294.2 288 280.5 274.4 268.2 263.8 263 263.3 261.6 256.9 237 240.2 246.9 249.3 248.3 244.9 239.3 244 248.6 253.7 256.2 261.4 269 271.3 273 272.4 271.8 274 274.8 277.5 275.7 271.9 267.9 260.8 250.6 272.7 282.8 285 296.8 305.1 307.5 315.5 321.2 318 311.7 305.2 302.8 297.9 291 284.1 284.4 281.4 270.4 260.3 255.3 246.5 236.7 228.3 215.6 208.2 197.1 187 180.4 176.7 176.2 155.5 146.7 136.1 127.7 125.4 120.9 117.7 120.6 121.2 123.9 127.7 129.7 133.2 137.4 137.9 139 139.5 140.3 141.2 145.1 146.2 147.8 150.6 153.6 157.2 152.2 156.1 162 168.2 173.9 178 178.8 189.5 195.1 203.3 216.7 230.9 248 257.4 272.7 289.6 305.1 320.8 331.5 343.4 357 369.9 391.3 402.5 417 429.9 442.2 469.4 481.3 498.6 515.6 521.4 518.2 519 513.9 511.4 504.3 495 480.6 471.9
198.3 190.8 183 185.7 187.3 184.7 181.3 182.1 182.2 181 181.4 184.5 181.6 181.2 184.3 187.3 187.6 189.5 196.5 207.5 211.4 216.8 223.1 227.5 240.1 250.4 260.8 269.9 276.9 283.8 293 300.7 304.3 309.5 316.2 322.8 326.8 335.9 347.9 357.7 368.7 380 397.2 407.5 417.1 429.6 442.4 450.5 460.9 471.1 474.4 476.6 472.9 462 440.5 417.5 402.7 390.7 383.1 372.5 353.8 349.1 343.7 330.1 331.5 329.8 328.6 325.5 320.5 310.1 301.5 289.6 284.4 275.4 268.2 262.7 261.4 260.1 259.4 258.4 250.8 235.6 234.5 232.1 233.9 238.4 231.3 234.9 237.8 241.3 244.1 245.5 251.4 256.8 259.5 255.5 254.5 255.7 259 259.6 260.4 256 250.6 238.4 247.7 265.5 271.9 274.1 282.1 288.5 295.1 306.6 311.8 302.7 293.6 286 284.5 278.3 272.6 273.1 269.9 259.6 256.9 250.3 241.3 232.6 222.2 211.3 203.5 194.1 181.8 176.6 171.8 169.4 159.2 146 141.2 132 126.7 116.9 121.1 123.1 122.4 124.2 125.3 127.9 131.5 132.4 135.5 138.3 138.6 141.8 140.4 142.4 147.5 148.1 149.7 151.8 154.8 155.8 153.8 158.8 164.7 171.8 176.5 184.1 186.4 189.8 198.8 205.6 215.4 233.1 245.7 261.2 276.8 293.4 313.2 330 343.5 355.3 369.7 387.3 398 417 435.3 448.3 456.7 483 498.4 516.8 530.2 533.1 530.3 531.2 531.5 527.1 519.5 507.2 497.7 488.2
184.8 171.1 167.7 176 175.1 174.4 173.4 176.3 176.1 175.8 175.5 176.8 177 180.6 183.2 185.5 190.3 198.4 207 214 220.4 225.6 231.7 237.2 250.6 259.6 265.1 274 286.3 296 305.5 312 320.6 327.1 334.5 341.2 345.9 352.6 361.1 372.7 380.8 393 407.9 422.6 430.2 440.3 455.3 464.7 477.1 483.8 485.3 483.4 480 467.3 441.7 420.4 408.5 395.2 386.9 375.4 365.6 359.7 344.3 347.3 342.8 340.3 337.3 334.2 328.3 316 307.5 295.9 286.8 278.4 271.7 264.3 260.2 258 256.8 254.7 254.4 252.3 249.3 223.5 219.9 224.3 225.8 224.2 231.4 232.9 233.2 232.7 230.2 238.1 241.2 242.7 244.2 243.4 245.4 245.2 247.2 239 227.9 227.3 241.5 249.6 255.7 267 265.9 273.7 280.8 289.3 286.7 284.5 276.4 271.4 267.8 259.9 256 257.4 253.6 243.7 243.5 236.4 225.5 220.5 206.8 201.1 189 180.4 173.5 168.6 164.4 154.3 155 143.6 133.3 127.3 117.3 121.6 122.9 123.2 122.7 128 132.1 127.6 129.7 131.9 134.7 135.6 138 141 142.8 144.6 148.4 151.3 152.8 155.3 157.9 158.1 158.4 161 166.3 176.4 178.2 184.8 190.2 196.3 202.5 211.2 223.2 232.3 246.6 265.1 282.7 298.6 320.3 336.7 353.7 366 385.8 399.2 410.2 432.5 450.3 469.4 474.4 492.5 514.1 533.1 541.4 545.9 547.6 547.9 550.4 542.9 535.3 526.3 513.4 502.2
165.5 164.1 165.9 165.9 167 167.3 169.8 170.5 170.1 171.7 172.5 179.6 179.1 180.1 188.3 195.2 197.3 206.5 215.1 225.5 233.1 239.3 246.4 253.3 264.1 273.2 278.2 286.7 294.4 305 316.7 327.1 335.6 349.1 350.1 359.4 366.5 368.6 373.7 388.6 397 407.6 418.6 431.7 442.9 455.9 470.6 479.7 488.8 493.3 495.8 494 491.2 473.9 442.9 425.7 413.3 402.1 390.4 382.2 375.4 360.3 362.8 358 354.3 350 347.5 341.6 334.8 325.7 315.5 301.5 290.4 280.4 273.7 268.7 264.9 262.5 259.9 256.4 253.8 250.8 247.4 242.2 239.2 220.9 215 217.1 220.9 224.3 225.5 224.7 221.5 220.6 222 226.4 228.4 228 232.8 233 231.9 224.1 213.2 219.1 233.5 240.9 240.8 253.7 255.5 257.9 265.7 266.9 266.3 260.9 257.4 253.4 256.4 249.7 243.5 242.1 235.4 228.7 227.2 218.9 210.5 210.2 196.9 187.1 178.2 167.5 163.5 163.6 155.9 145.9 145.5 142.2 132.8 124.5 120.2 122.3 122.5 123 124.3 125 127.4 128.7 130.1 134.5 134.4 138.1 139.4 142.7 144.5 146.3 149.6 153.3 156.3 158.5 161.1 162.3 157.5 162.9 167.6 174.6 179.7 185.9 192.6 199 208.2 215.1 225.7 238.3 252.3 267.4 284 301 325.1 343.1 361 378.6 396.1 411.6 424.2 445.4 467.6 482.5 491.8 513.4 530.4 542.5 553.8 560.8 566.4 567.5 565.5 556.8 549 539.6 528.4 515.6
158.9 161.9 162 163.3 164.3 164.7 166.3 165.3 166.3 170.3 180.6 183.2 185.6 188.6 197.1 204.1 210.4 219.1 227.6 230.6 248.6 256.2 263.3 276.3 285.8 289.3 294.4 300.2 306 312.2 326.5 337.8 346.8 361.8 365.4 372.9 381.7 388.5 393.5 399.6 412.1 421.2 431 445.9 458.3 471.2 481.8 491.8 501.8 507.7 508.6 502.4 503 472.2 448.8 430.7 418.4 406.4 398.2 392.1 383.1 377 377 373.4 367.1 362.4 357.5 351.5 343.6 336.1 324 309.8 295.9 286.3 277.1 271.4 266.6 263.5 259.4 256 254.3 251.3 242 239.3 235.4 232.9 226.4 219.5 209.5 208.4 211.9 213.9 214.6 212.8 208.4 202.9 210.1 210.4 217.6 217.5 215 209.2 206.4 213.1 220.2 226.6 233.3 238 240.8 244.9 254.7 254.3 251.2 243.5 242.1 242.2 241.7 237.1 233.8 228 223.4 215.3 207.3 202.9 194.3 189.3 179.7 167.3 161.8 157.8 162.3 158.4 145.9 140.9 139.8 136.4 132.7 121.7 120.8 121.1 121.5 123.2 123.8 124.9 127.4 128.4 129.1 133 137.1 140 140 146.5 148.4 148.7 152 154.9 157.8 159.1 163.9 165.7 166.4 168.7 167.6 173.9 183.7 189.8 193 198.8 207.1 217.8 228.8 242.1 255 273.4 291.6 302.5 323.5 344 367.3 387.2 406.4 422.6 438 459.5 481.1 499.7 512.1 525 543.6 557.6 562 577.2 580.8 584 580.6 572.2 565.2 557.1 546.2 531.5
157.5 160 159.1 156.6 159.5 159.9 161.3 166.1 172.6 178.9 183.4 188.3 194.9 205.2 211 222.3 233.2 238.4 245.9 257.6 264.1 276.3 284.5 295.3 305.6 310.2 315.6 318.7 325.3 320.7 334.9 351.7 360.2 375.3 382.4 390 400.5 408 410.5 416.9 424.8 431.9 446.2 459.9 474.6 485.8 496 505.8 514.2 520.2 517.1 511.8 497 472.2 456.3 438.7 427.4 418.8 407.5 396.5 395.1 388.6 392.4 389.6 378.9 373.8 366.2 362.2 358.5 345.8 330.9 318.9 301.9 289.7 281.2 274 269.8 265.4 261.2 258.9 255.9 251.1 246 242.5 236.6 229.3 226.9 228.2 225.1 213 203.6 200.5 200.6 205.3 205.2 200.7 194.5 195.2 202.5 206.5 206.6 204.7 201.4 204.3 210.4 216.2 227.5 225.9 233.6 234.9 235.9 234.5 233.4 231.6 233.3 232.1 229.9 224.5 220.2 215.2 206.4 198.3 189.7 183 176.4 166.6 160.4 156.6 151.1 150.9 155.3 148.5 140.2 140 140.6 138.1 130.4 116.5 118.2 122 122.4 123.8 125.4 125.3 128.5 130.3 127.5 131 141.8 142.2 146.1 147.1 150.7 152.2 155.7 157.7 162.5 162.7 165.4 167.3 170.1 173.9 174.9 170.1 177.8 188.9 193.8 198.6 204.4 220.8 231.7 244 259.7 280.8 299.5 309.7 327.2 347.5 366.2 388.4 413.6 433.7 458.3 478.3 492.3 517.7 528.4 541.9 556.9 569.3 579.4 590.6 595.2 598 596.3 586.8 579 569.5 559.4 543.2
155.9 155.2 155.8 156.3 161.5 167 170.9 172.8 182.4 190.2 196.3 205 213.5 224.4 237 247.5 254.8 262.4 270 277.5 286.3 297 307.9 317.1 326.6 328.5 333.5 335.6 340.5 339.5 345.8 363.6 376 390.4 399.4 405.9 414.9 422.7 431 434.7 440.6 447.2 458 475.4 485.6 497.3 507.2 517.6 525.7 533.1 530.7 524 508.1 484.1 459 451.3 440.2 428.5 418.7 413.1 407 405 405.3 396 394.3 385.4 375.1 372.8 372.8 357.3 342.3 325.7 307.8 295 284.4 277.3 270.9 266.8 263.9 259.5 257.1 252.8 248.1 242.8 237.7 233.5 231.5 223.5 212.5 214.3 206.8 201.2 200.5 192.3 192.7 188.5 190.2 189.2 185.4 199.6 197 200.2 196.7 198.3 203.5 208.1 214.5 215.6 222.1 224.7 225.9 227.7 225.5 223.8 226.1 219.4 217.7 212.5 207.4 198.5 191.7 182.7 175.4 164.9 162.4 152.2 147.6 146.5 146.5 141.7 134.8 139.6 136.4 132.2 138 134.3 122.7 116.7 120.8 121 123.2 123.8 123.7 125.3 125.5 126.2 128.4 132.6 146.3 148.8 145 150.7 153.8 153.2 156.4 158.2 163.4 163.9 168.4 171.3 171.8 176.1 176.4 173.5 177.4 184 194.4 201.9 208.7 220.8 231.5 248.2 261.2 280 296.1 311.1 331.2 351 377.9 401.6 423 443.9 470.2 494.2 513.3 527.6 545 557.2 571 581.7 596.6 601.4 608.9 609.9 605.1 598.3 591.6 584.3 572.8 554
152.8 152.4 157.9 162.1 166 172.6 180.8 187 193.9 205.2 214.5 225.4 234.7 245 259.7 267.7 276.6 287.1 294.8 307 315 325.7 329 336.4 343.4 347.3 350.6 352.6 355.2 357.9 362.6 372.8 388.3 400.7 416.9 425.2 430.5 440.3 447.3 451.5 455 464.4 474.1 488.4 505.7 519.2 527.7 534.5 541.6 545.9 543.7 537.7 522.4 496.6 473.2 462.3 451.9 438 426.6 421.7 419.3 416.7 416.9 407.8 401.6 394.4 385.5 384.3 385.2 367.1 350.9 338.9 316.3 303.4 291 281 275.6 271 263 258.8 257 253.7 248 241.8 234.5 231.3 229.6 218.3 222.1 222.6 217.6 214.3 209.6 205.4 199.1 192.3 189.1 184.9 182.6 182.4 189.1 192.3 192.6 188 195 199.7 205.3 209 216.9 216.6 216.5 218.1 217.2 214.3 211.4 207.2 205 198.9 190.8 182 176.3 169.3 165.6 156.9 152.3 143.8 139.3 133.6 138.9 133 130.7 133.3 133.1 129.6 124.7 121.3 120 115 120.4 121 122.9 123 124.6 125.5 126.4 128.2 132.5 135.9 145.3 151.1 150.1 154.3 156.1 155.5 157.8 161.4 163.5 165.9 169 172.2 174.4 177.5 180.4 176.4 180.5 185.7 195.2 204.4 210 218 231.9 248 264.2 279.3 294.7 312.6 330.6 353.2 376.5 410.5 434.4 455.6 480.2 504.9 530.2 541.6 560.8 573.9 586.3 598.1 606.5 614.1 621.7 619.2 615.8 612.3 605.5 596.6 583.5 568.5
152.5 155.6 161.8 168.3 175.8 184.2 194.4 203.5 213.7 224.4 233.6 244.4 259.5 269.3 279.2 292.7 300.8 314.2 325.1 335.7 345.7 345.2 355.8 362.3 370.5 366.6 366.8 371.1 372.5 374 365.6 378.4 400.1 413.4 429.5 442.3 449.7 453 464.3 470.8 475.2 480.6 495 505.9 522.2 536.9 545.9 550.9 555.9 556.3 555.1 547.9 535.9 504.8 487.1 480.5 467.1 451.5 436.9 430.1 426.1 428.8 424 421.1 409.4 402.6 393.9 393.9 389.7 374.1 359.9 348.1 328.9 313.9 300.8 286.1 277.4 274.2 271.6 265.9 259.6 255.9 250.5 246.1 239.8 235.9 231.7 227.2 224.3 219.3 218.6 216 212.4 207.2 204.2 202.2 197.6 194.2 186.8 176.5 180.8 186.2 186.6 184.4 187.1 192.1 200 203.6 207.8 208.4 209.4 206.6 204.7 204.8 199.4 193.6 185.8 180.9 173.3 169.4 162.6 155.9 151.2 147.5 140.5 137 131.6 129.5 125.9 129.1 126.7 131.6 131.3 126.2 124 121 120.1 117 120.6 122.1 122.8 121.6 124.8 127.8 129.7 133.3 135.9 140 149.1 152.7 157.4 160.7 160 159.2 161 166.8 165.2 169.2 171.6 174.4 176.9 178 184.5 180.3 179.9 185.5 191 205.1 211.7 215.2 227.6 245.8 260.2 277.6 295.3 310.3 327.5 351.6 382.8 417.4 444.2 463.8 490.8 510.3 539.5 559.9 576.4 590.1 598.7 614.6 617.7 626.8 632.5 631.6 629.5 623.8 619.1 609.7 594.9 582
156.6 160.7 168.5 176.4 186.8 203.7 214 224.1 231.1 246 260.4 268.8 282.6 293.5 306.6 317.4 328.5 340.2 353.9 367 374.3 370.4 381.5 392.5 395.5 393.9 391.4 393.2 394.9 391 379.8 394.5 412 424.8 441.1 457.3 465.4 469.3 479.3 490.2 496.1 503.1 509.4 523.5 537.5 550.5 558.8 566.4 569.6 571.3 568.4 561.6 540.7 514 505.1 498.9 478.8 464.5 452.5 435.5 439.3 443.5 432.5 425.1 419.3 411.1 402.6 404 394.7 378.6 367 356.5 339.6 322.4 309.3 295.5 288.6 285.1 280 272.6 266.4 259.3 253.4 249.1 244.8 238 234.8 228.2 226.5 223.1 216.7 211.8 209 207.1 198.9 198.7 195.9 191.5 186.5 178.9 176.1 178.3 183.1 182.6 180.3 188.9 192.5 196 199.9 199.2 199.2 196.6 193.4 190.7 184.4 181.9 173.6 166 159.9 157.8 151.8 145.1 141.9 136.3 134.5 132 132.1 125.3 122.7 125.9 125.2 127.1 128.6 121.7 121.1 121.2 119.5 119.9 120.8 121 121 122 124.7 128.2 131.8 135.2 141.5 144.5 150.6 155.9 160.3 167.3 166.4 164.3 165.9 166.8 170.7 173 173.1 177.6 179.2 182.2 184 188.3 190.9 189.3 189 201.8 211.8 218.9 226.5 240.1 256.3 274.8 295 312.3 331.4 352.2 382 413.6 445.3 473.3 494.7 519.4 551 572.2 588.7 601.9 615.1 628 632.7 643.8 641.1 648.7 645.3 638.7 629.3 620.5 608.6 595.1
163.9 171.1 179.3 188.2 207.5 225.9 237.8 245.5 259.2 269.8 284.1 294.8 306.8 322.2 333.4 345.8 359.5 373.2 383.9 398.7 406.9 405.8 414.9 428.3 428.4 430.1 431.4 423.4 408.8 408.6 404.2 410.5 428.9 438.8 451.7 469.8 481.3 490 494.9 507.7 515.9 524.2 530.3 539.6 551.7 560.9 571.3 582 585.7 584.5 577.5 565.1 543.8 522.7 521.6 510 491.8 474 456.8 451.2 449.8 455.3 440.5 438.3 428.5 418.2 413.9 412 395.9 384.2 370.8 361.4 346.4 331.3 317.7 307.8 303 298.9 291.4 281.5 270.9 263.8 260.5 254.5 249 245 234.7 236.3 231.6 227 223 214.1 214.2 212.3 209.7 206.4 201.3 197 188.8 183.6 175.2 173.9 173.7 178.1 173.5 185.8 187.1 188.1 189.7 185.6 187.4 185.4 179.1 175.6 173.5 170.8 162.9 155.8 153 146.7 144.5 143.9 135.8 133.3 130.3 129.1 128.4 123.2 122.4 128.5 125.5 124.2 131.6 120.4 121.1 120.9 115.5 120.2 119.9 121.6 121.3 124.8 129.9 131.9 135.9 140.1 144.8 150.4 154.5 158.3 163.5 167.3 168.8 169.3 173 176.2 176.5 178 180.4 184.5 183.6 186.7 187.9 192 194.1 194.9 194.5 196.1 211.9 222.1 228.5 238.3 251.7 272.5 292 315.5 334 354.1 379.8 409.7 442.1 475.1 501.6 531.3 555.7 582.8 600.5 615.2 627.8 640.2 646.5 655.1 654 658 656.3 649.8 639.9 630.9 618.6 606.2
170.5 182.1 190.7 208.5 229.1 243.8 261.9 273.3 284.7 294 309.3 324.1 333.5 348.1 361.9 372.4 390.1 409.5 427.2 431.2 452.2 444.2 441.6 453.6 463.3 468.1 467.1 449.4 447.8 431.5 424.7 427.9 446.4 455.3 464.2 481.4 493.8 506.7 515.2 521.9 529.6 542.5 547.8 554.9 565.4 572.8 584 591.8 597.1 595.4 583.1 571 546.4 538.2 531.4 518.4 494.1 480.4 470.4 466.2 460.1 461.8 446 448.3 439 432.3 424.3 418.3 406.3 394.7 383.2 365.2 350.4 337.4 328 321.1 316.5 312.5 300.9 289.4 278 270.5 263.4 259.7 249.1 248.2 244.5 240.2 237.3 231.9 226.2 222.8 220.5 218.9 216.2 212.5 207.8 199.4 193.8 188.3 184.7 177.9 171.6 167.2 172.1 170.8 181.7 183.4 181.3 177.2 176.7 173.3 168.1 163.5 164.5 158.3 151 146.4 143.8 140.1 139.8 135.1 131 128.7 128.9 126.6 123.4 122.1 118.3 122.4 124.7 128.6 130.6 121.9 120.7 119.5 115.4 119.3 122.3 124.4 127 129.9 133.5 136.9 139.8 146.1 149.6 156.8 163.6 168.1 170.1 173.9 174.9 178 182.1 184.1 184.2 187 187 189.4 194.3 196.3 197.3 199 199.7 200.7 200.8 196.6 201.7 220.6 230.5 240.1 252 266.6 291.5 314.4 335.1 354.4 379.7 409.3 437.9 469.9 508.7 538.2 563.1 591.4 610.1 623.5 637.8 647.3 664.5 670 671.8 671.7 664.3 660.3 652.4 643.3 633.1 616.5
174.7 188.2 201.8 224.2 251.2 268.9 282.1 295.6 312.7 321.7 340.7 356.1 372.1 383.6 397 404.6 420.7 444.3 460.9 471.5 482.4 481 482.9 490 498.5 506.5 489.7 471.6 467.6 458.4 442.3 438.5 451.5 471.3 481.7 495.8 510.6 522.8 533.6 539.1 544.4 555.7 563.8 572.5 584 594.2 596.2 602.3 608.8 601 588.2 568.9 560 550.6 538.9 526.7 505.5 487.9 480.9 474.6 476.7 461.8 452.2 456.6 454 440.6 430.6 427.9 416.2 401.4 384.9 373.9 357.7 347.9 339 336.8 334.4 321.2 306.5 294 284.3 276.7 270.1 262.8 260.2 255.7 251.3 243.7 240.8 238.3 228.6 229.2 226.1 224.8 224.2 226.5 213.2 206.5 199.3 195.3 192 183.2 172.9 169.9 164.1 163.8 168.8 173 174.5 171.5 167.7 160.4 160.1 155.8 152.5 150.3 144.4 138.7 137.1 133.2 132.2 127.9 128.5 124.8 123.6 125 121.6 118.8 118 120.6 125 135.4 127.2 121.7 119.3 117.2 117.9 121.3 128.3 135.3 136.3 138.6 140.6 143.2 147.3 153.8 159.2 167.1 171.6 174.9 180.2 180.7 183.2 186.8 190.9 192.7 191 194.3 197.1 198.6 203 205.2 206.6 208.4 208.1 208 207 204.7 200.6 210.2 230.5 242.4 256.9 273.1 289.7 308.4 328.4 350.7 378.2 405.9 430.9 462.8 496.8 533.1 561.4 593.6 616 628.6 643.6 659.6 673.8 678.6 683.1 682.4 677.4 671.1 666.9 660.1 641.2 621.3
186.1 199 222.2 229.7 255.8 278.9 298.3 325.9 341.1 348.3 368.3 387 408.5 424.4 428.1 439 464.9 482.6 499.8 508.2 511.4 507.2 524 527.8 528.7 531.8 504.3 489.1 484.4 474.3 451.4 445.5 463.5 477.2 490 509.1 526 542.6 552.9 558.2 563.4 570.9 584 594.1 603.1 607.8 612.8 622.6 618.6 600.4 588.9 575.3 572.8 561.2 550.2 533.6 515.2 497.7 488.5 480.8 487.8 467.8 462.3 464.4 460.8 449.4 439 432.1 419.1 400.6 384.4 376.8 369.1 355.9 347.5 346.5 342.9 330.1 314.2 297.6 289.3 281.4 268.9 267.1 265.4 260.6 254.3 251 247.2 239.6 238.1 234.8 232 232.3 236.7 232.1 222.2 213.9 203.1 200.7 194.7 187 179.3 172.5 167.9 165.2 158.9 165.7 170.7 167 157.7 154.5 152.9 148.7 143.9 143.7 143.2 136.8 130.6 127.9 124.5 123.9 126.5 122.4 121.8 124.5 120.3 118.3 116.8 117.4 122.1 133.5 123.8 119.7 119.1 115.1 122.5 125.4 135.5 140.5 148.5 148.3 146.3 149.8 155.3 161.4 170.5 175 174.6 178.4 183.1 186.9 191.5 198.3 202.8 200.1 201.9 201.3 212.3 215.9 216.8 217.9 216.9 218.2 219.4 216.7 215 212.6 210.2 206.7 221.2 240 256.1 270.2 291.3 310.8 335.6 352.4 372.6 399.7 427.4 457.7 490.3 529.3 560.3 590.2 620 637.4 652.8 668.3 683.1 690.1 693.9 693.4 687.8 683.1 677 663.1 646.8 633
196.4 209.8 232.5 248.8 267.3 290.4 316 342.3 367.5 382.1 396.5 422.3 441.1 450.3 464.9 488.2 508.3 526.6 537.6 546.1 545.3 539.6 557.5 570.4 573.3 563.6 530.3 513.8 500.5 486 467 462.2 470.2 486.6 505.1 518.4 535.8 557.3 569.4 577.5 588.4 597.8 607.2 614.5 618.1 622.7 632 633 618.8 602.6 589.8 586.7 576.8 568.5 556 541.6 525.6 509.8 499 493.8 493.9 477.9 470.4 469.6 467.1 457.9 447.1 441.5 421.4 401.2 390 380.6 372.7 363.6 356.1 359.5 354.6 346.6 318.6 302.1 294.3 284 280 276.8 271.7 265.7 261.3 257.7 251.9 247.2 245.1 240.8 238.9 237.5 238 232.8 224.9 217.3 209.7 204.5 197.4 190.3 185.8 179.3 171.7 167.3 163.3 154.8 165.1 159.1 153.4 151.3 149 145.3 141.7 139.9 139.3 134.9 127.7 124.1 121.7 120.6 120.1 119.8 122.3 121.1 119.2 117 116.2 115.9 116.9 119.5 119.1 116.8 114.8 122 129.2 134.6 135.2 138.9 153.9 164 160.4 159.7 166.9 171.1 179.4 184.8 185 189 194.1 200.4 207.8 214.7 212.6 209.8 212.6 215.5 217.1 228.4 230.4 230.5 229.9 230.4 226 225.9 225.6 222.9 222.5 217.2 212.2 214.1 240.6 268 289.9 310.5 331.2 348.3 364.8 388.5 420.2 447.8 481.5 524.8 558.4 584.8 614.6 636.3 653.8 678.1 692.1 701.4 706.5 707.1 703.9 696.8 683.8 670.3 656.4 642.1
207.2 221 243 264.8 284.5 291.3 329.4 354.8 382.9 410.5 428.2 441.4 464.4 483.5 506.3 522.9 542.8 556.9 574.9 579 578.8 584.5 588.6 605.1 615 606.9 576.9 541.9 526.1 507.9 498.1 486.2 483.6 493.8 513.2 530.5 544.4 564.8 583.4 597.2 609.9 623.7 629 635.8 640.3 641.8 640.9 633.6 621.9 610.6 595.1 593.3 579.1 576.4 563.8 553.3 531.4 518.8 508.9 512.1 510.4 490.5 481.6 482.8 472.3 461.3 454.1 443.5 420.9 406.9 399.9 390.4 379.6 373.8 366.4 374.5 367.7 343 325.4 309.1 294.4 296.1 290.4 286.5 280.9 275.9 270.2 264 258.2 253.2 252.7 249.7 245.9 243.7 240.1 233.2 226.7 223.1 215.3 207.7 200.6 200.3 192.1 187.9 178.5 169.7 166.2 156.7 155.2 155.7 153.3 151.6 145.6 141.9 140.2 137.1 135.6 130.4 124.3 121.3 118.1 117.8 119.1 118.3 119 117.5 116.5 116.3 114.7 115.1 112.9 111.7 116.4 114.8 123.8 133.2 138.9 141.6 141.7 144.9 148.2 156.8 163.8 170.7 178.1 183 190.6 189.7 194 196.8 201.3 208.7 223.7 225.4 221.9 220.3 225.9 235.3 231.9 239.3 244.9 242.1 240.5 239.6 237.7 239.2 237.5 237.7 238 229.8 219.5 216.6 234.3 264.4 285.1 304.6 325.2 345.3 361.1 379.9 410.1 439.9 470.6 505.8 543.8 575.5 605.3 630.5 657.9 679.6 698.3 710.9 715.5 717.1 717.4 706.3 692.1 681 668.4 652.7
219.7 238.7 258.8 276.8 300.9 333.1 343.9 370.7 402.3 428.9 455.2 468 491.2 517.5 540.7 556.1 570.7 588.5 601.3 609.2 613.9 620 625.1 638.6 649.1 636.9 606.4 569.6 553.7 538.1 526.9 518 504.4 501.7 514.7 535.6 554.3 569.2 588.1 610.6 625.5 636.4 652.3 657 663.6 661.6 652.9 634 618.9 609.9 603.3 593.9 587.2 577 568.2 551.1 541.2 526.7 518.6 519.8 517.4 504.9 497 495.2 478.6 465.2 460.5 437.3 420.5 413.1 409.1 400.3 387.8 380.5 376.4 388.1 368.6 344.2 331.8 318.3 307 304.4 301.8 297.6 289.7 283.9 278.8 272.2 264.8 265.1 262.6 259.3 256.5 250.4 241.3 237.3 233.4 225.1 216.2 207.3 203 200.7 196.7 189.6 187.6 174 165.3 156.6 151.2 148.6 151.3 152 146.6 138.4 136.2 133.3 128.7 126.2 121.2 119.6 116.7 117.5 118.6 118.2 117.3 114.7 114.3 113.8 116.6 107.9 110.1 113 118 123.1 138.1 146.9 149.9 153.9 151.3 151.9 156.3 160.2 167 174.9 187.2 197.6 197.7 198.6 202.8 210.4 214.7 216.9 232.5 238.1 236.9 232.2 234.4 245.9 250.6 244.5 253.3 254.8 255.5 257.4 256.2 256.5 254 251.7 247.9 242.2 231.8 222.3 233.9 250.3 276.6 295.9 314.4 327.9 349.1 374.4 401.8 432.7 459.3 492.6 529 563.3 597.8 627.4 654.9 677.7 699.6 717.4 726.6 734.3 730.1 715.7 703.4 692.4 680.3 665
237.6 255.1 275.5 299.3 320.6 346.5 368.9 384.3 419 451.3 473.6 499.5 527.1 546.9 569.4 584.4 598.7 614.6 625.6 636.7 645 650 658 671.6 679.5 675.4 645.1 601 586 576.5 557.7 539.3 526.7 518.8 523.6 537.5 561.6 577.2 591.3 616 637 648.4 665.1 671.6 675.4 667.5 653 639.2 628.9 612.8 605.8 598.3 591.8 582.1 567.4 553.7 542.4 533.7 527.8 532.3 523.5 522 520.7 496 480 472.1 464.7 442 428.4 421.2 412.1 406.1 399.9 387.4 387.4 401.4 366.8 351.2 335.9 324 318.3 311.1 309.9 307.8 301 294.6 287.7 281.1 273.9 274.2 271.5 265.8 257.6 250.8 250.3 245.5 236.2 225.5 219 212.3 206.5 205.5 200.9 197.2 181.5 171.1 162.9 154.7 150 142.9 143.5 144.5 142.4 138 131.9 130.5 124.8 122.5 118.8 116.4 114.9 112.9 115.1 117.3 117 113.7 114.5 113.6 106.5 111.9 113.9 116.6 123.1 139.4 141.5 142.2 149.5 155 153.3 156.8 162.7 167.1 174.7 183.7 189.5 199.8 205.7 207.3 211.4 229 229.4 228.6 231.9 242.1 246.9 248.8 250.6 255.3 261.5 258.2 265 268.3 269.1 270.4 271.8 269.8 266.7 263.2 257.2 252.6 241.5 229.1 226.1 245.1 260.3 277.6 304.6 328.4 348.8 371 392.9 417.5 450.2 480.4 513.2 553.2 585.3 618 648.4 676.2 698.6 716.7 735.5 744.4 739.5 727.6 716.5 706.6 693.5 677.3
261.6 278.2 297.5 316.9 337.7 368.7 404 429.9 453.1 465.5 489.9 523 550.9 569.6 589.3 602.5 625.3 643.5 652.3 663.5 672.6 678.9 693.1 714.4 716.7 704.3 662.4 624.2 607.3 597.1 578.2 555.2 558.8 549.7 546.9 554.7 565.7 588.6 597.9 620.1 646.6 659.7 671.5 675.5 676.7 662.7 645.9 642.3 627.6 617.7 609 600.6 590.4 578.3 564.7 557.3 542.6 537.7 541.7 535 537.5 522.1 511.3 495.5 481.4 473.3 462 442.5 434.1 426.8 423.1 413.3 399.8 394.7 397.4 385.5 367.7 356.1 343.4 338 326.9 323.2 323.5 319.4 310.3 302.8 295.9 285.4 284.5 283.8 282.3 273.2 262.8 256.8 254 248.3 237.3 226.7 224 221.2 217.3 215.9 204 188.1 176.8 165.8 158.1 153.1 147.9 144.7 141.4 137.5 135.7 132.5 127.1 124.8 122.6 120.4 118.5 116.3 114.2 113.1 112.9 116.3 115.9 113.5 111.2 109.7 109.9 112.2 115.4 118.4 121.6 125.5 131.3 141.7 149.8 154.3 165.8 167.5 170 174.6 182.7 194.8 200.2 203.6 212.1 217.2 234.7 237.6 244.4 245.6 244 245.9 251.3 262.3 266.4 265.8 271.3 271.5 273.6 278.6 282.2 292.4 291.2 283.2 277.7 274.1 269.8 260.8 252.4 237.7 227.9 245.3 265.1 287.7 307.9 325.7 344.2 363.7 388.1 410.2 439.2 469.4 499.1 536.1 574.1 608.6 642.1 671.4 693.3 714.8 738.6 751.3 749.1 739.5 729.9 718.4 706.6 688.4
282.8 301.9 322.7 338 364.6 385.4 416.8 457 487.9 505.6 520.3 542.3 566.3 584.1 597.7 614.5 637.7 656.6 678.5 691.6 706.3 712.9 721.2 729.8 736.6 723.4 684.3 649.7 630.7 612 604.7 589.8 583 592.9 576.4 580.5 578 596.8 608.1 624.4 652.5 669.6 673.8 669.8 667.9 648.2 650.7 639.9 623 617.4 613.1 604.5 585.8 574.3 565.5 556.5 549.3 544.1 543.5 546.9 538.3 524.3 509.2 492.7 484.8 478.3 459.3 449.5 440.3 428.9 425.8 416 403.4 405.6 406 386.6 374 364.9 353.9 344.9 338.2 334.6 332.8 327.2 323.5 312.2 299 295.3 292.6 292.2 289.3 280.9 269.6 262.8 263.9 250.8 241.5 233.8 233.1 234.1 231.5 219.2 196.9 181.6 172.5 161.5 154.8 150.6 144.5 142.3 135.6 133.7 128.7 126.7 125.7 124.3 121.7 119.4 116.4 114.7 113.7 112.4 113.4 112.7 113.2 113.3 108.5 106.5 110.8 111.5 115.7 120.4 124 132.1 139.6 139.6 149.8 151 157.8 164.6 174.3 183.5 196 208.1 218.1 215.7 220.3 230.9 249.1 248 259 260.1 259.3 265.3 267.4 273.9 280.3 279.6 279.9 284.3 285.2 288.2 291.7 302.7 304.7 296.5 290.3 285.5 280 273.3 262.4 245.3 233.7 240.7 260.6 283.2 304.6 321.6 339.9 357.3 375.3 400 426.9 457.7 486.9 521.4 561.1 598.1 632.1 661.7 689 712.6 738.6 755.3 757 752.8 742.1 728.8 716.5 702.4
301.5 324.9 346.1 359.4 381.2 409.9 442.1 476.4 501.1 528.2 550.5 572.1 591.6 610.8 620.4 637.1 653.1 666.7 686.1 707.4 736.7 737.2 740.7 749.3 744.1 739.4 700.7 674.3 656.7 645.9 640.4 626.7 619.1 614.6 612.4 613.1 604.5 608.3 619.3 637 662 663.8 664.2 661 654.6 654.1 647.1 632.2 620.8 617.6 614.8 605.9 587.9 577.3 567.7 562.2 554.3 556.4 545.5 545.2 525.8 516.4 505.5 492.4 487 483.7 463.9 451.5 439.5 434.2 426 418.5 415.8 413.6 403 393.8 378.9 372.7 365.1 356.9 351.2 345.6 340.9 337 333.3 318.2 305.3 307.6 299.9 300.3 295.5 285.8 276.8 270.5 265.8 254.4 248.9 243.2 244.7 247 226.2 206.7 187.5 173.7 166.6 159.2 156 152.9 139 139.4 135.9 129.7 123.8 123.3 124.1 121.7 119.6 119 116.2 115.1 114.5 112.8 110.2 113.6 118.6 117.2 109.8 106.3 109.9 113.4 117 121.1 126.3 129.6 139.8 142.5 150.2 159.3 167.3 168.8 182.1 197.7 206.8 214.4 222.9 226.1 232.2 239 259.7 264.7 268.4 271.5 274.9 281.8 282.9 288.4 293.3 294.8 294.5 295.6 301.3 301.1 306.1 313.3 313.2 310.2 307.5 295.7 291.1 282.3 271.3 256.8 238.3 239.3 259.3 273 296.7 314.7 334.9 352.8 371.9 393.9 420.3 446.5 481 510 547.9 590.7 622.9 652.7 680.8 708.1 734.9 756.6 766.6 762.4 752.2 741.8 727.9 710.9
321.8 345.1 362.9 381.3 411.3 436 466.2 493.3 520.8 547.7 575.9 590.4 612.2 630.7 647.1 662.9 672.6 685.1 699.1 720 734.6 753.6 754.2 754.7 756.9 752 732.7 708.9 693.8 694.7 691.1 675.7 657.9 643.5 642.2 641.5 646.2 635 642.1 654.5 656.3 656.9 657.5 657.5 651.2 649.8 638.1 624.6 621.3 618.4 615.7 603.9 587.4 586 575.2 567.9 565.5 561.1 552.5 551.7 523.3 511.7 499 493.7 495.8 481.1 469.7 451.9 445.6 436.1 427.7 422.5 423.1 419.5 409.5 400.2 386.7 378.8 375.9 364.4 365.5 354.3 349 342.6 332.1 317.8 317.4 314.9 310.8 308 300.3 290.3 283 276.1 267.5 261.2 256.4 256 243 228.7 214.1 196.5 179.2 168.5 162.7 159.2 155.5 152.4 135.7 133.8 132.3 128.3 125.2 118.6 121.2 117 115.3 114.1 115.3 114.9 112.7 114.6 111.6 113.7 114.1 113.3 109.1 105.9 110.1 113.2 117.1 121.7 128.4 135.9 142.3 146.2 154.6 162.1 171.4 178.1 190.5 202.3 211.8 220 226.5 237.2 244.3 258.6 271.6 273.6 276 284.2 289.2 297.4 300.2 302.7 304.6 307.1 308.7 313.2 317.9 320.8 324.4 327.7 323 320 317.3 311.4 300.9 290.6 278.9 269.1 242.7 237.2 252.4 277.9 296.1 311.8 330.6 349.1 365.8 385.4 410.6 437.7 467.1 498.8 530.7 572.8 606.8 637.2 669 700.1 728.4 750.9 765.9 769.7 764 751.5 737.9 721.2
346.3 361.1 388.1 411.5 437.9 463.2 487 517.3 540.7 567.5 594.4 610 626.8 639.6 654.4 681 687.3 693.6 708.8 731.4 744.5 759.2 762.9 762 763.5 758.2 748.9 740.5 734.2 721.6 708.7 701.8 695.2 679.8 683.2 668.4 653.4 647.5 647.7 655.8 652.2 659 652.8 652 646.9 639.4 623.9 621.1 621.3 620.4 613.7 600.7 593.1 591.1 577.2 577.2 577.9 566.9 555.2 551.6 525.1 510.6 505.3 501.3 494.9 478.3 466.5 458.9 447.6 439.6 431.4 429 428.1 415.4 415 401.9 392.3 388.2 380 377.1 374.1 363.7 356.1 346.3 337.8 328.2 328.1 323.2 320.4 313.3 304 294.5 289.2 279.2 271.6 268 262.2 244.3 230.5 213.9 196.6 179.2 168.6 162.7 157.5 156.6 153.8 147.2 136.6 129.9 127.3 126.8 123.4 120 116.5 118.6 118 114.9 115.4 114.9 113.4 110.1 107.2 108.2 108.4 107 105.6 108.9 112.6 116.2 118.6 123.3 128.9 137.7 146.4 158.4 160.4 171.6 179.5 191.6 202.8 208.5 225.5 230.5 240.4 247.1 261.1 275.7 282.5 285.7 290.5 300.2 305.8 311.7 317.1 319.1 320.3 321.8 325.8 331.6 336.1 335.4 343.2 341.8 334.4 327 331.5 324.7 313.6 300.9 292.4 276.8 251.9 240.2 248.3 271.1 288.5 301.8 325 344.5 360.7 381.8 402.2 427.5 455.7 485.3 520.1 556.6 595.6 626.7 660.5 690.2 720.7 741.6 765.2 772.1 772.5 761.3 747.4 728.9
366.5 386.2 410.1 438.4 462.3 486.3 510.7 535.1 563.4 591 616 634.8 643.1 651.8 671.8 693.3 706.1 713.7 726.2 744.2 755.6 767.8 768.2 770 763.3 763.5 761.1 750.4 736.5 717.6 715 710.2 711.8 706.9 689.7 660.9 647.3 645.8 650 645.7 655.1 651.7 650.5 646.5 636.3 621.5 621 625.1 623.7 619.6 612.2 599.6 598.9 592.2 587.1 584.8 576.9 566.1 550.7 544.1 524.6 512.5 509.5 507.3 487.8 474.3 465.8 459.1 455.2 444.3 437.2 438.2 428.8 423.8 416.2 408.4 396.1 395 380.6 386.8 381.8 372 356.6 348.4 342.3 339.3 336.4 336.1 326 316.9 306.4 297.5 289.3 280.7 275.7 270.3 254 227.3 213.7 199.7 186.2 173.9 165.8 160.5 155.9 151.9 149.8 146.4 135.2 129.4 129.3 123.3 123.2 122.5 120.4 123.3 120.4 117 112.4 114 111.7 108.3 106.4 105 102.8 106.3 107.2 110.6 114.2 118.5 121.3 127.2 134.1 141.9 146.6 159.8 166.9 175.8 188.3 199.3 211.8 219.7 229.8 240.3 250.7 259.1 277.1 289.8 294.7 298.6 305.2 311.5 318.8 323.4 329.3 331.2 333.2 334.2 340.5 344 348.9 350.6 356.6 355.3 344.8 349.9 344.8 335.1 329.3 314 305.9 285.3 261.4 247.6 248.9 269.8 283.8 304.6 322.1 340.5 358.2 376.3 393.7 421.5 447 479.3 507.6 541.1 577.8 615 647.2 678.9 711.9 735.3 757.2 770.1 774.3 766.5 753.5 734.4
388.3 411.4 437.4 459.4 479.3 509.3 529.9 555 583.2 614.9 639.1 653.4 661 673 697.1 717.1 732.4 740.1 745.5 757.7 766.6 769.9 770.9 772.3 771.7 768.4 758 747.1 726.8 717.8 718.4 713.6 717 697.5 672.9 651.4 648.5 643.6 646.3 640.3 646.7 647.5 642.4 639 622.5 617.6 623.3 627.3 625.8 619.1 609 601.9 601.9 591.5 585.8 579.4 568.8 555.7 553.8 534.5 522.5 516.4 511.4 507 487.9 470.5 463.2 460.5 451.9 450 443.3 438.1 426.1 430.7 426.4 412.5 401.8 398.4 395.2 398 389.2 377.9 362.4 355.6 348.1 343.9 343.2 344.8 329.7 318.3 309.6 298.1 289.5 283.4 277.5 261.4 234.4 215.1 199.1 187.3 179 170 161.1 157 152.9 148.2 145.5 140.8 138 128 124.4 121.4 121.1 122.4 121.5 119.2 118.2 116.2 111.9 105.3 110.2 108 102.7 102.7 106.2 107.3 109.8 111.2 115.5 118.9 124.5 132.6 139.5 145.3 159.2 161.6 170.5 180.3 193.9 203.1 210.3 225.6 239.3 247.3 257.9 266.2 283.8 297.3 308.8 313.8 323 323.7 332.8 338.3 341 343.1 347.2 349.8 353.1 357.1 357.9 363.7 369.7 369.2 364.2 363.3 357.1 349.2 337.8 330.6 315.1 292.7 270.7 253.1 245.9 265 280.7 296.5 314.5 333.9 348.9 369.9 389.9 411.4 434.8 468.1 500.2 529.9 562.9 601.6 635.6 669 700.4 728.9 751.3 766.3 772.9 772.1 757.8 740
409 430.5 462.7 483.4 509.2 528.5 553.8 576 611.6 642.5 662.5 676.1 685.6 704.6 729.2 746 755.7 765.9 762.9 766.5 769.9 770.7 775.1 778.5 776.1 761.5 749.2 736.7 721.5 721.9 711.6 717.9 705 683.2 649.6 650.8 644.7 641.4 636.7 636.7 640.4 637.5 631.2 623.1 615.9 618.7 626.1 630.4 619.8 613.5 606.3 603.6 578.9 580.3 577.1 566.9 554.4 545.1 555.3 531 520.5 515.7 504 495.8 476.1 466 459.7 458.6 454.5 450.9 447.3 434.2 436.7 433.4 430.1 415.3 411 403.2 408 411 402.1 382.9 368.3 364.4 357.6 350 354.5 343.9 330.2 320.5 311.8 305.7 297.9 285.9 262.3 238.2 218.4 206.3 195.3 184.1 173.2 167.9 159.4 157 151.6 144.7 140.6 135.7 138.6 124.5 121.5 119.2 120.5 122.2 122.1 118.9 113.1 110.6 110.7 107.9 105.3 102.7 103.6 105.8 107.2 108.3 111 112.8 116 122.4 130.3 135.9 144.1 148.3 165.5 170.2 181.4 187.8 197.6 209 220.3 229.6 244 255 269.4 282.4 297.1 311.8 323.2 327.2 336 339.8 342.6 350.7 352.2 355.9 361.8 366.5 368.4 372.2 374.8 377.6 381.5 386.4 384.6 376.2 368.8 362.5 351.5 343.3 324.1 301.9 283.2 263.6 249.4 263.2 276.5 294 311.6 328.6 345.8 364.4 384.4 402.9 432.3 465.3 497.4 524.4 554.8 589.9 627.4 657.7 687.7 717.9 742.3 760.9 769.8 771 761.2 747.5
425.9 451.9 478 508.9 532.2 558.3 576.4 603.2 631.3 662.9 680.6 701.4 714.2 731.9 753.5 765.6 773.9 780.1 774.9 771.3 776.6 773.9 776.4 774.9 769.6 752.5 738.7 724.2 723.3 710.3 706.1 703.7 683.9 659.4 639.5 639.9 637.1 635.3 627.6 633 630.2 626.3 620.9 614.3 614.2 616.4 623 615.4 611.7 607.9 601.2 572.4 560.5 564 562.2 549.7 540.6 547.6 537.7 522.1 517 513.7 499.5 488.7 474.2 462.5 458.4 453.6 453.6 448 441.4 435.8 437.1 436.2 433 420.6 420.7 413 421.4 420.2 408.3 387.8 376 374.5 366.8 363.3 362.8 351.3 334.6 328.8 320.3 311.1 288.1 264 243.8 223.4 211.6 203.1 191.8 181.4 171.8 165.8 159.8 156.3 152.9 147.1 139.5 131.2 130.1 122.5 120 118.9 119.3 122 119.3 112.5 110.5 107.2 106.3 106.5 102.7 103.4 105.9 106.4 107.7 108.8 112.7 116 118.3 127.1 135.3 141.1 145.4 155.6 169.8 182.6 187.1 195 204.5 215.1 225.5 243.6 251.5 267.2 280.2 297.9 309.6 326.9 339.6 341.7 346.3 351.4 358.2 365.3 373.8 374.9 376.5 383.1 386.3 388 390.6 394.9 392.6 403.9 397.3 390.3 381.9 375.2 370 354.4 334.1 312.1 288.8 273.4 257.7 256.9 279.3 293.6 307.1 324.1 343.7 356.8 378.1 400.7 428.2 458.8 490.9 520.7 548.6 579.5 612.3 645 674.9 709.2 738.5 757 769 772.1 767 754.3
446.8 473.5 501 528.1 556.1 586.1 612.8 630.4 665.3 686.5 711.2 728 739 753 766.8 776.5 784.5 791.7 782.5 775.6 772 771.4 770.7 764.3 762.6 736.3 722.9 722.8 706.5 695.3 690.8 677.7 656 637.9 632.5 630.1 632.8 620.5 620.6 624.1 625.3 612.1 611.8 613.4 616.1 615.6 607.8 607.5 603.3 595.4 566.6 561.3 557.3 550.2 538.2 528.7 530 540.8 527.4 517.6 514.1 503.6 490 478.6 467.5 458.3 455.7 455.2 451 445.6 442.8 442.6 442.9 442.8 438 427.5 422.2 423.7 429.8 416.8 412.3 389.3 385.9 384.4 377.5 377.9 370.5 355.1 343.3 337.1 320.4 299.9 273.4 251.5 233.1 218.9 209.8 200.6 190.4 179.6 168.4 163.8 157.5 153.7 147.6 142.1 135.2 128.8 130 120.3 119.4 118.3 119.4 117.1 113.2 109.4 107.8 106.8 104.8 102.7 102.2 105.6 106.1 107.4 109.1 112.1 112.8 116.7 122.3 128.4 138.1 144.2 151.5 163.8 172.5 183.3 189.2 198.5 213.1 224.3 240.1 252.2 260.5 272.9 285.3 303.6 321.8 339.9 351.3 357.3 359 362.6 371 379.4 396.3 396.4 396.6 399.3 406.5 405.4 404.5 407.4 411.5 413.9 408.3 407.5 396.8 387 379.3 362.2 342.8 321.7 302 281.2 269.9 256.2 268.4 291.5 308.4 323.7 341.9 360.6 380.9 399.4 425.9 452.4 481.5 508 533.9 567.9 598.6 633.1 663.8 700.5 731.1 752.2 769.3 774.9 773.5 760.6
464 489.8 524 555.1 581.8 611 643.7 670.6 693.1 712.8 730.1 743.6 754.6 766.8 777.3 788.1 794 793.8 778.5 767.5 766.4 763.5 761.8 751.9 742 725.3 717.7 702 683.2 674.2 665.8 652.5 633.4 621.8 622 625.6 616.9 612.7 611.9 612 609.7 608.7 609.7 613.6 615 606.4 603.2 599.2 593.4 565.2 555.9 547.3 537.9 532.1 522.3 520.8 522.5 532 514.2 506.5 507.5 496.9 478.2 469.1 458.9 455.5 453.3 452.5 452.8 444.7 441 445.5 446 445.6 435.8 435.5 423.8 432.3 431.3 421.2 414 397.1 393.9 392.3 386.6 392.1 378.4 362.8 348.6 334 312.8 284 262.3 241.7 226.6 215.8 207.3 197.8 188 177 167.1 162.4 158.1 151.5 141.8 137.3 130.7 123.1 126.5 119.8 119.3 118.8 116.6 113.4 107 106.9 107.6 106.4 105.3 102.3 104.8 106.4 108.2 108.8 112.8 114.8 115.7 120.2 126.6 131.8 142.2 149.1 158.2 165.5 178.1 186.5 194.7 207.2 218 230.3 245.7 257 268.3 283.8 298.7 315.2 324.6 343.9 362 366.9 374 380.7 387.8 393.6 404.6 417.1 416.5 417.9 421.1 421.9 424.1 418.3 419 425.8 423.4 417.8 411.3 407.7 391.8 372.6 352.9 332.1 312.7 291.8 277.2 264 269.1 287.4 306 320.8 339.2 357.2 373.9 390.9 418.8 443.4 472.6 499.5 531.8 559.2 590.3 622.5 655.9 691.1 720.8 745 765.4 778.7 776.7 765.2
478.5 508.9 541.8 574.6 605.4 637.7 672.7 706.9 717.9 731.4 746.2 756.8 766.7 779.2 788 787.2 790.7 786 766.8 757.9 757.9 756.1 742.4 731.3 724.2 713.3 700.2 682.5 666.5 648.4 636.4 623.6 617.9 610 614.3 612.9 610.2 601.3 597.8 603.7 602.8 609.4 609.7 612.4 607.5 609.7 601.5 588.7 567.9 558.5 546.4 523.8 515.6 512.7 509.9 507.5 508.1 508 500.1 502.7 496 482.5 471.9 460.9 455.2 453 451.8 453.6 448.6 441.7 449.6 448.2 447.5 450.6 440.2 436.7 436.1 438.7 433.3 422.6 416.8 404.6 408.9 399.6 400.4 400.6 386 371.4 337.2 325.2 299.4 273 250.2 237.7 221.1 213.8 205 195.2 185.3 175.4 166.4 161.1 156.2 149.6 141.5 131.5 130.1 121.1 119.5 119.3 118.9 118 114.9 109.2 106.1 106.8 107.1 106.1 104.7 101.8 104.5 106.9 109 110.6 114.6 117.9 119 122.3 130 136.3 142.2 151.5 159 169.2 182.3 194.5 203.6 215.5 228.7 244.9 257.6 271 282.5 294.7 308.4 325.3 339.5 357.6 368.8 375.6 384.9 399.4 406.3 409.5 417.2 435 433.6 435.5 437.8 437.9 438.6 432.3 435.3 441.6 441.4 430.9 427.7 421 403.8 384.2 362.8 343 321.9 301.7 285.7 270.2 264 282.9 299.5 315.3 334.1 352 371.6 391.1 413.5 438.3 467.7 494.5 525.6 553.6 583.2 612.6 645.6 678.1 709.4 735.5 760.7 776 781.8 768
496.7 527.6 562.3 593.4 624.9 661.6 699.7 723.2 733.4 746.5 760 766.4 776.9 786.9 783.9 782.5 780.3 766.7 752.4 747.2 745.6 739.2 724.1 712.1 712.6 694.9 684.2 660.2 640.7 615.3 607.7 610.3 601.3 597.9 607.2 602.7 606.1 591.9 593.9 596 602.9 604.1 604.7 602.9 607.3 599.5 589.8 571.5 562.4 550.8 535.5 515.7 504.4 501.5 499 492.7 495 495.6 489.7 486.9 483 477 466.6 458.8 454.4 452.4 452.1 449.1 447.2 446.8 452.7 450.5 451.4 446.1 445.8 441.1 443.8 439.3 433.1 426.8 419.6 413.7 408.5 408.2 417.8 401.6 377.5 347.3 332.4 310 283.9 262.2 244.2 230.1 217 208.7 200.5 192.1 183 173.3 165 156.6 146.9 140.5 138.2 128.9 125.3 120.6 116.9 116 117.2 119.4 111.6 105.2 105.8 106.4 106.6 105.3 104.2 102.2 104.7 108.4 111.6 113 115 120.2 122.9 125 131 143.4 146.3 159 169.9 180.6 192.1 201.5 210.4 226 236.3 254.5 268.1 283.9 300 307.6 316.5 338.3 361.3 375.3 384 387.5 391.6 404.3 415.7 422.6 433.1 450 447.9 451.7 451.9 450 449.9 448.1 446.2 454 451.9 441.8 444 434.1 413.8 395.7 373.4 352.7 335.2 313.9 294.8 280.4 270.7 281.1 296.5 313 334.8 351.1 368.9 386.5 409.9 432.9 460.5 486.1 517 545.8 573.7 605 633.8 665.6 696.9 725.9 754 774.7 781.4 774.5
512.2 545.3 586 621.5 652.9 695.7 718.1 735.4 748.4 759.3 764.5 773.8 783 783.1 777.3 773 762 750.1 738.2 735.7 730.7 715.8 706.7 702.2 696.6 683.5 666.9 641.5 617.1 594.9 593.4 591.6 588.5 595.4 594.8 596.7 591.6 588.1 586.3 595.7 597.5 598.6 597.4 595.9 591.3 587.6 571.3 564.4 553.6 542.7 526.3 509.2 496.4 485.3 483.6 483.6 487.2 485.1 481.9 483.6 476.9 463.1 458.8 454.6 452.3 452.7 452.6 449.1 448.2 452.3 455.1 451.7 451 449.7 450.3 450.2 452.8 445.9 440 434.1 421.9 416.8 414 419.7 411.1 383.4 360.5 344 321.1 294.9 275.6 252.5 235.9 223.3 213.8 204.4 195.7 187.4 178.6 172.6 161.8 149.9 147.1 141.1 132 130.6 120.8 115.5 116.1 114.9 117.1 115.9 110.6 105.8 105.6 105.6 105.1 104.5 104.4 102.1 104.5 110.2 112.9 115.2 117.3 118.8 126.5 127.7 136.3 143.8 154.3 165.1 179.3 190.7 200.8 219.4 216.7 232.1 247.2 258.5 274.9 291.6 305.8 313.4 325.7 348 374.2 390.9 396 401.4 402.6 410.9 432.7 444.8 451.4 464.7 465.8 469 466.3 462.7 462.5 468.1 465 465.3 461.6 462 458.4 440.7 424 405.3 386.5 362.9 342.7 326.6 305.8 289.2 276.7 278.3 305.7 317.7 334.5 350.4 367.6 385.6 404.7 424.7 452.6 482.7 510.2 537.2 567.5 596.6 625.7 653.2 687.4 721 746.9 772.6 783.1 783.4
538.4 577 609.3 641.5 681.4 707.8 725.6 744.2 756.2 761.3 763.9 775.3 778.1 771.6 764.6 755.8 746.2 734.2 718.9 719.5 707.3 698 687.8 689.9 679.4 669.1 638.9 619.7 599.4 580.7 579.3 582.5 579.2 586.2 582.1 580.1 585.2 584.3 579.2 586.2 586.2 583.8 585.7 581.7 577.4 565.2 563.2 558.8 547.9 537.2 518.5 498.9 489.7 481.9 473.1 470.2 471.4 473.1 470.8 470.6 461.8 460.6 456.9 451.8 452.1 452.6 453.8 451.9 453.8 455.5 459.6 454.3 452 455.4 453.7 459.1 457.2 450.7 443 436.1 431 423.8 425.5 414.6 390.6 372.4 354.8 331.9 315 288.1 263.9 244.6 230.6 219.2 210 200.9 191.6 182.7 174.7 167 154.9 144.7 141.7 134.3 128.3 130.9 117.3 115.8 114.2 113.7 116 111.6 110.2 104.9 105.3 105.5 105.6 104.3 105 101.8 104.3 110.6 113.2 115.5 119.7 123.6 125.7 131.6 139.7 150.4 162.5 170.2 186.1 196.1 210.1 224.8 227.4 239.8 252.2 266.4 286.9 297.9 309.6 322.4 330.3 355.7 379.4 401.2 406.6 411 417.3 424.7 452.5 464.6 470.7 474.3 488.2 490.8 488.3 484.9 485.3 483.5 486.1 480 474.1 482.3 468.5 448.7 433.1 414.2 394.5 374.1 353.9 335.5 310.2 298.5 282.5 276.4 296.4 311.2 333.4 348.5 363.5 382 400.8 424.7 447.1 475.2 503.1 532.5 560.2 589.3 617.5 644.4 678.1 712.6 743.9 769.8 784.2 786.2
554.3 589.2 620.6 663.3 698.6 718.3 737.9 753.9 760.9 763 761.3 766.7 762.8 752.9 745.3 736 721.3 707.6 691.9 692 686.7 681.6 673.8 676 668 646.8 619.6 600.6 581.4 570.7 571.8 573.3 570.7 572.3 569.1 574.2 573.6 575.9 568.7 570.1 572.2 572.8 571.5 569.4 557.6 556.7 552.3 543.1 537.5 520.7 500.7 488.3 483.3 479.2 466.1 455.3 463.1 457.1 454.8 460.8 456.7 455.7 454.5 451.4 451.5 453.6 455.3 453.6 459.3 461 462.2 454.1 456.2 457.8 466.4 467.9 458.7 452.9 445.4 433.6 433.9 430.5 416.9 395.9 377.6 369.3 351.6 323.8 303.4 278.3 255 237.4 224.6 214.2 205.1 196.1 185.4 177.5 168.5 160.4 139.9 142.2 133.7 131.8 125.8 126.3 121.4 115.5 114.9 112.2 114.7 108.2 107 103.6 105.3 104.3 103.4 104.3 102.6 101.2 106.4 109.7 112.5 115.9 120.5 125.2 129.4 137.9 144.5 156.2 171.6 183.2 191.8 199.1 212.3 224.4 237.1 245.3 261.4 275.3 292.7 306.8 321.7 328.3 338.4 359.1 390.2 410.8 423 426.2 433.3 442.7 458.5 475.8 485.6 491.6 500.7 505 506.1 501.8 503 500 499.9 496 489.9 487.6 474.5 456.9 440.5 420.9 402.7 379.6 362.3 344.1 319.8 305.1 292.8 280.7 300.5 319.9 333 347.3 359.5 377.7 395.2 419.8 445.6 472.1 502.7 530.2 555.6 584.2 609.1 640.6 671.5 704.8 739.8 765.3 783 789.2
564.6 607.6 634.6 669.2 698.6 722.7 742.6 755.5 758.9 757.4 753.2 748.5 739.2 727.7 718.2 707.9 693 676 668.8 670.6 665.7 665.2 662.4 663.3 649.9 623 606.7 584.3 572.3 566.5 564.1 554.3 554.2 556.7 561.4 562 560.2 552.2 553.3 557.9 557.2 554.3 553.9 544.8 547.2 546.3 541.9 533.3 523.6 503.1 491.4 481.1 477.5 467.5 460 452.1 445.6 446.9 446.2 451.8 455.5 455 452.4 450.4 453.1 451.6 452.8 459.2 461.7 468.5 464 457.1 461.6 464.7 471.3 468.4 459.6 451 437.2 437.1 438.7 430.2 407 392.8 377.6 363.7 330.7 312.1 293.3 264.3 245.1 230.9 219.3 209.1 199.9 191.3 180.4 172.2 162.4 153.1 147.4 139 129.9 125.2 123.8 118.7 115.7 115.4 115.9 111.3 107.2 104.1 102.8 104 105 103.7 103.1 102.8 102.9 100.6 106.6 109.5 112.6 117.5 123.4 128.6 134.2 144.2 154.7 158.2 175.4 189.4 198.9 210.8 226.2 233.7 246.8 253.7 267.8 284.2 305.7 316.9 325.9 332 346.5 366.2 396.9 427.9 440.2 450.6 461.4 471.9 482.1 493.2 500.1 507.5 520.4 523.3 517.1 511.7 515 514.8 511.5 509 514.7 497.8 483 464.4 445.5 424.5 409.3 385.3 364.1 349.7 334.2 315.4 303.2 287.2 297.8 306 324.9 344.5 359.6 373.3 393.3 414.2 439.2 466.5 497.7 522.7 547.2 577 604.6 637.3 665.7 696.7 728.7 761 781 789.5
582.3 615.7 644.7 677.2 708.9 733.9 744.1 753.2 752.7 745.2 735.3 721.9 704.2 694.3 686.2 673.5 665.2 651.1 647.8 648.1 643.3 642.6 648.1 644.4 623.8 606.2 588.2 574.8 567.4 561.7 559 546.3 538.8 539.6 541.4 539.3 535.6 534.2 532.1 534.8 535.3 535.7 530.8 537.2 537.4 532.8 528.7 520.4 507.7 494.3 481.2 474.6 469 462.4 456.8 447.2 434.7 435.2 437.7 442.3 457.2 451.8 451.5 447.9 447.9 451.8 453.5 458.4 467.4 467.4 464.8 460.2 467.6 472.1 471.4 465.4 458.2 439.6 428.8 433.6 428.4 409.2 403.9 390.3 371.7 346.1 315.7 297.8 273.5 253 238 226 215.2 206.2 194.4 186.2 175.6 167.4 158.5 150.3 142.4 137.8 129.3 123.9 122 119.7 117.2 115.5 114.1 107.6 100.9 103.4 103.8 104.1 101.5 99.4 99.5 99.9 100.4 111.6 111 109.1 114.7 118.8 125.6 134.7 144.6 151.7 164.6 173.4 179.5 196.8 205 218.6 234.1 241.7 252.9 265.1 277.5 296.3 309.9 322.7 330.8 339 350.5 375 402.3 440.3 463.1 476.2 485 496.2 505.8 514.9 525 535.5 538.9 537.7 530.5 535.1 534.2 529.1 520.9 518 518.9 501.3 487.1 472.1 447.9 430.9 414.7 397.5 377.4 357.5 340.5 325.4 309.2 293.8 288.6 306.5 327.2 344.3 358.6 374.4 391.9 409.4 436.5 464.2 492.2 516.2 544.5 572.7 597.8 626.4 652.5 685.7 724.3 758.2 782.8 789.2
595.8 629.9 650.4 679 713.7 731.3 747.8 748.3 746.5 727 703 685.5 673.2 663.9 656.4 645.7 637.4 624.8 628 627 624.3 620.8 632.2 621 606.5 592.9 578.9 568.8 563.8 555.1 548.6 543.7 521.6 519 524.5 522.9 516.1 516.3 508 515.7 516.9 515.7 522.5 525.7 524.2 519.1 514.5 504.4 496.2 484.1 470.9 466.9 464.2 459.1 450.3 440.6 432.9 430.3 429.8 432.7 441.2 439.8 444.4 442.4 446 456.8 458.2 463.7 469 466 464.5 465.1 470.4 472.1 464.7 460.3 448.2 429.5 424.4 415.7 407.1 404 396.7 378.3 357.3 326.2 305.6 283.2 260.2 245.2 231.2 220.7 211 202.1 191.8 180 171.7 163.5 152.6 142.8 136.2 132.2 127.6 123.2 122.7 119.7 114.6 112.3 108.2 97.5 98.2 98.8 102.3 100.4 99.7 100.7 103.9 106.7 109.1 111.3 116.9 110.8 115.5 124.2 134.1 142.1 153.2 162.3 171.2 178.3 186.2 204.5 215.8 225.3 241 253.3 266.1 277.5 288.2 303.9 313.7 325.6 335.7 345.3 355.9 377.1 408.4 445.1 475.2 488.6 508.2 517.5 528 534.1 544.1 554.4 560.2 554.3 555.1 559.8 552.8 549.5 540.1 531.1 521 504.9 492.5 476.8 455.1 440.9 427.8 407.5 386.2 369.2 350.8 331.7 319.4 301.7 291.7 308.1 330.9 343.3 357.7 373.2 390.2 410.3 431.2 459.5 487.7 513.8 541.1 569.3 596.8 623.5 655.5 686.7 726.7 762.5 781.7 789.5
589.4 630.4 659.8 684.8 712.8 729.4 745.2 741.9 723.5 697.8 671.3 652.2 643 635.7 627.6 616.2 608.8 594.8 601.4 605.7 606.9 609.6 611.1 604.3 592 579.8 572.5 565.3 558.5 551.3 542 531.1 523.5 500.1 503.2 504.4 492 487.7 489.1 497.3 493.7 503.5 510.6 510.8 508.4 503.2 497.9 494.2 479.6 470 465.1 461.7 459.4 450.7 443.3 432.1 431.9 414.8 417.9 421.1 423.9 430.2 431.8 435.6 449.1 453.6 461.6 466.4 463.1 465.3 464.7 470.5 469.7 463.1 454.9 446.1 433.9 423.3 417.4 404.8 392.5 397.8 375.1 355.1 336 306.9 288.1 269.7 253.7 238.6 224.2 214.5 207.3 198.5 186.1 173.8 167.3 160 145.8 138 131.8 127.8 124 122 122.4 119.9 113.7 109.1 101.9 97.5 98.2 99 98.3 99.3 101.3 103.5 105.5 107.4 108.8 111 116 114.6 122.6 130 138.5 149 162.5 172.1 177.5 187.8 200.1 204 227.3 242.6 250.4 258.9 272.4 284.4 297.7 311.4 323.6 329.8 341.8 352.1 361.3 381.3 413 441.1 466.7 491.2 515.2 534.9 543 549.8 567.1 579.4 579.4 573.4 578.1 575.1 570.4 563.1 556.4 545.6 526.2 511.2 496.6 477.7 460.7 453.5 434.4 417.1 401.2 377.4 357.1 342.1 326.3 308.6 294.3 307.4 326.1 340.6 354.6 369.7 385.8 403.4 428.9 457.7 483.9 508.8 533.5 563.2 591.8 619.4 650.6 684.8 721.6 763.2 782.5 791.5
592.9 631.4 667.9 693 716.4 730.8 739.5 720.9 694.4 665.8 641.4 621.7 612.9 607.4 600.1 595.2 583 564.3 581.9 588.8 582.6 593.1 590.6 587.1 578.6 572.7 564.7 559.8 550.1 544.5 534.8 524.4 515.8 499 475.2 479.8 469.9 467.9 470.5 472.5 476 489.4 488.6 490.5 490.8 488.3 484.8 477.2 467.3 462.2 457.1 453.2 448.9 440.2 430.1 426.7 426.1 410.7 405.7 409.9 414 418 425.2 437.6 445.5 450.1 455.6 461.6 461.5 462.5 467.3 465.9 460.8 455.4 454.5 444.7 426.4 421.5 412.3 383.8 383.2 372.1 352.1 336.5 315.7 295.3 277.2 258.4 244.6 227.3 216.9 210.8 204.9 194.2 179.7 170.1 164.2 157.1 142.8 133.4 131 125.4 121.3 120.7 119.9 113.6 109.6 106.8 98.7 101 101.9 102 101.7 100.3 101.7 104.1 105.2 108 109.9 112.4 115 118.6 126.4 134.4 147.7 158.6 171.8 182.8 191.9 198.9 212.5 220.2 227.4 246.2 252.7 268.5 282.1 291.8 303.5 316.8 325.9 338.8 346.9 359.8 369.6 387.9 416.5 443 468.3 501.9 521.8 539.8 558 578.5 595.5 597 592.4 598 596.6 593 588.2 579.7 568.5 548.7 534.1 520.7 504.4 483.6 474.5 459.6 445.1 428.4 412.6 388.1 371.1 349.1 328.4 312.3 298.7 308.3 324.5 342.7 354.9 369.7 387 406.8 429.3 452.1 480.5 505.7 531.2 556.7 585.5 614.8 643.7 677.7 714.8 755.1 781.5 791.2
606.7 640.3 679.3 704.8 720.9 730.4 724.2 703.6 670.2 642.2 616.9 598.8 589.1 580.3 574.1 570 554.4 543.6 568 572.9 571.3 572.5 573.2 571.4 568.4 563.1 556.8 548.9 540.8 534.3 521.5 513.7 504.6 489.2 462 449.2 450.5 451.5 453.6 452.5 462.3 466.9 468.3 472.2 477.9 473.8 468 463.2 452.4 449.7 448.8 443.5 435.8 429 424.6 418.4 414.5 403 391.1 401.2 403.7 407 419.1 429.8 433.4 440.7 450.1 458.1 460 461.8 459 457.7 454.1 455.2 445 421.6 418.2 412.3 387.6 363.7 362.4 345.1 332 314.4 296.3 283.5 262.6 250.9 235 219.8 212.9 206.5 198.8 185.1 173.4 165.8 160.6 155 137.7 129 125.4 122 120.6 119.2 114.3 109.8 106.9 103.1 96.1 100.4 102.3 101.1 101.1 101.6 102.5 104 105.8 107.8 111.3 112.9 118.9 124.9 133.3 139.3 152.9 162 181.7 195.3 207.1 215.4 225.5 236.7 244.9 247.9 267.1 272.4 286 298.1 309.3 317.6 332 345 357.2 366.4 378.9 395.7 426.5 455.5 474.1 516.5 536.6 551.5 575 601.7 613.3 611 608.1 620.7 613.3 609.6 603.9 592.8 574.9 556.9 543.7 526.5 509.4 497.1 482.1 469 456.1 438.8 419.3 400.6 378.5 355.3 337 321.8 308.6 302.6 323.3 339.4 355.1 369.6 387.7 408.2 426.9 449.9 476 501.5 527.8 552.5 577.3 605.4 635.1 669.1 703.8 743.6 777.8 787.8
622.9 658.6 692.7 714.3 724.6 723.3 713.1 691.4 658.8 625.6 601.7 583.3 569.9 558.9 551.3 545.8 533.8 522.5 544.2 551.8 550.9 546.8 553.4 554.4 552.1 546.8 539.7 533.3 525.2 516.3 502.5 497.9 489.1 474.5 450 431.4 436 431.6 436.4 435.9 442.5 451 454.1 460.6 459.2 455.1 450.9 446.1 441.9 443.6 440.8 433.5 427.6 421.2 417 410 406 393.2 380.6 385.4 389.3 401.2 414.8 426.9 426.6 434.1 442.3 447 451.5 455.5 456.1 440.7 445.5 424.2 406.7 400.1 399.6 384 358.3 328.6 335.5 322.7 309.7 293.2 275.1 260.4 250.3 238.6 223 213.5 204.9 194 185.3 175.4 167.1 160.8 151.9 150.5 132 128.4 123.3 121.5 120.3 114.6 109.1 106.1 104.4 101 96.5 100.1 101.1 103.9 103.6 102.9 104.4 104.9 108 110.5 113 116.4 122.5 130.1 142.5 151.3 159.8 179.2 186.2 200.2 218.9 229.8 238.2 247.2 260.6 259.5 264.2 285.5 293.9 302.7 312.8 325.7 338.2 351 365.4 378.3 393 408.1 433.9 460.5 483.1 515.6 542.1 565.1 581.8 607.5 627.2 623.2 621.6 636.4 634.7 624.5 617.4 613.8 588 567 557.9 537.5 521.4 511.3 492.9 476.3 464 451.7 430.9 406.6 383.8 367.6 347.7 333.8 317.2 306.2 323.9 341.1 353.6 367.5 385.8 405.5 423.8 446 467.8 499.1 523.8 548.6 574.8 599.9 629.1 661.2 702.7 742.9 775 786.2
650.3 683.1 708.8 721.8 722.5 716.2 701.5 679 653.9 623.6 600.1 574.1 555.5 544.1 532.4 526.4 510.8 501.6 521.6 524.3 526.6 528.3 530.8 535.7 530.8 525.8 520.4 514.3 509.5 495.5 486.9 478.6 467.4 446 432.6 419.3 422.6 412 419.2 420.9 430.8 434.9 441.9 443.9 442.2 441.8 437.6 432.5 432.7 435.2 427.4 422.4 417.2 413.5 406.5 403.4 391.9 378.4 378.9 374.7 383 393 410.2 414.7 421.7 428.5 428.7 430.5 436.9 435.4 428.5 416.3 410.7 394.9 385.5 381.3 370.9 363.8 332.9 316.9 306 299.1 285.3 272.6 257.3 244.4 233.3 219.6 211.5 203.6 195.2 180.2 172.8 168.1 161.5 156.2 147.9 136.5 128.4 125.8 123 119.9 114.8 110.7 104.1 101.5 100.1 96.4 98.7 105.2 103.2 104.4 105.6 105.2 105.9 106.2 108.4 111.5 115.5 121.6 128.1 134.9 146.6 159.1 174.3 185.7 197.2 210.9 232.9 248.2 247.1 259.1 272.5 275.4 274.8 285.9 302.2 309.2 319.9 333.5 347.2 359.7 374.1 387 401.9 421.9 436.7 465.1 493.6 525.4 546 566.6 591.3 617.6 636.6 633.3 643.8 651.4 651.2 644.8 633 616.1 597.8 577.4 570.9 548.5 540.6 532.1 511.9 489 480.8 459 434.5 420 397.5 374.2 356.7 340.1 330.3 312.9 326.9 340.9 353.9 370.2 386.6 402.5 420.7 440.1 463.1 490.8 520.2 544.5 573.7 597.9 623.1 656 693 735.6 773.5 785
677.9 708.4 718.9 723.7 722.1 712.6 703.5 685.4 656.6 620.4 593.3 563.8 544.4 529 518.4 506.1 492 485.2 504.1 498.8 504.8 506.4 512.4 514.3 510.2 508.5 499.3 497.6 488.4 478.8 468.4 456.6 445.5 429.7 416.3 411 403.7 403.5 403.5 411.6 417.8 425.4 428.6 429.3 426.7 425.5 423.4 421.5 423.6 421.5 415.1 412.1 412.9 400.4 390.9 389.3 379.1 365.2 371.6 371.6 376.8 385.6 401.8 403.3 409.6 415.5 418.2 423.2 424.1 417.7 400.5 390.2 378.5 367.1 357 351.3 344.8 331.7 315.2 301.8 293.2 275.5 267.6 254.4 241.7 228.6 215.2 208.3 201.8 195.2 188 177.6 169.8 161.3 154.1 148.6 141 130.6 125.7 121.6 122.1 116.5 110.9 105.6 100.6 98.8 99.2 96.1 99.2 108.6 106.1 106 107.1 107.9 107.8 108 111.9 115.7 119.9 126.8 133.9 142.1 150.5 165.3 187.1 199.1 211.4 227.4 253.3 255.2 256.9 268.3 285.3 288.8 287.9 292.3 305.2 316.8 327.9 342 353.3 367.6 381.3 398.6 414.5 431.5 448.9 472 496.6 527.3 545.7 568.8 591.2 615.9 635.8 644.3 658.2 665.7 665 657 646.6 625.4 606.5 590.8 584.2 565 558.5 544 528.9 500.9 486 465.7 449.1 430.7 408.1 385 363.9 348.6 334.9 317.6 327.6 338.5 351.1 368.9 383.9 401.8 417.8 439.8 463.2 489.1 519.2 543 567.9 595.2 619.3 649.6 694.5 740.9 770.6 784.7
702.7 723.4 726.7 722.3 720.8 706.8 694.5 677.5 653.9 614.1 586.2 552.2 533.1 519 498.3 495.8 473.7 465.6 484.9 485.1 488.2 493.6 495.9 493 492.7 487.1 482.5 477.9 471.2 465 455.6 434.4 422 414.1 402 390.8 389.5 390.2 388.2 398.2 407.2 411 413.4 413.9 413 410.5 410.4 411.1 410.2 405.8 404.8 403.8 396.1 390.8 381.5 376.7 365.8 358 363.8 365.2 366.9 377.5 385.9 392.4 396.2 403.5 410.6 409.7 402.3 393.1 385.9 374.9 363.9 351.7 340 327.7 323.5 314.5 304.6 289.7 282.3 270.3 248.8 241.4 230.2 217.9 209.3 201.9 194.8 188.4 181.8 173.6 166.2 159.6 147.8 136 133.3 125.2 120.9 117.1 114.3 109.4 105.2 103.6 99 99.2 96.1 96.7 100.8 103.3 105.8 108 109 110.3 113 111.3 115.7 121.8 127.8 132.4 140.8 150.3 160.1 174.7 199.9 215.4 218.5 230.8 252.6 262.5 265.5 280.4 297.9 301.2 305.9 304.9 318.3 327.7 337.2 347.8 362.7 378.4 391.6 406.6 423 442.1 460.4 474.4 500.4 525.4 553.7 582.1 602.9 633.1 646.6 655.2 665.4 678.9 678.1 672.6 658.2 638 623.1 607.9 595.3 577.6 564.1 550.2 527.3 510.1 491.4 476.6 462.4 439.2 416.7 392.6 376.8 358.9 340.9 327.1 323.5 341.6 353.4 368 381.8 398.5 418.3 438.8 462.8 485.5 511.3 537.6 561.7 591.1 614.3 644.6 692.3 740.3 766.7 779.8
721.4 733.5 723.6 715.6 706.7 691.3 683.1 665 639.9 604.9 574.3 541.9 520.1 504.9 492.4 480.7 466.9 448.1 466.5 465.4 473.4 476 471.9 471.3 469.8 467.2 462.7 456.6 457.5 447.6 434.7 421.7 406.9 399.6 394.5 382.6 378.2 378.6 381.9 391.4 394.6 397.1 401.2 401.2 398.4 398.8 402.1 400.1 396.9 394.9 395.6 388.6 381.5 374.5 369.8 355.4 355.6 358.2 352.8 356.3 360.2 370.2 371.3 376.9 381.7 389.8 396.9 390.7 385.3 378.4 369.6 361.2 349.5 335.4 325.8 314.7 304.5 301.6 290.1 280.4 272.3 261.2 244 229.5 217.7 208.6 203.4 194.7 187.8 182.3 176.8 173.9 164.8 153.8 141.5 135 125.2 120.4 116 113 107.6 105 103.8 101.8 98.2 96.1 99 101.4 101.4 105.1 107.5 108.8 111 114.2 115.7 117.2 120.2 128.5 136.7 143.9 150.8 158.8 171.1 193.1 211.2 222 229.3 241.9 255.9 269.2 276.4 290 310.4 312.7 322.3 318.1 318.7 335.5 345.2 356.6 369 383.7 400.7 415.9 431.4 449 470.3 484.7 503.3 530.3 557.7 587.1 615.8 649.5 656.2 670.5 680.8 687.8 686.6 686.5 673.7 655 633.3 614.5 595 579.1 565.3 549.8 530 517.4 500 485.4 470.6 450.3 429.4 406 381.4 363.5 346 329.8 329.6 339.5 354.7 369.4 383.4 398.8 418.7 436.9 458.2 484.4 505.6 532 557.8 584.1 608.3 643.3 681.2 736.4 761.6 773.3
730.5 728.8 718.9 702.9 695.7 674.4 669.3 644.6 623.7 589.3 560 531.1 511.2 494.5 480.3 468.1 450.6 436.6 439.1 449 456.1 455.9 452.3 449.6 448.8 446.9 442.8 438.2 437.3 426.7 417.8 403.3 392.3 394.5 387.3 378.2 369.8 368.5 373 379.4 384.5 384.8 385.1 384.1 384.4 388.1 388.6 386.5 383.1 383.8 382.3 377.2 370.5 363.6 352.5 347.3 341.4 345.3 339.2 341.7 349.5 353.1 358.4 361.2 368 375.2 379.7 377.6 374.9 367.4 359.8 349.8 338.2 324.8 313.2 299.8 290.7 286 275.1 271.8 262.6 252.5 233.3 218.9 205.5 198.2 193.7 188.7 182.8 177.3 174.2 169.3 160.9 149.4 139.2 132.6 120.5 115.9 112 108.2 104.8 103 99.7 97.8 96.1 99.1 101.1 102.8 105.2 106.2 108.3 111.6 113.4 116.6 119.8 125.9 135.8 141.1 146.2 156.9 160.4 170.7 189.4 204.6 223.5 234.1 240.8 254.3 263.3 276.1 288.8 301 320 328.9 331.5 335.1 333.2 347.6 353.2 363.9 376.6 392.9 405.8 422.7 437.4 455.4 474.9 491 510 534.6 562.7 594.7 626.4 652.9 668.9 683.1 694.3 695.3 703.4 714.4 703 689.3 669.9 622.6 606.5 591.1 572.7 559.9 542.8 523.6 504.8 491.5 474.6 463.7 438.1 412.7 391.4 370.6 351 337.8 334.5 343 355.4 364.8 377.4 398.7 417.5 437.2 455.9 479 500.9 523.6 555.8 579.9 610 643.3 684.1 733.6 758 771.1
726.7 720 706 686.7 668.1 663.5 651.6 629.3 606 574.2 551.6 520.6 502.7 486.9 469 456.1 445.6 427.3 416.6 432.6 436.7 437.5 432.5 437.4 430.3 427.2 423.3 420.1 411.8 407.3 395.3 387.7 383.9 377.8 374.6 362.3 359.6 361.7 365.5 369.1 371.2 371.9 371 374.2 373.4 375.9 374 374.5 370.4 370.7 368.6 365 362.2 351.4 340.3 339.9 335.6 333.8 326.3 330.5 337.5 345.5 344.2 352.9 359.5 361 362.4 360.7 353.4 350.4 349.8 347 331.6 316 303.3 290.9 281.2 271.3 264.2 259.3 251.7 234.4 219.7 209 198.3 190.7 187.2 183.4 179.6 172.7 171.1 165.9 157 145.2 135.6 129 120.4 115 108.5 105 100.8 99.9 95.7 97.4 99.8 107.1 106.2 106.2 107.2 109.4 112.4 115.7 115.7 121.2 126 134.4 142.2 151.4 158.3 163.2 171.3 183.3 202.6 215.7 233.4 247.7 253.2 262.8 274.2 286.6 302.4 319.6 336.2 342.5 345.7 350.6 345.7 352.3 363.1 371.3 384.7 397.9 412.5 428.5 444.7 461.8 479.4 495.6 516.1 537.6 568.2 601 634.2 654.7 681.7 692.8 698.5 705.7 721.1 716.8 707 696.3 673.1 637.8 620.8 604.6 595 579.5 557.4 530.3 510.8 498 488 472.8 448.2 424.4 399.5 378.8 360.2 347 334.2 346.4 357.3 371.7 383.6 399.7 415.9 435.3 453 476.4 498.8 523.6 549.7 584.2 609.1 644.7 686.5 727.2 753.5 766.1
717 707 688.1 665.3 649.2 651.2 633.9 608.7 585.2 558.8 538.3 512.9 491.9 476.9 460.3 446.5 432.4 422 406.4 415.9 421 422 416.3 427.4 413.8 410 408.4 399.7 391.9 387.2 388.6 378.8 369.4 362.7 357.4 347.8 349.9 355.3 356.1 357.1 358.8 359 359.5 361.8 362.8 363.4 363 362.5 361.7 357.8 355.5 352.6 345.8 342.5 332.8 328.4 326.6 321.9 317.4 322.2 326.5 330.6 332.3 344.4 348.3 349.1 347.8 344.1 338.1 336 338.3 334.7 327.1 312 294.7 280.5 268.7 262.7 254 247.1 235.4 222 212.3 202.1 191.1 184 181.7 178.9 176 170.7 166.6 161.6 151.2 140 131.4 122.7 114 110.4 106.4 103.3 99.4 96.7 95.3 102.7 102.9 102.3 106.6 107.7 109.1 112.2 115.9 121 121.1 124 130.2 135.3 149.7 153.6 172.3 177 183 194.9 210.7 228.6 244.7 259.1 269.8 276.1 287.1 298.5 311.7 333.1 353.5 356.8 357.9 360.3 357.1 353 369.9 380.1 391.5 404.2 418.3 435.1 450.3 466.8 482.5 500.7 521.6 543.1 573.6 605.7 636.2 654.6 676.6 700.3 705.6 717.7 724.6 714.1 700.7 692.9 679.8 660.2 637.1 623.5 604.3 594.9 570.8 533.3 516.5 506.9 494.7 479.4 458.9 434.1 412.1 389.9 370.1 356.8 345.5 341.7 357 372.1 385.4 399.1 418.1 434.5 454.2 475.6 498.7 522.6 551.6 578.9 609.3 648.7 684 728 749.9 762
705.2 690.5 669.5 644.9 633.1 635.7 611.2 584.6 566.3 547.9 525.8 506.3 483.3 468 450.1 432.9 422.7 405.8 399.7 391.5 406.5 405.1 400.7 407.3 396.7 395.7 390.2 380.7 377.5 376.2 371.5 362.4 351.6 345.6 341.3 337.7 344.9 344.6 345.8 345.7 347.5 347.9 347.9 348 350.5 350.2 351.5 351.1 348.9 345.1 341.4 337.5 333 325.1 318.8 318.7 315.7 305.3 308.2 309.5 315.7 322 323.5 327.9 332.7 334 331 328.1 325.6 326.5 324.7 322.7 316.1 299.3 283.4 269.9 256.9 254.1 248.4 233.2 223.3 214.7 206 194.7 184.4 179.5 177.3 175.3 173.8 176.1 166.8 151.1 143.2 133.5 125.7 115.8 108.8 105.9 104.4 102.9 99.6 97.8 95.4 103.8 108.2 104.2 106.1 109.2 111.8 115.1 118.5 123.8 127.9 130.1 139.7 145.1 149.8 165.9 176.4 182.6 192.4 208.4 228.5 241.6 256.7 269.4 281 289 295.7 310.4 326.3 341.4 352.9 362 371.6 371.2 369.2 370.1 379.2 389.2 399.8 412.5 423.9 439.7 455.7 472.8 487.1 506.5 528.5 545.5 575.5 612.6 642.7 658.3 686.6 700.6 712.7 727.3 720.1 714.9 708.4 698.2 687.3 665.5 645.6 631.6 620.6 607.4 577.9 558.1 526.1 511.8 500.9 485.9 465.6 442.9 417.4 400.2 378.5 367 356.2 346.9 359.6 373.4 389.6 402.5 419.1 437 456.9 477.3 499.5 523.3 551.9 576.4 611.9 653.3 689.5 726.1 748.5 762.5
689.8 673.5 646.3 621.8 606.7 596.9 578.5 564.7 553.2 536.9 515.8 499.5 476.3 453.6 441.3 421.3 410.9 393.4 392.2 380.4 388.1 389.7 390.2 389.9 380.7 376.1 374.4 372.4 366.3 363.6 354.7 345.1 338.6 334.2 329.5 332.6 335.8 335 335.8 333.7 335.7 334.7 338.2 337 337.9 341.6 343.6 341.5 337.8 333.5 329 324.5 320.1 314.1 311.7 309.5 304.2 296.9 302.8 305.4 303.7 313.1 309.8 313.8 314.2 314.4 314.9 315 314.9 312.4 310.2 305.1 298.8 286.9 270.4 259.2 250.8 240.5 233.4 223.6 213.9 205 194.4 186.7 178 176 173.4 171.4 173.6 177.9 166.7 146.4 129.2 123.3 120.4 111.6 105.5 103.2 102.6 103.1 105.6 101.2 92.9 101.8 109.5 108.5 106.1 112.6 115.7 118.4 124 126.5 131.5 132.8 143.6 156.3 164 170.4 181.8 194.3 203.6 217.2 236.3 250.9 264 275.7 288.6 299.4 309.3 324.3 340.9 354.8 366.5 374 379.6 381.8 378.5 378.4 387.8 396.5 406 418.1 430.3 444 460 475.7 495.7 509.1 532 551.4 577.9 610.3 644.5 662.8 692.3 716.3 736 734.5 732.9 729.5 721.3 706.7 688.4 672.4 659.2 643.9 628.9 613.6 608 583.5 534.3 517 506.1 492.9 472.1 452.1 427.1 406.6 388.7 372.8 362 356.7 362.2 373.2 388.8 403.3 418.5 436.8 459 477.1 500.2 526.1 550.7 580.4 612.1 655.4 693.1 724.7 749.5 764.3
