ncols 200
nrows 82
xllcorner 280000
yllcorner 315650
cellsize 50
251.7 254.9 256.8 256.4 258.8 263.7 266.4 267.9 273.1 277.3 283.7 294.6 302.4 309.5 319.4 327.6 338.3 346.8 347.9 349.5 353.4 358 361.4 364.1 365 364.8 361.1 360.2 362.1 361.8 362 362 364.4 367.3 380.3 389 398.9 409 414.2 430.4 439.9 451.2 459.2 466.5 470.2 477.3 487.8 498.4 506.7 518 524.8 541.3 552.1 565.2 574.7 581.8 586.5 593.4 604.9 616.6 628.3 635.1 640.1 645.8 659.6 668.1 673.7 690.1 695.7 695.9 689.9 692.7 697.9 702 703.5 701.6 683.9 679.7 672.9 648.1 619.8 608.7 597.6 580.3 580.4 558.9 535.9 518.4 506.4 503.9 495.9 498.2 430.5 396.9 375.9 354.5 335.3 323.6 314.7 298.2 303.7 305.9 314.9 328.5 348.8 346.6 347.3 347.2 353.8 362.6 371.3 377.8 373.7 366.7 355.6 343.1 325.3 310.8 293.5 275.9 258 242.8 236.7 249.9 261.9 277.2 297.8 315.3 329.2 358.9 385.5 412.4 436.8 460.5 482.9 503.5 522 539.8 556.6 572.4 588.2 604.5 620.5 625.3 619.2 613.1 605.9 598.1 590.3 586.6 579.7 573.9 564.6 553.4 551.7 548.1 547.2 541.3 537.3 530 521 512.1 502.6 498.8 493.4 486.4 479.2 485 487.3 481.5 452.6 432.7 430 401.7 391.1 378.6 384.3 390.8 395.4 407.4 417.9 421.1 408.6 396.7 400.5 396.8 391.2 388.9 385.6 387.4 389.5 387.6 386.2 377 372.2 359.9 350.1 342.9 339.5 333
255.3 258.5 261.7 261.5 261.4 266.4 269.5 273.5 280.7 283.8 289 300 308.4 315.3 324.7 334.7 344.5 346.2 349.6 351.1 356.8 363.5 367.9 374.3 377.3 372.5 368.2 368.7 368.8 373 372.6 371.7 373.5 379.9 386 395.3 409 413.9 421.7 435.4 438.9 448.3 458.5 468 472.9 480.7 489.6 504 509.4 519.3 526.7 538.8 551 566.9 574.6 583.3 591 602.5 607.9 623.4 639.5 651 656.5 658.2 673 685 688.3 707.2 712.5 715.1 708.1 711.9 716.8 720.1 718.7 719.6 708.3 699.2 688 665.1 630.8 607.2 602.2 595.2 587.1 574.7 556.7 530.6 526.5 520.1 520.2 527.3 459.3 424.2 397.8 365.4 342.7 318.7 301.2 290.1 285.2 283.7 289.6 300.4 313 315.4 315.3 317.7 325.1 332.5 339.1 346.3 348.7 342.3 334.2 319.7 305.6 289.8 276.5 256.9 243.7 233.6 246.6 259.3 275.5 294.7 312.5 334.3 353.7 375.9 400.5 426.4 457.4 482.1 503.9 523.2 541.2 559.1 577.1 593.2 608.2 624.6 627.6 622.2 615.3 608.3 603 598.3 592.1 589.5 584.5 578.3 570.9 561.6 561.5 561 557.6 551.5 545.5 534 522.9 511 506.2 499.6 494.1 488.8 481.2 468.7 475.3 449.9 422.1 395 387 363.9 360.3 353.1 348.5 356.1 363.9 372.1 386.8 404.6 394.9 380.7 376.4 366.7 360.4 357.1 350.9 349.6 352.7 355.6 357.1 352.2 346.7 339.5 331.1 322.5 314.1 305.6
259.5 263 265.8 266.1 267.8 266.6 273.1 278 282.7 291.2 297.8 304.9 312.6 320.7 327.8 339 343.1 344.3 349.1 356.5 361 370.6 377.6 381.9 383.2 382.6 382.1 382 382.6 383.7 383.7 385.7 387.3 389.9 388.2 394.3 406.7 410 420.1 427.1 436.1 447.4 460.7 466.1 471.1 482.5 497.7 508.4 513.1 520.5 532.2 539.4 548.8 562.7 575.2 591.3 599.6 607.3 618.8 637.1 644.6 657 663.5 671 681.7 692.8 706.1 719.8 725.9 733.8 735 735.7 744 741.5 738 732.1 723.1 707.4 689.4 673.1 638.1 623.1 610.6 604.7 592.3 580.4 570.3 546.5 544.1 537 539.8 554.1 514.6 471 432.5 388.9 364.8 339.4 316.5 292.8 273.1 259.4 260.5 275.4 286.6 286.4 289.6 289.7 298.7 305.5 311 317.9 320.7 314.6 309.9 299.3 285.7 276 261.3 245.5 230.9 241.2 254.9 271.7 290 309.3 331.1 354.3 377.6 404.1 430.2 455 478.4 501.8 523.4 542.2 560.2 578.1 596.5 610.6 622.6 622.4 614.9 609.9 607.4 600.4 596.5 592.7 587.2 588.7 584.6 579.3 573.9 569.9 571 569.8 567.5 562.2 555.5 543.5 528.9 516.8 510.5 502.1 495 488.2 482.1 473.8 460.8 432.3 385.5 362.8 344 332.9 329.9 335.1 328.7 331.2 322.7 337.1 350.1 367.6 369.4 347.8 354.9 341.8 325.7 321.2 316.6 316.5 318.6 321.1 325.3 328.8 324.1 318.3 309.8 301.2 292.6 285.2
263.2 266.1 268.1 268.8 272.2 272.9 273.5 280.9 287.2 295.6 305.2 311.8 320.3 321.9 326.3 330.8 336.1 344.3 354.8 365.7 375.7 382.1 384.8 386.9 389.8 391.5 391.6 392.2 390.6 390.7 391.2 392.3 393.8 396.1 398.8 398.3 397.1 409.2 416.4 421.4 437.1 446.5 457.7 464.6 471 486.4 497.9 508 515 524 530.9 543.8 551 564.2 584.8 597.2 610.9 622 629.7 639.8 655.1 667.6 674 681.4 688 715 724 734.9 747.7 761.1 753.2 754 759.5 762.8 763.6 754.1 740.4 718 698.9 675.7 654.4 638.6 624.6 604.3 595.8 590.1 579 580.2 554.4 550.6 557.7 565 560.5 565 544.2 481.1 413.6 366.2 339.3 311.4 284.9 267.5 252.4 244.6 255.1 261.3 267.4 269.9 274.6 281.6 277.2 290.5 294.1 290.4 288.8 278.5 269.9 256.4 249.5 231.9 237.2 252.5 268.8 288.4 306.5 326.4 349.9 374.3 401.7 428 451.2 474.9 498.1 520.5 540.5 559 577.5 596.3 613.1 615.8 611.5 603.6 598.1 593.1 597.5 590.7 585.8 582.5 576.8 581.1 579.8 577.1 572.4 573.7 578 577 575.5 569.9 562.3 549.3 539.2 529.1 517.9 511.8 505.4 500.3 495.1 488.3 468.1 408.9 358.7 331.8 315.9 307.7 306.8 311.9 312.3 308.4 310.5 309.3 320.8 324.9 334.7 328.4 333.4 316.4 298.2 287.5 285 286.3 289.2 293.2 297.8 300.9 300.6 294.8 288.7 280.1 274.2 268.1
266 267.9 269.9 273.4 276.9 279.4 280.7 282.7 287.7 301.5 311.4 318.4 326.6 326.1 326.9 331.6 341.7 349.9 364.3 373.9 383.8 390.6 396.2 398.7 400 400.1 401.1 400.3 398.7 397.5 397.7 398.4 400 401.2 404.1 406 406.4 406.9 415.4 422.8 433.6 443.2 450.2 461.2 475.6 485.4 497.8 506.7 512.6 523.6 533.4 547.1 558.2 570.4 585.6 604.4 622.6 638.4 653.1 662.2 672.9 679.8 684.1 697.3 711.5 731.6 742.8 749 766 766.2 763 758.6 766 769.6 770 764.5 750.2 730.8 709.8 687 657.8 639.5 626.4 616.3 610.1 596 594.8 589.4 575 565.1 567.2 569.6 578 580.9 578.6 533.6 502.3 405.3 353.8 321.2 290.3 267.4 250.9 236.8 232.2 241.3 246.6 246.9 250.5 257.8 247.3 269.5 271.7 271.2 268.1 261.3 253.7 244.8 234.1 233.4 248 263.4 282.6 302.9 323.2 345.1 369.9 397.5 423.9 447.2 470.8 494.3 514.6 536 555.7 574.5 594.1 611.6 610.7 599.1 591.9 584.6 578.1 571.3 575.8 574 571.3 565.5 552.7 568.3 568.7 568.2 573.3 578.5 584.1 582.1 578.3 572.6 560.1 552.8 544.8 537.9 530.9 523.2 517.3 510.7 500.9 488.9 455.4 405.3 363.6 335 317.4 301.1 296.8 296 303.9 302.6 296 286.8 290.8 295.9 296.1 303.3 305.9 296 275.8 258.8 255.9 258.6 262.6 268 272.6 276.5 276.9 273.1 267 260.5 256.9 251.3
269.7 271.2 275.7 279.1 283 285.3 287.5 288.8 299.2 304.5 316.1 325.4 329.7 329 332.3 339 346.5 358.9 368.2 375.2 386 390.5 395.7 400.3 403.9 406.8 409.7 408.3 406.8 405.6 404.4 404.9 405.5 406.2 408.1 409.9 409.4 409.1 413.8 419.6 430.5 437.3 449.5 460.3 470.6 486.9 500.9 507.1 512.8 522.4 535.9 547.9 561.7 575.3 592.2 607.4 632.1 648.8 663.5 683.3 691.7 693.7 697.3 715.4 732.3 741.6 754.7 765.3 768.9 769.7 766.4 762.8 769.2 775.7 773.2 767.3 755.8 738.8 718.9 694.2 669.5 644.8 639.5 631.9 626.3 614.4 607 602.1 592 586.4 583.5 579.9 584.8 591 589.8 522.6 495 426.1 367.3 329.2 300.6 270 249.4 234 214.7 219.7 225.5 227.2 229.2 231.3 241.7 249.3 252.7 245.6 251.8 246.9 240.8 231.2 221 242.9 256.4 276 297.4 317.9 339.2 364.6 390.8 418 441.7 465.5 489.3 510.4 530.7 550.2 569.9 589.3 606.6 606.4 592.8 582.3 572.5 563.4 552.9 544.1 551.1 551 547.9 541.7 519.3 540 554.4 557.9 569.5 581.8 583.3 582 579 567.3 559.7 553.4 547.5 540.8 534.9 531.6 529 520.1 507.6 488.9 448.9 402.9 369.6 347.6 329.5 305.9 290.6 281.9 286.2 289.1 286.8 278.9 268.9 271.9 269.9 274.8 282.5 266.7 256.3 247.8 240.4 239.6 242 244.8 249.1 255 256.7 254.4 248.6 242.2 238.3 235.4
273.2 275.7 280.3 286.4 292.9 291.8 296.6 303.1 308.7 317.1 321.2 329 332.4 334.3 337.4 343.3 352.6 361 369.4 377.5 383.6 389.8 395.7 402.8 406.7 413.2 416.9 416.4 414.9 413.3 412.7 411.7 411.4 411.5 412.1 412.2 411.8 411.4 413.2 417.3 426.9 435.6 447.8 457.5 466.5 484 497.5 507 515.1 528.3 541.7 557.1 573.4 592.1 605.8 623.4 641.4 659.1 677.7 693.2 708.3 712.5 714.9 730.2 743.8 752.3 757.3 760.3 772.5 769 767.6 765.9 765.8 771.9 770.5 766.7 759.1 744.4 726.5 708.9 684.1 659.3 653.1 648.2 650.2 651.3 630.2 617.1 604.9 598.1 593.8 589.4 589.3 592.2 578 529.8 487.5 440.6 384.5 343.3 291.8 262.6 239.7 225 212.8 206.7 199.5 201.9 209 210 223.5 223.7 236.9 238.2 233.6 234.6 232.1 228.7 235.8 249.7 269.1 289.5 311.8 333.3 358.6 384.4 410.4 435.1 458.7 482.3 503.6 523.7 543.4 562.5 582.1 601.8 603.3 592 579.1 567 553.6 540.7 527.7 514.4 522.3 519.9 518 514.4 494.3 512.1 532 545.7 560.1 580.4 581.1 579.1 571.2 565.6 559.2 552.8 548.9 545.9 540.4 534.3 528.2 520.6 508.4 488.5 444.3 409.8 389.1 371.9 348.5 323.6 314.9 299.4 278.6 278.1 279.8 271.5 262 256.7 254.9 253.2 256.9 250.2 242.4 234.6 231.6 229.2 228.8 232 231.3 236.9 239.9 238.1 233.6 228.3 226.1 221.8
278.5 281.2 286.2 293.1 297.9 301.4 310.5 314.2 310.9 321.5 323.6 331.6 335.5 339.2 343.3 347.5 355.3 364 373.2 380.3 385.8 391.1 401.6 411.1 417.1 423.2 425.9 429 425.4 425.1 422.9 421.8 420.6 419 418.6 416.1 414.4 414 414.5 417.1 423.8 433.2 447.9 456.6 464.8 476.6 492 501.2 517.7 548.8 556.8 570.8 586.2 596 615.1 632.3 649.9 665.4 681.7 702 717.1 724.2 731.1 743.3 749.1 751.4 751.4 757.6 765.6 764.3 765.5 764.5 764 764 764.8 764.9 760.5 748.2 733.5 720.7 705.5 682 675.7 666.1 662.7 650.9 639 629 611.7 605.5 602.7 592.6 590.9 594.2 588.8 545.7 500.2 449.2 396 342.4 289 245.4 224.6 210.2 201.1 203.1 183.3 181.8 191.3 198 203.2 213.8 219.6 222.3 220.8 224.8 216.6 236.6 243.2 253.8 278.8 299.9 322.8 347.6 376.8 402.2 426.8 448.4 472.1 494 514.5 534.2 554.8 575 594.3 608.1 596.5 581.7 565.1 549 534.5 519.2 498.8 485.6 491.7 488.8 487.8 486.3 462.9 493.6 511.7 532.7 553.6 579.3 578.3 573.8 567.5 562.1 558.5 552.1 548.3 546.7 543.8 540 531.7 519.8 508.8 495.7 468.9 437.8 417 399.5 375.4 358.2 342 324.1 302.5 278.3 268.3 258.1 252.9 251 250.1 250.6 243 237.2 233 230.2 228.6 225 224.9 224.2 219.8 218.8 227 225 221.6 222.2 216.7 211.6
287.6 290.1 293.7 299.4 306.9 311 317.2 324.4 323.6 326.5 330 333.5 337.6 342.1 346.4 351.8 359.1 368.3 376.7 383.9 389.6 403.3 416.3 421.5 427.3 434.3 438.4 439.7 436.2 437 435.8 435.3 434 431.5 425.5 422.3 419.4 417.1 417.1 420.1 425.3 436 445.4 455.4 464.6 475.3 488 496.7 522.4 541.7 562.2 576.9 595.2 620.3 629.6 644.4 660.3 674.5 684.7 701.4 723.6 735.7 741.1 740.2 743.2 742.7 744.5 753.1 758.3 761.8 762.7 763.6 763.8 763.8 762.5 761.9 758.4 749.6 739.2 728.7 716.9 702.5 692.4 677.8 664.8 657.5 649.2 637.6 620.8 614.5 601.7 594.9 591 593.7 597.5 512.6 475.5 430.9 381.6 320.5 269 237.8 215.8 200.5 189.2 193.6 176.2 174.8 179.1 188.6 196.7 201.9 206.6 205.5 205.4 209 231 248.9 265 263.1 278.4 305.5 334.6 361.1 387.4 413 434.6 458.8 481.7 504.2 523.6 542.7 563 584.9 606.4 608.9 593.2 573.9 556.2 536.3 516.1 495.4 472.5 456.4 462.5 462.3 462 458.9 443.6 470.8 494.2 518.6 547.4 571.5 573 569.9 564.3 558.5 555.3 551.5 547.6 546.1 542.7 538.6 529.3 519.1 511.9 503.7 491.7 475.1 463.4 443 417.1 397 375.7 354.2 334.2 318.4 295 282.1 272.3 270.7 266.3 265.3 264.9 251.6 259.3 255.5 252.8 247.9 243.3 239.2 234.1 228.8 220.2 215.5 215.3 212.2 208.1 205.6
299.2 301 307.4 312.3 318.1 321.8 333.3 331.4 331.8 331.3 333.3 336.2 340.7 344.9 351.8 356.1 363.1 371.4 379.4 388.4 395.7 410 421 430.1 435.9 444.3 445.5 445.6 446.4 447.7 450.5 452.6 449.2 446.7 442.6 439.2 431.9 429.3 429.4 430.5 432.1 436.3 451.6 456 466.1 476.6 487.7 501.1 522.8 553.7 572.4 590.4 604.4 620.5 644.2 657.6 671 687.5 701.8 715.2 727.7 738.7 738.4 736 733.8 736.4 740.6 747.7 750.7 754 759 760.8 761 762 760.2 758.3 754 750.5 743.4 732.5 721.7 708.7 695.2 680.6 673.8 662.9 655.9 638.1 628.7 612.1 599.1 589.2 586.3 579.8 573.9 524.5 477.9 392.2 353.4 302.6 264.4 233.7 208.1 192.9 181.1 172.4 169.1 168 171.7 180.7 185.8 171 191.4 215.4 231.9 242.9 256.6 274 288.4 301.6 297.7 294.8 318.8 349.9 386.3 413.7 437.2 459.4 481.6 505.5 528.8 547.5 568 591.3 614.1 607.1 588.5 568.6 547.5 524.3 499.9 473 448.6 428.5 434 435.2 437.4 440.1 431.4 459.5 483.2 508.5 539.6 566.8 567.7 563.3 558.4 554.7 551.6 548.3 546.1 544.8 541.5 535.7 525.9 517.8 512 506.4 502.9 495 488.9 481.8 461.7 442.4 425 406.7 380.8 350.2 326.5 312.3 302.5 297.6 291.6 290.5 290.5 288.7 283.7 280.7 278 274.5 270.5 264.9 257.7 242.8 240.2 234.9 232.3 229.9 228.1 227.4
305.3 313.1 318.7 321.2 325.8 332.4 340.5 341.5 341.1 339.3 339.9 341.5 347.6 352.6 356.3 360.6 366.9 374.5 382.1 390.7 401.8 414.2 423.3 432.2 440.5 446.4 451.4 454.1 461.7 462.5 467.3 463.9 458.6 458.9 459 450.2 442.9 439.7 439.8 437.3 437.3 443.5 450.9 458.2 468.1 480 490 508.9 530.1 557.5 572.3 591.4 615.3 634.1 656.8 671.9 684 697.4 710.1 721.8 734.9 737.7 732 728.5 729.5 733.2 736.9 740.9 743.7 748.9 753.9 754.3 757.2 759.2 759.1 756.4 753.2 749.3 743.7 734.3 723.1 709.3 695.8 682.5 674.4 666.2 651.2 638.5 625.3 613.4 602.6 578.4 558.1 540.8 539.2 518.9 450.8 367.9 327.4 285.1 252.1 225.8 203.7 184.2 172.5 165.6 163 163.3 167.1 172.4 165.6 194.2 213.8 228.3 242.9 259.8 281.6 300.1 319 335.6 337.9 329 331 345.1 379.8 409.6 432.1 451.5 476.3 500.1 522.5 546.8 568.6 591.9 610.5 601 580.8 560.3 536.2 514 486.5 454.9 428.9 407 406.2 408.4 418.9 419.2 421.6 448.3 473.8 501.8 533.8 562.1 562.6 556.3 552.3 550.9 546.6 544 541.9 540.2 539 532.5 524.5 517.4 513.1 508.8 505.7 501.9 495.1 486.9 480.6 463.4 438.5 413.9 391.9 372.8 354 346.3 339 318.1 323.7 321.2 317.6 315.3 310.8 308.8 305 301.3 297.5 291.7 284.8 276.4 264.9 260.5 257 254.8 253.7 251.9
315.4 320.5 324.9 327.6 334.3 340.1 344.9 346.3 346.9 346.3 348.2 349.1 353.4 358.8 363 366.1 371.7 377.7 385.2 395 406.1 417.1 427.1 439.1 446.4 452.8 461.1 468.6 468.5 471.7 475.7 478 469.9 470 466.3 459.6 457.2 452.4 450.9 446.3 447.9 451.6 456.5 465.4 473.1 482.6 497.9 508.4 531.4 564.7 585.3 612.7 624.5 642.3 664.3 678.7 689.8 700.6 724.4 726.9 731.3 732.7 725.5 721.9 724 728.9 735.5 737.8 741.2 742.2 748.5 751.4 752.1 757.9 758.1 753.8 751 747.4 742.2 733.5 717.6 705.4 694.9 680.9 671.2 659.3 650.2 635.3 610.7 593.5 598.9 581.2 546.1 505.4 497.4 482.1 405.8 356.4 308.6 273.5 242 214.9 193.1 177.4 166.5 160.6 158.2 156.1 162.7 176.1 189.3 203 217.8 233.3 249.8 271.6 295.5 317.8 337.9 353 366.3 371.9 371.9 385.4 395.5 411.5 431.5 451.9 475.7 497.1 522.4 546.8 570.5 590.9 600.9 587.4 568 546.2 526.2 505.8 480.4 448.7 416.3 385.4 382 390.9 403.4 397.4 415.1 441.7 469.1 499.9 534.6 564.2 558.6 553.2 550.3 547 541.5 538.8 536.3 534.6 534.2 527.6 520 515.8 513.9 511.1 507.3 503.5 497.4 487.2 473.2 452.8 431.3 414.3 404.8 394.1 388 380.8 371.1 353.4 358.4 352.7 340.6 344.2 339.3 335.2 332.8 328.9 325 321 312.5 302 295.2 289.3 285.2 284.5 282.9 278.4
324.2 326.4 331.9 343.2 350.3 351.1 351.7 352.4 353.4 352.3 353.3 354.1 357 363.1 368.1 371.9 377.7 382.4 388.8 399.7 409.9 416.6 429.3 440.6 451.1 457.4 466.4 470.7 475.3 480.6 484.5 486.6 481.9 480.8 480.9 472.3 468.6 470 474.4 472.1 470.6 472.7 467.8 469.4 479 491.9 501.9 516.9 547.4 570.6 590.2 614.3 628.9 647 667.3 684.2 696.6 712.3 729.1 729.4 726.7 723.7 717.1 717 719.1 726.8 732.1 734.9 735.1 737.3 741 748 749 752.3 754.2 753.4 748.1 743.5 736.2 727.8 716.8 702.1 692.2 675.6 666.1 653.9 620.3 591.5 572.6 556.9 560.4 560.8 539.8 528.7 445.6 422.2 374.3 329.6 295.3 264 234.3 208.2 184.4 170.7 160.5 153.6 152.8 156.9 164 176.3 189.6 204.7 220.8 237 256.4 280.1 305.4 329.5 348.5 363.7 379.8 394.6 408.5 423.6 435.1 445 461.4 477.5 498.1 516.9 535 554.1 574.9 590.2 585.7 570.8 552.8 532.2 512.9 495.7 476 446.9 414.5 381.3 359.4 372.1 380.8 383.7 411.8 440.1 469.4 500.9 535.6 562.9 556.8 553 549.9 545.3 540.1 536.3 533.4 530.5 525.9 519.8 517.1 514.1 511.4 508.9 505.3 501.1 492.3 480.2 462.7 443.5 424.7 410.5 405 400.7 406.1 412 404.3 389.8 388.6 382.7 375.9 373.8 368.3 365.9 363.3 359.2 354.8 350.9 341.6 332.1 325.5 321.2 318.6 318.5 317.5 302.4
330.3 337.9 345.6 352.9 356.6 357.9 359.4 359.9 359.2 357.9 357.2 358.5 360.1 363.8 371.8 376.5 381 385.7 394.9 403.3 408.9 421 433.5 444 452.1 461.4 467.1 475.4 481.8 490.6 495.5 498.5 497.8 497.1 494.9 494.5 482.3 483.4 484.3 485.4 488.2 484.5 482.9 486.4 490 500.6 514.3 533.3 558 575.8 596.8 614.9 636.5 657.4 670.3 682.2 692.8 708.1 717 718.5 717.6 714.4 709.7 712.1 715.9 723.9 727.1 729.3 729 731 738.4 743.3 744.7 748.6 751.1 752.1 745.5 737.3 729.8 720.3 712.4 699.5 688 674.9 662.5 642.7 599.7 557 536 509.4 519 507.1 504.7 498.2 470.7 393.4 354.1 316.6 281 250.7 223.2 196.3 176.3 165.2 154.2 149.7 149.6 155.8 164.3 176.2 188.9 204.7 219.9 239.5 260.2 286.7 313.8 336.2 356.3 374.5 391.9 407.9 426.4 445.7 461.5 475.8 493.8 508.1 521.9 538.4 553.8 569.7 583.4 577.9 566.4 550 535.2 517 499.4 483.1 462.6 434.2 402.2 373.2 345.4 356.1 358.5 385.7 414.2 441.8 470.9 504 539.7 559.3 556.8 553 549 544.6 539.6 535.2 530.8 526 521.2 516.3 512.9 510.5 508.8 504.7 500.6 492.6 483.9 470.1 450.3 430.2 413.1 399.2 399.1 407.9 420.4 435.3 438.6 425.6 417.6 413.6 407.6 404.7 400.1 397.9 395.6 393.1 388.7 385.1 378.4 367.9 362.8 356.3 344.8 341.1 325.8 301
342.5 348.7 357.2 361.3 362.5 362.9 364.4 365.2 364.7 363.8 362.4 363 364.7 368.3 373.5 377.9 384.5 388.2 398.2 407.4 418.2 426.8 434.8 442.5 451 457.2 465.4 476.2 485.1 493.8 500.2 503.1 508.3 509.1 508.1 509.6 498.9 501.1 508.6 502.2 506.5 501.8 501.4 501 499.9 515.8 530.2 544 563.6 585.5 606.4 620.1 640.2 663.6 678.1 688.2 695.9 698.1 703.3 704.1 705.1 703.4 704.7 708.4 711.6 715.9 718.9 721.1 726.1 727.2 732.1 738.5 740 742.6 743.9 744.6 739.2 731 724.2 719.2 711.2 699.4 686.9 671.9 661.1 636.4 610.6 549 492.5 476.3 492.1 475.1 472.4 499.3 459.8 367.3 335.4 299.7 266.2 238.2 218.2 195.5 174.6 161.9 150.1 147.1 147.7 155.3 164 174.1 187.4 203.8 220.7 239.8 261.4 288.5 320.8 341 362.4 381.8 401.2 419.7 440.7 460.1 479 499.6 519.9 536.5 551.4 563.8 575.7 577.4 568.3 556.7 544.2 529.8 516.3 502.2 485.6 468.7 447.3 418.8 388.5 357.7 336.9 344.7 367.2 389 416.3 443.6 473.3 508.1 540.5 554.9 555.1 552.2 548.2 543.9 539.2 532.6 525.6 520.5 514.5 508.5 506.9 505.3 499.7 497.9 492.4 483.3 473.2 456.5 433.9 414.4 398.5 384.3 393.6 411.7 432.6 451.1 441.6 449.3 456.4 448 443.2 439.3 433.6 433.9 435.7 431.8 430.2 426.4 408 400.7 385.8 358.9 344.7 329.8 306.6 284.5
350.1 359.2 367.6 367.1 368.2 367.9 370.8 368.5 366.1 365.4 366.4 367.1 370 372.7 375.3 379.3 385.2 390.7 398.6 411.4 418.6 427 435.3 439.9 445.9 455.2 465.3 475.8 490.3 501.4 507.5 513.5 520.8 524.8 521.6 523.5 521.3 527 522.2 519.4 524.7 525.7 522.7 517.3 515.3 525.5 538.3 563.5 577.9 591.8 613.1 623.7 648.1 665.2 681.6 685.2 687.1 689 691.7 692.5 693.9 695.8 699.7 700.5 702.4 704.6 709.2 718.1 722.6 724.8 725.7 732.3 733.9 734.2 735.6 741.1 731.6 724.4 719.3 715.6 711.3 697.9 683.8 667.4 654 632.9 588.7 529.9 487.8 454.5 441.3 427.3 442.3 458.7 385.7 343.9 322.4 283.8 252.7 229 206.3 188.8 171.9 156.9 146.5 145.6 146.1 155.2 161.7 171.1 184.1 200.8 216.2 233.2 260.2 290.5 320.5 341.7 363.3 384.8 406.6 426.7 449.8 468.2 491.1 514.8 536 553 560.1 566.7 565.5 558 548.4 534.8 521.2 509.3 497.2 484.6 469.3 452.1 432 403.5 375 348.4 327.4 345.8 368 393 418 446.4 477.6 510.3 541.5 555.6 555.6 551.5 547.4 543.2 536.2 528.9 521.2 513.6 505.4 499.2 498.9 497.5 490.8 490.6 481.7 471.7 458.9 434.8 412.7 394.9 379.6 370.4 388.1 405.6 425.9 442.8 448.2 466.4 490 480.7 486.3 479.2 478.8 475.4 477.5 475.2 463.2 439.8 415.6 395.2 369.2 347.8 327.1 311.4 290.9 268
357.7 370.1 372.4 374.1 378 375.2 372.8 369.5 367.7 367.1 367.5 369.8 373.4 376 379.7 383.8 388.1 396.4 402.2 406.6 413.1 421.9 427.4 436.7 446.7 456 467.1 478.2 495.3 512.8 514.8 524.2 532.4 533.3 534.2 534.9 537.9 540.9 540.5 540.2 539.1 538.5 545.8 533.8 531.9 541.7 564.3 584 591.3 605.3 617.2 634.7 649 659.8 672.9 679.5 680 682.3 683.2 683.8 686.9 692.1 692.3 692.1 692.8 696.9 704.8 711.1 717.8 719.4 720.1 724.4 727.8 729.1 728.9 727.4 723.7 718.5 713.4 709 701.3 688 667.6 653.9 646.9 626.8 605.5 558 505.1 462.7 416.4 402.1 409.2 415.1 349 323.9 297.3 259.7 233.6 216.8 193.6 177.1 165.6 153.3 144.2 143.3 146.4 152.3 158 168.5 176.3 192.2 205.6 221.3 247.8 275.1 303.6 338.6 363.5 385.9 406.2 429.9 452.4 474.4 499 522.1 544.9 548.8 547.4 542.6 539.2 531.3 522.7 510 496.9 485.3 474.6 463 448.9 434.2 417 391.4 361.8 337.4 326 345.2 367.7 392.6 419.1 450.5 483 515.2 544.5 552.9 552.2 548.5 544.5 540.6 536.1 528.4 519.2 507.4 492.7 489.4 491.7 485.9 482.9 481 471.6 461.1 444.8 417.3 395.2 376.8 359.8 365 376.6 393.4 413.5 440.1 460.5 493.1 492.6 497.2 502.5 499.4 493.9 490.3 484 471.8 451.3 430.3 403.4 377.5 352.5 331.7 309.7 291.5 269.1 248.8
369.1 376.8 377.8 376.3 379.2 380.7 381.3 376.1 371.6 371.3 371.5 375.4 379.9 385.7 387.1 390.9 397.8 405.1 408.7 416.1 421 426.6 431.6 441.1 448.5 459.7 470.2 479.6 493 508.8 523.3 530.9 540.5 544 548.5 549.9 555 558.6 559.8 563.5 567.2 558.4 553.8 554 557.4 562.7 585.5 594.5 605.2 617.1 622.6 634.8 648.2 663.9 662.4 670.6 675.4 673.4 675.4 678 681.2 684.3 681.7 682.3 686 690.7 696.2 701.6 711.3 712.6 715 719.1 726 726.1 724 720.4 717.5 713.1 709.9 702.7 696.2 676.7 657.2 624.4 584.8 602.6 565.7 544.2 511.9 472.6 415.6 378 377.2 358 321.1 299.9 263.2 238 216.2 200.1 184 171 160.1 149 142.7 141.6 143 148.7 154.6 164.8 171.1 181.7 194 209.8 229.9 258.8 294.5 329.2 357.7 382.6 406.6 429.6 450.3 474.1 501.2 528.2 540.3 533 524 516 511.1 503 494.8 483.7 472.5 461 449.3 439.3 426.2 416.3 405.1 380 350.5 323.2 322.6 342.4 365.4 392.4 419.7 453.3 486.1 519 543.1 549.8 548.7 545.6 541.5 537.6 534.8 527.6 518.4 507.3 481.9 471.4 476.8 471.3 469 469.6 461.1 449.7 427.2 400.9 373.4 360.7 345.7 359.1 369 381 400.5 439.9 476.7 490.1 499 508 506.1 501.2 492.1 483.6 471.3 455.9 436.4 414.3 385.8 360.2 335.4 312.6 292.7 272.2 249.2 228.6
380.5 377.7 378.3 379.4 383.1 383.1 383.4 384.5 382.9 377.3 376.1 380.4 387.1 390.2 392.2 399.9 407.1 410.7 413.4 418.8 426.4 429.9 439.1 449.8 455.5 462.7 476.1 485.8 501.9 513.3 528.7 538.4 545.2 554.6 560.9 566 568.4 575.2 577.1 580 587.3 576.2 579.7 593.1 587.2 587.6 599 605.1 613.8 623.3 623.6 634.8 647.9 657.2 655.2 662.6 663.2 667.9 670.4 670.8 672.4 673.7 671.6 674.6 681.2 685.5 690.8 696 702.1 707.2 711 713.5 718.7 722.8 719.4 716.4 713.1 708 704.3 698.4 688.3 667.8 642.9 596.1 551.4 558.7 547.9 505.7 510.9 465.8 401.1 351.3 348.7 318.9 301.1 272.6 245 221.7 201.4 185.9 172.8 164 154.6 145.1 141.4 140.2 139.8 144.8 151.1 157 163.2 171.9 183.3 199.9 219 246.2 280.9 314.4 345.3 371.6 397 421 446.3 476.1 503.9 525.1 523.7 515.3 503.4 491.7 483.3 474.5 466.2 455.2 444.5 433.7 424.5 415.3 405.7 398 389 365.3 338.6 306.6 318.3 338.2 363.9 391.2 419.9 453 487.1 519.8 543.6 547.1 546.3 542.4 538.3 535.9 534.1 526.8 517.4 499.7 480.1 457 458 451.4 443.9 451.4 449.2 435.9 413.5 385.3 357.7 341.3 346.3 354.3 366.1 390.3 418.5 448.2 474.1 495.9 507.1 509 500.1 493.7 482 471.8 456.7 438.9 418.7 392.7 367.2 341.9 315.7 294.3 274 252.3 231.9 212.2
376.7 379.3 381.6 387.4 384.8 385 386.1 389.5 389.8 389.1 387.7 391.4 398.8 403.4 403.3 409.3 415 419.3 423.1 424.8 429.3 434 442.9 453.2 458.6 463.7 474.2 493.2 505.9 523.6 535.2 544.5 556.1 568 568.1 581.3 590.2 590 595.6 596.3 600 593.5 604.3 600.4 599.4 596.4 601.8 608.2 615.1 617.2 619.2 627.2 637.5 648.7 654.4 656.7 654.8 658.5 663.5 661.3 661.8 662.6 664.5 667.4 673.2 680.3 686.6 691.7 697.1 700.4 704.3 709.5 710.8 714.2 716 713.1 708.1 703.8 694.7 681.7 669.4 661.7 647 605.4 525 503.3 467.4 455.1 422.4 393.9 375.8 333.8 324.8 303.3 283.8 253.3 231.2 207.7 193.4 179 166 155.5 147.6 142.2 140 138.7 138.1 141.1 145.9 149.7 155.7 163.8 173.2 189.4 210.1 233.1 261.6 297.4 327.4 355.8 382.3 410.3 440.7 469 497.1 516.3 513.6 501.1 486.5 472.4 460.8 448.2 439.5 428.6 417.5 407.8 398.6 389.2 384.5 376.7 368.9 346.8 325.5 296.6 314 338 365.5 392.9 421.7 453.8 488.3 519.8 544.3 545.9 542.4 538.3 534.3 531.6 532.3 523.3 509.5 491.7 471.9 451.9 420.8 417.7 404.9 419.4 433.5 423.1 396.5 368.9 345.5 332.8 339.4 353.3 375.3 402.8 431.7 461.6 489.7 504.2 511 499.5 485.4 474 460.1 446.2 431.9 414.7 391.4 367.6 343.1 320.9 296.4 275.4 254.6 234.2 215.5 195.8
377.1 382.7 388.2 385.3 389 388.2 390.2 391.1 391.2 392.1 398.4 403.8 404.8 407.9 411 417.5 422.9 427.2 429.8 430.5 441.5 444.4 447.1 453.8 463.7 467.4 480 497.2 516.3 529.7 543.2 554.2 565.9 573.2 578.7 589.5 606.6 607.9 609.2 606.8 610.1 609.2 611.1 611 605.4 599.8 604.1 609.3 612.2 614 621 632 641.9 651 654.4 652.7 652 656.7 655.5 655.5 655.4 656 658.9 663.2 668.8 674.9 681.6 691 693.6 695.9 700.4 705.9 706 708.9 712 706.8 704.7 700.1 687.5 660.6 630.8 632.1 606.4 571 503.2 458 431.9 410.5 384 360.8 334.3 314.4 304 291.8 272.4 239.8 220.3 204.1 192.1 176.3 160.3 150.8 143 140.3 139.3 138.1 137.1 139.6 141.2 143.2 150.5 156.2 164.7 181.2 198 217.5 247.8 280.1 310.8 339.4 366.1 395.8 426.8 455.2 484 504.7 501.5 487 465.8 452.4 440.6 429.2 418 405.7 392.4 381.9 372.6 367.6 362.8 357.9 350.6 333.5 310.9 292.5 314 338.7 366.2 394.5 423.6 456.6 489.3 520.3 541.7 543.6 539.2 534.3 530.2 527.1 527.5 515.4 498.9 481.5 448.9 437.4 423 384 376.7 384.1 399 402 380.7 353.6 329.8 322 338.8 359.1 385.2 415.3 445.7 477.4 497.5 495.3 496.7 482 464.7 445.5 431.7 416.7 398.6 385 364.7 341.6 318 297.2 276.7 256.8 236.8 218.1 199.1 181.6
376.6 382.5 385.8 386.1 389.9 390 392.9 391.1 393.3 399.7 406.9 412.4 413.6 414.7 422.5 426.8 431.2 435.4 435.8 439.2 447.7 449.9 453.4 463.1 473.4 480.3 493.2 507 523.8 537.4 550.7 565 579.4 590 592.6 599.2 612.2 615.9 626.7 623.6 616.1 620.5 620 617.2 611.7 609.9 611.8 615.3 615.7 615.8 628.4 637.3 645.9 651.3 651.8 653.3 655.5 656.6 651.3 651.4 651.6 649.7 652.1 658.1 664.1 671.1 678.2 687.3 689.7 692.2 697.8 699.8 701.1 705.7 708.3 703.2 701.3 683.2 650.5 613.4 580.6 582.7 553.4 533.1 468.8 433.7 410.7 387.3 366.2 334 312.2 294.1 291.8 273.8 253.2 230.6 214.4 198.6 188.3 174 158.8 145.5 140.7 139.5 138.8 135.9 133.4 135.9 136.4 139.1 143.4 149.4 158.9 172.5 189.2 205.9 231.1 261.6 291.7 320.2 349 378.8 409.2 437.8 468.6 487.5 485 471.6 453.2 437.1 422 410.2 394.6 379.7 366.4 356.1 349.1 346.2 342.4 337.7 329.7 315.9 295 294.3 313.7 339.5 367.1 395.6 425.5 458.5 491.7 524.2 538.4 540.7 537.2 531.8 526.3 522.6 517.3 503.9 483.6 462.4 432.1 422.5 409.6 381.1 347.8 350.9 365.8 376.1 364.8 342.7 316.7 325.7 343.1 366.7 393.8 427.2 459.7 484.1 486.9 479.2 467.9 457.8 444.1 424.2 406.3 389.7 372.7 355.4 336.3 315.7 294.6 274.4 255 236.5 219.1 200.3 183.2 167.4
377 382.7 383.7 384.3 387.2 390.5 394.4 402.6 404.3 409.7 413.8 414.9 416.5 426 433.7 439.6 445.1 446.4 446.5 454.9 459.4 463.7 471.3 473 482 485.6 499.8 517.7 533.1 552.4 558.2 573.7 584 593.3 601.9 617.5 626.2 643.4 643.7 633.3 622.7 623 625.4 617.1 614.3 614.7 615.5 617.3 622.8 619 630 636.6 640.7 649.4 650.8 649.3 652.3 651.2 649.3 648.3 646.4 644 650.1 655.3 662.2 669.2 676.5 683.2 686.4 689.9 693.9 694.7 698.9 701.2 702.4 699.7 696.8 674.6 634.6 601.4 546.1 514.1 489.2 469.1 452.2 416.3 392.1 371.8 348.1 309.2 285.6 269.6 271.9 268.7 248.2 226.9 210.2 197.5 184.4 170.5 158.6 143.9 139.4 138.2 137.6 137.7 134 133.4 133.2 136 140.5 143.9 152.3 165.7 179.2 195.1 215 239.9 270.6 299.8 328.9 357.2 386.2 416.3 449.2 464.4 459.4 448.7 435.7 420.9 406.8 388.9 372.8 355.7 340.7 332.5 325.6 323.4 319.6 316.4 307.1 296.5 279.9 288.7 311.8 338 367.8 398 428.5 461.6 494.8 527.4 537.8 539 534.6 529.7 523.7 515.6 506 490.5 467 448 422.9 418 409.8 382.6 355 323.7 336.2 351.4 345.1 327.6 310 327.6 351.3 375.5 405.7 438.8 466.3 472 469.7 455.5 443.2 434.5 422.5 404.5 387.4 369.5 349.8 331.3 311.3 293.4 269.5 252.4 234.4 217 199.6 183.5 166.8 152.4
378.6 382.3 380.5 382.9 387.9 392.4 401.2 403.6 406 408.4 412.4 417.6 427 436.7 446.1 451.3 457.6 460 457.9 463.6 472.2 478.1 482.6 485.5 496.1 503.9 513.5 529.2 546.1 566 576.3 581.9 592.2 606.1 616.5 628.7 642.6 652.3 647.8 635.2 627.6 626.4 624.4 621.9 613.4 623.4 619.3 622.5 623.7 631.2 633.2 640.6 648.7 655.5 652.8 649.9 648 648.6 646.5 643.6 640.9 643.7 650.8 655.5 660.4 668 674.8 680.4 684.2 687.6 690.1 692.4 696 696.7 695.2 693.9 694.4 688.3 656.3 623.6 549 508.6 477.4 443.9 419.6 384.9 359.2 343 321.7 290.7 271 258.1 258.5 255.9 240.2 224.3 205.9 191.5 179.3 166.9 155.2 145.4 139.4 137.2 137.3 137.6 136.3 132.5 131.7 131.2 135.7 139.4 145.7 158 171.9 184.5 201.1 222.5 250.5 277.4 309.3 338.4 362.6 392.2 421.8 440.8 433.7 424.3 413 400.5 385.7 368.7 348.6 333.4 316 307.2 302.9 301 297.7 295 287.8 279.6 267.7 283.1 311.3 341.4 372 402.5 433.1 466.1 499.3 531 538.6 537.5 531.3 526.5 516 504.6 494.2 468.5 453.7 430.8 414.8 411.6 396.7 376 356.1 333.9 314.3 322.3 322.2 310 313.9 337.4 359.7 385.1 417.4 441.9 457.7 457.9 446 431.1 421.3 411.7 399.4 384 368.1 349.4 330 310.1 288.9 260.9 243.2 231.9 214.5 197.2 180.9 165.1 147.6 139.2
377.5 381 375.8 380.3 385.5 390.1 395.8 397.1 401.2 407.2 415.8 424 437.4 446.8 454 460.3 467.1 473.8 473.6 478.6 482.7 487.4 493.6 503.4 509.8 517 527.4 539.7 556 566.2 578.2 595.6 602.3 618.9 630.3 646.1 655.9 651.1 645 633.8 625.3 623.5 621.3 615.2 613.3 616.1 622 623.8 627.6 633.2 636.3 642.7 653.1 654.4 652 649.9 648.1 646.2 643.8 639.6 639.2 646.8 651.3 655.8 659.7 667.5 673.3 677.9 681.2 684.5 687.2 690.4 694.9 694.1 691.2 690.2 690.8 688.5 664.3 632.7 588.5 533.9 511.5 458.7 417.4 405.2 374.3 332.5 304.4 283 266.1 252.9 247.5 247.6 235 221.2 204.4 190 177.1 166.4 156 145 139.1 136.5 136.6 137.5 137.1 131.6 130.8 129.6 129.3 133 139.5 151 162.5 174.7 188.3 205.2 230.2 256.7 287.9 316.2 340.8 369.1 397.8 414.4 408.6 400.3 390 377.5 363 346.6 326.5 311.3 295.8 282.6 280.3 277.8 276.1 274.7 270.2 262.7 280.1 302.8 326.9 348.3 375 408.9 440 472.3 504.9 530.9 538.2 535.9 528.5 520.5 500.8 486.1 466.9 449.2 434.1 413.9 407.3 400.6 386.9 369.1 349 323.9 301.8 294.5 295.9 311.7 330.2 347.6 371.7 397.9 422.9 443.1 443.3 430.3 413.6 402.4 394.9 385.1 376.9 359.7 345.6 328.7 309.2 289.8 270.5 248.3 220.5 210.7 194.4 177.1 161.3 146 137.2 137.1
371.8 373.4 370 374.5 380.2 387.1 391 394.4 399.6 410 419.8 433.1 444.2 451.8 461.2 469 478.7 482 485.7 491.5 497.8 501 507.7 513.7 521.3 529.9 543.5 547.1 562.4 573.8 594.5 615.4 626.3 642.7 649.4 654 654.7 648.7 643.9 633.9 626.2 622.6 621.4 613.5 612.1 612.1 618.2 619.5 623.1 629.8 639.2 644.1 647 650.7 652.3 646.9 645.4 643.5 640.9 636 640.5 646.1 650.2 653.7 659.5 665.9 671.6 674.9 678.2 685.1 690.4 690.1 693.1 692.4 689.2 687 687.9 684.1 667.6 645.4 616 583.7 553.2 487.7 458.1 433.8 404.2 334 294.3 276.8 263.8 254 247 241.4 229.4 210.7 197.8 185.9 170.8 162.3 153.7 145.4 139.2 136.4 136.5 137.1 136.5 133.8 131.7 130.1 129.6 128.8 136.6 143.1 153.3 164.8 177.3 192.9 213.2 238.9 265.8 294.3 320.3 346.2 371.2 385.4 383.3 376.8 367 354.2 339.5 324 305.8 289.6 276.7 263.9 259.3 257.4 256 254.9 255.3 277.4 298.7 320.6 343.7 368.9 394.6 422.5 451.7 481.2 512.7 532.8 539.6 530.7 521.6 503.2 481.2 459.5 444 428.3 415 398.4 391.7 385.5 372.7 358 338.4 311 290.2 282.8 315.7 329.9 335.4 351.3 372 404.2 415.6 420.8 414.2 405.7 391.1 379 368.6 361.1 353.6 337 321 306.5 288 270.5 252.3 233.9 210.2 190 174.9 161 144.3 136.8 136.7 136.8
361.5 362.3 365.2 369.9 375.9 379.9 384.1 391.1 400.8 409.4 423.4 435.2 448.7 458.8 466.9 472.1 483.2 491.1 497.1 503.8 507.4 510 516.1 525.7 537.6 551.1 556.5 566.2 576.4 591.8 611.9 635.5 645.7 651.4 653 652.5 649.7 646.6 642.8 631.2 621.1 619.8 615.5 612.8 612.3 611.9 614.1 617.3 621 626.8 638.7 640.2 643.6 646.2 644.6 644.4 642.7 640.6 636.7 631.2 638.1 644.2 647.6 651.3 658.2 664.2 669.5 674.4 677.1 686.2 688.4 688.2 690.1 690.4 686.3 684 682.5 680.8 668 652 622.1 594.9 554.7 527 470.6 434.8 403.8 328.7 298.3 287 275.4 265.3 256.1 248.2 232.2 217.7 202.6 188.3 177.2 165.3 155.1 144.7 139.7 136.4 133.9 135.7 135.7 134 132 130.8 130 127.7 128.3 137.1 145.2 155.5 167.9 182.6 197.7 220 243.8 271.9 295.6 320.6 341.7 356.7 358.9 355.4 342 330 315.4 302.1 287.3 272.1 258.3 248 242.6 242.6 251.9 264 280.4 298.3 317.2 338.8 360.6 386.1 411.9 439 466.1 495.1 523.1 539.6 535 520.1 498.7 477.7 448.4 433.6 419 407.7 393.7 376.9 372.5 366.2 354.6 344.4 318.4 297.8 275.6 283.5 310.3 320.3 324.4 340.4 362.1 390.9 395.4 391.7 390.3 380.4 368.7 356.9 344.9 334.2 327.8 313.1 299.5 282.9 268.9 251.7 233.7 216.1 197.9 171.2 151.2 144.3 138.1 137 136.5 136.6
354.5 355.7 361.1 365.7 371 375.8 381.4 388 396.5 406.6 419.5 432.5 444.6 458.5 467.5 473.2 484.6 496.5 501.9 508.7 513.9 521.4 529.9 542.8 554.7 563.3 572.3 579.9 596.3 614.1 629.5 642.3 649 650.4 650.2 646.4 647 643.8 639.5 633.1 625.1 619.2 614.1 612.5 612.4 611.9 613.4 619.3 620.2 620.6 628.2 633 634.5 637.9 641.4 643.3 644.4 639.2 632.5 626.5 636.4 641.6 645.1 650.5 656.7 661.7 668 674.4 677.5 683.6 685 686.2 687 687.7 684 681.7 679.2 674.2 666.1 653 635.1 610.4 567.6 521.6 462.8 422.2 374 341.5 324.6 317.2 300.1 278.3 257.7 244.2 232.2 217.2 203.8 190.1 178.3 167.8 157.1 146.9 141.2 136.2 134 134.1 134.4 133.6 131.6 129.7 127.7 126.6 126.8 131.1 140.7 149.3 158.7 173.1 184.1 203.4 225.7 249.2 272.5 293.4 317.1 330.4 333.1 327.5 316.1 305 293.7 283.4 271.8 259.2 241 233.8 242.5 256.6 270.6 283.7 301.2 319.1 339.1 360.6 384.1 408.4 431.6 456.8 483.2 510.2 532.1 543.2 530.4 507.6 478.8 441.7 426.7 412.4 398.1 386.4 374.9 358 354.7 347.7 333.5 325.8 295.7 274.7 252.8 285.8 296 301.9 310.9 326.2 344.1 364.2 369.1 367.9 363.3 357.1 345.8 334.6 324.6 312.1 306.5 293.2 280 262.3 247.1 233.2 215.9 200.2 183.2 168.2 148.2 138.2 135.6 136.1 136.3 137.5
352.7 354.7 358.4 363.1 368 373.5 379.3 387.3 395.2 406.3 418.8 430.1 443.6 456.8 468.3 482 491.4 499.3 504.5 512.2 520.2 533.5 546.1 557.7 578.4 578.4 588.2 598.9 613.3 624.5 633.6 641.2 643.3 646.2 647.3 646.5 647.8 646.4 641.1 633.9 625.7 616.4 612.7 612.2 612.1 612 614.3 619.4 618.7 616.5 620.1 625.3 627.3 632.6 633.8 633.8 635.3 632.7 625.8 628.3 634.1 638 641.7 647.8 654.4 659 667.3 674.5 677.8 680.3 682 683.4 684.2 684 681.3 679.4 675.6 672 663 652.4 626.2 591.5 533.2 491.7 446.2 412 383.9 362.9 348.7 334 315.4 286.7 266.4 248.9 230.5 215.6 204 193.2 183.7 172.5 163.3 154 143.3 136.3 131.9 132.9 132.9 132.1 131.4 130.8 129.1 126.4 126 126.9 138.3 143.4 151.2 162.7 172.3 188.9 208.5 227.6 250.2 278.9 293.5 300.8 301.4 298.7 290 281.2 274.3 266.5 256.1 244.5 228.4 236.6 251.8 268.7 285.9 305.1 323.3 341.2 360.6 384 406.9 429.1 452.4 476.8 503.3 530 541 541.8 522.5 493.4 455.7 429.6 411.2 396.2 380.7 370.4 358.8 343.8 334.5 329.3 318.3 308 279.8 258.4 258.7 278.8 281 285 294.9 306.8 322.9 339.7 343 342 337.7 331.7 322.5 314.5 305.6 292.6 287.1 273.8 260.4 245.3 229.4 212.3 200.2 184.7 170.4 156.3 139.4 135.3 135.6 135.3 139.4 146.8
358 357.7 359.7 362.3 367.4 371.4 378.6 387 395.7 403.9 416 428.5 439.3 452.3 465.3 480.4 494.1 501.5 507.7 517.7 525.6 537.1 555 578.4 599 601.9 610.4 618 620.4 624.7 631.4 634.8 637 641.9 646.5 650.7 653.2 649.4 639.2 629 621.2 615.2 612 611.1 609.9 608.6 612.8 615.1 614.9 615.6 617.8 618.5 621.8 624 624.7 625.4 628.8 627.1 616.8 625.1 631 634.9 639.4 644 650.7 658.1 667 672 674.7 676.2 678.5 680.7 681.4 678.6 674 673.2 671.6 669.6 665 652.2 615.8 548.8 512.2 467 438.6 420.7 403.4 381.9 372 359.7 327.8 298.7 278.2 258.6 239.7 225.8 213.8 200.3 190 180.2 170 157.8 145.4 135.9 130.6 132.3 131.9 130.3 130 129.8 129.5 127.7 125 125.1 134.1 140 145.5 155.1 164.5 176.1 192.3 209.8 233.4 254.6 268.8 276 276.1 273.8 267.3 260.6 254.9 248.5 242.2 230.6 229.6 243.7 260.2 279.9 303.2 322.8 341.9 361.7 381.1 404.5 427.4 450.1 474.2 499 525.6 538.3 546 540.4 518 482.3 439 421.5 399.4 382.7 368.7 355.8 345.2 331.1 314.6 304.7 300.3 291 267.1 241.6 256.1 261.2 263.3 268.7 279.1 289.3 301.7 316.6 318.4 317.4 313.9 308.4 301.9 294.4 285.6 279 267.5 253.8 240.8 228.3 214.1 196.3 178.5 171.3 157.7 138.3 134.6 134.9 136.4 139 147.2 156.2
358.7 361.2 362.7 363 367.8 373 380.8 388.9 397.4 403.7 411.6 424.8 435.6 444.8 460.4 477.5 492.9 501.8 511.5 520.5 533 550.2 572.9 597.3 611.5 613.7 617.9 617.8 621.1 624.6 628 630.8 637 644.9 653.4 659.3 657.3 647 634.1 627.9 625.3 618 610.9 608.2 606.2 606.2 608.6 608.6 614.9 613 616.6 616.9 617.2 620.1 619.9 625.6 628.4 623.5 612.9 621.6 625.2 631.7 636.6 641 647.9 656.5 663.4 668.3 670.9 672 673.9 676.7 676.6 670.3 666 668.5 669.4 667.3 657.2 639.4 613.6 545.5 489 461.8 449.9 439.7 420.9 411.3 408.7 400.6 365.2 324.6 293.2 274.2 255.1 239.7 223.6 207.4 199.3 192.1 184.2 171.3 158 144.4 129.5 129.7 129.4 129.3 129.3 129.1 129 125.9 124.1 124 124.9 131.7 142.6 149.6 156.1 166.6 179.3 196.5 213.1 230.9 243.7 251.2 254.2 251.1 245.5 240.3 236.6 234 230.1 222.8 232.6 252.8 271.2 293.4 316.9 338.7 359.4 379 401.5 426.2 449.3 471.7 494.7 520.3 538.4 547.9 548.2 542.8 516.6 474.4 432.9 417.1 395.6 375.6 360.7 347 332 321.1 308.8 293.1 271.2 266.5 255.1 225.9 239.4 245.4 246.8 252.2 258.8 269 281.2 290.4 295.2 295.9 293.6 289.7 283.9 276.4 267 257.2 247 234.4 221.5 209.5 197.7 183.2 173 156.3 146.4 133.7 135.5 136.1 137.8 145.5 153.5 162.5
358.5 361 361.8 362.1 366.9 373.1 381.6 390 395.4 401.4 408.4 419.3 430 439.8 454.7 473.6 484 497.7 512.3 526.5 541.3 566.5 588 594.8 605.7 612 615 614 615.3 617.5 624.9 634.5 648.8 656.9 663.9 661.6 653.8 648.6 641.8 637.2 630.1 619.4 610.8 608.2 605.6 603.1 603.7 603 602.8 606.9 611.7 613.7 610.1 614.4 621.6 624.1 625.7 619 609.2 618 623 627.8 634 638.6 649.1 652.8 658.1 669.6 667.5 667.1 664.9 669.5 664.1 663.5 659.6 661.4 664.2 659.9 652.6 605 569.4 523.2 481.6 468 460.2 456 448.3 452 453.8 439.3 395.2 352.7 315.5 290.7 271.2 253.2 232 223.6 214.7 209.3 200.3 186.7 172.2 156.1 135.7 125.8 127.8 128.5 128.6 128.5 127.5 125.3 123.3 123.1 129 134.7 139.1 144.3 150.1 157.5 168.7 182 196 209.2 222.4 230.8 233.9 231.3 224.1 219.8 219.7 220 215.8 225.5 240.7 262.7 285.3 308 329.8 354.3 376.6 399.8 422.7 447.9 470.2 493.6 519 535.8 547.7 547.9 545.3 541 515.4 476.1 436.9 414.8 396.7 374.3 355.1 341 325.6 311.9 299.9 279.8 267.6 252.2 237 225.4 223.2 229.4 232.1 236.9 242.1 251.5 260.3 268.5 273.2 273.9 273.9 270.3 266.4 259 248 237 226.6 214.9 204.2 191.2 180 170.1 155.9 147.9 140.2 133.4 135.7 138.1 143 151.3 162.2 173.3
358.4 359.3 360.1 361 364.5 369.1 376.8 384.1 392.2 399.3 407.3 415.8 424.9 432.9 447.2 463.5 475.7 491.5 508.6 526.2 548 570.9 581.4 587.6 596.3 603.8 604.7 602.2 610.1 621.5 633.3 647.7 656.9 664.4 665.2 663.8 663.4 658.1 647.7 642.8 634.2 623.3 612.7 608.8 607.7 604.4 601.8 599.6 599.6 600.2 600.6 602.5 601.1 604.4 610.3 616.8 619.5 613.1 605.5 614.9 621.3 626.3 630.8 636.9 642.9 645.3 651.7 658.5 657.8 659.9 656.7 656.9 653.3 655.9 651.8 650.3 652 650.2 642.9 619.5 560.9 513.6 486.1 471.8 466.7 466.9 471.1 477.4 466.1 439.3 405.9 366.4 329.7 306.3 286.7 264.8 250.5 241.5 235.7 229.1 218.9 205.4 189.5 170.9 152.8 134.8 125.1 127.7 128 127.2 126.5 125.9 122.5 122.2 128.3 133.4 136.2 139.4 145.1 150.7 158.6 171 184 195 205.7 215.6 218.1 217.8 215 206.2 206.1 213.5 228 241.6 258.5 279.4 301.2 324 346.5 371.2 394.7 421.2 443.7 468.4 490.2 516.6 531.2 547.8 550.8 548.9 543.4 535.1 511 477.1 444.3 417.7 400.5 382.8 367.3 354.2 340.3 324.2 308.7 293.7 274.9 257.3 240.5 227.1 206.7 212.7 216.7 221.6 228.5 233.4 241.2 248 252.1 253.2 253.3 250.1 247.8 238.9 229.5 220.4 207.2 198 188.3 175.2 169.2 156.9 144.3 140.9 134.8 134.6 138.2 142.7 148.6 160.4 173.5 185.8
354.5 356 359.3 361.8 365.1 369 371.6 378.8 387.2 389.8 397.8 409.3 418.8 426.5 437.2 454 467 484.7 506.7 530.9 552.9 564.5 572.2 580.2 584.6 591.2 588.3 593.5 610.2 625.9 638.5 645.6 653.8 664.2 668.2 672.1 671.8 663 653.5 644 634.1 625.8 618.7 609.7 609.7 611.1 606.6 601.2 597.2 596.4 595.6 595.2 595.1 598.3 602.8 608.6 613.3 609.5 601.3 611.5 618.7 622 627.3 634.8 636.2 640.8 645.4 648.4 648.3 648.6 650.3 648.5 647.4 645.9 644.4 642.5 643.6 642.6 640.2 611.2 564.3 519.6 495.1 487.8 485.2 486.1 491.9 484.4 464.4 437.3 408.6 376.1 343.7 320.2 298.2 281.4 270.3 262.2 258.4 252.6 241.1 225.4 206.4 186.7 167.9 147 129.5 123.9 127.2 126.6 126.1 125.4 124.9 121.6 122.6 130.8 130.7 136.9 140.6 145.2 152.1 161.1 172.4 183.7 194.2 203.7 207.1 205.2 200.4 209.1 223.4 236.4 249.1 263.5 279.6 299.1 320.4 343 366.3 390.3 415.3 441.6 466.5 489 509.6 536.8 555.4 553.7 551.3 547.6 540.8 529.4 508.4 485.2 461.9 437.4 414.7 396.9 381.5 365.9 350 333.5 317.6 303.2 285.5 260.1 242.4 228.9 209.1 199.8 200.3 204.3 213.7 219.3 224.5 230.7 233 231 233 231.2 229 223 213 203.6 194.3 185.4 175.5 165.4 157.3 148.4 135.1 133.2 132 138.6 144.5 148.9 158.5 171.3 185 202.9
353.2 354 356 360.3 364 365.4 368.9 371.7 375.8 380.7 389.4 400.4 409.8 419.7 431.9 449.5 465.6 486.3 508.1 535.5 553.1 558.3 563.4 572 574.5 572.8 580 596.3 612.5 625.4 631.5 642.8 653.5 666.6 673.6 679.6 673.3 664.3 655.8 649.6 643.9 634.5 626.6 618.5 611.4 613.2 613.5 609.8 603.9 598.5 595.8 592.7 589.8 593 598.3 604.9 607.3 604.3 597.2 611.8 616.1 619.4 623.9 628.6 634 636 637.3 634.5 635.8 639.5 640.1 640.7 642.7 641.4 638.6 636.1 636 635.1 634.9 622 582.1 552 521.9 517.5 519 517.8 515.7 485.1 455.2 431.3 410 385.5 357.4 333.1 318.3 294 292.8 285.4 281.9 274.2 266.5 249.5 226.7 204.5 182 164.1 144.6 127.5 125.3 126.1 125.6 125.1 120.8 121.3 121.2 124.2 131.2 134.5 136.9 141.1 146.4 153.8 162.3 172.6 183 191.7 194.3 196.9 208.4 222.6 238.6 256.7 272.2 288.6 306.3 324.2 344.2 364.8 387.6 413.2 439.2 463.9 487.9 512.2 534.9 553.8 554.7 553.7 550.8 545.9 538.2 525.4 517.4 505 486.2 460.8 437.4 416.5 397.2 380.5 361.9 340.3 322.6 307 289.4 262.6 241.1 227.3 215.2 193 185.9 182.6 199.6 205.4 208.9 216.4 218.8 215 217.2 215.5 212.7 207.7 200 188.8 186.4 178.6 166.7 153.4 145.1 140 133 133.5 139.4 145.2 147.4 156 167.3 183.8 198.6 218.7
357.7 358.7 358.7 358.2 358.1 364.5 368.6 370.2 373.5 378.3 386.3 394.5 404.5 416.4 429.8 450.4 468.1 491 512.8 534.8 547.8 550.3 552.8 560 558.6 557.3 576.5 592.4 610 621.1 631.8 640.9 654.9 671.2 676.9 682 678.4 666.3 658.8 656.6 650.9 645.5 634.5 626.5 617.2 615.1 619.8 617.7 610.3 605.7 599.5 593.5 590.2 588.6 592.9 600.1 601.8 594.6 595 606.7 610.9 615.9 621.6 625.4 625.5 627.1 628.7 627.4 628.2 627.5 631.8 633.7 633 635.3 632.4 629.3 629.7 624.1 618.9 603.2 588.8 576 566.6 563.1 564.3 561.1 532.7 496 461.1 434.8 411.4 389.2 369.6 349.4 328 324.5 317.3 310.8 307.7 302.2 296.6 273.3 246 221.3 199.5 178.2 158.2 136.8 124.8 123.7 125 124.9 121.1 120.9 121.1 122.4 129.7 131.8 133 137.4 142.7 146.5 154.4 165.5 172.3 181.5 187.1 203.7 218.4 235.1 254.8 275.2 292.9 313.8 331.9 348.4 366.7 387.3 411.1 437.2 463.2 488.4 513.2 534.3 545.1 552.6 552.1 551.1 546.9 541 532.2 523.5 515.9 508 492 467.6 440.6 416.2 392.9 371.7 350.4 333.6 317.3 301.8 288.2 254.1 232.2 227.2 215.1 202.7 190.5 182.2 187.8 192.7 198.7 203.4 204.7 202.7 202.9 200.3 197.6 192.8 187.8 180.3 176.9 172.1 163.1 151.3 137.9 132.9 133.5 138.5 145.2 149.5 161.6 172.4 175.6 194.8 213.3 235
354.8 358.6 360.6 363.3 365.2 362.4 366.4 371.1 374.1 378 384 391.4 401.9 414.8 428.4 449.3 470.1 492.3 516.4 528.6 539.7 540.6 541 541.4 538.4 551.5 569.3 589.3 602 613.7 624.5 641 657.2 666.6 678.5 673.4 675.5 667.1 663.5 659.7 655 649.2 641.2 630.5 623.5 618.4 623 622.5 619.7 614.8 608.7 599.2 593.1 587.8 588.6 593.9 592.9 590.2 597.8 603 607.1 611.5 618.1 621.4 621.4 621 620.9 619.8 620.7 621.2 621.8 625.5 625.4 627.3 624.2 620.9 616.1 608.2 598.2 588.1 577.4 566.9 565.8 566.5 567.5 566 541.6 514.4 480 448.4 424.5 403.1 384.7 362.4 351.8 350.8 343.4 340.4 340.2 339.1 320.8 297.2 267.5 242.2 216.5 193.1 170.6 148.4 130.5 124.1 121.5 124.3 120.9 120.1 120.8 125.1 127 128.8 129.7 133.8 136.8 137.9 140.9 161.1 171.5 182.5 196.4 212.1 230.1 250.5 272.3 294.5 315.6 336.8 353.9 370.1 388.4 410 434.1 460.7 486.7 511.9 531.4 544.4 551.3 549.1 548 548.1 542.8 535.3 526.7 518.9 511.1 499.4 483.2 459.2 430 402.1 377.2 354.6 334 312.7 292.4 278.5 264.7 245.6 229.4 223.2 210.7 205.4 196.1 182.5 176.5 181.6 186.5 188.7 190.8 188.4 191.3 187.8 182.7 179.1 176.3 172.6 169.5 163.1 156.3 140.4 133.2 131.7 136.4 144.2 151.5 164.8 179.8 193.8 196.3 204.3 224.5 247.5
354.9 357.2 361 363.8 366.1 368.3 369.7 373.7 378.8 383.8 384.7 390.8 400.6 416.3 432.9 451.3 469.2 491.8 512.9 517.9 527.7 526.3 529.6 529.9 530.6 541.7 562.6 579.4 599 605.1 622.3 636.9 650.3 661.9 669.8 676.1 674.7 670.7 664.9 661.2 656.9 651.8 642.8 634.1 629.5 624.6 624.2 628.2 623.9 619.7 617.2 608.4 598.7 591.1 584.5 586.3 587.3 586.7 595.1 602.3 607.6 610.5 613.7 615.8 616.1 615.1 614.4 615.4 616.7 615.3 614.5 614 616.5 618.5 610.8 599.8 589.5 584.7 576.4 567.6 559.5 557.3 559.2 561.7 565.2 567 558.5 537.4 506.7 473.7 444.3 415.2 396.4 379.6 381.4 378.2 375.6 376.8 377.8 365.8 346.5 323 293.9 262.4 233 203.2 182.9 160.5 140.1 128.3 122.3 121.4 119.2 119.6 120.3 123.8 125.7 127.1 129.4 130.6 131.6 135.8 146.9 162.3 176.4 188.2 206.8 224.6 245.9 268.1 291.3 313.2 334.4 354 370.9 389.2 409.1 430.8 455.2 482.4 509.4 532.3 541.4 545.4 546.7 543.8 541.3 540 536.7 529.8 520.8 513.7 503 488.9 472.9 448.6 421.2 389.2 363.2 339.2 313.6 296.7 279.5 266.3 250.5 237.7 228.5 222.1 213.9 201.9 191.6 183.6 175.4 171 174 175.4 178.7 180.7 182.6 178.2 174.7 169.5 167.4 165.1 158.3 155.5 149.6 136.3 132.4 132.4 142.1 150.1 164.3 181.5 200.6 215.2 222.1 219.1 232 253.5
360.5 357.5 361.4 364.2 366.9 370.1 374.9 379.7 384.5 389.5 390.4 393.3 402.6 420.8 434.4 454.6 471.6 491 503.8 504.5 514.8 514 518.9 518 520.6 537.3 555.8 569.5 579.3 599.2 618.1 633.8 644.3 652.3 661.9 663.7 661.8 661.8 658.1 654.9 654.9 651 639.8 635.9 631.9 628.5 625.9 627.6 624.7 620 617.7 615 608.3 596.1 585.2 581.8 584.4 584.2 597 602.5 607.4 609.4 611.4 613.5 612.9 612 611.3 608 609.4 608.3 602.5 602.8 604.4 596.4 589.9 571.6 557.5 554.4 549.4 542.7 540.8 542 546 555.7 562.8 570.2 570.7 560.5 533.4 498.5 473.3 451.5 436.1 423.6 415.7 409.8 413.2 416.5 407.6 391.4 375.7 357.6 323.6 285.3 252.9 222.7 197.5 173.2 151.1 138 131 119.9 118.9 119.2 119.7 123.7 125.5 126.8 127.9 127.6 129.2 137.8 147.1 155.8 166.5 185.8 210.4 235.8 260.1 284.1 306.7 328 347.2 365.7 384 404.6 425.4 447.9 474.5 501 526.8 538 542.6 542.9 541.1 537.7 535.5 533.8 529.6 522 512.5 504.1 492.1 477.5 459.6 435.9 410.7 380.1 350 324.6 309.1 296.1 279.9 259 247 234.5 220.1 214.1 206.4 203.3 198.4 189.7 185.9 182.5 169 163.7 167.3 159.7 170.4 167.3 166.7 160.6 158 156.9 149.4 147.7 143.2 136.3 130.1 134.6 148.7 163.4 180.5 200.9 221.1 237.5 243.5 225.4 241.4 261.4
365.6 363.4 366.8 371.7 371.8 374.7 379.5 386.9 392 395.8 397.2 406.7 414.5 428.3 442.4 458.9 474.7 488.4 494.3 494.4 502.3 502.2 508.9 505.1 511.2 533 547.9 559.9 577.9 592.5 608.7 620.6 627.5 640.2 647.2 647.8 649 650.1 650.5 645.6 647.6 648.9 642.6 638.8 635 632 629.1 629.5 626.8 621.4 616.9 616.3 612.5 603 592.4 584.3 581 586 597.9 603.6 609 609.4 610.2 610.4 610.2 608 605.4 602.7 602.2 598 589.4 589.7 585.3 565.5 549.5 535.9 523.3 524.3 521.7 521.6 521.5 525.6 541.5 553.5 563.2 575.5 583 585.3 565.8 534 502.2 486.9 479.8 473.4 457.1 445.5 452.2 454.4 428.3 408.6 393.8 375.8 346.2 313.7 280.1 241 210 184.7 162.3 148.7 137.6 119.1 118.8 119.2 119.9 123.4 124.8 125.9 126.7 123.7 127.8 135.1 142.6 150.2 158.5 176.2 203.3 229.8 257.2 288.1 308.1 331.2 351.8 369.7 393.5 416 441.9 465.9 493.4 520.3 532.7 536.4 539.7 538.1 536.4 533.9 530.1 528 522.5 512.1 503.2 494.6 480.7 464.5 447 423.8 399.2 371.7 339.4 334.3 313.3 296.9 283 273 267.5 261.5 251.2 242.8 237.6 231.6 225.5 216.6 210.3 204.3 191.1 180.2 174.1 169.2 160.2 152.3 147.7 147.5 143.6 141.3 139.5 136.8 136.4 136 129.2 148.3 161.6 179.2 196.2 216 233 250.1 257.9 259.1 248.4 271.9
372.1 371.2 375.5 381 387.5 385.3 391.6 399.1 404.5 408.2 413.8 422.5 434.2 442 450.6 465.8 479.6 484.8 486.8 487.8 492.9 495.6 500.3 498.7 510.2 527.3 539.5 559.9 573.4 584.8 597.8 606.5 615.1 622.9 630.7 635 634.7 636.5 636.8 634.9 637 639.4 639.1 639.3 636.2 632 627.3 627.7 624.5 625.8 617.7 616.5 610.8 605.7 600.1 594.4 578.5 585.6 595.2 600.9 606.1 608.6 609.8 605.8 602.4 602.3 600 595.7 592.7 585.5 573.8 563.1 551.5 529.1 510.5 501.9 493.2 495.4 496.1 499.5 501.1 522.9 541.7 554 566.7 582.5 595.3 596.3 581.5 555.8 538.8 524.4 517.5 511 503 483 489.5 484.5 443.8 421.1 401.1 382.1 356.6 321.9 280.8 250.8 225.8 194.3 171.8 154.4 137.8 121.8 117.9 118.1 118.4 122.5 123.6 124.7 124.6 120.5 123.2 130.1 136.8 144.6 152.3 168.2 190 213.8 241.5 271.9 296.9 323.3 347.1 372 397.6 424.3 453 480.7 506.9 524.6 530.6 534.8 534.7 533.5 531.9 527.5 523.8 518.9 511.8 503.1 493.7 485 469.8 453.3 436.3 414.1 390.4 363.9 367 351.4 332.1 324 316.4 296.9 293.8 285.6 279.8 273.4 269.9 261.6 254.1 243.3 235 225.6 213.4 201.4 185.2 177.8 170.4 165.5 161.2 158.4 153.9 147.4 143.2 137.6 132.5 134.4 141.1 154.4 170.3 185.5 202.8 219 236.1 253.4 264.9 275.2 278 272.8
378.3 382.6 384.8 390.2 396.2 402.7 401.7 410.6 416.8 421.5 430.6 435.2 451.3 465 463.6 469.2 476.5 479.9 481 482.6 487.3 491.5 492.1 506.5 516.2 526.6 541.3 555.3 566.5 576.4 585.5 595.6 605.3 609.5 614.2 614.7 615.1 621.1 620.4 621.7 626.7 632.3 635.7 633.4 625.8 615.1 608.1 611.7 610.6 615.5 618.3 615.1 611.6 607.1 606.5 604.6 591.2 580.3 583.9 593.4 597.1 601.4 602.2 596.2 593.4 597.1 592.4 584.3 575.4 558.3 546 532.8 513.9 494 483 473.2 467.7 467.1 469.2 476.9 498.1 518.5 538.7 555.6 570.1 585.2 594 593.7 587.6 577.7 565.4 554.7 544.9 544.4 541.1 531.9 525.9 512.4 478.4 450.3 419.1 387.8 362.7 318.4 275.6 243.7 222.7 203.9 187.9 167.4 148.8 127.5 116.9 117.2 117.6 121.8 122.1 123.6 122.2 120.9 121.1 126.8 133 139.2 147.6 161.3 179 201 225.4 254.3 282.3 308.7 336.3 366.3 396.4 424.4 458.4 487.7 512.9 524.1 527.8 529 529.4 528.3 525.8 520.3 512.8 506.8 498.3 493.4 485.6 473.5 460.1 445.2 432.6 418.9 404 396.5 386.8 375.3 358.6 355.8 347.6 333.7 326.2 320.8 319.6 312.3 321.5 300.6 282.4 269.7 258.9 246.8 233.3 220.6 210 198.8 189.5 179.9 170.5 159.2 153.3 148.7 143.6 141.2 133.4 131.3 144.3 158.1 172.8 187.4 202.5 219.4 239.2 254.9 269.1 286.9 304.7 303.6
399.3 393.6 393.3 400.9 408.1 414.9 416.5 420.8 429.8 438.2 445.5 458 460.7 473.4 478.8 479.1 480.2 480 480.9 488.7 487.3 491.1 497.4 512.5 522.3 528.4 544 552.4 561 567.2 575.3 582.9 587.6 594.7 596.1 595.1 596 598.3 601.4 604.3 614.3 620 618.2 606.8 593.7 582.4 582.4 588.3 592.1 605.5 611.4 614.6 611 608 609.6 604.7 595.7 567.3 570.1 576.8 581.1 584.9 586.4 583.2 581.9 579.6 574.6 560.4 548.5 529.5 513.5 498 482.7 471.1 457.7 447.9 443.7 444.3 455.5 476.7 496.7 518.1 539.8 555.3 568.7 574.4 576.7 576.6 576.5 574.5 574.2 574.3 574.3 569.8 571.1 563.8 562 539 512.1 484 453.8 414.5 375.8 337.8 302.4 275.5 253.4 226.3 203 183.2 161.2 136.8 122.8 117.5 116.3 115.9 116.7 122.4 120.9 119.4 121.1 126.4 130.6 136 143.2 154.5 169.9 190.5 213.1 237.2 265.9 293.9 323.4 354.8 387.4 419.6 454.7 487.8 508.6 518.2 522.3 524 523.3 521.4 517.5 513.7 503.8 493.5 485 482.7 475.1 465.3 454.1 444.2 433.5 426.6 418.4 414.4 410.9 408 404.6 398.8 379.7 373.4 370.9 366.8 362.1 357.8 349.6 329.3 312.3 297.2 283.1 269.5 255.4 242.1 231.7 220.4 208.4 194.9 182.6 166.3 155.5 149.6 146 145.7 133 133.8 145 155.9 167 181.8 198.6 217.1 236.2 253.5 273.4 297.1 321.5 336.5
405.1 405.1 404.8 411.7 418.3 424.1 429.2 435 444.7 454.8 462.8 470 472 477.2 481.2 482.9 482.9 484.2 486.7 491.8 497.2 501.5 510.5 517.1 524 534.8 543.4 551 555.4 559.2 567.5 569.9 571.6 573.6 571.9 571.6 570.9 571.1 574.3 586.1 597.1 597.9 588 577.9 565.1 551 554 558.6 568.7 585.7 590.6 604.7 603.1 600.5 605 599.2 586.1 565 551.6 564.3 565.7 568.6 569.6 569.1 566.2 566.6 555.1 535.7 515.6 505.6 490.6 477.3 467.3 451.6 436.7 428.9 427.8 430.7 453.2 478.4 499.3 521.2 535.5 546.4 551.8 553.5 553.9 556.8 557 557.7 557.9 560.8 565.7 566.8 569.7 568.8 568.3 556.8 528 498.7 469 433.3 399.2 365.2 331.5 301.7 273.9 244 218.3 194.3 172.9 154.7 136.6 121.4 116.7 115.2 115.6 116.6 121 117.2 121.1 125.5 127.3 132.4 140.2 150 162.7 180.9 202.6 228.7 252 281.7 311.3 343.2 375.9 410.3 443.5 474 491.8 507.4 511.2 514.5 511.9 509.9 508.5 501.1 492.5 473.5 469.2 472 469.7 460.3 451.5 444.2 435.4 434.9 435 437.9 442 443.8 445.1 438.5 425.5 418.9 416 410.6 409.9 404.4 381.5 358.3 340.6 323.6 307.7 292.5 277.6 264.5 250 236.7 222.4 207.8 191.9 173.4 157.6 150.3 143.2 138 131.8 135.7 145.3 155.1 166.4 178.7 194 213 234.4 253.1 278.5 306.3 332.7 358.1
415.2 416.9 420.2 427.4 433.1 439.4 443.5 449.9 461.4 471.5 485.6 486.5 491.1 492.6 493.2 491.1 492.1 491.9 499.1 512.4 519.2 512.6 517.9 521 532.3 540.4 541.2 538 529.4 543.5 545.2 542 547.4 552.3 550.4 548.6 548.2 545.6 551.8 562.1 571 567.3 558.7 547.9 535.2 528.2 526.3 527.4 535.1 553.3 571.9 579.1 583.9 586.8 587.2 589.1 567.7 548.4 546.1 548.8 550.1 552.9 550.7 546.8 541.1 538.1 522.5 501.6 487.5 475.3 462.6 453.5 442.2 428.5 416.3 411 406.6 427.7 454.1 479.7 502.6 516.8 526.1 529.8 530.4 531.3 530.5 530.4 530.3 533.8 533.9 537.7 541.9 547.8 556.6 565.9 566.8 568.6 540 508.4 478.6 448.8 417 388 353.5 324.4 292.9 261.7 233.6 210.6 188.2 167.1 148.7 131.7 117.4 115.6 115.4 115.8 120.4 117.4 120.8 122.5 124.4 129.2 136.6 146.1 157.2 173.4 194.1 218.8 242.8 272.1 301.1 333.5 368.5 403.5 434.8 457.2 473.8 488.3 489.2 495.5 500.4 502 493.9 484.3 472.5 456.7 449.2 459.2 461.1 451 446.7 438.9 437.6 440.3 449.2 457.8 465.2 467.8 466.2 460.4 458 455.8 451.1 449.4 442.6 428 408.3 387.5 367.6 347.2 327.9 310.3 294.6 278.6 262.6 247.1 229.4 212.7 195 177.1 161.6 152.1 145.1 136.1 130 132.6 143.3 152.7 165.2 176.5 190.7 210.1 231.2 254.1 282 311.6 342.4 371.9
429.4 429.8 436.7 445.8 452.8 457.9 460.3 465.5 474.2 492 498.6 501.3 499.5 498.7 500 500.5 500.7 502.1 510.6 518.9 527.3 521.5 526 530.2 537.8 529.1 516.5 506.3 497.7 509.7 508 508.2 516.6 527.6 520.7 522.3 522.1 518.8 527 537.7 543.5 537.7 524.8 511.3 504.8 498.6 495.4 495.3 512.7 525.3 544.1 556.7 564.3 568.7 567 568.6 561.2 534.1 531.3 534.8 536 536.2 534.8 530.6 525.4 512.2 498 478.5 461.8 449.9 439.1 430.6 415.8 399.8 390.4 389.6 398.3 425 457.1 479.9 494.9 502.6 509.1 511 509.4 508.2 507 502.4 502.6 507.4 509 511.9 515.6 525.1 538.6 548.9 560.3 566.6 549.4 519 487.8 457.8 429.4 399.3 371.3 341 309.2 279.6 251.6 224.8 202.6 180.7 160.8 141 124.8 117.6 114.9 114.9 115.8 118 116 119.6 121.4 126.1 133.2 142.9 152.9 166.7 184.2 208 233.2 261.9 290.8 319.3 355.6 390.7 420.6 440 454.9 461.5 456.1 464.3 477 490.7 486 473.6 455 438.9 429.4 443.5 448.9 440.3 434.4 428.2 435.6 445.2 458 473 479.2 478.3 474.2 471.5 475.6 471.8 464.9 457.1 444.5 432.8 422 400.5 377 353.6 333.9 316.1 297.3 281 264.6 248 229.3 213.2 195.7 179.1 166.5 154.2 147.9 140.1 131.4 130.7 138.1 149.3 159.3 171.9 186.1 206.8 230.8 259.6 288.8 319.7 349.9 383.5
436.7 435.7 446.9 458.3 466.3 476.6 484.6 491.8 487.2 498.5 504.8 505.9 503.9 504.7 506.3 510.6 511.6 511.8 516.5 521.7 526.7 528.1 529.9 531.4 519.6 504.4 490.5 476.7 464.9 473.8 473.2 474 482.8 492 485.6 488.5 494.1 492.7 499.6 511.3 512.6 501 488.3 478 472.5 467.8 465.6 470.7 484.6 501.9 516.3 532.4 544.5 546.8 546.6 546.2 549.4 525.7 517.7 514.8 513.2 509.9 505.5 502 494.4 489.6 473.2 458.4 447.6 427.4 416.3 400.5 381.1 375.8 372.1 374.6 396.5 429.1 453.3 469.3 478.9 486.3 489.4 488.4 486.6 484.2 481.7 478.8 477.8 480.4 484.4 487.3 493 505 519.5 536.9 549.5 553.7 546.9 534.6 504 471.5 441.5 412.1 383.1 353.9 324 298.7 268.9 242.7 217.3 195.4 174 155.6 135.8 125.9 120.9 114.6 114.7 114.3 114.3 118.3 119.1 122.6 129.6 139.1 148.7 159.6 176.2 198 222.3 250.8 279.9 307.9 342.3 375.1 399.7 413.2 429.6 429.7 419.4 427.6 447.6 472.1 475.7 462.3 446.2 424.9 413.2 433.2 432.2 428.4 419.5 418.2 427.4 443.8 464 483.8 484.5 480.5 475.8 479 477.1 470.5 462.4 452.8 443.6 429.1 411.9 389.7 368.6 346.5 329 311.1 292.6 276.8 259 242.9 226 212.4 196.6 181.3 165.3 153.4 147 140.1 129.8 133.4 142.3 150.8 162.3 173.2 187 206.8 231.6 262.3 292.3 323.5 356.8 393.1
434.7 436.8 442.4 456.7 472.9 484.8 497.5 504.1 502.2 497.9 501.8 507.2 508.7 513.3 516.2 515.5 518.2 520.3 526.4 534.3 533.5 534.5 529.9 520.3 503.2 483.7 465.3 446.6 441.2 445.7 443 442.4 451 453.9 455.2 453.4 458.6 461.2 478.2 490.3 488.2 473.5 458.4 449.2 443.6 441.6 433.2 443.2 456.5 478.1 494.5 507.1 519.9 526.3 527 525.9 529.1 529.9 501.4 485.3 473.2 476.6 473.5 469 460.7 451.1 441.7 434.2 425.8 408 389.1 374.4 359.5 353.3 354.6 368 399.2 427.5 442.7 454.8 461.4 468 469.5 467.2 463.5 459.1 455.5 454.4 452.4 453.5 460 465 477.8 489.3 508.9 520.3 524.2 525.5 526.2 521.9 514.5 491.6 461.5 428.7 399.2 370.9 342.8 314.7 287.6 260.2 234.7 210.1 189.4 168.1 149.3 135.1 125.1 120.2 114.2 113.8 113.9 117 117.9 118.9 125.4 134.4 143.3 151.2 163.8 183.4 208.4 236.2 266.3 292.6 327.7 352.5 374.7 384.9 397.3 397 383.5 389 411.7 446.6 453.1 447.6 432.3 408.5 399.3 424.4 419.5 413 401.6 408.9 426 448.9 473.4 486.5 482.8 473.8 474.6 472.9 468.5 460.7 453.9 442.1 431 415.7 395.8 374.6 353 333.5 315.8 298.4 282.4 264.2 251.2 236.5 222.7 210.5 196.1 181.8 165.2 152.8 144.7 139.8 130.1 135.1 143.2 151.4 164.5 176.9 190.3 208.4 231.5 260.8 291.9 325.8 359.7 398.8
423.4 430 437.7 449.8 465.4 479.8 498.9 501.9 500.9 486.7 493.4 499.5 508 516 518.1 522 531.4 532.7 545.3 547.4 549 533 514.1 500.8 479.2 461.5 443.3 420.3 409.5 414.6 413.9 414.7 422 428.3 424.6 423.3 426.1 432.5 461 472 467.5 447.7 432.4 423.9 418.2 414 409.8 417.6 436.3 456.2 474.2 481.6 493.6 496.3 496 496 502 508.1 485.1 441.6 443.4 442.5 439.8 433.8 424.7 416.1 412.8 409.9 406.2 388.2 369.7 352.9 339.6 335.7 339.1 365.6 393.7 415 427.6 438.1 444.8 449.7 449.4 445.7 439.8 436.1 430.9 426.6 423.2 424 433.9 442.5 457.8 478.5 494.7 495.3 497.5 499.7 501.2 501.3 496.6 496.4 480.2 450.8 419.4 388.5 359.9 332.7 306.2 278.9 251.8 225.6 202.7 182.1 164 143.3 131.9 124.3 115.8 113 115.2 115.5 116.5 117.5 121.6 129.8 136.2 141.5 155.2 174.9 198.5 221.2 250 278.5 309.9 332.8 348.7 357.7 364.9 363.3 351.4 357.4 383.7 417.1 428.9 433.5 419 394 391 406.9 403.1 397 389.5 406 430 456.2 476.8 476.9 468 461 461 459.8 459 452.7 443.7 431.8 417.6 401.2 381.3 357.4 334.8 313.9 293.9 275.3 256.5 242.3 233.4 224.3 215.4 205.6 194.7 181.2 166 151.3 144 138.2 129.4 134.2 145.4 154.6 167.5 179.3 193.5 212.9 234.2 264.7 295.7 326.6 360.8 397.5
402.5 413.6 426.2 437.2 450 462.8 478.9 478.9 475.8 467.7 473.9 487.8 503.7 507.7 510.9 519.8 530.6 538.2 556.5 558.7 541.7 519.2 500.6 476.5 457.2 440.3 418.7 396 380.6 383.7 385 388.8 392.1 400.9 397.2 396.1 400 419.7 446.5 459.6 447.6 426.1 410.6 400.6 394.4 392 383 392 414.1 435 445.1 454.7 462.3 467.4 467.6 467.7 473.9 482 462.7 431.2 409.3 410.1 403.2 396.6 392.3 388.7 386.7 390.6 386 368.9 350.7 332.9 320.2 319.1 338 360.2 385.7 402.7 412.7 422.2 428.5 429.8 428.9 424 417.2 404.5 402.4 397.6 392.2 392.6 406.7 428.8 452.4 470.1 471.2 467.8 471 473.4 475.8 476.4 475.4 476.4 476.9 468.6 442.9 411.9 379.8 350.9 324.8 297.7 273.4 243.6 218.2 197 174 156 139.9 128.4 117.6 114.5 114.1 114.3 115.1 116.1 117.9 124 129.6 139.2 152 167.1 186.4 207.6 234.8 261.9 291.2 313.6 329 331.5 332 331.2 318.8 329.2 353 386 397 414.5 403 376.7 378.5 391.4 387.4 375 386.9 406.6 429.9 458.4 462.7 455.2 446.4 440.9 446.5 457.2 456.3 448 437.9 424.9 404.4 380.5 360.9 338 314.4 294.6 272.4 249.3 231.6 218.8 211.1 209 205.9 198.6 188.1 177.9 163.9 149.1 137.8 133.2 125.5 134.9 142.2 154.5 169.2 180.1 194 214 238.2 267.2 296.5 324.9 358.9 392.6
386.6 399.8 406.2 416.7 430.8 444.1 457.8 458.6 455.6 447.7 444.1 464.9 474.6 487.7 499.6 509.8 517.5 537.4 556.8 552.2 537.2 520.3 493.7 467.9 438.4 414.3 394.5 376.2 350.7 350.2 353.1 360.5 364.7 367.6 368.6 365.9 379.3 405.2 432.6 446.6 433.4 410.3 384.9 373.6 371.2 364.8 355.6 378.2 391.6 406.9 417.6 427.9 434.5 437.4 437.4 439.4 445.4 449.9 444.3 412.9 376 375.7 372.3 371.6 368 365.4 367 368.7 362.9 348.3 330.6 313.1 302.2 307.6 331.2 354.9 371.3 384.6 395.7 404.4 410.1 410.8 407.1 401.4 394 380.2 368.2 368.1 359.9 370.2 399.3 423.9 442.1 446.1 441.5 438.4 441.5 445.8 449.6 451.2 451.8 452.8 456.2 460 459.4 434.1 401.7 371.2 341.2 320.2 292.3 261.9 235.5 211.1 188.7 167.6 148.1 136.5 124.8 114.2 114.5 114.8 115.3 115.5 116 119.1 125.7 134.6 143.9 158.8 175.4 199.6 223.9 246.3 273 297 309.9 304.9 304.2 301 288.7 300.3 326.7 345.8 369.8 392.9 384.3 360 374.4 377 365.9 368.9 387 405.8 426.3 439.7 437.9 433.3 426.5 415 426.2 445.5 453.4 447.1 437.8 423.7 405.8 383.2 347.6 309.2 300.1 272.5 256.2 244.2 223.1 220.6 208 195.1 186.4 184 175.4 169.3 160 145.8 137.3 131.5 127.6 138 147 156.4 169.7 183 197.1 216.7 240 266.8 293.4 320.3 354.7 384.9
364.1 375.3 383.2 397.5 411.1 422.6 432.8 438.4 431.7 424.7 427.3 442.5 449.3 468 481 492.8 508.1 525.3 541.3 541.2 530.8 515.4 493.7 462.4 433.8 402.9 368.5 356.7 332.2 316.4 326.5 335.5 340.1 341.9 346.7 348 364.7 391 419.7 430.5 418.5 394.9 375.1 348.9 347.1 343.5 337.8 356.3 366.2 379.9 389.6 398.2 406.3 408.6 409.2 410.8 417.3 417.8 413.3 405.8 389.5 369.9 341.7 345.5 346.2 345.3 345.4 349.4 341.8 329.9 313.5 295.1 284.7 294.9 317 337.9 353.5 365.2 374.4 383.4 387.5 389.1 384.8 377.4 369 356 346.5 337.4 327.6 361.9 393.1 419.1 426.3 418.8 411.6 409.3 415.8 419.5 423.2 426.2 427.6 430.3 434.7 442.5 446.4 443.3 416.4 391.4 363.9 338.7 311.5 281.2 253.9 228.9 202 179.4 162.9 145.9 133.8 121.9 113.5 112.3 114 113.4 114.8 116.4 122.3 126.4 138.3 152.8 167.9 189.2 209.9 232.3 258.1 279.6 288.4 279.9 276.2 271.3 262.5 278.5 299.9 316.7 339.9 361 358.5 341 369.3 358.2 352.7 370.2 383.5 399.8 412.5 417.1 417.9 415.1 401.2 387.9 402.4 425.4 444.5 444.8 435.7 421.9 406.8 390 368.1 335.7 311.8 296.4 272.9 255.4 243.9 239 229.6 217.6 204.4 190 171.5 154.6 150.7 138.4 134.2 130.3 128.2 139.9 149.7 157.8 166.5 181.9 202.3 222.7 243.4 258.8 284.2 321 356.4 377.8
357.4 358.8 363.2 373.1 388.8 400.4 409.3 411.4 407 401 405.5 412.5 424.3 441.5 454 477.5 494.9 514.9 526.8 523.7 519.8 508.9 492.8 468.2 434.7 400.9 368.5 328.9 306.9 293.3 303.9 313.4 318.2 320.1 326.1 329.9 352.6 381.4 407.4 419.8 406.2 385.8 365.8 341.6 323.5 320.7 322.8 331.8 340.9 353.1 365 374.4 376.4 378.3 378.1 379.4 383.4 386.1 382.5 376.6 368.3 359.7 352.7 324.8 320.4 320.1 323.8 318.8 308.9 306.4 288.5 273.6 265.8 280.7 302 317.9 331.4 343.2 353.3 358.8 362.3 364 362.6 353.3 343 326.7 319 305.4 322.8 356.5 386.9 410.7 401.7 390.7 382.4 381.5 387.9 393.2 396.9 397.4 399.2 404.2 410.6 422 433.4 441.2 431.8 403.5 378.9 354.7 328.4 300.9 273.8 246.5 221.4 198 175.3 158.2 144.9 131.9 117.1 112.4 111.1 112.1 113.2 114.5 118.1 123.7 134.8 147 160.8 176.7 194.3 218.2 242.9 260.1 266.1 253.1 248.5 242.1 232.2 251.9 267.4 282.8 299.9 319.9 333.7 343.5 359.4 338.5 352.7 362.6 374.3 386.8 394.8 399.6 401.9 400.2 382.2 366.7 384.2 407 432 435.5 429 417.7 404.7 390.6 372.9 350.6 329.9 313 294.3 282.3 275.4 264.1 253.1 235.7 222.9 207.2 186.8 167.5 150.6 142 132.8 128.7 124.1 141.2 153 162.9 174.5 189 209.4 232.9 262 289 308.9 327.8 363.4 394.7
357.9 357.7 357.5 359.1 368 375.1 381.8 381.5 378.5 376.4 381 389.8 401.5 412.1 443.4 468.1 479.2 491.1 504.6 506.3 508.7 499 483.5 465 438.9 403.2 368.7 335.5 306.6 284.3 287 298.6 302.5 302.2 306.1 319.7 345.8 371.9 389.9 397.9 390.5 378.3 357.8 332.5 308.7 307.6 302.8 306.5 314.6 328.3 340.4 341.1 344.1 347.2 348.1 350.9 352.5 354.4 352.2 348 344 341.1 337.3 329.2 323.7 310.9 288.9 282.9 282 278.2 266.8 254.1 246.7 264.6 278 297.7 310.4 317.9 323.1 330.1 336.2 335.4 335.6 330.7 317.1 299.2 291 279.7 318.5 351.3 382.4 393.6 375.6 364.3 354.7 351.8 357.6 363.3 367 367.1 371.7 377.5 390.6 405.5 426 439.4 450 425 396.7 370.5 347 321.1 294.9 269.8 243.3 214.7 192 169.1 153.3 139.8 128.5 113.1 111 111.4 112.5 113.2 114.6 121.9 132 141.4 152.6 165.3 180.2 201.9 228.3 242.1 238.5 229.5 221.9 210.2 233.3 251.9 267.9 297.9 318.7 326.1 340.1 356.2 352.1 328.4 342.4 352.9 362.4 373.9 381.9 387 388.8 386.7 364.2 351.3 372.6 397.4 425 425.7 418.6 409.8 397.9 383.1 368.3 350.6 333.4 319.1 303.5 294.8 283 268.6 255.3 241.5 225.1 205.1 182.9 161.2 144.5 133.9 130.3 127.5 124.9 141 153.3 165.5 178.3 195.8 215.3 241.5 272.1 302 333.6 359.2 377.9 396.5
360.4 359.9 359.3 360.7 361.8 363.9 367 366.9 363.3 355.7 356.2 363.6 373.9 395.8 421.2 437.7 447.8 460.9 478.9 491.3 497.3 486.8 477.1 460.9 435.2 402.4 369.3 335.2 308.4 282.4 279.8 286.6 286 283.9 291 311.7 337.4 354.8 373.3 381.5 377.6 369.5 350.2 329.5 302.8 290.1 285.4 282.8 289.9 305.4 311.8 311.9 314.2 317.6 319.7 322.5 325.9 328 327.3 325 323.8 320.5 318.1 316.4 312.4 303.5 300.9 292.1 265.7 250.1 239 234.5 232.5 248.5 260.6 269.1 277.8 287.6 293.4 298.7 307.9 310.1 313.2 305.6 292.4 276.1 260.6 279.8 314.9 345.4 373.2 374.3 356.8 330.2 323.8 320.7 327.9 332.7 335.6 335.8 343 352 367 397.2 418.6 435.9 446.7 445.7 418 391.6 367.8 343.7 310.7 292.4 266.1 238.2 211.2 184.8 163.7 148.7 136 124.4 116 110.6 110.6 111.4 112.4 117.2 126.6 136 145.3 155.5 170.7 185.9 210.8 224.1 219.5 209.4 199.9 218.4 246.4 277.3 315.8 335.4 352 352.3 355.7 356.3 346 319.4 332.9 343 351.4 359.9 369.1 376.4 377.7 373.7 355.2 338.1 363.3 390.8 415.9 417.5 409.6 401.2 386.5 372.6 359.8 344.3 330.3 313.6 299.8 289.4 277.7 263.4 250.8 234.7 218.2 194.3 173 153.4 140.2 125.9 123.7 123.7 133.8 142.9 156.9 170.5 183.3 200.6 221.7 249.8 278.9 307.7 341.7 374 401 424.1
367.2 367.4 365.1 360.9 361.9 361.7 357.4 355.4 349.9 344.3 333.9 341.7 357.3 373.7 390.8 406.3 416.4 433.4 448 461.9 477.4 475.5 471.4 458.3 427.8 394.8 364.1 334.1 306.4 283 273.8 277.9 273.3 269.8 279.8 303 324 337.2 352.2 358 363.1 357.9 345.8 327.7 303.3 280.3 273.1 269.4 272.2 278.9 280.6 284 287.8 291.1 291.6 296.4 301.2 301.6 300.1 299.8 301 300.7 300.6 296.9 294.1 288.3 285.2 277.5 257.3 239.4 214.6 209.2 214.7 229.3 237.6 246.7 255.7 263.5 269.4 273.9 280.9 284.5 287.3 282.7 270.3 251.9 250.5 281.5 313.7 343 354.4 348.5 335.2 311.2 291.4 289.3 297.8 303.4 305.1 305.4 312.4 333.6 367.7 391.5 415.5 430.5 444.7 450.2 436.2 412.8 388.3 360.1 339.9 315.2 290.9 262.5 232.3 204.6 179.9 160.5 144.4 131.5 124.3 117.4 112 110.8 110.2 116.7 123.9 130.7 139.7 148.9 160.3 172.5 193.2 203.9 201.5 190.3 200.2 222.4 250.5 286.1 330.2 341.2 342.4 345.2 347.1 346.9 333.4 302.7 322 331.3 338.8 349.7 361.6 366.6 366.3 362 340 332.6 359.3 386.1 405.9 404.4 400.8 389.1 375.7 361.5 349.8 332.9 318.4 301.8 289.1 277.7 269 254.1 241.7 220.4 199.6 180.8 163.4 149.6 136.7 122.9 123.8 129.4 138.8 150.3 162 173.7 187.7 203.3 228.3 256.2 284.7 311.7 343.2 376.2 407.2 435.4
377.9 378.2 377.1 370.2 365.2 359.8 353.7 345.5 337.3 330.2 323.8 323.5 335.6 343.6 358.2 374.6 386.2 406.4 418.1 429.5 446.5 455.4 458 450.5 425.9 392.4 363.1 334.9 307.8 281.4 269.5 273 268.1 262.9 273.4 291 305.7 316.8 327.9 335.5 343.9 346.2 340.4 332.3 316.6 289.4 265 257.3 257.1 257.9 257.4 257.8 261.9 263.5 265.6 273.1 273.8 275.6 278 280.6 282.5 282.7 277.8 269.7 265.9 262 255.9 250.8 237.5 222.8 211 192.7 198.6 209.5 217.1 224.2 231.8 237.9 243.3 249.1 255.4 260 262.9 260.4 249.1 231.9 253.4 282.7 311.6 330.6 334.3 327.9 310.2 288.7 267 261.2 264.9 275.9 276.7 296.1 323.5 347.8 370.4 393.5 416.8 436.8 453.2 456.5 439.2 419.9 397.9 380.1 365.6 338.7 313.3 284.1 257.6 225.6 198.4 175 156.3 142.2 130 121.6 117 113.3 109.6 113.5 123.9 130.3 134.6 143.1 152.1 164.5 178.5 184.5 186 181.4 198.1 219.6 249.7 284.4 321 325.3 327 336.8 338.5 332.8 316.3 291.5 312.1 320.7 330.6 345 354.1 357 355.7 350.6 332.6 326.6 355.8 383.7 392.8 390.5 387.3 375.9 359.8 344.8 334.5 317.7 302.2 287.4 274.5 263.1 252.4 237.5 221.6 203.9 186.8 168.6 153.3 142.8 130.6 121.1 127.7 131.3 139.1 151.5 163.7 174.1 187.8 205.6 233 262.1 289.1 316.7 345.8 374.8 405.8 437.8
395.8 393.1 393.5 389.1 383.2 370.4 355.1 341.6 327.1 321.3 317 315.7 316.8 320 332.2 343.4 357.6 370.8 382.7 395.5 413.5 421.2 429.4 435.4 429.2 399.4 369.6 342.3 315.9 287.9 264.5 266.4 263.7 259.2 262.1 277.1 289.7 299.9 308 316.4 324.5 328 329.1 325.1 320.1 303.1 273.5 249.8 245.8 240 234.5 236 237.8 239.2 243.5 247.8 252.3 255.9 258.8 261.6 263.4 247 241.7 238.8 237.3 234.6 226.5 220.6 212.9 204.4 193.7 181.9 178.5 187.6 199 202.8 211 215.8 222.6 229.1 231.2 235.5 238.4 238.8 228.5 226.1 254.4 283.7 296.4 303.5 305 301.3 285.8 268.2 246.1 242.1 260 277.9 297.1 318.1 340.4 363.5 386.2 407.4 427.9 450.5 475.1 466.8 444.5 425.1 407.3 391 374.1 355.1 331.7 309.1 277.3 247.5 216.8 190.7 170.4 151.8 139.6 129.2 122 117.5 112.3 107.4 118.4 123.3 130.3 138.3 146.8 154.2 163.2 170.9 173.8 173.6 191.4 212.6 237.1 258.9 291 303 307.8 320.1 328.7 316.6 295.7 284.1 303.8 315.7 327 339 347.1 347.6 344.9 338 309.4 325.9 353.3 373.2 381.3 376 368.6 357.7 342.7 327.1 315.2 299.9 284.9 271.7 259.3 248 237.4 220.4 206.1 191.9 175.2 158.6 145.3 137.6 125.8 121.2 126.9 131.5 141.1 153.4 163.4 175.5 190.8 206.2 231.4 261.5 288 315.2 343.2 372.4 402 435.9
423.7 419.7 414.9 414.9 412.1 398.4 372.5 347.6 335 319.1 311.5 309.7 311.4 311 310.2 313 330.3 340.7 352.1 363.5 374.9 385.5 398.1 405.3 418.2 408 381.8 356 326.6 297.7 273.5 260.1 259.8 257 251.5 266.6 274.4 282.3 289.1 295.3 303.3 311.1 314.3 311.2 314.8 312.9 284.2 249.3 230.6 225.6 220.2 216.6 217.4 220.2 224.5 230.4 229.1 230.2 232.9 230.7 220 218.8 216.3 215.6 212.9 208.3 205.1 198.9 193.6 185.1 176.9 165.3 163.2 172 181 186.9 192 197.8 203.6 209 212.6 216.1 219.9 220.7 209 225 254.3 266.5 272.5 277.8 279.1 278 264.4 247.9 227.8 253.8 279.7 304.1 321 339.8 363 384.8 405.5 425.5 445.9 468.1 490 478.6 454.8 434.5 418.6 403.9 388.9 371.1 352.3 330.5 299.3 264.1 231.2 204.2 182.8 161.8 148.4 134.4 124.6 118.8 113.6 108.7 110.3 115.7 124.5 132.9 141.2 147.5 153.4 155 162.9 173 184.2 200.1 222.2 241.1 260.5 279.7 286.1 310.5 311.4 299.3 274.5 281.8 296.7 306 319.1 332.2 339 338.2 334.7 323.7 298.6 322.6 345.2 358.4 369.7 361.3 352.3 340.1 325.9 311.3 296.2 281.8 269 252.5 242.5 231.5 220.1 207.7 192.3 178.4 164.9 150.7 140.8 130.4 123.1 120.6 127.2 133.5 139.1 151.2 162.5 179.4 199.6 224.2 249.4 265.3 292 314.4 335.6 366.9 396.5 430.3
448.2 446.6 448 440 436.7 428.9 408.7 368.2 344.3 328.1 313.4 305.6 303.8 303.3 298.5 299.2 307.2 317 326.3 329.9 341.6 355.1 365.3 376.8 394.1 402.4 389.5 362.1 335.1 307.4 282.5 260.7 252.8 252.9 246.8 253.9 260.8 268.4 274.2 277.3 281.9 287.2 293.6 291.6 290.3 282.7 269.3 247.6 220.8 211.5 210.5 200.4 201.7 203.7 206 208.7 207.2 209.1 208.6 209.1 204.2 199.3 198.2 196.9 194.1 192 187.8 182.1 176.3 168.3 160.7 154.7 151.8 160.6 166.9 172.6 176.5 180.9 187.3 189.2 195 196.7 199.6 202.2 201.5 219.9 233.9 243.5 249.3 252.1 255.1 255.9 241.5 219.2 235.5 262.5 289.4 317.8 345 366.5 387.8 409 431.5 450.1 468.9 491.3 509.3 494.4 469.4 450.4 436.2 422.3 408.3 391.5 372.2 348.9 320 284.1 250.8 220.4 193.6 169.6 153.1 138.9 127.8 119.9 114.7 109.3 107.2 113.3 121.6 127.3 135.1 141 144.3 150.1 160.2 166.4 176 190.8 206.6 222.4 239.5 255.1 268.1 293.4 293.6 285.8 258.7 274.6 285.2 293.3 309.5 326.1 332.4 329 322.9 308.6 293.4 321.1 335.2 347.1 355.3 352.1 338.3 325.1 308.1 293.6 278.3 264.9 250.9 236.6 224.5 214.6 203.5 191.6 180.3 167.3 155 142 132.5 125.2 122.6 120.3 129.1 136.7 146 156.7 172.6 190.5 214.3 242.2 268.8 292.1 317.1 339.2 355.5 374.5 395 422.8
466.6 472.1 478.1 478.1 471.6 458.1 438.9 393.9 364.9 342.7 327.5 316.4 302.6 298.1 295.6 291.4 289.2 293.5 302.4 307.2 315.5 323.3 337.5 349.7 365.4 383.3 387.5 368.2 342.3 314.1 289.2 264.5 247.6 246 241.2 244.9 249.3 253.8 259.8 264.3 266.4 267.4 269.3 272.1 274.3 269.2 250.4 234.2 210.9 195.1 194.4 190.8 189.8 189.9 190.3 190.8 190.8 189.9 188.5 189.5 186 183.5 183.5 181.4 179.2 176.6 173.3 168.5 163 155.1 148.3 144.4 146.9 151.3 158.1 160.6 164.2 165.7 170 175.1 177.9 172.9 182.2 181.9 190.8 204.6 214.1 220.6 225.5 229.2 234 233.5 219.7 220.1 246.2 272.6 301.1 331 357.7 377.3 398.3 426.2 449.6 475.8 498.6 520.3 525.2 518.2 495.7 475.4 458.6 444.8 432.3 412.9 390.6 362.2 330.7 298 265.5 234.6 208.5 181 165.1 150 135.8 124.4 114.4 108.5 106.4 111.1 119.4 123.3 129.1 130.9 130.8 143.1 147.1 156.5 168.9 178.1 191.3 204.8 218.1 230.6 246.5 269.3 277.6 273.4 247.2 261.4 273.5 292.1 310.9 323.4 323.5 316.7 307.7 288.8 299.2 316.6 336.5 343.3 345.4 338.1 326.4 309.4 291.3 271.5 259.1 245.9 235.3 223.2 208.9 200.3 190.3 179.7 168.6 156.8 144.4 134.9 128.3 122.1 120.2 124.6 133.8 143.3 153.6 166.1 182.9 204.5 230.7 258 285.9 313.3 338.6 360.7 381.2 398.3 420.5 433.5
494.8 487.8 498.4 496.4 507.4 495.2 455.4 413.5 382.1 359 342.8 328.2 312.8 294.4 285 282.8 276.7 274 280.2 288.4 296.6 303.5 313 324.1 339 356.7 366.7 361.4 348.7 322.9 297.8 268.8 241.3 240.8 240.4 233.5 238.3 240.9 243.3 245.1 246.2 247.5 250.1 252.6 254.6 241.9 229.3 214.8 196.3 186.1 185.5 183.5 179.6 176.7 176.3 176.2 175.7 172.5 174.1 175.4 174.2 173.4 171 170.4 168.2 165.4 161.6 158.3 155 147 139.5 139.6 140.9 143.4 147.1 149.3 149.7 150.1 154.8 160.4 160.4 158.8 167.5 163.5 175.4 187.6 195.9 202.2 207.8 210.7 211.6 210.7 202.6 229.4 256.9 286.8 319.2 340.9 359.5 379.8 403.3 430.3 455.4 483.1 510.7 532.3 531.6 528.9 525 508.1 492.2 475.5 450.2 423 394.6 363.4 333.4 301.5 272.1 247 224.2 201.6 182.6 162.4 146.8 132.6 119.7 109.5 106.6 108.8 114.8 117.8 121.7 121.8 124.9 135.9 147.9 170.3 179 178.6 181.8 192.6 201.4 215.1 227.7 243.7 255 256.3 257.1 250.9 270.9 290.2 311.8 316.7 312.9 306.4 295.2 283 302.4 324.7 332.5 335.2 330.7 321.3 306.9 290.4 272.5 254.1 238 229.4 216.9 208.4 196.6 184.1 176.3 165.8 157.7 148.2 135.9 128 124.2 118.8 121.2 131.4 141.4 151.2 160.9 174.9 193.1 218.5 246.1 274.5 301.2 329.9 354.6 372.6 388.9 402.1 416.3 422.3
507.6 515.5 512.5 508.9 519.5 515.5 472.2 434.4 400.2 378.1 362 347.1 327.1 308.5 293.9 282.4 272 263.4 263.9 269.9 275.8 284.3 292.3 300.3 312.1 325.7 346.9 354.2 349.7 329 304.4 279.1 254.2 233.6 233.5 230.1 222.7 227.9 229 229.7 230.3 230.2 231.7 234 228.9 221.5 209.4 199 183.4 175.7 176 175.3 168.5 166.5 166.1 165.6 165 161.7 161.9 163.1 162.2 160 158.3 159.6 158.3 154.7 151.3 152.6 148.2 141 135.4 136.2 136.4 137.9 138.8 139.6 140.7 138.3 141.7 147 145.2 147.1 152.5 152 165.3 174.7 180.6 186.9 191.1 193.9 187.6 199.4 218.8 244.2 271.3 299.4 316.7 336 355.4 376.4 402.7 425.9 450.3 477.9 505.5 530.7 536.5 535.6 534.9 530.9 515.6 480.3 455.7 422.7 389.8 362.3 329.7 301.5 279.5 262.7 242.2 223.9 204.7 183.5 165.9 146.8 130.4 116.3 109.4 108.5 111.8 113.7 110.6 119.1 125.4 136.9 152.7 169.6 193.8 211.1 219.9 215.9 217.2 205.6 221.7 231.3 241.2 248.3 242.5 248.4 265 282.7 299 304 302.2 296.1 284 286.3 311.4 323.9 323.2 317.7 314.6 305 286.5 269.6 252.4 236.2 217.2 206.4 203.2 192.9 182 172 162 155.7 147.2 138.5 127.1 120.4 120.2 122.7 123.8 131 147.3 157.5 169 183.7 206.1 229.7 255.6 280.4 303.9 333.3 359.1 376.8 389.8 398.6 408.3 411.4
527.7 527.4 534.6 530.2 534.4 519.6 481.1 451.6 416.5 403.3 385.5 366.2 344.1 326.8 308.1 290.7 277.8 267.1 257.5 253.8 259 267 277.4 282.5 291.2 300.7 312.6 326.4 334.1 324.7 302 283.3 262.3 239.5 220.5 217.9 209.7 211.9 214.7 214 214.2 214.3 215.1 213.7 208.5 201.7 195.1 184.7 173.4 171.3 168 168 165.2 159 158.7 158.2 157.3 156 154.8 151.3 151.3 151.6 149.4 149.2 149.3 145.7 141.7 146.5 145.1 135.2 131.2 130.7 130.3 133.1 132.5 132 131.4 129.6 133.3 133.8 131 137.9 139 145 151.3 160.7 166.3 172.1 173.9 173.6 190 204.9 226.9 248 270.1 291.2 305.6 326.3 346.7 370.9 395.6 418 442.3 468.6 497.3 526.4 538.8 539.1 536.2 533.2 513 479.1 446.3 413.3 386.8 366.8 339.5 307.9 295 281.5 273.3 255.1 228.5 208.7 185.6 163.8 142.5 124.5 111.1 107.1 108.1 108 114.3 121.2 127.1 135.8 151.2 167.7 191.4 214 238.3 253.3 243.4 233.2 221.4 223.4 236.3 239.3 237.6 248.1 257.9 270.9 286.6 293.8 293 287.5 276 295.4 317.2 313.6 304.3 295.3 290.6 281.8 266.1 247.5 232.5 219.9 202.5 195.1 184.9 175 167.6 158.9 148.6 143.8 137 125.8 118.5 120.2 124.8 129.4 126.7 134.2 152.2 164.5 178.2 193.2 213.1 235.7 256.7 277.7 300.5 327.6 357.7 376.8 386.8 393.6 400 401
552.3 549.6 556.6 562.3 566.3 527.9 491.6 462.1 439.5 419.4 402.8 379.2 357.8 335.4 314.8 297.7 282.8 270.9 260.8 252.2 246.9 253.3 260 266.5 272.6 278.7 287.9 295.5 304.8 304.8 288.8 272.8 259.8 245.1 230.7 211.4 203.3 195.9 192.6 195.1 197.7 198.3 197.9 195.8 192.2 187.2 181.2 172.4 166.6 165.2 160.5 160.2 158.7 153.4 153.7 153.4 152.4 149 148.3 147.4 147.9 147.5 144.5 142.9 140.5 137.5 131.4 131.3 131.7 130.8 129 128.3 127.6 125.4 126.4 126.4 124.6 125.4 126.5 127.1 129 135.3 136 139.1 143.2 148.5 152.6 156.1 153.3 165.9 180.6 196 212.8 234.1 257.4 274.8 293.2 312.8 334.8 359.2 383 407.2 433.4 459.4 486.9 522.5 540.9 540.4 538 536.5 520.2 481.6 445.3 418.3 394.2 369.1 350.6 337.9 327.2 314.6 306.4 285.4 259.3 236.8 210.4 183.1 157.9 136.4 116.9 104.9 106.1 110.9 115.8 118.9 126.3 135.1 149.7 163.8 181.9 203.2 230.2 247.5 257.7 263.5 253.3 245.4 240 238 241 245.5 251.2 263.7 277.6 286.7 285.9 279.1 272.7 295.4 311.6 301.6 281.9 274.3 267.7 261.8 241.9 226.7 213.2 200.7 189.6 179.8 167.7 161.6 151.8 148.4 137.7 132 119.3 118.5 120.8 124.4 129.4 133.1 139.1 141.3 157.6 169.6 182 194.6 210.2 230.2 249.5 268.8 291.5 321.9 355.2 373.4 383.2 388.5 392.7 392.3
567.2 568.5 576.2 582 566.6 532.2 498.9 473.1 448.3 431.1 419.6 394.2 372.8 347.8 324.7 307.3 291 277.4 266.5 257.2 248.7 241.9 246.5 252 257.3 265.3 270.6 274.5 277.3 278.8 270.2 258.4 246.9 235.2 223.3 211.3 201.9 186 180.9 183.4 181.9 182 183.8 180.4 177 172.1 166.5 161.4 161.8 159.2 151.4 153.8 150.9 150 149.4 148.7 148.1 147.7 146.5 145.5 144.1 143.4 145.3 144.4 140.2 134.5 129.9 128.4 128.2 126.9 126.2 125.8 124.8 123.8 123.5 122.1 122 123.4 123.3 123.5 127.8 134.1 135.2 135.9 136.6 139.5 142.9 143.8 148.6 158.3 168.5 183.6 199.1 218 238.3 258.2 278.5 299.5 323.3 347 370.6 395 422.2 449.6 480 515.9 538.2 536.7 537.2 536 532.7 495.6 462.3 440 417.4 402.7 385.4 375.6 368.7 355.7 334.7 310.6 288.6 270.9 239.5 207.7 176.5 151.3 128.5 109.2 104.7 103.1 108.3 113.6 123.3 132.2 149.3 162.9 178.6 199.5 222.7 244 265.2 279.1 281.6 273.7 264.9 257.5 253.3 250.2 253.2 262.3 273.1 279.5 277.4 267.2 277.1 284.6 288.3 273.6 258 248.6 240.8 231.7 219.3 205.7 194.5 184.3 174 165.2 157.9 147.2 145.4 137.2 130.2 114.3 121.9 124 125.4 130.8 136.4 140 145.3 150.5 147.8 162.2 177.8 191.3 202.5 219.8 239.6 260.9 286.9 320.9 354.8 371.7 379.2 384.6 386.9 379.8
574.2 583.4 592.9 590.7 583.4 549.5 520.1 491.5 464.1 444.9 429.3 412.5 386.9 360.4 336.6 316.8 302.5 289.1 277.4 267.3 259.8 251.4 239.3 235.3 240 248.2 252.7 255.9 257.2 255.6 248 239 229 218.6 208.3 198.7 190.3 176.1 172.9 170.3 174.1 172.3 173.5 170.6 168 166.2 162.4 160.4 157.1 152.5 151.9 151 150.2 149.2 149 148.3 146.8 146.1 146.6 151.2 151.1 151.2 149.4 149.1 145.6 141.5 138.8 137.2 136.7 137 134.1 125.2 122.3 121.2 121.2 121.9 120 120.3 120.1 121.4 122.3 126.8 130.2 131.4 133 133.3 134.9 129.7 141.3 148.7 157.5 169.7 185.8 201.5 219.4 237.8 260 283.7 307.7 331.8 356.4 382.7 411.1 439.7 470.6 510.7 529.5 534.7 534.6 536.3 534.1 525 503.8 481.4 456.7 442.1 429.1 422.6 410.9 387.4 361.7 330.4 308.6 290.7 264.5 229.9 197.1 167.4 142.8 117.2 104.6 103.9 105.2 107.8 119.3 129.4 143.6 158.8 176.3 197.8 221.1 241.3 266.4 284 289 286.1 288.7 282.8 276.6 270.1 265 264.4 271.5 273.4 259.9 245.7 264.3 263.6 260.5 251 233.4 223.5 214.8 207.5 198 186.6 177.5 168.8 158.3 152 148.6 140.6 136.6 129.9 122.3 116.7 126.7 130.7 135.4 136.1 145.2 151.1 156.5 163.5 165 166.5 162.1 183.9 197.6 211.4 229.9 252.5 279.7 313.2 346.9 369.2 376.4 380.5 376.6 366.2
588.2 600.1 604.2 593.7 595.7 578.9 546.6 514.2 480.9 455.7 437.6 421.2 399.6 372.6 351.1 338.4 323.8 308 297 283.6 274.2 263.2 251 238.8 227.8 228.1 233.5 232.5 233.8 232.8 226.6 218.3 209.5 199.4 190.4 183.6 177.8 173.6 171.1 169.2 167.3 163.3 163.4 164.3 165.2 164.1 162.4 160.1 157.9 155.9 155.1 153.9 152.1 151.6 153.3 153.3 155.9 158.4 159.1 161.1 163.7 164.9 166.3 166 163.4 158.3 155.5 154.5 153.7 153.5 149.7 142.1 135.9 132 128.8 125.2 121.5 117.8 117.7 122.5 123.5 121 119.9 124.4 129 129.6 127.7 123.1 134.7 139.3 147 156.6 170.2 182.9 201.2 222.9 245.1 269 293.3 318.3 345 372.1 400.7 429 462.6 499.7 523.4 529.1 531.6 531.6 530.2 522.2 519.7 513.4 499.3 484 476.1 463.5 438.3 409.4 376.2 348.1 328.4 307 277.5 248.9 215.2 183 155.7 128.7 111.7 102.6 103.7 104.2 113.4 126.7 139.9 156.4 175.1 196.6 219.5 244.3 265.7 278.2 281.9 286.7 294.5 298.7 298.3 298.5 287.9 282.1 271.7 267.5 252.9 238.5 247.8 244 238.7 226.9 212.8 202.2 194 186.4 179.4 171.5 162.4 154.6 147.9 142.7 136.1 129.9 126.9 123.7 118.4 121.3 127.9 133.7 140.1 147.1 153.2 161.4 169.6 175.8 182.1 185.2 180.4 176.1 183.2 202.4 220 236.5 263.9 295.8 327.3 360.6 372.4 374 357.9 344.6
602.1 610.4 592.5 595.2 584.1 580.2 562.5 535.1 507.9 469.8 447.2 428.6 409.2 393 377.6 363.5 346.7 332.8 322.3 302.7 290 280.5 261.1 242.2 224.9 215.6 214 213.4 214 211.2 206.6 199.4 192.3 185.4 178.8 172.6 167.2 165.5 165.4 163.4 162.4 163.5 160.3 159.9 159 158.5 157.7 156.6 161.3 163.8 168.8 164.5 159.2 161.6 166.5 176 180 183.4 187 186.6 188.1 189.2 188.7 187.9 184.8 180.5 178 175.1 163.6 173.3 169 162.9 158.2 152.9 149.7 142.2 133.2 122.5 118.5 117.9 118.6 115.5 115.5 117.4 122.8 125.8 119 119.1 129 132.2 137.7 145.5 149.3 166.4 185.6 207.3 230.4 255 279.4 305.8 332.6 361 389.4 417.5 452.8 488.8 516.2 520.4 525.2 523.3 521.9 519.9 521.1 517.2 513.7 507.4 496.5 482 453.1 419.6 387.1 359.7 337.2 314.7 286.4 259.2 228 194.5 165.4 139.2 120.7 106.5 102.3 102.8 107.6 121.9 138.7 155.6 176.6 201.1 225.5 252.1 265.1 268.6 273.4 283.2 292.1 296.7 297.4 298.4 286.5 273.1 260.9 257.7 239.8 219 226.5 220.5 214.7 203.3 192.2 182.8 176.5 169.1 163.4 156.1 149.8 140.8 138.1 134.3 126.1 124 118.6 112.3 122.4 128.2 136 140.1 148.6 156.4 164.4 172.7 182.5 191 201 206.1 203.6 196.6 193.7 200.5 195.9 215.7 244.1 278.7 310.9 337.6 366.8 354.6 332.3 339.4
607.6 597.5 591.6 582.9 579.6 571.6 560.4 544.3 516.2 485.9 459 439.7 420.6 404.6 390.4 376.7 364.5 350.1 335.4 316.9 301.2 281.4 262.8 243.9 224.3 201.6 201.7 198.8 199.6 193.4 189.5 183.7 179.4 174.4 170.1 167.7 166.4 164.8 166 166.1 164.2 164.9 161.2 160.3 159.5 158.6 158 157.8 167.7 176.6 180.5 182.6 180.3 184.2 192 201.5 210 216.7 219.7 218.8 217.9 219 214.8 212.3 209.2 206.2 203.3 198.2 185.1 196.1 191 187 182.3 175.9 170.6 166.4 155.7 140.6 124.9 121.6 115.8 113.1 112.9 114.8 117.4 118.5 113.8 116.6 126.9 125.4 129.3 133.9 143.1 153.4 170.9 192.8 215.8 241.1 266.1 291.9 320.6 349 376.8 407 440 476.8 504.3 509 513.2 512.8 517 519 520.8 521 518.8 512.4 499.4 490.4 462.4 428.1 394 366.9 342.5 319.8 293.2 265.4 234.6 204 175.7 148.6 126.1 107 101.8 103 106.9 122.6 136.8 155.5 179.5 204.2 229.7 249 259.4 256.1 265.2 274.2 284.4 284.3 282.6 285.4 271.6 258.5 246.4 236.9 224.3 186.9 199.8 199.2 193.7 183.3 174.5 166.5 159.8 154.1 148.2 143.1 137.7 128.5 111.7 111.6 110.3 118.5 120.2 121.7 127.8 136.3 144.6 152.7 159.5 169.7 179.8 188.4 199.1 211 223.2 231 231.2 225.8 213.6 210.1 210.9 208 224.9 255.5 290.3 315.4 339.9 326.1 332.3 344.2
594.5 592.6 576.6 575 561.1 561.4 549.3 534.9 515.7 495.3 468 448.2 431 414.4 397.9 382.9 367.9 351.2 330 308.7 292.3 274.2 254.6 236 218.5 200.1 187.7 185.6 184.4 180.9 176.4 173.7 170.5 169 168.5 167.9 166.8 167.4 170 168 167.4 167.1 169.8 167.6 165.2 167.5 167.5 167.2 176.1 191.5 197.1 199.4 204.1 210.8 220.4 231.8 239.9 257.1 257.2 257.3 255.6 254.4 249.8 241.2 238 235.3 233.1 221.9 220.7 222.1 219 215.9 210.7 202 202.8 198.8 183.1 165.9 148.7 130.8 122.4 118 113.1 111 110.6 110.8 109.3 115.5 120.1 120.6 125 128.1 134.7 149.1 164.2 183.9 204.6 227.4 252.7 278.5 307.1 335.4 363.5 395 428.8 465.1 486.3 494.3 498.2 501.8 510 513.7 518.8 520.6 519.7 509.6 499.4 490.8 473.5 436.9 404.4 374 348.2 322.9 297.2 268.9 240.6 212.9 182.5 155.9 133.3 112.8 102.7 100.8 105.6 118.9 136.8 158.6 183.8 205.8 232 243.5 247.3 241.7 247.2 256.4 261.9 263 264.1 263.5 254.6 243.4 230.8 220.5 208.2 191.5 161.8 177.9 172.6 165.2 157.6 151.2 145.2 140.6 135.2 131.3 118.7 112.6 117.4 124.4 122.6 127.5 130.3 134.2 140.6 147.4 156.9 163.1 174.3 186.6 196.4 205 217.1 233.8 251.2 260.3 265.2 257.9 243.1 231.1 229.5 224.1 223.1 247.6 272.9 295.8 319 309.3 323 355.9
581.8 576.2 554.3 546.7 531 533.7 527.6 520.4 504.6 493.3 477.4 457.7 440.5 422.6 404.4 388.4 366.3 342.7 317.6 297.3 280.5 264.6 245.7 225.6 207.7 194.4 184.3 177.6 176.6 173.5 173.2 172.1 172 174 177 176.6 173.7 171 171.4 172 172.3 175.9 178.7 180.8 182 182.1 182.1 186.5 191.6 202.7 211 216.6 229.1 239.8 251.4 266.5 278.8 298.1 305.3 302.7 295.4 291.1 282.7 273 271 267.4 265.5 265.9 254.2 251.3 248.9 247.9 243.4 235.9 237.9 230.9 211.9 190 169 147.4 133.1 123.9 117.2 114.1 111.4 110.7 108.3 109.8 110.3 112.4 118.3 123.7 130.8 141.9 153.4 173 191.9 215 240 265.2 294 321.5 351.9 383.2 419.8 452.7 466.9 475.7 484.6 490.8 500.8 505.8 513 517.5 517.4 510.8 499.9 492.3 483.4 453.5 414.6 381.4 354.2 332.4 304.2 275.7 248.5 219.4 188.6 160.9 136.7 115.1 102.1 101.1 109.1 119.4 137.2 161 185.7 209.2 228 233.4 228.9 223.4 230.4 239.2 244.1 245.8 246.5 244.6 235.8 225.9 215.7 203.9 192.1 180.4 158.8 157.5 155.8 149.9 143 137.1 132.1 126.1 122.5 119.9 109.3 114.8 122.5 130.1 130.9 137.1 143.2 150.2 156.7 166.6 172.5 181.2 187.3 200.6 211.8 224.3 236.8 258.9 276.9 289.1 291.6 291.9 277.7 261.1 249.8 239.9 229.6 234.6 254.4 276.3 297.8 294.7 327.2 367.8
567.9 554.1 532.5 517.9 505.1 494.8 492 489.9 481.5 471.8 461.7 453.6 438.8 422.9 407.9 381.9 355.7 325.4 302.3 282.8 264.5 247.2 227.7 210.4 196.6 187.2 180.3 177.4 183 187.8 182.8 180.7 174.4 179.2 181.5 180.6 175.6 175.4 176.6 180 181.3 183.2 179.2 194.9 195 198.1 202.9 208 215.7 228.8 234 246.6 260 271.7 282.9 305 318.4 321.7 340.4 343.6 335.1 323.3 313.4 312.4 307.7 305.2 298.2 293.1 287.9 286.5 285.9 284.1 275.2 268 263.2 248.1 231.2 210.6 185.8 160.4 143.5 129.3 120.5 116.6 112.8 110.8 108 108.1 107.4 106.7 109 117.7 124.7 130.9 142.4 161.7 180.8 203.5 228.4 252.9 279 307.8 338.8 372 408.6 437.7 444.6 455.9 468 476.8 487.8 496.5 504.4 510.4 511.9 507.7 497.2 494.7 480.4 460.5 427.8 392.4 362.7 337.1 309.6 283.7 255.9 225.8 194.9 165.9 141.2 118.8 101.2 100.9 108.3 120.7 137.4 165.2 182.4 207.8 221.3 215.8 209.8 207.1 213.7 221.7 226.6 228.5 228.7 225.5 218.5 208.6 199.1 188.7 176.9 165.2 154.1 129.6 139.9 135.2 130.7 125.3 120.3 111.5 110.3 113.5 120.1 125.6 126.1 136.2 142.5 147.2 156.1 165.2 175.3 184.8 191.4 200.4 205.5 215.7 228 240.2 259 284.2 303.8 315.6 319.7 323.9 312.4 295.9 279.2 259.4 252.3 231.7 246.1 262.3 259.3 278.2 333 381
548.3 525.3 510.6 497.9 483.6 471.6 464.5 460.9 454.1 448.7 441.4 433.3 427.7 412.2 390.9 360.9 333 308.3 285.7 265.6 248.3 229.6 212.1 195.7 188.2 184.2 188.9 192.2 195.2 193.5 189.9 182 181.3 183.9 185.5 184.7 179.5 181.5 185.8 188.6 192.3 197.4 200.1 209.1 215.3 217.9 221.6 234.2 243.5 255.8 271.5 282.9 308.7 306.9 314.7 332.6 354.6 359.6 359.6 370.5 370.8 364.4 352 349.7 343.6 335 328.7 320.7 317.1 313.5 312.5 308.8 299.1 286.6 273 259.4 241.6 224.1 199.9 175.5 152.6 135.4 123.1 117.1 114.1 114.2 115.7 113.4 106.8 106.2 105.5 108.4 115 121.8 133.4 150.9 170.4 192.3 216.8 239.9 264.6 294.6 327.3 360.2 397.7 416.2 422.1 435.9 448.4 461.4 474 483.4 495.6 502.4 503.2 501.4 495.8 494.1 484.5 465.1 443.4 413.6 379.1 347.3 317.3 289.5 262.6 231.4 200.7 171.3 145.1 121.8 101 99.9 106.8 122 138.7 161.8 180.1 206 201.8 196.5 191.5 190.4 196.8 204.3 211.6 212.2 210.7 205.9 199.5 193.2 184.2 174 162.2 151.1 139.4 130.9 128 121.9 118.8 113.8 107.7 114 121.3 127.4 130.3 136.5 142 143.6 152.6 159.5 169.8 181.1 190.9 199.5 209.4 217.3 224.9 235.3 246.6 259.1 283.6 308.8 333.8 346.2 352.8 357.6 351.8 342 325.6 306.1 278.6 257.4 240 243 271.1 319.8 359.3 381.6
531.9 508.3 494.7 483 468 451.8 442.4 436.6 429.3 423.2 416.4 408.6 403.9 390 366.8 338.6 312.9 291.8 268.8 250.2 231.4 212.4 195.1 191.3 192.2 196.5 200.8 203.7 203.8 202.1 198.5 183.4 190.2 190.7 190.9 190.4 189 197.4 204.3 207.7 210.8 216.3 221.1 220.6 237.1 239.3 247.8 259.9 275.4 290.8 306.1 328.2 342.4 356.9 380.8 381.3 385.2 388.7 393.5 392.2 394.8 395.1 387.6 379.4 369.8 360.1 349.6 334.3 339.6 333.9 328.3 319.7 309.5 296.4 280.7 264.7 249.4 231.2 214.7 191.4 166 145.6 129.5 119.9 116.6 116.3 115.9 113.3 109.7 105.5 105.1 105 106.8 117.3 124.2 138.4 159.3 180.6 203.7 226.8 250.2 281.6 313.7 348.4 380.8 392 399.3 411.2 427.3 442.8 457.4 469.6 483.7 491.5 490.6 491.5 494.4 488.7 479 456.9 449.1 425.5 392.1 362.1 328.1 299.7 273.3 236.7 206.2 176.2 148.2 123.4 101.6 99.4 106.6 121.8 139.8 156.1 177 187.3 184.1 177.5 170.6 172.2 178.8 187.3 196 195.9 192.8 188.2 183.7 177.5 169.1 159.1 148.1 137.2 124 119.5 115 112.7 104.9 116.2 121.5 127.8 133.8 138.3 142.2 147.4 153.6 158.1 162.7 171.3 182.9 193.4 202.5 217.5 232.9 239 246.8 253.3 264.5 277.2 305.2 334.8 360.5 369.5 382.4 384.2 380.1 375.2 364.2 338.1 309.3 282.4 261.3 256.7 276 305.6 331.9 363
519.1 499.7 487.6 472.8 455.4 438.4 421.8 412 404.3 396.4 390.1 382.7 372.8 360.9 342.1 317.8 293.4 272.5 251.7 235.6 222.8 200.6 202.8 205.2 207.6 210.9 214.7 214.5 216.2 210.7 204.3 194.3 197.4 199.1 201.5 204.6 207.1 212.2 215.5 220.6 226.7 233.1 240.1 248.3 255.5 268.6 286.6 307.3 325 345.2 359 368.9 384.3 405.4 406.3 418.2 421.9 423.9 418.5 415.8 416.1 412.1 398.7 390 375.1 365.2 357.1 350.9 351 344.9 339 330.5 322.6 314 301.9 282.6 262.2 240.7 221.3 201.5 176.4 156.3 136.8 125.5 119.1 116.1 115.4 114.4 113 111.1 106.1 103.8 103.5 109 115.5 130 148.2 169.7 189 213 236.3 268.1 301.2 336.2 355.8 364.7 373.5 388.5 406.7 421.7 436.8 452.4 466.2 476.9 480.1 487.5 486.1 480.6 466.6 448.1 440 420.4 385 364.3 342.9 311.2 284.2 244.8 206.8 180 153.5 128.9 109.8 100.4 101.5 118.6 140.5 150.5 163.9 171.2 164.7 160 148.5 153.8 162.4 173.2 180.1 178.8 177.4 174.2 169.6 163.7 155.1 147.2 135.1 122.6 116.1 107.1 108.4 118.4 124.3 129.6 134.5 139.4 146.5 150.8 156.6 162.3 168.6 171.1 174.8 182.3 186.1 202.4 218.8 233.8 246.5 258.5 269.5 279.8 285.5 300.3 327.7 361.1 382.6 397.5 401.7 393.5 389.2 387.9 380.3 364 336.4 307.2 282.8 266.6 279.2 302.9 338.3 381.4
505.9 491.1 486.8 470.6 446.4 433 415.7 385.8 380.9 373.1 364.9 357.2 348.8 334.6 318.1 295.4 273.1 252.8 236.2 221.4 206.3 199.2 205.2 212.9 218.7 221 225.4 228.8 225.7 224.9 215.7 214.2 215.6 219 222 226.2 226.5 234.4 237.4 242.2 249.4 257.8 265.6 273.9 277.6 295.7 317.6 339.7 359.5 377.2 392.7 405.3 423.9 440.9 450.7 462.4 468.6 461.3 452.8 438.9 433.3 428.3 421.2 415.6 401.2 385.9 377.3 369.3 363.7 358.5 353.3 353.3 346.9 336.5 321.6 300.6 278.9 257.2 233.4 210.8 186.8 166.1 146.3 133.4 123.3 116.1 114.9 114.8 113.2 111.2 106.4 103.8 103.9 105.9 110.2 120.3 137.4 158.6 175.9 196.6 223.1 255.3 288.8 324.1 330.6 333.9 349.7 361.9 384.8 399.2 414.6 430.3 442.7 456.9 460.5 466.9 473.7 470.4 451 441.8 422.5 402.6 378 354.4 329.5 304.8 273 238.2 206.4 179.1 155.9 135.1 115.9 101.6 99.8 117.7 133.2 142.9 152.2 151.2 147.2 140.4 129.2 137.1 145.1 155.8 162.3 160.2 162 160.2 155.1 150.1 143.3 135.6 124.8 113.9 105.5 115.8 123.6 128.5 133.5 140.7 148.6 156.1 164.5 169.7 174.8 180.7 183.8 183 185.2 191.1 198.8 205.9 216.1 235.6 253.1 272.1 288.7 306.6 318.6 330.8 352.1 383.1 402.8 413 405.7 394.5 388.9 393.6 382.9 371.3 353.5 327.3 303.2 280.2 284.5 305.1 334.7 373.9
504.9 485.7 483 462.2 439.9 414.7 403 382.8 359 350.5 342.5 332.7 322.6 309 293.6 273.5 253.8 236.1 219.5 205.1 200.5 209.2 215.2 225.3 234.5 233.1 240.8 240.9 239.4 236.9 233 237 239.4 242.2 245.8 248.5 249.2 258 264.7 271.2 277.7 284.3 295.1 303.3 309.2 299.2 334.8 363 386.6 406 425.1 443.4 460.1 472.9 484.7 492.2 493.1 481.6 469.8 459.1 452.4 445.5 440.1 432.6 425.7 418.1 411.9 403.9 397.6 395.6 392.2 382.2 372.1 359.4 344.7 325.4 299.3 276.5 250.8 224.1 201.1 178.7 158.9 142.9 130.3 119 115 114.3 113.5 111.1 110.2 105.1 105.2 104.3 106.4 112.7 127.7 142 164 182.9 207.4 236.6 268.7 298.4 307.3 308.8 322.8 339.1 360.1 375.9 391.5 407 416.4 432.7 442.9 449.8 454.8 452.1 433.9 424.7 404.9 382.8 361.6 338.5 311.1 288.2 258.2 224.6 196.9 175.3 156 136.7 118.9 103.8 104.4 115.4 124.8 131.5 133.9 131.8 129.7 120.3 112.7 120.8 131.9 142 147.4 148.9 148.3 146.4 142.8 137.2 131.8 124.8 117.2 104 114.5 125 133.4 142.4 151.8 159.9 169 175.7 183.5 188.7 196.6 204.6 206.1 203.3 192.6 200.8 209.8 214.6 222.4 234.8 256.9 281.2 304.2 328.3 349.9 366.8 387.5 400.9 411.6 411.9 403.2 389.2 386.9 388.1 378.4 367 351.8 334.2 309.1 293.1 293 315.6 333 359.3
507.4 482.5 474.1 467.2 434 399.1 375.6 365.6 356.6 335 320.6 311 300.1 285.3 269.4 253.8 237.8 222.3 205.1 210.1 216.7 224.2 230.3 238.7 248.7 251.6 255.3 257.8 258.4 257.3 249.5 262 271.5 269.3 273.5 276.2 279 285.5 293.6 299.9 310.6 320.8 330.6 339.4 344 324.6 338.6 368.5 396.1 420.3 444.9 466.3 485.1 497.7 504.9 493.2 488.9 478.8 466.5 458.2 447.9 439.8 431.5 424.3 417.7 409.7 406.9 403.2 399.3 398.2 397.4 394.3 385.3 377.9 366.3 351.9 330.6 304 276.7 245.1 215.6 193 172.2 151.1 134.6 121.6 116.5 115.1 115.3 114.2 114.7 108.3 105.9 105.2 103.7 103 117.8 132.4 150.2 165 186.3 211.1 236.5 260.1 269.9 279.5 295.4 317.8 332.6 348 364.1 377.1 387.1 400.7 417.1 430.2 430.8 426.3 413.5 400.5 380.7 356.2 335 314.9 291 268.2 240.6 210.6 186.5 168.5 150.7 135.6 122.5 108.6 98.1 102.1 108.5 115.2 116.5 115.4 112.9 104.2 104.1 108.7 120.9 130.9 134.2 135.6 136.8 134.4 132.1 127 120.9 115.5 106.8 114.4 125.5 136.3 149.8 160.7 170.3 180.7 189.6 197.7 204.7 212.8 220.9 228.2 229.6 227.6 213.4 209.5 217.4 224.9 230.1 239.7 255.9 283.2 311.7 340.2 373.8 401.2 406.9 415.6 415.9 407.1 398.8 387.3 381.8 378.2 367 349 334.4 321.6 308.2 302.2 299.8 319.1 338.1 347
522.4 483.8 475 465.6 441 415.3 392.7 362.6 328.9 311.9 295.3 282.3 266.5 266.1 252.3 235.5 223.7 206.9 216.6 220.4 228.6 236.9 246.3 255.6 263.9 271.2 277.5 280.5 278.2 276.3 270.5 271.4 300.5 311.3 308.2 310.5 310.4 317.2 325.2 337 347.9 362.5 369.5 375.9 379.9 356.6 350.7 379.1 407.3 433.6 461.4 483.1 503.6 506.3 497.4 486.5 476.5 467.9 455.7 446.4 437.3 427.3 420.9 414.8 407.9 399.6 391.3 385.5 382.6 383.2 384.2 383.4 379.2 372.9 365.2 353.3 338.7 323.6 303.8 265.2 232.8 208.3 182.6 159.6 141.1 128.1 118.9 117.7 116.6 114 115.1 114.3 106.5 105.9 104.8 99.2 107.6 120.2 132.6 147.9 168.7 188.8 206.5 229.4 241.5 247.6 267 288.5 304.6 322.3 334.4 348.4 354.9 371.3 383.8 398.1 402.9 399.8 388.6 372.8 355.4 332.8 310.1 289.6 269.6 243.7 221 198.4 176.5 159.5 144.2 132.3 121.4 113 103.6 99 96 97.5 100.3 100.2 97.9 97.9 100.6 104.8 113.4 120 124.5 126.1 125.8 124.5 120.6 115.9 108.8 101.9 118.4 131.2 143.2 154.9 168.5 181.3 191.5 204.2 211.7 219.4 228.6 239.6 247.6 253.2 249.5 248.9 240.5 227.5 229.8 233.9 238.8 245.2 259.5 283.2 311.5 342.3 381.4 405.5 416.2 417.2 413.5 403 393.2 383.6 372.8 366.9 349.9 329.6 321.1 314.9 309.5 305.9 306 313.3 325.9 329.9
526.9 497.9 479.5 463 442.5 419.3 397.4 373.8 351.1 329.2 312.9 295.7 277.7 251.1 235.2 234.5 211.2 221.8 227.4 228.5 240.7 250.2 259.4 268.8 279.9 290.5 297.3 302.1 302.2 298.7 290.3 288.4 294.5 331 349.2 347.6 351.5 359.1 366.6 376 386.8 395.1 399.9 404.7 406.4 388.6 365.8 399.2 426.2 453.2 477.4 492 499.7 494.4 481.7 468.9 458.2 449.6 439.8 430.9 423.5 414.2 407.9 400.9 393.1 385.5 374.5 367.1 364 363.6 364.6 365.2 361.9 356.1 350.1 341.2 331 318.5 302.8 280.8 250.2 221.7 195.1 168.9 148.6 133.8 122.7 119.6 117.8 117.6 112.2 115.5 109.3 106.6 104.9 95 100.8 107.4 117 131.2 148.5 163.3 179 196.6 212.6 221.3 240.4 253.7 273.3 296.1 305.5 309.6 314.6 335.1 350.3 357.5 364.3 368.4 360.7 345.1 327.5 306.3 286.6 265.5 248.1 222 202.1 181.1 164.7 149.6 136.4 125 117.2 109 99.3 95 93.6 96.9 97.9 97 98.8 98.7 98.7 97.1 101.4 110.8 115.2 115.3 114.8 114.1 111.6 100.2 113.8 123.3 138.3 150.4 161.3 175.8 190.1 201 212.6 223.7 231.6 239.8 253.2 264.5 271.1 270.6 279.1 275.1 266.9 251 252.8 252.7 251.6 254.5 263.9 282.4 311.4 341.2 377.8 405.7 413.2 412.1 406.9 398.3 387.8 375.7 364 354.2 332.7 319.5 315.8 311.3 306.9 304 303.1 305.4 305.8 310.9
521.1 493.1 473.7 452.9 432.4 412.3 389.6 368.8 346.5 330.4 310.8 292 273 258 243.8 220 225.7 232.9 236.3 245.7 252.9 262.9 277.5 291.6 302.7 313 323.1 331.3 332.6 321.5 312.1 307.7 308.3 327 355.4 375.6 386.7 399.3 407.6 412 420.3 424.5 427.5 430.8 434.5 418.1 382.1 414.8 443.3 469.2 484.5 494 488.5 476.6 463 450.3 437.9 428.9 421.3 412.2 405 398.5 391.9 384.4 376.7 367.9 355.9 346.8 342.5 341.8 343 344 341.4 337 332.2 327.3 316.7 306.5 292.8 275.1 255.1 231.7 204.3 179.3 155.3 137.5 125.8 121.5 119.3 118.7 115.9 111.5 108.2 106.6 94.3 94 95.4 98.6 103 115.4 128.4 142.6 155.6 169.4 186.2 198.6 209.6 223.5 242.7 265 272.1 277.5 277.9 294.3 310.4 315 323.5 323 324 315.5 299.9 280.4 262.6 242.1 221.5 201.1 184.1 166.5 153.9 138.9 127.7 118.7 110 100.8 96.8 92.7 98.7 99.4 104 104.9 106.9 109.8 109.9 111.3 110.4 99.9 100.9 100.1 100.2 100.7 112.4 120 130.2 142.5 155.6 167.8 180 196.9 210.3 220.3 231.3 241.5 250.1 263.7 278.4 288.7 286.9 293.6 298.1 303 302 291.5 285.1 281.8 274.6 270.8 274.7 288.5 309.7 339.6 374.2 401.2 406.1 404.5 398.8 391.7 379.8 367.4 355 341.7 319.8 314.5 311.2 307.4 296.4 298.8 297.2 299.3 300.4 302.4
