ncols 200
nrows 82
xllcorner 340000
yllcorner 823150
cellsize 50
383.4 387.3 391.5 395.8 399.6 398.1 406.4 407.8 410.1 409.6 415.1 417.5 418.5 419.1 419.8 420.5 421.2 420.4 416.7 421.7 427 430.2 432.9 434.8 437 439.8 441.1 442.4 444.2 444.5 444.5 444.7 441.9 438.4 432.6 426.8 420.9 416.5 412 408.6 406.3 404.1 398.6 391.3 384.2 379 374.3 369.7 367.1 364 361.1 359 355.8 354.6 352.9 351.4 350.4 349.2 348.1 346.2 345.2 344.2 343.4 343.4 342.3 342.1 340.9 340.6 340.3 338.8 338.8 339.1 338.9 338.4 338.8 339.4 340.5 341.1 340.7 341.5 342.3 343.1 344 345.2 346.4 348.7 350.4 351.8 355.2 359.3 365 373.3 382.1 397.3 409.5 420.9 430.9 429.4 427.4 431.6 430 423.5 414.7 403.6 392.2 380.6 369.1 358.8 348.9 342.4 336.8 327.7 317.3 306.8 299.2 289.4 282.2 278.3 273 271.7 275.3 277 278.1 276.7 273.3 268.1 262 257.6 256 254 249.3 244.1 240.6 237.5 235.7 234 233.2 231.7 230.5 229.5 228.8 228.2 227.1 226.2 225.2 224 223.1 222 220.9 220.7 221.5 220.7 219.6 217.8 218.2 216 214.8 213.5 216.9 219.2 221.1 223.4 227.1 231.7 235 239.7 245.5 253 259.4 261.8 257.9 251.4 242.6 235.1 229.6 224.1 218.4 210.9 203 197.4 191.9 188.3 185.8 183.4 181.2 182.3 182.5 182.2 181.4 181.5 181.3 182.6 181.9 181.8 181.8 181.7 181.2 180.8 181.4 181.3
381.9 385 389.1 392.5 392.6 397.4 402.9 402.1 403.4 408.2 411.2 413.3 414.4 413.9 414.8 414.8 414.5 411 420.2 426.5 431 433.3 435.3 437.7 439.6 441.4 442.9 444 445 445.5 445 443.7 441.9 439.1 435.2 428.8 422 416.9 411.3 406.6 403.8 401.1 396.4 390.3 383 377.9 373.9 369.5 365.4 363.8 360.4 358.4 357 355.8 354.5 353.2 351.9 350.5 349.1 347.8 346.8 345.8 344.8 343.7 342.8 342 341.5 341.8 339.6 338.6 339.6 340.3 340 339.5 339.3 340.1 341.9 341.2 341.2 342 342.8 343.7 344.5 347.1 347.3 350.8 353.9 355.9 358.7 363.4 369.7 379 391.9 408.4 417.6 426.5 427.4 426.4 425.6 428.8 428.5 422.8 413.7 403.7 391.7 378.8 366.5 354.3 345.1 339.7 333.4 326 316.2 306.9 299.1 290.8 282.3 276.3 272.3 269.4 270.6 270.8 270.6 270.1 268.5 266.6 265.4 262.7 263.3 265.2 262.4 256.4 249.7 245.5 241.3 238.7 235.2 233 231.8 230.9 229.4 227.9 227.1 225.7 224.4 223.6 223.3 222.8 222.7 222.2 221.8 221 220.5 220.4 218.5 217.3 218.4 218.1 220 222.7 224.4 225.8 229.4 232.6 235.5 240.2 245.5 253.3 257 251.8 247.6 240.4 231.8 225.5 220.1 215 208.2 200.4 196.2 192.5 190.9 189.2 184.9 182.8 182.4 183.5 182.8 182.4 181.3 180.5 180.6 181.4 181.5 181.7 181.8 181.7 181.2 180.9 182.3 182.1
378.1 381.3 383.9 386.6 389 395.3 397.6 397.7 401.9 404.1 406.3 408.8 409.6 408.8 409.7 408.3 406.6 416.1 425.3 430.5 434.1 436.4 438.6 440.7 442.4 443.7 444.8 446.4 447.9 448.1 446 444.3 442.2 439 434.7 428.4 421.5 414.8 408.5 404 400.4 395.7 389.6 383 378.7 374.2 370.4 367.4 365.5 363.2 361.5 359.7 358.2 357 355.6 354.1 352.2 350.8 349.4 348.2 347.6 346.6 345.7 344.7 343.7 342.8 341.9 342 339.8 339.4 340.2 340.9 340.6 340.2 339.9 340.4 341.3 341.3 341.7 342.5 343.4 344.2 345 347.6 349.4 356.4 360.9 363.7 366.2 370 376.9 386.3 404.8 414.5 420.1 422.2 422.6 421.4 421.4 424.4 426.5 423.2 416 406.4 394.3 381.4 367.4 350 338.2 331.3 324.5 317.6 310.8 303.2 297.5 288.6 279.7 274.2 270.7 267.9 268.2 267 267.6 266 265 264.4 264 265.7 268.6 271.4 271 265 255.6 248.4 244.1 243.2 241.5 239.3 235.4 234 230.5 228.8 227.6 226.6 225.4 223.9 223.3 224 223 222.6 222 221.6 221 220.4 223 223.9 223.6 222.2 224.4 226.2 227.6 229 231.2 233.1 236 240.2 247 252.6 250.1 242.8 235.9 228.5 222.8 217.4 212.3 206.8 200.2 194.7 192.4 191 190.6 189.5 184.3 182 184.4 183.8 183.1 182.5 181.3 180.1 180.1 180.6 181.1 181.6 181.7 181.8 181.5 182.6 183 182.5
374.8 377.2 381.3 382.4 386.4 386.2 391.1 394.7 396.7 399.4 401.3 404.3 403.8 404.6 402.4 401.7 413.2 422 429.5 434.5 438 440.3 442.5 445 445.6 446.7 449.1 449.4 449.6 450.3 447.3 445 442.1 438.3 433.5 426.9 421.1 415.3 410.6 406.1 400.7 394.6 390.7 384.9 379.5 375.9 371.6 368.5 366.3 364.2 362.4 360.9 359.4 358 356.6 354.9 352.5 351.1 349.9 348.7 348.3 347.4 346.5 345.6 344.6 343.5 342.3 342.2 340.7 340.4 340 340.3 340.4 340.5 340.4 340.6 341 341.6 341.9 342.7 343.5 344.3 344.9 346.8 349.7 355.2 366.7 370.5 371.2 375.2 384.5 392.8 405.7 414 418.4 419 418.3 417.5 417.3 420.5 424 420.3 416.6 408.1 397.4 383.6 368.6 353.7 341 330.2 323.4 316.6 311.4 306.7 300.2 292.7 282.1 274.8 269.9 268 264.8 264.2 263.7 262.7 261.5 261 261.4 263.8 266.4 267.3 267 263.9 255.3 250.7 247.3 247.2 247.2 245.8 242.9 237.7 233.5 229.1 227.6 226.5 225.6 224.6 224.1 224 223.6 223.1 223 223.4 222.8 222.4 224.8 225.2 224.6 224.7 227.4 229.3 230.9 232.2 231.2 232.2 235.9 240 245.2 250.3 244 235.2 228 221.3 216.2 211 205.2 198.8 194.5 192.2 190.6 188.7 187.1 185.6 183.6 185.2 184.6 184 183.3 182.1 180.4 180.1 179.9 180.2 180.7 181.2 181.6 181.7 185.6 184.2 183.4 180.8
370.1 373.7 376.2 379 381.2 385 389.1 390.2 392.3 395 395.2 393.9 395.2 397.8 395.5 405.9 416.7 425.9 432.7 437.4 441.4 444.3 446.6 449 449.9 451 453.5 453.8 454 454.3 450.7 447.5 444 440.1 435.1 429.3 427.1 423.7 417.4 411.7 407.1 403.5 397 390.8 382.8 377.5 373 369.6 367.2 365.2 363.3 361.8 361.2 359.3 357.6 355.6 353.3 351.4 350.3 349.2 349.1 348.2 347.3 346.3 345.4 344 342.3 341.8 341.4 340.2 339.8 339.8 339.9 340.2 340.7 341.1 341.7 342.3 342.6 342.9 343.6 344.2 344.8 346.8 348.9 354 361.3 368.4 374.6 376.9 381.2 389.4 399.3 406 414 414.2 413.8 413.8 413.9 417.4 420.7 417.5 414.2 408.1 400.5 391.1 379.3 363.7 351.1 340.9 334.9 328.4 319.8 313.9 306.2 294.8 285.5 277.1 270.8 268 264.9 262.5 259 258.5 258.2 257.7 258.7 261.2 262.5 262.5 260.5 256.7 253.8 250.8 246.8 245.7 245.3 241.8 240.3 238 235.5 230.9 228.3 226.5 225.3 225.6 226.3 225.6 224.5 224.1 224.7 225.1 224.5 223.9 225 225.5 226.7 227.3 229.7 231.4 232.8 233.1 231.2 230.4 233.4 236.7 241.3 242.7 237.7 229.3 220 214.5 209.6 204.3 198 194.8 191.9 190.2 188.4 186.4 185 184.2 186 185.9 184.9 184.1 183.1 181.9 180.8 180.4 179.8 179.8 180.3 180.8 181.3 183.8 188.5 187.6 184.9 184.5
369.5 370.4 370.8 376.1 380.8 382.7 384.9 384.5 387 388.1 388.9 392.1 391 393.8 402 410.1 420.3 429.2 435.5 439.9 444 447.9 450.4 452.7 454.2 455.5 457.9 458.1 458.9 458.7 454.8 451 446.9 441.6 437.3 435.9 436.8 432.5 424.4 416.6 410.1 404.8 398.7 389.7 381.6 377.7 374 371.4 369.3 367.1 365.4 363.6 363 361.7 359.5 355.9 353.8 352.1 350.7 350.1 349.2 347.9 346.7 345.4 344.2 343.2 343.6 342.7 341.7 340.8 339.8 340.1 340.6 341.1 341.6 341.9 342.3 343 343.3 343.5 343.9 344.2 344.8 346.5 348.5 352.1 356 359.4 364.8 370.4 375.3 381.9 390.8 396.3 402.4 405.9 406.7 407.6 409.3 412.8 415.6 416.6 415.3 413.6 409.3 401.4 389.4 376.6 363.2 352.1 345.8 338.6 328.5 319.5 310.8 299.5 291 282.8 273.7 269 266.2 264.6 261.6 259.3 258.2 255.1 255.3 257.1 257.5 256.4 254.8 251.2 248.8 248.4 245.7 243.9 241.7 239.5 238.4 238.2 235.7 231.9 229.3 227.4 228 227.4 227.4 227.1 226.8 226.9 227.5 227.1 226.7 225.9 225 226.2 227.7 229.5 232.8 233.5 234.3 233.2 231.3 228.3 230.3 231.3 233.5 234.2 229.3 222.6 215 208 203.2 197.9 195.4 192.9 189.8 188.4 187 185.4 186.7 187.5 187.3 186.3 185.2 184.1 182.9 181.6 181.2 180.9 180.3 180.1 180.3 180.9 181.4 183.5 187.6 188 187.3 185.9
363.7 368 373.3 375.6 377 379.5 379.9 378.9 379.6 378.4 380.9 387.9 392.2 400.2 407.5 414 423.1 431 437.2 442.4 446.8 450.6 453.3 454.8 457.5 461 462.2 462 462.4 461.4 458.4 455.4 450.6 445.9 443.9 444.2 444.7 439.6 430.2 418.6 411.1 404 396.2 389.9 382.5 378.1 376.5 375.2 373.2 371.8 369.6 368 365.4 364.6 361.6 359.5 356.3 353.7 351.9 351.7 349.1 347.2 346.2 345.1 344.5 344 344.1 342.9 341.8 340.8 340.3 341.1 341.6 342.1 342.5 342.7 343.1 343.6 344 344.4 344.9 345.2 346 347 348.6 350.2 353.2 356.4 359.6 363.5 368.4 374.7 382.6 388.2 393.1 396.7 400.1 403.1 406.3 410.2 414.4 417.5 419.7 422.2 417.8 408.9 398.2 385.4 372.9 362.2 353.4 345 334 322.8 313.2 302 293.8 286.9 278.2 274.5 269.9 267.4 263.3 261.2 259.6 257.6 254.6 251.6 251.4 250.5 249 245.9 244 241.7 240.1 238.4 236 234.5 234.1 233.5 231.9 230.3 229.4 229.8 229.7 228.8 230.2 232.4 233.4 230.5 230.3 229.5 228.9 228.3 226.2 228.5 230.4 231.6 234.6 238.5 237.3 234.4 231.3 228 226.6 226.4 226.8 225.1 221.4 216.2 209.8 202.2 197.5 194.4 192.6 190.2 187.7 186.7 185.6 186.4 188.1 188.7 188.2 187.7 186.6 185.1 183.7 182.1 181 181.1 180.8 181.2 180.5 181.1 182 182.9 184.8 186.8 186.6 185.7
359.6 364.7 368.6 370.5 372.3 373.6 373.3 373.4 375.8 380.4 387.6 393.4 399.1 404.3 411.8 417.5 425.4 432.8 438.4 443.8 448 451.5 454 456.2 460.1 463 466.5 465 464.2 463.9 461.9 459.8 455.7 451.8 450.3 450.8 450.5 445.3 439.3 429.5 419.6 410.1 401.8 395.4 390.2 384.5 380.9 380.5 378.9 376.6 373.8 371.4 371.2 368.8 366.1 363.6 360.8 358 354.9 353.5 351.4 348.9 346.3 346.1 345.2 344.5 344.3 343.4 342.2 341 340.7 341.7 342.6 343 343.3 343.6 343.9 344.3 344.8 345.4 345.9 346.5 347.7 348.4 349.3 350.3 351.9 354.1 356.9 359.7 364.2 369.9 376 380.8 385.2 389.7 394.6 399.9 404.5 409.2 414.5 421.4 425.8 427.6 423.3 412.4 400.6 388.6 377.5 369.2 359.3 348.6 335 320.9 310.5 301.6 294.7 288.2 286.4 281.2 275 270.1 265.4 263.1 262.6 260.4 258.4 256.7 254.3 251.3 247.9 246.9 245.5 245 243.2 241 240.6 239.8 237.3 234.5 234.3 234.4 237.2 237.1 236.6 231.5 236.8 240.1 239.6 235 233.2 232.1 230.1 229.1 228 231.1 232.5 234.5 239.3 239.3 238.6 235.6 230.7 227 224.8 222.1 221.3 218.6 215.4 211.4 203.5 197 193.7 191.1 189.3 187.6 187.9 187.5 187.1 187.4 189.2 189.7 189.1 188.6 188 187.1 185.2 183.3 181.5 181.1 181.1 181.6 181.2 181.4 182 183.2 185.3 188.3 186.9 185.7
358.9 360.1 363.1 365.7 369 370.8 373.8 378.2 382.4 387.1 393.2 400.4 405.7 411.3 416.9 421.8 427.9 434.5 439.5 444.6 449.1 451.7 453.8 456.8 460.4 463 464.9 465.5 465.5 468.2 466.3 463.3 461 457.5 457.4 457.8 457.9 454.6 448.4 440.6 430 420.7 411.3 404.4 398.7 393 390 388.1 386.6 384.2 377.8 373.6 377 376.1 373.5 370.4 366.1 361.8 357.8 354.3 351.2 348.7 347.6 347.3 345.9 345 344.5 343.8 342.7 341.2 342.5 343.3 344.6 345.4 345.2 345.2 345 346.3 346 347.9 347.1 348.1 349.4 350.1 350.2 350.5 351.3 353.3 355 357.5 360.7 364.4 369.8 374.8 379.4 385.3 393.5 399.3 405.6 410.9 416.1 423.6 429.1 430.1 426.2 415.9 405 393.4 382.3 371.5 360.4 349.6 336.8 322.2 308.9 300.6 301.9 295.5 293.4 287.1 279.8 271.4 270.8 269.5 268.7 266.7 264 262.4 261 258.4 254.3 253.9 252.1 250.5 247.1 245.4 244.6 241.5 239.4 239.2 239.7 240.7 244.4 244.7 244.5 235.2 240.1 244.5 244.8 239.9 236.7 234.8 232.6 230.6 229.7 231.9 233.2 237.2 240.8 240.4 239.9 236.3 230.3 226.5 224.2 220.1 213.4 211.9 209.2 203.4 196.1 194.1 191.3 190.1 188.3 188.7 189.5 188.9 188.2 188.6 190.3 190.6 190 189.4 189.2 188.4 186.5 184.7 182.6 182 181.5 181.6 181.5 181.8 182.4 184.6 187.6 189.4 187.2 186.9
361.9 365 367.4 371.2 373.8 376 378.1 383.2 389.3 396.8 405.5 412.2 414.5 418.2 421.3 425.4 430.9 436.6 440.5 445 449.4 451 453.1 454.7 457.5 459.9 461.3 462.4 464 468.2 468.4 465.5 463.8 466.1 467.8 467.2 465.5 463.8 457.3 448.8 441.1 430.9 423.2 415.1 406.7 403.6 398.8 395.7 393.6 389.7 387.1 384.6 382.4 383 381.2 375.9 370.5 363.9 359 354.5 350.9 349 348.7 348.1 346.7 345.4 344.8 344.3 342.4 341.2 344.3 346.6 351.3 353 352.7 348.5 347.4 348.5 349.1 349.5 349.6 349.9 350.9 351.1 351.4 351.7 352.1 353.1 354.8 356.7 359.3 361.7 365.2 368.6 379 387.1 395.6 403.6 409.4 413.8 419.1 425.9 431.4 434 429.9 418.6 407.5 395.8 384.1 373.1 361.3 350.2 337.8 323.9 307.3 311.1 306.6 300.9 296.4 289.3 281.4 279.6 281.3 278.9 277.5 274.9 274.5 272.3 267.8 264.6 262.1 259.9 258 255.6 251.8 251.2 250.1 245.7 244.3 245.5 246.3 249 250.9 247.3 245.7 240.5 242.1 245.1 246.1 240.9 237.6 236.6 234.4 232.1 231.1 233.7 233.8 237.5 241.2 243.5 246.1 241.7 233.6 227.6 222.7 216.6 209.2 204.8 201.4 196.9 195 192.1 192.6 192.6 190.9 190.1 189.7 189.9 189.3 190.6 192 191.9 190.9 190.9 191.2 189.6 187.8 186 185.1 183.8 183.2 182.9 182.9 182.8 185.1 187.9 189.7 191.1 189.5 184.4
363.8 366.9 370.5 373.7 376.9 380 382.4 387.8 396.5 404.3 412.2 418.7 421.3 424 426.7 429.9 435 440 441.6 444.7 447.2 449.4 451.2 452.3 454.7 457.4 458.5 459.4 461.9 464 466.2 466.9 469.7 473.1 475.8 475.4 472.5 470.2 462.6 455.4 448.7 440.5 432.8 424.8 419.1 412.3 405.5 401.5 398.2 394.8 392.3 389.9 388.4 387.7 384.5 378.1 371.3 363.6 357.2 354.2 351.5 350.1 349.4 348.9 348.1 346 344.4 343.7 342.3 342.5 346.2 350.2 357.8 361.8 358.8 356.9 355.6 353.1 350.9 350 351.1 351.3 351.6 351.7 351.9 352.8 353.6 354.4 355.4 357.3 360.2 365 371.8 380 386.5 393.9 401.4 409 415.6 419.9 425.9 431.4 435.7 435 429.4 417.7 404.9 391.4 379.6 368.4 357.1 347.2 339 324.3 314.4 314.7 307.6 301.3 296.7 288.5 284.7 287 288.3 287.6 287.2 287.2 284.5 281.8 276.6 273.4 269.4 266.5 262.6 262 257.4 255.4 253.8 250.1 249.9 250.3 250.4 252.3 252.6 247.7 245.5 244.3 247.3 248.3 247.6 242.9 239.3 237.4 235.3 232.6 233.4 235.1 234.9 237.2 241.4 250 246.4 240.5 231.4 224.7 220.1 215.4 208.7 202.7 199.4 197.5 196.3 191.7 194.1 194.1 193.1 192.3 191.8 191.2 190.6 192.2 193.3 194 193.9 193.3 192.4 190.8 189.5 190 187.6 186.3 185.2 185.2 185.8 186.2 188.8 192 191.7 193.8 191.8 182.6
364.8 367.4 370.8 375.9 379.4 382.9 386.8 391.5 399.9 408.7 417.3 424.5 425.4 429.1 432.6 435.9 439.9 442 441.5 444.4 446.1 447.5 447.8 449.3 452 455.1 455.5 458 461 463.2 465.2 467 471.8 475.7 477.3 478.1 475.2 470.9 465 457.9 453.7 446.4 439.6 433.1 425.9 418.6 410.9 406.7 402.6 398.6 396 393.4 390.6 387.5 383 376.6 369.7 363.2 357.4 354.1 352.4 351.6 350.9 350.2 349.1 346.9 345.3 343.5 342.2 346.1 350 355.2 364.3 367.2 365.1 368.4 368.5 363.7 356.5 356.2 354.7 352 352.2 352.4 352.6 353.8 354.9 356 357.6 359.8 363.1 368.3 374 381.9 391 398.6 406.2 412.9 421.3 427.2 432.2 436.8 436.3 432.9 424.5 414.6 400.7 389.1 377.5 370.9 364.6 358.5 344.7 327.6 319 315.5 308.3 301.7 295.9 291.5 290.5 292.9 295.6 295.9 294.5 292.9 291 288.4 285.5 280.2 277.4 272 270.4 267.7 263.7 262.1 259.8 257.2 257 254.3 253.2 253.1 251.7 249.5 248.3 247.3 248.1 249 247.4 245.6 240.8 237.9 235.8 234.1 235.4 236.8 235.7 238.1 241.5 243.9 239.1 231.5 226.1 221.8 217.5 212.2 205.2 201.3 198.9 197.8 194.4 195.5 196.4 195.9 195.2 194.4 193.8 192.9 192.2 194.2 195.3 196.4 197.1 197.3 195.7 194.9 194 192.9 189.9 188.2 187.6 188.1 189.6 189.8 192 195.2 192.4 189.6 185.5 179.9
366.1 367.6 371.7 377.4 381 384.6 389.4 394.8 401.5 409.4 418.2 425 429.5 433.3 437.3 440.6 443 442.6 442 443.3 443.8 444.6 444.9 445.2 446.3 450.9 455.4 458.6 460.3 462.3 463.8 464.8 469 472.2 475 476.6 474.7 471.8 466.4 460.3 455 449.5 443.7 437 429.4 421.4 413.3 407.7 403.6 399.6 396.7 393.9 390.8 387.2 381.5 375 368.1 361.4 357.6 355.2 353.9 352.9 351.8 350.7 349.6 347.8 345.8 343.6 342.3 349.3 355.5 361.5 369.6 369.8 372.6 377.9 377.2 371.1 364.6 363.9 360.7 357.8 356.2 356.8 355.8 357.2 359.5 359.7 359.8 363.4 366.6 371.8 377 382.2 390.8 396.6 404.8 414.6 424 431.3 433.9 434.4 431.5 426.7 418.7 408.9 398.8 388.9 380.1 376.8 376.2 362.8 348.6 334.9 326.5 318.9 311.8 305.3 300.4 298.4 296.5 298.9 301.9 302.9 301 299.9 296.9 293.7 291.1 288.1 285.6 281.8 279.3 276 272.5 268.5 266.5 264.9 263.2 260.8 257 255.9 254.1 252 250.7 249.8 248.9 248.5 246.8 245.2 241.2 239.7 237.3 235.7 236.7 236.5 235.3 238.3 239.1 237.9 232.8 226.6 221.3 216.9 211.6 206.1 203.1 199.8 198.2 197.2 197.4 198.5 198.5 197.8 197.2 196.5 195.5 194.5 194.2 196.1 197.3 198.9 200.1 200.5 200.5 199.4 198.9 193.2 191.3 191.5 194.1 197.2 198.5 197.1 198.2 199.5 193.4 186.9 182.5 175.2
368.9 371 371.8 378.1 382.6 385.9 389.5 395.8 402.7 410.4 416.9 424.5 431.8 437.2 440.9 443.4 444.7 444.1 441.2 439.8 440.3 440.4 440.2 437.6 442.8 449.3 456.3 459.4 461.6 461.6 461.4 461.5 463.7 467.2 470.6 472.6 472.3 469.7 465.1 460.2 455.8 450.5 445 439.4 432.2 423.9 415.6 409.4 404.7 400.7 397.4 394.6 391.3 386.5 380.8 374.8 368.4 362.7 358.4 356.6 355 353.8 352.6 351.4 350.2 348.1 345.6 343.6 343.6 352 358.4 364 369.1 370.2 377 380.8 379.9 375.8 372.1 368.4 363.6 361.7 361.6 364 365.3 366.7 366.9 366.1 365.4 366.1 370.2 375 378.6 382 387.7 392.9 399.3 409.2 420 428.9 432.2 428.7 424.5 419 411.7 402.7 395.4 387.8 385.1 385.4 377.5 362.8 352.4 345.4 337 329.2 322.8 314.2 308.7 304 303.2 305.9 309.3 308.7 308.2 309.2 308.4 302.5 299 298.9 296.4 292.4 287.1 281.8 277.2 273.6 271 269.7 269.2 265.2 261.4 258.1 256.1 254.3 252.8 251.7 250.8 249.4 247.7 246.1 242.5 241.6 237.8 237.5 237.9 236.4 235.4 234.3 234.6 231.8 227 221.5 216.7 212.2 207 202.8 200.8 201.1 200.4 199.3 200.2 200.6 200.5 199.9 199.1 199.3 198.3 196.9 196 198 199.6 201.3 203.1 203.6 204.3 203.9 202.2 195.5 195.1 196.1 199.9 203.2 203.4 200.1 202.9 202.9 197 186.5 180.4 173.7
373.1 375.6 374.8 378.8 383 387.5 390.8 394.9 401.9 408.9 415.4 423.1 432.1 437.4 440.6 443.3 443.2 441.9 438.4 436.8 436 435.8 435 432.6 439.3 445.6 451.5 454.5 457.2 457.7 458.2 456.8 457.7 461.8 465.9 469.2 468.7 466.9 463.7 458.8 455.2 448.9 443.9 439.3 432.7 426.2 418.1 411.4 405.9 401.9 398.2 395.2 391.9 386.2 380.4 375 369.6 364.5 359.5 358 356.5 355.2 353.2 351.4 350.3 348.7 345.3 343.5 345.4 353.7 360.1 364.7 367.9 369.8 377.2 380.9 381.4 381.2 378 374.9 369.6 371.4 370.4 373.6 375.3 374.8 374.1 371.5 370.5 370.8 372.4 376.3 379.5 381.1 384.7 388 392.6 400.9 411.1 421.3 425.3 422.5 417.2 411.5 404.2 398.9 392.9 394.3 394.6 389.2 377.9 367.1 357.3 351.4 347 345.9 334.1 324.4 323.3 318.2 319.1 323.6 321.5 322.4 326.2 326 322.3 319.9 314.8 312.5 307 300.4 294.1 287.4 281 276 274.1 274.6 272.2 268.8 265 261.6 260 258.4 256.3 254.8 253.7 251.2 249.4 247.8 244.3 240.5 241.2 239.9 238.9 237.8 235.3 231.9 228.6 223.3 221.3 218.2 214.7 209.9 204.4 204.8 204.5 203.7 202.9 203.1 203.9 203.5 203.5 202.4 201.5 201.8 201.7 200 198.9 199.3 202.1 204 205.6 206.8 207.5 208.2 205.1 201.5 201.3 200.7 205.4 208 208 203.5 201.4 199.7 194 185.4 178.6 174
377.5 378.2 377.7 381.2 384.8 387.6 391.2 396.1 400.9 407.8 415.1 423.3 430.9 435.5 442.1 442.2 441.1 439.2 436 433.5 431.9 431.1 430.4 429 433.7 438.6 443.5 446.6 449 451.1 452.4 449.3 451.6 455.4 458.8 462.1 464.3 461.9 459.9 457 451.1 445.1 440 436.8 432.5 426.4 419.6 413 407.6 403.2 399.3 396 392.2 386.8 382.5 376.8 370.8 365.6 360.7 359.1 356.9 354.2 352.6 351.4 350.7 348.8 346.5 345 348.3 353.7 358.7 363.2 365.4 368.8 375.3 380.4 386.3 386.8 385.1 382.6 382.1 382.6 383.4 385.3 385.4 383.4 381.1 377.4 374.9 374.9 374 376.1 378.4 381.1 383.4 385.8 388.8 393.9 402.9 412.9 418.4 414.8 410.4 404.9 399.7 398.2 402.5 403 397.8 388.1 378 369.1 360.2 354.6 353.1 351.8 346.2 329.4 332.4 330.3 334.3 333.1 330.6 337.9 337.9 338.3 333.8 332 324.1 319.2 313.4 307.1 299.6 290.7 285.6 280.9 278.9 278.3 275.2 272.4 268.9 266.7 264.9 263.4 260.1 259.3 258.3 255.6 250.2 248.1 246.8 244.9 244.3 241.5 239.7 238.1 236.1 232.8 228.6 223.6 220.4 217.1 209.2 209.7 208.3 207.6 206.7 206.4 206.6 206.8 207.2 207.2 207.7 206.4 205.3 205.2 205.1 203.9 203.8 203.6 202.9 206.5 207.6 209.2 211.3 210.9 209 208.2 208.7 206.2 209.7 211.2 210.6 206.4 203.6 198.9 192.3 184.7 179.5 173.6
380.4 380.6 381.2 384.5 386.6 389 392.4 396.9 401.5 407.6 414.7 423.1 430.4 434.6 438.2 440.4 439.2 436.2 433 429.9 427.2 426.4 425.7 425.6 428.8 431.7 435 437.9 441.3 442.7 443.4 442.9 444.1 447.8 450.9 453.2 454.7 454.3 453.6 452 444.4 439.4 435.9 433.8 431.8 425.8 419.6 413.9 409.7 405.4 401.1 397.9 395.1 390.7 385.5 379.4 373.1 367 361.8 359.3 357.3 355.9 353.9 352.1 350.9 349 346.5 345.3 348.7 353.2 357.2 361.3 363.7 367.5 374.1 379.2 384.5 387.1 389.8 390.4 394.9 395.7 395.9 395 394.2 391.2 386.8 382.3 379.9 378.6 377.9 378 378.5 380 381.8 384.1 385.8 389.4 395.3 403 408.2 406.5 403.1 399.4 397.1 399.5 399.8 398.9 394 386 376.7 369.2 361.8 357.1 353.2 351 343.9 337.6 337.7 336.2 337.1 332.5 333.3 333.8 331.6 331.7 331 330 328.8 322.7 319.3 312.1 304.2 297.4 295.5 293.8 290.3 284 278.3 276.2 275.4 274.6 273.2 269.3 266.1 265.8 264.5 260.8 251.2 252.3 250 248.2 247.4 244.1 241.1 239 235.9 231.8 228.2 224.2 220.1 213.9 212.4 212.7 211.4 210.8 210.4 209.9 210.2 210.6 210.9 211.4 211.9 210.4 209.8 210.6 210.4 209.7 209.6 207.5 205.2 205.5 208.2 211 215.2 215.6 214.5 213.5 212.6 210.8 212.8 213.6 212.5 209.3 205.6 201.1 194.6 185.9 178.6 174
383.9 385.1 385 386.4 387.6 389.8 392.9 397.5 402.1 408.2 414.3 425.5 428.5 431.1 435.6 438.2 435.1 431.9 428.8 426.3 423.5 423.1 422.6 423.1 424.8 427.7 430.9 432.7 435 435.5 436 436.6 437.5 439.2 442 443.9 444.6 445.6 444.2 440.7 437.3 433.2 430.2 431.1 429.8 424.4 419.6 414.8 411.1 408.6 405.2 400.1 396.3 392.1 385.9 379.8 373.4 367.3 362 359.6 358.1 356.6 354.8 353.6 351.8 349.5 345.5 346 349.2 352.3 355.7 359.3 362 366.1 372.1 377.6 382.2 387.9 392.4 397.4 403.1 405.5 406.1 403.5 400.5 397 392 387.4 385 382.8 381.3 379.4 379.4 379.7 380.3 382.3 383.9 385.5 388.6 392.5 397 397 397.7 394.2 394.5 396.6 395.4 394.9 389.5 383.1 374.8 366.8 360.3 356.6 352.2 345.7 341.3 340.1 339.7 337.1 333.7 330.3 328.1 327.6 326.8 327.1 328.5 329.4 327.9 326.4 323.7 316.5 309 306.1 308.7 307.8 303.4 295.4 289.4 285 286.9 280.1 280.5 278.3 276.7 273.3 270.2 264.8 255.3 255 252.9 251.6 249.9 247 242.8 240.5 237.7 234.4 229.5 225.1 221 214.1 216.6 215.2 214.6 214.2 213.9 213.4 213.9 215.2 216.1 215.7 216 214.9 215.4 217.6 217.1 216.1 214.7 213.1 211.1 207.2 207.4 211 216.4 217 217 217.5 215.9 215.2 215.1 215.3 213.2 213.7 212 204.8 197.9 189 180.8 173.2
386.6 387.2 387.3 387.4 388 390.6 394 397.6 401.5 407 414.9 421 423.7 426.6 430.7 433.4 430.6 427.4 423.7 421.7 421.3 420.9 420.3 421 422.4 424.3 427.5 428.5 430.7 431.7 431.2 430.5 431.3 432.1 434.7 436.2 436.5 437.1 436.5 434.1 431.3 426.8 426.1 427.4 425.9 421.9 417.4 413.6 411 409.6 406 401.2 395.9 390 384.2 377.7 371.3 366.3 362.8 360.8 358.3 356.9 355.8 355.2 353.1 350.4 346.1 347 350.3 351.6 354.6 357.7 360.7 364.4 369.1 373.7 379.8 385.5 390.9 402.1 409.1 409.8 409.9 407.5 405.3 401.1 397.3 393.2 389.4 387.4 385.6 383.8 380.8 379.9 380.4 380.5 381.1 381.7 383.7 384.1 387.2 388.3 391.1 390.8 393.1 393.2 390.7 388.8 382.7 376.5 368 363.3 360 358.1 356.3 352.9 348.5 343.4 343.8 338.7 331.6 328.6 325.5 323.6 322.3 322.9 324.9 325.7 324.7 324 325.5 320.1 313.4 313.8 320.2 317.1 310.7 304.5 299.9 297.6 294.7 296.5 296.2 289.9 286.5 283.2 277.8 270.2 260.8 258.5 256.8 254.2 251.4 248.8 245.8 242.5 240.1 236.8 230.7 225.2 220.1 219.5 219.5 218.5 219.5 218.5 218.5 218.4 219.2 220.4 222.4 223 223 222.4 223 225.5 224.2 224.4 220 218.1 216 210.7 209.1 210.3 213.9 216.3 218.5 219 218.5 216.1 216.3 216.3 215.3 217 211.6 205.2 199.4 189.3 181.2 172.1
387.4 386.4 387 386.5 386.4 390.1 394 395.3 400.3 405.1 412 417 419.4 421.2 425.6 429.6 426 422.1 419.8 418.9 418.8 418.7 417.2 418.7 420.1 421.6 424.1 425.1 427.4 427.3 426.7 426.7 426.7 427.5 428.3 429.7 430 430 429.1 427.1 425.1 422.4 422.1 422 420.7 418.3 416 412.6 410.5 410.2 406.6 401.2 394 387.4 381.2 374.7 368.2 364.8 361.7 359.4 358.4 357.3 356.1 356.2 354.2 351.1 346.7 348.3 351.2 353.4 355.1 357.3 359.9 361.9 365.9 370.5 376.3 381.5 387.1 396.4 403.4 406.6 407.9 407.5 405.8 402.9 400.1 397.4 394.7 390.2 387.6 385.6 381.8 380.7 381 379.3 376.3 375.1 376.4 378.5 378.5 380.7 384 391 394.6 387.9 382.2 377.7 373.2 367.8 361.4 358.5 357.1 369.1 369.5 369.6 355.3 346.6 349.2 337.7 331.2 328.3 324.2 321.4 319.3 319.7 320.7 319.9 319.6 320.6 321.2 318.4 315.6 317.7 326.5 322.9 316.4 312.3 308.5 307 305.7 305 303.3 299.4 294.8 290.1 285.2 279.3 275.2 269 262.6 263 256.3 253.9 249.5 245.6 242.9 239.6 233.9 228.5 225.2 225.3 224 222.8 224.1 226.7 225.2 228.5 231.4 231 230.6 232.2 232.5 232.2 231.9 233.2 232.9 231.5 226.3 223.8 219.5 212.9 212.6 215.4 215 214.9 215.9 217.1 217 216.8 218.5 217.5 217.1 215.2 208.2 203.7 198.1 183.3 172.7 173
385.1 383.1 383.4 384.7 383 386.5 389.2 391.3 395.8 399.6 404.4 410.4 413.2 415.2 419.2 421 418.7 416.7 416.5 416.4 416.4 416.4 415.5 416.5 417.8 419.2 420.7 422.3 423.6 423.5 422.9 422.6 422.5 423.4 425.5 425.9 425.4 424.9 423.6 421.6 419.4 418.9 418.2 417.1 415.3 414.6 412.4 410.1 410.6 409.8 406.6 399.6 391.6 385 378.4 372.9 367.5 364.8 362.7 361 359.4 357.9 356.4 355.5 353.6 348.5 348.1 350.1 352.2 354.2 355.4 357 359 361 363.3 367.5 372.2 376.5 383.4 390.7 396.3 400.4 403.6 405.7 404.4 402 399.7 399 398.9 395.2 389.5 386.2 382.6 381.8 380.6 376.5 372.9 365.6 367.3 368.6 372.7 377.1 384.2 392.9 393.6 384.9 374.8 369.4 363.2 357.7 353.1 350.3 352.1 360.2 366.2 362.6 352.8 352.3 347 338.4 333.4 328.1 324.1 320.5 317.2 316.3 315.6 316.2 316.1 316.2 315.9 313.9 314.1 317 324.2 325.4 322.6 317.7 314.3 308.8 311.8 310.5 308.7 308.6 307.3 304.3 302.6 297.3 290.9 283.4 271.4 265.3 262.1 257.4 253.2 249.3 245.7 242.9 239.7 231.4 234 233.1 229.4 229.1 233.5 236.6 239.1 243.4 243.9 243 243.4 244.6 245.9 245 242.6 243.8 242.5 238.5 234 230.9 226.1 220.9 218.6 221.2 221.1 219.1 218.1 216.5 217.5 218.5 219.5 219.2 217.1 211.2 204.8 200.9 187.8 172.6 172.5 172.8
383.7 379.8 379.3 378.1 376.5 379.1 381.2 382.9 388.6 393 397.2 402.2 405.1 408.3 411.5 412.3 413.3 413.8 414.5 413.6 413.4 413.3 413.4 414.6 416.9 417.8 419.1 418.7 419.3 419.6 419.1 418.7 417.7 419.2 422 424.7 423.2 421.7 420.5 418.4 416.6 416.4 417.3 415.5 413.4 410.7 409.5 408.5 407.5 407.1 403.7 394.6 388.2 381.7 375.8 372.5 367.7 364.2 362.1 360.4 358.8 357.1 355.8 353.5 350 349.2 351.9 352 353.1 354.6 355.6 357 358.5 360.1 362 364.9 368.6 371.6 376.6 383.5 387.4 390.9 395.6 398.2 399.7 399.4 397.1 397.5 400 394.6 388.9 385.2 383.3 382.7 380 375.3 369 360.9 361.2 362.7 369.7 378.7 389.2 394.8 392.1 381.6 371.9 362.9 356.3 349.8 346.7 343.7 345.6 350.1 353.3 352.4 352.1 350.8 347 343.1 336.1 330.7 326 321.9 317.3 313 311.3 311.3 311.2 310 309.5 309.4 310.4 312.8 319.4 322.7 320.3 317.4 314.2 310.5 312.3 313.4 315.6 320.7 325 326.8 324.6 317.9 307.9 293.3 278 267.3 266.6 262.8 257 253.2 249.5 246.9 243.1 239.6 241.7 241.2 239.6 239.2 242.7 246.8 252.4 256.4 258.6 259.5 259.9 259.8 259.9 258 254.8 253.6 252.4 246.1 242.9 239 234.3 231.1 229.1 230.1 228.5 225.6 223.8 221.6 219.3 219.2 220.2 221 220.2 212 204 196.6 174 173.3 173.4 173.5
382.2 376.8 374.4 372.1 370.1 371.8 373.2 375.7 380 383.8 388 392.9 398.3 401.6 404.4 407.7 409.8 414 413.4 411.5 410.6 410.3 410.7 413.6 415.9 417.2 417 415.6 415.5 415.7 415 413.8 413.8 415.6 419.2 422 419.8 418 416.9 416.2 413.5 416.1 416.3 414.1 410.5 407.2 404.9 404.2 403.5 402 397 391.1 385.8 379.1 373.7 370.4 367.3 363.6 361.4 360.3 358 356.5 355.4 353 348.8 353.4 355.5 355.8 353.5 354.6 355.7 357.2 358.4 359.7 361 363 366.4 367.5 370.6 375.5 379.3 383.6 387.3 390.3 393.5 394.6 392.8 391.8 392.2 390.8 387.6 383.9 383.8 383.4 379.4 373.6 367 357.5 351.2 361 370.7 380.4 389.2 392.3 388.6 380.7 371.8 361.3 353 345.9 341.2 338.7 338.5 341.9 346.8 351.4 355.3 356.2 354.8 347.4 339.5 333.3 329.8 326.4 320 311.4 308.8 307.8 306.5 305.5 304.8 305.3 306.4 308.6 319.6 318.6 316.5 313.9 310.9 311.3 312.3 316.5 323.3 331.3 336.7 340.2 340 331.7 316.9 293.6 281.5 271.1 267.7 266.3 261 257.2 253.5 250.4 240.2 247 248.7 249.3 250.1 249.3 249.7 256.5 261 265.6 270.1 273 274.9 274.5 272.4 268.2 266 265.2 262.3 257.6 252.4 247.1 244.8 242.4 239.6 239.2 237.5 234.3 230.8 227.6 225.3 223 220.9 222.5 220.4 214.1 203.7 184.5 172.2 173.5 174.4 174.5
379.8 374.3 370 368.2 366.1 366.8 368.3 369.7 372.9 377.2 381.2 386.2 392.2 395.2 398.8 402.6 408 413.3 411.3 406.5 406.6 407.2 409.4 413.2 416 415.6 414.7 413.1 412.1 411.6 411.1 410.2 410.5 412.5 413.2 415.6 417.4 415.7 412.9 416.4 412.3 415 413.1 410.6 407.1 403.5 401.1 398.7 398 395.6 392.5 388.4 384 378.3 372.4 368.9 366.2 363.4 360.5 359.6 357.2 355.5 354.4 350.9 352.4 355.6 357.6 358.7 358.3 355.2 355.3 356.5 357.7 359.2 360.5 361.6 363.5 365.5 368.2 371.2 374.1 378 380.9 383.1 385.4 387.1 387.8 388.1 388 387.3 385.1 382.2 381.4 382.1 376 369.7 362.5 350.5 349.5 358.3 368.3 378.8 386.1 387.3 385.7 379.5 371.5 360.4 351.1 343.4 337.5 333.6 331.9 335.3 340.7 350.4 355.8 361.8 360.4 352.3 342.8 335.9 331.2 324.4 316.9 309.4 306.6 305.2 303.8 301.9 301.2 301.5 302.3 306.1 313.5 313.9 312.7 310.3 308.1 309.7 310.7 315.7 323.5 332.7 342.8 349.2 347.2 334.8 315.4 291.8 284.1 277.1 272.9 269 264.7 261 257.3 252.4 252.4 253.2 255.4 256.6 257.3 258.2 256.7 264.7 268.5 273.2 277.4 282 284.8 284.1 281.4 277.6 275.7 274.3 271.1 267.4 262.8 258.1 256.1 253.7 250 249.1 246.9 244.7 239.3 233.8 230.2 226.7 223.8 222.2 220.9 214.3 201.9 174.3 173 174.7 175.5 175.9
372 369.5 367.5 366.7 364.6 362.7 364.2 365.2 367.6 371.3 374.9 381.6 387.3 393.6 397 400.9 404.2 406.9 404.5 402 401.3 404.6 408.6 411.3 412.2 411.9 410.3 408.7 407.9 407.5 407.2 405.6 405.1 409.1 410.6 412.3 414.4 413.4 410.5 410.4 406.5 410.2 409.7 407.2 403.7 399.4 396.1 394 393 392.4 390.5 387.5 383.6 377.3 371.3 366.9 364.4 361.5 359.6 358 356.6 354.7 352.7 352.1 356 358 359.1 359.7 359.6 358.4 355.7 355.7 357.3 358.8 360.1 361.4 362.9 364.8 366.8 369.4 371.8 374.2 377.4 379.9 380.5 382 383.1 383.9 384.6 383.9 381.6 379.4 378 376.7 370.2 363.8 353.1 340.7 342.6 350.7 362.5 377.9 386 390.1 387.7 381.3 373.8 363 350.4 339.9 333.8 328.4 326.1 329.1 335.9 345.6 352.7 361.7 362.2 357.4 349.1 339.7 331.1 322.4 317 309.4 304.6 303.3 301.4 299.5 297.9 298.2 298.5 304.7 309.1 308.2 307.3 306.4 305.5 306.2 307.2 311.4 318.6 327.8 338.8 345.7 339.4 324.8 307.4 293.6 287.3 279.3 276.2 273.6 269 264.6 260.9 251.2 258.4 259.4 261.7 263.9 264.5 265.7 265.1 269.4 274.7 278.6 283.4 288.6 292.3 293.3 289.7 284.4 281.4 279.7 277 274.3 271.1 268.1 266.9 264.2 260.9 259.5 257.1 252.4 247 240.8 235.9 231.6 227.4 223.7 219.8 214.3 197.8 174.1 173.3 175.2 177.7 178.8
368.3 365.8 364.5 364.6 363.1 359.5 359.8 360.8 363.3 368 376.5 385 392.6 397.9 400.4 403.1 403.6 402 400.4 398.1 397.3 400.4 404.5 407.2 408.2 406.6 405.5 405.3 405.4 405.3 403.3 401 402.8 404 406.9 411.1 408.9 408.4 408.1 406 402.2 402.2 403.9 403.2 398.9 394.7 390.1 387.4 387.1 389.4 389.8 388.1 382 376.1 370.2 365.7 362.5 360.4 358.7 357.1 355.7 354.8 352.8 355.1 356.5 359.4 360.3 360.5 360.4 360.3 359.8 357.6 357.5 358.4 359.8 361.4 362.9 364.3 366.4 368.8 371 372.8 374.6 376.7 377.7 378.9 380.1 381.2 381.9 380 378 375.8 374.7 371 364.1 356.3 339.7 331.1 334.2 345 365 381 394 396.8 394.1 387.7 376.1 366 354.6 340 328.9 323.3 321.2 322.1 328.4 335.9 345.1 354.5 360.7 362.4 357.6 346.1 334.5 325.3 318.1 309.6 304.1 301.5 299.7 297.8 296 294.8 294.7 298.2 304.2 302.7 302.4 302 300.4 301.5 303.5 306.9 312.2 317.6 326.5 332.2 327.3 316.4 303.8 296.4 290 282.6 281.1 281.4 274.6 268.5 264.4 258.7 264.7 266.6 267.9 270.1 271.7 271.4 272 273.7 279 284.1 288.9 293.8 297.3 298.4 294.4 288.3 283.7 282.1 282.6 280.5 278.1 276.8 276.5 273.6 269.1 267 263.7 258.5 251.3 244.1 238.7 234.6 229.5 225 220 212.9 193.5 174 174 177.2 179.4 180
366.9 361.8 361.6 362 360.8 358.1 356.6 361.3 367.3 372.7 380.8 391.6 400.6 402 402.3 402.4 402.9 400.1 396.4 394 392.1 394.9 398.1 401.3 403.2 403.3 402 401.3 401.4 401.3 400.2 394.9 401.1 404.3 408.1 409.9 410.7 407.8 408.3 406.8 402.2 394.2 396.6 395.7 391.4 387.2 383.9 381.6 380.4 383.5 383 381.9 376.2 371.2 366.7 363.2 361.2 359.5 357.8 356.3 354.9 354.2 354.5 355.7 359.6 360.9 361.4 361.3 361.2 361.2 361.3 361 359.9 359 359.4 361.4 362.9 365.3 366.3 368.5 370.2 372 373.6 375.7 376.6 377 378.2 378.5 377.3 376.6 374.3 372.5 371.7 369.3 359.4 346 331.9 321.2 322.3 338.6 356 371 384.9 389.2 386.2 383.4 377.6 366.6 355.2 340.8 326.7 319.3 316.9 316.9 321.3 327.2 335.2 343.8 354.5 367.6 361.9 352.4 338.3 329.7 320.4 311.3 304.7 300.8 298.2 296.2 294.4 293 292.7 292.2 297.7 298.1 298.1 297.5 295.4 296.4 298.3 302.7 306.7 311.1 315.7 317.7 314.7 309.9 303.7 297.4 291.5 286.4 285.1 285.5 279.3 271.9 267.7 267.7 270.1 272.1 274.3 276 276.7 277.1 276.3 275.2 281.7 287.3 292.2 296.8 300.6 300.6 296.1 291.3 287.8 286 286.9 286.7 285.4 284.9 284.6 282 278.1 275.2 270.2 264.3 255.9 247.4 241.6 235.2 230.5 225.5 217.9 212 191.8 173.4 173.7 174.6 175.8 179.2
361.6 358.9 357.4 357.4 357.9 355.1 355.6 359.8 366.5 373.1 384.2 396.5 402.6 402.7 400.6 400.5 399.6 397.2 393.3 390.7 389.8 390.7 392.5 395 397.2 397.8 397.5 397.7 397.2 397.3 395.2 394.5 402.3 405.5 408.1 409.7 412.2 418.8 418.2 414.2 407.5 396.8 389.5 388 384.7 381.2 378.3 377.2 375.8 376.4 375.7 374 371 367.3 364.1 361.5 360.8 358.6 356.9 355.5 354.3 355.7 357.5 358.6 360.7 362 362 362.2 362.2 362.1 362.2 361.4 360.6 359 358.6 360.1 363.5 367.4 369.8 371.6 370.9 371 372.4 374.5 374.9 375.3 376.5 377.4 377.3 374.5 369.9 369.6 369.5 365.7 356.3 341.8 324.2 311.2 313.4 327.8 341.3 353.4 364.4 366.8 370.1 372.3 370.9 362.9 352.8 334.7 321.9 316.9 311.3 310.9 314.5 319.6 326.4 333.7 344.4 356.1 358.1 349.4 337.6 330.3 322.1 314.4 307.6 300.7 298.5 296.2 294.5 292.4 290.5 289.1 291.2 294.1 293.8 292.5 291 290.9 293.2 296.1 299.3 302.6 306.3 309.9 308.4 306.6 303.3 298.1 293.4 290.1 288.8 289.3 282.8 275.3 267.8 272.6 274.7 276.9 279.3 281.2 281.9 282.3 281.1 278.3 283.5 289.3 294.3 298.7 301.1 299.8 297.8 293.4 290.6 292.1 293.3 292.8 291.7 291.8 291.9 288 284.4 282.6 276.2 267.1 257.5 249 241.1 234.6 229.2 226.3 213.2 201.2 186.9 175.6 173.9 174.4 175 176
357.8 356.1 354.8 354.9 353.5 353.4 355.3 358.8 364.3 370.7 381 390.7 395.1 397.2 396.1 396.3 394.6 392.8 391.4 389.1 386.1 386.1 387.9 389.8 392.4 393 392.9 392 392.9 393.9 390.3 395.7 406.3 412.8 416.6 416.9 417.8 420.8 422.6 421.4 412 403.8 394.5 390.7 385.2 379.5 375.7 373.7 372.3 370.9 369.8 368.5 367 364.2 361.8 360.9 360.2 357.7 356.6 358.2 358.2 358.4 360 361.5 362.2 362.5 362.5 362.7 363.1 363 362.6 361.8 360.9 358.6 357.8 359.5 365.4 369.8 372.3 373 372.8 371.5 371.1 372.4 372.9 372.8 373.9 375 375.4 369.5 364.4 363 362.9 361.2 349 334 318.9 306.8 307.5 315.4 324.8 337.3 350.6 352.9 357.2 357.9 358.6 354.8 347.4 329.6 317.3 315.5 307.1 305.1 307.5 312.2 317.8 324.4 333.5 340.7 349.2 347.5 336.8 329.4 323.2 316 308.8 305.7 303.7 300.1 295.3 292 289.5 286.6 286.5 289.1 287.5 286.9 285.6 285.4 287.8 290.5 293.9 299.1 301.6 303.9 304.9 305.3 302.8 298.8 295.1 291.4 287 286.4 279.9 272.1 276.3 277.8 279.8 281.9 284 286.4 286.9 287.2 285.8 282.3 284.4 290.2 295.3 298.4 299.1 299.8 299.3 298.5 296.3 298.3 299.6 298.8 298 298.6 297.7 293.5 289.7 284.9 277.2 268.3 258.7 249.1 239.9 233.3 228.2 214.2 205.2 192 181.5 176.5 174.9 174.4 175.1 176.3
355.6 353.8 352.5 352.5 352.2 352 354.6 358.2 362.2 368.1 373.7 381.5 387.7 390.8 390.8 390.4 390.7 390.1 390.1 388.7 385.2 382.5 383.3 385.7 387.6 387.7 388.3 385.7 383.3 387.3 394.3 400.5 408.4 416.6 424.3 419.5 419.8 419.4 419.3 418.2 411.6 404.7 398.3 390.8 385 380.9 377.5 373.4 370.5 367.7 366.6 365.6 364.6 362.1 361 359.8 358.3 358.1 357.9 359.9 360.9 360.7 362 362.2 362.7 363 362.9 363 363.5 363.8 362.8 361.8 360.9 358.8 357.4 357.4 367.8 373.3 373.4 373.4 372.8 370.2 369.9 369.8 369.5 368.4 370.2 372.7 371.2 365.1 358 354.5 354 353.6 341.1 326.8 312.5 303.6 301.5 305 312.2 318.8 326 333.9 341.3 343.9 345.1 346 341.3 325.4 311.1 308.6 307.6 299.9 302.7 306.1 310.2 315.5 321.1 329.2 333.9 335.6 332.2 327.2 322.1 315.6 313.2 313.9 311.3 311.8 306.8 301.1 294.9 288.1 283.1 281.6 281.6 281.2 279.8 279.9 282.3 285.6 289.2 295.3 300.7 303.7 305.9 306.3 302.8 298.5 294.9 290.4 284.8 278.5 279.1 279.4 281.1 282.9 285.1 287.4 289.4 290.8 291.2 291.9 289.6 287.1 283.6 289.9 293.5 296.3 297.7 299.5 299.5 300.9 301.4 303.5 305.7 305.5 305.4 305.8 302.9 296.7 292.3 284.8 276.5 267.9 258.2 247.2 237.9 227.9 225.6 212 196.2 185.5 179.5 176.8 175.5 174.7 175.4 177.3
353.3 352 351.3 351.4 350.5 351.7 354.4 357.3 360.4 364.4 369.8 375.6 381.9 386.9 386.8 386.5 387.1 387.5 388 388.5 382.9 380 380.2 381.9 383.4 384.1 380.5 383.8 387.9 390.7 394 398.2 405.4 410.1 415.2 417.2 418.2 417.8 416.8 415 410.5 403.5 396.4 391.2 387 383.1 378.8 375.1 372.1 369.7 367 364.3 363 362.2 361.2 360.7 360.5 359.9 359.1 361 361.9 362.6 362.7 362.8 363.1 363.5 363.4 363.4 363.7 363.4 362.7 361.9 361.1 360.2 357.8 356.4 363.8 371.3 373.6 373.8 371 367.7 367.1 366.5 365.3 364.1 365.2 367.6 368.9 363.1 353.1 345.4 340 338.1 329.2 318.7 308.4 301.5 298.5 299 302.1 306.1 310.9 315.9 322.6 327 329.5 330.8 324 315.4 304.6 303 301.5 296.7 297.6 302.2 306.4 309.9 314.6 320 326.3 329.8 330.6 323.1 318.8 316.5 317.7 317.3 319.8 321 314.7 309.1 298.6 290.5 284 280.5 277.4 276.3 273.7 275 278.1 281.2 285.6 295.3 301.1 305.8 307.6 305.7 302 298.1 293.7 288.4 284.9 285.9 286.6 286.1 287.4 289.2 291.1 292.9 294.3 294.2 294.3 295.1 293.3 291.2 287.6 286.3 290.7 295 298.7 300.8 302 304.8 305.3 306.9 309.4 311.5 312.9 311.2 305.8 299.3 292.9 284.6 274.9 265.5 254.6 242.1 231 220.3 213.3 203.4 191.2 181.4 176.1 175.5 175.2 175.1 179 188.6
350.4 349.8 350.4 349.4 348.9 350.1 352 355.2 358.2 361 365.7 371.5 376.2 380.5 381.9 380.5 379.4 379.7 380.5 379.9 378.5 378 378.2 380.2 380.7 379.2 380.3 385.9 387.7 390.5 393.3 397.9 403 408.3 414.5 419.1 419.3 418.3 417.4 415.6 411.1 404.8 399.4 393.9 389 384 379.7 376.7 373.5 370.7 368.4 367.1 365.7 364 362.2 361.6 362.2 361.7 361 361.9 362.8 363.6 363.4 363.5 363.6 364 363.9 363.7 363.3 363.4 362.4 361.9 361.2 360.3 358.1 355.6 358.6 365.5 369.4 369.6 366.7 363.9 362.4 362 360.2 357.5 356.6 358.3 362.5 357 344.6 333.8 326.4 320.7 316.5 311.5 304.3 300.7 297 295.9 296.5 298.6 300.3 302.6 306.7 308.9 310.1 310 309.9 305.3 298.4 295.8 295.8 291.2 296.4 300.4 303 306.1 309.3 314.8 320.5 325 325 325 317.9 316.8 317.3 316.1 320.8 319.4 316.1 312.6 301.4 293.2 286.3 283.4 280.9 274.5 269.6 270 273.2 276.4 282.9 294.6 297.2 302.7 303.7 299.2 298.9 297.1 293.2 287.1 288.7 289.4 291.6 291.6 293.3 295.3 297.5 297.9 297.5 296.7 296.7 297.6 295.6 293.6 289.2 287.7 290.7 295.3 299.7 300.9 304.7 307.9 309.6 309.2 311.8 315.6 319.1 316.7 309.8 303.3 293.4 283.8 273.3 262.7 250.8 234.4 222.8 218.5 208.2 199 189.4 176.7 176.3 176.1 176.1 177.1 183.9 184.1
347.5 348.1 347.2 347.1 348.7 348.7 349.8 352.1 356.1 358.1 362.4 366.8 370.1 373.2 374.4 373.8 374.3 374.7 374.7 375.6 375.9 376.3 377.2 377.8 377.7 377.2 379.6 385.5 385.7 387.6 392.7 398.7 406.3 413.6 420.2 424.9 425.4 424.4 422 417.2 413.3 407.7 402.1 396.5 390.4 385 380.7 377.9 374.7 372.6 371.1 369.6 367.6 364.6 362.7 363.5 363.8 363.5 362.2 362.6 363.2 363.8 364.1 364.2 364.3 364.5 364.2 363.2 362.6 362.3 361.9 361.6 361.1 360.2 356.6 354.5 353.9 359.3 363.1 361.2 362.5 360.6 359.2 357.4 355.7 353.8 350.5 348.7 347.1 342.9 335.3 327.2 320.1 315.8 309.7 305.7 300.7 297.6 295 293.9 292.3 293.8 294.5 295.3 296 296.5 297.9 298 298.7 296.7 291.1 289.2 288.5 288.1 294.8 296.9 299.6 302.8 307.4 312.7 318.1 324.2 327.6 324 317 315.7 312.8 312.7 314.6 313.9 310.9 305.2 299 294.4 288.8 284.6 280.7 275.5 268.9 264.9 268 271.9 280.3 288.9 292.2 296.2 297.5 296.1 294.7 292.8 291.4 286.4 291.8 293.4 295.8 297.4 298.4 298.7 300.4 301.7 299.5 297.9 296.7 296.2 294.4 292.3 289.8 290.6 292.6 296.5 298.9 302.7 306.7 310.4 311.7 311.5 314.6 319.3 322 318.8 313.7 304.2 293.5 282.2 270.7 258.2 245 228.5 220.2 218.6 211 197.5 183.4 176.2 176.1 177.6 178.2 184 183.2 194.7
343.6 344.8 345.2 346 347.3 347.2 347.7 348.6 352.2 354.4 357.4 361.7 366.2 367.7 368.6 369.5 370.6 371.8 373 374.3 374.7 374.4 375.5 375.4 375.6 376.1 378.1 383.8 384.5 387.2 387.8 399.3 408.4 417 425.6 429 430 430.1 428.6 423.8 416.6 410.1 404.4 398.8 393 387.8 384.2 380.5 376.8 375.4 373.5 371.3 369.4 366 364.6 364.3 364.3 363.5 363.9 363.7 364.1 364.3 366 364.9 365.1 364.4 363.7 363.9 363.5 362.9 362.1 361.6 361.2 358.6 355.7 353.7 352.5 352.8 356 357 360.6 360.3 359.1 355.5 353.4 349.4 346.6 342.9 341 337.2 331.4 325.6 319.8 315 310.3 305.1 301.3 297.6 295.2 292.9 292.1 290.7 290 289.8 289.6 288.5 289.5 289.1 288.6 286.8 285.7 284.7 284.7 289.4 294.7 293.6 295 301.9 307.2 312.8 319.5 324.7 323.3 321.3 316.8 313.8 309.7 308.4 309.4 307.2 302.8 299.1 295 292.1 288.4 283.8 279.4 274.5 268.6 262.1 262.7 267.9 276.9 283.7 286.4 290.2 291.4 289.9 288.7 287.8 286.6 286.3 291.3 293.1 294.9 296.7 298.3 299.8 300.9 300.7 299 296.6 295 293.9 292.6 291.2 290.1 291.7 294.6 296.9 299.8 304 309 311.9 313.9 313 318.1 319.7 319.3 316 310.5 300.6 289 278.1 266.5 252.5 233.3 217.8 210.8 203.4 199.6 189.8 176.9 175.9 176.9 178.6 181 186.3 190.5 200.4
343.6 343.4 343.9 345.2 346.5 347.3 347.8 348.7 349.5 351.7 353.8 357.2 360.4 362.3 364.6 366.9 368.1 369.9 371.2 372.7 373 372 375.4 376.7 379.2 381.3 383.2 382.1 384.7 388.8 393.7 400.8 409.4 418.6 427.8 433.3 434.2 435.6 434.3 428.8 419.7 412.9 406.7 401.2 395.6 391.4 387.9 383.4 379.6 377.3 375 372.8 370.9 366.5 366.6 365.6 365.7 365.1 367 367 368.1 370.4 371.6 369.8 367.3 366.1 366 366.9 366.4 365.3 364 363.3 362.7 361.9 357.7 355 351.5 348.8 347.1 350.6 353.2 355.2 353.5 351.5 348.3 345.3 342.8 339.6 336.2 332.9 328.5 323.7 319.1 315 311.4 306.5 301.8 297.8 294.6 293 292 291.1 289.9 288.6 287.2 285.9 285.1 284.6 284 282.8 282.2 282.8 282.5 285.9 290.9 290.9 291.2 297.5 308.5 314.5 320.3 324.9 324.5 317.9 316.7 311.9 307.1 304.2 303.5 302.2 298.7 295.1 293 290.7 287 282.1 277.7 272.7 268.1 261.7 259.3 264.6 273.7 279 281.8 285.3 285.6 285 284.4 284.2 284.5 286.7 291.1 293.3 294.9 296.7 296.9 297 296.3 295.5 294.2 293.2 292.7 292.6 293.2 293.9 292.3 292.4 294.5 297.6 301.7 305.5 310 312.4 313.6 312.7 313.8 313.9 312.3 309.1 301.3 292.7 282 272 246.7 242 219.1 207.4 200.8 194.7 189.8 178.7 176.4 176.6 177.7 180.9 183.8 185 195.3 208.2
344.4 345.4 344.2 346.4 348.1 348.4 348.9 349.7 350 351.1 352.4 353.8 355.7 358.6 362.1 363.9 366.9 368.9 370.2 371.7 372.4 370 377.2 379.8 382.1 381.2 381.7 384 386.7 390.4 394.8 401.3 408.3 418.8 430.3 438.2 440 443.1 442.6 435.1 422.9 414.8 408.9 402.3 397.1 393 389.2 385 381.2 378.9 376.6 374.4 370.9 369.4 368.5 367.9 367.1 368.6 371.8 372.8 375.3 377.9 378 374.1 370.6 368.3 366.5 367.6 368.1 366.1 364.2 363.6 363.1 363.4 360.6 358.3 356 352 346.9 343.5 348.1 349.7 348.1 345.9 343.6 342.6 341.1 337.9 334 331.3 327.5 323.1 318.7 314.4 310.7 306.8 302.9 299.4 295.7 293.5 291.5 289.9 288.7 287.3 285.7 284 283.3 283 281.6 280.3 280.7 281.3 281 281.7 283.7 285.3 286.5 288.7 294.8 304.5 313.3 318.3 318.2 319.1 314.6 310.5 305 301.4 297.5 295.3 291.7 290.5 290.8 292 289.6 281.2 275.9 271.1 266.4 261.2 258 265.7 270.6 276.6 279.5 284.2 284.2 284.2 283.5 280.6 281.8 286.7 291.3 294 295.7 297.6 297.5 296.3 295.6 293.6 292.9 292.9 292.7 294.6 295.7 296.2 295.8 295.4 297.7 301.5 304.8 308.4 310.7 313.3 313.4 308.5 307.3 306.9 302 296.8 290.8 283.1 261.7 248.3 246.3 222.5 208.6 200.9 194.5 188.8 180.3 176.4 177.1 177.7 180 187.3 186.9 188 202.4 216.5
345.9 346.9 346.4 345.1 346.8 349.4 349.9 350.2 350.3 351.5 352.7 354.8 356.9 360.1 362.7 365.5 368.3 369.6 371.2 372.6 374.6 371.2 378 380.7 384.5 385.8 387.7 390 390.1 392.6 396.6 402 409.4 418.3 430.4 438.5 442.9 449.6 450.4 442.7 429.5 417 410.4 403.8 398.5 395.1 391.1 385.7 382.7 380.6 378.2 375.4 373.7 372.2 372.1 370.3 371.1 374.4 377.3 377.7 380.1 382.4 381.2 375.6 371.4 368.8 366.5 366.5 367.9 366.3 364.6 366.4 365.3 363.1 364.4 361 360 357.6 352.1 344.8 340.5 343.9 343.1 341.8 337.1 340.2 339.8 335.7 331.3 329.8 327.3 323 318.6 315.1 311.4 306 302.8 298.6 294.2 292.7 290.9 289.2 288 286.5 286.7 284.2 283 282.1 281.2 280.2 278.8 278.2 278.7 279.9 280.6 281.6 283.8 284 287.4 292.3 300.7 308.6 309.7 312.5 310.4 307.3 301.8 295.2 288.5 286.3 284.8 283.7 283.8 288.9 286.9 278 271.9 268.3 264.6 260.7 257 260.8 268.1 280.7 284 288.5 286.1 282.9 282.2 278.4 279 284 289.5 292.7 295.3 298.2 297.9 296.7 295.5 294.7 293.2 293.2 294.4 296 296.8 298.4 299.8 299.5 301.8 305.9 309.4 312.2 312.5 312.2 309.2 305.2 292.6 287.6 275.2 274.5 270 253.4 249 247 231.4 214.3 202.2 195.5 190 184.1 176.8 177 177.7 178.7 181.3 187.8 188.3 191.1 198.8 219.3
346.9 348 348.7 348 347 348.1 350.1 350.5 350.7 351.6 353.7 356.3 358.1 360.5 363.4 364.6 366.4 368.7 370.3 370.8 368.3 373.6 375.9 380.9 384.4 388 390.2 391.6 393.1 396.1 399.2 404.4 411.5 418.8 427.6 436.5 443.8 457.1 459.8 449.2 435.4 421.1 411.8 405.6 399.8 396.6 391.9 387 384.1 381.7 379.3 376.7 376.8 375.4 374.7 374.4 374.7 377.1 379.3 379.9 380.9 381.4 379.8 375.4 371.4 368.8 366.6 365.4 366.7 364.9 362.8 363.9 362 361.1 361.2 359 357.7 355.5 352.1 347.5 337.4 332.4 326.2 323.9 325.9 326.5 331.1 330.3 326.2 323.8 324 321.7 319 317.7 316.7 310.1 303.4 297.9 293.8 292.9 294.9 292.8 291.1 290.7 288.8 287 287.1 286.3 283.6 282.7 281 279.7 276.3 278.5 277.2 277.9 279.2 281 283.7 286.6 290.2 296.9 300.3 302.3 307.6 305.9 298.4 290.5 282.3 276.5 276.4 275.3 276.1 277.5 274.9 269.9 265.5 263.3 262.7 260.6 257.3 261.2 267.4 279.3 281.2 280.9 281.3 277.7 277.6 276.3 277.1 281.2 285.8 290.2 294.3 298.5 299.7 299.7 298.3 297 294.9 294.8 296.8 298.5 300.5 302.4 303.9 305.1 306.3 309.7 311.9 314.2 313 307.9 303.6 293.5 273.6 264.5 256.7 256.2 250.6 246.4 241.7 237.3 219.5 205.7 197.2 192 186.1 178.3 176.9 177.8 178.5 179.8 187.7 187.5 193.3 199.1 199.8 209.6
347.6 348.6 349.3 350.2 350.6 347.7 350.7 350.6 352.1 355 355.1 355.1 356.9 358.9 360.3 361.9 362.8 365 364.8 366.3 371.1 374.3 375.9 378.3 381.7 387.4 390.4 392.2 395.2 398.6 401.8 406.6 412.4 419.3 426.7 435.5 443.4 453.3 456.9 448.6 436.7 421.9 412.9 406.4 400.8 396.5 392.1 388.8 385.9 383 381.2 380.3 379.8 378.1 378 377.3 378.1 379.5 380.9 380.9 380.8 380.7 378.9 373.9 370.6 367.9 365.6 364.1 361.7 362.1 355.1 353.8 348.9 347.3 344.8 342 340.7 336.8 332.2 330.1 327.7 326.4 327 332.6 319.6 317.3 316.2 317.7 318.4 316.7 315.5 315.1 314.8 314.9 314.2 309.2 300.7 295.8 297.9 297.6 297.4 295.1 294.2 293 290.2 289 289.9 287.5 284.9 285 284.2 284.4 283 276.2 274.7 274.1 277.3 278.7 280.7 282.7 284.3 287.1 289 292.7 303.3 301.5 293.4 287.9 281.5 275.5 268.1 266.9 269.2 267.8 265.5 263.5 260.2 257.6 258.3 257.8 256.2 258.7 264.8 272.9 279.6 276.1 273.2 270.7 270 271.2 273 275.7 278.5 285 291.3 296.3 297.7 298.7 297 295.4 294.3 295.4 299 301.9 305.3 308.3 310.7 311.6 311.1 312.1 313.9 312.2 307.8 302.7 289.8 268.6 259.1 249.1 239.4 240 237.3 246 230.4 215.6 206.1 198.6 193 189 177.4 178.3 178.2 178.6 187.4 194.8 193.1 192.5 203.9 210.6 207.9 215.2
348.2 348.8 350.3 352.1 352.3 352.1 353.9 353.6 354.6 356.6 358.9 358.6 356.4 359.7 359.4 362.4 364.3 366.7 369.4 369.8 369.9 373.5 376.9 380 382.3 385.7 389.2 394.7 399.1 403.6 408.5 410.4 415.3 420.7 428.2 436.5 441.3 448.7 450.6 444.2 434.6 421.5 413.5 407.6 401.2 395.9 392.1 390.9 388 385.4 384.3 383.2 382.6 381.6 381.4 381.4 383.2 383.8 382.6 381.8 380.1 378.8 376.3 373.1 369.8 367 364.4 359 361.5 356.6 354.5 356.4 355.1 353.4 358.7 356.5 353.2 350.8 352.5 346.5 346.6 344.3 344 346.5 338.6 324.7 318.1 312.5 312.5 311.6 311.1 310.6 309.4 309.1 309.2 306.7 301.4 303.5 305.3 303.4 300.4 297.3 295.7 294 291.8 290.7 293.2 288.8 287.6 287 286.3 285 283.5 280.4 278.3 275.8 271.8 273.8 277.3 279.1 280.4 281 280.7 282.4 290.7 295.9 289.4 287.2 283.2 276.6 268.8 261.4 260.8 259.9 257.6 256 254.9 254.5 255.2 255.2 256.2 266.3 270 270.6 272.5 271.6 268.3 264.9 264.2 265.3 267.6 269.5 274.7 281.4 286.5 290.1 290.4 290.7 289.8 288.4 288.3 291.3 295.9 297.5 303.3 309.2 313.4 315 314 312.9 311 307.1 292.2 285.7 272.6 252.7 245.1 235.2 225.7 221.3 218.5 213.1 210.6 204.5 198.2 192.6 185.7 178.3 178.5 178.6 184.8 193.1 199.5 202.1 204.4 206.5 213.2 210.2 217.2 224.5
349.2 350.9 352.4 354 354.3 355.9 356.3 356.7 357.9 355.1 360.6 362.8 361.1 364.7 367.2 368 370.2 372.1 373.8 375.4 376.1 379.1 380.2 378.7 381.1 386.1 390.5 398.9 404.9 411 415.3 417.4 420.7 426 429.3 434 437.6 439.8 440.1 435.9 430.1 421.2 414 407.4 401 396 393.7 392.5 390.3 388.6 387.5 386.3 385.5 384.5 384.4 385.7 386.9 388.2 385.6 382.4 380.7 377.5 375.2 371.6 369 366.7 363.9 364.4 364.4 363.4 365.1 364.7 364.1 362.6 366.4 364 364.1 361.2 359.4 355.5 355.1 353 349.9 347.3 341.2 332.4 327.8 320.5 313.7 309.6 308.2 308.2 305.4 304.2 302.7 302.7 305.7 308.2 309 307.9 304.7 301.6 299.3 298.1 295.6 293.9 293.8 292.4 289.7 289.2 287.8 285.7 283.6 282.5 281.5 278.5 277.3 271.2 272.4 274.7 275.5 276.4 275.4 277.9 277.7 283.6 283.7 283.6 279.6 275.3 268.7 261.1 256.3 254.6 254.1 253.9 254.6 256.2 260.2 268.2 273 272.1 267.5 267.4 267.3 265 263.8 262.1 265.8 271.5 272 265.3 269.9 275.7 278.1 279.1 276.6 280.9 280.9 281.6 277.2 281.5 284.8 286.3 290.4 296 300.2 303.3 303.7 298.9 294.2 286.7 273.5 260.2 248 238.9 238.7 238.1 229.5 209.6 208.4 203.4 200.9 196.5 190.8 178.4 179 178.1 185.3 194 203.2 208.5 211.5 213.7 215.6 218.3 219.7 220.4 221.9 231.6
351.5 353.5 354.8 356.4 358.8 359.8 361.8 364.2 367.6 369.3 366.2 361.7 365.2 372.3 374.4 377.7 381.8 383.7 383.5 382.5 385.5 387.7 387.2 391.9 392.4 388.3 390.3 402 410.8 417.2 421.1 423.8 427.9 432.1 434.1 436.3 437.2 437.1 436.1 433 427.7 419.2 411 404.8 401.4 398.4 396.3 393.9 391.9 390.5 389.4 388.6 388.2 387.1 387 387.6 388.5 389.8 387.5 383.3 379.7 376.6 373.5 370.9 369.1 365.8 366.5 369 369 370.8 372.9 375 370 366.5 367.1 368.6 366.6 365.8 363.6 357.4 358.3 356.2 355 350.2 345.8 344.8 343.8 339.1 331.9 328.2 324.9 317.8 313.7 311.8 312.3 313.5 311.5 311.2 312.2 310.6 307.8 304.7 304.1 302.7 299.6 295.6 295.3 295.7 292.3 291.9 289.5 287.3 286 284.7 283.3 280.2 279.7 276.1 272 271.2 271.8 271.1 270.6 272.9 273.4 274.8 277.9 277.5 278.6 274.6 268.4 259.9 253.3 253.8 253.4 252.9 252.6 256.6 269.6 275.9 271 267.7 264.4 260.6 260.6 261.3 261.1 264.4 273.3 274.8 268.8 260.7 264.1 267.1 269.4 268.8 271.1 270 268.3 267.1 265 263.9 265 266.6 269.4 274.1 274.7 279.2 278.8 275 265.7 264.2 255.1 246.5 234.3 224.9 232.1 226.2 216.7 206.3 199 196.2 193.4 186.2 180.1 179 182 192 201.4 210.1 216.3 219.6 222.4 222.4 222.7 225.3 227.1 229.7 225.7 239.8
354.8 356.8 358.9 361.2 363.5 366.2 370.2 375.4 379.6 381.1 379.7 373.3 366.9 379.3 386 392.5 395.8 398.7 399.8 393.5 404 402.7 401.1 401.2 401.4 399 395.7 395.1 410.6 415 421.1 427.7 434.1 436.7 438.6 440.3 440.9 439 437.2 434.2 428.3 420.9 411.3 406.6 403 400.7 398.6 397.6 393.4 391.8 391 390.4 390.6 389.6 389.1 389.5 389 388 385.8 382.9 378.9 375.3 373.4 372.1 368.8 367.3 370.2 372.8 375.9 376.8 377.4 379.1 377.3 373.3 368.6 367.9 367.8 366.9 365.5 358.1 364.4 361.8 359.7 359 357.8 359.6 362.6 360 354.2 350 345.3 337.9 329.9 323.7 322.2 320.2 318.7 316.8 314.4 311.8 308.9 307.2 306.3 304.6 301.8 299.3 298.7 298.1 295.4 293.6 291.2 289.2 287.7 286.2 284.7 283.8 281.3 279.7 276.9 280.6 271.3 263 265.5 269 269.6 269.5 269.8 270.7 272.8 270.9 265.7 256.3 254.4 254.2 253.8 253.4 252.8 257.4 274.7 272.7 268.4 266.7 265 261.3 260.7 260.9 262.8 272.8 277.1 273.1 263.2 259.2 254.9 259.8 260.9 260.3 260.6 258.6 258 257 253.8 250.9 250.6 252.2 254.3 256.7 258.5 259 258 254.7 250.7 248.3 239.9 231.1 225.4 213.5 220.5 210.6 202.4 195.5 191.4 188.6 184.3 180.7 181.8 191.6 192.1 201.8 212.1 223.2 233.9 232.9 231.9 230.5 228.7 232.8 237.1 244.1 249.3 242.4
358.8 361.6 363.9 366.1 368.4 371.9 377 381.6 384.8 386.8 388.8 383.8 376.4 384.6 393.2 401.7 407.6 411.1 411 409.2 413.9 413 413.2 412.2 409.7 405.8 402.4 402.1 405 412.1 420.5 426.9 432.4 436.7 440.6 443.5 444.9 442.5 439.1 435.9 430.4 420.9 414.7 417.3 415.7 411 407 404.4 400.9 396.7 394.2 393.2 393 392.8 391 390.9 389.4 386.9 384.8 381.8 378.9 375.9 374.4 372.4 369.2 370.3 372.4 374.2 376.2 378.2 379.6 381.4 380.7 378.6 373.2 370.9 372.1 371.7 369.9 366.2 370.3 369.4 370.1 371.9 374.1 378.3 380.3 378.2 377 374.8 369.9 361.4 351.2 343.7 339.3 333.1 327.4 322.5 318.9 316.1 313.4 309.3 307.7 305.2 303.2 301.5 301 300.8 297.8 295.7 293.7 292.1 290.8 290 287.9 286.1 286 282.9 281.7 282.6 277.9 272.6 261.9 265 263 263.6 264 264.4 264.9 264.7 262.1 254.3 255.2 254.6 254 254 253.3 255.3 274.8 267.2 266.1 264.1 264 262.9 261.9 263.6 268.7 272.6 269.8 266.8 258.2 248.4 249.1 251.4 255 257.1 257.7 252 253.5 249.6 246.1 242.1 241.9 239.9 242.7 242.9 242.6 242.7 242 239 235.3 235.1 230.6 221.3 212.5 204.7 208 199.8 189 181 181.5 179.9 179.8 180.1 194.8 201.8 200.9 209.8 218.4 226.6 234.7 234.2 236.6 236 234.9 238.3 243 258 265.7 263.6
361.5 365 367.8 370.6 373.3 376 380.3 384.2 387.8 390.3 392.8 390.9 381.8 387.4 397.8 406.3 412.1 416.8 417.3 416.6 418.7 418.9 420.4 420.6 417.1 412.7 407.9 407.9 403.2 409.6 417.5 425.6 431.4 436.3 440.8 444.7 445.7 444.7 441.5 437.9 432.6 424 427.5 427.8 424 420.1 414.8 411.7 408.3 403.2 400.3 398 396.9 395.1 393.8 392.3 389.8 387.2 384.6 382.5 380 377.3 374 372.1 373 374.4 376.8 377.4 379.2 380.9 382.1 382.5 382 380 378.4 375.5 377.8 377.4 373.7 367.3 376.7 379 385.3 389.7 394 398 400.2 399.8 396.8 392.7 386.4 375.9 367.3 362.7 355.6 348.2 338.9 329.9 324.6 321 318.1 314.2 310.4 308.5 307.7 304.1 303 302.5 299.7 297.6 297.2 294.8 293.3 292.1 290.5 289.2 288.8 285.9 286.7 286.8 281.3 276.4 273.4 267.3 260.7 260 259.5 259.4 259.4 259.6 257 255.5 256.1 255.2 255.5 255.1 251.7 252.1 259.3 260.5 261.2 260.5 260.9 261.3 264.2 261.5 263.7 259.6 255.2 250.9 247.8 244.7 239.8 242.6 253.8 253.2 250.5 247.9 245.4 242.3 239.3 235.5 237.4 232.5 237.5 235.3 233.3 233.6 235.4 232.1 224.8 223.8 227.5 227.1 224 212.9 199.5 183.6 181.8 182 183.1 183.5 194.7 199.2 206.5 208.8 207.1 215.8 219.6 227 230.3 232.3 237.2 238.8 240.5 244.6 255.5 272.7 283.9 282.6
364.2 367.9 370.8 373.6 376.4 379.8 382.9 386.8 390.5 392.7 394.3 394.5 393.8 395.4 399.6 406 412.1 417.1 419.9 420.8 422.4 423.6 424.2 424.3 421.1 416.8 415.9 414.2 413.5 412.9 422.4 425.4 430.6 435.6 440.1 443.8 445 445.1 443.1 439.6 434.8 437.5 436.6 435.3 432.4 428.4 423.3 418.5 415.1 410.7 406.6 403.5 399.6 397 395.4 393.5 390.2 387.9 385.7 383.7 381.1 378.4 373.9 375.1 375.6 377.3 379.9 381.3 382.7 384.1 385.6 386.4 390 385.6 383.3 381.6 381.5 380.7 375.8 375.8 377.8 386.4 394.5 402.3 408.9 412.9 416 415.4 411.6 405.9 398.5 388 381.3 375.9 368.2 359.8 349.4 342.7 333.4 327.6 326.1 319.9 314.9 311.1 308.6 306.4 305.4 303.7 301.6 300.3 299 297.5 295.5 294 293 291 290 287.5 286.3 286.3 284.2 280.1 277.1 272.9 268 262.6 260.2 258.2 257.1 256.6 256 255 254.5 255.3 256.7 257.5 255.2 252 254.7 257.8 259.1 261 263.6 266.2 267.2 263.5 256.1 253.3 253.1 252.6 250.4 249 242.5 238.7 244 245 241.6 237.9 235.4 235 232.3 229.4 228 227.1 229.6 228.8 227 226.9 225.3 224.7 219.5 217.5 220.8 224.6 222 216.7 201.9 182.1 182.8 192.7 199.9 200.6 202.9 208.4 214 219.6 222.1 222 220.6 225.2 229.8 233.7 237 242.3 245.9 253.8 267.3 284.8 296.7 297.1
367.4 370.6 373.8 376.7 380.1 383.5 386.7 389.7 393.2 395.2 397.4 399.4 400.5 401.6 405.3 409.8 413 418.1 421.4 424 425.4 426.6 427.7 427.3 426.2 422.7 421.8 419.8 419.9 416.7 427.7 433 434.1 435.5 439.4 442.3 443.8 444.5 444.7 441.5 440.4 442.2 442.4 440.7 437.8 435 431.2 426 420.8 416 412.5 406.4 402.8 400.7 397.2 395 393 390.7 387.9 384.2 381.6 378.1 377.2 377.9 378.9 380.8 383.1 385.3 386.8 388.2 389.3 389.6 389.9 389.2 388.3 386.6 386 385.2 382.7 377.6 377.2 382.8 396.4 408.2 417.7 425.5 426.8 425.5 420.5 414.2 406.3 397.3 391.9 386 378.7 370.5 364 356 346.3 338.5 333.3 323.3 319.2 313.6 311.7 308.9 307.1 306.6 305.5 303.4 301.4 299.9 298 296.2 295.7 294.3 293.2 289.9 286.9 285.3 289.4 281.8 277 273.6 271 267 261.7 257.9 257.4 255.8 255.8 255.8 257.3 258.3 259.3 259.8 259.1 257.6 254.2 259.1 260.1 261.5 264.6 266.3 264.7 260.2 255.8 254.4 253.7 251.1 248.3 246.3 240.4 232.3 237.9 240.9 236.5 233.7 231.6 229.6 227.9 226 223.2 223.3 222.7 222.7 222 222.9 220.1 217.4 217.9 214.7 213.3 216 212.3 209.5 205.8 186.6 182.4 183.6 198.2 203.1 207.3 208.8 217.5 225.3 231.8 230.1 225 228.6 233.8 240.6 242.3 247.2 252.5 259.8 274.6 292.4 304 304.9
370.2 373.5 377.1 380.5 383.9 387.3 390.7 393.7 396.7 400.3 402.6 404.7 406.1 407.1 411 414.2 417.1 420.7 423.9 427.2 428.6 430 431.4 431.2 430.2 429.2 426.8 423.8 426 426.1 428.1 435 437.8 438.5 440.4 441.7 443.6 444 444.1 442.6 443.3 445 445.8 443.9 440.4 436.7 433.3 429.5 424 419 415.6 410.8 406.3 404.2 401.7 398.8 395.7 392.9 389.7 385.9 380.4 381.1 379.9 381.1 382.5 384.1 386.3 388.6 391.1 393.1 393 393.1 394.1 392.2 391.3 391.4 390.9 389.5 385 389.2 391.7 385 390.6 406.2 415.6 422.9 427.8 427.2 423 418.6 413.9 407.9 401.1 395.4 388.4 380.4 372.6 366.4 356.9 348.7 337.7 327.9 324.1 319 316.8 314.2 311.4 310.7 309.4 307.4 305 302.2 299.6 297.3 295.6 294.1 292.5 290.4 287.4 283.9 280.6 277.3 274.7 271.4 272.5 268.7 261.7 261.1 264.8 267 264.2 259.3 262.1 263.6 263.7 263.5 263.2 262.4 260.6 249.8 258.8 259.5 259.8 263.5 258.3 255 254.3 255 253.8 253 251.3 247.1 241.6 230.9 231 234.2 234.7 231.7 229.6 226.8 224.6 222.8 220.2 219.3 218.7 218 219.9 220.6 217.8 216.3 216.7 214.6 216.6 212.4 211.5 208 200.2 204.1 193.9 183.6 184.6 192.5 207.1 212 220.4 229.2 230.4 230.2 230.3 232.6 237.5 242.5 247.4 252.3 257.6 264.6 279.3 296 306.7 308.2
373.4 376.8 380.1 383.9 387.7 391.1 394.5 397.6 401.2 404.5 406.6 409 411.1 413 415.8 419.1 422.2 425.1 427.6 430.2 432.1 433.8 435.3 435.8 435.5 435.2 433.7 431.4 431.5 431.8 433 436.2 438.8 440.9 442.6 443.6 444.3 444.9 444.8 443.7 444.3 444.6 445.2 443.6 441.4 439.4 435.5 431.6 425.9 420.6 417.2 414 413.1 410.1 405.9 402.2 398.5 396.2 392.4 389.9 385.2 383.2 381.9 384.8 386.6 388.3 390.5 392.9 395.2 396.3 396.6 396.3 396 394 394.6 395.9 395.9 395.5 387.5 395.1 396.1 395.4 383.4 390.3 402.2 414.4 421 423.8 423.9 422.9 420.7 416.2 409.7 402.6 394.8 388.2 380.3 373.2 364 355.4 343.4 333.9 329.3 327.3 321.4 318.3 316.2 314.8 313.4 310.8 308.1 305.4 302.5 299.7 297.6 295.3 293.2 291.7 289.9 285.1 281 277.2 273.3 270 267.6 264.2 265.7 269.2 269.7 271.3 270.5 263.9 266.8 268.4 268.3 266.2 266 265.8 263.5 261.4 248.1 257.8 257.3 256.6 232.6 241.2 249.9 249.6 250.1 248.8 242.9 238.3 235.1 230.3 224.6 226 226.7 229.5 228.9 225.3 222.3 219.7 216.3 217.8 216.8 216 216.7 217.8 215.3 216.1 217.6 214.7 215.3 213.9 208.4 205.8 210.5 221.4 212.1 201.8 184.6 183.9 187 196.8 204.9 213.4 218.4 226.4 231.1 235.7 240.9 246.8 252.2 257.2 263.2 270.4 283.8 295.6 303.4 305.7
376.6 379.8 383.1 386.9 390.7 394.5 398.3 401.6 405 408.2 410.8 413.2 415.5 418.4 419.8 422.8 426.2 430 431.3 434.7 437 438.7 440 441 440.8 440.4 438.9 436.9 436.3 436.2 437.8 440.7 442.9 445 446.5 446.8 446.3 446.7 446.8 445.5 445.4 445.1 445.4 444.3 442.3 439.7 435.8 432.8 427.4 423.8 421.7 418.3 416.2 414.9 410 405.7 401.8 398.8 395.2 388.5 387.7 386.1 387.6 390 392.4 394.7 396 397.1 399.3 399.3 399.1 397.6 396.6 399.7 399.7 399.9 400.2 400 394.5 396 399.4 402.2 400.7 399.9 399.3 406.1 403 407.9 421.2 424.3 425.7 421.3 414.4 406.9 399.7 391.6 381.5 375.9 368.9 359.7 346.1 346.3 335.8 334.1 327.5 322.6 321.1 319.7 317.3 314.4 311.9 310.8 309.7 304.1 301.9 298.7 295.8 292.7 290.2 287.1 284.8 278.8 276.8 272.8 271.9 271.4 271 271.7 272.1 274.3 272.7 268.7 270.1 271.3 270.2 269 269 269.1 269.9 268.7 265.3 248 239.2 249.1 218.2 214.3 226.1 237.8 230.2 235 235.3 232.1 230.4 228.8 223.2 217.5 217.6 221.8 224.2 222 220 217.4 213.3 215.4 214.5 214.1 213 214.3 213.7 212.3 214.8 216.2 213.7 212.5 210 210.3 219.3 219.3 216.9 211.7 203.7 185 184.1 184.4 188.4 193.4 204.4 220.5 225.7 233.2 246.2 250.8 255.9 261.7 268.2 275.3 287.6 296.3 300.8 303.5
380.3 382.8 386.1 389.9 393.7 397.5 401.3 405.1 407.9 411 413.6 416.4 419.2 422.2 424.4 426.6 430.1 434 435.7 438.7 441.3 442.4 443.8 445.2 445.5 444.8 443.1 442.2 441.5 441.2 442.4 444.8 446.8 448.9 450.9 449.9 449.2 449 448.8 447.5 447.1 445.5 445.7 443.6 442.3 439.8 436.4 433.9 431.9 429.2 425.7 421.9 419.3 416.4 413.3 409.4 404.9 397.5 392.6 391.8 390.7 391.6 395.1 397.2 398.6 400.9 402.1 403.1 404 404.6 404.5 403.6 401.3 403.2 404 404.1 403.9 403.4 404.1 404 401.3 407.3 410.7 408.5 408.1 407.3 408.7 405.6 413.9 417 419.3 417.2 414 408.4 401.7 394.1 383.7 376.7 370.1 362.6 358.6 354.4 339.9 339.6 334.4 328.8 326.8 324.4 321.4 318.6 317.7 318.3 317.6 310.2 306.1 303.3 299.3 295.5 294.1 293.2 288.6 286.5 281.9 278.8 278.2 276.3 276.5 276.5 277.8 278.4 275.8 276.6 275.4 274.2 272.5 272.5 272.7 274.3 274.4 273.9 270.2 263.9 247.7 229.8 216.3 213.8 213.8 212.5 209.8 208.7 227 229.4 227.9 226.8 218 212.8 211.6 213.1 215.5 216.7 216.3 214.8 211.6 210.6 212.1 212.1 211.4 210.8 213 213 212.1 213.2 213.5 212.9 214.3 213.7 218.1 218.2 217.2 221.1 215.9 205.5 191.6 184.5 185.2 185.8 188.6 200.1 209.4 219.5 231.1 247.2 259.2 265.9 272.2 280.6 289.6 301.4 303.5 304.1
383.1 386 389.3 392.8 396.6 400.3 404.1 407.9 412.2 414.2 416.9 419.9 422.5 426 429.7 432.9 435.9 438.8 441 442.8 444.6 446.2 447.3 448.4 448.6 449.4 449.2 447.6 447 446.7 446.3 448.4 450.8 452.8 453.9 453.6 453.4 452.7 452 450.2 448.7 447.1 447.1 445.1 442.7 441.3 439.5 437.2 436.9 433.8 430 426 421 417.3 413.7 407.6 403.1 397.9 396.2 395.8 395.9 398.9 401.2 402.5 404.1 406.3 406.7 407.7 408.8 409.2 409.3 408.7 407.7 404.1 406.5 407.1 407.2 407.6 406.9 408 408.2 409.7 416.3 417.3 418 418.1 414.8 405.5 412.1 415.2 413.8 410.7 408.3 404.3 398.7 391.5 381.5 374.7 366.8 367.8 365 346.1 351.8 348.3 341.1 337.4 333.9 330.9 327.1 324.5 324.7 324.2 320.1 317.2 313 308.9 305.5 303.5 301.4 300.4 298 295.1 288.7 286.6 284.5 283.6 283.6 281.9 282.5 280.9 277.5 284.2 281 281.1 277.8 277.1 278.3 280 279.5 277.9 275.1 268.5 253.6 228.2 225.6 236.9 215.5 210.3 230.5 208.3 207.2 215.6 221.4 224.8 219.6 212.6 209.9 208.2 208.2 210.7 212.2 212.3 210.2 206.7 208.8 210 209.9 207.1 207.1 208.9 208.4 206.7 207.6 209.3 214.4 214.3 217.4 218 219.6 220 223.8 222.7 212.5 202.4 185.5 185.7 185.7 205.1 225.7 238.3 242.6 251.6 264.3 272.1 278.9 289.5 297.9 306.5 308.5 306.7
386.6 389.1 392.6 396.5 400 403.6 407.1 411.6 415.2 418.6 420.7 423.6 427.8 432.4 436.3 439.5 442.7 446.1 447.9 449.7 451.2 452.4 453 453.6 454 453.9 453.1 452.4 452 452.2 451.8 453.2 454.9 456.2 457.3 457.6 456.4 455.8 455.1 453.4 451.6 450.2 448.9 446.3 443.9 442.2 440.5 438.1 437.1 435.6 433.6 428.9 422.5 416.1 412.2 406.3 401.8 400.6 400.2 401.1 402 405 406.6 407.9 409.5 411.4 411.8 412.3 413.8 413.7 412.6 413.2 411.7 404.7 408.5 410.2 410.4 411.9 412.9 414.1 417.4 419.2 419.6 423.3 423 425.1 422.2 411.7 411.5 416 413.6 410.2 406.7 401.9 396.3 391 384.3 377.4 375.3 373.5 364 358.4 357.3 351.3 347.3 344.5 340.9 337.7 334.6 332.3 331.7 331.2 329.9 326.4 321.4 317.4 315.5 313.7 314.1 313.6 309.7 303.7 299.2 295.8 292.2 291.3 290.4 286.9 287.4 285.1 284.1 285 282.6 282.7 281.5 282 284.1 285.1 284.6 284 280.3 271.4 258.4 252.2 249.3 246.9 244.5 241.4 240 227.9 211.4 202.8 201.1 217.5 220.9 215.2 209.8 207.1 205.8 206.2 208.3 208.2 207.5 204.9 203.6 204.3 204.8 203.3 202 202.6 201.4 200.9 199.6 203.5 206.5 210.1 216.2 217.4 218.6 219.7 221.5 228.6 228.7 221.4 211.2 189.4 186.3 202.1 218.1 242.3 255.6 262.2 270.8 279.5 294.4 302.6 308.4 311.3 310.8 308.7
391.7 393.1 396 399.9 403.7 407.2 410.7 415.2 419.6 423.7 426.2 429.4 434.2 439.6 443.6 447.5 451.1 453.2 456.2 456.5 458.6 460.2 460.4 460.6 460.7 460.6 460.3 459 458.9 459.6 459.9 459.4 460.4 460.8 461.4 460.8 459.5 458.3 457.8 456.9 455.5 453.4 450.3 447.6 445.2 442.5 440.1 437.7 434 431.1 429.2 425.5 420.5 415.9 406.9 406.7 404.7 404 405.2 406.6 408 410 412 413.4 414.7 416.5 417.8 418.1 418.8 419.1 418.3 416.9 414.8 411.1 413.3 413.6 413.8 415.5 417 419.5 420.4 425.8 425 429 428.6 429.6 426.9 417.4 420.2 419.1 416.1 412.5 407.9 403.8 399.4 394.3 387.3 380.4 379.9 377.1 365.3 354.4 361.8 357.4 355.2 351.8 347 346.6 343.7 343.5 345.7 347.3 345.2 340.6 334.4 331.2 332.4 333.1 331.4 326.6 319.7 315.7 310.9 306.5 300.5 298.6 297.6 291.7 292.2 290.5 291.1 286.3 287.2 288.3 291.3 291.3 291.4 291.8 289.1 286 284.6 275.7 269.1 264.6 260.1 254.8 252.1 248.3 246.7 239.4 234.3 226.8 220.1 217.9 203 219.3 212.6 208.4 206.1 204.7 202 200.2 197.1 194.4 194.1 193 198.7 199.9 199.1 199.4 197.9 195.1 193.3 191.3 199.6 204.6 209.4 213.5 216.6 218.2 218.7 223.8 224.8 211.9 197.4 188.5 190.2 211 232.5 247.5 255.6 270.3 283.6 293.9 304 310.9 313.4 314.1 312.7 310.3
396.3 397.4 401.5 404.5 407.5 410.9 414.4 420.4 425.6 431 435.2 439.2 443.1 447.9 453.1 457.9 460.7 464.8 467.9 465.8 468.8 469.6 470.1 470 468.9 468.6 467.9 467 468.3 469 468.1 467.3 466.2 465.7 465.3 464.5 463.1 461.6 460.2 459.3 457.6 455.2 452.4 449.3 446.7 443.6 440.9 438.1 434.4 430.7 426.8 422.3 416.3 412.2 412.8 411.3 408.9 409.1 410.5 412.5 413.4 414.7 417.7 418.9 420.2 421.5 423.6 424.5 423.9 425 423.5 421.4 419.3 417.7 417.6 417.2 418.1 419.4 420.3 423.5 425.2 429.7 431.9 433.1 434 434.5 430.1 416.5 423.4 422.1 419 415.6 412.1 408.2 403.4 398.3 394.2 389.9 385.3 381.5 374.1 368.2 356.9 365.9 364.4 360.3 360.2 358.8 357.4 357.3 358.6 359.7 357.7 354 350.9 352.9 354.8 353.5 349.2 342.1 332.3 325.5 319.7 319.7 307.9 305.1 307.2 300.6 298.1 296.6 294.7 289.4 295 300.5 303.3 301.3 300.7 298 291.3 287.2 284.4 277.9 271.5 265.8 260.8 258.8 254.2 250.6 246.1 240.1 241.2 236.9 233.3 224.4 199 215.1 216.5 211.5 207 203.3 193.4 193.9 194.1 194.2 195.1 192.8 192.8 196.7 197.2 197.4 195.6 190.8 190.1 189.6 189.6 189.1 199.8 210.3 216.5 219.4 220.9 208.8 202.5 188.9 190.7 192.5 202.8 216.2 234.5 253.7 265.7 282.9 295 303.8 309.4 314.8 315.7 315 313.7 311.5
403.4 405.3 410.4 412.2 414.7 420.7 424.7 428.1 434.3 440.5 447.4 451.8 457.1 462.4 467.2 468.8 472.3 477.9 480.3 481.5 481.6 480.9 481 479.3 478.2 477.4 476.1 476.3 477.9 477 475.9 474.9 473.4 471.3 469.6 468 467 465.4 463.6 462 459.7 457.4 454.7 451.5 449.1 445.5 442.2 438.6 434.8 430.5 426.1 421.6 415.7 415.7 416.1 416 415 414.6 416.7 417.5 418.6 419.5 421.5 423.1 424.8 427 429.1 430.5 431.3 431.3 430.9 429.5 426.8 425.5 425 424 423.5 424.1 425.3 427.5 429.3 430.9 433.1 435.5 438.1 438.5 420.9 428.7 426 424.4 422 419.5 416.1 411.1 406.8 402.7 399.3 390.9 390.8 387.1 384.1 379.2 362 373.6 373.4 372.1 374 373.3 372.2 371.3 371.6 371.3 368.3 367.3 369.4 371.2 370.3 366.4 362.9 355 345 337.3 330.3 325 319 314.7 310.7 308.8 304 300.1 303.3 294.9 305.5 308.6 310.4 311.4 309.8 305.1 299.1 292.3 284.7 277.3 270.8 264.5 260.5 257.1 252.8 248.9 245.4 245.2 242.4 239.1 231.9 227 208 212.6 215.2 213.7 205.3 197.2 194.4 196.7 200.5 201.1 200.3 198.1 191.6 193 195 194.8 193.1 190.3 189.9 196.9 196.8 188.8 188.8 195.4 205.9 208.2 204.4 193.2 187.8 191.6 196.9 206.6 206.5 219.2 239.3 260.9 278.8 293.2 303.6 308.7 314.1 316.5 316.7 315.3 314.1 313.1
411.6 417.1 421.2 424.7 425.3 430.9 436 442.4 448.8 455.3 461.2 468.3 474.1 479.5 483.6 484.5 491 493.7 495 494.8 494.1 493.4 491.6 489.2 488 487.5 487.1 485.4 486.8 485 483.6 481.8 479.5 477.3 475 473.2 471 469.2 466.8 464.6 462.3 460.1 457 455.2 450.8 447.4 443.2 439.2 435 430.3 425.7 420 420 419.7 419.5 419.9 418.9 420.1 421.2 420.8 422.3 423.8 425.5 427.1 428.9 431.2 434.3 435.8 437.4 438.5 438.6 437.5 435.5 433.8 435.6 434.9 433.1 432.8 431.3 433.6 433.7 430.8 436.2 435.4 436.6 437.6 431.4 431 429.7 426.6 424.3 423.2 420.6 416.7 413.1 409.1 405.6 396.7 396.6 392.8 390.8 382.7 364.2 382.5 381 380.5 382.8 384.6 384.3 385.5 386.3 386.2 383.7 383.6 383.8 383.4 380.5 378.2 372.8 365.2 355.6 346.1 330.9 334.3 326.3 315.1 314.5 309.3 308 307.6 311 298.9 309.1 311.8 311.7 316.2 314.2 307.2 299.4 290.9 282.3 275.4 269.5 264 260.2 257.7 252.7 249.3 247.4 240.2 240.2 235.5 230.3 226.6 218.9 196.9 200.8 207.2 195.5 194.8 197.6 203.4 202.9 201.8 202.5 201.7 197 191.3 192 193.4 192.4 190.9 190.1 202.5 206 206.1 197.6 188.3 189 189.4 188 190.9 198.5 208.6 211.5 224.2 224.1 227.2 245.3 263.3 278.9 295.5 306.2 311.5 315.8 315.9 315 312.3 311.3 311.6
420.7 427.2 431.5 434.6 438.2 439.4 447.3 456.6 465.3 473.6 482.1 490.7 497.9 501.1 503.2 505.1 506.7 507.9 508.8 508.9 507.5 505.5 502.9 501.4 499.9 497.6 497.1 494.9 495.1 493.7 491.2 487.8 485.4 483 480.3 477.2 475.1 473 470.2 467.4 465.8 462.8 458.8 456.1 452.8 448.4 444 439.1 435.3 428.8 424.8 423.9 425 424.5 424 423.5 423.8 424.8 424.1 424.5 426.1 428.6 430.3 431.2 433.1 435.6 438.8 441.1 442.6 444.5 445.1 447.4 446.1 446.4 447.5 445.8 443.2 442.1 440.9 440.3 438.3 437.6 438.4 437.1 436.2 436.2 429.2 433.2 433.1 431.2 429.1 427.5 425 422.4 419.2 414.8 411.3 403.1 404 400.9 397.9 383.1 378.9 391.3 389.9 388.4 391.1 393 394.6 398.5 401.9 401 401.9 402 400 398.6 395.9 392.8 384.6 375 364.1 353.7 344.3 338.7 334.6 327 324.7 312.3 311 313.2 312.7 303.4 311.4 313.1 314.4 312.1 311.5 304.7 295.6 286 279.1 273.1 267.4 263.9 262.7 263.9 255.4 251.1 245.9 240.1 237 234.3 229.7 225.9 221.7 203.3 197.9 196.9 196.1 194.5 202 203.5 204.1 204.2 206.4 206.8 205 193.9 191.3 191.1 190.9 191 194 208.9 207.1 213.3 213.1 204.4 196.6 194.5 199.5 204.7 216.3 228.1 233.8 225.4 240.7 237.1 247.8 263 277.1 289.9 300.6 307 310.7 310.9 311.4 309.2 308.2 307.7
428.9 435.8 440.4 444.6 448.1 450.2 457.4 469.2 480.9 493.4 505.6 513.1 522 529.8 531.1 529.4 526.2 524.1 522.7 522.5 519.6 516.9 514.1 512.4 510.6 508.5 506.7 505.3 506 504.1 499.2 495.3 491.4 488.8 484.6 480.9 478.8 476.4 474.1 471.7 469.2 465.2 461.1 457.3 454.4 450 445.5 439.6 430.6 430.6 429.1 427.7 429.6 429.4 428.9 428.8 428.9 430.3 430.6 431.6 435.7 435.8 437.2 437.5 438.2 442.4 443.8 446.3 448.3 450.2 451.1 453.3 454.4 454.4 455.6 454.9 450.7 448.7 446.8 445.2 440.8 441.8 441.7 440 438.2 433.9 435.5 436.2 436.9 435.7 433.1 432.2 430.4 427.4 422.9 419 417.1 412.3 409.1 408.3 404.8 400.3 392.5 398.8 397.3 396.6 398.3 400.5 403 407.5 412.2 414.7 415.7 416.1 415.5 413.5 411.5 404.6 394.5 384 372 359.3 351.1 344.9 337.4 332.2 318 324.6 318.3 318.2 315.7 309.4 305.7 312.6 313.7 310.9 305.4 298.5 293.2 283.1 277.1 270.9 266.1 262.3 260 260.1 255.1 251.8 247.9 243.8 236.8 233.1 229.1 225.2 218.9 206 197.7 197.5 196.6 203.6 205.1 206.3 206.9 208.3 208.3 209.2 208.3 203.9 194.5 191.8 191.3 195.1 205.3 210.1 215.1 218.5 220.9 225.2 222.5 220 222.4 223.6 237.4 250.2 253.2 229 243.9 251 252.7 258.9 273.8 286.3 295.2 300.6 304.7 306.2 306.9 306.3 308.1 309.8
435.4 443 448.6 453.2 456.7 460.4 466.4 478.7 491.5 504.2 517.5 525.8 537.1 548 552.3 552.7 548.1 546 544.9 541.1 534.1 530.1 528.2 525.3 521.9 519 516.8 515 514.4 513.3 506.8 502.5 498.5 494 489.3 485.1 482.2 479.5 477 474.9 471.5 467.9 464.8 461.1 456.9 452.3 447.6 441.4 435.2 433.9 432.6 431.9 433.5 434.4 434.2 434.3 435.8 438.4 441.3 441.5 447.2 449.2 446.6 447.6 449.7 450.4 451.2 452.5 454.1 455.8 457.3 457.9 455.4 460.3 460.9 459.5 456 453.6 449 447.7 442.6 442.3 441.2 441.1 439.2 437.2 439.1 441 440.9 440.5 439.9 438.7 435.9 433 428.7 424.6 423.7 420.1 412.4 414.4 409.8 407.5 405.3 399 403.7 403.3 405.5 408.7 412.6 416.8 419.9 422.5 423.6 424.6 424.3 422.2 420.1 412.4 399.9 389.8 374.1 368 357.4 348.1 339.5 327.6 328.6 328.1 326.1 323.5 319 315.3 310.5 308.7 310.1 306.3 301.5 296.2 288.6 281 275.5 269.6 266.1 265.6 261.5 259.1 249.7 249 248.1 248.1 240.4 233 227.7 223.4 219.7 203.7 197.5 196.8 196.8 207.2 208.5 209.1 209.1 209.9 211.2 211 209 207.9 203.7 193.1 199.2 208.7 209.7 215.6 219.5 226.3 228.4 231 234.9 241.4 244.3 251.1 255 258.7 256.9 245.8 255.1 258.4 265.3 268.9 264.2 278.4 286.4 293.3 298.6 302.1 302.8 306.3 309 310.4
441.5 447.2 455.1 460.1 464.8 469.9 477.4 486.2 498.7 511.4 524.6 537.5 549.6 562 569.3 570.3 566.2 561.6 557.3 554.2 549.2 547.3 544.8 539.4 534.8 531 528.5 525.6 523.2 518.4 514 509.3 504.8 500.4 496.3 492.2 486.9 482.4 480.3 477.9 475.6 471.7 467.5 463.6 459.9 455.5 448.4 441.4 439.2 436.8 436.5 436.7 438.1 439.3 439.5 440.9 442.7 446.2 449.5 453.1 458 460.5 462.1 462.1 462 462.3 460.9 460.9 461 462.7 463.5 463.9 462.7 459.9 460.9 460.1 458.1 456.3 451.3 449 443.9 441.5 440.8 438.8 438.8 437.6 440.1 441.9 443 444.7 444.7 444.4 442.6 439.2 435.9 432.2 429.9 425.5 418.9 419.3 415.3 414 411.5 396.8 408.2 409.6 412 415.5 420.2 425.4 427.2 428.3 429.4 429.7 428.5 426.8 421.7 412 402.2 393.8 383.3 372.8 366.5 348.9 349.1 343.9 336.1 333.4 331.3 329.2 323.1 320.8 317.6 314.8 308.8 303.3 298.4 292 286.2 277.5 274.2 268.3 268.1 269.6 265.6 258 248.6 242.7 244 250.1 243.4 233.4 224.3 220.1 207.9 197.2 196.4 202.8 210.1 209.5 210 209.7 210.9 214.2 217.3 213.8 210 208.6 201.7 194.1 202.2 207.9 213.7 219.8 224.9 229.5 234.7 238.7 242.2 248.8 253.9 257.9 260.8 263.6 260.7 259.3 261.8 265.9 272.1 277 279.4 280.8 283.2 283.1 289.5 294.7 303.7 307.9 310.3 312.3
444.5 452.5 460.3 467.2 473 480.1 487.4 496.6 507 516.7 529.3 541.9 554.1 566.8 577.4 583.9 583.5 578.8 574.4 572.8 570.8 566.4 561.3 556.6 549.1 547.4 543 540.4 536.5 531.2 525.3 518.7 512.6 508.4 505 500.5 495.4 489.9 486.4 483.8 479.9 476 471.6 467 463.4 457.3 448.3 445.4 443.8 441 440.8 441.5 442.9 444.1 445 446.8 449 452.7 456.5 460.1 465 468.3 471.7 473.8 475 476.1 480.9 481.3 481.9 480.2 478.1 474.1 470.9 470.4 459.3 463.7 459 456.2 452 447 442.7 440.6 438.4 436.2 436.2 436 436.9 438.7 439.5 442.7 445 447.6 445.2 443.9 440.6 436.2 433.1 425 427.8 425 419.8 418.5 416.8 412.9 399.8 415.6 418.3 421.3 425.4 428.6 430.5 431.5 431.9 433.2 431.4 428.8 421.6 413.5 404.9 398.5 389.8 383 375.2 355.8 361.1 348.1 343.6 339 337.4 334.1 329.1 324 320.9 318.3 309.1 301.9 295.2 289 283.3 274 268.2 268 269.5 271.4 267.8 258.9 249 240 236.4 239.2 240.8 230.3 222.6 213.2 199.3 196.4 209.6 213.7 212.1 211.8 211 212.2 214.8 220.1 220.6 217.8 213.9 207.1 194.6 199.9 211 215.7 219.9 222.3 227.7 232.5 237.6 242.2 247.4 253.5 258.3 262.3 265.3 267.2 268.1 266.2 268.6 272.3 276.7 282.5 285.9 288.3 291.4 294.9 298.2 302.6 307.6 310.3 312.3 314.2
449.5 457.3 465 472.8 479.8 487.5 495.1 504.8 513.1 522.9 533.4 544.7 555.7 567.1 579 588.5 595.3 597.3 596.3 594.3 590.6 585.9 579.5 572.4 567.8 562.5 556.7 553.4 548.5 543.4 537.9 530.2 522.2 516.5 513 507.5 502.7 497.3 493.1 489.3 486 481.9 477.3 472.6 466.7 460.2 450.3 449.5 449.5 445.7 446.3 446.3 447.6 448.9 450.4 452.8 455.1 458.6 462.2 463.8 471.8 475.3 479.4 483.3 487.4 491.9 496.3 500 503.8 505.6 504.8 498 491.5 473.1 472.7 466.7 462.9 457 452.1 446.4 441.6 439.2 435.1 433.4 432.2 430.2 431.6 433.7 436.4 438.8 440.4 442.1 442.9 441.4 439.7 437.5 435.3 427.8 432.2 429.7 426.5 425.2 421.5 415.9 407.6 414.3 420.2 423.2 426.5 430.4 431.9 430.3 431 431.7 430.5 427.3 421.7 415.8 408.5 404.7 396.5 390.8 382.1 364.3 368.5 357.3 351.1 346.9 340.8 336.8 332.7 326.1 320.4 316 308 300.6 294.3 288.1 283 272.6 265.5 266.7 267.1 267.4 266.3 259.3 248.9 239.8 230.2 228.5 230 225 217.6 209.9 197.7 199.7 213 215.1 215 217.2 217.3 220.3 221.7 222.6 219.5 214.9 210 204 197 205.7 210.7 218.3 224.2 225.6 230.5 235.9 241.2 246.6 252.2 257.6 262.1 266.5 270.1 272.1 272.9 273.1 275.6 278.1 281.3 286.9 290.7 293.7 297.2 300.5 303.4 308.4 310.4 312.5 315.1 317.8
452.4 459.8 468.3 476.7 483.9 491.7 499.9 508.7 517.9 527.2 536.5 546.4 557.3 567.1 578.8 590.9 600.4 607.4 611.1 611.4 607 603.2 597.9 589.6 582.8 576.5 569.8 566.6 560.6 555.4 548.6 541.7 535.1 527.3 520.5 514.6 510.2 504.5 499.1 494.4 490.5 486.3 481.8 476.7 469.1 462.1 457 458 456 452.2 453.3 452.4 452.4 453.7 455.4 456.8 459.2 463 467.2 466.8 477 481.5 486.3 491.3 496.5 501 504.8 508.9 512.9 514.5 514.3 511.5 507 496.9 485.7 468.7 469.2 462.5 453.6 448.2 441.3 437.9 433.3 429 427.1 424.4 426.3 429 433.3 436.2 437.2 438.9 438 438.3 436.9 435.7 432.8 433 433.1 430.2 428.1 431.6 424.7 419.4 415.7 411.8 417.8 419.4 421.5 423.4 426.8 426.8 426.4 427.4 425.2 423.6 419.9 415.4 412.7 407.8 400.8 392.6 384.3 374.7 372 366.8 358.5 351.2 344.6 333.2 332 327.4 321 315.6 307.1 298.7 290.2 283.1 279 266 262.6 263.3 260.6 259.7 260.9 256.3 256 249.3 239.2 220.8 220.8 218.4 212.4 202.9 196.8 199.2 212.1 218.7 220.3 220.2 221.3 222.2 222.3 221.1 216.4 211 205.2 197.1 201.6 214.3 220.4 223 227.5 232.8 238.2 241.7 247 252.2 256.7 261.1 265.9 270.3 273.5 275.1 276.1 277 279.5 282.8 286.1 290.7 294.8 298.9 303.2 306.6 309.9 312.3 314.3 316.7 318.7 321.3
454.7 462.9 471.5 479 486.5 493.2 500.7 509 518.2 527.7 537.1 546.8 557.6 568.4 580.1 591.4 603.1 612.8 620.6 622.6 621.3 616.9 610.8 604.4 597.3 589.5 583.1 578.5 573.1 566.9 559.3 551.6 543.9 538 531.8 524.8 518.9 512.1 504.7 498.2 493.9 489.7 485.4 478.9 465.7 464.4 466.7 464.7 462.5 462.8 461.8 459.1 458.1 458.6 460.1 461.6 463.7 467 469.6 473.4 481.1 486.8 490.7 495.9 501.8 506.8 511.5 516.1 518.7 519.8 519 516.8 513.3 508.4 502.9 492.3 465.8 465.7 457.2 447.8 442 438.5 433.6 428.4 422.7 419.6 419.2 424.9 429.4 431.5 434.1 435.6 434.7 432 431.5 432.9 429.8 431 430.1 429.6 428 428.3 423.8 421.1 416.8 414.9 413 414.6 415.3 416.6 420 422.9 422.5 421.5 419.3 417.8 414.4 410 408.6 408.9 402.7 393.6 385.2 381.5 369.8 367 356.6 350.8 337 339.2 333.7 326.5 318.7 311.7 303.4 294 286.8 277.5 271.5 262.2 256.5 259.2 256.2 253.5 253.4 252.8 252.2 246.8 243.3 231.1 214.9 209.6 203.5 198.5 197.6 207.4 213.5 221.3 220.8 219.9 220.8 221.6 221.5 218.5 211.6 206 197.6 203.3 208.9 214.7 222.2 226.1 230.5 237.1 241.8 245.7 251 255.4 260.1 264.5 269.1 273.5 275.9 277.3 278.2 279.6 282.8 286.1 289.4 294.2 299.1 303.8 307.7 311.1 313.5 316.1 319 321.5 324 325.1
461.2 465.9 473.8 479.9 485.7 493.1 500.9 509.1 518.8 528.3 537.7 547.3 558.3 570.1 581.3 592.7 604.2 615.6 623.8 629.9 629.3 625.8 620.4 615.4 609.2 602.5 596 590.9 584.6 578 570.9 563 556 549 541.5 533.8 527.2 518.5 510.6 501.6 496.6 492.3 487.3 477.3 472.3 474 472.8 470.7 470.4 469.5 468 465.8 463.7 463.6 465.1 466.6 468.2 471 473.1 474.9 484.8 491.9 495 500.3 506 510.4 515.5 519.7 522.2 522.8 521.1 517.4 514.8 510.2 504.2 498.3 479.2 459.2 455.8 447.6 443.8 439 433 426.9 420.7 416.8 412.8 416.9 420.5 424.8 427.5 430 428.5 424.6 422.6 424 421.1 421.1 422.2 423.4 425.4 426.3 427.8 423.9 417.9 414 410.4 408.7 408.5 410.8 414.6 416.5 415.8 414.9 412.4 404.6 402.4 401.7 398.1 395.1 394.6 388.7 385.1 382.2 376.2 369.8 361.5 353.9 345 340.1 332.3 322.1 312.8 305.8 301.9 291.5 280.5 271.8 263.6 255.2 254.3 257.2 254.1 250.8 249.7 247.8 246.3 243.4 238.3 232.3 221.5 212.9 200.5 197 203.4 208.3 215.2 222.6 223.1 222 220.7 219.3 220.2 216.6 207.4 199.3 206.3 211.5 215.8 222.4 225.8 230.6 236.2 241.3 244.9 248.9 254.5 258.5 262.9 267.7 272.4 276.2 278.3 278.6 279.2 281.2 284.3 287.5 291.2 296.8 302.3 306.5 310.1 314.1 317 319.9 323 325.9 328.5 331
466.3 469.3 473.2 478.5 484.8 491.9 499.7 508.5 518.2 528.1 538.1 547.7 558.4 569.7 582 594.6 607.2 617.5 628.3 634.4 634.9 632.5 628.6 624.5 619.2 614.2 609.2 602.3 595.3 588.3 579.6 573.3 565.9 558 550 542.3 533.5 523.3 515 506.4 500.7 495.2 488.5 480.7 480 480.1 478.4 477.8 477.9 476.8 473.6 471.8 469.4 468.7 470.6 471.6 472.8 475.6 479.3 483.7 488.8 497.2 502 507.9 511.2 515.5 520.1 523.6 525.5 525.5 522.4 518.2 512.5 507.8 502.7 500.1 493.1 474.8 460.7 448.7 443.1 437.7 431.1 424.8 419.8 414.4 408 409.2 411.7 415.1 420.7 420.6 417.2 415.3 413.5 412.7 411.1 411.5 413.3 415.2 417.7 417.1 415.1 414.3 411.4 408 405.5 401.8 400.2 400.3 402.7 404.9 406.8 406.5 406.3 399.5 393.7 389.8 389.8 391.8 389.7 387.6 384.3 375.1 363 351.2 351.5 347.6 342.3 336.6 326.2 316 307.4 299.3 295 285 278.1 263.4 256.3 249.9 250 250.1 251 250 249.2 246.7 236.3 232.9 231.4 222.1 214 201.8 197.6 197.9 205.4 209.1 214.9 224.1 221.7 218.6 221.2 220.5 220.4 212.6 202.8 208.3 213 216.6 220.3 226.8 231.9 236.3 240.8 245.3 248.7 252.9 257.6 261.6 265.7 270.6 275.4 276.7 277.8 279.4 281.1 282.8 285.9 289 293.8 299.4 304.9 308.7 312.5 316.6 320.6 323.6 326.8 330 333 335.9
468.6 469.1 472.7 477.1 483.9 490.8 498.5 507.9 517.4 527.2 536.9 547.2 557.9 569.5 582 595.3 609.1 621.1 631.4 638.2 638.5 637.5 635.7 632.4 629.2 624.4 619.5 612.6 605.6 598.3 589.3 581.7 572.9 566.1 557.3 549.4 539.9 529 518.6 509.3 503 496.6 490.7 484.4 487.2 485.9 484.3 484.5 484.1 482.8 480.8 478 477.1 476.6 477.6 478.5 478.3 484.2 488.3 487.3 499.9 507.4 513.7 518.9 525.7 529.6 532.1 534 531.1 526.8 522.1 516.5 510.5 506.9 503.4 499.3 493.4 484.2 464.4 447.6 445.2 437.5 430.6 423.8 417.6 411.2 406.3 400.4 402.6 406.6 412 411.5 405.9 403.3 401.1 401.7 399.9 400.8 403.4 405.9 407 408 404.2 402.6 399.8 397.2 394.9 390.7 388.3 388.9 391.1 391.9 394.6 394.1 392.9 389 384.1 379 377.7 380.3 379.4 376.2 374.5 366.2 356.1 353.4 345.2 342.4 334.6 323.7 315.1 306.9 301.1 293.6 286.7 278.1 268 257 249.9 244 245.3 242 247.6 248.2 247.9 244.1 237 225.9 218.1 211.7 203.4 198.8 197.7 198.1 205.9 210 215.7 223.6 220.6 217 218.2 222.4 219.5 211.2 203.2 214.1 216.2 220.4 224 229.3 234.2 238.9 243.6 247.2 251.8 256.4 260.7 265 268.8 272.9 275.1 274.2 277.1 278.8 281 282.9 286 289.1 294.5 300.2 306.1 310.4 314.3 319.2 323.5 327.3 331 334.8 338.8 342.3
466.2 467 469.7 474.2 480.9 488.3 496.5 506.4 516.3 525.7 535.6 545.7 557.8 569.4 581.8 595.5 610.7 623.7 634.8 642.4 644.5 643.4 642.8 640.7 638.1 634.2 629.7 623.6 615.9 608.3 599.3 590.5 581.8 573.1 564.2 553.9 544.1 532 522 512.7 506.1 498.2 490 492.2 493.1 492.3 491 490.3 490 489.1 488.6 487.6 486 485 484.9 486.2 485.6 487.6 494.4 501.4 506 515.9 520.6 526.1 529.6 534.7 537.6 538.2 535.7 530.3 521.6 514.1 509.3 504.4 498.9 494.4 487.3 480.7 470.1 460.3 447.2 437.9 430.7 423.9 415.3 408.8 403.8 395.5 393.4 395.4 400.1 399.3 392.1 387.4 386.6 387.8 386.3 388.9 390.6 393.4 395.6 393.8 392 392.3 389 384.9 381.1 377.4 376.2 377.4 376.7 376.5 376.4 375.5 375.7 375.3 373.9 370.4 370.8 361.9 362.5 360.9 360.6 359.3 354 345.1 333.6 330.3 323.8 320 313.4 304.5 292.8 288 279.9 272.3 261.9 249 244.1 242.1 239.6 238.6 241.6 240.5 236.8 229.1 218.9 215.7 207.1 203 199.4 198.8 198.1 200 207.1 207.9 211 213.6 219.4 220.4 221.1 220 219.5 210.6 203.7 214.7 217.1 219.9 224.9 230.5 236.2 241.1 245.8 249 254.7 259 263.3 267.2 269.2 271.9 270.9 270.7 274.3 277.8 280.2 282.8 286 289.7 295.1 300.8 306.9 312 317.4 321.7 326.1 330.8 335.5 339.3 343 346.9
462 462.1 464.7 470 477.4 484.8 492.4 501.3 510.4 520.9 531.9 542.8 555.1 568.5 580.2 595.4 611.9 625.5 637.7 645.1 650.4 650.4 650.2 648.4 647.1 644.5 640.1 634.3 626.7 618 608.4 599 588.9 579.3 569.6 559.5 549.3 533.2 524.8 516.5 509 499.7 497.8 499.2 498.4 498.6 498.5 499.1 499.2 498.2 498.2 497.3 494.8 493.2 492.8 493.8 495.3 497.9 499 508.1 511.5 520.9 525.1 528.9 532.2 534.6 535.8 534.7 532.6 525.2 520.5 513.2 507.8 501.7 495.2 488.5 482 475.8 468.7 459.3 450.7 441 431.6 421.5 413 406.4 400.8 394.9 388.7 382.8 381.9 381.3 378.1 372.6 370.9 372.4 371.6 375 376.9 378.9 382.8 382.4 381 380.9 377.7 374.9 371.4 367.8 365.1 364.4 363.5 363.3 362.2 362.2 362.1 363.4 363.3 359.5 357.3 356.9 352.6 340.8 350.3 349.6 345.9 339.6 330.1 321.8 315.9 310.7 304.3 295.3 285.5 278 270.4 260.7 253.5 245.4 241.2 236.9 233.4 233.3 231.9 232.4 224.8 214.3 211 205.2 202.7 200.8 198.9 198.3 198.1 199.2 206.5 210.3 212 216.2 222.7 224.3 224.7 223.9 221.7 213.9 204.5 216.9 218.8 220.7 225.6 231.2 237 243.2 248 252.1 256.8 261.4 265.3 268.4 269 265 264.5 268 271.4 275.6 278.7 281.8 286.2 289.9 295.7 301.5 307.7 313.7 320 323.8 330.4 335.7 339.4 343.3 347.1 351.8
453.1 454.2 458.5 464.7 472 479.8 487.3 495.2 505.6 516.5 527.7 539.7 553.7 566.7 578.8 595.5 612.6 627.5 640.1 650.1 655.5 657.5 658.7 658.5 657.2 655.1 650.7 645.6 638.2 628.7 618.6 605.8 594.8 584.3 574 563.4 550.6 535.8 527.6 519.9 512.2 503 504.2 505.2 504.7 505.4 506.6 506.8 506.9 507.3 506.1 505.7 502.3 502.1 501.4 501.4 502.4 504.8 508.5 514.2 519.5 524.2 528.4 530.3 531.6 531.6 531.3 528.5 525.1 518.4 512.5 506.7 501.5 495.3 490.5 484.3 479 470.5 464.3 458.8 449.9 440.5 431.8 423 413.2 405.6 399.5 395.1 390.1 385.1 377.9 367.3 360.4 360 358.5 360.1 357.4 360.3 363.1 366.2 368.8 369.7 370.3 369.4 366.4 363.9 363.3 359.5 354.8 351.9 351.6 351.1 349.2 348.1 348.4 350.1 349.9 346.2 341.1 340.9 335 326.6 334.8 340.8 337 331.8 327.1 314.1 304.5 294.9 288 279.4 271.2 266.1 260.3 255 249.1 242.7 238.4 233 225 221.1 223.8 223.6 215.6 212.7 209.3 204.3 201.5 200 199.1 198.3 198.3 202.4 212.7 216 217.6 219.7 223.2 224.9 225.4 224.9 224.2 216.7 205.8 217.8 221.6 222.6 226.1 231.9 237.8 244 250.4 254.7 258.4 262.5 265.1 265.3 261.4 257.6 259.1 263.9 268.3 272.9 276.8 280.6 284.9 290.5 296.6 303.3 309.7 317.2 321.3 328.4 335.6 339.6 343 348.4 354 359.1
440.6 445.5 451.8 456.4 463.5 472.6 479.9 489.7 500.6 512.5 526.1 540.4 554.2 566.9 581 597.8 614.4 629.5 643.9 654.3 661.4 665.2 668 668.5 667.8 666 663.6 658 649.4 639.9 627.3 615 601.3 588.9 577.4 564.5 548 538.8 531.4 524 515.7 509.4 511.1 512.2 512.6 512.7 513.2 513.5 514 515.5 514.9 511.8 509.6 507.8 507.3 507 509.1 509.5 514.2 518.8 521.1 521.7 529 530.3 529.1 527.8 525.8 523.4 517.5 512.3 506.8 500.8 493.2 487.5 484.2 478.8 474.2 470.8 462.1 456 447.9 439.2 430.4 422.2 413 405 399.7 396.2 391.6 385.7 379.1 371.6 362.9 352.1 348.4 349.8 349.3 348.7 350.8 354.4 357.3 357.8 357.3 357.2 353.9 351.2 351.7 347 341 337.5 337.6 336.4 334.3 334.3 334 333.5 334.3 330 324.8 322.9 314.5 309.3 325 328.7 327.2 321.1 313.2 299.8 290.3 283.1 276.1 269.3 260.4 257.9 248.2 245.8 245.2 240.2 234 229.7 220 208.3 217.2 215 214.8 212 208.5 204.4 201.7 200.5 199.3 198.2 198.9 208.3 220.4 220.2 223.9 221.8 223.8 224.7 226.1 225.7 224.7 219.2 208.1 210 218.3 225.2 226.3 229.9 237.4 246.1 252.2 255.9 258.5 261 257.5 253.8 251.5 252.6 255.5 260.2 265.2 269.9 275 279.6 284.9 291.3 298 305.9 314 320.8 325.5 334.1 340 345.7 349.8 356.5 365.4 371.1
434.2 441.9 449.2 455.9 462.3 472.1 481.5 491.2 501.3 513.1 528.1 542.3 555.5 568.7 583.3 601.3 618.6 634 646.5 657.1 666.1 672.2 675.9 678 679 678.1 675.6 667.8 656.9 646.7 634.5 621 606.7 590.9 579.9 563.6 551.3 542.4 535.7 527.4 518.1 516 518 518.3 519.4 520.1 521.1 520.7 521.1 522.7 520.9 519.2 517.5 515.7 515.3 514.8 516.2 517.5 521.3 523.5 524.8 525 524.9 525.7 525.5 523.2 520.2 515.7 510 503.3 498.1 489.8 485 480 475.7 471.4 466.4 461 456.8 451.3 444.5 435.5 427 418.9 410.8 404.5 397.7 395.3 390.9 386.4 379.6 371.1 362.8 354.6 344 336.8 339.8 339.4 341.7 343 344 345.2 345.1 343.9 339.4 338.2 334.8 332.1 328.9 324 322.9 321.9 321.1 320.3 319.2 316.9 316.7 314 308.9 306.8 296.6 298.8 308.4 313.6 313.1 306.7 299 286.6 278 273.1 263.1 251.7 247.8 243.3 247.4 235.4 229.1 234.4 221 209.7 202.6 202.1 202.1 204.3 212.3 211.1 207.8 204.6 202.6 200.9 199.7 198 199.4 208.3 226.7 227.4 227.6 225.7 224.6 225.7 226.6 226.7 226 222.5 209 213.6 212.9 214 220.4 223.5 233.8 244.4 250.7 254.2 252.7 245.3 242.5 244.5 248.2 252 255.2 259.7 264.2 269 274.6 279.8 286.2 291.8 299.9 309.3 318.3 326.4 329 341.7 347.6 353.9 356.8 365.9 375.2 380.9
438.9 445.7 452.8 460.2 468.6 477.7 486.5 495.4 506.5 518.3 530.7 545.1 558.4 572.9 587.6 605.1 622.1 636.9 649 661 670.9 678 682.7 687.5 690 688.6 684.8 676.8 665 651.9 639 625.3 611.7 597.8 583.6 569.8 556 546.3 539.3 530.8 518.4 525.5 526.4 527.3 527.9 528.1 528.7 529.7 529.7 530.1 527.7 525.2 523.4 521.4 521.9 523.1 523.4 522.7 526.3 526.2 526.8 526.3 523.7 523.2 521 518 514 509 503.5 496.1 489.6 483.3 477.7 472.2 468.1 464 458 452.4 446.6 441.8 437.3 429.9 422 414.2 406.9 399.9 394.8 392.3 390.5 386.5 382.5 374.4 363.9 355.2 346.8 338.5 326.5 326.4 328.2 332.2 335.6 335 334.5 332.8 329.6 327.1 325.4 323.4 319.5 314 312 312.5 310.5 308 305.5 301.5 296.7 290.1 293.9 291.7 289.4 288.9 274.5 295.4 293.8 290 283.5 274 267.6 261.8 251.3 253.8 251.4 249 248.6 246.7 224.3 215.9 204.3 202.4 212.4 205.2 201.7 201.5 201.2 204.1 206.2 204.4 202.5 200.8 199.3 198.3 202.9 209.9 215.7 221 226.1 226.5 226 227 227.4 225.7 226.2 221.4 210.1 225.2 222.6 220.1 221.3 225.3 223.5 231.2 236.1 234.7 236.8 239 242.9 249.3 253.8 256.9 260.2 263.3 266.9 270.2 277.2 282.3 288.3 295.3 302 311.3 320.8 330.2 334.1 345.8 353.6 361 367.4 372.6 380.2 387.4
445.1 452 458.9 465.9 474.9 484.3 493.2 502 512.7 523.4 536.2 548.9 562.3 576.4 590.5 606.8 625.3 639 651.3 663.2 673.2 681.9 687.4 694.2 699.1 696.8 688.9 679.6 667.1 654.9 641.4 628.2 614.5 599.9 586 573.1 558.9 549.5 542.6 532.3 531.3 535.3 536.3 537.4 539.3 540.4 541 540.4 539.5 538.8 535.4 531.9 529.3 528.5 529.2 530.5 530.3 530.1 530.8 530.3 529.5 526.4 523.8 521.1 516.9 513.6 508.8 503.4 497.7 489.2 483.5 477.5 471.1 466.4 462 458.1 452.1 445.2 439.9 433.9 427.8 421.8 413.5 404.6 399.7 394.7 390.6 388.1 387 384.5 381.4 375.3 367.6 359 349.1 340.8 333 322.9 315.4 317.7 323.9 322.7 322.7 322.3 319.4 317.7 316.9 313.9 311.3 305.2 301.5 301.6 299.7 297.1 293.4 291.2 290 286.4 277.5 277.6 284.7 287.1 270.5 272 276.9 273.7 269.2 260.6 256 251.2 248.5 253 249.1 245.5 245 243.7 226.3 205.5 205 219.9 230.4 222.1 210.8 201.8 201.3 200.6 200 202 200.4 200 199.6 199 207.5 215.2 216.2 217.1 222 227 227 228.5 227.6 226.5 227 220.4 211.1 229.3 230.1 230.2 232.4 234.2 235.1 234.7 237.2 238.5 240.9 241.9 248.5 253.6 257.7 260.7 263.3 267.1 270.6 275.2 280.8 286.4 292.7 300.3 307.1 313.9 323.5 332.5 339.3 347.5 356.5 363.9 371.2 375.9 383.2 390.3
450.5 458.5 465.4 472.2 480.6 489.7 498.9 508.9 518.6 528.6 540.6 551.3 563.4 577.4 591.6 607.1 625.3 639.5 651.6 662.8 673.3 684.3 692.1 699.8 706.4 704 695.4 680.5 667.1 656 641.5 628.5 616 602.8 587.5 574 562.2 552.5 544.9 531.8 541.2 544.5 546.3 549.9 552.8 555.6 556.7 556.2 553 549.4 545.3 541.4 536.3 532.9 534.4 536.1 537.4 537.1 534.6 533.9 531.8 527.8 522.9 519.1 513.9 509.1 504.7 498.3 492.1 483.7 477 471.5 466 461.6 456.8 452.2 446 439.8 433.4 426.6 419 413 406 398.8 393.6 388.9 385.5 382.3 382 380 377.6 373.6 368.2 361.4 352.8 343.3 334.2 325.7 318.8 309.8 308.1 312.9 311.2 311.6 310.1 309.4 306.2 303.9 301.3 296.1 291.5 289.7 288.3 286.3 283.7 280.9 277.7 275.5 273.6 273 276.1 280.4 273.9 257 254.6 253.7 254 251.4 246.5 250.2 250.3 246.6 245.6 242.3 240.3 239.3 222.9 203.6 215.1 235.1 237.2 235.8 224.6 216.1 210.4 202.3 200.5 199.3 199.2 199.2 199.1 206.1 216.6 224.2 223.8 223.1 224.9 226.8 228.2 228.8 227.8 227.7 227.5 220 212.5 230 233.3 235.1 237.4 238.3 240.1 241.2 242.9 247.2 248.8 250.4 251.4 255.5 260.9 263.8 266.7 271.2 276.8 281 285.3 290.7 297.4 305.9 312.7 319.1 326.9 333.9 340.8 347.4 357 364.7 372.2 378 383.1 390.9
454.7 464.1 471.2 476.8 485.2 493.6 502.7 513.1 522.9 532 541.7 552.4 564.3 578.4 593.3 608.8 624.9 637.9 649.4 662.1 673.1 685.3 694.2 702.7 714.5 710.3 700 685 669 655.8 640.3 627.3 615.3 602.8 589.7 576.7 564.3 555.8 546.2 544.5 549.8 553.3 557 563.5 568.9 573.6 573.7 570.6 566.4 560.9 555.4 550.9 547.4 544.4 540.3 540.2 541.2 542.7 539.9 538.2 534 529.1 524.1 518.1 513 507.6 501.8 495.4 487.5 480.3 473.7 468.3 463.1 456.5 451.3 446.4 439.6 432.8 425.2 419 412.3 406.1 400.2 393.8 388.2 383.5 379.4 375.9 375.1 374.3 372.1 369.2 365.3 359.5 353.9 345.4 336.2 326.4 320.9 320.8 309.9 298.2 299.5 299.8 299.7 298.8 298.3 294 292.6 288.9 285.5 281.3 280.1 277.8 274.8 272.4 270.3 268.8 266.5 263.9 262.8 262.9 256.8 252 250.2 250 246.8 245.5 243.7 244.4 244.6 242.6 240.5 239.8 238.7 235.7 222.9 203.7 214.2 225.6 232.3 239.4 235.5 227.4 224.6 217.8 212.6 206 201.6 201.3 204.3 214 226.8 229.5 228.6 228.4 228.1 228.7 230.1 229.1 227.9 228.2 228.3 219.8 213.6 231.4 235.5 237.9 239.9 241.4 243.2 245.1 246.9 249.7 251.9 254.5 256.9 258.5 263 266.1 270.4 275.9 281.4 286.1 291.7 295.8 302.7 307.8 315.4 323.2 330.1 336.8 343.5 349.1 357.1 364.7 372.3 378.1 383.4 390.4
459.1 467.8 474.2 479.6 487 495 503.9 513.6 523.6 532.7 541.9 551.8 564.5 577 591.7 607.5 622.6 635.2 646.8 659.6 671.9 683.6 693.6 704.1 716 710.4 700.1 684.9 670.6 656.6 640.1 625.8 615.4 603.1 590.6 578.6 567.8 558.5 547.8 551 556.7 561.4 569.3 576.3 585.2 587.8 586.8 582.2 575.2 568 563.5 558.9 556.6 554 551 547.1 544.9 544.3 543.5 541.3 536.2 530.7 525.4 518.9 513.4 507 501.4 494.3 486.1 478.6 471.3 465.6 460 453.9 447.8 441 433.3 425.1 416.3 410.2 404.9 399 393 387.5 382.1 377 373.2 369.4 368.1 368.5 365.8 363.2 359.6 356 351.5 345.3 337.7 330.5 323.6 318.6 312.3 303.9 297 290 288.6 290.1 288.6 284.7 282.8 280.1 278.6 273.2 272.1 269.7 267.5 265.2 259.4 259.3 259.4 258.7 258.5 254.2 251.6 249.6 248.8 245.6 244.3 243.1 241.8 240 238.2 237.1 235.7 235.3 234.8 229 219 204.1 203.6 205.2 221 235.6 239.7 233.3 231.6 229 227.4 223.1 218.1 216.9 213.2 221.4 233.7 234.8 233.4 233.6 234 231.5 230.2 229 228.7 228.5 227.7 214.5 220.6 231.6 238 241.5 243.6 244.5 246.3 248.2 250.2 252.5 255.7 258.1 260.3 263.6 265.6 268.3 274.3 280.5 286.3 291.5 295.9 300 307.3 313 318.6 326.3 332.1 339.4 346 352.1 357.7 364.8 372.3 378.2 384.1 389.7
459.6 468.5 475.7 481.1 487.9 495.3 503.7 513.3 522 530.6 540.5 550 561.9 574 588.5 604 618.9 632.3 644 656.4 670.1 680.2 691.6 698.7 709 705.1 694.6 684.2 670.5 656.5 640.7 626 614.4 601.3 589.6 581.1 570.9 562.1 550.6 557.1 563.9 569.7 576.4 582.1 589.7 594.8 591.9 587.4 580.1 573.6 569.2 564.8 561.6 559.7 556.2 554.2 549.1 547.1 546.7 542.9 537.6 531.7 525.4 519.6 513.2 506.6 500.3 493.3 485.9 478 471 464.9 460 453.6 446.8 439.5 430.9 420.5 409.1 399.9 394.2 389.5 384.3 379.5 373.9 368.5 365.9 362.1 359.3 359.7 358.2 356.3 353.3 350.4 347.1 342.5 337.2 331.9 324.5 317.5 312.2 306.7 300.8 296 291.2 281.7 278.9 273.9 273.2 270.2 266.5 264.7 263.6 262 259.9 256.4 256.8 255.9 254.6 254.7 251 249.2 247.8 243.8 244.2 242.5 240.6 238.7 236.8 235 233.3 233.1 231.8 230.2 227.1 219.2 213.7 207.8 204.4 203.9 209.2 223.1 240.6 237.5 236.4 240.4 241.3 238.5 231.3 233.1 225.5 230.5 236.7 238.3 239.3 239.1 238.9 234.8 231.4 229.2 228.8 228 216.2 221 229.5 237.5 241.9 244.8 245.9 247.6 251 252.9 253.6 255.6 259.1 261.3 264.1 267.4 269.6 273.4 279.3 285.7 290.7 296.2 301.5 305.2 310.3 316.4 322.6 329.1 335.3 340.4 348 353 359.2 364.7 371.9 378.5 383.2 387.6
457.4 466.6 475.2 481.2 487.8 494.4 501.2 509.2 518 527.2 536.1 546.5 557.8 570.7 585.7 600.8 614.6 628 640.1 652.8 666 674.8 686.8 694.3 698.5 696.7 690.4 681.4 669.3 655.5 639.6 625.6 612.5 599.3 590.4 582.5 573.6 563.4 561.1 566 570 575.6 580.3 585.1 591.7 595.6 595 590.7 585 579.1 574.2 569.8 566.1 563.4 560.7 556.3 552.1 548.8 546.5 542.1 537 531.4 525 518.5 512.3 505.7 498.4 491.1 483.9 477 470.7 464.5 459 452.6 445.7 438.3 431.5 421.8 411.5 402.7 393.5 376.4 372.7 368.5 364.7 360.5 356.2 353.2 352.2 352.8 351.8 350.1 347.7 344.8 342 337.7 332.6 328.2 322.5 315.4 312.7 308.2 304.5 298 292.3 287.9 282.7 277.8 273.4 268.8 262.4 258 258.7 256.6 255.3 253.6 251.7 250.6 249.3 248.9 247.5 245.3 243.5 239.8 240 239.3 237.1 234.9 232.9 232.7 231.6 230.4 228.3 226.6 223.3 217.7 212.9 205.5 204.5 204.7 209.3 213.8 223.8 228.9 232.2 238.7 237.2 240.7 237.6 235.1 232.2 231.1 234 238 239.9 239.6 238.3 233.4 230 226.9 226.1 223.9 217.1 226.2 235.1 239.9 244.2 246.9 248.7 251.5 254.9 256.4 259.3 261.4 262.7 264.5 268.2 271.3 276.3 280.5 285.8 289.8 294.9 300.3 305.1 309.4 313.9 319.9 326.4 332.6 338.2 342.2 349.4 353.9 359.1 363.9 370.5 375.9 380.9 385.7
451.4 461.1 470.7 478.1 484.6 491.3 497.6 505.2 514 523.3 532.2 542.9 553.7 566.7 581.5 596.6 612 624.6 637.2 649.8 661.9 670.3 677.8 685.6 690 688.3 684.8 676.9 666.7 653 636.4 624 611.5 600.5 592.6 583.2 573.7 566.4 570.1 571.8 575.6 580.6 584.6 589.4 595.3 598 596 592.4 588 582.3 576.9 572 568.8 565.7 562.4 558 551.4 548.1 543.6 539.1 533.9 527.8 521.3 515.5 508.5 501 493.3 485.8 478 472 466.6 462.1 456.7 451.4 444.3 436.6 429.6 420.8 411.2 402.8 394.1 385.1 375.9 364.8 352 349.4 346.4 342.3 340 342.3 340.5 339.5 340.8 338.2 335.7 332 328.4 323.5 318.6 313.4 310.3 307.3 303.3 296.2 291.5 287 281.7 277.5 277.1 272.7 267.5 260.7 256.1 251.3 250.7 249.8 247.9 246.2 245.7 244.6 242.5 240.5 238.2 235 234.9 233.9 232.8 231 231 230.5 229.7 228.1 225 224.5 223.9 217.2 207.6 205.8 205.1 204.6 209.3 212.3 232.4 235.9 236.6 242.9 237 239 237.4 236.3 235.3 232.8 236.7 237.6 236.7 232.9 228.5 225.5 224.4 223.2 221.4 223.4 217.8 220.6 232.5 238.3 245.5 247.3 250 253.4 257.2 262.8 267.3 271.3 273.6 273.8 275.5 277.2 281.1 287.8 290.6 294 299 303.7 308.5 313.1 318.1 323 329.7 334.9 341 344.8 347.7 353.3 357 362.2 367.6 373.3 377.7 381.6
442.2 454.2 464.4 472.1 480.6 487.6 494.7 501.5 510 519.2 528.2 539.1 551 564.3 578.3 593.4 608.6 622.2 634.6 646.1 656.7 665.2 672.2 678.2 682.3 682.5 679.3 672.4 663.3 651.2 637.4 625.1 612.7 603.3 595.1 585.2 577.7 572 577.4 579.6 582.7 586.5 591.4 594.3 598.8 599.8 597.4 594.2 590.9 585.6 579.6 573.7 569.7 567.2 563.3 557.5 550.3 544.3 539.2 534.2 528.4 521.7 514.6 507.8 500.8 492.2 484.6 477.4 470.7 463.9 458.4 454.6 449.6 445.9 440.3 434.6 426.4 418.2 410.1 401 392.8 384 376.5 368.5 359.3 349.7 336.6 331.7 328.7 329.5 329.6 329.3 328.1 327.9 327.7 324.1 321.3 317.7 312.7 307.8 304.4 303.1 300.1 293.8 288.9 283.3 282.2 276.8 274 270.8 266.7 259.4 255 251.6 246.8 246.7 245.1 242.1 241 238.2 237.6 234.4 233.6 233.7 234.2 230.6 224.6 229.2 229 227.5 226.6 223 222.1 222.3 220.2 209.5 205.9 205.3 205.3 205 208.3 213.4 233.2 240.8 244.7 244 241.6 240.8 240.7 239.5 235.8 232.6 230.4 232.1 228.7 227 230 232.1 234.8 225.3 220.4 219.4 218.5 224.4 234.4 242.2 245.7 249.1 251.6 256.1 261.8 269.2 274 278.8 282.8 285.3 286.2 286.1 288.4 292.4 294.8 297.7 301.5 306.3 310.7 315.1 320.5 325.7 330.1 334 340 344 347.9 352 356.3 360.6 364.3 368.6 374.1 377.2
