ncols 200
nrows 95
xllcorner 380000
yllcorner 214950
cellsize 50
29.6 29.8 27.5 23.5 20.2 17.8 16.3 15.3 14.9 15.3 14.2 13.8 14 14.3 14.6 15.2 14.9 15.4 16.4 17.4 18.6 19.1 18.9 18 15.9 14.7 15.7 16.6 17.2 15.8 15.6 13.3 -1.2 -1.2 12 15.1 17 18.7 17.9 17.7 17.4 10.3 8.9 6.9 9.5 10 9.6 8.7 9.2 9.3 8.9 8.8 8.9 9.1 9.2 10.8 12.2 12 11.8 11.5 11.5 11.5 11.5 11.3 11.4 11.8 11.5 12.2 12.1 11.5 11.5 11.6 10.7 10.7 10.6 11.2 11.5 11.7 12.6 13 13.2 13.3 13.8 13.7 13.7 14.1 14.9 14.2 13.6 13 13.2 12.7 13.5 15.1 15.3 15.7 16.3 17 17.7 18.1 18.4 18.6 18.8 18.9 18.9 18.9 19 19 19.4 19.5 19.7 19.9 20.1 20.2 19.9 19.6 19.4 19.2 19.4 19.1 19.2 19.1 19.6 20.1 20.8 21.4 20.8 20.5 22 22.5 22.9 23.4 23.9 24.6 25.2 25.5 25.7 26 26.1 26.5 26.8 26.4 25.8 26.6 30.9 25.8 26.9 28.9 30.1 31.7 33.2 36.8 41.3 44.3 48.6 53.6 58.3 61.4 62.5 61 58.2 55.2 54.2 58.1 57 56.8 57.6 58.1 55 50.9 48.9 46.9 44.8 46.7 47.7 48 47.5 45.5 43.1 40.3 38.2 38.2 37.9 38.1 38.6 39.2 39.8 40.5 41.2 39.7 37.7 34.7 34.2 36.1 34.2 33.5 33.5 33.9 34.5 35.5
29.3 28.8 27.9 24.3 21 18.5 17.1 15.6 14.6 14 13.9 14.1 13.6 13.9 13.7 14.1 13.5 14.7 14.6 14.6 15.4 14.7 14.4 13.9 13.8 13.2 14.5 14.6 17.4 13.3 14.5 14.6 -1.2 -1.2 14 14.1 16.4 18.3 12.2 9.5 9.9 9.3 8.5 9.7 6.9 9.5 11 10.9 10.7 8.9 8.9 8.9 9.5 9.5 12.7 12.7 12.6 12.3 12 11.8 11.5 11.5 11.6 11.5 11.2 11.2 11.4 12.1 12 11.6 11.8 11.8 11.2 10.7 11.4 12.3 12.8 13 13.4 13 12.8 13.1 13.4 13.9 14.4 15.1 15 15.1 14.3 13.5 12.7 12.9 13.5 14.2 14.3 15 15.6 16.3 16.9 17.7 18 18.1 18.7 18.9 18.9 19 19 19.5 19.9 20 20.1 20.2 20.4 20.2 20 19.7 19.5 19.8 20 19.7 19.4 19.5 19.9 20.1 19.8 20.8 21.6 20.6 22.6 23 23.5 24 24.5 25.2 26.2 26.5 26.8 27 27.1 27.5 27.3 26.6 30.6 27.3 27.5 27.6 28.1 29.3 31.1 33.2 35.6 42.3 46.7 50.4 55.5 59.3 65.5 67.7 68.3 64.9 62.1 59.3 58.4 59.4 60 61.4 60.7 59.2 56.6 52.3 48.8 47.2 46.9 49.3 50.1 49.8 49.3 46.7 44.1 41.4 40.2 40.5 40 40.4 40.8 41.2 41.6 42 42.1 40.6 38.6 34.6 37.6 38.6 37.4 36.1 35.5 34.7 35 36.3
27.1 27.7 26.5 24.1 20.6 18.1 16.8 15.2 14 13.2 12.8 13 13.2 13.2 12.7 13.1 13.4 13.1 12.8 12.6 12.8 12.4 12.2 12.7 12 11.1 12.1 11.5 12.3 12.3 12.3 13.2 -1.2 -1.2 9.5 9.7 9.6 18.1 17.7 9.4 9.6 8.8 9.2 10 9.5 6.9 9.8 10 10.7 10.3 9.5 9.8 10.5 9.8 13.5 13.2 12.4 12.4 12.3 12 11.7 11.6 11.7 11.7 11 11.3 10.9 11.6 12.5 12.5 12.3 12.2 11.7 11 10.6 12.9 13.1 13.4 13.3 12.9 13.2 14.2 14.1 14.7 15 14.7 14.8 15.1 14.5 13.9 13.3 14.4 14.1 15.2 15 14.8 14.7 15 15.6 16.4 17.4 17.7 18.1 18.9 18.9 19 19.2 19.9 20.4 20.5 20.4 20.2 20.3 20.4 20.1 19.9 19.9 20.5 20.6 20.2 19.3 19.5 20 19.7 19.9 20.3 21.7 20.9 22.7 23.6 24.1 24.7 25.2 25.9 26.8 27.6 27.8 28 28.1 28.3 29.6 28.5 28.3 28.4 28.5 28.7 29.3 29.9 32.1 34.1 39.4 46.3 50.4 55.4 60.9 67.8 72 75.4 73 69.6 65.9 63.6 63.9 62 62.6 66.3 64 59.6 57.1 53.8 51.2 49.2 50.5 51.4 51.5 51.6 51.4 48.7 45.3 43.1 42 41.8 41.6 42.7 43.1 43.3 43.2 43.1 42.1 40 38.3 35.2 39.3 40.8 40.6 39.5 38.2 36.2 37.1 38.5
23.7 24.5 24.1 22.1 19.6 17.2 16.2 14.6 13.3 12.8 11.8 11.7 11.9 12.5 12.4 12.7 12.9 12.5 12.2 11.8 11.4 11.3 11.3 11 10.3 10.3 10.6 10.7 10.3 10.8 12.2 10.1 -1.2 -1.2 9.1 11 9.3 9.7 9.7 9.7 9.5 9.4 9.8 9.5 9.3 9.7 7.6 9.4 10.4 10.6 10.4 10 9.2 12.9 13.5 13.1 12.2 12.2 12.2 12.1 12 11.7 11.7 11.8 10.9 11 10.8 11 12 12.6 12.5 12 11.7 11.1 11.8 13.2 13 12.9 12.8 12.5 13.2 13.6 14.1 14.4 14.6 14.4 15.1 15.2 14.6 13.9 14.2 14.5 15 15.8 15.8 15.6 15.5 15.3 15.2 15.4 16.1 17.1 17.5 18.3 19 19 19.7 20 20.3 20.1 19.9 19.7 20.2 20.8 20.4 20.1 20.7 21.2 20.7 20.2 19.5 17.4 19.7 20 20.3 20.3 21.2 21.6 22.9 23.9 24.6 25.3 25.8 26.5 27.5 28.3 28.6 28.7 29.8 30.4 30.7 29.7 29.3 29.3 29.6 29.9 30.9 31.8 33.7 36.4 43.1 48.9 53.2 58.9 65 71.2 77.5 82.4 78.7 74.9 70 69.8 69.6 67.9 65.7 65.9 63.5 61 58.7 56.5 54.3 52.1 52.7 53.8 54.1 54.2 53.2 49.5 45.6 43.9 43.7 43.6 43.5 43.6 44.1 44 43.9 43.3 41.5 38.6 36.2 38.3 41.2 43.3 43.1 41.7 39.9 37.4 37.1 39
20.9 21.5 21.2 19.7 17.4 16.3 15.4 14.7 12.4 12.7 11.7 10.4 11.5 11.9 12 12.4 12.3 11.9 11.5 11 10.8 10.5 10.7 10.6 10.5 10.3 10.6 11.3 12.1 11 9.5 -1.2 -1.2 -1.2 9.1 11.3 9 9 9.5 9.6 9.8 9.6 9.5 9.3 9.7 10.7 11.7 9.6 9.4 9.3 8.8 8.7 11.7 12.6 13.2 12.7 12.1 11.9 11.9 11.9 11.9 11.9 11.8 10.7 11.2 10.6 10.7 10.9 11.7 12.8 12.4 11.3 11.6 12.5 11.7 13.2 13.6 13.4 13 12.7 13 13.2 13.5 14.2 15 15.1 15.4 15.3 14.5 14.4 13.4 13.8 14.6 16.2 16.2 16.5 16.4 16.3 16.2 16.2 16.6 17 17.1 17.2 17.7 18.8 19 19.5 19.9 20.1 20.2 20.1 20.7 21.1 20.8 20.7 21.3 21.4 20.9 20.4 19.9 19.6 20 20.4 20.7 20.7 20.7 22 21.2 24.4 25.1 25.7 26.4 27.2 28 28.9 29.4 29.9 30.7 31.3 31.6 31.5 31.1 30.4 30.8 31.1 32.6 34.1 36.3 39.4 45.5 50.5 56.7 62.9 70.6 74.4 82.8 90.8 86.5 79.8 75.2 76.2 75.8 72.4 69.7 68.9 68.2 66.7 65.4 62.1 59.1 56.2 56.1 56.4 56.7 56.9 54.6 50.3 46.7 45.8 45.6 45.5 45.5 45.5 45.2 44.9 44.7 44 41.8 37.8 36.4 41.7 43.8 44.8 44.3 43.2 40.7 37.8 38.7 40.3
18 18.5 18.2 17.4 15.9 15 14.6 13.8 11.8 11.1 10.5 10.7 11.2 11.6 11.6 12 11.8 10.7 10.7 10.8 10.9 10.4 10.3 10 9.8 11.9 8.8 8.8 9.8 9.8 9.4 -1.2 -1.2 9.3 9.3 9.3 9.5 9.3 8.9 9.2 10.9 9.5 9.6 10.5 11.6 12.8 14.6 9.9 9.3 8.9 8.8 8.7 12.6 12.6 12.8 12.3 12 11.6 11.6 11.6 11.6 11.6 11.7 11.2 10.9 10.6 11 11.3 11.8 12.4 13.1 13.3 13.6 13.5 12.2 13.2 13.6 14 13.9 13.2 13.7 14 14.3 14.8 15.5 15.8 15.8 15.8 15.1 15.2 13.8 14.4 15.1 15.7 16.2 16.6 17 17.2 17.1 17 17.4 17.6 17.6 17.2 18.1 18.4 18.4 19.2 20.1 20.4 20.8 21.1 21.2 21.3 21 21 21.5 21.7 21.3 20.8 20.4 19.9 19.3 20.6 21.1 21.1 21.4 21.6 21.4 24.9 25.6 26.3 27 27.7 28.6 29.4 29.6 30.6 31.5 32.6 33.5 33.8 32.9 31.6 32 32.8 34.2 36.7 40.3 43.6 47.2 53.7 60.6 67.1 77.3 79.2 88.8 102 95.3 86.7 82.8 83 82.8 79 75.1 75.6 73.6 72.9 72.5 67.3 63.6 60.9 58.9 58.7 58.7 57.9 55.4 51 47.1 47.8 47.6 47.5 47.5 47.1 46.5 45.9 45.6 44.9 43.8 37.1 40.3 44.3 44.8 44.6 43.9 42.8 40.8 38.5 40.1 41.6
15.2 15 14.4 14.1 14 13.4 13.1 12.8 12.4 12 11.4 10.7 10.7 11.4 11.5 11.3 10.9 10.9 10.9 11.1 11.1 10.5 10.1 11.6 9.4 9.1 8.5 9.7 10.2 9.3 -1.2 -1.2 -1.2 9.5 9.5 9.5 9.8 10 9 9.3 9.7 10.7 9.7 11.8 12.9 11.3 11.1 6.9 15 9.4 9.1 10.3 12.3 12.7 12.4 12 11.8 11.4 11.4 11.4 11.4 11.3 11.7 10.9 11.2 11.2 11.4 11.8 12.2 12.2 13 13.5 13.6 13.6 13.6 13.6 13.9 14.3 14.5 13.9 14.1 14.7 15.1 15.5 16 16.5 17 16.4 15.8 15.5 14.2 14.3 14.9 15.6 16.3 16.7 17 17.4 17.7 18 18 18.1 18.1 17.8 18.2 18.5 18.6 18.7 19.8 20.2 20.5 21 21.4 21.4 21.3 21.4 21.6 22 21.6 21.1 20.7 20.3 20.5 20.6 21.4 21.6 21.8 22.1 21.8 25.2 26.1 26.8 27.7 28.6 29 29.9 30.3 30.9 31.6 33.4 35.1 36.2 33.6 32.7 33.2 34.5 36 37.7 41.1 45.4 48.7 54.6 62.3 70 78.7 83.1 91.8 107.9 103.2 91.3 86.8 90.5 89.5 82.9 82.6 81.2 79.9 80.6 78 74.2 67.8 63.8 61.5 60.5 59 58.4 55.1 51.3 48.6 49.8 49.5 49.5 49.1 48.4 47.8 47.2 46.6 45.7 40.3 38 42.7 42.9 43.7 41.1 40.3 40.3 40.2 38.7 41.1 42.9
15.4 15 14.5 14.1 13.7 13.3 12.9 12.5 12.2 12 11.5 10.8 10.4 10.4 10.5 10.5 10.7 10.6 10.8 10.9 10.8 11.6 10.4 9.5 8.4 8.4 9.1 9.2 9.9 -1.2 -1.2 -1.2 9.2 9.5 9.7 9.7 9.9 10.3 10.7 10 14.7 10.4 9.9 11.4 13.5 12.2 11.2 7.3 9 9.7 10.6 11.9 14.1 12.4 12.3 11.6 11.1 11.1 11.1 11.1 11.1 11 11.6 10.5 11.3 11 11.4 11.7 12 12.2 12.9 13.2 13.2 12.9 13.4 14.1 14.3 14.6 14.9 14.6 14.5 15.1 15.8 16.4 17.1 17.7 18 17.8 16.7 15.5 14.7 14.2 14.8 15.4 16.2 16.8 17.1 17.4 17.7 18 17.9 17.9 18.5 18.5 18.2 18.1 18.9 18.9 19.1 19.9 20.3 20.8 21.4 21.6 21.7 21.8 21.9 22.3 21.9 21.4 20.9 20.6 20.5 21.2 20.8 21.6 21.7 21.9 22.2 25.3 26.6 27.4 28.7 28.9 32 30.6 30.9 31.4 32 33.7 35.7 37 34.5 33.8 34.5 36.2 36.9 38.6 41.2 45 48.9 54 61.6 69.1 76.8 83.4 95.5 117.9 108.4 93.5 93.6 99 95 90.1 89.5 89.1 88.4 88.1 84.3 79.9 73.2 67.7 63.5 60.3 57.9 56.7 53.9 50.9 51.1 51.9 51.5 50.9 50.2 49.5 48.7 48 47.3 44.5 38.5 41.6 40.9 41.9 42.5 40.8 40.8 40.7 39.2 40.1 41.3 43.5
14.5 14.1 14.1 13.8 13.4 13 12.6 12.4 12.1 11.9 11.5 10.9 10.2 10.2 10.2 10.3 10.5 10.8 10.6 11.4 11.4 11.4 10.6 9.3 8.1 8.2 9.5 9.5 8.9 -1.2 -1.2 9 9.1 9.4 9.7 9.9 10 10.3 8.9 9.1 10.7 13.6 9.9 10.5 12.3 12.1 10.8 10.8 9.3 9.6 9.4 10.7 10.7 14.4 11.5 11.7 11.8 10.9 10.9 10.8 10.8 10.7 11.3 10.6 11.4 10.4 10.9 11.2 11.5 12.1 12.6 12.7 11.9 12.3 12.8 13.3 13.9 14.7 15.2 15.2 14.9 15.8 16.7 18.5 18.3 18.9 19.2 19.3 18.1 16.7 14.7 14.6 14.5 15.1 15.6 16.1 16.7 17.3 17.7 18 17.9 17.6 17.6 19.1 19.2 19.4 19.4 19.1 19.2 19.6 20.1 20.7 21.4 21.7 22 22.2 22.3 22.5 22.2 21.8 21.6 21.3 21 20.8 20.6 21.6 21.8 21.8 22.9 25 28.3 29 32 31.2 30.8 32.8 32.1 32 32.7 33.7 34.7 35.8 36.5 35.6 36.1 37.1 38.6 40.2 41.8 45.2 49.4 53.7 59.8 67.1 75.4 85.5 98.9 113.5 110 99.3 102.2 105.1 97.7 96.4 98.8 98.2 97.5 94.8 90.5 84.2 77.4 70.8 65.1 61.3 57.9 55.2 53.5 53.8 54.1 53.7 53 51.8 50.7 50 49.2 48.5 47.5 39.6 41.5 42.8 41.8 41.9 41.9 41.4 41.3 40.7 41.6 42.5 43 44.1
13.9 14 13.8 13.4 13 12.6 12.4 12.2 12 11.7 11.5 11 10.3 9.9 9.9 10 10.1 11.1 11.3 10.1 10.2 10.7 9.9 8.3 8 8.5 8.7 9.7 9.2 -1.2 -1.2 9 9.2 9.4 9.6 9.8 9.6 9.8 10.4 9.5 8.9 9.2 9 9.9 10.7 10.5 10.4 10.2 6.9 10 9.7 10.1 10.7 10.8 10.8 14.4 11.3 11.1 11.4 11.2 10.9 10.9 11.7 11 10.9 10.6 10.6 10.7 11 11.7 11.7 11.2 11.2 11.7 12.2 12.7 13.2 13.8 14.5 15.2 15.4 16.8 18.5 19.7 20.9 20.4 21.3 20.7 19.8 18.4 15.8 14.6 14.1 15.2 16.3 16.4 16.7 17.1 17.6 18.1 18.7 18.9 19.2 19.6 19.8 20 20.1 19.8 19.3 19.6 20.2 21 21.4 21.7 21.8 22.1 22.3 22.7 22.7 22.3 22 21.7 21.4 21.3 21.8 19.1 21.5 21.7 26.6 22.3 27 30 32.2 33 30.2 33.7 32.5 32.5 33.5 34.3 35.5 36.9 37.6 38.6 39.1 41.1 41.1 42 42.4 45.7 49.9 54.7 60.2 67.7 77.2 86.5 97.8 108.4 113.4 107.1 112.1 112.9 105.2 104.8 110.8 110.5 108 102.7 95.1 87 80.1 73.7 67.3 64 61.4 58.4 55.7 56.5 56 55.1 54.3 53.1 51.9 50.7 49.8 49 44.3 40.6 45.3 44.4 44.2 43.8 43.5 42.8 41.8 41.8 42.1 42.4 42.8 44.6
12 13.5 13.3 12.8 12.4 12 12 11.8 11.7 11.6 11.4 11.1 10.4 9.8 9.4 10.8 11.6 10.5 10.9 10 10 8.8 8.1 8.1 8.7 8.5 9 9.9 9.3 -1.2 -1.2 9.4 9.5 9.6 9.7 9.8 9.9 10 10.3 9.5 8.9 8.8 8.9 12.4 10.6 10.4 10.5 10.3 6.9 9.9 10.2 10.9 10.9 11 11 10.9 10.6 13.4 11.4 11.7 10.9 11.1 11.6 10.5 10.4 10.5 10.9 10.7 10.9 11.9 11.7 11.2 11.1 11.2 11.6 12.2 12.9 13.3 13.7 14.4 15.2 17.8 19.4 20.7 21.8 21.8 22.5 22.1 21.2 19.3 16.6 15 14.4 14.8 16.1 16.9 17.2 17.5 17.8 18.7 19.3 19.4 19.6 19.9 20.3 20.4 20.6 20.7 19.9 20.7 20.6 21 21.3 21.6 21.7 21.8 22.2 22.8 23.1 22.9 22.8 22.5 21.8 21.8 22.7 22.1 24.1 25.8 22.1 22.3 26.3 28.2 31.5 31.7 30.6 32.9 32.2 33.2 33.9 34.7 36 37.5 39.2 41.2 42.7 44.1 45.1 45.6 45.3 46.1 50.7 55.9 61.5 69.2 78.6 88.2 100 112.6 122.4 123.3 122.9 120.2 112.4 118.6 123.5 124.8 120.6 107.7 96.7 88.3 81.3 75.5 70.6 65.7 63.3 61.1 59.1 58.7 57.8 56.5 55.6 54.4 53.2 51.9 50.7 49.7 41.5 45.8 45.6 44.9 44.9 44.9 44.9 43.1 42.8 41.8 41.7 42 43.3 45.3
10.9 12.6 12.8 12.3 11.9 11.7 11.7 11.4 11.2 11.2 11.2 11 10.5 9.9 11.6 9.1 9.7 9.7 9.8 9.8 9.7 8.1 8.1 8.1 8.7 9 9.3 10.1 9.8 -1.2 -1.2 8.9 9 9.1 9.3 9.5 9.7 10.3 10.5 10 9 9.1 9.2 8.9 11.8 11.8 10.9 10.6 6.9 9.3 9.4 10.6 11.1 11.2 11.2 11.1 10.9 10.8 10.8 12.7 13.2 11.6 11.1 10.6 10.5 11 11.1 11 11 12 11.6 11.3 11.2 11.5 11.7 12.1 12.7 13.1 13.4 13.7 15.8 18 20.5 21.6 22.7 23.2 23.2 22.9 22.3 20.9 17.8 15.6 14.7 15.4 16.6 17.4 17.7 18.1 18.1 18.4 19.2 19.5 19.8 20 20.4 20.8 21 21.2 21 20.6 20.6 20.9 21.3 21.5 21.6 21.9 22.3 22.9 23.3 23.4 23.2 23 22.7 22 22.6 27.5 23.4 23.1 22.8 22.9 25.2 24.9 27.9 29.1 29.9 29.7 30.5 32.1 34 35 36.6 38.1 39.9 41.8 44.1 45.7 46.8 47.8 47.3 48 51.6 57.2 62.8 70.7 80.1 90.3 102.2 117.9 131.6 131.2 128.9 126.6 126.1 129.6 139.2 136.6 123.3 109.9 98.8 90.5 83.6 78.1 73 68.6 65.7 62.9 61.5 60.6 59.3 58 56.9 55.6 54.3 52.9 51.5 42.7 44.2 48.1 46.1 46.5 46.5 46.5 46.5 44.3 43.5 42.6 41.7 42 42.9 46
11.1 11.8 12 11.7 11.3 11.5 11.4 11.1 10.8 10.7 10.6 10.6 11.5 10.9 9.8 10 10.2 10.1 9.4 8.7 8.2 8.2 8.1 8.1 8.7 9.2 9.2 9.1 9.4 -1.2 -1.2 8.6 8.7 8.8 9 9.1 9.4 9.6 10 9 9.1 9.3 9.4 10.1 11 10.3 12.7 11.4 6.9 11.4 10.5 10.3 10.7 11.4 11.5 11.3 11.2 11.2 11 10.8 11 10.8 15.3 10.8 10.8 11.5 11.4 11.2 11.5 12.3 12 11.6 12.1 12.5 12.2 12.6 13 13.7 14.2 13.9 15.3 15.9 18.9 21 23 24 23.2 23.4 22.7 21.9 19.1 16 15.7 15.4 15.9 17.2 18 18.7 18.7 19.2 19.5 19.7 19.9 20.2 20.5 20.9 21.3 21.6 21.3 21.1 21.9 21.1 21.2 21.4 21.7 22 22.4 23 23.4 23.8 23.6 23.4 23.1 27.2 23.8 24.7 24.7 23.9 23.5 21.9 23 23.5 25.2 25.6 27 27.6 28.8 30.3 32.1 34.6 37.2 38.8 40.6 42.4 44.9 46.9 48.4 49.9 49.5 49.8 53.2 59 63.8 71.2 80.6 91.3 104.8 121.6 141.3 137.8 139.1 139.5 140.1 136.2 142.4 132.1 119.8 110.7 101.9 93.3 86.2 80 74.9 70.7 67.3 64.4 63 61.9 60.6 59.3 57.8 56.6 55 53.6 48.8 43.4 49.5 48.4 47.3 47.6 48.1 48.1 47.6 46 44.3 42.9 42.1 42.1 43.4 46.7
11.6 10.5 11.1 11.2 11 11.2 11.1 10.8 10.5 10.1 10.7 12.1 10.8 10.9 10.4 10.2 8.6 9.5 8.6 8.1 8.3 8.1 8.2 8.1 8.6 8.8 8.9 9 9.1 -1.2 -1.2 8.5 8.7 8.8 9 9.3 9.4 9.3 9 9.1 9.2 9.3 9.2 9.2 12 11.2 10.8 10.3 7.1 12 12.3 11.2 11.2 11.4 11.7 11.5 11.3 11.1 10.5 9.9 11.2 11.3 11 10.3 14.5 12.7 11.5 11.5 11.8 12.6 12.5 12.2 12.9 12.3 12.7 13 13.7 14.6 14.5 14.4 14.7 15.3 16.8 19.2 21.9 22.9 23.5 23.8 23.5 22.4 19.3 17.9 16.9 15.9 15.8 16.5 17.5 18.8 19.1 19.7 19.9 20 20.2 20.4 20.6 21 21.4 21.1 21 21.4 21.8 22.2 21.8 21.5 21.9 22.2 22.6 23.1 23.5 23.9 24 25.3 25.2 23.5 23.5 25.4 24.9 26 24.4 22.7 23.3 23.5 23.2 24.1 25.5 26.2 27.6 29.1 30.7 33.6 36.9 39.5 41.2 43 45.7 48.1 49.7 51.5 51.9 51.6 54.3 58.2 64.3 71.1 81.4 92.2 103.9 119.6 136.8 141.1 142.1 142.6 142.1 141.1 140.8 132.4 119.5 114.8 105.7 95.9 87.6 80.6 75.8 71.7 68.3 66.1 64.2 63 61.6 60 58.5 57.5 55.4 53.8 44.9 47.4 50 48.8 48.5 48.8 49.3 49.7 48.9 47.8 45.4 43.3 42.7 42.6 44.1 47.4
11.4 10.8 10.6 10.6 10.7 10.9 10.7 10.2 9.7 12.1 10.5 10.8 11.1 11 11 10.3 9.8 8.4 8.1 8.2 8.5 8.7 8.1 8.2 8.5 8.5 8.7 8.9 9.1 -1.2 -1.2 5.6 8.7 8.8 9.1 9.5 8.5 7.9 9.2 9.1 9.1 9.1 9.1 9.4 10 12.3 9.8 9.2 9.8 11.7 10.6 11.1 11.8 11.9 11.6 11.4 11.2 11 10.3 10.1 11.9 12 10.9 10.3 10.7 11.2 15.8 12.1 12.1 12.7 12.8 12.7 13.2 13.1 13.1 13.6 14.4 15.2 15.3 15.5 15.9 16.4 16.9 18.6 20.5 21.2 22.7 23.9 23.7 22.8 20.2 18.9 16.8 16.3 15.8 17.3 17.8 19 19.7 20.1 20.3 20.4 20.6 20.7 20.9 21.1 21.1 21.2 21.2 21.2 21.5 21.9 22.3 22.1 22.3 22.6 22.8 23.2 23.6 24 26.3 24.6 24.4 23.7 23.6 24.5 24.8 25.4 25.4 24.7 23.8 22.6 21.6 21.8 23.7 26 27.5 29 30.4 32.9 36 39.2 41.6 43.7 46.2 48.6 51.2 53.1 54.7 54 55.9 59.1 64.3 71.1 80.6 91.3 104.1 114.8 123.7 137.2 144.2 150.3 150 143.7 137.8 128.5 115.7 111.2 103.5 94.5 87.5 80.8 75.7 72.4 69.7 67.5 65.4 63.9 62.3 60.7 59.2 57.9 54.9 46.7 46.8 51.3 50.3 49.2 49.4 49.8 50.5 51 50.5 48.6 46.1 43.5 42.9 43.4 45.1 47.3
11.7 10.9 10.1 10.3 10.3 10.3 10.4 12.1 11.6 10.7 10.8 11 11.1 10.9 10.7 10.4 9.1 8.1 8.4 8.5 8.6 8.9 8 8.1 8.3 8.5 8.7 8.9 9.1 -1.2 -1.2 -1.2 -1.2 -1.2 -1.2 -1.2 -1.2 8.7 9.4 9.9 9.1 8.9 9.2 9.3 9.5 9.6 9.8 10.1 7.2 10.6 10.3 10.4 10.8 12.1 10.9 12.1 11.1 10.7 10.5 10.7 12.2 13.2 11.9 11.7 10.9 11.3 12.4 13.3 13.1 13.4 13 12.8 13 14 13.8 14.3 15.1 15.6 16 16.3 16.7 17.3 17.9 17.9 19.1 21.4 23.5 24.2 24.1 23.9 21.1 19.3 17.2 16.6 16.1 16.6 17.8 18 19.9 20.3 20.4 20.6 20.8 20.9 21.1 21.3 21.5 21.6 21.6 21.6 21.6 21.6 21.3 22.6 22.9 23 23.2 23.6 26.3 24.7 24.7 24.6 24.4 24.1 24.2 24.2 24.7 26.3 25.3 25.1 24.5 24.7 22.2 22.2 21.6 25.9 27.3 28.6 30.4 32.4 35.7 38.8 41.4 44 46.3 48.8 51.6 53.4 55.6 54.7 57.3 60.3 64.2 71 78.7 88.7 99.5 112.1 123.2 133.7 143.9 147.6 147.7 143.9 134.3 122.8 112.4 104.1 97.2 91.9 85.6 80.5 76.4 71.9 69 66.8 65.9 65 63.2 61.4 59.8 57.7 51.7 46.7 52 51.2 50.5 49.7 50 50.3 50.7 51.4 50.6 48.3 45.9 44.2 44.1 45 47.1 48.3
11.2 11.3 10.8 11.4 11 12.5 9.7 9.8 10.3 10.3 10.4 10 11 10.9 10 9 8.3 8.2 8.5 8.7 8.9 9.1 7.7 9.1 8.8 8.6 8.8 8.9 9.1 -1.2 -1.2 -1.2 6.1 9 6.5 5.3 -1.2 8.9 9 8.9 10.3 9 9.2 9.3 9.5 9.7 10.8 11.4 10.6 6.9 9.1 10.8 10.6 11.1 11.1 12.2 11 11 10.9 11 11.8 14.1 14.4 13.4 12.8 13.8 13 13.2 13.3 14.3 14.2 13.7 13.4 14.7 14.7 15.2 16.3 16.8 16.6 17 17.4 17.4 17.4 17.5 18.2 20.8 21.9 24.4 24.4 24.5 22.7 20.1 17.9 16.8 15.9 16.2 17.2 18.6 19.7 20.3 20.5 20.7 20.9 21 21.2 21.5 21.8 21.8 21.9 21.9 21.9 22 21.6 23.5 23.3 23.3 24.9 24.6 24.3 24.5 24.6 24.7 24.6 24.6 24.6 24.6 25 25.5 25.7 24.8 24.3 24.7 22.3 22.2 21.9 22.6 26.9 28.4 29.9 31.2 33.7 38.2 41.7 44.4 46.7 49 51.6 53.5 55.5 54.8 56.6 59.2 64.9 71 78.2 87.2 95.5 110.2 124.8 143 150.3 150.1 149.5 146.7 140.6 130.4 122.3 111.6 101.6 92.4 84.6 79.8 75.6 71.8 68.3 67.2 66.4 63.8 62.1 60.3 58.6 55.7 47.9 51.4 52 51.3 50.8 50.3 50.5 50.8 51.2 51.6 50.6 48.5 47.2 45.8 45.8 47 48.2 49.4
11.2 11.1 11.7 13 11.3 11.4 9 9.5 10 9.4 9.4 9.6 10.1 9.2 8.4 8 7.9 8.3 8.6 8.9 9.1 9.1 9.3 9.2 9.2 9.1 8.9 9.1 -1.2 -1.2 -1.2 -1.2 8.8 9 9.1 9.6 -1.2 -1.2 -1.2 9 9 9.1 9.2 9.4 9.6 9.8 9.3 11.2 11 9.7 9.9 6.9 8.7 10.2 11.7 11 11.5 11.6 11.7 11.7 12.3 14.6 15.5 15.2 15.1 14.4 13.6 13.7 13.8 14.2 15.2 15.8 14.7 15.1 15.8 16.2 16.3 16.7 17.2 16.6 17.4 17.2 17 17.4 18.5 20.5 21.4 24.2 24.9 25 24.9 23.1 19.2 16.8 16.9 16.8 17.7 19.2 19.8 20.3 20.6 20.8 21 21.2 21.4 21.8 22.1 22.1 22.1 22.2 22.2 22.4 22.2 24.6 25.2 26.3 24.3 24.2 24.6 24.8 24.9 24.9 24.8 25 25 25 25.3 25.7 25.5 25.2 25.9 25.8 23.4 21.8 21.7 21.8 26.3 27.7 29 30.3 32.7 37.3 41.6 44.5 46.7 48.6 51.3 53.5 53 52.6 54.6 57.6 63.8 71.3 80.7 90.1 98.5 108.1 124.6 145.4 151.8 143.9 142 148.3 150 145.8 132.5 114 104 95.1 86.9 78.8 74.8 70.8 67.7 65.8 64.7 62.5 60.4 58.8 57.1 49.9 49.4 52.7 52.3 52 51.4 50.9 50.9 51.3 51.7 52.2 51.4 50.2 49 47.8 47.6 48.7 49.9 51.1
11.7 12.9 10.4 9.5 10.5 10.5 8.8 9.1 9.3 8.5 8.5 8.3 8.4 8.5 8.2 8.1 8 8.3 8.7 9 8.6 9.1 9.2 9.2 9.2 9.1 9.1 -1.2 -1.2 -1.2 -1.2 10.2 8.5 8.9 9.1 8.9 8.7 -1.2 -1.2 8.9 8.9 9 9.2 9.4 9.6 9.8 9.2 11.3 9.5 11.4 9.2 9.7 10 7.6 10.5 9.9 11.3 12.4 12.5 12.4 12.8 15.2 15.4 16.4 15.7 14.9 14.2 14.2 14.2 14.4 15.2 15.1 15.2 15.6 15.8 16.2 16.7 16.1 16.7 17.3 17.8 18 18.2 18.6 19.4 20.5 21.5 24.3 25.5 25.7 25.4 23.9 21.6 17.1 16.6 16.9 18 19.4 19.9 20.3 20.6 20.9 21.1 21.3 21.7 22.1 22.5 22.4 22.4 22.4 22.5 22.7 22.9 25.6 26 23.9 24.5 24.4 24.9 25.1 25.2 25.3 25.1 25 25.3 25.3 25.5 25.5 25.7 26.5 25.8 25.6 23.7 21.5 21.6 22.4 26.4 27.5 28.6 29.7 32.5 37.7 41.6 43.9 45.7 47.4 50.3 50.5 50.2 50.6 52.5 57.6 62.9 70.9 79.8 89.2 103 115 124.2 136.1 151.3 140.3 129.8 135 149.4 149.8 134.4 113.3 104.4 93.6 85.1 77.8 73.7 70.1 67.3 64.5 62.4 60.7 59.4 57.8 55.5 49.2 52.4 52.7 52.4 52.1 51.8 51.5 51.3 52.1 52.6 53.4 53.5 52.6 51.4 50.3 49.7 51.2 52.3 53.2
11.2 11.1 10.8 9.9 9.7 9.8 9.1 9 9.4 9.1 8.4 8.3 7.8 7.7 8.4 8.4 8.4 8.5 8.9 8.4 9 9.1 9.1 9.2 9.2 9.1 -1.2 -1.2 -1.2 9.5 9.9 10.3 9.4 9.2 9.1 8.9 8.7 8.6 -1.2 -1.2 8.9 8.9 9.1 9.3 9.5 9.1 8.8 9.1 9 8.8 9.4 9.1 9.3 6.9 9.2 10.2 10.6 11.9 13.4 13.8 14.7 16.1 16.8 17.5 17.1 15.7 14.8 14.6 14.6 14.7 14.4 19.8 16.2 15.6 15.8 16.3 16.4 16 16.6 17.6 17.9 17.9 18.1 18.3 18.5 19.2 23.1 24.4 25.7 26.4 25.7 24.2 21.1 18.2 16.2 17.7 18.3 18.1 20 20.3 20.6 20.9 21.2 21.7 22.1 22.5 22.8 22.8 22.7 22.7 22.8 23 26 25.5 25.3 23.9 24.5 24.6 25.2 25.4 25.5 25.7 25.5 24.8 25.2 28.9 25.8 26.2 26.3 26.6 26.5 25.8 26.2 22.2 21.4 23.4 26.1 27.2 28.3 29.4 33 37.6 39.2 40.6 43.2 45.9 47.9 47.9 47.5 48.6 51 56.4 61.9 68.6 77.6 87.4 104.7 119.1 126.2 120.4 133.3 132.6 119.6 122.2 138.1 141.3 129 110.4 101.8 90.8 83.1 76.7 71.8 68.7 66.4 64 61.6 60.1 58.6 57.5 49.8 51.9 52.5 52.8 52.5 52.1 51.7 51.4 51.5 53.1 53.7 55.4 55.5 54.6 53.6 52.7 52.8 53.6 54.3 55
11.1 11.1 10.8 10.7 9 8.9 9.6 9.7 9.9 8.9 8.3 8.6 8.2 8.4 8.5 8.7 8.7 8.7 9 8.7 8.9 9 9 9.1 9.1 9.1 -1.2 -1.2 -1.2 10.1 10.2 9.9 9.4 9.3 9.1 8.9 8.9 8.9 -1.2 -1.2 8.8 8.8 9 9.2 9.3 8.6 8.7 9 9.1 8.8 9.2 8.8 9.1 8.6 9.8 11 11.2 11.3 12.8 14.9 16.4 17.7 18.7 18.8 18.2 17.7 16.3 15.3 15 14 14.4 15.8 19.9 16.4 16.2 16.5 16.9 16.4 16.9 17.5 18.3 18.6 17.9 18 18.2 19.7 22.1 24.7 25.8 25.9 25 22.9 19.9 17.2 15.5 17.7 19.4 20.5 20.4 21.1 20.9 20.9 21.2 21.9 22.4 22.8 23.2 22.9 22.6 23 24.8 25.1 23.3 23.8 24.2 23.8 24.4 24.7 25 25.1 25.6 26 26.1 25.7 25.2 25.2 26 26.5 26.6 26.6 26.4 26.2 26 26.3 22.2 24 25.7 26.6 27.7 28.8 30.4 33.5 35.3 37.1 39.3 41.3 43.6 43.7 45.5 46.9 48.9 54.9 60.4 67.3 75.5 85.2 99.5 108.9 109.9 112.1 126.4 130.3 116.6 112.8 121.2 124.5 120.2 107.5 97.6 87.5 81.8 74.9 68.9 66.6 65.2 63.8 61.1 59.7 58.3 51.8 50.4 54.5 53.4 52.4 52.1 51.7 51.4 51 51.6 53.3 55.8 57.8 57.7 56.1 55.1 55.1 54.9 55.1 55.8 55.7
11.1 11 11 10.7 9.7 9.2 9.9 10.4 10.2 9.9 8.5 8.4 8.2 8.3 8.4 8.2 8.6 9 8.9 8.8 8.9 8.9 9 9 9.1 9.1 -1.2 -1.2 7.5 10.5 9.4 9.1 9.5 9.3 9.2 9.2 9.2 9.2 10.2 -1.2 8.8 8.7 8.9 9 8.6 8.6 8.7 8.9 9.1 8.9 8.6 8.8 9 9.4 10.4 10.7 11.1 11.8 12.8 15.5 17.3 18.6 19.5 19 18.5 18 17.5 16.6 15.3 14.1 14 16.5 19.8 16.6 15.9 16.2 16.7 17.1 17.6 17.7 17.5 18.7 18.3 17.8 18.5 21.1 22.5 24.2 25.5 25.7 25.2 22.8 20.6 17.5 15.5 17.7 19.1 20.1 20.7 21.1 20.5 20.9 21.3 21.7 22.2 22.7 23.1 22.7 23.2 23.3 24 23.9 23.5 23.7 23.5 24.1 25 25.4 25.4 25.7 26.1 26 26 25.8 28.6 26 25.5 25.7 25.6 26 26.9 29.8 26.4 28.4 26.5 25.7 25.6 26 27 28.3 29.6 31 31.8 33.1 34.9 36.7 39.5 42.6 44.1 44.8 47.3 53.1 58.1 63.7 70.1 81.2 89.3 95.4 98 105.5 120.9 122.1 111.3 105.5 111 115.3 111.4 105 95.6 85.8 79.2 72.8 67.7 64.9 63.5 62.4 61.6 59.2 56.5 50.5 54.9 54.1 53.3 52.1 51.7 51.4 51 51.1 51.8 54 57.4 59.8 59.6 58.5 57.4 56.6 56.3 56.6 56.6 56.3
11 11 10.9 10.8 9.8 9.7 10.5 10.5 10.1 9.6 8.4 8.5 8.5 8.1 8.2 8.6 8.1 8.3 8.4 8.7 8.8 8.9 9 9 9.1 9.6 -1.2 -1.2 7.9 9.7 11.5 14.7 15.4 15.6 13 10.2 10.9 11.5 11.2 -1.2 -1.2 8.7 8.7 8.7 8.6 8.6 8.7 8.9 9.1 9.9 9.1 9 10.1 9.2 10.3 10.6 10.9 11.9 13.6 16.2 18.2 19.6 19.6 19 18.5 18 17.5 17.4 15.9 15.3 14.8 15.2 17.7 18.7 17.8 17.5 17.4 17.3 17.7 18.3 18.1 18.3 18.8 18 19 22.5 22.6 24.8 26.5 25.8 25.1 23.1 20.4 18.2 16.6 17.2 18.7 19.9 20.3 20.9 21.4 21.1 21.5 21.7 22 22.5 22.9 23.1 25.2 23.6 24 23.4 23 24.8 25.8 26 26.1 26.2 26.3 26.4 26.2 26.1 25.9 26.1 26.3 26.5 26.4 26.3 27.3 26.1 29.1 30.4 27.5 27.2 27.2 29.5 28.1 26.7 26.9 28.2 29.3 30 30.8 32.4 33.6 35.6 38.6 40.4 41 42.9 45.8 49.7 55.6 60.4 65.4 73.6 80.7 85.6 89.6 98.2 108.3 108.9 104 100.1 104.9 108.4 107.3 103.2 94.4 84.7 77.8 70.6 65.9 63.3 61.7 61 60.3 58.6 50.7 54.9 54.3 53.6 52.9 51.9 51.4 51 50.6 51.1 51.8 54.4 57.9 61 59 58.4 58.2 57.7 57.4 57.3 57.1 56.8
11 10.9 10.8 10.7 9.4 9.2 10.2 10 9.6 7.9 8.4 8.7 8.9 8.5 8 8.4 8.9 8.5 8.3 8.6 8.8 8.9 8.9 9 9.1 -1.2 -1.2 -1.2 10 13.4 18.1 20.4 20.4 19.7 16.2 9.6 10.4 11.5 11.7 -1.2 -1.2 9.2 9.5 9.2 8.6 8.6 8.7 8.9 9.1 11.6 9.2 9.2 10.3 9 10.4 10.6 10.8 12.5 14.6 17.1 19.2 20.2 19.6 19.1 18.6 18.1 17.6 17.8 16.6 15.3 15.5 15.9 17.7 17.8 18.6 18.7 18.5 17.9 18 18.3 18.5 18.7 19 19.2 20 21.1 22.2 25 26.6 26.2 25.9 24 21.5 18.3 17.1 16.8 18.2 19.5 20.1 20.7 21.7 21.8 21.8 22 21.9 22.3 22.6 25.9 23.9 23 22.9 23.4 25.4 24.2 26.3 26.5 26.7 26.7 26.6 26 25.8 25.7 25.8 26.2 26.6 26.8 27 26.8 27.1 26.5 27 27.2 27.7 27.8 27.8 28.2 29.5 26.6 27.5 28.6 28.8 29.5 30.7 33.2 35 35.9 36.3 37.6 39.7 42.1 44.7 48.4 51.8 56.9 62 67.4 72.2 77.2 82.6 90.8 96.1 96.9 95.5 93.5 97.3 102.4 103.6 99.2 91.3 84 76.6 68.8 64.6 61.6 60.3 59.6 58.8 51.7 51 55.9 54.7 53.5 52.4 51.7 51 50.5 50.1 50.7 51.5 53.4 57 59.5 59.6 59.7 59.1 57.6 57.7 56.8 57.8 57.5
10.9 10.8 10.7 10.4 9.3 9.1 9.5 8.6 7.8 8.2 8.5 8.8 9.1 8.9 8.3 8.7 9 8.9 8.9 8.8 8.8 8.9 8.9 9 9.1 -1.2 -1.2 7.4 12.2 17.4 21.1 22.6 22.2 21.3 17.5 10.2 10.2 10.2 10 10.7 -1.2 -1.2 9.3 8.9 8.8 8.7 8.8 9 8.7 9.5 9.4 9.4 10.7 8.6 11.8 11.4 12 13.2 15.2 17.2 19.2 20.2 19.7 19.1 18.6 18.1 17.7 18.1 16.6 15.7 15.7 16.5 17.5 18.1 18.7 18.7 18.7 18.6 18.5 18.5 18.4 18.8 19.5 20.1 19.8 21.9 23 24 26.6 26.5 26.1 23.8 21.9 19.1 17.6 17 17.8 19.2 19.8 20.5 21.1 22.1 22.2 22.3 22.4 22.8 22.6 23.7 23.1 23 22.8 25.8 25.7 25.3 25.1 26.1 26.7 26.3 26.8 25.6 25.5 25.7 25.9 26.4 26.9 27.1 27.2 27.4 26.9 26.6 27.4 27.7 28.2 27.9 28 28.2 28.4 28.1 27.9 28 28.3 29.1 31.7 34.1 35.9 37.6 38.3 38.1 40.3 41.6 43.5 45.9 49 53.3 58.4 62.8 66.9 70.1 78.1 86.8 91.5 91.6 87.9 87.4 91.9 95.9 99.2 99.3 90.2 81.4 73.5 67.2 63.1 59.8 58.7 57.7 55.5 50.5 56.4 55.8 54.4 53.4 52.4 51.4 50.5 49.4 49.8 50.4 51.2 53.2 54.5 56.8 58 59.1 57.7 56.6 56.3 57 57.6 58.2
10.5 10.4 10.4 10.2 9.4 8.7 8.7 8.2 7.9 8.3 8.6 8.8 9 9.1 8.5 9 9 9 8.9 8.9 8.9 8.9 9 9.1 -1.2 -1.2 -1.2 9.7 14.1 19.5 22.8 24.1 23 20.3 17.5 11.5 10.9 9.6 10.4 11.1 -1.2 -1.2 9.1 9.1 9 8.8 9 8.8 11.8 9.6 9.5 9.6 6.9 11.2 11.7 12 13.3 14.5 15.8 17.1 18.6 19.9 19.5 19.1 18.6 18.1 18.2 18.3 16.8 15.9 15.9 16.2 17.6 17.5 18.6 17.3 18 18.7 18.7 18.9 18.7 18.5 19.1 19.2 20.5 20.8 21.9 23.8 26.1 26.3 26.1 24.1 22.4 20 18.6 17.4 17.1 18.7 19.6 20.2 20.9 22 22.5 22.6 23.9 25.4 23.6 22.9 22.8 23.1 24.1 24.5 25.2 25.6 25.1 26.2 26.2 25.8 25.6 25.6 25.5 25.7 26 26.6 27.1 27.4 27.5 27.7 27.6 27.6 27.8 28.2 28.3 28.1 28.3 28.8 28.8 28.9 28.9 27.5 27.9 29.7 32.8 34.9 36.6 38.3 39.3 40.4 41.7 40.8 40.9 43.4 46.3 50.2 54.7 57.8 61.8 66.5 73.9 81.5 86.9 87.7 81.1 82.7 87.9 92.7 96 93.1 86.7 78.7 71.6 65.2 60.5 58.2 56.8 55 50 55.2 55.5 55.1 54 53 52 51 50 49.8 49.8 50.4 50.9 51.9 52.9 54.4 55.9 56.7 56.5 56.3 57 57.5 57.9 58.3
9.9 9.9 10.1 10.2 9.8 8.6 8.3 8.2 8.1 8.3 8.6 8.8 8.9 9 9 9 9 9 9 8.9 8.9 9 9.1 10 -1.2 -1.2 -1.2 11.1 16.8 21.9 24.6 25.1 22.9 19.9 16.9 10.6 10.2 10.2 9.9 10.4 10 -1.2 -1.2 9.2 9.1 9 9 10 12.5 11.3 10.7 9.9 6.9 9.8 9.8 11 11.3 12.6 13.8 17.7 18.7 19.6 19.6 19.2 18.7 17.9 17.7 17.9 16.9 15.8 15.9 15.9 16 16.5 17.3 17.9 18.4 18.5 18.4 18.6 18.9 18.6 18.4 18.6 19.4 20.4 21.4 24 26.2 26.4 25.7 24.5 22.8 20.9 19.6 18.4 17.6 18 19.2 20.1 20.7 21.3 22.8 24.1 25 23.2 23.3 23.3 23 23.2 23.4 23.8 24.3 24.5 25.6 26.3 25.7 25.4 25.9 26.3 26 25.7 26.2 26.8 27.3 27.6 27.4 27 27.7 27.7 27.9 28.9 29.3 29.3 28.8 29 30.6 29.8 29.3 29.3 29.3 29.7 33.8 35.7 37.2 38 39.2 39.5 40.1 38.7 39 41.5 44.8 48 51.4 55 58.7 62.5 67.8 74.2 77.6 77.2 74.1 79.2 84.3 87.6 90.7 89.5 83.2 75 68.7 62.4 58.6 56.5 54.9 49.6 53.2 53.9 53.5 53.1 53.4 52.5 51.5 50.6 49.6 49.7 49.8 50.6 51.3 51.9 52.3 52.7 54.1 54.5 54.8 55.5 56.3 57.5 57.8 58
9.4 9.7 10 10.1 9.3 7.7 8.5 8.2 8.3 7.8 8.7 8.8 8.9 9 9 9 9.1 9.1 9 9 9 9.1 9.1 -1.2 -1.2 -1.2 9.8 15 20.6 23.4 25.7 25.9 23.2 20.1 16.8 10.6 9.9 9.6 9.8 9.5 9.7 10.5 -1.2 -1.2 8.9 8.9 8.7 10.5 11.3 10.9 10.1 6.9 10.7 9.8 9.8 11.1 11 9.8 15.1 17.9 19 19.4 19.4 19.5 18.3 17.2 16.8 17.2 16.7 16 16.1 16.2 16.1 16 16.9 18.1 18.6 18.3 18 19.1 19.7 19.4 19.4 19 20 20.8 21.6 22.6 25.4 26.4 25.9 24.7 23.2 21.8 20.5 20.6 20.7 17.5 18.5 19.6 20.6 21.1 24.3 23 22.8 23.2 23.4 23.4 23.1 22.9 23.1 24 24.8 25 24.8 25.5 26.3 26 25.7 26.2 25.9 26.7 26.2 26.7 27.5 28.3 27 27.4 28.1 27.8 27.3 28.8 29.4 29.4 29.5 30.9 30.7 30.3 29.9 29.7 29.6 29.5 32.7 35 35.5 36.4 36.4 36.2 36.2 36.5 38.8 41.4 44.2 46.5 49.7 53 56.1 59.9 63.6 66.5 69.5 68.6 72.8 78.2 83.3 87.4 88 85.8 79.5 71.5 65.9 60.3 56.3 53.5 49.2 51 53.2 53.4 53.1 52.7 52.3 51.9 51.1 50.2 49.2 48.5 49.7 50.3 50.7 51.1 51.5 51.9 52.9 54.3 54.5 54.8 55.6 57 57.5 57.8
10.1 10.1 10.1 10 8.5 9 9 8.1 7.9 8.5 8.7 8.9 9 9.1 9.1 9.1 9.1 9.1 9.1 9.1 9.1 9.7 -1.2 -1.2 -1.2 8.8 11.5 18.4 22.2 25.1 26.7 26.6 23.4 20.2 15.2 10.1 9.7 9.6 10 10.2 9.9 10.1 -1.2 -1.2 9.5 9.8 8.6 8 6.9 7 10.7 11.3 11 9.8 11 11 9.8 12.9 15.8 17.4 18.5 19 19.1 19.1 17.8 16.4 16 16.2 16.7 16.4 16.5 16.4 16.2 16 16 17.6 18.6 18.6 19 19.7 20.4 21.1 20.1 20 20.5 21.2 22 22.7 25.2 26.4 26.8 25.6 24.3 22.8 22 22.8 23.7 22.7 18.2 19.1 20.8 24.5 21.6 21.6 21.9 22.6 22.9 22.8 22.6 22.6 22.7 23.6 24.5 25.5 25.3 25 25.6 26.5 26.3 25.8 26 26.9 26.7 26.8 27 27.7 27.4 27.9 28.5 28.5 28.3 29.8 29.5 29.7 30.4 31 31.2 31 30.6 30.5 29.9 29.3 29.8 31.2 33.3 33.9 33.2 33.8 34.7 36.2 38.4 41 43 45.1 48.4 51.9 54.7 56.9 59.5 61.9 64.3 66.5 71.3 75.3 79 82.5 83.8 81.5 74.3 68.2 62 58.2 54.6 49.4 49.2 52.4 52.5 52.8 52.4 52.1 51.7 51.1 50.4 49.7 48.8 47.8 49.5 49.8 50 50.3 50.7 51.2 52 53.6 54.6 55.6 55.4 55.6 57.1 57.4
9.8 9.5 9.4 9 8.1 8.8 9 8.5 8 8.4 8.8 8.9 9 9.1 9.1 9.1 9.1 9.2 9.8 -1.2 -1.2 -1.2 -1.2 -1.2 9.5 11.6 12.6 19.1 23.9 25.5 27.6 27.6 24.9 21 14.5 10 9.8 10 10.2 10.4 9.8 9.7 -1.2 -1.2 7.5 6.5 11.3 12.9 11.6 11.5 11.5 11.7 10.8 9.8 10.7 11 9.8 14.1 15.7 17.2 17.6 17.9 18.6 17.9 16.9 15.5 15.4 15.9 16.3 16.6 16.6 16.5 16.3 16.1 17.2 16.9 17.8 18 18.8 19.6 19.4 19.4 21.7 20.3 20.3 20.4 22.7 21.9 22.4 22.8 23.6 23.1 23.2 23.2 23.3 23.1 23.5 23.1 23.2 24.3 24.2 20.8 20.4 20.9 21.2 21.9 22.4 22.2 22.2 22.3 22.4 23.2 24.1 25.2 25.5 25.3 25.2 26.8 26.3 25.7 25.8 26.6 27.2 27 28 27.7 27.5 27.8 28.7 28.1 28.6 29.2 29.6 30.3 30.9 31.1 31.3 31.5 31.4 30.8 30.2 29.5 29.2 30.1 30.9 32 32.9 33.3 33.9 35.9 37.6 38.9 41.2 43.8 47.2 50.8 53.7 55.8 57.4 57.9 59.8 64.2 68.4 72.2 76 78.8 79.3 76.3 69.7 63.9 59.1 55.4 50 48.8 51.2 50.9 51.8 51.9 51.8 51.5 50.9 50.3 49.6 48.9 48.2 47.4 48.9 49.2 49.5 49.7 50 50.4 51.2 52 53.8 55.1 55.4 55.8 56.5 57.1
9.6 9.2 8.9 8.7 8.7 8.9 9 8.8 8.7 8.6 9.1 9.3 10.2 10 -1.2 -1.2 -1.2 -1.2 -1.2 -1.2 -1.2 -1.2 -1.2 9 9.1 9.2 11 17 26.1 28.7 30 28.6 25.2 21.3 14.7 10 9.8 10 10.1 9.3 8.5 9.3 10.4 -1.2 9.1 11.7 11.7 12.1 11.2 11.2 11.6 11.7 9.8 11.2 9.8 11.1 12.8 13.8 15.3 16.2 16 16.4 16.9 16.4 15.7 14.7 15.6 16 16 15.9 16 16.7 16.8 17 17.4 17.8 17.6 17.5 18.4 19.1 19.2 19.2 19.7 20.4 23.1 20.9 21.3 21.3 21.6 21.9 22.6 22.9 23.2 23.1 23.1 23.1 23.2 23.2 23.3 23.2 20.2 20.2 19.7 20.1 20.7 21.5 21.5 22 21.9 22 22.1 22.8 23.8 24.9 25.7 25.6 25.6 26.8 26.1 25.5 25.8 26.3 27.5 26.4 28.7 27.8 27.9 27.9 29 30.4 29.1 29.6 30.2 30.7 31.1 31.3 31.5 31.7 31.9 31.4 30.4 29.8 29.5 29.1 30.1 31 34.7 32.8 33.5 35.4 36.5 37.8 40.4 43.5 47.5 51.1 53 54.1 54.1 55.5 56.6 61 64.7 69.2 72.8 74.2 73.8 70.7 66.1 61 56.2 50.2 48.7 49.7 50.4 49.4 50.1 51 51.2 50.7 50.2 49.5 48.8 48 47.2 46.9 48.1 48.4 48.7 49 49.3 50 50.8 50.6 51.5 53.3 54.8 55.2 55.9 57.3
9.1 8.7 8.6 8.9 8.9 9 9.1 9.6 -1.2 -1.2 -1.2 -1.2 -1.2 -1.2 -1.2 -1.2 -1.2 -1.2 -1.2 -1.2 -1.2 8.6 9.7 12.8 9.2 9.2 9.2 12.6 28.5 30.3 29.9 29 25.8 21.3 15.7 10.2 10 9.9 9.2 8.8 8.8 9.3 10.5 10.8 10.8 10.4 10.9 11.7 11.9 12.3 12 11.3 9.9 11.1 11.5 11.5 12.3 13.4 14.4 14.6 14.3 14.4 14.8 14.6 14.3 14.6 15.5 15.8 15.8 15.7 15.6 15.6 16.5 17.2 17.5 17.8 18.1 17.9 17.7 18 18.5 19.1 19.2 19.8 21.1 25.5 29.4 21.6 23.3 23.1 23.3 24.1 24.6 23.8 24.3 23.3 23.1 23.7 21 20.5 20.4 21.1 20.7 20.7 21.6 21 21.2 21.9 22.2 21.7 21.8 22.4 23.5 24.6 25.6 25.8 26.1 26.6 26 25.4 25.9 26.6 26.9 27.1 28.5 28.2 28.2 28.3 29.3 30 29.4 29.3 29.9 31 31.4 31.6 31.8 32 32.2 32.5 32 30.9 29.9 29.3 28.9 36.3 31 32.2 33.1 34.6 36 38.2 40.6 43.7 48 51.7 53.2 53.1 52.3 52.1 53.6 57.4 61.1 65.5 68.6 70.1 69.1 65.2 60.8 56.7 50.5 48.6 49.4 48.4 49.5 48.4 48.5 49.3 50.1 49.8 49 48.4 47.6 46.8 46 46.1 46.7 47.5 47.8 48.4 49.4 49.8 50 49.8 50.4 51.8 53.1 54.5 56.4 57.9
8.5 8.3 8.6 8.9 9 9.3 -1.2 -1.2 -1.2 -1.2 -1.2 -1.2 -1.2 -1.2 -1.2 -1.2 -1.2 8 8.9 9.6 8.8 12.1 15.1 17.3 14.7 9.2 9.2 9.2 30.5 30.7 28.6 26.2 23.7 21.2 16 11.2 9.6 9.4 8.2 8.2 8.1 9.2 10.3 10.6 10.8 10.6 10.1 11 12 12.1 11.5 9.9 11.5 12.3 11.9 12 12.3 13.3 14.2 14.1 13.9 13.7 13.7 14.1 14.4 14.7 15 15.4 15.8 16 15.4 15.4 15.9 16.4 16.9 17.6 18.2 18.4 18.2 18.1 18.5 19.6 20.2 20.3 20.8 21.5 21.3 21.7 22.3 27.3 23.5 24.5 24.7 25.1 24.3 24.5 23.4 22.8 21.8 19.7 20.1 20.8 21.8 20.8 21 22.4 22 21.4 22.4 22 21.5 22.1 23.2 24.3 25.3 26 26.6 26.5 26.4 26.4 26.8 27.1 27.2 26.6 27.2 27.7 28.5 28.6 29.6 29.5 29.5 29.1 29.6 30.3 31.6 31.9 32.1 32.3 32.5 32.8 33 32.5 31.3 30.7 30.4 32.9 32.2 33.4 34.3 34.9 36.8 39.1 41.1 43.9 48.2 51.9 52.9 52.5 50.6 50 50.6 53.7 57.5 61.5 64.6 65.8 64.1 61.3 57.5 50.1 48.2 48.3 47.2 47.5 48.4 47.6 46.9 47.6 48.3 48.3 47.4 46.8 46.1 45.5 45.4 45.9 46.3 46.8 47.2 47.9 48.4 48.6 49.2 49.6 49.9 50.4 50.8 54.2 56.4 58.4
7.1 8.3 8.6 8.9 9.1 -1.2 -1.2 -1.2 -1.2 -1.2 -1.2 9.2 9.4 9.7 9.8 10.6 11.5 12.3 13.2 12.8 11.6 17.1 19 19.1 21.9 20.5 9.1 9.2 11 29.4 27.9 25.5 23.6 20.3 15.9 12.7 9.7 8.3 8 7.9 8.5 9.9 10.5 10.4 10.7 10.9 9.3 10.2 10.4 10.7 11.1 9.9 12.1 12.6 12.3 12.5 12.6 13.3 14.2 13.9 13.5 13.2 13.2 14.2 14.5 14.8 15.1 15.4 14.9 15.8 15.1 16.1 16.6 17.1 17.6 17.9 18.2 18.6 18.8 18.6 18.5 19 20.1 21.2 21.6 21.9 22.3 22.7 22.6 25 30.4 24.9 26.9 25.1 24.7 24.4 24.3 24.1 22.3 21.2 20.3 20.4 21.5 21.4 21.9 23.1 23 22.9 23.2 22.8 22.3 22.2 22.4 24 23.4 24.5 24.3 26 26.2 26.8 26.9 27 27.1 26.8 26.8 27.1 27.9 28.8 29.1 29.1 29 28.8 29.3 30.3 31.7 32.1 32.4 32.6 32.8 33.1 33.3 33.5 32.7 31.3 30.8 31.4 31 33.8 33.5 35.9 37.7 40.5 42.8 45.1 48.5 50.6 51.7 51.4 49 47.6 48.1 51.2 54 56.9 60.2 60.6 59.1 56.1 49.6 47.6 47.7 47.3 46.6 45.3 46.9 46.8 46.2 46.2 47.2 46.6 45.9 45.2 45.1 45.4 45.7 46.1 46.6 47 47.2 47.3 47.9 48.6 49.3 50 50.3 50.8 52.3 54.4 56.4 58.4
7.6 8.1 8.3 8.8 -1.2 -1.2 -1.2 -1.2 7.8 9.3 11 12.5 13.8 14.9 15.8 15.7 16 15 11.9 12 15.8 10.9 9.9 11.9 21.1 25.5 22.6 9.2 27.8 28.4 26.3 23 20.5 17.4 12.4 10.8 10.1 9.6 7.8 8.1 9.1 10.1 10.6 10.4 10.4 10.9 10.6 10.2 10.4 10.7 9.9 11.1 11.9 12.9 12.8 13 13.1 13.3 14 13.7 13.3 12.9 12.6 13.9 14.6 14.9 15.2 15.5 15.5 15.2 15.3 16.7 17 17.2 17.5 17.7 18.3 18.7 19.1 19.1 19 18.9 19.4 20.4 20.7 21 21.3 22.1 23.5 23 24.2 28.1 28.4 25 24.7 24.4 24.3 21.9 22.3 22.3 21.4 20.7 21.9 21.9 22.1 23.1 22.9 22.8 24.4 23.9 23.4 23.5 23.1 24.3 23.5 23.8 23.2 23.7 25 26.2 26.8 26.8 26.9 26.9 27 27.1 27.2 27.9 29.3 29.2 29 28.6 29.6 30.7 31.8 32.2 32.5 32.9 33.1 33.3 33.5 33.7 33.8 32.5 31.1 31.5 30.9 33.1 33.5 35.6 38.4 41.3 44 46.7 48.1 49.9 49.5 49.3 48.1 46.1 45.6 48.3 50.2 53.6 55.4 55.6 53.7 49.6 47.7 49 46 44.1 43 43.9 45.3 45.5 45 44.8 44.9 45 44.9 45.2 45.4 45.7 46 46.3 46.8 47.2 47.3 47.7 47.9 48.5 49.2 50.1 50.8 51.1 52.8 54.7 56.6 58.6
8 7.5 8.3 8.5 -1.2 -1.2 -1.2 8.4 11.3 13.6 15.3 16.7 18 18.8 20.2 18.4 16.3 12.2 13.4 15.4 17.9 12.7 9.4 12.1 10 11.5 28.3 28.4 27.3 24.9 22.7 20.4 17.1 13.8 9 10.2 10.3 10.3 10.1 8.3 9.7 10.4 10.6 10.4 10.1 10.8 11.7 11.8 11.1 11.3 9.9 11.5 12.2 12.8 13.1 13.3 13.5 13.8 13.8 13.4 13.1 12.7 12.5 13.6 14.6 14.9 15.1 15.3 15.3 15.6 16.1 16.5 16.8 17 17.3 18 18.4 18.8 19.1 19.4 19.4 19.4 19.3 19.6 20.2 20.7 21.3 22.8 23.1 22.9 23.9 25.1 26.4 30.5 24.7 24.4 24.6 22.3 22.5 22.6 22.5 21.9 22.3 21.9 22.6 23 22.9 24 24.4 24.6 24.5 23.8 23.8 24.7 25.1 24.8 24.8 23.8 23.8 25.1 26.2 27.1 27.2 27.1 27.2 27.3 27.3 27.5 28.9 29.6 28.5 29 30 31.1 32 32.5 32.8 33 33.2 33.4 33.6 33.8 33.9 33.6 32.1 31.2 31.1 31.6 35 35.2 38.1 40.8 43.7 46.3 47.5 48 48.5 48.4 46.8 45.3 43.3 44.8 46.8 50.7 51.6 50 48.2 47.7 46.2 45 45.1 41.9 42.3 42.5 43.7 44.1 43.9 43.9 44.4 44.8 45.2 45.5 45.8 46 46.3 46.6 47 47.4 47.8 48.2 48 48.4 49.2 50 50.9 51.5 53.1 55 57 59.3
8.5 8 8.2 -1.2 -1.2 -1.2 7.7 10.2 13.6 16.3 18 19.1 19.6 20.3 19.2 17 14.2 12.2 15.8 16.6 17.9 17.6 9.9 9.8 11.5 13 24.5 28.3 26.8 21.8 18.4 16 13.5 9.7 13.9 15.6 10.2 11.6 11.2 10.4 10.9 11.1 10.5 10.2 10 10.6 11.9 13.5 11.6 9.9 11.2 11.8 12.5 12.8 13.1 13.3 13.1 12.9 13.1 13.1 12.8 12.5 12.5 13.5 13.7 14.4 14.7 15.2 15.5 16 15.9 16.3 16.6 16.9 17.6 18.1 18.5 18.8 19.2 19.5 19.8 19.7 19.2 19.9 20.1 20.5 21.4 21.9 23.9 23.6 23.8 25.2 24.9 24.2 24.7 24.7 24.5 24.2 22.7 22.7 23 22.7 22.4 22.1 21.9 23.2 23.7 23.9 23.9 24.4 24.7 24.5 24.5 25.1 25.5 25.7 25.9 25.8 24.8 24.6 25 25.6 25.9 26.6 27.3 27.5 27.9 28.4 29.4 28.9 28.5 29.4 30.4 31.3 32.1 32.5 32.9 33.1 33.3 33.5 33.6 33.8 34 34.2 33.3 32.1 31.6 32.1 34.4 36.6 37.2 39.5 42.4 42.7 45.3 45.6 46.6 46.5 44.6 46.1 47.1 45.2 45.1 44.6 43.1 41.8 40.9 40.2 41.4 42.7 45.8 42.6 42.6 42.7 43 43.5 43.6 44 44.5 44.9 45.3 45.7 46.1 46.3 46.6 46.9 47.2 47.7 48.3 48.6 48.4 48.4 49.1 50 50.8 51.7 53.6 55.7 58.3 60
8 8 8 -1.2 -1.2 -1.2 8.3 11.7 15.4 17.7 19.1 19.8 20.1 19.2 18.1 14.5 10.7 14.4 17.9 18.5 20 16.6 18.3 14.3 12.5 21.9 27 24.6 21.9 18.2 14.3 11.7 9.3 12.5 15.9 12.4 11.7 12.1 11.4 10.8 11.7 11 10.2 9.8 10.7 11.6 11.3 11.6 11.5 9.9 11.8 12 12.4 12.4 12.3 13 13.2 13.1 12.6 12.4 12.4 12.2 12.5 12.7 12.9 13.5 14.2 14.2 15.4 16.1 16.1 16.1 16.5 17.2 17.8 18.2 18.5 18.9 19.2 19.6 20 19.1 19.4 20.2 20.7 20.9 21.1 21.2 22.6 23.8 24 24.7 25.4 25 24.3 29.1 25.2 24.5 23.8 23.2 23.3 23.7 23.5 23.1 22.6 23.4 23.6 23.9 23.8 23.8 23.9 24.5 25.1 25.5 25.8 25.7 25.9 26.2 26.1 26.2 26.3 25.7 25.5 25.4 25.4 26.1 27 28.3 29.2 28.9 28.3 29.1 30.6 31.5 31.2 31.9 32.6 33.1 33.3 33.5 33.7 33.9 34.2 34.5 34.5 33.5 32.6 32.3 30.4 36.4 39.5 38.7 40.5 42.9 43.8 43.3 38.9 42.6 47.8 47.5 43.1 46.5 48.1 48.8 48.1 47.3 45.9 44.4 43.5 43.8 45.7 43.4 43.7 44 44.3 44.4 44.1 44.2 44.6 45.1 45.4 45.8 46.2 46.6 46.9 47.2 48.5 48.9 49 49 48.8 48.7 49.1 50.1 51 52 54.8 56.8 59.8 62.2
7.8 7.8 8.1 8.4 -1.2 -1.2 8.1 12.9 15.7 18.1 19.6 19.6 19.3 18.3 15.8 11.4 14.5 16.2 19.6 17.5 17.1 17.8 24 26.2 24.9 26 23.2 19.8 16.1 11.7 8.1 10.5 9.3 10.4 12.4 12.5 11.6 11.5 11 11.2 11.5 10.3 10.2 10.2 11.1 12.3 12.1 11.2 11.2 11.1 11.4 12.2 11.8 11.6 11.4 12 12.9 12.3 12.5 13 12.8 12.5 12.4 12.6 12.7 13.1 14.2 14.7 14.7 15.9 15.4 16.1 16.8 17.5 17.9 18.2 18.6 19.1 19.5 19.9 19.4 19.1 19.6 20.6 21.1 21.5 21.7 21.8 22.8 23.2 24.2 25.1 25.5 24.5 26.9 26.9 27 26.2 24.6 24.3 24.3 24.4 24.4 23.9 23.4 23.8 23.6 23.9 23.9 24 24.5 25.1 25.6 25.8 26.2 25.7 26.5 26.2 25.9 26 26 25.7 25.5 26.7 26 25 26.8 27.3 28.6 29.1 28.6 28.5 30.2 31 30.3 31.3 32 32.7 33.3 33.5 33.9 34.3 34.6 34.9 34.8 34.4 33.7 33.2 33 34 36.4 38.5 39.5 40.1 43.9 35.7 44.5 43.6 42.9 43.3 41.9 42.8 46.3 47.5 47.7 46 41.9 43.7 45.4 46.1 45.7 44.9 44.4 44.6 45 44.9 44.8 44.6 44.7 45.2 45.6 45.9 46.3 46.7 47.1 47.5 48.9 49 49.1 49.3 49.1 48.9 49.5 50.1 51.3 52.2 55.2 58 60.8 63.9
7.6 7.9 8.1 8.4 -1.2 -1.2 -1.2 11.9 14.7 17.3 18.9 19 18.7 16.6 13.1 13.3 16.9 18.5 20 18.2 16.5 16.6 20.3 26 24.5 24.8 18.5 15.2 9.9 8.4 10.2 10.1 9.6 10.4 12.2 12 11.3 10.7 10.2 11 11.3 10.4 10.5 10.5 11.5 12.2 12.2 11.4 9.9 11.1 11.1 11.5 12 11.7 11.4 11.1 12.3 12 12.2 12.8 13.2 13.5 13.2 13.2 12.8 13.1 14.1 14.8 15.2 15.7 16.1 16.6 17.3 17.6 18.1 18.5 19 19.4 19.8 19.9 19 19.4 19.8 20.9 21.4 21.9 22.3 22.7 22.9 22.8 24.4 25.7 24.8 26.7 27.4 27.2 26.9 26.4 25.4 25 25.8 25.8 25.5 24.8 24.3 24.3 24 23.9 24.2 24.7 25.2 25.7 26 26.2 26.5 26.7 26.5 27 27.5 26.4 25.8 26.6 25.8 28.1 28.2 27.9 27.7 26.3 28 28 28.7 29.3 29.6 30.1 29.8 30.7 31.4 32.2 32.8 33.5 34 34.4 34.7 34.9 34.7 34.9 34.8 34.3 33.7 33.8 33.5 34 34.7 40.3 35 39.3 48.9 49.9 45.1 42.3 41.1 40.2 39.3 42.3 44.3 40.1 42.2 45.5 47.5 47.6 47.2 46.6 45 45.4 45.5 45.4 45.3 45.2 45 45.3 45.7 46.1 46.5 46.9 47.4 47.8 48.9 49.2 49.3 49.7 49.5 49.2 49 49.7 51 52.4 55 57.9 60.9 65.1
7.8 8.1 8.3 8.5 9.6 -1.2 -1.2 10.3 13 16 18.3 18.4 16.1 13.2 11.4 16 18.7 19.7 17.8 15.5 14.6 17.3 19.9 22 21.7 17.9 13.2 10.6 7.8 8.3 9.8 9.7 10 10.2 9.4 8.6 10.3 9.3 10.5 10.6 10.5 10.2 10.5 10.9 11.8 11.9 12.2 11.3 11.1 11 11.1 11.7 12 11.6 11.3 10.8 11.7 11.8 12.2 12.4 13 13.5 13.5 13.3 13 13.3 14.1 14.8 15.3 15.2 15.9 16.7 17.3 17.7 18 18.6 19.3 19.7 20.1 19 19.3 19.7 20 21.3 21.8 22.2 22.7 22.8 22.9 23.4 24.7 24.9 24.9 26.7 27.4 27.5 27.2 27.1 26.2 26.1 26.3 26.3 26.6 26.8 26.1 24.6 24.4 24.4 24.8 25.3 25.7 25.8 25.9 26.1 26.3 27.1 26.8 27.1 28.2 28 27.2 27.4 27.4 29.4 29.4 29.3 28.9 28.4 27.2 27.8 28.6 28.9 28.9 29.7 30.4 29.3 31.4 32.3 32.4 33.3 33.7 33.7 34.5 34.5 34.5 34.8 35.2 35.3 35.3 35.2 35.1 34.7 34.5 34.9 41.2 38 46.8 49.1 39.2 35.1 37.4 41.8 40.7 39.4 39.2 39.4 41.6 45.1 47.4 48.8 48.7 45.4 46.2 46 46 45.8 45.7 45.6 45.6 45.7 46 46.4 46.8 47.2 47.7 48.1 48.9 49.3 49.4 50.1 49.9 49.6 49.4 50.1 51.4 52.7 54.9 57.8 61.2 65.8
7.9 8.4 8.5 8.5 8.5 -1.2 -1.2 -1.2 11.8 15 17.7 17.2 14 11.1 14.9 17.7 19.3 17.4 16.4 14.8 17 19.2 21 20.4 17.6 13.8 10 7.1 7.5 7.2 7.5 9.5 9.7 8.4 8.1 10.2 13.5 11.3 11.8 10 10.2 11.9 12.6 11.4 9.9 11.3 11.8 9.9 11.2 10.9 11.2 11.7 12.1 11.7 10.5 11.9 12.8 12.5 12.5 12.8 12.9 13.4 13.5 13.4 13.1 13.6 14.1 14.9 15.1 14.8 15.5 16 16.7 17.5 18.1 18.3 18.6 20 19.5 19.3 19.8 20.3 20.3 20.6 22.1 22.4 22.5 22.3 22.2 23.1 24.8 25.5 25.2 26.4 26.8 27.2 27.8 27.1 27.8 28.7 28.7 27 29.2 28.6 26.8 25.2 24.9 25 25.3 25.3 25.3 25.5 25.6 25.8 26 26.8 27.1 27.5 28.7 28.3 28.5 28.8 28.7 30 30.1 30.1 29.2 29.5 28.2 28 28.6 28.3 28.5 28.7 29 29.1 30 31 32 32.9 32.7 33.8 33.8 34 34.3 35 35.5 35.4 35.8 36.1 36.4 36.1 35.4 36.9 37.5 41.2 43.4 48.9 44.2 41.6 45.8 47.5 39.9 40.2 43.5 42.8 41.4 40.7 41.4 43.3 47.8 48.9 45 46.6 46.4 46.3 46.3 46.4 46 46.4 46.8 47.1 47.3 47.6 47.9 48.4 48.9 49.3 49.5 50.5 50.2 50.1 49.9 50.6 51.9 52.6 54.9 57.7 61.4 66.2
8.7 7.9 8.5 8.4 8.4 -1.2 -1.2 -1.2 10.5 13.8 16.7 15.6 13 11.4 17.1 18.7 20.3 18.9 14.8 15.7 19.3 20.5 20.6 19.3 14.8 10.7 7.1 7.1 7.1 7.4 7.7 9.2 9.9 15 15.1 15.4 16.2 15.3 13.3 12.4 10.8 11.2 12.1 11.6 11.2 9.9 9.9 9.9 11.3 10.9 11.3 11.8 12.2 11 11.1 12.1 12.3 12.7 13 13.3 13.4 13.5 13.5 13.4 13.3 13.8 14.3 14.9 14.4 14.3 14.9 15.4 16 16.8 17.6 18.4 18.9 19.3 20.1 20.3 20.7 20.8 20.6 20.6 22 22.1 22.2 22.3 22.9 23.5 25.2 24.2 24.4 25.5 26.2 26.9 27.3 27.1 28.3 29.7 31.1 32.1 31.5 32 29.2 25.8 25.7 25.4 25 25 25 25.2 25.4 25.5 25.7 26.4 27.5 28.6 29.4 29.6 29.8 30.1 29.7 30.6 30.7 30.7 30.7 30.1 30.2 29.7 29.6 29.5 29.5 29.4 29.1 28.8 29.8 30.8 31.3 32.1 32.7 33.8 33.2 33.6 34.2 35.6 35.4 35.3 35.7 35.9 36.1 36.2 37.2 38 39.9 40.7 41.1 48.4 46.9 48.3 47.7 42.5 38.7 36.7 39.1 41.3 43.4 45.2 48.6 44.8 43.4 43.1 43.4 45.1 44.1 47.3 47.3 46.5 46.7 47.2 47.6 47.8 48.1 48.4 48.7 49 49.3 49.6 49.9 50.8 50.7 50.5 50.4 50.9 51.9 52.6 54.9 57.9 61.7 66.2
8.4 8.3 8.2 8.1 8.1 8.4 -1.2 -1.2 -1.2 12.2 15.5 15.4 12 13.5 18.5 20.1 18.4 16.3 14.6 17.7 20.3 20.4 19.4 17 12 7.1 7.2 7.2 7.4 7.6 8.3 13.4 16.9 20.2 24.6 20.1 18 16.7 13.6 11.8 11 10.9 12.1 11.8 11.5 11.3 10.8 11.5 11.2 11 11.2 11.7 12.1 12.7 11.1 12.4 13.1 13.6 13.8 13.8 13.6 13.3 13 12.8 13.1 13.7 14.9 14.7 14.4 14.5 14.6 14.8 15.4 16.2 16.9 17.5 18.5 19.5 20.4 20.1 21.2 20.9 20.6 21 21.5 21.7 21.7 22.4 23.1 23.6 25.8 24.3 24.7 25.2 26.1 26.8 27.5 27.5 29 30.4 31.8 33.2 33.5 32.9 32 30.1 28.7 26.3 25.5 24.8 24.8 24.9 25.1 25.3 25.4 26.8 28.1 29.7 30.6 30.9 31.1 31.4 30.7 31.2 31.2 31.5 31.3 30.8 31.5 31.1 31.1 31 30.6 30.3 30 29.6 29.6 30.6 31.2 31.7 33.2 32.8 32.8 33.5 34.1 34.6 34.9 35.2 35.6 35.9 36.2 36.5 37.1 39 39.7 40 40.5 40.7 43 47.9 43.7 40 39.4 38.8 38.6 38.1 39.8 43.5 46.2 48.5 48.5 47.7 45.8 44.5 44.4 44.6 45.1 45.3 47.4 47.9 48.3 48.6 48.9 49.3 49.8 50.3 50.5 51 51.4 51.3 50.8 50.8 50.7 50.8 52.1 52.7 54.2 57 60.7 66.1
8.2 8.1 8 7.8 7.9 8.2 -1.2 -1.2 -1.2 9.6 14 15.6 12.1 12.5 17 20 18.1 15.5 16 18 18.4 18.7 17.7 13.8 8.5 6.8 7.2 7.5 7.6 9.7 14.2 18.9 22.9 22.9 23.6 21.1 18.4 16 13.6 12.5 11.6 10.6 12.1 11.8 11.5 11.3 9.9 11.5 11.1 11.1 11.4 11.5 12.5 12.5 11.7 12.6 13.3 13.9 14.1 14.1 14.4 14.5 14.8 14.5 14.3 14.4 15.4 14.8 14.8 14.9 15 15.1 15.3 15.3 16 16.8 17.7 18.6 19.5 19.7 20.8 20.8 20.8 21.1 21.1 21.1 21.3 22.1 23.1 26.2 24.1 24.2 25 25.4 26.4 26.4 28 27.9 29.4 30.8 32.3 33.5 34.2 34.1 35 31 31 29.2 28.2 26.1 25.5 24.8 24.9 25.2 25.6 26.6 28.2 30.2 31.7 32.2 32.4 32.5 31.7 31.8 32.3 32.9 31.8 31.9 32.3 32.5 32.2 31.9 31.6 31.2 30.8 30.3 29.8 30.3 31.1 32.1 33.2 32.9 33.4 33 34.1 35.3 35.5 35.9 36.2 36.6 36.9 37.3 37.7 38.6 39.7 39.8 40.4 47.2 44.9 43.7 40.9 40.7 40.6 39.9 40 39.7 39.5 40.2 44.4 48.1 45.5 46.2 46.5 46.2 47.2 49.9 48.1 46 46.1 46.7 47.1 48.9 49.7 50 50.4 51.2 51.3 51.8 52.5 52.3 51.5 51.2 51.1 51.2 51.3 52.7 53.7 56.3 61.2 66.1
8 7.9 7.7 7.6 7.7 8 8.4 -1.2 -1.2 -1.2 11.6 15.6 13.5 10.9 14.4 18.7 16.5 13.8 16.8 14.5 13.2 14.2 14.1 10.8 7 6.7 7.5 7.9 10.6 14.8 20.5 23.2 23.5 23.6 21.8 19.7 17.4 15.3 13.8 12.9 12.2 10.8 12 11.8 11.5 11.3 9.9 11.7 11.1 11.3 11.6 11.7 12.4 12.3 12 12.8 13.5 14.1 14.1 14.3 14.8 15 14.9 15.2 14.9 15.8 15.5 15.4 15.5 15.6 15.7 16.1 16.3 16.2 16.2 15.9 16.7 17.6 18.5 19.8 20.1 20.4 20.6 20.7 20.7 20.8 21.4 22.6 23.4 26 24.3 24.1 24.9 25.7 25.9 26.3 27.9 28.2 29.7 31.1 32.6 33.8 34.8 35.2 35.1 32.7 30.5 30.1 29.4 28 26.5 25.9 25.2 25.3 25.8 27.3 28.8 30.7 32.8 33.6 34 33.1 32.2 32.7 33.3 33.5 32.5 32.9 33.3 32.8 32.6 32.4 32.1 32.4 31.5 31 30.5 30.2 30.9 32.1 33.1 33.4 33.9 33.1 34.1 35.7 36 35.8 36.9 37.2 37.6 38 38.4 38.4 39.4 40.3 46.1 48.5 42.1 41.1 41.1 41.1 41.1 41.1 41 41 41.2 41.5 45.1 44.7 44 45.3 46.2 47.5 48.8 48.9 49.2 49.8 50.8 49.7 48.8 47.6 48.1 48.6 49.4 55.1 51.9 52.6 53.4 53.5 52.8 52 51.5 51.5 51.6 52.3 55.2 59.5 65.1 69.2
7.8 7.6 7.5 7.5 7.7 7.9 8.2 -1.2 -1.2 -1.2 10.1 14.3 14.8 11.3 12.4 15.9 13.7 14.7 14.8 11.9 7 8.3 8 7.6 7 6.9 8 9 13.3 20.9 24.3 24.2 24.2 23.3 21.1 18.5 17.3 15.2 14.1 13 12.2 11 10.9 11 11.5 11.2 11.6 10.8 11.3 11.5 11.4 12 11.7 12.1 12.2 12.9 13.7 14.1 14.2 14.6 15 15.4 15.6 15.2 16.4 16.4 15.9 16 16.4 16.7 16.1 17.2 17.2 17.2 17.1 16.6 16.5 16.6 17.5 18.7 19.5 20.9 20.4 20.5 20.6 21 21.3 22.7 26.3 23.5 23.7 24.1 25.1 26 26 26.1 26.9 27.8 29.6 31.2 32.7 34.1 34.9 35.2 35.4 34.6 32.7 30.7 29.5 26.8 26.3 26.3 26.4 26.2 26.7 27.9 29.3 31.9 33.7 34.5 34.2 33.2 32.8 33.3 33.9 33.4 33.6 34 33.7 33.2 32.8 32.6 33.1 33.6 33.8 32.8 31.6 30.7 30.9 31.9 32.9 33.8 34.3 34.7 34.7 35.1 35.5 36.2 37.5 38 38.3 38.6 39 38.4 39.2 40.5 48.2 43.2 40.9 41.3 41.6 41.9 42.2 42.6 42.8 43 43.2 43.4 45.3 42.1 42.5 44.5 45.5 47.2 48.7 49.5 50 50.4 50.7 50.9 50.9 51.4 52.5 51.5 49.1 49.3 51.3 53.7 54.4 54.5 53.9 53.2 52.5 52.1 52.9 54.7 59.1 63.1 68.5 70.2
7.5 7.4 7.4 7.6 7.7 7.9 8.1 8.4 -1.2 -1.2 -1.2 12.8 15.3 12.6 10.8 14.2 12.7 13.7 12.8 8.5 7.3 7.2 7.2 7.2 7.2 7 8.1 11.2 17.8 24.2 25 24.7 24.1 22.9 20.3 19.4 16.8 15.5 14.4 13.4 12.3 11.7 12.2 11.8 11.5 10.1 11.7 11.6 11.2 11.4 11.8 12.2 11.7 11.8 12 12.8 13.5 13.6 14.4 14.8 15.2 15.6 16 16.4 16.7 17 17.1 17.2 16.6 17.6 17.8 17.8 18 18.2 18.1 17.2 17.2 17.1 17 17.7 20.2 20.7 20.2 20.5 20.8 21.1 21.4 24 22.9 23.2 23.9 24.9 26 26.4 25.5 26.1 26.9 27.6 29.2 30.8 32.2 33.5 34.5 35.4 35.8 35.3 33.9 31.1 29.3 27.7 26.8 26.5 26.5 26.9 27.4 28.1 29.2 31.1 34.2 35 34.4 34 33.7 33.8 34 34.1 34.5 34.3 33.9 33.5 33.1 33.2 34.5 34.5 34.4 34.6 32.8 31.3 30.5 31.4 31.9 32.9 34 34.9 35.5 36.2 36.6 36.8 37.1 38 38.4 38.7 39.4 37.6 39.7 48 44.8 40.7 41.2 41.5 41.9 42.2 42.6 42.9 43.1 43.6 44 44.3 43.6 42.5 42.9 41.7 44.8 46.2 47.9 49.5 50.8 51.1 51.3 52.3 52.4 52.2 52.7 53.6 53.6 54.8 51.8 50.7 51.3 54.7 55 54.3 53.6 53.7 53 54.6 60.2 66 70.4 70.8
7.3 7.2 7.4 7.6 7.8 7.9 8.1 8.3 -1.2 -1.2 -1.2 11.8 15.1 14.5 11.1 12.1 11.4 11 7.8 7.4 7.3 7.2 7.3 7.4 7.4 7.2 9.1 13.9 22 25.1 25.2 24.9 24.3 22.7 20.4 18.5 16.7 15.6 14.5 13.3 12.2 11.5 11.7 11.7 11.4 10.5 11.5 11.2 11 11.1 11.6 11.8 12 12.1 12.1 12.3 12.7 13 14.3 14.7 15.2 15.6 16 16.6 16.8 16.9 17.1 16.4 17.4 18.3 18.5 18.4 18.5 18.8 19.1 17.9 17.8 17.9 17.9 17.5 18.2 19.9 20.4 20.9 21.2 21.5 21.9 22.7 22.6 23.7 24.3 25.3 26.5 26.1 25.4 26.4 27.1 27.8 28.8 30.2 32.3 34.1 35.4 36.2 36 35.7 34.6 32.4 29.9 28.5 27.3 26.7 26.9 27.4 27.5 28.3 30.3 32.1 34.5 35.7 34.8 34.4 34.4 34.4 34.6 34.9 35.1 34.5 33.8 33.4 33.7 34.7 35.3 35.3 35.2 35.2 34.2 33 31.9 31.1 31.1 32 33.5 34.5 35.5 36.5 37.1 37.5 37.7 38.1 38 39 40 39.9 47.7 45.4 40.7 41 41.5 41.9 42.3 42.6 43 43.3 43.6 43.6 44 44.9 43.1 43.3 43.5 43.4 43.2 45.1 46.9 48.6 49.8 51.8 52.4 53.4 53.3 53.7 53.3 54.2 55.1 55.4 56.6 58.1 54.7 51.7 52.2 55.5 54.6 54.1 53.3 53.6 60.3 67.1 69.9 70.7
7.1 7.2 7.4 7.6 7.8 7.9 8.1 8.3 8.7 -1.2 -1.2 -1.2 13.3 15 12.5 10.6 9.6 7.3 7.1 7.2 7.3 7.3 7.4 7.5 7.6 7.6 11.2 18.7 23.7 25 25.3 25.3 24.3 22.7 20.7 18.9 17 15.3 14.4 13.2 12 11.1 11.2 11.4 11.3 10 11.6 11.8 11.1 11.2 11.3 12.5 12.2 11.9 12.2 12.8 13.2 13.6 13.7 14.6 15 15.5 15.9 16.8 17 17.2 17.4 17.2 17.9 18.9 19.1 19 19 19.5 19.8 19 18.9 18.9 18.5 18.2 18.5 18.9 20 20.8 21.4 22 26.2 22.5 23.6 24.4 25 25.6 26.1 26 25.5 26.7 27.4 28 28.6 30.1 31.9 33.3 34.8 36.5 36.7 36.4 35.6 33.3 30.6 29.4 28.3 27.9 27.8 28.5 27.7 29.5 31.4 33.1 35 36 36.5 36.6 36.1 35.2 35.1 35.4 35.8 34.8 34.4 34.5 35.3 36 36 36.1 36.1 36.1 35.1 33.8 32.6 31.7 31.9 31.4 32.3 33.8 34.8 36 36.9 37.9 37.9 38.5 39.4 39.9 42.5 45.6 46.4 40.8 40.8 41.3 41.8 42.3 42.6 43 43.4 43.7 44 44.1 43.6 47.2 43.9 43.8 43.8 43.8 44.2 44.7 43.4 47.9 48.4 50.6 52.4 53 53.1 53.5 54 55.4 56.9 56 56.4 56.6 56.9 58.7 56.6 52.9 53.6 53.9 54.2 54.3 58 64.4 67.6 69.4
7 7.2 7.4 7.6 7.7 7.9 8.1 8.2 8.4 -1.2 -1.2 -1.2 11.5 12.9 11.5 8.6 7.6 7.4 7.4 7.4 7.4 7.4 7.5 7.6 7.7 8.3 14.9 22.5 23.9 25.1 25.9 25.4 25.2 23 21.1 19.3 17.6 15.4 14.6 12.9 12.8 12.5 11.9 11.5 11.2 11.5 11.2 11.5 11.6 11.4 10.7 11.1 11.3 12 12.8 13.4 13.7 14.1 14.2 14.5 14.9 15.4 15.8 17 17.2 17.5 17.7 17.8 18.3 18.2 18.5 18.8 20.4 20.5 20.5 20.4 20 19.5 19.2 18.9 18.8 19 19.6 20.6 21.4 25.5 22.8 23.5 24.1 24.5 24.9 25.3 25.5 25.4 25.4 26.6 27.6 28 28.6 29.9 31.6 33.3 35 36.6 37 37 35.8 33.2 31.3 30.2 29.7 28.8 28.8 29.2 27.3 30.8 32.5 34 35.3 36.3 37 37.3 37.6 36.1 35.6 36 36.5 35.8 36.8 36.1 36.3 36.9 36.7 36.7 36.8 36.9 35.7 34.3 33 32.5 32.7 32.8 31.9 33.1 34.3 34.8 36.1 37.4 37.9 38 38.9 39.9 40 39.6 40.6 40.8 41.1 41.6 42.2 42.6 43 43.4 43.8 44.1 44.4 44.6 43.3 45.1 44.9 44.7 45.1 45.4 45.6 45.4 45.1 45 46.7 49.1 51.3 52.4 52.7 52.8 54.2 55.5 56.3 57.5 58 57.3 57.1 57.5 58 57.8 57.5 53.9 54.7 54.8 55.6 59.8 63.9 66.1
7 7.2 7.3 7.5 7.7 7.8 8 8.2 8.3 8.8 -1.2 -1.2 -1.2 8.7 8.3 8.3 8.3 8 7.9 7.9 7.8 7.7 7.6 7.5 7.5 11.8 18.4 23.9 24.4 25.8 26.3 25.8 24.9 23.3 21.7 20.2 18.8 17.4 15.8 13.8 13.7 13.3 13 12.5 9.9 11.4 11.2 11.3 10.6 10.5 10.6 11.2 11.5 12.2 13.2 13.8 14.2 14.6 14.7 15.3 15.6 15.7 16.5 17.2 17.5 17.7 17.9 17.7 18.5 19.3 19.7 20 20.3 20 19.7 20.7 21.1 20.7 20.2 19.7 19.2 19 19.7 20.7 21.3 22.9 23.8 23.7 24.2 24.6 25 25.4 25.2 25 24.9 26.7 27.8 28.1 28.6 30 32 33.6 35.3 36.6 37.4 37.5 36.3 33.8 32.2 31.1 30.2 29.8 30.1 29.8 30.8 32.2 32.9 34.8 36.5 37.4 39.7 39.1 37.1 36 36.5 36.9 37.1 37 37.5 37.6 37.4 37.6 37.5 37.3 37.3 37.3 36.1 34.7 33.4 33.2 33.6 33.7 33.1 32.5 33.8 33.9 35.4 36.7 37.1 37.6 38.1 38.8 45.2 41.2 40.9 40.9 40.9 41.5 42.5 43 43.4 43.8 44.1 44.5 44.7 43.8 46.4 45.7 45.7 45.6 45.6 45.5 45.7 45.6 45.8 45.9 45.9 47.8 49.2 50.8 52.9 54 54.1 55.5 55.6 57.2 58.6 57.9 58 57.4 57.4 57.8 57 58.7 58.2 55.3 55.9 55.4 58.6 63.4
6.9 7.1 7.3 7.4 7.6 7.8 7.9 8.1 8.2 8.4 -1.2 -1.2 -1.2 7.7 8 8.1 8.3 8.4 8.4 8.3 8.1 7.8 7.5 7.8 8.4 12.5 19.5 25 25.8 25.4 26.2 26.9 25.8 24.4 23.3 20.7 19.4 18.1 16.6 14.7 13.5 13 12.5 12 9.9 11.3 11.1 11.2 11.3 11.5 11.3 11.2 11.8 12.4 13 13.3 13.2 14.1 15.1 15.6 15.8 15.4 16.6 17.3 17.7 17.9 17.9 18 18.3 18.9 19.6 20.4 20.5 20.5 20.6 21.2 21.5 21.5 21.4 20.9 19.8 19.3 20 20.8 23.6 22.6 23.3 23.3 24.3 24.7 25.1 24.8 24.7 24.6 24.8 26.3 28.1 28.7 28.9 30 32 34.1 35.7 37 38 38.2 37.3 35.2 33.1 32 31.2 31.1 31.3 31.7 32.2 33.8 35.1 36.3 37.6 38.2 38.1 38.4 36.9 36.9 37.1 37.3 37.6 38 38.2 38.3 38.4 38.3 38.2 38 37.9 37.6 36.4 35.1 33.8 33.9 34.3 34.5 34.1 33.6 33.2 33.3 34.8 35.8 36.3 37.8 38.5 39.1 44.1 39.8 40.1 40.5 41 41.1 42 43.1 43.5 44 44.3 44.6 45.2 41.9 48.1 46.4 46.4 46.3 46.2 46.2 46.2 46.5 46.6 46.8 46.5 46.6 46.1 47.8 50.5 52.9 53.3 54.1 56 57.8 58.2 60.9 61.4 57 57.3 57.7 58.2 58.5 58.2 54.8 56.8 57.2 57.2 58.7
7.1 7.2 7.3 7.5 7.6 7.7 7.8 8 8.2 8.3 -1.2 -1.2 -1.2 -1.2 8.5 8.6 8.7 7.8 8.5 8.1 7.8 7.5 7.5 7.7 8.6 14 20.5 25.1 24.9 25.2 26.2 27.1 27.1 26.5 24.7 22.3 19.7 18.4 16.6 14.8 13.4 12.9 12.5 12.2 9.9 11.8 11.2 11.3 11.6 11.7 11.5 11.5 11.6 12.2 12.8 13.3 13 13.8 14.8 15.3 15 15.6 16.5 17.2 17.9 18.1 18.3 18.6 18.9 19 20.2 20.6 20.7 20.8 20.7 20.8 21.1 21.2 21.5 21.7 21.1 19.7 20.6 26.2 21.9 21.7 22.4 22.6 24.2 24.6 24.9 24.6 24.6 25.2 25.5 26.2 27.3 28.6 29.1 30.7 32 34 36.4 38.1 38.7 38.4 37.6 35.4 33.2 33.1 32.4 33.1 33.1 33.4 33.8 35.2 36.5 37.8 38.7 39.6 39.1 38.4 37.8 37.3 37.6 37.8 38.1 38.4 38.6 38.8 39.2 39 38.9 38.7 38.6 37.9 36.7 35.6 34.2 34.6 34.9 34.9 34.9 34.6 33.5 33.1 34.3 35.3 36.2 37.1 38.1 43.2 39.5 39.6 39.9 40.2 40.5 40.9 41.5 43 43.2 43.4 44.3 44.5 45.6 40.8 47.4 47.1 47 47 46.9 47 46.8 47.1 47.4 47.7 47.6 47.6 47 46.1 48.4 49.9 52 52 55.1 58.7 58.6 59.1 56.8 56.5 57 57.5 58 58.4 57 56.1 56.1 56 57.9 59.9
7.3 7.4 7.5 7.6 7.8 7.9 8 8.1 8.2 8.3 8.4 -1.2 -1.2 -1.2 9 7.2 8.9 8.6 8.2 7.9 7.5 7.4 7.4 7.7 9.4 14 20.2 22.6 24.2 25.2 27.2 27.6 27.6 27.2 25.7 23 20.5 18.7 16.8 15 14 13.6 13.3 11.7 11.7 12.3 12.1 11.4 12.2 12 11.8 11.8 12 12.1 12.5 13.1 13.1 13.4 14.4 15.3 15.8 16.2 16.5 17.1 17.8 18.3 18.6 18.9 18.8 19.1 20.8 20.9 21 20.8 20.9 21 21.1 21.6 22 22.2 22.3 21.1 26.2 21.7 21.9 21.6 21.4 22.1 23.3 24.2 24.6 24.3 24.7 25 25.3 25.7 26.4 28.1 29 29.9 30.9 33.6 36.1 38.5 39 38.7 37 34.5 33.5 33.6 35 35.1 35 35.3 35.8 36.8 38 38.9 39.7 40.6 40.1 39.5 38.6 37.8 38 38.2 38.5 38.7 38.9 39.8 39.8 39.6 39.5 39.4 38.7 37.5 36.9 35.9 34.9 35.2 35.2 35.2 35.2 35.1 34.3 33.6 34.2 34.7 35.8 36.6 38.8 41.1 38.7 39.2 39.6 39.9 40.3 41.6 41.4 42.7 42 42.8 43.8 44.9 44.8 40.2 47.1 48.2 47.7 47.6 47.9 47.6 47.4 47.7 48 48.3 48.5 48.7 48.6 47.8 47.2 47.5 51.6 50.7 54.5 55.9 55.5 56.6 54.7 55.1 55.6 56.2 57.3 57.7 57.5 56.8 56.1 56 56.4 57.1
7.5 7.6 7.7 7.8 7.9 8 8 8.1 8.2 8.3 8.4 -1.2 -1.2 -1.2 -1.2 9 8.8 8.4 8 7.6 7.4 7.4 7.4 8 10.7 17 22.5 23.8 25 25.9 26.6 27 27.5 27.7 26.8 24.6 22.7 19.9 17.6 15.4 14.6 13.9 13.5 9.9 11.5 11.4 11.7 12.5 12.4 12.3 12.1 12.2 12.4 12.5 12.6 12.8 13.1 14.3 13.9 14.8 15.5 15.9 16.5 17.1 17.8 18.5 18.6 18.9 19.2 19.2 20.8 21.3 21.1 20.9 21 21 21.5 22 22.5 22.7 23.3 24.9 21.1 21.1 21.9 22 22 22.6 22.7 23.5 24.1 24.7 24.7 25 25.2 25.5 26.2 26.8 29.8 29.2 30.1 32.9 35.8 38.4 38.4 36.8 35.8 33.6 33.9 33.8 35.4 34.9 36.1 36.9 37.5 38.2 38.9 39.6 40.3 41 41.2 40.4 39.5 38.6 38.5 38.6 39 39.4 40 40.6 40.4 40.3 40.1 40 38.3 37.1 36.5 35.9 35.5 35.5 35.5 35.5 35.5 35.5 35.5 34.5 34.9 35.1 35.6 36.2 40.5 38.2 38.3 38.8 39.3 39.7 40.3 40.6 41.3 41.9 43.1 43.4 43.6 44.6 44.6 45.3 46.6 47.2 47.8 48.6 48.8 48.2 48 48.3 48.6 48.9 49.1 49.3 49.5 49.6 49.1 48.7 48.6 49.2 47.3 49.8 49.6 48.2 50.5 53.4 54.8 56 56.9 57.5 57.7 57 56.4 56.3 56.6 57
7.7 7.8 7.8 7.8 7.9 7.9 8 8.1 8.2 8.3 8.4 8.9 -1.2 -1.2 -1.2 8.9 8.6 8.3 8 7.8 7.6 7.9 7.8 8.1 13.4 21.6 22.9 24.2 25.5 26.6 27.2 27.6 27.9 27.8 27.4 26.2 23.1 19.7 17.4 16 14.9 13.9 13.5 9.9 11.6 12 12.3 12.6 12.7 12.6 12.5 12.6 12.7 12.9 13 13.2 13.4 14.1 13.6 14.3 15.1 15.8 16.5 17.2 17.9 18.6 18.7 18.8 19.1 19.3 20.6 21.4 21.1 21 20.9 21.3 21.8 22.4 23 23.7 23.8 24.1 22.8 20.2 21 22.2 22.8 23.1 23.2 23.2 24.1 24.6 24.7 24.9 25.1 25.4 25.9 26.5 29.1 29.5 29.5 32.1 34 36.2 35.7 33.2 32.8 32.6 33.1 33.6 35.1 36.2 37.1 38 38.6 39.2 39.9 40.6 41.2 41.5 41.5 40.8 40 39.2 39 39.3 40 40.6 41.1 41.3 41.1 40.9 40.8 39.3 38.4 38.3 37.1 36.7 36.4 36.1 35.9 35.8 35.8 35.8 35.7 35.4 35.6 35.1 35.1 37.5 39.1 37.6 38.3 38.6 39 39.4 39.9 40.5 41.1 41.8 42.5 43.2 44 44.4 38.2 44.8 45.5 46.1 46.7 48.1 49.7 49.1 48.6 48.9 49.2 49.5 49.7 49.9 50.1 50.5 50.7 50.8 51 50.9 50.1 50.2 51.3 51.2 51.2 49.4 53.5 55.6 56.6 57.8 58 57.7 57.3 57.1 57.1 57.4
7.7 7.7 7.7 7.8 7.8 7.9 8 8.1 8.2 8.3 8.4 8.9 -1.2 -1.2 -1.2 -1.2 8.8 8.5 8.2 8 7.9 7.8 8.4 8.3 14.9 20.2 22.4 24.5 25.7 26.8 27.8 28 28 27.9 27.8 26.1 23.4 20.1 17.5 16.5 15.3 14.8 11.7 11.5 11.8 12.2 12.5 12.7 12.8 12.9 12.9 13 13.1 13.3 13.5 13.7 13.8 14 13.7 14 15 15.8 16.5 17.2 17.9 18.6 18.9 19 19.1 19.4 20.5 21.5 20.5 20.8 21.1 21.7 22.2 22.7 23.1 22.2 24.3 22.7 23 23.3 22.4 21.4 22.6 23.5 23.7 24 24.2 24.4 25 25.5 26.1 26.2 25.7 27.2 28.3 28.7 29 30.2 31.1 31.8 32.5 31.7 32.3 32.1 32.2 32.5 33.7 35.9 37.2 39.1 39.7 40.3 40.8 41.2 41.6 42 41.8 41.1 40.3 39.6 39.7 41.2 41.6 41.9 42.2 42.1 41.9 41.7 41.3 39.6 39.6 39.5 37.9 37.6 37.2 36.9 36.7 36.5 36.4 36 36.3 36.7 36.3 33.7 34.4 38.1 38.3 37 38.3 38.6 38.8 39.2 39.8 40.4 41 41.5 42.8 43.5 44.3 45.1 44 45 44.5 45 47 48.2 49.3 48.5 48.8 49.3 49.8 50.1 50.3 50.5 51 51.4 51.6 51.6 51.4 51.5 51.3 51.9 52.9 52.9 52.5 48.5 52 54.9 55.2 56.6 58.5 58.7 58.1 58 58 57.9
7.6 7.6 7.7 7.7 7.8 7.9 8 8.1 8.2 8.2 8.3 8.6 -1.2 -1.2 -1.2 -1.2 8.9 8.6 8.5 8.3 8.2 8 8.3 9 14.2 19.5 22.6 24 25.6 27 27.7 28.1 28.2 28.1 28.2 26.5 23.9 20 17.2 15.1 15.2 15.4 9.9 11.7 12.1 12.4 12.7 12.8 12.9 13.1 13.2 13.4 13.5 13.8 14.3 14.1 14.2 14.2 14.2 14.4 15.1 15.9 16.6 17.3 18 18.7 19.1 19.2 19.2 19.5 20.4 21.4 21.8 21.5 21.7 22.2 22.7 23.2 24.4 25.9 23.9 23.8 24.2 24.4 24.5 24.1 20.4 21.7 23.4 24 24.3 25.4 25.6 25.9 25.8 25.7 25.9 26.6 27.5 28.1 28.8 28.9 29.2 28.7 29.3 29.8 31 31.8 31.6 31.9 33 34 36.1 37.3 39.3 40.6 41.2 41.6 42 42.4 42.1 41.4 40.7 40.1 40.4 40.9 42.1 42.4 42.7 42.6 42.5 42 41.4 40.7 40.7 40.4 39.9 38.7 38.3 37.8 37.5 37.5 37 36.6 36.7 36.8 36.9 35.7 36.3 37.2 36.9 37.5 38.3 38.2 38.3 39.1 39.7 40.2 40.8 41.2 43 43.8 44.7 39.9 45.5 45.4 46.2 45.4 46.4 47.6 48.9 48.6 49.1 49.6 50.1 50.6 50.9 51.3 51.9 52.2 52.4 52.5 52.7 52.9 53 52.2 54 54 53.8 51.9 50.4 50.4 54.5 56.5 57.6 58.8 59.2 59.1 59 59.3
7.5 7.5 7.6 7.7 7.8 7.9 7.9 7.9 8 8 8.3 8.6 9 -1.2 -1.2 -1.2 9.1 8.9 8.7 8.6 8.4 8.3 8.2 9.9 14 18.3 20.4 22.6 24.6 26.2 27.2 27.5 27.9 28.1 28.2 26.5 22.5 20.1 17.2 17 15.6 14.4 11.5 12.2 12.6 12.5 12.8 12.9 13.5 14.2 14.4 13.7 14.2 14.7 14.7 14.5 14.5 14.5 14.8 15 15.2 16 16.7 17.4 18 18.7 19.3 19.3 20.3 21.1 21.6 21.8 21.9 22.7 23 23 23.5 24.7 27 25.3 25.6 24.8 25.5 26.1 25.9 25.6 24.5 24.3 24.1 24.3 24.4 24.5 25.1 25.7 25.3 25.2 26 25.8 24.6 25.5 28 28.2 28.1 28.2 28.7 29.4 30.8 32 31.6 31.7 32.4 33.4 36.2 37.1 38.8 40 41.4 42 42.4 42.8 42.3 41.7 41 40.7 41.2 41.7 42.2 43 43.1 43.2 43.2 42.4 41.4 41.8 41.8 41.4 40.9 40.2 39.5 39.1 38.6 38.2 37.8 37.4 37.2 37.3 37.4 37 36.3 39.3 35.6 36 36.5 38.4 39.5 39.5 40.1 40.3 40.5 42.4 42.7 43.1 44.3 42.7 44.3 44.5 45.6 45.8 45.7 47.1 48.6 48.8 49.3 49.8 50.2 50.6 51.1 51.4 51.9 52.4 52.9 53.3 53.8 54.3 54.5 53 54.1 55.1 54.9 54.2 53 53.8 54.3 55.7 56.8 58.2 58.8 60.1 59.9 59.7
7.1 7.5 7.5 7.6 7.6 7.6 7.7 7.7 7.7 8 8.3 8.6 8.9 -1.2 -1.2 -1.2 -1.2 6.9 7.1 7.4 7.6 7.8 8.1 9.3 11 13.9 15.7 17.6 19.7 23.3 26.1 26.9 27.3 26.3 27.3 25.9 22 20 16.8 17.6 13.6 9.9 11.9 12.8 13.6 13.1 13.2 13.8 14.4 14.9 14.2 14.6 15 15.3 15.1 15 14.9 15.1 15.3 15.6 15.8 16.1 16.8 17.4 18.1 18.8 19.5 20 20.6 21.2 21.8 22.3 23.1 23.9 24.8 24.1 24.4 27.4 25.8 26 26.2 25.9 26.5 27.1 27.5 27.2 26.8 26.3 26.2 25.8 24.1 22.7 24.2 25 25.7 25.8 26 26.5 24.5 24.5 24.5 26.9 27.7 28.1 28.3 30.8 31.5 32.1 31.7 32.1 32.4 33.1 34.2 37.9 38.1 39.3 40.8 42.2 42.8 43.2 42.6 41.9 41.3 41.5 42 42.5 42.9 43.4 43.7 43.9 43.9 42.9 42.5 42.9 42.8 42.3 41.8 41.3 40.8 40.3 39.8 39.3 39 38.5 38.1 37.8 37.9 38.4 36.8 37.7 37.8 36.9 37.3 39 39.2 39.9 40.5 39.9 41.6 41.4 42.3 42.6 42 44.1 44.3 44.4 44.8 45.2 46.4 47.3 48.1 48 48.4 48.8 49.1 49.7 50.3 50.8 52 52.5 52.9 53.4 53.9 54.4 55 54.8 54.2 55 55.2 55.4 52.6 51.2 53.7 55.4 55.9 56.8 58 59.4 60.3 60.8
7.4 7.4 7.3 7.4 7.4 7.4 7.4 7.5 7.6 8 8.3 8.6 8.8 9.1 -1.2 -1.2 -1.2 6.3 6.8 7.3 7.8 8.2 8.3 8.5 9.8 10.3 10.9 12.8 15.1 19.2 22.7 24.4 24.9 24.7 23.2 21.9 20.9 17.9 17.5 17.4 11.1 11.6 12.6 15.5 14 12.9 13.6 14.2 14.4 14.3 14.7 15 15.3 15.7 15.5 14.9 15.5 15.8 16 16.3 16.5 16.6 16.8 17 17.7 18.6 19.6 20.3 21.7 22.2 22.7 23.4 24.3 25.2 26 26.1 27.1 27.2 26.1 26.6 26.9 27.1 27.4 27.8 28.2 28.6 28.5 28.3 27.9 26.8 26.8 25.5 25.3 25.8 26.4 27 27.2 27.5 26.8 24.5 29.7 30.6 30.1 31.3 26.3 30.2 31.7 32.2 32 32.4 32.6 32.9 34.1 36 37 38.6 40 41 42.7 42.9 42.1 41.4 41.6 42.1 42.6 43.1 43.6 44.2 44.5 44.6 44.6 43.8 43.5 44 43.4 42.7 41.9 41.9 41.7 41.4 41 40.6 40.2 39.7 39.2 38.8 38.5 36.9 39.7 38.1 42.7 38.8 36.1 38.4 39 40.7 40 41 41.3 41.7 42.5 42 44.1 43.9 44.1 44.3 44.7 45.2 47.7 46.6 47.1 47.1 47.3 47.7 48.3 48.9 49.5 50.1 51.1 52.5 53 53.5 54.1 54.7 55.3 55.7 55 55.9 56 55.8 55.8 55.8 53 55.2 55.5 56.4 58.3 58.5 58.9 61.7
7.4 7.5 7.3 7.1 7.2 7.2 7.2 7.3 7.6 7.9 8.2 8.4 8.7 8.9 -1.2 -1.2 -1.2 -1.2 7.4 7.9 8.1 8.2 8.2 8.6 9.3 8.8 9.4 9.9 11.8 14.2 18 19.6 20.4 20.8 19.8 18.3 18.1 14.2 16.8 17 9.9 11.8 14.8 18 13.6 13.3 13.9 13.8 14.5 14.6 15.2 15.4 15.7 16 16.2 16 16.1 16.5 16.7 16.9 17.1 17.2 17.4 17.5 18.2 18.7 19.7 20.4 21.2 22.5 23.9 24.6 25.2 26.1 27.1 28.1 27.4 26.8 27.3 27.5 27.9 28.8 28.4 28.7 29.2 29.6 30 29.9 28.9 28.4 27.4 27.5 27.1 26.6 26.4 27.3 28.2 28.6 28.8 28.2 28.7 30.7 31.9 32.5 32.3 30.9 31 31.2 32.4 33 33.4 33.7 33.9 35.2 36.4 37.9 38.8 39.7 41.2 42.1 41.6 41.7 42.2 42.7 43.3 43.8 44.3 44.9 45.4 45.3 45.1 45 44.6 44.4 43.2 42.8 42.7 42.7 42.6 42.2 41.9 41.5 41.2 39.9 39.2 38.7 39.5 37.8 42.4 38.6 40.7 38.3 37.8 38.4 39.2 40 40.7 40.1 41.3 42 43 42.3 43.5 44.4 44.5 44.3 44.8 45.3 45.8 46.1 46.4 46.6 46.7 47 47.5 48.1 48.7 49.3 50.1 51.9 53.2 53.8 54.4 54.9 55.5 55.2 55.3 56.8 56.7 56.7 56.7 56.8 56.7 53.2 54.5 56.3 57.8 58.2 59.6 61.6
7.4 7.7 7.5 7.3 7.1 7 7 7.3 7.5 7.8 8 8.2 8.4 8.7 9.6 -1.2 -1.2 -1.2 8.9 8.3 8.3 8.4 8.4 9.1 8.4 8.6 8.7 9.1 10.1 12.5 14.9 15.3 16.8 16.4 16.8 15.1 15.6 13.8 16.3 9.9 11.6 15.6 12.3 13.9 13.6 13.8 14.4 14.7 14.1 15.2 15.3 15.5 15.8 16 16.7 17 16.8 17.1 17.4 17.5 17.7 17.8 18 18.4 19.2 19.7 20.3 21 21.7 22.4 24.3 25.6 26.4 27.1 27.9 28 28.4 29.2 29.2 28.8 28.8 29.3 29.7 30 30.8 31 29.3 30.2 30.1 30.3 30 28.9 28.3 27.7 27 26.9 27.8 28.6 29.8 28.6 28 29.8 32.8 34.5 34.2 32.2 32.8 32.7 30.8 32.1 33.2 33 34 35.2 36.3 37.3 38.2 38.8 39.5 40.5 41.6 42.3 42.8 43.3 43.8 44.3 45 45.7 45.9 45.4 45.3 45.2 45.2 44.9 43.8 43.6 43.6 43.5 43.4 43.1 42.8 42.4 42 40.6 39.5 39.4 38 39.7 40.3 39.6 39.6 39.2 38.3 38.3 38.8 37.6 41.6 40.9 42.3 41.7 41.9 41.2 43.9 44.7 45.4 44.6 44.8 45.4 46 47 46.9 47.9 46.9 47 47.1 47.6 48.2 48.7 49.3 51.4 53.1 54 54.6 55.2 55 54.6 56.3 57.2 57.7 57.6 57.6 57.7 57.8 57.2 57 56.1 57 57.7 59.7 61.9
7.4 7.7 7.6 7.4 7.2 7 6.9 7.1 7.3 7.5 7.8 8 8.2 8.6 9.8 -1.2 -1.2 -1.2 9.3 8.6 8.7 8.8 9 8.7 8.7 8.9 8.4 8.4 9.7 11.3 13.3 13.4 13.5 13.9 14.4 13.3 14 13.4 12.9 10.9 11.8 12 12 12.1 14.4 13.5 14.4 15.1 14.6 15.4 15.5 15.5 15.8 16.5 17.1 17.4 17.7 17.8 18 18.1 18.2 18.4 18.6 19.4 20.2 20.7 21.4 22.1 22.8 23.4 24.3 26.4 27.2 28 28.3 28.9 29 30 29.7 29.7 30.2 30.5 30.9 31.4 32.1 32.5 31.9 31.9 31.6 31.9 31.1 30.1 29.3 28.7 28.1 27.4 27.3 28.5 30.2 29.8 28.2 28.5 32.8 36.2 35.8 35 35 34.5 33.9 33.8 32.8 33.3 34.2 35.3 36 37.1 37.9 37.9 38.9 40 40.9 42.5 43.2 43.7 44.1 44.7 45.6 46.4 46 45.6 45.6 45.7 45.9 45.4 44.6 44.5 44.4 44.3 44.2 44 43.6 43.2 42.8 41.7 40.4 40.4 38.8 44.1 39.7 40.3 40.1 39 39.2 38.3 39 36.5 42.3 41.8 41.1 41.7 42.3 43.8 43.6 44.4 45.4 44.9 44.7 45.2 45.5 47.4 47 47 47 47.1 47.3 47.5 47.6 48.2 49 50.1 52.4 53.4 54.2 54.7 54.3 55.8 56.9 57.6 58.2 58.5 58.5 58.6 58.8 58.7 58.1 57.5 57.2 57.3 58.1 60.1
7.5 7.7 7.8 7.6 7.4 6.9 7.1 7.2 7.3 7.5 7.7 7.8 8 8.6 9.3 -1.2 -1.2 -1.2 9.8 8.8 9.2 9.2 9.2 9.2 9.2 9.3 8.7 8.6 8.9 8.9 10.9 11.8 12 12.1 12.1 12.8 12.9 12.2 9.9 11.4 11.7 11.8 11.8 11.7 12.3 13.2 14 15.4 15.1 15.6 15.7 15.8 16.1 17 17.5 17.8 18.2 18.3 18.4 18.6 18.8 19 19.6 20.4 21.2 21.7 22.5 23.2 23.9 24.7 25.2 27.2 27.8 28.4 28.9 29 30 31 30.8 30.7 31.5 32.5 32.8 33.3 33.1 33.4 33.7 32.8 32.7 33 32.3 31.5 31 30.1 29.1 28.5 30 30.7 30.5 29.3 29.5 28 32 37.3 38.4 37.7 36 34.9 35 34.9 34.7 32.9 34.4 35.1 35.5 36.3 37.7 38.6 38.5 39.3 40.3 42 43.5 44 44.5 45.4 46.3 47 46.8 46.1 46.3 46.4 46.4 45.9 45.4 45.3 45.2 45.1 45 44.8 44.5 44 42.9 41.7 45.7 39.3 41.2 40.3 40.7 40.6 39.3 39.5 38.9 38.4 38.8 37.5 42 42.4 42.1 42 42.4 42.6 43.9 44.1 45.2 45.2 45.1 45.1 45 47 46.5 47 47 47.1 47.3 47.5 47.7 48 50 50.3 50 50.3 51.9 53.7 54.2 56 57.3 58 58.7 59.3 59.4 59.6 59.8 60 59.4 58.7 58.6 58.1 57.9 58
7.5 7.7 7.9 7.7 7.4 7 7.2 7.4 7.5 7.6 7.7 7.9 8 8.5 9.1 9.8 -1.2 -1.2 10.5 9 9.5 9.3 9.3 9.2 9.1 9.8 9.1 8.8 8.8 8.8 8.8 10.3 10.5 11.7 11.9 11.2 10.6 10.7 11.2 11.3 11.3 11.5 11.7 12.1 12.2 13 14.1 15 15.5 15.8 16.1 16.7 17.3 17.9 18.3 18.4 18.5 18.6 18.7 18.9 19.1 20 20.7 21.4 22.2 22.8 23.6 24.3 25 26.4 26.9 27.6 28.3 29.3 29.3 29.6 30.8 32.2 32.2 31.8 32.7 33.6 34.6 34.7 34.4 34.6 34.9 34.7 33.9 34.3 33.7 33.1 32.5 31.3 30.4 29.9 30.8 30.2 31.4 31.7 31.9 28.4 33.2 37 38.9 37.6 35.8 35.9 36 36 35.8 35.5 35.1 35 35.3 36 36.6 38.8 38.7 39.3 40.2 41.4 43.1 44.3 45.2 46 46.8 47.6 47.8 47.2 46.9 47 47 46.9 46.4 46.3 46.1 46 45.9 45.7 45.2 44.4 43.1 42 40.2 41.7 40.8 40.1 40.9 41.2 39.4 39.5 39 38.4 38.6 37.7 40.5 41.2 41.7 42.1 42 42.2 42.6 43.8 45 45 44.9 45 45.1 47 47.2 47.1 47.1 47.1 47.3 47.5 47.1 47 47.9 49.7 51.8 50.8 52.3 52.5 53.5 55.3 57.5 58.4 59.1 59.8 60.4 60.5 60.7 60.9 61.1 61 60.7 60.6 60.3 60.1
7.5 7.7 8 7.9 6.8 7.1 7.4 7.5 7.6 7.7 7.8 8 8.1 8.4 9.1 9.8 -1.2 -1.2 10.7 9.5 10 9.3 9 8.9 8.8 10.5 10.3 9.1 9 8.9 8.9 11.7 11.4 10.9 11.2 10.8 10.2 9.9 11.5 11.5 11.4 11.5 11.7 12.3 11.9 12.8 14.2 15.2 15.6 16.2 16.7 17.2 17.6 18.2 18.7 18.9 19 19.1 19.5 19.6 20.3 21.1 21.9 22.6 23.3 24.1 24.7 25.5 26.6 28.1 28.6 27.9 29.1 30.3 30.7 30.9 31.8 33 33.7 33.6 34.7 35.5 35.9 36.3 36 35.9 36 35.8 35.6 35.1 35 34.1 33.4 32 30.5 30.9 33.2 34.2 33 33.5 33.1 31 34.3 36.3 38.2 38.1 37.1 37.1 37 37.1 37 36.7 36.3 36.3 35.5 36.1 36.9 37.7 39 39.3 40.3 41.2 42.5 44.6 45.5 46.3 47.1 47.9 48.3 47.9 47.6 49 49.4 48.5 46.7 46.8 46.7 46.6 46.5 46.3 45.6 44.4 43 41.8 40.7 40.8 40.8 40.7 39.1 38.3 39.4 39.3 39 38.4 38.5 38.3 39.8 40.8 41.3 41.9 42 42.4 42.5 43.5 44.8 44.8 45 45.2 44.9 46.9 47.7 47.2 47.1 47.1 47.3 47.3 47.7 47.1 47 48.4 52.6 51.4 52.6 53 52.8 54.7 57 58.8 59.6 60.5 61.2 61 61 61.4 61.8 61.8 61.8 62 61.9 61.7
7.4 7.7 8 6.9 7 7.2 7.5 7.6 7.8 7.9 8 8.1 8.2 8.5 9.1 9.9 -1.2 -1.2 10.9 10.6 10.1 9.5 9.2 8.9 8.9 11.3 11.6 9.2 9.2 9.1 12.5 9.1 9.8 10.4 10.4 10.3 9.9 11.7 11.6 11.7 11.7 11.6 11.6 11.6 12.3 12.7 14.1 14.9 14.7 15.9 16.5 17 17.5 18.2 18.7 19.3 19.6 19.7 19.8 20.5 21.4 22.3 23.2 23.8 24.4 25.1 26.7 27.4 28.3 29.8 30.3 29.2 29.9 31.4 32 32.1 33 34.1 35.2 35.5 35.8 36.5 37.1 37.9 37.7 37.3 37.2 37 36.8 36.7 35.8 34.5 34.1 33.3 31.8 32.7 33.9 34.3 33.5 34.8 35 34.1 29.5 33.9 35.9 36.9 38.8 38.5 38.6 38.5 38 37.6 37.3 37.1 37.2 36.6 37.2 37.6 38.4 39.3 40.2 41.5 42.9 44.8 46 47.1 47.4 48.2 48.8 48.6 48.2 48.5 48.8 48.3 47.5 46.8 46.9 47 47.3 45.8 45 44.1 42.4 41.6 41.5 41.3 40.8 40.4 40.4 40.8 40.1 39 38.6 38.5 38.7 38.7 39.6 40.3 40 41.7 42.1 42.6 42.5 43.2 44.6 44.7 45.2 45.3 44.9 46.8 47.5 48 48.2 47.4 47.6 48 47.6 47.1 47.1 50.8 52.4 53.6 54 54 54.2 53.3 55.9 58.5 60.4 61.5 62 61.9 61.6 62.4 62.5 62.4 62.3 62.7 63 62.9
7.4 7.6 7.5 6.8 7.1 7.3 7.6 7.8 7.9 8 8.1 8.3 8.6 7.8 9.6 10.2 -1.2 -1.2 10.8 10.6 11 9.7 9.3 9.5 9.5 11.1 12.2 9.3 9.3 11.8 10.2 9.6 8.9 9.3 9.1 10.3 11.5 11.7 11.5 11.4 11.3 11.4 11.5 10.8 11.6 12.7 13.3 13.7 14 15.5 16.3 16.9 17.6 18.2 18.7 19.3 19.8 20.2 20.3 21.6 22.5 23.4 24.4 25 25.6 26.3 27.4 28.9 30.1 30.6 29 32.1 32.5 33 33.2 33.3 34.1 35.2 35.9 36.4 36.9 37.6 38.6 40 39.6 39.2 38.8 38.7 38.6 38.2 37.1 35.8 34.4 32.8 32.2 32.5 34.3 34.2 34.1 34.7 35.7 34.2 31.8 29.5 33.8 35.7 37.6 39.5 40 39.5 38.8 38.5 38.4 38.4 38.6 38.4 35.8 37.5 38.3 39.2 40.7 42.2 43.2 45 46.2 47.4 48.6 48.6 49.4 49.5 49.1 48.6 48.4 48.3 48 47.5 47.7 47.9 46.8 45.3 44.5 44 42.4 41.8 41.8 41.6 41.3 40.9 40.6 41 40 39.3 39.8 38.8 38.9 38.6 39 39.6 39.5 41.5 41.8 42.5 42.6 43.1 44.4 44.9 45.4 45.4 44.7 47.3 47.7 48.3 49 49.1 50.3 48.4 47.4 47.3 47.7 53.2 54.2 54.7 54.9 54.8 54.8 55.1 57.1 57.6 60.8 61.6 62.6 63 62.8 63.2 63 62.9 62.9 63.3 63.7 64.1
7.4 7.7 7.3 7 7.2 7.5 7.7 7.9 8 8.2 8.3 8.7 9.2 8.5 -1.2 -1.2 -1.2 -1.2 9.4 10.2 10.4 8.9 8.9 9.6 10.8 11.9 12.5 9.3 9.2 10.6 9.6 9.4 9.2 9.5 9.2 9.9 10.3 10.4 10.4 10.6 11.2 11 11 10.9 11.3 10.9 12.1 12.5 13 14.7 15.6 16.9 17.6 18.2 18.7 19.3 19.8 20.4 20.9 23.4 23.9 24.4 25.1 26.3 26.9 27.5 28.6 29.8 31.2 31.6 33.2 33.9 34.3 34.7 35 35 35.7 36.1 37.3 38.5 38.1 39.1 40.9 42 41.6 41.2 40.8 40.5 40.4 38.4 37.2 36 34.7 33.7 32.8 33.2 33.6 34.1 35.3 36 36.9 35.6 34.9 33.8 31.7 33.6 36.6 38.7 41.1 41.2 40.2 39.8 39.7 39.7 39.8 38.4 37.9 38.1 38.3 39.5 40.9 42.8 43.8 45.2 46.4 47.6 48.8 50.2 49.8 50 50.2 49.6 48.7 48.5 48.2 48.3 48.5 47.9 46.4 44.9 44 43.7 42.3 43.1 42.6 42.2 41.5 41.1 40.7 40.8 39.7 39.3 39.4 39.5 39.4 39.2 38.5 39.4 40.2 40.3 41.4 42.4 42.8 43.1 44.4 45.1 44.7 44.8 44.4 47.8 48.4 48.9 49.4 54.5 53.9 51.5 53.1 48.9 53.8 53.8 55 55.6 55.7 55.8 55.9 56.9 58.3 60.1 60.7 62.1 63 64.2 63.9 63.9 63.6 63.4 63.6 64 64.4 64.7
7.5 7.7 7.1 7.2 7.4 7.6 7.8 8.1 8.2 8.4 8.8 9.3 9.7 -1.2 -1.2 -1.2 -1.2 9.7 9.1 9.2 9.7 8.9 9.1 9.9 11.3 12.4 13.2 9.5 11.4 10 10 9.8 9.3 9.4 10.4 11.8 10.4 10.5 10.6 10.7 10.7 10.8 10.8 11.2 10.9 11.6 12.2 13 13.6 14.6 15.1 16.3 17.6 18.2 18.7 19.4 20.2 20.9 21.7 24 24.5 25.1 25.8 27 28.1 28.7 29.8 30.9 31.7 30.2 34.6 35.9 36.1 36.5 36.7 36.4 36.9 37.7 38.7 39.9 41.1 41.8 42.3 43.9 43.4 43 42.6 42.3 40.8 38.9 37.7 36.9 36.2 35 34 33.8 34.2 35.3 36.6 37.8 37.4 36.7 36.6 35.6 34.6 31.3 35 37.8 41.2 42.4 42.6 41.5 41.1 41 41 39.9 40.1 39.8 40.2 40.4 40.4 41.8 43.4 45.4 46.7 47.8 48.7 50.3 50.6 50.9 50.5 50.5 49.6 48.7 49 49.3 49 48 46.3 44.7 44.2 43.4 44.8 43.3 43.4 42.8 42.1 41.4 40.9 40.5 40.6 39.9 39.5 39.7 39.9 39.7 38.6 39.2 39.9 38.9 42 42.5 42.8 43.1 43.4 43.8 44.4 44.9 45.5 47.8 48.6 49.1 49.6 53.2 53.3 54.1 52.2 53.8 54.4 53.3 55.4 55.9 56.2 56.5 57 58.4 59.9 61.4 62.8 64.3 65.2 64.2 64.5 64.5 64.3 64.2 64.5 64.9 65.3 65.8
7.5 7.7 7.3 7.4 7.6 7.8 8 8.2 8.5 9 9.4 9.9 -1.2 -1.2 -1.2 -1.2 -1.2 10.3 9.4 8.9 8.9 8.9 9.4 9.8 11.8 13 12.9 12.6 12.5 9.8 9.7 10.3 9.9 10 9.9 11.7 11.7 10.7 10.8 10.8 10.9 11 11.5 11.8 11.4 11.7 12.3 13.2 14 14.7 14.9 16.4 17.9 18.8 19.6 20.4 21.2 22 23.6 24.6 25.2 25.8 26.5 27.6 29 30 30.9 32.1 28.9 34.6 36.1 37.6 38.6 38.4 38.3 38.7 39 40 40.8 41.5 42.6 43.8 44.7 45.4 45.6 44.8 44.5 43.7 41.7 39.8 39 38.7 38 36.6 35.2 35 35.1 36.4 37.8 39.1 38.5 38.5 38.4 37.4 36.1 33.9 33.1 38 41.6 43 44.3 44 42.7 42.4 41.9 41.6 41.2 41.1 40.9 40.3 40.3 41.4 42.4 44.7 47 48.1 49.2 50.3 50.8 51.3 51.1 51 50.7 50.5 50.3 49.6 48.5 47.9 46.1 45.2 44.2 43.7 43.4 43.5 43.6 43.2 42.6 41.9 41.3 41.9 41.2 40.6 40.3 40.2 40.2 38.7 39.6 40 41.1 38.8 43.1 43.5 43.4 42.9 43.2 44 44.6 45.1 45.6 45.8 48.2 49.2 50 53.7 53.8 53.4 54.2 54.3 55 55.1 55.9 56.4 57.8 57.8 58.9 60.3 61.5 62.6 64.4 65.5 66.6 66.9 66 65.3 65.3 65.2 65.5 66 66.4 66
7.5 7.7 7.5 7.7 7.8 8 8.2 8.1 9.2 9.7 -1.2 -1.2 -1.2 -1.2 9.8 10.1 11.6 11.2 9.8 9.6 8.9 8.8 9.5 10 11.1 12.9 13.3 13.7 12 10.3 9.9 9.9 10.4 9.9 11.3 11.3 11.4 11.7 10.9 11 11.1 11.2 12.1 11.5 11.1 11.8 12.4 13.3 14.1 15 16.3 17.2 18.9 19.1 20 20.9 21.8 22.6 24.3 25.2 25.8 26.4 27.2 28.2 29.7 31.1 32.1 29.6 34.4 36.3 37.7 39.2 39.3 39.9 40.6 40.8 41.4 42.7 43.9 44.8 44.5 45.6 46.5 47.3 48.2 47.7 46.9 44.5 42.6 41.7 41.6 41 40.2 39 38 38 37 37.5 38.9 40.2 40.7 40.7 40.1 39.2 38.2 36.4 33.4 36.9 41.2 44.3 45.7 46 45.5 44.2 43.2 42.7 42.7 42.2 40.9 41.3 41.4 42.1 42.6 44.4 46.2 47.4 48.6 49.8 51.3 51.7 51.6 51.6 51.2 50.8 49.4 49 48.1 47.8 46.3 44.3 44.4 43.7 43.7 43.7 43.8 43.7 43 42.9 42.3 41.3 41.8 41.5 41.2 41 40.5 39.3 39.7 39.7 41.5 38.7 42.4 42.3 42.5 42.8 43.7 44.2 44.8 45.3 45.7 47 47.9 48.8 49.8 51.9 54 53.7 55 55.2 55.5 54.9 56.8 57.5 58.9 58.9 59.1 60 61.6 63.4 65.2 67 68.2 68.1 67.3 66.7 66.3 66.3 66.6 67 67 67.1
7.6 7.7 7.7 7.9 8.2 8.6 9.1 6.7 10.4 -1.2 -1.2 -1.2 -1.2 -1.2 10.2 12.5 12.6 12.5 11.1 10.5 11.3 11.6 10.2 9.9 11.9 13.3 13.9 14.2 11.8 10.9 10 9.5 10.5 11.2 11.5 11.4 11.4 11.4 11.4 11.2 11.3 11.8 11.6 11.1 11.2 11.9 12.5 13.4 13.9 15.6 17.2 18.3 19.3 19.4 20.3 21.2 22.2 23.3 24.2 25.5 26.5 27.1 28 28.9 30.3 31.7 32.6 33.9 35.3 36.8 39 40.2 41.5 42.5 43.1 43.2 43.6 44.8 46.3 47.2 46.8 47.5 48.4 49.5 50.5 50.4 48.3 45.6 44.5 44.3 44.3 44.3 43.6 41.8 41 40.8 39.3 38.6 40 41.9 42.1 41.6 41 40.7 40.4 38.2 35.6 35.2 39.1 43.6 46.5 47.4 47.5 47.3 46.7 44.8 44.5 43.8 43.3 43.2 42 42 42.5 44.3 46.4 47.6 48.9 49.9 51.2 52.2 52.3 52.2 51.8 51.2 49.8 48.4 47.7 47.4 47 45.1 44.9 44.3 44.1 44 44 44.1 43 42.5 42.2 41.5 41.9 41.9 41.9 41.9 41.3 40.9 39.6 39.9 41.1 40.4 42.2 42.4 42.7 43 44.2 45 44.9 45.3 46 46.5 47.8 48 49.6 49.1 53.1 53.8 54.5 54.9 56 55.7 57.5 59 59.9 60 60.3 61.3 62.5 64.3 66.1 67.9 69.7 69.4 68.9 68.4 67.8 67.3 67.6 67.9 68.2 68.4
7.6 7.7 8.1 8.5 9 9.5 10 -1.2 -1.2 -1.2 -1.2 -1.2 9.2 10.4 14.2 13.7 13.6 13.5 13.2 14.9 13.7 11.7 10.8 10.6 12.8 13.5 14.2 14.2 11.1 11.1 10 10.3 9.9 11.4 11.7 11.6 11.6 11.6 11.5 11.5 11.5 11.6 12.3 11.7 11.2 11.9 12.6 13 14.6 16.2 17.6 19.7 20.9 21.5 21.8 22.7 23.4 24.1 25 25.9 26.8 27.7 28.7 29.6 31 31.7 31.5 35.3 36.5 37.6 39.6 41.3 43.3 44.8 45.6 48.3 46.1 47.3 48.6 49.8 50.7 51.2 51.9 52 52.7 51.8 50.4 48.3 47.7 47.8 47.6 47.2 46.6 44.6 44 43.2 41.7 40.2 41 43.3 43.6 43.8 42.7 42.6 41.5 40.1 37.9 33.9 39.4 42.6 46.1 48.3 48.6 49 49.3 48.2 46.7 45.5 45 43.7 43.2 41.9 42.8 44.7 47 48.8 49.8 50.8 52 52.8 53.1 52.7 52.3 51.5 50.2 49 47.7 47.3 45.8 45.7 45.5 44.8 44.5 44.4 44.3 44.3 43.1 42.5 42 42.1 41.7 41.7 41.8 42 41.2 41.1 40.6 41.3 41.7 41.8 42.4 43.1 43.1 43.2 44.2 45.7 45.6 46 46.7 46.8 47.3 47.8 48.4 50.7 51.8 53.2 54.4 55.6 56.7 57.2 59.1 60 60.9 61.1 62.2 63.3 64.3 65.5 67.2 69.1 70.6 70.9 70.3 69.8 69.2 68.2 68 68.1 68.9 69.6
7.7 8.3 8.9 9.4 9.9 -1.2 -1.2 -1.2 -1.2 -1.2 9.4 9.8 10.7 15.4 15.9 15.1 13.7 13.7 14.1 13 12.8 12.5 11.7 11 13 13.8 14.6 11.5 11.3 10.4 10.4 10.4 11.3 11.6 11.9 11.8 11.8 11.8 11.7 11.7 11 10.3 11.7 11.9 11.5 12.2 11.9 13.3 14.6 16 17.4 20.6 21.2 21.3 22.5 23.5 24.1 24.9 25.8 26.7 27.6 28.4 29.8 30.8 29.4 29.6 34.5 36.1 37.7 39.3 40.8 42.9 44.9 46.9 52.3 54 52.5 54.1 55.3 56.4 56.3 55.2 54.9 55.7 55.5 53.4 52.2 51.7 51.2 50.8 51.3 50.6 48.9 47.3 46.8 45.4 43.9 42.4 43.6 44.4 45 45.1 44.6 43.1 41.4 40.2 37.2 34.9 39.1 41.3 44.1 46.8 48.3 50.1 50.4 49.9 49.5 46.8 43.9 43.7 43.8 42.7 43.7 43.9 46.1 49.4 50.7 51.6 52.8 53.3 53.8 53 52.5 51.8 50.9 49.6 47.3 46 46.7 46.8 46.2 45.4 44.9 44.8 44.7 44.7 44 43 42.8 42.7 41.5 41.7 41.9 42.1 41.7 40.6 40.1 40.9 41.7 41.9 42.5 43.4 44 43.7 45 46.3 46.2 46.1 47.4 47.4 47.6 48.1 48.9 50.2 51.7 53.1 53.9 56 57 58.3 59.1 60.6 62 62.9 63.8 64.7 65.8 67.3 68.8 70.2 71.4 72.2 71.7 71.2 70 69.1 68.9 68.7 68.6 69.3
7.8 8.7 9.5 10.1 -1.2 -1.2 -1.2 -1.2 -1.2 9.6 9.3 9.5 16.5 17.5 17.1 16.6 15.1 13.3 12.9 12.5 12.4 12.2 11.3 11.2 13.3 14.1 15.5 14.4 10.1 10.6 11 9.9 11.8 12.1 12 12 12 12 11.9 11.6 10.5 10.5 11 11.4 12.3 13.1 13.3 14.3 14.8 15.6 18.4 20.4 20.5 21.8 22.9 24 24.9 25.7 26.6 27.5 28.5 29 30.4 30 29 33 34.3 35.7 37.5 39.2 42.3 44.6 46.6 49 54 56 55.8 59.3 62 62.2 61.4 61.2 60.7 59.4 58.4 56.1 54.9 54.6 54.2 54.6 54.9 53.9 52.3 50.4 49.3 47.4 45.2 43.7 44.4 45.7 46.8 46.2 45.6 44.4 43.2 39.6 37.3 35.5 37.3 39 42 43.5 46.4 49.4 49.7 50.8 50.7 49.4 45 45.2 45.1 44.7 44.3 43.6 45.5 49.1 51.2 52.5 53.4 53.9 54.4 53.4 52.6 51.9 50.8 47.4 46.4 47.8 47.8 47.6 46.8 46.1 45.3 45.3 44.9 45.2 44.2 44 43.3 42.5 42 41.9 42.1 42.2 42.3 42 40.3 41.2 42.4 42.1 42.9 42.7 43.7 44.1 45.5 46.1 46.2 46.7 48 48 48 48.4 49.6 51 52.1 52.9 54.2 56 57.2 59.1 60.2 61.3 62.5 64 65 65.8 66.5 67.9 69.1 71.1 72.4 73.4 73.1 72 70.7 70 69.8 69.8 70 70.1
8 9.1 10.1 -1.2 -1.2 -1.2 -1.2 9.6 9.5 9.1 10 15.7 18.7 18.7 17.5 15.7 14 13.3 12.6 12.2 12.1 11.9 11.7 12 13.7 13.9 15.9 15.8 11.5 11.8 9.9 12 12.5 12.2 11.9 11.9 12.1 12.2 11.8 11.3 10.1 10.7 11.2 12.4 13.5 12.9 13.6 14.3 15.7 16.4 18.2 19.7 20.9 22.2 23.3 24.4 25.4 26.5 27.4 28.4 29.3 29.6 30.4 29.2 33.4 33.9 34.4 36 37.9 40 42.2 45.7 48.5 51.6 54.4 57.5 62.2 65.8 67.7 68.2 67.7 67.3 65.7 64 62.2 60.2 60.1 59.7 58.9 58.5 59 57.5 55.6 53.5 52.1 50.6 47.8 46.1 45.9 47.4 48.1 47.4 46.4 45.1 43.3 39.9 36.7 35.8 35.2 36.9 39.1 40.7 43.2 46.6 49.1 51.3 51.7 50.9 49.6 47.1 46.2 45.8 45 44 45.6 47.9 50.8 52.8 54 54.6 55 54 53 51.2 47.3 46.7 48.3 48.3 48.3 47.9 47.2 46.5 45.8 45.4 45.4 45.7 45.5 44.4 43.8 43.3 42.8 42.3 42.4 42.5 41.9 41.3 42.1 42.6 42.7 42.4 44.7 43.5 44 44.6 45.5 45.8 46.1 47.2 48.7 48.7 48.7 48.8 50.4 51.8 53.2 53.5 54.5 56.2 57.8 59.9 61.4 61.7 63 64.5 66 66.9 67.5 67.9 69.9 72 74.1 74.7 74.1 72.8 71.4 70.9 71 71.1 71.3 71.4
8.1 9.4 -1.2 -1.2 -1.2 -1.2 9.3 9 8.3 11.9 18 19.4 20.4 18.7 17 15.2 14.3 13.5 12.6 11.9 12.4 11.6 11 11.4 12.5 14.1 16.8 20.1 11.8 9.9 11.7 11.6 11.9 11.8 11.7 11.5 12.1 12.4 11.9 11.2 10.4 11.5 11.5 12.5 13.5 14.5 14 14.5 15.9 17.6 19.2 20.2 21.4 22.6 23.6 24.5 24.5 25.9 27.7 29.2 29.9 29.8 29.3 33.8 34.1 35 36.2 37.1 38 40 44 47.9 51.4 55.1 60 63.4 66.7 70.9 74.9 75.9 74.7 72.6 70.3 67.9 66.9 65.7 66.9 66.8 64.5 64.6 63.7 62.4 59.2 56.7 54.5 52.7 49.3 48.1 47.6 49.1 49.6 48 46.8 45.6 42 39.3 37.1 36.5 35.9 36 37.2 39 40.6 44.8 47.7 49.9 52.1 52.5 51.7 49.6 47.9 46.7 45.7 44.5 44.8 46.8 49.2 52.6 54.3 55.4 55.1 53.8 53.1 47.6 47.3 49.2 49.1 49 48.7 47.9 47.2 47 46.8 46.2 46.2 46.1 45.8 45.4 45 44.4 43.8 43.2 42.7 43.2 42 42 42 42.5 43.5 43.2 42.2 44.1 46.1 45.8 45.4 45.8 46.7 47.5 47.3 49.3 49.2 49.7 51.2 52.7 53.9 53.2 54.8 56.7 58.4 60.5 62.7 63.5 64.9 66.1 67.3 68.2 68.9 70.2 72.4 74.2 75.7 76.3 75.4 73.8 72.1 72 72.3 72.1 72.6 72.7
8.2 -1.2 -1.2 -1.2 -1.2 9.5 9.8 9 14.9 20.3 20.8 20.1 19.3 18.8 16.9 15.4 15.2 14.6 13.9 13.1 12 11.2 10.3 10.6 12.6 11.5 10.8 10.1 9.9 9.9 12 11.9 12.4 11.7 11.9 12.2 12.6 12.6 12.6 12 11.8 11.8 11.3 12.4 13.1 13.8 14.6 15.4 15.9 17.9 19.8 20.8 21.8 22.7 23.6 24.5 25.6 27.8 28.7 30.5 32.5 30.3 32.9 35.3 36 37 37.6 38.7 39.9 42.8 47.6 52.8 56.8 60.7 66.5 70.9 73.1 78.1 85.3 88.6 84.5 81.8 79 75.5 73.7 71.5 74.6 75.6 71.8 70 69 67.2 64 60.8 57.4 54.1 53.1 51.2 49.3 50.1 50.3 48.5 47.2 44.9 41.2 39.7 38.1 37.5 37 36.2 36.8 38.1 40.8 45.4 45.6 49.4 51.5 53.1 52.7 51.9 50.1 48.5 46.9 45.7 44.8 46.2 48 52.2 54.5 55.7 55.2 52.6 48.2 48.9 49.5 49.6 49.6 49.7 49.4 48.1 48.2 48.2 47.7 47.7 47.7 47.7 47.2 46.8 46.1 45.5 45.1 44.7 43.9 44.2 43.8 43.8 43.7 43.2 43.3 44.2 43.9 45.2 45.8 46.9 46 46.7 47.7 48.6 48.3 49.4 50.3 50.5 52 53.5 55.1 54.9 55.7 57.5 59.3 61.9 64.3 66.2 67.7 68.8 69 69.5 70.3 71 72.9 75.4 76.9 76.7 75.4 74.3 72.9 73.2 73.6 73.4 73.4 74
8.8 -1.2 -1.2 -1.2 9.4 8.9 9.2 15.5 21.6 21.3 21.2 20.3 19.3 18.1 17 15.7 15.3 15.2 14.6 13.8 10.6 9.9 9.9 9.9 12.7 13.2 15.2 15.5 9.9 12 12.1 12 11.7 12.3 12.6 12.6 12.5 12.7 13.3 12.8 12.6 12.6 13 12.9 13.6 14.3 15.1 16.2 16.8 17.3 18.9 19.9 21.4 22.5 23.6 25.1 27.2 29.7 30.4 33.3 34.2 34.3 36.7 36.3 37 38.3 40 40.7 42.4 48.2 52.7 57 61.5 66.9 70.4 77.4 79.7 88.9 98.6 101.6 97.4 95.6 89.6 84.6 83.7 81.4 90 88.6 79.9 76.7 74 72.3 69 63.8 60.6 55.9 53.7 51.5 50.1 51.5 50.1 48.1 45.7 44 40.8 40.1 39 38.6 38.1 37.4 37.2 38.5 40 42.7 43.2 46.3 50.4 53.5 53.8 53.1 52.4 50.4 48.8 47.6 45.9 46.2 47.7 50.9 54.5 56 52.4 49 50.3 50.4 49.9 50 50 50.1 49.5 49.1 49.4 49.4 49 49.1 49.2 49.3 49.4 49.4 48.7 47.3 46.9 46.5 45.3 44.8 45.1 44.8 44.4 43.9 44.9 44.5 44.4 46 46.5 46.8 47.6 48.6 48.8 49.8 49.5 50.7 50.7 51.7 54.4 54.8 56.4 58 58.3 59.3 62.3 65.4 67.4 69.8 71.1 72 72.2 72.4 72.8 72.7 72.9 75.2 76.9 76.7 75.1 74.4 74.1 74.3 74.9 74.6 74.2 74.8
-1.2 -1.2 -1.2 9.7 9.2 10.6 16 21.7 21.7 21.7 21 20.4 19.4 17.4 17.1 15.6 15.1 14.7 14.6 10.5 12.5 13.6 13 11.1 9.9 13.6 15 14.5 11.4 12.3 11.7 11.6 12.4 11.9 11.7 12 12.7 13 13.5 13.6 13.5 13.5 13.7 13.9 14.1 14.8 15.6 16.5 17.3 17.3 17.9 19.2 20.9 22.7 24.5 26.4 26.7 28.5 31.1 32.1 29.1 35.1 36.8 37.7 38.4 39.9 41.7 43.4 46.9 51.1 55.1 61.9 68.4 70.5 76 84.6 86 96.7 108 113.7 110.5 109.5 101.6 95.2 94.3 96.1 103 99.4 89.7 84.6 80.9 77 73.4 69.2 62.7 59.3 56.3 54.9 53.2 51.1 49.9 47.7 45.3 42.9 41.5 41.5 40.2 39.6 39.1 37.9 37.6 39 40 40.7 42.2 44.7 47.8 51.7 53.8 55 54.2 52.6 52.2 50.2 48.1 46.4 47 49.6 52.9 52.1 49.4 51.5 52.8 50.8 50.3 50.3 50.4 50.4 49.8 50.2 50.6 50.4 50.5 50.6 51 51.9 53.7 51.4 50.6 49.1 48.8 47.8 46.5 45.5 45.1 44.9 44.7 44.6 45.7 44.5 46.5 46.8 47.9 48.9 49.6 50.2 50.3 50.5 51 51.3 52.2 53.1 54.8 56.6 58.2 60 60.6 63 66.3 69.7 73.2 75.9 77.2 77.3 77.1 76.5 76.1 75.7 74.8 76.6 76.5 76.5 75.5 75.7 75.8 75.1 75.4 75.8 75.4 75.3
-1.2 -1.2 -1.2 9.6 9.2 13.6 21.1 21.8 20.9 20.5 20 19.4 18.9 17.6 16.8 15.6 15.3 14.6 13.2 11.9 14.4 14.4 13.8 12.8 12.4 11.2 13.9 13.6 12.9 12.3 12.1 11.9 11.6 11.7 12 12.2 13 13.4 13.4 13.6 14.1 14.2 14.4 14.6 14.7 15.3 16.1 16.9 17.4 17.6 17.9 18.2 19.1 20.2 22.1 25.2 26.2 27.9 28.8 29.3 32.8 36.5 38.2 39.2 40.1 41.7 43.4 44.7 50.2 54.4 63.8 66.8 77.3 78.1 84.9 92.9 95.1 99.5 113.7 123.7 122 120 110.1 104.9 104.4 108.8 111.6 106.9 99.7 95.4 90.9 85.9 77.4 71.7 68 63.4 59.1 56.8 54.7 52.2 49.6 47.3 45.3 43.8 42.7 42.6 41.9 40.2 39.1 38 38 39 40 41 42 43.6 46.8 51.4 54.1 55.5 55.8 55.3 53.1 51.2 49.9 47.9 45.9 49.6 51.7 50.3 51.2 51.9 52.7 52.2 51 50.9 50.9 50.8 50.9 51.3 51.7 52.1 52.5 52.9 53.9 55 55.2 54.6 53.7 52.3 51.2 49.3 47.8 46.4 45.9 45.7 45.6 45.7 45.5 46.2 46.9 48.6 49.4 49.7 51.1 51.9 52 52.2 52.3 53 54 55.1 57 59.5 60.3 61.9 62.9 66.5 71.8 77.7 79.9 84.5 85.4 85 83.2 81.1 79.8 78.9 77.8 77.4 77.8 78.1 77.1 77.2 77.3 75.7 76 76.2 76.6 76.5
-1.2 -1.2 -1.2 9.6 11 17.1 19.9 20.7 20 20.6 19.8 19.2 18.4 17.2 16.1 15.6 15.6 13.8 10.3 13.9 13.8 14.9 14.3 13.4 11.4 11.8 13.2 13.6 12.7 11.8 11.8 11.9 11.7 11.9 12.2 12.4 13 13.3 13.2 14.2 14.5 14.4 14.8 15.1 15.4 15.8 16.3 17 17.7 17.4 17.7 18 18.5 19.4 21.2 24 24.7 25.1 25.7 29.3 34.9 37.7 39.6 41.1 42.7 44 45.4 47.6 55.2 58.4 63.6 72.5 81 85.3 95 100.7 101.7 105.4 116.3 125.3 127.1 127.3 117.4 115 112.9 119.8 124.7 117.1 110.7 109 103.9 94.5 84.8 75.7 70.2 65.6 61.5 58.8 56 53.3 50.5 48.1 46.2 44.7 43.6 43.6 43 41 39.9 38.8 38.1 39.1 40.5 41 41.7 43.3 45.7 50.2 53.5 55.6 56.5 56.7 55.4 52.8 50.9 48.9 47.8 48.9 50.7 51.3 51.4 51.7 52 52.3 52 51.6 51.5 51.5 52.5 52.9 53.4 54.3 54.9 56.1 57.4 58.6 59 58 56.7 55.5 53.8 51.6 50.2 48.7 47.1 46.7 46.8 46.8 47.4 47.4 48.9 50.5 50.3 51.7 52.7 53.6 53.8 53.9 54.4 55.4 56.1 57.8 59.8 62.3 63.4 64.2 66.1 70 76.9 84.6 88.1 92.7 96.9 93.8 91.1 87.2 83.9 81.6 79.8 79.8 79.4 79.8 78.7 79.2 78.6 77.4 78.4 77.5 78 78.4
-1.2 -1.2 -1.2 9.6 14.1 16.5 18.6 19.5 19.4 18.6 18.4 18.1 17.4 16.5 15.9 15.6 15.1 9.9 16.6 13.8 13.8 15.4 14.8 14.1 12.1 12.1 11.1 13.4 12.6 11.5 11.7 11.9 11.8 12.1 12.5 12.7 13 13.2 13.3 14.1 14.5 14.5 14.9 15.5 15.7 15.9 16.5 17.4 18.1 18 17.6 17.8 18 18.7 20.8 22.3 22.6 22.9 25.3 27.4 32.1 37.5 39.4 42.3 45 46.8 48.1 50 58.5 61.8 66.9 76.7 85.9 95 107.8 112 110.2 113.9 119.9 131.4 133.7 133 125.6 122.8 124.4 126.6 126.7 125.2 121.5 122.1 113.8 104.3 90.8 77.8 72 67.3 63.9 60.5 57.6 54.4 51.5 49 47.2 45.6 44.9 44.1 43.6 41.9 40.8 39.5 38.2 39.4 41 41.6 42.5 43.7 46.4 49.1 51.8 55.2 56.9 57.8 56.9 55.5 53.3 51.5 51.5 51.4 49 49.5 50.3 51 52 52.2 52.3 52.3 52.3 52.7 53.9 54.5 55.1 56.3 58.4 59.8 61.1 62.3 62.6 61.8 60.9 58.9 56.7 54.4 53.1 51.8 50 48.8 48.6 48.7 49 49.8 51.1 52.5 53.6 54.5 54.7 55.4 55.7 56.2 56.7 58.4 58.8 59.2 62.6 65.1 66.5 67.9 69.5 73.7 79.4 87 94.2 109.4 110.6 103.1 94.4 91.1 88 83.8 82.6 82.2 82 82 82.2 81.5 80.9 80.1 79.1 79.1 79.3 80.1
-1.2 -1.2 -1.2 12 13.1 13.9 16.7 17.9 17.5 17.4 17.5 17.1 16.4 16 15.8 15.5 9.9 18.4 17.4 16.6 14.3 15.9 15.6 14.8 12.6 12.4 11.4 13 12.1 11.7 11.7 11.9 11.9 12.2 12.7 12.9 13 13.1 13.2 13.1 13.9 15.1 15.6 16 16.2 16.3 16.7 17.6 18.5 18.3 17.9 17.9 18.3 18.7 19.6 20.7 21.6 23.6 29.1 25 28.9 34 37.3 40.9 45.7 49.5 50.9 54.6 60.6 66.4 70.3 82.1 88 105.9 118.3 125.8 122.5 121.5 128.4 136.3 141.2 139.6 134.4 133 133.6 130 127.6 126.1 122.1 116.2 105.9 95.6 85.8 79.6 75.2 71.2 68 63.3 59.3 55.4 52.4 49.9 48.1 46.7 45.6 44.8 44.2 43 41.5 40.2 38.9 39.7 41.3 42 42.8 43.6 45.9 48.1 51.2 54.8 57.4 58.6 57.6 56.6 55.8 54.1 52.2 50.3 49.4 49.3 49.9 50.6 51.7 52.7 52.9 53.8 53.3 54.1 55.2 56.1 57.2 59.2 61.3 64.2 66.2 68.1 68.7 67.6 65.9 62.9 60.6 58.2 56.6 54.8 52.5 51.4 50.9 51.2 51.8 52.5 54.3 55.8 56.8 57.5 57.9 57.8 58.1 58.6 59.2 59.2 60.3 63.5 67.2 70 72.4 74.3 76.8 79.2 81.9 89.6 98 112.6 113.2 102.3 96.6 95.8 92.6 88.3 86.1 85.6 85.4 86.4 87.7 87.4 85.9 83.6 81.7 82.1 81.5 81.9
-1.2 -1.2 -1.2 12.2 13.6 14.1 14.2 16.4 16.4 16.5 16.6 16 15.6 15.6 15.3 9.9 18 18.3 17.5 16.8 16 16.1 15.9 15.1 14.2 12.6 13.3 13 12.9 12.9 13.3 12.9 13 13.1 13.2 13.4 13.7 13.9 13.6 15 14.6 15.7 16.1 16.5 16.7 16.7 17 17.9 18.8 18.7 18.6 18.7 18.9 19.2 20 20.7 22 23.9 26.1 24.8 28 31.3 34.6 38.9 45.1 49 53.1 56.1 62.9 70 75 82.5 90.4 112.1 130.1 133.2 134.7 131.5 139.7 148.3 149.1 147 143.8 141.6 139.4 135.4 130.4 124 116 109.5 98.5 90 86.4 83.4 81.8 74.9 73.2 65.4 60.9 57.1 53.5 50.8 50.2 48.5 48.2 46.1 44.5 43 41.8 40.4 39.2 39.6 41.2 41.8 42.5 43.3 44.8 47.5 51.1 55.4 57.4 58.9 58.5 57.8 56.7 52.9 53.2 51.9 50.8 50.2 50 50.6 51.3 51.3 53.4 54.4 54.5 55.4 56.6 57.9 59.9 61.8 64.8 68.3 71.4 73.4 74.8 74 71.5 68.3 65.1 62.1 59.8 57.4 55.1 54 53.6 54.2 54.9 56.3 58 60 60.9 61.6 62 62.1 61.3 61.3 61.6 62 64.6 68.4 71.7 74.8 78 81.8 82.5 85.4 86.7 92.9 98 104.7 106 101.1 100.1 102.6 98.7 93.1 91 90.2 90.3 93.5 96.2 96 92.5 90.3 87 83.2 82.3 82.5
10.2 -1.2 -1.2 10.8 12.3 13.8 13.6 15.5 15.5 15.6 15.6 15 15.2 15.2 9.9 15.2 17.7 18.2 17.8 17.1 16.3 16.2 15.8 14.8 13.5 12.1 12.9 12.9 13.1 13.1 14.8 15.4 13.3 13.6 12.3 13.3 14 13.8 14.4 15.1 15.8 16.2 16.6 17 17.3 17.6 17.9 18.4 19.1 19.3 19.5 19.5 19.6 19.9 20.3 21.4 25.1 27.5 26.9 25.3 27.4 31.4 33.5 38.5 43.5 48.3 53 59.8 66.1 73.2 80.2 87 97.4 112.9 128.4 136.6 139.1 141.5 148.6 155.5 157.2 154.7 152.5 149.7 146.1 139.8 133.1 123.7 116 109.8 103.1 100.3 100 95.7 88.6 78.6 72 66.2 62 58 55.1 52.6 52.1 50.5 48.7 46.8 45.3 43.4 41.9 40.6 39.9 40 41 41.5 42.3 43.7 45.4 48.4 50.9 54.8 57.7 59.3 60.4 59.1 53.6 54.5 54.4 53.3 52.5 51.8 51.1 50.8 51.6 52.4 53.1 54.4 55.7 56.6 57.9 59.8 62.4 65.4 69 72.5 76.4 79.9 82.3 81.4 78 73.7 70.4 67.5 64.5 61.4 58.3 57.2 56.6 57.3 58.7 60.4 62.1 64 66.3 66.7 66.6 66.5 65.9 64.3 64.3 65.7 70 74.2 77.4 80.9 82.9 86.5 90.1 90.6 95.6 98.7 102.6 106.5 105.9 104.4 105.8 107.8 103.1 97.8 99.5 100.2 97.6 103.5 106.6 105.6 100.1 95 92.2 87.8 84.5 85.8
10.2 -1.2 -1.2 10.8 11.7 12.9 13.5 14.8 14.7 14.7 14.5 14.7 14.9 11.1 12.2 16.1 16.8 17.2 17.7 17.3 16.6 16.2 16.1 15.4 14.7 13.6 11.5 12.8 13.1 14 16.6 16 15.6 13.4 13.7 13.4 14.1 13.7 14.3 14.8 15.5 16.4 16.9 17.4 18.4 18.8 19.1 19.5 20.9 21.4 20.8 20.5 20.4 20.6 21 22.1 24.3 28 24.7 25.3 27.5 30.9 34.3 38.5 44.1 48.6 54.5 62.3 70.2 77 85.9 92.6 100 114.5 128.9 139.7 143.6 149.6 155.8 162.2 161.8 161.3 159 155.3 152.2 143.5 135.1 127 123 116.4 110.5 110.9 108 101.9 93.8 82.4 74.1 66.5 62.7 59.1 55.5 53.9 53.5 52.2 49.8 47.7 45.9 44 42.2 40.7 40.6 41 41 41.3 42.6 44.2 45.1 47.7 49.9 53 57.1 59.3 60.8 54.2 56.3 57.3 56.5 55.8 54.7 53.5 52.5 52 52.8 52.9 53.5 54.1 55.6 56.9 59 60.7 64.5 68.4 72.8 78 83.1 87.2 89.3 90.1 87.1 80.8 75.7 72.2 69 65.6 62.1 61.1 60.8 61.4 62.1 64.3 66.6 69 70.7 70.9 71.1 71.1 70.3 67.7 67.9 69.7 74.2 80.1 84.3 87.2 90.4 92.5 96.3 98.7 100.8 105 110.7 112.6 114.3 112.1 111.3 113.4 108.3 104.5 106.1 104.4 102.9 112.5 116.6 115.3 108.8 101.7 98.2 91.9 88.3 87.7
-1.2 -1.2 -1.2 8.3 10.6 12.9 13.4 14.1 14.1 14 14.5 15 13.3 9.9 15.7 15.6 15.8 16.3 16.8 17.3 16.9 16.8 17.1 16.4 15.7 14.4 13.4 12.8 13 15.9 18.5 18.9 16.9 16.1 14.8 13.8 14.2 13.1 13.8 14.4 15.5 16 17.1 17.8 18.7 19.6 20.3 20.9 21.2 22.6 22.4 22.3 22 21.7 21.8 22.8 26.1 25.1 25 26.1 28.2 30.8 34.7 38.9 44.5 50 57 65.6 73.1 82.7 91.6 99.5 105.7 118.4 132 143.4 150.6 158.4 163.7 168.3 168.8 167.8 165.7 162.6 156.6 148.6 139.5 133.1 127.4 121 117.4 118.4 116.8 105.2 96.8 85.5 74.4 66.8 63.5 60.7 56.9 54.7 54 53 51.5 48.3 46.5 44.6 42.8 40.9 41 41.8 41.7 41.7 42.6 44 44.6 46.7 48.7 52.4 56.8 59.9 54.9 56.7 60.8 59.1 58.3 57.2 56 54.7 53.5 52.8 53.8 53.4 53.8 54.4 55.4 57.7 59 61.8 65 70.2 76.7 83.8 89.6 95 98.5 99.1 95.5 89.1 82.4 77 72.5 69 66 65.8 65.5 65.8 67.1 69.4 71.8 74.7 77.4 77.3 77.4 77 75 70.5 72.9 74.7 78.7 83.9 91.4 97.8 100.1 99.7 103.8 108.4 113.6 113.8 120.6 121 121.2 117.5 118.4 118.7 117.6 114.7 112.8 112.5 113.8 123.6 124.9 120.1 114.8 107 103 95.1 88.7 90.1
-1.2 -1.2 10.5 11.4 12.4 13 13.4 13.5 13.4 13.7 14 15.4 9.9 15.5 14.7 14.4 15.5 15.9 17.1 17.4 17.2 16.9 17.9 17.5 16.6 16.4 14 13.1 12.9 15.6 20.4 21.6 19.6 17.4 15.1 15.5 15 13.9 14.6 13.4 14.7 15.3 16.6 17.8 18.7 19.6 20.6 21.4 21.5 22.6 23.6 24 23.7 23.4 23 23.6 29.1 26.1 26.4 26.8 28.5 32.4 36.3 39.6 46.2 52.6 60.5 69 78.3 88.1 97.2 105.5 112.1 123.4 138.4 148.9 157.7 166.7 171.5 175.5 178.9 179.3 172.5 167.1 160.6 152.6 143.8 137.9 131.4 122.9 120.3 120.5 121.7 110.6 98.7 85.9 74.2 67.2 64.4 60.5 58.1 55.1 54.5 53.7 51.2 48.8 46.9 45.3 43.8 42.5 42.1 42.6 42.7 42.9 42.4 43.2 44.4 46.1 47.9 52.8 56.3 57 55.2 62.2 62.1 60.9 59.8 58.6 56.8 55.5 54.6 54.1 54.4 54.8 54.7 54.7 56.7 58.7 60.3 62.4 65.8 71.6 78 86.5 93.2 101.6 107.9 106.9 104 96.8 89.9 83.4 78.3 72.5 70 69.4 68.8 70.1 72 74.8 77.7 81.9 84.3 85.3 84.4 83.3 80.8 74.7 78.8 81.4 85.9 90.6 97.3 99.4 104 110.1 113.6 116.4 125.1 131.1 137.1 134.5 129.6 129.1 128.4 128.5 128.3 124.1 121.8 124.5 130.1 135.5 131.9 121 116.2 109.2 102.1 96 90.8 92.2
-1.2 -1.2 11.3 12.3 13.3 13.6 13.3 12.9 13.2 13.4 13.7 9.9 14.3 14.2 14.5 15.1 15.9 16.5 16.9 17.7 16.9 17.8 18 18 16.8 17 16.2 13.8 13.6 14 19 22.6 21.3 19 16.7 16.1 15.4 14.7 15.5 15.4 14.3 15.1 15.8 17.1 18 19.1 20.5 21.2 21.7 22.8 24.1 24.7 24.9 24.6 24.7 25.8 27.8 28.2 28.3 28.9 30.6 33.2 37.9 41.5 49 55.6 64 71.6 80.7 92.2 104.2 109.4 117.1 127 139.3 149.8 161.4 172.2 178.6 182.3 189.4 190 183.7 171.4 164.3 155.8 146.5 140.6 132.7 124.2 118.7 113.1 110.2 102.5 92.8 83.8 75.9 68.2 64.9 61.9 59 57.1 55.2 54.6 50.9 49.2 47.5 45.2 43.7 42.1 41.8 42.9 43.7 43.7 42.1 42.8 44.1 45.5 47.2 50.3 57 55.7 59.3 62.7 62.8 62.7 61.4 59.5 57.9 56.6 55.8 55.2 55.2 55.6 55.3 54.9 56.7 58.8 60.8 62.9 66.2 71.6 75.6 84.5 91.5 100.2 109 111.6 110.4 105.2 97.6 88.9 82.4 75.8 73.8 72.7 73.1 74.4 76.9 80.2 84.2 87.9 90.6 91.3 90.8 88.5 84.5 77.7 85.2 87.8 92.5 101.2 107.5 112.3 116.7 122 130.3 131.4 141.3 148.5 151.4 144.6 138.8 142.5 139.7 139.1 140.7 135.2 132.6 137 140.9 143 138.2 127.9 119.4 112.7 105 97.1 93.5 93.9
-1.2 8.8 12.1 13.2 13.4 13.3 13 12.6 12.9 14.1 9.9 14.4 13.9 13.8 14.1 14.8 15.5 16 16.4 17 17 17.6 18.1 18.5 17 16.8 17.1 18.8 15.4 15 18.8 22.7 22.7 20.5 18.3 17 15.9 15.7 15.9 15.4 15.1 15.3 15.4 16.3 17.6 19.1 20.5 21.1 21.7 23 24.1 25.2 26.1 25.8 26.7 28.2 29.3 30.3 29.9 30.5 31.5 34.6 39.3 43.2 49.6 54.5 63.4 71.4 81.4 94 107.8 116.4 125.7 134.1 144.2 154.3 164.4 175.2 183.1 190.8 193.4 189.6 187.9 173.2 166.7 156.6 147.7 140.9 131.7 122.8 112.4 103.2 96 88.9 86.1 80.6 75.6 69.3 66.3 63.2 60.4 58.3 54.9 52.8 50.8 48.6 47.4 46.2 43.8 42.5 42.2 42.7 44 44.6 44 43.5 44.7 46.3 47.2 49.3 56.7 55.3 58.6 61.9 63.3 63.4 62.8 61.1 59.9 58.5 57 56.3 56 56.4 56 56 55.6 58.1 60.1 61.5 63.9 68.2 73 78.9 84.3 91.5 99.5 107.4 116.7 116 105.9 94.2 84.9 79.9 78 76.2 77.4 78.7 82.2 85.9 89.6 90.9 93.3 94.8 94.9 93.5 87.8 85.5 91.9 95.9 102.5 111.2 118.8 126.2 134.7 138.6 143.8 143 149.6 160.2 161.9 153.3 146 150 149.4 148.6 151.1 145.8 145.6 148.5 151.4 149.7 143.9 136.7 125.4 116.4 109.2 100.6 96.9 96
-1.2 9 11.8 13.5 13.1 13 12.8 12.7 14.4 9.9 13.5 14 13.6 13.7 13.9 14.4 15 15.4 16.1 16.7 17 17.6 18.3 18.5 17.2 17 15 15.9 15.6 14.8 17 20.9 23.8 22 19.8 18.3 17.2 16.3 16.5 16.4 16.1 15.8 15.3 15.9 17.6 19 20.4 20.9 22.3 23.6 24.7 25.6 26.7 27.5 28.5 29.3 30.2 30.3 30.9 32 33.2 36 39.5 42.9 47.5 53.3 59.7 69 79.7 94.5 109 123.5 133.6 139.8 150.3 158.2 167.9 179.6 185.2 185.9 178.5 173.1 172 169.6 165.2 157.1 148.1 140.5 132 122.7 112.3 106.4 101.7 94.7 86.9 80 73.4 69.6 65.7 63.1 61.1 58.4 56.2 52.6 50.8 49.5 48.7 45.8 43.9 42.8 43.4 43.5 43.9 45.2 44.7 44.4 45.6 46.5 48 53.2 57.1 53.5 57 60.9 64.1 64.3 64 63.2 61.7 60.3 58.9 57.5 56.9 57.1 56.9 57 55.5 57.3 59.7 61.1 62.5 65.8 68.6 72.2 78.5 84.2 90.5 97.1 103.8 111.3 105.8 95.6 86.9 84.1 82.6 80.9 82.6 84.6 87.5 90.6 94 94.3 96.8 99.3 99.5 97.6 90.9 91.9 98.9 104.3 110.3 117.1 126.4 136.2 139.7 145.1 151.2 154.5 159.2 168.5 171.1 163 158 161.2 159.2 159.1 162 158.8 158.6 159.9 159.9 154.2 147.1 139.4 129.6 120.6 114.3 105.5 100.4 98.2
