ncols 200
nrows 85
xllcorner 160000
yllcorner 734500
cellsize 50
163.1 156.1 151.7 144.1 142.7 141.2 135.5 128.2 118.4 112.6 101.1 87.7 72.8 61.2 54.7 46.8 42.4 39.9 37.3 33.7 30.8 29.4 29.2 30.2 31.7 32.2 33.8 35.9 41.2 49.3 50.9 52.1 56.1 60.5 67.5 73.4 82.3 89.1 92.7 98.8 106.1 112.3 121 132.3 139.7 151.8 161.6 174 185.7 197.9 213.6 232.6 252.6 274.7 310.2 333.8 351.6 368.8 394.6 437.5 453.6 471 501.1 505.5 520.5 540.5 546 534.2 525.3 523.8 535.1 539.5 541 542.4 542 532.6 526.4 519.3 512.3 505.3 504 504.3 505.6 507 504.3 503.1 503.1 511.2 523 533.9 526.4 524.7 526.5 522.4 515 510.5 507.3 500.2 492.2 484.3 469.3 438.4 420.4 405.4 390.6 376.2 364.1 352 343.5 345.5 342.6 340.7 342.5 343.4 339.2 336.5 331.4 330.1 328.5 327.2 326.8 327.4 328.4 324.6 319 314.6 303.1 290.9 272.1 255 245.5 237.2 227.9 212 202 192.5 175.3 170.4 183 182.2 187.4 189 189.4 185.7 184.4 183.6 181.7 179.3 175.1 177.7 182.4 182.5 181.4 187.8 197 192.5 195.9 195.6 193.6 188.8 183.9 177.8 171.6 158.6 150.7 139.3 128.9 123 112.5 103 101.9 84 71.4 61 46.4 48.3 55.8 63.1 64.8 56.6 44.9 42.5 40.6 35.3 23.8 10.2 6.6 -1.4 -1.4 -1.4 -1.4 -1.4 -1.4 -1.4 -1.4 -1.4 -1.4 -1.4 -1.4 -1.4
156.2 148.9 145 134.2 133.8 131.7 127 118.9 113.5 103 94.4 82.4 70.9 59.7 55.1 49.2 43.7 40.8 37.7 33 30 29 28.8 29.5 30.3 31.2 33.5 35.8 38.4 44.2 48.1 49.6 54.3 61.6 65.3 70.9 79.5 87.5 93.1 99.1 105.8 116.2 120.9 130.2 139.2 146.5 152.2 166.3 176.6 190.5 207.3 225.4 239.8 259.6 288.6 310.3 329.5 346.9 367.1 392.3 423.8 438.3 478.5 491.7 507.9 523.2 538.2 533.6 520.6 517.8 532.3 533 536.6 538 535.7 530.7 523.4 519.7 508.5 501 498.6 499.1 500.3 502.6 504.3 503.1 503.1 506.8 516.7 527.5 527.4 525 522.9 522.8 521.8 518 512.1 506.7 501 492.2 481 458.1 431.8 416.3 402.9 390.3 378.3 362.9 356.7 355.9 357.3 355.4 353.7 355.3 350.5 347.8 345.3 345 342.1 333.7 337.6 336.4 330.2 327.8 324.1 318.9 315.6 300.2 286.1 271.1 255 243 232.7 221.2 210.3 197.5 183 188.3 192.4 195 201.3 203.4 203.5 198.3 197.4 195.3 193.6 192.5 187.2 186.6 188.7 193.3 192.5 198.2 202.1 203.4 205 204.6 204.4 201.5 195.9 186.6 183.7 174 162.4 152.6 141.5 130.6 121.2 108.7 99.1 85.7 75.4 68.2 56.6 48.8 60 63.5 74.6 78 66.5 52.5 47.8 47.3 44.7 26.9 7.3 6.3 -1.4 -1.4 -1.4 -1.4 -1.4 -1.4 -1.4 -1.4 -1.4 -1.4 -1.4 -1.4
150.2 141.7 136 130.5 125.7 124.2 120.7 113.1 107.1 96.4 87.4 77 68.7 59.8 54.8 48.6 44.2 40.7 38.8 34.3 32.4 30.9 30.1 30 30.3 29.8 31.6 32.3 36.3 40.8 45 46.6 51.2 56.3 59.1 67.9 81.3 86.4 93.8 100.5 107 112.8 118.4 123.6 130.1 134 154.1 161.6 173.5 186.7 198.5 210.3 224.1 245.6 270.4 287.9 305.4 322.7 338.6 360.9 383.9 404.9 423 459.5 483.5 501.9 519 512.8 514.1 493.8 519.1 525.3 528.5 528.4 528.1 526.9 522.2 516.7 506.6 499.7 495.1 494.5 494.8 497 505.6 504.8 506.3 508.7 518.4 527.4 524.1 523.3 524.7 523.6 521.7 518.7 515.9 511.6 508.3 499.6 487.2 471.6 445.9 428.4 412.4 402.3 392.4 379.2 372.7 368.3 368 364.2 364.5 367.1 367.1 361.8 353.4 351.3 349 345.8 342.5 343.6 339.5 333.3 329.1 332.6 332.5 331.6 314.8 284.1 269.6 255 241 227.8 215.8 202.9 194.7 201.7 204.3 206.1 211 216.9 218 213.1 212.8 213.8 210.3 209.5 207.6 203.6 199.5 203 207.9 211.3 216.6 216.9 216.4 213.3 214.4 215.4 209.8 202 193.7 185.7 171.5 160.4 150.2 141.1 131.5 116.9 104.8 94.8 81.1 68.3 62.6 55.8 58.8 70.4 76.6 82.1 83.9 79.4 66.7 51.7 52.4 45.9 34.8 16.9 7.7 -1.4 -1.4 -1.4 -1.4 -1.4 -1.4 -1.4 -1.4 -1.4 -1.4 -1.4
142.3 135.2 130 124.6 118.5 116.7 111.2 106.7 98.8 90.7 81.8 72.7 66 59.8 53.4 50.6 46.9 44.1 41.5 38.4 35.1 32.4 31.3 31.1 31.4 28.5 30.6 31.5 34.1 35.8 41.2 42.9 45.6 52.3 58.3 68.6 75.9 82 92.6 100.6 105 117.6 118.2 120 121.3 137 144.7 150.3 159.7 171.8 184.6 194.9 210.6 232.3 253.1 270.2 282.9 293 311.1 328.2 350.6 370.6 392 413.6 435.5 456.9 480.4 486.5 492.7 487.2 494.2 503.2 508.4 514.3 525.6 525.2 519.9 513.1 507 498.5 490.9 488.6 490.4 494.3 498.4 498.9 502.2 506.3 512.1 518.2 516.9 520.1 528.1 529 528.5 527.9 522.2 520 515.9 509.1 500.1 482.2 456.1 442.2 425.9 415.1 405.5 391.7 390.7 385.2 380.7 376.8 376.5 374.8 376.3 373.2 368.7 368.7 364.4 359.7 353.9 346.6 343.8 340.4 337.3 337.6 337.7 329.8 320.6 304.9 279.3 264.2 247.7 234.2 219.3 207.5 206.8 212.3 215.3 218.5 217.4 226.9 225.7 227.3 226.7 225.6 224.4 221.1 222 219.9 215.4 219.7 229.5 237.9 230.6 233.2 229.8 228 222.4 222.7 218 209 202.7 193.9 185.6 168.9 159.4 148.4 138.8 128.9 115.2 102.4 88.5 76.7 71.6 65.1 61.9 71.3 85.1 96.3 99 96 93.2 75.7 65.9 55.9 54.7 51.1 42.4 24.7 10.3 7.3 -1.4 -1.4 -1.4 -1.4 -1.4 -1.4 -1.4 -1.4
138.1 130.6 123.3 114.7 109.8 107 104.6 98.1 92.2 84.8 78.8 70 63.9 58.6 52.4 52 49.8 46.4 43.5 40.6 36.8 34.8 33.2 31.7 30.9 29.9 30.6 29.9 32.2 33.1 36.6 38.9 40.6 45.1 55.9 66.2 74.7 78 87.7 95 97.7 106.8 111.1 110.8 119.4 127 136.2 146.6 154 165.1 171.9 183.3 199.5 226.9 245.4 255.5 261.3 271.2 285.5 301 319.3 341.2 360.2 381.9 403.5 423.7 443.9 459.5 465.4 460.4 471.4 481.7 489.5 503.3 510.7 517.1 514.3 510.2 503.8 494.9 485.8 480.4 485.2 490.4 493.3 493.5 494.7 499.7 503.2 506.2 509.1 512.8 523.2 537.2 537 539.2 537.8 531.8 523.8 520 510.1 494.2 473 452 442 424.4 416.3 406.1 402.9 401.9 395.4 392.2 391.1 388 390.8 390.1 382.2 377.6 374.9 371.1 367.4 363.7 350.3 345.5 343.4 341.7 337.7 330.3 322.9 307.4 285.9 268.4 253.8 240.2 226.9 213.6 218.5 221.7 227.4 230.3 233.1 235.9 235.9 237.7 239.2 238.4 239.6 239.1 237.6 237.5 233.8 234.2 243 248.5 250.8 244.3 248.8 247.7 242.2 228.8 227.2 223.2 213.5 204.8 196.3 190.1 170 157.9 148 138.5 123.8 109.3 95.8 88.8 76 72.7 68.6 66.6 80.2 93.2 106 118.6 109.2 105.4 88.1 77.5 69.9 63.4 52.4 40.3 31.2 14.4 4.7 1 -1.4 -1.4 -1.4 -1.4 -1.4 0.6
131.8 127.3 118.2 108.5 101.9 102.3 99.5 92.5 84.2 79.6 74.9 69.6 64.3 59.3 53.7 52.6 50.8 47.6 45.7 42.3 39 36.9 36.1 33.6 31.5 29.8 31 31.2 30.4 31.4 31.7 34 41.8 44.7 53.5 62 70.9 77 83.1 90.7 93.4 99.6 100.1 111.2 119 124.8 133 136.1 143 154.3 166.7 182.2 191.8 210.1 225.4 236 237.6 250.2 264.4 275.4 296.6 309.7 329.4 350.5 368.1 386.3 406.1 423.2 437.4 430.3 450.1 463.4 473.2 483.4 495.6 503 504.1 504.5 498.6 490.5 479.6 475.5 475.7 477.7 481.2 483.4 485.1 489.3 492.1 495.9 500.3 505.1 515.8 530 535.7 542.7 544.9 541.6 536.6 531.8 523.6 510.1 487 464.3 449.9 436.3 426.5 421.1 419.6 419.6 413.6 407.5 404.3 405.6 413.5 413.9 397 389.4 386.5 381.6 377.5 370.9 364.1 356.8 350.7 345.2 339.6 331.9 320.5 308.6 290 273.7 257.3 246.3 233 225.7 228.9 230.1 235.5 240.5 245.2 247.6 246.2 246.6 246 247 248.3 252 252.6 249.6 251.8 248.1 253.4 255.2 258.5 257.9 255.9 257.1 254.8 246.1 234.2 226.3 219.1 209.8 201.9 195.7 190.9 173.3 160.2 149.2 135.8 118.8 105.1 98.4 90.8 80.4 76 76.9 88.8 93.4 105.5 119.4 136.1 121.9 104.7 93.3 82 68.5 56.6 47.1 36.6 24.8 8.1 5.8 2.9 2.2 2.1 2.3 2.9 3.5
128.3 124 110.5 105.2 100.3 95.6 91.7 88.4 79.9 74.1 70.5 69.3 63.3 58.9 52.8 54.7 53.9 50.8 48 43.2 40 39 36.9 34.1 31.5 31.2 31.3 31 31.6 31.9 31.8 33.2 36.5 42.2 51.3 54.4 61.9 69.2 78.7 86.9 91.5 91.4 97.1 108.3 115.1 119.1 125.5 133.9 141.8 148.3 162.9 170 180.4 193.5 206 211.7 220.4 230.1 238.9 256.3 268 280.6 299.8 319.3 336.2 356.1 373.6 396.8 406.6 410.6 426 442.6 461.3 476.8 487.6 488.9 491.2 495 493.2 483.5 471.6 466.7 465.6 468.3 470.7 473.6 476.9 478.4 479.7 484 489.4 498.6 510.4 521.2 532 537.3 545 546.1 540.7 535.6 531.3 520.6 505.5 481.5 463.3 451.6 447.2 436.9 431.9 430.9 431.1 424.8 418.4 418.5 420.5 425.6 420.1 405 397 390.5 386.5 382.9 378.1 370.8 369.1 366.8 344.9 340 323.1 309.6 294.4 278.1 261.9 250.4 237.6 236.3 240.2 241.1 245 248.8 253.4 255.3 257.7 258 259.4 260.5 263.8 263.3 265.6 267 268.6 269.5 270.3 265.9 262.5 264.6 260.6 268.4 259.7 256.5 249.7 236.5 231.1 221.8 210.7 199.6 195.2 191.2 175.4 158.6 147.3 132 117.8 108.1 100.2 93.2 85.3 82.8 100.7 107.9 108.3 123 141.7 137.6 116 101.7 90.9 80.5 69.2 51.2 40.1 27 13.9 6.7 5.1 5 4.7 4.8 4.7 4.6
119.6 115.1 108.3 102 94.9 90.7 87.5 84.5 78.2 73 69.8 67.8 62.8 56.6 56.2 56 56.8 54.2 50.5 46.4 43.5 40.5 37.1 34.3 32.7 31.9 31.6 31.4 31.8 32 32.3 33 36.1 39.7 46.5 50.9 52.9 57.3 65.9 73.6 77.6 90.3 95.3 100.8 106.4 110.3 118.6 125.1 135.2 137.8 146.9 156.8 168.7 178.5 186.3 192.4 200.6 209.5 223.4 236.5 247.3 260.9 271.8 289.3 308.9 324.8 340.8 360.5 382.4 388.2 407.1 426 444.2 455.4 459.5 469.9 473.8 475.5 479.2 470.7 461.5 451.8 455.9 457.1 459.4 462.4 463.9 467.5 471.4 476.1 486.2 496.2 506.5 516.6 523 532.7 540.2 546.1 547.8 542.4 537.3 531 517.9 497.2 475.2 464.3 457.4 454.2 452.1 452.8 449.7 440.8 434.5 430.9 431.4 432 428 422.7 416.4 407.8 401.7 394.9 387.8 382.5 378.6 368.5 355.3 338.7 325.8 311.1 297.1 280.6 267.7 255 241.1 243.7 247.6 252.3 253.6 256.7 259.2 258.5 264.8 266.7 269.6 276.7 276.2 277.7 276.7 278.4 277 281.9 283.3 276.6 274.3 271.7 268.9 266.8 271.6 261.4 257.5 251.5 246 237.3 229.2 215.6 200.6 192.1 185.3 172.8 156 144.6 130.5 121.5 114.4 105.3 97.6 94.8 102 117.8 119 126.7 133.5 145.4 131 111.2 93.9 82.7 71.5 55.2 39 26.3 15.1 7 5.9 5.3 5.4 5.4 5.2 5.9
114.7 105.6 102.2 97 92.6 88.8 84.4 82.2 77.5 73.3 71.5 67 62.3 57.4 57.8 57.8 57.8 55.2 53.3 50.8 45.8 42.4 39.4 35.7 34.9 32.7 32.3 32 32.6 32 32.1 32.9 35.1 37.1 39.6 44 48.1 59.3 63 65.2 74.9 83.5 90.9 96.6 97.2 101.2 109.2 115.6 124.4 130.6 135.3 142.8 150 160.8 169 179.7 185.8 193.1 208 214.6 225.9 236.5 247.8 265.1 284.9 298.5 312.4 329.7 350.4 371.4 389 409.8 419.2 431.7 437.6 447.2 451.3 452.9 455.1 457.8 447.7 436.4 438.8 440 442.6 447.9 451.2 453.3 457.3 468.5 476.8 487.3 497.7 509.6 521.1 534.5 543 550.6 555.5 555.6 548.8 541.6 531.4 512.9 487.6 478 472.1 464.3 465.2 466.4 468.8 464.4 460.6 457.1 454.6 443.5 436.4 431.8 429.4 424.5 422.4 416 402.7 391.7 386.7 377.4 357.9 345.1 328.1 313.6 297.1 283.3 269.7 257.6 246.3 254.9 259.1 264.2 264.6 264.3 266.3 266.8 273.3 277.4 282 291.1 296.5 298.6 298.8 303.7 303.5 297.8 290.8 292.4 287.9 284.6 280.8 274 272.5 274.4 269.4 263.4 256.4 249.7 241.1 228.7 215.5 206.7 196.7 185.7 174.1 157.6 148.3 135.1 127.6 122.4 111.7 105.1 104.8 115.8 127 136.9 141.1 142.4 134 120.8 99.9 84.7 67.6 54.4 38.2 24.4 15.6 7.7 6.7 5.8 6.3 6.4 6.9 7.5
109.5 105 97.4 91.5 85.6 80.7 80.2 77.7 74.9 73.5 70.6 65.8 61.1 59.5 60.3 60.3 59.8 57.5 55.3 53 49.8 45.7 42.5 38.3 35.5 34.2 33.1 32.9 34.3 33.2 31.2 32.6 33.5 34.2 35.1 38.8 43.3 47.5 54.4 59.5 66.8 73.5 79.4 85.3 89.3 91.9 102.4 103.3 113.1 117.5 124.3 134 136.1 143 151.9 159.9 167.4 175.4 185.5 192.7 202.2 212 224.8 242.4 258.4 272.2 287.1 302.3 305.5 345.2 359.1 376.1 391.8 405 409.9 417.4 424.7 429.8 437.7 436.9 432.5 422.2 421.3 422.6 426.7 427.4 430.9 433.2 448.3 459.1 470.6 484.3 498.2 511.5 521.2 531.4 541.7 552.1 558.2 561.5 560.8 551.4 543 526.5 506.1 490 481.6 476.4 473.9 475.5 476 476.6 476.1 474.1 468.7 460.5 450.2 441.1 437.5 432.4 426.6 423.4 417.5 402.8 393.1 380.7 365.8 345.8 329.5 316 298.5 283.3 271.4 256 257.9 265.2 270.3 272.6 275.1 274.5 275.5 277.2 276 287.6 291.6 296.2 302.4 309.7 320.3 325.4 325.4 323.1 313.9 303.5 303.4 294.4 290.2 285.7 283.6 276.4 276.9 273 262.7 256.9 245.5 234.3 227.4 220.8 214 202 194.4 179.4 162.8 150.2 138 126.6 122.7 117 111.7 108.9 131.8 144.7 140.4 138.1 133.3 124.8 109.1 85 72 52.7 41.6 26.5 15.2 9.2 8 6.9 7.2 7.6 8.4 8.7
110.1 102.2 98.5 91.7 85.2 78.7 75.9 74.3 74.4 72.1 68.7 64.9 61.3 62.5 62.6 62.8 62.8 61.2 58.4 55.3 52.4 49.7 45.5 42.3 37.8 35.1 34.1 34.5 35.8 34.8 32.5 31.9 33.1 34.1 35 36.3 38.6 42.9 46.4 50.5 57.2 63.5 69.5 72.8 81.8 84.8 91.4 94.2 102.7 113.5 119.6 125.5 130.3 140.1 143.6 151.2 157.4 160.5 167.5 175.1 182.2 193.5 207 221.3 237.6 250.5 263.9 270.6 299.2 316.5 332.4 346.4 361.8 376.9 382.2 387.7 397 406.4 418.5 417.2 417.4 407.9 400.8 401.9 405.4 407.1 410.1 427.4 439.8 451.1 461.6 478.6 494.8 507.8 518.4 526.9 538.4 547.1 558.8 567.2 568.6 564.4 556.3 541.2 527.3 512.3 499.4 493 489.8 489.3 492.5 491.2 486.9 483.4 483.1 478.4 469.9 457.4 450.2 443 436.6 429.6 425.5 411.3 395.7 379.8 363.5 346.6 330.8 315.9 300 285.8 274.5 261.9 268.7 276.2 278.5 281.2 283.4 285.3 286.7 289 290.5 298.1 299.7 305 313.1 326.6 329.3 339.8 345.5 354 339.2 326.7 317.7 309.6 299.5 293.2 293.4 292.6 280.5 280.3 270.9 260.8 253 245.8 237.9 231.8 225.9 221.6 208.4 198.5 177.5 162 151.3 138.9 135.6 133.2 127 119.6 118.7 130.2 135.2 138.2 135.2 124.1 115.7 90.8 70.9 52.7 42.4 31.9 14.8 10.8 8.8 8.9 8.2 8.3 8.4 8.7
106.3 99.4 94.5 88.6 82.5 76.5 75.3 74.1 70.6 67 68.7 65.5 64 64.4 64.1 64.6 64.6 64.3 63.3 60 56.1 52.6 48.6 46.8 42.2 37.3 35.1 35.3 36.7 35.9 35.3 33.5 33.5 34.2 34.7 35.4 37.4 38.4 40.1 44 48.9 56.3 57.6 65.9 72.3 76.6 79 83.1 90.5 99.2 107.6 115.8 124.2 130.9 137.7 142.2 148.4 152.5 155.9 161.3 167.8 179.5 192 206.9 217.2 224.9 241.9 256.4 268.4 289.6 305.6 319.9 330.8 347.2 351.8 364.9 373.5 381.6 391.3 395.5 397.4 393.4 384.9 383.6 384.7 387.2 405 417.7 429.5 445 456.8 467.9 482.6 499.1 513 524.5 536.1 545.7 555.5 566.5 569.5 568.9 566.8 560.8 551.2 540.4 527.4 513.8 511 510.4 510.9 512.9 508.5 505.8 502.1 497.6 489.9 477.9 470.7 463.1 452.6 438.7 430.1 419.7 400.7 380.5 362.5 348.3 333.8 316.1 303.3 287.7 274.9 271.2 278.4 284.3 289.2 291.5 293.9 296.3 297.3 301.4 304 311.9 316.3 317.2 329.7 341 344.6 343.3 347.7 350.5 352.4 348.8 332.8 324.9 324.6 305.3 298.5 293.4 288.7 283.2 274.8 264.9 261.9 258.3 253 246.7 234.2 234 222.7 211.2 194.6 173.7 164.5 152.9 147.6 144.4 139.9 129.5 128.1 124.1 129.7 144.2 144.3 132.6 117.5 96.5 71.5 54.1 44.7 33.8 17.1 12.4 11.7 10.8 9.7 8.9 8.2 8.8
102.3 96.8 90.5 87.4 83 78.1 73.7 73.2 72.1 71.3 70 65.5 63.9 65.7 65.7 66.4 66.4 66.1 65.7 61.8 58.1 55.6 53.4 49.8 46.4 41.4 39 37.7 37.9 36.2 35.7 34.8 32.9 34.1 34.5 35.6 36.1 36.3 36.7 41.4 47.7 49.7 51.5 56.1 61.6 64.8 71.4 81.2 87.1 90.2 98.4 109.3 119.9 125.3 125.7 131.5 139.1 148.8 148.8 153.1 159 172.7 177.9 190.1 199.3 207.5 216.2 236.7 249.8 262.6 276.3 291.2 308.5 315.6 329.2 337.6 347.8 360.5 367.4 368.8 377.2 377.3 377.6 365.6 364.3 381.1 396.7 407.2 420.4 432.3 446.2 456.2 473 486 503.4 518.7 532.7 547 561.1 572.4 577.5 578.6 576.7 576.5 572.2 564.6 553.7 542.5 537 535.3 537.9 532.4 531.8 530.5 527.7 520.5 509.9 497.9 489.4 476.6 465.3 450.2 435.9 418.6 402.3 380.4 361.8 347.7 332.7 319.3 304.4 292.5 275.2 279.7 288.2 295.8 300.2 302.9 305.6 308.1 312.9 314.8 316 320.4 335.2 341.9 355.3 359.4 366.7 363.8 355.7 354.6 355.6 356.6 350.8 337.2 331.8 320.4 304.7 301.4 293.1 291.5 285.2 281.9 273.5 265.8 263.5 258.1 246.5 247.1 234.5 217.4 209.7 188.9 178.5 166.9 158.8 156.7 142.6 137.9 140.2 130.2 129.8 141.8 146.9 138.1 121.8 104.7 79.2 56.8 43.5 26.1 15.5 12.4 12 12.1 11 9.9 8.5 8.2
98.7 94.8 88.9 84.4 80 76 73.7 70.8 70.3 70.9 66.2 65.5 66.3 66.2 67.2 68 68.1 67.4 66.8 65.6 63.6 61.5 57.6 52.7 49.4 44.9 40.2 40.9 38.5 36.6 35.7 35.1 36.4 33 34.2 34.7 35.2 35 35.6 38.7 42.8 45.2 47.8 53.7 54.6 58.6 63.9 69.6 78.1 80.7 88.2 98.9 108 110.7 115.7 123.1 128.3 135.1 137 148.6 152.5 155.5 163.4 173.4 181.6 188.2 203.1 212.6 226.5 239.1 249.2 267.5 280.1 291.2 300.5 314 322.8 334 344.8 350.1 356.1 356 366 358.6 346.5 366.1 379.1 388.7 404.9 417.7 428.9 442.3 457.2 476.1 496.3 513.6 527.9 543.3 562.3 570.4 576.8 583.9 586.8 585.9 585.5 584.7 583.1 575.1 567.8 564.4 563.1 562.7 560.3 555.3 548.4 540 531.5 515.9 500.4 487 475.7 467.2 453.2 436.2 407.4 389.7 365.3 348.8 334 318.8 305 290 283.2 288.4 297.6 303.6 308 313.4 320.6 328 333 337.3 332.6 329.3 351.4 361.9 372.7 381.8 386.6 379.1 375.1 367.8 363.2 363.3 358.8 348.8 338.6 326.8 313.3 308.1 301.3 293.1 289.6 284.9 282.8 287 271.6 264.7 259.1 254.2 239 226.1 215.2 199.8 187.8 176.4 168.7 158.7 150.2 141.7 147.8 139.4 136.1 138.2 147.1 145.3 128.1 107.4 86.1 62 38.5 23.7 15.7 13.2 12 11 10.4 10.3 10.2 9.8
96.1 92.6 86.1 80.9 78.6 74.7 72.5 71.4 68.6 65.2 65 68 69 70.6 70.5 72.5 72.5 72 71.7 71.1 69.3 66.1 61.7 56.5 52.2 48.3 43.5 42.6 39.3 37.6 38.5 38.2 38.1 37.9 35.9 33.5 34.4 36.3 38.2 36.9 39.8 41.8 44.4 51.3 50.6 54.9 59 62.6 65.9 74.6 78.8 89.2 96.5 101.4 108.5 115.3 119.5 121.8 131.1 139.4 141 143.3 154.3 159.6 162.7 176.1 188.7 196.8 213.3 217.5 222.8 237 250.5 264.6 274.8 286.7 296.8 307.9 317.6 324 332.3 337.5 339.8 342.1 333.8 347.9 356.9 370.3 386.1 398.4 411.6 426.6 444 462.7 483.6 502.3 522.6 539 556.8 569 581 588.7 595 599.9 603.5 604.8 600.3 599.8 598 598.7 596.9 596.3 595.1 588.1 579 570 548.6 529.1 512.8 494.9 480.2 469.8 461 440.9 413.6 397.3 378.5 350.4 335.1 317.8 305.1 289.5 293.9 300.1 305.5 311.5 317.5 322.1 327.5 332.6 339 343.7 348.7 348.7 361.6 372.9 382.2 391.8 394.8 397 383.6 383.1 378 373.9 369.4 355.6 348 333.9 326.2 315.3 307.9 299.7 294.3 288.9 286.5 285.8 286.4 277.2 262.5 254.1 242.6 232.4 218.6 204.8 192.3 181.9 173 167.5 156.7 150.8 148.4 144.4 140.4 142.1 140.6 149.4 137.1 113.3 85.8 65.3 40.7 27.6 16.6 13.8 12.3 12.3 12.2 12.2 11.8 11.3
91 88.6 85.1 80.2 75.8 73.3 72.4 71.2 66.6 70.6 70.5 71.2 72 75.5 75.3 77 77.8 77.6 78.5 77.7 75.3 70.9 66.5 61.2 56 52.3 47.2 43.5 42.9 42.2 41.6 41.8 39.6 39.1 38.1 36 38.3 39.7 40.1 36.1 38.2 42.1 42.8 45 47.9 48.8 51.7 55.4 60.7 65.9 72.7 78.2 85.4 93.5 99.5 107.2 111.4 115.6 120.9 126.2 130.7 132.6 143 145.8 155.9 165.5 174.5 184.3 195 200.3 205.5 216.2 227.6 237.4 249.7 258.4 266.9 280.6 289 300.5 307.8 316.8 319.5 321 319 328.8 338.6 352.4 363.5 376.2 394 409.1 425.1 444.4 469 497.6 523.1 540.9 554.1 567.6 582.4 593.5 600.3 608.7 615.4 618.4 617.3 614.8 613.9 613.3 614.1 614.2 611.7 604.9 595.4 581.5 562.5 541 519.8 499.7 481.6 464 449.1 437.4 416.4 395.7 378.4 354.1 333.3 317.2 303.7 295.6 298.9 309.6 317.5 322.2 326.8 332.2 336.7 339.2 343.5 349.4 355.1 360 362.7 377 384.4 392.4 400.3 408.1 406.6 405 392.7 381 373.6 365.9 356.7 349.7 337.7 326.7 317.4 308.6 301.4 294.7 289.1 285.8 283.6 284.8 270.4 258.4 246.5 234.8 222.5 211.5 195.8 187.8 176.6 170.1 160.9 157.4 157.4 147.2 144.3 142.9 141.1 138.3 138.4 121.9 90.2 68.4 43 28.3 19.2 14.7 14 13.7 14.1 13.6 13.4 12.8
88.6 84.6 82.5 78.7 75.8 74.1 72.4 67.8 71 72.3 73.5 76.9 77.6 80 80.8 82.5 83.2 85.7 85.6 84.6 82.7 77.6 72.4 68.1 64.8 59.1 54.3 47.8 45.5 45.7 47.2 46.9 42 40.3 38.8 38.8 39.5 40.4 41.7 39.4 38.9 39.5 41 41.8 43.7 45.4 48.5 52.3 56.9 60.5 68.3 72.1 76.7 83.6 92.1 99.5 102.4 110.3 112.4 115.1 122.6 128.2 139.3 139.6 147.3 156.6 162.3 172.2 176.6 180.6 192.1 195 206.2 217.1 227.7 240.8 244.5 252.8 263.8 274.6 282.5 293.2 300.1 297.3 298.9 309.6 323.4 332.9 342.3 358.1 373.1 391.7 415.8 443 467.7 500.2 524.4 542.1 558.4 573.1 585.4 594.7 604.5 613.2 620 626.3 629.3 627.9 624.4 622.6 622.9 623.4 620.1 615.1 604.2 588.6 568.6 546.5 521.7 499.9 479.1 462.9 442.9 426.7 411.9 393.1 371.9 353.4 335.4 318.6 305.8 301 307.9 318.6 323.8 328.5 333.2 338.4 342.1 345.7 349.1 356.2 365.2 369.5 374.9 378.5 386.7 393.5 401.3 405.6 408.9 412.9 405.9 388.9 379.5 371.5 364.9 356.5 343.5 332.8 321 322.9 310.9 301.5 294.4 287.8 283.4 281.4 279 264.3 250.4 240.1 225.7 214.5 203.6 189.4 180.3 171.1 164.7 159.2 161.8 152.7 145.9 141.4 137.8 133.4 130.9 125.7 103.1 75.1 52.5 32.4 21.4 16 14.5 15.3 17 17.9 16.3 14.3
79.5 79.9 79.9 77.1 74.5 74.5 71.5 68.7 70.7 72.9 75.2 80.6 82.2 85 87.8 88.8 87.6 92.4 94.5 94.3 92.8 86.3 81.1 75.1 70.9 65 58.5 54.6 51.4 49 48.7 47.3 46.2 42.7 42.1 41.5 40.7 42.5 39.5 40.2 41.9 41.9 38.6 40.5 43.6 43.8 48.4 51.4 51.9 54.9 59.1 63.3 67.7 75.5 85.4 91.9 98.4 104.6 107.2 109.2 113.1 121.9 126.3 134.2 139.4 146.8 152.8 165.5 162.8 167.1 172.7 182.4 189.6 197.7 216.1 219.4 225.4 237.4 243.8 254.2 260.4 266.6 276.2 278.1 281.9 291.9 298.8 310.7 329.4 355.4 378.5 402.1 426.5 449 473.5 498.9 522.6 542.2 560.2 575.2 586.5 595.6 605.4 617.2 624 628 630.8 633.5 631.3 628.9 630.2 626.5 623.4 616.7 606.2 588.7 569.7 547.7 521.4 499.4 475 457.7 441 423.1 408.4 391.1 370.8 351.2 335.6 318.3 308.1 309.3 316 324.9 329 335.3 339.9 345.7 349.2 353.4 358.7 367 374.6 378.2 385.8 389.9 395.7 402.1 405.6 406.7 410 411.5 409.9 394.6 388.2 382.2 376.9 367.5 356.2 342.6 328.9 324.4 320.1 308.1 299.3 291.8 283.9 282.7 279 269.1 255.3 242.3 229.6 218.1 211.2 192.9 185.9 176.7 166.7 163.2 160.8 160.1 146.3 143.2 133.6 129.3 128.1 129.2 109.3 82.9 57.8 35.1 20.2 16.8 15.2 16.4 17.5 19.3 18.2 16.9
77.4 77.2 77.6 74.3 73.6 72.6 70.7 69.7 72.1 77.2 80.7 84.7 90 92.4 96.4 98.3 100.2 101.2 104.3 105.3 100.7 93.7 87.9 82.4 77.1 71.1 63.9 60.1 56.4 53.8 51.6 50.3 46.1 44 43.5 43.5 44 42.3 40.2 39.8 41.7 42.1 42.1 38.9 40.5 40.9 43.5 46.7 50.4 54.4 55.1 58.1 62 67.3 74.8 81.3 90.9 96.8 103.8 105.4 106.2 111.7 113.4 120.9 128.6 135.4 141.7 146.6 147.8 153.7 159.3 165.6 177.8 189 194.4 207.2 214.2 221.8 232.5 239.3 245.8 252.1 254.6 260.1 280.2 295.2 314.4 330.4 351.1 369.6 391.3 412.6 440.8 461.6 482.1 503.8 526 543.3 558.2 576.2 588.9 600.5 610 617.5 621.2 624.2 629.2 631.6 631.5 630.9 627 624.3 619.6 613.5 604.1 589.6 572.4 548.9 522.2 499.2 476.4 454.6 437.6 420.7 405.2 390 371.6 355.3 335.9 321.4 319.4 315.8 322.2 331.4 336.6 341.7 347.9 352.4 357.8 364.3 369.3 379 387.2 389.5 396.8 399.8 404.9 407.6 416.7 422.3 420.8 415.6 412.6 407.3 397 392.4 384.1 376.7 365.5 350.1 337.5 326.9 323 314.3 310.1 294.2 286 280 275.7 269.8 255.5 246.8 234.5 222.8 213.7 198.1 188.2 180.2 172.9 164.4 162.1 160.5 154.4 142.7 134.7 126.8 121.9 117.2 105.9 87.1 57.1 35.4 21.5 16.9 16 17.9 21.1 20.6 17.9 22.2
78.9 77.5 78.2 77.7 74.7 74.2 72.1 74.1 76.1 81.5 85.6 88.9 96.7 101.3 107 107.1 110.6 110.6 114.7 115.5 114.2 105.1 99 91.2 84.1 76.8 72 67.8 64.4 62.5 57.1 52 47.7 48.2 47.4 46.3 46.9 43.2 41.2 41.1 41.6 44.2 40.1 39.4 40.1 40.4 41.6 45.7 49.3 49.6 51.4 54.8 58.6 62.8 68.2 74.9 83.3 92.2 95.4 98.5 100.3 103.4 108.1 112.3 117.7 125.2 133.9 136.7 134.6 146.1 158.4 158.4 165.5 173.8 183.9 192.9 201 212.3 224.1 230.9 234 246.3 258.3 268.5 281.5 290.9 310.7 335.2 357.4 382.1 402.6 428.4 450.4 470.8 489.4 510.9 529.5 545.7 561.2 573.2 586.3 598.7 607 614.3 618.4 623.9 625.9 621.8 624.5 623 620.8 617.8 612.6 606.8 598.8 589.9 574.9 551 522.8 495.3 473.9 455.2 435.2 420.3 403.1 387.3 372.9 356.6 337.5 324.9 327.5 322.1 328.1 336.7 341.3 348.8 353.5 362.7 370.9 375.8 381.8 389.8 397.3 401.9 406 409.5 411.3 415.6 417.1 426.8 429.2 423.9 421.4 412.3 404.2 394.7 393.3 384.2 371.2 356.6 348 336.3 324.8 316.1 312.7 298.6 287.6 277.8 276.6 266.6 255.7 246.2 236.2 230.1 216 202.7 187.5 181.2 175.4 167.4 160.8 165.7 153.6 145.1 136 126.6 119.7 110.1 99.8 84.7 56.7 36.2 25.4 18.4 17.8 18.6 19.1 18.4 20.6 21.6
83 85.7 83.4 81.8 79.6 78.3 78.2 78.2 82.9 85.1 90.4 95.8 104 106.4 112.2 118.6 121.1 123.3 125.3 128.3 129.7 121.2 112 103.3 94.6 85.8 78.6 72 67.8 64.7 59.5 52.1 49.2 51.7 51.1 49.3 47.3 45.7 43.1 43.5 44 43.4 40.2 39.8 41.2 40.8 40.8 44.3 45.7 46.5 49.1 52.1 54.6 60.1 64.2 68.5 75.3 83 87.9 91.7 95.5 100.5 103.7 108.5 114 115 122.2 123.4 134 142.3 153.4 163.7 177.6 189.3 198.2 202.3 208.3 217.9 223 231.6 243.5 254 266.5 279 296.3 310.6 325.5 346.2 363.1 384.2 400.2 428.7 453.1 478.7 499.1 514 530 542.8 560.6 573.7 585.8 590.9 600.4 609.9 612.6 614.2 615.5 614.3 610.6 613.8 611.3 610.4 607.3 602.2 597.7 589.3 577.3 557.5 527 498.3 474.5 453.1 436.4 417.4 401.1 385.4 369.9 355.8 340.6 336.9 332.2 330.7 334.2 342.7 349.9 356.2 362.9 369.5 378.1 385 393.6 401.3 409 414.9 418.6 422.7 427.6 428.9 427.8 428.6 429.9 428.6 424.4 417.8 412.2 406 393 386.3 379 365.4 354.4 342.8 331.5 317.6 307.9 299.5 288 275.9 271.8 264.3 255.9 245.7 236.8 226.1 220.6 203.5 187.8 179.7 172.8 164.8 158.3 155.8 153.2 144.6 135 125.2 115 106 99.5 86.3 57.5 38.3 26.9 24.2 17.4 18.7 20.3 21.7 22.8 23.3
86.7 90.6 90 87.1 88.4 88.3 87.2 84.8 87.8 92.7 95.9 102.5 107.5 113.8 119.8 129.4 134.3 138.3 140.4 146.6 150.7 139.9 129.5 117.6 105.4 98.5 88.7 80 72.5 70.3 62.3 57 50.1 54.4 53.3 51.6 49.9 50.4 46.7 46.7 45.6 43.7 45.2 42.1 40.4 41.4 42.6 44.2 44.8 46.5 47.4 49.7 52.1 54.3 58.2 61.8 69.1 79.1 82.7 86.3 89.7 94.2 98.5 102.7 103.8 112.7 114.8 115.6 126.6 131.9 138.9 152.2 168.3 185 206.6 220.9 226 234.8 240 245.3 254.6 268.5 281.3 297.3 313.5 329.6 345.3 362.7 381.6 402.4 421.3 438.8 461.6 488.6 502.2 518.7 530.4 542.7 553.7 569.1 576.1 582.9 591.3 597.4 601.3 603.9 602.8 600.2 597.4 598.2 598.4 598.6 600.4 599.3 595.2 590.3 579.8 562.7 536.2 504.8 478.4 457.1 436.4 418.5 401.2 386.1 370.4 355.5 343.2 348.6 343.1 340.7 341.3 351.7 357.6 366 371.7 376.9 383.6 391.1 403 412.5 418.5 423.9 428.9 435.7 434.7 436.7 436 434.8 433.6 433 429.6 424 419.5 412 404.9 390.6 381.9 373.7 358.9 347.7 333.7 320.6 306.8 296.6 284.9 274.5 263.6 261.5 251 244.2 229.9 222.5 214.3 205.1 190 177.8 168.4 161.6 153 148.2 145.2 137.4 130.8 121.8 105.6 98.7 91.8 82.8 64.5 39.6 28.5 24.9 23.1 19.2 19.2 22.1 26.1 28.7
91 95.9 100 98.7 100.2 103.8 102.4 100.5 101.2 104.6 104.4 108.5 115.3 122.7 131.8 137.4 149.7 153.8 162.8 180.1 183.9 167.7 148.4 136.2 119.1 108.2 96.2 89.8 81.6 73.9 70.8 61 57.1 57 57.3 56.3 53 51.5 50.8 49.7 48 47.3 45.4 43.4 40.8 41.4 44.6 43.1 43.5 48.1 47.5 47.9 51 51.8 54.6 58.3 66.4 71.8 82.1 83.6 85.3 88.4 93.7 96 99.4 102.2 99.8 108.7 114.3 125.9 133.1 144.5 158 176.1 193.6 212 232.4 251.9 260.9 265.4 277.2 290.3 300.2 313.1 328.4 343.7 360.2 374.5 394.5 413.7 435 456.3 477 498.4 510.7 521.3 533 544.1 552.2 559.4 566.5 571.3 579.9 584.7 589.1 589.5 590.8 586.8 582.4 577.3 584.9 590 593.6 594.4 592.9 591.4 581.7 568.1 543 508.6 481.6 459.4 438.7 419.6 402.4 384.9 369.7 356.9 354.2 356 353.8 353.3 351.4 356.1 364.8 373.8 380.1 387.6 391.3 398.8 410 420.3 428.9 438.9 448.1 448.9 445.1 446.2 443.6 440.2 439 434.4 432.4 429.6 427.3 426.7 417.4 415.6 397.2 380.3 363.7 347.5 332.5 320.8 309.2 296 284 274.1 262.9 257.9 254.3 245.5 232.1 218.4 207.4 198.7 186.8 172.8 165.2 155.6 147.6 139.3 133.6 132.7 125.7 116.9 102.7 88.2 80.5 70.4 58.5 45.4 33.3 25.7 22.5 19.7 22.1 30.7 31 32.3
96.7 103.9 108.8 110.4 111.8 116.2 117 119.4 119.3 121.3 120.9 124.8 128.1 134.1 141.4 153.1 161.5 173.4 189.4 207.6 211.7 199.5 172.5 151.1 134.9 121.7 110.4 100.5 90.3 78.8 74.7 66.7 61.7 58.9 62.9 61.6 59.3 53.9 54.5 52.8 51.2 50.3 48.2 45.2 40.8 41.1 41.8 41.8 43.5 44.2 46.5 48.6 48.7 50 52.2 57 62.1 68.4 73.5 78.1 80.1 82.4 86.9 91.6 91.5 96.5 96.7 99.9 105.4 115.3 125.1 134.4 151 163.2 174.7 193.6 214.5 234.4 255.6 279.4 297.5 312.3 321.8 336.4 352.7 363.1 379.8 394.1 409.4 425.9 444.2 463.3 483 505.3 523.9 527.8 536.8 542.9 547.4 552.5 557.4 560.7 564.6 569.6 577.2 577 575.1 569.2 565.6 565.2 571.8 581.4 588.5 590.5 592.7 590.9 582.3 572.4 547.8 514.6 484.2 463.5 441.4 422.3 401.7 388.3 372.9 364.8 365 365.5 364.8 365 362.4 364.7 370.3 379.7 387.1 392.5 400 406.6 416 426.7 437.6 449.1 456.5 461.8 455.8 453.3 451.7 448.2 444.8 443.3 439.9 438.4 442 434.7 423.9 420.9 408.7 393 367.4 349.6 333.3 319.3 307.8 297.5 283.9 272.2 262.9 253.6 247.1 239.7 227.7 211.6 202.4 196 186.7 166.5 160 151.4 136.1 135.2 125.5 120.3 116.4 107.7 94.4 78.7 70.9 63.1 53 42.5 35.4 26.2 22.4 22.3 29.7 32.8 36 34.7
106.7 115.9 123.3 123.5 127.6 131.5 133.2 138 143.5 143.4 142.7 144 146.2 150.9 156.7 166.4 183.3 189.5 204.1 225 230.7 221.5 196.7 170 147.4 137.4 124.3 111.3 98.6 89.4 79.8 70.3 65.8 62 64.8 65.6 64.2 62.6 60 58 56.3 53.3 50.2 46.7 43.2 41.2 42.2 43.4 43.7 43.2 44.5 48 47.7 48.7 50.4 55.2 56.9 64.8 69.2 71.8 75.6 80 84 84.7 87 89.6 89.1 92.3 99.3 107.3 117.5 130.1 140.5 148.7 161.7 178.1 197 220.1 244.5 277.6 305.6 323 335.5 356 373.2 388.3 401.9 415 430.2 439.9 453.3 474.3 495.1 512.9 520.1 531.8 537.3 540.1 540.3 543.2 547 549.7 550.1 552.6 559.7 560.8 555.9 548.9 546.2 542.3 560.2 573 579.3 588.1 593.2 591.2 584.1 575.5 553.4 522.3 492 469.6 449.9 425.5 408.4 394.5 386.7 379.6 378.2 378.6 377.4 377.2 375.3 372.3 380.8 386.5 391.8 401.3 411.2 413.8 425 436 444.3 454.9 463.8 466.6 468.4 467.6 465 459.5 456.7 458 452.5 448.3 446.8 444.6 436.3 415.5 401.9 394.2 369.1 353.8 335.5 321.7 308 295.4 283.8 271.7 259.5 248.4 241.5 232.6 223.8 211.4 197 196.8 186.7 171.3 155.9 141.3 126.7 121.6 117 110.4 107 98.9 84.8 70.3 59.5 53.2 45.5 34.9 31.5 26 27.3 27.9 30.5 34.8 35 34.5
122.7 131.3 135.7 141.7 147.6 149.6 154 162.7 168.8 172.8 166.7 166.6 170.1 172.3 179.4 186.8 216.1 214.1 220 231.7 233.1 232.3 219.3 192.3 170 149.1 133.1 117.6 104.8 97.9 86.9 74.7 69.8 68 65.9 70.9 70.6 65.7 65.3 64.2 59.6 55.7 52.6 49 44 42.5 45 44.4 44.3 43.6 43.5 43.5 44.6 48.4 50.5 51.5 57.2 60.6 66.2 68.1 71.6 73.5 76.4 80.1 81.2 79.1 81.5 85.2 91 99 111.5 120.2 126.6 137.3 148.7 163.2 181.4 201.7 227.2 258.4 289.3 320.1 346.2 366.9 387.7 404 424.7 433.8 446.9 455.3 471.5 482.4 492.3 513 518.9 533.4 531.4 531.2 530.4 532 531.2 534.2 533 535.9 540.4 539.8 535.5 527.5 521 533.2 548.8 558.6 568 575.8 586.6 592.2 584.2 574.9 559.6 527.5 497 475.5 458.3 436.6 418.7 406.2 399.3 395.8 393 390.1 389.8 388.6 386.5 382.2 376.6 393.8 399.3 406.4 418.7 426.4 434 445.7 455 462.9 470.1 477.6 480 480.5 481.1 473.6 472.1 464.2 456.6 454 449.1 444.7 437.5 420.5 396.6 385.4 366.8 351.1 334.5 321.7 306.8 293.5 282.4 267 257 250.6 240.7 233.4 223.2 216.4 206.8 200.7 190.7 174.5 158.7 147.5 133.3 120.8 106.4 95.8 88.6 93.1 78.1 59.3 51.6 42.7 37.4 31.8 31.1 30.3 30.8 30.7 32.2 35.3 35 34.5
140.8 149.5 155.7 162.9 172.4 174.3 176.5 186.9 196.6 204.8 203 198.1 202.2 202.7 207.4 217 233.8 266.8 253.5 252.6 240.1 232.4 227.4 213.5 186 167.1 148.2 127.5 114.7 104.6 93.7 83.3 74 71.9 72 74 77.6 74.8 71.9 71.7 64.7 60.7 56.8 52.7 47.2 44.9 43.4 45.4 43.1 43.1 43.5 43.9 44.6 46.8 48.8 50.5 54.5 57 59.3 61.8 64.7 71.2 72.7 72.7 76.3 73.6 75.1 78.9 83.4 94.4 103.5 111.6 116.4 124.4 134.1 148.9 166 187.5 210.3 237.6 260.7 295.3 320.6 349.2 386.3 404.9 426.1 438 448.4 463.3 468.3 476 481.6 497.2 510.1 518.2 517.9 516.3 516.8 514.9 514.5 515.5 519.5 523.5 523.9 521.4 513.2 502.2 491.3 519.7 541.4 552.5 561.7 569.5 576 581.4 585.4 576.6 562.5 530.3 501.7 480.8 466.4 449.8 433.9 420.1 413.2 410.1 408.6 405.8 403.1 400.2 399.1 395.7 393.6 395.4 406.6 414.2 421.8 431.5 443.8 455.6 466.8 477.1 481.4 483.4 487 490.5 488.4 486.5 482.3 475.3 463.5 455.2 447.1 444.1 432.8 417.7 388 371.7 358.6 346.4 331.4 317.7 303.4 288.7 285.5 276.5 264.6 257.8 250.5 241.5 229.7 219.5 210.8 204.4 194.5 180.8 164.5 151.3 137 124.4 112.8 101.2 82.6 76.3 67.5 52.7 43.2 37.9 35.1 34.5 31.4 33.4 34.9 34.9 34.7 36.1 36.3 36.2
166.6 178.6 184.7 189.9 200.8 209.7 209.9 214.1 223.7 232.1 238.9 230.4 231.1 236.1 241.7 258.2 282.9 293.7 287.2 270 253.3 236.9 222 212.1 192.2 179 155.9 137.9 125.9 113.6 97.2 88.3 79.1 74.9 76.5 80 84.8 83.4 81.1 78.1 72.6 70.8 62.6 57.4 53.2 48.2 43.1 44.2 43.3 43.5 43.7 44.1 44.6 44.7 48.4 49.9 50.2 51.8 56.2 60.1 64.7 69.4 69.8 69.1 70.7 68.8 69.7 74.5 81.6 88.3 95.1 100.2 106.6 112.9 122.5 139.6 157.6 177.9 194.7 214 238.7 264.2 295.9 321.4 356.5 386 407.4 425.6 436.9 446.9 461.2 470.1 479.4 485.5 491.7 499.9 500.1 499.2 500 497.1 499.9 498.8 501.1 504.5 504.1 502.8 492.2 472.1 483 502.6 523 543.1 556.2 564.9 573.1 581.4 583 575.6 562.7 535.8 505.7 486.3 471.7 461.9 449.5 437.1 430.8 425 422.6 420 418.3 416 412 407.8 408.6 411.3 414.7 420.9 429.1 436.4 449.4 462.8 476.7 487 493 496.4 496.8 499.2 498.4 494.9 488.3 482.7 473.5 460 449 436.6 427.1 410.3 383 365.2 352.9 340.4 324.8 310.4 307.7 302 295.6 287 271 265.3 258.3 247.6 235.4 225.4 218.2 211.7 201.8 185.2 167.7 151.3 137.6 124 112.9 100.1 88 76.3 61 52 44.2 37.9 37.3 35.2 35.3 35.8 38 39.4 38 38.2 38.9 38.3
198.5 215.3 215.1 218.5 229.3 239.3 243.8 243 244.6 255.4 264.7 266 263.3 263.6 269.2 290.4 311.5 313.7 304.6 281.6 261.7 243.8 226.9 210.3 194 179.5 160.2 149.6 130.5 118.8 109.8 95.1 82.2 78.1 80.2 85.1 90.4 89.7 93.1 84.7 78.8 74.5 69.9 65.9 60.4 53.7 49.2 46.1 44.4 44.2 44.5 44.3 44.9 46.4 47 48.4 48.1 50 53.1 57.6 61.3 64.6 64.8 67.1 67.9 66.5 65.2 68.2 76 79.2 84.8 92.2 101 108.1 123 136.8 153.5 164.9 174.9 192.5 213.2 239.5 273.9 296.1 324.2 351.6 375.7 403.7 420.4 431.9 444.6 454.7 461.6 468.4 478.5 478.5 478.6 480.1 477.3 477.7 481 480 481.4 482.3 485.9 483.1 472.2 447.6 458.4 490.6 516.3 534.2 544.8 553.4 562.6 571 574 571.1 564.4 543.8 512.5 494.8 483.3 471.1 462.5 453.5 445.8 442.3 438 435.2 430.5 428.7 425.6 419.4 420 423.1 425.2 429.7 434.5 442.5 455 468 482.2 495.1 505.4 507.5 509.4 509.5 507.2 506.5 500.6 490.5 479.5 463.8 449.5 429 417.4 400.8 377.6 360.7 348.5 332 327.5 324 320 312.7 304.7 294.9 286 272 262.1 253 244.2 234 224.2 214.7 205.5 187.6 171.9 156.2 141.2 129.2 118.5 107.2 94.6 83.2 67.6 54.6 47.5 40.6 38.5 38.2 36.7 37.9 40.3 42.1 40.7 39.9 40.2 40.6
232.1 244.8 251 257.6 266 267.2 271.1 268.8 275.7 277.6 286.9 288 289.9 294.4 308 321.7 324.8 317.3 309.2 287.2 270.1 249.9 228.3 209.7 188.7 176.1 158.4 150.6 135.4 124.7 117 101.5 89.5 82 84.5 87.8 96 98 94.5 92 83.8 81.2 80.9 77.2 70.5 63.6 54.2 50.2 47 45.5 45 44.9 46.3 48.5 45.7 51.4 52.3 51.5 53.7 52.4 56.1 59.5 61 62.1 63.7 63.1 62.2 63.8 71.2 74.3 80.4 84.6 88.4 95.4 107.1 120 130.4 142.1 156.8 173.2 193 223.8 248.8 269.7 292.5 318.1 342.5 374 390.9 409 425.2 434.4 440.8 447.5 457.1 460.2 458.2 458.7 456.8 459 459.5 461.1 460.7 461.8 467 463.9 448.3 425.8 448.8 479.6 501.4 517.7 531.8 544.1 553 558.2 563.7 567.5 562.6 547.5 523.3 504.8 491.8 480.8 474 466.3 462.5 457.9 452.7 447.9 443.8 441 435.7 430.6 428.5 430.9 434 439 445.6 453.1 462.7 474.9 490.2 505.7 514.9 517.7 518.4 517.1 512.1 510.8 506.3 495.9 481.1 461.2 440.8 419.9 406.5 391.9 374.4 357.5 339.6 345.3 338.9 332.4 327.8 320.4 313.1 302.4 294 281.1 270.8 260 250.7 240.1 228.6 218.3 207.9 191.5 174.5 163 148.1 139.2 130.4 120.7 99.9 87.7 74 59.8 49.6 44.5 41.9 42.1 39.4 38.3 43.4 44.9 44 43.1 43.2 43.1
273.6 284.9 290.3 302.2 302.7 310.2 306.9 302.7 295.4 299.3 306 311.4 319.7 339.6 347.6 342.6 330.9 318.5 305.8 289.3 267.3 245.7 231.6 210.5 190.8 174 161.8 151.5 135.6 121.7 115.5 105 93.4 83.8 89.7 92.3 99 105.9 101 95.9 93.5 89 89.5 84.7 77.7 70.7 64.4 58 52 49 47.7 48.5 48.7 48.5 46.1 46.3 51.2 54.1 54.1 52.2 51.6 54.4 57.5 58 61.2 61.8 60.3 60.1 62.3 65.9 74.6 77.6 81.7 85.3 93.8 105.1 115.2 126.9 141.4 154.8 172.2 197.4 220 242.5 264.6 282.8 307.3 341.3 359.3 378.5 397.5 408 416.9 423.5 432.7 433.7 439.3 434.8 432.9 433.9 437.8 438.9 438.9 441.1 440.7 440.1 423.1 409.3 442.7 464.9 481.7 501.5 516.6 529.9 541.1 554.2 561.8 564.8 561.5 554.5 533.9 515.3 501.1 492.7 486.9 481 475.9 469.7 462.7 459 455.7 452.4 445.8 440.2 439.7 441.2 443.8 448.3 455.3 462.3 471.5 483.4 498.8 519.6 530.9 531.4 529.4 529 518 509.2 501.7 493.1 475.8 455.6 430.4 416.3 399.3 385.9 366.3 350.8 357.3 352.9 348.7 341.9 336.1 330.9 325.8 316 304.5 289.9 278.9 267.1 253.8 243.9 232 221.9 211 198.6 184.4 175.5 160.2 151.1 141.2 129.7 111.5 93.3 78.3 65.4 55.4 50.8 48.4 45.3 41.9 45 48.9 49.4 48.1 47.3 47.5 47.6
323.2 321 325.3 336 328.9 346.1 351.3 338.4 333.4 331 336 347.5 365.7 365.3 361 351.3 337.8 320.6 302.8 288.4 259.8 239.9 226.3 206.2 189.6 176.1 160.6 144.7 130.5 123.2 115 107.1 96 87.8 96.1 96.5 103.4 110.2 109.4 111.5 104.5 99.7 94.9 92.4 87 84.2 80.4 71.3 61.3 55.5 53.2 53.2 51.9 49.5 49.5 47.4 46.1 46.9 46.7 47.2 52.9 52.9 53.7 55.2 57.9 59.5 58.6 60.4 61.5 65.4 68.9 70.6 75 81.4 88.2 94.2 102.9 113.4 124.8 136.9 153.3 173.3 196.5 216.7 236.1 254.3 277.3 304.9 330.6 350.3 368.4 378.7 391.7 400.1 404.4 410.2 412.9 411.4 409 407.2 410.9 414.2 415.9 418.1 418 413.8 395.3 406.9 435.5 449.5 463.5 479.5 495.1 513.8 533.4 550.4 559.9 564.6 567 560.5 547.3 526.9 514.2 504.1 497 491.7 486.7 480.3 472.9 468 465.1 461.2 457.7 453.2 452.5 453.8 456.8 459.9 466.5 471.8 480 490.8 508 528.9 540.1 545.9 540.1 537.8 529.3 516.6 500.4 488 468.5 446.3 427.6 411.9 395.8 375.3 371.5 370.3 368.2 362.1 355.3 350.8 346.5 340.2 336.8 332.1 316 307.5 285.3 272.3 260.2 246.5 232 223.6 214.4 206.4 192.9 184.4 176.4 164.5 151.4 140.3 130.5 105 85.7 72.3 63.7 58.1 53.7 51.8 52.8 54.2 55.8 55.9 54.4 53.2 51.9 50.9
352.9 353.3 360.3 364.6 359.7 366.1 375.1 376.3 369 382.7 385.1 381.8 383.1 377.9 369.7 355.7 339 320.4 297.1 277 257.6 236.6 221.1 198.4 185.8 171.2 156.4 142.9 132.8 123.4 114.7 104.6 94.9 90.8 102 101.4 109.4 113 115.1 114.8 121.8 115.5 106 101.1 96.4 94.9 94.2 89 76.2 66.2 60.5 58.3 56.3 53.3 51.6 49.5 47.9 47.7 48.2 48.3 48.9 51.8 51.3 53.9 55.3 56.2 56.8 60 62.4 65.9 66.2 70.8 74.4 78.8 84 90.3 93.8 101.5 111 122.8 138.1 154.1 170.8 189.1 208.6 229.3 255.4 279 298.5 319 342.7 359.3 373.8 380.7 384.7 383.2 386.2 386.2 383 382.1 384.9 387.2 390.4 394.1 393.6 388.2 369.1 400 409.5 426.4 440.6 453 481.6 508.9 533.6 553.1 567.1 574 581.5 577.3 565 545.8 528.8 518.1 511.9 506.1 499.3 492 485.2 477.3 473.7 469.5 466.4 465.2 465 465.3 467.7 471.5 476.8 482.3 490.2 501.8 517.3 537.9 555.2 556.6 554.3 550.8 544 524.8 499.7 481.2 456.7 444.8 429.2 410.3 392.2 389.6 387.4 385 379.8 373.1 368.8 360.6 355 348.8 343.8 341.3 333.4 314.3 304.8 276.7 263.7 254.8 243.4 233.6 220.8 213.1 202.2 191.1 189.8 179.9 166.7 154.4 140.1 119.1 96.8 82.1 75.7 67 60.5 53.9 56.7 62.2 63.9 66.1 63.3 60.3 56.5 54.5
368.2 376 377.4 381.5 373.5 377.1 384.9 389.1 397.8 401.2 404.2 399.9 392.5 384.9 372.7 357 339.2 318.2 292.8 266.5 248 233.3 214.5 197 181.2 166.6 153.8 142.2 133.4 123.5 113 100 98.4 93.9 103.4 106.3 110.8 115 117.7 122.4 126.7 128.7 124.7 121.2 113.9 106.7 103.9 100.6 89.2 78.8 73.1 66.8 62.8 58 53.6 49.3 48.6 49 48.9 48.5 48.2 49.6 50.6 51.1 52.5 53.3 56.6 58.5 61.6 61.9 64.9 71.6 75.3 81.2 82.8 85.6 89.2 95.7 102.8 110.9 122.9 138.9 152.3 169.1 187 207.6 226.9 248.7 273.2 293.4 319.4 332.8 347.4 353.8 366.2 364.2 364.2 361.9 358.3 355.2 356.6 361.3 366 369.1 366.2 360 363.2 376.2 387.3 405.2 431.2 457.2 483.2 513.7 539 559.2 575 584.9 592.7 590.8 582.9 566.5 552.2 537.9 526.7 519.2 512.3 505.3 496.8 490.3 483.7 478.7 476.1 474.5 476.3 479.1 482 483.6 488.2 494.1 504.6 517.4 534.4 554.8 565.7 570.9 562.8 555.5 544.5 530.1 492.8 481.4 461.3 443.1 430.6 411.7 405.2 401.4 395.9 392.8 389.8 386.8 381 375 370.1 360.8 354.9 347.9 344.2 335.6 313 290.5 275.9 262.9 254.4 245.5 235.2 222.5 212.9 202.7 196.1 194.9 181.3 173.5 154.4 130 110 95.1 84.6 76.6 70.9 61.5 69.4 72.2 75 76.6 75.6 72.8 65.1 61.1
383.2 384.3 386.6 391.2 383.5 384 391.3 399.1 404.8 410 413 409.1 398.1 387.4 374.1 357.8 336.7 312.4 288.4 263.9 246.5 224.5 203.4 189.6 178.9 163.7 147.4 134.8 128.3 119.1 107.3 99.1 100.9 101.4 98.3 107.8 111.1 115 122.7 127.2 138.4 144.3 142 135.8 130.3 122.3 116.2 117.3 104.6 92.1 87.5 78.4 73.4 66.5 58.5 51.3 48.9 49.3 49.3 48.8 48.6 49.2 49.8 49.9 50.7 51.9 55.4 57.4 60.7 59.4 62.6 68 71.7 79.9 83.7 86.8 89.5 93 99.6 104.4 115.2 123.9 137.5 152.9 169.4 185.5 206 221.4 242 262.6 286.8 306.5 314.4 327.8 337.3 343.7 340.9 337.2 333.2 329.2 333.7 336.3 337.7 342.4 339.4 333.1 342.8 368.5 393.9 420 446.3 474 500.4 527.3 551.5 568.4 582.6 596.1 605.4 609 603.9 590.8 579.5 560.4 546.7 537.7 530.6 524.3 515.5 507.3 497.2 491.3 488.2 485.2 487.8 491.3 494.8 498 501.6 504.5 512.8 525.2 542.6 565.8 580.3 577.9 571.5 558.6 543.5 524.7 504.6 475.4 466 447.9 431.1 426 421 413.8 407.5 403.1 400.1 397.2 392.9 388.5 384.3 375.7 366.6 361.5 354.8 343.9 326.7 308.1 286.6 273.9 264.2 256.8 250.5 238.9 229.5 216.3 206.8 211 205.1 190 169.7 146.5 125.3 107.9 92.7 83.1 78.7 69.1 74 86 92.2 95.4 88.9 85.7 78.7 73
381.1 386.3 390.9 395.3 395 392.9 393 401.4 410.5 415.8 421 418.5 404.5 387.5 373.9 356.6 331.4 308 279.5 256.2 239 221.1 201.1 183.9 168.7 155.8 149.4 141.9 131.2 118.2 114.6 103.5 103.7 105.1 105.6 105.1 110.6 115.8 124.8 135.4 143.5 149.5 154 152.5 149.4 140.3 130.9 123.7 116.7 109.8 101.5 90.4 82.6 74.5 65.4 55 49.9 49.2 49.1 48.7 50.1 50.8 51.3 51.4 52.3 51.8 54 56.2 56.4 58.5 59.8 64.2 71.4 76.9 82.1 87.6 91.1 94.9 99.8 102.4 106.8 113.5 124.6 137.2 151.3 167.1 184.1 199.5 217.8 235.5 255.5 273.6 286.2 296.3 306.8 313.5 314.9 311.6 311.5 308.2 312.2 313.9 313.9 317.6 313.7 329.8 359.6 382.5 410.8 437.3 464.1 492.3 517 539.6 562.5 582.1 594.5 603.4 610.6 618.7 620.5 615.8 604.7 591.1 573.3 563.6 551.9 545.1 538.9 528.5 518.5 509.2 503.4 500.4 500.5 503.1 507.7 511.8 517.5 523.6 532.2 545 557.8 581.2 590.2 589.3 577.4 558.1 531.8 516 505.1 480.1 467.4 451.1 447.3 436.6 432.7 427.3 418.4 410.7 410.3 408 401.7 400.2 396.9 390.9 382.2 377.4 368.4 357 341 319.1 299.9 289.8 278.3 270.5 261.7 255.5 243.4 234.4 222.4 223.8 222.8 213.1 189.8 162.3 139.6 116.6 100.7 89.8 84 78.8 74 95.3 105.1 107.6 111.5 112 97.1 83.8
382.7 390.4 394.9 399.9 398.3 398.3 395.3 403.1 412 422.4 424.6 422.7 407.7 388.6 372.8 349.7 325 299.3 273.3 249.9 228.4 212.1 194.2 176.8 163.3 156.4 150.2 144.6 132.9 121.9 114.9 107 105.6 108.4 112.6 110.6 110 119.9 127.4 136.6 146.5 154.5 164.8 165.6 162.3 159.9 149.9 144.2 131.6 123.3 117.4 104.1 93.2 83.4 73.2 63.8 58.4 56.5 52.1 50.7 50.1 51.9 52.1 51.5 53.1 53.3 54.8 57.4 56.8 58.6 60.6 62.4 68.1 73.9 80 88 90.7 94.5 97.4 100.1 104.4 109 116.6 123.4 136.6 150.6 163.7 176.9 194.2 211.5 228.7 250.2 260.2 268.8 280.2 287.2 288.1 289.2 289.8 288.4 291.8 294.3 292.1 297.3 325 346.4 365.6 394.1 416.1 445.9 473.3 500 526.8 549.4 570.6 585.6 597.9 610.8 617.8 625.4 632.3 630.6 628.9 623.7 609 597.2 589.8 583.4 572.8 558.3 547.6 536 527 522.1 518.9 520.5 522.6 526.8 534.7 543 552.8 566.1 581.2 600.6 603.7 595.3 578.3 550.9 526.7 512.1 503 492.4 473.7 460.3 456.3 452.2 441.9 436.8 434.9 427.9 420.7 419.5 416.2 411.5 409.9 408.1 400.4 389.1 381.1 375 357.7 337.6 317.2 303.4 293.5 285.2 276.7 267.2 259.8 250.7 239.6 238 235.1 224.3 208.2 174.8 148.4 123.2 107.6 96.3 89.2 82.3 87.4 105.3 114.2 120.4 127.2 130.7 124.3 106.4
384.5 396.8 397.3 400.1 399.6 398 397.6 401.8 416.2 428.8 427.1 422.3 410 390.7 369.8 347.2 320.7 291.3 264.4 243.8 221.5 203.5 185.5 172.9 162.9 157 148.9 144.1 136.7 124.7 114.3 108.2 109.5 115.4 121.1 119.5 115.6 120.7 129.2 138.9 148.5 160.9 167.2 175.9 176.8 180.1 181.7 170.6 161.4 143 133.1 119.5 106.4 96 84.1 75.5 71.1 64.3 57.8 55.4 53.4 53.4 53.3 53.6 53 54.7 53.3 57.1 58.5 58.7 58.9 60.5 66.5 72.5 81.4 91.5 92.9 91.8 96.1 99.5 102.5 107 110.4 117.4 124.9 135.2 145.8 158.6 172.4 189.3 205.3 221.8 233.4 245.9 252.8 260.5 264.8 267.2 268 268.2 270.6 272.3 295.2 311.3 329.2 344.4 368.6 390.8 415.1 445.4 475 504 533.7 557.2 580.3 592.3 603.5 613.2 622.3 632.7 637.3 644.4 638.6 633.9 631.1 632.8 631.4 628.9 610.3 594.3 589.2 578.3 564.2 554.6 547.3 544.1 546.5 551.4 558.1 568.4 579.9 590 607.1 616.2 615 597.2 572.7 551.3 532.3 514.6 507.4 498.1 485.6 476 466.6 459.4 455.5 452.4 444.8 440.7 431.9 428.1 426.3 424.8 423.2 420.6 414.7 404.8 397.1 389.6 372.8 356.3 337.5 321 310.1 298.7 291.2 282.7 274.5 266.4 257.2 248.2 243.9 233.1 218.7 186.3 154.1 131.1 113.5 102.8 94.9 88.7 97 114.8 127.2 133.4 139.3 142 138.7 127.6
384 389.5 396.9 403.9 399.4 399.3 399.6 403 414.7 433.9 434.7 422.4 410 390 363.5 341.4 313.9 286 259.5 235.7 214.1 194.4 180.9 170.1 162.8 155.8 146.3 141.1 135 125.1 114.8 113.4 118.2 121.5 131.6 125.9 123.8 120.5 133.7 139.3 149.7 165.3 176.3 181.8 186.9 192.4 197.2 194.5 181.1 166.3 150.1 134.2 118.7 105.7 96.9 88.7 81.8 73.7 67.3 62.6 58.2 57.1 56.5 55.3 55.7 56.6 54.3 55 57.2 58.7 60 63 69.8 77.6 83 84 88.1 92 96.9 100.9 102.6 108.1 110.5 113.1 118.9 126 135.5 146.1 156.2 172.1 188.2 201.4 215.1 223.6 231.5 240.7 242 244.1 245.5 256.3 270.9 292.3 303.5 323.4 340.7 363.5 382.9 405.9 431.3 456.8 480.8 511.1 535.9 560.3 576.6 590.3 610 621.4 628.9 629.4 633.6 637.5 634.7 635.7 633 633.9 637 643.3 641 639.2 627 611.9 601 590.9 584.7 580.4 581 582.3 585 593 605 620.1 633.8 633.8 616.7 591.2 568.2 553.6 541 523.1 509.2 500.1 493.8 486.6 482.9 473.9 461.9 462.8 460.7 451.1 445.8 441.9 440 438.1 435.6 432.5 427.9 419.5 411.6 402.9 395.3 378.3 362.6 344.2 337 316.8 304.8 297.4 288.4 281.4 270.9 262.8 252.5 244.6 221.4 192.6 160.8 136.3 118.2 107.9 100.5 93.8 106.6 124.2 136.5 148.5 150 149.2 148.9 141.6
384 387.5 399.8 407 404.1 399.7 400.7 405.2 416.6 435.7 435.2 424.4 407.1 386.4 362.4 334.7 307 277.5 250.8 226.7 205.8 189.6 178.6 168.5 160.5 147 139.5 131.4 130.3 120.3 114.1 112.2 117.3 122.2 128.7 132 131.6 135.4 132.8 136.5 154.1 167.4 181.4 186.9 195.3 205.7 209.7 213.5 201.2 189 167.9 151.9 135.7 122.7 111.7 103 94.4 86.3 79.2 70.6 64.5 62.6 60.1 57 55.6 57.3 55.4 54.2 56.5 59.5 60.6 65.3 71.6 72.2 72.6 78.4 85.3 92.1 96.9 101.3 102.1 107.4 109.8 110.6 114.7 119.3 127.7 140 147.9 158 169.4 182.1 196.7 211.9 222.3 221.4 232.2 251.2 264.8 283.6 296.3 314.7 327 343.2 360.3 382.9 405.1 428.3 450.3 477.9 505 528.6 548.8 564.3 576.2 588 601.2 615.2 625.5 626 622.3 627.4 625.2 628.6 631 632.3 631 632.7 631.3 631 627 622.8 615.6 612.8 611.1 613.6 616.1 618.1 622 631.1 645.4 658.9 660.3 645.3 611.7 583.8 567.6 557.2 547.6 534.8 518.6 507.1 499.1 494.2 491.4 488.6 486.2 471.5 466.4 463.4 461 456.5 453 450.5 445.4 440.9 435.6 430.2 422.2 414.3 406.4 397.5 383.3 369.5 368.4 344.5 322.1 311.7 300.7 290.3 281.6 265.4 259.3 252.6 233.1 192.8 164.3 140.6 122.8 111.7 103.9 97 115.6 134 147.5 155.7 159.9 157.6 156.5 156.4
384 386.1 394.3 405.8 408.3 402.3 401.6 403.9 413 432.7 431.8 426.6 403.7 382.6 357.4 328.1 301.2 270 242.7 219 200.6 189 176.9 164.7 153 142.8 139.4 140 133.2 123.1 117.2 118.3 120.2 120.5 128.5 136.3 137.9 139.7 142.7 142.3 156.6 170.2 187.3 199 209.4 216.5 224.7 231 225.4 209.1 191 172.4 154.3 140.7 128.5 116.9 107 96.8 90 80.8 73.8 68 64.6 58.7 57.6 57.5 57.4 56.3 55 57.7 59.9 62.6 67.4 70.8 72.1 76.4 81.4 87.6 93.8 98.9 100.6 104.7 109.7 112.3 114.4 118 125.1 131.1 142.5 154.5 165.6 172.6 181.7 193.5 204.4 227.6 249.5 273 291.8 308.8 325.7 340.4 355.6 370 386.8 406.6 423.7 446 474 490.6 511.9 533.2 552.4 560.1 568.8 582.3 594.5 602.3 610.1 609.9 605 610.4 611.4 614.5 619.9 621.9 618.8 619.2 616.3 615.9 610.1 607.9 606.5 597.8 605.6 613.6 622.6 632.6 643.6 658 671 677.7 673.1 647.3 611.2 584.6 570.9 559.5 549.4 538.7 526.6 521.3 508.1 504 496.1 493.8 495.5 489.2 481.1 477.3 470.9 468.1 461.2 455.3 449.8 444.9 438.3 434.2 428.8 420.1 412.7 407.7 400.7 388.3 377.6 366.3 343.4 329.7 319.9 299.8 283.7 268.2 259.2 250.1 240.1 195.7 164.5 142.4 126.2 115.2 107.6 108.2 125 145.5 156.3 163 165.8 165.8 166.2 170.3
384.9 381.3 387.9 394.7 396 398.5 401.1 402.6 407.6 417.5 423.4 422.2 402 376.5 351.1 321.9 291.3 262.5 235.4 213.9 196.7 186.6 171.1 160.6 150.4 141.7 140.1 142.2 141.1 128.3 119.9 122.2 124.3 127.1 133.5 142 143.1 143.8 148.2 147.6 158 171.5 188.9 203.3 218.4 227.4 237.8 245 242 231 216.8 198 176.9 161.1 151.6 135.8 123.5 111 105.1 96.1 86.9 78.4 70.1 61.9 60.2 59.5 58.3 59.6 58.2 56 56.8 59.3 61.8 64.7 71.2 73.4 79.3 84.9 90.5 94.5 100.3 103.1 106.9 110.4 111.5 114.4 120.4 125.8 134.3 147.4 165.3 179.6 193.7 207.2 224.5 238.9 259.9 284.8 305 317.8 336.2 349.7 364.8 378.6 400.7 417.6 437.4 452.2 471.1 497.5 514.4 526.6 540.4 548.9 557.2 571.9 580.2 581.4 587 586.3 586.1 593.2 592 595.2 601.5 604.6 602.2 599.2 596.4 594.8 589.5 586.1 584.3 576.2 583.9 594.2 610.6 631.9 648.1 666.3 678.7 682.7 681 649 614.4 593.5 580.6 572.2 562.5 553.1 550.5 542.8 530.4 514.5 512.7 507.5 506.7 503 495.1 487.7 479.3 470.8 465.3 457.3 450.7 445.7 437.7 434.6 430.6 423.5 418.7 413.3 406.3 398 388.9 379.8 360.5 342.3 333.1 310.1 287.9 270.1 261.3 252.5 238.9 196.7 165.3 144.3 127.8 118.9 110.7 118.1 134.3 152.7 164.3 168.2 170.7 172 176.7 182.4
378.7 378.2 382.4 384.9 389.8 393 397.4 401 404.3 411.1 418.9 420.8 393 370.5 345.8 313.8 282.5 254.7 230.9 207.1 200.2 186 176.6 166.2 155.7 140.8 145.6 143.5 139.4 128.1 122 126.1 130.9 133 134.4 143.6 147.3 150.5 152.9 156.3 160.5 181 196 209.9 223.3 236.7 246.1 251.3 251.8 250.4 238.5 228.8 208.6 189.3 175.2 157.7 142.1 130.2 120.1 107.2 98.7 87 79.2 70.9 64.6 62.5 61.1 60.7 61.7 59.6 56.7 60 61.5 64.8 67.8 71.1 76.3 81.7 86.7 91.5 97.2 99.8 103.1 104.7 106 109.8 115 120.1 125.7 136.5 153.5 168.3 183.9 202.1 215.7 235.1 252.6 274.1 296.2 312.3 328.7 347.3 360.6 378.1 394.3 416.7 437 448.3 463.9 481.5 498.6 508.1 520.3 526.4 535.3 552.8 559.4 558.6 562.5 562.1 564.2 573.7 575.3 574.4 578.1 583.9 582.1 575.8 574.4 568.7 563.2 560.5 556.5 552.1 556.3 584.8 611.6 635.5 654.3 667.5 681 693.6 697 655 621.4 603.4 592 588.2 582.1 575.4 571.1 571.6 553.9 539.6 531.7 522.3 517.2 509.9 502.5 493 484.4 474.4 465.7 458.5 449.8 444.1 438 430.8 427.5 420.8 418.4 412.7 408.1 403.3 396.1 385.7 367.5 352.7 334 311.2 290.7 274.9 263.6 245 227.7 194.2 165.6 144.1 130.4 119.9 121.3 131.1 147.9 162.2 170.4 173.7 176.7 181.1 186.5 193
371.7 374.7 379.2 380.7 384 389.2 394.8 399.7 404.8 410 412.4 417 390.7 362.8 336.7 304 272 245.5 220.9 203.7 193.2 185.5 180 168.3 155.9 142.9 149.5 148.9 143.1 131 126.5 132.5 138.2 139 143.3 148 151.6 156.6 158.8 167.2 164.5 181.7 199.9 217.4 232.5 244.3 255.4 261.9 264.8 264.3 257.9 250.8 240 220.5 203.3 186.9 164.2 149.6 137.6 122.2 112.3 101.6 92.2 82.1 73.3 68.8 65 62.4 61.3 60.9 56.8 59.2 61.5 65.1 70.8 73 77.2 78.8 85.6 90 93.4 95.8 98.5 99 104.1 108.4 110.5 114.4 121.3 129 142.7 154.7 170.6 188 203.2 221.4 240.8 258.6 278 296.5 314.8 330.9 349.5 366 382.3 398.3 420.4 439.9 449 461.4 473.5 483.3 492.3 494.7 506 516.2 525.3 530.4 534.8 532.7 539.5 546.9 545.4 546.6 550.1 554.7 552.2 548.8 545.6 540.9 534.1 530 524.9 527.6 555.8 584.5 611.2 637.6 659 674.5 686 695.3 701.4 677.2 642.1 625.2 615.3 603 600.8 602.6 598.8 585.2 573.7 555.7 541.5 531.2 522.3 512.9 503 492.4 482.9 476.3 465.4 454.5 447.2 438.9 434.9 427.2 420.8 417.2 412 410.3 405.8 401.1 397.5 386.8 366.6 355.1 333.3 308.3 295.3 280.9 257 239.9 218.4 192.6 161.3 143.6 131.8 123.8 131.1 144.6 158.3 170.1 176.2 182.4 186 186.4 193.2 198.9
360.5 368 369.3 371.9 380.9 386.1 396.5 407.3 406.7 411.5 406.9 408.8 382.1 356.7 326.6 294.2 263.8 236.8 215.3 197.4 188.5 179 170.8 162.9 151.4 145.1 150 149.4 148.5 131.8 131.7 135.4 140.3 142.4 146.6 154.8 162.6 167.2 168.7 173.5 177.1 177.9 207.6 222.3 234.8 250.2 263.2 268.9 273.8 274.7 274.2 268.9 262.9 255.7 235.7 213.3 194 171.8 155.4 140 130.4 115.6 104.2 94.4 82.6 76.1 69.1 65.6 62.6 61.4 58.3 59.6 61.7 64.9 68.2 75.3 79.8 79.7 82.6 87.6 91.3 92.4 94.8 98.4 100.8 105 107 109.6 115.7 124.6 133.9 144.2 155.7 170.4 186.9 204.9 220 237.2 254.9 273.8 292.6 311.3 328.3 347.3 362.5 378.4 393.8 407.5 426 435.3 442.9 452.9 458.1 460.6 467.7 484.6 492 495.8 494.9 502.5 513.3 514.3 515.7 514.9 523.3 525.9 523.6 518.9 515.8 510.1 501.2 498.6 501.2 529.6 557.8 585 612.2 638.8 662.9 680.2 691.1 703.9 709.4 704.5 670.1 646.2 636.7 632.9 626.6 615.6 606.5 590.6 575.1 560.7 547.8 532.9 522 510.1 500.2 490.7 478.9 470.2 463.4 452.8 444.8 436.8 427.6 423.6 415.5 408.5 404.9 401.2 397.3 391.1 386.5 373.8 364.8 355.9 329 308.1 294.1 277 252.3 232.3 208.1 186.9 163.9 146.6 134.2 136.5 140 153.7 166 175.5 181.9 191.1 197.4 201.2 205.8 211.4
353.7 357.2 366.5 366.7 375.5 385.4 405.2 423.6 415.3 419.2 406.1 400 376 347.7 317.1 285.2 255.5 228.6 208.2 194.2 183.7 174.7 167.2 161.5 150.5 148.7 147.4 147.4 144.2 135.9 137.9 141.6 143.9 148.1 154.3 161.9 170.8 181.5 183 185.4 188.6 190 206.8 228.7 242.3 257.3 269.6 277.1 282.7 288 289.6 286 279.6 276.3 267.7 248.8 225.7 198.6 180.3 167 146 128.3 118.2 106.2 95.1 84.2 75.8 68.4 64.5 60.2 59 61.2 62 66.1 71.3 79.1 82.8 81 83.4 86.8 89.4 90.9 92.9 94.9 99 101.8 100.8 104.3 110.7 119.4 129.9 136.2 145.1 154.3 172 187.3 203.9 217.4 235.1 251.1 267.1 283.3 299.5 315.1 330.8 347.6 362.4 371.1 387 397.8 406.2 416.6 422 423.9 433.2 444.2 452.2 458.3 459.5 466.5 475 482.9 481.2 485.2 494 494.8 492.9 488.5 486.2 478.6 468.8 476.7 507.8 536.4 560.9 587.1 618.1 647 663.9 680.6 697 709.2 717.5 721.1 705.3 684.9 670.8 655.9 637.6 625.5 617.1 593.5 575.4 560.8 547.4 533.7 521.2 509.3 498.2 489.4 478.1 467.4 458.6 449.8 440.6 434.2 422.6 414.8 407.8 401.9 395.6 388.6 384.8 374.6 367.3 356.9 347.6 336.5 310.8 295.8 282.8 263.8 241.7 222.3 199.4 178.8 163.1 146.8 147.1 145 148.3 162.1 173.7 181 190.5 201.1 211.6 217.7 222.4 233.5
350.5 354.2 362.9 365.9 373.2 393.1 408.9 433.9 432.9 428 409.6 388.8 369 342.2 309.5 277.5 247.8 220.7 200.1 187.7 178.2 173.5 169.8 159.1 150.8 150.8 146.7 147.9 142.7 137.2 142 147 150.4 153.3 161 170.6 183 193.1 203.6 205.5 205.6 208.4 207.3 230.4 246.5 263.6 274.2 284.1 290.7 294.4 297.4 298.2 304.8 304.1 290.8 274.7 258.9 230.1 207.7 186.2 167.4 148.8 133.4 123.2 107.5 94.6 81.8 73.7 66.1 60.3 61.5 60.9 62.6 67.8 70.6 76.6 83.5 81.5 84.2 86.6 89.2 91.6 92.6 95.4 95.9 98 97.8 103 108.7 114.8 124 134.7 136.3 141.3 151.3 168.6 181.7 200 213.3 227 240.2 252.9 267.7 281.9 299.2 311.5 327.7 337 348.8 358.9 370.5 376.3 382.1 387.5 395 405.8 413.8 419.5 424.3 432.8 441.9 448.5 447.7 457.5 468.2 464.1 462.3 458.5 457 450.4 450.6 484 512.3 537 563.1 589.8 616.6 641.7 665.6 682.8 698.7 713.2 722.3 727.8 730.1 723.7 710.5 683.7 653.4 624.2 607.7 592.4 573 557.4 543.9 530.8 520.1 507.9 497.1 485.5 475.7 466.7 456.6 442.4 432.5 415.4 417 408.4 396.4 389.5 382.2 372.9 365.5 356.8 346.2 334 327.3 311.6 295.3 280.6 266.7 246.6 227.6 209.2 190.9 175.4 160.1 157.2 157.9 157.7 156.2 169.5 180.1 189.7 204.8 215.5 225 235.8 244.3 251.4
349 352.7 356.3 361.9 373 386 414.6 427.6 443.5 438.1 411.6 388 363 334.3 300.2 265.3 240.2 215.1 194.9 181.4 174 167.2 160.5 155 149 145.8 143.8 142.1 139.1 140.1 142.8 153.4 160.9 162.9 170.8 182.9 192.6 210.9 230.4 231.5 227 224.8 219.1 226.9 249.5 259.7 274.7 285.7 294.1 299.4 302.9 307.6 311 317.9 312.9 295.9 281.6 254.8 230.8 210.9 189.7 169.4 152.7 136.5 120 104.9 89.7 78.7 69.4 63.4 60.8 62.2 64.3 67.3 69.3 74.5 80.7 80.6 83.2 85.7 88.2 90.4 91.3 92.2 94.2 95.3 96.8 100.4 105.4 110.2 114.3 122.7 132.3 134.9 138.7 150.1 163.6 179 195 206.4 217.1 229.8 242 249.7 265.8 277.8 291 300.2 313.6 324.1 334.4 344.2 345 349.7 362.3 368.9 376.6 385.7 392.4 401.6 408.6 413.5 415.2 424.6 434.1 434 435.3 430.5 428.6 421.5 454.3 480.8 501 527.5 552.5 579.9 610.6 637.3 662.2 683.9 702.4 719.3 728.2 737.3 741.1 740.2 727.8 699.2 663.5 625.5 598.6 587.7 568.6 552.1 541.1 529.3 518.7 509.8 500.3 487.3 473 460.6 457.7 447.2 432.6 421.6 400.5 393.1 384.1 368.9 365.3 355.1 347.4 337.9 326.5 317.4 309 296.9 279.7 262.1 247.2 228.9 211.7 195.4 173.9 172.8 169.7 168 167.9 166.1 166.1 178.4 187.9 199.1 212.8 225.2 238.6 252.4 267.2 276.1
348.9 353.9 356.3 361.6 371.1 379.6 393 416.9 444 453 413.4 385.5 358.5 330.3 298 261.9 235.2 207.7 189.7 177.9 171.6 165.1 160.2 153.2 146.4 146.4 144 144.8 140.8 142.5 147 154.4 168 173 182.9 198.2 213.4 228.5 254.1 259.7 251.8 241.3 235.6 226.8 239.6 259.4 274.9 287.3 294.2 299.9 306.6 309.5 321.8 323.3 317.6 313.2 297.1 282.7 261.6 237.6 212.6 188.8 168.6 149.5 135.8 114.1 98.8 85.7 75.4 67.9 64.1 61.7 64.4 67.9 69.2 70.4 75.8 80.1 80.6 83 86.3 88.5 90.9 90.6 91.7 95.1 99.3 99.2 102.3 105.2 108.3 115.5 124.4 128.7 132 137.1 146.2 161.8 172.6 183 194.8 206 214.2 223.4 235.3 245.3 256.6 264.9 278.6 288.5 295.4 305.7 310.8 317 325 334.7 343.6 352.5 357.3 369.3 377 384.1 387.7 394.5 407.9 406.3 407 404.7 399.8 426.1 455.7 467.7 488.2 507.9 535 565 599.7 631.5 664.1 685.9 706.1 719.7 736 745 750.4 748.5 736 696.3 659.1 623.7 591.9 579.1 567.7 550.7 539.1 529.3 520.7 512.1 500.6 492.3 486 476.6 465.8 452.5 437.3 425.1 408.2 390.3 367.6 353 344.1 340.2 327.9 321.5 310.3 302.5 288.4 278.6 263.7 246.6 229.5 210.6 205 200.6 194.2 187.6 182.3 181 178 175.3 176.5 190.3 198.6 205.5 221.8 237.7 253.8 270.5 285.6 298.1
347 351.3 352.2 357.5 361.7 371.9 385.2 409.2 436 446.3 412.6 381.7 353.5 325.2 290.9 257.2 230.6 205.9 187.7 175.9 169.5 162.3 160.4 151.3 148.5 151.8 142.6 142.6 143.8 146.2 148.9 157.9 170.4 183.2 195.8 211.7 234.8 255 276.2 281.9 273.1 261.3 251.3 244.5 234.4 251.9 273.6 285.4 297.5 307 309 311.9 317.8 322.5 323.2 329.3 330.6 303.1 287.7 263.1 237.8 209.7 187.6 168.4 145.3 129.9 111.2 97 83.5 73 68.3 62.1 63.4 66.9 69.1 69.4 71.5 77 80.1 84 84.9 87.5 88.6 90.5 91.3 95.9 99.9 101.6 101.3 104.1 107.6 113.3 121.3 121.9 126.1 129.5 134.4 142.4 152.2 162.3 175.9 186 191.8 197.4 207.1 216.7 226.6 234.8 246.1 256.5 265.6 274.3 279.1 287.1 295.2 302.1 313.8 323 329.4 337 343.3 353.8 360.2 367.7 376.6 382.1 386.2 379.4 405.2 421.1 432.3 455.8 473.1 496.7 521.1 551 585.4 622.8 656.8 685 707.2 727.4 741 748.1 757.8 755.7 732.3 687.7 650.2 617.6 591 575.7 566.3 551.4 541.2 532.3 522.2 513.4 507.7 499.8 489.7 481.2 468.4 454.4 440.2 426.3 407.5 389.1 373.6 357.1 343.1 328.4 313 305.6 293.3 282.3 271.9 259.7 246.9 235.1 234 227.6 218.8 214.4 210.6 203.6 199 192.9 190.9 187.9 190.6 195.7 209.7 218.1 233.6 248 268.4 284.8 305.2 322.5
346 349.3 351.6 354.1 357.2 365.7 376.6 405.8 435.5 434.6 407.6 379.6 348.2 314.6 283.6 251.3 227.1 203.7 189.4 175.1 166.9 161.1 156.8 151.5 149.9 148.7 145.5 145.9 148 152 160.8 167.2 179 192.6 209.2 226.8 247.3 277.6 304.6 308.6 295.4 283.6 271 259.9 252.2 245 272.8 286.9 297 309.1 313.5 319 318.2 322.2 326 334.7 339.5 325 308.5 284.8 256.9 231.3 205.3 181 161.9 141.2 121.6 105.9 93.3 80.4 72.7 67.3 63 65.6 68.6 70 71.4 76.2 80 86 86.9 85.2 86.8 89.4 90.9 92.9 99.3 102.1 101.5 105.3 108.3 111.3 113 118 121.3 124.5 128 132.5 140.5 150.6 162.6 169.1 172.8 176.9 184.7 193.4 202.7 209.8 219.9 229 238.2 246.4 251 258.5 267.8 275.9 285.7 294 302.8 311.3 320.1 327.6 337.9 346.3 353.1 360.5 363.6 369 383.9 401.5 421.4 448.3 471.9 494.6 516.9 543.6 574.7 613.9 650.7 682.6 706.1 727.6 746.2 757 763.3 760.3 717.5 680.3 644.8 617.8 593.7 573 562.9 553.7 542.7 533.9 527.5 523.5 515.1 505.2 495.8 485.1 469.1 451.3 440.7 426.2 404 383.1 370.3 354.4 338.5 322 308.2 293.4 282.1 270.6 262.2 261.4 257.3 253.3 244.6 245.4 234.7 232.1 229.5 221.8 215.5 205.9 200.6 199.8 206.8 203.1 218.6 230.7 244.9 261.3 282.6 305.9 324.8 339.1
344.4 349 352 353.8 357.2 363.1 369.7 384.7 425.2 444.8 405.4 373.8 340.2 307.5 275.1 245.1 221.4 201.4 186.4 174.8 167 160.3 155.6 155.2 155.7 152.2 146 147.9 151.2 153.7 168 175.4 191.3 202.9 222.3 242.7 265 291.9 322.5 334.2 317.7 305.3 291.8 278.2 265.9 251.7 263.3 279.6 295.6 308.7 315.7 323.6 332.9 329.6 330.4 334.6 344.8 338.2 326.7 309.8 288.6 256.4 228.6 199.8 176.2 154.4 133.2 115.6 102.8 90.9 77.7 71.5 64.4 65.6 69 72.1 72.8 77.9 80.8 82.6 83.1 83.6 85.4 88.2 90.5 92.1 92.3 101.1 102.8 106.4 109.7 113.1 115.7 118.2 119.4 121 124.1 127.3 132.3 139.7 152.4 152.8 158 162.3 169.6 174.7 183.1 189.8 198.6 205.3 212.9 221.8 229.3 235.7 246.5 252.7 261.4 271.2 280.4 287.6 296 306.6 317.4 324 331.4 337.5 355 376.4 395.7 416.9 436.8 455.8 476.1 497.9 519.4 543.9 574.7 610.6 650.9 686.9 706.3 723 740.6 756 757.1 755.6 709.5 676.5 646.9 614.8 595.9 576.8 560.7 552.9 546.7 541.4 539.6 538.1 530.7 515 502.9 485.8 467.9 451.2 438.6 425.4 403.7 384.9 365.5 347.1 330.4 316.2 297.9 285.2 276.9 275.7 275.1 271.3 270.1 267.5 262.2 256 255.2 252 248.5 250.6 233.2 223.5 218.8 219.1 223.8 220.7 231.8 243.1 256.6 276.2 299.4 319 340.7 356.4
345.8 353.8 352.9 352.9 354.6 359.8 367.2 380 421.9 430 397.2 370.3 333.7 300.5 269.1 240.2 216.6 197.3 183 174.3 165.6 156.5 155.6 158.9 160.9 151.8 147.1 150 159.3 159.7 171.9 181.7 198 214.7 236.8 257.4 281.5 309.3 335 353.7 337.9 322.3 308.5 297.6 283 270.3 257.1 274.9 295.2 308.6 317.4 324.3 340.3 346.1 349.3 343.9 350.7 353.7 342.9 326.9 303.1 279 251.8 221.6 194.2 169.8 150.1 127.3 113.7 101 87.5 75.3 66.7 67.9 67 70.6 73 75.1 78.3 80.3 80.1 81.8 84.4 87 89.6 91.5 92.4 98.7 103.6 106.9 110.3 112.8 115.7 119.4 120.1 120.5 122.1 124.2 128.2 133.2 144.6 145.3 149.4 154.9 159.9 166.2 171.7 175.1 180 190.5 196.2 202.9 211.8 219 227 233.1 242.1 254.2 260.3 270.6 278.9 290.1 300.3 311 329.2 348.1 369 390.6 410.5 432 451.4 471.2 489.4 508.6 528.7 553.2 582.2 617.3 660.7 688 704.9 719.7 733.5 746.9 757.8 746.7 707 668.9 640.3 614.8 597.1 580.6 562.6 556.9 553.2 548.6 547.8 551 544.7 526.7 509.6 489 465.9 450.9 436.5 422.1 402.7 383.5 365.8 347.9 330 309.4 290.9 289.9 288.4 288.7 286.9 281.2 280.6 277.9 277.3 272.5 270.9 271.5 268.3 266.7 260.3 245.8 238.1 236.8 233.7 232.4 246.3 258.8 269.7 288.2 306.3 327.6 353.7 369.5
343.1 352.7 351.1 354.5 354.6 358.7 361.1 372.2 391.5 405.9 386.3 362 326.1 292.2 261 234.5 212.4 195.8 179.5 170.6 163 162.4 157.2 156.7 160.5 152.8 149.7 157.3 162.2 165.4 175.6 189 205.4 224.9 248.5 272.4 300.2 322.7 346.6 364.1 363.5 342.1 327.1 312.6 299.8 284.3 270.2 270.4 286.8 306.5 318.3 329.2 341.6 348.4 355.6 362.9 355.3 354.2 359.5 347.5 324.3 298.5 272.9 242.7 214.5 190.5 165.2 143.3 124.6 110.1 95.2 81.1 73.1 68.3 70.9 71.9 72.8 74.4 76.7 80.4 82 80.2 82.3 86 87.4 87.7 92.7 96.3 101.8 107.2 110.3 112.6 115.4 117 116.8 116.8 118.4 121 125.4 129.7 137.3 141.3 147.6 148 152.8 158.7 165.9 168.7 175.7 184.3 194.5 210 223.7 233.9 243.5 251.2 258 265.7 273.6 284.7 297.2 309 323 340.8 353.7 370.6 389.1 409.6 430.3 451.4 471.3 492.7 510.4 528 550 576.6 606.6 638.2 674.1 692.1 705 717.4 726.4 734.5 745.4 742.7 704.8 670.6 633.5 615.3 594.6 584 570.7 559.6 555.7 552.9 552.5 554 552.1 535.8 510.2 485.4 468.4 453.2 438.4 420.7 399.1 379.9 358.1 339.9 319.2 307.9 303.8 304.2 305.8 304.7 300.1 296.6 294.9 292.5 291.2 288.3 285.4 283.6 281.4 281.4 277.1 268.3 261.3 252.6 241.4 244.1 255.5 271.1 280.3 294.3 312.7 338.7 366.3 383.4
346 352.9 349.7 349.7 349.7 354.1 361 368.9 384.5 384.2 376.6 352 315 282.9 253.6 228.7 208.3 191.6 176.7 167.7 161.9 160.3 157.3 155 157.7 152.8 150.1 161.3 170.6 172.7 182.8 198 214.3 235.7 259.2 287 315.2 341.2 361.9 378.6 387 367 349 329.1 315.2 301.4 284.6 273.2 282.5 297.9 313.6 329.9 341.8 352.3 359.8 371.3 373.3 371.6 362.2 358.6 346.1 316.3 291.3 261.4 232.3 205.9 181.7 157.7 137.7 120.9 107.1 90.6 78.3 71 69.6 72.4 73.5 74.9 77.8 77.8 78.9 81.3 81.6 80.2 82.8 83.3 88.6 91.1 98.6 105 109.7 110.1 111.6 114.3 115.4 118.5 120.9 121.1 121.6 123.4 127.4 136.6 139.8 142.7 148.6 154 157.5 161.2 167.9 175.3 181.2 191.9 208.5 219.1 227.5 239.9 248.4 264.8 283.9 302.9 318.2 334.2 351.4 365.5 383.3 397.7 413 432.2 455.2 475.9 501.8 529.3 547.1 561.2 580.3 606.2 636.2 659 677.4 691.8 703.6 712.2 720.1 725.6 731.5 738 702.5 668.9 631.3 611.4 597 587.5 577 566 558.7 555.2 550.5 551.7 551.3 532.2 501.6 482.3 467.9 454.1 437.4 415.4 391.9 371.2 351 329.9 324.7 322.7 324.1 324.9 323.7 319.8 312.8 308.2 307.5 306.7 305 303 300.8 297.4 296.2 293.7 293.1 287.5 281.8 273.7 252 257.2 268.9 276.7 290.6 307.5 319.2 340.8 374.2 392.9
330.6 352.4 353.4 349.7 349.7 349.7 357.7 362.4 369 374.1 367 338.1 303.2 274.1 246.5 223.2 204.3 189.5 174.3 165.6 160.4 157.4 154.7 153.5 157.8 150.5 150.7 162.8 173.5 181.2 189.7 207.8 224.7 249.1 270.9 298.7 330.6 357.8 376.6 392.8 404.1 391.5 367.8 349.1 332.2 317.6 301.2 288.9 278.3 294.2 310.6 330.4 341.1 353.4 364.8 375.2 379.6 386.6 386.5 373.3 362.3 338.3 305.6 279.3 251.9 222.6 197 172.6 150.5 134.5 120.2 104.1 88.9 76.2 70.7 73 74 75.8 79.5 82.2 82.4 83.4 84.9 83.7 86.6 90.1 93.4 98.2 101 101.6 103.3 105.9 108.5 109.7 119.2 120.8 123.1 127.5 130 130.9 132.3 131 132.1 135.2 139.7 145.5 148 159.1 160.4 164.2 169.5 178.4 191.2 202.5 210.9 223.4 238.2 247.2 263 282.1 300 317.4 339.7 362.4 390 412.3 433.8 455.4 479.3 504.4 526.1 548.6 575.6 594.7 612.7 632.8 648.8 661.8 673.1 684.2 696.5 704.1 711.8 717.3 720.5 723.6 700.1 666.7 631.8 609.2 597.4 586.9 579.3 572.6 564.6 558.1 552.9 544.4 544.7 520.9 497.1 481.1 470.7 456.8 435.6 410.6 386.8 365 346.2 345.9 348.9 342.9 343.6 341.8 339.7 336.7 332 323.3 324 325.8 325.9 320 320.2 313.6 313.6 313.6 307.8 302.1 295.7 287.8 268.8 274.9 283.1 289.2 299.6 316.6 327.9 347.9 380.1 403.5
311.2 337.9 349.9 349.7 349.7 349.7 352 361.3 364.5 363 349.1 329.4 293.3 263.5 241.2 220.6 201.8 189.2 173.1 163 155.7 153.4 151.6 150.3 153.8 152.5 157.3 166.3 174.3 181.1 197.2 210.8 232.2 257.3 285.9 314 341.4 369 391.4 409.6 419.5 417.2 397.4 371.1 351.7 335 317.5 302.8 290.9 287.9 309 327.9 343.8 357 366.9 378.3 388.5 407.8 409.4 401.1 374.2 354.8 331.2 297.7 267.5 241.3 213 187.7 163.4 147.3 132.3 115.7 96.9 83.3 71.6 73.1 74.4 76.8 79.3 79.9 82.7 85.5 87.4 88.4 89.8 93.8 94.9 99.1 103.2 107.3 107.4 108.5 111.6 113 119.8 128.3 129.8 129.7 133.6 136.7 138.1 141 140 139.6 140 140.4 140.6 149.5 151.4 156 162.9 168.7 179.9 192.8 199.8 210.5 219.7 230.2 242 259 278.9 300.2 319.7 344.3 368.1 396.2 418.6 443.7 468.4 499.5 532.5 557 579.3 601.9 617.4 634.6 648.5 656.8 664.2 671.9 680.7 691.8 701.2 707.3 710.2 709.6 695 661.6 632.1 614.7 599 590.2 582.1 575.5 567.7 559.8 552.3 541.2 533.7 517.1 496.3 483.6 471.4 455.7 430.7 403.2 379.6 365.1 361.4 364.8 368.4 365.2 362.6 359.8 357.5 356.5 354.2 346.3 343 350.1 354.2 351.4 344.9 337.6 330.3 324.2 324.1 312 306.3 294.8 288.3 295.1 300.5 307.7 313.9 328.2 342.4 359.5 391.6 413.5
291.7 322.5 344.8 352.4 349.7 349.7 359.1 363.5 362.3 350.5 334.5 309.7 282.5 255.9 230.2 213.5 197.4 184.1 171.5 159.4 151.2 146.6 145.4 146.4 148.5 149.6 153.6 164.1 174.4 185 199.5 219.9 241.3 265.8 295.4 323.9 355.1 378.4 404 422.3 437.9 437.9 423.2 395 370.2 352.6 335.4 319.9 308.7 291.2 301.6 322.9 342.4 361.5 372.5 382.8 392.8 406.7 414.3 416.7 399.9 373.7 344.6 310.7 286.1 259.3 230.9 204.9 178.7 158.1 142 125.4 104.8 87.1 76.3 72 74.6 76.6 77 79.4 81.9 85.2 88.7 90.8 91.5 97.4 96 99.5 104.2 110.7 112.6 110 111.8 115.3 121 127.6 132.5 135.2 139.8 142.7 144.5 149.2 150.6 152.2 150.4 152.1 150.8 148 143.6 148.9 155.5 165.8 169.2 174.2 186.9 195.5 204.2 215.8 222.2 238.5 260.4 276.9 298.7 321.2 346.5 374.4 396.2 422.1 449.3 478.3 511.4 533 556.8 582.6 606.9 627.2 634.2 641.3 645.3 654.2 663.7 673.2 685.6 696.4 701.8 705.9 703.3 670.9 643.4 620.3 607.3 594.4 584.8 575.3 567.8 559.2 550.9 542.4 529.8 517.1 499.6 484.9 467.9 448.4 419 394.5 391 388.9 382.1 382.1 385.2 384.4 382.6 379.8 378.5 377.9 373.8 363.6 363.4 370 375.7 372.1 372.9 357 346.7 335.9 334 326.8 313.3 307 306.6 311.9 312.7 322.4 333.2 342.1 359.5 375.9 400.1 422
279.1 314.1 333.5 351.3 350 350.7 353 354 355 343.5 323.7 296.5 270.5 247 227.8 206.9 193.9 180 168.8 158 148 144 142.2 143.2 145.7 149.4 152.7 161 171.4 184.2 200.5 219.8 243.8 272.3 304.4 334.1 364.3 392.2 417.3 434.9 447 452.5 444.6 419.3 389.9 368.5 352.3 336 324.9 311.5 297.3 315.4 337.8 360 381.6 400.6 410.3 415 421.5 426.3 418.4 397.5 359.4 337.3 298.3 272.8 248.7 224.1 195.4 174.8 156.5 135.8 113 93.6 81 73.1 74.2 75 77 79.5 81.6 83.9 86.7 88.7 90.5 102.3 102.8 101.1 108 111.9 115.6 114.6 115 121.6 124.3 130.1 138.6 142 147 148.7 150.8 155.6 157.5 163 164.4 169.2 168.2 167.4 163.4 160 158.9 155.5 155.9 163.3 172.5 183.1 189.3 200.6 207.3 223.5 241.4 264.8 280.6 300.7 325 345.1 373 397.6 425.8 457.4 482.9 505.9 531.7 557.8 584.9 604.4 615.2 619.6 624.3 633.9 644.2 658.4 668.8 685.4 694.9 700.6 703.2 694.6 664 636.6 615.3 598.5 585.9 576 567 558.3 551.3 544.1 529.2 516.4 501.8 486.8 471.7 450.7 427.5 423.2 416.4 408.1 401.5 401.2 403 398.8 397.8 397.4 395.9 394 390.1 385.7 380.8 380.6 392.1 394.7 390.6 380.2 363.7 348.4 341.5 336.1 321.4 316.2 321.4 325.6 326.8 336.1 347.9 355.8 373.5 396.7 427.2 434
262.7 288.4 327.8 344.3 341.9 339.7 345.1 340.5 342 331.3 314.4 288 263.2 243.2 224 202.9 187.7 174.8 163.9 154.5 145.9 142.4 141.2 141.7 143.8 147.6 153 160.7 168.5 183.1 200.5 223.3 249.5 277.8 308 340.4 371 402.4 427.5 445.8 459 467.5 465.6 440.9 411.9 391.8 370.9 354.8 342.7 326.5 309.8 310.9 332.8 354.8 379.5 402.8 414.2 425.4 430.7 440 434.3 413.6 381 352.7 326.6 292 263.3 238.6 212.9 188.7 172.2 146.4 124.3 102.2 88.3 76.1 73.2 73.8 75.9 77.8 79.6 81.7 84.7 88.4 91.1 103.1 111.6 111.6 110.7 114.5 117.2 118.9 120.9 127.6 131.2 137.7 143.8 149.1 155.5 157.9 161.8 164.7 167.8 173.2 177.7 184.5 186.2 185.1 180.9 177 174.9 171.9 168.3 165.7 161.3 165.5 177.1 185.9 200 211.4 230.2 246.8 261.7 281.7 301.2 322.3 348.9 372.7 401 428.6 451.2 482.6 506.7 523.8 544.9 575.8 585 592.6 600.9 610.4 624.7 636.8 650.8 671.7 686.4 693.2 704.2 707.4 686.1 657.4 628.5 605.7 588.4 579.7 570.3 560.9 551.2 543.3 534.2 518 506.2 492.2 475.5 462.5 450.2 444.3 438.4 428.2 419.9 414.4 412.6 411.8 409.8 409 406.1 404.1 401.8 402 397.4 396.1 398.3 405.3 404.2 399.1 377.2 360.4 352.1 341.1 332.7 324.2 328.7 334.4 337.3 346.7 360.8 377.3 397.5 420.3 443.8 446.7
241.5 278.1 306.2 332.6 338.8 336.8 335.9 332.8 328.1 321.1 302.6 280 255.8 236.4 216.8 200.5 186.4 175.4 160.8 150.7 144.8 140.6 140.7 141.4 142.9 147.2 153.2 159.3 167.1 184.4 201.6 226.1 251.6 279.4 311.4 345.1 377.2 407.6 434.4 453.6 466.3 479.5 483.8 470.9 436.4 412 394.1 377.4 359.9 343.3 327 314.1 326.8 349.6 374.2 399.3 422.6 439 456.4 464.4 455.4 434 401.3 366.6 344.2 304.9 280.8 249.9 225 200.7 179.4 154.3 131.9 108.9 92.2 80.2 72.2 73 74.2 75.8 78.5 80.7 83.5 88.3 92.3 104.9 114.8 121.1 118.8 118.4 122.2 125.8 127.8 133.9 137.1 145 150.2 154.7 164.3 166.4 169.1 175.3 179.4 182.2 190.3 194.2 197.6 201.5 201.7 200.2 191.9 189.4 185.5 181.4 177.2 172.4 166.9 173.7 184.6 199.3 212 230.1 246.9 262.4 281 302.8 323.2 350.7 375.7 401.9 429.5 452.6 474.2 489.5 515.4 542.6 552.7 563.5 573.5 587.4 605.7 619.3 635.9 656.1 672.2 688.8 711.5 717.8 714.1 677.1 645.2 614 592.1 580.9 572.9 565 554.2 545 536.6 523.9 507 495.6 482.7 471.9 462 458.7 452.6 443.8 433.1 425.3 420.1 424.5 422.7 419 416 417.1 414.8 417.6 413.5 414.2 414.5 416 418.5 408.5 396.1 371.6 358.8 352.1 342.5 339 341.5 347.3 349.9 360.1 377.1 400.3 429.4 449.5 457.9 459
227 258 284.7 322.1 332.2 332.4 324.1 320.1 317.4 313.9 297.6 270.7 245.4 224.5 213.7 197.7 181.1 167.9 156.6 148.7 142.5 140 140.8 142.6 146.7 149.8 152.8 158.6 171.1 184.2 200.9 222.3 250.2 277.7 310.5 345.5 379.4 413.7 443.9 461.6 474.9 489.5 495.3 488.7 463.3 438.5 420.3 397.5 375.9 360.7 345.8 331.7 323.2 347.5 370.8 398.3 428.5 447.9 471.1 470.3 472.1 456.5 422.8 391.1 361.8 345.7 298.5 270.6 239.2 215.1 189.8 167.5 142.4 116.3 95.9 81.4 73.4 72.2 71.6 74.4 76.2 76.9 81.2 87.2 92.7 104.2 114.5 119.3 126.5 124.5 127.8 133.2 137.9 138.1 144.3 150.8 157.5 163.7 168.8 176.6 183.1 187.2 191.5 195.6 196.8 205.8 218.1 216.7 219.9 222.9 214.2 211.7 205.8 199.8 194 190.1 185.6 177.3 171.2 187.5 199.9 213.7 229.5 246.7 263.6 281.6 303.2 325.2 349.8 379.1 401.6 422.4 444 464.5 487 508 524 532.5 544 564.3 585 603.1 621.2 640.5 655.5 675.7 694.8 713.8 729.2 699.3 662.7 625.8 596.3 584 574 565.4 557 548.5 537.7 526.2 511.5 499.5 489.3 481.7 475.1 467.3 461.4 453.6 444.9 436.3 430.6 428.2 429.3 427.5 426.6 424.4 424.3 427.2 430 437.2 436.5 443.2 435.8 420.7 403.9 386.4 370.8 360.1 352.8 352.7 355.8 359.6 370.2 377 396.8 422.5 450.1 463 471.3 470.6
216.1 238.8 269.4 291.6 315.2 328.5 329.4 316.5 313.1 300.9 294.8 270.7 241.2 216.9 202.3 187.4 179.3 166.8 153.6 146.5 140.4 140.4 143.1 146 150.4 153.1 156.3 160.7 173 190.2 211 223.2 252.7 281.8 313.7 346.8 380.5 414 445.7 466.4 480.7 496.6 508.8 504.9 487 462.6 440.4 415.9 396.2 378.5 364.8 346.1 331.7 343.2 369.6 399.3 429.1 455.6 480.4 485.6 482.2 472.4 446 411.4 382.3 354.9 320.6 288 261.2 228.6 203.1 176.2 145.9 122.1 102 86.1 76.8 72.9 72.5 72 72.6 73.7 76 82.1 90 103.6 112.1 117.2 121.9 129.5 130.5 137.3 143.2 149.1 151.6 157.7 167.8 173.2 179.6 190.9 196.8 205.5 205.8 214.5 215.9 218 227.7 239 242.9 239.1 238.6 236.4 226.5 222.1 215.2 208.5 202.1 195.6 185.7 177.7 188.4 202.6 215.3 233.1 248.2 265.6 283.9 303.1 326.6 351.6 372.8 394.2 420.5 437.4 458.9 476.8 491.1 502.1 520.9 543.9 560.4 581.1 604.3 624.6 645.3 661.2 681 700.3 718.8 716.4 676.2 635.7 605.1 587.6 578.2 570.5 562.3 553.8 540.5 529 519.4 508.7 496.3 491.3 486.6 475.4 467.2 461.9 455.5 444.9 442.3 436.4 434.4 435.5 435.2 436 440.7 448.6 450.8 456.1 468 466.9 442.9 427.5 415.4 398.5 384.4 372.9 364.2 367.4 369.4 377.2 384.3 401.2 419.1 445.6 465.5 476.8 478.1 481.2
199.7 233.3 256.1 280.4 289.4 300 321.7 312.5 296.9 289.3 284.1 268.8 230.5 212.8 195 180.1 167.4 158.9 150.9 145.1 141.2 140.5 142.9 149.4 152.2 155.5 159 165.7 177.5 194.6 214.2 226.8 251.7 281.4 313.8 346.6 379.6 413.9 444.2 471 484.4 502.2 516.6 518.6 510.4 487.5 459.7 437 416.9 399.4 381.2 364.1 348.6 341.1 367.2 399.1 425.2 450.3 477.1 496.1 498 494.3 463.9 433.5 401.5 375.4 342.3 307.5 276.4 245.5 216.8 187 156.2 130.1 112.5 94.6 82.2 73.6 73.2 72.8 72.8 73.5 74.1 77.3 85.1 98.3 109.4 115.2 118.9 126.8 129.8 139.8 148.3 157.8 161.5 167 179.5 184.7 192.1 197.1 210 216.9 219.6 231.9 238 239.2 246.6 253.2 259.3 264.3 257.4 255.9 247.5 244.6 239 232.5 220.4 212.7 203.1 192.2 177.9 187.4 211 221.6 234.5 251.1 269.3 285.6 306 324.9 347.6 366.8 388 410.9 430.2 446.5 462.9 485.2 504.6 520.8 537.2 556.3 579.5 600.2 620.9 648 671.2 695.2 713.7 725.3 695.1 659.9 623.1 600.4 588.9 578.2 570.6 563.9 551.4 537 525.3 517.6 510 500 492.7 484.2 475.5 470.7 463.4 454.9 449.8 450.8 442.6 439.7 443.8 448.5 449.9 459.2 467.3 485.8 497.6 482.8 457.7 434.3 424.6 411.7 402.1 387.4 377.8 380.1 382.7 392.5 403.2 420.8 442.8 465.2 478.6 485.9 488.9 482.3
191 221.2 252.2 264.8 278.6 285.2 291.6 291 284.3 281.3 286 258.3 232.4 209.1 189.6 175.1 161.9 153.2 146 141.2 138.4 140.4 143.1 148.8 151.3 154.7 159.4 167.4 175.1 189.9 209.1 225.3 250.2 280.2 311.5 345 378.1 410.3 443.9 468.1 486.8 503.5 518.9 527.2 526.9 512.7 484.7 460 437.4 416.8 400.7 386.3 370 355.8 364.6 393.1 420.1 444.4 465.6 488.8 503.1 506.3 489.4 453.9 421 388.2 355 320.5 290 258.9 227 196.4 164.6 139.2 119.1 101.9 84.6 75 74.2 73.9 74.5 73.5 74.3 75.2 82.5 95.1 106.6 112.7 116.2 122.4 129.7 139.4 148.7 161.8 173.1 180.4 188.8 197.9 205.7 211.8 224.4 234.7 238.3 248.9 259.4 262.4 269.3 272.1 281.9 284.9 284.9 277.8 275.8 269.7 265.3 253.1 241.4 232.3 220 208.4 198.3 186.9 199.5 210.5 225.4 239.4 255.3 271.1 286.2 303.3 323.5 345.2 368.1 384.9 397.5 420.3 450.9 467.8 484.9 499 516.4 535 553.9 574.2 602.8 631.5 656.3 684.8 707.2 727.7 720.5 681.1 645.9 622.2 603.1 595.7 579.7 570 564.9 550.9 533.1 523.6 520.1 519.8 500.1 489.6 483.8 478.9 473.6 466.8 461.2 457 456.9 452.3 453 462 470.1 471.3 481.8 504.5 508.4 490 468.2 445.1 433.5 425 414.7 409 399.6 393.3 397.3 408.7 418 441.4 468.9 483.5 488.4 495.4 498.4 486.6
179.1 215.5 237.6 255.5 262.2 268.3 272.1 271.3 274.1 254.1 260.7 253.6 227.3 204.9 188.7 175.6 158.8 149.1 143.1 139.4 137.2 141.6 144.7 149.9 154.5 159.8 161.1 168.7 176.6 186.1 204.2 227.1 249.9 276.6 307.3 339 371.2 400.8 431.2 455.9 483.1 500.9 516.3 530.3 542.1 537.6 509.8 482.1 456.8 436.5 419.9 407.8 392.8 376.1 358.6 392.6 421.7 446 466.7 483.7 496.3 511.5 513 482.6 443.8 410.3 373 332.2 306.2 270.2 239.9 207.1 174.9 149.2 128.3 107.5 92.1 82 75.2 73.2 74.1 74 74.8 75.8 79.2 89.1 100 110.9 115.7 122.6 128.4 136.5 148.9 159.1 175.2 182.7 193.4 207.4 217.2 231.8 237.7 249.8 257.4 271.3 280 288 291 313.9 311.4 319.4 310.4 306.5 297.9 297.4 287.3 275.9 266.1 252.3 236.7 227.3 213.5 202 196.3 199.7 221.1 229.5 242.4 256.9 270.6 285.8 305.7 325.8 344.8 357.1 387 410.7 433.6 452.6 468.3 482.6 501.3 515.1 532.3 552.9 575.8 607.6 641.8 671.4 699 721.8 739.8 704.3 664.9 646.1 630.3 613.5 599.8 583.9 572 570.9 554.7 534.8 526.2 524.3 527.6 506.5 493.6 490.9 486.6 483.1 479.8 475.5 475.5 475.3 473.6 476.7 484 499.7 518.8 539.2 525 501 480.8 464.8 447.1 436.2 429.4 420.4 417.7 413.8 413.8 427.2 440.6 471.2 486.9 494.5 497.9 499.9 506.5 492.6
173.8 197.5 228.4 243.2 250.2 251.2 257.5 258.1 254.9 243.8 233.5 238.9 225.2 206.4 186.7 171.9 160.2 147.3 140 135.8 139.6 142.1 145.7 150.5 155.1 160.5 164.4 170.9 177 188.5 202 227.9 251 267.5 296.6 326.8 354.5 380.1 409.4 440.3 467.1 494.5 514 528.8 546.1 554.4 534.6 502.1 478.2 457.1 440.1 427.6 417.3 400.8 378.3 398.7 427.5 450.1 474.2 491.3 497.4 506.6 515.5 501.4 466.2 431.3 391.7 356.5 320.6 289 252.8 221.1 187.3 160.8 138.2 115.8 99 86 77.6 73.6 73.7 74.4 75.2 75.9 77.8 82.9 92.4 105.3 114.7 121.7 129.5 137.1 146.3 160.9 175.8 187.8 198.2 209.1 227.7 245.8 259 267.5 280.4 296.4 308.7 318.7 323.8 332.2 341.8 341.8 340.2 334.4 329.7 320.3 311.6 299.1 290.9 273.7 258.5 245.1 229.1 219.5 210.5 205.5 212 222.9 234 245.7 256.7 271.6 289.3 304.2 325.3 346.7 367.3 393.1 413.5 433.6 452.2 469.9 483.2 499.8 518.7 537.4 559.2 591.8 625.1 660.9 696.1 720.6 739.8 734.5 708.5 676.9 660.1 645.1 622.8 608.1 594 581.9 577.9 559.4 545.6 537.4 534.8 530.5 518.7 511.4 503.4 499.2 500.5 501.1 505.9 507.7 505.4 507.1 516.1 527.6 542.4 555.7 535.8 512.1 495.4 480 466.6 455.6 446 436.3 439.7 441.2 447.6 452.4 464.1 483.8 499.7 508 507.2 507.4 511.4 497.5
166.7 193.2 215.4 229.1 235.8 236.6 248.4 249.1 242.1 231.6 213.9 215.7 215.4 199 182.6 165.3 154.9 142.2 135.1 134.9 138.5 141.3 143.9 149 152.5 159.4 168.9 173.7 183.9 191.3 207.5 226.4 247.7 267.7 290 305.1 327.2 360.4 389.9 419.1 451.5 486.4 511 532.2 546.4 560 554.3 524.2 502.8 481.4 460.6 446.2 436.3 423.6 402.2 400.4 428.8 455.7 480.3 495.5 500.4 511.3 516.2 516.9 483.6 448.6 409.7 370 334.5 302 268.4 234.8 201.2 172.2 146 125.9 106.5 89.1 78.5 74.5 74.9 74.9 75.7 75.4 76.8 81.2 88.7 101.8 112.2 118.1 125.1 134.6 142.4 155.7 178.1 191.5 199.8 212.6 229.9 252.2 274.2 291.1 304.4 321.9 341.2 344.7 354.7 353.4 361.8 363.2 363.5 358.1 354.1 347 336.2 322.2 310.1 296.8 282.6 264.5 249.2 237 227.2 221.5 217 214.9 222.4 233.8 253.9 270.1 281.6 296.5 313 333.1 352.1 378.4 399.3 417.2 435.5 449.2 470.4 492.2 509.6 531.8 555.6 585 619.8 658.3 692.1 719.1 738.8 751.5 741 719.6 698.5 678.1 656.2 639.1 626.7 614 606.6 599.5 579.9 567.9 564.7 555.7 548.5 537.8 530.4 527.9 530.9 533 539.8 542.4 548.7 551.9 555.4 575.8 572.7 564.2 550.7 524.9 504.9 495.4 484.7 479.4 477 470.3 464.3 474.3 487.7 499 502.9 504.7 511.4 515.2 511.5 514.9 519 497.3
163.2 180.5 208.3 214.5 220.2 227.4 237.1 235.5 231.1 221.6 207.3 203.9 200.5 188.4 175.3 158.5 147.1 137.2 130.6 133.6 135.9 139.4 143 148.4 155.4 161.4 170.4 176.8 188.2 198.9 213.8 232 254 273.9 303.4 329.3 351.7 375.5 391.7 428.1 458.5 490.2 516.5 536.9 553.6 565.3 578 549.5 527.8 504.6 483.2 466.9 456.5 444.7 426.3 401.5 436.6 460.3 479 495.5 502.5 514.1 520.1 519.2 498.6 458 424.1 392.3 352.1 315.9 281.2 249 214.1 182.9 155.7 133.3 111.1 95 81.5 75.3 75.6 75.6 76.2 75.9 76.7 81.9 89.5 99.6 109.4 114.7 121.8 129.7 143 153.3 167.6 188.7 199.5 213.7 233.5 258.6 283.2 307.4 329.2 342.5 356 368.8 377.1 383.4 383 386.5 380.9 377 373.2 365.4 361 347.8 331.7 320.6 299.6 284.9 271.6 256.1 245.2 236.9 228.7 226 222.8 228.9 247.2 266.3 285.6 308.9 318.7 324.2 344.8 363.8 387.3 411.7 438.7 460.6 480.4 502.7 520.6 540.4 562.9 589.1 623.5 662.8 691.3 718.4 734.9 745.1 747.6 745.6 731.1 715.2 690.2 674.8 665 653.5 642.8 628.9 618.9 618 608 597.8 596.4 588.2 573.9 569.3 567.3 575.3 581.4 583.2 585.7 590.1 587.1 587 586.8 574.4 555.5 537.9 519.6 513.5 506.7 507.3 510.9 506.7 499.7 507.2 514.9 516.9 518 519.5 519.9 516.7 513 512 513.4 497.4
149.4 160.5 186.3 198.8 211.6 222.4 228.1 227.1 221.8 212.2 204.4 181.7 178 174.5 163.4 151.3 141.9 134.2 128.8 130.9 134.5 140 142.7 146.7 153 160.4 169 175.8 183.1 194.8 211.9 231.4 252.3 276 304 333.5 362.1 388.7 417.3 436.8 461.4 494.9 521.3 543.2 563.9 576.7 589 575.3 552.5 527.9 507.5 489.3 475.8 465.7 453.6 438 442.7 469.4 487.2 498.4 505 513.2 521.7 523.8 515.1 477.4 441.2 406.3 366.5 328.9 293.4 262.8 226.3 198.4 168.9 141 118.1 99.7 85.7 78.5 75.2 75.2 75.1 76.3 77.7 84.7 94.6 101.1 107.3 112.4 117.2 125.5 137.9 148.6 164 180.6 199.6 216 236 263 289.8 316.1 339.4 364.8 377.9 386.2 403 406 410.1 408.3 414.1 399.4 388.5 385.1 374.7 369.7 356.5 338.9 323.8 305.9 290.6 277.4 264.7 253.3 245.3 240.8 236 231.9 237.5 256.3 274.9 298.1 319.5 344.9 365 387.3 407.5 431.1 453.3 474 495.2 513.4 531.6 554.1 577.5 607.2 637.7 669.3 695.1 715.4 727.3 726 723.8 714.7 711.2 712.5 709.8 698 678.6 665 653.5 638.3 620.2 608.5 603.5 598.3 592.4 586 587.9 594 591 587.6 593.9 597.8 597.5 595.6 591.1 590.1 588.9 582.1 569.1 550.1 537.9 532.3 527.7 528.6 525.8 522.4 523.4 527.1 526.6 528.9 527.1 526.3 521.8 515.1 507.6 505.7 508.4 496.1
144 164.7 183.7 195.3 202.8 209.1 210.9 216.4 211.8 201.5 195.5 182.3 164.2 158 152.2 142.8 134 129.6 128.2 130.8 132.6 137.6 143.3 148.3 152.4 158.8 169.3 178.1 183.2 198.6 203.6 226.3 252 275.4 305.2 334.5 364 394.6 422.6 452.4 477.9 502.2 527.1 549.2 569 586.7 598.1 596.3 581.2 556.1 532.2 512.7 498.3 486.5 477.4 466.8 463.3 473.4 490.8 503.6 515.9 518.4 521.2 526.5 522.1 496 455.2 418.2 381.9 347.8 306.9 280.9 238.1 207.2 174.3 147.3 123.8 104.3 88.7 80.7 77.7 76.3 75.9 76.2 77.8 82.3 93 98.2 105.3 111.4 117 124.5 133.2 146.4 163 177.3 196.8 218.7 236 263.4 290.6 320.1 347.4 371 392.2 406.9 421.8 425.8 425.1 428.8 426.2 425.3 415 407.5 398.9 387.6 379.3 363.7 347.3 329.4 317.2 299.3 285.5 275.1 263.2 256.7 250.7 246.3 240.7 250.4 267.5 290.5 311.8 334.3 360.5 381.5 407.5 438.1 463.4 487 511.8 530.8 550 571.5 596.9 628.2 660.7 681.1 695 701 703.2 695 687.6 681.3 678.8 676.2 680.1 692.6 682.2 664.2 651 635.4 620.9 600.8 595.2 584 577 570.1 572.6 578.2 584 581.9 583.8 588.4 593.8 592.6 593 592.6 589 583 576 563.3 550.6 543.8 540 538.2 535.2 531.9 530.8 536.2 536.5 536.7 532.3 529.6 525.6 518 505 501.9 499.3 491.9
137.2 155.4 178 190.6 197.3 201.4 200.4 204.8 197.7 192.6 186.4 176 162.4 149.3 143.3 136.4 128.4 126.1 124.3 130.4 134.3 138.8 142.7 147.2 152.7 162.9 169.9 177.1 186.3 205 218.2 235.7 253 277.8 307.2 337.1 368.7 398.2 426.1 456.9 487.3 511.5 532.9 556 576.9 596 608.1 613.7 606.5 585.4 559.7 537.2 520.8 509.3 497.6 489.6 485.4 482.8 495.4 500.3 512 518.9 528.6 533.5 528.2 509.6 474 433.7 396 362.8 320.2 289.7 249.4 215.7 183.9 154.3 128.4 109.1 93.7 82.9 78 76.6 76.2 76.7 77.9 81.5 89.6 94.5 103.3 109.5 117.7 126.6 136.6 148.9 159.1 178.5 193.6 221.5 242.1 265.9 294 324.4 353 376.9 397.6 419.5 430.4 445.2 444.1 445.5 443.4 440.1 432.8 427.2 421.2 406.2 394.4 383.9 371.4 354.5 340.8 325 309.5 295.4 283.5 275.5 268.6 260 259.1 252 259.7 279.2 299.5 322.8 349.2 373 399.3 430 456.9 490.3 522.1 552.2 578.2 597.5 621.6 645.8 662.3 673.1 684.3 677.2 670.2 664.5 659.1 642.6 642.1 644.8 650 660.3 667.6 654.5 651.9 630 613.9 597.7 581.3 568.1 555.6 548.6 558.1 556.1 561.4 568.8 575.1 578.1 581.2 582.3 586.7 587.3 585.8 583.6 577.7 570.5 554.4 544.8 544.3 539.9 539.9 536.7 536.9 539.4 544.7 541.8 538.5 529.8 520.9 513.9 501.8 496 491.4 487.3
124.5 155.7 171.1 183.5 191.6 193.9 195.3 188.9 186 182.4 177.9 166.4 156.4 145.3 134.1 127 123 117.4 125.7 129.6 133.3 137.4 141.7 147.1 151.7 159.6 167.5 178.7 193.2 207.9 223.5 243.8 262 276.2 305.3 337.1 367.9 395.2 424.8 454.1 486.3 512.1 539.4 560.9 579.6 604 615.5 625.6 624.9 611 585.6 563.7 545.2 530.2 521.8 512.4 502.3 497.4 496.5 506.4 509 518.2 523.9 536.9 530.2 519.7 486.4 446.2 407.7 373.1 335 296.9 260.1 224.2 188.4 157.7 133.1 114 96.6 83.5 78.6 77 76.6 77.6 78.1 80.3 87.7 93.9 99.2 105.6 113.1 122.5 134 145.1 159.7 174 194.9 223.1 246.6 270.3 299 325 355.6 382.3 404.2 424.3 443.3 451.7 459.4 462.1 463.7 460.6 453.8 452.2 443.7 431.7 415.8 402.4 391.8 378.9 364.1 348.5 334.3 317.8 308.6 293.9 285.5 278.3 276.7 271 264.6 271.9 294.2 313.1 336.2 361.5 386.9 415.5 448.5 481.4 512.2 545.3 576.2 602.6 620.6 636.8 649.1 657.7 653.4 643.5 638.3 630.7 616.4 605.4 605.6 608.7 616.5 632.3 632.3 628.5 624.9 614.6 599.1 585.4 566.9 547.5 533.9 524.8 529.5 532.7 540.7 546.6 554.8 558.1 567 571.7 577 578.9 579.1 574.9 570.7 567.2 551.3 542 541.3 540.5 538.9 539.7 540.2 542.4 544.2 543.3 537.6 526.4 516.3 508 493.1 485 480.2 473.3
110.5 147.8 164.4 175.4 181.7 185.6 187.7 186.1 180.6 170.5 166.1 158.1 149.1 140 130.3 117 116.3 116.6 124 129 132.5 137.9 141.2 146.4 151.2 156.4 165.7 179.7 193.3 206.6 226.3 246.9 269.9 291.2 293.6 322.7 349.9 380.6 410.2 442.1 473.9 504.4 538.8 562.8 584.2 605.2 624 636.7 647.6 637.6 613.6 591.5 571.7 555.2 541.7 529.7 518.4 508.1 500.3 498.7 505.1 513.2 519.6 528.2 535.8 523.7 500 458.9 419 378.7 341.3 300.5 271 231.8 198.7 164.3 138.7 117 99.1 87.3 79.7 77.3 77.5 78.5 78.4 79.6 84.2 90.2 95.4 104.6 109.7 118.5 129.6 145.4 157 174.4 194.7 218.3 246.1 275.9 304.6 331.5 354.9 384.6 409.7 431 449.7 462.1 476 489.6 492.6 484 476.3 479 470.3 452.3 437.9 422.2 409.6 397.7 386.3 372.8 359.3 341.2 327.8 315.5 310.2 297.2 297.4 290.9 286.3 277.1 284.6 304.9 326.4 352.3 379.3 404.3 433.5 464.3 499.9 530.6 563 589.5 608.9 622.2 634.2 632.3 624.9 611.4 604.3 592.4 578.6 570.5 571.5 573.2 582.1 590.3 590.9 588.3 585.2 576.8 577.1 570.5 549.1 531.5 507.8 502 496.4 507.2 518.6 527.2 539 539.8 548 556.7 561.7 565.9 566 562.9 563 555.2 539.7 534.3 534.4 532.2 533.9 538.3 539.5 540.7 538.2 539.8 531.8 520.6 508.3 497.1 482.5 473.2 461.6 456.5
103.3 141.4 153.9 170 171.6 176.4 176 177.1 171.5 164.6 149.8 149.4 140.8 131.7 124.9 113.3 107.7 114.2 122.4 130.1 133.7 138 142.3 148 152.1 157 167.4 181.7 197.2 213.8 227.4 249.7 272.7 300 322.4 323.6 331.1 366.6 397 426 455.9 493.8 533.5 565.4 590.4 611.8 634.9 653.3 663.1 664.5 648.3 622.8 600.5 579.8 561.6 546.4 531.4 514.5 502.3 492.5 493.5 500.7 510.6 519.1 525.5 523.4 503.4 461.2 428.5 386.4 350.1 311.4 274.8 240 203.6 170.6 142.7 119.9 101.8 91.2 82.5 77.9 77.5 77.1 77.4 79.9 82.6 87.6 95.1 101.6 110.9 116.2 127.3 141.5 153.5 170.2 191.1 214.3 245.1 279.5 311.5 338.9 360.6 389.4 418.7 435.1 452.9 481.5 493.4 502 509.4 517.4 508.1 504.2 497.9 479.5 455.1 439.2 428 415.2 404.7 396.2 383.1 368.6 353 341.6 329.8 322 318.3 313.6 308.4 299 289.1 299.5 322 341.6 365.5 394.2 421.9 452.8 481.6 515.3 545.5 567.3 584.3 602.7 609.4 604.8 593.4 580.9 569.9 557.2 545.6 535.6 535.7 536.4 544.2 550.7 553 550.3 548.5 543.5 544.9 540.4 526.7 510.7 486 466 468.5 472.2 486.4 496.1 506.4 518.6 530 539 549.9 549.3 550.1 550.9 549.6 531.2 525 522.2 524.2 524.4 529.7 532.5 534.2 533.5 527.7 526.5 523.1 511.3 502.7 487.5 472.1 461.9 452.2 441.7
93.2 135.7 146.3 158.5 165.3 166.7 166.7 164.7 159.7 155.8 148 132.1 130.2 123.9 115.6 107.7 96.5 111.5 121 129.1 134.3 137.7 142 148.7 154.1 158.5 168.1 183.6 198.9 214.1 232 255.3 280.3 307.2 335.3 359.5 355 380.1 402.5 437.3 463.1 489.5 528.7 569 598.1 620.9 644.7 666.3 681.1 688.3 673.4 650.9 627.9 602.8 578.7 558.6 539.4 521.7 504.7 488.8 481.3 487.6 496.2 505.2 512.2 515.7 507.9 477.1 436 392 354.9 317.7 282.6 246.4 206.9 173.8 145.5 123.7 103.6 92.4 84.2 79.4 79.4 79.6 77.8 80.1 81.7 85.7 91.7 96.8 108 115.1 128.3 139.2 154.8 170 190.7 216.6 250.7 281.7 314 341.8 370.2 395.5 422.7 446.4 457.9 475 499.2 509.1 521.4 539.1 546.2 538.2 519.7 499 474.5 456.5 442.1 431.5 421.4 412.8 405.4 393 378.6 363 349.5 346.1 340.7 334.1 329.2 323.2 310.9 298.1 320.5 340.2 361.7 384.3 410.1 437.1 468.9 499.5 524.5 547.1 563.4 573.8 579.6 573.6 559.5 551.2 536.4 526 516.5 505.9 500.3 501.4 511.6 507.5 514 513.4 515.5 508.7 504.2 504.9 500 489.8 467.7 444.9 442.5 448.5 451.8 464.7 476.3 495.9 511 519.2 528.1 532.7 530.1 526.6 509.3 500.9 503.1 506.2 511.9 514.1 522.8 524.6 525 522.6 516.1 514.9 509.8 498.6 488.9 476.2 461.8 453.8 440.9 428.3
89.4 118.6 142.9 153.5 157.4 159.1 158.1 152.1 148.6 139.8 133.2 122.1 116.1 111.7 109.7 94.5 97 109.7 116.5 128.6 131.9 136.2 140.8 146.7 152.7 158.3 167.8 183.5 196.9 213.8 234.1 259.1 285.3 313.8 343 371.1 396.6 412 431.1 449.5 481 509.8 535.5 574.7 604.4 629.2 652.7 675.3 695 710.2 701.6 671.2 645.7 623 599.3 573.4 549.3 528.1 507.4 485.5 463.7 467.7 475.5 487.5 496.4 502.8 504.7 479.1 437.4 396.6 356 320.8 285.6 251.1 216.3 181.2 151.1 128.3 109.1 93.9 86.2 81.3 81.1 80.4 79.7 78.6 81 84.6 88.5 93.8 105.1 113.9 121.3 137.7 151.8 168.6 190.1 218.7 254.2 285.1 315.5 344 369.4 396.2 419 449.7 464.3 484.2 499.3 514.6 530.4 546.2 555.5 566.8 550.2 525 500.2 479.8 462.3 449.6 439.3 426.6 416.8 410.4 401.3 387 369.8 364.5 362.5 358.4 351.6 345.7 333.7 322.5 317.1 337 356.5 378.5 400.8 427.6 455.3 482.6 505.1 522.6 541.4 548.5 554.2 543.8 527.2 516.1 508.6 498.1 486.6 476.1 469.4 469.6 472.7 472.4 473.2 475.9 475 470.6 469.3 470.3 469.5 465.9 447 427 418.3 422.1 425 433.4 445.6 465.3 481.8 487 485.1 500.1 496.4 473.4 470.2 473.3 480.6 486.9 495.5 493.7 508.1 512.6 511.3 506.1 497.7 495 493.7 484.7 472.8 464.5 451.2 439.2 430.5 422
83.6 106 128.5 143.8 149.8 150.5 148.7 138.2 135.5 125.6 118 110.3 109.1 106.1 95.6 84.5 93.1 101.9 112.7 120.5 128.8 134.8 139.9 143.9 151.8 158.3 166.2 182.1 197.5 216.6 236 258.1 284.3 316.2 346.5 375.6 404.9 432.8 459.6 479.9 500.2 533.7 561.5 585.4 614.6 635.5 661.1 684.1 706.7 721.5 727.3 697.8 668.2 640.8 615.3 588.6 560.9 533.8 509.2 481.3 452.2 445.8 449.9 459.3 470.7 480.4 489.1 480.3 440.7 398.5 361.2 325.7 286.3 248.2 216.3 184 154.6 132.1 111.8 96.3 87.4 82.3 81.8 81 80.7 79.4 81 82.8 86.3 92.3 100.6 113.5 118.9 136.3 151.7 166.4 190.4 219.8 251.9 285.9 318.8 345.6 371.6 397.7 424.5 447.8 470 487.4 503.9 516.3 533.3 550.4 564.7 578.9 583.1 551.3 526.3 501 481.9 464.7 450.5 439.9 430.2 423 417.2 406.8 389.4 374.4 383.3 377.6 373 365.8 353.5 343.1 331.1 336.4 359.3 379.1 399.3 421.3 442.5 467.4 492 508.1 515.4 521.2 520.5 515.7 501.7 489.8 480.9 476.8 459.1 446.7 443.9 441.7 438.5 439 441.2 445.1 445.7 436.7 438.3 440 433.2 435.1 422.3 404.8 391.8 392.6 399.7 403.8 416.5 436.7 440.9 445.4 448.8 452.9 456 435.3 440.2 448.1 455.2 461.4 469.9 470.9 486.1 493.2 490.3 486 480 478.1 477.9 468 458.9 449.4 436 423.5 415.9 412.4
73 93 113.2 125.2 136.7 131.3 131.3 130.3 122.6 111.8 105.9 97.1 89.4 92 80.5 71.8 85.3 100.2 107.6 114.4 123.2 130.3 134.4 139.6 147.9 154.7 164.2 181.1 195.6 214.1 233.8 259.4 287.4 313.9 344.9 377 407.4 438.2 469.5 496.3 524 549.7 578.6 602.6 623.7 646 669.9 694.7 716.6 733.2 741.5 719.1 688.2 658.8 631.3 601.1 571.2 540.2 509.9 479.2 450.4 421.4 422.9 428 439.1 452.7 467.2 469.7 437.7 404.5 364.8 328.4 286.4 252.1 216.5 183.4 157.5 135.2 114.1 97.8 88.6 83.8 83.1 82.8 82.5 83.6 84.1 84.5 85.1 91.1 99.5 111.2 120.6 132.7 151.9 167.4 187.1 219.1 253.9 283.1 315.1 346.7 374.1 401 434.6 449.6 468 483.9 498.7 515 536 556.9 572.1 583 594.9 585.9 555.3 525.9 502.1 478.1 463.4 451.4 442.3 435.6 428.6 422.6 412.9 399.4 401.7 395.9 390.5 385.5 376.6 364 355.1 342.4 362.7 381.4 402.8 417.6 438.4 464 484.2 495.7 499.2 504.9 499.8 492.8 481.7 467.6 457.4 447 436.6 422.8 420.2 414.6 411 408.6 410.3 415.3 413.6 408.3 405.5 407 400.9 399.4 386.7 378.5 368.4 367.9 372.1 375.6 386.8 397.8 398.9 406 409.3 414.2 410.1 406.1 413.6 417.6 420.9 427.6 436.6 449.4 458.1 462.8 463.8 463 461.1 459.9 459 451.8 445.5 435.1 420.5 406.2 398 395.5
68.2 83.3 97 105.5 115.1 121.1 121 117.1 108.6 96.4 88.3 75.6 62.2 61.8 62.1 66.2 75.7 86.9 97.4 105.5 115.5 123.2 129.1 136.2 146.6 153.2 164.5 175.6 192.2 210.6 234.2 259 283.5 310.8 341.4 374.8 406.6 439 472.2 504.6 532.3 558.7 588.5 614.6 639 658.6 683.1 706 727.4 744.3 753.5 738.3 703.6 673.6 644.6 613.1 579.8 547.4 515.2 482.6 454.3 423.6 394.8 399.6 404 418.2 432.2 446.9 437.2 402.3 363.8 326.3 287.8 253.2 217.9 185.4 159.2 137.6 116.9 101.6 92 87.2 85.2 83.8 83.7 81.9 84.6 85.7 87.9 92.1 98.1 110.1 119.6 126.7 146.6 163.3 188.6 218.2 248.9 277.9 310.3 346.9 376.4 404.7 432.7 451.2 465.9 480.6 497.3 518.9 534.4 561.4 579 585.3 595.4 600.2 585.3 557.8 528.5 500.6 478.8 462.7 453.5 446.8 441.2 437.2 430.4 418.9 408.1 418.4 408.5 401.6 395.9 384.6 373.7 361.8 359.5 381.3 403.7 425 443.4 459 477.4 488.6 491.5 495.3 489.5 481.3 470.2 456.1 437.2 422.8 411.9 403.6 393.7 389.1 386.3 380.9 381.8 380.7 382.9 383.4 380.1 375.1 374.6 366.6 354.4 350.3 344.5 347.4 345.7 350.5 356.6 362.5 370.4 372.7 379.2 378.8 378.7 381.5 380.9 382.6 387.3 394.6 405.6 417.7 427.1 432.4 433.4 433.9 439 439.2 435.9 433.3 429.2 418.2 401.6 390.2 383.3 377.7
62.4 79 88.9 96.7 103.5 105.6 104 96.3 84.9 76.7 63.1 52.4 58.6 72.8 78.9 75.3 66.2 73.7 89.4 101 112.9 122.2 128.6 138 140.2 149.6 160 171.7 189.2 209.3 231.1 252.7 282.3 309.3 339.2 368.8 402.5 435.8 468.8 503.3 532.9 561.5 590.5 621 647 674 696.2 714.9 736.7 753.4 759.8 751.7 719.4 686.5 657 625.6 588.4 555 522.1 490.2 457.3 427.3 393.1 372.5 374.7 386.3 398.9 414.9 426.5 394 359.8 320.4 286.1 252.6 216.8 189.1 157.3 137.6 118.8 103.6 95.9 91.3 88.4 86.7 84.9 83.4 83.7 86.7 89.8 93.7 100.4 110.9 118.5 127.1 143 164.4 187.3 214.9 247.9 274.6 305.2 338 368.2 399.3 422.7 446.9 464.3 481.5 495.7 516.4 535.9 559 576.9 588.9 602.2 607.3 607.4 592.8 552.8 523.2 500.6 477.7 467.9 458.5 453.2 450.4 445.8 440.6 434.1 439.3 430.5 419.1 411.4 402.3 390.9 381.9 377.1 386.6 405.3 426.2 448.1 465 478.6 487.9 492.6 491.9 483.8 473.9 464.6 444.9 427.8 411.3 393.8 383.4 373.8 366.6 361.1 358.1 354.9 355 356.3 353 348.8 346.2 343.8 340 329.8 327.3 322.6 324.5 323.8 325.7 327 333.4 338.6 346.3 348.4 351.2 351.3 354.2 356 356 360.8 369.2 376.2 385.1 393.3 398.1 401.1 404.4 409 409.4 411.9 409.1 404.7 394.4 381.3 373.2 365.2 354.5
54.1 62.5 76.7 84.6 89.9 86.5 84.8 73.7 58.4 49.4 54.7 66 69.6 70.7 75.6 80.2 74.9 68.9 82.7 91 104.7 113.6 125.2 134.1 139 146 156.8 170.5 188.3 205.8 227.5 248.9 272.3 302.9 331.3 362.6 395.5 428.7 463 497.2 529.3 559.5 587.8 618.7 649.7 678.4 702.6 722.5 742.2 756.4 760.2 748.4 720.5 691.5 665 636.4 597.7 564 529.3 496.9 465.1 433.9 403.7 371.1 347.6 356.8 367.6 384.4 399.2 380 356.5 313.2 278 243.6 211 186 156.6 136.3 118.1 106.5 100.2 95.5 91 89 87.7 85.7 84.8 87.6 90.2 93.5 100.6 107.9 116.9 128.7 139.9 163.5 186.3 214.5 244.8 270.7 299.6 329.6 362.9 390.4 417.5 439.7 460.9 475.6 495.5 514.7 537.7 553.5 569.4 587 602.7 611.7 615.8 613 576.3 548.5 521.5 499.9 482.3 472.1 465.2 463.5 459.3 455.1 450.8 451.5 455.1 438.2 426.6 421.2 411.7 401 396 392.7 409.4 431.9 452.6 469.2 482.7 491 495 489.8 480.3 467.8 453.9 438 417.3 401.8 382.9 366.2 359 347.8 342.2 336.3 334.2 331.9 332.3 325.9 325.3 321.7 320.4 317 311.1 307.9 306.8 306.5 304.3 303.2 308.5 310 317 325 323 326.4 326.9 329.1 331.8 335.5 338.8 347.6 352.1 357.9 360.9 365.7 370.8 375.3 378 380.9 382.8 380 374.5 368.4 359.4 356.8 342.4 343.6
43.7 46.9 64.5 70 74.9 70.4 64 47.3 58.7 64.7 69.2 76.4 78.3 77 80 85.4 87.4 77.2 70 85.3 94.2 106.8 121.4 127.6 135.9 145.4 150.9 170.8 184.9 202.2 223.7 245.1 268.1 294.9 325.1 354.2 386.5 420.1 453.9 488.8 523 555.8 584.3 613.4 645.7 678.9 704.5 725 745.2 754.5 749.8 732.8 709 686.2 662.8 637.4 606.9 571.2 537.6 504.6 471.4 440.5 410.7 381.3 351.4 326.6 338.3 354.7 364.8 351.2 327.5 297 269.2 236 204.8 179.8 154.3 134.2 117.9 107.5 102.1 99 94.9 91.4 89.6 88.5 86.1 86.3 89.6 93.8 99.3 105.7 115.1 128 141.1 159.3 183.5 209.3 237.6 264.7 293.9 326 355.4 387.5 413 436.5 456.7 472.9 490.4 514.5 534.3 551.8 564.3 584.4 602.5 611.5 617.2 617.9 606.2 578.6 545.7 520.1 501.3 486.5 479.6 474.5 471 467.9 463.9 464.3 471 458 442.3 433.4 425 419.5 413.8 412.5 420 438.1 462.6 480.3 492.9 500.8 503.6 494.6 481.1 466.4 447.2 430 411 391.6 374.4 358.4 343.6 333.4 324.4 318.6 315.9 311.9 310.1 306.3 303.3 300.4 298.8 297.4 291.2 289.3 290.1 292.2 289.6 289.1 290.8 292.3 297 298.8 302.1 298.5 305 305.6 309.6 317.9 321.3 326 331.1 335 338.8 343.8 345.2 345.7 349.8 351.7 351 349 345.5 343.4 339.5 335.7 322.4 318.2
36.2 40.2 43.1 50.8 48.1 43.3 47.8 56.2 64.6 76.2 83.3 88.5 90.5 86.6 83.2 86 88.4 87.1 73.4 74.6 87.3 100.7 113.7 121.7 130 140 154.4 165.2 182.7 197.4 214.8 237.1 259.9 287.7 315.3 347.9 379.5 409.9 443.1 476.7 509.7 542.2 576 605.2 636 669.7 696.1 721.8 740.6 749.4 738.9 715.1 692.9 672.8 652 629.4 603.4 574.4 540.9 508.4 477 446.8 416 383.7 354 324.7 306.4 326.7 334.8 325.3 304.7 279.8 252.4 227.5 202.2 174.6 152.7 133.6 117.7 108.7 104.4 101.4 98 93.9 91.1 89.6 87.5 86.3 89.4 94.1 99.3 107.3 116.2 128.3 136.8 157.8 182.5 207.5 236 264.4 292.9 325.6 356.9 385.2 410.6 433.4 454.9 472.8 490.4 510.6 526.8 545.1 559.5 575.8 594 603.9 614.5 616.5 617.7 607.7 577.3 545.3 520.9 504.8 494.2 486.7 482.6 478.3 475.7 473.3 480.6 474.8 460.1 448.8 440.4 436.6 432.9 434.2 434.8 451.1 471.1 491.5 507.2 516.5 522.8 505.2 491.2 468.4 446 427.5 402.7 382.1 367.2 353.2 336.5 325.3 312.7 306.9 301.3 297.7 293.6 290.2 287.6 284.3 282.9 281.6 277.9 274.2 276.4 277.1 275.9 274.2 277.1 280 283.3 283.4 284.2 281.7 284.7 285 292.6 300.8 305.9 307.4 311.9 313.2 319.3 322.8 323 324.5 325.5 322.9 322.4 319 318.8 318.7 314.7 312.2 300.3 292.4
37 37.3 36.2 37.3 44.5 52.5 62.4 71.5 81.2 91.2 101 102.3 101.7 98.9 93.6 89.3 91.3 90.2 83.4 79.3 78.3 95.7 106.9 111.6 129.1 137.6 146.8 158.5 172.5 190.4 208.9 227 250.9 278.1 306.7 337.3 368.2 401.7 432.2 466.7 497.6 531.1 564.4 594.4 624.5 653.1 681.6 707.1 725 736.5 726.5 701.7 677.6 655.2 633.6 610.5 586.2 563.4 537.7 509.7 479.3 450.7 419.3 387.9 357.5 328.3 298.3 305.6 307.8 299.9 284.4 261.6 235.3 212.6 191.4 170.1 150.5 130.7 118.4 111 107.6 103.5 101.5 96.1 93.5 90.4 87.2 87.5 89.2 92.1 98.8 107.2 115.5 123.4 133.6 155.1 176.7 204.8 232.5 260.1 288.5 322.2 353.2 383.3 407.9 430 452.3 470.7 486.1 503.6 519.3 536.6 556.4 570.1 584.4 595.1 608.6 615 619.7 620 619.3 575.3 543.6 521 506.4 498.9 494.1 491.1 486.7 482.8 482.9 486.4 479.9 463.1 453.1 450.1 449.6 449.5 454.1 464.4 481.6 502.1 519.6 534.4 536.1 527 489.5 471.2 449.8 430.1 405.2 381.4 354.1 342.2 330.6 317.8 306.4 296.3 290.9 286.2 282.7 278.9 275.7 273 270.6 268.1 265.8 262.9 267.7 266.3 264.1 261.7 266.3 268.3 270.4 272.1 270.7 269.9 269.6 270.6 280.2 290.3 292.9 294.7 295.2 297.4 301.4 303.5 302.1 302.7 301.6 299.9 299.5 297.4 295.5 294.6 291.9 283.8 279.8 273
