ncols 200
nrows 82
xllcorner 330000
yllcorner 810600
cellsize 50
526.7 519.4 503.2 476.5 453.2 435.2 453.9 462 462.4 462 459.1 457.8 460.3 461.3 459.4 457.5 455.4 451.6 450 451.8 453.6 455.5 459.4 458.9 457.5 462.7 469.5 479.1 495.5 505.9 512.8 515.5 517.4 517.6 517.7 517.5 518.9 521.8 524.4 524.1 522.8 522.6 523.5 524.4 527.3 524.6 523.2 522.2 520.7 515.6 510.8 504.4 498.3 488 478.1 467.2 458.6 448.4 437.8 429.2 421.4 413.7 409.4 398 385.2 370.2 354.2 348.3 345.3 342.6 337 334.3 333.6 332.8 331.2 328.2 322.9 319.2 316.5 311.2 311.6 311.3 311.4 332.6 351.9 354.7 353.8 360.5 371.2 381.4 390.2 398.4 407.7 419.1 429.5 440.1 450.8 463.8 474.9 479.2 478.8 475.8 473.8 472.3 467.6 457.6 449.5 448.8 465.2 479.1 488.4 499.8 510.4 515.3 515.1 508.7 498.8 490.9 479.8 468.6 461.3 453.8 447.6 440.9 435.7 430.5 425.4 421.2 416.7 411.4 411.2 415.6 417.8 420 421.4 420 418.4 414.3 409.4 405.8 402.7 397.9 393.1 380.1 387.5 390.7 395.5 399.1 401.4 400.8 393.9 386.1 379.3 372.4 367.8 367.3 373.7 381.6 389.7 392.7 399 407.2 416.5 424.5 432.1 441.1 450 458.6 463.1 454.7 441.8 420.9 405.5 395.7 384.3 374.2 364.1 355.3 346.6 340.6 334.4 328.8 322.5 316.3 311.9 309.4 311.7 312.3 306.2 299.5 294.4 290 283.2 276.9 267.4 258.1 251.5 244.3 243.2 243.1
513.4 499.6 479.7 455.1 443.2 467.3 474.2 476.6 480.5 482.5 481.1 478.8 476.2 472.3 470 466.3 463.1 460.9 459.2 459 463.5 465.1 468.8 468 466.5 473.2 479.7 494.6 507.5 517.6 524 526.3 529 532.1 533.6 534.9 536.4 539.9 539.9 539.3 538.3 536.6 537.7 537.5 533.2 530.5 526.9 522.4 517.7 513.2 512.3 512.8 503.1 492.5 483 474.9 466.5 456.3 447 439.5 429.1 419.6 412.3 402 390.2 377.2 365.4 354.8 349.1 343.3 337.3 334.8 335.6 332 329.3 325.1 326.1 324.7 321.2 309.7 310.8 310.6 311.6 343.5 348 348.2 353.8 364.9 373.9 382 390.3 398.5 409.1 419.1 429 437.8 447.5 458 467.3 471.7 470.8 467.9 462.9 457.8 450.1 438 432.2 446.3 458.3 471.6 483.1 494.3 505 511.3 513.6 509.2 503.6 493.6 481.9 470.4 462.4 454.6 446.9 440.6 435.4 430.1 424.9 420.2 415.7 410.5 406.9 410.9 413.1 413.5 412.9 411.3 409.7 407.6 403.4 399.9 397.2 394.3 389.3 383.3 392.1 397.1 402.9 408.1 411.4 408.4 402.2 394.5 388.1 383.4 382.3 384.1 389.1 397.9 406.6 413.1 418 424.6 432.2 440.5 448.4 456.6 464.4 470.3 469.6 458.5 441.1 419.5 406.8 396.1 384.6 373.9 364.3 354.1 344.5 338 331.6 326.3 320.9 315.1 308.5 301.8 298.7 299.6 294.5 291 286 281.7 275.4 270.1 260.6 252.6 245.8 241.5 242 258.6
498.4 477.2 451.5 440.1 458.3 482.2 487.3 492.6 498.4 497.6 495.3 491.2 487.3 483.5 480.5 477.3 473.6 470.9 467.2 466.4 473.9 474.5 478 477.9 478.5 484.7 492.8 501.8 512.9 524.3 531.4 537.2 540 544.1 547.3 550.3 552.6 553.4 553.1 550.7 547 545.9 543.1 539.3 535.9 531.1 525.9 520.4 516.7 514.5 516.6 514.5 508.5 499.1 489.8 481.6 470.6 462.7 455.2 446.4 434 423.1 412.8 402.7 391.7 380.6 367.6 360.2 353.6 348.2 342.2 338.2 337.7 334.2 328.8 325.4 330.4 328.4 322.6 309.3 309.9 310 320.8 334 342.3 344.9 350.7 362.5 370.4 377.8 386.8 396.1 407.5 417.5 425.1 430.8 440.3 449.7 458.8 462.6 462.8 458.5 452 444.1 432.1 423.2 428.2 442.1 452.4 462.3 474.5 485.9 496.8 503.8 507.9 506.2 503.4 494.7 482.7 470.2 460.8 452.8 446.7 440.3 434.9 429.7 424.4 419.9 415 410 405.5 402.4 406.6 406.3 406.1 404.7 403.1 400.8 397.4 395.1 393.2 391.4 388.2 381.2 392.8 399.7 406.3 412.5 414.5 410.5 405.5 400.8 396.7 393.8 394.1 397.8 404.2 413.7 425.8 432.9 437 442.3 449.2 457.5 467.3 475.4 479.1 479.2 473.3 460.1 438.3 420.1 407 396 385.8 375.2 366.1 353.7 346.8 341.5 338.8 335 328.4 321.8 314.8 306.6 298.8 286.3 281.3 278.5 276.4 276.7 271.9 258.5 249.3 242.7 241.2 243.3 255.2 270.7
473.5 453.9 441.6 459.9 476.9 492.3 501.3 509.7 510.3 507.2 505 501.9 498.7 497.2 495.3 491.1 484.7 480.7 477.8 479.6 482.2 483.4 489 488.7 489 489.9 499.6 506.1 515.4 524.9 533.1 542.5 546.2 550.4 556.4 561.6 564 564 562.9 559.5 553.7 546.8 541.8 536.9 533.1 527.9 523.2 517.7 514.9 514.4 519 520.5 517.8 506.1 498.1 487.6 475.5 466.7 459.8 450.8 438.2 425.6 413.5 401.8 391.7 379.4 370.6 362.3 356.8 350.6 345.4 342.4 339.6 335.2 329.8 327.2 330.5 332.7 333.3 308.3 309.4 308.7 314.1 330.3 336.9 339.6 345.8 353.8 363.9 370.8 379.2 390.8 401.8 412.5 418.3 423.4 431.8 440.4 448.9 454 454.6 450.3 444.3 432.3 418.5 411.8 423.9 436.8 446.1 456.5 467 477.3 487.2 494.6 500.5 499.6 498.2 492 481.2 469.4 459.3 449.7 445.4 440.5 434.5 429.5 427.3 423.7 419.4 415 410.3 403 398.6 398.9 399.4 398 396.4 394.3 391.9 390.7 389.3 388.1 383.3 380.8 390.3 399.4 405.1 410.4 412.6 409.8 407.5 404.5 402.6 402.4 403.9 408.6 418 429 441 449.3 457.5 462.5 472.2 480.2 490.7 496.4 494.3 489.9 479.3 461.8 439.7 423.5 408.5 396.9 384.9 374.7 366.3 360.8 357.3 351.6 346.9 341.8 336.7 326.9 320.1 311.6 304.3 295 287.4 277.6 265.3 260.9 257.8 248.5 242.5 244.2 246.5 252.6 265.4 278.6
454.1 444.4 460.9 476.7 492.5 506 517.7 519.9 517.8 514.7 513.7 512.5 511.9 509.5 506.3 501 494.8 492.8 492.6 492.5 493.6 492.6 496.4 497.5 497.6 497.2 503.5 509.8 516.4 522.8 529.2 537.4 544.9 550.2 558.1 564.7 567.5 567.4 565 558.4 552.4 545.5 540.1 532.6 527.4 522.8 517.1 512.6 510.1 511.2 516.8 521.8 518.8 512.9 504.3 491.3 479.2 468.6 460.9 451.7 442.5 427.1 415.9 401 388.1 377.9 368.5 361 356.1 351.9 346.2 343.3 341.3 334.4 329.9 328.1 331.3 336.4 336.2 312 307.8 308.9 307.7 325.5 326.8 330.9 337 347.1 356.5 363.2 370.2 382.7 393.2 402.5 409.5 413.7 421.8 430.6 438.6 444.6 446 443.6 435.6 421.1 409.3 405.2 419.4 430.8 439.6 450.1 460.5 471.6 479.8 486.1 492.9 494.3 493 488.1 478.9 466.8 457.1 448.3 444.2 440.1 435.5 433.1 431.5 428.3 424 419 414.4 409.4 403.5 397.1 393.8 391 388.5 387.4 387 385.7 385.3 383.4 379.4 385.2 390.1 396.7 401.7 405.8 408.5 407.2 406.5 406.2 406.2 407.6 412.1 418.9 430.4 442.2 454.1 467.9 478.5 485.7 494.9 503.4 510.7 511.6 508.5 497.4 483.3 463.4 441.6 425.3 411.7 399.9 389.3 380.1 375 370.9 367 361.6 354.6 349.4 344.4 335.1 327.3 317.7 309.8 300.7 292.7 282.1 269.7 255.4 247.6 242.5 245.1 245.8 250.8 260.9 273.7 288.4
446 456 475.9 492.8 506.4 518.8 523.9 525.2 523.1 521.1 520.3 522.1 522.8 518.5 513.2 507.7 507.3 506.2 504.8 502.7 501 500.5 503 502.6 501.8 500.7 504.9 509.5 514.3 519.4 524.2 530.6 538.2 545.8 552.7 558.8 561.9 562.6 559.1 553.6 547.8 542.3 535.8 528.6 522.2 516.3 510.8 507 506 506.7 512.8 518.5 521.2 516.9 507.3 495.1 482.8 471.1 462.2 452.4 441 430.2 417.9 403 391.7 385.1 375.4 367.4 360.5 352.9 347.2 342.8 339.2 334.9 331.7 330.4 334.9 336.2 333.2 328.8 309 308.6 307.1 306.9 316.2 322 331.2 341 349.5 356.5 363.1 371.5 382.7 391.3 397.9 404.5 412.8 420.6 429.1 434.1 438.2 434.5 424.6 411 401.5 398.2 413.2 424.4 433.3 444.7 455.5 465.1 473.4 482 486.5 488.5 488.5 482.7 473.2 464.1 455.7 449.4 444.7 440.5 439.1 437.4 435.8 433 428.5 423 418 413.4 408 402.2 398.8 397.1 392.5 388.9 384 381.6 380.7 380.4 378.4 381.6 386.9 391.8 396.5 400.2 403.1 404.3 404 405.7 408.1 413 418.1 427.5 439.2 451.5 466.7 482.8 493.4 505.8 516.1 524.2 527.3 527 518.8 504.1 485.9 461.7 445.6 432 417.3 405 395 387.4 383.2 379.4 376.3 372.3 367.6 360.8 355.9 350 336.4 324.2 314.7 304 294.2 292.1 272.1 249.6 242.2 246.1 246.4 248.7 259.4 270.6 283.9 301
447.3 467.8 488.7 504.5 515.5 522.3 525.6 527.3 527.3 526.2 526.4 528.2 529.2 528.7 521.7 518.8 519.2 516.7 514 510.7 507.2 505.5 507.1 506.5 506 505.1 505.2 507.1 510.2 514.2 518.4 523.4 529.7 536.9 543.6 550.1 553.7 554.4 550.8 546.3 541.9 535.9 529.9 523.5 516.7 509.7 504.2 500.9 498.5 501.9 508.1 514.2 517.7 516.7 510.1 496.2 484.3 470.2 462.2 452.1 433.9 427.8 424.1 414.3 404.4 393.2 383.4 374.1 366.4 357.2 348.7 343.1 341.5 337.1 334.6 333 337.8 338.8 334.3 328 308.4 307.9 306.5 306.9 307.8 316.1 326.6 335.4 343 348.7 355.3 362.7 372.9 380.3 386.7 392.9 401.2 412.9 419.9 425.1 426.6 424.2 413.4 402.1 393.2 395.6 406.9 418.3 427.6 438.2 449.1 460.6 470.2 478.8 483.9 484.8 483.6 478.7 470.1 462.3 457.2 452 447.2 444.8 443.3 441.8 440.1 437.7 432.6 427 422.1 417.5 412.5 407.9 404.5 400.8 396.6 392 388.2 383.6 379.9 377.2 376.5 377.8 382.1 385.2 389.2 393.4 396.5 399.4 400.9 404 410.1 416.6 423.8 433.7 445.2 459.1 476.8 493.5 506.4 525.1 536.1 542.2 543.9 538.1 526.6 508.8 486.7 465.1 450.9 437.1 425.5 412.8 403.1 396 392.5 391.3 388.6 385.7 381.8 378 373.7 363.7 346 329.8 316.8 306.1 297.3 287.3 255.4 245 242.9 246.6 247.4 253.4 267.8 281.4 297.3 313.9
457 479 496.8 509.4 516.9 522.9 526.7 528.5 528.8 529.2 533.4 536.2 541.2 534.9 530.5 531.5 533.1 527.7 524.2 516.9 512 508.7 508.6 509.3 507.5 505.4 504.2 505.3 506.7 508.9 511.9 516.4 521.7 527.2 533.5 539 542.4 543.5 540.7 537.1 531.8 526.9 522 516.8 509.2 502.8 497.3 493.9 493.1 496.7 502.6 508.6 511.2 512.6 506.8 498.8 484.9 473.4 462.6 452.1 439.5 439.3 433.5 426 415 402.8 390.1 379.8 370.4 362.8 356.3 347.8 343.4 339.6 337.3 336.3 344.4 342.5 333 327.9 309.4 306.7 306.6 306.1 304.7 304.6 312.5 327.6 335.4 343.1 348.6 356.3 362.8 371.3 378.6 384.5 393.6 404.7 412.5 416.8 417.9 413.9 404.5 393.1 383.6 392 402.9 411.9 422.7 433.3 445.5 456.6 466.9 476.6 481.9 483.9 483.4 478.7 470.9 463.6 458.7 454.3 450.5 449.1 447.5 446 444.4 442.2 437.8 431.8 426.4 421.7 417 413 408.9 404.8 400.3 394.8 390.1 387.3 385.3 380.5 375.3 374.1 376.3 379.4 382 386.1 389.6 392.4 395.9 404.2 411.4 418.9 427.1 437.7 450.7 465.2 481.4 498.6 514.9 533.8 548.1 559.1 554.5 548.3 529.1 509.4 489.1 470 456.2 443.7 432.3 421.3 411.2 406.1 403.8 402.8 402.4 401 401.8 395.8 386.4 373.4 354.1 334.8 318.6 305.7 299.3 279.8 251.6 244.8 244 247 249.3 261.8 285.5 293.3 306.6 323.3
467.9 488.1 501.7 511.1 516.8 523.1 525.9 527.5 529 531.4 534.1 537.6 538 538 537.2 541.4 541.3 533.1 529.5 521.4 512.8 509.4 510 508.8 506.7 504.5 502.5 501.8 502.4 504.2 506.8 511 516.4 523.1 528.3 532.6 534.4 533.6 531.4 528.2 524.6 520.7 515.8 511 503.7 498 493.1 489.6 489.5 491.3 496.6 502.6 506.6 508.5 507.1 503.1 483.1 474 462.3 452.5 442.9 447.3 442.9 434.2 421.6 408.8 396.3 383.6 374.7 366.7 360 353.2 347.1 344 342 343 348.6 343.6 336.4 330.2 331.1 328.2 313 305.6 305.2 304.7 303.9 323.7 329.6 336.1 342.9 349.3 356.1 362.9 370 379 389.7 399.9 408.9 411.8 410.3 404.5 393.6 383.6 377.6 388.7 399 408.3 420.9 432.2 443 453.1 464.3 474.9 481.8 486.4 487.1 481.6 473.9 467.1 461.6 457.3 454.3 453.1 452.5 452.3 450.8 449.5 446.9 439.8 432.8 427.9 422.3 417.2 412.7 408.1 403.3 396.4 394.8 392.7 391.2 386.5 381.6 375.5 371.6 372.5 376.3 380.3 381.5 388.6 397.3 404.3 414.1 422.7 431.5 442 453.6 468.4 484.7 499.3 516.2 531.8 550.1 561 558.7 541.8 523 504.3 486.7 472.2 458.9 446.7 436.8 427 419.1 415.5 414 414.6 414.3 418.5 418.7 411.6 395.2 376.7 357.8 337.7 320.8 309.4 302.9 293.8 254.8 246.5 243.9 247.2 248.6 272 291.1 302.1 317.6 331.7
481.2 492.3 503.5 509.6 515.2 520.2 522.6 521.6 521.4 526.1 532.9 536.7 539.6 542 541.3 540 536.2 532.9 526.8 519.1 510.6 509.3 507 505.9 503.4 501.5 497.8 497.9 498.4 500.5 504 508.4 513.4 520.1 525.6 529 531.1 528.8 526.2 522 518.1 513.6 509.8 505.2 499.6 494.8 489.9 485.5 486.1 487.2 490.9 496.5 500.6 504 504.4 501.7 488.8 472.8 457.4 453.4 458.3 455.8 449.1 437.8 424.5 411.5 400.8 388.3 378.5 370.6 363.9 357 352 349.3 348.5 350.6 351.7 346.2 339.1 336.3 335.3 327.4 328.4 328.8 316.5 316.5 303.1 318.6 326.8 331.1 335.3 342 348.8 355.7 362.9 372.9 384 394.5 402.3 404.3 401.1 393.8 382.8 372.9 375.2 385.4 395.8 404.7 418 429.5 440.2 450.4 461.2 472.1 481.8 486.9 488.4 485.4 478.5 472 465.9 461.4 458.2 457.1 456.4 457.6 459 458.7 456.8 452.3 445.7 438.4 431.3 423.2 417 411.9 408.3 400.4 402.3 401.9 397.7 392.3 387.9 381.3 375 369.1 368.3 372.3 383.3 393.6 403.9 412.5 421.2 427.8 436.5 446.4 457.9 469.6 484.7 499.8 514.7 528.9 541.9 552.6 554.4 533.5 515 498.9 485.6 472.2 457.9 447.1 440.3 431.4 426 424.9 424.6 426.4 431 434.9 429.5 415.2 397 376.5 358.1 339.3 324.5 315.4 308.3 296.4 263.5 245.8 243.5 247 249.1 274.9 300.7 314.3 321.8 336.1
483 492.4 501.9 508 513.1 515.3 515.5 515.1 514.4 521.3 528.7 532.1 539.4 546.9 544 539.2 531.3 525.2 519 514.1 508.1 505.7 503.9 502 500.4 498 496.1 494.8 496 497.6 501.5 505.6 511.3 516.3 521.5 527.1 529 525.8 522.5 517 512.2 506.8 502.9 498.9 496 493.5 487.4 482.3 481.8 483.2 486.4 491.2 495.2 498.8 499.5 495.1 481.3 468.3 474.9 471.5 471.4 467.6 455 440.3 427.1 414.9 403.9 390.5 380.6 374 368.2 362.1 360.9 361.3 360.4 360.5 358.5 352.5 346.3 339 333.4 332.1 332.5 335.1 328.8 305.4 303.2 311.6 321.4 323.4 328.9 335 342 349 356.3 365.2 376.2 386.7 393.6 394.6 391.2 384.9 373.8 363.1 371 380.8 390.4 400.5 412.1 423.8 438.2 449.8 460.2 471.9 481.5 487.6 489.8 487.9 484.8 479.1 473.3 468.6 464 461.6 462.1 464 467.3 469.5 469.8 466.7 460.7 453.7 445.4 436.6 429.4 423.5 418.2 412.2 410.3 409.1 404.3 398.5 392 386.9 378.1 373.7 365.1 370.3 383.7 395.9 408.8 419.5 429 435.9 442.6 451.2 462 471.9 484.3 497.6 511.5 524 533.2 541.3 539.3 523.2 506.3 493.5 480.2 466.9 455.7 446.3 439 434.1 432.5 434.4 438.4 442.3 446.1 443.7 433.5 414.5 393.3 375.3 357.2 339.3 326 314.4 307.1 284.7 273.8 251.2 245.1 245.5 249.5 275.9 300.2 307.4 322.9 334.7
483.4 491.5 499 504.7 508.7 510.2 509.9 509.2 506.9 516 524.1 528.6 535.1 539.7 538.2 534.3 525.4 518.3 515.2 511.2 507.9 505.2 501.8 499.4 497.4 495.1 494 493 494.5 495.9 499.1 503 508.3 514 519.6 525 525.8 522.5 517.2 511.2 505.9 500.4 495.1 492.1 492.2 494.7 486.5 479.7 478.6 479.6 482 486.4 490.2 493.8 494.3 487.9 484.8 490.9 488.8 483.1 479 473.3 463.1 447.9 433.5 420.2 408.5 393.8 384.3 379.2 374.2 371.1 371.1 372.4 371.3 368.4 366.2 361.6 351 341.8 337.6 332.9 329.8 330.7 328.9 303.4 302 304.3 308.5 315.8 322.6 328.5 335.8 342.4 347.9 355.4 367 377.1 383.7 386.1 383.8 377.4 365.6 356.9 365.1 374.8 383.5 394.5 410.6 425 439.3 450.5 462.3 473.1 481.2 488.6 493.4 494.4 491.7 487.3 482.1 477.8 474.7 472.2 470.7 472.5 477.3 479.8 481.3 477.9 471.5 464 456.1 444.4 435 429 425 421.3 418.8 416.1 411.3 404.7 397.5 391.9 385.8 380 368.4 369 384.5 398.7 412.6 424.9 435 443.5 450.3 457.3 465 474.3 484.8 494.9 506.7 516.2 525.6 529.9 524.7 508.3 494.4 481.8 470.1 456.7 447.7 440.9 437.1 433.8 437.3 444.6 449.2 453.6 450.1 442.9 429.2 409.2 388.6 372.8 356.4 337.6 322.1 308.5 300.5 294.5 287.6 259.7 245.7 244 246.1 266.5 290.4 301.4 314.2 328.4
482.1 489.8 495.9 499.9 503.6 504 503.6 502.5 501.6 510.9 519 525.2 526.6 528.9 527.9 525.8 517.8 514.4 512.2 510.7 508 504.6 500.1 497.1 494.7 492.9 491.8 490.6 492.4 494.3 497 501.4 506.1 511.4 517.6 522.3 524.9 520.1 512.7 506.4 499.8 493.2 488.4 485.2 487.6 487.4 481.3 477 475.4 476 478.7 482.3 486.2 487.9 488.3 491.8 495.8 500.4 499.6 494.6 489.7 482.6 471.2 457.4 442.1 427 413.1 398 390.3 384.6 379.6 379.4 383.8 385.5 382.6 378.9 375.2 368.1 357.7 347.1 340.1 334.5 328.8 326.5 327.5 303.3 300.9 300.7 300.4 303.5 307.9 322.5 329.2 335.3 341 347.3 355.1 365.4 373.4 375.5 373.8 368.5 357.2 350.9 361.4 375.7 388.1 398.8 411.4 425.8 440.5 452.3 464 474.7 485.3 492.8 498.7 500.4 498.4 493.7 488.4 484.6 480.4 478.4 477.7 481.5 486.1 489.1 490.1 485.2 478.2 469.7 461.2 450.5 439.2 433.7 429.6 425.3 423.8 420.3 415.5 410.8 403.5 398 393.3 384.7 370.2 367.9 383.9 398.1 413.5 427.6 439.2 448.3 456.2 463.4 469 476.7 484.2 493.5 500.9 506.5 512.8 513.5 507.7 497.2 483.2 470 455.4 442.6 435.4 432.9 431.8 432.8 437.5 443.7 446.1 445.5 440.8 432.1 418.5 401.2 383.4 369.3 354.3 337.6 321 307.3 298.4 294.7 285.6 266.8 250.1 245.1 245.1 258.3 272.9 291.4 305 318.9
479.4 487.4 492.6 494.8 497.1 496.9 496.9 496 499.8 505.7 514 518.9 519.7 518.1 516.2 513 509.3 508 506.9 506 505.7 502.7 498.6 494.8 492.4 490.9 489.7 488.5 489.8 491.7 494.4 498.4 502.8 508.6 514.7 520 522.3 516.2 507.4 500.7 494.2 488 483.3 479.7 478 477.5 474.5 473.7 472.6 473.5 475.7 479.7 483.9 490.3 493.7 497.4 502 506.9 508.9 506.1 500.1 492.3 481.8 466.5 448.6 433.3 415.8 404.8 396.8 393 393.7 394.6 396.5 397.1 394.5 388.3 382.1 374.7 364.2 351.1 338.5 332.5 328.6 325.1 322.9 318.4 301.1 300.6 300.2 299.8 300.2 314.9 322.6 327.1 332.6 338.8 346.2 353.4 359.8 362.2 361.6 357.1 349.3 349.4 363 377.5 390.1 403 415.5 428.3 441 454.3 465.3 476.1 487.3 496 502.4 505.3 502 497.6 493.7 490 487.2 483.8 483.6 486.6 491.8 495.1 495.7 490.6 481.9 472.8 463.3 452.9 442.3 437.2 433.9 429.4 428.4 424.6 419.7 414.1 408.4 402.8 395.8 386.7 369.6 362.8 381.4 398.5 413.8 428.2 440.6 450.8 458.9 465.2 472.9 480 486.4 492.1 498.1 501 502.1 501.9 495.3 484.1 471.8 457.9 443.4 430.6 423.9 420.8 421.8 425.7 430.4 433.1 433.6 432.5 428.3 421.5 410.8 394.6 379.8 364.8 349.7 334.7 320.8 307.2 298.3 287.3 276.5 269.7 258.8 246.8 245.6 246 262.7 277.9 292.6 308.7
476.5 485.2 488.3 489.5 489.5 489.6 489.4 487.1 495 501.6 508.4 512.2 514.5 511.3 508.1 506 503.8 502.3 501.1 501.3 502.5 499.6 496.3 492.7 490.6 489 487.7 486.4 487.2 489.4 492.3 495.3 499.5 504.1 510.7 516.1 517 510.8 503.1 496.4 490.5 484.6 479.8 475.8 473.2 471.8 470.9 470.1 469.3 471 473.4 478.7 485.4 492.9 497.6 502.1 507.4 513 516.7 515.3 509.4 501.6 490.5 474.6 455.3 435.9 423.2 412.7 411.8 410.2 409.5 409.1 408.2 408 404.2 395.6 389.5 379.9 369.2 355.6 341.5 332.6 329 323.3 319.5 313 300.5 300.7 300.3 298.7 298 298.3 310.5 322.3 325.4 330.7 337.2 342.8 348.1 349.7 350.1 347.1 342.5 348.1 365.1 377.5 389.9 401.6 413.5 426.1 439 451.8 463.6 475.4 488.5 496.7 503 505.5 503 499 495.4 494.2 491.5 488.2 487.6 489.9 494.2 497.9 496.7 491.7 483.4 474.1 463.4 453.5 443.7 439.4 435.2 434.1 433 428.5 422.9 417.3 411.4 405.4 397.7 385 367.9 361.8 379.8 397.7 413.7 426.7 438.9 449.3 456.8 464.4 472.7 482.1 489.2 494.8 497 497.2 496.2 492.2 487.4 474.9 461 445.8 434.6 422 416.1 412.1 412.7 414.2 417.6 419.7 420.3 419.4 415.7 411.1 401.2 389.5 376.4 361.7 347 331.1 318.2 304.7 297 283.5 273.1 268.2 265.4 248.9 247.1 245.6 248.2 263.3 280.5 297.1
469.4 477.6 481.6 482.6 481.8 481.9 481.6 481.2 488.6 493.9 502.8 511.2 512.1 508.9 504.8 501 498.7 496.8 495.8 495.1 495.7 494.5 492 490.8 489.4 487.6 485.4 484.1 484.7 487.2 490.2 493.4 496.9 501.7 508 510.7 509.9 506 500.2 494.4 488.4 482.3 477.4 473.6 470.8 469.3 467.7 467.1 465.7 468.3 472.1 478 487 496 502.2 506.9 512 519.6 524.9 524 518.6 510.5 498.5 483.2 465.7 445.3 433.6 427.8 426.4 423.7 420.4 418.5 417.6 417.6 412.6 403.7 395.6 383.6 372.9 360 346.3 335.1 327 322.4 320.1 316.4 301.4 299.8 298.4 298.2 297.5 297.2 302.2 321.2 320.6 324.2 329.4 333.5 337.5 339.9 340.4 338.9 335.3 350.5 365.4 376.2 386.8 398.5 409.9 421.7 435 447 459.8 472.7 485 492.4 497 498.3 496.3 493.7 493.3 492.3 491 486.9 486.4 488.8 491.7 494.8 493.7 488.6 482.2 474.3 463.6 453.7 445 441.1 437.5 437.4 436.2 431.8 426.1 420.2 414.3 407.8 399.4 383 364.6 359.7 377.5 393.9 410.2 422 435 444 452.6 461.8 472.4 482.4 491.7 498.7 502.7 500.6 494.6 487.8 479 465.9 451.7 436.7 423.4 411.7 405.3 402 403.1 403.8 404.4 405.4 406.8 406.1 403.4 399.3 392.6 383.6 372.1 358.8 344.2 328.6 316.3 304 296 282.5 272.4 266.8 263.7 252.1 247.8 248 245.5 253.1 269.9 285.6
455 469.9 474.4 475.6 475 475.5 468.7 483.3 490.6 498.4 505.2 510.1 509.8 508.2 502.2 497.9 495.4 493.4 491.9 491.4 491 490.1 489.3 489 486.7 484.1 482.4 480.7 481.7 484.2 487.5 491.1 494.9 499.5 504.8 506.7 505.6 502.3 497.7 492.1 485.8 479.9 475 471.6 468.8 466.6 465.1 464.2 462.7 467 471.2 479.1 489.5 499.1 506.2 512.6 519.2 528.8 533.4 531.9 526.7 518.7 507.1 493.5 477.3 462.2 452.3 444.6 437.3 432.2 427.8 424.5 422.9 422.9 418.7 410.8 399.7 387.5 377.6 366.7 352.5 340.7 330.1 322.1 317 313.8 310.4 310.5 314 313.4 297.7 296.3 296.9 317.1 317.2 318.9 323.2 325.4 328 331 331.4 330.7 336.2 352.2 364 374.5 384.5 394.4 404.9 417.4 430 441.4 453.1 466.4 478.1 483 485.4 487.2 485.6 486.3 486.2 485.5 484.1 480.5 480.4 482.1 483.9 489.2 489.4 483.7 479.6 473.2 463.5 452.6 444.4 441.5 440 440.5 438.9 435 428.9 422.2 414.8 408.1 400.3 386.5 366.4 354.6 372.5 388.9 402.3 413.9 427.2 437.8 448.2 459.4 471.3 483.9 494.2 502.3 507.4 505.6 498.3 489.2 480.1 465.3 449 429.4 411.1 402.1 395.4 391.6 391.5 392.5 392.6 392.2 393 392.5 390.4 386.1 382.9 377.8 368.3 354.3 340.9 329.8 315.4 300.8 293.7 283.1 273 266.4 262 255.3 250.2 248.5 246.6 246.6 259.7 275.5
452.8 451.5 464 468.6 467.9 463.2 476.4 489 499.5 506.5 509.7 507.3 505.5 502 498.8 495.4 493 490.8 488.9 488.4 488 488.8 487.5 484.7 482 479.8 478.1 477.6 478.7 481.3 484.9 488.3 492 497.1 500.9 502.4 499.9 497.3 494.5 488.2 482.6 477.7 473.3 469.9 467.1 464.5 462.4 461.1 459.6 465.8 471.1 480.6 491 501.4 510.5 518.8 528.9 536.5 540.6 539.4 532.9 527.9 516.4 502.1 488.1 475.4 464.5 454.5 445.8 437.9 432.8 426.4 422.9 421.5 418.8 411.8 401.4 391 382.4 372.2 360.1 348.4 337.6 327.4 320.1 314.3 310.1 308.4 306.4 306.7 307.1 296.4 295.3 308.5 314.3 314.1 316.4 318.8 321.1 323.6 324 326.9 338.8 350.2 360.3 371.3 381.3 390 399.4 410.8 423 433.9 443.8 457 468.4 473.1 472.6 473 473.8 473.2 473.5 473.7 471.7 468.9 468.9 471.6 474.5 479.2 482.1 477.4 473.5 468.4 460.7 451.5 444.5 441.1 441.2 443.9 443.4 437.7 430.1 422 414.9 407.3 397.8 386.3 368.1 353.1 366.3 381.8 393.1 405.2 419.5 431.9 446 460.6 474.5 487.6 498.1 507.2 511.8 510.9 503.1 494.1 482.7 466.5 446.7 425.1 408.4 395.3 387.6 382.3 380.4 381.5 380 379.8 378.6 376.7 375.6 373.7 373.3 370.4 364.1 352.1 339.1 329.1 314.1 300.6 292.4 281.5 274.8 267.8 263.3 257.8 251.8 249.2 247.4 245.6 253.4 267.1
458.5 454.3 449 456.7 456.4 465.5 479.7 491.7 504.6 509.9 509.7 508.2 503.7 500.6 496.7 493.8 491.4 488 486.3 485.3 484.5 483.9 480.8 478.6 477.7 476.3 474.7 473.6 475.3 478.4 482.2 485.7 489.6 498.4 504.3 503.7 497.4 493.2 490.2 485.9 480.6 476.3 472.2 468.2 465.4 462.5 460.3 457.5 456.4 463.7 470.5 480.8 492.8 503.5 514.4 525 535.7 543.1 546.5 544 539.1 535.8 527.5 514.3 500.1 487.8 475.1 461.5 449.8 441.9 433.6 426.4 420.1 416.2 412.9 409.3 401.8 393.9 385.5 375.9 368.3 357.7 347.6 338.9 327.4 319.5 314.1 309.5 308.7 309.1 303.3 295.8 294.5 304.8 311.2 310.9 309.9 312.7 315.5 317.1 317.7 326.9 337.6 346.1 356.4 366.3 375.2 383.6 393.4 404.5 416.1 426.1 436.4 447.7 458.1 460.5 459.8 458.3 458.3 458.8 460.6 459.4 457.4 454.9 457.8 459.4 463.8 469.5 472.7 470.3 466.2 461.9 455.3 447.8 443.3 441.2 442.8 447.5 447.4 437.8 427.8 419.2 410.9 402.2 392.6 377 364.5 351.3 362 371.9 390.3 403.5 417.4 431.6 446.3 464.4 477.8 490.6 500.9 509.5 515.6 512.5 506 495.9 484.2 469.4 452.7 435.3 413.4 397.9 385.2 375.4 371.4 370.8 367.8 367.2 365.4 363.1 362.4 361.6 361.4 361.2 358.2 348.2 337.4 328.9 315.3 302.2 293.7 283.2 278 271.3 267.9 263.3 256.6 251.5 248.4 247.6 247.5 259.4
462.4 459.4 455 446.8 448.9 463.9 480 492.4 507.4 515.7 513.6 508.9 504.5 500.6 496.1 492.4 490.1 487.4 485.7 483.5 481.2 478.8 476.7 474.6 472.9 471.9 470.9 469 472.4 475.1 478.7 483.2 490.5 501.9 506 506 499.5 493.6 489.6 485 480.3 475.8 471.6 467.3 464.1 461.2 458.4 454.7 454.6 459.9 469.2 480.8 492.8 505.2 516.6 527.4 537.4 546.7 551.5 548.6 545.2 543.3 538.1 525.3 510.3 497.5 481.3 466.4 453 443.2 434 424 416.7 410.8 407.5 404.8 400.1 393.8 388.8 382.4 375.2 366.8 357.9 349.5 340.9 330.3 317.7 311.6 308.2 306.6 303.5 295.9 294 294.5 309 307.4 306.9 308.6 309.3 311.2 317.9 326.7 333.8 342.4 350.9 359.1 366.8 376.1 387.6 398.8 410.2 419.4 429.6 439.6 447 449.9 449 447.6 445.4 444.6 445.3 444.5 444.5 443.7 445.8 448.1 452.7 458.1 462.7 462.9 459.9 456.2 450.7 443.3 437.7 435.2 438.2 444.7 443.9 435.5 423.6 413.7 405.1 393.2 382 368.9 357.6 350.3 364.8 378.8 392.2 406.6 419.7 433.9 449.5 467.4 479.9 491.4 502.4 510.3 516.4 514.2 508 498.1 487.7 475.9 462 444.9 422.4 403.8 389.8 376.8 364.9 359.9 357.9 356 353 350.4 348.6 350.7 350.7 350.7 349.1 345.1 336.6 329.6 317.1 302.9 295.7 282.4 282.9 275.4 271.8 267.8 260.2 252.7 249.9 248.4 246.2 254.7
466.3 463.5 459.6 451.4 445.4 459.3 474.5 488.2 503.8 515.3 514.8 507.7 502.9 498.3 494.7 492.2 489.6 485.7 483.1 480.7 478.4 475.9 473.5 471.4 469.4 467.4 466.3 464.5 468.6 471.7 475.8 483.6 491.8 500.2 507.4 506.5 501.8 495.5 490.6 485.6 480.6 475.7 470.8 466.4 463.1 460.1 457.2 453.3 449.1 457.1 467.2 478.7 491.3 503.7 516.5 527.3 538.2 547.5 551.3 552.6 550.4 550.1 545.3 534.6 520 504.2 487.8 470.7 455 443.7 431 421.6 412.1 406.1 400.2 397.9 395 391.7 389.5 385.1 380.7 374.5 368.1 360.8 351.4 341.3 327.9 317.3 308.7 304.5 303.1 297 293.7 294.1 292.4 297.9 301.1 302.9 306.1 312.3 318.6 323.5 330.5 336.9 344.9 353.2 361.1 368 381.2 393.4 405.3 413.8 422.8 431.7 436.7 439 438 435.7 432.8 430.1 430.3 430.8 431.5 431.2 433.1 436.8 441.3 446.5 451.7 452.9 453.3 452.1 447.4 438.8 429 423.1 430.9 437.7 438.6 428.8 417.3 407.2 394.7 380.6 371.6 362 350 351.7 369.1 384.5 398.5 412.7 425.8 441.1 454.4 467.9 480.8 492.3 502.1 510.1 515.8 515.3 509.6 499.9 490.1 479.3 467.9 454 435.8 412.9 396.4 381.5 369.1 357.9 349.5 347.7 344.6 342.1 340.3 340.5 340.4 340.4 340 337.5 334.1 329 319.5 305.7 294.9 288.6 287.8 281.8 274.7 270.1 263.6 255.9 249.9 248.2 246.5 254.6
470.7 467.5 462.8 452.3 443.9 450.1 468.6 482.5 497.7 510.4 508.6 502.6 499.1 494.3 491.1 489.9 487.5 483.4 480.8 478.3 475.7 473.2 470.2 468.2 466.2 464.3 462.3 458.6 464.2 469.3 473.9 482.3 491 501 509.6 508.4 502.4 499.5 494.7 488.8 483.2 477.5 471.9 467 464.3 460.6 457 453.2 447.2 453.3 463.1 474.3 486.9 500 512.6 522.8 533.7 543.2 548.8 552.4 551.9 552.6 553.1 542 526.7 509.3 493 475.6 456.6 442.3 429.5 419.5 408.8 400.3 394.7 391.7 389.5 388.5 387.7 385.8 382.2 379.1 376.7 372.8 365.1 352.8 340 328.3 315.7 309 306.3 302.6 294.1 293.8 293 292.3 292.3 303.2 306 309.8 315 320.7 326.3 332 339.3 348 355.8 365.1 376.5 388.6 400.5 407.9 415.4 422 426.1 428 426.6 422 419.6 417.2 416.6 417.8 417.7 418.5 421.9 426.2 430.8 435.5 440.2 443.9 445.7 446.4 442.9 433.4 424.4 415.9 420.8 428.1 428.6 421 409.3 397 383.8 371.8 363.5 356.1 343 357.8 374.6 390.2 405.7 417.3 430.7 443.5 456.3 469.1 480 490.1 500 508.5 514.9 516.6 511.1 501.9 491.9 480.6 469.3 458.2 446 427.1 405.7 388.3 376.2 364.3 355 344.6 335.7 334.3 332.9 332.6 331.7 331.6 330.4 328.3 328 325 318.8 308.2 296.4 300.3 295.9 287.9 282.4 275.9 268.4 259.7 250.1 247.9 247.7 248.7
475.1 471.5 465.6 457 445.8 441.7 463.1 479.2 494 502.2 501.3 495.5 492.4 488.8 487.5 484.5 483.6 481.1 478.5 475.7 472.7 470.9 467.7 464.5 462.5 460.5 457.8 455 459 464 471.5 480.9 491.2 500.8 507.2 505.1 503.2 501.2 498 492.7 486.4 481.3 476.4 469.2 465.7 462 458.5 454.5 448.1 442.4 455.6 466.9 479.2 493.2 506.1 517.2 527.1 536.1 543.2 547.8 552.5 554.3 555.3 545.7 530.1 513.3 495.6 477.5 458.5 441.1 428.2 415.7 404.7 396 391.9 387.2 384.8 384 383.3 381.7 380.3 376.8 373.6 371.3 368.5 361.9 351.1 341.2 330.5 321.8 314 306.9 301.5 293.4 292.5 291.9 290.9 290.9 296.1 305.2 309.5 314.7 319.2 325.9 333.2 342.2 350.4 360.8 372 385.1 395.8 402.5 408.9 410.8 412.8 414.7 413.9 407.7 405 401.2 403.1 405.4 405 406.6 411.2 415.8 420.3 425 429.8 434.9 437.5 439.3 434.9 426.8 418.2 410.9 405.3 414.2 416.2 411.9 400.9 382.7 368.3 364.2 357.9 348.4 340.6 358.1 376.2 392.8 408.1 421.1 432.3 444.2 455.4 465.3 476.2 486.4 496.3 506.4 512.7 514.7 510.4 502 492.4 481.6 470.4 460.9 449.3 436.3 417.1 399.3 384.6 369.6 358.8 349.9 342 333.9 325.1 323.7 323.1 321.1 320.8 319.6 318.8 314 311.4 303.2 307.9 310.9 307.7 300.4 294.3 284.3 275.7 261.1 249.8 247.2 249.3 251.7
480.2 474.6 468.9 458.8 444.8 442 460.9 476.1 487.4 492.5 492 489.4 485.9 483.5 481.8 480.8 479.6 477.7 474.7 472.2 470.4 469 466.2 462 458.6 455.7 452.8 447.2 453.6 458.5 466.2 476.4 489.3 498.1 501.5 499.6 500.7 500.4 499.8 496.9 491.5 486.6 481.1 473.3 467.9 463.6 460 456 450.4 437.5 447.8 459.3 470.5 483.7 496.9 509 517.6 526.9 538.1 545.7 550.9 553.7 552.1 544.5 529.2 511.3 492.9 475.5 455.9 437 419 409 397.4 390.6 385.8 381.4 379.9 376.9 375.3 374.3 370.9 368.2 365.7 363.3 360.7 355.3 351.2 349.2 341.6 335.7 328.1 321 316 306.9 292.9 291.7 291 291 289.6 290.1 304 306 313.9 320.1 328 337.2 346.3 356.4 367.8 380.8 390.9 396.6 399.3 400.2 400.7 400.3 398.2 394.8 392.5 391.2 390.7 392.1 390 389.7 396.4 403.2 409.7 414.8 420 425.2 428.3 429.1 426.3 420.1 412 403.2 392.6 398.7 402.8 399.4 389.9 378.8 362.9 355.9 350.9 345.8 341.8 359.3 376.4 393.3 408.8 421 432.2 443.3 452.8 462.6 472.3 483.1 493.2 502.7 510.4 513.1 508.8 499.9 489.5 480.6 472.3 462.8 452.8 442.7 428.5 410.1 393.4 377.7 363.6 353.5 344.9 339.1 332.5 324.7 318.5 312.7 313.4 311.5 308.6 305.5 303.3 302.9 307.2 311.5 312.5 306.2 300.2 290.4 278.9 259.6 249 248.6 248.9 249.2
482.4 475.5 469.5 457.5 442 442.3 457.9 471.2 479.2 482.1 481.2 481.9 479 478 477.6 475.6 475.1 474.1 471.8 470 468.6 467.1 464.8 460.2 453.9 448.4 446.6 443 446.7 452.9 459.6 469.9 481 489.8 493.4 494 495.4 497.8 499.6 500.2 496.9 492.1 485.5 478.4 471.9 467.4 462.6 457.6 451.7 437.2 437.3 449.6 460.9 473.2 485.7 497.4 507.9 518.4 531.5 542.2 548.8 552.3 547 537.6 522.9 503.3 487.3 469.6 449.1 428.1 411.7 399.9 391.8 384.9 379.7 376.2 373 369.7 367.3 364.6 362.2 359.7 357.2 354.7 351.8 348.4 345.9 344.4 341.9 340.3 338 333 325.6 316.7 307.1 291.2 290.3 290.1 289.6 289.4 288.9 298.6 307.4 312.9 323.2 332.1 341.4 350.8 363.4 371.1 380.9 386.3 388.3 388.6 388.7 388.8 386.4 384 383 381.8 381 380.4 378.6 378.8 384.6 392.4 398.8 405.5 410.8 415.7 419.6 420.5 417.8 413.3 405 395.3 383.2 384.5 387.3 386 380.1 366.7 356.7 348.2 343.9 340.9 338.7 358.6 376.1 391.8 405.7 416.7 426.4 437.1 447.6 458.2 469.2 480.7 490 498.8 506.1 510.1 506.5 497.6 486 476.7 468.7 461.1 453.7 443.3 432 418.7 401.9 386.8 374.2 358.7 347.9 340.4 334.6 327.1 319.8 312.6 307.6 304 301.5 299.5 297.4 298.8 301.4 302.6 303.2 300.3 294.9 285.2 272.4 251.4 246.9 249.2 249.5 249.5
482.3 475.1 468 452.8 434.8 442.4 456.8 470.6 473.4 474.7 475.3 475 475 473.9 471.8 471.2 470.6 470 469.5 468.1 466.7 465.3 463.4 458 451.4 443.9 440.5 435.5 439.7 445.9 452.1 460.9 470.3 478.8 483.9 488.6 492.5 495.6 498.8 502 502.6 498.9 493.5 487.2 479.9 472.7 467 460.1 453 442.6 427.1 439.8 450.4 462.6 473.4 484.4 497.7 510.9 524 537.1 546.9 548.4 539.8 529.1 513.8 494.4 473.8 456 437.9 420.3 406.3 397.6 389.3 381.8 376.1 370.7 366.3 362.5 358.9 356.1 353.5 351.2 348.7 346.2 343.6 341.1 339 337.5 336.5 336.3 336.4 337.6 332.5 324 314.2 303.9 299.3 292.2 288.9 288.4 288 288.2 301.1 307 317.3 325.9 333.3 345.3 354.2 361.2 365.9 371.7 374.3 376.2 378 378.9 377.6 374.5 372.5 369.9 370.7 371.1 366.2 367.7 376.5 383.8 389.4 396.2 401.9 408.4 413.5 416.3 413 408.2 399.9 389.8 379.1 370.8 373 370.8 369.8 359.6 349.1 341.2 336.7 334.6 340.1 357 373.7 387.8 399.7 411 421.7 433 444.8 454.9 466.6 475.7 482 489.8 496.7 501.1 497.7 490.8 479.9 470.9 464 456.9 449.5 439.7 432.2 421.5 407.7 393.8 381.4 368.9 355.9 342.9 335.2 327.4 319.3 311.1 305.1 302.1 296.2 292.5 291.3 292.1 292 291.9 291.9 289.2 283.4 276.3 264 250.9 247.5 249.9 249.9 254
481.1 473.5 461.5 438.7 434.6 442.1 460.7 469.3 472.5 473.4 472.1 470.2 469.5 469.1 467.2 466.6 467.8 467.3 466.7 465.9 464.8 462.4 458 451 443.7 439 434.8 427.5 430.3 436.5 443.5 452.3 460.8 469.2 477.2 483 488.7 493.8 498.2 503.2 505.3 503.6 502.2 497.3 490.2 479.9 471.8 463.6 455.2 447.4 432.5 429.4 442.8 451.4 462.7 476.4 490.5 503.8 517.6 530.8 540 541.4 533.2 522 506.4 483.6 461.8 445.2 431.2 416.4 406.3 398.5 390.1 382.9 376.6 369.1 363.4 356.2 352.5 349.5 346.6 343.9 341.5 338.8 336.2 334.1 332.1 331 329.9 329.6 330.4 330.7 327.9 322.6 317 308 300.4 298 289 288.3 287.7 287 285.9 302.3 311.5 318.6 325.4 333 340 344.3 352 357.6 361.5 364.1 368.2 369.5 367.9 365.5 360.9 357.8 359.7 358.8 351.9 360.4 369.3 374.5 380 387.3 394.4 403.2 410.8 414.6 412.9 406.4 397.9 385.3 375.9 363.5 359.2 357.4 353.9 347.9 340.7 332.4 325.8 321.6 337.8 354.8 371.8 384.8 397.2 408.9 420.7 434.2 443.4 454.5 464.1 470.8 475.9 481.7 486.7 489.7 487.4 481.3 473.4 463.8 456.9 450.5 443.3 436.7 429.1 419.9 409.3 397.5 385.9 374.9 365.4 354.6 339.1 326.8 318.9 309.5 305.4 301.4 293.6 288.2 286.3 284.5 282.8 281.4 280.7 280.2 276.7 267.7 253.6 250.2 247.8 250.5 254 268.8
477.3 469.8 454.2 429.5 433.5 446.8 461.7 470 474.1 474.4 471 467.1 465.7 464.4 462.6 462.1 463.9 464.5 463.9 463.4 460.3 455.3 449.2 443 437.8 433 429.8 423.7 419 427.2 435.7 444.5 453.6 463.7 473.2 481.1 487.5 492.3 497.8 503.4 507.6 508.8 509.5 507.1 500.1 487.5 476.3 467.9 458.6 450.4 439 419.7 432.5 443.6 457.4 471.3 485 498 510.6 522.7 532.8 534.9 527.8 517.3 502.3 481.3 459.9 445.2 430.5 418.7 409.8 402.2 393.6 385.9 378.6 370 364.2 357.9 352.4 346.3 341.5 339.4 337.4 334.2 331 328.9 327.4 326.3 324.2 323.1 323.5 323.8 321.3 319.3 315.3 308.2 301.6 298.6 288.7 288 287.3 286.5 285.6 286.5 303.4 309.2 314.6 321.2 327.3 333.4 336.4 342.1 346.2 350.9 355 357.5 357.3 354.9 350.8 344.6 347.7 346.2 343.5 353.2 359.1 365.3 371.8 379 388.2 401.7 411.6 416.5 416.2 407.9 396.9 382.3 372.4 361.3 348.9 344.3 341.2 336.6 332.1 322.7 314.5 326.2 341.8 356.7 371.4 383.7 395.2 408.8 422.9 435.3 444.1 452.7 460.1 464.8 467.1 470.1 473.8 475.6 475.2 471.4 463.6 456.4 449.8 443.4 436.3 429.2 423.6 414.6 405 394.5 386.2 377 368 359.3 345.7 330.1 317.8 307.9 304.7 299.8 289.9 287.5 284.6 282.7 278.5 275.7 274.8 273 269.6 262.4 250.7 250 247.8 253 264.2 278.7
472.6 464.9 447.1 426.9 434.9 448 462.4 471.7 475.7 475 469.6 464.6 462.1 459.6 458 458.1 460 461.4 461.8 461.1 454.3 449.3 441.5 435.9 431.6 428.1 426.5 424.4 413 419.7 428.9 440.4 450.7 460 471.4 479.4 486.8 492.8 498.2 503.6 508.7 514.1 517.3 518.2 510.1 495.2 482.4 471.9 462.1 453 444 428 420.5 437.1 451.4 465.4 478.8 492.1 504.7 517.4 524.4 528.3 523.5 513.7 499.7 481.3 461.2 448.5 435.3 425 416.7 408.1 398.3 389.1 380.7 373 365.5 358.1 352.7 348.5 344.8 339.7 335.3 332.8 330.3 327.5 325.6 324.5 322.2 318.9 317.4 316.9 315.3 313.3 311.2 307.8 302.6 298.5 296.8 291.4 287 286.3 285.8 284.4 290 300.4 305.9 310.7 314.9 317.8 321.8 326.6 331.6 337 340.5 343.7 344 342.6 339.1 331.4 336 333.7 337.2 345 350.9 356.6 365.3 375.4 386.3 400.5 413.4 422.1 420.3 411.1 398.6 382 367.9 356.6 347.1 338.6 328.9 325.2 322.8 312.6 319.5 332.4 347.7 361.4 374.9 387.5 399.9 414.6 426.8 436.3 443 450.8 453.7 452.6 450.5 452 455.9 458.4 459.2 457.3 452.4 446.8 439.7 432.3 426.6 421.2 414.8 408.4 399.4 389.5 381.7 373.6 363.8 356.8 347.7 332.5 316.8 307.1 303.4 297.2 286.8 288 285.3 281.8 276.8 271.8 267.8 266.2 264.3 259.4 251.6 250.5 250.9 260.7 274.8 287.2
466.3 458.6 442.2 424.5 436.2 450.1 463.8 474.3 478.7 475.8 468.1 462.6 458.6 454.8 453.5 454.3 456.4 457.5 457.9 455.4 449.5 442.9 435.2 430.8 427.8 425.7 423.9 421.9 414.3 405.7 421.7 437.7 449.9 460.9 470.8 480.1 486.6 493.6 499.5 504.8 511.3 517.3 523.2 524.1 516.3 504 490.7 479.2 466.3 456.2 446.4 429.2 411.3 429.1 444.8 457.6 471.1 484.5 498.6 511 519.4 524.1 520.1 511.3 498.3 480.8 462.9 450.7 439.9 429.6 421.1 414.1 405.3 398.2 390.9 377.1 368.4 360.9 355.6 351.8 348.1 344.1 339.2 334.4 331.5 328.4 325.8 323.9 320.7 318.2 315.4 313 310.2 307.7 305.1 302.8 298.9 296.5 297 295.6 294.2 294.1 285.7 284.3 283.2 284.6 293.9 298.7 303.8 307.2 309.8 312.9 317.5 324.3 327.1 330.1 330 328.3 326.5 322.6 325.5 324 329.6 336.6 343.4 349.7 359.6 371.5 386.3 400.1 412.8 421.5 418.7 411.1 397.2 382.5 366 352.2 344 336.9 328.8 320.2 313.6 308.9 323 339 355 369.3 383.4 395.1 407.6 419.8 430 437.6 442.1 444.4 443.1 437.7 433.4 435.9 439.5 441.2 442 440.7 437.6 432.3 426.2 421.3 416.2 412.4 407.1 399.8 393 384.1 374.1 366.3 358.9 351.7 342.3 330.9 315.5 306.5 302.2 293.8 285.1 285.8 284.4 280.6 275.3 270.1 265.9 261.8 257.8 251.7 251.1 249.8 254.7 269.3 284.1 296.8
460.3 454.9 438.3 421.4 435.3 451.8 466.6 479.3 482.3 476.9 466.7 460.7 454.8 450.7 447.8 447.3 449.8 453.3 455.9 453.2 445.7 438.2 431.2 428.3 424.7 423 421.3 417.9 407.8 402.6 425.6 441.7 453.2 463.6 473 481.7 487.9 494.1 500.4 506.1 512.1 523.5 528.2 526.3 520.2 509.2 497.4 484.9 470.2 457.4 446.4 426.8 413 420.6 438.8 450.7 462.3 474.3 489.3 502.3 513.7 519.1 517.3 508.1 494.8 479.1 463.5 451.8 442.7 433.4 424.2 417.9 411 402.3 399 382.1 372.5 365.4 360.5 357.5 353.9 350.5 345.9 341.7 338.9 333.2 330.2 325.9 323.4 321 317.4 315.3 312.4 309.1 305.4 302.5 298.3 293.9 294.4 294.9 293.8 292.6 288.8 284.5 283.7 282.6 283.1 284.7 291.3 295.8 298.6 301.8 305.2 309.7 314.4 314.2 315.6 315.6 315.1 314.3 316.3 316.9 321.3 328.3 335.5 344.4 354.2 367.9 384.3 397.9 408.7 414.4 410.5 403.7 392.3 380.4 365.3 347.6 339.3 333.4 326.5 318.5 310.3 306.8 324.7 343.1 360.8 376.2 390.8 402.8 414 424.3 433.8 438.6 439.9 436.6 428.8 422.7 418.8 419.6 421.4 423.1 426 424.6 422 416.8 413.1 410.9 407 403.5 398.8 391.5 384.5 377 367.9 357.9 351.3 344.1 336.1 327.1 314.6 305.4 298.8 290 283.4 284.3 281.9 277.7 273.3 269.2 265.1 261 254.6 252.1 251 248 262 278.2 293.6 305.5
454.1 449 426.6 422.7 439 453.5 468.7 482.2 484.4 481.2 465.2 455 448.3 443.3 440.6 440.8 442.8 447.8 452.1 450.4 441.9 434.8 428.8 424.5 421.8 419.8 417.6 409.2 397.7 409 430.7 446.1 458.2 470 478.1 484.7 490.3 495.9 501.9 508.3 515.1 527.1 528.9 530 523.7 514 501.2 487.1 474.2 456 445.8 425.4 407.2 415.5 431.6 443.4 454.8 467.2 481.2 494.3 507.1 514.8 515.2 506.8 492.7 478.1 463.3 452 443.1 434.2 425.7 419.8 413.7 406.6 398.9 395.6 380.1 368.4 364.7 361.9 361.1 360.4 358.6 353.8 347.6 340.9 335.7 333.3 330.6 327 323.3 320 320 317.3 311.5 307.1 302.8 296.8 291.7 290.2 285 284.1 284.5 283.7 283.5 282.5 282.8 282 283.7 283 286.1 287.1 291.1 296 299.8 302.2 303.9 303.9 305.7 307.4 309 310.4 314.6 322.2 330 340.1 350.1 365.6 379.6 392.1 400.7 404.6 400.3 394.7 388.4 378 365.2 346.2 334.9 328.2 322 314 306.2 304.3 326.5 347.8 365 381.7 396.5 409.3 421.1 431.3 435 436.8 434.4 426.2 417.1 408.7 403.2 404 405.1 405.7 407.6 405.1 403.3 401.2 398.5 398.9 397.3 394 389.8 382.8 375.2 368.1 360.3 352.1 344.3 337 329.6 322.9 313.4 303.7 295.9 287 283.9 281 277 273 270.2 267.4 263.5 258.8 251.5 251.5 251.4 252 273.3 290.1 303.7 313.7
444.8 439.9 426 422.3 439.8 455.2 469.1 480.8 483.5 478.6 464.1 450.6 439.8 434.4 432.7 433.7 436.8 441 444.8 445.2 437.2 429.1 422.8 419.5 416.7 414.7 412.2 400.2 391.3 416.3 435.7 451.5 466.9 477.9 483.4 487.9 493.5 499.1 504.6 510.2 521.4 530.1 533 533.5 526.8 517.5 505.6 489.4 474.9 456.8 446.1 425.2 403.1 411.8 424 434.3 446.5 459 472.1 486.1 499.6 510.3 512.6 505.6 492.8 478.6 463.8 452.4 443.5 433.7 425.3 420.6 413.7 407.9 400.8 392.2 383.1 372 366.1 364.5 365.6 367.2 367.6 363.9 360.6 352.8 347.1 342 339.6 335.3 328.8 323.2 320.6 317.3 312.6 307.2 303.1 299.2 289.1 286 284.8 284.2 283.7 283 282.4 282.1 282.4 282.8 281.4 281.1 280.8 280.5 280.6 281.6 287.5 291.4 295.3 296.1 298.8 300.6 302 304.1 309.4 316.4 325 335.5 346.9 361.5 374.4 383.4 389.3 391.6 389.8 388.1 384 378.9 364.9 345.5 331.9 324 317.3 309.2 303.5 308.2 331 349.5 367.6 386.1 400.5 413 426.7 432.7 433.1 432.2 425.5 416.6 404 395.5 393.2 393.2 391.4 390.3 391.9 389.2 387.2 385.7 385.6 385.6 385.3 383.1 379.5 371.6 366.1 358.9 351.2 345.1 338.7 331.1 322.5 314.7 307.9 301.5 293.4 284.7 279.3 275.9 271.8 268.3 266.4 263.6 259.9 254.4 251.5 251.5 249.8 262.4 283 300 311.1 319.8
435.4 431.5 419.2 422.4 441.9 457.7 467.4 475.4 472.9 464.8 453.7 440.1 429 426.4 424.5 424.6 429 433.3 436.2 438.2 431.8 425 418.8 414.4 412.1 409.7 406.5 391.6 395.2 417.4 438.8 457.2 471.5 483.4 488.3 491.6 496.7 502.2 507.2 515 524.8 531.2 536.6 534.2 526.2 519.1 509.2 492.2 475.3 456.9 444.3 427.9 404.4 402.4 414.7 427.1 436.9 449.9 462.7 476.5 491.1 502.2 507.8 503 492.4 477.1 463 451.7 441.7 431.7 424 418.4 411 404.1 398.3 391.2 381.7 372.5 367.3 366.6 367.3 371.7 374.8 374.7 371.6 368.7 365.3 360.6 352.7 344.6 336.7 327.9 324.1 320.5 315.5 310.6 304.3 295 286.9 285.8 284.3 282.6 283.7 282.7 282.1 281.8 281.2 282 281.2 280.7 280.3 280.2 280.2 278.3 278.4 280.6 283.3 288.3 292.3 294.7 296.1 297.9 305.2 310.9 320.1 330.2 342.7 356.4 368.2 375.3 376.9 378.1 377.4 376.8 375.7 374.6 363.4 345.6 329.1 321.1 314.6 306.5 301.1 312.5 331.3 347.7 369 386.7 401.5 414.3 427.4 429.1 427.6 424.1 417.1 405 393.3 385.2 381.9 379.2 377.6 377.8 378.6 375.6 372.9 371.9 371.4 371.9 372 371 366 361.6 356.1 349.4 341.6 335.7 330.4 323 313.2 305.1 301.5 296 286.5 282.4 276.1 271.1 267.1 263.8 262.4 258.7 255.1 253.8 252.4 249.6 256.6 274.3 293.4 307.9 317.8 325.5
428.4 422.9 411.2 426.6 443.8 454.9 464.1 464 458.8 449.8 439.2 430.4 422.7 418.3 416.1 416.1 419.1 423 427.5 429.3 427 421.7 415.3 410.1 407.1 404.3 401.6 387.5 396 414.6 434.3 454.3 468.3 479.7 489 496 499.7 504.7 510.1 517.8 525 530.9 533.6 530.6 523.3 517.6 508.2 494.7 478.4 459.3 443.4 429.2 407.2 392.2 403.4 415.8 428 440.7 453.7 468.6 481 493.4 501.1 499.7 489.4 475 460 448.5 439.6 429.6 422.7 416.2 407.8 401.6 395.8 388.2 379.6 371 367.1 366.7 368.2 370.8 376.5 379.6 379.5 380 380.7 376.3 368.3 355.4 345 333.8 328.4 323.4 318.6 313.7 306.8 289.5 287.3 284.5 283.4 284.1 290.7 290.4 282.7 280.9 280.5 280.9 279.4 280.1 279.9 279.9 279.2 278.7 278.3 277.9 277 276.9 283.6 288.9 289.3 292.3 299 306.9 313.9 324.7 338.5 350.3 360.1 365.9 366.3 365.9 365.4 364.9 365 364 358.3 345.8 328.1 318.8 311.2 304.3 297.5 308.6 326.1 347.7 368.3 384.6 398.8 411.5 422.4 422.4 419 413.6 404.3 390.6 382.6 377 370.3 366.4 363.8 363.3 364.2 359.2 359.3 357.2 356.4 356.6 358.6 357.9 355.7 350.6 344.3 337.1 331.7 325.6 318.6 310.5 302.3 296.6 292.9 286.5 279.7 276.1 271.1 265.9 262.1 259.3 256.9 255.3 252.5 252.1 250.2 254.3 270.5 286.8 304.2 316.2 325.5 330.8
422.7 412.1 418.5 434.3 441.1 448.8 454.6 452.6 446.9 438.5 429.2 421.3 415.3 411.6 408.1 406.5 408.3 412.1 417.8 421.6 421.4 417.4 412.6 407.2 403.7 400.4 397.4 381.4 390.4 407.3 426.3 444.7 459.7 473 483.1 492.2 498.6 504.3 509.9 517.2 524.1 526.5 525.1 521 514.2 509.7 502.4 492 479.1 460.8 444.7 430.5 409.8 399.2 392.4 405.3 419.8 431.5 444.3 459.3 473.5 484.9 493.2 494.2 486 471.8 458.1 446.7 436 427.6 420.5 413.1 404.7 399.2 390.7 383.5 375.7 369.1 365.8 364.6 365.1 367.5 372.6 377.7 381.8 384.7 388.7 389.8 386.3 370.4 355.7 344 334 327.1 322.2 315.8 309.7 286.5 287.9 285.1 284.5 284.1 283.9 291.6 281.8 280.4 279.7 280.2 280.1 279.3 279.6 279.4 278.8 278.5 278.1 277.5 277.3 275.7 275.6 275.7 285.3 286.9 291.5 299 309.5 320.3 330.6 340.4 347 350.1 351.6 351.1 350.5 350.9 351.7 351 350.3 343.6 331.7 318.6 309.4 300.4 296.1 307.7 326.3 346 365.1 380.1 391.8 403.4 412.5 412.3 407.7 401.2 391.9 382.1 374.9 367.6 359.7 355 350.2 348 349.2 344.6 342.5 342.1 335.2 344 345.8 344.1 341.7 337.3 330.5 323.7 316.3 310 305.4 297.5 292.7 287.1 280.8 275.4 271.9 266.4 263.9 260.2 258.1 257 255.9 253.8 252.6 251.1 254.5 266.5 279.9 297.9 313.9 325.2 331.8 333.7
417.1 403 417.7 428.7 436.1 442.4 444.5 443 435.9 429.2 421.2 413 407.5 403.8 400.2 393.5 397.7 401.7 405.8 411.2 413.3 413.3 409.2 404.3 401.1 397.7 391.6 376.6 384.4 398.5 415.5 430.3 443.2 458.6 471 482.7 493.4 500 506.9 513.9 519.6 518.4 515.3 509.7 504 499.5 493.5 485.6 474.5 459.1 443.6 428.8 410.9 400.4 385.1 396.6 411.2 423.3 435.4 449.3 464.7 476 482.9 486.2 481.6 471 459 446.6 434.6 425.6 418.5 410.1 402.1 393 387.1 381.8 372.8 367.5 363.7 361.9 362.3 364 367.3 372.6 376.8 383.3 391.2 395.9 394.4 384.5 369.5 356.3 343.5 333.5 325.1 318.2 310.1 287.1 288.4 289.3 285.4 284.8 284.4 284.7 281 280.2 279.4 279.8 281.1 279.8 278.2 278 278.7 278.4 278 277.7 277.2 277.2 275.8 275.7 274.4 276.4 285.3 292 305.3 315.7 323.9 330.4 335.2 335.7 336.9 336.4 336.1 337.2 338.3 340.4 342 339.3 331.6 318.7 308 300.6 293.5 310.3 327.3 341.4 357.4 371.9 384.5 394.9 399.7 400 395.6 390.2 381.9 372.5 365.5 358.1 349.8 339.1 334.1 332 333.1 328.4 323.5 320.8 320.4 324.6 330.2 330.9 328.7 325.6 318.6 310.5 303.3 296.7 292.3 287.1 280.6 275.1 270.8 267.3 260.1 258.4 255 253.8 253.1 254.2 254.2 252.8 250.3 255.5 267.1 277.3 288.4 303.4 316.6 328.5 333.3 334
413 399.9 411.6 421.8 429.8 436 436.3 433.1 427.6 420.9 412.4 405.6 399.9 396.3 393.3 387.5 387.7 389.1 393.5 399.9 404.7 408.1 404.3 399.8 397.1 393 384.6 372.6 379.7 387.6 401.2 415.1 428.7 442.7 456.2 470.7 483 490.6 500.9 507.8 510.9 508.1 503.9 498.3 491.8 487.2 483 477 467.8 455.1 440.2 423.4 407.7 399.2 389.4 384.9 401.4 414.2 426.4 440.7 455.5 466.6 474 477.8 476.8 470.4 460.3 447.8 435.7 426.4 418.6 407.8 401.2 390.7 383.6 383.4 371.4 364.7 361.1 359 358.3 358.9 361.6 366.9 372.5 379.4 387.3 393.4 396.8 394.9 383.1 371.2 356.7 341.3 331.2 320.9 312.8 294.7 288.9 294.3 287.2 286.2 285.8 284.7 281.9 279.6 280.3 281 287.7 287.4 287.6 285 277 277.1 277.4 276.9 277.2 276.9 276.2 276 275.9 274.5 276.1 287 298.9 310.2 317.5 322.7 325 325.2 324.1 323.8 325.5 327.4 329.2 330.1 331.5 331.1 327.5 317.5 306.8 299.6 291.6 304.8 321.2 333.8 348.4 361.7 373.2 382.1 388.9 389.4 383.6 376.2 369.5 361.8 354.3 347.1 337.9 329.4 322.7 319.5 317.5 313.6 309.6 307.9 309.7 311.3 313 315.2 314.5 311.4 306 297.9 291.1 286 280.2 273.5 266.9 260.6 257.9 254 253 252.6 253 253.9 253.6 253.1 251.2 251.2 261.8 268.9 275.4 284.2 294.5 306 317.2 326.9 331.4 331.6
408.9 396.1 404.1 413.8 421.9 428.2 427.2 423.2 418.7 412.6 404.3 398.8 394.2 390.6 385.8 380.3 377.1 378.7 381.2 387.8 394.8 398.5 397.4 394.5 391.6 387.4 380.6 370.6 374.6 380.2 389 401.1 414.2 427.8 441.2 456.1 469.6 477.2 487.7 495.1 497.6 495 490.3 483.3 477.6 475 472.1 467.7 459.2 448.3 433.6 414.7 405.6 397.9 389.9 377.2 391.8 404.1 418 431.7 444.8 456.7 464.5 470.6 474.4 471.4 461.6 450.5 438.5 429.5 423 410.8 401.5 391.7 381 376.8 367.4 361.6 357.4 354.2 353.6 353.8 356 359.6 365.3 371.5 378.8 386.2 392 394.5 387.6 377 365 348.8 333.2 321.7 312.6 296.4 296.5 296.7 291.5 287 286.1 285.6 280.5 281 281.8 288.8 288.9 288.7 288.9 286.5 282.9 278.3 277.6 277.5 277.2 276.8 276.4 276.1 275.7 275.4 274.3 278.2 292.3 304 310.5 314.2 315.1 314.7 314.1 314.6 316.4 318.3 319 320.7 322.1 321.4 318.9 314.3 305.7 299.6 293.7 295.4 315.1 326.2 338.2 349.5 361 368.4 377.9 379.4 374.5 367.6 359.6 352.6 342.6 333 325.1 319.7 316.1 313.5 309.8 306.5 304.3 300 299.9 301.7 303.4 302.7 300.8 297.5 293 285.4 278.2 271.2 262.9 257.1 254.1 254 254.4 254.8 256.2 255.9 256.4 254 253.4 255.1 262.8 267.9 271.3 275.8 281.1 288.6 297.7 308.6 318.9 326.2 326.9 324.4
406.7 397.9 396.2 407.3 412.5 416.3 420.1 416.7 411.7 403.5 397.5 392.2 387 381.7 376 371.1 368.7 369 364.3 372.9 379.8 384.6 387.4 387.4 384.9 381.1 376.9 369.3 364.5 372.6 378.5 387.2 399.5 412.3 426.2 441.3 454.9 462.5 468.9 475.4 477.9 477.7 473.6 468.1 463.5 462.6 461.3 458.1 451 440.3 426.4 411.8 404.4 397.2 389.7 378.3 382.4 395.5 408 421.5 434.2 445.2 453.8 459.9 467.2 469.6 463.6 453.5 443.3 435.1 428.3 416.2 405.3 393.9 382 373.5 365.5 360.1 353.8 349.9 348.9 348.4 350.7 353.2 358 363.8 370.9 378.1 385.1 390.3 385.7 377.8 366.1 351.8 335.2 320.2 310.8 299 297.3 295.1 289.5 287 285.2 283.5 281.3 284.7 292.5 292.4 291.8 292.4 291.7 288.3 284.6 280.4 277.5 277.2 276.9 276.6 276.4 275.9 275.5 275.3 274.6 275.2 287.2 296.7 302.3 304.4 305.9 305.2 304.6 305.8 307.3 308.4 310.5 314 314.8 309.8 305.5 305.3 303 298.6 291.6 293.1 310.9 321.9 329.4 337.1 347.3 356 366.1 371.4 366.6 360.1 352.9 345.1 331.8 324.2 314.7 308.1 308.4 308.7 305.8 302.5 298.4 291.1 289.1 289.5 290 290.2 287.9 284.2 279.2 273.3 264.4 256.8 254.5 255.4 255.2 255.9 256.5 259.4 261.1 261.7 263.9 264.9 267.1 269.5 271.3 274.5 275.7 278.6 284.8 293.7 302.1 313.1 319.8 320.9 318.8 314.1
403.9 398.1 391.8 401 404.9 407 409.8 408.7 404.3 396.2 389.8 384.5 376.8 370.6 368.2 367.3 365.6 364.8 363.9 363.1 360.7 366.2 374.5 378.9 377.7 376.1 371.9 368 360.9 365.2 370.6 375.1 383.5 395.9 411.1 424.8 437.9 447.4 452.7 457 458.2 458.1 455 452.5 449.6 449.2 449.9 448.1 442.2 432.8 420.9 409.9 402.6 395.2 387.9 379.7 371.8 386.2 399 411.8 422.8 434 442.2 449.6 457.1 464.2 462.3 455.8 446.2 440.1 432.2 420 408.1 397.4 386.1 374.8 365.7 357.7 351.1 346.7 344.1 342.9 345 346.7 350.9 356.4 363.2 370.2 376.4 382.9 381.6 375.2 364.6 349.7 331.9 317.7 307.3 300 296.1 292.3 288.4 285.7 283.9 281.6 280.4 296.1 301.5 304.3 305.1 304.8 301.4 297.2 288.4 284.1 281.4 277 276.8 276.6 276.3 275.7 275.3 275.1 274.3 274.1 276.9 288.6 293.2 295 295.8 295.7 295.9 297.2 298.9 300.1 303.4 307 309.5 314.3 315.8 301.4 298.8 295.8 291.5 289 306.1 315.2 322.9 328.7 334.6 344.4 355.4 362.2 359.3 354.3 347.4 338.2 326.2 320.4 315.3 306.6 304.6 303.5 301.3 296.9 291.9 286 282.5 281.5 282.1 280.6 279 274.4 267.4 257.3 254.7 255.1 255.3 255.6 258.1 263.2 265.1 267.7 270.5 271.4 274.8 275.8 276.7 277.2 277.7 279.5 280.8 283.3 290 299.1 306.1 312.1 313.5 312.9 309.2 304.5
397.9 394.3 387.8 392.3 395.9 397.4 397.6 397.2 395.5 385 381 371.7 369.8 367.8 368.9 378.9 380.1 371 364.8 362.9 363.3 360.7 358.2 369.2 370.5 370.8 367.4 363.7 360.3 358.5 361.9 366.4 372.4 380.7 389.2 404.1 418.1 428.2 435.2 438.5 440.1 440.6 439.4 436.2 436.2 436.5 439.2 438.1 434.3 427.1 417.5 408.1 400.3 392.8 385.4 378.5 366.6 377.3 390.1 402.2 413.3 424 432.7 441 448.9 454.9 456.3 456.2 451.3 443 432.4 416.9 408.3 398.7 387.6 376.9 365.5 356.5 348.4 343.3 340.5 337.9 338.4 340.2 344.7 349.3 355.4 361.5 367.2 373.9 373.9 366.9 356.8 342.5 326 316.8 308.4 296.8 292.5 288.8 285.9 284 283.4 283.1 280.7 307.4 309.7 315.8 319.3 320 317.7 312.2 307.4 290 284.4 282 277.8 276.8 276.4 275.9 275.5 275 274.6 273.6 273.8 278.2 284.2 285.8 285 287.3 288.5 290.8 292.5 293.4 296.6 300.2 305 312.8 316.8 309.1 298.1 292.9 290 284.9 300.8 307.9 315.5 321.6 326.2 332.2 342.5 349.8 353.2 348.2 340.5 330.5 321.8 316.1 309.4 300.6 297.1 296 294.5 289.5 284.9 280 276.5 275.6 274.1 272.9 271.3 264.7 257.9 255.2 255.5 256.8 259.3 264.9 268.6 270.5 271.8 275.6 276.9 280.8 283.3 284.7 284.3 283.7 283.2 284.1 287.2 290.9 295.5 299.9 304.2 306 305.7 303.4 300.3 296.4
391.1 387.5 384.2 382.9 383.4 385.1 384.3 382 376.1 373.2 373 371.3 377.4 386.6 395.4 397.8 392.5 385.2 379.4 374.9 368.5 363.3 359.2 356.3 357.4 358.1 355.2 353.4 353.7 354.4 353.4 355.2 354.3 362.2 372.1 384.8 395.6 405.3 412.7 418.6 420.7 422.5 422.7 423.4 423.6 423.8 426.9 427.1 425.5 421 413.8 405.6 397.3 389.9 382.7 377.3 369.5 368.5 381.1 392.6 403.8 415.5 422.9 431.5 439.5 446 448.9 447.6 443.3 437.1 424.5 413.8 406 397.7 387.3 378.7 366.2 354.9 346.2 340.2 337.6 335 333.5 335.4 338.9 343.3 347.5 353.7 359.2 363.8 364.7 357.7 347.9 334.4 323.1 315.7 304.7 283.5 283.9 283.2 282.1 282.7 283.6 283.2 280.5 308.4 317.8 323.7 330.2 337.3 337.2 328.6 318.9 310.9 291.9 284.8 281.7 278.7 277.2 276.4 276.4 275.6 274.5 274 274.1 273.5 275.5 278.2 279.7 282.3 282.6 285.4 285.7 285.7 288.1 292.3 298 305.9 312.2 304.8 295.2 289.7 287.2 283.4 295.3 302.5 308.5 314.2 319.1 324.2 332 340.6 343.9 341.8 335.7 326.5 320.2 312 304.6 295.7 289.3 286.6 285.9 282.6 277.7 274.3 271.2 268.2 267.1 265.6 262.3 258.7 257.5 255.1 256.9 259.7 269.1 273.8 276.2 277.4 279.1 281.1 282.2 286.6 289.5 290.1 288.6 288 287.1 288.9 292.4 295.3 297.2 298.2 299 298.4 297.5 295.6 294.2 291.4
384.9 384 382 381.1 379.6 377.8 378.3 376.6 375.2 374.1 371.8 389.5 399.1 407.5 412 407.8 401.3 394.1 387.4 382.7 376.5 370.7 364.8 356.8 356.2 355.2 353.4 352.3 351.8 351.5 349.9 348.8 347.7 347.2 345 360.9 375.6 384.5 393.2 399.8 403 406.1 408 409.7 411.1 411.3 414 416.6 417.7 413.7 409.7 401.8 393.1 386.3 380.6 376.1 369 361 373.1 383.1 394.9 407.7 415.3 422.1 429.9 436.9 438.4 436.3 431.4 424.6 412.1 405.7 402 395.3 385.7 377.9 365.1 351.9 344.2 338.9 334.9 332.4 329.8 331.2 334.2 337.2 341 344.7 350.4 354.7 354.5 349.9 340.9 328.6 317.7 312.7 296.2 292.4 300.6 304.8 295.7 285.1 281.7 282.1 281.3 305.9 315.6 323.6 332.6 342.2 349.4 347.9 332.8 320 303.3 290.4 285.3 281.2 278.4 277.2 276.5 274.6 274.3 274.6 274.1 273.5 272.7 272.4 273.8 275.8 277.1 278.4 278.1 277.9 279.6 283.5 288.5 295.1 296.4 295.1 290.9 286.7 284.1 279.6 287.9 295.1 300.6 305.7 310 314.8 324.5 329.8 331.8 331.4 328.3 321.4 315.7 308.6 300 291 284.7 280.3 277.5 274.8 270.5 269.3 267.4 265.1 263.4 260.1 257.9 256.6 257.3 255.9 257.5 265.5 274.2 280.1 282.5 282.9 283.8 283.8 287.6 292.3 294.3 293.4 292.5 291.8 291.3 294.2 296.7 293.9 293.3 294.3 293.4 292.4 291.5 290.7 289.5 286.7
387.2 388.8 390.4 389.8 391.1 390 388.5 387.2 388.7 393.8 399.9 409.5 418.2 423.6 422.3 416.6 408.8 401.5 394.3 388.3 383.8 378.1 369.4 363.4 364.4 362.9 362.2 359.8 356.6 353.5 349.6 348.9 346.7 347 346.4 344.4 349.8 359.9 369.8 380.8 385.6 389.4 392.6 395.9 398.1 399.3 401.6 403.2 403.2 405 403.4 395.4 387.9 381.1 376.7 372.2 366 357.8 368 378.5 389.8 400 408.8 415.6 422.6 428.5 430.4 425.8 417.4 412.4 405.3 400 394.5 387.7 382.8 375.6 363.9 351 341.7 336.3 332.4 329.7 327.2 326.7 329.2 331.7 334.3 338 341.5 344.4 345.8 343 336.7 322.9 313.4 305.1 292.1 287.6 288.6 301.5 305.3 298.8 298.6 295.9 291.5 309.1 317.2 320.8 329.1 339.5 349.5 354.2 347.1 329.3 312 296.9 289.9 284.9 281.6 279.2 276.7 275.9 272.5 274.2 273.9 273.6 273.1 272.7 272.6 272.7 272.5 272.1 271.8 272.1 272.8 274.2 278.2 281.2 283.2 283.8 282.6 281.6 280.8 277.8 283.9 289.1 292.2 296.5 300.7 303.9 311.7 317 320.9 321.8 319.6 315.4 309.8 303.7 294.9 285.9 280.7 276.2 272.1 268.5 265.9 265.1 264.9 262.5 259.8 258.3 258.7 258.1 257.4 255.4 258 264.6 273.5 278.8 280.9 282.9 284.7 286 289.9 293.2 294.1 293.6 292.4 291.4 292 292.6 293.5 292.3 290.7 288.5 288.6 287.9 286.5 285.3 283.9 281.5
401 399.2 403.4 404.4 406.2 401.6 404 404.8 408 411.3 418.4 427.2 433.5 434.9 430.6 422.9 414.6 407.3 400 393.4 388.6 382.4 372.2 378.3 377.5 376.1 374.4 374.5 372.6 369.4 364.8 362.2 358.4 355.1 347.9 344.7 342.5 341.9 349.6 360.6 371.2 375.6 378.4 382.1 382.9 385.6 388.1 388.8 391.7 393.8 393.8 389.2 383 375.5 371.6 367.8 363.4 356 363.3 374 383.4 392.3 401.2 409.1 416.1 420.7 424.2 420.8 415.8 406.5 397.9 387.1 384.3 379.5 375.5 369 359 348.9 340.1 333.9 330 327.2 324.5 323.7 324.4 326.7 328.7 331.3 333.5 335.1 336.9 337.4 332.3 320.6 312.5 307.4 299.9 292.1 288 289.7 309.7 309.9 303.5 301.3 304.5 307.4 315.2 320.3 324.9 335.1 344.6 350.5 348.6 337.2 318 305.2 295.3 289.3 284.8 282.4 281.4 277.8 275.6 273.2 272.9 272.9 273.3 272.9 272.6 271.3 271.6 271.5 271.1 270.5 270.2 269.7 270.3 270.9 270.5 272.4 275.1 273.4 274.9 275.9 280.5 284.6 284.7 286.7 290.7 293.9 299.4 303.1 307.3 310.2 311.1 307 299.6 294.9 288.5 280.4 276.7 271.3 266.7 263.3 261.3 262 261.6 259.1 258.1 258.5 258.1 258 258.1 256.2 257.5 258.2 266.3 270.9 274.4 278.8 281 282 285.8 289.5 289 288.3 287.6 286.7 287.3 288.3 288.6 287 284.8 282.3 282.2 282.1 280.4 278.7 275.3 273.9
410.6 410.2 411.2 412 413.9 414.1 418.9 421.1 423.9 427.3 434.9 441.8 444.4 443.2 437 428.5 420 412.6 405.6 398.7 392.2 383.4 385.5 394 397 395.2 388.9 388.5 387.1 386.1 379.4 371.7 365.8 362.4 359 353.8 343.5 341.3 340.6 340.3 356.4 362.7 364.5 366.2 369 372.5 374.1 376.7 380 383 383.6 381 376.2 369.4 366.5 363 359.1 355.4 358 368.8 377.4 385.7 394 402.5 409.6 415.6 419.5 417.9 414.6 403.5 395.2 386.8 381.9 373.5 367.2 361 353 346 338.5 331.7 327.4 324.7 322.5 321.7 321 322.6 324.3 325.4 327 328.4 330.4 331.5 328.4 321.8 312.6 306.6 302.8 297.5 293.4 287.1 297.7 309.1 301.6 299.8 301.3 310 315.3 320.3 322.7 330.2 339 347.7 346.7 337.6 322.6 310.4 300.3 294.4 288.7 286.3 285.3 281 277.8 275.3 272.5 272.9 273 271.7 272.3 271.1 271.3 270.9 270.5 270.3 270.1 269.6 268.7 268.7 268.6 269.1 270.1 271.7 273 274.7 277.3 279.9 280.4 279.8 281.8 284.6 288.8 292.3 295.5 296.1 295.8 294.3 289.9 286.3 280.9 276.8 271.4 266 263.1 260.4 259.8 259.6 259.3 258.1 257.7 258.4 258.6 257 256.3 258.5 260.7 258.4 258.2 263.5 269.2 273.6 275.9 277.3 280.8 282.3 280.3 280.3 280.8 279.3 281.6 282.6 282.1 281.1 277.9 273.3 274.3 273.4 270.4 269.8 269.1 268.8
416 418.6 419.1 420.2 423.3 426.7 433.9 437.8 440.4 446.4 450.3 454.8 453.5 452.5 447.2 440.3 425.6 417.9 410.8 403.5 396.5 386.6 399.5 407.2 414.4 416.3 409.4 408.9 405.4 400.9 398 389.9 379.3 369.2 365.6 361.7 357.1 350.7 342.9 339.4 341.7 351 354.8 355.7 359.2 361.2 364.1 366.4 368 370.3 372.9 371.1 367.4 363.3 360.6 357.5 354.3 350.7 353.9 364 372.7 380.2 388.4 395.8 403.8 408.2 414.3 413.4 411.6 403.6 394.9 382.1 377.7 366.8 360.1 353.4 347.9 341.9 336.8 330.6 326 322.6 321.5 321 320.1 320.3 320.4 320.5 321.6 322.8 324.2 326 327.1 321.1 311 307.4 307.2 301.2 298.7 291.2 287.4 302 301.4 296.5 298.3 305.5 318.2 322 322.4 326.8 336 343.8 345.5 339.8 330.9 319 308 300.9 295 290.6 288.2 284.5 280.2 277.5 275.1 273.2 272.6 272 272.4 271.1 270.8 270.6 270.4 270.2 270 269.8 268.8 268.2 267.9 267.9 268.3 268.6 269.4 272.5 273.9 276.1 277.1 275.2 274.9 276.5 279.4 282.5 283.4 283.7 283.6 282 279.1 278.9 275.4 271.5 265.9 263.7 261 260.2 260 260.1 259.5 258.3 258.1 258.4 256.9 258 259.3 261.2 258.7 258 259 258.9 263.4 266.9 269.8 272.6 274.4 274.3 273.1 270.5 270.8 270.4 272.6 275.3 275.8 272.4 267.9 267.3 267.5 267.5 267.8 267.9 268.6 267.5
429.6 432.2 433.5 435.4 436.5 440.2 448.6 454.8 461.2 468.9 473.2 473.5 473.8 471.9 464 452.3 439.3 426.4 416 408.6 402 399.2 410.7 419.6 428.4 430.6 430.3 430.6 428.9 427.1 418.6 407.2 396.9 384.5 374.1 367.7 362.9 358.9 351.3 341.7 337.9 339 343.5 346.3 350.2 352.3 354.2 356.5 358.5 359.1 360.9 360 358.5 357.2 354.8 351.7 349.5 347.2 349.7 359.3 367.4 375.2 384.2 392.7 400.8 405.3 405.7 405.9 401 394.8 380.8 364 360.1 353.1 350.1 345.7 342.6 336 332.3 326.7 323.1 322.5 321.8 319.9 319.6 317 317.5 317.6 316.7 317.6 319.3 320.6 323.3 321.8 311.3 314.7 312.9 308.2 301.7 298.3 291.1 287 303.1 300.5 309.7 317.8 321 321.7 322.4 324.4 332.8 341.4 346.7 346.5 346.2 338.1 328.7 317.6 309.7 298.7 293.4 289.2 284.4 279.7 277.2 274.1 272.1 271.7 271 271.3 270.9 270.6 270.4 270.2 270 269.8 269 268.6 268.6 268.3 267.9 267.6 267.1 269 271.6 271.1 271.6 270.8 270.7 271.6 272.7 274.7 275.7 276.5 276.1 272.7 273.7 272 269.5 264.8 262.5 261.7 261.1 260.7 260.3 260.6 259.7 258.7 258.5 258.3 258.1 259.6 260.9 260.7 260.1 260.2 258.1 259.8 259.9 261.5 262.2 264.1 265.2 265.4 263.9 263.4 263.4 263.7 263.7 265.8 265.6 265.8 266.3 266.4 266.6 266.9 267 267.8 267.3 271.7
446.3 449.5 452.5 453.9 452.9 456.3 462.3 475.3 484.2 492.3 499.4 500 498.4 494.1 483.3 466.3 449.8 434.6 421.7 413.3 400.5 409.9 421.4 432 442.3 447.9 449.4 449.9 448.1 451.1 447.6 432.4 419.4 405.4 390.1 381.4 369.7 365.3 358.6 347.3 337.2 336.6 337.4 340 341.6 343.5 345.8 347.8 348.8 350.6 352.7 352.5 352.5 351.1 349.6 347.2 345.8 343.4 347 355 363.6 372.1 380.4 390.2 397.7 405.5 410.6 413.1 410.6 405.3 396 379.5 363.1 353.3 347.6 344 341.2 333.7 328.4 325.5 322.3 320.6 318.6 318.1 317.3 316.6 313.4 314.6 312.4 313.2 314.7 315.2 317.2 317.4 310.9 316.3 316.1 316.1 313.4 304.4 295.4 288.5 290.8 294.5 308.7 301.7 305.2 322.3 322.4 324.3 332.4 341.9 349.9 354.3 359.4 356.6 346.9 337.2 327.5 317.4 304.5 295 289.1 283.4 280.6 277.6 273.4 271.4 271.3 271.7 271.3 271 270.6 270.2 269.9 269.7 269.2 269 268.5 268 267.6 267.4 266.4 265.7 266.8 269.2 268.9 268.3 268.2 268.9 269.1 269 269.3 269.7 269.5 267.2 266.7 265.5 264.2 262.3 262.5 262.1 260.8 260.4 260.6 260.7 259.9 259.1 259 256.7 259.6 261.7 262.8 263.3 262 261.2 261 259.7 260.5 261.3 262.1 261.9 263 263.2 262.1 262.4 264 264.4 265.3 265 264.1 264.2 265.4 266.9 267 269.8 276 277.1 279 282.8
463.3 466.4 470.3 473 475.9 478.1 483.5 494.6 506.6 516.6 524.8 527.6 524.9 516.9 503.4 479.3 459.3 443.7 429.6 415.9 409.2 419.1 432.6 443.1 453.9 462.4 466.9 469.7 472.3 475.4 471.1 459.2 444.4 429.5 412.3 400.6 386.2 377.6 370 359.9 347.4 336 334.9 334.5 334.4 335 337.5 340.2 341.8 343.3 344.9 346.9 346.7 346.4 345.2 342.9 341.4 339.7 342.3 351.8 360.2 368.7 378 387.3 397.3 406.4 413.4 417.7 417 411 398.2 384.3 370.5 358.7 352.3 345.9 339.7 332.9 328 324.1 320.7 317.7 315.7 313.1 311.6 309.4 308.9 308.7 307.8 308.1 309.5 310.6 312.3 317.1 317.1 315.5 317.2 319 323.1 317.1 296.7 288.3 293.5 297.1 304.9 307 303.9 319.3 323.4 325.1 334.3 343.1 352.7 362.8 371.3 375.4 368.9 357 342.2 330.3 317.2 304.8 295 288.5 283 279.5 275.3 273.7 269.9 272 271.4 271 270.7 270.4 270.1 269.8 269.3 268.3 268.4 267.7 267.2 267.3 266.6 266.8 266.5 264.7 266.6 266.1 265.9 266.5 267 265.4 263.9 265.3 263.6 263.7 263.8 262.3 262.7 261.1 261.3 261.7 261 260.3 260.5 260.2 259.3 259.4 259.4 257.8 262.9 264.1 265.5 267.2 266.9 265.7 265 262.4 260.3 260.9 261.3 261.8 262 262 264 265.3 265.6 266.1 266.6 268.9 271 271.2 270.6 271.1 275.6 278 280.7 283.5 285.5 289.2
478.2 485.1 489.7 493 496.6 502.2 507.3 517 528.7 540.8 547.8 552.1 550.5 539.5 513.6 486.3 466.6 448.3 433.3 421.5 416.6 426.9 440.6 453.3 464.3 474.3 480.5 487 492.2 497.4 493.5 480.8 465.8 449.9 434.3 418.5 404.2 393.3 381.8 371 361.2 350.1 336.6 333.4 333.3 332.1 332 333.1 332.7 334.4 337.3 340.2 341.9 341.5 339.5 338.7 337.6 336.8 340 349 357.8 367.7 376.4 387.5 398.8 408.8 417.7 422.6 423.5 419.3 407 391.4 376.8 363.7 353.8 346 340 334.1 327.5 323 319.3 316.4 313.2 310.6 309.1 307.8 306.7 303.1 304.5 304.8 304.3 305.2 307.6 309.2 308.1 307.7 312.7 319.4 319.4 311.7 293.2 289.3 293.3 307.6 308.8 311 305.9 318.7 327.4 327.9 336.5 347.6 360 371.2 380.6 384.2 379.8 372.8 357.9 339.7 323.1 308.3 296.3 289.5 283.5 280 277.1 275.1 270.9 270 271.2 270.9 270.6 270.3 270 269.2 268.6 268.3 268.3 267.5 267 267.5 267.1 266.6 266.1 265.6 265.5 266.4 264.6 263 263.8 263.7 263.4 262 261.4 260.9 261.4 261.3 261.9 260.2 259.7 261.1 259.4 260 260.2 259.9 259.5 259.5 259.4 262.7 267.1 268.2 269.9 271.5 272 271.2 270.4 270.4 269 261.7 261.1 260.7 261.3 264.8 265.6 266.3 267.1 268.5 271.3 273.1 274.6 277.3 277.6 279 280.5 283.5 286.3 288.8 291.4 295.5
491.8 500 506.1 511.7 516 521.1 528.8 538.9 549.7 558.9 564.3 565.5 561.4 542.2 514.8 489.1 470.6 454.9 440.1 426.4 425.9 432.9 446.9 460.5 472.8 484.2 491.7 498.7 505.8 513.6 514.4 501 485.1 466.7 452.8 437.9 423.1 410.9 397.4 382.7 372.2 362.4 353.1 346.5 333.2 331.5 331.1 330.6 329.6 329 329.6 333.1 335 336.6 335.6 335.4 334.2 334.1 338.8 347.6 357.2 366.7 377.2 388.4 399.8 411.2 420.5 428.4 431.6 429.2 418.2 402.1 385.4 370.3 356.6 345.7 340.1 334 326.2 321.9 317.9 314.1 311.3 309.2 307.6 306.2 305 303.5 302.1 300.9 300.1 300.8 302.3 304.5 302.9 301.9 304.9 309.3 306.9 297.6 289.5 288.7 289.2 300.5 312 305.2 304.7 315.3 318.8 329.8 340.8 352.7 364.8 377.9 388.4 393.1 389.3 381.3 368.5 346.3 325.2 308.9 297.9 291.2 284.4 280 277.3 276.4 275.5 270.8 269.6 270.2 270.5 270.2 269.3 268.5 268.3 268.5 267.1 267.5 266.9 265.8 265.5 265.3 265.3 266.3 264 263.4 267 265.5 264 263.9 263.7 264 263.5 262.3 262 261.5 261.6 261.7 261.4 261.2 260.9 259.8 260.4 259.8 259.4 258.3 265.3 269.8 273 274.5 276 277.5 277.8 276.9 275.9 276.1 276.5 276.1 274.8 271.1 266.9 270 271.8 272.1 273.3 274.7 275.9 277.6 279 280.8 283.4 284.2 285.6 288.2 292.5 295.2 299.1 303.5
502.3 512.5 521 528.4 534.3 541.5 550.6 559 567.6 575.2 580.2 576 565.5 541.4 516.1 494.1 474.5 457.4 445.9 433.2 435.1 440.8 452.1 466.1 478.9 491.1 499.6 507.4 516.7 524.9 528.3 519.8 502.6 485.7 467.7 453.9 438.9 426.5 412.5 396.7 380.7 371.8 363 354.9 346.4 334.5 333.7 329.6 328.5 328.4 327.2 327 328 329.9 331.3 332 331.3 332.4 340.6 348.8 356.8 367.2 378 388.7 399.5 410.8 421.7 431.8 440.2 440.9 430.1 415.1 398.6 381.1 362.8 351 341 332.7 323.7 319.4 315.2 312 309.4 307.7 306.2 304.7 302.8 301.2 299.3 298.2 298.5 297.4 297.7 297.7 298.7 295.9 297.8 296 292.1 288.9 289.2 288.8 289 289.5 290.9 294.2 301.2 314.7 323.9 334.7 346.5 358.3 370.3 383.3 393.8 396.6 393.6 384.9 370.9 351.1 328.9 310.3 299.7 291.6 286.3 282.6 279.5 277.2 276.3 274.8 271.4 271.3 269.5 269.2 268 267 267.6 268.6 268.5 268.3 268.5 267.9 266.4 264.5 264.7 265.2 265.6 264.4 264.9 265.2 263.9 264 263.4 263.5 262.8 262.3 262.2 262 261.5 261.2 261.4 261.2 261 260.6 260 260 259.7 267.6 271.9 277.3 280.1 283 284.3 284.6 283.5 282.8 281.9 281.4 281.5 281 279.2 276.5 270.2 274.6 276.6 278.1 279.7 280.5 281.4 284 285 285.4 287.8 289.1 290.3 293 297.2 301.9 307.2 312.3
510.7 522.5 533 542.5 550.5 558.8 566.6 573.2 578.6 583.7 584.3 579.1 567.5 543.1 516.5 497 479.4 462.5 449.1 442.1 441.8 448.8 459.3 471.6 485.2 497.2 507.6 515.4 524.1 532.1 536.7 534 522.3 504.7 485.6 471 455.3 439.6 425.8 412 396.7 383.7 371.8 363.8 354.6 350.7 346.1 342.3 337.1 327.7 326.3 326.3 326 325.6 325.8 328.1 329.1 330.3 339.5 347 355.3 365.6 376.3 386.7 398.2 409.8 422.4 433.1 443.4 446.6 437.8 424.1 404.5 388.3 367.3 351.7 341.6 332.1 324 316.9 312.6 309.9 307.5 305.3 303.4 300.9 299.7 299.3 297.1 295.9 296.7 297.5 296.9 295.6 294.2 293.4 293 290 289.4 289.3 289.4 290 290.1 289.8 289.7 297.8 306.7 318.3 328.8 340.9 352.8 364 376 386.2 397 399.2 393.1 381.9 366.6 350 330.7 311.4 301.6 293.1 288.3 285.3 282.4 279.4 277.1 274.9 273.7 274.5 273.6 272.7 269.8 269.2 269 268.7 268.4 268.4 268.2 267.7 266.8 265.9 264.5 264.2 266.1 264.9 265 265 264.1 264.3 263.3 263 262.7 262.3 262.5 261.8 261 260.9 261.2 261.2 261 260.7 260.9 261 268.4 274.3 279.1 284 288.4 291.7 292.6 293.4 292 289.9 289.1 288.7 286.9 285.1 282.8 279.4 274.1 277.4 281.2 282.8 283.4 284.6 286.4 288.1 289.1 290.8 292.1 294.2 295.8 298.2 302.3 308.2 314.1 319
518.6 530.4 542.6 552.9 562.3 570.7 578.5 583.5 586.2 587.9 585.3 577.6 567.8 549.8 522.6 501.5 484.2 467.3 457.5 450.7 449.9 455.2 464.7 476.4 490.4 504.1 516 524.5 532.6 539.7 543.6 544.2 535.5 522.3 504.8 488.2 470.1 451.3 440.3 425 411.3 396.8 382.8 374.1 367.3 360.9 357.3 353.2 347.8 338 332 325.8 325.4 324.7 324.4 325.2 326.1 331.2 339 345.1 354.1 363.8 374.2 385.1 397.1 409.2 422.8 435.1 444.3 446 437.8 428.4 410.1 392 371.2 354.8 343.4 333.3 326.3 317.9 311.5 308 305.6 303.4 301.4 299.8 297.7 296.5 296 294.4 294.2 294.6 294.6 294.8 293.3 291.7 289.8 289.7 289.4 289.4 289.6 290.1 290.3 290.1 296.1 302.7 311.8 321.9 334.7 345.8 357.7 370.4 379.6 387.1 393.2 394 387.9 377.1 362.9 347.1 330.8 312.9 304.2 295.1 290.5 287.4 284.9 282.3 278.8 276.5 275.9 275 273.8 272.8 274 272.9 270.9 270.7 270.3 268.7 267.8 267.5 266.6 267 266.7 265.4 265.8 265.1 265.1 265.8 264.3 263.9 263.2 262.9 262.5 262 263.3 261.9 260.6 260.7 261 261.2 262.6 263.5 268.5 269.6 274 278.4 283.1 288.8 293.9 298.8 300.5 302 300.4 298 296.4 294.3 291 287.5 284 279.4 278.4 282.2 284.5 288.7 289.6 291.1 291.5 292.2 294.4 297.1 299.2 301.3 303.1 305.4 310.7 313.9 320 325.1
526.8 538.9 551.1 561.7 570.9 579.5 587.4 591 591.6 591 586.1 577.5 568.1 553.6 531.2 507.7 488.8 477.9 468.2 460.8 457.3 461.8 471 480.7 495.3 509.1 523.6 535.9 545.5 549.9 551.8 552.4 547.3 536.9 522.2 505.2 486.9 469.1 452.8 436.5 424.1 410 395.9 387.4 380.7 372.9 370.4 364.7 358.3 346.3 338 333.3 324.6 323.9 323.2 323 323.7 328.9 335.1 342.6 352.7 362.6 373 384.1 397.2 411.2 422.8 434.8 440.4 439.8 434.5 427.5 412.5 394.4 373.9 357.6 344.7 333.7 325.4 317.6 311.4 306.2 304.5 302.8 301 299.2 297 295 293.8 293.5 293.6 292.6 293 293.4 291.4 290.5 290.6 290 289.5 289.5 289.8 290.2 289.6 290.3 294.4 304.2 314.3 327.2 339.5 350.3 362.6 373.5 380.7 386.4 388.5 388 383.2 373.1 361.1 347.3 332.9 318.6 306.2 297.9 293 288.8 285.9 283 281.3 278.9 277.5 276.3 276.7 276.7 275.9 274.6 273 272.7 272 270.8 269.9 268.2 267.5 268.4 268.2 266.7 266.7 265.8 265.2 264.8 264 263.7 262.8 262.5 262.3 264.8 265.7 265.9 265.8 265.7 266.5 268.3 269.8 271.2 271.3 272.8 277.6 282.2 287.7 293.6 299.1 305.1 308.4 310.8 307.2 304.5 301.8 299 294.8 290.6 284.9 282.6 284.9 288.5 291.7 294.9 297.4 300.4 301.1 302.3 303.4 305.7 308 308.7 310.4 312.7 316.8 319.7 325.2 329.2
536.4 548.9 559.6 569.4 578.4 586.4 592.3 595.5 595.6 592 585.5 578.7 569.9 557.5 538 515.2 505.1 496.1 482.1 472.5 466.2 469.1 475.6 483.8 499.1 514 528.8 543.3 554 565.1 563.5 562.4 559.5 547.9 536.2 519.6 503.3 483.6 465 449.6 435.7 421.4 410.3 401.3 392 384.6 385.7 378.5 369.2 356.1 344 336.9 330.7 322.4 322.9 322.2 322.2 325.1 330.2 338.7 349.2 361.2 373.8 385.9 400.2 413.6 425.4 431.2 433.4 432.3 427.5 420.8 412.5 396.2 377.8 362.5 346.3 333.7 326 318.3 308.9 306.6 304.9 302.6 300.5 297.5 295.5 294.5 293.6 293 294 293.8 291.3 290.6 290.4 290.7 291.1 290.8 290.1 289.7 293 290.7 290.2 290.6 294.3 305.4 316.3 328.3 341.1 351.4 362.9 373.6 379.4 383.1 385.2 382.7 378.7 371.9 361.2 349 335.3 322.8 310.8 300.7 295 291 289 286.8 285 283 281.1 279.7 278.4 278.7 277.7 276.2 275.1 274.8 273.5 272.4 271.6 271.6 271.9 271 270.9 271.3 269.6 268 266.9 265.3 264.7 265.4 264.1 264.2 266.3 266.9 268.8 269.7 269.7 269.8 271.5 273.1 274.7 275 274.8 273.4 280.7 284.5 291 298.2 304.3 310.7 313.9 315 310.8 307.5 304.6 301.3 296.7 292.3 286.6 287.9 290.4 294.3 299 303.3 308.5 312.4 314 314.7 314.8 316.4 317.1 316.9 317.4 320.1 322.8 325.5 329.2 333.2
547.7 558.5 566.1 574.6 582.3 589.4 594.6 597.7 596.3 592 586.5 580 571.9 563.3 550.7 537.6 527.1 514.8 501.4 489 481.2 478.3 483 487 501.2 515.6 530.3 544.9 557.7 566.5 573.9 573.4 572.6 563.8 548.5 535.7 517.2 498.2 480.8 463.7 450 436.1 424.2 414.1 404.4 394.3 390.6 385.7 374.6 362.3 348.4 339.6 335 329.4 323.2 320.3 320.6 320.8 325.4 334.9 345.8 359 372.3 386.2 401.7 413.6 420.6 423.2 423.9 422.2 420.8 415.4 407.4 396.3 380.8 363.7 345.4 332 324.9 317.6 309.8 307.8 304.3 301.4 299.6 296.6 295.3 294.9 294.6 294.2 291.7 292.9 293.8 293.5 289.7 290.3 290.5 290.9 291.1 291.1 290.4 290.5 289.2 294 301.2 308.6 317.2 327.4 339.5 349.5 359.8 367.7 373.8 378.4 380.4 379.9 375.5 371 362 350.2 336.8 326 315.8 304.5 297.8 294.8 293.1 290.1 286.9 285.2 283.7 283.7 282.1 280.4 280.7 278.7 277.1 276.7 275.1 274 273.5 273.7 273.8 273.6 273.3 272.9 271.5 270.5 269.5 269 269.1 268.7 269.2 269.6 269.9 270.4 272.5 274.2 275.7 276.2 277.3 278.2 279.2 279.7 280.3 278.3 282.6 287.3 292.7 300 307.4 313.4 316.1 314.3 311.8 308.7 306.3 303.3 298.6 293 290.4 294.3 297 302 306.2 312.5 320 326.4 329.8 328.7 327.3 325.7 324.8 324.9 324.8 326.1 328.3 331 333.4 337.3
556.4 565.7 571.1 577.8 584 589.7 595.4 597.6 596 592.1 586.6 581 575.1 567.9 559.5 549.8 539.8 528.8 515.5 502 492.6 489.9 489.1 491.4 504.5 516.7 528.5 542.4 555.5 564.7 570.7 574.2 576.4 574.5 559.9 546.9 531 510.9 495.7 478.3 462.9 450.4 436.9 425.9 414.1 404.5 396.2 391.9 378.7 365.4 351.9 341.4 337.4 332.2 325.8 321 319.6 318.3 320.9 329.4 340.8 355 370.1 383.3 398.2 405.8 410.2 411.5 411.3 410.9 410.9 409.1 404.8 395.3 382.5 363.1 343.3 329.9 322.6 316.9 308.8 308 302.7 300.5 298.9 296.6 295.1 293.8 293.5 293.2 291.4 291.8 291.3 291 290.8 290.7 290.5 290.5 290.7 290.4 290.3 290.2 290.9 297.2 306.3 311.4 317.5 328.6 338.4 346.8 356.7 364.6 370.5 375.7 379.8 376.5 372.3 368 361.7 352.5 340.5 329.2 317.6 310.8 306 300.2 297.6 294.2 290.1 286.3 284.8 286.1 285.3 284 283.1 281.7 279.7 277.9 277.8 277.4 276.2 275.6 275.6 275.5 274.8 274.5 275.6 275.1 274.5 272.3 273.6 274.2 274.8 275.5 276 276 276.4 278.9 280.6 281.3 281.6 282.7 283.4 283.9 284.4 284.8 284.2 288.2 294.3 300.9 308.1 313.7 315.1 313.2 311.4 310.1 307.7 304.1 300 294.6 295.8 299.9 303.2 308.4 314.5 324 335.1 342.1 344.3 343 339.6 336.3 332.5 331.3 332.1 332.8 333.7 336.4 338.8 341.2
567.7 569.5 574.3 579.2 584.1 588.5 592.2 595 594.8 592.7 588.8 583.8 579.3 573.3 565.9 558.3 549.1 539.6 525.1 512.7 503.6 498.1 495 496.7 504.2 513.7 524.8 536.8 548.1 556.3 561.6 563 565.2 566.7 564 552.6 539.5 522.1 507.4 494.4 478.1 462.9 449.5 436.7 426 415.9 403 391.3 380.2 366.6 354.2 343.9 339.1 334.6 329.7 324.5 319.5 318.6 318.3 326.5 337 351.5 366.9 379.7 390.9 396.9 397.8 399.7 398.8 400.6 402.3 403.9 401.2 396.1 380.1 361 342.4 331 321.7 314.8 309.8 305.6 303.2 301.3 298.9 296.1 294.7 294 293.1 292.4 292.5 291.6 291.7 290.9 290.8 290.8 290.5 290.3 290.7 291 289.9 289.8 292.6 301.5 309.2 314.8 320.6 329 338.3 345.7 355.2 363 368.6 374.3 378.5 378.5 374.3 368.4 362.2 354.5 344.6 332.9 321.8 315.7 309.7 306.3 304.2 302.3 298 293.4 288.3 289 289.1 288.4 285.4 283.6 282.4 281.9 281.7 282.3 280.4 278.6 277.5 278.5 277.5 277.1 280.3 281.5 280.2 278.8 279.6 280.4 280.9 281.4 281.8 281.8 281.2 282.8 283.6 284.1 284.5 284.8 286.1 287 287.8 288.9 287.8 289.8 295.4 302.1 308.8 311.8 313.7 312.9 311.3 309.8 307.6 304 301.4 295.9 299.6 303 308.2 314.2 322 334 345.5 355.4 357.2 356 352.6 348.2 343.6 339.4 338.4 337.9 338.6 340.9 343 344.8
570.6 571.7 575.4 578.5 581.8 584.7 587.8 590.9 592.8 592.5 591.8 588.2 583.9 579.8 572.7 565.7 557.4 548.1 533.9 519.4 509.5 503.3 499.1 496.8 502.5 509.1 517.6 527.9 537 544.4 549 548.3 548.1 551.2 555.5 553.2 545.3 531.8 519.3 507.3 492.1 475.6 463.7 450.7 437.8 426.3 411.4 395.7 381.4 367.1 354.5 345.2 339.7 335.7 332.3 327.3 319.8 317.7 317.1 322.5 334.7 348.5 361.1 373.9 382.7 387.2 388.4 388.8 387.8 389.5 393.7 397 397.7 395.3 381.9 364.5 346.7 332.2 319.3 313.3 310.9 304.9 302.6 301.3 299.2 298.7 296.4 295.9 295.3 294.7 293.4 292.3 293.7 295.2 291.8 290.9 290.4 290.2 290.5 290.9 290.8 291.4 297.7 305.5 314.5 320.9 326.9 334.4 341.8 347.6 356.3 363.8 370.4 375.5 380.2 379.8 374.7 368.1 363.1 356.9 348 337.2 325.8 319.6 315.4 313.5 311.6 309.2 305.3 300 293.6 292.8 292.4 289.9 287.3 285.8 286.1 285.8 286.5 286.9 286.1 285.5 283.7 283.2 281.7 282.9 285.1 287.3 287.1 285.5 284.5 285.1 285.9 286.7 287 286.7 285.3 286.2 286.7 287 287.6 287.8 288.6 289.8 291 292 291.2 293 297 303.1 308 310.5 311.8 312.9 311.4 309.9 308.3 306.5 303.7 299.9 303.3 307.8 312.7 319.1 327.9 339.9 352.4 365 368.2 367.8 366 360.8 356.8 352.6 346.8 344.4 343.8 344.8 347 349.2
573.2 571.5 574 576 577.6 580.1 582.1 585.6 588.8 591.4 593.2 592.1 589.7 587.1 580.2 572.4 563.6 553.7 541.6 525 513.9 506.8 500.1 496.5 497.2 501.6 507.7 516.1 524.7 531.1 532.6 530.1 531.3 534 540.7 544.5 545.4 541.6 530.1 518.2 505.1 488.8 478.8 465.9 451.6 435.7 417.8 398.9 381.1 367.8 355.1 347.5 340.6 336.5 332.4 328.5 323 317 316.8 315.6 332 345.3 357.1 367.2 374.8 378.2 378.9 379.4 379.2 379.7 385.7 389.6 392.5 392.4 384.6 368.6 351.9 336 319.9 316.5 309.9 305.3 302.3 299.9 297.9 296.5 295.5 294.9 294.4 295.3 291.4 292 292 292 290.7 290.9 290.4 290 290.4 290.8 291.1 294.9 303.3 311.4 319.4 326.9 333 339.8 347.2 353.7 360 367 372.9 378.7 383.1 381.2 377.1 370.6 364.1 358.9 351.4 343.4 334.4 327 321.9 319.5 317.8 314.2 309.4 301.7 297 295.2 293.8 291.5 289 290.5 290.2 291.6 292.2 292.4 291.1 291.1 289.7 288 287.3 290.9 293.4 295.8 295.9 294.1 292.9 289.8 290.4 291 291.2 291.4 291 291.1 291.8 292.1 292.1 292.8 293.3 293.1 295.5 295.4 296.1 297 300 303.8 307.8 310 311.7 312.2 312.6 311.9 310.7 309.2 306.2 301.7 307.4 310.8 315.2 321.4 331.6 344.3 356.5 370.4 377.6 378.9 378.1 375.7 371.4 366.6 361.2 356 353.3 355 357.7 359.2
574 571.4 571.9 572.4 573 574.5 576.6 579.8 583.1 586.7 591.6 593.8 593.3 591.8 586.2 577.5 567.6 558 546 530.6 513.9 504.3 497.3 492.2 490.2 491.7 496.6 502.9 509.6 514.2 515.6 514.5 515.2 518.1 523.9 533.1 538.4 541 536.9 525.2 515.2 501.4 492.5 480.1 464.8 448.4 425.6 405.2 383.5 369.3 356.6 347.9 342 336.3 332 329.1 325.9 319.3 315.8 315.2 326 339.2 350.9 359.7 365.7 368.5 369.2 369.9 371.6 374.2 377.6 382.2 385.8 389.8 387.2 372.4 358.2 342.6 324.6 316.5 310.3 305.1 302 299.2 298.4 296.6 296 295.6 295.6 295.6 295.6 292.5 291.9 291.7 291 291.2 290.6 290.3 290.5 291.1 290.2 299.3 309.7 318.1 325.4 333 339.5 346.4 353.1 359.7 366 371 377.5 383.2 386 383.2 379.9 374.4 367.3 360.8 354.5 346.7 339.6 333.8 327.2 323.6 320.6 317.1 312.4 305.4 301 296.8 295.8 294.4 296.1 297 297.8 298.5 298.6 298.2 297.7 296.1 295.3 294.7 292.2 296.6 301.3 303.9 304.1 302.9 301.3 297.5 295.2 295.1 295.5 296.3 295.1 297 298.2 299.5 300.5 299.6 298.6 298.3 299.1 299.4 300 300.3 304.1 306.5 308.6 310.8 312.5 313.6 313.8 313.1 313 311.8 309.9 308 308.2 314.4 319.8 325.3 334.2 346.2 357.8 369.7 380.8 387.1 389.1 386.9 383.2 378.5 373.9 372.2 369.1 368.1 368.3 367.7
571.8 569.4 568.4 568.3 568.2 568.8 571.2 574.4 577.6 582 587.8 592.6 594.5 593.5 588.7 580.7 570.7 560 548.4 532.9 514.2 500.6 492 486 482.4 480 482.1 488.6 494.8 497.8 497.5 497.6 498.1 501.9 505.6 514.9 526.7 533.5 536.2 532.4 523.5 512.5 503.5 491.9 474.8 457.3 436.2 413 390.7 371.1 358.4 349.3 341.9 336.3 332.2 328.7 325.7 320.9 315.3 315 316.5 331.9 342.1 349.9 354.4 356.5 356.9 359.3 361.6 364.3 368.5 374.4 379.2 384.3 384.9 373.2 363.6 352 330.5 321.1 311 304.7 300.8 300 298.5 297.7 296.5 296.7 298.1 299.2 293.2 292.3 291.9 291.6 291.3 291.5 291.4 291.3 290.9 291.3 292.6 305 314.7 324.6 331.2 337.5 344.1 350.7 356.8 364.6 371.6 377.1 382.5 386.7 389.4 387.8 384.6 378.6 370.8 363.1 357.4 350 345.4 339 332.1 327.3 322.4 317.8 313.2 308.6 304.2 301.6 299.9 301.1 302.4 303.6 304.5 305 305.3 304.9 304 303.1 301.2 300.6 297.2 301.8 306.6 312 313.5 312.2 310.1 306.3 302 300.5 300.8 301.5 302.1 303.9 305.5 306.3 306.9 306.1 305.4 305.5 305 304.6 305.2 304.6 307 310 311.6 313.2 315.1 315.7 316.2 315.7 315.4 314.6 313 311.9 310.2 315.5 321.8 328.9 337 345.7 356.9 368 379.8 392 397.6 396.1 393.6 390.9 388.1 385.2 381.9 380 378.2 377.2
568.9 565.3 563.7 563.1 563.2 563.2 565.8 567.9 571.8 576 583.9 589.6 592.6 592.4 588.4 580.7 570.5 558.6 546.5 531.8 513.4 497.3 485.3 478 474.2 471.9 471 475.3 479 481.7 480.9 481.2 481.8 487.9 491.7 496.6 509.5 520.3 527.8 531.1 527.5 519.6 510.3 497.8 483.8 465.7 443.5 420.3 396.1 374.8 361.6 350.1 340.9 336.3 332.1 329.3 325.1 320.9 315.8 313.7 313.6 324.4 332.5 338.7 341.6 342.7 344.3 346.7 350.1 353.7 357.7 364.5 370.3 377.2 380.6 377.4 368.6 358.7 341.6 326.2 314.1 304.3 303.1 301.8 298.9 299.7 298.1 297.2 299.8 298.6 293.7 292.9 292.6 292.2 291.9 292.1 292.9 292.4 291.9 290.7 294.7 306.5 317.4 328 334.7 340.6 346.5 352.4 358.4 368.5 375.3 381.1 387.2 390.9 393.3 393.4 389 382.9 374.2 365.4 358.5 352.3 348.3 342.3 335.6 330.1 325.3 319.8 315.4 311.5 306.5 304.5 305.9 307.1 308.3 309.5 310.6 311.4 310.4 309.6 308.8 307.4 306.2 305.6 304.2 306.9 313.2 320 324 324.6 322.6 317.7 313.1 310.3 308.1 307.6 307.1 309 311.2 313.4 314.3 313.1 312.7 312.2 310.9 309.9 310.7 310.1 311.2 314.4 315.9 317.5 318.8 321.5 321.1 320 318.9 318.2 317 315.9 314.8 315.2 324.6 331.2 338.1 345.6 356.1 366.4 378.3 389.2 399 402.7 402.7 401.3 399.3 396.7 393.5 390.2 387.5 385
563.8 561.2 558.1 557.3 556.7 557.7 559.3 561.1 565.9 570 576.4 583 587.4 588.4 584.8 577 567.1 555.2 542 526.6 507.9 490.4 476.4 466.3 461.7 458.8 458.3 460.7 463.2 464.7 465 466.2 467.4 471.6 477.9 483.9 493.5 505.6 514.3 521.1 522.7 516.1 509.9 500.3 486.4 471.2 450.5 426.8 402.8 381.1 364.4 351 341.2 336.3 331.9 330.3 324.4 319.4 314.9 313 312.6 315.7 322.5 327.2 330.3 333.4 334.6 335.7 337.3 339.2 346.6 354.6 360.7 367.8 375.6 377.8 372.7 364 353 335.5 319.6 308.6 303 300.7 297.5 297.6 295.8 296.6 296.2 293.6 294.7 293.1 292.7 292.3 292 292.3 292.7 292.8 291.9 290.9 295 307.8 318.9 328.7 337.1 342 347.5 353.8 361 369.9 377.8 384.4 390.7 395 399.3 400.9 397.7 389.8 380.7 371.4 363.4 357 351.1 345.4 339.4 333.8 328.2 322.5 317.8 313.5 309.1 310.3 311.3 312.1 313.7 314.6 315.6 316.9 317.7 317.2 315.8 313.9 311.3 310.6 311 308.6 318.8 326 330.9 333.3 334.9 330.8 325 320.2 316.5 314.9 313 314.7 317.4 319.5 321.7 320.9 319.3 318.3 317 315.8 315.9 314.6 316 318.6 320.1 321.5 322.8 322.7 323.4 323.8 323.4 323.6 323 322.3 321.5 319.1 325.9 332.9 339.7 346.6 355.3 364.8 375.7 386.5 396.5 402.4 406.9 408.3 407.5 405.7 402.6 399.1 394.9 391.8
560.1 554.6 551.7 549.9 549.6 550.1 552.3 554.3 558.7 562.6 568.7 575 579.4 581.8 578.8 571.2 561.2 548.1 534.1 517.1 499.5 480.3 463.2 453 447.2 443 445.2 447.2 449 450.1 450.7 452 454.6 456.7 460.7 468 476.6 488.3 500.2 507.1 508.4 506.2 502.8 495.9 486 473.5 454.3 431.4 410.1 388.5 367.5 352.1 342 336.3 332 328.8 324.8 320.4 316.9 313.7 312.1 311.3 316.4 319.6 321 324 324.6 326.5 329.3 332.2 337.9 344.2 350.6 357.7 367.4 373.5 372.2 366.3 355.2 336.8 321.8 310.6 303.3 299.7 296.5 296.9 295.9 295.3 294.8 293.7 294.1 293.3 292.8 292.4 292.2 292.6 292.7 292.5 291.8 291.2 297.3 305.5 319 328.3 336.5 342.3 348.9 354.1 362.4 370.8 379.1 386.3 393.2 398.9 405.5 410.3 407 398.5 389.9 381.6 373 363.8 356 349.7 343.8 338.4 332.8 327.2 321.4 314.1 314.7 316.4 317.5 317.4 319 320.6 322.5 323 323.7 324.5 324.4 322.9 320.2 318.5 317.8 316.2 321.4 331.4 337.5 343.3 345.5 341 335.2 329.5 326.6 322.1 321.7 321.7 324.1 327.1 329.6 328.4 325.5 324 322.7 321.2 320.7 319.1 320.4 322.8 324 325.4 326.7 327.7 329.1 329.2 329.7 331.4 331.4 330.7 328.9 326.6 327.2 334 340.9 347.7 354.6 362.9 371.2 382 390.9 398.8 405.4 410.9 412.1 408.9 405.2 401.3 398.5 396
553.9 549.9 547.3 544.6 543.1 542.1 541.3 546.2 550 556 562.5 568.1 571.6 573.9 571.1 563.4 552.8 539.9 524.4 508.4 487.6 466.7 452.6 442.8 436.4 434 433.2 434.5 435.4 436.5 437.1 437.8 441.3 443.9 446.5 453.2 461.5 471.5 481 488.8 491.3 489.6 488.9 484.7 477.7 467.5 453.1 434.8 418.1 393.8 371 354 343.5 336.4 333 330.4 327.9 324.2 320.6 315.7 312.2 310.2 311.6 312.7 313.6 316.3 318.1 319.4 321.3 324.2 329.7 335.4 340.9 347.6 357.4 364.7 368 359.7 347.4 332.6 314.6 310.2 302.8 299.1 296.7 297.7 296.2 294.7 294.7 294.6 294.4 293.6 292.8 292.4 292.5 292.7 292.5 292.2 291.6 290.6 297.3 307.6 318.3 327.9 335.6 342.9 349.2 354.5 363 371.6 380.2 387.5 395 402.3 411.8 417.5 415.6 407.1 397.8 390.7 381.2 372.5 363.6 355.5 349.8 344.3 338.5 332.2 326.1 318.9 321.1 322.2 322.5 324.7 326.9 329 331.6 332.3 333.1 334.7 335 333 328.9 326.4 324.6 323.7 324.4 334.3 343.6 353.1 356.3 353.1 345.6 338.8 334.7 331.9 328.9 329 330 333.4 335 333.4 330.8 329.5 328.2 326.5 325.3 324 325 327.1 328.2 329.3 330.4 332.7 335 336 340.6 340.4 339.7 338.8 336.6 333.6 331.6 334.1 341.6 348.1 354.5 361.3 367.9 377.4 387 394.4 400.2 404.3 404.4 402.3 400.5 398.1 397.8 396.2
548.9 545.7 543.1 539.6 536.4 530.7 531.3 537 543 548.6 555.6 561.5 564.2 565.7 562.7 553.9 543.8 530.6 515.8 498.5 477.6 457.4 444.7 434.5 427.2 423.5 421.7 422.3 421.9 422.5 422.8 422.2 425.4 428.4 433.9 440.5 445.9 453.8 460.5 467.4 470.1 471.7 472 471.8 468.9 460.3 449.4 434.7 416.8 401.5 377 358.4 347.2 337.7 335 332.6 330.3 328.5 324.4 319.2 311.7 309.4 310.4 310.1 309.8 313.1 313.3 313.7 314.7 315.9 318.9 324.2 332.5 338.7 344.8 351.6 355.9 345.2 334.4 322.7 311.8 308.4 303.3 297.4 297.2 297.6 295.1 295.6 295.7 295 294.4 293.8 293 292.5 292.7 292.4 292.2 292 291.6 291.3 296.9 309.8 319.9 327.4 334.9 342.2 349.5 355.6 363.6 372.3 381 388.8 396.2 405.7 418.3 426.6 423.8 413.3 404.2 397.7 390.2 380.2 370.2 361.8 356.3 350.7 345.2 338 330.2 325.2 329.9 332.3 334.6 335.1 336.1 337.5 339.6 341.3 343.4 345.2 346.2 345.6 339.8 335.6 333.4 332.3 330.7 335.6 348.3 358.7 364 361.7 353.9 347.1 341.9 339.1 336.6 336.5 337.4 338.9 340.2 338.5 336.2 335.3 334.7 332.5 330.4 328.9 330.3 332.1 333.2 334.3 336 338.4 341.9 348.5 352.1 352.3 347.6 346.5 342.8 338.4 337.3 337.3 343.3 349.2 354.3 360.4 367 374.9 382.9 388.7 392.5 394.7 393.4 392.4 391.9 392.7 392 390.9
544.7 541.4 537.2 533 522.8 518 522 528.4 534.7 540.9 547.9 553.5 557.3 558.1 554.4 546.9 532.9 521.6 504.3 484.6 465.8 451.6 437.6 427.2 419.4 412.8 410.4 409 410.7 410.4 410.3 408.3 409.5 413.9 420.3 426.5 431.5 437.5 443.7 447.8 449.7 452.9 452.5 454.3 454.8 452.6 446 438.5 428 405.1 383.1 367.7 354.7 343.6 338.8 336.2 333.6 330.7 325.9 321.7 311.4 308.7 308.3 309.3 309.3 308.7 307.9 308.1 308.7 310.5 312.2 317.7 327.8 328.9 331.9 336 335 328.7 321.4 315.5 311.4 306.5 301.3 302.5 297.2 297.2 296.8 296.3 295.6 294.9 294.3 293.7 293.2 292.6 292.4 292.2 291.9 291.7 291.7 292.2 294 307.5 319.3 327.1 334 341.6 348.8 356.2 364.6 372.8 381.2 389.7 399 410.2 423.5 432.9 428.5 417.7 409.2 402.3 394.7 385.7 375.6 368 362 355.9 350.1 344.1 332.9 338.6 343.6 346.6 350.1 349.7 349.8 350.3 349.8 351.2 354.5 357.1 357.9 358.2 354.4 349.9 344.4 340.6 339 338.4 353 362.9 368 366.3 360.6 352.5 348.4 346.1 343.8 343.4 344.1 344.5 345.4 344.3 342.6 343.3 342.4 339.7 337.4 335.7 336.5 338 339.2 341 344.3 348.2 355.1 361.7 363.6 361.7 355.7 352.5 349.9 344.2 340.9 339.2 344.4 350.2 354.8 360.5 366.4 373 378.9 383.9 386.2 385.7 384.9 383.8 384.1 383.9 382.7 381.1
540.3 536.8 532 523.7 509.8 502.1 508.8 517.1 524.5 532.8 539.4 545.4 550.3 551.1 545.4 538.3 526 512 497.3 474.9 458.2 443.9 430.5 422.2 414.5 405 400.4 400.6 399.9 399 398.7 397.1 397.1 399.9 405.3 411.2 417.6 422.6 426.3 428.3 430.3 432.6 432 433.7 437.9 437.8 439.8 438.6 431.9 416.5 395.4 377.5 363.4 352.2 342.6 340.1 337.6 334.7 328 318.5 314.4 308.2 307 307.6 307.6 307.9 307.1 306.1 305.5 305.2 307.3 310.9 317.9 320.9 321.2 319.8 316.8 313.7 312.1 312.7 308 304.2 299.6 296.2 296.6 297 296.9 296.2 295.5 294.8 294.2 293.7 293.3 293 293 293 293.1 293.2 293.1 293.2 293.7 306.9 316.5 325.4 333.2 341.1 347.9 355.7 364.7 373.6 382.6 392.1 403.1 414.8 426.4 435 430.2 421.4 412.7 405.3 397.3 386.8 379.2 372.1 365.6 359.4 353.8 344.2 337.4 349 355.4 361.4 365.6 365.9 365.3 364.8 364.2 364.4 366.6 369 370.9 372.3 371.8 366.3 358.4 354.1 349.7 344.3 355 365.1 370 369.7 364.8 357.9 355.3 353.2 351.1 349.4 350 350.7 350.5 350.2 351.7 352.8 353.5 351.4 347.7 342 343.9 346.5 347.8 350.4 354.6 360.1 367.5 374.1 373.2 370.5 364.5 359.6 356 354 346.9 344.9 345.7 352.4 356.8 360.8 367 373.3 378.3 381.3 380.6 380.7 379.3 377.5 376.8 375 373.6 372.5
537.6 533.3 526.1 515 499.3 487.4 494.3 505.8 512.6 522.1 529.1 535.4 541.2 543.3 538.8 531.5 521.4 506.9 490.7 468.5 452.4 438.9 425.6 419.2 409.6 400.1 393.7 392.4 390.1 388 387 386.4 386.3 388.4 392.8 396.8 402.2 406.6 409.8 411.4 411.5 411.9 414.2 415.5 418.9 423.6 428.6 434.1 434.6 424.8 409.5 389.2 372.6 359.5 347.5 341.7 341.6 338.9 330.9 319.9 315.3 308.3 306.5 306.9 306.2 307.1 305.9 304.7 304.7 303.6 303.5 304.3 307.1 309.5 310.8 309.5 308.1 307.3 305.9 306.7 304.1 302.1 299.2 297 296.7 296.3 296.5 296.1 295.3 294.8 294.3 294.1 293.4 293.4 293 293.4 293.4 293.2 293.3 292.6 293 301 312.3 321.5 330.1 339.7 348.2 357 366.7 376.4 385.4 394.9 405.6 416.7 427.5 436.1 430.6 423.9 414.4 405.8 399.1 388.2 381.8 374.3 368 362.2 358.8 353.4 344.1 355.9 365.5 373.6 381.4 384.2 384.1 381.8 378.3 377.1 379.6 385 386.8 388.9 387.1 382 372.9 367.3 361.6 354.6 358.6 368.3 372.9 374.1 370 366 361.3 359.8 358.6 358.3 360.3 361 362.6 364.8 365.8 366.6 364.5 362.8 354.9 351.1 354.5 357 359.3 362.2 366.5 373.2 380.6 381.7 380.2 376.4 370.8 364.9 361.7 359.7 353.7 350.3 350.6 354.6 358.4 363.6 369.8 375.4 379.2 378.8 377.5 375.2 373.3 371.5 370 367.9 365.7 364.2
534.7 530.2 519.1 506.8 489.5 471.9 482.7 494 502.2 511.3 518.4 523.5 530.7 534.8 533.1 527.5 515.5 500.7 485.3 463.9 447.9 434.4 424.1 414.9 404.8 395.5 387.1 384.7 382.6 379.7 378.3 377.5 377.9 377.5 378.9 382.5 386.7 390.2 393.2 392.8 391.9 393.1 395 395.6 402 408.6 416.4 428.5 434.4 431.3 419.4 401.2 383.3 367.1 351.3 346.2 343 340.3 330.8 321.1 315.5 309.9 306.3 305.9 305.3 305.4 304.3 303.3 303.3 302.7 302.2 302 302.4 300.6 301.3 300.3 299.8 299.8 299.5 300.1 299.2 297.5 297.5 297.2 296.9 296.5 296.1 295.9 295.3 295 294.8 294.6 293.7 293.7 292.9 293.7 293.7 293.2 293.8 293.2 293.8 294.3 307.7 318.3 329.3 338.1 346.3 357.1 367.2 376.9 388 398.1 408.4 418.4 428.2 433.2 431.9 424.9 416.2 406.3 398.9 391.2 384.1 378.7 371.2 367.6 364.9 361.9 351.3 362.8 373.9 385.2 395.1 399.3 402.3 399.9 397.6 395.3 396.2 399.8 403.6 403.8 400.7 395.6 385.4 377.2 371.3 364 363.4 372.1 377.5 379.9 378.9 377.2 372.7 369.2 368.2 369.3 373.1 376.6 378.7 380.2 380.1 379.4 377.5 372.3 361.5 364.7 366.1 368 369.2 372.9 379.1 385.6 388.4 388.4 385.7 381.2 375.8 371 367.8 364.2 359.7 355.3 354.6 357.8 361.2 366.3 371.9 376.6 377.9 376.7 374.2 370.6 368 366 363.8 362.6 360.4 356.7
532.2 525.9 518.5 505.3 488.7 469.5 468.9 479.7 489.8 499.5 507.2 513.9 520.5 526.3 528.3 521.6 510.8 497.4 482.2 460.7 444.7 431.7 421.5 412.4 401.7 391.1 383 376.8 373.9 372.4 371 369.6 368.6 368.5 368.6 369.3 371.3 373.9 376.5 374.3 372.9 373 372.9 377.5 386 392.9 404.2 418.4 430 434.3 424.6 412.9 393.4 372.3 355.8 347.7 340.5 337.3 329 321.1 315.5 309.7 306.2 305.5 304.9 304.6 304.1 303.9 303 302 301.6 301.3 301.6 301.9 300.2 299.9 299.9 300.2 299.3 298.8 298.1 297.6 297.8 297.4 297 296.6 296.2 295.8 295.8 295.6 295.4 294.2 294.1 294.1 293.4 293.3 293.5 293.7 293.7 293 293.8 297 307.3 312.6 325.8 335.5 344.7 355.7 366.8 376.5 386.9 397.8 406.7 418.3 427.5 431.8 430.9 425.1 416 407.8 401.4 395.2 387.9 382.4 377 373.3 370.8 368.8 359.4 366.9 379.2 391.7 403.3 412.7 418.4 420.4 418.3 415.9 412.6 414.5 419.2 418.2 413.5 406.1 395.4 386 378.7 372.1 368.7 377.4 383.2 388.3 391 391.2 387.1 381.5 381.4 385.5 390 393.2 394.7 393.9 391.7 389.6 386.2 380 375.8 377 375.8 376.1 379.6 383.9 389.4 394.1 397.6 396.2 392 386.5 381.3 376.1 372.7 368.7 364 361.8 359.7 360.7 364.5 367.5 372.5 376.2 375.7 373.3 369.7 366.1 363.3 360.6 358 357 355.6 354.2
530.4 524.5 517.1 503.5 490.3 471.5 452.1 464.6 475.8 486.6 494 501.1 508.8 516.2 521.5 517.8 506.5 494.7 479.4 459.1 443.8 430.3 419.1 409.7 400.3 389.9 380.4 372.8 367.7 365.3 363.9 362.5 361.1 360.2 359.3 358.4 359.4 359.1 359.6 357.9 356.7 355.6 356.2 360.1 368.8 377.5 389.5 405.5 421 430.6 426.6 415.6 399.6 376.8 358 346.8 339.1 332.5 323.3 318.1 310.8 308.6 306.3 305.2 304.8 304.8 304.1 303.2 302.6 301.3 301 300.7 300.9 301.3 300.6 300.1 300.1 300.1 299.5 298.9 298 297.9 297.9 297.5 297.2 296.7 296.4 295.3 295.1 295.5 294.9 295.3 294.7 294.5 293.3 294.1 294.8 294 295 294.5 293.5 295.8 305.8 311.1 321.6 333.3 343 354 364.1 373.9 383.5 394.2 404 415.7 424.6 429.1 429.2 424 416.9 409.5 403.6 397.7 392.4 389 384.8 382.3 379.6 376.2 371.2 367.7 383.7 397 409.3 421.5 430.4 434.7 435.2 433.1 431.1 431.9 433.2 431.3 425.1 416.2 405.7 395.2 386.1 380.5 373.9 384.9 391.5 399.2 401.8 401.7 401.1 400.4 400.5 402.6 405.8 406 408.3 405.2 401.5 398.5 393.9 385.1 386.6 385.9 383.6 385.6 389.8 394.1 401.4 406.6 408.6 404.8 399 392.7 386.4 381.1 377.3 372.9 368.4 366.9 365.3 364.5 367.7 370.4 371.5 373.6 372.1 369.4 366 361.9 356.8 347 344.6 347.9 350.8 351.5
530.3 524.4 516.2 505.5 492.3 475.4 456.9 446.1 459.3 472.4 481.1 488.4 497.5 507.3 514.5 514.3 505.8 492.5 477.7 459.8 444 429.9 417.2 407.7 398.8 387.4 378.2 370.8 364.2 359.5 358 356.7 355.4 353.2 351.9 350.7 349.5 347.6 344 340.8 341.7 341.3 343.4 348.3 354 363.5 376.1 390.5 407.6 421 423.3 414.4 402.7 379.1 357.8 341.8 331.9 325.4 317.3 313 308.4 305.9 305.2 305.2 305.3 303.7 301.7 301.8 301 301 300.5 300.1 301.2 301.1 300.6 300.1 299.8 299.9 299.3 298.6 297.8 298.3 298 297.7 297.3 297 296.5 294.9 296.6 296.3 296.5 295.4 295 297.6 298.3 296.3 296 293.9 294.7 293.6 294.4 299.6 306.3 309 314.7 327.2 340.3 350.6 360.4 369.6 378.9 388.7 399.9 410.6 419.3 424.6 426.5 423.5 417.9 412.1 406.9 401.3 397.1 393.9 391.2 388.2 386.1 383.6 378.7 370.3 386.8 401 413.4 425.9 438.2 444.9 449.5 448.7 448.2 448.6 448.7 445.1 435.7 424.3 413.2 403.3 395.6 388.1 381.5 390.6 400 408.8 413.2 412.7 411.9 411.9 413.4 415.3 417.1 417.7 416.4 413.8 409.6 404.1 396.3 394.8 396.1 395.5 394.3 395.1 399.7 406.1 414.1 420.7 420.6 413.7 404.7 398 390.4 385.9 381.6 376.7 373.2 371.2 368.9 368.2 370.9 372.4 372.7 372.8 370.4 366.8 363.1 358.5 351.4 344.7 348.3 347.9 339.6 345.4
529.7 524.6 517.2 507.7 493 477.1 459.8 442.5 442.9 456.5 467.9 477.9 487.7 500 508.1 511.5 507.8 492.4 477.3 462 447.1 429.5 417.8 406.9 394.2 385.4 376.1 367.2 361.1 355.8 352.2 351.4 349.6 347.5 345 342.9 341.6 338.6 334.3 330.5 322.8 326.1 327.3 333.6 341.1 350.9 362.1 379.4 396.3 409 417.1 413.2 401.3 376.3 353.8 336.9 326.7 319.3 314.4 309 305.8 304.6 304.9 305.1 303 308.3 313.2 312.6 308.1 304.2 302.4 302.4 301.1 301 300.5 299.9 299.4 299.7 299.4 298.6 298.1 298.6 298.2 297.8 297.5 296.7 297.4 296.5 295.7 296.1 297.3 295.9 297.5 298.9 300.6 298.8 296.5 294.2 293.9 294.3 298.1 303.1 307.5 309.9 312.8 318.8 332.9 344.8 355.2 365.3 374.8 384.4 394.1 404.5 412.6 419 423.1 422.1 419.3 414.4 409.1 404.9 401.6 398.7 397.3 394.6 391.9 388.7 386.3 375.9 390.2 404.6 415.9 430.1 442.5 450.5 457.4 459.2 460.7 462 462.5 458.2 446.4 432.5 421.4 411.6 404.4 397.2 391.9 396.6 407.1 415.9 422.7 424.5 424.1 423.8 425.7 425.7 427.4 425.7 421.5 417.3 412.1 406.8 402.5 403.8 403.6 403 401.6 401.4 408.2 415.1 422.8 426.5 425.5 421.8 410.5 400.7 394.6 389.9 385.4 380.2 375.5 373.8 372.5 371.3 374.3 375.5 375 372.1 368.5 365.4 360.7 352.1 346.7 343.9 349.5 348.9 344.3 335
528 524.8 517.7 508.8 493.4 476.4 462.3 446.5 426.6 436.9 453.2 466.1 478.6 492.4 503.7 509.9 508.4 496.1 482.1 465.7 448.8 433.8 418.5 406.3 392.6 383.2 374 364.9 357.4 352.9 347.9 346 344.2 342.6 339 336.9 334.9 331 323.4 321.8 321.4 320.7 320.3 320.2 321.4 336.4 350.8 364.8 380.5 396.7 410.2 410.8 397.2 373.5 351.6 334.2 323.2 316.7 310.7 305.6 305 305 304.7 304.5 313.5 326.9 333.5 334.1 327.4 316.5 309.7 305.5 303 300.5 300.5 299.4 298.8 299.6 299.3 298.6 298.4 298.1 298.3 298.2 298 299.1 298.8 297.3 297 299.1 300.1 301.6 302.6 300.1 300.9 300.9 300.1 294.6 293.8 295.2 297.6 301.3 305.9 309.8 314.1 321.8 330.6 340.5 351.7 361.2 370.8 380.4 389.9 398.9 406.5 414.3 419.9 421 420.3 416.2 412.3 408.6 405.9 404.4 403.1 400.7 398 394.9 392.3 385.3 394.7 405.4 417.7 429.1 441 451.3 459.6 465.8 468.7 470.9 472.4 466.7 454.7 441 430.3 420.9 413.5 408.9 404.2 403.6 412.6 421.8 428.4 433.2 435.9 435.8 435.4 433.3 430.1 425.5 421 417.9 413.3 408.7 406.9 408.1 408.7 408.2 407.3 408.6 412.5 416.2 421.3 424.4 422.9 418.7 410.3 403.8 399 394 389.2 383.3 379.2 376.8 375.3 374.1 376.9 377.5 375.3 372 368.4 364.2 356.3 345.7 346.5 350.7 348.7 346.2 342.5 338.4
524.3 523.3 518.5 505.9 491.8 475.1 461.3 446.2 432.1 416.8 437.1 455.5 471.5 486.6 498 508.7 508.8 500.1 485.4 470.5 452.5 438 423.1 408.7 394.2 382.3 372.6 362.8 355 350.1 345.2 343 341.9 339.7 336.1 332.3 330.4 324.7 321.6 321.6 321.5 321 320.2 320 320.4 320.3 334.3 354.2 370.3 389.6 403.4 408.6 398.7 375.6 350 331.5 319.6 312.6 307.8 305.7 305.4 305 305 312.2 327.8 342.8 352.1 351.5 346.4 337 324.9 317.8 312.7 307 304.1 299.8 298.2 300.9 298.5 298.1 298.1 298.3 297.3 297.6 299.8 299.2 303.3 300.7 301.1 303.8 306.9 308.6 308.8 303.4 301.2 301.3 300.1 296.6 294 296.2 298.6 300.4 304.1 308.4 313.8 320.4 325.6 336 347.7 357.2 366.6 376 385.5 394.3 401.2 409.3 417 420.1 420.6 419.3 415.7 414.2 412.4 410.9 409.3 406.9 404.2 401.9 400.6 396.1 394.7 405.9 417.5 428.4 438 448.3 457.3 465.7 471 474.3 477 473.4 461.5 448.5 439.2 430.5 423 418.8 415.3 413 418 426.7 432.1 437.1 440.9 442.7 438.6 434.9 430.2 425.3 421.2 418.5 414.9 412.5 411 411.3 410.8 410.2 409.8 410.1 412.2 414.3 413.8 413.7 413.4 413.3 408.4 404.8 401 397.3 393.1 387.4 382.3 380 378.6 376.7 377.8 377.7 375.2 372.3 369.1 364.4 349.1 350.5 351.4 349.9 347.6 344.2 340.9 337.5
518.8 520.2 513.8 502.6 487.3 474.3 458 441.5 428.9 414.7 422 445.2 465.3 482.1 494 504.8 506.9 500.3 487.5 472.2 456.7 439.4 425.4 411.1 395.6 381.3 370.3 360.6 353.9 347.7 341.7 339.6 338.3 337.1 333.3 330.3 325.5 321.9 321.4 321.3 321.4 321.4 320.6 320.6 320.5 319.3 322.1 342.8 362.9 383.9 399.2 405.7 401.5 377.1 350.1 329.4 317.9 310 307.3 306 304.3 304.6 306.8 320.2 337.6 356.2 370.7 366.1 361.8 353.9 343 333 327.5 322.4 316.9 312.1 307.3 307.6 303.9 302.5 301.3 302.2 303.4 302.3 302.6 307.5 310.6 308.6 311.2 310.4 313.4 316.5 315.4 312.2 299.8 299.8 299.3 298.6 294.9 296.2 299.6 301.5 304.4 309.2 313 317.8 322.9 330.1 343.4 354.2 363.5 372.8 381.4 389.5 397.8 405.8 412.6 417.7 419.6 420.1 421.1 421.9 420.3 418.4 416.3 413.2 410.8 409 407 404.1 399.8 408.5 417.3 426.8 435.8 444.9 453.7 461.8 469.8 475.5 478.7 477.6 467.4 457 445.5 438 432.5 429.1 425.9 423.1 423.4 429.7 434.1 439 440.6 441.8 438 432.8 429.4 426.3 422.8 418.6 415.7 413.9 412.4 411.6 410.4 409.9 409.7 409.6 410.8 411.7 411.3 410.8 410.3 409.5 407.9 405.7 403 400.3 397.3 392.2 385.7 382.6 380.2 378.7 378.5 378.6 377 373.8 369.8 363.5 348.6 348.6 348.6 348.9 345.9 342.6 338.7 337.1
509.1 511.9 507.4 496 483.8 470.5 451.6 437.3 420.3 410 408.7 437.3 460.5 478.4 489.9 497.2 500.7 496.5 484.2 473.3 456.7 439.8 425.4 409.9 397.6 380.7 367.9 358.1 351.6 345.2 339.4 336.5 334.6 333.7 330.1 323.7 322.7 322.4 321.6 326.3 327.7 327.8 325.2 323.4 319 319.7 319.2 336.5 360.8 380.6 396.6 408.7 406.1 384.1 356.4 332.9 317.7 309.1 306.6 305.1 305.9 305.2 309.3 324.7 340.9 361.1 374.1 374.8 369.4 362.7 353.1 342.8 338.2 332.5 328.5 324 319.1 321.8 322.2 321.6 315.5 310.9 310.4 310.6 309.9 314.1 317.2 319.8 322.9 320.2 321.8 323.1 319.2 315.9 304.3 299.8 300.1 299.6 296.7 296.8 300.6 301.8 304.1 309.3 313.1 317.4 321.5 327.8 336.9 349.1 358.3 367.3 375.8 384 392.5 400.7 408.5 414.3 417.8 421.1 426.2 428.1 428.2 426.6 423.7 420 417 415.1 414.1 413.2 410.3 408.3 418.2 427.1 436.1 444.1 451.6 459.2 466.7 472.5 476.9 477.1 471.3 462.3 453.3 445.8 439.8 435.7 432.6 431 429.2 432.7 436.6 439.3 440.4 439.7 436.7 432.9 429.9 427 423.9 420.7 418 415.6 413.8 412.2 410.4 409.6 408.7 407.6 408.2 406.8 406 405.2 406.5 405.9 404.9 404.2 404.1 403.2 401.2 396.6 389.2 386.6 383.9 381.2 380.7 381.2 380 375.7 371.2 364.8 358.4 349.9 348.6 348.3 343.9 342.7 341.3 339.2
