ncols 200
nrows 92
xllcorner 440000
yllcorner 1183800
cellsize 50
-0.9 -0.9 -0.9 -0.9 -0.9 -0.9 -0.9 -0.9 -0.9 -0.9 -0.9 -0.9 -0.9 -0.9 -0.9 -0.9 -0.9 -0.9 -0.9 -0.9 -0.9 -0.9 -0.9 -0.9 -0.9 -0.9 -0.9 -0.9 -0.9 -0.9 -0.9 -0.9 -0.9 -0.9 -0.9 -0.9 -0.9 -0.9 -0.9 -0.9 -0.9 -0.9 -0.9 -0.9 -0.9 -0.9 -0.9 -0.9 -0.9 -0.9 -0.9 -0.9 -0.9 -0.9 -0.9 -0.9 -0.9 -0.9 -0.9 -0.9 -0.9 -0.9 -0.9 -0.9 -0.9 -0.9 -0.9 -0.9 -0.9 -0.9 -0.9 -0.9 -0.9 -0.9 -0.9 -0.9 -0.9 -0.9 -0.9 -0.9 -0.9 -0.9 3 14.5 16.8 18.4 18.9 21.4 22.3 24.1 25.8 24.4 27.9 33 41.9 45.6 47.6 48.1 47.8 47.5 44.9 41.8 33.9 26.8 21.2 21 22.1 25.3 25.6 25.4 25.5 26.4 28.9 32.9 37.3 42 46.6 52.1 55.5 57.9 61.1 66.6 70.7 71.2 75.2 78.4 77.7 79.4 81.2 82.5 81 81.3 83.3 77.8 69.5 61.3 55.6 53.7 53.8 57.8 65.3 72.5 77.8 82.8 88.8 94.8 97.8 99.4 96.9 96.1 98 102.1 104.4 105.7 108.1 112.8 123.5 135.8 143.9 149.5 149.2 144.6 139.1 132.6 126.3 119.3 111.7 107.2 102.9 98 93.3 91.9 93.6 95.1 99.9 105.5 111.6 115.8 118.7 120 120.9 121.2 120.9 121.1 120.3 118.9 116.5 115.7 114.9 112.8 110.6 109.3 107.3 104.1 99.2 94.6 87.8 78.2 72.2 63.8
-0.9 -0.9 -0.9 -0.9 -0.9 -0.9 -0.9 -0.9 -0.9 -0.9 -0.9 -0.9 -0.9 -0.9 -0.9 -0.9 -0.9 -0.9 -0.9 -0.9 -0.9 -0.9 -0.9 -0.9 -0.9 -0.9 -0.9 -0.9 -0.9 -0.9 -0.9 -0.9 -0.9 -0.9 -0.9 -0.9 -0.9 -0.9 -0.9 -0.9 -0.9 -0.9 -0.9 -0.9 -0.9 -0.9 -0.9 -0.9 -0.9 -0.9 -0.9 -0.9 -0.9 -0.9 -0.9 -0.9 -0.9 -0.9 -0.9 -0.9 -0.9 -0.9 -0.9 -0.9 -0.9 -0.9 -0.9 -0.9 -0.9 -0.9 -0.9 -0.9 -0.9 -0.9 -0.9 -0.9 -0.9 -0.9 -0.9 -0.9 -0.9 -0.9 0.8 12.1 15.1 18.2 16.6 20 20.5 22.9 24.5 24.2 31.4 36.4 42.7 46.9 48.1 47.2 46.6 45.3 42.6 38.7 33.1 26.1 21.1 21 22.8 25.5 27.3 25.6 25.5 27.4 30.4 33.5 37.6 40.2 43.4 48.1 50.9 52.7 54.8 59.9 63.6 66.8 69 70.7 71.2 72.8 74.4 76 76.3 74.1 75.8 73.9 67.5 60.1 55 51.8 52.6 58 65.3 72.4 77.6 83.1 88.5 93.5 98.4 101.1 100.2 98.8 100.3 103.7 105.3 107.8 110.2 116.2 126 137.8 146.2 151.2 151.2 146.9 140.1 132.9 125.6 116.2 110.5 105.3 101.1 96.9 94 91.2 94.2 96.5 102.1 106.6 112.8 115.9 118.4 120.8 121.1 120.9 120.8 119.9 117.9 116.7 113.7 113.5 113.3 111.2 108.9 106.6 105.3 101.9 98.7 93.4 86.2 79.2 71.6 61.8
-0.9 -0.9 -0.9 -0.9 -0.9 -0.9 -0.9 -0.9 -0.9 -0.9 -0.9 -0.9 -0.9 -0.9 -0.9 -0.9 -0.9 -0.9 -0.9 -0.9 -0.9 -0.9 -0.9 -0.9 -0.9 -0.9 -0.9 -0.9 -0.9 -0.9 -0.9 -0.9 -0.9 -0.9 -0.9 -0.9 -0.9 -0.9 -0.9 -0.9 -0.9 -0.9 -0.9 -0.9 -0.9 -0.9 -0.9 -0.9 -0.9 -0.9 -0.9 -0.9 -0.9 -0.9 -0.9 -0.9 -0.9 -0.9 -0.9 -0.9 -0.9 -0.9 -0.9 -0.9 -0.9 -0.9 -0.9 -0.9 -0.9 -0.9 -0.9 -0.9 -0.9 -0.9 -0.9 -0.9 -0.9 -0.9 -0.9 -0.9 -0.9 -0.9 0.8 10 14.1 15 13.9 15.9 17.1 22.5 22.6 24.3 33.9 40.9 43.5 46.5 46.9 44.8 44.1 41.9 39 34.9 30.1 24.2 20.7 20.4 23 24.7 28.7 26.8 24.8 27.6 32.1 35.2 37.2 39.5 40.9 45.1 47.7 50.1 50.6 55.3 59.9 62 63 64.8 65.2 66.2 67.4 67.5 67.2 67.2 67.6 68 63.3 57.3 51.9 50.7 51.5 56.5 65.6 70 77.4 82.8 86.5 91 97.3 103 102.9 102.5 101.9 103.6 106.2 108.7 114 119.6 129.3 140.8 150.5 154.8 152.6 147.8 141.1 132.2 125.2 117 111.3 104.6 98.3 96.1 95 93.8 95.2 97.8 103.1 106.4 112.1 115.5 117.9 120.4 121 120.3 119.3 117.2 116.3 114.5 111.3 109.7 110.5 107.8 106.3 103.9 101.3 99.6 96.1 90.4 84.8 77.4 68 67.9
-0.9 -0.9 -0.9 -0.9 -0.9 -0.9 -0.9 -0.9 -0.9 -0.9 -0.9 -0.9 -0.9 -0.9 -0.9 -0.9 -0.9 -0.9 -0.9 -0.9 -0.9 -0.9 -0.9 -0.9 -0.9 -0.9 -0.9 -0.9 -0.9 -0.9 -0.9 -0.9 -0.9 -0.9 -0.9 -0.9 -0.9 -0.9 -0.9 -0.9 -0.9 -0.9 -0.9 -0.9 -0.9 -0.9 -0.9 -0.9 -0.9 -0.9 -0.9 -0.9 -0.9 -0.9 -0.9 -0.9 -0.9 -0.9 -0.9 -0.9 -0.9 -0.9 -0.9 -0.9 -0.9 -0.9 -0.9 -0.9 -0.9 -0.9 -0.9 -0.9 -0.9 -0.9 -0.9 -0.9 -0.9 -0.9 -0.9 -0.9 -0.9 -0.9 1 9.6 12.9 13.1 11.1 14.5 15.5 18.5 19.9 25.5 34.1 42.5 44.6 44.7 43.4 41.5 38.9 36.5 34 31.9 26.6 21.1 18.1 19.7 22.8 23.4 27.8 25.6 25 28.7 32.4 35.9 37.6 37.4 37.9 41.1 43.3 46.1 46.9 49.8 54.3 56.8 57.7 58.9 58.2 58.4 59.1 58.7 59.1 60.1 60.7 59.7 57 53.5 49.1 48.7 51.2 55.1 63.3 69.4 78.4 83.3 87.2 90.1 95.1 101.2 104.3 104.3 103.6 104.9 109 111.7 116.8 122.1 132.9 142.9 153.2 157.4 154.6 149 140.7 132 124.6 114.9 108.7 102.5 97.4 95.4 93.7 95.2 96.1 98.7 102 106 111.2 115.6 116.7 120.6 120.5 120.8 118.3 115.7 115.2 112.8 109.5 106.8 105.9 104.7 102.7 100.4 98.2 95.6 92.6 88.2 81.5 74.9 64 72.3
-0.9 -0.9 -0.9 -0.9 -0.9 -0.9 -0.9 -0.9 -0.9 -0.9 -0.9 -0.9 -0.9 -0.9 -0.9 -0.9 -0.9 -0.9 -0.9 -0.9 -0.9 -0.9 -0.9 -0.9 -0.9 -0.9 -0.9 -0.9 -0.9 -0.9 -0.9 -0.9 -0.9 -0.9 -0.9 -0.9 -0.9 -0.9 -0.9 -0.9 -0.9 -0.9 -0.9 -0.9 -0.9 -0.9 -0.9 -0.9 -0.9 -0.9 -0.9 -0.9 -0.9 -0.9 -0.9 -0.9 -0.9 -0.9 -0.9 -0.9 -0.9 -0.9 -0.9 -0.9 -0.9 -0.9 -0.9 -0.9 -0.9 -0.9 -0.9 -0.9 -0.9 -0.9 -0.9 -0.9 -0.9 -0.9 -0.9 -0.9 -0.9 -0.9 3.8 8.7 10.5 8.5 9.1 11.6 15.2 16.3 17.6 24 31.4 41.5 44.1 41.4 37.9 35.6 33.7 31.5 28.7 26.2 23.1 17.6 16.8 19 22.5 23.1 24.9 24.8 24.1 29.7 34.1 36.3 36.8 36.4 34.8 37.3 39 41.6 43.1 45.2 48 50.5 52.2 51.1 50.9 50.1 50.1 50.3 51.6 52.5 52.5 50.9 49.6 48.8 48.4 47.5 50.4 55.3 62.8 70.4 78.4 83.4 87.2 89.9 95.9 100.2 103.5 108.2 107.5 108.5 111.2 115.4 118.9 125.5 135.2 146.2 155.7 156.8 154.1 149.2 141.5 132 122.4 113.3 107.3 100.5 96.9 94.7 94.8 95.9 97.2 99.8 101.3 104.8 110.3 116 116.7 120.1 120.7 120.6 117.7 114.6 113.3 111.2 108.1 104.4 102.1 99.8 98.6 95.7 94 91.5 88.8 83.5 78.6 71.5 70.3 73.2
-0.9 -0.9 -0.9 -0.9 -0.9 -0.9 -0.9 -0.9 -0.9 -0.9 -0.9 -0.9 -0.9 -0.9 -0.9 -0.9 -0.9 -0.9 -0.9 -0.9 -0.9 -0.9 -0.9 -0.9 -0.9 -0.9 -0.9 -0.9 -0.9 -0.9 -0.9 -0.9 -0.9 -0.9 -0.9 -0.9 -0.9 -0.9 -0.9 -0.9 -0.9 -0.9 -0.9 -0.9 -0.9 -0.9 -0.9 -0.9 -0.9 -0.9 -0.9 -0.9 -0.9 -0.9 -0.9 -0.9 -0.9 -0.9 -0.9 -0.9 -0.9 -0.9 -0.9 -0.9 -0.9 -0.9 -0.9 -0.9 -0.9 -0.9 -0.9 -0.9 -0.9 -0.9 -0.9 -0.9 -0.9 -0.9 -0.9 -0.9 -0.9 -0.9 9.6 10.2 9.2 5.9 8.2 9 16.8 14.5 15.9 21 28.2 36.7 38.9 34.2 31.3 28.9 28.2 26.3 22.9 20.9 19.2 15.9 15.2 18.3 21.7 24.1 22.4 22.7 26.4 31.7 36.6 40.1 38.3 34.5 32.9 33.6 34.7 37.3 39.5 40.9 43.3 45.7 45.9 46.6 45.2 46.2 45.6 45.2 46.1 46.3 46.6 45.9 45.9 46.6 46.1 46 49.1 55.9 65.1 70.7 77.2 82.6 87 89.6 95.7 101.2 105.5 109.4 108.6 111.3 114.2 120 124.1 129 138.8 151.4 158.8 159.1 153.9 149 140.9 131.8 120.2 112.1 104.6 98.5 96.2 94.2 95.9 96.6 98.6 100.5 102.3 107.6 113.1 116 116.4 119.2 120 120.3 116.5 113.2 111.2 109.3 104.7 102.6 98.5 95.3 92.5 91.2 89.8 87 82.7 79.1 76.1 70.4 71.8 75.8
-0.9 -0.9 -0.9 -0.9 -0.9 -0.9 -0.9 -0.9 -0.9 -0.9 -0.9 -0.9 -0.9 -0.9 -0.9 -0.9 -0.9 -0.9 -0.9 -0.9 -0.9 -0.9 -0.9 -0.9 -0.9 -0.9 -0.9 -0.9 -0.9 -0.9 -0.9 -0.9 -0.9 -0.9 -0.9 -0.9 -0.9 -0.9 -0.9 -0.9 -0.9 -0.9 -0.9 -0.9 -0.9 -0.9 -0.9 -0.9 -0.9 -0.9 -0.9 -0.9 -0.9 -0.9 -0.9 -0.9 -0.9 -0.9 -0.9 -0.9 -0.9 -0.9 -0.9 -0.9 -0.9 -0.9 -0.9 -0.9 -0.9 -0.9 -0.9 -0.9 -0.9 -0.9 -0.9 -0.9 -0.9 -0.9 -0.9 -0.9 -0.9 -0.9 11.6 13 10.6 3.4 5.4 2.8 5.5 12.7 15.4 19.1 25.9 29 31.7 26.5 22.3 18.9 16.3 16.2 16.4 15.5 14.9 12.2 12.6 17 20.1 20.9 20.9 20 26.7 32.3 35.4 39.3 37.9 34.2 32 32.5 32.3 33.6 35.6 38.5 39.9 40.6 41.1 42.8 42.9 45.2 43.9 44 43.5 44.4 44.4 44.1 44.9 45.2 45.4 46.2 49.2 57.1 63.8 70.6 78.8 83.9 87.3 91 96.7 102.8 106.9 109.5 110.7 113.8 118.8 124.4 127 133.3 144.8 157.8 161.6 159.9 155.2 148 140.9 130.7 118.1 111.4 104 98.5 97.5 97 95.7 97.2 99.9 103 105.5 111.9 116.9 117.2 118.4 121.7 121.4 120.7 115.1 112.8 109.7 106.9 102.5 98.7 95.9 92.1 88 87.7 86.2 84 80.4 77.4 74.6 69 71.8 77.4
-0.9 -0.9 -0.9 -0.9 -0.9 -0.9 -0.9 -0.9 -0.9 -0.9 -0.9 -0.9 -0.9 -0.9 -0.9 -0.9 -0.9 -0.9 -0.9 -0.9 -0.9 -0.9 -0.9 -0.9 -0.9 -0.9 -0.9 -0.9 -0.9 -0.9 -0.9 -0.9 -0.9 -0.9 -0.9 -0.9 -0.9 -0.9 -0.9 -0.9 -0.9 -0.9 -0.9 -0.9 -0.9 -0.9 -0.9 -0.9 -0.9 -0.9 -0.9 -0.9 -0.9 -0.9 -0.9 -0.9 -0.9 -0.9 -0.9 -0.9 -0.9 -0.9 -0.9 -0.9 -0.9 -0.9 -0.9 -0.9 -0.9 -0.9 -0.9 -0.9 -0.9 -0.9 -0.9 -0.9 -0.9 -0.9 -0.9 -0.9 -0.9 -0.9 15.2 16.3 11.7 3.9 -0.9 -0.9 -0.9 11.6 16 16.6 19.7 22.1 20.8 13.8 11.3 9.2 7.7 8.8 12.4 12.5 11.8 10 10.2 15.6 18.4 18.6 18.2 18.5 25.6 31.6 35.2 37 36.2 33.3 31.1 31.8 31.8 33.3 34.7 35.5 37 37.6 39.8 40.2 41.9 45.8 43 42 42.8 43 43.6 43.9 45.1 45.4 45 45.7 47.8 54.4 61.3 70 79.4 85.4 87.5 90.8 98.9 103.6 108.2 110.3 112.6 115.6 119 124.7 130.4 138.7 149.4 159 162.5 161.5 155.7 148.1 140.7 130.3 119.2 111.7 104.8 99.1 97.7 97.5 98 99.3 103.6 106.3 109.5 115.6 119.9 119.6 121.2 122.9 122.7 120.1 116.1 112.4 109.2 104.7 99.1 95.6 93.5 89.5 87.7 85.9 82.8 80.2 77.8 74.4 72.6 70.5 71.2 76.6
-0.9 -0.9 -0.9 -0.9 -0.9 -0.9 -0.9 -0.9 -0.9 -0.9 -0.9 -0.9 -0.9 -0.9 -0.9 -0.9 -0.9 -0.9 -0.9 -0.9 -0.9 -0.9 -0.9 -0.9 -0.9 -0.9 -0.9 -0.9 -0.9 -0.9 -0.9 -0.9 -0.9 -0.9 -0.9 -0.9 -0.9 -0.9 -0.9 -0.9 -0.9 -0.9 -0.9 -0.9 -0.9 -0.9 -0.9 -0.9 -0.9 -0.9 -0.9 -0.9 -0.9 -0.9 -0.9 -0.9 -0.9 -0.9 -0.9 -0.9 -0.9 -0.9 -0.9 -0.9 -0.9 -0.9 -0.9 -0.9 -0.9 -0.9 -0.9 -0.9 -0.9 -0.9 -0.9 -0.9 -0.9 -0.9 -0.9 -0.9 -0.9 -0.9 18.6 20.2 12.4 -0.9 -0.9 -0.9 -0.9 7.6 14.6 15 14.7 13.9 10 -0.9 -0.9 -0.9 0.7 6.9 7.7 8.1 8.1 8.3 8.6 11.3 15.3 19.2 17.6 17 22.2 29.7 33 33.8 34.2 31.2 29.9 30.5 30.9 31.6 32.2 35.4 37.1 39.2 36.9 40.5 40.8 42.3 42.1 42.4 40.9 43.5 42.8 44.2 44.2 44.8 45.1 45.7 47.5 51.7 59.2 70.3 79.1 85.6 86.6 91.2 98.2 104.3 108.1 109.7 115.2 119 121.3 127.8 136.4 143.2 152.7 160.7 163.4 160.8 156.5 149.3 141 129.3 120.9 113.5 106.5 99.7 95.8 97.9 98.9 101.6 106.6 108.7 111.2 116.6 121.1 121.4 123.1 122.9 123 118.6 115.6 112 108 103.6 98.7 95 92 88.3 86.3 87.3 86.2 83.8 80.4 77.1 73.8 70.8 71.9 75.2
-0.9 -0.9 -0.9 -0.9 -0.9 -0.9 -0.9 -0.9 -0.9 -0.9 -0.9 -0.9 -0.9 -0.9 -0.9 -0.9 -0.9 -0.9 -0.9 -0.9 -0.9 -0.9 -0.9 -0.9 -0.9 -0.9 -0.9 -0.9 -0.9 -0.9 -0.9 -0.9 -0.9 -0.9 -0.9 -0.9 -0.9 -0.9 -0.9 -0.9 -0.9 -0.9 -0.9 -0.9 -0.9 -0.9 -0.9 -0.9 -0.9 -0.9 -0.9 -0.9 -0.9 -0.9 -0.9 -0.9 -0.9 -0.9 -0.9 -0.9 -0.9 -0.9 -0.9 -0.9 -0.9 -0.9 -0.9 -0.9 -0.9 -0.9 -0.9 -0.9 -0.9 -0.9 -0.9 -0.9 -0.9 -0.9 -0.9 -0.9 -0.9 -0.9 19.2 24.8 18.7 -0.9 -0.9 -0.9 -0.9 -0.9 8.8 12.2 9.3 -0.9 -0.9 -0.9 -0.9 -0.9 -0.9 0.3 5.3 4.7 5.1 6.1 7 9.5 11.5 13.7 15.1 15.5 20.1 24.8 29.4 30.2 26.7 28.7 30.3 29.1 30.5 31.6 33.7 35.8 36.3 38.4 38.9 39.2 38.8 39.2 40.6 42.2 44.8 43.5 44.5 44.1 44.2 45.5 45.3 45.9 48.7 53.1 58.3 67.4 76 80.6 84.1 92.1 99 104.4 106.6 109.9 117.6 120.8 124.3 131.7 139.9 150 157.1 159.6 159.5 159.3 154.8 148.2 139.2 129.1 122.3 114.6 107.4 101 97.3 100 102 102.8 108.7 111.2 115.3 117.9 122.1 122.1 121.9 123.7 121 117.4 115.8 110.8 106.9 103.5 97.4 94.4 91.9 86.6 88.3 87.8 87.9 85.4 82.5 79.1 74.6 71.3 72.1 75.1
-0.9 -0.9 -0.9 -0.9 -0.9 -0.9 -0.9 -0.9 -0.9 -0.9 -0.9 -0.9 -0.9 -0.9 -0.9 -0.9 -0.9 -0.9 -0.9 -0.9 -0.9 -0.9 -0.9 -0.9 -0.9 -0.9 -0.9 -0.9 -0.9 -0.9 -0.9 -0.9 -0.9 -0.9 -0.9 -0.9 -0.9 -0.9 -0.9 -0.9 -0.9 -0.9 -0.9 -0.9 -0.9 -0.9 -0.9 -0.9 -0.9 -0.9 -0.9 -0.9 -0.9 -0.9 -0.9 -0.9 -0.9 -0.9 -0.9 -0.9 -0.9 -0.9 -0.9 -0.9 -0.9 -0.9 -0.9 -0.9 -0.9 -0.9 -0.9 -0.9 -0.9 -0.9 -0.9 -0.9 -0.9 -0.9 -0.9 -0.9 -0.9 -0.9 15.5 29.9 22.6 -0.9 -0.9 -0.9 -0.9 -0.9 -0.9 -0.9 -0.4 -0.9 -0.9 -0.9 -0.9 -0.9 -0.9 -0.9 3 5.3 6.5 7.8 7.7 8.9 10.1 11.5 12.8 13.9 15.6 18.9 22.9 23.7 28.6 32.3 33.2 33.1 30.8 31.1 32.8 34.3 37 39.8 43.2 40.5 40.7 41 42.5 44.2 44.9 47.3 48.9 47.4 48.2 49.1 47.1 46.3 48.3 53.3 58.2 64.1 72.5 77.4 83.7 91.2 98.5 102.6 105.3 110.6 120.9 124.8 128 136.9 144.4 152.9 159.1 159.5 159.3 157.5 154.8 146.7 138.7 129.2 123.4 115.7 108 102.9 98.3 100.7 105 106.8 108.8 112.1 115.5 118.8 122.1 121.1 121.4 122 118 115.8 112.9 108.8 105.4 102.2 96.9 93.8 88.4 90.8 91 91.1 89.8 86.9 84.4 80 75.7 73.1 72.5 75
-0.9 -0.9 -0.9 -0.9 -0.9 -0.9 -0.9 -0.9 -0.9 -0.9 -0.9 -0.9 -0.9 -0.9 -0.9 -0.9 -0.9 -0.9 -0.9 -0.9 -0.9 -0.9 -0.9 -0.9 -0.9 -0.9 -0.9 -0.9 -0.9 -0.9 -0.9 -0.9 -0.9 -0.9 -0.9 -0.9 -0.9 -0.9 -0.9 -0.9 -0.9 -0.9 -0.9 -0.9 -0.9 -0.9 -0.9 -0.9 -0.9 -0.9 -0.9 -0.9 -0.9 -0.9 -0.9 -0.9 -0.9 -0.9 -0.9 -0.9 -0.9 -0.9 -0.9 -0.9 -0.9 -0.9 -0.9 -0.9 -0.9 -0.9 -0.9 -0.9 -0.9 -0.9 -0.9 -0.9 -0.9 -0.9 -0.9 -0.9 -0.9 4.7 18.8 30.3 22.5 7.3 2.9 6.1 -0.9 -0.9 -0.9 -0.9 -0.9 -0.9 -0.9 -0.9 -0.9 -0.9 -0.9 -0.9 3.8 7.5 7 8.6 9 9.8 11.6 12.4 13.4 13.6 16.4 18.9 22 25.5 28.5 32.6 35.6 36.1 33 33.3 33.2 34.1 37.2 39.5 42.5 41.2 41.7 43.6 45.3 46.8 49.4 54 55.5 53 52.4 53.2 50.3 46.4 48.5 52 57.2 63.7 68.8 74.9 81.7 90.9 95.6 99 104.2 110.6 120.6 127.6 132.1 141 148 155.3 161.3 161.2 160.8 157.6 153.5 146 137.3 128.4 121.2 115.8 108.3 102.3 99.2 101.9 107 109.6 110.8 113 114.9 116.6 119.9 121.9 122.4 119.9 117.4 113.3 110.1 107.2 102.3 99 96 92.1 91.1 93 94.5 94.1 91.1 88.1 85.9 81.1 77 73.7 72.4 76.2
-0.9 -0.9 -0.9 -0.9 -0.9 -0.9 -0.9 -0.9 -0.9 -0.9 -0.9 -0.9 -0.9 -0.9 -0.9 -0.9 -0.9 -0.9 -0.9 -0.9 -0.9 -0.9 -0.9 -0.9 -0.9 -0.9 -0.9 -0.9 -0.9 -0.9 -0.9 -0.9 -0.9 -0.9 -0.9 -0.9 -0.9 -0.9 -0.9 -0.9 -0.9 -0.9 -0.9 -0.9 -0.9 -0.9 -0.9 -0.9 -0.9 -0.9 -0.9 -0.9 -0.9 -0.9 -0.9 -0.9 -0.9 -0.9 -0.9 -0.9 -0.9 -0.9 -0.9 -0.9 -0.9 -0.9 -0.9 -0.9 -0.9 -0.9 -0.9 -0.9 -0.9 -0.9 -0.9 -0.9 -0.9 -0.9 -0.9 -0.9 -0.9 10.4 18.6 28.5 22.7 9.7 5.6 8.7 -0.9 5.1 -0.9 -0.9 -0.9 -0.9 -0.9 -0.9 -0.9 -0.9 -0.9 3.6 6.7 7.1 7.9 9.2 9.3 10.4 13.6 13.8 13.3 14.1 17.3 19.5 24.4 26.8 29.3 33.6 38.6 35.2 33.2 34.7 35.3 35.8 37.8 39.8 41.5 40.5 44.3 47.1 51.1 51.1 52.9 59.7 60 56.2 56.7 57.8 54 46.9 50.1 51.5 57.4 64.3 67.3 76.2 80.7 88 93.8 97.7 104.1 112.3 118 128.4 136.4 145.5 150.7 157.9 161.6 162.9 162 157.7 151.7 144 135.6 126.3 120.8 115.4 109 102.3 100.7 103.8 109.9 112.6 115 116.2 116 115.4 118.6 120.8 122.4 119 116.1 111.5 108.2 106 101.6 97.9 95.3 92.2 91.4 95.5 95.2 95.1 92.9 90 86.5 82.4 78.8 74.3 73.2 75.7
-0.9 -0.9 -0.9 -0.9 -0.9 -0.9 -0.9 -0.9 -0.9 -0.9 -0.9 -0.9 -0.9 -0.9 -0.9 -0.9 -0.9 -0.9 -0.9 -0.9 -0.9 -0.9 -0.9 -0.9 -0.9 -0.9 -0.9 -0.9 -0.9 -0.9 -0.9 -0.9 -0.9 -0.9 -0.9 -0.9 -0.9 -0.9 -0.9 -0.9 -0.9 -0.9 -0.9 -0.9 -0.9 -0.9 -0.9 -0.9 -0.9 -0.9 -0.9 -0.9 -0.9 -0.9 -0.9 -0.9 -0.9 -0.9 -0.9 -0.9 -0.9 -0.9 -0.9 -0.9 -0.9 -0.9 -0.9 -0.9 -0.9 -0.9 -0.9 -0.9 -0.9 -0.9 -0.9 -0.9 -0.9 -0.9 -0.9 -0.9 6.2 13.8 21.2 28.9 21.8 10.8 8 8 6.1 6.3 -0.9 -0.9 -0.9 -0.9 -0.9 -0.9 -0.9 -0.9 2.7 4.8 8.5 9.4 8.4 11.1 11.1 11.5 12.6 13.2 13.4 14.2 15.6 18.6 24.5 26.6 30.5 34.3 38.6 35.1 34.1 34.5 35.1 36.5 38.2 42.6 42.4 41.8 45.7 51.3 53.3 55.8 58 63.7 65.9 61.6 61.2 62.5 57.4 47.3 49.8 54.3 58.9 65 68.2 74.7 80.6 87 95.1 98.5 106.1 112.3 120.9 131.1 142.2 149.1 153.7 159.5 161.9 163.4 159.6 156 149 142.2 133.1 124.6 118.9 114.3 109.5 103.9 102.7 107 111.5 115.2 117.3 116.6 117 116.9 117.4 120.9 118.7 116.3 113.9 110.2 107.7 105.6 102.4 98.5 96.7 94.6 91.5 94.8 96.2 96 94.2 91.5 89.1 84.9 80.1 77.1 75.1 76.1
-0.9 -0.9 -0.9 -0.9 -0.9 -0.9 -0.9 -0.9 -0.9 -0.9 -0.9 -0.9 -0.9 -0.9 -0.9 -0.9 -0.9 -0.9 -0.9 -0.9 -0.9 -0.9 -0.9 -0.9 -0.9 -0.9 -0.9 -0.9 -0.9 -0.9 -0.9 -0.9 -0.9 -0.9 -0.9 -0.9 -0.9 -0.9 -0.9 -0.9 -0.9 -0.9 -0.9 -0.9 -0.9 -0.9 -0.9 -0.9 -0.9 -0.9 -0.9 -0.9 -0.9 -0.9 -0.9 -0.9 -0.9 -0.9 -0.9 -0.9 -0.9 -0.9 -0.9 -0.9 -0.9 -0.9 -0.9 -0.9 -0.9 -0.9 -0.9 -0.9 -0.9 -0.9 -0.9 -0.9 -0.9 -0.9 -0.9 -0.9 10.5 19.2 23 24.8 19.5 13.2 11.5 6.8 6.9 7.2 -0.9 -0.9 -0.9 -0.9 -0.9 -0.9 -0.9 -0.9 2.2 3.9 8.2 7.7 7.8 11.6 13.6 12.5 13.6 14.2 15.2 15.8 18.4 20.2 22.8 25.2 27.7 34.1 36.3 33.5 35.2 35 35.3 36.3 38.6 41.4 42.7 42.9 47.6 51.6 54 58.7 62.7 66.1 70.2 67.3 65.4 65.2 59.8 48.7 52 56.8 59.6 66.5 70.5 76.8 81.5 89.1 96.6 99.9 106.1 112.7 121.4 133.1 145.9 151.1 156 157.6 158.6 157.9 156.1 151.8 145.6 141.1 131.5 125 118.8 114 109.5 105.2 104.8 109.2 113.6 117 119.2 119.9 119.4 117.5 116.8 121.3 117.2 114.4 113.8 110.2 108.7 107.9 105 100.8 98.4 96.2 94.8 93.3 94.6 95.5 94.8 93 89.9 86 81.3 77.5 74.4 76.4
-0.9 -0.9 -0.9 -0.9 -0.9 -0.9 -0.9 -0.9 -0.9 -0.9 -0.9 -0.9 -0.9 -0.9 -0.9 -0.9 -0.9 -0.9 -0.9 -0.9 -0.9 -0.9 -0.9 -0.9 -0.9 -0.9 -0.9 -0.9 -0.9 -0.9 -0.9 -0.9 -0.9 -0.9 -0.9 -0.9 -0.9 -0.9 -0.9 -0.9 -0.9 -0.9 -0.9 -0.9 -0.9 -0.9 -0.9 -0.9 -0.9 -0.9 -0.9 -0.9 -0.9 -0.9 -0.9 -0.9 -0.9 -0.9 -0.9 -0.9 -0.9 -0.9 -0.9 -0.9 -0.9 -0.9 -0.9 -0.9 -0.9 -0.9 -0.9 -0.9 -0.9 -0.9 -0.9 -0.9 -0.9 -0.9 -0.9 17.4 17.6 20.7 24.3 23.6 23.5 16.4 12.1 8.9 9.8 10.9 -0.9 -0.9 -0.9 -0.9 -0.9 -0.9 -0.9 -0.9 4.1 3.7 5.6 6.6 7.5 11.5 16.1 13.5 13.8 14.2 18.2 19.1 20 22.2 23.5 24.5 27 30.7 33.1 33.3 34.8 35.5 36.3 37.1 39.4 41.4 45.3 43.5 45.4 51.7 56 65.1 69.2 70.8 74.5 73.2 70.2 70 62.8 51 52.4 58.1 61.5 67.1 73.4 77.8 82.6 91.4 100.3 103.6 107.7 113.6 121.7 134.9 147.6 151.4 154.7 154.4 152.6 150.3 148.8 147.3 143.1 139.4 132 126 118.3 113.8 111 105.5 104.6 110.7 115.6 119.1 121.6 122.9 122.5 118.9 118.1 118.7 115.5 114.6 113 111 109.7 108.4 106.4 102.6 99.2 97.4 95.6 95.9 96.9 96.9 97.4 93.8 90.2 86.6 82.1 76.9 74.7 77.7
-0.9 -0.9 -0.9 -0.9 -0.9 -0.9 -0.9 -0.9 -0.9 -0.9 -0.9 -0.9 -0.9 -0.9 -0.9 -0.9 -0.9 -0.9 -0.9 -0.9 -0.9 -0.9 -0.9 -0.9 -0.9 -0.9 -0.9 -0.9 -0.9 -0.9 -0.9 -0.9 -0.9 -0.9 -0.9 -0.9 -0.9 -0.9 -0.9 -0.9 -0.9 -0.9 -0.9 -0.9 -0.9 -0.9 -0.9 -0.9 -0.9 -0.9 -0.9 -0.9 -0.9 -0.9 -0.9 -0.9 -0.9 -0.9 -0.9 -0.9 -0.9 -0.9 -0.9 -0.9 -0.9 -0.9 -0.9 -0.9 -0.9 -0.9 -0.9 -0.9 -0.9 -0.9 -0.9 -0.9 -0.9 -0.9 -0.9 25.3 24.1 23.1 25.9 23.8 23.3 20.4 17 12.2 13.7 16.7 10.9 -0.9 -0.9 -0.9 -0.9 -0.9 -0.9 -0.9 7.2 5.1 4.4 6.3 9.1 12.9 15.4 14.9 15 16 19.8 22.4 23.9 24.6 24.3 26 29 31.3 32.5 32.6 34.6 35.6 36.6 37.7 41.2 46.4 46.2 44.3 45.5 51.3 58 65.8 71.7 78.7 80 79.1 74.7 71.4 63.2 53.2 52.9 61.2 65.5 66.4 73.8 79.7 86.4 93.4 99.9 105.1 109.9 116.8 124.6 135.8 143.7 149.1 151.7 149.7 147.5 145.1 141.7 142.1 138.3 135.6 130.7 126.4 120 114.9 111.1 106.5 105.7 111.3 116.3 120.2 123 124.8 123.8 121 117.6 116.1 114.9 113.9 113.9 110.7 109.6 109.1 106.7 103 99.6 98.7 97.8 98.2 97.6 97.3 95.9 92.7 89.7 85.9 82.7 77.5 76.1 76
-0.9 -0.9 -0.9 -0.9 -0.9 -0.9 -0.9 -0.9 -0.9 -0.9 -0.9 -0.9 -0.9 -0.9 -0.9 -0.9 -0.9 -0.9 -0.9 -0.9 -0.9 -0.9 -0.9 -0.9 -0.9 -0.9 -0.9 -0.9 -0.9 -0.9 -0.9 -0.9 -0.9 -0.9 -0.9 -0.9 -0.9 -0.9 -0.9 -0.9 -0.9 -0.9 -0.9 -0.9 -0.9 -0.9 -0.9 -0.9 -0.9 -0.9 -0.9 -0.9 -0.9 -0.9 -0.9 -0.9 -0.9 -0.9 -0.9 -0.9 -0.9 -0.9 -0.9 -0.9 -0.9 -0.9 -0.9 -0.9 -0.9 -0.9 -0.9 -0.9 -0.9 -0.9 -0.9 -0.9 -0.9 -0.9 2.2 29.9 26.2 24.1 25.3 23.7 25.4 25.1 22.6 16.5 17.1 24.1 20 -0.9 -0.9 -0.9 -0.9 -0.9 -0.9 -0.9 5.7 4.6 6.1 8.9 11.1 14.4 15.4 15.6 17.1 18.4 21 24.5 27.9 26.9 26.8 27.6 30.2 32.1 35.8 34.3 34.4 35.9 37.2 39.3 41.5 44.4 45.5 45.6 47.4 52.4 60.2 67.3 76.2 83.7 86.8 84 79 73.8 64.5 54.7 52.9 61.2 67.4 70 75.3 81.4 88.3 95.2 103.5 107 111.9 119.3 128.8 140.9 146.8 147 148.8 146.9 143 138.9 136.6 133.9 132.7 132.3 129 123.6 118.7 113.6 110.7 107.2 105.9 110.7 115.5 119 121.7 125.1 123.1 120.2 116.7 115.2 114.4 113.6 112.6 110.7 110 109 106.9 101.9 100.5 99.7 98.9 98.5 98 97.4 96.1 91.4 86.9 83.8 81.2 78 76.2 76.5
-0.9 -0.9 -0.9 -0.9 -0.9 -0.9 -0.9 -0.9 -0.9 -0.9 -0.9 -0.9 -0.9 -0.9 -0.9 -0.9 -0.9 -0.9 -0.9 -0.9 -0.9 -0.9 -0.9 -0.9 -0.9 -0.9 -0.9 -0.9 -0.9 -0.9 -0.9 -0.9 -0.9 -0.9 -0.9 -0.9 -0.9 -0.9 -0.9 -0.9 -0.9 -0.9 -0.9 -0.9 -0.9 -0.9 -0.9 -0.9 -0.9 -0.9 -0.9 -0.9 -0.9 -0.9 -0.9 -0.9 -0.9 -0.9 -0.9 -0.9 -0.9 -0.9 -0.9 -0.9 -0.9 -0.9 -0.9 -0.9 -0.9 -0.9 -0.9 -0.9 -0.9 -0.9 -0.9 -0.9 -0.9 -0.9 10.8 22.5 29.9 27.6 23.9 26.6 28.6 27.1 27.1 23.4 20.9 29 24.7 9.8 -0.9 -0.9 -0.9 -0.9 -0.9 -0.9 -0.9 2.8 6.7 9.5 12.5 15.7 15.8 18.8 20.3 20.7 23.1 28 32.2 33 30.1 29.2 31.7 33.8 35.8 36.1 35.6 36.6 38.4 39.9 41.1 43.6 48 47.2 49.6 54.9 63.9 72.5 79.8 86.6 91.6 87.2 81.6 75.9 66.3 56.2 54.3 61.4 69.5 74.5 79.4 84.8 90.1 97 104.3 109 113.1 122.1 133.4 144.5 147 148.9 147.5 143.4 138.7 134.6 132 129.6 128 127.1 127.2 123.1 116.2 114.4 110.7 107.6 107 108.3 114.6 118.1 119.8 121.7 122.2 119.5 116.1 115.1 114.5 114.1 112.8 110.9 110.2 109.5 105.8 101.9 101.2 100.3 99.7 99.1 99.3 98.8 96 92.9 88.6 84.7 81.3 77.7 75.9 77.5
-0.9 -0.9 -0.9 -0.9 -0.9 -0.9 -0.9 -0.9 -0.9 -0.9 -0.9 -0.9 -0.9 -0.9 -0.9 -0.9 -0.9 -0.9 -0.9 -0.9 -0.9 -0.9 -0.9 -0.9 -0.9 -0.9 -0.9 -0.9 -0.9 -0.9 -0.9 -0.9 -0.9 -0.9 -0.9 -0.9 -0.9 -0.9 -0.9 -0.9 -0.9 -0.9 -0.9 -0.9 -0.9 -0.9 -0.9 -0.9 -0.9 -0.9 -0.9 -0.9 -0.9 -0.9 -0.9 -0.9 -0.9 -0.9 -0.9 -0.9 -0.9 -0.9 -0.9 -0.9 -0.9 -0.9 -0.9 -0.9 -0.9 -0.9 -0.9 -0.9 -0.9 -0.9 -0.9 -0.9 -0.9 -0.9 16.8 23.1 27.1 28.4 26.9 29.7 30.9 29.5 28.1 31.5 27.5 31.5 24.6 12.4 5.2 -0.9 -0.9 -0.9 -0.9 -0.9 -0.9 3.1 8.9 11.5 14.5 16.2 17.1 21.7 22.5 23.2 26.2 31.8 34.4 35.4 32.9 34.2 33.7 37.9 37.7 37.4 37.5 37.5 39 40.6 42.8 45.6 47.4 47.8 51 58.4 70.3 76.4 83 92.9 94.5 92.4 85.2 77 67.7 58.7 55 63.4 71.1 76.9 82.1 89.4 94.9 100.8 107.3 110.5 117.3 124.7 136 145.5 149.6 148.9 146.9 141.5 136.5 133.5 130.5 128.2 127.1 125.3 125.7 120.4 118.2 116.2 113.5 109.1 107.6 108.5 113.1 118 119.2 122.4 121.7 120.3 118.2 115.6 115.1 114.7 113.1 111.3 108.8 107.5 107 102 101.4 100.9 101.3 100.3 100.4 99.5 97.3 93.8 89.1 84.7 81 77 77.4 78.3
-0.9 -0.9 -0.9 -0.9 -0.9 -0.9 -0.9 -0.9 -0.9 -0.9 -0.9 -0.9 -0.9 -0.9 -0.9 -0.9 -0.9 -0.9 -0.9 -0.9 -0.9 -0.9 -0.9 -0.9 -0.9 -0.9 -0.9 -0.9 -0.9 -0.9 -0.9 -0.9 -0.9 -0.9 -0.9 -0.9 -0.9 -0.9 -0.9 -0.9 -0.9 -0.9 -0.9 -0.9 -0.9 -0.9 -0.9 -0.9 -0.9 -0.9 -0.9 -0.9 -0.9 -0.9 -0.9 -0.9 -0.9 -0.9 -0.9 -0.9 -0.9 -0.9 -0.9 -0.9 -0.9 -0.9 -0.9 -0.9 -0.9 -0.9 -0.9 -0.9 -0.9 -0.9 -0.9 -0.9 -0.9 7.1 16.3 26.1 25.6 26.2 27.7 29.2 30.3 28.6 30.4 38.8 34.7 31.6 23.2 12 3.3 -0.9 -0.9 -0.9 -0.9 -0.9 -0.9 -0.9 10.9 13.7 15.2 16.8 19.5 26.3 25.3 26.3 30.5 34.2 37.7 37.4 36 37.4 35 39.1 38.8 38.8 39.3 39.2 40.1 41.8 44.9 47.6 50.5 50.8 55 61.1 72.9 78 87.5 95 97.9 97.1 89.8 80 69.3 59.4 56 65 71.8 79.8 86 94 100.6 105.8 111.7 114.6 120.3 128.7 139.6 146.9 151.2 149.8 147 142.5 136.9 132.7 128.5 126.9 127.1 125.9 125.7 122.4 119.4 117.4 115.5 110.3 108.3 109.7 114.4 118.7 121.6 125.3 123.9 121.1 119.7 116.3 115.5 114.4 112.7 111.6 110.1 109.1 107.4 103.1 101.4 101.4 101.6 101.8 101.1 99.9 97.9 94.5 89.3 83.3 79 78.1 77.7 79.4
-0.9 -0.9 -0.9 -0.9 -0.9 -0.9 -0.9 -0.9 -0.9 -0.9 -0.9 -0.9 -0.9 -0.9 -0.9 -0.9 -0.9 -0.9 -0.9 -0.9 -0.9 -0.9 -0.9 -0.9 -0.9 -0.9 -0.9 -0.9 -0.9 -0.9 -0.9 -0.9 -0.9 -0.9 -0.9 -0.9 -0.9 -0.9 -0.9 -0.9 -0.9 -0.9 -0.9 -0.9 -0.9 -0.9 -0.9 -0.9 -0.9 -0.9 -0.9 -0.9 -0.9 -0.9 -0.9 -0.9 -0.9 -0.9 -0.9 -0.9 -0.9 -0.9 -0.9 -0.9 -0.9 -0.9 -0.9 -0.9 -0.9 -0.9 -0.9 -0.9 -0.9 -0.9 -0.9 -0.9 -0.9 8.4 14.4 25.9 25.4 26 26.5 27.3 30.5 29.1 31.9 43.6 37.2 31 21.9 12.6 5.7 -0.9 -0.9 -0.9 -0.9 -0.9 -0.9 -0.9 10.5 13.2 15.1 17 19.4 25.6 28.7 28.4 32.3 35.8 39.5 40.6 38.9 38.3 38.1 39.8 39.8 41.2 41.5 41 41.7 43.4 48.4 53.7 56.4 55.1 58.5 68.4 74.8 81.4 89.6 101.7 104.2 101.4 93.3 81.9 70.1 61.1 56.1 63.6 73.3 82.5 90.4 98.4 104.9 110.3 116.4 119 125.8 133.5 142.6 149.6 152 152.1 149.5 142.8 136.7 134.6 129.8 129.1 128.2 126.3 126.7 122.8 121.8 118.2 115.7 111.2 109.1 110.3 115.6 119.2 123.2 127.7 127 124.3 120.1 118.2 116.4 115.2 113.5 112.2 112.3 111 109 104.1 103.2 101.7 101.9 102.4 101.7 99.6 97.1 93.9 87.8 81 79.1 77.4 79.5 80
-0.9 -0.9 -0.9 -0.9 -0.9 -0.9 -0.9 -0.9 -0.9 -0.9 -0.9 -0.9 -0.9 -0.9 -0.9 -0.9 -0.9 -0.9 -0.9 -0.9 -0.9 -0.9 -0.9 -0.9 -0.9 -0.9 -0.9 -0.9 -0.9 -0.9 -0.9 -0.9 -0.9 -0.9 -0.9 -0.9 -0.9 -0.9 -0.9 -0.9 -0.9 -0.9 -0.9 -0.9 -0.9 -0.9 -0.9 -0.9 -0.9 -0.9 -0.9 -0.9 -0.9 -0.9 -0.9 -0.9 -0.9 -0.9 -0.9 -0.9 -0.9 -0.9 -0.9 -0.9 -0.9 -0.9 -0.9 -0.9 -0.9 -0.9 -0.9 -0.9 -0.9 -0.9 -0.9 -0.9 -0.9 -0.9 11.8 18.9 23.4 25.7 26.6 26.1 27.5 27.4 31.3 40.4 36.8 29.4 21 12.5 5.1 -0.9 -0.9 -0.9 -0.9 -0.9 -0.9 4.9 10.1 13.5 15.6 15.8 19.3 23.8 29.5 30.5 35.3 38.8 40.6 41.7 41.9 40.8 39 42.2 43 42.9 42.6 42.7 45 47.3 52.1 57 62.1 61 63.4 70.9 79.5 85.3 97.1 106.4 108.6 105.3 97.6 86.7 73.5 63.6 56 63.5 72.5 83.7 92.7 100.6 107.2 113.9 119.8 123.4 129.7 136.9 144.3 150.4 152.9 153.6 150 143.6 137.6 135.7 131.7 130.2 131.8 128.7 126 123.6 122.8 118.8 116.1 113.1 109.3 113.2 116.9 121.4 125.4 129.7 129.3 126.2 123 120.9 117.7 117.1 114.4 113.7 113.8 112.3 110 106.9 104.1 102.8 103.8 103.4 102.9 100.7 98.1 92.8 87.7 82.3 79 78.1 78.3 80.6
-0.9 -0.9 -0.9 -0.9 -0.9 -0.9 -0.9 -0.9 -0.9 -0.9 -0.9 -0.9 -0.9 -0.9 -0.9 -0.9 -0.9 -0.9 -0.9 -0.9 -0.9 -0.9 -0.9 -0.9 -0.9 -0.9 -0.9 -0.9 -0.9 -0.9 -0.9 -0.9 -0.9 -0.9 -0.9 -0.9 -0.9 -0.9 -0.9 -0.9 -0.9 -0.9 -0.9 -0.9 -0.9 -0.9 -0.9 -0.9 -0.9 -0.9 -0.9 -0.9 -0.9 -0.9 -0.9 -0.9 -0.9 -0.9 -0.9 -0.9 -0.9 -0.9 -0.9 -0.9 -0.9 -0.9 -0.9 -0.9 -0.9 -0.9 -0.9 -0.9 -0.9 -0.9 -0.9 -0.9 -0.9 -0.9 9.3 16.2 21.1 25.8 26.8 26.7 27.9 27.9 31.9 36 34.4 26.8 19.2 13.2 4.6 -0.9 -0.9 -0.9 -0.9 -0.9 -0.9 3.9 9.8 13.6 15.9 16.3 19.1 24.8 30.6 35 37.4 43.6 42.3 43.9 44.5 44.1 43.2 43.8 46.3 45.7 45.9 45.9 48.7 52.8 57.9 61.3 64.6 66.1 70.3 74.4 83.2 92.3 101.9 110.5 112.1 109.2 101.8 90.8 76.9 65.6 60.1 63.3 72.3 82.8 93.6 102.5 109.8 117.6 121.6 126.5 132.4 139.1 146 152.5 154.3 153.2 149.2 144.1 140.1 138 133 129.9 131.1 129 127.3 123.2 123.3 118.1 116.9 112.9 111.9 113.3 118.7 122.7 127 130.5 132.8 129.4 126.7 123.9 121.6 120.8 119.3 114.5 114.1 113.1 111.8 110 105.6 105.3 104.8 103.5 104.2 102.1 98.5 93 86.8 81.3 80.4 79.9 79.9 81.3
-0.9 -0.9 -0.9 -0.9 -0.9 -0.9 -0.9 -0.9 -0.9 -0.9 -0.9 -0.9 -0.9 -0.9 -0.9 -0.9 -0.9 -0.9 -0.9 -0.9 -0.9 -0.9 -0.9 -0.9 -0.9 -0.9 -0.9 -0.9 -0.9 -0.9 -0.9 -0.9 -0.9 -0.9 -0.9 -0.9 -0.9 -0.9 -0.9 -0.9 -0.9 -0.9 -0.9 -0.9 -0.9 -0.9 -0.9 -0.9 -0.9 -0.9 -0.9 -0.9 -0.9 -0.9 -0.9 -0.9 -0.9 -0.9 -0.9 -0.9 -0.9 -0.9 -0.9 -0.9 -0.9 -0.9 -0.9 -0.9 -0.9 -0.9 -0.9 -0.9 -0.9 -0.9 -0.9 -0.9 -0.9 -0.9 -0.9 14.6 18.6 25.3 25.4 26.6 26.8 28.3 33.2 34.4 30.2 22.7 16.9 13.6 6.4 -0.9 -0.9 -0.9 -0.9 -0.9 -0.9 -0.9 9.4 12.3 14.4 16.7 19.1 25.1 33.3 39.5 40.5 45 44.3 46.6 47.1 46.3 46.2 46 49.7 49.9 49.7 50.7 52.6 56.8 63.9 67.7 68.7 72.5 75.2 79.6 88.3 100.6 109.3 115.3 114.9 111.6 104.8 94.2 80.2 68.8 60.9 62.1 71.1 81.7 92.9 101.7 111 118.6 124.5 128.5 133.1 139.8 147.1 152.7 152.7 153.4 148.4 145.2 141.1 136 133.2 131.2 130.8 127.3 126 123.9 122.2 118.1 115.3 112.6 113.2 113.2 118.5 122.7 127.7 131.8 134.6 132.9 129.1 127.9 126 123.2 123 118.4 116.6 114.6 113.4 113.8 109.9 107.1 105.4 106.4 106 103.2 99.2 90.7 89.7 84.6 81.5 82.3 82.4 80.2
-0.9 -0.9 -0.9 -0.9 -0.9 -0.9 -0.9 -0.9 -0.9 -0.9 -0.9 -0.9 -0.9 -0.9 -0.9 -0.9 -0.9 -0.9 -0.9 -0.9 -0.9 -0.9 -0.9 -0.9 -0.9 -0.9 -0.9 -0.9 -0.9 -0.9 -0.9 -0.9 -0.9 -0.9 -0.9 -0.9 -0.9 -0.9 -0.9 -0.9 -0.9 -0.9 -0.9 -0.9 -0.9 -0.9 -0.9 -0.9 -0.9 -0.9 -0.9 -0.9 -0.9 -0.9 -0.9 -0.9 -0.9 -0.9 -0.9 -0.9 -0.9 -0.9 -0.9 -0.9 -0.9 -0.9 -0.9 -0.9 -0.9 -0.9 -0.9 -0.9 -0.9 -0.9 -0.9 -0.9 -0.9 -0.9 -0.9 -0.9 16 21.4 23.6 26.8 26.4 29.5 34.1 32.9 25.2 20.9 16.4 12.1 -0.9 -0.9 -0.9 -0.9 -0.9 -0.9 -0.9 -0.9 7.2 10.7 14.1 17.2 20.9 27.3 36.3 42.5 44.2 46.8 47.8 49 49.1 47.6 47.4 48.7 52 52.8 51.8 55.3 55 58.8 66.5 73.5 75.9 78.6 81.6 87.8 99.6 109.4 115.8 118.1 117 115.1 107.5 96.6 82.5 70.8 61.3 63.5 71.2 80.6 91.7 100.2 110.1 118 126.6 129.3 134.5 140.7 147.2 151.7 152 151.2 146.1 143.9 139.5 133.8 131.9 130 129.5 128 125.3 124.1 120.8 117.2 115.9 113 112.9 114.8 119.1 123.4 128.9 133 136.2 135.1 131 132.8 130.2 127.6 127.5 122.3 119.1 118.3 116.5 117.8 113.5 109.8 108 109.4 107.2 105.6 100.7 99.7 94 87.5 84.4 83.4 82.8 82.4
-0.9 -0.9 -0.9 -0.9 -0.9 -0.9 -0.9 -0.9 -0.9 -0.9 -0.9 -0.9 -0.9 -0.9 -0.9 -0.9 -0.9 -0.9 -0.9 -0.9 -0.9 -0.9 -0.9 -0.9 -0.9 -0.9 -0.9 -0.9 -0.9 -0.9 -0.9 -0.9 -0.9 -0.9 -0.9 -0.9 -0.9 -0.9 -0.9 -0.9 -0.9 -0.9 -0.9 -0.9 -0.9 -0.9 -0.9 -0.9 -0.9 -0.9 -0.9 -0.9 -0.9 -0.9 -0.9 -0.9 -0.9 -0.9 -0.9 -0.9 -0.9 -0.9 -0.9 -0.9 -0.9 -0.9 -0.9 -0.9 -0.9 -0.9 -0.9 -0.9 -0.9 -0.9 -0.9 -0.9 -0.9 -0.9 -0.9 -0.9 -0.9 15 18.9 27.8 26.7 29.8 33.3 31.4 23 18.9 14.1 9.7 -0.9 -0.9 -0.9 -0.9 -0.9 -0.9 -0.9 -0.9 6.8 11.1 15.8 20.3 23.4 28.5 37.1 42.9 45.9 49.5 51 52 52.2 51.8 50.6 48.9 51.2 54 54 56.8 58.9 63.5 69.9 75.2 78.3 86.2 89.1 97.6 110.3 113.6 118.4 118.2 117.8 115.1 107.5 97.8 85 73 64.3 63.4 71.2 79.3 90.3 100 110.5 117.3 126.3 131.4 134.8 140.4 146.9 153.4 151.5 152.7 146.3 140.7 136.8 132.1 129.4 129.1 128.8 124.7 125 121.2 118.2 114.9 114.7 114.2 113.6 114.7 119.6 124.3 129.7 134.2 138.7 137.1 134.3 136.1 133.8 130.5 130.7 126.3 122.9 121.5 121.2 120.6 116.7 112.3 111.4 110.9 109.8 106.6 105.7 102.7 97.7 91 85.8 84.6 83.8 85.9
-0.9 -0.9 -0.9 -0.9 -0.9 -0.9 -0.9 -0.9 -0.9 -0.9 -0.9 -0.9 -0.9 -0.9 -0.9 -0.9 -0.9 -0.9 -0.9 -0.9 -0.9 -0.9 -0.9 -0.9 -0.9 -0.9 -0.9 -0.9 -0.9 -0.9 -0.9 -0.9 -0.9 -0.9 -0.9 -0.9 -0.9 -0.9 -0.9 -0.9 -0.9 -0.9 -0.9 -0.9 -0.9 -0.9 -0.9 -0.9 -0.9 -0.9 -0.9 -0.9 -0.9 -0.9 -0.9 -0.9 -0.9 -0.9 -0.9 -0.9 -0.9 -0.9 -0.9 -0.9 -0.9 -0.9 -0.9 -0.9 -0.9 -0.9 -0.9 -0.9 -0.9 -0.9 -0.9 -0.9 -0.9 -0.9 -0.9 -0.9 -0.9 -0.9 15.7 24.7 25.6 29.4 31.8 28 20.9 16.6 11.8 4.8 -0.9 -0.9 -0.9 -0.9 -0.9 -0.9 -0.9 3.8 7.3 11.8 17.4 22.4 25.9 29.8 37.4 45.2 49.7 51.7 54.3 54.8 55.7 55 53.3 50.9 53 55 56.7 57.9 61.7 67.6 74.3 78.8 83.4 90.3 97.5 105.5 113.3 116.5 116.8 117.3 116.3 113 107.9 99.4 86.4 74.8 66 61.4 69.8 77.2 90.7 99.3 110.5 122.1 128.1 132.4 135.9 140.1 147.8 153.9 151.9 151.2 146.5 141.2 135.3 132.3 128.9 125.7 125.8 123.9 123.6 119.4 116.2 114.3 114.9 115 113.7 114.9 119.7 124.7 129.9 135.3 139.4 138.8 136.1 137.8 136.5 134.8 132.7 130.6 127 125.3 124.2 123.9 118.9 116.9 115.5 115.2 111.9 109.9 110 107.2 102.3 95.7 88.9 87.2 87.2 88.3
-0.9 -0.9 -0.9 -0.9 -0.9 -0.9 -0.9 -0.9 -0.9 -0.9 -0.9 -0.9 -0.9 -0.9 -0.9 -0.9 -0.9 -0.9 -0.9 -0.9 -0.9 -0.9 -0.9 -0.9 -0.9 -0.9 -0.9 -0.9 -0.9 -0.9 -0.9 -0.9 -0.9 -0.9 -0.9 -0.9 -0.9 -0.9 -0.9 -0.9 -0.9 -0.9 -0.9 -0.9 -0.9 -0.9 -0.9 -0.9 -0.9 -0.9 -0.9 -0.9 -0.9 -0.9 -0.9 -0.9 -0.9 -0.9 -0.9 -0.9 -0.9 -0.9 -0.9 -0.9 -0.9 -0.9 -0.9 -0.9 -0.9 -0.9 -0.9 -0.9 -0.9 -0.9 -0.9 -0.9 -0.9 -0.9 -0.9 -0.9 -0.9 -0.9 12.2 18.6 23.5 27.9 28.7 23.8 19 14.3 11.5 -0.9 -0.9 -0.9 -0.9 -0.9 -0.9 -0.9 -0.9 4.4 8.9 14.6 19 21.8 27.6 32.5 38.3 47.3 53.9 55.6 56.5 58.4 57.9 58 56.6 52.7 57 57.8 59 61.8 64.6 67.9 77.3 80.9 87.4 94.9 100.9 107.7 115 114.9 115.2 113.9 112.6 110.6 106.1 99.4 88.2 77.9 68.7 64.3 67.2 76.4 88.8 99.6 110.3 122.2 129.1 132.8 136.5 141.2 147.5 152.7 151.7 150.6 146.6 139.7 134.7 131.7 125.5 122.3 122.8 124.9 122 117.7 113.9 112.9 113.8 115.2 114.8 115 118.9 124.3 129.7 135.3 138.6 139.6 138.7 139.6 136.4 136.5 134.4 133.7 129.9 128.8 126.9 126.7 120.4 118.9 117.5 120.2 115.3 113.8 114.2 112.2 106.4 99.4 92.8 90.3 90.5 89.6
-0.9 -0.9 -0.9 -0.9 -0.9 -0.9 -0.9 -0.9 -0.9 -0.9 -0.9 -0.9 -0.9 -0.9 -0.9 -0.9 -0.9 -0.9 -0.9 -0.9 -0.9 -0.9 -0.9 -0.9 -0.9 -0.9 -0.9 -0.9 -0.9 -0.9 -0.9 -0.9 -0.9 -0.9 -0.9 -0.9 -0.9 -0.9 -0.9 -0.9 -0.9 -0.9 -0.9 -0.9 -0.9 -0.9 -0.9 -0.9 -0.9 -0.9 -0.9 -0.9 -0.9 -0.9 -0.9 -0.9 -0.9 -0.9 -0.9 -0.9 -0.9 -0.9 -0.9 -0.9 -0.9 -0.9 -0.9 -0.9 -0.9 -0.9 -0.9 -0.9 -0.9 -0.9 -0.9 -0.9 -0.9 -0.9 -0.9 -0.9 -0.9 -0.9 6 15.1 20.3 24.8 25 19.8 16.3 13.1 10.1 -0.9 -0.9 -0.9 -0.9 -0.9 -0.9 -0.9 5.4 6.3 10 16.2 21.2 24 29.1 37.2 41 50.6 58.2 58.4 59.8 62.1 62.5 61.2 60.5 58.2 59.1 60.8 62.7 64.5 67.5 71.5 77.3 83.5 90.7 96.8 101 105.9 109.3 111.1 111 110.3 110.2 109.9 106.8 101.6 91.4 80 70 65.7 65.6 77.1 88.7 100.6 110.2 121.2 128.3 130.8 137.1 141 147.6 151.2 150.2 150 145.5 139.9 133.8 127.9 122 119.5 120.2 121 119.8 115.2 112.3 110.7 115.3 115.6 115.7 116.3 119.8 122.8 128.1 134.4 138.2 138.8 138.4 138.5 139.9 137.9 136.3 136.7 133.6 131.2 128.8 127.7 123.3 121.2 119.8 122.2 119.4 116.9 119.6 116.4 113.2 102.7 95.4 93.7 94.1 93.4
-0.9 -0.9 -0.9 -0.9 -0.9 -0.9 -0.9 -0.9 -0.9 -0.9 -0.9 -0.9 -0.9 -0.9 -0.9 -0.9 -0.9 -0.9 -0.9 -0.9 -0.9 -0.9 -0.9 -0.9 -0.9 -0.9 -0.9 -0.9 -0.9 -0.9 -0.9 -0.9 -0.9 -0.9 -0.9 -0.9 -0.9 -0.9 -0.9 -0.9 -0.9 -0.9 -0.9 -0.9 -0.9 -0.9 -0.9 -0.9 -0.9 -0.9 -0.9 -0.9 -0.9 -0.9 -0.9 -0.9 -0.9 -0.9 -0.9 -0.9 -0.9 -0.9 -0.9 -0.9 -0.9 -0.9 -0.9 -0.9 -0.9 -0.9 -0.9 -0.9 -0.9 -0.9 -0.9 -0.9 -0.9 -0.9 -0.9 -0.9 -0.9 -0.9 -0.9 11.6 17.1 19.8 20 16.9 14.3 13.2 9.2 -0.9 -0.9 -0.9 -0.9 -0.9 -0.9 -0.9 8.9 9.5 12 17.6 21.5 25.5 30.8 39.3 45.7 50.7 56.9 60.7 63.9 65.6 66.9 64.7 63.3 62.3 57.5 62.9 65.2 67.7 70.3 74.7 80.7 87.5 93 96.5 102 104 105.8 108 108.7 107.6 106.6 107.7 105.4 100.5 93.9 82.7 73.2 67.3 64.4 76.3 86.9 98.6 108.5 118.3 124.7 126.9 137 142.4 146.7 148.6 149.3 148.8 144 138.6 132.2 124.8 118.5 117.5 116.4 117.5 115.9 112.3 110.6 111.1 115.2 115.9 115.9 115.9 119.2 121.4 126.5 132.2 137.1 137.2 136.2 137.9 139.4 138.7 138.3 138.5 136.6 133.2 129.5 128.4 125.9 123.5 122.4 122.9 120.8 121 124.8 123 118.9 107.6 98.8 96.2 95.1 95.5
-0.9 -0.9 -0.9 -0.9 -0.9 -0.9 -0.9 -0.9 -0.9 -0.9 -0.9 -0.9 -0.9 -0.9 -0.9 -0.9 -0.9 -0.9 -0.9 -0.9 -0.9 -0.9 -0.9 -0.9 -0.9 -0.9 -0.9 -0.9 -0.9 -0.9 -0.9 -0.9 -0.9 -0.9 -0.9 -0.9 -0.9 -0.9 -0.9 -0.9 -0.9 -0.9 -0.9 -0.9 -0.9 -0.9 -0.9 -0.9 -0.9 -0.9 -0.9 -0.9 -0.9 -0.9 -0.9 -0.9 -0.9 -0.9 -0.9 -0.9 -0.9 -0.9 -0.9 -0.9 -0.9 -0.9 -0.9 -0.9 -0.9 -0.9 -0.9 -0.9 -0.9 -0.9 -0.9 -0.9 -0.9 -0.9 -0.9 -0.9 -0.9 -0.9 -0.9 -0.9 -0.9 12.8 13.7 14.6 12.7 12.7 9.2 -0.9 -0.9 -0.9 -0.9 -0.9 -0.9 -0.9 12.2 12.1 15.1 18.5 23.3 28 33.7 39.1 47.1 51.6 56.4 61.8 65.8 67.6 70.8 69.2 65.9 64.4 63.6 62.3 66.3 68.6 72.1 77.9 83.2 89 92.8 95.8 100.2 100.8 102.3 104.5 105.3 106.2 106.1 104.5 103 99.6 95.1 86.3 76.9 68.3 65.6 74.9 85.6 94.3 104.2 113.7 118.4 124.1 134 141.1 145.2 148.1 147.8 145.2 141.2 136.3 130.1 121 118.2 115.9 114.6 113.6 112 110.1 109.6 109.9 113.7 115.5 116 116.4 119 121.2 125.3 129.6 133.2 134.4 134.7 137.7 138.9 139.4 139.6 139.1 137.7 134.5 133.6 130.5 128.5 125.2 124.3 122.1 119.5 123.3 128.1 128.3 124 113.5 103.9 100.5 96.3 94.6
-0.9 -0.9 -0.9 -0.9 -0.9 -0.9 -0.9 -0.9 -0.9 -0.9 -0.9 -0.9 -0.9 -0.9 -0.9 -0.9 -0.9 -0.9 -0.9 -0.9 -0.9 -0.9 -0.9 -0.9 -0.9 -0.9 -0.9 -0.9 -0.9 -0.9 -0.9 -0.9 -0.9 -0.9 -0.9 -0.9 -0.9 -0.9 -0.9 -0.9 -0.9 -0.9 -0.9 -0.9 -0.9 -0.9 -0.9 -0.9 -0.9 -0.9 -0.9 -0.9 -0.9 -0.9 -0.9 -0.9 -0.9 -0.9 -0.9 -0.9 -0.9 -0.9 -0.9 -0.9 -0.9 -0.9 -0.9 -0.9 -0.9 -0.9 -0.9 -0.9 -0.9 -0.9 -0.9 -0.9 -0.9 -0.9 -0.9 -0.9 -0.9 -0.9 -0.9 -0.9 -0.9 6.7 -0.9 9.2 10.4 10.5 7.1 -0.9 -0.9 -0.9 -0.9 -0.9 -0.9 8.1 13.1 14.7 17.5 20.4 25.9 31.3 35.6 39.7 46.8 54.8 58.1 63.3 68 71.5 73.1 73.3 70.9 68.4 66.7 65.1 66.7 68.9 72.5 78.7 83.4 86.5 89.8 91.2 96.5 96.8 100 101.7 103.5 103.5 103.8 102.9 101.4 98.4 95.1 86 77 70.6 68.8 71.5 81.9 90.2 96.9 108.1 113.6 124.1 133.9 141.1 144.3 144.9 144.1 140 137.4 132.2 126.2 120.2 116.7 115.2 113.9 113 111.3 109.8 108.6 112.8 114.3 113.9 115 117.2 118.6 121.1 123.7 127.5 131.2 133.1 134 136.3 138.2 140.3 141.7 140 139.7 138.9 138.1 132.7 130.6 126.7 125.3 123 121.4 123.8 129.2 130.7 127.8 118.1 109.3 104.4 98.9 95.1
-0.9 -0.9 -0.9 -0.9 -0.9 -0.9 -0.9 -0.9 -0.9 -0.9 -0.9 -0.9 -0.9 -0.9 -0.9 -0.9 -0.9 -0.9 -0.9 -0.9 -0.9 -0.9 -0.9 -0.9 -0.9 -0.9 -0.9 -0.9 -0.9 -0.9 -0.9 -0.9 -0.9 -0.9 -0.9 -0.9 -0.9 -0.9 -0.9 -0.9 -0.9 -0.9 -0.9 -0.9 -0.9 -0.9 -0.9 -0.9 -0.9 -0.9 -0.9 -0.9 -0.9 -0.9 -0.9 -0.9 -0.9 -0.9 -0.9 -0.9 -0.9 -0.9 -0.9 -0.9 -0.9 -0.9 -0.9 -0.9 -0.9 -0.9 -0.9 -0.9 -0.9 -0.9 -0.9 -0.9 -0.9 -0.9 -0.9 -0.9 -0.9 -0.9 -0.9 -0.9 -0.9 -0.9 -0.9 0.9 6.7 4.9 -0.9 -0.9 -0.9 -0.9 -0.9 -0.9 -0.9 10.4 15.6 17.8 20.1 23.2 27.8 32.8 37.7 40.9 48.6 55.6 60.1 64.4 70.3 75.3 76.4 77.2 74 72.3 70.3 67 67.8 69.1 72.2 77.3 81.4 85.2 86.6 89.7 94.4 94.8 96.5 100.1 101 101.2 101.7 100 98.8 96.6 91.6 86.2 78.8 72.8 71.3 69.3 77.3 83.1 91.6 101.4 108.4 120.4 131.5 139.8 145.1 145.8 140.9 137 134.2 127.8 123.3 119.2 116.3 115.2 114.2 112.4 110.6 109.5 107.3 113.3 113.6 113.8 114.9 116.5 118.4 120.2 123.2 127.2 130.2 132.6 134.4 137.3 139.3 141.1 141.9 141.9 143.1 140.8 141.3 135.8 132.2 128.3 125.9 123.7 123 123.5 128.2 132.2 131.8 125.3 113.3 107.5 100.8 97.1
-0.9 -0.9 -0.9 -0.9 -0.9 -0.9 -0.9 -0.9 -0.9 -0.9 -0.9 -0.9 -0.9 -0.9 -0.9 -0.9 -0.9 -0.9 -0.9 -0.9 -0.9 -0.9 -0.9 -0.9 -0.9 -0.9 -0.9 -0.9 -0.9 -0.9 -0.9 -0.9 -0.9 -0.9 -0.9 -0.9 -0.9 -0.9 -0.9 -0.9 -0.9 -0.9 -0.9 -0.9 -0.9 -0.9 -0.9 -0.9 -0.9 -0.9 -0.9 -0.9 -0.9 -0.9 -0.9 -0.9 -0.9 -0.9 -0.9 -0.9 -0.9 -0.9 -0.9 -0.9 -0.9 -0.9 -0.9 -0.9 -0.9 -0.9 -0.9 -0.9 -0.9 -0.9 -0.9 -0.9 -0.9 -0.9 -0.9 -0.9 -0.9 -0.9 -0.9 -0.9 -0.9 -0.9 -0.9 -0.9 -0.9 -0.9 -0.9 -0.9 -0.9 -0.9 -0.9 -0.9 -0.9 10.9 17.8 21.1 24.2 25.9 30.3 35.3 39.5 42.4 49 55.7 60 65.4 71 76.1 77.7 78.3 78.1 76 72.7 69.9 66.5 70.3 73.6 76.1 79 83.7 85.3 88.2 92 94 94.9 97.4 98.8 99.6 97.9 96.3 95.9 92.6 88.9 85.9 79 74.1 73.1 71.3 74.2 80.9 87.1 95.8 105.1 117.7 127.2 136 141.3 145 138 136 132.9 125.2 121.2 117.3 115.9 114.8 113.8 111.6 110.2 108.9 106.4 112 112.1 113.3 114.4 115.5 118.1 120.5 124.3 128 130.1 132.1 136.1 137.9 139.8 142.3 143.6 145.3 146.5 143.9 143.3 140.9 133.9 129.6 126.2 124.4 124.9 125.5 127.3 130.9 135.4 129.8 118 111.6 104.1 98.2
-0.9 -0.9 -0.9 -0.9 -0.9 -0.9 -0.9 -0.9 -0.9 -0.9 -0.9 -0.9 -0.9 -0.9 -0.9 -0.9 -0.9 -0.9 -0.9 -0.9 -0.9 -0.9 -0.9 -0.9 -0.9 -0.9 -0.9 -0.9 -0.9 -0.9 -0.9 -0.9 -0.9 -0.9 -0.9 -0.9 -0.9 -0.9 -0.9 -0.9 -0.9 -0.9 -0.9 -0.9 -0.9 -0.9 -0.9 -0.9 -0.9 -0.9 -0.9 -0.9 -0.9 -0.9 -0.9 -0.9 -0.9 -0.9 -0.9 -0.9 -0.9 -0.9 -0.9 -0.9 -0.9 -0.9 -0.9 -0.9 -0.9 -0.9 -0.9 -0.9 -0.9 -0.9 -0.9 -0.9 -0.9 -0.9 -0.9 -0.9 -0.9 -0.9 -0.9 -0.9 -0.9 -0.9 -0.9 -0.9 -0.9 -0.9 -0.9 -0.9 -0.9 -0.9 -0.9 -0.9 -0.9 11.6 19.3 23.9 26.6 26.5 31.5 36.3 41 45.8 49.8 55.2 61.1 66.6 72.3 76.2 79.5 81.3 80.2 78 74.3 71.9 70.1 71.8 73.2 74.3 76.6 80.7 82.5 85.5 89.6 91.9 92.6 95.3 96 96 95.7 94.4 92.4 91.5 89.1 87 81.8 75.2 74.4 73.5 73.8 78.7 86.7 95.4 103.2 114.7 127.7 132.4 138.4 143.2 137.9 137.4 132.8 124.9 120.1 117 115.7 114.4 112.9 110.8 106.7 106 105.8 109.7 111.5 113.4 115 115.8 118.1 121.2 124.4 129.2 131.6 135.5 138.7 142.8 141.6 144.3 145.9 147.5 147.8 144.3 144.9 142.9 136.1 130.4 129 127.9 126.5 126.9 127.9 130.6 134.3 131.6 122 114.2 107.6 101.8
-0.9 -0.9 -0.9 -0.9 -0.9 -0.9 -0.9 -0.9 -0.9 -0.9 -0.9 -0.9 -0.9 -0.9 -0.9 -0.9 -0.9 -0.9 -0.9 -0.9 -0.9 -0.9 -0.9 -0.9 -0.9 -0.9 -0.9 -0.9 -0.9 -0.9 -0.9 -0.9 -0.9 -0.9 -0.9 -0.9 -0.9 -0.9 -0.9 -0.9 -0.9 -0.9 -0.9 -0.9 -0.9 -0.9 -0.9 -0.9 -0.9 -0.9 -0.9 -0.9 -0.9 -0.9 -0.9 -0.9 -0.9 -0.9 -0.9 -0.9 -0.9 -0.9 -0.9 -0.9 -0.9 -0.9 -0.9 -0.9 -0.9 -0.9 -0.9 -0.9 -0.9 -0.9 -0.9 -0.9 -0.9 -0.9 -0.9 -0.9 -0.9 -0.9 -0.9 -0.9 -0.9 -0.9 -0.9 -0.9 -0.9 -0.9 -0.9 -0.9 -0.9 -0.9 -0.9 -0.9 -0.9 11.4 19.6 24.3 26.2 28.2 33.2 37.7 43.8 47.7 51.4 56.7 62.3 67.7 71.8 75.6 80.2 82.5 81.5 78.6 75.7 72.8 70.7 73.2 73.9 75 76.2 78.3 80.9 84.6 88.6 89.4 90.5 92.3 92.6 92.8 93.1 93.6 92.1 92 90.2 88.5 82.9 76.6 75.2 74 74 76.9 83.2 92.8 104.4 115.3 127.4 132 136.3 143.3 139.9 137.2 131.7 124.5 119.7 116.7 115.6 114.4 112.2 108 104.1 106.2 108.1 110.4 111.7 113.1 115.2 116.8 119.8 122.3 125.1 129.1 133.9 138.8 140.4 144.7 144.1 145.3 147.4 147.5 145.6 145.4 144.5 142.8 136.4 132.6 132.5 130.7 129 129.3 130.3 131.2 133.5 130.6 123.4 117.3 111.1 105.9
-0.9 -0.9 -0.9 -0.9 -0.9 -0.9 -0.9 -0.9 -0.9 -0.9 -0.9 -0.9 -0.9 -0.9 -0.9 -0.9 -0.9 -0.9 -0.9 -0.9 -0.9 -0.9 -0.9 -0.9 -0.9 -0.9 -0.9 -0.9 -0.9 -0.9 -0.9 -0.9 -0.9 -0.9 -0.9 -0.9 -0.9 -0.9 -0.9 -0.9 -0.9 -0.9 -0.9 -0.9 -0.9 -0.9 -0.9 -0.9 -0.9 -0.9 -0.9 -0.9 -0.9 -0.9 -0.9 -0.9 -0.9 -0.9 -0.9 -0.9 -0.9 -0.9 -0.9 -0.9 -0.9 -0.9 -0.9 -0.9 -0.9 -0.9 -0.9 -0.9 -0.9 -0.9 -0.9 -0.9 -0.9 -0.9 -0.9 -0.9 -0.9 -0.9 -0.9 -0.9 -0.9 -0.9 -0.9 -0.9 -0.9 -0.9 -0.9 -0.9 -0.9 -0.9 -0.9 -0.9 -0.9 11.3 19.2 23.5 26.2 29 34.3 38.6 44.7 48.6 51.7 56.6 61.9 67.2 70.9 75.6 78.9 81.7 80.8 80 76.9 73.2 71.4 72.7 72.8 74.8 75.5 77.2 80.1 84.1 86.5 87.4 89.8 90.8 91 91.5 91.6 91.9 91.8 91.1 90.8 88.4 83.6 80.3 76.1 74.7 74.6 78.3 81.2 90.6 105.5 114.3 126.9 132.1 134.6 141.1 143.6 137.1 129.7 124.4 119.2 117.2 116.3 112.4 111.1 107.4 103.6 106.1 108.3 111 112.6 113.5 115.3 117.2 119.6 123.7 126 130.5 135.1 140.9 143.9 146.2 144.9 147.4 148.7 149 147.5 145.6 143.6 141.1 137 137.2 137.1 134.9 133.6 131.4 131.6 132.8 134.2 132.5 126.5 119 114.1 108.2
-0.9 -0.9 -0.9 -0.9 -0.9 -0.9 -0.9 -0.9 -0.9 -0.9 -0.9 -0.9 -0.9 -0.9 -0.9 -0.9 -0.9 -0.9 -0.9 -0.9 -0.9 -0.9 -0.9 -0.9 -0.9 -0.9 -0.9 -0.9 -0.9 -0.9 -0.9 -0.9 -0.9 -0.9 -0.9 -0.9 -0.9 -0.9 -0.9 -0.9 -0.9 -0.9 -0.9 -0.9 -0.9 -0.9 -0.9 -0.9 -0.9 -0.9 -0.9 -0.9 -0.9 -0.9 -0.9 -0.9 -0.9 -0.9 -0.9 -0.9 -0.9 -0.9 -0.9 -0.9 -0.9 -0.9 -0.9 -0.9 -0.9 -0.9 -0.9 -0.9 -0.9 -0.9 -0.9 -0.9 -0.9 -0.9 -0.9 -0.9 -0.9 -0.9 -0.9 -0.9 -0.9 -0.9 -0.9 -0.9 -0.9 -0.9 -0.9 -0.9 -0.9 -0.9 -0.9 -0.9 -0.9 9.8 18.9 24.4 27.4 31.2 37.3 40 46.1 49.7 52 56.3 60.8 65.4 69.8 73.6 78.2 79.1 80.9 79.4 76.5 73.7 72.5 73.3 73.9 74.4 76.9 77.8 80.7 80.7 84 87.4 88.2 89.4 89 90.4 91.8 91.2 91.8 91.8 91.4 88.9 84.9 82.4 80.2 75.4 75.2 76.6 80.9 89.6 103.7 110.9 122 129.7 134.7 141.6 143.8 134.8 130.1 123.1 119.2 116.1 115 112.1 109.3 105.7 105.2 107.4 108.2 109.9 111.2 113.9 116.5 118.4 121.9 125.4 128.3 131.5 137.6 142.5 145.1 148.1 146.6 148.8 151.3 149.5 148.1 146.8 143 141.5 137.6 140.1 142.1 139.1 138.2 134.9 133.9 134.7 135.5 133.9 129.8 122.6 115.1 110.7
-0.9 -0.9 -0.9 -0.9 -0.9 -0.9 -0.9 -0.9 -0.9 -0.9 -0.9 -0.9 -0.9 -0.9 -0.9 -0.9 -0.9 -0.9 -0.9 -0.9 -0.9 -0.9 -0.9 -0.9 -0.9 -0.9 -0.9 -0.9 -0.9 -0.9 -0.9 -0.9 -0.9 -0.9 -0.9 -0.9 -0.9 -0.9 -0.9 -0.9 -0.9 -0.9 -0.9 -0.9 -0.9 -0.9 -0.9 -0.9 -0.9 -0.9 -0.9 -0.9 -0.9 -0.9 -0.9 -0.9 -0.9 -0.9 -0.9 -0.9 -0.9 -0.9 -0.9 -0.9 -0.9 -0.9 -0.9 -0.9 -0.9 -0.9 -0.9 -0.9 -0.9 -0.9 -0.9 -0.9 -0.9 -0.9 -0.9 -0.9 -0.9 -0.9 -0.9 -0.9 -0.9 -0.9 -0.9 -0.9 -0.9 -0.9 -0.9 -0.9 -0.9 -0.9 -0.9 -0.9 -0.9 9.3 17.9 24.8 27.4 31.7 38.5 41.3 45.9 48.5 51.2 55.6 59.3 62.7 67.1 71.8 75.8 75.5 76.4 76.2 75.8 76.2 73.2 72.8 73.6 75.3 78.5 82 84.5 86.7 85.7 87.1 87.5 88 89.8 90.6 90.5 91.8 91.8 91.8 93.5 90.9 88.8 86.6 81.9 78.8 75.8 76.3 80.7 88.6 101.6 108.9 117.4 127 133.4 139.6 139.9 133.9 129.9 125.1 120 115.5 113.9 110.9 106.7 104.3 105.3 106.4 107.4 109.1 111.5 114.4 117.8 121.2 126 129.2 132 136 140.6 143.5 145.4 149.3 148.1 152.1 150.7 148.3 147 146.1 142.8 141.6 138.9 143.1 145.9 143.9 141.6 139.9 137 137.3 137.6 135.7 132.9 126.6 119.1 113.8
-0.9 -0.9 -0.9 -0.9 -0.9 -0.9 -0.9 -0.9 -0.9 -0.9 -0.9 -0.9 -0.9 -0.9 -0.9 -0.9 -0.9 -0.9 -0.9 -0.9 -0.9 -0.9 -0.9 -0.9 -0.9 -0.9 -0.9 -0.9 -0.9 -0.9 -0.9 -0.9 -0.9 -0.9 -0.9 -0.9 -0.9 -0.9 -0.9 -0.9 -0.9 -0.9 -0.9 -0.9 -0.9 -0.9 -0.9 -0.9 -0.9 -0.9 -0.9 -0.9 -0.9 -0.9 -0.9 -0.9 -0.9 -0.9 -0.9 -0.9 -0.9 -0.9 -0.9 -0.9 -0.9 -0.9 -0.9 -0.9 -0.9 -0.9 -0.9 -0.9 -0.9 -0.9 -0.9 -0.9 -0.9 -0.9 -0.9 -0.9 -0.9 -0.9 -0.9 -0.9 -0.9 -0.9 -0.9 -0.9 -0.9 -0.9 -0.9 -0.9 -0.9 -0.9 -0.9 -0.9 -0.9 9.2 15.8 21.9 27.4 32.1 38.5 41.6 48.8 48.3 51.3 54.9 58.4 60.8 64.7 68.6 71.3 72.3 73.3 75 75.1 74.3 74.1 74 74.6 77.4 81.3 86.7 87.2 88.1 88 88.8 87.9 88.9 89.8 90.8 92 92.5 92.5 94 95.8 95.9 93.3 93.2 87.7 84.2 76.9 76.4 79.5 89.4 100.3 105.6 115 125.5 130.9 138.3 137.1 132.1 128.3 125 117.6 115.3 112.7 108.7 105.2 101.6 104.8 105.7 107.6 109.5 111.8 115.4 120.1 125.1 128.3 130.9 135.8 139.8 143.6 146.4 147 151.2 150.2 151.3 149 147.6 147.5 144.6 143.5 142.6 141.6 145.2 149 149.3 145.6 143.2 141.4 140.9 139.1 137.5 135.1 129.9 123 116.8
-0.9 -0.9 -0.9 -0.9 -0.9 -0.9 -0.9 -0.9 -0.9 -0.9 -0.9 -0.9 -0.9 -0.9 -0.9 -0.9 -0.9 -0.9 -0.9 -0.9 -0.9 -0.9 -0.9 -0.9 -0.9 -0.9 -0.9 -0.9 -0.9 -0.9 -0.9 -0.9 -0.9 -0.9 -0.9 -0.9 -0.9 -0.9 -0.9 -0.9 -0.9 -0.9 -0.9 -0.9 -0.9 -0.9 -0.9 -0.9 -0.9 -0.9 -0.9 -0.9 -0.9 -0.9 -0.9 -0.9 -0.9 -0.9 -0.9 -0.9 -0.9 -0.9 -0.9 -0.9 -0.9 -0.9 -0.9 -0.9 -0.9 -0.9 -0.9 -0.9 -0.9 -0.9 -0.9 -0.9 -0.9 -0.9 -0.9 -0.9 -0.9 -0.9 -0.9 -0.9 -0.9 -0.9 -0.9 -0.9 -0.9 -0.9 -0.9 -0.9 -0.9 -0.9 -0.9 -0.9 -0.9 6.8 15.2 20.9 26.6 32.9 39.7 41.7 46.7 47.7 50.5 52.9 56 58.1 61.3 64.2 67.3 70.5 72 75 74.9 73.8 74.2 74.4 76.6 78.8 85.2 89.6 89.8 87.9 88.7 89 89.9 90.1 91.1 91.6 92.8 94.9 96.8 98.9 102.3 104.2 100.1 99.6 94.5 89.4 81.3 77.3 78.3 87.5 95.7 103.5 114.4 121.8 131.3 137.1 135.4 128.9 125.4 119.8 115 112.9 109.9 105.2 102.4 101.2 104.5 105.7 108.9 110.9 113.9 118.3 122.9 127.1 131.1 134 138.3 142.2 145.3 147.7 148.5 151 151.3 149.8 147.4 146.9 146.6 145.9 144.4 143.2 142.9 145 150.9 153.4 149.1 145.9 144 142.1 141.1 139.6 137 132.5 125.4 121.7
-0.9 -0.9 -0.9 -0.9 -0.9 -0.9 -0.9 -0.9 0.7 -0.9 -0.9 -0.9 -0.9 -0.9 -0.9 -0.9 -0.9 -0.9 -0.9 -0.9 -0.9 -0.9 -0.9 -0.9 -0.9 -0.9 -0.9 -0.9 -0.9 -0.9 -0.9 -0.9 -0.9 -0.9 -0.9 -0.9 -0.9 -0.9 -0.9 -0.9 -0.9 -0.9 -0.9 -0.9 -0.9 -0.9 -0.9 -0.9 -0.9 -0.9 -0.9 -0.9 -0.9 -0.9 -0.9 -0.9 -0.9 -0.9 -0.9 -0.9 -0.9 -0.9 -0.9 -0.9 -0.9 -0.9 -0.9 -0.9 -0.9 -0.9 -0.9 -0.9 -0.9 -0.9 -0.9 -0.9 -0.9 -0.9 -0.9 -0.9 -0.9 -0.9 -0.9 -0.9 -0.9 -0.9 -0.9 -0.9 -0.9 -0.9 -0.9 -0.9 -0.9 -0.9 -0.9 -0.9 -0.9 -0.9 14.5 21.5 26.4 32.2 37.9 41 42.6 45.2 48.2 51 52.7 55.4 58.7 62.6 65.9 69 71.1 74 74.1 74.2 75.2 76.2 78.2 83.8 87.9 91.5 91 89.1 89.5 90 90.6 91.2 91.6 93.3 97.6 102.2 104.3 108.6 114.1 111.9 111.6 108 105.6 98 88.6 79 79.8 86.6 95.2 103.1 115.1 122.8 129.4 137.1 134 127 121.3 117.7 112.5 110.6 106.4 102.6 99.4 102 103.3 105.6 108.8 112.3 115.8 120.3 124.3 128.3 132.4 135.6 139.3 143.4 146.3 148.4 148.6 150 151 152.5 148.1 146.8 145.1 144.9 145.6 143.8 145.2 147.1 151.1 153.8 151.1 148.9 146.6 144.8 143.3 140.9 137.2 134.1 129 123
-0.9 -0.9 -0.9 -0.9 -0.9 -0.9 -0.9 -0.9 6.1 -0.9 -0.9 -0.9 -0.9 -0.9 -0.9 -0.9 -0.9 -0.9 -0.9 -0.9 -0.9 -0.9 -0.9 -0.9 -0.9 -0.9 -0.9 -0.9 -0.9 -0.9 -0.9 -0.9 -0.9 -0.9 -0.9 -0.9 -0.9 -0.9 -0.9 -0.9 -0.9 -0.9 -0.9 -0.9 -0.9 -0.9 -0.9 -0.9 -0.9 -0.9 -0.9 -0.9 -0.9 -0.9 -0.9 -0.9 -0.9 -0.9 -0.9 -0.9 -0.9 -0.9 -0.9 -0.9 -0.9 -0.9 -0.9 -0.9 -0.9 -0.9 -0.9 -0.9 -0.9 -0.9 -0.9 -0.9 -0.9 -0.9 -0.9 -0.9 -0.9 -0.9 -0.9 -0.9 -0.9 -0.9 -0.9 -0.9 -0.9 -0.9 -0.9 -0.9 -0.9 -0.9 -0.9 -0.9 -0.9 -0.9 14.2 19 24.3 30.2 33.8 36.7 38.1 42 45.2 48.9 51.5 54.2 57.3 60 64.6 68.4 70.5 73.1 73.5 72.2 74.9 77.8 80 84.9 92 95.6 92.8 91 90.8 90.5 91.5 92.1 93.3 96.3 102.4 108.4 111.3 116.4 120 120.3 122.3 119.5 114.2 105.5 96.4 81.7 80.8 83.6 95.6 101.3 112.3 121.7 128.8 134.1 130.5 123.7 118.4 114.3 109.5 107.8 103.8 97.6 99.1 100.7 104.2 107.2 112.4 115.4 117 119 124.3 129.6 133.4 136.5 140.7 144.3 148.4 149 148.7 149 149.3 149.4 146.6 145.4 143.3 144.7 145.1 144.6 144.2 148.5 152 153.6 153.2 150.4 148.7 147.1 144.4 141.8 137.3 134.7 130.1 122.8
-0.9 -0.9 -0.9 -0.9 -0.9 -0.9 -0.9 -0.9 7.9 -0.9 -0.9 -0.9 -0.9 -0.9 -0.9 -0.9 -0.9 -0.9 -0.9 -0.9 -0.9 -0.9 -0.9 -0.9 -0.9 -0.9 -0.9 -0.9 -0.9 -0.9 -0.9 -0.9 -0.9 -0.9 -0.9 -0.9 -0.9 -0.9 -0.9 -0.9 -0.9 -0.9 -0.9 -0.9 -0.9 -0.9 -0.9 -0.9 -0.9 -0.9 -0.9 -0.9 -0.9 -0.9 -0.9 -0.9 -0.9 -0.9 -0.9 -0.9 -0.9 -0.9 -0.9 -0.9 -0.9 -0.9 -0.9 -0.9 -0.9 -0.9 -0.9 -0.9 -0.9 -0.9 -0.9 -0.9 -0.9 -0.9 -0.9 -0.9 -0.9 -0.9 -0.9 -0.9 -0.9 -0.9 -0.9 -0.9 -0.9 -0.9 -0.9 -0.9 -0.9 -0.9 -0.9 -0.9 -0.9 -0.9 10.3 16.9 21.6 25.1 29.2 31.7 36.4 38.3 43.6 47.4 49.3 52.6 56 59.8 63.7 68.7 68.4 70 71.4 70.9 74.3 79.7 83.6 87.5 93.6 95.1 94.5 93.3 92.4 92 92.6 93.3 94.6 101.4 109 115.9 118.2 119.9 124.4 129 129.3 127 121.7 115 103.7 88.4 81.5 83.1 89.6 96.9 108.5 116.5 123.9 130.5 127.8 120.9 115 112 107.8 102.7 100.2 96.4 98.4 101 105.8 109.5 114.3 116.5 117.4 119.3 122.7 128.8 133.5 137.1 142.8 146.1 148.9 148 149.2 148.7 147.7 147.8 144.1 141.2 141.5 143.2 144.6 144.7 144.2 148.4 151.9 156.5 153.4 151.4 148.8 146.8 145.6 142 137.4 134.7 129.1 121.5
-0.9 -0.9 -0.9 -0.9 -0.9 -0.9 -0.9 -0.9 -0.9 -0.9 -0.9 -0.9 -0.9 -0.9 -0.9 -0.9 -0.9 -0.9 -0.9 -0.9 -0.9 -0.9 -0.9 -0.9 -0.9 -0.9 -0.9 -0.9 -0.9 -0.9 -0.9 -0.9 -0.9 -0.9 -0.9 -0.9 -0.9 -0.9 -0.9 -0.9 -0.9 -0.9 -0.9 -0.9 -0.9 -0.9 -0.9 -0.9 -0.9 -0.9 -0.9 -0.9 -0.9 -0.9 -0.9 -0.9 -0.9 -0.9 -0.9 -0.9 -0.9 -0.9 -0.9 -0.9 -0.9 -0.9 -0.9 -0.9 -0.9 -0.9 -0.9 -0.9 -0.9 -0.9 -0.9 -0.9 -0.9 -0.9 -0.9 -0.9 -0.9 -0.9 -0.9 -0.9 -0.9 -0.9 -0.9 -0.9 -0.9 -0.9 -0.9 -0.9 -0.9 -0.9 -0.9 -0.9 -0.9 -0.9 -0.9 11.1 16.9 20.9 24.2 27.1 31.6 37.6 42.2 45.9 48.5 51.6 54.5 58.5 62.3 64.8 65.7 66.6 67.3 70.5 75.6 82.5 87.4 91.3 96.6 96.9 97.1 94.7 93.3 94.5 94.6 94.9 101.3 108.7 115.5 122.8 125.6 129 133.2 135.4 135.5 133.7 128.8 119 108.5 92.6 84.4 84.1 86.1 94.3 103.7 110.5 119.5 125.3 125.2 119 113.4 109.5 107.3 100.8 98.3 96.8 99 102.6 108 110.5 114.8 117 117.4 118.9 122.7 128 132.9 138.8 143.7 146.6 148.2 148.2 147.8 147.2 145.8 145.5 141.7 139.8 138.4 139.5 141.9 143 143.3 148.5 150.6 153.9 154.1 151.3 149.7 147.2 145.2 141.6 137.1 132.7 128 119.5
-0.9 -0.9 -0.9 -0.9 -0.9 -0.9 -0.9 -0.9 -0.9 -0.9 -0.9 -0.9 -0.9 -0.9 -0.9 -0.9 -0.9 -0.9 -0.9 -0.9 -0.9 -0.9 -0.9 -0.9 -0.9 -0.9 -0.9 -0.9 -0.9 -0.9 -0.9 -0.9 -0.9 -0.9 -0.9 -0.9 -0.9 -0.9 -0.9 -0.9 -0.9 -0.9 -0.9 -0.9 -0.9 -0.9 -0.9 -0.9 -0.9 -0.9 -0.9 -0.9 -0.9 -0.9 -0.9 -0.9 -0.9 -0.9 -0.9 -0.9 -0.9 -0.9 -0.9 -0.9 -0.9 -0.9 -0.9 -0.9 -0.9 -0.9 -0.9 -0.9 -0.9 -0.9 -0.9 -0.9 -0.9 -0.9 -0.9 -0.9 -0.9 -0.9 -0.9 -0.9 -0.9 -0.9 -0.9 -0.9 -0.9 -0.9 -0.9 -0.9 -0.9 -0.9 -0.9 -0.9 -0.9 -0.9 -0.9 -0.9 13.2 14.6 18.6 22.3 27.6 32.8 40.3 44.8 48.8 50.5 54 58 61.7 63 63.6 64.2 64.4 68.1 75.5 83.9 88.8 94.8 96.5 98.4 100.4 97.9 94.7 96.9 98.4 100.8 110 118.4 123.2 128.7 131.3 136.9 139.5 140.9 141.1 138.2 132.9 124 112.6 96.9 86.4 84.5 84.5 93.9 101.3 105.8 115.3 119.1 120.2 117.6 114 108.3 106.6 100.3 95.8 95.6 99.8 105 109.5 111.3 115.3 118 116 118.8 123.7 128.6 133 138.5 142.4 146.7 147.1 147.4 147.1 143.8 143.6 143.9 141.3 137.6 136.2 137.2 139.7 140.2 143.7 147.6 149.3 152.2 153 150.6 148.7 146.7 144.2 141 136.8 131.6 125.3 119.1
-0.9 -0.9 -0.9 -0.9 -0.9 -0.9 -0.9 -0.9 -0.9 -0.9 -0.9 -0.9 -0.9 -0.9 -0.9 -0.9 -0.9 -0.9 -0.9 -0.9 -0.9 -0.9 -0.9 -0.9 -0.9 -0.9 -0.9 -0.9 -0.9 -0.9 -0.9 -0.9 -0.9 -0.9 -0.9 -0.9 -0.9 -0.9 -0.9 -0.9 -0.9 -0.9 -0.9 -0.9 -0.9 -0.9 -0.9 -0.9 -0.9 -0.9 -0.9 -0.9 -0.9 -0.9 -0.9 -0.9 -0.9 -0.9 -0.9 -0.9 -0.9 -0.9 -0.9 -0.9 -0.9 -0.9 -0.9 -0.9 -0.9 -0.9 -0.9 -0.9 -0.9 -0.9 -0.9 -0.9 -0.9 -0.9 -0.9 -0.9 -0.9 -0.9 -0.9 -0.9 -0.9 -0.9 -0.9 -0.9 -0.9 -0.9 -0.9 -0.9 -0.9 -0.9 -0.9 -0.9 -0.9 -0.9 -0.9 -0.9 8.9 10.5 15.9 18.8 26.6 33.3 37.3 43.1 48.3 49.3 53.5 56.1 59.6 61.7 62.8 62.9 62.8 67.2 74 82.7 89.2 93.9 97 99.2 101.9 100.2 100.6 101.9 104.4 107.7 115.6 123.3 131.5 137.1 139.2 143.5 143.4 146 143.7 140.2 135.5 127.6 115.5 100.1 89.2 85.5 84.1 88.9 93 100.7 107.6 111.4 116.9 116.2 112.5 107.1 105.3 97.1 93.9 95.7 99.4 105.3 107.3 112.1 115 117.2 117 119.3 122.7 127.4 131.9 137.3 141.4 145.8 144.9 145.6 145.5 141.7 143.3 143.8 138.8 136.6 134.5 134 136.2 139.2 142.5 144.6 148.9 150 151.9 148.7 147.5 145.3 142.8 139.9 134.5 128.2 121 127.1
-0.9 -0.9 -0.9 -0.9 -0.9 -0.9 -0.9 -0.9 -0.9 -0.9 -0.9 -0.9 -0.9 -0.9 -0.9 -0.9 -0.9 -0.9 -0.9 -0.9 -0.9 -0.9 -0.9 -0.9 -0.9 -0.9 -0.9 -0.9 -0.9 -0.9 -0.9 -0.9 -0.9 -0.9 -0.9 -0.9 -0.9 -0.9 -0.9 -0.9 -0.9 -0.9 -0.9 -0.9 -0.9 -0.9 -0.9 -0.9 -0.9 -0.9 -0.9 -0.9 -0.9 -0.9 -0.9 -0.9 -0.9 -0.9 -0.9 -0.9 -0.9 -0.9 -0.9 -0.9 -0.9 -0.9 -0.9 -0.9 -0.9 -0.9 -0.9 -0.9 -0.9 -0.9 -0.9 -0.9 -0.9 -0.9 -0.9 -0.9 -0.9 -0.9 -0.9 -0.9 -0.9 -0.9 -0.9 -0.9 -0.9 -0.9 -0.9 -0.9 -0.9 -0.9 -0.9 -0.9 -0.9 -0.9 -0.9 -0.9 -0.9 7.8 9.6 18.4 26.8 33 39.7 39.5 43.5 48.5 51.8 53.5 56.5 59.4 60.8 60.8 61.7 67.1 74.1 81.8 89.5 93.7 97 99.8 102.2 103.5 103.8 105.9 109.6 114.5 124.9 131.8 137.4 141.5 143.3 144.9 146.2 147.6 143.8 139.8 136.1 127 115.7 100.9 88.7 84.8 83 84.3 87.4 97.2 100.6 106.9 112.5 114 110.2 107.5 103.9 96.5 91.2 94.9 99 102.6 106.1 109.7 112.7 115.5 117.1 119.7 122.1 127.5 133.5 136.6 139.9 143 143.8 142.3 143 138.9 141.2 140.7 137.9 135.2 131.8 132.3 133.7 136.9 139.1 143.2 147.1 149.4 148.4 146.8 145.3 142.5 138.9 135.1 129.8 124.3 130.5 132.7
-0.9 -0.9 -0.9 -0.9 -0.9 -0.9 -0.9 -0.9 -0.9 -0.9 -0.9 -0.9 -0.9 -0.9 -0.9 -0.9 -0.9 -0.9 -0.9 -0.9 -0.9 -0.9 -0.9 -0.9 -0.9 -0.9 -0.9 -0.9 -0.9 -0.9 -0.9 -0.9 -0.9 -0.9 -0.9 -0.9 -0.9 -0.9 -0.9 -0.9 -0.9 -0.9 -0.9 -0.9 -0.9 -0.9 -0.9 -0.9 -0.9 -0.9 -0.9 -0.9 -0.9 -0.9 -0.9 -0.9 -0.9 -0.9 -0.9 -0.9 -0.9 -0.9 -0.9 -0.9 -0.9 -0.9 -0.9 -0.9 -0.9 -0.9 -0.9 -0.9 -0.9 -0.9 -0.9 -0.9 -0.9 -0.9 -0.9 -0.9 -0.9 -0.9 -0.9 -0.9 -0.9 -0.9 -0.9 -0.9 -0.9 -0.9 -0.9 -0.9 -0.9 -0.9 -0.9 -0.9 -0.9 -0.9 -0.9 -0.9 -0.9 7.1 13.3 18.3 28.3 35.8 41.2 42.9 45.9 43.3 51.3 54.6 55.7 55.6 58.7 60 62.9 66.4 73.5 82.5 87.8 91.6 96.4 101.2 103.2 105.9 108 111.2 116 122.6 130.6 137.3 140.3 143.8 145.1 146.8 149.2 147.3 143.5 140.4 135.5 126.1 114 100.6 90.8 82.8 81.4 81.5 84.5 90.7 96.7 101.6 109.5 113.7 109 106.4 101.1 94.8 90.7 95.7 95.2 100.2 103.7 106.8 111.3 113.9 115.6 120.5 123.8 126.5 132.7 135.6 139.4 141.5 140.8 140.1 139.4 137.7 140.4 138.9 136.1 132.5 129.2 130.9 131.5 132.9 136.1 140.2 144.2 147.3 144.7 145 142 137.6 133.6 129.1 130.8 131.5 134.9 139.3
-0.9 -0.9 -0.9 -0.9 -0.9 -0.9 -0.9 -0.9 -0.9 -0.9 -0.9 -0.9 -0.9 -0.9 -0.9 -0.9 -0.9 -0.9 -0.9 -0.9 -0.9 -0.9 -0.9 -0.9 -0.9 -0.9 -0.9 -0.9 -0.9 -0.9 -0.9 -0.9 -0.9 -0.9 -0.9 -0.9 -0.9 -0.9 -0.9 -0.9 -0.9 -0.9 -0.9 -0.9 -0.9 -0.9 -0.9 -0.9 -0.9 -0.9 -0.9 -0.9 -0.9 -0.9 -0.9 -0.9 -0.9 -0.9 -0.9 -0.9 -0.9 -0.9 -0.9 -0.9 -0.9 -0.9 -0.9 -0.9 -0.9 -0.9 -0.9 -0.9 -0.9 -0.9 -0.9 -0.9 -0.9 -0.9 -0.9 -0.9 -0.9 -0.9 -0.9 -0.9 -0.9 -0.9 -0.9 -0.9 -0.9 -0.9 -0.9 -0.9 -0.9 -0.9 -0.9 -0.9 -0.9 -0.9 -0.9 -0.9 -0.9 6.1 13.4 20.7 27.8 37.8 43.2 44.6 46.9 49 51 51.8 53.7 54.9 57.6 60.5 63.4 67.6 72.8 79.5 85 89.7 96.9 103 106.9 109.3 113.6 118.3 123.2 133.2 138.4 139.7 144.3 148.3 149.2 146.9 146.3 145.7 144.2 140.2 131.4 122.2 115.4 101.3 91.6 84.7 80.1 79.5 83.2 87.1 92.6 98.9 105.8 110.5 107.1 104.6 101.2 95 91 91.3 93 97.3 100.3 104.9 110.5 112.1 114.2 120.7 123.7 127.7 131.6 137.5 139 138.7 138.4 138 136.4 135.7 137.6 134.8 131.8 129.3 127.4 127.6 129.2 133.5 136.6 139.8 142.8 144.1 142.1 139.1 136.9 134.7 132.5 134.1 137.1 137.8 140.2 145.4
-0.9 -0.9 -0.9 -0.9 -0.9 -0.9 -0.9 -0.9 -0.9 -0.9 -0.9 -0.9 -0.9 -0.9 -0.9 -0.9 -0.9 -0.9 -0.9 -0.9 -0.9 -0.9 -0.9 -0.9 -0.9 -0.9 -0.9 -0.9 -0.9 -0.9 -0.9 -0.9 -0.9 -0.9 -0.9 -0.9 -0.9 -0.9 -0.9 -0.9 -0.9 -0.9 -0.9 -0.9 -0.9 -0.9 -0.9 -0.9 -0.9 -0.9 -0.9 -0.9 -0.9 -0.9 -0.9 -0.9 -0.9 -0.9 -0.9 -0.9 -0.9 -0.9 -0.9 -0.9 -0.9 -0.9 -0.9 -0.9 -0.9 -0.9 -0.9 -0.9 -0.9 -0.9 -0.9 -0.9 -0.9 -0.9 -0.9 -0.9 -0.9 -0.9 -0.9 -0.9 -0.9 -0.9 -0.9 -0.9 -0.9 -0.9 -0.9 -0.9 -0.9 -0.9 -0.9 -0.9 -0.9 -0.9 -0.9 -0.9 4.2 5.4 13.1 24.8 30.3 36.7 43.4 45.9 50.7 53.4 54.1 56 56.2 54.9 57.2 60.1 63.2 67.9 73.3 78.6 83.8 91.1 97.3 103.6 110.5 116.2 122.4 125.3 132.1 135.6 140 145.4 149.2 151.2 150.9 148.9 147.1 146.2 143.8 136.6 129.1 120.9 114.2 100.1 91.5 83.8 78.8 77.3 81.2 86.1 91 95.9 102 105.1 104.4 101.9 98.6 93.1 89.9 89.9 92.7 95 97.4 101.7 109.2 110.1 114.1 120 123.6 128.9 132.4 134.6 137.9 138.5 138 136 132.4 132.6 132.7 130.6 127.8 124.4 125.2 126.2 128.4 132.8 135.2 139 140.2 140.5 137.6 134.9 136.2 135.6 137.5 138.7 141 142.7 145.8 151.5
-0.9 -0.9 -0.9 -0.9 -0.9 -0.9 -0.9 -0.9 -0.9 -0.9 -0.9 -0.9 -0.9 -0.9 -0.9 -0.9 -0.9 -0.9 -0.9 -0.9 -0.9 -0.9 -0.9 -0.9 -0.9 -0.9 -0.9 -0.9 -0.9 -0.9 -0.9 -0.9 -0.9 -0.9 -0.9 -0.9 -0.9 -0.9 -0.9 -0.9 -0.9 -0.9 -0.9 -0.9 -0.9 -0.9 -0.9 -0.9 -0.9 -0.9 -0.9 -0.9 -0.9 -0.9 -0.9 -0.9 -0.9 -0.9 -0.9 -0.9 -0.9 -0.9 -0.9 -0.9 -0.9 -0.9 -0.9 -0.9 -0.9 -0.9 -0.9 -0.9 -0.9 -0.9 -0.9 -0.9 -0.9 -0.9 -0.9 -0.9 -0.9 -0.9 -0.9 -0.9 -0.9 -0.9 -0.9 -0.9 -0.9 -0.9 -0.9 -0.9 -0.9 -0.9 -0.9 -0.9 -0.9 -0.9 -0.9 -0.9 5.6 6.1 13.9 28.1 35.3 38.6 45.9 51.2 54.8 58.5 58 58.2 57.3 57.5 57.8 61 64.6 70.2 75.4 79.1 83.3 89.2 99.4 109.7 115.6 121.8 128 131 134.3 137.3 142 148.9 151.5 151.1 149.8 148.2 146.3 145.2 140.9 133.8 125.1 116.7 106.9 96.5 90.2 83.5 77.1 74.4 79 83 87.9 97.6 99.5 104.1 102.1 100.4 97.8 93.1 90.5 90.6 92.1 94.2 96.7 100.2 106.4 109.6 114.5 119.5 123.8 129 133.1 135.3 136.1 137.1 135.9 132.7 131.2 129.7 128.6 125.7 123.6 122.4 122.3 125.6 127.7 132.1 134.8 138.1 139.4 137 135.6 136.9 136.4 138.7 140.8 142.6 146.5 149.9 153.7 157.9
-0.9 -0.9 -0.9 -0.9 -0.9 -0.9 -0.9 -0.9 -0.9 -0.9 -0.9 -0.9 -0.9 -0.9 -0.9 -0.9 -0.9 -0.9 -0.9 -0.9 -0.9 -0.9 -0.9 -0.9 -0.9 -0.9 -0.9 -0.9 -0.9 -0.9 -0.9 -0.9 -0.9 -0.9 -0.9 -0.9 -0.9 -0.9 -0.9 -0.9 -0.9 -0.9 -0.9 -0.9 -0.9 -0.9 -0.9 -0.9 -0.9 -0.9 -0.9 -0.9 -0.9 -0.9 -0.9 -0.9 -0.9 -0.9 -0.9 -0.9 -0.9 -0.9 -0.9 -0.9 -0.9 -0.9 -0.9 -0.9 -0.9 -0.9 -0.9 -0.9 -0.9 -0.9 -0.9 -0.9 -0.9 -0.9 -0.9 -0.9 -0.9 -0.9 -0.9 -0.9 -0.9 -0.9 -0.9 -0.9 -0.9 -0.9 -0.9 -0.9 -0.9 -0.9 -0.9 -0.9 -0.9 -0.9 -0.9 -0.9 7.8 8.1 15.3 28.9 38.4 41.8 47 54.4 58.6 60.5 61 61 58.5 58.5 59.5 62.3 67.5 70.3 75.4 80 84 90.4 100.9 112.8 120.8 125 128.3 132.1 136.3 139.5 145 150.1 152.2 150.8 149 148.2 147.3 143.7 135.7 128.5 121 111.5 101.8 92.1 87.5 82.3 75.8 72.8 74.5 78.1 86.5 93.5 98.8 100.1 99.7 97.9 97.5 93.9 89.5 88.3 91.2 94.2 96.7 99.8 103.8 108.5 113 119 123.4 128.1 133.4 135.3 136.1 135.5 133.5 130.2 129.3 128.9 126.1 122 119.5 120.4 123 125.3 128.5 132.1 134.5 138.8 138.3 136.7 136.5 137.8 137.8 141.9 145.8 149 151.1 156.2 160.6 164.1
-0.9 -0.9 -0.9 -0.9 -0.9 -0.9 -0.9 -0.9 -0.9 -0.9 -0.9 -0.9 -0.9 -0.9 -0.9 -0.9 -0.9 -0.9 -0.9 -0.9 -0.9 -0.9 -0.9 -0.9 -0.9 -0.9 -0.9 -0.9 -0.9 -0.9 -0.9 -0.9 -0.9 -0.9 -0.9 -0.9 -0.9 -0.9 -0.9 -0.9 -0.9 -0.9 -0.9 -0.9 -0.9 -0.9 -0.9 -0.9 -0.9 -0.9 -0.9 -0.9 -0.9 -0.9 -0.9 -0.9 -0.9 -0.9 -0.9 -0.9 -0.9 -0.9 -0.9 -0.9 -0.9 -0.9 -0.9 -0.9 -0.9 -0.9 -0.9 -0.9 -0.9 -0.9 -0.9 -0.9 -0.9 -0.9 -0.9 -0.9 -0.9 -0.9 -0.9 -0.9 -0.9 -0.9 -0.9 -0.9 -0.9 -0.9 -0.9 -0.9 -0.9 -0.9 -0.9 -0.9 -0.9 -0.9 -0.9 7.4 9.8 12.3 18.1 29.1 39.8 43.3 47.2 57 62.3 63.1 63.3 61.8 59.8 59.6 60.5 63.3 65.9 69.7 76.2 78.5 83.2 90.7 99.9 106.7 118.1 122.3 129.2 136.4 138 141.5 146 149.2 151.4 150.9 149.1 148.3 145.2 140.6 132.7 124.8 115.9 107.9 99.3 91 84.9 79.5 73.8 72.4 73 76.8 84.6 88.9 94.9 97.5 97.2 96.1 96.7 93.8 88.8 88.2 89.9 93.5 96.5 99 102.1 105.1 112.2 118.4 121.8 126.2 132.5 135.7 135.3 134 130.7 127.8 128.6 126.2 122 119.7 117.1 118.9 120.3 123.9 127.1 132.4 134.1 136.7 137 136.6 138.6 139.6 141.9 147.5 151.9 153.9 158.6 162.8 166.3 169.4
-0.9 -0.9 -0.9 -0.9 -0.9 -0.9 -0.9 -0.9 -0.9 -0.9 -0.9 -0.9 -0.9 -0.9 -0.9 -0.9 -0.9 -0.9 -0.9 -0.9 -0.9 -0.9 -0.9 -0.9 -0.9 -0.9 -0.9 -0.9 -0.9 -0.9 -0.9 -0.9 -0.9 -0.9 -0.9 -0.9 -0.9 -0.9 -0.9 -0.9 -0.9 -0.9 -0.9 -0.9 -0.9 -0.9 -0.9 -0.9 -0.9 -0.9 -0.9 -0.9 -0.9 -0.9 -0.9 -0.9 -0.9 -0.9 -0.9 -0.9 -0.9 -0.9 -0.9 -0.9 -0.9 -0.9 -0.9 -0.9 -0.9 -0.9 -0.9 -0.9 -0.9 -0.9 -0.9 -0.9 -0.9 -0.9 -0.9 -0.9 -0.9 -0.9 -0.9 -0.9 -0.9 -0.9 -0.9 -0.9 -0.9 -0.9 -0.9 -0.9 -0.9 -0.9 -0.9 -0.9 -0.9 -0.9 11.2 10.9 13.5 16.3 22.1 29.8 38.8 43.7 49.5 57 63.9 64.7 66.2 63.5 62.1 60.8 61.8 63.4 65.9 69.7 73.1 78.5 85.6 94.7 105 113.7 117.3 124 131.7 137.1 139.2 145.1 147.1 148.2 150.5 150.5 148.4 146 142.5 138 129.3 121.4 114.1 105.6 97 90.6 83.6 77.6 74.6 70.7 70.7 73.3 80.9 86.3 92.5 95.8 95.4 96.2 94.9 92.3 88.3 89.7 89.6 93.3 95.7 97.3 98.7 104.4 110.1 115.7 121.3 125.5 129.9 133.1 134.3 130.8 128.1 125.7 125.9 124.6 120.2 118.3 115.9 117.9 120 123.5 126.5 131.7 135 137.4 136.8 137.2 138.9 142 146.5 152.7 156.7 159.3 163.5 168.9 170.7 174.4
-0.9 -0.9 -0.9 -0.9 -0.9 -0.9 -0.9 -0.9 -0.9 -0.9 -0.9 -0.9 -0.9 -0.9 -0.9 -0.9 -0.9 -0.9 -0.9 -0.9 -0.9 -0.9 -0.9 -0.9 -0.9 -0.9 -0.9 -0.9 -0.9 -0.9 -0.9 -0.9 -0.9 -0.9 -0.9 -0.9 -0.9 -0.9 -0.9 -0.9 -0.9 -0.9 -0.9 -0.9 -0.9 -0.9 -0.9 -0.9 -0.9 -0.9 -0.9 -0.9 -0.9 -0.9 -0.9 -0.9 -0.9 -0.9 -0.9 -0.9 -0.9 -0.9 -0.9 -0.9 -0.9 -0.9 -0.9 -0.9 -0.9 -0.9 -0.9 -0.9 -0.9 -0.9 -0.9 -0.9 -0.9 -0.9 -0.9 -0.9 -0.9 -0.9 -0.9 -0.9 -0.9 -0.9 -0.9 -0.9 -0.9 -0.9 -0.9 -0.9 -0.9 -0.9 -0.9 -0.9 -0.9 11.8 16.2 15.4 19.4 23.9 29.3 36.3 39.4 44.2 51.1 58.2 64.1 67 67.3 64.8 63.4 62.2 64.1 65.8 68.9 72.4 75.7 81.8 91.1 103.2 113 116.7 121.3 125.2 133 138.3 141.2 145.6 146.5 148.3 153.3 148.8 147.4 143.4 139.5 134.5 126.3 118.6 112.3 103.1 94.7 89.3 84 77.8 73 69 70.1 72.6 76.9 85.2 89.5 95.5 94.4 94.4 92.6 89.5 85.4 89.9 91.5 93 94.2 95.7 97.8 103 108.2 114.1 120.3 123.6 126.1 129.9 131.2 128.4 126.5 124.4 122.6 121.6 118.5 117 115.2 116.2 118.7 123.9 127.4 132 136.4 138.2 136.2 137.1 141.9 146.1 152.2 156.5 161.4 163.8 168.1 171.8 175.9 180.9
-0.9 -0.9 -0.9 -0.9 -0.9 -0.9 -0.9 -0.9 -0.9 -0.9 -0.9 -0.9 -0.9 -0.9 -0.9 -0.9 -0.9 -0.9 -0.9 -0.9 -0.9 -0.9 -0.9 -0.9 -0.9 -0.9 -0.9 -0.9 -0.9 -0.9 -0.9 -0.9 -0.9 -0.9 -0.9 -0.9 -0.9 -0.9 -0.9 -0.9 -0.9 -0.9 -0.9 -0.9 -0.9 -0.9 -0.9 -0.9 -0.9 -0.9 -0.9 -0.9 -0.9 -0.9 -0.9 -0.9 -0.9 -0.9 -0.9 -0.9 -0.9 -0.9 -0.9 -0.9 -0.9 -0.9 -0.9 -0.9 -0.9 -0.9 -0.9 -0.9 -0.9 -0.9 -0.9 -0.9 -0.9 -0.9 -0.9 -0.9 -0.9 -0.9 -0.9 -0.9 -0.9 -0.9 -0.9 -0.9 -0.9 -0.9 -0.9 -0.9 -0.9 -0.9 -0.9 -0.9 13.5 18.6 21.5 21.5 26.9 35.1 38 44 45.9 48.4 54.3 57.9 64.5 67.3 67.7 66.9 67.2 66.2 66.9 69 71.9 73.3 78.3 89.2 99.2 109.7 118.6 122.3 124.8 128.5 135.3 140.4 143.3 144.9 147.1 148.2 148.2 147.2 145.7 140.6 135.8 128.8 122.7 117.3 111.1 102 97.6 91 86.1 79.8 72.4 68.4 68.4 71.5 75.9 83.3 87.1 91.4 90.3 89.7 88.4 85.6 86.2 88.9 90.5 92.2 92.9 94.9 98.1 102.7 109.1 113.5 117.4 121.2 123.9 128.5 127.2 125.6 125.2 121.2 118.3 116.5 115.5 115.2 115.2 117.2 119.2 121.9 127.7 131.3 136.6 138.1 135.9 138 142.1 149.1 155.5 160.4 164.7 168.4 172.1 175.9 180.6 185.1
-0.9 -0.9 -0.9 -0.9 -0.9 -0.9 -0.9 -0.9 -0.9 -0.9 -0.9 -0.9 -0.9 -0.9 -0.9 -0.9 -0.9 -0.9 -0.9 -0.9 -0.9 -0.9 -0.9 -0.9 -0.9 -0.9 -0.9 -0.9 -0.9 -0.9 -0.9 -0.9 -0.9 -0.9 -0.9 -0.9 -0.9 -0.9 -0.9 -0.9 -0.9 -0.9 -0.9 -0.9 -0.9 -0.9 -0.9 -0.9 -0.9 -0.9 -0.9 -0.9 -0.9 -0.9 -0.9 -0.9 -0.9 -0.9 -0.9 -0.9 -0.9 -0.9 -0.9 -0.9 -0.9 -0.9 -0.9 -0.9 -0.9 -0.9 -0.9 -0.9 -0.9 -0.9 -0.9 -0.9 -0.9 -0.9 -0.9 -0.9 -0.9 -0.9 -0.9 -0.9 -0.9 -0.9 -0.9 -0.9 -0.9 -0.9 -0.9 -0.9 -0.9 -0.9 -0.9 -0.9 19.5 25.7 27 30.2 33.4 44 46.9 50.4 53.1 53.7 56.7 61 66.8 68.1 68.5 68.6 68 67.7 69 71.6 74.1 76.2 82.8 93.5 107.1 116.2 122.8 127.1 128.4 131 138.1 142.1 142.8 144.6 147.9 148.1 146.6 146.2 143.2 136.4 130.2 125 120.1 116.3 108.6 104.4 99 91.2 88 80.2 71.5 67.9 66.9 67.7 73.7 78.1 84.6 87.6 86.7 86 84 82.3 84.4 86.2 88.2 91 93.3 94.7 97.8 101.7 107.7 113.1 116.2 120.9 122.5 124.8 124.6 124.3 123.4 119.2 116.3 114.2 114.8 114.7 114.8 117.3 118.7 121.7 125.9 129.1 134 134.7 134.9 138 143 151.1 157.2 161.9 166.9 171 175.9 180.2 185.4 189.4
-0.9 -0.9 -0.9 -0.9 -0.9 -0.9 -0.9 -0.9 -0.9 -0.9 -0.9 -0.9 -0.9 -0.9 -0.9 -0.9 -0.9 -0.9 -0.9 -0.9 -0.9 -0.9 -0.9 -0.9 -0.9 -0.9 -0.9 -0.9 -0.9 -0.9 -0.9 -0.9 -0.9 -0.9 -0.9 -0.9 -0.9 -0.9 -0.9 -0.9 -0.9 -0.9 -0.9 -0.9 -0.9 -0.9 -0.9 -0.9 -0.9 -0.9 -0.9 -0.9 -0.9 -0.9 -0.9 -0.9 -0.9 -0.9 -0.9 -0.9 -0.9 -0.9 -0.9 -0.9 -0.9 -0.9 -0.9 -0.9 -0.9 -0.9 -0.9 -0.9 -0.9 -0.9 -0.9 -0.9 -0.9 -0.9 -0.9 -0.9 -0.9 -0.9 -0.9 -0.9 -0.9 -0.9 -0.9 -0.9 -0.9 -0.9 -0.9 -0.9 -0.9 -0.9 -0.9 -0.9 24.4 31.6 35.3 37.5 41.1 51.5 54.7 57.8 59.1 58.9 59.6 63.6 68.8 69.8 69.7 71.3 70.2 69 72.5 74.8 77.7 81.3 87.2 99.7 115 121.8 128.3 131 130.5 133.3 139 142.4 144.9 146.1 150.7 149.2 147.6 142.7 140 133.5 125.3 121.9 118.4 115.5 111.3 106.4 98.9 94.2 88.4 81.6 71.3 67.6 66.7 66.7 69.5 74.6 82.5 84.7 83.8 82.3 79.9 77 82.5 83.4 87.5 90.1 93.1 94.7 99 102.5 109.2 113.3 117 120.8 122.2 121.6 120.9 123.8 122.1 117.7 114.5 112.9 113.7 112.7 113.6 116.9 118.3 120.3 123.2 126 128.7 131.2 134 139.4 144.9 152.4 157.7 164.8 169.6 174.6 178.9 182.9 187.9 191.7
-0.9 -0.9 -0.9 -0.9 -0.9 -0.9 -0.9 -0.9 -0.9 -0.9 -0.9 -0.9 -0.9 -0.9 -0.9 -0.9 -0.9 -0.9 -0.9 -0.9 -0.9 -0.9 -0.9 -0.9 -0.9 -0.9 -0.9 -0.9 -0.9 -0.9 -0.9 -0.9 -0.9 -0.9 -0.9 -0.9 -0.9 -0.9 -0.9 -0.9 -0.9 -0.9 -0.9 -0.9 -0.9 -0.9 -0.9 -0.9 -0.9 -0.9 -0.9 -0.9 -0.9 -0.9 -0.9 -0.9 -0.9 -0.9 -0.9 -0.9 -0.9 -0.9 -0.9 -0.9 -0.9 -0.9 -0.9 -0.9 -0.9 -0.9 -0.9 -0.9 -0.9 -0.9 -0.9 -0.9 -0.9 -0.9 -0.9 -0.9 -0.9 -0.9 -0.9 -0.9 -0.9 -0.9 -0.9 -0.9 -0.9 -0.9 -0.9 -0.9 -0.9 -0.9 9.1 10.5 28.5 36.6 43 46.4 50.2 55.6 62.2 63.7 65.5 63.3 61.6 63 66.3 68.7 70.8 72.2 70.9 71.9 75.6 79.8 81.7 87 94.4 106.7 119.4 126 132.7 131.8 133.3 135.2 140 143.8 146.3 147.1 148.5 148.3 144.4 140.2 136.2 129.2 123 120.1 117.8 116.2 113.1 106.9 101.4 94.9 88.6 81.5 72.5 67.6 66.3 65.6 67 72 80.2 82 80.9 79.1 75.5 77.9 80.8 82.9 88 91.4 93 95.1 100 105.1 111.1 112.8 115.9 119.7 120.7 117.9 119.3 121.7 121.6 115.8 113.1 111.4 111.1 111.6 114 116.4 118.5 121.3 125.4 126.1 127.7 130.5 133.5 140.2 146.1 153.4 160.5 166.5 173.3 177.7 181.9 184.8 188.1 191.2
-0.9 -0.9 -0.9 -0.9 -0.9 -0.9 -0.9 -0.9 -0.9 -0.9 -0.9 -0.9 -0.9 -0.9 -0.9 -0.9 -0.9 -0.9 -0.9 -0.9 -0.9 -0.9 -0.9 -0.9 -0.9 -0.9 -0.9 -0.9 -0.9 -0.9 -0.9 -0.9 -0.9 -0.9 -0.9 -0.9 -0.9 -0.9 -0.9 -0.9 -0.9 -0.9 -0.9 -0.9 -0.9 -0.9 -0.9 -0.9 -0.9 -0.9 -0.9 -0.9 -0.9 -0.9 -0.9 -0.9 -0.9 -0.9 -0.9 -0.9 -0.9 -0.9 -0.9 -0.9 -0.9 -0.9 -0.9 -0.9 -0.9 -0.9 -0.9 -0.9 -0.9 -0.9 -0.9 -0.9 -0.9 -0.9 -0.9 -0.9 -0.9 -0.9 -0.9 -0.9 -0.9 -0.9 -0.9 -0.9 -0.9 -0.9 -0.9 -0.9 -0.9 -0.9 13.4 14.1 25.9 41.3 51.4 52.8 57.5 62.6 65.7 69.7 69.4 66.4 63.5 65 68.3 69.1 71.7 71.8 72.4 75 80.9 83.9 88.1 93.9 105.7 114.8 124.4 130 137.7 137.1 137.5 139.8 141.8 145.3 147.1 144.9 144.1 144.3 140.6 136.7 129.4 123.2 120.4 118.6 117.4 115.7 113 108.4 101.2 96.5 90.1 83.2 73.2 68.2 65.5 64.7 66.4 71.5 78.5 80.9 76.9 75.1 72.3 79.1 79.9 81.8 87.1 91.6 93.3 97.4 101.8 107.8 110.5 112.7 113.8 118.9 117.6 114.3 117 120.4 119.3 115.7 111.4 110.5 107.9 110.4 113.3 115.7 117.4 120.4 123.2 125.8 127.5 129.4 133.9 140 147.5 154.7 162.9 169.4 176.4 180.5 183.9 186.1 188.9 190.3
-0.9 -0.9 -0.9 -0.9 -0.9 -0.9 -0.9 -0.9 -0.9 -0.9 -0.9 -0.9 -0.9 -0.9 -0.9 -0.9 -0.9 -0.9 -0.9 -0.9 -0.9 -0.9 -0.9 -0.9 -0.9 -0.9 -0.9 -0.9 -0.9 -0.9 -0.9 -0.9 -0.9 -0.9 -0.9 -0.9 -0.9 -0.9 -0.9 -0.9 -0.9 -0.9 -0.9 -0.9 -0.9 -0.9 -0.9 -0.9 -0.9 -0.9 -0.9 -0.9 -0.9 -0.9 -0.9 -0.9 -0.9 -0.9 -0.9 -0.9 -0.9 -0.9 -0.9 -0.9 -0.9 -0.9 -0.9 -0.9 -0.9 -0.9 -0.9 -0.9 -0.9 -0.9 -0.9 -0.9 -0.9 -0.9 -0.9 -0.9 -0.9 -0.9 -0.9 -0.9 -0.9 -0.9 -0.9 -0.9 -0.9 -0.9 -0.9 -0.9 -0.9 8.6 17.8 19.5 24.2 37.7 55.6 60.7 63.7 66.8 71.2 72.9 71.7 69.8 67 66.7 68.1 69.3 71.8 71 74 79.3 85.3 90.3 93.1 101 113.5 123.8 128.7 134.6 140.2 139.8 141.3 142.1 143.4 146.3 147 143.3 141.8 138.4 135.8 132.1 123.8 121.2 120.3 118.5 115.9 115.1 113 107.6 103.4 98.3 88.8 84.5 75.1 68.7 64.4 63.5 67.5 73.9 78.1 79.5 74.2 71.6 74.4 78 79.1 81.9 87.3 92.2 95.2 97.9 103 108.9 112.4 112.3 112.5 114.1 113.4 112.8 116 118.6 118.4 113.8 109.9 107.7 109.1 113.2 115 115.8 117.8 121.5 124.4 126.3 129.1 130.3 135.1 141.1 149.1 158 166.2 172 176.5 180.3 185.7 188.3 189.9 190.3
-0.9 -0.9 -0.9 -0.9 -0.9 -0.9 -0.9 -0.9 -0.9 -0.9 -0.9 -0.9 -0.9 -0.9 -0.9 -0.9 -0.9 -0.9 -0.9 -0.9 -0.9 -0.9 -0.9 -0.9 -0.9 -0.9 -0.9 -0.9 -0.9 -0.9 -0.9 -0.9 -0.9 -0.9 -0.9 -0.9 -0.9 -0.9 -0.9 -0.9 -0.9 -0.9 -0.9 -0.9 -0.9 -0.9 -0.9 -0.9 -0.9 -0.9 -0.9 -0.9 -0.9 -0.9 -0.9 -0.9 -0.9 -0.9 -0.9 -0.9 -0.9 -0.9 -0.9 -0.9 -0.9 -0.9 -0.9 -0.9 -0.9 -0.9 -0.9 -0.9 -0.9 -0.9 -0.9 -0.9 -0.9 -0.9 -0.9 -0.9 -0.9 -0.9 -0.9 -0.9 -0.9 -0.9 -0.9 -0.9 -0.9 -0.9 -0.9 -0.9 -0.9 13 20.6 23.2 24.8 32.3 51.6 66.5 68.5 70 73.4 74.5 73.5 71.8 67.4 67.7 68.2 69.1 70.7 71.9 75.3 82.8 87 92.1 97.4 109.3 122 129.4 133.7 139.5 142.6 142.2 145 142.9 144.4 147.4 147.7 142.4 139.9 135.7 130.1 127.5 123.2 120.8 120.2 118.8 116.5 116 114 108.7 103.9 98.9 94.1 87.5 79.1 67.7 63.1 61.9 67.4 75.7 80.6 77.2 71.5 71.3 75.2 76.7 76.8 81.2 86.5 91.7 94.1 97.8 103.4 108.2 109.7 109.4 109.2 109.9 109.5 110.6 115 115.9 114.8 111.4 107.8 106.1 110 112 113.3 115.9 118.9 122.4 126.5 130 132.7 136 140.3 146.9 153.5 161.2 169.1 173.8 177.6 180.9 186.6 188.1 190.1 192
-0.9 -0.9 -0.9 -0.9 -0.9 -0.9 -0.9 -0.9 -0.9 -0.9 -0.9 -0.9 -0.9 -0.9 -0.9 -0.9 -0.9 -0.9 -0.9 -0.9 -0.9 -0.9 -0.9 -0.9 -0.9 -0.9 -0.9 -0.9 -0.9 -0.9 -0.9 -0.9 -0.9 -0.9 -0.9 -0.9 -0.9 -0.9 -0.9 -0.9 -0.9 -0.9 -0.9 -0.9 -0.9 -0.9 -0.9 -0.9 -0.9 -0.9 -0.9 -0.9 -0.9 -0.9 -0.9 -0.9 -0.9 -0.9 -0.9 -0.9 -0.9 -0.9 -0.9 -0.9 -0.9 -0.9 -0.9 -0.9 -0.9 -0.9 -0.9 -0.9 -0.9 -0.9 -0.9 -0.9 -0.9 -0.9 -0.9 -0.9 -0.9 -0.9 -0.9 -0.9 -0.9 -0.9 -0.9 -0.9 -0.9 -0.9 -0.9 -0.9 -0.9 13.8 25.6 26.2 27.9 34.3 49.4 63.6 67.1 70 72.5 73.5 73.3 72.2 69.5 68.1 68.5 69.6 69.7 70.7 75.5 84.1 90.1 95.2 105.3 117.7 125.6 131.4 137.3 139.4 142.8 142.2 143.4 145 145.8 145.5 147 143 139.2 133.3 128.3 126.4 123.3 120.7 119.2 118.1 116.4 114.9 113.4 111.7 107.9 101 95.4 88.2 80 67.9 62.7 59.7 66.8 72.9 80.9 76.1 70.3 71.4 75.1 75.6 77.7 81.6 86.6 91.7 93.7 99 104.5 108.3 108 107.5 108.8 108.7 108.7 108.8 114.2 116.4 115.7 111.2 107.5 107.1 110.2 111.4 112.9 114.9 119.9 124.7 128 131.1 135.7 139.7 146.1 152.3 159.4 165.3 170.8 176.2 179.7 184.3 187 190.5 190.9 192.7
-0.9 -0.9 -0.9 -0.9 -0.9 -0.9 -0.9 -0.9 -0.9 -0.9 -0.9 -0.9 -0.9 -0.9 -0.9 -0.9 -0.9 -0.9 -0.9 -0.9 -0.9 -0.9 -0.9 -0.9 -0.9 -0.9 -0.9 -0.9 -0.9 -0.9 -0.9 -0.9 -0.9 -0.9 -0.9 -0.9 -0.9 -0.9 -0.9 -0.9 -0.9 -0.9 -0.9 -0.9 -0.9 -0.9 -0.9 -0.9 -0.9 -0.9 -0.9 -0.9 -0.9 -0.9 -0.9 -0.9 -0.9 -0.9 -0.9 -0.9 -0.9 -0.9 -0.9 -0.9 -0.9 -0.9 -0.9 -0.9 -0.9 -0.9 -0.9 -0.9 -0.9 -0.9 -0.9 -0.9 -0.9 -0.9 -0.9 -0.9 -0.9 -0.9 -0.9 -0.9 -0.9 -0.9 -0.9 -0.9 -0.9 -0.9 -0.9 1.5 7.5 13.8 29.5 28.7 31.2 36.7 51.2 62.2 65.4 68.9 72.2 72.5 72.1 68.4 68.9 67.4 68.9 69.7 70.1 72.3 77 84.8 91.7 99.4 110.9 124.5 130.6 134.7 140.4 140.8 140.9 142.1 143.5 146.5 148.2 146.4 148 142.5 138.3 132.3 128.4 126.6 124.4 121.4 120 119.1 117.6 116.8 116 113.3 109.2 103.3 95.1 89.5 79.3 69.6 62.2 61.3 66.9 71.8 74.2 71.1 65.7 72.7 75.3 74.9 77.7 82 86.5 91.8 94.6 101.2 105.4 106.3 107.3 107.7 107.2 107.4 107.6 109.3 111.9 115.8 115.4 110.4 105.5 108.4 110.8 112.1 113.8 116.5 121.5 126.7 128.5 134 139.1 145.3 151.6 157.7 165.2 170.7 176.2 182 186.9 188.1 189.1 191.4 192.5 195.8
-0.9 -0.9 -0.9 -0.9 -0.9 -0.9 -0.9 -0.9 -0.9 -0.9 -0.9 -0.9 -0.9 -0.9 -0.9 -0.9 -0.9 -0.9 -0.9 -0.9 -0.9 -0.9 -0.9 -0.9 -0.9 -0.9 -0.9 -0.9 -0.9 -0.9 -0.9 -0.9 -0.9 -0.9 -0.9 -0.9 -0.9 -0.9 -0.9 -0.9 -0.9 -0.9 -0.9 -0.9 -0.9 -0.9 -0.9 -0.9 -0.9 -0.9 -0.9 -0.9 -0.9 -0.9 -0.9 -0.9 -0.9 -0.9 -0.9 -0.9 -0.9 -0.9 -0.9 -0.9 -0.9 -0.9 -0.9 -0.9 -0.9 -0.9 -0.9 -0.9 -0.9 -0.9 -0.9 -0.9 -0.9 -0.9 -0.9 -0.9 -0.9 -0.9 -0.9 -0.9 -0.9 -0.9 -0.9 -0.9 -0.9 -0.9 -0.9 10.8 11.6 15.2 25.3 29.7 36.3 38.3 51.5 62.1 66.4 69.5 71.1 71.8 71.3 68.5 67.2 66.4 67.2 67.8 69.2 73.5 77.6 85.4 94.5 107.2 117.7 127.3 132.9 136.2 140.9 140.5 142 142.5 143.6 146 148 146.6 147.5 143.6 135.9 132.6 128.5 127.3 125.3 122.6 120.8 119.9 118.6 116.9 116.3 114.5 109.3 104.3 97.4 90.3 80.1 68.9 60.9 61.2 65.7 70.3 67.4 65.7 67.7 72 75.2 75.1 76.7 82.4 88.7 90.6 94.9 99.8 103.4 105.5 105.9 104.9 105.9 107.5 106.6 110.2 112.8 114.7 114.8 110.5 102.5 108.4 110.9 112.8 114.4 117.5 121.7 128.2 131.7 136.1 141.8 149.6 156.6 163 170.3 177 181.7 188.3 191.9 191.4 191.2 193.1 194.8 197.8
-0.9 -0.9 -0.9 -0.9 -0.9 -0.9 -0.9 -0.9 -0.9 -0.9 -0.9 -0.9 -0.9 -0.9 -0.9 -0.9 -0.9 -0.9 -0.9 -0.9 -0.9 -0.9 -0.9 -0.9 -0.9 -0.9 -0.9 -0.9 -0.9 -0.9 -0.9 -0.9 -0.9 -0.9 -0.9 -0.9 -0.9 -0.9 -0.9 -0.9 -0.9 -0.9 -0.9 -0.9 -0.9 -0.9 -0.9 -0.9 -0.9 -0.9 -0.9 -0.9 -0.9 -0.9 -0.9 -0.9 -0.9 -0.9 -0.9 -0.9 -0.9 -0.9 -0.9 -0.9 -0.9 -0.9 -0.9 -0.9 -0.9 -0.9 -0.9 -0.9 -0.9 -0.9 -0.9 -0.9 -0.9 -0.9 -0.9 -0.9 -0.9 -0.9 -0.9 -0.9 -0.9 -0.9 -0.9 -0.9 -0.9 -0.9 -0.9 10.5 12.7 14.9 20.7 30.9 38.7 41.8 51 60.6 65.1 65.7 67.1 69.3 69.6 64.6 67 65.4 66.6 67.5 69.8 72.7 80.8 90.8 99.8 114.3 122.9 130.2 132.8 136.8 143 141.4 142.9 143.1 144.5 144.6 145.8 145.8 144.7 140.9 134 130 129.3 128 126.7 123.6 122 119.8 119.3 116.6 115.6 115.8 110.1 106.6 99.6 91.2 81.5 70.8 62 59.5 63.5 66.2 64.3 58.8 66.5 71.3 74.8 75.3 77 82 86.8 90.3 94 98.1 100.9 102.4 103 103.7 106.4 106.6 106 111.5 112.9 114.7 114.3 109.2 101.4 107.6 110.3 113.3 117.9 122.2 124.8 128.9 133.4 138.7 144.3 151.2 160.4 168 174.2 181.2 187.6 193 194.8 194.7 194.8 196.3 196.3 196.9
-0.9 -0.9 -0.9 -0.9 -0.9 -0.9 -0.9 -0.9 -0.9 -0.9 -0.9 -0.9 -0.9 -0.9 -0.9 -0.9 -0.9 -0.9 -0.9 -0.9 -0.9 -0.9 -0.9 -0.9 -0.9 -0.9 -0.9 -0.9 -0.9 -0.9 -0.9 -0.9 -0.9 -0.9 -0.9 -0.9 -0.9 -0.9 -0.9 -0.9 -0.9 -0.9 -0.9 -0.9 -0.9 -0.9 -0.9 -0.9 -0.9 -0.9 -0.9 -0.9 -0.9 -0.9 -0.9 -0.9 -0.9 -0.9 -0.9 -0.9 -0.9 -0.9 -0.9 -0.9 -0.9 -0.9 -0.9 -0.9 -0.9 -0.9 -0.9 -0.9 -0.9 -0.9 -0.9 -0.9 -0.9 -0.9 -0.9 -0.9 -0.9 -0.9 -0.9 -0.9 -0.9 -0.9 -0.9 -0.9 -0.9 -0.9 -0.9 -0.9 15.4 15.6 18.6 26.9 38.5 42.4 50.5 59.1 62.6 62.5 64.1 66 67.2 65.5 64.4 64.2 65.8 66.3 70.4 74.8 85.9 95.8 103.8 117.2 127.4 130 133.5 137.6 140.8 142.3 144.4 145.1 144.6 144.6 146 145.5 140.8 136.5 131.4 129.8 130.7 129.4 124.4 122.9 123.2 121.1 119.5 117.9 115.1 115 110.1 106.9 99.8 90.8 82.4 71.9 63.1 54.6 59.7 60.9 60.3 60 66.7 71.3 73.3 74.5 77 81.5 87.2 89 92.3 94.3 97.7 98.9 100.7 105.1 106.6 106.4 107.5 110.2 114 113.1 111.4 105.5 100.5 104.2 109.4 114.2 119.8 124.4 127.9 132.5 135.1 141.4 147.8 155.5 163.3 172.2 178.5 185.5 192.7 197.1 197.7 196 197.2 197.6 197.4 196.9
-0.9 -0.9 -0.9 -0.9 -0.9 -0.9 -0.9 -0.9 -0.9 -0.9 -0.9 -0.9 -0.9 -0.9 -0.9 -0.9 -0.9 -0.9 -0.9 -0.9 -0.9 -0.9 -0.9 -0.9 -0.9 -0.9 -0.9 -0.9 -0.9 -0.9 -0.9 -0.9 -0.9 -0.9 -0.9 -0.9 -0.9 -0.9 -0.9 -0.9 -0.9 -0.9 -0.9 -0.9 -0.9 -0.9 -0.9 -0.9 -0.9 -0.9 -0.9 -0.9 -0.9 -0.9 -0.9 -0.9 -0.9 -0.9 -0.9 -0.9 -0.9 -0.9 -0.9 -0.9 -0.9 -0.9 -0.9 -0.9 -0.9 -0.9 -0.9 -0.9 -0.9 -0.9 -0.9 -0.9 -0.9 -0.9 -0.9 -0.9 -0.9 -0.9 -0.9 -0.9 -0.9 -0.9 -0.9 -0.9 -0.9 -0.9 -0.9 -0.9 11.8 14 15.5 22.7 36.2 41.5 48.4 57.7 60.7 60.1 61.6 62.7 62.9 63 62.2 62.8 63 66.2 71.6 78.1 88 99.2 109.9 120.2 130.2 133.3 134.8 137.9 141.6 144 145.3 145.6 144.6 144.6 145.1 145 138.3 135.5 132.5 129.7 128.9 126.3 125.1 124 123.4 121 118.6 114.8 116.8 114.8 111.9 106.5 100.6 91.1 82.6 73.5 64.2 58.1 54.3 56.5 56.8 60.2 66.1 69.3 71.4 73.4 76 81.1 86 87.5 89.8 92.5 94.9 97.9 101.2 105 105.4 104.2 107.5 109 111.3 109.2 106.5 102.4 101.4 107.3 109 115.7 122.2 127.1 131.4 135.1 139.3 142.4 150.2 159.7 166.4 174.9 182.6 190.3 196 200.3 199.8 199.7 198.8 197.6 197.6 197.3
-0.9 -0.9 -0.9 -0.9 -0.9 -0.9 -0.9 -0.9 -0.9 -0.9 -0.9 -0.9 -0.9 -0.9 -0.9 -0.9 -0.9 -0.9 -0.9 -0.9 -0.9 -0.9 -0.9 -0.9 -0.9 -0.9 -0.9 -0.9 -0.9 -0.9 -0.9 -0.9 -0.9 -0.9 -0.9 -0.9 -0.9 -0.9 -0.9 -0.9 -0.9 -0.9 -0.9 -0.9 -0.9 -0.9 -0.9 -0.9 -0.9 -0.9 -0.9 -0.9 -0.9 -0.9 -0.9 -0.9 -0.9 -0.9 -0.9 -0.9 -0.9 -0.9 -0.9 -0.9 -0.9 -0.9 -0.9 -0.9 -0.9 -0.9 -0.9 -0.9 -0.9 -0.9 -0.9 -0.9 -0.9 -0.9 -0.9 -0.9 -0.9 -0.9 -0.9 -0.9 -0.9 -0.9 -0.9 -0.9 -0.9 -0.9 -0.9 -0.9 7.5 9.3 13.3 20.8 32 40.3 49.6 53.3 56.9 57.8 58.1 58.2 59.1 61.5 61.2 61.9 62.5 66.5 76.1 82.5 91.9 101.2 111.5 121.6 131.7 136 136.3 137.9 142.9 145.7 146.9 145.4 144.6 145.1 144.7 140.8 135.5 134.1 131.5 129.9 128.9 128.6 126.5 123.8 123.3 118.8 115 112.2 114.2 112.1 111.7 105.9 100.1 91.3 84.2 75.2 66.6 58.5 51.8 52.1 52.9 58.8 63.5 65.8 69.4 71.8 75.3 78.3 81.5 84.6 88.9 92.2 96.2 98.1 100.9 104.8 103.9 104.2 105.8 106.7 108.9 106.8 102 99.4 102.3 107.9 110.8 117.4 123.2 128.5 134.2 139.5 144.2 149.2 154.8 163 170.7 178.9 185.1 192 197.5 200.2 202.2 201.9 200.9 198.9 197.6 196.1
-0.9 -0.9 -0.9 -0.9 -0.9 -0.9 -0.9 -0.9 -0.9 -0.9 -0.9 -0.9 -0.9 -0.9 -0.9 -0.9 -0.9 -0.9 -0.9 -0.9 -0.9 -0.9 -0.9 -0.9 -0.9 -0.9 -0.9 -0.9 -0.9 -0.9 -0.9 -0.9 -0.9 -0.9 -0.9 -0.9 -0.9 -0.9 -0.9 -0.9 -0.9 -0.9 -0.9 -0.9 -0.9 -0.9 -0.9 -0.9 -0.9 -0.9 -0.9 -0.9 -0.9 -0.9 -0.9 -0.9 -0.9 -0.9 -0.9 -0.9 -0.9 -0.9 -0.9 -0.9 -0.9 -0.9 -0.9 -0.9 -0.9 -0.9 -0.9 -0.9 -0.9 -0.9 -0.9 -0.9 -0.9 -0.9 -0.9 -0.9 -0.9 -0.9 -0.9 -0.9 -0.9 -0.9 -0.9 -0.9 -0.9 -0.9 -0.9 -0.9 -0.9 -0.9 11.8 19.5 28.1 36.9 47.5 50 52.2 52.3 53.3 58.5 61.7 61.3 62.2 62.8 63.1 68.2 79.3 89 97.1 108 113.3 120.9 130.4 133.8 136.3 137.7 141 146.4 146.2 144.8 144.6 144.8 143.2 138.2 132.7 131.2 130.9 128.9 129.8 129.1 126.9 120.3 120.2 115 111.1 108.6 108.6 110.4 108.3 102.7 97.5 90.3 84.3 75.8 67.1 60.8 54.1 49.9 54.7 57.4 61.6 64.2 66.5 71 73.9 78.1 82.3 85.8 88.6 90.8 96.4 98.3 102.5 105.8 102.3 103.9 105.2 106.2 105.6 104.5 100.9 96.3 103.3 106.6 112.5 119.6 125.6 131.2 136.5 141.3 147 154.2 161.4 168.3 174.6 182.2 188.4 192.8 198.1 201.6 202.6 204.9 202.9 202.7 202.2 198.5
-0.9 -0.9 -0.9 -0.9 -0.9 -0.9 -0.9 -0.9 -0.9 -0.9 -0.9 -0.9 -0.9 -0.9 -0.9 -0.9 -0.9 -0.9 -0.9 -0.9 -0.9 -0.9 -0.9 -0.9 -0.9 -0.9 -0.9 -0.9 -0.9 -0.9 -0.9 -0.9 -0.9 -0.9 -0.9 -0.9 -0.9 -0.9 -0.9 -0.9 -0.9 -0.9 -0.9 -0.9 -0.9 -0.9 -0.9 -0.9 -0.9 -0.9 -0.9 -0.9 -0.9 -0.9 -0.9 -0.9 -0.9 -0.9 -0.9 -0.9 -0.9 -0.9 -0.9 -0.9 -0.9 -0.9 -0.9 -0.9 -0.9 -0.9 -0.9 -0.9 -0.9 -0.9 -0.9 -0.9 -0.9 -0.9 -0.9 -0.9 -0.9 -0.9 -0.9 -0.9 -0.9 -0.9 -0.9 -0.9 -0.9 -0.9 -0.9 -0.9 -0.9 -0.9 8.7 19 28 34.3 42.4 45.9 46.3 47.2 54.2 59.3 63.8 62.6 63 63 64.5 72.2 82.8 96 104.6 113.3 117.5 121.7 131.1 134.5 135.8 138.2 140.4 144.9 144.7 142.3 143.8 143.5 137.7 134 129.5 129.6 128.1 128.5 131.2 128.4 124 117.4 115.4 110.8 107.1 104.5 104.4 107.6 104.8 99.8 96.2 90.8 82.9 76.9 67.7 62.5 55.2 50.4 52.2 55.3 58.1 62.9 65.7 68.7 71.5 76.5 82.2 86.3 89.2 93.1 96.6 98.4 102.2 104.6 98 103.9 104.1 103.9 102.7 102.1 98.6 99 102.8 106.1 112 119.8 128.4 136 140.7 145 151.4 158.7 166.3 173.7 179.7 185.1 189.5 193.5 198.6 200.8 203.7 205.2 203.6 203.8 203.6 201.4
-0.9 -0.9 -0.9 -0.9 -0.9 -0.9 -0.9 -0.9 -0.9 -0.9 -0.9 -0.9 -0.9 -0.9 -0.9 -0.9 -0.9 -0.9 -0.9 -0.9 -0.9 -0.9 -0.9 -0.9 -0.9 -0.9 -0.9 -0.9 -0.9 -0.9 -0.9 -0.9 -0.9 -0.9 -0.9 -0.9 -0.9 -0.9 -0.9 -0.9 -0.9 -0.9 -0.9 -0.9 -0.9 -0.9 -0.9 -0.9 -0.9 -0.9 -0.9 -0.9 -0.9 -0.9 -0.9 -0.9 -0.9 -0.9 -0.9 -0.9 -0.9 -0.9 -0.9 -0.9 -0.9 -0.9 -0.9 -0.9 -0.9 -0.9 -0.9 -0.9 -0.9 -0.9 -0.9 -0.9 -0.9 -0.9 -0.9 -0.9 -0.9 -0.9 -0.9 -0.9 -0.9 -0.9 -0.9 -0.9 -0.9 -0.9 -0.9 -0.9 -0.9 -0.9 11.5 16.4 27.9 33.6 37.4 41.1 42.3 47.1 54.5 59.8 66 64.7 63.5 64.1 66.7 75.3 85.6 98.4 108.2 115.9 120.8 123.1 129.2 133.8 136.4 138.7 141 141.7 141.9 138.6 138.4 136.6 131.7 128.6 126.5 126.2 127.2 131.5 129.7 126.4 121.8 116.4 113.4 107.7 103 101.5 101.2 100.5 99.5 98.6 95.3 89.6 83.5 77 69.9 62.9 55.7 50.7 47.9 53.8 58.1 62.4 63.7 66.3 71.9 78.6 82.8 86.4 87.6 93.6 96.4 98.9 101.1 102.7 95.6 99.7 100.8 101 99.3 97.9 93.3 99.4 102.6 107.3 113.3 123.3 133.5 139.9 145.5 150.1 157.3 164 172.4 178.3 183.5 187.4 191.1 196.4 198.7 200.6 204 206.1 203.9 203.4 203.2 201.1
-0.9 -0.9 -0.9 -0.9 -0.9 -0.9 -0.9 -0.9 -0.9 -0.9 -0.9 -0.9 -0.9 -0.9 -0.9 -0.9 -0.9 -0.9 -0.9 -0.9 -0.9 -0.9 -0.9 -0.9 -0.9 -0.9 -0.9 -0.9 -0.9 -0.9 -0.9 -0.9 -0.9 -0.9 -0.9 -0.9 -0.9 -0.9 -0.9 -0.9 -0.9 -0.9 -0.9 -0.9 -0.9 -0.9 -0.9 -0.9 -0.9 -0.9 -0.9 -0.9 -0.9 -0.9 -0.9 -0.9 -0.9 -0.9 -0.9 -0.9 -0.9 -0.9 -0.9 -0.9 -0.9 -0.9 -0.9 -0.9 -0.9 -0.9 -0.9 -0.9 -0.9 -0.9 -0.9 -0.9 -0.9 -0.9 -0.9 -0.9 -0.9 -0.9 -0.9 -0.9 -0.9 -0.9 -0.9 -0.9 -0.9 -0.9 -0.9 -0.9 -0.9 -0.9 10.1 19.9 26.3 33.1 36.3 39.5 42.1 45.5 53.6 60.6 67.9 66.8 63.9 64.4 68.3 78.8 87.2 98.2 109.9 114.6 120.8 122.8 129.5 134.1 136.7 139.5 140.1 137.2 134.6 131.2 130.4 129.5 128.4 126.8 126.2 123.1 125.7 129 127 122.9 118.8 112.8 105.3 102 100.4 99.3 99.2 98.4 96.9 95.8 92.2 87.5 83.8 79.2 71.6 66.9 59.8 52.5 49.6 52.4 57.6 61.5 62.5 65.4 71.3 79.7 83 84.6 87.6 92 96 99 101.6 100.1 91.6 97 99.4 100.8 97 94.4 96.8 99.8 104 112.6 118.1 127.2 135.7 142.7 149.2 155.6 162.8 170.2 176 181.5 186.5 191.5 195.2 198.9 200.1 200.6 202.5 203.6 202.5 201.8 201.9 199.7
-0.9 -0.9 -0.9 -0.9 -0.9 -0.9 -0.9 -0.9 -0.9 -0.9 -0.9 -0.9 -0.9 -0.9 -0.9 -0.9 -0.9 -0.9 -0.9 -0.9 -0.9 -0.9 -0.9 -0.9 -0.9 -0.9 -0.9 -0.9 -0.9 -0.9 -0.9 -0.9 -0.9 -0.9 -0.9 -0.9 -0.9 -0.9 -0.9 -0.9 -0.9 -0.9 -0.9 -0.9 -0.9 -0.9 -0.9 -0.9 -0.9 -0.9 -0.9 -0.9 -0.9 -0.9 -0.9 -0.9 -0.9 -0.9 -0.9 -0.9 -0.9 -0.9 -0.9 -0.9 -0.9 -0.9 -0.9 -0.9 -0.9 -0.9 -0.9 -0.9 -0.9 -0.9 -0.9 -0.9 -0.9 -0.9 -0.9 -0.9 -0.9 -0.9 -0.9 -0.9 -0.9 -0.9 -0.9 -0.9 -0.9 -0.9 -0.9 -0.9 -0.9 -0.9 6.5 20.7 26.4 30.8 35.8 38.9 40.2 42.4 50.6 60.2 67.3 67 63.6 66.3 70 79.7 90 101 107.6 113.3 117 122.9 128.4 133.5 136.6 138.7 138.4 134 128.5 126.2 125.6 124.9 124.2 125.5 125.1 122 122.7 125.5 124.5 119.6 113.3 104.2 100.9 99.7 99.2 99.3 98.3 97.9 96.7 92.6 90.4 87.9 83.1 82.8 76.5 69.3 60.1 53.5 46 51.1 55.4 57.8 60.4 66.1 72.9 77.8 79.6 82.1 86 90.9 95.7 97.5 98.1 94.5 90.4 94.9 97.1 99.6 95.7 89.6 98.9 101.1 107 116.6 124.8 129.8 138.7 145.6 153.2 161.1 168.2 175.9 181.7 186.4 191 196.1 197.9 201.1 200.1 201.9 202.4 200.9 200.5 199.7 198.5 195.5
-0.9 -0.9 -0.9 -0.9 -0.9 -0.9 -0.9 -0.9 -0.9 -0.9 -0.9 -0.9 -0.9 -0.9 -0.9 -0.9 -0.9 -0.9 -0.9 -0.9 -0.9 -0.9 -0.9 -0.9 -0.9 -0.9 -0.9 -0.9 -0.9 -0.9 -0.9 -0.9 -0.9 -0.9 -0.9 -0.9 -0.9 -0.9 -0.9 -0.9 -0.9 -0.9 -0.9 -0.9 -0.9 -0.9 -0.9 -0.9 -0.9 -0.9 -0.9 -0.9 -0.9 -0.9 -0.9 -0.9 -0.9 -0.9 -0.9 -0.9 -0.9 -0.9 -0.9 -0.9 -0.9 -0.9 -0.9 -0.9 -0.9 -0.9 -0.9 -0.9 -0.9 -0.9 -0.9 -0.9 -0.9 -0.9 -0.9 -0.9 -0.9 -0.9 -0.9 -0.9 -0.9 -0.9 -0.9 -0.9 -0.9 -0.9 -0.9 -0.9 -0.9 -0.9 -0.9 19.5 25.5 30 33.7 39.2 37.9 40.7 48.9 59 66.8 66.1 64.5 65.4 74.4 84.1 95.5 104.6 110.7 117.3 119.5 120 127.8 132.1 135.5 136 134.8 129.2 121.4 121.4 123.7 124.4 123.9 123.4 122.5 121.3 120.7 121.8 121.4 115.4 107 101 99.1 98.6 98.2 97.9 97.1 95.8 94.9 92.2 90.5 89 86.1 84.5 79.8 72.4 63.4 54 46.6 49.3 52.5 55.4 59.5 66 73.1 75.6 76.6 80.1 83.4 88.7 92.2 92 92.4 87.5 89.4 93 97.2 99.9 92.4 92.6 99.4 104.1 109.5 118.2 127.9 135.4 142.5 150.7 158.2 164.4 172.6 178.4 184.5 189.2 193.6 199 200.2 201.8 202.2 201.3 201 199 197.8 196.4 192.9 188.5
-0.9 -0.9 -0.9 -0.9 -0.9 -0.9 -0.9 -0.9 -0.9 -0.9 -0.9 -0.9 -0.9 -0.9 -0.9 -0.9 -0.9 -0.9 -0.9 -0.9 -0.9 -0.9 -0.9 -0.9 -0.9 -0.9 -0.9 -0.9 -0.9 -0.9 -0.9 -0.9 -0.9 -0.9 -0.9 -0.9 -0.9 -0.9 -0.9 -0.9 -0.9 -0.9 -0.9 -0.9 -0.9 -0.9 -0.9 -0.9 -0.9 -0.9 -0.9 -0.9 -0.9 -0.9 -0.9 -0.9 -0.9 -0.9 -0.9 -0.9 -0.9 -0.9 -0.9 -0.9 -0.9 -0.9 -0.9 -0.9 -0.9 -0.9 -0.9 -0.9 -0.9 -0.9 -0.9 -0.9 -0.9 -0.9 -0.9 -0.9 -0.9 -0.9 -0.9 -0.9 -0.9 -0.9 -0.9 -0.9 -0.9 -0.9 -0.9 -0.9 -0.9 -0.9 -0.9 17.6 24.2 29.3 32.7 35 36.4 40.2 48.1 59.8 66 65.7 64.4 66.3 78.4 89.7 102.3 110.5 116.1 119.3 122.2 123.8 127.5 132 134.1 133.6 130 121.9 121.4 121.4 121.4 121.4 121.4 121 120.6 121.2 120 119.1 117.2 109.9 101.7 99.4 98.1 98.5 98.1 97.3 94.9 93.9 92.9 93.4 92.7 91.1 86.8 84.6 79.8 72.6 63.9 54.2 48.1 46.6 50.2 53.3 59 66.3 71.4 73.6 75.8 77.9 80.8 84 86.2 85.6 86.9 83.3 86.8 89.7 93.4 96.1 87.7 93.6 98.9 106.3 113.1 122 131.4 138.1 146.2 154.6 160.7 168.7 174.9 180.7 186.4 190.6 196.3 202 202.2 202.4 202.9 201.4 199 196.3 194.2 191.5 187.1 182.9
-0.9 -0.9 -0.9 -0.9 -0.9 -0.9 -0.9 -0.9 -0.9 -0.9 -0.9 -0.9 -0.9 -0.9 -0.9 -0.9 -0.9 -0.9 -0.9 -0.9 -0.9 -0.9 -0.9 -0.9 -0.9 -0.9 -0.9 -0.9 -0.9 -0.9 -0.9 -0.9 -0.9 -0.9 -0.9 -0.9 -0.9 -0.9 -0.9 -0.9 -0.9 -0.9 -0.9 -0.9 -0.9 -0.9 -0.9 -0.9 -0.9 -0.9 -0.9 -0.9 -0.9 -0.9 -0.9 -0.9 -0.9 -0.9 -0.9 -0.9 -0.9 -0.9 -0.9 -0.9 -0.9 -0.9 -0.9 -0.9 -0.9 -0.9 -0.9 -0.9 -0.9 -0.9 -0.9 -0.9 -0.9 -0.9 -0.9 -0.9 -0.9 -0.9 -0.9 -0.9 -0.9 -0.9 -0.9 -0.9 -0.9 -0.9 -0.9 -0.9 -0.9 -0.9 -0.9 14.5 26.4 30.5 30.5 31.7 36.2 40.2 47.9 59.7 65 65.9 65.2 69.8 82.3 94.6 106.1 116.2 124.7 124.1 126.8 127.3 128 131.2 135.9 132.7 129.5 121.4 121.4 121.4 121.4 121.4 121.4 122.1 120.7 120.8 118.8 118.7 112.9 104.7 101.2 99.5 97.1 97.7 99.3 96.2 94.6 93.7 96 96.6 94.9 91.2 89.6 85.4 79.7 70.5 63.1 53.8 46 43.4 48.1 50.9 59.1 65.3 69.2 71.2 73.5 76.4 78.6 80.2 81.6 80.5 81.2 76.9 81.6 83.9 87.6 88.9 84.6 95.9 101.3 108.9 117 126.5 134.1 141.2 148.8 156 163.9 171.8 177.6 183.1 187.7 193.4 199.2 203.8 203.2 202 202.5 200.5 196.1 191.7 189.5 186.1 182.1 176.8
-0.9 -0.9 -0.9 -0.9 -0.9 -0.9 -0.9 -0.9 -0.9 -0.9 -0.9 -0.9 -0.9 -0.9 -0.9 -0.9 -0.9 -0.9 -0.9 -0.9 -0.9 -0.9 -0.9 -0.9 -0.9 -0.9 -0.9 -0.9 -0.9 -0.9 -0.9 -0.9 -0.9 -0.9 -0.9 -0.9 -0.9 -0.9 -0.9 -0.9 -0.9 -0.9 -0.9 -0.9 -0.9 -0.9 -0.9 -0.9 -0.9 -0.9 -0.9 -0.9 -0.9 -0.9 -0.9 -0.9 -0.9 -0.9 -0.9 -0.9 -0.9 -0.9 -0.9 -0.9 -0.9 -0.9 -0.9 -0.9 -0.9 -0.9 -0.9 -0.9 -0.9 -0.9 -0.9 -0.9 -0.9 -0.9 -0.9 -0.9 -0.9 -0.9 -0.9 -0.9 -0.9 -0.9 -0.9 -0.9 -0.9 -0.9 -0.9 -0.9 -0.9 -0.9 -0.9 9.5 26.3 30.8 31 31.8 34.4 41.1 49.8 58.9 64.8 67.3 65.9 73 86 97.9 108.5 121.9 132.5 131.2 129.8 130.4 132 133.2 138.9 137.6 131.3 121.4 121.4 121.4 121.4 121.4 122.6 122.5 120.6 120.3 120.6 117.3 114.1 104.6 101.2 99.4 97.9 96.4 96.6 95.2 94.8 95.5 96.1 96.5 94.8 91.8 90.8 85.4 78.4 69.7 62 52.3 44.7 42.9 47.4 50.2 57.7 63.9 67.5 69.7 71.2 74.8 76.1 77.5 77 77 76.7 75.7 76.8 74.2 80.3 80.7 89.1 96.9 103.9 111.1 119.9 129.3 135.6 144.3 151 159.1 166 173.4 178.8 183 189.7 194.2 201.3 204.2 202.7 201.4 201.3 198.1 194.2 188.8 184.8 179.9 176.2 172.6
-0.9 -0.9 -0.9 -0.9 -0.9 -0.9 -0.9 -0.9 -0.9 -0.9 -0.9 -0.9 -0.9 -0.9 -0.9 -0.9 -0.9 -0.9 -0.9 -0.9 -0.9 -0.9 -0.9 -0.9 -0.9 -0.9 -0.9 -0.9 -0.9 -0.9 -0.9 -0.9 -0.9 -0.9 -0.9 -0.9 -0.9 -0.9 -0.9 -0.9 -0.9 -0.9 -0.9 -0.9 -0.9 -0.9 -0.9 -0.9 -0.9 -0.9 -0.9 -0.9 -0.9 -0.9 -0.9 -0.9 -0.9 -0.9 -0.9 -0.9 -0.9 -0.9 -0.9 -0.9 -0.9 -0.9 -0.9 -0.9 -0.9 -0.9 -0.9 -0.9 -0.9 -0.9 -0.9 -0.9 -0.9 -0.9 -0.9 -0.9 -0.9 -0.9 -0.9 -0.9 -0.9 -0.9 -0.9 -0.9 -0.9 -0.9 -0.9 -0.9 -0.9 -0.9 -0.9 -0.9 26.2 30.4 30.8 31.3 34.8 42.3 52.1 60.1 64.8 68.2 68.1 71.7 85.7 99.5 114.9 123.8 133.2 136 136.6 135.3 136.2 136.5 139.2 140.7 135.7 122.1 122.8 121.4 121.4 121.4 124.5 124.6 121.6 121.9 121.3 119 115.8 105.2 100.1 99.1 97.5 96.6 95.5 94.5 95.4 95.3 95.2 94.9 94.1 92.6 89.5 83.5 76.1 68.9 60.5 51.6 42.9 40.1 45.6 50.6 55.5 60.4 64 66.7 68.6 71.5 72.3 73 72.8 73.4 71.4 68.6 70.2 79.6 86 84.8 88.6 98.9 105.2 110.2 119.8 130.3 138.9 146.6 154 162 168.6 175.2 179.3 183.9 191.5 198.2 204.2 205.8 203.5 200.3 199.7 195.8 189.2 184.7 180.7 174.3 170.3 166.7
-0.9 -0.9 -0.9 -0.9 -0.9 -0.9 -0.9 -0.9 -0.9 -0.9 -0.9 -0.9 -0.9 -0.9 -0.9 -0.9 -0.9 -0.9 -0.9 -0.9 -0.9 -0.9 -0.9 -0.9 -0.9 -0.9 -0.9 -0.9 -0.9 -0.9 -0.9 -0.9 -0.9 -0.9 -0.9 -0.9 -0.9 -0.9 -0.9 -0.9 -0.9 -0.9 -0.9 -0.9 -0.9 -0.9 -0.9 -0.9 -0.9 -0.9 -0.9 -0.9 -0.9 -0.9 -0.9 -0.9 -0.9 -0.9 -0.9 -0.9 -0.9 -0.9 -0.9 -0.9 -0.9 -0.9 -0.9 -0.9 -0.9 -0.9 -0.9 -0.9 -0.9 -0.9 -0.9 -0.9 -0.9 -0.9 -0.9 -0.9 -0.9 -0.9 -0.9 -0.9 -0.9 -0.9 -0.9 -0.9 -0.9 -0.9 -0.9 -0.9 -0.9 -0.9 -0.9 -0.9 24.6 30.2 31.3 32.1 37.4 43.3 53.6 60.3 64 67.4 69.2 72.7 86.8 99.1 115.3 123.4 133.7 139.6 140.5 142.3 143.4 141.7 140 140.2 136.8 125 121.4 121.4 121.4 121.4 125.3 126.1 121.6 121.5 123 122.2 116.5 106.5 100.4 97.9 96.6 95.2 94.4 94.8 95.5 92.8 90.2 90.3 93.2 90.6 85.9 80.9 75 67.1 58.9 50.5 40.9 41 45.4 49.8 52.7 58.4 62.8 65.7 68.5 69.4 68.5 70.1 69.2 66.7 62.8 67.3 72.6 77 81.8 85.2 91.8 101.5 105.3 110.3 119.5 132.1 140.6 149.3 157.1 163.2 169.2 176.6 181 186.3 193.5 199.5 205.6 207.4 204 200.4 197.7 191.7 185.8 181.5 177.8 171.4 163.9 159.9
-0.9 -0.9 -0.9 -0.9 -0.9 -0.9 -0.9 -0.9 -0.9 -0.9 -0.9 -0.9 -0.9 -0.9 -0.9 -0.9 -0.9 -0.9 -0.9 -0.9 -0.9 -0.9 -0.9 -0.9 -0.9 -0.9 -0.9 -0.9 -0.9 -0.9 -0.9 -0.9 -0.9 -0.9 -0.9 -0.9 -0.9 -0.9 -0.9 -0.9 -0.9 -0.9 -0.9 -0.9 -0.9 -0.9 -0.9 -0.9 -0.9 -0.9 -0.9 -0.9 -0.9 -0.9 -0.9 -0.9 -0.9 -0.9 -0.9 -0.9 -0.9 -0.9 -0.9 -0.9 -0.9 -0.9 -0.9 -0.9 -0.9 -0.9 -0.9 -0.9 -0.9 -0.9 -0.9 -0.9 -0.9 -0.9 -0.9 -0.9 -0.9 -0.9 -0.9 -0.9 -0.9 -0.9 -0.9 -0.9 -0.9 -0.9 -0.9 -0.9 -0.9 -0.9 -0.9 -0.9 18.5 28.3 31.2 33.3 38 43.3 52.4 60 63.7 65.8 68.3 74.5 87.8 102.6 115.1 125.7 135.3 143.7 144.5 148.5 148 145.5 143.1 139.5 135.4 125.7 123.9 121.4 121.4 121.4 124.4 127.6 122.5 124.2 124.5 124.1 117.2 105.1 100.1 97.8 95.9 95.1 93.5 95.4 94.9 90.1 89.6 88.5 89.6 87.9 84 81.8 75.6 65.8 58.9 51 40.4 39.5 42.8 46 53.1 57.1 60.3 64.8 66.5 66.5 64.9 67.3 63.8 60.2 65.8 73.5 79.7 83.1 88.2 91.3 99.6 105.9 109.9 112.3 120.7 132.8 142.6 150.4 158.6 164.3 171.6 177.6 183 187.1 194.2 201.1 207.3 208.8 205.3 199.4 195.8 186.4 182.1 179.2 175.2 169.1 162 151.1
-0.9 -0.9 -0.9 -0.9 -0.9 -0.9 -0.9 -0.9 -0.9 -0.9 -0.9 -0.9 -0.9 -0.9 -0.9 -0.9 -0.9 -0.9 -0.9 -0.9 -0.9 -0.9 -0.9 -0.9 -0.9 -0.9 -0.9 -0.9 -0.9 -0.9 -0.9 -0.9 -0.9 -0.9 -0.9 -0.9 -0.9 -0.9 -0.9 -0.9 -0.9 -0.9 -0.9 -0.9 -0.9 -0.9 -0.9 -0.9 -0.9 -0.9 -0.9 -0.9 -0.9 -0.9 -0.9 -0.9 -0.9 -0.9 -0.9 -0.9 -0.9 -0.9 -0.9 -0.9 -0.9 -0.9 -0.9 -0.9 -0.9 -0.9 -0.9 -0.9 -0.9 -0.9 -0.9 -0.9 -0.9 -0.9 -0.9 -0.9 -0.9 -0.9 -0.9 -0.9 -0.9 -0.9 -0.9 -0.9 -0.9 -0.9 -0.9 -0.9 -0.9 -0.9 -0.9 -0.9 5.2 25.9 29 31.9 37 42.7 52.7 59.6 62.8 64.8 67.4 75.6 88.5 102.1 114.5 125.7 139.3 147.5 149.8 152.1 153.2 147.9 145.6 140 134.2 126.7 123.5 121.4 121.4 121.4 121.4 128.6 123.4 126.1 125.8 125.3 117.7 106.1 100.2 97.9 95.7 95.3 95.9 94.5 91.8 89.9 88.6 88.2 88.1 86.3 82.3 80.3 77.3 71.2 61.5 53.8 42.8 37 38.5 44.3 48.3 55.1 59.2 62.5 61.7 61.8 60.7 60.7 55 63.1 69 77.8 83.7 86.3 91 97 103.8 108.5 113.4 116.8 120 128.5 142.9 152.5 160 165.5 173.4 178.3 182.8 190.4 196.1 202.7 208.7 209.1 204 195.4 191 184.3 179.9 175.6 170.7 164 156.2 146.8
-0.9 -0.9 -0.9 -0.9 -0.9 -0.9 -0.9 -0.9 -0.9 -0.9 -0.9 -0.9 -0.9 -0.9 -0.9 -0.9 -0.9 -0.9 -0.9 -0.9 -0.9 -0.9 -0.9 -0.9 -0.9 -0.9 -0.9 -0.9 -0.9 -0.9 -0.9 -0.9 -0.9 -0.9 -0.9 -0.9 -0.9 -0.9 -0.9 -0.9 -0.9 -0.9 -0.9 -0.9 -0.9 -0.9 -0.9 -0.9 -0.9 -0.9 -0.9 -0.9 -0.9 -0.9 -0.9 -0.9 -0.9 -0.9 -0.9 -0.9 -0.9 -0.9 -0.9 -0.9 -0.9 -0.9 -0.9 -0.9 -0.9 -0.9 -0.9 -0.9 -0.9 -0.9 -0.9 -0.9 -0.9 -0.9 -0.9 -0.9 -0.9 -0.9 -0.9 -0.9 -0.9 -0.9 -0.9 -0.9 -0.9 -0.9 -0.9 -0.9 -0.9 -0.9 -0.9 -0.9 10 20 26 31.1 34.8 41.5 51.7 58.2 62 63.4 65 76.5 87.6 101.3 113.1 124.9 140.7 152.3 154.6 154.1 156.4 152.9 151.5 144.3 136.8 128.6 125.3 122.2 121.5 121.4 121.4 127.3 123.7 126.6 127.5 127.3 117.8 108.2 101 99.1 96.6 97.1 95.7 94 92.5 89.4 87.5 87.6 88.8 88.1 86.6 84.3 82.1 74.5 65.1 56 45.6 37.6 36.3 40.6 47 51.5 55.7 56.6 57.5 56.2 50.8 55.9 60.3 64.1 70.9 79 82.6 86.7 92.5 100.4 106.8 111.4 116.6 122.3 128.3 133 141.2 151.2 160.2 165.7 174.1 180.8 185.6 192 198.2 204.6 208.3 207.2 198.5 190.9 184.3 181.2 177 171.4 164.1 157.8 150.1 141.8
-0.9 -0.9 -0.9 -0.9 -0.9 -0.9 -0.9 -0.9 -0.9 -0.9 -0.9 -0.9 -0.9 -0.9 -0.9 -0.9 -0.9 -0.9 -0.9 -0.9 -0.9 -0.9 -0.9 -0.9 -0.9 -0.9 -0.9 -0.9 -0.9 -0.9 -0.9 -0.9 -0.9 -0.9 -0.9 -0.9 -0.9 -0.9 -0.9 -0.9 -0.9 -0.9 -0.9 -0.9 -0.9 -0.9 -0.9 -0.9 -0.9 -0.9 -0.9 -0.9 -0.9 -0.9 -0.9 -0.9 -0.9 -0.9 -0.9 -0.9 -0.9 -0.9 -0.9 -0.9 -0.9 -0.9 -0.9 -0.9 -0.9 -0.9 -0.9 -0.9 -0.9 -0.9 -0.9 -0.9 -0.9 -0.9 -0.9 -0.9 -0.9 -0.9 -0.9 -0.9 -0.9 -0.9 -0.9 -0.9 -0.9 -0.9 -0.9 -0.9 -0.9 -0.9 -0.9 -0.9 8.5 17.8 24.1 28.5 32.1 40.1 50.8 56.1 61.1 62.4 64.7 74.6 87.5 101 111.5 124.1 142.3 153.9 157.7 156.6 158.4 156.8 156 147.4 139.1 133.4 128 123.8 122.3 121.4 121.4 125.5 124.5 127.7 128.6 128 118.1 109.2 101.4 100.8 101.9 101.1 96.3 94.8 91.3 88.9 88.1 88 88.5 88.6 90.6 90.5 85.8 79 68.9 57.9 50.8 40.4 36.1 37.8 41.6 44.5 47.5 51.1 51.3 45.4 54.1 57.1 61.5 65.3 69.4 76.5 82.8 86.9 92.7 102 108.4 113.9 119.4 125.3 131.7 139 144.7 152.8 160.6 168 176 181.5 187.8 192.7 198.3 203.5 207.7 203.1 193.7 186.7 181.9 177.8 171.8 167 160.1 151.2 145.3 137.9
-0.9 -0.9 -0.9 -0.9 -0.9 -0.9 -0.9 -0.9 -0.9 -0.9 -0.9 -0.9 -0.9 -0.9 -0.9 -0.9 -0.9 -0.9 -0.9 -0.9 -0.9 -0.9 -0.9 -0.9 -0.9 -0.9 -0.9 -0.9 -0.9 -0.9 -0.9 -0.9 -0.9 -0.9 -0.9 -0.9 -0.9 -0.9 -0.9 -0.9 -0.9 -0.9 -0.9 -0.9 -0.9 -0.9 -0.9 -0.9 -0.9 -0.9 -0.9 -0.9 -0.9 -0.9 -0.9 -0.9 -0.9 -0.9 -0.9 -0.9 -0.9 -0.9 -0.9 -0.9 -0.9 -0.9 -0.9 -0.9 -0.9 -0.9 -0.9 -0.9 -0.9 -0.9 -0.9 -0.9 -0.9 -0.9 -0.9 -0.9 -0.9 -0.9 -0.9 -0.9 -0.9 -0.9 -0.9 -0.9 -0.9 -0.9 -0.9 -0.9 -0.9 -0.9 -0.9 -0.9 6 13.1 21.2 26.6 32.4 40.4 49.3 55.9 59.4 61.1 64.3 70.3 84.9 98.5 108.8 121 141.5 155.3 160.3 157.7 159.1 158.9 157.6 148.6 141.1 133.7 128.6 125.7 125.3 121.4 121.4 124.1 125 128.3 129.8 127.1 117.8 109.7 102.4 101.3 103.8 103.3 96.5 94.8 93.4 88.4 87.6 87.4 88.1 90.9 93.2 92.7 87.4 80.7 74.6 63.2 54.8 45 36.3 36.5 38.9 41.4 43 43.6 43.4 47.7 52.8 57.2 61.9 64.8 71.2 80.1 83.8 88.8 96.4 104.2 109.9 116 122 129 135.8 143.1 148.4 155.7 162.2 170.1 178.3 184.7 189.7 194.3 198.3 200.3 201.9 196.8 188.8 181.5 176.8 172.3 165.7 159.1 154.3 147.4 140 133.1
-0.9 -0.9 -0.9 -0.9 -0.9 -0.9 -0.9 -0.9 -0.9 -0.9 -0.9 -0.9 -0.9 -0.9 -0.9 -0.9 -0.9 -0.9 -0.9 -0.9 -0.9 -0.9 -0.9 -0.9 -0.9 -0.9 -0.9 -0.9 -0.9 -0.9 -0.9 -0.9 -0.9 -0.9 -0.9 -0.9 -0.9 -0.9 -0.9 -0.9 -0.9 -0.9 -0.9 -0.9 -0.9 -0.9 -0.9 -0.9 -0.9 -0.9 -0.9 -0.9 -0.9 -0.9 -0.9 -0.9 -0.9 -0.9 -0.9 -0.9 -0.9 -0.9 -0.9 -0.9 -0.9 -0.9 -0.9 -0.9 -0.9 -0.9 -0.9 -0.9 -0.9 -0.9 -0.9 -0.9 -0.9 -0.9 -0.9 -0.9 -0.9 -0.9 -0.9 -0.9 -0.9 -0.9 -0.9 -0.9 -0.9 -0.9 -0.9 -0.9 -0.9 -0.9 -0.9 -0.9 -0.9 8.7 16.1 23.1 29.4 39.3 46.9 51.9 57.5 59.2 61 67 80.5 95.2 107.7 119.5 140.9 156.6 162.1 159 161.5 159.5 158 147.5 140.4 134.3 129.1 126.2 125.9 123.8 123.8 123.6 125 126.9 129.2 125.9 116.2 109.4 105 102.3 100.8 102.8 98.9 95.4 93 88.1 86.5 87.1 89.1 93.5 95 93.6 86.9 80.5 78.6 71.3 60.8 50.5 40.1 33.5 38 39.7 39.6 39.3 44.5 48.7 53.8 58 61.6 65.7 72.3 79.7 84.1 92.4 101.7 108.8 114.3 119.8 125.3 133.3 140 147.8 153.3 159.9 165.6 172.8 180.9 186.9 190.8 195.1 198.7 197.9 194 189.7 184 177.8 172.5 166.1 159.6 151.7 146.8 141.4 134.4 129
-0.9 -0.9 -0.9 -0.9 -0.9 -0.9 -0.9 -0.9 -0.9 -0.9 -0.9 -0.9 -0.9 -0.9 -0.9 -0.9 -0.9 -0.9 -0.9 -0.9 -0.9 -0.9 -0.9 -0.9 -0.9 -0.9 -0.9 -0.9 -0.9 -0.9 -0.9 -0.9 -0.9 -0.9 -0.9 -0.9 -0.9 -0.9 -0.9 -0.9 -0.9 -0.9 -0.9 -0.9 -0.9 -0.9 -0.9 -0.9 -0.9 -0.9 -0.9 -0.9 -0.9 -0.9 -0.9 -0.9 -0.9 -0.9 -0.9 -0.9 -0.9 -0.9 -0.9 -0.9 -0.9 -0.9 -0.9 -0.9 -0.9 -0.9 -0.9 -0.9 -0.9 -0.9 -0.9 -0.9 -0.9 -0.9 -0.9 -0.9 -0.9 -0.9 -0.9 -0.9 -0.9 -0.9 -0.9 -0.9 -0.9 -0.9 -0.9 -0.9 -0.9 -0.9 -0.9 -0.9 -0.9 -0.9 12.8 19.5 27.4 37.8 42.9 47.3 53.6 55.5 57.4 61 77.8 89.7 102.6 119.1 141.1 157.1 162.8 161.8 162.3 160.1 157.1 149.6 141.6 133.2 128.9 126.9 126.5 124.9 124.9 124.2 124.1 124.9 126.8 125.4 116.6 108.4 105.4 102.2 100.6 100.2 99.3 96.5 92.2 87.2 85.8 86.9 90.2 93.8 95.8 92.1 86.6 82.6 79.8 73.4 64.9 55.4 42.7 32.4 37.6 37.8 35.8 40.7 44.4 49.2 54.9 58.6 61.5 65.5 73 80.3 86.3 95.7 104.5 112.5 118.5 124.3 130.2 137.1 145 151 156.3 163.2 170.7 177.5 183.6 188.5 193.5 196.6 198.2 197.3 191.5 184.6 179.4 173.7 166.1 157.6 150.5 147.2 141.3 132.2 126.9 125.1
-0.9 -0.9 -0.9 -0.9 -0.9 -0.9 -0.9 -0.9 -0.9 -0.9 -0.9 -0.9 -0.9 -0.9 -0.9 -0.9 -0.9 -0.9 -0.9 -0.9 -0.9 -0.9 -0.9 -0.9 -0.9 -0.9 -0.9 -0.9 -0.9 -0.9 -0.9 -0.9 -0.9 -0.9 -0.9 -0.9 -0.9 -0.9 -0.9 -0.9 -0.9 -0.9 -0.9 -0.9 -0.9 -0.9 -0.9 -0.9 -0.9 -0.9 -0.9 -0.9 -0.9 -0.9 -0.9 -0.9 -0.9 -0.9 -0.9 -0.9 -0.9 -0.9 -0.9 -0.9 -0.9 -0.9 -0.9 -0.9 -0.9 -0.9 -0.9 -0.9 -0.9 -0.9 -0.9 -0.9 -0.9 -0.9 -0.9 -0.9 -0.9 -0.9 -0.9 -0.9 -0.9 -0.9 -0.9 -0.9 -0.9 -0.9 -0.9 -0.9 -0.9 -0.9 -0.9 -0.9 -0.9 -0.9 9.4 15.3 21.8 33.9 39.8 42.5 47.6 51.4 53 54.6 71.1 86.1 101.5 118.5 137.8 154.1 162.6 162.5 161.3 160 155.9 148.5 142 133.5 127.3 126.8 126.9 125.3 124 124.6 124.2 123.8 125.3 124.1 113.7 108.7 105.5 103.2 100.7 98.9 99 97.1 92.5 88 85.2 88.5 91.7 93.3 94.8 90.9 87 82.4 79.3 73.9 67 58.5 47.3 32 35.5 35 35.7 38.4 44.2 49.4 55.3 58.6 60.7 65.3 74.5 81.7 89.2 99.3 106.6 115.7 120.2 127.5 133.8 141.5 148.2 153.8 158.3 165.2 173.5 179.8 185.1 189.4 193.6 197 197.1 194.3 186.2 179.7 173.5 167.6 158.7 149.9 144.6 140.6 135.4 129.9 125.2 122.6
-0.9 -0.9 -0.9 -0.9 -0.9 -0.9 -0.9 -0.9 -0.9 -0.9 -0.9 -0.9 -0.9 -0.9 -0.9 -0.9 -0.9 -0.9 -0.9 -0.9 -0.9 -0.9 -0.9 -0.9 -0.9 -0.9 -0.9 -0.9 -0.9 -0.9 -0.9 -0.9 -0.9 -0.9 -0.9 -0.9 -0.9 -0.9 -0.9 -0.9 -0.9 -0.9 -0.9 -0.9 -0.9 -0.9 -0.9 -0.9 -0.9 -0.9 -0.9 -0.9 -0.9 -0.9 -0.9 -0.9 -0.9 -0.9 -0.9 -0.9 -0.9 -0.9 -0.9 -0.9 -0.9 -0.9 -0.9 -0.9 -0.9 -0.9 -0.9 -0.9 -0.9 -0.9 -0.9 -0.9 -0.9 -0.9 -0.9 -0.9 -0.9 -0.9 -0.9 -0.9 -0.9 -0.9 -0.9 -0.9 -0.9 -0.9 -0.9 -0.9 -0.9 -0.9 -0.9 -0.9 -0.9 -0.9 -0.9 11.6 18.7 29.4 36.4 38.7 42.6 46 48.3 50.6 62.8 81.9 98.9 117.6 131.5 149.5 161.9 163.8 162.2 160.2 155.7 148.2 140.9 133 129.6 126.6 126.7 126.3 124.3 123.2 123.5 123 123.8 121.2 112.8 108.5 105.5 103.4 100.8 100.6 98.4 97.1 92.5 88 83.7 88.8 91.7 92 93.4 91.1 87.2 82.8 77.8 73.8 67.3 57.2 48.3 36.4 31.1 32.7 37.2 38.2 43.5 49.6 55.4 57.8 60.4 65.8 75.4 82.3 91.6 100.3 111.3 118.1 123.7 130.7 139.3 145.8 152.6 156.2 161.1 168.1 174.1 181.1 186.4 189.9 193.4 196 194.8 191 180.8 175.1 168.6 163 154.2 145 141.2 136.2 130.9 128.8 123.2 121.5
-0.9 -0.9 -0.9 -0.9 -0.9 -0.9 -0.9 -0.9 -0.9 -0.9 -0.9 -0.9 -0.9 -0.9 -0.9 -0.9 -0.9 -0.9 -0.9 -0.9 -0.9 -0.9 -0.9 -0.9 -0.9 -0.9 -0.9 -0.9 -0.9 -0.9 -0.9 -0.9 -0.9 -0.9 -0.9 -0.9 -0.9 -0.9 -0.9 -0.9 -0.9 -0.9 -0.9 -0.9 -0.9 -0.9 -0.9 -0.9 -0.9 -0.9 -0.9 -0.9 -0.9 -0.9 -0.9 -0.9 -0.9 -0.9 -0.9 -0.9 -0.9 -0.9 -0.9 -0.9 -0.9 -0.9 -0.9 -0.9 -0.9 -0.9 -0.9 -0.9 -0.9 -0.9 -0.9 -0.9 -0.9 -0.9 -0.9 -0.9 -0.9 -0.9 -0.9 -0.9 -0.9 -0.9 -0.9 -0.9 -0.9 -0.9 -0.9 -0.9 -0.9 -0.9 -0.9 -0.9 -0.9 -0.9 -0.9 -0.9 15.7 23.9 32 34.5 39 41 42 45.4 57.7 76.5 96.7 115 129.7 144.9 159.6 163.4 162 159.2 155.8 148.7 141.1 133.5 128.3 127.3 127.2 124.8 124.5 124.2 122.5 122.5 122.5 118 112.2 108.9 106.2 104.6 101.8 98.3 97.6 94.7 90.6 88 83 88.3 89.1 90.4 90.6 89.1 85.2 79.5 75.1 70.8 64.1 55.2 45.5 35.8 30.3 31.6 35.4 37.8 42 47.5 52.8 55.4 60.7 66.1 76.1 82.4 92.3 102 113.2 120.4 128.1 135 143.5 149.7 154.6 159.8 164.5 170.7 177.1 183.4 186.9 189.8 192.4 193 190.9 184.1 176.6 170.3 164.2 157.9 150.7 146.5 140.6 135.2 129.7 126.6 123.3 121.8
