ncols 200
nrows 87
xllcorner 460000
yllcorner 184500
cellsize 50
47 47.1 47 47 47 47 46.9 46.7 46.9 46.9 46.8 46.5 46.3 46.3 45.6 44.8 44 41.3 41.3 43.3 43.5 43.6 43.8 44.4 45.5 46.2 46.6 46.8 46.9 47.1 47.5 47.9 48.3 48.8 49.3 49.8 50.4 51.1 51.8 52.2 52.4 53 53.9 54.8 55.8 56.9 59.7 62.3 65 67.2 69.5 70.2 73.1 75.5 78.7 81.2 82.6 83.4 83.6 83.9 83.3 82.1 80.6 79.4 79.4 81.7 85 88.6 93.3 94.9 94.5 94.6 93.9 94.2 95.1 96.2 97 97.7 98.6 100.7 101.8 102.4 100.5 100.9 101.2 101.3 103 104.9 106.9 108.5 109.9 111.2 112.6 113.3 113.6 112.3 110.3 107 107 107.9 109.1 110.1 111.4 112 112.8 113.8 113.9 114.1 115.3 115.9 116.1 117.8 119.5 122.2 124.8 127.3 130.4 133.3 136.6 140.2 144.4 148.8 153.3 157.7 162.8 165.2 166.9 168.9 171.3 172.3 171.1 169.8 170 171.7 172.3 171.8 172.2 172.8 174.8 177.9 181.6 184.4 187.1 188.8 190.2 191.4 192.8 196.5 199.7 201.3 201.9 203.1 206.3 209.1 210.3 210.8 210.9 210.2 209.4 208.8 209.3 209.8 210.3 210.8 210.8 210.4 210.4 210.3 209.9 209.4 208.8 208.6 208.8 208.7 208.1 207.3 206.7 206.5 206 205.2 204.5 203.8 203 202.4 202.3 201.6 200.8 200 199.1 197.8 196.5 195.4 194.4 193.2 192.9 192.4 190.3 187.7 183.8 178.8
47.2 47.7 47.7 47.9 47 46.9 46.7 46.5 46.7 46.8 46.6 46.2 46 45.8 45.3 45 43.9 43.2 42.1 43.4 43.5 43.7 44 44.7 45.5 46.3 46.6 46.9 47.1 47.5 47.9 48.3 48.7 49.2 49.7 50.3 50.8 51.5 52.1 52.4 52.9 53.9 55.3 56.6 57.7 58.6 61.6 64.2 66.6 68.8 72.6 73.6 78.5 80.6 82.6 83.8 84.8 85.3 85.5 85.3 84.1 82.9 81.7 80.8 80.4 81.3 84 87.5 91.1 92.3 92.3 92.7 92.8 93.6 94.6 95.9 97.2 97.7 98.5 100.5 100.7 101.8 102 101.4 101.9 102.1 103.5 104.9 106.6 107.2 108.4 109.7 110.5 112.5 111.3 108.4 105.9 106.3 108.6 109.5 110.5 111.9 113.3 114.1 115.1 116 116.6 116.4 116.3 116.3 116.1 116.5 118.4 119.6 122.6 126 128 131.1 134.4 138.4 142.4 146.8 151.5 155.4 158.4 160 161.2 163.2 165.7 166.7 164.9 164.3 165.3 166.6 166.6 166.1 166.2 167.3 170 173.2 176.8 179.7 181.9 183.3 184.6 186.1 187.6 190.7 193.2 194.7 196.5 198.1 203.4 207 208.7 209.5 208.8 208.1 206.8 205.3 206.2 207.6 208.7 209.3 209.2 209.1 209.1 209.2 209.2 208.7 208.2 207.9 208.1 208.3 206.9 205.9 205.7 205.8 205.4 204.7 204 203.2 202.5 201.7 201.2 201 199.8 199.4 198.1 197.2 196.1 194.5 192.7 191.8 191.5 191 189.8 188.5 185.4 181.3
47.6 47.6 47 46.7 46.9 47.2 47.7 47.1 47 46.5 46.3 45.4 45.6 45.6 45.5 45 43.8 41.3 43.3 43.5 43.7 44 44.8 45.4 45.9 46.4 46.8 47.1 47.5 47.9 48.3 48.7 49.1 49.7 50.2 50.8 51.3 51.9 52.3 52.8 53.9 54.8 56 57.4 58.7 60.9 63.5 66 68.5 71.9 75.7 77.9 81.1 82.5 84.7 85.9 86.9 87 87.1 86.8 85.6 84.4 83.4 83.1 82.6 82.6 83.3 85.8 89.2 89.8 90.7 91.9 92.5 93.1 94.3 95.7 97.4 98.1 98.6 99.4 100.7 101.6 102.1 102.5 103.1 103 104.2 105.6 105.9 106.1 106.7 107.3 108.3 107.4 105.6 104.7 105.9 108.2 110.8 111.7 112.8 114.2 115.3 116.2 117 118.2 119.6 119.4 119.5 119.4 118.7 118.2 117.8 118.4 120 123.1 126.2 129 132.5 136.6 140.9 144.8 148.3 151.6 154.8 156.4 157.2 158.2 160.1 160.9 159.8 158.8 160.2 161.5 161.4 161.4 161.4 162.2 165.3 168.8 171.7 173.5 175.4 177.6 179.5 181 181.9 184.1 186.2 187.1 188.2 193.5 199.3 204.1 207.2 208.1 206.9 204.4 202.2 200.6 202.8 205 206.6 207.8 207.7 207.8 208.3 208.4 208.1 208 207.6 207.4 207.4 207.4 206.8 205.6 205.1 205.1 205 204.2 203.5 202.7 201.9 201.1 200.1 199.5 199.2 198 197.1 196.1 194.4 192.5 190.3 189.3 188.6 188.2 187.7 187.7 185.9 183.2
47.7 47.3 47 46.7 46.7 47 47.4 47 47 46.3 46.4 45.7 44.5 44.2 44 43.4 43.5 41.3 43.3 43.6 43.8 44.9 45.7 46.2 46.6 47.1 47.5 47.9 48.2 48.5 48.9 49.2 49.7 50.2 50.8 51.3 51.8 52.2 52.6 53.7 54.8 55.7 56.7 58.1 60.2 62.4 65.7 68.1 70.7 74.6 78 81 83.5 85.2 86.8 88 88.8 88.9 88.7 88.3 87.2 86.1 85.7 85.4 85 84.6 85.4 86.3 87.3 89.1 90.7 92.3 93 93.7 94.5 95.5 97.2 98.6 99.1 99.7 100.4 101.3 101.7 102.1 102.9 104 104.9 105.1 105.3 105.3 105 104.3 103.9 103.4 104 106.1 108 110.2 112.7 113.9 115 116.1 117.2 118 119 120.7 122 122.6 122.7 122.3 121.5 120.7 120.5 120.6 119 120.2 123.9 127.4 131 135.7 140 143 145.2 148.1 151.2 152.3 152.7 154 156 156.1 155 154.4 155.4 156.4 157 157 156.9 157.6 160.7 164 166.1 167.7 169.6 171.8 174.5 175.7 176.7 178 179.3 179.5 181.2 187.5 194.7 200.6 205.3 207.2 205.2 201 197.2 196.6 199.7 202.2 203.9 205.5 206.2 206.4 206.8 207.2 207 206.9 206.8 206.8 206.7 206.6 206.7 205.7 204.8 204.5 204.4 203.7 203 202.2 201.4 200.5 199.2 198.6 197.8 196.7 195.7 194 192.7 189.8 186.6 185.1 184 183.5 183.3 184.5 184.3 182.9
47.5 47.3 47 46.7 46.5 46.7 47.1 47.2 46.9 46.1 46.6 46.2 45.2 44.4 44.2 43.5 42.9 41.3 43.7 44.1 44.6 45.8 46.3 46.8 47.2 47.6 48.1 48.4 48.9 49.3 49.6 49.7 49.7 50.8 51.3 51.8 52.1 52.5 53.3 54.1 55.2 56.2 57.7 60.7 63.6 65.3 67.6 70.3 73.4 76.8 80.2 83.5 85.6 87.2 88.9 90.2 90.8 91.1 90.4 89.6 88.7 88.4 88 87.5 87.1 86.7 87.3 88.1 89 90 91.1 92.7 93.5 94.2 95.1 95.7 97.4 98.9 98.6 99.4 100.2 100.7 101.1 101.6 102.3 103.3 104 104.6 104.8 104.2 102.6 102 102.8 103.8 105.7 107.9 110 112.1 114.2 115.4 116.8 118 119 119.9 121.5 123.1 124 125.1 125.5 125.3 124.9 124.1 123.9 124.1 121.8 120.1 121.3 125.1 129.9 134.2 138.1 141 143.7 146.4 148.3 148.6 148.9 150.1 151.4 151.3 150.3 150.1 151 152 152.5 152.5 152.5 153.8 156.4 159.4 161.3 162.6 163.9 166.5 169.4 170.7 171.6 172.8 174.1 174.7 177.5 183.4 190.7 197 201.7 204 201.4 197.1 193 193.2 196.4 199.3 201.1 202.8 204.2 204.7 205 205.6 205.8 205.6 205.3 205.4 205.6 205.7 205.8 205.6 204.8 204.4 203.9 203.2 202.4 201.6 200.8 199.8 198.2 197.3 196.1 195 193.5 190.8 189.1 186.1 182 179.3 176.9 175.6 177.9 178.8 180.8 180.1
47.3 47.1 46.9 46.6 46.3 46.5 46.7 46.9 46.9 45.9 47 46.4 45.7 45 44.3 43.6 41.3 42 44.1 44.9 45.5 46.2 46.4 46.8 47.2 47.7 48.1 48.4 48.8 49.2 49.6 49.8 50 50.8 51.7 52.1 52.4 53.1 53.9 54.7 56.5 57.3 59 62.2 65.5 68.9 70.3 73.1 76.6 79.6 82 84.7 87.5 89.1 90.9 92.1 91.3 91.3 91.4 90.6 89.8 89.4 89.4 88.9 88.5 87.9 88.6 89.6 90.5 91.1 91.6 92.4 93.9 94.7 95.3 95.8 97.4 99.5 99.2 98.9 99.2 99.6 99.6 100 100.7 101.2 101.8 102.4 102.9 101.6 101.3 102.2 104.1 105.7 107.5 109.1 109.8 112.9 115.2 116.9 118.4 119.8 120.5 121.2 123.1 124.6 125.2 126.4 128.2 128.2 127.9 127.5 127.4 127.5 126.4 123.3 120.9 123.1 128.1 132.6 136.2 139.2 142.2 144 145 144.9 144.8 145.7 146.9 146.8 146.1 145.8 146.7 147.5 148.1 148.1 148.2 150 152.4 154.9 156.6 158.4 160.3 162.7 164.8 166.3 167.4 168.3 169.1 170.9 175.3 180.3 186.9 192.8 197.4 199.4 197.7 193.3 188.9 190.6 193.9 195.6 197.6 199.6 201.1 202.9 203.6 203.6 203.5 204.4 204.6 204.9 205.1 205.1 205.1 205 204.6 204 203.4 202.6 201.8 201 200.2 199 197.7 196.4 195.2 193.5 191.5 189.3 188.2 187.3 185.2 183.3 180.4 176.4 171.2 170.8 172.6 174.3
47.1 46.9 46.7 46.5 46.3 46.3 46.4 46.7 46.8 46.5 46.4 46 45.3 44.7 44.1 43.2 41.3 43.2 43.9 45 46.1 46.5 46.7 46.9 47.3 47.7 48.2 48.4 48.7 49.1 49.4 49.6 51.1 52.5 52.7 52.6 52.9 53.7 54.5 55.7 57.5 58.3 61.1 64.5 67.9 71.3 72.7 76.6 79.7 82 84.4 87 89.6 91.5 92.7 93.1 92.8 91.6 91.8 91.5 90.8 90 89.9 89.9 89.9 89.6 89.1 89.8 90.6 90.6 90.6 91.3 92.6 93.7 94.6 95.5 97 98.8 98.8 98.8 98.7 98.5 98.6 98.9 100 99.9 99.6 100.1 100.1 100.2 101.6 103.7 105.8 107.2 108.4 109.3 110.2 112.6 114.8 115.9 117.6 118.7 119.2 120.3 121.8 123.5 125.3 127.8 130.1 131.8 131.8 132 132.1 131.7 130.6 127.2 123.6 122.6 125.4 130.3 134 137.8 139.4 140.2 140.3 140.1 140.4 140.9 142.6 142.7 142 141.5 142.5 143.2 143.6 143.9 144.3 146.1 148.5 150.8 153 154.8 156.8 159.2 161.4 163 164 164.9 165.1 168 173.1 178.1 182.5 188 193.1 195 193.6 189.4 185.1 188.1 189.8 190.7 192.4 193.2 196.1 198.5 200.1 200.4 201.5 203.5 203.8 204.5 204.6 204.8 204.7 204.6 204 203.3 202.6 201.7 200.9 200.2 199.7 199.1 197.8 196.5 195.4 194 193.5 192.9 192 190.2 188.8 187.1 184.2 180.1 175.3 172.5 166.9 164.3
46.8 46.6 46.4 46.2 46.1 46.2 46.5 46.7 46.8 46.5 46 45.5 45 44.5 43.8 42.9 41.3 43.3 44.4 46 46.5 46.8 46.9 47.1 47.4 47.8 48.2 48.4 48.7 49 49.8 50.8 51.7 52.6 53.2 53.1 53.5 54.3 55.4 57.4 58.6 60.6 63.5 66.9 70.4 73.9 79.2 79.9 82.4 84.5 86.7 89.3 91.6 92.3 93 93.1 93.1 93.2 92.4 92.4 91.7 91 90.3 90.4 90.5 91.2 91 90.7 90.6 90.6 90.5 90.8 91.5 92.4 94.2 95.8 96.9 98 98.4 98.7 98.3 97.8 98 98.7 99.6 99.2 98.4 98.4 100.2 101.9 104.1 105.8 107.2 108 108.7 109.4 110.3 111.2 114.4 114.7 115.8 116.9 117.9 119.8 121.6 123.3 125.3 128.5 131.7 134.1 136.2 136.7 136.5 135.9 134.5 130.9 126.9 124 124.1 126.9 131.1 133.2 134.3 135 135.1 135.5 136.5 136.1 137.4 137.7 137.6 137.3 138.1 139.6 141.9 141.9 142.3 142.8 144.7 146.9 149.4 151.1 153.2 155.6 157.8 159.6 160.6 161.6 164.3 167.5 171.5 175.9 180.9 185.9 188.6 191 189.3 184.8 180.7 180 180.9 183.8 186.2 189.9 193.1 196.2 197.7 199 201.3 203.2 204.5 204.7 204.4 204.3 204.4 204 203.3 202.6 201.7 200.7 200.1 199.6 199.1 198.6 197.9 197.1 196.3 195.5 194.6 193.9 193.1 191.7 190.4 188.7 186.9 184 180.8 179 174.3 169.9
46.5 46.4 46.4 46.3 46.2 46.3 46.6 46.7 46.7 46.5 46 45.4 44.9 44.3 43.5 41.3 43.2 43.7 44.7 46.6 46.9 47 47.1 47.3 47.5 47.8 48.2 48.5 48.9 49.6 50.3 51 51.8 52.7 53.6 53.6 54.3 55.3 57.3 58.3 60.5 63 66.3 69.7 73.2 76.6 80.5 82 85 87 89.1 91.3 92.3 92.9 93 92.9 93 93.2 93.4 93.1 92.6 92 91.5 91 91 91.1 91 90.8 90.6 90.7 91 91.4 91.8 92.7 95 95.8 96.7 97.7 98.4 98.5 97.9 97.3 97.8 98.4 99.1 98.4 97.4 99.8 101.9 103.6 105.6 106.5 107.4 108.1 108.6 109.2 110.2 111.1 112 113.4 114.5 115.9 117.5 119.5 121.4 123.3 125.9 129 132.7 136.8 139.3 140 140.3 139 137.1 133.9 129.8 126.8 125.4 124.8 126.2 127.5 132.8 129.5 130.5 132.2 132.2 132.4 133.2 134.3 135.8 137.5 139.6 141 142.1 142.9 144.5 146.1 145.9 146.4 148 148.1 149.6 152.1 154.2 156.2 158.3 161.9 165 168.6 172 175.7 179.5 182.4 184 184.2 182.2 177.9 181.7 185.2 187.7 190.7 193 195.3 197.7 200.2 201.7 203.3 204.1 204.2 205.1 204.8 204.6 204.3 204 203.2 202.4 201.5 200.6 200 199.5 199 198.5 197.9 197.4 196.8 196.1 195.5 194.8 194 193 191.9 190.8 190 188.4 187 184.9 182.7 180 175.8
46.9 46.5 46.4 46.3 46.2 46.4 46.7 46.7 46.5 46.1 45.6 45 44.6 44.2 43.4 41.3 43.4 43.8 45.2 46.7 47 47.2 47.3 47.5 47.7 47.9 48.4 49 49.6 50.3 51.1 51.8 52.6 53.3 54 54.8 55.4 56.9 58.6 60.7 63.2 66.1 69.7 73.4 76.9 80.1 83.2 86.4 87.7 89.6 91.1 92.2 92.7 92.8 92.8 92.7 92.8 93 93.2 93.1 92.5 92 91.8 91.5 91.3 91.3 91.1 90.9 91 91.3 91.6 92 92.3 93.2 94.3 95.1 95.7 97 98 98.3 97.8 97.8 98.7 97.8 97 96.7 98.7 101.5 103.4 104.6 106.2 107 107.4 107.7 108.3 108.8 109.7 110.5 111.6 113.1 114.3 115.8 117.9 121.1 123.3 125.3 127.6 130.9 134.2 138.8 141.8 142.5 142.7 141.2 139.3 135.9 132.5 129.4 128.2 127.6 127.6 128.1 128.3 133.4 130.3 132.6 133.5 134.9 136 137.9 139.4 141.7 143.7 144.5 143.8 143.2 146.3 150.1 150.5 150.5 149.9 149.9 149 149.2 150.9 154.7 158.7 163.1 166.5 170.1 173.4 175.4 177.2 177.5 177.2 176.5 173.2 182.7 186.2 191.2 193.5 195.3 197.4 199 201.1 202.6 204 204.8 204.9 205.1 205.3 205 204.8 204.5 203.7 202.6 201.4 200.2 199.4 199.1 198.7 198.2 197.4 196.5 196.7 196 195.3 194.5 194 193.6 192.8 192.1 191.2 190.2 189.3 188.7 187.4 185.3 183.1 179.7
47 46.8 46.6 46.3 46.2 46.5 46.8 46.2 45.9 45.4 45 44.7 44.4 44 43.5 41.3 43.3 43.7 45.3 46.8 47.3 47.2 47.4 47.7 48 48.4 49 49.6 50.3 51.1 51.9 52.6 53.4 54.1 54.7 55.4 56.4 59.5 61.2 63.7 66.9 69.9 73.7 77 80.2 83.3 86.5 88.7 90 91.6 92.6 92.8 92.7 92.7 92.6 92.6 92.5 92.6 92.7 92.5 92.2 91.6 91.6 91.4 91.2 91.6 91.6 91.6 91.7 91.9 92.3 92.6 92.7 92.9 93.6 94.2 94.7 95.8 97.1 97.5 97.5 97.5 96.9 96.3 96.3 98.9 101.6 103.2 104.6 105.7 106.9 106.9 106.9 107.2 107.6 108.1 108.7 109.8 111.4 113.2 114.9 117.4 120.4 124.5 127.8 129.8 130.3 132.9 136.1 140.1 143.5 144.9 145 143.4 141.2 137.9 134.7 131.9 131.3 130.7 130.3 130.6 131 131.7 135.6 136.3 138.3 139.7 140.5 141.7 143.3 145.6 147.8 148.7 147.8 145.3 147.5 151.9 154.7 156.1 156.5 155.3 154.6 152.7 150.3 154.2 159.2 163.9 167.8 170.7 172.7 174.1 173.7 172.6 169.4 174.2 182.1 185.5 190.1 195.4 198.1 200.1 201.2 202 203.1 204.5 205.1 205.7 205.8 205.8 205.5 205.2 205 204.3 203.4 202.3 201.2 200 198.6 198.2 197.8 197 195.8 195.2 195.3 195.1 194.4 193.8 193.3 192.7 192.1 191.4 191 190.1 189.3 188.6 187.7 187.2 185.1 183
46.7 46.6 46.4 46.3 46.2 46.6 46.8 46.1 45.5 45.1 44.8 44.5 44.2 43.7 43.3 42.9 43.2 43.7 45.6 46.9 47.6 47.5 47.5 47.8 48.4 49 49.7 50.2 51.1 51.9 52.6 53.4 54.2 54.9 55.4 56.4 58.4 61.8 63.9 67.3 70.5 73.8 76.9 80.1 83.4 86.5 88.9 90.7 92.2 92.8 93 92.9 92.8 92.6 92.9 92.9 92.1 92.1 92.1 91.9 91.8 91.4 91.2 91.2 91.1 91.3 91.3 91.6 91.9 92 91.9 91.8 91.7 92.2 92.8 93.1 93.3 93.6 94.2 95.1 95.2 94.8 96.2 97.2 98.8 101.5 103.2 104.5 105.9 107 107.7 107.7 107.1 106.6 107 107.5 108.2 109.5 111.3 113.4 116.9 121.2 125.6 130.2 134 135.5 135.2 136.2 138.9 142.1 145.4 147.3 147.4 145.6 143.2 139.9 136.4 134.5 133.9 133.3 133.5 133.8 134.3 133.7 135.4 137.8 140.6 141.4 143.2 145.3 146.6 149 150.9 151.3 150.2 147.7 148.3 153 156.4 159.3 161.9 162.6 161.9 158.2 152.6 154.3 159.4 164.2 167.5 170 170.6 169.6 168 166.2 175.8 178.3 183.4 188.7 193.3 196.9 199.3 201.5 202.9 203.8 204.7 205.4 206 206.6 206.4 206 205.3 205.3 204.9 204 203.1 202 200.9 199.9 198.5 197.4 196.9 195.6 194.2 193.6 193.2 192.8 192.4 191.7 191 190.5 190.3 190 189.8 189.7 189.2 188.1 187.2 186.4 185.3 183.5
47 46.2 46.5 46.4 46.1 46.6 46.7 46.3 45.8 45.1 44.6 44.3 43.9 43.5 43.1 42.9 42.3 43.9 45.8 46.8 47.6 47.6 47.9 48.1 48.7 49 49.5 50 51.4 52.5 53.4 54.2 54.9 55.6 56.8 58 61.9 64.4 66.9 70.5 74.5 78 80.9 83.7 86.6 89.2 91.2 92.9 93.2 93.3 93.1 92.9 92.8 92.7 92.9 92.4 91.8 91.6 91.5 91.4 91.2 91.1 90.8 90.8 90.4 90.3 90.3 90.5 90.6 90.8 90.9 90.9 90.8 91.3 91.3 91.4 91.8 92 92.8 93.8 94.9 96.4 98.3 100 101.6 103.2 104.7 105.9 106.5 107.8 108.5 108.1 106.9 106.4 106.4 107 108.2 109.7 111.5 115.1 120.6 126.5 131.3 135.9 138.7 139.9 140 140.6 142.3 144.7 147.6 149.7 149.8 147.9 144.8 141.3 139.2 137.4 136.4 136.6 136.7 136.8 136.9 136.6 136.4 137.7 139.2 141.2 145.9 148.1 150 151.6 153.4 153.8 153.1 150.1 149.3 153.8 157.7 161.1 164.5 166.4 166.1 161 155 155.7 159.1 163.5 165.5 166.2 165.4 165 164.6 169.8 176 179 185.1 190.3 194.7 197.8 200.4 202.2 203.5 204.6 205.2 205.8 206.4 206.4 206.7 205.8 204.9 204.6 204.3 203.6 202.7 201.7 200.6 199.5 198.1 196.9 195.7 194.8 193.8 192.3 191.3 190.2 189.5 188.5 187.2 188 188.3 188.3 188.4 188.2 187.3 186.1 184.9 184.2 182.7 180.6
45.4 45.2 46 46.6 46.5 46.8 46.5 46.3 45.9 45.2 44.7 44 43.7 43.4 43.2 43 41.3 43.7 46.1 46.5 46 47.4 47.7 47.7 48.1 49.1 49.4 50 51.5 52.7 53.7 54.8 55.7 56.5 57.7 61.3 64.5 67.4 70.6 74.1 78 81.9 84.8 87.6 90 91.9 93.5 94.1 94 93.9 93.4 93 92.8 92.8 92.4 91.9 91.4 91.1 90.9 90.8 90.7 90.5 90.2 89.7 89.5 89.3 89.2 89.3 89.4 89.5 89.7 89.9 90 89.9 90.3 91.1 92.5 94 95.2 96.3 98.6 100.2 101.2 101.4 102.8 104.1 105.5 106.5 106.9 108.4 109.2 107.9 106.8 105.9 106 107.6 109.4 110.6 112.2 115.9 122.3 129.9 135.4 139.2 141.8 143.7 144.7 145.4 147.1 149.4 150.6 152 152.1 150 147 144 142.1 140.6 139.7 139.8 139.9 140.1 139.8 139.2 138.9 139.5 141.1 142.4 145.5 149.2 151.8 152.9 156.2 156.3 155.5 152.3 150.8 154.7 158.1 161.6 165.8 168.1 167.9 163.3 158 154.8 158 160.4 161.4 161.5 162.7 164.8 167.5 171.5 175.1 181.1 187.6 192 196.8 199.1 201.1 203 204 204.8 205.4 206.1 206.3 206.2 206.1 205.1 204.2 203.9 203.5 203 202.4 201.3 200.1 199 198 197 196.1 195.2 194.4 192.7 191.3 190.9 187.9 186.6 183.6 182.6 182.7 183.4 184.9 185.2 184.2 182.6 181.4 179.9 178.8 177.3
45.7 45.2 45.2 47.6 46.4 46.7 46.6 46.4 46 45.1 44.3 43.9 43.6 43.5 43.3 43.1 41.3 44.7 47.5 47.9 45 47 46.9 46.4 47.5 49.9 50.3 50.1 51.5 52.8 53.9 55.1 56.9 58.9 60.6 65.1 68.2 71 75.1 78.3 81.1 84.9 88.4 90.9 92.7 93.6 94.8 94.8 94.6 94.4 93.9 93.5 93 92.5 92.2 91.8 91.4 91 90.6 90.4 90.5 90.6 89.4 88.6 88.5 88.4 88.4 88.3 88.4 88.4 88.4 88.5 89.4 89.8 90.9 92.2 93.9 95.7 97.6 98.7 99.8 101.2 102.1 102.3 103 104.1 105.4 105.9 107.5 108.9 109.5 107.9 106.2 105 107 108.9 110.2 111.3 113.3 116.5 122.7 130.3 135.4 139.6 142.5 145.4 148.2 150.1 153.4 154.7 155.6 155.2 154.5 152.4 149.7 147.2 145.7 144.4 143.7 143.5 143.7 143.5 143.1 142.4 141.7 141.8 143.5 144.2 146.5 149.8 153.2 156.2 158.2 157.8 157.6 154.4 152.9 154.6 158.4 162.4 166.6 169.9 169.4 165.5 160.6 156.7 156.8 158.1 160 162.5 165.3 168 170 172.8 177.6 183.5 189.9 194.4 197.4 199.8 201.5 203.2 204 204.8 205.4 206.1 206.3 206.4 205.6 204.5 203.6 203.2 202.7 202.2 201.6 201 200.3 199.6 198.6 197.6 196.7 195.8 194.8 194.5 193.1 192.8 191 190 187 184.2 180.8 176.6 178.4 179.5 178.5 176.8 175.1 173.6 172.5 172
45.4 45.5 45.6 46.9 46.3 46.4 46.5 46.5 46 45.2 44.3 43.5 43.5 46 48.4 43.3 41.3 44.5 45.6 45.3 45.2 46.2 47 47 47.4 48.6 49.4 50.5 53.5 54 54.8 56.7 58.8 61 64.3 68.3 71.7 75.2 78.4 80.8 83.5 87.5 91.4 93.1 94.1 95.1 95.8 95.5 95.2 95 94.5 94 93.4 92.8 92.4 92 91.6 91.1 90.6 90.7 91.4 89.8 88.8 88.4 87.9 87.6 87.5 87.5 87.4 87.5 87.5 87.9 89.1 90.7 92 93.6 95.2 96.7 98 99.3 100.1 101.3 101.9 102.1 102.3 103.6 104.9 106.9 108.1 108.8 108.4 106.8 105 104.5 106.6 108.8 110.2 112.3 114.1 116.7 120.6 127.8 133.3 137 140.3 144.6 149.2 154.6 158.8 160.8 160.4 159.3 157.1 154.7 152.4 150.9 149.7 148.6 147.7 147.2 147.1 146.9 146.5 145.8 145.1 144.5 146.4 147.1 147.9 150.4 153.7 157.8 160.2 161.2 159.9 156.5 159.6 157.8 156.8 161.8 168.2 171.6 171 167.2 162.7 160.4 160.4 161.4 163.2 166.1 168.9 172.5 175 176.7 179.4 183.9 189.4 194.5 197.5 200.3 201.9 203.2 203.9 204.8 205.4 205.7 206 205.8 205 203.9 202.9 202.4 201.9 201.3 200.7 200.1 199.4 198.7 198.3 197.9 197.2 196.3 195.9 195 193.8 193 192.1 191.3 189.7 187.7 184.5 180.5 176.5 172.2 170.3 168.5 166.8 165.1 163.3 163.6
46.3 47.5 47.3 46.8 46.3 46.5 46.4 46.4 45.8 45.3 44.4 47.7 43.6 43.5 43.3 42.9 41.3 43.7 44.9 45 45.4 45.9 46.9 47.2 47.3 47.3 45.5 49.6 51.2 54.6 58.1 60.9 62.4 63.8 68.3 71.4 74.9 77.9 80.6 83.7 86.8 90.7 92.2 93.6 94.6 95.3 95.4 95.6 95.6 95.4 94.9 94.3 93.8 93.2 92.7 92.2 91.7 91.6 91.4 91.3 92 90.1 89.2 88.7 88.2 87.6 86.8 86.6 86.6 86.6 86.9 87.7 89.2 91.2 91.9 92.8 94.9 97 98.4 99.8 100.6 100.9 101.6 101.9 102 103.1 104.4 106 107.8 107.3 105.8 104.7 103.7 104.8 106.6 109.1 110.8 112.6 114.4 117 120 125.1 129.4 134 139 143.9 149.7 156.6 162.5 165.9 165.6 163.6 161.4 158.8 156.2 155 153.7 152.7 151.9 151 150.5 150.2 149.9 149.1 148.2 147.6 148.9 150.3 151.4 152.6 154.3 158.6 162.3 163.7 162.1 158.7 156.9 159.2 163.9 165.8 169.4 171.5 173.3 169.8 166.7 164.5 164.1 164.8 166.4 169.7 172.7 177 180.1 181.8 183.6 185.7 189.1 194.5 197.6 200.8 202.3 203.2 203.9 204.7 205.1 205.3 205.5 204.7 203.5 202.7 202.3 201.6 201 200.4 199.8 199.2 198.5 198 197.8 197.4 197 196.6 196.1 195.4 194.3 193.4 192.5 191.5 190.6 188.9 187 184.8 182.2 179.2 177.8 176.5 173.5 169.2 166.4 161.1
46.3 47.2 48.9 47.2 46.5 46.6 46.5 46.3 45.9 45.1 44.5 43.9 43.7 43.4 43.3 42.9 42.7 43.9 44.5 45.1 45.4 45.9 46.3 46.3 46 45.5 46.6 45.5 52.8 53 56.6 60.5 63.2 64.5 70.6 74.1 77.2 80.2 82.5 85.8 89 91.3 92.5 93.7 94.8 94.9 95 95.2 95.3 94.9 94.4 93.9 93.5 93.1 92.8 92.8 92.6 92.4 92.3 92.1 92.6 90.8 89.4 88.8 88.3 87.7 87 86.1 85.9 86 86.6 87.7 89.5 91.2 90.9 91.8 94.5 96.9 98 99 99.7 99.5 99.5 100.2 100.6 101 102.5 103.8 104.5 103.5 103.1 102.8 103.6 105.2 106.8 109.5 111.2 113 114.8 117.2 119.9 123.4 128 132.7 137.9 143.3 149.6 157.4 164.8 169.2 169.4 167.9 165.2 162.4 160.3 159 157.8 156.8 155.9 155.1 154.5 154 153.3 152.5 151.7 151.2 151.5 152.9 154.3 155.5 156.7 159.1 162.7 165.8 164.4 161.3 159.8 163.2 166.7 170.1 173 175 177 175.2 171.6 169 168.1 168.2 169.7 173.3 177.3 181.5 184.6 186.9 188.7 191 193 195.7 198.8 201 202.5 203.1 203.9 204.6 204.5 204.8 204.9 203.7 202.4 201.2 200.4 200.5 200.1 199.5 199 198.3 197.6 197.5 197.3 197 196.8 196.6 196.3 195.6 194.6 193.7 192.8 191.8 190.8 190 189 187.5 185.9 184.5 183.2 181.5 178.6 176.3 173.8 170.6
48 46.1 46.8 46.6 46.3 46.5 46.4 46.2 45.8 45.2 44.6 44.1 43.9 43.6 43.3 41.3 43.2 43.6 44.2 44.5 45.3 45.4 45.5 45.5 45.6 47.1 49.6 51.2 53.7 56 58.9 62.7 66.1 66.7 73.2 77.2 80 82.3 84.5 86.8 89.7 91.1 92.3 93.5 94.6 95.5 95.4 95.3 95.1 94.8 94.5 94.2 93.9 93.6 93.6 93.7 93.7 93.5 93.2 93 92.8 91.8 90.7 89.6 88.4 87.8 87.2 86.1 85.3 85.7 86.1 87.5 89.3 91 92.3 92.8 94.8 96.5 97.1 96.7 95.2 94.5 95.9 97.4 98.1 97.7 97.8 98.6 99.1 100 101.5 102.5 103.8 105.2 107.8 109.7 111.5 113.4 115.2 117.4 119.5 123 126.7 131.4 136.9 142.4 148.9 157.2 164.5 169.1 170.6 170 168.2 166 164.3 163 161.8 160.9 160 159.2 158.4 157.7 157 156.2 155.4 155.1 154.8 155.8 157.2 158.9 159.9 161.1 164.6 167.8 167.3 164.6 162.7 166.6 171.1 174.8 179.4 185.1 183.2 181.2 181.3 176.4 173.1 173.6 175.7 178.3 182.1 185.8 188.8 191.1 193.1 194.6 196.2 197.9 199.7 201.7 202.7 203.3 203.9 204.1 204.1 204.1 204 202.8 201.6 200.3 199 199.1 198.9 198.7 198.1 197.4 197.2 197 196.5 196.5 196.7 196.6 196.1 195.4 194.4 193.4 192.8 191.9 190.9 190.2 189.9 189.2 187.4 186.5 186 185 183.3 181.8 179.7 177.8
51 46.3 46.5 46.7 46.2 46.4 46.2 46.1 45.8 45.4 44.8 44.3 44.1 43.7 43.3 41.3 43.2 43.3 43.7 44.1 44.5 45.4 45.5 45.5 46 47.3 49.2 51.2 54.4 57.5 60.6 65 68.9 68.9 75.2 79.6 82.2 84 86.2 88.5 89.4 90.7 91.9 93.2 94.4 95.4 96 95.8 95.5 95.2 94.9 94.6 94.3 94.4 94.5 94.6 94.7 94.5 94.3 94 93.9 93.2 92.1 91 89.8 88.7 87.6 86.2 85 85 85.3 87.2 89 90.5 91.8 92.2 92.7 93.6 92.3 91.9 92.9 94.8 96.9 99.8 100.4 100.5 100.3 101.3 101.4 102.8 103.4 104.3 104.9 105.2 106.8 108.6 110.5 113.2 115.6 117.5 119.2 122.5 126.2 130.6 135.9 141.5 147.1 154.3 161.1 164.6 166.2 166.5 165.7 163.9 164.4 164 164.3 164.7 163.4 163.3 164 162.9 161.7 159.8 159.2 158.8 158.8 159.7 161.5 163.1 164.8 165.3 167.4 170.1 171.3 168.8 165.8 169.3 174.4 180 185.5 189 190.4 189.1 187.3 186 184.5 181.6 182.3 184.7 188.2 190.9 192.5 194.5 195.7 196.8 198 199.7 200.4 202.3 202.9 203.5 203.7 203.5 203.5 203.5 202.8 202.2 200.9 199.6 198.3 197.6 197.4 197.3 197.1 196.6 195.9 195.5 195.7 195.5 195.6 195.8 195.3 194.7 194.1 193.1 192.4 191.7 191 190.3 190.6 190 189.4 188.4 187.5 186.7 185.7 184.6 183 180.4
46.1 46 46.1 46.3 46.3 46.2 46.1 45.8 45.5 45.2 44.9 44.5 44 43.6 41.3 43.2 43.2 41.3 43.4 43.6 43.6 44.9 45.5 46 46.5 47 48.9 51 54.2 57.9 61.7 66.3 70.8 70.8 76.6 81.1 84 85.9 87.8 88.8 89.7 90.6 91.5 92.8 94 95 95.9 96 95.9 95.6 95.3 95.2 95.3 95.4 95.5 95.5 95.6 95.6 95.1 94.8 94.9 94.4 93.5 92.4 91.2 90 88.7 86.8 84.9 84.4 84.6 86.9 88.4 89.2 89.6 89.6 89.6 90 91.1 93.6 96.2 97.8 100.3 102.3 103.6 104.9 105.9 106.4 106.6 107.3 107.2 107 105.3 105.1 106.8 107.8 109.3 112 114.5 116.3 117.9 121.4 125.4 130.9 135.9 140.9 146.1 152 156.7 159.3 160.9 161.5 160.5 159.2 159.6 160.1 161.7 164 165.4 166.8 167.8 167.2 167 166 164.4 164 164.4 165.6 167.2 168.9 170.2 171.1 172.2 173.1 174 172.8 170.9 170.7 175.5 182.3 187.6 192.1 194.4 194.8 194.3 194.2 191.6 191.7 189.1 191.3 194 195.4 196.3 197 198.2 199.3 200.2 200.8 201.4 202.4 203 203.4 203.1 202.9 202.9 202.2 201.4 200.8 199.8 198.5 197.2 196.5 196.1 195.9 195.4 195.1 194.6 194.6 194.7 194.5 194.6 194.7 194.4 193.9 193.4 192.7 192 191.3 190.5 190.2 190.5 190.2 189.4 189.5 189.2 188.3 187.4 185.9 182.9 178.8
45.9 46 46 46.1 46.1 46.1 45.8 45.5 45.2 44.9 44.7 44.3 43.9 43.5 41.3 43.2 43.3 43.3 43.8 44.2 44 44.7 46 46.4 47 47.4 49.1 51.6 54.5 57.8 61.8 66.6 71 73.1 78 82.6 84.9 86.7 88.2 89.1 90.2 91.1 92 92.7 93.3 94.4 95.4 95.5 95.6 95.7 96 96.1 96.2 96.3 96.4 96.4 96.2 95.9 95.5 96.2 95.9 95.4 94.8 93.6 92.3 91.1 89.6 87.8 85.8 83.8 83.9 85.3 86.4 86.8 87.7 87.8 88.5 90.3 92.5 95.4 98.6 100.2 102.2 103.1 104.4 105.6 107 108.2 109.5 110.2 109.2 107.6 105.8 105 105.5 106.3 108.1 109.9 112.4 114.7 116.8 120.6 125.5 131.3 136.3 141.3 146.2 149.8 153.1 154.5 156.2 156.1 154.8 154 154.3 155 156.7 159.4 162.1 165.1 168 169.7 171 170.9 170.9 170.6 171.4 172.2 174.3 176.1 176.7 177.4 177.8 178.6 179.4 178.9 176.8 174.7 176.6 183.3 188.8 192.9 195.8 198.2 198.2 198.7 198.6 197.9 196.9 197.9 197.6 198.6 199.2 199.4 199.8 200.4 200.9 201.5 202.3 202.5 203 202.8 202.5 202.2 202.3 200.9 200 199.2 198.3 197.3 196 195.7 195.1 193.9 193.6 193.3 193.6 193.6 193.5 193.5 193.6 193.7 193.5 193.1 192.6 191.9 191 190.2 189.6 189.4 189.6 189.9 189.6 189.9 189.6 189.3 188.5 186.2 181.9 177.6
46 45.8 45.9 45.9 45.9 45.9 45.6 45.3 45 44.8 44.5 44.2 43.5 43.2 41.3 43.1 44 44.4 44.5 44.5 44.4 44.4 45.7 46.8 47.2 47.6 49 51.1 52.9 56.6 60.7 65.4 70.2 73.4 77.4 81.7 85 87.3 88.6 90 91.1 92 92.6 93.2 93.4 93.8 94.8 95 95.1 95.8 96.4 96.7 96.8 96.5 96 96.6 96.5 96.2 96.7 96.9 96.5 95.8 95 94.2 93.3 92.2 90.6 88.8 86.9 84.2 83.2 83.4 84.3 84.6 86.2 88.4 90.2 92.7 95.7 98 99.9 101 102 103.1 104.3 105.3 106.7 108.7 109.9 109.9 107.9 105.9 103.3 102.4 103.3 104.6 106.4 108.2 110 112.2 114.9 119.4 125.9 131.6 136.6 141.1 145.1 148.2 149.3 150.3 150.8 150.5 149.1 148.7 149 149.9 152.3 154.9 157.8 160.9 164.3 167.7 171.4 172.9 174.5 176.6 177.4 179.5 181.6 183.2 183.5 184.1 183.9 184.1 184.9 184.2 183.3 181.7 180.1 183.3 189.6 194.5 197.8 199.9 200.4 200.6 200.5 200.2 201.6 201.1 201.2 201.1 201.8 201.7 201.6 201.7 201.6 202.3 202.7 202.7 202.4 202.2 201.9 201.6 201 199.7 198.5 197.6 196.7 195.8 195.1 194.7 193.6 192.6 191.8 191.1 191.4 191.8 191.9 191.8 192.2 192.7 192.6 192 191.7 191.1 189.9 189.1 188.9 188.7 188.9 188.9 190.1 190.6 190.7 190.6 190 187.2 182.9 180.3
46 45.9 45.7 45.7 45.8 45.7 45.6 45.3 44.9 44.6 44.3 44 43.5 43.2 43.2 44 44.9 44.9 44.8 44.7 44.7 44.6 45.1 46.1 47.2 47.7 48.9 49.9 51.7 54.1 58 62.8 66.9 71.9 75.9 79.8 84.2 87.3 89.3 90.9 91.9 92.5 93.1 93.7 94 94 94.2 94.6 95.3 96 96.6 96.7 96.2 95.6 95.6 96.3 96.8 97 96.8 96.7 96.4 96 95.3 94.5 93.6 92.3 91.6 90 88.2 85.5 82.6 82.4 83.5 85.7 87.9 90.1 92.3 94.3 96.9 99.1 100.3 101.5 102.2 102.7 103.6 104.7 106 107.2 107.7 107.2 104.4 101.7 99.2 100.5 100.7 102.4 104.3 106.1 107.6 109.6 112.9 119.6 126.5 132.4 136.7 140.5 143.4 144.9 145.6 146.4 146.6 145 143.7 143.6 143.9 145.7 148 151 154.3 157.7 161 164.5 169 173.2 177.1 179.4 183.6 185.7 188.6 190.1 190.4 190.6 190.2 190.2 190.3 190.3 189.9 188.4 186.8 186.3 191.1 195.8 199.2 201.1 202.2 202.8 202.6 203.6 203.3 203.8 203.3 202.5 203.4 202.9 201.8 201.8 201.8 202.7 202.7 202.4 202 201.9 201.8 201.5 199.5 198.2 198 197.2 196.2 195.1 194 193.5 192.9 191.8 190.1 188.8 188.7 189 189.8 189.8 190.3 190.5 190.5 191.1 190.8 190.2 188.8 188.4 188.1 187.9 188.2 189 190 190.9 191.5 191.6 191.2 189.3 185.1 184
46.2 46 45.8 45.6 45.6 45.5 45.5 45.2 44.9 44.5 44.2 43.9 43.5 41.3 43.2 44.1 44.8 44.9 44.8 44.8 44.7 44.6 45 45.8 46.7 47.5 48.3 49.2 50.7 52.9 54.9 58.4 61.7 67.8 77.6 79.1 83.7 86.7 89 90.9 92 92.5 93.2 93.8 93.7 93.6 93.6 94.4 95 95.6 95.8 95.9 95.5 95 95.2 96 96.5 96.7 96.7 96.5 96.3 95.9 95.1 94.1 92.9 91.8 91 90.5 89.4 86.9 84.1 81.7 83.9 87.1 89.3 91.2 93 95.3 97.3 99.1 100.2 100.8 101.4 101.9 102.9 102.8 103.8 103.9 103.3 101.9 100.1 98.4 99.8 102.1 102.5 102.5 103 103.9 105.2 107.1 112.4 119 127 132.6 136.1 138.7 140.6 141.3 141.6 142.5 142.5 140.7 138.4 138.1 139.5 142.4 145 148.2 151.3 154.5 157.8 161.6 166.6 171.4 175.3 179.4 183.6 188.3 192.1 195 196.9 196.9 195.5 195.1 195.6 195.6 195.6 195.3 193.7 192.4 193.8 196.6 200 202 202.7 204.2 204.5 203.6 203.9 204 203.6 203.2 202.5 202.4 202.3 201.6 202.2 202.1 201.3 201.4 201.4 201 200.2 198.7 198.4 198.3 198.1 197.5 196.6 195.8 194.7 193.6 192.4 191.4 190.5 187.7 186.2 185.2 187.4 187.9 188.2 188.6 189.1 189.8 189.8 189.1 188.2 188.2 187.9 187.6 188 189 189.9 190.8 192.1 192.7 192.5 191.2 188 187.3
46.1 45.9 45.7 45.6 45.4 45.3 45.3 45.2 44.8 44.5 44.2 43.8 43.4 41.8 43.4 44.1 44.8 44.8 44.8 44.8 44.7 44.7 45.2 45.8 46.7 47.5 48.2 48.9 50.1 51.9 54.1 58.1 61.6 66.8 77.8 78.6 83.5 86.8 89 90.9 92 92.5 93.1 93.6 93.3 93 92.8 93.7 94.6 95.1 94.4 94.8 94.9 94.5 95 95.3 95.5 95.7 95.9 96.1 95.8 94.7 93.6 92.8 92.2 91.3 90.5 89.9 89.6 88.3 85.1 81.6 83.3 86.5 88.7 89.5 92.4 94.7 96.7 98.2 99.3 100 100.6 101.2 101.3 101 100.3 99.8 99.2 97.5 97.3 99.1 101.5 104.1 105.6 105.8 105.9 105.1 104.8 106.1 110 116.3 123.9 129.6 133 135.8 137 137.3 137.7 138.6 138.6 135.9 133.4 135.9 139.7 142.7 144.9 146.9 149.7 152.8 156.1 159.5 163.8 168.2 172.8 178.4 185.3 190.3 194.6 197.8 199.3 199.8 199.8 199.9 200.6 200.7 200.1 199.1 199.4 197.7 198.7 199.9 200.1 202.8 203.7 204.5 204.2 204.1 204.3 204.1 203.9 203.2 201.9 201.5 201.3 201.3 200.9 199.9 199.8 200 200.4 199.4 198.8 198.4 198.3 198.3 198.2 197.7 196.9 195.8 194.7 193.6 192.6 191.7 190.6 188.4 185.7 183.2 183.3 184.7 186.5 187 187.8 188.5 188.6 188 187.7 187.5 187.1 186.4 188 188.8 190 191.5 192.9 193.9 193.7 192.8 192.1 191
45.9 45.7 45.5 45.4 45.3 45.2 45.1 45 44.8 44.5 44.1 43.8 43.4 41.8 43.5 44.2 44.7 44.7 44.8 44.8 44.7 45 45.5 45.9 46.7 47.6 48.2 48.8 49.6 51.3 54.3 58.7 65.8 70.6 75.7 80.5 83.7 86.9 89 90.7 91.9 92.6 93 93.2 92.9 92.6 92.4 93.2 94.2 93.7 93.1 93.6 94.3 94.2 94.4 94.5 94.6 94.8 94.8 94.8 94.2 93.1 92.1 91.2 91 90.5 89.8 89.5 89.7 88.9 85.7 81.6 81.9 84.8 87.1 88.9 90.8 92.5 94.1 96.7 97.7 98.5 99.6 100.3 100.2 99.4 97.2 96.1 95.2 96 97.4 99.7 103.2 107.3 108.8 109.5 108.3 107.3 106.3 105.7 108.1 112.2 117.9 123.9 128.4 131.7 133.1 133.3 133.7 133.5 132.2 129.8 133.2 138.3 142.3 145.9 148 149.8 151.8 154.5 157.7 160.7 163.6 167.2 172.2 178.4 184.8 191 196.8 199.6 201.3 202.5 202.9 203.6 204.4 204.2 203.3 203.6 203.6 202.1 202.1 202.7 202.9 204.2 204.5 204.4 204.5 205.4 204.3 204.2 203.5 203.3 202 200.9 200.4 199.7 198.5 198.2 198.4 198.8 199.3 198.7 198.4 198.2 198.2 198.2 198.2 198 196.9 195.8 194.7 193.6 192.8 192 190.7 188.6 185.9 183.1 181.1 181.4 183.1 185.1 186.2 187.2 187.4 187 186.6 186.3 185.6 184.9 186.6 188.3 189.6 191.6 193.2 194.7 194.8 194.6 194.6 195.6
45.7 45.5 45.3 45.3 45.1 45 44.9 44.8 44.7 44.4 44.1 43.7 43.2 41.8 43.6 44.2 44.6 44.6 44.7 44.8 44.7 45.3 45.7 46.1 46.7 47.5 48.1 49 49.9 51.2 54.3 59.7 67.3 71.9 77 82.5 84.6 87.4 89.1 90.6 91.7 92.6 92.6 92.3 92.6 92.6 92.4 93 92.6 92.2 91.7 92.5 93.4 93.5 93.6 93.6 93.7 93.8 93.5 93.5 92.5 91.5 90.5 90.2 89.9 89.5 89 88.7 89.2 88.8 86.1 82.6 80.6 82.9 85.4 87.6 88.9 89.3 93 95.2 96.5 98 99 99.3 98.4 96.3 94.2 93.8 94.7 96.3 97.9 100.4 104.9 110.2 114.1 114.6 113.7 111.8 109.8 107.7 107 109.9 113 117.8 123.3 126.6 127.6 128.4 127.7 126.4 125.4 127.9 133.7 137.6 140 143.5 146.2 150.3 154.5 157.3 160 163.3 166.7 170.2 174.8 180.1 185.9 191.6 196.7 200.5 202.4 204.2 205.4 206.4 207 206.8 206.7 207 207.2 206.2 205.2 205.2 205.1 205.4 205.2 204.7 204.9 203.9 204.2 203.3 202.9 203.1 201.8 200.6 199.9 199.1 199.2 199.3 198.1 197.4 197.7 198.1 198.1 198.1 198.1 198 198.1 198.1 197 195.8 194.8 193.8 193 191.9 190.9 188.7 186.3 184 181.6 178.7 179.3 181.7 183.9 185.3 186.1 185.6 185.3 184.4 183 183.2 185.1 187.1 189 191.5 193.3 194.8 195.8 196.6 197.4 198.5
45.5 45.3 45.1 45.2 45 44.9 44.8 44.7 44.6 44.2 43.7 43.1 43.3 41.8 43.5 44.3 44.4 44.5 44.6 44.7 44.9 45.5 46 46.4 46.8 47.5 48.3 49 49.8 51.1 53.9 58.5 65.6 72.7 78.5 83.8 86 87.9 89.5 90.5 91.6 92.5 91.1 91 91.4 91.7 92.1 92 91.8 91.5 91.4 91.3 92.1 92.3 92.1 91.9 92 92.3 91.4 91.3 90.4 89.9 89.6 89.3 88.7 88.2 87.9 87.4 88.5 87.7 85.3 82.3 80.3 82.1 84.1 86.8 88.1 90.4 92.8 94.7 95.1 96.1 97 97.5 96.2 93.3 92.4 93.3 95.2 97.2 99 102 107.5 113.1 119 120 119.2 117.4 115 112.2 110.1 109.7 110.6 112.7 116.3 118.9 120.2 121.3 121 120.4 121.8 124.7 128.2 132 136.1 139.9 144.1 148.4 152.6 156.3 159.3 162.6 167.8 173.1 178.3 182.9 188.6 193.4 196.9 199.9 203.2 205.2 206.7 207.6 208.2 208.4 208.8 209.1 209.3 208.2 208.1 207.5 206.9 206.1 205.4 204.8 204.1 203.2 203.2 202.8 202.4 201.2 201 200.9 200.6 200.1 198.7 197.9 197.3 196.5 196.8 196.7 196.8 197.8 198.1 198.2 198.1 198 197.3 196.1 194.8 193.5 192.4 191.2 190.9 189.3 187.8 186 183.8 179.5 176.9 177.6 181.2 183.1 184 184.2 183.6 182.5 180.9 181 183.6 186.4 189.1 191.3 193.2 194.8 196.6 196.6 197.1 199
45.2 45 45 45.1 44.9 44.8 44.7 44.6 44.8 44.9 44 43.3 43.2 43.2 43.7 44 44.1 44.3 44.4 44.6 44.9 45.7 46.1 46.4 46.7 47.2 47.9 48.7 49.5 51.4 54.2 57.7 66.2 72.8 78.8 84.1 86.5 88.5 89.8 90.7 91.6 92.3 91.1 91 91 91.1 91.4 91.6 91.4 91.1 91 90.8 90.9 90.8 90.6 90.3 90.3 90.7 90.2 89.7 89.7 89.7 89.4 88.5 87.5 87.3 86.8 85.6 86.4 85.8 83.8 80.8 79.9 81.7 84.3 87 88.8 91.1 93.3 94.3 94.5 94.6 94.6 95.2 92.6 91.3 92.5 94.4 96.3 98.1 100.1 104.7 110.5 118.3 124.1 125.3 125.2 123.4 120.9 117.7 114.9 113.3 112.6 112.8 113.8 114.7 115.5 116.7 118 119.9 122.1 123.5 125.4 126.2 131.7 137.2 142.1 146.1 149.6 152.7 157.5 162.2 168 173.5 179.1 184.9 189.9 194.2 197.6 200.6 203.4 205.3 206.7 207.8 209 210 210.6 210.9 210.8 209.6 208.8 208.4 207.3 206.2 204.5 203.9 203 202.3 202.4 202.5 201.8 200.8 200.8 200.9 200.9 200.3 198.7 197.5 196.4 195.5 195.7 195.9 196.1 196.8 196.9 197.1 197.3 197.2 196.7 195.8 194.6 192.9 191.7 190.8 190.1 189.1 187.6 186.4 185.3 181.7 177.6 174.6 177.7 180.7 181.8 182 181.7 180.4 178.5 180.2 183.5 186.3 189.1 191.2 193.1 194.8 196.2 196.8 196.9 198.6
45 44.8 44.9 44.9 44.8 44.7 44.6 44.6 45.2 45.3 44.6 43.5 41.8 43.2 43.7 43.9 44 44.2 44.2 44.9 45.1 45.9 46 46.1 46.3 46.8 47.4 48.2 49.1 50.8 53.9 57.5 66.7 73.4 80.2 84.9 86.9 88.8 90.1 90.9 91.4 91.1 91.2 91.1 91.1 91.1 90.9 91 90.9 90.8 90.6 89.3 89.3 89.3 89.1 88.8 89.2 89.3 89.5 89.5 89.5 89.5 89 87.9 87.1 86.5 85.3 84.1 84.4 83.2 81.2 79.1 79.7 80.4 83 87 89.4 91.6 94 94.4 94.5 94.6 93 91.2 90.1 93.1 95.2 96.4 97.2 98.6 101.1 106.9 114.6 122.3 127.7 130.2 130.4 129.6 127.5 124.4 121.8 119.8 118 117.2 117.8 117.5 118 119.4 121.5 123.6 125.7 127.8 130.7 129.9 128.6 134.4 138.8 142.2 146.1 151.1 157.4 163.5 169.5 174.4 179.4 184.8 189.4 193.9 196.9 200.2 202.7 204.7 206.5 207.7 208.9 210.1 210.5 210.7 210.2 209.5 209.1 207.7 206.8 206.2 204.8 203 202.6 201.6 201.5 201.5 200.9 200.6 200.6 200.6 200.3 199.7 197.8 196.8 195.9 194.5 194.6 195.1 195.3 195.8 195.8 195.7 195.9 195.7 195.1 194.4 193.5 192 191.4 190.8 189.9 189.3 188.5 187.3 185.7 182.9 178.3 173.8 174.3 177.6 179.2 179.8 179.5 177.8 176.7 179.9 183.4 186.2 189.1 191.3 193.2 194.5 195.4 196.2 196.7 198.2
44.7 44.1 44.7 44.8 44.8 44.7 44.7 44.7 44.9 45 44.7 43.8 42.2 43.3 43.7 43.8 44 43.9 43.9 44.8 45.4 45.9 46 46.1 46.1 46.4 46.9 47.8 48.8 50.7 53.1 57 66.1 74.2 81.2 85.4 87.4 89 90.2 90.8 91 91.2 91.2 91.2 91.2 91.1 90.4 90.3 89.8 88.5 87.5 87.4 87.6 87.8 87.6 87.7 88.2 88.4 88.8 89.3 89.3 89.2 88.6 87.9 87.2 86.2 84.6 82.9 81.7 80.3 78.9 78.9 79.4 80.3 82.3 85.3 87.1 90.7 93.3 94.1 93.4 91.5 89 88.4 92.1 95.8 97.7 98.8 99.4 99.5 102.1 108.1 117.2 125.3 130.3 132.5 133.9 133.5 132.4 129.8 128.1 126.5 125 123.1 122.7 122.9 122.5 123.7 125.2 127.3 129.4 132.6 135.9 136.1 131.3 132.7 137.7 142.5 147.2 152.6 159.1 165.2 170.5 174.7 178.9 182.7 187.3 192.3 194.9 197.6 202 203.9 205.8 207.2 208.4 210 210.3 210.1 209.7 208.9 208.4 206.5 206 205.1 203.5 202.1 201.4 200.8 200.6 200.6 200 199.8 200 199.8 199.4 198.5 196.9 196 195 193.6 193 193.6 194.1 194.9 195 194.9 194.1 194 193.5 192.7 191.6 190.9 190.6 190.4 189.1 188.8 188.8 187.1 185.8 182.9 178.7 174.5 171.7 174 176.5 177.2 176.3 175 175.9 179.7 183.3 186.1 189.1 191.3 192.9 193.6 193.6 194.1 196.7 198.3
44.3 44.2 44.1 44.1 44.1 44.7 44.7 44.7 44.6 44.6 44.5 43.9 43.2 43.2 43.6 43.8 43.7 43.7 43.6 44.6 45.6 45.9 46 46.1 46.2 46.2 46.8 47.5 48.7 50.2 52.9 56.3 67.1 76.4 81.7 85.8 87.4 89 90.2 91 91.2 91.4 91.3 91.2 91.2 90.9 89.9 89.4 88.7 87.5 86.9 86.7 86.4 86.2 86.1 86.8 87.2 87.5 88.2 89 89.2 89.1 89.6 88.9 88.2 86.7 84.8 82.1 79.7 78.4 79 80.6 81 82.2 82.6 83.3 84.8 86.1 88 89.3 87.7 88.1 87.8 90.6 94.6 97.9 100.1 101.2 101.7 101.7 103.2 109.6 118.4 127.1 132.2 134.4 135.5 135.5 135 133.6 132.4 132.8 131.8 128.9 128.1 128.6 128 128.5 129.4 131.5 133.5 136.5 139.6 140.2 135.3 133.9 138.8 143.9 149 154.2 160.7 165.6 169.7 172.1 175.6 179.3 183.4 186.7 189.7 193.3 197 200.8 203.9 206.1 207.5 208.9 209.2 209.4 209.4 208.4 207.3 205.8 204.7 203.9 201.5 199.5 198.9 199.2 199.3 199.3 199 198.4 198.5 198.1 197.7 196.8 196 195 193.9 192.6 191.5 192.3 193.4 194.3 194.6 194.2 193.3 192.6 191.9 191.1 190.8 190 189.4 188.9 188.4 188.3 188.1 186.6 185.3 182.3 178.8 174.3 170.4 171.1 173.5 173.8 172.4 173 177.1 180.8 183.7 186.4 188.7 190.8 191.7 192.4 192.3 194.2 198.2 200.5
43.8 44.1 44.1 44.1 44.1 43.7 44.7 44.5 44.4 44.3 44.3 43.7 43.3 41.8 43.5 43.5 43.5 43.4 43.4 44.4 45.5 45.8 46.1 46.1 46.2 46.2 46.5 47.2 48.5 49.7 52.7 56.2 68.2 78.1 82.9 85.7 87.3 89 90.2 91 91.4 91.4 91.3 91.3 91.3 90.4 89.4 88.6 87.7 86.4 86.3 86.1 85.8 85.6 85.4 86 86.9 87.6 88.4 89.5 89.3 89.2 89.9 89.7 88.8 87.2 84.5 81 78.1 77.3 79.2 80.8 83.2 85.2 86.2 86.3 85.9 86 85.9 85.8 86.4 87.8 90 94.6 97.3 99.3 101.8 102.6 103.5 104.2 105.3 110 118.7 127.3 132.8 135.1 136.4 137.1 137.3 136.7 136.7 136.9 136 134.2 134 133.6 133.3 133 133.6 135.7 137.8 140.7 143.2 143.5 139.3 133.9 139.5 145.4 149.9 154.6 160 164 165.8 167.9 171 174.3 177.6 180.7 184 189 193.2 197.5 201.2 203.8 206.3 207.6 208.3 208.5 208.5 207.6 206.4 204.9 203.6 202.6 199.8 197.5 196.7 197.1 197.6 197.5 197.3 197.1 196.8 196.4 195.9 195.4 194.9 194 192.8 191.4 190.5 191.7 192.8 193.7 193.9 193.6 192.9 191.9 191.1 190.6 190.3 189.2 188.1 187.8 187.4 187.2 186.7 186 183.9 181.6 179.4 175.5 170.9 168.1 169 169.7 170.2 174.4 178.6 181.4 183.7 185.9 188.2 189.7 190.4 190.5 191 196.2 201.1 202.4
47.2 45.3 44.2 44.2 44 43.9 44.6 44.4 44.2 44.1 44 43.5 43.2 41.8 43.3 43.1 43.5 43.7 43.6 44.3 45.3 45.6 45.7 46.1 46.3 46.3 46.3 47.7 48.7 49.5 52.9 57.8 71.2 80.7 84.1 86.6 87.9 89.1 90.2 91 91.5 91.5 91.4 91.3 90.9 89.9 88.8 87.8 86.7 85.8 85.7 85.5 85.2 84.9 84.8 85.5 86.7 87.4 88.3 90.3 90.5 90.5 91 90.8 89.6 88 84.5 80.8 77.2 76.6 78.4 81.2 84.1 86.9 88.3 89.2 90.7 92 92.9 92.5 92.5 93 95.2 97.6 99.5 101.5 103.4 104.2 105 105.5 107.2 110.7 116.8 125.3 131.5 134.6 135.9 137.5 138.4 139.5 139.8 140.4 139.6 138.5 138.4 138.4 138.9 139.1 138.9 140.5 142.9 144.9 147.2 146.9 143.1 137.6 137.6 143.8 149.4 153.7 157.3 159.4 160.9 163.3 166.2 169.1 172.2 175.4 179.8 184.8 189.2 193.7 197.9 201.4 204.2 206.3 207.4 207.8 207.5 206.8 205.5 203.7 203.2 201.7 199.2 196.3 194.6 195 195.6 195.4 195.2 194.9 194.6 194.4 194.5 194.2 193.9 192.9 191.4 189.7 189.6 190.9 192.1 192.9 192.9 193 192.4 191.7 191 190.2 189.3 188.1 186.8 186.5 186.3 186 185.4 185 184.1 182.4 180.3 177 173.7 169.1 166.8 166 169.1 173.7 178.1 180.6 183.1 185.3 187 187.9 188.2 188.3 191.8 195.1 201.1 201.8
49.8 48.9 46 44.4 44.4 44.3 44.6 44.4 44.4 44.1 44.1 43.5 43.4 41.8 43.1 42.8 42.6 43.3 44.1 44.5 45.2 45.6 45.2 45.6 46 46.4 46.7 47.2 47.7 50 52.8 60.9 73.7 82 84.9 86.5 87.8 89 90.2 91.2 91.8 91.9 91.8 91.3 90.8 89.9 88.9 88 86.9 85.6 85.6 85.3 84.6 84.3 84.2 85 86.3 87.2 88.8 90.7 91.6 91.8 92.1 91.9 90.7 88.8 85.5 81.3 77.1 76.1 77.9 80.7 83.9 86.7 89.1 91.3 93.2 95.9 98.1 99.2 98.6 99.1 100 100.6 102.5 104.4 105.2 105.6 105.8 106.8 107.4 109.8 115.1 122.4 129.3 133 134.9 136.3 137.8 139.9 141.3 142.8 142.9 142.7 142.6 143.8 146 146.3 146.9 147.7 148.6 150 150.9 150.4 146.9 142.5 138.5 140.4 144.3 148 151.3 153.7 155.5 158.8 161.7 164.6 167.6 171.5 176 180.7 185.6 189.3 194.5 198.2 202 205.1 206.6 206.9 206.5 206 204.9 203.8 202.8 200.5 198 195.5 193.3 193.1 193.4 193.2 193 192.8 192.6 192.8 192.9 192.7 192.4 191.6 190.1 188.4 189.2 190.6 191.8 192.2 192.1 192.1 191.5 190.6 189.7 189 188.1 186.9 185.7 185.1 184.9 185.2 184.8 184.5 183.7 182.2 180.8 178.7 175.4 171.8 167.5 164.4 168 172.4 176.9 179.2 181.8 183.6 185 185.3 184.7 187.6 191.6 195.1 197 198
51.2 50.7 49.1 47.1 44.5 44.6 44 44.9 45.2 44.5 44.1 43.6 43.3 41.8 43.1 42.8 42.5 43 43.8 44.5 45.3 45.6 45.2 45.1 45.6 45.8 46.1 47.2 48.2 50.4 54.1 61.5 75.8 82.8 84.6 86.2 87.6 88.8 90.1 91.4 92 91.8 91.1 91.3 91.3 90.3 89.3 88.5 87.8 86 85.5 85.1 84.6 83.9 83.6 84.4 85.8 87.3 89.2 91.1 92.8 93.1 93.4 92.9 91.6 89.6 86.6 82.3 78.1 76 76.9 79.7 82.2 84.4 86.5 89.3 92.3 95.2 97.4 99 101.1 102.2 102.2 103.3 104.5 105.6 105.3 103.9 104.8 105.8 106.4 108.1 112.6 118.9 124.7 127.6 129.9 132.4 135.2 136.5 139.9 143.1 144.4 146.7 147.5 149.9 152.3 154.9 155.6 156.3 157.2 158.2 158.2 156.6 152.5 148.2 144.1 142.1 145.4 148.9 151.1 152.3 154.2 155.8 158.3 160.7 163.9 167.8 172.4 177.3 181.8 185.6 191.1 196.4 201.3 203.9 205.7 205.8 205.9 205.2 203.9 202.8 201.8 200 197.4 194.9 192.6 191 191.2 191 190.8 190.6 191.1 191.3 191.5 191.1 190.9 190.2 188.6 187.1 188.6 190.3 191.3 191.6 191.3 191.2 190.4 189.5 188.6 187.8 186.8 185.7 184.5 183.7 184.1 184.7 184.3 184 183.2 181.9 180.6 178.8 176.4 172.8 168.3 163.7 165.7 170.6 175.2 177.7 179.8 181.2 181.1 181.1 183.2 186.9 190.3 192.8 194.5 195.3
52.1 52.3 51.6 51.2 48.6 45.9 44.1 43.9 45.6 44.7 44 43.4 43.2 41.8 43.1 42.8 42.8 43.1 43.7 44.1 45 45.5 45.1 45.1 46.4 45.1 46 47.3 48.8 50.9 55.7 63.9 77.3 81.5 83.7 85.8 87.4 88.7 90 91.3 92 91.5 91.2 91.9 91.7 90.7 89.6 89 88.6 86.9 85.4 85.1 83.1 83.1 83 83.8 85.5 87.6 89.7 91.6 93.1 94.2 94.3 93.2 91.9 90.4 88.2 85.1 80.9 75.8 75.5 77.4 79.4 81.1 83.8 86.4 89.5 92.7 95.3 96.6 98.4 100.1 101.5 101.2 102.4 102.6 101.5 101.5 102.3 104.1 106.1 108 110.6 114.1 117.9 121.7 124.5 127 129.8 133.2 136.6 140.9 145.7 148.8 152 154.1 158.2 161.5 164.1 165 165.8 165.8 164.4 161.4 157.6 153.7 149.9 146.1 149.2 152.7 155 156.7 158.9 160.7 162.7 165.1 168.4 171.7 174.5 179.4 184.9 188.4 193.1 197.8 200.5 203.6 205.1 204.6 205 204.3 202.8 201.8 200.7 199.2 196.9 194.3 192 189.9 189 188.8 188.6 188.4 189.2 189.9 190.1 189.8 189.4 188.8 187.3 185.8 188.4 189.9 190.8 191 190.7 190.2 189.3 188.4 187.5 186.6 185.7 184.7 183.2 182.4 183 183.7 183.4 182.8 182 180.7 179.3 177.7 175.9 172.4 168.3 163.2 163.6 166.7 171.8 175.1 176.5 177.1 177.5 180.2 182.9 186.2 189.5 191.1 191.7 192.4
52.5 52.1 51.7 51 50.1 48.1 45.5 43.6 45.3 44.8 44.1 43.7 43.2 41.8 43.1 42.8 43.1 43.3 43.2 43.6 44.9 45.4 45.1 45.2 45.4 45.1 46.3 47.8 49.7 52 56.2 64.3 75 79.8 82.7 84.8 86.9 88.6 89.9 91.3 92.3 92 92.3 92.1 91.7 91.1 90 89.6 88.7 87 85.9 85.4 82.9 82.9 82.4 83.5 85.5 87.7 89.7 91.5 93.1 93.6 93.6 93.2 92 90.5 89.1 86.4 82.9 76.7 74.9 76.6 78.8 80.6 82.5 83.6 85.7 88.9 92 93.9 94.9 95.8 97.2 98.6 98.6 98.3 99.6 101.8 103.6 105.6 107.6 111 113.6 116 118.9 120 121.6 124.4 128.9 133.6 136.6 140.2 145.9 150.6 153.7 157.4 161.8 166.5 169.9 172.4 173 172.5 169.6 166.6 162.4 158.2 154.4 148.8 151.6 155.2 158.2 161.1 163.6 165.7 167.8 170.9 174.1 177.9 181.6 184.9 189.7 192.6 196.5 199.6 201.1 203.5 204.4 204 203.9 203 201.8 200.8 199.7 198.2 196.3 193.8 191.4 189.4 187.5 186.6 186.4 186.5 187.3 188.1 188.7 188.4 188 186.8 185 185 187.8 189.1 190 190.1 189.9 189.4 188.6 187.7 186.8 186.1 184.9 183.9 181.9 180.4 181 182.1 182.2 181.5 180.6 179.3 177.6 176 174.6 172.1 168.3 162.6 161.5 163.1 167.2 170.3 172.4 174.3 177.2 180.1 182.9 185.5 188.3 189.5 190.4 190.8
52.6 52.2 51.8 51.4 50.9 49.7 47.6 43.8 45.3 45 44.9 44.5 44.4 41.8 43.1 43 43.1 43.3 42.8 43.5 44.8 45.4 45.6 45.4 44.8 45.4 46.9 48.5 50.5 52.9 57.6 64.5 71.9 78.9 82.5 84.8 86.9 88.6 90.1 90.8 91.5 92.6 92.4 92 91.6 91.2 90.4 89.1 87.8 86.4 84.5 84.1 84.9 83.1 82.1 83.3 85 86.8 88.6 90.4 91.3 91.2 91 91.1 91 90.8 89.8 87.8 84.1 77.2 74.8 77.5 81.1 83.3 84.6 85.4 85.4 86.5 89.1 91.1 91.4 92.3 93.1 94.4 95.7 97.9 101 103.7 105.5 107.3 109.8 114 119 122 124 124.9 125.4 126.8 130.1 135 140.4 144.6 148.9 152.9 156.5 159.5 164.7 170.3 174.8 177.2 178.2 177.1 175.1 171.7 167.3 162.7 157.8 152.5 152.3 156.4 160.5 164.4 168 170.9 173.2 175.8 179.9 183.8 187.1 190 194.2 196.9 199.2 201.1 202.5 202.9 203 202.9 202.6 202.2 200.8 200.3 199.1 197.4 195.7 193.8 191.6 189.4 187.5 185.4 184.3 184.5 185.3 186.3 186.8 186.8 186.3 184.9 183.1 184 186.1 188.4 189 189 188.7 188.5 187.9 187 186.3 185.6 184.3 182.7 180.7 178.8 179.3 180.5 180.6 180.3 179.3 178.5 177.8 176.3 174.1 171.7 166.9 161.1 160 163.8 169.1 171.9 172.8 175.2 177.5 180.4 183 185.1 187 188.1 188.9 188.5
52.5 52.4 51.9 51.4 50.9 50.1 49.1 45.9 45.6 44.7 44.8 44.6 43.6 41.8 43.2 43.1 43.1 43.3 43.1 43.7 44.7 45.4 45.5 45.8 45.3 46.1 47.5 49.2 51 54.2 58.4 63.6 71.7 78.6 81.9 84.6 87.2 88.4 89.5 90.4 91.2 92.2 92.3 91.9 91.5 90.9 89.6 88 86.5 85.1 83.5 83 82.8 81.5 80.7 81.9 83.6 85.4 87.2 88.5 89 89.2 89 88.9 89.3 89.6 88.7 87 83.1 76.2 75.4 77.5 81.5 85.1 87.1 89.1 89.7 90.6 91.8 92.5 93.3 93.7 94.8 95.8 96.7 99 101.9 104.8 106.7 108.7 111.7 115.6 121.5 126.3 129.1 130.9 131.3 132.9 134.5 136.8 140.5 146.3 151.8 156.2 160.2 163.4 168.9 174.6 179 181 182.1 180.8 179.3 176.1 171.7 166.9 161.7 157.1 157.3 158 161.5 167.3 170.6 174.3 178.5 181.5 185.6 188.9 192.1 194.7 197.6 199.7 200.8 201.9 202.7 202.1 201.9 202.1 201.8 201.1 200.6 200.1 198.9 197.6 196.2 195 192.6 190.3 188 185.8 182.7 182.9 183 183.7 184.4 184.7 184.3 182.9 181.4 183.2 185.3 187.4 187.8 187.6 187.3 187.1 187.1 186.4 185.6 184.9 183.5 181.7 179.7 177.7 177.6 178.9 179.1 179.2 178.5 177.7 176.8 175.3 173.1 170.8 166.4 160.4 159.2 164.7 170.5 175.1 177.6 179.5 180.6 181 182.4 184.5 186.1 186.6 187.1 187.6
52.4 52.3 51.9 51.3 50.8 50.1 49 47.9 46.2 44.8 44.6 43.6 43.9 41.8 43.3 43.3 43.2 43.2 43.3 43.5 44.3 45.1 45.4 45.6 46 46.6 47.7 49.2 51.3 54.7 59.7 66.5 73 78.7 81.7 84.5 87 88.4 89.3 90.4 91.3 91.8 92.3 91.9 91.1 90.3 88.9 87.3 85.8 84.1 82.7 82.3 81.8 80.3 79.8 80.8 82.3 83.9 85.4 86.5 86.8 86.5 86.2 86.3 86.8 87.6 87.1 84.6 79.9 74.2 74.5 77.8 81.9 85.7 88 90.1 92.8 95.2 95.7 96.5 97.9 99.3 99.7 99.3 98.6 100.7 103.2 105 107.7 109.9 114.5 119.2 121.8 126.3 130.3 133.7 136.1 137.7 139.2 139.8 141.2 146.2 152.6 158.7 164.3 169.2 174.5 179.5 182.7 184 185.1 184 182.9 180.3 175.5 170.8 165 161.9 162.4 163.3 165.1 168.8 174.1 179.6 182.6 186.1 190 192.9 195.3 198 197.7 200.4 201.7 202.4 202.4 201.5 200.9 200.9 200.5 200.1 199.6 198.9 198.2 197.4 196 195.3 193.1 190.8 188.3 185.9 183.2 180.7 179.3 180.4 182 182.5 181.7 180.1 180.3 182.9 184.6 186.6 186.4 186.5 186.5 186.6 186.3 185.5 184.8 183.8 182.4 180.6 178.7 176.9 175.6 177.1 178 178.1 177.5 176.8 175.7 174.3 172.3 169.7 165.7 160 158.1 164.7 171.6 175.8 178.2 180.1 180.9 181.2 181.9 183.8 184.5 185.1 185.6 186.1
52.2 52 51.6 51.2 50.7 49.7 48.6 47.4 46.7 45.4 44.6 44.6 44 41.8 43.3 43.3 43.3 43.3 43.2 43.6 43.9 44.7 45.3 45.5 45.8 46.4 47.5 49.4 52.4 56.2 62 67.7 73.6 78.6 81.7 84.6 86.8 88.6 89.3 90.3 91 91.5 91.9 91.4 90.5 89.7 88.2 86.7 84.9 83.4 82.2 81.6 80.8 79.5 79.7 79.4 80.8 82.2 83.4 84.5 84.4 84.3 84.3 83.5 84.2 83.9 82.5 79.6 76 73.4 75.2 78.6 82.4 85.8 88.3 90.4 93.7 96.6 98.1 99.5 101.6 102.7 102.9 102.1 100.4 101.5 103.2 105 108.1 112.4 117.8 123 125.9 128 130.6 134.9 138.7 142.6 144.2 146.2 146.7 148 154.8 162.4 168.5 174.4 179.1 183.1 185.9 186.9 187.9 187 186.3 184.1 180.3 175.1 169.8 167.4 168.3 169.4 170.5 171.8 175.2 181.4 185.9 190.3 192.2 194.7 197.1 198.9 200.7 201.6 202.1 202.6 202 201.1 200.2 199.6 199.1 198.6 198.1 198 197.6 196.9 195.8 194.9 193.2 190.6 187.8 185.7 183.7 181.3 179.1 178.2 179.4 179.9 179.2 177.8 179.6 182.2 183.8 185.4 186 186 186.1 186.2 185.5 184.7 183.7 182.7 181.3 179.5 177.3 175.5 174.1 175.8 176.9 177 176.6 175.9 174.3 172.5 170.8 168.1 164.4 158.8 157.4 164.5 171.7 175.9 178.2 179.8 180.4 180.8 181.4 182.4 183 183.6 184.2 184.2
52 51.6 51.3 50.9 50.5 49.4 48.1 47.4 46.9 45.5 44.5 45.3 43.8 41.8 43.2 43.3 43.3 42.8 43.5 44.1 44.5 44.7 45.1 45.3 45.6 46.2 47.8 49.6 52.5 57.3 63.3 69.4 75 79.2 81.9 84.7 86.6 88.4 89.3 89.8 90.4 91.1 91.2 90.6 89.9 89.1 87.5 85.7 83.9 82.6 81.8 81 79.5 79.7 79.9 79 78.9 80.3 81.5 82.8 83.4 83.4 81.4 79.9 79.4 78.8 76.5 74.2 72.8 74.1 77 80.3 82.9 85.9 88.6 91.3 94.6 97.2 98.7 100.6 102.5 103.6 104.3 103.9 102.6 102.7 104 105.4 109.5 114.4 119.7 124.3 128.3 131.5 133.7 136.7 141.2 146.8 150.6 152.4 152.9 154.1 158.9 166 172.3 177.5 182 185.7 188.5 190.1 190.1 189.5 188.9 187 184 179.7 175 173.7 174.6 175.8 177 178 178.8 181.4 186.6 191 194.1 196.6 198.8 200.5 201.5 201.7 201.8 201.7 201.3 200.7 199.2 198.5 197.4 196.8 196.4 196.5 196.3 196.1 195.5 194 192.3 189.9 187.8 186 184.3 183 180.8 178.2 176.6 177.1 176.2 175.7 178.6 180.8 182.2 183.9 184.9 185.4 185.7 185.7 184.6 183.7 182.6 181.6 180.2 178.1 175.9 174 172.6 174.9 175.9 176.2 175.7 175 173.4 171.4 169.5 166.3 161.9 157.2 157.3 165.1 171.9 175.7 177.8 179.2 179.8 180.3 180.6 181.1 181.6 182.1 182.7 182.9
51.3 51 50.7 50.4 50 49 47.5 47.8 47.8 45.7 44.2 44.4 43.6 41.8 43.2 43.1 43.3 43.1 43.9 44.5 45.1 45.4 44.8 45.3 45.5 46.2 47.8 49.4 52 59.5 65.6 71.4 76.3 79.6 82.2 84.6 86.4 88.2 89.3 89.2 89.1 89.9 90.5 90 89.2 88.4 86.5 84.7 82.8 81.9 80.9 79.8 79.2 79.1 79 78.3 77.7 79 80.7 82.3 83.1 83.2 81.4 79.6 77.3 74.6 72.3 72.1 73.3 75.7 78.5 81.7 84 86.4 89 92.5 95.9 97.5 99.1 101.1 103.1 104.5 105.2 105.4 104.5 104.8 105.6 107.4 112.4 117.7 122.2 126 129.6 133.5 137 140 144.6 150.2 155.9 158.5 159.5 161.1 164.2 169.9 175.6 180.2 184.6 187.9 190.2 191.6 192.3 192.1 191.5 189.9 187.8 185 182.7 181.1 181.3 182.5 183.6 184.7 186.2 186.5 188.2 192.4 195.5 197.8 199.6 200.7 201.3 201.4 200.9 200.9 200.5 199.9 197.8 197.2 196.6 195.5 194.6 194.9 194.7 195.1 194.5 193 191.6 189.7 187.8 185.8 184.5 183.7 182.1 179.5 176.9 174.3 172.4 173.9 177.6 179.6 181.2 182.4 183.7 184.2 184.7 185.2 183.9 182.7 181.5 180.5 178.9 176.7 174.5 172.4 171 173.7 175 175.3 174.7 174.1 172.5 170.6 168 163.8 159.3 154.8 157.3 165.7 171.9 175.4 177.3 178.4 179.6 179.8 179.8 180.3 180.7 181.2 181.3 181.3
50.6 50.1 49.9 49.7 48.8 48.3 47.8 47.8 47.6 46.1 44.1 43.6 43.2 41.8 43.8 43.2 43.2 43.5 43.6 44.6 45.3 45.2 45.2 45.2 45.5 46.1 47.3 49.1 55.8 61.6 67.7 73.1 77.7 80.1 82.6 84.5 86.3 88 89.2 88.5 88 89.3 89.8 89.6 89.1 87.7 85.8 83.7 82 81 79.9 78.8 77.2 78.4 77.2 76.9 77.3 78.9 81 82.7 84 84.2 83.6 81.6 77.8 72.2 71.3 73 75.2 76.1 78.2 81 83.8 86.7 90 93.5 96.7 97.9 99.4 101.6 103.6 105.3 106 106.3 106.3 107.2 108.5 110.7 116.2 121.3 125.2 129 131.9 135.8 139.6 143.4 148.3 153.6 159.4 164.3 166.3 168.3 171.5 175.2 178.7 183.2 186.8 189.5 191.6 192.8 193.5 194.4 193.7 192.3 190.7 189.3 187.9 187.3 187.7 188.8 190 190.6 191 191.3 191.8 195 197.1 198.8 199.8 200.7 200.7 200.1 199.7 199.9 199.6 198.9 197.7 196.2 195.8 194.7 193.1 193.1 193.8 194 193.4 192.1 190.8 189.3 187.6 185.6 184.7 183.8 182.8 180.6 178 175.5 172.2 171.5 175.2 177.1 179.8 181 182.2 183.1 183.6 183.8 183.6 182.3 181.1 179.9 178.1 175.3 173 170.2 169.6 172.5 174 174.3 173.8 173.2 171.8 170 167 163 157.4 153.1 157.8 165 171.7 175 176.9 177.5 178.8 178.6 178.5 179.1 179.7 179.9 179.8 179.7
50 49.4 49.6 49 48 47.7 47.8 47.7 47.4 46.5 44.2 43.7 43.4 41.8 42.8 43.4 43.6 43.9 44 44 45 45.1 45.2 45.1 45.6 46.3 48 51.1 57.2 64.2 69.6 74.3 78.8 81.1 82.4 84.3 86.1 87.7 88.8 88.8 88.6 89.3 89.6 89.6 88.9 87 85.1 82.9 81.1 80.1 78.6 77.1 75.5 74.1 73.7 76 77.8 80.2 82.3 84.1 85.4 86.2 85.7 83.4 77.3 71.1 71.4 74.4 76.8 78.5 79.5 80.3 82.9 85.8 89.5 93.3 96.2 98.3 100 101.8 104 105.1 106.8 107.2 107.9 109.3 111.3 113.9 118.1 123.4 127.5 131.2 133.8 137.4 141.5 145.5 150.8 156.5 162.1 166.5 170.7 174.4 177.5 179.7 182.1 185.9 188.6 189.9 191.9 193.9 194.9 195.4 195 194.7 193.7 192.7 191.6 191.9 192.1 193.3 194.2 194.7 195.4 195.9 196.4 197.9 198.8 199.4 199.7 200.3 199.8 199.1 198.8 199 198.6 197.9 197.2 195.9 195 193.3 191.5 191.4 192.4 192 191.3 190.7 189.4 188.5 187.3 185.6 184.8 183.8 182.8 181.1 179.2 176.9 173.7 169.9 171.9 176 179 180.5 181.8 182.8 182.8 182.6 182.7 182 180.8 179.7 178.1 175.2 172.4 168.9 168.8 170.8 172.6 172.9 172.9 172.3 171.3 169.4 166.3 163.1 157.1 151.7 157.7 165.5 170.9 173.9 175.5 176.4 176.9 177 177.2 177.8 178.2 178.9 178.8 179.2
49.2 49.2 49.1 48.1 47.6 47.6 47.6 47.5 47.2 46.4 44.6 43.6 43.3 41.8 43.1 44.3 44.2 44.4 44.4 44.2 44.7 45 45 45 45.5 46.7 48.5 50.7 59.7 65.9 70.7 75.2 79.6 81 82.2 84.1 85.7 87.1 88 88.8 89.2 89.2 89 88.9 84.5 86.8 84 81.9 80 78.6 77.2 75.7 74.3 73.6 73.6 77.5 80 82 84 85.8 87.1 88.1 87.6 83.8 76.5 70.7 71.6 74.7 78.7 81.4 82.3 82.9 83.5 84.7 86.7 90.6 94.8 96.7 99 100.7 102.1 103.6 104.7 105.9 106 109.2 111.7 114.8 117.9 123.3 127.5 131 133.9 137.3 142.1 146.6 152.3 158 162.1 166.1 170.2 174.8 178.8 182.4 185.4 187.6 189.6 190.7 192.4 194.4 195.2 195.6 195.9 195.5 195.3 195.5 195.4 195 195.5 196.1 196.6 197 197.4 198.2 199 198.6 199 199.6 199.2 198.8 198.6 198.3 198 197.6 197.1 196.5 195.5 194.4 194.2 192.7 191 189.3 190.9 189.6 189.1 189.1 188 187.2 186.4 185.5 184.4 183.4 182.3 180.9 179.9 178.3 175.4 169.7 169.1 173.8 177.6 179.8 181.1 182.1 182.1 181.9 181.7 181.5 180.5 179.3 177.9 175.7 172.8 169.2 165.7 168.2 170.8 171.5 172 171.5 170.6 168.6 165.8 163 156.2 150.2 156.7 164.5 169.6 172.3 173.8 174.7 174.9 175.2 175.6 176 176.7 177.6 178.2 178.2
49.1 48.7 48 47.4 47.2 47.2 47.2 47.2 46.8 46.1 44.5 43.3 43.2 41.8 42.2 43.3 43.4 43.6 44.2 44.3 42.8 45 44.1 45 45.5 46.7 49.2 55 60.6 65.9 70.1 73.1 77.4 80 81.8 83.2 85 86.5 87.1 87.6 87.7 87.7 87.8 88.1 87.2 85.9 82.6 80.9 79.8 77.9 76.1 74.7 73.4 72.9 74.1 78.5 80.8 82.4 84.8 87.1 88.7 89.7 88 83.2 75.1 70.7 72.5 76.1 80.5 83.1 84.6 85.4 86 86.3 86.8 87.8 89.1 91.9 94.9 96.8 98 100.2 101.8 102.6 103.8 106.8 110 113.6 117.6 122.5 126.6 130.2 133.6 137.1 142.1 146.6 151.3 154.4 157.7 162.3 167.4 173.2 179.1 183.4 186.2 188.5 190.3 191.7 192.9 194.2 195 195.5 196 196.4 196.4 196.7 196.5 196.8 197.4 198.2 199 199 199.3 200.2 200.4 199.7 199.1 199.5 198.9 197.9 197.4 197.1 196.5 196.1 195.8 196 194.9 193.9 193.3 192 190 187.9 188.5 187.5 187.8 187.3 186.4 185.8 185.1 184.5 183.4 182.2 181.1 180.2 179.2 178.1 175.7 170.7 167 171.3 176.4 178.8 180.3 181.2 181.3 181.3 181.1 180.9 179.8 178.7 177.2 175 173 170.5 165.8 164.3 168.5 170 170.7 170.6 170 169 166.1 162.6 156.3 149 154.5 162.8 167.9 170.4 172 172.7 172.8 170.7 172.3 174.1 175.8 177.2 177.3 176.7
48.8 48.3 47.7 47.1 46.8 46.8 46.9 47 46.6 45.8 44.4 43.1 43.1 41.8 42.6 42.6 42.5 43.6 44.9 44.9 45 44.9 44.8 45 45.1 46.7 50.4 54.6 59.3 64.8 68 70.7 74 77 80.2 82.2 84 85.9 86.8 87.5 87.9 87.6 88.3 87.7 86.7 85.7 83.1 81.2 79.9 78 76.1 74.1 72.7 72.4 74.7 78.9 81.2 82.8 85.3 87.9 89.8 89.6 86.3 80.1 72.7 70.7 73.5 77.4 81.7 84.3 86.2 87.7 88.8 89.7 91.6 92.5 93.2 93.8 95.3 97.1 97.8 98.5 99.4 101.4 103.5 105.3 107.5 111.2 116.3 120.3 124.5 128.4 132.3 136.1 140 143.8 147 149.7 152.8 158.2 165.3 172.2 178.5 182.9 185.6 188 189.8 191.1 192.4 193.4 194.4 194.9 195.3 195.7 196.3 196.8 197.3 197.8 198.4 199 199.5 200.4 200.8 200.9 200.6 200.1 199.7 199.1 198.1 197.1 196.2 195.7 195.2 194.7 194.9 195.1 194.8 193.7 192.9 191.6 189.8 187.9 185.7 185.9 185.3 184.3 183.7 183.7 183.1 182.7 181.6 180.4 179.8 179.2 178.3 176.9 174.9 170.1 165.4 169.9 175.1 178.1 179.5 180.2 180.4 180.5 180.4 180.2 179.4 178 176.4 174.4 172.4 170.8 166.8 162.6 165.4 167.9 169 169.5 169 168.2 166.2 163 157.3 149.2 151.6 159.9 165.2 167.6 168.6 169.4 169 168.2 170.7 173.6 175.7 176.7 176.5 176
47.9 47.6 47.1 46.7 46.4 46.5 46.6 46.7 46.3 45.2 43.8 43.2 43.2 41.8 43.2 43 42.9 44.8 45.2 45.2 45.2 45.2 45.1 45.2 45 46.1 50.1 55.4 58.4 62.6 65.5 68.1 71.2 74.4 77.7 81.4 83.3 85.2 86.7 87.4 87.8 88 88.9 87.4 86.7 85.3 83.2 81.4 79.9 77.9 75.8 73.7 71.7 71.9 74.4 78.1 80.7 82.4 84.7 86.5 88.4 87.3 82 76.3 70.6 71 74.8 78.4 81.6 84.2 86.5 88.8 90.7 92.6 94.1 95.4 97.5 98.4 99.3 100.4 101 102.5 103.1 104.8 107 109.2 110 111.5 114.2 117.2 120.6 125 128.7 132.6 136 139.5 143.1 144.5 148.7 155.6 163.5 170.8 178 182.4 184.9 186 188.6 190 191.1 192.4 193.2 193.8 194.4 194.8 195.2 195.5 194.9 196.2 196.7 198.3 199.7 200.5 200.6 200.4 199.6 199.5 199.1 198.3 197.3 195.6 194.8 194.3 193.8 193.5 194 194.3 194.3 193.6 193 192.1 190.5 188.7 186.4 183.6 182.4 181.4 180.9 180.9 180.5 180 179.5 178.7 177.7 177.3 176.7 175.4 173.2 168.6 163.9 169 174.6 177.4 178.8 179.3 179.4 179.6 179.7 179.6 179 177.6 176.1 174.4 172.7 170.4 167.3 162.5 162.9 165.3 167.2 168.1 167.7 167.3 165.8 162.2 158.2 150.7 148.3 155.5 160.6 162.6 163.1 163.7 164.9 167.9 171.7 174.1 175.5 176 176 175.5
47.3 46.8 46.4 46.1 46 46.1 46.2 46.4 46 44.7 43.3 43.3 43.2 41.8 43.1 42.7 43.2 44.8 45.3 45.5 45.5 45.5 45.6 45.7 45.3 44.8 44.8 53.3 56 59.9 62.6 65.8 68.9 71.8 75.4 79.1 82.5 84.4 86.4 87.3 87.5 87.7 87.9 88.4 87.1 85.2 83.2 80.9 78.9 76.8 74.8 72.8 70.9 70.9 72.6 75.9 79 81.1 82.6 84 84.5 81.9 76.8 72 70.1 71.7 74.2 77.8 80.9 83.4 85.8 88.3 90.7 92.6 93.9 95.5 98 100.1 101.4 103.6 104.6 106.8 108 108.5 110.5 113.4 114.4 115.3 117.9 121.1 123.5 124.7 127 129.8 133.2 136.9 140.1 143.9 149.6 156.5 164.2 170.8 177.3 181.6 183.3 184.1 186.4 187.8 189.2 190.6 191.7 192.2 192.9 193.1 192.9 192.5 192.2 194.2 195.3 196.9 198.4 199.4 200.3 199.3 198.7 198.7 198.2 197.4 195.8 193.7 193.3 192.9 192.6 192.3 190.8 193.6 193.2 193.5 193 192.3 190.9 189.3 187.6 185.3 182.6 180.1 178.6 177.4 176.6 175.9 175.4 175.6 175.5 175 174.5 173.6 170.8 165.7 162.9 168.8 174 176.7 178 178.4 178.5 178.7 178.8 178.9 178.1 177.2 176.3 174.6 172.9 170.1 167.3 163 160.9 162.9 164.6 165.4 166.7 166.3 165.3 163.1 158.9 152.5 146.4 150.3 154.4 155.5 157.5 161 166 169.3 172.6 174.3 175 175.2 175.5 175.2
47.1 46.2 45.9 45.7 45.6 45.7 45.8 46 45.8 44.4 43.2 43 42.9 42.3 43.1 42.5 42.9 44.8 45.4 45.5 45.6 45.7 45.9 46.1 46.8 47.8 49.9 52.3 54.8 57.2 59.8 63.2 66.3 69.2 73.8 78.3 82 84 85.8 87.1 87.1 87.2 88.3 88 86.8 85.1 82.8 79.9 77.8 75.7 73.7 71.7 69.8 69.7 71 73.2 75.6 78.6 80.2 80.7 79.5 76.8 71.8 69.5 71 73 75.1 76.7 79.1 81.9 84.7 87.3 90 91.7 93.2 95.8 98.5 100.9 103 105.1 107.4 109.4 111 112.5 113.3 116.2 119.2 120.7 122.6 126 128.9 130.9 131.8 134.1 137.8 141.7 145.2 148.9 153.4 160 166.2 172.6 177.2 179.8 181.1 181.9 183.8 185.8 187.3 188.7 190.1 190.1 189.2 188.8 188.8 188.8 188.9 191.3 193.8 195.3 196.8 198.1 199 198.2 198 198.1 197.2 196.4 194.4 191.8 190.8 190.5 191.1 191.6 192.1 192.1 192.1 192.9 192.7 192.4 191.4 189.9 189 187.7 185.3 182.9 180.5 177.7 174.8 173 172.1 171.8 171.4 171.8 171.9 171.2 168 162.5 163.7 169.4 173.4 175.4 177.2 177.6 177.9 178.2 178.5 178.6 178 177.3 176.6 174.9 172.5 169.7 166.9 163.5 159.7 159.9 161.3 162.4 163.5 164.8 164 162.3 159.8 154.6 147.2 145.3 148.8 153.6 159.9 164.8 168.6 171.1 172.8 174.1 174.4 174.6 174.9 174.6
46.8 46.3 45.9 45.3 45.1 45.3 45.5 45.7 45.3 44.2 43.3 43 42.9 43.1 41.8 42.6 43.2 45 45.3 45.4 45.5 45.6 45.9 46.2 47 48.2 49.3 51.5 53.1 54.8 57.3 60.1 63.4 66.5 71.6 76.1 80.7 83.4 85.4 86.8 87.5 87.3 87.6 84.6 84.4 82.6 80 78.1 76.6 74.6 72.6 70.7 68.9 68.7 68.8 70.4 72 74.3 75.9 76.7 75 72.5 69.5 70 72.4 74.9 77.1 78.7 80.4 81.5 83.2 85.8 88.3 90.2 92.7 95.3 98 100.4 103.4 105.5 108.4 110.8 112.9 114.4 115.7 118.7 121.7 124.5 126 128.8 131.9 135.2 136.9 139.2 142.9 146.8 150.6 154.2 158.2 163.4 168.4 173.2 175.6 176.9 178.2 179.2 180.2 183.1 185.2 186.6 187.1 185.8 184.7 184 183 182.1 182.5 185.9 190.2 193.7 195.4 197.2 197.8 197.8 197.6 197.5 196.3 194.9 192.7 189.6 187.4 187 187.1 188.3 189.5 190.9 191.5 192.2 192.1 191.9 191.8 190.9 190.1 189.1 187.6 185.7 183.5 180.7 177.8 175.7 172.1 168.1 167.4 167.2 168.3 168.4 164.8 159.8 164 170 172.3 174.7 176.5 177.4 177.7 178 178.3 178.3 178.2 177.4 176.7 175.2 173 170.5 168.4 166.4 162.7 158.2 157.6 158.8 160 161 161.9 160.9 159.1 154.9 148 143.2 148.1 155.6 162.3 166.6 169.5 171.3 172.7 173.5 173.8 174.2 174.5 174.3
46.7 46.4 46.1 45.5 44.9 44.8 45 45.3 44.8 43.6 43.4 43.3 43.1 43.2 41.8 43 44 45.3 45.4 45.4 45.5 45.6 45.9 46.3 47 48.4 50.1 51.1 52.2 53.2 55.3 57.7 60.5 63.8 68.4 72.9 77.2 81 84.1 85.5 85.7 85.4 83.9 81.5 80.5 78.7 77.5 76.2 74.9 73.7 72.2 70.6 68.9 67.3 67.2 68.5 70.2 71.2 71 71.1 69.6 68.9 69.4 70.7 73.1 75.9 79.1 80.4 81.5 82.6 83.9 85.3 87.1 89.4 92.1 94.8 97.4 99.7 102.2 105.8 108.6 110.8 113.3 115.8 118.3 121.1 123.9 127.3 129.5 131.6 134.9 138.5 140.9 143.1 147.1 151.5 155.9 158.6 161.2 166.5 169.4 171.3 171.6 173 174.4 174.8 175.8 179.8 182.6 183.5 183.2 181.7 179.2 177.2 175.8 174.7 175.7 180.8 186.4 190.4 193.7 195.8 197.1 197.1 197.3 196.7 195.4 194 191.4 187.7 184.1 183.6 183.2 184.4 187.3 189 190.8 191.6 191.5 191.6 191.9 191.2 190.2 189.1 187.6 186.6 185 182.4 179.6 177.2 173.9 170.5 166.6 163.1 163.5 164.6 161.6 158.4 163.7 169.5 172.3 174.4 175.8 176.8 177.5 177.8 177.9 178.1 178.5 178 177.1 176 174.4 172.5 170.4 168.6 166.1 161.6 156.5 154.5 155.6 156.9 157.9 159 157.7 154.1 147.7 142.2 148.6 156.7 163.1 166.6 169.6 171.1 172.3 173.2 173.6 173.9 174 174.1
46.8 46.5 46.2 45.8 45.1 44.5 44.3 44.5 44.1 43.4 43.4 43.3 43.3 41.8 41.8 43.6 44.5 45.5 45.5 45.5 45.5 45.7 46 46.3 46.9 48.3 49.7 50.4 51.3 52.4 53.8 55.6 58.4 61.8 64.8 68.1 72.4 75.9 78.7 80.4 80.5 80 79.1 77.6 77.4 75.9 75 75 74.2 72.9 71.4 69.8 69 66.8 66.3 67 68.9 69.2 68.1 67.9 68.2 69 71 72.5 74 76.8 79.8 82.1 83.3 84.3 85.3 86.4 87.8 89.4 91.6 94.2 96.7 99.1 101.8 105.1 108.5 111 113.8 116.6 119.4 122.1 125 128.1 131.2 134.5 137.2 139.9 142.2 145.4 149.4 153.1 156.4 159.4 162.3 164.9 167 167.2 167.5 168.9 170 170 173.2 177.2 179.4 180.1 178.3 175.8 172.3 168.9 167.1 165.2 168.6 175.5 182.3 187.9 192.5 194.8 196.2 197.1 197.5 195.8 194.5 193 190.9 187.4 183.2 178.9 178.9 181.3 184.8 188 190 191.3 191.3 191.6 191.8 191.1 190.2 189 188 186.8 185.6 183.2 180.7 177.9 175 171.7 168.4 164.5 160.4 158.5 157.9 157.6 163.6 168.8 172.2 174 175.1 176 177.1 177.6 177.8 178.2 178.6 178.7 178.1 176.8 176 174.5 172.5 170.8 168.6 165.2 160.4 154.7 151.7 151.1 152.1 154.1 153.8 152.1 146.5 141.1 148.1 156.9 162.8 166.3 169.4 170.7 171.7 172.7 173.3 173.5 173.6 173.7
46.5 46.3 46.2 46 45.3 44.7 44.1 43.7 43.4 43.3 43.3 43.2 41.8 41.8 43.5 44 45 45.6 45.6 45.5 45.6 45.8 46.1 46.4 46.8 48.2 49 49.8 50.5 51.5 52.9 54.4 55.9 58.5 61.2 63.3 66.8 70.3 72.9 74.4 75.1 75 74.3 74.3 75.2 73.9 74 74.1 73.5 72 70.5 69.4 68.7 68.3 67.2 66.1 67.7 67.5 66.5 67.7 68.5 70.3 72.7 74.5 76 77.6 80.5 83 84.9 86 87.3 88.8 90.2 90.7 91.7 93.8 96.5 99.2 102 105.4 108.3 111.4 114.3 117.2 120.1 122.8 125.4 128 131 133.4 136.2 139.2 142 144 146.4 148.5 150.7 153.6 157 160.5 162.9 162.2 161.1 163.1 163.2 165.7 172.3 175.8 176.8 174.4 171.7 168.9 164.7 159.8 157.6 158.1 164.4 172 180.4 186.9 191.6 194.2 195.1 195.7 196.2 195 193.6 192.1 190 187 182.9 177.3 175 179.8 184.3 187.3 189.3 190.9 191.3 191.3 191.3 190.7 190 189 188.1 187.1 186 183.7 181.2 178.3 175.4 172.3 169.3 166.3 162.6 158.2 155.4 157.1 164.2 168.9 171.5 173.5 174.4 175.3 176.3 177.2 177.8 178.4 178.8 179.1 178.8 178 177.1 175.7 174.2 172.5 170.9 168.2 164.4 159.7 155.3 150.7 147 147.1 147.5 147.1 143.5 139.8 147.2 155.7 161.1 164.8 167.8 170.3 171.2 172.2 173 173.1 173.3 173.4
46.1 46.1 46 45.8 45.5 44.9 44.3 43.7 43.3 43.2 42 41.8 43.3 43.6 44 44.6 45.5 45.6 45.6 45.6 45.7 45.9 46.2 46.5 46.8 47.7 48.4 49.1 49.8 50.6 51.9 53.2 54.5 56.3 58.5 60.8 64 65.9 67.2 68.2 69.3 70.5 70.9 71.6 72.7 73.8 73.5 73 72.5 71.1 69.8 69.1 68.4 67.6 67.1 66.6 66.3 66 66.7 67.8 69.4 71.8 74.2 76.5 78 79.5 81.4 83.7 85.3 87.2 89.3 90.9 92.6 93.5 94.1 94.8 97 99.4 102.9 105.5 108 111.4 114.3 117.2 120 122.7 125.3 127.6 129.8 132.1 134.8 136.2 137.2 138.4 139.6 141.6 143.9 146.8 150.6 155.2 157.7 156.7 154.4 154.4 158.1 166.1 172.5 175 173.3 169 164.4 160.4 156.7 151.4 150.6 156.5 163.5 172.2 180.7 186.6 191.1 193.1 194 194.5 194.3 193.3 192.1 190.4 188 185.1 181.3 175.1 173.3 179.4 183.8 186.4 188.6 189.9 190.8 190.8 190.8 190.3 189.4 188.2 187.4 186.5 185.7 184 181.7 178.6 175.7 172.8 170.1 168.2 165.2 161.3 154.8 154 162.2 167.8 170.6 172.2 173.1 174.2 175.3 176.2 176.9 177.5 178.1 178.7 178.8 178.3 177.3 175.9 174.3 172.7 171.1 169.5 167.1 164.2 160.2 156.7 152.5 148 143.8 141.6 139.5 140 145.7 152.9 157.7 162.3 166.2 169.3 171 171.9 172.7 173 173.3 172.9
45.7 46 46 45.7 45.4 45.1 43.5 42.4 42.9 43.2 41.8 43.2 43.4 44.1 44.5 45.2 45.4 45.6 45.7 45.7 45.8 46 46.3 46.6 46.9 47.4 48.1 48.9 49.6 50.3 51 52.1 53.2 54.8 56.5 59 62.4 63.7 65.3 65.7 66.7 67.7 68.8 70 71.3 73.1 72.3 71.9 71.1 70.2 69.3 68.2 67 66.7 65.6 65.7 64.9 66.7 67.2 68.6 70.7 73.4 75.7 78 80 81.2 82.5 84.3 86.1 88 90.3 92.4 93.8 94.5 95 96.3 98.5 99.7 103.2 105.7 108.1 111.3 114.3 117.1 119.9 122.3 123.9 126.1 128.2 129.9 131.2 131.3 131.9 132.8 133.8 135.1 137.3 140.3 144.2 149 151.8 150.1 148.5 154.3 161.5 167.9 171.6 171.9 168.1 163.3 157.5 151.8 148.1 144.7 149.1 157.1 164.6 172.9 180.8 186.1 190.4 192.1 193 192.9 192.1 190.7 189.4 187.9 185.7 182.4 178 171.8 171 177.5 182.1 185.2 187.2 188.6 189.3 189.7 190.2 189.8 188.7 187.5 186.6 185.9 185 183.2 181.2 178.8 175.9 173.1 171 168.1 165.5 161.4 154.7 152.8 160.8 165.9 169.3 170.2 171.6 173.2 174.2 175.2 176 176.7 177.3 177.8 178.4 178.2 177.4 176.1 174.5 172.8 171.2 169.7 168.1 165.6 163.3 160.4 156.7 153 148.6 142.9 138.4 139.5 145.8 152.8 158.8 163.3 167.5 169.5 170.8 171.7 172.4 172.8 172.8 172.4
45.7 45.8 45.8 45.5 45.2 44.7 42.9 42.5 43 41.8 43.1 43.2 43.5 44.2 44.9 45.2 45.3 45.5 45.7 45.7 45.9 46.1 46.4 46.8 47.1 47.6 48.1 48.8 49.5 50.3 50.7 51.6 52.7 54.1 55.6 57.5 60.2 61.8 63.4 63.6 65.1 66.5 68 69.1 69.8 70.9 70.9 70.6 70 69.2 67.7 66.5 65.4 65.5 64.8 66.8 67 66.2 67.7 69.8 72.1 74.5 77.4 79.9 81.1 82.4 84.1 85.4 86.8 88.8 91.1 93.4 94.9 95.5 96.6 97.9 100.6 101 104.2 106.6 109 111.8 114.1 116.6 118.9 120.7 122.3 123.7 124.7 126.1 127.3 126.6 125.8 126.8 127.9 129.1 131.1 134.1 137.9 142.1 143.4 142.6 148.8 156.7 164 168.8 169.7 166.4 161.1 156 149.9 143.2 140.1 142.3 150 160.5 166.2 173.7 180.8 185.6 188.9 190.9 191.6 191.1 189.7 188.2 186.7 185 182.6 179.1 174.5 166.7 169.9 175.8 180.4 183.9 185.8 187.6 188.7 189.1 189.3 189 187.9 186.8 186.1 185.3 184.2 182.3 180.3 178.2 175.5 172.9 171 167.4 165 160.1 153.8 152.1 158.2 164.6 166.8 167.7 169.6 171.5 173.1 174.1 175.1 175.8 176.4 177 177.5 177.8 177.2 176.2 174.6 172.9 171.4 169.9 167.9 166.1 163.6 160.8 158.1 154.9 150 143 136 139.3 148.2 155.5 161.1 165 168.7 170.1 170.8 171.5 172 172 172 172.1
46 45.4 45.2 45 44.8 44.1 43.2 42.9 43 41.8 43.1 43.5 44.3 45 45.1 45.2 45.4 45.5 45.7 45.9 46 46.2 46.6 47 47.3 47.8 48.3 48.9 49.5 50.1 50.5 51.1 52.3 53.7 55.1 56.5 58.2 59.9 61.3 62.9 64.4 65.9 67.4 68.5 69.3 69.7 69.6 69.5 68.7 68 66.6 64.9 64.1 64.1 66 66.1 66.8 68.2 69.1 71 73.5 75.7 78.4 80.9 82.4 84.1 85.8 87.1 88.5 89.8 92.1 94.3 96 97 98.1 99.4 101.1 102.9 105.3 107.6 110 112.1 114.4 116.1 117 118.5 119.4 118.9 118.8 119.8 119.8 119.3 119.1 120.6 121.6 123.4 125.3 128.4 131.5 134 137.4 145.1 154.2 161.8 165.3 168.1 164.6 158.8 153.3 148.8 143.9 136.8 136.2 141.6 150.2 161.5 167.9 174.2 180 184.2 187.7 189.4 189.3 188.6 187.1 185.3 183.2 180.7 178.7 176.3 169.9 164.6 169.6 174.9 179.1 182 184.9 186.7 188.2 188.1 188.3 188.2 187.2 186.4 185.6 184.8 183.4 181.3 179.2 177.1 175 172.7 170.3 168.6 163.2 158.6 152.3 151.2 158.6 163.3 164 165.1 167.8 169.9 171.4 172.7 173.9 174.9 175.6 176.1 176.3 176.5 176 175.3 174.6 173 171.2 169.2 167.3 165.2 162.5 159.7 157 154.2 149.3 140.9 134.7 140.1 148.9 157 162.4 165.8 168.5 170 170.6 171.1 171.3 171.3 171.3 171.4
45 44.8 44.6 44.4 44.2 43.9 43.5 43.2 43.2 41.8 43.2 43.3 44.4 45.1 45.1 45.3 45.5 45.7 46 46.3 46.4 46.5 46.8 47.2 47.6 48 48.6 49.1 49.6 50.1 50.5 50.9 52 53.4 54.8 56.7 58.2 59.5 60.6 62.4 63.8 65.3 66.8 67.8 68.6 68.9 68.8 68.3 67.6 66.7 65.6 63.9 63.1 63.3 64.9 66.4 67.9 69.5 70.9 72.1 74.3 76.9 79.4 82.4 84.1 85.8 87.5 88.9 90.1 91.1 93.2 95.1 96.8 98.4 99.6 100.9 102 103.6 106.4 108.7 110.4 112.5 114.1 114.8 115.5 116 114.5 113.6 112.7 112.1 111.7 111.9 112.3 114.4 116.7 119.5 122.6 126.2 130.4 135.4 143 151.8 159.1 163.6 166.6 165.4 158.1 150.1 144.3 142 135.9 131.7 134.4 140.1 149.4 161.2 167.8 173.9 178.4 182.4 185.6 187.1 186.5 185.4 183.4 180.5 178.6 175 174.2 171.4 166.8 162.5 168.5 172.9 177 180.3 183.8 185.8 187.7 188.2 188 187.3 186.4 185.5 184.6 183.4 181.8 179.9 178 175.7 173.4 171 169 166.7 163.3 156.9 150.2 149.9 156.6 160 160.7 162.7 165.3 168 169.6 170.9 172 173 174.1 174.8 174.8 175.2 174.7 174.1 173.6 172.5 170.6 168.6 166.7 163.9 160.8 158.6 155.7 152.5 147.4 140.1 132.8 140.1 149.1 157 162.5 165.9 168.5 169.6 170 170.4 170.5 170.6 170.6 170.8
44.9 44.4 44.2 44 43.8 43.7 43.5 43.3 41.8 43 43.3 43.2 44 44.9 45.2 45.5 45.8 46.1 46.4 46.6 46.7 46.9 47.1 47.4 47.8 48.2 48.8 49.2 49.7 50.2 50.6 51.1 52 53.1 55.1 57.3 58.7 60 60.9 62.1 63.5 64.9 66.2 67.2 67.9 68.2 67.6 67.1 66.4 65.6 64.7 62.9 62.6 64.7 65.9 67.4 69 70.6 72.3 73.7 75.1 77.6 80.5 84.1 85.9 87.5 89.2 90.6 91.7 92.7 94.1 95.9 97.5 98.7 100.1 101.3 102.4 104.4 106.6 108.5 110.6 112.3 113.2 114.1 114.4 113.7 112.1 110.2 108.7 107.6 106.9 107.3 111.2 117 122.3 126 128.9 134 139.4 145.3 152.2 158.2 163 164 163.5 160.6 150.8 139.8 133.2 129.7 127.8 129.5 134.6 140.3 149.1 159.8 167.3 172.5 176.9 179.9 182.2 182.8 183.1 181 177.3 174.7 171.9 170.3 169.9 167.3 162.2 160.5 166.6 171.1 175.1 178.9 182.5 185 186.9 187.8 187.5 186.4 185.3 184.3 183.4 182 179.6 177.6 175.5 173.1 171.1 169.2 166.9 164 160.5 156.7 149.4 149.1 155.1 157 157.6 160.5 163.4 165.6 167.5 168.6 169.5 170.5 171.8 173.2 173.4 173.8 173.6 173 172.4 171.7 169.9 168 165.8 162.7 159.6 156.4 153.1 149.8 145.9 139.5 131.8 140 149.5 156.2 162.1 165.7 168 168.9 169.3 169.6 169.8 169.9 169.9 170.1
45.3 43.9 43.7 43.5 43.4 43.4 43.2 41.8 43.3 43.4 43.6 43.5 43.8 44.6 45.3 45.7 46.1 46.4 46.7 46.9 47.1 47.2 47.4 47.7 48.1 48.4 48.9 49.3 49.8 50.3 50.8 51.3 52.2 53.7 55.6 57.8 59.2 60.4 61.2 62.1 62.7 64 65.1 66.1 67.2 67.1 66.4 65.9 65.3 64.4 63.4 62.2 63.8 65.8 66.9 68.5 70 71.7 73 75.4 76.8 78.3 81.6 85.1 87.7 89.3 90.9 92.2 93 93.6 93.7 96.2 97.3 98.6 100.1 101.4 102.7 104.4 106.3 108.1 110 111.7 112.6 113 113.2 112.2 111 109 106.6 105.1 104 106.4 111.8 119.9 127.4 131.9 136.7 142.1 147.9 152.7 157.8 162.1 163.5 162.2 160.5 154.3 143.7 134.4 125.9 124.1 127.1 134.4 140.8 145.1 153.1 159.8 167.1 170.5 174.4 176.4 178.3 178.4 178 176.1 171 167.5 165.4 164.1 164.1 162 158 161 166.5 171.1 175.5 179.4 182.3 185 186.3 187.6 187 185.5 184.2 183.2 182.2 180.6 178.2 175.4 173.4 170.1 168.2 166.1 163.3 160.4 157.1 153.2 148.3 146.7 150.4 152.6 155.4 158.8 161.2 162.8 164.7 166.1 167 168.1 169.5 170.9 171.9 172.2 172.5 171.9 171.2 170.5 169.1 167.3 164.6 161.2 157.7 153.7 149.5 145.8 141.9 136.9 131 137.9 147.8 154.5 160.7 164.6 167 168.1 168.6 168.8 169 169.1 169.2 169.6
44.7 43.9 43.3 43.2 43.1 41.8 41.8 43.6 43.9 43.9 44 44 44 44.3 44.9 45.6 46 46.5 47 47.3 47.4 47.6 47.7 48.1 48.4 48.8 49.3 49.7 50.1 50.5 51 51.7 53.2 54.6 56.4 58.2 59.6 60.7 61.6 62.5 63.2 63.8 64.3 65.4 65.9 66.2 66.2 65.2 64.2 63.1 62.1 62.3 64.3 66.4 67.8 69.4 70.9 72 73.4 76.3 78.5 80.7 83.6 86.7 88.9 91 92.2 92.8 93.5 94.1 93.1 96.2 97.2 98.3 99.7 101.1 102.5 104.2 106.1 107.8 109.4 110.4 111.5 111.9 111.4 110.7 109.4 107.7 105.1 102.9 102.1 105.3 110.1 118.2 128.1 135.7 142.3 148.1 153.5 156.7 160.4 162.8 162.6 159.8 155 147.6 138 128.6 121.5 124.3 131.5 137.8 145.5 151.6 154.6 161.6 166 168 170 172.2 173.8 174.4 173.7 170.4 164.9 159.8 157 155.4 157.1 155.1 155.8 162 167.8 172.3 176.4 179.9 182.6 185.3 186.4 187.3 186.5 184.6 183.6 182.6 181.2 179.2 176.9 174 171.3 167.8 165 162.4 159.7 156.8 154.3 153.2 149.1 144.5 145.8 148 152.4 155.2 158 159.8 161.7 163.2 164.5 165.8 167.2 168.7 169.7 170.2 170.8 170.7 170 169.3 168.4 166.7 164.2 161.1 157.9 155.1 151.7 148.5 143.6 137.4 132.2 134.5 144.7 152.7 159.1 163.8 165.8 166.8 167.4 168 168.1 168.4 168.8 169
44.8 43.3 43.2 43.2 41.8 41.8 43.5 44.2 44.6 44.7 44.7 44.8 44.7 44.6 45.1 45.7 46.6 46.9 47.1 47.6 47.8 47.9 48.1 48.4 48.7 49.1 49.6 50.1 50.5 50.9 51.4 52.1 53.9 55.5 57.2 58.7 60 61.2 62 63 63.7 64.1 63.9 64.3 64.7 65.1 65.5 64.7 63.4 62.3 61.3 63.4 65.4 66.5 68.1 69.8 71.4 72.7 74.9 77.6 80.3 82.9 85.4 87.6 89.8 91.4 92.8 93 93.8 94.1 93.1 95.4 96.9 98 99.4 100.8 102.3 103.9 105.4 106.9 108.5 109.8 110.4 109.4 107.9 106.9 106.5 106.1 103.8 101.4 101.1 103 107.5 115.5 125.1 135.4 143.8 150.2 154.8 157.7 158.9 159.3 157.3 154.3 148.5 139.9 131.7 124.1 118.8 123.4 130.4 137 143.7 151 155.7 160.3 162.7 163.3 163.8 165.9 168.5 170.5 169 165.1 158.9 151.8 147.5 147 150.6 154.8 158.5 163.8 169.2 173.9 177.7 180.1 182.8 185.5 186.8 186.8 185.7 183.9 183 182.2 180.8 179.1 176.6 173.6 171.1 169.2 167.3 165 162.5 159.7 157.6 155.1 151.4 146.6 142.6 144 147.1 149.9 153.3 156.2 158.5 159.9 161 163.1 164.7 166.4 167.6 168.2 168.9 169 168.8 167.8 166.8 166.5 165.1 162.6 160.4 158.1 155.4 151.5 147 140.3 133.2 132.2 140.2 150.7 157.5 161.8 164.3 165.4 166 166.8 167.6 168.2 168.4 168.5
43.7 43.3 43.1 41.8 41.8 43.3 43.9 44.7 45.4 45.3 45 44.9 45 45.2 45.3 45.9 46.4 46.9 47.2 48 48.1 48.3 48.4 48.7 49 49.5 50 50.4 50.9 51.3 51.7 52.6 54.3 56 57.7 59 60.1 61.5 62.8 63.8 64 64.3 63.8 63.4 63.8 64.2 64.7 64.5 63.1 61.7 61.3 63.4 65.3 66.8 68.1 69.8 71.5 73.9 76.3 78.8 80.6 82.7 85.9 88.4 90.4 91.9 92.7 93.1 93.4 93.4 93 93.7 95.1 96.2 97.2 99.1 101.1 103 104.6 106.1 107.6 108.7 109 107.1 104.5 103.1 102.6 103.2 101.6 99.6 99.1 101.5 105 111 119.8 129.9 139.6 146.4 150.2 153.3 154.5 152.5 148.5 143.3 137.5 130.9 124.8 118.9 116.2 119.3 123.9 129.1 136 146 151.2 155.9 158.5 156.1 156.7 159.1 162.9 166 164.8 159.5 152.8 145.2 144.2 150.6 155.9 159 162.3 165.8 170.7 175.5 178.6 180.8 182.9 185.4 186.5 186.4 185 183.5 182.6 181.8 181.5 180.2 178.9 176.7 175 173.1 171 168.7 166.5 164.6 162.4 160 155.8 151.1 146.7 142.9 140.7 145.1 148.1 152 153.9 155.2 156.5 159 161.2 163 165 166.2 166.9 166.9 166.8 166 165.8 165.9 165.1 163.5 161.3 159.3 157.1 153.4 148.6 142 134.7 128.7 137.3 147.1 154 159.1 161.1 162.5 163.4 164.8 166.1 167.1 168.3 168.2
43.6 43.3 41.8 41.8 43.1 43.6 44.6 45.4 45.4 45.1 44.8 44.9 45 45.3 45.8 46.1 46.4 46.7 47.3 48.1 48.5 48.6 48.7 49 49.3 49.8 50.3 50.8 51.3 51.7 52.2 53.2 54.6 56.4 57.6 58.8 59.9 61.3 62.7 63.5 63.9 63.8 63.5 62.7 63 63.4 63.8 64.1 63 62.3 61.8 63.4 65.3 66.7 68.2 70.1 72.7 75 77.1 79.4 81 82.6 86 89.3 90.7 91.8 92.4 92.6 92.7 93 92.8 93.4 93 93.3 94.3 95.9 98.3 100.9 103.2 105 106 106.7 107.2 105.6 103.3 100.2 99.6 100 99.2 96.9 97.5 100 103 107.2 113.8 121 129 135.1 139.5 143.6 144.4 141.6 137.2 132.3 127 122.9 119.1 115.6 113.6 115.2 117.9 121.9 127.7 136.4 143.7 149.6 151.8 149.4 148.9 151.2 157.6 160.5 160.3 155.3 147.8 141.1 146.4 153.3 158.2 162.1 164.9 169.1 173.2 177.2 179.3 181.5 183.2 185.3 186.3 185.9 184.3 183.1 182.1 181.7 181.4 181.3 180.7 179.7 178.5 177.1 174.8 172.5 170.3 168.7 166.3 163.8 160.5 156.6 151.8 146.9 141.9 137.7 142.4 146.5 148.8 149.7 151 153.7 157.8 160.1 162 163.4 164.9 164.8 164.7 164.8 164.8 164.9 164.8 163.7 162.3 160.3 158.1 155 150.2 144.2 136.6 128.6 131.9 141.3 149.3 155 156.8 159 162.1 163.5 164.8 166.1 167.1 168.1
41.8 41.8 42.4 43.1 43 44.4 45.2 45.2 45.1 44.9 44.8 44.9 45.3 45.8 46.3 46.7 46.9 47.2 47.3 48.1 48.5 48.6 49 49.3 49.6 50 50.5 51 51.5 52 52.6 53.7 54.7 56.8 57.6 58.5 59.2 60.4 62.1 63 62.9 62.8 62.8 62.4 62.2 62.6 62.7 62.3 61.9 61.6 62.6 63.9 65.5 67.3 68.4 70.5 72.9 75.1 76.5 79.7 81.7 83.4 86 89 90.5 91.1 89.8 88.3 87.4 86.7 86.9 87.5 87.5 87.9 89.4 91.7 94 96.9 100 101.6 103.2 103.8 104.3 102.7 100.5 97.7 95.8 95.9 95.6 94.6 95.8 97.8 100 103.7 107.5 112.2 117.6 122.8 127.9 132.4 132.7 129.9 126 122.3 119.1 116.7 114.4 112.2 111.6 112.7 114.3 116.6 121.6 128.8 136 140.7 143.9 142.2 141.2 144.7 149.7 152.9 153.7 150.8 143.9 140 145.8 151.1 156.8 162.9 168.3 172.5 176.5 179.3 181.3 182.1 183.8 185.2 185.9 184.8 183.5 182.6 181.5 181.7 181.5 181.4 181.4 180.3 179.1 178.2 176.9 174.9 172.6 170.3 168.2 165.9 163.1 159.3 155.5 150.7 146.4 142.5 138.1 140.4 142.3 143 145.5 149.4 153.6 157.2 159 160.5 161.7 162.5 162.8 163.4 164.1 164.3 164.2 163.5 162.4 161 158.4 155.9 151.6 146.3 139.2 132 127.3 135.6 143.5 150.3 152.7 157 160.7 162.7 164.1 165.3 165.9 166.6
41.8 42.4 42.2 43.4 44 45.1 45 44.9 44.9 45.1 44.8 45.3 45.8 46.3 46.8 47.2 47.5 47.1 46.8 47.9 48.3 48.6 49 49.5 49.9 50.2 50.7 51.2 51.7 52.2 52.8 53.9 55 56.5 57 58.2 59.4 59.8 61.5 61.8 61.8 61.8 61.8 61.7 61.4 61.7 61.1 60.4 60.6 61.2 63.3 64.6 66.3 67.4 68.9 70.8 73.4 75.5 77.3 79.4 81.7 83.9 85.8 87.2 87.5 86.5 84.3 82.5 80.9 80.1 80.9 81.4 82 82.9 84.2 86.1 88 90.9 93.8 96.1 98.5 99.7 99.8 98.7 96.6 94.4 92.4 92.5 92.1 92.4 93.8 95.6 97.4 99.8 102.7 105.8 109.3 112.5 116.7 120.6 120.6 119.2 117.1 115.4 113.9 112 111 108.8 109.9 112.5 113.6 114.4 116.7 122.4 128 132.8 135.1 134.5 133.9 137.5 139.9 142.6 144.6 143.8 138.7 139 143.7 148.5 155.7 163.6 170.6 175.9 179.5 182.3 183.8 184.4 184.1 185.3 185 183.9 182.6 181.4 180.5 181.1 181.6 181.6 181 180.5 179.8 178.9 177.5 175.7 174 171.5 169.3 167.1 164.5 161.5 158 155.5 152.6 149 144.6 140.4 134.4 136.5 139.1 143.3 149.4 153.4 155.8 157.4 158.6 159.4 160.9 161.8 162.8 163.5 163.8 163.3 162.3 161 158.9 156.3 152.7 148.1 141.3 133.8 127.6 131.4 138.8 145.2 149.4 155.3 159.3 161.3 163.3 164.1 164.8 165
43.1 42.9 43.2 44.2 44.8 44.9 44.8 44.8 45 45.2 45.1 45.8 46.3 46.8 47.2 47.4 47.7 47.8 47.4 47.7 48.1 48.6 49 49.5 50 50.4 50.8 51.4 51.9 52.4 53 54.1 54.9 55.7 56.5 57.7 58.8 59.8 60.6 60.6 60.6 60.6 60.6 60.7 60.7 60.8 60.8 60.8 61.1 62.2 63.9 65.3 66.6 67.5 69.2 71.1 73.5 74.7 76 77.4 78.7 81.1 82.9 83 82.1 79.8 77.4 75.8 75.2 75.7 76.6 77.3 77.8 78.5 80 81.2 83.1 85.2 87 89.5 92.1 93.3 94.3 93.8 91.8 89.9 89.4 89.7 90 90.4 91.6 92.9 94.8 96.7 99.1 101.2 103.7 106 108 110.2 111.1 112 111.8 110.8 109 108.2 107.1 109.3 113 116.5 119 118 116.2 118 121.3 125.2 127.3 127 127.6 129.1 131.6 133.6 135.2 135.5 135.9 140.2 143.5 149.9 157.9 166.8 173.8 179.2 182.5 184.6 186.1 186.7 186.4 185.4 184.8 183.2 181.4 180.2 179.5 179.6 180.8 181.1 180.5 179.9 179.2 178.3 177.5 176 174.3 172 169.7 167.5 165.3 162.6 160.3 158.5 156.9 154 151.1 146.7 142.8 138 132.5 137.1 144.4 149.8 152.4 153.5 154.9 156.9 159.3 161.1 162.2 162.7 163.1 163.2 162.2 160.7 159.2 156.7 153.7 149.2 142.8 135.7 128.3 128.2 134.4 141.3 148 154 157.8 159.9 161.6 162.9 163.5 164.1
43 43.4 44.1 44.4 44.6 44.7 44.7 44.9 45.1 45.3 45.4 46.2 46.6 46.7 46.8 47.2 48 48.3 48.1 48.1 48.5 48.8 49.2 49.7 50.1 50.6 50.8 51.3 51.9 52.5 53.1 53.7 54.6 55.3 56 57 57.9 58.8 59.5 59.8 59.8 59.8 59.9 59.9 59.7 60.3 61.1 61.1 61.6 63.3 64.6 65.5 66.6 67.9 69.7 71.4 73 73.5 73.6 73.7 74.3 75.8 77 76.5 75.4 73.6 74.1 75.3 77.3 79 80.3 79.9 79.3 78.4 79 79.8 80.1 81.5 82.5 83.8 85.7 87.1 88.6 88.1 87.5 86.9 87.5 88.4 89.8 90.4 91.1 92.1 92.6 93.9 96 97.6 99.5 101.3 103.1 104.7 106.8 107.9 106.3 105.8 105.1 105.8 107.8 112.1 117.6 124.7 128.1 126.3 121 118.9 119.5 120.8 122.3 123.7 125.6 127.2 129.4 131.1 134.1 138 142 144.6 148.4 149 161.6 170.8 177.6 181.9 185.3 187.5 188.2 188.5 186.9 185.6 184.7 183 180.9 179 178.5 178.3 179.5 179.7 179.3 178.7 177.8 177 176.8 176 174.2 172.2 170.1 167.8 165.6 164.1 162.4 160.8 159.1 157.4 154.6 151.6 147.4 143.1 135.8 132.7 139.3 145.6 147.9 148.8 151.4 155.1 157.6 160.1 161.5 161.8 162.2 162.6 161.9 160.5 159 156.7 153.7 150.1 143.5 136.4 129.4 125.9 131.8 139 145.7 151.7 155.6 158.6 160.3 162 162.6 163.2
43 43.8 44.6 44.5 44.5 44.6 44.8 45 45.2 45.4 45.6 46.1 46.7 46.8 46.9 47 48.2 48.9 48.8 48.7 48.9 49.2 49.5 49.9 50.3 50.6 50.9 51.1 51.7 52.2 52.6 53.3 54.2 55 55.5 55.9 56.8 57.5 58.2 58.7 58.9 59.1 59.1 59.2 58.9 59.7 60.4 61.1 62.2 63.8 64.1 64.6 66.1 67.4 68.7 70 70.5 70.5 70.4 69.4 69.9 70.5 71.3 71.9 72.3 74.3 76.7 79.5 81.9 84.4 86 86.3 84.4 82 81.3 80.9 80.1 81 81.8 82.3 82.8 83.6 84.4 84.9 85.4 86.1 87.8 89.8 91.4 92.7 93.4 93.5 93.2 93.2 93.6 95.5 96.8 97.9 98.9 100.8 100.5 101.4 103.2 103.5 105.5 107.2 111 115.6 124.7 134.5 139.1 136.2 129.1 125.3 124.5 123.8 126.5 128.7 131.7 133.9 136 138.7 142.3 147.5 151.6 155.9 160 163.2 169.1 175.7 181.2 185.2 188.4 189.5 190 189.5 187.7 185.9 184.4 182.7 180.9 178.5 177.6 176.9 177.9 177.7 177 176.7 176.4 175.7 175 174.1 173.2 171.4 169.4 167.4 165.9 164.2 162.3 160.5 158.8 157.6 156 153.7 148.7 145.6 139.5 132.8 135.2 140.2 142.5 145.2 150.5 155.1 157.3 159.8 160.7 161.4 161.9 162 161.3 160.6 159.1 156.6 153.3 149.3 143.7 137.1 129.9 125.1 129.5 136.4 142.9 148.8 154 157.2 159 160.8 161.8 162.3
43.3 44.3 44.8 44.7 44.7 44.6 44.8 45 45.2 45.4 45.6 46 46.4 47 47.1 47.3 48.6 49.4 49.2 48.9 49.1 49.4 49.7 50.1 50.4 50.7 50.9 51.2 51.4 51.9 52.4 52.9 53.9 54.5 54.6 54.8 55.5 56.1 56.9 57.6 57.8 58 58.3 58.5 59.4 60.3 61 61.7 62.8 63.3 63.7 64.1 64.8 66.1 67.2 68.1 68 67.9 68.1 68.5 68.9 69.6 70.5 71.7 75.2 77.8 80.4 83.8 87.2 89.5 91.1 91 88.9 88.1 87.4 86.8 84.4 82.4 82 82.4 82.7 82.9 84 84.7 85.7 87.3 89.6 92.4 96.9 98.3 98.1 97.2 96.3 95.6 95.7 96.3 97.1 97.9 98.5 100.1 101.3 102.2 103.4 105.5 107.5 110.8 114.9 122.4 133.7 143.6 147.7 146.1 141.8 137.9 135.3 133.2 136.2 138.9 142.4 145.4 148.7 151.8 155.7 159.9 163.8 167.1 170 172.6 175.7 179.9 183.9 188 190.1 191.2 191.6 190.8 189.1 186.8 184.6 182.9 181.1 178.7 176.7 175.8 175.9 175.4 174.8 174.5 174 172.8 172.4 171.8 171 169.6 167.6 166 164.8 163.3 161.7 160.2 158.7 157.5 155.4 152.6 148.8 145.2 139.3 134.2 131.1 134.4 139.2 145 150 154.5 157.3 159.4 160.1 160.8 161.5 161.1 160.3 159.5 158.7 155.2 151.6 148.2 144.3 137.8 130.4 124.6 127.5 134.6 141.8 147.1 152.9 155.9 157.9 159.7 160.5 160.8
43.9 44.6 44.9 44.9 44.9 44.8 44.8 44.9 45.1 45.2 45.6 46.1 46.5 46.8 47.2 48 48.8 48.8 48.8 49 49.2 49.5 49.8 50.4 50.8 51.1 51.4 51.6 51.9 52.2 52.5 53 53.7 54.5 54.7 55 55.4 55.8 56.5 56.7 57.4 58.1 58.9 59.6 60 60.9 61.6 62.3 62.1 62.7 63.6 63.7 64.3 64.9 65.5 66 66.4 66.6 67.2 68 68.8 69.6 71.3 74.4 78.1 81.3 84.1 87.5 89.8 91.2 92.7 93 91.5 92.8 93.3 92.4 90.3 87.7 85.9 84.6 84.3 84.2 84.8 86.1 87.6 89 91.6 96.7 101.4 102.9 102.3 100.9 99.8 98.6 97.8 98.4 99.2 100.2 101.9 104 105.6 105.8 106.9 108.4 111.3 116.5 124.7 134 143.6 151.4 155.2 154.7 153.6 152.5 149.9 150.4 152.5 154.9 157.1 158.7 160.7 163.2 165.7 168.6 171.8 175 177.5 179.6 181.9 184.3 187 189.7 191.4 192.8 193 191.9 190.1 188.1 186.1 183.8 181.3 179.3 177.5 175.4 173.1 172.8 171.9 171 169.9 168.4 168.6 168.8 168.8 167.7 166.1 164.5 163.1 161.9 160 157.8 156.5 154.3 152.4 149.8 146.6 142.9 139.4 133.3 130.6 131.1 137.6 142.9 149.1 153.5 156.9 158.7 160 160.7 160.9 160.4 159 157.6 156.8 154.2 151.5 148.4 144.6 138 130.8 125.9 127 134.8 142.2 147.2 152.1 154.8 157.1 158.3 158.8 159.3
44.8 44.8 44.7 44.7 44.7 44.7 44.7 44.9 44.9 45.1 45.6 46.1 46.6 46.9 47.3 48.7 48.6 48.7 48.9 49.1 49.4 49.6 50.1 50.7 51.2 51.5 51.8 52.2 52.8 53.3 53.8 54.1 54.2 54.7 55.1 55.4 55.8 56.3 57.2 57.8 58.5 59.3 60.2 60.9 61.4 61.8 61.9 61.9 61.9 62.4 63.1 63.4 63.8 64.3 64.8 65.1 65.9 67.5 68.6 69.4 70.4 71.7 74.5 77.6 80.6 83.7 86.8 89 90.6 91.7 93.2 94.7 95.6 96.6 97.4 97.5 96.3 95.2 93.7 91.6 89 88.3 88.7 90.2 91.4 90.8 94.9 101.1 104.8 106.3 106 104.5 103.2 101.3 100.1 100.5 101.3 102.5 104.4 106.9 108.7 109.2 110.1 112.4 116.1 124.3 134.5 144 151 157.5 161.5 163 163.4 163 161 161.4 162.8 164.5 165.4 167.3 167.4 169.6 171.6 174.5 177.3 180.1 182.5 184.6 185.5 186.8 188.7 191.1 192.8 193.8 194.1 193.3 191.1 189.1 187.1 185.4 182.7 180.4 178.6 176.4 174.9 172.6 170.6 168.7 166.8 164.9 164.5 164.7 164.6 163.4 162.4 161.4 160.5 158.8 156.8 154.7 153.1 149.1 146.8 144.6 142.1 139.1 136 131.7 129.5 128.3 133.9 140.1 146.4 152.6 156.1 158.1 159.5 160.1 160.2 159.6 158.1 156.5 154.8 152.6 150.4 148.2 143.6 138.4 131 124.7 125.6 134.1 142.9 148.6 152.6 154.8 156.2 156.8 157.3 157.9
44.8 44.6 44.5 44.5 44.5 44.5 44.9 45.1 44.9 45.3 46 46.7 47.3 47.6 48 48.9 48.9 48.9 49.2 49.4 49.7 50 50.5 51.2 51.6 52 52.7 53.4 54 54.6 55 55.1 55.2 55.3 55.6 55.9 56.3 57 57.9 58.8 59.8 60.6 61.5 62.1 62.7 63.2 63.4 63.5 63.3 63.1 62.9 63.1 63.5 64.5 65.5 65.6 66.7 68.5 70.1 71.1 73.1 74.8 77.7 80.5 83.1 85.8 88.1 89.8 90.9 92.1 93.4 94.7 96.1 97.6 99 99.7 99.7 99.9 100.1 97.9 96.2 95.7 95.7 97 96.3 92.9 96.9 103.6 107.3 108.8 108.8 107.7 105.4 103.1 102.2 102.6 103.5 104.8 106.8 108.3 110.8 112.6 114 116.7 121.3 128.8 140.7 149.9 156.1 161.9 165.2 167.3 169 168.6 166.5 165.2 167.2 169.3 170 172.2 172.6 173.3 175.3 177.2 179.3 182 184.3 184.5 184.9 186.7 189.5 191.7 194.4 194.9 195.3 195 192.9 190.7 188.5 186.4 184.7 182 179.7 178 177.1 175.9 174.6 172.1 170 166.6 163.3 160.7 159.6 158.2 157.1 155.8 154.5 154.5 152.3 148.3 145.1 141.4 140.5 140.5 139.4 137.8 136.4 137.9 133.6 126.9 130.6 137.9 144.7 151 155.3 157.6 158.8 159.3 159.3 158.5 156.4 154.7 153 151 148.7 146.4 142 136.8 129.4 123 125 134.6 143.5 148.7 153 154.5 155.7 156 156.3 156.2
45.1 44.6 44.3 44.3 44.4 44.7 45 45.3 46.6 47.6 47.6 47.7 48.3 48.3 48.7 49 49.1 49.2 49.5 49.7 50 50.4 51 51.5 52.9 53.7 54 54.6 55.3 55.8 55.9 55.9 55.8 56.1 56.3 56.6 57 57.6 58.5 59.6 60.8 61.9 62.8 63.4 64.3 65 65.7 65.7 65.8 65.5 65.2 64.9 65.3 66.2 66.2 66.3 67.4 69.2 71 73.2 75.4 77.9 80.5 82.7 84.8 86.7 88.4 89.7 90.8 91.9 93.2 94.4 95.8 97.3 98.8 100.8 102 102.9 103.2 103.9 103.2 102.4 102.7 101.9 99.4 94.6 98.6 105.1 109 110.9 111.2 110 107.6 105.9 104.5 104.6 105.9 107.1 108.4 109.7 112.2 115.5 120.8 125.9 131.4 136.1 145 153.6 159.7 165.4 168.6 171 172 172.8 171 169.9 170.5 172.9 174.8 175.9 176.7 177.1 179 180.5 182 183.5 184.9 185 184.9 188 190.4 191.9 195.1 195.7 196.4 196.3 194.7 192.5 190.3 188.1 186 183.9 181.6 180.4 179.6 178.8 177.9 175.7 173 169.3 165.9 163 160.4 158.1 156 154.1 151.9 149.7 147.6 147.6 147 147.1 147.4 147.2 146.3 144.9 143.1 139.5 135.2 128.8 127.4 135.4 143.5 149.3 153.3 156.3 158.1 158.5 158.3 157.5 155.4 153.1 151.1 149.4 147.1 143.7 139.5 134.8 127.1 122.3 125.3 135.2 144.3 149.5 153.1 154.3 154.9 155.2 155.4 155.3
45 44.7 44.3 44.3 44.6 44.9 45.4 47.3 49.4 50.2 50.2 50.1 49.4 49.1 49 49.1 49.3 49.4 49.9 50.4 50.9 51.3 52 53.3 54.7 55.8 56.3 56.6 57 56.6 56.5 56.4 56.5 56.8 57.1 57.3 57.6 58.2 59.3 60.5 61.7 62.8 64.6 66.7 68 68.6 68.6 68.5 68.5 67.9 67.5 67.2 66.9 66.9 66.8 67.1 67.9 69.7 71.8 74.3 76.7 79.2 81.7 84 86.1 87.5 88.6 89.7 90.6 91.2 92.1 94.2 95.5 96.9 98.2 100.6 103 104 105.1 105.7 105.9 106.5 106.1 105.3 101 96.1 99.5 105.6 108.8 110.8 111.7 111.8 110.2 108.8 107.6 107.7 108.9 110.4 111.8 113.8 116 121.5 129.3 137.9 144 147.1 150.5 156.4 162.7 167.3 170 171.9 173.2 173.9 174.1 173.4 173.4 175 175.5 175.9 177.2 176.3 178.6 180.1 181.6 182.9 184.2 185.4 185.3 187.1 189.4 191.8 195.6 196.2 196.9 197.5 196.5 194.3 192.3 190.2 188.2 186.2 184 182.9 182.2 181.4 180 178.2 175.4 172.8 170 167.1 164.3 162.7 160.1 157.6 156.6 155.1 154.1 153.9 153.9 153.9 153.6 154.1 152.5 150.7 148.8 143.4 137 129.4 126.1 132.4 140.8 146.7 151.3 154.3 156.6 157.6 157.4 156.4 154.6 152.3 150 147.8 144.9 140.8 136.7 131.9 124.8 120.6 126.6 137 145.2 150.6 153.3 154.4 154.1 154.2 154.5 154.5
45 44.6 44.2 44.3 44.6 45.1 48.2 50.6 52.1 52.8 52.6 52.1 51 50.2 50.1 50.1 50.2 50.3 50.8 51.3 51.9 53.5 54.6 55.7 56.6 57.5 58.6 58.6 58.2 57.9 57.2 57 57.3 57.6 57.9 58.1 58.6 59.1 60.2 61.5 63 64.7 67.1 69.4 72.4 73.1 73.4 73.5 73.2 72.5 71.5 70.5 69.3 69.2 68.4 68 68.4 70.3 72.5 74.6 77.2 79.8 82.2 84.6 86.7 87.6 88.3 89 89.7 90.1 91.4 93.2 94.8 96.3 97.7 100.2 102.5 104.7 105.9 107.2 107.7 108.1 107.6 105.9 102.9 98.2 98.8 103.8 107.1 109.6 111.4 112.6 112.4 111.6 111 111.2 112.8 114.5 115.9 118.4 124.5 132.2 140.4 146.1 149.4 151.2 155.7 160.2 165.7 169 171.2 172.3 173.8 174.8 175.3 175.5 175.5 175.2 175.3 174.8 175.3 174.7 177.4 179.7 180.9 181.3 182.6 184 184.8 187.1 189.3 191.5 194.9 196.5 197.1 197.9 197.6 196.4 194.5 192.5 190.5 188.5 186.5 185.4 184.6 183.1 181.6 180.1 178.3 175.7 173.2 170.6 168 165.6 163.1 160.9 160.3 159.2 158.1 158.1 158.1 157.8 157.1 156.4 155.3 153.5 150.9 145 139.1 133.4 125.3 128.5 135.8 143.1 148.8 152.6 154.8 156.3 156.1 155.2 153.8 151.5 149.3 147 143.3 137.8 132.9 128.3 123.1 120.1 127.5 138.4 144.9 151.4 153.4 154 153.7 153.5 153.5 153.7
45 44.6 44.2 44.3 44.6 46.5 51.2 53.7 55 55 54.5 53.7 52.6 51.5 51.3 51.3 51.3 51.3 52 53.2 54.4 56 57.2 58.3 59.2 59.6 59.8 59.5 59.3 59.1 58.4 57.9 58.1 58.4 58.7 59.5 60.2 60.8 62.1 63.7 65.9 68.4 71.3 74.7 77.4 78.4 78.5 78.2 77.8 77.2 76.4 75.1 73 71.2 70 68.8 68.9 70.2 72.2 74.2 76.8 79.3 81.9 84.4 86 86.7 87.3 88 88.7 89.1 90.6 92.2 93.8 95.4 97.3 99.7 102 104.2 105.9 107.2 108 108.5 108.3 105.8 103.7 100.5 98.8 102 104.7 107.1 110.1 112.5 113.6 114 115.3 118.5 122.9 124.9 123.4 123.9 129.1 139.2 146.8 153 155.5 157.2 161.1 164.5 168.5 170.5 171.7 172.7 173.7 174.5 174.7 174.6 174.4 174.2 172.6 172 172.4 173.8 175 177.2 179.5 180.7 181.5 182.7 184.5 187.3 189.7 191.6 194.2 196.6 197.7 198.4 197.9 197.6 196.7 194.8 192.7 190.5 188.5 186.9 185.6 184.2 182.8 181.3 179.3 177 174.5 172.3 169.7 167.7 165.8 164.2 163.3 162.4 161.3 160.8 159.9 159.1 158.3 157.4 156.1 154.5 151.8 146.3 142.3 133.6 126.3 123.8 130.1 138.4 145.1 150.3 152.9 154.7 154.6 153.8 152.9 151.1 148.8 146.1 142.2 136.6 130.9 125 120.7 121.1 130 141 147.8 151.8 153.6 153.1 152.9 153 152.8 152.8
44.9 44.5 44.1 44.4 46.1 49.8 53.5 56 56.9 57.1 56.6 55.4 54.3 53.3 52.7 52.6 53.4 54 55 56.3 57.3 58.6 59.8 60.9 61.9 61.4 60.6 60.2 60 59.9 59.3 59 59.1 59.5 60.4 61.1 61.8 63.2 65.4 67.6 70.2 73.4 76.8 80.3 82.3 83.5 83.1 82.8 82.4 81.8 80.1 78.7 76.1 72 70.6 69.2 68.4 69.9 71.9 73.8 76.4 78.9 81.1 83.1 84.8 85.5 86.2 86.5 86.7 87.4 89.6 91.2 92.8 94.4 96.6 99.1 101.4 103.6 105.6 106.9 107.5 107.9 107.2 105.6 103.7 101.5 100.5 101.1 103.1 106 109.4 112 114.7 118.5 122.4 128.3 134.2 135.6 132.4 133.8 136 144.2 151.2 157.1 161.3 163.6 166.3 168.6 170.1 171.2 172 172.8 173.6 173.9 174.1 173.7 173.1 171.4 169.3 169.9 170.8 174.2 175.7 177.2 179.1 181.2 182.2 183.2 184.8 187.5 189.7 191.4 193 195.2 197.3 198.1 198.1 197.8 197.3 195.2 193.4 191.6 189.8 187.4 186.3 184.9 183 181.1 179.4 177.3 175.4 173.4 171.2 169.6 168.1 166.6 165.3 164 162.8 161.8 161 159.9 158.7 157.6 156.3 154.6 152.1 147.8 144.5 139 128.9 123.2 124.7 132.9 139.1 146.4 149.8 152.8 153.1 152.4 151.1 149.4 147.2 144.3 140.4 135.4 129.3 122.9 118.9 122.7 133.4 143.3 149.8 152.1 153.4 152.5 151.6 151.7 151.7 151.9
44.5 44.4 44.2 45.6 48.3 52 55 57.5 58.5 59.2 58.3 57.1 55.5 54.6 54.1 54.4 55.9 57.1 58.4 60 61 61.9 62.9 63.8 63.8 63.3 62 61 60.8 60.6 60.1 60.1 60.6 61.2 62.3 63.5 64.9 67.5 69.9 73 76.1 79.2 82.6 85.3 86.9 87.9 88.3 87.8 86.4 84.4 81.8 79.8 77.1 73.9 70.7 68.8 68 69.6 71.6 73.6 75.7 77.7 79.7 81.7 83.5 84.4 84.5 84 84.5 85.8 88.1 90.1 91.7 93.7 96 98.3 100.7 103 105 106.2 107 106.9 106.2 105.9 104.5 103.4 102.3 102.1 102.8 105.9 109.4 112.7 118.1 124.5 130.4 136 141.2 143.6 142.7 144.2 146.2 148.6 154.7 160.5 164.8 167.6 169.6 170.7 170.9 170.6 171.4 172.2 172.9 173.4 173.3 172.3 170.6 168.4 166.7 168.9 173 176.4 177.9 179 180.6 182.3 183.4 184.4 185.5 187.6 189.6 191.6 192.8 194.6 196.2 197.2 197.2 197.3 197.1 196.1 194.1 192 190 187.6 186.2 184.2 182.4 180.5 178.7 177.1 175.9 174.2 172 170.5 169 167.4 166 164.4 163.2 162.5 161.2 159.6 158.4 156.9 155.2 153.4 151.1 148.5 145.3 140.3 132 124.7 121.5 128.5 137.3 143.9 148.7 150.8 151.5 150.7 149.3 147.6 145.9 142.6 138.2 132.2 125.2 119.1 117.6 125.8 135.8 145.4 151 153 153.4 152.4 151.3 150.6 150.7 150.6
44.4 44.1 45 47.5 50.5 53.5 56.5 59.3 60.7 60.8 60 58.3 56.6 55 54.7 56.5 58.7 60.2 62.1 63.7 64.9 65.7 66.6 66.9 66.3 64.7 63.4 62.5 61.6 61.4 61.1 61.7 62.4 63.2 65.7 66.9 69.3 72.5 75.8 79 81.9 85 87.4 89.5 90.5 90.6 90.2 89.5 87.9 85.5 82.2 79.5 76.1 72.9 70.5 68.4 67.7 69 70.8 72.7 74.5 76.4 78.3 80.2 81.7 82.5 81.9 82.2 83.2 84.5 86.6 88.8 90.9 93 95.2 97.5 99.5 101.7 104 105.4 106.1 106.4 106.6 107 106.5 105.3 104.2 103.9 104.3 107.3 110.7 116.7 124.1 131 137.1 142.5 147.3 149.6 150.3 151.5 154 156.2 158.6 163 166.3 168.7 170.3 171 171.1 170.8 170.8 171.6 172.4 171.9 171.5 169.7 165.8 163 166.1 170.6 174.7 177.6 179.1 180.9 182.1 183.5 184.7 185.9 186.9 188.2 190.3 191.4 191.6 193.3 195 196.2 196.4 196.7 197 195.6 193.5 191.6 189.6 187.7 185.7 183.7 181.8 179.8 178 176.6 175.6 174.9 172.8 171.4 169.8 168.3 166.3 164.3 163.3 162.2 161.2 158.6 157.4 155.8 153.5 151.2 149.2 147.1 143.6 139.3 133.8 126.5 121.8 123.9 133.3 141 146.4 148.5 148.9 148.4 147.2 145.8 144.1 140 134.7 127.8 120.7 117 120.7 129.2 138.6 148 151.4 153.3 153.3 152.8 151.8 150.5 149.3 149.4
44.4 44.3 45.8 48.8 52 55.1 57.8 60.6 62.3 62.3 61.7 60.3 58.3 56.7 57.9 60.5 64.5 68 66.7 67.5 71.6 71.1 69.8 69.3 67.6 65.5 64.2 62.9 61.7 61.6 62.4 63.4 64.1 66.5 69.1 71.2 74.7 78.2 81.6 84.4 87 89.1 90.9 91.5 91.4 90.7 89.7 88.4 87.1 84.8 81.2 78 74.9 71.8 69.7 67.8 67.9 68.5 69.7 71.3 73 74.9 76.7 78.2 79 79.5 79.9 80.8 82.3 83.9 85.5 87.4 90.6 92.3 93.8 96 98.2 100.5 102.8 104.9 106.1 107.5 108 108.4 108.3 107.5 106.4 106 106.5 108.9 113.5 122 130.9 137.8 143.7 148.6 152.3 154.6 156.3 158.1 159.7 161.4 163.4 165.7 167.8 169.5 169.9 170.4 171 171.1 170.8 171.1 171.1 170.3 168.9 165.2 159.7 163.2 168.3 172.8 176.4 178.6 180 181.5 183.4 185 186.2 187.5 188.4 189 190.4 191 191 191.9 193.6 194.7 195.3 195 195 194.6 193.1 191.2 189.2 187.3 185.2 183.2 181.2 179.3 177.4 176.1 175 174.7 173.7 172.2 170.7 169 166.1 163.4 161.1 158.8 157.3 156.5 155.6 153.7 150.9 148.2 145.8 143.5 139.4 134.7 130.3 125.6 122.5 120.1 128.2 136.4 143.2 145.8 146.1 145.7 144.5 143 140.9 137 130.3 123 116.9 117.2 124.7 132.8 142 149.5 152.2 153.2 152.8 152 150.9 149.6 148.3 147.8
44.2 45.4 47.2 50 53 55.8 58.8 61.7 62.9 63.5 63 62 60.1 59.4 61.1 65 69.7 74.2 73 74.4 76.2 74.2 72.8 70.2 67.4 64.9 63.8 62.9 61.9 62.4 63.3 64.5 66.5 69.7 73.1 76.7 80.2 83.7 86.8 89.3 91.5 92 91.6 91.1 90.5 89.5 88.4 87.1 85 82.6 78.7 75.3 72.6 70 68.2 67.5 68.3 68.3 68.8 69.7 71.5 73.6 75.3 75.9 76.3 77.4 78.6 81.2 82.6 84.1 87 89.3 91 92.2 93.4 95.7 98.2 100.7 103.2 105.2 106.7 108.3 109.4 109.9 109.9 109.4 108.8 108.4 109.1 111.6 118.5 127.4 135.9 142.5 147.9 152 155.5 157.9 159.8 161.2 162.6 164.6 166.6 167.8 169.2 169.6 169.6 170 170.6 169.9 169.8 170 168.8 167.7 164.5 157.5 161 166.3 171.5 174.2 177.1 179.6 180.9 182.2 183.7 185.2 186.8 188.4 189.4 189.7 190.4 190.4 190.3 190.5 191.9 193 193.4 194.1 193.7 192.8 191.8 190.2 188.4 186.6 184.7 182.7 180.8 179 177.2 175.5 174.8 174.6 174.4 172.9 171.5 169.1 166.3 164 160.7 157.4 155.3 154.2 152.6 150.2 146.9 143.3 140.5 138.3 134.5 130.4 126.7 125.6 123.4 120.5 121.8 130.9 138.2 141.8 143.1 142.8 141.6 140.2 137.7 133.1 125.8 118.8 114.8 120.1 128.2 136.6 145.9 150.2 150.9 152.5 151.8 151.1 150 148.6 147.1 145.5
44.8 46.2 48.3 50.8 53.8 56.3 58.9 61.9 63.8 64.2 64 63.5 61.7 61.8 64.2 69 74.4 79.4 81.9 81.4 79.6 76.8 73.8 70 67.2 64.4 62.9 62.8 62.6 63.2 64.1 65.7 68.5 72.2 77.2 81.5 85.2 88.8 91 92.1 92.3 91.7 90.5 89 87.8 86.3 85.1 83.6 81 78.1 74.8 72.1 69.9 68.2 67.9 67.5 68.3 68.6 68.7 68.6 70.1 72.2 73 74 75.1 76.6 78.4 81.5 84.4 86.8 89.2 91.3 92.8 94.1 94.9 96.2 98.6 101.2 103.5 105.4 107.3 109 110.6 111.2 111.3 111.3 111.1 110.5 111.2 114.3 122.8 132.3 140.1 146.1 150.9 154.3 157.4 159.7 161.2 162.3 164.1 166.2 168.4 168.8 169.6 169.6 169.5 169.7 170.2 169.3 168.5 167.4 167 161.9 155.6 157.3 164 169.4 172.9 175.5 178 180.3 182 183.3 184.7 185.7 186.9 188.3 189.3 189.9 190.5 190.3 189.8 188.8 190.2 191.3 191.7 192 191.9 190.9 189.9 188.9 187.2 185.4 183.6 182.1 180.6 178.8 177 175 174.8 174.7 174.5 173.7 172.3 170.1 166.1 164.1 160.6 157.2 154.1 151 148.5 145.9 143.1 139 137 135.5 133.1 132.2 132.8 131 127.4 122.5 119.2 124 131.4 137 139.1 139 138 136.5 134.1 129 122.2 115.3 115.8 123 130.6 141.2 148.9 151.3 151.6 151.5 150.8 150.2 148.9 147.4 145.8 144
