ncols 200
nrows 82
xllcorner 310000
yllcorner 835450
cellsize 50
473.5 465.6 461.4 457.6 450.9 444.1 436.1 429.4 423.8 419.1 417.1 414.4 411.7 408.4 406.7 403.1 398.5 392 382.8 371.8 362.6 352.2 346.4 320.4 314.3 311.4 323.1 329 330 329.1 328.6 333.8 335 338.1 350.8 367.2 379.4 388.6 396.3 402.5 404.4 402.5 397.6 391.6 385.4 378.1 369.4 359.7 351.7 341.5 329.5 309.1 313.6 337 349.2 361.2 372.2 381.4 386.4 387.8 387.5 386.9 384.9 380.3 374.9 371.6 368.2 364.9 353.9 368.6 376.7 383.9 391.9 399.8 406 410.6 413.9 416.4 419.2 422 423.8 422.6 419.3 413.6 407.6 401.2 395.3 388.3 380.6 371.8 366.3 357.6 354.3 353.9 356.1 360.1 364.6 368.6 372.4 372 370.7 369.1 365.1 362 356.8 351.6 345.3 338.3 328 319.1 312 305.1 299.1 294.6 287.9 282.4 279.2 274.9 270.6 265.9 262.6 262.3 261.8 262.8 264.7 263.6 261.7 259.9 258 255.7 253.5 247.7 241.6 235.6 228.9 223.9 220.5 219.2 218 214.7 211.5 209 206.5 204.4 203.1 201.7 200.8 201.3 205.9 210 208.3 207.2 208.5 207 205.6 205.3 207.4 199.5 193.3 188.6 185.7 182.6 180.9 176.1 170.1 166.8 155.7 143.2 130.5 127.5 124.7 123.4 148.2 149.5 148.8 148.1 147.3 147.1 148.1 152.9 166 181 194.4 203.6 212 218.1 224.7 225.4 231.7 237.4 240 242.2 243.8 246.3 248.2 249.6 250.6 251 249.8 249.3
463 458.2 453.8 447.5 441.5 435.8 430.5 424.1 417.2 406 404.3 402.7 401.2 400.6 399.2 396.7 392.2 383.8 373.8 365.9 358.9 352.4 345.4 338.9 322.4 319.6 312.4 308.5 307.4 307.4 310 318.4 317.2 331.9 343.9 358.2 374.7 384.1 392 398 401.5 395.7 391.5 384.9 379.3 372.9 365.2 357.6 349.3 336.9 321.9 305.5 319.2 345.3 347.4 360.3 369.6 376.2 380.5 383 384.4 384.2 381.7 375.7 370.5 366.4 363.6 357.5 353.1 363.4 371.3 378.9 386.9 394.8 400.2 403.8 407.8 411.9 414.7 417.6 419.2 419.9 417 411.5 404.9 398.4 391.5 385 378.6 370.8 362 352.9 345.2 347.9 348.5 350.9 354.2 358.5 361.5 363.4 362 360.7 359.1 355.4 351 346.9 341.1 334.7 322.5 314 309.4 303.4 298.5 292.3 287.2 282.4 279.4 275.1 270.6 265.7 264.1 264.1 264.6 266.6 268.7 267.7 265.6 262.7 259.8 257 251.4 244.6 238.6 232.6 227.6 223.4 221.7 220.1 218.8 215.3 213 210.5 208.6 207.6 206.9 207 207.6 211 215.3 217.1 215.4 214.9 215.4 213.3 209.8 208.1 207 200.6 195.7 192 192.4 188.4 182.1 174.5 169.7 166.4 154.4 142.9 127.9 127.1 124.2 123.7 146.9 149.6 149 148.2 147.5 147.2 147.8 151.4 156.2 170.8 183.7 196 202.6 209.2 214.1 219.8 225.2 230.2 233.3 235.5 238.4 241.5 243 244.4 245.8 246.8 246.3 247.1
453.1 447.8 443.5 438.2 434.2 429.3 424.2 418 409.1 396.9 388.3 387.9 386.4 385.5 385.2 383.3 380.4 372.5 366.4 361.4 355.2 349.7 344.9 342.1 335.5 329.1 314.5 318.9 311.7 309.7 310.6 303.1 308.7 315.6 333 353.9 370.8 378.8 386.7 391.1 391.3 389.4 384.4 378.6 373.5 367.2 359.9 352.9 345.8 332.6 317.9 303.3 319.2 334.5 344.7 356.5 363.9 370.7 375.4 379.7 382.5 381.2 377.8 372.4 367 362.8 359.1 350.2 348.5 357 365.8 373.7 380.3 386 391.9 398.2 402.7 407.2 410.4 413.2 415 415.9 414 408.8 401.8 394.7 387.3 381.7 376.1 367.7 356.8 348.4 344.4 341.8 341.9 343.5 346.3 349.8 352.4 354.4 355 354.2 352.7 349.6 344.8 340.5 334.5 326.4 318.4 312 306.8 303 297.8 291.9 287.2 282.7 279.9 275.3 270.4 267.4 267.5 266.8 268.7 271.4 272.8 270.8 268.8 264.2 260.7 255.2 248.6 241.5 235.5 230.4 227 224.9 223 221.4 219.9 217.7 216.3 214.3 213.6 212.9 212.7 213.4 216.2 220.4 224.8 225.1 222 222.6 220.6 216.5 214.4 210.2 206.3 199.4 194.7 191.6 189.6 184.2 178.7 172.4 168.8 165.9 153.9 142.3 127.9 124.6 125.1 124.2 143.3 149.3 149.3 148.5 147.8 147.1 147.9 152 155.4 163.1 177.6 187.8 197.1 202.8 209.3 215.4 220.4 224.7 228 233.4 236.6 239.6 241 241.7 242.5 243.3 244.1 244.6
445.8 441.3 437.6 431.5 426.4 421.3 414.7 404.8 394.9 383.8 381.6 381 377.6 371.5 365.6 370.1 369.3 365.7 361 356.4 351.5 347.3 343.3 337.7 334.2 321.3 331 338.3 337.4 327.2 324.4 305 301.4 307.6 329.7 349.2 363.9 372.9 376.7 382.6 382 380.8 377.3 372.8 367.6 361.5 355 347.8 341.2 328.7 314.2 301.3 319.8 331.7 342.7 351.2 358.6 366.6 371.1 374.9 377.9 377.4 374.4 369.3 364.1 359.2 352.7 342.5 343.6 351.6 359.8 365.9 370.3 376.1 383.5 390.7 396 401.8 406.3 409.1 410.7 411.3 409.6 404.5 398.2 391.4 384.5 378.2 372.7 364.2 353.3 345.1 340.7 336.2 336.1 335.8 337.7 341.4 343.5 345.2 346.2 345.8 344.1 341.7 339.9 335.7 329.1 322.8 316.6 310 306 301.4 296.8 291.5 287.4 282.9 278.3 274.3 270.9 270.1 269.5 269.4 274 277.6 276.6 273.9 269.8 264.6 258.6 251.6 244.4 237.9 233.6 229.6 228.1 226.4 224.4 223.2 222.3 219.6 218.8 220.4 220.6 220.3 220.9 222.3 226.2 229.9 231.6 230.7 229.5 228.1 225.1 221.5 218.8 213.4 205.9 200.5 193.7 189 185.4 182.6 175.8 171 167.5 165 152.3 139.3 128 124.1 124.9 123.4 146.7 149.2 149.6 148.9 148.2 147.4 148.1 152.4 156.2 163.9 172.9 183.1 194.1 198.7 205.2 211.3 216 220.7 226.3 231.7 234.8 237.3 238.9 239.7 240.5 241.5 242.2 243.1
437.6 433.7 429.7 423.1 417.4 411.5 402.9 395.3 396.3 395.4 394.1 393.9 387.2 381.1 372.7 362.1 354.6 353.6 345.6 344.5 338.4 333.4 329.7 326.8 328.8 331.8 336.8 332.7 326.8 321.1 316 308.9 300.8 300.1 324.3 341 352.1 359.4 367.2 369.6 373.1 373.7 370.5 366.5 361.4 355.8 350.1 343.6 336.9 325.1 312.7 298.3 316.7 325.3 336.5 346.3 355.6 363.1 368.7 376 379.6 378.7 373 367.8 362 354.2 344.4 332.4 343.6 347.2 353 360 366 374.3 378.8 384.7 391.9 396.8 402 404.8 406.3 406.2 404 399.6 393.4 387.7 382.2 376.5 370.6 361.7 350.8 343.2 338.8 334.4 331.8 331.6 331.3 332.9 335.5 336.5 337.7 337.5 336.4 335.7 334.5 331.6 325.7 320.5 314.2 308.2 303.4 299.4 294.9 290.1 285.3 282.4 278.5 275.6 272.2 271.4 270.9 272.4 277.2 281.4 279.7 275 268.7 261.5 254.2 247 239.6 235.7 232.9 229.7 228.3 227 226.6 226 226.4 226.6 226.8 227.2 228.2 228.9 230 232.9 235.2 236.8 237.8 236.7 235.7 233.2 229.6 227.4 225.7 216.9 211.1 202.7 196 190.6 185.4 179.7 174.8 169.9 167.4 163.9 149.1 135.8 127.2 124.4 124.5 123.6 148 149.3 149.4 149 148.5 147.8 148.4 152.6 156.6 161.3 167.1 178.6 187.5 196.3 202.3 208.9 213.4 219.8 225.4 230 233.1 235 236.6 237.8 239.2 239.6 240.2 240.8
430.3 423.6 418.8 412.5 406.3 402.4 408.2 408.8 408.4 407.4 403.4 397.6 391.1 386.5 380.1 372.2 361.6 362.3 359 356.2 353.8 350 347.8 346.7 343.9 344.2 342.4 340.1 335.2 329.2 318 314.7 309.6 298.7 307.7 324.1 334.3 344.1 355.9 361.1 364.3 364.1 361.7 358.9 354.7 349.4 344.1 338.7 332.2 321.7 312.8 297.1 308.1 322.1 335.4 345.9 355.4 363.4 370.7 379.2 381.3 378.8 373.8 368.3 360.9 353.4 341.9 331.9 333.6 339.1 346.4 353.1 360.7 368.4 374.8 380.2 387.7 392.7 397.2 399.6 400.9 399.8 398.1 394.4 392 387.7 381 374.7 367.2 356.4 346.9 341.1 336.5 332.7 325 326.2 325 326 327.6 329 330.6 330.3 330.2 330.2 330 326.8 322.5 318.1 313.5 306.3 300.4 296.4 292.6 288.4 284 280.9 277.8 275.8 273.2 271.6 271.7 275.4 279.6 280.4 277.9 271.1 263.6 256.5 249.2 242 238.5 235.2 232.8 231.5 229.9 230.1 231.3 233.5 233.7 233.8 233.9 234.1 236.2 237.5 238.4 242.2 244 245 245.2 243.8 242.8 239.7 235.6 231.3 225.9 221.6 213 206.3 200 193.2 187.4 180.9 173.7 169.4 166.9 159.9 147.8 133.3 127.1 124.4 125.1 125.5 148 149.1 148.8 148.5 148.1 148.7 149 153.5 157.3 162.2 166.6 175.7 184.1 193.2 201 208 213.4 219.7 224.8 229.5 232 233.8 235.5 236.9 237.8 238.3 237.7 238.9
431.2 422.6 417.4 417.3 416.9 416.2 414.4 413.5 412.1 409.6 406.2 402.9 397.4 392.2 384.9 379.1 376.4 372.8 369.2 364.3 362.5 361.8 362.7 363 360.1 352.8 350.7 346.3 340.1 335.5 330.2 317.8 316.9 298.7 297.2 308.5 323.2 331.6 345.1 351.8 354.5 354.9 354.5 352.5 348.8 343.7 338 333 327.9 318.4 311 294.4 304 324.1 336.8 346.7 356.2 364.6 373.7 380.3 381 377.9 373.4 367.1 360.1 352.8 342.6 332.4 325.4 331.9 339.1 347 354.9 362.8 370 376.3 383.7 388.1 392 394.5 394.6 393 392.6 392.6 392.8 387.9 380.9 374.6 364.9 350 344.2 338.5 334.5 330.6 326.7 320.8 319.1 320.5 322.7 323.9 324.9 324.6 324.6 324.8 325.3 322.6 320 315 309.3 302.9 297.8 294 290.7 287 283.4 280.1 277.8 275.7 273.1 271.6 272.7 275 276.1 275.9 271.4 265.6 258 250.9 243.9 240.8 240.2 238.6 235.9 234.5 235.1 236.8 239.1 240.2 240.4 240.6 240.7 240.9 242.6 245.2 246.9 249.8 252.4 252.6 252.6 251.2 249.9 245.9 241.3 236.8 232.2 225.3 218.5 209.1 202.7 196.8 193.4 182.4 172.8 167.5 165.8 156.3 145.8 133 126.9 124.4 124.2 129.9 148.1 148.8 149.1 148.1 148.9 149.5 149.5 154 157.8 162.1 167.5 174.4 181.5 192.3 200.2 207.8 213.7 219.5 225.2 228.8 231.5 233.3 235.1 236.5 237.2 236.6 236 235.5
431 427.9 426.4 424.8 423.3 421.9 423.1 422.3 420.1 420.1 420.7 418.8 411 402.5 395 391.8 389.9 388.5 384 378 373.9 376.9 377 375.4 370.3 365 358.7 352.5 347.1 340 333.4 323.2 312.1 307.2 298 295.6 317.4 319.3 328.1 335.5 341.8 345.8 346.5 345.7 342.2 337.5 331.7 327.3 323 313.9 307.4 294.3 305.3 325.8 336.1 346.3 356.8 365.9 375.4 379.6 379.5 376.6 371.4 365.1 358.8 352.3 343 332.8 316.9 325.2 330.9 340.9 350.2 358.8 366.6 373.3 379.5 383.1 386.4 387.5 387.7 386.7 388.3 390 389.4 386.8 381.5 374.1 365.4 352.3 342.6 337 331.3 328.3 323.9 319.3 313.2 314.2 317.8 320.4 321.2 321.8 322.8 322 322.1 319.3 315.8 310 304.7 299.1 295.5 292.9 289.5 286 283.2 279.9 277.7 274.5 271.9 270.8 271.6 271.8 270.6 268.7 263.2 257.8 252.1 245.1 241.6 240.8 240.7 240.3 239 240.2 242.5 244.5 246 246.8 247 247.3 247.5 247.7 249.2 251.1 255.1 257.7 260.1 259.7 259.6 258.8 256.5 251.9 247.4 242.9 236.2 227.4 216.9 206.9 200.7 198 194 182.9 171.4 165.3 165.8 154 145.4 132.3 126.6 125 124.6 136.5 150 149.7 149.4 149.1 148.8 148.5 148.8 154.8 157.5 162.1 169.5 176.6 184.5 192.7 200.7 207.7 213.5 219.4 225.2 228.7 231.1 233.3 235 236 236.7 235.1 233.8 233.3
433.1 433.2 433.1 433.8 434.4 435.6 435.8 436.7 437.2 436.4 435.3 432.5 423.8 417.9 405.4 410.6 410.9 408.6 404.5 400.9 398 394.6 391.5 385.3 378.1 373.8 367.1 360.1 351.6 342.2 334.6 325.8 315.7 308.3 299.2 295.3 296.9 309.4 314.9 319.2 325.6 336 335.9 335.1 333.3 328.8 325.2 322.1 317.6 309.7 303 291 302.7 327.4 337.6 345.6 359.4 367.3 373.1 377.2 376.9 374 369 362.7 356.6 349.9 341 329 320.9 317.9 325.7 334.7 343.6 354.4 361.7 368.2 373.6 376.8 377.2 377.6 378.6 381.8 384 384.9 384.8 382.6 379.5 372.5 362.8 350.7 341.4 335.4 330.2 325.9 321.6 316.3 311.2 306.2 314.1 317.3 318.8 319.6 320.9 320.4 319.6 316.8 312.1 306.6 302.1 297.4 295.7 293.8 290.9 288.6 284.1 279.7 276.3 272.8 270.7 268.7 268 267.1 265.1 262.2 257.9 251.7 244.4 241.1 241.7 241.9 241.9 242.3 244.4 246.9 249.4 251.6 252.8 253.4 253.6 253.9 254.2 254.5 255.4 258.3 262.2 265 267.5 268.8 267 266.2 263.3 259 254.4 249.8 241.3 230.7 218.9 208.1 202 196.1 188.4 177.9 170.2 166.1 166.3 151.2 142.8 129.3 127.3 124.6 124.6 142.3 149.9 149.6 149.6 149 148.7 148.8 148.9 154.4 158.1 163.4 170.9 179.2 185.9 192.9 200.6 207.8 215 220.6 225.5 228.5 231.4 234.4 235.1 234.6 234.6 233.3 232 231.5
441.2 441.8 445.2 447.1 449.4 450.9 452.3 453 453.5 451.4 447.8 441.4 435.5 430.5 425.2 424 422.5 420.9 418.7 413.4 407 401.9 398.5 393.3 386.1 382.9 376.6 367.1 359.3 349.3 339.5 327.7 320.1 312.4 307.3 294.5 292.5 290.8 308.4 311.4 310.4 308.5 319.7 323.1 323.4 321.3 319.1 316.6 311.3 305.3 300.1 288 304.2 324.5 336.6 347.4 359.1 366.2 370.7 372.3 372.7 369.5 365 361 356.1 349.3 339.9 329.1 321.3 307.9 319.3 327.5 337 346.8 355.7 361 364.8 367 368.7 369.6 371.9 375.6 377.9 379.4 380.2 377.6 372.3 368 359.9 348.7 338.8 332.5 326.6 322.8 318.9 313.9 308.3 300.4 311.1 314.4 316.4 317.5 318.8 318.8 317 311.8 307.2 303.8 300.3 297.1 295.8 294.2 291.5 288.4 284.3 280.1 274.8 271.4 268.8 265.4 263 262 259.6 256.6 252.3 247.3 239.3 239.9 241 242.4 244.8 246.8 249.7 253.6 256.2 258.3 259.1 259.6 259.7 259.8 260 260.3 262.1 266 271.2 274.5 276.5 277.2 275.1 273 270.1 265.8 260.8 255.7 247.3 232.3 219.9 210.7 205.7 200.2 193.7 175.6 168.6 165.9 162.6 148.2 139.7 127.3 127.9 124.4 124.7 146.9 149.9 150 149.5 148.9 148.9 149 151.2 155.3 158.6 163.2 172.1 179.2 185.8 193.8 201.7 208.6 214.9 220.6 225.2 228.3 231.2 233.9 233.5 232.9 232.1 230.9 229.8 229.8
452.2 454.2 458.1 463.7 468.8 469.6 468.6 468.6 465.8 460.5 455.2 448.5 443.3 438.1 434.7 431.4 430.1 428.8 426 420.8 414.4 408.4 404.2 399.1 393.3 388.1 381.2 374 365.1 356 346.6 332.7 322 315.6 310.7 305.8 295.9 291.1 289.3 293.6 301.4 303.3 299.6 308.5 314.8 314.2 312.6 311 307.3 301.3 294.7 286.2 305.8 321.1 337.5 347.9 357.6 362.9 365.5 366.5 367.8 364.7 361 356.3 352.2 345.3 338.5 328.4 318 306.3 310.5 322.5 330.9 340.3 347.2 353.7 356.2 359.2 362.1 364.2 367.4 369.7 372.2 373.7 373.1 369.5 367.1 362.1 353.4 341.1 332.3 328.6 322.4 318 315.2 311.1 304.1 299.7 309 312 314.3 315.9 317 316.4 313.2 309.1 305.2 302.2 299.1 296.6 295.3 294 292.6 288.8 284.3 279 273.1 268.7 265 261.7 259.4 257.1 254.3 251.1 246.7 240.5 236.2 239.5 240.3 245.3 249.3 251.3 255.4 259.6 262 262.9 263.4 264.1 265.1 265.5 264.9 265.9 270.1 274.9 279.5 282.9 283.8 283.8 281.1 278.4 275.4 271.6 266.3 260.9 251.5 233.8 220.5 210.2 204.7 199 189.8 174.1 167.4 166.2 157.1 145.8 134.9 127.6 126.3 124.5 129.1 147.5 150.1 150.3 149.5 148.9 149 149.2 153.4 156.8 159.3 164.5 173 179.6 186.2 193.4 202.8 209.2 215.2 220.8 224.8 228.1 230.5 231.1 230.7 230.2 229.5 228.4 228.3 228.3
470.1 475.5 479.3 484.9 487.7 487.2 484.4 480.5 473.7 467 460.8 454 448.2 443.4 440.5 437.6 436.3 433.5 430.6 425.4 418.6 413.3 408.3 403.2 397.2 391 384.2 375.6 367.4 359 350.6 340.3 329.3 321 313.4 308.7 307.5 294.3 290.8 288.3 286.3 286 288.1 291.1 302.3 304.3 304.6 306.1 303.8 296.2 284.4 289.4 306.5 324.1 339.7 345.8 354 358.4 359 360.6 361.6 361.2 358.6 353.8 348.6 343.1 335.1 324.2 316.2 309.8 303 317.5 326.8 335.1 341.2 346.4 349.4 352.4 355.4 359.1 361.1 363.1 365.8 366.8 365.5 360.9 357.9 350.4 342.2 333.6 326.7 322.2 318.4 314.7 311 307 298 299.2 307.3 310 312.2 314.2 314.9 312.8 309.3 305.6 302.5 300.4 297.3 295.9 294.9 294 293 290.2 283.7 277.5 270.7 265.7 262 259.2 256.4 252.9 248.2 245.9 239.3 234.8 235.2 238.3 245.8 249.2 253 256 261 264.5 266.4 265.9 266.9 268 268.7 269.2 270.5 271.5 275.2 282.1 287.4 291.8 290.5 289.2 286.7 284 280.5 276.9 273 267 254.6 236.8 222.1 210.7 202.4 194.9 182.6 174.4 166.3 166.6 153 142.2 130.7 128.2 127 124.5 131.4 147.7 150.1 150 149.4 149.5 150 150 153.1 158 160.3 165.8 174.4 181 188.3 193.5 203.1 209.5 215.6 220.5 224.2 227.3 228 227.9 227.6 227.1 226.6 225.9 225.3 224.9
485.1 487.3 493.2 497.8 499.5 495.9 490.7 483.7 476.9 471.7 465.5 458.9 453 449.3 446.7 444 440.5 436.7 432.8 426.8 420.7 415.2 410.2 404.6 398.7 392.1 384.8 376.1 367.5 358.8 350.6 343.1 336.9 330.1 320.6 313.2 307.9 295.7 297.2 296.6 286.9 285.8 284.5 282.1 281.8 284.1 294.2 297.9 296.4 291.5 281.8 296.4 315.1 329.3 339.7 345.9 348.2 352.7 351.2 352.6 354.7 355 353 348.8 344.8 337.9 328.1 319.3 309.9 306.8 301.3 313.3 321.8 328.6 335.6 339.8 343.6 346.6 349.5 352.2 354.2 356.4 358.9 358.8 356.6 353.1 348.7 342.2 335.9 329.3 322.6 317.9 314.7 311.8 307.2 301.7 289.1 299.3 305.6 307.9 310.2 312.8 312 308.8 305.3 301.8 299.6 297.6 296.6 296.5 296.4 295.9 292.3 287.2 281.4 274.7 268.2 262.9 258.9 255.5 252 248.6 243.9 239.1 233.6 233 236.7 244.5 249.8 253.3 256.7 261.6 266.6 269.4 269.1 268.6 268.8 270.1 271.9 274.2 276.1 277.1 281.1 287.8 290.9 293.2 296.9 294.6 292 289.3 285.8 282.3 278.6 273.1 256.1 239 222.2 215.9 204.4 193.4 180.5 172.9 164.9 155.3 149.1 137.3 128.7 128.2 127.5 125 134.7 147.9 149.2 149.5 149.1 149.2 149.5 149.8 153.8 158.9 159 166.3 174.5 181.9 188.7 193.9 203.3 209.7 215.1 218.9 221.4 223.2 224.1 224 224 224 223.7 223 221.7 221.9
494.3 496.9 500.6 503.9 503.3 497.5 491.7 485.3 480.1 474.8 469.3 463 457.8 453.6 450.2 446.3 441.6 437.7 432 426.4 420.9 415.5 410 403.7 397.3 390.6 383.1 375.5 367.5 359.6 352.7 346.2 339.7 331.6 324.3 318.4 303.8 301.5 309.4 306.1 298.8 293 283.6 282.3 281.2 280.8 279.9 281.5 285.1 284.5 281.4 301.8 315.6 326.7 335.1 340.4 340.4 343.1 342 343 345.7 345.3 344.8 341.8 338 329.9 320.9 313.3 306.6 303.6 291.9 309 318.4 325.8 332.4 335.6 338.4 342.6 345.1 347.2 349.2 350.5 351.9 351.2 349.5 346.2 341.4 335.9 330.1 326.1 321.6 317.2 313.3 308.6 303.6 297.5 284 295.9 302.2 304.9 306.8 308.9 306.8 303.1 299.6 296.6 294.2 292.8 293.2 294.7 294.4 293.3 287.8 282.5 277.3 271.4 266.3 261.2 255.8 251.2 247.7 244.3 239.6 235.2 231.3 232.9 238.2 243.6 250.7 258.1 262.1 266.3 269.7 272.1 271.3 271.2 271 272.8 275.8 278.1 279.8 282.5 284.7 290.2 298 298.4 298.3 298 296.8 295.9 292.5 288.2 283.6 275.6 257 237.4 221.6 211.7 203.1 190.2 176.3 167.9 159.4 150 141.9 133.2 127.8 127.8 125.1 125 137.3 145.7 148.9 149.7 149.4 149.5 149.7 150.1 157.1 158.8 159.1 166.8 176.1 183 189.6 196 203.2 208.8 212.3 215.5 217 218.1 219 219.6 220.1 220.2 220 219.3 217.8 217.6
501.5 503.3 506.1 505 501.6 496.1 490.7 486.2 481.7 476.8 471.7 465.1 459 454.6 451.1 447.2 442.4 436.9 431.2 425.6 419.5 413.7 406.7 400.8 394 386.4 379 371.7 364.9 360.4 354.3 345.8 339.3 331.8 325.6 315.8 314.4 305.5 318.1 313.9 304.5 303.4 301.7 297 287.8 279.1 278.5 277.9 276.5 277 281.7 298.8 311.7 323.3 330.9 335.2 335.9 334.5 334.1 334 334.9 335.6 335.1 333.8 330.7 324.1 315.4 308.3 303.2 297.6 289.4 303.3 314.6 322.9 328.8 333.1 335.7 338.1 340.7 342.6 343 342.9 344.9 345 343.5 341 336 333.2 331.6 328.3 323.8 318.1 312.6 306.7 300.8 293.7 280.9 293 298.1 300 301.4 301.9 299.4 296.8 291 288.4 287.9 287.8 288.5 290.1 290.2 287.9 284.5 279.5 274.5 269.5 264.4 258.5 252.9 247 243.4 239.9 235.3 231.4 229.9 230.3 235 243.8 253.7 261.7 263.2 265.2 267.6 269 269.3 270.7 271.9 275.1 278.4 281.2 280.5 282.8 284.3 289.4 295.3 299.2 299.2 299.1 300.6 300.3 297 292.4 283.4 274 257.4 233.6 217.5 206.6 192.7 183.7 174.7 161.5 153.2 144.9 135.8 131 128 128.1 125.4 125.7 136.8 141.3 148 149.7 149.8 149.9 150 150.8 157.2 158.9 159.6 167.7 176.9 182.8 189.5 196 200.9 206.2 209 211.6 212.7 213.8 214.8 215.5 216.1 215.9 215.4 214.9 213.7 213.7
506.5 508 508.5 507.6 504.7 497.5 489.9 484.7 480.4 476.6 471.6 466.2 460.2 454.9 451.4 445.8 440 434.7 429.5 423.5 417 410.2 403 395.8 389.3 381.8 374.7 367.8 361.6 356.6 351.3 343.2 333.1 323.6 319.1 321.3 323.1 309.8 323.7 320.6 315.7 313.7 312.2 307.6 301.1 293.3 287.4 276.5 276.1 276.8 280.3 292.9 303.8 318.6 325.6 330.1 330.2 328.3 327.4 326 327.8 329.6 329.4 327.9 324.7 319.2 308.8 302.5 297.2 287.7 284.6 301.1 312.7 320.2 325.4 327.8 329.9 331.9 334.2 336.5 336.9 337.6 340.8 341.4 341.6 339.2 336.1 335.4 334.3 332.5 327.8 320.8 314 305.8 299.3 293.6 282.3 284.8 292.4 294.4 294.7 293.9 290.9 287.5 283.7 282.5 281.3 280.9 281.9 283.6 284.8 282.9 280.6 277.5 272.5 266.9 260.7 255.2 249.6 244.1 239 235.6 231.4 228.5 227.7 227.9 235.1 246.1 252.8 255.2 257.7 260.3 262 262.3 264.4 266.2 269.3 272.2 273.6 274.8 277 279.4 281.8 287.3 292.9 295.5 298.9 300.9 302.3 303.4 298.4 290.7 281.5 267.7 250 225.3 213.1 199.9 189.6 180.3 166.8 154.4 150.3 138.3 136.1 130.6 128.6 125.4 126.5 126.2 135.8 139.8 146.7 149.4 150.3 150.7 150.8 151.3 156.5 158.9 160 168.4 177.2 182.6 189.4 194.5 198.8 202.6 204.6 206.2 207.7 209.1 209.8 210.1 210.3 210 209.5 208.9 211.8 210.3
508.8 509.3 509.7 508.5 503.5 495 488 483.6 479.9 475.9 470.8 465.7 460.2 454.5 448.8 443.3 437.7 432.4 426.5 418.9 412.7 406.1 398.8 391.8 382.9 374.4 366 358.3 348 344.1 338 333.6 334.2 331.9 330.1 329.7 321.7 321.3 328.2 325.2 324.2 322.4 320.2 314.5 311.3 304.7 295.9 287.8 282.5 275.3 273.8 285.6 300 310 319.5 322 322 321 318.4 317.9 320.3 320.6 320.1 317.9 316.8 312.6 303.1 298.8 288.4 278.1 290.4 301.8 311.4 318.1 321.5 322.4 323.1 325.5 327.7 330.4 332 334.5 339.5 339.9 341.7 342.9 341.6 342.8 343.1 338.5 331.8 324 315.5 306 298.1 292.2 284.2 273.9 282.6 285.4 285.3 283.2 280.9 277.4 277.4 276.2 275 275 275.4 277.2 279.2 277.7 275.8 273.1 268.2 262.9 256.3 250.2 246 240.5 235.4 230.9 228.2 225.8 225.1 227.3 235.5 241.6 244.5 247.1 250 252.2 254.4 255.2 257.7 260.6 263.7 266.1 267.4 270.5 273.6 276.1 278.5 283.1 288.7 293.8 297.6 301.6 304.6 303.2 297.3 287.6 274.8 258.9 237.1 220.2 208.4 195 181.6 168.7 155.1 148.4 142.3 136.6 132.7 129.7 127.4 125.4 128.5 128.4 135.8 138.4 142.5 149.3 152.1 151.7 151.2 151.8 158 159.5 160.5 168.1 176.8 182.9 188.4 192.3 195.5 198.2 201 202.3 203.5 204.2 204.6 204.3 204.5 204.3 204.2 205 206 207.8
508.6 508.5 507.6 505.9 499.5 491.8 486.1 481.9 478.3 473.4 468.5 464 459 452.6 446.8 440.9 434.9 428.9 422.8 416.6 409 401.7 394.5 386 376.5 368.4 369.2 365.8 362 357 352.5 347 341.2 337.5 335.2 332.8 319.8 331.6 332.1 331.6 331.9 329.4 326.9 325.1 320.8 314.5 308 299.8 291.9 275 273.3 272.4 291.7 299.9 310.1 314 313.9 310.4 307.4 307.6 308.9 309.5 308.6 308.3 307.5 304.7 299.1 291.6 278.9 277.7 293.1 302.4 310.6 313.2 313.8 315.4 318.4 321.4 323.8 326.4 328.9 333.4 338.1 342.8 345.9 348.4 350.8 351.6 348.9 344.7 335.7 327.5 317.6 306.4 298.4 290.6 283.5 276.9 273.3 277.1 276 274.3 273.3 272.5 271.5 270.3 270.1 270.4 270.6 271 272.8 272.6 270.5 266.8 261.7 257.5 251.4 246.4 240.6 235.3 231.5 228 225.1 223.4 221.9 223.9 229 233.5 236.7 240.5 243 244.8 247.4 249.3 252.5 254.7 256.8 258.2 261.6 265 268.9 272.1 275.2 278.3 283.8 289.4 295 300.1 304.5 300.3 290.8 277.3 262.3 246.1 226.5 214.7 202.9 188.4 173.4 160.6 153.9 145.5 137.3 134.8 129.6 127.5 124.7 125.8 126.9 129.4 136.3 137.7 140.5 147.8 149.3 148.4 150.4 151.4 157 159.2 161.4 169.3 177.5 183.4 186.9 189.6 192.3 194.7 196.9 198.5 199 199.4 200.1 199.9 200.1 201 201.7 202.5 204.7 206.6
503.7 503.7 502.9 499.9 494.4 487.4 483.4 479.6 475.5 470.8 465.9 461.1 456.6 450.7 444.6 438.5 432.6 426.5 420.1 412.5 404.4 395.9 384.8 382.8 380.5 377.7 374.4 370.8 367.5 362.3 356.7 351 345 341.3 337.8 328.1 336.1 337.6 339 339.2 339.7 338.9 337.3 335.4 331.6 324.7 319 308.6 302.9 293.1 283.5 272.5 272.1 288.1 299.8 304.3 303.4 298.8 293.4 293.4 297.7 300.1 300.1 300.4 299.4 298.5 296.2 289.8 275.4 275.4 289.8 297.6 301.5 305.1 306.4 309.6 313 315.7 319.6 322.4 325.5 332.1 337.9 343.2 348.1 351.1 352.5 353.9 350 343.3 335.2 327.5 318.1 306.4 296.7 289.6 282.1 275.8 266.2 270 269.5 268.5 267.2 266.3 265.6 265.3 265.5 265.7 265.6 266.6 266.8 266.4 263.3 259.8 256 250.9 245.5 239.5 234.3 230.1 225.8 223.9 222 219.1 213 216.7 220.4 223 225.1 228.6 232.3 235.8 239.6 242.2 245.3 247 249.4 252.7 255.3 258.8 263.3 267.3 271 275.2 280.1 286.2 291 296.2 296.9 290.8 280.7 266.2 250.2 232.8 219.6 206.7 195.3 180.3 167 157.8 148.7 144.2 137 133.3 128.5 124.5 125.5 128.6 128.8 130.6 132.7 136.3 138.1 138.6 140.2 142 146.6 149.5 152.4 156.4 163.9 170.4 178.1 183.2 185.7 187.6 189.2 191.6 193.5 195.2 195.7 196.4 197.5 197.4 197.6 198.2 199.3 200.3 202.2 203.4
497.1 497.4 496.5 493.1 488.7 484.1 480.7 476.6 472.5 468.3 463.3 458.8 455.5 450.7 444.4 438.4 431.2 425 414.4 401.4 403.4 398.3 396.6 393 389.9 384.3 381.3 376.2 371.4 366.8 361.5 356.9 350.1 346.1 340.1 340.2 343.8 344.1 346.3 347.3 347.3 348.4 347.3 345.7 342 337.2 329.9 320.2 312.2 303 294.9 288.4 269.3 271 285.2 292 290.7 282.7 280.9 279.7 283.6 285.5 289.8 292.5 293.2 292.4 292.1 286.7 275.5 266.8 280.4 288.1 292.6 296.6 299.4 302.3 306.8 310.4 314.7 319.5 323.8 330 335.4 340.7 345.9 350 352.6 350.9 346.6 339.5 331.6 322.8 314.3 304.2 295.9 287.2 281 274.2 268.3 263.9 263.1 261.7 260.9 260 260.2 260.6 260.8 260.9 260.3 260.6 260.3 259.2 256.9 253.3 248.7 246.7 239.8 233.7 227.9 223.6 220.5 219.2 218.2 213 208.9 206.9 208.6 211 212.4 217.7 223.3 227.9 230.3 233.8 236.5 238.3 240.6 244.8 249.9 252.8 257.5 261.8 267.1 272.3 277.2 282.5 286.9 290.3 287.5 281.7 270.2 256.2 238.9 220.6 210.7 200.2 185.8 174 164.2 155.4 146.3 141.2 136.3 132.9 129.6 125.6 127.1 129.4 127.3 130.9 138 138.5 139.4 143.5 149 151 154.7 152.3 157.9 156.6 160 168.4 178.7 182.9 185.2 187.2 188.3 189.7 190.6 191.9 193.3 194.2 195.3 195.5 196.4 196.8 197.4 199.2 201 202.4
489.5 489.5 488.5 486.4 483 479.6 475.7 473.2 469.5 465.2 460.3 457.3 454.4 450 444.8 437.9 433.7 425.9 419.2 417.6 413.1 407.1 403.5 399.9 396.6 392.5 388.7 383.8 378.1 372.2 367.8 363 355.7 350.3 345.2 349.2 350.9 351.3 354.1 356.3 358.5 359.3 359.1 356.1 352.8 347.9 341.1 331.3 322.7 311.2 302.9 297.9 287.7 268.7 268.4 268.6 266.9 266.8 265.9 263.3 265 273.2 276.5 278.6 280.9 283.6 284.9 283.4 278.8 264.4 266 278.3 284.3 287.5 287 293.8 302.7 307 312.1 317.1 321.7 326.9 332.4 337.7 343.1 346.1 347.5 346.2 341 333.8 325.4 316.4 309.8 301 293.6 285.3 277.9 271.9 268.1 258.3 259.3 257 255.4 254.8 254.5 254.9 255.1 255.2 255.2 254.2 253.4 251.8 250.2 246.9 244.7 240.2 234.1 227.9 221.9 217.9 214 212 210.3 205.3 200.3 195.9 195.1 198.7 203.8 208.1 214.1 216.7 219.6 223.5 225 227.9 232 236.5 242 248.1 252.4 257.3 263.8 269.5 274.9 278.4 281.7 282.2 278.9 270.5 257.9 244.7 225.4 213.8 201.8 192.5 179.2 171.5 163.8 154.1 145.4 140.6 135.6 132.3 126.3 126.5 129.3 129.3 128.8 128.2 138.9 138.1 138.2 140.8 146.2 153.1 160.4 159 160.2 161.3 167.4 168.8 166.7 173.4 184.4 184.4 187 188.8 190.4 191.5 192.5 193.3 193.8 194.2 194.6 195.6 196.9 198.1 199.9 202.4
479.8 480.1 479.9 479.8 477.1 474.5 470.5 468.4 465.2 461.4 458.7 455.8 452.8 449.3 444.6 441 436.6 428.4 425.2 424.3 420.5 414.1 409.9 406.4 402.8 397.9 393.5 389.2 384 378 372.4 366.3 359.3 350 353 355.4 357.4 359.9 363.5 366.5 368.6 369.5 368.9 366 363.2 358.9 353.3 343.9 334.4 323.4 315.7 308.8 300.6 286.8 267.3 265.8 264.8 264.4 263.9 263.1 262.3 261 260.2 258.7 260.9 269.1 276.7 277 275.7 265.6 260.5 267 273.6 274.1 285.4 295 301.4 304.4 308.9 314.6 319.2 323.8 329.4 335.1 341.2 342.7 341.8 338.8 333.5 327.5 319.5 310.4 304 296.8 289.4 282.5 276.2 271.5 266.8 261.3 255.1 253.9 252.3 251.2 250.8 249.2 247.9 248.1 248.1 247.9 246.1 244.4 242.8 240.8 238.3 234.5 228.5 220.9 213.1 206.6 201.5 195.7 195.1 188.5 187.8 188.3 186.1 182 191 196.2 201 205.3 208.6 211.8 214.4 217.6 222.7 228.1 234.3 240.5 248 253.5 260.8 266.2 270 272.6 275.3 275.2 270.9 258.5 245 229.3 217.6 205.6 194 183.9 174.6 166.9 158 152.9 142.2 138.6 135 128.3 127.1 129.4 129.3 129.3 129.3 128.1 127.7 138.2 137.5 139.7 146.6 153.7 161.5 159.6 160 164.1 173.8 177.2 178.4 182.4 174.7 177 185.9 187.2 189.1 190.9 192.6 193.1 193.3 193.8 194.3 194.9 195.9 197 199.1 201.1
469.5 470.5 472.1 472 470.6 467.8 465.5 463.2 460.7 458.5 457.8 455.1 452 449.3 447 443 438.9 436.2 432.4 430.7 427.5 422.9 418.3 414.9 410.2 404.6 399.4 394.4 388.1 381 375.2 366.4 358 357.8 361.1 363 367.2 368.9 371.8 376.2 378.1 378.3 378 375.6 373.5 370.4 365.3 356.9 345.6 335 327 320.9 314.1 304.2 290.3 281.8 271.4 271.3 272.2 269.8 268.1 262.5 259.9 258.9 257.4 256 255.9 255.1 263 264.3 256.3 257.3 267.4 279.8 288.8 294.6 297.7 301.3 305.3 311.2 316.6 321.3 327.2 333.7 337.7 338.2 334.7 331.4 326.1 320.4 314 306.9 298.3 291.1 284.2 278.5 272.6 268.7 265 259.5 255.1 249.6 250.2 248.6 247.3 245.4 243.5 241.7 241.1 241.8 242.4 240.6 238.8 236.1 233.3 227.8 220.1 210.1 201.4 195.2 193.8 191.8 189.1 192.1 188.7 187.3 183.4 186.2 178.9 181.1 187.6 190.6 196.8 197.7 201.9 205.5 212.2 219.4 227.7 235.5 243.4 249.1 256.6 261 264.4 267.5 270.7 268 262.4 248.7 233.4 219.6 207 191.8 179.1 171 167.6 164.1 157 150.1 139.1 135.6 133.2 126.7 127.6 129.6 129.4 129.2 129.2 129.8 129.1 135.8 137.3 139.8 147.2 154.6 161.2 159.9 161.6 169.3 175.8 182 182.5 183.9 184.3 185.8 187.7 188.7 190.2 191.8 192.2 193.2 193.5 194.4 195.3 196.2 197 198.3 200.5 202.8
459.3 461.9 464.4 464.8 463.5 461.4 459.4 457.3 455.5 455.9 455.1 454.2 451.6 449.9 448.6 446.8 444.5 442.4 439.3 436.5 433.6 430.4 426.8 422.9 417.9 412.4 406.6 398.8 391.3 383.9 373.2 364.8 364.2 366.6 369.9 373.4 376.8 378.6 380.3 384.2 386.9 386.8 386.9 387.3 385.8 384.4 379.5 371.7 359.1 348.7 339.4 334 325.7 318.2 308.5 301.7 298.1 293.7 286.9 283.3 277.4 276.9 271.2 267 258.4 255.8 255.5 254.4 253.3 253 252.8 253.2 269.8 278.6 285.7 287.9 290.8 295.9 301.5 307.3 314.1 320.4 326.4 332.1 334.7 333.1 330 326.7 321.3 315.7 310.4 302.1 293.5 288 281.3 275.8 270.6 266 262.3 258 254.4 251.5 248 246.3 244.1 241.6 239.7 237.4 235.3 235.5 235.6 235.1 234.3 232.5 228.3 220.5 207.2 194.4 193.8 192.6 191.8 190.5 195.6 197.2 196.6 193.7 194.8 189.9 185.3 177.5 175.9 172.5 178 175.3 185.6 189.1 198.7 209.2 217.7 227.9 236 242.8 248.5 255.1 261 263.9 264.3 259 251.8 238.9 225.8 209.8 192.9 176.8 169.5 167.4 166.6 160.2 155.2 147.6 137.8 134.8 132.5 127.1 128.8 129.8 129.6 129.5 129.7 129.9 128.7 132.4 137.6 140.6 147.9 157.1 160.4 160.5 164.7 173 178.4 183 182.9 185.5 185.7 187.4 189.5 190.7 191.4 192.6 193.2 193.5 194.3 195.3 196.2 197.1 198 199.7 201.8 203.8
450.6 452.8 454.9 456.7 456.1 455.6 453.7 452.8 451.7 452.4 452.7 451.8 452.2 451.5 450.2 450.4 450.2 448.3 446.4 444.3 441.9 439 435 429.7 424.7 419.8 412.4 402.5 392.8 379.7 375.1 375.2 375.2 375.5 378.6 382 384.7 387 389.3 392.3 395.8 397.5 399.5 399.4 401.6 398 392 384.5 372.6 360.8 349.1 343 336.7 329 321.3 318.2 316.8 313.8 307.6 299 291 285.2 279.9 273.9 269.9 267.1 263.6 254.2 252.5 251.1 250.7 250.5 248.5 267.6 277.7 279.4 280.7 288 296.7 303.6 311.6 318.2 324.6 329 330.7 328.1 325 321.9 316.6 311.3 306 298.7 290.9 284.6 279.3 274.1 269 264 260.2 256.9 253.8 250.5 248.1 245.4 235.9 237.9 235.4 233.1 231.4 230.1 229.6 228.5 228.4 226.4 220.5 207.8 197.5 195.7 198.2 197.7 200.9 201.2 201.9 201.8 202 203 202.3 200.5 198.8 196 187.6 183.4 194.4 171.8 174.8 174.2 185.7 198.7 209.1 219.2 228.5 234.3 241 248.8 256 258.4 256.6 251.4 240.2 229.8 214 196.5 179.7 170.8 167.7 166.8 163.8 159 154.3 143.4 135.3 133 127.2 127.6 128.5 130.1 130.1 130.1 130.3 129.5 128.6 129.9 137.4 142.7 149.4 158.5 160.3 162 169.6 176.2 180.9 183 184.7 186.9 187.8 188.2 190.1 190.6 191.6 193.2 195.3 195.4 195.7 196.5 197.3 198 199.4 201 203 204.7
441.9 444.2 446.8 448.3 448.7 448.3 447.9 447.4 448 449 449.5 449.5 450.6 452.2 452.5 453.9 453.9 452.9 451.5 450.8 448.9 445.8 441.5 435.7 430.6 424.6 417.1 406 390.5 383.2 383.3 385.3 384.9 384.2 387.1 390.4 392.6 394.9 398.6 402 405.6 410.1 413.3 414.3 413.9 410.7 404.2 397.3 385.5 373.9 363.2 353.3 345.4 340.8 334.8 330.4 327.9 322.5 317.4 309 299.9 294.7 286.7 283.4 282 277.8 272.6 266.8 260.6 252.4 251.2 249.4 248.6 247.6 261.2 264.5 271.3 284.2 292.7 300.9 309.6 316.5 321.8 325.2 326.9 325.6 321.7 317.8 312.2 306.8 301.5 295.2 287.2 282.3 277.5 272.4 266.5 262.2 258.5 255.3 252.5 249.4 247.4 244 242.1 235 226.7 230.1 228.1 226.4 223.8 222 219.4 216.9 209.5 202.9 198.6 196.9 199.7 203.8 205.1 207 207.2 207.1 208.2 209.3 209.8 208.9 209.5 206.2 204.6 202.8 198.3 178.3 168.8 167.4 175.7 182.1 199 210 218.5 227.5 234.8 243.8 249.4 249.3 248 240.9 231.5 217.7 200.7 182.6 173.1 168.5 167.3 166 161 157.2 148.1 138.8 133.7 131.6 127.1 128.2 129.1 130.1 130.3 130.5 130.4 129.2 128.2 128.7 137.2 144.3 152.3 161 160.8 164.4 173.5 180.5 182.7 182.8 186.4 188.3 189.1 189.6 190 190.7 192.2 193.7 196.3 197.5 197.2 197.9 198.8 199.7 201.1 202.6 204.4 206.2
433.7 437.3 440.7 442.7 443.1 442.3 441.2 441.7 442.3 443.8 445.5 446.8 448 450.4 455.2 456.8 457.1 457.2 457 455.5 453.4 450.3 446.1 440.4 434.8 428.7 421.4 409.6 396.2 390.5 392.3 394.4 393.6 393.4 395.4 399 403.1 408.7 412.6 415.9 420.3 427 430.3 429.1 426.1 422.5 416 408.4 398.1 384.6 373.7 362.6 354.4 348.7 344.9 340.3 335.1 329 323.2 317.2 309.9 303 296.3 292 289.9 285 280.5 276.5 271.1 256.8 256.9 250.9 247.7 247.1 246.6 248.9 270.3 280.1 288.5 297.1 307.4 314.3 319.1 322.4 322.1 320.6 318.9 315.1 309.5 303.5 297.6 291.6 285.9 280.2 275.3 270 264.4 261.5 257.3 253.7 250.9 249.2 244.2 240.3 238.3 234 229.1 223.6 225.8 223.4 220.1 216 210.4 208.2 201.5 199.7 198.7 199 208.6 209.4 210.1 211.2 212.3 212.4 214.5 215.5 216.1 215.5 213.6 211.4 208.5 206.6 204.6 188.8 172.8 167.8 163.9 168.9 184.6 200.2 207.8 219.6 228.3 236.9 242.4 243.5 238.3 230.2 221.8 204.8 186.3 175 169.2 167.7 166 160.8 158.1 152.4 143.8 136 132.2 128.6 127.7 129.3 128.7 130.2 130.7 130.6 130.2 128.9 129.4 129.6 138.5 146.1 159.2 161.4 162.2 166.9 177.4 180.3 181.7 185.3 187.5 189 190.2 189.9 190.6 191.3 192.7 194.8 197.4 199.5 198.8 199.6 200.5 201.6 203 205 207 208.7
425.6 431.2 434.6 437.4 437.6 436.3 434.9 434.8 435.3 437.4 439.5 442.2 445.4 449.8 453.2 455.5 457.5 459 459.4 457.8 455.6 452.3 448.4 444 439.3 433 423.8 410.4 402.8 400.3 402.1 404.1 404.4 403.2 408.7 413.5 417.3 421.8 425.6 430.6 435.7 441 443.2 442.3 436.6 430.8 424.9 419.3 408.7 397.7 384.1 372.8 363.5 355.2 352.1 346.1 340.4 332.5 327.9 323.2 315.7 309.6 303.4 298.1 296.4 291 286.4 282.2 275.3 265.5 258 255.4 251.8 247.1 245 244.6 260.4 271.5 284.2 294.1 304.1 312.2 316.4 318.3 318.6 317.5 315.8 310.9 304.3 298.2 292.3 287 283 277.4 272.3 267.1 263.4 260 256.4 253 251 248.8 243.8 237.9 234 231.6 227.9 218.7 224.2 219.9 215.8 212.3 204.2 203.5 203.1 201.6 204.5 211.8 214.2 215.2 215.9 216.6 217.2 218.6 220.7 221.7 221.5 219 216.6 214.7 211.7 209.5 207.8 205 195.4 185.6 175.8 162.6 169.6 184.5 199.8 211.7 225.1 233.5 236.7 236.1 229.5 221.9 213.5 193.4 176 170.5 168.1 165.9 159.2 157.6 154.7 149.4 141.7 132.5 129.2 128.8 127.8 129 130 129.3 129.8 130 129.8 129.6 129.7 130.4 138.8 147.3 159 161.4 162.4 170.2 180.9 182.1 184.9 185.3 188.1 189.8 190.2 190.5 191.1 192 193.3 196 198.6 200.7 200.7 201.2 202.3 203.5 205.4 207.4 209.4 211.3
419.6 426.8 430.2 431.4 431.3 429.4 427.5 427.1 427.8 429.6 432.2 435.2 440.6 445.5 448.9 452.2 455.3 456.9 457.3 455.9 453.8 451.5 448.6 446.1 443.9 438.1 426.7 414.5 412.2 412 412.6 413.4 413.7 415.1 419 422.2 425.2 430.6 435.5 439.4 443.9 449.2 451.5 451.8 448 439.7 435 430.2 421.9 408.6 394 379.4 371 362.6 358.3 350.8 343.9 339.1 333.7 327.1 320.8 315.3 310.3 304.7 298.9 294.6 290.7 288.1 279.9 273.7 264.2 260.1 255.5 250.8 245.4 245 244 264.7 278.2 289.5 300.3 307.2 311.9 314.9 314.9 313.9 311.6 306.5 300 293.4 288.5 282.3 278.5 274.5 269.6 264.8 261.2 258.1 256 252.6 249.5 247.2 240.5 234.3 229.3 227.3 225.7 217.5 223.2 218.6 212.9 206.7 205.4 203.5 209.1 211.2 213.7 216.6 219.4 220.9 221.8 222.6 223.8 226.4 228.3 228.8 226.4 223 220.1 217.7 215.2 212.5 210.5 208 205.6 199 173.9 160.7 161.5 161.9 188.9 206.7 221.4 228.7 229.8 227.6 221.1 213.3 200.8 182.3 171.1 168.6 165.5 155 153 153 150.6 146.7 136.1 132.3 130.6 127.5 128.1 129.5 129.9 130.4 130.1 129.8 129.7 129.9 129.1 133.7 139.6 151.6 157.3 159.4 165.6 175.1 182.2 184 186.3 188.1 189.8 190.2 190.7 191.1 191.7 192.6 194.4 196.9 199.3 201.8 202.1 203 204.4 206.4 208.4 210.4 212.2 214.1
415.6 421.3 424.9 426.2 425.1 422.9 419.5 415.3 418.1 421.6 425 428.2 435.4 439.8 443.9 449.1 451.4 452.5 452.4 451.2 450.1 449 447.8 445.9 444 439.5 430.7 425.6 423.8 426.7 425.6 423.1 421.3 422.5 425.9 428.5 431.3 436.3 440 443.6 447 451.6 454.7 457.1 456 448.3 441.8 436.6 429.6 418.7 404 386.7 381.2 373.2 365 351.9 349.3 345.4 336 330.7 326.7 320.9 317 310.8 304.2 298.1 294.9 291.7 288.3 280.8 270 264.6 258.4 254 250.9 244.5 243.7 250 273 283.9 293 301.6 307.6 311.5 311.6 312.2 309.3 304.3 297.9 290.3 282.6 278.1 273.7 270.9 266.8 262.4 258.5 255.3 254.2 251.3 245.9 239.9 233.9 228.6 223.9 220.8 218.8 212.8 215.3 207.8 207.3 206.3 207.3 212 213.3 216 218.9 221.6 224.3 227.1 227.8 229.3 231.3 234.6 235.8 235.5 232.4 229 225.5 222.1 218.7 216.2 213.8 211.5 207.3 201.2 192.7 168.2 159.4 159.7 178.2 200.7 216.6 222.7 222.6 219.5 213.5 204.2 186.4 173.7 168.8 166.4 156.1 152.3 150.9 149.9 147.9 144.1 133.4 129.1 130.4 127.7 130.2 130.7 130.8 130.2 129.6 129.9 129.7 130 128.8 139.5 141.6 155.5 160.3 163.6 166.4 177.3 184.4 186.7 188.7 190.3 190.5 190.8 191.2 191.6 192.2 194.2 197 199.2 201.4 203.3 204.7 205.4 207.2 209.4 211.6 213.6 215.6 217.5
411.2 416.5 420.1 420.7 419.1 415 411.3 406.1 409.9 413.9 418.5 423.9 429.9 434 439.4 444.9 447.1 447.4 447.3 446 444.9 443.7 441.9 440.6 438.4 435.8 434.7 435.7 441.8 439.8 436.1 434.1 430 426.3 427.3 430.2 432.7 436.7 439.4 441.9 444.8 448 450.8 453.8 453.4 448.9 443.4 440.5 432.6 422.6 410.5 395.9 394 387.2 375.9 367.5 359.5 351.6 339.8 335.4 330.9 326.5 320 311.9 306.5 301.2 297.3 293.5 290.3 284.1 276.3 268.8 263.7 259.3 255.4 249.1 243.5 243.3 263.7 274.3 283.3 294.6 301.9 308.4 310.7 311.2 306.2 301.6 295.3 287.8 279.7 275.9 271.7 266.9 262.6 258.5 255 251.3 247.7 242.5 236.1 229.4 224.4 215.6 213.6 213.8 213.1 209.4 209.8 211.7 209.4 214.4 216.4 217.5 219.1 221.9 224.6 227.2 229.8 232.4 234.1 237.7 241.9 243.5 242.7 241.1 237.9 234.1 230.3 225.8 221.9 219.5 216.9 213.1 208.6 202.8 195.7 186 165.5 157.9 167.1 193.3 209 216.3 216.8 212.4 205.8 193.7 175 168.4 165 159.2 152.4 150.7 149.1 148.5 146.2 137.6 133.8 130.5 128.4 128.2 131 130.7 130.7 130.7 130.2 130 131.3 130.1 131 141.5 147.9 156.2 161.7 166.3 169.8 180 185.6 188.6 190.7 191.2 191.3 191.8 192.2 192.5 194.1 196.4 199.7 202 203.8 205.6 207.9 208.6 210.2 212.4 214.6 216.8 218.8 221.1
406.3 410.5 414.6 415.1 414 408.3 403.5 393.4 399.3 404.8 410.8 417.2 423.4 428.9 434.7 440.5 442.1 442.2 440.5 438.8 437.3 434.8 432.4 431.6 433.2 435.3 440.5 448.6 450.1 448.6 444.7 440 435.7 428.9 426.3 427.8 429 431.3 433.8 434.9 436.7 439.2 441.8 444.2 443.7 442.3 441.7 439 431.6 422 412.6 405 401 394.1 385.5 379.4 362 354.2 346.1 338.7 332.8 327.2 321 314.8 308.7 304.8 300.7 296.1 292 286.2 279.4 272 267.3 264.5 260.4 254.3 249 242.1 247.3 260.8 275.4 288.9 299.5 305.6 308.5 306.2 303.3 298.7 292.6 284.7 277.9 273.6 267.4 262.4 256 252.3 249.3 243.9 238 232 220 214.8 213.8 213.6 213 211.8 210.8 213.8 218.3 217.5 218.1 220 221.7 222 223.9 227.9 230.7 233.6 236.4 239.8 243.5 248.9 251.5 251.7 249.3 246.2 242.5 238.3 233.6 229 225.4 222.1 218.6 215 210.5 205.6 199.6 192.5 174.9 157.4 164 185 201.6 209.7 209.4 204.3 196.8 181.3 169.1 167.8 161.8 154.2 151.4 150 148.4 146 142.9 134 131.2 130.4 127.8 129.7 131.2 131.1 131 130.8 130.6 129.6 131.4 129.6 138.6 147.8 154.9 162.9 164.2 170.2 173.2 183.7 187.2 190.3 191.3 191.9 192.6 192.8 193.2 194.9 196.8 198.9 202.2 204.4 206.2 208.1 211 212.2 213.9 216 218 220.1 222.8 226.1
399.8 405.8 408.9 410.8 409.7 403.4 395.2 382.5 387.7 394.7 403.8 410.1 416.8 424.5 430.7 434.9 435.9 433.8 431.7 429.6 426.7 424.7 423.2 424.8 428.6 435.1 441.9 447.2 451.3 450.8 446.1 439.4 433.5 429.3 423.9 423.5 422.9 424 424 424.6 426 425.9 428.3 431.2 431.6 431.9 432.8 431.9 427.1 419.3 412.7 407.9 402.5 396 392.2 381.2 372.9 360.6 350.3 342.4 335.9 328.7 323.1 318.7 312.5 308.3 304.2 300 295.6 289.8 282.4 275.4 270 267 264 259.3 250.4 240.9 240.5 248.3 265 282.4 295.6 301.2 301.8 299.4 296.4 291.6 286.3 281 276.5 268.9 261.1 255.1 250.5 243.9 241.4 235.1 229.8 217.1 215.6 215.5 214.3 212.8 212 211.1 216 221.4 222.8 222.2 223.2 224.3 225 225.6 230.4 234.3 237.7 241.3 244.2 249.3 254.7 259.2 260.6 259.3 256.2 252.5 247.2 241.9 236.5 232.3 228.5 223.8 219.3 215.4 210.9 206.8 202.1 195.6 178.7 155.8 156.1 179.9 195.8 201.2 200.4 196.2 185.2 169.7 169.7 168.3 159 151.7 150 148.6 145.4 141.2 137.6 131.1 131.6 129.2 128.6 129.7 130.1 130.8 130.9 130.4 129.9 129.9 130.6 128.7 142.1 153.1 161.2 165.1 169.3 175.7 181.6 187 190.2 191.6 192.2 192.8 193.3 193.9 195.3 197.7 199.5 202.9 204.8 208.7 210.3 212 214.5 215.9 217.5 219.6 221.7 224.6 228.1 231.6
392.4 400.1 405.1 407.9 405.4 397.7 388.2 374.6 369.5 384.3 393.7 403.3 410.7 418.7 425 428.8 428.4 426.3 424.4 420.8 416.3 414 413.9 416.9 423.4 430.2 437.8 442.9 446.7 446.1 441.6 434.8 427.3 423.4 420.1 417.5 416.2 414.8 413.9 414.2 415.4 416.5 418 419.1 418.8 421 421.5 420.2 418.7 414.9 410.6 406.8 402.7 400 395.8 388.2 378.7 368.2 354.6 345.4 338.9 330.7 327.3 323.2 317.5 313.6 309.2 302.5 298.4 293.7 286.1 279 272.4 268.2 264.6 259.7 251.2 240.2 239.1 238.8 256.7 279.7 290.6 292.4 292.9 290.8 290.4 286.2 282.7 276.3 268.5 260.7 254.8 248.4 247.7 242.9 231.2 220.8 217.7 216.7 216.5 216 216 218.2 219.9 220.4 222.5 224.6 226.4 226.9 226.6 226.9 227.9 230.7 236 241 244.4 248.8 253.5 260.1 264.7 269.2 269.7 266.1 260.9 255.6 250.5 245.3 239.9 235.1 230.6 225.9 221.5 216.6 211.8 207.4 203.2 197.2 186.3 158.4 152.8 170.3 187.1 187.8 188.3 182.4 170.5 168.1 162.2 164.1 153.2 147 142.8 140.7 140.2 137.9 131.8 131.6 131.6 128.3 129.2 131.4 130.5 130.2 129.9 129.9 130.9 131.5 129.3 135.7 150.5 159.7 163.3 169.8 174.9 180.1 186.8 189.2 191.6 192.5 193.1 193.7 194.3 195.1 197.4 200.9 203.5 205.7 209.9 212.6 214.6 216.5 218.1 219.5 221.1 223.6 227.3 230.7 234.2 237.7
389.2 398.2 402.6 404.8 401.8 394.3 384.1 369.6 353.5 368.9 384.8 395.1 403.7 411.5 417.7 420.7 422.9 420.9 416.8 411.3 407.1 403.9 403 409.9 417.2 423.7 430.9 435.7 438.4 437.5 434.2 426.8 421.6 416.2 412.8 410.2 407.4 405.1 404 403.8 403.7 405.4 407 408.4 409.4 411.8 412.6 411.5 409.8 408.7 405.8 402.4 403 403.8 401.4 393.7 385 375.4 364.9 351.6 342.2 334.6 332.1 329.2 325.6 321.8 317.8 312.9 305.5 298 291.1 284.1 276.7 270.2 264.2 260.4 255.3 248.5 237.7 238.7 252.4 272.4 279.5 281.6 282.3 281.9 279.7 276.4 271.4 264.8 257.7 254.1 248.8 242.4 236.7 223.4 220.3 219.5 218.7 218.9 219.8 218.6 220.6 221 222.2 223.8 225.6 227 229 231.4 230.6 231.4 231.8 236.2 242.6 247.8 253.3 259 265.4 270.7 275.3 276.8 273.7 268.9 263.6 258.3 253.1 248 242.9 237.7 232.7 228.1 223 217.8 212.6 208.1 203.8 197.8 192.9 167.7 152.2 157.1 160.9 159.7 172.6 169.5 161.8 143.8 141.3 142.5 143.1 141.7 140.8 139.7 137.1 132.8 132.2 130.6 129.1 129.1 131 131.7 131.2 130.9 130.8 131.8 131 130.6 129.5 145.2 152.3 162.2 168.2 175.1 181.4 186.4 189.7 191.4 192.5 193.4 194 194.6 195.2 196.9 199.7 203.2 206.8 210.3 213.7 215.9 217.6 219.3 221 222.5 226 229 234 237.4 240.8 244.2
389.2 396.6 402 403.8 398.4 388.3 378.1 365.5 354.7 356.9 377.6 387.6 396.2 404.2 410.6 414.9 415.2 412.6 406.7 401.4 397.3 393.2 392.4 401.8 410 414.9 422.2 425.5 427.4 427.2 426.3 421.3 416.2 410.9 405.5 402.2 398.7 396 394.8 393.5 392.5 393.8 395.1 398.2 399.5 401.3 402.8 402.2 401.3 401 399 399.2 402.5 406.5 405.9 400.1 392.1 383.1 372.5 360 351.3 344.3 342.7 340.5 337.1 334.6 331.1 325 317.5 309.6 300.7 288.9 281.1 272.9 265 262.8 256.8 250.7 240 236.3 244.7 263 267.4 269.2 267.2 267.8 264 260.7 258.8 254 248.2 244.9 240.6 230.8 221.7 221.4 220.3 219.4 219.7 220.2 221.1 222.5 225.2 226.4 227.9 228 230.2 231.4 232.4 233.2 233.3 234.7 236.5 242.7 249.2 256.4 262.9 269.5 277.5 281.3 281.8 279.8 276.8 271.8 266.3 261 255.8 250.7 245.5 239.7 234.7 229.1 223.8 218.5 213.3 208.6 204.1 198.7 194.7 188.8 160.2 149.1 147.8 146.8 146.1 152.5 148.5 142.5 137.4 139.3 138.1 137.3 139.4 137.2 134.1 133 131.6 129.8 129.1 132.4 131.4 132.3 132 131.6 131.8 131.9 130.8 129.9 138.9 152.5 159.6 164.4 173.6 179.3 186.1 189.1 191.6 192.3 193.4 194.4 195 195.6 196.4 198.9 202.6 206.4 209.6 212.9 216.1 218.2 220.2 221.9 223.7 227.3 231 235.3 240.7 244.1 247.5 251.3
388.1 396.7 402.7 400 392.7 383.6 371.9 361.5 351 346.7 367.1 379.1 386.4 395.9 405.1 407.7 405.6 403 396.9 391 387.3 379.7 384.3 394 401.6 407.2 412.5 416.5 418.8 419.8 418.3 413.4 408.4 402.8 398.4 394 390.1 387.5 385.6 383.4 381.3 382.8 384.4 385.6 386.9 389 390.2 391.9 392.8 392.2 392.6 396.1 402.7 409.1 409 403.6 397.8 390.3 382.2 373.6 365.1 358.6 357.2 353.8 350.3 346.9 340.5 332 322 313.2 303.5 294.1 284 276.2 268.6 266.4 260.3 257.4 249.1 236.6 235.8 252.4 256.5 255.3 249.6 250.6 249 250 246.4 242.9 237.1 226.3 224.2 222.6 223.1 222 221.2 223.1 222.6 223.2 225.4 226.6 227.9 234.4 234.9 234.3 234.7 235.8 237 236.9 236.4 238.6 242.6 251.7 258.2 266.1 273.2 280 283.8 285 285 283.5 280.7 277.4 271.1 264.4 258.5 253.3 248.2 241.9 234.6 229.4 224.3 219.1 214 209.4 204.5 199.9 195.8 192.2 176.2 160.5 157.9 163.7 164.2 158.9 161.1 147.2 138.7 137 140.6 135 136 134.6 133.3 131.7 130.5 130.5 131.8 131.6 131.3 131.2 132.2 132.5 131.9 130.5 130.3 139.1 153.7 159.3 165.3 172.6 177.9 181.8 188.5 191.8 192.7 193.5 194.3 195.4 196 196.7 198.6 202 205.8 209.5 212.4 215.6 218.2 219.9 222.8 224.6 227.3 232.9 237.1 242.1 247.4 251 254.9 258.7
389.5 394.3 397.2 393.7 386.4 377.8 367.5 356.7 347.3 335.5 356 368.2 379.2 389.7 398.9 400.4 397.6 394.2 388.5 382.8 377.4 369.4 376.4 385.2 391.5 397.1 402.4 404.9 407.8 410.1 409 405.7 401.1 395.3 391.4 386.8 382.3 379.2 376 373.2 370.3 370.3 372.9 373 375.9 378.2 379.3 380.8 382.6 384.4 385.8 391.2 401.3 406.2 405.6 402.5 398.4 393.8 387.8 381.7 375.2 369.9 365.6 361.4 354.1 349 340.7 332.4 322.6 314.5 306 297 289.1 281 275.4 268.4 259.2 255.1 247.4 239.6 234.3 234.2 234.1 232.9 231.3 230.1 229.1 228.9 228.3 227 226.5 225.4 224.5 223.4 223.5 223.2 226 227.7 227.7 228.5 230.1 231.7 233.6 237.7 241 240.9 241 240.6 241.6 240.5 241 242.9 250.4 259.4 267.8 275.3 280.3 285 288.5 289.2 291 289.9 286.9 282.7 275.2 268 261.5 255 250 243.4 236 229.8 224.8 219.6 214.8 209.8 204.8 200 195.3 191.1 187.5 178.3 173.4 171.5 171.3 167.7 150.8 145.8 144.1 136 135.2 134.6 132.2 131.6 131.3 131.3 132.9 132.2 131.8 131.8 131.9 131.6 132.2 131.5 131.3 132 131.1 144.2 153.3 162 172.3 178.4 183.1 185.2 190.8 193 193.9 194.8 195.5 196.4 197.2 198.6 201.5 205.2 208.9 212.4 215.3 218.3 220.3 221.9 224.4 227.5 231.7 238.3 243.6 250.7 255 257.7 261.5 265.7
390.3 392.2 391 386.8 379.7 370.9 358.3 348.6 342 324.9 341.5 359.7 372.5 384.5 391.2 392.1 390.5 387.5 381.5 376 370.1 361.9 367.6 376.1 381.3 386.7 391.9 395.3 399.5 402 401.7 398.9 393.6 389 384.4 379.2 374.4 369.8 364.9 362.2 360 360.3 360.4 362.1 363.6 365.9 368.7 371.1 375.2 378.1 381.1 385.9 394.3 397 397.6 396.8 395.5 393.1 389.5 383.9 378.5 371.7 366.8 359.6 352 345.8 339.6 331.9 322.3 315 307.8 300.4 293.3 285.4 277.1 267.9 258.9 253.4 246.9 239.3 234.7 233.8 233.2 231.9 231.3 230.1 229.7 228.5 227.3 226.6 227.5 227.1 228.6 227.2 227.5 229.2 229.9 235.6 233.4 234.7 237.2 238.6 240.2 243 246 246.2 246.3 246.1 245.2 244.7 246.5 249.7 256.7 266.7 275.7 280.1 283.8 289.9 294.3 297.3 296.3 294.3 289.6 284.7 278.1 270.8 264.1 257.7 249.9 242.6 235.7 230.1 225.1 219.8 214.5 209.5 204.5 199.6 194.4 190.1 184.5 176.3 172.9 171.9 167 152.3 145.3 144.1 140.5 133.9 132.3 132.4 132.1 132.9 133.1 132.6 132.8 132.9 132.5 132 131.5 132 131.8 131.8 137 139.4 147.4 156.4 156.8 167.9 176.4 184 187.4 189 192.8 193.8 194.8 196 197.1 197.8 199.3 201.3 204.6 208.3 212.1 215.5 218.4 220.4 221.8 223.6 226.1 230.1 235.6 242.4 250.9 260.3 262.7 264.7 268.5 272.9
389.3 389.7 385.8 379.9 372.2 361.4 349.1 340.5 329.5 319.3 338 355.3 365.7 378.3 382.2 384.4 383.4 381.1 376.1 371.1 364.1 353.2 357.4 366.6 371.8 377 381.9 387 391.3 393.6 394.2 392.4 387.8 382.3 377.5 372.9 366.6 359.8 354 350.4 348.8 347.8 348.1 349.7 352.2 356.3 360.3 365.4 369.5 372.6 375.8 380.2 384.9 388.8 390.6 391.5 391.3 391.6 389.4 384.4 378 370.2 362.6 352.8 346.7 341.2 335.7 331.1 322.1 316.2 311.2 303 294.5 285 275.6 269.7 262.4 254.9 249.6 241.6 235.5 234 233.8 231.6 231.4 232.3 232.1 231.5 231.1 229.6 232.5 232.6 232.2 231.9 232.9 234.6 238.8 242.8 242.6 243.4 244.7 246.3 248.6 252.2 250.8 251 250 249.2 248.4 249.1 252.3 256.1 264.5 273.1 279.2 281.2 287.7 296.8 301.3 302.7 298.7 295.4 291.2 285.4 279.5 273.6 266.5 257.6 249.5 241.9 235.8 230.4 225.1 219 213.7 208.8 204.1 199.3 194.4 188.1 179.4 173.2 171.3 171.2 153.5 145.1 144.7 143.8 134.2 132.3 132.5 132.8 134.4 133.3 132.3 132.2 132.8 131.6 133.1 132.3 131.2 132.4 138.8 140 149 151.2 156 166.5 165.1 169.9 179.6 186.3 190.8 193.7 195.2 196.6 197.7 198.5 198.9 199.5 201.4 204.3 207.8 211.5 215.2 218.8 220.9 221.9 223.4 225.7 228.4 233.2 240.1 250.9 261 265.7 269.1 271.3 274.6 279.2
388.3 389.1 381.6 373.9 364.4 353.8 341.8 328 316.3 317.4 333.9 351.2 360.2 366.7 371.9 375.1 376.3 375.3 372.3 365.9 358 344.5 347.6 354.8 360.6 367 373.3 377.9 383.1 386.3 387.8 387.4 384.1 378.2 373.2 367.1 359.6 350.6 343.6 339.5 338.5 336.1 336.8 338.7 341.8 347.3 353.7 359.5 363.9 365.4 369.9 373.9 377.4 380.5 383.4 385.6 386.3 386.5 385.5 380 370.3 364.7 357.4 348.5 343.3 340.7 331.4 324.8 317.6 307.6 302.4 300.7 292.9 283.6 277.1 270.7 263.3 254.8 248.3 242.5 240.6 240.7 239.7 238.6 236.1 235 234.7 234.6 234.7 234.9 236.5 236 236 236.8 239.9 242.3 246 252.2 254 253.2 254.7 256.8 258.3 257.7 255.4 253.5 253 252.5 251.3 253.6 257.2 261.7 268.2 274.4 279.9 285.5 294.4 303.9 305.2 303.3 299.3 295.2 290.6 285.6 281.4 276.4 268 259.1 249.8 242.2 235.5 230.5 224.3 218.1 213 208.3 203.4 198.6 193.6 183 175.9 171.7 171.2 163.2 147.5 144.6 144.1 135.5 132.3 133.2 134.5 133.6 134.3 133.9 133.7 133.7 133.9 133.5 133.3 132.9 140.3 147.8 150.3 143.2 139.9 145.2 153.3 161.4 168 172.8 181.4 188.7 193.8 195.4 199 199.2 199.6 200 200.5 201.5 203.6 206.8 211 215.7 220.5 222.4 223.3 224.4 225.8 228.1 231 237.2 244.7 258 265.9 269.2 273.4 277.6 280.7 286
387.6 386.2 379.6 368.6 358.3 348.1 335.1 317.6 306.4 317.6 332.5 344.3 352.6 356 362 366.3 369.2 370.4 367.2 361.9 353.3 339.3 336.6 343.3 351.5 359.9 365.7 369.2 373.2 378.3 381.4 382.4 379.8 374.2 367.6 360.3 352.4 343.8 334.3 329.8 328.5 329.9 327.6 327.7 332.2 338.1 347.3 353.9 356.4 359.2 362.3 366.2 368.2 372.6 375.9 377.7 380.3 380.2 377.2 371 365.3 360.6 353.4 345.1 340.3 332.5 327.8 322.6 317.2 304 293.1 290.7 287.1 279.9 273.3 265.9 260.1 255.6 249.7 247.6 247 245.7 241.9 241.6 239 237.1 238.1 238.4 238.5 238.9 240.7 240.4 241.5 244.3 246.6 250.6 253.6 258.8 261 263.2 265.2 265.7 264.2 261.4 257.6 255.1 253.8 253.5 255.2 258.3 260.5 264.5 269.7 275 281.5 292.5 302.1 306.3 303.5 301.1 297.1 293 289.6 285.1 282.4 278.2 270.3 259.2 250.6 243.2 236.6 230 223.8 216.7 210.5 206.4 201.9 197.2 192.1 180.4 175.2 170.9 169.7 154.7 145.7 144.4 143.7 133.4 132.5 135.2 134.3 134.2 133.8 133.7 133.6 133.6 133.8 133.6 133.9 137.7 152 151.8 151.4 151.7 150.7 141.5 152.5 158.3 166.3 175.9 185 191.1 194.2 196.5 198.9 199.6 200.4 201.2 202 203.6 205.9 209.1 215.7 223.1 224.5 225.4 226.4 226.9 228.5 230.4 232.5 237.1 247.8 261.4 266.9 271.3 275.3 279.4 284.8 290.6
382.5 381.8 376.5 365.4 356.1 345 331.9 312.5 300.6 312.5 324.8 333.7 341.5 346.9 352.6 357.2 362.4 365.4 362.5 357.3 348.5 335.2 322.5 332.9 340.9 348.6 355.7 359.3 363.8 369 372.9 373.9 372.7 368.8 363.4 356.9 347.7 337.7 331 323.2 319.3 318.7 318.1 318.4 324.1 332.2 341.6 346.8 347.7 349.6 352.6 357.8 361.2 364.9 368.4 370.7 372.1 373.1 371.4 367 364.2 359.6 349.8 339.2 336 331.7 325.6 320.1 313.9 305.3 288.9 281.6 277.7 274.4 267.9 262.5 259.7 258.5 256.5 255.5 250.5 248.6 248.4 245.4 244.8 244.6 243.7 244.2 245.3 244.9 245.1 245.7 246.9 253.2 255.5 259 263.3 267.2 269 270.3 271.5 271.5 267.5 264 259.7 256.1 256 255.9 259.1 263 265.5 268.4 270.4 274.9 281.5 291.2 293.7 296.9 295.9 293.8 291.6 288.7 284.4 280.3 276.1 272.4 266.5 258.9 249.8 243.1 236.6 229.2 221.4 213.4 208.1 203.5 198 193.9 187.4 176.7 173.5 169.5 162.6 148 144 138.4 132.7 132.6 136.4 135.3 134.4 134.2 134.1 133.9 133.8 133.7 133.7 133.8 135.3 150.9 152.4 152.5 152.2 152.6 153 145.2 153.7 162.9 171.4 180.2 187.6 191.5 195.1 197.1 199.2 200.8 201.5 202.2 203.1 205.2 207.7 212.8 221 225.7 227.1 227.3 227.4 227.9 229.4 232.2 233.4 237.1 246.9 255.9 264.4 269.6 273.4 279.4 284.2 288.9
375.2 376.4 374.5 366.3 356.1 343.3 325.4 306.9 296.8 304 314.9 319.8 328.1 333.6 340.2 350 358 362.6 358.8 352 342.1 331.7 320.7 318.7 331.9 338.2 345.3 350 354.7 360.8 364.5 366.5 366.3 364.3 360.6 353.5 342 333.8 328.6 319.3 306.4 307.8 307.8 308.9 315.1 326 334.6 337.4 338.2 343.5 347.6 350.8 354.4 358.5 361.6 364.1 365.4 366.2 367.2 364 358.6 350.1 341.6 336.5 332.3 327.4 321.7 314.8 306.7 299.4 289.8 277.7 271.8 268.4 267.5 267.7 267 265.7 264.9 264.2 259.6 253.6 252.7 253.6 251.8 250.8 249 249.2 248.2 248.7 250.7 252.7 257.8 257.7 260.7 264.5 269.6 272.9 275.1 276.6 277.7 275.2 270.7 264.8 260.3 256.3 257.2 259.9 262.8 265 266.8 269.8 271.1 272.2 273.8 278.2 282.1 284.5 285 285.6 283.8 281.4 274.7 271.4 266.9 263.3 258.7 253 245.3 240.5 234 226.5 217.9 210.5 205.3 199.6 194.9 189.5 181.8 174.2 170 166.2 156 144.8 133.1 132.7 132.6 132.8 136.4 135.2 134.9 134.7 134.5 134.2 134 133.9 134.2 136.3 142.8 152.9 153.1 152.9 152.9 153.1 147.6 147.5 155 166.1 176.6 184.9 189.3 192.6 195.8 197.7 199.6 200.7 201.9 203.2 204.8 206.5 209.2 214.2 220.5 223.1 225.9 228 228.1 228.8 230.1 232.5 234.3 236.7 241.3 249.3 257.1 263 266.6 272.6 278.3 284.2
367.2 371.6 371.9 365.7 353.2 342.4 322.8 304.5 293.7 291.4 299.5 302.3 309.3 320.5 332.4 344.7 354.5 357.1 353.2 346.5 337.7 328.2 315.8 300.3 320.2 328.4 336.1 340.4 345.2 351.5 357 358.2 358.3 358.4 355.5 346.7 337.6 329.8 323.9 317.3 308.9 298.5 297.4 300.1 308.1 317.8 323.6 326.3 331.3 336.8 341.2 344.9 348.5 350.4 352.7 355.8 358.4 360.9 362.8 357.4 349 342.8 336.3 331.5 327.1 321.5 315.4 306.5 298.9 292.6 284.7 276.1 274.4 274.8 273.6 273 273.6 273.1 271 269.8 266.1 261 263 262.8 259.9 257.9 259 256.2 255.4 258.4 261.7 264.9 267.5 269.3 271.3 272.5 274.1 276 278 281.6 281.4 277 270.3 264.1 258.9 256.5 258.9 261 262.6 263.4 265.4 263.7 261.5 260.4 262.2 266.5 267.8 271.6 273.5 272.8 270.1 269.4 265.4 261.9 257.4 253.4 248.6 243.6 237.7 234.5 227.6 221.8 214.3 207.3 201.3 195.6 190.1 185.4 178.6 170.7 167 161.2 148 135.4 133.1 133.1 133.5 133.9 136.3 135.5 135.5 135.3 135 134.8 134.6 135 135.9 137.8 150.1 154.7 154.8 156 156.7 157.5 151.8 150.3 155.4 166.2 175.8 182.2 189.4 193.1 196.4 198.3 199.8 200.7 201.8 203.1 205.2 206.9 209.9 214.2 219.1 222.1 224.8 227.5 228.7 228.6 230.5 232.3 234.3 236.5 239.8 243.6 249.1 253.8 258.6 264.1 269.8 276.8
359.5 365 366.4 360 351.1 342.9 325.1 304.1 290 288.6 286.5 288.4 299.3 316.4 328.4 343 349.4 349.6 346.4 339.8 332 322.8 311.9 296.9 306.1 316 326.7 332.1 337.5 342.2 348.6 350.4 351.4 351.6 346.7 341.7 335.3 328.9 321.6 314.6 307.9 298.2 292.4 292.6 301.4 307.4 313.9 317.8 324.1 329.2 334 337.6 340.9 343.9 345.4 347.5 349.9 350.9 351.3 344.7 345.5 339.6 332.8 328.4 324 316.5 309 301.3 295.6 290.6 284.2 281.1 280.6 281.1 280.9 281.2 281 280 278.2 276.3 273.4 271.7 271.6 270.5 269.6 265.5 262.7 263.8 268.3 269.8 272.2 275.1 275.6 277 277.7 278.5 279.7 283.1 284.2 283.9 280.4 274.4 267.9 260.8 256.5 254.9 255.6 256.5 256.8 256.5 254.6 252.2 249.9 249.6 247.9 251.9 255.2 258.8 258.9 258.4 257.3 255.7 253.5 249.8 245.4 242.3 238.6 234.4 230.3 227.1 221.4 216.4 210.6 204 198 193.1 188.1 183.3 175.1 167.1 160.4 153.5 144 133.8 133.5 134.2 134.6 135 136.3 136 136 135.8 135.6 135.3 135.4 135.6 136.4 142.1 154.6 160.7 164.2 167 169.2 169.2 160.5 152.9 157.2 166 175.4 184.5 189.9 193.4 197 199 200 200.9 201.8 203.1 205.2 207.3 210 213 217.7 221 223.8 226.6 228.5 228.5 230.3 232.1 234 235.5 237.6 241 244.4 247.9 251.3 256 261.2 268.7
348.2 352.7 356.7 353.3 347.9 340.8 326.8 306 289.6 286.2 285 286.3 296.6 312.7 326.6 335.3 340 340.1 337 330.8 323.6 316.4 304.6 296.7 294.5 306.1 316.4 324.6 330.8 337 341.9 343.5 343.3 343.5 340.4 336.2 332.3 325.7 320.6 313.8 306 296.7 288.1 284.1 294.1 300.7 306.3 309.5 314 320.8 326.1 329.2 332.4 336.4 337.8 341.1 343.8 347.6 346.9 336.7 330.9 333.8 326.2 319.9 313.8 308.9 304 299.8 296.3 293.4 290.6 288.7 287.4 288.6 289.3 291.2 291.4 290.4 288.4 286.2 285.8 283.8 278.1 281 277.3 275.4 270.7 270.7 275.9 280 282.3 283.1 283 282.8 282.8 281.6 283 285.6 283.9 279.2 275.8 271.7 264.8 256.9 252.5 249.6 247.2 245.5 243.8 242.7 240.4 239.1 237.5 232.8 232.1 237.2 241 243.8 244.6 244.1 244.3 242.4 240.8 237.2 233.7 230.5 225.6 224 221.7 218.8 214.9 210.2 205.2 199 195 191 185.8 176 168.8 164.6 159.8 148.8 145.6 133.8 134.4 135.6 135.8 136.1 136.6 136.5 136.5 136.4 136.1 136.1 136.3 136.4 138.1 146.4 156.6 164.1 181.2 185.9 186.9 186.6 175.6 162.8 158.1 167.6 177.3 185.8 189.9 193.9 197.4 199.4 200.3 201.1 202 204.1 206 207.5 210.1 212.8 216.4 219.6 222.8 225.4 227.4 228.4 229.2 230.6 232.4 234.2 236 238.3 241.1 245.2 246.3 248.6 253.6 260.6
332.6 336.5 342.4 342.6 341.3 336.7 323 306.6 290.2 284.4 283.6 284 290.6 308.3 320.8 325.9 330 328.5 325.3 318.6 312.3 302.9 294 290.2 279.6 296 306 316.2 325 331.6 333.9 336.2 336.8 337 335.8 331.9 327.8 322.8 317.2 310.7 302.9 293.9 283.8 276.1 285.2 292.5 297 301.7 306.3 312.9 318.1 322.9 324.7 329.2 331.5 336.6 343.1 347.3 348.9 344.6 332.8 331.7 330.6 327.2 321.4 315.3 309.9 305.9 303.6 301.8 299.6 298.6 296.8 302 305.2 308.5 309 307 305.2 301.4 299.1 297.2 294.7 291.7 289.2 284.6 279.3 275.2 284.2 288.1 290.1 290.2 289.2 287.8 288 287.1 284.3 280.5 278.3 272.7 267.5 261 253.2 247.1 240.1 236.1 230.9 226.1 222.2 218.4 217.2 214.3 213.8 210 214.2 222.9 228.8 231.4 232.4 232 230.8 229.2 224.9 221.2 218.9 216.5 215.6 213.7 211.6 209.7 206.3 202.3 199.9 193.3 189.4 184.1 177.9 170.2 165.4 162.8 151.2 143.3 143 136.8 133.7 136.4 136.8 137.1 137 137.1 137 136.9 136.8 137 137 136.8 139.5 151.1 156.9 159.1 172.3 187.4 188.2 187.9 188.1 180.2 168.5 169.9 177.6 184.4 191.1 194.4 197.8 199.5 200.3 201.2 203.1 204.5 205.9 207.9 210.6 213.2 215.6 218.1 221.3 224 225.9 227.8 228.9 230 231.5 233.5 235 236.7 238.9 242 243.6 245.8 247.4 250.6
313.6 315.8 321.3 324.2 330.6 326.2 312.3 299.1 287.7 283.6 284.2 279.7 284.9 303.1 310.8 316.7 318.7 317.4 312.1 302.8 292.4 286.9 284.9 280.6 270.7 286.1 298.4 313 320.2 325.8 327.8 329.3 330.5 330.9 328.1 326.2 322.7 318.7 313.3 307.5 300 290.8 281.7 274.9 277.6 283 287.4 293.5 300.1 305.1 310.1 315.4 320.4 322.9 327.3 333.5 340.3 345.6 348.5 346 343.7 341.4 339.1 335.3 330.5 324 320.4 316.6 315.6 313.7 311.2 314.2 316.2 317 318.4 318.8 317.7 315.9 313.3 309.7 306.4 303.7 301 297.8 294.4 290.7 288.8 282.3 292.1 294.6 295.8 296.4 292.4 287.5 282 276.1 272 264.1 257.6 249.9 243.8 237.9 231.9 227 222.2 216.4 210.1 205.1 202.3 196.6 192.6 190.6 190.8 185.9 194.4 205.1 212.7 216.6 217.6 218.1 217.6 213.5 211.2 207.5 206.2 204.8 204.4 203.5 201.6 200.4 198.3 195.5 191.4 188 182.3 176.3 169.2 164.4 161.9 153.6 146.1 141.4 142.1 136.1 133.8 134.1 136.4 137.2 136.6 136.7 137 137.2 137.1 136.9 136.8 137.8 140.2 153.9 158 160.1 167 186.8 188.4 188 187.9 187.9 170.3 172.5 177.2 184.7 190.9 194.1 197.1 198.6 200.3 201.6 203 204.4 205.9 208.3 211 213.4 215.7 217.9 220.1 222.5 224.5 226.5 228.4 229.9 231.3 232.6 233.9 235.5 237.5 239.5 241.6 243.8 245.3 247.8
295.1 302.8 307.8 310.5 310.9 306.7 295.2 287.5 282 282.3 285.9 283.9 277.2 291.5 300.2 303.7 304 305 299.2 287.9 275.5 270.1 270.2 269.4 263.6 281.8 296.4 311.3 316.5 317.8 319 321.1 322.3 323 321 318.4 317 313 307.4 301.3 294.8 287.1 278.4 271.2 263 273.8 278.4 285.4 292.7 299 304.2 309.4 314.7 320.3 325.3 331.6 339.5 345.7 349.6 347.9 347.8 347.5 345.9 343.4 340.5 338 335.2 332.7 329.1 327.9 326.6 326.7 324.6 323.1 322.5 322.2 320.4 318.5 316.1 313.9 310.8 308.9 305 304.1 301.3 299.1 296.7 294.4 297.6 299.9 297.2 292.8 282.8 276.5 268.5 253.3 243.6 235.2 228.1 222.3 217.7 213.2 208.5 203.4 198.3 194.9 190.8 185.1 179.8 172.6 166.9 163.7 162.3 162.3 168.8 183.4 193.6 199.2 200.6 200.9 198 194.3 192.7 190.4 190.7 192.6 192.6 192.1 191.3 187.5 185.5 182.9 181.1 176.4 171.1 164.8 161.3 156.8 149.7 143.5 142.5 142.1 141.4 137.1 136.9 134.6 135.2 137.6 135.8 136.5 136.7 136.9 136.7 136.2 137.2 138.6 141.2 154.6 158.5 162.5 171.9 188.6 188.5 188.3 188.7 188.2 177 171.5 179.1 184.4 189.8 193.4 196.7 199.4 201.1 202.1 203 204.4 206.1 208.7 211.2 213.5 215.7 218 220 221.9 223.9 226 227.5 229 230.5 231.9 232.8 234.4 236.2 238.5 240.4 241.9 244.2 246.6
277.7 282.3 288.3 296.4 298.1 291.6 291.9 282.5 280.2 294 302.9 293.1 276 275.2 288.7 299.4 297.3 292.1 281.8 271.7 260.8 257.7 257.8 253 268.9 284.5 299.3 308.8 308.7 309.8 310.5 311.3 313.4 313.6 312.8 311.6 309.7 305.3 299.3 294.3 287.7 279.8 272 266.2 256.6 266.3 272.6 280.1 287.8 295.5 302.2 306.3 310.5 316.7 324.8 333.7 339.9 344.7 348.3 351.4 354.4 355.4 356 354.8 353.1 350.8 346.4 342.2 339.3 337.7 336 331.6 327.7 324.2 323.3 321.5 319.9 318.6 317.6 315.9 316.6 313.3 309.1 307.1 303.7 302.2 297.3 298.4 300.4 298.1 286.2 272.9 258.8 246.5 234.9 224.6 214.4 207.4 200.2 196.4 191.8 189.5 184.3 181.7 179.1 175.5 172.1 168.5 161.2 153.3 152.1 150.1 148.6 147 146.4 151 164.5 175.4 178 179.1 176.4 174 174.6 174.5 173.1 174.4 176.2 177.1 176.4 176.2 172.5 169.4 165.8 161.2 154.8 149.7 145.8 143.4 143.1 143.1 143.1 142.9 142.1 136.4 136.9 135.6 134.7 135.4 137.6 137.1 137 137.1 136.8 136.8 138 139.1 142.8 153.1 158.6 164.8 170.4 188.1 188.8 189.1 188.9 188.9 187.3 178.6 178.6 185.3 189.8 194.2 196.8 200.7 201.8 202.8 203.7 204.6 206.4 208.9 211.3 213.6 215.6 217.5 219.4 221.3 223.4 225.1 226.6 228.1 229.6 231.1 232.5 233.8 235.5 237.3 239.8 241.2 243.2 245.6
268.7 265.1 266.3 275.1 278.1 287.4 287.7 285.6 277.6 282.1 285 282.4 271.8 255.7 280.3 288 284.9 277.5 267.8 257.5 249.6 240.6 253.4 266.3 275.2 290.9 300.5 303.1 302.8 302.6 301.6 302.5 305 305.7 304.6 303.9 300.6 296.2 288.9 285.2 279.6 272.9 266.6 261.8 254.4 261 269.6 277.9 285.9 293.5 298.7 302.9 307.8 316.2 324.9 331.6 337.5 342.6 348.6 356.1 362.3 365.3 365.9 365.5 362.1 358.2 354.4 352.1 350.3 343.5 340.3 333.8 328.4 324.6 322.3 320.2 319.2 318.4 317.8 317.9 316 313.2 309.1 307.3 304.1 300.6 297.8 297 289.3 276.5 257.5 242.6 229.4 217.6 204.2 194.5 189.1 184.9 182.5 180.7 174.2 170.8 171.3 165.8 167.3 165 161.1 156.4 147.2 141.7 140.4 138.4 138.1 138.1 138.1 138.1 139.2 140.7 143.7 145.5 145.1 146 149.8 151.2 149.8 151.7 156.6 160.3 163.3 163.8 161.2 157 154.2 149.2 146 145 143.9 142.8 143 142.2 139.3 136.8 136.3 136.8 137.1 137.4 135.5 136.8 134.8 137.9 137.3 137.3 137.2 137.4 138.6 140.8 143.8 152.1 159.9 167.5 169 179.2 189.3 189 188.4 188.7 189.3 186.2 178.2 184.2 189.5 193.9 197.5 199.9 202.4 203.3 204.1 205.2 207.4 209.1 211.3 213.2 215.1 217 218.8 220.8 222.7 224.1 225.6 227.1 228.6 230.1 232.5 234 236 237.7 238.5 240.7 242.3 245.2
272 261.1 257.6 260.4 262.8 278.3 279 279.5 273 264 268.8 268.4 247.7 267.1 270.1 267.6 263 256.9 250.4 243.1 237 244.1 261.2 274.2 283.6 292.4 296.6 296.8 295.8 294.6 293.3 293.9 297.1 296.6 295 294.5 289.9 282.8 277.4 274.8 269.8 264.8 259.8 253.9 246.1 259.1 269.8 279.6 286.4 291.2 296.2 301.1 306.3 312.9 320.9 327.8 334.5 342.5 351.3 359.3 366.6 370.4 368.9 366.7 363.7 362.6 362.8 360.5 355.3 348.1 340.5 333.9 327.3 322.1 319.4 318.2 317.5 316.7 315.8 314.7 312.9 310.3 307.3 304 300.5 297.3 293.3 282.1 262.9 244.2 229.6 215.9 203.6 193.5 185.7 181.2 179.4 178.2 175.7 171.2 166.8 167.4 161.6 161.5 157.8 150 145.4 142.1 140.3 138.2 138.1 138.1 138.8 141 140.8 139.5 138.2 138.2 138.3 138.2 138.3 138.7 139.7 138.5 137.8 139.3 139.1 138.4 141.2 143.9 145.6 146.2 143.6 142.4 142.7 141.6 138.9 138.3 137.8 137.4 137 136.6 136.6 137 137.4 137.4 135.8 135.2 137.6 139.1 138 137.4 137.5 138.2 139.5 139.9 143.6 152.9 161.2 174.9 183.2 173.5 186 189.8 189.4 189.8 189.7 189.6 181.8 183.9 189.3 193.2 196.9 200.3 202.7 203.6 204.2 206.2 208.5 210.1 211 212.7 214.5 216.4 218.3 220.3 221.7 223.2 224.7 226.2 228.2 230.6 232.8 233.8 235.6 238.2 239.8 241.3 242.8 245.5
249.3 242.4 245.9 242.5 252.1 257.8 263.1 266.4 262.5 251.1 261.5 245.7 247.3 256.7 255.8 246.3 240.5 239.2 234.5 231.1 231.2 243.6 259.3 271.2 280.4 287.6 289.5 289.6 285.9 284.5 281.7 283.6 286 287.3 285.8 282 278.3 273.6 270.1 266.7 262.5 257.6 251.4 247.1 249.9 262.1 271.6 278.6 284.5 289.6 293.7 298.8 305.1 310.5 317.2 324.2 332.9 342.5 351.7 359.5 365.3 364.7 361.6 361.6 364.2 367.1 366.4 361.3 352.6 345.8 339.1 330.5 324.6 319 315.5 312.9 311.7 311.1 310.6 308.3 306.6 305.1 302.4 298.6 293.9 288.2 277.1 257.8 238.9 222.9 209.6 195.7 186.1 180.7 178.9 176.3 174.6 173.8 172.1 168.9 172.4 173 164.2 153.7 144.4 142 142 138.4 138.8 138.9 139.2 140.4 141.3 142.3 143 143.7 141.3 140 139.2 138.5 138.4 138.3 138.2 138.2 138.1 138.2 138.2 138.1 138.1 138.1 138.1 138.2 138.4 138.5 138.6 137.7 138 138 138.5 137.5 137.3 137.1 137.2 137.3 137.7 136.8 135.7 135.8 137 137.7 138.7 138.1 137.5 138.9 138.8 139.2 144.7 155 163.6 182.5 188.9 189.7 181.5 189.8 190 189.9 189.8 189.7 188.7 185.3 188.7 193.7 199.3 201.1 202.5 203.5 204.7 206.3 209.1 210.8 211.9 212.7 214.4 216.1 217.9 219.3 220.8 222.3 224 226.3 228.7 231 233.1 234.1 236.2 238.5 239.9 241.3 242.8 245
240.1 241.8 236.2 236.2 233.2 233.1 232.2 235.3 234.9 235.2 231.9 228.3 224.6 220 218.4 215.3 212.9 210.5 213.7 213.1 219.2 236.6 247.3 261.9 274.8 281.4 284.9 282.2 277.5 274.9 272.9 272.5 275.4 277.3 276.3 273.4 271.1 266.8 263.1 259.1 253.7 249 244.4 237.8 249.6 260.7 270.8 276.5 282.6 287.7 292.3 298.2 304 310 316.2 322.4 331.4 340.3 348.6 355.5 356.8 354.2 353 354.1 356.8 359.5 359.3 354.3 349.2 342.4 335.2 327.2 320 314.3 309.4 306.5 303.9 303.2 303 302.6 300.9 298.9 294 289.9 283.4 274.6 255.6 239.1 218.5 204.5 194 184.6 179.1 177.2 176 174.8 174.5 174 173.2 172.8 172.9 160.4 150.8 145 142.2 140.7 139.2 139.6 140.5 141.7 142.1 143.7 147.4 151.5 151.5 150.5 151.8 150.6 150 148.3 147.2 147.3 145.4 145.6 141.9 140.3 139 138.9 138.1 138.3 138.8 138.2 137.8 137.1 137.1 136.9 136.3 136.6 137.5 137.2 137.9 138 137 136.8 136.9 136.3 137.5 138.7 138.4 136.2 138.8 139 138.6 139.1 138.9 138.6 146.1 156 165.2 180.6 189.5 189.7 188.3 189.8 190 189.9 189.6 189.5 189.3 186.1 189.8 195 199.3 201.2 203 204 205.8 207.4 209.2 211.4 212.4 213.4 214.4 216.2 218 218.7 219.8 222.1 224.4 226.8 229.1 231.4 233.3 234.7 237 238.8 240.1 241.5 243.1 245.6
239.9 237.6 240.4 244.3 235.7 230.3 230.4 228.9 224.1 222.8 220.1 219 217.1 214.8 213.8 211.8 210.6 210.3 208.4 210.4 213 225.8 234.4 248.8 264.8 272.1 274.9 271.8 267.1 264 261.4 262.5 265.9 268.8 267.9 265.9 263.4 258.7 254.7 250.6 246.3 242 237.3 232.4 249.4 261.1 270.7 276.4 281.6 287.8 293 299.4 305 311.2 317.3 323 328.9 337 345.1 346.2 342.6 341.2 342.2 344.5 347.4 350.7 351.8 349.5 345.6 339.2 331.8 323.6 316.5 309.6 303.8 301.5 298.2 295.9 295.6 295.1 291.3 288.6 285.2 279.3 267.8 253.9 236.1 219.4 202.3 193.6 186.4 179.3 177.8 177.2 177.3 175.8 174.8 174 172.6 172 156.6 148.7 144 141.2 139.1 139.2 139.4 142.6 143.9 144.6 150.1 156 165 167.8 167.9 165.8 164.3 162.9 161 159.1 149.5 148.4 148 146.8 145.8 146 146.1 146.3 142 144.2 140.8 138.8 139.2 139.3 138.2 136.8 137.3 136.3 136.3 136.3 136.3 136.3 136.3 136.3 136.3 140.8 140.9 141.4 141.1 137.9 138.9 139 138.7 139.6 139.4 138.9 144.5 156.3 166 173.1 189.7 189.6 189.5 189.3 190 189.9 189.8 189.7 189.6 187.7 189 194.5 199.1 201.4 203.3 204.6 206.8 208.9 210.3 212.2 213.1 214.1 214.9 216.5 218.4 219.2 220.3 222.5 224.9 227.2 229.5 231.9 233.8 235.6 237.6 239 240.3 241.7 243.9 246.3
254.6 250.7 247.1 248.2 251.1 256.2 256 240.5 228.1 226.9 231 232.4 234.3 237.7 231.8 227.2 212.6 210.5 206.3 205.6 203.3 202.2 208.1 229.7 249.1 257.7 258.5 259 254 250.5 247.4 246.4 254.7 258.2 259.2 257.5 254.7 250.1 245.1 241.6 237.4 235.4 225.1 238.7 250.5 259.4 270.1 276.1 282.3 287.1 294.9 302.2 307 313.7 319.5 323.9 329.5 336.6 336.3 334.2 332.4 331.3 330.9 331.4 335 340.9 344.8 343.6 339.2 332.9 327.3 320.7 313.4 305.3 298.3 294.8 291.3 287.9 286.7 284.1 282.5 279.9 273.3 265.5 251.8 236 219.5 205.8 193.1 187.4 181.5 178.4 178 178.3 177.8 175.3 174.2 172.3 171.3 157.8 146.8 143 140.7 139.4 139.6 142.6 145.2 145.6 149.8 154.4 161.3 168.4 168.1 167.6 167.5 166.9 166.9 167.4 167.1 166.7 159.4 151 148.7 147 147.3 146.5 146.7 148.2 147.4 145.2 144.8 144.9 144.7 138.8 138 137.6 141.4 137.3 137.8 137.4 136.8 137.2 138.6 143.5 145.4 143.6 143.2 145.3 144.3 139.9 136.5 138.7 138.8 139.4 139.4 138.4 138.5 153.4 164.8 167.9 187.1 189.4 189.3 189 189.9 189.8 189.7 189.8 189.9 189.7 188.6 194.3 198.1 200.8 203.4 205.6 207.7 209.6 211.5 212.9 213.7 214.5 215.5 217.1 218.8 220 221 223.2 225.3 227.6 229.9 232.2 234 235.5 237.6 239.5 240.5 242.2 244.6 247
260.1 254.8 250.7 250.2 253 255.8 258.8 263.1 263.7 253.5 258.5 267.1 265.5 258.3 256.8 244 227.5 231 225.6 206.3 203.3 201.7 200.2 210 233.4 242.3 240.8 238.9 237.7 236 234.5 233.7 244.3 248.3 249.2 249 245.7 239.7 236 233.5 231.7 229.6 223.3 238.1 251.4 260.8 271.1 278.6 286.2 292.9 299.1 305.9 312.4 317 322.4 326.3 330.2 330.7 329.3 326.9 323.8 322.5 322 321.5 324.9 330.7 337.3 337.4 333.2 329.2 324.2 320.9 310.8 302.3 294.8 289 285 281.4 278.5 275.6 274.1 269.2 260.6 248.7 237.2 222.2 208.3 196.8 186.2 183 179.7 178.1 176.2 178 177.6 175.4 173.7 169.8 154.8 144.3 143.3 140.5 139.8 140.2 144 146.4 148.5 153.9 158.3 166.4 168.3 167.8 167.5 167.2 166.9 166.7 166.9 167.3 166.1 166.8 162.5 162.8 154 149.3 146.8 146.9 148.9 149.2 148.4 145.4 144.5 144.2 142.9 141 142 142.2 143.5 145.3 144.8 145 143.3 143.6 149.4 155.7 154.6 147.7 145.9 146.5 146.7 144 136.6 140.3 140 139.8 139.6 138.6 138.9 147.6 160.9 166.3 179.1 189.7 188.9 189.1 189.9 190 190.1 190.2 190.3 190.8 190.2 192.9 196.3 199.7 203 206.4 208.5 210 212.5 213.3 214.1 214.8 216.3 217.6 219.2 220.8 221.8 223.9 226 228.2 230.1 232.3 234.2 235.7 237.8 240 241 243 245.2 247.8
267.1 260.9 258.5 255.9 255.3 256.3 259.5 264.2 265.1 265.8 265.2 266.5 261.7 258.8 255.2 247 242.4 240.6 237 230.9 223.6 218.9 201.2 198.3 211 219.9 220.4 220.8 221.6 221.7 222.2 226 235.8 241.1 242.3 240.1 235 231.1 227.3 224.1 224.1 221.6 220.5 240.1 257.8 267.9 275 282.9 288.5 296.2 304.1 310.9 317.4 322.6 325.9 327.8 327.4 326.1 322.7 319.8 316.5 314 312.7 314.2 315.8 320.2 326.5 330 328.2 325.6 320.2 314.2 306.1 299.3 292.1 283.3 276.3 273 268.9 265.7 260.9 254.9 245.2 235.5 223.7 210.8 200.7 189.2 182.5 179.9 177.7 176.9 177 174.9 175.3 174.2 172.6 153 142.8 142 141.3 141.3 142.1 146.6 150.2 153.6 155.6 160.2 168.2 168.1 168.2 167.7 167.1 166.6 166.7 166.8 166.7 167 167.4 166.8 166.6 166.9 167.3 166.7 159.8 160.4 156.6 153.1 151 149 147.1 144.4 144 144.6 146.1 145.9 145.8 146 144.8 146.2 150.3 158.5 163.3 164.1 162 156.6 149.1 146.8 147.2 147.8 136.6 140.2 140.3 140.2 140.1 139.1 139 139.4 155.7 163.4 172.7 188.8 188.6 189.7 190.3 190.5 190.6 190.7 190.9 191.6 191.3 193.8 196.6 199.4 203.3 206.8 209.3 210.5 212.8 213.4 214.4 215.1 217.1 218.1 219.6 221.2 222.5 224.6 226.9 229.2 231.3 232.4 234.4 235.7 238.3 240 242.1 244.1 245.9 248.6
271.7 267.7 266.4 264.4 265.9 265.5 267.6 268.1 267 267.7 267.5 268.1 266.2 262.6 264.1 253.1 249.6 243.7 240.9 235.5 229.7 226.7 213.1 197.2 196.6 194.5 192.8 195.1 196 205.7 210.1 218.5 224.7 230.6 230.1 228.2 224.9 221.6 217.4 215.8 214 208.7 222.3 245.6 262.1 270.2 278.2 284.8 293.1 301 309.1 315.5 320.8 324.2 325.8 326 325.3 321.9 316.2 312.8 309.2 306.8 304.6 306 308.2 314.1 321.4 325.3 326.2 321.1 315.5 308.5 302.9 296.2 287.5 278.2 269.5 263.7 259.4 255.2 249 241.6 232.6 223.6 210.6 203.6 190.7 183.7 181 179.4 178.8 178.5 178.3 177 174.8 170.3 155.2 143 141.5 140.7 141.1 144.2 147.8 152.4 155.6 157.3 165.2 167.6 167.7 167.8 168.1 167.6 167.2 167.4 167.3 167.4 167.1 167.1 167.4 166.7 166.1 166 166.2 166.3 166.6 166.4 157.6 155.2 158.6 158.7 153.8 151.1 148.6 148 147.7 146.8 147 145.9 151.2 156.5 162.9 169.8 170.6 169.6 165.8 160.7 156.5 151.3 150.5 149.9 136.6 140.7 140.4 140.5 140.9 140.8 140.7 140.2 144.9 156.3 165.7 175.3 186.9 190.8 190.7 190.3 191.1 191.1 191.5 192.3 192.1 194.8 196.9 200.1 204.9 206.9 209.8 211.6 212.8 213.7 215.4 217 218.8 218.7 220.1 221.6 223.2 225.6 227.9 229.8 232.1 233.8 234.9 236.9 239.2 241.1 243.2 245 247.2 249.1
279.3 274 272.4 271.8 278.1 285.5 284.5 283.6 281.4 280.2 274.4 269.2 266.7 265.5 269.4 263.5 252 245.3 240 234.4 230.3 226.2 227.2 221.2 202.3 194.8 192.2 191.2 190.2 190 189.4 206.5 211.8 217 218.6 218.5 214.5 211.5 205.5 202.7 202.9 217.5 236.2 252.8 264.2 272 279.5 287.4 295.8 305.1 311.6 318 322.5 324 325 323 319.9 314.9 310.8 306.7 303 300.4 298.4 299.3 302.3 308.7 316.9 320.9 321.4 318 312.6 306.3 299.3 290.8 282.7 275.3 265.2 257.9 251.2 244.8 236.4 230 223 212.5 204 198.2 186.5 181.5 180.2 179.3 179 178.5 179.1 178.3 178.2 155.7 144.7 140.9 140.7 140.9 146.5 149.5 154.3 158.4 166.1 167.8 167.5 167.3 167.2 167.6 168 167.7 168 168.3 168.1 168 167.7 167.3 167.3 166.9 166.8 166.4 165.8 165 164.4 161.7 158.3 159.4 159.9 158.4 157.6 154.1 153.5 154.1 152.1 151.6 157.5 159.4 164.4 173.7 176.7 175.8 174.8 173.1 170.3 164.6 161.6 159.6 155.6 154.2 136.9 140.1 140.3 140.6 141.4 141.3 140.8 140.9 141.7 144.7 156.8 169 178 191.1 191 190.8 191 191.6 192.1 192.8 191.5 194.5 196.2 200.6 205.1 208.3 209.7 212.1 212.8 214 215.8 217.4 218.3 219.3 220.9 222.2 224.1 226.1 228.1 230 232.4 234.2 237 238.8 240.1 241.8 243.4 245.4 248.1 249.9
286.7 287.9 288.6 287.2 286.2 287.2 286.6 289.7 287.4 284.6 281.6 274.1 269.2 265.5 275.8 279.8 259.7 250.7 242.9 236.5 234.3 229.5 227.5 220.3 220.6 213.5 198 193.1 191.7 188.9 185.9 185.1 192.2 201.4 206.2 206.3 202.3 198.7 193 207.1 215.3 227.7 241.9 255.3 265.9 273 280.6 288.7 300.5 307.6 313 317.2 320.1 322 321.4 318.6 315.3 310.3 306.2 300.4 297.1 294.5 292.3 292.7 296.3 303.9 312.3 316.4 316.4 312.5 307.1 301.9 295.5 288.9 281.5 273.8 264.5 253.4 245.3 237.5 229.2 221.4 212.9 203.1 197.1 189.8 181.7 180.5 179.6 179 177.9 177.9 179.3 180.2 164.8 145 141.2 140.7 140.9 146.3 151.8 156.1 160.1 165.9 168.5 169 169.5 172.1 172.6 170.8 170.3 169.4 169.1 170 169.3 169.1 170.6 170.1 169.1 168.6 168.1 167.4 167.2 167 165.9 165.7 157.5 165.8 163.2 159.5 159 159.1 158.8 159.5 158.9 162.2 169.6 167.4 175.8 188.6 186.2 183.6 182.1 177.7 171.7 165.9 165 163.4 158.5 156.7 147.8 137.2 140.8 141.1 141.4 141.1 140.9 141.9 142.6 142.4 143.7 158.5 172.5 180.8 191.3 191.3 190.6 192 192.4 192.2 191.4 193.2 197.2 201.6 206.9 210.5 211.5 212.5 212.8 214.2 216.2 217.6 219 220.4 221.5 223.2 225.1 227.1 229.1 231.1 233.5 236.7 238.1 239.4 240.6 242.5 244.2 246.4 249 251
302.6 301 301 295.7 293.5 293.8 291.6 292.3 291.1 289.9 289.6 282.9 278.1 273.9 271.7 283.6 266.1 254.7 246.2 240.3 235.8 231.3 225.4 216.4 214.8 216.6 215.6 208.4 205.4 203.8 190 186 183.7 186.1 185.4 188.7 192.8 189.1 203 216.3 220.1 231.2 243.9 255.3 264.4 272.7 280.4 290.5 300.5 306.2 310.6 314.2 316.6 318.3 317.3 314.5 310.1 304.6 299.6 294.2 291.1 288.6 286.6 287.5 291.1 300.4 307.9 313.2 313.1 307.6 302.1 296.9 292 287 278.6 269.4 259.9 249.6 239.3 233.6 225.5 215.2 205.7 198.7 191.6 184 183.3 179.4 177.1 176.6 176.2 176.5 177.3 165 143.7 140.7 140.8 143.7 149.6 153.4 157.6 162.6 167.1 169 169.8 171.1 175 175.7 174.7 173.9 174.8 174 174.3 174.7 175.9 178.3 177.8 175.3 173.7 173.3 173.7 171.5 170.8 169.9 168.6 164.1 161.8 167.5 170.3 166.7 164.8 163.7 164.3 167.7 166.3 183.4 183.7 174.8 179.2 188.4 189.1 188 189.1 187.2 178.7 169 166.4 165.6 162.4 158 157.9 146.3 137.7 141.9 141.5 141.3 141.5 142.8 142.6 142.9 143.3 149.3 166 177.3 185.5 190.9 191.7 191.9 192.8 191.6 191.8 191.9 195.3 201.2 206.6 210.2 211.8 212.7 213.7 215.4 217.1 218.7 219.9 221.4 222.9 224.4 226.2 228.2 230.2 232.2 234.6 236.4 238 239.4 240.7 243.2 246.1 248.4 250.6 252
311.9 310.6 309 305.8 300.7 297.2 296.7 297.8 300.3 300.6 297.2 292.1 287.5 283.8 279.4 273.6 265.1 256 249.3 244.4 240.7 234.9 229.3 226.4 225.3 226 224.1 219 212.4 205.8 202.7 201.2 199.9 193.3 179.7 182 181.7 184.5 198.2 209.6 221 230.7 241.3 251.1 259.4 269.3 279.7 288.1 296 301.2 306 309.9 312.1 313.1 311.8 308.7 304.4 298.6 294.3 289.1 285.9 283.1 280.8 281.8 287.3 297.1 304.2 308.7 309 304 298 294.8 290.5 282.9 272.6 263.2 252.7 244 235.5 228.1 220.3 211 201.2 190.9 188.9 183.5 182.6 180.7 176.6 175.4 176.4 175.8 158.7 142.1 140.6 140.7 142.5 148.8 153.4 158.3 161.5 167.4 169.6 171.2 172 176.1 177.1 177 176.5 177.4 180.1 180 180.8 182.4 183.9 183.8 183.6 181.8 178.3 178.5 180.3 179.8 176.6 176.6 173.4 169.1 163.6 165.4 179.1 174 170.4 171 170.8 175.4 177 175.4 187.8 185.8 181.9 185.6 188.4 189.5 189.5 189.2 182.5 173.9 169.5 168.2 163.9 158.7 159.5 160.3 148.7 137.9 141.8 142.1 141.9 143.5 143.5 143.5 143.6 144.5 160.3 176.5 183.1 188 191.3 191.3 191.1 190.7 192.5 191.6 195.6 201.6 205.6 208.3 210.9 211.3 212.9 214.7 217.6 220.2 221.8 223 224.5 226 227.6 229.5 231.5 233.7 234.7 236.2 237.8 239.4 241.7 245.1 248.7 252.5 254.2 253.8
323.1 321.4 318.3 313.6 308.5 306.1 305 303.4 304.8 303.2 299.2 296.5 293.4 288.6 282.5 277.1 268.2 260.9 253.9 250.3 244.9 238.5 234.9 233.2 228.6 228.3 224.1 219.5 213.1 206.9 203.4 201 200.6 193.6 177.6 179.5 179.8 179.8 185.2 200.8 217.5 227.1 237.4 245.7 254.8 266.7 275.1 282.2 289.4 295.3 300.5 305.4 307 307.3 306.1 302.6 298.6 294.1 289.3 284 279.6 277.3 276.2 276.4 283.3 293.6 299.4 301.6 296.6 293.2 289.1 288.8 284.5 274.9 265.1 256.6 248.3 239.8 230.9 221.5 211.3 203.6 197.5 190.6 184.7 181.2 177.5 175.9 174.7 173.9 175.7 159.7 141.3 141.1 140.8 143.3 149 152.9 158.4 163.1 168.6 170 172.5 173.8 175.9 176.3 177.9 177.9 180.5 183.9 185.5 186 187.3 192.5 193.9 194.1 192.1 189.5 186.3 186.6 188 185.2 185.5 184.9 181.5 173.8 168.8 166.9 185.9 186.2 182 175.9 178.8 184.7 187.5 182.5 187.3 189.3 187.7 185.9 188.4 189.1 189.2 189.7 186.4 175.6 172.6 170.6 164.9 160.4 159.8 158.7 154.4 148.3 139.3 143.2 143 143.8 143.6 143.6 143.5 144.1 154 169.1 179 181.5 186.2 190.6 191.6 192.6 193.5 196.1 196.2 199.9 203.3 205.4 208.2 210 213.1 216 218.9 221.5 223.6 224.6 226.1 227.7 229.3 230.9 233.8 234.6 235.3 236.7 238.3 240.2 243.5 246.1 249.7 254.5 257.7 254.8
330.9 329.6 326.4 320.8 317.4 314.2 312.4 311 310.1 305.6 303.5 304.1 300.4 296.5 289.1 284.4 276 268.5 261 253.8 248.8 243.8 241.3 238 233.5 230.9 225.6 221.6 216.9 215.7 212.5 208.1 205 203.7 198.2 177 174.8 175.1 175.6 188.3 210 222.9 229.6 240 250.8 260.1 267.5 274.4 281.4 287 293.6 298.2 301.3 301.6 300.1 298.1 293.9 288.3 282.6 277.3 273.1 272.1 271 272.4 280.3 291.4 297.6 297.7 298.7 298.8 293.4 283 274.5 266.2 259 252.4 244.4 235.4 227 214.9 207.8 199.9 194.4 187.3 181.5 177.3 174 172.3 169.8 161.6 156 141.3 141.5 142.3 144.1 150.3 153.5 158.6 164.1 168.9 173.3 174.1 175.4 178.1 179.6 180.4 179.9 182.3 186.3 189.9 190.9 192.3 195.4 198.8 200.3 199.1 197.5 197.5 197.3 197.9 197.2 193 186.7 186.1 184.7 175.6 172.1 179.3 186.9 186.9 186.4 187 187.7 187.9 188.7 187.6 188.9 189.8 190.5 189.9 191.3 190.5 190.2 189.6 188.5 179.2 173.9 172.3 165.9 160.5 160 158.5 156.8 153 140 141.4 140.7 143.7 143.4 143.6 143.8 144.9 148.5 161.6 178.3 181.7 183 188.4 191.8 193.1 194.8 195.5 196.7 199.2 202.3 204.8 207.9 210.1 214.4 217.3 220.2 222.7 224.5 226.1 227.8 229.5 231.1 232.7 234.4 235.4 236.1 237.2 239 241.3 243.8 247 251 255.9 257.5 256
344 341.7 337 332.7 328.5 328.3 323.5 318.9 312.7 311.5 313.4 312.1 310.4 307.5 300.2 292.6 285.2 279.5 272.1 263.2 259.2 252.8 249 243.9 240.7 238 232 230.9 228.1 225.7 222.6 220.5 214.2 208.2 204.1 197.9 179.1 173.5 172.5 174 202.7 215.9 226.6 237.2 245.3 252.7 259.4 265.9 272.2 279.4 286 291.2 294.9 296.5 295 293.2 288.4 282 276.1 271 267.8 266.3 263.4 269 278.1 291.1 300.5 304.1 304.2 298.7 290.1 281.3 271.1 262.6 255.5 247 238.7 231 221.2 213.7 203.6 197.7 193.9 186.3 178.7 174.5 171.3 171.6 168.2 152.9 142.2 142.1 143 143.6 150.5 153.6 158.8 164.7 171.2 175.2 177.4 177.2 180.1 181.8 190 185.5 182.8 187 193.3 196.6 198.2 201 202.5 203.9 206 206.1 207.1 206.5 205.5 206.1 204.2 198.7 189.2 186.7 184.9 178 176.3 186 187.1 187 187.6 190.4 192.8 190.9 189.7 189.3 189.9 191.1 191.8 193.8 193.7 191.7 190 189.9 189.9 185.9 175.5 172.9 169.4 162.2 160.7 159.4 157.7 150.8 141.8 140.4 140.7 141.2 140.8 143.2 142.6 144 146.3 156.2 170.7 178.5 182.2 184.6 189.2 192.4 193.9 194.5 196.7 199.4 202 204.4 207.8 210.5 215.1 218.4 221.4 223.8 225.5 227.2 229 230.7 232.4 233.7 234.8 235.7 236.7 238.3 240.4 242.7 245.1 248.3 251.5 254.5 254.1 252.8
360.4 355.3 351.6 345.4 337.3 344.3 331 320.7 317.3 317.4 319.8 322 321 315.4 307.9 300.6 294.4 288 283 275.4 269.2 263 257.6 253 250.2 247.2 244.2 240.4 238.2 236 230.2 224.9 217.9 209.1 203.3 197.2 194.3 181.2 174.2 170.4 188.6 205.4 221.7 230.1 237 242.7 248.5 256.5 264.2 273.5 280.2 285.8 289.6 293 291.1 288.2 282.6 276 269.7 265.2 261 259.6 255.8 266 278.2 290.6 300.6 302.3 299.1 292.7 285.3 277.6 266.2 257.2 249.8 241.7 233.8 226.5 215 208.9 202.5 194.8 191.1 185.1 177.7 172.4 165.7 168.7 158.3 142.2 142.5 143.1 144.3 150.7 153.2 159.5 165.6 171 173.7 178.2 178.6 181.8 184.3 187.5 190.3 187.8 188.4 193.7 199.5 204.5 207.6 208 209.2 210.1 211.9 213 214.2 212.6 211.2 210.2 207 201 189.8 185 184.8 179.9 178.2 186.3 186.7 187 190 195 197.1 195.9 192.9 191.2 191.8 194.4 196.3 196.2 196.7 195.8 192.1 190.2 189.1 185.9 179.7 174.8 170.8 166.3 161.4 160.1 157.7 156.8 143.3 142.6 143.5 140.7 141 142 142.1 142.7 145.9 151.3 164.7 173.4 177.4 180.4 185.2 189.1 192.7 193.9 197 198.3 202 204.3 208 211.9 216.1 219.1 222.1 224.9 227 228.6 230.1 231.8 233 234.3 235.5 236.4 237.6 239.8 242.9 244.4 246.4 248.8 250.9 252.5 252.2 250.3
367.9 363.2 356.8 351.3 339.8 339.2 332.3 324.3 324.9 325.8 326.8 329 326.5 321.8 316.4 308.9 300.6 293.9 287.9 283 276.4 270.6 267.7 266.6 263.6 260.6 257.5 257.7 253.5 246.8 237.4 227.7 221 214.6 208.7 197 194.3 184.1 174.2 169.9 174.1 192.6 212.2 221.3 225.7 231.3 238.9 249.2 259.6 268.4 275.8 282.7 287.3 289.7 287.9 283.1 275.8 269.8 263.4 258.7 255.2 252.5 252.6 263.5 277.6 289.8 297.2 298.6 294 288.5 280.7 272.1 261.7 252 245.2 237.3 228.9 219 212.5 204.1 200.2 191.9 187.4 181.6 176.2 169.6 168.3 153.6 142.5 142.4 144 144.5 151.1 155.8 160.5 165.4 171.6 172.7 177.7 178.9 183.4 187.2 189.4 190.7 192.7 193.8 195.6 200.9 206.6 210.9 214.3 216.2 217.1 217.9 218 217.9 216.7 215.2 214.1 212 206.9 199.2 192.2 187.6 184.1 179.9 178.2 186.1 186.8 188.4 192.7 198.6 201.2 200.9 196.9 195.6 197.8 198.5 199.4 199.8 199.6 199.4 196.2 191.7 190.3 189.6 189 177.6 173 168.7 164.7 161.4 158.3 157.7 157.8 157.5 146 144.4 144.5 144.9 144.6 143.1 142.7 149.3 155.1 161.7 173.7 181.8 185 191.6 192.8 193.6 195.5 197.8 201.8 205.1 208.7 213 216.8 219.7 222.6 225.4 228.1 229.8 231.3 232.6 233.8 234.8 236.1 237.3 239.1 241.2 245 246.2 246.8 248.1 250 249.9 249.1 246.6
371.6 364.9 357.5 351.4 345.2 335.5 332 329.4 329.8 330.4 330.8 330.2 327.8 322.7 315.1 308.5 301.5 294.9 290.7 285.9 282.1 280.2 278.9 276 274.8 273.3 272 268.9 262.7 255.3 250.7 237.7 223.2 214.6 210.4 203.1 193.1 186.1 173.8 168 167.3 184.4 199.8 209.1 214.2 221.9 234.8 247.5 256.6 266.6 274.4 280.8 285.3 286.3 283.2 277 270.2 262.9 256.6 252.7 248.1 243.3 250.9 263.3 277 287.3 292.8 295.1 290.5 284.2 276.8 267.9 257.8 248.7 241.4 232.6 224.2 215.9 209.7 201.2 196.6 190.2 183.2 177.8 171.4 165.8 162.7 152.7 142.2 143.7 145 149.8 156.2 160.6 166 169.7 172.4 174.3 176.9 183.7 188 192.3 194.7 194 197 198.6 202.5 206.8 212.6 218 221.2 222.5 224.4 224.5 222 220.1 218.9 216.2 215.3 214.2 207.3 200.4 195.5 193.3 188.5 183.1 178.6 185.2 186.2 189.7 195.6 202.2 204.5 202.5 200.5 200.7 203.4 203 202.7 202.9 203.4 202.9 199.2 194.2 191.7 190.7 189.9 188.2 178 172.2 168.7 165.1 165.9 158.3 158.6 158.5 156.2 145.1 145 145.4 145.6 145.6 145.4 142.8 143.4 156.5 170.7 182.6 185.6 190.5 192.8 193.5 195 197.5 201.5 205.9 209.7 214 216 220.2 223.1 225.9 228.7 230.5 232 235.4 235.5 236.4 237 238.8 240.5 242.7 245.2 246.6 246.9 247.1 247.4 247.9 245.5 243.3
373.9 365.7 357.3 349.5 343.5 334.3 330.7 330.2 330.8 331.7 330.3 326.8 322.5 315.8 309 303.9 298.5 294.2 288 283.4 281.7 281.6 279.6 278.5 277.5 277.3 276.9 273.7 267.8 262.2 253.5 242.9 228.1 215.6 209 202.3 194.4 184.6 177.4 166.4 165.7 172.4 183.8 193.3 201 216.3 231.8 245 255.6 265.8 274.6 280.7 283.7 282.5 277.1 269.2 261.7 255.1 249.5 242.9 238.4 237.3 251 265.1 276.5 283.6 288.5 291.5 286.9 279.4 271.4 262 253.4 246.3 237.2 229 221.1 212.8 207.6 198.4 192 188.9 180.5 173.6 166.1 162.3 151.6 143.2 142.2 144.1 148.8 156.7 159.6 164.9 167.3 173 174.5 176.1 181.1 186.5 191 198.2 196.9 197.5 201.8 204 208.1 212.8 218.1 221.8 224.4 225.5 226.9 227.4 225.1 222.9 221 218.6 218.5 219.2 210.3 204.4 201.2 198.5 189.5 185.1 182.5 184.7 188.3 192.6 199.7 205.4 206.5 205.6 205.1 207.1 208.5 208.3 208 207.8 207.4 205.5 202 197.7 193.2 191.7 191 190.3 183.5 179.4 174.8 171.7 169.9 164.8 158.5 158.2 158.1 158 156 153.2 154.4 153.9 150.8 147.1 144.8 145.1 165 181 185.9 188.1 192.8 193.9 195.8 197.5 201 206.2 210.8 214.6 214.8 219.1 223.7 226.5 229.3 231.3 233.7 236.8 237.2 237.4 238.8 240.4 241.9 242.9 243.9 245.4 246.4 246.3 245.3 244.1 241.7 239.6
371.4 364.4 354.4 343.2 337.1 334.6 331.4 330.6 330.2 327.7 324.5 320.4 314.9 308.4 302.1 296.6 292.9 288.7 282.2 277.6 275.8 275.6 275.1 273.3 273 274.6 275.7 273.7 270.4 264.3 255.1 245.4 235 221.7 211.6 203.6 196.9 187.7 179.7 165.1 165.1 165.5 170.8 183.2 197.1 213.8 229.5 242.2 253 264.4 272.4 278.7 278.6 272.8 266.7 259.1 252.1 246.1 238.6 230.1 226.2 238.9 254.6 266.6 274.8 281.2 284.5 286.3 280.9 273.9 266.1 257.3 249.1 241.7 230.9 224.7 217.4 211.7 205.1 193.5 188.1 182.2 174.7 168.8 160.2 152.7 146.4 142.4 142.2 144.5 152.6 158 162.1 165 170.8 173.4 175.1 177.6 183.1 189.9 193.3 196.1 200.4 200.7 203.6 205.8 211.4 217.3 222.5 225.1 226.4 227.3 228.2 227.2 229.2 227 222.1 218.4 214.3 211.9 209.7 205.5 201.9 200.3 194.5 187.8 185.3 187.2 191.1 196.3 204.9 208.3 208.5 209.7 209.8 212.6 213.5 212.8 212 211.2 210.5 207.9 204.4 199.8 195.4 192.7 191.9 190.8 189.9 189.2 183.7 179.1 175.4 171.1 166.7 159.7 159.1 160.1 160.7 160.8 161.1 160.3 158.9 158.2 157.4 142.9 156.6 178 185.4 187.7 191.5 195 198.5 203.3 206.8 209.7 212.1 217.2 215 219.2 224.6 227.5 229.8 232.4 234.8 237.8 239.2 239 239.7 241.2 242.1 242.9 243.4 244.1 245.5 244.1 243 240.5 238.2 236.1
370.6 359.5 347.4 339.5 335.9 341.9 329.5 327.1 325.2 322.2 318.4 313.9 308.2 302.9 296.6 291.5 285.9 281.2 275.9 270.9 267.6 267.4 266.4 265.6 266 268 271.4 271.5 269.6 265.3 257.5 247.1 235.5 226.7 215.7 208.5 202.3 192.8 183.5 172 163.8 163.7 166.7 177.5 193.5 209 226.1 239.3 252.3 262.6 267.2 268.8 265.9 259.8 251.8 246.8 241.8 235 223.9 218.9 226.1 241.9 256.9 266.1 273.2 278.6 281.2 278.6 273.1 266.7 260.4 252.4 243.2 236 225.8 221.5 214.9 209.5 199.7 190.9 182.5 175.5 168.6 161.9 150.6 148.2 145.1 143 142.2 147.4 154.6 158.9 163.4 166.4 171 173.2 175.8 181.7 187.5 193 195.8 198.4 202 203 205 208.9 214.4 220 223.7 226 228.4 229 229.1 227.7 227.1 221.1 217.8 213.9 211.4 211.1 210.3 206.2 202.6 201.5 196.4 193.6 188.8 190.8 194.8 201.9 208.4 211.9 213.9 213.8 216.7 218.5 218.8 217.3 216.6 215.5 213.3 209.7 206.3 203.7 198.9 195.2 193 191.5 191.5 191 189.9 187.2 184.5 181.5 172.4 159.7 159.2 159.5 160.1 160.8 161.4 162.4 161.5 159.5 159.3 150 143.3 170.2 175 187.3 192.5 195.2 201.9 206.4 209.1 211.8 213.8 216 216 221.2 226.7 229.7 232.4 236 238.1 239.8 240.8 240.5 240.5 241.3 242.1 242.8 242.9 242.6 243.5 242 240.3 237.5 234.6 231.6
368 356.2 344.4 338.5 340 339.5 329.5 323.1 318.3 316 311.6 307.2 300.2 294.8 290.3 284.8 278.4 273.6 270.3 266 261.1 258.5 257.5 258.2 259.8 261.2 264.8 268.8 267.5 263.8 256.1 248.7 239.9 230.7 219.9 212.9 202 193.4 185.9 178.5 163.5 162 161.6 175.2 192.2 207.7 222.8 237.4 249.9 253.6 254.6 252.5 246.5 241.3 234.8 232 228 221.1 213.4 215.6 228.9 243.7 256.2 265.8 270.3 272.6 274.4 270 265.1 259.1 252.7 245.2 237.7 229.8 223.1 218.9 211.4 202.3 192 183.5 172.4 167.8 161.8 153 148.1 146.7 144.8 142.7 142.2 149.2 155.9 158.8 161.3 166.8 171 173.6 180 185.3 193.1 196.6 199.3 199.7 202.4 203.8 207.3 211.3 215.9 220.6 224.3 225.7 227.3 228.1 227.9 226.9 223.6 220.8 218 213.9 210.3 209.5 208.9 204.3 201.8 201.8 201.2 199.4 196.8 192.7 199.5 206.4 212 215.6 217.8 219.1 221.7 224 223.7 222.5 220.3 217.9 215.5 211.8 210.1 207 203 199.2 198 195.3 194.5 193.1 192.2 191.3 189.4 187.3 177 159.1 159 159.4 159.9 160.5 161.4 162.2 161 158.7 156.7 158.1 142.3 152.1 177.3 187.2 193.7 197.6 203 206.9 209.4 212 214.1 216.3 220 224.1 228.6 232.3 235.2 238.6 239.5 240.9 242.3 241.3 239.9 240.1 242 241.7 241.2 240.3 238.6 237.9 236.1 233.5 230.1 227.2
364.5 353.4 342.2 335.7 340.8 338.7 326.2 317 313.1 307.4 305.2 300.7 296.7 290.2 284 279.8 270.7 265.7 261 259.3 255.7 255.5 252.2 252.4 253.4 256 260.3 264.3 264.1 261.3 255.5 247.9 240.2 230.8 223.2 211.8 201.9 193 183.9 177.8 168.9 161.2 160.1 168.4 186.2 202.6 215.2 224.6 229.1 229.6 229.9 228.4 225 222.2 217.8 216.4 212.5 209 199.4 217.2 229.4 242.3 254.1 262.2 265.7 267.4 264.2 261.2 257.1 251.1 245.1 237.9 231.8 222.9 219.6 213 204.5 194.7 184.6 174.8 165.8 160.9 156.2 148.5 147.2 146 144.7 144.3 142.2 149.7 159.3 158.9 161.5 165.8 172.4 176 182.4 189.9 196.3 197.9 199.4 200.9 202.2 205.5 209.7 213.4 216.6 221.3 225.1 226.1 227.5 229.1 229.2 227.7 224.4 220.6 218.2 213.1 210.4 209.8 207.3 203.8 202 203.2 204.2 204.1 201.8 196.4 203.5 211.1 215.8 219.5 221.5 223.4 226.1 227.5 227.7 226.2 223.8 221.9 217.6 215.7 213.8 211.3 208.3 205.1 203.5 201.8 200.8 199.3 196.1 193.5 191.5 188.4 177.8 164.3 160.2 160.4 160.9 161 161.5 159.5 148 149 148.5 150.7 143 152 173.9 186.7 193.9 197.6 203.1 207.9 210.8 212.2 214.8 217 221.7 226.2 231.7 234.6 237.4 239.7 240.7 240.9 240.7 240.2 240.2 240.2 238.5 239.3 238.6 237 235.4 234 231.1 228.8 226.1 220.8
361.1 348.1 337.5 334.1 341.3 340.7 330.3 317.4 309.4 303.5 297.7 293.1 290.6 284.1 278.2 273.6 272.6 271.5 269.9 267.9 262.8 254.3 247.2 249.1 249.4 250.3 254.4 257.1 258.9 257.7 252.2 243.4 235.9 227.7 222 213.9 202.8 194.1 184.4 177 174.9 160.4 157.9 158.9 174 191.2 200.6 204.5 206.3 204.3 203.4 201.6 201.5 202.4 203 201.7 201.2 200 197.1 216.3 227.7 237 246.5 253.1 257.7 258.5 254.7 253 249 243 237 231.2 225.5 219 213.5 206.5 197 188.1 173.2 168.8 159.1 152 147.2 147.5 147.2 144.9 146.3 145.3 142.2 146.6 159.9 159 163 168.9 173.8 179.7 186.7 194.3 198.4 200.1 200.1 202.6 204 206.9 210.8 213.9 217.2 222.1 225.8 227.1 229.1 230.5 230.1 228.6 225.3 221.5 217.9 213.8 210.7 209.6 208.9 206.5 203.2 204.1 204.1 204 201.4 199.3 209.7 215.8 219.2 223 225.1 227.8 230 231.2 231.1 229.9 227.2 223.9 221.3 220.7 219.2 217.9 215.2 212.1 209.5 208.8 207.8 205 202 198.8 195.8 190.4 180.6 166.5 162.3 161.8 161.3 161.8 159.8 150.2 149 149.3 148.6 146.5 146.8 158.7 178.5 187.3 194.4 197.8 203.4 208.5 212 216.7 217.8 218.5 222.5 227.5 231 234.9 237.1 238.8 239.5 239 238.7 241.4 241.5 240.9 239.9 237.3 235.9 234.2 232.4 229.7 225.7 222.7 219.9 216.2
356.5 343.7 334.8 332.7 334 334.1 326.2 315.6 306.6 300.1 295.1 290.8 288.9 284.5 283.2 282.1 280.7 279.8 276.2 271.6 265.2 257.8 251.6 244.6 244.8 244.6 246.9 248.3 249.9 248.3 243.8 238.6 230.5 224.2 218.3 210.4 203.3 192.4 184.3 177.1 173.4 163.1 158.5 158.3 159.1 172.3 176.8 181.8 180.5 176.3 175.9 174.9 174.3 179.4 181.7 186.3 191.3 184.5 198.1 212.4 221.4 227.9 234.6 241.2 245.2 245.8 243.8 243 240.6 234.1 228.1 222.7 217.4 213.2 205.8 196.8 185.6 173.6 162.5 159 149.9 147.6 147.4 146.8 145.4 145.6 145.9 145.4 143.3 147.1 159.9 159.1 164.9 171.3 177.2 185.7 191.8 198.9 200.9 203.9 203.4 204.7 205.5 208.1 211.7 214.1 217.2 222.5 226.7 228.7 230.6 231.4 230.4 228.1 228.1 224.5 219.9 214.4 211.7 212.9 213 209.4 204.5 204.4 205.2 204.1 202.5 205.3 213.3 219.4 223.8 226 228.9 231.2 233.2 234.8 234.2 233.1 230.6 227.6 227 226.6 224.5 223.1 222.3 218.8 216.2 215.5 212.9 209.8 206.7 204.1 199.1 192.5 184.6 168.7 163.5 163.9 164.8 165.5 151.8 150.8 148.3 149.2 148.7 146.4 151.4 161.7 173.2 185.9 191.6 197.9 203.3 208.9 213.2 216.2 218.5 219.6 225.6 229 231.8 233.8 236.2 237 238 237.7 237.5 239.7 239.6 238.8 237.6 235.1 232.6 230.6 227.3 223.4 219.8 216.2 213.9 215.4
353.3 340.9 330.5 325.6 325.7 324.6 318.7 311.5 303.6 297.4 290.8 288.6 284.9 287.6 287.6 285.3 282.9 282 278.5 273.5 267 259.3 251.7 246.1 242 236.6 238.7 239.4 239 238.1 234.6 230.3 224 218.2 211.5 202.4 196.6 187 181.1 176.1 171.3 157.9 156.3 156.8 156.6 155.5 159.8 161.1 162.2 162.6 165.1 167.6 168.5 168.9 172.7 177.1 181.6 185.1 193.3 204.1 209.9 215.6 220 227.2 229.5 228.2 225 226.5 226.8 224.5 219.7 214.5 209.1 204 195.3 185.2 172.5 159.7 152.5 148.1 148 148.5 148.3 146.3 146 145 145 145.3 142.8 146.5 160.1 160.6 168 174 181.8 189.7 196 199.9 204.5 203.8 205.4 206.4 209.6 213.2 214.7 215.6 219.6 222.7 227 229.4 231.2 229.8 228.5 228.2 228.7 225.5 221.7 216.6 214.3 216.2 216.1 211.3 206.5 208.5 210.9 207.6 209.4 214.9 218.4 224.6 228.6 229.4 232.5 234.7 236.3 237.4 236.9 236.2 234.6 233.3 233.7 233.3 232 229 228.1 226 222.8 221.5 219.5 215 212.3 207.9 201.7 194.7 186.8 172.9 164.9 164.3 165.5 150.6 151.5 151 148.9 148.9 149.3 144.4 160.5 162.4 168.7 186.1 193.2 198.5 202.6 207.7 210.5 216.2 219.9 223.6 226.8 229.1 230.6 232.7 234.6 235.1 235.9 236.7 236.7 238 237.9 236.4 234.7 232.2 229.3 225.2 220.7 216.9 214.9 211.1 213.3 214.6
350.4 338.9 327.7 321.4 319.1 318 313.9 308.3 300.6 298.7 295.9 292.2 291.8 291.1 291.2 289.2 286.3 283.4 278.7 271.3 263.9 257.8 250.7 245.1 240.9 237.1 228 231.3 229.9 227 224.2 220.6 215.5 209.2 202.2 197.2 190.4 182.2 174.8 171.4 170.3 155.8 154.8 155.6 155.4 153.7 152.8 151.9 151.7 151 153.8 157.2 161.3 167.4 169.5 175 170.8 179.9 181.7 192.4 198.6 203 206.5 208.2 211.5 208.2 208.9 211.6 213.4 212.3 209.3 203.9 198.1 193.2 182.8 171.2 159.8 151.6 148.2 148.4 148.4 148.1 146.6 147.1 146.5 145.5 144.7 143.8 142.2 154.7 160.2 162.2 171.1 178.7 187.2 194.8 198.9 201.2 204.1 205 206 207.8 209.7 213.9 214.8 216.5 219.5 223.5 225.4 228.7 229.9 229.1 228.6 228.5 227.1 225.2 222.6 219 218.9 220.5 217.6 213.8 212 214.7 216.4 213.8 217.7 220.6 222.4 226.8 230.1 233.2 235.9 238.4 241.6 242.2 241.5 241.3 241.5 241.2 241 240.4 239 238 235.9 233.3 231.5 229.4 226.3 219.7 215.9 210.2 202.9 195 186.6 171.7 166.5 165.3 162.9 152.4 151.7 151.4 149.5 150.6 150.2 145.1 157 163.7 172.1 187.1 191.7 198.8 204.6 207.4 210.3 213.9 219.3 223.6 226.4 229.8 231.9 233.4 234.6 234.2 234.9 236.6 237.9 236.7 236.3 234.3 231.7 228.6 224.7 219 214 207.7 208.2 209.9 211.8 214.3
345.9 333.9 324.7 319.5 316.5 314.1 309.7 305.9 304.6 300.2 298.3 297.1 297.4 296.9 296 292.8 289.1 284.9 276.7 270.5 263.6 257.3 250.9 244.5 239.8 235.4 231.2 218.6 221.7 217 215.2 211.3 204.5 200 196.6 193.2 185.4 177.6 169.1 169.2 168.4 158.6 155.6 153.5 153.1 153.4 152 151.6 151.9 151.5 150.7 150.2 150.8 156.5 163.2 167 167.4 170.5 176.7 180.3 185.1 189.1 190.9 191.5 193.8 194.6 197.9 200.6 201.4 199.6 196.2 193.8 187 178.5 171.6 162.8 150.1 149.2 149.4 147.1 148.9 147.7 146.8 146.6 146.7 144.3 144.6 142.2 143.4 160.3 161.9 168.1 176.6 183.6 191.3 196.3 200.9 203.4 203.9 204.4 204.8 206.2 209.2 209.8 212 215.6 217.5 220.7 224.8 226.9 228.2 228.9 228.9 230.1 228.2 225.5 222.4 221 223.8 224.5 222.9 218.2 217.4 218.8 219.3 220.4 223.1 226.2 227.3 229.3 233 236.6 239.6 243 244.1 247.6 249.4 250 250.3 250.3 249.6 248.5 247.4 246.5 245.6 243.9 240.8 236.8 232.4 223.9 218.5 211.6 204.4 197.3 186.6 173.9 169.3 169.2 167.3 151.3 151.3 151.2 150.4 150.2 148.9 146.6 158.2 164.4 175.9 188.5 192.9 198.2 205.2 212.7 216.3 217.4 220.5 222.9 226.9 229.9 232.5 234.3 237.3 236.6 235.4 234.1 234.4 234.6 233 230.4 227.6 222.3 216.2 211 204.5 205.2 206.9 210.9 212.3 215.5
338.8 331.2 325 319.8 318.3 314.5 311.2 308.3 305.8 304.8 302.5 302.1 302.8 301.3 298.9 293.9 290.1 284.3 279.3 273.2 266.2 258.6 251.9 246.3 240.7 236.1 231.6 227.2 222.1 210.7 200.3 199.2 198.2 194 189.6 186.1 180.6 172.1 167.5 167.9 167.4 158.4 152.9 152.4 152.7 151.3 151.1 151 151.4 150.6 150.5 149.7 149.7 149.7 150.2 158.9 162.7 164.9 157.6 166.7 173.5 175.5 174.7 178.1 179.2 180.3 183.9 186.4 186.7 185.5 184.8 182.7 176.2 169.1 161.9 149.2 147 146 146.2 144.5 144.2 143.6 143.5 143.4 143 142.2 142.2 142.2 150 161 167.8 174.1 180.2 185.3 190.5 195.4 198.1 201.3 203.6 204.2 204.8 206.5 207.9 208.8 209.7 212.8 216.1 219.1 221.3 223.7 226 230 232.2 229.9 228.1 224.7 222.5 225.5 227.4 228.8 227.4 224.3 222.6 222.5 226.3 227.8 225.6 231.1 231.7 234.3 238.4 241.9 246.6 249.3 252 255.2 260.7 262.7 262.4 261.9 261.4 259.9 259.6 257.4 255.3 253.8 249.9 245.5 237.1 228.3 220.4 213.2 206.1 197.5 188.4 174.7 172.3 172.4 172.3 152.9 151.6 151.6 151.5 150.8 148.9 145.8 157.6 165.3 179.3 188.6 194.1 195.3 206.4 213.9 222.2 224.5 226.8 228.5 228.4 230.3 233 235.3 237.8 236.6 235.7 235.4 233.1 231.1 228.6 225.8 221.1 215.2 209.6 202 205.6 205.2 209 210.8 213.5 217.6
338.3 331.4 326.4 326.4 323.3 317.2 313.3 311.4 310.5 309.5 308 308.1 307.9 305.2 301.1 296.8 292.5 288.3 283.1 277.1 270.4 262.9 254.3 248.4 242.8 237.3 232.5 227.9 223.4 217.8 212.3 205 199.3 184.4 178.4 177 174.3 169.8 168.7 165.7 162.6 152.9 152.4 152 150.5 150.2 150 150.3 150 149.9 149.6 149.4 149.1 149.2 150.4 149.2 152.2 150.4 150.4 149.9 153.4 158.5 159.2 162.7 166 168.4 169.2 170.9 169.6 169.2 168.5 167.1 162.2 155.8 148.6 146.6 146.4 145.1 144.3 145.4 143.2 143.7 144.7 144.9 144.4 143.7 144.1 152.4 160.6 156.7 171.6 176 183 186.1 189.1 192.6 196.4 200.1 202.7 204.5 205.1 206.6 205.7 206.2 208.6 212.2 216.2 218.9 220.5 224.1 226.6 232.4 234.2 231.4 228.4 228.1 227.4 230.5 234 235.6 234.7 232.9 229.6 227.9 232 233 231.5 234.2 235.3 238.7 242.8 247.3 252.7 257 260.4 265.4 271 273.9 275.9 273.8 272.9 271.3 270.3 270.1 268 266.2 260.7 253.8 243 232.6 222.7 215.6 207.1 198.5 187.7 177.5 173.6 173.2 172.8 163.9 153.2 152.1 152.1 148.4 148.3 148.8 155.6 168.4 178 186.5 190 200.1 209.6 217.6 222.6 226.1 227.7 229.8 229.9 230.5 232.5 234.2 236.2 235.2 236.2 234.1 229 226.2 223.7 218.8 213.8 208.8 205 202.3 205.7 207.7 209.8 211.9 214.8 218
