ncols 200
nrows 86
xllcorner 140000
yllcorner 743550
cellsize 50
217.3 206.1 207.4 200.1 199.6 198.5 195.2 193.7 191.9 191.7 190.7 193.3 200.4 209 214.5 223.2 229.5 234.3 251.9 259.8 264.7 265.7 262.5 254.4 251 251.5 245.7 234.9 226.3 218.2 198 200.4 205.9 199.7 197.3 203.4 194.1 186.8 189 190.9 194 206.3 219.2 234.8 243.5 252.5 255.6 258.3 264.3 269.7 271.9 271.5 282.2 285.9 284.6 281.1 276.9 276.4 278.4 278.3 272.8 258.1 244.6 222.3 201.8 183.5 161.5 155 157.3 145.2 138.8 138.4 149.3 163.1 170.9 170.1 163 161.3 169.1 145.7 135.7 118.2 99.2 82.3 75.9 53.3 39 39.2 45.8 45.7 42 39.5 37.2 35.1 38.7 41.5 46.8 43.9 43.4 47.3 55.2 60 52.7 50.7 50.7 48.5 47.7 43.5 42.6 39.1 42.7 43.9 44 43.2 42 40.3 38.6 39.6 39 39.8 39.6 40.8 41.5 43 46.5 47.2 53.8 65.9 71.8 84.8 97 113.2 132.1 151.5 163.1 172.2 175.1 187.8 206.7 208 224.5 233.6 242.7 237.8 225.7 212.8 201.2 192 190.5 188.8 189.3 193.7 198.7 181.1 181.4 176.1 173.5 174.8 171.9 168.7 171.9 170.5 161.4 164.9 159 153.8 144.7 141.8 131.8 117.5 113.6 112.6 105.8 99.9 98.2 97.4 95.3 88.3 85.4 77.8 77.6 81.9 82.2 81.4 79.6 76.8 74.5 74.5 74.5 74.5 74.5 74.5 74.5 74.5 74.5 74.5 74.5 74.5 74.5 74.5
211.5 206.2 200.1 196.5 194.1 192.1 190.4 191.2 190.6 189.7 190.2 193.1 197.7 205.6 214.1 223.6 226 234.8 244.4 255.1 261.6 259.4 262.4 260 252.5 245.9 247.1 233.5 227.5 208.9 198 205.8 202 200.8 199.4 189.7 186.6 184.6 185.1 187.4 197.8 206.4 220.1 240.3 251.1 255.4 258 261.1 267 274.6 280.4 278.5 280.1 287.6 286.1 282.2 280.2 278.3 280 276.8 267.5 257.5 245.9 226.4 205.9 187.3 168.3 159.3 151.1 143.3 154.4 149.4 146.6 162.5 172.3 178.3 171.7 165.4 169.5 161.4 141.4 130.4 111.5 95.4 80.6 68.9 51.8 38.9 43.5 49 47.2 45.3 42.4 39.3 44 43.2 48.3 47.6 48.7 52.5 56.8 66.5 63 62.3 58.4 57.3 53.8 52.5 50.9 47.9 43.3 44 43.6 44.1 42.9 41.2 40.1 40 41.1 41.4 39.5 40.9 40.5 41.2 44.6 47 49 55.5 61.4 70.5 83.8 96.1 115.7 134 150.4 161.6 172.4 178.8 189.6 197.3 206.9 222.9 232.9 234.1 224.4 214.7 198.9 188.1 188.5 185.7 189.8 185.1 195.8 195.4 181.1 175.2 170 168.1 168.3 169 168.2 167.7 162.4 162.3 162.9 156.6 151.5 144.9 140.5 129.3 115.4 115.4 115.5 107 99.8 99.2 98.8 95.6 92.5 88.5 78.2 79.6 83.2 82.5 81.1 79 74.5 74.5 74.5 74.5 74.5 74.5 74.5 74.5 74.5 74.5 74.5 74.5 74.5 74.5
207.2 199 198.1 195.7 190.3 190 187.3 188.6 187.1 188.6 189.6 193.2 199 207 213.6 224.5 224.8 230.5 238.3 251.2 253.8 254.5 259.9 259.7 254.7 243.9 240.4 230.5 223.9 198 204.2 202.3 202.2 202.9 203.4 193.5 182.8 181.5 179.6 184.3 195.5 206.8 219.9 239.9 257.9 264.6 262.6 265.7 273.2 282.5 286.6 284.3 286 287 286.1 283.7 282.4 284.5 279.5 274.7 264.2 259.6 244.6 224.9 210.1 187.6 175.1 165.6 159.2 144.8 160.9 163 162.4 164 173.5 183 177.6 176.3 172.8 172.1 152.5 137.6 121.6 102.5 96.5 79.8 64.1 48.4 44.7 47.3 50.4 50.1 47.3 42.9 42.3 45.1 44.5 47.4 53.3 67.1 63.2 63.3 68.5 73.4 74 67.6 65.6 59.6 56.4 55.1 51 51.8 47.8 45.6 43.8 42.8 41.4 40.2 41 41.1 41.4 42 41.3 39.8 43.6 46.4 49.1 50.6 54.4 58.3 69.3 78.8 96.6 118 132.8 145.2 157.8 171 176.9 184.6 195.9 206.3 221.1 227.6 222.5 213.7 201 188 188 179.1 181.4 188.4 182.5 194.9 191.9 177.6 170.6 166.9 165.7 166.5 167 167.2 163.3 162.5 164.2 165.1 155.7 146.2 143.2 134.2 125.1 116.1 116.5 113.2 105.4 101.9 100.8 98.8 97.4 93.2 87.6 82.1 83.9 86.5 82.3 80.4 77 74.5 74.5 74.5 74.5 74.5 74.5 74.5 74.5 74.5 74.5 74.5 74.5 74.5
203.5 191.7 196.1 192.9 189.3 188.7 185.2 189.3 191.3 189.3 190.1 192.2 198.6 208.1 216.3 220.8 223.6 227.9 234.4 239.9 248.6 251.1 252.7 257 253.6 246.5 232.9 226.3 219.2 198 201.8 202.3 203.9 207.3 204.5 196.4 182.8 177.8 176 184.5 195 204.8 219.2 239.6 258.9 271.4 274.3 271 278.1 287.1 291 289.4 291.6 292.9 289.2 286.9 287.6 291.5 282.2 275.6 266 254.8 239.8 227.5 208.1 190 183.8 171.8 164.5 150.8 155.8 169.7 172.8 175.4 180.8 184.9 185.4 186.5 182.8 171.5 170.7 148.3 130.4 117.9 101.1 89.9 78.7 59.5 50.7 45.7 51.8 52.7 50.5 47.1 44.3 48.7 48 50.2 58.9 71.7 72 70.6 69.9 73.8 81.6 77.3 73.6 69.3 63.7 63.3 60.2 56.4 52.4 48.9 44.7 42.9 41.3 40.4 40.5 41.7 42.3 42.7 42.5 40.5 41.7 45.8 46.2 47.8 51 56.7 57.7 67 83.6 102.5 112.4 123 137.5 150.9 165.3 170.2 180.3 189.8 202 213.8 213.8 210.9 202.6 196.4 183.3 179.1 176.7 177.2 177.3 185.3 191.9 187.2 174 166.9 163 163.9 166.7 166.8 164.6 162 164.8 165.3 161.2 148.3 143.1 138.9 131.1 123.1 116.6 117.6 113.5 108.6 108.1 106.2 102.2 102.4 94.7 90.1 87.1 87.7 84.7 83 81.9 74.5 74.5 74.5 74.5 74.5 74.5 74.5 74.5 74.5 74.5 74.5 74.5 74.5
196.1 195.1 194.6 191.4 187.9 184.9 186.4 191.8 192.6 189.6 191.1 193.2 203.4 217.4 218.9 216.5 220.6 221 230.9 237.6 240.5 249 248.6 249.1 248.3 242.4 234.6 220.2 211.5 199.1 208.3 204.6 202.5 202.8 203.9 194.8 185.4 180.2 175.7 180.4 194.1 202.9 218.7 233.3 255.9 268.2 277.5 279.6 285.8 287.9 289.7 289.7 291.4 292.2 288.6 285.1 288.3 292.3 285.6 275.9 270.3 256.9 234.3 227.7 202.9 192.4 185.6 178.8 164.9 158.3 156.5 165.2 174.2 180.4 185 190.1 195 192.2 187.8 179.4 174.8 168.4 143.1 126.2 110.8 97.6 82.8 68.5 56.9 52.7 48.6 50.4 53.3 50.1 46.7 48.5 51.4 55 62.8 69.3 76.4 81 76.4 75.2 77 79.9 77.8 76 72.6 71.1 68.4 66 59.2 54.3 48.5 43.1 42.4 41.8 40 41.8 42.5 43 43 41.5 40.2 44.4 45.5 45.8 47.5 49.9 54.8 57.8 65 81.8 94.3 103.2 118.6 129.1 139.8 149.7 162.6 173.3 188 200.9 204.2 203.1 201.3 199 193.7 181.9 181.7 175.6 175 176.5 183.8 185.6 181.7 168.9 162.6 161.9 163.5 163.5 162.5 161.3 159.3 162.3 164.1 157.3 144.3 140.7 134 129.4 121.1 121.3 123.7 118.5 117.8 117.6 112.8 106.9 103.3 97.3 91.6 90.4 88.8 86.1 86.7 84.1 77.9 74.5 74.5 74.5 74.5 74.5 74.5 74.5 74.5 74.5 74.5 74.5
191.4 191.1 192.9 188.3 180.9 188.2 187.9 193 191.1 190.4 193.4 198.9 210.1 223.6 221 215.2 218.4 216.2 228.8 237.1 239.4 241.3 245.2 243.6 239.9 236.5 228.3 214.8 206.1 208.1 209.3 207.1 202.3 197.4 192.9 187.1 184.8 182 171.6 176.8 187.4 202.8 215.5 228.6 241.5 246.9 273.4 281.9 290.6 292.5 288.6 290.3 289.8 287.9 288.3 282.7 282.5 288.8 288.3 280.4 264.7 255.3 234.6 214.4 197 195.6 188.1 179.7 166.2 161.9 165.3 169.9 170.9 177.5 186.9 190.3 197 197.1 196.3 194.3 181.7 174.3 157.3 133.6 116.6 102.1 88.1 81.8 68.4 56 52.5 49.8 47.5 54.2 51.1 48.8 53.2 59.7 66.8 77.6 84.7 89 90.1 89.2 87.8 84.8 81.1 79.8 77.9 77.5 82 71.2 67.6 64 54.4 48.4 43.2 42.3 41 42.2 42.7 42.9 43 42.9 41.8 41.2 45.1 45.8 44.8 47.7 51.9 50.5 56.6 61.9 71.9 84.6 104.7 114.3 119.6 126.5 137.9 152.8 174.1 187.6 192.4 194.1 199.5 199.7 198.2 196.7 181.1 178.9 175.7 175.7 177.6 181.4 183.3 178.5 169.7 159.6 160.5 162.5 162.7 161.7 157 159.8 162.1 158.9 149.1 142 136.4 133.7 129.8 126.9 126.3 125.9 123.1 123.7 121.8 115.4 109.6 103.4 98.6 94.5 91 88.9 88.5 89 82.9 77.1 74.5 74.5 74.5 74.5 74.5 74.5 74.5 74.5 74.5 74.5
183.3 185.1 182.3 178.7 185.1 189.7 191.8 192.8 198.1 204.1 201.2 206.5 214.3 221.7 219 214.8 213 213.5 225.6 234.7 240.3 240.5 240.1 241.3 237.1 233.4 225.1 212 203.5 208.4 205.9 203.8 200.4 188.1 180.6 174.5 173.5 167.9 173.4 177.1 187.8 202.3 217.3 223.4 229.1 245.8 259.7 276.7 287.5 291.5 288.9 287.9 286.5 283.7 281.9 280.7 280.3 284 285 279.5 268.4 248.2 230.6 210.3 199.9 194.7 188.7 179.3 177.8 172.2 167.4 165.3 168.4 174.2 189.1 195.7 198.2 202.2 204.9 205.4 194 179.5 164.6 142 128.1 108 94 87.9 75 63.2 58 54.7 50.5 50.1 54.7 52.6 53.4 64.9 74.5 82.8 94.1 101.9 100 102.6 100.1 98.6 94.5 87.5 82.9 79.5 79.9 78.5 73.4 69.2 62.7 53.9 47.2 41.8 40.4 41.8 43.2 43.6 43.9 43.7 43.5 42.5 41.7 43.9 45 46.4 47.9 48 49.1 50.1 56.3 67.5 79.3 91.9 103.1 107.6 117.9 135.4 150.6 168.7 174.7 184.6 198.2 202.2 201 200.8 192.1 180.7 175.3 174.4 172.7 178.8 182.8 182.2 179 164.6 159.3 161.2 163 163.5 158.4 154.1 158.3 157.3 154.4 144.9 137.6 133.8 132 129.6 132.6 136.1 132.3 128.6 132 131.2 123.2 112.1 109.4 98.2 94.8 92.2 92.1 89.4 84.8 83.4 74.5 74.5 74.5 74.5 74.5 74.5 74.5 74.5 74.5 74.5
181 178.9 175.3 180.3 186.9 190 190.6 198 205.6 212.1 207.7 212.7 215.3 217.9 218.9 214 212.2 213.3 220.6 230.4 236.5 238.9 236.4 236.6 234.9 231.5 218 200.7 204.1 206.2 197.4 196.2 192.9 182.9 175 167.4 163.7 166 174.8 185.4 194.1 205.8 222.8 220.9 229.1 240.6 252.2 265 278 285.5 286.3 288.1 285.1 282.8 281.5 280.4 279.3 280.3 284 278 269.2 246.2 229.6 211.6 204.8 193.7 192 179.1 178.5 180 172.5 169.8 168.6 171.5 185.1 195.4 200.4 203.8 208.4 207 196.5 185.7 177.2 154.1 134.3 113.5 103.7 91.7 86.5 70.8 61.9 57.3 54.4 53.7 53.8 57 56.4 64.3 78.6 86.1 103.6 111.2 116.9 116.5 117.6 118.3 110.5 98.2 90.2 88.5 80.6 80.9 77.1 74.6 69.2 60.3 52.4 42.8 41.2 41.7 42.8 43.7 44.1 44.1 43.9 43.6 42.3 40 45.9 44.2 44.9 46.5 45.2 47.2 49 53.7 65.8 74.9 81.9 85.3 92.8 107.4 131.9 151.5 162.8 178.7 195.8 200.6 202.2 201.7 198.7 180.5 177.3 172.7 171.4 171.6 186.1 180.9 176.6 171.6 160.7 159.8 160.9 161.7 160.4 152.9 154.8 156.3 152.6 143.9 137.5 134.8 131.8 132.5 134.8 143.3 152.8 150.3 136.9 137.2 134.3 118.4 116.3 109.7 97.6 95.7 94.8 94.1 84.9 82.9 78.3 74.5 74.5 74.5 74.5 74.5 74.5 74.5 74.5 74.5
176.2 170.4 176.6 179.5 181.6 184.9 194 202.1 209 218.3 214 209 215.3 217.8 217.9 214.9 212.1 220.3 220.8 223 228.7 230.9 230.5 228.1 227.6 224.2 207.8 197.1 195.7 195.3 192.9 191.1 184.6 177.9 170.1 163.9 162.7 163.2 172.5 186.6 202.9 207.8 221.2 218.3 229.2 236.5 246.9 254.8 270.8 277.9 284.7 284.3 286.1 283.2 282.1 282.8 282.4 278.1 280.1 277.2 256.7 240.8 226.6 214.3 206.4 197.6 189.4 179.8 179.4 182.2 183.6 174.2 176.1 173.8 189.6 196.7 201.4 205 208.9 209 203.3 195.3 178.6 166.8 140.1 125.6 113.4 99.9 90.8 81.7 66.8 60.5 57.5 54.7 55.5 59 60.1 65.2 79.1 87.5 108.7 116.7 123.7 127.5 130.6 133.3 128.2 116.9 99.8 95.8 91.9 84.5 79.3 78.1 75.3 66.5 57.8 49.1 41.4 41.6 42.9 43 43.8 44.2 44 43.8 42.5 42.1 40.7 42.1 43.1 43.1 44.3 44.4 45.1 46.3 52.1 59.2 62.9 70.4 75.8 88.9 107.8 131.6 155.8 174.2 187.8 199.3 201.7 201.9 201.8 195.9 177 176.4 172.4 170.5 173.8 179.4 173.2 169.2 167 159.9 160.6 160.5 160.2 158.6 149.5 154.2 152.5 145 138.5 136.7 135 134.2 139.1 147.2 157.3 160.3 149.8 142.2 138 134 121.9 118.8 105.3 101.1 99.2 97.7 92.2 83.5 80.7 75.9 74.5 74.5 74.5 74.5 74.5 74.5 74.5 74.5
166.4 172.4 172.7 175.5 178 182.1 195.1 208.2 216.8 215.2 215.2 204.9 210 213.6 216.9 219.5 213.4 217 225.8 220.8 220.7 228 226.2 226.6 220.6 212 196.3 188.8 188.2 188.7 187.1 182.7 178.2 173.1 162.9 162.2 161.7 162.1 169.8 184.1 206.5 210.5 209.8 214.7 226.8 233.6 243.5 248.8 258.3 273.8 282.2 282.2 284.6 285.2 285.7 286.5 283.1 280.6 274.5 267 250.1 236.6 221.6 212.1 206.5 201.6 189.2 183.9 184.7 189.3 190.5 185.5 191.3 186.9 184.3 201.4 205.6 208 210.6 210.5 209.1 198.5 184.8 169.8 146 134.8 119.4 113.9 94.9 89.2 70.8 63.3 58.9 58.2 58.4 58.7 63.7 66.4 81.6 90 110.9 121.4 124.2 131.7 146.2 152.1 145.2 131 116.3 107.8 103.9 97 90.1 83.8 78.4 72.3 64.7 54.3 45.5 42 41.9 42 43.1 44 44.1 44.1 42.9 41.5 41.9 42.7 41.9 42.7 42.5 43.5 44.1 43.1 44.7 50.4 53 56.8 59.7 72.2 91.2 116.1 142 161.6 177.7 193.8 202.2 202.4 206.7 201.7 189.4 180.5 183.8 173.7 169.7 168.5 171.5 170.2 166.4 162.2 158.9 157.9 158.2 159.3 155.2 148.3 151.8 146.4 141.7 136 134.2 134.7 146.5 153.5 150.5 157.2 153.5 146.1 142.8 139.6 130.4 122.8 113.7 104.8 102.5 101.5 95.5 88.2 82.5 78.5 74.5 74.5 74.5 74.5 74.5 74.5 74.5 74.5
170.9 166.6 169.4 170 178 180.4 194.9 207.1 218.1 213.1 207.6 199.3 200.6 209.4 218.9 219.7 218.7 213.9 221.9 219.3 219.5 222.2 225.6 223 217.5 207.5 189.6 184.7 183.1 184.7 182.9 181.7 176.5 168.7 162.8 161.7 161.1 161.9 172.3 180.1 197.8 205.4 200.4 216.1 227 239 242.2 247.2 255.6 266.5 280.2 282.7 282.5 286.6 293.3 293.7 284 279.7 277.5 261.2 247.7 238.7 213.9 206.8 202.9 198.8 190.1 186.3 187.2 189.8 193.3 191.3 191.9 200.6 191.6 202.6 221 216.7 219.4 211 204.3 199.6 187 174.7 152.7 141.2 126.5 117.4 100.7 93.1 78.8 65.9 58.7 62.4 62.4 64.8 67.3 69.1 83 93.9 102.7 123.9 126.4 131.6 138.5 157.8 156.1 146.6 134.1 123.7 117.2 111 102.4 89.7 85.8 78.3 71.9 64.8 50 43.1 41.6 41.5 42.3 43.2 44.1 44.3 43.1 41.7 42.7 43.1 42.6 41 41.4 42.8 42.9 42.9 43.6 45.7 48.8 49.7 56.8 65.9 81 105 125.4 149.8 166.4 185 200.9 202.9 205.5 203.8 195.6 186.9 179.8 183.8 172.4 168.6 166.9 168.1 167 164.3 161.2 158.2 155.4 154.3 157.2 152.7 148 145.2 142.8 137.3 134.4 133.6 138.3 147.3 147.6 151.7 153.3 151.6 151 149.1 143.2 132.1 123.7 110.4 106 104.1 98.8 92.6 86.1 78.8 74.5 74.5 74.5 74.5 74.5 74.5 74.5 74.5
169.6 164.8 165.5 169.8 169.4 178.9 190.7 202.3 215.6 213.4 205.3 196.2 195.9 203.4 215.8 219.6 215.1 209.8 209.1 217.3 216.8 223.2 228.5 222.8 213.3 197.6 183.9 185.1 184.1 181.2 173.5 173.4 167.3 162.5 161 161.3 160.8 162.1 172.7 178.3 190.5 193.4 212.5 215.3 230.1 245.2 247.7 249.9 254.9 258.6 268.7 279.8 283.9 298.1 298.4 295.6 286.3 278 273.3 258.9 246.9 230 213.4 207 200.4 194.8 190.1 187.7 190.1 191.4 194.5 195.1 196.5 207 208.6 199.8 215.5 224.6 222.5 211.9 205.4 199.1 187.9 176.3 172.8 149.9 134 121.5 105.4 95.9 91.3 71 62.1 66 66.4 71.1 77.5 77 79.2 96.8 102.1 116.9 129.3 131.7 136.5 151.8 158.3 151.9 144.1 137.8 126.3 122.9 112.8 102.2 89 84.7 79.1 71.5 59.9 48.8 42.5 42 42.2 42.1 43.5 44.2 43.5 42.9 43.2 43.5 43.6 42.7 41.4 42.1 42.7 43.2 43.4 44.6 44.9 46.3 55 61.6 74.6 87.8 111.9 132.4 156.5 174 190.2 202 205 201.1 199.4 194 182.9 178.2 181 168.5 165.1 165.6 167.7 165.3 161.8 159.9 154.8 152.4 153.6 155.8 146.6 145.8 143.5 139.6 135.7 131.3 132.6 138 146.4 153.3 155 156.9 156.2 155.2 153.4 144.1 132.5 121.2 107.8 106.6 101.1 96.2 94.8 84.2 75 74.5 74.5 74.5 74.5 74.5 74.5 74.5
166.8 164.5 165.3 165.4 170 176 181.2 198.4 203.5 212.1 201.9 193.1 192.9 196.7 206.5 208.5 211.7 209.9 207.9 207.7 215.7 226.5 228.2 224.1 207.7 188.5 182.8 188.4 183.7 180.5 177.2 166.5 163.7 161.5 160.5 160.7 160.6 162.3 170.1 178.5 177.9 199 210.4 222 228.5 241.5 248.9 256.3 259.6 265.4 272.7 281.6 293.4 303.5 307.6 298.8 295.3 279.5 265.5 262.9 249.4 228.8 212 204.8 200.9 195.1 191.6 191.4 193.1 199.5 200.8 198.9 200.6 206.1 210.8 216.5 206.4 222.3 224.8 215.5 206.1 199.5 189.5 178.5 185.7 160.5 143 125.3 113.4 98.7 93.7 86.3 72.6 66.4 73.7 75.4 80.3 93 84.8 96.3 101.9 113.4 130.7 132 139 153.9 158.9 154.4 151.6 151.2 140.3 135.7 127.3 114.6 102.1 91.8 83.6 78.3 69.5 55.3 44.3 42.6 42.4 42.3 43.2 44.1 43.7 43.7 43 43 44 43.5 43.7 40.7 42.4 43.8 43.4 43.3 43.8 44.2 50.6 56.7 63.9 75.3 87.7 114.1 140.4 160.1 175.4 195.2 205.5 203.9 197.8 196.2 191.6 176.7 182.1 173.3 168.3 163.5 165.1 165.8 164 160.8 159.4 153.5 151 152.5 154 145.9 149.2 142.4 133.8 130.1 130.5 134.9 145.8 155.4 158 159.7 163.3 161.8 161.6 154.1 142.1 130.8 115.9 110.1 103.8 100.3 96.1 88.7 82 74.5 74.5 74.5 74.5 74.5 74.5 74.5
153.2 158.5 160.2 161.8 167.5 173.7 184.7 194.7 197.7 200.5 198.1 191.6 192 193.8 203.1 207.6 203.6 206.9 207.3 207.5 210.1 218.4 222.5 216.8 200.2 182.9 184.3 187.4 182.4 182.4 173.8 169.6 163.8 161 160 159.9 160.9 161.9 167.5 170.8 192.3 202.9 211.7 227.5 231.2 239.9 250.1 257.1 265.2 269.5 281 287.4 296.9 307.7 305.1 303.7 295.3 277.7 267.1 254.7 248 225.6 212.6 205.7 200.5 197.5 194.4 192.4 200.4 200.9 203 204.3 204.3 209.8 214.5 225.6 217.7 210.2 223.7 225.4 207.1 202.4 191.2 184.7 187.9 173.5 150.4 133.3 122.1 100.2 99.3 94.7 89.5 71.6 77.5 81.3 83.8 92.3 100 88.8 101.7 112.3 127.5 131.6 144.8 164.2 168.9 157.6 161.6 158.8 152.5 146.9 140.3 129.9 114.6 104.5 92.2 83 77.6 62.9 47.5 43.8 43.2 43.1 42.9 43.8 44.2 43.6 43.1 43 43.5 44.3 45 46.3 40.9 43.6 42.8 43.4 43.6 43.6 46.3 53.1 58.7 66 74.4 89.7 116.2 142.8 159.9 173.3 198.4 202.1 201.9 197.2 193.3 187.6 175.8 181.8 172.1 166.5 162.3 164.7 166.4 164.2 158.9 156.7 154.3 151.6 148.6 140.4 144.9 144.7 135.9 129.7 126.8 132.1 138.6 149.9 159 161.3 164.4 166.4 166.3 160.2 151.3 139.8 129.6 114.5 111.4 105.3 102.1 96.4 88.1 81.7 74.5 74.5 74.5 74.5 74.5 74.5
161.2 156.6 158.1 158.7 165.1 171.8 187.2 199 196.4 193 190.6 186.6 192.7 193.5 199.5 208.4 196.1 207.3 212.3 219.9 212.9 211.8 214.1 208.6 191.9 182.2 178.8 183.2 183 182.6 173.6 167.2 162 160.3 158.9 159.8 161.1 162.9 165.4 185.7 201.9 211.6 222.2 234 239.9 241.4 250.1 259.5 265.5 271.8 282.9 296.9 299.2 312.2 309.7 308.9 288.7 273.4 266 258 240.2 232.8 219.4 209.6 202.4 197.6 194 194.1 198.2 203.2 206.4 215 211.4 214.9 221 235.2 233.3 225.3 218.6 225.4 209 203.9 191.5 190.6 189.9 179.6 154.9 138.6 125.1 116.5 104.1 100 97.6 82.5 76.4 85.8 90.9 93 103 102.4 106.9 116 122.8 131.2 145 165.1 171.6 162.1 165.4 163.9 161.1 157.1 154.1 145.8 130 116.4 103.8 93.3 81.4 67.2 54.5 44.8 44 44 43.9 43.6 44.6 44.1 44.2 44.1 43.9 44.4 45.1 46.3 45.1 45.5 43.8 42.6 43.5 43.6 43.9 47.7 52.2 55.5 65.1 78.6 94.2 125.8 145.8 156.1 178.4 192 200.4 197.7 193.4 188.8 179.2 170.5 174.5 169.8 163.8 161.2 166.4 165.5 158.8 157 157.4 155.9 150.8 144.9 137.1 140.8 143.9 130.4 123.3 128.9 134.2 141.8 150.1 158.7 165.4 167.4 170.8 166.3 159.8 149.5 137.5 124.8 117.1 108.6 104.6 98.9 97.4 88.8 79.3 74.5 74.5 74.5 74.5 74.5
168.5 159 154.2 156.7 160.9 174.8 192.6 200.8 198.7 193.5 185.9 184.8 193 195 193.2 207.1 194.7 208.7 215.7 223.5 219.5 210.1 207.2 201.5 187.5 176.7 180.2 182.9 178.6 175 170.5 164.5 162.6 160.6 159.5 159.6 161.1 162.4 177.9 194.1 209 220 228.8 238.4 246 247.9 251.4 257.8 265 271.2 282.4 295.2 299.6 309.4 312.5 301 282.1 278.7 267.2 256 250.9 242.6 227.8 216.8 206.2 200.4 195.6 195.4 198.5 203.7 212.9 226.2 226 223.3 228.6 237 240.9 236 231.6 222 212.1 208.1 191.5 190.3 189 181.1 157.5 143.5 133.3 126.8 123.9 106 101.6 97.8 89 83 92.1 99.1 106.3 113.1 113.9 116.5 122.7 133.9 150.8 164.5 169.2 163.3 163.8 169.6 169.9 171.3 168.6 161.3 148.5 129.6 113.8 101.7 88.7 72.9 61.1 47.4 45.2 45.4 45.7 46.9 48 45.7 46.8 46.2 46.3 45.4 44.5 45.4 49.6 50 45.8 43.5 43.3 42.8 43.9 44.3 48.6 50.5 54.7 67.4 76.1 101 129.4 143.7 155.3 171.5 185 196.4 191 188.1 184.2 175.1 167.5 173.3 166 161 164.8 163.6 161.5 156.9 157 158.1 157 152.2 129.2 132 140.4 133.1 123 124.1 131.3 136.1 142.2 151.2 161.1 165.4 167.7 171.2 165.7 156.6 146 134.9 127.9 117.8 105.4 104 100.5 93.2 82.8 79.2 77.9 74.5 74.5 74.5
168.6 164.5 143.8 152.9 158.1 172.3 182.9 199.5 196.1 183.5 182.2 182.2 191.1 194.2 191.7 193.6 193.6 206 223.9 224 221.2 213.7 204.9 194.2 185.5 172.1 182.6 179.9 177.2 172.9 169 163.1 161.2 161.4 158.6 159.9 167.8 172.2 179.8 196 213.5 224.9 233.7 244.3 252.5 259.2 258.4 260.9 265.4 270.5 278.6 296.4 293.1 298.9 295 282.6 268.9 265.4 264.8 257.5 258.3 253.7 238.2 224.8 209.5 201.1 197.2 196.9 203.2 203.9 216.4 227.4 228.8 232.2 235.2 237 246.5 248.6 238 233.3 215.9 208.9 192.7 191.4 188.1 182.3 154 145.9 145 139.2 130.3 126 107.3 104.6 100.5 85.3 89.3 102.2 111.4 116.1 118.9 115.6 120.7 134.5 143.9 155.3 164.7 162.4 161.6 166.3 179 184 185 176.9 167.4 145.7 125.3 110.1 98.7 82.3 66.3 53.4 47.1 47.8 52.7 55.1 54.7 53.4 50.5 48.8 50 50.2 48.9 45.7 48.5 50.1 47.8 45.8 44 43.6 43 43.9 43.8 45.7 49.2 56.7 68 80.2 98.5 125.5 139.3 153.8 170 184.1 187.8 187.5 187.1 176.9 168 167.7 169.6 162.7 161.6 161.3 158.9 153.9 151.5 156.5 155 153.8 139.4 129 130.2 126.4 122.1 115.3 124.5 127.2 131.9 138.8 151.5 156.1 162.6 170.1 171.3 163.7 153.8 142.6 138.6 127.7 116.3 106.2 106.1 101 91.3 81.8 75.8 74.5 74.5 74.5
168.5 163.8 151.5 138 155 168.4 179.9 193.9 192.9 175.7 176.4 181.1 190.9 191.1 191 184.1 190.2 212.3 215.5 215 217 210.1 200.2 187.3 173.8 177.3 183.5 180.2 175.1 169.8 162.2 160.3 160.6 158.7 158.5 166.2 175.8 179.8 183.6 199.4 216.3 229.6 238.8 252.2 256.6 266.3 265.5 263 264.2 265.4 269.8 273 272.7 279.4 270.3 263.3 257.6 255.7 254.5 260.2 261.6 254.8 245.7 233.1 217.9 204.3 197.9 197.8 199.6 204.5 217.2 231.2 231.6 238.8 244.7 245.8 249.5 251.6 245.4 235.7 225.5 206 192.5 189.6 187.9 186.8 166 153.9 154.2 147.2 145.3 132 122.7 111.2 108 100.9 87 98.1 112.2 118.1 122 126.7 120.2 125.6 140.2 150.5 166.8 161.8 161.4 163.8 177.2 193 194 190.2 179.1 165.3 143.9 120.5 106.5 90.8 73 61.5 51.3 50.2 53.8 61 63.8 63.7 60.5 59.2 59.2 57.2 56.8 50.1 48.4 51.6 53.1 49.8 46.5 44.6 44 43.7 43.5 44 45 47.8 57.4 70.1 78.1 95.7 119.8 130.6 151 170.4 176.9 183.4 180.1 177 168.1 159.7 168.8 165.8 157.2 155.3 153.8 151.3 147.7 148.6 147.3 149.3 142.9 129 117.7 120.5 117.7 113.2 112.7 120.9 122.5 126.4 133.3 144.7 150.9 161.4 169.7 169.2 161.6 150.7 143.5 135.8 130.3 115 108.2 110.5 99.6 85.7 78 74.5 74.5 74.5
156 152 145.1 132.4 149.8 164.5 177.5 185.1 177.3 171.8 174.2 181.1 189.4 187.4 187.2 183.6 182 202.5 206.4 203.8 210 206.4 200 179.6 161.9 175.8 175.6 170.6 166.3 161.7 160 157.8 159.1 164.5 166.1 170.6 173.2 183.4 193.3 205.4 219.8 233.3 248 258.5 261.2 265.4 269.3 270.8 271.4 263.8 262.9 260.7 259 258.6 254.6 253.7 252.6 248.1 253.4 265.4 266.1 258.5 248.6 240.4 236.4 219 205.8 201.3 201.4 206.8 221 231.4 233.3 241.7 253.2 255.2 253.3 255.6 249.9 241 231.6 214.5 192.7 192.2 189.9 189.4 174.1 170.1 161.9 156.3 150.2 147 134.3 128.1 114.9 108.5 100.4 89.1 108.5 116.2 122.3 129.2 126.1 123.6 137.3 147.9 163.9 161.3 159.3 164.5 176.5 196.6 199.8 198.7 193.4 180.7 163 139.3 116.1 97.8 85.1 69.8 58.9 54.6 62.1 69.8 74.4 75.5 72.7 68.5 69.3 70.3 66.9 60.6 56 52.5 56.2 54.7 51 49.9 51.3 45.6 44.8 43.2 44.1 45.3 49.6 57.5 69.2 78.1 95 109.3 129.9 148.1 159.5 166.9 169.6 167.2 168.1 162.1 154.6 159.3 157.3 148.7 149.6 146.7 142.6 145.7 142.1 144.3 143.8 132.7 116.9 114.5 111.2 109.9 108.8 112.5 113.6 112.9 123.2 129.5 137.3 149.6 160.3 166.2 163.1 158 150.4 140.4 136.9 128 113.5 108.6 105 93.8 81.2 74.5 74.5 74.5
148.4 142.2 138.8 142.9 150 160.7 171.4 178.1 173.2 170.4 173.1 178.1 186 186.6 185.5 185.2 177.1 186.8 194.2 199.9 209.6 199.8 185.7 168.1 161.2 169.4 169.7 165 160.6 155.3 151.5 158.2 167.7 168.4 168.3 172.9 179.2 187.7 200.3 209.9 224.1 240.7 253.2 261.8 267.7 268.2 270.4 271.3 270.1 261.6 257.1 253.6 253.6 248.9 243.5 246.7 241.4 240.1 254.3 261.2 262.9 258.3 250.6 243.9 242.8 229.8 219.9 213.4 208.8 216.8 233.1 234.6 237.1 244.2 260.4 262.9 260.5 258.2 256.1 251.9 237.1 219.1 199.8 197.4 195 188.1 188.1 182.7 173.3 168.4 160.8 151.5 148.7 138.3 135.1 117.9 109.6 96.5 107.4 118.6 124.4 127.6 129.2 128.9 131.7 148.2 155.3 155.8 154.4 167.9 180.8 199.8 203.3 208.6 202.7 194 183.3 158.7 128.6 110.7 94.1 79.3 67.5 63.6 70 79.4 84.5 85.1 87.8 84 79.3 77.6 77.7 72.9 67.7 64.3 58.6 62.4 57.1 52.3 52.2 48.7 46 43.5 43.2 43.9 47.4 51.1 64.3 70.7 74.8 89.1 104.1 122.6 132.8 145.2 148.1 149.1 154.7 158.8 150.5 148.8 150.6 150.9 138.7 144.5 140 134.1 138.1 138.2 139.1 132.2 119.6 111.1 106.8 105.6 105.7 106 106.7 107.4 110.2 117.6 130.6 139.1 147.8 156.1 159.3 161.1 156 146.4 138.9 137.2 123.9 109 105.1 101.1 86.5 80 74.5 74.5
144.4 134.8 131.8 144.7 151.3 177.5 170.8 173 170.1 167.1 170.6 179.4 185.8 186.5 181.8 175.9 167.2 173.9 187 194.6 192.9 185.6 171.7 154.5 165.1 166.5 167.3 159.6 151.2 149.8 156 161.5 168.6 168.4 168.7 172.8 183.3 197 206.2 217.7 226.9 241.3 251.4 261.9 266.7 265.8 268 268 265.8 258.9 251.7 245.9 243.9 239 239.1 235.3 228.7 233.1 244.2 259 257.1 256.8 245.1 244.5 242.4 238.6 231.3 231.1 226.1 232 237.4 239.7 239.4 250 262.7 268.3 266.8 260.4 258.2 254.7 241.9 225.6 205.8 197 198.1 191.6 189.1 188 184.2 179.4 170.5 160.6 153.7 150.1 140.8 135.3 116.3 105 107.1 115.6 122.1 130.1 130.8 131.9 134.9 146.3 152 152.2 155.1 174.3 185 201.5 205.3 213.4 212.5 207.1 195.7 177.3 140.5 119.6 104.3 89.1 76.5 72.9 80.7 92.4 106 108.1 109 102 98.2 93.5 91.6 86.9 86.1 76.1 66.9 62.9 66.9 59.2 55.1 51.3 47.1 45.2 44.1 43 43.9 47.3 51.1 62.3 70.1 72.9 87.8 99 110.9 120.9 127.8 134.6 136.3 147.4 147.4 137.3 141.9 145.3 136 134.8 131.1 127.2 128.5 130.9 132.7 129.4 119.2 111.3 105.4 103.7 103.5 102.5 102.5 104.1 108.4 112 120.2 130.6 136.8 146.3 152.2 159.1 161.1 149.8 141.2 139.8 133.4 115.1 104.4 99.3 89.1 82.2 77.8 76.6
133.6 130.9 135.6 145.5 154.3 176.8 175.2 167 165.4 166.5 175.1 188.7 185.4 185.6 181 172.4 165.1 167 175.4 187 185.5 179.3 151.1 156.8 163.1 162.5 157.6 155.5 151.4 149.8 158.5 165.6 168.1 169.2 170.1 176.2 185.5 199.9 212.7 229.1 233.6 240.4 249.9 258.8 262.7 261.3 262.8 264.9 263.1 255.3 251.8 242.4 236 231.7 229.7 225.3 222.8 222.7 230.4 242.8 247 244.2 239.1 245.6 242.3 241.6 241.7 235.8 236.6 246.2 240.2 250.5 250.4 256.2 265.6 272.5 268.8 266.8 258.7 257.3 244.3 231.4 212.3 198.3 197.7 197.3 196.3 189.3 185.3 187.8 180.6 174.4 163 154.3 151.9 141.6 124.7 114.7 104.9 113.6 117.4 126.1 130.6 133 140.2 145.3 150.8 150.9 154.8 174.5 185.9 194.2 206.6 212.9 216 222.2 205.8 187.6 153.5 129.9 111.7 97.6 87.7 83.7 89.7 108 128.5 137.9 131.5 125.3 120.7 109.4 108.6 108.7 100.4 94.3 83.5 72.1 66.7 66.9 60.6 55.2 50.3 47.8 44.6 44.1 43.5 44.8 45.9 50.2 65.6 66.4 69.4 81.2 86.2 96.7 108.9 116 120.5 123 138 132.7 125.3 130.9 127.4 127.7 123 119.7 118.2 120.8 123.3 121.4 115.5 112.6 105 102.5 101.9 101 100.1 102.5 106.3 109.6 111.9 117.1 129.1 136.5 146.7 150.7 154.5 154 147.8 141 135.8 124.2 107.2 101.3 93 82.5 79.2 78.4
118.5 129.6 135.1 145 158.4 178.7 177.6 166.5 164.9 167.6 175.5 181.7 183.5 183.5 180 171.3 164.2 159.7 167 168 164.8 157.6 144.7 156.2 159.4 153 150.5 148.9 148.8 150 156.4 167.2 167.3 168 169.5 179.2 196.4 202.1 217.6 231.1 242.7 243.7 245.8 251.4 260.3 257.8 257.7 258.6 254.3 251 251.3 244.5 230.5 223.6 223.7 213.5 211.1 212.7 219.8 227.4 225.5 224.6 223.5 229.2 234.2 243.6 249.4 247.3 250.6 254.5 256.4 251.9 254.6 260.8 265.6 278.1 274.8 268.3 264.7 254 247.6 233 216.4 200 198.6 198.1 200.8 191.8 188.8 189.7 186.9 182.6 168.6 159.7 155.4 149.8 140.6 121.9 115.1 106.6 116.9 121.1 129.1 135.3 143.2 150.1 146 151.3 157.4 166.1 178.7 189.8 202.1 212.5 214.8 220.4 216.7 198.1 167.9 142.9 121.9 109 100.1 97.9 104.7 127.1 152 158.5 150.7 147.4 142.6 135.9 124.6 124.8 120.5 111.7 99.6 86.2 76.8 67.9 64.5 59.3 54.3 50.1 47.1 43.4 44.2 44.2 44.9 45.7 47.2 54.9 61.6 65.6 67.2 75.7 83.4 94.1 101 103.4 109.1 114.6 120 115.1 114.8 112.4 114.8 113.9 111.9 113 114.7 116.8 113.8 107.5 101.5 101.1 100.8 99.9 99.3 100.1 104 108.4 110.6 112.1 117 122.8 135.9 142.6 144.6 149 147.8 142.2 134.2 127.7 114.3 103.7 96.1 87 82.9 80.8
122.7 130.5 137.8 146.7 156.5 167.2 167.1 171.4 163.6 161.8 165.3 171.5 181.2 180 174.6 166.2 162 154.5 161.6 160.9 154.7 140.9 153.4 153 151.8 149.3 152.2 146.8 144.5 149.8 153.1 159.6 166.9 167 168.5 182.5 196.7 202.7 208.5 229.2 236.5 239.2 241.6 245.3 245.9 245 245.4 244.4 241.2 251.6 250.1 241.2 224.7 215.7 215 208.3 207 205.2 205.6 208.6 212.9 216.2 215.2 217.6 226.3 238.3 252.4 257 255.3 255.1 263.3 262.6 266.7 263.6 269.8 278 277 270.3 263.3 254.4 244.4 234.7 216.1 204 199.4 199.7 201.3 194.3 194.6 191.2 190.3 191.2 177.8 167.8 159.7 153.3 147.4 135.5 123.1 116.8 115.6 123.2 125.4 132.6 142.4 149 152.6 149.1 154.6 164.9 185.1 196.9 200.5 211.5 215.5 218.2 218.3 212.4 185.3 159.8 141.5 125 119 116 127.8 142.4 164.5 175 177 165.9 166.4 160.2 147 137.4 139.5 131.8 119.9 102.7 88.5 79.2 71.6 63.7 60 54.6 49.5 45.9 44.4 44 44.6 45.8 45.7 45 46.5 54.1 58.8 61.7 63.7 71.6 77.8 82 87.2 97.1 106.3 107.5 101.3 98.5 106.2 104.5 103.1 105.2 105.9 107.2 109.3 108.1 101.7 99.8 99.6 99 99 99.1 100.5 104.3 107 109.3 112.9 117.4 128.1 135.6 137.6 140.3 146.2 142.5 134.3 129.7 119 106.3 99 90.6 84.9 81.5
125.3 128 140 149.2 151.6 158.5 164.1 175.8 170.9 155.3 159.7 164.2 171.2 175.3 170.9 157.8 157.8 145.6 147.6 149.1 139.5 148.6 152.6 150.1 149 147.5 146.2 140.4 139.5 147.2 148.8 152.5 159.3 165 172.8 180.2 191.7 199.9 207 222.5 230.5 234.3 240.8 244.2 241 239.7 232.6 232.4 234.6 240.2 236.9 235.6 222.8 207.8 207.8 208.5 206.6 204.4 202.3 201 202.7 203.4 202.6 208.2 219.4 234.5 250.6 262.6 266.4 265 272.8 269.5 280.5 283.7 277.9 279.1 278.3 271.2 262.1 253.2 241.1 230.5 220 205.9 200.4 200.3 199.6 202 203.3 198.7 194.5 192.9 182.5 172.1 165.9 159.4 151.5 149.4 134.2 125.8 111.5 125.7 128.5 130.2 135.1 146.2 155.4 153.2 153.7 171.6 186.7 196.9 200.9 207.2 216.3 224.4 225.6 219.9 206.9 179.6 162.1 144.6 139 140 157.1 163.6 191.9 199.5 190 185.4 182 177.3 169.8 156.3 153.5 155.5 140.3 123.1 104.7 93.2 82.1 71.8 64.3 61.1 51 46.3 43.9 44.1 44.4 46 45.2 45 45.7 44.9 48.4 52.5 57.1 62.1 65.7 69 74.3 87 92.2 93.5 94.9 90.8 94.2 97.5 96.2 96.2 101 104.3 104 102.2 99.3 98.6 98.2 98.1 98.1 98.5 99 101.3 104.8 107.2 109.4 113.1 122.2 124 127.8 131.8 137 138.9 135.7 128.3 119.7 110.7 100.6 91.4 86.3 85
122.1 129.4 140 148.4 148.6 153.6 163.6 161.3 155.5 147.8 149.6 156.5 158.3 161.8 157.7 152.1 150.4 137.5 128.7 136.4 141.1 145.2 149 147.3 146.8 147.3 143.9 138.6 138.8 139 146.3 148.1 157.1 167.5 181.3 181.5 185.3 198.5 203.1 208.8 222 230.6 233.4 233.3 233.6 226 225.5 226.7 228.1 228.2 227.1 219 210.3 208.7 202.4 204.3 203 201.7 201.2 199.8 198 199.1 197.4 203.1 220.2 225.6 245.2 268.7 277.5 274.1 272.7 286.4 296.4 299.3 298.4 290.2 280.3 272.2 262.8 251.4 241.1 230.1 217.6 211.1 201.6 201.8 203 205.1 206.4 206.5 206.1 196.1 188.8 177.8 170.4 167.6 158.3 154.3 145.9 133.3 124.7 128 130.8 132.6 133.7 137.9 153.9 159.2 156.4 161.8 179.1 195.4 205.4 209.7 212.9 224.4 231.1 228.9 227.8 203.1 194 174.1 165.3 164.8 170 181.3 200.9 213.3 209.5 201.8 201.7 195.1 190.6 183.8 164 162.6 160.2 143.3 123.1 111.3 97.5 84.5 71.3 62.6 54.6 48.7 46.9 44.8 44.4 45.9 45.7 45.2 45.2 44.9 45.1 45.1 48.3 52 56.2 56.1 60.8 65.6 76.6 85.7 85 82 82.2 89.3 91.8 92.2 93.3 94.9 96.8 99.1 99.4 97.9 97.2 97.3 97.5 97.9 97.5 100.8 102 104.1 106.9 109 114.1 116.5 117.8 124.2 129.3 133.1 131.9 130.4 120.1 112.1 102.1 94.5 88.1 86.5
121 124.2 134.5 141.8 151.3 160.5 161.5 152.8 147.4 141.6 141.1 146.4 150.4 148.9 147.1 142.7 139.8 122.4 132.5 133.6 132 143.1 146.1 145.5 146.1 144.4 142.8 138.4 138.8 137 144.5 149.9 155.1 166.8 184 185.8 187.9 189.2 197.2 202.5 211.3 221.3 225.4 227.1 222.5 224.6 223.9 221.4 215.4 217.7 215.7 208.8 205.2 202.9 199.7 197.6 197 200.6 200.1 199.4 199.8 194.7 195.2 198.5 213 224.5 235.4 264.5 284.3 288.5 283.1 290.2 303.3 310.2 307.3 301.1 290.7 275.2 262.7 253.6 243 232 217.9 210.7 203.4 202.5 202.6 207.7 210.1 210.6 209.4 205.9 193.8 184.4 175 170.4 165.9 159.8 151.6 140.9 131.1 127.4 132.4 134.2 136.4 137.3 145.9 153.9 163.7 160.2 180 190.3 205.4 213.7 215.6 219.4 227.8 234.5 235.3 233.1 223.9 222.5 207.9 205.8 198.4 205.8 206.6 222.5 223.3 218.2 213.6 207.5 214 200.5 190.4 172.7 168 160 140.4 127.8 111.2 97.3 81.3 75.8 58.1 50 49.4 47.9 46.7 46.2 45.4 45.7 44.7 45.5 46.2 46.3 46.5 47.4 50.5 50 50.3 53.5 62 70.8 78.5 76.2 70.9 77.6 86.2 91 91.5 93.1 95.8 97.9 98.5 99.8 97.1 96.8 96.9 97.6 98.1 99.3 101 102.8 104.6 106.3 108.6 116.7 115.2 114.9 123.3 126.8 124.4 125.8 124.3 112.5 106.7 101.1 90.5 88.4
114.8 121.5 129.2 137.9 148.1 157.6 156.7 149.7 144 138.7 137.2 135.2 141 143.5 141.9 133.1 125.1 123.3 133.2 131.4 127.6 137.3 141.5 140.2 143.9 139.1 140.1 137.9 136.5 137.5 133.7 146.5 151.4 160.3 172.8 180.6 187.2 191.5 194.2 196.7 208.6 213.6 216.9 213.8 213.9 217.9 218.3 212.3 202.6 207.6 206.1 200.1 198.6 195.9 196.3 191.8 188.7 199 199.6 198.3 198.6 193.9 191.5 194.2 205.6 221.4 230.2 256.1 287.5 291.6 287 293.9 299.8 309.4 310.5 305.7 298.5 282.1 267.3 253.4 243.8 235.3 222 212.9 204.5 205.2 207.5 209.5 213.5 213.9 211.6 210.2 199.2 191.3 180.2 173.1 169.1 163.5 158.8 149.6 136 127.8 134.2 135.7 139.6 141.4 142.4 147.9 157.1 165 176 191.6 206.5 215.5 218.1 217.7 225.7 229.2 237.9 246.8 251.8 252.4 248.4 244.1 237.5 226.7 221.3 226.7 232.8 233.8 228.6 225.2 225.2 219.3 213.1 197.8 181.8 173.7 159.9 146.6 126.2 111.3 93.4 78.8 69.3 54.7 52 51.6 48.3 47 44.9 45.7 44.6 44.6 45.3 47.3 47.1 47.7 49.7 49.6 50 51.7 55 56.6 63.4 70.2 65.9 68.4 79.3 85 91.9 92.1 94.5 96.6 97.7 97.5 96.5 96.4 96.4 96.5 97 98.7 101 103.3 105.1 106.4 105.8 109.3 114.1 113.3 115.4 120.1 121.4 119.8 123.9 116 110.1 101.6 94 89.5
116.6 123 129.5 135.9 143.3 147.4 149.9 147.6 142.4 136.9 133.1 131.8 129.3 136.5 131.7 124.4 118.4 126.8 129.8 125.7 127.6 135.8 141.1 140 143.1 139.8 138.8 138.3 138 137.9 134.2 138.5 144.1 152.6 160.6 173.4 176.9 186.1 187.1 189.8 197.1 203.9 204.5 198.9 207.1 207.5 204.5 197.8 192.5 193.2 194.6 188.1 191.3 192.9 188.4 191.5 187.7 182.2 197.8 198.1 197 193.8 189.4 194 202.2 219.5 227.8 250 274.4 294.3 295.1 296 297.9 302.6 309.1 307.4 300.9 287 274.9 257.4 245.8 236.6 224.4 213.6 210.2 213.5 214.6 207.2 218.1 220.7 218.1 211.3 204 196.2 185.4 178.8 173.3 168.1 162 155.9 145.1 135.6 136.6 138.7 141.3 144.5 146.2 148.4 155.2 162.4 171.8 192 200.7 210.5 215 215.1 221.1 227.4 235.2 251.7 257.8 263 262.2 260.1 254.5 247.5 239.8 233.5 238.2 241 239.4 237.4 235.1 232 224.7 213 206.1 183.7 174.8 160.2 144.1 123.9 105 92.3 75.5 61.2 54.7 54.7 51.4 48.5 46.7 46 46.7 46.2 46.8 48.1 47.1 47.5 48.5 49.8 49.7 51.1 51.3 53.8 56.5 58.3 61.5 67.7 70.1 76 86.3 92.6 92.4 95.1 97.7 97.7 96.2 95.7 95.7 95.7 96.3 97 100.2 102.6 103.7 104.9 105.1 105.5 107.7 110.6 113.2 114.3 114.8 114.4 122.5 121.1 109.5 101.9 95.5 90.8
115.4 122.6 129.1 138.1 137.3 140.9 143.8 143.1 139.2 132.3 128.1 127.1 125.2 127.5 122.5 117.4 118 130.5 127.6 121.1 128.7 138.2 139 135.5 143.4 141.8 138.8 137.4 135.9 133.9 132.4 136.8 141.8 145 152.5 157.8 163.1 178 182.2 185.5 190.2 192.5 190.7 194.1 196 198.1 197.7 190.2 180.6 181.3 178.8 178.5 178.6 178.8 179.6 186.1 187.7 180.7 176.1 194.4 193.4 191.7 187.1 190.8 196.2 213.9 224.8 238.1 262 290.1 294.6 295.6 296.4 302.5 308.1 309.4 302.3 287.2 275.1 261.9 249.2 237.3 229.2 221.4 216.4 217.4 219 218.3 219.1 223.2 222.4 217.2 209.1 200.2 191.9 184.3 178.4 175.8 173.8 162.1 154.6 144.5 141.3 140.5 144.3 147.2 148 151.3 152.6 168.2 172.8 184.5 194.5 207.4 210.8 208.9 220.8 229.3 235.1 244.4 260.7 268.7 272.5 270.3 266.8 260 254.1 245.7 244.7 247.5 245.8 245.6 246.2 242.5 236.4 228.7 217.9 201.8 187.7 176.1 160.9 138.6 114.5 95 80.9 70.6 59.4 55.9 53.7 52.3 48.2 46.9 46.5 47.3 47.6 47.6 48 48.1 48 48.9 48.7 51.9 51.8 53.5 53.8 57.8 62 66.8 73.1 74.3 78.2 85.4 90.8 93.3 96.9 98.5 96.5 95.6 96.1 96.3 96.5 97.5 99.6 100.7 101.8 102.8 103.4 103.6 103.9 103.3 107.1 110 112.7 110.6 109.1 113.4 109.9 102.9 95.2 91.6
112.9 119.6 125.2 135.8 133.2 134.1 134.6 134.1 131.2 126.4 126.6 121.6 121.9 118.8 115.3 110.6 131.3 129.6 128.9 120.5 118.6 134.8 135.5 131.7 135.6 132.7 139.3 137.2 135.3 131.5 133.7 134.7 141.2 143.8 145.4 152 154.6 167.2 179 185.5 185.1 185 186.7 188.3 185.3 190 190.8 182.1 172.4 169.6 172.9 171.7 169.6 168.8 169.9 180.4 180.7 179.7 172.3 172.8 168.8 175 176.7 180.8 190.7 204 219.4 231.4 254.2 270.2 291.4 297.7 294.2 298.6 308.2 312.3 307.1 291 278.3 266.9 256.7 245.9 240.2 229.3 220.6 219.9 222 224.1 215.3 223.2 222.9 221.5 215.5 206.5 203.4 192.9 184.1 179.8 177.6 172.9 161.3 148 148.4 136.6 146.4 148.1 151.7 155.2 156.4 164.8 178.4 179.9 187.3 196.9 207.6 205.7 211.4 221.6 234 237 255.8 267 270.8 274 274.1 270 262 260.3 253.1 252.3 253 251.1 255.4 251.7 248.2 242 231.4 219.4 204.8 185.2 167.5 152.1 127.5 108.3 91.9 78.7 71.6 61.9 58.4 56 51.7 47.8 46.9 47.1 46.3 46.4 47.8 48.7 48.4 49.2 49.2 51.7 52.3 54 54.8 58.8 59.5 70 72.9 74.1 76.3 81.7 92.2 92.8 94.2 96.5 94.9 97.1 97.9 98 97.5 97.2 98.9 99.7 100.6 101.8 102.9 102.5 102.9 99.5 101.4 103.7 104.2 106.7 104.7 104.5 103.6 98.7 95 91.3
114 117.8 121.7 125 127.3 132.4 127.1 126.1 122.1 120.5 116.5 117.6 116.9 110.7 101 127.4 126.5 127.7 130 121 112.3 119.1 131.7 127.1 133.3 131.7 130.4 129.9 134.2 124.5 133.1 137.4 137.9 148 142.5 144.4 151 153.6 162.6 169.5 167.2 169.2 186.8 185.4 180.7 181.1 181.4 174.3 166.8 160.2 167.5 165.6 165.1 165.3 165.9 173.2 180.1 178.9 177.1 167.2 161.2 156.7 162.3 180.2 186.1 197 214.1 228.2 240.7 259.2 278.3 285.3 286.6 295.1 306.3 308.4 307.4 296.9 287.5 275.5 265.7 257.7 245.6 240.6 231.5 225.3 226.3 227.7 219.4 226.4 224.5 223.5 222.2 215.4 209.6 201.7 194.2 186.3 180.3 175.1 167.6 156.3 153.6 148 146.3 149.2 153.3 156.9 159.1 163.4 169.4 181.9 188.7 195.9 199.3 201.8 204.5 218.5 231.4 240.7 244.1 263.4 269.8 274.8 276.4 274.5 269.4 266.8 262.5 258.9 258.7 257.3 258.3 261 255.7 256.7 247.7 234.5 219.2 201.4 180.9 162.5 143.9 122.8 104 93 85.1 70.8 64.7 59.4 55.4 52.1 48.7 46.9 47.3 47.2 47.8 48.7 48.9 49.5 50.6 50.4 51.2 53.4 53.5 55.4 57.7 64.1 75.1 75.2 76.9 78.1 85.6 93.6 92.9 96.8 95.9 98.2 99.5 98 98.1 97.8 97.9 99.3 100.9 101.7 102.4 102.8 102.3 98.8 96.8 99.2 100.1 103.2 99.9 100.4 98.1 94.1 92.1 89.5
111 114.5 115.9 117.7 121.2 122.3 122.1 117.6 114.6 116 114.6 114.7 103.6 96.7 118 131.6 128.3 125.8 123.8 119.6 111.5 108.5 117.5 130.6 132.7 132 130.4 128.5 125.6 123.8 126.2 133.1 139.1 138.4 138.6 139.8 143.3 145.3 147.7 149.8 156.2 165 172.3 170.1 169.8 169.9 170.4 164.6 162.2 165.3 166.6 165.1 164.1 164.3 164 163.3 165.4 168.1 170.9 164.4 162.5 154.6 152.1 159.4 180 193 206.3 226 231.2 246 266.1 273.3 287.1 287.3 299.9 308.2 304.6 300.7 300.1 292.9 283.1 269 259.9 246.8 245.2 233.2 230.7 230.7 230.1 227 227.3 227.9 226.8 222.4 221.2 215.6 206.5 195 187.7 181.2 175.2 164.6 157.2 155.7 148.1 148.9 151 154.1 157.1 161 168.6 173.8 179.6 193.6 196.3 197.4 213 216.4 232 234.7 241.3 256.8 268.2 274.8 277.1 277.4 277.1 270 267.5 268.9 266.3 263.4 263.2 266.1 265.1 264.8 262.2 247.8 233.5 218.8 197.5 176.1 162.4 141.3 122.6 107.8 98.1 85.7 78.1 72.8 59.8 54.7 52 48.8 48.8 48.5 47.8 49.3 49.5 49.8 51.2 53.2 54.3 54.7 55.3 56.2 57.3 59.5 65.4 70.7 73.7 76.6 79.4 86.4 94.9 95.2 96.6 99 98.5 98.9 98.9 98.2 98.5 99.8 100.5 101.2 102 102.8 101.9 99.2 95.6 95.8 97.1 97.9 96.8 96.4 94.8 89.3 86.9 84.7
106.2 109.3 111.6 112.9 115.8 117 113.4 109.3 108.3 107.6 110.9 104.9 88.3 106.7 123.9 130.1 129.5 126.8 123.4 122 108.4 104.7 108.3 123.9 132.1 131.9 130.8 128 126.5 123.7 124.5 131.6 132 135 135 136.4 140.7 140.4 140.7 143 148.5 150.2 153.6 154.3 160.8 157.2 166.7 158.8 152.5 156.8 169.4 164.8 163.1 163.3 163.4 161.8 156.4 157.4 157.5 154.5 149.6 152.1 148.3 151.6 171.6 191.9 198.7 215.6 228.4 233.9 255.9 267.9 275.4 283.3 296.1 305.2 301.9 300.8 302.7 301.3 294 281.3 268.4 257.8 253.5 247.6 242.5 236.2 233.8 225.4 238.4 237.7 232.2 236 237.8 228.3 222.7 204.2 195.1 186.2 181.3 173.7 164 159 154.7 148 155.1 157.9 160.1 161 165.9 169.2 175.7 186.5 188.1 194.4 212.1 216.2 220.6 233.6 235 247 265.2 272.2 277.7 280.1 281.3 277.3 273.9 277.1 278.3 273.5 272.3 270.4 269.8 268.5 266.3 258.5 246.2 231.8 218 203.6 188.4 177.2 150.6 129.2 119.6 107.1 94.3 85.2 76.3 60.5 54.5 51.3 49 49.3 50.4 49.4 50.4 51.7 52.2 53.2 56.5 56.9 55.5 57.8 59 59.6 64.1 69.1 76.2 83.4 79.2 80.8 90.4 95.7 96.9 97.9 99.5 100.8 100.2 100.1 99.9 100.1 100.1 100.4 101.4 102.2 101.4 99.9 96.3 94.5 94.1 95.3 94 92.7 94 89.9 85.8 83.1
99.5 102.7 107.7 107.5 109.2 109 105.1 101.1 98.1 94.6 95.8 84.7 99.4 115.9 121.3 125.9 125.4 128.9 123.7 118.4 108.8 101 101.1 115.4 127.9 130.4 131 129.2 128.3 125.7 123.6 123.8 121.9 128.3 130.1 135.3 135.5 135 136.7 141.4 142.3 141.8 143.5 139.9 143.8 144.5 153.9 153.2 146.3 150.4 171.7 165.9 161.6 162.2 161.7 161.4 158.4 153.1 149.4 151 150.4 146.8 147.7 146.8 159.7 188 196.1 206.3 226.9 229.7 241.1 264.8 277.5 275.8 288.8 303.7 300 302.4 304.4 303.8 302.7 289.3 279.6 270.3 271.2 269.4 258.6 250.6 238.9 229.7 238.7 240 237.5 238.4 239.3 238.5 225.3 210.5 200.6 194 183.6 177.1 169.4 164 159.6 152 150.1 155.6 160.1 163.4 166.5 167.1 171.2 177.1 179.7 198 207.5 219.1 220 221.5 233.3 237.7 256.3 268.6 275.2 279 279.8 281.2 279.3 280.4 280.2 278.8 274.6 276.6 271.5 269.5 265.3 261.5 250.8 240.3 226.8 213.4 202.4 190.2 179.7 157.4 142.9 135.7 122.1 104.8 90.2 76.4 64 58.4 53.2 50.8 50.5 49.9 50.9 53.5 55.2 56 58.4 58.8 59.2 59.3 60.7 62.2 63.4 68.2 76.4 83.4 84 81.5 85.7 95.2 97.7 99.2 101.1 102 101.9 101.3 100.5 100.1 100.4 100.4 101 101.4 100.6 98.9 98.2 94.9 93.7 93.3 91.3 91.9 92.5 89 85.8 82.5
94 97.6 99.3 101.9 105.1 100.3 97.5 92.5 88.9 83.2 70.5 94.4 111.2 115.5 121.3 119.5 120.5 123.2 119.5 117.2 107.4 97.3 99.2 108.6 118 131 131.9 130.9 129.6 128.2 125.6 121.1 120.4 119.6 128.6 130.9 134.9 131.3 129.9 141.6 141.7 140.9 138.1 134.4 133.9 137.4 140.9 145.2 147.5 148.7 158.8 169.3 161.7 158.8 161.1 159.4 157.6 150.3 146.8 143 143.1 145.6 143.2 144.1 147.7 173 192.6 197.5 220.8 229.9 240.2 265.6 283.1 280.6 282.7 296.2 298 294.9 306.4 306.4 306.1 303.7 288 277.8 278 277.5 276.1 264.3 251.8 239.5 236.7 248.8 247 240.5 239.2 236.6 226.1 213.2 206.3 194 188.2 182.3 174.5 167.1 162.1 156.5 158.5 159 160.9 163.9 165.2 167.3 171.4 172.8 178 193.7 209.2 222.4 232.5 230.5 226.6 236.9 254.9 267.6 271.3 275.5 277.9 281.5 283.4 286 280.6 278.3 275.2 272.6 270.7 264.9 260.4 257.2 254.4 243.3 233 222.1 208 200.5 188.8 179.2 166.9 149.7 143.6 133.2 110.1 101.3 87.7 70.7 58.8 56.8 53 51.5 52.7 59 63.6 63.8 63.2 64.9 65.6 67.5 72.3 68.1 68.3 66.8 70.4 78.1 85.9 86.7 81.3 92.1 95.8 98.2 102.3 101.7 102 102.3 101.3 99.9 100.6 100.8 101 100.2 99.6 96.7 96.6 95.4 93.2 91.2 88.3 87.9 90 87.4 84.4 81.1
89.5 90.7 92.1 97.6 104.1 95.6 91.2 83.4 75 65.5 79.5 96.2 104 111.1 115.2 119.1 115.2 116.1 117.9 116.8 108.9 93.5 97.7 105.9 112 121.9 130.9 131.2 130.5 128.6 126.7 124.3 120.3 117.5 120.2 128 128.8 132.1 124.3 136.3 140.7 137.7 134.2 132.9 130.2 131.3 134.4 136.9 147.9 150.9 147.2 160.4 166.2 155.8 154.1 157 150.4 146.2 148.9 142.2 141.6 141.6 142.3 144.8 149.7 154.8 182.4 197.1 217.3 228.4 235.8 259.5 278.1 285.5 285 284.2 286.8 297.6 306 307.3 308.9 308.1 306.4 291.1 288.4 289.9 283.1 275.4 261.7 245.9 242.9 250.6 256.1 248.6 242 238 228.6 217.4 209.7 197.8 189.1 182.5 175.4 170.4 163.4 157.9 160.2 162 163.3 162 165.2 167.7 172.8 176.4 182.4 193.3 205.2 220 232.2 231.1 232 240.9 261.6 268.4 274.7 278.9 280.2 281.3 284 287.7 283.1 278.8 274.1 270.8 270.3 266.1 257.2 251.5 250.3 245.4 236.1 225.5 211.9 205.2 199.3 185.7 176.5 165.9 155.2 145.7 132.6 122.3 109.1 92.8 75.4 62.3 61 52.8 55.2 60.4 66.8 68.7 67.8 66.9 70.7 73.6 80 81.7 77.6 76.2 75.9 75.4 80.1 89.6 89.6 81 94.3 98.3 100.4 103 102.4 101.9 101.3 100.5 100.1 100.5 100.2 99.9 98.9 96.4 96.1 95.8 92.2 89.8 87 85.1 89.3 87.3 83.2 80.7
83.6 86.2 92 94.2 95.9 86.9 80.3 72.8 63.8 73.6 85.4 89.4 97.9 104.6 108 108 111.6 114 107.5 113.4 107.3 93.2 95.7 112.1 108.6 109 117.5 130.5 131 128.6 125.8 124 122.6 116 116.7 120.9 125.6 124.5 126.7 129.9 133.8 134.7 131 133.8 130 127.6 127.8 128.6 147.8 147.2 139.3 145.7 147.7 149.1 147.8 151.8 144.9 143.7 144.5 145.9 140.9 141.3 143.1 151.9 160.6 170.6 175.9 195.6 212 228.3 233.6 255.8 275.9 289.5 295.8 287.9 287 293.7 312.5 311.1 315 317.1 311.1 309.3 297.9 300.3 297.1 283.4 272.9 256.7 250.5 245 256.5 253.8 247 237.6 232.2 219.7 212.1 201.7 193.5 183.6 177 172.3 165.2 155.7 165 165.9 166.4 165.9 167.5 170.2 173.3 177.3 184.6 192.2 202.7 212.8 232.8 233.6 235.8 245.2 263.5 271.8 276.5 281.7 283.9 284.9 284.7 290.5 285.9 281.5 275.1 269.4 267.6 265 261.2 250.6 247.3 245.1 239.6 228.1 219.3 210 203.8 196.2 181.1 173.6 165.4 152.8 143 133.6 122.5 109 93.4 78.3 64.9 60.2 52.2 57.4 65.3 69.3 70.1 69.9 71.5 73.9 76.9 84.6 87.3 83.1 80.7 80.3 79.1 85.9 94.8 87.4 84.9 95 99.1 101.7 103.8 102.4 102.2 100.9 99.3 99 100 99.3 98.1 96 95.1 95.5 93.8 89.6 87.2 84.9 84.3 85.1 83.8 80.9
77.9 81.7 88 89.8 88.3 81.3 70.6 58.7 48.8 79.1 82.4 84.7 89.5 97.2 100 98.7 100.1 97.9 93.4 97.7 94.6 90.2 90.5 102.9 106.9 103.1 108.2 116.3 128.5 129.4 127.5 124.8 123.4 120.3 112.8 112.7 116.6 124.2 130 127 127.3 127.1 128.5 132.1 130.8 125 124.6 138.9 144.7 144.4 140.2 139.4 138.5 138.6 139.5 145.9 144.3 142.6 139.9 139.7 141 142.5 147.5 157.3 172.2 179.5 195.3 199.3 215.7 222.3 237.7 255.9 270.8 286.2 299.2 298.6 287.6 289 306.4 317 316.5 318.9 315.2 314.6 312.4 306.7 305.2 294.6 282.9 270 258.5 249 254 253.4 247.4 235.5 228.9 221 214.7 206.5 194.7 187.4 178.7 175.6 168.4 166.6 170.2 168.9 168.2 168.3 169.3 170.3 177.1 180.8 180.9 191.6 199 209.8 235.9 238.4 238.2 240.5 266.5 273.8 282.1 284.7 288.1 287.2 287.8 289.1 287.1 284.3 278.9 272.8 266.7 261.1 259.8 254.3 244.4 239.9 238 227.6 220.6 211.6 205.8 201.3 185.5 178.7 170.7 157.8 147.3 142.3 132.1 123.2 108.7 95.9 76.8 64 58.3 55.1 61.7 69.5 71.4 73.6 72 73.9 76.3 80.4 86.4 84.1 83.1 85 84.8 88.1 93.3 95.6 87.7 90.3 97.1 100.5 102.2 101.1 101.3 101 99.7 99 98.4 97.7 97.5 96.3 94.7 94.6 94.1 90.8 87.4 85.3 83.7 82.7 81.5 80.5
75.7 79.2 82.8 82.8 79.6 71.5 55.8 35.6 61.5 76.8 77 78.5 83.8 84.4 89 91 89.7 88.3 85.1 86.5 86.7 83.6 84 94.5 97.6 92.6 98.8 107.5 112.5 121.4 125.8 121.7 124.7 120.9 117.2 113.4 112.4 126 131.6 127.4 125.9 124.7 133.1 125.1 127 123.2 124.4 137.8 140.8 141 139.1 138.2 137.4 137.2 137.9 140.1 150.5 143.9 139.2 141.5 143.1 143.6 148.4 165.8 175.1 191.9 216.4 225.8 232.8 237.5 242.4 255.7 269.9 286.7 296.9 300.4 297.4 291.4 299.9 320.2 318.8 318.4 321 323.3 318.7 314.5 310.2 304.3 290.6 277.5 268 254.6 252.1 254.4 252.1 239 231.8 222.9 216.4 210.5 200.1 189.1 180.2 176.8 170.2 172.1 173.2 174.3 171.3 172.6 174.6 173.2 177.2 184.3 193.2 190.5 193 206.2 224.9 242.6 241.5 241.6 269.4 276.6 285.5 288.4 289.9 290.6 290.4 289.8 289.8 287.3 283.9 279.2 272.8 263.8 256.8 252.5 243.1 234.9 230.8 227.3 218.6 209.4 204.9 199.5 190.9 176.3 169.1 158.3 149.4 142.9 137.1 123.1 114.2 104.7 87.3 75.7 61.3 60 56.3 64.9 72.6 74.4 74 75 75.7 77.6 81.7 85.9 82.3 84.5 84.5 87.1 91.5 95.9 97.5 96.1 96.2 98.8 99.7 99.9 102.4 101 100.2 99.4 98.3 97 97 95.3 94.3 94.1 93.7 92.6 88.1 85.2 83.4 80.9 79 80.4
71.6 73.4 77.6 78.4 70.9 62.5 37.2 41.5 57.3 67.1 70.2 73.5 78.7 81.8 79.3 79.2 79.2 77.4 75.6 77 76.7 76.2 75.6 86.9 87.9 88.8 90.7 95.1 101.4 108.1 110.7 121.4 125.5 122.6 118.8 106.4 109.4 123.6 123.4 123.9 122.5 123.9 122.5 123.8 125.2 123.3 128 142.9 138.1 139.7 138.4 137.7 137.1 136.5 137.3 137.5 141.6 138.6 138.5 140.9 143.5 145.1 153.3 172.9 181 205.4 223.9 231.4 240.8 250.8 259.5 258.8 267.4 282.9 295.6 302 305.1 302 300.7 320.1 322.8 320.4 323.8 329.2 334.7 324.3 317.2 310.3 299 285.4 272.8 259.7 251 257 248.7 241.8 237.1 223.9 219.5 215.7 206.4 197.3 185.3 179.2 174.8 174.8 175.4 176.2 176.1 177 178.2 177.5 178.7 184.3 192.2 192.9 199.9 203.2 215.9 240.9 244.5 245.1 262.6 278.4 285.1 292.6 293.7 295.6 294.4 294.4 291.6 289.6 288.4 282.8 276.1 267.6 261.1 248.6 240.3 234.4 224.5 224 217.6 210 202.6 196.8 190.8 180.7 164.1 153.3 147.2 142.3 135.7 126.5 117.7 107.9 92.4 65.5 69.5 66.8 62.6 57.5 67.8 74 76.5 76.2 76.8 77.5 78.1 79.8 81.1 83.1 88.9 91.2 91.4 95.4 98.5 100.4 99.3 97.9 99.5 100.2 101 100.1 100.3 99.4 98.7 97.6 96.1 94.5 94 93.5 92.9 92.2 88.4 85.5 82.8 83 80.5 80.2
67.3 69.7 69.6 67.1 62.7 46.6 27.8 36.1 49.4 58.9 63.3 67 71.4 78.3 71.6 75.1 67.7 67.2 67.1 68.7 70.4 72.7 69.1 80.9 86 89.1 92 90.5 92.3 99.2 103.6 111 123.6 120.8 116.7 103.5 110.4 118 122.8 120.3 122.4 124.7 122.4 123.2 129.5 124.2 127.3 132.1 137.8 138.4 138.5 137.3 137 135.8 136.1 136.6 137.9 138.2 138.5 138.5 139 147.5 157.9 176.8 189.2 210.3 224.3 235.4 243.3 251 260.2 268.9 269 276 293.2 306 313.6 315.7 308.4 317.5 325.2 326.7 327.9 334.2 338.9 333.7 324.9 314.7 305.4 293.2 279.7 264.9 253.9 253.4 255.7 245.7 239.3 229.2 221.8 219.2 210.7 201.9 188.8 182.2 176.4 174.8 177.3 178.3 182.8 183.8 185.3 184.7 180.1 187.6 193.3 198 209.1 201.5 211.3 226.7 244.3 246 254.4 278.3 285 296.9 301.8 300.9 299.1 297.8 294.1 290 287.9 281.7 275.6 267.9 257.3 246.7 238.9 229.6 224.2 215.9 213.3 207.7 198.8 192.8 188.2 176.6 163.7 151.6 145.2 140.8 132.9 126.7 116.8 101.8 97.4 89.4 83.9 78.9 74.2 71.7 58.3 70.1 74.6 75.9 75.9 76.8 77.6 78 80.8 84.3 88.3 92.7 94.1 95.4 97.2 99.2 100 99 100 100.5 99 97.6 98.3 98.9 97.9 96.6 95.4 93.9 93 93.4 92.2 90.9 89.5 87.9 83.7 83.1 83 86
59.3 55.3 56 47.3 41.3 28.2 29.4 32.7 42 51.2 53.5 57.1 57.8 61.3 68.7 67.7 66.6 64.4 66 65.7 66.3 69.3 65.5 72.9 78.6 83.8 90.4 93.3 89.9 89 91.6 100.9 103.9 104.1 103.9 100.3 112.9 122.3 123.4 120.6 119.5 124.4 121.7 122.2 128 121.1 127.8 130.7 136.8 137.5 138.3 136.4 136.3 135.3 135.3 136.4 137.3 137.7 138 138.3 140.8 148.9 162.9 179.3 190.4 207.7 219.5 234.3 243.6 254.7 265.4 276.3 287.7 280.6 294.3 302.6 318 318.7 317.8 319.1 326.9 328.3 332.3 341.3 342.6 344.1 332 322.8 315.4 300.1 287.8 268.3 258.9 254.7 257.8 255.1 242.5 233.2 223.9 220.4 216.1 205 195.8 186.4 178.7 175.6 178.1 180.7 187 194.4 201 195.9 192.5 188.1 192.9 201.5 211.5 210.8 214.2 225.7 238.7 242.7 252.4 273.5 282.1 293.7 299.2 301.7 300.4 297.8 293.3 288.2 285 278.6 273 265.3 254.1 245.1 237.7 230.9 218.3 211.2 206.2 202.8 194.6 186.6 181.2 173.3 161.2 149.1 141.7 137.4 133.4 131 122.7 116.3 108.5 101.9 93.9 88.2 83.3 80.8 76.2 61.5 70.1 74.3 74.9 75.7 76.8 77.2 79.7 83.9 86.8 90.5 94.2 96.1 97.4 100.3 102 102.3 101.2 100.7 98.1 97.4 98.2 97.5 95.7 94.5 95 93.2 91.8 90.4 90.7 90.9 90.3 88.8 86.9 85.4 85.1 87.3
39.7 39.8 40.6 38.2 30.6 25.6 29 29.1 38.3 40 41.6 45.3 45.6 52.1 54.7 58.4 61.5 64.9 64.1 65.1 65.5 64.9 62.9 66 71.3 76.6 81.5 87.1 89 85.6 85.7 92.3 94.8 97 98.5 106.7 114.6 122.7 117.3 121.4 118.4 117.8 118.5 121.1 121.6 127.4 129 129.3 129.5 135.2 140.1 135.9 135.4 135.1 135.3 136.1 136.6 137.1 137.5 138.4 139.4 147.6 161.1 178 189 210.5 221.5 231 246.2 257.7 273.7 285.4 295.3 302 290.8 302.3 319.3 318.1 319 320.7 326.5 329.3 335.8 342.5 350.7 347.8 339 327 317.6 309.2 294.2 280.4 266.1 257.3 260.9 261.2 251.8 241.4 233.6 223.1 218.5 209.9 203 190.6 182 175.3 178.3 182.8 187.5 195 208.4 209.3 199.1 195.7 193.6 199.6 208.2 216.4 213.8 228.5 234.1 239.1 244.7 260.8 274 291 294.9 301.4 304.5 300 298.1 293.1 286.1 280.2 273.9 265 254.8 246.5 236.5 229.1 219 207.1 196.6 198 191 181.3 176.8 169.7 162 148.8 144.3 139.4 136.9 133.9 130.2 124.8 116.8 109.9 106.3 100.9 93.2 89.8 86 82.1 69 69.4 73.7 74.5 75.7 77.5 78.3 82.5 86.3 89.8 93.1 96.2 97.6 103 106.8 106.3 103.6 100.8 98.6 98.5 97.2 96.1 95.2 93.7 94.9 94.2 92.9 91.4 89.9 89.3 89.5 89.3 87.9 86.6 84.6 86.4
37.9 31.3 33 25.2 21 22.8 25 26.1 34.5 32.2 37 37.6 43 40.9 49.4 54.8 55.8 56.7 60.4 62.6 64.4 64.6 63 62.7 67.4 72.2 77 78.5 82.5 84.7 82.7 84.1 89.1 94 99.7 103.9 107 114.4 116.2 118.9 121.2 117 123.1 124.1 128.5 121 129.6 129.2 129.1 130.6 140.7 137 135.5 135.3 134.7 135.4 135.9 136.1 136.5 139.5 139 152.8 163 179.5 189 211 223.3 240.8 253.5 266.7 285.6 299.2 300 302 304.6 300.9 317.4 319.1 320.1 329.4 334.4 334.1 338.6 347 355.4 356.8 346.5 331.5 318.7 307.2 309.5 295.4 276.5 267.4 271.3 265.4 261.6 245.3 241.3 225.9 220.7 212.1 204.7 194.9 186.9 179.8 178.3 183.8 189.1 194.9 209.2 210 206.2 203.4 199.4 200.8 206.4 218.9 213.6 218.2 229.9 236.6 239.2 249.7 271.2 284.5 291.1 298.9 309.9 307 305.4 300 288.5 281.8 275.4 266.1 256.2 247.9 238.1 230.3 220.9 210.1 201.6 191.4 183.5 182.4 176.3 176.8 173.3 157.9 148.6 142.7 138.8 136 134.2 131.7 129.1 119.8 116.1 110.5 101.6 100.4 95.3 89.2 86.5 73.2 69.5 75.1 77.8 76.1 77.9 81.3 86.2 90 94.1 97.3 102.9 102.3 108.1 107.8 105.6 101.5 99 96.6 95.2 94.2 93.7 92.9 92.8 92.4 92.2 91.4 89.6 89.9 88.1 89.6 88.1 85.3 85.4 86.3
29.3 19.6 15.2 15.9 14.2 17.7 18.2 19.8 24.8 23.8 26.8 30.7 37.5 42.6 44.9 52.2 54.4 54 53.9 57.9 61.9 62 63 59.2 62.8 66.1 71 75.5 79.4 81.6 81.9 84.7 90.6 95.7 97.1 94.3 103.2 108.1 114.6 115.2 122.2 113.7 120.7 125.8 123.4 117.7 126.8 128.7 128.2 128.8 134.7 135.7 135.3 135 134.9 134.8 135.3 135.6 135.8 137.8 143.6 159.2 170.1 183.8 191.1 214.2 235.4 257.3 261.3 270.8 287.9 302.4 302.9 305 310.6 315.6 314.8 321.1 328.6 340.3 352.9 346.4 339.9 350.2 358.3 360 348.7 338.7 322.9 314.5 313.4 310.9 289.3 275.3 279.9 273 265.6 254.9 243.9 232.7 225.2 218.2 208.4 201.8 191.1 184.2 180.9 184.1 190.7 194.9 201.1 209.5 211.6 210.5 207.3 201.5 209.4 221 215.7 218.3 232.3 236.1 239.5 246 270.8 283.2 288.5 295.4 308.2 311.9 309.1 302.7 292 279.5 274.7 266.8 260.2 253.8 249 238.1 228.1 214.9 206.4 194.7 188.7 184.9 182 179.2 178.2 174.3 156.4 147 142.5 140.7 139.3 136.7 133.3 130 120.3 117.6 113.8 112.3 111 101.1 94.6 85.9 77 67.8 78.2 76 77.5 80.4 84.4 91.3 95.5 99.8 107.9 107.8 106.8 108 106.1 102 98.9 96 94.1 93.5 93.6 92.9 92.2 92 91.9 92.3 91.6 90.6 89.9 90 89.5 88.2 88.4 88.1
6.7 3.5 4.2 8.8 8 13.5 14.5 16.8 18.5 20.1 23.7 30.2 34.5 43.4 47.2 45.7 53.7 52.7 52.3 53.4 54.3 59.3 62.3 58.1 59.2 62.9 65.2 70.3 76.9 78.8 84.5 86 88.1 90.5 93.8 95.2 101.2 103 107.3 108.3 113.2 110.1 118.4 121.1 120.8 115.6 124.1 127.2 127.6 127.9 132.4 134.1 135.2 134.5 134.1 134.5 134.9 135.2 136.2 140.9 148.1 164 179.9 186.2 196.7 223.5 250.3 268.1 272.1 273.1 283.1 301.7 303.3 306.6 316.9 325.4 327.7 321.9 329.8 342.4 362.7 363.9 350.2 360.4 360.9 357.5 350.2 337.7 332.4 321.5 318.5 312.3 302.3 281.7 281.5 280.1 270.6 262.9 248 240.3 230.2 223.4 212.5 207.2 195.3 189.2 181.2 186.6 189.3 194.5 200.7 208 214.2 214.8 213.9 208 213.1 223.9 223.4 219.9 244.1 240.4 239.8 243.3 257.4 271.8 287.2 298.2 310.2 317.9 313 305.9 298.9 288.1 278.3 273.6 268.8 261.7 251.2 246 235.8 221.9 210.3 200.6 190.7 187.6 184.8 182 179.9 176.8 171.1 155.3 150.8 145.4 146.7 146.3 150.1 137.3 131.3 123.4 119.7 117.7 118 121.2 105.2 96.1 88 80.5 67.2 71.2 75.7 80 83 87 94.1 101.9 111.5 111.1 109.7 106.3 105 102.5 99.1 96 94.1 95.1 93.4 93.5 93.3 92.4 93.2 93.3 93.1 92.7 93.7 94.4 93.5 93.1 91.9 93.7
1.4 1.5 2.3 5.6 4.8 12.7 13.5 13.2 15.4 18.9 21.1 21.6 35 36.9 46.8 53.4 47.2 52.6 53.9 53.5 54.6 54.1 54.9 55.6 57.6 62 65 69.3 77.2 82 85.9 87.7 88.6 89.8 86.7 95.1 101.7 103.6 101 101.1 104.7 110.4 117.1 118.9 116.8 124.3 131.7 128.4 125.4 125.9 130.3 132.9 133.5 133.5 134 134.4 134.9 136.6 136.8 146.8 158.7 170 184.1 193.1 211.4 232.6 251.8 273.5 278.7 281.3 292.1 303.8 305.8 306.9 309.4 322.1 326 330.1 325.2 338.8 360.5 366.7 358.7 353.8 362.3 356.5 351.3 340.5 333.7 327.1 321.2 316.5 311.6 287.9 281.5 281.4 275.4 264.8 256.2 242.6 230.9 224.1 214 207.8 194.3 189.9 187.8 186 190.3 195.7 199.8 205.7 215.5 218.7 219.9 212.9 211.1 222.6 233.3 225.3 240.9 243.8 243.7 245 254.3 269.5 282.3 290.5 304.9 317.5 313.5 310.1 304.1 292.8 284.9 281.4 275.4 269.1 261.8 249.7 239 229.3 213.6 203.1 197.5 190.5 187.9 185.7 182.1 180.6 177.8 163.9 155.5 150.3 151.2 151.5 151.6 147.3 140.5 132.5 127.6 119.3 117.9 120.3 121.2 103.3 94.4 89.6 82.4 71.2 72.4 79.9 82.8 86.9 92.9 99.4 105.1 106.7 111.2 106.5 105.8 102.9 99.7 96.9 94.3 95 94.2 92.8 92.9 93.3 95.7 95.9 96.3 95.4 95.1 96 95.7 96.4 95.9 98.7
-1.3 0 1.1 -1.3 -1.3 4.7 15.3 13.4 14.4 15.8 19.8 22.1 29.5 33.8 38.2 53.4 53.2 51.9 55.1 54 54.4 54.4 54.4 55.3 58.1 61.3 64 71.3 77.3 82.3 86.3 89.5 89.2 88.8 83.5 95 99.7 105.5 102.8 99.2 101.4 110.7 113.9 114.6 108.9 128.2 133.4 126.6 125.4 123.6 126.5 133.1 133.8 133.5 133.9 134.5 135.1 138 145.4 161.3 169.8 177.6 190.6 204.8 227.3 246.6 269.1 279.5 286 289.6 297.6 306.7 307.7 307.4 310.5 316.6 327.3 336 334.4 331.5 352.8 361.2 363.6 353.2 353.5 354.7 355.6 345 334.5 332.2 324.5 319.4 312.9 296.4 282.7 279.6 274.9 265.4 256.6 251.9 239.1 226.2 217.8 210.2 198.7 192.7 190.1 188.2 190.1 195.6 199 208.9 213.1 222.4 221.7 217.5 214.7 215.7 228.7 226 240.4 244.8 245.5 251.3 258.4 267.7 279.6 287.5 297.8 309.9 311.6 308.3 303.4 297.3 293.8 290.7 282.9 275.9 267.5 261.7 243.9 235.3 221.4 211.5 203.3 194.9 191.4 189.8 186.4 182.5 180.1 177.9 164.8 156.1 156.1 156.4 155.6 156.3 151.8 141.3 134.4 125.4 120.5 119.2 119.9 114.8 96.8 92.5 85.6 75.3 76.4 74.8 83.4 87 91.3 95.6 101.4 106.2 110.6 107.8 105 101.8 99.9 99 94.6 93.6 93.4 93.7 94.2 94.6 96.4 98.4 99.1 99 98.1 98 99 102.8 104.8 103.4
-1.3 -1.3 -0.1 -1.3 0.4 6 16.9 14.8 15.2 18.4 21.7 24.5 30.8 38.3 46.7 55.5 53.8 55.7 54.9 55.4 55 57.7 57 55.1 57.3 59.7 62.6 65.8 73.4 76.6 83.7 88.1 88.2 77.9 85.6 81.7 91.1 99.2 103.9 96.6 101.4 106.1 108.7 111.7 115.6 120.5 122.2 123.1 123 125.2 128.1 136.6 134.1 134.1 134.5 135.2 135.8 137.4 152.5 162.4 176.4 183.8 195.3 211 234.6 255.6 277.8 285.3 293.6 303.4 305.9 309.9 310 311.9 315.8 323.9 326.7 333.5 341.9 346.1 347.6 367.1 369.5 364.6 354.1 354 357.6 352.5 338.4 333.4 325.2 318.7 311.8 299.5 282.5 278 273.9 266.5 264.7 259 243.4 230.3 220 211.4 201.1 196.5 193.4 193.2 193.8 195.5 201.2 210.6 217.9 220.9 226.4 224.1 219.7 224.3 223.9 229.8 238.7 245.2 246.5 250.6 263.9 269.9 277.1 286.2 295.2 302.9 305.9 307.3 305.5 302 299.3 297.7 288.8 282.5 276.9 267.7 250.1 240.8 234.9 221.8 212.2 201.8 196.6 193.6 192.6 185.3 182.3 179.9 176.1 164.1 159.3 162 162.9 161.8 158 151.4 139 128.9 121.8 117 115.3 112.6 101.8 96.1 90 78.1 80.3 82.7 77.9 87.7 91.9 96.3 101.3 106.4 109.3 107.8 104.4 102 100.8 101.1 97.1 93.9 93.9 94.7 94.9 95.6 97.8 101.6 102 101.9 104.1 106 105.2 107.1 107.4 105
-1.3 -1.3 -1.3 -1.1 1.2 5.6 15 17.4 17.2 21.6 24.8 33.1 31.3 34 45.6 56 55.9 55.8 55.5 55.7 56.1 58.6 58.4 57.7 56.5 58.7 60.9 63.5 64.8 66.4 69.4 73.9 79.6 86.4 96.8 93.2 83.5 91.7 94.6 99.9 97.1 101.6 104.7 106.4 116.4 122.5 120.1 121.3 123.4 125.9 129.7 138.6 134.4 134.7 135.1 136 136.6 141 155.2 169.7 177.6 192.7 198.1 219.8 241.4 257.9 276 289.9 305.9 313.1 310 312.1 313 318.7 327.1 332.2 333.1 345.9 356.2 358.7 364.1 365.5 369.8 369.3 356.6 357 359.9 354.2 341.5 335.8 326 321.9 315.8 306.8 287.3 280.4 274.9 270.6 265.1 260.5 245.3 233.2 222.2 211.9 206.1 197.7 194.4 195.1 196.2 200 202.5 213.2 222 227.8 228.9 234.5 232.2 233.3 232.7 232.7 237.4 245.7 246.5 249.7 267 273.1 277.6 284 290.8 297.2 300.8 305.4 308.9 307.3 303.9 300.4 294.4 284.5 278.3 270.7 263.8 246.2 238.1 231.6 220 211.8 204.1 200.4 200.9 192.2 185.5 182.7 179.2 169.5 164.3 165.4 167.7 170.9 166.5 155.5 143.4 134.8 126.6 118.6 112.2 105.7 101.8 97.5 90.3 83.5 83.3 89.6 91.8 82.7 90.9 95 101.3 106.1 106.1 105.6 105.6 103.7 100.9 99.4 100 95.4 95.2 96 95.6 97.2 100 102.8 105 107.2 109.1 110.1 110.6 110.2 109.4 111.2
-1.3 -1.3 -1.3 -1.3 2 18.8 15.1 14.6 17.4 25 33.1 36.6 35.8 38.2 40.7 53.2 55.4 57.7 57.1 55.8 56 61.5 59.2 57.5 60 61.6 63 62.5 64.7 71.1 72.7 73.2 81.3 92.4 100.6 100.8 96.1 87.9 95.4 102.7 97 100.3 100.7 107.3 122.7 126.2 122.2 122.2 125.2 127.6 128.4 136.2 135.9 136.4 136.2 136.6 138.2 145.5 156 166.5 184.9 195 206.8 231.3 255.8 267.4 281.7 302.7 317.3 317.2 313.6 314.4 316.3 328.3 344.3 350 350 353.5 368 369.3 369.6 370.9 372.3 371.9 362.5 361.5 360.9 356.3 345.5 334.3 330.2 325.6 317.8 304.7 287.9 280.7 275.2 268.3 264.4 257.4 246.8 234.2 226.9 214.8 205.8 202.8 203.4 205.7 208.1 206.5 212.5 214.8 227.9 240 242.3 241.7 242.3 239.3 241.1 241.1 240.8 250.3 250.5 260.8 265.5 274.8 279 282.6 288.7 291.8 293.8 304.6 311.2 313.7 307.2 301.2 296.4 290 282.2 277.3 268.9 256.7 249.7 239.5 230.2 218.8 209.3 204.5 200.4 196.3 189.9 184.2 180.6 174.5 168.3 167.6 168.3 170.3 172.8 155.8 143.7 137.7 128.3 121.2 113.8 109.7 105.8 101.1 96.2 86.6 90.1 92 95.9 96.6 90.7 91.4 97.1 102.1 102.1 103.5 106.4 103.5 100.7 100.3 101.9 97.8 97.1 96.9 97 100 104.1 106.4 108.4 110.4 111.6 112.8 113.9 112.4 112.5 114.6
-1.3 -1.3 -1.3 -1.3 2.1 20.8 20.3 17.8 18.8 26.4 40.3 40.9 39.6 43.4 48.4 49.8 53.6 54.2 55.2 55.1 57.5 63.2 62.7 57.8 58.4 63.3 65.4 66.7 70.8 73.9 74.9 75 78.7 90.3 95.8 100.5 98.8 97.7 91.3 96.8 100.4 98.7 103.8 119.2 128.5 128.6 125.1 127.2 127.8 129.7 129.3 142.3 142 138.5 138.6 137.9 140.7 153.3 162.3 176.7 190.8 202.2 221.9 240.4 259.1 276.3 298.5 311.3 317.5 321.7 319.9 319.2 323.7 336.8 354 354.6 356.8 364.9 367.1 372.2 375 377.5 379.4 364.9 362.6 361 363.7 355.6 351.1 338.3 334.1 327.8 321.3 306.3 289.4 284.3 278.2 272.1 263.3 252.1 243.8 235.9 228.2 215.6 208.1 207 215.2 226.1 226.9 222.5 223.7 226.3 228.9 247.9 254.2 254.5 251.9 252 250.5 251.3 246.5 251.7 264.8 265.9 272.6 276 282 285.5 289 291.3 294.1 297.2 311.8 311.7 307.7 301.3 298.9 294.1 288.3 279.5 272.9 265.2 258.4 247.2 236.6 229 216.5 209.8 207.3 199.6 196.5 186.8 181.8 180.2 171.8 168.3 165.6 165.1 163.6 155.4 147.6 142.7 132.5 124.1 119.9 112.1 107.4 104.4 90.6 93.8 94.2 92.9 98 98.9 100.5 98.1 91.1 97.2 102.8 106.6 107.4 107.8 103.7 100.6 101.7 99.5 98.6 98.9 100.1 103.9 106.7 107.3 111 113.5 114.3 114.3 115.4 115 115.3 117.5
-1.3 -1.3 -1.3 -1.3 0.9 6.2 21.1 21.3 22.4 29.2 38.1 43.6 46.9 44.3 49.9 50.8 52.1 54 54.6 55.4 61.3 62 62.4 60.1 57.6 61.4 64.9 67.8 70.6 72.6 74 76.2 79.4 81.6 88 94.7 104.9 109.4 98.6 91.9 101.7 100.2 101.9 117.7 129.6 130.3 126.9 129.2 128.4 132.1 131 147.7 145.7 141.4 142.4 144.1 147.2 160 173.4 190.7 202.2 217.7 237.7 252 273 288.8 307.8 320.8 321.4 323.9 324.8 327.5 337.1 351.4 356.2 357.5 359.5 367.2 367.3 373.7 382.1 383.6 381.6 374.3 362.1 360.2 369.1 359.2 352 341.9 336.6 331.3 321.7 306.6 289 285.4 280.4 274.3 266.3 252 240.7 234.8 227.2 220.4 211.7 209.5 223.1 237.5 241.1 244.2 240.7 241.7 241 245.9 259.3 260 265.5 264.7 262.7 262.9 260.8 258 264.5 273.6 274.9 278.4 285.3 288.3 292.3 295.9 298.3 299.6 309.4 312.4 308.8 304.4 300.9 297.5 291.7 282.7 275.1 267.4 261.4 248.4 241 233.5 221.1 213.3 206.8 203.8 201 193.2 183 179.1 173.2 169.2 165.4 160.6 157.6 155.1 150.7 144 139.2 128.5 124.6 114.1 107 97.3 98.6 100.4 100 101.2 100.8 103.3 103.4 106.2 99.5 94.4 104.2 108.2 109.2 110.8 108 101.5 102.3 101.2 98.9 98.7 100.4 105.8 109.6 110.8 114.3 115.9 116.2 117.8 120.9 119.8 118.9 120.1
-1.3 -1.3 -1.3 -1.3 0.7 2.8 26.2 28.3 31.9 33.1 36.4 45.6 51.6 49.8 50.8 52.3 52.2 54.1 56 58.2 63.1 63.2 62.7 61.9 58.9 62.5 65.8 68 73.3 75.9 80.6 84.3 82.9 84.4 84.1 88.7 94.9 103.3 99.9 97.7 96.7 99.9 109.6 116.2 126 132.6 128.4 129.5 132.5 133.8 134.1 149.7 149.5 145.9 147.8 150 157.3 169.5 186.6 202.7 208 232 253.8 269.7 284.1 304.1 323.5 325.7 327.4 334.2 342.1 347.7 341 358.2 355.2 357.9 361.8 371.9 373.1 376 385.8 386.9 384.9 379.3 370.9 358.1 360.2 357.3 349.8 338 340.6 328.5 315.2 301 287.4 284.6 282.9 272 265.4 252.5 241.2 235.2 226.9 218.9 214.6 217.5 225.9 248.1 259.2 256.4 257.7 252.9 253.6 251.3 260.7 268.6 271.9 276.5 274.4 274.7 272.2 262.2 265 273.9 279.5 281.7 284.8 289.6 290.9 296.2 301.1 301.7 306.8 309.8 308.6 306.3 305.9 300.2 292.8 286.5 277.6 269.7 261.8 249 242.8 237.6 227.6 214.8 210 205.8 199 191.7 184.1 179.5 174 170.1 167.8 162.1 157 154.4 152.3 145.7 141.2 135.2 122.9 116.6 107.7 107.3 105 103.8 105.5 107.1 105.3 105.7 105.9 106.5 104.7 99.5 101 111 112.7 113.4 115.1 113.4 106.7 103.8 102.7 98.9 100.9 108.2 111.3 115.2 117.2 117.7 120.2 122.2 124.4 122.3 123 124.2
-1.3 -1.3 -1.3 -1.3 0.2 2 18.3 32.4 33.8 34.9 42 53.7 54.1 53 51.4 53.3 53.8 53.5 54.8 56.3 62.7 64.1 65.1 64.2 58 67.1 68.3 75.6 81.2 89.6 103.6 107.7 98.6 92.2 90.7 89.6 91.7 94.5 97.4 99.6 98.9 100.3 111.2 133.9 130.2 135.1 131 131.7 136.6 136 142.5 154.7 157.8 151 154.2 160.7 164.5 181.5 195.7 209.7 217.7 246.6 267.9 282.7 298.7 311.7 327.5 331 344.9 351.5 360 360.9 354.9 355 355 355.5 360.7 371.7 376.2 381.8 387.8 389.7 385.2 383.6 374.7 353.3 356.4 354.8 345.7 326.6 329 319.7 310.3 300.8 291.5 285.8 281.8 278 262.9 252.2 241.6 234.6 228.3 224.9 221.3 225.1 228.4 245.1 264.4 264.3 268.6 269.7 267.1 265.3 262.7 268.6 275.3 280.8 284.1 280.7 277.6 273.4 269.5 272.8 281.9 284.4 287.6 290 292.6 294.4 301.2 303.3 304.7 307.8 310.6 306.4 304.2 300.6 292.6 287 279.5 269.4 264.1 250 241.9 236.3 229 218.5 211.7 208.3 201.5 193 186.3 178.5 174.6 169.8 166.7 163.5 158.1 153.5 153.4 148.8 139.8 136.6 125.9 107.9 115.5 113.8 111.1 110.4 109.5 109 108.3 109.3 111.2 111.1 110 107.7 104.9 106.9 112.9 112.5 121.7 126.4 114.2 106 103.3 101.6 105.5 109.2 114.2 117.6 121 124.1 125.8 128.8 128.2 130.4 131.5 131.1
-1.3 -1.3 -1.3 -1.3 -0.3 1.1 3.9 24.3 35.5 36.5 43.5 56.4 57.2 55.3 53.1 54.6 54.3 54.3 55.5 56.2 58.5 64.3 65.7 65.6 59.3 67.7 73.2 80.5 85 96.5 110.6 111.9 102.3 98.8 98 96.8 95.2 94.1 95.2 98.6 100.5 106.5 107.9 124.6 131.9 135.7 135.2 138.9 137.8 141.1 147.4 164.1 166 163.9 157.5 171.2 172.7 199.7 208.5 217.2 234.9 260.6 282.6 298.1 311.4 324.6 325.9 334.9 350.2 362.6 366 361.7 357 345.5 346.3 350.9 358.7 371.6 380.1 387 389.5 387.6 384 383.5 376.5 357.4 348.2 355 342 322.4 319.7 314.9 307.8 302.3 292 286.9 281.3 275.8 268.9 257.3 245.3 238.2 234.6 229.6 228.8 229.5 229.6 239.3 261.3 269.3 270 273.2 273.3 275.2 274.4 271.3 278.9 282.1 287.6 287.1 283 281.6 277.1 280.2 282 286.2 288.7 293.1 296.9 298.9 302.7 304.1 304.5 304.7 304.9 302.6 299.2 294.7 290.2 285.2 275.9 269.9 261 249.9 241.4 236 227.9 220 212.8 207.4 204.8 194.7 188.1 178.9 175.2 170.1 165.9 163.5 159.1 152.1 152.5 151.4 139.1 134.4 128.2 110.7 120.1 120.5 119.5 117.8 115.3 114 113.7 112.5 113.9 115.7 114.6 113.8 112.2 109.1 108.3 112.2 117.2 119.3 118.3 113.3 107.4 103.1 105.4 108.6 115.2 121.4 125.4 127.3 129.2 133.6 135.6 137.8 138.3 140.1
-1.3 -1.3 -1.3 -1.3 -1.3 -0.1 2.1 7.7 35.7 36.6 42.7 61.2 65.5 68.1 59.4 58.5 65 56.6 55.7 56 59.4 64.9 65.4 65.5 65.6 70.9 74.1 83.3 84.7 89 93.4 97.5 99.5 102.1 101.7 100.4 101.7 96.3 95.3 96.7 98.8 110.5 113.9 119.5 130.9 135.9 137.7 143.1 146.4 146.2 150.4 162.9 172.9 179.6 167.6 171.6 185 211.8 214.7 232.3 254.5 272 290.3 306.8 315 324.5 324.9 336 346.7 361.4 366.4 364.1 358.8 344.6 339.9 346.4 362.1 370 380.5 384.2 388.7 386 382.2 381.8 378.1 364.5 345.9 344.6 341.5 321.8 316.4 312.1 307.3 304.9 291.6 288 283.9 279.4 272.3 261.4 250.8 244.4 241.8 238.2 232.1 230.7 234.7 235.1 253.1 266.1 274.1 274.2 277.9 281.1 281.8 278 280.2 287.5 289.6 292.5 290.8 292.3 286.5 282.8 294.4 290.3 292.3 293.8 300.3 304.3 305.6 305.6 307.7 304.9 303 298.6 293.8 290 287.8 282.3 273.3 266.1 259.1 247.2 240.7 235.9 227.2 220 211.9 207.3 196.2 194.6 190.7 179.6 175.8 171.7 167.1 164.2 161.4 154.4 150.6 150 137.3 124.8 117.3 124.5 123 123.6 127.6 128.5 123.2 123.2 119.3 117.2 117 117.7 118.1 118.3 118.8 116.4 113.7 113.9 119 123.4 123.4 119 115.2 114.7 111.7 108.3 113.1 121.1 129.4 131.7 133.9 138.2 139.9 141.8 144.6 146
-1.3 -1.3 -1.3 -1.3 -1.3 -1.3 -1.3 3.1 7 37.8 42.6 58.9 69 70.2 69 64 63.6 64.1 55.7 59 68.3 65.8 64.1 64.8 65.7 67.3 72.6 80.9 84.6 86.5 89.1 94.5 103.9 105.4 103.8 103 103 101.1 98.5 97.5 99.2 110.7 115.4 120.3 131.6 137.8 139.6 146.4 149.8 149.7 155.1 163.1 178.3 188.9 185.3 185.9 200.3 220.1 232.1 244.2 270.2 287.3 295.5 299.8 311 316.9 326.2 330.1 336.8 347.3 357.4 361.9 352.1 342.7 336.8 340.9 355.5 373.7 379.7 384.7 386.5 382.9 379.4 377.5 376.5 366.8 349.3 339.7 331.8 322.7 316.7 309.7 307.4 305.9 291.5 289.4 285.9 280.6 275.3 271.2 259.6 258.2 254.3 243.9 238.2 236.6 236.4 238.2 246.3 259.3 272.1 277 283.6 291.2 289.1 285.6 285.8 290.2 293.5 295.1 297 295.6 294.4 291.5 294.3 296.9 304.4 301.1 303.8 307.4 309.6 308.3 309.9 307.1 301.4 295.9 289.1 285.9 278.6 276.7 268.4 260.4 252.8 245.3 239.8 230.4 225.9 217.4 209.8 204.9 194.7 192.4 191 182.1 175.8 170.8 165.4 162.6 159.9 156.1 147.3 143.1 132.5 137.1 133 131.3 129.5 128.7 132.9 133 129.5 123.8 123.4 123.5 123 123.5 123.4 123.4 123 122.7 124.7 118.4 120.2 131.8 131.6 123.6 118.8 119.1 118.7 112.4 112.2 120.2 129.3 135.5 139.2 142.7 145.4 148.8 152.6 152.9
-1.3 -1.3 -1.3 -1.3 -1.3 -1.3 -1.3 1.2 2.9 13.8 40.2 50.7 68.3 71.2 71.2 63.4 69.5 65.2 56.9 56.4 68.7 68.4 62.2 64.1 65.2 64.1 72.6 75.4 85.1 86.7 89.5 91.8 102.8 108.1 107.7 105.4 104.3 107.3 111.7 106.6 101.9 112.7 118.7 121.7 133.2 137.5 149.8 152.1 152.6 155.4 164.4 166.4 174.9 199.6 207.6 208.1 220.1 224.8 240 259.1 272.2 279.1 289.2 307.3 315.5 319.2 330 329.9 331.4 336.9 342.4 344 337.5 333.3 333.2 339.2 354.5 368.7 378.7 380.7 380.7 380.1 378.5 373.9 371.1 364.2 350 345.1 328.2 318.7 314.4 307.7 301.3 299.5 287.8 291.1 287.9 282 276.2 273.2 270.4 261.7 260 250.7 246.1 246.1 242.4 245.9 247.2 259.9 270.9 274.5 278.3 296.3 296.4 296.5 292.1 292.9 296.3 300.6 302.1 301.5 300.4 299.5 297.6 305.4 307.8 312.9 308.2 312.2 313.4 310.6 310.6 307.6 299.6 294 285 279.3 270.6 265.5 259.7 254.9 246.3 240.6 233.6 225.5 217.4 213.2 206.4 203.7 200.1 192.5 189.2 185.4 176.7 171.2 165.6 155.9 154.5 148.7 148.1 148 146.3 138.1 137.9 133.5 134.3 132.6 135.2 135.7 133.3 130.3 126.4 128.2 130.8 130.4 130.1 128.3 129.5 132.1 135.9 129.6 122.4 122.6 131.4 127 121.6 121.9 123.3 118.8 114.9 121.1 131.2 138.8 143.9 147.8 151.6 158 161 160.3
-1.3 -1.3 -1.3 -1.3 -1.3 -1.3 -1.3 -1.3 -1.3 4.8 28 40.3 52.6 65.6 68.6 60.5 60.9 70 64.8 56.6 56 61.1 57.9 62.2 60.1 58.2 64.5 74.9 79.7 85.5 85.5 86.7 93.2 102.9 106.4 105.1 105.1 110.6 111.5 116.3 115.5 112.7 119.4 125.2 136.5 147.5 150.7 158.3 161.1 161.6 172.2 174.4 180.5 205.5 213.1 224.7 231.7 234.4 244.7 266.9 274.4 281.2 293.4 309 317.7 319.4 319.7 320.1 327.5 327 328.4 329.6 325.2 327.9 332.4 339.4 347.2 363.9 368.3 376.4 377.5 376.8 375.8 371.5 366.4 362.7 350.8 349.4 333.7 317.6 314.5 311.7 305.3 296.1 287.4 285.6 289.7 285 280.6 276.2 271.4 268.1 264.5 258.7 254.7 255.8 249.9 251.1 260.2 263.7 268.1 272.7 276.9 285.8 292.1 297.4 297.7 299.1 301.3 305.3 305.9 304.6 307.5 312.1 311.6 310.6 316 317.9 318.7 316.9 316.5 310.6 308.9 300.4 295.1 289.2 279.4 271.7 267.2 263.4 251.4 249.1 240.8 231.1 227.4 220.7 213.3 208.5 204.5 201.6 199.5 192.7 186.2 182.4 177.7 172.3 161.7 164.7 162.8 157.1 153.3 151.1 146.5 141.3 142.1 137.3 137.8 137.3 138.2 138.5 135.5 134 136 138.2 137.8 138 140 135.4 134.2 136.9 145.9 147.8 135 128.2 124.7 129 125.2 124.6 124.6 122.9 121.6 128.7 135.4 140.7 147.2 152.8 156.9 166.8 170.5 169.7
-1.3 -1.3 -1.3 -1.3 -1.3 -1.3 -1.3 -1.3 -1.3 -1.3 2.7 5.3 12.6 28.5 38.3 39.4 42.3 50.2 51.7 52.4 50 53 55.5 54.9 53.7 50.3 57.7 64.7 70.1 80.1 83.4 84.4 85.6 86.6 90.4 94 104.5 106.6 109.5 118.9 121.5 116.9 120.1 127.1 137.1 154.5 159.9 160.3 166.3 168.4 179.3 185.8 188 198.9 218.8 232.9 243.2 245.4 250.4 266.7 275.3 282.5 296.5 309.4 317.6 317 315.6 313.5 312.5 313.4 325.7 322.8 317.4 329.3 337.4 344.6 352.1 354.2 363.2 364.9 366.4 370.9 369 365.1 359.2 357.2 351.6 343.8 335.1 310.9 313.9 311.2 306 297.8 285.5 284.3 289.9 286.9 282.2 278.9 274.5 269.4 268.2 266.6 262.1 257.4 256.6 255.7 268.1 266.7 277.1 274.8 276.9 284.1 299 302.9 300 301.9 307.2 308.6 310 309.4 310.4 319.6 322.7 319.5 319.4 321.2 321.4 320.2 316.3 321.2 305.6 295 287.7 281.9 274.4 266.7 261.4 254.6 247.5 239.3 233.1 226.9 219.9 216.4 210.3 206.6 202.8 199.1 196.1 190.6 184.8 178.7 174 170.1 170 170.7 168.5 160.4 157 153.6 148.1 144.8 144.9 142.8 141.9 141.5 140.9 141.4 139.3 142.2 141.3 149.7 150.3 146.9 149.6 146.9 140.5 143.5 149.7 152.1 150.4 146.1 133.6 128.9 129.7 128.8 128.5 127.3 122 128.8 135.7 142.4 148.9 152.2 157.1 168.9 177.2 177.9
-1.3 -1.3 -1.3 -1.3 -1.3 -1.3 -1.3 -1.3 -1.3 -1.3 -1.3 -1.3 -1.3 1.6 2.4 3 4 16.6 37.3 40.9 43.3 46.9 46.6 48.5 49.6 44.9 57.2 58.3 61.1 68.9 76 83.3 83.7 83.3 83.8 81.5 86.7 93.2 101.3 109 118.6 126.5 125.7 131.9 138 151.8 164.5 165 170.5 175.9 182.5 189.4 199.8 202.2 217.2 233.4 246.4 248 255.5 270.5 277.2 281 287.3 295.9 305.4 316.6 315.3 314.2 312.5 312.5 314.2 313.2 316.7 328.3 341.4 352.3 353.6 353.2 353.8 356.7 360.1 363.2 365.2 362.5 353.4 353.5 347.3 334.9 326.1 307.7 312.9 310.1 304.9 294.6 285.3 283.4 283.2 287.6 284 285.2 279.7 275.2 276.2 275.3 275.3 275.5 271.6 264.5 263.1 275.8 280 285 283.7 284 303.5 304.2 303.6 305.5 308.9 311.6 314.1 313.5 315.9 325.3 330 328.1 324.9 324.3 323.4 321.2 314.7 309.2 303.9 289.6 284.4 276.3 272 264.7 259.3 249.4 240.5 233.9 227.8 222.7 218.9 212.1 209 203.9 198.1 197 193.3 187.6 181.8 175.1 175 176 175.1 173.6 172.2 165.8 159.3 155.2 153.2 148.9 148.1 148.3 147.9 145 144.3 145.5 147.3 154.9 151.2 150.9 154.5 153.6 153.3 154.7 152.8 151.4 153.8 154.1 156.8 156.1 151.5 137 131.9 132.3 132.4 131.4 129.1 130.6 140.2 146.7 154.6 155.1 160.5 170.3 179.5 184.1
-1.3 -1.3 -1.3 -1.3 -1.3 -1.3 -1.3 -1.3 -1.3 -1.3 -1.3 -1.3 -1.3 -1.3 -1.3 -1.3 -1.3 1.3 4.5 14.2 31.2 40.4 41.4 42.2 42.2 40.4 45.7 46.1 55.4 59.3 64.3 69.7 71.1 74.7 75.3 71.6 79.7 80.5 89.7 101.4 113.8 121.4 128.6 137.7 144.1 146.1 162.8 168.1 170.7 183.1 186.6 196.2 213.6 221.2 222.6 233.7 246.8 252.3 260 272.5 283.2 284.9 286.1 290.4 295.7 313.8 315.2 315 312.5 314.1 312.6 312.5 315.4 328.4 333.9 348.3 346.7 345.8 350.5 353 352.3 355.9 358 352.6 348.7 347.1 344.4 325.2 308.9 304 311.9 305.8 301.8 293 284 282.6 286.7 284.1 284.6 285.8 285.4 282.9 281.2 280.2 282.6 281.9 278.6 278.5 275.6 276.2 280.7 292.9 296.6 289.4 299.6 301.4 304.5 311.2 317.4 315.6 318.8 318.3 321.3 327 334.1 334.5 329.8 326.5 323 319.3 312.9 303.1 295.6 289.4 280.3 273.5 265.7 259.2 251.8 243.8 238.3 230 221.7 218.3 213 208.9 204.9 200.9 196.7 192.3 190.4 186.8 178.6 182.5 181.2 179.2 179.7 177.9 176.9 171.2 161.8 159.2 158.7 156.6 153.2 154.7 153.3 148.7 149.6 152.9 156.5 159.7 159.2 159 162.2 163.9 162.5 165.3 167.7 163.5 162.4 163.8 162.5 161.4 157.6 151.8 144.4 141.5 139.7 139.2 134.7 132.4 146.4 154.2 162.5 161.6 160.5 167.7 176.1 186.1
-1.3 -1.3 -1.3 -1.3 -1.3 -1.3 -1.3 -1.3 -1.3 -1.3 -1.3 -1.3 -1.3 -1.3 -1.3 -1.3 -1.3 -1.3 -1.3 0.8 1.8 12.2 29.9 31.8 32.1 33 33.3 38.9 45.2 54.6 55.9 56.5 58.1 59.1 59.5 63.2 71.3 81.6 87.3 98.1 113.2 116.9 131 138.8 145.8 148 153.8 168.7 167.6 181.6 189.6 208 223.1 223.7 224.3 234.5 246.9 247.3 260.5 270.5 276.9 283.5 282.9 286.1 287.2 290.4 301.2 313.3 313 314.2 313.7 314.7 315.6 327.2 330.8 332.6 335.6 346 352.8 351.9 349.1 349.8 348.9 348.9 345.8 345.5 334.3 315.2 297.3 294.2 301.5 303.2 298.8 291.2 288.9 283.2 285.8 286.4 285.4 287.4 286.9 290.1 289.4 287.1 286.8 284.5 286.5 289.4 287.2 288.5 288.5 291.3 299.1 298.5 295.1 296.4 304.2 312.6 319.2 321.6 319.6 321.8 326.4 332.8 336 340.6 333.6 329.3 324.3 315.5 311.8 301.1 291 288.5 278.4 268.2 259.4 252.8 246.8 241 236.6 228.1 218.4 210.1 206.3 203.7 201.6 199.8 194.4 188 188.6 187.7 187 187.8 190.1 186.3 183.2 181.4 179.5 174 166.9 163.8 163.6 162.4 160.5 161.2 157.3 157.9 160.4 164.3 167.8 169.4 173.4 178 178.8 179.9 175.7 178.6 180.9 178.4 175.2 176.1 175.8 175 172.2 170.1 158.2 150.2 147.5 148 143.2 134.4 146 159.1 172 172.7 166 168.5 176.6 189
-1.3 -1.3 -1.3 -1.3 -1.3 -1.3 -1.3 -1.3 -1.3 -1.3 -1.3 -1.3 -1.3 -1.3 -1.3 -1.3 -1.3 -1.3 -1.3 -1.3 -1.3 -1.3 8.3 9.7 10.8 11.9 17.7 29.2 37.5 43.4 45.2 49.4 55.5 55.7 56.1 57.4 65.3 75.5 79.8 89.1 97.6 108.7 123.7 142.2 144.1 143.5 148.2 159.1 163 175 189.8 197.1 218.5 219.7 220.3 226.4 239.5 240.9 251.7 259.9 267.5 274.3 283.3 282.9 282.2 282.1 288.5 298.2 297.6 303.5 310.8 313.7 313.9 315.9 325.6 329 330.7 337.7 343.2 344.5 344.9 344.9 342.7 348 341.1 334.1 331.3 312.7 297.7 290.2 290.3 294.9 291.9 287.5 292.1 281.1 284.3 288.3 288.2 291.7 291.1 294 296.9 296.3 296.3 295.6 295.4 297.1 296.4 300.4 298.5 299.5 306.1 304.1 304.4 302.9 310.1 314.2 321.3 325.1 322.8 325.8 330.7 336.7 342.2 338.3 336.3 335 327.8 320.3 312.4 304.5 293.6 283.3 277.5 267.3 256.8 247.9 242.7 235.3 229.1 222.2 216.3 206.9 203.8 200 198.6 196.5 194.8 193.7 191.9 192.3 192.9 190.8 193.5 191.5 186.3 184.3 182.7 179.4 173.4 168.3 168.1 167.6 166.9 166.3 169.5 167.6 170.2 175.4 179.9 184.2 187.4 190.3 192.9 190.9 188.6 189.6 192.3 190.4 188.2 188.3 186.9 184.8 176.8 174.2 170.4 164.2 156.4 155 154 143.1 139.2 158.3 167.2 181.1 181.4 183.3 186.2 192
-1.3 -1.3 -1.3 -1.3 -1.3 -1.3 -1.3 -1.3 -1.3 -1.3 -1.3 -1.3 -1.3 -1.3 -1.3 -1.3 -1.3 -1.3 -1.3 -1.3 -1.3 -1.3 5.7 6.4 5.6 6.8 6.2 17.5 21.7 26.7 34.3 40.9 43.6 44.4 49.9 55.2 60.3 71.1 77.2 81.9 87 98.5 115 124.6 135.8 140 139.9 149.5 148.1 170 184.1 190.4 197.1 207.7 214.6 222.3 233.7 231.1 235.2 250.9 255.8 258.4 267.6 274.4 279.9 280 280.9 289 288.9 294.9 301.3 311.5 313.4 312.8 314.6 326.2 329.8 331.9 340.1 338.7 342.1 337.8 336.7 332.4 327.7 325.3 323.4 306.8 292.7 291.7 284.2 288.8 287.5 285.2 281.2 284.4 283.7 289.4 290.1 294.4 294.5 299.3 305.8 307 303.8 305.2 305.4 305.2 305.6 307.2 307 307.8 306.8 310 314.1 314.7 316.3 321.8 327.2 329.2 330 329.7 336.3 339.9 340.7 341.1 341.2 339.1 329.7 324.4 317.7 309.2 298.9 286.7 278.8 265.7 257.5 249.3 238.6 236 227.1 218.8 210.4 204.6 202.8 199.2 199.8 196.7 198.1 199.3 195.4 196.7 195.7 195.2 192.4 195.7 194.5 189.7 187.2 185.1 182 174.2 172.5 171.9 172.1 174.2 176.1 175.7 177.3 181.8 189.5 193.9 195.5 203.3 207.8 209.4 207.8 201.5 205.8 204.3 202.4 200.9 197.5 194.8 189.6 187.5 183.5 179.6 174.4 163.6 160 153.7 142.4 153.2 166 181.2 188.4 189.9 194 195.6
-1.3 -1.3 -1.3 -1.3 -1.3 -1.3 -1.3 -1.3 -1.3 -1.3 -1.3 -1.3 -1.3 -1.3 -1.3 -1.3 -1.3 -1.3 -1.3 -1.3 -1.3 -1.3 -1.3 -1.3 -1.3 3.5 2.5 4.5 16.1 18.5 22.3 29.6 32.5 41.2 43.8 47.1 55.1 64.8 70.9 72.5 74 87.4 101.5 114.7 130.4 134.2 132.5 134 149.6 155 169.2 184.9 192.7 195.4 200.7 211.6 224.9 222.7 223.5 232 250.7 252.4 253.7 257.8 263.5 267.3 271.7 274.2 281.8 282.4 289.7 302.3 305.6 312.3 313.8 318.5 328.9 330.4 332.5 335.2 333.7 332.4 331.4 329.5 322.8 318.4 317.2 301.5 295.3 288.4 283.5 280.3 282.7 276.7 286.9 291.2 288 283.7 290.5 294.2 297.6 300.9 310 311.8 313.2 314.5 314.5 310.8 311.5 312.8 315 315.9 315.7 318 320.9 321.5 321.9 332.3 335.1 336.3 338.7 339.4 339.1 342.3 342.4 340.7 340.4 341 336 327.2 321.7 313.4 300.7 288.3 279.5 265.1 255.2 249.4 239.8 237.5 228.1 218.5 212 206.1 201.8 202.4 201 197.2 199.8 200 198.7 199.5 198.3 196.8 196.3 196.2 198.9 195.7 192.9 189.4 185.9 181.7 177.8 178.8 181.5 187.2 185.7 183.1 185.8 190.6 198 205.3 209.8 216.4 220.2 223.5 224 222 223.4 220.5 218 215.8 215.2 214.2 205.1 203.3 200.9 195.2 189.3 179.7 172.1 163.7 150.4 148.5 166.8 176.9 188.8 195.7 198.9 201.1
-1.3 -1.3 -1.3 -1.3 -1.3 -1.3 -1.3 -1.3 -1.3 -1.3 -1.3 -1.3 -1.3 -1.3 -1.3 -1.3 -1.3 -1.3 -1.3 -1.3 -1.3 -1.3 -1.3 -1.3 -1.3 2.5 1.5 2.4 8.4 16.6 17.1 19.2 22.4 30.6 40.3 44.1 53 57.2 62.6 64.6 67.9 79.9 88.2 97.5 109.8 128.8 127 118.9 138.4 151.1 159 172.5 185.3 188.9 190.9 193.5 218.1 214 215.4 219.1 229.6 248.6 248.2 250.4 253.8 255.8 259.8 262.3 271.3 281.1 289.1 302.3 300.3 311.8 315.4 319.5 329.2 329.8 329.4 327.8 330.1 332.3 329.2 325.7 325.1 321.8 309.4 296.7 293.6 289.9 284 272.9 276.2 284.5 293.4 294.3 288.8 289.8 290.4 292.3 295.7 304.2 309.7 316.6 320.8 323.8 324.5 319.1 315.5 319.6 321.4 321.7 326.5 323.2 327.1 331.5 333.2 334.4 340.8 348 348 345 343 343.5 344 341.6 349.5 344.3 339.9 336.1 326.3 317.5 305.3 290 277.6 264.4 257.1 252 240.5 236.6 228 218.9 212.3 206.6 205.3 206.2 202.2 202.6 201 201.8 202 201.7 202.7 198.7 197.9 198.2 199 201 198.8 195.8 192.8 188.6 182.9 183.3 189 193.6 194.7 191 195.3 201.5 208 219.7 227.3 227.9 233 238.8 237.1 236 237.9 239.2 234.8 232.4 228.6 222.1 219.4 218.3 216.7 213.7 204.6 192.6 178.8 169.2 157.7 146.1 163.5 175.4 187 198.8 202.6 205.1
-1.3 -1.3 -1.3 -1.3 -1.3 -1.3 -1.3 -1.3 -1.3 -1.3 -1.3 -1.3 -1.3 -1.3 -1.3 -1.3 -1.3 -1.3 -1.3 -1.3 -1.3 -1.3 -1.3 -1.3 -1.3 -1.3 -0.8 -1.3 -1.3 10.6 16.3 17.9 18.5 20.1 31.8 41.5 44.6 55.9 56.4 56.6 60.4 66.3 80.6 86.9 93.5 100.8 110.5 105.1 125.8 141.8 153.7 158.4 172.3 177.2 184.6 184.1 207.6 207.2 200.6 212.7 217 224.5 230.7 234.9 247.9 250.1 258.1 261.1 273.8 281.2 285.3 289.6 294.2 302.7 315.4 320 329.7 329.3 328.8 323.4 324 328.7 327.4 325.3 324.5 322.2 317.3 294.1 290 286 281.8 272.7 268.2 284 292.5 291.9 288.5 284.1 289 291.2 294.4 301.2 309 315.9 323 327.5 329.6 326.8 323.3 324.2 325.3 329.1 332.6 333.6 335.4 337.5 337 338.6 344.9 354.1 354.8 350.3 348.4 347.9 345.9 346.9 353.7 351.8 347.2 341.9 332.6 321.3 308.6 291.4 279.3 266.4 258.9 251.6 239.9 232.6 226 218.2 215.2 207.8 208.1 207.5 206 204.5 201.9 203.4 203.6 203.7 203.7 205.2 200.6 199.6 199.5 203.8 202.9 202.8 200.1 201.2 191.7 189.2 196.1 197.6 199.8 195.3 205 210.6 218.8 231.5 240.5 243.5 234.6 247.1 248.8 246.7 249.4 252.2 249.9 245.6 241.2 237 235.9 229.6 228.3 227.9 219.9 202.4 186.4 176 162.6 156.4 159.7 175.1 186.3 194.1 201 208.6
-1.3 -1.3 -1.3 -1.3 -1.3 -1.3 -1.3 -1.3 -1.3 -1.3 -1.3 -1.3 -1.3 -1.3 -1.3 -1.3 -1.3 -1.3 -1.3 -1.3 -1.3 -1.3 -1.3 -1.3 -1.3 -1.3 -1.3 -1.3 -1.3 -1.3 15.8 16.8 18 18.3 20 25.6 34 44.6 44 43.2 57 61.6 68.7 76.9 82 85.2 92 96 112.2 129.1 149.1 151.8 152.9 170.2 179.4 181.2 196.5 196.6 187.4 202.9 210 213.5 216.7 223 236.7 242.9 253.7 262 266.3 273.5 277.7 286.8 289.1 297.2 311.2 320.3 324.5 323.8 330.3 322.4 322.9 329 327.8 324.7 323.9 320.8 317.2 291 284.7 283.1 277.3 271.6 269.6 287.7 288.2 284.8 282 278 286.4 291.6 295.6 298.2 304 314.7 325.2 324.9 329.3 330.4 328 326 326.9 331 334.7 338.7 341.1 344 341.2 342.3 346.8 354.5 359.2 354.1 354.1 355.1 351.2 358.9 358.1 356.9 353.7 345.2 339.1 326.1 312.6 296.2 280.8 268.5 259.1 251.7 241.3 234.5 226.8 220.6 215.8 212.4 211.5 209 209.4 205.7 206.1 205.6 204.8 204.9 205.6 207.3 206.6 202.8 202.9 205.7 212.1 213.7 213.5 206.4 203.3 202 203.6 207.2 207.1 210 211.8 220.2 229.5 238.8 244.8 248.5 250.8 253.9 262.7 259.3 258.2 267.7 258.8 254.9 249.6 244.1 242.2 244.3 237.2 234.5 227.5 212.7 197 185.2 166.9 168.8 158.1 172.8 185.1 192.4 200.3 208.4
-1.3 -1.3 -1.3 -1.3 -1.3 -1.3 -1.3 -1.3 -1.3 -1.3 -1.3 -1.3 -1.3 -1.3 -1.3 -1.3 -1.3 -1.3 -1.3 -1.3 -1.3 -1.3 -1.3 -1.3 -1.3 -1.3 -1.3 -1.3 -1.3 -1.3 5.7 16.2 16.3 18 17.6 18.1 20 24.1 30.4 34.2 39.6 52.6 58.9 64.4 75.3 75.1 82.9 89.3 101.6 125.2 138.6 148.2 148.3 147.6 168.2 172.8 180.5 190.2 186.4 183.9 199.7 206.1 214 215.8 225.7 243.1 251.1 253.1 257.5 261.3 269.1 277.5 282.8 290.7 302.9 312.8 318.2 317.6 318.8 319.8 329.7 329.8 327.4 324.5 321.9 321.6 312.8 289.3 279.6 280.4 281.4 268.8 272.9 282.4 284.9 282.8 277.9 275.2 282.1 295.3 296.6 296.9 297.9 302.8 313.9 321 324.5 328.4 329 326.5 327 329.1 332.3 336.7 338.3 346.1 346.1 344.5 351.1 357.2 359.9 361.4 361 360.4 357.4 363.1 363.7 366 359.8 348.5 341.4 334.8 314.3 300.4 284.1 270.7 261.9 254.7 242.7 234.8 228.1 223.6 218.4 215.7 212.6 211.4 211.5 208.5 209.4 208.3 207.8 208.4 208.5 209.9 210.7 209.5 206.9 212.5 218 222.3 220.4 216.4 210.1 212.9 214.5 212.3 215.3 220.3 219.9 227.5 239.4 247.3 251.8 253.8 259.7 257.9 270.4 279.3 267.3 279.7 273.1 264.2 259.2 254.3 252.2 256.3 248.8 239.9 233.2 224.7 209.2 197.5 182.9 181.7 171.4 172.1 184.5 192.9 201.4 210.1
-1.3 -1.3 -1.3 -1.3 -1.3 -1.3 -1.3 -1.3 -1.3 -1.3 -1.3 -1.3 -1.3 -1.3 -1.3 -1.3 -1.3 -1.3 -1.3 -1.3 -1.3 -1.3 -1.3 -1.3 -1.3 -1.3 -1.3 -1.3 -1.3 -1.3 1.4 5.7 14.8 15.9 17 16.5 16.4 16.5 17.8 21.5 33 41.2 48.2 46.6 64.8 68.7 77 79.3 91 110.7 127.8 137.3 139.9 140 145.2 162.2 160.5 181.8 189 173.8 187 200.6 212.1 210.9 215.9 224 236.8 244.3 252.2 262.8 265.7 279 289.3 283 294.9 311.8 314.7 313.7 320.3 321.5 331.9 330.7 328.8 324.3 324.8 317.8 309.6 293.1 265.4 279.1 277.3 263.3 275 277.9 277.9 279.8 276.6 266.9 276.6 291.5 298.1 296.9 295.7 296.8 299.2 301.7 316.7 318.9 323.5 322.6 320.2 321.1 323.8 330.6 335.9 343.9 344.3 348.1 352.6 360 361.5 366.1 369 368.9 362.2 363 370.2 362.4 358.3 352 350.8 338.8 317.7 302.3 286.5 273.8 262 253.1 245.5 239.1 230.6 226 220.7 216.7 213.9 213.6 212.9 210.8 212.6 211.9 211.1 210.5 212.7 214.3 214.2 214.6 213.3 216.6 221.1 226.4 226.8 226.1 225.8 229.5 232 230.8 225 234.4 237.5 235.8 245 256 265.2 263.4 263.9 267.4 268.5 282.3 278.2 279.4 285.4 275.2 270.2 264.2 267.1 266 260.6 246.1 239 232.6 220 210.9 197.7 188.8 187.5 179.2 183.5 192.9 204.3 210.6
-1.3 -1.3 -1.3 -1.3 -1.3 -1.3 -1.3 -1.3 -1.3 -1.3 -1.3 -1.3 -1.3 -1.3 -1.3 -1.3 -1.3 -1.3 -1.3 -1.3 -1.3 -1.3 -1.3 -1.3 -1.3 -1.3 -1.3 -1.3 -1.3 -1.3 -1.3 1.3 8.5 16.4 16.4 16.7 15.9 15.8 16.8 17.8 23.2 32.4 34.6 43.6 51 57.3 62.3 71.9 80.6 94 116.2 129.9 136.4 138.4 137.1 144 153.4 165.4 184 171.8 170.2 185.2 198.3 200.7 208.8 213.5 215.8 227.3 245.5 256.5 264.3 279.9 284.4 278.1 284.1 292.7 299.2 305.2 311.7 321.2 325 333.2 330.3 325.7 323.4 320.8 304.1 283 256.3 264.5 253.5 282.7 280.8 276 272.7 266.4 261.6 260.3 267.6 280 296 296.6 294.5 292 291.5 294.1 296.3 311.5 310.3 315.4 314.8 311.5 317.6 322 329 335.8 339.6 346.1 353.6 361 364.9 368.9 376.6 375.7 370.2 364.9 366 361.4 356.8 353.8 349.7 340.2 324.5 304.7 288.8 276.8 264 254.3 248.4 241 234.5 231.1 225.4 219 216.3 215.6 214.1 211.8 213.4 214.6 214.2 216.6 217.8 217.2 217.2 221.9 221.3 223.2 225.5 230.9 237.6 241.3 238.5 246.4 250.2 250.5 246.5 250 250.6 252.3 251.1 263.6 278.6 279.5 273.2 273 269.1 274.9 287.6 289.5 290.4 284.9 278.1 272 271.6 270.9 264.8 257.7 244.3 238.7 230.8 221.7 208.7 189.5 200.9 200.2 196 188.6 199.4 206.6
-1.3 -1.3 -1.3 -1.3 -1.3 -1.3 -1.3 -1.3 -1.3 -1.3 -1.3 -1.3 -1.3 -1.3 -1.3 -1.3 -1.3 -1.3 -1.3 -1.3 -1.3 -1.3 -1.3 -1.3 -1.3 -1.3 -1.3 -1.3 -1.3 -1.3 -1.3 -1.3 2.7 7.6 13.9 16 17.3 15.5 15.7 18.2 17.9 19.2 23.9 34.4 38.4 42.3 50.3 68.4 85.5 85 99.9 121.2 124.4 125.9 134.7 133.8 138.4 151.3 173.8 167.1 160.1 162.9 171.2 189 199.6 204.4 202.7 211.8 221.6 238 255.2 271.6 275 273.1 273.2 276.2 281.3 293 304.3 316.6 324 325.3 324.4 321.6 317.7 316.3 304.2 285.3 258.8 255.9 268.9 283.7 283.9 273.3 275.5 266.3 257.1 254.9 256.8 275 291.4 295.5 294.1 291.3 285 285.9 285.9 291.1 299.6 298.5 304.6 305.8 308.9 318.3 322 325.8 335.9 339.2 347.2 360.3 365.7 369 377.3 380 376.5 373.1 368.4 362.8 356.2 353.4 346.6 338.9 325.8 306.3 289.9 278.2 266.3 258.6 249.3 243.1 236.5 231.6 226.4 223.3 218.6 216.6 215.3 212.4 214.3 216.1 219.4 220.8 221.7 222.1 219.3 226.5 228.1 230.4 237.1 242.3 247 256.6 257.6 260.9 264.7 264.7 261 261.8 262.1 265.8 259.3 269.3 282.9 296.7 288.1 281.7 279.3 276.3 279 292.3 294.5 291.4 286.4 277.3 278.3 274.5 274.5 268 256.5 245.2 237.9 228.9 218.8 212.8 210.5 215.7 216.8 208.3 199.2 197.1
-1.3 -1.3 -1.3 -1.3 -1.3 -1.3 -1.3 -1.3 -1.3 -1.3 -1.3 -1.3 -1.3 -1.3 -1.3 -1.3 -1.3 -1.3 -1.3 -1.3 -1.3 -1.3 -1.3 -1.3 -1.3 -1.3 -1.3 -1.3 -1.3 -1.3 -1.3 -1.3 0.5 2.3 8.9 13.6 12.6 11.6 16.1 18.1 16.7 17 18.4 23.7 27.7 32.7 38.5 58.9 76.9 83.8 86.5 100.5 113.4 115.8 127.5 132.5 134.2 141.8 161.4 171 152.1 152.6 159.6 171.7 181.1 187.2 191.9 206.3 209.9 218.1 229.7 246.1 261.2 266.3 263.5 264.3 271.9 282.1 299.2 311.6 322.1 321.5 320.2 321.2 319.2 316.1 304.2 281.7 262.8 246.1 262.5 269 267.8 265.2 262.7 258.8 254.3 252.5 253 256.3 273.8 295.4 292.6 291.1 285 281.9 281.9 281.2 284.4 286.4 290.7 296.4 299.7 311.3 319.4 322.4 327.2 332.9 340.9 355.7 364.3 370.6 375.3 382.6 380.2 381.4 375.5 362.5 350.9 352.9 344.5 334.2 321.6 306.2 289.8 277.5 267.8 260.5 255.3 246.3 238.9 232.5 229.4 225.7 219.7 217.1 214.7 215.9 217.4 218.8 222.5 223.5 223.7 222.8 229.1 229.3 232.9 237.8 243.2 248.4 253.5 260.5 267.9 271.9 276.4 275.3 273.5 274.8 274 275.2 268.1 275.3 287.3 297.8 300.7 293.1 283.5 278.1 279.1 283.4 297.6 292.6 290 284.2 280.2 281.7 284.4 283.3 268.4 251.4 243.9 235.7 230.1 224.5 214.9 223.8 223 222.2 216.8 206.6
-1.3 -1.3 -1.3 -1.3 -1.3 -1.3 -1.3 -1.3 -1.3 -1.3 -1.3 -1.3 -1.3 -1.3 -1.3 -1.3 -1.3 -1.3 -1.3 -1.3 -1.3 -1.3 -1.3 -1.3 -1.3 -1.3 -1.3 -1.3 -1.3 -1.3 -1.3 -1.3 -1.3 -1.3 -1.3 -1.3 3.3 5.8 10.7 15.4 15.6 16.6 13.2 17.4 22.4 26.7 35 51.7 68.9 72.1 72.8 84.5 94.3 103.6 114.6 129.1 131 132.4 145.2 146.4 147.3 147.4 155.9 164.4 166.9 171.8 178.3 190.2 199.1 205.7 211.7 220.4 233.9 244.7 246.1 248.7 261.1 271.1 285.9 304.9 316.1 322.4 321.2 322.1 322.2 311.7 298 277.2 261 234.5 255.4 260.3 258.8 260.4 256.9 251.7 246.7 252.2 249.7 252.1 258 277.1 280.3 277.7 287.6 279.5 280.6 278.2 278.1 278.5 282.4 290.8 298.2 304.5 317.5 316.5 323.1 332.6 337.7 349.5 361 370.5 379.1 381.6 384.4 381.6 378 363.2 350.8 345.9 344.4 335.1 320.2 304.6 291.8 281 270 261.2 255.5 252.1 243.2 236.3 232.6 227.9 221.2 218.6 216.5 216.7 219.8 222.3 223.9 227.2 227.8 228.6 231.7 235.3 240.5 245.2 249.5 254.4 259.5 266.8 274.9 280.8 283.8 285.9 285 282.9 282.9 282.2 278.2 285.4 292.4 298.8 303.7 302.3 294.3 282.6 279.8 285.1 293 295 291.5 291.2 284.7 283.6 288.8 287.1 275.8 261.5 250.8 241.8 236.5 232.6 226.1 227.9 229.1 229.7 229.8 221.5
-1.3 -1.3 -1.3 -1.3 -1.3 -1.3 -1.3 -1.3 -1.3 -1.3 -1.3 -1.3 -1.3 -1.3 -1.3 -1.3 -1.3 -1.3 -1.3 -1.3 -1.3 -1.3 -1.3 -1.3 -1.3 -1.3 -1.3 -1.3 -1.3 -1.3 -1.3 -1.3 -1.3 -1.3 -1.3 -1.3 -1.3 3.6 4.7 5.9 9.1 13 11.1 12.8 12.3 12.6 27.8 44.2 59.3 68.9 69.5 76.6 84.1 96.1 102.9 119.8 129.4 128.1 130.3 133.5 134.2 144.3 149.3 154.6 157.1 153 164.9 171.9 184 194.5 196.7 202.6 210.1 218.8 224.3 240 248.1 257.7 274 295.3 306.9 315.6 323 323.5 317.6 306.7 288.1 271.4 255 237.1 239 254.3 252.4 250.9 245.5 245.9 244.3 247.7 247.1 249.5 253.1 259.9 276.1 275.9 278.3 271.3 280.4 277 274.7 275.4 279.1 285.5 294.9 298.9 305.9 307.7 317.2 331 333.1 343.7 361 370.5 380.9 383.3 382.1 378.6 374.8 363.3 354.2 344.5 341.6 331.3 320.6 305 289.8 280.5 272.9 267.7 260.1 255.3 249.2 242.1 234.9 230.9 223.8 219.7 217.6 220.6 223.3 229.3 234.7 239.1 235.6 237.7 237.2 242.1 247.4 250.4 255.4 259.8 265.3 273.4 279.4 287.3 289.6 294.5 295.8 290.9 290.4 288.8 288.3 289.4 299.9 306.9 303.3 302.7 299.3 290.4 287.3 291 291.7 294.4 296.7 296.3 290.8 284.4 283.4 283.9 281.5 268.7 260.5 248.8 242.3 238.6 233.6 231.4 231.7 235.2 239.4 234.7
-1.3 -1.3 -1.3 -1.3 -1.3 -1.3 -1.3 -1.3 -1.3 -1.3 -1.3 -1.3 -1.3 -1.3 -1.3 -1.3 -1.3 -1.3 -1.3 -1.3 -1.3 -1.3 -1.3 -1.3 -1.3 -1.3 -1.3 -1.3 -1.3 -1.3 -1.3 -1.3 -1.3 -1.3 -1.3 -1.3 -1.3 4.7 3.6 2.5 4.8 9.2 10.3 10.2 11.4 12 17.6 32.1 48.3 58.6 63.3 68.4 79 91 95.9 101.9 110.2 116.9 126.3 125.2 123.2 133.1 143.3 148.1 147 144.4 150.8 154.3 162.1 171.9 179.8 184 191.3 200.5 212.9 229.1 242.5 250.9 264.1 279.2 295.2 311.1 318.2 323.3 315.9 301.6 283 265 252.3 241.7 231.3 243.8 250 243.8 242.6 238.8 241.9 244.1 245.1 246.5 247.8 251.5 259.9 264.8 271.6 260.3 278.7 276.3 274 272.3 273.3 281.9 288 294.4 294.9 304.2 313.5 319.5 328.1 336.4 354.8 365.9 375.2 380.7 381.6 377.3 373.3 364.6 356.5 344.8 337.4 329.6 320.1 307.1 294.7 285.9 278.3 272.8 266.7 258.5 256.5 250.2 239.3 230.9 225.8 221.9 218.4 222.1 227.8 235.6 239.8 240.7 240.4 245.2 250 249.9 253.9 257.7 263.4 268.1 275.6 280.7 285.5 292 297.1 300.3 302.5 300.2 297 292 291.7 292.4 305.1 315.9 310.9 304.1 302.1 298.2 292.1 297.3 295 296 298.9 298.3 294.8 286.2 283.1 280.7 280.4 275.9 265 259.2 247 244.2 241.2 239.6 235.9 237.8 241.2 239.9
-1.3 -1.3 -1.3 -1.3 -1.3 -1.3 -1.3 -1.3 -1.3 -1.3 -1.3 -1.3 -1.3 -1.3 -1.3 -1.3 -1.3 -1.3 -1.3 -1.3 -1.3 -1.3 -1.3 -1.3 -1.3 -1.3 -1.3 -1.3 -1.3 -1.3 -1.3 -1.3 -1.3 -1.3 -1.3 -1.3 -1.3 5 3.8 2.4 2 3.6 10.4 7.1 7.4 13.3 15.5 22.8 33.4 41.8 53.6 59.4 66.8 80.7 93 93.9 95.1 98.3 121.6 115.3 115.1 126.2 131.3 138.2 141.4 139 143.4 145.4 148.5 154.3 164.1 167.1 174.5 187 203.3 213 231.5 243.4 255.6 270.1 283.1 295.5 310.1 314.5 310.9 295.6 273.6 259.3 252.8 246.2 223 229.7 231.9 232.6 231.5 233.7 233.4 241.2 242 243.7 245.9 250.5 252.6 259.8 259.5 255.9 265.6 277.8 274 271.7 270.6 274.4 282.7 288.9 284.8 293.2 302.2 313.1 324 330.1 342.3 353.3 364.3 377.4 383.2 378.4 368.1 363.4 357.3 346.1 338.4 332.9 320.5 314.5 299.1 289.9 281.5 275.8 269.9 264.5 259.9 253.8 244.3 234.1 226.7 224.5 220.2 225 232.5 240.3 242.4 244.6 252.8 260.9 263.4 265.4 265.7 266.3 272.7 278.7 283.9 289.3 293.5 301.4 302.1 304.5 307.4 307.5 301.7 294.7 293 296.5 306.2 322.6 319.2 310.5 302.8 303.3 302 298.9 298.5 299.7 302.2 303.3 300.1 292.3 284.5 279.6 278 279.4 271.5 262.5 256.8 248.7 250.4 248 241.1 239.2 240.5 240.5
-1.3 -1.3 -1.3 -1.3 -1.3 -1.3 -1.3 -1.3 -1.3 -1.3 -1.3 -1.3 -1.3 -1.3 -1.3 -1.3 -1.3 -1.3 -1.3 -1.3 -1.3 -1.3 -1.3 -1.3 -1.3 -1.3 -1.3 -1.3 -1.3 -1.3 -1.3 -1.3 -1.3 -1.3 -1.3 -1.3 -1.3 4.5 5.3 4.2 -1.3 -1.3 -1.3 -1.3 -1.3 14.2 14.3 16.7 27.8 34.6 38.5 45 47.4 67 78 86.1 92.5 87.1 100.3 105.5 101.4 109.5 119.9 123.6 128.9 133.4 136.2 137.2 140.9 142.4 146.1 149.6 159 178.4 195.2 208.9 217.1 234.7 251.3 269.3 274.4 286.6 298.1 304 302.5 287 267.2 253.9 247.5 245.4 233.1 221.5 219.5 216.5 219.5 227.6 229.2 231.5 232.8 239.3 243.6 249.1 250.6 253.9 259.8 251.4 254.7 276.7 276 272.3 268.2 268.6 274.4 280.6 276.7 282.6 288.2 297 310.8 316.4 325.8 337.4 358.3 363.5 378.5 380.9 372.3 361.4 356.5 342.6 335.7 327.9 323.6 316.2 308.3 293.5 285.4 278.6 272.2 267.8 261.4 255.9 249.2 235.8 229 223.4 228.8 230.7 233.3 241.5 245 255.5 261.6 268.6 275.9 278.3 280.8 280.7 284.4 289.4 291.5 294.9 302.1 305.2 306.7 307.4 309.5 311.2 302.7 294.8 293.8 297.2 304.8 322.5 323 316.8 304.7 302.8 302.4 302.2 300.4 303.5 304.6 305.9 308 297.4 286.8 279.1 274.8 275.6 271.2 265.6 262.8 259.5 255.2 255.1 249 243.3 240.8 240.8
-1.3 -1.3 -1.3 -1.3 -1.3 -1.3 -1.3 -1.3 -1.3 -1.3 -1.3 -1.3 -1.3 -1.3 -1.3 -1.3 -1.3 -1.3 -1.3 -1.3 -1.3 -1.3 -1.3 -1.3 -1.3 -1.3 -1.3 -1.3 -1.3 -1.3 -1.3 -1.3 -1.3 -1.3 -1.3 -1.3 -1.3 -1.3 4.8 5 -1.3 -1.3 -1.3 -1.3 -1.3 5.7 14.6 15.2 16 28.7 31.9 37.4 45.9 42.9 60.8 68.7 72.9 74.3 81.6 98.2 92.4 91.2 104.6 111.6 114.4 122 126.1 129.6 133.9 132.7 133.7 134.9 146.6 167.1 186 204.9 214.8 228.7 248.9 262.4 274 280.4 286.3 295.5 293.1 274.8 258.5 249.8 245.6 242.6 237 215.2 217 211 213.2 214.3 225 228.1 229 229.5 240 241.7 246.9 250 254 248.5 253 264.5 272.7 272.9 268.1 265.8 266.2 269.6 272.6 273.2 275 281.5 289 301.6 309.7 321.1 333.8 351.4 369.2 375.5 373.8 364.1 352.4 340.1 334.6 332.4 328.5 322.3 310.9 299.7 289.4 283.3 275.2 268.8 264 260.3 249.2 240.7 233 228.3 230.7 234.5 237.7 243.1 249 268.2 272.2 280.2 288 291.8 293.9 295.4 297.8 299.2 301.7 303.3 307.2 311.3 311.8 309.6 314.2 312.5 301.1 295.6 293 295.6 304 315.8 319.3 308.8 299 299.9 298 298.6 298.5 298.9 300.9 303.6 304.2 297.9 288.8 281.6 274.3 269.8 269.8 267.9 267.2 265.2 260.9 260 254.5 247 244.6 240.4
-1.3 -1.3 -1.3 -1.3 -1.3 -1.3 -1.3 -1.3 -1.3 -1.3 -1.3 -1.3 -1.3 -1.3 -1.3 -1.3 -1.3 -1.3 -1.3 -1.3 -1.3 -1.3 -1.3 -1.3 -1.3 -1.3 -1.3 -1.3 -1.3 -1.3 -1.3 -1.3 -1.3 -1.3 -1.3 -1.3 -1.3 -1.3 -1.3 -1.3 -1.3 -1.3 -1.3 -1.3 -1.3 3.8 8.4 13.9 14.8 15.3 17.7 27 29.5 30.6 38.8 43.8 45.1 43.8 64.2 77 88.1 82.6 84.9 97.3 102.8 107 112.1 119.4 123.6 120.2 130.7 134.7 147.4 161.2 180 195.7 213.8 224 237.3 255.8 266.1 274.8 278.4 279 275.8 260.6 251.3 248.9 244.7 241.6 233.5 214.9 215.3 207.5 211.7 213.7 220 222.7 225.6 228.7 229.5 238 239.8 246.2 248.7 243.8 251.2 254 262 267.5 270 263.7 262.1 262.1 270.2 265.1 266 263.5 270.6 287.1 294.6 305.7 320.9 333.8 357.2 368.8 370.3 362.7 351.5 338.8 332 329.9 330.8 326.3 318.5 304 294.4 287.1 279.3 270.4 265.8 262.4 253 245.7 236.5 233.2 232.1 234.3 239.9 244.6 257.4 270.3 279.2 290.2 299.6 304.3 306.9 308.1 307.4 307.9 312.4 313.1 313 313.8 315.1 311.8 311.7 311.1 299.5 294.8 292.7 291.8 297.3 302.1 302 295.4 290.4 287.2 291 291.4 292.4 292.4 295.3 297.7 295.1 295.6 289.8 280.4 274.3 268.2 266.2 269.4 275.7 271.9 270.4 262.5 259.5 253.1 247.6 244.5
-1.3 -1.3 -1.3 -1.3 -1.3 -1.3 -1.3 -1.3 -1.3 -1.3 -1.3 -1.3 -1.3 -1.3 -1.3 -1.3 -1.3 -1.3 -1.3 -1.3 -1.3 -1.3 -1.3 -1.3 -1.3 -1.3 -1.3 -1.3 -1.3 -1.3 -1.3 -1.3 -1.3 -1.3 -1.3 -1.3 -1.3 -1.3 -1.3 -1.3 -1.3 -1.3 -1.3 -1.3 -1.3 2.6 4.2 11.8 14.9 14.9 15.2 15.7 17.7 21 26.1 39.1 43.5 33.5 41.2 56.3 66.9 67 63.3 80.1 86.2 95.2 99.4 104 105.3 112.6 126.8 134.6 144.1 159.2 182 195 209.3 220.3 227.8 246.4 253.8 261 268.8 269 259.4 246.4 249.8 245.1 248.4 240 236 222.5 205.8 205.3 204.6 211.6 216.3 221 224.6 224.6 228.1 230.4 237 242.5 245.4 240.9 241.3 239.6 258.5 259.1 264.7 266.2 260.5 259.8 253.6 261 253.2 249.7 255.3 265.1 279.8 288.7 302.5 320.8 333.9 351.1 360 358.9 348.4 338.2 333.9 329.3 329.5 329 324.8 309.1 297.3 289.8 281.4 273.5 268.8 265.9 260.8 248.8 243 237.9 234.3 235.9 241.9 247.2 262.4 274.7 286.6 301.3 312.1 316 318.4 321.1 322 318.7 317.3 316.3 316.1 313.7 312.4 311 308.7 305.2 299.2 294.3 292.9 290.7 289.8 291 292.3 288.9 284.9 281.3 281.1 282.2 285.5 285.7 287.1 289.8 285.5 284.6 284.6 279.4 270.7 266 265.2 267.6 275.8 278.7 276.6 267.8 263.4 259.9 251 244.7
-1.3 -1.3 -1.3 -1.3 -1.3 -1.3 -1.3 -1.3 -1.3 -1.3 -1.3 -1.3 -1.3 -1.3 -1.3 -1.3 -1.3 -1.3 -1.3 -1.3 -1.3 -1.3 -1.3 -1.3 -1.3 -1.3 -1.3 -1.3 -1.3 -1.3 -1.3 -1.3 -1.3 -1.3 -1.3 -1.3 -1.3 -1.3 -1.3 -1.3 -1.3 -1.3 -1.3 -1.3 -0.7 1.9 3.8 5.4 14.5 14.8 14.3 13.9 14 12.9 14.1 19.7 23.5 23.9 24.3 32.7 38.7 48.2 41.4 48.3 62.3 75.3 83.9 87 96.6 106.1 119.7 130.7 140.3 153.3 174.4 197.9 203.5 213.2 221.2 231.7 248.5 254.1 253.8 251 247.4 236 240.4 233.4 233.7 228.2 223.5 216.2 199.9 202 201.5 204.6 210.8 220.7 222.5 219.6 226.6 227.2 230.4 236.6 238 233.3 239 234.9 244.4 256.1 257.4 265.8 263 253.8 243.2 240.3 247.6 239.9 243.2 251.3 259.1 273.4 283.7 301.5 313.6 324.7 344.3 351.7 345.5 337.8 334.8 326.2 327.1 333 324.8 309.9 300 292.4 282.5 275.4 273.3 270.2 264.9 257.3 246 241.6 239.1 242.8 243.5 250.2 266.9 279.4 299.6 313.8 321.4 328.1 330.2 334.3 332.8 327.2 320.9 316.1 313.8 311.2 308.5 306.4 305.1 301.1 293.2 291.4 289.3 288.2 287.6 284.4 281.3 280.7 277.2 274.8 274.2 274.4 277.2 277.4 276.3 280.1 276.3 276.7 278.5 278.7 268.4 262.6 262.6 266.9 273.5 278.5 275 269.4 264.1 258.6 252.2 241.4
-1.3 -1.3 -1.3 -1.3 -1.3 -1.3 -1.3 -1.3 -1.3 -1.3 -1.3 -1.3 -1.3 -1.3 -1.3 -1.3 -1.3 -1.3 -1.3 -1.3 -1.3 -1.3 -1.3 -1.3 -1.3 -1.3 -1.3 -1.3 -1.3 -1.3 -1.3 -1.3 -1.3 -1.3 -1.3 -1.3 -1.3 -1.3 -1.3 -1.3 -1.3 -1.3 -1.3 -1.3 -1.3 -1.3 2.5 4.1 8.5 16.1 14.4 13.4 13.2 12.4 11.2 15 18.1 18.7 17.3 17.4 22.2 25.6 26.4 31.2 40.6 51.3 65.5 79.6 85.4 99.5 114.4 128 134.4 145.4 162.6 186.6 198.9 202.9 210.2 224.8 229.3 237.8 245.8 242.2 238.8 226.7 226 227.7 220.8 217.3 214.6 210.7 188.8 198.6 198 199.8 204.2 211.4 218.7 215.3 222.9 225.6 226.9 229.9 233.5 229.3 231.8 230.1 231.5 246.5 253.5 254.5 260.9 258.4 241.7 224.4 233 224.4 222.8 232.5 243.6 256.6 274.3 280.7 294.5 305.3 323.1 339.9 339.7 336.4 332.2 324.3 323 326.1 320.7 308.9 297.2 290.1 283.7 284.2 280.7 275.9 269.8 262.9 252.1 245.6 245.1 245.6 245.4 259.3 272.8 296 314.1 322.2 330.8 337.2 341.2 343.7 342.8 335.8 323.6 317.7 314 308.5 305.1 301.9 300 294 288.3 290.1 287.1 283.3 281.5 277.7 272.6 271.2 270.3 270.4 269 268.5 266.3 265.5 264 266.7 269.4 266.8 271.8 272.4 266.8 260.8 261.4 265 270.2 275.2 272.4 267 259.3 253.1 248.4 240.1
