ncols 200
nrows 82
xllcorner 250000
yllcorner 723200
cellsize 50
202.8 198.4 198.4 198.9 199.4 202 199.5 198.2 201.5 204.4 202.7 204.8 211.7 212.9 199.3 204.4 212.6 221.6 235.8 238.8 241 254.9 264.3 264.4 268.5 275.9 284.9 299.3 307.8 317.6 328.4 342.4 353.7 367.1 381.4 394.5 407.1 421.8 427.3 432 443.4 454.8 457.9 468.2 488.8 500.2 496.3 491.5 486.2 482.7 482.8 492.3 491.3 476.8 463.8 438.9 423.5 418.1 410.7 405.6 396.8 385.7 375.7 379.3 380.7 371.1 370.5 361.4 366 376.6 391.9 408.5 423.6 437.8 457.3 472 492.3 508.6 526.3 533.4 540.3 552.9 560.8 576.7 594.9 594.8 588.1 587.6 592.7 587.6 583.4 559.7 549.6 552.2 549.3 538.8 539.4 543.1 548.8 548.9 542 529.5 524.2 521.1 516.6 511.6 497.8 462.9 465.3 459.6 433.4 421.2 396.4 377.1 362.5 348.2 336.5 341.4 339.2 339.5 337.8 331.7 321.4 317.9 313.1 297.7 282.3 267.7 257.5 256.8 270.1 283.7 294.5 307.9 336.1 363.1 379.3 423.8 438.8 460.8 475.7 484.7 489.4 493.2 508.1 531.5 568.6 596.8 613.3 613.2 630.5 618.3 623.4 616 639.5 640.5 651.2 641.2 635.6 621.6 610.9 597 585.8 575.4 575.5 579.2 588 594.1 594.6 597 598.3 596.7 595 596.9 598.2 600.8 602.4 606.4 608.3 611.5 611.1 612.3 610.3 609.1 612.9 623.6 628.3 632.5 611 605.5 610.6 604.7 592.1 588.5 549.9 524.8 507.3 497.6 498.4 500.2
201.6 207.1 206.5 206.3 207 209.4 206.3 205.8 209.7 210.1 207.1 208.7 212.4 205.3 204.7 207.9 221.3 232.1 244.9 245.6 248.9 259.7 267.7 270 277 285.4 295.5 308.5 316.4 332.2 341.6 354.1 367.1 380.8 397.8 410.2 424.3 436.5 439 448.8 464.3 474.6 486.8 497.9 494.7 504.7 511.7 507.9 493.7 491.2 492.4 499.5 501 484 471.1 445.8 432.6 426.8 414.5 414.6 407.4 394.9 386.1 388.6 379.6 373.9 376.8 364.2 369.7 378.7 393.6 409.8 423.3 443.1 461.3 475.1 492.7 508.6 524 531 544.2 551.6 565.3 580.5 594.7 596.3 598.6 603.7 599.3 593.5 589 578.4 565.1 561.6 552.6 546.9 544.4 549.1 550.5 551.9 546.4 541.5 535 527.9 525.8 511.2 499.5 494.9 480.4 473.4 441.4 422.6 404.8 396.4 379.5 358.1 352.2 356.3 353.6 351.2 349.8 343.5 339.1 334.8 331.6 317.3 289.7 268.5 256.7 252.3 256.2 268.9 281 295.7 317.5 342.4 362.8 376.6 405.9 432.4 456.9 465.2 476.9 484.4 492.1 513 535.9 560.5 566.4 583 593.3 598.5 595.8 604.1 604.7 619.7 625.3 624.6 620.4 609.2 599.9 595.1 589.3 577.1 572.9 576.8 583 590.7 593.6 593.6 593.4 589.6 589.5 592.7 592.5 596.9 599.8 601.4 604.5 607.4 609.6 609.8 609.2 608.5 610.8 618.7 628.3 618.6 610.2 613.5 612.8 606.8 584.3 590.2 546.8 520.8 513 501.7 495.9 495.9
208.8 210.5 213.7 213.8 214.3 214.2 214.3 215.2 218.5 211.9 213 221.2 210.2 218.8 210.9 217.6 227.4 242.8 248.5 252.3 255.2 269.4 272.5 273.1 284.1 295.9 305.3 316.5 328.5 341.2 357.5 365.1 379.8 401.7 414.4 422.1 437.9 449.7 455.8 467.5 484.1 497 519.1 525.9 527 511 519.7 507 504.2 502.1 502.9 502.6 502 490.6 477.4 454.8 439.9 436.8 423.6 420.6 410.3 399 401.9 390.5 384.7 379.8 376.8 370.3 374.9 382.2 398.2 409.4 424.5 440.9 458.3 478.8 495.8 508.3 522.9 542 542.9 550.6 566.1 581.8 594.5 600.4 610.2 614.6 614.2 595.1 600.2 598.3 589.3 572 555.9 558.4 560.2 549.5 551.4 550.8 556.1 550.5 541.2 532.9 530.8 521.4 520.3 502.5 486.8 472.8 450.4 427.9 429.7 425.4 405.8 377 366.7 371.9 370.4 367.7 365 356.9 352.9 346 343.1 326.8 300.4 277.7 259 251.7 250 257.3 266.2 278.8 294.1 314.8 340.4 356 383 410 414 434.7 462.5 469.1 468.2 497.3 516.8 529.6 539.3 540.8 550.6 550.8 561.2 581.8 597.8 600 602.5 601.7 604.1 597.4 596.9 593.3 585.7 579.5 571 573.7 579.7 586.6 589.6 590.3 589.4 585.5 582.7 586.3 589.6 592.4 595.8 597.1 600.6 602 605.7 608.4 608.8 611.2 615.3 620.2 619.5 617.8 616.9 617.3 614.3 613.3 582.3 581.6 539.4 523.3 515.9 506.1 496.6 493.3
215.5 217.7 223.1 220.8 220.1 218.8 223.6 220.7 216.7 219.7 221.2 221.1 216.2 226.5 219.4 226.4 237.3 247.9 258.7 257.7 263.1 275.4 276.4 280.3 291.5 305.9 321.9 327.7 337.8 353.5 365.7 377.5 393.3 412.6 425.8 435.8 452 462.2 474.8 488.7 511.1 531.2 536.3 541.8 542.8 522.7 520.7 522.7 514.7 514.6 510.8 504.7 502.3 493.2 480.7 464.4 445.9 440.6 428.3 422 410.5 408.6 402.6 396.8 388.5 383.8 376.8 370.5 376.6 385.9 399.2 411.5 422.2 438.2 459.2 483.8 505.4 518.3 523 538.2 541.9 555.8 572.9 581.7 594.8 607.3 613.7 620.9 616 606.3 603.6 605.5 603 582.2 567.9 566.7 563.3 555.4 554.9 554.1 556.7 552.8 550.3 539.6 528 533.3 523.7 505.7 487.2 469.8 448.6 440.3 439.8 431.9 422.5 387.8 377.8 385 382.2 378.5 368.7 372.8 365.3 359.9 359.2 336.9 325.3 295 270.3 256.9 249.2 250.3 254.5 261.6 270.8 284.6 305.1 330.7 352.8 373.6 387.2 404.7 419.6 446.4 432.5 467.3 508.2 517.4 517.5 529 512 518.1 529.4 568.3 577.8 587.8 586.5 586.7 589.2 588 590.5 592.1 586 575.3 569.1 572.1 576.6 585.4 588.3 589.4 587.6 583.3 579 581.6 584.2 588.7 590.6 595.1 596.6 597.5 604.4 609.8 609.7 612.1 618.6 621.5 617.9 617.9 618.6 617.5 616.6 615.6 599.5 556.1 535 531.9 519.8 511.4 501.3 494.3
224.9 228.9 232.2 228.5 225.1 229.3 229.8 221.9 224.5 224 227.2 225.1 223.2 228 227.4 239.3 248.1 255 264.1 265.8 271.4 279.9 281.4 289.4 304.7 314.6 327.6 335.9 348.3 361.8 377.7 391.2 404.8 421.6 436.8 449.5 466.3 479.8 501.1 514.8 539.1 548.5 550.5 557.8 554.7 529.7 529.4 531.2 526.1 529.3 515.4 510.8 506 496.9 477.6 464.5 451.9 439.9 429.1 425 415.3 410.3 404.1 400.3 394.2 385.8 377.1 374.4 380.9 388.7 400.5 413.4 422.5 438.3 459.1 482.1 502.9 518.5 530.9 535.2 540.6 557.6 576.5 592.3 595.6 606.8 619.1 618.2 616.4 620.5 618.9 606.2 608 595.4 581.4 574.4 568 566.7 568.9 562.3 557.3 553.7 551.7 544.3 536.8 536.3 531.2 511.2 490.5 471.1 461.6 455.9 453.4 441.3 433.7 397.3 386.2 394.6 389.5 383.1 376.1 377.6 376.1 364.9 362.8 349 338 318.4 290.2 265.6 253.2 246.6 247 250.3 255.7 265.9 283.3 301.8 323.5 347.8 373.2 395.5 404 407.8 403.3 418.4 446.2 487.3 493.4 486.3 462.7 485.3 506.4 527.2 541 557.3 573.5 570.1 582.1 582.5 580.9 581.7 578.5 570.3 567.5 569.5 574 580.6 583.3 585.9 583.5 579.6 576.1 577.6 580.9 586.3 588.1 591.3 592.5 596.4 602.5 608.4 611.1 613.7 618.2 620.9 622.7 619.8 617.1 618.2 616.9 614 576.7 552.9 532.5 523.5 520.4 514.9 504.7 496.7
235.7 237.7 237.6 235.1 231.4 234.3 232.2 231.3 234.1 232.2 233 238 229.4 229.1 239.6 243.7 255.6 263.3 269.4 272.9 281.6 286.4 292.2 299 309.5 323.7 335 346.1 362.2 375.4 391.2 404.2 420.8 433.5 447.9 468.5 482.4 509.4 524.1 534.1 556.3 565.1 566.4 568.2 553.4 547.2 545.7 536.1 533.2 536.6 522.3 513.3 509.4 495.3 484.4 467.8 455.2 444.8 436.1 429 418.8 412.1 407.7 402 396.6 386.9 376.2 379.2 383.1 390.4 402.4 414.5 425.8 439.3 458.7 485.7 501 517.9 528.6 538.5 549.7 555.3 573.6 590.4 596 602.9 615.6 624.2 629 629.9 627.8 609.5 609.7 598.6 587.7 576.8 578.3 586.9 570.8 570.5 564.7 556 549.1 547.4 547 544.1 536.6 517 491.5 482.3 477.9 474.5 458 453.1 446.5 415.1 398 399 392.7 385.2 386.8 391.3 387.7 371.9 371.1 366 356.5 343.8 318.1 287.1 265.1 251.1 245.1 247.4 249.6 255.1 264.7 280.5 302.4 322.5 332.9 364.3 371 378.6 380.2 383.9 395.8 412.7 421.8 437.4 432.2 451.7 476 502.4 506.2 527.7 540.7 556.6 569.4 576 576.7 576.2 572.2 565.6 562.8 565.2 570.2 573.3 577.2 579.9 579.7 578.3 574.9 574.4 578.8 584.2 586.7 587.7 591.7 595.3 600.5 604.9 609.6 614 616.4 621 631.3 633.1 619.1 617.5 614.1 601.1 580.2 557.5 541.8 533.2 521.8 512.4 504.3 497.5
245.9 243 248.4 241.9 239.2 238.9 241.9 240.7 242 241.4 244.7 246.3 237.7 239.8 242.1 247.7 261.8 264.9 272.1 277.5 282.9 290.1 301.1 311.1 317.3 332.5 342.3 360.5 373 387.7 402 418.2 429.9 444.6 463.5 484.7 508.6 525.7 540.5 552.4 570.8 579.2 577.8 567.5 563.5 569.7 549.4 541.9 540.7 540.4 521 516.9 507.1 496 482.8 467.4 457 448.6 440.5 432.8 422.8 413.7 410.5 403.4 397.4 386.9 382.8 380.8 385.3 392.6 402.1 414.7 426.2 441.5 460.4 481.3 499.9 512 527.6 544 547.9 557.3 571.9 585.6 595 602.3 617 630.2 640.1 641.7 635.1 619.2 606.9 602.5 597 585.1 589.6 586 571.6 569.4 565.3 558.6 557.1 552.1 552.4 552.4 531.1 515.9 507.7 499.7 494 475.8 461 456.6 446.6 428 401.5 400.7 396.6 394.2 399.5 400.9 403.9 387.7 378.9 380.8 375.1 357.8 346.9 313 287.1 275.7 261.6 244.2 244.9 247.9 254 260.5 274.8 294.8 311.7 320.5 340.9 360.8 372.5 360.9 361 375 382.2 391 402.9 422.3 443.1 464.6 482.9 511.6 526.3 536.3 553.5 568.7 568.7 568.8 564.9 563.1 561.4 561.4 565 569.1 571.3 573.3 577.1 576.5 571.3 571.9 576.5 582.4 583.4 586.4 589.8 592 597.7 601.9 607.9 613.3 617 622.8 629.9 635.8 631.7 612.9 606.5 593.3 581.4 563.7 554.3 539.7 532.1 515.2 507.4 498
250.1 251.4 251.9 249.6 247.5 248 249.7 249.1 251.6 249.8 251.2 256.5 248.5 247.7 251.4 253.8 262.1 273.5 278.9 286.9 290.5 300.5 306.1 312.9 327 340.7 351.5 367.1 378 389.7 407.1 426 440.6 450.5 474.4 499.3 518.1 534.7 549.7 565.4 575.5 585.6 584.8 578 585.2 566.8 566.5 566.4 545.9 536.8 522.5 515.6 508.5 495.6 483.4 472.3 463.2 454.2 447.5 439.9 427.8 417.2 415.1 405.8 396.6 390.6 387.3 386.2 385.6 392.5 401.7 411.7 425.3 442 459.8 481.9 498.3 509.9 524.1 536.8 544.6 558.5 569.4 587.6 601.4 612.6 617.5 630.5 645.8 651.6 637.1 629.4 608.1 609.2 606.6 603.8 594.1 584.1 570.5 565.1 566.9 568.8 560.5 554 555.2 547 539.1 537 520.5 516.5 503.2 491.7 467.7 457.2 455.7 438.1 406.4 404.9 401.5 406.3 410.4 408.8 411.5 397.4 387.4 392.3 384 376.1 373.2 347.1 311 289.2 281 261.4 245.9 243.7 249.9 251.8 254.7 270.9 287.6 296.5 308.2 337.3 337.5 335.7 331.1 343 353.8 362.9 377.6 393.1 412.6 435.8 457.8 485.4 505.6 530 526.2 550.9 554.8 558.5 559.1 560.1 559.9 559.6 563.3 566.7 567.8 570.6 572.1 571.2 568.5 568.9 573.6 578.6 580.4 583.5 586.7 590.9 593.6 597.8 603.7 609.1 614.8 621.7 633.5 638.2 635.5 617.7 602.4 590.1 579.7 567.4 558.5 552.9 544 526.7 509.4 500.2
257.7 264.1 258.9 257.4 259.5 258.8 258.1 259.7 261 261.1 265.3 258.8 259.5 258.4 263 266.7 269.3 279.3 288 291.9 296 306.6 313.7 324.1 332.3 347.2 359.5 372.9 383.1 396.4 409.7 427.1 443.4 459 478 501.9 524.7 543.1 554.9 572 574 586.9 589.1 594 592.5 577.8 581.2 576.1 549.7 539.4 528.8 518.7 510.1 502.4 487.9 479.7 471.4 462.4 455.1 443 430.8 422.2 415.6 410.3 401.2 395.5 392.3 390.8 387.6 391.9 400 410.3 422.6 442.1 458.9 483.8 494.2 512.5 522.9 531.1 545.7 560.8 570.2 591.7 604.1 618.4 629.4 632.1 646.4 653.4 639.7 623.1 615.9 612.3 608.7 606 596 585.5 570.6 569.8 570.7 571.8 564.1 557.7 555.5 551.6 553.5 545.4 536.5 529.4 520.2 506.6 489.3 462.7 451.7 437 421.4 407.3 410.8 410.7 414.1 416.2 415.1 402.1 398.1 401 398.9 398.4 396.5 378.4 335.2 307.4 292.3 284.3 263.3 241.5 244.6 249.2 249.7 252.7 270.1 279.2 290.4 300.6 313.1 314.7 309.4 316.3 330.1 335.6 352.6 370.2 390.1 415.5 434.7 455.1 476 492.1 500.1 513.4 534.8 546.4 548.4 553.7 556.1 558.2 561.3 564.8 566 567.2 567.4 566.7 566 566.1 569.7 574.1 576.6 580.2 584 587.8 589.7 595.6 599.5 605.2 612.4 623.3 633 639.3 636.2 621.8 600.9 591.8 582.6 575.7 564.5 560.5 557.2 538.9 521.9 509
267.7 270 269.5 267.1 270.2 274.8 269.9 270.4 270.8 270.6 271.9 271.6 268.3 267 273.9 277 273.3 283.1 292.4 298.5 301.7 310.3 322.9 331.3 339.5 347.1 359.8 378 390 404.5 418.8 431.7 446.4 465.1 485.7 507.6 527.7 545.1 557.4 566.2 571 583.1 589.9 592.3 583.8 589.2 589 572.4 552.3 546.5 535.4 526.8 519.8 508.7 496.5 486 478.8 470.4 463.5 454.7 445.7 435.8 425.8 416.2 411.2 407.4 401.1 396.3 392 396.9 399 408.7 422.5 440.7 456.4 473.6 492.8 509.5 525 532.7 552 561.1 574.1 590.6 609.2 623.3 627.9 640.5 645 640 631.5 633.4 630.7 620.7 610.8 609.2 603.4 587.1 580 579.9 576.1 575.3 564.8 562.5 559.1 556 554.2 551.4 544.5 539.7 521.8 514.5 500.7 477.7 453.1 443.7 428 415.7 418.4 421.4 425.5 419.7 419.6 407.4 408 407.7 413.6 420.9 418 413.8 358.6 331.2 316.3 300.3 282.8 258.8 238.6 245.1 250.2 246.9 251.9 259.7 268.3 278.9 291.6 297.7 297.8 292.7 307.3 320.5 340.4 354.7 373.4 392.8 409.3 428.6 446.1 462.4 480.4 486.7 508.1 525.5 528.8 534.2 550.7 558.6 564.8 565.3 564.8 564.6 563.9 564.1 563.2 563.2 565.1 568.7 574.5 577.5 581.5 584.7 587.7 591.1 596 601.7 609.3 620.9 629.1 632.6 627.8 616 603.8 596.7 586.2 577.9 572.5 568.5 564.5 554.6 529.2 520.7
282 283.2 281.3 279.8 281.6 282.7 282.1 284.2 280.8 286.4 281 278.8 278.6 277.1 281.5 282.7 284.3 289.3 298.2 304.5 310.1 318.9 328.7 337.1 346.9 358.6 368 380.2 393.4 408.9 422.6 434.6 446.8 468.4 481.6 503.3 526.2 542.5 559.1 560.5 569.5 574 586.3 590.5 584 594.4 592.3 581.6 559 553.3 544.5 542.3 526.9 514.5 503.5 494.7 481.2 478.9 469.8 463.4 458.4 450.8 440.3 434.5 422.4 418.4 411.4 404.3 395.6 402.7 401.3 409.6 420.2 439.2 454.7 474.4 487.5 506.7 523.9 533.6 549.9 565.9 579.9 594.8 607.9 617.9 627.1 641.1 643.6 637.2 636.6 640.5 634.6 627.7 620.8 617.6 604.8 592.7 588.6 589.4 584.3 582.5 577.8 569.7 570.7 564.4 560.8 561.8 554.5 547.9 531.4 523.6 513 492.5 467.7 450.2 434.1 419.8 422.9 429.4 432.2 426.4 417.6 418.6 416 421.3 431 443.3 440.2 440.3 407.2 369.3 342.2 325 298.7 285.4 261.5 238.1 245.2 243.3 241.4 243.7 247.5 256.9 266.8 271.6 273.7 269.4 290.2 306.6 319.2 341.4 358.4 371.9 384.3 403.2 421.8 436.7 459.4 466 480.3 495.5 503.6 526.3 548.4 558.4 567 568 564 563 560.5 560.2 560.5 560.8 562 565.4 570.4 574.9 578.8 581 585.3 589.3 593.1 597.2 605.9 614.1 621.2 621.6 617.5 613.7 602.5 600.1 596 585.6 584.3 576.6 570.3 550.8 532.8 527.7
297.4 292.9 292.3 292.5 293.4 297.1 292.7 292.1 294.6 296.1 291.2 289.7 292.1 289.6 292.2 296.3 287.2 297.8 305.3 310.3 318 324.5 332.3 341.4 353.3 368.3 378.9 391 393.4 411.4 425.7 442.4 451.8 468 477.7 493.2 518.4 534.2 546.6 549.1 563.2 570.2 580.7 581 591.2 594 596.2 587.2 576.9 560 557.1 557.5 543.6 532.5 512.7 501.3 492.3 486.2 480.4 470.4 469.9 463.6 460.7 453.6 439.3 426.9 417.7 411.4 400.7 405.8 402.7 411 418 433.6 453.7 473.4 490.6 502.5 523.9 541.1 560.1 576.7 592.2 603.4 616.1 622.7 635 644.4 649 650.6 646 649.6 642.8 635.6 623.5 614.1 614.7 606.8 595.1 592.8 591.6 588.9 584.2 577.7 576.8 574.8 571.9 563 557.3 550 548.7 537.1 523 495.3 476.3 455 439.3 424.7 427.9 433.2 437.7 435 432.4 427.7 427.7 434.1 441.6 459.8 461.8 457.3 443.1 412.9 368.7 362.1 320.9 294.6 283 261.7 234.8 236 234.9 231.6 227.5 231.4 235.7 242.1 246.4 251.3 268.7 286.5 302.4 319.7 337.9 351.6 363.9 381.9 397.3 417.6 436.7 451 463.6 480.1 496.5 523 547.6 563.1 570.3 569.6 562.7 559.6 558.3 557.8 557.4 557.6 559.6 562.1 566.7 571.4 575 577.9 583.2 586.9 590.6 594.2 598.3 606 609.2 614 611.7 604.4 602.4 600 593.1 590 590 587.1 568.4 551.1 537.4 529.7
301.2 302.8 304.2 306.5 308.9 309.5 304 306.4 306.7 307.6 306.4 302.5 303.7 305.3 301.9 296.8 300.4 306.1 310.9 315.7 322.5 330 339.5 348.8 362.8 372.3 384.8 391.1 402.4 413.2 425.7 443.6 455.3 465 480.7 497.9 511 522.7 535.4 542.6 557 567.5 573.4 576.3 589.2 591.3 593.1 589.7 588.7 572 564.6 564.1 557.2 543.4 529.9 514.1 504.5 500.1 494.5 485.9 480.8 475.4 468.5 461 449.7 434.4 425.4 417 409.2 409.8 405.6 411.8 418.5 432.5 450.9 468.9 489.7 509 526.4 543.8 560.5 582.4 595.4 606.1 617.4 625.7 631.3 642.3 658 661.4 660.1 651.8 648.1 639 628.4 621.2 626.2 619.4 604.9 598.7 594.9 591.1 586.4 584.7 586.6 580.7 580.3 570.6 561.4 560.5 552.8 540.5 522.4 509.3 488.8 476.7 443 431.9 435.6 440.8 440.1 441.2 438 441 441.6 448.9 455.9 466.6 474.5 474.6 458.7 429.8 390.2 382.5 369.1 318.5 295.4 282.3 256.6 228.9 230.4 221.4 213.9 211.2 218 222.9 233.1 233 252 265.2 279.4 299.4 313.1 328 345.9 365.3 382.6 402.9 417.3 435.2 448.7 470.6 487.9 521.7 541.4 561.8 571.3 569.7 561.1 557.8 557 555.3 556.2 553.8 556.6 559.3 563.4 567.7 570.5 574.5 580.5 585.1 587.7 590 593.2 598.2 604.5 606.9 607.4 601.7 597.7 596.7 594.7 592.1 591.7 590.6 576.6 558 545.2 536.6
313.1 315.5 316 321.1 320.3 318.5 316.7 316.3 318.5 316.8 315.7 315.3 313.5 311.1 304.5 299.7 307.6 311.1 318 323.8 329.6 337.3 343 352.2 362.6 376.4 390.8 401 406.3 422.9 427.8 440.7 455.4 465.8 481.1 495.8 506.2 522.6 530.8 543.4 554.7 563.4 568.5 574.9 587.7 591.8 593.7 592.3 591 576.8 571.2 568.4 564 551.1 531.9 522.3 513.5 504 496.5 491.7 488 482.6 477.1 465.7 456.7 443.4 431.1 422.5 413.9 411.6 409.5 419.3 427.8 435.3 451.5 471.4 488.1 509.9 525 544.4 560.6 583 598.5 610.4 618.5 623.3 632 644.6 656.6 666.1 670.6 662.6 649.9 647 638.2 629.7 633.8 629.2 612.1 601.6 598.7 598.6 598.3 600.7 602.2 589 589.3 582.4 573.8 560.8 554 539.1 526.2 519.5 508.6 500 450.4 441.8 439.5 445.7 446.7 446.5 448.2 452.3 453.5 468.5 471 477 484.5 491.3 474.8 444.4 421.2 400.9 397.3 376.5 312.9 292.1 278.4 247.7 223.4 212.6 204.9 203.7 207.9 208.8 215.2 220.5 227.8 250 264.9 280.8 289.7 308.9 327.2 346.9 378.2 383.5 397.2 416.9 431.9 457.6 472.4 518.2 532.6 554 568.7 569.5 559.5 554.4 552.4 554.6 554.7 552.5 554.7 556.8 560.2 563.6 566.7 571.8 576.8 581.3 584 587.9 591 593.3 598.3 602.2 598.5 597.5 595.7 593.7 595.9 593.8 591.4 583 577.7 568.2 556.2 542.3
328.7 326.8 329.8 331.3 329.2 330.9 331.6 330.1 328.3 330.3 329.3 330.7 323.2 318.9 315.3 301.8 312.4 319 323 330.6 337 342.9 351.8 359.9 370.3 381.9 396.1 410.9 415.8 436.3 441.4 445.4 450.4 468.4 477.9 492.7 498 514.7 527.6 537.1 552 562 566.9 576.6 587.1 592.8 596 599.8 596 584.4 576.5 571 565.2 558.2 542.4 529 516.5 506.7 500.9 492.8 489.8 486.6 478.6 471.9 459.5 448.3 437.5 425.1 419.2 417.7 416.2 418.8 425.5 439.9 451.5 468.6 488 509.2 524.8 541 561.4 582.2 600.6 617.1 617.7 628 639.9 654.1 655.8 666.6 672 659.1 657.8 659.9 645.1 641.8 635.4 633.5 623.2 612.5 606.5 607.8 613.1 615.6 614.9 602.5 595.7 593.9 584.7 565.3 551.8 545.8 537.5 528.4 515 508.3 466.1 454.9 449.4 453.8 452.9 449.6 457.9 461.2 465.1 480.7 481.5 485.4 497.9 501.6 490.7 462.9 438.8 414.4 415.1 400.9 354.8 306.2 285.6 266.4 241 216 204.2 200.3 199.1 202.3 206.1 207.2 210.3 225.8 243.6 260.8 269.9 288.3 306.7 328.5 346.5 365.7 380.5 401.6 419.1 446.3 464.9 495.9 526.6 547.7 564.2 561.5 556.7 553.2 549.7 549.5 550.6 549.9 552.8 554.4 556.9 560 563.2 567.9 572.5 576.2 579.9 584.2 587.1 589.4 593 594.3 593.4 593.1 593.3 591.9 594 592.3 588.7 583.8 576.7 566.5 561.3 543.8
341 341.5 342 339.2 343.6 344.1 340.3 341.2 342.1 337.6 337.7 329.6 324.8 322.4 320.1 311.8 314.7 321.8 327.6 334.2 342.7 350.9 357.8 366.1 375.8 388.1 401.2 417.2 426.1 442.8 456.9 456.6 464.2 468 478.3 491 503.2 514.5 524.4 534.2 546.9 557.2 567 577.3 587.2 594.6 600.9 604.5 601.4 595.7 584.6 579.1 568.7 558.5 546.8 529.4 517.8 515 500.9 493.7 491.3 484.8 478.2 470.9 461.6 451.2 440.5 430.4 426.1 423.1 419.3 420.6 429 440.7 452.9 470.1 490.4 506.1 522 540.1 562.9 582.3 601.8 612 615.4 632.9 647 656.5 665.7 667.8 676.7 672.1 668.9 659.2 659.2 656.9 643.7 627.1 625.7 616.4 617.2 617.9 628.8 629.6 625.9 613.2 601.7 598.9 593.8 577.4 556.8 552.3 548.7 539.7 522.1 510.8 483.4 460.5 458.3 461.1 458.8 457.1 463.1 468.4 477 490.7 491.8 499 505.4 512.1 511 488.9 459.6 432.7 427.5 423.1 391.4 343.5 294.2 274.6 252.3 230.7 213.9 204.2 197 194.4 197.5 198.5 198.1 203.6 215.6 234.8 250.1 266.7 286.8 309.6 329.2 344.8 363.3 387.4 405.9 427.1 458.9 483.8 516.8 544.9 556.1 557.1 552.4 549.1 543.9 545.8 547.1 549.5 550.6 552.4 554.5 557.3 559.6 563.9 568.5 572.2 575.6 579 582.2 586.1 588 589.3 590.6 589 590.3 590.2 591 590.9 589.6 588.5 581 566.2 561.1 551.6
349.9 356.4 355.2 353.5 358 357 355.2 356.6 352.5 345.8 343.4 336.2 330.5 325.1 322.1 317.1 312.9 322.6 327.5 336.7 345.5 354.7 364.1 371.6 381.9 392.9 406.8 419.7 435.7 452.1 464.6 466.7 475.1 479.2 488.1 487.2 502.8 515.3 526.6 538.7 547.2 559.1 569.9 578.4 589.2 600 608.6 614 619 616.3 595.6 589.8 579.6 565.6 551.6 540.4 528 517.3 512.1 504.5 495.1 483.8 475.9 468.7 460.3 452.7 443.4 434.7 430.1 426.6 419.5 423.3 431.5 444 454.7 473.6 488.9 506.4 520 539.8 560.8 580 596.3 607.9 617.4 637.2 650.3 663.9 679.7 684.5 680.8 684.5 668.6 665.5 661.3 660.3 640.9 639.9 627.6 627.2 625.2 630.8 637 635.4 638.3 634.3 610.7 600 592.5 577.9 565.7 560.2 556 544.5 529.1 521.5 496.5 467.7 466.3 469.1 465.7 466.9 469.1 475 486.4 499.2 499.9 503.8 510.8 529.6 528.3 509 493.4 449.9 445.9 435.9 415.7 350.8 309.6 277.7 252.7 234.6 220 212.2 204.3 199.4 192 191.2 191.5 191.8 200 214 231 249.3 266.6 290.1 308.2 332.3 349.2 369.4 392.6 419.6 456 480.8 506.2 535 552 552 544.4 540.5 537.8 537.7 543.9 547.4 548.3 549.7 551.4 553.3 555.2 558.5 562.5 566.4 570.5 574.6 577.7 581.1 584.1 586.3 588.1 588.1 588 587.8 588.5 588.4 588.9 590.3 586.2 569.6 563.3 557.1
364.8 368.4 368 370.6 369.6 373.6 372.4 368.4 362.8 359.3 344.7 338 331.9 328.3 328.2 321.3 314.5 326.4 330.7 339.8 348.1 356.2 368.4 376.7 385.5 396.4 409.3 430.1 445.6 464.3 477.9 480.8 488.2 492.1 498 504.3 507.5 512.8 526.9 539.9 549.4 564.1 570.7 582.5 594.7 606.1 618.2 627.5 633.8 625.9 609.3 598 587.1 573.8 555.7 547.5 538.4 522.8 514.3 504.7 498 489 477.9 467.4 459.5 453.8 446.1 440.3 434.8 430.4 423.7 431.4 436.8 448.6 461.3 475.4 491.6 507.2 519.2 536.6 558.3 578.1 593.4 606.5 622.3 637.3 651.6 674.4 686.6 694.9 692.3 682.4 673.6 672.6 671.3 654 654.1 654.3 636.7 636.1 640.3 642.2 648.8 649.2 650.2 651 625.8 602.5 592.9 585 580.1 575.5 553.8 546.1 535.6 528.8 502.1 473.6 478.5 482.4 482.4 482.2 478.3 485.8 491.4 502 507.9 513.6 525.2 534.9 534.7 523.7 505.5 476.8 462.2 448.6 430.9 371.4 329.7 293.7 265.4 248.4 238.9 225.6 213.1 202.7 195.9 189.1 187.6 186.8 187.1 194.5 215.3 236.8 250.8 271.4 297.1 315.9 332.6 357.5 378.6 399.8 434.4 469.2 502.7 515.6 543.6 544.8 537.8 530.9 530.5 536.1 541.2 544.8 545.8 547.1 548.1 549.4 551.7 554.8 557.2 562 565.7 569.8 573.7 576.5 579.9 582.6 582.6 584.4 583.6 584.2 585.3 587 587.4 591.3 591.8 583.6 565.7 556.9
380.6 390.7 386.6 383.8 384 387.8 394.5 389.6 378.5 368.8 350.2 334.1 330.8 329.2 328.2 324.6 322.5 327.4 335.2 343.3 352.9 363.1 370.4 381.1 390.5 400.8 414.1 432.7 451.4 465 483.5 492.5 501.2 505.7 510 517.3 524.9 524.5 523.9 541 556.4 565.1 575 587.4 600 611.2 626.5 637.8 634.7 628.7 617.7 605.8 588.2 574.1 558.1 547.4 534.6 524 514.1 514.6 509.7 496.7 486.4 470.6 461.5 455.4 447.9 442 438.1 434.7 426.6 435.3 439.3 452.1 464.9 477.9 492.6 509.1 524.2 536.5 553.5 572.9 594.3 602.3 621.4 637.1 659.8 677.9 693.1 698.9 702.4 684.8 679.3 675.7 673.4 667 660.9 656.7 647.2 647.8 653.7 659 659.5 660.4 660.3 664.2 644 607.6 599 593.5 588.8 578.7 564.8 545.9 533.4 526.2 500.2 480.9 490.8 491.1 496.3 497.3 490.7 491.3 500.9 509 513.6 527.3 534.5 544 544.4 533.3 511.2 494.6 486 469.2 443.5 421.5 348.3 319.9 290.7 265 250.6 234.5 222.1 211.6 199.1 192.1 187.9 186 185.3 188.4 201 216.7 236.5 260.1 281.7 301.4 317.8 332.1 364.5 393.9 419.7 465.7 493 498.9 522.5 533.7 525 520.4 524.4 531.4 538.8 542.1 543.2 544.3 544.6 545.6 547.1 549.4 552.5 557.4 560.8 565.5 569 571.9 573.7 576.8 579.3 580.3 580.9 582.4 583.7 584.5 587.9 590.1 591.4 589 573.4 559.3
393.2 403.4 407.5 397.2 395.4 401.2 404.2 395 375.7 366.1 351.8 335.5 336.9 336 333.4 332.1 333.2 336.8 336.5 347 355 365.4 372.5 382.5 393.9 403.9 417.8 437 451.7 462.7 476.2 493.9 507.1 517.3 522 529.4 536.6 539.5 542.4 541.1 560.2 571 582.4 594.9 606.4 620.5 638.5 644.5 636.3 631.5 623 614.4 595.4 574.9 562 548.9 534.7 521.2 517.1 517.5 512.1 502.3 490.9 477.2 464.9 458.9 448.9 446.2 443.3 441.4 433.5 439.5 440.1 448.6 464.6 478.2 491.5 507.7 525.4 538.8 549.6 569.7 588.1 605.9 624.5 641 662.8 686 700.3 707.6 713.4 703.9 683 680.2 672.7 675.3 670.3 665.8 660.9 664.3 666.2 668.5 666.9 668.4 673.1 677.9 662.8 624.1 604.6 602.4 596.4 584.6 567 560 540 523.6 512.3 496.8 504.3 501.9 502.6 504.4 503 499.9 506.9 520.1 522.3 530.4 540 551.7 552.4 546.9 526.2 497.1 494.6 488.6 449.7 433.9 378.8 351.1 316.7 284.5 267.5 245.7 240.8 230.7 212.5 196.6 189 185.9 185 184 192.4 201.4 222.8 246.1 266.7 288.6 302.9 317.3 348.5 391.7 419.9 457.3 480.4 479.1 492.1 511.1 511.6 503.4 517.2 522.5 534.4 537.3 539.5 541.2 541.5 541.7 543.2 544.5 547.9 552.8 555.9 560.9 563.4 566.3 568.5 571 573 575.1 578.6 579.4 583 584.6 586.1 589 590.3 588.1 577 566.1
404.5 417 427.3 427.2 408.5 406.7 405 390.9 373.9 362.3 352.3 350 346.5 341 340.6 342.2 339 338 341.3 350.6 360.7 370.6 376.3 384.5 396.6 405.7 416.9 430.9 446.1 463.7 479.9 499 511.5 522.1 530.7 541.7 546.4 549.3 556.9 560.1 563.7 576.2 587 598.3 610.7 627.5 641.7 648.9 640.3 637.1 627.9 617.6 601.1 579.4 570.8 554.7 543.6 533.2 522.7 517.4 514.9 504 495.1 482.9 469.3 464.3 456.8 451.3 446.6 443.9 439.3 444.2 448.4 455.1 466.9 479.9 490.2 508 525.9 539.5 550.3 565.4 586.3 617.4 632.4 645.5 665.8 689.2 706 715.2 711.8 714.2 693.1 685.7 676.5 681.4 678.6 673.9 683.5 679.3 678.2 671.8 676.3 681.1 683.6 684.7 676.5 650.1 621.8 609.5 605.9 592.6 575.3 558.6 555 533.4 511.4 506.8 515.5 514.6 512.8 510.1 509.4 507.8 509.1 522.8 532.8 543.2 548 557.8 564.4 557.4 541.8 503.9 501.1 499.8 468.4 440.5 386.7 370.7 344.3 303.7 275.8 267 264.4 251.4 236.8 207.5 192 185.5 183.9 183.1 186.7 194.1 206.3 230.2 255.6 275.4 283.2 297.1 339.5 388.8 414.2 442.2 460.5 460.2 464.1 480.8 490.9 490.5 496.1 517.5 527.6 532 534.8 536.6 536.8 537 538.5 540.5 542.5 547.5 551.5 554.6 558 561.5 563.2 565.7 567.9 570.7 574.5 578.1 579.8 581.6 586 589.3 588.5 585.6 579.8 573.8
415.6 435.5 446.3 441.2 418.2 403.3 395.2 387.5 377.4 370.3 364.2 355.8 350.4 351 348.6 347.3 343.8 344.5 345.4 353.2 359.5 368.1 379.2 387.7 400.5 412.7 423.6 435.6 446.1 463.5 482.1 504.1 516.3 526.5 540.6 549.1 555.4 561.9 565.9 574.1 576.6 581.2 590.5 600.7 613.1 627 642.4 648.2 645.5 642.9 639 619.2 608 591.2 578.7 568.9 561.2 555 531.9 520.8 518.4 508.8 500.6 488.3 475.6 470.5 463.4 455.9 449.3 446.6 443.3 445.9 448 457.4 472.7 486 496.4 505.7 525 539.5 554 567 591.6 617.7 631.8 648.4 668.5 691.2 709.9 715.7 718.5 718.2 699.5 694.5 690.2 684.2 685.5 690.6 697.2 692.2 687.4 679.1 681.9 680.8 685.6 691.3 688.1 666.5 645.4 625.1 608.1 589.8 579.1 566.4 563.2 555.5 527.2 522.4 526.5 524.9 521.8 520.9 517.9 517.8 515.5 525.9 538.3 550.8 557.4 561.5 568.1 567.8 551.9 518.8 512.8 507.5 476.7 455.8 403.2 388.6 362 320.2 296.9 296.3 284.5 273.3 251 225.6 208 195.9 183.1 182 184 186.3 194.2 212.9 237.5 260 266.5 286.5 324.6 363.6 402.5 427.1 429 434.1 444.2 457.7 466.8 471.6 479.9 509.1 522.4 527.9 528.9 528.6 532.1 532.6 534.2 535.3 538 540.9 546.3 550.3 554.1 556.9 559.5 561.7 564.3 566.7 569.4 573.2 577.4 580.1 584.5 587.2 584.9 584.1 579.4 572.8
422.1 434.6 451.8 444.2 424.8 413.1 405.6 398.7 390.4 378.4 367.8 361.1 360.3 354.9 352 348.9 347.3 344.6 351.2 360.2 365.9 370.4 383.8 393.5 404.7 416.7 429.3 443.2 455.7 470 491.8 508.3 520.7 533.3 546.6 559.2 567.2 572.5 575.7 580.1 585.7 589.7 597.3 603.6 615.1 628.6 642.3 646.3 650.6 653.6 648.7 637.5 613.3 596.6 581.3 575.1 575 566.6 549.5 529.2 522.9 516.1 508.1 500.5 483.6 475.8 468.9 458.9 452.9 450.4 448.1 449 456.5 461 476.1 487.2 499.7 514.3 530.7 539.8 551.3 566.3 591.8 615.9 637.2 651.4 672.1 689.4 710.7 715.8 728.8 725 710.9 708.2 704.8 703.5 705.8 709.9 705.6 699.1 694.8 687.9 675.2 673.9 681.4 694.1 692.4 684.6 668.9 641.3 613.9 600.8 581.5 580.2 572 562.7 539.3 534.1 532.8 536.7 534.5 536.2 530.5 528.3 527 530.3 546.5 562 567.4 576.5 565 565.7 553.9 543.2 520.8 512.8 501 457 420 395.5 369.9 327.9 326.2 317.3 303.8 294.7 272.1 254.8 227.3 208.3 192.6 181.5 180.9 181.5 184.7 195.7 214.4 236.2 249.9 267.4 292.2 325.6 372.6 404.8 408 409.2 424 448.2 440.1 450.5 463.2 488.7 512.7 520.3 520.8 522.7 526.6 527.9 530 530.5 533 536.3 540.9 544.9 548.5 552.2 555.4 557.8 561.1 563.5 566.7 568.9 573.5 577.5 583.5 587.1 587.4 584.3 579.9 573.6
428.3 437.2 443.9 441.2 433.8 425.2 420.5 408.8 398.9 384.9 369.2 365.6 361.1 357.8 353.8 352.1 353 346.4 354 364.4 371.9 377.5 387.9 395.2 406.1 417.5 431 446.6 460.1 475.1 494.4 513 528.6 539.4 553.6 566.6 576.1 580.8 584.5 590.7 597.6 602.5 605.6 610.4 621.1 632.6 641.7 647.7 653.7 657.2 653.6 643.8 617.9 601.2 589.4 586.5 582.7 568.8 551 537.2 527.8 522.5 520.4 514.8 490.7 481.3 473.4 463.9 459.1 457.3 454.2 454.2 458.4 465.4 481.5 487.6 504.2 521.2 530.9 542.3 553.9 566.5 595.5 619 638.1 656 677.9 693.1 713.4 723.1 732.5 724.5 716.9 715 717 717.2 722.5 721.8 715.7 694.2 696.3 693.3 670.8 659.8 681.5 690.3 697.8 698.5 679.1 659.7 631.9 608.9 596.7 587.7 574.4 561 541.1 543.9 547.1 549.9 547.8 552.6 547.9 542.8 540.4 538.2 560.7 572.8 581.5 588.8 583.9 560.6 557.1 554 538 523.5 507.2 457.2 430.9 409.5 380 358 347.5 337.6 327.6 327.7 300.3 276.8 253 223.4 207.1 185 180.9 180 180.2 185.1 198 212 232.4 250.9 270.4 303.8 333.8 357.4 375.5 381.6 391.4 407.9 415.5 434.6 454.3 479.1 492.1 503.5 511.7 515.4 519.6 522.5 523.8 525.5 526.9 529.9 533.5 538.9 544 547.2 551.3 554.1 557.6 560.4 562.8 567.3 569.1 573.2 579.6 586.5 586.9 583.1 577 572.3
435 443.2 451 454.9 452.8 443.9 431.2 421.1 411.4 394.5 373.1 367.4 366.3 360.9 358.6 357.2 360.2 355.5 358.5 365 373.5 383 390 398 408.5 420.9 433.6 449.3 462.2 480.1 497.8 517.9 533.7 545.4 559.7 575.2 582.8 588.6 596.4 603.2 608.8 613.9 616.2 620.1 628.1 637.5 642.1 650.8 659.3 662.9 663.7 655.3 640.4 608.2 597.7 593.1 584.5 571.4 557.7 540.6 533.4 527 522.9 512 495.5 488.1 481 472.3 467.6 462.5 459.3 455.1 461.5 467.2 480.4 492.4 506.8 522.4 534.7 543.4 561.7 570.3 596.6 623.7 642.8 660.3 681.3 697.1 714.7 725.2 736.1 725.7 726.2 729.3 736.8 739.9 731.1 713.6 702.4 694.1 674.5 678.4 662.6 655.2 659.8 687.3 704.1 702 689.8 671.3 636.7 618 603.4 593 573.8 565.7 544.7 548.4 555.9 559 561 562.5 562.7 555.2 551.7 550.1 569 579.8 589.6 597.1 596.1 566.6 560.2 558.9 547.7 532.9 501.2 468.6 446 421.2 401 387.6 384.4 366 370.4 360 330.1 302.6 282.6 248.1 218.4 199.5 189 179.7 179.1 179.9 187.4 201.6 217.5 236.9 254.9 271.9 301.7 326.6 349.5 360.2 366.6 368.5 393 424.5 442.5 462.8 478.6 488.9 501.4 507.3 511.7 515.7 518.3 520.5 521.2 523.9 528.6 533.1 538.3 543.3 546.3 549.4 554 557.8 560.9 564.2 568.2 570.2 575.7 582.3 584.7 580.8 576.2 574.5
443.6 455.6 466.2 470.3 464.5 464.2 452.8 437.1 433.3 415.2 382 375.4 371.9 367.2 365.8 366.2 363.2 355.4 361.3 369.7 377.8 385.8 394.8 403 412.9 424.5 436.8 449.5 464.5 482.3 502 522.8 540.1 554.6 569.1 581.5 589.8 599.6 608.3 615 621.9 625.4 628.7 633.5 635.6 642.6 647 654.6 662.3 667.3 670.7 659.2 646.2 618.1 603.3 593.8 583.6 577 560.9 544.9 536.9 526.9 520 511.6 500.6 495 485.5 480.8 472.3 467.1 463.2 459.4 464.1 476.9 481.7 494.7 508.9 522.8 534 548 563 584.7 606.8 633.6 660.4 675.5 685.6 706.9 715.5 727.7 740.3 730.6 737 744.4 757.2 748.4 724.6 703.1 681.8 666.9 651.9 639 646.5 656.1 645.7 668.3 703.1 705.8 691.7 669.4 649.6 633.6 613.2 599.9 585.2 574 553.9 558.7 563.6 567.3 571.6 570.7 574.6 571.4 564.7 561.5 570.1 584.7 590.5 602.8 597 577.1 565.5 562.1 554.5 544.2 531.3 481.5 455.2 436.2 421.7 409.2 411.4 407.4 401.6 385.9 354.2 325.8 301 261.7 232.6 215 202.1 186.6 180 179.3 182.3 193.5 204.7 219.5 239.4 257.6 273.9 296.7 318.9 332 340.1 353.7 384.3 409 424.2 447.6 463.9 477.4 495.7 497.8 502.2 509.3 511.5 513.1 514 517.4 522.3 525.4 532.1 537.6 541.8 546.5 550.6 554 557.3 562.6 566.1 568.1 570.8 574.6 579.1 578.1 575.9 575.8
454 466 476.4 477.4 485.1 481.1 467 445.2 438.8 418.5 390.6 385.7 382.5 377.1 373.7 370.7 358 360.9 365.1 373.1 380.5 389.7 398.8 409.4 416.7 428.8 439.6 452.7 467.4 484.8 508.5 531.2 547.8 562.4 579.5 589.4 599.6 610.3 618.7 629.2 639 637.8 641.6 648.2 647.9 647.9 652.6 661.4 663.9 668.4 670 661.3 644.2 622.8 608.2 595.6 588.1 578.4 565.8 553.2 542 531.8 523.8 513.2 505.3 499.1 492.9 486.8 477.6 471.7 466.9 465.9 475.2 476.9 485.7 497.6 511.9 523 534.3 552.5 571.2 594 615.3 642.1 671.3 690.7 704.1 703.3 718.3 728.8 740.7 733 744.4 763.3 762.8 742.7 717 695.6 673.3 652.7 636.7 623.1 622.7 643.5 633.9 649.9 692.2 706.5 691.5 675.1 658.4 640.9 625.8 612.8 598.7 577.2 559.8 565.1 571.3 574.6 582.1 581 585.6 585 573.3 572 572.8 582.1 591.3 591 597 587.3 571.6 564.7 559.6 552.3 538.1 502.8 469.5 453.2 446.5 435.7 438.2 431.9 421.3 401.2 392.8 347.3 307.9 276.9 252 231 214.4 202 190.8 178.7 178.3 185.6 195.1 206.9 225 241.2 256.5 271.7 287.9 305.2 316.9 334.2 354.4 377.4 408.9 428 453.1 465.6 479.6 485 492.4 498.9 502.8 503.9 505.3 510.6 514.7 519.2 524.8 531 535.8 540.5 545.8 551.1 555.7 560.2 563.5 566.5 568.8 570.7 574 575 576 576.9
463.3 474.7 482.3 486.8 495.2 485.2 477 464.7 441.5 413.2 397 398.6 390.5 380.7 375.3 370.3 361.1 366.5 368.4 374.9 381.1 391.8 401.4 412.6 421.7 431.5 442.4 455.5 470 484.6 508.7 535.6 553.8 568.2 583.3 596.6 608.6 620.6 632 645 654 653.8 661 662 656.5 653.4 659.5 665.5 665.7 667.5 670.6 659.3 638.1 624.4 613.1 599.6 591.8 580.4 571.7 558.5 550 537.9 533.6 517.4 509.9 504.1 498.9 490.8 482.1 477.5 472.4 473 473 478.6 485.7 499 512.7 523.9 540.7 556.2 569.9 606.1 630 653.7 680.1 704.3 715.2 721.9 715.9 726 739.1 735 762.9 771.2 757.2 730.3 712.9 689.6 664.9 646.5 628.2 611.6 607.2 614.2 627.5 629.5 661.2 690.5 698.6 684.1 662.7 646.3 633.9 622.1 599.2 581.4 568.4 567.8 579.1 586.3 590.2 590.4 594.7 595.6 585.8 576.9 577.9 589.7 587.9 592.1 591.4 593.3 579.1 572.3 571.5 558.3 546.4 513.8 491.5 474.1 463.7 463.4 462.1 456.1 437.1 418.1 403.1 384.9 352.3 306 268.8 245.2 223.1 212.2 203.2 181.4 177.3 182.2 188.2 197.3 209.3 225.5 241.9 254.5 266.7 280.1 302.2 320.3 335.9 356.7 384.9 416.2 441 461.3 465.8 470.3 481.8 488.2 492.4 494.1 497.7 501.4 506.2 511.5 516.5 524.3 529.5 535.1 540.9 546.8 551.6 556.4 561.1 563.2 567.1 569.4 571.6 573.5 574.4 576.7
475.2 482 490.3 500.1 497.3 489.8 490.5 471.3 433 415.6 409.4 401.9 393 384.7 377.8 371.8 366.1 370.5 373.8 377.8 384.8 393.7 403.9 414.3 424.9 435.2 445.3 458.7 471.9 489.5 509 537 553.1 567.6 586 600.3 613.5 631 649.2 661.6 665.3 666.8 671.3 668.5 665 665.1 667.7 668 668 672.1 671.7 656.9 636.2 625.1 615.4 603.9 594.3 587.6 579.4 562.9 552.9 544 537.3 524.6 517 510.6 504.1 496.3 489.6 482.1 477.8 472.6 474.9 479.6 490.8 497.3 515.4 529.8 549.5 560.9 584.4 619.7 646.4 662.1 693.6 709.9 725.8 728.4 731.1 727.1 733.8 742.1 758.1 766.4 748.1 725.7 702.3 680.3 642.6 631.8 614.7 601.5 593.1 588.9 602.6 597.4 614.9 642.5 684.3 685.6 656 647.1 638.4 609.7 593.8 582 570.9 572.7 588.9 596.7 600.1 602.5 606 604.4 592.9 587.7 582.9 594.4 595.7 594.1 589.5 580.6 576.5 582.6 579.8 562.9 546.6 522.7 508.8 497.9 482.3 485.5 481.1 472 451.6 429.8 410.8 405.1 378.5 329.2 291.9 264 237.2 215.9 200.2 187.1 177.9 180.4 184.9 192.3 201.4 212.8 227.8 236.5 250.3 272.1 283.1 305.6 320.6 341.7 370.9 402.3 423 439.5 450.8 456.9 468.5 477.4 481.1 484.4 488.5 491.5 496.7 503.4 509.6 516.2 523.8 530.5 535.7 541.7 547.6 553.1 556.7 560.9 564.5 568 568.3 571.2 573.6 576.5
482.2 488.7 504 507.1 503 502.1 489.1 465.1 431.9 422.5 411.7 403.3 395.9 385.4 379.9 376.6 371.2 373.8 375.9 379.7 386.7 395.2 404.1 415.4 427 436.6 448.5 460.8 477.2 491.9 509 531.5 552.8 575.2 592.2 602.8 615.7 638.1 655.4 669.4 673.3 672.7 676.2 674.4 670.9 670.1 670.6 673.5 674.8 674.7 672.4 660.2 640.9 631.2 622.9 615.6 599.8 587.3 579 563.8 554.1 548.5 539.1 528.6 520.3 513.6 506.2 499.4 492.9 488.2 488.9 480.8 479.7 489.5 491.9 506 518.1 534.2 553.3 562.3 600.9 635.9 656.2 679.3 700.8 715.7 730.9 737.1 745.5 746.1 740.2 757.9 758.6 749.3 733.4 711.8 689.5 659.1 631.7 611.6 590.8 581.2 575.5 576.6 576.7 576 582.8 603.2 649.7 654.9 638.3 642 632 604.2 593.1 589.3 573.6 578.7 596 604.1 608.7 607 614.4 611 599.4 592.9 586.2 592.7 599.7 593.4 579 577.1 576.7 583.5 585.2 572.4 549.7 535.2 523.4 513.4 505 500.2 491.8 486.2 476.7 446.7 426.5 412.3 395.2 356.5 323.4 284.8 264.3 221.8 200.4 195.3 181.6 176 182.2 186.5 194.7 203.7 214.6 226.7 242.1 257.5 271.2 289.8 311.2 328.8 359.9 389.7 409.9 426.3 434.6 443.3 453.6 462.1 470.2 471.9 478.3 481.7 485.2 493.8 502.2 510 518.7 526 531.4 536.6 542.4 547.9 552.8 559.3 563.5 565.5 566.9 568.5 571.7 573
492.3 497.3 509.4 511.2 510.9 505.8 478.7 455.2 440.3 423.9 413.5 406.5 397.6 391.7 387.5 379.3 373 376.1 380.4 381.8 389.5 396.3 406.9 417.2 427.7 438.4 451.5 464.2 480.8 494.9 508.1 528.7 552.4 578.8 598.6 612.2 625.6 636.9 652.4 666.5 673.6 677.3 679.8 679.8 674.3 677.1 676.7 676.7 680 679.3 675.9 662.4 652.9 644.5 628.8 614.5 602.3 590.7 580.9 572.5 559.9 549.5 540.1 530.8 522.5 516.2 508.4 503.7 497 494.5 487.5 486.6 484.5 488.7 498.2 504 521.8 539.4 556.2 577.8 609.6 645.8 665.2 685.3 704.4 723 737.7 747.4 753.6 751.2 755 764.6 751.6 737.5 718.5 698.9 675.8 652.4 618.5 592.7 575.8 568.8 565.6 567.4 563.6 560.4 560.3 577.7 597.8 624.1 622.4 630.5 616.5 612.9 594.7 583.1 576.5 581.8 598.8 607.6 613.6 611.5 615.8 613.9 601.5 592 587.2 597.1 595.2 592.5 582.5 581 586.7 590.4 591.7 592.4 570.8 551.2 544.6 534.6 528.8 525 501 494.8 488.9 475.3 433.6 414.4 411.2 381.2 335.6 298.2 264.2 231.8 204.6 199.7 183.7 174.9 177.2 182.1 187.3 195.2 199.2 216.3 232.8 241.8 259.7 278.9 297.1 318.3 341.6 371 394.8 414.1 419.6 432.5 443.7 444.8 453.9 457.8 464.7 469.7 473.5 484.8 495.8 503.3 512.4 520.2 527.3 532.6 537.8 543 549.4 555.2 558.7 564.6 565.2 566.7 566.9 567.3
498.2 505.6 514 507.8 508.8 500.3 477.5 460.2 447 427.9 416.7 412 404.5 395.7 387.8 380.7 373.4 378.9 381.8 386.8 390.4 398.1 409 418.6 429.7 441.8 452.8 468.7 483.8 501.8 515.4 530.6 552.8 579.6 600.1 617.4 631 644.1 651.8 664.5 673 682.2 689 684.3 683 683.3 683 681.7 683 681.7 677.5 675.4 666.1 648.5 633.3 619.5 608.2 590.6 580.3 571.7 564.8 549.4 541.9 531.4 524.8 517.9 511.2 507 502.4 498.2 496.1 487.9 486.9 495.9 502.5 513.8 524.2 542.9 561.9 589.1 627 658.5 674.9 691.1 711.2 725.4 746.2 756.7 756.8 752.1 770.8 772.8 760.7 722.4 703.3 683.7 657 631.4 612.5 585.7 570.3 559.2 562.6 559.1 556.3 548.9 545.8 554.4 575.9 588.4 595.8 607.8 599.5 604 589.6 572.9 570.4 573.6 598.4 607.3 614 612.6 617 617.6 608.6 595 588.6 599.5 597.9 587.2 588.2 584.4 591.2 593.1 600 600.8 579 568.4 557.9 549.4 537.4 529.7 507.6 500.4 497.7 486.7 447.1 422.6 413.5 394.6 333.5 298.8 268.1 238.7 215.3 194.1 181.8 175.2 173.8 179.9 182.5 185.9 190.3 206.5 217.6 231.4 247.8 267.2 285 310 331.8 358.2 383.7 396 413.8 423.1 431.2 428.3 435.4 438.4 448.3 454.4 459.4 473.4 484.7 496.7 506 514.1 522.1 528.6 533.8 538.9 545.6 552.3 557.7 562.9 563.3 564.2 564.3 564.1
504.5 513.4 514.5 511.5 501.5 491.3 482.2 467.8 456.8 439.8 420.2 417.2 408.5 395.3 388.2 382.1 376.2 380.4 384.6 389.1 395.3 399 408.5 421.4 431.8 444.2 456.8 472.7 490.7 504 524.3 536.6 554.2 577.2 601.9 618.9 635.4 647.5 662.3 668.9 677 687.8 692 692.7 693.8 687.8 684.7 686.4 690.9 682.6 682.3 683.7 679.8 663.2 646.4 627.3 617.4 600.2 582.7 572.1 563.3 554.7 542.7 536.2 529.4 522.8 517.6 511.2 507.5 503.7 495.6 489.3 488.3 502.1 508.8 516 530.5 546.7 567.2 609.6 642 663.9 678.8 707.6 722.7 729.3 747.3 758.7 752.1 765.1 787.3 785.9 760.8 730.5 691.6 671.9 650.9 621.8 606.2 575.1 555.3 554.5 553.7 553 545.4 536.5 536.3 541.8 549 557.4 577.1 584 595.4 600.4 584.5 574.8 561 568.8 594.8 607.2 614.2 615 617.1 616.8 609.9 588 591.6 602.5 600.1 587 595.8 593.6 589.9 596.7 605.2 602.6 588.9 586.9 573 556.6 543.3 525.1 512.2 507.3 500.8 486.8 454.2 438.9 413.6 372.9 332.5 307 270.1 247.1 226.1 203 181.6 174.1 170.1 174.3 180 181.2 183.2 200.1 213.2 219.7 235.5 254.2 272.2 296.5 320.8 348.2 365.2 384.4 393.5 406.8 411.1 412.1 413.6 421.7 431.4 438.4 446.6 463.4 476.2 488.8 499.6 509 516.9 524.9 530.2 535.4 542.3 548.6 554.7 558.5 561.6 563.3 562.3 561.8
508.6 515.6 519.9 515 503.8 501.4 487.3 478 467.3 453.9 421.2 418.4 408.6 394.3 389.5 385.5 380.3 382.5 387.1 392.8 399.9 403.9 412.2 425 435.8 448.9 463.3 478.5 490.5 506.3 521.7 538.9 558.6 575.7 599.8 622.3 638.9 651.8 665.5 680.1 682.9 688.2 696.4 701.8 699.9 691.2 694.4 694.2 695.4 687.4 691 690.4 696 688.3 663.6 639.8 626.3 609.3 587.8 573.5 567.3 556.4 548.7 539.3 532.7 527.4 521.1 517 508.7 508.9 501.1 495.2 493.9 499.3 506.1 520.1 532.5 554.5 573.1 613.5 647.6 667 680.6 710 722.8 728.9 744.2 752.2 747.8 770.7 797.5 802.5 772.4 737.9 693.6 666.7 641.6 609.8 575.2 555.7 552.7 537.7 548 547.6 531.5 527.8 526.4 528.9 534.5 537.8 560.1 577 585.7 587.6 575.8 575.9 554.5 563.4 591 604.6 615.3 615.9 613 608.7 592.7 585.8 592.4 599.8 598.9 591.2 591.5 597.9 589.3 597.7 605.9 604 609.7 608.9 595.8 566.9 541.4 523.5 514.8 511.6 501.4 483.9 459 447.4 415.4 366 336.3 310.4 278.2 259.9 237.3 214.2 190.9 176.6 170.6 169.5 173 172.1 181.9 192.4 202 209.6 224 242.3 259.7 279.3 301.2 334.3 349.7 369.3 373.2 381.9 393.2 393.2 398 406.9 413.4 414.8 436.2 451.6 468.5 481.6 492.8 502.3 511.7 520.9 527.4 533.1 538.8 545.1 551.1 555.3 557.9 560.3 559.9 559.9
514.5 519.7 524 515.2 517.1 507.1 494.4 483.7 473.4 450.8 425.2 418.2 409.2 401.7 394.1 387.8 380.4 385.6 389.8 394.5 402.6 409.6 417.9 428.5 437.9 448.2 464.5 474.1 488.6 507.6 524.4 543 561.4 582.8 605.3 625.4 643.2 656.9 669.2 687 693.1 700.5 709.6 708.2 707.7 703.9 704.3 701.8 693.9 693.9 697.7 698.5 701.8 698.4 683.8 662.4 638.7 625.1 611.3 578.9 568.8 562.4 553.3 543.1 534.8 531.3 525.2 519.2 512.9 511.2 500.3 500.4 503 507.3 512.1 524.1 542.4 557.5 578.9 614.6 653.7 671.3 686.6 707 724.9 740 743.8 748.5 749.6 771.4 796 807.6 770.4 736.9 701.3 658.3 635.3 608.4 569.8 550.9 537.7 537.3 532.7 531.4 522.2 521.5 517 518.3 520.1 527.6 546.5 572.1 579.7 570.8 559.5 554.5 541.1 559 583 602.5 610.5 609.2 594.7 582.8 582.8 580 590.2 599 601.5 599.8 597.7 593.9 593.2 594 603.6 608.1 629 629.2 619.6 580.4 550.9 527.2 519.1 515.5 499.9 483.5 467 453.2 419.4 377.7 341.6 316 290.3 265.6 247.3 223.3 197.2 179.3 176.6 167.1 167.3 165.6 173.5 181 190.7 204.7 214.2 229.1 249 262.6 283.2 302.3 328.6 350 353.9 358.4 367 374.1 382.7 390.6 392.8 407.7 423.8 442.1 459.5 473.3 485.1 495.9 506.2 516.4 524.1 531.6 538.2 543.1 547.7 552.1 554.9 556.2 557.6 557.5
521.6 522.7 524.9 520.9 518.8 512.4 499.2 481.8 463.4 446.6 426.3 416.2 410.9 402.2 395.4 390.3 382.5 387.7 392.7 397.8 405 413.7 423.4 433 442.4 453.3 466.9 479.6 492.9 506.9 529.9 551.1 563.1 581.3 606.8 628.8 649.6 666 681.2 689.8 702.5 711.5 717.6 717.7 721.1 718.7 712 707.9 692.7 700.1 702.9 703 703.3 702.5 689.3 672.6 647 637.5 620.4 586.8 577 565.7 557 547.7 540.5 532.9 526.4 519.3 519.4 514.1 513.3 508.9 508.6 511.4 516.4 528.3 544.9 561.2 580.9 621.6 643.6 678.1 694.2 715.8 731.5 747 748.8 746.9 759.3 775.3 791.8 791.5 783.2 728.4 695.4 652.7 623.6 593.1 556.5 538.4 529.6 529 526.3 514.1 514.7 510.2 512.2 514.4 518.3 522 525.7 548.4 561.7 551.4 541.7 532.3 536.2 550.7 575.9 593.5 602.8 593.4 575.4 566 576 571 590 599.4 603.9 603.8 600.2 597.1 595.1 595.5 602 617.9 635.1 642.1 636.5 596 559.2 536.4 521 510 494.6 480.3 470.9 453.1 431.8 376.1 339.1 323.8 296.6 273.4 255.7 229 206.4 188.9 181.8 167.5 159.3 160.4 163.7 173.3 183.1 192.6 202 215.8 236.8 255.4 269.6 286 306.8 323.8 335.7 338.3 342.3 353.4 363.5 374 380.1 393.4 412.8 432.9 450.3 464.9 478.2 491.3 502.8 511.1 519 528.9 534.5 540.5 544.6 550 552.5 553.4 553.7 553.2
528.9 529.7 530 522.6 518.1 512 494.8 479.7 465 445.5 427.7 417.9 410.6 403.4 394.7 388.4 383.6 389 395.5 400.5 408.8 418 427.8 439.6 448.7 457 469.4 483.6 497.5 516.1 534.9 559.2 573.7 589.4 613 637.3 656.8 674.4 689.3 697.7 706.6 721.5 729.3 737.4 735.1 731.5 719.3 706.4 695.6 704.5 711 710.4 707.1 702.4 695.5 675.1 653.1 640.2 626.6 600.6 582.7 572.3 561.8 553.8 544.2 536.2 526.9 525.4 526.2 516.7 514.7 512.4 516.3 514 521.3 533 546.2 562.4 586 616.2 649.9 674.3 703.2 721.4 732.3 743.2 751.5 756.8 772 782.8 792 786.4 777.8 746.8 700.8 646.5 612.8 578.5 555.2 537.2 524.9 520.7 510.9 507 504.7 507 508.8 508 510 515.8 513 523.7 533.8 542.3 525.6 521.3 532.3 542 558.2 572.9 596.6 586.4 562.6 561.1 565.2 569.8 595.4 603.7 607 607.5 603.1 602.8 602.2 596.4 605.9 622.7 636.8 651.6 645.5 631.9 572 547.9 524 512.4 497.3 484.8 468.5 446.7 414.6 379.2 340.2 328.2 307.7 279.2 255.5 232 211.1 196.9 185.8 170.1 164.8 157.2 159.7 164.2 170.3 180.2 187.7 201.5 218.4 241.8 259.2 271.2 283.9 300.4 313.3 321.3 323.4 332 345.9 349.7 372.6 385.5 403.9 423.9 440.7 456.7 469.9 484.8 496.3 505.9 514.9 521.8 529.5 536.1 542 545.1 549 550.6 550.4 552.9
532.4 537.3 537.3 529.7 513.9 511 502.5 483.4 461 441.8 428.2 419 411.2 403.9 396.5 390.8 386.3 392 397.1 403.4 412 422.6 432.7 443.8 454.5 463.5 477.5 489.7 506.7 526.8 544.2 553.3 579.1 600.6 628.2 642.9 665.5 675.9 693.5 704 717.7 728.5 741.7 746.9 742.5 735.4 725.1 711.6 701.3 706.9 713.8 713 710.7 697.2 694.9 678.2 656.6 642.8 629.9 604.8 591.4 579.1 569 555.9 548 535.7 529 531.7 525.2 520.9 517.5 517.3 522.1 519 527.9 536.3 553 567.6 588.2 622.5 653.7 679.2 700.3 718.5 735.1 743.5 752.5 769 775 782.1 786.5 790.3 773 743.2 688.1 647.6 611.1 582.3 554.6 543.7 529.2 514.7 510.3 502.2 502.8 498.3 503.5 502.4 502.3 505.9 506.8 507.8 512.9 518.7 512.2 515.3 527.2 535.6 540.3 554.6 576.9 569.2 560.6 553.5 553.1 567.5 591.2 606.7 611.5 605.6 602.7 604.7 599.9 601.3 618.6 625.2 634.5 649 652.1 641.1 601.2 555.1 527.1 515.4 503.3 482.8 471 457.8 426.1 399.7 346.5 332.7 310.7 287.7 257.6 235.5 217.2 201.4 190.6 179.7 174.8 161.2 155.6 157.9 167.1 173.6 180.4 184.6 211.9 230.3 245.6 257.5 272.5 285 295.5 301.8 307.7 320.4 333.1 341.3 355.7 376.6 395.7 415.8 432.8 448.5 463.2 478.6 490.6 499.5 508.8 516.3 524.1 531.9 539 544.3 550 552 552.1 552.2
536.9 542.8 543.5 535.8 515.2 510.3 495.5 477 454.1 445.2 430.3 425.5 422.1 405.9 397.8 392.5 389.4 395.2 401.5 408.8 417.2 426.9 437.1 447.2 460.7 471 480.7 499.5 518.9 539.3 555 576.6 583.6 615.8 643.5 660.4 665.2 681.4 702.5 714.6 728 739 748.9 752.2 746.9 740.4 729.3 712.9 716.3 712 714.4 712.9 710.5 696.8 684.8 674.1 660.8 647 632.6 610.7 595.6 583.9 572.7 559 545.2 539.1 537.8 534.9 532 527.2 532.4 535 522.8 523.5 530.9 539.5 554 572.5 583.9 618.2 642 686.3 704.8 723.4 733 741.4 746.3 771.1 781.1 783.3 792.7 794.3 778.7 741.8 700.1 661.5 606.1 573.1 557.8 544.3 524.6 514.3 504.2 495.1 493.4 493.9 497.1 494.1 499.2 501.9 505.1 504.9 503.5 504.6 505.1 511.5 523.2 529.3 532.4 543.9 550 556 558.5 546.3 545.5 565.6 583.8 598.9 608.5 599.4 597.8 601.6 599.9 603.3 624.4 631.5 638.7 642.3 646.4 647.6 633 576.8 535.3 514.8 508.3 487.7 474.3 463.2 436.1 404.7 353.6 333.8 315.2 291 262.4 238.2 218.9 202.9 197.3 186.1 173.9 163.4 157.9 153.7 158.5 164.9 173.1 177.8 197.8 214.9 231.7 247.1 262.2 271.1 279.5 290.6 293.2 305.5 315 333.4 347.4 365.4 386 406.5 423.3 439.8 456.5 471.8 484.8 493.8 502.2 511.6 519.6 527.7 537.3 547.3 552.3 556 552.1 549.7
542.7 542.7 539.9 524.4 510.6 499.8 487.4 470.7 459.5 448.2 436.7 425.1 414.4 406.1 399.4 399 389.7 395.9 404.4 412.9 421.4 430.7 443.1 454.9 463.4 472.2 486.9 505.3 526.7 550.2 564.5 590.4 608.7 624.5 652.4 674.5 681.7 687 704.2 724.6 735.9 751.1 756.3 755.3 753.4 747.5 732.3 716.9 719.1 714.2 710.9 708.1 704.3 694.6 681.7 674.3 663.5 648.5 631.5 612.5 595.5 584.7 571.7 556.1 555.4 553.4 548.1 541.3 538.8 540.5 541.9 539 532 530 538.7 546.8 561.1 573.7 588.3 607.5 641.2 662.5 699.1 721.3 729.4 743.9 749.9 775.4 782.5 786.8 796.1 807.7 795.2 765.6 723.4 657.4 612.4 570.4 557.8 543.8 516.5 508.5 498.3 488.8 487.5 488 489 493.7 497.5 497.7 501.6 503.2 501.3 500.1 503.9 506.1 511.6 522.1 521.7 533.3 535.1 543.1 546.7 539.6 539.7 557.6 576.3 592.1 599.2 594.7 594.1 600.1 599.1 604.9 625.3 630.6 638.2 645.3 643.7 644.8 636.1 592 548.1 521.7 509.7 492.6 480.5 469.1 449.1 413.5 357.2 341.3 322 295.9 267.9 245.4 222.8 208.8 197.4 189.9 178.6 168.8 161.1 153.8 152.1 157.5 161.7 169.2 184 204.9 217 233.2 243.9 258.8 270.2 277 285.5 292 308.7 319.9 340.9 358.6 378.4 397.6 414.9 431.3 446.4 463.7 477 487.5 496.9 507.5 515.7 524.2 537.6 546.7 553 555.2 550.8 547.9
545.3 537.4 529.8 522.1 514.2 497 485.9 477.6 461 446 435.6 422.3 407.6 400.9 401.6 401.8 395.4 398.6 408.9 415.9 425.5 436.6 446.3 458.4 466.8 475.7 487.8 507.3 529.9 552.5 576.9 603.2 625.8 646.2 659.8 684.4 698.6 692.4 713.7 730.3 742.1 758.5 764.5 762.8 756.9 749.4 735.7 726.5 725.1 719.1 716.6 707.3 699.1 695 681.5 672.8 660.9 646.6 627.9 611.3 593.9 581.4 564.5 567.8 567.8 562.6 556.2 550.7 548.2 551.9 545.3 539.2 534.6 534.7 541 546.3 566.2 577.5 590.6 606.9 648.9 661.8 693.1 714.6 731.4 740.7 751.4 768.7 780.1 789.3 797 804.8 797 772.3 728.3 658.2 634.6 564.5 554.4 538.7 511.4 503.6 493.7 486.6 487.2 484.8 485.6 488.5 494.2 490.3 494.3 496.2 495 492.6 497.7 501.9 506.8 513.3 513.8 518.7 526.4 532 534.9 535.8 536.6 550.8 569.2 580.8 588.9 587.3 588.5 596.2 593.6 604.1 624.5 633.5 641.1 650.2 649.7 639.8 632.7 603.9 574.6 530.6 507.5 495.7 486.6 476.3 448.9 418 362.3 349.7 329.4 302.3 275.6 253.6 232.5 211.6 200.1 196.8 185.8 173.6 163.4 156.3 150.4 152 156 163.2 175.7 193.2 204.7 218.2 232 245.2 252.6 266.1 278.8 280.6 298 311.7 333.5 351.1 371 389.8 407.3 423.6 440 458.2 472.9 483.8 492.3 503.4 513.3 523.9 537.1 545.4 549.6 550.4 549.5 548.4
542.7 533 527.5 519.9 506 494.3 489.3 481.7 461.6 446.2 435.5 423.2 407.5 402 404.4 401.8 397.2 402.7 411.8 420.9 428.7 439.5 450.9 461.7 472.8 481.1 492.5 510.5 535.7 559.6 590.8 614.9 642 667.2 669.7 694.2 703.6 703.8 723.5 735.5 749.1 758.8 769.4 772.4 756.9 750.7 748.4 735.8 732.4 725.8 722.5 709.5 692.9 691.7 683.3 670.3 653.7 643.7 623.9 608.4 588.9 587 577.4 581.8 579.4 571.3 565.5 561.7 558 554.6 549.8 546.8 549 542.3 541.6 547.2 556 574.2 589 602.5 635.2 657.6 685.6 714.9 733.9 738.4 749.9 767.2 774.8 789.9 795.5 800.1 796 776 724.8 664.8 626.3 570.7 548.3 531.9 512.9 500.8 492.1 486 486.1 483.4 483.8 484.5 489.7 485.8 485.5 491 491.1 489.4 493.1 497.3 504.7 506.5 510.1 514.3 521.8 526.6 531.3 532.8 536 547.1 558.9 576.9 580.6 576.9 575.8 585.6 591.2 608.2 623.8 633.7 638.6 656.2 656.4 648.5 622.9 609.6 588.6 550.1 515.9 499.3 492.8 484.2 445.5 415.4 369.7 353.9 336.5 304.2 283.3 259.2 238.6 219.2 211.1 203.5 190.7 177.1 167.7 156.5 150.5 150.1 151.2 155.8 164.9 178.1 194.7 205.2 220.2 233.1 247.4 257.9 262.2 279.2 289.8 307 326.8 345.4 362.5 383 401.8 414.7 434.6 453.2 468.1 478.9 489.7 501.2 515.1 526.1 536.6 542.9 548.4 548.6 546.5 548.5
544.7 537.9 525.5 516.3 507.9 493.5 492.4 475.2 460.1 449.9 432.1 424.3 413.6 406.9 405.8 403.3 398.3 407.2 415.6 423.8 433.4 443.4 455 465.1 476.2 485.2 498.4 515.1 538.7 565.2 594.3 627.1 657.2 683.8 689.7 700.8 711.7 720.1 729.1 747.4 762.2 766.6 772.9 775 770.6 763.2 752.1 744.6 740.2 731.9 724 716.4 696.1 680.2 683.6 671.2 659.3 645.2 625.3 609.6 605.9 596.8 594.6 594.9 587.2 581.3 577.4 570.2 569.5 563.9 562.3 555.8 552.5 552.1 551.7 548.3 557.7 570.6 586 599.5 623.2 652.3 663.8 713.6 733.7 751.1 755 763.9 768.3 786.1 789.4 796 796.7 760.8 710.9 660.7 620.9 585.7 552 536.4 511.2 500.2 490.8 487.4 481.7 480.7 479.2 480.7 481.5 482.9 483.1 485.8 489.2 487.1 490.5 491.8 504.5 509.2 508.2 513.1 519 524.4 526.8 532.2 536.3 545.3 554.9 563.3 571 569.8 573.1 580.8 597.4 615.7 630.3 633 635.8 648.7 658.6 656.6 638.5 608.9 596.2 573.7 530.3 503 496.4 489.9 465.1 413 379.1 356.7 336.1 314 289.9 266.3 247.1 229.4 216.7 205.8 194.1 180.8 172.1 158.4 150.4 148.1 148.7 151.7 157.8 168.8 186.1 193.9 211.2 226.3 239.1 244.3 260.6 270.7 282.9 300.4 320.2 339.3 354.4 373.1 394.6 411.1 426.9 446.3 462.7 475.6 486.5 500.7 516.2 526.1 534.4 542.9 546.1 545 544.6 547.5
545.1 539.5 526.2 510.3 498.9 490 481.8 468.9 457.8 448 436 427.3 421.6 410.8 409.1 405.8 402.1 409.3 417.7 428.1 437.9 446.7 456.2 467.9 478.3 488.4 504.9 527.9 549 571.7 607.7 635.6 665.6 697.4 707.6 706.6 716.8 734.4 742.5 748.2 760.6 772.5 774.1 776.4 778.6 771.2 760.5 749.4 742.6 737 728.6 717.7 702.3 684.6 678.3 668.4 662 647.7 625.3 623.6 616.1 609.9 609.7 605.8 596.4 595.9 592.3 586.6 577.6 573.3 570.1 568 561.7 556.5 554.2 554.8 560 567.3 576.1 591.1 610.9 633.8 647.7 691.6 717.3 748 755.3 761.2 763.7 776.2 787.8 798.4 792.6 787.9 734 673.2 627.4 593.2 558.6 530.2 511.7 502.2 493.2 486.4 478.1 477.5 477 479.7 480.2 478.4 480 479.5 480.5 484 485.9 488.9 502.6 506.4 505.6 510.8 516 522 525.5 528.1 534.8 541.9 552.5 559.5 564.4 568.6 575.4 582.9 598.9 616.1 629.6 638.2 636.7 642.3 651.9 657.2 647.8 624.9 601.5 581.7 540.8 514.2 500.9 493 467.7 416.3 383.5 359.4 338.6 318.9 295.2 270.6 254 238.5 221.8 204.7 197.3 186.4 174.9 162.2 150.9 147.4 147.3 149.3 154.3 162.8 171.3 186.6 202.7 214.6 226.9 241.8 253.8 265.4 277.7 293.1 311.5 333.1 349.6 365.6 385.2 404.1 419.2 436.8 455.2 469.7 483.4 500.9 514.5 523.2 531.1 538.7 541.6 539.7 541.1 544.4
538.6 532.3 524.6 502 491.4 486.8 472.9 465.2 454.1 442.9 434.5 425.5 425.7 415.6 412.6 409.3 404.3 411.1 420.7 427.9 438 448.2 458.5 472.3 482.9 492.8 508.3 539.9 562.8 582.6 606.8 632.7 661.9 702.9 715 708.3 717.1 734.9 746.5 760.1 764.4 771.2 776.1 780.4 778.6 775.3 761.8 755.6 748.7 741.2 724.2 718.3 706.1 692.4 680.1 669.4 655.1 644.5 644.1 636.9 628.9 620.5 617.7 612.8 610.9 607.5 601.6 597.7 591.6 586.7 582.2 578.4 573.8 563 560.5 560.9 564 569.8 576.9 585.5 596.8 603.2 619.2 668.5 687.8 723.9 743.5 738.5 760.1 775.3 789.6 792.9 795.1 788.2 757.2 692.3 644.2 604.4 573.9 533.7 512.6 510.7 498.4 484.6 478.1 477.4 478 475.7 475.5 474.7 474.8 473.7 477.5 480.9 483.3 487.2 496.7 501.2 501.4 507.2 511.1 518.7 523.6 527.5 534.9 544.3 555 560.7 565 569.8 578.9 592.2 608.2 616.1 632.7 642.7 644.2 644.6 648.1 648.1 651.7 639.5 615.7 575.3 547.4 525.5 510.4 484.7 459.7 419.2 383.6 364.1 346.2 320.8 300.9 282.6 266.9 248.2 228.7 212.9 195.3 186.2 173.3 161.3 152.1 147.9 145.6 147.2 149.1 158.6 170.3 181.6 193.5 203.4 220.3 236.3 245.6 258.1 272.8 288.9 304.5 322.9 342 358.8 377.3 396.2 413.3 429.5 446.5 463.9 482.9 497.7 510.2 518.4 526 532.9 537.9 534.8 533.6 533.7
533.3 526.9 513.6 499 489.8 480.1 466.6 463.9 454.6 443.2 435.1 423.2 416.8 416.3 417.4 411.8 408.9 415.1 421.7 430.2 440.5 448.6 461.8 474.4 486.7 498.1 517.8 546.7 573.3 594.1 617.2 637 657.8 685.9 716.9 709.4 724.4 735.6 747 761.7 777.6 774.2 779 781.9 780.2 773.8 755.8 759.5 755.9 744.6 724.4 715.7 703.2 695.7 682.7 669.2 667.5 659.2 653.7 645.7 639 632.1 631 627.3 620.9 618.6 612.3 609.8 601.9 600.1 597 591.6 582.8 577.7 570.6 565 564.7 568.4 572.1 582.9 588.9 599.1 605.7 627 655.4 690.8 705.2 717.9 756.3 752.3 758.2 769 771.8 773.7 762 695 655.8 625.7 597.6 540.9 518.9 512.2 503.8 489 480.4 478 476.7 471.7 467.5 471 469.8 470.7 466 471.9 474.6 484.3 492.3 495.9 498.1 503.6 509.1 513.8 520.9 525.1 534.4 545 554.6 563 570.3 575.4 585.3 601.2 608.3 618 627.5 641.5 642.4 646.7 657.9 654.7 646.3 643.1 623.6 576.2 549.2 531.7 516.8 487.1 447.9 414.8 392.4 373 351.9 332.4 313.9 294.7 277.7 257.6 237.7 219.6 204.3 191.5 177.6 167 156.8 149.4 145.7 144.5 146.2 150.6 162.9 172.1 183.8 198.1 212.7 226.4 237.3 252.9 267.2 283.3 299.7 316.1 332 349.2 368.5 387.3 405.1 421 438.5 458.3 477.3 491.6 501.5 509.5 520.6 525.1 524.7 528.3 530.1 529.3
524.3 515.2 506.5 503.3 492.7 474.1 463.7 458.8 454.2 441.2 428 421.3 419.1 419.7 417.2 413.7 414.9 419.8 423.6 430.2 443.3 450.9 465.3 477.3 488.9 506.3 521.1 549 575.8 603.2 629.1 648 667.2 680.7 700 712.8 727 736 741.3 765.6 778.3 786.5 778.3 781.2 775.8 767.5 745 754.4 761.5 746.9 731.9 711.6 702.3 691.7 688.9 685 676.9 666.9 663.7 659.6 656.7 649 645.4 640 635.9 629.5 622.5 619.4 617 611.8 608.3 602.8 595.3 590.1 586.5 575.1 568.6 568.7 573.1 579.9 585.9 592.3 606.4 615.3 634.8 658.9 678.1 691.3 730.5 734.9 732.8 733.2 746.3 734.7 743.4 716.4 665.9 619.6 609.9 553.8 524.1 510.3 503.2 493.1 486.6 480.5 477 470.8 467.8 460.2 465.1 464.8 461.2 457 466.8 477.4 486.2 485.4 490.6 501.4 505.1 507.5 517.2 522.5 532.6 544.5 554.8 565.9 573.9 583.9 592.5 604.3 613.2 625.4 632.4 633.9 638.5 649.5 658.8 661.6 653.2 638.8 628.9 580.3 552.6 536.1 518 484.9 442 416.5 396.3 377.3 362.5 345.3 324.7 304.8 284.3 264.1 243.1 226.3 209.3 190.9 179.4 167 159.1 152 148 142.1 144.7 146.2 154.5 162.5 178.1 190.4 198.4 218.6 231.5 244.5 260.4 274.2 291.8 307.3 322.2 338.1 355.6 378.2 395.2 412.8 430.2 446 470 485.9 502 503.8 512.2 518.5 520.7 522.6 527.3 528.5
521.2 511.8 509.1 505.4 482.8 464.6 457.6 455.6 452.9 443.6 430.5 424.3 421.7 420.7 416.8 418 418 426.6 430.6 436.5 446.1 452.5 462.7 478.1 490 505.9 525.1 552.7 575.2 607.3 642.5 656.9 670.1 687.2 695.2 712.7 725.8 736.2 739.5 759.7 781.5 791.2 785.8 775 766.3 748 729.2 734.3 745.4 742.2 726.6 714.4 705.4 705.2 699.9 695.9 690.4 681.7 675.4 671.6 670.3 664.5 657.6 651.7 647.2 641.5 636.7 632.9 630.4 624.5 620.2 612.8 608.5 602.1 596.9 591.9 578.1 575.3 579.1 581.3 589 593.1 600.7 607.3 618.8 634.4 655.4 668.1 682.3 682.1 673.8 694.6 714.2 698 712.1 688.3 660.5 609 597.4 548.7 525.7 512.9 507.9 496.3 487.7 482.7 478.7 472.3 467.3 462.5 455.1 452.4 452.2 441.7 458.2 467.9 476.9 479.6 483 498.1 504.1 506.6 514.2 519.7 531.1 543.4 554.6 565.5 575.6 585.6 597.5 612.3 622.9 628.5 638.6 646.3 636.9 648.8 659.9 663.5 660.7 647 622.9 587.9 560.3 540.9 525 500.1 470.7 421.6 402.8 385.4 371.2 353.7 332.9 315.2 294 273.6 253.3 232.5 213.3 197.1 179.5 168.7 157.8 153.8 149.6 147 145.2 143.3 145.7 158.8 171.3 180.4 193.4 207.7 221.7 236 254 267.7 281.2 297.7 312.7 329.1 344.4 362.2 383 398.3 419.8 439.9 465 480 493.1 502.2 503.2 506.6 507.3 514.4 517.7 520.9
517.5 517.9 513.1 492.9 471.9 458.1 450.5 450.7 449.6 443.2 428.9 427.8 425.1 419.8 422.5 420.6 421.4 428.9 437.6 440 450 458.4 466 478.3 495.4 510.4 533.5 558 575.8 611.6 648.7 663.3 672.6 691.8 696.2 709.3 725.3 735.3 742 758.6 775.1 786.1 782.9 757.7 753.2 739.1 725.4 727.4 732.9 729.6 717.8 717.2 721.3 709.9 709.5 706.6 703 699 689 685.6 680.6 676.8 671.1 663 658 653.7 650 645.7 642.3 636.5 630.8 628.9 621.4 612.7 605.6 599.9 593.7 585.5 586.7 587.2 596.1 595.7 594.3 599 608.3 617.6 640.1 654.6 647.9 659.5 644.4 660.4 685.9 678.7 662.4 646.9 623.9 593.7 590.1 541.7 516.4 512.1 504.3 495.3 487.3 483 476.7 470.9 465.9 459.7 448.7 447.1 445.1 437.1 443.8 453.2 465.5 469.3 476.3 488.4 495.4 503.9 512 518.4 527.6 540.4 552.4 562.8 574.3 584.3 602.4 620.2 627.2 631.5 639.3 645.1 640.2 649 658 661.7 660.6 651 629.6 595.3 567.8 550.9 532.1 512.1 476.9 429.5 410.6 394.1 379.2 361.8 342.6 324.9 306.6 281.8 256.4 242 221.6 203.9 184.3 170.2 161.8 157.9 153.5 151.6 149.2 142 140.8 154 166.9 175 185.8 196 208.7 224.6 243.5 260.9 273.1 287.5 302.8 318.4 333.6 350.5 366.2 387.9 407.9 429.7 446.1 460.1 479.5 488.4 489.2 498.1 496 499.6 503.3 505.1
507.6 505.4 492.6 480.9 473.1 453.5 443.7 445.8 445.3 440.8 431.3 432.7 430.7 427.2 428 426.3 427.2 438.3 442.6 448.4 452.4 465 474.9 483.9 499.1 518.3 540.9 566.9 587.7 621 658 675.4 675.7 692.7 700.9 706 725.6 736.4 741.5 749.1 763.3 773.1 771.5 752.9 752.6 736.4 732.8 726.5 721.4 726.5 724.6 716.5 723 722.4 720.2 716.1 718.3 718.9 711.1 699.1 693.6 688.5 683.9 677.8 671.8 667 662.5 658.7 655.3 650.1 647.4 646.1 641.6 630.8 619.6 608.2 600.2 598 599.2 597.7 600.8 595.4 593.3 592.6 596.2 603.4 609.6 618.9 611.1 602.8 608.7 630.7 664.1 662.2 637.5 625 594.5 582.9 561.5 536.6 520.8 515.9 511.2 501.3 492 486.4 477.4 471.8 460.5 455.6 446.7 442.8 440.2 436.3 431.5 437.2 447.9 452.3 466.7 475 484.8 497.8 507.6 514.8 524.2 536.3 548.6 561.9 570.8 583.1 604.5 621.2 630 635.4 639.9 642.3 642.4 647.2 652 660.8 661.6 656.3 641.5 605.3 572 555.8 533.7 518.9 466.6 439.9 420.7 403.9 387.7 371.5 354.8 336.1 320.5 290 274.6 251.4 229.2 213.7 194.5 179.1 171.1 160.8 157.1 154.1 150.5 142.4 138.7 147.5 160.7 167 178.7 186.4 203.3 214.9 230.8 247.5 263.6 277.9 292.9 308.1 323.7 337.9 355.6 375.2 396.8 414.6 433.2 443.5 451.2 468.8 473.7 477.6 482.4 483.8 487.1 490.2
509 499.5 491 482.7 467.4 449.3 443.2 442.1 444 440.9 437 437.6 445 431.2 436 432.9 431.4 440 445 453.4 460.6 469.3 484.5 489.4 502.2 528.4 550.6 573.5 595.6 630 660.9 676.8 682.4 689.7 699.1 706.1 719.8 738 746 746 762.9 764.9 756.7 740.4 732 729.5 738 722.6 720.4 721.5 723.6 717.2 723 728.7 726.2 727.7 730.6 729.4 730.7 726 719.4 707.8 699.6 692.3 686.5 680.7 678.2 675.3 674.3 669 666.5 673.8 674.3 656.6 643.5 621.7 607.6 604.7 606.3 606.5 607.7 599.1 595.9 591.3 585.2 588.7 594.4 589.1 583.9 583.8 587.3 596.3 626.4 626.4 600.8 580.7 565.9 560.9 546.4 538.6 527.8 517.8 513.2 505.4 496.8 489.8 479.4 470.8 458.8 450.4 443.6 440.1 435 430.9 423.2 430.4 435.9 446.1 457.8 466.2 474.7 489.3 503.5 510.9 520.9 532.1 543.7 557.7 566.3 577.2 600.2 620.3 631.5 633.8 639.9 647.6 647.9 652.5 662.8 657.7 658.3 660.3 644.9 616.6 578.7 552.1 530.1 498.1 470.6 444.7 429.2 415.2 402.2 383.4 364.8 343.3 328.7 307 282.3 262.2 242.4 221.8 202.5 188.7 174 164.6 160 156.3 150.1 142.3 137.6 143.5 153.4 163.7 175.6 179.1 194.4 207.8 221.8 234.8 252.7 268 283.3 297.3 312.7 327.6 346.1 363.8 383 398.3 414.9 425.5 435 443.4 451.1 457.1 466.3 476.1 477.6 469.2
494.3 488.3 479 475.8 460 450.2 444.1 440.9 442.9 446.4 444.3 443.3 442.2 440.1 442.1 440.2 438.7 445.7 451.4 458.7 466.8 475.4 489.8 497.6 509.8 530.1 558.6 579.6 601.4 637.1 668.8 681.2 696.3 702 701.8 717 722.1 738 749.5 741.3 749.7 740.2 732.1 724.3 705.6 711.3 722.3 717.6 715.3 719.5 717.7 718.6 722.5 726.3 730.6 737.3 736.3 739.2 743.6 752.1 747.4 740.8 729 723.4 715.8 706.1 700 698.5 695 693.7 686.7 693.7 695.3 688.5 670.7 650 623.9 611.9 608.8 610.9 609.7 603.2 601.6 596 587.8 581.4 579 577.3 575.3 575.1 572.2 572.9 574.2 571 567 562.6 560 556.5 544.7 539.3 534.2 522.3 514.6 506.2 497.5 488.4 479.9 469.4 459.3 449 437.7 436 426.7 429 417.9 425.6 427.8 437.4 447.8 454.8 464.6 479.2 493.4 505 514.2 525.6 532.4 551 561.3 575.5 597.9 617.9 628.4 630.3 632.6 637.1 645.8 650.3 666.2 669.8 651.6 644.1 637.9 622.1 586.5 561.3 532.6 506.9 476.8 456.7 437.6 427.6 414.8 398.7 369.9 353.2 337.4 319.1 299 278.7 255.4 234.5 212.5 195.6 178.5 172.3 163.7 156.2 149.8 142.2 136.5 142.2 146.4 155.1 164.8 173.1 185.9 202.2 215.1 226.6 238.8 254.7 268.9 285.9 301.6 316.8 336 348.6 366 378.8 399.3 409.7 419.4 427.5 433.2 435.8 448.6 461.9 457.9 447
484.1 477.5 469.6 463.6 456.4 450.2 451.4 444.8 443.2 447.6 449.3 450.7 449 447.1 445.8 449.4 444.9 452.1 460.8 467.2 472.2 481.1 492.9 511.6 518 534.5 562.8 589.1 607.7 638.8 674.5 687.3 708.6 707.9 703.6 711.2 717.3 731.9 741.6 734.5 726.6 720.7 702.5 696.3 686 692.6 696.3 707.9 714.8 704.8 715.5 716.8 727.2 725.2 728.4 741 742.9 744.1 744.2 763.4 769 764.2 754.4 742.3 737 728.5 725.9 722.4 717.3 717.8 714.9 707.3 710.4 704.7 696.7 682.1 641.4 624.9 616.6 612.7 615.3 611.7 608.2 601 596.3 588.8 581.1 575.1 570.8 571.3 568.3 565.5 560.5 560.9 559.4 558.7 557.3 549.5 542.7 539.1 532.6 524.3 518.3 509 498.6 486.9 480.9 468.6 459.2 447 437.9 430.7 426.1 418.7 417.9 415.3 420.3 422.5 433.4 443.3 451.6 466.3 481.2 495.5 505.2 515.9 524.6 544.1 555.4 567.8 586.4 607 623.4 625.8 624.7 625 635.1 641.8 666.4 670.1 661.8 633.6 626.6 625.5 600.1 570.5 540.8 516.3 489.3 468.3 446.7 436 425.9 404.2 384.9 365.4 343.6 327.9 310.4 293.4 269.5 247.5 222.9 201.8 188.6 177.5 167.5 158.2 150.8 143 136.4 135.4 142.8 150.1 157.8 166.4 178.4 195.3 207.2 217.8 229.6 239.8 255.5 273 290.1 303.5 318.2 333.9 346 360.7 376.3 390.8 400.8 409.2 413.9 415.5 420.2 425.4 426.9 423.3
477.2 472.4 469.9 459.1 457.7 452.5 456.6 451 447.2 448.7 452.8 456.4 453.5 453.3 453.7 454.9 452.8 459.2 469.7 473.3 481.7 491.8 508.3 523.5 530.8 539.4 565.7 594.6 609.3 636.9 674.8 702.1 711.8 707.9 697.9 692.9 705.8 723.6 722.6 724.5 711.5 694.8 671.1 668 669.3 678.8 688.7 684 688.6 691.9 689.2 703.3 722.1 728.6 731.6 741.2 744.6 746 745 762.3 779.6 785.4 779.3 768.7 757.5 749.2 747.3 742.9 736.4 733.9 728.9 719.9 728.3 727.5 714.6 703.9 666 637.8 625.4 622 623 616.1 611.1 608 602.3 598.7 586.6 577.9 574 570.8 566.1 564.5 560.7 556.1 553.6 553.7 551.8 547.5 542.6 535.1 533.5 530.4 523.5 511.5 501.2 488.3 481.5 471 458.6 447.6 437.7 430.6 424.5 414.6 406.5 402.2 408.7 409.2 422.1 430.7 438.1 450.5 465.3 482.6 496 503.8 516.9 538 550.1 562.5 574.6 589.4 606 620.7 617.7 620.3 623.7 627 650.6 663.8 664.5 650.7 618.2 604.8 592.5 564.3 547.9 532.1 505.4 473.6 462.5 448.5 432.1 412.9 391.2 373 351.4 331.8 314.4 295.2 275.7 251.1 231.7 211.7 194.5 179.2 167.7 158.7 151 145 138.8 135.4 135.5 144.7 150.9 158.7 170.3 185.6 196.1 209.3 219 230.7 242.6 258.9 276.8 290.9 304.7 319.8 332.3 343.8 357.7 370.9 380.9 388.7 393.1 394.2 399.9 403.3 402.5 398.3
481.2 475.4 471.4 465.9 462.4 457 460.8 459.3 458.7 456.6 453.5 455.4 459.3 460.3 459.9 462.1 461 470.4 476.2 482.8 492.9 506.5 519.8 536.1 547.3 554.8 570.3 597.2 607 632.3 657.8 708.5 713.7 701.4 688.8 670.3 691.7 713.8 704 706.6 704.2 664.8 658.1 647.4 654.3 668.6 679 660.2 663.2 683.1 677.2 689.6 713 731.1 736.1 731.7 737.5 748.8 744.9 750.2 777.8 796.9 796.1 793.6 777.7 771.1 761.2 755.9 751.4 748.8 743.6 733.8 735.6 742.3 729.8 724.4 693.6 651.9 640.7 632.8 631 623.7 616.3 612.6 607.1 600.8 593.4 583.5 579 572.8 567.9 560 555.7 555.9 553.8 549.2 547.9 544 539.1 534 530.1 529.2 522.4 513.8 506.2 493.5 482.6 474.7 460 447.9 440.1 432.1 424.4 415.1 406.4 391 396.6 399.7 410 418.2 421.5 436.8 453.8 466.1 479.9 494.1 511.6 527.4 544.5 561.6 573.6 580.9 590.2 602.4 604.6 617.1 621.2 612.6 628.7 655.6 660.3 656.3 620.1 595.8 580.3 567.8 554.3 535.8 511.7 479.4 473.7 462.8 440.8 422.3 402.1 379.6 359.7 342.3 322.7 302.9 284.1 263.2 242.2 220.1 200.7 184.2 169.8 160.9 153.6 146.9 141.4 136.2 134 136.3 141.3 151.2 162 176.1 186.7 197.8 211.7 223.2 233.6 245.8 259.7 275.9 290.3 305 316.6 328.3 340.5 350.7 360.8 370.1 374.5 376.2 380 379.7 377.7 374.2
473.9 473.9 471.6 467.9 462.8 464.3 467.1 466.6 467.3 463.3 454 458.4 461.5 465.4 465.7 464.3 467.6 476.1 487 495.5 507 517.8 534.7 549.6 563.2 571.4 574.1 590.8 606.2 623.1 641.7 691.7 707.9 685 682.1 657.9 674.7 686.9 672.1 684 679.3 639.9 637.7 633.6 640.9 666 646.2 637.1 650.3 673.3 664.6 679.3 705.8 724.2 736.3 736.1 729.5 741.2 742.7 746.6 763.4 804.2 808.9 804.9 796.8 781.8 774.2 762.1 760.5 758.7 757.9 750.5 747.7 747.5 741.7 737.3 691.9 659.8 651.2 645 634.5 627.4 625.9 619.7 612.7 604.2 598.5 586.7 579.8 575.3 569.7 564.1 561.3 554.9 546.7 544.8 546 540.8 536.3 533 528.5 524.3 519.4 514.3 508.8 499.2 483.8 474.4 462.2 449.6 440.8 432.2 425 412 402.3 397.5 377.1 389.4 400 406.6 412.7 420.3 433.6 453.6 465.3 478.5 497 515.5 532 549.5 563.2 566.4 576.1 581.9 587.8 600.7 605.4 604.2 617.5 622.4 647.3 634.8 617.7 589.7 579.5 571.4 559.1 536.2 517.1 496 485 473 456.4 436.4 409.6 397.4 378 358.8 335.6 312.3 291.1 274.1 252.6 231.3 209.7 192.1 175.6 162.8 155.7 147.8 142.3 137.5 132.6 129.2 132.9 140.7 154.5 166 177 189.9 201.2 213 223.6 233.8 246.3 260.1 274.3 287.8 299.3 310.6 323.3 335 345 352.9 356.7 358.2 358.3 355.6 351.1 350.8
471 472.3 470.1 468.1 471.6 468.8 468.5 467.6 469.8 465.9 459.8 461 468.9 473.8 474.9 470.6 471.2 480.9 494.8 502.8 514 530.5 549.1 571.2 577.3 585.8 584.6 586.7 607.5 616.2 612.1 624.4 644.8 650.6 646.9 638.9 648.9 645.7 631.8 630.2 627.5 633.1 630.5 614.6 624.7 642.1 630.5 620.3 635.4 659.2 645.9 671.1 698.7 706.3 729.8 735.1 736.5 729 741.3 745.8 747.2 782.3 812.3 809.7 804.4 774.1 780.6 771.2 757.4 759.5 769.7 762.9 751.7 757.3 747.5 739.8 700.8 675.6 664.9 655.7 651.3 642.9 636.4 629.4 623.3 609.7 600.1 588 584 576.1 570.6 565.5 559.6 556 552.3 544.9 537.4 535.4 531.2 527.4 525.1 521 517 513 508.7 496 478 468.8 461.3 450.8 439.5 432.8 423.9 411.5 399.9 390.5 379.9 377.9 388.3 396.5 399.9 410.2 421.9 441.8 451.5 464.8 481.6 498.2 521.2 534.8 547.8 555.5 559.2 563.1 571.4 585.9 591.9 595.9 597.7 613.3 619.2 618.1 601.6 585.4 580.5 568.9 558.3 546.9 524.8 501.1 500.8 489.9 468.4 444 430.6 409.6 391.7 370.4 340.1 319.8 301.2 282.8 263 241.5 219.6 203.7 185.6 169.1 156.6 147.2 141.4 136.9 131 125.7 124.9 129.3 141.3 153.9 168 180.2 192 200.3 212.1 224 233.8 244.9 257.2 270.2 281.3 292.3 306.3 317.7 327 332.9 334.3 333.8 333.4 328.1 320.3 328.6
471.9 469.3 468.9 470.4 471.8 471.5 470.7 468.8 472.8 468.7 471.3 478.1 478.6 478.2 483.2 482.5 481 485.4 495.8 514.3 526.7 542.4 561.9 574.2 588.5 598.3 597 589.6 593.2 601.1 586.4 595 605.6 605 607.6 620.7 617.7 624.3 617.4 608.9 609 615.6 618 596.4 599.2 619.1 612.2 602.4 617.1 633.2 631.9 659.4 691.4 698 709 729.7 733.9 723.8 733.1 741.4 742 754.7 781.9 806.1 788.7 766.4 773.2 773.5 755.3 757.9 761.3 772.4 758.6 749.1 747.6 742.9 718.5 701.2 683.9 675.2 669.3 655.4 643.8 634.1 625.9 614.2 602.2 592.3 588.4 581.1 572.2 565.7 561.4 555.5 549.5 543.9 540.8 534.8 526.6 523.1 518.8 516.7 513.7 509.6 503.4 492.2 472.2 465.2 454.5 447.6 439.2 435 424.6 407.8 396.5 387.6 373.5 370.2 379.1 389 388.4 400 409.8 426.6 431.2 448.4 465.1 479 496.6 520.3 532.7 536 541.2 547.8 551.9 564 576.8 582.7 590.7 589.7 597.6 605.6 592.5 584.8 576.1 568.2 566.1 557.4 540.1 518.1 514.1 499.9 476.7 455.6 441 420.9 399.4 371 348.2 327.5 309.7 292.2 272.5 250.2 229.6 211.2 192.8 175 159 147.7 141.5 135.9 129.5 124.4 119.2 120.9 131.9 144.1 156.8 168.9 180.2 189.2 200.1 210.4 220.4 229.8 239.1 252.1 264.2 273.8 289 298.9 305.6 309.7 309 307.2 305.5 301.3 301.9 310.1
481.9 473.3 471.8 469.4 471.2 472.5 471.5 476 476.6 476.3 477.1 477.9 479.3 483.7 486 486.4 494 493.4 502.4 518 534.6 544.7 568.1 586.5 600.6 600.7 608.2 593.2 586.5 594.2 589.1 578.1 584.4 580.3 581 596.2 606.6 608.7 603.1 596.6 586 591.5 584.8 578.6 574.1 577.9 586 587.8 597.1 603.2 620.8 647.6 675 691.8 705 714.3 724.5 719.5 721.4 736.2 740.7 745.3 752.1 766.7 761.7 753.7 747 749.1 745.4 758.4 753.8 764 762.3 745.1 745.2 740.2 728.3 718.6 713.5 722.7 696.1 682.1 678 646.6 631.7 616.9 605.1 595 590.6 584 574.7 568.7 564.3 553.6 548.7 542.7 539.7 534.7 528.2 518.5 510.4 509.1 507.2 505.7 499.7 483.8 469.6 461.5 454.2 445 436.6 433.9 422.5 402.2 393.8 383.1 371.2 361.1 373 373.6 377.4 382.4 391.5 399.8 416.5 429 447 463.5 476.6 491.2 507.5 515 524.1 530.1 537.4 543.6 563.9 570.4 577.4 584.1 579.7 584.7 591.6 587.9 579.1 575.1 573.2 566.2 548.6 533.7 525.9 505.5 484.8 467.9 444.6 430.2 401.5 380.4 360 337 317.4 302.2 280.3 256.5 236.8 218.2 198.6 179.6 163.5 149.6 140.3 133.5 128.1 123.1 117.4 115.4 122.6 133.5 144.8 156.4 166.1 175.6 189 196.1 205.2 214.3 223.4 234.8 248.2 259.6 270 277.9 282.2 285.2 282.3 280.7 278 280.7 284 286.3
485.5 474.6 471.8 470.1 472.1 472.8 472.6 478.2 480.5 483.4 483.8 486.7 481.8 484.7 488.2 497.2 496.2 501.9 512.6 522.1 544 555.2 573.6 590.1 603.4 605.6 609.3 592.6 586.5 591.8 594.2 578.8 573.5 575 570 573.2 576.9 586.5 597.5 576.3 563.1 559 554.6 557.2 549.6 552.4 561.9 571.1 581.9 593.8 611.7 630.7 655.5 676.1 697.8 704.9 710.3 721.1 717.2 719.9 729.3 735.1 731.5 748.9 745.5 734.1 741.4 731.2 731.3 754.1 755.1 748.5 757.3 749.9 746.2 742.7 741.1 740.6 760.4 752.1 741.4 703.3 703.2 675.8 649.9 615.6 608.3 598.6 592.2 589.8 582.2 572.9 565.6 558.6 550.2 545.7 540.6 532.5 525.8 520.2 512.2 502.1 497.7 494.1 489.2 474.7 469.4 455.6 445.1 438.7 432.3 425.6 413.2 399 391.3 387 372.5 356.9 364.3 364.9 366.2 366.1 379.6 389.7 398.5 413.7 429.7 445.7 461.6 473.9 486.6 496.4 504.2 511.7 518.9 529.8 542.8 558.3 565.5 574 577.5 574.6 578.5 585 581.8 578.3 576.9 572.3 556 543 532.5 511.7 499.9 485.5 456.8 432.2 413.9 388.6 365.3 345.4 322.7 307 289.3 266.6 245.3 225.3 204.5 184 166.8 154.2 140.8 132.7 127.1 122.3 115 110 113 121.7 131.9 143.2 154.7 163.4 173.7 185 192.3 199.7 208.7 219.4 230.8 240.5 248.7 254.1 258.2 260 256.8 253.1 253.2 259.5 262.4 262.9
489 478.6 473.9 470.7 474.1 474.1 474.1 479.7 485.6 489 490.1 493.2 493.1 493.3 498.5 496.5 506.3 510.1 521.9 532.6 549.9 559.1 565.1 581.9 592.8 604.1 608.8 586.5 586.5 587 594.7 583.9 579.7 569.7 562.6 560.8 555.3 553.8 554.9 553.8 539.7 534.5 535.1 531.7 532.9 537.1 544.5 559 567.6 581 606.7 605.7 635.6 650.4 670 690.3 700.1 711.9 709.5 708.5 720.8 721.3 723.2 721.8 731.5 717.7 734.1 719.9 726.2 741.4 755.1 739.2 746.5 748.9 735.7 738 750.6 768.8 779 774.1 759.4 722.9 722.5 707.7 665 629.7 608.9 603.8 598.4 594.1 585.5 578 569.5 563.1 556.5 549.2 543.6 538.7 530.2 522.3 514.6 507.7 496.1 486.3 475.8 469 463.1 454.5 442.8 436.6 424.6 416.3 406 394.4 385.7 382.5 371.1 360.6 356.4 358 356.8 358.4 368.5 374.7 385.4 398.2 411.8 429.3 444.5 458.4 468.9 479.2 488.5 495 505.3 513.9 526.7 545.6 552.7 556.9 563.7 571.6 573.1 578.1 585.2 582.2 576.7 574.1 560.8 550 541.9 521.1 520.4 495.7 468.7 441.6 422 398.9 372.5 349.1 331.1 311.5 292.7 274.7 252.4 230.6 209.7 191.3 173.6 158.7 144.5 132.9 126.6 120.9 113.9 107.9 107.3 113.2 120.7 132.6 144.1 153.4 163.3 172.4 179.6 186.7 193.4 203.4 211.3 218.9 222 228.1 231.7 234.1 233.7 232.2 231.3 237.4 240.4 241.7
494.6 487.7 480.1 477.1 474.7 476.5 477.6 480.4 487.8 493.6 495.2 501.2 499.6 497.2 502.3 507.6 508.7 512.5 528.2 544.3 560.7 565.4 575.7 587.8 599.6 604 599.4 590.9 586.5 587.1 593.2 593 587.4 561.9 555.4 552.2 537.4 531 528.2 529.9 525.1 511.5 514.1 519 514.9 523.2 527.6 537.6 547.5 563.8 581.8 592.1 596.8 619.3 645.7 667 686 695.7 700.7 701.3 703.9 711.6 716.2 711.8 712.9 708.7 717.1 708.6 724 733.9 747.3 731.1 735.1 735.5 732.7 741 764.6 788 797.8 793.2 776.2 749.8 730.3 721.1 667.6 635.9 612 603.1 600.9 595.9 592.2 582.7 575.2 566.9 562.8 557.8 547.4 541.3 536.2 525.5 513.2 505.5 497.4 485.6 478.6 467.6 458.4 450.5 443.9 433.7 421.5 411.1 404.6 392.2 383.1 375.1 363.3 355.1 344.3 351.3 349.7 350.2 356.4 363.6 372.6 383.3 394.4 409.3 425.5 440.5 448.6 462 474 482.3 490.1 501.2 510 525.5 539.9 546.2 550.2 562 568.2 574.4 578.8 582.7 579.1 572.1 565.4 557.6 549.6 539.8 528.3 505 475.9 444.6 423.8 399.2 375.1 358.4 336.1 313.7 296.3 277.1 254.9 235.4 215.2 195.1 178.2 162.5 148.4 136.3 126.7 117 111.2 106.4 106 107.2 111.3 123.5 133.8 143.1 152.8 159.9 164.4 172.6 180.1 188.6 193.9 200.4 202.2 205.9 209.7 210.3 211.7 210.4 212.5 211.8 215.1 214.9
493.3 487.8 477.1 477.3 477.9 482.2 487.4 486.5 489.6 499 502.8 505 504.5 506.9 508.7 513.3 515 519.4 534.2 552.4 573.4 574.3 582.6 593.3 606.5 611.3 605.4 602.5 597.2 588.4 594.5 599.1 590.1 551.1 535.5 530.2 523.8 508.7 510.4 510.6 505 494.5 486.9 490.8 494.6 508.9 515.8 522.1 530.5 543.9 554.7 573.7 581.9 600 620.6 638.5 662.2 676.3 681.6 689.2 689.6 695.3 702.9 701.3 703.8 700 700.7 702.4 715.1 730.2 731.5 720.6 723.4 733.5 741.3 744.2 773.6 796 806.4 806.5 789.2 771.6 739.8 720.7 683.4 635.8 611.2 608 608.2 606.4 597.6 589.5 580.4 572.8 567.6 562.9 554.8 544.7 536 524.2 519 509.4 499.7 490.1 481.1 471.7 461.7 450.2 441.6 429.2 418.6 410 399 385.5 383.2 374.9 366.2 357.3 340.2 342 341 345.5 344.8 353.4 361.9 368.8 379.3 394.5 404.6 419.7 433.6 448.7 457.9 467.5 475.9 487.7 497.9 508.8 517.4 529.9 538.6 550.9 562.7 570.4 570.5 573.7 575.7 569.9 568.2 560.1 553.4 544.1 529.3 507 478.8 452 429.2 404.2 382.4 361.4 338.5 315.5 297.1 278.8 256.8 236.8 216.8 198.2 180.3 164.5 150.2 139.3 127.2 115.2 109.1 107.2 105.2 106.3 107.3 115.8 124.5 132.5 140.2 146.5 154.1 161.7 169.1 176.4 180.2 183.4 187.7 191 192.4 194.1 193.3 191.6 191.3 190.3 190.9 189.8
501.9 485.2 481.2 476.9 482.6 486.5 496.9 493 493.7 500.9 512.9 509.8 508.8 513.9 511.3 519.3 527.4 534.9 539.5 556.4 576.9 585.8 593.8 600.1 609.5 621.9 619.5 614.9 602.8 592.1 583.4 599.1 570.8 538.8 529.4 521.8 514.1 499.9 493.2 493.9 486.3 476.7 468.3 468.8 472.2 483.4 497 501.8 514.2 522.4 535.8 548.4 563.2 580.5 598.3 610.8 627.9 648.4 658.1 669.9 676.4 684.9 687.4 689.1 686.8 693.8 688.7 699.7 702.4 709.8 712.4 711.5 724.4 738.2 744.4 747.6 767.4 794.5 808.3 808.5 797.4 780.7 757.4 726.5 705.8 646.4 617.8 612.3 613.5 603 601.5 594.2 583.5 578.1 574.8 566.4 555.4 545.2 535 530 523.1 513.1 503.6 492 484.1 474.4 462 454.2 445.1 432.7 420.6 411.9 403.8 395.9 385.5 370.9 357.6 356.3 340.2 335.4 330.8 335.7 337.3 343.9 350.3 356 366 376.4 385.8 400.8 413.7 429.2 444.4 454.8 462.1 469.5 483.5 495.7 503.5 515.8 527.1 539.7 555.6 561.3 564 564.3 564.7 567.2 563.6 558.3 552.7 542.4 527.9 506.1 481.1 456.8 435 414.9 390.2 367.6 343.5 318 298 280 259.6 242.3 222.5 202.2 182.6 168.2 152.9 139.7 126.5 115.6 109.3 106.6 105 104.3 104.6 110 116.3 122.7 129.8 137 144.2 150.3 156.9 161.5 163.8 166.5 170.8 173.6 174.6 175.2 175.5 173.8 173.3 173.5 171.3 167.2
509.4 496.6 483.3 484 485.3 490 499.9 505.2 501.5 510.1 516.9 517.7 520 521.6 520.4 528.1 538.8 544.2 549.2 562.9 575.7 587.9 598.2 617.6 622.4 625.6 628.5 624.1 613.2 600.7 582.8 566.4 544.7 535.4 529.2 520.7 512 494.6 480.1 479.3 482.1 471.9 461 452.3 453.5 463.2 475.5 485.1 497.8 506.4 520.2 531.1 546.3 569.5 586.5 591.4 596.5 615.1 639.7 651.6 664.8 662.9 673.1 682.9 673 678.1 684.1 690.6 693 695.4 702 716 724.5 727.3 746.9 753.2 760.7 783.9 806.8 810.5 798.8 770.8 760.9 718.2 698.2 664.8 617.8 615.7 605.2 603.3 603.6 601 591.3 584.8 580.3 574.7 561.1 553.2 547.7 535.9 527.5 518.5 505.6 495.5 485.3 475.4 464.6 455.6 446.4 434.5 422.7 414.6 407.7 396.9 385.9 373.3 363.7 353.3 344.4 341.9 337 329.9 331.7 336.2 340.5 345.7 350.5 360.9 371.6 385.6 397.3 411.6 424.3 439 449.1 458.6 468.6 479.8 491.1 502.8 512.7 526.6 542.5 550.7 554.3 555.6 556.7 557.9 558.2 551.9 548.4 540.2 524.6 503.9 483.4 456.4 437.6 415.7 395.3 373 348.6 319.9 297.5 284.2 265.7 244.1 226 207.8 189.4 174 158.5 146.8 134.7 122.6 112.8 108.8 108.9 106.3 103.4 104.8 110.7 115.7 121.3 127.9 133.6 140 144.9 146 149.5 151.3 154.3 157.9 157.1 156.6 157.2 158 158.5 157.3 154.9 151.5
527.7 507.6 491.1 489.7 492.3 494.4 499.4 508.5 510 519.1 530.5 533.6 535.2 536.2 534.5 540.7 543.5 548.7 554.3 569.3 583.7 588.8 608.8 626.5 627.7 635 633.6 633.5 620.2 608.4 579.5 549.8 549.8 540.4 531.4 507.5 497.4 490.1 477.2 466.8 463.3 467 453.7 444.6 436.4 443.6 452.7 465.1 477 488.7 501.9 513.2 526.1 543.6 560 574 575 594.8 620.1 637.3 647.5 645.4 661 665.1 654.5 665.2 680.5 685 687.4 694.4 703.9 711.4 717.6 717 736.3 750.2 755.4 766.3 789.7 802.8 796.6 776.7 761.9 712.3 671.3 642.3 625.2 622.8 617.8 610.8 610.2 607.7 597.7 589.8 584.1 581.9 570.7 558.9 551.6 543.2 533.3 522.4 509.9 500.4 490.1 478.3 466.6 455.7 447.1 437 427.3 416.9 408.7 397.2 387.5 377.3 368.9 357 345.3 335.1 333.1 323.9 323.7 325.8 333 337.3 341.1 348.9 360.8 370.4 380.5 394.2 406.7 420.9 433.5 443.9 455.7 466.8 478.7 488.5 499.3 511.6 521.2 530.3 538.8 545.7 551.9 554.3 549.9 542.8 540.8 533.9 518.1 501.8 479.7 457.7 438.1 416.5 397.2 376.8 353.2 328.7 305.7 286.9 265.9 248 230.7 212.1 195.2 180.3 166.2 153.3 141 129 119 114.4 110.7 107.7 102.9 102.4 105.1 109.8 113.1 118.9 124.5 129.1 132.6 135.4 138 141.5 141.6 141.5 141.4 141.9 142.6 144.3 143.3 143.1 142.5 140.8
530.5 512.8 489.4 493.7 496.5 497.5 502.3 508.8 515.7 530.6 536.1 543.3 547.3 549.6 550.3 547.5 553.3 556.5 562.7 575.2 587.7 593.9 609.9 632.8 638.9 640.8 643.7 637.2 631.2 607.9 574 548.1 531.4 539.4 531.9 507.2 488.5 469.2 460.7 453.8 442.3 444.6 441.4 435.4 427.3 428.1 436.1 445.3 455.8 471 485.8 496 507.7 527.4 544.1 566.3 566.5 568.9 591.7 618.9 635.7 630.8 632.3 638.1 645.5 652.4 671.8 678.4 694.3 695.2 698.5 702.5 709.9 715.2 726.7 749.3 760.1 767.6 775.6 784.8 790.6 783 781.1 703.8 665.3 647 635.8 628.2 623 617.5 616.1 616.5 611.6 596.3 594.6 592.4 578.7 562.6 554 544.9 537.2 524.8 514.6 504.7 493.7 483.1 469.9 458.9 451.3 441.2 433.3 423.5 412.4 401.8 392.5 381.8 372.5 361.1 347.8 341.1 330.2 327.4 319.5 319.3 324.3 328.1 332.8 340.3 348.4 361 365.7 376 388.3 401.4 417.3 427.8 438.3 451 461.3 471.8 480.9 495.5 504.3 519.2 532.3 533.6 538.7 544.7 538.6 535.2 533.1 527.5 511.8 496.4 476.3 455.1 437.2 417.3 399.5 379.9 358.4 335.1 310.6 290.4 270.5 249.5 236.1 215.8 200.4 185.1 170.3 155.9 142.9 130.9 120.8 118.7 111.8 107.8 104.5 102.5 101.1 104.8 107.8 111.1 117.3 120.4 122.9 125.8 127.8 130.5 130.8 129.5 130.3 131.1 128.9 130.6 129.5 128.1 128.2 127.3
532.5 500.6 492.4 492.9 501.1 504.2 510 517.9 523.9 532.6 541.4 543 547.8 552.3 554.4 556.8 562.6 568.5 577.4 582.4 594.3 601.3 609.3 632.4 645 643.8 645.2 644.4 640 625.9 578.3 551.2 526.1 519 513.9 505.2 481 458 442.5 438.1 429.5 426.3 428.1 425.1 418.1 416.1 422.6 430.3 440.2 452.8 465.4 478.6 488.3 505.4 524.3 545.8 559.9 554.6 573 593.5 616.7 615.4 618.2 620.5 634.7 639.6 659.8 680.7 683.8 693.2 694.6 695 701.3 713.2 725.6 747.1 758.2 771.2 778.1 786.9 792.9 792.1 763.9 690.1 664.3 655.4 644.8 636.2 627 626.7 624.2 618.4 616.7 606.4 605.5 600.3 588.4 568.2 558.8 550 541.7 532.8 519.5 509.4 496.5 486.1 472 465.4 455.4 449.2 440.5 428.7 416.7 406.3 395.5 384.3 375.2 363.7 354.8 344.3 334.6 324.8 322.2 312.5 314 319.8 322.7 328 337.5 349.1 355.2 359.6 370.8 382.4 398.3 412.9 425.4 438.1 447.7 457.8 467.3 478.8 493 505.1 518.6 527.1 526.3 531 526.9 529.1 521.4 515.2 503.6 487.3 470.8 452.7 434.5 417.5 399.5 380.5 359.2 338.2 311.6 292.2 278.2 253.6 235.8 219.1 204 187.8 172.2 156.4 143.9 133.2 123.3 118.8 111.7 108.2 105.5 101.4 100.9 101.4 104.1 106.1 108.7 113 115.5 115.2 118 121.5 123 121.3 120.7 120.3 117.9 117 115.7 113.8 113.2 112.1
542.8 509 498.1 499 505.8 510.2 516.5 521.2 528.7 536.3 545.9 552.5 558.8 560.6 562.2 564.1 573.5 581.4 588.1 593.3 602.4 612 616.7 630.3 649.8 649.5 646.9 647.6 644.8 631.9 574.5 544.2 527.4 514.9 500.4 483.5 468.5 451.4 432 425.6 419.6 415.2 417.5 416.9 410.8 404.2 408.7 416.8 425.1 433.7 448.1 459.1 471.5 486.2 499.3 520 526.7 545.2 550.1 569.5 598.5 606.1 607.5 611.2 620.8 633.8 654.6 669.6 677.2 674.4 685.2 693 699 712.6 723.9 742.9 759 769.3 778.4 781.5 790 775.8 744.1 692.4 672.5 661.6 654 640.7 632.2 630.6 632.4 628.5 622.3 621.8 616.6 607.2 594.8 575.1 566.9 558.4 549.3 537.5 525 514.1 501.6 491 479.9 469 460.1 454.2 448.2 434.4 416.5 407.9 399.9 391.1 382.2 371.4 359.9 344.4 336.2 324.2 317.4 311.6 307.4 317.9 314.7 317.4 324.1 333.8 340 348.2 355.9 366.9 379.1 394.4 409.9 421.4 433 444.7 455.2 464.4 476.5 487.9 500.6 510.8 517.5 513.4 514.3 515.6 512.4 503.8 492 480.2 466.2 450.3 433.5 415.8 397.7 377.3 358.1 334.6 311.8 296.8 284 258.6 238.4 222.5 206.4 190.1 173.8 158.9 143.7 135.5 125.4 120.3 109.9 106.4 104.1 101.4 100.6 100.2 100.5 101.5 104.1 106.6 107.6 107.9 110.7 110.6 115.4 114.3 113.2 110.9 109.4 109.3 104.3 99.4 100.6 99.8
543.2 530.4 508.4 505.5 510 516.9 522.1 527.1 535.9 542.6 550.5 557.5 567.7 574.5 571.3 577.6 578.4 586.1 598.6 604.8 610.4 624.2 626.1 635.1 651.2 653.7 655.3 653.3 632.8 592.6 556.7 540.8 532.8 518.1 498.4 479.6 460.6 446 431.8 421.3 410.5 407.7 404.8 404.4 403.3 397.5 393.7 403.6 413 420.6 429.2 438.7 453.1 466.4 477.3 490.6 502.4 524.6 540.1 549.8 568.3 587.8 576.6 607.8 621.5 627.2 640.5 654.7 661.6 663.8 674.6 688 697.2 706.7 727.8 739.9 756.7 768.3 773.8 782.7 778.5 765.2 722.8 692.2 678.2 669.9 662.5 650.6 641.2 640.7 638 639.4 634.8 631.3 626.2 620.3 609.3 583.8 571 562.6 557.5 540.7 527.7 518.9 507.6 493.8 481.2 471.4 465.9 457.5 448.9 440.9 432.7 418.7 409.9 399.8 389.1 379.6 365.8 354.7 342.9 333.5 324.1 319.7 304 312.8 310.5 311.7 313 320.3 325.4 333.3 342.5 352 361.7 376.4 391.4 405.1 416.5 429.5 439.8 452.5 462 473.5 481 490.5 499.7 504.2 504.7 501.6 498.9 496.1 485.9 471 457.6 444.9 431 413.8 391.6 375.5 356.5 333.1 314.8 300.8 282.3 265.2 241.2 226.5 209.3 192 175.7 161.4 146.1 136.7 125.8 120.1 113.9 105.2 103 101.7 100.4 99.9 99.7 99.4 99.8 101 101.7 102.4 102.7 104.4 104.1 105 101.6 100.7 100.3 98.9 95.7 95.7 95.7 95.7
544.5 537 520.2 510 512.3 521.4 529 534.8 542.8 549.2 555.9 563.3 572.8 576.6 577.4 586 588.5 596.8 610 618.1 623.3 631.8 638.2 644.8 652.1 653.9 648.3 640.1 598.2 570.2 554.6 547.3 539.4 522.3 504.4 487.1 469.9 452.6 435.5 423.9 412.9 399.1 393.3 392.5 391.5 389.6 386.1 388.7 399.9 407.1 412.6 421.3 435.1 448.1 458.7 469.5 483.3 498.9 519.2 528.9 546.4 554.4 575.4 600.7 617.6 626.3 638.2 646.1 657.3 661.8 669.2 682.1 694.1 704.1 722.9 736.8 752.4 767.2 769.8 778.3 785.3 774.6 740.4 714.3 687 680.8 670.7 661.4 655.2 651.1 647.1 645.9 644.2 641.4 635.6 629.4 618.6 592.2 580.8 570.5 564.3 548.6 531 518.2 508.4 498.4 486.4 474.2 467.9 461.9 454.5 450.2 440.7 430.1 415.3 404.3 395.2 386.5 372.8 357.1 339.5 329.8 321.1 313.1 306.9 301.7 296.9 306.5 306.4 309 312.6 321 329.6 338 347.4 360.6 373.3 387.5 400.5 413.5 426.6 436.8 449.7 457.4 465.2 475.3 483.2 489.1 491.6 490.8 487.4 483.6 470.9 458.8 447.5 437.3 426.2 409.6 383.1 369.4 350.1 332.9 320.3 298 281.2 265.9 242.6 227.6 213.3 195.7 179.2 165.3 152.3 137.5 128.8 119.9 113.2 104.2 103.8 101.9 100.2 99.9 99.5 99.2 98.6 98.3 98.7 99.2 99.4 99.4 98.7 98.6 99.3 95.7 95.7 95.7 95.7 95.7 95.7 95.7
549.4 539.4 523.4 517.7 516.7 523 533.1 542 547.1 554.2 560 569 575.7 581.8 582.4 583.2 591.9 605.3 621.5 628.6 638.3 634.5 642.8 659.8 655.3 655.6 638.6 611.3 589.5 574.5 560.7 549.1 538.4 524.5 506.7 491.4 475.9 462.6 449.5 435.9 422.1 406.8 392.9 380.7 379.2 379.7 378.6 377.1 386.2 395.1 400.8 408.2 418 430 439.8 451.8 466 479.8 495.8 512.3 521.1 539.5 558.7 580.8 607.2 617.4 625.3 639.9 650.2 658.8 667.4 678.5 687.8 701.8 719.2 736.6 754.3 765.8 770.2 778.4 790.9 799.8 786.9 733.3 698.4 688.1 680.7 673.9 672.1 664.9 658.6 657.2 652.9 649.5 648.9 637.4 627.2 602.9 592.8 574.6 566.8 556.3 535.2 519.2 512.3 504.7 493.8 482.5 473.7 463.9 459.5 456.8 448.8 437.2 422.7 412.2 402.5 393.2 380 364 351.4 341.2 330.2 320.4 310.8 304.8 298.1 304.7 304.5 302 302.8 310.5 318.1 327 333.5 346.1 358.4 370.7 382 397 407.6 421.2 432.9 443 449.9 457.4 466.7 474.1 476.1 480.7 478.6 469.5 460.4 449.9 438.1 427.2 416.8 403.9 381.3 363.8 347.6 336.2 320.1 297.9 279 264.6 244.8 228.5 214.9 198.4 182.3 169.7 155.9 142.2 129.1 120.2 111.6 104.5 101.4 100.8 99.8 99.6 99.3 98.9 98.5 96.7 96.6 95.9 95.7 95.7 95.7 95.7 95.7 95.7 95.7 95.7 95.7 95.7 95.7 95.7
559.5 540.1 532.3 522.7 519.3 522.5 533.9 544.8 552.3 558.8 568.1 571.7 577.4 586.3 588.2 593.4 598 613.4 632.3 628.4 639 645.8 641 644.2 646.5 644.2 626.5 606.4 593.2 579.6 568.3 556.9 540.6 522.4 511.6 501.1 487.5 473.5 459.4 444.7 429 413.9 398.8 386.2 374.4 370.5 369.1 368.9 372.1 380.6 390.1 397.9 404.3 413.9 422.1 435.1 449.3 462.2 474.6 484.5 506.3 526.5 541.1 561.9 582.4 601.2 614.3 631.1 643.2 653.4 664.8 676 689.4 703 719.4 730.8 751.1 767.5 773.8 778.9 796 810.9 803.9 754.4 718.6 702.3 701.1 689.8 692.3 682.2 673.6 671.3 666.4 657 652.3 642.7 627.8 611.2 604 588.9 572.5 559.1 546.9 527.9 516.9 507 499.5 488.6 477.9 468.5 463.1 458.9 452.3 440.7 428.8 418.3 408.6 397.3 378.5 375.3 360.4 351 337 324 313.2 305.5 291.1 296.9 301.1 300.7 295.6 302.7 305.8 311.5 321.5 329 341.3 353.6 366.7 379.2 389.8 405.3 417 429.3 437.1 444.5 449.9 457.8 462.3 463.8 462 454 447.4 438.5 428.4 418 407 396.1 377.6 359.1 344.5 335.7 315.9 294.7 276.7 260.7 242.4 225.4 214.3 199.6 184.9 171.1 157.7 145.6 134.7 121.6 113.9 105.6 100.9 99.8 99.3 99 98.8 98.6 98.3 96.2 95.7 95.7 95.7 95.7 95.7 95.7 95.7 95.7 95.7 95.7 95.7 95.7 95.7 95.7
579.4 553.7 533.4 527.8 519.5 524.2 531 541.9 553.7 566.1 570.7 576.4 578.5 585.1 597 597.7 600 609.5 622.3 630.9 630.3 645.2 651.6 636.8 633.9 631.7 626.2 610.6 595.2 585.1 575 561.8 548.7 535.7 521.8 509.8 496.7 480.9 465.8 450.7 433.4 421.6 406.1 393 382 370.1 361.1 361.6 362.5 368.8 378.6 387.1 394 400.8 408.6 419.4 431.5 441.6 452.4 467.7 487.2 508.7 523.7 541 558.5 582.1 602 618.6 631.3 647 658.1 672.8 689.6 704.5 721.6 733.4 746.8 764.2 775.5 779.5 800.8 811.8 814.3 773.4 757.6 725.6 717.6 710.3 704.1 695 685.9 685 677.3 667.8 656.9 646.2 632.9 617 610.5 596 581.1 564 548.7 534.7 519.3 511.1 506.5 497.4 484.4 473.5 464.7 459.4 446.6 436.4 432 422.1 412.2 399.2 394.7 384.9 371.3 357.9 343.8 331.4 317.9 308.5 296.5 285.7 282.4 292.1 289 290.4 296.1 302.4 311.4 316 323.5 337.1 350.1 363.6 374 384.3 400.9 413.3 422.2 428.4 435.3 440.6 445.9 447.8 443.9 437.4 435.1 427.7 416.9 409.5 398.8 387.4 373.8 350.6 343.2 328.5 309.4 291.3 275.8 262.5 243.3 229.4 216.2 200.8 186.2 172.4 159 151.4 139.3 123.7 114 107.8 101 99.1 98.8 98.5 98.3 98 97.7 95.7 95.7 95.7 95.7 95.7 95.7 95.7 95.7 95.7 95.7 95.7 95.7 95.7 95.7 95.7
601.1 579.1 540.8 524.1 522.5 524.9 530 539.6 555.3 565.4 576.2 576.7 583.1 580.2 587.1 590.5 602.1 610 617.7 623.2 630.9 630.5 640.9 640.6 634.5 623.4 620.8 611.3 598.3 589.7 580.5 570.5 558.6 545 531.2 517.8 506.5 490.3 472.4 458.2 443 428.1 413.9 399.5 384.9 374 363.2 356.5 357.6 360.6 369.5 376.1 382.2 391.4 397.6 405 414.4 422.1 436.2 456.8 474.9 491.8 508.3 519.1 546.3 564.7 584.5 603.2 618.4 635.6 652.4 670.9 687.9 703.2 719.3 738.9 746.9 765.1 771.5 785.1 805 819.7 821.1 806.3 780.4 748.6 735.5 725.4 717 713.5 699.8 692.2 688.2 682.3 682 652.1 635.3 617.2 610 599.8 588.5 567.7 550.1 537.9 525.3 518.3 513.3 502.7 488.6 475.9 473 464.6 457.8 449.4 441.6 431.7 420.6 411.9 404.9 393.5 381.6 367.3 352.9 337.2 325.6 313.6 301.5 292.1 283.9 279.6 284.8 283 286.1 289.7 297.6 304 311.1 321.3 331.7 346 357 369.2 382.8 394.4 405.6 414.6 420.6 426.4 429.8 430.1 429.9 425.5 422.2 416.3 407.6 397.9 388.9 379.1 364.5 346.5 335.8 320.7 301.6 290.1 275 261.6 244.7 229.4 214.8 201.2 187.5 172.9 161.8 149.1 140.9 124.6 114.1 109.6 101.4 99.1 98.4 98.1 97.9 97.6 97.7 95.7 95.7 95.7 95.7 95.7 95.7 95.7 95.7 95.7 95.7 95.7 95.7 95.7 95.7 95.7
603.4 569.2 549.8 528.7 521.6 525 529.7 537.5 554.9 569.3 575.4 582.2 582.6 579.8 581.6 589.4 602.6 611.8 618 625.2 630.6 630.8 631.8 640.7 639.3 623.4 616.6 608.7 605.2 592.5 585.2 579.3 568 557.2 546 533.5 515.1 502.1 485.4 469.3 453.5 437.3 420.4 401.2 388.7 377.1 366.8 356.4 352.4 355.5 359.7 367.8 375.6 381.7 386.5 393.8 398.5 410.7 427.7 444.4 461.1 475.7 491 509.3 533.2 553.5 569.7 587.8 603.9 625.1 646.3 665.6 683.7 702 718.1 733.5 755.5 759.3 770.7 789.8 808.4 820.9 829.1 828.8 792.8 769.7 752.9 744.1 746.1 734.4 723 702.5 693.7 686.4 693.8 670 641.2 611.7 603.1 596.3 587.4 573.6 560.5 542.4 532.5 522.6 513.6 505 490.9 481.4 479.1 469 461.5 455.3 447 436.1 429 421.8 413.6 402.4 388.9 376.1 362.6 349.5 335.3 315.7 308.3 293.4 286.3 274.6 272.3 271.9 274.9 279.9 286.3 292.2 300.9 308.4 315.9 327.9 339.1 350.9 364.4 377.8 386.5 397.4 404.8 410.3 412.8 415.8 418.5 414.9 410.5 404.8 396.6 385.8 376.5 368.7 355.5 339.4 326.5 312.2 300.8 285.6 270.9 257.4 240.1 228.4 212.8 199.7 187.9 170.9 157.5 146.9 138.3 122.5 111.3 106.9 100.8 99.1 98.6 98.4 98.1 98.5 97.4 95.7 95.7 95.7 95.7 95.7 95.7 95.7 95.7 95.7 95.7 95.7 95.7 95.7 95.7 95.7
577.9 572.7 568.4 538.6 523.7 523.4 528.2 534.9 552.2 554.6 559.6 574.8 580.5 579.5 583.1 587.9 600 611.8 620.5 626.8 634.3 636 631.7 624.9 619 617.1 614.5 615.2 610.2 600.4 592.7 584.2 574.9 569.1 554.6 537.6 526.7 512.3 496.5 479.8 464.9 445.5 428.9 414.5 399.1 384.4 372.9 359.3 348.1 348.6 352.5 360.3 366.3 369.3 373.9 382 388.9 399.7 414.9 430.6 444.8 459.2 480.6 498 517.3 536.4 554.5 572.2 590.9 614 636.1 657.6 677.4 696.8 712.4 730 746 758.4 769.8 794.5 811.3 833.4 836.7 838.3 823 792.1 776.9 777.9 766 756.4 735.9 717.3 700.3 690.2 682 671.2 638.9 613.7 603.4 592.3 584.2 571.4 559 544.4 536.2 523.1 516.6 507.2 496.2 492.8 481.4 472.9 466.9 460 451.1 445 436.3 426.7 419.3 408.7 397.2 386.6 374.1 355.3 344.2 332.4 315.7 304.6 289.9 280.3 274.4 273.4 260.7 271.6 278.9 282.4 288.6 296.7 302.2 312.3 321 333.7 344.3 359.4 371.1 380.4 388 393.2 397.9 402.1 402.5 400.3 396.5 390.5 384 376.1 366.7 356 345.7 333.7 319.7 309.3 294.1 280.5 268.1 254.2 240.9 229.7 213.7 199.3 186.9 170.3 156.5 141.6 131.1 120 109.9 103 101.2 99.1 98.6 98.3 97.8 97.8 97.3 95.7 95.7 95.7 95.7 95.7 95.7 95.7 95.7 95.7 95.7 95.7 95.7 95.7 95.7 95.7
582.2 578.5 574.7 543.5 526 522.8 526.8 529.6 533.8 537.2 547.3 557 574.5 580.6 581.3 587.7 599.9 604.6 617.9 626.3 642.1 638 632.4 625.7 625.6 622.3 616.2 618.7 618.6 609.8 601.8 595.4 584.9 573.5 560.3 546.5 534.3 518.9 504.9 488.7 472.6 455 439.5 424.3 405.6 390.7 377.7 363.3 352.5 342.4 343.7 350.9 356.3 358.2 361.1 368.3 378.9 386.6 397.5 412.3 430.4 447.9 464.2 481 499.9 521.8 542.5 559.9 582.5 600.9 624.5 646.6 668.5 690.7 707.8 724.6 738.8 754.7 767.8 794 814.4 827.5 841.5 848.7 847.9 816.8 807.1 797.9 784.3 766.6 751 732.5 714.3 690.5 671.4 666.5 635 619.7 602.9 595.3 584.3 572.6 557.3 551.2 537.8 527.8 516.8 510.2 504.8 496.1 487.1 480.3 471.3 463.8 458.3 450.7 440.7 433.7 426.3 416.6 405.5 394.1 380.7 361.1 354.9 337.7 322.2 310.4 294.1 281 274.7 270.1 267.5 260.8 271.5 273.7 276.7 285.9 290.5 295.2 310.1 320.4 329.9 341.3 352.9 360.6 370.7 377.4 382.5 384.7 386.8 384.2 381.5 375.6 371.5 364.3 355.7 344.9 335.2 323.4 312.1 301.4 287.3 274.8 262.6 250.4 235.3 223.9 209.5 197.5 186.2 172.9 155.6 139.5 126.7 117.2 109.2 102.9 101.7 99.3 99.1 98.8 98.3 98.5 97.8 95.7 95.7 95.7 95.7 95.7 95.7 95.7 95.7 95.7 95.7 95.7 95.7 95.7 95.7 95.7
583.5 574.6 565.3 536.1 527.2 524.1 525.9 530 534.1 538.3 547.7 551.6 558.1 578.1 579.5 587.6 599.9 607.8 616 627.8 639.1 645.2 638.8 633.9 630.3 630 622.9 618.2 619.5 613.8 610.8 608.1 593.2 581 568.9 557.3 540.8 523.5 512 496.3 478.7 460.5 448.1 435.6 418.1 398.6 383.7 370.2 358 348.7 338.6 340.5 347.4 348.5 352.9 359.2 368.9 376.4 383.9 399 416.9 432.7 447 468.6 492 513.1 531.7 551.2 573.8 591.5 609.9 632.7 657.6 681.5 701.3 715.4 733.5 748.7 763.6 784.7 809 819.7 834.1 844.6 843.3 833.6 819.2 812 799.5 786.5 767.3 743.9 719.7 687.8 656.9 650.5 630.1 617 605.5 597.5 584 568.2 560.7 552.5 540.5 534.6 523.1 517.8 509.2 501.5 492.7 483.1 477.3 470.5 462.9 455.1 448.5 440.8 432.5 423.3 412.4 396.5 388.4 373.9 359.1 347.2 331 318.4 307.5 293 278.8 267.8 262.9 254.2 260.6 262.5 268.1 273.8 282.3 285.4 292.4 304.5 316.5 322.2 333 343.2 351.5 360.3 363.9 366.7 369.1 368.2 364.6 359.4 355.6 350.5 343.6 335.3 325.1 313.8 303.5 292.6 280.8 268.5 257.7 240.3 227.5 215.6 204.4 192.5 181.6 173.1 154 138.9 127.4 116.5 110.4 103.4 101.4 99.4 98.4 98.3 98.4 98.3 97.8 95.8 95.7 95.7 95.7 95.7 95.7 95.7 95.7 95.7 95.7 95.7 95.7 95.7 95.7 95.7
584.2 564.3 545.5 531.9 528.3 525.4 526.6 528.1 530 536 539.5 547.1 556 567.5 575.5 591.5 599.4 604.6 610.7 621.3 642.4 654.7 652.2 643 636.4 634.1 632.8 621.5 620.2 617.6 614.4 612 601 588.7 579 565 549.8 533.3 518.7 501.6 480 470.4 459 444.8 427.1 406 384.5 372.4 362.9 350.4 339.7 334.9 337.7 341.6 345.7 352 358.8 363.1 373.3 387.3 401.8 416.7 437.6 458.7 480.6 500.9 521.6 542.6 563.2 580.7 599.4 621.6 641.8 669.2 693.9 709.8 725.8 744.4 764.8 776.2 790.4 808.3 824.5 841.3 842.4 837.8 827.6 819.1 811 807.3 779.2 744.3 709.5 678.6 653 643.5 629.8 620.8 610.2 596.6 582.3 569 561.2 554.8 546.3 538.8 526.7 522.7 513.6 505.5 494.3 489.8 483.9 475.8 468 460.7 452.3 445.9 438 427.5 418.5 407.7 395 382.2 367.1 354.7 339.8 326.1 313.1 302 288.1 273.3 264.1 253.5 248.3 252.6 257.4 261.4 268.6 274.6 279.5 293.3 303.4 309.1 317.9 323.3 329 339.2 345 349.2 352.3 351.6 347.3 345.3 340.9 337.5 333.1 324.2 314.2 304.3 294.7 284.2 272.9 261 249.5 234.1 219.8 210.4 199.2 188.2 179 169.3 151.2 137.9 126.7 117.9 111 103.2 100.3 98.8 98 98.2 98.6 97.7 97.1 96.1 95.7 95.7 95.7 95.7 95.7 95.7 95.7 95.7 95.7 95.7 95.7 95.7 95.7 95.7
592 558.9 533.4 529.2 528 526 526.4 528.5 531 533 539.4 543.2 550.6 561.5 573.3 589.5 598.3 608.9 617.2 625.5 638.8 660.2 661.2 645.9 643.9 635.8 631.7 628.7 623.8 622.9 620.1 616.7 611.1 597.3 586.3 572.4 558.4 542.5 524.9 506.1 491 479.3 466.6 452.5 434.8 414.1 394.1 379.9 366.3 354.3 340.2 331.3 330.4 335.1 338.9 343.9 348 351.4 362.4 373.9 385.9 405.7 427.4 448 468.2 486.5 507.1 531.4 553.7 570.4 588.6 607.1 629.2 654.9 682.6 702.8 719 738.1 757.2 774.8 783.9 791 805.1 818.8 831.7 831 829.5 816.3 807.5 805.2 780.9 741.9 703.7 676.3 653.1 642.7 632 619.9 610.6 598.2 582.6 573.9 566.3 561.8 553.2 540.8 534.9 527.4 517.8 507.5 503.6 496.3 488.7 479.9 472.5 463.6 454.7 446.5 443.1 434.9 425 416.1 403.2 391.1 377.5 364.2 349.8 334.9 321.3 310.3 293.8 279.9 267.7 259 252.5 245.9 249.9 252.5 257 263.7 272.4 278.6 286.7 294.3 302.8 311.6 314.9 319.7 325.3 331.6 334.7 335.4 333.3 333.2 331 326.5 319.8 312.7 303.7 294.3 285 274.7 262.6 253.8 240.1 226.2 217.9 201.2 195.7 185.3 174.9 163.2 150.2 136.3 124 116.6 109.7 104.4 100.5 99.4 98.2 98.5 97.6 97.4 97.3 97 95.7 95.7 95.7 95.7 95.7 95.7 95.7 95.7 95.7 95.7 95.7 95.7 95.7 95.7
591.2 546.3 527.6 524.6 526.3 527 526.3 527.6 532.1 534.7 540.3 546.8 554.4 561.6 570.5 578.3 588.4 609.4 624.1 634.6 644.4 658.5 659.5 653.1 645.3 640 638.9 636.2 634.9 633 631 624.4 618.9 606.8 592.8 577.1 564.8 548.2 529.6 509.6 497.5 486 471.6 458.4 440.8 420 402.6 387.7 373.8 360.4 348.6 339.6 328.4 327.5 331.8 334.9 337.6 343.1 352.7 365.9 380.3 395.9 415.5 435.2 455.1 473.9 492.5 516 542.7 563.3 580.4 597.7 618 642.3 669.9 693.2 713.4 734.2 752.8 765.8 780.4 784.7 788.3 800.8 810.3 819.7 813.8 808.7 807.4 802.1 787.6 756.4 719.7 683.4 662.5 636.8 631.6 621.2 611.2 598.7 587.5 577.1 569.7 562.4 555.7 548 538.6 528.3 521.7 515.9 509.8 501.8 493.1 485.3 478.5 468.9 462.4 454.2 447.4 435.8 428 421.9 414.2 401.9 387.2 376 360.8 346.4 334.9 316.9 295.1 289.4 274.5 265.8 252.8 247.1 239 246.8 249 257.5 264.4 267.8 274.9 282.5 291.9 300.4 302.6 306.5 309.9 312.4 318.5 318.8 319.4 322.7 318.7 315.6 309.4 301.7 294.1 287.1 277.3 265.8 254.7 243.1 232.1 218.8 208.9 194.8 192.4 180.9 169.7 157.7 146 133.3 122.6 113.1 107.1 102 101.5 99.6 98.6 98.2 98 97.8 97.6 97.4 96.2 95.7 95.7 95.7 95.7 95.7 95.7 95.7 95.7 95.7 95.7 95.7 95.7 95.7
