ncols 200
nrows 83
xllcorner 270000
yllcorner 305300
cellsize 50
326.2 304.8 283.7 259.8 239.3 222.4 209.6 198.3 186.2 173.3 159.3 145.1 128.7 113.2 96.2 90.3 89.9 93.1 100.5 97.6 86.4 83.2 85.1 95.6 94.7 84.7 82.9 85.2 94.6 105.9 124.7 144.8 168.3 192.1 219.7 253.2 279.4 302.2 327.5 353.7 373.2 395.3 419.2 436 443.4 447.2 448.4 461.9 473.1 475.4 475.4 469.7 453.5 440 429.9 422.1 408.4 397.7 390.2 381.5 372.9 365.7 358.2 349.2 337.8 310.9 283.5 259.7 238.3 225.9 216.8 208.4 202.9 200 199.6 200.6 205.2 213.1 231.1 252.4 266.9 281.8 290.8 292.3 287.3 280.2 267.1 250 227.7 209.1 219.1 218.3 230 237.4 250.4 264.3 278.1 292 305.1 318.8 337.8 358.5 376.9 390.7 403.2 415.1 427.7 443 457.6 474.7 482.5 483.3 480.5 477.1 471.8 466.2 457.6 447.7 433.1 415.8 403 391.8 382.5 371.5 363.1 356.8 343.5 324.4 295.2 266.9 242.7 225.7 210.3 195.5 177.1 157.1 139.5 122.4 109.5 96.5 94.4 95.1 95.5 105.2 114.4 132 155.6 176.6 199.2 230.6 254.7 263.2 278.9 297.1 302.6 301.3 304.1 309 310.8 318.4 321.5 304.2 279.9 264.4 245.3 222.2 238.1 253.1 260.5 265.4 269.2 274.5 281.8 299.6 309.3 315.3 323.7 330.8 346.6 354.4 346.6 336.2 333.6 333.8 336.4 339.4 336.7 335.7 329.9 318.5 324 339.2 350.8 357.9 364.6 370.3 376.4 382.2 385.1 387.3
298 278 258.1 238.4 218.7 202 189.2 177.8 166.6 153.2 138 122.2 105.8 92.6 90.5 89.4 88.1 91.2 92.1 83.5 89.7 86.5 92.7 97.3 101.3 96 86.8 95.8 111.3 129 144.2 166.7 192.6 217.2 242.4 270.9 298.8 330.4 359.9 390.7 414.2 436.3 448.6 457.9 457.6 455.6 463.4 476.5 484.6 482.9 484.1 470.9 454.3 443.6 439.7 430.2 415.2 404.7 397.7 391.8 389.2 384.3 369.2 362.8 347.6 334.5 317.2 278.2 254.5 232.1 220.1 209.6 203 200.4 200.8 200.4 202.6 212.2 227.2 238.1 252.1 265 281.2 283.6 279.8 271.9 260.6 244.9 226.3 207.1 207.9 219 233.9 248 264.7 282.7 297.6 311.3 325.5 338.9 355.5 376.4 393.7 406.6 416.5 421.8 433.6 449.4 463.9 475.1 476.6 478.1 477.5 475.6 471 465.2 455.9 446.3 431.8 414 400.1 390.1 379.8 368.1 360.4 350.5 333.5 303.7 270.1 243.2 220.4 202.5 188.9 178.1 163.5 144.8 127.6 113.4 105.9 96.8 94.5 94.7 98.6 113.2 129.1 149.3 172.3 196.7 221 242.8 255 269.8 289.4 304.6 309.5 307.9 314.5 313.3 319.7 332.7 334.9 329.2 307.8 291.5 275.3 261.5 244.3 238.9 250.7 256.4 261.4 266.8 276.4 292.2 301.4 308.2 317.9 330.3 349.4 353.5 344.7 338.3 335.7 336.8 344.7 350.1 351.3 351.2 347.3 342.2 347.6 357.8 368.8 378.2 381.3 386.1 391.4 395.5 399.6 395.1
272.5 253.8 235.9 216.9 197.6 182.1 170.8 159.9 146.5 132.3 115.8 99.6 92 90.7 90 88.2 87.7 91.9 80.7 86.6 94 92 101 104.1 107.4 104.5 103.3 112.2 129.3 149.1 162.1 193.6 219.4 243.3 268.5 295 327.1 361.5 394.4 423.6 452.6 462.2 463.7 469.5 466.9 473.9 486.2 486.4 484.6 485.7 476.7 459.7 445.4 437.4 434.2 424.4 408 398.1 395.4 397.4 393.6 383.8 377 370.8 356.2 348.6 329.9 300.8 272.7 247.7 230.1 214.1 204.7 201.7 200.6 200.4 200.1 207.3 218.2 227.5 237 252.8 272.9 272 268.3 263.6 256.7 241.3 223.7 205.6 203.4 205.9 227.8 260 280.2 299.2 315.8 331.7 349.4 362.1 373.4 388.4 403.2 414.5 420.4 426.5 442.1 454 462.5 468.4 470.1 472.4 474.4 473 470.3 464 455.1 445 428.8 411.6 398 387.3 374.9 364.3 355.3 342.5 314.8 280.6 246.3 220.6 199.6 179.8 165.9 157.5 149.2 136.5 119.5 107.1 103.1 97.5 94.6 95.8 111.8 129.2 148.1 167.2 185.1 210.3 236.5 246.6 258.7 276.8 297.6 307.7 311.6 311.3 316.4 319.4 332.7 343.7 345.5 344 332.1 315.3 301.1 288.6 277.8 266.8 256.6 248.4 255.4 262.2 272.2 285.5 293.6 303.7 312.5 326 345 344.2 335.9 334.3 334.1 340.4 352.8 358.7 360.1 361.4 359.3 360.8 364.9 373 379.6 387.6 389.9 395.6 397.3 398.6 402.5 392.7
251 234 216.6 197.6 176.8 163.5 153.7 142.9 128.2 111.3 95.1 90.8 91.8 90.3 89.5 88.2 87.8 87.6 80.6 84 92.8 97.6 103.6 109.4 110.2 121.8 118.9 126.7 146.9 168.1 191.8 213.2 245.4 272.5 301.1 333.3 360.2 395.3 433.3 456.6 465.4 467.3 480.8 477.5 482.6 498.9 493.5 482.7 479.3 470.8 454.1 442.4 433.1 425.1 419.9 410.1 394.8 387.7 390.5 386.3 379.3 371.6 370.3 362.8 354.5 348.9 334 314 290 265.7 244.3 227.6 213.2 207 203.3 200.6 200.2 201.7 210.1 217.5 225.1 240 255.2 255.1 258.4 257.9 249.8 235 218.5 201.2 192.2 183.4 235.3 269.7 291.4 311.7 329.9 349.5 366.5 378.7 386.6 394.9 405.5 413.7 420.3 434.8 448.8 457.6 459.8 461.6 462.9 466.3 469.4 470.5 467.4 461 452.2 440.6 423.6 408 393.9 381.6 369.4 359.5 345.7 325.9 292.6 254.6 222.7 200.4 180 161.2 146.2 140.7 139 129.8 113.3 101 94.8 94 96.2 114 132.1 151.5 171.2 186.9 201.8 220.4 232.9 245.6 261.4 282.5 302.1 310.9 308.6 311 319.9 325.2 336.9 348.4 349.4 350.5 349.8 346 330.2 318.4 307.7 294.7 282.1 266.4 249.2 259.4 269.6 281.5 288.1 297.8 307 318.9 332.6 332.6 331 330.6 331.4 344.6 355.2 360.7 365.6 367.4 370.4 374.2 368.2 368.1 374.8 380.4 383.7 388.6 392.2 393.5 389.9 384.1
230.9 214.1 196.1 176.3 155.2 142.3 131.1 121.8 106.6 93.4 89.7 90.2 91.9 90.2 89.3 88.5 90.2 88.8 80.7 82.3 95.9 101.4 107.2 107.9 122.1 124.3 126.7 140.3 166.3 190.4 219.6 242.6 272.2 301 332.1 366 397 434.9 456.3 464.2 466.1 476.4 487.8 486.7 494.8 489.2 477.7 475.2 467.9 449.9 438.2 426.3 417 411.3 402.8 391 380.5 377.7 374.9 368.2 363.2 360.7 356.2 351.2 344.3 337.5 328.1 313.3 298.5 277.6 258.6 242.2 222.7 213.6 207.2 202.6 200.4 200.3 202.3 208.2 219.3 232 239.4 247.7 249.8 247 238.6 226.7 211.8 196.6 195.6 222.1 253.7 275.4 296.7 318.1 338.7 358.4 370.9 382.4 390.6 397.4 402.6 410.1 415.2 433.7 451.2 457.7 456.2 452.7 453.9 459.4 463.4 466.2 464.2 457.2 445.9 432 415.4 400.6 388.4 375.7 363.9 349.5 331.8 305.7 267.3 229.5 201.4 180 160.9 144 133.4 126.5 125.3 124.3 107.4 95.3 92.3 100.8 113.5 132.3 153.9 173.8 191.3 205 219.8 229.7 230.2 244.1 267 288 300 303.8 299.8 308.9 320.2 326.8 339.5 351.8 349.2 359 357.6 359.4 358.7 347.7 337.4 322.8 305.1 287.7 268.4 260.1 272 280.5 286.2 293.7 302.7 312.2 319.1 324.2 326.6 327.3 330.3 340.5 351 358 366.3 370.1 374.8 368.9 359.9 356.8 361.5 362.7 365.6 371.5 379.1 379.3 374.1 375.1
207.1 190.9 171.5 150.3 131.8 119.6 108.2 96.1 87.2 86.9 90.6 91.5 90.9 89.8 89.6 88.9 90.9 84.1 80.5 82.4 97.4 105.6 109.2 122.2 132 130.7 140.3 155.3 177.9 213.2 257 277.6 302.3 331.5 363.3 403.6 432.3 446.4 454.9 459.7 475.3 491 492.3 499.2 487.8 475.7 468.2 458 446.2 433.3 419.7 408.5 400.7 392 382.3 371.5 365.7 360.9 357 350.3 347.1 343.7 342.3 335.5 331 324.8 319.4 306.8 294.7 276.7 260.5 245.2 228.4 219 209.4 204.2 204.8 202.5 201.5 206.3 214.2 226.3 236.4 243.3 239.2 233.3 228.4 218 202.3 187.9 209.7 232.6 255.7 277.6 300.6 322.8 342.9 355.7 368.3 382.8 389.1 393.5 398.2 405.9 411 424 439.3 440.9 438.5 439 443.9 449.8 456.7 461.2 460.4 452.5 439.7 421.9 406.6 393.4 381.3 368.9 355.3 335.5 315.2 278.5 237.8 204 181.5 161.4 144.1 128.3 117.3 113.5 109.3 104.6 96.6 94.5 100.4 109.4 126.3 147.2 171.4 190.8 209.6 225.2 230.9 221.8 226.8 244.7 270.5 284.9 295.2 295.2 295.7 311.1 320.5 328.4 342.1 348.1 353.9 361.4 362.9 368.7 364.8 357.6 358.1 347.5 327 306.1 291.4 272.4 270.6 278 283.8 288.9 296.6 304.5 312.1 317 322.1 321.4 327.3 335.3 343.6 352.5 362 365.1 369 358.5 348.3 342.2 343.7 340.5 342.4 349 358.1 357.2 362.2 358
180.8 164.3 146 126.1 110.5 96.7 85.2 79.1 83.4 91.3 96.4 97.3 93.4 90.8 90.8 91.6 89 83.1 87.2 81.9 95.4 109.5 125.6 136 137.4 143.3 157.5 174.9 194.3 230 276.8 314.8 339.6 363.4 393.2 416.8 434.2 442.3 452.6 466.3 481.9 493.2 498.9 482.7 469.1 460.4 449.8 436.3 424.2 412.7 400.3 389.1 382.1 373.7 363 353.6 346.6 341.8 340 334.8 329.2 327.6 324.8 319.3 316.3 311.5 305.8 295.8 284.2 269.5 257.8 242.7 230.4 219.5 212.8 206.6 208.8 201.7 198.5 200.8 207.2 222.9 230.3 228.2 225 219.8 215.1 207.3 194.6 191.7 211.7 233.8 256.3 273.9 297.3 321 340.5 350.3 359.2 369.1 375.4 381.6 389 398 405.5 410.7 420.1 420.3 420.1 423.6 431.4 437.7 446.6 451.6 449.5 443.9 432.2 415 399.4 385.5 374.1 360.6 342.1 315.8 282.3 243.7 207.7 182.3 160.2 144.2 130.8 116.3 106.6 102 99 95.7 95.3 94.1 105.1 118.5 137.8 157.4 177.3 194 216 229.8 217.9 211.3 225.8 247 272.7 284 288.9 284.2 289.4 304.1 316.3 324.8 337.5 341.9 347.7 357.3 358.4 367.6 360.3 358.6 364.2 359.8 341.1 323.9 310.8 295.1 285.5 278.7 281.8 286.2 292.3 297.2 304.8 309.6 311.8 316.6 323 329.9 338 347.3 354.1 360.8 365.9 349.6 336.8 328.3 323.6 321.7 321.3 325.8 334.4 337.1 337.7 338
156.2 139.5 122.5 105.6 89.4 78.3 71.9 79 87.5 95.7 103.3 101.6 98.8 95.9 90.9 86.2 81.3 82.2 90.9 88.5 107.6 126 136.5 140.2 146.9 160.6 176 194.6 214.4 241.7 279.3 336.3 380.4 402 420.4 433.7 444.1 454.9 459.1 478.9 499.9 492.6 481.9 462.5 455.2 444.3 427.2 414.9 405.9 393.6 381.2 370.2 361.4 353 343.3 335.4 329.3 325.5 321.3 315.4 309.3 306.6 303.6 298.9 295.2 291 285.8 278.7 268.8 259.5 252 236.9 225.3 217.3 210.1 206.1 203.8 197 193.5 194.6 204.7 214 216 214.2 209.9 207.9 204.2 201.3 187.7 194.6 211.5 235.1 251.7 261.7 282.1 306.5 323.1 327.3 342.7 350.7 355.4 361.7 370.7 382.1 390 393.6 398.2 398.1 404.7 410.1 417.9 427.5 436.6 440.9 438.3 433.9 423.5 409.4 394.3 380.2 366.1 346.1 328.3 300.4 255.8 214.4 184.9 160.2 141.4 127.8 117.6 105.9 97.8 92.9 89.8 89.1 95.3 98.5 102.8 125 143.7 162.6 181.3 196.9 217.9 213.5 204.1 209.2 225.4 245.3 266.8 274.6 274 271.2 283.6 297 308.1 318.9 326.9 328.4 335.2 343.2 349.5 357.1 352.6 358.9 366.9 366.6 351.1 336 323.9 315.1 305.4 297.8 291.2 288.3 289.7 292 298.5 303.6 305.7 313 319.3 325.3 334 342.9 350.9 359.5 365.2 346.6 326.6 315.2 306.2 301.5 300.9 304.9 310.8 313.3 315.3 316.1
131.7 116.7 101.5 85.2 72.4 64.6 74.8 79.6 91.5 94.7 103.7 99.9 96.8 93.1 76.2 73.2 91.6 76.2 94.3 106.2 123.9 130.6 137.6 147.8 162.8 179.6 195.7 215.1 236.7 260.7 295.4 338.1 396.5 418.6 429.1 441.4 453.3 457.4 476.5 497.8 491.8 478.2 463.1 444.4 429.6 418.3 407.7 397.2 387.8 375.1 362.2 352.9 342.7 335.2 328.1 319.4 313.1 308.4 302 294.8 288.1 284.2 278.9 275 269.9 264.8 259.8 255.6 250.5 246.2 235.6 227.2 216.2 210.3 204.8 202.1 196 190.9 190.5 191.2 193.9 199.6 201.6 198.9 196 195 194.9 195.1 178.9 196.9 211.3 233.9 244.3 249.4 263.6 282.1 289.6 300.2 318.4 328.9 333.6 339.1 348 355.9 360.9 364.9 370.2 371.8 381 398.4 407.7 419.2 426.9 429.4 426.9 423.7 413.2 400 386.6 373 353.1 327.5 308.6 271.3 228.3 192.2 165.6 145.4 129.2 116.9 106.7 99.4 92.4 88.3 86.3 95.8 105.2 109.7 117.3 125.6 148.3 166.3 182.3 196.3 206.9 200.4 198.6 209.8 223.2 238.7 255.8 265.7 261.8 259.9 273.2 283.6 293.7 302.8 310.3 311.4 317.8 327 336 344.7 347.5 362 371.3 369.8 354.1 340.4 333.5 327.1 320.2 313.6 309.3 304.4 300.4 298.1 299.9 302.6 307.1 312.5 318.9 326.2 335.3 346.2 353.9 362.4 368 351.6 326 306.5 294.7 286.8 285.1 287.5 291.1 292.2 294.3 295.2
108.8 94.8 79.6 66.9 57.8 58.1 66.8 74.9 86.7 93.2 93.9 88.9 89.1 76.2 71.8 72.7 72.9 77.8 101.3 122.1 128.6 135.2 146.5 161.7 179.2 197.9 216.7 236.2 259.9 283.8 309.8 355.7 411.9 427.7 439.7 450.6 463.3 478.1 498.4 494.9 482.6 466.3 446.7 426.9 412.4 401.1 390.6 378.5 368.9 356.9 345.4 337 328 321.3 318.4 311.9 306.7 303 291.2 274.9 265.5 261.3 254.8 249.8 243.5 239.6 235.1 233.5 230.9 226.7 217.9 211.8 206.9 200.3 195.3 194.4 191.1 189.3 186.1 184.9 185.6 186.1 186.7 185.7 183.9 182.8 184.7 182.7 170.8 193 207.7 220.7 232 235.5 238.6 249.7 255 272 289.7 304.4 311.5 317.4 322.2 326.8 331.1 335.8 341.3 359.2 376.1 390.9 399.8 409.8 414.4 416.6 416 412.8 401.3 387.5 376.4 364.4 342.2 307.3 276.8 239.2 202.1 173.6 150.7 134.6 119.2 108.4 100.4 94.1 89.7 85.3 93.5 102.9 112.3 121.9 131.6 141.3 146.1 168.3 185 196.7 196.1 189.8 197.3 205.8 216.2 230.6 245.2 250 248.2 250.2 261.1 268.9 279.5 287.9 292.4 294 299.7 310.1 322 333.9 346.3 362.3 368.4 366.6 355 344.8 338.7 335.4 332.7 328.3 324.5 320.9 316.8 314.7 313.3 314 317.1 320.5 325.4 332.9 344.6 355.6 360.8 366.2 371.2 360.3 336.1 312.8 293.7 278.8 273.2 271.8 272.9 273.4 275.3 275.5
89 74.2 61.3 56.1 55.7 55.9 57.8 67.2 79 83.9 84.9 80.8 73.8 76.4 78.4 84.8 90.8 99.4 112.3 126.2 142 154.2 165.8 179.9 197.4 216.2 236.1 257.4 281.1 306.4 333.6 371 414.6 451.9 460.5 469.4 482.6 503.8 504.9 494 474.5 453.6 433.4 414.7 399.9 387.8 375.7 363.5 353.7 343.3 335 332.7 333.8 332.4 329.5 327.9 324.7 314.2 301.3 288.5 277.3 266.9 255.9 245.9 239.4 229.7 225.1 217.9 212 211.7 212.2 214.1 207.4 208.5 204.2 200.6 198.3 195.4 189.7 185 183.1 179.5 180.2 177.9 175.2 173.4 170.4 167.8 165.1 180.1 194 203.1 208.3 210.2 218.9 221.6 230.3 245.7 260.3 274.6 284.1 290.3 295.1 299.2 305.2 305.4 334.6 350.4 368.9 384.4 392.2 400.1 402.8 404.9 406.4 401.6 387.8 374.8 366 353.4 317.9 281.9 245.6 211.7 182.8 158.5 138.6 120.3 110 101.4 94.5 89.6 86.6 91.5 101 111.9 124.8 137.1 147 157.6 162 160.2 183.9 191.7 186.5 188.8 195.3 200.8 210 222.5 231.5 233.7 233.9 240.6 247.9 255.3 266.1 275.1 276.4 278.1 283.7 296.2 311.6 326.5 342.6 357 363.2 358.2 350.3 344.1 340.5 336.6 337.6 338.5 339.6 341.4 338.8 335.6 334.1 333.1 333.9 336.6 341 347.4 357.1 367.5 370.7 371.8 371.9 366.8 352.8 328.5 305.8 288.7 271.6 258.7 255 251.2 253.1 255.1
69.8 57.4 54.4 55 56.4 56.7 58.2 62.6 69.5 76.5 80 72.9 75.1 85 99 110.7 115.7 120 129.9 144.4 161.7 175 188.8 203.4 218.8 237.4 257.8 280 303.4 326.9 356 387.7 424.5 478 488.5 499.9 509.1 518.8 513.4 490.8 467.3 445.6 424.1 407.7 395.4 382.8 368.7 355.6 348.8 344.8 344.7 345.6 346.7 345 344.4 343.9 336.3 323.6 311.2 303.2 286.9 272.3 259.1 247.5 240 243.9 236.9 234.1 232.4 229.2 226.9 223 218.6 216.3 216.2 212.4 207.8 204.2 198.8 192.7 187.9 184.3 178.9 177.4 176.6 175.3 171.2 163.2 162.5 165.2 177 188.2 185.8 183.2 191.4 195.5 204 218.2 231.8 245.2 257.4 263.2 268.2 274.1 286.3 298.4 326.3 346 366.5 383.5 392.6 396.5 399.8 402.6 402.2 389.7 373.7 364.6 356.4 332.5 290.8 253.6 219.9 190.6 166.5 145.1 126.9 110.1 101.7 95.9 90.1 84.2 90.5 99.6 113.7 128.8 144.7 159.5 170.4 178.1 180.5 173.2 166.8 174.6 177.4 184.3 189.5 195.9 203.1 212.5 220 222.9 226.2 230.5 234.3 240.6 254 261.8 263.8 268.7 279.6 296.6 312.1 324 341.7 352.3 355.1 348.9 341.3 336.9 335.1 335.6 340.2 346.1 353.4 355.9 354.6 351.5 352.1 350.9 352.9 356.7 361.1 364.4 369.6 376.4 379.4 376.2 369.8 366.4 357.7 344.1 322.4 302.7 280.1 261.1 241.6 230.4 233.6 237.2
53.8 53.5 54.2 54.9 56.2 57.5 58.8 62.7 67.2 71.8 70 71.6 86.2 102.7 115.6 124.2 133.3 144.8 156.7 167.1 181 196.4 210.9 228.4 245.1 262.4 281.6 302.5 326 351.4 379.8 417.9 452.7 508.2 521 529.6 537.5 531 510.1 486.1 463.2 443.3 427.2 412.2 397.4 385.7 374.4 368 363.9 360.9 360.4 364.2 365.9 366.4 363.8 359 350.2 334.1 320 308.5 292.7 275.1 262.9 244.9 256.4 254.1 245.5 242.2 240.9 238.1 234 231.3 228.7 229.7 229 228.1 221.4 217.1 212 204.1 198.8 195.5 193.4 192.1 188.8 187.1 180.8 168.5 160.3 161.5 165.3 166.7 168.7 169 173.7 178 184.5 192.7 204.1 215.8 231.8 236.9 242.7 250 270.2 302.4 329 338.6 363.9 381.4 388.5 392.8 397.3 399.3 391.3 375 361.3 353.4 336.6 308.3 272.4 232.9 198.5 172.4 149.6 132.5 116.4 102.7 95.8 90.9 85 87.2 99 114.2 131.9 150.4 167.9 182.6 194 199.7 198.7 193.8 189.3 189.2 193.7 194.6 194 195.9 193.6 208.3 213.2 219.7 230.5 240.7 247.9 250.2 248.2 253.4 260.7 269.4 284.7 300.8 313.6 327.9 342.4 347.3 343.7 336.4 329.3 326.5 326.5 330.7 338.4 346.9 355.3 358.4 356.5 356.3 356.8 359 363.9 368.1 372.6 375.6 380 384.1 380.7 372.4 365.5 359.8 351.1 339.3 329.4 311.1 284.8 257.8 231.1 216.3 223.3 229.9
51.9 52.1 53.7 54.2 55.4 56.3 57.8 60.1 62 66 63.3 76.9 97.3 119.9 125.6 138.9 152.5 166.5 180.2 191.5 205.2 220.2 236.7 254 272.9 289.8 308.8 328.3 351.1 377.1 404.8 443.3 477.6 520.6 542.6 547.6 552.1 545.5 521.1 496.6 475 453.1 435.9 421.1 406.7 395.1 388.3 382.9 380.2 379.4 380.4 383.7 387.2 388.9 388.1 378.3 361.6 343.4 324.8 308.1 292.9 278.3 262.6 264.8 268 269.4 267.2 258.2 249.1 245 242.3 245.3 245.5 245.2 243.3 240 236.4 232.8 230.5 218 212 210.1 205.9 201.5 199.7 200.8 189.2 180.2 170.3 162.4 163.4 163.1 159.6 157.1 159.7 163.3 169.6 177.7 185.8 197.6 211.4 224.7 239 261.6 280.7 308.8 325 349.8 366.3 379.3 384.4 388.8 393.8 392.5 373.8 359.1 346.5 328.7 311.2 282.3 248.9 214.1 184.7 158.9 137 121.3 107.5 96.1 89.6 84.3 85.5 95.7 112.1 132.6 154.9 174.9 191.9 205 217.7 220.7 217.3 214.8 213.1 214.7 216.1 212.4 208.4 210.1 214 213.2 227.6 236.3 248.9 259.7 268.3 271.5 271.5 271.9 276.4 283.1 295.5 309.1 320.5 333.8 341.7 336.7 327.8 319.1 309.7 307.2 311.4 319.8 328.9 339.2 347.3 352.5 350.2 351.2 354.6 357.9 364.6 371.2 377 382.4 384.6 380.9 373.8 365.4 359.1 352.3 343.2 331.3 323.8 308.3 282 253.1 224.6 203 216.3 223.4
51 51 52.5 57.8 58.5 58.8 60.4 62.1 64.5 66.4 71.7 86.2 104.5 129.9 144 156.3 170.6 187 202.8 216.7 231.9 246.8 264.1 282 300.7 317.7 335.9 358 378.5 406.1 437.7 463.7 503.9 533.6 568.7 571.8 568.3 555.1 534.9 509.8 489.2 467.3 449 433.9 421.4 412.2 404.9 400.7 398.6 400 401.8 403.8 407.6 408.9 400.9 380 361.6 343.9 326.9 309.1 293.4 281.6 276.4 284 289.5 297.7 288.7 277.3 266.5 261.7 261.1 260.9 263.4 263.1 262.1 261.8 255.5 250.1 243.8 234.7 229.3 228.4 225.7 222.8 215.2 209.5 203.2 194.3 183.1 170.4 161.4 158.6 152.8 149.3 149.4 151.3 158.8 167.3 175.9 187.8 206.7 229 249.3 274.4 291.6 318.5 342.6 354.3 367.2 374.3 379.7 385.7 383.2 371.7 356.4 344.2 329.7 311.8 291.1 259.5 227.4 200 173 148.6 128.1 112.3 99.8 90.7 83.5 84.6 90.6 108.7 133 157.3 180.1 200.9 217.5 224.4 230.9 235.5 235.9 235.6 237 237.8 238.7 235.8 227.6 233 234.8 221.2 228.7 244.7 262.5 276.5 285.2 288.5 291.8 292.9 296.2 302.4 311.5 323 332 337.4 330.6 322.9 310.3 296.8 287.8 287.3 294 304.2 313.6 324.6 333.8 336.9 334.7 337.4 343.7 351.2 358.5 365.2 372.2 378.9 375.8 373.3 366.1 358.3 353.1 347.3 337.5 324.6 311.4 296.3 273.3 245.6 222.2 200.1 211.8 213.8
51 52.4 54.9 56.7 60.3 58.7 60.7 61.3 64.4 77 90.2 104.6 119.6 139.2 159 173.7 189.8 206.5 225.3 241.7 258.6 276.4 292.2 309.1 328 347 367 390.1 414.2 446.1 474.8 502.6 531.5 576.2 577 572.5 571.6 561.9 548.8 535.5 514.1 490.2 470.1 451.8 442.4 432.5 426.4 421.7 421 421 422.9 420 418.8 414.3 396.1 375.3 357.7 342.1 325.4 313.7 300.4 295.5 301.2 307.3 312.8 312.1 304.8 297.6 291.5 286.3 287 287.5 282.5 282.7 281.6 275.3 275 269.1 262.3 253.5 250.1 250.4 245.4 239.6 230.5 226.5 215.6 204.4 189.5 177.5 177.8 175 170.7 159.9 151 145.4 150.5 160 166.6 179.1 197.8 222.4 249.6 274.7 297.1 324 347.5 357.7 364.3 368.5 373 373.3 364.6 352.4 341.3 329.6 314.6 294.7 270.1 238.9 211.4 185.6 161.9 139.2 118.2 105.8 93.5 85.1 83.8 85.6 103.8 127.8 156.2 183.8 202.8 219.6 231.2 237.5 242.3 247.7 250.4 253.6 255.8 258.1 260.6 261.1 248.3 254 249.7 234.6 227.5 247.7 267 281.9 292.1 300.4 307 311.4 315.8 322.3 329.8 336.4 340.7 334.2 321.2 304.6 288.2 275.9 269.7 270.7 277.6 287.2 296.7 308.3 317.4 318.9 317.6 322.5 329.8 340.6 350.1 357.8 364.3 369.2 366.7 363.7 359.4 352.7 346.8 343.2 333.8 320.5 305.5 287.5 264.5 240.6 217.8 194.6 207.7 205.3
49.5 51 53 54.9 58.2 57.8 59.1 65.1 80 89.5 106.3 123 138.2 154.6 175 192.7 208.7 227.1 246.4 266.1 284.3 303.5 322.2 340.2 359.3 381.3 405.5 433.9 452.6 486.4 529.1 556 574.7 575 571.5 566.3 564.9 552.7 542.4 538.4 533.2 516.2 495.4 477.5 466.1 455.8 449.1 445.4 444.1 443.3 441.8 439 432 410.7 388.5 368.8 354.7 340.5 325.9 311.5 310.1 314.8 322 328.7 332.4 332.6 325.3 320.8 315.5 308.9 306.7 306.9 304.3 299.4 295.4 297.8 298.6 297.9 290.9 281.6 280.9 272.8 272.8 268.1 257.9 246.4 228.2 214.9 191.9 200.2 200.2 200.5 193.7 179.1 167.9 153.4 143.8 151.8 154 169.9 190.7 218.1 245.6 270.8 296.7 322.7 345.8 354.9 357.9 362.9 364.4 357.6 347.8 337.2 324.5 313.5 299.4 273.7 246.6 222.4 196.2 171.5 148.2 127.7 110.2 99.2 85.9 81.2 84.1 99.3 120.4 149.8 180.3 203.2 216.3 228.5 238 244.7 250.6 257.9 261.9 266.9 271.7 274.7 279.6 284.3 264.8 273.1 267.8 251.5 237 248.5 265.2 282.5 295.1 306.8 317.7 326.3 333.2 339.3 343.3 346 338.1 324 307.9 286.5 271.7 259.5 251.8 254.7 260.1 269.4 279.6 288.1 293.5 294.9 297.5 305.8 317.3 329.7 340.2 349.3 356.4 357.6 355.2 354.5 353.2 347.7 341 337.5 330.8 319.4 303.8 283 260.5 237.4 210.7 187.8 200.5 202.9
49.3 49 52.2 53.8 56.1 58.1 67.8 81.8 93.7 104.7 123.2 142.2 159.2 174.7 194.5 212.5 230.6 249.8 268.9 287.9 308.1 330 353.9 376.2 396.6 419.7 440.7 461.4 490.1 537.8 566.4 572.3 575.7 573.3 564.8 557.8 550.3 538.4 535.6 527.8 520.2 518.1 515.4 503.6 491.4 479.7 474.1 469.4 466.9 464.5 459.6 455.2 431.6 403.1 381.9 365.9 354.4 340.7 323.3 324.6 326.6 333.4 340.9 346.8 348.2 349.2 343 337 331.6 328.5 328.4 324.7 323.1 321.8 323.7 328.1 327.4 324 317.3 313.3 310.8 298.8 300.2 295.5 286 267.9 249.9 227.3 197.3 215.9 215 215.6 206.4 199.1 186.2 169.2 150.9 144.7 147.7 160.5 178.6 210.3 238.1 265.8 292.6 318.5 340.8 345.5 349.1 354.9 351.7 341.7 334.5 321.9 307.1 296.4 274.6 248.6 224.8 205.9 181.4 157.6 133.9 115.9 102.4 91.2 83.3 83.2 94.3 117.7 141.9 171.4 198.1 208.1 222.1 234.3 243.6 250.9 258.7 266.3 272.9 278.8 286.1 292.5 297 299.7 287.6 291.6 285.1 269.8 256.9 245.3 259.8 278.3 296.7 310.7 324.2 333 340.1 346.8 350.9 343.7 330.4 312.8 291.2 273.6 258.2 246.3 242.3 242.6 242.9 251.4 261.3 268 271.7 274 278.6 290 304.1 318.3 330 340 346.6 346 343.2 346.3 348.3 340.4 337.4 332.6 325.9 315.8 302.8 282.3 259.4 232.4 206.2 183.6 193.4 195.8
49 51.5 52.1 53.6 55.9 67.2 83.2 99.9 115.9 127.4 141 160.2 180.9 199.8 219.6 238.8 256 275.6 293.5 312.4 332.1 355.2 381.1 414.1 428.7 461.7 471.3 500.2 533.3 561.6 582.4 582 576.5 568.3 556.7 547.4 536.1 525.4 520.9 511.5 512.5 513.6 519.7 524.4 517.4 506.7 501.2 496.4 491.3 485 474.4 458.3 427.7 396.4 378.7 368.5 356.4 339.8 338.8 338.3 342.2 350.3 361.2 365.9 366.4 359.9 354.9 350.2 347.3 347.1 344.7 344.1 347.6 348.7 349.1 351.8 347.9 342.9 339.4 331.7 327.8 321.8 315.3 306.7 293.6 279.3 261.1 226.6 220.3 230.7 228 228 233.6 215.7 194 185.9 160.1 148.6 142.5 159.4 176.8 201.4 228.2 256.4 285.2 312.4 332.2 336.1 338.8 343.9 338 330.7 321.1 305.2 289 272.3 248.5 224.3 209.9 188.9 164.6 140 121 103.5 92.5 84.7 82.4 88.8 111.9 138.1 163.9 184.9 201.2 212.9 225.7 237.9 249.5 258.4 266.9 275.4 283.9 293.1 302.7 309.3 309.9 308.6 305.1 306.8 300.2 287.6 279.3 269.9 260.9 276.5 298.5 314.8 329.4 337.7 344.6 348.9 350.9 343.1 325.3 305.1 280.8 264.3 248.8 237.1 234.6 230 229.4 237.4 245.4 250.9 252.9 255.2 263 277.2 291.7 305.4 316.2 325.3 332.7 332.5 333.1 340.5 343.9 339.7 332.6 328.5 323.3 313.9 300.6 280.7 253.6 226.3 202.9 183.7 182.5 183.1
48.8 51.5 52.7 62.3 71.6 80.2 98.7 118.8 136.9 152.5 166 187.5 204.9 225.2 246.1 268.3 286.3 302.2 320 338 358.5 380.1 404.6 443.4 477.8 483.8 521.3 549.8 576.8 585 583.3 579.6 569.1 559.4 548.8 537.3 524.8 511.1 504.2 496.6 498.7 505 514.6 519 523.1 519.1 510 505.2 496.6 490.4 481 463.3 427.2 397.8 380.4 372.6 365.3 353.6 352.1 352.4 359.7 371.6 382 383.9 380.8 374.1 369.5 367.7 367.1 365.3 365.3 368.2 369.5 370.4 371.2 370.3 366.9 362.9 358.9 349.7 341.8 331.8 319.8 307.5 295.6 283.5 265.3 253.6 234 248.7 245.3 243 241 216 190.7 178.7 163.9 146.8 133.3 156.8 174.2 195.6 220.3 247.1 276.8 306 324.3 329.8 332.5 334.8 330.4 318.1 304.3 286.5 268.4 243.2 219.1 204 188.9 166.9 144.9 125.1 107.9 94.1 84 81.6 87.4 105.7 132.8 158.6 177.5 195.8 200.5 212.4 227.7 243.3 257.2 268.4 277.9 287.4 296.5 307.7 316.6 317.4 314.6 312.1 312.8 317.7 315 310.2 304.9 295.3 285.6 283.2 304.4 321.4 335.1 343.7 347.6 348.6 350.9 343.1 324.1 301.9 274.3 258.9 241 229.2 226.1 219.9 218.8 225.5 231.8 236.4 236 233.6 253.5 269.2 280.4 292.6 301.3 309.1 315.7 318.9 325.2 333.5 337.8 336.9 328.4 327.3 321 311.9 300 281.4 252.9 223.6 198.9 180.2 179.9 190
50.9 52.2 56.9 74.9 80.7 93 112.2 133.7 157.2 177.7 195.9 217.9 239.2 253.9 273 295 314.3 331.1 346.5 365.1 385.3 407.2 432.4 459.8 499.6 534.2 559.1 579.7 584.6 581.5 579 574.7 561.3 550.9 538 526.9 514.1 500.8 489.4 487.5 490.3 492.7 497.8 505.3 513.2 511.4 506.8 503 497.3 490.7 478.5 462.6 436.9 404.3 390.3 381.4 376 367.8 366.2 371.5 380.7 392.3 400.9 399.7 395.9 392.5 388.8 388.1 388.7 386.2 383.8 385.6 389.5 391.3 392.4 388.4 383.5 376.8 367.4 354.9 345.7 330.7 319.1 305.8 291.5 276.6 274 276.3 274.7 270.1 260.9 256.7 244.6 219.9 191.9 168.4 159.3 145.1 126.1 148.4 167.4 188.3 211 239.9 273.4 302.8 319.5 325.5 327.3 327.3 323.9 303.2 284.3 266.7 240 213.7 195.6 180 163.5 144.6 126.9 110 95.5 84.8 81.1 86.1 102.6 124.7 153.5 171 183.4 191.8 198.2 215.3 234.8 252 266.7 279.1 289.6 299.6 309.4 316.9 321 318.6 316.4 314.9 319.2 326.1 330.5 332.7 329.2 321.2 313.3 311.8 321.9 334 343.9 348.7 348.3 346.9 347.7 342.9 325.9 303.8 278.9 255.3 238 223.6 219.7 214.5 210.3 215.3 220.3 222.3 220.5 219.7 243.1 259.6 270.4 279.5 286.2 295.2 302.8 308.9 316.9 326.1 331.7 331.7 327 325.3 319.9 310.5 299.6 281.9 255.6 225.6 195.9 178.9 173.5 188.4
52 53 67.8 81.2 94.6 108.8 130.2 150.1 175.6 203.9 227.2 253.3 271.4 291 305.3 322.6 341.7 359.7 374.7 391.9 412.3 434.9 463 498.4 531.7 564.4 572.6 578.8 575.6 574.6 572.1 563.8 551.4 540.1 527.4 515.6 502.1 489.3 482.5 480.6 480.6 482.5 487.4 499.2 505 505.2 504.4 499.6 492.5 482.6 471.5 461.3 445.6 418.2 404.8 394.7 389.5 387.2 387.6 394.4 403 410.9 417.2 415.4 413 410.6 408.7 407.7 407.2 405.2 403.9 403.6 407.9 409.7 405.2 401.2 392.9 379.9 364.7 354 340 325.8 312.9 298.7 286.3 288.9 292.1 295.6 295 291.9 286.8 272.9 254.9 227.3 189.5 165.2 153 143 126.3 137.7 159.4 180.2 202.9 235.8 271 300.7 314.1 319.1 317.2 314.3 300.5 282.6 259.7 235.9 209 186.7 171 155.7 141.5 125.5 109.3 96 83.4 81.6 86 98 117.1 140.2 164.7 170.2 178.1 187.8 202.2 220.9 242.4 261.3 275.8 289.4 299.8 308.2 316 320 318.9 319.4 320 320 325.2 333.9 346.4 349.5 350.9 346.2 342.8 340.1 345.6 352.2 352.9 352 348.2 344.9 344.3 340.8 326.1 305.6 282.5 258.9 237.9 218 212.2 208.7 201.2 205.3 205.8 205.9 206.7 220.3 236.1 249 259.9 267.4 275.4 284.1 293.1 300.6 309.7 316.6 324.7 324.6 322.5 322.5 317.3 310.4 300.4 285.3 262.2 232.3 198.6 179.5 170.3 183.9
53.7 62.8 77.1 95.1 114.1 129.3 152.8 174.8 199.7 233.2 254.3 280.1 314.1 333.9 347.3 356.3 371.8 387.4 403.8 420.9 442.6 465.4 491.6 540.1 562.5 566.3 566.3 565.9 568.4 570.9 563.9 553.7 540.4 528.4 515.8 502.4 489.1 478.6 474.2 470.9 470.4 472.3 480.7 489.1 497.5 505.1 502.5 497.5 484.3 473.2 463.4 457.8 451.6 439.2 424.9 415 410 408.2 409.6 415.5 421.5 428.1 432.5 431.2 429.2 429.1 427.6 426.9 425.1 422.8 422 421.5 420.1 421.2 414.4 406.9 393.1 377.3 362.7 349.3 334.6 321.6 306.8 308.3 307.7 310.3 313.2 313 309.9 306.3 299.5 284.1 251.3 225.6 191.5 161.8 148.4 137.1 121 134.2 152.5 171.6 199.1 232.8 271.3 293.6 301.5 303.8 299.8 296.1 278.6 259.8 234.6 209.1 185.3 164.7 148.8 136.4 124 108.6 96.8 86.4 81.2 87.8 96.2 106.8 123.1 148.1 160.3 165.2 176.8 190.3 207.3 228.5 249.9 269.1 285 298.5 306.7 312.9 316.8 315.9 315.1 316.2 320 323.6 331.3 345 356.2 365.6 370.9 369.2 363.7 360.2 367.5 371 363.4 354 344.2 339.6 336.3 331.8 319.9 300.5 285 263.9 244.7 221.8 199.3 199.8 192 196.5 190 198.8 214 220.1 221.5 231 242.6 253.7 265.4 276.3 284.6 298.4 303.9 307.6 315.2 316.4 319.2 320.5 316.3 312.7 305.6 292.5 270 241.5 210.2 180.6 169 181.2
70.4 80 93.9 114.1 135.6 158 185.7 207.6 232.4 268.3 289.2 312.3 342.3 387 393.8 397.3 407.5 420.9 435.8 453.5 482.4 515.6 546.1 559 562.5 563.2 566.2 563.3 561.2 558.4 551.8 540.4 528.6 516.7 503 488.8 475.6 467.5 463.5 459.6 458.5 462.9 471.3 481.7 490.6 498.8 498.1 487.2 473.2 462 453.2 456.2 455.2 457.5 454.3 441.7 433.6 430.9 431.6 435.6 440.3 445.4 449.3 446.6 445.8 446.1 445.9 444.2 441.1 438.3 436.2 434.7 430.9 421.3 413.9 404.6 389.4 374.8 358.3 344.8 332.8 322.3 323.6 324.1 325.1 327.9 329.8 326.9 320.3 315.2 306.4 286.1 253.6 223 191.5 161.1 145 131.5 115.2 130 146.3 161.3 189.5 223.4 258.8 277.5 280.8 282.5 278.8 273.7 259.8 236.3 211.5 187.5 164.7 142.6 127.4 117.7 106.8 96.8 89 77.9 86.5 96.3 107.7 121.1 136.8 148.2 155.8 167.4 181.6 195.6 215.2 234 254.8 274.7 291.6 302.8 301.2 302.8 303 303.3 308.3 312.3 317.4 325.2 336.3 352.5 366.1 379.4 389.1 384.6 379.8 380.5 386.5 385.5 368.3 349 335.8 329.4 326.6 320.6 307.9 292.2 281.8 270.5 258 240.3 217.2 195 181.7 188.1 190.5 207.8 226.4 242.3 251.5 253.8 258.1 260.7 273.1 285.3 293.6 295.2 295.4 297 303.9 310.8 315.1 320.3 319.9 314.6 308 300.3 276.1 251.8 219.4 186 166.2 176.9
90.5 104.9 118.1 142 167.4 191.2 211.7 243.4 270.5 314.6 344.8 355 373.6 406.1 449.7 454.4 451.4 462.4 473.7 498.8 535.4 544 550.1 554.1 556.9 557.3 559.9 558.7 553.2 545.7 536.3 525.2 515.5 503.5 486 473.5 463.4 456 450.1 445.1 445.8 453 461.7 472.2 484.5 489.8 480.4 472.2 461.2 451.2 449.7 461.1 473.5 483.5 482.9 469.9 458.7 455.1 455.3 458.3 460.8 465.2 466.1 462.1 461.8 460.2 458.8 455.6 449.7 445.7 440.2 437 429.5 414.7 404.5 396.7 381.4 367.8 354 340.8 331.1 335.7 338.5 338.7 339.9 341.6 342.4 339.3 328.9 315.6 307.1 288.1 256 220.9 190.9 163.1 142.4 130 113.3 126.1 135.4 146.2 174.8 202.6 231 244.2 249.6 250.9 249.3 244.9 233.3 214.2 191 168.3 144.7 122.8 109.8 102.3 96.2 88.6 78.7 85.6 96.7 109.2 123.2 139.6 156.2 166.4 172.6 177.5 188.5 204.9 218.6 235.2 252.7 272.9 290.2 293.5 290.8 287.6 286.9 290.5 298.6 304.8 313.1 324.8 339.2 357.8 374.2 389.6 392 392.6 392.7 395.8 396.9 386.8 366.3 345.1 322.9 313.5 309.8 304.6 294.9 281.4 275.9 268.8 257.8 242.1 222.4 201.7 183.8 178.3 191 209.6 228.3 248.4 265.8 276.5 280.2 281.8 289 291.4 291.6 285.1 284.7 285.3 295.1 304.2 312 318.3 316.7 312.6 308 301.3 285.7 263 229.1 193.6 171.9 169.8
112.4 128.6 149.3 177.7 207 233 263.7 273.9 308.2 365.4 401.7 409.7 422.6 448 479.8 500.3 509.9 527.5 532.4 534.2 535.8 537.3 538.1 544.8 548.5 553 551.5 546.9 540.1 530.8 521.5 512.5 502.2 489 474.7 461.4 450.5 441.5 434.3 429.6 432 439.8 449.8 458.5 467.6 467.5 463.3 456.7 449 446.1 452.5 473 489.4 495.1 490.6 488.2 483.2 480.4 482.1 484.7 489.2 488.1 483 480.6 475.2 471 466.8 461.1 454.6 447.7 436.5 432 417.3 401.3 393.6 384 370.9 360.1 348.2 343.2 346.9 349.2 351.7 354.4 355.2 356.8 356.4 351.8 338 320.7 302.9 288.6 253.7 215.8 193.7 168.6 143.2 132.6 110.1 117.8 127.3 134.5 155.7 171.1 197.3 205.9 209.6 212 211.3 211.8 202.3 187 166.4 143.3 120.4 105.9 96.4 91.4 86.4 79.6 86.8 98.2 109.8 124.6 141.1 157.6 172.2 184.1 188.9 186.1 194.4 210.4 223.1 234.6 251.2 267 275.3 274.1 272.6 268.5 271.8 279.8 288.1 295.3 304.9 320.9 337.5 358.5 380.4 391 390 396.4 400.1 402.2 394.8 380.9 362.8 344 319.6 297.4 291.3 286.2 279.9 270.8 267.6 261.5 249.5 233.2 217.6 201.7 185.2 168.5 186.6 207.2 226.5 244.6 260.5 272.1 276.9 279.6 282 283.4 281.9 272.9 272.7 275.2 287.9 299.9 308.2 314 310.8 307.1 305.9 304.3 291.9 271.1 235.5 200.8 174.3 165.6
134.5 156.1 181.2 212.2 246 277.2 304.4 330.1 359.8 398.5 422.3 444.7 456.7 475.7 499.9 521.2 532.6 531 531.6 529.2 526.7 526.9 527.9 530.3 537.9 539.5 537.3 533.1 525.6 517 508.1 498.9 486.8 474 461.4 448.4 436.1 425.7 418.1 413.9 418.3 426.9 437 445.2 452.7 453.8 450 445.2 439.5 448.8 466.1 485.4 495.1 494.3 495.7 497.5 502.1 503.7 507.8 508.6 505.7 504 498.6 492.9 486.6 478.6 470.4 461.2 453 442 428.3 417.4 401.5 392 382.3 372 363.2 355.7 355.5 357.7 361.6 363.7 365.6 369.5 372.9 372.5 369.3 360.1 344.8 326 297.3 288 247.9 209.3 189.5 170.4 143 134.3 118.3 110.7 119.5 129.6 137.6 142.4 164.6 172.4 173.1 173.8 172.6 178.9 171.4 155.8 135.1 116.1 101 93 87.6 81.4 79.6 83.1 99.3 113.3 126.5 143.1 159 173.3 184.7 196.4 200.5 190 197.5 212.3 222.6 233.5 247 257 257.8 256.2 254.4 255.2 261.5 269.2 278.5 286 296.5 313.6 332 353.4 377.7 384.1 388.8 398.5 402.1 398.3 390.6 376.6 361.1 345.9 324.7 304.6 281.1 273.6 266 261.7 258 250.8 240 226.5 211.8 199.3 185.7 168 180.4 203.5 220.5 236.8 251 258.8 263.1 267.6 269.2 270.1 267.4 261.7 259.7 269.2 283.3 293.7 302.8 307.5 304.4 303 306.1 307.8 295 274.5 242.6 209 177.4 161.4
162.9 184.2 208.7 243.1 272.2 323.5 361.3 379.1 392.9 412.5 440.2 464.7 478.1 495.2 517.9 533.7 531.3 528.1 523.3 515.9 512.4 510.3 511.9 518.9 524.7 525.5 523.7 518.7 511 502.7 493.8 482.8 471.1 459.3 445.6 433.1 421 409.8 403.2 400.8 406.6 416.1 424.6 431.8 438.6 440.6 437.1 434.6 437.7 456.6 478.2 488.4 491.4 497 500.8 510 517.3 522.4 526.4 529.5 526 518.7 511.4 501.6 489.8 477.9 467.2 457.4 445.3 432.6 418.4 406.3 398.5 384.8 373.1 370.1 368.9 369.6 370.5 372.1 375.2 379.1 382.3 385.7 386.8 383.1 376.5 365.4 351.5 331.6 294.7 281.5 243.7 205.9 185.6 171.1 146.8 132.6 125.9 106.3 111.6 124.8 127.3 129.2 133.6 139.1 138 137.1 142.3 148.5 141.6 125.5 109.8 99 90.8 85.7 82.1 79.7 87.7 99.4 113.9 129.3 145.2 161.1 177.5 189.8 198.2 207.6 212.7 209 204 211.2 219.4 228.4 239.5 244.1 244.3 243.6 244.5 248.8 256.8 263.8 271.4 279.6 290.7 305.8 325.8 346 366.8 376.7 388 398.3 398.9 393 384.5 370.8 355.7 343.9 328.5 312.1 294.8 273 257.6 248.3 246.5 238.9 227.5 216.8 206.1 197.7 186.2 169.5 172 194.2 211.1 225.9 236.4 242.2 246.9 250.5 253.7 255.2 252 239.7 242.7 264 277 285.7 293.5 297.4 298.9 300.9 306.3 305.5 296.2 276.6 248 213.3 179 159.4
188.6 213.1 238.9 268.5 308.1 355.7 379.2 397 414.7 434.9 453.7 474.8 493.7 511.3 530.5 536.1 528.2 520.7 510 498.6 493.5 493.1 501.9 507.8 510.5 511.6 509.3 503.4 495.7 487.6 477.3 466.7 456.9 445.3 431.3 417.6 407.3 398.9 391.1 387 394.2 402 408.4 415 422.9 426.8 423.6 427.6 440.4 461.9 475.8 480.4 489.7 497.2 508.9 519.8 530.2 532.7 541 546.8 540.1 530.1 517.9 503.7 489.4 476.5 463.1 451 435.6 422.4 409.2 396.8 391.8 389.7 388.3 385.4 383.1 383.4 384.7 388 392.6 396.8 400.2 399.5 397.7 391.5 379.9 369.1 356.3 336.7 298.7 271.1 241.4 203.1 181.9 169.4 154.1 130.5 130.4 115.4 103.9 119.7 121 119.6 123.9 125.6 124.7 119.3 118.6 123.3 118.3 107.4 96.2 89.2 84.7 80.3 72.9 85.3 93.7 108.7 127.5 147 162.8 178.7 194.4 203.6 210.8 219 225.5 226.4 222 214.9 213.6 222.8 230.6 234.8 236 237.7 240.1 245.8 253.8 261.2 267.6 275.5 286.4 300.7 320.2 339.4 358 371.1 382.1 389.4 389.6 383.5 372.5 359.3 347 336.3 325.2 312.9 298.8 283.7 268.5 252 236.9 232 218.1 210.2 201.3 198.9 190.2 169.5 166.3 183 199.4 215 224.3 226.3 229.7 232.7 237.5 239.7 235.3 222.5 243.2 258.8 269.3 276.9 283.3 288.1 294.3 298.7 305.8 301.9 289.6 272.9 245.7 214 182.1 159.9
219.4 244.6 275.6 307.6 340.3 382.1 399.5 413.7 426.2 444.3 463.2 482.4 501.4 518.9 533.9 534.3 519.4 504.9 488.8 478.1 473.5 478.7 491.1 495.4 497.6 497.4 493.4 487.6 480 470.9 460.7 452.1 442.7 431.4 418.2 404.7 396.9 388.4 381.4 373.2 378.6 384.2 389.4 396.8 405.4 409.5 411.2 426.2 441.8 458.5 465.9 476.5 489.6 502.2 518.6 530.8 540.1 550 557.4 560.5 548.6 534.8 519.7 503.9 490.6 475.6 459.2 446.1 429.7 414.4 411.1 408.9 406.3 404.3 403.1 400.3 397.8 397.7 400.2 403.1 408 412 413.3 411 408 398.8 384 371.5 362 341.7 302.2 267.7 247.6 204.5 181.6 172.3 162.7 135.5 128.8 124.1 103.5 110.5 115 110.8 111 111 111.7 109.1 103.8 107 103.7 93.1 86.4 81.9 80.2 72.2 80.6 90.2 103 125.5 148.3 167.9 185 198.7 209.9 215.3 221.6 231.3 239.2 242.4 239.2 231.3 226.2 229.5 235.9 239.9 241.8 243 244.1 247.3 253.1 259.4 266.6 271.5 283.4 298.3 318.7 336.9 350 361.2 370.6 375.4 375.6 368.3 358.3 346.2 334.8 325.5 317.9 307.3 295.7 285.1 273.1 258.2 242.3 222.4 211 207 197.8 195.1 190.4 172.9 159.2 172.3 189.6 202.5 209 211.7 214.8 221.8 226.2 226.1 216.2 224.1 240.3 252.3 260.4 269.4 278.5 283.6 290.3 295.9 300.4 294.3 279.3 262.7 242.6 214.6 184.6 161.9
249 275.5 314.8 353.5 385.9 400.1 409.6 422 434.6 451.7 468.1 487 507.1 521.6 528.5 520.9 507.3 485.7 467.3 454.5 451.1 464.4 474 481.6 483.5 481.4 477.3 470.9 462.9 454 444.8 436.5 428.3 417.8 406.2 395.2 386 376 367.9 359.2 361.6 366.2 371.4 379.3 388.3 392.3 411 426.7 440.9 455.3 466.6 480.1 493.2 509.5 524 535 546.3 556.8 568.6 565 551.7 534.4 520 505.3 489.1 472.6 456.9 441.4 430.3 424.9 422.3 422 419.4 418.3 416.7 414.5 411.6 412.2 416 418.9 420.6 423.5 425 421.4 416.5 401.1 388.1 374.7 364.7 345.8 303.1 265.7 239.5 208.4 185.2 171.7 164.6 144.4 123.3 124.6 112.4 94.1 101.4 103.4 100.5 96.1 98.3 94.5 91 93.9 88.8 82.5 79.7 77.8 75.2 74.8 85.2 98.3 120 145.3 170.1 189.8 206 215.6 222.5 225.7 232.7 244.3 251.5 257.9 255.9 250.3 247 251.7 255.7 256.6 257.9 257.9 261.1 267.2 271.5 277.4 283.1 289.4 298.2 307.8 323.8 336.8 345.3 353.6 358.7 358.7 357.8 352.9 344.8 333.2 322.5 313.9 305.6 295.8 285.1 276.7 269.8 261.4 248.7 229.8 206.9 202.6 193.8 191.1 187.3 174.4 153.6 163.7 180 191.1 194.5 196.9 202.9 209.5 214 209.8 202.4 226.1 238.2 252.9 264.8 275.1 282.8 288.7 290.7 291.3 290.8 285 272.1 254.8 235.5 212.1 184.1 161.8
284.4 310.8 347.3 389.6 400.5 410.2 420.1 429.8 444.1 460.2 473.8 496 511.5 515.3 517.2 508.6 489.7 467.6 445.6 425.3 435.7 448.6 457.7 465.6 468 465.8 461.2 453.7 445.1 436.4 428.9 420.7 412.4 403.7 393.6 383.5 373.8 366 353.6 345.3 348.2 351.7 356.1 367.9 381.3 391.8 411 429.9 443.2 454.6 468.2 481.6 498.1 510.6 526.9 540.3 551.3 561.9 569.5 566.1 553.7 538.2 521.6 506.2 488 470.5 458.8 452.8 446 438.1 439.2 437.7 434.1 431.4 430 428.9 427.1 428.3 431.5 431.7 433 435.2 436.3 432 423.2 409.7 394.2 380.5 366.2 355.2 314.1 275.7 246.7 215.6 191.9 176 164.5 150.3 124.7 123.6 123.3 110 100 92.1 91.4 89.5 85.8 85.5 81.2 83.9 81.2 79 77.2 75.5 71.4 77.7 90 111.1 136.9 165.2 191.5 209.5 221.4 230 236.5 239.7 247.4 260.6 267.5 274.5 275.9 273.9 272.8 275.9 277.2 276.5 280.4 283.6 287.7 291.1 294.3 296.9 303.4 309.9 317.2 325.6 333.8 339.4 343.3 347.1 342.3 340.1 338.5 338.2 330.2 319.8 309.8 299.4 290.1 280.4 270.2 266.9 264.9 259.3 252.5 236.6 221.8 207.2 191.4 179.6 182.8 168.5 151.1 159.3 171.1 178.3 177.7 173.5 175.8 181 186 193.1 220.3 242.3 256.9 270.1 279.3 286.6 292.6 295.1 290.5 283.6 280 273.6 264 248.2 230 209.9 183.8 160.3
325.8 360.5 391.5 401.7 406.7 415.5 424.8 437.2 448.8 461 479 496.5 506 508.8 504.2 493.6 477.8 454.8 428.9 405.5 417 429.4 442.9 451 453.7 449.5 443.2 435.4 426.5 419 412.5 404.3 396.3 387.8 378.8 370 361.2 353.5 344.2 334.1 336.3 342.6 354 367.3 381.7 397 416.2 435.1 448.3 460.8 476.7 488.3 500.6 508.5 528.1 545 556.6 566.2 574.5 569.1 557.1 540 524.6 509.5 496 482.4 474.9 468.6 463.7 455.7 454.5 452 448.2 444.3 443.3 442.6 443.6 444.9 445 444.1 444.5 443.5 439.7 434.8 426.7 414.7 399.1 384.9 369 358.5 341.5 301.8 263.9 232.3 202.1 185.3 171.2 156.7 142.8 123.3 121.3 120.8 118.4 113.7 111 110.6 111.2 101.4 91.9 86.4 78.8 74.5 74.7 73.4 72.8 80.7 100.1 125.9 156.2 186 204.7 222.4 237.2 245.3 252.5 257 265.4 277.3 285.5 290.4 292.5 294.1 296.8 299.6 302.6 304.3 306.6 310 313.9 316.9 317.2 318.5 321.4 327.2 330.5 335.8 339.5 336.3 332.9 326.6 317.7 318.9 320.4 321.2 316.8 304.7 290.1 277.4 269.6 262.3 255.1 254.2 255 251.8 249.2 238.6 228.3 215.3 199.4 174.3 175.9 163.3 145.2 154.8 162 152.6 166.4 179.4 187.5 197.4 204.8 221 241.6 258 270.9 280.6 289.5 295.3 298.8 295 287 277.8 270.4 261.9 250.6 238.2 226.1 208.4 184.2 159.6
379.4 393.4 402.9 407.1 411.9 421.1 431.9 439.1 449.3 458.4 474.2 488.5 494.9 501.6 494 476.7 462.6 446.2 420.9 392.8 400.7 412.3 426.6 437.2 437.8 432.1 424.6 416.2 407.9 401.3 394.9 388.3 380.3 371.9 364.2 355.8 347.9 339.8 330 329.7 337.3 348.4 363 377.7 392.5 408.7 425.5 442.7 454.8 468 481.1 495.4 500.4 513.4 530.9 548 560.9 571 579.8 571.9 558.6 542 529.1 517.4 506.1 495.3 487 479.2 475 469.8 466.2 463.3 460.4 457.1 456.1 457 458.9 459.5 456.8 454.8 453.4 448.8 443.6 435.2 425.2 414.9 403.5 387.9 372 358.3 350.4 330.2 289.3 255.2 224 196.8 183.3 171.3 159 145.3 133.5 124.8 120.6 118 116.6 114.8 113.5 111.2 109.8 93.7 86.8 85.4 76.3 73.3 73.5 89.3 115.7 145.3 176 199.5 215.2 231.5 247.7 260.1 267.5 273.9 284 294.7 301.1 305.7 310.3 315.2 319.2 324 328.8 333.1 336.3 341 344.8 344.4 342.5 338.7 336.2 337.4 337.7 335.9 332.7 321.7 311.1 299.5 294.7 299 303.1 307 302.4 291.9 281.5 265.7 243.8 240.6 235.6 241.7 243 243.7 240.4 234.4 226 216.8 205.2 183.3 164.6 157.1 139.4 145 151.4 162.5 174 191.7 205 216.7 228.7 241.4 256.3 265.5 275.9 286.1 292.2 294.4 295.3 290 281.5 273 263.3 251.4 240.1 229.5 218.1 204.1 183.3 154.9
391.2 402.1 406.7 410.6 418 423 426.6 435.6 442.1 451.4 457.4 468 470 481 479.7 465.2 452.9 441.9 415.5 388.5 386.6 398 412.5 421.3 420.4 413.6 405.7 397.3 390.3 383.3 376.7 370.7 364.9 357.5 350.4 342.5 334.4 324.1 329.1 337.1 343.7 354.3 372.2 389.6 404.3 420.7 437.6 450.1 463.2 477.9 489.4 496.9 503.7 517 533.3 548.9 564.8 577.3 580.8 574.7 565.2 549.5 535.4 525.6 515 506.2 498.1 490.3 485.9 482.7 476.8 473.5 470.2 467.4 467.9 468.6 471.5 471.1 467.7 460.8 457.5 452.4 443 431.9 421.4 413 403.8 388.5 372.5 356.2 346 338.6 324.5 288.8 251.6 222.3 199.9 189.4 178.7 168.7 157.9 148.8 141.9 133 124.3 122.3 122.3 122.9 107.5 92.4 86.7 84 76.5 72.3 78.3 95.7 126.9 161.8 187.4 206.7 226 243.3 257.8 273.3 281.8 290.8 302.3 312.5 319.1 325.4 332.3 337.7 341.8 349.1 356.7 361.4 364.8 369.5 368.6 365.8 361.3 351.6 340.1 332.6 328.9 323.2 314.2 302 289.1 278.9 274.8 278.3 284.2 290 288.9 283.5 281.1 277 260.2 232 209.9 221.3 230.6 234 231.6 229.3 224 215.4 205 190.8 165.1 146.1 136.6 144.6 152.6 161.1 179.9 202.6 211.9 225.8 239.9 249.6 257.3 265.3 273.6 280.1 285.5 289 291.3 286.1 279.5 272.1 258.3 244.3 231.9 216.2 203.2 191.7 170.8 151.9
398.1 406.1 408.5 407.7 410.3 414.3 417.3 421.3 427.7 432.9 437.6 443.2 451.5 454.7 459.5 446.1 440 432.4 410.6 384.1 372 384.4 397.3 404.3 401.4 394.6 386.9 380 372.6 365.6 359.1 354.2 350.7 346.1 338 329.8 318.5 330.2 337 341.5 350 363.3 379.6 396.2 411.6 431.1 447.2 460.7 473.6 486.7 498.1 504.5 513.7 525.4 538.1 551 564.7 575.1 581.9 578.2 570.3 558 543.9 533.8 522.8 512.4 505.7 495.6 490.5 486.6 484.1 480.3 476.7 474.3 475.3 475.7 479 481.1 475.8 464.8 456.1 448.2 436.8 426.7 417.1 408 400.4 386.9 371.5 353.4 343.4 334.8 328.2 320.8 295.8 262 231.8 218.9 210.4 203.5 189.6 177 166.9 154.5 145.1 137.6 135.6 123.1 101.8 89.7 84.5 75.9 71.8 68.5 81.8 100.2 132.7 163.2 184.2 208.2 232.5 258.1 276.8 288.8 297 306.3 317.9 328.1 337.4 346.4 355.7 360.8 367.8 375.4 380.7 383.5 384 383.9 379.1 378.4 372.7 356.2 339 323.9 314.6 305.7 296.1 283.2 268.5 261.1 254.1 257.9 264.2 271.9 275.8 273.7 277.7 275.5 261.1 239.3 216.5 199.6 211.8 220 221.1 223.2 220.5 210.5 197 185 170.9 149.1 130 139.9 149.9 164.4 185.6 202.9 212.9 224.2 233.4 243.2 250.6 257 263.7 270.3 276.7 281.1 288.5 284 279.3 275.3 264.3 248.7 232.3 216 195.1 170.6 152.4 146.2
397.3 401.6 400.8 401.8 397.3 405 408.1 408 407.8 409.6 414.6 419.3 424.8 430.7 431.8 424.8 422.6 418.5 406 381.5 358.3 370.3 381.9 385 381.4 375.6 370.6 364.3 357.4 350.7 345.6 342.1 339.7 333.2 325.8 314.2 321 333 338.4 344.4 357 372.2 389.2 405.3 421.5 441.7 459 473.8 486.9 494.4 502.9 512.2 521.4 532.2 544.8 557.4 567.7 575.9 579.5 580.5 575.2 564.3 551.8 540.6 528.4 514 503.5 493.2 488.3 484.8 482.6 480.1 478.8 477.1 475.4 474.8 479.4 481.4 473.9 463.3 454.2 443.3 429.3 419 409.7 401.6 394.2 384.1 369.5 349.4 335.9 329.7 324.8 320.7 318.6 310.4 287.9 255.9 251.6 243 229.7 217.3 198.3 180.4 169.4 158.4 141 116.7 95.1 86.9 74.4 71.4 70.3 73.3 81.9 101.9 130 154.8 178.3 206.6 235.8 263.3 290.6 303.4 311 320.5 331.8 342.8 353.5 362.6 371.2 376.5 380.9 382.8 383.3 383.5 383.9 381.7 382 385.7 380 359.7 337.9 321 301.1 290.9 279 265 251.1 246.1 234.4 237.3 246.1 251.6 258.2 262.7 270 266.5 255.8 244.5 223.5 195.2 189.6 201.6 209.6 214 211.2 201 186.6 172.5 159.2 138.6 127.6 140.8 152 167 179.8 192.6 201 212 220.8 230 237.4 244.3 251.5 259.8 268.4 275.5 282.3 283.9 282.2 280.3 274.9 262 250.3 232.8 209 175.8 148.9 150.9
392.7 391 387.6 385.7 383 389.5 391.6 387.4 389.5 391.9 394.4 397.8 400.8 403.5 405.5 403.1 405.3 402.4 394.6 381.9 353.5 355.8 365.4 365.3 361.2 357.6 353.7 348.3 343.4 337.6 333.3 328.7 323.9 319.4 312 312.7 323.9 331.2 339.9 351.9 365.7 381.5 398.2 414.9 435 457 473.3 486 497.1 504.3 508.7 518.3 528 538.9 551.2 563.3 569.8 575.3 578.6 577.9 573.7 562.3 547.9 538.5 527.4 508.9 494.8 481.5 474.5 471.6 469.9 470.1 470.3 470.4 470.4 469 471.2 472.4 466.9 458.1 450.2 439.7 424.6 411.1 402.5 395 386.9 377.5 365.4 344.6 330.1 325.5 321 317.9 319.3 313.9 297.9 286.9 271.2 269.1 262 250.7 230.4 208.8 192.6 172.8 142.8 112.1 90.9 86.5 72.6 70.5 69.7 74.1 83.4 100 122.6 145.9 172.4 205 235.4 266 297.1 313.7 325 333.5 343.2 354.6 365.3 373.9 379.1 378 376 375.2 374.8 371.5 371 371.5 379.2 388.1 379.8 362.5 342.9 325.7 308.6 286.9 263 242.6 237.3 229 221.6 217.7 224.1 231 237.6 245.5 255.4 252.9 246.7 242.1 232.6 207.5 178.2 182.3 193.6 201.4 198.5 185.3 170.4 156 141.7 128.3 128.3 142 143.8 161.4 177 179.4 179.7 186.1 198.8 211.3 224 233 241.3 250.4 261.3 272.4 282.7 285.2 284.5 282.9 279.9 274.5 263.8 248.3 220.3 183 151.6 141.9
374.1 376.1 373.1 372.9 369.5 368.4 369.9 372.8 374.9 374.9 374.3 376.8 379.7 379.6 380.9 378.6 383.9 380.2 375.1 365.7 356.1 342.1 348.9 347.2 344.2 341.3 338 333.9 329.2 323.9 318.9 316.4 311.3 303.4 303.7 316.9 324.7 335.6 350.4 365 377.1 392 410.6 427.8 449.4 471.9 489.9 499.8 506.6 512.1 516.7 524.5 533.1 544.9 556.8 565.9 573.4 581.1 583.4 579.5 570.5 551.6 537.5 525.3 510 492.8 476.6 462.5 455.1 452.2 450 450.6 452.2 454.1 454.6 456 458.1 459.4 456.8 450.6 442.2 432.5 420.5 407.6 395.9 387.8 378.9 369.3 358.4 339.2 326.1 321.8 317.9 314.7 318.6 314.9 296.6 288.6 274.9 273.5 268 259 247.1 229.5 207 176.4 143.5 114.4 95.2 85.1 73.5 69.3 69.7 73.8 82.9 97.7 116.9 139.8 167.8 202.2 237.5 272.6 303.3 321.7 333.3 341.7 352.1 364.6 374.6 380.8 379.3 368.8 363.4 361.3 355.6 350.5 353.7 363.5 377.2 386.1 376.5 363.2 348.3 331 316.3 299.1 281.6 261.2 242.5 224.6 202.4 189.6 200.4 206.9 217.3 227.1 235.7 239.8 238.7 235.6 231.9 218.6 190.1 163.5 175 187.3 181.5 168.2 153.2 139.7 127.4 125.4 136.5 145.7 155.1 165.4 179.1 190.6 202.8 211.4 210.8 207.5 212.5 223 234.1 248.4 263.7 276.2 284.7 286.6 284.4 280.9 280.8 276.1 267.6 256.5 234.1 201.2 162.4 142.2
355 357.2 358.4 354.8 351 349.8 354.1 354.5 355.6 353.8 353.4 354 353.7 353.8 353.6 353.3 359.2 359.3 354.9 349.1 343.5 335.6 331.8 330.3 329.3 326.3 323.1 320.8 316.5 310.5 306.8 302.6 295.1 305.8 315 322.4 331.7 345 362.5 377.7 389.9 403.5 421.7 439.8 461.2 481.9 499.9 508.5 513.3 518.8 525.5 532.3 540.2 549.8 559.9 568.5 582 588 588.6 583.3 552.3 529.6 511.5 497.4 486.4 472.2 454.7 436.4 429.5 427.2 427.8 429.9 431.7 433 434.2 437 440.1 440.7 439.4 436.3 431.2 424.1 414.2 403.2 391.5 381 372.1 362.5 351.8 336.3 323.3 318 314.9 310.4 315 312.9 300.1 282.2 271.6 262.8 260 254.7 247.5 225.5 200.4 174.1 145.4 122.3 104.6 88.1 76.2 66.9 69.8 73.1 82.8 96.6 114.5 138.2 165.6 201.3 240 276.7 308.2 325.9 335.6 346.9 360.4 373.9 380.5 382 373.3 357.7 341.2 334.4 331.6 331.1 339.2 356.5 373.1 377.5 370.6 362.6 351.4 335.9 321.2 310.1 293.9 276.5 258.8 239.8 212.7 174.5 168 181.8 199.4 212.8 221.3 228 227.9 225.4 226.1 220.8 197.3 170 156.1 170.6 163.3 150.3 137.2 127.6 123.7 130.4 140.2 145.7 156.9 167.5 179.6 194.2 209.5 223.7 228.9 234.6 240.9 244.9 250.9 261 273.6 283.3 283.7 282.5 278.2 275.3 275 270.3 264.1 257 247.2 222.5 186.1 153.2
332.8 337.4 337 333.9 332.1 332 334.2 339 341.8 337.2 333.8 331.4 332.1 331.4 333.6 328.8 332.7 335.9 332.9 330.6 327 323.6 317.8 316.5 315.3 313 311 309.1 302.8 299 293.4 291.3 302.9 311.3 319.6 329.9 341.7 358.4 375.2 387.7 400.6 414.1 431 450 470.5 492.3 507.4 516.5 522.1 527.2 535 541.1 548 555.5 563.7 572.7 584.1 589.3 591 573.2 536.7 504.8 483.5 472.3 463.6 453 436.8 417.4 402.6 402.6 405.5 407.9 409.1 410.8 412.9 417.1 420.2 421.3 421.3 422.1 419.1 412.8 405.5 396.6 384.2 374.6 366.8 356.8 345.7 333.4 321.1 314.2 309.7 307 311.5 307.6 289.8 271.6 264.5 256 252.6 247.9 236.1 213.4 188.6 163.2 143.1 126.1 112.2 90.9 78 67.5 69.8 74.2 84 94 112.9 137.5 164.9 203.7 243.6 282.8 314.3 329.3 337.5 351.6 366.1 377.6 379.3 378.5 363.6 343.4 316.4 312.1 309.6 315.4 328.3 347.6 364.4 366.9 362.1 357.2 348.8 335.3 319.3 305.7 292.5 275.9 260.8 243.1 223 199.1 169.7 162.1 180.4 197.1 206.8 212.6 215.8 217.5 220.4 211.6 197.3 173.9 146.1 152.3 148.6 137.1 125 119.8 125.8 133.7 139.3 143.4 152.7 166 180.5 196.3 210.4 222.7 226.5 234.1 243.8 251.2 263.2 273.6 280.3 280.2 277.8 275.8 270.1 266.3 267.4 261.9 255.9 250.1 242.9 228.4 196.5 162.2
309.9 317.5 316.4 311.6 312.2 314.9 314.1 323.1 324.2 321.7 319.3 314.9 316.9 313.1 311.9 307.8 311.5 315.1 314.1 312.4 311.1 301.2 303.9 302.8 301.3 298.7 298.5 297.1 294 283.6 291 298.4 306.9 315.8 325.7 337.6 354.1 371.3 385.8 397.3 408.6 423.1 439.9 459.4 480.5 502.6 517.3 524.9 532 538.7 544 549.2 555.5 562.3 568.9 575.3 581.4 586.9 588.9 564.9 526.7 491.2 464.8 451.9 443.5 434 420.4 400.9 382.3 381.8 383.4 384.3 385.9 388.3 390.8 394.7 396.1 396.5 396.7 400.9 400.8 398.8 394.9 386.5 374.6 367.1 359.9 352.3 340.7 329.1 318.6 311.6 307.2 304.4 303.8 294.1 277.3 262.3 257.1 254.2 246.6 237.9 223.3 198.4 174.9 154.3 136.8 122.3 106.8 84.6 74.7 68.1 69.2 75 82.9 92.5 112.2 136.7 163.8 206.1 248 288.9 315.1 331.9 339.7 357.3 370.2 375.4 376.1 366.5 351.6 329.3 302.4 292.3 293.4 300.6 317.4 337.8 350.4 352 352.5 347.9 341.3 330.5 311.4 297.5 284 268.6 253.7 238.6 228.4 208.4 175.3 147.7 162.3 172.5 188.1 196.7 200.1 202.6 206.7 199 188.4 172 149.9 137.5 136.2 122.9 118.5 129.6 140 143.5 148.2 153.5 147.6 162.6 180.4 189.1 197.4 205 215.8 227.5 239.8 250.1 261.2 271.3 275.7 275.7 273.8 271.8 263 258.4 256.7 252.2 245 238.5 231.2 218 198.5 170.8
296 294.6 295.2 293.1 290.2 294.9 297.9 303.8 307.8 304.8 303.4 300.9 300.5 298.1 294 292 296.3 297.9 297.9 296 294.8 294.7 288.4 288.6 285.8 285.9 288.7 286.1 281.8 287.9 291.2 299.3 310.7 321.4 334.9 349.2 365.2 379.7 392.6 404.6 415.7 429.4 446.9 467.5 488.4 509.1 523.5 535.3 542.5 547.8 553.1 557.9 562.1 567.3 571.7 576.1 581.8 587.6 591 565 522.5 489 458.6 436.2 428.1 418.8 403.5 383.2 366.2 363.7 363.9 362.8 362.7 366.2 370 372.7 373.9 372.5 372.7 377.8 380.6 380.4 378.8 372.1 364.7 358 353 347.2 336.4 325.2 316.7 311.1 306.6 300.5 298.4 285 272.2 257.1 246 247.7 236.6 223.5 205.6 183.5 160.1 143.3 129.7 115.4 96.5 79.6 70.5 66.6 70.5 75.7 82.3 92.8 114.8 135.4 165.4 210.9 254.6 290.4 314.6 332.6 346.7 362.9 368.8 367.4 363.6 353 339.1 322 296.3 273.3 277.6 287.6 304.8 322.8 331.9 337.7 341.3 337.6 330.5 317.6 302 289.3 275 260.5 245.8 232.6 223.8 214.8 186.6 152 139.5 147.4 162.5 177.2 182.8 184.1 187.3 180.2 170.3 161 146.9 126.6 119.6 116.9 128.6 145.1 156.1 159 164.1 170.1 167.3 157.4 154 163 170.5 178.9 192.3 213.2 231.4 244.1 256.5 266.3 271.6 271.7 271.7 269 260.4 252.5 246.1 238.8 232.7 224 214.2 203.1 185.6 164.6
272.3 271.8 273 279.9 275.8 280 285.3 284.1 289.9 288.7 289.4 287.7 287 282.1 279.2 278.3 282.2 284.2 284.9 284.5 283.8 280.4 272 274.4 273.2 274.5 276.4 279.1 286.1 292.8 301.3 309.8 318.4 332.2 346.7 359.4 371.9 384.7 397.8 409.9 421.3 435.2 452.8 472.6 492.5 509.6 525.8 540.2 546.8 553.7 558.7 563.6 566.4 569.1 572.8 577.1 582.1 589.1 596.5 575.5 532 496.2 463.9 435.5 419.1 406.3 389.9 373.6 359.3 352.8 350.7 347.9 345.7 345.6 348.8 350.7 351.8 353.2 353.7 360.4 362.9 362.7 361.6 357.6 353.7 350.3 346.3 341.6 330.6 320.5 315.7 311.8 308.5 301.1 291.4 279.1 264.4 246.7 238.1 238.8 224.1 209 189.3 166.9 145.7 134.5 121.5 106.6 91.1 76.2 69.7 66.3 70.9 76.8 82.3 96.8 120.2 145.7 177.1 219.3 259 292.4 317.2 335.5 348.5 359.7 357.6 352.7 347 333.1 328.4 316.2 292.4 268 263.7 275.9 290.2 304.4 313.4 322.9 328.3 324.9 317.4 304.5 290.9 277.5 264.7 249.5 233.8 220.9 213.4 208.6 195.3 169.4 144.7 125.7 141.3 157.4 163.5 164.3 162.3 157.9 152 146.8 138.3 125.3 112.3 121.1 138.8 157.3 168.4 175.5 182.1 189.7 192.6 188.2 185.8 185.9 187.6 187.9 185.1 194.1 216.9 236.4 249.9 260.9 267.5 271.5 270.4 266 258.3 249.5 238.1 230.7 221.7 211.1 199.6 187.6 173.3 161.9
255.2 253.1 253.5 256.7 261.4 265.8 269.6 266.9 267.9 273.4 273.2 273.7 273.3 268.6 267.1 267.5 270.4 271.5 273.3 271.9 269.7 267.8 260.4 258.3 264.2 271.7 277.6 285.8 293.3 301.5 310.2 319.4 332.3 345.8 358.9 369.5 378.5 391.1 403.4 414.7 426.9 441.7 456.2 475.5 491.8 508.6 526.6 539 549.1 557.1 562.5 567.1 568.7 570.7 573.3 577.5 583.2 589.6 588.7 573.1 544 509.8 475.8 442.4 417.3 396 380.7 366.4 359.4 354.3 351 346 339.4 330.3 328.7 331 334.2 335.4 339.7 343.9 345.8 347.2 347.1 345.6 344 341.6 339.2 334.4 323.6 316.3 313 314.7 311.6 307.3 296.2 277.9 258 243.8 229.5 213.8 206.8 197.8 174.9 149.6 133.8 122.9 111.4 96 82 75.5 69.4 65.4 70.1 78.7 89.5 105.8 128.8 156.1 190.4 228.5 260.9 290.4 315.3 332 342.8 351.4 346.8 337.5 323.6 316.3 317.3 310.4 289.2 264.9 254 263.4 275.4 285.5 295.1 305.5 313.6 309.6 302.2 290.7 277.5 266.3 251.6 233.4 219.2 207.6 200.3 191.8 181.1 167.4 152.4 125.5 125.3 137.3 144.2 143.5 141.2 138.9 135.9 133.4 130.3 120.8 112.6 129.8 149.9 167.9 180.8 187.3 195.8 201 207.1 214.6 216.2 216.9 218.4 217.2 213.6 208.1 203.4 222.1 241.9 256.3 264.5 274.7 272.6 267 259.1 248.7 237.7 221.1 210.5 200.4 191.8 180.2 173.1 181.2
240.2 238.4 238.2 240.8 248.9 248.8 251.7 252.5 250 256.7 258.8 258.7 258.7 255.2 254.6 256.5 261 262.5 261.8 260 256.6 255.4 260.2 269.7 275.1 281.1 286.2 294 303.1 313.1 324.1 335.7 347.5 358.8 369.4 377.6 386.6 396.9 407.8 419.1 431.7 446.5 460.4 474.9 489.5 505.5 523.6 534.7 550.7 557.3 563.2 566.8 568.7 570.8 573.2 577.6 582.1 581.5 572 555.8 536.4 516 490.8 461.8 434.7 412.2 390.3 380.1 374 369 363 355.9 347.5 338.6 326.3 318.2 314.3 317.8 324.5 329.9 332 333.1 334 334.1 333.8 333.1 328 323.1 317.3 314.1 313.6 315.9 315.8 312.7 305.6 288.9 269.3 255.6 243.3 230.4 212.8 191.5 152 135.5 122.8 110.8 99.8 87.8 79 74.6 68.2 63.1 67.6 81.9 95.3 114.3 138.7 171.3 203 236.7 269 295.2 315.2 328.1 339.8 343.6 336.3 319.3 305.6 300.5 308.6 303.1 285 263.1 246.3 252.3 258.7 264.5 273.6 285.5 295.7 293.9 288.2 275.4 261.1 250.2 236.7 218.6 205 194.8 188.7 176.3 163.9 154.2 146.2 133.3 109.7 116.3 124.7 124.5 123.4 121.1 120 119.1 115.9 110.7 117.8 140.7 159.5 175.5 185.6 193.3 199.9 209.6 221.4 230.9 236.5 238.9 241.3 241.9 239.9 234.7 226.7 219.2 239.7 253.2 265.4 277.1 275.2 268 260.7 252 241.6 228.6 210.6 201.3 201.3 201.4 199.3 211.1
218.6 219.3 222.4 222.9 229.5 231.5 238.2 232.7 233.6 238.4 240.2 244.4 246.3 243.8 245.3 246.6 248.3 250.1 249.5 250.5 254.7 262 270.6 277.9 284.1 288.8 295.4 306.4 318.2 329.4 340.6 351.7 360.7 371.1 379.9 385.2 392.7 402.7 412.3 424.2 436.8 450.4 463.1 475.6 488.8 506.5 523.4 535.5 548 555.7 562.3 566.2 568.2 570.2 572.7 573.4 568.3 557.5 546.1 534 520 504.8 493.7 481.1 459.7 438.2 420.3 403.4 391 383.4 375.5 366.3 355.6 347 337.5 329.8 312.7 302.5 309.5 316.4 317 318.9 320.7 321.3 321.2 320.9 314.6 310 309 307.1 311.6 315.7 315.3 314.9 308.8 292.3 274.3 259.5 248.5 235.2 218.8 193.7 164.6 139 113.8 98.6 90.8 83.2 76.1 72.6 66.4 62.8 68.3 86.9 102.6 125.1 154.5 185.8 214.2 245.4 274.6 297 314.6 326.7 336.9 331.6 318.6 302.2 290.4 290.3 297.2 294.4 284 264.4 234.5 238.1 241.6 246 254.5 268.2 278.9 281.1 268.4 254.7 243.2 233 220.8 204 189.1 181.3 175.2 160.8 147.5 138.6 130.3 123.4 112.6 105.2 110.8 110.2 106.2 104.6 105.2 106.5 107.1 119.2 133.7 151.3 168.5 181.7 190 196.2 209.1 220.9 233.6 242.2 246.5 249.8 250.8 250.1 252.2 250.9 242.8 223.4 239.7 252.8 269.2 279.8 277.4 269.6 264 256.7 249.6 236.5 226.1 221.4 223.5 228.2 232.3 237
202.4 203.6 203.9 202.9 212.1 216.8 222.3 218.2 222.3 225.1 228.2 231.9 234 235.9 236.5 238 242.5 244.5 252.3 257 263.9 270.9 276.9 283.2 290.4 299 310.5 322.5 334.8 346.3 355.2 363.9 372.6 381.6 391.8 397.1 402.6 409.9 420.5 432.1 442.8 454.5 465.5 477.5 489.3 505.3 521 541.1 546.8 553.6 560.4 564.2 567 564.6 558.8 549.2 539.7 530.9 520.8 510.4 500.1 489.8 481.7 470.7 458.6 445 429.7 411.6 399.4 393 386.1 376.9 366.5 356.8 349.7 342.8 323.4 300 296.5 300.8 302.2 304.5 305.7 306.2 306.5 305.8 300.7 296 295.3 297.6 304.6 310.2 313.3 312.1 304.7 290.8 275.5 259.2 246 232.4 217.8 193.6 165.2 139.8 116.2 97.4 86.6 79.5 72.5 68.5 65 66.1 77 93.1 113.5 139.5 171.3 201.2 228.8 253.8 279.5 300.3 315.3 328.9 325.7 314.2 300.5 286 276.6 280.7 285 284.5 280.6 268 241 224.3 225.3 229.3 237.1 252.1 264.7 260.1 245.6 234 226 216.1 203.4 186.6 172.6 164.3 158.9 145.7 132.6 122.7 114.5 107.2 101.5 97.9 100.6 106.7 112 118.7 124.7 122.2 116.3 131.3 145.5 162.3 178.2 189.2 195.4 203.8 216.9 230.4 243 252.3 253.3 256.5 259.4 263.3 263.2 260.9 254.1 243.9 240.6 250.4 272.9 281.3 278.9 275.8 272.2 267.1 260.5 250.7 242.2 242.4 243.3 250.3 257.3 262
195.3 200.9 206.6 208 210.7 217.7 223.3 228.2 233.6 234.7 235.2 238.3 240.2 243.1 246.3 249.9 253.2 254.1 260.5 267.6 274.2 280.1 287.4 293.9 303.6 316.6 328.5 339.5 350.7 360.6 369.6 377.8 385.9 393.4 402.1 409 415.5 422.6 433.3 442.1 450.9 460.5 468.7 479.4 491.2 506.6 524 534.5 541 550.1 558.6 562.6 558.4 542 529.9 521 512.1 503.5 496.6 488 480 472.7 464.9 456.6 447.6 438.8 424 406.8 399 398.1 398 390.8 379.7 368.6 361.5 354 339.2 312.9 293.3 288.8 289.3 291.3 292.5 292.2 291.5 290.2 288.6 287.3 286.1 288 297.9 304.4 308.2 305.4 296.5 285.1 271.3 256.2 242.9 229.9 216 191.9 162 137.2 114.8 95.2 83.1 73.1 68.6 64.6 63.6 70.8 85.2 103.4 127.2 157.8 186.4 209.9 234.4 261.1 288.3 303 315.3 321.5 310.2 297.8 284.2 271 264.3 269.3 273.3 275.7 272.3 266.5 246.6 210 209 213.3 223 238.4 247.3 237.5 222.4 214.1 207.1 197.9 185 168.5 154.1 147.2 141.2 128.7 117.9 109.1 102.2 95.5 105.5 112.7 119.7 126.4 132.8 139.3 145.8 142.6 128.3 141.4 157.7 171 187.5 195.3 201.5 214 228.5 238.7 251.4 253.2 251.8 258.5 267.1 266.2 270.7 268 264.5 260.4 257 254.2 273 282.4 282.3 279.1 279 275.6 270.6 265.3 260.7 261.7 264.2 268.7 276.6 281.8
214.6 217.7 221.9 225.2 231.5 236.9 240.2 242.2 246 249.6 250.7 252.2 254.1 256 257.3 260.3 264.2 265.2 269.7 278.5 284.1 291.6 300.7 309.9 321 333.8 344.8 354.8 364.2 374 382.8 391.1 399.1 407.1 416.6 427 434.8 441 448.2 455.9 464.5 472.5 479.7 486.5 496.1 509.7 521.9 530.8 539.6 546.7 555.7 547.8 528.5 513.1 501.6 491.9 483.9 476.7 471 465.7 460.4 453.2 446.4 441.5 433.7 426.9 413.1 398.1 394 401.9 408.1 403.3 392 379.7 366 358 347.9 325.7 303.1 279.7 275.8 278.6 280.1 278.7 277.5 276.9 278.4 279.1 276.4 278.2 289.9 299.8 302.5 293.5 284 273.2 260.8 249.3 236.9 225.1 211.6 188.6 160.8 135.6 112.7 91.9 83.4 71.2 65.1 63.5 61.5 74.9 93.8 116.5 145.1 176 201.2 223.4 249.1 276.5 296.3 311.5 316.4 307.5 295.7 285.8 274.1 260.9 255.9 256.6 259.5 262.3 261 258.7 252.4 223 193.3 197.5 208.7 224.8 223 211.2 198.2 191.8 186.2 176.7 164.1 150.7 141.2 132 122.7 113 103.5 97.6 97.5 108 118.7 127.7 134.8 143.6 151.8 157.6 162.2 162.3 148.3 145.3 169.3 183.3 197.1 199.1 208.1 222.3 233.3 241.5 248.6 251.8 253.5 262 269.6 269.6 272.1 272 272.8 271.2 268.3 268.8 279.6 285.9 288.6 286.2 287.4 284.1 285.7 277.8 274.9 278.4 283.1 285.6 291 298.1
237.4 241.2 243.8 249 254.8 258.3 260.3 261.8 265.1 265.9 266.9 268.1 269.4 270.8 272.5 270.8 275.2 279.4 286 293.2 299.5 306.7 315.9 325.9 336.7 348.6 358.1 367.1 377.4 387.2 396 405 415.3 428.6 439.6 449.3 457.8 464.1 467.4 472.6 479.4 486.6 492.2 496.8 502.7 511.6 521.8 527.7 536.5 546.1 547.5 519.4 496.3 481.7 471.1 462.9 456.2 450.4 445.1 442.6 438 430.9 424.7 420.8 416.4 407 395.7 386.4 386.5 405.6 407 402.5 396.8 382.5 369.4 356.4 347.4 331.6 310.5 291.5 271 269.4 268.1 266.5 265.1 265.7 267.1 266.7 264.6 268.1 279.7 287.3 287.9 280.3 270.7 260.8 250.9 241.3 230.1 218.2 202.9 184 156.7 133.1 108.9 88.6 79.4 69.2 64.6 62.6 68.3 83.3 104.2 131.5 163.3 193.5 219.2 243 265.9 290.7 304.5 315 311.4 296.8 284.6 274.9 264 252.1 244.4 242.1 242.8 244.4 245.2 246.6 242.9 222.7 190.7 174.9 194.5 204 192.9 181.5 175 168.1 160.9 153 144 136.1 128.7 120 108.1 97 90.9 100.7 111.1 121 131.8 143.3 152.2 161.2 170.3 176.1 180.9 182.2 172.8 160.2 152 175.4 195.7 201.5 212 224.5 234 238.7 248.8 256.7 257.8 264.2 262.3 265.1 271.6 270.8 273.9 276.9 278 283.2 291.3 297.7 294.8 291.2 293.4 290.3 294.4 286.9 288.3 291.8 294.2 296.1 301.7 310.2
267.9 269.1 268.3 274 277.6 280.3 283.6 285.4 286.2 285.2 286 283.9 285.3 287.7 289.1 287.9 291.8 299.3 306.9 314 319.5 324.1 330.1 339.7 348.3 357.8 368.3 379.4 390.5 400.2 410.1 421.5 434.3 448.5 462.9 471.7 477.3 482 487.4 492.3 494.9 497.6 501.8 506.5 509.8 514.1 519.7 524.9 533.2 541.4 524 491.1 468.7 452.5 441.2 430.9 426.8 423.7 421.3 417.9 413.9 407.2 401.6 397.7 393.7 387.5 375.1 371.3 378.9 394.1 395.2 395 391 380.6 365.7 352.1 341.2 329.2 313.6 297.8 280.9 264.9 256.7 254.3 254.2 255.9 257 255.7 254 260.3 269.3 273.9 271.9 266.4 258.6 251.6 242.9 234.6 227 211.2 194.9 178.2 155.9 130.4 103.6 84.8 75.9 64.1 63 65.3 73.7 93.4 115.3 149.4 182.3 212.6 236.5 256.5 274.7 290.6 306 311.7 299.1 284.9 274.4 263.6 252.4 244.3 232 225.6 226.1 228.8 228.5 229.7 218.5 196.2 180 163.7 167.6 172.9 163.6 155 149.5 143.3 137.6 130.9 125.9 119.7 112 107 94.5 90.2 96.6 109.7 120.9 135.4 148 158.7 168.7 179.8 188 194.4 199.4 203.1 201 190.9 179.8 169.8 184.2 200.1 211.9 223 231.3 239.9 251.3 258.6 264.1 262 258.4 267.6 265.3 267 272.3 276.6 280.1 289.8 300.5 305.5 301.3 296.2 294.2 288.2 298.6 300 301 300.8 301.3 304.3 312.8 319.7
293.8 293.5 292 296.9 300.3 304 306.9 309.6 309.6 311.3 309 306.7 304.7 305.3 304.2 304.8 311.6 320.5 328.9 334.6 338.1 338.3 343.8 351.9 359.1 367 379.1 391.2 400.8 411 421.9 434.4 451.9 467.5 479.7 490.8 493.1 495.6 503.3 505.2 504.5 506.7 512.3 515 518.8 519.5 521.3 525 530.1 533.2 501.4 469.8 444.4 426.6 412.5 402.8 395.9 394.9 392.2 389.4 385.8 381.3 376.8 373 368.6 360.4 352.2 351.2 364.1 373.9 376.7 383.8 384.8 375.1 359.2 345.1 333 323.9 310.6 298.4 284.6 272.4 265.5 256.2 248.7 246.2 245.6 245.9 245.5 252.6 261.3 262.1 257.1 251.7 246.5 241.2 235.3 230.3 222.5 207.3 192.1 174.7 156.5 128.6 99.7 81.1 71 62.3 62.8 68.6 80.1 103.2 128.2 166.9 201.2 228.6 243.1 255.7 273.9 293.3 305.6 300.2 286.3 272.4 261.6 252.7 244.3 243 235 219.2 209.8 213 210.7 205.4 184.4 169.8 163.4 163.2 131.4 132.9 133.2 129.3 123.9 119.5 116.5 113.3 108.5 103.8 100.2 95.5 86.4 90.9 103.2 117.2 131 146.5 163.2 173.5 182.9 194.2 203.4 210.2 213.6 219.6 222.8 220.2 211.6 202.3 192.5 193.5 209.7 220.5 232 244.3 253 256.4 260 250.4 255 258.1 257.8 260.3 265.1 272.4 282.6 293.9 305.6 310 303.5 296 293.4 288.9 302.7 306.5 302.7 300.1 302.9 311.6 325.1 323.8
313.2 315.6 314.5 319.5 322.7 326.3 325.1 323.2 323.2 324.6 324 321.6 322 321.2 324.5 324.5 330.1 337.8 345.5 349.4 351.3 352.8 357.2 363.9 370.9 377.6 389.8 399.7 410.5 422.8 437.8 457 472.1 483.5 495.7 508.2 511.2 512.3 515.3 517.6 516.9 518.2 525.4 527.8 526.1 524.5 524.3 524.9 527 518.8 487.5 452.5 426.6 404.8 390.8 379.7 372.1 368 363.6 361.9 358 352.9 349.3 345.2 341.3 333.2 328.5 331 340.6 349.8 356.2 368.8 372.1 363.3 349.6 336.3 324.8 317.5 306.7 296.7 286.7 276.7 270.1 263.4 258.6 252.4 245.8 235.1 236.5 242.3 251.3 249.9 242.9 237.3 234.5 231.8 228.9 224.5 215.5 202.3 189.3 172.3 154.5 125.4 96.5 79.3 67.8 61.9 62.7 70.2 86.6 110.9 140.3 178.8 209.3 233.4 248.8 263.4 277.6 293.4 295.3 285.9 271.8 256.1 244.5 241.5 236.2 234.2 224.4 210.6 183.7 188.1 186.1 173.1 156.1 148.2 146 144.7 126.8 100.9 108.4 103.8 99.8 98.2 98.3 98.2 96.8 94.6 90.4 84.1 85.6 93.2 105.9 123.8 140.7 157.8 173.7 183.3 194.2 205 214.6 220.9 226.6 231.1 237.8 240.7 238.9 231.9 223.3 213.5 209.7 223.4 234.1 244.9 248.1 257.3 252.5 247.9 246.3 245.6 247.5 251.1 257.3 268.8 282.6 294.5 308.7 301.2 295.8 292.6 287.9 287.4 304.1 302.2 298.2 296.7 304.7 314.9 324.3 329.7
341.2 341.2 342.4 345.1 346.7 349.4 345.3 340.2 338.8 336.6 333.2 333.4 334.9 337.8 341.3 342.3 346.9 353.8 359.1 362.1 364.2 367.3 371.4 377.2 383.9 391.5 399.3 408.5 420.6 436.4 455.2 471.9 483.2 494.4 507.5 517.5 516.2 520.4 524.6 529.9 531.1 533.3 539.1 540.4 533.5 529.2 527.8 527.3 519 498.2 472 441.2 414.4 392.4 374.3 361.7 355.2 348.3 341.9 337.5 332.9 327.6 322.5 317.4 313.2 310.1 308.8 313 319.1 328.5 336.3 349.5 353.3 347.2 334.7 324.9 316.8 311.5 304.8 297.1 290.2 281.9 275.8 271.2 268.3 262.5 257 248.5 236.3 231 238.2 234.4 229.4 226.9 224 222.1 221.9 217.9 209.1 197.4 185.8 170.1 148.1 120.2 92.7 76.7 66 61.7 62.2 74.5 94.5 119.7 152.2 186.5 216.5 238.8 245.6 257.5 280.2 285.4 280.9 268.5 250.2 232.8 230.4 230.9 222.8 216.3 201 186.9 165.8 159.3 157.3 143.7 131.8 128.6 127.1 120.5 106.4 84.7 86.7 82.7 81 81.7 82.9 84.1 84.4 84 85.3 91.6 99.1 94.7 98 110.4 125.5 147.2 168.1 187.3 200.3 211.9 220.9 227.8 234.6 241.9 249.3 253.2 254.7 254.3 250.3 241.9 235.5 239.1 239.7 240.6 245.7 256.9 260.3 252.9 245.2 239.8 240.2 244 248.3 262.2 277.7 291.2 300.2 290 287.4 288.6 281.7 287.5 299.7 296.1 295.5 297.7 305.8 311.8 322.3 329.1
363.5 365.3 367.1 370.4 374.4 371.4 364.6 359 355.5 352.7 350.2 351.4 353.9 356.5 357.8 359 361.9 366 370.8 375 377.7 380.9 385.1 390.9 397.2 405.2 411.6 419.8 429.6 445.8 467.6 484.9 492.9 504.1 513.8 518.3 524.1 532.7 535.3 543.5 545.6 554.2 555.1 546.2 539.1 533.7 529.1 517.1 495.8 476 452.7 431.8 411.3 389.7 370.5 356.3 347 337.5 328.7 321.9 314 308.5 302.5 296.1 291.3 291.5 290.7 295.5 301.4 310.3 322.3 321.9 333.2 328.5 320.6 314.9 310.7 306.9 302.8 298.8 293.1 286.9 280.8 279.2 276.5 273.2 268.6 260.3 247.8 231 219.4 219.7 220.1 219.3 214.4 213 213.1 210 202.9 192.7 181.9 166.9 141.8 113.5 87.6 74.6 64.4 60.7 64.6 78.6 97.3 127.6 162.1 193.7 220.6 235.9 243.2 262.8 276.4 272.4 263.5 248.7 227.2 211.3 216.3 215.8 204 192 175.6 160.5 142.5 135.9 129 115.7 106.8 105.2 102.1 92.7 80.8 77.5 81.1 84.4 87.9 89.9 92.3 92.9 92.2 90.5 92.3 100.6 107 112.6 119.4 112.6 106.8 125.1 149.2 177.5 199.7 213.7 223.9 233 242.6 251.1 258.4 262 263.6 263.5 263.1 261.8 256.9 256.8 251.3 248.1 256.3 264.2 266.7 262.5 251.2 240.8 226.9 237 240.5 252.1 266.9 280.8 285 277.5 277.6 276.8 275.5 284.7 293.4 295.4 290.2 295.7 299.3 307.8 322.8 324.2
369.4 376.8 379 384.1 386.2 382.3 379.4 379.2 377.4 375.5 371.7 370.4 371.6 372.2 372.2 373.9 375.9 378.7 382.2 386.3 389.2 393.3 399.5 406 412.9 420.4 427.2 433.9 443.7 460.5 474.5 485.9 494.9 507.4 519.1 525.3 533.7 538 546.4 556.4 561.6 564 554.8 547 534.8 520.1 505.3 488.7 470.3 453.1 436.7 425.2 409.7 392 378.6 365 351.4 341.1 327.4 311.1 301.8 294.5 285.9 284.8 275.1 276.1 275.3 280.4 285.1 294.8 303.9 311 312 309.5 307.1 306.3 303.8 302.1 301 300.1 295.8 290.6 284.8 281.6 280.6 278.3 275.8 269.3 259 245.3 231.1 217.9 200 208.5 205.6 204.9 202.8 199.9 195 187.1 176.2 160 134.8 106.6 82.8 72.7 62.1 61.3 70.5 85.1 106.6 133.5 171.1 202.2 226 241.1 250.6 261.5 262.1 258.1 243.5 224.9 201.9 196.4 199.2 193.8 182.6 170.2 156.4 141.6 123.9 114 105.9 95 86.9 84.2 79.3 72.8 79.7 87.6 94.1 99.7 104.1 106.5 107.7 108.5 111.1 104.9 104.8 111 116.1 123.6 130.6 136 127.5 112.4 128.8 159.9 188.3 208.6 223.8 237.1 247.9 256.8 263 267.6 269.8 270.4 270.1 267.6 262.7 265 264.8 269.2 274.2 270.6 268.8 265.4 257.3 243.6 222.4 229.7 233.9 242.1 256.9 268.9 268.5 263.4 264.7 264.6 267.8 277.4 283.9 285.9 286.1 286.9 295 309 320.1 315.3
371.6 377.4 384.3 388.7 391.3 394.1 398 399.8 398.1 394.3 388.8 386.9 386.9 387.6 389.1 390.8 391.9 393.3 394.7 398 402.3 407.4 414.9 424.5 432.8 439.5 444.9 450.1 457.4 467.4 477.9 488.7 500.1 507.3 518.3 525.8 533 544.7 554.3 564.6 564.6 553.7 539 523.6 508.2 492.3 478.2 463.1 448.6 435.3 424.5 417.1 411.8 402.2 390.9 377.1 364.4 352.9 341.4 329.8 320.8 313.2 306.9 297.3 286.5 270.5 256.1 266 271.5 280 287.7 292.9 292.9 292.2 293 294.6 295.2 296.1 299.9 303.1 299.6 294.2 288.2 285.2 282.5 280 277.6 272.6 265.4 253.6 242.8 232.2 216.6 189.7 193.2 196.2 192.6 188.6 183.9 178.2 169 152.9 129.1 101.6 81.3 73 57.6 61.7 72.8 86.1 112.1 141.6 180.3 203.6 228.2 235.6 244.3 251.8 250 231.6 215.1 197.6 179.6 177.5 174.2 167.9 160.8 152.6 138.6 124.9 108.5 96.6 87.3 77.1 69.7 74.3 79.9 85.9 95 102.7 109.5 116.1 120.3 122.7 125.1 126.5 128.3 120.4 115.7 119.7 128.4 135.9 143.4 149.9 150.9 132.8 118.7 147.7 172.1 196 218 235 249.6 257 264.6 270 272.5 269.6 269.6 269.4 267.7 273.3 279.9 282.7 281.3 271.6 269.1 266.8 261 245.6 214.5 223.4 226.1 231.8 246.1 255.6 253.8 248.2 247.8 251.2 258.1 266.1 270.7 272.4 273.5 281.8 293.1 306.2 307.6 307.1
369.6 377.3 383.3 395 404.2 410.3 414.7 413.5 411.7 407.3 405.9 405 405.2 406.2 408.1 408 407.9 408 410.5 412.5 416.3 422.6 432 443.6 454.8 460.3 460.9 462.9 466 473.1 482.5 496.8 505.4 512.6 520.8 529.1 539.7 549.1 557.8 563.4 549.6 529 513 495 479.8 465.2 452.6 439.9 427.2 418.2 413.1 413.1 416 414.4 408 395.6 381.3 368.1 360.3 350.4 340.8 333.5 327.7 318.5 299.9 282.9 265.6 249.9 258.2 265.1 272.1 277.2 277.3 275.8 278 280.1 283 289.1 299.9 305.1 300.2 294.4 289.5 284.9 282.5 280.1 276.3 271 263.5 254 243.6 235.1 223.5 202.6 179.3 179.2 176.4 170.1 167.2 164 155.6 143.3 123.7 96.9 81.2 70.2 57.6 61.6 71.6 88.8 113.4 143.8 177 205.3 225.5 229.7 239 243.6 220.7 199.7 185.5 170.5 160.1 156 150.9 147.1 141.2 133.3 121.6 108.7 95.1 81.1 73.9 70.1 76.4 86.7 95.6 105.3 115.3 122.7 128.1 134.4 138.1 140.1 143 143.3 143.6 135.1 116.3 129.2 138.7 147.3 156.7 165.8 174 152.8 133.4 134.1 159.1 182.6 205.3 223.9 239.5 250.2 259.5 264.8 269.2 267 270.4 271.9 274.7 281.2 285 284.8 279.4 272.9 269.3 266.3 259.5 250.6 221.4 206.6 214.6 219.4 234 242.3 238.2 229 232.4 236.4 244.1 250.1 254.5 258.6 266.4 277.9 289.5 297.1 306.7 302.3
368.5 376.2 391.6 408.1 422.4 428.5 429.7 428 425.4 423.7 421.1 420 421.6 423.6 424.9 424.4 426.3 428.8 430.4 431.5 431.9 438 447.4 458.3 468.5 474.8 475.6 474.7 477.5 485.5 494.9 502 506.9 512.4 519.6 533.8 546.5 552.8 556.7 552.5 521.5 501.4 484.3 467 451.7 437.9 427.1 414.6 403.1 398.6 397.2 408.9 427.5 432.5 428.2 419.8 408.1 394.3 382.4 371.6 361.7 352.5 345.7 332.7 313.9 296.1 280 261.5 240.6 248.6 256.5 262 261.6 261.4 263.6 265.9 269.7 281.2 293.2 300.2 297 292.9 288.6 283.5 279.3 276.1 272.6 267.1 257.2 248.6 239.2 229.5 221.3 207 189 175 157.1 141.5 135.9 144.5 140.7 132 115 95 80.3 69.6 57.6 60.2 70.6 91.2 118.3 153.6 182.7 208.8 220.4 225 226.3 213.5 193.5 175.9 160.4 149.6 138.4 133.7 128.8 127.8 122.4 115.4 106.5 94.9 83.9 72.5 69.7 77.6 92.2 106.8 117.2 128.4 138.2 145.3 149.2 154.5 159.6 160.8 160.5 160.3 161 153.4 129.6 133.6 148.6 159.1 168.3 178 184.8 175.5 153.7 133.5 147.2 170.2 190.6 209 223.9 236.8 245.9 254.2 261.4 262.1 272 272.7 279.2 281.5 279.6 282.1 280.1 273 264.5 261.4 257.9 254.3 237.2 207.8 199.7 205.5 220.4 229.6 224.1 211.5 216.3 220.3 227.2 233.1 239.3 246.4 257.3 271.7 281.7 294.5 300.8 290.1
372.2 384.3 401.5 420.1 436.5 441.3 441.9 440.9 439.9 438.2 436 434.5 436.3 438.4 440.4 444.9 451.1 456.4 458.8 457.2 454.8 457.8 466.1 474 484.1 491.6 495.2 493.5 493.4 500.8 503.3 506.1 507.8 515.3 527.8 540.2 548.7 550.2 544.7 520.6 494.3 475.5 457.5 440.8 424 410.1 400.1 388.4 381 377.9 385.8 400.8 415.4 421.5 423.2 428 427.8 422.3 408.5 395.4 383.5 373.8 363.6 350.2 328.4 309 288.6 269.7 252.3 234.5 241 246.8 247.5 246.4 248.1 251.5 257.1 268.1 279.4 286 289.1 289.3 284.7 278 271.7 270.1 267.8 261.9 251.1 240.4 230.6 224.1 216.5 208.3 196 183.3 174 157.9 140.2 115.4 122.8 119 106.6 89.5 76.5 69.5 57.6 59.9 70.5 94.6 126.7 162.4 190.2 214.8 217.8 220.3 202.6 185 169.3 153.1 137.9 127.1 118.3 111.1 106.6 107.2 102.5 96.8 90.3 81.3 72.9 67.4 79.8 96.2 112.6 128.3 141.3 152.7 163.3 171.2 174.2 178.5 182.8 184 178.3 180 176.8 167.1 141.2 138.3 155.7 166.3 177.3 186.5 194.4 200.6 179.6 154.9 139.9 155.9 174.5 191.1 206.5 219.9 229.9 239.2 247.1 256.5 266.3 270.5 275 274.6 278.5 278 273.6 273.4 258.6 259.2 258.3 252.5 239 224.6 201.7 191.8 205.7 216.4 210.4 195.6 199.7 203.2 208.4 214 221.7 233.9 247.8 261.7 275.4 288.1 286.6 275
379.6 397.7 414.1 430 443.5 449 453.7 456.3 454.7 452.6 451.7 451.8 456 461.3 465.5 470.9 474.3 478.3 480.9 480.8 479.7 479.9 483.9 491.2 494.8 498.9 504.2 507.5 510.2 511.7 514.9 518.3 519.8 528.4 538.7 549.7 555.2 538.9 514 486.3 469.3 451.5 434.2 417.8 401.4 387.1 375.7 366.7 361.1 361.8 370.8 382.3 390.7 396.4 402.5 409.4 414.1 416 415.3 409 398.5 389.7 378.4 365.9 344.8 321.3 300.4 282.1 264.4 247.7 229.6 233.2 235.6 233.6 234 237.9 243.4 253.1 262.8 269.6 274.2 277 272.6 267.2 262.7 260.6 258.1 254.6 244.7 231.1 222.2 220 216.1 209.4 201.9 194.6 186.4 175 159.7 145.3 114.7 103 94.9 78.3 69 68 60.1 61.4 71 97 130.8 169.4 191.9 202.5 214.2 202.8 180.7 163.3 139.5 126.7 120 112 104.3 92.1 85.6 84.1 81.3 76.6 70.9 67 68.5 80.1 97.7 116.1 134.5 151.7 166.2 177.2 188 194.8 197.6 201.7 200 201.8 198 197.8 191.6 179 154.8 142 155.8 172 183.4 194.2 203.9 211.3 202.9 182.3 165.8 156.1 155.6 171.2 188.2 205.8 216.6 226.2 236 246.6 256 265.8 270.6 277.4 280.3 272.3 268.1 272.4 258 258.3 255.2 249.6 237.7 233.9 217 193 191.4 200.2 194 183.9 178.3 184.4 189.1 194.4 203.3 216.5 233.5 249.2 266.7 276 276.1 261.3
389.5 405.6 417.3 431.5 444.2 456.6 464.5 468.6 472.6 471.8 471.9 473.9 478.3 484.2 488.5 492.4 496.4 500.2 503.1 503.8 502.3 499.4 503.7 508.5 513.4 517.6 522.1 522.3 523.2 525 529.3 529.7 536.3 541.1 552.9 556.8 541 511.7 484.6 464.8 447.9 430.9 413.5 396.8 380.5 367.3 353.5 344.2 342.4 347.7 355.1 358.9 365.2 371.6 379 387.8 395.2 400.7 403.5 400.6 399 393.4 386.1 377.8 363 340 316.5 296.2 278.4 260.8 244.2 226.7 222.7 223.1 225.5 228.1 231.7 237.4 245.2 251.1 255.3 257.5 256.1 253.1 250.1 248.1 246.6 244.6 233.9 219.6 216.5 220.5 216.2 211.6 207.2 202.5 194.9 185.8 177.5 166 147.6 120.7 100.2 86.5 77.7 69.7 59.8 58.9 70.6 99 133.8 156 177.4 185.1 191.4 176.7 157.2 139.6 123.8 110.8 101.2 95 86.6 78.8 70.4 67 62.4 66.2 71 77.3 74.3 102.7 121.7 135.9 154.5 172.2 188.1 202 209.9 212 210.8 214.3 214.7 215.8 210.1 211.4 205.2 188.1 169.4 163.5 157.5 168.9 187.5 198.6 210.8 221.3 221.7 210.7 194.5 182.1 174.2 166.1 168.2 187.6 206.2 218.5 227.2 236.8 246.7 257.8 262.3 269.5 271.1 264.4 265.1 270 259.2 257.3 252.6 242.5 238.6 239.3 232 207.1 187.7 177.8 176.1 170.4 165.8 172.8 175.5 168.2 177.7 192.1 211.2 233.6 255.8 267.1 260.1 243.6
393.5 404.6 416.4 430.8 445.9 461.9 472.9 479.6 484.9 490.8 492.7 495.6 498.5 504 509.3 512.2 517.7 522.6 528 528.8 527.3 525 524.9 531.3 530.7 535.5 537.5 535.6 542 541.9 541.3 547.7 550.8 555.6 556.7 533.6 508.4 482.3 459.1 443.8 428.1 412 394.9 378.7 363.9 348.3 334.7 326.3 325.8 332.7 333.5 336.8 341.4 347.8 355.1 365.3 374.2 382.3 387.1 388.8 392.9 391.1 387.5 382.9 373.4 358.2 334.9 310 290.6 272.8 256.6 240.3 225.2 214.9 216.5 219.1 221.6 223.7 227.9 231.7 234.9 237.1 237.7 236.8 236.4 235.5 235.3 234.2 224.4 212.1 216.8 220.5 217.7 216.9 214 209 200.6 192.3 186.2 176.6 162 142.3 123.5 102.3 84 72.1 64.7 56.1 71.4 87.5 113.8 145.4 154.7 166.3 165 151.2 133.6 118.4 104 92.1 80.3 74 69.3 63.4 60.4 71 79.6 84.4 88.3 94.1 85.2 97.8 122.8 147.9 169.2 188.9 203.9 213.8 217.5 220.1 222.1 227.2 225.6 221.9 222.3 224.8 220.2 200.6 193.7 187.2 179.7 175.3 179.1 202.6 214.4 222.2 227.8 229.1 222.4 211.2 202.6 195 186.4 175 195.7 212.9 222.7 231.2 239.2 246.6 252.4 259.9 260.8 258.2 261.8 265.8 259.6 250.8 247.9 236.6 239.1 241 232.8 220.9 202.3 186.4 177.8 172.3 165.7 157.5 169.3 157 151.7 168.7 190.4 215 243.3 257.3 241.9 225
394.6 405.9 416.5 429.8 446.6 464.5 478.6 488.2 498.4 507.3 513.9 518 519.7 523.6 527.7 531.8 539.1 545.6 549.7 551.1 549.5 547.6 551.1 552.1 552 558.2 560.2 559.5 560.2 560.6 565.1 566 565.9 550.3 529.2 500.7 474.3 455.2 437.1 423 409.7 394.2 379.3 363.6 348.4 331.7 320.7 313.7 313.1 315.6 313.9 314.7 319.4 327.5 333.9 342.8 352.1 359.8 365.1 371.1 377.4 381.1 379.9 376.4 374.1 365.7 349.1 324.8 301.8 285.7 269.2 252.9 238.2 224.5 211.7 208 209.2 209.7 213.3 215.3 217.3 220.2 221 221.1 222.7 220.2 223.5 222 213.2 208.9 214.2 218.6 221.2 222.3 219.7 213.4 204.1 197 190.2 179.9 166.3 152.6 147 125.4 100 80.7 66.1 57.7 63.6 74.7 98.7 125.2 136.4 142.5 136.7 125.3 112 98.9 85.1 76.5 67.4 61.8 59.1 63.5 74.9 86.6 94.4 101.5 108 116 113.2 93.7 106.7 132.9 161.3 184.6 204.1 216.4 221.5 222.3 227.5 230.3 224.9 225.7 234 235.4 233.2 225.1 219.1 212.2 204.5 197 198.4 202.7 213.5 225.8 234.2 241.3 246.4 242.6 233.6 224.4 213.9 203.9 193.7 204.4 220 225.5 229.7 236.4 243.5 250.8 254 254.2 258.7 259.1 251 244 238.8 235.7 239.4 240.5 232.5 229 227.2 210.6 199 188.3 172.5 155.7 160.8 161.5 142.9 150.2 170.9 199.5 229.8 244 227.8 208.3
395 407.1 418.1 429.2 449.8 465.9 481.2 498.3 511.3 525.3 534.5 537 539 541.7 545.3 552.4 558.4 569.5 574.4 574.3 571.4 572.2 572.2 572.8 577.7 579.4 577.5 583.2 583.3 587.3 583.5 581.5 553.9 524.3 497.8 468.8 444.8 430.3 418 405 391.9 378 363.9 349.7 335.8 322.4 313.2 305.3 302.7 302.3 300.1 297.6 302.5 308.8 315.4 321.3 330 337.2 343.3 351.7 360.9 366.4 368.4 366.6 365.4 364.5 354.4 338.8 317.6 299.1 282.1 266.7 252.3 238.3 225.6 214.5 202.3 196.9 199.2 200.5 204.2 208.2 208.6 205.7 208.1 207.1 210.2 210.6 200.6 199.7 208.3 215.2 221.2 225.1 221.9 214.4 207.9 201.6 193.2 182.4 169.7 161.3 158.6 149 125.1 99.2 75.8 60.9 57.3 66.7 87.5 109.7 121.6 126.5 113.8 104.6 93 81.8 70.5 62.7 55.9 58.8 64.5 76.1 87.5 99.6 112.2 121.8 132.1 139.1 145.1 127.8 105.8 118.5 148.4 171.2 189.3 202.9 211.5 219.4 225.9 225 228.8 236.9 243.8 246.6 244.6 240.9 236.3 234.8 229.4 221.6 225.3 229 234.5 240.3 249.5 257.7 263 265.5 263.9 255.9 244.4 232.4 223 213.8 209.5 216.9 225.5 228.5 233.7 243.2 249.1 251.7 256.2 253.4 245.4 235.1 232.3 233 236.1 235.9 229.7 230.9 231.2 220.2 207.4 194.8 176.7 156.4 154.3 159 145.1 136 159.7 188.7 219.1 231.3 214.3 194
397.6 408.8 420.5 433.3 450.1 466.2 484.8 504.4 526.9 540.9 548.7 551.5 553.1 559 569.3 579.7 588 598.1 603.8 604.7 605.3 602.3 600.6 599.6 599.1 597.8 597.2 597.8 602.6 607 607.9 572.2 534.5 501.7 476.4 445.4 421.9 409.2 399.7 387.8 375.6 363.8 350.9 339.8 327.6 317.1 309.9 302.7 296.9 289.1 286 284.4 288.2 292.1 296.1 302.2 310.9 317.6 324 332.2 341.2 348.6 352 355.8 355.9 354.9 353.2 343.8 331.1 314.8 296.8 281.5 268.2 253.4 240.2 229 213.5 200.5 193.5 187.9 193.4 198.3 197.7 193.7 195 193.2 194.7 194.8 185.8 189.1 200 209.8 219.8 222.6 221.3 215.9 209.6 205.3 198.4 186.6 173 170.5 176.1 173.1 153.2 128.5 99.3 73.3 53.4 60.8 74.6 92.6 108 109 96.3 86.2 78 69.6 61.8 54 58.1 66.2 77.3 77.3 95.4 114.2 131.9 143 152.5 161.6 166.7 161.4 134.8 112 138 156.7 172.7 185.8 195.8 206.4 215.6 223.3 233.1 241 250.1 253.3 254.5 252.7 251 253.4 249.9 249.1 252.1 254.6 259.7 263.9 267.5 272.3 277.1 279.4 279.6 280.5 272.7 261.2 250.3 241.2 235.7 233.8 234.5 236.7 241.4 246.2 246.5 251.2 257.3 258 251.7 239.2 228.9 228.3 229.6 228.8 225 223 219.2 214.1 203.8 190 173.1 156.9 149.6 155.7 146.3 125.5 150.4 179.1 209.5 218.8 204.6 182.5
401.1 413.8 427.1 438.6 452.7 468.8 488.4 510 532.9 551.9 559.1 564.2 575.7 587.4 598.5 607.8 616.3 622.5 627 628.4 628.7 627.3 627.7 625.8 623.9 620.7 618.3 620.7 622.6 622.9 608.7 561.2 519.9 487.3 458.5 431 410 395.8 384.2 374.2 362.9 352.7 343.7 335.2 329.7 322.9 315.7 308.3 302.6 294.6 285.3 278.6 273.1 275.6 279.5 286.4 294.4 301.8 307.6 314.2 322.3 330.7 337.3 341.8 344.5 345 342.9 341.4 335.4 325.8 312.3 297.8 284.5 269.7 254.7 242.3 226.7 212.3 200.8 193.2 185.2 184.2 184.7 180.4 177.8 182.4 184.6 184.9 178.8 181.3 192.2 203.4 215.1 219.9 221 215.5 211.9 208.5 204.2 193.4 181.3 185.9 191.2 189.2 174.5 159.3 128.7 100.6 66.8 52.4 61.9 72.1 86 89.5 82.9 75.1 70.3 66.7 51.7 54.3 62.9 75.9 87.6 92 98.7 125.2 143.8 156.6 166.6 174.9 182 186.3 165.1 141.4 125.4 138.8 155.6 168.7 181.5 190.7 201.6 214.9 229.6 240.7 253.5 259.4 263.6 264.2 265.8 268.7 267.2 270.3 274.1 275.3 276.5 277 280 284.2 286.4 288.2 290 291.8 294.5 287.1 276.8 267.9 263.2 260 259.9 260.9 260.5 261 260.4 261.5 266.2 266.7 258 244.7 231.1 219.8 220.2 219.9 216 212.2 207.9 201.9 194.5 183.8 173.5 162.5 147.3 152.5 143.4 123.3 143.1 173.1 200.7 212 194.7 171.7
405.6 418.2 432.7 443.4 456.4 471.6 491.4 511.5 538.8 555.5 567 581.9 600.4 612.5 622.5 631 636.8 640.4 644.7 645.2 647.3 646.9 646.8 645.1 642.7 640.4 639 635.7 633.3 632 620.1 568.2 518.5 482.6 454.8 431.6 410.9 392.9 380.1 369 359.5 350.3 344.4 339.5 334 327.8 320.7 313.7 306.3 297.1 288 279.1 270.5 261.7 266.6 272.5 280 285.2 290.6 298.2 306.1 313.4 319.1 323.8 327.5 332.3 333.7 333.4 333.4 330.3 325.1 315.5 300 284.6 266.3 252.8 239.3 226.9 214.3 202.9 194 185.4 174.3 172 166.1 169.6 176.7 177.1 170.4 175.5 185.7 196.4 205.1 213.4 213.5 212.2 211.7 209.6 204.8 196.8 191.6 194.7 199.1 193.9 183 173.5 154.3 127.9 95.6 73.4 58.1 50.5 62.1 68.7 71.8 69.8 68.6 65 56 56.8 68.2 77.4 88.1 96.7 106.5 126.9 150.3 163.1 177.9 188.1 192.6 197.6 196.3 173.9 152.4 137.7 137.4 151.7 168.5 177.6 189.9 204.3 219.3 235.8 250.8 261.9 269 271.9 276.2 281.8 282.4 287.1 291.2 288.2 287.1 285.8 288.2 290.3 291.3 293.1 295.9 301.5 305.7 302.3 294 289 286.1 282.5 278.4 276.2 273.3 270.2 272 272.1 271.4 271.4 265 248.2 227.7 202.6 203.3 202.6 200 198.5 196.4 191.8 184.1 179.2 176.1 164.9 142.7 146.6 137.3 116.6 140.6 169.9 196.2 203.2 184.2 159.4
407.1 421.1 435.9 447.5 460.7 476.7 495.5 516.5 542.1 559.6 578.8 602 617.6 630.9 640 645 648.4 650.6 654.2 656.4 658.5 658.4 658 657.6 655.9 653.3 650.5 647.4 643.3 638.9 614.8 574.7 529 489.3 463.7 438.8 416.1 396.2 383.2 372.5 362.2 353.9 348.2 343.5 338.1 332.3 325.4 319.7 311.9 303.9 295 284 274.6 264.1 255.7 258.6 265.6 270.5 276 282.6 289.2 294.8 300.1 304.5 308.8 315.1 319.9 324.7 326.7 329.6 329.7 322.6 314.5 299.6 276.1 262.2 251 239.7 227.8 216 205.8 197.5 190.4 182.5 171.6 161 166 168.8 162.6 168.6 179.5 187.2 193.8 201.5 202.8 205.2 208.6 209.5 203.4 196.6 195.1 202.7 202.8 195.3 185.3 177.5 161.5 146 129.6 115.1 100.3 74.5 60.6 49 58.3 64.2 67.1 63.3 49.4 61.1 69.2 74.1 84.1 104 121.2 122.2 148.3 167.9 183.5 190 194.7 201.6 207.3 203.9 182.9 165.5 159.9 150 150.7 163.7 180.5 194.6 208.9 226 244.2 260.5 270.8 278.4 286.3 292.6 293.6 297.5 302.7 294.7 291.8 290.2 290.2 292.7 293.5 295.9 299.9 305.8 308.2 305.9 302.2 299 295 289.1 283.2 279.5 273.2 272.9 272.6 270.1 271.7 271.5 259.1 241.8 226.7 214.9 203.5 189.3 186.9 184.1 182.7 178.5 174.7 173.7 167.6 152.7 138.9 139.5 128.1 114 141.5 165.9 188.4 192.2 174.4 148.5
409.5 424.1 438.2 452.3 466 483.2 501.1 522.1 539.9 561.5 590.5 612.8 628.4 639.3 642.2 645.3 647.4 651.6 656 660.7 664.3 665.1 664.8 664.2 662.6 658.9 656.6 655.6 652.8 648.3 620.1 580.6 543.4 505.7 476.4 451.4 427.9 407.3 389.6 378.1 367.1 359.3 353.5 348 342.4 336.9 330.7 328.2 325.8 319.2 305.7 293.3 278.7 266.6 257.9 249.6 251.9 256.1 262 267.3 271.5 276.6 281.3 282.7 289.8 296.7 303 310.8 318.2 323.6 327.6 324.7 316.7 306.4 285.9 270.8 262.3 251.1 240 228.4 218.7 209.7 201.5 193.2 183.2 171.4 156.7 157.1 156.3 158.2 168.1 175.5 182 187.3 188.8 192.8 200.1 202.7 197 191.9 195.6 202.8 203.1 195.9 184.8 178.2 163.5 159.5 161.2 157.5 140.5 124.9 101.6 75.2 58.2 51.3 53.4 47.7 49.3 58.4 67.4 71.2 82.1 105.5 129.2 142.3 144.7 166.3 174.8 182 194.5 206.4 215.6 219.5 213.9 199.4 188.1 176.3 169 162.7 168.4 186.1 201.7 216.7 235.2 254.2 268.5 281.1 292 298.6 300.1 304.1 303.7 294.5 289.9 287.8 289.9 293.6 291.8 295.6 302.7 309 304.1 306.4 302.9 297.7 292.4 285.1 278.3 270.2 265.3 265.6 263.3 266.2 269 260.5 247.1 233.4 222.6 213.7 204.1 200.1 196.8 190.6 182.4 173.8 157.9 154.3 145.5 141.7 120.9 133.5 121.7 117 139 152.1 166.8 171.8 157 137.3
409.1 426.9 442.3 456.9 470.8 487.3 505.3 524.1 541 564.6 596.2 614.9 627.7 630 631.8 634.9 639.1 646 653.3 660.9 666 665.5 663.7 661.8 658.2 657.2 656.9 657.5 656.2 651.5 641.7 607.6 570.6 531.3 495.9 467.6 445.2 425.6 408.3 392.4 377.5 367.4 360.7 354.3 349.4 345.7 344.6 348.2 349 339.1 318.8 299.7 281.6 267.8 258.2 248.9 240.6 243.7 249.2 252.4 256.3 259.3 262.1 263.3 271.9 279.5 287.2 296.7 309.5 316.4 320.6 318.5 314 306.6 294.7 284.6 273.7 262.5 251.3 239.8 229.4 220.4 211.9 204.1 195.1 183.3 168.8 144.4 148.1 142.2 150.8 162.4 170.1 172.4 173.5 177 183.1 186.1 184.9 183.9 191.9 198.5 197.6 190 183.1 174.1 163.7 165.1 170.6 172.2 162.3 149 135.6 116 91.9 66.2 60.5 60.1 51.9 48.6 58.7 68.6 78.5 103.4 129.2 150.7 163.1 157.6 164.8 178.7 193.8 210.6 221.3 229.5 230.5 227.1 217.3 205.1 195.5 189 181.8 178.5 196.1 211.9 229.3 249 266.5 280.5 291.9 297.5 297.3 300.1 295.2 290.2 286.2 284.9 286.7 286.8 289.2 295 303.2 307.3 302.1 303.6 296.5 278.3 262.6 258.3 256.9 254.2 251.9 249.6 255 259.8 255.2 246.3 236 225.6 218.1 214.2 211.3 212.2 210 203.4 193 175.7 158.6 145.5 139.2 134.8 118.5 117.7 113.9 106.8 112.5 127.1 141.7 147.9 138.2 127.1
411.3 429.9 446 461.3 477.7 493.6 509.2 526.8 546.2 569.1 590.7 611 614.7 613.4 615 617.2 624.8 635.1 645.5 651.1 655.3 653.1 650.1 645.5 646.1 647.6 648.4 650.1 649.1 644.4 637.7 628.5 610.6 568 531.7 505.1 479.3 454.7 435.3 412.8 394.1 380.3 374.3 368.6 364.2 364.6 362.7 365.3 369.1 354.6 328.2 302.3 284.4 268.2 258.3 249 239.7 233.5 236.3 238.2 241.2 244.2 247.3 249.8 257.1 264.7 271.8 282.5 298.7 305.9 308 306.2 302.3 299 293.6 287.7 280 270.4 260.8 250 239 228.9 220 213.2 204.1 192.3 176.9 156 136.7 123.8 131.7 145.6 157.1 158.3 156 160 164 170.1 169.7 172.8 185 191.5 188.9 183.3 178 168.1 165.1 169.8 175.1 172.6 164.8 157.5 145.4 133.9 116.5 97.2 86.3 70.9 60 41.9 53.4 65.2 77.5 100.4 124.1 156.1 172 179.8 181.7 179.2 190.8 206.9 223 228.8 237.4 241.7 241 234.5 224.2 215.8 207.5 197.6 193.4 210.3 227.6 246.5 264.4 278.4 284.6 286.3 286.7 284.4 282.2 281.8 280.2 279.2 281.8 280.9 284.8 293.7 299.6 305.6 299.4 298.5 285.6 252.4 232.8 226.2 231.3 232.5 235.6 237.6 245.8 249.1 243.1 236 224 218 215.2 213.9 217.7 221.4 223.1 219.3 208.1 184.5 176.3 170.8 161.5 156 152.5 147.5 142.2 131 106.3 106.6 114.9 119.7 117.2 111.9
413.3 430.6 448 467.5 485 501.1 517.3 535.1 552.4 566.6 585.5 594.5 592.9 590 589.8 595.7 604.7 619.9 630.6 635.1 635.5 632.8 628.3 625.1 624 625.4 628.5 630.2 630.7 627.2 621.6 613.5 603.2 590.2 575.6 547.2 521.5 496.6 468.6 434.7 409.4 397.7 393.6 391.3 393.9 393.4 388.9 379.5 377.4 364.2 331.3 304.9 287.4 271 260 251.8 244.5 232 224.1 225.7 228.2 230.9 233.9 235.9 241 248.3 255.8 270.7 285.7 291.7 292.5 290.7 288.3 286.4 287.9 288.1 283.8 278.3 269.8 259.3 247.7 236.3 227.7 221 212 200.1 185.2 165.6 146.9 131.7 119.8 129.2 141.5 145.7 142.7 142.3 145 150.3 152.6 162.1 175.2 181.6 177.6 175.5 170.5 164.7 167.2 173.5 175.8 170.5 163 156.2 147.1 136.6 123.6 110.2 91.9 71.8 60.9 42 50.5 61.7 76.9 98.5 120.4 156.2 177.6 186.3 199.1 206.1 203.2 202.3 219.8 234.7 244.8 249.9 252 254.4 251.1 244.9 234.6 224.6 220.3 225.8 233.3 245.4 266.3 276.9 278 277.4 273.9 267.8 266.3 265.5 264.5 266 268.4 271.7 279.6 288 295.8 298.1 294.8 289.2 279.9 243.7 210.9 200.3 203.6 211.6 218.7 229.4 233.8 233.8 229.4 218 211.7 211.6 211.2 219.7 221.6 229 236.5 234.5 222.4 200.6 196.1 190.9 184.7 181.3 179.3 171.5 166.1 152.4 126.9 105 95.3 95.3 95.7 95.2
411.6 431.6 453.5 472.3 488.9 505.7 521.1 537.5 553.6 568 575.7 573 567.8 563.6 563.6 569.4 579.5 598.2 609 612.1 611.9 606.1 601.6 599.3 599.1 602.6 607.2 607.4 608.4 606.6 602.2 594.1 584 573.7 564.7 553.9 540.3 515.4 478.3 445.5 429 424.1 421 424.9 422.6 414.9 405.1 392.8 386.2 366.1 337.2 310.7 289 272.5 261.6 255.9 246.7 236.1 228.1 220.4 217.6 218.6 221 222 227 233.7 244.5 258.7 268.7 271.9 273.2 273.2 274.1 279.8 283.5 288.4 287 283.1 277.3 267.5 255.8 243.7 235.8 229.8 220.6 207.9 192.8 172.4 152.9 138 125.4 110.2 124.9 128.3 127.3 127.3 130.6 133 136.5 148.4 162.5 167.8 165.1 165.2 161.8 161.7 166.3 171.3 173.6 168.1 160.5 152.7 143.2 132.6 123.1 112.7 88.8 68.6 55.6 41.1 50.4 61.6 76.6 96.5 119.1 150.8 178.2 196 205.5 216.1 225.9 227.7 225.1 240.8 252.9 258.2 263.8 267.5 268.7 268.5 264.6 255.3 250.7 251.6 257.5 259 273.9 280.7 273.5 269.5 262.4 255.5 248.7 245 244.1 244.6 247.3 252.4 263.1 275.9 286 286.6 285.6 276.1 268.7 241.8 205.5 175.2 178.5 190 197.4 215.3 217.8 213.2 206.4 201.6 202.8 206 213.2 223.1 225.7 238.1 250 249.8 236.5 218.6 214.9 214.5 211.1 207.6 202.4 195.8 190.1 179.3 154.5 132.7 120.9 111.8 105.4 102.4
411.3 434.8 454.4 473.6 489.9 507.4 521.8 537.3 555.5 562.8 554.1 546.8 540.8 539.8 539.8 544.5 556.6 573.4 583.1 584.7 583.7 578.2 571.7 571.4 571.6 575.7 582.8 585.9 586.1 587.6 582.9 574.7 565.5 556.4 547.1 537.9 523.3 508.3 487.9 466.2 454.3 450.2 445.3 437.6 426.8 420.7 415.7 402 392.5 375.5 344.6 317.4 297.3 278.5 265.1 256.9 250.4 241.9 234 225.9 217.1 210.5 210.4 211.7 216 223.3 232.1 241.3 248 250.5 252.6 254.7 259 269.9 278.3 283.9 287 284.9 279.6 271.9 263.1 253 244.7 239 233.4 220.9 202.5 178.9 157.7 143.4 129.8 116.1 105.9 113 114.2 118.4 119.2 120.5 125.1 135 143.6 148.7 150.4 150.6 153.5 158.3 163.2 167.3 167.9 162.9 155 147 136.7 127.3 119 105.1 82 62.5 49.5 44.1 49.4 62.7 77.4 98.9 121.7 149 173.9 193.6 210.3 227.8 237.2 246.5 251.2 258.1 265.8 270.4 276.6 282.3 282.3 285 284.8 282.8 281.5 281 284.4 284.7 289.1 286.8 272.8 257.6 248.2 238.1 229.6 224.4 221 222.6 225.2 231.3 242.5 255.2 265.1 271.3 269.5 262.7 254 238.7 211 176.2 157.8 166.3 183.7 192.8 190.5 184.9 178.7 180.9 192.1 209.4 216.5 229.4 233.3 247.2 261.6 260.6 250.4 238.1 235.2 234.8 230.1 229.5 225.9 220.5 216.2 207.2 185.8 166.6 152.8 141.7 131.7 127.6
413.3 434.4 454.4 474.9 491.4 508.7 523.3 539.8 552.6 545.2 532.9 522.8 516.4 515 515.7 524.9 539.1 553.1 558 559.6 557 552.1 546.9 545.5 549.4 552.8 563.2 567.6 567.8 568.4 564.9 557.5 548 538.9 531.2 520.8 507.1 494.6 478 469 460.8 456.3 443.4 431.2 427.5 419 413.4 403.1 393 381.5 359.7 332.9 308.8 290 273.9 264 256.7 248.5 240.8 232.5 223.5 214.4 207.5 202.9 205.1 211.8 219.2 222.7 227.1 230.8 234.5 237.5 245.6 259.2 270.1 276 280.3 282.8 280.3 274.7 268.7 261.9 254.9 247.8 242.3 231.9 214 188.5 163.9 149.5 136.6 120.9 105.5 96.4 102.9 111.1 110.7 107.8 111.4 119.5 124.2 127.6 132.3 137.3 142.6 149.8 156.1 160.5 158.5 153.8 147.1 136.3 125.3 119.6 113.2 96.6 75 55.9 46.1 44.3 49.3 63.6 81.9 101.9 130.7 152.4 177.3 200.8 224.2 240.4 252.5 260.5 268.2 274.4 279.7 284.3 290.7 294.9 293.3 294.9 295.5 296.7 297.2 299.2 298.7 296.4 299.7 291.7 276.9 256.5 237.3 220.6 209.7 201.2 197.6 199.1 203.8 211 219.8 231.9 241.2 250.4 253 246.6 238.1 225 204.8 179.2 147.9 150.8 156.6 161.2 163.1 155.9 175.5 191 205.6 211 224.8 233.8 239.6 253.5 270.3 267.7 259.4 250.5 251.8 244.6 242.4 246.9 242.4 238.8 235.1 229.7 215.4 201 186.5 172.7 159.2 151.2
411.8 435.5 454.7 476.3 493.7 507.8 523.5 537.3 537.2 526.6 512.3 501.1 494.6 494.7 498.1 510 525.5 532 535.2 536.6 533.4 527.3 524.1 529.3 528.5 535.7 544.3 549.4 549.4 550.2 547.1 541 532.8 524.6 516.2 503.8 493.6 480.6 471.7 464.2 460.8 451.8 441.3 427.9 419.9 413.1 405.1 395.4 386.1 378.7 368.4 350.3 325.3 303.2 287.7 274.3 265 258.8 249.9 240.4 231.1 221.4 211.4 204.1 199.1 199.1 204.8 207.4 212.2 216.8 220.3 224.3 234.2 246.5 257.2 266.6 271.7 274.6 276.4 275.6 272.4 268.3 264 257.2 250.5 242 226 203.6 178.2 157.8 143.6 128.1 116.6 107.8 102.2 98.9 101.2 98.1 102.1 107.9 109.1 111.6 117.9 124.6 130.8 138 144.5 148.6 144.2 138.9 132.5 121.7 110.7 105.6 102.5 80.6 59.8 47.9 44.1 44.5 50.3 65 84.2 107.8 132.4 154.5 183.1 211.7 234.3 251.3 264.6 273.5 280.4 285.2 290.2 296.8 301.1 295.5 299.4 297.2 299.7 300.3 300.3 303.9 296.9 299.2 301.6 295.9 286.2 268.1 243.1 216.6 195.2 184.6 173 173.1 179 189.1 199.8 209.2 217.8 225.8 230.3 228.2 220.4 208.6 189.9 171 152.9 127.4 128.7 143.7 154.9 169.8 190.7 199.6 206.2 214.3 233.2 236.1 245.7 259.8 276.5 270.4 260.5 257 263.4 252.1 252.1 258.4 252.8 245.6 237.9 235.4 232 224.8 209.4 203.2 192.1 175.8
411 433.1 451.2 475.7 493.2 505.7 519.4 527.3 519.3 508.1 495.3 482.7 479.7 476.1 483.4 497.2 507.3 512 516.1 513.1 508.6 502 501.7 507.4 511.6 517.2 525.9 533.7 533.5 534 529 525.3 518.1 511.7 504.1 493.6 484.2 475.2 466.2 459.5 453.9 440.4 430.8 420.7 411.7 407.9 395.8 390.3 379.7 374.4 369 362.5 346.9 325.1 306 290.1 280.7 273.8 262.7 251.3 240.5 230.9 220.5 210.7 203.2 199.7 191.1 194.8 200.6 205.5 208.4 213.1 221.9 231.6 241.6 253.6 262.3 265.6 268 269.8 271.6 271.8 269 266.5 259.7 251.2 239.1 221.3 196.9 172.1 154.9 141.3 129.5 119.4 112 101.4 89.2 87 94.6 101 99.9 100.4 106.4 111.9 117.4 123.9 130.4 132.9 126.1 118.4 113.1 104.1 93.9 89 82.8 60.1 48.9 47.3 43.4 49.7 50.4 68 87.9 111.2 134.8 157.2 188.9 217 236.5 256.1 272.2 282.1 287.2 290.4 296.4 301.3 294 289.8 293.4 292.5 293.3 297.6 294.9 300.3 297.9 300.1 301.7 298.3 291.4 275.8 256.5 237.9 219.6 206.8 196.6 181.7 163.3 167.9 178.7 187.3 195.1 203.9 208 207.6 201.1 190 172.9 158 145.9 120.7 139.5 150.8 167.6 184.1 200.2 201.5 207.3 220.1 235 239.1 248.1 265.5 282.1 270.1 259.6 264 261.9 253.4 259.7 260.2 250.4 246.3 243.6 243.7 239.4 228.8 212.8 209.8 202.4 188.6
406.9 426.8 447.5 472.9 488.2 500.6 511.2 509.1 501.9 490.8 479.2 466.3 462.6 458.9 471.3 480 487.7 491.8 491.7 487.9 484.1 478.1 481.2 488 493.1 500.8 510 515.6 512.1 515.1 512.5 511.2 507.4 501.4 494.2 487 480.5 471.1 459.9 448.7 439.4 426.7 415.7 403.6 397.6 389.5 382.1 374.6 368.7 374.1 367.2 367.1 358.9 346.2 329.2 316.7 305.4 295.4 284.7 271.6 258.5 246.1 233.6 223.6 215.2 209.1 198.6 186.6 189 194.1 198.9 203.6 208.8 215.7 226.5 239.8 252.2 255.5 258.7 262.9 266 269.3 271 270.2 266.8 261.3 247.8 234.7 217.2 196.5 174.8 157.6 145.9 135.8 127 117.4 107 93.1 78.9 89.6 88 89.3 95.8 101.3 102.7 106.2 110 108 102.4 95.1 90.1 83.9 75.4 71.6 63.6 46.4 44.7 43.9 41.4 50.6 57.7 76 94.2 118.9 142.6 164.9 188.9 219.7 244.2 263.2 275.8 279 284.4 285.2 287.7 287.4 279.6 279.4 278.3 282.6 283 287.2 295.6 291.5 294.5 299.3 300 299 290.9 273.6 259.1 252.9 242.8 231.7 219.2 201.5 180.5 157.7 160 167.3 174.1 180 185.2 186.4 180.9 169.2 156.6 145.2 135.7 116.6 138.4 156.7 175.7 191.4 200 202.4 207.9 224.7 237.4 241.3 252.6 272 275.7 265.9 259.6 261.9 256.6 256 255.5 251.2 242.1 243 247.6 247.9 240 226.5 212.7 207.5 200.7 188.7
397.9 419.5 444.2 468.8 481.8 492.6 495.3 490.5 484.4 476 465.4 455.3 448.6 449.2 458 465.4 469.8 470.9 467.1 463.3 462.5 461.1 464.4 471.7 477.5 488 495.3 498.9 497.2 498.1 493.9 496.1 492 487.6 487.5 484.9 480.1 471.3 453.7 437.3 419 408.7 396.6 385.6 378.1 371.2 363.1 360.4 359 365.6 367 371.4 369.1 361.4 349.1 337.1 327.2 317.3 306.4 293.6 277.3 264.3 251.1 238.9 230.6 221 209.7 196.2 180.6 178.6 186.4 193.1 197.1 203 215.7 228.3 238.3 244.4 250.6 255.8 259.8 263.9 267 267.4 267.1 263 252.9 242.4 231.4 218 199.3 179.2 164.7 154.2 144 134.4 123.4 111 90.7 67 75.2 78 83.5 83.3 81.7 83.6 85.7 82.2 76 69.5 66.8 65.6 63.4 62.1 48.1 42.8 42.8 42.3 47.7 52.5 65.7 83.6 102.7 125.2 149.4 171.4 194 218.4 244.5 262.5 267.9 272.5 274.2 273.6 271.9 268.1 264.2 264.2 262.3 265.7 271.2 276.8 280.5 282.1 287.9 296.1 293.6 295.9 288.1 269.3 255.3 251.8 252.3 248.3 240.6 220.6 194.3 167.1 144 149.3 151.4 154.4 158.9 163.2 159 151.3 142.2 135.8 122.4 122.6 141 156.4 170.5 190.2 191.1 196.5 206.8 225.7 234.1 241.7 254.1 273.2 269.2 259.3 255.4 253.9 249.4 250.9 240.7 236.3 236.4 241.8 244 241 234 222.8 209.7 202.6 195.2 185.1
383.7 408.9 434.7 458 473 478.1 476.3 471.5 468.2 462.3 452.6 442.6 436.5 436.6 443.4 447.2 449.4 446 442.8 442.7 440.2 442.5 448.7 456.9 464.7 474.2 480.1 481.4 482.5 481.7 480.8 481 480.4 484.4 487.9 487.1 482.1 470.3 451.1 425.4 400.6 385.3 375.9 363.2 352.9 348.1 345.1 344.8 346.8 351 361 370.7 373.8 369.6 360.4 349.2 341.6 332.8 321.9 307.8 295.8 282.9 270.2 255.9 244.5 234.9 223.1 209.2 194.5 174.2 175.8 181.9 186.5 195.2 206.3 216.5 222.8 230.4 240.1 247.3 252.5 256.8 260.2 259.7 260.5 257.9 253.9 247.6 239.8 230.8 218.1 201.9 185 173.5 163.8 154 141.8 127.6 106.7 81 64.3 67.1 66.5 66.2 62.4 64.4 67 61 53.9 54.5 55.7 55.7 57.3 51.2 42.5 42 41.7 45.6 56.1 56.1 75.9 94 114.1 133.9 156.5 177.8 202.9 224.4 245 254.8 257.5 258.5 258.1 259.8 258.2 254.3 254.3 247.6 248.9 251.7 258 263.5 267.8 271.2 278.1 282.7 286.6 288.7 283.9 264 250.8 250.5 256.1 255.2 243.7 236.2 210.5 181.1 152 127.5 128.3 130.3 133 141 143.3 137.7 132.1 125.4 111.4 116.6 122 132.2 149.9 169.1 177.1 188.7 204.9 218.6 227.5 239.8 256 266.3 259.8 252.6 245.9 239.8 236.5 232.9 228.2 228.8 231.2 232.4 231.5 230.5 225.6 215.6 202.7 196.9 186.3 181.2
374.8 400.1 422.7 443.1 456.6 459.2 459.1 457.6 457.3 449.9 441.4 429.9 422.6 425 428.4 429.8 427.2 423.6 423.3 423.1 425 426.6 434.6 443.9 454 462.1 467.3 468.5 468.8 470.2 470.9 472.7 478.2 487.4 492.2 492.4 483.8 468.4 450.7 423.6 396.4 371 355.6 342.1 332.8 323.8 319.6 319.3 325.9 340.6 345.8 357.8 366.1 366.2 360.7 351.8 344.2 337.3 326.5 317.8 304.8 293.7 282.9 269.4 257.5 247.1 235.9 224.3 207.8 191.3 168.9 169.9 176.3 184.7 195.7 202.6 208.1 215.7 223.7 232 239.5 244.5 245.5 246.3 252.9 255.5 253.4 249.2 242.9 236.3 226.8 211.4 197.3 185.9 173.5 165.7 157.3 135.5 112.9 93 68.7 57.7 55 56 51.4 52.6 51.7 44.6 43.5 41.5 41 49.8 50.8 42.8 41.8 39.9 44.4 55.1 64.3 74 88.3 106.5 123.6 140.8 159.1 181.9 207.1 219.5 237.9 241.4 245.3 243.9 247.4 247.5 246.7 245 244.8 232 233.7 238.5 244.2 249.2 253.2 258 263.3 268.7 274.8 279.9 274.1 259.4 250.6 252 257.1 251.2 241.4 237.9 226.6 200.9 176.1 153.1 128 108.4 113.3 124.2 134.7 131.7 120.2 107.2 117.7 130.2 141.2 156.9 161.7 158.2 174.5 186 196.6 207.9 219.4 235 253.8 260 258.2 249 234.1 225.4 221.4 215.6 211.7 211 212.1 212.8 214.6 215.1 209.3 197.8 191.9 183.3 180.9 178.3
