ncols 200
nrows 82
xllcorner 400000
yllcorner 465250
cellsize 50
440.8 445.7 463.1 469.5 469.7 468.8 470.5 473.5 471.9 469.9 467.3 457.6 450.3 438.8 430.6 425.2 418.5 415.3 415.2 414.7 414.2 414.1 414.3 414.2 414 421.4 436.1 444.9 450.7 466.4 478.1 483.8 488.3 495.3 498.4 498 495.7 493.6 491.4 490.7 493.2 494.3 496.1 496.1 498.2 499.2 502.6 505.1 507.4 510.1 513 515.6 516.1 515.5 514 513.7 513.8 513.9 512.3 514 514 514.8 515.4 516.6 517.7 518.5 518.6 518.5 517 517.3 517.5 518 516.9 517.1 517 515.2 514.4 515.1 514.7 514 514.3 512.8 511.9 512.3 514.4 514.6 515.3 515.2 513.6 514.2 513.5 513.4 513.8 511.7 509 506.8 510.9 515.3 519.6 523 528.5 530.9 532 532.6 532.9 533.1 532.5 532.5 531.5 530.2 528.3 527.1 524.9 525.6 524.8 524.3 523.5 523.1 519.3 519.5 517.8 517.7 516.1 513.7 514.6 514.2 511.6 511.8 513.6 512.4 513.2 511.7 509.8 509.5 508.6 506.3 502.6 501.3 498.7 495.6 492.3 490 486.4 480.2 476.4 466.6 462 467.2 465.4 464.5 460.9 458.4 459.7 460.8 458.5 459.3 462.2 466.8 470.7 471 472.3 471.6 470.2 468.6 467.4 467 465.7 466.6 463.4 463.5 461.9 460.4 460.5 460.1 459.1 457.3 455 451.4 449.9 447.8 449.2 448.6 447.6 445.5 443.8 442.2 441.5 440.2 437.4 434 433.5 432.2 430.6 430.2 428.7 427.7 426.2 426 425.3 423.8
439.1 445.5 457.2 469.1 470.5 466.4 467.1 471.6 470.4 468.2 464.2 454.1 440.8 431.5 427.5 424.3 419.8 413.7 414.3 414.4 413.9 413.6 413.9 414 413.7 422.3 439.3 447 458.9 464.5 477.2 483.1 488.3 496.2 498 497.1 495.4 493.2 491.1 490.2 491.4 492.3 494.7 495.2 497.5 498.4 500.4 503.3 505 508 511.8 514.5 515.4 514.6 513.4 512 512.4 512.4 510.9 512.4 512.3 512 512.5 513.6 514.6 515.4 516 515.8 515.2 513.5 514.4 514.3 514.2 513.8 513.1 512.3 510.8 510.8 509.9 508.4 508.7 507.4 506.5 508.1 510.8 512.8 513.3 514.5 514.6 514.9 513.2 512.8 511.6 510.3 507.6 506.6 507.3 510.3 511.9 514.4 518.5 521.9 522.9 524.2 524.5 524.3 524.3 523.7 522.6 521.6 520.4 519.5 518.9 517.7 517.3 517 517.9 517.6 515.6 517 513.8 513.8 514 512 511.6 510.1 510.3 511.1 510.8 512.4 510.6 511 510.4 507.9 506.4 504.6 502.5 502 500.1 496 491.8 489.8 486 481.9 476.6 475.3 476.1 473.8 472.7 469.8 469.1 471.4 467.2 466.3 469.2 468.5 468.3 475.1 477.3 477 477.2 477.3 476.7 476 475.2 474.5 473.2 471 468.6 467.5 465.6 463.2 460.6 461.5 460.3 458.5 456.4 455.7 453.1 453.3 452.1 451.1 449.2 447.8 446 444.2 442 439.5 438.9 437 432.6 430.4 432.6 430.1 430.5 428.4 426.3 425.9 425 424.7
436.1 441.6 448.9 465.1 470.3 465.3 459.8 465.8 468.9 466.7 463.2 450.7 434.2 428.3 423.5 423.1 419.5 414.9 413.2 414.3 413.4 413.1 413.5 413.7 413.7 429.4 440.9 447.7 461.6 467.1 478.6 483.3 489.7 496.8 497.9 495.3 495.1 492.9 491.3 489.9 488.3 489.7 493.3 495.4 496.9 497.6 499.1 500 503.2 506.3 510 513.4 514.3 513.5 511.9 510.5 510.1 511 510.3 510.5 510.2 509.9 509.3 509.7 510.7 511.7 512.5 512.8 512.6 509.8 511.2 510.5 510.7 510.5 509.8 507.3 506.8 506.4 505.2 502.8 502.7 502 502.1 502.4 503.3 506.8 509 514.2 516.3 516.4 515.5 514 510.3 510.2 508.4 507.3 504.5 505.1 507.2 508 510 512.6 513.5 515.2 515.9 515 515.4 516 515.1 514.9 513.9 513.1 512.3 512.2 511.8 510.2 511.2 512.1 511.1 511.9 511 508.5 509.3 509.6 509 507.8 508 507.8 510 511.6 511.5 511.4 510.4 509.6 508.5 507.7 505.3 505.6 502.7 497.3 493.7 491.8 488.2 484.6 483.9 482.6 481.2 479.5 480.8 478.3 478.4 479.4 479.4 474.2 477.7 474.6 476.7 477.7 478.6 478.6 478.8 479.1 478.9 478.4 477.7 477 475.4 473.3 471.7 470.2 467.6 464.8 463.6 462.1 461 457.7 458.4 457.4 455.9 454.3 454.3 452.3 451.1 449.7 447 446.3 444.2 442 439.6 437.6 435.9 434.3 433.1 432.5 430 427.8 426.4 425 424.5 424.2
431.6 438.9 443.8 457.9 467.3 466.6 455.2 457.5 463 463.3 463.7 453 432.2 427.9 426.5 420.5 418.7 414.5 410.8 410.5 412.4 413.3 413.1 413.6 414 425 441.1 447.3 460.5 464.4 475.6 483.1 492 496.7 496.8 495 494.1 492.5 491.2 489.6 486.9 490.2 491.1 494.5 496.2 496.8 497.1 499 501.1 504.1 508.2 511.8 512.6 511.5 509.9 508.5 508.4 510.1 510.2 508.8 506.7 506.5 506.7 506.2 506.9 507.8 508.6 509.2 509.4 508.8 507.3 507.1 507.1 507.2 506.7 504.9 502.4 502.8 501.3 499.6 496.9 496.3 496.1 496.6 497.9 500.2 504.2 511.2 514.9 516.4 515.4 514.2 512.5 510 508.8 507.6 505.5 504 501.6 504.2 505.7 506.3 506.9 507.2 508 507.7 507.8 508.4 507.8 507.3 507.2 506.5 505.8 506.5 506.1 504.5 505.1 505.8 505.4 506.4 504.7 501.3 504.2 504.4 503.9 505.5 503.4 506.8 509.3 509.9 512.1 511.8 511.8 511 510.1 509.6 508.9 506.6 505.6 504.4 499.4 495.8 493.7 491.2 491.2 488.6 486.6 486.4 487.2 484.8 486.8 486.4 485.8 485.2 483.6 481.3 480.8 480 479.7 479.4 477.9 477.3 477.9 478.6 477.9 477.3 476.3 474.5 473.3 471.9 468.5 466.3 464.2 463 460 460.8 459.6 459 458.2 456.7 456.1 455.2 453.5 452 450.3 448.1 445 443.1 440.6 438.6 436.8 435.1 434.1 432.5 431.5 431 428.5 425.9 425 423.8
426.5 434.4 440.6 452 458.6 464.5 455.9 455 456.7 458.3 457.3 453 431.8 425.8 424.1 419.9 414.8 413.6 408.6 412.2 414.6 415.3 412.8 412.5 414.2 424.2 435 444 458.2 462.3 468.6 482.4 489.8 495.6 496.1 495.2 494.4 493.6 491.4 488.6 488.1 488.3 490.1 493.6 495.4 495.8 495.9 497.3 498.8 501.9 505.8 509.5 510.7 509 508.1 507.1 505.8 508.5 509.4 508.4 506.9 501.5 503.9 503.5 503.1 503.9 504.6 505.3 505.6 505.9 504 503.5 503.6 503.4 503.6 502 500.7 499.1 497 493.6 492.8 492.1 491.4 490.8 491.4 492.7 500.5 505.7 511.6 515.2 514.8 514 511.9 510.6 509.2 506.8 505.2 503.7 500.4 501.5 501.9 502.1 503 502 502 502 501.8 501.8 501.2 500.8 500.8 500.9 500.7 501.2 501.3 499.7 499.4 500.1 499.2 499.7 499 493.8 497.2 498.5 497.9 501.8 502.4 505 505.6 507.7 510.2 511.8 510.5 512.9 511.8 511.3 510.6 509.1 506.4 505.3 503.7 502.2 498.4 497.5 495.9 494.4 491.3 492.4 491.7 491.8 489.7 491 490.4 488.8 487.3 485.6 484.1 482.2 481.6 480.2 479.4 478.6 477.7 477.5 477.1 474.2 473.9 473.8 472.9 471.6 468.9 465.6 465 463.2 462.4 461 457.9 459.2 458.4 458.6 458.1 456.9 455.3 454 452.2 449.6 447.6 445 441.6 440.2 438 436.4 434.5 433.8 434 432.3 430.2 427.8 426.3 424.3
419.9 431 436.8 441.9 452.6 458.5 462.8 457.1 456.2 454.6 450.4 440.7 433.7 427.8 423.1 418.3 413.9 413.2 409.9 411.1 415.5 416.8 415 413.7 414.2 422.6 433.7 441.4 453.4 460.7 463 479.8 484.4 493.4 495.4 494.7 495.3 494.3 491.2 486.5 486.7 485.3 489.8 493.5 494.3 494.8 494.5 495.8 496.8 499.7 503 506.7 508 507.3 506.6 504.6 502.2 506.2 508.5 507.4 506 503.6 499.8 500.6 500.1 500.3 500.8 501.4 501.8 502.5 502 500.8 499.4 500.2 500.5 499.2 497.2 495 492.1 488.6 488.6 487.1 487.4 486.7 486.9 490.1 495.8 500.6 506.9 513.2 514.2 513.1 512.1 509.9 508.4 506.8 504.4 503.9 501.6 498.8 499.2 499.4 499.3 498.7 498.1 497.2 497.1 497.4 496.8 495.9 495.7 496 495.9 496.4 496.2 495.6 495 495.7 493.7 494.8 494 486.6 487.8 490.5 489.6 497.2 501.1 502.2 506.9 509 510.9 511.8 513.8 514.1 512.8 512.9 512.2 510.6 508.3 508.3 505.4 502.7 502.8 500.5 498.9 496.5 495.9 496.2 495.8 495.5 495.3 495.2 493.8 492.3 490.4 488.3 486.5 484.3 482.8 481.3 479.7 478.7 476.2 476.8 476.2 475.5 473.5 473 471.9 469.7 468.8 464.4 464.5 463.3 462.4 461 460.1 458.5 458.7 459.3 459 458.2 457 455.4 453.6 450.7 449.5 447.2 443.8 442.5 440.4 438.1 436.3 435.5 434.4 433.2 431.2 429.6 427.1 424.8
416.1 425.2 434 439.4 450 455.6 461.4 461.8 454.8 451.9 444.5 435.4 433.2 429.2 422.7 417.2 414 412.3 411.1 412 416.7 417.8 418 418 417.2 425.8 432.2 437.8 449.7 460.6 460 471.9 484.3 490.1 493 494.8 493.3 495 493 489.1 486.6 485.2 488 492 493.1 493.6 494.1 494.7 495.1 497.6 499.9 503.4 505.5 505.8 504.8 501.8 500.3 503.3 506 507 505.5 503.6 500.2 493.4 497.2 497.3 497.3 497 497.3 498.4 498.3 497.4 496.8 495.9 496.6 495.2 493.8 491.6 488.7 486.8 484.9 484.2 483.9 483.6 483.6 487.4 491.5 495.6 499.8 505.1 510.5 511.9 511.8 509.9 507.7 506.1 504.6 502.4 501.4 499.6 495.5 496.5 497.2 496.6 496 494.9 493.9 493.4 493.2 493.4 493.5 492.5 492.4 493.1 492.9 492.5 491.5 491.5 491.5 490.7 488.4 482.9 477.7 480.3 483.1 491.1 499.1 504.2 507.3 510.8 512.5 513.2 515.5 514.9 515.2 512.6 512.8 511.5 509.9 509.9 507.5 506.9 505.3 503.5 502 498.8 500 499.9 499.7 499.1 498.4 497.4 496.3 494.9 493.2 491.1 488.8 486.4 484.2 481.6 479.9 478.3 477.3 475.9 474.9 472.2 473.1 472 471.2 469.3 468.3 465.9 461.5 460.3 462.1 459.4 458.3 457.9 457.6 457.5 458.3 457.8 457.4 456.4 454.8 452.7 450.5 448.3 446 443.8 441.8 440.1 438.3 436.7 435.4 433.1 429.9 429.4 426.8 424
413.6 421.2 431 437.4 444.8 457.8 457.1 457.6 454.7 450.6 442.9 432.2 431.4 429.9 423.5 417.7 415 413.8 404.3 413.3 417.4 418.5 418.7 418.5 421 433 433.9 433.9 451.8 459.2 460 462.9 477.3 485.9 489 491.7 494.4 495 494.1 490.7 487.6 483.6 484.5 490.1 491.5 489.7 492.2 493.4 493.8 495.1 497.1 499.3 501 502 502.3 498.6 497.8 500.9 503.5 505.4 504.6 503.3 500.6 496.9 490.9 494.3 493.7 492 491.7 493.4 494.1 493.2 493.2 492.2 492.7 491 490.1 487.9 485.7 484.6 482.2 481.5 481.1 479.7 480.9 484.8 487.9 491.1 494.2 498.8 504.2 509.8 510.8 509.7 507.5 505.5 503.7 502.3 499.6 498.4 497 494.2 494.4 494.9 494.3 493.5 492.5 491.6 490.8 490.7 490.8 489.9 489.4 490 489.6 488.4 487.7 487.5 487.4 486.2 481.5 471.1 472.2 471.9 483.2 491.5 498.3 503.4 508.1 511.1 513.6 515.6 514 515.8 516.1 515 513.7 513 512.7 510.6 509.6 508.2 507.5 506 504.4 503.3 502.7 502.2 501.7 500.9 500.4 499.4 498.3 496.9 495.1 493 490.5 486.9 484.9 482 479.8 478.7 478 477.1 476.1 475 474 472.4 471.2 468.8 467.5 467 466.1 464.3 461.9 461.6 458.6 458.1 457.1 454.2 456.4 455.7 455.7 455 454.8 453.6 451 448.9 446.8 444.5 443.1 441.8 440.4 438.8 436.2 433.6 431.6 428.6 425.8 422.2
412.3 417.1 428 436.3 442.4 457 457.8 456 455 452.7 442.4 430.8 425.6 426 423.4 419.1 414.5 402.9 413.1 416.2 417.2 418.1 419 419.9 423.3 435.5 436.5 436.2 445.2 455.8 458.1 458.8 465.8 477.8 485.7 488 492 494.7 494.9 490.8 486.3 482.1 481.1 486.4 490.2 488.8 480 491.5 492.5 493.3 494.2 495.5 496.5 497.4 498.1 496.2 493.8 498 499.7 501.4 502 500.9 499.1 496.4 492.7 489.8 489.1 486.5 488 488.4 488.4 487 488.1 487.8 488.9 486.3 485.9 484.4 483 481.7 478.6 478 478 476.9 479 482 484.8 487.8 491.1 495 501.4 507.2 509.8 508.9 507 505.2 503.6 501.4 499.9 497.3 496.1 495.2 493.3 490.6 492.1 491.8 491.1 489.8 489 488.5 488.2 487.5 486.3 486.6 486.2 484.7 483.9 483.8 483.1 481.7 478 472.3 466.4 475.9 483.9 490.9 497.9 502.9 507.3 512.5 515.1 516.8 514.9 515.5 515.7 515.6 513.9 513.7 513.2 513.7 511.2 509.5 509.5 507.4 506.1 504.8 504 503.4 502.6 502.4 502.1 501.1 499.9 498.5 496.6 494.3 491.9 489 485.9 483.9 481.5 479.6 478.6 477.8 476.6 475.4 473.5 472.4 472 469.8 468.4 467.4 467.1 466.2 464.2 461.7 460.3 459.3 458.4 456.3 453 452.1 452 454.3 453.6 452.2 450.9 448.1 446.3 444.4 442.9 442.3 441.5 440.1 437.7 434.9 431.3 428.3 424.5 417.6
411.9 415.6 423.9 433.1 439.7 450.1 457.2 455.7 453.8 451 439.8 425.7 421.7 422.2 423.4 419.8 414.4 397.9 416.3 417.3 416.8 416.8 418.3 420.2 421.8 434.6 439 440.2 444.6 454.2 452.3 450.7 457.9 464.9 478.9 485.1 489 494.3 494.7 492.1 486.3 482.1 477.9 480.8 485.5 488.5 487.7 490.3 491.1 491.5 491.9 492.8 493.2 493 493.7 492.1 490.2 493.3 495.1 496.6 497.2 496.8 496 494.5 491.9 485.9 485.7 483.6 484.7 484 483.4 485 484.8 484.3 484.3 483.9 482.6 480.7 480.4 478.6 476.1 474.9 474.7 474 477 480.4 482.8 485.2 489 492.5 498.5 504.5 507.3 507 505.6 504.8 501.9 500.6 499 497.5 495.7 494.3 493.2 491.7 489.3 489.3 488.6 488 486.8 486 485.8 484.8 482.9 483 481.7 481.2 480.1 478.8 478.9 477 472.8 463.3 467.4 476.8 482.5 490.7 499.2 505.3 509.9 512.3 514.9 515.9 516.2 516.3 515.8 515.2 515.8 515.4 513.8 515.2 514 512.1 511 509.3 507.6 506 504.5 503.4 503.4 503.1 502.2 501.4 500.3 499.1 497.4 495.2 492.8 490.9 488.3 485.6 483.4 481.1 479.5 478.5 477.3 476.1 475 474 472.6 469.9 469.7 468.7 468.3 467.4 465.5 464.3 462.5 462 460.7 458.9 457.8 456.7 454.9 448.9 450.4 449.3 447.7 446.9 445 442.5 441.1 440.4 439.2 437.6 433.9 430.3 428.8 425.9 422.4 419
411.9 412.8 417.8 429 437.9 445.1 454 455.2 450.4 442.8 433.6 425.5 420.7 420.3 421.4 421.3 414.9 399.1 415.2 416.2 415.3 415.8 416.5 419.5 422.8 437.8 443.3 445.3 448.6 455 454.4 447.9 450.1 457.6 464.2 479.3 485.3 489.7 493.2 491.9 485.8 481.4 478.2 476.5 482.2 487.3 489.8 490 489.4 489.1 490.5 490.8 490.8 490.8 490.7 489.9 486.5 487.5 489.9 491.8 492.4 492 491.2 490.4 488.6 483.2 477.1 479.5 480.8 480.1 479.1 480.9 479.8 480 479.1 480.1 479 477 475.9 474.9 472.6 471.7 471.9 471.6 476.2 478.7 480.4 482.7 486.5 490.2 495 500.5 503.6 504.8 504.7 503.8 501.3 499.7 498.2 496.3 495.4 493.6 491.9 490.7 490 487.6 486.2 485.4 485.2 484.7 483.3 481.5 480.8 480 478.4 476.8 476 475.3 474.9 473.3 469.4 461 466.5 474.7 480.9 489.7 499.9 507 511.3 513.1 513.3 513.2 515.4 514.5 515.3 514.1 515.6 513.2 515.3 515.8 514.7 513.1 510.6 510.3 508.6 506.8 504.5 503.5 502.8 501.9 501.1 500.3 499.2 497.9 497.1 496.1 494.7 492.5 489.7 487.2 485.5 483.5 481.5 479.6 478.2 476.8 475.9 475 473.2 472.2 471.2 469.6 468.8 468.1 464.9 466.4 465.3 463.9 462.3 460 458.6 456.4 455 452.6 446.4 443.4 442.6 443.4 442.6 440.5 439.4 437.9 435.9 433.1 430.8 427.7 425.5 422.5 419.8 416.6
411.4 412 416.2 423.7 433.7 441.6 446.2 446.3 440.3 434.1 428.8 423.3 418.8 418.5 419.8 420.4 417 404.1 408.6 415.5 413.9 413.4 414.2 420 421.3 438.1 445.5 449 453.9 456.7 457.5 453.8 450.1 454.4 459.3 467.7 477.9 483.7 486.2 485.6 483.8 480.9 476.5 473.9 477.2 481.5 485.2 487.1 487.7 488.1 489.2 489.4 489.5 489.4 489.3 488.5 487.2 484.6 485 486.1 486.3 486.9 486.8 486 484.1 481.8 468.3 472.6 476.3 474.4 474 476.5 476.7 475.9 475.7 475.1 473.8 472.2 470.9 470.3 468.5 468.6 468.2 471.2 474.4 476.9 478.3 479.4 482.8 487.1 490 494.4 500.7 503.3 503.4 502.9 500.7 499 497.7 496.4 494.5 491.6 490.8 488.8 489.3 487 484.9 482.9 483.5 482.6 481.2 479.1 477 477 475.2 473.8 472.9 471.2 471.9 468.8 465.5 458 467.2 474.7 479.2 489.1 500.4 507.2 510.2 512.5 513.8 514.3 514.8 514.6 515.4 514.7 514.8 513.7 515.2 515.6 514.1 512.8 510.7 509.6 506.8 506.4 504.4 502.7 501.6 500.2 498.7 498.9 497.1 496.7 496.5 495.8 495.4 493.3 490.7 489 487.1 485.3 483.3 481.3 479.3 477.9 476.7 475.9 474.5 473.3 472.1 470.9 468.6 468.9 468.1 466.8 465.5 464.5 462.6 460.2 457.9 455.9 454.9 453.6 451 448.2 444.6 439.2 437.1 435.7 434.4 434.1 432.7 429.9 427.7 424.6 421.6 418.8 415.8 413.5
405.5 409.1 414.1 420.2 430.2 438.9 443.4 441.7 434.6 430.4 425.4 420.3 418.5 418.2 418.7 418.7 416.9 412.1 395.1 413.8 412.2 410.5 412.7 416.7 421.1 435.5 445.5 450.3 453.5 455.8 455.9 457.2 454.6 452.6 457.9 462.1 467.9 477.5 483.1 482.4 482.6 481.9 477.8 473.6 473.4 477.3 480.9 483.2 484.3 485.4 486.3 488 488.3 488.1 488 487.5 486.4 485.3 482.3 481.5 479.1 480.8 482.1 481.8 480.8 478.9 473 461.4 469.7 470.9 466 471.9 472.2 472.1 471.2 471 469.7 468 467.1 466.2 464.8 464.5 464.1 469.7 472.8 475.2 475.5 477.4 480.2 483 487.5 493.1 500 501.7 501.9 501.8 499.9 498.1 496.7 495.3 493.6 493.3 491.7 490.4 488.6 486.8 486.2 485.1 480.7 480.4 478.8 476 475.7 473.6 471.8 470 470.7 469.3 468.8 466.5 459.8 456.1 467 471.6 477.8 489.8 498.4 506.6 510.9 512.8 513.6 513.1 512.9 514.8 515.2 513.7 515.1 514.6 515.3 515.2 514.4 512.8 510.9 509 507.4 505.9 504.1 501.7 501.6 498.4 498.2 497 494 496.1 495.3 494.7 494.5 493.4 491.9 490.2 488.7 486.6 484.6 482.7 480.8 478.9 477.6 476.6 475.3 473.4 472.6 471.7 470.7 469.4 468.2 466.7 465 463.8 462 459.6 457.9 456.6 454.6 452.8 450.2 448 446.3 442.6 440.8 437.1 431.9 430.3 429.5 426.4 422.9 422.5 415.3 411 410.6 407.2
399.9 403.7 413 417.3 427.4 438.8 442 440.3 436.9 435.2 426 419.2 417.7 418 418.2 417.7 415.8 413.2 399.4 405.7 410.5 407.4 408.5 410.6 420.2 424.6 443.4 449.8 453 453.9 451.4 451.7 456.7 457 458 461.6 461 466.6 475.7 480.2 481.1 481.8 479.2 475.4 470.4 472.5 476.2 479.3 479.9 481.9 485.4 486.7 487 487 486.7 486.4 485.3 485 483.9 482.5 480.6 477.9 477 476.9 476.6 475.6 472.3 465.6 460.1 464.4 461.6 467.7 467.7 462.5 466.7 467.3 466.7 464.9 463.5 461.7 459.2 460.5 464.1 466.9 470.1 472.9 473.5 474.9 477.4 480.3 484.6 489.5 495.4 498.8 501.5 500.6 499.2 497.7 495.7 494.1 493.5 492.3 490.5 489.9 489.2 487.9 486.1 484.5 482.6 478.2 477.3 474.5 472.7 470.9 467.9 467 467.2 467.6 465.9 463.6 458.1 456.6 464.4 468.7 478.6 488.6 497.9 505.1 511 512.9 512.4 511.6 512.7 513.5 513.4 513.5 513.9 514.3 514.6 514.8 514.2 512.6 511.1 508.3 507.7 506.5 504.9 502.6 500.7 500.1 498.9 495.5 495.4 491.3 493.2 492.8 492.6 492.1 490.9 489.7 488.8 487.3 485.4 483.3 481.4 479.4 478.4 477.3 475.8 474.4 473.4 472.6 471.4 470 468.5 467 465 462.8 460.9 459.6 457 455.8 454.4 452.6 450.6 448.4 446.4 444.5 442.9 441.4 438.8 436 433.6 431 429.2 427 424.4 421.8 419.3 416.7
394.7 399.9 411.7 415.4 422.1 438.7 441.5 437.4 434.2 430.6 424.9 420.3 417.5 417.7 417.8 417.4 415 412.1 405.5 394.8 406.9 404.5 404 406.1 412 420.8 431.2 445.9 452.1 455 453.4 450.9 453.3 458.1 456.4 457.7 458.8 458.6 463.9 473 477.7 479.6 480.8 480.7 472.9 467.4 472.6 475.4 476.8 479.6 483.7 485.8 484.2 486.4 485.7 485.2 484.7 484.5 484.2 483 481.2 476.5 473.1 472.1 472.1 471.1 468.8 464 452.2 458 461.2 462.6 462.1 457.8 459.9 462.2 462.5 461.1 459.2 457.2 455.2 458.3 461 463.8 466.4 469.8 471.4 472.7 474.3 477.6 482 487.5 493.8 497.4 500.5 499.9 499 497.1 495.9 494.9 493.8 491.4 490.4 488 488 486 485.3 483.3 482.2 480.7 477.6 473.8 470.6 468.5 465.9 462.9 461.8 463.5 462.7 460 457 455.4 463 467.5 475.8 487.1 495.9 502.7 507.7 511.8 512.4 512.1 511.8 512.9 511.8 512.5 511.8 513.3 514.3 514.9 513.4 512.4 510.8 508.7 505.3 506.6 504.8 502.4 500.9 499.3 498.5 496.7 494.1 493.7 490.3 488.3 488.7 488.4 487.8 487.8 487 486.1 484.9 483.7 481.9 479.9 479.6 477.7 476.9 475.6 474.6 473.4 471.9 470 468.1 466.2 464.5 462.1 460.8 457.7 456.6 455.2 453.3 451.1 448.9 446.8 445.2 443.8 442.3 440.9 439.1 437 435.1 433.4 431.3 429.2 426.5 424.1 421.9 419.6
387.8 396.8 404.3 412.4 419.6 429.8 437.1 432 428.4 426.3 424.2 422 419.5 418.2 417.3 417.1 416.6 412.2 408.5 397.2 392.1 398.9 401.3 404.7 407.4 415.2 425.2 440.4 446.8 452.3 454.1 453.3 452.1 455.4 456.2 453.8 455.3 456.3 455.7 462.8 471 476 477.6 477.9 473.9 466.7 467 470.7 473.5 479.3 482.3 485.7 485.4 483.7 485.2 484.5 484.4 483.9 484 482.9 481.5 478.1 472.5 464.3 465.9 466.4 465.6 461.8 456.6 452 453 455.5 455.4 452.7 451 454.5 456.1 455.2 454 452.9 451.7 454.8 457.7 460.6 463.9 466.5 469 470.7 472.7 475.6 479.3 485.7 491.9 493.6 496.1 496.6 497 496.2 494.7 493.3 492 490.5 490 488.5 487.2 485.7 483.9 481.4 481.8 479.2 477.9 475.1 472.8 470.6 467.1 464 460.4 458.6 457.5 457.3 455.4 454.3 459.5 464.4 474.4 484 492.1 498.8 502.2 506.5 508.3 510.7 511 511.1 511.6 510.2 511.9 512.4 513.4 514.2 513.6 512 510.6 508.9 507 505.7 504.5 503 502.2 500.8 499.5 497.1 496 493.7 492.4 491.2 489.6 486.9 485.5 482 483.3 482.4 482.7 482.4 481.5 480.3 479.2 477.9 476.7 475.3 474.1 472.7 471.4 469.8 466.7 464.8 463 461.2 458.3 457.8 456.6 454.5 452.1 448.9 446.5 444 442.7 441.5 440.3 438.6 436.9 435.3 434.3 433.2 431.8 430.2 428 426 423.8 421.5
382 390 401.4 409.6 417.3 426.4 429.3 428.3 426.6 425.4 425.2 423.5 422.1 419 417.9 416.3 415.4 413.2 409.3 405.3 396.2 388.8 394.4 401.1 404.2 408.7 418.7 431.5 440.3 443.9 450.2 453.1 452 449.8 454.8 452.3 451.4 452.1 453.9 455.1 461.6 469.6 474.9 476.2 472.2 465.3 463.1 466.3 469.9 476.1 480.7 484.1 484.9 486 484.7 481.7 483.7 482.8 481.7 481.6 480.6 478.7 475.9 470.9 463.9 460.7 462.2 460.2 456.6 448.5 447.7 448.5 446.6 446.5 446.7 448.8 449.3 450.1 449.6 446.4 446.6 451.4 454 457.1 460.4 463.3 466.4 468.3 470 472.3 475.8 481.1 485.6 487.5 490 492.1 493.2 494 493.9 492.8 491.5 490.1 488.4 487.2 486.4 485.2 483.8 482.4 480.8 479.1 475.8 475.1 472.4 469.8 467 464 460.3 457.5 453.3 453.7 452.3 452.2 457.9 462.4 470.8 479.4 487.9 493.9 498.7 501.7 505.6 508 508 508.8 509.7 509.4 511.2 511.8 512 512.6 513.1 511.9 510.5 509 507.4 505.7 504.3 501.8 499.9 501.4 500 498.3 496.3 494.3 493.6 491.3 490.1 488.9 486.5 485 483.6 482 478.5 479.6 477.7 477.9 477.8 476.6 475.6 474.4 473.1 471.9 470.8 469.2 467.5 465.5 463.8 462.1 459.8 457.3 454.6 452.7 450.7 446.7 445.3 442.6 439.5 437.7 438.1 436.4 434.6 432.8 431.8 431 430.2 429.1 427.8 425.7 423.7 422.1
378.2 386.6 398 406.4 412.4 419.2 423.5 424.6 425.9 425.7 425.2 424.5 423.7 420.9 417.5 415.9 414.4 411.9 409 404.8 399 389.7 384.9 396 401.6 404 412.9 429 432.7 432.4 438.3 446.4 450 447.4 445 452.9 450.2 451.8 454.4 454.7 454.8 458.5 467.3 474.5 472.9 467 460.3 464.1 466.9 470.5 478.7 483.5 485.5 486.2 485 483.5 479.7 481.2 481.2 480 479.4 478.6 476.7 473.2 467.9 461.9 457.1 458.3 456 451.6 441.3 440.1 441.7 442.5 443.9 445.2 445.9 446.6 445.8 443 445.1 448.3 451.1 453.5 456.8 459.8 463.3 465.8 467.5 469.4 472.8 475 478.5 481.6 483.8 486.5 487.7 488.1 488 486.4 485.3 483.7 483.5 483.6 484.4 483.9 482.5 481.8 479.8 476.3 475.7 472.3 471 467.2 464.8 462.5 459.8 455.8 451.6 450.3 450.4 448.9 453.6 458.9 465.4 474.7 482.1 488.7 493.4 495.8 499.8 503.5 506.8 507.6 507.6 510.4 510.7 510.8 511 511.1 511.6 511.2 510.4 507.6 507.5 504.5 503.8 502 501.2 500.4 498.2 498.6 497.3 495.3 493.2 492.3 490.7 490.5 487.5 486.3 483.8 482.7 481.1 479.4 477.7 476.4 472.7 473.9 471.9 471.5 471 470.4 469.5 468.3 466.6 464.4 462.9 461.4 460.2 456.3 452.2 450.6 448.5 446.6 443.4 441.5 439.4 436.7 434.2 433.6 432.2 430.6 428.6 428.2 427.5 426.6 425.5 424.3 422.4 420.3
376.4 384.6 395.6 402.7 408.7 413 416.1 418.6 421.4 426.2 425.7 425.3 424.3 422.1 418 415.9 414.4 411.3 406.4 403.2 395.6 390.8 382.8 390.4 395 399.7 407.4 423.1 430.4 428.6 428.6 432.8 441.9 444.2 441.9 445.4 447.1 448.4 452.7 455 452.5 452.7 456.7 465.1 471.7 469.2 458.8 462.7 467.1 469.8 476.4 482.5 483.9 485.4 485.4 484.5 482.6 480.6 479.9 479.1 478.4 477 475.2 472.2 468.5 464 460.8 453.9 452.9 450.6 447.1 440.8 434.6 438.6 440.1 441.8 442.5 442.7 442.1 438 441.7 445.1 448.2 451 454.2 455.9 459.6 462.5 464.9 466.9 469.2 471.4 473 475.5 477.5 479.8 481.7 482.2 482 481.4 480.1 478.9 479 479.5 480.8 482.3 481.8 480.6 478.8 476.9 474.6 472.3 470 467.6 463.9 460.6 459 455.9 453.1 450.9 446.8 445.9 449.6 453.2 458.5 468.5 475.4 482.2 486 489.5 494.3 501 504.1 504.5 506 507.6 509.2 508.9 510.2 510.7 509.7 510.1 509.5 508.1 507.2 505.4 503.3 501.5 501.1 500.4 499.7 498.9 497.2 495.8 494 493 492 491.4 489.8 487.3 484.2 483.9 482 479.9 478.6 475.2 475.2 472.4 472.2 468.8 468.4 466.9 467.8 466.8 464.3 462.8 463.3 461.8 459.3 454.2 453.3 449 446.4 443.7 441.4 439.7 438 436.1 433.3 430.2 429.2 428.3 426.4 424.6 423.3 423.2 422 420.8 419 417
374.6 382.1 394.2 402 406.5 409.8 413.2 415.8 419 422.7 425.8 425.2 423.5 422.5 420.5 417.5 414.5 411.2 406.2 399.5 394.5 386.8 382.8 381.8 389.5 396.6 400.7 410.9 424.9 426.7 425.9 426.6 431.7 435.3 435.1 436.3 441.6 441.9 445.1 452.8 453.6 451.9 453 453.9 460.5 464.2 446.1 462.6 467.5 471.2 474.9 481.1 483.7 483.5 485.2 484.6 483.2 480.7 478.8 478.2 476.6 475.4 473.2 471.1 468 464.5 461.3 457.8 454 447 443.8 437.7 433.5 435.1 437.4 438.5 439.6 439.8 439.6 437.5 440.9 443.6 446.2 448.9 450.5 453.2 456.7 459.6 461.6 464 466.2 468 469.7 471.5 473.7 475.3 476.7 476.7 476.5 476 475.4 475.2 475 475.6 476.9 480.9 478.8 477.1 477.5 475.7 473.5 471.6 469.6 467.6 465.1 462.5 458.6 454.8 452.9 451 449.1 446.9 447.2 449.5 455.2 460.7 469.6 475 480 481.6 486.8 493.9 499.8 504 506.6 507.7 508.2 508.2 509.1 509.1 509.6 507 508.1 507.4 506 502.8 503.1 500.9 500.4 499.3 498.3 497.9 496.9 495.9 494.1 491.9 492.3 490.4 489.3 488 486.4 484.7 483.1 481.3 479.1 478.2 476.5 474.6 473.8 471.1 469.3 468.5 465.3 467.3 466.8 465.3 464.2 460.8 458.5 456.5 453.9 450.8 447.1 444.9 441.5 437.5 435.9 433.3 432.6 431.3 427.7 425.7 423.8 422.2 421.1 419.6 418.3 416.3 414.3 412.1
373.1 380.7 389.3 400.1 405.8 409.6 413.1 416.3 419.9 423 424.4 424.5 423.5 422.2 421 419.2 415.7 412 406.9 399.8 390.5 383.6 380.7 379.8 384.4 392.9 398.3 402.2 414.6 421.1 422.8 425.4 424.3 424.4 427.5 431.3 434.8 437.7 439.4 444.9 448.6 450.4 450.9 449.8 451.2 456.3 450.7 461.9 468.3 470.7 472.8 478.5 481.4 482.5 482.9 483.7 483.3 481.9 479.9 478.3 476.1 473.4 470 469.3 466.6 463.8 460.9 457.9 453.8 448.4 444.6 438.3 433 431.3 434.8 436.4 437.5 437.5 437.1 435.8 439.8 442.5 444.8 446.3 448.8 450.8 453.5 456.7 459.4 461.7 463.4 464.9 466.3 467.9 469.7 471.8 472.1 472.2 472 472 471.7 471.1 472.5 471.3 473.4 473.9 474 474.7 476 474.8 471.8 471.5 469.1 467.4 463.4 462.6 457.6 455.1 452.2 450.1 448.9 446.7 445.6 446.6 449 454.3 458.8 468.7 471.2 472.9 477.3 486.5 498 503.6 504.8 507 506.7 508.4 507.5 509.4 509 508.6 505 506.2 503.8 501.9 500.7 499.8 499 497.8 497.5 496.3 495.6 494.9 493.5 493.2 489.3 489.8 489.1 485.7 486.4 485.1 483.8 482.3 480.2 478.7 477.3 475.7 473.3 471.5 471.5 470 469.1 468.1 465.4 465.8 464.4 462.9 460.8 458 455.2 451.9 447.9 444.3 442.3 439.4 436.7 434.8 429.4 427.7 426.3 422.9 421.2 419 418.3 417.6 415.2 415.2 413.1 408.2
370.7 378 387.2 396.8 406.8 411.1 414.5 417.7 421.4 423.9 424.4 423.5 423 421.5 420.4 418.6 416.5 412.6 408.1 400.9 391.1 382.3 379.2 378.7 381 388.3 392.8 397.2 406 413.1 420.7 423.5 424.1 425.2 425.3 429 431.7 435.9 439.8 442.2 441.8 443.6 444.7 445.8 446 448.3 442.6 459 468.6 474.7 475.3 476.6 479.2 482 481.7 482 482.7 482.3 481 479.2 475.6 473.8 469.1 468.4 465.4 463.1 459.8 457.8 454.1 450.1 446 441 433.7 428.9 429.8 434.4 435.5 435.6 433.4 435 439.5 441.1 442.4 444.4 446.5 448.3 450.6 453.5 455.9 459.4 460.8 462.1 463.5 464.7 466.9 469.3 468.8 468.1 468 468.2 469.4 469.8 469 468.7 469.3 470.4 471.1 472.3 474 474.5 472.6 470.8 468.5 466.6 464 460.6 456.6 453.4 452.1 449.9 449.4 447.2 442.5 443.2 445.1 448.8 454.5 459.4 458.2 461.9 472.5 481.5 493.6 501.7 504.1 504.2 506.6 506.7 507.8 509.2 508.5 506.7 505.9 504 502.2 501.7 497.8 498.2 497.3 495.8 495.7 494.9 493.8 493.3 492.4 490.8 489.2 488.7 487.8 486.5 484.3 484 482.4 481.7 480.7 479.2 477.6 476.2 474.8 473.5 471.8 469.9 468.8 468.3 466.7 466 465 463.1 460.4 457.2 454.6 450.6 448.4 445.7 441.9 439.7 436.9 435.3 433 428.4 419.8 419.3 412.5 402.1 411.9 413.8 413.8 413.3 411.1 408
368.5 375.9 386.3 396 406.1 411.5 416.4 420.1 424.4 424.8 425.3 425.6 423.7 421.8 419.7 417.4 415.6 411 407.4 401.8 392.7 381.5 377.3 377.2 377.3 382.7 388.2 394.7 399.7 405 415 423 426.3 428.5 430.9 428.7 430 435.5 440.5 442.8 441.6 437.7 436.6 436.1 437.2 436.8 440.2 455.4 466.9 472.8 475.1 476.1 477.7 479.3 480.1 480.3 480.9 481.2 480.3 479.6 477.6 474.7 470.4 468.4 466 463.4 460.8 457.6 454.9 451.5 446.7 441.3 435.5 426 426.7 430.5 433 433.2 432.4 434.8 437.9 439.2 440.7 442.4 443.7 445.8 448.2 450.5 452.6 456.1 459.2 460.1 461.2 462.4 464.4 467.4 466.3 465 464.8 465.4 466.8 467.1 465.1 465.7 465.7 466.7 468.1 470.7 472.5 473.2 471.2 469.2 466.9 464.7 460 459.6 456.2 454.9 453.2 451.8 450.2 448.4 446.1 440.5 442.8 443.8 446.3 446.3 449.6 459.1 467.4 476 485.8 496.5 500.5 504.2 504.5 506.2 506.3 506.3 507.3 508.4 506.4 504 502.4 500.1 496.7 496 492.2 492.4 493.3 492 491.4 490.9 490.3 488.1 488.3 485 484.8 484.2 482.7 482.6 481.1 479.3 478.5 478.5 476.8 474.9 473.7 471.5 471 469.9 468.8 467.7 466.1 465.4 464.4 462.4 460.1 457.4 454.5 451 448 445.6 443.3 439.8 437.4 434.8 432.6 429.5 425.5 420.6 413.3 405.2 395.6 390.5 400 407.9 407.5 405.1
366.4 373.6 387.3 394.2 406.1 412.1 417.7 423.5 427.9 426 425.2 424.7 423.5 421.7 421.2 417.9 414 410.6 404.7 399.5 393 382.7 376.5 375.6 375.5 378.7 384.9 390.8 395.7 401.1 408.4 421.4 427.6 426.7 431.4 432.1 433.2 434.6 437.8 442.3 441.7 437.6 432.9 431.2 430 428.2 434.4 447.6 460.9 470.5 473.1 474.3 474.7 476.9 477.4 478.4 478.4 478.4 477.9 477.7 476.4 473.5 470.5 467.5 464.7 461.9 459 456.4 454.3 450.9 446 441.5 436.4 429.3 427 426.5 429.8 429.5 433.8 435.6 436.1 438.1 439.3 440.4 441.8 443 445.3 447.1 449.6 452.4 456.4 458.2 458.5 459.4 460.8 463.7 463.5 461.9 461.4 461.5 461.9 460.3 461.1 462.1 462.4 463.5 465.8 467.5 471.8 471.7 469.6 467.6 465.3 463.9 457.3 455.9 455.2 454.5 453.7 452.3 450.9 448.9 445.9 444.4 440.1 439.3 441 442.9 447.3 453.9 461 470 480.6 490.2 501.5 504.7 505.1 505.9 505.7 505.2 505.8 504.5 504.3 502.8 499.8 498.7 495.5 494 493.1 490.5 491.7 490.5 490.1 489.3 487.9 487.3 486.5 485.3 482.8 483.4 482.1 479.8 481 479.4 477.7 476.4 475.2 473.8 471.5 471.2 469.4 468.5 468 465.5 465.7 464.6 462.9 460.4 459 455.8 453 450.1 447.5 444.9 443.3 440.5 436.4 437.1 433.4 427.2 419.9 419.8 422 421.1 412.6 401.8 390.5 385.1 394.9 393.6
365.2 371.1 384.9 391.7 402.3 413.6 421 425.4 426.4 426.8 423.2 423.5 423.2 422.6 419.6 416.8 413.6 410.8 404.5 397.5 390.9 384.1 377.2 371.8 372.5 375.1 381.6 389 396.7 401.2 403.2 417.3 424.1 425.8 427.2 431 434.3 434.3 436.3 438.1 439.5 436.7 430.1 426.9 425.2 425.9 433.2 443.1 454.6 462.8 470 472.2 474.4 475.9 475.8 475.9 475.5 476.6 475.8 473.4 472.8 469.8 468.1 466 463.1 461 458.2 455.5 451.8 448.6 444.1 440.1 437 431.1 425.5 423.3 423.8 429.1 431.9 434.2 435.3 436.4 437 438.4 439.8 440.5 441.9 443.7 445.8 448.8 453.2 455.4 455.5 456.1 456.7 459 459.6 459.1 458.3 458.5 457.7 457.2 456.9 458.7 459.4 460.7 462.5 466.8 469 469 467.8 465.9 464.7 462.1 455 450.9 453 453.9 453.9 452.7 451.4 449.8 447.4 445.4 443 438.1 437.3 440.1 443.3 447.6 455.6 467.2 478.4 489 498.4 503.6 504.2 505.3 503.7 504.3 503.5 502.7 501.4 500.8 499.1 497.7 495.1 491.2 490 488.8 487.3 489.2 488.1 487.1 486.6 485.8 485.2 484.5 483.5 481.8 480.8 479.4 478.3 477.2 474.4 473.1 473.6 472.3 470.8 469.8 468.1 466.7 466.1 465.1 463.8 462.7 461.4 458.7 455.9 454.4 451.9 448.3 446 444.4 442.9 440.6 437.9 433.5 429.9 428.4 427.5 427.2 426.8 425.6 423.4 410.5 397.4 386.9 376.7 381.7
364.3 370.4 380.8 390.1 399.5 412.7 421.6 424.1 424.4 423.7 423.2 422.6 421.5 421.2 419.4 417.4 414.7 415.5 407.8 398.1 389.4 383.7 379 374.6 372.7 373.4 380 387.9 394.5 401.6 402.6 402.6 414.5 421 423 426.3 429 432 433.7 433.3 434.9 433.5 427.1 422 418.6 425 431 442.4 453.1 456.7 460.2 464.8 469.9 471.9 473.7 474.1 475.4 477.1 476.7 473.1 470.1 467.7 465 462.5 460.2 458 454 451.7 448.3 446.3 442.9 440 437.1 431.5 426.3 419 423.6 426.6 429.8 433.2 434.7 435.3 435.7 436.5 437.4 437.9 439.6 440.1 443.1 446.4 450.9 453.2 453.2 453 453.4 454.3 454.9 455.5 455.1 455.6 455.1 454.6 454.1 454.8 455.6 457 459.1 462.7 465.1 465.7 465.1 463.4 461.2 457.7 451 448.6 450.8 452.4 453.9 453.3 452.4 450.9 449 446.2 443.2 441.2 436.6 436.7 441.1 446.9 456 466.7 476.4 487.5 496.7 500.6 503 503.5 503 502.1 502.2 501.7 499.9 498.9 497.7 495.8 494.4 492.2 490.2 488.3 485.6 487.3 486.2 485.5 485.3 484.4 484.2 483.2 481.8 480.6 478.2 477.9 475.8 474.4 474.3 472.7 471.4 470.2 468.6 467.9 466.6 463.6 463.8 463.1 462.1 460.9 459.4 457.8 455.7 451.4 450.6 448.5 448 446.4 443.8 439.6 438.2 437.1 434.4 433.4 433.3 431.3 430 428.5 426.8 424.1 408.2 398.9 389.3 383.3
361.1 370.2 377.2 388.5 398.2 414.9 419 421.5 423.3 420.9 421.3 419.1 418.8 418.6 419.9 419.7 417 414.9 410.2 400.2 390.8 384 380.1 376.2 373.9 371.9 378.2 384 390.2 399.9 402.5 403.7 405.6 407.7 417.5 421.2 425.9 427.9 426.9 431.1 430 430.8 422.6 419 416.1 422 424.7 434.9 449.6 455.3 457.5 458.6 462.2 464.8 466.4 470.4 471.5 474.1 475.1 471.7 468.6 466.4 463.3 460.4 452 454.5 452.2 448.7 447.2 443.4 440.6 439 436.3 431.9 425.8 417.7 421.1 423.2 427.3 431.8 433.3 434.3 434.8 435 435 435.3 437.1 437.3 439.8 443.6 447.6 450.5 450.7 451.2 451.3 451.3 451.5 451.2 451.1 452.2 451.9 451.6 450.9 451.8 452.4 452.8 455.7 458 461.4 463 462.2 460.3 457.2 454.9 446.3 446.9 449 450.9 453.4 454 453.5 452.1 450.1 447 443.7 440.7 438.7 432.9 438.8 446.3 455.7 465.6 474.3 485 492.6 499.1 501.6 501.9 501.9 500.8 500.5 500.1 498.2 498.2 497 495.1 493.1 490.3 489.3 488.2 484.9 485.5 484.3 481.9 483.1 482.7 482.4 482 481.1 479.2 478 475.5 474.6 474.1 472.7 471.2 469.4 467.5 467.5 466.4 465.6 464.1 463.9 459.8 460.4 458.9 457.4 456.4 455.1 452.3 448.9 448.5 448 446.7 443.8 442.7 441.3 440.5 439 437.4 436 434.6 432.1 431.1 429.4 426.7 422.5 419.1 406.4 398
360 369.6 376.3 388.7 399.8 412.5 415.8 419.2 418.6 416 415.3 414.9 414.4 416 418.3 418 415.9 411.9 407 400 393.6 388.4 383.6 378.3 373.7 369.8 375.8 381.5 387.3 396 400.4 401.9 404 405.8 406.7 408.6 415.6 419.5 418.7 421.6 423 424.1 421.8 413.7 412.5 414.9 420.1 427.7 438.5 451.6 456.8 456.7 459.1 459.6 460.9 461.2 459.7 466.3 466.1 466.6 464.8 464.3 461.1 458.4 454.5 451.9 450.4 446.4 445 442.1 439.2 437.2 434.5 429.9 424.6 420 415.3 418.8 425.4 429.9 431.7 433.4 433.8 433.8 432.6 433.3 434.3 434.3 436.2 439.9 444.6 446.2 447.3 448.2 449.3 449.7 449.3 448.4 447.8 449.2 448.9 448.8 448.5 449.1 448.7 449 451 454.4 458.9 461.7 460.6 458.6 456.4 452.6 440.1 445.7 447.2 449.2 451 452.4 452.9 452 449.8 446.8 441.8 439.3 436.9 431.4 439.1 445.1 452 462.6 471.7 481.2 490 495.7 498.8 499.6 500 499.5 498 497 496.8 495.9 494.4 492.5 491 489.1 486.5 486.6 484.6 482.2 482 480.9 478.6 480.7 481 480.4 479.1 477.3 475.5 473.4 472.8 471.2 468.8 468.7 467.8 467.2 465 465.5 464.5 463.5 461.1 461.5 459.7 457.8 455.9 455.2 453.7 452.2 449.8 449.7 448.7 448.1 445.8 445.6 443.6 442.3 440.9 439.3 438.2 436.7 435.1 434.1 431 428.6 429.1 425.8 423.2 418.4
358.9 364.5 373.5 388.1 400.1 411.5 413.6 420.5 416.7 411.7 408.8 408.4 409.2 413.1 415 415.7 413.1 409.4 401.7 399 393.4 389.8 386.2 379.3 374.4 370.4 375.1 380.2 383.4 390.9 399.1 401.1 402.3 403.4 403.8 402 402.7 403.1 409.6 411.2 411.2 413.2 414.3 410.8 407 411.6 417.8 424.5 431 441.7 451.8 456 457.9 457.8 458.3 455.4 453.8 453.8 456.3 456.6 456.9 456.5 454.5 452 450.6 449.1 447 444.4 441 439.7 437.2 434.8 432.9 429.2 424.5 419.6 413 415.5 423 427.3 429.6 431.9 432.4 432.3 430.5 431.6 432 432.8 434.1 436.5 440.3 441.9 443.5 444.7 447.4 448 447.6 446.1 445.2 445.7 445.8 445.3 445.9 446.4 445.4 446.8 447.5 450 453.3 458.2 457.7 454.1 452.6 448.2 436.9 441.5 445.9 447.7 449.4 450 449.9 448.3 446.5 443.4 439.1 435.8 433.2 429.4 440.2 447.3 453.6 461.4 469.3 477 485 490.2 493.5 495.4 495.7 495.5 494.4 494.1 494.5 493.7 492.1 490.6 489.1 486.9 486 483.7 482.7 479.4 476.5 476.8 476.7 477.8 478.2 477.8 476.3 474.3 472.8 469.6 467.2 466.4 466.4 465.9 465.9 465 464.3 461.5 462 460.9 460.8 460 459.9 458.7 457.7 456.8 454.5 451.6 451.5 451.5 449.9 448.4 448.5 447.6 444.6 444.3 441.8 440.5 439.5 438.3 436.8 436.4 435.3 433.8 431.5 429.2 426.8 425.2
357.5 363.4 373.2 391.8 399.2 407.6 414.5 417.7 412.5 408.1 405.8 405.2 406.5 410.5 414 413.3 409.6 406.8 403.4 397.7 392.9 387.6 384.6 380.1 374.5 370 371.8 378 381.7 387.2 396.6 399.8 400.8 402.3 401.4 399.7 397.5 397.2 398.3 402.4 403.1 405.5 405.6 403.3 404.5 406.5 414.3 421.4 428.2 433.7 441 447.5 451.6 453 451.8 449.3 446.5 445.5 444.1 445.1 445.5 444.8 444.9 441.8 440.2 439.6 439.8 438.9 437.5 435.3 433.9 432.2 430.1 427.8 423.8 418.8 412.2 412.7 420 423.6 426.8 429.3 431 431.6 430.1 430.1 430 430.6 431.4 433.7 436.5 438.2 439.4 441.4 446 447.3 446.8 445.5 444 442.5 443.1 442.5 442.4 442.2 441.6 443 443.1 443.6 446.2 448.4 448.4 447 444.7 439.9 431.9 437.4 443 446.2 447.7 448.1 447.6 445.5 443.5 440.5 436.7 428.7 429.5 437.5 443.4 448.2 452.9 459.5 466.6 473.8 480.4 484.7 488.2 490.2 490.2 491.6 492.1 492.8 492.6 491 490.7 489.6 488.2 485.2 484.4 482.5 480.9 478.7 473.2 472.8 473.1 474.3 475.2 474.9 473.9 471.9 469.5 467.6 465.4 461.5 461.6 461.8 461.8 462.6 462.1 461.8 458.7 460.4 459.4 459.2 458.8 458.2 456.6 455.3 453.9 453.5 453.6 452.6 450.6 450.2 450.1 449.2 447.7 446.7 444 441.7 440.7 439.8 438.5 437.1 437.3 436 434.6 431.9 430.5 428.7
356.6 367.2 378.3 393 395.7 408 415.2 414.4 408.1 405.2 405.2 404.3 405.7 409.2 413 411.5 407 404.2 402.5 397.1 392.4 386.2 380.9 376.5 373.3 369.4 370 375.9 379 382.6 390.5 397.8 399.4 401.3 400.5 398.8 396.5 395.7 396.5 396.1 397 398.8 401.6 401.4 402.8 403.8 409.6 415.5 423 427.3 431.2 434.1 435.7 437.1 438.7 438.9 439.4 439.5 439 438.6 438.9 438.9 437.5 435.9 434.4 433.2 433.4 432 429.9 428.4 428.4 426.8 425.7 423.5 419.1 416.8 414.3 409.6 416 420 424 426.4 428.9 430.8 430.4 429 428.6 428.7 429.1 430.8 433.4 435.3 436.4 437.6 442.6 445.8 445.7 444.8 443 440.9 439.9 438.4 439.2 437.8 436.9 437.4 438.1 437.8 439.2 439.7 440.5 438.7 434.2 430 427.7 430.7 440 445.8 446.9 447 445.6 444.3 442.5 438.2 431.7 430.9 435.8 441.9 444.2 449.1 452.4 457.5 464 470.5 476.3 480.2 483.2 483.8 485.6 487.5 488.4 490.1 490.9 490.5 489 488.4 486.9 485.1 483.2 480.4 475.6 475.4 472.4 465.1 468 468.1 471 470.6 470.4 469.6 467.7 465.1 462.1 460.2 456 457.2 456.8 458.9 460.3 459.9 457.2 458.9 457.6 458.7 456.3 457 456.9 456.1 455.5 454.6 453.7 452.9 451.8 451.9 451.2 449.9 448.6 447 445 442.9 441.6 441.1 440.2 439 438.9 438.1 437.2 435.2 433.3 431
357.8 367.3 377.4 389.4 392.1 404.1 411.3 410.5 406.1 402.8 404.5 403.9 405.6 410.7 413.8 411.7 406.4 402.9 398.3 394.5 390.1 384 378.4 372.8 369.3 369.2 368.5 373.6 376 380.6 386.2 394 397.2 398.4 400.2 397.7 395.5 394.6 394.2 393.9 393.1 395.2 397.8 399.1 401.9 404.2 404.2 408.2 413.9 417.7 422 424.3 425.7 427.6 431 433.5 434.2 435.1 435.4 435.5 435.9 435.6 434.4 432.4 430.7 429.9 429.6 428.2 426.4 425.5 424.6 422.2 420.5 418.6 416.7 414.6 413.1 407.9 411.4 416.8 420.7 424 426.6 429 430.6 430.3 428.1 426.4 427.2 428 430.8 431.9 432.2 434.7 438.3 441.1 442.3 442 440.6 437.3 435.9 435.6 435.9 433.7 431.8 431.8 432.1 432.1 432.4 432.5 432 428.7 424.8 422.8 423 427.1 438.6 445.8 446.2 445.7 444.4 443.2 440.2 430.5 422.9 431.6 444.4 446 445.9 449.1 452.9 457.3 462.3 467.5 472.7 476.2 478.7 480 481 482.9 484.2 487.3 489.2 486.9 488 486.5 484.8 482.7 481 478.6 474 469.3 468.8 465.6 461.9 465.3 465.7 465.1 465.3 464.4 462.3 459.9 459.5 456.9 454.3 453.3 450.4 452.8 455.2 454.4 454.3 454.9 455.9 456.8 456.1 457.2 456.6 455.9 455.2 454.3 453.3 452.4 451.8 451.2 449.7 448.9 448.2 447.3 445.3 444.3 443.3 442.7 441.6 440.9 440.6 440.2 439.4 437.6 435.3 432.4
357.9 366.9 374.5 383 386.6 398.8 406.9 407.1 404.3 403 403 402.9 405.6 412.4 414.2 412 407.8 401.5 397 393.1 388.3 384.9 378 371.6 367.2 366.5 364 371.3 374.6 378.3 382.6 389.1 394.5 396.5 396.2 395.2 394.7 393.8 393.1 392.4 392.3 393.3 395.9 398.2 400.3 403.6 405.3 405.9 408.5 412.9 415.7 419.5 422 423.7 426.1 429 430.8 432.2 432.8 433.1 433.2 433 432.6 431.3 428.8 427.6 427.7 426.9 425 424.3 422.8 420.9 418.2 416.1 414.4 412.6 411.1 406.3 408.3 414.7 418.1 421.2 423.7 426.4 429 430.4 429.2 427.6 426.1 425.8 427.6 428.5 429.4 431.2 434.7 435.6 436.2 436.7 435.1 433.7 431.1 431.4 431.2 430.1 428.1 426.5 428 428.2 428.5 427.7 425.4 420.7 417.8 418 420.4 426.8 438.2 445.4 445.2 444.2 442.4 439.9 431.1 421.9 425.9 436.4 446.5 447.3 447.6 449.6 452.5 456.2 460 464.6 468.5 473 475.2 476.4 477.5 477.3 482.5 484.6 486.7 486.7 485.6 483.9 482.1 481.2 478.3 475.4 471.3 464.5 463.8 463.1 455.6 458.6 461.1 461.4 459.7 459.4 457.9 456.6 455.7 454.2 451.3 448.4 448.2 446.1 447.6 448.4 447.8 448.5 450.9 453.2 454.8 455.5 455.6 455 453.8 453.4 452.6 451.7 451 450.2 448.9 447.9 445.9 445.4 444.4 443.9 444 443 442 441.1 441 440.9 440.2 438.4 436.4 433.2
356.2 364.4 371.4 378.1 381.3 392.9 401.8 403.8 403.4 401.6 401.3 401.3 405.8 412.1 414.3 413 409.4 402 399.5 394.3 390.5 387.6 382.1 374 368 366.1 361.7 368.4 371.4 376.4 379.8 384.2 390.9 393.5 393.5 394.2 393.4 393.9 393.2 392.3 390.6 391.8 393.8 397.3 399.8 404.3 405.6 405.6 406.9 408.4 412.1 415.5 419.6 423.8 424.2 426.1 427.8 428.7 429.4 430.2 430.1 429.8 429.1 428.3 427.3 426.2 425.5 425.3 424.2 422.8 420.9 419.5 417.5 415.1 413.2 411.8 410.3 404.2 407.5 411.2 415.5 418 420.5 423.1 425.5 427.6 427.8 427.2 426.2 425 425.3 426.3 427.2 427.9 429.3 431.1 431.8 432.3 431.2 429.3 426.8 427.2 426.3 424.9 423.7 421.4 424.3 425.9 425.5 423.7 420.6 416.6 412.9 412.7 415.6 426.6 439.7 443.7 442.6 440.9 433.5 428 422.3 420.1 430.4 439.9 448.9 449.6 449.6 450.7 452.3 455 457.2 460.9 466.1 469.6 471.9 474.2 472.4 476.8 479.5 481.1 484.2 484.4 484.7 482.8 480 476.5 475.9 472.9 467.7 461.3 458.3 458.8 455.8 456.1 456 457.1 456.9 456 453.7 453.2 452 451.3 449.2 446.9 445.1 442.2 442.4 443.1 443.2 439.7 444.1 448.6 448.9 450.8 453 452.2 451.9 450.9 449.7 449.2 448.2 446.9 446 444.8 444.1 443.3 442.4 442.7 442.3 442.2 442 441.2 441.1 441 440.3 439 436.9 434.8
355.2 362.3 370.1 375.3 374.8 387.5 393.4 398.4 400.7 398.6 398.9 399.6 405.4 411 413.6 415.2 416.3 409.7 402.2 397.1 392.2 389.3 384.9 379.2 371.2 369 360.3 361.5 369.7 374.3 378.7 383.1 388.1 391.8 392.7 392 392.4 391.6 393 393 388 390.8 392.7 396.6 401.9 403.9 405.2 407.3 407.6 407.5 409.2 412 417.9 422.1 423.6 423.9 424.4 424.7 425.3 425.6 425.6 425.5 424.7 424 423.3 422.9 422.7 422.4 421.7 420.5 418.6 416.9 415.5 413.6 412 410.4 408.7 406.9 405.6 409.9 413.4 415.9 418.2 419.8 421.7 423.4 425.1 425.4 425 424.9 423.8 424.3 425.1 426 426.5 427 428.5 427.5 427.1 424.7 417.8 420.6 422.5 421.4 420.3 419.1 420.7 423.6 423.1 421.6 418 415 410.4 408.5 413.8 423.8 431.6 433.8 430.9 426.1 416.7 415 414.4 427.7 434.1 443.8 450.3 451.4 451.5 451.9 452.2 453.9 455.8 457.9 461.8 465.5 469.1 470.5 472.4 474.1 475.9 478.4 481.8 483.8 483.8 482.1 479.1 476.1 472.6 471.8 468.3 462.5 456.5 452.7 451.4 449.1 452.6 454 453.7 452.2 451.8 450.9 450 449 447.7 444.6 440.7 439.7 437.8 439.1 438.1 434.9 439.5 441 441.8 443.7 446.9 447.4 446.1 446 446.5 445.3 444.7 443.1 442.9 441.8 440.2 440.2 440.7 440.9 441.8 441.8 441.7 441.4 441.2 441.1 440.5 439.6 438.6 435.7
354.2 359.6 368.5 369.8 369 382 387.5 393.5 397.1 394.5 396 396 405.1 409.3 411.7 413.1 412.6 409.9 408.3 400.2 394.8 390.5 386 381.4 376.1 371.2 366.2 358.6 366.8 369.8 374.1 379.3 384.7 389.6 391.1 390 390.1 392.1 392 391.5 390.2 389.8 391.7 396.1 401.5 402.9 404.9 406.4 407.6 408.3 408.9 409.6 414.5 417.9 421.4 421.4 421 420.4 420.3 420.8 421 420.9 420.3 419.5 418.7 418.9 418.8 418.8 417.9 417.1 415.8 414.5 413.4 412 410 408.3 407.3 404.1 403.2 404.4 411.3 414.7 416.3 418.1 419.8 421.5 422.4 423.3 423.8 424.2 424 421.7 423 423.6 423.4 423.6 423.9 423.2 422.5 420.8 417.5 414.3 417.3 417.6 416.6 414.6 418.2 419 420.8 419.1 416.4 412.2 407.9 406 410 417.3 421.1 421.9 420 414.5 406.8 414.9 424 432.8 440.1 448.2 451.6 452.7 452.4 452.5 452.8 453.1 454.3 455.9 457.6 461.1 464.4 466 470.2 471.5 473.4 476 479 481.3 482.3 481 478.1 475.8 473.7 470.2 467.9 464.4 457.2 454.8 451.4 444.1 446.1 447.5 448.4 448.7 448.5 447.6 445.7 445.5 445.6 440.6 439.7 435 432.3 433.2 434.2 429.4 435.9 435.8 436.4 436.9 437.9 437.8 438.8 439.6 440.5 438.7 439.6 438 437.1 437 436.1 436.4 436.4 439.1 440.6 440.9 441 440.9 441.3 441 440.5 439.9 439.1 436.7
350.4 353.6 362.9 363.4 362.4 374 382 385.8 390.7 389.9 392.3 394.8 403.7 407.6 409.9 412.3 411.6 409.5 407.4 405 396.9 390 386.3 382.1 377.5 373.2 370.2 364.3 359.5 366.7 369.8 376.3 380.9 385.6 387.6 388.2 391.6 394.4 393.8 393.8 392.2 386 388.3 394.5 400.6 403 404.2 405.7 407.8 407.8 408.3 409.3 409.8 412.7 416.9 419.9 417 416.4 415.7 416 416.3 416.4 416.1 415.6 414.8 414.1 413.8 414.4 415 416.2 413.8 412.6 411.2 410.1 408.3 406.7 405.6 403.2 402.3 404.7 407.7 411.3 413.6 415.6 417.2 418.4 419.7 420.4 422.5 423 423.2 422.2 421.1 419.5 419.5 419.6 420.4 419.4 418.4 417.4 414.5 408.8 413.4 414.2 412.5 411.4 414.8 414.8 415 413 410.6 404.6 402.1 400.8 404.9 407.2 409 411.1 409.3 405.8 405.9 418.5 429.8 440.8 450.5 452.6 453.4 453.7 453.4 453.3 453.2 453 453.3 454.2 455.7 457.4 458 464.7 467.3 468.3 470.6 473 475.3 477.1 479.1 478.5 476.9 475.5 473.2 470.3 467.3 464.7 461.8 459.3 456.9 454.8 450.9 442.3 441 440.6 438.9 438 435.7 437.3 438.5 435 433.4 430.6 426.8 420.9 422 421.7 430.2 431.6 431.5 430.8 431.8 431.3 431.3 431.5 433.2 431.2 432.2 432 432.1 432 432.6 432.3 434.8 437.1 438.5 438.7 439.7 440.2 440.3 440.1 439.8 439.3 438.9 437.8
347 346.2 358.4 357.3 357.1 364.9 374.2 381.4 383.3 386.9 389.1 395.5 403 406.8 408.8 411.2 411.1 408.8 406.1 402.9 398.2 393.1 387.7 384.1 378.8 374.3 371.7 368.7 355.8 361.4 365.4 370.4 376.5 379 380.7 385.8 390.2 392.9 392.9 392.4 392 390.2 389.9 392.5 399.5 401.9 403 404.7 405.8 407.3 408 409.1 410.1 410.3 412.6 412.9 413.3 412.9 412.1 411.6 412.6 413.6 413.4 412.8 413 412.2 411.6 411 411.4 412.3 412 411 409.7 408.2 406.7 405.2 403.9 400.8 401 403.5 401 408.7 410.7 412.6 414 415.5 416.7 417.6 421 423.2 422.7 421.2 420.7 419.5 418.8 415.8 417.6 416.7 415.2 414.7 413 404.6 409.8 410.7 410.4 408.5 410.7 410.5 410.3 409.6 405.7 401.5 389.4 393.9 385.9 387.9 390.5 399.8 399 399.8 410.6 420.2 431.3 451.1 454 454.8 454.8 454.7 454.2 453.8 453.5 453.2 453 453 452.8 454.2 456.6 459.1 460.8 465.7 467.4 468.4 470.7 472.4 473.7 474.1 473.2 473.1 472.5 469.7 465.9 464.7 462.4 460.5 458.9 457.3 455.9 453.6 449.7 446.9 442.8 438.7 437.2 433.8 425.1 424.5 422.4 419.9 427.1 419.9 411.9 413.9 417 422.3 424.8 425.3 426.8 426.7 427.1 427.1 426.9 427.3 428.1 426.8 427.9 429 430.2 429.1 430.6 432 434.6 434.7 435.7 438.2 438.9 439.1 439 438.6 438.1 437.3
339.6 340 351.6 352.5 350.6 359.4 364.8 373.8 381.9 386.4 389.4 395.5 402.7 406.7 408.5 410.7 410.2 408.1 405.2 401.7 399.9 397.2 390.8 385 379.7 374.4 371.5 368.6 364.6 354.9 361.8 366.1 371.9 374.3 376.6 382.5 386.7 389 389.9 389.6 388.7 388.9 387.2 389.9 397.4 399.8 402.3 403.9 405.6 406.9 410.3 412.7 410.3 409.7 410.9 410.4 410 409.7 409.4 409.7 410 411.4 411.4 411.9 412.2 411.7 411.2 410.7 409.4 409 409.5 408.9 408.2 406.5 404.5 403.4 402.6 400.2 400 402.5 399.3 406.4 408 409.6 411.1 412.8 414.1 415.8 419.8 422.8 423.1 421.2 419.4 418.5 417 412.6 414.9 411.9 412.2 411.6 411.2 407.6 405 406.9 407.3 405.9 407.7 407.2 406.7 405.3 402.2 399.2 384.1 384.2 380.5 383.8 387 390 395.3 400.5 412 419 428.1 440.2 455.8 456 455.7 455.4 454.9 454.2 453.6 453 452.7 451.8 448.8 452.7 452.9 454.4 458.2 462.2 464 464.5 465.5 467.2 469.5 470 469.9 470.5 470.5 469.3 466 463.6 462.1 460 458.6 457.3 456.7 456.3 454.8 453.4 451 448.5 445.2 442.6 442.7 441.1 439.5 437.5 435.7 432.4 427.6 416.1 406.9 408.3 408.9 412.6 419.8 421.5 422.7 422.7 422.5 423.1 422.8 423.6 424.7 426.5 428 427.3 424.9 428 428.9 430.7 431.3 434.4 436.8 437.2 437.7 437.6 437.3 436.6
330.8 332.9 344.8 348.4 347.9 350.1 359.1 366.8 380.8 387.7 389.3 396.8 403.1 408.4 408.5 410.3 409.8 407.6 405.1 403.2 400.7 397.9 395.3 390.1 383.6 376.8 371.2 368.4 365.4 355.3 356.7 362.3 366 369.7 373.7 377.5 382.1 384.3 384.8 385.3 386.3 380.8 384.6 387 395.2 397.3 400.3 401.4 404.4 406.4 410.2 412.4 412.4 410.2 410.6 408.8 408.1 407.4 407.4 407.9 408.6 409.3 410.1 410.8 410.8 410.9 410.5 410 408.4 407.4 406.6 406.6 405.9 404.6 403.1 402.2 401.3 399.2 399 401.2 403 403.1 406.3 407.6 408.8 410.3 410.9 414 418.2 421.2 422.7 421.2 419.4 417.6 416 413.7 409.3 404.2 405.2 406.5 408.8 406 400.4 402.5 403.6 403.7 404.2 403.6 402.5 402.1 399.5 397 392.7 375.4 380 380.3 382 385.5 391.6 403.5 411.2 419.4 426.2 434.6 444.9 457.6 456.5 455.8 455.6 454.7 453.7 453 452.1 451.2 447.1 450.8 450.6 451.6 454.2 457.1 459.2 460.1 460.9 462.3 464.1 465.7 466.3 467.1 467.7 467.3 466.2 464.2 461.8 459.8 458.1 456.6 456 455.9 455.2 453.7 451.7 449.7 447.2 446.3 445.7 444.4 442.4 440.5 438.7 436.1 432.6 428.5 422.8 414.1 404.7 399.7 405.4 407.7 410.8 415.8 418.3 418.5 418.8 420.2 422.1 423.6 424.6 424.3 423.1 424 425.5 426.9 427.8 429.4 432.7 435.2 435.6 435.5 434.3 434.8
320.1 325.5 337.1 344.6 346.2 347.2 350 363.9 381.5 389.6 390.3 397.8 401.8 405.4 407.3 409.4 409.3 406.4 404.8 402.7 400 397.3 394.8 391.3 386.2 378.9 372.5 368 365.2 358.4 351 356.7 361.1 366.9 370.5 373.6 376.5 379 380.8 380.9 381.5 381 378.6 385.2 391.4 394 397 398.3 400.7 404.9 408.4 409.4 409.4 409 408.3 409.2 408.5 405.6 405.6 406.6 407.3 408.5 409.2 409.8 409.5 409.5 409.3 408.7 407.4 406.1 405.1 404.6 403.7 402.9 402 401.1 400 397.6 397.5 400.1 401.9 399.9 404.1 405.7 407.2 408.5 409.5 413.2 416.5 418.9 420.4 420.7 419 417.6 415.5 413.2 410 407.2 403.4 399 398.4 401.6 397.2 400 401.1 401.3 400.8 400.1 399.8 399.3 396.3 393.5 389.8 379 366.2 378.7 386.7 393.5 399.1 406 413.1 419.6 425.1 430.8 439.2 456.8 455.8 456.4 456.3 455.1 453.8 452.8 451.8 450.8 449.8 448.2 448.5 448.9 449.9 451 453 455.8 455.7 457.4 458.3 459.6 460.9 461.3 462.3 462.6 462.9 461.6 459.9 458.4 456.4 454.4 452.8 452.4 451.9 450.8 449.8 448.5 447.1 445.8 444.6 443.3 442 440.2 439.3 437.6 434.7 431.6 427.9 421.9 413.7 406.9 397.1 397.3 399.1 404.6 412.6 412.8 412.5 417.6 419.2 420.8 421 420.9 420.5 420.2 421.7 422.8 423.3 424.5 426.6 430.2 432.1 433.1 431.1 431.2
313 319.4 327.8 341.5 343.8 346.4 351.2 362.7 381.5 390.9 394.1 396.6 402.4 403.4 405.3 410.2 408.3 406.4 404.1 401.6 399.5 396.7 394.3 390.3 386.5 381.9 374.8 368.9 363.4 361.8 351.3 349.2 356.4 363 366.3 370.4 373.4 376.2 379.3 376.8 377.6 377.8 372.5 383.7 387.1 390.5 392.5 393.2 396.1 399.8 402.5 405 405.7 406.3 406.1 406.8 405.4 404 404 404.6 405.9 407.4 408.7 409.1 409 408.6 407.7 406.3 405.8 405 404.5 403.9 403 402.4 401.6 400.6 398.8 397.5 396.6 397.8 400.4 401.4 400.8 403.4 404.8 405.9 407.3 410.8 414.4 417 418.4 419.4 418.7 417.3 415.9 413.8 411.5 408.6 405.7 401.7 398.1 392.5 390.6 394.5 400.4 399 398.9 398.2 397.9 396.8 395.5 392.4 384.4 363 381.3 384.5 390.7 397.9 403.3 406.6 414.5 418.4 423.5 429.6 437 446.5 453.2 456 456.4 456 454.4 453.2 451.8 451.2 449 446.4 447.2 446.8 446.1 446.8 448.4 450.6 451.4 452.9 454.6 456.4 457.1 457.1 458.3 458.3 457.9 457.4 456.3 455.8 454.4 452.7 450.5 448.4 448.6 448.4 447 445.9 445.3 443.1 441.6 440 439.4 438.9 438.4 436.8 435 432.2 429.4 426.4 421.9 416.6 411.7 404.7 394.6 393 398.7 402.6 409.9 413.3 415.8 417.7 418.2 417.7 416.7 415.2 418.6 419.2 417.7 420.4 421.3 424.1 426.9 427.8 426.9 426.6
309.9 314.3 320.5 335 343.7 344.5 352.2 365.7 382.2 390.9 397 398.9 402 402.4 403.5 410.3 406.5 405.2 402.9 400.6 398.4 396.2 393.8 390.5 386.3 382.4 376.8 370.5 365.6 361.2 357.6 347.8 352.3 357.5 362 366.2 371.1 375 377.1 376.9 375.7 374.1 368.5 380.3 383.3 385.4 388.6 388.6 392.6 394.2 397.4 400.9 402.1 404.1 404 403.3 402.7 401.4 402.5 402.9 404.2 406.1 407.7 408 408.3 407.9 406.2 404.9 404.1 404 403.7 403 402.4 401.8 401.1 400 398.6 396.8 396.2 395.2 398.5 399.5 400.5 401.2 402.7 403.8 405.3 408.7 412.2 415.1 417 418 417.4 416.3 415.2 414 411.7 409.9 407.9 403.1 397.7 396.2 393.2 388.8 396.5 396.9 396.2 397.4 395.7 394 393.2 391 378.5 361.5 381.4 384.2 393.4 399.5 405 410.8 417.1 422 426.8 431 437.1 443.2 448.1 452 454.1 455.2 455 453.9 452.5 451 450.2 448.4 446.6 445.5 443.4 444.2 445.9 446.8 448.8 450 452 453.3 454 454.5 454.9 454.5 454.2 453.5 452.7 452.3 451.3 449.1 447.1 445.9 445.1 444.4 443.9 443.5 443.6 441.8 440.1 439.2 438.4 437.7 437.1 436.6 435.2 432.7 429.7 424.4 422.1 419.4 416.2 412.9 408.1 396.6 389.9 390.9 397.8 406.6 411.2 412.8 413.2 414 412.3 411.8 415.1 415.7 415.9 415.8 415.6 417.2 419.7 421.4 420.1 421.8
307.3 313.4 317.6 330.4 344.4 345.2 352 368.3 384.7 393.3 397.8 399.8 400.8 401.7 399.9 402.4 404.5 403.4 402.1 399.8 397.6 395.4 392.9 388.8 385.4 382.4 378 372.6 367.8 362.4 358.1 350.7 346.5 352.8 356.7 362.2 366.9 370.6 372.9 374.5 373.2 370 369.6 375.1 378.1 381.1 383.8 384.1 386.2 389.5 393.4 396.2 399 401.1 400 400.7 398.8 398.7 399.5 400.1 401.5 403.5 406.7 406.7 408.8 406.8 405.1 404 403.4 402.6 402.7 402.2 401.7 401.1 400.5 399.6 398.7 395.8 393.6 393.3 395.6 397.5 399.2 393.1 399.9 401.4 403.5 406.1 409.6 412.6 414.4 417.1 416.3 415.3 414.2 413.2 411.9 409.8 407.1 403.4 396.1 395.8 394.3 391.7 387.6 393.3 392.9 396.5 397 393.7 391 380 363.6 357.6 369.2 383.8 395 401.9 407.7 413.6 419.9 425.3 429.1 433.8 438.6 443 446 448 450.2 452.4 452.8 452.1 451.5 450.1 449.2 448.4 447.5 445.9 442.5 442.5 443.8 445.2 446.8 447.8 449.7 450.9 451.5 452.4 453 452.3 451.7 450.7 449.5 448.7 447.8 446.2 445.2 443.9 442.7 441.2 441.3 442 442.2 441.8 440.7 439.7 438.6 437.6 436.4 435.7 434.4 431.4 427.6 420.5 419.2 416 413.4 410.6 408.2 407.5 397.4 390.4 387.2 393.7 404.1 406.3 407.6 408.2 407.3 406.1 411 411.5 412.5 410.9 411.1 411.4 411.4 412.3 414.4 417
304.5 311.5 317.6 326.9 341.5 347.4 354.6 374.6 386.6 394.5 397.9 398.9 399.1 400.7 398.2 397.6 401.5 401.2 400.2 398 396.4 394.4 391.3 389 386 383.4 379.5 374.6 370.1 365 358 354.4 342.5 346.7 352.6 355.7 361.8 365.7 368.3 370.8 370.1 367.9 362.6 370.7 373.6 375.8 377.8 379.6 381.3 384.9 389.2 392.1 395.6 395.8 397.2 396.1 394.9 395.8 396.8 396.6 398.9 402.3 404.6 405 405.8 405.7 404 403.3 402.5 401.2 401 400.7 400.9 400.4 399.9 399.1 398.6 397.3 393.8 391.7 392.3 396.1 398.3 398.7 394.4 400 401.5 404.1 406.9 410 411.8 412.9 414.2 413.3 412.8 412.5 410.8 408.4 405.9 403.4 398.9 396.6 394.1 392.8 389.4 386.1 387.5 391 392.7 389.5 382.9 369.2 352.1 359.1 372.3 385.5 399.6 407.3 412.2 418.1 424.8 429.2 433.5 437.5 440.3 443.9 445.1 446.9 448.4 449.2 449.8 449.6 449 448.4 447.5 446.9 445.7 444.4 440.4 440.5 440.1 444.5 446 447 447.9 448.9 450 449.9 451.9 451.6 450.6 449.4 448.1 447.6 446.2 445.1 444 442.9 441.9 439.9 439.2 440.3 440.5 440.8 440.6 440.4 439.7 438.5 437.2 436.1 434 430.8 429.5 427.5 425.4 422.4 420.1 414.3 413.6 411.1 407.9 403.2 393.1 383.5 389.3 397.6 400.1 400.9 400.3 400.8 407.4 408.6 408.5 407.9 406.7 406.2 406 405.7 407.9 410.9
303.5 311.1 318.2 325.7 339 347.4 357.9 378.5 388 392 395.6 396.6 397.4 397.6 397.6 396.7 397.1 399.9 398 397 395.6 394 391.3 388.7 386.6 384.6 380.7 377 372.6 367.7 361.5 357.2 350.3 341.4 347.8 351.8 355.7 360.1 363.6 365.9 366.4 365.5 357.1 366.9 369.8 370.6 372.5 375.1 377.9 381.3 386.1 388.8 390.4 390.8 392 391.6 391.4 392.4 392.4 394.1 395.9 400.1 403.2 404 404.9 404.2 403.5 402.9 401.8 401 399.3 398.8 399.8 399.5 398.3 396.4 396.8 396.7 395.4 392.5 393.3 391.8 396.6 397.3 394.7 398 399.6 402 404.7 407.3 409 410.4 410.3 410.2 411.4 411 408.8 406.5 405.5 403.2 400.3 397.8 395.3 393.7 392.1 390.8 387.9 383.4 386.6 379.3 381.2 362.6 349.9 360.5 372.3 389.4 403.2 412.6 417.1 424.1 431.1 435 438 439.7 442 443.8 444.6 446.3 447.8 449 449.3 449 447.8 446.8 445.6 444.5 442.9 441.9 438.5 435.1 440.1 442.8 444.3 445.2 446 446.5 446.4 449.6 451.4 452 451.5 448.8 447.1 446.9 446 444.8 443.1 442.3 441.1 439.7 437.8 437.8 438.7 438.9 439.2 439.2 438.7 438.1 437 435.7 434.1 433.8 432 429.3 426.3 423.5 420.4 417.8 414.9 412 408.5 405.4 400 392.5 383.2 384.3 387.6 388.6 387.6 396.8 402.9 402.9 404.1 401.7 401.7 401.1 400.9 400.5 402.3 405
302 308.8 319.4 325.5 336.5 347.7 356.8 375 386 388.4 390.5 392.8 395.3 395 396.2 396.1 393.9 396.4 396.3 393.6 394.9 393.4 391.7 388.8 387 385.1 382.1 379 373.4 369.2 363.8 359.6 354.4 342.5 340 346.1 350.2 355.1 358.3 361 362.3 361.7 356.2 360.4 363.7 364.8 367.7 370 374.7 377.1 382.4 384 385.8 385.9 386.3 386.9 387.3 387.2 388.3 390.5 393.1 397.6 400.2 406.1 404.8 403.4 403.1 402.5 401.3 403.6 402.3 397.3 397.1 397.5 396.3 395.7 395.7 396 396 393.8 388.1 389.6 394.3 394.8 395.1 390.8 398.3 400.5 402.8 404.5 406.6 407.4 406.9 407.5 409.4 409.2 406.8 405.2 404.5 404 401.4 399 396.7 394.8 393.8 392.5 390.8 387.9 383.4 385.2 368.6 355.4 348.5 358.9 377.4 392.5 405.9 414.8 419.9 425.2 431.6 435.5 438.3 439.8 441.3 442.5 443.5 445.2 445.9 447.1 447.2 446.7 445.8 443.5 442.4 441.9 440.5 439.1 436.8 435.2 438.6 440.1 441.4 443.2 444.4 445 445.3 446.1 446.5 447.3 447.3 446.5 446.2 445.9 445.4 444.3 442.6 439.7 438.1 438.5 437.4 434.6 435.7 436.7 437.1 436.9 436.8 436.5 435.4 433.9 432.3 431.3 430.1 428.7 425.8 421.9 418.3 416.3 414.3 412 407.1 402.4 401.8 394.9 389.4 380.8 379 378 383.4 390.8 396.5 398.3 398.1 396.8 396.6 395.8 395.9 396 396.3 398.1
300.3 309.4 317.1 326.1 335.1 346.4 356.7 369.7 383.9 385.1 386.3 388.3 392.3 393.3 393.6 394.9 391.7 392.4 394.7 394 393.5 392.5 391.5 389.6 387.7 385.8 383.7 380.3 377.5 372.1 367.9 363.6 357.9 353.4 344.4 336.5 345.5 348.8 352.7 355.4 358.2 357.3 354.3 355.5 357.5 359.6 363.7 367.2 369.9 373.9 379.2 379.4 380.9 381.1 381.7 382.6 383.7 383.1 384.7 387 390.5 393.3 397.2 398.8 401.3 403.6 403 402 400.6 399.6 399.8 397 395.2 395.3 394.8 394.4 394.7 395.8 395.3 394.1 393.5 388.1 389.8 392.8 393.8 388.7 397 399.6 401.8 402.9 403.9 405.1 405.6 405.1 405.6 405.3 404.5 404.2 403.9 403.3 402.4 401.3 399.4 396.8 395.2 393.8 391.8 386.3 372.6 378.1 374 350.1 345.5 364.8 384.3 395 404.9 414.1 419 423.5 428.1 432.1 435.6 437.1 437.9 438.3 440.2 441.4 444 444.7 445.1 445.1 443.7 441.7 440.1 438.4 438 436.3 433.9 431.6 436.2 438.5 439.6 440.1 442.3 443.1 443.6 443.8 444.1 444.3 445 444.2 444 444.1 443.6 442.9 441.8 439.7 438.1 436.2 436.3 435.5 433.9 434.8 435.3 435.2 435.6 434.9 433.5 432 430.4 429.6 428.1 427.1 426 423.6 421.1 416.3 412.2 411.6 409 406.1 401.6 398.3 395.2 390.2 384.7 379.4 375.5 379.2 388.2 392.5 391.4 388.8 391.6 391.5 391.1 391.5 391.2 391.1
298.1 306.8 314 324.2 332.5 343.7 354.1 366.3 380.7 383.5 385 384.6 387.8 390.9 392.5 391.7 390.9 389.9 391.6 392.4 392.4 391.6 391.6 390.8 388.7 386.6 384.8 383 380.9 376.9 372.2 367.7 363.2 357.7 352.6 345.2 334.6 342.3 347.4 348.7 352.4 354 350.6 353.1 352.8 354.6 358.5 363.8 365.5 370.2 376.2 375.3 376.3 377.3 381.3 378.6 380.2 380.6 382.1 386.2 388.5 391 393.6 396.1 399.7 401.8 401.7 400.9 400.3 399.5 399 397.2 394.5 394.3 394.8 393.9 396.4 394.4 394.4 393.4 393.1 391.2 386.9 388.6 389.6 387.4 395.5 399.2 401.9 402.2 402.3 403 403.5 403.7 403.1 403.1 403.2 403.1 402.9 402.9 402.8 402.3 401 399.4 398.2 396.3 394.6 386.5 372.6 359.5 353.1 346.3 348.4 366.3 388.1 397.4 402.7 411.4 416.2 420.6 424.1 427.3 430.3 432.4 433.7 433.5 435.8 436.6 439.6 441.6 442.7 442.6 442.1 440.6 438.8 436.3 434.1 431.6 428.8 430 432.5 435.4 437.2 438.7 440 440.1 441.4 441.5 441.1 440.1 440.7 441.2 441 441.1 440.9 440.4 439.5 438.5 437.6 435.3 434.7 434.7 433.6 432 432.3 433.3 434.1 433.3 431.9 429.6 427.8 427.5 427.2 426.3 425.2 423.5 420 417.1 413.9 410.4 406.7 405.3 403.7 401.1 398.4 394.9 390.1 384.5 379.5 372.3 380.3 384.2 386.1 383.1 383.9 386.4 386.6 385.7 385.5 386.1
297.3 305.2 313.3 323.5 332.9 343.1 350.1 362.6 378.2 381.8 384.1 384 384.3 387.5 390.1 389.5 388.6 388.9 389.1 391.4 392.2 389.7 391.5 392 389.9 387.8 386.1 384.6 382.7 380.3 377.4 372.8 366.2 361.6 356.4 352.3 345 340 335.4 341.7 344.4 348 348.6 345.1 349.4 351.6 356.1 358.9 362.9 367.2 370.2 371 372.4 374.4 376.8 378.5 376.7 377.1 380.3 384.3 387.1 389.3 392.1 395.2 398.2 399.8 400.4 399.4 399.5 399.4 398.4 397.3 395 393.3 393.2 393.5 393.3 393.8 392.9 392.3 391.1 390.2 386.6 387.3 390.9 389.9 394.9 397.9 401.5 401.4 401 401.3 401.7 402 402.1 402.1 402.1 402 401.8 402 401.7 401.4 401.4 400.7 400.7 401.1 399.1 393.1 376.5 361 349.4 345.1 349.2 357.3 382.5 400.2 405.7 410.1 413.7 416.6 419.7 422.5 424.9 427.2 429.1 430.3 431.7 433.1 435.1 437.4 438.5 439 438.7 437.6 435.6 432.8 429.5 426.7 423.6 420.6 427.3 430.8 434.1 436.2 437.7 438.4 438.7 438.5 438.6 438 436.1 437 437.1 436.2 436.6 436.7 435.9 435.7 435.9 434.7 432.2 432.6 430.7 429.8 428.4 430.1 430.9 432.6 431.3 429.2 426.4 424 424.3 424.5 424 422.8 421 419.2 416.5 413.4 410 406.7 402.9 399.8 398.7 396.7 392.7 388.2 382.6 377.3 371.5 375.7 377.6 376 377.1 379.1 381.4 379.1 379.2 380.7
297.1 302.8 312.6 324.3 333.4 342.8 348.5 361.7 375.5 382.4 384.3 384.6 383.3 384.8 387.8 388.6 387.8 388.1 388.6 389.9 392.4 392.2 392.8 393.7 391.9 389.9 387.3 385.9 384.2 382.3 379.7 376.6 371.9 364.9 360.3 353.5 347.1 335 328.1 336.5 339.6 341.9 344.3 342.9 345.6 347.1 351 356 361.2 364.6 367 368.6 369.3 371.1 372.8 374 367.9 376.1 379.8 383 386.2 388.5 391.6 394 396.6 397.4 398.4 397.6 398.6 398.3 397.9 396.7 395.1 393.7 392.7 392.4 392.3 392 391.6 391.2 390.1 389.4 385.3 383.3 384.4 390.5 393.7 395.7 399 399.7 399.5 399.5 399.8 400 400.4 400.5 400.6 400.7 400.6 400.9 400.5 400.3 400.1 399.7 403.1 404.4 403.1 400 377.8 357.2 345.9 339.3 350.1 356.9 377.2 398.8 405.9 411.3 413 415.1 416.2 418.5 420.7 423.5 425.6 427.5 427.6 429.7 431.4 433.8 435.3 435.3 434.8 433.6 431.3 427.4 424.2 419 418.3 415.7 422.6 426.8 430.2 433.2 434.5 434.8 435.3 435 433.7 433.2 432 432 431.8 431.8 432.1 432.2 432.4 432.3 432.3 432.5 432.2 428.8 427.1 426.5 426.6 424.6 427.4 429.3 429.8 427.6 425.7 422.1 421.2 422.2 421.3 420.8 420.2 419.3 417.4 415.1 412.8 410.7 406.3 401.8 394.5 391.2 389.3 387 383.6 379.3 373.4 367.4 370.6 369.8 370.1 371 374.1 370.9 370.3 374.7
295.7 302.9 313.3 324.1 336.2 346.4 353.2 364.7 372.9 381 384.8 384.9 382.5 381.5 384.1 387 386.8 387.5 390.4 390 393 394.1 396.2 397.2 395 391.5 388.6 386.9 384.8 382.8 380.7 378.2 374.8 369.6 363.4 357.1 352.2 346.8 336.6 325.7 332.5 336.5 339.7 339.8 340.9 344.7 347.1 353.4 357.7 361.7 363.6 365 366.3 368 369.6 367 370.8 377.1 380 383.8 387 388.3 390.8 392.9 394.1 395.4 396.5 397.5 397.1 396.8 396.6 395.8 394.7 393.4 392.2 391.3 391.2 391 390.5 390.1 389.5 389.1 387.8 383.1 384 387.3 391.3 394 397 397.9 398.2 398.1 398.2 398.5 398.8 398.9 399.1 399.3 399.7 399.4 399.2 398 397.4 397.1 400.2 406.1 400.3 394.9 378.9 354.2 341.7 339.4 350.1 362.2 387.6 402.9 406.6 411.5 411 413.9 415.1 416.1 418 419.8 421.8 424.6 425.4 425.9 427.8 429.4 431.1 431.3 430.9 429.8 427.3 423.8 417.7 413.6 414.2 411.6 418.1 422.7 427.2 429.3 430.5 430.2 430 429.7 428 428.2 427.4 427.2 427.3 427.4 428.8 428.9 429.3 429.1 429.1 429.5 429.8 429.5 426.7 423.8 422.2 424.2 424.8 425.8 426 425.2 423.9 421.3 418.4 419.4 419 418.5 417.9 415.9 414.3 412.3 410.4 407.5 404.8 398.5 395.7 393.6 390 387.8 385.3 381.8 377 375.5 368.2 365.5 360.2 363.5 365 365.5 365.9 368.7
294.9 304.2 314.4 324 342.5 351.1 357.3 365.6 370.1 375.9 379.7 382 381.7 377.6 377.1 381.1 388.1 387.9 390.6 392.2 394.5 396.2 398.2 398.6 396.9 393.9 390.2 387.4 385.5 382.1 381.1 378.5 375.8 371.1 365.9 359.1 353.5 349.3 345.4 338.5 326.3 327.8 335.9 336.3 336.7 341.4 344.8 350.4 354.6 358.3 360.5 362.5 363.5 364.9 363.9 366.7 373.5 376.1 379.5 385.7 386.9 387.7 389.8 391.5 392.4 393.5 394.7 395.4 395.3 395.3 395.1 394.8 393.9 393.1 392 390.9 390 390 389.8 389.2 388.6 388.3 387.6 383.5 382.7 385.3 389.3 392.4 394.9 396.3 397 397 397 397.1 396.9 397.3 398.8 398.9 399.2 398.5 396.6 396.4 393.4 391.1 391.3 390.8 389.4 384 368.6 349.2 337.9 335.9 349 362.3 390.3 403.7 408.3 412.7 413.2 412.3 414.4 415.7 416.3 417.2 418.1 419.4 421.6 422.7 424.2 425.7 426.8 427.8 427.2 425.9 423 420.2 415 408.7 410 407 414.3 421 424 425.3 426 424.9 424.6 424.6 423.5 423 423 422.9 423.4 424.7 425.4 425.4 426.3 426.4 426 426.4 426.8 427.5 425.8 422.5 418.9 421.8 422.4 421.6 421.6 421.7 421.1 419.1 417.1 417.7 417.7 417.8 417 415.4 413.4 414 413.4 410 407.4 405.2 402.7 400.8 395.6 386.1 384 382.3 379.5 377.2 377 372.1 363.8 358.6 356.5 354.1 358.6 356.5
292 308.7 314.1 325.7 347 354.7 358.9 364.2 367.6 369.1 372.2 381.2 378.4 376.2 374.9 380.7 389.3 389.1 389.7 392 394.3 397.6 399 399.1 397.6 395.6 392 388.8 386 383.6 381.3 378.7 376.3 372.6 367.2 361.1 354 349.7 347.2 344.3 334.4 323.6 327.6 331.8 333 339.1 342.1 346.1 351.9 356 357.9 359.5 360.9 361.6 363.4 367.5 370.5 374.7 380.2 383.6 388.1 387.6 388.6 389.9 390.8 391.6 392.7 393.7 393.8 393.7 393.7 393 392.2 391.7 391.2 390.3 389.1 388.7 388.9 388.1 387.1 386.7 386.5 385.3 379.8 384 387.4 391.5 393 394.5 395.6 395.5 395.6 395.2 396.8 397.4 398.3 398.7 397.7 396.5 394.6 393.1 389.9 388 385.4 386.4 384 371.2 359.4 343.6 334 335.2 342.5 365.3 394.3 405.9 409.7 413.3 414.8 414.9 414.2 415 415.5 415.7 415.8 415.5 416.6 417.7 420.2 421.2 422 423.5 423.8 422.8 420.2 415.8 411.9 404.6 406.3 403.7 410.3 417.1 420.3 421.2 421.3 420.3 420.5 420.2 419.1 419.8 419.4 419.8 420.3 421.3 422 423.1 423.8 424.4 424.1 424.5 424.2 425.4 424.4 422 418.6 417.7 419 418.3 417.9 418.8 417.9 416.4 416.2 416.4 416.8 416.8 416.4 415.5 415.2 415.7 415 412.4 410.9 410.9 409.2 406.3 401.6 396.8 391.4 383.9 373.4 376.8 373.8 374.8 373.1 366.6 356.9 350.9 349.3 351.8
289.2 302.5 314 322.4 346.2 354.1 357.8 361.1 364.1 366.3 368.5 374 373.3 375.7 373.2 378.9 385.2 388.5 388.9 393 393.6 396 398.7 398.1 397.2 395.9 393.3 390.6 387.6 384.8 382.1 379 376.7 373.7 368.3 362 354.9 349 345.7 344.2 340.3 330.1 321.2 322.4 328.9 336.2 339.5 344 349.9 354 355.7 357 357.1 359.5 363.2 364.7 368.5 373.9 379.3 382.6 383.9 385.1 386.5 388.4 389.3 390.2 390.8 391.7 392.2 391.9 391.6 391.4 390.8 390.5 390.2 389.9 389.6 388.4 387.7 386.2 385 384.1 383.8 383.6 379.4 382.7 386.6 389.8 391.3 392.7 393.8 394.2 394.1 393.1 395.3 396.7 397.4 398.5 399.1 398.2 395.6 391.4 386.7 377.5 380 376.1 369.3 360.1 351.5 339.6 331.1 345.7 348.7 369.5 394 407.2 412.6 414.6 415.4 415.6 415.1 414.7 415.2 415.5 414.7 411.3 413 412.8 414.5 415.1 416.6 419.1 419.6 419.7 417.8 414.5 410.1 402.4 401.3 400.9 406.2 411.6 414.6 416.1 416 415.6 415.6 415.4 415.2 415.4 416.2 416 416.2 417.2 419.5 421.1 422.2 422.9 423 422.8 422.8 422.9 422.9 420.9 418.2 414.7 414.2 414.9 415.2 415.1 415 415.2 415.2 415.8 416.3 416.5 416.2 416 416 416.2 415.5 415 414.7 413.3 411.2 407.8 403.9 399.5 394.7 390.1 375 372.6 366.3 371.3 370.4 368.5 365.2 357 345.6 343
287.5 300.7 312 319.8 337.9 352.4 356.1 358.5 360.8 363.5 366.9 367.6 365.4 371.9 369.9 375.5 380.9 386.1 388.2 389.1 390.9 393.2 396.2 397 396.3 395.8 394.2 392.1 389.6 386.5 382.6 380.3 377 373.3 369.2 362.9 355.3 348.1 344.5 342.9 341.2 337.7 331.5 319.3 324.5 333.4 336.7 340.6 348.4 351.5 353.3 354.7 354.7 358.2 361.1 360.9 367.5 372.5 379.5 381.6 381.6 382.2 383.7 385.6 387.9 389.4 389.7 389.3 389.8 389.7 389.5 389.7 389.7 389.8 389.6 389.6 389.1 388.2 387 387.5 385.8 384.6 382.2 381.5 378 379.6 383.4 387.3 388.9 390.5 391.6 392.2 392.3 392.1 393.8 394.2 395.8 398.7 400.1 400.6 399.5 395.8 388.7 373.7 361.7 361.8 357.3 350.1 343.2 332.1 328.2 341 362.2 365.5 389.9 410.8 413.5 415.5 416.5 415.3 414.8 414.9 415.7 415.9 415.8 413.6 411.6 408.6 409.3 409.5 410.6 413.8 415.7 415.5 413.4 411.9 407.3 400 397.5 397.9 403.9 407.7 409.9 410.7 410.2 410.3 410 410.8 411.8 411.3 412.4 413.3 414.7 415.1 416.4 419.1 421 421.4 422.1 422.1 420.3 421 421.3 419.8 416.9 413.9 412.8 413 413.7 413.8 414.1 414.2 414.7 415.2 415.7 416 416.1 416.3 416.5 416.4 416.1 415.4 414 412.6 410.4 408 405.4 401.3 396.8 392.5 387.1 378.9 367.1 361.5 366.8 365.1 362.4 358.6 353 340.7
284.4 297.3 312.2 317.4 328.7 347.4 354.4 357 359.8 362.1 364.9 366.7 363.8 362.4 364.9 371.1 376.1 382.6 386.3 388.5 389.9 391.4 392.4 394.6 395.7 395.3 394.6 393.3 391 387.3 383.4 380.1 377.4 373.4 369.2 362.7 355.2 347.7 343.5 341.6 340.5 337.2 332.4 323.5 317.9 329.5 333.1 336.7 345.1 349.2 350.9 351.5 353 356 356.8 360.8 365.5 371 376.4 378.7 379.6 379.9 381.1 383.1 386.7 388.4 388.3 387.6 387.4 387.5 387.7 388.6 388.9 389.1 389.1 389.2 388.8 388.9 389.2 388.6 387.7 387 385.5 383.4 379.3 377.9 380.5 382.6 386.1 387.5 389.2 389.7 389.3 389.9 392.4 392.6 395.4 398.9 401.6 403.6 401.9 395.1 386.5 370.5 353.2 346.1 345 340.6 334.9 327.1 326.4 340.6 363.5 383.3 407.3 410.9 413.2 415 415.7 415.3 414.5 414.6 414.6 414.5 414 413.5 408 408.8 406.6 406.7 407 408.1 410 410.8 409.5 406.5 403.4 397.9 393 394.5 401.6 405.6 407 406.8 406.5 406.5 406.3 407 407.8 408.4 408.8 409.8 411.7 413.2 415.2 417.4 419.1 419.5 420.7 420.3 418.4 418.7 419.5 419.1 416 413 409.2 411.3 412.1 412.5 413.3 413.5 414.2 414.7 415.1 415.3 415.6 416 416.2 416.1 415.9 414.8 413.6 412.4 411.1 408.5 405.7 401.9 397.4 394.2 390.8 385.9 376.5 370.8 359.5 365 361.7 357.7 352.9 346.5
281.6 294.4 308.9 316.6 322.9 333 346 354.7 359.2 361.6 362.8 366.7 363.9 362.2 364.8 368.4 372.6 377.2 383.3 387.4 389.3 390.2 388.6 392 392.8 395.2 395.7 394.7 391.8 387.8 383.9 379.4 376.5 373.1 367.6 361.7 355.6 348.4 343.8 342.2 340.6 336.5 332.6 327.9 316.4 326.3 329.5 333 340.1 345.3 348.4 349 351.5 353 354.9 358.3 363.5 368.9 374 376.2 377.4 377.5 378.6 381.7 384.6 387.4 387.2 386.1 385.6 385.8 386.2 387.5 387.8 388.7 389 389 389.3 389.6 389.5 389.4 389.1 387.9 386.5 384.3 381.3 376.1 377.4 379.6 383.4 384.9 385.7 386.2 387 388.3 389.9 392.7 395.8 398.9 401 402.2 395.9 390.4 382.5 364.4 346.9 337.8 333.5 330.4 327.6 325.3 330 346.6 372.1 394.8 404.6 410.1 411.7 412.9 413.8 413.4 413 412.3 412 411.6 411.3 409.8 408.3 406.4 406.2 406.1 405.6 405.6 405.9 405.3 404.7 403.1 400.5 396 390.9 389.9 398.4 402 403.2 402.8 402.6 402.1 402.3 403 403.7 404.2 405.3 405.5 408.6 410.6 413.2 415.1 417 417 417.6 417.5 416.2 416 415.9 416 414.2 411.8 406.8 410 410.7 411.7 412.9 413.2 413.7 414.2 414.6 414.6 414.9 415.4 415.5 415.6 415 414.3 413.2 412.3 411.1 408.4 405.4 402.5 398.7 394.9 390.8 387.6 383.2 376.6 361.1 362 362.6 358.1 354.1 349.4
281.3 290 301.9 315.5 321 327.6 339.1 347 353.9 358.9 361.4 362.2 362.4 361.4 365.7 369.6 373.8 377 379.3 381.1 386.7 386.1 385 386.2 390.2 393.3 395.1 395.8 392.9 388.6 383.8 379.5 375.4 371.5 367.4 361.6 356.1 349.5 344.3 341.8 339.9 336.6 332.7 327.6 318.2 323.9 326.7 329.5 334.5 342.2 343.6 347.5 349.4 350.8 352.9 356 361.7 367.1 371.1 373.1 374.6 375.4 376.8 379.8 382.3 384.6 385.1 384.5 383.9 384 384.2 385.9 387.2 388.3 388.9 389 389.4 389.9 390.1 390.2 389.9 387.5 386.1 384.7 382.2 378.2 376 376.9 379.6 382.4 382.7 383.1 383.7 384.9 387.1 390 393.1 395.4 397.6 397.5 393.2 386.4 377.6 357 341.6 331.2 327 325.1 323.9 323.8 333.4 353.5 378.4 400 401.7 403 406.7 408.7 410.5 410.8 411 410.3 410.1 409.6 408.5 408.3 407.2 406 404.8 404.8 402.9 403.5 402.4 401 400.1 399.3 397.4 393.3 388.6 387.9 391.9 395.4 396 396.4 397 396.8 397.4 398.6 399.2 400.7 401.7 402.6 405.6 407.4 411.1 413.3 415.2 415 414.7 414.1 413.6 413.6 413.6 413.4 413.3 410.8 405.2 408.5 407.8 410.5 412.2 412.3 413.4 414 414.1 414.1 414.3 414.7 414.5 414.5 414 413.6 412.8 411.5 409.9 407.7 405.4 402.3 399.1 394.9 390.9 387.4 383.5 379.2 372 354.6 356 356.5 351.3 347.2
281.5 288.6 299.5 310.3 320.1 325.1 333.8 341.9 347.1 351.1 354.1 358.2 359.8 360.5 364.6 368 371.4 375.1 376.7 376.1 379.2 382.9 380.2 379.3 385.4 386.8 393.1 395.4 392.8 388.9 384.8 379.8 375.4 370.8 367 362.3 356.8 351.2 345.1 343.8 341 336.8 332.9 328.5 320.1 317.6 324.2 326.9 330.7 335.1 342.8 346.4 348.3 348.9 351.5 353.6 358.9 364.4 368 370.4 372 372.9 375 377.3 379.3 380.9 381.6 381.6 382 382.5 383.2 385.3 387.3 388 388.8 389.3 389.8 390.3 390.4 390.2 389.6 387 385.3 383.9 382.2 380.2 376.7 374.7 377.5 379 379.7 380.4 380.5 381.2 383.6 386.4 388.8 390.7 392.6 392.6 390.4 383.6 374.3 352.7 335.2 328 322.6 320.3 318.9 323.2 336.4 361 385.7 395.9 396.7 397.2 399.4 402 405 407.6 408 406.6 407.7 407.3 406.5 406.7 405.9 404.8 403.3 402 403.8 402.9 400.9 396.4 395.9 395.6 394.3 391.7 386.8 385.6 389.3 390.9 391 390.8 391.1 391.4 392.3 393.5 394.5 395.8 396.5 398.3 401.4 405.8 409.5 411.8 413.5 414.1 411.4 410.6 410.6 411 411.6 411.1 409.9 408.4 404.6 405.2 408.2 409 411.1 412.4 413.2 414.1 414.1 414.1 413.6 413.1 412.8 411.9 413.1 412.8 412.4 410.5 408.4 406.2 404.2 401.8 398.6 395.5 391.6 387.6 384.5 380.8 375.9 369.9 354.9 352 352.1 351.8
284.3 287.4 296.9 307.4 318.8 323.8 330.1 338.5 344.4 346.3 350.3 354.5 359.1 363.1 366.1 367.6 369 371.8 372.6 371.2 372.9 376.3 377.4 377.6 377.8 382.9 386.4 391.1 392.3 388.5 384.7 379.7 375.6 371.1 367.4 362.9 358.2 352.2 345.8 344 342.8 339.4 334.9 328.8 324.3 308.5 321.5 324.7 327.6 330.2 337.7 341.9 344.5 346.5 348.2 350.8 355.6 361.2 365.3 367.7 369.7 371.3 372.9 375 376.5 378 378.6 378.7 379 381.1 384.1 386 386.4 387.7 388.6 389.6 390 390.2 390.1 389.5 388.3 386 384.6 383.3 381.8 379.7 377.1 373.9 374.5 376.2 377.3 378.1 378.2 377.4 379.9 382.6 384.4 385.9 387.7 388.8 388.1 381.2 371.5 349.5 335.1 326.5 318.9 316.8 320.3 324.6 342 368 389.3 391.7 392.7 392.3 392.7 395.8 399.2 402 404.6 403.8 405 404.7 404.1 404.1 403.2 402.4 401.1 399.4 396.4 400 397.2 394.5 391.6 390.9 389.4 387.6 380.9 383.4 385.2 386.4 386.2 385.8 385.7 384.8 387.4 387.9 389.2 390.9 390.6 392.1 397.7 405.4 409.5 410.1 411.5 412.3 410.5 407.5 406.8 407.5 408.7 408.7 409.6 408 404.1 402.3 405.6 407.6 410.6 412.6 413.4 414.2 414.3 414.4 413.9 413.2 413.4 412.8 410.7 411.6 410.5 408.8 406.4 404.6 402.4 400.7 398.3 395.3 392.2 388.8 384.8 380.5 377.1 368.9 362.8 362.7 360.2 349.6
285 287.6 292.9 305.9 319.3 324 327.5 335.3 344.5 347.1 352.6 357.9 365.2 369.9 369.8 371.7 374.5 374 372.9 371.8 371.1 372 373 374.8 374.8 380.9 381.6 381.3 388.4 386.8 383.2 379.2 375.5 371.6 367.9 364 359.3 352.7 345 342.4 342.3 341.1 336 330 324.6 312.5 319.1 321.6 324.4 325.8 330.5 341.1 342 344.2 346 347.8 352.3 357.8 361.3 364.8 367.4 369.1 370.9 372.5 374 374.9 375.4 375.8 377.7 381.8 386.5 388.6 389.1 388.9 389 389.8 389.9 389.9 389.5 388.5 386.4 385.1 383.6 382.4 381.1 379 376.6 373.8 372.3 373.9 374.9 375.2 375.7 375.7 373.4 379.1 380.6 381.4 382.6 383.6 383.2 378.5 367.5 348.4 334 323.5 312.6 319.2 322.2 328.3 347.2 372.7 386.3 387.5 388 388.2 386.8 387.9 391.4 396.6 399.9 399.9 401.5 401.1 400.5 401.4 400.5 399.1 397.2 395.1 394.3 392.9 392.2 389.4 387.1 385 383.6 382.6 377.1 378.2 380.6 381.4 381.1 380.3 379.2 380.1 381.4 382.5 383.6 384.9 385.1 391.1 400.5 406.3 408.3 408.1 408.2 408.5 406.8 404 402 403.5 403.8 406.4 406.9 406.7 404.8 397.6 403 406.3 410 412.5 413.6 414.5 415 414.4 413.8 413.3 413.5 412.9 411.9 409.5 405.4 405.2 401.4 398.6 395 396.4 394.2 392.9 389.7 386.3 381.2 378.4 374.9 375.4 374.1 371.9 368.4 364.8
284.3 285.5 290.4 301.4 313.7 323.9 327.1 332.3 341.5 347.3 350.2 354.4 369.2 371.2 370 372.7 374.4 374.7 376.7 374.7 370.4 369.4 370.9 371.4 371.2 377.5 378.3 373.1 375.9 381.8 380.1 378.1 375.7 372.2 368.4 364.5 359.8 353.2 344 341.1 341 340.6 337.7 332 326.2 316.1 315 316.3 318.7 322.9 326 334.9 339.4 341.9 343.6 345.1 348.9 354.9 358.4 361.7 364.5 366.9 368.6 370.3 371.9 372.4 372.7 373.6 376.6 382 388.5 391.6 392.2 391.3 390 389.8 389.8 388.9 388 386.6 385.2 383.9 382.4 381.4 379.9 377.8 375.5 373.6 370.7 371.2 372.2 372.6 373.3 373.7 372.2 371.5 374.9 376.9 377.5 378 376.8 371.7 362.8 346.8 331.8 321.8 313 316.2 321.1 329 350.9 373.9 381.5 383 382.9 382.3 381.9 383.2 384.9 390.4 395.1 395.4 397.7 398.2 396.2 396.6 396.8 395.6 393.3 391 388.5 385.7 385.8 384 382.6 380 378.7 378.4 375.4 372.7 375.6 375.7 375.7 374.6 374.2 374.8 375.8 376.9 378.3 379.1 383.1 394.3 401.3 403.7 405.6 406.2 405.3 404 403 400.5 396.4 397.8 400.6 402.5 402.1 401.5 400.5 394.8 400.5 403.9 408.8 412.3 413.6 414.6 414.6 414.2 413.7 413.2 412.7 412.5 412 411.2 409.6 407.7 405.7 404.7 401.9 399.2 396.2 393.6 391.5 386.1 385.3 385.1 383.9 382 380.1 377.5 374.8 371.8
283 283.9 288 300 310.1 322.9 325.1 328.5 335.6 344 348.4 351.6 362.3 366.3 366.9 370.6 370.8 371.6 374.9 374.8 370.6 367.8 368.1 369 367 369.6 373.5 370 366.4 369.6 374.8 374.7 374.8 372 368.6 365.3 359.7 353.4 346.4 340.6 340 339.7 338.3 334.1 328.1 314.9 302.8 312 310 319.1 322.1 327.5 336.2 339.7 341.7 343.7 346.2 351 355.4 358.8 362 364.7 366.4 368 369.7 370 370.8 371.6 374.4 381.1 389.2 391.9 393.9 392.6 390.8 389.5 388.8 387.8 386.6 385 383.4 382.3 381 380.4 378.6 376.5 374.9 373.5 370.6 366.3 369.3 369.7 370.9 370.5 369.4 369.5 370.4 371.9 371.4 372.1 370.8 366 359.3 347.2 329.6 320.3 311.3 313.8 318.3 329.8 353.1 373.9 377.5 378.4 378.6 378 377.7 378.3 380.7 384.3 388.9 390.3 393.3 394.9 394 393.2 392.9 392.1 389.7 387.3 384.9 382.4 380.6 379.6 377.4 375.8 373.8 373.9 372.6 368.7 370.3 370.6 369.8 369.2 369.3 370 370.4 370.4 372.2 375.9 388 395 398.7 399.9 401.3 402.5 402.4 400.9 398.5 396.4 391.3 393.6 397.1 397.6 397.2 397.2 395.9 394.6 401.5 405.7 409.1 411.6 413.7 414.5 414.6 414 413.2 412.5 411.8 411.5 411.3 411.5 410.8 407.6 407.2 405.2 402.9 400.6 398.6 396.6 391.7 391.8 392 390.4 388.5 386.3 383.6 381.2 378.6 375.3
283.9 285.4 286.9 298.7 310 321.8 323.8 325.9 331 338 346 348.1 350.2 356 361.7 362.8 363.9 369 372.2 372.3 370.8 366.5 362.9 363.3 364.4 363.8 363.1 365.3 363.4 362.3 366.4 370.9 370.5 368.9 365.6 362.9 358.1 352.9 348.1 341.5 338.5 337.7 337.9 335.2 330.2 319.5 298.7 297.2 305.7 314.6 318.7 321.3 331.5 336.1 339.3 341.4 344.4 348.8 352.6 355.9 359.3 362 364.6 366.1 367.6 367.8 367.8 369.5 372.6 378.4 385 388.6 393.4 392 389.2 387.2 387.1 386.7 385.5 383.8 382.3 380.7 379.2 378.9 377.1 375.6 374.3 372.7 371.2 368.5 355.8 368.3 370.6 369.5 367.7 367.6 367.1 366.3 366.4 367.2 365.3 361.1 355.2 345.7 329.2 318.1 308.3 310 316.4 330.7 354.9 371.9 373.2 373.5 373.8 373.9 374 374.5 376.4 378.8 384.2 386.2 388.7 389.5 390.1 389.1 388.7 388.1 384.5 382.2 379.9 377.5 375.6 374.5 373.5 372.4 369.8 369.4 368.6 363.8 364.9 365.5 365.1 364.3 363.9 364.2 364.6 363.5 363.9 380.4 389.5 393.8 394.9 395.8 397.1 398 398.6 396.4 393.7 391.3 386.1 390.4 391.6 390.4 389.4 390 393.2 398.2 402.1 405.7 408.7 411.5 413.6 414 414 413.4 412.6 412.1 411.4 410.7 410.5 410.7 410.6 409.1 406.5 403.7 402.7 401.4 399.8 397.1 396.2 396.8 395.8 394.2 392.2 389.2 385.9 382.6 379.6 376.5
284.4 287.2 286.5 297.6 306.4 321.2 324.4 324.5 327 332.7 337.4 343.7 347.5 345.5 348.4 354.4 356.6 365.6 370.7 369.5 367.7 365 360.2 356.3 355 357.3 360.2 358.2 359.1 359.4 360 360.6 362.7 364.5 363.7 360.4 357.2 353.9 349.2 343 337.9 335.6 335.6 335.1 331.6 323.6 314.3 298.4 300.7 308.6 314.6 318.5 325.4 333.8 337.1 339.5 342.4 346.3 350.5 353.6 356.6 359.9 362.5 364.3 365.4 364.9 365.9 367.6 370.2 374.8 379.7 383.3 385.2 384.6 383.6 382.5 382.9 383.5 384.2 382.2 380.9 379.7 378.5 377 375.6 374.6 373.1 371.9 370.4 368 365.6 358.4 367.1 368 366.9 362.5 363.1 361.6 361.2 361.7 360.1 355.8 350.4 343 326.1 315.3 308.2 306.1 314.5 333 354.9 367.6 368.5 368.9 369.6 369.9 369.5 370.6 373.4 375.4 377.1 380.7 382.9 383.4 383.7 381.5 380.7 378.8 377.4 376.7 375.3 372.8 370.5 370.6 369.9 369.6 369 365.9 364.7 362.4 360.4 360.8 360.8 360.3 359.5 358.7 359 357.9 372.3 382 386.2 389.6 391.1 391.9 392.5 393.3 393.4 391.3 388.3 385.2 383.2 384.9 386.7 383.9 387.5 391.4 395.4 398.7 403.1 406 409.5 411.4 412.6 413.5 413.3 412.9 412.3 411.7 411 410.5 410.3 409.5 409.3 407.2 405.2 403.3 401.3 401.4 401.2 401.5 401.2 399.4 397.6 395.6 393.3 391 388 383.9 380.9 377.9
284.9 287.3 286.7 298 303.1 322.8 326.9 323.7 323.9 329.2 333.9 339.4 343.8 340.4 338.9 348.5 355.2 361.4 367.4 367.2 365.3 363.3 357.9 351.4 350.1 355.2 355.6 353 344.5 352.6 356.1 354.5 355.8 357.5 359.8 357.2 355.9 354 351.6 346.2 338.3 334.1 333.3 333.6 330.9 324.9 314.2 295.8 294.5 300.9 308.4 315.6 321.8 330.9 334.9 337.8 340.4 343.6 347.9 351.6 354.5 357.9 360.2 362.6 363.7 357.6 364.5 365.9 367.9 371.3 374.8 377 378.5 377.6 375.7 375.2 375.5 377.8 379.1 378.9 379.3 378.7 377.9 376.6 375.3 373.7 372.4 371.2 369.7 368.1 361.4 352.6 358.3 362.7 361.3 363.2 360.4 360.1 356.2 357.2 355.8 351 345.6 340 327 312.1 305.6 304 316.4 334.6 356.4 363.5 364.2 364.9 365.6 365.5 364.9 367.7 370.2 371.8 372.7 373.9 378.4 378.2 378.5 376.4 375.8 373.8 372.6 372 371.3 369.5 367.4 366.9 366.1 366.4 365.4 362.6 364.2 364.5 353.5 354 355.8 356.1 354.6 355.2 354.4 360.7 372.9 379.9 383.6 385.2 387.5 388 388.3 388.3 387.7 384.2 381.2 376.8 376 380.8 376.9 384 389.3 392 395.5 400 404.3 407.5 407 408.2 409 411 411.6 412.2 411.9 411.3 410.5 409.5 408.9 407.9 405.9 405 403.2 402 402.3 402.8 403.4 403.5 401.7 400.6 398.7 396 393.8 391.5 388.9 385.8 382.5 380.2
285.6 287.3 287.3 296.5 301.6 320.7 326.8 325.3 322.3 326.5 332.6 342.1 341.9 337.8 337.6 340.1 350.8 357.3 361.7 363.1 360.8 359.1 356.6 350.6 350 351.7 351.8 352.2 352.3 355.3 352.7 350 347.4 350.6 352.4 353.8 352.8 351.8 349.4 345.9 339.7 332.1 331.8 331.2 329.8 324.4 314.8 299.2 290.1 295.9 301.2 311.4 319.1 325.7 332.9 336.3 338.9 341.6 345.6 349.7 353 356.1 358.6 360.3 358.6 362.4 363.6 364.2 365.7 367.7 370.3 372.5 372.6 371.4 369.4 369.2 369.8 371.4 373.9 375.1 377.4 377.8 377.8 376.2 374.9 373.1 371.8 370.7 369.5 367.8 365.2 342.1 333 342.9 349.4 351.2 355.1 347.5 350.5 349.7 347.6 345.4 342.5 337.2 326.8 315.1 304.3 302.4 315.7 334.6 357.4 359.2 360.7 361.2 361.2 361.6 359.6 364.7 367.2 368.8 368.8 370.4 373.2 374.3 374.6 373.3 371.6 370.6 368.7 367.4 367.6 366.2 364.7 363.3 362.6 362.6 360.5 362.8 369.3 365.3 359 349.1 349.6 350.6 350.7 349.5 350.6 361.1 370.1 377 380.6 382.2 383.8 384.2 384 381.9 380.8 377.8 368.3 365.4 376.1 380.1 383.6 387.3 390.9 393.5 398.1 401.9 405 407.2 406.4 404.6 405.6 407.6 409.7 410.7 411.6 411.1 411 409.6 408.1 407.6 406.2 404.1 399.6 399.9 401.5 402.3 402.2 401.5 400.8 400.1 398.6 395.8 393.9 392 389.5 386.7 384.1 381.8
285.8 285.8 286.9 294.7 298.4 317.8 325.7 322.6 318.8 319.9 323.8 336.6 338.3 335.7 337.7 338.4 346.8 353 356.7 359.6 358.6 356.8 354 348.7 346.2 346.6 349.2 350.5 350.3 349.2 348.2 350.6 347.1 341.9 344 346.2 349.1 347.8 345.2 344.7 339.6 331.3 329.3 327.1 325.3 321.4 313.7 303.3 288.4 290.6 296.4 304.9 315.1 321.9 330.9 335 337.4 340 343.3 347.2 350.8 354 356.5 353.5 354.6 362 362.5 363.1 363.6 365.5 367.5 368.4 368 367.3 367.2 367.4 368.1 369 370.7 373.6 375.8 378.2 378.1 376.1 374.4 372.9 371.5 370.5 369.4 367.9 366.3 361.9 353.5 336.4 320.1 317.5 337.2 341.5 336.3 339.1 339.3 338.4 337 335.4 324.9 312 303.7 298.9 315.3 336.2 354.7 357.6 357.4 357.8 358 358.6 358.9 362.5 364.7 366.8 367.8 370.2 371.2 370.6 370 369.3 368.4 366.6 366 364.2 363.7 362.8 361.8 359.9 359.2 359 356.8 362.8 364.1 360.8 354.8 352.4 344.2 344.9 346.1 345.1 351.2 359.5 367.3 373.7 376.7 377.9 378.6 379.4 379.2 377.3 373.5 362.3 367.6 374.1 378.4 382.5 385.4 388.4 391.6 396.8 399.9 403.2 404.2 404.2 403.5 402.7 402.7 405.3 407.8 409.2 410.3 410.7 410.7 410.1 408.3 407.1 405.8 403.5 400.9 399.1 397.9 399 398.8 398 397.4 396.7 396.6 394.5 392.4 390.5 388.6 386.7 384.2 382.2
285.3 284.5 286.8 294.9 299.6 315.5 321.6 318.5 316.3 315 318.4 331.1 331.6 333.5 337.2 338 345.5 349.8 352 353.6 354.6 352.1 350.4 345.8 343.6 344.3 346.2 347.4 346.3 345 343.9 344.4 341 339.6 336.5 338 341.6 343.2 342.8 338.9 334.8 330.1 326.7 321.8 319 314.8 311.5 304.1 290 287.2 291.8 298.3 310.2 319.1 326.4 333.6 335.8 338.6 341.3 344.8 348.4 351.1 345.7 352.8 358.8 360.2 361.3 361.6 361.8 363.3 364.7 365.6 365.5 366 366 365.9 367.1 368.1 369.2 372.7 377.5 380.1 379.2 376.9 374.4 372.9 371.3 370.3 369.3 367.8 366.2 366.2 362.8 354.2 332.5 311.7 312.3 324.4 321.3 323.3 327.1 329.7 335.3 328.4 321.4 311.5 301.8 297.5 315.5 336.1 351.7 354.6 354.7 355.2 354.8 355.5 356.6 359.4 363.6 365.9 367.5 370.3 370.6 369.3 367.7 366.5 366.7 365.2 363.9 362.1 360.9 359.9 359 356.9 355.6 354.5 356.9 358.2 358.5 356 354.5 351.4 348.2 338.5 338.7 342.6 348.6 354.9 363.8 369.6 372.1 371.6 373.4 374.1 373.8 371.2 366.2 358.8 368.7 374.7 379.5 382.3 385.3 389 393.6 399.4 399.8 400.7 401.2 400.8 400.1 400 401.1 403 405.2 406.7 409 409.2 409.1 408.4 408.1 407.2 403.9 402.6 400.7 399.5 397.4 394.8 395.7 394.9 393.6 392.3 391.9 392 390.2 388 386.7 385.3 383.6 382.1
283.2 282.5 284.7 293.7 298.2 313.5 319 315.9 312.1 310.4 313.6 326.4 325 328.3 333.5 335.6 344.6 347.7 352.8 349.5 349.6 348.1 347.7 346 342.9 341 344 344.4 343.5 342.6 341.1 339.9 342.1 335.8 332.5 331.1 333.8 336.7 337 334.7 330.4 328.5 323.9 319.7 316.5 313.1 307.5 300.8 292 283.5 289.9 293.6 304.4 314 322.7 331.2 334 337.2 339.5 342.6 345.2 341 352.8 355.2 357.4 358.5 359.7 360.3 360.5 361.7 362.7 363.8 364.4 364.7 364.8 365 366.1 367.5 369.4 374.4 379.2 381.6 379.7 377.1 374.5 372.8 371.3 370.1 369.7 368.4 367.4 366.4 364.8 359.7 351.4 324.4 307.1 303.8 307.5 309.9 315.6 324.4 330.9 323.4 315 309.2 299.7 295.3 314.3 334.8 348.7 351.9 352.9 352.7 352.3 352.6 354.9 359.4 362.9 365 366.2 370 370.2 368.9 366.5 364.2 363.6 363.7 362.3 360.5 358.7 357.8 356.4 354 351.5 351.2 352.7 353.9 354.4 353.9 353.3 349 346.1 342.2 336.5 338.3 344.6 350 359.8 365.2 366.8 366.2 366.8 367.3 367.4 363.9 353.7 364.2 369.9 375.8 378.7 382.3 386.3 391.5 395.8 396.3 396.5 396.8 396.9 397.6 397.6 396.9 398.7 400.4 403 405.5 406.9 407.2 407.5 407 406.3 405.4 403.7 401.5 400 399 397.5 394.5 391.9 390.3 389.5 389.1 388.5 387.3 386.9 386.5 385 383.7 382.6 381
279.3 279.5 282.5 290.3 296.5 313.4 317.6 312.1 309.1 308 309.5 321.9 320.5 325.5 328.6 332 340.2 345.5 350.9 349.4 349.4 348.7 345.8 344.4 341.5 339.7 340.1 342.7 341.2 340.4 338.8 337.4 334 336.1 331.4 328.7 329.2 331.5 332.5 331.1 328.4 323.8 322.5 319.9 316.3 312.6 308.2 307.4 296.3 283.9 286.6 290.8 297.2 310.6 318.5 329.5 333.1 336.1 338.8 335.1 337.2 347.3 350.7 353.3 355.8 357.4 358.4 358.9 359.6 360.3 361.2 362.4 363.1 363.5 363.6 364.6 365.9 367.3 370.4 375.6 380.8 381.4 380 377.5 375.3 372.9 371.3 370.8 370.5 369.1 368.1 366.1 364.8 362.1 354.2 343.1 317.8 303.9 300.8 299.8 302.3 317.9 316.9 314 309.5 305.1 295.5 301.4 314.4 336.5 347 349.7 350.8 350.1 349.8 351.4 353.9 359.1 361.9 363.7 365.4 367.4 368 367.4 365.3 362.7 361.2 361.2 360.7 359.3 357.5 356.3 353.9 351.3 349.5 348.3 348.8 348.6 350.2 349.7 348.5 345.8 343.4 340.2 336.8 333 339.9 344.9 354.8 360.1 361.8 361.9 360.8 360.5 359.5 354.5 358.6 365.4 371 374.4 378.4 383.5 389 392.6 393.7 393 393.7 394.1 394.2 395.5 396.1 396.8 397.4 398.4 400.3 402.1 404.5 405 405.1 405.8 405.1 404.2 402.3 401.4 399.4 398.4 396.6 394.5 391.7 389.5 387.1 385.5 384.9 384.2 384 384.5 383.5 381.8 380.3 379.4
275.2 276.1 281 288.7 294.1 309.4 314 308.9 307 308.6 304.2 317.6 317.2 322.7 325.4 328.8 335.2 343.3 349.3 351 354.7 352.6 346.5 342.1 340 338.9 338.5 340 340 338.1 337 336 333.1 329.5 328.7 327.7 327.5 328.2 329.5 329.6 326.8 323.9 320.9 316.7 314.7 313 312.9 312.7 303.6 293.4 280.2 290.8 292.7 307.2 313.1 326.2 331.2 332.9 331.8 339.7 343.3 346.9 349.6 352.2 354.4 355.9 357.2 357.8 358.5 359.2 360 361.1 362 362.7 362.8 364.2 365.6 368.1 371.6 376.4 381.1 381.7 380.1 378.3 375.8 373.3 372.1 371.4 370.8 369.7 368.4 365.4 364.5 361.9 357.3 346 321.6 312 298 295.5 297.1 302.1 304.9 304.3 304.4 301.2 289 300.3 313.8 333.3 344 348.1 348.4 348.1 347.7 349.1 352.3 356.9 359.4 361.3 363.3 364.9 365 364.9 363.1 360.8 359.3 359.4 359.1 357.8 355.7 353.5 350.7 348.5 346.2 345.9 346.6 346.5 345.7 345.2 343.8 342.5 340.3 338.1 334.9 326.8 335.8 339.4 349.1 354.2 356 356 355.7 354.1 351.6 345.3 357.4 364.1 369.8 373.1 378.2 385.3 390.4 391.3 391.6 390.5 389.8 389.5 391.3 392.6 392.9 394.3 394.5 396.1 397 400.4 402.1 403.3 403.8 404.1 402.9 402.4 402.1 400.4 398.5 398.2 396.9 393.9 391.5 389.8 387.9 385.5 383.2 381.5 380.2 379.7 381.1 379.1 378.1 377
271.8 273.4 282.4 288.2 291.4 303.5 310 306.7 305.4 306.8 301.4 311.9 315.2 323 323.5 325.7 332.1 339.9 346.9 351.3 358.5 356 351.6 345.5 339.9 338.8 339.3 338.5 338 336.3 335.7 334 331.8 328.4 327.1 326.3 326.4 326.9 326.9 326.7 328 325.2 317.3 315.7 314 312.8 311.7 309.4 307.3 296.7 282.6 282.2 288.4 304.3 311.8 320.8 325.7 332.3 336 339.3 342.5 345.8 348.5 351.2 353 354.6 355.9 356.6 357.4 358.2 358.9 359.9 361 361.7 362.5 363.9 365.4 368.6 372.2 376.2 380.2 381.3 380.4 379.1 375.9 374.1 372.7 371.8 371.2 370.5 369.2 366.6 362.4 359.4 353.6 345.3 325.5 314.4 303.8 294.1 291.7 294.6 297.2 298.1 296.9 295.9 288.3 299.7 310.9 329.1 338 345.4 346.2 346.2 344.4 346.3 349.4 353.9 356.5 360 360.7 361.8 361.9 361.6 360.1 359.3 358 357.4 357 355.7 353.6 350.9 347.7 345.4 344.1 342.2 343.6 344.5 343.6 343 341.5 340 338.2 336.5 333.9 326.6 332.1 334.8 343.2 347.9 349.7 349.5 349 347.2 344.3 352.9 358.6 364.4 368.3 372.7 380.1 386.5 389 388.9 389.1 389.6 387.9 384.7 386.8 387.8 389.6 392.3 392.7 393.8 393.2 398.3 399.9 401.5 402.7 402.8 401.7 400.4 399.9 398.5 397.1 396.7 395.4 392.3 390.4 388.7 386.9 385.7 384.1 382.8 383 382.5 377.2 375.8 374.9 374.5
268.9 277.3 280.5 286.2 289.8 299.6 302.6 303.9 302.4 304.1 300.2 309.6 311 321.3 320.7 321.7 329.9 340.1 345.4 350.8 357.4 356.6 353.1 349.1 344.3 339.8 338.3 337.3 336.2 335.7 333.3 331.9 329.4 327.4 326.2 325.4 325.5 325.9 326 325.7 327.3 325.5 317.4 314.7 313.6 311.6 309.5 308 306 295.3 284.3 282.5 286.5 301.3 306.4 316 327.8 332.1 334.8 338.1 341.3 344.7 347.4 349.7 351.5 353.2 354.4 355.3 356.3 357.1 357.7 358.7 359.8 360.7 362.2 363.7 365.7 368.7 372.3 375.6 378.5 380.6 380.5 379.9 377 374.9 373.4 372.6 372.3 371.8 370.2 365.8 360.6 355 350.4 345.3 329.7 318.7 305.6 294.8 291 286.8 293.2 292.4 291.3 292.3 287.9 297.2 307 323.4 333.1 342.2 343.7 344.1 343.4 343.9 346.9 351.1 354.9 358.3 358.4 359.4 359.2 358.3 357.8 357.8 356.3 355.6 355.5 354 351.1 348 344 341.7 340.3 338.7 341.4 342 341.7 341 339.8 338.4 337.1 335 331.2 324.8 328.4 332.5 337 340.9 342.4 342.7 341.7 338 347.1 351.6 357 363.1 366.6 370.9 377.8 385.5 386.7 386.7 386.8 387.1 387.5 382.9 382.1 384.2 387.2 389.9 390.1 391.2 390.7 394.4 397.2 398.8 401.2 401.2 400.3 398.5 397.8 396.9 396.2 395.5 392.6 390.4 389.8 387.3 385.2 385 383.7 383.3 383.6 381.9 380.1 376.2 373.1 371.9
266.5 274.2 277 284.4 285.6 297 298.8 298.7 299.3 300.3 297.6 306.1 309 316.4 317.4 318.5 329.6 340.2 343.7 348.3 354.6 355.4 353 349.6 346 341.6 338.8 337.9 336.2 334.1 331.5 330.1 328.7 327.3 326.3 325.4 324.6 324.9 324.7 324.7 323.8 319.8 317.3 314 311.7 310.2 308.1 305.6 303.2 300.3 293.9 277.7 280.7 293.5 305.3 312.4 322.4 330.9 333.6 336.5 340.5 343.6 346.5 348.3 350.2 352 353.3 354.4 355.3 355.9 355.7 357.1 358.7 360.5 362.2 363.8 366.4 368.7 371.6 374.5 377.3 379.2 381.1 380.8 378.8 374.9 374.2 373.6 373.3 372.6 370.8 363.9 358.5 351.1 345.1 339.7 327.3 319.6 308.5 296.1 290.2 286.2 286.2 288.7 286.2 286.2 286.2 288.9 301.1 315.6 327.5 339.1 341.2 342.1 341.3 341.7 343.7 349.4 353.6 356.2 356.4 356.9 357 355.7 355.9 355.7 354.7 353.6 353.5 353 349.6 344.1 340.1 338.2 335.8 331.8 337.4 338.9 339.7 339.4 339.1 338.1 336.5 333.1 326.9 320 324.9 328.6 331.8 333.8 335.3 332.8 334.8 341.7 345.4 350.6 356.7 361 363.4 366.6 372.8 377.8 381.5 382.4 382.9 383.4 384.6 383.9 380.5 380.6 382.6 386.5 386.6 388.9 389.7 391.1 393.9 395.6 397.3 398.4 398.7 397.5 397.3 397.1 395.7 394.8 393.9 391.8 389.3 386.5 385.8 384.7 384 383 381.8 380 378.3 377.9 374.7 373.4
264.3 271.2 272.8 282.3 283.7 292.6 296.5 295.7 295.6 298.2 294.9 300.1 306.7 312.9 313.4 316.1 328.2 337.5 341.7 347.3 351.2 352.1 350.9 347.7 344.4 340 337 337.1 335.6 333.6 331.4 330.1 329 327.3 326.5 325.7 324.7 323.8 322.8 321.2 319.4 315.8 313.1 309.5 305.6 303.9 306.2 304.1 301.9 299.7 296 284.5 274.3 286.1 299.1 308.3 317.4 328.5 332.7 335.9 338.7 341.8 344.9 347.1 349.1 351 352.2 353 353.9 354 355 356.4 358 359.9 361.8 363.8 365.9 368.4 371.4 373.9 375.7 377.2 378.8 379.9 377 374.7 373.7 374.4 374 373.1 370.4 365 356.3 348.3 341.6 337.2 331.5 318.2 312 301.4 291.6 286.2 286.2 286.2 286.2 286.2 286.2 286.2 295.7 307.9 322.3 332.5 338.8 339.8 339.2 339.8 342.3 347.3 351 353.8 354.3 354.7 354.7 353.7 353.9 354.1 353 351.5 351 350.5 347.2 341.2 336.4 333.5 331.3 330 331.3 335.7 337.1 337 337.5 337.3 335.2 328.5 322.9 317.3 321.6 324.9 327.6 328.8 328.2 332.5 336.5 339.7 345 350.9 355.9 358 360 362.1 365.8 369.3 372.9 375.8 376.1 378 380.3 381.9 377.7 377.8 380.5 383 384.8 386.8 388.5 389.7 390.9 393.2 394.9 395.3 395.3 395.9 396.2 396.4 395 393.6 392.8 390.7 389.4 388 385.6 384.8 383.3 380.2 379.3 378.2 376.6 375.6 373.5 372.8
261.2 268.8 270.7 280.5 280.9 291.2 294.8 294.6 294.2 295.9 292.2 296.8 304.9 309.4 308.7 315.9 328.1 334.6 339.4 345.8 347.2 348 347.1 344.9 341.8 338.2 335.8 336.5 334.8 332.8 331.2 330 329.3 328 326.8 326.1 325.9 326 324.8 324.6 323.6 321.9 318.8 313.5 308.8 302.3 301.8 302 300.5 298.4 294.4 289 271.9 281.4 294.2 303.5 313.5 322.3 323.2 332.1 337.1 340.2 343.2 345.8 347.9 349.8 350.6 351.7 350.9 352.7 354.8 355.8 357.1 359 360.9 362.9 365.1 367.9 370.8 372.5 374.2 375 376.7 377.8 378.4 374.4 373.3 374 374.9 373.4 370.7 364.2 355.5 346.4 339.6 335.5 330.4 324.3 312.9 305.6 296.6 290.5 286.2 286.2 286.2 286.2 286.2 286.2 287.5 301.3 315 327.3 335.3 337.3 337.3 337.6 339.2 344.6 348.3 351.4 351.7 351.9 351.9 351.7 352 352.3 350.5 348.9 347.4 347.3 343.9 337.7 332.1 329.3 327.7 325.9 324.8 328.5 330.7 332.7 334.6 335.4 333.8 325.5 319.1 312.6 317.2 321.5 323.3 325.6 329.7 331.4 333.8 339.3 345.2 350.4 353.8 355.5 356.7 357.6 359.7 362.3 366 369 370.2 373.7 376.4 377.7 376.5 375.1 376.5 377.5 381.2 384.1 385.8 388.3 389.6 390.7 393.4 393.5 393.7 394.2 394.7 394.8 394.2 393.5 392.6 392.1 391 387.9 386.2 385 383.2 383.5 380.4 377.8 376.1 373.9 372.4 371.6
257.8 264.3 272 278.6 278.7 287.1 292.1 292.8 290.3 293.8 289.1 291.2 302.4 305.4 305.9 315.4 324.7 330.7 337.8 343.3 343.8 343.4 342.6 341.6 338.6 335.8 334.7 335.6 335.4 332.9 331.5 330.5 329.6 328.7 328.1 327.4 327.6 327.6 326.5 325.8 324.8 323.6 320.6 316.1 312.1 304.8 297.4 298.3 298.2 296.2 293.2 288.2 272 275.7 289.5 298.5 309.7 303.6 305.8 313.4 321.9 331.7 341.3 344.9 346.5 347.9 344.9 346.8 351.6 353 354.2 355.3 356.3 358 359.7 361.7 364 366.6 369.4 371 372.4 373.1 374.3 375.5 375.9 374 372.8 373.4 375.3 374 371 365 356.4 346.1 338.8 334.3 329.8 324.3 317.4 307.9 301.3 293.6 287.3 286.2 286.2 286.2 286.2 286.2 286.2 295 308 317.2 331.1 334.3 334.7 335.5 337 339.7 347.7 349.1 349.4 348.8 348.1 348.5 349 349.2 347.2 345.3 344 343.2 339.4 333.9 328.1 324.8 324 320.7 319.5 322.9 324.7 326.1 328.4 330.3 329.5 323.9 318.2 313.6 314.2 314.7 318.9 324.4 327.2 329 333.1 339.3 344.8 349 351.9 353.1 353.9 354.9 355.9 357.5 358.9 362.2 363.2 368.1 372 372.7 372.2 372.6 373.5 374.8 377.4 380.1 383.1 386.2 388.1 389.1 390.5 392 392.3 392.7 392.7 393 393.3 392.7 392.1 391.7 391.8 390.4 386.9 385.2 384.6 385.1 381.5 379 377.4 374.2 372.5 370.8
252.8 261.7 271.9 276.9 275.7 285.5 289.6 290.5 288.2 290.1 286.6 288.5 296.9 302.6 304.9 313.3 320.1 326.9 335.7 340.4 340.1 338.8 338.3 337.7 335.3 334 333 333.9 335.6 334.5 332.2 331.2 330.5 329.6 329.8 329.8 329.6 329.4 328.3 326.9 325.7 324.9 321.9 316.7 313.5 307.8 300.6 294 292.3 293.1 291.2 287.4 271.4 274.8 287.5 293.7 286.7 288.5 306.3 324.2 340.2 338.8 334.3 341.6 344.8 343.3 347.5 347.2 349.2 351.8 353.3 354.4 355.7 356.9 358.6 360.5 363 365.6 368 369.7 370.9 371.7 372.4 373.1 373.1 372.8 372 371.3 373.1 373.5 370.3 364.9 356.6 347.1 338.4 332.9 328 322.8 318.4 312 303.2 296.3 289.7 286.2 286.2 286.2 286.2 286.2 286.2 286.2 298.9 310.6 321.8 329.1 332.2 333.4 334.9 337.6 344.2 346 345.2 344.9 343.4 344 344.9 345 343.1 341.2 340.3 339.7 334.7 329.5 324.8 320.4 318 315.2 315 316.3 317.5 318.3 320.4 322 322.2 319.7 317.6 309.1 310.2 314.3 319.1 322.1 324.6 326.7 331.7 337 342.7 346.5 349.3 351 351.7 352.4 353.2 354.3 355.5 356.9 360.5 364.8 368.4 369.6 368.9 366.8 369.6 371.5 374.2 377.5 381 384.1 386.6 388.1 388.9 389.8 391.1 391.7 392 392.2 392.4 392.5 392.3 391.3 391.1 390.4 388.1 385.1 383.1 381.1 379.8 377.4 376 374.3 372.7 371.4
250.9 260.2 267.5 275 273.3 281.9 287 286.5 285.8 286.1 284.7 284.8 292.6 299.6 304.9 312 317.4 322.6 333.4 337.3 337.3 335.5 334.2 334.2 333.3 331.6 331.8 333.1 334.1 333.8 333.5 332.7 332.3 331.1 330.8 331.1 331.4 330.9 330.1 328.7 326.8 325.4 323.8 320.1 314.5 307.4 303.5 298.6 292.5 287.6 287.4 284.8 270.9 269.6 281.8 277.2 291.8 305.9 319.4 340 352.3 352 346.5 340.1 339.6 347.1 350 351.1 352.4 352.5 352.5 353.8 354.9 355.8 357.5 359.6 362 364.2 366.6 368.4 369.5 370.4 371.2 372.4 372.5 371.9 371.3 370.3 369.9 370.2 367.8 363 354.6 346.9 339.3 333 328.5 324.4 319.9 314.7 307.2 299 293 286.2 286.2 286.2 286.2 286.2 286.2 286.2 286.2 300.7 310.8 321.1 328.4 331.9 332.5 335.1 339.5 341.2 340 338.5 338.8 339.6 340.4 339.8 338.5 337 335.7 334.5 330.7 326 321.6 316.6 313.6 311 309.8 308 309.5 310.7 313.6 315.6 316.8 315.7 315.2 314 303.7 313.4 316.7 319.1 321.5 325.2 329.6 333.6 338.3 342.1 345.4 347.4 348.2 349.2 350.2 351.3 352.8 354.9 358.2 362.3 364.4 365.8 366 365.3 367.5 368.5 371.5 374.4 378.4 381.6 384.7 387 388.1 388.9 389.7 390.8 391.3 391.6 391.9 392.3 392.3 391.2 390 388.5 386.8 383.7 381.1 378.6 375.8 372.4 369.4 371.9 372.8 369.9
249.1 257.6 262.3 272.5 270 278.2 285.4 285.3 283.7 281.8 281.3 281.7 288.8 295.8 303.8 311.5 315.8 320.7 332.2 334.4 335 332.9 331.2 330.3 330.4 328.9 331.4 332.6 332.5 332.9 332.6 332.6 332.1 332 331.5 331.5 331.9 331.7 330.7 329.7 327.8 325.8 324.1 321.5 316.9 310 303.6 299.2 294.4 288 281.2 281.4 268.3 269.6 274.6 289.8 311.4 323.7 335.6 350 355.1 355.5 352.5 347.1 346.5 347.9 349.5 351.6 352.6 353.1 353.1 353.5 354.5 355.6 357 359.1 361.6 363.2 365.2 367.1 368 368.8 370.5 372.3 372.7 371.7 370.6 369.2 367.1 365.5 362.8 358.3 352 345.5 339.3 333.2 328.8 324.5 319.9 314.7 308.6 301.4 294.1 286.2 286.2 286.2 286.2 286.2 286.2 286.2 286.2 286.2 300.5 316.1 325.8 330.5 330.8 331.9 334.6 334.9 333.8 332.2 333.2 334.5 335.5 335.5 333.7 332 330.7 329.4 325.8 322 317.3 312.3 309.9 307.4 306 302.9 302.8 304.5 306.2 308 309.7 309.8 310.5 310.1 304.3 309.4 313.1 316.1 319.7 322.8 327.8 331.5 334.3 337.6 339.6 340.9 342.9 344.8 346.8 348.2 350.2 352.5 355.8 359.4 361.4 363.2 363.6 363.4 365.8 367.4 369.4 371.5 374.6 377.4 382.4 385.7 387.4 388.2 389 389.8 390.4 391 391.4 391.6 391.5 391.1 390.2 387.1 385.3 383 380.4 377.7 374.2 371.3 369.3 366.5 365.5 363.9
