ncols 200
nrows 82
xllcorner 250000
yllcorner 924000
cellsize 50
292.3 290.8 290.2 290.8 288.8 286.2 284.1 282 280.2 277.8 274.2 272.8 270.7 268.1 268 265.8 262.1 261 261.9 262.9 262.4 260.9 266.3 267.8 268.2 268.4 268.5 268.2 268.6 269.4 269.3 268.1 265.6 263.6 264.4 262.6 264 265 261.7 264.3 266.8 272.6 276.3 280.3 282.1 283.7 284.2 286.5 285.2 285.4 284 280.9 277.9 274.1 269.7 265 257.7 250 245.5 236.7 230.6 225.4 218.7 211.2 206.8 203.7 198.2 193.9 188.4 187.5 187.7 185.3 188.9 190.7 198.3 205.5 209.1 212.3 212.6 218.8 224.6 229 232.9 234.2 236.3 240.8 243.6 249.5 253.9 259.6 266.5 272.5 277.7 282.2 289.3 298.9 308 314.8 318.6 320.9 323.5 326.2 330.4 334.7 338.7 342 346.7 351.9 356.5 363.1 368.8 378.4 387.9 398.1 409.5 418.2 421.8 419.5 417.1 409.8 402.1 396 397.1 401.2 401.3 408.1 414.3 418.2 424.7 433.4 443.6 456.8 471.7 489.2 515.6 535.1 548.7 559 565.6 573 586.6 606 628.4 655.1 678.5 700.1 722.5 748 769.9 791.2 801.6 805.6 802.1 758.9 715.3 671.4 618.6 585.2 554.4 526.3 517.1 513.2 511.9 512.1 511.5 513.1 517.5 519.2 524.5 528.4 527.1 521.3 517.8 517 515.3 516.6 515.6 514.6 516.9 520.8 526.5 526 522.4 515 507.7 501.8 494 484.1 470.4 475.9 493.3 507.6 522.8 536.9 550.9 557.6 558 553.7 545.6 532.3
289 287.5 286.7 286.5 283.9 281.3 280.9 278.9 275.3 274.9 273.3 271.1 269.8 265.1 264.8 261.7 258.5 257.1 257.8 260.1 260.1 262.4 267 267.7 267.9 267.8 267.6 267.2 267 269 269.2 266.8 264.2 261.8 262.3 260.2 260.9 263.3 261.8 264 267.9 272.3 278.2 282.3 283.8 282.4 282.4 282.1 283.1 282.2 280.5 278.7 274.4 269.4 264.8 260.2 254.8 247.4 240.1 233.5 226.9 221.3 216.1 208.7 204.7 199.6 198.1 196.1 188.9 188 186.3 186.7 187.9 194.9 200 209.7 216.3 216.7 220.1 224.9 225.2 230.7 235.3 237 238.9 244 247 252.3 258.8 264.3 270.1 275.8 282.5 288.8 296.7 304.5 310.9 316.3 317.5 318.9 320.5 323.5 327.1 330.9 333.9 337.6 340.3 347.1 355 362.3 367.5 376 387.2 397.7 410.2 420.1 427 427.1 425.3 418.6 409.6 407.1 412 412.5 413 415.9 421.7 427.4 434.7 444.4 457.3 470.8 486.2 506.7 533.9 549.6 562.7 573.9 581.4 586.3 599.6 618 640.7 663.5 684 705.2 728.1 753.6 773.1 790.7 801.5 807 805 785.4 745.7 676.1 614.6 579.1 546.8 519.4 511.6 507.9 504.3 504.5 506.5 508.8 510.1 513 518.8 522.9 523 520.2 517.5 511.6 511.5 511.2 509.9 508.7 508.8 513.2 516.2 517.4 515.3 509.1 503 497.5 489.8 478.4 467.2 467.7 485 498.8 513.4 526.2 539.9 547.8 548.3 542.6 537.1 526.2
286 284.9 283.6 281.2 278.3 277.9 277.5 276.8 273 267.7 270.8 269.7 266.8 261.4 261 258.4 258.7 253.2 254.4 255.8 257.1 260.7 263.8 265.6 266.7 267.1 266.8 266.4 265.9 268.5 266.7 265.3 262.8 259.7 262.2 259.1 258.4 262.5 261.3 263.8 268.2 272.6 278.9 282 282.5 281.9 281.4 281.2 280.2 278.7 277.9 277.1 272.2 267.5 262.3 256.3 250.7 245.5 238.8 234.2 226.6 220.6 213 206.1 203.3 200.8 197.6 193.7 189.4 187.2 186.3 185.3 191.7 198 206.9 209.4 218.9 222.6 225.1 229.1 230.2 233.2 237.4 239.1 241.8 246.1 250.5 255.6 261.9 267.4 273.9 280.3 286.8 293.5 299.9 306.9 311.2 314.2 315 315.7 317.4 320.5 323.8 326.4 328.7 332.7 339.3 346.8 355.8 361.5 367.4 374.6 387.5 398.5 410.4 422 430.2 434.2 431.9 425.9 416.5 421.5 424.9 424.6 425.4 426.7 430.2 435.7 443.5 454 468.7 484.2 503.2 525.9 547.2 561.7 575.1 587 593.3 598.7 610.7 628.9 653.2 673.3 693.4 711.9 732.7 755.7 773 787.9 797.7 802.5 802.4 782.5 735.2 662.5 605.9 571.4 540.9 516.8 508.5 501.1 501 501 500.5 503.1 505.1 505.3 509.4 515.7 516.4 515 512.6 509.8 506 505.8 505.1 503.5 501.1 503.1 506.1 509.1 507.9 503.3 498.8 493.1 486.7 476.2 466.5 454.7 473.6 490.2 503.9 516.8 530.4 537.7 539.4 536.6 529.8 516.8
283.4 281.8 280.3 279 276.9 274.8 274 272.4 268.3 266.1 269.5 265.5 261.5 257.5 257.4 257.1 257.9 255.7 252 252.2 255.3 259.2 261.3 263.2 264.4 265.5 265.7 265 264.3 265.8 264.5 263.2 260.3 258.2 262.2 258.4 256.8 258.7 260.3 263.4 268 272.8 277.4 281.8 281.5 280.6 280 279.2 278.3 277.4 276 273.4 269.2 264 258 253.5 248.4 243 238.9 232.3 226.1 220.5 212.4 206.4 205.9 203.9 201.5 195.5 190.7 186.3 186.7 186.2 193.1 200 211 213.7 222.3 226.4 228.5 234.3 232.9 237.5 239.7 242.4 244.7 249.4 254.4 259.5 264.3 270.2 276.8 283.4 289.6 296.3 301.9 306.3 309.8 311.6 312.5 313.2 314.4 317.6 320.8 323.7 327.7 333.3 340.6 345 353.2 359.5 364.7 373.5 387.2 399.5 409.9 422.7 431.6 438.3 437 430.1 430.7 437.6 439.2 436.2 433.4 436.2 442.8 446.6 454 466.8 479.5 498.4 518.7 540.9 557.4 572.6 586.2 597.8 604.9 612.2 623.8 639.6 663.6 683.1 700.4 716.9 737.2 755.2 769.3 781.7 790.8 795.7 796.6 789.6 756.2 666.2 611.3 575.7 543.5 517.8 504.1 501 501 501 501 501 501 501 503.5 505.9 509.7 508 509 507.1 499.7 500.2 498.9 496.3 496 497 497.8 500.2 500.2 498.3 494.6 488.3 482.2 472.8 463.9 440.5 463.1 480.5 494.3 507 517.6 522.3 524.6 524.9 519.5 508.7
280.9 279.4 278.1 276.9 274.6 272.2 272.5 267.9 263.8 260.7 263.3 263.1 260.4 256.6 255.1 254.7 254.8 256 253.1 250.3 250.4 255 260 261.4 264.1 265.6 264 263.5 263 262.8 262.3 261.4 258 256.4 262.7 259.7 255.9 255.7 260 263.5 268.4 271.8 273.7 276.4 279.2 279.1 277.9 277.6 277.2 276.3 274.6 269.6 266.9 261.1 254.7 250.2 246.6 242.2 238.5 232.2 227.8 222.6 216.3 211.4 210 209.2 205.8 198.6 193.4 186.6 187.6 190.4 196.1 202.5 211.7 217.1 227.1 229.1 230.6 236.3 236.7 237.8 241.3 245.3 247.7 253 256.5 261.9 267.5 273 279.3 285.3 291.3 296.4 301.2 304.9 307.5 308.8 310 309.4 311.9 314.7 315.2 320.9 327.1 333.4 342.4 350.7 353.8 360.3 365.9 375.3 388.8 400.4 410.4 422.5 434.1 441.5 440.6 436 446.1 452.5 452.9 445.1 442.6 448.8 453.3 456.6 464.9 479.1 492.7 510.1 528.8 551.2 567.4 582.6 596.2 606.4 615.1 624.4 636.6 656.9 674.8 691.6 705.9 720.5 735.8 752 764.1 774 781.7 787.3 788.7 782.5 736.1 666.7 622.7 586.9 554.6 525.5 509.4 501 501 501 501 501 501.8 501.7 499.5 500 503.5 503.4 505.1 503.9 499 493.6 492 488.6 488.1 489.7 490.3 491 491.5 492.2 489.2 483.9 478.6 470.6 461.9 441.2 451.2 470.7 484.6 497.4 507.3 510.2 510.1 509.6 504.7 496.4
279.4 277.6 276.1 274.6 270.7 266.8 268.3 268.9 261.3 262.4 260.1 259.9 259.1 254.7 253.1 252.7 252.3 253.5 253.2 249.7 252.4 254.7 258.2 261.3 263.9 262.8 262.2 261.1 260.2 266.2 262 259.5 255.4 254.4 257.4 255.8 252.5 256.8 259.4 263.1 267.5 270.8 272.5 273.3 276.1 276.2 276.5 276.3 276 275.2 273.8 269.1 263.5 259.6 254.8 251 245.8 240.3 236.1 231 227.7 221.6 215.9 211.1 210.7 209.5 203.6 197.1 191.6 187.7 189.4 192.7 199.5 204.6 213.3 220 228.3 231.4 234.8 239.8 239 240.1 242.5 245.1 248 252.9 259.4 264.1 269.5 275 280.3 285.5 290.7 295.5 299.4 302.1 304.7 306.3 307.6 307.3 310.1 310.6 316.2 320.4 329.6 337.2 345.4 354.5 358.2 362.6 368.1 380.3 390.1 402.8 412.7 424.4 436.1 444.3 445.9 449 460.4 464 463.4 454.5 455.7 460.6 463.3 465.9 476.8 490.6 505.1 522 541.5 559.4 575 590.3 603.7 614.8 624.2 636.9 653.8 671.9 685.7 697.3 709.2 721.4 734.1 746.4 756.4 765.1 771.5 777.1 780.2 778.9 762.6 687.3 634.1 594.2 565.6 545.8 527.6 513.2 500.7 501 501 501 501.8 501.8 497.9 492.4 495.8 498.8 498.2 499.1 495 488.5 485.6 482.7 480.4 481.6 483.5 483.8 484.7 484.8 483.5 479.5 475 467.7 460.2 448.1 442.2 459.6 477.2 489 495.8 499.1 499.2 495.9 491.6 481.8
278.8 276.5 273.5 272.4 270.7 266.8 264.5 264 261.1 260.7 259.3 257.9 257.5 255.5 254.2 253.4 254.1 254.5 258.2 254 251 253 257 259.2 262.1 262 259.3 257.8 258 263.6 263.1 258.3 252.8 252 253.2 250.4 255.5 256.5 258.2 262.4 266.2 269.6 271.2 271.9 272.8 274.4 275 274.8 274.7 274.8 272 267.5 263.9 260.8 254.6 248.9 244.9 240.3 236.2 231.3 223.4 217.6 212.3 207.9 206.5 203.3 198.2 194.1 189.9 187.6 192 195.4 203.8 208 216.5 218.5 224.3 230.9 234.3 237 239.2 240.7 243 247.2 252.5 256.3 259.7 264.9 271.1 276.6 280.7 285.1 289.5 293.4 297.2 299.5 301.8 303.5 305.2 304.4 308.6 311 318.2 323 335.9 341.4 349.3 354 359.5 368.9 379 393 402.3 406.5 416.2 428.9 440.3 446.8 452.2 462.5 472.4 475.9 471.3 465.9 469.7 473.6 474.1 478.2 488.4 501.2 515.1 532.4 554.2 569.7 584.5 599.2 611.3 622.3 634 648 665.9 682.8 694.8 704.6 713.1 722.7 731.5 741 747.8 754.3 759.9 765.6 770.8 771.8 766.8 730 658.1 615.3 592.8 576.5 559.8 539.3 522.7 516.9 508.2 507.7 502.4 494.9 491.8 489.6 492.2 494.8 493.7 492.3 489 485.8 478.2 476.5 473.4 474.8 475.2 477.5 477 478.7 478.4 474.4 470.1 463.2 456.3 446.3 424.3 451.5 468.6 478.9 485.2 487.3 486.5 482.8 475.6 467.2
278.2 276 273.6 270.8 269.4 267.7 262.3 261.5 260.8 259.2 257.2 255.7 255.5 255.7 254.6 253.2 252.9 251.6 251.9 253 254.1 254.6 255.5 257.1 261.3 259.4 256.7 255.5 255.5 259.5 260.3 254.5 252.7 250.2 251.2 248.6 252.9 254.1 257.9 261.7 264.5 267.5 270.3 271.3 271.8 272.5 273.6 273.5 273.4 272.7 270 266.3 262.4 258.7 254.6 246.8 242.1 241.2 234.1 228.8 223.2 217.6 211.2 205.6 203.9 202.7 196.4 191.4 188.7 188.7 193.3 199 206.1 210.5 215.9 218.4 222.2 228.9 232.7 234.8 238 241.7 244 248.7 254.9 259.2 263.6 266.8 271.4 276.4 281.3 284.7 288 291.4 294.9 297 299 301.1 303 304.3 308 310.3 318.4 330.3 343.1 349.3 357.8 362.8 369.5 378.5 393.4 406.6 409.9 415.8 423 435.6 445.1 453.3 461.5 474.4 482.5 485.5 479.2 479.9 485.4 484.1 484.7 490.4 501.6 511.7 526.1 543.6 564.6 579.3 593.7 607.3 618.2 627.4 641.2 655.9 676.7 692.1 702.2 709.2 714.7 724.5 730.7 734.7 738.7 743.2 747.4 753.8 760.1 766 767.7 751 689.5 648.9 624 608.6 593.6 571.9 562.1 550.5 538.7 521.2 510.1 501.6 493.1 487.8 489.7 490.7 488 484.4 482.1 481.8 476.8 469.2 468.9 467.3 468.4 470.1 471.7 472.8 473.3 471 465.9 460.6 452.3 443.1 416.9 442.7 458.6 469.8 473.1 472.6 469.2 466.9 459 449.3
277.3 275.1 272.9 269.1 266.8 266.1 263.2 260 259.5 257.9 256.2 254.1 253.5 254.1 251.6 251.5 251.2 249.7 248.4 249.3 248.7 253.8 255.3 254.4 256.8 255.8 253.7 253.4 253.5 254.9 260.4 254.3 253.5 253.1 249.2 249 251.1 253.1 256.8 261 264.8 266 267.5 269.4 270.7 271.4 272 271.4 271 270.5 268.7 266.2 261.9 257.8 253.3 247.1 242.3 239.7 236.2 230.3 225.3 219.8 214.6 208.2 206.3 203.1 198.5 193.2 189.9 189.6 192.9 200.9 203.1 207 211.4 219.7 220.6 223.4 230.3 235.3 238.5 241.9 245.5 250.2 256.3 261.4 265.6 270 274 274.2 278.4 281.8 286.2 290.2 292.3 294.9 296.8 299 302.2 303.7 306.6 310 320.2 333.8 348.3 357.5 364.9 370.6 382.2 394.9 406.8 415.3 419.6 428.3 435.7 443.5 452.4 462.6 472.1 482.5 491.2 492.2 489 493.8 496.7 494.7 494.9 501 510.8 521.2 534.1 552.2 572.6 587.1 601.7 614 622.8 633.5 646.8 662.9 684.6 699.5 708.8 712.6 717.1 726 729.3 729.9 730.7 732.5 737.6 743.8 750.8 758.4 764.7 766.6 738.5 695.9 719.2 672 658.2 638.6 607.4 589.7 571.7 552.9 532.4 513.5 498.9 488.2 486.4 487.6 482.2 478.5 476.8 476 471.3 467.9 462.3 460.1 460.3 463.1 464.1 465.8 466.9 465.7 462.5 456 447.5 438.1 413.4 430.8 449.2 458.9 460.1 457.8 454.4 447 439.1 428.9
275.6 273.7 271.8 269.2 265.4 264.3 261.2 258.8 257.8 255 253.6 252.2 251.4 252.4 250.7 250.1 249.3 248.2 246.9 247.3 246.4 250.3 252.9 251.8 253.5 253.3 251.7 251 251.4 252.1 253.2 253.7 251.5 253.5 251.1 246.3 250 251.8 255.8 257.8 261.2 264.2 266.2 268.1 269.2 269.8 269.3 268.1 267.7 267.4 266.8 264.9 260.3 257.6 252.8 247.9 241.9 238.5 233.6 227.4 223.3 222.8 218.2 211.9 210.8 209.1 201 192.1 189.3 190.5 191.9 194.8 198.5 204.2 210.4 221.9 224.4 227.3 231.5 235.1 238.8 243.3 247.9 252.9 257.3 261.3 266.2 271.2 274.6 278.2 281.5 284.4 287.1 290 294.2 298.7 299.7 301.8 303.1 304.5 309.6 315 329 343.2 356.5 366.3 374.8 381.3 397.1 409 418.3 425.6 432.4 441.5 447.7 456.8 464.7 472.2 480.7 490.4 497.4 497.4 498.8 507.7 505.8 503.8 504.6 510.3 519.3 529.1 542.3 562 579.7 593.8 608.3 619.8 627.2 637.8 651.3 667.9 690.3 703.5 710.7 714.1 720.2 726.3 727.8 725.2 723.3 723.5 728.4 733.3 741.7 750.9 759.8 766.4 768.3 764 745.9 736.5 720.6 689.3 664.4 632.6 608.3 586 561.5 537.7 514.4 496.2 484.3 479.5 472.9 466.5 469.6 469 466.3 462.9 458.9 454 454.3 455.2 457.5 458.5 459.7 458.9 455 449.3 441.3 432 409.7 419.2 439 447 445.5 442.1 436.7 428.9 416.9 404
275 273.6 271.3 268.1 264.1 261.5 259.5 258.8 256.1 254 251.1 249.1 249.9 251.7 250.3 248.3 248.6 246.5 245.5 244.7 247.1 248.3 250.2 249.3 252.3 252.7 249.7 248.6 249.6 250.4 250 247.6 247 248.7 250.2 244.9 247.4 250 253.4 255.8 258.6 261.6 265 266.6 267.6 267.5 266.6 265.2 264.5 263.7 262 261.8 259.4 251.6 244.2 247.7 243.6 232.8 228.1 226.1 222.2 220.8 218.8 217.5 217.5 211.3 201 193.3 190.4 191.9 192.4 197.8 204.3 209.4 212.7 221.1 224 228.6 233 237.3 239.8 244 248.8 254.8 259.4 264.3 268.6 272.1 276 278.6 281.6 283.9 286.8 290.2 295.8 300.6 304.5 305.1 307.9 306.7 316.5 323.7 338.2 356.6 369.7 377 385 396.8 413.6 423.9 433 441.5 448.3 454.9 461.4 469 473.6 480 487.5 497.6 502.3 502.9 510.3 514.4 513.6 511.8 514.9 518 524.7 535.4 551.3 571.1 585.9 599 612.2 622.1 628.4 638.5 652.5 668.2 688.5 700.9 706.7 711.3 717.3 723.5 724.8 720.9 716 713.4 717.2 723.8 733.3 743.6 753.5 762.7 772.8 780 788.2 778.3 751.5 723.5 691 663.5 650.9 618.9 587.4 560 532.4 510.1 489.8 472.5 460.4 457.7 461.7 461 459.6 457.2 455.2 449.2 447.9 449.3 449.6 452.2 454 451.4 446.9 440.9 431.9 422.9 401.4 408.6 427.5 431.6 429.3 422.4 415.8 402.7 387.5 367.2
274.7 272.8 269.3 266.7 263.8 260.4 258.8 258.6 256.4 252.7 250.9 247.3 247.2 248.5 249.3 246.7 247.6 244.8 243.6 242.6 247.1 247.6 248.4 248.2 250.5 249.5 247.3 246.1 248.2 248.2 247.8 245.6 244.9 246.6 249.6 247.4 245.1 247.6 250.8 254.4 258.2 259.5 263 265.2 265.2 265.2 264 262.6 262 261 259.4 257.8 258.9 253.4 244.4 248.4 245.5 236.9 227.2 222 219.5 218.4 217.2 218 221.3 214.2 202.2 194.3 191.8 193.7 195.9 205.5 211.7 219.8 220.3 221.3 227.1 230.4 233 236.8 239.3 243.9 251.5 256.5 260.9 265 269.4 273.5 276.8 279.9 283 285.4 289.5 294.5 300.6 306.9 309.8 311.1 312 317.2 324.9 336.9 353.1 373.8 381.6 387.7 399.5 410.6 430.2 438 448.3 455.5 462.6 466.5 474.1 479.9 481 485.6 493 501.6 505 508.9 517.8 520.8 521 520.2 521.1 525 532.1 542.5 557.9 577.1 590.3 602.7 614.1 621.4 627.2 636.2 649.2 663.6 681.2 692.4 700.5 705.6 713.7 719 719.6 718.7 714.1 702.5 708.1 715.4 725.3 735.3 745.6 756.9 768.2 778.5 789 794.1 781.5 755.1 728.7 702 671.2 640.2 611.4 579.3 548.6 518.4 493.2 471.1 454.1 450.5 450.6 452.3 451.9 450.9 449.1 445.8 438.2 441.5 441.5 444.7 446 443.6 437.8 431.4 422.6 412.6 387.2 387.9 414.3 414.2 405.5 396.5 385.6 370.4 349.6 332.5
275.3 272.8 270.2 266.3 262.2 258.9 256.7 256.4 254.3 250.8 248.8 247.1 245.3 246.9 247.1 243.3 247.2 242.9 241.7 242.8 245.1 246.8 247.3 247 248.7 247.9 244.7 244.8 245.3 246.3 246.7 246.6 244 244.6 244.9 245.9 243.5 246.2 248.7 252.2 254.6 257.9 260.3 263 262.8 263 261.5 260.5 259.9 259 257.7 256.1 254 253.6 252.2 249.4 244.9 239.7 230.5 220.2 217.5 213.9 213.4 212 212.6 211.7 202.8 193.3 190.9 196 197.2 204 211.6 220.6 221.6 224.4 228.8 232.2 235.5 239.1 241.5 245.9 252.6 256.5 260.5 264.6 268.9 273.5 277.3 279.8 284.1 288.7 293.6 300.6 309.7 315.3 318 320.2 323.4 329.6 339.9 351.2 368 388.4 396.2 406.2 420.4 431.7 447.3 456.6 466.7 472.5 475.5 475.9 482.9 485.1 485.3 488.3 496 503.4 507.1 513.5 521.3 526.1 524.2 523.6 525.9 531.1 537.5 548.3 563.5 580.8 592.7 604.3 614 619 621.3 628.7 640.5 654.3 669.3 681.7 689.6 698.7 707 714.2 715.8 716.2 712.5 702 694.7 705.4 714.5 724.8 736 748.1 759.4 769.9 780.1 785.1 781.1 767.5 742.4 708.6 677.3 649.3 624.1 593.7 558.9 529.1 498.4 468.1 450.4 443.4 440.7 443.7 441.9 442.8 442.3 441.2 438.8 435 436.5 437.2 435.8 434 430.2 420.5 412.2 401.2 382.6 379.5 397.8 391.3 380.1 365.7 350.5 333 315.7 299.7
274.2 271.4 268.5 265 260.9 258 255.9 255.2 254 249.3 247.9 246.9 245.3 244.7 245.1 240.9 248 241 239.6 240.7 242.5 246.1 244.8 245.3 247 244.7 242.3 243.2 243.7 243.8 243.7 243.8 243.5 241.1 240.5 246.3 237.8 242.8 246 250.1 252.6 256 258.3 259.7 260.1 259.3 258.7 257.9 256.9 255.8 254.9 252.9 251.5 251.3 249.8 249.2 243.6 237.1 231.1 220.9 217.1 212.5 209.2 206 201.7 199.2 198.2 193.5 192.5 195 198.2 204.4 210.9 215.9 219.5 224.4 229.9 232.4 236.3 239.5 242.1 248 253.6 258 262 265.4 270.5 274.5 278.9 281.2 286 291.3 298.8 311.9 319.4 325.5 327.5 330.6 337.5 345.7 355.6 366.9 386.5 402.2 415.9 429.4 442.2 458.1 466.9 473.2 481.3 486.1 480.3 485.1 486.1 486.1 484.7 487.1 494.5 501.9 507.4 515.9 524.3 527.1 525.3 525.3 527.8 534.1 540.3 550.7 567.2 582.9 594.1 604.4 611.7 614.5 614.2 618.7 628.1 639.9 653.9 665.4 675.9 689.9 701.1 708.9 712.6 713.5 711.3 701.2 685.9 694.6 703.8 712.3 724.6 736 747.6 757.1 766.7 772.5 770.5 759.2 734.9 700.9 680.4 652.1 622.8 594.9 565.1 534 505.2 465.9 445.1 434.6 431.2 432 432.5 434.4 433.2 433.6 431.5 416.1 430 428.2 425.7 424.4 418.7 410.1 401.9 388.1 370.9 366.2 374.6 360.8 346.6 333 318.8 302.2 285 269.1
273.8 269.6 266.7 263.7 260.3 257.5 255.1 254.3 252.1 248.1 247.2 246.7 244.9 243 242.4 240.1 246 244.2 238.4 240 240.8 241.8 243.5 243.9 243.1 242.5 240.8 241 242 241.2 240 238.8 238.6 240 238.6 239.1 237.4 240.7 242.7 246.9 250.8 253.9 255.7 257.3 257.5 256.7 254.9 254.5 253.8 252.7 251.5 249.4 248.8 247.7 246.5 242.1 240.2 235.8 229.3 217.8 217.1 215.7 209.2 203.1 197.6 196.2 195.1 191.8 194.6 197.3 200.6 205.8 207.3 213 217.7 223.4 230.6 234.5 236.6 239 244.8 249.6 254.5 258.4 262.4 266.5 272 276.8 281.4 284.7 290.4 297.2 310.5 323.1 330.3 335.1 340.3 345.6 354.2 365.7 375.9 387.9 406.1 421.6 437.7 451.9 468.5 481 489.9 488.5 492.5 491.8 485.3 486.9 485.8 483.3 480.1 481.6 490 498.8 506.5 516.7 524.6 526.5 526.2 526.6 528.4 533.2 539.8 552.3 568.6 582.9 593.4 602.5 608.4 609.9 604.2 606.6 609.6 619.5 632.6 647.8 665.3 682 695.7 704.5 710.1 713.2 709.3 698 680.5 680.1 693.2 701.1 711.7 721.5 732.7 742.5 751.4 757.9 757.5 746.6 726.3 693.9 660.7 634.5 612.8 590.1 562.4 532.8 503 460.4 436.8 428.2 423.1 422.8 421.7 422.4 422.3 422.8 421.7 410.2 420.2 418.2 414.6 410.8 404.3 396.7 386.1 372.6 353.6 343.8 342.2 326.2 311.1 297.2 281.7 268.2 259.1 250.8
273.5 269.3 265.1 261 259.3 256.8 253 251.6 252.6 249.1 246.9 246 244.7 242.9 242.5 240.1 243.2 246.2 238.4 240 240.5 240.9 241.5 241.6 241.3 240.8 239.2 241.3 241.2 241 237 236.4 237.2 238.9 234.6 233.4 237.4 239.8 241.3 242.8 248.2 250.5 253.1 253.9 253.3 252.6 252 251.1 250.2 249.1 247.3 246 245.7 245.2 243.7 239.8 232.5 230.4 226.7 217.8 212.6 209.4 205.6 201.2 197.8 196.5 195.5 191.8 197.9 199.9 206.2 209.6 211.2 213.5 217.8 224.4 233 236.7 238 241.4 246.4 250.7 254.8 258.9 262.9 267.7 274.3 281.7 287 292.4 299.8 311.8 326.2 336.8 343.1 349.2 355.9 363.3 373.6 384.5 395.4 411.1 425.3 441.6 459.6 474.6 489.8 499.6 504.5 501.1 498.1 492 486.3 483.7 481.7 477 471.8 473.3 481.7 493.1 502.8 513.7 520.7 523.7 522.9 524 527.5 533 540.5 551.7 568.7 581.7 590.6 598.3 603.5 603.4 589.2 585.3 588.9 599.3 621 639.1 656 674.7 690.2 699.7 709.1 712.2 706.6 694.4 679.4 665.9 679.9 689.3 697.8 707.1 716.6 728.1 736.7 743.6 744.5 733.9 717.7 687.1 651.4 614.4 593.6 567.3 537.3 509.5 478.3 449.4 429 421.2 418 416.2 413.2 412.2 409.8 411.4 410.8 406.3 407.8 405 399.3 394.6 388.2 379.3 366.7 347.2 325.8 313 305.6 296.4 279.8 267.8 257.1 249.4 239.6 233.7
273.1 269 264.3 260.2 255.8 254.8 252 249.1 248.9 247.8 246 244.7 243.6 245.2 245.6 239.8 240.5 244 241.8 237.1 238.8 240.3 240.1 239.7 239.3 239.1 236.2 237.4 236.3 237.2 235.1 233.3 237.2 237.4 235.4 236.8 238.5 237.7 238.4 240.4 244.2 247.6 249 250.1 249 248.4 249.5 248.3 247.1 245.4 243.8 242.9 242.8 242 239.5 235.1 232.1 232.8 233.8 223.9 214.3 209.6 203.4 200.8 198.1 196.2 194.6 193.2 198.9 204 211.2 213.9 215.9 217.9 218.6 226.3 232.9 236.5 238.6 243.8 248.2 252.4 256.2 260.1 265.3 271.4 277.7 285.5 295.1 301.4 313.1 329.5 340 352.6 357.8 364.8 374.8 384.3 396.6 406.4 419.5 433.8 449.5 464.4 479.5 496.9 511.2 517.7 515.5 502.8 494.6 487.8 480.6 476.1 471 465.3 460.7 463 472.3 484.8 495.3 507.3 516.4 519.3 519.1 520.8 525.3 531.3 539.9 550.4 568.7 578.6 585.7 592.1 596.3 595.9 579.6 564.9 571.6 588.4 611.7 631.5 649.5 668.2 685.4 698.3 707.7 710.5 703.7 690.8 676 663 666.7 676.9 685.1 693.4 702.1 711.9 723.4 729.9 730.7 722.4 707.5 679.4 642.5 607.4 582.2 551.4 515.7 486.6 459.8 437.5 422.8 414.9 410.6 407.6 406.2 402.1 400.9 398.1 397.3 394 392.5 388.7 383.2 374.9 368.1 357.4 338.3 318 299.7 275.6 272.8 265.8 255 246.7 238.8 228.9 222.1 215.8
272.7 267.4 262.5 258.4 255.4 251.8 249.5 248 248.5 246.8 246.1 242.7 243.7 242.7 242.5 240 239 240 241.9 235.9 237 239.9 239.3 238.7 238.5 236.8 233.4 235.4 233.3 234.1 232.3 231.2 232.4 235.9 236.1 229.2 233.3 234.8 236 239.3 241 245.5 245.2 245.9 244.5 245.7 245 244.6 242.9 241.9 240.7 240.6 240.4 237.2 234.6 231.2 230.2 229.4 230.1 224.8 220.9 209.1 204.7 201.3 198.2 193.8 196 195.6 200.7 206.5 211.9 218.8 220.2 221.1 221.8 224.1 228.9 234.2 239.3 244.7 249.9 254 257.8 261.7 268.2 274.4 282.6 291.7 303.4 312.7 328.8 343.2 358.1 366.7 377.2 386.9 396.7 407.6 421.1 429.9 446.4 458.1 470.6 485.7 504.6 519.5 527.4 531.6 517.9 500.4 488.8 479.6 471.8 466.1 459.1 452.1 451.7 453 456.2 473.1 482.9 496.2 509.4 513.9 513.9 515.1 521.5 528.1 537.3 550.1 566.7 574.7 578.6 583.7 587.5 585.5 569.4 547.5 558.9 579.1 604.4 624.5 642.5 662.4 680.8 695.5 705.1 707.9 700.6 685.2 670.8 659 654 664.2 671.6 679.3 690 697.8 708.8 716.5 718 711.4 697.5 669.8 638.3 595.7 567.1 529.4 498.2 463.5 441.7 429.8 420.1 405.7 402.6 400.4 398.1 393.5 391.4 388.6 385.8 380 376.1 371.3 365.5 354.9 341.4 325.6 308.7 286 271.7 254.3 247.8 242.9 238.8 227.9 222.6 213.5 208.1 203.5
271.8 266.1 261.3 256.9 255.7 253.9 250 247.6 245.7 244.3 243.6 241.8 243.7 243.4 241.1 240.1 239.3 238.5 240.8 235.1 236.3 239 238.3 237.7 236.8 234.4 232.6 232.7 232.3 232.1 231.2 229.9 229.3 229.2 230.3 233.6 228.5 232.9 234.8 237 238.2 243.5 243.5 242.2 240.2 241.3 242.1 241.9 239.2 238.2 237.3 238 238 233 229.8 229 227.8 225.5 223.5 222.3 219.1 210.2 202.3 201.4 196.9 196.8 198.6 201.9 204.3 207.7 215.6 220.1 223.4 224.7 225.6 224.5 229.6 236 240.8 246 250.7 255 259.2 264.8 272 277.8 288 297.8 311.4 325.9 341.5 355.5 372 383.5 397.7 406.3 418.1 432.2 446 459.8 472.5 482.8 494.3 505 522.6 533.1 537.5 531.4 513.4 495 479 468.6 461.1 454.5 447.4 445.2 441.4 444.8 450.8 462.5 470.4 484.6 501.8 506.8 506.6 510.6 516.2 522.7 533.4 548.5 563 569.2 571.8 572.1 574.3 573.5 554.1 535.2 549.1 569.5 596.3 618.2 635.7 656.4 676 692.1 702.3 705.1 697.8 682.1 666.9 654.4 645.6 651 660.2 667.8 676.1 684.2 695 703.9 707.3 703.2 691.2 667.2 631.9 592.8 558.4 521.4 486 457.3 437.9 426 418.4 396.4 390.1 388.7 388.1 384.4 382.7 378.2 373.7 366.1 358.3 352.9 341.6 332.4 310.1 295.2 277.2 263.1 251.1 239.1 225.5 227.7 221.4 216.3 206.1 200.2 195.3 190.4
269.6 264.5 260.1 255 251.6 251.7 250.9 248.2 244.8 243.5 242.6 241.9 243.6 245.8 241.2 239.6 238.4 237.8 241.2 236.1 236.3 237.1 236.4 236.1 234.5 233.5 233.5 232.7 231.2 230.9 230.1 227.7 227.9 228 228.8 233.1 227.5 230.4 229.9 234.5 237.7 237.3 238.5 238.3 236.4 235.4 235.4 235.2 235.3 235.8 233.2 233.7 230.6 227.8 223.9 224.5 224 218.8 220.1 216.5 210.1 207 201.4 198.5 195.7 199.8 201.5 206.4 209.8 213.9 214.7 220.7 223.6 225.5 227.2 226.5 231.9 238.3 242.8 247.4 251.5 256 260.7 267.6 276 283 295.2 305.3 320.8 339.2 355.3 372 387.2 403.7 415.6 424.6 438.3 454.3 470.4 485.1 496 505 512.3 526.8 537.4 541.8 535.4 521.8 500.7 481.1 467.8 456.8 449.2 442.8 437.7 432.3 432.4 441.8 446.2 459.3 466.8 482.3 494.2 498.9 499.7 505.2 511.8 519.4 529.2 544.2 556.2 560.5 562 557.3 557.2 558.8 543.3 521.1 541 561.7 589.3 611.1 630.6 651.5 670.4 686.9 698.2 701.2 694.3 680.2 664.6 651.9 641.5 643.4 649.7 655.4 661.8 671.3 683.5 692.8 698.5 697.6 685.6 665.5 632.6 596.2 555.2 517.8 487.2 460 436.2 424 414.6 391.4 380.8 376.1 374.9 371.9 371 366.2 359.6 349.2 339.2 326.8 313.4 296.4 279.7 263.5 249.7 241.6 234.6 225.7 216.6 214.6 209.3 202 195.1 189.8 185.5 179.9
269.2 263.3 258.4 254.4 251.3 250.1 249.2 248.5 244.7 243.2 242.3 241.5 241.3 241.8 240.7 239.1 237.9 236.8 240 239.3 234.9 235.1 234.4 234.6 233.3 232 236.6 236.9 229.8 228.5 227.5 225.1 224.8 225.7 225.9 224.1 231.4 223.8 226 229.5 236.9 234.2 233.4 233.7 233.5 232.3 231.2 230.5 230.5 233.3 228.8 226.7 222.7 221.9 218.7 217.7 219.5 215.3 213.7 209.5 205 204.1 201 197.6 201.2 202.7 205.2 210.5 214.2 215.7 217.3 220.2 222.2 224.1 227.1 230.2 233.4 239.4 244.5 248.9 254.2 258.4 264.5 271.2 279.9 288.8 300.6 313.6 331.6 351 366 383 403 420.1 431.7 443.3 459.9 477.4 495.9 509.8 517.4 523.1 530.1 538.1 541.7 537.9 529 511 492.7 474.4 458.3 447.9 440.4 432.6 430.1 426.1 430.6 432.2 445.2 459.8 465 480.1 487.8 492.5 492.4 499.4 505.8 513.6 524.7 536.8 548.8 550.4 549.9 544.2 543.3 545.2 530 516.2 527.6 552.7 581.3 605.3 626.2 645.5 663.9 680 691.6 695.1 690.2 679.3 665 651.9 640.5 634.3 639.4 645.2 652.6 660.1 671 681.2 688.8 689.6 679.1 658.2 644.1 627.9 575 533 484.5 454.3 437.2 421.2 404.7 388.2 374.5 371.7 366.2 359.7 352.6 346.4 337 330.3 315.1 298.9 282.7 266.3 251 241.9 234 227.9 222.6 216.5 209.1 201.6 198 192 187.7 181.2 175.2 172.8
268.2 262.5 257.9 254.6 251.1 248.9 247.8 246.6 244.5 242.9 242.1 241.3 240.5 240.8 240.5 237.7 236.6 235.7 237.7 241.3 238.9 232.8 232.8 233.1 232.1 229.7 232.9 233 228.8 227.7 226 223.2 222.3 222.6 223.1 223.2 227.3 222.4 224.1 225.1 230.9 229.2 229.7 231 233.2 231.4 228.8 225.5 226 227.7 226.4 225.1 221.3 218.5 212.7 212 211.3 207 205.2 204.1 203.3 203.5 200 202.7 205.7 209 210.6 213 217.6 222 222 220.8 220.6 224 226.8 231.9 235.1 240.6 246.4 250.3 255.1 261.3 268.6 276.1 286 296.6 307.8 323.2 342.9 358.6 378.4 397.1 414.3 432 445.2 461.9 478.8 497.2 513.9 523 525.1 531.3 533.3 536 536.3 530.5 518.7 500.9 483.5 465.1 453.3 439.7 432.6 427 422.6 422.6 428.9 430.4 441.1 458.6 465.7 477.9 483.3 486 485.8 492.9 499.6 509.9 518.4 530.3 541.2 541.4 539.1 532.9 528.9 529.8 515.4 504.6 525.9 547.8 575.9 599.5 620.1 639.3 656.8 671.7 683 687.9 686.2 678.6 666.1 654 641.2 631.1 629.1 636.4 641.9 647.8 660.3 670.3 678.5 678.8 669.4 651.5 636.3 622.7 602.8 559.4 509 468.4 447.2 427.2 407.9 384.3 372.1 369 360.2 348.5 332 320.3 308 300.4 282.9 265.6 252 241.9 235 228.8 225 220 214.5 208.1 200.8 192.5 191.9 186 180.5 176.6 172.8 172.8
267.2 261.7 257.7 253.7 250.3 248.2 246.8 245.6 243.8 242.9 242.1 241.4 240.1 239.9 239.7 237.5 236.3 235.3 234.8 236.7 237.8 233.4 232.2 231.6 229.9 227.7 228.6 228.2 227.1 226 224.9 222.7 220.8 220.7 222.2 221.8 221.5 225.8 220.7 221.3 226.5 225.2 223.8 224.4 226.4 225.4 223.8 224.6 219 220.2 219.7 219.5 213.5 213.5 212.7 205.9 206 205.1 203.2 202.3 202.2 202.6 204.9 205.3 210.4 216.9 221.8 222.2 224.8 226.3 225.2 223.6 221.9 226.9 227.1 230 233.9 239.6 247.9 252.5 256.9 263.9 271.3 279.8 290.3 302.6 316 331.7 351.6 367.1 390.1 407.2 424.6 440.4 453.4 468.8 485.3 499.7 513.2 519.8 524.2 527.4 528.4 529.7 528.9 521.5 509.1 492.8 474.5 457.8 446.1 434.2 425.6 419.4 419.8 420.3 426 430.9 447.1 457.5 462.5 475.2 479.5 480.1 479.9 485.3 492.8 502.2 512.9 525 532.9 532.1 526.7 518.6 512 510 498.7 497 516.8 543.4 571 594.2 613.9 631.5 647.1 660.7 672.1 678.9 681.2 677.1 667.9 656.6 642.3 632 623.9 625.3 634 640.8 649.4 660.3 667.4 670 659.9 645.2 630.3 615.8 605.6 584.7 541.8 499.4 468.9 435.1 412.4 386.9 375 363.1 344.1 327.9 311.2 287.6 273.2 265.3 256.4 244.1 234 229.5 225.2 221.6 218.7 213.4 207.2 201.5 195.4 190.1 187 182.3 178.6 175.9 172.8 172.8
266.6 261.8 257.8 254.1 251.5 249 246.2 245 243.9 243.1 242.2 240.9 239.9 241.4 240.8 237.6 235.7 233.9 234.1 234.3 233.9 233.5 232.1 231.6 228.1 226.3 226.9 226.9 226.3 225 222.7 221.7 219.6 219.3 220.4 220.2 218.9 220.4 220.5 218.6 220 222 220.3 218.4 216.9 215.4 215.1 218.5 220.4 211.9 210.6 210.3 208.4 207.5 206.8 204.5 203.2 203.9 203.1 204.8 206.9 208 207.1 211.7 217.2 220.1 223.5 228.5 229.5 233.5 231.8 227.7 226.1 229.7 230.6 230.4 233.6 242 248.4 253.8 259.6 266.1 274.1 283.5 296 310 325.2 340.5 358.2 377.1 395.1 410.7 426.3 440.2 453.9 466.8 481.6 494.6 504.8 511.2 517 520.1 522.1 523.1 521.4 514.3 499.2 480.5 461.8 449.5 438.1 426.5 421 414.2 413.4 417.6 424.6 432.3 447.3 457.9 461 470.6 475.8 474.1 470.5 476.8 483.9 494 506.8 517.7 523.7 517.8 508.1 501.6 489.5 486.9 475.7 496.6 518.5 541.5 568.3 588.3 606.2 621.6 636.7 650.1 660.6 669.6 674.9 674.6 668.6 657.1 641.7 631.5 623.8 616.8 626.4 633.8 641.2 649.7 658.5 659.5 650.1 637.1 624.1 608.8 597.1 587.9 574.4 530.1 493.2 449.2 406.9 380.6 365.1 346.7 325.7 307.2 282.6 265.4 253.4 243.1 235.6 230.6 225.7 219.6 218.4 216.4 212.9 207.7 201.2 195.8 191.1 184.8 183.5 180.5 177.3 173.3 172.8 172.8
266.8 261 257.3 254 251.2 248.9 246.3 245.3 244.5 243.7 243 242.3 239.9 241.4 239.4 236.8 234.9 233.3 233.4 233.1 234.4 235 232.9 230.3 229 227.7 224.4 225.6 225 224.4 222.6 221.3 218.9 218.2 218.4 218.3 217.2 216.9 218.9 219.7 217.4 218.7 217.3 215.4 213.7 212.3 211.5 211.5 211.1 210.1 206 207.5 205.7 205.8 204.2 204.5 204.5 205.5 209 207.3 209.5 209.2 214.5 218.9 220.4 223.2 226.8 231.3 231.6 231.9 230.2 231.1 231.1 231.4 234.6 236.5 240.8 240.8 249 255.6 260.7 269.1 279 288.8 301.5 316.3 331.3 346.5 363.1 381 394.8 408.9 422.1 434.7 446.4 458.3 471.9 483.6 493.2 500.4 506.7 512.3 515 515.4 512.2 504.2 488.6 469.1 452.6 441.2 431.3 419.5 413.8 410.4 411.3 417.5 424.9 431.5 448.5 456.4 462.1 465.6 469.2 467.4 462.6 467.5 472.2 485.8 497 507.4 513.3 502 488.8 481.1 470.5 465.6 483.1 502.4 520.7 539.4 565.5 582.5 597.5 613.1 626.9 639.8 649.4 660.1 668.7 670.6 667.7 657.5 642 630 620.6 613.6 619 626.1 633.3 641.6 649.1 651.5 641.3 628.1 616.7 599.8 583.7 576.3 571.1 553.5 507.2 459.3 411.4 379.7 357.2 335.4 307.6 283.6 262.6 243.7 235.1 228.7 224.5 222 219.9 214.8 211.7 210.6 207.1 202.7 197.1 190.2 185.6 179.9 178.2 177.2 176 172.8 172.8 172.8
266.4 261.1 257.3 254 250.8 248.3 246.6 245 245.1 244.4 243.6 242.8 242 239.1 238 235.7 235.3 233.2 233.5 232.4 234.9 233.1 231.7 230.1 228.8 227.5 225.9 223.9 223.4 223 221.8 220 219.3 217.5 216.9 216.8 216.3 216.2 215.9 216.2 215.1 215.7 214.6 213.9 212.5 211 210 209.6 209.1 208.1 209.5 208.9 207.7 207.2 207.8 207.5 207.5 209.2 211.1 211.5 215.2 216.2 219.9 222.1 225.6 227.8 232.9 235 234.3 232.4 231.5 232.6 235.4 233.1 236.4 240.4 246.7 251.6 251.4 259.4 265.3 272.4 283.4 294.8 306.1 321.2 337.3 351 365 378.9 390.4 402.1 413.5 425.6 436.3 447.3 459 470.1 479.7 488.2 495.9 502.2 505.7 507.8 502.6 495.7 476.7 461.1 445.7 434.5 424.3 413.7 406.4 404.3 406.3 414.3 421.6 431.1 445.8 455.6 460.6 461.1 461.8 459.4 452.1 457.4 463.1 473.1 487.1 497.5 500.1 487.4 472.1 457.3 464.8 482.5 501.5 511.4 522.5 542.2 560.7 575.8 589 602 616.5 627.5 639.9 651 661 664.8 664.5 657.4 643.6 630.3 618.6 609 612 618 626.4 633 640 641.1 631.8 618 604.9 587 571.6 563.1 525.3 517.9 490.9 445.5 404.5 368 337.7 309 281 255.2 242.2 233.9 226 220.9 218.3 216.1 214.1 210.5 203.8 204.3 202.1 198.7 193.2 184.7 179.5 175.9 175.2 173.6 172.8 172.8 172.8 172.8
266 261 256.7 253.4 250.2 248.4 246.8 245.2 244.8 244.5 243.8 243 242.6 241.7 237.9 236 237.9 235.9 234 232.4 236.3 232.3 231.2 229.8 228.5 226.8 225 222.9 222.5 221.4 220 219.5 219 216.4 215.3 215.6 215.4 215.1 214.7 214.2 214 213.6 212.5 211.6 211.2 212.6 213.2 214.2 213.8 214.3 213.2 209.5 209.2 210.8 211.7 210.7 212.6 214.4 217.6 216.5 218.5 220.5 222.9 225.8 229.1 232 240.8 239.6 237.6 233.6 235.1 235 235.8 238.5 237.8 244.8 250.8 254.8 254.3 263.3 269.3 277.2 287.8 298.2 310.1 325 338.6 350.4 363.6 375.3 385 393.1 401.3 413.4 423.4 433.1 444.9 455 464.2 473.4 482.8 490.3 496.4 499.8 496.5 487.5 468 456.1 441.2 429.4 416.9 408.9 400.3 398.4 403.7 411.3 417.5 428.5 442.4 452.1 458.8 455.7 455.2 450.1 444.1 447.9 454.4 460.5 473.3 483.8 487.1 476.2 454.7 458.4 478.8 492.5 502.8 511.9 522.9 540.9 556 568.4 581.2 590.9 603.8 616.6 629.1 639.9 651.3 658.2 659.5 654.5 643.5 631.5 617.5 606.5 605.4 611.5 619.2 624.4 630.2 629.7 620.8 605.8 589.7 573.4 560.2 549.2 509.3 470.1 436.5 405.8 370.4 338.7 323.7 278.7 259.8 245.7 233.5 226.3 220.1 214.9 213.2 210.9 208.5 205.9 202.3 195.8 196.7 192.1 188.3 181.5 174.5 172.8 172.8 172.8 172.8 172.8 172.8 172.8
266.2 260.8 256 252.9 250 248.4 246.9 245.3 244.4 243.8 243.5 242.9 242.9 241.9 237.7 235 237.7 239.1 234.6 230.2 235.7 232.5 230.7 229.5 227.9 226.3 224 222.6 221.4 221.1 218.8 217.9 217.2 216 215.5 214 215 214 213.5 213.4 213.4 214.6 214.8 213.8 213.2 214.2 216 216.4 217.3 217.3 216.4 213.7 215.1 216.7 215.7 217.2 219.2 222.4 222.3 221.6 225.9 224.1 225.5 229.4 232.7 236.6 241.9 241.3 240.4 238.7 237.2 236.6 237.7 240.4 241.1 245.9 254.4 258.8 259.9 266.8 272.3 280.6 291.2 301.1 312.7 324.2 336.1 347.1 358.3 368.3 376.1 383.2 392.2 401 410.7 419 430.1 439.6 448.3 457.7 468.5 478.6 486.9 493.6 494 483.8 465.7 450.9 437.7 423.9 412.6 403.8 395.6 394.4 400.1 408.7 414.5 427.1 441.8 448.2 454.5 450.9 447.4 442 435.6 439 445.2 451.7 462.4 470.1 475.7 465.5 442.6 460 476.5 488.1 499.1 507.9 519.5 536.4 549.6 560.9 571 581.8 592.3 604.1 617.8 629.6 640.8 648.3 650.7 647.3 638.9 628.7 617.7 604.6 593.2 601.6 610.5 617.2 622.8 618.7 607.2 589.7 573.3 559.4 546.8 536 493.2 455.3 418.6 386 353.5 323.1 293.4 269.5 253 239.6 228.3 221.9 215.5 210.9 208 205.7 203.4 201.3 199.7 194.1 189.2 185.5 182.6 175.3 172.8 172.8 172.8 172.8 172.8 172.8 172.8 172.8
264.8 259.8 254.9 252.1 250.1 248.6 247 245.2 244.2 244 243.4 242.8 242.3 241.6 237.1 234.2 233.7 233.1 231.4 229.9 231.9 233.2 230.8 228.3 226.5 225.2 224 223.1 222.1 221.1 220.7 217.8 216.6 215.5 214.8 215.6 214.7 214.9 217 215.8 213.8 215.7 215.8 216.1 216.2 215.5 217.9 219.6 220.2 220.4 219.3 218.7 220.4 222.1 220.7 221.8 224.4 228.1 226.8 227.4 228.4 227.8 229.4 233.5 237.4 239.5 241.9 244.1 241.8 240.9 240.3 240.8 242.5 245.6 249.7 254.1 256.8 263.3 262.8 269.5 276.5 285.3 295.1 303.8 313.8 323.1 333.3 344.1 351.9 359.9 367.6 375.5 384.1 391.2 400.3 406.4 417.9 427.3 436.9 446.7 459.5 472.2 480.4 490.3 491.1 481.4 465.1 452.3 438.3 422.9 408.6 397.9 391.5 390.4 397.3 404.3 412.2 425 438 443.1 447.8 443.9 441 435.6 427.8 427.5 435.8 442.5 451.9 456.1 463.8 460.4 436 456.2 468.7 480.1 491.4 500.6 513.5 529.7 542.6 552.7 561.6 570.7 581.8 593.4 605.2 618.7 629.7 637.2 640.9 638.7 631.2 622 610.6 598.6 583.4 592.8 600.6 609 614.3 605.3 592 577.6 559.6 543.4 521.3 499.8 469.8 438.1 399.8 372.7 343.5 310.1 286.9 262.4 244.8 232.1 223.7 217.4 210.9 205.4 202 200.7 199.4 197.6 193.9 191.2 184.4 181.8 177.8 174.7 172.8 172.8 172.8 172.8 172.8 172.8 172.8 172.8
264.5 259.7 254.6 251.9 250.1 248.8 247 245.1 243.9 243.8 243.7 243.1 241.4 240.1 236.1 234.5 233.9 233 230.6 229.8 230.6 231.8 230.3 228 226.1 224.8 223.6 223 222.2 221.5 219.5 218 216.8 215.6 215.3 218.9 215.6 214.9 217 217.4 216.5 218.3 219 219.3 219.2 218.4 218.1 220.2 223 223.8 223.7 224.2 226 227.3 226.6 228.9 230.4 232.4 231.1 230 229.7 229.3 233.3 238.8 240.5 243.1 246 247.5 246.1 242.9 242.7 246.5 248 251.1 256 261.7 265.3 265.7 272.2 275.9 282.4 288.4 297.2 306.3 314.8 322.6 331.8 340.5 346 352.5 359.8 367.2 375.4 382.9 392.3 399 407.9 417.5 427.4 440.7 452.5 466.2 477.7 487.2 485.9 476.2 462.4 447 431.1 417 403.7 391.4 385.7 386.5 391.6 400.2 411.8 424.8 432.8 439.5 442.5 439.1 433.9 427.4 420.9 417.4 424.7 430.1 439 445.4 450.8 452.6 433.2 447 455.4 467.4 480.8 491.9 504.9 522.2 535.5 545.8 555 563 571.9 580.8 593.4 606.6 618.9 627.5 630.6 628.2 620.6 610.6 597.9 586.4 575 582.6 591.6 600 602.2 588.5 574.2 556.7 540.9 526.7 503.8 477.4 453.4 422.1 383.6 349.9 321.4 291.6 271.6 253 238.7 225.7 218.1 211.7 206.2 201.1 198.5 193.4 193.3 191.2 186.1 183 179.2 179.1 177.6 173.4 172.8 172.8 172.8 172.8 172.8 172.8 172.8 172.8
264.3 259.8 254.4 251.4 249.1 248.3 246.9 244.9 243.7 243.6 243.5 242.8 241.2 239.4 235.5 233.4 234.5 232.4 230.8 230.3 228.8 229.8 230.8 227.6 225.7 224.4 222.9 222.6 222.3 221.9 219.4 218.2 216.9 215.7 214.6 215.9 218.2 215.7 216.9 217.8 220.3 220.8 222 222.5 222.3 221.3 219.8 224 228.5 228.8 229.6 233.1 233.5 234.1 234.3 234.9 235.2 236.5 234.1 232 233.8 232.1 233.7 235.3 238.1 246.7 251.8 253.7 250.8 246.9 247.4 249.1 253.4 257.5 263.7 268.5 272.7 270.6 274.4 280.7 286.4 292.6 299.7 308.7 315.3 321.8 327.8 336.2 341.4 347.7 354.4 359.4 367 374.2 383.7 391.4 397.9 407.4 420.8 436.4 449.6 463.6 475.4 482.3 480.7 471 457.1 440.7 424.2 412.6 399.7 389.9 382.4 384.7 386.1 394.8 407.3 421.9 430.2 435 436.7 433.1 427.6 421.2 415.3 405.6 415.9 421.6 427.2 433.9 439.7 441.7 429.2 431.6 440.2 457.7 471.4 481.8 491 509.2 528.8 540.8 550 557.9 565.8 571.5 581.6 594.8 607.3 614.9 618.3 615.9 607.8 594.6 584.1 573.5 565.2 571.8 579.7 584 589.5 574.5 551.3 531.5 515.8 496.5 481.1 460.6 453.3 410.3 375 334.4 300.3 274.5 255.1 240.6 227.3 221 212.5 206.8 201 197 193 191.2 185.1 183.8 180.4 177.8 177.1 176.4 175.1 174.3 172.8 172.8 172.8 172.8 172.8 172.8 172.8 182.2
264.4 259.4 253.5 251.7 249.7 248.1 246.3 244.4 243.1 242.3 242 241.5 240.4 238.9 235.3 232.3 232.2 231.5 231 231.7 230.8 227.7 229.2 229 224.7 223.7 221.9 221.2 220.8 220.3 219.3 218.3 217.1 215.9 215.1 215.1 216.7 217.9 217.4 218.5 221.6 223 223.8 225.7 225.8 225.4 226.1 230 233.9 235.4 238.6 241.1 241.6 241.3 241.1 240.2 238.8 239.7 236.6 233.2 234.8 235.8 237.9 242 244.8 253.9 259.2 257.1 253.1 250 251 255.6 259.7 264.7 268.9 273.6 277.7 276.6 280.5 285.2 291.8 296.9 303.7 310 314.8 320.5 323.7 331.7 336.2 341.6 349.2 352.7 358.5 366.7 376.5 382.9 387.8 402 417.3 431.8 444.2 458 468.7 475.1 472.8 464.2 451.4 435.8 419.1 407.9 395.8 387.4 379.7 380.9 385.6 391.5 405 418.2 426.9 430.4 433.3 429.3 423 416.7 408.5 395.6 408.2 413.3 417.3 423.2 426.8 428.4 420.4 429.6 451.8 469.4 484 497.7 509.7 520.7 529.3 537.6 545.5 551.6 559.4 565.6 572 584.1 594.1 601.7 604.2 601.8 592 575.8 566 560.2 555.5 561 565.6 568.4 568.8 559 538.8 521.5 508.8 490.6 470.1 448.8 452.9 400.1 368.1 328.5 286.7 260.4 241.1 230 221.8 214.6 207.4 202.9 198.3 194.3 190.2 184.3 181.6 180 178.2 175.6 175.4 173.7 172.8 172.8 172.8 172.8 172.8 172.8 172.8 172.8 184 199.2
262.8 257.6 252.8 251.5 249.3 247.7 245.8 244.5 242.7 241.9 241.5 240.6 239.5 238.4 234.8 231.9 231.2 230.5 229.9 229.9 229.6 227.2 226.3 225.3 225.3 222.4 221.3 220.1 219.9 219.7 220.9 218.8 217.6 218.2 215.7 215.6 218.5 218.7 218.9 220.1 221.6 224.3 226.6 227.4 229.2 230.6 231.9 237.4 240.6 244 247.6 249.8 249.9 248.2 246.8 245.9 245.9 243 240.5 236.4 237.6 240.9 240.1 246 251 257.8 261.2 259.2 257.6 253.6 257.7 262.5 266.1 271.9 276.3 278.3 282.8 283.7 285.3 291.5 296 301.1 307.2 312.1 315.8 319.7 323.9 329.1 332.5 335.7 343.5 347.5 355.1 363.5 369.7 373.9 384.1 398.3 411.5 425.8 437.6 449.5 459.4 464.6 463.7 456.2 444.7 428.9 415.4 404.7 396.4 384 377.2 378.3 382.9 389.1 402.9 415.5 423.4 427.1 429.2 424.6 417.4 408.8 402.4 392.3 399.9 404.2 407.6 410.8 410.5 405.2 413.1 436.1 457.9 477.7 491.5 503.7 515 525.1 531.6 535.5 541.4 548.4 554 559.4 565.1 572.7 581.1 588.4 590.4 588.2 579.8 565.4 554.3 550.7 547.8 550.6 553 554.8 549.3 544.1 524.9 504.9 497.7 478.3 457.7 436.8 415.2 382.2 342.3 305.8 271.4 248.4 234 224.2 214.9 209.2 202.9 198.8 195.3 191.1 185.5 180.3 178.1 177.6 176.2 173.8 172.8 172.8 172.8 172.8 172.8 172.8 172.8 172.8 172.8 185.3 200.4 220.3
261.3 255.4 251.8 250.1 248.2 246.8 245.5 244.2 242.9 241.5 241 240.1 238.6 237.5 236 231.8 230.2 229.4 229 229.4 229.6 229.1 228.9 227.4 225.9 222.4 221.8 220.4 219.3 219.2 219.7 223 218.8 219 216.1 215.6 219 219.1 219.9 222.1 225.2 226.9 228.4 230.9 235.2 237.4 241.1 245.7 249.4 254.8 258.3 258.5 257 255.2 253.2 253.2 249.7 245.6 243 239 240.9 243 242.5 248.7 254.5 258.8 261.4 261.3 259.8 260.8 264.1 268.6 273.1 277.5 282.2 285 287.9 290.1 288.7 294.3 298.8 304.9 310.2 314.2 317.6 321 323.8 328.2 329.1 331.9 338.7 344.4 351.6 359.6 361.1 368 376.4 392.2 404.6 418.1 430.4 440.3 448.1 453.6 452.3 446.9 437.2 424.6 412.5 403.1 394.2 383.1 378.6 372.6 379.2 386.5 399.2 410.6 418.9 422.4 423.1 418.5 411.7 402.4 395.9 388.5 389.2 395.1 398.5 397.3 390.8 406.9 426.6 445.9 464.6 482.4 495 505.4 518.2 526.5 532.8 533.9 539.4 544.1 549.1 554.1 559.4 566.7 573.9 578.6 579.9 574.6 567.5 555.1 545.2 539.7 540.1 541.3 542 543.2 536.6 530.9 513.4 488.9 474.7 459.7 446.2 431.8 394.7 358.5 322.1 286.3 258.8 238.8 226.2 217.9 210.5 205.3 200.9 195.9 190.6 185.8 181.4 177.5 175.6 174 174.5 172.8 172.8 172.8 172.8 172.8 172.8 172.8 172.8 176.7 188 204.2 222.4 247.6
260.1 254.5 250.7 249.4 247.5 246.4 244.9 243.8 242.8 241.2 240.6 239.5 237.9 236.6 234.8 231.6 230 228.5 228.2 228.7 229.6 232 228.9 228.5 225.8 222.9 221.9 220.5 219.1 218.8 218.3 220.3 220.8 217.7 216.7 216.6 219.5 221.3 222 224.3 227.4 227.1 230.7 235.7 240.8 245.2 248.7 254.2 260.6 264.9 265.6 265.1 264.2 261 258.3 260.1 253.7 247.7 244.9 246.1 241.6 247.4 249.6 252.8 253 257.7 261.9 262.4 263.1 266.9 269.8 273.6 279.4 283.5 287.3 290 291.7 294.8 297.6 302.2 304.8 308.7 312.5 315.5 318.8 321.4 323.3 325.2 328.1 330.9 335.4 340 347.1 353.1 356.8 362.4 373.3 385.8 396.7 409.3 420.2 430.4 437.7 440.1 439.9 435.3 427.5 418.2 409.7 401 391.7 383.4 377.6 368.7 375.4 382.2 395.2 406.6 412.4 417.2 417.2 412.2 405.5 398.4 391.7 383.6 380.3 383.2 379.6 393.1 404.1 420.6 437.3 454.7 473.8 486.9 498 508.9 518.6 525.9 529.6 531.6 534.4 539.3 543.4 547.2 553 560.3 565.3 569.2 570.7 567.2 561.6 553 538.1 532.5 533.9 533.2 533.5 533.6 528 519.6 496.1 477.6 463.6 444.8 436.6 407.9 368.8 338.1 303.3 270.8 245.8 230.5 221.3 213.9 207.8 202.3 196.5 192.1 186.6 182.3 178 174.4 172.8 172.8 172.8 172.8 172.8 172.8 172.8 172.8 172.8 172.8 178.1 191.3 209 226.1 248.7 281.1
259.4 253.7 249.5 248.4 246.7 246.2 244.7 243.2 241.6 240.9 240.3 239 237.4 235.8 233.5 231.5 230.1 229 227.9 226.7 231 231.9 229.5 229.1 227 223.7 221.7 220.1 218.6 218.2 217.7 217.3 218.4 217.3 215.5 218.2 220.6 221.6 223.5 225.8 229.9 230.6 236 241.4 247.1 252.9 258.4 264.7 269.5 272.3 272.6 272 270.2 266.4 266.2 264 257.5 251.7 249.2 247.7 244.7 252 253.5 257 259 261.4 263.6 264.6 267 271.2 275.4 278.3 282.8 287 291.6 294.2 297.3 300.3 303.8 307.6 310 313 314.4 317 319.3 320.6 322.3 323.8 327 329.3 333.7 337.3 340.3 343.2 349.6 356.2 364.3 377.2 386.5 397.5 408.9 418.8 424.6 426.2 427.1 422.8 417.1 410.1 403.7 396 388.8 381.6 374.3 366.7 371.1 376.8 388.1 400.1 405.8 409 409.6 405.6 399 392.9 385.3 377.1 372.4 378.7 387.7 398.4 412.9 428.7 445.9 461.4 477.3 489.1 498.2 509.5 517.8 522.8 524.5 525 527.9 533 536.2 538.8 543.5 551.3 555.6 558.5 561.5 557.3 553 544.8 533.4 526.9 528.8 529.4 528.8 528.3 524 507.6 476.6 445.9 428 417.3 401.4 375.3 344.7 324.4 289.8 261.7 240.1 226.9 218.4 210.5 204.7 199.2 192.3 186.8 181.8 177.4 174.6 172.8 172.8 172.8 172.8 172.8 172.8 172.8 172.8 172.8 172.8 181.3 193.1 213.5 233.2 253.1 277.3 304.5
258.8 252.9 248.4 247.2 245.9 245.7 244.9 242.5 241.4 240.7 240.1 238.3 236.5 235.9 234 231.6 230.5 229.4 228.3 226.9 229.3 229.8 230.5 229.4 227.7 223.7 222.9 220.1 218.3 218.5 218.5 218.1 217.6 217.3 217.8 220 221.7 223.7 226 229.3 233.1 236.7 241.6 246.8 252.7 259.8 267.3 272.8 276.8 278.9 278.5 277.6 275.3 271.9 272.3 267.7 261.5 256.7 252.7 249.4 248.2 253.2 255.2 259 261.7 263.2 263.5 267.3 271 275.3 279.6 283.7 287.3 291.3 295.6 298.4 301.7 305.2 308.7 310.9 313.2 315.9 316.2 318.5 320.2 321.5 322.3 323.3 324.9 327.5 331 334.4 336.8 337.5 341.6 349.3 357.4 366.8 375.1 385.3 396.2 406.1 411.3 414.5 415.4 411.6 407.1 401.8 396.3 390.7 384.9 379.9 371.7 364.4 365.4 371 380.7 390.8 396.5 400 400.2 398.3 392.7 387 379.2 365.8 370.9 379.8 390.9 402.3 416.9 433.7 450.2 463.9 477.4 489.6 497.9 510.3 517.1 519 518.9 518.3 520.2 523.8 527.8 529.8 533.2 539.6 544.4 547.7 548.2 544.4 540.4 531.1 525.7 521.9 523.1 525.6 526.9 526.1 519.9 491.8 463.7 425.2 399.5 385.5 373 350.8 326.4 306.9 280.1 255.2 235.8 223.8 215.8 207.3 200.5 194.8 188.6 182.5 177 172.9 172.8 172.8 172.8 172.8 172.8 172.8 172.8 172.8 172.8 173.9 187.3 197.9 213.5 239.9 264.5 280.8 305.6 334.1
257.8 251.5 247.4 246.1 245.1 244.1 244.5 241.9 241.2 240.7 239.8 237.7 236.2 235.4 232.8 231.2 230.1 229 227.9 226.6 228.5 228.9 228.8 228.5 227.3 223.7 221.8 220.8 218.4 219.1 219.6 219.5 217.8 220.1 220.8 221.8 223.5 225.7 229.3 232.9 236.5 241.9 247.2 252.3 259.2 267 273.1 278.3 282.9 283.4 282.9 282.4 279.9 278.6 277.5 272.2 265.2 260.6 256.3 252.9 251 253.7 258.2 260.6 265.1 266.7 267.4 269.6 274.5 279.1 283.7 287.9 291.8 295.5 298.6 302.4 305.8 308.6 311.5 313.2 314.6 316.5 318.2 319.3 320.3 321.2 320.8 321.2 322.1 324.7 327.5 330.7 331.4 332.8 337.3 343.8 351.6 358.8 365.1 373.1 383.8 393.6 397.9 402.2 403.3 401.7 396.7 393.8 388.7 385.9 380.8 375.5 370.2 365.4 360.2 365.9 373.5 380.3 386.1 389.2 391.9 389.3 386.5 381.8 374.7 360.9 371.2 379.9 394 405.5 418.6 434.7 450.5 464.4 477 487.1 496.3 506.6 511.6 512.3 512.5 511.9 511.4 515.7 519.1 522 525.2 529.6 531.8 531.9 531.1 530.2 524 522.2 518.5 516.6 516.7 519.6 523.7 524 506 474.1 445.4 409.2 371.8 356.7 339.9 323.8 308.9 292.1 269.2 248.2 231.5 219.4 211.5 203.8 195.2 187.9 182.8 178.2 173.8 172.8 172.8 172.8 172.8 172.8 172.8 172.8 172.8 174.4 181.5 189.2 200.1 217 254.6 275.2 288.6 310.4 328.5 346.5
256 250.2 246.6 245 244.6 242.9 242.3 241.2 241.1 240.8 239.4 237.1 235.9 235.2 232.9 230.9 229.7 228.6 227.5 226 227.8 228.6 228.2 227.1 225.5 223.4 222.1 221.1 220.1 220 220.4 220.5 220.9 221.6 223 224.1 225.4 229 233 237 240.9 246.5 252.1 257.7 264 273.1 279.1 284.2 286.5 286.9 286.7 285.7 283.3 281.5 280.7 274 269.2 264.9 260.7 256.6 255.2 255.7 260.2 260.2 266.3 269.9 270.8 272.8 277.3 281.7 287.9 292.1 295.8 298.7 301.4 305.8 308.3 310.3 313.1 314.2 315.3 316.9 318.1 318.7 319.7 319.8 319.4 319.2 320 321.2 322.8 325.9 327.4 330.8 334.9 338.3 345.6 352 357.4 363.3 370.9 380.3 386 389.4 391.1 390.2 387.2 385.3 383.4 380.6 375.7 372 367.7 361.4 353.2 358.7 366 371.8 375.4 378.3 381.2 381.1 378.6 375.2 368.5 359.5 370 379.8 393.7 404.6 418.4 435.1 449.2 461.1 474.4 484.1 493.5 503.5 506.8 507.6 504.9 503.2 506.1 508.2 511.6 512.5 515.7 519.7 521.5 520.4 519.8 516.4 515.5 516 515 514.1 512.5 514.8 520.2 522.7 498 461.1 431.1 400.5 365.9 334 312.3 294.8 285.7 272.1 254.6 239.2 225.2 213.8 205.5 196.9 188.6 183.3 178.2 173.4 172.8 172.8 172.8 172.8 172.8 172.8 172.8 172.8 175.9 182.6 192.9 206.7 224.7 265.3 299.2 304.5 311.1 328.5 346 351.5
253.3 248.8 245.2 244.3 243.8 242.6 241.4 240.5 240 239.5 239 236.7 235.5 234.9 232.8 230.5 229.6 229 227.6 226.2 228.8 228.3 227.9 228.6 225.2 223.1 222.1 220.9 220.8 220.5 221 221.2 221.8 222.4 224.2 225.6 228.3 232.3 236.2 240.1 245.1 250.7 256.8 263.4 270.4 277.4 283.2 287.3 289.3 288.6 288.8 288 285.3 282.4 280.3 275.4 272.1 266.7 263.1 260.6 258.7 258.2 261 262.5 264.6 269.8 272.5 275.6 280.8 286 290.9 294.9 298.4 301.4 304.2 307.6 309.1 311.4 313.3 314.6 315.5 316.2 317.4 318 318.1 318.1 317.8 316.5 317 316.7 318.8 321.3 323.6 327 331 334.6 340.4 345.8 349.3 354.9 360.4 367.5 374.4 377.7 378.3 378.8 378.1 377.1 377.2 374.7 371.9 368.8 364.8 358.5 351.3 352.5 357.8 361 364.6 365.9 369.8 370.6 371.1 369.3 362.7 357.3 365.4 379.7 391.3 402.9 415.8 431.9 446.2 459.3 471.6 481.2 489.9 501.1 506.2 505.5 504.7 502.2 502.3 502.1 502.4 503.5 506.5 510.4 510.1 509.7 510 508.6 508.2 508.4 508.8 509.9 508.9 510.2 515.2 519.5 494.2 455.8 420.8 390.8 347.8 321 300.4 284.3 267.3 252.3 240.5 230.9 220.3 208.6 198.9 189.4 184 177.7 173 172.8 172.8 172.8 172.8 172.8 172.8 172.8 172.8 178.5 190.4 200.7 214.7 236.4 266.8 291 309.6 319.2 328.7 342.4 348.9 356.6
251.3 247.1 243.9 243.4 243 241.9 240.6 238.7 239.2 239.2 238.8 236.2 234.8 234.3 233.3 229.7 228.4 228.8 229.4 232.3 230.2 229.6 227.9 227.3 225.1 223 221.8 221.8 221.8 221 221.4 224.3 222.7 223.3 225 226.9 231.5 235.5 239.4 243.1 248.9 254.7 261.5 268.1 274.4 281.1 286.1 288.1 289.9 288.7 289 288.8 286.2 283 279.9 277 272.8 269.1 265.5 263.2 261.3 260.9 264.3 264.8 265.9 269.4 272 276.1 282 287.8 292.4 296 299.2 302.4 305.6 307.7 309.6 311.2 312.4 313.6 314.7 315.5 316.3 316.5 316.5 316.3 314.9 313.1 313.4 312.9 315.7 317.2 321.3 323.9 326.9 331.2 336.8 340.7 344.2 347.1 352.1 356.7 361.2 365 368.4 369 370.2 370 369.9 368.4 365.3 362.3 359.9 355.6 350.5 346.5 351.2 354.9 356.6 356.4 358.4 361.5 363.5 363.8 359 354.6 363.9 376.2 389.7 400.9 413.5 428.7 443.6 456.9 468.6 476.8 487.7 499.2 504.4 507.2 507 502.7 498.5 498.4 495.7 494 495.5 498.9 500.7 500.4 502.2 503.2 504.1 505.1 505.6 506.2 505.7 504.5 506.8 510 488.5 444.6 408.5 379.3 341 311.3 289.6 274.1 257.1 244.6 232.8 222.3 212.2 200.5 191.1 183.2 179.8 174.2 172.8 172.8 172.8 172.8 172.8 172.8 172.8 172.8 182 196.8 213 228.3 250 268.5 289.5 307.4 325.4 330.8 341.7 346.4 353.4 359.7
249.2 245.8 244.1 242.9 241.9 241.1 239.9 238.6 237.4 238.2 238.3 235.7 234.1 233.7 232.9 229.4 228.6 227.7 227.7 232.3 232.3 227.9 227.9 226.9 225 222.7 222.7 222.8 222.9 221.6 222 222.9 223.6 224.2 225.7 227.8 233.7 238.5 241.1 245.7 251.6 257.6 263.9 269.6 276.3 282.2 285.4 287.6 288.6 288.7 288.7 287.1 284.8 281.9 279.2 276.9 272.2 268.6 266.4 264.4 262.1 263 266.9 266.7 270.1 271 274 278.8 283.6 288.3 292.1 295.7 299.3 302.6 304.8 307.1 308.8 309.3 310.2 311.2 312.3 313.4 314.1 314.1 314.4 313.8 312 309.5 309.3 311.4 313.5 313 315.9 318.7 322.8 327.5 332.2 334.5 338.2 341.4 344.2 348.1 351.8 354.9 357.7 360 361 362.3 363.3 362.4 360.2 357.5 354.9 350.1 345.9 336.9 343.4 347.3 348.2 347.4 348.4 350.9 353.8 356 349 356.5 364.9 375.5 388.3 400.3 411.3 424.5 439.8 455 466.4 474.6 487 497.2 504.2 507.6 506.6 501.9 497.1 491.9 489.5 483.8 486.7 490.4 493.4 493.7 495.9 500.6 503.2 504.3 503.9 503.7 501.5 500.5 500.9 501.4 477.6 442.7 399.2 365.4 336.9 303.8 282.3 262.5 250.1 237.8 225.2 213.3 200.8 190.9 182.8 177.4 174.7 173.2 172.8 172.8 172.8 172.8 172.8 172.8 174.6 188.6 203.6 219.5 236.9 256.6 275 292 307 319.1 331.8 336 344.5 352.4 357 364
247.2 244.4 242.3 241.1 240.5 240.3 239 237.3 235.9 236.2 235.9 234.4 233.7 232.4 230.6 229.5 228.9 228.2 228.5 232.3 232.3 232.1 226.2 226.8 224.4 223.4 223.2 223.9 223.8 222.5 222.6 223.4 224.4 225.5 227.5 229.5 234.4 239.1 243.5 248.2 254 259.4 264.4 269.6 275.3 280.6 282.8 284.8 285.7 285.9 285.9 283.7 281.9 280.6 278.4 275.9 271.9 267.1 266.8 265 262.7 263.4 265.8 270.2 271.5 273.1 275 278 282.8 287.6 291.6 295.3 298.9 302.2 303.6 304.6 306.7 307.5 307.9 308.6 309.3 309.4 309.4 311.5 311.9 310.9 309.4 305.4 307.5 309.1 309.5 310.3 311.7 313.5 316.6 321 325.4 328.9 332.4 336.3 338.8 340.3 343.2 346.7 349.6 351.5 354.1 354.8 356.7 355.2 353.1 350.9 348.3 345.9 343.3 337.4 336.8 339.1 341.2 339.1 339.9 337.2 335.1 339.6 354.2 361.5 367.1 375 386.6 398.5 410.1 424.2 438.5 451.9 463.5 474.2 485.9 497.1 502.9 507.4 507.8 502.1 500.1 492.8 484.9 480.6 481.8 484.9 487.1 487.7 492.1 495.9 498.3 501.5 502.6 502.8 499.6 497 495.7 491.7 468.2 428.6 395.1 352.9 320.8 294.9 272.4 256.5 242.4 229.6 215.2 202.5 191.9 184.2 178.6 176.3 172.8 172.8 173 172.8 172.8 172.8 173.2 181.2 192.6 207.9 224.9 241 258.8 283.7 300 310.3 321.4 332.9 342.6 347.1 353.7 356.8 363.5 367.9
245.2 243.1 240.5 239.4 239.2 239 238.2 235.6 234.8 236 235 234 233 231.1 230 229.2 229.1 228.4 229.8 232.3 232.3 225.4 228.2 226.6 222.3 222.8 222.9 223.1 223.8 222.7 224 224 224 226.2 229 231.6 235.2 239.6 244.7 250.6 256 260.7 264.3 268.7 274.4 278.2 280.2 281.6 282.6 283 281 280.4 278.9 277.8 276.3 274.2 270.5 266.4 266.9 265.5 263.4 263.9 265.9 268.5 270.8 272.3 274.3 278.6 283.5 287.1 290.5 293.9 296.8 300.3 302.5 302.8 302.8 303.9 304.2 304.6 305 305.4 306 307.5 309.2 308.1 305.4 304.2 303.7 306.7 306.1 305.7 306.3 307.9 311.1 315.4 318.8 321.7 326 328.3 333 335.1 338.1 340.4 343.8 345.5 346.9 348.9 350.5 349.3 347 344.8 343.1 340.9 338.4 336.6 330.9 333.6 332.5 332.2 328.8 335.6 346.1 353.6 359.3 363.3 370.5 378.8 386.8 396.5 409.9 423.3 437.9 451.3 462 473.7 486.8 496.6 503.6 509.9 511.4 514.2 510.8 499.9 484.2 477.4 472.7 475.1 480.2 482.9 488.3 492 495.8 499.7 504.1 502.6 499.5 494.7 484.6 474.2 446.8 417 380.6 347.7 315.7 285 263.7 244.7 230.1 217.6 205.4 194.9 186.9 181.6 177.6 173.7 176.2 176 173.8 173.1 172.9 176 182.9 195.4 209.9 228.9 247 266.3 287.9 307.7 321.5 331.3 337.5 349 350 357.7 360.7 362.8 367.6 370.6
242.9 241 239.1 238 237.8 237.7 236.2 233.2 233.3 235 235.9 233.5 231.6 230.6 229.7 228.9 228.1 228.7 227.8 231.5 227.5 227.6 228 227 222 222.7 222.4 227.2 222 224.1 221 222.2 223.6 226.3 229.1 231.9 235.3 240.5 245.4 251.2 256.1 260.1 263.5 267.8 272.4 275.8 277.5 278.6 279.5 279.5 277.5 276.8 275.9 274.8 273.3 271.3 268.1 265.8 266.7 264.4 264.1 263.9 267.3 268.6 270.1 271.5 273.3 277.3 282.5 285.4 287.9 291.6 294.5 297.8 299.6 300.8 300.4 300.3 300.3 300.5 301.3 302.2 302.1 304.2 306.6 306.2 304.2 302.2 301.2 303.9 304.1 303.8 303.4 304.8 307.7 309.8 313.5 316.2 317.3 322.3 327.7 330.4 333.7 334.9 337.6 338.7 340.7 342.6 343.9 343 340.6 339.5 339 335.7 334.2 332.1 325.3 328.2 326.9 326.3 321.6 338.9 347.1 354.2 358.5 365.4 373 382.2 390.9 400.7 412.9 425.7 437.3 451.3 463 474.2 489.5 499 504.7 507.8 512.9 519.8 524.4 508.6 488.7 472.4 465.8 467 473.5 477.6 483.2 488.8 493.2 499.2 503.6 502.6 501 493.5 478.8 440.1 415.9 395 368.2 332 294.2 273.6 251.2 233 219 207 197 190 184.1 179 176.9 176.8 176.8 175.3 176.7 175.1 177.3 183.2 197.5 213.8 233.6 253.8 280.1 305.1 327.1 339.1 350.2 353.3 352.3 356.2 360.3 361.6 364.7 365.5 369.8 371.5
240.5 238.4 236.8 236.5 236.5 235.7 233.3 231 230.8 231.8 233.4 232.1 231.1 230.2 229.4 228.6 227.7 228.1 227.9 226 227.3 229.2 228.5 227.9 223.7 221.9 224.5 227.3 227.3 227.3 227.3 221.8 223.4 225.9 228.3 230.7 234.4 240.5 246 251.1 255.4 258.5 261.6 265.5 270 272.7 274.4 275.3 275.7 275.7 275.3 273.5 272.8 271.9 270.5 268.8 266.9 264.7 267 264.1 264.4 262.1 261.8 267.1 268.5 270.1 272.1 276.7 280.5 283.3 285.7 288.5 291.1 293.7 295.8 297.7 297.7 297.6 297.5 297.8 298.2 298.4 299.4 300.7 302.9 304.2 303 301.9 300.7 301.2 300.7 301.1 302.4 303.5 305.1 308.4 311.4 312.4 314.3 317.1 321.7 325.7 328.4 330.1 331.6 331.5 334.7 336.3 336.3 335.9 335.1 335.1 333.8 331.9 330.6 329.2 326.7 321.6 324.8 321.4 326.5 339 346.2 353.8 358 368.4 375.5 384.4 393 402.8 414.2 427 438.6 450.8 462.2 473.4 487.1 495.8 498.7 500.7 503.6 510.7 519.9 509 486.5 473.5 465.6 464.7 469.6 474.1 479.1 484 489.8 496.6 501.5 504.6 502.2 491.1 463.8 415.8 376.8 362.7 349.4 315.8 271.2 254.2 235.5 220 209 199.9 191 186.5 182.9 178.7 177.7 178.4 177.2 178.4 178.3 178.2 186.8 197.3 216.6 237.1 265.2 301.9 327.4 347.7 367.3 374.1 371.9 368.4 366.8 364.8 366 362.8 367.1 368.7 369.9 371.7
238.1 236.3 234.9 234.5 236 233.7 231.9 230.2 229.3 230.6 231.4 231.1 230.7 229.5 228.7 227.8 227 226.8 227.6 225.4 224.6 228.2 230.6 230.7 224.8 222.1 225 227.3 227.3 227.3 227.3 223.6 225.2 225.8 227.5 230.4 233.7 240.2 245.7 249.3 253.1 256.3 260 262.9 266.9 269.6 271.1 272 271.7 271.5 271 270.2 269.6 268.9 267.7 266.5 265.3 264.8 267 267 264.1 264.5 262.2 264.4 267.5 268.9 270.9 274.7 277.5 280.2 282.2 285 287.1 289.5 292.8 294.6 294.4 294.4 294.1 294.8 295.4 296.3 296.4 297.9 299.4 300.6 302.1 300.8 298.8 298.6 298 298.3 301.4 302.4 305.3 308.2 310.3 310.6 311.8 315.1 316.6 320.5 323.1 324.5 325.4 326.1 327.4 329.3 329.7 330 329.5 329.5 329.1 327.6 325.6 325.7 322.9 316 318.3 314.2 327.9 339.1 346.5 351.8 359.3 369 375.9 385.7 395.7 406.4 416.8 427.8 439.6 451.1 461.7 469.4 481.8 489.4 494 493.8 494.4 500.7 507.5 499.5 484 472.3 464.4 462.6 463.2 467.8 473.5 479.2 484.6 492.5 498.2 501.7 500.5 478.7 444.9 394.2 353.8 321.7 302.4 279.3 253.8 235.2 220.4 209.5 199.8 193.2 188.1 184 180.8 179.9 180.2 179.3 180 180.2 183.3 190.6 202.4 222.9 246 271.9 308.1 346.6 361.3 375.6 383.7 391.8 394.8 385.8 376.7 373.9 368.8 366.9 369.3 371.1 371.2 370.9
236.4 234.6 232.9 232.2 235.3 233.6 230.2 228.4 226.3 230.4 232 230.5 230.1 229.5 227.9 227.1 226.3 226.1 226.9 225.8 224.6 225.1 226.5 228.2 224.6 221.2 220.8 227.3 220.6 227.3 225.3 222.5 224.6 225.2 226.7 229.7 233.5 238.6 243.3 247 250.1 254.4 258 260.3 264 265 267.2 268.7 268.6 268.6 267.8 266.9 266 265 264.5 263.2 262.6 267 267 267 263 262.4 261.7 262.4 264.3 268.3 269.2 271.7 274.2 276.4 279 281.3 283.3 287 290.5 291.3 291.2 290.9 289.2 289.4 291 293.5 294.7 294.9 296.7 298.7 299.3 299.7 298 296 296.5 299.4 299.1 302.3 304.6 307.1 308.3 309.9 311.8 313.6 313.6 315.8 317.8 318.6 319.6 321.7 321.8 322.8 323.9 324 324.5 323.8 323.9 322.6 321.2 321.3 319.7 313.6 315.7 312.6 327.2 338.2 345.1 350.2 357.6 367.9 377.1 387.7 398 407.6 417.3 428.1 439.7 449.8 459.1 465.9 476.8 484 487.5 488.4 487.7 491.6 493.7 489.1 482.8 472.9 465.3 461.5 459.9 464.2 469.4 476.8 482 488 492.7 494.4 493.1 458.6 403.8 364.9 334.4 305.8 277.4 254.6 238 221.9 211.1 202.7 194.3 190.6 188.4 184.8 183.1 182.3 183.4 182.6 180.6 184.5 195.4 208 223.9 247.5 276.7 319.7 349.1 376.7 385.2 395.5 408.3 415.4 410.2 398 388.2 378.7 372.8 370.2 369.6 372.2 372.5 371
233.1 232.3 230.8 230 230.2 231.4 228.5 226.6 224.8 227.7 232.2 229.8 229.4 229 228.1 226.3 225.7 225.2 228.2 228.1 225.9 224.6 225.7 227.6 224.6 220.8 218.7 220.6 225.5 221.1 221.5 222 224 225.1 226.6 229.2 232.1 236.9 240.6 242.9 247.6 252.2 255.2 257.7 259.9 261 263.4 265.4 265.1 265.4 264.6 263.6 262.7 262.2 261.7 260.6 260 259.1 260.9 264.4 263.5 261.7 260.9 263.1 265.9 265 267.5 270.2 271.9 273.6 275.8 276.6 280.3 284.7 285.8 286.9 288 288.7 287.6 287.6 288.7 289.8 291.4 292.1 294.2 296.2 297.4 298.1 296.8 294.9 297 297.5 300.5 301.9 304 307.2 308.8 309.7 311.2 311.8 311 310.9 312.7 313.2 315.3 317.3 317.5 318.3 318.9 318.2 318 318.4 318.5 317.2 317.2 318 316.8 307.7 307.5 315.5 325 334.9 342.5 349 357 366.9 376.8 387.7 398.3 408 417.1 428.2 440 449.4 456.3 461.3 470.5 476.1 480.3 481.9 481.4 486.2 489.4 492.1 485.8 475.6 466.3 460.8 457.2 459.9 465.6 472 475.6 479 480.1 476.3 446.6 431.7 380.2 345.1 312.8 285.1 261.4 237.8 221.6 209 199.4 195.1 192.9 190.1 188.5 185 185.1 186.4 186.9 185.8 190.2 199.1 210 227.7 248.1 278 321.7 359.9 388 404.1 412.8 422.6 428.9 425.8 413.3 404 393 383.9 374.9 372.3 372.8 371.9 372.5 371.6
230.7 230 227.9 227.7 228.9 229.2 227.4 225.6 224.4 226.1 228.9 228.9 228.6 228.2 227.7 225.5 224.4 224.5 227.4 227.6 226.8 225.7 225.7 227.8 224.7 220.4 218 220.2 221.8 222.4 221.9 224.1 223.4 225 226.4 228.5 231.8 235.6 238.3 241.2 245.3 250.2 253.3 255.8 257 258.8 260.7 261.8 261 262.2 261.8 261.3 260.8 260.3 259.8 258.8 257.8 257.4 259.6 262.6 263.2 259.5 259 261.4 264.3 265.3 266.9 269.6 270.2 271.1 272.5 274.4 277.7 280.3 281.8 283 283.9 284.9 285.5 285.4 285.6 286.8 287.3 289.9 291.2 293.3 295.5 296.7 296.3 295.1 295.8 298.4 299.7 301.1 303.5 307.1 308.4 309.1 310.1 309.7 309.7 309.1 308.2 308.9 310 312 313.5 314.5 313.8 314.2 314.3 314.7 314.1 313.3 313.3 315.2 312.5 303.8 308.8 317.6 325.2 333.6 342.2 347.7 354.7 366.1 376.4 387.1 397.5 407.1 417.6 428.1 438.5 446.3 451.7 459.3 467.4 471.3 475.1 475.8 477.2 482.5 487.1 490.5 488 478 468.3 461.4 456.3 458.1 458.4 461.2 464.7 463.3 458.9 434.8 394.3 364.5 332.2 307 288.3 264.5 240.2 221.9 212.8 204.7 197.8 192.6 189.6 189.4 186.2 189.9 190.4 191.1 190.3 194.8 206 219.3 233.5 255.5 275.9 312.3 350.2 383.3 427.9 433.8 430.5 433.5 427.8 420.2 415.4 408.7 396.8 384.9 378.3 375.3 373.4 372.1 371.9 372.5
228.6 227.9 226.9 226.1 228.2 227.8 225.8 224.9 224.4 223.2 225.4 226.7 227.8 226.1 226.1 224.8 223.8 222.4 225 225.8 228.7 228.2 225.4 226.1 224.6 219.8 217.2 218.2 217.9 219.2 219.4 221.8 223.1 224.6 226.2 228.2 230.4 234.2 236.9 240.1 244 248.7 252.5 253.7 254.9 256.1 257.9 258.9 259.7 260 260 259.6 259 258.5 257.9 256.8 255.4 257 256.8 256.8 256.8 257 257.7 259.1 261.8 262.3 263.1 266 267.2 268.2 269.1 270.1 274.1 277.4 278.6 279.8 280.6 281.2 281.4 282.8 283.3 284.3 285.8 288.6 289.8 291.5 293.2 295 296.1 295.3 294.3 297.4 299 301.6 303.7 305.9 307.7 308.3 308.3 307.5 307.4 307.1 306.2 305 305.9 307.2 308.3 308.5 309.1 310.5 310.4 309.6 309.5 309.7 310.3 312 303.7 306.1 311.5 318.3 325.4 333.3 341.1 347.2 353.6 364.3 374.1 385.1 395.3 406.8 417.2 425.3 435.3 443.6 449.5 457.5 465.6 470.3 471.1 470.2 472.4 478.2 483.4 485.8 484.3 476.3 466.7 458.5 455.1 448.9 449.4 451.9 450 440.7 427.9 403.2 361.1 326.7 302.3 277.1 255.7 237.4 220.4 208.3 202.2 199.2 197.5 193.6 194.4 192.2 193.4 199.2 201.9 199.1 195.8 211.1 229.3 243.4 260 289 314.6 335.8 373.1 406.3 438.7 438.5 435.6 430.3 424.4 421.7 419.4 411.8 399.3 390.7 382.4 377.4 374.3 373.2 373.4 373.1
227.7 226.6 227.7 224.6 225.3 226.5 225.4 225 223.6 221.8 223 224.8 224.9 224.8 224.6 223.7 222.1 221.4 222.1 224.3 224.8 226.9 227.4 225.8 221.9 217.8 218.2 220 219.3 222 218.9 219.6 222.6 224 225.5 227.7 230.1 232.6 235.7 239.3 243.2 247.2 250.9 251.9 253 254.3 255.7 257.4 258.4 258.7 258.4 257.9 257.4 257.2 256.9 256.4 254.9 254.5 255 255 256.1 257.2 257.6 258.3 259.3 260.5 262.7 263.7 264.6 264.7 265.6 268.2 270.2 272.6 274.7 276.1 277.6 278.6 278.2 279.7 280.9 282.7 284.1 287.2 288.8 290.6 292.5 294.4 295.6 293.9 295 297.3 299.3 301.4 302.9 304.9 306.4 306.4 305.5 303.4 303.6 304.9 303.9 301.4 302.1 303 303 303.1 304 305.2 305.5 306.3 305.8 305.5 307.8 308.5 300.9 304.6 311.1 318.4 325.7 333.7 339.9 345.7 351.4 361.5 372.1 383.9 395.4 407 416.4 426.9 435.5 442.7 446.8 456.3 463.5 467.8 469.1 468.5 467.4 472.1 478.6 482.2 481.4 475.7 463.8 462.6 458.8 442.5 435.6 439.3 434.7 413.4 381.4 359.1 341.9 298.2 274.1 254.4 233.6 218 205.9 198.3 197.1 195.7 196 196.9 205.4 210.9 214.7 217.3 207.9 200 212.1 228 254.8 277.8 296.1 325.8 358.9 388.2 410.4 433.7 443.3 438.7 435.5 431.1 425.9 421.1 419.1 412.6 406.8 394.3 385 379 375.8 374.5 374.1 375.7
227.3 225.7 224.6 223.6 223.4 223.7 225.3 225.1 222.6 221.9 222.9 223.7 223.4 223.6 223.6 223.3 221.4 220.2 219 221.7 223 223.2 222.6 222.8 221 216.9 217.9 220.8 217.2 222.2 222.2 222.2 222 223.3 224.8 227.3 229.1 231.2 234.5 238.9 242.8 245.8 248.8 250.3 251.5 252.7 254.2 255.8 257.1 257.2 256.7 256.4 256.5 256.3 256 255.8 254.4 253.2 254 255.3 255.6 257.6 257.3 257.9 258.6 259.1 260.1 261.1 262 263 262.9 265.2 266.7 269.2 269.3 272.5 274 275.3 275.4 276.6 278.9 279.2 283.4 286.3 288.4 290.3 291.9 293.8 294.8 294 295.3 297.2 299.1 300.6 302.2 303.9 304.4 304.1 301.8 299.4 299.8 301.5 300.7 299.5 298.8 300.1 300 299.4 300.6 301.8 301.9 300.7 299.4 300.5 303.5 296.9 297.3 302.8 307.1 317.4 324.3 332.7 339.5 345.7 351.3 359.5 370.2 382.2 393.7 403.5 414.6 425.2 433.1 441.6 446.1 455.6 462.1 465.9 466.9 466 464.3 468.1 473.8 476.6 477.1 469.7 460.6 456.3 452.2 432.3 420.7 424.3 417.2 392.4 355 329.3 302.4 273.6 255.7 238.6 218.2 204.9 201.1 199.9 198.9 197.9 208.6 220.3 229.4 245.9 254.2 239.7 216.9 209.4 237.5 253 283.9 312.7 328.1 360.9 396.9 428.5 443.5 443.5 442.6 440.2 437.2 433 427.4 422.8 419.7 418.1 409.6 397.1 387.7 382 379.7 378.7 377.8 377.2
226 224.2 224.5 222.2 222.3 222.1 222.9 221.9 220.7 221.8 222.4 222 222.2 222.4 222.5 223 221.3 219.4 217.1 218.3 221.4 220.6 219.3 218.8 217.8 216.4 217.4 220.5 216.9 218.2 222 222.2 222.4 222.6 224.2 226.2 227.8 229.7 233.9 238.2 241.5 244.4 247.2 248.6 249.9 251.2 253.1 254.3 255.7 255.6 255.1 255.3 255.7 255.4 255.2 255 254 253.1 253.8 255.4 255.9 256 256.2 256.8 257.1 257.2 257.6 258.5 259.4 260.4 259.8 261.3 264 265.5 267.9 269.8 270.7 270.6 273.3 273.9 277 279 282.9 285.6 288.3 290.6 292.9 294.5 294.4 293.8 295.6 296.7 298.1 299.7 301.2 301.6 302.3 301.1 299.2 295 296.3 297.8 297.2 296.3 295.4 297.1 296.9 296.1 297.6 298 298.1 296.3 295.4 296.6 294.5 295.1 301.9 306 309.5 317.3 325 332.3 340.2 345.1 350.1 356.7 365.5 377 387.8 398.4 410.5 421.9 431.3 439.5 444.6 453.6 458.6 462.3 464.1 462.7 461.4 466.3 469 470.3 471.6 464.7 455.9 445.8 438.5 426.8 409.3 411 398.9 374.8 326.7 294.7 274 256.4 242.5 228.8 214.1 206 205.7 207.4 211.9 220.6 237.5 256.9 307.3 314 286.5 236.9 238.4 278 285 324.3 342 349.7 370 393.3 420.6 445.3 449.9 448.6 448.7 445.9 441.3 435.1 430 426.9 426 420.1 408.9 399 390.4 386.1 384.4 381.9 379.7 381.1
225.8 225.3 222.6 223.1 221.3 220.6 220.7 220.3 219.7 221.1 221.1 221.3 221.5 221.5 221.4 220.7 222 219.3 217.3 215.4 216.5 218.9 218.3 218.3 217.1 215.9 215.8 216.7 216.8 217.6 220.2 222.2 222.4 222.5 223.4 224.9 226.7 229 232.3 236.4 240.1 242.8 245.5 246.9 247.8 250 252.6 253.6 254.4 254 253.6 254.1 254.7 254.6 254.4 254 252.6 253.3 253.8 254.8 255.1 254.7 254.7 254.7 254.5 255.1 255.1 254 255.4 256.8 256.2 259.4 261.2 264.1 266.5 267.6 268.2 269.3 271.9 273.5 276.5 279.2 282.1 285 287.8 290.4 292.7 293.6 292.1 294 294.8 296 297.1 298.5 298.7 298.6 299.2 297.8 296 293 292 293.1 292.5 292.2 292.2 293 292.2 291.5 293 293.9 294.4 294 293.5 293.6 293.3 298.8 303.5 307.6 311.4 317.1 326.3 332.3 338.7 344.6 348 355.7 362.4 371.6 381.7 393.3 405.9 417.5 428.6 436.9 441.3 451.1 455.1 457.1 459 459.2 459.1 461.8 463.5 464.7 466.8 466.4 449.2 432.5 426.9 409.7 390.5 389 379.4 349.3 307.4 276.9 262 247.6 234.1 223.9 219.6 215.5 218.5 233.4 245.9 273.3 293.8 343.2 330.5 323.1 269.9 244.8 319.7 332.7 342.8 365 377.1 392.2 405.4 429.6 441 449 452 453.4 452.5 448.9 443.5 439.1 434.4 430 428.8 420.3 409.3 400 396.3 395.6 392.4 385.2 383.4 386.6
225.2 224.2 222.7 219.1 219.4 219 219.3 219.5 219.8 220.2 220.4 220.5 220.6 220.9 219.4 219.3 222.3 223.4 216.7 215.1 215 216.5 217.5 218 216.9 215.7 215.7 216.8 216.9 217.3 219.2 220.7 221.2 221.7 222.8 224.1 225.8 228 230.8 235 238.3 241.1 243.9 245.3 246.4 248.9 249.8 251.3 252.8 252.3 252.4 253 253.6 253.8 253.7 252.8 251.4 251.2 253 253.4 252.8 252.5 252.4 252.2 250.8 252.3 252.9 253.7 254.2 253 254.7 256.5 258.7 261.8 264.1 265.8 266.3 267.2 269.8 272.4 274.9 278.4 281.6 283.9 286.6 287.8 291.5 292.1 290.8 293 294 294.9 295.7 296.4 296.5 296.5 296.3 295.4 294.4 292.6 288.1 289.9 289.4 289 288.6 288.1 287.5 288 288.4 289.4 291.2 291.3 289.1 290.5 293.8 299.4 303 306.4 311.3 316.3 325.5 332.4 338.7 342.2 346.7 352 359.9 369.5 379 388.9 402.2 413.9 424.2 432.7 438.4 448 451.8 452.8 452 453.3 453.8 456.1 456.2 456.8 456.7 453.6 432.2 422.6 407.2 391.9 373.7 377.1 366.2 330.3 295.7 273.9 260.1 249.6 241.6 236.3 233 237.3 242 257.2 280.5 322.7 354.2 380.1 352.2 311.1 276.8 305.4 353.5 368 378.4 390.2 398.6 412.5 425.8 434.7 440.2 445.8 451 451.7 451.9 450.5 448.3 444.4 439.5 435 427.4 422.1 413.1 407.4 407.3 403 397.1 392.3 390.3 389.7
225.9 224.6 223.3 220.6 217.5 217.5 217.9 218.3 217.5 218.5 218.9 219 219.4 219.3 218.6 218.2 219 224.4 222.3 215.3 214 216.2 216.5 217.8 217.7 216.2 215.9 216.9 217.1 217.4 221.2 221 220.6 221.1 222.2 223.1 225 227.1 229.6 233.5 236.5 239.3 242.3 244.3 245.4 247.4 249 250 251.1 251.5 251.9 252.6 253.2 253.6 253.5 252.9 252 250.6 251.2 251.4 250.7 250.2 249.1 248.6 248.2 247.9 249.7 251.3 251.9 250.7 252.5 255.8 258 259.9 260.7 263.1 264.3 266.2 267.7 271.3 273.7 277.1 280.1 283.7 285.5 287.3 288.8 290.1 286.6 292.1 292 292.3 292.9 293.8 293.9 293.9 294.1 294 292.9 290.4 286.9 285.2 287.4 286.9 285.1 283.6 283.7 283.9 285.4 286.5 287.3 287.4 288.1 293.7 296.4 299.2 302.7 307.1 312.1 317.2 325.1 330.9 336.6 341.6 345.7 352.3 360.6 368.6 377.6 386.2 398.3 410.9 421 427.1 433.4 443.1 446.6 446.2 443.7 445.2 447.3 448.2 447.7 446.9 447.3 443.3 423.4 406 388.4 368.3 359.7 361.5 358.8 318.9 294.6 276.9 282.9 263.2 257.6 254.4 259.7 282.7 294.8 293 307.6 334.9 382.1 383 363.5 353 339 299 323 370.5 380.6 390.6 403.3 416.2 424.2 433 442.7 445.6 449.8 452.7 453.4 451 449.3 448 444.3 439.6 434.5 427.1 417.2 414.9 413.7 407.2 404 398.9 395.1 396.4
224.7 222.8 221.9 223.2 218.5 216.4 216.8 217.1 215.4 216.4 217.5 217.8 218.7 217.9 217.9 217.6 217.1 218.7 222.9 220.1 214.6 213.8 214.7 217.4 219.2 220.7 215.3 217.1 217.3 218.1 220.6 221.1 222 220.6 221.1 222 224.1 225.9 229.3 232.1 234.6 237.4 240.9 243.2 244.7 247.2 248.2 249.3 250.4 251.1 251.6 252.2 252.8 253.3 253.3 252.7 251.6 249.8 248.5 249.2 248.5 247.6 246.8 245.6 245.2 243.4 246.2 248.9 249.7 250 251.1 253 256 257.7 259.4 259.3 263 264.9 266.1 269.5 272.2 275.3 279.3 281.6 283.4 284.8 286.2 287.7 285.7 289.4 289.6 289.7 289.5 290.3 290.3 290 290.8 291.1 291.2 288.2 285.1 284.6 285.3 285 283 279.9 280.6 281.8 282.6 284.4 283.2 286 290.8 292.7 295.5 299.4 303.4 307.3 311.4 317.5 325 332.2 337.3 340.5 344.5 351.4 360.6 367.3 375.2 383.6 395.2 405.7 415.5 421.8 427.5 436 439 437.8 435.1 434.7 437.8 439.8 438.8 437.6 437.4 444.2 425.3 387 369.4 359.1 349.3 346.2 342.3 329 305.4 293 301.9 289.2 280.9 283.1 316.7 334.8 330.7 341.8 344.3 393.5 394 386.6 385 387.9 379.4 370.2 374.3 377.9 387.2 394.4 403.5 415 425.2 442.2 452.6 454.2 453.7 452.5 454.1 450.7 450.6 448.6 446.2 442.5 437.6 431.2 423.9 421.7 417.8 413.4 408.5 403.9 401.1 403.8
224.3 220.8 217.4 218.8 220.2 215.4 215.7 215.7 215.5 213.9 216.3 217.2 217.6 217.3 217.2 217 216.3 215.6 215.2 215.6 219.3 213 214 215.7 216.5 216.6 214.4 216.9 216.7 217.5 219.6 219.5 220.6 220.4 220.3 221.1 222.8 225.4 228 230.5 233.1 235.6 238.6 241.8 243.6 246.1 247.7 248.8 249.5 250.5 250.5 250.3 252.4 253 253.1 252.2 250.9 249.2 248.2 246 244.3 243.8 243.4 243.1 243.1 242.8 243.9 245.7 247.4 247.6 250.4 251.6 253.8 255.5 256.7 258.2 260.9 262.9 264.6 267.4 270.1 273.1 276.7 279.3 281.4 282.6 283.7 285 285.5 286.6 285.8 285.4 285.7 286.6 286.9 286.9 287.3 287.3 287.1 284.7 282.3 283.3 283.6 283 280.5 277.8 279.6 280.9 279.5 281.3 282.7 288 290.5 292.8 295.8 298.4 302.1 305.9 310 316.8 324.8 331.4 335.7 338.9 343.6 350.2 357.6 363.7 371 380.6 392.5 401.4 410.7 416.4 420 427 430.2 429.5 427.9 424.8 425.3 429.4 427.5 427.5 427.2 431.1 416.8 377.1 359.4 350.6 343.1 337.3 333.5 324.4 313 314.8 314.3 312.4 319 331.7 378.4 378.8 377.4 380.9 390.1 389.4 387.6 381.5 376.7 374.8 371.4 369.8 371.1 378.5 386 393.5 404 416 433.2 450 458.8 462.1 458.7 456.4 453.1 450.2 450.5 450.2 447.2 446 443 439.7 434.9 428 420.1 416.1 410.3 407.8 408.1 409
224.8 221.9 218.2 215.6 219.3 217.7 214.3 214.3 214.6 213.5 215.3 216.5 216.6 216.6 216.6 216.6 217.3 214.5 214.3 214.7 218.2 215.7 213.3 214.6 215.1 215.1 214.4 215 215.9 218.1 220.8 220 219.8 219.8 219 220.1 221.4 223.8 226.3 228.9 231.5 234 236.6 238.6 241.7 244.9 247.1 247.9 248.9 249.7 249.4 249.1 249.8 252.4 252.4 250.7 249.9 248.6 245.4 244.3 241.6 242 241.7 240.6 240.5 240.2 242.2 242.5 244.9 246.9 249.1 250.3 251.7 253.6 254 256.3 258.7 261 262.8 265.4 268.5 271.8 274 276.6 278.7 280 281.4 280.7 283.5 283.4 281.2 281.2 281.9 281.4 282.4 283.2 283.4 283.3 283.1 281.6 279.7 281.6 282 280.6 277.9 277.4 279.4 279 278.6 281.7 284.7 287.2 289.7 292.2 294.5 297.1 300.9 305.7 310.3 314.7 323.9 328.4 332.2 337 342.9 348 354.4 360.5 368.5 378.3 389.2 397.8 405.8 410 412.9 416.8 419.5 419 417.4 415.9 413.8 413.9 415.3 412.2 411.1 418.8 399.3 366.1 347.8 342.6 337.8 334.3 332.1 331.5 324.9 327.3 336.7 341.7 359.2 380.8 392.4 389.3 387.7 384.1 384 384 382.6 378.7 374.2 373.3 372.7 369.9 371.9 374.7 384.7 394.9 405.2 420.5 440.4 450.4 459.7 462.5 458.9 456.7 455.1 454.1 452.1 451.4 454.5 453.9 450.5 447.2 438.8 431.7 423.8 415.3 412 411.6 411.6 412
224.5 220.9 217.6 215.6 214.6 216.3 216 213.1 212.5 213.4 215 215.8 215.5 215.2 215.6 219.7 215.7 213.2 213.4 214 216.2 218.8 212.5 213.3 214.1 215.2 214.3 214.1 215.2 217.9 221.8 221.8 221.3 219.4 218.4 219.1 220.3 221.9 224.4 227 229.5 232.1 234.2 236 241.4 244 245.9 246.4 247.9 248.5 248.3 248 247.7 250 250.3 247.8 246.1 246.8 244.2 242.5 239.9 238.9 239.7 239.4 237.9 237.3 239.9 242.5 243.6 246 247.9 249.2 250.2 251.3 251.4 254.6 256.5 258.7 261 263.7 266.9 270.1 272.1 274 275.9 277.1 277.3 279.6 279.5 278.4 277.9 277.9 277.9 277.7 278 279.1 279.7 280.2 280.1 279.5 277.9 279.5 279.8 279.3 277.1 277.3 277.9 276 277.9 282.1 284.2 285.9 287.3 289.2 291.9 296 299.7 304.8 310 313.5 318.1 323.2 327.7 333.4 339.9 347.1 352.9 358.9 366.5 372.9 383.6 394.3 400 403.9 406.4 405.4 404.8 403.7 402.3 401.3 397.8 399.1 405.5 407.2 397.8 383.4 370.8 358.2 344.1 343.7 345.3 345.3 342.8 345.2 338 358 379.6 381.7 396.2 398.1 394 389.8 385.5 384 384 389.4 385.5 381.3 376.4 377.1 380.4 376.5 370.9 376.9 391 398.7 407.3 424.8 441 449.7 457.2 461.6 462 459.5 459.1 457.7 454.7 456.6 459.5 460.1 456 447.7 439.3 431.8 424.7 414.9 414.4 413.8 414.2 413
224.1 220.5 216.8 215 213.8 212.9 212.6 212.6 210.8 212.1 215.1 214.5 214.2 214.1 214.3 218.7 215.7 213.4 213.2 213.6 213.7 219.5 217.7 211.6 217.5 215.7 214.6 213.7 214.9 216.7 219.6 218.7 219.7 219 218.9 218.1 219.2 220.7 222.5 225.1 227.6 230.2 231.6 235 240.1 242.4 243.6 244.1 246.3 246.2 246.2 245.9 245.6 246.6 247.4 245.8 243.9 242.8 241.1 239.3 237.6 235.4 237.3 237.1 236.1 238.8 240.3 242.1 243.7 245.2 246.8 248.2 249 249.7 250.9 252.7 254.6 256.9 259.2 260.2 263.5 267.4 269.6 271.6 272.6 273.5 270.8 275.6 275.8 275.6 275.4 273.9 274.1 275 275.4 275.8 276 276.6 277.1 277.1 275.7 277.4 277.7 277.2 276.1 275 274.8 275.9 279.4 281.2 282.8 284.2 284.7 286.8 290.7 293.3 298.8 303.9 308.2 310.9 314.7 318 322.6 331 337.4 343.6 349.9 355.8 362.2 368.4 380 389.4 392 393.4 394.5 393.4 391.4 386.8 383.8 384.3 381.1 381.9 388.2 388.4 385.3 368 354.1 344.1 344.7 346.6 350 352.6 358.1 354.4 360.8 383.9 390.5 396.5 401.6 403.8 393.2 388 386.7 384.2 391.2 394.7 386 379.7 389 393.4 390.1 385.6 376.3 382.2 395.4 400.6 410.3 427.1 445.2 452.9 462.2 467.7 468.1 466 462.5 459.8 458.9 459.3 461.1 460.9 456.3 447.8 438.5 430.6 424.7 416 414.7 413.6 414.5 414.1
223.6 220.2 216.2 214.5 214.1 211.5 211.5 212.4 212.8 210.5 213.2 213.2 213.2 213.3 213.4 215 216.2 213.6 213 213.1 213.2 212.8 214.6 211.9 214.6 216.2 213.6 214.5 215.3 216.3 217.4 217.7 217.8 217.2 217.4 217.2 218.2 219.4 221.3 223.1 225.7 227.7 228.6 232.9 238.4 239.4 240.7 242.3 243.1 243.3 243.5 243.5 243.6 243.9 244.4 243.5 242 241 239.4 236.4 235.1 232.6 234.2 234.8 233.9 237 239.3 241.7 243.4 244.4 245.8 247.2 247.7 247.9 249 251.1 253 255.1 256.3 257.3 260.5 264.8 266.6 268.1 269 269.7 269.2 271.2 271.7 272.1 272.6 272.1 272.4 273.2 272.7 272.3 272.3 272.7 273.3 273.9 274.4 275.7 275.8 275.8 275.2 271.6 273.4 276.8 278.4 279.7 281.1 282.4 283.7 285.6 287.3 290.6 294.8 299.7 303.5 306.2 311 316.9 322.4 328.2 334.1 340.2 345.8 351.3 359.6 365.3 377.2 383.9 385.6 386.5 383.6 380.3 376.8 371.4 365.7 364.9 362.5 362.4 367.8 370.4 374.2 361.2 347.3 338 340.5 344.1 351.7 356.8 361.9 364.7 379.9 388.6 390.3 392.9 395.9 397.7 389.9 389 388.2 390.1 395.6 393.7 385.7 394.3 398 398.9 395.8 386.6 376.3 388.4 398.5 403.4 414.3 430.4 445.9 460 472.1 474 475.3 472.6 466.8 465.2 463.8 461.8 460.9 459.8 456.1 448 441.9 431.4 422.1 414.3 413 413.1 414 413.9
223.1 219.4 215.4 215 212 210.7 210.7 211.2 211.3 209.5 211 212 212.7 212.7 212.9 212.5 215.8 214.8 212.7 212.8 212 211.2 210.8 211.5 214.2 216.7 214.6 213 214.6 216.6 216.5 217.2 218.2 217.4 216.6 216.4 217.4 218.3 219.5 221.8 223.8 224.6 226.2 229.9 235.3 236.9 237.8 239.2 240.7 241 241.2 241.4 240.5 240.4 241.6 240.1 240.1 237.9 235.8 233.9 233.5 231.5 232 232.4 232.9 236 238.4 240.8 242.6 243 244.4 245.2 245.7 245.2 247.5 249.4 251.4 252.9 253.9 254.9 256.5 260.9 262.9 264.5 265.4 262.8 267.8 268.6 269.6 270.2 270.7 270.6 269.6 270.1 269.1 268.5 268.9 269.7 270.7 271.5 272.5 273.6 274.1 274.2 272.8 271 273.8 275.7 277 278.1 279.3 280.3 281 283.4 285.5 287.5 290 295.3 298.4 302.2 308.7 314.8 320.6 325.4 330.3 334.7 339.9 346 354.9 361.1 371.4 376.1 376.7 375.6 371.9 365.8 364.9 359.5 353.5 352 349 347.7 350.5 351.8 355.2 352.7 328.3 325.1 330.6 340.8 348.1 355.5 361.3 370.2 380.7 385.8 388.5 390.7 387.2 387.6 388.5 388.7 389.3 393.8 396.3 393.9 396.1 403.7 403.1 396 387.5 380.3 383.6 393.7 399.6 406.8 417.7 430.5 442.3 460.6 473.3 477.6 478 473.4 473.9 472.3 471.6 472.5 467.2 456.2 452.5 448.9 440.6 429.6 418 411.3 410.1 412.4 413.1 412.9
221.9 218.8 214.5 214.7 211.3 209.8 208.9 209.6 208.5 208.9 211 211 211.6 212.2 212.3 209.5 210.7 215.6 213.7 212.4 210.8 209.9 212.4 212.5 214.6 216.4 213.9 212.8 213.9 215.1 214.9 217.9 217.2 217.7 216.9 215 216.8 217.4 217.9 218.7 220.9 223.4 225.2 227.1 232.2 234.7 235.9 236.8 237.9 238.4 238 238.5 237.6 237.1 238.2 237 236.2 235.5 233.4 231.9 231.9 231.6 231.2 231.5 232.6 234.9 237.2 239.5 241.4 241.7 242.3 243 243.3 243.8 246.2 248 249.7 251.2 251.7 252.8 254.4 256.8 258.5 260.9 262.1 264 264.6 266.3 267.7 268.3 269.2 269 268.4 266.3 265.6 265.3 265.7 266.4 267.9 266.8 269.8 271.1 273.1 273.2 271.1 269.3 272.3 274.3 275.7 277 278.1 278.3 279.8 281.9 283.4 285 287.2 290.8 294.1 299.2 305.4 310.8 315.8 321.4 326 330.4 334.9 340.9 349.2 355.5 361.4 364.9 364.7 362 357.9 350.6 348.9 346.3 340.7 335.8 335.3 332.7 332.5 329.3 326.3 322.4 314 312.2 321.8 337.1 349.5 357 364.2 371.6 380.8 385.2 386.4 386.4 384.1 385 385.6 383.8 387.6 391.5 394.4 400 400.5 398.7 398.4 392.3 381.4 377.8 386 393.2 400.2 409.7 421.3 433.3 445.5 460.8 477.8 483.6 482.1 480.4 480.9 481.6 482 479.4 469.1 459.1 450.5 443.3 435.9 424.7 415 409.8 408 409.7 411 410.7
220.7 218 214 213.2 210.6 209 207.9 207.6 207.1 209.2 209.8 210.8 211.8 211.9 214.6 211.9 209.1 208.6 209.6 212 209.9 211.2 212.5 213.9 215.2 215.2 214.8 217.5 212 212.9 220.7 212.8 215.1 216.6 216 214.7 216.2 216.8 217.4 218 219 221.4 222.9 225.1 229.5 232.5 232.8 233.7 234.3 236 235.5 235.1 234.8 234.6 236.2 235.1 233.4 232.3 231.7 230.1 229.9 229.1 230.7 229.7 231.7 233.7 235.9 238.3 240.2 240.2 239.9 240.6 241.4 242.5 244.4 246.2 248.1 249.5 250 250.6 251.5 252.6 254.6 257.6 256.8 261.8 262.4 264.1 265.7 266.6 267.7 267.5 266.6 265 264.2 263.9 264.5 263.9 263.5 265.5 267.5 268.6 271 271.6 268.3 267.8 271.8 273.3 274.5 275.8 277.1 276.1 278.7 280 281.6 283.8 285.9 287.8 291.3 295.7 300.8 305.9 310.9 316.5 321 324.4 330.5 337.8 345 349.2 352.5 353.1 352.9 350.7 346.1 338.8 335.4 333.3 327.9 319.5 318 313.4 311 306.8 301.9 302.4 308.8 313.8 322.2 339.2 352.5 364.4 372.3 380.3 386.3 387.7 388 388.6 388.9 386.6 384 382.6 381.6 382.4 389.2 393.9 392.4 389.8 386.7 379.4 378.9 382.5 388.2 392.9 401.2 413 424.7 439.5 449.3 469.1 481.2 485.7 485.5 486.1 487.5 489.3 490 483.2 474.3 465.7 454.8 444 433.6 423 411.1 405.1 405.4 407 408.2 407.5
219.7 216.9 213.9 211.6 209.6 208.8 207.6 207.1 207 208.3 208.8 209.3 212.2 210.5 210.3 211.3 213 209.5 207.9 209.4 209 211.3 211.9 214.4 214.6 214.6 215 215.9 215.4 211.4 220.7 220.7 213.2 214.5 215 214 215.4 216.3 216.9 217.4 218 219.5 220 222.7 226.4 229.4 229.7 230.6 231.3 232.2 233 233.3 233.4 233.1 233.5 232.5 231.5 230.9 230.3 228.9 227.4 227.4 229 230.9 232.3 233.4 234.9 237 238.9 238.7 238.3 238 238.1 241.2 243.1 245 247 248.4 249.2 249.6 250.4 250.6 252.1 255.3 258.3 259.3 260.3 262.2 264.1 265.1 265.9 266 264.8 263.7 262.8 262.4 262.3 262.9 262.1 262.9 264.2 267.1 268.6 269.8 269.5 268.8 270.9 272.1 273.3 274.5 275.8 275.4 276.9 278.2 280.4 282.8 284.9 286.6 288.3 293.1 296.7 301.1 305.7 309.9 315.6 319.2 326.4 332.9 339.3 343.1 345.7 345.1 344 341.1 334.1 326.8 321.4 317.7 310.8 303.1 302.6 300.5 298 297.7 295 299.5 309.8 318.1 328.2 346.2 361.6 371.9 379.9 392 391.9 392.1 394.5 397.2 395.7 391 389 386.5 382.3 380.1 380.1 384.3 383.6 383.9 380.1 377.9 381.5 385.4 388.6 392.9 402 415.6 428.3 443.6 455.8 471.5 480.6 484.8 486.2 490.9 494 495.6 493.4 485.7 478.9 469.7 459.8 453.2 436.9 420.5 407.4 403.2 402.3 403 403.8 403.1
216.8 214.6 212.7 210.2 209.5 208.7 208 206.9 206.1 206.9 209.5 210.1 214.3 210.5 209.8 209.3 209.2 208.2 206.7 208.4 207.7 210.5 211.2 212.2 213.9 214.3 214.8 215.5 215.5 211.1 219.2 213.8 220.7 215.7 214.7 213.7 214.6 215.5 216.1 216.7 217.3 217.8 218.6 220.7 223 225.1 225.8 227.6 229 230.3 230.4 231.3 232 232.5 232.6 231.5 230.5 229.9 229.3 228.4 227.1 229.2 230.1 231 231.9 233.5 235.1 236.6 237.9 238.1 237.8 237.5 237.2 239.8 242.5 244.4 245.9 247.3 248.5 248.8 248.1 249.4 251.2 253.5 255.9 257.7 258.7 259.5 262 263.3 263.6 263.7 262.6 262.1 261.4 261 260.1 260.6 258.7 261.3 262.8 265.4 267.1 268.7 267.3 265.9 269.7 270.9 272 273.2 274.4 274.4 275.2 276.8 279.3 281.7 283.6 285.1 286.8 290.5 294.1 297.7 300.5 305.7 310 315.1 321.2 327.1 332 335.3 337.2 336.6 334.8 330.4 323.8 317.2 306.9 299.4 294.7 295.5 295.4 294.9 293.5 293 297.4 304.7 319.9 329.8 339.3 357.4 371 378.6 393.5 397.8 394.3 397.3 400.2 399.2 398 394.1 395.2 391.8 382.9 380.1 380.1 380.1 380.1 380.1 380.1 379.9 382.2 386.1 389.2 392.5 403.2 418.9 434 445.4 458.7 471.3 479.5 483.8 487 493.2 498.1 499.4 496.2 489.6 479.8 472.4 464.5 452.7 438.1 414.7 405.4 401.1 398.8 399.1 398.9 399.5
215.2 212.3 213.2 210.6 209.2 209.1 208.8 206.6 205.3 206.3 206 207.4 211 210.4 209.6 208.7 208.4 207.1 205.5 207.1 207.9 210.1 210.6 211.7 213.4 214.7 215.3 215.4 217.1 208.3 211.1 213.8 218.7 212.9 214.1 213.7 213.4 214.6 215.1 215.6 216.2 216.6 216.5 217.5 220.5 221.3 222.6 225.2 226.3 226.6 227.5 229.4 230.1 230.8 231 230.4 229.7 229.5 228.7 227.2 226.5 228.4 229.8 230.7 231.7 232.9 234.3 235.8 237 237.5 238 238.1 236.5 239.2 242 243.4 244.8 246.3 247.1 246.1 248.8 249.2 250.6 252.5 254.8 256.2 257.2 258 258.7 260.6 260.6 260.4 259.9 259.1 258.8 258.6 257.7 258.5 259.4 260.6 261.6 263.4 265.3 267.1 263.1 264.8 267.1 269.8 271 272 273.1 272.9 274.3 276.2 277.9 280.3 281.5 282 284.6 289.2 292.1 294.5 297.8 302.7 306.8 310.9 316.5 320.9 325.1 326.9 328.1 327 324.4 321.8 316.8 310.1 298.7 293 290.3 291.1 291.1 291 294.8 299.1 305.8 314.1 329 339.3 354.6 369.9 378.9 394.4 401.8 399.7 396.5 401.7 402.7 401.3 398.1 394.6 395.3 393.5 381.4 380.1 380.1 380.1 380.1 380.1 379.1 381.2 383.7 387.4 390.5 394.2 404.4 420.8 435 449.8 464.5 474.1 479.6 484.9 488 489.7 496.5 497.4 495.7 489.8 482.5 476.9 466.3 451 426.5 411.5 403.9 399.4 397.8 396.5 397.6 397.5
213.2 209.9 211 211.2 209.5 209.5 209.2 207.3 205.3 205.7 204.3 205.4 209.2 210.9 209.4 209.4 207.7 206 204.4 208.8 210.1 210.4 210.9 211.6 213.7 215.2 214.8 215 217.6 215.6 209 212.1 214.2 213.8 213.8 213.7 212.1 213.4 213.8 214 215.1 216 213.4 214.5 217.3 218.7 220.2 221.7 224.1 224.2 226.1 227.5 228.3 229.1 229.3 229.3 229.1 229 227.6 226.1 228 227.9 229 230.3 231.2 232.2 233.5 234.9 236.2 236.7 236.8 235.8 238.4 240 241.5 242.8 244 245.2 245.7 244.4 247.8 248.7 248.8 251.3 252.5 254.1 255.7 255.7 256.7 255.9 256.9 255.4 256.1 256.4 256.3 255.6 255.5 256.5 256.3 258.8 260.4 262.4 263.9 265.3 262.2 264.7 267.2 268.5 269.8 270.8 271.8 273.2 274.1 275.6 277.3 278.6 279.6 281.3 282.8 286.4 290.3 292.5 295 298.8 303.1 307.3 311.7 315.6 318 319.9 321.9 321.4 319.6 316.4 310.6 302.1 293.9 288.9 289.1 288.8 292.5 296.3 301.1 308.1 318.1 326.5 338.2 351.3 362.9 375.1 390.1 403.7 404.8 403.9 400.4 403 404.3 403.1 397.9 386.1 379.9 381.1 380.1 380.1 380.1 380.1 380.1 380.1 378.9 382.2 385.7 388.6 392.5 397.7 406.2 423.3 437.5 454.6 467.3 475.2 480.8 484.4 487.8 487.1 490 491.1 491.8 487.8 482.4 473.9 460 437.4 420.2 408.2 402 398.2 397.8 395 395.8 395.9
212.1 208.6 207.7 208.9 210.2 208.7 208.3 207.7 206.6 205.8 203.3 203.2 207.1 213.8 208.4 211.2 208.2 205.9 204.4 207.5 210.9 211.3 211.4 211.6 215.9 215.6 214.6 214.4 214.2 215.8 211.6 209.8 214 213.1 212.8 212.8 212.4 210.1 212.3 212.4 212.5 213.1 213.3 217.2 216.1 218.7 219.4 220.3 222 222.5 223.2 225.6 226.5 227.5 227.7 228.3 228.8 228.7 227.8 227.1 227.6 228.8 229.4 229.9 230.9 232 233.1 234.5 234.7 234.8 233.7 235.5 238.2 239.7 241 242.3 243 243.2 242.6 242.7 246.2 247.8 246.9 247.1 248.4 249.7 248.6 249.4 248.9 249.2 250.4 251.5 252.9 253 254.7 253.9 254.3 255.2 256.7 257.4 259.2 260.2 262.2 261.1 262.3 264.6 265 266.3 268.1 269.4 270.5 271.8 272.7 274.3 276.3 276.6 278.7 280.1 281.5 282.9 285.5 287.9 291.2 294.8 298.9 301 306 309.4 312 312.4 312.3 312.1 311.1 306.5 299.8 292.8 289.1 287.6 289.4 291.1 296.1 300 307.3 315.3 325 334.8 347.8 358.5 369.9 383.2 396.3 406.2 409.7 408.7 405.4 408.6 410.5 408.6 402.3 382.7 380.1 380.1 380.1 380.1 380.1 380.1 380.1 380.1 381.6 386.3 387.5 390.8 393.1 400.2 411.6 425.7 441.7 456.3 469.5 476.7 484.1 486.8 488.3 487.6 487.4 485.1 486.3 484.2 480.8 472.3 454.4 434.4 419.4 409.6 400.9 398.4 396.7 393.7 393.8 394.9
211 208.4 206.4 207.9 210.7 209.8 207.6 207 207.1 210.1 205.8 202.5 205.2 206.8 206.3 207.7 207.9 206.5 205.2 206.1 207.9 210.1 210.5 213.3 217.7 216.8 214.5 214 214 214.8 213.9 209.9 213.6 212.4 212.2 212.2 211.8 210.2 210.2 211.1 211.6 212.4 215.5 216.8 216.3 216.9 216.8 217.2 219.6 220.2 220.7 223.3 224.2 225.5 226.6 227.4 227.9 228.4 228.1 225.2 225.8 226.6 226.9 227.2 227.2 227.3 228.3 232 231.9 230.9 231.9 236 236.3 239 240.6 241.6 237.1 236.9 238.5 239.2 240.8 243.3 243.9 244.7 243.2 244.5 246.1 247 251.3 255.6 256.3 256 257.2 257.4 257.4 255.8 258.8 258.3 259.2 259.2 260 260.3 261.5 260.8 261.6 262.1 264.3 265.8 263.5 265.6 269.4 270.4 271.9 273.3 274.1 276.6 278.2 279.4 280.6 281.8 283.1 286 287.2 290.4 293.3 293.7 297.7 301 302.3 303.2 302.5 300.7 297.9 296.2 292.3 288 287.2 291.1 292.9 295.5 298.6 305.5 313.4 321.9 330.2 340 351.6 362.8 374.7 388 402.1 411.8 413.4 415.7 418.5 419.9 420.3 415.1 399.1 386.5 380.7 380.1 380.1 380.1 380.1 380.1 380.1 380.1 385 388.3 392.2 394.6 396.1 402 414.1 432.5 449.7 461.5 474.1 483.4 489 491.2 492.1 491.4 486.6 484.6 482.7 481.6 479.1 468.7 451.7 435 419.6 407.5 402.9 399.2 395.5 394.2 394 392.4
208.9 206.9 205.7 206.5 207.4 208.5 207.2 205.5 204.4 207.7 207.8 204 203.1 206 206.9 205.9 203.8 203.3 203.8 205.4 206.3 208 210.5 214 216.4 217.8 213.9 213.9 213.9 214 213.2 208 212 211.9 211.1 210.3 209.4 209.5 213.5 213.9 213.7 215.8 217.5 218.6 219.3 219.8 219 219 223.2 223.1 224.4 221.1 220.2 223.2 226.4 226.4 227 227.6 227.3 225.5 225.1 225.4 225.9 228.3 229 229.8 230.3 228.7 230.7 231.3 232.8 232.5 232.7 233.2 235.8 236 236.4 237.5 238.3 239.4 239.8 241.4 242.4 244.3 250.3 255 257.2 258.4 259.7 261.9 262.5 263.1 263.1 263.5 262.4 262.9 262 262 262.7 265 264.3 265.2 266.3 266.8 267 267.3 267.8 267.9 267.5 264.5 268.2 268.1 271.6 272.8 273.7 275.4 276.9 278.1 279.3 279.9 282.4 283.8 284.5 286.1 287.9 290.1 292.3 293.1 293.7 293.9 292.3 290.5 289.6 291.3 288.7 285.2 289.9 293.7 296.3 298.1 303 309.7 317 324.3 332.6 342.9 354.9 367.3 379.5 391.8 405.1 414.1 420.7 429.5 441.2 447.7 440.7 419.6 400.7 389.2 382.9 380.1 380.1 380.1 380.1 380.1 380.1 382.3 388.7 394 396.8 394.9 398.7 406.4 421.8 442.2 456.9 467 476.6 488.7 495.1 496.9 497 497 490.5 485.5 484.7 483.2 478.3 469.8 452.2 432.8 415.7 408.3 403.1 398 395.1 394.4 393.4 391.6
207.6 205.8 205.1 205.1 205.3 205.7 205.3 205.3 207.7 208.8 209.1 206.9 202.3 204.7 210.4 206.4 203 206.7 203.1 205.2 206 206.7 210.6 213.3 216.5 216.8 213.6 213.2 213.7 214.2 213.8 207.6 210.2 211 208.9 208.8 208.6 210.3 214.7 215.2 215.1 217.3 218.5 219.6 220.6 221.1 223.1 224.1 225.1 226.4 226.4 226.5 226.6 222.4 222.2 223.1 226.4 227 224.3 228 226.7 226.8 227.5 229.5 230.7 231.4 232 231.2 230 232.2 233.5 233.3 234.3 235.1 234.2 236.9 238.8 239.8 242.1 243.4 246.8 245.4 248 254.3 257.5 258.8 260.1 262.1 264.5 266.2 266.9 268 268.9 268.8 268.6 268.8 268.8 268.3 268.5 268.5 269.2 269 269.4 269.9 269.6 269.8 270 269.1 268.4 267.7 267 268.4 271.5 272.3 273.2 274.2 275.9 276.8 278 279.5 281.1 282.4 283.4 284.2 285.2 288.6 289.9 290.2 288.9 288.7 286.3 285.5 285.6 285.7 284.6 285.9 290.6 294.6 298.3 301.5 306.5 312.7 318.8 325.8 334.2 345.3 357.6 369.4 382.7 395.3 406.7 416.4 426.3 440 454.8 461.8 460.4 444.6 416.1 396.1 387 380.1 380.1 380.1 380.1 380.1 380.5 387.8 395.2 403.6 399.9 396 401.2 412 429.6 446.9 460 469.9 478.8 490.2 496.4 499.9 500.1 498.6 494.2 488.8 487.7 485.8 481.2 468.5 450.9 426.9 415.6 407.8 401.5 397.9 395.5 394.3 392.9 391.6
206.8 205.8 205.2 204.9 204.7 204.8 204.8 205.1 208.4 208.8 206.2 210.2 202.1 202.8 206.5 208.5 204.1 205.9 202.6 204.5 205.5 205.9 210 212 213.6 218.4 214.3 212.7 211.5 211.8 212.5 209.5 208.7 207.7 207.2 208 210.3 213.9 215.7 216.7 216.8 218.3 219.4 220.6 221.7 222.9 225 226.4 227.3 227.9 227.4 227.2 227.1 226.5 226.1 222.2 224.3 224 226.8 228.1 228.6 228.5 229.3 230.1 230.5 231.6 232.8 234.1 235.1 236.1 236 237.1 238.4 239.2 239.5 240.4 242.4 243.6 244.4 246.4 249.2 252 254.5 257.1 260 261.9 263.6 267 269.3 270.7 271.4 272.3 274.4 274.5 273.8 274.2 274.7 275 274.2 273.6 273.8 272.1 272.5 272.3 272.3 272.3 271.4 270.2 269.4 266.6 267.6 268.8 271 271.8 272.7 273.6 275 275.7 276.7 278.2 279.2 280.3 281.6 282.8 284.5 287 286.3 286.5 283.8 282.3 281.8 282.2 283.4 283.6 284.2 284.5 289.3 293.5 297.3 302.7 308.7 315.6 322.5 331.4 341.3 351.4 362.3 373.3 385.3 397.2 407.6 417.1 432.8 447.5 459.7 466.8 468.7 458.2 439.8 412.6 395.2 381.1 380.1 380.1 380.1 380.7 388.6 400.7 408.3 408.1 401.8 400.4 404.2 417 432.2 449 461.7 470.3 478.3 489.3 497.1 499.7 499.9 498 494.6 490.9 490.6 487.4 481.6 461.2 439.9 426.9 415.2 407 400.1 398.4 396.5 394.4 393.4 392.1
206.3 205.9 205.3 204.7 204.4 203.9 203.9 204.2 205.7 208.8 208.8 207.3 202.6 202 202.6 206.2 205.7 205.4 203.9 202.4 205.7 204.8 207.3 208.9 210.2 213.8 212 211.2 210.5 208 209.9 211.8 206.3 205.8 207.6 211.1 212.1 213.6 215.9 217 218.1 219.3 220.4 221.6 222.7 225.2 228.5 228.9 229.1 229.7 228.7 227.8 227.5 226.7 226 222.9 223.2 226.3 227.5 228.1 228.5 228.7 229.1 229.9 230.6 231.9 233.4 234.5 235.7 236.5 237.4 238.3 239.6 240.7 241.4 243 244.3 245.4 246.3 249.1 251.9 254.7 258 260.4 262.9 265.5 268.4 271.7 273.6 274.8 275.6 276.7 280 279.9 279.9 280.2 280.6 281 281.4 280.2 278.9 276.1 276.3 275.6 275 274.5 273 271.8 270 268.5 266.6 268.2 270.5 271.4 272.2 273.1 274.1 274.2 274.1 274.3 275.6 274.9 276.5 278.3 279.6 279.5 279.3 277.6 278.9 278.8 281.3 280.9 280.8 280.7 281.5 285.9 291.7 296.3 301.2 307.4 311.4 317.4 325.8 337.3 347 355.5 365.5 376.4 386.4 397 407.2 420.7 433.3 444.3 454.2 459.1 462 459 448.6 430.6 401.6 381.2 380.1 380.1 379.4 386.1 404.4 416 414.8 413 408.5 401.6 406.2 419.8 433.6 447.6 459 466.9 474.7 486.6 495.3 497.8 498.4 495.9 492.7 492 491.2 484.5 468.3 448.8 437.7 424.9 415.1 405.9 401.5 398.4 396 394.1 392.9 393.3
206.1 205.8 205.4 207 204.4 203.2 203 203.1 203.7 206.1 208.8 208.7 206.7 202 201.9 207.2 205.1 204.7 203 202 208.8 208.8 208.2 208.4 210.4 212.6 210.7 210.7 209.3 206.7 208.2 210.7 209.6 205.4 208.5 211.1 212.6 214.1 215.9 217.2 218.2 220.5 222.1 223.2 225.6 228.2 231.5 231.9 233.1 233 231.3 230.4 228.5 227.6 226.7 225.6 225.7 224.3 226.5 228.1 228.4 228.8 229.3 229.7 231 232.5 233.9 235.1 236.3 237.1 238 239.3 240.7 241.9 243.3 244.6 245.8 246.9 249.1 251.9 254.7 258.1 261.5 264 267.2 270.4 273.8 277.4 279.2 280.4 280.2 280.7 284.4 286.8 286.8 287 287.3 287.8 286.9 285.7 284.6 281.7 279.7 278.5 276.9 276.6 275 273.4 271.6 269.7 268.5 267.1 268.5 270.8 271.7 272.4 272.9 272.3 269.8 270.9 271.1 272.3 273.2 273.7 279.9 282.1 284.3 284.2 282.2 282.9 281.1 281.7 282.9 285 287.9 290.2 295.5 300.4 307.1 313 318.1 322.5 332.3 339.1 350.8 357.5 366.4 377.7 390.1 399.6 408.9 419.9 428.9 435.7 442.7 446.7 451 453 447.5 424.7 396.2 385 381.1 384.3 387.4 401 430.4 433.2 428.3 419.5 410.1 405.6 411.3 422.7 434.2 446.5 457.5 466 473.4 482.1 490.7 494.1 494.1 491.4 490.6 489.6 483.2 473.5 454.7 443.2 433.4 424.2 414.9 407.1 400.5 398.5 396.7 394.6 395.1 395.3
205.8 205.5 205.2 206.5 205.9 204.3 203 202.4 202 204.1 207.2 204.2 206.7 205.4 201.6 201.7 206.2 205.8 203 203 208.8 208.8 205.1 207.9 207.7 208.5 209.2 209.5 209 207.2 209.3 207.7 208.5 204.8 205.4 210.7 212.1 213.9 215.7 217.3 218.4 220.8 223.3 225.7 227.7 230.9 234.4 235.7 236.8 237 234 232.2 230 228.9 228.2 227.9 227.4 226.8 225.9 227.6 228.4 228.6 228.8 228.4 229.7 232.8 234.5 235.7 236.9 237.7 238.6 240.2 241.7 243 244.6 247 247.8 248.9 251.7 254.6 258.3 261.8 265.4 268.9 272.3 275.8 279.9 284.2 286.7 287.6 287.2 288.2 291.7 294.2 293.6 293.7 294.5 295.1 294.9 293 289.6 287.1 284.1 281 278.4 278.6 277.3 275.4 273.1 270.8 268.5 265.9 266.7 268.5 269.3 270.5 271.4 270 273.1 273.9 275.7 277.3 279.8 284.8 289.2 291.7 293.4 292.4 290.2 289.8 287.9 287.2 287.1 289.3 293.5 295.7 299.1 303.8 310.1 316.8 324.1 330.9 335.9 344 352.4 360.4 372.5 382.6 391.6 402.5 411.1 419.6 425.4 430.7 433 433.9 439.9 441.3 431.1 411.1 400.8 388.9 385.6 389.7 403.9 419.9 435.1 439.5 431.7 419.2 410.3 413.1 415.3 425.5 435.9 447.8 458.9 465.6 471.1 478.1 483.7 489 489.7 489.7 486.4 483 476.4 464 448.8 438.4 430.6 421 413.1 406.1 403.8 401 399.2 398.4 397.4 397.6
205.5 205.2 204.8 204.8 205.3 206.4 205 202.9 201.5 201.5 201.4 201.5 205.9 206.3 202.3 201.7 202 204.9 203.2 201.9 208.8 206 208.8 206.6 206.8 207.3 207.1 207.7 207 205.9 209.1 207.4 208 205.5 204.8 210.8 212.1 213.6 215.1 216.8 218.8 221.7 224.5 227.5 230.4 234 237.5 239.9 239.6 239.8 237.9 234.8 231.6 230.2 229.7 229.2 229 228.8 227.8 227.3 227.5 227.8 228 228.4 231.1 232.9 234.9 236.2 237.5 238.4 239.4 241.1 242.8 244 245.8 248.3 250.4 251.4 253.7 258.1 262.5 266.5 270.1 274.3 277.8 281.3 285.7 290.9 294 295.2 296.5 298.5 301.6 303.9 304.4 304.5 304.1 303.3 302.2 300.5 297.5 293.1 288.6 284.5 281 279 277.8 275.5 273.3 271.4 269.1 268.5 269.3 269.8 270 269.7 270 273.2 275.3 275.7 278.3 282.3 287.1 293 298.5 301.1 301.2 300.5 298.4 297 297.5 298.3 297 297.6 300.5 303.2 306.4 310 315 318.8 325.4 334 342 346.8 358.4 368.3 376.6 385.7 396.1 406.1 412.9 416.5 417.4 422.2 422.3 424.9 428.8 426.1 417.8 412.3 404.9 388.8 390.2 399.1 421.6 442 444.6 438.1 430.7 419.7 419.3 421.9 421.6 428.6 437 447.7 458.2 465.8 471.6 476.4 481.2 485 488.8 486.4 483 479.6 471.9 458.3 446.4 438.2 429 419.7 415.4 410.9 408 406.5 403.6 402 400.7 403.1
205.2 204.8 204.4 204.2 203.9 205.9 206 202.9 201.6 205.4 200.7 200.9 201.9 205.3 203.9 201.4 201.9 202.8 204.2 202.4 207 202.4 206.2 203.4 205.8 205.9 206.4 205.7 205.7 204.5 205.1 205.9 203.9 206.3 207.3 209.8 212.2 213.8 215.5 217.2 219.9 222.9 225.7 228.8 233.3 237.4 240.9 243.6 243.9 241.6 238.5 236.1 233.4 231.7 231.2 230.7 230.2 229.9 229.1 228.8 228.5 228.4 228.5 229.3 230.9 233.1 234.7 236.8 238 239 240.4 242.1 243.8 245.1 247.1 249.6 252.1 254 257.1 261.7 266.2 270.7 274.8 279 283.2 287.1 292.3 297.5 301.5 304.4 307.8 310.8 312.7 313.8 314.7 315 314.3 313.2 310.1 307.9 304.5 299.9 294.5 288.9 283.9 279.8 277.1 275.4 273.3 271.4 269.4 269 270 270.6 270.8 271.2 272.3 275.6 277.1 278.5 282.2 287 291.3 297.5 302.4 306.3 306.3 306.4 305.1 305.3 307.8 308 306.8 306.7 310.9 313.2 314.7 317.1 319.1 327.6 332.2 341.3 344.3 353.9 362.2 375.5 383.7 391.7 399.3 407.3 410.7 414.2 417.6 417.4 418.3 428 426.3 418.5 416 410.6 399.2 393.4 392.9 413.8 437 453.9 446.9 436.6 430.1 422.2 423.8 429.5 429.4 431.2 439 448.4 457.3 465.2 469.5 473.4 478.1 482.1 483 482.4 481.6 479 468.6 455.5 446.8 437.6 428.8 424.9 419.6 416.8 413.8 412.3 409.2 407.5 407.6 409.4
206.4 204.8 204.4 204 203.3 205.6 205.9 202.2 200.5 201.1 200.5 201.7 200.9 203.1 204.3 202.2 202.3 203.2 203.6 202.7 201.8 203.7 207.4 202.4 204.1 205 206.1 204.7 204.8 205 203.3 203.9 199.6 204.4 207.7 211 212.5 214.2 215.8 217.9 221 224 227 230.7 235.5 240.2 243.6 246 247.3 244.5 241.2 237.3 235.4 233.5 232.6 232.1 231.6 231.1 230.6 230.3 230.1 230.1 230.1 230.2 230.6 233.3 234.9 236.6 238.6 239.6 241.3 243 244.7 246.1 248.3 250.8 253.4 257.1 260.6 265.2 269.7 274.3 278.9 283.6 287.9 292.4 297.6 302.9 308.1 311.7 315.2 319.6 321.9 322.6 323.4 323.7 322.5 320.9 318.1 314.5 310.5 304.9 300.3 295.2 289.9 283.2 277.6 273.9 272.4 270.6 268.7 269.2 270.5 271.2 271.5 272 274.2 277 279.8 280.8 284.4 287.7 291.7 296 301.2 305.7 309.6 310.9 310.6 312.3 314.1 313.9 315 316.9 318.8 320.8 322.8 325.1 327.6 334.5 340.8 345 353.6 363.6 375.3 384.8 394.1 405.7 412.7 419.7 423.1 422 418.6 409.8 423.6 428.9 423.7 415.4 411.4 404.5 399.9 397.9 401.7 424.9 446.7 458.2 446.4 434.6 429 427.7 430.9 434.3 434.3 436.4 442.5 446.8 453.6 459.9 467 470.9 474.3 476.2 479.9 482.2 483.9 479.8 465.2 453.9 445 438.3 431.4 429.4 424.9 423.5 423.3 419.4 416.3 415.2 415.9 419.4
207.6 205.7 204.7 204.1 203.4 205.4 206.6 203.7 201.6 200.5 200.5 202.6 201.1 201.6 203.1 205.1 200.9 203.3 203.2 202.7 201.5 202.5 202.8 202.6 202.7 203.9 204.5 202.9 202.7 203.2 202.2 200.3 203.9 208.1 208.4 211 213 214.6 216.2 219 222 224.7 229.5 232.7 237.2 241.7 245.1 247.6 248.7 246.1 242.4 238.5 236.6 235.5 234 233.5 233 232.5 232.5 232.4 232.4 232.3 232.4 232.4 231.6 233.5 235.1 236.2 238.8 240.5 242.2 243.9 245.6 247.2 249.6 252.8 256.6 260.3 264.1 268.7 273.4 278.1 282.7 287.1 291.9 296.7 302.6 307.6 313.5 317.8 322.4 326.8 329.9 331 331.5 331.3 330 327.5 325.2 321.2 318.4 313.2 307.1 301.6 295.3 287.4 280 273.4 269.8 269.5 268.5 270.2 270.9 271.8 272.3 273.7 276.1 279 281.4 283.4 286 288.6 291.3 295.4 301.2 306.2 311.6 313.7 315.2 318.5 319.8 322.1 323.6 324.2 326.3 328.3 330 332.2 335.4 341.2 346.4 355 364.6 377.2 389.2 404.4 417.8 425.8 427.5 427.3 428.1 424.6 415.9 406.6 414.7 415.8 412.4 409.6 405 402.7 397.9 399.3 412.8 433.1 451.4 458.2 443.7 433.8 429.5 428.4 435 438.6 437.3 437.7 442.3 448.3 453 457.5 463.3 469.2 471.9 473.5 477 481.6 481.4 475.5 462.8 456.8 451 442.1 437 434.3 433.6 432.7 431.3 427.9 426.7 424.9 427.5 430.2
