ncols 200
nrows 82
xllcorner 270000
yllcorner 341600
cellsize 50
214.3 215.7 220.2 221.2 219.7 219.7 217.6 212.7 203.9 203.1 206.3 217.9 239.3 253.5 266.1 269.3 270.3 276.7 283 292.9 308.9 322.6 336.4 355.4 361.4 362.6 361.9 370.5 378.4 382.8 383.5 391.5 399.3 410.3 416.3 420.3 417.6 420.2 424.1 433.9 449.5 464.6 482 490.3 494.7 506.1 520.1 550.5 576.9 593 590.8 585.9 580.3 567.2 583.8 597.9 601.7 585.3 590.6 602.1 594.4 563.7 544.7 535.1 529.2 515.4 505.2 503.1 498.9 499.1 488.4 469.5 466.8 462.9 458.3 452.8 447.6 442 435.2 429.3 414.6 414.6 416 416.1 417.7 425.3 433.8 437.5 447.5 457.5 465.5 471 475.8 481.3 488.9 497.5 505.5 513.5 517.8 518.1 527.5 534.3 539.2 536.8 529.9 523 511.3 497 490.2 487.9 487.3 483.5 478.5 474.7 471.8 469.3 465.6 461.4 453.9 449.2 439.7 433.6 427.9 424 424 412.6 408 416.1 417 409.4 407 417 423 428 431.9 432.2 433.9 437 438.7 443 444.4 448.6 450.4 452.5 454 454.5 455.6 458 460.6 461.7 460.9 457.9 457.1 457.1 457.9 455.9 452.8 452.8 461.5 461.8 457.6 457.3 454.3 453.6 456.2 462.7 465.2 466.9 470.3 473.8 476.9 485.8 480.9 481.7 485.3 477.6 466.8 455.4 446.2 437.4 433.6 431.2 427.3 428.6 427.9 424.8 429.2 432.9 439.6 444.9 450 455.6 457.9 457.8 460.5 455 450.2 447.5 444.7 442
214.9 216 219.3 219.4 217.5 217.3 214.7 209.8 199.8 195.9 198.9 211 236 241.1 259.3 264.8 260.8 271 278.3 289.4 312.1 319.1 332.4 346.2 352.8 354.2 361.3 367.5 381 383.1 384.7 392.8 394.3 406.6 413.8 421.6 417.7 421.8 423.2 447.1 455.8 470.7 484.6 491.7 500.9 520.8 544.8 567.6 582 596.8 600.8 578.8 571 555.8 550.6 552 554 537.2 585.3 597.9 586.3 554.2 538.3 527.7 522.9 511.5 499.1 496.4 495.5 489.1 478.3 473.7 472.4 472.6 459.9 455.3 450.9 447.4 439.8 432.5 426.4 414.6 420 420.3 422.2 428 434.8 442.7 450.6 465.2 473 473.8 475.9 479.7 487.9 502.6 510.3 515.7 522 520.7 527.3 539.9 539.5 535.6 526.4 520.1 506.7 499 497.1 500 497.3 492.9 484.8 478.3 473 470.6 465.2 460.8 454 442.5 435.9 430.8 426.9 428.4 422 418.4 421.6 420.4 421.1 417.2 413.3 419.6 426.4 430.9 434.2 435.6 436.6 438.2 440.7 443.4 446.3 447.7 449.7 452.1 453.3 452.9 453.3 453.4 456.2 457.6 456.3 455.9 456.2 456.2 457.6 455.4 450.4 455.6 458.3 459.5 454.6 455 456.1 449.7 455.8 463.5 465.5 467.5 471.8 473.8 475.9 479 478.3 480.9 485.4 477.6 466.9 455.8 444.4 436.5 432.5 430.4 428.4 424.2 423.7 426 429.8 436.4 442.1 447.8 453.5 458 457.9 456.9 456 452.2 448.6 446.3 444.1 441.5
219.6 218.5 219.3 224.6 219.9 217.8 216.6 207.5 195.2 190 194.2 202.1 222.7 232.1 247.2 249.7 255.7 269.9 275.2 290.1 310.3 318.1 327 336 341.9 349.4 355.8 363.1 368.4 375.3 385.3 389.7 394.5 405.8 408.9 417.2 412.2 416.8 428.7 447.8 460.1 462.5 473.1 494.5 519.5 554 563.6 576 588.2 601.8 608.8 595.4 568.6 560.1 546.9 532.4 536.1 530.9 580.1 596.2 574.1 527.8 532 519.7 512.7 511.6 494.3 493.9 492.3 487.4 481.7 476.4 476 467.8 464 458.9 453.6 450.5 445.5 439.1 430.6 430.5 427.8 429.3 433 434.6 437 447 452.6 465.6 472 473.3 475.4 479.1 489.4 501.7 510.5 516.9 520.6 519.9 533.8 542.9 542.1 535 525.4 517.2 507.6 502.4 504.9 505.3 505 495.8 489 480.9 474.7 472.2 466 460.8 453.3 444.1 433.9 432.6 435.2 430.7 429.8 429.8 429.6 426.6 427 426.1 416.4 422.9 428.8 433 435.2 435.6 438.1 440.6 442.5 444.4 446 447.5 449 451.3 451.9 451.5 451.4 451.7 452.3 452.9 453.7 454.1 454.4 455.1 452.8 449.3 448 448.7 451.9 452.5 453.3 453.1 451.2 449.5 455.6 462.9 465.1 469.4 472.1 473.8 475.9 476.5 477.1 480.9 484.3 477.5 468.8 455.6 440.6 434.7 431.2 429 427.6 426 422.3 426.8 432 441.6 444.9 449.6 455.3 458.1 457.3 454.8 453.3 450.5 447.4 445.4 444 443
208.7 202.4 204.1 205.3 206.2 204.1 210.9 206.4 188.6 188 194.3 203.7 221 229.8 236.5 242.4 248.6 266.6 272.9 301.8 312.1 315.6 329.8 333.3 341.5 350.1 352.6 355.5 367.6 382.1 381.2 393.7 394.8 397.6 404.3 402.9 403.9 411.2 427.8 449.8 468.6 475 479.1 509.2 535 561.9 567.1 591.8 601 610.4 600 578.5 559.8 546.4 539.7 536.9 536.6 544 587.7 591.4 561.2 527.1 511.5 511.4 510.7 511.8 489.2 491 490.7 486.7 482.5 480.3 480.8 478.1 469.7 464.3 457.3 451.1 447.8 443.2 442 439.2 438.5 439.1 437.4 439.8 441.8 451.5 458.6 465.8 470.7 472.6 477.2 486.6 493.4 505.1 508.4 520.2 519.4 518.3 535.4 539.1 544.9 532.6 523.6 515 510.1 508.5 503.1 503 501 493.4 487.4 479.7 474.9 472.3 464.4 457.4 448.8 442.1 435.5 439.5 438.9 438.2 437.5 434.7 433.3 430.5 429.8 430.5 421.1 427.1 430.9 434.1 435.2 435.8 438.6 440.8 442.5 444.2 445.7 447.2 449.4 451 451.1 450.1 450.1 450.4 451.2 452.2 452.4 452.4 452.6 452.1 448.6 446.7 446.1 446.6 450 451.2 451.2 451.6 446.4 450.6 455.5 460.4 464.4 469.9 471.1 473.8 476 476.1 476.7 482.6 482.9 476.5 467 451.8 439 434 430.2 427.2 426.1 424.9 422.3 427.8 436.8 444.3 446.5 449.6 456.1 458.1 456.9 454.3 451 448.9 446.9 445.3 444.2 442
184.5 183.7 184 190 179.5 190.5 196.3 187.7 183.8 189.8 196.4 210.5 222.7 229.4 234.9 237 246.3 262.5 273.3 291.1 307.1 319.9 327.7 331.6 341 347.1 346.5 356.5 362.6 374.4 386.9 394.7 396.1 394.4 398.1 402.6 410.4 412.1 433.9 456.2 468.7 485.2 493.4 508.5 522.1 544.3 572 593.2 604.4 589.9 571.7 558.6 555.9 547.5 540.2 540.5 559.8 582.8 593.2 575.6 546 524.6 512.5 511 510.8 499.6 481.9 490.2 493.6 480.2 474.9 473.2 484.8 481.3 476.5 469.4 462 454.4 451.3 448.1 446 444.2 444.3 446.1 442.9 444.3 447.4 451.6 460.1 466.8 471.2 472.7 481 488.9 501.3 505.9 513.6 515.9 515 526.3 538.3 544.8 538.8 531.5 523 516.2 509.6 507.2 507.1 499.7 494.8 488.3 484.3 477.8 474.2 471.5 462.8 451.5 443.1 436.8 440.5 442.5 443.1 444.8 440.9 437 438.2 434.2 432.8 432.1 423.7 432.1 434 434.9 434.9 436 438.2 440.6 442.4 444.2 446 447.8 449.4 450.6 449.7 448.9 449 450.5 450.8 450.8 451 450.9 450.6 449.5 447.1 445.2 444.1 444.6 447.9 449.2 448.6 449.8 445.5 451.1 456.3 460 463.5 467.7 470.6 474.5 476.5 475.6 475.9 483.4 483.1 474.5 461.5 447.4 439 433.7 429.5 425.3 423.7 422.6 423 428.7 441.4 445.9 447.7 450.6 457.3 458 456.5 453.6 451.5 449 446.8 445.2 442.8 441
169.1 169.7 166.8 163.5 164.3 176.4 177.5 179.4 182.1 188.4 196.1 205.9 219.3 228.2 237.2 235.6 239.2 250 273.5 292.9 304.7 317.5 323 330.5 332.6 342.6 355.1 362.3 366.4 375.6 387.3 395 394.4 396.8 397.7 401.2 411.2 418 436.7 442.4 462 480.7 494.2 504.3 527.1 536.2 563.5 585.4 595.3 587.8 572.4 568.5 579.1 586.7 573 583.7 590.5 593.3 584 561.6 530.1 527.8 525.4 508.4 507.2 485.6 471.7 492.7 493.5 478.3 473.7 471.4 473.4 477.4 478.9 475 466.5 457.9 455 452.2 450.5 448.6 447.9 448.4 445.5 446.9 450.5 453.8 462.3 467.9 470.9 475.4 483.8 491 506.4 511.2 514.4 514.9 515.6 538.5 541.3 547 543.2 533.3 532.1 536 517.6 512.8 514 500.5 487.4 483.8 480.5 477.5 477.9 470.6 460.1 449.8 439.8 446.8 453.6 451.6 449.2 449.6 447.5 447.8 442.5 436.6 434.2 432.7 425.2 431.1 434.3 434.6 434.8 435.4 437.9 440.4 442.7 444.5 446.4 448.1 449.5 450.4 448.1 447.7 448.3 450.2 450.4 449.6 449.7 449.3 448.5 446.2 444.4 443.5 441.9 442.7 444.5 445.1 446.8 446.6 447.3 451 455.2 459.9 463.8 467.7 470.3 474.9 476.7 473.6 474.9 481.6 481 469.8 453.1 445.3 439.7 433.8 427.3 424.2 422.8 420.1 424.2 433.1 444 446.1 448.3 452.2 456 456.5 456 453.1 451 449.3 447.2 443.8 440 438.4
159.9 158.7 159.1 159.5 162.7 167 170.6 175.8 181.3 187.6 194.4 204.9 215.7 224.8 235.5 233.3 234.6 244.4 280.1 289 302.8 312.7 315 322.2 333.3 346.3 351.7 368.8 372.5 389.8 392.4 395.3 395.3 394.3 397.3 398.9 408.5 427.2 439 447.5 461.2 473.2 489.5 501.7 504 533.4 557.1 575.2 589.5 600.5 595.9 585.7 587.6 588.2 592.5 593.9 593.5 590.3 580.1 546.9 527.7 518.5 519.6 509.2 498.1 472.4 464.3 483 476.7 471.1 472.1 470 472.6 479.9 478.9 476.5 469.6 461.6 459 456.3 453.7 451.2 449.8 449.4 449.4 447.9 452.1 458.3 466.7 470.8 473 480 487.2 492 503.4 508.1 512.8 513.5 527 542.5 547.7 552.9 551 544.4 541.2 539.4 539 527.2 516.5 500.3 487.2 487 487.8 481 475.9 468.1 459.7 449 444.8 456.1 459.3 458.3 458.1 454.2 451.6 451 445.5 439.6 434.6 432 429.3 429 431.8 432.9 433.3 435.3 438.4 440.5 442.8 444.5 446.1 447.7 449.1 448.9 447.5 447.1 447.6 448.6 448.9 448.6 448.3 446.6 444.8 442.7 441.8 440.7 440.1 440.5 442.6 444.3 445.7 444.8 445.4 449.3 454.6 460.9 466 468.1 470.5 474.5 473.7 471.8 472.3 478.1 476.1 461.5 450.9 445.2 438.7 432.6 427.2 425 421.3 420.3 424.7 432.6 441.3 445.3 450.2 453.9 456.2 456 454.8 452.6 449.6 447.6 444.2 439.1 436.5 436.4
151.8 153.8 154.1 160.6 164.3 167.7 171.1 183.3 193.2 186.5 189.4 197.9 212.5 222.5 225.7 234.6 238.7 251.7 277.1 290 304.3 313.5 319.5 336.1 343.3 357.9 363 372.8 383.2 388.1 392.1 401.4 405.8 406.7 405 406.3 408.5 441.5 447.6 455.8 469.7 480.4 492.4 508.6 520.3 533.3 538.1 553.9 575.4 589.2 599.2 600.5 590.1 589.9 595.7 598.3 597.7 591.8 567.9 550.1 533.8 518.2 497.4 485.8 470.8 464.7 453.8 453.2 457.6 463.4 465.4 467.7 478.9 482.1 479.9 475.9 472.2 465.6 462.6 459.8 456.5 453.7 451.1 451.5 452.4 450.9 453.6 461.3 468.8 472.5 476.3 483.4 488.9 494.1 503.3 507.8 509.2 515 540.8 548.9 549.7 551.6 550.4 544.6 541 540.1 535.2 529.1 517.8 502.5 493.4 490.5 488.8 480.2 473.1 466.8 454.1 449.9 457.2 460.2 463 465.7 466.1 465.6 461.9 452.9 448.6 447.9 441.5 440.9 435.5 428.1 429.8 431.1 433.1 436.4 439.3 441.3 443 445.3 446.9 447.5 447.8 447.5 447 447.1 446.2 447.5 447.8 446.7 445.9 443.2 441.3 440.4 439.9 439.8 439.1 438.9 440.6 443.1 444.3 444.4 443.5 447.5 453.2 463.5 466.7 468.3 470.1 473.2 469.3 469.1 470.4 473 465.8 456.8 451.8 446 437.5 431.2 427.2 425.1 421 419.8 424.5 428.3 438.5 445.9 450.5 454.5 455.9 455.4 453.8 451.7 448.3 443.6 438.4 435.2 434.4 434.6
146.7 154.6 160.1 163.3 165.3 167.7 178.8 192.7 203.6 202.6 203.2 208 212.8 219.7 226.1 237.5 243.9 257 274.6 296.5 312.8 319.3 327.2 351.3 362.8 374.1 386.3 388.7 390.3 399 405.5 404.9 409.2 415.4 420 413.7 417.9 448.3 460.6 472.7 480 485.8 492.7 517.3 525.3 533 536.3 538 565.8 579.6 589.3 590.3 581.6 590.1 596 600.7 600.5 588.9 572.6 552.9 541.2 500.4 488.6 477.1 462.4 452.9 445.3 445.5 451 455 467.9 485.4 487.1 482.3 477.4 473.9 473 470.7 465.5 462.6 459.9 456.1 453.5 454 454.5 457.7 460.6 465.8 473 475.2 483 488.1 490 494.1 503.8 509.8 510 527.2 544.6 549.5 546.8 552.2 550.4 547.1 543.5 538.2 537.4 527.3 518.1 494.9 497 494.3 486.7 480.8 467.7 458.1 453.4 462.3 463.5 466.3 469.4 470.4 472.4 471.2 460.8 461.7 455 447.2 447.2 449.2 445 432.1 429.8 431.5 434.6 438.5 440.1 441.2 443.5 446 447.7 446.9 446.8 447.4 446.8 446.4 444.4 445.3 445.7 444.8 442.7 440.6 439.8 439.2 439.1 438.9 438.1 437.8 439.5 441.6 443.8 444.1 443 446.5 452.3 464.9 467.8 467.6 470.6 468.5 467.4 467 466.5 466.9 462.2 456.1 450.3 443.6 435.7 429.3 426.3 424.2 420.3 418.2 423 426.7 437.6 444.6 449.5 453.5 454.7 453.8 452 448.5 442.4 437.5 434.1 429.4 429.4 428.9
151.4 156.7 162.4 166 172.8 176.2 188.3 196.1 211.6 214.2 211.8 218.7 219.8 220.4 226.1 238.6 246.6 270.1 296.3 314.8 322.6 329.7 348.2 359.3 371.9 388.9 401.9 407.1 408.7 410.5 413.1 414.6 419.7 416.8 422.3 415.2 419.4 461.5 474.2 478.6 491.7 499.5 506.9 517.7 529.6 535.6 536.1 543.2 551.8 573.9 574.9 575.8 581.2 587.1 593.9 596.4 601.5 599.2 571.6 563.9 520.7 486.8 476.6 467.2 455.9 442.1 438.6 437.2 441.3 449.8 459.2 471.3 487.8 486.5 473.8 473.6 473.9 471.3 467.6 465.1 462.5 459.7 456.4 455.8 457.9 464.5 466.6 468.9 477.6 479.3 484.1 491.7 494 503.8 507.4 506.2 509.5 530 540.4 549.1 557.5 561.2 562.1 549.3 541.5 539.2 534 525 513.7 505.8 499.9 495.7 486.4 476.5 463.2 455.6 461.9 468.1 471.5 474.2 476 477.7 478.5 476 474.7 466.8 459.4 458.1 452.4 450.8 450.2 438.5 435 433 436 439.7 441.7 441.4 444 446 447.1 446.4 445.9 446.5 446.6 446.1 445.4 442.9 443.3 441.9 440 439 438.5 437.9 437.9 437.8 437.1 436.4 437.9 441.8 442.6 442.7 444.2 447.3 452.5 460.5 467.4 466.1 466.7 466.1 466.8 466.9 466.8 464.2 462.6 458.7 452.9 441.7 432.7 428.4 425.3 421.3 418.4 416.1 421.7 426 434.4 441.3 444.9 449.2 451 450.4 448.8 442.7 437.1 432.5 428.1 423.3 422.7 421.8
154.1 164.8 169 169.7 178.3 186.4 199.8 212.4 217.9 223.5 225.4 227.4 227.8 225.9 227.6 245.4 254.5 285.9 320.5 327.5 333 347.6 364.2 380 393.3 406.6 416.6 422.8 425.9 431.3 436.9 441.3 433.5 420.6 413.9 411.1 427.1 449.7 456.9 480.9 497 509.2 522.3 531.5 538.2 543.6 550.4 548.8 562.2 567.6 575.1 585.2 586.7 597.7 603.8 606.1 604 586.2 563.3 532.2 501 475.6 465.2 458.5 445.8 429.9 425.9 431.3 429.4 437.5 456.1 464.4 469.7 471.8 473.3 475.3 475.2 471.2 468.1 466.4 464.6 462.3 457.6 457.9 463.5 469.8 470.8 472.5 478.6 480.9 486.1 492.8 499.6 509.7 507 508.3 521.6 539.6 553.6 561.9 563 566.6 565.6 557.9 548.9 541.1 534.3 527.2 516.6 508.2 504 495.1 487.9 471.8 469.8 462.8 468.6 470.7 479.1 480.7 483.2 483.3 484.7 486.1 484.2 480.6 474.1 469.1 460.9 454.4 453.9 445.2 442 438.3 439.4 441.7 443.6 444.3 444.2 445.5 446.1 446.5 446.4 445.1 444.8 443.6 443.8 441.1 441 439.6 438.1 437.4 437.1 436.7 436.2 435.9 435.7 436.3 437.8 441.3 443.1 444.8 447.7 449.9 452.7 457.1 464 463.3 465.3 467.2 470.5 467.4 465.1 468.2 465.5 457.6 446.7 434.9 431.5 427.4 422.4 419.6 415 414.3 419.3 423.2 430 433.7 438.4 439.7 440.9 443.8 440.2 433.9 429.3 424.7 420.5 418.7 414.8 415.4
148 160.3 168.7 170.8 178.9 193.9 206.9 219.9 221 224.6 223.6 229.2 232.1 226.6 233.9 246.2 257.6 313.5 328.5 337.6 342.3 363.2 380.7 395.4 408.3 419.1 427.6 432.6 439.4 443.3 448.1 440.5 430.1 416.7 409.5 405.1 422.8 448.7 458.1 473.7 497 513.2 533.5 542.6 552.5 557.7 562 565.8 574.6 581.7 586 593.8 595.7 600.4 602 602.2 602.1 565.8 538.1 510.2 486.8 466.8 458 448.3 433.8 420.8 417.9 429.2 424.9 429.7 450.1 460.1 468.9 472 477.4 477.4 473.8 468.9 466.7 466.2 465.5 463 459.8 462.7 470.6 475.2 477.2 477.1 483.2 487.2 491.4 495.6 505.7 510.2 508 512 533.8 542.8 550.6 560.5 566.2 567.4 569.2 564.9 561.3 544.1 544.8 545 533.4 520.8 503.8 496.5 485.1 472 475.2 472.9 475.6 483.8 488.5 490.5 493.1 494.1 497.3 496.8 495.5 490 482.9 475.3 468.6 461.4 458 450.8 447.6 444.6 441.5 443.4 445.3 445.9 444.3 445.8 445.9 446 446.6 445.3 445.9 445.5 443.6 442 440.5 438.8 437.6 436.6 436.2 435.9 434.5 433.4 434 435.2 436.7 439.6 445.4 449.9 450.3 450.7 452.6 455.6 460.8 462.9 467.5 470 471.2 467.7 469.8 468.8 464.1 451.8 439 434 430.4 427.1 422.1 419.8 415.8 409.8 416.5 418.1 423.2 427.5 429.6 430.2 428.5 427.8 427.5 424.6 420.2 417.7 413.8 413.4 409.7 408
148.5 159.4 166.2 168.9 190.4 201.7 214.6 227.7 231 225.1 221.1 228.8 226.1 226.7 241.2 246.1 257.3 319.2 324.1 342.9 363.3 383.7 397.9 412.3 424.9 435.1 441.1 442.4 453.8 457.7 457.5 443.3 425.7 407.4 405.1 405.1 416.1 439.8 457.5 476.1 500.9 518.7 535.7 553.8 566.6 578.2 585.3 590.2 592.5 599.3 606.5 605.3 602.7 601.5 600.8 600.9 593.5 560.7 527.3 500.3 476.6 460.2 444.4 433.5 423.2 408.9 403.9 417.4 417.3 419.7 446.5 456.6 464.7 471.6 484.1 475.9 471.5 466.3 465.8 466.7 465.9 464.8 465.2 468 478 477.8 476 484.4 490.1 491.5 495.6 500.2 506.5 506 507.9 515.9 537.7 550 559.5 568.5 575.4 569.4 570.6 567.2 565.1 550.5 549.7 541.9 527.2 515.5 503.3 496.3 482.9 482.6 482.4 483.6 488.9 492.6 497.3 501.4 503.1 504.7 507.7 508.8 503 496.2 486.1 477.1 468 462.1 458.8 452.7 449.7 447.3 443.8 443.2 445.5 445.9 445.3 445.3 445.5 445.7 445.7 446 445.3 444.2 442.9 441.5 440.5 438.4 437.4 436.3 435.9 435.5 434.4 434.5 434.7 435.9 436.8 438.7 442.7 450.8 451 451.7 453.9 456.1 458.6 462.4 467.5 474.2 470.4 468.4 469.2 463.4 451.6 443.1 435.7 433 429.9 425.5 421.5 418.8 416.1 406.6 413.8 415.2 417.5 420.7 422.9 422.7 421.3 420.9 420 416 412.8 409.2 407.5 406.2 402 396.5
147.7 157.8 162.1 171.5 190.9 204.1 214.6 223.3 224.9 221.8 222 227.7 225.5 227.1 238.7 250.9 266.2 312.1 331.2 351.1 375.9 392.3 415.4 428.8 439.1 449.9 459.3 458 466 468.5 460.9 447.8 422.8 405.1 405.1 405.1 413.7 432.7 449.5 470.6 494.8 513.8 534.5 562.1 580.7 591.9 604.1 611.4 617 615.8 615.1 615.3 609.5 602.5 602.5 600.8 592.2 556.1 518.2 491.6 472.6 454.8 434.1 420.6 409.6 396.2 395.1 408.2 408.3 411.8 446.5 456.2 463.5 469.7 478.9 472.4 466.2 464.5 466.6 468 467.2 467.6 469.2 474 476.7 477.7 480.3 488.8 493.4 496.5 500.9 502.1 505 507.2 507.7 524.9 545.2 564.5 572 569.3 558.4 562.5 566.1 562.6 556.9 549.3 537.6 530.2 521.5 512.7 501.5 496.1 492.8 487.1 490.2 496.6 499.2 504.1 508.7 510.3 512.5 514.9 515.9 512.8 506.4 496.6 486.7 477.9 468.9 464.1 459.4 454.4 450 448.6 446.2 444.8 444.5 445.1 445.3 445.3 445.3 444.6 444.3 444.4 444.1 443 441.9 440.4 439.2 438.1 436.5 436.1 435.4 435 435 434.9 435.8 437.6 437.6 439.4 441.4 449.1 452 451.8 454.3 455.8 455.9 459.3 467.7 468.1 467.2 464.2 462.1 450.4 442.2 438.3 434.5 431 428 424.3 419.9 416.7 414.2 407.1 411.4 412.5 413.4 415.3 415.6 415.4 414.6 413 410.7 407.3 404.5 400 399.9 397.9 395.9 392
152.8 156.1 166.6 177.4 196.5 203 210.7 217.6 218 219.6 225.5 225.4 223.5 226.2 239.3 250.3 269.6 311.4 347.5 368.9 383.6 397.8 416.8 434.1 449.4 460.5 467.1 471.9 482.7 486.2 472.4 455.5 419.5 405.1 405.1 405.1 412.5 426.9 449.8 471.6 490.9 511.7 538 566 588.3 599.8 612.6 620.6 622.3 623.7 625.3 615.3 608 605.6 603 602.7 589.1 543 512.4 485.4 462.8 445 421.1 406.4 394.5 384.5 385.6 396.3 400.6 406.1 448.6 455.9 463.4 473.4 475.7 466.9 461.2 464 467.2 468.8 468.7 469.4 470.1 473.3 476.8 479.1 484.5 491.5 497.1 500.5 504.6 504.8 507.2 507.4 517.8 547.9 573 564.4 554.5 552.2 560.8 559.9 558.9 556.1 549.6 542.9 531.9 523.7 518.8 513.7 508.5 507.5 500.5 496 502.5 507.8 511.1 514.6 515.7 517.6 519.7 520.4 518.7 514.8 507.6 499 488 480.3 469.4 462.1 458.7 454.2 451.6 449.7 448.3 447.6 444.6 444.8 445 445 444.6 444.2 443.3 442.2 442.6 441.8 440.6 439.4 437.7 436.4 435.9 434.7 435.6 434.2 434.4 433.2 435.7 436.8 438.2 439.4 440.8 442.8 449.4 452.8 453.3 455.1 455.3 458.2 465 463.3 461 460.9 454.6 446.4 441.4 437.2 433.8 430.2 425.6 421.1 416.6 413.7 410.1 407.2 409.2 409.8 409.4 409.6 408.5 407.5 404.9 402 399.4 399 395.9 392.9 390.2 390.5 388.5 385.9
146 162.6 171.4 189.6 197.5 205.9 211.1 215.7 215.7 224.1 228.5 225.1 224.7 228.6 243.4 250.9 291.2 325.2 355.8 376 394.6 411.5 426.6 441 452.9 466 471.6 483.8 497.2 498.5 487 461.7 417.5 405.1 405.1 405.1 409.2 423.3 440.9 462 486.9 513.4 542.1 570.6 594.3 608.8 618.5 625.2 632.4 635 629.8 619.5 611.8 607.7 605.1 592.8 574.6 538.6 506 484.6 461.9 433.6 413.2 388.1 380.5 374.1 374.8 383.1 390.7 398.1 422.6 458.7 473.7 474 466.1 454 458 463.7 466.5 467.1 467.2 468.5 470.9 474.9 477.8 488.2 491 493.8 502.3 506.8 508.6 512.6 504 503.8 516.6 547.6 545.6 541.3 546 565.3 572.9 560.2 560.9 556.3 548.6 538.6 532.9 527.1 522.6 517.2 515.5 511.1 509.2 507.7 512.1 516 519.3 523 524.9 524.7 524.7 523.7 521 517.4 509.3 498.1 489.4 479.5 471.1 462 458.5 453.8 451.8 450.5 449.3 448.3 446.4 445 444.7 445.2 444.2 443.1 442 441.6 440.7 439.8 438.2 437.7 436.6 435.7 435.7 434.4 434.3 434.1 434.6 434 435.6 436.1 437.7 439.3 440.8 443.7 447.2 451.5 453.5 453.5 453.5 459.6 461.5 455.6 453.4 453.6 449.4 444.2 440.4 436.8 433 427.8 422.6 417.5 412.7 409.4 406.2 404.8 406.6 406.4 404.9 402.7 401 396.5 393.1 390.6 389.2 387.1 386.8 385.5 385.5 385.3 384 383.1
153.4 157.9 171.8 193.3 198.3 204.5 217.2 216.8 219.4 226.9 228.8 224.3 223.2 236.8 254.5 257.8 310.7 339.7 359.8 385.2 411.5 422.7 435 449.8 469.2 477.4 481.1 492.2 505.4 501.5 489.9 453.6 412.4 405.1 405.1 405.1 405.7 417.5 435.2 455.6 482.5 514.9 546 578.3 599.8 614.8 627.7 632.8 637.2 639.9 637.9 627.9 612.2 609.3 602.2 590.9 556.3 521.5 499.9 485.1 456.7 424.4 394.1 375.5 366.3 364.6 367.5 374 382.8 391.3 403.3 427 457.2 475 444.6 451.4 457.2 461.1 463.2 463.8 465.5 468.5 471.4 481.2 490.2 487.2 491.6 498.4 507.6 513.6 504.4 504.4 503.2 502.1 507.1 527.2 531.7 539.4 566.1 575.8 568.1 562.9 565 559.2 550.9 545.3 538.8 532.7 525.9 521.9 519.5 516.8 517.4 515.6 520.5 522.6 525.6 528.9 529.9 530.6 529.4 525.9 522.9 518.3 507.8 497.3 487.2 478.3 467 462.1 458.4 453.9 452.2 449.5 448.9 447.5 446.3 445.3 443.1 443.7 443.3 442.5 441.6 440.8 440 438.2 437 436 435.5 435.8 435.5 435.2 434.7 434.5 435.3 435.2 435.1 435.8 437.2 439.3 442.5 445 450.1 452.6 450.7 451 450.6 454.7 453.3 452.4 450.9 449.3 445.5 442.4 439.8 436.7 431.9 423.9 416.4 412.2 409.3 406.2 404.2 401.3 403.4 402.5 399.7 396 392.1 386.9 388.4 388.3 390.9 388.5 384.2 383.2 379.6 381.6 380.8 380.9
166.8 168.4 177.5 195.3 198.4 202.4 209.7 217.2 227.4 233.6 231.1 223.4 223.1 251.9 263.9 270.4 305.2 334 362.8 391.4 412.1 426 440.2 459.2 477.9 487.7 491.1 496.3 506.4 498.6 471.7 437.1 406.2 405.1 405.1 405.1 405.1 414.8 429.5 452.3 482.1 515.1 537 575.5 603.8 621 635.9 641.6 646 648.5 644.2 629.5 621.6 614.5 597.2 581.9 546.3 515.2 494 477.9 443.9 412.6 379.6 364.5 355.9 356.8 363.4 369.6 376.5 384.4 395.6 410 423.7 429.5 438.9 453 454.1 456.2 459.4 461.5 465.2 468.2 473.1 472.4 481.2 479.7 487 494.7 505.7 514.8 506.4 504.4 504 500.4 501.5 512.8 527.8 545.5 567.4 579.9 578.9 571 566.1 566.9 557.7 549.3 542 537.5 533.6 528.9 524.2 524.5 526.1 524.6 526.9 527.9 530.8 532.7 531.9 531.3 530.7 527.8 522.4 516.3 506.5 496.3 486.8 475.7 464.5 460.5 458.2 456 452.6 451.5 449.8 448.8 446.9 445.9 445.1 442.4 441.2 442.2 441.8 440.3 438.8 438.6 437.2 436 437.7 437.7 437.5 436.7 435.5 435 435.4 435.5 433.7 436.5 437.6 439.8 443.7 446.3 450.8 452.4 448.9 445.6 446.5 449 451.4 451.5 449.9 447.9 444.4 441 439 435.5 428.3 418.4 410.3 407.9 406 403.9 400.9 396.5 395.5 396.6 395.1 391.3 389.5 387.2 393.6 394.5 395.3 389.4 387.4 386.7 384.7 381.7 379.6 378.7
173.3 177.9 182.3 197 204.4 207.5 210.4 218.8 229.2 235.4 230.1 223.9 230 256 273.7 270.5 308.2 335.5 363.9 390.8 410.5 427.4 447.5 464.3 477 483.8 494 503.9 507.3 497.8 460.7 425.6 405.3 405.1 405.1 405.1 405.1 413.7 431.5 455 481.3 511.6 545.7 577.3 605.1 624.1 640.8 647.7 654.4 657.1 649.3 632.7 629.1 619 601.8 581.5 546.7 514.8 482.9 463.9 425.7 393.8 368.9 355.6 351.6 355.1 360.3 365.2 372 380.8 390.2 402.3 413.6 425.9 444.4 449.6 449 449.1 454.1 461.9 465.8 467.2 467 467.5 469.4 473.1 483.4 488.6 498 501.8 504.9 503.3 501.3 499.3 500.4 502.6 507.6 525.8 547.6 580.7 576.3 585.1 581 576 561.1 558 548 545 540.1 532.8 530.3 529.4 529.5 530.1 530.5 530.2 532.9 534.3 532.9 530.8 529.2 523.2 517.8 511.7 502.7 492.7 482.9 472.3 463.6 463.1 463.5 461.6 457.2 451.5 450.2 449 446.4 445.1 445.7 441.7 440.5 439.4 439.7 438.4 438.4 437 436.4 439.5 440.1 440.6 440.6 439.7 437.1 436.1 435.8 435.9 433.5 435.9 437.7 442.6 446.9 447 449.7 452.2 445.1 443.3 444.5 448.3 450.2 450.9 448.6 445.4 440.7 437 436.5 428.8 421.7 411.6 407.6 404.7 402.9 400.3 399.4 394.7 392.7 392.4 391 388.9 389.7 399.9 399.7 399 394.9 393.6 392 388.9 387.1 388.2 387.4 389
180.4 185.5 184 199 210.7 214.6 218.3 222.1 229.7 232.2 227.4 223.3 235.1 263.3 278.3 279.3 286.1 337.9 353.1 374.7 406.5 424.1 445.4 461.5 472.6 475.8 490.5 502.4 500 485.5 449.4 418.8 405.7 405.1 405.1 405.1 405.1 412.5 435.8 460.3 485.9 517.8 554.6 586.9 607.2 623.9 635.8 649.6 657.5 656.8 649.6 635.7 627.4 615.7 597.3 580.3 545.8 504.8 465.9 430.6 401.4 376.3 360.5 350.2 348 353 356.2 361 369.2 377.4 386.6 395.1 403.8 422.1 437.7 443.8 445.1 447.8 455.3 462.6 464 465 467.4 467.8 468 473.9 481.5 483.7 484.3 488.7 494.9 498.8 500.4 499.5 497.1 498.2 498.1 501.3 515.8 534 563.3 574.7 588.4 583.3 575.7 564.3 552.3 550.9 542.8 536 532.9 531.1 530.8 532.9 531.6 530.2 532.1 533.6 532.1 529.9 525.5 519.6 511.7 505.7 498.4 489.5 479.7 470.8 466.6 466.1 466.4 463.9 458.3 452 449.3 447.2 446.1 444.9 445.1 443.2 441.9 441 438.6 437.4 437.3 438.9 440 441.7 443.7 444.7 446.6 443.5 438.7 438.4 438.1 436.7 435.3 433.3 439.2 444 445.8 446.9 449.9 449.6 440.6 440.7 444.2 448.4 450.3 449.5 447.6 442.8 436.5 431.4 426.1 417.1 409.6 407 404 401.8 399.9 397 396.3 393.5 389.4 389.4 392.3 395 400.8 403.3 404.4 403.8 401.1 400.7 397.8 393.8 393.1 394.8 396.1 400.3
186.8 187.9 188.2 199 210.9 216.6 219.7 217.7 225 225 223.2 221.4 235.5 266.3 282.4 280.2 285 320.1 334.2 370.3 386.8 408.2 431.1 448.2 452.1 468.8 484.9 488.3 483.6 469.2 438 410.4 405.1 405.1 408.2 405.1 405.1 412.1 440.4 467.2 494.8 527.5 563 598.7 617.8 631.4 638.8 654.4 659.7 659.1 648.7 635.1 626.8 611 594.9 575.5 526.6 483.7 447.1 409.7 383.9 360.1 355 351 345.5 349.2 352 356.5 366 374.5 383.6 393.5 404.6 413.9 433.8 441.3 446.7 453.4 460 462.5 463.1 466.2 467.8 469 470 475.1 477.6 471.5 469.8 487.5 490.9 499.8 505.1 499.5 496.5 495.9 497.4 499.2 498 505.2 529.3 556.5 585.1 586.3 579.9 570.2 556.2 552.3 542.1 536.1 533.4 532 533.5 532 530.4 528.1 529.5 530.5 528.3 523.7 521.7 517.3 511.2 505.3 495.9 487 476.8 471.9 469.7 469.2 468.7 466.6 457.7 452.2 449.8 448.2 446.7 445.3 443 442.2 441 440.8 439.8 438.1 439.4 441.3 443.3 445.2 447.4 449.5 450.6 445.3 440.7 440.6 441.2 437.4 435.2 433 437.3 440.8 441.2 443.1 443.9 439.6 437.7 439.1 447 452.2 449.5 447.4 442.6 436.3 429.3 424.4 415.6 409.7 406.2 404.2 401.8 399.7 396.9 394.6 393.2 391.2 389.4 397.6 399.9 400.8 405.3 409 411.2 405 408.7 407.9 409.1 406.8 405.5 409 412.8 412.3
199.4 198.3 195.6 200.5 210.8 219.4 221 217.5 221.7 219 219.1 221.6 238.6 265.9 268.1 268.7 271.2 298.1 310.6 335.3 354.3 377.7 408.6 428.4 443.6 460.6 479.3 464.5 459.4 444.1 421.7 407.7 407.6 406.6 409.2 405.2 408.2 414.9 440.9 466.4 500.2 532.8 565.8 601.3 619.1 634.5 638.2 650.7 654.1 650.6 642.4 629.5 618.1 601.9 586.9 561.8 508.5 462.4 428.7 394 370.1 353.7 350.2 345.9 341.8 343.3 347.9 353.6 363 373.4 383.8 393 405.6 424.3 438.7 444.4 451.6 459.9 465.8 462.8 465.7 466.2 468.6 470.3 471.3 472 468.7 466.1 477.6 483.7 489.5 503.3 505.6 499.1 496.9 491.7 492.1 493.8 484.5 488.1 501.2 523.3 555.3 584.2 578.2 570.8 555.6 548.4 541.3 536.9 534.8 531.9 533.4 532.2 527.8 526.1 524.3 523.8 518.6 518.2 516.5 514.8 510.8 504.5 495.4 487.4 480.7 476.1 473.2 472.1 470.3 466.5 460.2 453.8 450.3 447.8 446.5 445.6 444 442.9 441.5 440.1 439.9 439.1 440.5 442.1 444.9 447.4 451.1 451.8 450.3 445.4 440.6 442 440.1 437.5 434.7 431.3 436.1 437.9 437.4 438.8 438.4 437.1 432.3 437.5 443.4 445.7 445 441.7 434.8 428.2 422.6 416.8 411.6 406.7 403.9 401.5 399.6 397 394.9 393.9 391.7 390.3 390.4 400.4 402.7 404.5 412.4 414.8 418 413.9 414.9 416.5 417.7 418.2 420.3 423.1 423.4 426.7
204.4 205.4 202 205.6 222.2 224.8 223.2 218.5 214 214.7 217 224.5 251 260.7 268 267 257.3 286.2 307.6 318.4 346.1 362.2 390.1 395.7 426.5 445.8 446.7 437 443.3 422.5 403.4 402.8 401.9 406.3 407.2 409.7 411.6 419.7 445.2 469.7 505.5 538.2 566.2 600.6 621.4 634.1 646.3 647 646.6 640.9 632.8 616.9 601.9 589.8 564.9 528.9 479.6 432.1 404 378 359.5 346.5 345 341.5 339.4 340.4 343.6 348.5 360.5 372.2 385.3 400.7 417.2 433 441.7 448.8 459.3 472 474.7 462.2 463 462.9 466.6 470.7 470.4 465.4 461.6 461.7 479 483.4 487.3 501.2 491.8 495.4 487.2 484.4 483.9 482.6 476.1 480.5 492 505.8 524.8 573.6 565.7 560.7 551.4 546.4 542.1 536.4 533.6 529.2 530.1 527.8 523.8 522 519.7 517.7 515.8 515.1 514 513 507.7 501.9 496.8 492.4 486.2 479.2 474.6 472.4 469.5 465.2 459.5 454 448.4 445.8 445.8 445 444 443.3 441 439.3 439.1 440.2 440.9 443.2 449.3 455.4 455.3 460.2 446.9 443.2 440.9 440.9 440 437.7 434.9 429.9 432 431.4 431.3 436.3 437.5 434.3 428.5 434.6 437.7 437.7 436 431.7 424.5 420.5 416.1 409.4 407.1 404.5 401.6 397 395.7 394.2 393.3 391.1 390 391.7 398.5 403 407.4 415.7 420.8 424.1 421.6 423.1 423.8 426.8 427 428.6 432.2 433.9 437.2 439.9
210.5 210.1 203.9 205.8 221.6 229.5 224 214.2 215.2 213.8 216.8 224.6 258.4 258.6 255.6 268.5 255.9 264.1 282.4 308.9 323 333.8 348.1 365.9 391.7 403.2 409.6 411 417 402.4 390.8 396.8 396.9 401.8 403.9 408.2 413.2 423.8 446.2 475.5 510.4 540.1 566.1 594.2 611.4 629.3 639.5 642.9 641.5 634.8 620.7 604.5 591.7 570.4 542.4 485.8 443.8 409.2 383.7 361.4 347.4 342.2 340.3 339.6 338.2 339.4 342.2 352.7 363.7 381.3 397.7 410 427.8 437.2 445.7 450.5 465.1 465.3 461.3 452.7 456.2 461.8 463.9 463.3 460.1 457.1 450 471.8 479 481 485.1 486.3 476.9 473.8 472.3 470.7 476.4 468.2 467.9 473.5 487.5 500.6 514.4 559 563.7 554.6 550.3 547.4 543 537.4 530 524.6 524 521.1 518.2 516.5 516 515.1 514.1 513.1 513.5 510.8 509 505.6 500.6 494.8 488.6 480.5 474.6 471.4 467.6 463.4 458 451.9 447.3 444.9 444.1 444.2 443.7 443.9 440.8 437.9 440 441.3 443.2 447.7 453.2 456 455.1 451 445.5 443.1 441.3 439.8 438.3 436.9 434.9 429.6 429.4 430.3 430.5 432.5 432.5 427.5 425.3 428.9 429.4 428.2 425 421.2 417.7 413.9 408.7 406.1 404.4 401.8 398.4 392.1 392.5 391.5 391.8 391.9 393.5 397.7 403.1 407.8 415 422.6 426.1 427.1 421.4 429.3 434.2 437.4 438 441 443.7 446.3 450.3 450.2
210.9 206.6 202.7 203 223.7 230.8 217.8 214.9 215.6 212.7 213.5 223.9 244.8 247.2 247.3 255.2 248.5 260 273.2 285.5 304.4 313.9 324.2 342.4 363.5 370.3 383.1 390.6 395 376.8 382.4 385.6 393.8 398.2 400.4 406.1 415.4 421.7 456.2 482.9 518.9 544.9 566.7 586.4 606.1 622 632.7 634 632.7 618.7 599.8 585.1 572 544.8 489.9 453.1 420.4 395 367.7 352.2 340.3 337 337.2 338.6 337.6 340.5 348.6 359.2 374 389.6 409.3 429 437.8 441.7 446.3 454 454.1 452.9 450.8 449.5 454.6 459.2 459.5 456.4 453.8 440.6 447.2 469.3 475 475 471.7 472.4 467.5 467.5 467.5 468.2 468.6 467 467 472.2 481.4 491.7 507.9 548.7 561.9 553.7 551.2 545.8 538.6 532.1 523.9 520.7 518.3 515.8 512.9 514.3 512.6 513.7 514.2 511.9 511.7 508.9 508.5 506.6 504.5 497.5 489.3 481.6 473.7 469.4 465.5 460.1 454.4 450.8 448 445.1 443.1 443 443.1 443.3 440.5 438.8 440.4 442.2 444.1 447.2 450.3 451.8 451.9 448.8 445.5 443 439.6 438.6 437.6 434 432.3 432.2 432.8 432.7 428.3 423.9 415.5 414 415.3 419.9 418.4 418.2 415 414.5 411.6 408.6 405.9 403.9 401.7 398.7 392.8 393.6 391.6 391.6 393.1 394.5 400.6 404.8 410.2 416.3 426.2 431.8 432.3 432.3 429.3 435.3 440.6 446.4 450.5 449.9 453.6 457 460 459
207.7 202.3 202.9 204.8 218.6 229.4 220.5 213.6 212.9 211 213.5 216 234.4 228.8 237.1 245.5 236.9 244.3 260.8 269.1 278.1 290.5 308.9 328.1 342.4 351 365.3 382.1 378.5 368.3 378.1 385.4 394.5 393 394.3 412.1 415.1 431.8 460.7 483.5 512 538.2 560.6 587.7 609.5 623.6 627.5 622 612.7 593.8 574.3 555.4 526.8 490.4 464.6 428.5 397.5 371.7 354 341.3 333 331.9 333.3 335.1 333.9 347.5 356.6 370.1 387.8 404.1 426.4 450.2 443.9 448.8 444.7 449.9 444.7 441.8 447.1 445.4 448.8 452.2 453.5 449.1 440.8 439.6 455.7 469.6 474 474.1 471.7 467.5 467.5 467.5 467.5 467.5 467.5 467 467 470.7 477.7 488.3 503.5 529.1 576.3 567.2 547 542 533.9 525.7 519.1 515.7 512.8 512.1 510.8 511.6 511.4 511.3 511.7 510.5 511.2 508.1 508.3 504.9 503.3 498.5 490.6 483.8 474.3 467.5 464.6 463.1 461 456.5 450.7 446.4 443.2 441.7 441.6 441.3 439.1 438.9 440.9 442.8 444.2 446 448 449.3 449.5 447 444.7 441.5 438.9 436.6 434.4 433.2 434.8 438 438.9 436.8 436 434.9 424.2 411.3 409.3 408.5 411.9 412.1 411.6 410.3 407 404.8 403.4 401.4 399 395.7 393.1 398.3 399.4 399.4 399.4 400.8 406 411.2 416.3 424.5 434.5 439.5 437.5 436 436.3 442 449.1 455.1 458.5 460.1 461.4 464.6 467.2 466
202.9 199 206.4 213.3 218.2 222.1 209.9 209.2 204.6 213.4 214.7 215.6 220.5 220.5 224 234.1 230.7 239.9 250.2 257.9 264.8 275.8 293.4 311 321.9 335.3 344.7 354.7 346.7 362.7 377.4 385.6 390.4 383.9 386 394.6 408 424.2 459.8 487.1 515.9 537.1 564.8 589.4 605.2 614.7 621.2 609.9 589.2 565.4 541.4 521.3 492.2 462.7 435.4 405.1 376.6 356.2 344.2 331.1 328.9 329.5 330 331.5 342.1 353.4 363.4 376.3 397.8 422.8 446.5 452 444.1 453.4 436.7 435.9 437.7 439.5 441.7 441.8 444.9 447.1 442.7 434.5 434.9 438.1 461.8 468.7 473.7 470.9 467.5 467.5 467.5 468.3 471.2 470.2 468.4 467 467 467 476 487.9 505.1 526.2 567.5 559.3 544.6 535.9 528.8 518.5 514.7 511.6 509 509.2 507.9 509.1 508.2 508.7 508.9 508 508.4 508 508.9 505.1 501.2 495.9 489.8 482.3 474.2 467.1 465.7 464.7 461.1 456.2 450.9 446.5 443.7 441.5 439.7 438.6 440.6 441.1 441.6 442.2 443.9 445.3 446.9 446.1 445.3 444.8 443.1 440.1 437.1 436.8 436.5 440 442.7 444.2 444.5 444.9 443.6 439.2 417.8 415.5 412 411.9 412.1 406.4 401.5 401.7 401.8 400.6 398.6 396.5 396.6 394.6 393.3 400.5 401.1 402.2 402.6 406.1 411.3 417.6 425.3 433.7 442.5 442.9 441.4 438.6 442.6 449.3 455.1 462.4 465.9 468.8 470.3 471.4 471.1 471.7
189.4 190.3 206.5 205.8 210.5 211.7 202.5 200.1 203.5 213.8 215.2 217.3 220.4 220.2 222.6 224.1 227.2 228.9 243.5 249.4 260.4 268.8 280.3 289.3 308.1 323.6 339.4 328.8 330.4 350.3 368.8 379.5 373.9 375.4 380.6 392.4 399.5 419.7 457.1 488.3 521.9 544.1 568.2 584.5 591 598.8 594.3 585.7 562.2 539.9 509.8 489.6 461.4 437.4 410.2 383.1 358.4 344.6 332.5 325 326 325.5 332.3 337 346.2 357.8 373.8 391.4 413.1 444.8 436.4 441.1 437 432.7 431.6 436.1 437.8 438.4 438.7 438 440.1 433.8 432.4 428.1 430.9 445 455.1 463.6 468.4 473.1 473.3 475.2 475.6 474.6 471.2 469.2 468.3 467 467 468.1 476.1 489.3 503 530.8 560.5 550.7 534.3 527.4 519.7 515.9 512.2 508.1 507 505.4 505 504.8 505.1 505.2 505.6 506.1 506 506.7 507 504 501 496.3 488.8 482.3 471.3 468 466.3 463.8 459.2 454.4 449.2 445.5 443.8 441.9 440.4 439.8 440.7 440.9 441.7 442.1 443.3 444.5 445.9 445 443.8 443.2 441.6 439.2 440.2 441.7 441.5 446.2 446.8 446.3 444.7 442.8 442.8 426.5 419.4 414.5 415.1 415.5 415.2 411.2 404.9 401.5 398.7 396.6 396.8 395.8 394.6 394.7 399.1 401.6 403 404.6 406.2 412.6 419.2 425.4 432.1 442.1 447.4 446.2 442.7 443.9 447.1 452.4 459 466.5 471.6 473 472.8 474.1 475.4 478
182.5 190.2 201.7 203.8 202.7 200.4 196.4 194.5 202.3 215.5 217 222.5 221.9 221.4 227.3 231.8 232.3 230.5 234.5 237.8 252.6 266.4 273.5 274.8 282.3 313.5 329.8 318.6 316.9 338.5 362.3 363 360 364.5 373.1 377.9 382.2 402.4 440.2 485 505.2 529 561.3 578 579.1 575.8 572.6 555 537 507.8 484 461.2 435.4 413 384.4 359.3 345.3 334.8 323.1 319.1 325.2 332.4 335.6 343.5 354.6 371 389.9 405.4 426.6 429 446.9 445.4 437.5 429.6 429 431.7 438 439.1 435.6 432.2 425.4 424.2 423.7 423.8 424.5 444.8 456.3 472.7 478.8 481.8 480.1 479.5 478.5 471.7 468.8 467 467 467 467 469 476 488.8 507 539.6 552.5 542.7 534.5 524.9 517.1 512.2 507.8 504.5 502.7 501.5 502.2 501.3 503.7 502.3 503.7 503.3 503.6 504.8 506.1 505.4 501.6 495.6 488.3 482.4 470.5 468.4 465.9 461.7 457.5 452.7 449.6 446.3 444.5 442.7 440.7 439.5 441.2 441.1 441.6 442 442.9 443.9 444.6 443.8 442.1 441.6 440.7 442 445.4 448 444.6 445.9 445.1 443.4 441.7 438.8 431.8 425.7 421.5 420.5 417.3 416 411.9 408.6 405.4 402.5 400.9 398.6 395.7 395.5 394.7 396.7 401.3 403.5 404.6 407.8 413 421.3 425.1 431 439 451 453 449.6 446.6 445.8 449.7 454.3 461.9 468.4 470.7 470.8 474.1 476.4 480.5 482.3
177.3 195.6 203.8 208.8 202.7 196.5 192.3 192.5 207.4 216.5 219 228.4 226.3 226.1 232.3 240.2 238.5 230.8 231.9 236 246.9 258.7 264.9 273.3 275 292.5 304.7 303.9 309.6 319.6 342.4 346.1 347 346.7 358.2 361.3 369.8 388.2 426.1 459.4 485.9 513.9 550.7 553.4 551.1 555.5 548.3 537.1 507.6 479.8 453.4 430.2 408.4 382.1 359.4 346.3 334.7 324.5 318.7 324.8 334.4 345 343.7 350.6 364.1 384.8 407.7 420.4 422 441.5 458.3 449.4 439.4 430.6 428.8 427.7 433.5 434.2 430.7 420.7 419.7 421.2 420.6 419 422.7 450.4 464.3 474.3 483 484 482.3 479 475 472 468.7 467 467 467 467 468.5 478.2 492 517.5 553.6 543.9 534.1 527.9 518.1 511.8 506.6 503 500.4 499.2 499.7 499.7 501.1 501.1 500.7 501.5 501.4 502.4 504.5 506.1 504.5 500.9 494.9 487.2 477.3 471.1 468.1 464.8 460.1 455.4 452.1 449.1 447.3 445.4 442.4 440.7 441.3 442.2 442.7 443.8 442.7 443.5 444.2 444.6 444.2 442.9 441.1 443.2 448.4 450.7 449.6 449 447.4 445 443.4 442 438.2 433.8 428.6 425.3 423.7 421.6 418.9 413.9 409.3 405.5 402.5 401.4 400.3 399.5 395.6 396.7 399.9 403.4 404.9 406.9 411.8 419.3 428.6 436.4 439.6 450.2 458.4 458.6 448.3 447.9 448.5 451.8 456.6 462.2 468.5 469.4 471.3 473.9 479.1 483.3 486.5
178.4 201.5 208.6 209.1 196.7 194.8 190.3 192.7 209.4 216.7 231.1 236.5 234.2 231.6 237.1 241.2 233.1 224.3 222.8 231.3 235.8 244.7 259.7 275 276 280.3 286.2 300.5 311.4 317.3 322.4 329.8 334.6 335.6 336.6 342.6 353.2 376.5 408.7 440 470.9 478.4 495.9 526 531 523.9 518.4 505.2 465.3 445.1 418.2 394.3 375.7 353.8 338 331 324.1 314.6 317.4 328.7 342.1 357 359.7 368.6 377.2 387.8 424.9 424.5 428.1 458.4 461.5 455.5 438.5 432.1 429.5 424.3 429.8 428.5 416 415 417.9 419.8 418.9 417.3 426.1 455.5 475 481 487.8 486.3 484 478.4 473.7 470.1 467 467 467 467 467.3 472.3 480.8 496.5 521 541.2 538.5 529.8 521.2 511 504.8 500.8 497.8 496.7 496.9 497.5 496.5 497.3 499 499.8 500.4 501.2 502.8 504 502.5 502.2 498.4 493.7 487.5 481.3 470.6 467.5 464 457.7 453.3 451.3 449.4 447.4 445.7 442.2 443.1 443.5 445.5 447.7 446.5 445 444.4 445 446.3 446.7 446.5 446.8 449.2 452.9 453.7 455.4 453.3 450.8 447 444.6 443.3 439.7 435.4 432.7 433.6 428.6 425 420.5 416 411.4 408.3 404.7 401.9 400.8 399.3 397.2 395.8 401.9 404.9 406.5 408.9 415.3 424 436.1 443.2 447.5 454 457.2 452.9 449.3 450.6 451.1 454.1 458.1 462.5 466.3 467.1 469.4 474.6 480 483.1 487.5
187.4 204.7 216.6 210.7 192.6 189.2 187.6 198.2 209.8 217.8 234.2 237.6 231.6 228.2 236.4 235.7 223.3 218.3 218.1 221.8 227.7 237.9 252.6 263.8 266.2 275.2 288.6 304.8 311 314.4 316.5 320.7 326.2 330.3 328 327.9 342.2 362.5 389 402.3 418.8 436.4 452.7 476.5 475.6 485.3 466.3 441 420.8 404 382.4 362.7 345 326 321 318.8 308.9 308.2 321.4 334.5 348.4 368.3 382.9 385 386.4 395 426 426.2 441 459.7 466.1 464.3 442 432.4 426.5 423 423.1 417.4 411.7 410.7 413.5 416.5 415 417.6 434.4 461 476.8 491.6 490.8 488.9 484 477.6 474.5 470.6 467 467 467 467 468.3 474.5 485.5 498.8 523.9 537.6 532.5 524.5 514.6 505.5 498.1 496.1 494.8 494.8 495.9 495.2 497.3 499.7 501.3 502 501.2 502 504 505.6 506.1 504.2 501.4 496.8 491.5 482.2 470.7 466.8 464.2 458.4 451.7 448.5 446.8 446.9 445.7 446 446.1 445.5 444.5 448.2 448.9 448.4 447.4 447.9 448.9 449.2 448.7 450.8 453.7 458.9 456.1 459.8 456.9 453.2 449.1 447 445 442 440.4 439.5 438 433.4 428.3 422.7 417 413.1 410.2 405.6 402.6 401.4 399.8 396.9 399.8 403.5 406.1 408.5 411.8 417.2 426.9 437.4 444.5 450.6 455.4 456.9 454.5 451.3 451.2 453.2 455.1 456 460.1 461.4 460.1 467.6 471.6 476.2 478.8 484.4
201.3 213.9 217.5 215.6 188.3 186.2 186.6 203.8 215.6 213.6 220.9 222.7 220.3 218.8 229.4 227.3 218 215.3 220.3 224.6 228.1 233 244.3 251.8 256.5 268 284.2 297.1 304 309.9 310.7 314.8 320.4 325.1 323.1 319.5 328.6 343.7 352 356.1 374.1 388.8 408.1 426.5 438.2 430.1 413.7 399.9 384.6 368.8 349.3 331.7 318.4 313.6 312.1 303.5 302.3 314 324.3 342.8 360.4 383.1 405.6 402.2 394.5 402.9 426.6 429.4 456.6 461.8 470.5 458.7 438.7 428.4 422.1 418.8 418.7 417.8 413.6 406.2 408 409.9 410.7 417.2 443.6 467.5 474.3 501.4 495.2 486.8 481.1 476.1 473.5 471.1 468.7 467 467 467 468.5 478.1 486.8 499.9 528.3 541.6 528.6 518.2 508.8 501.5 494 493 492.1 492.8 493.5 494.9 498.2 500.6 503.3 503.6 504.3 503.4 505.5 506.9 506.9 505.4 502.8 498.9 492.2 483.1 470.7 466.2 465.4 458.5 453.5 452.9 451.5 450.5 449.6 447.8 445.7 444.2 446.5 447.7 449.5 449.2 450 452.7 451.8 451.6 452.7 454.8 458.5 462.9 467.5 464.3 461.8 458.5 455.4 452.5 447.3 446 445.6 445.6 443.3 439.6 436.8 432.7 423.7 417.1 412.4 407.5 405.4 402.5 400.2 398.1 400.8 403.8 406.9 410.4 413.6 419.8 428.3 435.7 446.4 454.2 457.8 458.1 455.6 453.5 453.5 454.7 453.2 453.2 455 455.2 454.1 459.1 465.9 470.4 473.2 475.7
192.3 213.9 217.2 206.4 183.8 184.6 191.8 209.9 217.3 208.2 208.7 209.9 208.9 211.2 219.9 215.5 212.5 214.3 222.1 228.8 230.8 234.7 241.2 246.4 253.6 264.2 279.6 290.1 296.8 300.4 302.9 308.4 313.5 315.4 317.7 314.2 315.7 327.9 329.7 328.7 340.6 356.4 377 386.2 390.2 387.2 376.8 365.3 348.6 336.6 319.4 306.4 305.4 304.1 300.6 294.1 306.4 319.7 337.7 354.3 386.4 424.1 435.9 414.3 402.2 416.8 435.8 434.2 454.2 456 452.7 445.7 429 421.2 418.2 414.1 413.2 412 406.9 403.1 403.3 403.6 406 420.6 448.7 473.8 477.6 480.3 484.9 480.4 476.7 475.2 471.7 468 467 467 467 472.6 478.6 481.1 488.5 501.6 536.2 538.9 522.6 511.3 503.7 496.7 491.2 489.9 490.4 489.2 491.8 497.8 499.8 501.9 504 505.5 506.5 504.6 506.9 508.2 508.4 506.9 504 499.1 491 482.3 469.6 465.8 463.3 458.8 456.3 455.5 453.8 453.4 451.6 449.5 446.1 447.2 448 449.2 450.5 451.7 452.6 455.1 456.1 456.9 459.8 461.8 467.4 472.1 475.8 468.9 469.1 464.9 460.5 454.7 449.9 451.2 451.5 451.1 449.1 445.6 442.2 437.8 429.6 421.1 413.4 410.4 408.2 404 400.1 399.2 401.2 404.4 408.3 412.9 416.9 424.6 431 442.6 451 457.7 460.4 459 455.8 455.1 454.8 454.8 450.5 449.8 449.6 449.3 450.4 454 461.9 465 467.5 470.6
191.6 200.9 215.5 189.2 180.8 188.4 196.2 210.2 216.5 206.3 203.1 202.4 201.8 203.6 205.2 210.9 210.7 213.4 221.1 229.7 231.3 235.4 239.6 246.6 255.8 266.8 274.7 284.7 291.3 294 296.6 300.7 300.3 305.3 314.9 314.8 312 316.2 315.8 314.1 317.5 324.3 337.1 350.1 350.6 347 340.6 329.7 317.2 305.9 299.3 298.4 297.4 294 289.2 299.6 311.5 330.1 349.5 377.4 417 436.2 443.9 416.7 412.5 434.2 441.7 437.4 446.8 440.2 434.5 428.5 418.4 414.4 413.8 412.4 402.8 402.3 403.4 402 401.1 402.3 406.9 420.9 456.4 472.8 473.8 473.3 477.1 476.6 473.1 468.3 467 467 467 469.3 473.8 475.9 478.7 481.1 487.8 500.3 533.9 533 514.6 505.3 499.3 493.3 489.6 487 489.2 486.3 491.9 497.7 500.5 503.3 504 506.8 508.1 507.7 511 512.1 511.9 510.1 504.9 497.2 491.4 482.5 469.8 466 463.5 461.2 459.2 458 456.7 455 453.3 451.1 447.1 449 450.3 451.2 452.2 453.7 457.5 462 462.5 461.1 462.7 466.3 470.7 475.1 477.4 474.9 470.8 465.7 462.8 460 454.9 458.4 459.3 457.5 454.4 450.5 445.7 442.3 434.3 424.7 420 416.3 412.4 407.9 401.7 401.4 402.5 405.9 411.1 414.7 419 428.2 437.5 446 454.6 459.2 461.1 461.1 457.2 453.1 451.6 448.4 446.8 447 446.9 446.8 449 453.8 458.2 461.4 465.5 468.7
195.2 195.9 204.3 181.6 183.2 194 195.1 214.2 219.9 204.4 203.2 200.7 200.2 201.6 203 207.9 209 211.1 216.7 223.9 229 237.1 242.5 249.5 260.1 267.1 273.9 280.6 285.8 287.3 289.6 284.9 287.4 295.1 299.3 300.7 306.5 307.5 306 303 305.2 310.5 313.8 323.2 323.7 322 317.4 311.1 300.1 290.9 290.5 290.4 289.9 283.2 291.5 304.1 320.1 336.4 367.9 395.5 426.7 445.2 441.6 416.8 417.4 436.4 434.8 430.7 433.9 432 427.3 416.8 411.2 408.2 407.6 407.2 398.4 399.4 399.8 401 401.3 403.3 408.3 426.4 445.6 454.9 460.3 466.5 469.5 468.8 464.4 467 467 467 467 469.3 472.7 475.5 477.7 480 484.6 500.4 514.5 522.1 511 499.2 493.5 488.6 487.2 486.4 486.9 486.1 492.8 496.3 499.5 503.4 507.2 509.1 507.2 510.7 513.4 511.8 508.3 504.8 500.3 495.6 490.5 483 473.9 468.3 464.8 463.4 461.7 460.4 457.7 456.2 454.1 451.5 448.5 451 452.3 452.8 454.5 457 459.7 462.6 465.5 467.1 467.7 467.5 472.4 475.8 477.8 474.6 472.3 468.7 467.4 465.3 462.1 465 465.1 463.6 460.5 454.2 449.2 445.7 438.1 431.6 425.5 420.7 416.7 410.3 405 400.2 404.2 409 413 415.5 420.5 431.2 441.6 450.2 457.5 461.1 462.5 463.2 456.8 449.7 446.9 444 443.4 443.6 443.5 445.1 447.4 452 455.1 458.6 463.7 468.6
197.1 192.4 180.6 172 179.3 184.3 190.8 216.2 218.7 206.1 204.9 201.7 203.2 203.1 204.6 205.4 204.4 212.7 221.8 225.2 230.3 240.9 249.3 256.6 267.2 271.3 274.1 277.4 279.1 280.2 275.5 272.1 275.5 278.7 279.8 283.3 293.6 295.7 293.3 294.8 298.1 299.7 303.1 303.6 305.5 303 297.2 288 285.4 283.6 282.8 282.3 279.7 287.3 298.1 316.3 332.4 359.8 382 402.3 429.8 441.6 438 424 426.1 438.9 428 425.7 426.8 424.1 415.8 407.7 404.9 405.2 404.7 398.9 396.6 397.7 400.3 404.9 403.4 405.4 410.9 426.4 438.9 452.4 456.5 457.9 459.8 460.7 462.2 471.8 467.7 467 467.2 470.7 471.5 474 476.3 478.3 481 486.8 498 500.5 500.5 493.8 487 485.2 483.5 484.9 484.2 488.1 493.7 497.3 501.4 505.2 508.8 510.6 512.2 511.9 510.7 508.7 504.9 501.9 498.9 494.9 489.8 482.5 473.9 470.3 466.5 464.3 462.8 461.7 459.1 456.3 454.2 450.6 453 453.5 454.9 458.2 460.9 463.4 464.1 468.2 472.4 471.9 471.8 472.1 473 478.5 478.9 475.7 473.3 471.1 471.3 469.3 469.8 471.1 471.6 467.2 461.7 456.8 452.3 448.3 441.9 435.8 429 424.7 418.1 412.8 408.5 402.3 406.2 411.3 413.7 416.5 423.5 436.1 444.7 454.1 459.8 462.6 463.9 460.8 452.2 446.7 442.8 440.7 440.7 440.4 440.7 443 444.5 447.8 451.5 457.5 463 468.5
202.6 196.8 178.6 169.1 167.4 168.5 182.6 194.8 199 197.6 200.7 195.9 200.4 205.3 198.9 198.5 206.1 218.4 224.4 228.5 234.6 241.9 247.6 253.1 265.9 273.8 275.9 274.7 273.5 269.7 265.1 263.4 263.7 271.9 271.3 275.5 281 282.8 283.7 286.5 289.5 292.9 294.5 293.5 287.8 285.3 283.7 280.7 278.3 277.6 275.3 277 280.9 292.8 310.7 330.1 356 376 386.1 395.7 418.3 436 431.4 428.3 425.6 427.9 418 418.7 409.7 414.3 404 398.3 402.5 403.7 400 395.1 400.4 403.3 404.9 407.2 406.6 407.3 416.4 427.9 441.3 453.4 457.7 462.1 462.4 462.1 464.8 469.7 468 469.6 469.6 472 473.6 475.1 475.1 478 481 489.9 500.9 506.1 502.3 488.4 482.2 482.1 481.2 481.7 486.2 489.8 496.6 499.7 502.2 505.7 509.9 511.6 512.6 510.5 509 506.1 503.6 500.8 497 492.5 487.8 475 472.9 469.9 466.6 466.4 463.6 461.9 458.4 455.3 453 452 452.1 453.5 455.5 458.7 461.8 464.2 467.6 473.7 476.3 479.8 483.9 474.3 474.7 480.6 482.1 480 477.3 476.9 477.9 476.1 477.3 475.6 475 472.5 468.4 464.8 458.9 451.4 444.7 438.3 431.9 427.1 420 415.9 411.2 402.5 408.2 412.6 415 418.3 427.4 438.8 447.1 454.7 459.9 462.2 462.1 457.9 450.5 443.9 439 435.9 437.3 436.6 438.7 439.7 440.6 443.4 447.6 455.1 460.6 466.4
191.8 180.5 169.6 166.4 165.1 166.9 178.6 186.1 185.7 189.2 193.4 189.4 191.6 197 194.7 197.4 209.2 216.9 221.1 223.7 229.5 237.4 243.5 248.9 259.1 269.5 272.7 270.3 265.1 260.7 258.6 256.6 254.3 257.5 261.5 266.2 269.9 274.9 275.4 276.6 279.9 281.9 280.4 278.8 279 279.2 277.1 276 274.6 271.1 270.7 275.5 288.8 306 321 336.3 351.4 369.6 384 396.8 410.9 429 431.6 424.6 430.3 424.3 414 405 401.1 397.8 390 391.7 399.2 400.8 398.5 392.1 399.5 402.7 404.7 406 407.8 408.3 422.8 428.5 440.5 450.2 454.2 459.5 462.4 463.3 465 468.5 470.9 467.6 468.7 470.5 471.9 475.9 475.9 476.2 479.3 486.1 497 491.7 480.6 478.9 478.3 477.5 480.7 485 488.3 491.3 495 497.8 501.6 506.8 511.2 510.8 509.3 505.6 505.8 502.1 500.3 498.6 493.7 484.9 476 473.6 472.6 469.9 468.6 467 464.8 461.7 458.3 454.9 452.9 450.3 450.7 452.3 454.7 458.5 464.6 468.5 471.1 476.5 482 482.7 487 476.4 478.3 482.2 483.9 481.9 480.9 481 478.9 480 480.7 481.8 480 477.2 473.5 467.3 460.6 454 447.1 441.9 435.3 427.8 421.8 417.2 411.3 403.9 409.3 413.1 415.9 418.9 430 440 445.4 452.6 457.5 458.7 458.9 455.8 447 437.5 433.1 432.4 433.4 431.6 434.2 436.9 438.4 440.8 445.6 450.5 454.5 457.4
191.2 174.8 165.7 163.9 163.5 167 175.5 177.7 174.6 177.5 182.9 178.9 182.5 190 194.1 202.9 206.3 207.8 211.8 215.4 229.8 237.9 242.7 247.2 252.7 261.7 264.3 260.5 256.5 254 253 251 250.3 252.7 255.5 260.3 264.1 267.4 270.3 267.7 268.5 270.4 269 270.5 268.5 263.9 265.2 266.7 267.2 267.1 270.2 277.5 298.1 308.3 319.8 335.2 354.3 368.5 387.9 410 426.9 437.2 426.5 425.2 447.9 420.1 407.1 396.3 396.2 388.7 381 395.6 390 393.5 395.7 391.4 397.3 401.1 403.2 404.8 407.7 416.4 428.3 428.4 447 455 457.6 463.3 464 464.7 464.5 463.8 466.2 466.8 470.3 471.5 473.8 482.9 476.5 476.5 478.1 479.4 491.2 479.6 476.7 476.6 478.2 481 483.4 486.1 488.6 491.1 494 497 499.7 506.6 507.8 506.4 500.8 499.8 499.3 497.6 495.8 492 482.3 474.5 473.9 472.6 474.4 470.8 469.1 468.3 466.7 461.1 457.5 454.9 453 451.3 450.1 452.5 454.8 460.9 466.5 468.9 471.8 476 480 481.2 481.2 479.7 479.7 482.9 485.1 483.3 481.9 482 482.5 482.5 484.1 484.9 484.9 481.4 475.4 469.6 462 454.6 449.6 444.4 436 429.1 420.5 414.6 409.2 405.2 408.7 413.2 416.5 419.9 431.7 438.3 442.5 449.1 451.2 452.6 452 448.5 437.8 429.4 428.7 429.5 428.7 430 433.3 434.9 435.8 438.9 443.6 449.2 452.3 455.8
192.2 165.7 160.6 160 168.1 168 172.9 175.5 170.2 169.7 169.6 172 188.3 191.7 200.5 207.5 206.9 209.2 213.6 220.2 227.9 233.9 240 243.8 246 248.3 248.8 246.5 247 248 248.8 247.9 248.5 250.3 253.6 257.2 260.9 265.2 268.6 263.8 260.3 258.2 260.8 261 260.4 261.4 261.9 263.8 263 266.2 269.1 283.9 296.7 306.1 317.1 334.5 348.3 373.6 389.4 406.4 419.1 422.2 417 429.2 437.5 413.9 401 393.7 388.2 380.9 379.3 382.4 388.9 388.7 391.5 391 397 405.8 408.9 411.8 409.3 424.6 432 430.1 449 453.7 468.8 471.8 470.2 466.4 465.4 464.9 471.4 471 480.8 474.2 479.2 481.4 477.6 476.6 478.1 491.6 479.5 473.9 474.6 475.2 478.6 481.2 482.9 485.6 488.3 490.6 492.9 495.3 498.1 502.3 502.9 500 497.7 496.3 494.8 492.3 488.4 478.8 475.3 473.1 471.9 470.1 468.8 468 466.4 466.6 466.2 462.2 458.5 455.8 455 453.9 453.3 456.3 460.1 464 468.1 470.7 473.8 477.2 481.9 485.5 483.4 481.5 480.4 483.1 484.6 483.8 482.4 483.6 483.6 484.4 485.5 488.5 488.9 483.1 477.1 471.4 464.1 457.4 452.5 444.6 436.3 427.2 421.1 414.8 409.5 406.7 408.7 413.6 417.3 420.4 427.3 433 437.8 443.2 444.9 443.1 437.4 433.2 429.3 425.7 424.9 424 426.1 428.4 430.5 431 434.2 437.7 442.6 447.7 451.9 456.2
185.5 162.9 157.5 156.8 171.5 167.7 171.1 173.1 169.6 169.1 168.5 173.1 187.3 194.2 202.7 209 209.7 213.2 219.2 223.6 227.6 235.4 239.1 240.6 240.8 241.4 241.5 242.2 243.5 245.1 245.7 246 248.2 250.2 253.8 257.9 262.5 265.9 266.2 263 258.4 254.4 255.3 255.7 256.8 258.4 257.7 260.3 262.7 266.3 275.3 285 294.6 309.3 321.2 344.1 361.1 384.7 397.9 409 429.5 414.4 408.5 409.3 425.1 404.7 398.1 390.2 388.1 378.2 377.3 389.1 398.8 397.8 396.4 393.4 398.9 407.8 410.5 413.2 412.9 431.7 436.6 435.8 448 474.7 473.5 476.3 475.2 482.2 479.5 479.2 475.6 475.6 479.6 474.7 476.8 478.4 474.9 476.5 475.6 475.4 474.2 472.8 472.3 476.7 479.7 481.8 483.6 485.9 488.4 489.9 491.3 493 494.8 497.6 497.3 496.3 494.7 492.4 488.6 485.9 479.1 476.6 474.4 471.7 470.3 468.5 466.8 465 463.4 462.2 462.3 461.1 459 458.3 459 457.3 459.4 460.1 463 465.1 467.3 470.7 474 477.6 483.2 486.1 484.8 480.9 480.9 481.6 483.1 482.9 484.1 484.9 486 486.2 487.4 489.1 488.6 482.9 477.8 470.8 465.7 458.4 452.9 444.8 435.1 425.6 420.6 415.9 410.2 409 408.7 413.5 417.4 419.9 422.8 425.7 428.4 431.7 435 428.2 422.5 419.1 421.1 421.5 421.5 424.2 423.9 425.8 426.6 430.4 433.2 438.5 443.8 447.2 450.6 456.1
178.6 162.1 154.2 153.5 165.5 161.8 170.6 171.1 172.7 168.3 168.1 179.4 185.6 192.9 204.8 212.3 214.2 215.7 217.8 224.4 229.4 237.9 240.8 240.7 240.9 240.3 240.7 241.8 243 243.9 243.5 243.8 246.1 250.1 254.3 258.4 257.3 259.4 257.4 251.4 248.9 246.7 246.8 252.9 254.9 260.6 265.2 264.9 265.7 267.3 279.1 286.5 296.8 311.7 325.2 348.1 361.7 378 391.4 403.9 410.7 407 398.8 390.8 404.4 395.7 386.3 381.7 372 378 389.7 396.4 404.1 398.1 397.4 395.3 401.3 409.2 410 413.3 421.6 436.1 441.2 441.4 460.7 481.2 497.4 494.5 494.6 491.5 490.7 483.9 483 482 481.8 471.2 470.6 470.3 470 470.6 474.1 469.3 470.5 470.2 475 477.6 480 482.5 484.6 485.5 486.9 488.4 489.5 490.8 492.9 494.2 494.1 493.2 490.8 486.6 484.5 481.6 477.7 473.8 469.9 468.7 468.1 466.7 464.3 462.2 460.3 459 458.4 458.4 458.6 457.7 457.1 457.7 458.9 460.1 463.5 465.5 466.8 469.3 472.7 476.7 480.2 482.4 483.3 480.9 481.5 482.2 482.4 483.4 485.8 486 486.8 487.3 489.5 488.5 485.7 483.1 478.3 469.8 464.7 457.1 451.7 443.7 435.8 426.8 421.6 415.1 411.5 411.7 409.2 411.9 416 417.9 419.1 419.7 417.4 416 414.9 412.5 412.6 413.4 416 417.1 419.6 421 422.3 423.6 425.3 428.4 431.5 437.4 443.4 447 451.1 454.5
162 153.7 147.3 152.4 159.3 156.2 166.7 164.9 170.7 167.5 170.7 181.4 184.2 190.8 205 216.3 215.4 213.7 214.3 222 229.1 238.4 242.4 241.3 240.7 241.2 240.4 242.3 244 243.6 242.9 241.3 241.9 244.1 247 247.5 248.1 246.3 246.2 242.6 236.2 244.8 253.8 259.6 261.8 264.3 265.1 264.9 264.5 270.3 288.7 288.7 303.6 319.5 336.5 346 360.2 375.3 390.4 403.9 397.7 399.7 388 376.6 376.3 378.6 363.4 364.9 374.4 379.8 385.4 393.6 397.3 398.5 402.4 401.3 404.2 409.9 409.6 409.3 423.9 438.1 442.3 445.2 464.8 495.2 502.8 507 507.1 504.5 491 485 480.8 475.6 472.5 471 470.4 469.3 467.9 468.1 469 468.3 470.8 474.1 476.1 478.5 480.6 481.9 482.9 483.3 484.7 486.2 488.2 490 491.7 492.1 491.8 487.4 484.1 483.8 482.6 480.3 476 471.9 467.7 465.9 465.7 464.5 462.8 460.1 458.9 458.1 457.7 457.3 457.7 457.8 457.6 457.3 458.6 459.8 462.2 464.4 466.5 468.6 472.8 475.9 479.4 481.2 480.1 481 481.5 484 482.9 483.1 484.1 486.2 486.2 487.4 487.3 484.5 482.3 478.6 472.1 467.6 462.7 457.1 451.6 442.7 434.6 426.4 423 413.3 417.4 415.1 410.5 411.9 415 415.7 415.3 415.1 413.6 412.6 411.7 411.5 411.9 412.5 413.5 414.1 415.8 417.9 420.4 420.8 423.9 426.7 430.8 438 443.2 446.6 450.9 453.9
153.1 147.7 145.7 149.7 150.8 154.4 155.2 158.5 158.2 158.4 175.7 182.4 183.1 192.1 204 211.8 213.6 212.6 212.8 220 232.1 238 239.3 240.7 242.2 239.9 238.1 241.5 244 243.1 241 233.4 235 237.8 237.6 234.2 232.9 233.3 231.2 230.9 238.7 251.7 261.5 263.3 266.1 267.2 267.1 264.4 264 276.7 290 289.2 311.3 321.7 345.5 353.7 361.8 377.1 384.8 399.5 387.5 392.3 378.8 358.9 355.7 356.2 357.3 366.3 375 378.1 385.5 390.8 400.3 401 404.3 401.5 403.7 406.4 404.5 408.8 419.5 430 433.9 445.9 479.8 494.4 497 503 514.6 514.9 503.3 497.6 483.6 484.5 474.6 474.1 474.6 467.9 466.3 467.1 466.6 469.6 472.8 474.7 476.6 477.6 478.8 479.5 479.9 480.4 482.1 484 487 488.7 487.9 487.3 485.5 481 481.8 481.6 480.3 477.8 473.7 469.4 465.2 463.1 463.1 462 460.2 458.9 458.4 458.1 458.2 457.9 458.3 458.8 458.7 457.8 458.6 459.9 461.8 463.8 465.4 466.7 471.5 474.9 479.5 481.5 480.1 479.3 483.8 484.6 485.6 484.7 483 484.9 484.3 486.9 487 485.5 480.1 475.7 470.7 467.5 461.3 453 446.9 438.4 430.5 424.9 422.9 426 426.2 424.8 412.2 414.8 415.6 415.2 414.9 414.6 413.9 412.8 411.8 411.4 411.5 411.8 412.2 412.7 414 416.1 417.7 420.2 422.6 425 428.9 437 441.8 445.2 448.5 451.7
146.1 143.8 144.4 148.1 147.3 147.9 150.3 152.7 152.8 159 171.8 179.1 184.5 191.7 203.5 209 211.2 208.4 207.7 217.4 232.9 236.9 238 239.3 239.8 238.8 235 238.1 241.9 239.5 232.8 225.5 227.7 228.5 228.1 226.2 225.4 224.5 225.3 232.6 246.3 251.8 254.9 255.6 256.6 258.8 259.2 265.7 266.6 278.2 290.5 296.6 311.6 325.9 345.5 350.7 358 364.4 381.6 378.8 383.4 382 369 354.9 355 356.3 359 376.1 377.3 382 385.9 388.3 395.7 408.2 404.6 403 400.6 400.8 401.7 404.6 418.7 434.5 438.7 449.8 483.9 496.5 502.7 502.8 518.7 518.5 513.7 506 489.5 481.1 477.2 470.8 469.4 468.1 466.7 465.4 465.8 470.1 472.1 473.9 474.6 475.3 475.6 475.9 476.4 478.1 479.3 481.6 483.6 485.1 483.5 482.7 479.6 479.9 479.9 479.3 477.9 475.3 471.4 466.7 460.8 460.6 460.8 460 459.1 458.4 458.4 458.8 459.1 459.8 460 460.6 460.8 460.3 459.7 459 461 463.5 465 466.7 469.9 472.6 475.3 476.2 478 479.9 480.9 482 484.3 483.5 484.6 486.7 485.1 485.8 485.8 483.6 478.7 474.6 469 463.3 455.2 448.8 442.8 435.3 428.8 426.8 429.6 429.8 429.1 427 415 417 417.4 417.4 416.8 417.3 418.9 418.3 415 412 411.1 411.2 410.9 411.6 412.6 413.8 415.5 418.6 420.6 422.6 425.9 434.3 438.8 441.8 444.8 447.3
141.4 141 143.2 146.5 145.1 145.7 147 148.3 149.5 156.8 169.8 178.1 184 192 202.1 209.7 213.2 203.8 206 219.4 230.1 232.1 232.2 233.5 230.5 234.5 234.4 236.8 235.2 227 220.3 215.1 215.7 218.9 219.9 217.1 217.7 225.6 229.2 234.8 238 243.3 245 243.3 245.8 249.6 256.1 272.7 270.8 275.2 293.3 302.4 315.8 335.7 346.8 357.8 364.5 366.5 369.7 370.2 382.8 361.8 356 354.3 355 360.3 371.1 386.4 385.7 387.6 390.8 390 402.5 412.9 409.3 407.5 408.9 403.3 401.2 402 425.9 442.5 448.4 467.1 486.7 511.3 510.8 503.3 504.5 516.9 512.5 502.2 489.9 482.5 474.2 471.2 470.2 469.6 468.5 466.1 464.7 468.3 469.4 470.3 470.9 471.8 472.4 473.7 474.8 475.1 476.3 478.4 480.9 479.4 477.8 477.6 478.1 478.6 477.6 476.4 474.1 469.9 465.1 460.9 460.7 460.4 459.9 459.2 459.5 459.1 459.8 460.5 460.9 461.7 462.4 462.9 462.6 461.8 461.6 462 460.9 463.2 465.1 466.2 467.2 469.5 471.8 474 473.8 476.1 477.4 479.7 481 483.6 488.8 484.8 483.9 482.6 482.6 479.4 475.8 471.2 465.5 458.9 451.7 445.7 438.3 433.5 431.1 430.6 431.7 431.5 430.6 428 417.6 421.9 424.7 424.4 423.5 425 426 425.5 423.1 414.9 411.7 411.4 411 410.9 411.4 412.5 414.1 416.9 419.1 420.9 422.8 431.5 434 436.1 439.4 442.5
139.2 142.4 143.1 145.2 144.2 144.8 146.1 146.6 148.8 155.5 172 179.4 186.1 191.6 198.4 207.9 208.5 202.6 205.6 219.1 221.3 223.2 224 225.5 226.1 226.1 229.6 228.7 223.7 218.1 213.4 210.8 210.2 210.6 213 216.1 220.3 222.8 225.1 227.6 232.7 235.9 237.6 238.6 241.7 246.7 255.5 273.1 277.7 279 291.7 304.6 325.6 348.4 353 359.3 365.3 365 364.1 356.2 353.6 353.5 353.6 353.8 365 374.3 380 383.9 389.5 399.4 401.7 401.4 410.9 412.1 410.1 414.8 420 413.5 409.3 414 442 451.6 452.1 470 493.6 503.1 505.9 504.9 507.9 509.8 507.1 496.6 486.9 478.3 474 472.1 470.9 470.2 469.3 467.9 465.1 462.4 465.7 465.9 467 468.7 471.3 472.7 471.1 471.8 472 473.6 473.8 473.6 473.5 475.7 476.6 477 475.2 472.4 469.3 465.2 462 461.1 462.2 461.4 462.2 461.3 461 461.8 462.5 463.5 465.3 466.5 465.3 465.5 464.5 463.6 463.8 463.9 460.9 463 464.4 465.1 465.6 467 468.8 470.2 471.5 473.5 476.1 477.7 478.7 480.5 481.7 482.9 483.2 483.5 479.4 474.3 471.5 467.6 460.6 455.7 449.5 444.1 439.1 433.8 432.1 432.8 433.1 432.4 431.3 427 431.8 434.1 434.7 433.5 431.6 430.7 430.2 430.4 428.4 422 418.4 414.6 412.3 411.5 410.8 410.1 412.5 415 417.1 419 420.5 422.2 426.8 429.8 432.5 435.9
142.5 144.2 143.6 143.8 144.1 145 152.3 148.4 152.8 162.6 174.6 182.6 186.6 188.9 196.6 199.8 200.7 202.4 207.6 213.3 214.2 219.4 224.2 226.1 225.5 221 216.4 215.4 213.5 213.4 211.7 206.4 209.9 209.9 211.6 213.5 216.4 217.8 221.6 226.2 228.3 231.7 238 237.3 237.9 248.2 256.8 273.1 287 286.3 293.1 306.3 329.6 340.2 349.3 346.8 344 344.8 356.5 354.4 352.4 353.2 354.3 360.1 376.6 393.6 392 390.5 400.1 414.3 410.7 410.1 416.1 415.4 419.5 430.8 427.4 415.5 418.1 429.4 458.4 465 464.9 480.5 500.7 499.2 501.6 503.8 513.6 514.8 504.7 495.2 482 477.3 475.1 473.1 471 469.6 468.1 467.1 465.8 463.4 461.2 462.2 465.1 467.2 469.8 469.2 467.9 467.9 468.2 468.1 468.3 469.1 471.4 473.8 475.1 475.1 471.2 467.9 465.5 462.5 462.3 462.3 463.5 463.7 464.8 465.6 467.4 467.9 468.1 469.1 471.9 472.3 471.1 470.3 467 465.7 465.1 463.8 461.6 462.9 463.4 464 464.6 465.3 466.8 468.1 469.9 472 473 473.3 475.7 475.2 476.4 479 478.7 477.1 476 470.9 470.3 466.5 459.2 454.7 449.9 442.4 436.7 434.4 433.6 434.3 434.2 432.7 430.3 433.6 438.1 439.4 439 437.9 436.1 434.8 433.7 432.5 430.1 427 424.1 421.2 416.1 413.9 413.8 413.1 411 413 415.2 416.8 418.1 419.7 420.9 424.7 426.9 426.8
150.1 148.5 151.4 145.5 144.9 152.2 151.8 154.2 162 163.1 173.3 180 182.6 183.6 193 192.6 196.4 196 196.8 196.5 200.5 214.3 221.5 227.2 225.9 215.1 208.5 205.1 203.4 200.5 202.6 210.2 212.5 214.3 215 218.6 222.9 235.2 239.4 239.5 241.3 246.7 255 261.1 261.6 255.6 254 276.1 289.9 289.5 296 311.2 326.1 323.4 338.1 340.4 349.2 363.6 364.1 354.8 352.8 353.4 362.1 372.1 385.1 406.6 406 406 418.5 417.3 411.3 416.2 422.3 423.7 424 427.8 423.7 417.2 426.1 444.8 472.8 474.3 483.8 525.6 514.8 504.6 508.8 512.6 519.4 512.2 508.4 496.1 481.5 475.9 474.4 472.4 470.4 468.4 466.8 465.4 465.4 463.2 459.3 461.8 464.3 465.5 466.9 467.1 466 465.7 466.4 466.7 466.9 468 470.5 473 474.3 472.8 467 465.3 464.2 463.7 463.9 464.1 464.9 465.6 467.1 468.5 471.1 472.7 473.3 474.8 478.1 478.1 477.1 476.4 472.1 468.5 466 463.6 462.6 463.1 463.2 464 464.6 466.1 467.9 467.7 470 470.8 471.4 472 471.3 471.2 470.6 469.7 468.7 468.8 468.7 468.7 465.7 465 460 455.5 449.9 442.2 437.7 435.3 434.7 434.2 433.4 431.8 431.2 438.8 441.5 442 441.2 439.7 437.2 436.8 434.6 431.4 428.9 427.4 425.1 422.7 419.4 417.6 417.8 415.7 409 411.2 413.4 414.9 415.8 417.1 417.7 418.8 420 417.5
151.7 156.5 153.3 146 146.3 148.2 149.1 151.9 157.4 160.7 168.2 173.9 177.7 182.1 185.2 187.8 191.3 195.5 193.3 195 197.3 211.7 220.9 218 212.8 207.9 202.7 200.2 196.5 202.5 213.8 218 217 216.4 218.7 226 233.5 242.1 249.1 251.8 255.4 260.3 269.3 274.3 275.7 268.1 260.2 274.7 286.3 289.7 293.5 300.6 310.2 328.8 344.6 354.4 357.7 368 356.5 352.7 352.6 355 377.1 379.2 390.4 422.1 416.6 414.8 414.6 414 415.1 431.4 430.4 429.2 429.7 431.4 424.5 422.8 434 458.9 478.8 479.7 498.2 538.7 538.5 522 515.5 523.4 525.2 519 511.7 502.4 492.8 481.4 477.7 471.6 469.6 467.3 465 463.9 463.7 462.5 458.6 460.9 462.8 464.7 464.9 465.1 464.3 464.3 465.1 465.1 466.2 467.4 469.3 471.8 475.3 473.5 466.3 463.3 463.8 465.2 465.7 465.9 466.7 468.3 470.4 472.6 474 476.2 478.1 480.1 481.4 481.3 479.3 477.2 476.4 472.4 470.4 467.9 464.3 463.4 463.7 464.2 465.2 468.1 470.8 468.5 469.7 469.5 469.7 469.4 467.9 467.5 466.4 464.5 463.5 463.7 463.9 464.1 463.7 464.6 463.5 456.2 451.5 445.9 441.5 438.5 437.3 438.3 435.2 434.3 436.5 443.1 444.2 443.5 442.8 441.1 439.4 437 434.2 430.5 427.7 426.3 424.8 423.6 420.9 420.2 419 415.3 412.3 409.4 412 414.2 414.9 414.9 415 415.1 414.7 412.7
147.4 154.3 151.4 141.6 142.8 146.4 148.7 148 150.6 156.2 161.6 167.2 172.7 175.7 178.4 180 187.5 189.6 194.3 193.7 199 205.4 205.4 200.9 199.8 200.6 198 195.2 201.5 207.8 214.3 219.7 222.6 225.9 231.3 236.9 246.5 254 260.6 263 263.2 268.1 274.9 278.7 278.7 275.2 273.9 276.9 281 287.4 292.6 309 322.9 326.7 343.7 354 357.7 361 353.7 353.1 356.1 369.8 390.9 389.2 393.8 414.6 416.3 414.4 414.1 413.8 424.3 435.3 441.2 436.8 441.9 430.9 426.1 429.3 441 462.9 482.2 486.1 506 550.4 550.2 535.7 529.5 523.6 521 515 507.1 497.6 493.4 491.1 492.1 486.8 478.5 469 464.2 461.3 459.9 461.5 457 459.9 462.1 463.8 463.2 463.1 462.7 462.1 463.9 462.5 464.7 465.5 466.8 468.8 470.7 467.9 461.9 463.7 464.4 465.9 466.8 467.7 468.8 471 473.5 476.3 478 480.5 483 484.8 484.6 483 482.5 481.4 479.9 478 476 473.4 468.7 467.1 466.5 464.9 466.1 469.9 469.1 468.9 469.6 469.3 468.3 465.9 464.3 463.5 462.9 462.1 461.3 462.2 463.8 463.6 462.8 462.6 464.9 462 454.7 453.2 450.2 445.8 447.7 446.8 445.4 441.5 440.8 445.8 446.2 445.7 444.8 443.6 441.3 436.2 431.4 427.2 425.5 425 424.2 423.1 421.4 420.1 418 415.6 413.9 407.1 410.4 412.4 413.1 413 412.8 412 410.5 408
140.7 144.4 150.3 139.7 146.5 151.7 148 145.5 149.4 153.8 156.3 163.6 168.2 170.4 172.9 175.9 182.6 185.5 187.2 190.5 193.2 193.5 190.3 187.8 193.1 191.1 187.2 197.5 205 209.3 214.8 220.8 225.8 232.2 242.4 249.7 255.1 262.6 267.2 269 273.7 277.5 278.2 281.8 286.8 284.8 283.1 284.5 289.2 292.8 297.8 319.7 336 349.8 353.3 358.9 363.9 356.7 354.2 354.8 367.7 383.8 407 399.9 396.8 419.5 428.9 424.9 415.8 418.6 434.9 441.8 450.1 446.2 437.8 429.3 427.6 433.6 441.5 452.2 474.8 486.3 505.9 534.1 544.2 537.7 532.7 529 521.4 512.7 503.8 491.7 492.7 489.4 494.1 493.3 484.2 475.1 465 460.2 455.7 457.6 456.4 462.3 462.3 461.3 460 460.2 459.3 458.5 460.4 460.3 461.8 462.4 462.5 462.1 460.4 460.3 462.9 465 466.3 466.6 467.8 470 471.6 473.8 476.6 479.7 482.5 485 487.1 487.7 487.2 485.3 484.3 484 483.1 482.4 481.4 478.5 475.3 473.5 471.6 469.3 466.5 469.1 468.8 469.2 471.2 468.5 466.1 465.1 462.4 460.2 460 460.5 459.9 463.1 465 464.5 462.1 461.6 461.4 460.8 459.3 458.1 456.2 453.2 454.2 452.7 451 449.6 448.7 448.1 448.8 448.1 447.3 446 443.9 438.1 427.4 424.6 423.1 422.8 422.2 422.8 421.6 418.6 416.9 415 412.5 409.4 408.3 410.1 410.6 410.3 410 409 406.6 402.1
132.8 141.7 137.9 137.3 147.9 153.2 148.2 143.7 142.6 148.9 154.4 160.6 164.4 166.1 168.7 173.5 178.1 181.1 184.8 186.6 188.5 187.3 186.5 181.1 181 191.3 197.6 203 207 212.1 214.9 221.6 227.8 236.7 244.2 254.6 263 268.3 271.2 272.8 279.2 282 285.5 292.4 292.2 284 284.3 285.4 291.3 300.9 308.9 330 341.5 351.1 359 361.7 367.4 360.6 361.9 375 379.2 392.1 423.2 415.9 410.6 431.6 439.3 444.9 431.2 435.7 438.2 456.1 457.2 449.1 435.9 431.3 429.8 432.6 441.4 448.3 466.7 484.4 509.1 524 532.6 533.1 534.2 528.7 519.8 509.3 496.7 487 481.6 479.8 486.8 484.9 484.5 478.1 470.4 458.8 452.8 453.2 455.1 458.9 457.1 458.1 456.4 456.5 455.5 454.7 456.4 456.6 457.8 459.2 459.8 458.4 457.5 460.7 463.1 465.5 467.2 468.9 470.5 472 474.8 477.5 480.6 483.5 485.7 487.7 489.8 490.5 487.7 486.2 487.3 486.6 485.9 485.5 484.8 483.1 479.5 476.9 475.3 471.8 469.3 469.3 469.1 469.2 469.6 467.6 465.5 464.3 460.7 457.1 456.6 458.6 459.2 461.1 462.8 461.9 461 460.5 460.7 461.1 462.9 462.7 460.9 458.3 458.9 457.1 455.3 454.7 454 452.1 451.1 450.9 451.4 450.4 447.1 440.6 430.2 424.1 421.5 421 421.4 422.4 421.3 417.7 415.1 412.2 410 407.5 404.7 407.4 407.7 407.2 406.8 405.5 401 395.4
129.2 134.2 134.9 136.6 147.9 152.8 145 139.1 139 146.7 151.7 158.5 159.8 162.2 167.1 171.5 172.8 180.2 183.5 183.3 180.6 176.6 182.4 186.2 189.8 194.9 206.1 214.1 220.9 225.2 223.6 224.3 236.2 242.5 248.6 256.4 262.8 267.6 270.8 276.8 282.3 284.9 289.7 292.4 288.3 286.3 288.2 291.8 299.3 307.2 313.1 326.8 341.9 353.9 364.1 361.7 374 356.7 367.2 392.3 396.2 425.8 436.2 427.5 431.3 462.8 451.4 449.4 442.1 452.2 462.5 460.9 460.4 455.4 446.8 431.1 431.1 436.2 441.8 442.9 473.5 483.5 497.5 511.1 511.2 509.1 517.9 517.3 520 507.4 486.1 482.7 476.8 474.3 472.1 473.7 470.4 462.8 459.2 455.2 447.5 447.7 453.2 453.5 449.8 450.9 452 452.8 452.1 451 451.7 452.6 454.1 456.1 459.2 457.4 458.2 459.9 462.4 465.5 467.6 469.4 471.7 474 476.3 479.3 482.5 485.5 487.8 490 492.6 492.7 491.9 491.4 491 490.7 489.1 488.1 486.6 485.3 482.1 478.8 475.5 472.5 470.8 470 469.9 469.8 467.2 466.8 465.1 464.1 461.1 454.1 454.1 456.4 457.4 457.3 459 458.5 458.7 459.2 459.9 460.9 462.5 465.6 464.1 464.5 467.2 463.5 461.7 460.5 457.6 457.2 456.1 456 455 453.4 450.6 445.6 438.9 431.4 422.3 419.8 419.4 419 418.4 415.7 410.5 407.5 404.8 404.6 404 406.2 403.9 403.6 401.3 401.9 397.6 391.7
127.3 125.6 132.6 135.4 139.4 143.4 135 128.5 135.9 135.7 145.7 145.3 143.2 147.4 162.8 161.5 169.6 170.5 174.4 170.7 169 178.2 185.2 189.7 194.4 200.7 212.6 220.5 225.7 229.2 231.6 238 244.1 249.5 256.4 259.5 263.4 268.1 272.3 278.7 282.4 284 284.9 281.4 285.3 290.9 293.5 297.8 300.7 306.1 315.8 328.6 346.6 359 364.1 357.4 356.5 362.2 379.4 399.5 403.1 442.5 439.9 435.9 445.8 471.5 458.1 456.2 454.5 448.5 476 475.9 462.1 458.9 453.4 435.2 436.6 444.3 446.5 445.7 458.2 472.3 480.6 488.9 495.4 503.5 500.7 502.3 497 486.7 478.8 475.2 474.8 472.3 468.5 464.9 460.3 457.6 453.9 446.2 444.1 441.1 441.6 443.4 445.8 448.1 448.3 449 448 447 447.6 449.3 451.9 457.1 457.2 455.6 456.9 458.4 461.6 464.8 466.1 469.6 472.3 475.2 477.7 480 483.3 486.6 489.5 492.4 495.2 494.7 494.1 494.9 494.3 493.9 492.2 490.5 489.1 484.5 481.4 478.8 476 474.3 471.9 470.8 470.2 468.5 467.1 466.3 464.3 462.4 459 452.9 452.6 453.8 454.8 453.7 454.7 455.3 455.7 457.5 459.8 460.9 462.3 464.7 466.9 468.8 470.8 467.3 466.3 463.4 463 462.3 460.4 458.8 457.3 455.3 452.7 449 444.8 438.5 428.9 426.2 420.9 416.3 413.3 411.9 408.7 408.8 406.2 401.8 404.3 405.7 402.3 398.7 398 397.4 393.9 389
120.4 121.9 129.1 138.5 128.9 127.8 122.1 127.3 136.9 146.1 148 152.5 159.8 165.2 170.6 171.1 170.2 165.9 167.4 174.6 179.1 177.5 179.9 185.6 194.1 203.6 213.9 223.3 230.2 234.7 238.4 242.7 250.1 258.9 264.2 266 265.1 268.5 273.9 278.4 280.3 281.6 277 274.6 281.6 289.7 297.7 299.8 304.8 312.4 319.7 335.1 352.1 368.3 359.4 353.6 356.7 377.4 398.4 412.9 420.4 455.7 452.8 444.3 441.6 457.1 461.4 456.8 456.4 468.1 476.6 477.9 468.4 463.9 454.4 443.4 444.5 456.3 452.9 449.5 452 455.1 468.7 469.9 474.5 480.4 488.6 457 470.4 475.2 475.2 474.1 472 470.3 469.2 468.9 464.9 456.2 447.4 443 440.4 437.5 438.3 441 443.9 444.6 445.3 445.4 444.3 443.1 444.9 447.8 451.3 458.6 454.7 455 456.6 458.1 459.5 463.4 467.1 469.8 472.6 475.8 478.7 481.3 484.7 488.6 492.6 496 498.3 496.9 496.2 498.4 496.9 494.8 493.7 491.3 490.1 488.4 486.8 483.8 480 477.4 474.9 473.9 471.1 468.7 467.1 465.6 463.9 459.6 455.7 452.2 451.8 452.9 453.5 452.4 450.9 451.3 454.3 457.3 459.6 460.9 462.5 464.4 467.9 470.4 472.7 469.1 466.6 467 466 464.4 462.4 459.6 458.1 455.8 452.8 450.1 446.6 442.2 438.1 436.8 432.3 426.7 421.4 419 414.3 409.7 406 399.9 403 405.6 400.4 396.6 392.9 392.7 390.7 387.7
111.1 115.4 120.7 124.8 116 121.4 132.7 140.6 148.1 155 158.6 159.3 162 170.6 173.4 178.1 178.8 178 180.4 183.3 184.1 183.2 186 194.7 201.8 199.4 217.7 228.5 233.1 235.1 240.3 245.7 252.1 257.6 261.5 263.5 264.1 267.1 276.5 280.1 279.3 280 275.8 273.6 279.2 289.5 297.7 300.2 307.7 318.1 326.6 339.3 351.9 360.1 354.2 351.8 355.3 397.8 416.2 439.6 447.1 459.4 452.5 446.9 443.5 465.4 472.1 464.3 460.4 478.1 479.8 477.3 463.5 454.2 459.3 449.6 462.2 457.2 455.5 453.4 454.1 451.9 456.2 458.1 453.8 454.4 462.8 463.6 468.1 474.3 477 472 471.4 470.7 478.1 460.4 458.5 450.5 445.8 442 436.8 434.2 436.9 439.6 441.1 440.9 441.6 441.9 441.1 440.3 442 445.2 450.6 451.4 454.7 455.1 455.8 457.6 459.6 464.5 466.5 469.1 473.2 476.6 480.2 484.7 488.2 492.6 496.8 499.5 498.1 496.5 497.3 497.7 498.2 498 498.6 495.4 492.1 491 489 487.8 483.8 480.6 478.7 478.1 474.6 468.7 466.7 464.9 463.9 460.6 455.1 451.7 451.2 452.1 453.4 451.8 450.9 450.9 453.3 456.9 459.1 460.5 462.5 464.5 467.6 469.8 470.9 469.5 468.5 468.4 467.7 465.5 463.1 459.4 458.8 454.3 451.7 450.1 447.4 443.5 442.3 440 436 431.9 425.2 420 413.5 407.8 404.9 401.9 400.6 402 399.6 395.3 391.2 389.5 389.2 386.8
106.6 110.8 114.5 114.1 111.6 123.1 140 148.5 157.1 162.6 167 167 164.7 173.5 178.8 183.2 184.8 186.4 187.1 190.3 193.8 194.3 199.3 205.5 209.1 217.6 222.2 230.1 234.5 237.5 243.5 249.5 253.3 255.3 260.3 264.6 267.5 272.1 277.2 276.4 277.4 279.8 275 273.5 280.4 287.7 296.4 305.4 310.4 323 329 331.6 335.4 333.5 339.2 352.5 360.3 394.9 432.8 450.8 461.7 465 455.6 448.2 443 448.5 465 472.7 467.7 461.9 466.1 463.1 454.8 441.7 431.5 429.2 436.4 436.5 432.9 433.1 433.7 436.8 443.8 446 445.2 446.5 449.6 460 484.7 500.2 497.7 474.6 471.8 477.8 472.7 457.7 445.5 448.6 444 440 436.2 435 433.8 434.9 436.8 437.4 438.5 438.5 438.7 438.5 439.3 439.8 445 461 464.1 462 464.6 470.4 471.9 470.9 466.9 471.1 474.9 478.8 484.3 489.2 491.7 496.1 499.4 500.7 498 498.3 498.3 499.9 500.2 498.6 496.8 495.9 496.2 494.3 493.5 491.9 486 482.8 480.3 478.5 476.5 469.3 466.7 465.7 463.4 459.5 456.4 451.4 450.8 452.2 454 452.6 451.6 451 453 455.9 457.9 460.2 462.3 464.6 466.9 469.3 470.4 470.4 469.9 468.9 467.5 465.3 463.3 460 456.6 453 451 449.4 447.9 445.4 443.6 440.5 436.1 432.9 427.6 421.1 414.4 409.6 405.9 402.7 397.8 399.3 398.3 393.9 390.4 388.6 385.6 384.2
97.3 102.6 107.1 109.9 123 137.5 145.2 154.6 160.1 166.6 170.2 171.2 171.2 176.5 182.2 186.4 189.5 192.5 196.9 200.7 206.5 211 214.8 217.7 219.8 224.2 227.9 229.5 235.7 241.1 248.2 251.9 253.3 257.3 263.6 265.9 266.5 270.2 274.1 275.6 277.8 276.4 273.6 274.8 282.7 291.9 305.8 303.1 312 318.2 320.7 321.4 321.8 321.3 334.9 353.1 363.8 398.3 436.7 460 470.6 466.2 455.4 448.1 441.5 439.7 440.7 439.6 442 447.1 455.2 451.1 443 428.5 419 408.2 412.8 418.9 417.9 418.2 422.1 427.5 440.9 443.8 443.9 442.6 447.4 458.3 472.8 474.2 471.2 457.8 457.5 471.9 454.9 445.7 439.7 438.5 437.9 435.7 434.6 435 430.4 432.1 433.5 434.4 435.6 435.1 436.2 437.7 438.2 438.4 442.2 464 471.2 472.4 483.6 487.3 482.2 479.4 475.5 481.5 476.3 481.2 486.7 491.3 495 498.4 500.1 497.9 498.3 498.6 501.7 501.5 498.6 498.6 498 498 500.2 498.8 494.8 492.7 488.9 484.9 483 479.1 475.5 468.6 465.6 465.9 462.7 457 453.9 451.6 450.7 455.9 456.8 456 453.5 451.9 452.9 454.7 457.2 459.7 461.6 463.5 468.5 469.3 471.2 472.7 471.8 470.2 467.8 465.3 462.5 456.4 452.1 449.5 448.9 448 446.9 445.9 443.8 439.7 434.9 431.6 426.7 422.2 418 413 409.9 406.6 403.7 394 397.1 392.4 389.9 387.8 385.6 386.4
107.6 116.5 126.1 133.4 134.3 147.6 155.2 158.8 162.3 167.6 172.7 176.2 177.7 179.4 183.5 186.8 191 197.4 203.6 206.2 213.6 220.7 219.7 221.2 224.7 227.1 230.4 235.3 238.5 240 241.3 250.1 256.2 260.5 263.5 265.3 267.4 270.9 273.4 272.5 272.2 272 273.3 279.6 288.4 292 297.7 303.8 311 313.6 316.9 317.5 317.2 319.4 328.9 342.9 362.8 403.3 436.4 447.1 465.8 456.7 455.6 441.1 438.6 438.1 434.1 431.2 433.5 446.2 451.5 439 435.2 424.5 413.3 403.3 404.6 410.7 413.2 417.3 417.6 419 434.7 440.4 444 438.8 443.1 463.1 466.5 456.1 450.4 446.9 447 445.4 446.5 439.3 437 435.6 433.1 432.5 432.5 430.9 429.8 429.3 430.4 430.3 432.5 436.4 438.4 438 438.1 438.6 443.3 455.3 473.7 480.5 489.1 501.9 493.1 482.8 486.5 482.8 480.8 483.8 488.3 493.2 496.9 497.5 497.6 498 498.6 501.7 502.1 499.9 499.2 499.9 500.1 498.2 501 499.6 497.8 496.1 490.3 487.3 486 478.8 473.1 468.2 464.1 459.8 456 454.2 452.6 451 450 456.3 456.5 457.1 454.7 452.5 451.9 454.1 456.9 458.8 460.7 462.5 464.2 465.8 469.9 474.9 474.5 472.8 468.3 464 457.3 451 445.3 444.2 444.7 445.2 446.1 445.6 443.2 439.4 435.5 431.7 426.6 422 417.6 413.5 410.1 406.9 403.7 392.2 396.8 392.3 388.9 387.7 384.9 386.4
113.1 125.5 139 149 149.7 157.3 165.4 167.3 169.1 175.7 178.1 178.9 179.7 180.7 187.8 193.9 195.4 200.3 203.6 206.4 212.7 218.5 219.5 223.2 228.5 233.8 233.4 241.9 246.9 249.8 251.1 250.4 254.8 260.1 266.1 269.4 271.1 267.5 266.8 268.2 275.1 275.4 273.5 280.6 285.6 289.1 296 300.6 304.7 310.1 309.2 309.4 314 317 323.5 333.4 352.8 370.6 388.2 410.3 426.7 441.7 449.9 436.7 430.1 429.5 424.7 427.1 431 440.2 431.1 431.4 428 418.5 404.1 395.2 403.1 419.1 426.1 426.2 421.8 418.8 422.2 431.5 440.1 436.2 435.2 443.2 452 450.9 445.9 441.6 438.3 435.2 433 431.4 434.6 432.3 430.7 430.7 430.6 429 427.7 425.9 426.2 431.6 434.2 440.7 444 441.9 440.2 440.6 442.8 452 478.5 485.4 491.3 506.2 497.2 489.9 487.3 484.8 486.8 485.3 490.8 495 498.3 500.2 499.5 498.2 498.2 500.7 501.4 499.3 499.8 499.5 499.7 501.6 501.2 500 499.2 498.1 492.5 486.2 479 474.2 471.6 468.9 466.6 462.1 456.7 454.4 453.9 452.5 456 457.4 457.1 455.9 453.1 451.8 450.9 454.5 456.7 458 459.7 461.5 462.9 464.5 468.5 472.2 475.7 476 470.4 465.7 461.2 454.7 446.3 443.6 442.8 442.5 444.1 443.5 440.8 437.2 434.1 430.3 425.4 420.1 416.5 412.7 408.9 404.5 400.5 392.7 394.8 390.5 388.5 387.8 384.7 388.6
126.7 136.1 151.3 160.4 157.9 165.9 173.4 174.6 172.8 176.9 180 181.3 182.7 187 194.5 198.8 201.9 204.1 206.2 210 213 217.6 220.4 230.5 239.9 244.7 243.1 248.8 252.4 254.3 255 250.5 251.6 258.2 267.9 268.3 266.9 267.3 272.9 275.1 276.6 280.5 283.1 277.5 286.2 293.1 295.7 298.7 302.8 300.1 303.5 305.8 307.7 312.1 318 328.2 344.1 366.2 375.2 382 392.1 408 428.4 428.6 416.4 412.7 411.3 416.1 426 424.4 421.4 422.8 416.1 407.1 394.5 392.1 402.9 420.4 421.4 421.6 425.1 423.7 421.4 423.5 426.1 423.6 422.3 425 430.6 435.8 436.8 433.6 427.8 425.7 423 421.1 426.3 429.3 429.7 429.4 429 427.2 426.3 425.3 424 429.3 435 441 443.6 442.9 442.5 443.3 447.9 450.6 464.7 481.3 493.5 505.1 500.8 499.7 491.2 494.1 492.1 491.2 493.2 495.3 497.6 499.6 499.9 496.8 497 500.3 501.5 500.9 500 499.5 502.1 500.3 501.2 499.8 496.1 491.3 488.1 483.7 476.1 473.1 469.4 466.4 464.7 463 458.3 454.1 455.1 453.9 450.6 453.4 455 454.5 451.8 451.2 451.6 453.5 456.3 458.8 461 461.7 462.8 463.8 467.4 470.8 473.5 478.9 473.5 468.9 466.6 463.4 457.8 449.8 445.6 442 441.4 440.9 438.4 435.3 432.2 428.7 424.2 419 414.8 407.7 404.1 398.2 394.3 391.9 389.1 388.6 388.1 387.4 385.8 389
134.9 143 158 169.3 169.8 167.5 177.4 179.5 176.8 179.4 181.6 182.3 187 195.5 202 204.1 206 209.4 211.4 212.1 214.8 225.3 233 238.8 245 249.6 248.8 249.2 254.9 255.7 252.9 251.2 252.8 254.7 255.5 257.3 269.3 274.7 276.7 279.9 284.2 286 289 284.5 288.3 290.2 291 297.8 298.7 297.2 306.5 308.9 308.4 311.5 318.3 324.1 340.8 362.1 363.2 368.5 375.6 383.9 390.7 394 390 391.2 395.8 406.4 409.2 416.6 422.6 411.6 408.9 399.7 392.1 392.1 393.1 401.8 407.6 416.8 422.4 424.8 422.9 421.8 420.3 416.3 417.5 417.7 418.3 430.1 427.4 424.5 420.8 414.4 413.1 414.8 421.6 429.6 429.2 427.3 426.2 424.4 424.6 423.9 423.8 429.4 432 435.4 444.3 444.2 445.5 447.5 448.5 448.6 460.5 479.2 499 508.6 507.5 506.7 503.7 499.1 496.3 491.9 492.5 494.3 496.1 498.3 498.4 496.9 497.1 499.8 500.4 499.9 499.7 500.7 501.1 500.6 500.1 494.7 490.4 485.3 482.8 480.3 477.4 476.3 472.4 467.8 464.5 463.3 461.3 461.2 455.9 448.6 449.6 456.2 453.6 452.4 451.1 452 451.7 454.4 456.4 459.4 463 464 463.3 463.7 465.6 469.7 471.9 475.3 475.5 472.7 472.1 469.4 465.9 460.2 456.5 448.6 442.7 437.4 434.6 432.6 429.6 426.5 422.6 417.1 411.9 405.1 399.4 394.7 392.7 391.3 389.5 388.2 387.8 386.8 387 392.9
143.5 152.1 161.8 174.1 171.8 167.8 174.6 179.5 179.3 179.9 181.3 187.9 191.7 198.6 206.1 207 211.4 214.6 215.3 215.9 214.4 228.3 243.3 243.9 244.8 247.7 250.2 251.7 251.6 251.1 254.8 256.9 259.8 260.7 261.9 266.3 273.6 282.9 286 287.8 292.2 296 297.3 294.7 293.7 297.1 288.6 290.8 293.3 300.5 310.4 310.8 308.6 312.2 318.9 315.5 323.5 337.3 350.2 353.7 362.6 366.1 370.6 368.9 366.7 373.4 390.3 393.1 393.7 415.4 409 406.9 400.5 392.1 392.1 392.1 392.1 392.1 392.1 403.6 414.6 423.3 426.6 420.3 416.6 413.3 414.3 413.7 411.9 411.9 415.6 414.7 410.6 408.9 408.7 411.4 412.6 424.3 427.2 424.9 418.2 422.2 423.9 424.4 422.6 430 433.2 436.1 442.5 445.8 449.3 452.5 453.8 455.9 471.1 490.2 508.6 508.9 507.5 507.4 504.9 500.8 497.6 494.1 493.4 493.3 495.1 496.8 496.6 495.8 495.3 496 498 497.8 496.7 497.3 493.5 493.9 494.6 492.8 489 484.1 481.5 480 477.8 474.9 474.7 473.2 466.6 463.4 462.4 463.3 456.1 448.3 450.5 451.3 450.9 451.1 452 453.5 453.5 454.6 456.1 459 462.1 464.2 462.7 463.4 466 469.8 473.4 475.9 476.4 477.5 476 473.4 469.4 465.4 461.3 454.9 447.9 441.1 437.7 433.8 429.9 426.8 422.3 418 414.9 410.6 405 396.6 393 391.8 389.3 387.6 386.8 385.9 391.8 398.3
154.1 160.5 167.1 170.6 171.4 169.1 176.5 183.7 184.1 183.3 184.2 187.6 192.3 197.4 198.6 206.9 215.5 220.3 222 222.1 220.3 235.6 247.9 250.6 250.2 252.4 252.9 251 250.5 251.3 254.5 255.9 261 265.3 274.7 282.3 285.7 285.3 290.8 295.4 300.4 302.6 300.7 294.5 293 297.2 293.8 298 293.4 301.5 307.6 308.3 312.2 314 312.8 312.4 313.2 323.1 333.7 346.5 356.6 356 361.6 361.5 360.9 377.9 389 390.1 403.9 402.4 402.8 397.7 392.1 392.1 392.1 392.1 392.1 392.1 392.1 394.1 402.9 416.2 417.5 415.4 414.9 411.3 410.6 410.4 408 404.7 404.7 404.7 407.9 406.3 405.7 408.1 411 412.2 408.5 409.2 411.3 414.8 414.5 416.2 419.1 420.9 433.3 439.1 443.8 446.8 451.2 456.2 461.5 468 476.3 483.4 494.5 498.6 504.6 507 505.9 502.7 499.6 495.8 494.7 493.8 495 496.4 496.7 494.1 495 492.2 494.4 492.7 491.3 489.4 489.5 489.6 491.3 491.3 484.4 481.6 480 479.1 475.8 471.2 469.4 470 468.1 463.5 464.8 463.2 458.9 448.7 452.2 454.9 452.4 452.6 453.9 455.3 454.4 453.9 455.2 456.6 459.5 462.4 462.2 463.5 469.2 470.5 473.7 475.3 475.3 476 477.1 475.3 471.3 468.4 463.3 457.4 451.7 446.8 443 436.4 432 428.9 422.8 418.6 415.9 413.5 409.5 401.8 392.7 392.1 389 387.8 385.9 388.1 394.1 399.3
166.2 165.4 170.4 173.9 172.8 172.3 172.9 181.2 187.3 187.3 187.3 187.9 191.8 196.9 200.8 208.8 217.7 225.9 228.5 228.8 227.4 243.4 251.2 252.8 257.1 257.8 255.3 253.4 250.5 252.9 258.5 263.8 272.8 276.6 285.8 288.4 291.9 295.5 299.6 304.4 304.5 302.1 299.9 296.4 294.4 294.6 299 307.1 297 305.3 301.3 303.5 308.3 309 310.2 312 314 318.1 326.7 334.4 340.9 346.9 349.3 352 370.7 382.1 382.7 392 392.8 396.4 395.6 392.1 392.1 392.1 392.1 392.1 392.1 392.1 392.1 392.1 399.2 407.4 405.5 406.7 417.6 417.3 408.1 409.1 408.6 404.7 404.7 405.1 404.9 403.6 404.4 406.6 406.5 408 411.4 410.1 410 414.7 415.2 421.5 424.9 416.7 412.1 417.9 446.4 449.3 452.9 458.7 464.7 470 475.6 482.2 488.3 495.4 503.4 508.3 508.6 504.8 500.9 497.8 495.4 494.3 495.8 496.9 497.2 496.3 493 490.7 490.2 489.7 489.3 488.7 488.7 487.4 489 486.8 485.3 486.4 483.2 481.9 480.1 477.5 475.4 467.3 464.4 464.6 464.3 463.5 458.2 447.3 456.1 457.7 453.5 455.2 457.5 459.7 456.8 454.3 453.9 455.2 456.6 458.8 460.7 461 462.7 465.6 466.8 468.9 468.6 471.3 474 472.4 470.5 470.3 464.2 461 453.9 449.7 445.9 441.1 435.7 430.6 423.1 419.2 416.5 415 412.4 406.9 398 391.7 391.5 388.1 386.3 389 393.9 400.3
167.3 167.6 175.6 177 175.9 174.5 174.4 176.8 184.5 186.9 189.4 190.1 192.9 197.1 205.4 212.1 219.1 228.2 233.2 231.7 232.5 248.4 255.1 257.6 263.1 258.1 259.4 262.4 260 265.8 268 275.2 278.6 287.2 289.3 292.8 297.1 302.3 309.4 306.7 302.4 299.5 302.1 298.4 298.3 298 306.9 312.4 303.5 302.6 305.1 302.3 306 310.1 312.4 316.6 327.5 330.4 336.5 340.5 342.5 344.9 351.3 364.1 372.9 375 393.6 398.6 400.4 396 392.1 392.1 392.1 392.1 392.1 392.1 392.1 392.1 392.1 392.1 395 401.1 402 404.1 410.1 418.2 417.2 408.3 406.8 405.2 407.3 407.2 405.1 402 406.4 406.6 405.5 410.9 414.6 414.8 415.5 421.7 419.9 435.1 435.6 422 416.5 422.2 439.5 450.2 455.9 461.6 466.6 470.4 475.3 480.7 487.1 494.6 502.7 509.2 508.5 505 501.1 498.5 495.5 495.5 495.6 496.6 496 494 490.7 490.1 490 489.6 488.8 488.7 488.7 491.1 487.8 485.7 491.6 490.2 487.6 486 482.9 479.5 477.7 471.6 468.5 465.2 461.6 459.3 452.5 448.5 451.2 452.6 456.8 460.1 461.9 464.9 458.5 455 453.7 453.7 454.2 455.6 457.8 457.9 458.5 461 462.9 462.8 462.7 464.9 467.8 463.9 465.7 465.4 463.2 461.1 455.2 451.8 447.9 444.3 439.2 434 422.9 419.1 417.1 415.4 412.1 406.7 401.3 396.9 391.4 389.3 387.5 389.1 395.6 402.3
159 179.1 177.5 176.7 178.1 179.7 180.8 179.7 182.4 187.3 193 195.4 197 201.5 207.6 214 220.5 230.7 234.6 229.7 232.2 247.1 254.3 257.4 260.9 261.9 263.3 265.3 269.9 272.8 274.7 281.2 287.8 290.2 293.6 296.7 298 299.4 299.7 304.5 302.5 296.6 296.7 298.9 301.4 301.1 304.4 311.2 302.8 304.1 305.1 319 316.7 315.7 315.7 319.1 327.9 330.4 336.3 339.9 340 341.7 361.9 365.7 369.1 383.8 399.8 402.2 392.1 392.1 392.1 392.1 392.1 392.1 392.1 392.1 392.1 392.1 396.4 401.7 405.8 404 406.8 404.9 404.6 406.7 416.2 419.1 410.7 404.9 403 404.9 402.4 397.6 403.4 405.7 408.5 410.6 415.7 416.9 417.1 419 420.8 428.5 433 433.5 428.1 435.6 446.1 451.6 456.6 461.4 466.6 471.4 475.1 480.3 486.2 492.1 498.5 502.5 504.6 503 504.3 500.1 496.4 499.7 497.2 497.3 498.3 498.9 491.7 490.9 490 490 489.9 489.7 490.3 492 488.6 490.1 491.6 491.4 489.3 489.7 484.6 480.6 477.1 472.9 468.3 463.4 461.4 458.7 452.3 448.2 451.7 452.9 453.7 456.1 460.1 463.5 456.7 454.3 451.3 451.6 451.9 451.6 452.4 453.9 453.9 457.1 457.9 457.7 458 459 459.6 460.8 461.8 462.4 459.9 458 452.5 449.6 446.6 445.2 436.7 430.8 424.4 421.4 420.7 420.8 413.9 407.9 403 401.4 395.1 391.5 389.7 389.4 397.7 403.1
163.9 181.6 179.2 176.6 180.4 183.6 184.6 185 183.4 186.9 194.3 197.6 196.8 204.2 206.1 211.8 219.2 227.2 230.2 229.1 230.5 240.8 242.1 252.7 253 256.3 262.1 266.8 269.2 271.7 280.9 289.7 292.6 295.9 299.4 299.8 303.1 300.3 303.4 306.3 299.6 293.9 297.6 303.9 301.3 304.5 304.4 302.5 310 312.4 314.8 319.7 322.5 318.7 316.6 323.1 328 332.5 341.7 340.3 339.4 343 355.8 361.2 361.1 375.4 385.1 388.7 390.6 390.9 392.1 392.1 392.1 392.1 392.1 397 394 398.5 405.9 406.7 409.3 409.4 408.7 406.3 404.9 404.8 412.1 415.8 413.1 409.6 401.1 401.4 402 392 399.3 401.9 397 409.6 411.4 416.3 420.2 419.6 423.7 433.4 440.9 439.9 441 440.9 446.6 451.3 456 461 466.8 471.2 475.4 480.4 486.1 492.3 498.2 501.9 501.9 503.4 504 504.7 498.4 500 499.6 499.1 499 501.6 494.3 492.4 490.6 491 490.8 490.7 490.8 491.7 490.6 492.9 491.8 490.2 488.2 487 483.6 480.8 476 470.4 466.3 462 460.8 459.4 455.5 445.2 453.2 453.2 453.9 453.1 452.1 452.6 451 448.7 448 448.7 450.8 448.6 448.4 449 449.6 450.4 451.6 452.2 454.1 454.9 454.6 454.6 456.7 457.8 457.4 455.6 450.3 447.8 443.6 440.3 435.4 430.2 425.7 422.9 421.4 419.8 416.3 409.5 404.1 403.1 399.3 394.7 389.5 392.9 398.4 403.7
167 173.4 172.4 178.9 181.8 184.6 184.8 185.7 195 193.6 193.9 195.3 199.3 200.6 203.2 206.7 213.1 218.6 223.4 225.7 226.7 237.9 247.1 251.9 258.7 264.7 271.4 271.9 274.6 283.8 290.6 294.5 297.6 301.4 303.9 303.8 308.1 308.2 307.4 304 295 293.2 301.7 302.1 306.4 310.4 303.3 308.6 314.9 313.1 314.7 314.8 318 317.9 322.1 318.9 323.7 333.1 337 338.9 338.1 338.3 340.8 350.1 368.2 381.1 385.4 387.4 391.2 395 397.6 392.1 392.1 392.6 400.7 407.7 406.3 403 411.5 413 411.4 413.8 414.7 411.9 411.6 409.7 414.9 414.4 412.7 411.4 405.9 395.8 389.2 389.9 397.8 399.3 401.7 408.1 409.2 409.3 417.4 419.7 425.8 432.1 429.9 435.7 442.4 439.8 445.1 450 456.3 462 466.8 471.8 476.9 482.4 488 494.2 499 503.6 504.7 507.5 508 506.4 503.3 503.6 505.3 502.3 502.1 501.2 496.6 493.3 491.7 491.5 491.2 491.6 491.6 491.3 493 493.5 493.4 490.5 486.2 482.6 481 478.3 472.8 469.3 466.1 461.5 459.2 459.7 452.3 444.6 451.6 453.3 453.4 451.4 447.8 447.3 445.9 445.8 445.5 445.2 445.1 443 443.6 444.5 445.9 446.7 447.7 448.4 449.8 449.8 449.7 449.2 451.1 451.4 453.8 454.8 449.6 447.2 444.4 440.4 434 429.8 425.4 422 421.8 419.9 415.7 408.9 404.3 402.8 398.8 395.4 390.9 393.5 398.4 403.7
169.9 171.2 175.1 178.3 179.9 182.2 186.4 194 195.4 195.1 194.7 195.6 202.2 206.9 209.5 213.8 222.2 225.1 225.9 226.4 233 246 256.3 261 266.6 270.2 275.8 277.9 279.2 285.8 290.2 293.8 295.7 297.8 303.5 307.1 307.9 306.5 301 295.2 290.6 293.7 300.4 298.3 304.9 300.6 296.4 298.4 305 311.8 309.1 318.7 323.8 328.6 321.9 319.7 322.1 327 327.6 329.9 333.3 335.9 348 367.4 383.9 387 396.8 399.9 404.8 407 409.2 399.5 392.1 393.4 403.5 412.5 410.1 408.1 410 414.6 414 416 419 417 415 412.5 414.5 418 415.2 412 404.7 394.3 386.6 395.2 405.1 404.6 406.3 404.4 403.2 406.6 409.6 413 416.4 421.6 425.2 429 433.4 438.9 444.8 449.8 456 462.4 468.4 473.9 479.5 484.8 490.3 494.6 500 505.5 504.8 506.3 508 505.5 501.1 499.8 501.4 502 502.3 499.7 494.7 493.2 491.7 491.3 491.5 491.8 491.2 491.7 494.9 495.8 493.6 490.7 486.3 482.4 479.4 475.7 472.3 469.7 468 463.5 457.6 455.4 451 445.4 449.8 451.9 451.1 447.6 445.3 444.5 443.6 443.4 443.7 442.7 440.4 435.3 436.1 439 441.1 444 444.6 444.8 446.1 446.6 445.3 442.3 442.4 445.7 449.6 450.1 449.1 449.1 444.3 439.7 432.7 426.6 421.9 417.9 421.3 420.9 414.1 404.7 404.3 401.7 399.6 392.7 389.2 392.1 397.6 402.8
172.3 175.2 177.1 177.4 180 191.5 190.6 190.5 192.2 193.9 194.3 199.7 206.4 214.3 215.4 224.5 228 231 232.8 231.9 240.6 251.9 260.1 266.6 270.8 273.1 277.2 280.3 287.8 287.9 291 296.1 297.3 298 299.7 301.3 302.7 297.1 295.3 292.2 293.7 295.1 289.5 288.1 288.1 289.9 296 298.8 299.8 305.4 314.2 327.6 325 321.7 321.6 322 322.9 325.1 334.1 336.5 338.5 345.4 362.2 379.4 390.8 391.4 399.1 406.5 412.2 410.8 407.3 398.5 394 394 403.9 407.9 408.8 408.4 408.3 414.5 418.1 417.2 417 413.8 410.3 412.5 411.4 412.7 412.3 409.4 400.7 390.1 390.9 402.2 411.9 406.8 398.5 398.6 398.3 401.5 406.4 409.8 414 418.8 423.8 427.6 432.7 438.6 444.8 450.7 456.8 462.9 469.4 476 481.2 486.3 490.5 494 498.5 503.7 507 509.2 505.1 501.3 499.8 499.8 499.8 499.8 501.1 498.8 494.4 492.2 491.6 491.9 491.2 491.3 491.8 494.8 497.3 497 493.7 490.5 486.3 481.8 477.9 473.9 472.3 470 466.8 459.8 454.6 451.8 449.7 446.5 444.9 445.9 447.3 445 444.4 443.8 442.7 442.6 443.1 442.7 438.6 434.1 430.9 433 434.4 438.3 441.7 441.3 441.6 444.5 442.4 433.8 432.7 435.5 440 441.6 445.6 447.6 438.9 434.7 428.5 421.9 417.2 413.3 416.2 410.4 408.3 401.8 400.5 399 397.9 389.4 391.5 394.6 398.5 403.2
176.5 178.7 178.8 182.2 192.2 187.5 185.7 188.2 190.3 195 199.6 202.8 210.5 221.3 225.2 227.8 232.4 238 241.8 246.1 249.1 258.9 261.9 270.1 273.9 277.2 278.4 289.6 292 291.4 299.4 301.3 297.9 302.2 303.7 304.2 300.8 295.4 290.4 290 290.1 287.8 287.5 287.3 288.7 291.3 299.8 303 301.3 310.2 321.1 323.5 323.3 320.9 322.4 322.7 328.6 333.8 340.3 337.9 342.8 359.2 360.1 367.3 379.1 389.4 385.6 387.1 388.9 392.8 397.6 396.4 395.6 393.9 400.1 410.5 407.4 406.9 406.6 407.7 409.9 407.4 402.8 400.6 402.1 404.1 404.3 406 410.9 412 403.3 389.4 388.3 400.1 401.7 396 389.6 391.9 394.7 396.8 400.8 407.3 410.3 416.1 420.4 426.6 432.3 440.1 447.4 454.2 460.2 465.8 470.8 476.6 482.1 486.2 489.2 493.5 500.5 505.8 508.2 509.4 504.6 500.7 499.8 499.8 499.8 499.9 500 497.1 494.1 491.9 491.6 492.5 491.1 490.8 494.3 496.1 495.9 495.3 493 488.4 484.5 481.1 478.1 473.8 471.3 469.7 467.8 461.7 451.9 449.7 448.5 447.3 444.2 440.5 440.9 440.7 441 440.5 441.5 442.1 442.8 443.1 440.1 435.8 431.6 428.1 429.4 433.2 442.4 437 437.5 440.5 441.6 428.6 427.2 429.4 430.7 430.6 433.2 436 435.1 432.7 426.5 417.1 411.7 407.9 406.8 404.9 401.8 400.5 398.4 396.4 391.4 390.3 391.7 395.5 400.3 405.3
179 180.4 186.6 187.7 184.1 182.7 187.2 190 194.6 195 200 205.1 216.6 227.7 234.7 235 240.5 244.1 250.7 256.1 261.8 264.3 265.2 271.7 274.8 281.6 281.6 293.6 292.8 295.7 295.9 297.8 304.6 305 302.1 303.3 296.3 296.5 288.3 286.4 287.1 287.4 288.3 293 288.5 294.8 296.7 300.1 310.5 314 324.8 319.7 318.1 321.4 322.6 322.7 330.1 333 334.5 336.8 349.7 351.1 354.4 358.2 362 364.8 369.8 376.1 384.6 396.2 396.5 395.9 394.1 390 395.2 406.1 407 406 405.7 406.9 405 401.8 398.5 395.5 395.2 399.5 405.6 415.3 414.6 412 402.3 388 387.6 391.8 388.4 384.7 388.1 391.6 390.5 393.8 398.2 403.5 410.5 417 421.3 427.8 435.1 445.3 453.2 459.2 465 468.3 471.9 476.4 480.6 484.4 488.6 496.1 506.7 508.6 507.8 507.9 503.4 499.8 499.8 499.8 499.8 501.8 498.4 496.4 494.6 491.8 491 491 491.6 491 494 494 493.8 493.5 492.5 487.6 482.8 480.6 477.2 473.4 470.3 468.4 467.8 463.6 450.2 448.7 447.9 447.2 445.1 442.1 440.1 437.8 439.3 438.6 438.9 440.7 442.3 443.2 441.6 437.8 433 428.4 426.9 428.2 436.1 433.8 433.6 435.7 434.9 424.9 420.9 424 424.3 423.2 422.1 424.8 427.4 429.2 421.4 413.7 406 401.6 401.6 401.4 400.5 398.9 395.1 393.5 391.2 389.2 392.3 395.6 402 406.4
180.5 181.3 191.5 186.5 178.7 184.7 187.2 190.9 195 195.7 205.5 213.2 221 229.6 235.3 237.5 244.4 247.8 257.4 264 265.9 268.4 270 272.6 279.7 283.4 284.9 289.1 291.7 295.7 295.9 298.9 304.7 304.1 294 291.7 291.9 292.5 289.4 285.6 288.9 294.3 291.2 285.4 282.3 289.4 296.9 307.7 311 314.4 318.1 317.4 316.6 318.4 321.5 322.4 326.9 331.4 333.9 335.7 341.4 349.1 355 360.3 362.2 364.4 367.8 374.2 378.8 382.1 383.1 387 392 388.1 391.9 406 408.4 407.4 402.9 399.9 399.8 399.5 397.9 395.7 391.7 392 397.1 400.1 404.8 403.1 396.6 385.9 388.7 383.7 380.5 382.2 388.5 387.1 390.3 392.2 396.6 402.2 409.5 414.8 420.2 427.6 440.8 448.9 456.6 462 466.5 468 470.4 474.7 479.2 483.9 489.4 492.9 500.7 504.5 505.8 504.2 502.7 500.1 499.8 500.3 499.6 500.2 498.6 496 493.4 490.5 489.7 489.4 489.2 491.9 494.5 493.5 496.2 495.2 491.7 486.1 482 480 476.3 472.3 468.3 465.4 463 459.2 451.8 448.5 447.2 445.6 443.2 441.7 442.3 436.2 437.9 438.1 437.8 438.4 439.8 442 443.2 438.9 433.2 427.6 425.8 425.5 430.6 428.1 425.8 432.2 429.1 421.9 414.4 416.5 416.1 414.2 415.3 414.9 415.5 414.4 412.7 407.6 401.5 398.9 398.2 399 397.8 396.1 392.3 390.1 390.2 389.5 392.4 401.3 405.8 409.7
176.7 181.1 180.8 174.9 182.3 187.5 189.1 191.9 194.9 199.5 207.6 217.8 225.2 230.2 235.7 240.5 248 254.3 261 264.9 267.8 275.2 275.9 274 275.3 279.2 283.3 289.2 292 298 296.8 291.8 292.8 291.7 291.3 292 296.5 293.9 296.1 287.2 282.6 288.5 282.9 278.3 282.4 289.5 297.9 305.4 306.5 306.5 311.5 312.8 316 317.9 319.8 321.6 328.3 332.8 339.5 340.3 345.4 351.4 357.5 361.6 363.5 364.8 367 371.8 376 377.1 375.4 378.5 383.4 387.1 395 402.1 404.2 403.3 392.2 390.2 394.2 399.9 398.8 396.8 393.2 386.6 389.5 390.2 399 395.5 387.2 383.3 377.7 377.8 378.4 379 379 384.4 387.1 389.5 393.8 400.1 406.4 411.6 417.7 428.8 442.1 451.6 457 463.9 469.7 467.1 466.9 471.6 478.1 482.7 486.8 490.9 496 500.6 505.1 503.3 503.9 499.6 499.7 498.8 499.6 499.5 499 496.5 492.8 490.2 488.6 488.2 488.8 489.9 492.5 493.8 495.1 494.9 490.7 485.9 482.9 480 477.8 472.4 466.5 462.5 460.7 456.2 452.8 449.1 445.9 448.6 446.7 442.6 437.1 436 436.6 437.1 437 436.9 437.5 438.1 440 438.5 432.1 426.2 424.1 423.3 425.3 423.8 423.8 427.3 426.9 420.8 413.8 408.2 403.5 400.4 401 404.6 403.8 404.4 401.7 400.3 400.1 398.2 395.9 394.8 394.2 392.5 390.3 392.5 393.6 393.8 396.3 403 407.1 410.3
168.2 167.7 169.5 166.2 177.1 192.7 192.1 194.6 197.8 201.4 210.4 219.7 227.1 232.3 236.8 247.6 255.3 260.5 263.5 268.3 269.4 275.5 275.8 276.2 278.1 280.7 287.9 290.4 290.9 295.4 288.9 288.6 288.9 290.1 291.3 292.7 294.1 293.2 292.2 280.4 284.4 280.8 275.3 277.4 285.3 294.5 295.9 299.5 301.6 304.3 314.6 319.1 320.7 321 323.3 329.7 335 344.3 341.4 342.7 346.6 353 358.7 361.8 363.3 362.6 360 362.8 367.9 369.6 369.7 377.2 388.4 388.6 387.3 391.2 389.8 373.8 370.5 378.5 384.8 384.3 384.7 385.4 391.2 387.6 383 382.5 385.7 384.6 375.8 375.8 377.3 377.1 377.4 377.5 378.8 382.1 384.4 386.6 390.7 397.6 401.7 406.1 414.5 427.1 439.3 446.9 455.4 464.2 472.5 467.9 464.5 469.5 475.7 480.5 484.7 489.5 497.9 497.1 498.9 500.5 503.7 499.8 497.5 498.1 499 500.1 500.9 499.1 495.9 490.6 487.8 487.4 488.1 489.8 490.9 492.2 493.1 493.8 490.1 487.6 484.2 480.3 478.2 474.4 469.1 462.7 459.7 456.7 453.1 448.9 447.9 449.4 450.1 443.5 440.2 437.5 435.4 435.8 435.7 435.1 436 436.6 437 436.3 428.3 429.9 430 426.3 422.3 422.1 424.5 427.7 425.4 419.2 414.6 412.6 412.1 406.5 399.9 395.2 395.3 395.3 394.4 396.1 397.6 397.2 396 393.6 391.8 390.1 391.6 395.1 397.1 396.9 399.2 402.5 406.8 409.6
158.8 160.9 163.2 158.1 176.3 183.3 192 196.6 198.8 203.2 214.5 221 228.1 233.2 243.6 251.8 259.2 265.5 266.1 268.5 272.9 277 277.5 277.8 280.7 279.7 286.6 294.6 292.4 288.4 288.5 288.6 291.7 291.3 294.6 290.7 287.6 286.9 286.1 275.6 275.9 272.2 266.4 275.3 287.2 293.6 290.9 297.9 303.5 314.2 319.7 317.9 320.8 326.7 330.3 336.7 339.1 339.4 342.2 342.7 345.8 351.5 360.2 359.2 357.4 357.3 358.3 359.1 363 363.4 366.6 383.5 380.7 373 358.3 344 346.3 347.9 355.9 367.2 371.6 372.7 370.3 370.6 376.1 377.6 382.5 376.5 376.1 376.6 379.7 388.2 384.7 380.9 383 378.2 379.9 381.6 382.9 384.7 389.5 393.2 397.9 400.7 407.9 421.1 432.2 439.8 449.7 459.3 468.9 459 460.8 466.3 470.9 475.2 481 485 486.2 490.2 492.4 497.4 498.8 496 496.1 497.3 498.7 499.4 500 498.5 494.5 489.3 486.2 483.9 486.7 488.2 489.3 490.9 492.4 492.2 488.4 485.1 482.7 480.7 478.4 476 471.5 466.3 460.6 457.9 454 448.4 448.5 450 449.2 447 442.2 439.2 436.1 435.1 434.8 433.9 434.1 434.3 433.9 434.7 434.5 434.3 433.8 434.1 432.1 429.3 421.1 423.8 424 418.9 415.9 418.7 415.8 410.3 402 398.5 395.7 393.3 392 393.1 394 393.9 393.6 393 392 389.8 393.3 397.2 398.1 398.6 399.4 401.3 405.5 409.5
149.4 152.1 147.8 164.1 176.1 181.6 190.6 196 199.6 208.4 216.2 226.4 234 237.5 247.9 255 260.9 265.7 268.7 270.1 272 277.6 279.4 279.1 279.7 279.7 282.5 287.8 287.6 288.2 290.8 292 292.9 291.8 289.1 288.5 284.1 282.9 287.4 276.7 264.7 264.9 262.1 270.7 281.6 279.7 292.3 302.6 302.4 315.2 317.5 316.5 324.5 333.8 336.7 337.7 335.6 334.6 337.1 335.2 337.1 343.5 346.3 345.2 346.4 352.1 357.1 355.9 358.1 354.7 359.2 368.8 360 327.1 317.1 315.9 319 328.1 346.2 363 367.5 364 360.1 355.5 360.7 365.9 366.2 362.7 376.3 382.4 384.8 395.8 394.6 388.9 389.4 384.9 380.7 380.8 382.9 384.9 388.9 392.7 394.1 396.3 401.1 409.4 421.4 430.3 441.2 451.1 453.8 447.9 451.3 458.5 464.7 469.4 472.9 478 479.2 484 489.2 496.5 495.2 491.5 492 492.8 493.3 493.6 494 492.9 489.9 486.3 484.8 483.7 485.7 486.9 488.5 490.4 492.3 493.4 489.3 485.8 482.9 480.5 478.5 476.7 473.7 467.8 462.9 459 455.2 449.4 448.8 450.2 450.3 449.4 446.6 443 439.7 439.4 436.4 437.8 437.9 437.2 436.4 436 437.4 436.9 437.7 438.5 436.9 433.3 428.1 422.6 423.4 422 421.9 419.9 417.1 411.4 404.2 403.9 398.9 395.3 392.6 391.6 391.9 392 391.6 391.1 390.5 390.6 393.6 397.2 398.3 398.5 399.4 401 404.5 410.4
143.4 141 151.6 165.5 173 179.5 191.4 198.2 208 211.9 220.4 227.7 233.7 241.2 251.1 258.8 264.4 269.4 273.4 272.9 276.1 280.4 283 285.6 284.8 282.1 283.5 284.7 288.3 291.1 288.9 291.1 288.6 285.4 284.6 284.4 281.2 276.2 274.7 269.1 265.2 260 260.2 261.3 275.4 279.4 288.3 296 302.7 313.5 314.8 318.5 332 341.3 343.8 335.7 332.6 329.2 328.3 330.2 328.8 339.1 340.1 339 337 341.4 342.2 342.9 343.6 339.5 349.4 349.4 317 300.8 290.6 291.4 281.2 282.4 289.4 311 343.7 365.1 372.4 363.2 364.3 362.7 361.9 371.8 379.7 384.4 387.6 398.8 399.2 393 390.3 386.7 383.4 382.5 385 392.2 390 390.7 392 396.2 405.8 410 416.2 424.3 431.2 439.2 438.4 439.3 446.4 453 458.2 461.5 463.7 468 471.9 476.4 481.7 487.4 487.9 486.4 485 485.4 487.4 486.9 487 487.3 485.4 484 482.8 482.8 484.9 486.2 488.1 490.6 492.7 493.2 491.5 489.6 485.2 481.7 479.7 476.9 473.9 468.8 465.3 462.3 456.6 450.1 448.6 450.6 451.7 451.1 451.1 450.5 451.6 450.7 445.7 444.9 441.5 440.5 439.8 439.1 439.9 440.4 440.5 440 437.6 432.9 428.4 428.1 427.2 424.3 422.7 420.8 417.8 411.1 407.9 404.4 401.5 398.5 394.5 392.1 390.7 391.3 389.9 390.4 390.9 392.1 393.8 395.1 397.1 397.5 398.1 399.9 404 408.8
139.2 142.3 154.4 162 168.5 181.4 192.3 201.1 210.9 215.4 224.1 228 236.6 244.7 251.3 260.4 267.5 271.6 274.2 274.9 279.1 281.1 284.8 287.5 286.4 285.6 285.6 282.4 285.7 285.5 284.6 283.7 283.7 284.1 279.9 277.3 272.9 268.7 265.5 263.2 261.9 261.9 253.4 261.7 272.3 280.2 284.7 291.2 300.1 308.3 312.3 321.5 335.4 349.5 338.3 327.9 325.7 325 326.5 330.4 319.4 320.5 324.2 332.9 334.8 331.2 332.9 338.2 337.3 328.6 325.6 319.9 295 255.1 258.1 272.2 314.3 329.9 345 361.6 377.9 380.1 381.6 380.2 376.2 373.9 373.7 377.1 381.8 386.4 391.3 394 395.3 398.2 394.7 388.4 387.8 387 383.5 382.4 385 388.5 391.4 396.7 404.8 410.9 419.3 424.8 429.4 430 431.3 435.6 440.9 447.2 451.9 455.4 458.2 461.9 465.4 467.8 472.9 474.9 478 478.9 479.3 479.7 481.1 481.1 481.4 482.2 481.8 482.1 479.4 481.9 483.8 485 487.1 488.1 489.9 492.2 490.5 487.6 486.9 485 484.8 478.3 473.5 470.5 466.7 461.9 456.7 451.3 449.2 451.2 452.7 455.2 456.7 458 458.7 455.6 453.3 450.6 449.5 446.9 444 443.1 442.9 442.8 442.7 441.4 437.9 433.6 432.2 430.1 427.2 424.3 421.6 419.5 416.9 411.2 409.5 404.9 403.1 401.6 398.4 397.6 393.2 391.5 390.6 390.3 390.6 392.5 393.7 394.9 395.3 396.1 397.3 399.3 401.4 405.4
