ncols 200
nrows 82
xllcorner 210000
yllcorner 750050
cellsize 50
314.5 312.2 314.4 312.9 294.3 268.7 254.8 242.5 234.7 229.2 223.2 203.5 217.6 235 244.6 256.6 270.8 285.8 298.9 319.2 330.2 357.4 378.5 403.6 427.2 448.5 469.9 493.4 518.8 543.4 566.5 592.1 619.8 642.7 667.2 696.4 722 742.7 755.9 738.5 692.7 645.8 606.3 551.2 508.7 467.5 430.9 389.7 358.2 330.9 307.5 288.4 274.2 281.9 304.2 329.2 356.3 382 411.9 443.7 475.4 494.2 522.7 551.8 583.7 607.9 643.8 686.4 736.1 781.4 817.8 853.3 893.8 942 988.2 1021.8 1038.2 1050 1061.4 1060.1 1056.7 1073.8 1066.6 1073.9 1093.4 1093.1 1094.4 1107.4 1121.7 1127.5 1111.6 1079.3 1019.5 971.5 915.7 885.8 869.6 852.6 841.6 822.2 796.7 767.1 735.6 722.2 715.2 695.5 659.1 654.2 652.9 659.5 666.4 675.5 684.4 708.3 735.4 756.4 788.3 805.4 832.6 873.1 891.5 919.7 931.9 901.2 877.5 865 848.9 838.5 824.1 812.5 782.9 749.3 709.5 691 656.4 636.8 612.2 580.1 552.8 528.4 504.6 481.5 462.7 447 434.9 424.3 426.5 438.5 449.6 467 484.8 500.2 518.3 534.1 557.7 576.7 590.2 588.8 566.2 607.6 648.4 683.4 722.1 763.5 801.8 841.2 866.3 887 893.9 867.3 834.4 799.3 770.6 737.7 707.3 674.8 648.8 623.6 598.6 576 555.7 538.6 522.9 506.7 494.5 481.6 468.4 452.4 439.5 428 414.6 402.9 393.1 386.3 379.2 370.7 369.9 374 379.6 379.3
338 336.8 334.5 334.2 307.7 286.5 266.3 257.9 250.3 242.8 234.3 210.3 228.4 243.8 254.2 269.1 282.2 298.7 312.3 331.3 353.7 373.3 393.1 420.6 443.7 466.5 491.1 517.5 544 567 591.8 617.5 649 678.2 701.7 729.9 749.5 768.9 774.4 756.3 705.5 671 610.4 575.3 527 483 436.5 399.4 368.7 340.2 316.5 299.6 281.4 281.2 304.4 326.2 352 379.3 411.9 445.8 487.8 513 532.6 555 575.6 600.1 637 676.8 721.1 762.1 804.1 839.3 874.6 927 977.4 996.6 1007.1 1030.1 1036.9 1023 1016.5 1025.7 1030.7 1032.3 1032.8 1060.4 1061.2 1070.6 1095.8 1101.3 1099.7 1087.7 1017.6 963.9 942.1 912.1 881.3 869.6 862.6 850.5 805.7 768.8 767.4 747.8 735.4 691.9 679.6 681.2 680.3 685.6 699.5 706.3 725 745.7 761.9 781.8 806.9 857.3 884.8 937.4 935.4 921.3 898.1 874.9 855.5 831.1 818.2 798.1 799.2 773.5 750.9 723.7 699.7 660.8 640.3 611.4 590.1 565.8 537.3 516.7 495.8 475.8 457.6 441.4 430.4 424.2 433.1 449.3 467.2 482.2 500.2 519.1 538.8 557.8 583.1 610.2 628.4 624.7 604.4 623.7 656.7 686.7 723.3 774.5 817.7 851.2 882.9 891 873.6 840.8 811.7 778.4 749.8 727.7 697.6 671.5 643 616 587.8 565.7 544.9 528.9 516.3 498.2 477.5 464.3 450.7 440.1 429 417.6 407 396.6 390.1 384 375.2 369.5 376 379.1 380.6 386.2
361.4 368.8 362 350.7 327.6 304.3 282.8 273.5 262.8 252.9 245.4 218.6 232.7 255.9 267.6 280.1 295.2 312.3 329.8 346.5 369.1 391.3 409.4 435 459.7 486.1 511 538.1 570.2 590.8 612.3 638.7 675.6 704.9 722.8 746.9 763.9 782.8 791 768.2 726.1 684.7 639.8 588.4 531.7 489.8 443 407.9 377.3 351.1 326.4 304 286.4 289.6 304.4 327 353 381.3 410.7 450.3 484.3 514.8 548.4 557.4 578.3 604 633.6 678.4 716.1 755.6 791.2 818.8 848.7 885.1 931.2 956.8 972.6 994.1 1007.5 988.5 979 987.9 998.4 991.5 995.2 1009.7 1020.5 1052 1063.3 1071.8 1075.2 1074.7 1031.8 987 971.3 936.2 906.3 893.9 890.5 861.3 810.2 792.6 788.4 759 729.1 718.7 711.8 713.4 710.5 715.2 726.8 737 754.1 768.3 787.2 814.9 843.6 881.9 924.3 929.9 910.2 889.8 864.1 840 814.1 796.7 786.1 757.7 750.6 733.4 717.4 699.2 672.6 646.2 620.1 591.4 568.2 546.7 522.6 501.4 481.1 465.3 452.4 438.6 429.2 431.7 447.6 463.9 483.9 499.6 517.7 539.3 559.9 582.7 608.7 638.7 653.4 647.2 640.6 647 668.6 697.5 727.8 784.3 820 857.9 890.8 883.7 851.1 819.3 792 761.8 731.1 706.3 680 656.7 630.1 601.4 578.3 554.2 535.6 517 501.5 484.7 469.8 454.8 434.7 426.1 416.5 411.7 403.2 395.6 390 374.2 376.9 383.7 384 385.4 389.3 392.2
380.4 394.3 386.1 378.3 349.1 326.1 298 285.9 275.5 265.5 250 226.8 246 268.8 278.1 290.6 307.4 324.2 344.6 362.7 383.7 402.8 428 447.1 470.6 500.4 526.9 554.5 585 606.4 624.7 653.5 685.5 714 734.6 756.7 776 794.9 797.4 782.7 734.8 699.9 641.4 583.2 529.5 497 449.6 418 388.7 361.2 335.7 312.3 286.3 305 312.6 332.2 354.6 385.8 414 455.1 489 528.7 550.2 564.5 584.4 606.1 640.6 686.3 722.7 756.3 778.4 793.5 819.6 850.7 888 914.2 955.3 948.5 964 964.5 941.4 955.3 964 948 960.4 979.6 996.3 1020.1 1024.2 1033.8 1043.7 1043.8 1042.3 1039 996.9 1033.3 994.8 928 902 870.5 827.4 818.4 785.7 761.8 747.3 752.7 759.3 752.4 749.1 766.8 769.1 764.9 775.7 793.6 812.3 868.2 886.9 918.1 911.1 896.7 881.4 857.4 826.3 805.6 785.3 761.5 741.7 727 717.4 701.9 687.4 668.7 646.9 621.5 598.8 574.1 551.1 530.5 509 490.5 472.5 458.8 446.4 437.1 431.1 442.8 458.6 475.5 496.2 517.2 535.4 561.3 584.6 606.8 638.2 656.8 674.2 683.7 677 673.7 690.1 713.8 748.8 785.5 831.2 873 892.6 869 834.1 800.7 775.5 744.1 713.5 688.9 664.4 636.6 612.1 584.4 561.2 543 523.8 504.1 488.6 473 456.2 441.6 428.8 420.4 412.3 403.3 397.5 393.5 378.3 390.9 391.2 391.1 392.3 395.1 396.4 401.4
393.8 394.5 394.4 389.4 362.2 336.4 311.3 295.3 281.7 275.2 251.7 232.1 253.5 277.7 287.9 299 314.9 333.7 353.1 373.2 393.3 415.7 438.8 460.6 482.1 511 535.7 562.9 588.9 614.5 634.3 659.8 694.3 713.8 739.2 760.8 783.3 794.2 803.5 787.8 747.5 711.6 653 599.7 547.9 496.4 460.9 434.1 400.9 370.5 343.7 320.8 306.5 313 316 336.2 361.6 392.9 420.9 454.3 492.1 524.1 557.7 583 604.2 621.4 660.2 694.3 734.6 749.7 763.9 766.9 788.9 817.9 847.2 870.1 892.8 933.1 918.6 931.2 906.4 920.7 930.5 902.4 929.4 934.1 968.7 992.4 988.6 996.1 1005.2 999.4 1010.3 1017.3 1035 1040.7 1000 960.4 900.2 860.3 840 819.6 800.2 779.5 770.3 786 794.8 792.6 806.6 810.6 825.1 803.4 811.7 824.5 847 904.1 920.2 899.1 878.7 862.2 847 814.9 792.6 772.4 759 728.7 716.2 697.8 687.2 674.6 659.6 638.6 615.7 596.8 573.7 550.6 529.6 515.2 501.7 481.8 464.9 453 440.3 434.4 440.9 456.2 474.6 494.2 513.2 536.2 558.7 580.8 610.2 634.3 656.9 679.9 693.6 695.6 698.6 696.9 703.7 726.6 758.5 793.3 833.5 870.8 887.9 855.7 814.9 779.2 749.4 721 693.2 669.1 643.1 615.5 591 567 545.3 525.4 507.2 492.2 474.2 461.2 447 431.5 421.9 411.8 405.8 399.1 391.6 380.7 393.5 397 396.9 398.4 400.9 401 402.6 408.9
406.8 401.7 411.3 396.9 375.5 354.6 325.4 304.9 288 282.3 263.2 243.7 254.4 281.4 292.3 307.2 321.9 338.8 358.7 380.8 402.5 423.8 446.1 471.8 494.2 521.5 544.1 568.5 594.8 619.9 643 663.1 687.4 709.3 735.9 768.4 785.2 804 808.4 803.5 756.7 720 677.6 625.4 564.5 523.5 467.8 442.9 408.9 379 353.6 334.5 314 320.4 325.4 343.4 370.9 396.9 426.5 459 492.8 524.2 569 600 623.1 652.8 682.8 713 734.8 746.7 746.9 747.9 759.5 787.2 812.5 829.2 867.3 881.5 875.1 888.1 879.2 884.6 890.9 863.9 889.6 903.1 928.7 956.9 945.5 961.2 963.1 963.6 974.4 987.8 1002.1 1013 1011.9 967.9 907 876.3 858 833.9 814.1 800.1 802.5 812.6 835.6 836.8 861.8 860.4 855.6 851.4 862.9 873.6 881.3 906.6 888.9 867.3 840.4 816.3 800.2 782.8 762.8 735.2 718.2 697.9 682.7 666.5 656.1 644.2 627.3 611.8 592 570.1 548.3 528.5 513.2 496.8 485.8 472.7 457.6 446 437.1 443.7 452.8 467.9 489.2 511.5 533.3 556.7 581.3 606.7 631.6 665.6 698.1 709.1 722.2 726.4 733.4 714.4 726.3 742.2 768 811.5 855.2 886 878.5 847.4 810.3 776.1 739.9 698.2 664.7 635.8 618.4 595.5 572.7 549.7 527 508.1 490.7 475.3 460.9 448.4 435.4 423.2 414.2 404.6 399.1 394.3 388.5 398.3 402.1 405.6 406.8 409.4 405.4 409.1 411.7 419.3
411 410.6 417.1 424.7 402.9 378.5 367.8 331.7 311.1 291.5 271.8 253.1 265.5 285.6 296.7 309.1 323.6 341.3 364.2 385.8 406.3 427.9 450.1 477.5 498.8 524.5 547.9 570 595.8 620.9 648.1 666.3 686.3 711.9 734.5 761.2 785 798.6 807.1 811 768.9 732.5 692.7 639.6 586.6 529.6 479.8 447.9 414.8 388.1 364.4 339.9 322.1 327 333.2 352.4 377.5 404.2 433.7 465.3 496.1 533.1 582 614 652.1 682.9 705.5 722.3 732.9 738.3 736.1 734 744 762.2 773.6 787.5 822.8 841.8 834 841.5 835 845.5 836 829.1 850.8 867.2 900.7 905.5 910.4 929.1 925.1 925 920.7 950.1 970.3 968.1 984.9 982 986.1 950 883.4 854.4 832.6 826.4 829.3 857.9 870.4 888.1 900.3 905.2 898.9 909.9 931.8 942.8 888.5 865.8 845.5 835.6 811.1 787.5 770.1 752.8 726.5 705.2 685.9 671 654.5 640.2 628.9 618.3 600.2 586.7 572.6 549.8 531.6 511.9 498.1 482.3 473.8 463.3 453 442.3 446.2 454.7 467.3 481.6 502.9 525.9 550.8 576.8 604.9 640.5 668.2 695.1 726.7 745.8 764.1 762.6 758.9 749.5 747.4 768 792.6 839.9 869.5 884.4 857.6 828 792.4 758.5 723.5 694.5 662.1 630.2 600.5 573.7 552.5 532.6 514 495.4 479.6 461.2 450.6 439.4 427.5 417.5 406.6 404.1 403.9 402.5 403 410.6 413.3 416.3 417.6 413.4 415.4 415.4 421.5 427.1
419.1 428.8 430.4 458.4 429.5 415.2 406.3 386.9 349 314 287.1 261.7 260.8 284.8 297.2 309.1 326 343.6 365.5 389.4 410.1 430.8 454.8 479.1 501.7 525.2 548.5 569.8 594.6 617.7 642.7 668.5 693.4 710.5 736 763 779.2 789.4 804 809.5 789.6 744.8 713.4 654.9 601.8 545.5 503.3 451.7 424.2 396.8 372.2 347.3 331.4 335.3 343.2 361 383 409.2 437.8 467.5 501.5 542.4 607.5 640.1 662.4 681.6 705 711.4 724.4 728.9 722.9 724.8 720.8 726.9 734.9 746.2 789.9 786.4 797.4 799 788.3 808.5 818.7 786.6 810.8 844.9 852 862.5 872.5 893.8 892 878.4 891.2 915.6 924.6 929.6 958.3 989.4 988.2 954.3 939.5 894.3 859 866.7 896.1 895 916.9 927.8 946.9 944.5 953 967.4 978 922.6 881 842 815.8 798.3 776.7 758.6 743.2 720.3 701.9 682.3 658.4 636.2 625.3 615.3 599.6 589.6 574.4 564.5 547 530.5 516 500.1 486.6 474.4 466.3 456.1 450.7 445.9 455.1 468.5 483.1 496.9 517.9 542.8 569.7 598.1 631.1 666.3 692.9 721.5 750.4 775 796.8 802.9 789.7 783.8 788.3 798.4 817.8 854.5 883.1 867.9 836.1 804.1 773 740.3 709.6 674.9 643.8 611 583.2 560.2 537.5 514.1 500.4 483.2 467.8 454 440.6 430.3 420.5 411.5 410.3 410.6 410.5 413.6 417.4 423.2 426.5 431.5 426.1 422.4 422.1 423.1 427.6 434.6
434 441.4 462.2 461.9 455 447.8 449.8 432 380.8 327 298.1 274.5 260 283.9 294.6 308.9 326.1 346.2 368.5 390.9 414.1 433.2 457.2 478.2 501.9 525.9 548.5 570.4 592.5 616.2 640.2 668.4 692.7 713.2 737.5 763 775.4 786.1 797 807.9 806.1 760.3 720.7 675.8 604 546.7 509.6 463.7 432.1 406.5 382.2 356.3 340.4 342.5 349.7 359.5 387.3 413.8 438.7 472.6 511.3 553.7 597.5 636.8 659 677.4 690.7 703.9 720.5 719.4 712.7 716.3 712.2 706.6 705.1 721.4 744.2 736.1 752.3 761 738.2 771.9 787.3 749.4 768 811.3 805.2 823.4 856.7 860 857 840.5 854.2 877.5 883.6 904 935 962.5 977.1 968.7 958.6 911.1 902.2 927.8 946.1 956.5 967.7 970.9 985.4 1004.5 1008.1 1008.9 978.4 914.9 872.3 828.7 795.8 774 762.1 733.5 708.6 689.5 669 650.7 629.6 615.1 597.7 585 566.4 564.5 554.8 546.3 529.9 514.8 500.7 489.8 479.4 468.5 460.8 457.8 449.1 457.9 466.5 481.5 496.9 514 535.4 562.8 590.4 621.5 653.2 685.7 714 744.1 773.9 800.5 825.7 837 819.2 811.7 814.8 831.6 853.2 873.3 874.3 846.9 816.6 782.5 747.5 717.6 685.8 655.1 624.8 593.3 566.3 542.2 523 505.6 489.8 469.6 456.9 444.9 433.5 423.7 414.9 416.6 418.7 420.9 421.2 429.9 433.2 437.7 444.4 443.3 438.8 433 432 437.9 438.6 449.1
457.3 466.4 492 493.2 501.8 487 479 424.6 374.3 336.9 313.7 292.8 276.1 271 294.1 309.2 326 345.8 369.1 392.5 411.7 436.4 456.2 478.7 503.1 525.2 548.9 569.4 590.4 612.8 639.7 663 693.2 714.7 742.6 766.1 776.3 784.1 795.2 806.2 811.2 775.1 729.6 661 619.5 591.9 522.2 469.3 438.1 412.1 388.5 364.1 347.4 348.5 357.4 365.3 389.1 411.8 442.2 471.3 519.1 556.2 593.6 625.2 648.2 660.8 674 695.2 714.7 710.8 710.4 708.1 702.9 685.4 683.3 683.2 709.9 696.3 707.9 720 696.8 739 745.4 750.1 708.7 744.9 778.2 799.5 812 817.7 802.2 795.4 819.5 828.6 849 883.6 918.8 940.7 943.6 934.4 932.7 940.4 952.4 975.7 996.8 1007.7 1014.2 1033.3 1030.1 1054.4 1048.7 1015.9 977.1 925.9 853.9 818.1 774.2 754.5 742.9 714.9 679.8 665.2 638.4 620.4 605.3 564.2 557.9 555.9 544.5 542.5 535.6 526.7 516.6 504.6 493.8 484 474.3 467.4 459.2 454.1 456.6 466.2 480.2 494.9 511.2 530.2 555.7 579.9 611.2 643.6 682.4 707 734 765.8 796.2 825.8 851.4 874.1 852 844.1 848.1 864.6 885.8 874.7 848.3 822.7 795.2 763.4 728.3 696.2 664.3 634.1 604.4 575.8 547.7 525 506.1 490.4 475.3 460.9 449 438.7 427.6 419.8 422 425.5 431.7 435.6 439.4 446.2 451.7 458.1 463.7 458.1 456 453.4 454.5 457.5 457.8 464.9
485.6 491.6 517.4 522.6 528.4 523.1 488.1 432.9 392.8 351.3 325.7 304.2 295.9 274.6 284 307.9 327.4 347.4 370.1 392.3 413.7 434.7 454.1 479.9 498.7 525.9 546.8 568.5 588.8 612.6 636.1 659.7 682.9 714.5 748.9 759.9 776.6 791.3 794.4 802.6 804.8 780.7 736.1 689 646.3 604.1 547.9 481.5 447.2 417.7 396.1 369.9 353.6 353.2 363.2 372.5 398.7 419.3 448.1 478.4 517.2 554.8 593 614.4 635.7 649.2 685 701.9 712.5 706.5 704.2 700.4 685.5 671.6 670.6 663.4 665.3 657.9 663.1 670.2 667.4 691.2 712.9 716.4 694.3 702.2 726.6 759 773.7 774.4 757.6 768.4 772.8 799.2 832.4 867 887.2 917.2 909.6 897.5 899.5 912 932.4 953.5 980.4 1008.5 1033 1046.9 1056.7 1061.7 1040.1 1001.1 963.8 925.8 854.2 801.6 775.4 755 732.3 716.6 675.8 651.4 636.7 627.9 622.8 617.9 604.9 584.2 565.6 543 532.9 511.7 506.5 497.7 490.5 479.6 471.5 466.9 461.9 461 466.4 476.2 491 506.9 523.6 546.6 572.4 601.7 630.8 660.7 693.3 727.9 757.5 785.8 815.6 847.4 877.2 901.7 900.6 881.6 884.2 898.1 881.9 847.8 821.9 795.2 768.4 737 706.8 679.1 643.6 612.7 584 556.1 532.1 511.1 492.6 478 464 452 439.9 430 423.5 429 433.2 437.5 445.3 453.9 457.2 466.5 475.8 479.9 481.5 482.1 481.8 482 479.3 482.6 486.8 490.8
507.9 523.1 537.8 544.7 550.7 543 502.1 459.6 418.5 376.1 342.3 318.4 307.6 291.3 282.8 302.4 325.2 349.7 372 393.6 415.3 432.1 452.9 476.9 501.5 521.9 546.2 564.6 588.2 608.3 632 659.4 684 715.1 734.5 756 780.1 793.1 800.5 804.6 794.2 756.2 731.2 691.8 668.7 606.5 529 487.7 455 426.5 400.1 375 356.7 357.3 366.5 378.4 400.5 425.2 453.2 488.4 524.8 561.2 608.4 632.7 638.3 663.7 687.7 700.3 713.9 705.3 700.7 692.4 674.1 661.6 649.2 638.8 634 624.1 628.8 632.8 631.1 670.2 672.4 677.6 662.7 678.6 700.6 720.6 731.9 733.4 714.2 724.9 744.4 781.8 808.8 827.8 859.2 869 863.7 860.2 868.2 884.2 902.4 924.5 954 987 1022.1 1034.4 1043.6 1048.2 1021.8 988.2 932.2 889.6 840.5 806.7 801.2 767.4 745.6 721.3 696.6 675.3 664 658.9 658.1 656.1 633.9 606.5 582.1 556.1 533.8 520.8 507 494.8 486.7 477.9 473.2 468.9 465.5 470 476.8 487 501.3 517 538.7 560.6 590.9 622.6 650 680.2 707.3 741.5 773.4 810.2 838.6 868.2 896.7 925.8 943.4 923.7 916.2 895.4 858.9 821.8 791.6 767.2 741.6 712.1 685.3 654.3 623.6 593 564.4 539.4 518.2 499.3 482.1 467 455.3 445.8 433.1 431.3 434.5 439.7 447.9 452.3 463 472.3 477.7 490.7 500.6 506.6 508 515 518.5 518 510.5 516.5 526 520.2
540.9 569.7 568.1 574.5 588.6 577.5 537.2 483.5 449.6 404.4 360.3 333.7 315.7 302.3 287.5 306.8 326.9 344.6 367 387.5 410.2 431.9 450.9 474 498.2 520.8 545.2 563.9 588 609.2 629.5 659.3 689.2 713.5 728.2 751.2 776.1 799.5 810.9 822 810.7 767.4 708.5 672.7 631.7 607.9 532.9 492.9 458.9 432.3 405.2 377.2 361.4 358.1 368.4 384 400.9 432 461.7 497.1 531.9 569.9 599.2 636.8 663.2 676.2 689.4 702.5 714.8 709.9 705.7 695.2 673 647.8 625.2 619.3 603.3 596.7 594.9 589.8 627.2 624.8 624.2 626.4 629.8 638.1 662.4 682.3 693.9 704.3 681.5 694.2 733.4 757.7 779.7 802.5 823.7 824.6 822.2 822 839.6 854.8 873.6 901.7 931.2 961 1005.2 1024.1 1031.9 1036.9 1029.2 996.7 945.6 912.7 874.8 846.2 822.9 786.1 772.3 738.7 721.2 715.5 694.6 703.2 702.1 691.5 659.5 629.3 590.2 566.3 548.6 525.2 509.7 496.1 487.4 479.2 473.2 471 471.3 476 483.8 496.3 511.3 527 549.3 575.3 604.9 636.7 667.7 701.9 729.8 759.7 790.8 828.3 858.2 891.3 921.8 945.3 941.4 914.7 887.2 865.4 845.1 809.7 767.1 736.1 717.4 689.1 661.9 631.9 600.8 572.4 550.2 524.8 506.6 487.2 471.7 456.5 447.9 436.1 439.2 442.9 446.4 453.1 462.2 472.9 480.7 492.4 503.4 518.1 528.4 538.2 544.8 551.4 559.8 565.8 572.3 564.6 563.6 555.6
576.3 599.6 598.1 605.4 611.5 599 546 503.5 452.8 411.9 373.3 346.6 328.9 306.3 292 306.2 324.2 345.2 370.3 390.7 407.9 429.2 449.1 474 497.5 518.4 544.6 561.6 577.3 607.4 628 653.3 678 698.4 718.5 746.3 784.3 806.9 818.4 837 831 784 745.4 695.3 633.9 584.1 547.6 504.7 464.4 435.9 409.6 386.3 366.3 360.5 370.8 386.7 404.4 436.7 465.6 501.7 542.5 571.6 593.1 623.4 651.6 670.5 689 703.3 725.5 728.5 717.4 699.6 671.2 641.6 622.7 594 580.8 570.3 561.8 570.5 585 584.4 588.2 591.4 598.9 602.4 623 641 662.5 670.3 652.7 673.7 705.1 725.8 753.1 777.4 788.3 783.9 781.6 789.8 809.3 823.7 850.7 875.9 912.3 947 997.7 1015.2 1017.8 1019.2 1016.2 1002.7 967.3 921 886.3 870.7 854.9 802.2 779.5 765.6 754.2 749.6 741.4 731.7 735 723.3 690.1 641.8 612.4 580.9 554.7 527.7 512.9 500.3 491.6 486 476.5 477.4 481 489 489.6 502.4 519.7 537.2 561.4 588.6 619.9 650.2 683.4 716.4 746.8 778.7 822 841.6 874.6 907.2 936.9 949.6 919.2 889.2 860.9 834.2 812 785.4 748.5 712.9 680.2 663.5 638.6 608.9 580.2 555.8 530 509.5 489.9 474 463.1 451.7 442.9 443.9 449.5 455 464.6 471.6 484.3 494.1 507.4 519 528.2 547.5 560.3 574.5 579.8 591.4 606 620.8 617 612.9 606.3 591.3
604.6 619.4 618.3 629.4 631.3 594.3 540.8 504.6 470.3 432.6 392.6 362.1 339.6 314.9 299.3 315.8 329.9 348.5 368.3 387.8 407 427.5 444.4 466.6 488.5 508.6 525 548.2 571.7 595.2 620.9 648.6 667 689.1 713.6 750 781.8 803.1 820.4 840.4 835.4 789 750.6 699.7 622.2 576.8 534.3 502.4 468.7 439.1 410.6 387.4 370.2 363.8 375.8 390.8 409.6 440 469.9 501.7 540.5 567.6 583.5 609.3 624.4 651.2 679.7 707.6 726.3 728 720.6 701 667.1 637.6 609.7 582.6 557.4 549.7 546.5 543.3 548.1 546.9 549.2 554.3 555 568.9 583.8 602.4 616.9 626.7 598.6 649.7 675.4 691.1 726.6 745 751 744.4 739.3 763.2 772 801.8 828.5 864.9 900.4 937.5 981.7 1003.6 1003.9 1003.8 1002.4 998.7 985.5 949 918.6 900.3 890.4 826.9 807.2 797.9 790.4 784.5 771.7 774.5 799.5 758.1 710.8 663.3 637.3 590 554.6 531.8 516.5 505 498.1 490.3 483.4 488.1 487.8 491.7 493.7 510.9 524.9 543.6 569.3 597.2 631.4 663.7 698.3 730 760.5 794.8 836.6 872.8 897.6 930.7 943.1 924.2 888.3 862.7 836.3 807.9 779.5 751 721.2 692.7 663.6 634.4 611.4 586.2 559.6 536.7 515.8 496 479.2 465 454 445.5 448.6 454 459.2 465.5 481.9 494.5 507.1 517.5 533.2 547 561.4 576.4 598.6 610.4 619.1 640.2 664.2 669.2 658.5 644.2 629.8 625.8
616.5 629.6 635.1 640.7 637.7 613.4 582.4 551.6 496.4 440.8 407.9 375.2 349.8 322.8 306.3 319.4 331.1 346.4 364.2 379.9 395.7 413.7 431.6 452 476 493.3 514.1 542.7 569.2 590.3 623.1 646.3 665.3 682.9 708.6 742.9 775.4 802 822.6 833.3 837.2 795.6 748.4 698.3 624.5 585 541.9 501.5 469.2 439.8 415.9 388.4 372.3 365.9 377.3 394.1 414.5 441 472 503.4 533 561.7 579.4 595.2 613 634.1 663.7 687 721.4 727.4 726.4 704.2 667.7 636.2 604 574.8 551.1 527.1 523.7 515.7 514.4 515.9 519.2 527.2 526.1 537 553.2 570.4 582.1 587 602.5 628 635.9 673.2 696 711.3 708.5 701.5 717.5 725.4 748.7 784.5 821.6 856.8 889.9 915.9 968.7 987.5 993.4 988.1 985.1 981.4 983.1 984.3 969.8 956.1 923.8 859.6 834.2 828.9 830.5 811.9 801.2 837.4 796.7 748.6 714.6 679.8 633.2 586.8 557.2 543.4 524.5 508.2 498 493.2 491.2 491.1 487.7 489.3 493.7 504.5 523.6 544.8 568 599.2 634.3 672 707.9 742.8 784.6 816 856.4 894.8 919.2 928 915.2 888.4 862.6 834 808.4 781.8 752 724.1 696.9 668.1 641 616.1 589.6 567.2 543.9 520.9 501 485.7 470.7 457.6 447.5 453.1 456.3 464.2 473.2 484.7 503 513.5 532 544.4 561.3 579.6 592.5 608.6 632.3 649.3 660.6 683.8 708.4 719.5 707.8 679.3 663.2 649.1
630.4 642.3 649.8 653.7 657.2 654.9 623.8 548.9 507.4 470.9 423.5 387.1 359.4 336.5 311.3 320.7 334.1 348.1 365.2 383.3 405.9 429.2 446 464.9 487.7 497.7 524.5 552.8 570.8 596.3 625.7 646.7 664.1 683.2 711.9 742.2 774.5 802.4 819 831.4 841.4 807.1 747.1 683.2 635.5 584.1 548.9 503.7 471.6 439.2 413.4 392.1 378.4 370 378.2 393.4 415.4 439.4 468.7 500.4 528.6 549.5 571.5 587.4 604.6 631 657 671.2 712.8 728.7 725.8 710.1 667.4 633.4 599.7 570.5 543.7 524.1 500.8 493.6 489.3 487.7 493.7 501 498.1 508.4 520.8 539.1 554.3 556.8 576.8 590.9 623.9 643.8 664.1 677.9 672.9 664.9 683.2 701.5 741.9 778.1 812.7 846.2 861.5 893.9 936 976.4 978.4 972.7 966 964.1 967.5 968 970.2 973.4 958.7 893.1 866.3 852.2 849.8 838.2 835.7 843.9 775.8 739.7 714.8 675 630.3 597.1 575 544.1 536 513.1 500.2 489.9 488.8 485.3 479.4 482 490.4 500.3 515.3 535.5 561.8 593.9 629.4 668.8 704.8 744.2 794.5 830.7 862.6 885.6 897.1 905.4 891.4 858.6 837.6 808.9 778.6 754.6 727.4 700.2 673.5 647.1 620 595.4 572.1 550.2 529.8 508.9 491.3 476 463.7 451.5 456.4 464.2 465.2 478.4 491.4 506.8 523.4 539.3 557.2 574.2 589.1 608.1 629.4 642.6 667 690.8 706.9 721.4 741.7 763.1 732.6 709.3 697.1 680.5
639.2 647.4 658.3 667.7 670.7 669.8 625.5 563.3 537 476.3 428.8 396.3 366.3 342.9 317.2 322.6 333.7 348.4 363.8 380.4 402 419.8 443.8 466.9 493.6 516.9 540.5 565.4 587.9 609.1 631.2 649.8 667.9 690.9 719.6 748.9 781.8 802 817.8 834.5 836.7 794.2 734.9 680.7 643.8 598.3 552.9 508.2 470.8 441.7 411.3 388.7 377.6 375.8 383.1 398.7 413.4 435.1 467.9 502.6 529.5 548.2 566.8 582 598.5 624.7 648.9 667.9 710.7 727.3 724.7 701 659.5 630.8 600.8 571.7 542.2 516.8 494.5 468.3 466.1 463.8 466.6 472.8 471 478.7 491.8 507.8 524.9 529.6 546.9 573.4 591.5 612.8 633.4 646.2 641.1 637.6 654.9 694.4 732 768.4 797.5 806.2 848.6 885.9 919.2 953.4 962.4 955.9 950.1 946.9 949 952.1 954.6 958.5 958.2 915.5 907.4 910 899.3 917.6 895.7 818.4 774.6 747 715.4 672.9 643 610.4 571.4 551.2 532.5 511.8 501.2 485.9 469.7 468.8 466 466.3 476.3 488 503.6 524.8 551.6 585.7 623.2 660.5 711.7 747.5 783.1 816.8 845 862.6 870.6 874 862.5 833.3 805.7 789.2 755.2 725.1 699.5 677.3 650.2 624.6 598.7 575.2 554.6 534.6 515.9 503 484.6 469.7 459.1 459.3 466.5 473.4 482.3 497.4 512 529.1 545.8 567.7 582 603.5 622 645.6 669.8 679.5 698 727.4 745.2 759.7 771 787.3 758.6 739.7 733 713.3
638.6 652.9 670.8 683 688.3 680.8 620.4 617.2 540.6 485.6 433.1 401.8 376.4 353.6 330.7 321.2 335.2 347.5 370.1 386 409.4 431.8 455.5 471.1 488.1 520.2 542 567.1 589.5 611.7 632 654.6 674.9 700.8 723.1 753.6 784.9 802.1 818.8 833.9 825 778.5 723.4 671.1 635.3 592.1 550.3 506 472.7 443.6 419.8 394.7 381.9 377.9 386.5 397.4 417.4 441.8 476.9 505.5 531.4 543.7 559.8 578.4 596.5 622.2 650.1 670.9 705.8 730.7 718.8 699.2 658.7 625 602.6 573.3 544 517.8 489.4 459.5 443.9 441.2 440.6 446.8 445.6 456 467.4 481.8 493.5 507.2 522.5 540.9 557.6 580.4 600.1 611.7 604.5 598.4 644.1 685 725.4 754.2 749.1 802.9 836 859.5 886.8 932.9 942.1 938 932.1 931.2 932.3 936.7 940.6 943.2 946.9 946.3 945.2 942.3 938.1 934.1 866.6 809 771.8 740.2 713.2 675.9 647.3 606.9 578.6 556.6 537.6 523.6 507.3 485.4 468.7 454.7 453.3 454.3 459.9 473.8 491 510.4 539.7 572.2 606.5 648.4 689 726.9 768 799.1 820.3 835.2 839.2 835.7 821.9 811.8 776.8 751 726.2 700.9 673.6 648.3 622.8 601.8 578.7 559 538.4 517.3 499.8 488.1 476.3 463.5 459.6 469.8 478.6 486.7 504.1 517.4 533.9 550.4 570.5 591.9 613.6 630.6 652.2 678.3 699.2 713.3 735.5 760.4 777.2 792.4 809.9 811.2 791.7 776.1 758.4 744.3
641 660 684.6 693.5 702.1 692.6 670.4 613.3 544.3 497.4 443.1 410.3 385.3 365.7 344.2 323.1 343.5 353.7 375 391.9 410.3 433.5 460.3 482.3 502.1 525.2 546.5 570.6 594.4 612.2 633.9 657.7 680.2 705.7 734.6 770.6 787.6 803 822.9 826.6 806.9 766.1 717 664.2 622.3 585.8 554.1 504.9 476.4 448.7 426.3 405.1 389.3 385.1 390.8 402.8 424.1 443.4 475.4 508.2 534.2 548.4 561.2 572.4 593.4 618.7 652 690.9 716.9 726.8 717.7 698.7 657.9 626 597.6 574.1 548.6 524.2 497.4 470.6 446.2 424.1 417.8 423.7 427.6 432.1 442.6 457.9 465.9 478 494.3 511.1 527.3 549 566.2 576.1 553.5 596.6 640.9 675.6 705.9 720.1 730.6 776 803.8 827.6 870.7 892.1 924.7 922.7 918.4 913.7 915.4 919.6 924.4 928.9 932.3 933.1 931.2 930.1 927.6 917.7 862.2 809.9 775.6 742.9 712.9 689.1 653.8 625.8 603 570.8 552.1 541.6 513.9 486.4 466.2 452 443.4 444.6 447.1 456.7 472.6 495.7 523.2 559.3 593.9 633 666.5 706.4 754.6 774.8 795.1 803.4 807 794.3 781.7 773.7 748.1 722.5 696.8 672.8 646.6 623.5 603.6 578.4 561.3 544.3 524.7 507 492 478.1 466.7 465.2 471.1 479.4 496.3 504.1 521.9 539.7 556.8 575.7 594.7 618.4 641.2 660.7 685.6 707.6 725.2 745.1 764.6 787.3 806.9 827.7 844 853.1 824.8 805.8 788.3 768.8
652.8 673.5 697.4 706 708.7 673.7 623.8 569.5 528.4 487.8 450.9 421.2 396.8 370.2 347.4 333.2 349.7 364.9 380 395.7 416.6 440.7 464 485.4 508.1 527.9 550.8 569.9 591.7 614.8 639.4 660.8 685.9 714.2 744.4 777.7 798.8 808.5 810.5 808.8 789.7 748.3 705.4 657.4 609.6 575.7 542.4 503.5 477.6 453.9 426.7 409 396.2 394.2 399.1 409.8 428.2 454.8 479.2 513.4 539 558.1 569.7 579.3 597.4 621.8 656.5 680.8 724.3 734.4 727.6 702.6 661.4 624.7 597.9 576.4 559.4 533.6 507.4 484.4 451.3 423.5 407.4 407.1 413.5 413.1 424.2 435.9 440.9 452.3 466.4 478 498.6 516.9 532.6 530.6 556.5 591.2 631.4 660.9 673.1 669.2 714.1 748.1 774.9 811.5 849.8 855.9 886.8 909.9 904.4 897.5 897.7 902.7 908.5 914 919.6 919.7 917.6 916.6 912.1 904.1 887 835.5 777.6 747.4 727.3 696.9 673.7 657.7 619.1 594.8 577.6 556.4 530.2 499 471.5 453.1 442.6 431.9 433.7 442.8 459.5 481.4 507.2 541.9 579.4 615.8 652.4 690.8 724.5 753.8 766.3 771.9 769.9 761.4 743.7 738.8 713.9 696.4 673.6 645.5 620.6 597.7 581.8 560.3 543.8 526.9 512.3 497.9 484.7 473.8 468.3 473.8 480.7 494.7 513.8 526.5 544.1 562.7 582.4 602.6 623.3 642.5 666.5 689.9 711.9 736.8 762.9 778.3 797.8 813.4 839.7 863.2 889.5 910.3 897.4 837.2 819.4 794.9
663.1 681.8 707.2 712.3 709.6 661.3 632.4 563.9 517.2 481.9 451.4 425.2 396 370.3 349.7 337.7 350.7 364.7 379.8 397.7 417.1 438.9 465.3 487.7 509.3 531.2 552.6 571.8 593 614.5 639.3 664.6 692.4 722.3 750.2 780.8 795.2 807.4 809.9 795.8 764.6 728.8 689.3 640.3 601.4 566.4 532.2 501.9 474.8 447.9 427.2 412 401.3 400.9 409.9 419.5 435.1 457.8 484.9 511.3 543.5 569 581.7 591.6 612.2 627.3 649.5 688.5 730.8 740 740.2 710.2 681 647 611.6 587.4 570.9 542.5 516.2 493.9 456.5 428.4 406.5 393.5 397.8 395.1 404.8 417 420 426.1 438.4 452.8 469.2 485.8 497.5 507.1 542.1 572 602.5 621.5 616.1 660.7 694 722.1 763.1 787.5 808.6 827.5 869.3 891.5 885.7 878.4 881.3 886.4 892.1 898.9 901.8 905.2 904.1 902.1 899.5 888.3 876.4 834.6 786.3 759 731.8 706.9 688.3 657.3 633.2 615.9 589 588.8 564 517.8 485.7 460.1 438 427.1 422.6 431.7 443.9 465.2 491.5 527.3 559.9 598.5 632.5 681.2 714.1 729.2 737 739.5 735.8 729.5 715.8 697.2 681.6 667 648.8 619 596.3 574.4 559.8 542.5 527.7 514.1 502.9 489.9 479.8 473.6 477.2 485.1 498.1 521.1 539.4 553.1 568.2 589.2 604.2 630.8 652.7 672.3 694.1 718.4 739.7 764.4 789.8 811.5 830.4 856.1 872.7 906.3 925 937 908.7 879.8 846.7 826.6
673 690.4 704.1 714.6 712.1 691.5 664.4 602.2 546.5 501.8 452.1 420.8 399.6 379.5 352.5 347.5 362.1 372.9 391.7 413.2 431.7 451.8 465.5 485.3 503.3 528.4 550.1 572.4 592.3 612.4 643.7 669.2 698.8 727.8 752.5 770.8 788 804.9 793.7 770.2 731.1 703.5 672.3 623.3 591 558.4 526.6 496.7 470.1 449.6 428.7 416.2 408.9 407.3 419.1 428.4 439.4 457.9 483.3 509.9 537 569.7 588.3 605.9 613.6 628.2 658 702.3 733.7 755.6 752 734.3 704.1 662 622.9 596.2 573.3 545.9 518 497.8 463.7 437.3 413.9 390.6 381.5 383.1 391.1 399.4 398.6 401.3 410.7 427.6 443.4 457 455.5 495.3 521.5 549.1 570.8 566.1 615.8 636.2 652.7 713.2 731.4 762.7 772.7 818.2 845.3 850.9 863.5 854.5 863.2 871.6 876.1 880.8 884.6 888.4 887.6 884.1 881.3 872.7 861.3 840.2 802.1 768.2 737.8 712.6 680.6 652.5 640.2 620.5 607.5 614.4 595.8 546.7 504.7 469.2 441.4 420.8 409 416.8 433.1 451.6 478.1 511.2 546.2 581.7 622.3 661.9 694.7 704.6 709 707.8 703 695.8 686.4 664.6 645.7 632.9 605.9 587.7 570.1 552.4 538.3 525 513.1 504.6 495.3 485 477.1 483.2 492.8 504.1 516.8 541.9 558.8 576.5 595.3 617.6 638.2 657.2 684.3 707.2 723.6 746.9 773.6 796.9 818.2 844.1 868.9 890.1 920 934.7 935.9 929.1 923.4 913.4 880.5 856.4
680.3 697.1 712.6 713.4 704.2 666.2 628.3 569.3 533.2 488.7 456.9 430.1 404.4 378.6 354.6 364.8 372.6 385 400.1 417.7 438.1 459.1 480.8 490.1 516.2 537 553.1 575.3 596.7 619.7 645.7 671.5 698.1 726.2 752 774.4 790.5 796.2 777.7 746.5 712.5 677.8 657.7 616 583 555.3 525.3 494.1 477.3 458.9 438.7 422.9 415 419.6 424.4 441.3 453.1 460.8 486.6 512.1 538.4 562.3 587.2 610.4 620.5 639.3 681.2 713.1 750.8 778 774.3 752 726.4 674.8 632 593.1 573.1 546 519 501.2 472 447.1 423.2 396.9 376.4 369.4 373.1 377.8 377.6 380.6 389.5 402.8 418.2 431.3 449.5 472.1 496.4 522.6 539.3 541.4 577.5 608.8 645.5 684.9 678.6 719.4 760.4 793 812.3 809.5 828.2 834.6 844.3 853.9 859.1 864.2 872.3 871.7 871 867.2 863.8 856.2 844.7 835.4 817.6 784.5 749.3 720.4 683.4 661.1 646.4 632.3 629.7 629.6 611.1 568.1 509.6 477 445.5 417.8 405.2 405.7 418.5 436.6 464.1 494.8 531.7 569.5 618.9 659.2 674.8 679.2 678.7 675.2 671.8 662.3 650.6 632.3 613 590.8 578.2 557.4 541.9 526.3 516 507.2 501.3 492.1 487.1 483 484.9 495.4 510 524.8 538.1 560.9 579.7 600.1 617.1 647.2 670.9 693.2 717.5 740.8 770.3 786.1 811.4 829.2 854.5 875.1 900.7 920.6 931.8 930.8 921.1 913.5 907.8 900.3 892 881
697 705.8 713.8 711.3 700.2 676.5 649.8 598.8 544 499 455.5 424.8 400.8 379 360.9 370.6 379.5 394.1 410.9 425.9 447.4 469 489.2 505.2 523.4 540.6 556.7 578 601.5 627.1 652.6 681.1 701.8 726.1 750.4 776.1 792.4 796.4 785.8 722.4 690 671.3 641.7 607.8 580.7 551.1 521.4 504.9 481.5 462 442.4 431.1 422 420.5 431.3 447.8 468.1 472.5 482.5 511 537.6 558.2 585.3 610.8 630.6 652.1 689.8 735.7 778.5 797.8 792.6 779.1 745.8 685.5 630.8 598.3 566.9 540.9 523.7 506.6 481.4 455 431.1 408 387.7 369.2 357.9 355.8 359.9 361 372.1 382.5 399.7 402.1 426.2 446.7 471 491.3 461.9 514.9 562.4 603.1 633.6 649.9 636.2 698.5 737.7 752.5 777.5 763.7 797.3 819.1 827.2 837.2 844.2 847.3 853.2 854.5 854 851.9 844.5 840.1 829.5 821.2 808.5 790.3 766.7 733 704.6 682.4 662 656.6 647 622 597.6 549.6 514.1 475.7 442.3 415.8 397.9 392.4 400.6 423.3 451.4 481 520.3 563.5 610.5 646.9 655.1 656.3 652.8 649.4 641.7 632.7 620.1 602.1 586.9 566.5 544.8 531.7 518.3 508.4 496.9 492.7 490.3 488.7 485.3 490.8 497.1 512 528.2 546.6 565.2 582.5 607.9 628.6 651 666.1 704.4 734.7 761.6 789.7 819.7 827.2 857.1 868.8 894.7 918.7 920.1 916.7 914.7 908.4 900.7 893.4 887.5 880.2 870.8 862.2
715.6 715 715.1 708.2 692.6 672.9 641.3 615.6 559.1 517.1 482.7 431.7 401.5 381.5 369.7 372.5 385 401.2 419.5 438.9 459.7 482.5 497 514.9 531.9 550.9 571 588.1 611 639 669.1 694 712.7 737.2 762.6 781.4 792.8 799 784.2 736.7 688.5 669.1 630 606.5 583.1 560.1 532.9 517.5 485.7 463.4 448.4 435.6 429.1 427.2 438.1 457.1 475.5 483.7 481.8 508.2 534.2 559.1 586.6 614 633.9 664.6 696.6 730.3 775.8 810.8 815.1 802 770.5 699.4 645.1 605.4 569.1 541.6 535.8 508.9 491.1 459.1 437.3 416.5 397.1 379.7 361 342.9 343.3 352.8 357.1 366 378.9 387.2 402.5 422.8 442.9 450.3 485 515.6 539.7 568.6 601 607.1 632.6 673.4 690.4 708.1 721.2 746.4 777 808.2 810.7 818.3 824.6 829.5 832.4 835.2 835.1 832.6 825 819 811.4 802.5 792.9 779.1 765.4 749.1 727.9 705.5 702.4 692 681.7 636.2 588.9 550.3 512.4 472.3 441.3 414.4 391.3 379.2 390.7 407.5 442.3 474 510.7 561.3 600.7 631 633.7 633.7 629.4 623.7 614.1 601.7 589.2 576.8 555 539.1 515.3 506.8 495.7 487.6 481.6 479.2 478.9 485.1 492.8 503.2 515.8 532.7 548.4 566.4 584.6 608.6 635.7 663.6 681.2 705.4 728 767.8 799 827.3 866.4 864 888.6 913.1 913 906.3 898.9 892.7 887 880.8 876.9 869.3 862.8 854 847.7 841.6
727.3 722.2 711 699.7 682.3 655.7 631.9 606.8 568.1 544.6 514 459.6 420.1 395.6 379 380.2 393.7 407 428.4 448 468.6 489 505.1 523.8 541.8 561 578.1 604.4 628.5 651.1 683.7 704.3 726.7 749.2 775.1 786.8 801.4 805.3 782.5 748.2 711.4 680.6 635.8 622 599 578.1 563.4 545.8 493.4 478.5 464.6 451.3 441.2 438 450.5 468.6 483.1 498.6 494.6 504.8 531.2 558.3 587.8 614.4 638.6 667 701.8 735.6 774.5 820.5 828.7 823.2 778.3 705.4 646 609.4 577.2 550.4 534.8 509 492.5 465.3 448.4 424.4 406.5 387 369 351.7 335 331.6 336.2 347.5 355.4 367.4 378 396.7 412 434 464.2 487.9 511.3 541 568.1 553.9 617.5 652.6 659 664.4 682.8 726.1 762.3 794.5 796.3 799.8 803.6 809.1 813 815.8 815 811.5 805.2 799.8 789.8 781.4 772.4 764.1 754.6 746.5 737.8 740.6 743.9 742.8 717.9 656.7 591.1 555.6 516.1 479.9 442.8 415.3 391.2 371.8 377.1 397.5 432.1 457.8 500.8 564.5 592.9 612.1 612.9 610.2 603.9 598.5 590 575.8 557.2 545.7 529.1 512.7 494.7 483.4 475.3 468.6 466.6 467.3 474.3 487.8 500.6 518.7 538.1 551.9 571 591.5 617.1 642.1 668 693.7 725.1 740.6 765 803 829.3 867 892.4 897.5 906.3 899.1 889.7 879.1 871.2 864 856.7 853.5 848.2 843.5 837.1 829.5 825.8 821.2
713.6 708.5 699.2 696.9 681.4 658.2 631.9 602 568.4 535.8 507.4 469.8 443.4 413.3 394.8 392.7 403.8 421.1 440 454.5 474 492.8 515.2 530.5 551.6 571.8 594.2 612.6 642.3 671.4 695.4 717.9 742 766.6 792.5 800.9 809 810.7 787.4 765.3 740.3 690.3 657 648.2 612.4 595.8 592.2 545.1 501.6 495.2 482.7 472.6 462.5 455.8 464 476.6 492.8 508.1 515.6 503.5 528.6 557.3 586 614.3 641 675.2 708.9 771.6 818.5 837.1 848 836.5 783.3 718.1 662.4 618.8 584.1 558.9 529.6 514.5 495.3 471.8 456.2 430.3 406.1 390 373.6 361.3 345 333.3 320.4 325 336.8 344.3 362.4 371.5 388.6 413.6 437.4 459.3 483.7 509.1 533.8 558.4 599.7 609 606.9 629 672.9 708.6 746.3 776 782.7 783.6 785.6 788.7 789.8 791.2 789.2 787.6 783.7 778.2 768.8 757.7 749.6 745.5 740.9 739.6 744.4 755 766.8 765.5 731.2 672.3 605.5 563.7 525.8 484.9 445.4 412.8 387.4 367.2 355.2 382.9 416.7 443.8 483.8 537.1 575.6 591 591.8 589.1 580.9 575.3 565.3 549.6 528.2 513.6 502.5 488.5 478.4 466.3 457.4 454.1 447.9 463.1 482.9 499.3 514.7 532.3 556.2 573.8 594.7 618.3 645.8 671.4 694.6 725 753.4 775.2 805 835.8 858.4 885.6 908.7 889.7 876.5 866.5 858 849 839.9 832.5 826.7 821.7 820.6 816.3 811.5 806.9 802.3 796.8
688.9 686.2 684.2 671.1 657.7 645.7 622.7 597.8 561.1 526.9 498.7 477 452.4 429.4 413.5 407.3 416.6 434.5 449 467.1 487.8 505.6 521.6 541.8 560.6 584.8 604.6 627.5 656.6 684.6 712.4 735.5 762.8 780.7 804.4 820.1 827.1 820 808.4 788.5 752.5 708.8 685 669.4 627.1 606.8 586.7 537.1 531.9 515 498.8 492.1 482.6 475.6 478.4 489.6 510.4 526.6 533.2 511.1 535.5 563.6 588.6 613.3 646.9 684.2 741.2 801.4 838.5 863.8 869.5 846.4 806.7 743.1 688.5 648.3 597.7 567.7 540.4 518.4 501.4 485.2 467.3 433.1 411.9 398.4 382.8 369.4 355.6 343.2 328.4 311.9 315.3 328.1 335 346.9 371 390.6 410.7 434.4 457.8 480.6 487.3 526 564.2 563.8 579.8 617.4 655.9 685.5 725.7 748.4 764.7 762.2 761.4 764.1 764.3 762.3 761 761.3 758.5 752.1 741 731.2 723.4 722.9 727.2 736 745 756.7 768.1 773.9 706.4 692.3 633.1 581 534.4 484.4 445 414.9 385.1 362.9 345.9 374.2 402.4 429.9 459.7 503.3 556.6 571.4 571.5 566.9 560.1 552.2 538.8 524.4 502.7 486.9 474.6 467.6 460.4 448 442.8 434.4 449.5 469.2 487.4 507.5 531.7 550.3 574.9 596.9 616.7 643 673.6 705.1 730.5 749.2 777.9 810 840.8 857 894.1 910 880.9 858.3 845.2 833.9 822.3 813 804.2 801.6 796.2 794.6 790.7 788.5 784.5 779.6 775.2 764.8
660.7 661.6 657.4 646.1 639.4 625.8 608.2 579.7 550.1 521.7 501.5 479.8 464.8 444.4 430.9 424.9 425.9 449.3 462.3 479.6 499.8 517.1 533.2 552.5 565.9 591.2 613.1 642.8 667.2 694.3 723.3 749.6 776.1 801.1 819.3 839.2 844 840.3 831.8 822.4 773 732 704.6 680.3 642.2 610 580.4 559.2 558.9 562.6 523.9 521.6 504.7 501.1 501.3 505.3 527.1 545.6 554.6 538.2 532.2 563.3 590.9 622.1 662.7 707.2 757.4 820.4 854.6 885.9 887.1 878.4 837.7 775.2 712.3 663.1 620.5 580.4 548.5 519.6 503.2 488.7 468.5 443 418.1 405.5 388.5 377.2 362.9 352.9 342.3 326 306.7 302.6 313.7 330.7 349.1 361.9 385.5 407.2 431.1 453.2 467 500.1 527.7 539.1 589.1 612.7 632.3 666.4 690.2 725.2 750.8 747.8 732 736.7 732.7 730 730.7 729.1 728.6 722.5 711.5 702.2 693.8 693.7 711 730.4 744.9 755.7 762.1 761.9 741.3 695.9 635.8 581.1 524.8 481.8 441.2 410.7 381 358.7 342.9 363.2 394.2 415.4 443 475.9 526.1 544.2 550.1 547 539.9 524 511.8 495.5 476.5 461.2 453.8 446.5 438.3 431.9 423.3 439.5 457.7 476.3 499.9 526.4 546.9 570.4 594.9 621.3 645.6 674.2 707.3 733.8 760.2 785.7 808.9 849.7 872.4 892.3 916.5 889.2 858.3 831.5 824.9 815.5 800.8 787.5 780 770.8 767.4 764.1 763.1 762 757.7 750.1 745.2 734.4
634.8 634.1 633.4 625.4 620.2 608.1 592.8 570.1 540 517.1 499.3 487.7 477.1 461.9 446.8 443.6 439 460.6 474.8 492 510 525.9 543.5 557.6 573.2 596.1 622.8 649.3 676.4 708.2 733.7 759.8 788.2 818.1 842.3 856.9 868.3 864.9 856.3 827.3 778.7 729.4 705.7 660 632.2 606.6 589.5 584.7 595.7 607.9 582.7 552 558.2 530.4 524.7 541.1 550 575.1 583.2 558.8 538.9 563.6 598.7 633.1 670.6 743.6 809.4 839.9 868.7 899 894.5 884.8 845.1 791.9 734.8 679.6 640 606.1 565.4 532.9 512.5 496.8 480.7 455.1 432.2 414 395.3 383.1 368.7 354.9 345.3 332.2 324.3 295.9 293.5 309.2 325.6 338 361 380.9 406 421.1 448.2 476.4 480.9 535.7 562.2 579.4 615.8 631 667.5 701.3 727.8 736.4 716.6 708.7 704 699.4 699.9 698.9 697.8 693.8 681.2 670.8 665.4 678.2 705.5 725 739.1 750.1 756.4 754.9 737 685.2 627.3 564.9 521.8 482 444.8 403 375.5 353 332.7 347.1 371.1 396.4 418.2 454.5 488.1 515.5 527.4 524.3 515.9 497.4 480 467.6 447.5 437.7 428.2 421.7 421.8 410.8 428.3 445.7 465.5 490.5 512.2 538.4 563.4 591.6 618.4 646.5 673.6 701.3 728.4 759.4 788.9 816.5 845.4 884.1 908.9 925.6 916 871.3 842.8 816.7 804.5 799.9 779.8 767.5 758.9 747.4 740.3 737.6 735 732.9 728.4 719.8 715.3 701.7
611.4 600.6 605.5 607.3 601.6 588.5 574.7 556 531.9 516.5 502.1 492.3 487.3 473.8 461.5 459.3 452.2 472.1 487 501.8 517.7 531.4 547.4 565.8 580.5 603.3 634.2 661 686.5 717.4 747.5 773.2 796.6 820.7 849.3 874.2 887.4 888.7 851.7 809.5 766.9 724.9 687.6 652.5 627.7 613.1 603.9 616.4 617.2 644.1 647.8 587.4 592.1 581.7 560.5 571.2 584.2 590.6 597.3 576.2 554.8 568.8 605.5 637.3 684.9 761.3 814.7 842.5 878.9 901.9 900.8 887.6 843.8 799.8 766.1 691.6 652.7 613.4 570 545.8 525 504.5 484.4 467.1 441.6 428.2 408.3 390.5 373.5 358.1 346 337.3 332.1 315.3 285.9 287.2 303.9 318.3 337.9 357.9 379.4 400.8 423.1 434.5 483.9 509.9 530.8 567.7 586.2 613.2 649.9 675.5 701.2 719.7 714.1 685.1 675.4 672.8 669.7 669.3 667.7 664.7 652.5 637.9 644.2 675 698.5 721.4 733.8 740.6 746.4 748.7 723.9 668.4 617.6 564.7 514.5 479.8 445.4 402.1 371.9 349.6 324.6 334.2 354.7 377.3 397 428.6 471.3 493 507.1 502.2 487.4 468.4 448.4 435.9 419.7 408.4 405.5 403.9 403 416.6 432.3 451.7 475.5 501.5 529.6 556.7 583.5 614.1 649.1 675.8 700.4 733.5 764.4 786.8 820.7 861 897 919.7 946.9 952.3 920.9 880.8 834.6 810.6 794.6 768.7 760.4 755.4 740.8 730.8 720.1 714.5 708.7 704.1 699.8 691.1 683.9 670.7
578.2 583.3 591.3 589.9 580.1 566 558.8 545.4 527 513 506.7 501.5 492.8 486.6 477.4 473.3 475.4 484 495.6 510.5 524.5 538.5 554 567.9 586.3 604.1 638.1 668.6 699.6 733.6 760.6 786 810.9 836.1 860.7 885.2 896.9 893.7 843.5 795.7 757.6 721.2 693.2 657.9 634 624 628.9 636.5 658.4 681.2 703.6 679.7 641.2 624.4 602.6 618.2 616.1 611.2 610.6 585.6 572.7 580.6 610.8 640.9 711.5 780.9 812.7 838.5 872.9 896.1 900.7 897.1 872.6 827.9 785 722.2 670.6 627.9 596 557.8 528.7 511 494.5 475.6 454.7 435.1 417.9 394.3 383.6 365.4 355 345.9 335.3 319.4 297.2 272.4 285 301 318.6 339 356.8 380.3 389.9 420.3 457.1 481.1 514.5 537.2 563.9 604.6 626.5 651.2 672.5 693.1 701.6 688.7 663.1 647.7 642.2 639.4 639.7 635.1 622.8 612.9 639.3 667.3 691.3 713.1 726.7 733.5 738.1 740.7 729.2 682.6 629.1 545.3 517.9 473.5 439.7 405.9 365.6 342 321.2 322.3 342.5 358.4 375.7 406.6 439.5 472 483.6 478.1 457.8 441.5 416.8 399.3 391.6 386.6 384.7 386.2 403 418.3 441 463.9 491.3 520.7 552.3 579.4 604.9 638.2 684.5 708.9 728.9 759.2 795 817.1 852.1 897.2 919.9 936.3 946.9 948.3 930.4 887.6 838.5 809 780.3 754.7 750.3 731.1 720.1 713.9 701.3 695.4 686.4 680.1 671.8 661.5 652.8 641.6
562.3 564.2 565.5 564.4 563.1 550.1 542.1 535.1 526.3 520.2 516.3 511.7 505 496.4 491.9 489 482.1 490.8 504.5 517.6 530.4 544 560.4 574.5 588.2 607.9 639.3 673.2 708.6 745.2 777.6 799 824.1 852 878.6 904.1 913.1 891 848.4 794.8 759.9 726.7 699.2 669.5 657.5 646.8 665.4 661.5 675.4 690.4 726 732.8 703.4 668.5 643.6 643.5 642.9 646.3 615.1 591.4 580.1 581.4 615.7 646.7 748.1 785.9 804.9 824.3 853 878.9 890.8 892.9 886 849.3 790.1 738.5 709.6 674.5 641.6 590.1 547.5 519.4 500.4 488.3 472.3 453.7 428.8 405.9 391.3 376.8 358.3 346.6 332.6 317.7 299.5 282.2 267.4 279.7 298.4 317.5 337.3 353.8 367.8 405.1 431.4 464.7 482.3 520.1 548.2 575 599.9 623.6 644.9 669.4 683.9 679.7 663.6 634.8 613.3 612.7 611.1 604.2 594.5 601.3 629.2 657.4 684.6 703.2 718.4 730.7 732.2 733.4 724.2 679.6 623.2 578.4 525.8 475.2 431.2 396 362.1 336.4 317.8 314.5 331.3 347.3 367.5 394.4 427 454.5 454.6 440.3 425.1 411.3 387 371.1 366.6 363.2 365.4 383.9 403.3 427 453.3 482.3 513.6 547.8 576.2 606.7 631.6 661.5 705.7 739.6 759.8 787.9 820.6 851.8 876.6 896.8 913 928.7 935.8 940.9 927.3 880 842.1 806 770.4 749.3 732.2 716.8 705.4 693 683.5 677.3 665.9 653.6 646 636 624.4 611.6
543.1 542.5 545.4 545.3 544.8 534.1 528.6 527 530.7 532.4 530.3 530.2 520.4 509.7 507.3 498.6 494.3 501.1 511.9 521.5 534.3 546.4 559.1 576 595.3 611.6 636.9 672.5 714.7 753.9 788.8 817.2 842.7 871.4 894.2 915.5 932.9 904.4 871 815.1 776.6 744.6 711.4 705 706.3 702.6 696.7 708.3 698.5 703.7 726 739.1 733 708.7 662.9 662.1 657.9 658.1 623.6 595.6 580.1 584.2 615.3 649.8 748.4 771.2 792 808 829.5 843.3 854.4 878 886.4 883.5 828.2 767.9 772.7 752.6 711.7 650 606.7 542.5 520.2 504.3 484.3 472.1 449.2 428.8 402.4 382 360.9 348.6 334.4 316.1 301.6 289.2 268.7 261.7 280.7 299.1 315.2 339.1 364.3 387.2 414.7 433.1 467.1 500.1 523.6 548.9 571.9 593.6 619 643.4 664.4 669.2 658.6 631.2 601.6 588.2 586.1 579.7 568 595.9 626 653.4 678.1 697.6 712.7 720.7 724 723.6 714.1 669.9 624 557.9 521.6 465.5 429.5 390.9 355.7 332.3 313 305.1 321.5 336.2 355.8 383.2 411 432.6 425.3 407.5 389.4 371.6 355.5 345.4 343.1 341.8 366.6 386.9 411.5 441.1 468.9 502.8 537.3 566.6 602.9 643.4 676.1 687.2 722 765.2 789.5 815.2 838.9 852.7 865.1 882.4 900.8 908 915.2 918.5 900.4 848.3 820.4 774.5 750 741.2 702.8 700 685.8 672.1 666 659.4 646.1 633.8 622.7 609.7 597.1 584.9
510.8 514.4 521.2 525.9 525.2 524 524.4 527.1 535.4 544.5 550.2 547.9 540.2 527.6 519.5 514.9 502.4 501.1 512.2 522.2 537 547.5 561.7 581.3 600.5 619.5 641.4 671.9 712.4 756.9 799.1 835.2 865.6 893.3 920.1 938.4 950 931.3 895.8 832.3 812 765.4 731 730 742.2 761.8 771.3 777.3 749.6 732.3 739 740.1 724.8 699.9 666.1 663 659.2 656.6 623.7 589.9 579.6 584.5 606 644.8 704.7 747.8 766.5 785.9 798.4 806.2 822.7 841.5 856.5 875.4 868.8 847 830.7 787.5 723.8 670.7 638.3 574.9 542.2 514.5 500.9 483.1 460.7 444 420 395.4 376.1 354.6 332.1 317.5 300.1 287.2 278.7 255.1 261.7 284.5 302.5 327 346.3 368.3 388.4 418.6 447.4 471.3 499.1 521.7 540.3 569.8 594.1 618.7 646.3 654.4 644.3 622.9 594.3 563.3 565.8 554.8 566.4 594.2 620.6 647.7 672.4 693.1 713 713.7 714.8 713 701.3 664.4 605.3 556.7 514.2 458.3 421.3 387.7 349.6 322.6 303 287.5 309.9 324.4 342.9 363.9 389.3 402.9 393.6 373.2 353 342.9 330.3 323 322.6 349.4 373.2 397.6 426.8 458.5 493.3 524.6 561.9 600 626.2 669.3 713.8 734.4 740.1 774.2 797.4 817.6 827.9 838.4 850.5 863.6 875.2 889 893.6 880.9 846.5 820 794.4 750.3 723.6 715.4 682.6 679.4 663.4 654.8 649.2 640.4 630.2 617.2 599.9 586.2 573.3 559.9
503.2 503.9 507.1 513.1 511.6 518.7 523.6 533.4 542.3 557.7 565.3 559.5 553.3 540 540.3 529.7 518 510.9 515.4 528.4 544 556.6 571.3 589.6 606 623.4 646.3 675 709.8 754 806 851.7 887 914.8 938.3 956.6 964.7 953.9 888.9 876.5 857.7 794 759.7 760.7 775.4 811.1 826.5 814.9 796.7 760.8 742.5 732.9 708.7 674.4 658.3 653.9 649.4 635.6 617.1 583.5 568.6 573.4 594.8 637.6 696.7 708.1 722.4 744.6 756 784 792.7 805.3 822 851.4 872.9 873.4 846.3 795.6 734.5 689.6 648.9 587.7 559 544.7 517.9 491 477.7 460 440.9 408.3 386.3 361.8 341.3 321.1 305.9 288 275.6 263 244.4 269.6 290.3 308.8 326.1 344 370.2 397.5 421 447.4 472.5 490.4 517.7 544.6 569.6 600 627.6 635.5 626.4 608.4 583.5 556.7 542.8 539.4 564.4 589.2 616.6 645.1 668.4 692.3 704.5 706.3 705.3 702.8 689.1 661 608.8 552 511.7 465.8 422.6 385 343.3 315.2 293 276.1 297.3 310.5 328.8 348.2 374.5 372.6 356.1 341.3 323.5 314.7 304.6 298.4 331 356.1 378.3 408.1 443.3 479 522.5 561.2 592 627.3 669.7 703.5 734.8 751.2 761.9 775.6 786.6 799 810.7 819.9 833.4 845.4 855.1 864.1 865.7 847.6 811.9 786.5 750.8 728.3 694.3 677.8 655.7 656.1 645.1 639.4 632.2 624.6 614 599.7 582.7 566.6 553 531.8
498.9 504.9 509 514.4 518.5 524.5 531.5 546.9 555.2 568.2 567.1 564.8 559.1 555.9 554.3 546.7 549.3 544.2 543.3 550.9 565 575.3 586.3 603 613.2 632.5 655.3 683.8 717.7 761 807.2 851.5 905.9 935.2 952.1 959 953.4 953.5 942.9 919.9 867.4 822.8 813.2 821 833.4 836.1 828.4 811 783.7 750.6 729.2 709.3 680.1 657.3 643.4 639.5 630.6 621.3 616.2 592.4 565 564.8 578.3 615.6 647 661.8 685.9 693.7 729.8 742.2 754.3 766.6 796.2 820.5 845.1 862.2 860.6 812.3 756.5 710.3 677.9 631.8 591.5 566.1 537.2 510.8 492.7 479.5 459.4 432.2 403.9 381.2 355.8 334.4 313.3 292.8 279.1 261.3 239.9 254.4 272.8 289 309 326.3 350.4 372.8 398.1 422.6 442.5 469.7 492.9 521.2 551.6 578.7 604.6 614.8 604.6 588.5 565.7 544.6 523.3 540.4 562.4 586.5 614.9 641.6 663.1 679.3 695 704.3 696.2 689.9 672.4 641.8 592.8 543.9 508.8 459.5 412.9 375.6 336.4 301.1 283.9 268.8 286.9 298.2 312.2 329.9 353.7 347.2 327.8 310.5 298.9 288 277.8 310.8 335.5 358.9 388.5 425.5 463.3 495.3 539.5 576.9 612.3 639.6 679.3 714.1 729.2 739.6 748.8 758.3 766.1 776.4 789.8 803.3 818.6 830.8 839.2 845.5 842.7 822.1 796.6 767.5 726 703.6 661.9 632.4 608.6 602.6 613.8 614.7 614.6 608.7 597.6 582.1 565.3 548.2 533 516.2
497 505.5 516.2 520.2 529.3 537.1 547.9 555.5 564.1 573.5 578.6 584.5 575.9 573.7 571.3 574.6 588.8 594.7 591.8 590.3 598.2 609.9 624.1 626 626.5 639.8 664 697.6 730.3 763 805.6 855.9 906.7 939.2 943.9 940.7 936.3 931.2 924.3 916.8 889 845.5 841.7 857.9 853.2 832.2 793.6 778.1 749.6 726.5 705 680.3 648.3 636 627.8 621.2 625.4 622.2 604.7 593 586.7 555.7 564.1 577.2 602.2 611.9 646.6 652.8 684.8 697.2 715.6 733.8 762.5 787.3 810.4 843.2 867 861.4 819.1 772.3 705.1 655.3 616.7 576.6 556.6 537.1 517 499.1 480.8 459.3 428.6 403.5 374.5 348.4 327.2 305.4 279.1 263.4 240.4 236.7 254.6 274.2 285.7 305.3 325.2 348 372.4 393.6 421.6 441.2 473.1 500.7 528.2 554.7 580 588.9 582.7 568 547.7 527.6 512.8 536.1 561.6 589.8 614.9 641.1 657.7 671.6 683.7 689.2 680.5 673.6 647.8 618.1 576.3 532.7 485.7 441.3 401.2 366.1 328.3 292.6 274.6 248.9 273.9 284.4 296.9 316 333.4 318.5 298.3 286.8 272.5 260.9 291.2 317.3 342 368.2 410.4 450.2 489.5 541.4 585.5 616 645.4 668.9 688.9 701.8 709.2 720.2 732.8 737.4 741.5 752.6 768.2 787.4 805.2 821.6 825.5 838.2 820.1 795.6 784.3 763.4 732.8 695.6 658.2 613.1 569.6 540.8 564.6 570.6 595.2 590 579 562.8 546.8 530.7 513.3 490.1
500.9 509.5 520.4 530.4 553.1 559.3 568.5 581.3 581.1 588.9 593.3 599.7 597.6 594.9 593.2 601.5 608.8 617.9 631.5 646.7 644.3 645.4 652.2 652.4 653.6 669.3 688.7 713.7 741.1 774.4 812.9 864.2 912.4 921 920.3 913 909.8 905.1 898.7 892.5 883.8 875.4 863.1 854.4 838.3 810.9 756.6 737.3 716.8 692.9 661.1 646.3 621.7 611.2 602.6 601.4 605 607.8 598.1 606.7 585.5 561.1 543.9 549.6 565.1 580 597.6 621.2 648 660.1 678.9 702.4 727.9 750.6 785 820.7 845.8 862.8 857.2 801 721.5 676.6 645.8 599.7 571.3 553 548.4 522.9 513 493.2 471.1 432.2 395.9 366.1 339.3 316 293.2 274 248.6 223.4 239.3 254.4 265.1 283.7 304.7 325.7 348.7 369.1 391.9 421.5 451.9 474.5 504.5 529.8 548.2 561.4 560.6 547.3 526.5 505.7 506.6 533.8 561.1 589.8 618.5 639.5 652.8 663.1 670.5 673.2 664.1 648 619.9 592.8 562.5 522.4 484.4 430.2 389.3 354.4 318 279.7 263 249.9 257.4 270.6 279.7 296.9 304 289.4 273.6 260.4 241.9 271.2 294.4 323 350.6 387.7 428.3 471.3 528.3 570.7 604.6 628.4 638.6 654.3 666.2 675.2 687.5 696.4 699.5 706.1 713.5 729.4 748.6 767.9 792.3 801.5 811.2 811.5 788 751.7 756.7 738.7 718.6 696 673.3 612.4 562.6 497.5 528.5 551.2 573.7 569.7 559.1 542.7 513.5 514.1 496.2 471.1
499.8 513.3 525.3 542.2 566.6 574.4 582 590.1 598.9 622.6 620.3 627 618.1 618.4 612.1 622.1 633.3 646.1 669.6 702.5 707 691.4 683.1 686.2 693.5 711.2 717.6 740.1 761.5 807.9 858 896 894.7 894.2 889.6 883.1 878.9 875.3 871.3 861.1 855.4 846.9 840.8 830.1 811.4 754.5 720.8 685.7 663.1 632.2 615.8 596.8 589.1 582.2 577.3 576.5 581.9 580.1 585.4 596.8 594.3 572.8 537 506.3 537.5 550.5 566.7 586.8 607.7 631.9 652.8 675.6 697.8 717.1 752 787.2 813.3 837.5 854.3 831.6 780.4 707.2 661.2 635.7 607.9 590.6 572.4 558.8 553.5 528.6 511.5 472.4 420.4 386.3 356.1 326.4 301.5 277.4 251 226.2 219.9 236.2 249.8 264.5 285.3 305.4 322.1 343.8 367.3 395.5 422.6 454 480.1 499.6 517.7 523 544.5 530.9 503.7 484.2 510.8 538.6 565.8 594.4 618.6 637.1 645.6 655.5 658.1 652.4 640.1 626.2 594.8 570.7 540.4 506.2 469 427.5 380.2 341.6 307.2 272.7 249.3 236.8 247.1 254.4 263.3 272.7 272.9 265.5 252.8 234.1 254.3 277.6 305.8 337.7 376.1 407.9 452.3 500.4 542.3 581.9 596.4 607.8 620.6 630.9 641.6 652.6 665.5 667.5 671 675.9 691.7 714.7 733 749.2 763.5 783.5 766.9 776 752.4 700.9 707.1 704.4 691.3 672.7 659.2 617.6 563.8 512.2 488.8 515.8 524 543.3 535.5 516.7 483.9 491.9 477.2 452.5
504.1 517.3 537.3 554.6 575.2 584.9 599.8 610.5 622.7 642 660.6 666.1 643.7 645.3 647.7 649.5 663.2 669.6 694.5 738.3 743.6 730.6 727.7 726.4 737.7 756.7 790.6 815.3 852.3 852 877.6 875.6 867.6 864.9 857.2 853.2 849.3 845.6 837 831.2 824.1 820.3 812.8 802.4 765.3 707.2 673.8 650.8 614.9 594.9 574.1 565.1 558 551.7 545.5 547.3 546.8 556.7 560.4 575.7 582 574.9 520.1 484.4 505.7 521.4 541.5 563.2 582.2 599.4 626.6 646 660.2 684.9 716.3 741.6 772.7 806.5 832.2 838.2 807.6 771.9 696 663.1 634.2 619.6 613 597.8 587.3 564.5 539.4 505.8 456.4 403.6 368.2 335.8 313.4 287.1 263.3 236 214.8 218.1 230.1 246.5 265.5 281.8 300.9 320.8 346.4 367.6 396.9 427.1 450 466.9 480.8 504.2 530.5 516.9 483.9 486.2 514.9 541.1 567.6 594 612.6 625.5 631.5 643.9 635.4 615.7 610.1 600.4 580.4 538.2 507.8 480.3 451.1 422.8 378.2 331.3 293.2 258.8 236.4 223.1 234.5 240.9 247 258.7 250.1 244.3 229.1 231.5 261.3 286.7 318.4 357.5 398.4 440.5 470.5 512.5 551 568.5 576.8 584.3 593.2 604.7 613.7 627.1 636 637.6 640.8 650.7 679.3 700.2 715.5 719.4 716.1 733.3 725.7 720.1 715.5 671.3 666.2 664.6 655.5 640.1 620.1 604.4 554.9 497.3 437 485.5 483.6 508 502.2 487.5 453.5 467.9 448.9 431.2
511.5 532.1 550.9 570.4 587.9 602 618.2 631 654.8 678.5 694.6 700.5 689.1 677.2 692.8 695.2 696.4 714.7 749.1 755.7 778.8 781.5 760.5 757.3 777.8 819 843.1 859.6 862.3 858.2 850.2 842.3 839.5 831.5 825.3 824.2 817.8 810.4 804.3 799.6 795.8 791 785.2 774.7 728.1 682.2 631.7 607.5 570.5 556.5 544.4 534 526.9 515.8 514.7 515.1 515.9 534 528.7 501.8 484.5 482.3 481.1 469.3 478.4 492.2 516.6 541.1 560.8 576.3 603.2 616 633 661.3 685.3 709.4 740 773.8 807.5 826.3 829.6 780.7 725.5 688.6 679.6 652.1 637.2 633.1 623.3 603.6 576.1 531.2 490.8 420.4 383.5 355.5 326 297.9 273.7 249 219.2 204.2 213.6 225.8 240.2 261 276.5 296.6 321 344.9 372.8 399.3 413.5 436.5 451.2 497.5 515.3 505.9 469 487.3 515.2 539.9 561.7 581.8 597.8 609 614.1 610.7 594.5 583.6 575.8 576.2 553.4 525.9 476.8 455.1 430.7 403.7 363.9 321.1 281.6 244.1 220.2 206.5 221.1 226.1 234.4 235.1 231.8 222.9 214.2 248.7 272.5 300.9 341.7 383.6 427.4 469.5 510.4 529.1 542.2 548.5 554.2 558 567.2 575.5 589.1 599.6 605.7 607.1 611.4 641.4 665.5 685.3 695.9 691 679.6 678 676 673.3 657 627.8 629.3 625.1 618.3 608 593.5 579.1 548.8 492.8 437.8 430.4 434.9 470.4 466.8 444.4 411.8 437.6 422.3 410.6
528.6 548 567.2 590.6 606.8 625 637.5 661.3 678.9 716.6 743.2 745.8 722.3 713.6 734.7 766.2 786.6 766.3 804.8 817.8 822.3 810.1 789.1 796.9 818.8 856.1 870.1 869.2 858 841.3 824.2 814.3 806.6 800.3 792.9 785.4 779.7 772.5 767.5 768.7 757.8 760.8 757.1 734.5 689.2 629.6 604.3 559.3 539 527.3 515.4 508.3 495.3 490.4 488 486.3 491.2 499.7 480.9 454.1 440.3 436.7 441.2 441.6 453.6 469.3 491.9 514.6 535.2 549.2 570.4 590.3 607.6 630.2 658.6 691.1 719.7 752.6 786.6 811 823.6 784.9 736.5 764.4 740.1 694.2 673.2 672.8 658.1 640.2 593.6 548.2 503.3 460.7 401.2 366.9 337.6 312.1 285.6 263.6 239.4 205.4 190.6 199.1 222.4 241.3 255.2 274.8 297.5 322.1 345.1 364.7 385.9 395.3 437.6 481.9 499.7 496.3 458.8 479.1 505.9 523.5 541.6 560.8 578.4 587.9 587.9 582.6 564.6 541.1 539.3 537.4 516.8 494.3 459.8 427.3 399.5 379.4 342.7 314.1 270.6 234.3 206 191.4 208.1 208.6 209.7 211.4 205.9 188.1 228.4 254.8 284 327 369.5 409.1 465.2 500.9 531 534 535.8 534 532.3 532.8 541.3 551.5 562.8 575.5 575.2 573 601.8 626.4 654.7 667.2 672.8 656.5 644.9 589.9 615.3 620.7 618 569.6 580.6 588.1 583 573.1 561.9 550.3 525.3 497 447.2 388 401.3 426.5 423.6 395.2 403.9 414.2 399 389.9
543.1 563.1 589.7 614.9 631.3 645.8 661.2 682.8 705.3 749.3 771.5 784.3 787.1 746.4 776.3 811.5 837.6 845.2 844.7 871.3 878.6 844.5 837.3 831.2 846.4 866.7 874.2 864.2 838.9 817.7 795.7 784.4 772.8 760.6 756 742.8 738 731 727.9 727.5 714.6 720.1 708.4 672.9 638.6 600.4 574.4 533.3 514.7 501.4 487.2 483.1 470.9 461.8 461.1 454.2 458.2 457.9 438.9 421.4 408.8 400.8 405.8 410.4 432.2 446.5 465.6 478.3 503.8 527.9 550.7 569.8 587.6 612.1 643.7 677.4 707.9 740.7 769.7 793.5 821 812.7 804.2 804.5 792.9 739 710.5 706.8 689.7 673.8 631.9 580.5 542.4 494.3 436.5 382.9 352.7 327.2 300.7 277.7 252.3 215.4 202.9 187.1 201.7 219.7 235.6 254.4 274.4 296.2 316.4 339 355.5 382.5 430.7 461.2 479.4 483 463.8 458.2 477.8 499.6 514.3 532.5 554.8 564.4 564.9 560.1 545.2 516.3 505.6 501 482.1 460.5 433.5 411 378.4 348.5 317.7 285.9 256.9 222.6 194.7 180.5 190 190.3 191.9 183.5 176 205.2 232.2 265.6 304.6 351 405.2 447.6 486.4 526.8 545.2 539 529.7 519.4 511 509.8 514.5 520.9 532.8 539.8 541.5 565.7 594.3 616.2 631.1 651.8 637.9 619.6 609 603.7 547.1 550.6 575.1 537.4 544.3 550.4 550.9 539.4 524.2 505.8 493.6 473.2 437.6 396 362.1 386.1 383.3 346.7 380.7 383 375 368.5
555 573 608.8 634.9 655.1 679.7 698.3 713.8 735.7 766.4 794.6 805.7 813.2 793.9 827.4 859.9 867.1 902.9 918.5 926.1 929.4 892.6 900.9 898.7 899.9 889.6 885.7 860 834.1 795.4 781.1 766.9 750.8 730.5 718.7 707.7 700.6 697.1 691.2 680.7 675.3 668 651.3 634.4 608.6 574 540.5 511.3 492.6 476 461.2 453.4 446 439.4 436 425.5 432.7 425.7 411.9 391.6 370.6 369.5 382 396 410.5 422.1 438.4 457.3 473.8 503.2 524.3 544.6 565.7 597.3 622 653.3 690 730.1 752.9 774.3 804.8 820.8 829.2 834.5 818.1 788.3 762.4 721.6 702 687.3 644.4 595.3 560.7 518.8 447 402.5 366.9 340.4 313.3 281 242.8 226.8 209.9 193.9 174.9 201.8 214.1 235.1 253.5 272.8 292.2 312.1 329.9 363.2 395.8 419.7 446.9 461.8 460.8 440 452.6 471.8 483.7 509.1 529.1 531.9 532.1 520 509.2 490.7 473.6 465.7 448.3 432.3 412.9 388.7 364.4 326.3 303.4 268.3 239.1 211.5 188.1 165.5 170.3 172.2 173.2 161.1 182.8 206.9 240.2 275.7 325.5 379.9 438.2 468 501.2 528.8 545.5 544.3 527 508.8 491.6 486.6 486.9 497.1 501.3 508 527.1 554.2 579.9 593.9 601.6 609.1 601.8 585.5 562 568.2 549.2 525.4 514.8 480.6 497.2 478.7 517.1 497.7 481.8 468.1 452.1 425.9 405.4 372.2 328.4 349.4 339.6 310 351.6 352.2 346.8 344.7
555.6 588.6 625 651.5 684.8 703.2 726.1 750.6 770.8 792.8 826.1 835.3 843 850.3 865.1 899.8 921.5 953.2 970.3 973 971.2 952.9 962.2 947.7 932.9 915.3 900.3 859.1 815 782.6 763.8 744.6 721.3 708.5 692 682.9 678.7 671 663 650.6 644.3 636.4 621.5 601.8 580.4 549 520.4 493.2 471.5 454.9 436.8 428.9 420.4 414.8 409.1 400.6 402.6 396.9 392.1 367.3 354 356 366.1 378.4 389.8 402.5 416.2 432.1 452.8 475.1 500.6 522.4 543.2 567.6 591.8 623.8 656.4 695.5 721.4 747.4 786.1 804.9 824.3 832.7 841.9 821.1 788.8 758.7 722.5 695.3 625.6 593.1 542 501.4 459.4 408.8 378.1 353.8 331.5 290 261 233.9 214.9 197.9 180.6 181.6 197.2 216.3 235.7 252.9 269.9 271.2 309.5 333.7 359.1 380.1 415.8 430.2 447.2 457.1 419.2 437.7 456.1 483.1 500.1 498 501 494.8 475.1 463.1 434.9 436.5 419.3 401.9 390 358.2 344.1 312.9 273.3 249.6 226.6 197.7 177.5 162.2 159.4 161.4 155.3 154.5 180.6 206.3 242 308.3 352.6 405.4 446.3 478.7 506.4 529.1 540.4 538.8 519.3 484.5 475.4 461.5 458.6 463 472.4 489.9 520 542.6 560.4 562.6 561.8 566.3 551.3 537.6 513.7 528.8 526.9 445.8 409.4 430.8 421.6 470.9 470.6 457.6 437.1 426 396.3 377.5 360 338.9 290.8 310.3 294.5 299 321.2 318.3 312.9 315.6
558.8 595.3 627.8 660.9 696 721.6 747.5 770.4 798.9 827.1 842.7 857.9 867.2 878.4 897.8 918.8 943.3 969.8 977.2 979.4 977.9 982.1 988.2 980 967.4 947.3 904 855.8 804.9 785.7 750.1 735.7 710.2 683.8 668.9 659.9 657.2 646.5 633.7 622.9 618.6 610.5 596.8 578.8 557.7 532.6 500.6 472.5 453 436.1 423.6 412.4 406.3 400.9 386.3 384.6 381.8 374.7 366.5 351.9 349.9 344.7 354.4 363.2 371.9 386 397 412.4 429.1 448 470.1 494.5 518.1 542.2 564.1 595.7 617.4 656.8 709.3 741.1 757.3 778.2 806.4 824.1 833.3 829.1 810.5 781.9 745.2 698.6 639.7 610.3 563.7 526.9 506.5 457.9 407.1 366.1 337.4 305.7 269.8 242.6 220 201.9 185 161.2 184.4 198.1 217.9 232.1 248.7 262.8 283.5 306.9 329 352.8 377.9 397.8 426.9 440 432 409 428.3 455.1 469.1 462 464.3 450.6 443.2 416.9 393.5 407.6 391.8 362.8 348.9 330.3 303.4 293.6 259.9 233 208.6 187.7 168.3 157.4 144.1 148.3 134.2 156.7 176.4 209.5 271.2 322.4 372.6 420.6 448.7 481.5 502.9 519.1 530 521.7 499.8 460.1 439.8 433.2 425.6 421.5 429.4 479.5 499.8 513.2 522.9 521.3 516.9 501.1 495.9 485.8 475.1 471.7 476.8 440.6 367.3 341.3 396.2 428.9 408.6 401.1 375.1 374.6 350.4 328.3 312.5 304.8 291.7 272.7 258.6 277.9 281.4 279.9 279.5 281.1
549.6 586.1 620.1 656.7 696.9 728.5 759.7 789.6 817.8 858.7 873.2 884.1 894.3 907.8 917.4 925.1 935.7 945.3 950.3 948.4 946 950.7 963.9 965.3 957.9 937.1 890.2 844.8 806.9 784 744.8 728.3 706.2 672.9 651.7 642.7 635.7 621.9 611.3 606 598.1 587.5 573.7 563.5 541.6 517.7 486.8 460.4 437.6 421.1 409.1 400.5 389.4 381.2 371 368.3 364.1 358.4 351.2 338.8 335.7 337.9 340.9 346.8 351.9 366.2 373.9 390.6 404.2 427.8 445.5 470 493.1 515.1 539.8 574.4 614.2 657.9 687.2 712.8 724.9 749.6 782.4 815.7 829.9 839.2 829.4 816.5 772.5 714.3 684.8 649 601.3 574.1 534.7 491.1 434.9 380.5 345.4 320.9 283.4 250.8 227.2 204.4 189.9 172 166.4 182.9 199.2 213.1 223.3 238.4 255.2 280.1 303.8 327.5 342.9 375.9 400.4 410.2 415.3 405.2 401.3 424.1 427.9 426.6 425.9 407.7 401.2 373.3 369.8 378 348.5 329.2 311.8 293.2 278.4 263.1 239.4 215.2 191.8 172.6 157.4 150.7 136.8 134.3 127.8 151.8 179.6 223.6 273.2 343 386.8 408.8 455.6 466 494.5 502.6 500.9 478 457 431.3 386.6 386.4 385.4 376.4 420.6 468.6 461.4 474.4 474.7 472.5 441.7 449 441.7 434 420.6 407.5 403.7 390.7 369.8 315.4 342.9 369.9 357 336.6 323.4 312.5 310 282.5 275.4 270.2 263 243 223.6 243.6 243.2 243.1 243 244.3
526.2 560.4 600 635.4 668.5 708.2 746.4 790.4 833.3 871.8 897.6 910.5 913.6 916.1 908.8 909.1 913.5 922.7 918.7 907.8 909.7 918.8 929.8 938.4 935.4 930.7 886.4 839.4 808.8 773.7 740.2 723.6 707.4 676.4 646.2 631.7 618.2 604 597.7 592.5 584.6 570.6 556.1 540.5 521.8 498.4 471 446 425.3 410.6 399.9 388.5 378.9 368.9 361.1 357.3 351.4 346.6 340.7 335.8 333.8 331.8 332 332.2 339.5 347.3 356.6 367.1 382.7 401.9 422.1 445.2 468.8 486.2 520.5 552.3 595.9 628.3 662.6 669.8 700.5 731.9 760.5 794.5 820.8 833.8 836.2 823.6 780.9 721.7 697.4 671.2 641.8 606.7 562.9 504.6 452.3 402.5 354.6 325.1 292.7 261.8 235.5 212.3 194.5 180 160.3 168.2 182.3 195 207.3 216.4 232.9 254.4 275.8 297.3 320.4 352.6 366 373.7 369.9 380.8 389.9 394.6 388.5 392.1 383.1 371.2 361.1 349.9 332.7 324.5 313.1 297.3 277.4 262.9 248.9 234.8 218.6 194.7 173.3 154 144 136.6 120 115.4 131.9 156.8 186.5 235.8 304.9 356.5 377.9 396 417.1 449.3 469.8 472.7 446.6 438.7 417.4 399.8 370.3 343.4 345.4 375.6 393.4 408.5 418.2 426 433.8 428.7 402 402.4 390.1 365.6 356.6 350.6 348.5 337.6 326.3 307.2 294 304.9 292.9 286.2 270.2 274.3 251 243.5 237.4 232.6 225.3 219.6 191.9 212.1 210.6 212 212.3 211.7
520.3 557.2 588.3 619 650.6 694.7 750.7 790.5 823.5 865.8 912.1 916.6 905 892.6 879.6 878.5 881.9 875.4 871.1 873.6 877.4 886.6 900.2 907.2 907.9 903.6 876.5 834.9 803.6 773.5 744.6 728.6 708.4 688.7 640.6 628.2 606.3 597.5 583.2 583.5 571 557.8 541 524.3 507 481.8 455.5 433.4 416 401.9 390.6 380.9 375.7 373.3 369.3 365.3 360.5 354.9 349.7 341.9 337.1 335.3 330.2 321.2 326 330.7 338.2 350 363.9 381.3 401.6 423.5 447.3 469.4 497.8 531.7 562.7 598 626.8 651.5 674.9 704.7 742.2 775.7 816 828 836.8 823.3 799.2 728.9 712.6 696 672.5 632.1 582.4 519.5 464.4 410.6 368.8 335.1 301.2 267.5 243.2 219.3 202.2 185.1 167.3 153.4 166.7 178.7 191.3 201.3 212.1 229.9 250.7 271.4 293.4 316.6 330.5 331.3 338.7 324.2 353.7 348.6 352.6 350.3 337.7 332.2 328.4 313 297 290.3 282.7 262 243.1 232.3 221 215.1 195.7 177.5 156.6 141.9 130.7 122 104.3 110.9 137.6 161.5 193.3 254.1 319 345.2 372.3 364.5 393 409.4 418.8 413 408 382.1 370 368.5 361.5 318 322.8 349.3 357.5 356.6 365.7 376.6 388.6 373.5 355.6 328.8 331.2 314.9 308 299.9 300.9 287.6 281.5 278.3 253 257.9 250.8 241.7 232 221.1 214.3 208.6 204.9 199.2 190.9 189.3 179.4 184.9 181.8 183.3 186.6 183.5
509.6 542.7 570.3 608.4 654.1 702.7 737.2 774.3 822.6 859.2 889.5 900.3 890.5 861.2 846.1 837.3 837.5 836.8 833.1 830.8 841.3 856.1 866.8 869.7 887.7 886.8 876.8 833 804 771.1 735.1 715.7 712.1 681.2 644.8 626.6 611.6 596.4 579 566.7 556.9 547.5 527.9 511.7 490.8 468.3 444.4 427.1 410.8 397.3 393.1 394 394.4 390.9 390.7 387 381.1 374.5 371.1 355.7 350.6 341.7 331.7 322.2 315.4 319.2 325.1 334.2 346.6 364.6 385.5 406.3 427.1 450.8 481.9 513 542.5 571.3 584.6 614.2 656.3 692.9 731.9 762.6 798.2 823.2 832.4 820.7 799.1 753.8 725.1 707 688.7 638.3 590.8 525.5 475.4 428.5 383.5 343.7 309.5 278.5 249.8 225.7 209.9 188.3 172.6 155.9 153.3 164.8 176.5 183.9 192 210 227.6 242.9 265.7 284.5 293.7 295 301.8 286.1 296.4 315.7 315.7 308.8 297.4 295.4 287.8 285 264.3 257.3 248.8 236 213.3 207.5 198 189.8 174.7 158.8 140 127.2 119.1 110.1 101.1 120.5 143.9 165.7 199.7 255.9 301.5 323.8 322.9 321.5 346 355.6 356.3 359.2 359 338.1 330.1 332.6 345 328 284.1 310.2 314.4 325 327.6 342.4 354.5 344.4 307.9 291.5 288.6 271.9 267.5 257.8 254.2 248.2 240.6 245 229 217.7 213.2 208.6 196.2 188.8 183.6 177.4 175.5 170.4 165.1 169.5 167.6 166 160.5 162.4 163.8 167.1
485.3 526.3 575.7 614 654.9 700.2 742.2 776.6 813.3 847.3 869.4 875.3 868.2 831.2 812 799.8 803.2 803.6 794 795.1 803.1 813.2 819.5 841.8 850.3 858.2 857.2 847.2 821.1 772 744.1 717.8 694.6 661.2 644.7 631.6 611.9 599.3 579 569.1 557.2 543.1 518.5 495.8 476 451.3 433.5 418 410.6 408.8 409.4 411.7 412.3 410.8 409.9 404.7 401 395.1 389.1 380.1 369.5 358.7 344.5 331.6 319.3 311.9 316 323.1 335 348.3 364.4 386.5 409.2 433.9 461.3 492.4 517.7 536.4 568.3 607.6 652.7 687.7 719 745.5 785.8 813.8 817.2 808.8 789.8 782.6 746.4 712.3 684.1 640.8 593.5 538.8 488 438.7 393.3 355.1 320.5 286.3 261.5 239.4 221.5 196.3 177.4 159 145.8 153.3 161.2 165.6 173.3 187.8 205 221.7 235.5 251.4 257.6 260.9 264 245 261.6 283.1 282.6 275.9 269.1 260 255.6 250.9 236.2 229.5 218.9 202.8 190.7 182.8 172.6 167.1 152.5 135.7 123.6 113.5 106.6 92.6 107 125.6 146.5 164.2 192.7 234.1 276.9 273 286.7 282.8 299.7 310.1 306.3 299.6 296.3 295.4 294.8 320.4 323.9 313 293.5 257.3 277.6 285.3 295.2 308.4 322 298.4 273 256.6 245.4 237.2 230.2 225.6 218.6 211 201.8 196.6 192.1 182.8 182.7 175.7 168 161.4 156 151.5 151 148.2 148.7 153.2 157.2 151.7 150.4 147.7 151 151.2
496.6 535.1 586.9 620.2 661.4 700.2 742.8 775.7 804.7 832.7 849.2 858 848.8 809.7 783.2 768 768.4 759.5 761.1 765 767.4 773.8 788.4 809.1 810.1 809.6 813.5 812.3 796.7 779.7 761.1 732 693.9 667.2 655.3 642 621.4 605 584.7 572.4 561.2 542.5 519.2 495.7 471.6 451 442.2 436.1 431.6 429.8 428.7 430.7 431.2 430.4 427 424.4 420.7 416.3 411.6 401.2 393.7 382.2 372.2 351.5 336.7 323.2 311.1 311.8 323.7 330.6 343.2 368.6 393.5 417.6 445.1 471.4 486.1 522.5 560.5 605.3 642.7 670.8 703.3 727.4 761.3 791.2 804.3 794 781.7 775 744.3 708.3 680.8 642.1 594.7 538.7 488.9 448.4 406 364.7 330.8 297.3 271.4 249.9 228.4 203.1 180.8 163.4 148.3 141.7 149.2 153.4 160.8 169.1 183 199.9 213.7 219.9 226.2 230.2 224.3 202.8 234.9 237.5 237.9 242.1 237.7 233.6 230.3 227.1 205.7 204.5 197.9 181.8 169.5 162.4 155.8 145.7 130.9 118.4 107.6 98.4 95.8 92.9 104.6 121.7 140.2 153.1 179.3 207.3 220.8 230.7 243.3 252.3 250.3 269.9 258.7 247.1 249.5 255.4 269.4 294.7 294.5 300.9 290 264.3 242.7 255.5 262.4 275.4 274.5 255.9 240.9 226.4 210.9 203 197.9 197.7 186 178.3 172.1 164.1 167.2 163.5 159.4 151.1 143 140.6 133.2 134.2 137.7 135.3 138.7 145.7 146.3 139.5 135 135.4 136.2 139.4
482.2 534.2 571.6 610.3 657 695.7 738.4 761.1 804.5 829.8 840.7 846.4 821.4 784.7 758.1 742.5 733.6 729.7 731.8 733.7 734.2 738.1 747.1 760.8 759.4 769.2 780.4 774.9 769.2 768.2 761.5 746.1 718.6 678 667.5 648.7 629.5 614.3 602.3 593.9 579.8 559.4 538.3 518 499 484.7 469.2 449.5 446.4 448.5 447.2 449.8 450.4 446.9 445.2 441.9 438.7 437.4 433.1 426.1 415.2 404.8 397.5 396.7 360.8 339.7 322.7 305.3 303.5 313.8 330.5 355.7 376.5 399.8 425.8 445.4 477.4 509.5 544.7 596.1 615.5 647.4 677 709.2 740.5 772.6 777 770.9 764.3 760.9 740.1 699.5 677.7 648.6 604.2 544.1 488.7 447.6 413.4 379.9 344.3 308.7 281.8 258.8 234.1 206.9 188.4 174.3 159.8 141.2 137.9 145 149 155.5 163.4 179.2 189.9 193.3 199 202 198.9 184.2 199.3 201.5 206.3 213.8 214.3 205.3 206.8 207.3 182.8 179.2 172.3 162.3 156.3 145.8 139.4 130.3 112.7 105 95.8 91.4 83.1 88.6 101.6 113.9 123.2 133 149 173 180.9 214.8 220.4 206.2 210 221.9 212.4 205.4 209.3 234.5 257.5 260.9 268.6 278.2 282.5 269.4 235.6 217.2 237.6 242.8 227.1 217.6 206 195 186.2 178.8 174.4 168.5 162.7 158.3 149.5 144.1 145.6 150.6 147.7 137.4 130.9 127.8 127.4 129.6 132.9 130.2 132.6 135.8 135.1 130.3 128.3 126.6 128.5 129.2
464.7 499.3 549.1 595.4 635.1 679.7 716 750 789.9 812.4 830.8 832.5 801.8 763.8 742.3 720.3 711.4 706.7 706.5 704.9 705.5 711 717.2 718.6 723.2 729.9 732.8 740.9 760.6 758.2 747.6 743 718.4 681.7 658.6 654.1 629.6 625.7 627.9 614.6 611.3 594.2 570.1 571.6 552.8 526.7 503 477.9 467.4 465.9 465.2 465.5 465.7 464.1 463.3 460.3 456.9 456 455.8 452.2 441.2 433 424.2 418.4 390.3 360.2 339.3 318.5 299.5 292.9 315.6 339.8 360.1 384.8 407.3 432.3 465.2 496.9 531.2 564.9 583.9 627.7 656.5 693.3 725.4 749.5 759.3 758.5 756.3 755.1 734.1 695.3 678.1 647.8 619.6 561.4 506.3 464.4 426.8 393.4 357.7 323.5 292.7 268 239.2 222 202.4 185.2 166.4 149.4 136.4 131.6 140.3 143.4 151.5 157.5 170.4 171 174.9 173.7 167.9 166.1 171.6 171.3 172.6 183.3 179.8 173.9 175.1 179.9 168.7 156.5 150.3 143.7 138.3 137.9 127 114.2 100.8 91.9 84.6 77.8 80.5 86.8 96.4 107.8 118.2 125 128.1 140.9 156.3 191.3 187.8 173.8 169 167.9 171.1 173.8 177.2 192.7 211.2 211 243.2 259.5 264.8 249.6 234.7 191.1 208.3 208.7 194.7 191.2 177.8 168.7 160.7 158.3 151.8 146 145.6 134.2 130.4 132.2 131.2 136.5 137.5 129.8 125.7 123 121.7 125.4 124.2 125.9 126.9 127.5 127.5 125 122 123.1 121.7 122.3
456.4 489.4 523.8 579.9 630.3 674.3 704.3 732 764 780.3 798.1 804.3 774.2 748.4 722.6 701.4 684.4 687.6 684.6 681.9 679.5 681.4 682.6 683.8 683.3 686 696.8 701.5 725.2 723.6 724 718.2 694.9 662.9 645.3 636.4 629.1 634.2 639.8 635.4 633.4 625.2 610.9 599.6 596.1 584.9 559.2 505.6 485.6 481.4 478.4 478.1 480.5 481.6 478.3 474.7 476.7 477.6 478.3 479.5 478.9 480 469.8 436.4 408.8 387.1 353.8 332.4 302.4 286.4 305.2 325.8 345.7 366.5 393.1 420.1 449.4 481.3 510.6 537.9 568.5 602.8 643.3 683.2 720.3 742.6 749.2 751.2 742.5 736.6 722.7 686.8 668.8 642.9 622.1 585.4 532.4 482.6 437.5 408.9 376.2 333.8 304.8 271.5 256.8 236 213.1 192.2 174.4 153.8 140.5 128.2 130.6 138.5 141.3 145.3 151.3 155.5 155 151.8 144.3 151 147.7 146.9 147.1 149.1 151.3 148.8 154.2 156.2 141.1 137.8 127.8 121.8 128.1 130.2 118 100.3 87 79 74.2 76.4 80.3 83.9 91.1 97.4 104.7 114.8 114.4 117.2 122.3 152.4 140.7 145.1 144.1 143.7 144.7 150.8 153.9 157.9 155.8 150.4 166.5 221.3 233 228.6 225.1 201 164.8 174.3 168.7 163.5 154.3 147.3 140 137.7 135.2 134.2 125.7 121.9 121.3 122.3 123.6 126.2 124.8 122.9 121.2 120 119.1 118.9 121.7 122 121.1 122.2 121.6 121.4 116.5 112.5 118.3 116.7
445.5 479.4 519.1 575.9 624.1 665.7 692.8 728.2 744.5 761.7 768.1 779.6 759.4 731.9 703.2 685.1 663.8 665.1 662.8 657.8 657.2 659 655.9 651.1 651.6 653 657.3 669 678 687.4 686.7 675 663.9 641.3 630.1 630.4 637.5 639.8 647.5 642.7 640.3 638.5 636.4 626.5 616.5 613.5 580.5 532.5 509.8 496.3 494.1 495.7 499.8 501.6 498.7 505.5 515.1 509.8 505.9 517.3 508.4 511 484.3 441.8 418.2 400.4 361.7 346.3 305.6 280.8 293.5 313.5 333.7 352.7 373.6 401 430 456.6 490.4 524 563.6 599.5 634 671.2 701.3 722.9 739.1 737.9 734.1 720.1 706.1 678.5 657 636.7 610.9 587.1 533.9 491.3 455.9 412.6 377.8 342.9 308.4 289 273.6 247.4 220.8 200.4 178.8 159.4 142.6 128.8 119.8 130.8 134 142.2 143.4 144.7 142.6 138.8 134.6 122.8 125.7 129.5 124.8 123.9 127 130.2 133.3 131.9 126.6 120.4 112.1 113.1 125.2 120.2 106.2 84.2 75.8 72.5 71.4 73.9 77.6 84.3 87.9 89.3 98.8 107 107.8 108.5 104.6 110.7 116.2 125 124.5 126.1 126.2 128.8 131.3 129 123.7 122.3 137.6 157.4 170.7 194.7 185.7 177.1 159.4 143.7 148.6 143.2 132.8 131.2 126.8 124.5 126.6 122.5 116.4 115.7 117.6 117.9 118.9 120.3 118.5 117.6 118.8 117.5 117 118.9 125.7 119.3 118.1 118.1 117.9 117.1 110.3 117.4 120.5 120.2
441.4 472.7 509 549.8 593.4 630.6 664.4 705.2 721.6 731.3 749.2 763.9 746 710.1 686.2 666.3 652.7 644.1 638.1 640.3 636.1 637.8 629.9 622.6 624 625.6 633.6 646.9 655.8 662.3 657.4 649.2 634.7 623.6 626.6 628.4 637.9 642.1 652.3 649.9 651.6 653.6 651.1 642.9 629.5 624.5 582.7 550.7 531.5 523 521.1 513.2 519.6 522.2 527.8 536.2 545.5 549 543 536.4 536.3 528 493.4 449.9 425.8 412.7 365 344.8 319.8 282.1 283 301 319.7 336.9 360 387.6 416.7 449.2 483.1 513.9 553.4 587.5 626.5 663.7 692.2 724.9 727.4 729.2 715 704.2 675.7 667.4 645.6 614.6 598.1 576.4 540.4 495.4 455.9 411.5 377.2 344.9 328.5 313.1 290 260.4 228.2 204.2 181.1 160.3 145 135.1 120.4 121.4 126.5 135.1 135.5 132.6 128.6 129 128 119.1 106.4 107.2 105 105.7 110.8 111.4 112.7 117.6 118.4 109.5 102.2 105 108.6 102.3 82.7 71.7 69.2 70.2 69.4 73.2 81.4 82.8 84 89.8 90.2 92.8 93.6 95.7 93.3 91.4 95 110.3 110.8 110.1 114.8 116 116.7 114 107.6 101.9 110.9 125.7 144.3 155.2 150.7 142.1 132.8 125.7 123.3 127.3 119.9 119.3 117.4 116.3 116.8 109.3 112.5 112.4 113.8 115.2 114.8 115.5 115.3 113.9 116 113.6 115.3 124.6 125.6 116.6 114.5 114.9 115.1 113.2 120.1 121.5 128.1 127.3
439.1 459.8 493.5 523.9 560.3 603.7 638.6 677.8 695.5 709.8 718.1 729.1 729.1 701.8 673.9 649.8 637.6 622.5 620.5 616.5 617.4 608.1 602.4 599.6 599.3 603.7 619.3 622.5 620.3 629.7 623.7 622.3 608.9 605.5 612.4 631.1 634.4 647.9 649.1 654.6 662.9 664.2 657.5 654 643 623.5 593.2 569.4 552.6 541.7 532.4 533.5 541.7 550.1 562.1 564 569.1 576.4 570.9 558.5 554.3 537.2 493.4 451.6 427.6 408.3 348.8 330.3 312.8 286.4 277.2 289.7 305 327.5 350.3 379 405.7 436.4 468.4 501.4 536.3 565.7 608.1 647.7 686.3 708.5 715.1 707.8 701.2 682.6 664.2 641.4 616.8 602.8 583.2 557.9 539.3 493.3 451.3 417.7 379.9 359.3 349.5 322.4 297.6 266.3 230.9 206.2 183 162.8 145.6 133.6 128.6 113.2 115.1 121.2 122.3 119.8 117.1 118.2 114.9 107.6 99.4 96.8 93.1 91.4 93.9 95.7 97.8 105.1 108.6 98.6 95.7 99.8 99.6 84.3 73.3 69.5 68.4 67.6 69.7 70.3 76.1 76.3 78 82.3 82.6 83 83.7 85.6 86.4 86.4 89.8 91.9 94 100.5 105.1 106.3 106.4 104.3 93.2 92.8 94.6 104.3 115.3 110.3 113.5 116.1 112.8 112.4 105 105.8 106.4 107.5 110 106.7 103.9 104.5 111.5 111.3 109 110.4 112.7 112.1 111.4 110.4 111 120.3 125.3 122.7 122 114.5 113.4 108.9 114.4 118.8 122.9 127.1 128.5 127.9
405.2 442.1 476.7 500.9 543 572.7 611.9 637.3 672.2 688.5 703.7 703.1 702.2 672.6 655.6 633.1 620.4 613.1 590 600.1 594.1 590.2 584.4 585.3 582.3 580.5 587.6 584 592.2 590.6 593 591.8 589 598.2 605.5 620.6 627.1 644.8 658.3 650 660.7 667 664.9 661 657 644.1 617.6 595.6 575.8 562.1 557.1 565.1 566.1 573.5 581.9 583 590.2 589.7 583.2 571.7 556.1 510 472.5 443.5 432.4 369.7 319.6 305.9 295.3 288 264 280.5 296.8 314.7 339.9 367.4 392.6 426.1 457.1 488.7 525.7 568.5 605.9 642.2 671.4 695.9 692.3 687.9 671.2 654.6 640 612.1 590.1 574.8 559.3 552.8 530.2 490.2 456.1 426.1 399.1 381.9 357.6 323 301.5 274.5 232.1 205.9 184.7 163.6 142.5 131.7 127.1 112.2 108.1 108.8 109.3 108.8 106.6 105.7 104.7 100.9 94.6 89.6 86.4 84.8 86.2 87.8 90.1 97.9 100.2 89.3 90.3 83.1 74.9 66.3 65.8 66.1 66.2 66 66.3 66.4 69.6 68.6 75.3 75.4 79.7 82.2 81.3 81.6 84.7 86.9 87.1 87.4 88.9 95.6 97.1 100 101.3 97.3 93.2 92.4 93.8 96.2 96.2 96.8 98 100.9 103.7 103.6 100.7 100.2 100.2 99.9 100.5 102 102.4 102.9 103.7 106.3 105.6 108.4 109.4 108.6 107.9 108.2 118.5 125.2 123.2 117.5 112.5 111.5 108.6 113.4 115.2 122.9 129.7 128.9 128.5 129.1
380.6 407.2 437.3 466.7 514.4 551 575.2 607.9 643.9 661.1 685.8 682.7 675.7 652.5 632.1 616.4 606.9 594.2 588.2 578.5 575 574.9 573.6 572.3 570.5 574.9 566.1 564.4 570 578.8 576.4 577.6 584.1 595 607.5 606 617.8 630.6 642.3 650.7 667.3 673.4 672.6 672.6 675.2 677.3 660.1 651.6 642 604.9 593.3 588.6 592.5 601.2 599 596.7 598 593.2 587.2 575.6 543.5 470 439.9 399.8 363.7 312.2 294.8 281.9 278.2 273.7 258.2 270.1 286.1 303.3 326.7 354.9 384.5 412.2 448.8 483.9 515.9 565 601.7 632 652.1 662.7 667.7 655.5 642.7 630 612 590.8 568.8 561.9 554.1 536.7 510.4 490.9 458 429.6 416.5 388.9 352.2 316.5 302.2 270.6 231.2 205.1 182.8 161.9 140.1 129.2 124.6 109.6 104.1 101.7 101.9 102.9 102 102.5 97.2 94 89.1 86.2 83.3 79.9 78.6 80.1 85.5 86.6 90.8 83.9 75.8 69.3 64.1 64.1 64.6 65 64.5 63.3 63.4 71.1 78.8 77.3 78.6 85.7 91.3 93.1 90.6 88 82.3 82.4 88.4 89.2 94.1 92.5 95.2 95.8 91.4 91.8 90.5 98.7 99.5 93.3 94.6 97.1 97.6 98.9 99 99.6 97.5 97.7 98.7 100.7 101.5 101.4 101.6 101.6 102.3 104 104.3 105.6 107.4 106 102.9 105 120.2 119.5 114.9 110.3 109.2 110.3 112.8 114.1 116.8 127.8 128.9 130.1 129.4 130.5
358 401.8 425.3 449.6 487.2 514.1 538.9 569.4 594.7 631.1 652.9 659 647 628.3 609.5 604.4 594.2 579.5 571.1 566 559.1 558.7 565.9 560.2 560 561.2 555.1 560 555.9 562.2 568.2 570.8 575.4 589 598.8 604.5 609.8 623.2 645.4 650.6 664.9 678.7 690 692.4 689.3 694.8 697.3 696.5 693.8 679.3 625.9 618.4 615.2 612.4 608.6 609.6 606.9 600.7 589 564.6 496 448.8 404.4 357.4 318.7 290.2 271.5 259 262.3 260.3 253.2 262.1 275.9 293 319.7 345 374.1 406.8 438.5 474.3 511.5 551.5 591.3 619.4 634.4 637 631.7 624.8 619.4 610.3 589 574.2 554.3 543.7 531.2 519.1 497.1 478.6 450.7 437.7 408.9 380.5 338.6 306.4 287.4 254.1 226.3 201.9 181.9 157.7 141.5 125.5 117.8 114.9 101.2 97.2 96.4 96.9 97.3 97.3 94.1 90.8 87.1 82.4 80.8 79.2 75.4 75 76.8 77.5 78.9 69.4 66.8 63.8 63.1 62.8 63.7 64 63.5 62.7 67.6 75.9 77.2 79.8 83.2 91.1 92.1 95.8 92.1 90.3 93 91.9 84.4 83.7 85.1 85.1 84.5 88.8 93.1 99.7 103 111 109.5 108.1 103.1 95.7 96 94.6 95.5 99.1 99.3 101.9 99.3 100 99.3 100.9 99.9 102.4 102.9 103.7 103.9 104.2 105.2 103.4 107.2 106 105.9 115.2 114.8 107.1 111.4 111.1 114.1 114.8 123.3 130 132.2 131.9 130.7 134.1
334.6 359.2 399.1 453.5 469 496.5 521.3 549.6 567.1 588.5 598.1 615.9 610.1 597.7 597.7 589.7 578.8 564.8 555.8 552 546.4 545.1 549.3 546.1 548.7 544.5 545.2 545.5 549.5 561 572.9 571.2 577.2 585.4 596.6 601 608.3 621.6 646 655.7 672.5 685.3 693.1 695.2 699.4 705.4 714.7 716.4 717 714.4 701.5 650.1 638.2 629.4 619.9 614.2 612.8 605.9 582.1 525.5 472.1 427.3 373.4 333 300.9 274.4 256.1 245.6 245.8 244.8 242.8 256.1 268.6 288.9 310.6 335 363.7 396.3 428.7 464 495.1 532.5 569.7 600.8 612.5 609.3 603.1 597.2 596.5 581.2 571.5 548.2 531.1 520.5 515.1 510.7 488.8 462.8 448 425.5 399 354.1 329 296.4 275.2 253.4 222 194.6 174.4 153.6 138.9 124.7 110.8 107.9 99.2 92.3 93.3 95.5 94.3 93.8 91.8 89.2 83.6 79.8 78.2 76.5 75 72.1 71.2 69.5 68.6 64.5 62.8 62.5 63.1 63.1 63.2 63.1 61 62.1 71.5 75.3 73.7 76.8 80.9 91.4 94.9 96.2 95.6 97.1 98.4 98.2 96.9 96.3 96.2 94.1 100.2 103.6 106.8 111.5 118.1 126.4 128.9 127.1 121.2 115.3 106.9 108 108.5 110.2 109.7 108.7 102.8 101.2 100.9 100.7 100.3 100.5 102.1 103 103.9 104.2 102.8 106.4 107.6 110.4 104.5 109.4 106.2 111.8 113.3 110.5 115.9 118 126.2 132.2 137.5 137 132.2 136.2
331 343.7 370.3 400.7 440.1 469.2 498.8 514.3 540.8 554.5 574.6 579.1 583.4 581.7 576 565.2 555.1 546.4 539.6 536.7 536.5 531.3 525.9 532.7 528.5 529.5 533 533.1 548.4 551 557 559.7 570.9 581.3 589.2 605.2 615.8 630.5 652 659.3 676.2 690.9 697.3 704.1 708.1 716.3 724 728.7 733.2 735.5 731 675.8 647.2 637.3 631 614.5 607.8 579.2 542.2 500.1 455.8 410.7 366.7 323.2 289.8 265 247.4 235.6 232.8 227.5 238.1 248.2 264.2 279 302 326.5 354.4 384.6 415.6 449 483.3 514.9 545.3 571.5 587 581.8 579.3 578.7 573.8 557.3 542.2 536.3 512.9 509.1 486.9 487.3 472.4 453.1 443.2 408.3 382.8 341.5 311 282.4 261.9 241 213.5 186.3 163.5 148.1 135.4 121.4 103.3 99.4 97.2 89.6 89.8 88.4 91.2 88.5 85.9 83.7 83.1 77.3 77.1 75.4 74.3 71.4 68.8 68.8 67.3 61.2 61.2 60.1 61.9 62.3 60.8 60.4 64.9 69.1 71 72 78 89.7 97.9 113.1 109 111.4 112.4 110 113.3 114.9 118.3 110.3 108.2 104.3 110.6 118.9 125.6 131.5 139.7 144.5 146.3 148.9 147.6 140.5 134.3 124.3 126.4 125.5 124.7 122.9 121.1 111.5 103 105.3 108.3 110.2 103.2 101.6 102.9 103.1 104.6 107.5 112.7 114.6 113.8 104.9 108.5 112.1 113.7 115.4 114.2 124.3 129.8 136.6 139.8 135.3 135.6 137.7
328 339.4 354.3 381.4 410.1 433.6 462.9 483 505.8 523.8 533.6 544.2 555.6 549.3 547.4 544.7 533.5 528.9 523.3 519.3 519.3 506 508 511 513.2 513.5 525 527.5 534.5 533.7 539.4 551 559.2 576.2 592.9 604.5 619.6 632.5 651.9 654.3 675.5 690.4 696.1 705.7 715.1 723.1 728.8 735.8 736.9 741.7 725.6 682.8 654.7 650.4 635.1 616.7 600.9 572 522.4 486.9 440.8 397.6 350.7 319.2 283.1 260 242 227.1 228.5 220.9 235.5 241.5 260.8 277.2 295.1 320.3 342.9 375.2 404.7 434.4 464.3 494.5 525.5 554.7 561.6 557.8 561.3 555.6 544.4 534.5 527.7 509.8 495.8 493 472.6 466.9 446.5 454.3 418.4 387.9 357 334.6 300.4 273.2 251.5 226.3 200.2 177.9 155.7 139.9 129.6 116.5 100.1 92.9 92.4 82.2 85.7 84.7 88.4 86.2 83.7 80.6 79.5 76.2 76 80.4 75.7 75.6 70 68.9 66.6 58.3 61.4 61.6 61.8 62.7 68 68.5 69 75.1 78.2 78.7 89.2 99.8 112.5 124.2 124.2 125.1 127.8 138.2 136.3 139.5 134.3 128.8 122.2 124.6 126.1 135.6 144.1 161.2 165.4 163.1 165.6 174.1 174.8 170.8 161.2 147.4 150.7 145.7 142.7 138.1 138.6 131.9 131.5 129.1 126.7 128.3 123.6 119.2 107.9 105.2 109.9 118.3 118.2 118.8 120.2 117.9 112.4 113.7 114.6 116.6 117.4 123.4 135.4 138.4 137.4 137.6 138.7 142.5
340.2 338.8 344.6 361.8 384.4 408.4 427.8 450.3 469.2 483.7 497.5 503.3 511 512.4 520.2 519.5 514.9 510.2 503.7 498.8 495 493.1 495.4 496.9 494.9 503.8 512.3 515.4 523.2 530.5 532.9 547.6 559.7 569.4 591.3 604.7 620.9 634.2 644.3 648 658.6 673.4 683.3 696.3 707.8 719.4 729.6 732.1 738.6 738.8 729.3 695.6 668.1 655.6 640.6 625.5 602.8 569.2 526.2 488.1 435.8 402.3 353.8 316.4 280.5 255.4 239 225.3 219.7 219.2 231.9 238.1 256.2 272 288.5 306.7 333.5 360.7 388.5 417 448.6 478 510 532.7 540.7 528.4 535.2 524.1 520.7 514.3 508.4 498.5 483.6 472.9 460.2 448.6 441.3 421.4 397.1 371 348.5 336.9 303.1 268.9 241.7 212 187.9 165.9 148.4 135.5 124.2 109 95.8 88 84.8 81.5 81.8 81.9 81.7 83.8 81.8 79.3 76.5 73.9 72.7 72.7 75.4 73 68.8 68 64.7 58.7 65.1 69.7 72.5 72.6 75.3 74.2 75.1 78.9 83.2 88.7 101.8 112.5 124.8 140 140.5 144.5 159.9 164.4 162.5 159.9 151 149.9 147 148.1 147.4 151.3 160.4 180.3 183.7 181.9 195.6 203.3 211.3 205.3 190 176.7 168.2 168.3 162.2 160.6 158.7 161 167.4 166.8 155.9 153 145.5 141.2 130.4 126.2 129.7 130.8 128.9 127.8 126.6 123 122 119.5 119 125.3 129.6 127.8 136.6 137.3 137.6 144.4 146.8 148.7
357.8 349 344.7 353.1 364.9 385.8 401 425.6 444.4 453.3 464.5 472.3 479.9 483.4 492.5 491.1 487.8 484.1 481.8 480.4 479.8 472.8 474.6 476.3 489.1 495.4 501.8 506.7 513.2 519.7 527.3 537.2 547.2 558.9 581.3 593.1 601.3 614.2 629.3 635 647.6 654 669.2 689.5 710.6 722.1 724.6 731.2 737.3 740.8 736.5 712.6 688.3 672.5 657.5 629.6 595.8 559.4 518.2 470.5 432.4 401.2 347.6 309.8 278.9 258.2 239.2 224 214.7 219.1 230.7 236.5 248.8 266.4 285.2 301.2 320 345.6 372.6 404.8 437.6 463.8 494.3 513.2 516.3 510.6 509.2 507.2 497.8 496.6 489.6 481.9 466.9 461.2 452.5 433.3 427.5 404.1 383.8 356 345.1 325.1 295.2 264.1 228.2 201.6 180.2 157.6 143 126.2 115.7 99.7 90.7 83.5 84.4 77.8 79.1 78 79.3 81.1 79 77 74.2 73.7 71.9 71.2 70.9 71.2 69.5 66.6 62.9 59.4 66.7 75.5 79.3 81.7 82.2 79.8 83.2 86.6 93.4 99.3 111.1 129.3 141.3 154.8 158.9 174.2 190.6 193.6 184.7 178.6 174.9 173.9 174.6 171.5 171.4 179.5 188 194.6 203 212.8 217.9 239.7 255.1 233.8 216.1 207.5 197 196.9 187.8 187.5 183.6 197.3 208.8 219.6 196.7 184.9 182.5 175.8 166.8 158.9 156 152.2 145.2 138.2 136.3 133.1 128.5 127.1 124.9 131.8 138.8 135.4 132.4 136.8 142.3 148.3 153.5 152.7
368.6 363.7 354.9 355.4 363.5 374.3 385.6 395.9 412.8 427.6 440.7 450.9 458.7 462.2 463.7 465.1 465.1 465.5 466.6 463.4 461.5 461.6 463.2 469.5 475.6 484.5 490.4 497.7 498.8 505.6 520 531.4 539.6 556 569 583.9 596 608.9 624.9 630.1 637.8 650.5 666.5 684.2 698.9 710.2 719.5 721.9 732.9 735.4 732.3 724.8 708.5 694.5 684.2 665.5 637.8 575 521.2 475.6 432.9 396.6 349.9 315.2 282.2 255.1 236 218.6 213 222.7 229.5 234 244.7 261.3 279.7 299.1 316.9 336.6 365.8 396.6 427.3 450.9 475.7 498 499 497 486.5 489.9 482.7 484.4 475.1 465 455.1 447.9 442.1 421.5 415.3 392.6 369.6 345.2 330.7 312.7 286.3 254.4 214.9 194.4 174.2 149.8 132.8 120.3 105.9 91.6 85.2 78.9 77.6 74.3 75.2 75.6 75.1 78 76.9 75.5 73.6 72.3 70 68.9 70.2 71.9 70.1 68.6 59.4 62.1 71.3 79.4 86.4 90.2 90.8 88 87.2 96.4 108.3 117.8 126.8 142.8 157.4 173 183.2 194.7 213.6 217.1 210 203.4 202.1 209.3 202.7 203.7 205.5 208.5 219.4 223.4 230 238.4 249.1 268 282.2 262.5 250.7 238.8 234.8 221.3 219.4 217 219.7 236.4 259.4 276.6 263.9 224.5 222.1 219.9 222.9 221 199.6 181.4 171.7 163.5 153.7 146.9 141.9 139.6 143.6 145.1 148.9 145.9 143.6 135.6 146.7 152.9 158.4 159.1
385.6 378 369.7 358.5 361 368.8 380.2 390 400.7 412.7 424 430.8 438.4 443.9 448.1 447 449.6 451.7 452.9 451.2 450.7 453.7 454.2 461.3 465.8 467.9 479 481.8 493.2 501.1 513.9 533.8 545.8 555.4 567 578.5 593.4 606.8 620.9 623.7 636.7 643.3 658.3 676.9 689.9 700.2 702.1 714 723.2 722.5 732.8 745.9 728.8 718.1 709.7 692.2 656.9 597.4 525.2 480.1 440.5 400.2 350.7 316.5 283.2 255.4 235.4 219.5 211 221 227.6 233.3 240.2 256.9 274.1 293.7 312 334.3 361.1 393.4 418.2 434 455 479.6 486.1 481.6 476.8 470.5 472.3 474.4 466.1 454 445.5 427.6 422.4 406.9 386.3 382.3 360.2 331.8 298.9 281.1 265.5 227 201.2 186.8 160.4 139.9 126.1 112.9 97.1 87.2 80.2 77.2 73.1 73.7 72.9 72.8 73.5 75.3 74.6 71.9 72 70.9 70.1 69 70.8 69 67.4 62.4 56.4 65 77.7 81.7 96.2 99.6 99.6 101.3 101.3 112.4 120.9 133.5 146.6 160.4 181.7 191.2 202.8 215.3 229.4 236.1 232.9 227.7 244.9 247.4 244.1 243.6 253.1 250.3 245.2 248.6 254 270.4 288.3 323.9 330.9 297.5 286.5 274.3 266.2 256.9 258.3 250.2 245 267.9 296.1 325.6 314.3 277.7 256.3 281.4 325.2 295.4 278.9 251.8 220.1 198.4 180.5 167.9 163.1 152.6 161.7 162.6 160.9 155.3 149.6 150 149.7 155 160.7 165.6
406.7 391.7 379.4 369.1 367.6 372.6 378.9 385.7 393.7 400 406.8 412.1 419.1 425 423.7 425.9 428.9 436.4 440.7 445.9 448.2 451.3 451.7 453.5 455.9 458.8 463.6 473.8 481.1 485.8 505 523.9 535.1 545.3 559.9 573.8 584.1 600.2 603 613.8 626.1 634.5 646 661.2 670.5 678.5 691.5 705.8 708.1 709.5 722.5 728.1 718.7 711.2 702.3 684.8 655.8 607.6 531.8 481.1 442.9 404 363.2 319.3 283.4 256.1 235.7 220.6 207.8 221.3 227.6 226.1 238 252.1 270 288.3 309.6 332.3 356.4 385.8 409.5 422.6 438.4 466.2 472.6 467.4 463.9 464 457 460.5 452.6 448.6 439.1 418.3 406 393.5 353.1 355.6 347.8 323.4 286.8 266.7 238.5 211.2 189.8 172 150.4 129.3 114.5 100 89.8 84.2 77.5 73.2 70.7 71 71.1 71.3 71.4 70.9 71.6 70.8 69.2 69.1 67.2 67.8 67.6 67.2 64.7 60.4 56.2 69.6 80.4 98.9 115.8 108.2 113.8 117.4 125.7 132.4 141.8 160.6 173.5 195.1 202.7 214.5 228 234.7 251.3 258.7 257.9 269.1 280.1 285 297.3 303 291.1 288.2 286.5 276.7 288.1 296.5 336.9 367.8 370.3 355.2 320.7 316 303.3 296.5 294.1 290.2 297.6 306.9 331.8 365.3 373.7 355.4 319.2 329.4 363.5 369.1 354.1 325.3 301.8 237.5 213.6 198.2 184.7 169.2 174.5 178.4 173.1 167.4 159.9 150.4 154 158.9 162.9 170
422.5 414.8 397.6 388.2 379.4 378.5 373.5 378.1 382.9 393.1 394.3 399.9 401.4 405.7 414.2 422.4 426.6 434.1 437 446.1 452 456.9 455 448.9 446.3 445.7 450.4 458.5 465.7 475.9 495.4 513.2 522.7 533.7 545.6 557.6 571.9 578 588.1 601.7 612.9 623.1 631.7 645.9 658.1 668.4 685.5 694.1 696.5 703.3 704.8 710.1 709.1 698.2 687.1 671.6 632.4 582.7 526.5 483.8 444.6 399.6 360.8 318.1 285.8 261.2 240.5 223.7 210 211.3 216.3 221.8 234 247.7 266.3 284.6 308.2 329.3 351.7 380 396.4 410.5 423.4 448.1 456.1 453.1 453.3 453.7 452.7 451.5 450.9 444 434.8 420.9 393.5 377.7 353.9 322.1 313.5 308.9 271.9 247.5 218.8 197.4 179.7 158.6 141.5 121.2 105.5 93.2 81.4 77.3 73.6 69.5 67.3 68.4 69 69.1 69.3 68.9 68.8 69.2 67.1 66.7 67.6 66.4 65.8 63.5 66 59.3 55.1 76.3 91.7 117.6 134.8 120.4 139.6 146.1 155.6 157.2 173.8 196.4 213.3 225.3 235.4 246.4 252.2 256.4 271.6 280.3 292.7 300.9 321.3 325.9 351.7 340.5 348 341.3 334.5 325.8 316.2 319.2 372.5 404.1 416.1 398.2 404.7 375.4 344.5 338.4 329.6 326.4 331.7 342.9 366.8 395.6 412 399.9 377.1 338.1 382.2 420.3 431.2 406.2 392.3 350.8 279.9 222.4 201.2 191.4 182.8 187.9 181.2 171 162.4 155.6 155.5 162.8 168.4 173.6
439.6 427.5 411.1 400.7 397.1 389 383 385 392.1 397.3 400.7 408.7 412 415 422.1 426.9 429.8 441.7 445.4 444.9 456.9 457.1 451 442.9 439.5 442.1 444.8 448.3 452.8 463.2 479.2 501.5 519.3 527.1 538.9 548.7 555.4 561.5 569.2 580.2 602.4 614.9 628.3 635.6 645.1 657.4 670 680 686.4 691.9 696 697.4 695.7 685.4 673.5 655 616 560.2 516.8 477 440.9 406.3 364.5 320.9 290.7 262 241.7 225.1 216.4 199.1 210 216.3 228.3 246.3 262.3 282 304.6 325.8 347.7 373.8 390.5 400.2 410.2 429.2 436 445.7 444.5 450.5 449.5 448.7 450.7 436 442.2 413 383.7 361.1 336.1 289.1 284.8 285.2 267.2 228.5 204 185.9 171.4 149.9 133 114.6 100.2 88 78.2 73.1 71.3 69.2 66.5 66.3 66.3 67.8 67.7 67 67.2 66.1 65 63.9 67.3 63.8 61 61 55.3 56.3 76.1 104.1 122.9 135.7 145.3 131.1 151.3 167.2 175.5 191.6 208.7 223.1 242.1 261.8 269 277.6 282.5 289.3 285.9 318.7 332.7 342.5 356.4 364.9 373.5 397.2 402 403.5 393.9 375.5 363.7 362.3 361.5 397.5 435.2 449 457.2 396.2 408 406.1 386.8 388.3 395.2 403.6 402 416.1 444.6 439.1 422.1 399.1 389.6 451.5 481.8 463.1 433.3 395.5 328.8 246.8 215.7 203.3 196.7 193.5 188.2 176.6 171.8 162 159 162.7 166.9 176.3
463.5 449.7 435.9 426.6 420 416 404.3 404.4 410.7 410 416.5 422.4 426.3 424.2 429.7 429.6 433.1 437.4 442.8 448.9 448.3 459.5 455.2 446.6 437.7 438.8 439.9 439.5 443.2 454.8 465.5 487.9 504.6 514.9 525.5 533.3 536.7 539.3 549.5 563.6 579.8 600.7 611.1 625.5 637.1 645.4 657.5 664.6 672.6 680.5 687 686.8 682.5 674.9 660.8 637.2 602.6 556 513.9 475 430.1 394.8 356.4 320.3 288.5 260.8 238.2 221.7 212.5 196.8 206.2 211.7 226.8 242.8 260.3 278.9 299.3 321.3 343.8 369.7 386.5 391.8 397.7 413 421.9 437.1 442.4 445.3 442.9 438.5 436.9 438.6 438.3 405.9 375.6 352.8 325.9 295.8 262.1 265.4 248.9 213.9 191.2 175.9 162.6 141.5 125 109.5 96.6 84.8 75.7 68.7 66.6 67.3 64.3 64.8 64.8 65.6 65.2 65 65.2 66.8 64 61.9 60.7 63.9 56.8 54.4 58.4 76.9 100.1 125.2 150.7 148.6 155.3 142.1 166.5 177.5 193.5 216.4 239.4 253.3 270.5 292.8 310.8 315.3 321.7 330.7 338.1 320.9 360.2 380.9 397.5 402.8 412.5 425.8 438.8 440.9 434.3 420.3 424.8 409.3 406 388 431.7 466.7 489.6 477.9 478.5 475.5 454.8 454.6 459 463.2 469.9 472.4 465.9 469.8 476.3 462.2 424.1 435 488.9 466.1 422 374.5 313.5 260.3 232.6 217.1 205.3 198.3 192.7 181.2 177.1 166.5 157.7 163.8 172.4 177.9
500 481.8 473.5 450.5 449.2 440.4 434.9 437.2 442.2 435.8 441.3 445 449.3 451.6 449.7 442.7 445.5 461.2 454.9 467.4 464 467.4 461.2 451.3 442.1 434.5 435.9 431.3 441.9 450.5 459.3 470.6 484.5 496 506.9 511.9 516.7 521.1 531.8 547.1 562.4 580.4 600.8 611.6 622.9 639.8 647.1 653.5 661.3 675.9 677.9 677.4 667.5 657.8 643.1 625.2 596.9 551.8 506.2 468.7 437.7 409.3 364.1 319.9 285.9 255.6 234.1 218.5 211.5 195.1 202.4 208.7 222.5 241 257.9 275.6 297.1 318.2 339.1 359.1 377.2 384.2 392.5 403.7 410 418.1 428.8 438.5 439 433.3 438.9 443.2 430.6 399.7 370.8 345 317.3 289.1 243.9 239 223.5 198.6 180.6 165.3 149 134.5 116.8 102.9 88.5 78.3 71.7 67.6 64.5 63.8 62.8 62.7 63 63.6 63.8 63.1 64 63.5 60.5 59.3 63.4 65.7 52.9 58.9 70.1 97 116.9 139.1 165.3 167 168.6 162.2 178.5 198.5 216.3 243.1 265.6 275.2 299.7 330.4 342.8 355.5 374.5 378.7 389.7 380.8 368.5 404.6 430.8 454.6 466.2 470.8 473.5 474.5 470.9 476.6 485.5 471.4 445.8 447 440.9 480.1 509.9 529.1 534.8 523 515.9 521.5 527.4 529.6 525.7 528.3 520 521.6 512.7 507.9 478.9 452.3 447.9 440.4 404 358 319.5 273.8 248.5 231.3 211.8 203.1 195.9 186.3 176.4 165.4 156.2 166.9 173.6 182.7
520.9 512.1 498.2 480.2 466 462.8 464.9 467.2 470.6 461.5 463.3 469.4 476.3 486.1 477.3 474.8 480.6 481 482 486.2 485.8 476.9 467.8 451.8 439 430.3 429.7 427.4 435.6 446.5 452.2 456.4 468.2 478.7 487.9 493.6 496.3 503.3 515.3 529.8 546.1 566.5 584.4 596.4 610.4 624.4 637.1 649 652.8 658.8 659.7 663.4 655.5 643 633.4 613.8 578.3 544.1 507.6 464.3 440.9 412.8 356.1 318 280.1 250.9 227.5 209.5 201.3 190.3 198.5 206.5 218 236.2 255.3 274 293.3 314.9 335.3 354 368.9 379.5 389.2 398.6 403.5 411.2 426.6 425.6 430.1 429.1 443.6 444.1 427.3 397.8 368 337.2 305.8 279.1 242.9 214.1 202.7 189.1 169.9 154.8 140.5 126.1 112.1 95.8 83.3 73.9 66.2 64.4 62.7 63 61.8 60.8 61.4 62.1 61.8 62 61.6 60.8 58.8 62 62.5 58.3 59 67 98.3 118.4 133.8 154.5 172.9 175.8 179.4 175.3 195.6 222.5 238.4 271.1 295.7 327.4 340 361.6 374.4 390.9 402.9 415.7 430 434 417.9 402.6 436.4 471.7 498.2 505.6 511.8 517.5 529.4 526.3 530.2 513.2 503 506.1 497.3 507 523.6 560.5 590.1 592.4 580.1 573.9 571.6 568 562.6 559 556 552.3 544.1 525 514.6 477.5 441.9 427.8 401.6 362.1 320.6 284 261.3 236.7 217.8 207.6 197.1 189.4 177.7 171.4 159.4 168.4 177.4 185.6
535.6 527.4 512.7 506 494.8 492.6 494.8 494.2 495.3 488 486.4 494.4 506.7 509.2 510.2 504.3 502.8 505.8 503.6 508 521 503.3 481.2 453.5 444.7 429.5 422 423.9 429.1 438.9 443.6 448.1 455.7 464.2 471 478.7 479.9 489.5 503 514.3 533.7 553.1 568 586.9 603.6 614.7 624.1 637.7 642.6 642.1 638.5 648 645.4 631.2 624.1 590.7 554.9 529.7 493.3 457.7 435.2 402.8 360.5 307.7 273.2 246.1 226.4 209.5 194.6 188.7 195.7 205.9 216.5 234.6 255.2 270.5 288.8 310.1 328.7 347.8 361.9 372.1 376.6 386.8 393.5 406.1 413.2 412.8 424.2 436.3 444.3 441.8 424.7 397 363.9 330.6 299 277.1 256.6 236.6 214 184.4 163.9 150 134.4 120.7 108 89.6 78.3 69.2 65.8 62.1 61.1 61.9 61.6 58.6 59.5 60.3 60.7 60.9 60.7 58.5 58.6 61.5 57.8 54.4 64.3 94 109.5 126.8 145.7 165.7 197.5 197 190.9 195.7 218.3 237.2 263.8 287.4 323.9 356.6 382.8 399.7 412.7 425.5 438.6 465.5 476.3 487.6 456.3 454.3 444.1 472.1 517.3 535.9 538.7 549.2 562 576.7 576 563.2 566.5 574.8 575.5 578.3 581 582.5 598.8 611.7 614.5 605.7 597.3 587.1 578.9 563.7 558.8 549.7 536.9 520.9 498.3 469.1 438.1 409.5 381.1 354.7 325.7 297.9 275.5 241.2 221 205.1 196.5 186.3 176.8 172.5 163 172.2 181.2 189.9
565.5 549.5 539.4 527.5 520 518.5 521.5 521 528.4 520.1 523.1 527.5 542.1 549.6 544.8 557.3 575.7 572.9 576.1 560 551.9 535.2 498.7 466.6 445.7 431.3 420.8 419.8 423.3 433.9 434.1 440.7 445.6 454.2 461.5 463.7 462.6 474.2 481.5 501.9 520.2 538.5 553.1 573.4 591 605.4 614.2 622.6 625.8 626.9 636.3 631.8 630.2 621.4 615 571.4 540.2 510.5 476.9 449.8 399.6 369.9 345.7 301.2 267.5 239.3 217.6 201.3 193.2 186.5 194.8 204 215.7 232.9 253 267.4 284.6 302.8 323.4 340 353.9 364.1 367.6 371.4 383 394.1 397.4 399.5 418.3 431.7 439 428.5 412.8 384.9 353 320.3 295.3 260.7 240.8 221.5 200.7 175.4 154.5 138.8 125.8 112 97.6 89.6 74.7 67.7 62.2 60.2 60 59.7 58.3 57.1 58.2 59.1 60 58.9 58.6 59 60.1 61.6 51.5 62.7 86.4 108.2 119.5 141.8 161.7 195.4 227.1 215.8 197.4 207.9 238.6 257.8 282.6 323.2 348.2 392 405.7 438 446.3 460.9 483.6 497.4 512 525.9 552.8 544.1 501.3 488.8 521.1 544.8 567.4 584 603.2 619.1 617.3 611.4 615.8 619.2 630.7 634.5 635.9 634.3 638.3 635.3 620.3 601 591.4 582.3 570.6 559.9 548 530.6 524.9 505.4 483.1 458.3 433.6 396.9 371.6 344.7 316.1 301.3 280 246.9 226.9 208.7 197 183.3 175.4 172.4 162.5 173.4 182 193.9
606 597.3 596.3 576.5 551.6 548.8 545.6 553.4 559.8 549.4 563.5 565.2 578.6 584.7 581.9 596 610.4 613.5 628.3 621 606.1 558 510.2 476.4 454.3 439.7 420 419.2 417.9 422.7 435.4 437.1 431 435.8 447.3 447.6 448.9 458.4 472.5 486.4 503.4 518.5 532.9 552.8 570 582.6 595.2 603.2 608.8 615.9 620.8 626.4 624.7 618.4 605 563.9 532.2 499.4 473.2 454.5 428.6 373.9 323.8 283.8 255.2 233.2 213.8 201.1 191.2 184.6 195.3 200.9 212.2 229.6 249.5 264 280.7 297.5 314.2 331.7 345.1 351.5 351.8 368.4 377.5 388 382.6 395.2 413.3 423.6 426.3 422.7 405.2 378 351.6 319.4 282 250.8 225 209 186.9 164 141.8 126.6 114 102.6 92 81.2 70 63.1 60 59 59.2 58.6 56.8 55 55.9 57.7 58.5 57.4 57.7 58.9 59.5 58 58.5 94.1 108.5 126 145.2 165.2 197.9 233 250.5 246.4 203.9 226.6 255.9 277.4 300.5 336.8 369.9 392.4 421.8 464 477.5 494 513.2 528.3 546.2 570.2 598.8 607.4 581 553.8 535.5 572.3 594.1 610 617.2 651.6 665.2 661.4 648.4 652.4 656.9 669.6 672.6 669.2 655.2 634.5 606.6 587.3 575.6 565.4 557 546.8 533.4 524.1 508.7 490.7 468.6 443.8 419.5 389.6 357 335.5 311.4 290 270.4 251.2 229.6 215.9 201.6 185 176.7 174.5 169.7 171.8 182.4 194.2
644.6 649.4 655.6 623 613 578.3 571.8 583.6 581.1 582.6 584.6 583.5 595.2 603.8 623.4 645 656.1 661 662.8 663.4 633.4 572.2 528.5 499.7 461.3 441.2 422.4 418.5 409.6 417.6 433.1 418.7 410.6 417.5 428.6 431.3 436.9 443.3 459.4 479.3 494.4 508.6 519.4 534.9 554.7 569.8 575.3 584.9 593.1 607.9 618.6 618.7 617.3 608.9 604.1 585.6 542.7 504.7 472.7 455.2 427.3 387.6 335.1 295.6 261.1 232.3 213.7 199.7 189.4 182.3 191.8 198.1 208.9 227 245.3 261.5 275.7 291.6 306.9 322.2 334 335.5 344.5 354.6 370.6 369.8 380.3 398.5 404.4 415.6 416 406.7 388.8 365.4 336.4 299.5 274.9 240.6 211.3 195.3 174.8 151.2 132.2 119.2 105.8 94.7 84.6 76.5 66 60.5 58.4 57.1 57.1 55 52.5 54.1 54.1 56.3 56.4 56.4 55.7 56.2 56.5 51.3 82 114.1 131.6 147.2 163.9 208.6 233.8 257.3 281 263.9 212.3 229.4 261.3 288.3 314.2 355.9 384.7 411.3 435.5 479.5 496.3 515.2 531.1 550.3 580.2 596.3 623.5 637.8 645 634.8 621.5 578.3 623.1 645.2 653.9 667.2 674.3 687.1 683.6 669.2 663.5 664.5 663.1 657.9 633.2 616.7 593.5 575 561.9 549.4 540.9 529.8 519.4 513.4 492.9 474.5 464.5 447.7 416.2 384.5 348.5 320.7 298.6 279.6 265.9 249.4 230.4 217.1 205.4 191.6 180.6 178.3 173.4 166.8 180.6 191.3
689.1 693.8 688.5 684.1 666.9 635 593 597.5 599.3 607.1 602.8 606.9 611 623.6 646.9 665.6 674.1 680 676.3 666.7 641.1 582.4 536.6 496.3 465.5 442.2 434.2 414.9 392.2 403.2 419.1 399 392 398 404.1 413.9 422.9 431.4 446.6 463.3 487.9 492.6 503.5 519.7 534.1 547.4 561 572.1 581 597 603.9 612.2 612.6 608.1 597.6 577.3 555.7 517.5 486.4 462.8 420.5 380.4 336.6 298.8 265.4 233.1 213.9 199 185.3 180.4 187.7 194 207.6 220.4 241.7 258.2 269.4 283.4 298.2 310.7 317.1 328.4 335.5 346 356.4 365 381.2 387.6 397.9 409.9 408.2 399 373 346.5 322.6 283.1 259.8 233.3 207 182.5 157.9 138.5 124.1 111.8 98.5 87.2 76.2 71.7 63.8 56.7 56.6 54.5 54.9 53.1 50.5 53.3 53.8 54.8 55.7 55.1 54.9 55.3 54.1 56.5 91.3 120.4 149.2 174.4 201.5 226.8 265.7 297.6 315.6 289.6 244 223.5 268.6 300.9 327.9 366.1 398.7 429.1 457.4 493.3 509.1 530.2 546.9 583.8 608.2 625.7 646.6 669.4 682.1 688.4 684.7 657.4 644.8 673.2 687.1 694.9 697.9 703.5 691.1 681.8 658.1 630.9 618.8 621.6 606.6 593.4 574.9 555.3 545.4 540.3 529.7 515.4 505.9 494.6 478.5 460.7 443.6 429 399.1 365.4 339.2 310 293.6 273.8 259.9 242.5 227.3 213.8 202.9 188.5 182.4 175.8 171.2 171.5 182.1 186.9
726.9 720.8 706.2 705.6 696.6 685.1 619.5 619.6 629.3 640.3 647 636.2 641.3 657.3 674.5 693.7 705.7 708.7 704 669.1 639 586.7 545.9 499.8 470 446.3 436.3 413.7 384.8 391.2 391 386.1 381.5 384.1 390.6 399.9 409.9 420.7 434.4 450.2 464.6 470.6 488 501.8 515.5 534.9 545.4 557 571.1 584.3 591.5 594.2 599.5 591.3 582.7 575.1 559.8 526.1 497 456.1 421.4 385.7 343.6 304.4 267.2 235 212.1 195.6 184.1 179.4 183.3 191 205 216.7 238.3 256.2 266.1 275 290.3 302.7 310.9 318.6 326.2 331.2 344.3 357.8 375.6 379.2 392.5 398.2 394.2 383.4 357.1 327.9 295.2 262.7 247.4 223.1 192.8 169.5 144.3 127.3 114.8 103.7 92.8 82.6 72.9 64.9 59.7 53.1 52 50.3 50.5 49.8 49.3 50.6 52.4 52.4 53.6 54 54.2 54.3 49.9 77.3 113.2 136.1 174.6 195.4 220 264.3 290.7 318.4 334.5 331.8 261.2 224.4 268.7 305.6 337 371.6 407.2 437.8 468.1 501.3 523.4 540.8 563.8 601.3 618.5 642.5 665.4 692.1 703.2 711.6 713.5 700.8 695.8 698.4 704.7 709.1 711.7 718.2 715.9 697.7 664.9 641 608.8 578.9 575.4 566 548.1 538.6 531.1 527.2 519.4 506.3 492.6 479.5 463.1 448.3 433.2 405.9 383.1 352.1 325.9 303.1 283.6 273.5 255.3 241.2 228.5 216.5 204.9 193.3 187.1 178.6 171.9 176.7 180.3 186.1
