ncols 200
nrows 83
xllcorner 240000
yllcorner 80400
cellsize 50
114.9 109.6 107.3 112.3 116 116.9 115.5 113.8 111.1 112.4 116.1 119.1 121.2 123.2 124.2 118.3 105.1 112.9 123.6 127.7 130.8 134.8 139.7 143.8 142.7 136.2 126.1 115 104.4 93.6 82.9 71.9 67.9 67.1 66.6 66.2 66.3 68.2 73.5 76.3 79.5 82.5 88.7 91.8 92 91 89.7 93.9 98.2 102.1 109.2 115.6 122.2 130.4 137.1 142.8 143.7 135.9 116.2 106.4 119.9 130.2 137.2 142.9 147.5 151 154.4 157.8 160.5 163.1 165.8 168.4 171.2 172.5 173.6 174.7 176.2 177.2 177.2 176.5 175 171.7 167.3 160.5 159.9 158.9 155.3 153.5 151.9 149.1 146.2 142.8 138.5 133.6 132.2 130.9 99.7 87.4 88.3 88.1 90.3 96.9 103.1 110 116.2 121.7 121.2 105.5 94.5 93.6 97.8 101.4 105.3 107.4 111.5 114.8 115.1 114.7 112.8 112.1 110 109.9 109 106.6 107.2 109.6 110.9 112.4 113.3 114.9 116.6 120.6 124 126.7 128.8 130.6 131.8 132.8 133.7 134.7 134.3 131.6 131.3 136.2 148.5 157.3 161.2 162.8 163.7 162.6 160.6 158.3 159 160.8 169.7 179.1 188 196.5 203.6 209.6 213.4 216.8 218.6 221 225.1 227.4 227.3 223.5 212 191.4 168.7 146.9 132.2 145.6 169.1 188.8 198.8 205 210.1 212.8 215.1 217.8 219.5 223.4 226.7 230 231.9 233.6 235.4 235.9 233.2 229.8 230.7 233.1 234.3 234.2 233 231.1 229.1 229
118.7 114.2 111.8 118 120 121.7 120.5 118.5 115.7 115.2 118.9 121.7 123.6 125.2 126.2 122.6 112.6 110.3 122.1 127.8 130.7 136.6 142.2 146.6 149.3 147.7 139.5 131.4 123.9 112.6 98.1 86.8 78.2 68.3 67.6 66.8 67 67.4 67.4 66.7 67.5 72.1 75.6 81.3 80.5 82.5 90.1 96.5 100.9 106.8 112.7 119.4 127.6 135.3 141.9 145.1 140.4 131.4 111.6 107.5 120.8 131.4 137.9 142.9 147.8 150.9 154.2 157.6 160.2 162.8 165.5 168.2 169.7 171.2 172.9 174.2 175.5 176.6 177.2 176.1 175.1 173.1 170.8 169.4 166.8 164.9 161.9 159.3 157.7 156.3 154.3 150.8 146.1 141.4 138.3 116.6 90 87.1 87.6 91.2 100.6 108 117 124.3 128.7 135 134 115.3 102.5 98.1 95.2 94.3 97.5 99.6 101.1 102.2 103.1 103.8 103.8 103.9 104.1 104.6 103.2 103.6 105.4 105.3 107.6 109.9 110.9 112.7 114.5 117.7 120.8 123.7 126.4 128.4 129 129.8 130.8 131.1 128.7 127.6 134.5 144.8 154.2 160.1 164.3 167.8 170.4 171.5 171.1 168.9 165.9 162.9 168 178.5 188 197 204.3 210.7 215.8 220.5 224.2 226.9 230.2 232.7 233.3 229.1 215.8 192 168.2 146.5 132.6 136.6 156.9 178.1 197.7 207 212.5 216.2 219.8 222.2 224.3 225.8 227.1 230 229.4 228.3 228.9 229.6 227.8 217.8 217.8 225 226.7 226.1 226 224.2 222 221.3
122.5 118.3 117 123.4 125.4 126.4 125 122.1 118.7 118.5 121.1 124.2 126.1 127.2 127.1 124.5 118.2 108.9 119 125.8 131.3 136.9 142 147.2 150.9 153.1 144.7 137.6 130.8 120.9 109 98.4 88 72.6 70.3 69.2 70.4 71.1 71.4 68.7 66.3 67.8 67.3 71.8 77.2 86.6 93.5 98.6 102.7 106.4 112 119.9 128.4 135 136.8 138.6 137.1 128.5 104.2 107.8 122.5 132.9 140.6 145.1 147.6 149.8 153.1 156.7 159.8 162.5 165.2 167.2 168.2 169.6 171.3 172.8 174.8 175.9 176.4 176.3 175.7 174.9 174.5 173.4 170.9 168 165.6 164.5 163.1 161.8 159.6 156.1 151 145.5 133.3 108.1 87.5 87.3 88.7 98.6 106.4 113.5 120.3 127 132.9 137.8 131.4 115.8 106.1 102.1 98.5 96 94.8 96.4 97 97.6 98.1 98.7 104.7 105.2 101.4 104.5 104.5 105.9 107.7 108.5 105.9 106.9 108.6 110.1 111.8 114.5 117.6 120.4 123.1 125 125.8 126.1 126.2 124.3 127.1 137.3 148.6 154.5 159.1 165.2 169.9 174.3 177.9 181.2 181.9 181.6 178.2 170.5 167.1 176.2 186.2 194 201.1 207.2 213.7 220.6 225.6 229 232.9 236.1 235.7 230 211.2 186.3 167.5 149.7 134.2 125.9 141.7 164.5 189.2 205.5 212.2 217.8 222.1 223.9 225.4 225.3 224.5 224.2 223 220.4 219.7 221.9 220.7 204.1 202.6 213.3 216.1 218 218.6 217.9 215.4 214.8
125.6 122.9 122.3 127.7 130 130.5 127.9 124.2 120.9 121.8 124.1 126.8 128.4 128.4 127.4 124.2 118.2 110.9 117.9 125.4 130.3 135.4 140.6 146 151.7 155.2 148.8 140.9 134.2 125.6 114.8 104 91.9 78.4 81.5 84.7 86.3 82.8 79 75.7 71.4 69 68.2 68.1 69.5 78.4 84.9 91.3 98.4 102.9 109.2 116.1 122.6 128.1 131.1 131.5 130.6 117.2 97.9 109.6 123 135.3 141.2 144.5 147.4 149.5 152.4 156.2 159.2 162.1 163.8 165.5 166.3 167 168.1 169.7 173.3 175.2 175.7 176.7 177.4 177.1 177.6 177.1 175.4 173.2 172.2 170.4 169.4 167.1 164.5 159.8 154.7 145.2 124.5 100.7 84.8 87.9 91.7 101.3 108.2 113.5 120.3 126.6 130.4 132.3 122.4 113.4 107.7 103.7 100.6 98.4 97.8 97.6 98.1 99.6 101.5 102.9 105.3 105.7 105.9 102.8 108.4 109.6 110.6 110.1 109.8 108.9 111.1 110.1 111 111.8 114.1 116.7 118.8 120.6 120.6 120.9 124.9 130.9 141.8 151.8 156.7 159.8 163.6 169.8 175.5 180.9 185.8 188.5 191.4 191 188 181.7 172.1 173.7 181.6 189.3 195.3 201.7 209.7 217.2 225.6 231.1 234.8 237.5 236.7 231.8 215.4 195.8 177.1 159.5 141.9 126.5 131.7 156.2 180.2 199.5 206.9 212.7 217.4 219.6 219.9 217.6 215.7 213.3 210.6 207.4 206.1 211.2 210.5 195.8 185.1 198.3 206.5 209.2 210.9 211.1 204.4 207.9
127.1 125.7 125.9 128.8 132 132.6 130.3 126.4 124.7 126.1 127.5 128.7 129.8 128.2 126.4 122.9 118.6 115 118.8 124.3 128.8 133.9 139.5 146.3 152.5 157.9 156.5 145.9 137.9 130 120 109.6 94.8 84 91.4 100.7 99.1 92 87.1 82.4 79.3 76.5 69.6 68.5 68.5 70.3 76.3 84.3 92.4 97.9 105.6 112 117.4 122.4 124.6 124.7 122.1 105.7 96.5 111.9 129.2 136.2 141 144.8 148 151.1 154.1 156.8 158.8 161.8 163.6 164.3 163.2 163.7 164.3 167.9 171.9 174.3 176.2 177.6 178.6 179.3 179.9 180.1 179 177.2 176.2 175.9 174.9 173.3 170.8 165.5 158.1 143.1 118.3 94.9 87.2 86.3 90.1 102.1 107.3 113.7 118.8 124.3 126.2 123.2 117.5 113.4 108.9 105.7 103.5 103.2 103.4 102.9 103.3 104.3 104.9 106.3 107.1 105.6 102.8 110.9 115 115.8 115.2 114.3 112.3 111.1 112.1 112.3 113.2 114.1 116 116.4 117.8 119.5 124 133.2 142 149.1 152.6 155.7 158.9 162.7 166.9 173.3 180.5 187.3 191.7 194.7 196.8 197.5 196 193.1 182.5 175.7 178.7 185.3 192.8 200.8 208.9 218.5 227.3 233 236.7 237.6 237.2 232.4 223.3 206.7 185.6 167.8 149.3 130.2 122.2 146.9 170 189.5 198.5 202.3 204.5 204.8 202.9 200.3 196.9 193.3 189.6 188.5 190 195 195.1 186 169.8 186.1 196.1 200.8 202.8 204.2 199.4 200.3
126.8 127.6 129.2 130.7 133.2 135.2 133.4 131.5 130.4 131.1 131.5 131.1 130.7 128.4 125.4 122 117.8 119.1 122.3 124.4 128.1 134.2 141.2 147.5 152.9 159.6 163.3 156 144.9 135.5 125.4 111.5 95.9 92.5 102.3 108.4 104.1 99.4 94.6 90.2 87.4 84.2 75.6 69.6 68.6 68.4 68 71.9 82.9 91.4 100.9 107 110.2 113.8 115.9 114.9 104.5 93.7 98.7 121 131.5 136.3 141.5 145.2 149.7 152.8 156 158.2 160 161.8 162.9 163.2 161.2 158.6 165.2 168.8 172.4 175.6 178.1 179.6 180.5 181.4 181.5 182.1 182.2 181.8 181.5 181.4 180.5 178.9 176.1 169.8 160 137.4 112.1 89.8 86.2 85.8 91.9 100.4 103.7 108.6 113.3 117.9 119.1 119.1 115.7 113.1 110.9 108.7 107.9 107.9 107 106 106.5 107.6 108.7 110.4 110.8 110.8 115.1 118.5 120.2 120.4 118.6 117.2 114.2 113.4 113.9 114.5 115.3 116.7 118.2 120.6 122.5 126.8 135.7 144.9 149.2 150.4 151.5 154.3 157 161.6 167.8 175.9 183.9 189.6 194.3 198.2 201.2 203.4 203 201.2 195.7 186.3 181.6 188.6 197.9 206.8 215.2 223 228.7 232.5 235 236.3 236.6 233 222.8 203.9 183.2 170.3 151.5 131.8 118.6 138.6 163 176.6 182.2 184.6 186.7 184.3 182.7 180.4 177.4 173.8 171.3 171.7 173.6 175.9 176.6 170.7 159.7 177.1 187 193.5 196.8 198 189.7 192.9
128.5 130 132.9 136 139.2 140.4 140.1 138.6 138.3 138.6 137.9 136.7 135.8 134.7 131.9 127.5 121.1 124 127.7 130.8 133.3 138.4 144.6 151.1 156.6 159.7 161.8 161.1 152.3 141.3 127.1 112.6 101.6 106.2 112.4 112.2 110.5 108.1 104.5 100.3 97.1 90.7 83.9 78 70.8 69.1 69.4 68.6 68.6 76.7 90.3 99.9 103.3 102.5 96.5 91.9 87.6 93.3 107 125.7 133 138 142.5 147.9 152.4 155.3 156.8 158.8 160.9 162.4 161.2 158.6 154.1 158.3 165 169.3 172.9 176.4 179.6 180.8 181.5 182.2 183.6 184.4 185.1 185.5 185.9 185.8 185.1 182.1 176.4 169.5 157.7 132.4 105.7 84.8 85.7 86.2 93.4 98.2 101.3 103.4 106.5 110.3 113.3 114.9 115.2 114.3 113.7 113 112.8 111.5 110.5 110.5 111 111.8 112.8 114.4 115.8 117.9 121.3 123.5 124.5 124.4 123.6 121.8 117.9 116.1 117.6 118.6 119.4 120.8 123.5 126.4 129.1 130.7 132.2 138.8 142.3 143.5 146 148.1 152 158.9 167.1 175.4 183.9 191 195.9 200.5 204.3 206.7 208.4 207.6 204.2 194.7 191.7 191.3 199.5 209.3 218.3 224.2 228.8 230.4 230.5 229.8 230.8 226.8 209.5 190.2 171.3 155.5 139.5 126.5 118.1 140.2 153.6 158.5 163.3 165.5 164.9 162.7 161.6 159.6 156.8 154 153.7 154.8 156.7 158.7 160.2 157.1 156.7 169.6 180 186.7 191 189.1 177.8 182.4
134.4 139.1 143.2 146.8 148.7 149.8 149.4 147.5 146.9 146.4 146.2 144.4 143.1 142.1 138.7 134.7 127.6 131 137.7 141.1 143.4 145.3 149.4 154.8 157.8 160.1 160.6 159.6 154.2 142.5 128.4 116.8 114.7 118.1 119.9 119.5 117.8 117.3 115.4 111.4 106.2 102 99.9 92.9 81.4 71.4 69.6 69.6 69.6 69.3 71 85.3 87.9 81.4 79.9 82.5 94.2 102 118.9 130.2 135.1 141.7 146.7 151.5 155.3 157.6 158.8 158.6 159.9 160 157.1 149.3 146 158.7 165.9 169.3 173.2 176.4 180.1 181.2 182.3 183.6 184.8 186.2 187.2 188.1 188.5 188.8 187.5 181.9 175.2 168.3 153.8 129 101.1 85.3 85.2 85.8 93.6 96.3 98.9 100.5 102.9 105.7 108.7 112 114.9 116.4 117 117.7 118.5 118.9 118.9 117.8 116.9 116.9 117.8 119.8 121.1 122.7 126 128.8 129.9 129.4 128.9 126.1 121.5 118.3 121.2 123.4 124.3 125.4 127.7 130.6 133.9 136.7 140.5 142.8 143.9 145.3 148.7 152.6 152.6 155 163.7 171.9 181.4 189.6 195.7 200.9 204.1 207.9 210.8 211.7 208.1 204.9 206.5 202.7 202.5 210.3 218.7 223.6 225.9 225.2 219.9 214.9 211.5 203.1 187.2 167.9 148.9 133.7 123.3 117.4 118.1 130 136.2 141.2 145.7 147.5 146.7 145 143.3 140.7 138.1 137.2 137.3 139.2 141.9 142.8 144.9 144.2 154.1 165.7 174.7 181.2 183.2 173.2 171.7 191.6
143.7 148.5 153.4 156.2 156.9 157.9 158.3 157.9 155.2 154.9 154.7 152.6 150.5 148 145.5 141.7 132.8 136.3 142.9 146.6 149.2 151.4 154.3 157.4 159.4 161.3 161.4 159.3 152.9 142.6 132 123.5 122.7 124.4 128.4 129.4 127.3 126.8 125.2 121.3 116.8 114.7 113.3 109.8 96.3 78.7 70.4 70 70.1 70.4 69.1 70.9 75.9 73.4 88.9 99 106.5 115.2 125.8 132.7 137.7 144.8 151 155.5 158.2 159.6 160.8 160.7 159.6 157.5 149.3 136.4 147.1 159.9 167.1 170.9 174.3 177.2 180.2 181.5 182.6 183.7 185 186.6 187.9 189 189.8 189.6 186.8 178.8 169.7 161 145.3 122.5 94.9 84.8 85.2 86.4 91.3 93.9 96.3 97.4 100.2 103.2 107.4 111.4 115.2 117.6 119.2 120.9 122.3 123.7 124 123.6 123.3 123.8 125.6 127.6 126.7 128.5 132.8 134.4 135.2 135 133.2 129.4 124 122.2 124.8 127.3 129.2 130.4 131.9 135.2 138.7 143.4 149.9 154.6 158.4 158.8 162.4 168.3 167.4 165.1 163 171.7 183.1 188.5 193.1 198.5 202.5 207.1 210.6 212.4 211.8 212.9 214.3 213.6 213.9 216.6 220.5 221.7 221.3 213.6 200.9 193.2 188.6 178.1 162.3 142.8 124.5 116.4 114.9 114.7 114.6 117 119.6 123.1 127.9 130.7 129.7 127.3 126.8 126.4 126.8 129.6 132.3 135 137.9 140.9 143 142.1 147.5 157.3 166 169 165.4 168.2 184 192.2
154.3 157.7 161.7 162.9 163.8 164.9 165.3 165 163.7 161.9 160.7 158.4 155.4 152.7 150.1 147.7 137.9 138.7 146.7 151 153.8 156.1 158.7 160.4 161.9 163.3 162.7 159.3 154 145.6 138.5 135 130.1 132 136.9 136.1 136.2 136.1 136.3 131.7 127.9 127.2 124.6 120.2 109.1 89.8 74.5 70.7 70.2 70.3 69.1 70.6 71.3 72.1 71.8 78.2 88.8 102.3 117.3 131 140.8 147.2 153.7 158.1 160.4 161.3 161.1 161 159.8 152.2 137.1 130.4 148.1 161.9 168.8 172.8 175.5 178.2 179.8 181.5 182.3 183.1 184.2 184.6 186 187.8 188.8 187.1 183.8 173.9 162.4 152.6 135.9 117 91.2 85.2 85.2 85.9 88.8 91.4 93.5 95.3 98.5 102.5 107.4 111.9 116.2 118.7 121.4 123.5 125.6 128.3 130.4 131 129.7 132.9 137.1 141.2 139.9 138.1 139.7 142.1 142.1 141.1 138.1 131.7 127.3 125.2 127.7 131.1 134.8 137.4 139.8 141.7 145.6 151.1 158.5 164.6 170.3 172.8 174.3 179.2 182.3 184.1 180.1 174.8 185.4 190.4 191.8 194.9 195.6 202.1 206.5 210.5 214.7 217.1 219.9 220.7 221 221.4 220.7 217.9 210.7 196.2 180.7 169.4 164.2 153.7 136.5 116.2 113.9 112.6 113.1 114.6 114.7 114.9 113.9 114.7 115.5 118.6 120.4 123.5 134.5 140 144.8 146.3 147.3 147.8 149.7 152.7 154.4 152.9 145.7 147.2 153.4 155.3 162.4 175.4 186.2 192.7
164.7 166.2 168.3 169.1 170.2 171 171.2 170.5 168.6 166.5 165 163.6 161.1 158.5 155.7 152.4 145.2 142.1 151.5 155.1 157.8 160 162 163.2 164.3 164.6 163.9 160.9 155.6 151.4 148.8 144.4 142 144.7 142 141.4 142.4 143.9 145.9 143.8 140.1 141.1 137.8 128.2 116.9 101.5 84.2 73.2 71.3 70.7 69.1 70.3 71 71.1 71.1 71.4 72.4 80.7 97.5 117.5 129.7 141.2 150.7 158.2 161.9 162.1 160.8 159 154.9 143.6 128 129.1 148.6 163.7 170.3 173.5 176.5 178 179.5 181.1 181.9 181.6 181.9 182.3 182.9 185.7 183.8 180.2 178.9 169.8 156.4 141.6 124.5 106 84.7 85.1 85.1 85.3 87.6 90 92.2 94.7 98.3 101.8 106.6 111.4 115.1 118.3 120.9 124 129 133.7 136.8 137.6 138.9 142.7 146.3 149.8 149.6 148.8 148.7 150.5 150.7 148.9 144.4 136 130.4 127.5 130.2 135.4 140.3 144.8 148.2 151.1 156.1 161.3 167.5 174.9 180.4 183.5 185.7 189.5 192.7 192.9 190.4 187.6 189.3 191.7 187.9 182.3 186.3 192.5 201.1 207.1 214.1 218.1 221.9 222.5 222.2 222.8 222 217 198.2 179.1 161.9 148 139.6 128.5 115.5 111.9 111.4 113 119.7 121.5 121.3 119.3 116.6 116.6 115.1 114.8 115.4 117.7 123.1 135.4 145.1 150.1 153.7 156.6 158.9 161.5 163.5 162.4 154.3 149.2 152.7 167.8 173.4 182.2 188 192.3
173.4 173.9 174.8 175.6 176.8 176.8 176.2 175.3 173.2 170.8 168.7 167.6 165.8 163.3 160.4 157.1 152.5 146.2 154.7 158.3 160.7 162.7 164.2 165 165.5 165.6 165.4 163.3 160.4 157.9 154.6 153.5 152.4 149.8 149.7 151.4 152.3 153.1 152.6 152.2 151.1 147.9 144 136.7 121.2 110.8 95.8 82.5 75.1 72.3 71.2 70.3 70.6 70.7 71.4 71.1 71.8 72.4 82.3 98.7 116.5 131.8 146.6 158.1 162.1 162.2 160.2 155.6 144.5 131 117.5 135.2 152.8 166.6 171.4 174.5 176.3 177.6 179 179.8 179.7 179.3 178.2 177 175.9 166.2 165.5 170.1 164.3 155.8 141.9 126.3 109.4 92 83.9 84.7 85 86 88 89.9 92.6 95.2 99.4 103.5 107.9 110.1 114.3 118 121.1 125.3 130.2 135.7 140.9 144.4 146.9 151 155.1 157.9 159 159.2 158.8 158.8 158.6 155.5 150.3 141.7 133.5 130.4 133.1 139 145.4 150.4 153.9 159.4 165 171.3 176.1 182.7 188.5 192.1 194.7 199.5 201.4 201.8 200.6 197.7 195.3 191.5 185.6 174.7 173.4 179.1 193.3 203.5 210.3 216.1 218.9 219.1 220.2 218.5 218.4 213.3 190.4 167.5 144.7 128.3 117.3 112.6 111.4 111.3 112 120.3 131.8 134.4 135.6 136.6 137.5 135.2 129.6 120.7 117.2 116.9 117.5 118.1 134.8 145.4 152.2 157 160 163.7 166.6 166.9 166.1 160.3 155.4 162.8 171.4 179.6 184.7 188
178.9 179 180.1 180.9 181 180.7 179.6 179 177 174.9 173.2 170.6 168 165.6 162.7 159 154.1 151.5 155.8 160.3 162.6 164.1 165.3 166.2 166.8 167 166.9 165.1 164.1 162.6 160.9 159.8 158.3 155.1 156.8 157.1 158 158.8 157.5 156.3 156.2 150 138.8 128.9 120.3 111.6 104.1 94.6 86.8 81.1 76 74 73.2 72.1 71.8 71.7 71.2 72.4 73.6 84.9 103.5 121.2 137.9 152.4 159.2 161.1 155.9 142.7 127.8 113.6 122.1 138.7 157.9 168.3 173.9 175.9 177 176.8 178 178 176.6 173.1 170.1 166.6 164.8 161.1 158.7 151.8 143.9 135.8 124 107.5 92.1 82.5 84.6 84.1 84.4 86.6 89.4 90.8 93.1 95.1 98.3 102.5 106.3 109.9 114.6 119.1 122.9 127.7 132.2 137.9 143.7 148 153.2 157.6 161.5 163.9 165.3 165.7 165.1 164.9 162.7 159.4 154 145.4 137.4 134.7 135.8 141.3 146.8 152 157.9 164.4 172.1 178.3 182.6 188.2 193.4 197.9 201.9 206.2 210.2 208.7 205.6 201.8 198.6 194.1 184.5 170.9 163.5 171.4 185 196.1 204.1 209.3 212.2 213.6 214.6 215 209.7 201.4 184 160.5 134.2 114.4 111.3 111.3 112.4 116 118.2 117.5 124.7 129.4 131.4 134.8 138.7 142.7 143.5 141.9 133.9 123.4 118 117.8 118.6 125.6 137.1 146.7 157.4 163.4 167.3 171.4 173.2 173 166 162.2 166.7 173.5 179.6 184.3
180.7 181.3 182.2 183.1 183.7 183.2 182.2 181.7 180.2 177.8 175.3 172.6 169.8 166.9 163.7 159.6 156.4 156.4 158.6 161.6 163.5 165.4 166.4 167.2 168.1 168.3 167.9 167.5 166.7 166.6 165 163.1 163.1 160.7 160.5 161.2 161.3 160.9 159.1 156.7 151.1 141.9 134.1 126.4 117.9 110.9 105.3 99.8 95.3 91.5 85.1 81 78.8 75.1 72.3 71.9 72.7 70.8 72.1 73.6 88.4 105.6 123.3 138.2 147.7 149.4 137.2 121.4 107.2 117.4 134.2 149.6 162.5 170 174.7 176.8 176.2 175.7 175.4 174.2 170.7 165.9 160.9 157.1 154.4 150.5 142 132.6 123.2 114.1 102.3 88.2 83.3 83.5 83.1 84 85 88.9 92.9 95.8 97.2 99 100.4 101.7 104.6 109.2 114.4 118.9 125.4 130.6 135.4 141.3 146.9 152.1 157.1 162 166.3 169.5 170.9 170.3 167.6 165.4 162.6 159.3 154.7 147.2 142.9 140.8 140.2 142.1 146.8 152.4 160.1 167.2 174.6 181.4 186.8 191.2 196.4 201 204.7 208.5 207.6 205.9 203.1 200.8 198 193.2 180.5 166.6 151.7 157.1 177.3 188.3 196.2 201.5 204.2 204.3 204.5 204 196.8 184.5 168.2 142.9 114.8 111.6 111.3 113.4 119.9 125.6 128.6 127.6 124.2 123.3 125.3 128.1 129.9 131.5 137.8 145.7 145.6 145.5 136.1 120.9 118.3 118.4 119.6 129.7 140.7 152.4 160.2 166.9 173.9 177.6 176.5 174.7 176.3 180.4 185.4 189.8
181.4 181.4 183.2 184.8 185.9 186 185.1 184.6 182.9 180.9 178 174.8 171.3 168.2 165.9 161.9 159.8 159.8 161 162.6 164.3 165.4 166.6 167.9 168.9 169.3 169.3 169 168.3 168.1 167.5 166.5 164.8 162.7 162.2 161.8 162.3 161.7 158.8 150.5 144.1 137.5 131.5 124.1 116.6 110.2 105.2 100.2 95.5 90.7 88.8 84 80.2 74.4 73 72 73.3 72.1 71.8 72.1 73.9 88.7 105.5 121.7 131.9 131 115.4 99.7 112 130.6 145.6 155.4 165.2 171.5 173.8 174.7 174.7 173.1 170.9 167.4 164 158.4 152.8 146.9 139.3 131.4 122.6 113.6 103.7 92.7 84.8 82.9 82.7 83 83.3 83.6 87.9 94 98.3 102 104.1 106.9 107.8 109 110.4 111.8 114.3 120.1 126.6 132.3 136.9 142.4 148.5 153.9 158.8 164.3 169 172.8 174.8 172.2 168 165.5 162 158.8 155.1 151.1 148.2 145.8 145.2 145.9 148.8 155.3 162.4 168.6 175.3 180.8 185.2 189.5 194.4 196.8 198.8 200.6 200.1 198.8 196.7 195 193 188.8 175.2 159.8 142.6 150.5 168.9 180.8 187 191.4 192 192.6 190.7 185.4 175.5 161.5 142.7 118.3 112.4 111 112.8 119.9 126.8 134.3 138.7 138.7 136.9 132.3 134.7 140.4 141.3 141.2 138.7 141.1 149.9 154.3 155.5 142.9 124.7 118.2 119.8 120.6 120.6 131.9 142.7 149.8 156.4 164.7 169.1 168.5 173.4 180.4 186.9 193
182 181.9 183.2 184.7 186.5 187.8 187.8 187 185.8 184.3 181.9 177 173.8 171.1 168.2 165.4 163.3 162.5 162.5 163.5 163.7 164.5 165.7 166.9 168.1 169 169.6 169.9 169.3 169.1 167.9 166.4 164.9 161.9 161.3 160.9 160.8 160.3 151.5 144.9 139.9 134.4 130.1 124.2 115.2 109.4 103.6 97.8 93.2 89.3 86.3 82.1 75.5 73.7 72.9 72.5 72.7 72.5 72 72.3 73.7 74.6 88.6 104.4 112.2 108.9 96.3 99.9 121.4 139.9 154.4 160.3 165.3 169.3 171 170.9 170.1 166.9 162.9 158.1 154.4 148.3 138.7 130.7 123 114.2 105.9 96.5 86.6 83.6 82.5 82.2 82.5 82.6 83.5 87.1 95 99.8 104 107.5 110.2 112.4 113.9 115.5 117 118.7 120.2 122.5 127.1 133 138 143.2 148.7 154.9 159.8 164.4 168.1 171.3 170 169.3 166.6 164.4 160.8 157.7 155.8 153.6 152.2 150.2 150 151.5 153.9 158.8 164.4 169.8 174.3 177.4 180.1 184.3 187.5 189.1 189.3 190.6 191.1 190.2 189.1 187.1 183.9 178.5 167.3 150.8 135.3 155.6 166.1 176.5 179.8 181.2 181.9 181.3 175.9 167.2 153.9 133.9 115.7 110.6 110.4 110.3 119.2 124.7 131.9 139.9 144.6 146 145.9 144.5 139.9 147.8 149.5 150.6 149.2 142.4 149.5 155.8 160.4 160 146.1 132.7 124.5 118.8 120.4 120.7 122.1 128.7 133.4 140.2 145.4 148.2 153.3 162.6 172.7 183.7
180 180.5 182.1 184.6 186.4 188.3 189 188.3 187.4 186 183.6 180 175.4 172.7 169 166.4 165.3 163.9 162.6 162.2 162.5 163.3 164.6 165.6 167 168.1 169 169.7 168.9 168.4 167.1 165 160.7 158.6 158.2 157.7 157 154.4 147.7 141.6 138.6 134.2 130.1 124.6 116.5 111.3 105.5 99.4 92.5 87.5 82.9 79.6 75.4 74 74.3 74 73.9 73.9 73.5 71.2 73.3 73.9 74.3 84.6 92.4 91.3 88.5 103.7 122.6 140.2 153.3 159.4 163.9 167.2 168.2 167 164.5 159.6 150.9 143.4 139.1 129.6 120 114.2 108.1 100.4 95.4 86.9 82.6 81.9 81.7 82.1 82.5 82.8 86 94.6 99.6 104.7 108.3 111.6 114.2 115.5 117.1 119.3 121 123.2 125.7 128.1 131.1 135.5 139 143.1 147.3 152.3 156.3 159 161.5 162.1 161.8 161.8 161.3 160.5 156.9 153.6 154.2 154.3 154.9 155.1 154.5 155.8 157.6 161.4 166.5 169.8 172.8 174 175.5 177.6 179.6 178.6 176.9 177.9 179.7 178.9 177.8 172.2 168.6 165.5 153.7 136.7 139.1 157.6 166.1 170.9 173.3 174.2 173.4 170.7 162.5 147.1 128.1 109.5 109.3 109.6 110 119.8 126.8 132.1 135.7 143.3 149.8 151.9 153.3 150.9 144.2 153 156 158 157.7 151.4 150.5 157.6 163.4 166.5 166.2 156.7 146.4 133 119.1 121.2 121.9 121.2 121.7 122.3 123.2 124.6 129.1 139 150.6 167.5
176.9 178.2 180.3 182.8 185.2 187.3 188.9 188.7 188.1 186.1 183.9 180.8 177 173.9 170.6 167.8 165.9 164.3 162.6 161 159.5 160.5 161.9 163.5 165.1 166.9 167.7 168.3 167.9 166.2 163.3 159.6 156.1 155.1 154.2 153.7 152.8 149.8 146.7 141.3 137.6 134.4 130.5 126.1 120.2 115 110.2 103.9 94.7 87.1 82.7 77.9 75.1 74.3 74.9 74.2 74.5 73.3 73.8 72.8 71.9 73.6 74.2 74.7 78.1 82.7 87.6 103.7 119.3 133 142.7 149.2 154.7 159.1 159.1 156.2 153.5 147.3 137.5 128.7 120.2 111 104 100.6 98 95.2 88.2 81.7 81.3 81.5 81.7 81.9 81.3 87 94.6 99.9 104.5 108.1 111.3 113.9 115.8 117.7 119.7 122 124.6 127.1 130.4 133.4 133.9 135.1 138.2 141.4 144.1 146.6 148.4 150.5 152.8 153 151.9 153.2 153.4 152.6 150.8 148.2 150.5 153.2 154.7 156.5 157.5 158.4 159 162.1 165.1 168.5 168.9 168.4 167.7 167.4 166.2 163.6 163.3 164.9 167.5 166.5 163.5 159.1 157 154.5 143.4 124.8 142.2 154.3 159 161.5 164.4 166.2 164.4 156.8 143.4 123.8 108.2 107 107.7 108.9 118.1 131.1 136.5 140.6 142.5 146.5 153.1 157.7 160.1 159.1 149.5 159.5 163.3 165.6 164.9 161.8 151.8 161.8 166.5 169.8 174.2 173.2 166.5 156.1 145.3 125 121.8 121.2 121.1 121.7 123.5 121.5 121.8 123.9 128.6 150.2
174.3 176.1 178.3 180.6 183 185.5 187.6 188.3 187.9 185.8 183.5 180.5 176.9 173.1 169.7 167.2 165.5 163.8 161.2 157.8 155.6 155.6 158.1 161.3 163.5 164.5 165.1 165.5 164.9 162.7 159.9 157.1 154.2 151.5 148.9 146.8 145.1 142.3 140.7 136.8 132.3 130.8 129.8 126.4 121.4 115.7 111.4 104.8 95.6 89 82.9 77.4 74.2 75.3 75 75 74.6 74.4 73.9 73.5 73.1 72 73.6 74.2 76.3 77.6 82.6 93.6 104.7 114.3 121.9 129.8 136.9 140.2 140.3 137.5 134.5 128.8 120.4 113.2 107.9 83.3 89.6 94.4 93.4 90.4 81.8 80.8 81.2 81.6 80.4 84.5 89.3 94.4 100 103.6 106.4 109.2 112.2 114.2 115.6 117.6 119.6 122.1 125.9 129.2 131.2 131 128.8 129.4 132 132.2 133.1 135.7 137.7 140.1 142.8 143.2 143.3 145 145.8 145.6 143.9 142.1 146.8 152.2 155.3 156.7 156.7 156.9 156.7 157.7 161 161.7 160.1 159.5 157.9 155.7 153.3 152.6 152.1 153.6 155.5 154.5 152.3 150.4 148.8 144.9 132.8 124 139.3 147 149.2 150.4 152.4 154.5 152.6 140.4 121.8 107.8 107.8 106.5 106.5 121.7 128.2 135.9 143.8 147.2 149.5 152.1 156.5 160.7 165.3 166 162.1 165.1 167.5 170.4 171.5 171.5 168.1 164.1 166.8 173.4 178.3 181.8 180.7 173.6 166.1 157 138.9 134.1 135.2 138.6 137.9 137.5 132.7 127.6 124.3 130
169.4 172.4 175.3 178 181.1 183.6 185.3 186.1 184.8 182.1 179.8 177.5 173.9 170.1 167.5 165.3 162.5 159.1 156 152.2 150.3 151.7 155.1 158.4 160.6 161 161.4 162 162.1 160.6 158.4 156 151.5 144.4 139.1 137.3 133.7 129.7 129.7 126.9 124.6 122.7 123.3 123.3 119.1 114.2 109.6 104.2 97.6 91 83.9 76.6 74.8 76.5 76.5 76.1 76 76.3 75.7 74.8 73.9 73.7 73.1 73.9 74.5 75 76.8 81.5 90 96.2 102.8 111.3 117 119.6 119.7 118.2 114.3 108.9 105.6 102.2 83.3 83.3 89.3 89.7 86.6 80 80.2 79.6 81.1 80.3 85.6 89.5 94.6 98.2 101.1 103.6 105.9 108.5 110.4 112 113.5 114.9 116.6 117.7 119.9 121.5 122.7 122.8 122.4 122.6 122.8 123.4 124.5 126.9 129.4 131 132.6 133.2 134 135 136.3 136.6 135.4 137.5 144.8 151 155.9 156.2 155.9 152.9 150.7 149.8 152.1 151.6 150.8 149.8 146.8 144.4 143.9 143.2 142.7 143.3 145.6 146.3 143.6 140.9 140.1 138 125.7 123.1 134.2 138.1 140 141.1 141.6 141.4 135.6 118.6 106.4 106.5 106.5 111.7 123.4 127.9 133.4 139 144.8 149.8 153.8 157.4 160.6 163.8 167.6 167.9 170.5 169 173.4 176.6 178.3 177.8 177.8 172.7 169.5 174.2 181.9 187.7 191 189.2 185.5 178.7 169.5 161.8 158.8 161.9 165 162.8 153.7 144.9 134.3 127.6
163.7 167.5 171.1 172.8 173.5 174.9 176.8 177.8 177.8 176.9 175.8 172.4 167.8 164.5 161.1 157 153.5 151.3 149.4 146.4 144.7 147 150.2 152.6 155 157.3 158.1 158.1 159.6 159.7 158.2 155.7 152.1 141.6 133 125.4 119.8 118.2 119.1 118.3 116.1 114.3 114.2 113.7 111.3 107.9 101.7 94.5 87.5 82 78.8 76.9 75.9 77.6 78 78.1 78.3 78.7 78.6 77.4 75.9 74.8 73.8 72.2 74.1 74.9 75.5 75.6 77.8 84.7 91 96.8 100.2 101.5 103.2 103.7 102.9 92.6 91.5 83.3 83.3 83.6 90.5 85.7 84.7 79.8 79.8 80.6 82.2 84.4 87.9 90.9 94.4 97.2 99.2 101.6 103.7 105.3 107 108.2 109.7 110.6 111.2 112.3 113.1 113.8 114.5 114.9 115.1 115.3 116.2 116.7 117.1 118.9 121.9 123.5 123 123.1 124 124.9 125.9 126 125.6 131 137.9 143.8 148.1 150 149.1 145.7 141.4 140.2 141.2 141.6 140.7 139.1 136.7 136 135.2 134.3 134.4 135.7 136.4 137.3 134.6 132.3 132 131.4 119.6 119 125.6 128.2 130 132.9 134.7 131.6 118.9 106.4 106.7 107.2 112.5 119.8 126 130.3 135.3 139.9 144.8 150 154.9 161.4 165.1 168.3 167.1 176.1 178.8 177.9 181.2 184.2 186.6 187 187.6 187.4 184.3 179.9 184.1 192.3 197.1 198.8 198.7 197.6 190.9 183.2 178.3 181.2 185.2 186.3 182.1 173.2 158.2 147
156.2 159 164.2 166.9 166.8 166.7 167.5 167.9 168.7 169 165.5 161.7 157.7 154.8 151.1 146.6 144.8 143.9 143.3 141.7 140.4 143.3 145.6 147.4 147.8 148.1 150.8 154.1 156.3 158.6 158.3 156.4 154.1 149.1 140.8 130.2 119.3 112.8 108.3 109.1 107.9 105.6 104.5 101.1 96.1 89.1 84.7 84.2 84.1 85.4 84.5 77.7 76.7 79.7 82.1 82.7 83.3 84.1 82.8 82.5 82.3 81.2 76.9 73.8 73.9 74.7 75.2 75.2 75.8 76.9 82.3 87.9 93.6 95.5 96.3 97.7 98.2 96.5 94.8 91.3 91 85.9 83.4 86.6 81.5 79.7 80.6 80.9 84 86.5 88.9 90.9 92.9 95.5 97.3 99.1 100.8 102.3 103.4 104.4 105.3 106.1 106.9 107 107 107.7 107.7 107.7 108.4 109 109.7 110.2 110.9 112.6 114.2 114.5 114 113.6 114.1 114.9 116.3 116.3 119.2 124.7 128.8 133 136.8 138.9 138.4 134.7 130.8 129.5 130.8 130.9 130.2 128.7 126.7 126.8 126 124.6 125.7 127.9 127.4 126.3 126 123.7 123.3 121.9 112.7 114.6 117.4 119.6 124.9 129.1 132.8 121.9 107.5 106.5 107.2 108.3 109.5 115.7 120.8 126.9 132.3 138.1 144.6 150.2 154.2 161.9 167.5 170.9 175.9 179.9 183.3 185.2 188.4 191.6 194.1 195.4 196.3 197 197.2 196.3 192.8 197.2 202.9 204.9 205.4 205.7 204.3 199.6 195.1 198.8 200.6 202.1 201.6 200.3 190.4 179
147.5 150.6 155.9 158.1 159.1 160 160.6 161.7 161.9 159.7 156 152.2 148.4 145 141.5 139.3 137.6 137.6 137.4 136.4 136.8 139.5 140.8 141.4 143.1 144.6 146.4 150.6 153.2 155.6 157 156.4 153.7 149 141.7 133.9 125.9 117 109.2 101.8 99 93.8 93.5 92.4 92 91.8 93.4 94.9 94.5 96.8 93 78.2 78 83.4 88.1 88.7 90.6 91.3 91.7 91.3 89.6 87.2 86 83 72.9 74.4 74.6 74.8 75.3 76.2 76.7 78.1 80.8 83.9 84.6 86.5 85.4 84 80.4 78.7 79.1 79.5 87.4 79.5 79.4 80 80.2 81.7 87.1 89.4 91.2 91.5 93 93.9 95.8 96.3 97.8 99.3 100.2 100.9 101.3 102 102.8 102.7 102.4 102.3 102.2 102.3 102.9 103.4 103 102.9 103.2 104.6 105.7 105.8 105.9 105.6 105.9 107 108.4 110.4 113.3 116.8 120.2 122.9 124.9 127.4 126.8 124.6 120.9 120.6 121.5 120.6 119.6 117.7 116.9 116.9 116.2 115.5 116 116.7 115.7 113.9 114.7 114.6 113.8 111.9 107.6 111.9 115.8 120.1 123 126.3 120.2 111.8 105.9 106.5 110.1 115.6 120.5 116.4 116.7 119.5 125.8 131.3 138.2 142.2 149.9 160 165.9 171.2 178.1 182.8 187.2 191.5 195 198.4 201.1 202.7 204.2 205.2 206.1 207.5 207 205.5 210.1 211.4 212.9 213.3 212.6 208.5 207.8 211.2 210 209 208.3 206.6 204.6 201.7
140 142.3 147.3 149.9 152 152.4 153.7 153.8 153.1 150.2 146.5 142.8 139.1 135.7 133.1 132.5 130.7 130.9 131 131.1 132.5 133.9 135.5 137.3 139.7 141.9 144 147.2 150.4 152.9 155.1 154 151.5 147.3 143.3 138.8 132.6 120.5 106.3 108.1 108.1 106.7 106.7 104.9 104.5 104 104.2 102.5 100 101.4 97.5 77.6 78.1 82.9 90 94 95.9 96.9 97 96.7 95.9 94.5 93.4 90.3 84.8 79.2 72.4 74.3 75.1 76 76.4 77 77.3 77.2 77.7 78 77.9 78.7 78.3 78.4 78.6 79.7 80.2 81.1 81.5 81.9 81.8 83.7 88.2 92.2 93.6 93.9 93.6 94 93.9 93.9 95 96.1 97 97.3 97.7 98.1 98.7 98.5 97.7 97.4 96.9 97 97.3 97.2 95.3 94 94 95 95.5 96.5 97.5 97.9 98.7 99.9 101.3 103 106 108.1 110.4 112.6 114.1 116 115.3 114.4 111.9 111.3 112 111.1 110.1 109.3 108.2 107.8 106.1 104.6 104.6 104.1 102.6 101.9 103.3 104.7 104.9 103.9 105.1 108.2 112.6 115.2 115.2 111.4 103 105.5 106 110.8 115.3 123.9 132 134.1 135.1 139.6 143.6 141.8 141.8 142.9 158.1 149.3 157.7 169.4 177.5 185.1 190.6 196.5 200.5 204.4 207.5 210.2 211.7 212.9 214.4 216.1 216.4 216.3 219 220.1 221.3 221 219.2 215.8 215.8 216.8 216.9 215.6 214.1 212.3 209.3 205.6
135.1 134.5 140.2 143.7 145.8 145.6 145.3 145.4 143.6 140.9 137.5 134.1 130.4 127 125.7 124.9 124.7 125.6 126 127.3 128.8 130.2 132.1 133.7 135.1 137.3 140.5 144.1 147.7 150.8 151.6 151.4 149.2 145.5 140.4 133.9 121.9 113.6 114.7 120.7 122.4 121.9 120.3 117.7 115.1 112.1 109.1 105.7 100.6 97.3 92.3 78.2 77.9 81.3 89.5 95.6 98.4 100.5 101.1 101.5 101.6 101.7 100.8 97.9 92.3 88.9 84.1 76.2 73.2 75 75.8 76.4 76.3 76.6 77.2 77.6 77.9 78.2 78.3 78.3 78.5 78.3 79.4 79.7 80.3 80.6 80.7 81.4 87.2 92.4 94.8 96.3 97 95.1 92.9 92.7 92.3 93 93.5 93.8 94.1 94.5 94.3 94.3 92.1 91.8 92 90 88.1 88.7 89 89.2 89.7 89.9 90.2 91.1 91.1 91.7 92.3 93.9 95 96.6 98.6 100.2 100.8 102.1 103.5 104.8 104.5 104.1 103.5 102.6 102.7 101.9 101 100.4 100.5 99.6 99 99.3 99.8 99.7 100.2 100.6 100.9 101.5 101.7 101.4 101.7 103 103.5 104.2 102.8 102.6 104.8 106 110.9 118.8 125.2 131.8 140 145 147.9 151.3 155.9 156.4 156.4 159 157.4 159.2 159.6 159.6 173.9 186.3 194.3 201 206.3 211 214.1 217 219.1 220.6 222.4 224.2 225.4 227.1 228.7 229.5 229.1 228.5 226.1 223.7 224.1 223.6 223.1 221.8 219.9 216.8 213.8 209.6
129.2 128.8 134 136.9 138.4 138.1 136.7 135.6 134.5 132 128.7 125.3 122.2 119.5 118.6 118.8 119.7 120.9 122.4 124.3 125.6 126.7 128.1 130.8 132.5 135.2 138.1 142.4 145.9 148.8 149.7 149.3 148 144.2 134.2 125.8 124.4 125.4 129.1 134.1 134.6 133 130.2 126.8 122.7 118.4 114.1 109.1 102.8 95.4 88.4 78.4 78.6 79.4 87.8 96 100.5 104.1 106.1 107 107.1 107.1 107.7 105.4 100.4 94.8 91.9 89.6 86.3 80 75.6 73.8 74.9 75.5 76.4 77.1 77.3 77.7 78 78.1 77.8 79.7 80.4 81.6 78.7 78.7 80.2 81 81.9 86.8 91.2 93.1 95.6 94 89.5 88.6 88.5 89.3 89.6 89.8 90 89.2 88.6 88 85.6 86.2 87.1 87.4 88.2 88.1 87.7 88.7 89.4 90 90.3 90.9 91 91.4 91.8 92.3 93.1 92.8 93.3 93 94.2 94.7 95.3 96 96.1 96.1 97 96.7 96.7 96.8 96.7 97.1 97.5 98.1 98.2 98.1 99.4 99.6 99.8 100 100 100.3 99.1 101.5 101.5 102.2 101.3 102.8 103.7 104.1 106 111 120.2 127.8 134.5 138.5 147.4 152.5 156.9 161.4 166.4 167 169.9 168.5 169.5 171.7 173.7 172.2 169.2 184.5 196.7 205.1 211.7 217.6 221 223.9 226.1 227.9 229.9 231.9 233.4 234.8 236.1 237.1 236.4 234.7 233.6 231.7 231.7 230.3 228.9 227.2 224.9 221.8 218.5 212.9
123.3 123.4 127.7 129.9 130.9 130.1 129 127.4 125.9 123.9 121 117.8 114.6 113.5 114.7 114.9 116.5 118 120.4 122.3 124.6 126.8 129.5 131.7 134.6 137.4 140.4 143.1 145.7 147.8 149.2 149.3 147.6 140.5 140.4 142.4 142 141.3 142.1 142.7 142.9 141.1 138.2 134.3 129.6 124.4 119.8 114.1 107.6 99.7 92.4 82.7 80 79.7 87 95.6 102 106.6 109.7 112.2 113.7 114.2 114 113.3 110.7 105.4 102 98.4 95.9 92.2 88.7 86.1 84.3 84.4 81.8 76 75.8 76.2 77.9 85.7 87 88.5 88.5 89.7 88.9 80.7 81.7 80.4 80.5 81.1 82.6 84.6 85.6 84.3 83.5 83.7 83.7 84.4 84.6 84.6 85.6 86.2 86.1 86 86.1 86.4 86.8 87.2 87.7 88.4 88.6 88.7 89.7 90.2 90.4 90.8 91 91.4 91.6 92 92.3 92.6 92.6 92.6 92.7 92.4 93.8 94.4 95 95 95.6 96 96.5 96.6 96.9 96.2 97.1 98.1 96.4 97.8 99 99.3 99.5 99 104.1 106.2 106.9 105.3 104.1 102.3 102.6 104.9 105.8 108.7 113.4 120.4 127.2 136.2 144.1 148.2 154.4 161.6 169 174 178.3 181.1 183.5 184 184.4 185.1 186.2 187.2 185.3 181.9 199.7 208.6 217.6 223.1 227.1 230 232.3 234.9 236.8 238.7 240 241.6 242.6 243.2 242 240.3 239.3 239.1 238.1 235.9 234.3 232.2 229.7 226.3 222.8 218.2
116.7 118.4 121.7 123 123.4 123.3 122.2 120.4 118.7 116.6 114.2 110.7 110.2 110.9 112 114.7 117.5 118.8 120.7 123.1 127.3 130 132.7 135.4 138.3 140.9 144 146.2 147.9 149.4 150.3 150.9 151.4 151.3 152.3 152.3 152.2 150.9 149.7 149.5 149 147.1 144.7 140.4 135.2 130.2 125.6 120.5 115.7 110.9 103.1 93.1 81.3 80.5 83.6 96.4 103.7 108.6 112.7 116 118.1 119.1 119.5 119.6 117.9 117.1 113.9 110.4 107.6 103.7 99.7 96.5 94.6 96.2 94.8 94.4 94.8 95.3 94.8 96.2 96.9 95 96.1 96.4 95.3 95.7 91.2 82.1 80.7 81.3 81.8 82 81.9 82.6 82.7 82.8 82.3 83.5 84.6 85.4 86.2 86 86 86.1 86.3 86.7 87.1 87.5 88.1 88.4 88.8 89.1 88.5 90.4 89.9 90.8 91 91.3 91.1 91.9 92.4 92.2 93.1 93.2 93 93.4 93.9 94.7 94.6 94.9 95.3 95.4 95.8 96.3 96.4 97.5 98.5 98.2 100 102.6 105.6 108.1 107.7 110.8 112.8 113.6 112.6 104.8 107.1 112.5 113.8 115.8 117.5 120.5 122.3 128.2 136.3 145 150.9 157.8 166.7 175.2 182.1 187.1 191 196 199 201.4 201.8 202.2 202.7 203.4 202.3 200.1 206.1 213.4 221.6 227.7 231.8 233.7 237.3 240.3 243.2 245.2 246.4 247.6 248.2 248 247 245.8 244.7 244.2 242.5 241.1 240.1 236.9 233.5 230 226.4 222.9
110.7 113.7 115.9 116.7 117 116.9 115.8 113.8 111.9 110.1 108 108.1 110.4 113.4 116.8 120.2 122.5 123.5 123.7 124.2 127.5 131.6 135.1 138.1 140.6 143.5 146 148.1 149.9 151.4 152.3 154.1 155.2 156 156.9 156.3 155.9 154.6 154.1 153.3 152.2 150.6 148.2 145.4 140.8 136 131.3 127.6 124 119.9 113.4 104.2 86.8 80.6 81 90.1 102.3 108.4 113 117.2 121 122.6 123.5 124.3 124.4 123.3 121.8 119.7 116.8 113.3 110.1 107.6 104.5 106.3 106.4 104.8 103.6 103.1 102.7 102.9 102.3 103.3 104.4 102.9 99.7 98.6 97.6 88.2 81.2 81.4 81.8 82.7 85 82.5 82.9 83.2 83.5 84.3 84.8 85.4 86.1 86.2 86.1 86.3 86.6 87 87.4 87.8 88.5 88.9 89.2 89.6 90.2 90.6 90.9 91.7 92.2 92.2 92.9 94 94.9 95.4 95.9 95.5 94.6 94.5 95.9 95.9 96.5 96.6 98.5 97.6 95.4 97.5 97.9 101.5 102.5 106 108.5 111.5 114.5 118.5 118.6 119.6 120.2 120.6 117.6 111 105.4 117.9 122.2 124 127.8 131.8 136.3 141.2 148.4 151.6 163.2 172.2 181.9 190.2 196.3 200.2 205.5 211.1 214.9 217.7 218 217.9 217.8 217.4 217.1 214.9 214.8 219.5 226 230.8 234.7 237.7 241.2 244.3 247.4 249.6 251.7 252.8 253.4 253.2 253.3 252.3 251.6 249.9 248.8 247.6 246.3 242.7 238.4 234.7 231.1 228.1
105.7 107.1 108.8 110.2 110.6 110.4 109.3 107.8 105.8 105.5 106.5 109.5 113.6 117.5 121 124.2 126.1 128 128.8 129.6 128.5 131.9 136.2 139.7 142.9 145.7 148.5 150.2 151.8 153.3 154.7 156.4 158.1 159.6 160 158.6 156.1 154.5 153.7 152.9 151.3 151.6 150 147.2 144.3 140.1 136.1 131.7 127.4 123.2 117.2 108.5 90 81.1 81.5 83.3 94.4 105.4 111.6 117.4 121.7 124.6 126.3 127.8 128.2 128.1 127.2 125.7 124 121.8 119 116.6 114.4 115.4 115 113.7 112.5 111.3 109.9 108.7 108.5 110 109.9 107.7 102.3 98.4 94.8 90.2 83 81.6 81.8 82.3 83 82.2 82.7 83.3 83.7 84 84.6 85.3 85.8 86 86.2 86.5 86.9 87.2 87.6 88.1 88.8 89.4 89.7 90.3 90.8 91.4 92.1 92.8 93.8 94.4 94.8 95.8 96.7 97.8 98.8 99.3 98.6 98.8 100.3 101.3 102 103.2 104.7 106.5 107.5 106.1 103.8 105.3 108.1 110.9 114.5 118.6 121.7 125.4 128.9 128.9 129.1 128.1 125.8 120.6 111.1 112 122.8 130.6 135.2 141.5 147.1 148.3 157.5 168.8 179.8 188.5 196.5 203.8 210.1 215.9 221.5 226.1 229.6 232.1 232 231.5 230.7 228.6 226.4 224.6 222.6 225.4 230 234.4 237.9 241.1 244.5 247.7 251.3 253.6 255.3 256.4 257.9 258.7 258.5 257.6 256.7 255.6 255 254 252 249.4 245.2 241.9 238.8 236.4
100.4 101.2 101.9 103.2 104.3 104 103.2 103 103.3 105.5 107.8 111.5 115 118.9 122.3 125.8 129.4 131.8 133.2 134.2 134.6 133.4 136.9 140.5 143.2 147 150.5 153.4 155.2 156.1 156.8 157.2 156.6 158.6 158.7 156.5 152.3 149.3 147 145.3 145.5 145.5 145 142 140.8 138.3 135.4 131.5 127.6 122.2 115.4 106.5 92.1 82.5 81.3 82.2 86.3 101.2 109 114.8 120.1 124 126.9 129.2 130.2 130.8 130.6 129.9 129.1 127.8 125.3 123.1 121.8 122.4 121.5 120.7 119.6 118.2 115.6 114.3 115 115.5 115 108.3 102.4 97.5 92.7 89.1 84.9 82.5 82.4 82.2 82.7 83.4 82.5 83.2 83.5 84 84.4 85.1 85.6 85.9 86.3 86.4 87.2 87.5 87.9 88.5 89.1 89.7 90.2 91.1 92.3 92.9 93.4 94 94.9 96.2 96.6 97.6 98.6 99.8 101.1 102.1 102.7 103 104.6 105.8 106.6 107.5 109.6 110.7 111.8 110 108.8 110.8 112.9 115.6 119.5 124.2 129.5 134.9 138.4 138.4 139.3 137.2 134.4 131.2 122.8 115.1 114.6 126.5 138.3 148.5 149.4 164.8 175.8 186.2 196.4 204.1 209.6 217.2 225.2 230.2 235.2 239 241.6 242.8 243.2 242.6 241.9 239 235.4 233.1 232.2 233.7 236.1 240.5 244.9 248.7 251.1 253.4 255.8 258.1 259.2 260.6 261 261.1 260.7 260.1 259.4 258 257.1 255.3 253.8 252.1 250.5 249 248.3 246.4
95.9 96.1 97.1 97.7 98.2 99.4 100.2 102.1 104.4 106.7 109.3 112.6 116.1 119.9 123.5 127.2 131.4 134 136.9 138.6 139.5 138.6 137.8 141.2 144 146.6 151 155.3 157.5 156.2 154.9 153.1 150.9 150.9 150.1 147.2 143.6 141.4 140.1 138.5 137.7 137.8 137.9 136 134.1 131.9 129.3 126.3 122.1 117.4 110.7 100.6 88 83.4 81.7 82.1 84.7 95.8 105.1 110.9 115.7 119.5 123.4 127.1 129.5 131.5 132.2 132.9 132.2 130.6 129 127.2 127.1 127 126.9 126.4 125.1 122.4 119.4 118.2 119.4 119.3 115.1 106.6 100.4 95.2 90.8 87.5 84.4 83.1 82.9 82.8 82.6 83.1 87.8 83.1 83.6 84.1 84.6 85.1 85.6 86.2 86.3 86.4 86.5 87.4 88.2 88.8 89.5 90.2 91.1 92.2 93.8 94.7 95.3 95.8 96.5 97.5 98.5 99.5 100.6 101.9 103.2 104.5 105.5 107 108.4 108.4 111 112.1 113.9 115.9 116.5 117.1 116.6 119.1 121 123 126.3 131.5 137.6 144 148.8 151.8 152.9 151.7 147 140.3 139.7 129.6 127.7 132.8 142.4 153.9 162.5 174.1 187.1 199.1 207.7 214.8 220.4 228.2 234.2 239.5 243.1 246 248.7 250.6 251 251 250.1 245.9 243 242.5 242.2 243.1 245.9 250 253.3 257.1 260 262.3 263.1 263.9 263.5 264.1 264 263 262.3 261.3 259.5 257.7 255.1 252.1 250.5 247.7 248.8 249 249 249.3
92.3 92.9 93.8 95 96.2 97.6 99.8 103.1 106.1 108.6 111 113.5 117.2 121 124.7 128.8 133.2 136.2 139.1 142 143.3 142.8 142.1 142.4 144.2 146.7 149.2 151.2 151.9 150.6 149 146.4 143.8 141.4 139.7 137.2 134.6 133.1 131.6 131 130.9 129.7 127.9 127.5 126.6 125.1 123.2 120 116.3 111.1 103.3 90.1 84.8 83 82.9 81.9 83.6 89.9 100.5 106.4 111.2 115 119 122.9 126.3 129.6 132.5 132.9 133.1 132.3 130.6 130.3 130.5 130.6 130.4 128.7 125 121.2 118 116 115.8 113.9 107.9 102.1 97.5 93.1 89.1 85.8 84 83.8 83.8 83.7 83.7 83.6 84.1 84.7 84.4 84.6 86 87.5 87.5 87.7 87 86.6 86.8 87.5 88.5 89.5 90.2 91.1 92.1 93.5 95.1 96.4 97 97.6 98.3 99.3 100.3 101.5 102.6 103.9 105.2 106.7 108.5 110.6 112.3 114.6 116.2 117.3 119.3 120.8 122.5 125.7 128 130.6 132.2 133.8 137.1 143.2 151.7 157.7 163.5 165.9 168.2 167.6 163.9 158 147 139.4 129.2 125.1 135 153.1 169.5 184.1 197.6 208.1 216.2 223.5 230.4 235.4 239.5 242.6 246.4 249.8 253.2 255 257.4 257.8 257.8 255.6 253.7 252.4 251.8 252.4 255.8 258.5 260.7 263.8 265.4 266 266.9 267.4 267.3 267.4 267 266 264.8 262.2 260 256.4 252.5 248.6 243.6 240.9 240.3 239.9 237.7 233.7
90.2 91.5 93.1 94.8 96.4 98.6 101.2 104.2 107.1 109.7 112.9 116.5 120.2 123.4 126.6 130.9 135.2 138.4 141.3 144.3 146.1 146.2 145.9 145.5 145.2 145.9 146.4 146.9 145.7 144.2 142.7 139.3 135.4 132.1 129.8 128 125.5 122.9 121 120.3 120.2 118.4 118.5 118 117.1 116.5 114.9 111.8 107.7 100 89.6 85.7 85.9 86.5 85.6 83.5 83.2 85.4 95.2 101.9 107 111.1 114.6 118.5 122 125.4 128.5 130.8 131.7 131.5 130.5 130.7 130.9 131.4 129.6 125.1 120.8 116.2 113.2 110.8 108.5 106.5 102.2 97.8 94.5 90.8 86.9 85.4 85.4 85.4 85.4 85.5 85.4 85.6 86 86.3 86.5 88.2 89.3 90.2 89.9 89.6 89.1 88.6 89.1 90 90.7 91.5 92.4 93.3 94 94.8 96.4 98 98.7 99.3 100.1 101 102.1 103.4 104.8 106.4 107.8 109.2 111.7 114.6 117.3 119.7 120.9 123.7 126.8 129.7 131.9 136.9 141.5 144.5 147.1 150.4 154.7 160.4 167.5 173.5 179.6 182.7 183.4 183.2 181.2 176.9 164.9 149.5 136.2 126.3 139.2 156.7 175 191.9 206.1 215.5 222.6 230 234.4 238.1 241.8 244.6 248.9 252.3 255.8 258.2 260.1 260.8 261.7 261.4 261.6 261.1 261 261.8 262.3 264.2 266.1 267.4 268.2 268.9 269.7 269.9 270 270.1 269.6 268.5 266.7 264.2 259.1 253 247.1 241.1 237 235.6 231.7 223.7 218.4 214.3
91.9 93.1 94.4 96.1 98.3 100.6 103 105.9 109.1 112.4 115.6 119.4 123.4 126.8 129.9 133.1 137.3 141 143.7 146.7 148.7 148.3 147.7 147.3 146.6 145.6 144.4 143.4 142.5 139.2 136.4 131.9 128.5 125.2 123.3 120.8 118.5 116.3 114.2 111.8 113 108.4 106.1 104.4 104.1 104.4 100.8 98.9 94.4 89.1 89.4 89.4 91.2 90.1 88.3 85.6 84.3 83.3 88.1 97 102.7 107.1 110.7 114 117.4 120.2 122 124.3 126.9 126.7 127.7 128.6 126.9 125.2 123.1 118.6 114.9 111.1 108 105.7 103 100.3 97.7 94.2 91.2 87.8 86.5 87.2 87.3 87.2 87.1 87.2 88 88.7 89.3 89.6 90.3 91.5 92.5 92.7 92.4 91.4 91.4 91.1 91.6 92.3 93 93.7 94.7 95.4 96.2 96.6 97.8 99.3 100.6 101.7 102.3 102.8 104.3 105.8 107.3 108.5 110.6 111.8 115.1 119.3 122.6 126.6 131.7 135.3 139.5 143 145.9 150.1 155.6 160.9 165.8 169.4 173.3 177.9 183.5 189.6 195.7 199.7 200.8 201.7 200.4 193 181.4 162.1 143.2 129.6 143.3 161.8 181.5 199.3 211.8 220.9 228.3 233.1 236.4 239.9 243.8 246.7 251.2 254.7 257.3 259.5 260.8 262.2 263.2 264.3 264.8 266 266.2 266.6 266.7 267.7 268.7 269.3 269.7 269.2 268.9 270.2 271.2 271.5 270.8 270.2 268.9 265.7 258.6 248.6 242.1 232.5 225.3 221.5 215.5 210.2 206.7 203.4
92.1 93.8 96.1 98 100.2 102.8 105.7 108.8 111.8 115 118.4 122.4 126.4 130.1 133.4 136.6 139.7 142.5 145.7 148.2 149.5 149.6 149.6 149.1 148.1 147.2 146 144.8 141.3 138.6 137 136 133.5 130.6 127.5 123.1 121.1 119.4 118.5 117.1 114.1 111.4 108.9 106.8 103.9 101 98.2 95.1 92.7 91.8 93.1 94.2 94.7 92.4 90.9 88.1 86.4 85.1 84.6 91.6 98.3 103 106.8 109.8 112.6 115 116.8 118.1 119.4 119.7 121 120.3 119.2 118.1 116 112.9 110 106.8 103.8 101 98.6 96.5 94.3 91.5 89 87.8 88.2 88.9 89.1 89 89.2 90 91 91.8 92.5 92.7 93.2 94.2 94.4 95.1 94.2 93.2 93.1 93.4 93.9 94.6 95.3 96 96.9 97.6 98.3 99.1 99.2 100.7 102.6 104.2 104.7 105.5 107 108.4 110.1 110.7 113.2 115.5 117.6 122.7 127.9 133.4 138.6 144.3 150.5 156.2 161.6 166.7 171.7 176.9 181.6 186.3 189.8 193.6 199.1 205.5 211.4 215.5 218 219.1 219.1 210.1 195.1 175.6 150 132.5 147.6 168.8 189.7 208 218.3 225.4 231.1 234.4 238.1 241.4 244.9 247.9 252.1 256.1 258.2 259.4 260.6 262.5 264 265.3 266.5 267.6 268.7 268.2 267.4 267.8 268.1 268.2 268.1 268.7 268.1 269.3 270.6 271.2 271.5 271 269.5 266.3 257.6 242.7 235.3 226.5 217.7 212.9 208.2 204 201.8 200.9
92.2 93.7 95.9 98.5 101.5 105.1 108.5 111.6 114.7 117.7 121.4 125 128.3 132.2 136.1 141.3 144.9 145.5 148.3 149.5 150 149.7 149.4 149.5 148.5 148.2 148.5 147.7 146.1 144.9 143.9 141.3 138.5 135.5 131.4 128.1 126.8 129.6 130 128.3 124.9 120.9 117.8 115.3 111.6 107.6 103.9 98.7 94.2 95.3 97.6 98.4 98.3 96.2 94 91.5 88.4 86.6 85.9 86.8 93.2 99.1 102.8 105.7 107.9 109.2 110.9 112.1 113.7 115.1 115.6 115 114.6 113.1 111.8 109.3 106.6 104 101.3 98 95.6 93.8 91.9 91 90.5 90.5 90.8 90.6 91 91.2 91.5 92.7 93.9 94.8 95.6 95.9 96.1 96.5 97.7 97.9 96.9 95.8 95.6 96.2 97 97.6 97.8 98.3 99 99.9 101 102 102 102.2 104.9 106.8 107.8 108.1 110 111.8 112.8 113.7 115.4 118 120.5 126.9 132.6 139.7 146.6 153.2 160.7 168 175 181.2 186.5 191.4 196.1 199.7 203.9 208.1 212.3 217.7 221.6 226 228.7 229.9 228.5 221 202.2 182.8 160.6 136.6 153.3 175.8 198.2 214.5 224.3 230.6 233.4 235.2 237.6 240.3 243.3 247.1 250.7 253.9 256.3 257.6 259.1 261.6 263.5 264.3 265.3 265.8 265.4 264.9 264.4 264.6 264.3 264.6 265 265.5 266.3 266.8 267.6 268.5 269.1 268.6 267.7 265.4 251.9 239.5 232.9 222 211.6 207.2 203.5 201.2 200.5 201.3
91.2 93.3 95.6 98.4 101.6 105.2 109.2 113.2 117.2 120.1 122.3 125.6 129.2 133.8 139 143.5 149.5 149.6 149.3 148 147.6 147.7 148.1 149 149.6 150.6 151.8 151.8 150.9 150.2 149.2 146.3 143.3 140.1 136.4 133.3 133.3 137.4 137.4 135.5 133.1 129.9 126.5 123.1 118.9 114.6 108.7 98.8 96.5 99.5 101.8 102.2 101.7 100.4 97.9 95.4 91.8 89.5 87.9 86.9 88.1 94.9 99.4 101.8 103.7 104.9 107.1 109.2 110.4 111.1 111.7 111.5 111.4 111.1 109 107 104.4 101.6 98.7 98.5 97.3 95.6 93.9 93.2 93.6 94.2 93.3 93.1 93.8 93.9 94 95.3 96.7 97.6 98.6 99 99.3 99.8 100.9 100.7 99.9 99 98.6 99 99.6 100.7 101.2 101.8 102.2 103.3 104.5 105.1 105.1 107 108.4 109.6 111 112.4 114.1 116.2 117.4 118.6 120.1 121.9 124.5 129 136.8 146.3 154.5 162.4 170.8 179.4 187.3 194.2 201.3 206.3 211.9 215.7 218.9 221.1 224 224.7 226.3 228.8 230.7 226 217.9 207.9 194.2 174.7 152.5 142.6 160.7 184.1 206.4 220.9 229.3 233.9 235.2 235.9 236.3 238.7 241.1 244.3 246.4 249.9 252.7 254.4 256.4 258.6 260.1 262.3 263.6 262.4 260.7 260.3 259.9 260 260.2 260.5 261.3 261 261.6 262.5 263.3 263.5 263.8 263.6 262.8 256 244.7 234.5 220.6 209 204.3 202 200.1 200.1 201.4 202.7
89.4 91.4 94.8 98.2 101.7 105.4 109.3 113.2 117 119.6 122.1 125.4 129.8 134.4 141.6 145.6 149.5 145.9 145.2 143.2 143.3 143.7 147.2 150.2 152.3 153.5 154.7 155.6 154.8 155 153.5 150.9 146.8 144.6 142 139.5 140.1 142.4 142.5 140.4 137.8 134.9 131.6 128.1 123.6 118.4 110.9 99.8 100.4 104 104.6 106.7 106.9 105.7 103.6 100.9 97.1 93 90 87.6 88.5 92.2 96.5 99.2 101.3 102.4 104.4 106.4 107.4 108.4 108.9 109 109 108.7 108.5 107 104.4 101.9 101.4 100.6 99.3 98 96.6 96.2 96.5 95.9 95.5 95.6 97 97.1 97.3 98.3 99.4 100.5 101.5 102.3 102.8 103.4 104 104.3 104.2 103.3 102.6 103.3 103.9 105.6 105.8 106.5 106.5 107.2 108.4 108.7 110.8 112.2 112.8 113.9 115.1 116.3 119.6 122.2 123.9 125.9 128.1 130.7 131.1 132.8 142.6 152.1 161.1 170.1 179.9 188.8 197.6 204.9 213.2 220.9 225.8 228.8 229.4 229.8 228.3 228.6 227.7 225.6 216 206.7 196.4 186.8 174.7 158.8 141.7 150 170.7 193.5 215.1 226.8 233 235.9 236.5 235.9 234.9 236.8 239.1 240.7 242.5 245.4 248.9 250.8 252.8 254.1 256.1 258.2 259.9 258.7 257.1 255 253.9 253.4 253.2 253.6 254.5 255.1 255.7 257.3 257.1 254.8 254.5 255.2 252.7 247.6 238.5 221.6 209.2 202.9 200.1 198.5 198.8 200.8 202 202.8
86.8 89.3 92.5 96.2 100.2 103.9 107.8 111.7 114.3 116.3 118.9 122.9 127.3 130.5 133.9 137.2 137.5 136.9 137.7 137.2 138.3 142.3 146.6 150 153.3 156.1 157.9 159.1 159 159.1 158 155.8 152.4 150.4 147.3 144.4 144.2 146.7 146.6 145 142.5 139.4 136 131.7 126.6 121 108.3 102.6 105.4 107.9 109 110.4 111.4 111.4 109.6 106.4 102.9 98.7 94.2 90.1 88 89.5 94 96.6 98.3 99.8 101.6 103.5 104.5 105.8 106.9 107.2 107.5 107.6 108.1 107.1 105.9 104.5 103.6 102.9 102.1 101.2 101.3 100.8 100.3 99.8 99 98.7 99.8 100.7 100.9 101.6 102.4 103.8 105.6 106.6 108 109.1 109.2 109.8 109.6 108.8 107.5 107.9 109.7 111.7 112.4 112.5 112.2 113.3 114 114.6 116.9 117.1 119.3 118.8 118.6 120.6 124.4 129 131.8 135.4 138.2 140.5 141.4 141.2 146.5 157.3 167.1 177.1 187.3 196.7 205.3 212.4 221.7 229.7 232.8 233.9 234 233.4 232.2 229.6 222.4 209.2 197.3 186.9 176 164.9 155 144.6 149.1 165.2 184.3 204.8 222.9 232.2 236.6 238.2 236.6 234.9 233.7 234.8 236.2 237.6 239.2 241 243.4 246.4 248.6 249.3 250.4 251.7 253.2 253.3 252.1 248.7 246.2 244.2 244.3 246.1 247.7 249.4 250.9 252 251 250.8 250 249.8 249.2 242.3 225.9 211 203 199.1 197.3 197 199.2 201.6 202.8 205.7
84.5 86.7 89.7 93.6 97.1 101.3 105.2 106.8 107.3 107.7 108.4 108.5 112.9 119.2 122.7 125.7 126.6 128.1 129.6 132.9 136.3 140.9 145.1 149.7 153.8 157.7 160.5 162.6 163.5 163.2 162 160.4 157.9 156.3 153 150.2 148.9 151.5 151.2 149.3 146.8 143.4 139.5 134.5 128.9 121.2 106.3 106.1 109.8 112.3 114 115.5 115.6 115.7 114.8 111.1 107.2 102.7 97.9 92.2 89.3 89 91 93.5 94.8 96.9 99.1 100.6 102.1 103.9 105 106.2 107.2 108 109 107.9 107.5 107.1 107 106.2 105.7 105.4 105.1 104.7 103.9 103.1 102 101.6 102.9 104.2 104.9 105.7 106.6 108 109.2 111.2 113.3 115.3 116.3 117.8 117.8 116.1 114.1 114.2 116.2 118.3 119.2 119.7 119.8 120 120.7 123.2 125.6 127.2 128.4 128.2 127.4 127.2 131.1 135.7 140.3 144.8 149.1 152.5 154 154.2 154.2 161.4 173.1 183.3 193.5 202 210.3 218.6 229.4 235.1 236.9 236.6 235.7 233.9 230.6 222.4 206.1 191.3 178 166.2 159.4 154.7 151.9 146.9 161.4 180.6 199.9 214.7 228 234.8 237.3 236.8 234.5 233.2 231.6 231.2 232.7 234.3 236.2 238 240 239.9 241.2 242.5 242.1 242.6 243.3 243.3 242.4 241.3 239.2 239.7 239.6 242.5 244.1 244.6 245 245.2 244.4 245 245.8 246.5 243.5 232.3 216.1 203.3 199.4 195.5 198 198.8 200.9 202.8 205.3 207.9
85.8 86.3 87.4 89.4 91.6 95.6 99.3 98 101.2 104 106.9 109.8 111.2 113.1 116.5 117.1 119.5 122.6 124 127.8 134 139.1 143.8 148.2 152.7 158.1 162.1 165.4 167 167.2 166 164.8 163.5 161.9 159.4 156.4 155.1 156.5 156.4 153.9 151 147.2 142.6 136.9 129.6 118.4 105.9 108 114.5 117.3 119.3 119.8 119.9 119.9 119.1 116 111.9 107.3 101.6 95.3 91.3 90.6 90.8 94.1 96.2 97.8 99.3 100.8 102.8 104.6 105.9 107.3 108.6 109.7 110.3 111.1 111 111 110.6 110.3 109.9 109.2 108.7 108.6 108 106.7 105.6 105.2 106.5 107.9 109.9 110.8 112.9 114.7 115.3 116.4 120.1 122.8 124.8 127.4 128.1 125.4 123.1 122.5 124.1 126.4 127.8 128.4 128.5 128.8 129.5 131.5 134.1 135.8 137 138.1 137.3 134.7 137.4 144.3 149.2 154.7 159.7 164.5 167 168.6 166.1 167.1 177.1 188.9 198.5 206.4 214.4 224.5 234.3 238 238.5 236.9 235.1 231.8 222.2 206.8 190.8 176.4 169.4 172.3 173.4 171.4 163.5 152.2 170.7 190.4 208.7 219.6 227.3 233.1 234 233.3 232 228.5 228.5 228.1 229.4 232.2 233.8 235.1 236.9 236.4 236.9 238 238.1 238 237.8 237.3 236.3 234 233.5 234.7 235.6 236.7 237.1 237 237.2 237.6 237.9 239.1 239.7 238.3 235.3 223.4 205.2 198.5 195.5 197.2 198.9 200.7 202.8 206.5 209 211.5
87.8 88.2 88.5 90.1 91.9 94.3 98.1 102.6 106.4 108.8 112.7 116.3 117.4 118.1 118.7 120.2 122.7 125.8 127.7 128.9 133 138.8 145.8 150.8 155 159.7 163.7 167.6 170 171.1 171.3 170.3 168.9 167.2 165.1 162.6 160.2 160.9 161.3 158.8 155.7 151.7 145.5 138.3 129.5 116.8 108.6 112.2 119.4 122.3 124 124 124 123.9 122.7 120.3 116.7 112.3 107 101.1 94.3 90.5 91.3 93.4 96.7 98.3 99.8 101.3 103.3 105.6 107.7 110 112 113.6 114.6 115.1 115 114.8 114.7 114.6 114.1 113.3 112.4 112.2 111.7 111 110 109 110.7 112.5 114.8 117.3 119.6 121.3 123.3 125.8 127.9 131 134.5 137.6 138.3 135.6 131.8 130.8 131.4 133.7 136.1 136.9 137.9 138.3 139.5 141.2 143.3 145.4 146.7 148.2 148.9 146.3 144.7 151.5 158.8 164.7 170.5 176.1 180.3 182.5 181.9 178 183.1 193.6 203.7 210.3 218.1 228 235.1 237.2 237.8 236.3 232.8 222.9 207.4 193.5 180.8 176.5 179.5 183.9 183.6 181.6 175.3 162.3 168.3 185.1 202.6 213.9 221.1 226.5 228.3 227.7 226 223.5 224.7 224.3 226.4 228.8 231 232.3 233 233 233.2 233 232.8 232.5 231.7 230.5 229.5 228.3 228.1 229.3 229.1 229 229.5 228.3 228.5 230 231.2 232.4 232 230.1 227 214.5 198.8 195.9 196.8 198.1 200.9 202.7 206.5 210.7 213.1 215.5
91.3 92.1 93.3 95.1 96.9 99.3 102.7 107.5 111.8 115.2 120.8 125.7 127.5 129.1 129.1 130.8 132.1 131.4 132.3 133.7 135.7 141.1 148.6 154.2 159 162.4 166.1 169.8 172.8 175.1 176.2 175.9 174.2 172.5 171.3 168.6 165.5 165.6 165.4 164.1 160.7 156.3 148.8 140.3 130 117.9 111.9 117.3 125.5 128.6 128.8 128.4 128.1 127.7 126.8 124.8 121.4 116.4 111 104.9 98.2 93.3 91.7 92.7 95.8 98.5 100.2 101.8 104.2 106.9 109.5 111.8 114.7 116.7 117.9 118.8 119.1 119.3 119.5 119 118.4 117.5 116.2 116.1 115.6 114.8 113.8 113.9 116 117.9 120.4 123.2 126.1 128.9 130.9 132.6 137.1 140.9 144.2 147.2 148 146.2 142.5 140.5 140.5 142.9 144.8 147.7 149.5 150.2 151.8 152.3 154.3 156 157.9 159.2 160.7 160.4 158.6 158.7 166 172.9 180 185.9 192.6 196.3 197.8 193.4 190.7 198.6 206.9 215.3 222.3 229.4 234.2 236.2 236.8 235 228.6 214.7 198.4 186.4 180.2 183.8 191.7 194.5 193.6 192.5 188.8 177 162.6 174.5 190.5 201.8 207.9 212 215.3 218.4 217.1 217.9 220.2 222 223.8 225.2 227.8 229.9 230 229.1 228.3 227.9 227.1 226 224.2 222.2 220.1 219.7 220.1 219.6 218.7 217.9 217.4 217.6 218.4 219.8 222.8 224.8 224.2 222 217.9 202.9 196 195.1 197.1 200.6 202.7 207.1 211.5 215.6 218.3 220.5
96.8 97.8 99.6 100.7 102.9 108 111.9 116.2 120.8 123.7 128.9 133.2 137.3 140.1 141.2 142.8 144.2 141.4 140.8 140.8 141.6 147 152.2 158 163.5 166.7 169.9 173.3 176.6 179.8 181.1 181.9 180.2 179.7 178.6 174.7 171.9 170.5 169.8 168.6 166 160.3 152.4 145.5 133.9 120.8 115.4 123.2 132.5 136.6 136 135.1 133.5 131.7 131 130.1 126.4 121.6 115.6 109.3 102.9 96.6 93.8 92.9 94.3 97.8 99.7 102.6 105 108.1 110.9 113.4 116.5 119.1 120.2 121.1 122.1 122.2 122.7 123 122.8 121.5 120.6 121.1 120.7 119.4 118.3 118.9 121.2 123.8 126.5 130 133.5 137.2 140 143 147 150.9 154.2 157.6 157.2 157.4 153.6 151.2 151.2 152.9 155.4 158.4 160.7 162.7 163.7 163.7 165.5 167.7 169.6 170.9 173.4 172.9 170.9 169.1 173.5 181.3 188.7 195.4 201.6 207.4 209.4 208.4 204.8 204.4 209.5 218.5 225.1 230.1 233.8 235.7 235.9 232.9 224.3 209.7 193.8 184 188.9 200.5 206.6 208 206.2 205.1 202.5 194.4 182.9 172.1 179.7 193.9 202.1 203.7 205.8 211.1 214.5 218.2 220.4 221.8 223.2 225.1 227.3 229.8 229.3 227.4 225.9 224.2 222.9 221.4 219 216.5 214.2 214 213.4 211 210.1 209.6 208.5 208.3 208.9 210.8 212.9 214.8 216.4 212.9 203.1 196 195.6 195.9 199.4 202.8 206 211.3 216.4 220.2 223.1 224.8
107.1 107.9 109.6 111.8 115.2 119.7 123.6 127.4 131.2 135.5 139.9 142.8 148.9 153 154.7 156.5 156.4 152.8 152.2 152.2 151.4 153.6 157.2 161.9 166.6 170.3 174.3 178.1 181.7 185.1 186.2 187.7 186.7 186.4 185.3 182 179 176.2 176.3 172.8 170 164.7 156.9 150.4 137 123.4 123 132 142.8 146.3 146.1 143 138.6 137.1 136.7 135.4 131.6 126.7 120.6 114.2 107.8 101.2 96.3 93.9 93.9 96 99.4 102.5 105.4 108.9 112.4 115.2 118.1 120.4 122.4 123.4 124.7 125.5 126 125.8 124.6 125.6 125.5 125.8 125.8 125.3 124.6 124.4 127.3 129.9 133.2 137.2 141.1 145 149.2 152.5 156 160.6 164.5 167.1 167.3 167.2 165.5 163.3 162.5 163.7 165.8 168.5 171.2 173.5 174.6 175.3 176.9 178.7 179.6 181 182.2 181.7 181.5 181.7 184.8 189.7 195.9 203.2 209.9 214 215.8 216.3 216.4 217.1 218.7 221.8 228 231.7 234.5 235.6 234.8 231 222.2 208.4 192.8 194.3 203.4 212.1 214.1 214.8 213 210.7 209.8 208.1 201.3 189.7 178.1 184.6 194.4 200.7 207.8 212.7 215.9 219.3 221 222.5 223.9 225.5 228.4 231.2 229.5 227.3 225.8 222.8 220.6 218.7 216.2 214.4 212 210.3 209.4 207.6 206.1 205 204 203.3 202.8 203.7 205.8 207.3 206 199 195.2 194.9 195.7 198.7 202.5 206 210.9 216.1 220 223.9 227 229.1
119.8 121.5 123 126.2 129.6 133.8 137.4 141.4 145.5 150.3 154.3 157.6 161.4 164.8 166.2 166.7 166.3 164.7 163.2 163.3 162.1 164.5 166.5 169.1 172 175.9 180.2 184.2 187.7 190.8 193.1 192.9 193 192.8 192.4 189.7 187.4 184.1 180.7 177.2 173.8 169.5 162.2 153.2 139.7 127.5 131.7 142.8 152.8 156.4 155.8 153.1 148.6 145.1 143.2 140.7 136.6 131.4 125.5 119.2 111.1 104 99.3 96.9 93.2 95 98.7 101.7 105.9 109.4 113 116.3 119 121.8 124.7 126.6 128.3 129.6 130.6 131.3 131.8 132.3 132.7 132.2 133 135.1 133.4 130.4 132.7 137.1 141.3 145.1 149.3 153.8 158.5 162 165.2 169.5 173.9 176.6 176.8 175.5 174.6 174.3 175 176 177 177.7 180.5 182.8 183.8 186.5 188.2 187.5 187.2 188.7 189.5 189.6 189.1 190.5 195 198 204 210.2 215.2 218.5 220.7 222.7 224.3 225.5 226.4 227.5 230.6 233.5 235.2 236.1 234.5 228.8 219.9 208 195.1 203.5 213.3 217.2 218.7 218.2 216.1 214.1 212.2 210.2 208.9 204 187.4 183.3 192 201.3 208.7 213.2 217.3 219.8 221.5 223.1 224.5 226 229.9 231.9 229.8 227.9 226 223.1 219.9 217.1 214.5 212 210.4 208.3 207.1 205.4 204 202.4 201.3 200.2 199.5 198.4 198.6 197.8 195.4 194.6 194.5 195.7 198.6 202.7 205.3 209.9 215.7 219.7 223.4 227.3 231.2 233.1
131.1 135.2 138.4 140.9 145.7 150 153.2 155.6 159 162.3 165.2 167 170.5 172.2 173.8 174.8 174.6 174.9 174.3 174.7 174.5 174.9 176.3 176.9 179 181 185.5 189.8 193.6 197.2 198.5 199.2 200.3 200.1 199.8 199 196.7 193 187.6 183.2 178.8 174.8 166.4 152.9 140.8 133.2 143.5 154.4 160.4 162.6 163 162.1 159.1 155.1 150.6 145.7 141.7 136.3 130.4 123.1 114.6 106.6 101.4 98.5 96.3 94.9 96 99.9 105 108.8 112.6 116 120 123.8 127.5 130.8 133 134.3 135.9 137.2 138.2 139.8 141.5 142.2 142.5 144.6 143.2 140.5 140 144.5 150.3 154.7 158.9 162.8 167.2 171 174.8 179.3 183.5 184.8 185.5 183.5 183.3 185 186.5 189 188.6 189.6 190.6 190.8 192 194.9 196.3 196 195.7 195.4 196.1 196.8 196.6 198.5 202.7 206.5 211.2 215.4 219.4 222 225.5 228.1 230.6 232.3 233.1 233 233.8 235.2 237 237.4 234.6 227.2 217.9 208.1 198.7 212.8 220.4 221.9 221.6 220 217.6 214.4 210.9 208.1 202.2 192.5 191.1 195.6 201.1 206.1 210.9 214.9 219 220.6 222.1 223.7 225.4 227.2 229.7 231.3 230.6 228.7 226.5 223.7 220.8 217.8 214.7 212.2 210 207.8 205.8 203.7 201.8 200.2 198.7 197.3 196.3 195.3 194.7 194.3 193.9 194.6 195.8 198.2 200.9 203.8 208.8 214.7 219.8 224.3 228.1 231.8 235.4 237.8
140.8 145.6 148.7 152.2 155.8 159.7 162.9 165.6 167.8 170 172.5 175 176.3 177.5 179.2 180.6 181.1 182.3 182.8 183.3 183.8 184.4 184.9 184.8 186.1 186.7 189.4 193.1 196.8 201.6 204.1 207.3 209.1 208.2 207.8 206 203.8 200.8 196.3 191.6 185.6 178.2 164.7 149.6 140.3 145.6 157.9 167.4 170.9 171.1 169.6 168.2 164.6 160.4 157.7 151.8 146.3 139.8 133.5 125.8 116.7 107.7 102.3 100.5 98.3 98 98.7 98.6 103.5 107.9 111.8 117.1 122 127.1 131.4 134.9 138.4 141.1 143.7 146.2 148.5 151.1 153 153.7 153.1 153.2 153.9 151.3 151.4 154.4 159.6 164.4 168.5 172.4 176.1 179.9 185 189.4 191.6 192.7 193.3 192.5 191.4 193.8 196.8 198.5 199.8 200.3 199.7 200.1 201.8 203.1 202.9 202.8 202.7 203.5 203.8 204 203.6 205.2 209.3 212.7 215.8 219.3 222.6 225 228.9 232.1 234.1 235.1 235.4 236.6 236.8 237.8 238.2 238.6 234.8 226.4 218.1 209.9 206.6 219.6 223.6 224.1 223.1 220.8 218.5 216.6 212.6 205.5 210.2 209.5 209.3 211.1 211.2 211.8 213.4 217.7 220.7 222.3 223.6 224.9 225.9 227.7 229.5 230.7 230.7 228.9 227 224.4 221.5 218.6 215.4 212.2 210 207.9 205.8 203.9 201.8 199.6 197.4 196.1 194.8 193.8 193.5 193.3 194.6 195.6 198.9 200.1 203.3 208.3 214.5 218.8 223.9 228.6 232.7 236.5 239.6 241.7
147.3 151.9 156.1 160.1 163 166.2 169.8 172.1 174.5 176.3 177.8 179.4 180.8 182.6 184 185.4 186.2 187.1 188.3 189.5 189.6 190.1 190.8 190.7 190.4 191.7 194 197.4 202.7 207.2 210.6 214.4 215.7 215.1 213.2 211 208.7 205.5 201.9 196.7 189.5 180.9 163.4 148.4 148.1 161.3 169.2 175.7 178.3 178.1 177.2 174.7 170.9 164.9 161.5 156.8 149.7 142.5 134.1 126.2 115.7 107.9 105 103.8 101.4 99.5 101.3 100 101.2 106.6 113.3 118.8 124.5 131.1 137 141.7 146.9 150.8 154.3 157.3 159.2 161.8 163.4 164.9 164.3 163.5 164.7 163.9 163.4 165 169.6 173.6 177 180.5 184 189.2 194.3 197.2 198.8 199.8 199.3 198.4 198.5 200.2 202.6 204.1 205.2 206.3 206.8 208 208.7 208.3 208.5 207.9 208.9 209.5 209.5 209.4 209.3 211.2 214.1 216.9 219.5 222.7 225.8 228 231.8 234 236.2 237.2 238.3 238.8 239.1 239.8 239.9 238.3 234.2 227.2 220.7 212 213.6 223.7 225.1 224.3 223.9 222.3 219.9 217.2 210.2 215.4 218.3 219 219.1 219.2 218.3 218.3 219.3 219.8 222.2 223.5 224.8 225.7 226.4 227.2 228.2 229.3 229.1 228.3 226.8 224.9 222 219.1 216 213.2 210.5 208.6 206.5 205.3 203.8 201 197.8 195.4 193.8 193.1 193.3 194.4 196.2 197.4 199.8 203 208.1 213.3 217.8 222.9 228 232.6 236.9 239.9 242.6 244.9
152.6 157 161.2 164.4 168.3 172.4 174.9 176.9 178.8 180 181.2 182.1 183.4 185 186.6 188.7 189.7 190.6 192 193.5 194.9 195.7 196.4 196.2 196 197.7 200.6 204.7 209.4 212.9 215.9 218.2 219.4 218.8 216.8 214.4 211.7 207.9 203.3 197.2 190.8 177.9 161.1 150.4 161.3 170.7 177.6 182.4 183.5 184.1 184 181.4 177.4 170.5 163.9 158.4 151 142.4 133.3 121.7 113.4 111.6 109.3 107.6 102.7 101.2 102.7 102.6 101.3 105.4 111.5 120.1 127.8 135.1 143.4 150.2 156 160.8 164.3 166.3 168.1 170 171.7 173 173.9 174.3 174.1 174.7 174.3 175.3 178.7 182.3 185.8 189.2 192.6 197.5 200.2 203.1 204.3 204.6 204.1 203.6 204.1 205.7 207 207.3 207.8 209.1 210.3 210.9 210.9 210.8 211.1 211.3 212.1 213 213.8 214.3 214.7 215.3 218.3 220.7 222.9 225.6 228.3 230.9 232.9 235.2 237.7 239.4 240 240.2 240.1 240.4 240.1 237.1 233 227.7 223 214.4 217.3 225.2 226.4 225.4 224.2 222.9 220.3 214.8 218.9 221.6 222.8 223.6 224.8 226 225.4 224.2 222.6 221.6 223 223.9 224.5 225.2 225.9 226.7 227.4 227.7 228 227.3 226.3 225 222.2 219.4 216.4 213.7 211.3 209.6 208.7 207.9 206 204.2 198.6 195.6 192.3 192.8 193.6 195.3 197.5 199.7 202.3 206.5 211.4 216.3 220.9 226.3 231.2 235.5 239.3 242.5 245.8 248.5
156.1 159.8 163.9 168.4 172.7 175.7 177.9 179.4 180.6 181.4 182.8 184.2 186.1 188.1 190.1 192.4 193 194 195.2 196.7 198.4 199.4 200.8 201.6 202.3 203.7 207.2 211.3 214.6 217.1 218.9 220.5 221.5 220.2 217.7 215 212.1 208.8 204.3 198.3 185.5 171.7 158.2 161.2 169.2 177.2 183.2 187 188.6 188.7 187.9 185.9 182.7 176.8 168.2 159.2 151.2 141.7 126.8 120.3 118.6 117.3 112.9 109.5 103.5 102.7 104.6 104.6 103.3 104.5 108.3 118.4 128.4 138.1 148.1 157 163.4 167.3 170.3 172 173.9 173.8 174.9 176.1 177.1 178 179.5 180.8 181.8 183 185.8 188.5 192 195.2 198.5 202.3 204.8 206.3 208.1 207.8 207.3 207.1 206.6 207.1 207.4 205.7 203.4 203.9 206.7 209.3 210.4 210.3 210 211.7 212.9 214.7 216.5 218.3 219.1 220.5 221.8 223.9 225.7 227.4 229.6 231.7 233.7 236.3 239 240.2 240.3 240.4 240.1 239.7 239.1 235.2 231.8 228.1 223.1 218 220.9 226.1 227.1 226.6 225 222.9 219.5 219.9 222.5 224.7 226.4 227.9 228.6 228 226.9 225.5 223.7 222.4 223 223.3 224 224.7 225.4 225.7 225.8 226 226.4 226.4 225.9 224.7 222.2 219.8 217 214.5 212.5 211.5 210.9 209.6 206.4 202.4 198.1 193.5 191.1 192.8 194.2 196.1 198.1 200.9 204.1 208.4 213.3 218.6 224 228.8 233.3 237.6 241.7 245.3 249 252
158.8 162.5 167.1 170.8 174.3 177.2 179.1 180.4 181.4 182.2 183.4 184.7 186.6 188.8 191.3 193.2 194.7 196.2 197.1 198.3 199.5 202.7 203.9 205.9 207.6 209.9 213.7 216.6 218.7 220.2 221.5 222.5 221.9 220.2 217.8 215.5 212.6 209.2 205.2 199.5 183.8 170 159.9 167.6 175.8 181.8 186.3 189.4 192 193.1 191.6 189.3 186.1 180.9 174.4 165.9 153.6 140.7 129.1 127 129 125.3 118.2 111 105.4 103.1 106.2 109.9 106.7 103.5 107 114 126.8 137.8 150.1 160.1 167 171.5 174.6 175.8 176.2 175.5 176.9 178.8 180.4 182.2 184 185.2 186.3 188.2 189.8 191.8 195.5 199.1 202.6 205.9 207.2 209.1 209.5 209.5 209.4 208.9 207.2 204.7 201.6 197.1 191.4 192 195.8 199.5 203.2 206.2 208.1 209.1 210.4 213.1 217.6 221.3 222 221.9 223.5 224.7 225.9 227.4 229.8 231.8 233.2 234.5 238.7 239.5 240.1 240.3 240.3 239.6 237.4 233.6 231.4 228.5 224.6 221 225.3 227.4 227.5 227.5 225.8 222.8 220.9 221.5 224.4 226.7 228.9 230.2 229.9 228.6 227.3 225.5 223.8 222.7 222.4 222.9 223.5 224.1 224.4 224.6 224.8 225 225.1 225.2 224.8 223.6 221.7 220.1 217.8 215.3 213.6 213.1 212.9 210.3 206.1 199.6 196 192.4 190.6 193.1 195 197 199.4 202.4 206.5 210.7 215.1 220.5 226.3 231 235.3 239.5 243.6 248.5 252.4 255.3
161.7 165.4 169.1 172.5 175.3 177.6 178.9 180.2 181.4 182.5 183.5 185.1 187.2 189.2 191.1 192.5 194 195.6 197.2 198.5 199.9 203.7 207 209.3 212.6 215.4 218.3 220.3 222 223.3 224 224 222.4 220.3 217.8 215 211.9 208.1 203.7 196.9 182.2 170.1 168.1 176 183.1 186.3 189.4 192 193.1 194 193.5 191.8 187.5 182.7 176.9 169.3 153.9 140.7 139.5 139.4 138.1 134.3 127.4 119 106 105.9 112 119 115.1 107.9 105.7 109.6 120.7 131.4 142.6 152.3 161.4 167.5 171.3 172.8 174 176.4 179.4 182.5 184.4 186.1 188.3 189.4 190.5 191.7 192.9 194.6 197.6 201.4 204.6 207.7 209.1 210.2 209.8 210 209.2 206.5 199.8 193.4 189.4 187.2 184.9 186.5 186.7 189.6 191.4 192.7 195.8 200.1 204 208.9 214.6 218.6 219.3 219.8 221.8 223.7 224.9 226.6 228.4 230.5 232.5 233.9 235.9 237.2 237.7 238.5 239 237.3 235.1 233.3 231.6 229.8 227.2 224.4 227.4 229.1 229.2 228.5 226.9 224.7 224.2 224 225.9 228.4 230.2 230.1 229.4 228.4 227.1 225.4 223.8 222.4 221.9 221.9 222.2 222.9 223.4 223.6 223.8 224 224.1 224.2 223.5 222 219.8 219.5 218.3 216.3 215.6 215.9 215.9 213 206.4 198.8 194.5 191.7 190.9 193.9 196.3 199.1 201.7 204.9 208.1 212.5 217.6 223.4 228.5 233 237.4 241.9 246.9 251.9 255.8 259.1
164.2 167.3 170.6 173.4 175.4 176.9 178.8 180.1 181.3 181.7 182.4 184.2 187.2 189 190.3 191.8 193.3 194.5 196.7 198.8 200.7 204.5 208.4 211.7 215.9 219.5 221.8 223.7 225.3 226.3 226.2 224.8 222.5 219.7 216.4 212.6 208.8 204.9 199.7 189.6 178.5 171.8 174.3 183.5 188.5 190.6 191.9 193.1 194 194.6 194.2 192.4 188.2 180.7 174.7 164.8 152.2 152.2 155.3 149.9 146.3 141.3 131.1 120.5 108.5 109 122.7 128.5 127.2 119.3 111.4 109.1 113.1 120.3 128.7 134.9 142.8 151.5 159.1 164.5 171.1 177.4 181.6 184.4 186.9 189.3 192.4 194.1 195.3 196.5 197.8 199.2 201 204.6 207.4 208.4 209.3 210.8 210.6 207.2 201.8 193.2 185.8 178.4 172.9 173.1 176.2 181 180.3 176 175.1 176.9 181.1 186.6 192.2 199.3 205 209.8 213.3 215.8 218 220.7 222.7 224.2 226.2 228.1 228.8 230.7 231.8 233.2 234.5 235.8 236.1 234.8 234.7 233.8 232.2 230.7 229.1 227.4 229.8 231.3 231.2 229.8 228.2 227.8 227.3 227.5 228.3 229.9 230.5 229.7 229 228.3 226.8 225.3 223.5 221.7 221 220.4 221.1 221.8 222.4 222.6 222.8 223 223.2 223 222.5 220.5 219.7 219.6 218.4 219 218.4 218.5 218.4 216 208.9 199.3 193.2 190.9 191.9 193.6 198.1 201.3 203.9 207.1 210.4 214.8 220.7 226.2 230.6 235.1 240.3 245.2 250.2 255.2 259.1 263.2
165.5 168.7 171.4 173.1 174.5 176.1 178.3 179.9 180.5 180.5 181.4 183.2 186.2 187.4 188.9 190.4 191.9 193.4 195.9 198.5 201.6 205.5 209.4 213.8 218.5 222.8 224.9 226.4 227.9 228.9 227 224.7 222.6 218.6 214.3 210.3 206.2 200.8 194.7 183.7 176.7 174.3 181.8 188.9 192.2 193.9 194.6 194.6 195 194.6 192.9 190.3 186.1 178.9 172.2 165.8 163.9 168.5 165.3 159 153.2 144.7 132.7 116.1 110.5 122.1 131.5 137 138.1 129.9 110.1 111.7 111 113.8 115.9 117.9 122.3 131.6 143.5 156.6 168 175.9 182.2 185.7 188.7 192.8 196.5 199 199.7 200.6 202.5 203.8 204.7 206.7 208.6 208.2 208 206.2 202.5 194.8 185.7 176.4 168.4 164 163.3 165 164.9 165.2 168.4 172.5 173.5 174.2 174.4 177 182 187.2 192.2 199 203.9 207.6 211 214.8 216.9 220.8 222.5 223.4 223.5 223.9 224.9 226.8 229.6 231.6 233.1 233.8 233.5 233.2 232.7 231.2 230.4 229.3 231.7 232.1 232.4 231.6 230.4 230.8 230.8 231.4 231.2 231 231 230 228.7 227.4 225.9 224.4 222.6 221.1 220.4 219.1 219.7 220.5 221.1 221.4 221.5 221.7 221.8 221.4 220.2 219.8 220 219.9 219.8 220.7 220.7 222.3 221.2 219 209.7 197.3 191.3 190.4 191.9 196.7 200 203.3 206.2 209.4 212.8 217.6 222.8 228.6 232.8 237.9 243.2 248.6 253.5 258.5 263 267.2
166.5 169 170.8 172.3 173.6 175.3 177.2 178.4 179.2 179.3 180.3 182.2 184.3 185.4 187.1 188.6 190.2 192.8 195.5 198.5 202.5 206.5 211 215.8 220.5 225.1 227.1 228.2 229.4 227.9 226 223.6 221.3 216.3 211.5 207.3 202.6 196.4 188 180.3 177.6 183 189.8 193.9 196.2 197 197.5 196.8 195.8 193.9 191.5 189 183.6 178.9 177.6 177 177.8 177.4 171.8 164.9 159.9 149.3 132.2 112 113.5 126.3 136.1 144.7 148.6 141.1 121.2 127.7 118.3 118.3 119.6 121.4 121.8 120.5 128 142.6 157.8 170.2 180.4 187.1 191.4 195.7 199.8 201.5 202.4 203.4 204.8 204.9 204.3 206 207.4 207.2 201.9 193.9 184.9 175.9 165.6 158.2 157.3 161.2 163.7 165.8 170 173 174.9 177.7 180.2 180.4 179.4 178.8 178.4 179.1 182.1 187.7 193.5 199.3 206.1 210.4 214 216.4 218 218.5 217.9 216.4 217.9 222.7 225.1 226.9 228.8 230.5 232.1 232.3 232.1 232.1 231.3 231.1 232.7 233 233.3 232.7 232.7 233.2 235.2 235.7 235.1 233.3 231.6 230.7 229.1 227.1 225.2 223.3 221.7 220.5 219.1 217.7 218.4 219 219 219.6 220 220.1 220.3 219.3 219.5 219.7 219.7 219.9 221 221.9 223.2 225.5 224.3 221.8 208.2 194.1 189.9 190.4 194.6 198.4 201.6 204.9 208.7 212 215.9 220.7 225.7 231 235.9 241.3 246.9 252 257 261.9 266.9 271.4
166.6 168.2 169 170.4 172.4 174.1 175.3 176.5 177.5 178.1 179.2 180.8 182 183.4 185.1 186.7 189.2 192.2 195.2 199.3 203.6 208.3 212.9 217.7 222.5 226.8 229.1 229.2 228.8 226.8 224.8 222.2 218.6 213.8 209.2 204.6 198.6 192.2 183.7 181.5 184.2 191.4 195.7 198.3 200.2 200.5 200.1 199.6 197.9 195.3 191.8 188.3 185.3 184.9 185.7 185.9 185 183.9 179.5 171.4 166.2 155.6 138.3 112.3 114.6 126.7 140.6 153.5 159.9 159.8 152 148 144.3 137.6 136.7 137.5 136.9 134.1 126.5 130.3 142.9 158.9 174.4 184.4 191.3 195.4 198.5 200.2 202.7 204 204.6 203.8 203.4 203.8 202.9 195.6 184.2 175.3 167.6 159.8 156.3 161.1 165.9 170.4 170 173.4 177.8 179.9 180.6 182 186.1 186.8 186.1 184.2 182.4 183.6 182.3 181.7 185.7 195.6 202.4 206.3 209.2 210.9 211.4 210.8 210.7 209.9 213.6 217.8 221 223.2 225.9 227.9 229.5 231.3 231.7 232.4 232.8 232.8 233.8 234.1 234.2 234 234.9 236.8 238.2 238.7 237.5 235.5 233.3 231.2 229 227 225 223.2 221.3 219.3 217.9 216.5 216.8 216.7 216.8 217.3 218.2 218.5 218.6 216.8 217.7 218.7 218.7 218.9 219.9 220.6 222.1 225.4 226.4 220 202.8 190.4 189.5 192 195.7 200.2 204.1 208 211.6 215.6 220.5 224.8 229.6 234.5 239.5 245.5 251.1 256.7 261.9 266.8 271.7 276.8
165.3 166.1 166.9 168.2 170.1 171.8 173.2 174.6 175.9 176.6 176.9 178.9 180 182 183.8 185.8 188.5 191.8 196.1 199.6 204.4 209.5 214.3 219 223.9 228.2 229.9 229.4 228 225.9 223.3 219.5 215.1 210.8 206.2 201.6 195.4 187.6 185.1 186.6 191.5 197 200.4 203 204.3 204.1 203 202 199.9 197.9 194.5 190.7 188.2 189.4 190.7 190.7 190.4 188.9 186.3 179.7 173.1 164.4 146.9 119.6 115 125.8 141.8 156.5 166.6 171.2 170.7 166.7 161.7 157.3 154.6 155.6 155.9 152.7 141.6 129.7 132.3 148.3 164.1 176.5 184.7 191.7 196 198.9 201.7 203 203.1 202.3 199.3 193.3 186.6 179.3 166.3 158.3 155.1 160.3 167.4 167.7 169.7 173 174.5 177.3 181.2 183.2 185.3 187.3 190.5 191.9 192.7 192.2 190.1 191.9 191.2 189.1 186.7 184.4 193.8 199.4 201.2 200.7 201 200.1 202.4 203.9 208.5 212.7 216.6 220.1 223 225.2 227 228.8 230.7 232.1 233.2 234 234.6 234.9 235.9 237.1 238.7 240.2 241.3 240.7 239.7 237.1 234.9 232.7 230.7 228.8 227.8 225.2 222.4 220 218 216.1 214.6 214 213.9 215 215.9 216.8 216.7 215.8 216.6 217.9 218.7 218.9 218.7 218.4 217.7 217.4 214.2 206.8 196 189.6 190.5 194.5 200 203.6 207.3 211.6 216.1 221.4 225.4 230.8 235.4 239.9 244.5 250.4 256.2 261.4 266.7 271.6 276.5 281.3
163 163.7 164.6 166 168 169.9 171.3 172.8 174 174.7 174.2 175.7 177.8 180.9 183.9 185.6 188.9 192.5 197.2 200.8 205 209.4 213.9 218.6 223.4 227.2 228.2 228 226.9 224.9 221.4 216.9 212.4 208 203.4 198.6 192.3 189.6 190.8 194.4 198.3 202.1 205 207.2 207.8 207.2 205.9 204.2 202.1 200 197.1 193.3 191.9 194.2 195.3 195.5 194.4 193.4 191 185.9 178.6 171.5 155.7 129.2 115 123.7 141.1 156.7 168.8 176.2 178.8 178.9 175.4 170.9 168.7 167.6 167.9 165.5 154.2 140.5 130.3 138.6 154.4 166.6 177.8 186 192.3 196.9 199.4 201 200.9 196.6 187.2 179.2 173.5 163.7 154.5 152.6 159.1 167.4 170.5 171 172.6 175.2 178 181.2 184.3 187.1 189.5 192.3 194.7 196.1 197.1 198.5 198.5 199.8 200 199.3 198.9 196.3 190.6 190.6 192.1 193.7 194.8 196.9 197.4 198.9 201.8 205.2 210 216.9 219.9 222.9 224.9 226.8 228.9 231.8 233.1 234.6 235.6 236.2 237.5 239.2 241.2 242.4 243.3 242.7 241.4 238.7 236.5 234.5 232.7 231.6 230.5 228.7 225.4 222.9 219.4 216.8 214.3 212.1 211.8 212.7 213.7 214.3 214.3 213.5 215.4 217 218.3 218.1 217.3 215.3 214.5 212.6 208.6 198 190.5 187.6 191.5 196.4 203.1 206.6 211.9 217.6 223 227.8 231.9 236.8 241.3 245.8 250.5 255.7 261.4 266.5 271.6 276.5 281.3 286.2
160.8 161.1 162.1 163.9 165.8 168 169.8 171.1 172.4 172.3 171.3 174.3 177.7 181.7 184.7 186 190.1 193.9 197.3 200.6 203.9 208 212.5 217.3 221.4 225.2 226.5 226.4 225.2 223.7 218.7 214.8 210.1 205.5 200.8 197.6 195.1 196 199.2 201.9 204.7 207.3 209.7 211.4 211.5 210.4 208.6 206.7 204.8 202.6 199.3 196.3 196 197.9 198.5 197.4 197.2 196.3 194.6 190.2 183.8 175.8 158.5 134 115.2 125 142.4 157.2 168.6 177 181.6 183.3 182.1 179.4 176.6 173.7 172.8 171.6 162.7 150 133.3 134.3 148.6 158.5 170.6 179.1 186.1 191.7 196.1 195.7 189.4 179.8 171.8 165.1 156.2 149.9 152.5 161.9 166.8 170.4 172.6 174 175.7 178.4 181.5 184.6 187.7 190.5 192.9 195.3 197.7 199 200 201 202.4 203.4 203.6 204.4 205.8 206.5 204.5 202.5 202.8 204.7 206.9 207.2 203.2 201.3 202.6 203.8 203.6 207.5 213.5 219.7 222.9 225 227.1 230.2 234.9 236.7 237.1 237.1 238.9 240.6 242.5 243.8 244.7 244.4 242.3 240.4 238.7 237 235.9 234.9 234.8 233.3 229.7 226.1 222.5 218 214.7 211.9 209.4 210.2 210.8 211.5 211.4 212.1 213.8 215.9 216.7 216.3 215 212.1 210.2 205.6 198.2 191.9 185.7 188.5 192.8 199.8 205.7 211.7 217.9 224.6 229.1 233.8 238.1 242.6 247.5 252.4 257.1 261.5 266.4 271.5 275.8 280.8 286.4 291.5
158.3 158.7 159.8 161.9 163.7 165.7 167.9 169.2 169 168.2 170.1 173.7 177 180.1 184.2 187.2 192.1 194.7 197.6 200.3 203.5 207.2 211.1 215.5 219.2 222.9 224.6 224.8 223.6 221.9 218.4 212.6 207.9 204.5 202.8 200.9 200.2 202.2 204.4 206.7 209.4 211.8 213.6 215.2 215.4 214.6 212.7 209.6 207.5 204.9 201.6 200.1 200.4 201.2 201.1 200.9 199.6 198.4 196.6 193.3 186.3 170.9 154.1 135 117.3 125.5 142.3 157.2 167.9 176.9 182.4 184.6 185.5 184.6 182.8 182 181.3 177.5 166.2 153.4 135.6 133.4 145.3 153.5 163.6 172.8 181 186.5 186.1 179.3 170.2 160.6 150.8 146.7 151 157.5 162.7 166.9 169.7 172.5 175.1 177.2 178.9 181.8 185 188.1 191.2 193.8 196.2 198.3 200.7 201.8 202.8 203.4 204.5 205.6 206.4 207.6 208.8 210.8 211.4 210.8 210.2 210.9 211.7 210.9 207.3 205.9 207.7 208.8 207.5 206.5 207 212.3 216.8 220.1 222.9 226.8 232.3 236.3 235.9 236.7 239.2 241.4 242.7 244.3 245.4 244.7 243.1 241.2 240.7 239 238.7 238.8 238.7 235.7 231.8 227.9 222.8 217.6 213.8 211.5 207.9 206.4 206.3 207.1 208 210 211.6 213.3 214.3 213.8 211.9 207.7 201.9 195.5 191 185.5 186.2 188.4 195.6 203.5 210 216.8 223.4 229.2 234 238.8 243.4 247.9 252.4 257.3 261.9 266.3 271.4 276.1 281.1 286.8 292 297.4
155.1 155.1 155.8 158.2 160.6 163.1 165.7 166.8 164.6 164.6 167.8 171 175.1 180 184.6 189.7 193.8 195.7 198.4 200.5 203.3 206.6 209.7 213.2 216.9 220.4 222.3 223 221.9 220.1 216.2 212 208.6 207.6 206.3 205.4 205.2 207.1 209.4 211.6 213.7 215.5 217.5 218.7 218.5 218.3 216.6 213.5 210.4 207.3 204 201.6 203.5 204.3 204.5 203.6 202.4 200.8 197.6 191.8 180.7 167.2 152 139.4 121 125.2 141.9 155.6 167.3 176.6 182.6 186.3 188.5 190.9 192.7 192.4 190.9 184.3 168 156.6 140 133.4 138.3 149.9 157.4 165.7 171.2 168.7 164.4 158.5 151 145.4 146.9 151.9 160.5 163.9 166.1 168.1 171.3 174.3 177.1 180 182.2 185.3 188.4 191.5 194.6 197.2 199.6 201.6 203.6 204.5 205.1 205.8 206.5 207.5 208.9 210.1 212.1 214.3 215.1 216 215.7 215.5 215.8 214.2 211.4 209.3 213.6 216.1 214.8 211.5 209.5 210.5 211.5 213.5 215.9 220.5 224.7 229.8 234 234.2 236.4 239.8 242.7 243.9 245 244.8 243.7 242 241.5 241.4 242.2 242.4 240.9 237.3 233.2 226.2 221.2 216 211.8 209.5 205.2 203.4 203.1 203.4 205.2 207.3 209.3 210.6 211 210.8 208.5 203.8 194.6 188.9 185.9 184.6 186.8 190.8 200.3 208.4 215.2 222.3 228.9 234.8 239.5 244.3 249 253.4 258 262.6 267.2 272.2 277.5 282.3 287 292.1 297.2 302.6
150.3 149.7 150.2 152.1 155.4 158 160.8 161.1 161.2 162 164.2 168.5 173.9 180.2 185.8 190.4 193.6 196.7 199.1 201.8 204.6 207.5 210.1 213.1 216.1 218 219.8 221.1 220.9 218.8 215.9 212.4 211.7 212.3 211.8 208.9 210.3 212.3 214.2 216.5 218.5 220.4 221.7 222.4 222.3 221.3 219.6 216.3 213 209.3 206 204.7 206.4 207.2 207 206.1 205.4 203.2 199.4 191 179.1 168.5 155.3 142.4 124.9 123.9 136.7 157.2 168.8 177.4 183.8 189.5 192.7 196.4 199 199.2 195.6 188.1 172.6 164.9 154.9 147.5 138.7 138.8 144.4 148 148.8 149.6 144.3 143.2 143.9 146 151.3 155.1 159 163.2 165.5 168.4 172.2 175.5 178.7 181.7 185 188.7 191.9 195 198 201.3 203.9 205.8 207 207.4 207.7 208.1 208.8 209.2 210.8 213.3 215.7 217.3 218.8 219.4 219.2 219.1 218.2 216.6 215.2 214 214.7 217.6 217.7 217.4 215.3 214 213.7 214.9 216.4 218.9 220.2 223 226.9 229.5 232.7 236.4 240.1 243 244.2 244.4 243.6 242.7 242.2 243.1 243.3 242.4 240.6 237.5 232.9 225.5 219.5 216 210.7 207.5 204.8 202.3 201.2 200.5 202 203.8 206.2 207 207.5 206.2 203.1 194.5 186.7 184.6 184.1 185.6 189.7 197.5 205.5 213.5 221.2 229.2 235.5 241.1 245.9 250.7 255.3 259.7 264.1 268.5 273.9 278.9 284.5 288.8 292.6 296.7 302.1 306.1
144.9 145.9 148 151 152.2 153.8 154.9 156.5 158.5 161.1 163.5 166.1 170.6 177.1 183.6 188.8 192.5 196.2 199.9 202.8 205.9 208.5 211 213.9 216.2 217.2 218.2 219.1 219.5 218.2 216.1 215.3 217.9 216.9 215.6 214.4 215 217.2 219.4 221.3 223.4 224.7 225.6 226.1 226.2 224.1 222.1 218.6 215.6 211.2 208.8 208.5 209.3 209.9 209.2 209 208.2 206.1 202 194.6 183.7 174.5 163 148.1 129.5 123.6 135.8 155.3 170.7 178.1 185.2 191.4 196.4 200.2 202.2 201.3 198 189.4 178.5 175.3 173.4 168.7 157.3 141 138.1 139.7 140.2 141.6 143.4 143.7 144.4 146.8 150.2 153.6 158.1 162.9 164.9 168.6 172.5 175.8 179.2 182.6 186.5 190.7 195 198.3 202.1 205.8 207.9 209.7 211 211.2 211 210.9 210.2 210.7 212.3 215 218 219.8 221.5 222.3 222.2 221.6 220.6 220 219 219.2 219 220.7 221.4 222 221.6 218.3 215.9 216.8 218.1 220.5 222.8 223.8 225.7 229.1 231.3 233.8 236.8 240.5 242.8 243.6 242.7 242.6 242.7 242 242.3 240.8 238.6 234.5 229.1 223.4 217.4 212.4 207.5 205.4 203 200.4 198.5 197.6 198.1 199.7 201.9 203.2 203.4 201.6 195.7 186.3 183.4 183.3 185.5 188.7 196.3 204.2 211.5 219.8 229 235.7 241.6 246.2 251.2 256 260.7 265.6 270 275.1 280 284.8 289 293.1 297 300.9 305.7 309.9
147.7 151.1 154 155.2 154.2 155.1 155.8 156.6 158.7 161.3 163.6 165.8 168.5 171.5 178.8 185.9 190.6 194.6 198.7 202.2 205.5 208.9 211.7 214.2 215.4 216.3 217.3 218.3 218.9 218.9 217.6 217.9 219.6 220.4 219 218.9 219.5 221.6 223.8 226.1 227.7 228.6 229.5 229.9 229.5 227.4 225.2 222.8 218.3 215.5 213.6 212.3 212.6 213.2 213.7 212.5 211.1 208.3 204.5 199.5 193.2 184.3 170.6 151.4 134 124.1 133.8 152 171.2 179.4 186.2 192.5 197.4 200.1 201.1 199.9 197.5 192.5 188.3 185.7 187.4 179.4 162.8 149.3 143.4 148.7 152.9 153.3 151.2 149.4 148.6 148.5 148.1 151.6 155.9 160.5 164.2 168.2 172.9 176.4 180 183.7 188 192.1 196.6 201 204.9 209 210.5 212.9 214.4 214.7 214.9 214.4 212.2 212.1 213.8 216 220.1 222.3 224.1 225 224.9 224.1 223.4 223 224 223.9 223.8 224.3 225.3 226 225.9 222.2 219.1 220.2 222.1 224.5 225.9 226.6 227.7 229.9 231.7 233.6 236.1 238.4 241 242.6 242.5 242.3 241.4 240.5 239 237 234.2 230.1 224 218.8 213.8 209 205.5 202.9 200.3 197.8 195.9 194.7 195 195.8 198 199.7 200.1 196.9 188.3 182.6 181.7 185.3 188.5 195.7 203.1 210.7 218.5 227.7 234.7 241.5 246.2 251.5 256.9 261.3 265.8 270.8 275.8 280.6 285.3 289.9 293.7 297.4 301.3 305.2 309.2 313.5
156.9 158.5 159 158.2 157 157.7 158.4 160.6 161.6 163.4 164.8 166.5 168.7 171.9 175.7 181.8 188.1 193 197.1 202 205 207.9 210.6 213 214.4 215.3 216.3 217.8 218.5 219 219.5 220.1 221.1 222.5 222.6 222.9 223.9 226.3 228.6 230.4 231.6 232.5 233.3 233.6 233.2 231.4 229.3 226 222.6 221 219.3 217.7 216.2 216.6 216.6 215.7 213.2 210.4 206.4 200.9 198 190.9 175.9 154.7 135.2 126.4 132 148.2 170.6 178.1 184.3 190.3 195 197.7 199.5 199.1 197.1 194.4 191.8 191.5 191.2 179 161.7 149.8 153 162.7 164.3 161.3 157.2 154.8 154.1 153.1 151.8 150.7 153.5 156.5 162.5 166.3 173.3 177.6 180.6 184.1 188.6 193 198.6 203 206.8 211 213.6 216 217.8 218 218.3 218.1 215.2 213.6 215.4 217.1 221.3 224.9 226.4 227.3 227.4 227.3 226.5 226.5 228.8 230.1 230.6 230 229.3 228.7 227.5 225.6 222.9 225 227.5 230 230.1 229.6 231.5 233.8 235.5 237.1 238 239.6 241.8 243.1 242.6 241.7 240.7 239 236.9 234.6 232.4 227.8 223.5 217.7 212.3 207.6 203.5 200.3 197.8 195.5 193.7 191.9 192.2 192.1 194.5 195.7 193.1 187 182.4 181.4 184.5 188.8 195.1 202.3 209.1 216.7 226.1 234.5 241.8 247.4 252.5 257.5 262.5 266.4 271 275.9 281.1 286 290.7 294.7 298.4 301.9 305.5 309 312.9 317.5
162.5 161.9 161.9 160.8 159.7 160.4 162.3 165.2 167.6 170.9 174.7 177.7 178.2 178.2 179.5 182.4 187.6 192 195.8 200.4 203.4 206.6 208.7 211.1 213.3 214.4 216.1 217.9 218.5 219.7 220.7 221.4 222.6 223.9 225.1 226.5 227.7 230 232.5 234.2 235.4 236.4 236.8 237.1 236.7 235.3 232.9 229.9 227.3 225.9 224.6 222.4 220.1 219.3 218.6 218.3 216.8 213.3 209.6 206.3 201.9 193.6 178.1 157.3 135.4 129 135 151.8 170.8 177.7 182.9 188.3 193.2 196.5 198.1 198.4 196.9 195.1 193 190.2 186.4 172.9 158.3 155.9 163.3 167.7 167.9 165.5 161.7 159.2 157 155.5 155.1 154.8 153.9 154.8 159.2 166.4 173.2 177.8 181.2 184.7 189.9 194.9 199.6 205.1 207.6 211.2 214.9 217.7 220.7 221.8 222.2 222.4 221.2 218.4 217.4 219.5 222.9 226.3 227.8 229.1 229.3 229.5 229.8 231 233.7 235.5 236 235.9 235 233.2 231.2 228.1 227 229.4 232 234.8 236.3 234.6 237 240.3 241.8 242.4 243 243.5 244 243.6 243.4 242.3 240.6 238.9 236.5 235 232.7 230 224.2 217.6 211.8 206.9 202.7 199.3 196.3 193.7 191.6 189.4 188.5 188.1 187.6 187.6 185.1 182.2 181.2 184 189.1 194.1 201.4 208.5 216.2 225.6 234.8 242.8 248.9 254 258.5 263.1 268.5 272.7 278.1 281.9 287.8 291.9 296.4 299.8 303 306.5 310.1 314.7 319.8 323.9
165.1 164 163.1 163 162.7 163.6 166.4 169.6 173.1 177.3 180.8 184.2 186.9 189.5 189.1 189.1 189.6 191.9 194.9 198.6 202 205.2 207.8 210.3 212.5 214.4 216.2 218.1 219.4 220.7 222 222.9 224 225.2 227.4 229.5 230.8 233.1 235.5 237.7 239.2 240.1 240.4 240.5 240.5 238.4 236.2 234.1 232 230.6 228.6 225.4 221.5 219.8 218.6 219 218.5 214.7 211.5 208.6 203.4 194.4 177.6 157.1 139.3 130.5 138.9 159.9 174.2 178.9 183.3 190 193.3 195.6 196.8 197.2 195.8 194.3 191.1 186.9 179 171.9 165.1 167.2 169.5 171.2 171.5 169.3 165.4 162.8 160.9 159.6 159.2 158.5 158 157 157.2 162.4 171 177.8 182.6 186.3 189.6 195.4 198.8 203.7 207.4 211.3 215 218.4 221.2 223.2 224.8 225.7 226.9 227.5 227.3 226.9 227.5 229.1 230.4 231.8 232 232.4 232.8 234.5 237.5 239.3 240.6 240.2 239.4 237.8 235.3 231.3 231 232.7 235.5 239.2 240.5 241.7 242.6 246.6 248 249.2 249.5 249.7 247.9 246.3 244.4 243.3 241.5 239.7 238.4 236.8 233.9 231 226.2 219.6 214.1 207.9 203.1 199.3 196.6 193.3 190.3 187.9 186.3 184.7 183.9 182.6 181 180.3 182.3 187 192.3 199.8 207.9 216.6 225.2 233.2 241.6 248.4 255.1 260 264.4 268.7 274.4 280.4 285.5 289.9 294.6 298.7 302.4 305.2 308.2 311.5 316 320.7 325 328.5
165.6 164.6 164.1 163.9 164.9 168 171.2 174.2 178.6 182.7 186.5 190.1 192.2 194.2 194.1 193.3 193.4 194.3 197.2 199.9 202.3 205.7 208.1 210.7 212.2 215 216.8 218.6 220.4 222.3 223.7 224.5 225.4 227.7 229.9 232.2 233.9 236.3 238.6 241.2 242.8 244 244.4 245.6 245.4 243.4 240.9 239 238.4 236 231.6 225.5 220.5 217.5 215.9 214.4 215.1 214.6 212.4 211.1 204.9 191.2 168.9 148.5 133.5 134.8 147.1 165.9 175.2 180.3 185.2 189.6 192.8 194.4 195.3 196.1 195 192.9 189.9 186.3 181.7 176.8 175.4 176.7 176 175.2 177.3 174.6 171.1 169.9 168.2 165.5 164.2 164.4 162.9 160.8 161.7 163 164 172.9 180.9 186.9 190.6 195.8 199.6 203.8 207.8 211.3 215.1 218.8 221.8 224.6 226.7 227.6 229.6 231 231.9 232.5 232.7 233.3 234.3 234.9 235 235.5 235.6 237.5 240.2 242.4 244.2 243.6 242.7 241.7 239.3 235.3 235.2 236.5 239.2 242.2 244.4 246.2 247.8 249.5 251.4 252.5 253.5 253.9 252.2 251.4 248.9 245.4 243.4 242.4 240.9 239.1 236.2 232.5 228.3 222.2 216 209.7 203.6 199.3 195.7 192 187.9 186 184.5 183 181.4 179.9 180.1 180.5 185 191.3 196.1 207.5 215.9 222.7 230.6 239.1 247.6 254.8 261.5 265.9 270.1 274.6 280.9 287 291 296.6 301.6 305.1 307.9 310.6 313.5 317 320.6 324.3 328.4 331.8
164.1 163.7 164.3 166.1 169 172.8 176.2 179.6 184.5 188.8 191.6 194.1 196.2 197.3 197.1 196.9 197.4 197.8 199 201.6 204.1 206.5 208.9 211.1 213.5 215.7 217.5 219.9 222.3 224.3 225.5 226.3 227.7 229.9 232.3 234.6 237 239.4 242.1 244.7 247.1 248.7 250.5 252.1 251 249.4 248.4 244.9 242.5 239.4 233.7 225.8 219.3 214.7 210.8 207.3 208.6 211.9 210.9 207 191.8 174.3 154.1 138.7 133.8 143.3 160.6 169.5 176.2 181.5 184.9 188.4 190.2 191.5 194.3 194.9 194.2 193.9 192.8 192.9 189.3 183.9 185.3 185.4 181.4 181 181.9 180.1 178.5 177 175.5 174.6 174.3 173.6 172.5 168.8 164.8 166 169.7 170.5 174.6 181.9 190.1 195.6 201.3 205.6 209 212.1 215.8 219.4 222.7 225.8 228.3 229.5 232 233.6 235.1 236.4 236.9 237.5 238.1 238.7 238.6 238.4 239 241.1 243.4 245.3 247.4 246.9 246 245.2 242.9 240.1 239.4 240.7 243.2 244.7 246.9 248.9 250.1 251.7 253.6 255 256.1 256.5 256.6 256.4 254.6 252.2 249.3 246.6 244.6 242.2 239 235.1 230.2 224 218 210.6 203.8 198.6 193.3 189.9 185.6 184.1 182.6 181.2 179.7 179.4 180.3 184 190.2 197.4 206.9 214.2 220.9 227.5 235.7 244.3 253.3 260.7 266.9 271.3 275.3 280 286.4 291.8 296.5 301.9 306 308.9 311.3 313.7 316.9 320.3 323.9 327.6 330.6 333.3
161.6 162.5 164.3 168.1 172.2 176.4 180.2 184 187.1 190.6 194 196.4 198.4 200.3 200.2 200 200.4 201.7 202.6 203.4 205.9 208.1 210.3 212.5 214.7 217 219.4 221.7 224.1 226.3 227.4 228.9 231 233.1 235.2 237.4 239.1 242.4 245.1 247.8 250.5 253.1 257 257.4 256 254.7 252.7 249.1 244.7 240.2 234.2 225.7 217 211.3 204.8 200.6 202.1 202 200.3 191.4 176.9 160.4 141.4 135.7 143.8 154.5 165.2 167.8 171.4 174.7 177.8 181 185 188.4 191.9 195 196.7 198.7 199.3 196.7 194.4 191.8 193 192.2 192.1 189.9 188.2 186.9 185.4 184.6 185.2 184.8 184.1 183.3 182.6 178.3 170.5 171.6 177.2 178.6 177.5 176.4 188 195.6 202 206.5 209.9 213 216.4 220 223.5 226.7 229.8 231.6 234.2 236.2 238.2 240.4 241.6 242.4 242.8 243.4 244.3 244.8 245.3 245.9 247 248.3 248.8 249 248.8 247.7 245.8 243.8 243.4 244.8 246.2 247.5 249.5 250.9 252.2 253.8 255.8 257.3 257.8 259.2 259.1 259.1 258.2 256.1 255 253.4 250.5 247.4 243.5 238.3 232.8 226.9 221 213.8 205.4 198.2 193.1 188.7 185 181.5 180.5 179.6 178.9 179.8 184 190.7 196.7 204.2 212.5 218.5 224.8 231.7 240.7 249.2 257.4 265.2 270.5 275.3 279.3 284.3 290.8 295.3 300.7 306 309.3 311.7 313.9 316.5 320 323.6 326.7 329.5 332.2 334.7
159.6 161.8 165.2 168.5 173 177.8 181.8 185.2 188.1 191.5 194.9 198.3 201.1 202.5 203 202.9 203.8 205 206 207 207.8 210.1 212.5 214.9 217.3 219.6 221.8 224.2 226.6 228.8 230.3 232.5 234.8 236.9 239 241 242.6 244.8 247.9 250.6 253.2 255.8 259.6 260.6 259 255.2 252.6 248.6 243.8 237.9 230.6 221.3 212.6 203.4 195.4 192.1 193.2 193.1 188.3 178.5 162.5 142.1 137.8 138.8 144 148.7 153.4 158.9 165.2 171.1 176.2 180.1 184.6 189.4 193.6 196.9 200.3 202.1 202.9 201.5 199 198.8 199.2 200.1 201.2 199.5 195.6 195.7 195 194.1 195.4 195.4 193.2 191.6 189 185 179.4 176.9 187.8 190.8 189.8 188.4 186.9 192.5 200.4 205.4 209.2 212.9 216.8 220.6 224.2 227.6 230.7 233.6 236.2 238.9 241.2 243.7 245.9 246.8 247.7 248.8 249.7 250.6 250.8 251 251.3 251.4 252.1 252 251.1 250.4 249.3 247.5 247.9 248.9 249.9 250.9 252 253.3 254.4 256.1 258 259.5 260.4 261.1 260.9 260.5 260 259.1 257.8 256.2 254.6 250.9 247.1 242.4 238.2 232.3 225.3 217.3 207.2 199.1 193.7 189 185 181.7 179.5 178.6 179.1 182.9 190 196.4 202.5 207.7 214.7 220.8 227 235.3 243.5 251.5 260.2 267.9 273.3 278.1 282.8 288 293.3 298.6 304.3 308.1 311.7 314 316.4 319.2 322.2 325.7 328.3 331.1 333.8 336
158.9 162.4 165.8 169.2 173.1 177.7 181.8 185.2 188.8 192.3 196 199.7 203 205.1 205.2 205.6 206.1 207.1 209 210.2 211.5 213.2 215.1 217.4 220.2 223.4 225.8 228.2 230.8 232.7 234.1 236.3 238.6 240.8 242.6 244.4 246.2 248.1 250.7 253 255.3 258.1 261.2 262.7 260.1 255.6 251.2 246.8 240.6 232.7 226.2 220 213.2 204.9 189.2 181.9 177.5 173.1 166.6 157.2 146.2 141.8 137.4 144.1 153.6 159 163 167.3 172.3 177.3 182.3 186.4 190.5 193.4 197.1 200.3 203 205.2 206.4 205.5 205.6 205 204.4 206.2 208 207.5 208.6 209.1 207.6 205.9 205.2 202.7 201.3 199.7 196.8 193.4 188.2 181.8 192.2 197.7 199.9 204.2 203.5 199.4 196.4 201.9 207.7 211.9 216.8 220.8 224.2 227.8 231.2 234.3 237.6 240.5 243.9 246.9 249.6 251.3 252.4 253.3 254 254.1 255 255.5 255.2 255.1 255 254.8 254.3 253.4 252.3 251.5 252.4 253.3 254.4 255.3 255.9 256.6 257.8 259.8 260.5 262.1 262.9 263.1 262.7 262 261.4 260.2 259.4 258 256.3 253.6 249.6 244.6 239.5 234.6 229.3 221 211.3 201.9 196.1 192.8 188.3 181.7 178.6 177.8 182.7 190.7 196.1 202.1 205.6 209 215.8 222.4 229.1 237.7 246.1 254 262.3 270 275.6 280.5 285.6 290.4 295.7 300.9 304.8 308.9 312.8 316.3 319.2 322 324.8 327.5 329.8 332.5 334.3 335.8
159.5 163.4 167.2 169.9 173.9 177.9 181.8 185.2 188.7 192.3 196.4 200.5 204.5 206.6 206.3 207.1 208.4 209.1 211.1 213 214.7 216.2 218.3 220.6 223.2 226.8 229.9 232.5 234.7 236.4 237.9 240.1 242.1 243.7 245.9 248.1 249.1 250.9 252.6 255 257.3 259.6 261 260 257.2 253 247.9 242.6 236.5 231.1 225.9 219.9 211.9 205.4 194.2 179.2 171.3 163.9 155.5 147 146 143.7 138.6 148.2 159.9 166 171.1 175.7 180.8 186.1 190.3 193.5 195.1 198 200.4 203 205.5 207.7 209.7 210.6 211 211 211.1 212.8 214.5 218.4 218.4 218.1 216.5 215 212.7 210.8 209.1 207.7 204.2 200.1 194.9 186.7 197.7 203.2 207 211.7 214.9 212.2 205.2 199.7 205.7 211.1 216 219.9 223.6 227.2 231 235.3 238.8 242.9 246 248.9 251.3 252.8 254 255.6 256.2 257.1 258.3 259.4 260.1 259.8 259.4 258.9 258.4 256.9 255.8 255.5 257 258.5 260 261 261.9 261.9 263.6 263.8 264.8 265.2 265.3 265 264.2 263.2 262 260.6 259.9 259.2 257.6 255.1 252.2 246.9 240.5 234.9 228.5 221.5 213.1 204.7 204.9 203.2 199.9 188.6 179.8 177.5 182.8 190.2 196.9 202.3 205.2 209.1 216.4 223.8 230.9 238.2 246.8 256.4 263.6 271.2 277.1 282.6 287.2 291.8 296.2 301.7 305.8 309.7 313.5 316.6 319.6 322.5 325.2 327.9 330.6 332.5 334.1 334.2
160.3 164.5 168.8 172.2 175.5 178.5 181.7 184.9 188.1 192.1 196.2 200 203.7 205.9 207.7 208.5 210 211.1 213.1 215.9 218.5 220.4 222 224.2 227.3 231.8 234.8 237.3 239.1 240.7 242.2 244.1 246.3 248.4 250.5 251.6 252.5 253 254.4 256.5 258.3 259.1 259 257.3 254.2 249.4 244 239.8 234.8 229.2 222.3 216.3 210.7 204.5 195.3 181.8 169.3 158.3 150.9 151 153.4 154.1 142.8 148.3 162.7 170.1 176.1 181.6 186.8 191 194.8 197.3 199.3 201.5 203.6 205.5 207.9 211.1 213.5 215.2 215.9 216.4 217.8 219.2 221.9 223.5 223.9 223.5 222.8 221.7 221.4 219.5 217.5 215.4 211.2 207.1 199.7 190.9 200.5 207 211.8 215.9 218.3 219.2 214.9 210.1 202.2 207.7 212.8 217.1 221 225.1 229.4 233.7 238.1 242.8 245.9 249.1 251.8 254.1 255.5 258.2 260 261.1 261.3 262 263.5 264.8 265.4 264.3 262.9 261.3 259.8 259.7 261.2 263.2 264.6 266.1 267.7 268.3 269.2 269.4 270.7 269.3 268.5 266.4 265.3 264 262.3 261.1 260 258.8 257.4 255.4 253.1 248.9 243.2 235.8 228.2 221 215.3 211.5 213.2 211.3 206.1 196.6 184.1 177.7 178.3 187.8 194 200 204.2 208.5 216.2 223.9 231.7 239.2 248 257.5 264.1 271.3 277.4 283.2 287.8 292.1 296.5 301.7 305.9 309.7 313.3 316.4 319.8 322.4 324.7 327 329.2 330.8 331.6 331.8
160.3 165.6 171.2 175.4 178.1 181.2 183.7 186.6 190.3 193.5 196.8 200.4 203.5 205.7 208 210 211.8 213.7 216.1 219 222.7 225.1 226.9 228.9 231.7 236.3 240.1 242.5 244 246.4 247.8 250.4 252.4 253.5 255.4 256 256.5 257 257.2 256.7 257.1 257.1 255.6 254 249.4 245.5 241.7 237.5 232.1 225.5 217.5 209.5 201.5 194.8 183 170.7 161.4 156.5 157.7 160.8 162.9 161.4 151.9 145.5 158 169.6 177.2 183.8 189.3 193.5 196.7 199.6 202.1 204.4 206.8 208.9 210.5 213.9 216.4 218.5 220.3 221.3 222.8 225.2 227.4 228.3 228.8 228.9 228.6 228.7 228 227.3 225.3 223 219 214.7 207.3 194.9 201.1 209.8 214.9 218.9 221.3 223.6 223 219 213.7 209.7 207.7 213.3 217.3 221.8 226.5 231.1 235.9 241.8 244.8 248.3 250.7 254 256.9 259.5 260.9 261.9 263.1 264.4 266.2 267 268.6 268.8 267.2 265.5 263.8 264.1 265.1 266.9 269 271 273.3 274 274.9 275.6 275.9 274 271.9 268.8 267.1 264.7 262.2 260.7 259.4 258 256.4 254.8 252.9 250.3 245.9 238.6 231.1 224.9 220.6 218.4 217 213.8 208.3 200.8 190.3 178.3 176.6 185 191.6 197.8 203.6 207.5 214.8 223.5 231.9 240.4 249.3 257.6 264.4 270.5 276.9 283 288.1 292.2 296.8 301.4 305.1 308.4 312.1 315.3 317.7 320 322.3 324.6 326.3 326.8 327.5 326.9
161.8 167.9 173.8 178.7 182.1 185.3 187.4 190 193.6 196.5 199.1 202.8 205.8 208.7 211.6 213.9 215.8 218 220.8 224.7 228.4 231.9 234.1 234.5 237.4 241.1 245.5 247.7 249.8 252.2 253.1 256.1 257.9 259.1 259.9 260.3 260.6 260.2 260 258.9 257.7 254.6 252.6 249.5 246.6 243.6 239.5 233.4 226.7 217.7 209.7 202.5 195.1 183.4 170.4 164.1 163.5 166.4 169.9 170.9 170.2 167.6 158.1 144.4 153.8 165.4 177.5 184.9 190.7 194.7 198.6 201.6 204.5 207 209.3 211.7 213.6 215.8 218.3 220.5 222.8 224.6 226.7 229.7 231.1 232.2 233 233.5 233.2 233.7 234 233.6 232.9 231.3 229 224.2 216.6 202.8 199.8 211 216.7 221.2 224 226.5 228.3 225.6 223.6 219.6 216.2 210.3 213.6 218.7 223.4 228 233.1 238.2 241.2 245.6 249.8 253.5 256.9 258.8 260.6 262.3 263.5 265.2 267.5 269.5 271.2 272.1 270.5 268.8 267.7 267.8 269.9 271.6 274.7 277.2 278.9 280.7 281.8 281.3 280.9 280.5 277.3 271.7 268.4 265.6 261.9 259.5 257.9 255.9 254.9 253.4 252.2 249.9 246.9 242.1 234.9 228.9 225.1 222.5 219.1 216.3 211.9 205.5 193.9 179.1 174.1 182.9 191.1 197.1 202.5 207 214.5 223.6 233.1 241.6 250.3 257.4 264.2 270.4 276 281.8 287.2 292.3 296.3 300.1 303.7 307.2 310.2 312.6 314.8 316.5 318.2 319.7 321.2 321.7 321.5 321.1
164.1 170.1 177.2 182.7 186.1 189.3 192.7 195 197.2 200.2 203.5 207.2 209.7 212.5 215.3 218.1 222.2 224.3 227.2 230.6 235 238.9 242.1 244.2 244.4 247.1 250.9 253.4 255.7 258.1 260.6 262.1 263.5 264.5 264.7 264.5 264.3 263.3 262.2 261.1 258.6 254.8 250.4 246.7 243 238.9 232 227.5 221.1 214.1 206.8 198.9 186.9 175.2 171.1 174 178.4 178.8 179.6 178.8 177.6 174.8 166.5 149.6 152.5 162.8 175.2 183.9 190.7 194.7 199.9 203.7 206.5 209 210.9 212.9 215.3 217.7 220.3 222.6 224.9 227.6 230.1 232.8 234.6 235.6 236.8 237.6 237.4 237.8 238.8 239.1 238.8 237.6 235.9 233.1 226.9 213.8 197.4 209.4 218.9 223.5 225.9 228.3 230.3 229.9 227.4 224 221.2 218.3 216 215.7 217.9 222.4 228.6 234 238.1 242.9 248.6 253.1 255.8 258 260.1 261.5 263.7 265.8 268.7 271.2 272.9 274.1 273.9 272.7 271.5 271.3 273.8 276.3 278.5 281.2 283.3 285.3 287.2 286.2 287.5 287.2 284.6 276.6 269.8 265.8 261.9 257.9 256.1 254 253.1 252.1 251 249.1 247.1 243.9 238.5 231.9 228.2 225.3 222.6 219.4 215.7 210.7 197.8 182.4 172.3 181.5 190 196.3 202.4 208.3 214.3 223.6 234.2 242.6 250.1 256.2 263.6 270 274.9 280.1 286.3 290.7 294.8 298.4 301.5 304.6 307.1 309.1 310.6 312.1 313.2 314.7 315.5 315.3 315.4 315.3
169.1 173.4 180.1 187 192 196.8 199.4 200.8 203.8 206.7 210.4 212.6 214.9 217.7 220.7 224 227.8 232.2 235.6 240.1 243.9 246.9 249.3 250.5 250.9 252.3 255.5 258.4 261 262.6 265.2 267.6 269 270 269.8 268.6 266.5 265.5 264.4 262.7 259.8 255.9 251.2 244.6 238.3 233.8 228.9 223.6 216.8 208.3 199.7 190.3 181.9 178.5 183.7 187.4 188.9 187.9 186.9 185.4 184.3 181 173.7 157.2 152.4 162 174.1 183.2 190.4 195.4 200.8 204.3 207.2 209.3 211.2 213.3 215.9 218.5 221.3 224.1 226.8 229.4 232 235.1 237.3 238.7 240 241.4 241.8 242.2 242.8 242.8 242.5 241.4 239.7 237.3 232.9 221.2 203.2 208.6 220.2 225.2 227.7 230.1 231.8 232.3 231.3 228.7 225.7 222.9 223.3 224.6 225.4 224 227.4 228.3 235.8 241.6 247.3 251.1 254 256.6 258.6 260.7 263.3 266.1 268.7 271.7 273.9 275.2 276.1 275.6 275 275 276.4 278.6 281.6 284.1 287.2 290.1 292.6 295.7 295 293.7 289.7 282.5 272.6 265.1 261.2 257.2 254.1 252 250.4 249.6 249 248.1 246.2 244.4 240.8 235.2 230.2 227.2 225 222.4 218.6 214.6 202.7 186.4 173.2 180 188.9 195.6 201.8 208 214.6 222.9 234.4 243.4 249.5 255.6 262.2 268.9 274.2 279.4 284.7 289.1 293.1 296.1 299.1 301.5 302.9 304.1 305.5 306.8 308.2 309.7 309.6 310 310.3 310.2
176.7 182.5 186.7 191.3 196.1 198.9 201.7 206.2 208.3 211.5 214.5 217.5 220.1 223.3 226.5 229.8 233.7 239.5 244.3 249 252.6 253.6 255 256 256 257.1 259.6 262.5 265.7 267.2 269.3 271.6 273.5 274.4 274.5 273.2 270.6 267.9 266.6 264 260.6 256.8 251.4 245.1 239.1 233.2 227.6 222 210.4 203.5 196.3 189.7 188.6 190.1 192.5 194.5 194.8 193.9 192.8 191.8 190.2 186.4 179.6 164.1 151.4 161.1 173.6 182.5 190 195.6 200.4 204.1 207.1 209.6 211.7 213.7 216.4 219.1 221.8 224.4 227.6 231 233.8 236.9 239.7 241.6 243.3 244.7 245.3 245.7 245.9 245.7 244.8 243.5 241.4 238.5 235.1 226.9 209.6 207.6 219.5 226.4 229.4 231.9 233.4 234.2 234.8 232.9 231 228 229.1 229.3 230.1 230.6 228.7 235.8 239.3 241.1 246.4 250.1 253 255.7 258.3 260.9 263.6 266.1 269 271.4 273.7 275.7 276.6 276.7 276.8 277.1 278.8 280.7 283.8 286.1 289.8 294.8 301 304.9 303.5 300.1 294.6 288.1 278.3 265.4 260.7 256 252.8 249.7 247.9 247.4 246.9 246.2 244.7 243.2 240.8 237.4 232.9 229.3 226.9 224.7 220.8 216.2 209.6 190.5 174.4 176.7 187.3 195.2 201.5 208.2 214.9 223.8 234.3 243 249.3 254.7 260.8 267.1 272 277.8 282.4 286.9 290.2 292.9 295.4 297.2 298.1 299 300.3 301.6 302.7 303.8 304.2 304.9 305.2 305.1
181.7 189.7 194.2 197 199.8 203.4 207 210.2 212.8 215.6 218.5 221.5 224.8 228.2 231.7 235.2 239.4 243.6 247.8 252.2 255.6 258.6 260.2 260.5 261 261.9 263.4 265.9 268.3 270.4 272.4 274.3 276 277.1 276.6 275.6 273.7 271.2 268.2 264.7 261.3 256.2 250.6 245 239.1 232 226.2 220.2 211.5 205.6 199.2 199.6 198.7 200.5 201.6 200.7 200 198.4 197 196.8 195.3 191.2 183.8 169.4 154.2 160.2 169 180.5 189.7 195.2 199.5 203.6 206.6 209.2 211.7 214.1 216.7 219.4 222.1 224.7 228.1 231.6 234.7 237.9 240.7 243.6 245.7 247.3 248 248.3 247.7 247.1 246.2 244.5 242.3 239.6 236.6 230 216.7 206.9 219.2 226.7 230.3 233.3 235.2 237 238.6 238.1 235.6 231.5 232.4 233.4 234 235.2 235.4 239 242.6 244.7 246.9 250.4 254 256.5 259.6 263 265.5 267.3 268.6 270.7 273.1 275 276.1 276.5 276.6 277 278.8 280.6 287 287.2 291.1 295 311.5 317.7 311.7 306.1 300.2 292.5 284.5 271 259.7 254.9 250.8 247.1 245.4 244.7 244.4 243.9 243.1 241.4 239.8 238 234.7 231.7 228.7 226 221.6 216.5 212.7 198.6 177.9 173.5 183.6 193.9 201.6 208.3 215.7 224.3 233.6 242.9 248.4 254.3 260 265.6 271 275.5 279.9 283.8 286.9 289.2 290.7 291.8 293 294 295.2 296.4 297 298 298.8 299.5 299.8 299.4
192.2 196.8 199.5 201.1 202.9 206.4 209.6 212.9 215.9 219.2 222.6 225.9 229.3 232.4 235.9 239 243 247.3 250.7 254.7 258.1 260.7 263 263.8 263.7 265.1 266.4 268.2 270.6 272.7 275.1 277 278.3 279 278.6 277.2 275.3 272.6 269.4 265.4 260.3 255.5 250.3 245.1 237.9 231.6 225.7 221.9 217.5 213.5 211.3 209.6 209.9 211.1 210.1 207.7 205.6 203.4 201.1 200.1 197.6 192.2 183.7 168.4 158.4 158.1 165.9 179.8 189.5 196 200.2 203.4 206.2 208.6 211.1 213.5 216.6 219.3 222.3 225 228.3 231.6 234.9 238.2 241.6 244.7 247.3 248.7 249.2 249.4 249.2 248.4 247 245.1 242.7 240.2 236.3 231.5 223.8 211.3 218.5 226.5 230.5 234 236.3 240 241.3 240.7 237.7 234.8 235.9 237.2 237.7 239.4 240.9 242.7 245.6 247.9 250 252.3 255.4 258.8 262.1 265.3 267.4 269 270.1 271.4 273.1 274.1 275 276.1 276.3 277 278.7 279.9 282.2 285.2 289 294.7 310.8 330.4 318.5 312.5 303.6 295 287 275.9 259.6 253.5 249.2 245.8 243.5 241.2 241.5 241.2 240.6 239.1 237.5 236.1 235 232.8 230 226.1 220.5 215.8 212.2 201.4 184.6 170 180.3 191.3 199 207.7 216.5 223.8 233.4 241.2 247.4 253.7 259 264 268.6 272.8 277 280.2 283.3 285.2 286.2 287.1 288.1 289 289.7 290.1 291 292.3 293.2 293.8 293.9 293.4
