ncols 200
nrows 82
xllcorner 320000
yllcorner 620850
cellsize 50
542 534.6 528.9 529 531.1 531.7 529.4 521.2 516.3 513 509.4 506.8 505 503.9 502.5 501.4 499.3 495.9 491.4 487.4 480.9 474 468.3 458.7 446.7 428.7 406.1 393.5 408.4 427.5 439.8 445.2 447.8 445.9 447.9 455 460 462.3 465.9 474.6 490.5 506.8 522.6 535.2 544.9 553.9 561.7 569 574.3 578 577 574.2 572 566.4 555.8 538.8 524.2 508.5 495.9 487.6 479 471.5 467.7 469 475.5 477.2 477.4 475.3 471.5 469.9 470.5 472.4 474.9 477.5 480 484.8 489 489.5 488.8 485.3 476.8 459.9 448.4 449.3 446.8 442.2 438 432.4 427.2 421.4 416.1 411 406.6 401.4 396.3 392.5 392.6 394.4 395.8 392.4 387.1 381.8 377.9 373.1 365 357 350.1 344.4 340.9 335.7 331 325.6 318.5 310.7 314.6 304.7 290.4 288 304 328.2 352.6 366.9 368.4 369.7 365.2 357.1 348.5 339.4 333.2 325.6 318.3 312 306.5 301.3 297.3 292.8 284.4 297.4 298.2 298.5 303.4 319.7 332.6 339.5 340 346.7 355.3 355.6 356.3 364.6 369.5 366.8 362.3 358.4 355.5 353.3 353.4 352.1 352.9 355.5 358.9 362.9 362.2 359.7 355 348.5 340.2 333.1 325.8 319.1 312.1 305.5 298.4 292.8 287.8 282.5 275.4 267.7 260.1 253.9 246.6 248.4 248.3 252.1 256.4 258.8 262.3 265 266.5 266.5 266.1 265.3 264.6 263.6 265.1 265 264.5 265.5 265.9 265.8
541.2 532 526.7 522.4 523.4 525.4 522.1 518.1 515.3 511 508.2 505.6 503.9 502.9 502.1 500.6 497.6 494.7 491.3 488.2 484.1 478.6 471.8 463.3 453.7 436.9 415.4 392.8 395 409.5 422.5 430.3 430.3 431.5 439.6 445.1 448.1 451.9 456.5 475.5 490.6 505.3 519.1 530.3 540.4 550.3 559.2 566.2 572.2 574.6 573.5 573.1 571.6 566.4 554.5 539.9 525.7 512.9 501.2 489.9 478 466.8 461.2 459.8 464.3 469.2 470.1 470.1 466.4 465.6 466.6 469 473.3 477.6 481 486.4 490.5 491.3 491.9 489.7 484.3 474.1 458.4 440 432.9 425.5 421.3 414.4 407.6 401.6 396 391.4 387.3 381.9 377.8 374.9 371.4 370.1 370.1 369.1 366.1 362.2 359.4 355 349.6 346.3 342.1 339.1 332.9 324.7 329.4 327.9 326.6 318.9 300.7 300.5 298.4 290.6 286.8 303.8 324.7 335.2 346.5 350 346.6 340.4 332.3 324.2 318.1 313.2 307.2 303.2 299 295.2 291.1 283.9 288.9 293 293.4 293.8 297.7 305.7 308.9 311.8 315.5 320.7 324.1 324.8 324.7 332 340.3 341.2 339 336.3 334.2 333.1 336 336.5 337.3 340.6 343.2 344.9 346.4 344.9 341.9 336.4 329.6 323.3 317.7 312.1 305.6 300.4 295.6 290.1 284.9 279 271.6 263.1 257.2 253.6 248.6 247.9 247.3 247.5 250 250.2 251 254.4 258.3 259.6 259.3 258.9 258.8 258.8 259.9 261 263.2 264.6 265.1 265
539.4 533.1 529.3 522.9 516.5 518.9 519.6 517.5 511.6 507.8 506 503.4 501.3 500.7 499.3 497.8 495.5 493 491 488.5 484.9 479.4 472.6 464.7 454.4 442.8 424.2 403.3 382 391.1 402.5 411.9 413.4 423.3 428.7 431.9 436.1 445.1 461.1 475.4 489.3 503 515 525.5 538 547.5 555.7 563.8 568.8 570.2 569.8 571.2 570.5 564 554.2 542.2 530.6 517.9 507.5 495.6 480.6 470 456.8 452.5 453.8 459.6 461.2 461.7 461.3 460.9 461.8 467 472.7 478.3 483.7 488.1 491.7 493 493.1 490.7 484.9 476.8 466.2 448.1 433.5 421.8 411.4 410.6 410.7 412.5 411 408.4 400.9 393.3 386.5 379.3 372.4 367 362.4 358.1 355.5 352.1 349.9 347.5 344.1 339.7 334.2 334.6 343.2 348.2 350.1 348.2 342.7 332.8 322.2 314.5 302.7 289.3 286 294.3 302 307.9 318.7 325.9 324.9 319.8 313.5 308.5 303.8 299.4 296.3 294.1 291.8 288.7 287.9 279.3 288.2 288.7 288.9 288.2 289.3 292.3 293.2 292.5 295.1 296.4 297.3 297.6 300.1 307.1 315.8 317.2 315.7 314.5 314.8 315.1 317.7 319.9 321.3 323.3 325.4 326.2 328.1 327.9 325.5 322.6 317.1 312.7 308 303.1 295 293.2 290.4 286.4 282.2 277.4 271.7 264.9 254.7 251.3 247.6 246.6 246.4 246.3 253.2 254.2 252.1 247.8 249.2 250.1 252.1 252.8 253.2 254 255.1 257 259.4 260.3 259.9 261.9
539.7 537 529.7 520.2 513.6 512.5 514.2 510.4 506.5 504.4 502.2 499.7 498.1 496.8 495.7 494.9 493.9 492.3 490.3 487.9 483.5 477.6 471.5 464.4 455.1 444.9 429.8 412.6 389.3 377.8 387.5 393.8 403.7 410.2 413.9 414.7 440.4 458.1 472 482 493.1 503.3 514.3 526.2 536.3 545.7 553.7 559.9 563.9 564.7 566.1 568.2 566.4 560.5 552.3 543.4 531.1 521.2 511.8 500.9 482.9 471.5 462.4 443.5 445.1 447.9 452.2 453.8 454.4 454.6 460.3 467 473.4 479.6 485.6 489.2 493.7 493.7 493 489.7 483.6 476.1 465.4 454.2 442.1 425.2 424.7 429 433.9 435.5 432.8 427.5 421.2 414.3 407.7 399.1 389.2 380.9 374.2 367.9 363.8 360.3 357.4 355.1 351.6 353.7 357.1 362.8 368.4 373.4 374.8 367.7 357.5 344.4 330.6 319.5 310.2 292 284.5 285.9 293.4 297.3 300.4 303.6 302.6 298.8 295.5 293.9 292.1 289.9 287.7 288.5 285.3 286.1 286.1 277.9 285.1 284.9 284.3 283.4 283.3 282.8 281.2 280 281.8 284.3 284.7 285.6 285.1 288.3 292.5 293 293 293.8 295.1 295.8 297.2 298.9 302 304.1 305.8 307.4 309.3 310.3 307.8 304.7 301.2 298 293.9 289.2 286.3 286 285 283.3 280.3 276 269.8 262.9 254.6 248.4 246.2 245.6 245.5 245.4 255.8 257.9 256.3 248.8 247.1 246 245.8 245.6 246.9 248 249.6 251.4 253 254.7 255.5 256.4
543.2 538 525.5 518.1 511.7 506 509.2 507.6 505.2 503 498.9 496.8 495.8 495.1 494.3 493.5 492.6 491.5 489.5 485.6 480.6 474.9 469.1 462.8 454.6 444.5 431.4 415.9 397.9 373.8 379.2 383.8 390.5 396.8 407.1 438.9 457.6 471.8 482.1 490.2 496.8 505.3 516.8 525.9 535.3 543.5 549.5 554.3 558.4 559.5 562.1 562.9 560.4 555.5 549.6 540.5 530.9 522.8 514.4 503.3 485.2 470.4 462.5 449.7 431.4 439 442 445.1 445.3 450.8 460.5 468.1 475.7 483.1 487.5 490.6 494.1 492.8 490.5 487.9 482.3 474 464 453.2 440.7 438.6 443 450.5 456.5 456.9 451.6 447.7 441.7 431.7 423.8 415.7 408.8 400.8 393.3 385.4 380.3 375.2 372.4 372 373.5 377.5 382.4 388.6 393.5 397 394.7 384.5 369.4 353 335.9 322.5 313.1 305.7 292.1 281.7 282.3 293 294.7 294 292.7 289.7 287.9 286.9 286.7 286.4 286.1 286.1 284.9 282.4 280.2 275.7 282.9 281.9 280.8 279.9 278.6 276.8 275 270.8 273.6 276.1 277 277.7 277.3 277 277.8 277 274.9 275.3 277.2 278.5 280.2 282.3 284.1 285.7 287.1 288.9 290.3 290.8 289.7 287.5 285.1 282.5 280.5 278.4 278.4 278.7 278.3 277 275.1 272.5 267.2 260.1 251.5 245.4 244.9 245 244.7 245.2 253.1 256.5 256.4 251 247.9 246.8 244.9 244.2 244.1 243.9 244.8 246.4 246.9 248.3 250.7 250.7
545.8 535.2 524.3 516.1 509.4 502.8 504.3 504.8 502 498.5 496.7 495 494.1 493.4 492.7 492.1 490.5 488.5 485.1 481.1 476.8 471.4 465.8 459.6 451.8 443.1 432.1 416.9 399.3 375.1 373.9 377 382 410.6 433 453 469.9 481.3 488.3 493.9 500.1 509.6 518.3 525.4 533.2 539.3 544 548.1 551 555 557.2 555.6 553.2 549.5 543.5 535.4 528.1 522.6 514.3 501.8 486.5 470.1 459.5 448.8 434.2 427.9 432.6 435.5 443.5 454.8 463.6 472.1 481 487.3 489.7 492.4 493.6 492.2 490 486.9 481.5 475.7 469.5 460 454 455.7 462.7 470.4 476.8 479.4 475.8 469.8 461.4 452.1 442.2 436.9 429.9 420.8 414.4 406.2 399.9 395.9 394.4 394.3 398.1 402.6 407.9 412.7 416.7 416.5 405.2 392 376.2 358.3 339.5 324.6 314.3 306 296.9 286.7 280.5 278.5 289.3 290.6 288.8 286.2 284.4 284.1 284.6 285.2 286.4 286.9 285.2 280.5 275.2 271.5 280.1 279.3 277.9 276.8 274.8 272.6 269.9 265.6 267.1 270 271.9 272.1 271.9 271.4 271.2 269.8 267.2 266.4 267.7 269 270.6 271.9 273.1 273.4 274.4 275.2 275.6 275 274 273.6 271.8 269.8 269.8 271 271.9 271.8 271.3 270.4 269.7 267.8 264.3 258.7 251.2 243.9 244 244.5 243.3 244.1 247.6 250.8 250.8 248.6 246.9 245.8 244.4 243.5 242.6 241.1 240.1 237.9 236.3 236.6 233.5 232.1
544.8 531.8 522.9 514.1 506.9 502 498 499.8 497.7 496.3 494.4 493.3 492.5 490.8 489.1 487.3 484.7 481.3 478.6 474.6 471.3 467.2 462.3 456.1 448.7 440.8 429.8 413.4 397 381.4 366.3 372 391.8 418.9 441.9 461.7 477.8 485.8 490.8 495.2 503 511.8 518.5 524.6 530 534.4 537.9 540.5 543.4 547.8 548.7 547.7 545.5 541.6 535.4 529.8 525.8 520.6 510.4 496.7 482.7 472.1 459 446.7 435.4 420.6 424.6 434.5 447.2 460.2 469.7 480 488.5 493.1 493.1 494.7 494.9 493.8 491.4 488.2 484.6 480.1 476 470.4 466.5 469.9 477.8 486.1 493.1 496.9 495.8 490.8 484.6 478 471.9 462.9 449 440.8 434 425.7 421 419.3 416.9 417.5 421.2 427.2 432.4 436.3 434.7 424.4 410.2 394.8 378.2 360.9 343 327.2 313.2 304.1 298.3 293.3 282.5 277.8 278 285.3 284.3 282.5 281.1 281 281.8 283 283.2 281.7 281.7 279.1 274.7 271.4 276 276.6 275.1 273.6 271.3 268.8 265.6 262.2 262.6 265.3 267 267.5 267.5 267.5 265.4 263.7 262.1 260.6 260.5 261.7 262.7 264 265.4 265.8 265.6 265.4 265.5 264.5 263.9 260.9 261 261.5 263.3 266 267.1 266.1 265.1 264.6 264.4 263.4 261.5 257.8 252.8 244.3 243.1 242.9 243.1 243.6 246.3 246.5 246.6 245.3 244.7 243.6 242.3 240.9 238.9 236.2 235.5 235.3 235 232.6 234 233.9
541 530.4 521 515.1 506.6 500.6 496.8 492.9 493.5 493.2 492.6 491.6 490.1 487.2 483 478.3 476 473.5 470.3 467.3 465.3 461.8 457.5 451.7 445.3 438.1 426 407.7 391.8 378.2 364.5 372.2 395.3 423.9 446.4 464.9 479.3 486.6 491.5 496.7 504.6 511.8 517 521.1 525.9 529.7 531.9 533.4 537.2 540.2 540.1 539.2 537.6 533.4 528.7 524.2 520.6 514.8 502.6 488.6 478.3 470.7 459.8 444.5 429.6 417 421.6 437.6 452.8 465 475.9 488.2 498.2 501.2 499.4 497.9 497.1 495.8 494.3 492.1 489.1 485.9 483.4 480.8 479.9 482.7 489.9 497.8 504.1 508.4 509 507.3 504.7 500.9 492 484.3 475.2 465 456.7 450.8 444.4 441.6 440.2 440.9 440 447.8 451.5 450.3 440.4 428.6 413.6 398.1 381.8 364.9 348.2 333 319 307.7 300.5 295.4 290.2 280.3 276.3 275.9 278.7 277.9 277.9 277.9 278.4 278.7 278.7 278.3 278.6 276.5 273.9 271.7 270.9 271.8 271.5 270.6 268.6 265.3 261.7 258.8 259.3 260.4 262 262.6 262.8 262.7 260.9 258.9 257 255.7 255.9 255.7 256.6 257.4 258.1 258.4 258.8 258.9 258.6 258.7 258.6 257.6 256.5 257.8 258.8 260.6 261.4 261.3 260.6 260.2 259.8 259.3 257.4 254.6 251.6 246.1 242.7 242.6 242.9 243.7 245 245.3 243.8 241.2 238.7 237.6 236.6 236.4 236.2 235.8 235.8 235.6 235.2 234.3 234.4 234
540.2 533.5 523.5 515 506.7 501.2 497.3 493.7 488.2 489.6 490.2 488.5 485.1 481.9 478.2 472.9 469.2 466.8 463.8 461.5 459.2 455.9 452.3 447.8 442 433.4 420.2 401.8 386.1 374 361.6 372 395.7 421.8 441.6 458.7 473.6 482.9 488.9 495 502.5 509.2 514 516.6 518.8 521.8 524.4 527.7 532.3 534 533.4 532.8 530 525.9 522.1 517.4 513.9 505.3 492.6 483.5 475.2 467.5 457.4 443.7 424.5 409.1 422 439.8 456.2 469.5 481.8 496.3 506.8 509.2 505.2 504.3 502 500.8 501.3 499.4 495.8 493.7 492.2 490 491.4 494 498.9 505.1 511.1 514.6 516.2 516.4 515.4 512.8 506.2 500.2 493.8 486.5 478.2 470.2 464.4 461.2 459.8 456.9 453.7 456.7 458 453.8 444.4 431 415.7 401.3 386.8 371.8 357.4 340.5 325.5 313.2 303 295 289.7 284.5 277.8 272.9 273.3 273.3 272.4 273.1 274 273.8 273.9 275.3 275.8 275.2 273.2 265.9 267.4 265.1 264.5 265.2 264.5 261 258.9 257 255.4 255.8 255.3 255.2 256.8 256 254.5 253.4 251.4 250.4 250.5 250.7 250.5 250.4 250.6 251.3 252 252.7 252.7 252.4 252 252.2 252.3 252.9 253.3 253.4 254.1 255.6 255.5 255.1 254.2 253.7 252.5 250.3 248.9 245.5 242.1 242.9 242.6 242.9 242.3 241.5 240.2 238.9 238.2 237.4 236.9 236.6 236.6 236.1 235.7 235.2 233.4 234.7 234.6 234.1
536.1 529.8 522.4 515.4 508.2 501.6 497 493.6 490 482.2 485.5 482.1 477.4 473.6 470.8 466.4 462.3 459.7 457 454.4 451.6 448.5 445.7 441.2 434.7 427 409.6 391.9 379.1 367.4 359.4 373.2 392.7 412.4 428.4 446.8 464 476.2 485 490 496.3 502.6 509.6 511.4 511.6 513.8 515.7 520.6 527.2 529.7 529.9 527 522.8 519.9 516.7 510.5 504 496.3 485.9 477.8 470.7 462.1 451.9 438.2 414.2 408.5 422.5 442.7 460.3 473.4 486.5 502.4 513.1 516.9 515 511.9 508.9 509.3 509 507 504.5 503 501.4 499.5 499.7 501.3 504.2 508.3 512.9 515.9 517.8 519.1 518.1 515.4 511.1 505.7 500.5 495.5 489 480.7 475.8 472.1 468.4 464 461.8 461.7 458.8 451.2 440.9 427.8 414.8 405.5 392.1 376.9 361.7 345.3 328.1 313.7 303.7 295 288.7 283.8 279.9 275.1 271.9 269.3 268.2 267.6 267.6 266.7 267.4 268.3 269.9 271.8 270.7 266.9 263 261.7 260.2 260.3 259.5 258.8 258 256.6 254.5 251.7 249.6 247.9 248.9 248.5 248.1 246.1 244.9 244.7 244.6 244.7 245.4 245.7 246.1 246.2 245.6 245.4 245.6 245.8 246 246.9 248.6 249.7 249.4 249.6 248.7 248.9 249.9 250 248.4 247 245.5 243.5 241.9 241.3 240.6 241.4 242 241.3 241.3 240.8 239.7 239 238.3 237.6 237.1 236.8 236.7 236.2 235.8 234.4 235.3 235.2 234.4 234.1
538.2 533.5 525.7 515.1 506.3 501.5 496.7 490.9 486.2 479.4 475.9 475.6 471.3 468 464.7 461 456.4 450.4 446.3 444.7 443.6 439.8 436.5 432.4 426.5 416.7 398.2 382.2 370.3 359.7 363.6 383 401 416.6 429.6 441.5 456.3 469.5 480.7 487.7 491.9 494.7 495.2 494.7 496.4 503.2 505.5 512.8 521.2 521.9 520.2 515.9 512.6 509.4 505.7 499.3 492.6 485.7 477.6 472.4 465.8 457.5 447.1 430.3 403.8 404.8 421.5 445.2 464.6 478.8 492.3 508.5 520 523.8 523.7 521 518.9 518.6 517.5 516.6 514.1 512.2 509 505.9 505.2 505.9 506.9 508.8 511.4 513.2 514.6 515.5 514.4 512 509.3 505.4 501.4 496.8 491.4 485 478.4 472.8 468.6 464.9 461.7 459 454.6 447.8 436.9 425.2 416.6 407.9 396.3 380 363.1 345.7 326.6 311.4 302.8 295 287.4 281.8 278.9 277.1 275.3 272.4 269.7 267.1 263.6 265 264.1 263.3 263.3 265.3 266.1 264.1 262.9 261.5 259.1 257.6 255.4 255.3 254.9 252.8 249.7 248.6 248.6 247.1 245.6 245.1 244.9 244.6 244.2 244.1 244.1 243.8 243.7 243.4 243.8 243.9 244.2 245.1 243.1 242.8 242.5 242.2 242.9 244.8 243.2 243.6 242.6 240.2 241.3 242.7 241.5 240.4 238.6 237.6 239 239.1 237.6 239.5 239.8 240.6 240.7 240.2 239.5 238.9 238.2 237.5 237.2 236.9 236.7 236.4 235.1 236.9 238.5 237.5 235.4 234.8
539.1 530.1 519.5 513 510.6 503.2 495.4 487.2 481.6 477.1 470.6 468.9 467.4 465.1 459.8 453.7 442.9 428.8 427.1 425.6 428.6 428.3 426.3 422.7 415.5 401 385.5 373.9 362.4 356.1 371.7 395.7 416.6 432.7 445.5 456.3 466.8 477.8 486.9 495 501.1 501.2 501.6 501.7 489.3 479.5 489.1 504.8 510.9 510.4 508.9 505.3 500.1 495.8 491.2 485.7 480.4 475.7 470.3 465.6 458.5 451 439.8 422.7 399.7 401.1 422.2 448 468.2 482.5 495.8 510.9 524.1 527.5 528.8 528.1 526.5 524.3 522.8 521 519.6 516.9 513.8 509.6 508.3 507.3 506.4 506 506.7 507 507.8 508.3 506.4 504 502.4 500.3 498.3 494.5 490.3 484 476.8 470.5 464.9 461.1 457.6 453.5 449.1 444.5 435.7 428.9 417.5 406.5 395.1 379.1 361.7 342.8 321.3 309.8 303.1 294.6 287.2 282.9 279.7 279.3 278.2 275.8 273.5 270.9 268.1 263 260.8 261.9 261.6 260.8 260.3 260.8 260.7 259.9 257.7 257.1 255.5 252.2 251 250.7 249.5 248.5 247.2 245.8 245.1 244.9 244.2 244.7 244 243.9 243.8 243.7 243.6 243.3 243.3 242.8 243 246 243.1 242.6 241.8 241.6 242 241.9 241.5 239.2 241.5 241.1 241.4 242.8 243.9 247 248.1 248.7 248.2 247.3 245.7 239.2 239.1 240.3 240.2 240 239.4 238.7 238.1 237.4 237.3 236.9 236.5 235.8 238.8 238.5 238.1 238.4 241.3 241.7
531.2 524.3 519.4 516.3 508.5 499.7 491.3 484.2 478.9 473.8 468.5 462.3 463.9 458.1 449.8 442.6 425.7 432.3 430.5 421.1 402.2 407.2 411.3 408.4 401.9 386.8 375.9 366.2 352 360.5 383.8 407.8 429 444.9 457.5 468.9 479.2 487.6 495.8 503.2 507.9 511.6 513.7 510.9 493.8 473 473.3 490.5 497.7 498.1 498 494.3 487.3 482.8 476.8 471.3 465.6 463 460 455 450.3 444.1 429.9 413.5 388.8 400.5 424.3 449.8 469.5 483.7 497.2 510.6 523.6 527.5 530 531 528.3 527.2 525.5 523.6 521.4 519.1 515.8 511.5 507.7 505.9 503.7 501.8 500.1 499.2 498.5 497.9 495.8 494.3 493 492.1 491.2 489.4 486 479.7 473.6 466.6 459.9 455.2 452.2 448 442.8 439.8 436.4 429.2 418.1 406.5 392.3 375.5 356.7 334.5 318.7 309.9 301.8 294.1 288.8 285 283.2 283 282 279.6 276.7 274.6 272.4 269.4 267.5 261.2 260.2 259.7 258.8 258.6 258.4 257.8 256.6 255.8 254.9 252.9 250.3 249 248.4 247.4 246.2 244.9 244.9 243.1 243.6 244.5 242 243.8 243.8 243.7 242 243.8 243.7 243.6 243.2 242.3 242.3 241.9 241.6 241.7 240.5 241.7 239.7 243.8 247.7 247.1 247.3 248.1 249.5 250 249.7 249.4 249.7 249.7 248.7 246.2 239.5 239.7 239.7 239.4 239.1 238.6 238.2 237.2 236.8 236.3 239.6 240.7 240.4 239.8 239.5 240.8 241.7 239.6
524.6 522.2 518.9 512.3 502.8 492 485 479.7 473.6 468.4 463.6 457.8 456.5 452.6 440.7 432.7 440.8 447.5 442.2 435.8 423.8 392.4 383.4 380.1 382 375.3 368.5 355.2 349.4 371.8 396.1 419.9 439.5 453.8 468 478.7 487.5 496.2 504.3 508.9 513.7 516.7 515.5 511.4 502.5 480.6 464.8 475.6 482.2 484.7 484.4 478.5 473.3 467.4 459.7 453.9 452.3 450.3 448.2 444.6 440.1 428.4 415.5 399.9 388.2 403.8 429.5 452.8 470.6 484 497.7 510.4 521.2 523.7 526.7 528.7 527.6 526.2 525 523.4 521.7 519.5 515.8 511.5 506.6 503.8 501.2 498 493.6 490.2 487.7 486.1 483.5 480.9 480.7 480.7 480.9 480.7 478.9 474.6 469.1 462.3 456.8 450.8 444.9 440.2 434.3 430.3 427.7 422.9 412.7 400.5 386.9 369 349.1 329 316.6 308.5 301.4 294.5 290.1 288.1 288.6 287.5 285 281.8 278.7 275.9 273.2 269.8 266.3 261.5 259.6 258.9 257.8 257.2 256.7 256.4 255.4 254.5 253.5 252.2 249.5 247 246.4 246.5 245.5 242.5 244.1 244.2 244.3 244.6 244.7 243.9 243.9 245.3 244.8 244.1 243.6 244.3 244.1 243.8 243.8 243.8 243.1 242.8 244.3 245.9 247.9 249.9 252.7 253.2 253 253.5 251.5 251.3 251.2 250.6 250.9 253.5 252.7 248.1 240.9 238.7 239.1 238.9 238.1 237.6 236.6 238.5 241.8 243.3 242.6 242.3 241.8 241.1 240.5 240.6 239.9 238.1
518.1 519.3 514.4 506.3 495.2 485.8 479.3 474.1 468.8 463.7 458.2 450.6 446.4 439.2 441.4 451.9 456.1 453.9 448.7 440.3 430.3 417.1 404.6 387.8 367.5 360.1 356.3 345.6 358.7 382 407.5 430 446.7 461.9 475.2 485.1 494.9 504 509.7 515.8 520.1 520.1 515.5 510.4 501.9 482.1 463 463.8 470.9 472.9 472.4 467.9 463.2 454.7 449.2 440 437.3 434.6 431 424.9 418.3 408.1 397.3 382.4 388.7 411.5 436.3 457 472.7 484.7 495.7 507.9 514.9 517.6 520.5 522.3 521.6 520.1 519.9 519.7 519.6 518.6 515.5 511 505.6 502.1 499.8 494.2 486.1 480.4 477 474.6 471.4 469.3 468.2 467.5 467.2 468.6 469.4 467.7 463.3 458 452.6 446 438 429.9 423.4 419.2 417.6 412.2 403.1 391.8 378.8 358.5 339 323.5 313.6 306.2 300.5 295.9 292.7 291.9 292.9 290.1 286.2 282.1 277.8 274.2 270.3 265.5 261.4 258.7 257.8 257.1 256.9 256 255.3 254.7 254.3 253.2 252.1 251.1 249.5 247 246.3 243.5 245.5 245.1 245.1 245.5 245.4 246.7 248.8 249.9 249.5 249.2 250.5 247.3 249.4 251.2 251.8 250 245.5 246.3 247.7 248.8 249.7 250.6 253.9 256.5 257.6 259.3 260.3 261.7 258.1 254.6 253.8 253.9 254.8 258.1 258.5 255.9 252.6 249.3 239.7 237.1 237.7 240.4 243.1 244.7 245.2 244.3 244.3 244.3 243.6 242.3 240.2 240 239.4 237.3
509 509.4 504.4 497.8 488 482.8 476.2 470.5 464.9 458.4 448.4 443 439.6 443.8 455.1 459.3 460.2 456.5 450.9 442.3 434.4 425 412.9 394.9 376.4 364.1 357.5 345.2 362.4 387.5 413.4 435.4 452.8 468.5 480.9 491.2 501.2 509.8 515.6 522.6 526.9 523.8 517.1 511.4 501.1 482.5 463.7 452.9 458.5 463 462.5 456.2 451.1 447.6 440.4 428.3 415.7 414 410.7 404.4 396.9 388.1 378.5 377.3 397.7 421.3 442.8 459.9 472.9 482.7 493.7 501.9 507.7 511.4 513.7 514.3 513.5 513 512.8 513.2 514.9 515.7 514.1 509.7 504.6 501.5 497 489.4 485.8 481.5 475.3 469.4 463 458.3 457.1 454.3 453.8 456.5 458.8 459 456.6 451.4 446.3 440.1 430.1 419.9 413.5 409.7 406 400.1 392.5 380.4 365 345.1 328.3 317.9 310.8 305.9 301.9 298.7 295.4 293.4 291.5 288.2 283.8 279.7 274.1 270.1 265.5 260.4 257.8 256.5 256 256.7 256.1 255.2 254.3 253.5 252.9 252 250.9 249.8 248.8 247.2 243 246.7 247.1 246.6 246.8 248.4 250.3 252.1 253.7 255.5 256.7 257.2 256 255.8 257.8 258.2 258.9 257.4 255.3 253.2 253.1 255.6 256.8 257.8 260 260.9 262.7 264.5 267.6 269.4 267.7 262.7 260.6 262.1 263.8 264.5 265.5 267.3 266 261.7 253.8 249.1 248.2 247.9 246.9 246.6 247.3 248.4 248.7 247.7 246 243.2 241.2 240.7 240.3 240.2
499.2 501.6 493.8 489.6 482.1 478.2 471.2 463.7 456.3 450.6 446.5 441.3 438 447.8 457.6 462.4 461.4 458.3 452.4 444 435.6 425.9 413.1 392.9 372 358.1 352.5 344.2 362.6 385.8 412.5 438.5 457.7 473.1 484.6 495.5 505.1 513.9 521.2 527.8 532.4 526.9 519.5 511 497.5 478.5 464.5 451.1 447.9 451.2 450.2 444.9 441.1 437.7 430.9 423.1 409.4 393.7 391.9 388.4 375.4 367.5 372.1 388 408.3 429.8 448.5 462.7 472.9 480.1 489.7 495.9 500.2 503.7 504.3 505.4 505.2 505 505.1 506.4 508.4 510.2 509.5 506.2 503.6 501.1 497.1 494.6 490.7 484.6 478.6 473.1 468.5 461.7 455.3 449.9 443 443.4 445.5 445.5 444.9 441.9 437.1 431.9 423.7 412.8 404.8 398.8 393.3 386 378.7 367.1 349.7 332.3 320.5 313.2 308.7 305.9 304.2 301 296.1 291.8 288.8 285.3 281.1 275.6 269.8 265.1 259.7 255.7 255.4 255.5 255.1 255.5 255.1 254.2 253.3 252.4 251.6 250.7 249.9 248.9 248 246.3 246.8 248.9 250.2 250.4 253.3 254.3 256.6 258.5 261.1 262.7 264.9 266.4 266.8 266.6 267.5 266.9 266.7 265.6 264.9 262.1 260.8 262.8 263.9 264.4 265.7 266.9 269.5 270.8 273.4 276.9 276.9 276.2 278 279.1 278.6 277.1 275.5 277 276 269.8 262.5 256.6 253.3 249.6 247.6 247.6 248.6 249.8 249.7 247.6 245.8 244.9 242.9 242.8 243.1 243.9
492 493 490.7 486.4 479.4 471 464 460.2 454.7 448.2 443.7 437.2 434.7 446 457.3 462.8 461 458.1 452.6 444.1 435.6 426.9 414 392 369.2 353.9 345.3 346 360.8 384.2 413.3 440.7 459.7 474 485.8 498.6 508.4 516.9 523.9 530.3 532.6 527.7 519.4 508 492.8 476.1 464.1 454.9 443 439.1 438.7 434.7 428.1 425.3 421.7 414.6 402.8 388 362.9 363.7 358.6 373.7 388 402.8 421.5 437.1 448.9 460 469.1 476.5 483.3 488.2 491.7 493.6 495.5 496.9 497.3 497.4 497.3 498.7 501.6 503.7 504.2 503.1 501.8 500.6 501.3 499.8 495.3 488.9 480.2 473.5 467.8 461.5 457.2 452 445.4 435.4 431.5 432.5 431.6 429.2 424.6 419.3 416.6 407.5 395.3 385.4 378.7 369.8 363.1 349.6 333.7 321.1 314.2 309.3 306.8 305.4 303.7 299 294.2 290.6 286.9 282.4 276.9 270.9 265 260.4 256.7 254.8 254.6 252.9 254.1 254.1 253.9 253.2 252.3 251.4 250.7 250.1 249.2 248.2 247.2 244.3 247.8 250.7 252.9 255.1 258.3 260.2 263.1 268.2 273.1 277.6 280 280.8 281.1 280.8 279.5 277.4 276 273.8 273.2 269.7 269.7 270.3 270.3 272.2 273.8 275.6 279.7 282.8 285.3 291.5 296.8 300.4 302.3 303 300.3 295.5 289.8 288.9 286.5 282.2 273.6 264.7 259 254.3 248.9 247.1 246.7 247.1 245.9 245 244.6 242.6 243.4 245.3 245.6 247.7
480.8 484.4 483.3 483.1 479.5 472.5 464.4 457 450.4 443.4 439.5 435.5 429 441.2 452.9 458.7 458.4 455.6 450.5 443.5 435.4 427.9 414.8 391 368 353.9 337.9 346.5 362.4 387.9 415.7 441.3 457.1 470.7 485.4 497.8 506.8 513.8 520.4 527 528.4 524.9 515.9 503.3 489.2 474.1 462.9 454 444.1 429.5 429.1 426.9 425 424.8 418.1 411.7 404.7 386.8 357.8 351.4 367.4 384.8 400 413.8 429.5 441.8 451.5 456.1 460.1 468.8 475 479.3 482.3 484 486.3 487.5 488.5 488.8 488.7 490 493.4 496.8 498 498.6 499.3 500.9 505 504.6 500.1 492.3 481.6 473.2 464 458.5 454.6 450.6 444.5 435.2 425.9 418 416.2 413 408.6 405.4 405.4 398.1 386.2 377.7 368.8 359.7 347.6 333.5 322.8 316.1 311.1 308.5 307.2 306 303 296.9 292.6 289.4 284.4 278.8 272.8 266.8 261.8 259 256.5 254.5 253.3 252.2 253 252.8 252.5 252.2 251.4 250.7 250 249.5 249 248 246.9 246.3 249 252.1 255.5 259 263.9 268.6 274.9 282.6 290 294.1 296.1 296.6 295.9 293.6 290.3 287 286.5 284.6 280.1 273.3 276.9 278 280 283.2 288 291.8 296.7 300.8 306.9 314.9 320.9 326.4 325.6 323.3 319 313.3 305.7 301.4 295.9 289.3 281.8 274.2 266.2 259.9 252.6 247.6 245.5 245.2 244.4 243.7 243.1 243.1 244.1 244.8 247.7 251.3
463.8 472.6 475.5 476.5 474.5 468.1 460.4 453.7 446.3 440.3 437.8 430.8 422.8 435.9 446.5 453 454 452.6 449 442.9 434.8 427.4 414.4 395.8 371.6 352.6 337.3 344.7 365.1 391.1 415.1 434.6 449.3 464.1 478.1 490.7 498 504.4 511.5 517.9 520.4 518 508.6 498.1 485.1 472.2 461.2 451 437.1 424.9 413.8 418.8 418.6 418.1 416.7 408 396.1 379.8 356.8 344.9 365.7 387.4 405.8 418.9 429.9 440.8 450.2 455.4 457 456.7 464.4 469.1 471.2 474 476.4 477.4 478.1 478.7 478.8 479.3 482.5 486.7 490.6 492.1 496.9 503.5 508.5 509.8 502.4 494.4 482.8 472.2 460.5 454.4 450.9 446.9 440.9 433.5 423.8 412.9 399 395.6 392.8 388.6 388.7 382.9 376.4 368.3 359.9 349.5 335.3 323 316.8 312.8 309.8 307.9 308.1 306 300 293.8 289.9 285.8 280.5 274.7 268.9 263.9 261 258.4 255.6 252.5 251.5 251.5 251.9 251.4 251.3 251.1 250.7 250 249.3 248.8 248.4 247.6 246.8 245.8 250.1 254.1 259.5 265.4 270.8 278.1 286.3 298.2 303.4 305.7 306.1 305.4 302.9 300.7 298.8 297.2 295.8 292.4 287.1 280 283.2 285.4 291.8 298.3 304.8 310.4 314.3 321.2 328 333.8 338.2 339.9 340.9 340.2 336.9 328.7 321.9 312.6 302.1 294.1 285.2 277.6 268.9 259.9 252.7 247.9 246 245.3 244.6 244.2 243.9 243.8 246.4 248.7 250.4 249.3
443.2 454 463.9 469.1 467.9 462.1 456.6 448.5 441.2 437.5 431 424.1 416.9 430.2 441.4 447.8 450.2 449.8 446.8 442.7 434.9 427 415.5 398.2 373.7 357.6 341.5 339.4 361.1 383.6 403 421.6 438.8 453 465 475.4 482.7 490.6 499.4 506.7 509.8 506.4 499.4 491.1 479.7 467.8 456.8 443 430.6 424 417 404.3 414.3 411.7 405.5 397 385.8 372.1 352.6 334.5 358.7 383.9 403.6 418.7 427.8 436.6 444.7 449.5 452.9 452.9 451.6 456.4 457.7 460.8 464.3 466.3 467.2 466.4 466.1 466.6 468.6 473.7 479.1 485.2 494.9 503.5 510.7 513.7 508 497.2 483.8 473.3 461.2 450.5 444.8 440.7 436.2 429.8 419.7 408.3 394.6 385 378.7 372.3 370.5 367.5 363.3 357.9 350.1 339.6 326 317.3 313.6 310.9 306.3 305.5 306.1 301.6 295 289 285.2 280.7 275.2 269.9 265.1 261.7 258.4 254.7 250.1 249.2 250 250.1 250.9 250.6 250.3 250.1 249.9 249.2 248.6 247.5 245.5 246.3 246.7 248.4 254.3 264.2 272.7 278.7 275.6 284.1 296 308.7 313.6 313.6 312.1 310.3 310.4 312.3 311 307.6 302.7 299.1 295.3 289.6 289.8 293 301 312.2 322 325.1 332.9 338.2 341.9 348.4 351 354.9 359.6 356.8 350.9 341.6 330.3 318.2 307.9 297.7 286 276 267.9 259 252 248 246 245.3 245.6 245.4 245 246.4 250.2 253.4 256.5 258.8
423.5 436 447.3 458.6 459.5 456.3 448.7 442.2 437.7 430.9 422.9 417.2 410.7 424.7 436.2 444.3 447.1 446.5 444.2 440.5 434.3 425.9 411.1 390.8 376.9 369.4 349.8 332.7 351.9 369.5 387.2 407.2 424.6 439.4 451.6 460.2 466.8 471.9 483.6 493.3 495.9 493.7 488 480.6 472 460.1 447.5 435 427.5 421 415.9 405 398.1 406.2 399.5 386.8 377.9 366.3 349.4 332.5 349.2 375 396.5 411 421.4 430.6 438.1 442.4 446.2 446.7 444.6 445.3 444.5 445.2 450.2 454.2 454.6 450.5 447.9 447 449.1 456.5 465.3 478.2 490.8 501.4 509.9 514.9 512.7 502.1 487.6 475 461.3 448.1 439.1 431.9 425.9 421 414.5 403.3 392.9 383.6 373.8 362.4 349.4 352.6 348.6 345.1 339.9 328.5 316.1 312.5 310.1 306.1 300.1 301.3 300 294.5 288.5 283.3 280.1 275.7 270.7 264.9 260.4 256.6 252.2 247.6 246.6 248.5 248.9 248.7 249.8 249.5 249.1 248.9 248.9 248.5 248.3 245.5 246.5 247 248.1 254.2 267.3 279.2 286.9 290.9 288.7 285.4 302.8 315.7 319.2 318 319.7 326.3 331.9 329.7 325.8 318.8 311.7 306.6 302.8 298.4 294.6 300.8 307 319.5 330.2 340.2 348.6 353.9 355.7 363.3 368.8 368.9 369.8 367 361.6 352.6 338.8 326.2 313.7 300.7 288.3 277.7 268 259.6 252.2 248.1 246.9 247.5 246.7 246.6 247.3 250.7 254.9 258.5 261.9 265.6
404.5 418.9 431.8 441.8 447.3 448.2 442.1 439.7 430.7 422.2 415.2 409.7 405.5 418.7 430.2 439.7 444.1 444 442.4 438 432.5 417.7 399.9 395.3 392.7 379.9 359.7 336.8 337.6 353.5 372.9 392.3 407.2 423.6 435.8 445 451.6 455 465.3 474.8 479.7 476.8 473.1 469.3 460.9 451.7 439.2 431.4 427.4 420.5 410 402.3 378.2 396.2 391.4 380.7 370.4 359.2 345.2 323.4 342.7 366.8 386.2 400.5 411.1 421.8 429.7 435.3 438.2 437.6 437.7 438 436.9 436.2 437.5 440.7 439.7 431.4 424.8 424.8 426.1 437.8 454.2 468.8 483.4 495.7 506.1 512.7 514.2 506.9 492.7 478.8 463.1 449.1 439.9 429.9 414.8 409.3 406.4 400 391.6 379.5 374.7 364.3 352.5 342.4 336.5 332.1 325.8 314.3 310.6 308.3 303.6 298.5 293.7 293.1 290.2 285.1 280.2 277.9 275.1 269.3 263.3 257 253.4 248.9 246.3 246.3 246.3 245.6 248.1 248.6 248.2 247.9 247.7 248.2 248.4 248.5 245.9 246.8 247.1 247.4 254.1 269.5 284.2 294.4 299.9 302.2 295.8 291.8 308.1 319.9 327 334.1 341.5 346.8 347 344.5 338 329.6 322.3 316.2 312.2 308.5 303.3 308.4 311.8 321.5 334.9 347.8 357.7 366.4 372.1 379.6 383.1 385.5 384.7 380.2 373.7 361.2 346.9 333.1 317.2 304.2 294.7 282.4 272 262.9 254.8 249.7 248.7 249.3 250 249.6 249 254.5 259.1 262.8 266.2 269.9
411.7 402 415.2 424.9 429.9 430.9 433.8 429.8 421.8 413.4 406.7 399.4 400.9 411.3 423.3 434.7 441.4 443.1 441.5 436.4 424.6 406.6 406.4 405 397.5 385 369.6 347.9 326.6 334.8 356 373.1 388.8 404.5 417.6 428.5 434.9 439.1 452.9 459.1 459.8 458.1 456.9 454 447.8 439.2 431 426.9 420.9 413.7 404.9 395.2 374.4 382.9 380.3 370.9 359.9 349.1 339.5 322.7 336.4 357.4 374.1 387.7 400.3 411.9 420.1 426.4 430.2 430.5 431.6 432.7 432.3 431.6 430.4 430.4 427.8 415.2 404.9 409.4 408.6 426.5 443.2 457.9 474.5 487.5 499.2 508 511.3 509.5 497.7 486.4 471.5 455.1 442.8 429.7 409 399.6 395.6 391.4 383.1 376.3 370.4 358.4 348.8 337.9 327 321.7 313.9 308.4 305.9 302.8 297.6 291.5 287.4 284.2 281.1 277.4 273.1 270.2 264.9 259.7 253 247.8 246.3 246.3 246.3 246.3 246.3 246.3 247.1 247.1 246.3 246.3 246.3 246.3 246.5 246.7 246.3 246.3 246.4 251.9 269.5 287 300.8 308.1 312.3 311.2 299.4 303.2 314.4 327.4 343.3 354.8 359.2 361.5 361 356.3 350.3 342.2 333.6 326.4 323.4 320.1 314.7 313.8 319.9 324.4 336.8 350.8 363.7 375.6 383.7 391 397.2 400.8 396.1 389.4 379.8 367.1 351.5 336.1 321.7 306.5 295.5 285 273.8 264.3 258 250.6 250.8 254.4 254 252.4 252 256.9 262.9 267.4 270.8 274
416.4 403.6 397.7 407.4 412.3 417.9 425.8 420.8 413 405.2 397.5 390 394.3 404 416.3 426.1 435.9 442.4 440.1 430.1 414.9 414.1 415.6 409.3 400.6 389.1 375.3 360.4 340.3 324.2 334.2 351.5 367.7 382.5 396.5 409.8 418.2 428.1 437.7 444.7 448.2 445.5 445.8 440.9 436.6 430.2 427.3 423.1 414.3 405.5 394.9 385.3 371.8 368.5 367.8 359.1 347.5 339.3 331 318.4 330.7 346.6 362.1 373.6 384.4 399.8 408.7 414.4 419.9 422.6 425 426.5 425.6 423.3 422.3 426.4 430.6 425.6 410.4 394.6 396.5 414.8 428.7 445.6 462.4 476 488.2 499.8 506.3 508.5 502.9 493.4 479.4 459.4 443.5 427.9 409.9 396.4 387.9 380.5 376.2 371.2 361.3 349.6 339.3 329.3 318 311.1 307.2 304.7 301.8 300 292.6 284.5 280.6 277.8 274.5 270 265.2 261.8 256.9 250 246.3 246.3 246.3 246.3 246.3 246.3 246.3 246.3 246.3 246.3 246.3 246.3 246.3 246.3 246.3 246.3 246.3 246.3 246.3 269.9 289.8 306.4 316.1 321.3 323 318.3 305.6 311.9 321.2 334.5 351.9 365 370.2 373 372.1 367.9 361.2 353.7 346.7 340.9 336.6 332 326.1 321.1 325.7 330.1 339.2 352.8 366.9 381 393.3 401.2 407.7 407.9 402.7 394.1 382.3 369.6 355.4 337.9 321 307 295.1 283.6 271.7 263.7 259.5 253.9 255.6 259.4 257.1 255.3 256.9 261.4 268 272.9 276.7 279.9
418 408.9 397 391.9 399.5 403.8 411.9 411.9 405.2 396.5 390.2 384.2 386.7 395.8 406.6 416.1 427.2 438 434.3 416.8 416.2 423.1 419.2 413.9 404.9 394.8 384.9 372.2 358.2 340.8 321.3 327.2 342.3 357.2 371.8 382.6 395.1 410.9 418.3 426.2 429.9 431.9 430.8 426.4 422.4 423.9 419.1 412.8 403.4 393 384.5 373.9 364 347.9 355 349.3 338.7 330.6 322 313.6 322.3 332.7 345.1 354.5 365.9 383.1 394.4 403.3 408.5 412.5 414.6 415.4 412.6 410.4 409.8 417.7 423.7 423.1 413.8 394.9 384.7 401 413.6 429.2 447.3 462.3 472.7 487 498 503.7 502.5 494.7 479.1 460.3 446.9 429.5 412.8 394.7 380.5 373.3 366.2 360.7 352.5 339.8 326.4 317.6 309.5 303.5 303.4 300.9 296.2 292 284.8 277.6 274 270.3 266.5 260.7 257.1 253.4 248.1 246.3 246.3 246.3 246.3 246.3 246.3 246.3 246.3 246.3 246.3 246.3 246.3 246.3 246.3 246.3 246.3 246.3 246.3 246.3 265.5 288.9 309.8 323.5 329.9 332.4 330.5 323.8 311 315 328 339.6 357.2 373.1 378.6 381.4 384 379.1 374.3 372.1 366.8 360.3 349.3 341.9 332.5 325.8 331.6 334.5 342.1 354.9 369.3 385.4 400.5 409.1 413.3 410.2 404.2 394.4 383 369.6 354.7 338.7 318.9 304.6 292 278.7 270.1 264.4 259.9 252.9 261.4 262.2 258.7 257.8 260.6 266.1 273.4 280.7 286.2 293
418.1 408.8 398.2 387 387.4 391.5 396.3 397 393.1 388.4 383.9 377.4 379.7 385.8 396.2 406 416 424.8 415.1 414 427.2 425.4 421.9 417.2 407.7 402 396 385.1 372.3 358.9 343 323.9 314.4 330.3 345.6 359 375.3 388.1 392.6 400.8 407.5 408.6 407.5 403.9 402.1 406 402.1 395.8 388 377.8 366.1 357.8 349.9 341.5 332.3 337.2 328.9 321.6 315.2 295.1 310.9 321 326.3 333.8 348.6 363.2 375.1 386.7 394.7 399.3 403.5 404.1 400.4 396.9 398.1 406.4 417 421.9 415 403.3 384.3 385.4 398.1 412.4 428.9 446.2 458.5 472.8 484.5 492.3 494.4 488.3 474.9 459 444.6 428.5 411.3 390.6 375.2 364.6 353.3 343.3 334.4 322.5 313 307.4 302.6 299.7 301.1 294.1 289.8 282.5 275.6 270.4 266.7 262.8 258.1 253.4 249.4 246.3 246.3 246.3 246.3 246.3 246.3 246.3 246.3 246.3 246.3 246.3 246.3 246.3 246.3 246.3 246.3 246.3 246.3 246.3 246.3 260.7 284.4 307.7 326.6 336.4 340.6 342.2 338.9 332.8 318 320.4 334.4 344.1 362 378.5 385.9 389.4 389.9 388.1 393.7 391.8 385 372.4 358.4 347.7 338.1 334.4 337.2 339 346.8 357.4 371.2 388.2 401.2 411.2 417.4 413.4 404.2 391.6 381 367.1 352 336 319.3 300.3 288 277.3 268.5 264.1 256.9 258 265 263.1 259.8 260.7 265.1 272.4 280.6 288.2 297.9 310.8
415 401.8 395.2 387.3 378.9 380.8 381.3 382.5 381.1 379.3 374.8 371.6 371.4 377.1 386.5 395.5 404.8 409.8 410 420.8 424.7 424.3 422 417.2 410.5 408.2 402.4 392.6 379.6 365.2 355.5 343.6 326.9 310.8 322.7 341.7 358.5 363.6 363.4 377.5 381.1 381.5 382.3 378.9 377.8 384.4 382.1 375.6 367.6 357.9 347.5 339.7 332.7 326.6 314.8 321.5 318 310.9 306.5 292.8 297.7 308 315.5 321 331 341.6 353.7 367.6 378.1 384.2 391.2 393 388.7 387.1 387.7 393.9 408.3 419.8 412.9 398.7 381.2 370.2 377.4 395.3 410.4 426.4 442.5 457.8 468.8 477.7 481.5 478.2 468 453.4 440.1 422.2 401.8 381.1 362.3 349.7 338.4 324 314.2 306.6 301.2 298.2 295.8 297.6 293.4 285.3 279.4 272.9 266.3 263.4 260 255 250 246.3 246.3 246.3 246.3 246.3 246.3 246.3 246.3 246.3 246.3 246.3 246.3 246.3 246.3 246.3 246.3 246.3 246.3 246.3 246.3 246.3 256.6 281.1 305.6 325.9 339.5 347 350.9 352.3 349 341.9 328.9 324.7 339.6 348.3 364.9 382.8 394.1 398.8 403.2 409 409.9 404.4 395.3 379.5 365.7 354.3 345.8 342 341.4 344.2 350.5 359.7 371.5 386.3 399 410.1 416 410.4 401.5 390.2 378.3 362.1 346.8 331.6 315.8 298.6 284.9 275.5 266.1 260.1 256.2 264.1 266.8 264.3 262.1 263.8 269.8 277.5 287.4 298.1 312.3 324.7
412.6 404.2 400.2 392.6 384.2 373.5 372.6 371.1 370.9 367.6 365 363.4 364 368.9 375.6 382.5 391.1 397.3 402.8 410.2 413.8 417.1 416.6 414.5 409.6 408.9 404 395.4 382.6 368 356.6 347.9 337.8 323.1 309.3 328.4 347.3 355 349.1 356.5 358.8 360.1 363.7 361.8 357.5 362.2 360.4 351.8 344.1 336.4 329.6 323.3 315.9 309.2 303.1 305.5 305.2 300.1 295.9 291.1 282.9 296.1 303.6 309.4 315.7 321.7 335.4 347.9 357.6 368 379.8 382.1 380.6 379.3 376.7 382.8 399.4 408.7 406 397.9 386.8 371.6 363.1 376.5 390.1 405.7 421.5 437.7 452 461.3 465.1 464.1 454.9 439.5 425.4 409.9 389.5 367.8 349.5 338.2 326.2 312 299.3 293.5 290.4 289.1 286.5 284.9 280.8 275.4 268.1 263 257.9 255.4 250.1 246.3 246.3 246.3 246.3 246.3 246.3 246.3 246.3 246.3 246.3 246.3 246.3 246.3 246.3 246.3 246.3 246.3 246.3 246.3 246.3 246.3 246.3 256.4 277.9 302.2 325.1 341.9 351.8 358.3 362.1 363.2 359.3 351 336.7 332 343.8 352.1 367.2 385.6 399.1 409 413.7 417.3 415.4 411.5 404.5 388.7 374.8 361.3 353.2 348.1 347.3 348.8 353.7 362.1 371.8 383 396.6 407.9 414.4 410.2 400.2 386.6 371.1 356.5 341.3 325.9 309.4 292.2 279.3 271.9 262 256.5 262.9 267.6 268.3 267.3 266.6 270.2 276.8 284.3 294.2 306.9 321.5 333
411.2 415.1 411.1 403.3 393.8 383.7 373.4 366.8 365 356.6 358.7 357 357.5 360.9 365.2 372.5 379.4 382.8 389.5 396.2 400.3 406 406.1 402.7 403.2 404.8 401.6 394.3 381.8 367.6 356.1 347.3 336 325.9 311.6 317.6 332.9 342.8 343 344.8 345.5 343.5 346.4 346.2 339.9 340.9 338.8 332.1 323.3 316.9 312.9 308.2 302 297.2 292.3 292.2 290.2 288.7 287.1 285.7 282.3 276.8 290.4 296.3 302 305.9 317.8 328.7 338.8 350.4 366 371.2 371.5 371.1 369.4 372.3 388.3 401.4 407.8 409.4 400.4 384.5 360.6 355.7 366.6 383.9 399.9 417.3 431.8 441.9 448.7 450.8 438.2 420.5 404.4 389.7 374 350.4 334.7 323.1 309.8 297.6 289.2 285.3 283.2 281.4 276.2 272 268.9 264.4 259 253.1 249.4 246.3 246.3 246.3 246.3 246.3 246.3 246.3 246.3 246.3 246.3 246.3 246.3 246.3 246.3 246.3 246.3 246.3 246.3 246.3 246.3 246.3 251.4 253.6 259.5 277 298.3 320.6 340.9 353.7 363 370 373.3 373 367.5 356.7 340.2 338.1 348.4 355.2 369.2 387.4 403.1 412.7 421.2 422.8 422.7 420.3 417.1 401.7 381.5 368.8 359.6 355.1 353.4 354.1 356.7 363.9 372 380.6 392 402.9 410.1 406.6 396 382 365 349.1 331.8 315.8 299.6 283.2 274.3 268.2 259.5 261.3 266.1 269 270 272 274.4 278.8 285.5 292.1 303.6 317.2 333 345.3
416.4 429.5 425 415.9 403.8 392.8 381.3 374.3 367.5 361.2 356.1 348.7 353.6 355 355.8 360.3 365.4 368.7 375.4 382.7 387.9 389.2 390.2 390.1 395.3 398.8 394.8 386.9 372.6 363.6 354.8 343.7 331.4 326.1 314.7 309.8 324.1 331.3 331.5 334.2 333.7 334.6 332.2 332.7 328.9 322.4 320.8 312.8 306.6 303.4 300.6 297.3 290.1 288.3 283 284.3 282.6 282.4 282 280.3 278.3 274.5 276.1 281.7 287.9 290.8 302.8 312.2 324.3 335 349.9 362.1 364 362.3 360.9 364.9 379.4 393.5 405.8 413.5 407.8 391.5 374.5 348.3 345 360.3 376.1 394.7 413.1 418.3 426.4 427.8 414.2 399.6 381.7 366.9 349.3 330.6 316.6 307.3 296.1 286.7 281.9 281.5 277.8 273.9 270.5 261.9 263.5 257.5 252.7 246.6 246.3 246.3 246.3 246.3 246.3 246.3 246.3 246.3 246.3 246.3 246.3 246.3 246.3 246.3 246.3 246.3 246.3 246.3 246.3 246.3 246.3 250.5 258.3 263.7 277.7 297.5 317.5 337 354.1 364.9 374.4 381.3 383.8 381.9 373.9 360.2 342.9 343.3 353.1 359.2 371 389 404.4 415.9 426.1 430.9 429.4 431.4 423.9 409.1 388.5 379.2 367.5 360.5 358.2 357.8 359.9 364.2 371.8 378.5 388.6 399.4 403.3 400.5 389.7 375.6 361.1 342.9 325.4 308.1 292.7 277.4 270.6 264.8 260.7 264.7 267.5 270.1 272.7 276.4 280.4 286.6 294.3 301.2 316 331.1 345.3 356.8
434.6 443.5 436.4 426.8 415.2 402.3 390.7 381.2 371 360.7 357.2 351.6 347.7 350.1 350.1 350.8 353.9 358.2 361.7 366.4 368.1 369.3 368 377.3 382.3 388.4 389.2 381.7 373.7 363.3 349.7 337.7 328.7 321.3 311.5 304.7 315.3 316 316.2 316.4 318.4 319.6 317.7 314.2 309.8 306.2 303.6 299.3 294.6 290 287.6 283.9 280.8 279.9 277.1 276.1 273.9 273.9 275 275.5 273.7 270.6 272.1 272.3 274 279.7 288.6 298.2 309.7 322.1 336.4 349.4 354.4 354.8 348.5 355.8 367.2 380.7 393.9 406.3 404 394.1 379.2 358.2 332.3 340.7 351.5 370.2 387.6 392.3 401.7 396.5 386.3 370.2 359.4 345.7 328.6 311.8 300.7 290.7 282.3 276.8 275.9 276 272.8 268.8 266.2 258.7 253.7 251.2 246.6 246.3 246.3 246.3 246.3 246.3 246.3 246.3 246.3 246.3 246.3 246.3 246.3 246.3 246.3 246.3 246.3 246.3 246.3 246.3 246.3 246.3 248 257.5 264.8 275.4 293.3 313.4 332.2 349.7 364.9 376.4 386.1 391.9 393.4 389.7 378.7 363.5 347.8 350.1 356.9 361.8 374.7 390.9 407 420.8 431.3 436.1 437.8 438.8 428.7 413.5 395.7 385.7 375.1 365.5 362.5 361.1 362.8 366.4 371.2 377 385.8 395.1 398.2 391.8 381.7 368.1 351.2 333.3 315.5 298.7 283.8 271 263 261.4 264.2 265.7 268.7 272.1 275.6 280.1 285.2 292.2 302 313.8 328.4 342.8 356.2 368.3
454 451.8 446.4 434.8 422.8 410.3 402.1 390.8 378.2 365.7 358.7 348.6 343.9 336.6 340 341.7 343.4 346 348 349.2 349.5 350.2 353.5 361.2 367.4 373.5 376.7 372.1 368.5 352.3 340 332.6 326.4 318.6 312 301 302.4 302.6 301.4 300.7 300 303 300.7 296.5 293.7 291.3 289.4 286.5 281.3 279.1 275.5 273.4 273.3 272.2 269.7 270.5 268.4 267.3 266.5 268.5 269.4 268 268.3 268.7 268.2 270.1 275.1 283 295.2 307.8 319.9 331.4 339.1 341.2 335.4 339.6 349.3 360.5 374.5 386.6 391.7 389.9 378.5 358 335 323 328.2 346.5 354.3 362.8 373.4 362.7 357 345.1 332.9 316.9 302.8 292.3 282.6 277 272 270.4 270.7 270.3 267.4 261.1 253.3 246.4 246.4 246.3 246.3 246.3 246.3 246.3 246.3 246.3 246.3 246.3 246.3 246.3 246.3 246.3 246.3 246.3 246.3 246.3 246.3 246.3 246.3 246.3 246.3 247.8 256.4 264.4 274.7 287.4 305.7 325.9 345.6 361.9 375.4 386.8 396 399.5 399.1 393.1 380.2 366.4 352 354 360.9 365.2 378.5 395.2 411.9 425.5 435.5 442.8 444.2 441.4 432.2 419.3 403.1 394.2 381.3 370.3 365.4 363.6 364.9 367.7 371 375.9 383.7 389.8 390.7 383.4 373.5 357.9 340.6 322.5 304.5 287.8 275.1 264.4 261.9 265 268.7 269.3 270.3 274.6 278.1 283.9 290.6 298 309.7 324 339 353.6 366.7 378.4
460.6 454.4 447.2 436.5 425.2 417.6 405.6 392.4 378.4 364.6 356 348.4 342.9 336.4 334 334 334 334 334.5 336 339.3 338.8 340.5 343 347.5 351.7 354.8 355 349.8 339.1 331.9 326.5 320.7 316.4 312.5 303.9 294 292.5 290.7 289.5 288.4 287.5 286.5 285.5 283.2 280.3 279.3 277.3 274.7 272.1 271.1 269.7 267.5 262.8 261.3 259.1 260.6 261.1 263.1 263.2 264.2 265.4 265.4 265.4 265 264.8 266 271.5 281.9 290.7 300.7 311.5 318.4 323.3 322.6 320.3 327.1 335.1 346.1 360.9 366.9 366.7 361.9 349.1 336.4 312.7 307.9 321 322.6 338.3 339.3 328.3 323.4 316 302.9 292.4 284 274.9 270.2 266.1 262.5 263.9 264.6 261.4 253.2 246.7 246.3 246.3 246.3 246.3 246.3 246.3 246.3 246.3 246.3 246.3 246.3 246.3 246.3 246.3 246.3 246.3 246.3 246.3 246.3 246.3 246.3 246.3 246.3 247.9 253.5 259.2 267 276.2 285.5 297.6 316.9 338.1 357.9 373.1 385.5 396.5 403.1 404.5 401.6 393.8 381.4 369.1 354.3 358.6 366 370.5 383 399.5 416.2 429.4 439.9 446.1 447.9 442.9 438 427.7 411.2 396.4 383.9 374.5 367.8 365.7 366.2 367.9 370.4 374.5 381 384.6 382 375.3 363.7 347.3 329.3 310.5 292.7 281.4 273 263.5 263.8 269.8 271.7 271.8 273.4 277.1 282 289.2 297.4 304.5 318.2 336.3 349.5 363 375.7 387.3
459.8 453.9 443.8 433.8 424.8 414.9 401.3 387.1 372.5 359.5 351.7 346.4 338.2 334 334 334 334 334 334 334 336.7 325.9 327.1 328.3 327.9 329.8 331.5 330.6 325.5 321.1 317.1 313.3 309.7 307.1 303.8 299.7 292.2 288.3 287.5 285.8 285.1 284.4 282.5 281.4 279.2 276.3 274.9 273.5 269.8 269.7 270.2 267.9 266.5 266.8 265.9 264.3 262.6 262.2 259.5 259.2 260.7 262.3 262.4 262.7 262.3 262.1 261.6 262.3 267.9 272.2 279.4 286.7 291.4 297.8 298.1 299.4 302.3 310.2 318.5 323.9 327.3 329.9 328.9 321.1 311.6 300.2 289.6 295 298.9 309.8 304.6 298.2 293.1 286.2 279.2 272.5 262.8 255.2 255.2 251.2 251.8 253.4 252.3 247.8 246.3 246.3 246.3 246.3 246.3 246.3 246.3 246.3 246.3 246.3 246.3 246.3 246.3 246.3 246.3 246.3 246.3 246.3 246.3 246.3 246.3 246.3 246.3 246.3 248.7 256.2 262.4 268.8 276.1 284.2 294.1 307.7 328.1 350.2 369.4 383.1 395.2 404.4 408.1 408.1 403.2 393.3 381.9 370.7 352.6 364.9 370.7 375.9 388.7 404.7 419.5 432.9 442.3 448.3 449.2 447.7 445.5 434.5 419.2 402.1 386.2 377.3 370.9 366.8 366 366.4 368.3 372.1 376.6 377.5 372.7 363.9 349.7 333.6 316.2 299.4 286.8 278.8 270.9 264 265.5 270.5 273 274.9 276.2 280.3 286.2 296.5 305.8 316.2 333.5 348.6 359.6 372.1 384.5 394.9
457.4 450.5 440.2 428.9 419.1 406.6 391.5 375.9 363.4 351.9 346.8 339.7 334 334 334 334 334 334 334 334 335.9 315.3 307 309.6 310.5 310.7 309.8 308.2 306 303.2 300.8 300.5 298.4 297.4 294.9 292.5 287 286.1 285.1 284.2 282.5 280.6 278.4 276.8 275.7 274.7 273.3 271.9 271.2 271.4 271 271.2 271.3 269.9 268.4 265.4 263.6 262.8 262 259.7 256.9 259.5 259.7 259.8 260.1 259.8 259.1 258.8 258.7 260.5 260.6 264 268.3 274.3 275.6 276.1 278.1 285.3 289 292.7 295.4 298.4 295.8 291.8 284 278.4 273.9 274.5 277 280 279.2 274.4 267.1 261.6 255.6 250.9 246.3 246.3 246.3 246.3 246.3 246.3 246.3 246.3 246.3 246.3 246.3 246.3 246.3 246.3 246.3 246.3 246.3 246.3 246.3 246.3 246.3 246.3 246.3 246.3 246.3 246.3 246.3 246.3 246.3 246.3 246.3 250.4 258.5 265.6 271 277.3 284.4 292.4 303.3 318.3 339.3 360.7 378.1 392.3 403.8 410.3 411.8 408.8 401.1 390 379.9 364.3 366.4 372 376.5 382 395 410.1 424 436 445 451.6 453.9 448.9 441.4 431.7 419.5 405.1 390.5 379.6 372.3 367 363.8 363.6 365.5 368.2 370.1 368.9 362.9 352.3 338.8 323.1 307.2 291.1 281.5 275.9 269.1 263.6 265.2 270.5 273.8 276.4 278.8 284.2 293.6 304.4 316.1 330.6 346.8 358.1 368.6 381.3 395.8 405
445.8 442.2 434 423 409.9 396.6 380.7 366.4 351.5 345.9 335.2 334 334 334 334 334 334 334 334 334 334.6 311.9 294.2 294.2 295 294.7 294.4 293.7 292.4 291.1 290.2 289.2 288.7 288.1 287.1 286.9 284.1 283.5 282.9 282.3 280.7 279.1 277.2 275.7 275 274.1 272.8 271.9 273.8 274.3 274.3 276 276.7 276.3 273.7 268 265.2 262.7 261.3 260.5 258.6 254.7 257.3 257.6 257.6 257.2 256.8 256.6 256.4 256.3 255.8 255.7 255 258.2 259.2 258.3 257 259.6 260.1 264.1 265.5 266.9 264.2 261.2 258.2 260.9 261 257.7 251 252.6 251.8 247 246.3 246.3 246.3 246.3 246.3 246.3 246.3 246.3 246.3 246.3 246.3 246.3 246.3 246.3 246.3 246.3 246.3 246.3 246.3 246.3 246.3 246.3 246.3 246.3 246.3 246.3 246.3 246.3 246.3 246.3 246.3 246.3 246.3 246.3 254.6 262.8 270.6 277.2 281.9 285.6 292.1 300.9 312.5 330.3 351.6 371.6 386.2 399.5 408.9 413.1 412 406.2 396.2 385.9 373.7 373 376.1 377.1 380.6 387.2 401.9 416.5 429.5 441.5 450 455.5 455.9 447 438.9 430.7 419.5 405.2 392.1 381.3 372.9 366.6 362.4 360.6 361.5 363 363.5 358.7 351.4 339.3 325.8 310.2 295.4 286.7 279.3 272.8 268 265.8 265.2 269.6 273.8 277.5 281.8 290.8 300.8 313.2 326.1 340.5 352.7 366 376.5 390.1 404.9 414.6
434.4 428.3 421.5 406 391 381.7 360.8 351.3 341.9 334 334 334 334 334 334 334 334 334 334 334 333.1 310.4 294 291 290.8 291 290.9 290.3 289.4 288.7 286.8 285.5 284.8 284.9 283.3 281.7 281.1 281.1 281 280.1 278.5 277.5 276.6 275 274.4 273.4 272.2 275.6 277.3 279.3 280.2 283.4 284.8 283.4 279.3 274.4 270.6 264.9 262.5 260.8 259.8 257.8 256.3 254.3 255.9 256 255.5 255.2 255 254.6 253.6 252.7 252.1 251.5 252.1 251.6 250.7 250.1 250 249.7 249.1 249.2 249.2 249.6 251.4 253.6 253.7 252.5 248.4 246.3 246.3 246.3 246.3 246.3 246.3 246.3 246.3 246.3 246.3 246.3 246.3 246.3 246.3 246.3 246.3 246.3 246.3 246.3 246.3 246.3 246.3 246.3 246.3 246.3 246.3 246.3 246.3 246.3 246.3 246.3 246.3 246.3 246.3 246.3 248.9 259.8 268.3 276 283 288.8 291.7 293.8 298.6 309 323.5 341.9 363 380.6 394.2 405.4 412.1 413.6 409 400.5 390.7 382 377.9 380.1 381.2 382.6 385.2 393.5 409.3 423.1 434.8 445.6 454.1 456.7 450.7 446.3 439.7 430 417.5 403.4 391 381.8 373.3 364.2 359.3 356.5 356.6 357.3 355.6 349.1 339.2 325.1 312.1 298.4 289.8 282.6 275.8 269.6 268.6 265.6 266.2 269 273.7 278.3 286.4 296.7 309.1 322.2 335.6 346.8 362.7 373.2 384.4 398.3 412.6 423.4
415.8 409.6 400.9 386.3 365.7 360 349.1 336.2 334 334 334 334 334 334 334 334 334 334 334 334 333.1 309.9 294.8 279.7 281.4 287 287.4 287.2 287 286.9 284.3 282.2 282 281.6 279.6 279.2 279.5 279.6 279.6 278.6 277.3 273.5 272.8 274.4 274.6 275.5 278 278.9 282.2 285.5 288.5 291.8 292.6 290.8 286.8 280.1 274.4 270.3 266.5 263.1 260 257.8 256.5 255.4 255.1 255.1 254.6 254.5 254.2 253.7 252.8 252 251.4 250.8 250.6 250.4 250.2 249.8 249.4 249.1 248.9 248.7 248.3 247.9 248 249.1 249.7 247.9 246.3 246.3 246.3 246.3 246.3 246.3 246.3 246.3 246.3 246.3 246.3 246.3 246.3 246.3 246.3 246.3 246.3 246.3 246.3 246.3 246.3 246.3 246.3 246.3 246.3 246.3 246.3 246.3 246.3 246.3 246.3 246.3 246.3 246.3 246.3 250.8 262.9 272.4 280.3 288.5 296.3 299.1 300.2 301.6 305.4 318.3 334.3 352.6 372.4 388.5 401.7 411.2 415.2 411.9 403.5 394.8 386.5 381.1 382.1 383.9 385.9 387.9 391.8 403.1 417.7 428.2 440.1 449.6 457.1 457.5 457 449.7 440 429.8 417.5 404.1 389.5 377.9 368.5 361.6 356.2 352.1 350.6 350.4 346.5 337.5 325.9 313.1 298.9 291.4 286.2 279.6 273.5 271.7 271.2 266.3 267.2 270 274.4 280.3 291.7 304 318.4 332 345.8 357.5 368.1 380.1 393.2 406.3 420.1 431.3
392.7 382.4 369.9 360.7 352.3 341.5 334 334 334 334 334 334 334 334 334 334 334 334 334 334 333.9 310.4 291 284.9 282.4 279 281.9 282.5 282.8 283.1 280.9 279.7 277.1 278.9 279 278.5 278.3 277.9 278.1 277.5 276.1 276.2 276.5 278.2 277.4 279.7 283.4 285.1 289.5 294.1 298.1 299.6 299.4 296 292 288.3 282.4 276.8 271.4 265.9 261.2 258.8 257.5 256.3 255.6 255.3 253.2 254.3 253.8 253.3 252.7 252 251.5 251.1 250.8 250.5 250.3 249.9 249.6 249.3 248.9 248.6 248.2 247.9 247.6 247.6 247.7 246.9 246.3 246.3 246.3 246.3 246.3 246.3 246.3 246.3 246.3 246.3 246.3 246.3 246.3 246.3 246.3 246.3 246.3 246.3 246.3 246.3 246.3 246.3 246.3 246.3 246.3 246.3 246.3 246.3 246.3 246.3 246.3 246.3 246.3 246.3 254.2 265.3 275.1 283.5 292.5 300.7 306.2 307.1 307.7 309.9 315.2 329.6 346.4 364.4 381.9 397.1 408.8 415.4 416.7 409.9 400.2 391.6 385.7 384.9 386 388.3 390.7 394.3 402.1 413.4 425 436 446.8 454.6 457.5 457.1 452.1 444.5 437 426.9 415.3 402 389.9 377.1 366.4 358.8 352.3 348.3 344.6 341.1 334.3 323.9 312.6 299.9 291.6 287.5 282.7 276.7 273.1 273 271.5 266.6 269.9 273.1 277.3 284.9 296.5 311.9 327.2 342.1 352.1 359.4 371.3 387.9 403.5 416 428.4 436.3
361.3 357.7 354 342.4 334 334 334 334 334 334 334 334 334 334 334 334 334 334 334 334 334.6 311.5 290.7 284.1 283.8 284.3 283.4 281.6 281.5 281.6 281.9 282.9 283 283.2 282 279.8 280.2 279.3 277.4 277.7 282.1 284.4 285.7 285.1 281.9 283.6 288.6 293.7 298.5 302.9 306.9 309.4 308.7 304.1 301.7 298.4 292.3 285.3 279.1 273.6 268.5 263.9 261.5 258.4 255.9 255.1 254.6 254.6 253.3 252.9 252.6 252 251.7 251.2 250.9 250.7 250.4 250.1 249.7 249.5 249.2 248.8 248.4 248 247.7 247.5 247 246.3 246.3 246.3 246.3 246.3 246.3 246.3 246.3 246.3 246.3 246.3 246.3 246.3 246.3 246.3 246.3 246.3 246.3 246.3 246.3 246.3 246.3 246.3 246.3 246.3 246.3 246.3 246.3 246.3 246.3 246.3 246.3 246.3 247.7 258.2 267.7 276.7 285.8 295.8 305.3 311.9 314.8 314.6 316.2 320.4 329 344 360 376.7 392.9 405.5 414.5 418.9 417 408.2 398.2 391 388.2 388.9 390.3 393.3 397.3 404.7 414.1 424.3 433.2 444.4 452.8 457 458.2 454 450.2 444.5 434.9 424.2 411.9 401 388.5 375.8 364.2 354.9 348.2 343.2 335.8 329.4 321 310.8 299.5 290.3 286.2 283.1 278.9 274.6 273.1 272.7 268.8 268.6 274.6 277.2 281 290.3 302.3 318.7 335.4 348.4 357.6 365.4 379.1 396 412.8 423.6 429.9 434.1
337 334 334 334 334 334 334 334 334 334 334 334 334 334 334 334 334 334 334 334 333.4 310.5 293.1 292.6 293.4 292.6 290.9 289.8 290 289.6 288.4 287.5 285.7 284.9 284.3 282.9 282.2 284.6 281.4 285.2 285.5 287.6 289.6 289.8 290.4 295.7 300.6 307.4 313.5 316.7 321.3 326.8 325.8 323.2 319.7 312.6 303.7 294.7 289.2 283 278.6 274.2 270.1 265.2 261.8 259.6 257.8 255.5 251.9 253 252.1 252 251.8 251.4 251.1 250.8 250.6 250.3 249.9 249.6 249.3 248.9 248.5 248.2 247.8 247.5 246.9 246.3 246.3 246.3 246.3 246.3 246.3 246.3 246.3 246.3 246.3 246.3 246.3 246.3 246.3 246.3 246.3 246.3 246.3 246.3 246.3 246.3 246.3 246.3 246.3 246.3 246.3 246.3 246.3 246.3 246.3 246.3 246.3 253 262.8 270.5 279.1 288.6 299 308.8 316.8 321.4 324.1 325.2 327.3 334.8 345.6 359.8 374.7 389.7 403.6 413.6 419.9 420.7 417.3 406.6 397.3 392.4 392.8 393.5 395.5 401.1 408.8 416.9 425.5 432.7 440.9 451.1 456.6 460.5 456.8 451.1 446.7 439.9 429.2 418.4 408.3 397.4 385.4 373.1 361.1 351 342.9 335.1 325.2 317.7 308.6 299 290.8 285 281 277.8 275.3 273 272.3 269 268.9 274 278.3 280.7 285.7 295.9 307.9 325.9 340.7 350.8 364.6 373.7 386.8 400.7 412.7 421.2 427.6 431.6
334 334 334 334 334 334 334 334 334 334 334 334 334 334 334 334 334 334 334 334 334.7 313.7 300.5 300.8 300.9 299.4 297.8 296.6 295.6 294.8 293.1 290.6 288.2 286.9 286.4 282.2 284.9 287.2 285.7 288.1 289.5 292.2 294.6 297.8 302.7 307.9 313.9 323.5 330 332.9 337 341.2 341.3 337 332.4 321.6 312.2 305.1 299.1 293.6 290.4 286.8 283.7 279.2 274.4 269.7 264.3 260.9 257.5 254.2 251 252 251.7 251.6 251.3 251 250.8 250.2 250.2 249.8 249.4 249 248.6 248.3 247.9 247.5 247.2 246.3 246.3 246.3 246.3 246.3 246.3 246.3 246.3 246.3 246.3 246.3 246.3 246.3 246.3 246.3 246.3 246.3 246.3 246.3 246.3 246.3 246.3 246.3 246.3 246.3 246.3 247 247.7 248.3 248.1 252.7 257.1 264.3 273.3 282.2 291.7 300.6 311.4 320.6 326.2 330.6 333.8 337.9 342.4 349.5 361.4 375.4 389.1 403.5 413.5 421.2 424.7 423.7 416.1 404.9 398.1 396.5 397.4 400.9 407.4 414.4 421.4 428.8 435.2 441 448.5 455.2 460.2 458.1 452.2 446.7 440.7 431.4 421.1 412 402.6 391.6 379.8 366.7 355.3 345.4 335.4 325.4 315.1 306.5 298.7 292.2 286.3 280.9 276.7 274.5 272.8 271.4 270.7 269.4 273.6 277.8 280.9 284.2 290.9 302.3 314.8 331.4 344.9 358.3 369.6 379.9 390.1 400.3 409.9 416.8 419.8 421
334 334 334 334 334 334 334 334 334 334 334 334 334 334 334 334 334 334 334 334 337.2 320 311.4 311.1 310.8 308.4 306.9 305.1 303.2 301.3 297.5 293.7 290.9 289.3 288 287.5 288.6 290.1 290 292.4 295.2 299.2 303.2 308.7 314.8 320.4 328.1 339 347.1 350.1 349.6 352.4 352.1 349.9 343.7 330.4 326.8 318.6 311.5 308.2 304.9 300.6 297.5 293.8 288.9 282.7 275.8 269.5 264.3 259.7 257 255.3 253 250.5 251.3 251.2 250.4 250.1 250.5 250.2 249.7 249.2 248.8 248.3 247.9 247.6 247.4 246.7 246.3 246.3 246.3 246.3 246.3 246.3 246.3 246.3 246.3 246.3 246.3 246.3 246.3 246.3 246.3 246.3 246.3 246.3 246.3 246.3 246.3 246.3 246.3 246.3 247.3 249.7 251.5 255.7 255.6 260.1 265.3 273.7 282.4 292.2 302.4 313.4 324.3 331.4 335.7 339.7 343.3 351.1 360.2 366 376.2 389.3 402.9 414.3 421.6 426.9 427.9 423.1 413.4 404.2 401 401.8 406.3 415.7 422.6 426.8 432.8 438.8 443.3 449.8 454.9 457.5 456.9 450.5 444.9 439.4 431.6 424.1 415.5 405.3 394.8 385.1 374.5 362.7 351.4 340.5 329.8 319.1 309.3 300.8 294.2 287.9 282.8 278.6 275.9 273.7 273.2 272.2 270.1 271.1 274.8 279.1 282.5 287.2 294.4 306.9 319.8 334.7 348.7 361.9 373.2 386.2 395.3 401.3 403.7 405.2 407.1 409.8
334 334 334 334 334 334 334 334 334 334 334 334 334 334 334 334 334 334 334 334 334.6 331.3 329.1 324.1 321.9 320 317.4 314.7 311.1 307.1 301.8 296.5 293.8 292.4 289.9 290 291.8 293.5 293.1 298.4 302.3 306.5 312 318.6 325.6 330 340.4 354.4 361.1 363.9 359.6 362.3 361.4 357.5 353.3 347.5 344.5 336.5 328.1 328.2 322 316.7 313.6 309.3 304.7 298.8 291.8 283.3 275 270.1 265.7 262.8 259.6 255.8 254 253.4 251.3 248.9 249.4 250.1 249.5 249.5 248.9 248.5 248 247.7 247.4 247 246.3 246.3 246.3 246.3 246.3 246.3 246.3 246.3 246.3 246.3 246.3 246.3 246.3 246.3 246.3 246.3 246.3 246.3 246.3 246.3 246.3 246.3 246.3 246.5 249.2 251.4 253.6 260.4 264.2 267.9 272.8 282.1 292 301.8 314 326.1 335.4 339.4 342.5 349.9 356.3 365.7 374.3 382.6 389.4 401 413.4 422.3 428.8 431.2 428.2 420.3 411.4 406.3 406.8 411.7 419.1 429.5 435.4 438 441.8 445.1 449.3 454.5 458.6 456.9 451 443.4 439.1 433.8 425.5 417 407.9 399.3 390.1 380.2 369.7 358.9 347.5 335.8 323.7 313 304 297.6 291.2 284.9 280.1 277.9 275.7 274.9 273.9 271.9 271.8 272.8 276.7 280.3 284.4 291.4 299.4 309.7 326.2 339.9 351.4 366.2 379 389.7 392.7 391.3 389.2 387.5 391.1 392.5
334 334 334 334 334 334 334 334 334 334 334 334 334 334 334 334 334.8 341.8 355.8 355.4 358 356 347.6 340 337.4 334.4 329.7 324.5 319.3 313.2 306 299.5 297 296.5 292.2 293.9 296 298.2 298.1 302.8 308.2 314.3 320.3 327.2 333.6 340.1 353.3 369 375.1 375.1 369 369.7 370.7 370.2 365.5 363.9 359.9 351 345 342.6 341.2 335.9 333.9 326.7 324.2 319 313.9 302.2 291.1 283.4 279.3 273 267.8 264.6 262.1 260.1 255.8 254.7 252.6 251.1 248.7 248.6 248.8 248.6 248.3 247.9 247.3 247 246.3 246.3 246.3 246.3 246.3 246.3 246.3 246.3 246.3 246.3 246.3 246.3 246.3 246.3 246.3 246.3 246.3 246.3 246.3 246.3 246.3 246.3 246.3 250.9 253.3 256.2 256.2 262.4 266.7 274 279.7 287.9 298 309.5 323.1 335.2 341.3 345.3 350.7 361.2 370.2 379.9 389.6 397.7 402.3 411.4 422.5 429.2 433.3 432.3 426.6 417.8 412.5 413.2 416.8 422.4 432.3 439.8 444.1 446.4 447.1 449.5 453.3 455.4 455.9 451.7 444.2 437 432.1 425.6 417 407.9 400.7 393.6 385.1 376.1 365.1 353.3 342.5 330.4 317.1 308.9 301.5 294.8 289.7 282.5 280.2 277.9 275.5 274.5 273 270.1 272.2 275.2 280.6 285.4 290.3 299.3 309.1 320.4 330.4 345.5 358.1 370 376.5 381 382.3 379.8 376.9 374.2 373.7 372.9
334 334 334 334 334 334 334 334 334 334 334 334 334 334 333.8 343.9 361.8 376 385.9 385.8 384.2 376.1 367.2 360.2 354.8 349.5 343.4 335 325.9 318.1 309 303.6 302.3 299.3 294.2 298.1 300.5 301.8 305.2 305.5 313.7 320.6 327 333.4 339.9 350.8 368.5 382 385.3 382 376.5 377.8 378.3 376.3 375.1 375 372 364.4 363 359.7 357.4 357 355.2 348.9 347.6 345 335.3 326 311.7 304 296.8 287 277.5 275.3 273.2 268.9 265.6 263.2 259.2 253.9 250.8 249.3 248.5 248.8 248.4 248 247.5 246.7 246.3 246.3 246.3 246.3 246.3 246.3 246.3 246.3 246.3 246.3 246.3 246.3 246.3 246.3 246.3 246.3 246.3 246.3 246.3 246.3 246.3 246.3 253 257.2 260.3 263.2 265.1 266.4 274.9 280.8 285.9 293.3 303.7 316.8 332 341.8 345.8 353.7 362.5 372.3 383.9 395.7 403.7 407.7 412.7 419.8 428.7 433.6 435.6 432.7 427.1 420.4 419.4 423.7 427.3 432.7 442.8 448.1 451 450.9 451 451.3 451.3 449.8 447.9 442.6 436.1 430 422.1 414.3 405.3 396.6 390.9 384.9 375.9 366.4 354.9 344.3 333.7 322 311.6 304.9 298.5 291.6 286.4 283 280.2 277.7 275.3 273.8 272.1 272.1 273.2 276.9 284.1 291.8 299.1 308.6 320.8 333.6 341.9 349.4 363.1 369.2 373.3 373.5 372.8 370 368.4 366.4 364 360.7
334 334 334 334 334 334 334 334 334 334 334 334 334 337.1 352.1 372.2 392.4 407.9 416.8 417.3 410 399.2 389.7 380.2 372.9 363.9 355.7 342.7 331.6 323.1 314.3 309.2 306.1 302.8 295.1 303 304.8 306.5 311.1 313.2 312.5 325.5 332.7 338.7 346.8 359.9 375.5 390.8 395.9 392.7 385 384.1 384.8 382.3 387 386.8 385.7 385.3 386.8 384.3 378.9 377.5 378.2 375.4 372.6 367.9 356.2 348.6 333.1 325.5 315.6 302.4 289.9 286.2 283.2 278.6 274.3 272.7 268.4 261.6 255.4 251.1 248.4 246.8 248.4 248 247.5 246.6 246.3 246.3 246.3 246.3 246.3 246.3 246.3 246.3 246.3 246.3 246.3 246.3 246.3 246.3 246.3 246.3 246.3 246.3 248.1 251.9 255.6 259.1 263.3 267 270.3 272.3 274.7 272.9 278.4 285.8 291.5 298.8 310.2 323.6 338.3 345.9 351.1 362.9 373 384.4 396.7 407.1 413.6 417.5 424.3 429.2 434.5 436.9 438.2 435.3 430.5 427.4 429.6 432.3 436.2 443.3 452.5 455 455.9 454.8 452.1 449.3 446.3 442.3 438.8 432.1 424.9 418.2 410.6 401.9 392.3 384.6 378.8 371.8 361.9 352.1 342 332.4 322.6 314.4 307.5 298.5 290.3 288.5 286 282.5 279.8 277.4 275.1 273.8 273 273.8 275.9 280.8 289.1 298.2 308.1 319.6 332.5 344 353.4 359 364.9 369.4 369.2 368.7 366.8 365.7 363.4 361.1 357.7 355.1
334 334 334 334 334 334 334 334 334 334 334 336.8 346.7 360.1 379.5 401.4 421.5 439.1 445.1 444.1 431.3 420.6 408.1 396 386 376.3 364.7 348.2 336 327 319.1 314 310.1 304 303.1 307 309.9 313.1 318.6 322 318.3 325.8 338 343.6 353.7 367.3 383 396.7 401.3 396.8 390.5 393.9 394.5 393.9 397.2 400 401.1 403.2 403.9 402.9 398.7 395.9 397.6 395.5 395.9 392.7 385.6 370.2 357.6 346.6 333.7 319.6 306.3 298.5 295 290.2 286.4 282.5 276.7 268.5 259.5 251.9 248.4 248.1 246.8 247.6 247.4 246.3 246.3 246.3 246.3 246.3 246.3 246.3 246.3 246.3 246.3 246.3 246.3 246.3 246.3 246.3 246.3 246.3 252.3 257.8 263.5 267.4 270.1 271.9 274.9 278.7 280.6 282.5 283.2 281.1 278.2 288.3 295.3 305.4 319.1 330.5 341.3 349.3 358 371.8 383.7 396.4 408 416.5 422.6 428.5 434.3 437.7 440.6 441.3 442.8 440.6 437.2 436.2 437.3 440.2 445.2 452.5 459.5 460.7 457.2 454 450.2 444.9 441.9 435.1 428.7 419.4 411.2 404 396.4 387.4 379.1 371.5 364.3 355.7 345.5 335.9 327.7 320.2 313.8 306.2 299.3 296.1 292.5 288.1 284.9 282 279.5 277 274.9 273.6 274.9 276.4 280.8 288.2 297.2 307.1 318.1 331.6 344.1 354.8 362.9 365.8 367.9 369.2 368.9 367.9 366.2 363.6 361.4 360.9 360.1 359.2
334 334 334 334 334 334 334 334 334 334.6 345.2 355.4 370.1 387.4 407.8 430.9 451.1 462.8 471.2 465.8 453.1 439.5 426.5 408.7 395.8 384.3 368.7 352.8 340.4 332.2 325.2 318.4 312.4 304 310.4 312.1 315.7 320.3 326.4 330.9 331.5 325.3 343.3 350.1 360.3 373.9 387.8 398.2 401.3 399.2 398.7 402.3 402.5 403.4 407 411.5 414.8 415.8 414.6 415.6 414.5 414.1 412.4 415 417.6 420.9 413.4 397.8 388.2 372.2 354 335.5 320.3 310.6 308.3 303.2 298.3 291.1 283.4 273.7 263.1 252.9 248.3 248 247 247.5 247.3 246.3 246.3 246.3 246.3 246.3 246.3 246.3 246.3 246.3 246.3 246.3 246.3 246.3 246.3 251.2 258.2 262.7 268.2 273 277.8 282.8 285.5 286.9 288.9 291.3 291.5 291.4 291.4 288.9 279.7 289.4 300.2 312.9 326.7 337 345.3 350.1 363.5 379.5 394.1 408.2 418 428.2 434.8 438.1 441.3 444.2 446.4 447.6 449.5 449 446.8 445.7 445.8 449.6 455.1 460.8 465.1 464 457.1 450.4 444.5 439.6 435.3 426.5 416.7 407.4 398.9 388.3 378.5 369.8 362.2 355.7 346.9 338.6 331 324.1 319.1 321.2 317.5 313.5 309.3 304.8 297.6 289 283.9 281.1 278.7 276.1 275 276.8 278.9 281.3 287.8 297.3 307.3 318.9 332 346.4 358.2 367.3 371.6 373.5 373.4 372.5 371.5 368.6 365.6 367.1 371.1 370.3 369.5 368.5
334 334 334 334 334 334 334 334 341.7 353.6 362.4 377.9 397.4 415.2 434.8 458.2 475.1 484.9 490.7 481.8 469.1 454.5 440.3 419.2 405.1 388.6 367.9 355.1 344.7 337.2 329.1 319.3 308.8 316.4 317.9 320.6 323.6 328.8 334.8 338.8 339.8 332.5 348.3 355.5 365.7 378.5 390.7 401.3 403.5 403.7 404.6 407.9 409.9 412.7 416.5 422.8 425.2 426.5 427.4 429.6 428.9 430 427 435.6 437.8 440.7 432.9 422.9 410.3 398.3 378 353.8 339.3 329.3 322.8 316.7 308.4 298.4 288.5 275.8 263.1 253.9 248.1 247 247.2 245.9 246.6 246.3 246.3 246.3 246.3 246.3 246.3 246.3 246.3 246.3 246.3 246.3 250.5 257.9 264.1 269.1 274.2 279.1 284.2 289.1 294 298.3 301.3 303.2 304.5 304.9 304.2 302 299.1 296.5 290.5 288.4 302.1 314.6 329.1 339.6 345.7 352 365.9 384.2 401.8 416.2 425.7 438.2 444.9 447.4 448.9 449.8 451.5 456.6 458.8 458 454.8 454.8 455.7 460 464.5 468.4 470.1 464.8 457.5 448.2 439.2 431.4 424.8 417.5 408.5 397.2 384.5 372.9 364.6 356.5 347.2 342.6 342.8 340.6 337.9 338.1 339.2 335.6 330.3 323.3 315.6 305.9 296 288 282.3 279.1 277.3 276 277.5 280.4 282.8 287.6 296.9 308.4 320.1 334.7 349.4 362.4 371.6 379.4 381.5 380.5 377.6 375.6 371.7 368.9 370.4 381.4 384.4 385.1 386.6 387.4
334 334 334 334 334 335.7 343.4 351.4 360.5 372.9 386.3 404.5 425.3 443.2 462.4 479.6 489.9 501.3 500.4 490.1 477.2 463 446.6 427.1 410.3 388.5 368.7 354.7 346.5 339.6 331.8 314.7 322.8 326.5 328 332.2 334.3 337.9 342.7 346.4 347 333.1 353.2 362.8 372.2 382.9 394.5 403.9 407 408.3 409.8 413.4 416.8 419.8 426.4 430.5 431.9 433.7 439.7 443.2 446 447.2 447.4 451.4 455.4 456.1 450.5 440.9 430.6 416.5 398.4 376.1 364 349.7 345.4 333 318.7 308.1 291.9 275.6 263.2 253 247.9 246.5 246.6 246.3 246.3 246.3 246.3 246.3 246.3 246.3 246.3 246.3 246.3 246.3 246.6 254.9 264.3 273.2 280.8 285.6 289.5 294.6 301.8 307.4 311.8 315.7 319.3 320.7 319.7 318.8 316.5 312.5 306.9 302.5 296.1 288.4 302.2 312.7 325.8 336.7 344.2 352.8 364.9 383.2 402.8 418 430.4 443.3 452.6 455.8 460.2 459.5 461.1 466.6 468.9 469.4 468.4 464.5 467 470.9 472.9 474.5 471.7 463.6 454.9 443.2 433.3 422.7 415.3 407.7 397.2 384.6 374.7 364.6 360 361.1 358.8 356.4 353.7 352 354.4 355.6 352.6 347.6 338.9 328.4 314.7 303.4 294.5 287.1 281.1 278 277.1 277.4 280.6 283.7 286.9 295.9 307.5 320 335.3 352.5 364.8 374.1 382 388.3 387.2 383.4 378.9 374.4 377.4 384.4 392.3 400.3 401.7 403.7 407.1 405.2
334 334 334.4 341 346.7 353.3 364 374.4 387 400.2 414.4 431.4 450.3 466.1 480.4 492.4 503.1 510.4 501 491.4 479.4 465 447.6 427.5 402.2 384.6 369.1 354.8 346.7 338.5 328 328.6 332.4 339.3 341.3 344.3 347.2 349.1 351 353.3 355 344.1 356.6 368.4 378.5 388 397.3 406.4 411 414.2 415 418.3 422.8 427.6 433.1 436.2 439.1 443.5 450.3 455 458.4 463.3 464.9 465.7 469.9 470.4 466.3 458.1 447.3 432.8 414.4 396.1 382.7 371.1 362 343.9 328.3 311.2 294 276 261.9 251.9 247.2 246.3 246.3 246.3 246.3 246.3 246.3 246.3 246.3 246.3 246.3 246.3 246.3 251.3 260.6 269.9 279.2 289.3 298.7 303.9 307.1 312.1 320.4 326.9 331.8 336.4 340.6 341.5 338.3 333.3 326.6 319 311 304.9 297.8 290.6 301.3 311.3 323.3 335.2 343.8 353.7 364.3 378.9 396.5 412.7 429.9 444.4 454.5 463.4 468.9 468.8 471.8 477.7 480.2 480.4 476.7 475.5 478.3 481.6 481.6 479.1 471.4 461.8 449.6 435.7 424 411.2 401.3 393.6 384.9 375.3 373.3 371.1 371.9 375.1 375.8 374.7 372.5 371.1 371.7 369.8 365.4 355.5 341.5 325.6 311.6 300.6 292.8 286 280.1 277.8 276.8 280.6 283.8 287.4 294.6 306.1 318.8 334.2 353.9 369.4 377.9 384.3 388.9 391 387.4 382.3 377.8 381.5 392.2 398.6 406.8 409.7 411.6 419.2 418.6 415.7
336.6 344.1 351.3 358.8 367.7 376.3 391.2 399.5 413.5 429.2 442 458 470.1 482.7 493.7 503.7 513.7 509.3 499 489.8 478.1 462.5 443.1 422.2 397.1 381.4 367.3 355.3 346.5 337.5 333.5 337.7 343.9 352.2 355.1 357.1 358.4 359.8 360.6 361.9 362.7 357.3 356.9 373.1 382.8 392.2 400.6 409 416.4 420.4 420.3 424.3 428.8 433.9 437.8 441.7 445.9 452.1 459.1 463.7 467.8 473.1 476.2 478.8 481.4 479.7 474.6 467.6 458.6 445 429 414.4 399.9 384.5 369 350.4 331.2 312.6 292.5 272.9 258.8 249.7 246.3 246.3 246.3 246.3 246.3 246.3 246.3 246.3 246.3 246.3 246.3 246.3 252.8 264.7 276.1 287.4 295.8 307.8 320.5 326.3 328.6 333.6 341.7 348.5 354.4 359.4 363.6 362.1 354.7 343.5 331.8 320.8 311.9 304.4 297 293 303.9 316.2 328.6 337.5 349.4 359.1 367.3 376.6 390.2 406.2 425.1 442.7 455 465.8 472.2 476.8 483.4 487.9 490.9 489.7 486.5 487.8 489.3 490.3 486.8 479.1 467.6 457.5 444.7 427.8 413.2 404.4 392.4 387.3 386.3 383.8 381.8 383.6 389.5 393.3 394.7 394.7 392.9 390.2 389 384.1 373.6 357.6 340.2 323.3 307.3 298.2 291.4 284.3 279.4 278.1 279.4 282.7 286.3 292.7 303.1 317.6 333.2 351.7 370.3 382.6 390.3 393.6 394.2 393.3 387.9 383.6 380.4 391.9 403.3 407.4 411 414.4 424.1 428 426.6 422.3
355 363.4 370.9 378.5 390.3 404.6 419.8 432.4 444.2 455.7 466 475.7 486.6 496.8 505.6 512.7 511.6 502.3 494.3 485.4 472.8 455.2 436.7 415.1 394.7 380 365.8 354.4 344 332.7 341.9 350.4 355.7 364.1 366.7 367.1 367.8 368.9 369.5 369.9 369.4 364.3 356.7 376.3 387.3 396.6 405.1 413.1 420.5 424.9 427.3 431.2 434.4 438.1 441.2 445.4 450.2 458 464.8 469.1 474.2 479.3 482.5 484.9 485.8 483.1 478.1 470.5 462 451.8 439.9 427 410.5 389.5 370.5 353.2 330.9 310.4 289.2 269.4 256.4 246.4 246.3 246.3 246.3 246.3 246.3 246.3 246.3 246.3 246.3 246.3 246.3 253.6 264.6 278 291.9 305.2 319.8 336.4 349.6 353.4 353.8 358.7 366.9 373.7 379.2 383.1 384 376.6 363.5 349.5 335.2 322.4 312.9 305.2 297.9 297.5 310.3 322.9 331.9 345.3 359.3 367.5 373.9 379.9 388.8 402.8 421.1 439.4 454 467.6 476.9 485.9 492.5 497.3 499.2 498.5 498.1 498.4 498 496.1 488.9 478 464.9 452.5 437.5 421.2 410.5 404.5 403.1 399.7 396 392.5 391.8 399.9 407.9 412.2 415.9 416.1 413.3 409.4 402.1 390.1 373.7 354.2 335.4 319.1 304.4 295.3 289.5 283.6 279.2 279.6 281.6 284.8 290.5 301.1 314.8 331.2 349.4 368.4 383.8 394.9 400 401.4 400.6 398 390.7 385.6 386.8 401.3 409.9 414.9 416.7 424.9 431.9 436.3 433.6 427.6
381 389.4 394.7 397.4 415.4 436.8 448.6 457.3 465.3 472.9 482.4 491.2 499.9 507.6 512.2 510.2 501.9 492.7 485.7 476 462.9 445.7 426.2 406 391.4 375.6 363.5 351.9 338.9 342.2 350.8 359.5 365.6 371.8 376.2 376.4 375.3 375.6 376.4 376.5 375.5 371 357.5 378.7 391.4 401.2 409.8 417.3 424 429.6 434 436.7 439.6 442.8 444.8 448.9 454.2 461.1 466.9 471.2 476.3 481.6 485.8 486.8 485.2 481.7 477.2 470.1 461.6 452.3 443.3 429.2 410.3 390.8 371.3 349.5 325.8 305.5 284.9 264.8 249.4 246.3 246.3 246.3 246.3 246.3 246.3 246.3 246.3 246.3 246.3 246.3 251 263.6 276 291.8 310 328.9 350.6 370.8 381.7 382.2 381.2 384.7 393.6 399.7 403.5 404.5 399.8 386.4 369.3 353.8 338.9 325.2 315.8 308.2 301.8 303.2 315.6 327.4 338.2 354.7 368.3 374.9 380.9 386.7 394 404.2 419.6 435.7 453 469.3 483.7 493 499.9 504.3 507.1 507.3 506.9 507.4 505.9 498.1 489.8 477.3 462.1 448.1 432.3 420.6 418 417 414.9 411 406.3 402.7 404.8 414.8 422.4 428.5 432.3 431.1 428.1 421.1 406.3 389.5 370 349 330.8 314.3 301.6 293.7 288 283.1 280.1 281.4 284.3 288.5 298.7 313.7 329.6 346.9 365.4 382.8 397.3 402.6 405.6 406.5 406.2 402.6 394 388.5 394.5 406.6 414.6 419.2 424.8 433.8 438.9 440.7 437.1 431.4
406.4 415.3 420.5 420.9 443.7 456 466 473.8 480.3 487 495.2 502.9 508.3 511.4 506.5 497.4 487.6 479.8 472.4 462.7 448.6 430.2 408.6 395.3 381.9 368.3 358.7 348.5 342.8 349.8 359 367.6 373.1 379.5 384.4 386.3 383.9 382.9 383.2 382.3 380.8 377.1 363.9 382.4 395 404.9 414.3 423.2 429.2 434.3 438.3 442.7 446.3 449 449.7 453 457.6 462.9 468.4 472.3 476 480.3 483.2 483.5 481.3 476.9 471.8 465.7 457.9 449.1 439.3 424 406.3 388 366.3 342.6 320 299.4 279.9 255.7 246.3 246.3 246.3 246.3 246.3 246.3 246.3 246.3 246.3 246.3 246.3 246.3 259.6 274.7 289.5 308.3 330.1 354.9 380.2 400.2 407.8 409.4 409.4 411.9 419.3 423.7 424 421.6 411.8 394 374.5 357.4 342.2 328.6 319.5 311.7 304.8 304.9 317.9 329.3 344.8 362.3 375.4 382 388 394 400.9 411.3 421.9 436.2 452.9 470 485.3 496.8 506.5 512.2 514.5 515.1 514.8 514.6 508.7 501.2 492.7 478.6 462.8 447.5 432 430.8 432.2 430 427.7 423.9 419.2 414.3 416.3 425.3 433.5 440 443.2 440.6 436.2 424.4 406.3 387.2 365.2 344.1 326.1 309.6 299.7 292.3 287.1 283.1 280.4 283.5 287.3 294.4 309.7 327.3 344.8 362.5 380.1 395.6 406.1 412.3 415.2 415.2 411.9 403.7 397 390.9 397.9 409.7 416.8 423.6 433.4 441 445 443.5 439.7 432.6
429.6 436.8 441.8 450 460.5 470.5 478.5 485.2 491.1 497.6 504.7 509.7 509.7 502.3 491.6 481 472.8 464.4 455.9 445.4 428.9 412.3 397.6 385 371.8 361.1 352.8 343.3 350.2 356.9 365.5 374.9 381.5 386.7 390.6 392.5 392.6 390.6 389.5 388 386.2 383.4 372.3 385.2 397.8 407.9 418.2 427.9 434.1 440 445.6 449.3 453.1 455.9 455.8 457.1 460.8 465 469.1 472.9 474.6 476.5 477.3 475.9 473.4 468.5 463.1 457.3 449.7 442 430.9 416.6 399.6 381.9 356.2 332.8 310.8 291 271.6 248.4 246.3 246.3 246.3 246.3 246.3 246.3 246.3 246.3 246.3 246.3 246.3 252.6 270.1 287.5 305.1 324.9 349.2 379.1 403.6 419.6 427.2 432.7 436 438.4 441.2 442.9 441.5 435 420.6 400.8 380 361.7 345.5 332 323.1 315.5 308.1 305.9 319 331.9 351.7 370.6 382.2 389.1 395.1 401.2 408.1 417.5 427.7 439.9 455.2 471.3 486.5 500.4 511.3 518 522 521.4 520.3 517 508.4 501.4 491.3 478.6 464.7 449.5 437.3 443.8 444.7 442.5 440.3 438.2 430.5 424.6 425.6 432.9 441.4 448.2 450.2 446.5 438.9 423.2 404.4 382.4 359.9 339.1 320.8 306.2 298.6 291.2 285.6 283.1 284.1 286.8 292 304.8 322.5 340.9 359.1 375.1 392.4 407.4 416.5 421.8 424.6 422.4 413.8 404.3 399.5 392.6 400.9 411.2 418.5 430.5 439.2 446.2 448.4 446 442.1 434.7
450.3 452.5 453.9 463.2 472.6 480.5 486.7 492.7 497.6 503.5 508 506.1 497.8 485.9 473 463.9 457.3 448 438.5 427 410.2 396.9 386.2 374 363 354.8 349 348.9 356 363.8 373.7 382.9 391.3 394.1 395.3 396 397.6 396.4 394.9 393.7 391.9 389.6 383.8 381.2 399.7 410.9 421.8 432.2 439.6 445.5 450.7 457.2 459.7 461.4 461.8 460.9 463.9 466.3 470.2 472.5 473 472.7 470.1 466.5 463.3 458 451.6 444.3 436.7 428.9 419.3 406.5 389.4 363 335.8 314.2 298.6 281.6 258.3 246.3 246.3 246.3 246.3 246.3 246.3 246.3 246.3 246.3 246.3 246.3 246.3 261.7 278.8 297.2 317.7 339.9 367.9 396.6 417.8 430.6 440.1 448.7 453.3 455.1 456.1 456.2 453 444.7 428 407.1 386 366.2 349.1 335.4 325.9 318.4 310 306.3 319.5 336.2 357.9 376.9 387.4 395 402.3 408 414.5 422.4 432.3 444.7 458.6 474.3 489.6 503.4 515.4 524.4 527.5 524.6 521.3 515.5 507.5 500.1 489.8 478.9 465.1 449.5 449.5 454.6 454.9 453.7 450.5 446.2 439 434.9 434.3 438.2 444.8 450.3 451.3 447.2 436.1 419.6 400.6 376.4 352.7 332.5 314.8 303.6 296.7 290.1 284.4 284.1 287.8 292.5 302.1 318.3 335.2 354.6 372.8 386.8 402.4 418.2 428.2 431.1 429.1 424 414.9 406.1 402 395.1 402.3 411.7 426.8 439.2 445.2 450.2 451.4 449 444.6 437.9
464.9 464 463.9 472.9 479.6 485.3 491.4 495.3 500.1 504.6 501.7 492.7 480.3 467.4 456.1 447.5 439.1 429.8 420 409.1 395.2 384.8 375 364.8 356.6 352.9 353.4 353.9 362.2 372.3 382 391.2 400.6 400.9 399.1 400.3 402.5 401.5 400.2 399.7 398.1 396.7 394 382.3 401 413.2 424.4 435.1 442.7 450.3 457.6 466.1 467.4 466.2 465.9 465.4 466.7 468.4 470.9 472 471.3 468.7 463.7 459 453.3 445.8 437.1 427.3 417.9 409.2 399.6 387.6 366.7 336.2 313.4 298.5 284.3 270.2 250.8 246.3 246.3 246.3 246.3 246.3 246.3 246.3 246.3 246.3 246.3 246.3 251.2 267.7 284.9 304.1 328.6 355.7 382.5 406.2 424.2 437.2 447.9 457.1 462.4 464.4 465.6 464.5 459.7 449.2 432.1 411.3 389.8 369.8 353 338.9 328.8 319.8 310.4 311.4 321.2 339.4 360.6 379.9 390.2 397.6 404.6 412 418.9 426.3 435.6 447.8 463 478.2 493.6 507.8 519.1 527.7 527.7 524.5 519.8 511.7 504 496.4 487.1 475.2 461.2 453.5 460.2 463.9 464.8 463.5 460.6 454.9 449.9 444.1 442 442.5 445.4 449 449.1 443.1 431.6 416.1 393.2 368.8 345.6 325.4 310 301.7 295.1 289.4 285.1 287.1 291.4 298 312.8 331.6 351.1 370 383.8 397 413.1 427.8 435.3 434.5 431.2 425.2 416.9 408.8 404.7 398.9 406.8 420.7 433.2 443 449.6 455.4 457.2 455.3 450.8 443.4
474.7 471.2 471.8 476.6 481.1 485.1 488.3 491.1 494.1 492.7 484.5 474.6 461.1 450.3 439.9 429.9 421.7 411.3 400.9 392.7 383.5 374.5 366 358.2 352.8 361.1 363.7 357.8 367.9 379.1 388 396.4 405 405.3 404.5 406.3 408.3 407.3 407.1 406.7 405.4 404.3 403.3 396 397.1 414 425.5 437.4 446 453.8 463.2 471 473.4 472 469.8 468.8 469.1 470.2 471.6 471.7 469.9 466.3 460.5 452.1 443.6 432.4 420.2 407.8 395.3 384.7 373.6 360.2 341.6 320.5 302.9 288.2 274.2 259.9 246.3 246.3 246.3 246.3 246.3 246.3 246.3 246.3 246.3 246.3 246.3 246.3 259.6 274.4 289 311.8 339.2 366.5 391.1 413.1 430 443.2 454.3 463.8 469.1 471.5 471.6 469.6 463.2 450.5 432.8 412.4 391.7 372.5 356.2 341.9 330.8 320.8 310.6 315 323.5 339.5 358.7 376.9 389.8 396.8 403.7 410.9 418.9 426.9 438 452 467.8 483 498 510.7 522.2 528.5 525.6 521 515.6 509.3 500.3 491.6 481 467.8 463.1 467.1 472.2 473.4 473.1 473.4 472.1 466.7 460.4 453.4 448.4 445.4 445.2 445.3 444.2 437.7 427.5 409.3 385.8 359.8 337.1 316.9 305.5 299.7 294.1 288.6 286.5 290.9 296.1 306.3 326.1 346.7 366.4 380.9 393.6 408.4 422.4 436.1 439.5 435.8 432.5 427 420.1 412.4 407.6 402.5 413 426.3 436.8 447.1 458 462.4 463 461.3 457.3 449.3
479.3 474.6 474.9 477 477.3 478 478.1 479.3 479.5 475.1 466.2 454.1 442.6 433.4 423.5 415.2 406.8 396.5 388.7 381.5 373.6 365.6 359.4 363 367.6 372.6 375.7 364.6 372.3 384.7 394.5 403 411 412.8 411.6 412.9 414.7 414.8 415.2 414.8 413.3 411 410.4 407.3 394.7 413.2 424.7 436.8 447.5 455.8 466 473.9 476.8 475.3 473.1 472 471.6 472.2 472.4 472.3 470 467.4 464.2 458 449.6 439.2 427.1 417.4 406.8 390.8 372.6 353.5 330 310.2 292 279.9 267.4 254.5 247 246.3 246.3 246.3 246.3 246.3 246.3 246.3 246.3 246.3 246.3 251.2 266.1 279 294 320.7 349.8 377 400.7 420.4 435.6 449 460.4 469.8 474.6 475.9 474.7 471.5 463.3 450.3 432.8 413.1 393.3 374.7 358.5 344.5 332.6 321 313 318.7 324.5 336.8 352 367.1 381.7 393.8 401.4 408.2 416.7 426.9 441.9 456.9 471.8 487.4 501.5 512.1 522.3 524.7 521.6 517.5 513 506.6 498.3 488.5 480.4 476.3 476.9 480.3 481.8 481.3 483.5 485.7 483.2 477.4 470.1 461.4 453.8 447.6 444.3 441.3 437.3 431.6 418.8 400 376.7 349.3 327.1 311 303 298.3 293 287.3 289.1 294.2 302.3 320.5 340.3 360.2 377 390.1 407.4 421.4 432.5 441.3 439.7 437.9 437 433.6 427.4 420.3 413.7 406.9 416.6 428 439.4 451.9 462.3 466.1 466.6 466.5 463.1 455.4
479.9 475 473.1 472.3 470.7 468.6 466.4 463.6 459.9 455 444.4 434.6 424.8 416.9 409 401.9 394 384.9 378.5 371.6 364.7 368.4 371.1 375 380.7 384 385.8 379.2 376.5 389.9 400.1 409.7 416.9 419.6 420.5 421.4 423.1 423.6 423.7 423.7 421.3 419.3 417.6 415.2 409.5 411 424.1 435.1 446.4 456.5 467.7 476.8 480.9 478.3 476.1 474.7 475.1 475.8 475 473.7 473.1 474.3 472.2 468.7 462.5 454.4 443.8 433.8 421.7 402.6 375.4 355.3 329 307.3 289.5 277 264 251 246.8 246.3 246.3 246.3 246.3 246.3 246.3 246.3 246.3 246.3 246.3 258.5 273.1 285.9 301.9 328.2 358.4 386.7 409.1 426.1 440.7 454.5 466.6 475.1 477.6 477.2 474.7 469.4 461 447.7 430 411.8 394.2 376.5 359.2 345.1 333.7 322.9 317.3 322.8 330.2 338.9 347 359 370.9 383.9 395.5 404.5 415.3 427.9 442.3 457.2 473.2 489.9 505 515.5 521.5 521.5 519.6 516.1 512.3 505.7 499.8 495.8 491.4 490.8 491.7 492.6 490.8 495.4 497.9 497 491.9 484.4 477.9 468.4 458.1 449.8 443.7 437 429.6 421 406.2 388 361.1 332.7 316.9 306.9 300.9 296.4 291.8 287.8 292.1 297.4 312 335 353.1 373.9 388.8 405.9 421.3 435.1 440.7 443.6 444.3 446.7 447.5 440.5 434.3 428.3 421.2 415.5 416.2 429.4 443.8 457.2 467 471.8 473.1 472.1 469.7 463.5
477 472.1 467.4 462.6 458.3 453.7 449.6 445.7 439.5 431.4 422 415.6 408.4 401.7 395.9 388.2 382.3 376 372.2 374.2 377.8 382.6 386.8 392.9 396.6 399.6 399.4 391.7 381.2 396.4 407.6 416.9 423.7 426.8 428.4 430.5 432.6 434.5 434.8 433.8 431.6 429.4 426.1 422.7 419.3 407.9 424.5 434.1 444.9 456.8 468.4 478.5 482.8 480.9 478.5 477.9 480.5 481.5 481.3 479.9 480.9 482.9 481.4 478.6 472.2 464.5 454.2 442.4 428.2 402.2 373.7 352.2 325.5 305.7 289.4 276.2 259.4 247.4 246.3 246.3 246.3 246.3 246.3 246.3 246.3 246.3 246.3 246.3 248.6 263.9 277.9 292 309.5 334.5 363.8 392.5 413 429.4 445.1 459.6 470.8 475.9 476.9 475.7 472.2 464.9 454.3 440.4 423.7 407 390.2 373.4 357.1 343.8 332.7 323.7 323.5 325.6 335.7 346.3 357.5 367.9 376.2 382 392.5 403.1 414.5 428.5 443.9 458.6 474 490.6 505.1 514.8 521.5 524.7 521.9 517.4 514.4 510.8 508.1 505.3 503.1 503.2 503 502.6 505.5 508.3 508.8 504 497.7 489.9 482 471.8 462 453.1 443.1 432 419.1 404.8 390.2 369.9 342.1 318.9 309.4 303.1 298.9 293.8 289.7 289.7 295.2 309.1 331 352.3 372.6 389 403.2 418.1 430.7 442.1 447.4 448.6 453.1 454.9 451.3 446.5 443.7 439.5 430.8 424.1 417.5 431.3 445.5 458.7 470.4 476.4 479.1 479.1 477.5 472.4
473 466.6 459.8 453.6 448 441.6 435.9 429.9 422.9 417.5 411 404.2 398.6 392.7 387.6 382.2 377.2 376.1 381.1 387.8 392 396.5 401.3 405.4 407.7 408.3 406.8 399.2 381.9 400.8 411.5 421.3 430.2 434.4 435.9 438.9 441.8 443.1 443.9 443.4 441.4 437.3 433.2 429.2 424.6 421.9 418.1 432.5 443.5 454.1 466.5 477.6 484.5 482.4 480.8 481.9 486.4 486.9 486.6 486.8 488.5 489.8 487.3 483.5 476.9 468.5 457.7 444.4 427.5 402.4 375.7 346.6 323.9 304.7 288.2 275.2 255.3 246.3 246.3 246.3 246.3 246.3 246.3 246.3 246.3 246.3 246.3 246.3 255.7 267.1 279.9 294.2 312.2 336.2 364.3 392.6 414 431.6 448 462.4 469.9 474.3 475.3 473.5 468.5 458.7 446.4 432.1 417 401.2 384.9 369.3 354.8 342.2 331.1 329.5 331.7 329.4 340.1 352.2 365.9 378.7 387.1 392.6 399.6 408.3 419.9 434.8 450 464.2 476.6 490.1 504.3 516.3 524.3 526.3 524.6 520.9 518.9 517.6 515.8 514 513 513.4 513.9 515.4 517.7 518.2 514.4 508.5 501.6 493.9 485 472.6 461.8 452.2 441 427.9 410.1 390.5 371.5 348.2 327.9 315.5 307.5 300.8 296.1 291.6 290.2 291.5 301.5 321.4 343.5 364.1 384 399.6 414.7 428.5 440.5 447.7 451.3 455.6 460.3 461.2 458.4 454.9 452.1 447.3 436.7 429.2 420.2 431.8 444.4 459 473.6 482.1 486 487.5 486 480.4
469 462.1 455.5 450 443.8 436.1 427.4 421.3 415.5 410.2 403.8 398.2 392.9 389.5 384.1 381.4 384.7 389.2 396.3 402.2 408.7 415.2 418.2 417.9 417.1 415.4 412.2 403.3 384.7 404.8 415.8 425.7 436.4 442 445.3 447.4 449.9 450.8 451.3 450.6 449.2 445.3 440.6 435.5 431.3 430.3 431.4 425.7 440.3 450.2 461.8 473.9 480.7 482.6 483.4 486.9 490.7 492.2 491.8 492.9 494.5 493.5 490 484.5 477.4 468.4 457.4 444.5 424.2 400.4 377.4 350.9 329.1 304.3 290.4 275 256.7 246.3 246.3 246.3 246.3 246.3 246.3 246.3 246.3 246.3 246.3 246.3 258.5 269 281.4 295.7 313.4 336.5 364 391.6 414.8 433.1 449.9 461.7 467.7 471.8 472 468 461.3 450.9 438.3 424.1 409.1 394.1 378.9 364 350.8 339.9 336.4 337.8 340 338.2 342.4 356.6 371.9 385.9 395.6 401.8 407.5 415.6 427.7 442.3 457.1 469.6 480.4 492.7 505.9 518.4 526.3 529.8 528.5 526.4 526.9 526 524.5 523.3 522.1 523.1 525.2 527 526.7 523.6 518.4 511.3 503.7 496.3 484.9 472.8 460.3 447.9 435.7 420.7 401.2 379.6 360.4 339.9 322.7 312.5 305.1 298.2 293.9 291.5 291.6 295.7 310.8 332.9 355.8 373.3 391.8 409.8 425.1 438.9 448.2 454.7 460.8 462.5 468.6 465.8 462.7 462 456.8 449.2 439.5 433.2 424.5 434.3 448.1 463.4 476.8 486.1 490.8 492.9 491.6 487.8
467 461.6 456.1 450.5 444.2 436.7 427.2 418.6 410.8 405.9 400.5 394.4 389.8 386.1 387.3 391.5 396.9 404.7 413.1 422.8 431.1 432.9 429.6 425.9 423.2 420.1 414.9 402.3 392.3 410.1 420.3 429.5 440.6 448.4 452.3 454.3 456.3 457 457.6 457.4 455.5 452.3 448.3 442.1 438.4 437 437.5 438 436.8 447.3 455.1 466 476.1 480.1 484.4 488.9 491.9 493.8 494.2 495.8 497 493.9 489.2 482.9 475.7 467.2 455.6 442.4 419.4 397.1 376.7 348.8 328 303.5 284.4 266.6 252.7 246.3 246.3 246.3 246.3 246.3 246.3 246.3 246.3 246.3 246.3 246.6 261.4 271.4 283.3 297.6 315.5 338.6 365.2 391.2 414.5 432.8 448.9 459.3 465.2 468.7 467.3 461 452.8 442.3 430.2 416.4 401.5 386.5 371.5 358.4 347 339.8 343.7 345.9 347.8 346.9 344.8 358.3 374.8 388.9 400.2 407.6 414.2 423.5 435.9 449.9 463.6 474.9 485.5 497.6 509.5 521.5 530.1 534.3 532.7 534.3 535 534.9 533.4 531.1 531.5 533.7 535 534.6 531.6 527.3 520.1 511.8 503.8 494.6 483.2 471.5 457.2 442.2 427.2 411.2 392.9 373.2 353.2 333.8 317.6 309.6 303.6 295.9 292.9 293.5 295.6 302.4 321.3 345.2 365.1 381.7 402.7 420.1 434.5 449.1 454.9 462.9 467.6 471.1 472.2 467.7 466.9 463.5 456.6 450.7 445 437.2 429.4 437.3 450.7 465.6 478.2 487.3 493.9 496.1 495 493.3
468.5 465.4 461.4 454.4 446.2 439 427.6 417.7 410.8 405.7 400.6 395 396.3 397.3 399 403.4 412.2 420.4 431.9 441.3 442.3 438.9 435.2 431.5 427.3 422.5 416.1 407.2 395 413.1 424.2 433.8 443.9 453.1 458.2 460.4 462 463.6 464.2 463.9 462 458.9 455.4 448.8 445.6 444.1 443.8 443.8 445.7 449.4 455 461.6 469.4 476.3 481.8 487 490.3 492.1 494.1 496.7 496.6 491.6 486.2 479.8 471.6 462.6 452.9 437 414.3 394.3 374.6 346.5 321.5 301.5 277 260.2 249.7 246.3 246.3 246.3 246.3 246.3 246.3 246.3 246.3 246.3 246.3 253.8 264.8 274.6 286.4 301.1 318.7 341.9 367.1 391.9 413.4 430.8 446.5 456.5 461.6 464.4 461.5 453.6 444 433.4 421.1 408.6 394.4 379.3 365.1 353.5 345.5 351.4 354.3 356.5 356.9 356.4 355 356.5 371.1 386.2 399.3 410.7 419.9 430.8 443.1 456.8 470.6 483.3 494.6 505.3 515.8 525.5 534.2 537.3 539.1 541.2 543.3 543.8 541.2 539.5 540.9 541.8 541 537.9 533.3 526.6 518.4 510 501.3 491.6 479 464.8 450.7 435 418.4 403.1 384.8 364.1 343.1 323.1 313.1 306.8 301.6 294.8 295.5 297.3 302 311.5 333.6 354.7 373.1 392.3 409.1 428.6 444 454.5 463.8 470.2 473.6 473.2 473.8 474 469.3 464.3 461.2 456 449 440.4 433 440.9 453.4 466.4 478.2 488.1 494.9 497.7 497.8 496.4
473.6 471.6 467.4 460.9 453.8 443.5 430 419.4 412.9 407.5 401.8 400 405 406.4 413.8 421.9 431.7 442.4 448.6 449.2 447.2 444.2 438.1 434.5 429.5 424.6 420.3 410.8 398.1 417.2 427.8 437.9 446.8 456 462.8 465.7 468.2 470.1 470 469.9 468.4 465.5 461.4 456.1 453.2 450.8 449.6 449.7 451.5 453.9 457.8 462.4 468 474.3 479.8 484.4 487.1 489.8 493.5 496 493.1 487.2 480.9 474.8 466.2 456 448.1 429.7 408.3 387.1 363.6 338.9 314.7 292 271.5 256 246.3 246.3 246.3 246.3 246.3 246.3 246.3 246.3 246.3 246.3 246.3 259.6 268.7 278.7 290.6 305.5 322.9 344.3 368.8 391.6 411.6 428 443.2 451.9 456.4 458.7 454.9 446 435.7 424.9 413.3 401.1 387.7 373.1 359.6 349.8 357.6 364 367.8 370.4 369.9 366.7 362.8 359.2 368 382.7 397.2 411.8 424.6 436.8 449.7 463.4 477.1 491.5 503.7 512.6 521.6 531.6 538.2 542.9 545.6 547.2 549.3 549 548.9 547.7 546.6 546.3 542 536.2 530 523.3 513.4 505.4 495.4 483.8 471.4 457.3 443.3 424.7 409 392.7 375.2 352 329.9 315.5 309.3 304.7 299.5 296.8 298.6 301.2 306.5 322.4 343.1 360.8 383 400.1 416.9 434 447.3 458.6 467.8 476.9 475.7 477.5 479.1 474.7 471.9 470.1 465.6 457 448.6 441.2 436.6 443.1 453.7 467.7 480.5 491.1 498 502.5 504.6 500.7
480.4 478.1 475.2 472.2 462.3 448.8 434.4 423.7 416.8 410.7 404.2 412.4 417.7 422.1 434.9 443.6 454.1 456.4 458 454.5 451.5 447.1 441.5 436.7 432.6 427.6 424.9 419.7 408.2 421.2 431.4 441.3 450.5 459.2 466.2 470.5 473.9 475.7 475.8 475.5 475.3 471.4 467.4 463.1 459.3 458.1 458.9 460.7 461.7 462.2 463.8 467.7 472.3 478.2 482.1 484.9 487.3 489.2 492.1 492.9 487.4 480.4 473.8 467.2 459.9 450.2 439 421.3 401.5 374.2 348.2 327.3 304.7 283.7 265.4 251.3 246.3 246.3 246.3 246.3 246.3 246.3 246.3 246.3 246.3 246.3 250.9 264.1 274.5 285 297.3 311.9 328.5 348.2 369 390 408.7 423.9 436.5 445.5 451.1 452.9 447.4 438.4 428.3 417.9 406.9 394.8 381.2 366.6 356.4 363.2 372.3 377.9 382.3 384.8 383.3 378.2 371.4 366.4 368.2 380.1 395.4 412.3 427.9 441 453.7 467.1 482 496.5 508.2 517.8 526.4 534.8 542.5 549.2 552.3 554.3 555.1 554.4 553.4 552.1 549.1 545.5 538.4 531.4 524.6 516 507.7 498.2 487.3 476.2 463 448.7 430.5 411.1 395.5 378.7 359.3 334.6 316.8 310.1 306.1 301.6 297.3 299.5 301.5 305 312.4 330.1 348.4 366.9 385.9 402.5 418.2 427.3 442.4 457.7 465.9 473.5 477.5 477 477.5 478.7 475.5 470.5 463.6 456.2 449.8 443.4 442 446.4 457 471.7 483.7 493.6 501 506.2 507.5 502.8
487.5 486.9 487.4 482.2 470.9 455.7 441.2 429 421.7 413.4 415.3 426.6 435.1 442.7 457.8 463.8 467.8 466.5 463 459 455.1 449.6 445.1 440.8 436.9 432.1 429.9 425.5 417.5 425.2 435.3 445.1 454.1 462 469 474.5 478.2 480.1 481.3 480.8 479.8 476.8 473.4 470.6 469 469.2 471.4 473.1 473.3 473.8 474.5 477.3 480.1 483.6 487 488.9 490.5 490.9 489.9 487.9 481.6 472.7 462.3 454.6 449.7 441.3 426.8 409.2 386.5 361.8 339.3 320.4 296.7 275.8 259.4 246.3 246.3 246.3 246.3 246.3 246.3 246.3 246.3 246.3 246.3 246.3 257.1 267.9 279.8 291.9 305.4 319.5 334.5 351.2 369.4 387.1 403.7 416.5 427.5 437.2 444.9 446.8 440.3 431.6 421.8 411.5 400.7 388.6 374.6 363 370 380.4 388 392.6 396.8 398.2 396.9 391.1 381.6 373.9 370.8 377.8 393.3 411 429.1 443 455 469.1 484 498.8 511.7 520.8 529 537.8 546.5 553.9 557.7 558.4 557.7 556.2 554.8 551.2 546 539.7 532.7 525.2 516.1 507.1 499.1 489.1 477.6 466.5 450.8 433.6 414 396.1 376.8 359 337.3 316.4 308.4 305.4 301.6 298.9 297.9 300.3 303.9 307 315.2 332.6 354.3 370.1 385.1 394.1 400.6 413.9 432.1 446.8 459.8 467.1 474.4 481.7 483.8 479.9 475.3 469.6 464.1 458 451.7 447.5 447 453.7 466.6 476.9 487.9 497.6 505.8 510.8 510 504.2
493.7 497.8 498.9 490.6 477.7 463.8 450.4 436.3 428.3 418.2 426.6 440.3 454.3 462.7 473.9 477.4 477.9 475.6 470.5 464.5 459.1 453.3 449.3 446.3 441.8 437.7 435.4 431.3 424.6 427.7 439.2 448.6 457 464.1 471.1 477.3 481.8 484.2 485.3 485.5 484.5 481.8 479.3 478.5 479.2 481.2 483.2 484.1 484.1 483.9 483.6 485.1 486.3 489 491.3 493 492.9 491.2 488.5 483.2 472.6 459.2 444.6 436 435.3 425.2 411.2 393 373.6 348.5 328.7 307 286.9 266.9 251.7 246.3 246.3 246.3 246.3 246.3 246.3 246.3 246.3 246.3 246.5 250.4 256.8 266.3 278.2 292.3 306.5 320.5 335.1 351 367.4 382.3 396 408 418.4 428 434.7 436.9 432.5 424.5 415.5 406.2 395.8 382.5 370.1 376.4 387.6 398 405.5 409.7 412.9 414 412.3 404.9 393.7 382.9 377.6 377.1 391 408.3 426.4 442 454.7 468.7 484.1 499.8 513.3 522.1 530.8 540.7 550.3 557.3 560.1 559.8 558.8 556.1 551.7 546.8 539.4 532.8 525.1 516.8 506.9 496.8 488.1 476 461.5 445.2 427.2 409.4 393.7 374.7 353.1 334.1 317.3 308.3 305.6 302.6 301 300.2 298.8 301.4 307.1 313.4 317.1 320.9 340.8 359.4 371.5 375.9 383.8 402 419.7 431.9 444.4 461.5 478.2 483.8 482.6 479.5 474.9 470.3 465.5 459.5 454.8 453.2 454.7 465 476.2 484.7 492.5 501.6 508.4 510.5 508.5 504.6
500.6 510.2 509.1 499.5 485.2 472.4 460 445.6 435.4 423.3 434 450.4 465.4 476.4 482.9 484.6 483 480.9 478.2 472.2 465.5 459.4 455 451.3 446.6 443.8 441.5 438.8 431.2 434.7 443.1 451.3 459.6 467.9 474.8 480.6 485.8 488.7 489.6 490.3 489.7 488.4 487 488 488.8 491.2 492.9 494.1 493.8 492.8 492.5 491.7 491.9 494.2 495.7 495.4 493.4 489.1 484.9 476.4 461.5 441.2 422.6 414.8 415.6 406 390.8 373.9 354.1 332.1 312.5 291.9 274.3 258.8 246.4 246.3 246.3 246.3 246.3 246.3 246.3 246.3 246.3 246.3 248.7 252.2 256.9 262.6 272.6 286 299.9 313.4 326.8 341.4 357.6 372.7 386.7 399 409.4 418.1 423.5 426.2 424.4 417.8 410.6 403.3 393.2 380.7 380.7 394.7 406.2 415.4 422.7 426.1 429 430.9 429.7 419.1 405.6 393.7 386.3 380.8 388.5 404.9 421.9 438.2 453 468.2 484 500 513.3 522.3 532.2 543.8 552.5 558.1 559.9 559.6 556.7 551 545.3 539.4 531.8 524.9 516.1 507.3 497 485.3 467 450.9 434.8 416 397.3 379.9 368.8 351.4 331.1 318.3 312.2 309 306 303.2 304.3 303.1 302.2 306.1 312.5 322.1 330.8 336.3 331.6 343 353.9 364.6 378.2 396.1 411.2 429 450.3 467.4 480.8 486 484.5 481.1 477.2 473 467.6 461.8 459.5 460.5 467.1 476.8 485.3 491.6 498.6 506.3 511.6 514 511.5 505.7
507.8 519.3 517.9 506.7 492.3 480 469.4 457.5 447.5 436.8 436 454.4 473.1 484.4 489.8 491.1 488.7 486.4 483.8 479.2 473.5 467.2 462.6 457.9 453.2 450.3 447.7 444.4 436 440.5 447.5 455.4 463.3 471.6 478.7 484.1 488.9 492.2 494.4 496.1 496.5 496.1 495.1 495.8 497.3 499.3 501.4 502.4 502.4 501.1 499.8 497.9 497.5 499.1 499.6 496.8 492 485.8 477.6 465.1 446.5 423.5 406.1 393.3 391.2 380.9 369.8 356.6 335.8 315.7 296.2 279.7 265.1 254.1 246.3 246.3 246.3 246.3 246.3 246.3 246.3 246.3 246.3 246.3 248.5 252.9 258.1 263.6 272.9 283.1 294.3 307.2 317.3 327.3 342.9 360 376 389.5 400.1 407.7 412.7 416 416.4 413.3 408.5 402 392.7 385.8 398.7 411.3 419.8 427 433.3 438.2 443 446.7 445 433.7 417.3 404.3 395.3 389.4 389.7 402 418.7 435.4 452 468.3 484.4 499.9 512.9 522.9 534.8 546.2 554.3 558.5 557.4 556.4 551.4 545.9 538.9 531.4 524.3 515.8 506 495.6 481.6 462.8 442.3 422.8 405.7 391.5 378.7 365.5 349 334 323.6 316.9 312.8 309.5 306.4 304.2 307.1 304.5 306.5 312.3 324.1 337 346.6 347.8 350.2 340.8 354.1 367.1 382.1 400.3 417.4 438 456.8 470.2 480.8 485.4 485.9 483.3 481 477.1 472.9 469 466 471.8 479.6 486.5 493.4 498.7 505.8 513.1 515.5 514.7 510.4 503.3
511.2 522.1 520.3 510.2 499.6 488.9 480.4 471.4 460.6 451.1 437 457.2 475.3 488.8 495.7 497.2 495.4 493.6 490.3 487.2 481.7 475.2 470.6 465.9 461.2 457.6 453.4 448.9 441.5 447.9 454.8 461 468.1 474.8 481.6 486.9 491.5 495.7 498.5 501.2 502.7 502.7 502.3 502.7 503.9 505.9 507.9 509.2 509 508 506.7 504.3 503 502.7 500.8 495.2 488.3 479.6 467.6 449 427.2 405.7 389.1 376.5 367.3 359.4 350.4 334.7 318.9 302.2 286.7 272.3 261.2 252.5 248.6 246.3 246.3 246.3 246.3 246.3 246.3 246.3 246.3 246.3 246.3 254.2 260.1 265.4 275.7 286.4 296.5 309.3 321.5 325.5 330 348.1 364.3 378.3 389.7 397.7 403.6 406.9 409 409.3 406.9 402.1 394.9 400.8 411 420.3 429.1 437.7 445 451.7 458.1 463.1 460.7 448.8 429.3 414.5 406.3 397.8 398.5 402.9 417.1 435.1 452.8 468.8 484.5 498.8 512.3 523.8 536 548.2 556.4 557.9 554.5 551.1 546.3 539.4 532 524.2 515.7 505.3 492 476.8 458.5 438.5 419 405.8 392.8 382.9 373.2 357.7 340.1 327.9 321.9 322.1 313.5 309.6 306.5 306.5 307 307.3 310.7 324.3 340.4 354.8 365 363.5 360.3 351.6 354.1 369.5 387.9 407 425.8 446.3 462.1 473 481.1 486.3 487.8 488.6 486.7 483.9 482.6 480.9 477.2 483.7 490.1 495 500.4 504.4 511.9 517.6 519.1 515 507 498.6
513 521.6 519.4 514.7 506.5 497.8 490.5 481.6 471.6 457.5 446.1 460.9 477.7 491.3 498.8 502.6 502.8 499.9 497.9 494.8 488.6 483 477.7 473.4 468.6 463.9 459.2 452.7 447.9 455.3 461.2 466.8 471.8 477.8 483.7 489.1 493.9 498.1 501.9 504.6 506.5 506.8 506.2 506.9 508.3 510.3 512.5 514.1 514.8 513.9 511.4 508.1 506.1 504.1 499.2 491.9 482 470.7 453.4 431.2 408.8 390.2 373.4 359.7 345.8 335.7 325.9 314.2 299.7 286.3 273.8 263.7 256.9 252.1 249.2 247.6 246.4 246.3 246.3 246.3 246.3 246.3 246.3 246.3 246.3 255 261.4 267.1 279 289.8 302.6 319.4 333.8 343 338.2 342.5 355.2 366.5 377.5 387.5 394.5 399.1 401.8 404.3 404.5 402.6 401.9 408.8 419.2 428.4 438.8 448.2 456.5 464.6 472.1 478.5 476.7 462.9 444.4 424.1 416.1 408.7 408.9 410.5 419.4 436.9 455 470.1 484.9 499.4 513.7 526.4 538.8 549.4 555.8 555.2 551.7 547.9 541.4 534 526.8 516.9 504.3 489.4 473.4 457 438.5 421.4 406.5 394.8 384.7 375.2 363.7 352.1 339 330.3 325.9 322.4 315.4 310.2 307.3 308 308.8 309.9 318.3 336.6 356.8 372.3 380.7 376.6 368.8 361.2 354.1 372.3 392.8 412.6 429.6 450.2 463 472.9 480.2 488.1 493.8 496.2 494.3 491.5 490.3 488.9 488.2 492.4 497.5 502 505.7 509.8 514.4 516.1 513.3 506.9 500.1 492.3
508.3 518.6 518.2 516.6 510.9 502.6 495.4 487.7 476.6 463.3 458 463.6 479.6 493.2 501.3 506 507.7 506.3 504.1 500.6 495.1 489.9 485.9 481.4 477.3 472.2 466.3 457.4 458 465.2 468.9 472.9 477.9 482.9 487.3 492.4 496.5 500.5 504.5 507 508.8 509.3 508.8 510 511.3 513.6 515.9 517.7 518.9 518.7 515.3 510.7 507.1 501.8 492.8 480.7 470.4 455.8 436.3 413.1 389.5 369.6 354.6 340.3 328 314.2 304.8 292.7 281.8 271 264.2 258.2 253.6 251.8 250.4 248.7 246.3 246.3 246.3 246.3 246.3 246.3 246.3 246.3 246.3 255.4 262.8 270.8 281.8 294.4 311.1 330.2 346 355 356.7 353.8 358 360.5 366.6 375.8 383.7 389.5 394 397.8 401 403.2 407.4 415.2 426.1 437.1 447.5 457.6 466.7 475.5 483.2 490.3 490.1 475.3 457.2 438 426.5 425.1 422.6 421.3 425.4 440.5 457.6 473.1 487.6 501.9 515.8 528.9 541.2 550.4 554.5 554.2 549.9 545.1 537.5 530.8 521.9 509.6 494.2 478.2 468 465.1 459.1 439.7 418 402 389.6 378.4 364.5 349.9 338.8 332.7 327 320.9 315.4 310.9 308.7 311.1 313.7 316.2 332.5 354.7 375.3 386.9 390 385.4 377.9 373.5 363.5 373.3 392.9 411.9 429.4 443.8 456.2 470.6 480.8 490.6 497.2 500.4 499.7 497.7 496.6 496.5 496 498.2 501.2 504.9 509.1 511.6 512.5 510.8 508 501.2 493.4 485.9
502 512.5 516.2 515.7 510.7 504.1 496.6 487.2 476.7 477.1 473.4 464.6 482.1 493.9 502.5 507.5 510.5 511.6 509.3 506.3 501.5 496.6 492.6 488.8 484.2 478.4 472.3 464.6 468.4 473.6 476.4 478.5 483.1 486.8 491.2 495.3 499.4 503.1 506.2 508.8 510.1 510.6 510.1 510.9 512.3 514 515.9 517.5 519.5 521 516.4 510.4 502.2 492.2 480.5 465.8 452.1 436.8 415.7 391.3 368.6 350.1 335.3 321.4 308.4 295.9 286.7 277.4 269.4 262 264.3 257.3 254.2 252.7 250.1 248.5 246.3 246.3 246.3 246.3 246.3 246.3 246.3 246.3 246.3 256 263.8 273.2 285 299.7 320.2 341.7 356.7 365.7 370 371.4 372.2 372.1 371.1 371.4 376.7 380.5 386.6 392 397.2 402.8 410.2 420.2 431.3 441.8 451.4 461.6 472.8 482.2 489.8 496.6 498.1 487 468.8 451.7 442.6 441.4 439 436 437.2 447 462.8 477.1 491.2 505 518.7 533.5 545.5 552.3 556 554.1 548.8 542.5 534.5 524.1 512.9 498.8 485.4 482.8 482 480.9 475.7 455.1 431.2 411.3 395.9 382.3 366.4 350.1 339.7 333 325.7 320.6 315.9 311.1 311.7 315.6 318.9 324.7 346.4 368.9 384.7 392.8 397.6 395.5 388.8 384 379.9 374.5 387.1 402.6 416.2 429.9 448.9 469.5 484.1 493.8 501.7 504.4 505.9 505.6 503.9 502.6 502.9 504.6 505.8 507.9 511.2 511.4 508.4 503.6 497.4 489.1 482.9 478.5
492.1 503.7 509.6 511.5 508.4 502.5 495.4 490.8 489.7 489.2 486.7 475.5 484.1 495.3 503.2 509.1 512.6 515.1 513.6 511.6 507.8 503 498.5 494 488.9 483.5 478 469.9 476.3 480.2 482.9 484.6 487.5 490.9 494 497.9 501.5 504.7 506.8 508.2 509 508.6 508.2 508.9 509.9 511 512.6 513.8 515.8 517.6 511.9 503.4 491 478.5 462.6 443.8 427.8 412.2 390.3 367.2 347.6 330.1 313.5 301.3 292 282.5 276.1 271.9 275.8 274.6 272.9 267.8 262.5 253.1 249.3 247.7 246.3 246.3 246.3 246.3 246.3 246.3 246.3 246.3 246.3 255.4 265.5 275.7 287.7 304.3 328.9 350.7 366.8 376.3 380.4 381.7 383.4 383.4 383.1 382.6 383.9 385 384.2 387.9 393.9 400.9 410.4 420.7 430.8 439.5 448.7 460.1 473 483.8 492.2 499.6 502.4 494.7 479.6 467.7 460.9 457.6 455.8 454.2 454.1 458.1 470.7 484.6 497.1 509.9 523.8 539.3 548.4 555.5 558.3 555 549.9 543.3 532 518.7 505.5 497.4 496.7 497.3 495.3 489.9 481 465.2 441.5 419.3 401.4 384.5 366.6 350 340.4 333.2 326.4 322.1 315.3 314.5 317.5 319.5 324.5 331.5 355.1 375.3 389.6 399.8 405.2 405.1 401.3 396.6 391.8 387.3 386.5 394.1 416.2 438.3 459.7 479.5 495.3 499.9 502.4 507.3 513.2 513.2 509.6 507.1 506.9 507.6 508.1 509.6 510.3 506.1 500.3 493.6 485.9 478 475.4 471
478.8 490.8 500 503.4 504.3 500.5 498.9 498.3 497.2 495.2 490.6 482.8 486.8 496.3 504.8 510.7 515.7 518 517.3 515.6 512.4 507.7 503.1 498.2 493.3 488.5 482.1 475.7 483 485.6 488 489.2 491.7 494.7 496.9 500 502.7 504.5 505.4 505.3 505.1 503.9 503.9 504.1 505.3 505.7 506 507.2 508.2 507.3 501.5 489.6 475.9 459.6 441.9 419.9 399.8 383.4 363.3 343.3 326 309.4 296.7 283.8 286.8 287.2 286.8 287 286.7 284.9 283.4 279.7 272.7 262 250 246.6 246.3 246.3 246.3 246.3 246.3 246.3 246.3 246.3 246.3 256.1 267 278.1 291 308.4 336.6 359.1 375.8 385.3 390.4 391.8 394.4 396.2 396.4 393.8 392.8 391.4 388.5 387.4 391.8 397.9 407.1 417.6 427.1 435.7 445.4 457.3 470.4 482.2 492.1 499.3 502.1 497.2 490 484.4 480.9 477.8 475.2 473.7 473.6 475.8 483.4 494.6 505.6 516.9 532.1 545.3 553.7 560.1 562.3 559.9 554.2 544.8 529.6 518.9 513.8 511.8 510.9 507.9 501.1 493.6 484.4 469.9 448.1 421.9 401.2 382.6 364.8 349.6 340.4 333.2 326.5 320.4 316.6 319.3 321.9 324.9 329.4 339.3 356.9 376.3 391.3 404.9 414.7 420.3 416.7 409.2 403.4 398.2 396.1 404.8 426.5 448.1 468.3 488 501.6 504.8 506.4 511.5 515.1 514.3 512.2 509.9 510.3 511.6 511.1 506.8 504.5 498.4 490.5 482.4 474.8 468.8 465.4 461.7
466.8 477.8 489.7 497.1 502.5 503.2 503.7 502 500 496.9 492.9 487.2 491.8 499.3 507.3 513.6 519 521.3 520.9 519 516.1 511.9 507 501.9 497.1 492.5 485.6 482.9 488.3 490.8 492.4 493.7 495.5 497.4 499.1 500.6 502.1 502.5 501.4 499.6 498.4 497.2 497.3 497.2 497.8 498.1 498.2 498.1 497.5 494.7 485.5 472.5 456.9 437.6 418.8 396.8 374.3 355.3 335.3 317.9 305 291.4 294.1 300.7 303.3 304.9 306.6 306.8 306.7 303.1 298.5 293 285 273.4 257.6 246.3 246.3 246.3 246.3 246.3 246.3 246.3 246.3 246.3 246.3 256.7 268.1 280.4 292.7 312.6 342.7 367.1 384.5 393.2 399.2 402.2 406.3 407.9 405.3 403.4 400.4 395.5 390.8 388.9 394.2 401 406.5 414.9 424.2 432.7 442.9 454.8 467.3 478.8 489.2 495.5 499.2 497.9 499.3 500.7 501.8 499.2 496.9 495.5 495.6 496.6 499.9 506.4 515.9 525.4 540.9 552.7 561.1 566.5 567.9 565.2 558.4 547.5 536.3 531.3 528.5 524.3 517.4 509.7 502.3 493.5 483.6 468.5 445.8 418.8 396.1 377.4 360.2 347.1 339 331.4 325.4 319.8 321 323.2 326.1 331.8 337.9 344.7 359.1 378.2 396.8 415.3 429.6 438.5 435.4 423.5 414.2 405.8 404.7 415 433.6 453.1 473.3 491.4 504.7 510.5 512.3 513.3 514.8 513.9 512.3 511.7 511.4 511 506.2 499.4 493.8 487.5 480.2 473.1 466.7 462.2 459 454.6
457.5 468.6 481 493.3 502.1 506 506.2 504.7 501.8 498 493.9 493.1 495.5 502.8 510 517.1 521.3 523.2 523.1 521.5 519 514.8 510.2 505.2 500.4 495.5 486.9 488.3 493 495.3 496.3 496.4 497.3 498.5 499.2 499.2 498.5 496.9 494.7 492.6 490 488.1 487.4 487.3 487.6 488.9 488.8 487.8 484.8 478.7 466.4 451.1 433.8 414.1 393.3 371.4 350 329.3 310.1 306.8 306.4 312.2 318.3 322.4 325.7 330 332.9 333.9 332.3 325.1 318.6 311.3 300.3 283.4 265 246.3 246.3 246.3 246.3 246.3 246.3 246.3 246.3 246.3 246.3 256.7 269.1 281.5 295.2 318.4 347.9 374.6 391.3 399.2 406.8 410.8 416.5 415.2 412.7 410.2 404.8 397.5 391.2 391.6 398.4 405.5 413.1 418.7 424.1 431.4 441 452.6 464.3 475 485.5 493.5 498 500.4 505.6 510.7 515.1 518.1 517.9 517.5 518.3 518.6 519 519.9 525.5 536.9 549.9 560.8 567.5 572.2 573.4 568.9 561.3 553.1 547.3 542.9 536.1 527.3 517.4 508.7 499.2 487.4 476.2 461.8 439.5 412.6 388.8 369.8 355.2 343.8 335.9 330 324.7 321.9 325.6 328.7 334.1 340.6 346.2 350.1 367 389.3 409.3 428.8 445.4 455 452.8 439 425.3 415.3 415.1 423.1 441.9 461.1 481.7 496 508.4 513.5 513.9 513.6 513.6 512.8 511.4 510.3 505.9 504 499.6 490.8 484.4 477.9 471.6 465.6 461 457.5 451.6 443.5
