ncols 200
nrows 106
xllcorner 180000
yllcorner 882100
cellsize 50
55.9 50.3 43.7 35.5 33.5 35 33.7 30.9 28.3 26.1 25.1 24.1 23.6 20.6 12.8 12.8 12.8 12.8 12.8 12.8 12.8 12.8 12.8 12.8 12.8 12.8 12.8 12.8 12.8 12.8 12.8 21.7 26 32.4 32.5 30.1 31.3 32.8 34.5 35 34.7 33.4 26.9 21.5 19.8 17.9 16.6 14.2 15.3 17.3 14.2 5 1.9 0.6 -2 -2 -2 -2 -2 -2 -2 -2 -2 -2 -2 -2 -2 -2 -2 -2 -2 -2 -2 -2 -2 -2 -2 -2 -2 -2 -2 -2 -2 -2 -2 -2 -2 -2 -2 -2 -2 -2 -2 -2 -2 -2 -2 -2 -2 -2 -2 1.5 10.8 14.6 14.5 15.3 16.9 17.7 17.7 20.8 25.5 26 24 21.9 20.4 20 19.2 18 16.2 14.6 14.5 15.4 12.4 9.3 8.2 5.1 -2 -2 -2 -2 -2 -2 -2 -2 -2 -2 -2 -2 -2 -2 -2 -2 -2 -2 -2 -2 1.9 15.8 27.3 41 52.7 60.7 55.6 68.7 88 98.6 102.9 106.6 111.2 114.4 116.4 118 123.9 126 130.8 133.7 134.2 133.7 133.9 135.1 135.5 136 136.7 131.9 129.2 128.2 127 123.5 119.6 115.3 108.3 100.6 98.1 97.5 97.2 104 102.3 95.8 95.8 95.8 95.8 95.8 95.8 96.6 101.1 105.8 104.5 103 103 103
61.1 57.7 49.5 40.2 33.5 31.7 30.5 30.3 27.8 25.9 25 24.1 23.2 22.1 13.4 12.8 12.8 12.8 12.8 12.8 12.8 12.8 12.8 12.8 12.8 12.8 12.8 12.8 12.8 12.8 14.7 23.7 28.5 32.9 36.7 33.1 32.9 34.2 35.3 36 35.7 34.6 25.2 23.2 19.8 17.6 15.5 15.3 16.9 16.2 16 15.7 7 1.8 -2 -2 -2 -2 -2 -2 -2 -2 -2 -2 -2 -2 -2 -2 -2 -2 -2 -2 -2 -2 -2 -2 -2 -2 -2 -2 -2 -2 -2 -2 -2 -2 -2 -2 -2 -2 -2 -2 -2 -2 -2 -2 -2 -2 -2 -2 -2 -2 1.3 8.1 13 13.3 13.7 16.1 16.7 16.9 20.9 23.2 22.3 19.8 18.8 19.2 18.5 18.1 16.5 15.1 12.2 12.3 11 7.7 4.6 1.6 -2 -2 -2 -2 -2 -2 -2 -2 -2 -2 -2 -2 -2 -2 -2 -2 -2 -2 -2 -2 4.9 20.4 30.2 48.8 61.5 67.9 71.5 74.3 85 94.6 100.5 105.7 110.5 113.5 114.9 116.6 120.2 121.8 126.6 130 131.7 130.8 131.7 132.6 134.4 136.4 136.6 133.2 129.1 128 126.8 121.9 119.3 114.9 109.1 101.9 98.1 97.9 98.5 106.4 98.6 95.8 95.8 95.8 95.8 95.8 101.3 99.2 102.1 106.7 106.8 105.4 103 103
62.2 56.6 50.4 45.3 38.4 32.2 30.1 27.9 25.3 24 23.6 22.5 22.2 21.3 18.4 12.8 12.8 12.8 12.8 12.8 12.8 12.8 12.8 12.8 12.8 12.8 12.8 12.8 12.8 12.8 17.8 22 26.9 31.7 36 36 35.2 34.9 35.9 36 35.7 34.7 26.5 24.3 22.7 17.3 15.6 16.3 16.2 15.7 15.2 14.7 11.1 1.4 -0.5 -2 -2 -2 -2 -2 -2 -2 -2 -2 -2 -2 -2 -2 -2 -2 -2 -2 -2 -2 -2 -2 -2 -2 -2 -2 -2 -2 -2 -2 -2 -2 -2 -2 -2 -2 -2 -2 -2 -2 -2 -2 -2 -2 -2 -2 -2 -2 -2 1.1 7.9 12.1 11.3 13.9 15.5 16.1 17.5 18.9 18.6 17.2 16.6 17.4 18.3 17.8 16.7 14.8 11.8 9.6 7.8 5.1 1.4 -2 -2 -2 -2 -2 -2 -2 -2 -2 -2 -2 -2 -2 -2 -2 -2 -2 -2 -2 -2 -2 5.4 25.4 31.6 52.8 68.3 72.8 76.1 78.9 81.1 90.1 96.3 102.6 107.6 111.8 113.2 114.4 115.7 119.8 122.5 126.4 127.7 128.3 130.7 131.3 132.6 135.2 135.2 132.2 129.2 128.3 128.2 123.6 118.1 116.4 110.1 103.7 97.8 97.6 102.2 102.1 96.3 95.8 95.8 95.8 95.8 95.8 97.1 96.6 96.4 100.4 109.2 110.5 106.8 105.3
62 56.6 55 54.2 45.8 37.2 30.3 27.9 26.1 24.9 23.1 22.2 20.3 19.5 18.3 15.4 12.8 12.8 12.8 12.8 12.8 14.6 18.1 17.4 12.8 12.8 12.8 12.8 12.8 14.9 20.5 24.1 26.5 29.2 34 37.2 37.3 36.4 35.9 35.5 35 32.4 28.5 26.5 23.8 18.2 16.4 17.1 15.7 15.5 15.1 13 8.2 1 -2 -2 -2 -2 -2 -2 -2 -2 -2 -2 -2 -2 -2 -2 -2 -2 -2 -2 -2 -2 -2 -2 -2 -2 -2 -2 -2 -2 -2 -2 -2 -2 -2 -2 -2 -2 -2 -2 -2 -2 -2 -2 -2 -2 -2 -2 -2 -2 -2 -2 1.3 10.1 9.1 11.3 13.3 13.7 15 15.1 15.3 14 14.2 15.4 17.4 19.1 19.4 17.3 14.9 10.4 7.1 1.9 -2 -2 -2 -2 -2 -2 -2 -2 -2 -2 -2 -2 -2 -2 -2 -2 -2 -2 -2 -2 -2 -2 17.5 32.3 48.4 62.6 73.9 76 78.4 82.7 83.5 84.5 92.4 98.9 103 109.6 111.6 111.8 114.2 119.2 122.1 123.4 124.8 127 129.8 130.6 131.9 134.2 134.6 132.7 129.9 130.1 127.7 124.4 119.3 118.7 113 106.4 98 97.7 109.3 102.5 95.8 95.8 95.8 95.8 95.8 97.4 95.8 95.8 95.8 98.4 112.5 115.4 113.2 111.2
64.6 59.6 57.6 55.9 52.6 43.5 34.5 30.3 27.8 26.3 24.3 22.7 21.3 19.1 17.6 16.7 12.8 12.8 12.8 12.8 12.8 17.4 18.7 20 17.1 12.8 12.8 12.8 18.9 21.2 23.7 26.7 27.9 29.5 32.6 34.5 36.8 35.8 34.9 34.7 33 31.5 29.1 27.7 25.4 19.4 17.3 17 15.4 14.7 14.9 13 8 1.2 -2 -2 -2 -2 -2 -2 -2 -2 -2 -2 -2 -2 -2 -2 -2 -2 -2 -2 -2 -2 -2 -2 -2 -2 -2 -2 -2 -2 -2 -2 -2 -2 -2 -2 -2 -2 -2 -2 -2 -2 -2 -2 -2 -2 -2 -2 -2 -2 -2 -2 -2 1.8 8.7 9.3 11.5 11.4 11.8 11.7 11.1 10.9 12 12.9 15.1 19.8 22.9 21.9 19.1 13.7 7.4 1.7 -2 -2 -2 -2 -2 -2 -2 -2 -2 -2 -2 -2 -2 -2 -2 -2 -2 -2 -2 -2 -2 -2 17.7 37.2 52.6 65.7 75.5 82.2 83.7 90.3 93.2 91 94.6 95 101.7 107.2 109.4 110.5 111.7 115.6 119.2 121.8 123.3 124.9 128.1 129.2 129.6 132.8 133.5 133.1 130.9 129.5 127.6 125.6 121.9 120.5 114.7 106.6 102.6 106.1 105.4 100.2 95.8 95.8 95.8 97.6 99.7 96.1 95.8 95.8 95.8 99.7 117.8 120.4 118.7 114.6
68.7 64 62.5 58.9 53.4 48.3 40.5 34 30.7 28.4 26.1 23.3 21.9 19.6 17.9 12.8 12.8 12.8 12.8 12.8 12.8 12.8 17 20.3 18.9 17.1 17.5 20.5 22.2 26.5 29.6 30 30.7 31.4 31.7 33.6 36.2 34.5 34.3 32.5 31.6 30.7 28.8 27.8 25.7 21.8 17.1 16.4 15.1 14.2 14.3 13.3 11.7 2.4 -2 -2 -2 -2 -2 -2 -2 -2 -2 -2 -2 -2 -2 -2 -2 -2 -2 -2 -2 -2 -2 -2 -2 -2 -2 -2 -2 -2 -2 -2 -2 -2 -2 -2 -2 -2 -2 -2 -2 -2 -2 -2 -2 -2 -2 -2 -2 -2 -2 -2 -2 -2 -2 -2 -2 -2 -2 0.8 0.9 1.7 6.6 10.6 12.6 16.3 24 25.1 22.1 15.9 8.7 2.8 -2 -2 -2 -2 -2 -2 -2 -2 -2 -2 -2 -2 -2 -2 -2 -2 -2 -2 -2 -2 -2 -2 21.8 38 56 70.5 80.6 87.7 99.4 97.9 96.9 96.6 98 101 101 105.9 107.4 109.1 110.1 111.4 113.3 116.7 119 121.9 124.4 126.5 127.3 130.4 133.2 132.9 132.5 131.4 128.9 126.8 123.7 120.9 113.2 107.8 106.7 106.1 102.3 95.8 95.8 95.8 96.9 95.8 95.8 95.8 95.8 95.8 95.8 111.4 124.1 126.6 123.3 118.5
76 66.8 65.5 62.5 57.3 52.6 47.2 40.1 33.2 30.7 28.6 24.1 22.6 20.2 17.9 12.8 12.8 12.8 12.8 12.8 12.8 12.8 15.4 20 21.6 20.8 20.5 22.4 24.9 29.2 33.7 34.4 34.9 33 33 33.5 35.3 34.7 33.1 32 30.9 29.7 29.6 28.2 24.5 21.4 18.1 15.7 14.7 14.3 13.6 13 11.2 3.8 -2 -2 -2 -2 -2 -2 -2 -2 -2 -2 -2 -2 -2 -2 -2 -2 -2 -2 -2 -2 -2 -2 -2 -2 -2 -2 -2 -2 -2 -2 -2 -2 -2 -2 -2 -2 -2 -2 -2 -2 -2 -2 -2 -2 -2 -2 -2 -2 -2 -2 -2 -2 -2 -2 -2 -2 -2 -2 -2 -2 0.2 2 8.6 12.8 17.7 26.7 24.7 17.1 10.4 1.5 -2 -2 -2 -2 -2 -2 -2 -2 -2 -2 -2 -2 -2 -2 -2 -2 -2 -2 -2 -2 -2 -2 22.3 40.2 58.1 75.3 88.3 99.6 106.7 109.7 105.3 102.4 100.2 101.6 102.6 104.8 107.5 108.3 108.9 109.6 111.2 112 113.5 116.3 119.8 123 124 125.8 129.6 133.2 132.3 133.1 129 127.4 126.6 121.5 113.2 111 107.4 103.8 98.3 95.8 95.8 95.8 95.8 95.8 95.8 95.8 95.8 95.8 99.7 113.9 126.9 132.7 125.3 121.8
88.7 75.2 68.9 64.6 59.8 56 50.8 45.9 39 34 30.9 27.4 24.6 20.9 18.4 15.4 12.8 12.8 12.8 12.8 12.8 12.8 12.8 18.4 21.1 21.1 22.8 25.3 27.4 32.1 37.2 38.8 38.4 37.6 36 34.3 34 33.7 33 31.8 30.5 29.8 30.1 28 24.7 22 18.3 16.5 14 13.6 13.3 12.5 10.5 3 -2 -2 -2 -2 -2 -2 -2 -2 -2 -2 -2 -2 -2 -2 -2 -2 -2 -2 -2 -2 -2 -2 -2 -2 -2 -2 -2 -2 -2 -2 -2 -2 -2 -2 -2 -2 -2 -2 -2 -2 -2 -2 -2 -2 -2 -2 -2 -2 -2 -2 -2 -2 -2 -2 -2 -2 -2 -2 -2 -2 -2 -2 -2 2.1 10.8 16.5 15.5 9.1 2 -2 -2 -2 -2 -2 -2 -2 -2 -2 -2 -2 -2 -2 -2 -2 -2 -2 -2 -2 -2 -2 -2 -2 19.8 39.1 59.1 80.6 102 105.2 115.5 118 114.8 110.1 106.8 105.4 106.6 107.3 108.5 108.7 108.3 108.1 109.1 110.2 111.5 113.7 115.8 120.3 123.5 124.6 129.2 134.5 133.8 131.8 127.4 126.7 126.5 124.3 115.6 111.2 109.3 100.7 95.8 95.8 95.8 95.8 95.8 95.8 95.8 95.8 95.8 95.8 97.8 112.6 128.7 133.9 130.8 128
102.6 88.2 77.1 71.6 67.1 60.2 54.4 49.1 43.2 37.2 32.2 29.1 26.8 23.1 19.9 16.9 12.8 12.8 12.8 12.8 12.8 12.8 16.4 19.8 22.7 23.3 25.6 28.8 31.7 35 39.8 43.3 42.3 41.2 38.6 36 34.7 33.7 33.3 32.3 30.9 29.2 28.5 27.1 25 22.8 19.2 15.9 13.7 13.2 12.5 11.7 5.5 1.2 -2 -2 -2 -2 -2 -2 -2 -2 -2 -2 -2 -2 -2 -2 -2 -2 -2 -2 -2 -2 -2 -2 -2 -2 -2 -2 -2 -2 -2 -2 -2 -2 -2 -2 -2 -2 -2 -2 -2 -2 -2 -2 -2 -2 -2 -2 -2 -2 -2 -2 -2 -2 -2 -2 -2 -2 -2 -2 -2 -2 -2 -2 -2 -2 -2 0.9 0.8 -2 -2 -2 -2 -2 -2 -2 -2 -2 -2 -2 -2 -2 -2 -2 -2 -2 -2 -2 -2 -2 -2 -2 -2 -2 21.2 41 60.3 80.3 98.5 110.4 120.9 125.9 122.3 118.4 115.2 112.3 108.9 109 109 109.2 108.1 106.8 106.7 108.4 109.1 110.2 114.2 120.6 123.7 125.5 127 131.1 130.5 127.5 125.8 126.1 125.6 124.1 117.8 113.8 109.9 99.8 95.8 95.8 97.2 98.5 95.8 95.8 95.8 95.8 95.8 95.8 106.2 112.2 118.3 127.4 133.1 136.3
113.9 99.6 86 77.4 71.4 66.3 60.5 54.4 46.4 41.1 35.9 31.5 28.2 25.5 22.9 21 16 12.8 12.8 12.8 12.8 17 18.6 22 24.3 25.9 29.2 32.8 38 40.3 43.2 47.9 48.6 44.2 41.2 39.9 36.6 34.2 33.1 32.8 31.4 29.8 28 25.6 23.9 20.9 18.4 14.9 13.3 10.7 11.7 7.2 2.8 -2 -2 -2 -2 -2 -2 -2 -2 -2 -2 -2 -2 -2 -2 -2 -2 -2 -2 -2 -2 -2 -2 -2 -2 -2 -2 -2 -2 -2 -2 -2 -2 -2 -2 -2 -2 -2 -2 -2 -2 -2 -2 -2 -2 -2 -2 -2 -2 -2 -2 -2 -2 -2 -2 -2 -2 -2 -2 -2 -2 -2 -2 -2 -2 -2 -2 -2 -2 -2 -2 -2 -2 -2 -2 -2 -2 -2 -2 -2 -2 -2 -2 -2 -2 -2 -2 -2 -2 -2 -2 -2 -2 -2 16.3 42 62.3 80.9 95.7 110.3 125 132.1 128.5 124.3 120.4 123 116.8 112.2 110.3 109.8 108.3 106.7 105.4 106.6 109.4 109.6 110.4 114.3 117.6 120.6 122.4 126.2 126.7 125.1 124.6 125 125.9 122.6 119.2 115.5 108.9 96.9 95.8 95.8 95.8 95.8 95.8 95.8 95.8 95.8 95.8 95.8 98.9 112.1 122.2 120.1 129.8 130.7
117.1 112.5 103.6 86.7 76.5 71.6 65.7 60.6 52 44.7 39.6 35.7 31.3 28.7 26.4 23.1 20.6 16.7 13.7 13.7 15.4 17 19.9 22.9 27.5 30.4 30.8 34.8 41.2 48.1 47.5 50.8 51 47.6 44.8 42.2 37.5 36.4 34.4 33.2 31.2 28.9 26.2 23.5 21.4 19.5 16.6 13.3 12.1 9.9 9.6 5.7 -2 -2 -2 -2 -2 -2 -2 -2 -2 -2 -2 -2 -2 -2 -2 -2 -2 -2 -2 -2 -2 -2 -2 -2 -2 -2 -2 -2 -2 -2 -2 -2 -2 -2 -2 -2 -2 -2 -2 -2 -2 -2 -2 -2 -2 -2 -2 -2 -2 -2 -2 -2 -2 -2 -2 -2 -2 -2 -2 -2 -2 -2 -2 -2 -2 -2 -2 -2 -2 -2 -2 -2 -2 -2 -2 -2 -2 -2 -2 -2 -2 -2 -2 -2 -2 -2 -2 -2 -2 -2 -2 -2 -2 -2 16.6 46.6 65.2 81.3 95.5 107.7 119.7 130.4 132.9 130.1 129.7 131.6 129.7 120.1 111.2 110.1 108.7 107 104.8 106.2 106.8 107 107.7 110.6 116 117.2 117.5 122.3 125.9 124 123 122.3 127 122.2 120.4 120.4 112 99.8 95.8 95.8 95.8 95.8 95.8 95.8 95.8 95.8 95.8 95.8 95.8 100.7 107.9 110.5 117.5 122.5
123.7 123.8 113.2 101.1 92.5 75.9 68.8 64.2 57.1 49.8 43.4 39.1 34.4 33.1 30.9 27.4 23.3 20.3 18.2 16.2 17.5 16.1 20.3 25.3 26.3 30.1 34 40.2 45.6 51.7 56.5 53.9 54.3 52.1 49.2 44.3 39.5 38.7 35.5 33.2 30.4 27.8 24.6 21.9 19.1 17.4 14.4 12.1 10.5 8.3 7.5 -2 -2 -2 -2 -2 -2 -2 -2 -2 -2 -2 -2 -2 -2 -2 -2 -2 -2 -2 -2 -2 -2 -2 -2 -2 -2 -2 -2 -2 -2 -2 -2 -2 -2 -2 -2 -2 -2 -2 -2 -2 -2 -2 -2 -2 -2 -2 -2 -2 -2 -2 -2 -2 -2 -2 -2 -2 -2 -2 -2 -2 -2 -2 -2 -2 -2 -2 -2 -2 -2 -2 -2 -2 -2 -2 -2 -2 -2 -2 -2 -2 -2 -2 -2 -2 -2 -2 -2 -2 -2 -2 -2 -2 -2 -2 40.9 62.6 85.8 91.9 99.2 112.3 120.1 128 135.4 136.1 139.8 141.9 140.6 137.8 120.8 110.9 109.2 107.5 105.6 103.8 104.3 104.4 104.7 106.8 111 113.9 116.7 122.1 123.8 123.4 120.4 119.9 120.2 120.2 121.4 122.1 116 106.7 95.8 95.8 95.8 95.8 95.8 95.8 95.8 95.8 95.8 95.8 95.8 95.8 95.9 100.6 105.1 111.4
131.2 132.4 123 113.1 97.8 90.6 77 67.5 60.8 52.6 46.7 41.3 36.6 35 33.3 30.2 25.5 22.6 20.3 18.8 17.5 16.6 20.5 25 27.3 30.1 35.5 43.1 51.4 56.1 62.1 63.4 58.3 58.4 53.5 47.9 43.1 39.4 35.7 32.7 30.9 26.9 23.7 20.3 17.7 16 12.9 11.3 9.2 6.9 4.7 -2 -2 -2 -2 -2 -2 -2 -2 -2 -2 -2 -2 -2 -2 -2 -2 -2 -2 -2 -2 -2 -2 -2 -2 -2 -2 -2 -2 -2 -2 -2 -2 -2 -2 -2 -2 -2 -2 -2 -2 -2 -2 -2 -2 -2 -2 -2 -2 -2 -2 -2 -2 -2 -2 -2 -2 -2 -2 -2 -2 -2 -2 -2 -2 -2 -2 -2 -2 -2 -2 -2 -2 -2 -2 -2 -2 -2 -2 -2 -2 -2 -2 -2 -2 -2 -2 -2 -2 -2 -2 -2 -2 -2 -2 21.3 44.5 66.1 90.6 100.1 106.1 113.1 122.3 127.8 135 140.4 148.7 157.1 156.1 150.4 134.4 117.7 112.6 109.7 107.2 104.8 101.8 102 102.1 103.2 106 110.8 113.3 119.5 120 123.2 119.8 116.2 116.2 116.2 116.2 119.1 116.2 106 97.2 95.8 95.8 95.8 95.8 95.8 95.8 95.8 95.8 95.8 95.8 95.8 95.8 95.8 95.9 104.8
139.8 133.7 127.8 114.8 106.3 96.4 83.5 70.6 63.7 55.4 49.9 45.1 38.8 35.8 34.5 33 25.5 22.2 20.8 19 17.9 17.2 19.5 23.2 25.8 28.6 34.4 43.8 53.8 60.6 63.8 73 63.5 60.8 57.1 52.7 46.2 40.7 37 32.8 29.3 27 23.2 19.5 16.9 14.3 11.3 9.2 5.8 2.5 -2 -2 -2 -2 -2 -2 -2 -2 -2 -2 -2 -2 -2 -2 -2 -2 -2 -2 -2 -2 -2 -2 -2 -2 -2 -2 -2 -2 -2 -2 -2 -2 -2 -2 -2 -2 -2 -2 -2 -2 -2 -2 -2 -2 -2 -2 -2 -2 -2 -2 -2 -2 -2 -2 -2 -2 -2 -2 -2 -2 -2 -2 -2 -2 -2 -2 -2 -2 -2 -2 -2 -2 -2 -2 -2 -2 -2 -2 -2 -2 -2 -2 -2 -2 -2 -2 -2 -2 -2 -2 -2 -2 -2 -2 -2 29.8 54.6 85.8 94.4 107 110.6 113.2 118.7 127.1 134.5 141 152.1 164.9 164.7 156 139.4 123.5 116.2 112.6 108.6 105.5 102.3 100.1 100.1 100.2 101.6 103.2 109 116.9 116.3 119.4 118.7 116.2 116.2 116.2 116.2 116.2 115.8 108.5 106.1 100.6 95.8 95.8 95.8 95.8 95.8 95.8 95.8 95.8 95.8 95.8 95.8 95.8 97.5 102.5
134.9 128 120 113.2 103.8 95.4 86.1 75.2 66.8 59.3 53.4 48 40.5 35.1 29.7 32.1 31.1 26.2 21.9 19.7 18.9 18.2 20 22.5 25.1 28.3 33.1 42.1 52.6 64.2 65.6 67.8 64.7 61.4 58.6 54.8 49.3 43 39 34.3 28.6 24.7 22.3 19.3 15.7 11.8 8.7 6.8 3 -2 -2 -2 -2 -2 -2 -2 -2 -2 -2 -2 -2 -2 -2 -2 -2 -2 -2 -2 -2 -2 -2 -2 -2 -2 -2 -2 -2 -2 -2 -2 -2 -2 -2 -2 -2 -2 -2 -2 -2 -2 -2 -2 -2 -2 -2 -2 -2 -2 -2 -2 -2 -2 -2 -2 -2 -2 -2 -2 -2 -2 -2 -2 -2 -2 -2 -2 -2 -2 -2 -2 -2 -2 -2 -2 -2 -2 -2 -2 -2 -2 -2 -2 -2 -2 -2 -2 -2 -2 -2 -2 -2 -2 -2 -2 -2 50.6 80.6 96 106.1 119.7 116.7 115 117.7 124 131.6 144.9 156.1 160 157.6 148.7 137.2 127.8 119.4 114.2 110.2 106.4 103.2 100.8 99.5 98.1 98.8 100 102.2 110.5 110.8 115.2 117.4 116.2 116.2 116.2 116.2 118.3 115.4 110.7 104 98.9 95.8 95.8 95.8 95.8 95.8 95.8 95.8 95.8 95.8 95.8 95.8 95.8 95.8 100.8
129.1 126.8 120.3 112.5 103.6 95.6 87.3 78.2 68.4 61.9 56 50.2 43.8 36.3 34.6 33.5 31.7 28.8 24.4 21.7 20 19.2 20 22.2 24 27.2 29.9 39 52.3 63.6 65.4 63 63.5 61.9 59.2 56.5 52.8 47 42.6 37.6 31.7 24.7 20 17.6 14.8 10.7 6.9 1.3 -2 -2 -2 -2 -2 -2 -2 -2 -2 -2 -2 -2 -2 -2 -2 -2 -2 -2 -2 -2 -2 -2 -2 -2 -2 -2 -2 -2 -2 -2 -2 -2 -2 -2 -2 -2 -2 -2 -2 -2 -2 -2 -2 -2 -2 -2 -2 -2 -2 -2 -2 -2 -2 -2 -2 -2 -2 -2 -2 -2 -2 -2 -2 -2 -2 -2 -2 -2 -2 -2 -2 -2 -2 -2 -2 -2 -2 -2 -2 -2 -2 -2 -2 -2 -2 -2 -2 -2 -2 -2 -2 -2 -2 -2 -2 -2 19.2 63.3 83.9 99 111 116 115.9 116.6 118.7 125.2 135.3 144.1 157.9 160.3 156.7 150.5 142.2 133.3 124.1 116.4 111.9 107.9 104.2 101.6 98.8 96.9 96 95.8 98.7 103.6 104.1 109.8 117.1 118.3 116.2 116.2 116.2 121.2 115.7 107.8 103.2 100.7 95.8 95.8 95.8 95.8 95.8 95.8 95.8 95.8 95.8 95.8 95.8 95.8 95.8 98.9
125.4 121.9 116.8 111.5 103.8 95.9 87.8 81.2 74 64.2 58 48.3 41.4 42.2 36.1 33.7 31.5 30.9 27.2 23.7 21.8 21.3 20.5 21.7 23.9 24.9 28.4 34.6 46 56.8 61 63 62.1 61.6 58.6 56.7 54.6 49.7 43.1 38.4 32.8 26.1 20.4 16.2 12.7 8.1 1.3 -2 -2 -2 -2 -2 -2 -2 -2 -2 -2 -2 -2 -2 -2 -2 -2 -2 -2 -2 -2 -2 -2 -2 -2 -2 -2 -2 -2 -2 -2 -2 -2 -2 -2 -2 -2 -2 -2 -2 -2 -2 -2 -2 -2 -2 -2 -2 -2 -2 -2 -2 -2 -2 -2 -2 -2 -2 -2 -2 -2 -2 -2 -2 -2 -2 -2 -2 -2 -2 -2 -2 -2 -2 -2 -2 -2 -2 -2 -2 -2 -2 -2 -2 -2 -2 -2 -2 -2 -2 -2 -2 -2 -2 -2 -2 -2 -2 29.8 65.7 84.4 97.7 104.5 111.1 114.6 116.2 119.1 125.2 133 142 159.8 161.9 160.7 156.2 145.8 137.2 128.5 119.9 114.3 109.9 105.4 100.7 96.8 95.8 95.8 95.8 95.9 99.5 100.4 108 116.4 117.5 118.3 118.5 118.4 115.2 112.6 109.1 104.2 96.8 95.8 95.8 95.8 95.8 95.8 95.8 95.8 95.8 95.8 95.8 95.8 95.8 95.8 98.8
125.7 120.7 118.6 116.1 114.1 110.1 93.2 85.6 77.4 70.3 56.7 48.4 50.3 43.6 39.1 33.6 31.4 29.2 26.5 24.7 23.3 22.6 21.8 21.9 23.1 23.9 27.1 33.2 40.8 53 58.1 61.3 60.7 60.3 58.9 56.1 53.8 50.7 44.5 38.5 33 27.5 19.8 15 10.8 3.1 -2 -2 -2 -2 -2 -2 -2 -2 -2 -2 -2 -2 -2 -2 -2 -2 -2 -2 -2 -2 -2 -2 -2 -2 -2 -2 -2 -2 -2 -2 -2 -2 -2 -2 -2 -2 -2 -2 -2 -2 -2 -2 -2 -2 -2 -2 -2 -2 -2 -2 -2 -2 -2 -2 -2 -2 -2 -2 -2 -2 -2 -2 -2 -2 -2 -2 -2 -2 -2 -2 -2 -2 -2 -2 -2 -2 -2 -2 -2 -2 -2 -2 -2 -2 -2 -2 -2 -2 -2 -2 -2 -2 -2 -2 -2 -2 -2 -2 42.3 73.3 85.8 92.5 99.2 106.2 112.1 116.1 119.4 125.3 131.5 140 156.3 161 164.1 160 150.6 140 131.2 123.4 116.2 111.5 107 102 96.8 95.8 95.8 95.8 95.8 95.8 99.4 107.3 109.8 109.5 115.7 117.3 116.3 114.6 113.6 111.2 107 95.8 95.8 95.8 95.8 95.8 95.8 95.8 95.8 95.8 95.8 95.8 95.8 95.8 95.8 99.8
128.3 125.3 121.6 116.2 112.7 103.9 96.1 90.6 88.3 80 64.3 53 49.5 45.4 39.9 34.3 32.4 28.7 26.6 24.2 22.9 22.9 22.4 23.3 22.3 22.9 24.6 29 35.3 44.8 54 58.6 58.5 58.8 59.3 55.5 52 49.5 44.6 38.3 32.7 27.2 20 14.3 9.4 1.8 -2 -2 -2 -2 -2 -2 -2 -2 -2 -2 -2 -2 -2 -2 -2 -2 -2 -2 -2 -2 -2 -2 -2 -2 -2 -2 -2 -2 -2 -2 -2 -2 -2 -2 -2 -2 -2 -2 -2 -2 -2 -2 -2 -2 -2 -2 -2 -2 -2 -2 -2 -2 -2 -2 -2 -2 -2 -2 -2 -2 -2 -2 -2 -2 -2 -2 -2 -2 -2 -2 -2 -2 -2 -2 -2 -2 -2 -2 -2 -2 -2 -2 -2 -2 -2 -2 -2 -2 -2 -2 -2 -2 -2 -2 -2 -2 -2 -2 33.8 54.7 77 88.6 96.9 102.9 109.3 115.7 120.4 125.2 132.7 141.7 154.5 162.4 165.7 163.9 155.3 144.5 134.5 126 118.5 113.1 108.5 103.7 98.9 96.1 95.8 95.8 95.8 95.8 97.1 99.4 102.9 107.2 114.6 116.6 117 116.7 114.7 115.6 109 98.9 95.8 95.8 95.8 95.8 95.8 95.8 95.8 95.8 95.8 95.8 95.8 95.8 95.8 98.7
130.6 129 126.8 119 112.9 104.6 95.3 91.7 90.7 86.4 77.4 63.1 53.7 49.8 41.8 39 32.6 29.2 26.4 23.6 23.2 23.3 22.5 22.9 22.7 22.4 23.6 26.3 30.3 36.4 45.9 53.2 56.6 57.3 56.4 55.3 50.8 46.8 44.3 38.6 32.4 26.7 19.4 13.8 8.6 0.9 -2 -2 -2 -2 -2 -2 -2 -2 -2 -2 -2 -2 -2 -2 -2 -2 -2 -2 -2 -2 -2 -2 -2 -2 -2 -2 -2 -2 -2 -2 -2 -2 -2 -2 -2 -2 -2 -2 -2 -2 -2 -2 -2 -2 -2 -2 -2 -2 -2 -2 -2 -2 -2 -2 -2 -2 -2 -2 -2 -2 -2 -2 -2 -2 -2 -2 -2 -2 -2 -2 -2 -2 -2 -2 -2 -2 -2 -2 -2 -2 -2 -2 -2 -2 -2 -2 -2 -2 -2 -2 -2 -2 -2 -2 -2 -2 -2 -2 21.7 54.8 74.9 86.7 95 101.1 108.8 115.4 121.5 127.9 136.2 144.5 156.3 169.3 173.2 166.6 160.2 151.6 136.8 128.5 120.9 115 110.3 105.7 100.6 96.3 95.8 95.8 95.8 95.8 95.8 95.8 100.6 105.3 115.7 120.1 121.3 118.6 111.7 111.7 107.8 101.3 95.8 95.8 95.8 95.8 95.8 95.8 95.8 95.8 95.8 95.8 95.8 95.8 95.8 100.5
135.2 131.8 128.8 121.7 117.1 107.6 97.4 93 89.3 88.5 89.7 75.3 62.7 50.7 43.5 37.8 33.3 29.3 25.7 23.2 22 22.8 22.7 22.4 21.8 21.8 24.2 25.6 27.6 32.7 39.1 46.5 51.8 54.3 54.8 54.3 52 45 42.3 37 32 26.1 18.4 13.2 7.1 0.2 -2 -2 -2 -2 -2 -2 -2 -2 -2 -2 -2 -2 -2 -2 -2 -2 -2 -2 -2 -2 -2 -2 -2 -2 -2 -2 -2 -2 -2 -2 -2 -2 -2 -2 -2 -2 -2 -2 -2 -2 -2 -2 -2 -2 -2 -2 -2 -2 -2 -2 -2 -2 -2 -2 -2 -2 -2 -2 -2 -2 -2 -2 -2 -2 -2 -2 -2 -2 -2 -2 -2 -2 -2 -2 -2 -2 -2 -2 -2 -2 -2 -2 -2 -2 -2 -2 -2 -2 -2 -2 -2 -2 -2 -2 -2 -2 -2 -2 -2 52.9 69.8 82.6 90.8 98.4 105.4 114.8 121.3 128.5 138 149.6 163.5 171.9 169.7 165.9 161.6 153.2 141.4 130.9 124.4 117.5 113.3 108.7 103 96.8 95.8 95.8 95.8 95.8 95.8 95.8 95.8 100.3 105.6 115.3 118.6 111.6 109.3 108.7 108.3 100.1 95.8 102.3 110 98.4 95.8 95.8 95.8 95.8 95.8 95.8 95.8 95.8 95.8 103.3
137.4 134.3 130.8 125 117.1 107.9 100.3 93.1 91.2 90.2 90.9 86.3 74 59.2 46.2 40.4 34.1 28.5 25.2 23.2 21.7 20.7 20.5 20.4 22.2 21.7 22.9 23.9 27.2 30.4 35.6 41.5 46.3 50.4 52.2 52.5 50.1 46.5 42.2 37.6 32.6 26.3 18.6 11.9 4.6 0.3 -2 -2 -2 -2 -2 -2 -2 -2 -2 -2 -2 -2 -2 -2 -2 -2 -2 -2 -2 -2 -2 -2 -2 -2 -2 -2 -2 -2 -2 -2 -2 -2 -2 -2 -2 -2 -2 -2 -2 -2 -2 -2 -2 -2 -2 -2 -2 -2 -2 -2 -2 -2 -2 -2 -2 -2 -2 -2 -2 -2 -2 -2 -2 -2 -2 -2 -2 -2 -2 -2 -2 -2 -2 -2 -2 -2 -2 -2 -2 -2 -2 -2 -2 -2 -2 -2 -2 -2 -2 -2 -2 -2 -2 -2 -2 -2 -2 -2 -2 46 62.2 76.6 86.2 95.2 103.3 113.5 121.3 128.6 138.5 156.4 162.2 164.6 163.4 163.1 163.3 154.5 145.2 134 126 118.2 114.2 110.2 103.1 96 95.8 95.8 95.8 95.8 95.8 95.8 95.8 101.8 105.3 113.9 113 107.6 105.6 106.7 106.7 99.9 98.9 103.5 106.8 98.4 95.8 95.8 95.8 95.8 95.8 95.8 95.8 95.8 101.1 109.1
139.3 134.9 130 125.1 117.1 108.4 100.5 95.4 93.5 91.2 90.2 84.2 78.9 66 54 46 35.2 28 27.2 22.3 21.4 20.3 20 20.4 20.8 20.9 21.7 23.2 25.9 28.6 33.4 37.6 42.5 46.3 49.3 49.9 49.1 47.6 41.7 36.9 33.1 27.6 16.9 10.8 4.1 1 -2 -2 -2 -2 -2 -2 -2 -2 -2 -2 -2 -2 -2 -2 -2 -2 -2 -2 -2 -2 -2 -2 -2 -2 -2 -2 -2 -2 -2 -2 -2 -2 -2 -2 -2 -2 -2 -2 -2 -2 -2 -2 -2 -2 -2 -2 -2 -2 -2 -2 -2 -2 -2 -2 -2 -2 -2 -2 -2 -2 -2 -2 -2 -2 -2 -2 -2 -2 -2 -2 -2 -2 -2 -2 -2 -2 -2 -2 -2 -2 -2 -2 -2 -2 -2 -2 -2 -2 -2 -2 -2 -2 -2 -2 -2 -2 -2 -2 -2 28.3 48.8 69.1 81.7 91.9 102.9 112.3 121.8 127.5 134.6 145.9 150.6 152.5 153.7 156.1 155.8 151.7 145.4 137.6 128.9 120.7 115.4 111.5 103.1 95.8 95.8 95.8 95.8 95.8 95.8 95.8 95.8 99.6 103 110.2 108.6 103.2 103 106.3 105.7 99.5 99.3 100.8 99.3 95.8 95.8 95.8 95.8 95.8 95.8 95.8 95.8 95.8 101.2 104.4
141.1 136.5 130.1 124.2 116.8 109 100.8 96.8 94.9 92.1 91.5 88.5 81.5 70.4 62.7 50.6 39.8 34.7 28.8 23.9 21 19.8 19.3 18.7 19 19.4 20.6 22.5 24.4 29 31.7 35.2 38.8 43.2 45.6 48.6 49.5 45.9 40.8 35.8 31.4 26.8 17.1 10.8 4.1 2.1 0.3 -2 -2 -2 -2 -2 -2 -2 -2 -2 -2 -2 -2 -2 -2 -2 -2 -2 -2 -2 -2 -2 -2 -2 -2 -2 -2 -2 -2 -2 -2 -2 -2 -2 -2 -2 -2 -2 -2 -2 -2 -2 -2 -2 -2 -2 -2 -2 -2 -2 -2 -2 -2 -2 -2 -2 -2 -2 -2 -2 -2 -2 -2 -2 -2 -2 -2 -2 -2 -2 -2 -2 -2 -2 -2 -2 -2 -2 -2 -2 -2 -2 -2 -2 -2 -2 -2 -2 -2 -2 -2 -2 -2 -2 -2 -2 -2 -2 -2 25.5 44.1 59.7 76.4 89.3 100.6 110.2 118.3 124.4 131.7 138.7 143.3 146.4 148.3 151.7 151.7 149.5 145.4 140.3 131.7 123.2 115.9 110.9 103.9 95.6 95.8 95.8 95.8 95.8 95.8 95.8 95.8 95.8 97.3 102.2 101.9 100.2 102.6 111.9 106.3 97.9 95.8 95.9 95.8 95.8 97.6 97.4 95.8 95.8 95.8 95.8 95.8 96.5 100.3 104.2
141.9 137.8 132.1 125.4 117 108.6 103 99 96.9 96.5 95 92.7 91.6 79.7 68.1 59.6 46.2 41.7 31.3 25.5 21.3 19.9 19.2 18.9 18.3 18.3 19.5 21.6 23.7 26.3 31 33.7 36.3 38.5 43.7 46 48.7 46.9 41.2 34.8 29 24 16.7 10.4 4.1 3.1 1.6 0 -2 -2 -2 -2 -2 -2 -2 -2 -2 -2 -2 -2 -2 -2 -2 -2 -2 -2 -2 -2 -2 -2 -2 -2 -2 -2 -2 -2 -2 -2 -2 -2 -2 -2 -2 -2 -2 -2 -2 -2 -2 -2 -2 -2 -2 -2 -2 -2 -2 -2 -2 -2 -2 -2 -2 -2 -2 -2 -2 -2 -2 -2 -2 -2 -2 -2 -2 -2 -2 -2 -2 -2 -2 -2 -2 -2 -2 -2 -2 -2 -2 -2 -2 -2 -2 -2 -2 -2 -2 -2 -2 -2 -2 -2 -2 -2 18.7 30.8 43.2 57.6 72.8 85.8 95.9 104.4 113.1 122.6 130.2 135 139.3 142.3 145 146.8 147.4 145.6 143.6 141.1 134.5 124.5 117.7 111.4 104.9 98.3 95.8 95.8 95.8 95.8 95.8 95.8 95.8 95.8 95.8 95.8 95.8 95.8 102 105.7 105.7 96.3 95.8 95.8 95.8 95.8 98.4 110.2 104.8 98.7 95.8 95.8 97.2 100.2 99.5 104.2
143 138.6 133.5 126.9 119.5 111.1 104.1 103.4 102.6 100.4 100 100 95 83 72.6 63.5 54.3 44.4 36.4 31.6 23.8 21.5 19.8 19 18.7 17.3 18.6 19.7 22 25.5 28.6 32.3 36.3 37.3 39.7 42.1 44.7 45.9 41.4 35.2 31 22.1 16.1 8.7 5.1 5 4.4 1.4 0 -1.4 -2 -2 -2 -2 -2 -2 -2 -2 -2 -2 -2 -2 -2 -2 -2 -2 -2 -2 -2 -2 -2 -2 -2 -2 -2 -2 -2 -2 -2 -2 -2 -2 -2 -2 -2 -2 -2 -2 -2 -2 -2 -2 -2 -2 -2 -2 -2 -2 -2 -2 -2 -2 -2 -2 -2 -2 -2 -2 -2 -2 -2 -2 -2 -2 -2 -2 -2 -2 -2 -2 -2 -2 -2 -2 -2 -2 -2 -2 -2 -2 -2 -2 -2 -2 -2 -2 -2 -2 -2 -2 -2 -2 -2 -2 30 41.4 50.5 58 69.1 80.9 88.6 98 108.9 117.4 124 129 133.1 136.5 139.5 141.5 142.8 142.4 141.9 140.1 138.5 128.6 118.8 111.8 105 96 95.8 95.8 95.8 95.8 95.8 95.8 95.8 95.8 95.8 95.8 95.8 95.8 95.8 97 97.2 95.8 95.8 95.8 95.8 95.8 106.9 113.1 111.7 106 103.5 97.4 104.6 104.7 100.6 106.5
143.2 139 133.8 127.6 120 112.2 110.8 108.7 104 102.8 106.2 107.5 98 88.4 76.6 68.9 55.1 43 38.2 33 28 22.2 20.7 20.4 19.6 17.9 17 18.4 21.4 23.3 27.2 31.5 33.5 36 38.4 39.9 43.1 44.5 42.5 36.2 29.8 23 14.9 6.9 4.9 4.9 5.1 2.9 1.1 -0.4 -2 -2 -2 -2 -2 -2 -2 -2 -2 -2 -2 -2 -2 -2 -2 -2 -2 -2 -2 -2 -2 -2 -2 -2 -2 -2 -2 -2 -2 -2 -2 -2 -2 -2 -2 -2 -2 -2 -2 -2 -2 -2 -2 -2 -2 -2 -2 -2 -2 -2 -2 -2 -2 -2 -2 -2 -2 -2 -2 -2 -2 -2 -2 -2 -2 -2 -2 -2 -2 -2 -2 -2 -2 -2 -2 -2 -2 -2 -2 -2 -2 -2 -2 -2 -2 -2 -2 -2 -2 -2 -2 -2 -2 33.1 36.6 48.6 59.4 64.1 75 81 86.6 96.6 104.1 112.6 116.4 120.7 125.6 128.9 134.9 138.8 139.8 140.7 139.5 139.1 141 131.8 120.9 114 107.7 98.9 95.9 95.8 95.8 95.8 95.8 95.8 95.8 95.8 95.8 95.8 95.8 95.8 95.8 95.8 95.8 95.8 95.8 95.8 95.8 99 107.2 111.8 114 115.1 111.5 107.2 112.4 112.9 104.3 110.8
143.2 138.9 133.5 127.6 122.2 115.7 111 106.4 106.9 105.6 106.2 108.4 115.1 106.3 86.7 71.6 63.4 49.9 41.4 34.7 29.8 25.2 21.7 20.4 19.4 18.2 16.9 17.6 19 21.6 24.4 27.7 32 34.8 37.3 39.1 40.6 40.2 41 37.3 32.2 25.6 15.8 8.1 4.9 4.9 4.8 4.7 2.4 -2 -2 -2 -2 -2 -2 -2 -2 -2 -2 -2 -2 -2 -2 -2 -2 -2 -2 -2 -2 -2 -2 -2 -2 -2 -2 -2 -2 -2 -2 -2 -2 -2 -2 -2 -2 -2 -2 -2 -2 -2 -2 -2 -2 -2 -2 -2 -2 -2 -2 -2 -2 -2 -2 -2 -2 -2 -2 -2 -2 -2 -2 -2 -2 -2 -2 -2 -2 -2 -2 -2 -2 -2 -2 -2 -2 -2 -2 -2 -2 -2 -2 -2 -2 -2 -2 -2 -2 -2 -2 -2 -2 -2 13.8 24.5 36.1 54 64.1 74.7 83.9 90.1 97.2 101.6 107.6 111.2 115 121.5 125.3 132 135.8 138.6 139.2 139.4 137.9 137.5 137.8 130.8 123.1 115.6 109.2 101.9 95.4 95.8 95.8 95.8 95.8 95.8 95.8 95.8 95.8 97.5 95.8 95.8 95.8 95.8 95.8 97.7 97.4 96.3 97.4 100.5 106.2 109.3 111.5 115.7 121.3 119.7 119.1 115.9 109.3 111.2
142.8 139.5 134.9 128 122.2 115.8 114.5 111.8 110.9 107.3 106.9 109.1 121.2 119.4 95 82.5 70 60.5 48 39.3 30.3 24.6 22.3 20.8 19.3 18.1 16.6 16.8 17.5 20.3 22.2 26.2 29.7 33 35.7 38 39.9 40.8 39.8 37.2 32.1 27 16.8 10 4.5 4.4 4.3 4.6 2.7 -2 -2 -2 -2 -2 -2 -2 -2 -2 -2 -2 -2 -2 -2 -2 -2 -2 -2 -2 -2 -2 -2 -2 -2 -2 -2 -2 -2 -2 -2 -2 -2 -2 -2 -2 -2 -2 -2 -2 -2 -2 -2 -2 -2 -2 -2 -2 -2 -2 -2 -2 -2 -2 -2 -2 -2 -2 -2 -2 -2 -2 -2 -2 -2 -2 -2 -2 -2 -2 -2 -2 -2 -2 -2 -2 -2 -2 -2 -2 -2 -2 -2 -2 -2 -2 -2 -2 -2 -2 -2 -2 -2 21.4 31.6 43 53.8 67.3 75.2 81.3 86.6 99 111.1 110.3 113 116.6 121 132 135.6 142.7 140.8 140.3 139.8 139.2 136.8 135.7 133.1 130.6 122.8 116.3 111.1 106.6 100 96 95.8 95.8 95.8 95.8 95.8 95.8 95.8 95.8 95.8 95.8 95.8 95.8 96.5 100.6 101 100.9 100.2 103.1 106.5 107.6 108.6 112.5 121.5 135.1 129 119.6 114.7 115.5
142.4 139.4 135.5 129.4 120.3 117.6 115.8 114.2 111.5 107.5 105.5 105.4 108.8 104.8 98.5 87.7 77.5 67.1 54.1 40.9 34.3 28.2 25.9 21.3 23.4 17.4 16.8 16.1 16.2 18 19.6 23.4 27.1 30.1 33.8 36 37.4 37.5 37.8 35.3 31.6 27 18.2 11.9 4.9 4.8 4.6 3.2 1.8 -2 -2 -2 -2 -2 -2 -2 -2 -2 -2 -2 -2 -2 -2 -2 -2 -2 -2 -2 -2 -2 -2 -2 -2 -2 -2 -2 -2 -2 -2 -2 -2 -2 -2 -2 -2 -2 -2 -2 -2 -2 -2 -2 -2 -2 -2 -2 -2 -2 -2 -2 -2 -2 -2 -2 -2 -2 -2 -2 -2 -2 -2 -2 -2 -2 -2 -2 -2 -2 -2 -2 -2 -2 -2 -2 -2 -2 -2 -2 -2 -2 -2 -2 -2 -2 -2 -2 -2 -2 -2 -2 18.1 36 44.1 51.2 65.1 81.6 86.3 91.8 99.3 107.8 119.2 121.8 119.6 126.1 131.7 140.8 147.8 150.1 145.9 143.9 142.2 140.3 137.4 133.9 131.3 127.8 121.6 116.3 112.7 107.8 102.3 98.2 95.8 95.8 95.8 95.8 95.8 95.8 95.8 95.8 95.8 95.8 95.8 95.8 102 103.1 102 102.4 103.9 106.1 110.6 107.6 107 107 113.6 130.7 139.3 123.7 118.8 118.8
141.5 138.5 134.3 128.9 125.5 121.7 116.4 113.5 110.2 108.5 106.9 102.4 100 95.1 91.7 86.7 80.5 73.7 55.6 51.9 44.7 34.4 30.9 26.8 24.3 18.4 16.1 15.5 15.4 16.4 18.2 21.3 23.5 26.7 31.6 34 35.9 35.9 35.8 32.8 29.2 26.8 20.2 13.1 5.6 4.8 3.2 2.4 -2 -2 -2 -2 -2 -2 -2 -2 -2 -2 -2 -2 -2 -2 -2 -2 -2 -2 -2 -2 -2 -2 -2 -2 -2 -2 -2 -2 -2 -2 -2 -2 -2 -2 -2 -2 -2 -2 -2 -2 -2 -2 -2 -2 -2 -2 -2 -2 -2 -2 -2 -2 -2 -2 -2 -2 -2 -2 -2 -2 -2 -2 -2 -2 -2 -2 -2 -2 -2 -2 -2 -2 -2 -2 -2 -2 -2 -2 -2 -2 -2 -2 -2 -2 -2 -2 -2 -2 -2 -2 -2 -2 40.5 50.3 55.2 61.7 73.6 85.1 93.6 100.1 109.1 116.9 122.7 125.4 125.7 132.3 137.9 144 151.8 153.3 151 146.9 144.6 140.9 137.2 134.3 131.1 126.1 121.1 117 112.8 107.8 102.9 98 95.8 95.8 95.8 95.8 95.8 95.8 95.8 95.8 95.8 95.8 95.8 95.8 100.1 103.3 103.1 102.4 105.5 108.7 110 107.5 106.7 106.5 111 119.2 127 127 123.4 120.9
139 138.4 133 130.6 125 120 117.7 113.5 110.4 108.4 103.5 96.9 93.9 86.7 83.2 81.8 81 72.5 66.8 62.5 55.9 45.6 36.5 28.6 26.3 26.7 19.3 15.7 14.6 14.9 15.9 17.6 20 24 27.1 30.3 33.5 34.6 33.2 31.3 29.8 27.7 21.6 14.8 7.3 4 2.7 -2 -2 -2 -2 -2 -2 -2 -2 -2 -2 -2 -2 -2 -2 -2 -2 -2 -2 -2 -2 -2 -2 -2 -2 -2 -2 -2 -2 -2 -2 -2 -2 -2 -2 -2 -2 -2 -2 -2 -2 -2 -2 -2 -2 -2 -2 -2 -2 -2 -2 -2 -2 -2 -2 -2 -2 -2 -2 -2 -2 -2 -2 -2 -2 -2 -2 -2 -2 -2 -2 -2 -2 -2 -2 -2 -2 -2 -2 -2 -2 -2 -2 -2 -2 -2 -2 -2 -2 -2 -2 -2 -2 18.9 51.4 61.6 63.3 70 85.7 90.2 103.2 107.9 119.1 124.5 125.5 126.3 132.4 136 142.4 149.8 155.3 156.6 155.7 152 147.9 144.2 139.7 135.5 131.5 128.6 123.6 118.2 114.2 109.3 104.6 101.9 96.1 95.8 95.8 95.8 95.8 95.8 95.8 95.8 95.8 95.8 95.8 95.8 95.8 99 102.6 99.8 101.5 107.4 109.7 107.3 106.5 105.7 107.8 114.9 117.3 118.2 122.6 120.7
134.8 135.3 131.7 130 126.1 120.1 118.4 113.9 109.4 105.6 99.9 101.4 98.4 95.5 95 92.7 90.3 84.5 79.6 74.6 65.4 53.3 43.5 33 30 30.6 25.7 18.6 15 13.8 14.7 16.6 17.7 19.7 23.2 27.8 30.4 31.1 31.8 31.7 29.6 26.9 23.4 15.4 10.8 3.4 -2 -2 -2 -2 -2 -2 -2 -2 -2 -2 -2 -2 -2 -2 -2 -2 -2 -2 -2 -2 -2 -2 -2 -2 -2 -2 -2 -2 -2 -2 -2 -2 -2 -2 -2 -2 -2 -2 -2 -2 -2 -2 -2 -2 -2 -2 -2 -2 -2 -2 -2 -2 -2 -2 -2 -2 -2 -2 -2 -2 -2 -2 -2 -2 -2 -2 -2 -2 -2 -2 -2 -2 -2 -2 -2 -2 -2 -2 -2 -2 -2 -2 -2 -2 -2 -2 -2 -2 -2 -2 -2 -2 -2 14.7 52.7 73 75 80.4 85.3 91.5 104.2 115.3 122.5 125.9 126.1 126.2 138.5 143.3 145.9 155.1 160.7 160.9 160.3 157.5 153.2 148.8 143.3 138.2 134.8 131.5 127.1 121.6 116.5 112 107.4 105 99.2 95.8 95.8 95.8 95.8 95.8 95.8 95.8 95.8 95.8 95.8 95.8 95.8 95.8 96.8 95.9 95.9 102.7 110.9 108.1 106.4 104.9 106.6 106.5 111.1 115.7 118.2 118.7
136.1 132.5 130.6 126.8 122.7 116.1 114 109.8 106.5 107.8 108.2 107.1 107.9 111.5 116.3 121.1 123.5 114.2 96.7 84 72.6 62.7 53.3 43.3 36.8 35 28 20.8 16.7 13.3 12.6 15.4 17.5 18.5 19.2 21.8 25.8 28.4 29.1 27.9 26.5 26.5 23.8 17.4 11.7 5.3 -2 -2 -2 -2 -2 -2 -2 -2 -2 -2 -2 -2 -2 -2 -2 -2 -2 -2 -2 -2 -2 -2 -2 -2 -2 -2 -2 -2 -2 -2 -2 -2 -2 -2 -2 -2 -2 -2 -2 -2 -2 -2 -2 -2 -2 -2 -2 -2 -2 -2 -2 -2 -2 -2 -2 -2 -2 -2 -2 -2 -2 -2 -2 -2 -2 -2 -2 -2 -2 -2 -2 -2 -2 -2 -2 -2 -2 -2 -2 -2 -2 -2 -2 -2 -2 -2 -2 -2 -2 -2 -2 -2 -2 19.2 48 60.6 73.5 86.9 85.8 90.8 101.4 113.9 118.9 120.9 123.2 130.5 139.8 144.7 151.3 160.7 167 168.1 164.7 162.5 159.8 154.9 148.2 140.6 137.5 133.9 129.7 125.6 120.7 115.7 110.4 105.9 100.9 97 95.8 95.8 95.8 95.8 95.8 95.8 95.8 95.8 95.8 95.8 95.8 95.8 95.8 95.8 95.8 97.6 110 110.2 105.4 104.5 104.5 105.2 108.2 111.6 114.8 118.2
138.7 133.6 129.6 126 124 121.6 116 111.4 109.9 108.3 108.9 111.2 114.3 121.9 129.9 141.2 151.5 157.4 138.4 136.3 91.7 74 61 51.2 42.3 39.3 36.7 25.5 20.4 15 12.5 13.2 13.7 16.3 18.1 19.3 20.9 23.6 25.4 27 27.3 25.1 22.3 18.8 13.2 5.1 -2 -2 -2 -2 -2 -2 -2 -2 -2 -2 -2 -2 -2 -2 -2 -2 -2 -2 -2 -2 -2 -2 -2 -2 -2 -2 -2 -2 -2 -2 -2 -2 -2 -2 -2 -2 -2 -2 -2 -2 -2 -2 -2 -2 -2 -2 -2 -2 -2 -2 -2 -2 -2 -2 -2 -2 -2 -2 -2 -2 -2 -2 -2 -2 -2 -2 -2 -2 -2 -2 -2 -2 -2 -2 -2 -2 -2 -2 -2 -2 -2 -2 -2 -2 -2 -2 -2 -2 -2 -2 -2 -2 -2 24.2 47 59.7 65.1 71.8 82.7 92.8 99.8 108.4 114 118.3 123.3 133.8 137.1 145 157.9 164.7 169.9 171.3 169 166.4 165 161.3 153.7 144.2 139.5 136.5 133.1 129.3 124.7 119.2 114.2 109.6 103.5 99.9 97 96.6 97.2 98 96.6 95.8 95.8 95.8 95.8 95.8 95.8 95.8 95.8 95.8 95.8 95.8 102.4 105.6 103.5 104.9 102.5 103.6 106.5 109.1 113.8 128.2
139.4 136.3 134.7 131.4 126.7 124.8 121.3 115.8 112.5 109.6 110.3 112.6 116.6 125.4 138.2 148.2 158 174.7 173.6 155.6 122.3 95.8 77.3 68.8 54.5 46 39.6 33.8 30.5 19.4 12.8 11.8 12 13 14.5 16.7 18.4 21.4 23.9 26.2 26.4 23 22.1 18.7 13.3 5.3 -2 -2 -2 -2 -2 -2 -2 -2 -2 -2 -2 -2 -2 -2 -2 -2 -2 -2 -2 -2 -2 -2 -2 -2 -2 -2 -2 -2 -2 -2 -2 -2 -2 -2 -2 -2 -2 -2 -2 -2 -2 -2 -2 -2 -2 -2 -2 -2 -2 -2 -2 -2 -2 -2 -2 -2 -2 -2 -2 -2 -2 -2 -2 -2 -2 -2 -2 -2 -2 -2 -2 -2 -2 -2 -2 -2 -2 -2 -2 -2 -2 -2 -2 -2 -2 -2 -2 -2 -2 -2 -2 -2 -2 28.2 40.8 53.3 74.3 75.8 81.5 94.3 108.4 111.7 116 120.1 123.9 131.3 135.2 151.6 159 164.6 166.3 169.8 171.1 169.2 167.8 166.5 160.3 148.1 142.1 139.6 136.7 132.3 128 122.6 117.4 112.6 106.9 102.7 100.2 99.2 99.1 99.1 97.2 95.8 95.8 95.8 95.8 95.8 95.8 95.8 95.8 95.8 95.8 95.8 99.3 98.5 100.9 98.8 97.7 99.7 103.8 108.3 121 135.5
140.6 137.1 137.7 132.3 128.5 128.6 123 119.8 114.6 111.3 112.2 112.7 117.6 124.4 136 150.6 167.9 168.2 161.8 151 142.1 136 107.5 87.1 70.2 55.3 46 35.6 30 22.9 15.7 11.9 10.9 11.6 12.7 13.7 15.7 17.5 19.9 23.1 23.4 21.5 21.5 18.1 14.2 6.7 -2 -2 -2 -2 -2 -2 -2 -2 -2 -2 -2 -2 -2 -2 -2 -2 -2 -2 -2 -2 -2 -2 -2 -2 -2 -2 -2 -2 -2 -2 -2 -2 -2 -2 -2 -2 -2 -2 -2 -2 -2 -2 -2 -2 -2 -2 -2 -2 -2 -2 -2 -2 -2 -2 -2 -2 -2 -2 -2 -2 -2 -2 -2 -2 -2 -2 -2 -2 -2 -2 -2 -2 -2 -2 -2 -2 -2 -2 -2 -2 -2 -2 -2 -2 -2 -2 -2 -2 -2 -2 -2 -2 18.5 36.2 50 60.2 70 77.2 86.7 95.3 108.7 114.4 120.3 125.3 126.7 127.6 134.3 146.8 154.9 160.8 162.3 165.9 170.5 171.8 169.7 168.4 166.4 152.3 145.2 142.5 139.3 135.4 131.6 126.9 121.6 115.7 110.2 106 102.5 101.2 100.5 100.2 100.5 99.2 95.8 95.8 95.8 95.8 95.8 95.8 95.8 95.8 95.8 95.8 100.5 95.8 95.8 95.8 95.9 96.3 97.5 107.3 120.2 136.3
144.1 139.3 138.9 134.4 132.2 134.1 126.5 121 117.8 114.8 114.2 114.3 116.6 121.7 127.3 135 140.9 145.9 146.6 144.1 143.2 144.8 132.9 114.7 86.9 66.7 51.8 41.5 36.9 30.7 19.2 13.5 10.8 10.1 11.4 12 14.2 15.4 16.2 19.3 20.6 20.2 19.3 17.3 14.4 8.7 -2 -2 -2 -2 -2 -2 -2 -2 -2 -2 -2 -2 -2 -2 -2 -2 -2 -2 -2 -2 -2 -2 -2 -2 -2 -2 -2 -2 -2 -2 -2 -2 -2 -2 -2 -2 -2 -2 -2 -2 -2 -2 -2 -2 -2 -2 -2 -2 -2 -2 -2 -2 -2 -2 -2 -2 -2 -2 -2 -2 -2 -2 -2 -2 -2 -2 -2 -2 -2 -2 -2 -2 -2 -2 -2 -2 -2 -2 -2 -2 -2 -2 -2 -2 -2 -2 -2 -2 -2 -2 -2 15.5 27.2 36.1 48.9 60.1 66.9 76.9 82.7 95.2 105.3 111 112.4 117.6 119.1 123 130.1 139.5 148.8 157.5 159.1 161.3 165.6 172.1 171 168 163 154.8 149 145.5 142.4 139.5 135.2 131 125.5 119.5 114.8 108.8 105.2 103 102.5 101.8 102 101.9 98.1 95.8 95.8 95.8 95.8 95.8 95.8 96 95.8 95.8 95.8 95.8 96.3 96.3 95.6 95.2 96 99.3 113.3 140
147.5 145.3 140.6 138.9 135.4 136 133 126.2 123.3 121.9 120.2 119.7 119.1 119.8 123.2 127.7 131.8 134.8 138.1 139.4 145.7 153.4 152.7 120.2 102.4 82.3 66.2 48.3 42.3 38.9 28.2 15.9 11.2 10.2 9.8 11.3 11.9 13.7 14.4 15.5 17.3 18.5 19.3 17.6 14.8 11.8 1.8 -2 -2 -2 -2 -2 -2 -2 -2 -2 -2 -2 -2 -2 -2 -2 -2 -2 -2 -2 -2 -2 -2 -2 -2 -2 -2 -2 -2 -2 -2 -2 -2 -2 -2 -2 -2 -2 -2 -2 -2 -2 -2 -2 -2 -2 -2 -2 -2 -2 -2 -2 -2 -2 -2 -2 -2 -2 -2 -2 -2 -2 -2 -2 -2 -2 -2 -2 -2 -2 -2 -2 -2 -2 -2 -2 -2 -2 -2 -2 -2 -2 -2 -2 -2 -2 -2 -2 -2 -2 17 23.2 32.2 45.8 43.3 52.4 67.6 75.8 79.6 87.6 92.2 102.4 104.6 112 117.1 120.1 124.4 130.6 140.5 144.7 152.1 156.9 162 170 171.5 167.5 162.9 157.8 151.9 148.7 145.7 142.6 139 134.7 129.3 123.5 118.3 113.6 108.9 106.4 103.2 103.4 103.5 103 100.7 95.8 95.8 95.8 95.8 95.8 95.8 95.8 95.8 95.9 95.8 95.8 95.8 96.9 95.9 97.3 97 99.9 121.1 139.1
149.5 147.8 146.5 143.4 139.9 136.8 140.7 131.3 128.5 127.3 126.1 124.7 123.2 122.9 123.9 125.4 128 129.6 130.4 131.1 134.7 137.8 141.5 128.1 106.9 91.1 76.6 59.6 50.1 41.3 31 19.5 13.5 11.9 10.7 10.2 11.1 12.1 11.7 12.5 13.2 14.6 15 15.3 13.5 9.8 1.7 -2 -2 -2 -2 -2 -2 -2 -2 -2 -2 -2 -2 -2 -2 -2 -2 -2 -2 -2 -2 -2 -2 -2 -2 -2 -2 -2 -2 -2 -2 -2 -2 -2 -2 -2 -2 -2 -2 -2 -2 -2 -2 -2 -2 -2 -2 -2 -2 -2 -2 -2 -2 -2 -2 -2 -2 -2 -2 -2 -2 -2 -2 -2 -2 -2 -2 -2 -2 -2 -2 -2 -2 -2 -2 -2 -2 -2 -2 -2 -2 -2 -2 -2 -2 -2 -2 -2 -2 18.3 24.6 27.6 32.5 36.8 40.3 45.8 54.4 68.2 74.2 75.4 79.8 88 99.5 104.9 110.4 117.8 121.7 129.3 135.6 143.3 150.3 154.6 160.9 168 171.5 169.4 164.6 158.9 153.9 151.4 148.7 145.7 142.2 138 132.8 127.4 122.2 117 112.8 109.4 105.4 105.4 106.2 104.7 103.4 97.4 95.8 95.8 99.7 98.2 99.9 95.8 95.8 96 95.8 95.8 98 98.8 99.9 101.4 99.3 108.4 123.4 131.5
150.8 148.8 147.3 144.7 142.8 143.4 137.2 137.4 133.6 133.7 130.3 127.8 127.5 127.2 125.3 125.7 127.3 126.1 126 125.8 126.9 130.8 131.7 127.5 110.4 96.9 79.2 67.8 60.4 47.6 36.7 24.3 15.9 12.6 10.2 8.4 10.3 10.3 10.9 11.4 11.2 11.8 12.1 12.8 12.3 6.8 1.5 -2 -2 -2 -2 -2 -2 -2 -2 -2 -2 -2 -2 -2 -2 -2 -2 -2 -2 -2 -2 -2 -2 -2 -2 -2 -2 -2 -2 -2 -2 -2 -2 -2 -2 -2 -2 -2 -2 -2 -2 -2 -2 -2 -2 -2 -2 -2 -2 -2 -2 -2 -2 -2 -2 -2 -2 -2 -2 -2 -2 -2 -2 -2 -2 -2 -2 -2 -2 -2 -2 -2 -2 -2 -2 -2 -2 -2 -2 -2 -2 -2 -2 -2 -2 -2 -2 -2 14.6 22.3 26.9 29.8 29.3 32.1 38.3 43.4 50.9 58.4 61.4 62.2 75.1 84.1 98 106.2 111.4 114.7 122.8 129 132.8 138.7 151.7 154.8 159.6 166 170.7 171.6 166.3 158.6 155.3 152.9 150.3 147.8 145.3 141.2 135.6 130.2 125 119.6 115 111.9 108.8 108.6 108.4 106.7 105.8 101.8 95.8 96.7 100.9 101.5 101.1 95.8 95.8 96.9 97.9 98.2 101.6 102.9 103.7 105.5 107.1 109.1 122.8 128.9
152.4 150.6 148.7 146.4 143.8 142.8 138.6 138 136.6 138.4 134.5 131.4 129.5 128.3 128.5 126.6 126.3 125.5 125.2 123.5 123.3 123.4 122.5 122.5 110.7 98.7 88.2 77.9 66.7 54.3 43.8 25.4 19.5 13 9.2 7.7 8.9 9.6 9.9 10.1 9.4 9.5 10.7 11.5 11.1 5.6 1.6 -2 -2 -2 -2 -2 -2 -2 -2 -2 -2 -2 -2 -2 -2 -2 -2 -2 -2 -2 -2 -2 -2 -2 -2 -2 -2 -2 -2 -2 -2 -2 -2 -2 -2 -2 -2 -2 -2 -2 -2 -2 -2 -2 -2 -2 -2 -2 -2 -2 -2 -2 -2 -2 -2 -2 -2 -2 -2 -2 -2 -2 -2 -2 -2 -2 -2 -2 -2 -2 -2 -2 -2 -2 -2 -2 -2 -2 -2 -2 -2 -2 -2 -2 -2 -2 -2 -2 18 25.5 21.2 24.1 30.4 32.8 37.8 45 52.1 56.2 54.7 56.6 69.2 80.5 95.9 104.5 113.6 116.3 121.4 129.3 131.2 139.2 149.8 155.3 161 166.2 171.6 175.9 170.1 159.1 156.7 154.3 151.8 150 147.8 144.4 138.5 133 127.6 122.2 118.3 115.1 111.9 110.9 110.5 109.2 108.9 106.2 96 97.8 101.9 101.7 101.7 100.6 99.3 98.9 101.9 102 105.4 108.9 112.9 112.7 111.5 112.1 115.6 132.5
155.8 153.1 151.2 148.3 144.8 140.7 140.6 139.6 137.9 138.6 135.3 132.6 131.4 130.7 132.2 130.9 129.6 123.7 122.7 122.5 123.8 120.6 116.5 111.9 107.1 100.4 91.1 78 63.5 52.1 42.4 40.5 31 19.3 10.6 7.3 6.8 8.9 9.4 9.6 9.4 8.8 9.1 9.7 8.6 5.8 1.6 -2 -2 -2 -2 -2 -2 -2 -2 -2 -2 -2 -2 -2 -2 -2 -2 -2 -2 -2 -2 -2 -2 -2 -2 -2 -2 -2 -2 -2 -2 -2 -2 -2 -2 -2 -2 -2 -2 -2 -2 -2 -2 -2 -2 -2 -2 -2 -2 -2 -2 -2 -2 -2 -2 -2 -2 -2 -2 -2 -2 -2 -2 -2 -2 -2 -2 -2 -2 -2 -2 -2 -2 -2 -2 -2 -2 -2 -2 -2 -2 -2 -2 -2 -2 -2 -2 -2 8.6 18.2 22.1 28.3 32 33.5 37 42.4 49.5 51 56.3 65.8 76.8 82.9 93.4 101 109.4 115.1 120.7 125.1 130.7 140.8 150 158.8 166.6 168.4 171.5 179.2 177.9 159.7 157.8 155.8 153.9 152.4 150.3 147.2 141.9 135.7 130.6 125.6 121.6 117.9 115 113.2 112.9 111.9 111.4 109.2 101.7 103.2 105 105.3 103.2 101.3 98.4 98.8 102 105 108.3 113.1 119.2 118.1 116.4 119.1 125.1 129.2
159.3 156.5 153.3 150.5 147.3 144.5 142.4 141.1 140.1 138.6 137.4 137.3 135.9 135.5 134 133.4 130.5 125.3 121.3 120.8 118.5 116.8 110.9 111.8 107.2 98.4 88.6 83.9 73.6 65.4 57.6 52.5 37.6 26.4 14.9 6.4 5.7 7.5 9 9.6 9.6 9.2 7.8 7.9 6.6 4.3 1 -2 -2 -2 -2 -2 -2 -2 -2 -2 -2 -2 -2 -2 -2 -2 -2 -2 -2 -2 -2 -2 -2 -2 -2 -2 -2 -2 -2 -2 -2 -2 -2 -2 -2 -2 -2 -2 -2 -2 -2 -2 -2 -2 -2 -2 -2 -2 -2 -2 -2 -2 -2 -2 -2 -2 -2 -2 -2 -2 -2 -2 -2 -2 -2 -2 -2 -2 -2 -2 -2 -2 -2 -2 -2 -2 -2 -2 -2 -2 -2 -2 -2 -2 -2 -2 -2 -2 12.8 17.6 22.3 24.6 32.1 35.6 38.4 39.4 46.2 54.3 67.7 76.3 82.7 87.7 94.2 101.1 106.1 110.4 115 123.5 133 142.2 147.3 160.1 165.6 165.4 171.4 175 173.6 160.4 157.8 156.1 155.9 154.6 152.2 148.7 144.2 137.8 132.7 128 123.5 120.2 117.5 115.2 114.5 113.7 113.9 111.9 107.9 107.1 111 111.6 106.1 102.6 99 100 103.8 109.8 112 117.6 121.3 120.7 127.8 128.9 143.5 139.2
161.4 158.6 155.5 152.3 150.1 148.2 145.4 143 141.3 140.3 140.7 139.2 138.9 139.1 138 135 130 127 122.2 118.5 117.2 116.4 119.3 127.1 131.5 120.3 120.1 111.6 103.7 81.9 77.8 62.6 51.2 38.4 22.9 12.9 5.5 5.5 8.5 9.2 9.3 8.7 7.2 6.3 4.2 1.9 -2 -2 -2 -2 -2 -2 -2 -2 -2 -2 -2 -2 -2 -2 -2 -2 -2 -2 -2 -2 -2 -2 -2 -2 -2 -2 -2 -2 -2 -2 -2 -2 -2 -2 -2 -2 -2 -2 -2 -2 -2 -2 -2 -2 -2 -2 -2 -2 -2 -2 -2 -2 -2 -2 -2 -2 -2 -2 -2 -2 -2 -2 -2 -2 -2 -2 -2 -2 -2 -2 -2 -2 -2 -2 -2 -2 -2 -2 -2 -2 -2 -2 -2 -2 -2 -2 10.9 10.3 14 15.8 20.6 22.2 27.5 34.1 38.3 41.6 50.4 65 77.3 84.1 88.6 93.2 98 104.5 108.5 109 110.7 121.9 133.6 137.3 137.3 151.2 154.5 158.2 166.6 166.3 161.4 159.5 157.3 156.4 156.3 155.5 153.7 150.4 145.9 139.8 135 130.3 125.7 122.9 120.1 117.6 116.8 116.1 115.7 115 114.2 112 112.8 110.7 106.8 101.6 98.7 101.3 106.7 114.5 119.5 123.4 124.9 125.3 131.1 138.3 143.6 152.6
163.5 160.2 157.9 155.9 153.3 151.8 150.4 146.6 143.9 142.2 142.3 141.7 140.9 139.1 137.5 134.2 130.6 127.4 121.9 118.7 117.2 116.8 121.3 128.2 132.5 138.3 148.2 136.4 128.5 109 91.4 72.9 59.7 44 35.3 21.2 12.5 5.4 4.9 5.3 8.9 8.1 7.2 6.5 3.6 0.4 -2 -2 -2 -2 -2 -2 -2 -2 -2 -2 -2 -2 -2 -2 -2 -2 -2 -2 -2 -2 -2 -2 -2 -2 -2 -2 -2 -2 -2 -2 -2 -2 -2 -2 -2 -2 -2 -2 -2 -2 -2 -2 -2 -2 -2 -2 -2 -2 -2 -2 -2 -2 -2 -2 -2 -2 -2 -2 -2 -2 -2 -2 -2 -2 -2 -2 -2 -2 -2 -2 -2 -2 -2 -2 -2 -2 -2 -2 -2 -2 -2 -2 -2 -2 20 14.6 14.9 16.5 16.1 16.1 20.6 21.6 24.8 33.9 40 48.7 60.4 75.6 87.2 91.6 95.2 99.6 102 107.1 109.6 108.4 109 115.6 126.3 127.6 131.2 142.8 140.9 135.8 140.5 150.8 155.1 156 156.3 155.4 155.2 154.8 154 151.2 146.3 141 137.1 132.4 128.5 125.6 122.8 120 119.1 118.6 118.2 117.8 115.7 113.1 110.1 106.6 103.5 100.6 98.8 101.1 106.9 117.4 125.5 126.7 127.2 125.8 129.9 137.7 143.8 148
164.7 162.8 159.7 158.3 157.4 154.5 153.2 149.8 147.5 144.7 143.5 142.4 141.2 142 138 135.4 134.2 128.1 122.9 119.9 118 117.4 117.9 123.8 135.4 140.9 146.1 142.7 140.7 122.2 103 82.8 67.2 50.1 40.9 29.1 18 13.5 9.4 4.1 6.6 8.5 7.6 6.3 2.5 -2 -2 -2 -2 -2 -2 -2 -2 -2 -2 -2 -2 -2 -2 -2 -2 -2 -2 -2 -2 -2 -2 -2 -2 -2 -2 -2 -2 -2 -2 -2 -2 -2 -2 -2 -2 -2 -2 -2 -2 -2 -2 -2 -2 -2 -2 -2 -2 -2 -2 -2 -2 -2 -2 -2 -2 -2 -2 -2 -2 -2 -2 -2 -2 -2 -2 -2 -2 -2 -2 -2 -2 -2 -2 -2 -2 -2 -2 -2 -2 -2 -2 -2 -2 21.2 29.6 22.5 22.6 26.2 24.3 19.2 19 22.5 23.4 33.7 44.4 56.3 69.5 81.7 91.5 99.2 98 103 104.4 105.1 106.9 104.9 106.4 109.7 116.5 120 130.5 132.9 123 123.3 131.2 139.9 148.8 152.4 154.1 153.8 153.9 154.9 153.7 151.5 146.4 141.8 138.7 134.4 131.3 128.4 125.5 122.7 121.6 121.1 120.7 120.3 117.5 114.6 109.8 105.1 101.1 104.4 110.4 111.9 112.3 123.3 129.4 133 130.8 127.9 131.7 137 146.2 155.4
166.5 164.8 163.7 164 160.8 157.8 154.7 153 150 148.1 146.1 143.9 142.6 139.6 136.4 133 130.6 128.2 126.1 122.1 118.6 118.2 118.5 120.5 138.1 149.8 144.6 146.6 145.3 131.9 110.3 90.1 73.3 58 47.1 37.2 29.1 20.7 12.7 5.8 3.5 8.5 6.3 6.2 2.6 -2 -2 -2 -2 -2 -2 -2 -2 -2 -2 -2 -2 -2 -2 -2 -2 -2 -2 -2 -2 -2 -2 -2 -2 -2 -2 -2 -2 -2 -2 -2 -2 -2 -2 -2 -2 -2 -2 -2 -2 -2 -2 -2 -2 -2 -2 -2 -2 -2 -2 -2 -2 -2 -2 -2 -2 -2 -2 -2 -2 -2 -2 -2 -2 -2 -2 -2 -2 -2 -2 -2 -2 -2 -2 -2 -2 -2 -2 -2 -2 -2 -2 -2 -2 33.6 33.9 29.2 29.2 33.9 31.3 27.8 20.6 22.2 29.1 31.8 48.6 59.8 75.1 83.5 90.7 95.7 96.1 99.5 102.7 104.2 100.7 101.5 103.3 104.5 107.8 114.1 126.4 130.5 119.4 119.5 124.9 134.1 142.1 147.2 151.5 151.9 152.1 152.6 152.5 150.8 147.2 142.6 139.6 136.7 133.7 130.8 128 125.1 124 123.7 123.3 121.9 119.6 117.6 112.2 104.4 101.9 108.5 117.5 122.8 124.5 129.8 142.2 138.5 134.7 132.7 134.6 141.9 153.9 153.7
169 167 165.6 165.3 162 159.1 156.3 155 151.7 150.3 148.1 145.4 142.2 139.3 136.4 133.2 129.8 127.2 124.1 121.2 120.1 118.9 118.6 118.9 127.6 137.6 145.5 155.1 155.6 135.4 115 97.1 83.1 70 53.6 44.1 37.2 30.8 17.9 10.6 3.8 2.6 7.8 6.7 1.7 -2 -2 -2 -2 -2 -2 -2 -2 -2 -2 -2 -2 -2 -2 -2 -2 -2 -2 -2 -2 -2 -2 -2 -2 -2 -2 -2 -2 -2 -2 -2 -2 -2 -2 -2 -2 -2 -2 -2 -2 -2 -2 -2 -2 -2 -2 -2 -2 -2 -2 -2 -2 -2 -2 -2 -2 -2 -2 -2 -2 -2 -2 -2 -2 -2 -2 -2 -2 -2 -2 -2 -2 -2 -2 -2 -2 -2 -2 -2 -2 -2 -2 -2 12.5 22.3 32.8 34.5 35.5 36.9 37.5 36.9 22.7 23 26.7 36.6 47 57.5 70.5 78.9 84.7 91.6 93.9 98.2 100.4 100.3 97.1 97.5 99.5 100.5 102.3 107.8 117.5 119.4 112.4 112.9 115.7 126.8 132.8 140.8 146.9 148.3 148.6 150 150.3 149.5 146.6 143.5 140.8 138.2 135.5 131.9 128.8 126.5 125 124.6 124.5 123.8 123.8 121.9 115 106.1 103.1 110.9 116.1 121.4 125.4 128.5 137.5 138.7 140.8 135.9 136.3 145.5 153.4 154.7
171.2 168.5 166.9 166.5 164.4 161.4 158.4 156.6 154.2 152.2 150.1 146.9 143.3 141.5 137.7 134.6 131.1 128.7 126.6 123.2 121.5 120.7 125 122.2 121.7 127.9 133.5 136.3 137.6 129.9 116.7 102.4 92.6 83.2 74.8 59.2 47.3 36.9 28.9 15.2 9.4 -2 -2 5.6 0.9 -2 -2 -2 -2 -2 -2 -2 -2 -2 -2 -2 -2 -2 -2 -2 -2 -2 -2 -2 -2 -2 -2 -2 -2 -2 -2 -2 -2 -2 -2 -2 -2 -2 -2 -2 -2 -2 -2 -2 -2 -2 -2 -2 -2 -2 -2 -2 -2 -2 -2 -2 -2 -2 -2 -2 -2 -2 -2 -2 -2 -2 -2 -2 -2 -2 -2 -2 -2 -2 -2 -2 -2 -2 -2 -2 -2 -2 -2 -2 -2 -2 -2 -2 17 26.9 40 42.3 40.8 42.1 41.4 38.2 27.6 25.8 30.4 39 50.4 57.4 67.5 74.9 79.7 87.3 94.4 98.6 99.7 95 94.1 93.4 93.2 93.4 95 99.1 106.6 104.6 108.6 102.2 105.2 111.4 119.2 129.4 141 142.9 145.5 147.2 148.2 147.4 145.9 144.3 142.2 139.6 137.2 134.3 130.8 128.4 127.1 126 127.1 126.5 125.8 124 118.7 109.3 108.3 118.1 123.6 126 125.4 128.3 132.8 136 136.5 137 137.6 140.9 144.1 147
172.7 170.4 169.5 169.4 166.4 162.8 160.7 159.2 156.2 154.2 151.6 147.4 145.5 141.1 136 132.6 131 129.3 128.1 126.6 124.4 121.6 122.9 124.7 127.1 120.6 120.7 126 127 134 125.1 107.6 97.5 94.4 86.8 76.1 54.4 43.9 33.6 20.4 12.3 4.2 -2 0.9 -2 -2 -2 -2 -2 -2 -2 -2 -2 -2 -2 -2 -2 -2 -2 -2 -2 -2 -2 -2 -2 -2 -2 -2 -2 -2 -2 -2 -2 -2 -2 -2 -2 -2 -2 -2 -2 -2 -2 -2 -2 -2 -2 -2 -2 -2 -2 -2 -2 -2 -2 -2 -2 -2 -2 -2 -2 -2 -2 -2 -2 -2 -2 -2 -2 -2 -2 -2 -2 -2 -2 -2 -2 -2 -2 -2 -2 -2 -2 -2 -2 -2 -2 19 24.3 25.9 37.5 43.8 45 42.9 41.1 35.4 28.2 28.9 37.7 39.7 49 56.2 64.3 72.5 73.3 76.3 84.4 93 92.9 91 87.7 88.6 85.6 85.7 86.7 88.8 90.6 92.8 89.8 91.1 96 99.5 110.1 120.6 134.3 139.9 142.3 144 145.8 145.9 145.3 145 143.5 141 138.6 136.3 133.1 130.7 129.3 128.6 128 128.2 129.4 126.9 121.9 112.8 113.7 123.4 131 139.7 138.1 131.5 134.6 137.6 136.4 138.3 140.5 140.2 142.3 143.8
173.6 172.1 171.3 171.7 170 165.5 162.1 160.8 157.2 155.5 153.6 148.3 145.5 141.9 138.5 134.7 131.4 128.3 128 126 124.6 123.1 121.9 121.8 122.3 123.9 118.7 118.7 121.6 125.5 129.6 117.4 112.3 101.9 97.5 86.3 63.9 49.3 39.8 28.2 15.7 9.1 -2 -1.5 -2 -2 -2 -2 -2 -2 -2 -2 -2 -2 -2 -2 -2 -2 -2 -2 -2 -2 -2 -2 -2 -2 -2 -2 -2 -2 -2 -2 -2 -2 -2 -2 -2 -2 -2 -2 -2 -2 -2 -2 -2 -2 -2 -2 -2 -2 -2 -2 -2 -2 -2 -2 -2 -2 -2 -2 -2 -2 -2 -2 -2 -2 -2 -2 -2 -2 -2 -2 -2 -2 -2 -2 -2 -2 -2 -2 -2 -2 -2 -2 -2 -2 -2 19.9 25.9 26.6 41.9 41.5 40.7 37.5 32.9 28.7 24.6 29.4 38.2 40 44.6 51.7 60.1 64.6 65 66.8 67.9 74.2 82.5 81.7 75.9 75.8 76.9 78 79.7 80.3 82.9 82.9 82.6 83.4 86.2 95.3 104 117.6 128.6 136.2 139.3 141.1 143 144 144.7 144.5 143.9 142.5 140.7 138.2 135.2 132.9 132 131.3 130.5 130.2 131.5 132.4 125.1 117.7 119.9 129.5 138.8 144.3 143.5 140.2 139 140.5 145 146.2 152.1 144.4 141.8 143.3
175.9 173.4 172.5 174.9 175.7 170 164.4 160.4 158.6 155.1 152.1 149 146.6 142.4 140.9 137.6 133.7 131 128.2 127.3 125 123 121.8 120 118.7 118.7 118.7 118.7 118.7 123.8 130.7 130.5 121 111.4 102.8 93.7 74.6 56.8 49.7 32.7 20.6 13.8 6.2 1 -1.8 -2 -2 -2 -2 -2 -2 -2 -2 -2 -2 -2 -2 -2 -2 -2 -2 -2 -2 -2 -2 -2 -2 -2 -2 -2 -2 -2 -2 -2 -2 -2 -2 -2 -2 -2 -2 -2 -2 -2 -2 -2 -2 -2 -2 -2 -2 -2 -2 -2 -2 -2 -2 -2 -2 -2 -2 -2 -2 -2 -2 -2 -2 -2 -2 -2 -2 -2 -2 -2 -2 -2 -2 -2 -2 -2 -2 -2 -2 -2 -2 -2 -2 12.7 21 33.8 41.4 40.7 40.2 36.6 29.3 23.8 21.8 30.7 35.9 39.7 41.7 48.1 54.9 57.1 56.8 55.8 58.9 63.8 66.9 67.3 67.7 67.2 68.7 70.5 72.5 73.8 75.7 77.7 79 81.2 84.3 93.3 103.5 113.7 124.3 132 137.8 139.7 140.5 141.6 143.4 144.2 144 143.2 142.4 140.3 137.9 134.1 133.2 132.3 131.8 131.9 132.6 132.9 129.1 121.4 126.4 136.1 147.1 148.3 146.1 153.8 155.2 155.7 150.5 154.3 155.8 153.5 147 143.7
178.4 174.6 172.8 173.8 175 172.3 164.1 163.9 159.6 156.9 153.4 150.4 147.4 144.9 141.3 139 135.6 132 128.4 126.4 124.7 122.9 121.4 118.7 118.7 118.7 121 124.8 118.7 122 130.9 130.5 128.3 121.9 113.4 109.8 94.8 77.5 66.6 50.1 28.1 19.6 11.6 2.4 -0.5 -2 -2 -2 -2 -2 -2 -2 -2 -2 -2 -2 -2 -2 -2 -2 -2 -2 -2 -2 -2 -2 -2 -2 -2 -2 -2 -2 -2 -2 -2 -2 -2 -2 -2 -2 -2 -2 -2 -2 -2 -2 -2 -2 -2 -2 -2 -2 -2 -2 -2 -2 -2 -2 -2 -2 -2 -2 -2 -2 -2 -2 -2 -2 -2 -2 -2 -2 -2 -2 -2 -2 -2 -2 -2 -2 -2 -2 -2 -2 -2 -2 -2 -2 10.6 30.4 36.4 36.3 38.2 35.9 27.7 23.3 22.1 29.1 34.6 39.2 38.2 39.8 39.6 39.5 40.5 47.9 55.7 59.6 60.7 60.2 59.9 59.9 60.7 64 66.8 68.9 71.2 73.3 76.5 79.4 84.9 92.2 102.8 114.2 121.6 128.6 135.2 137.7 139 140.6 142.1 143 143.9 143.4 142.9 141.4 139.5 135.9 134.6 133.5 133.6 133.6 133.2 132.6 131.2 126.8 134.3 144.1 154.2 151.2 150.5 155 157 162.6 166.7 167.7 159.5 164.9 165.1 156.4
178.1 175.1 172.8 173.1 172.2 168.6 165.3 165.5 161.4 159.2 156.5 151.9 149.4 146.2 143.1 140.7 137.5 132.4 130.1 128.8 125.5 122.6 118.7 118.7 118.7 118.7 122.6 126.1 127.2 127 131.5 137.5 135.5 135.6 129.7 114.1 100 96.8 88.7 67.9 46.6 28.6 16.8 11.7 1.6 -2 -2 -2 -2 -2 -2 -2 -2 -2 -2 -2 -2 -2 -2 -2 -2 -2 -2 -2 -2 -2 -2 -2 -2 -2 -2 -2 -2 -2 -2 -2 -2 -2 -2 -2 -2 -2 -2 -2 -2 -2 -2 -2 -2 -2 -2 -2 -2 -2 -2 -2 -2 -2 -2 -2 -2 -2 -2 -2 -2 -2 -2 -2 -2 -2 -2 -2 -2 -2 -2 -2 -2 -2 -2 -2 -2 -2 -2 -2 -2 -2 -2 -2 8.2 22 28.2 27.9 29.8 30.9 24.8 16.7 22.9 26 29.7 28.9 32.9 33 33 32.4 35.6 44.5 47 51.6 50.2 52.5 53.5 53 53.4 56.9 62.1 64.9 66.7 70.6 74.1 78.2 87.1 92.5 102.2 112 118.5 124.8 129.7 134.8 138 139.6 140.9 141.9 143.1 143.7 143.4 141.7 140.6 138.2 135.4 135.2 135.1 134.5 133.4 132.8 131.7 130.6 136.6 144 147.9 148.5 150 154.6 158.4 170.6 174.5 176.8 172.1 168.4 172 160
178.2 175.5 173.1 170.7 169.3 170.8 170.5 168.1 167 163.9 161 156.9 150.9 147.9 145.4 142.6 140.9 134.7 132.7 131.3 126.3 123.7 118.7 118.7 118.7 118.7 123.6 128.1 133.4 136.9 151.1 139.1 138.8 148.4 135.5 122.7 104.4 100 99 81.4 73.7 52.7 30.5 19.3 9.2 -2 -2 -2 -2 -2 -2 -2 -2 -2 -2 -2 -2 -2 -2 -2 -2 -2 -2 -2 -2 -2 -2 -2 -2 -2 -2 -2 -2 -2 -2 -2 -2 -2 -2 -2 -2 -2 -2 -2 -2 -2 -2 -2 -2 -2 -2 -2 -2 -2 -2 -2 -2 -2 -2 -2 -2 -2 -2 -2 -2 -2 -2 -2 -2 -2 -2 -2 -2 -2 -2 -2 -2 -2 -2 -2 -2 -2 -2 -2 -2 -2 -2 -2 -2 16.6 20.9 20.3 25 25.6 15.4 12.7 19.7 22 21 25.8 23.8 24.7 28.8 27.4 28.5 29 33.1 35.1 34.9 42.7 46.4 46.7 47.7 51.1 56.7 59.8 63.2 66.4 69 77 85.2 89.1 96.8 106.8 116.6 125.9 127.5 132.4 136.4 138.2 139.7 141.1 142.4 143.5 143.9 142.9 141.6 140.2 137 136.6 136 135.1 133.8 131.6 131.2 134.1 139.6 147.2 153.4 162.2 164.4 156.1 156.7 165 173.2 173.6 173.2 172.7 182 184.6
179.9 177.4 174.8 172.9 174.7 174.7 174 172.1 173.1 168.7 165.6 160.6 153.9 149.6 146.6 144.9 142.5 137.4 134.8 130 127.2 126.2 124.1 124.3 125.2 127.1 124.2 134.1 140.2 139.8 151.1 141.6 140.6 154.4 163.4 146.1 116.1 98.5 97.3 86.8 79.5 69 41.6 28 15.7 6.7 -2 -2 -2 -2 -2 -2 -2 -2 -2 -2 -2 -2 -2 -2 -2 -2 -2 -2 -2 -2 -2 -2 -2 -2 -2 -2 -2 -2 -2 -2 -2 -2 -2 -2 -2 -2 -2 -2 -2 -2 -2 -2 -2 -2 -2 -2 -2 -2 -2 -2 -2 -2 -2 -2 -2 -2 -2 -2 -2 -2 -2 -2 -2 -2 -2 -2 -2 -2 -2 -2 -2 -2 -2 -2 -2 -2 -2 -2 -2 -2 -2 -2 -2 3.3 12.5 15.2 19.7 18.6 7.8 15.4 18.3 17.5 16.5 20.5 23.5 22.4 21.2 22.8 22.6 23.1 24.3 25.4 27.2 32.6 39.8 41.6 43.1 47.5 50.7 55.8 58.2 60.8 65.4 74 78.8 85.2 91.2 103.4 115.9 125.6 120.4 125.8 131.4 135.2 137 139 141.1 143.1 143.8 143.7 142.6 140.9 137.9 137.9 138 136.8 134.1 131.8 132.8 135.6 143 151 159.2 180.7 179 172.1 174.1 172.5 169.1 175 174 190.6 198.4 200.4
182.1 179.5 177.7 177.7 179 179.1 178.3 176.4 173.5 171.8 168.5 162.7 155.9 151.3 148.4 147 145 140.9 135.7 130.8 128.9 129.2 130.9 129.4 129.5 134.8 130.4 133.7 139.8 146.1 150.6 145.4 140.1 151.8 157.1 151.2 131.6 106.2 97.9 93.8 82.9 71.1 54.8 40.7 27.9 13.9 1.7 -2 -2 -2 -2 -2 -2 -2 -2 -2 -2 -2 -2 -2 -2 -2 -2 -2 -2 -2 -2 -2 -2 -2 -2 -2 -2 -2 -2 -2 -2 -2 -2 -2 -2 -2 -2 -2 -2 -2 -2 -2 -2 -2 -2 -2 -2 -2 -2 -2 -2 -2 -2 -2 -2 -2 -2 -2 -2 -2 -2 -2 -2 -2 -2 -2 -2 -2 -2 -2 -2 -2 -2 -2 -2 -2 -2 -2 -2 -2 -2 -2 -2 -2 4.6 10.5 13.1 11.4 1.7 9.1 14.9 14.7 10.7 15.5 21.9 19.9 18.9 16.1 16.5 14.2 14 14.7 14.3 20.6 30.7 36.6 41.2 44.3 48 51.8 55.4 58.2 62.8 67.7 72.9 80.1 90.2 102.8 114 118.1 109.8 115.2 123.1 128.7 133.9 137 139.2 141.1 142.6 143.5 142.9 141.3 139.4 139.4 139.4 139.4 136.8 137.7 140.9 140.9 147.7 154.9 176 185.2 189 188.7 187.5 186 180.9 181 187.9 193.3 204.5 206.8
182.7 180.8 178.5 179.5 180.5 183 183.2 180.9 179.4 175.7 172.1 167.2 160.7 155.3 151 149.2 147.3 143.4 137.8 135.6 132.4 130.4 132.5 133.1 132.9 132.9 135.9 138.5 144.3 146.3 148 146.7 141.3 147.4 161 152.7 133.9 122.7 119.2 117.6 107.3 99.4 71.4 51 32.6 21.4 12.7 -2 -2 -2 -2 -2 -2 -2 -2 -2 -2 -2 -2 -2 -2 -2 -2 -2 -2 -2 -2 -2 -2 -2 -2 -2 -2 -2 -2 -2 -2 -2 -2 -2 -2 -2 -2 -2 -2 -2 -2 -2 -2 -2 -2 -2 -2 -2 -2 -2 -2 -2 -2 -2 -2 -2 -2 -2 -2 -2 -2 -2 -2 -2 -2 -2 -2 -2 -2 -2 -2 -2 -2 -2 -2 -2 -2 -2 -2 -2 -2 -2 -2 -2 -2 -2 -2 -2 -2 5.4 -2 -2 -2 6 12.7 11.4 10.2 9.5 9.8 8.1 6.1 6.7 14.6 26.3 33.5 39.2 42.7 45.3 48.4 51.2 55.1 56.9 61 64.7 71.9 79.4 88.6 97.9 107.5 103 98.9 102.1 110.8 121.3 128.8 133.8 137.1 138.9 140.9 143.3 142.7 141.8 140.8 140.7 140.5 141.6 140.8 141.7 149.4 151.8 161 168.3 176.9 184.2 189.1 191.5 192 192.5 191.5 192.5 196.6 200.3 201.9 205.8
182.8 181.4 181.2 181.6 182.2 185.6 188.9 187.1 184.1 181.9 175.1 169.1 164.6 160.7 155.4 152.9 148.2 143.6 140.9 137.4 135.5 132.5 133.8 135.4 135.9 135.5 141.6 146.6 148.4 151.6 150.8 147.6 141.5 140.5 145.3 144.2 139.7 137.9 150.4 138.4 118.4 99.7 83.5 64.2 41.2 28.1 14.1 5.2 -2 -2 -2 -2 -2 -2 -2 -2 -2 -2 -2 -2 -2 -2 -2 -2 -2 -2 -2 -2 -2 -2 -2 -2 -2 -2 -2 -2 -2 -2 -2 -2 -2 -2 -2 -2 -2 -2 -2 -2 -2 -2 -2 -2 -2 -2 -2 -2 -2 -2 -2 -2 -2 -2 -2 -2 -2 -2 -2 -2 -2 -2 -2 -2 -2 -2 -2 -2 -2 -2 -2 -2 -2 -2 -2 -2 -2 -2 -2 -2 -2 -2 -2 -2 -2 -2 -2 -2 -2 -2 -2 2.3 1.9 3.6 1.7 1.9 1.8 5.7 2.3 8.3 18.2 26.6 33.8 41.5 44.2 44.8 49.2 52.7 56.1 55.2 56.9 61.8 67.6 77.3 87.2 92.1 96.7 91.6 87.6 90.3 99.1 113.1 123.4 132.1 135.4 137.2 138.9 141.4 142.1 141.3 141.3 141.2 141.1 142 142.9 143.6 153.5 159.3 170.8 175.9 178.8 181 185.2 189.8 192.7 194.7 198.5 200.7 202.8 206.6 209.1 209.3
184.9 181.4 180.7 182.7 184.7 187.2 190.1 188.9 185.6 183.4 174.8 170.3 166.9 164.1 159.3 153.9 149.4 145.1 141.9 138.6 136.6 134.4 134.4 135.9 142.3 144.9 144.6 154.8 151.6 151 159.8 153.7 144.5 142.2 136.5 140 153.7 133.2 142.8 143.9 123 100 80.7 62.1 42.3 33.9 25.4 14.1 2 -2 -2 -2 -2 -2 -2 -2 -2 -2 -2 -2 -2 -2 -2 -2 -2 -2 -2 -2 -2 -2 -2 -2 -2 -2 -2 -2 -2 -2 -2 -2 -2 -2 -2 -2 -2 -2 -2 -2 -2 -2 -2 -2 -2 -2 -2 -2 -2 -2 -2 -2 -2 -2 -2 -2 -2 -2 -2 -2 -2 -2 -2 -2 -2 -2 -2 -2 -2 -2 -2 -2 -2 -2 -2 -2 -2 -2 -2 -2 -2 -2 -2 -2 -2 -2 -2 -2 -2 -2 -2 -2 -2 -2 -2 -2 -2 -2 2.3 11.5 17.8 24.7 32.8 40.6 44 45.4 49 52.2 51.9 52 55.4 62.3 67 74.1 84.4 88.4 86.5 82.7 79.8 81.3 90.4 106.3 120.7 130.3 133.7 135.5 137.4 139 141 140.7 140.9 140.9 141.1 141.5 143.3 145.2 153.8 166.1 171.5 180.4 180.6 181.9 186.3 189.7 190.1 197.1 200.1 204.7 210 207.9 208.1 207.6
185.5 182.3 182.1 185.1 186.4 188.4 190.4 189.7 186.3 181.6 177.1 172.7 170.1 166.4 161.9 156.5 151 147.2 143.6 141.1 137.7 135.2 135 136.4 141.5 149.2 149.3 152.7 149.7 149.2 149 151.2 144.3 140.4 134.4 131.5 145.4 133.7 125.6 129.3 112.2 98 77.3 67.3 55.2 40.3 30.3 21.7 12.7 -2 -2 -2 -2 -2 -2 -2 -2 -2 -2 -2 -2 -2 -2 -2 -2 -2 -2 -2 -2 -2 -2 -2 -2 -2 -2 -2 -2 -2 -2 -2 -2 -2 -2 -2 -2 -2 -2 -2 -2 -2 -2 -2 -2 -2 -2 -2 -2 -2 -2 -2 -2 -2 -2 -2 -2 -2 -2 -2 -2 -2 -2 -2 -2 -2 -2 -2 -2 -2 -2 -2 -2 -2 -2 -2 -2 -2 -2 -2 -2 -2 -2 -2 -2 -2 -2 -2 -2 -2 -2 -2 -2 -2 -2 -2 -2 -2 2.9 11.4 17.5 23.9 30.4 37.3 43.9 46.6 48.9 48 48.6 49.2 53.9 60 65.7 70 77.1 84.1 79.3 74.5 75.5 77 85.1 98.5 115.1 126.6 131.8 134.3 135.8 137.4 139.1 139.9 140.1 140.3 141.1 141.8 142.4 143.7 155 169.6 169.1 172.6 178.6 181.8 183.8 188.2 198.1 198.4 204.6 210 211.4 215.9 210.4 207.7
187.3 185.3 183.1 185.7 187.7 189.9 192.8 191.2 187.6 183 177.9 174.9 171.8 167.8 163.8 158.2 153.8 149.8 147.4 143.1 139.2 135.6 135.2 136.4 139 142.4 154.6 153.2 149.7 147.5 145.7 143.4 139.7 137.8 132.9 127.6 133.3 128.2 119.2 110.5 102.7 92.2 86.2 81 66.5 52 44.7 28.2 18.4 -2 -2 -2 -2 -2 -2 -2 -2 -2 -2 -2 -2 -2 -2 -2 -2 -2 -2 -2 -2 -2 -2 -2 -2 -2 -2 -2 -2 -2 -2 -2 -2 -2 -2 -2 -2 -2 -2 -2 -2 -2 -2 -2 -2 -2 -2 -2 -2 -2 -2 -2 -2 -2 -2 -2 -2 -2 -2 -2 -2 -2 -2 -2 -2 -2 -2 -2 -2 -2 -2 -2 -2 -2 -2 -2 -2 -2 -2 -2 -2 -2 -2 -2 -2 -2 -2 -2 -2 -2 -2 -2 -2 -2 -2 -2 -2 -2 6.4 11.4 16.2 22.6 28.4 33.7 41.2 47.2 47.4 46.5 46.6 46.3 51.1 58.1 64.1 65.6 68.6 72.9 72.2 66.8 65.2 66.8 82.2 94.2 106.7 118.6 126.1 131.1 133.9 135.7 136.8 138.1 138.6 138.1 138.9 139.7 140.7 143.5 158.6 169.7 168.9 169.7 173.9 178.8 184.8 187.5 194.6 198.1 200.1 204.5 208.6 210 208.5 206.4
187.8 186.8 185.8 186.4 188.8 190.2 193.5 194.8 189.9 184.6 178.4 176.6 173.3 169.4 165.8 161.2 154.7 152.1 149.6 146 140.2 136.6 138.5 139 142.2 141.3 141.2 150.7 149.5 145.9 143.1 140.7 138.6 137.4 132 125.3 120.9 118.9 112 102.3 98.2 104.7 107.5 98.3 76.4 64.2 54.7 42.3 26.8 12.4 -2 -2 -2 -2 -2 -2 -2 -2 -2 -2 -2 -2 -2 -2 -2 -2 -2 -2 -2 -2 -2 -2 -2 -2 -2 -2 -2 -2 -2 -2 -2 -2 -2 -2 -2 -2 -2 -2 -2 -2 -2 -2 -2 -2 -2 -2 -2 -2 -2 -2 -2 -2 -2 -2 -2 -2 -2 -2 -2 -2 -2 -2 4.6 -2 -2 -2 -2 -2 -2 -2 -2 -2 -2 -2 -2 -2 -2 -2 -2 -2 -2 -2 -2 -2 -2 -2 -2 -2 -2 -2 -2 -2 -2 -2 -2 -2 6.4 12.1 15.7 22.3 27.8 32.9 39.5 43.8 44 44.1 45 45 48.6 56.4 60 56.3 57.6 63.2 62.3 59 58.9 64.2 79.7 93.4 97.5 110 119 124.3 129.1 132.2 134.4 135.3 136.8 136.2 136.6 137.4 138.6 144.2 158.8 164.3 165.4 165 170 175.2 185.9 193.3 196.4 198 198.7 202.9 203.5 204.7 206.6 207.7
187.8 187.4 186.9 187 190.2 192 193.4 196.9 195.2 187.9 180.4 177.8 175.2 170.4 166.8 162.1 157.1 154.8 152.5 150 145 145.7 143.1 142.5 143 143.2 141.3 141.9 141.7 141.6 140.7 140.1 140 136 131 124.1 117 110.6 106.4 105.6 114.6 126.8 134.9 126.7 102 75.7 65.7 49.6 30.4 18.7 -2 -2 -2 -2 -2 -2 -2 -2 -2 -2 -2 -2 -2 -2 -2 -2 -2 -2 -2 -2 -2 -2 -2 -2 -2 -2 -2 -2 -2 -2 -2 -2 -2 -2 -2 -2 -2 -2 -2 -2 -2 -2 -2 -2 -2 -2 -2 -2 -2 -2 -2 -2 -2 -2 -2 -2 -2 -2 -2 -2 1.5 15.8 21.7 17 11.7 6.8 11.9 7.9 -2 -2 -2 -2 -2 -2 -2 -2 -2 -2 -2 -2 -2 -2 -2 -2 -2 -2 -2 -2 -2 -2 -2 -2 -2 -2 -2 -2 3.7 11.2 15.8 21.4 28.4 33.1 33.9 35.5 36.8 38.3 39.5 42.5 48.5 48.4 47.8 45.4 46.1 50.4 53.6 51.4 54.3 61.8 80.2 90.8 104.4 110 120.9 128.9 130.7 131.6 132.8 133.9 134.6 134.5 134.6 134.7 136 146.8 149.5 156.2 159.1 159.5 165.5 170.4 176.6 185.8 189.3 190.9 193 193.5 197.6 202.1 204.3 206.9
188.1 187.9 187.5 187.5 188.9 191.3 192.4 193.7 195.5 190.2 183.6 179 176.5 172.3 168.7 163.8 159.3 156.7 154.7 151.6 148.6 147.6 145 144.2 144.5 144.3 143.3 141.8 139.8 139.6 141.7 139.2 137.7 134.1 128.1 120.9 114.7 108.5 106.5 116.9 129.3 141.2 147.9 142.8 117 93 78.4 60.4 40.6 26.8 14.8 -2 -2 -2 -2 -2 -2 -2 -2 -2 -2 -2 -2 -2 -2 -2 -2 -2 -2 -2 -2 -2 -2 -2 -2 -2 -2 -2 -2 -2 -2 -2 -2 -2 -2 -2 -2 -2 -2 -2 -2 -2 -2 -2 -2 -2 -2 -2 -2 -2 -2 -2 -2 -2 -2 -2 -2 -2 -2 -2 11.7 17 26.6 19.2 14.1 20.3 19.5 29.3 22.4 6 -2 -2 -2 -2 -2 -2 -2 -2 -2 -2 -2 -2 -2 -2 -2 -2 -2 -2 -2 -2 -2 -2 -2 -2 -2 -2 4.4 10.2 14.5 19.1 22.1 24.9 28.3 29.5 31.4 33.6 35.7 37.5 40.5 41.9 42.2 41.9 41.6 43.3 46.3 48.3 53.4 65 79 94.4 106.6 110.8 115.5 124.6 130 131.8 132.2 132.6 132.9 132.9 131.4 130.7 133.5 140.8 143.8 146.6 147.8 155.6 163.3 169.3 174.8 179 183.8 187.6 189.1 188.1 194.2 199 199.3 199.7
188.6 188.4 188.1 188.6 189.3 190.7 191 191.2 190.5 187.8 182.5 179.8 177.6 173.5 170 166.8 162.2 159 156.5 154.4 151.9 147.7 146.8 145.1 144.9 144.1 143.3 142.1 141.5 139.7 139.7 141.4 138.6 133 126.4 121.1 112.7 108.9 108.1 116.4 141 151.7 150.9 142.8 129.2 105.5 83.2 65 47.6 38.3 26.5 -2 -2 -2 -2 -2 -2 -2 -2 -2 -2 -2 -2 -2 -2 -2 -2 -2 -2 -2 -2 -2 -2 -2 -2 -2 -2 -2 -2 -2 -2 -2 -2 -2 -2 -2 -2 -2 -2 -2 -2 -2 -2 -2 -2 -2 -2 -2 -2 -2 -2 -2 -2 -2 -2 -2 -2 -2 6.7 3.7 12.8 23.6 26.1 17.8 14 21.2 36.5 38.6 31.9 35.4 20.5 -2 -2 -2 -2 -2 -2 -2 -2 -2 -2 -2 -2 -2 -2 -2 -2 -2 -2 -2 -2 -2 -2 -2 -2 0.2 3 10.4 14.4 16.5 18.8 22.1 23 24.1 25.8 31.3 32.7 37.3 39.4 39.5 34.6 34.2 35.2 35.6 41.1 44.4 53.1 68.1 82.9 93.9 106.1 111 114.4 120.6 127.4 130.7 131.5 131.8 131.8 131.3 129.1 128.1 131 134.3 137.5 139.8 142.1 151.4 157 164.5 168.5 174.2 175.7 177.9 181.2 185.1 189.8 194.5 196.3 195.1
189.5 189 188.8 189.7 189.6 189.8 189.7 189.2 188.3 185.9 183.4 181.1 178.4 174.1 172.4 168.8 164.3 160.5 158.3 154.7 150.7 149.5 147.1 144.6 143.8 142.6 142.8 141.7 140.9 141 140.6 138.4 139.6 134.7 128.2 119.7 113.4 110.2 109.7 118.5 139.5 158.9 154 150.5 138.1 108 85 64.8 61.7 52.8 38.9 25.1 -2 -2 -2 -2 -2 -2 -2 -2 -2 -2 -2 -2 -2 -2 -2 -2 -2 -2 -2 -2 -2 -2 -2 -2 -2 -2 -2 -2 -2 -2 -2 -2 -2 -2 -2 -2 -2 -2 -2 -2 -2 -2 -2 -2 -2 -2 -2 -2 -2 -2 -2 -2 -2 -2 -2 14 26.5 25.5 16 30.3 35.5 25.3 20 36.1 43.7 49.6 47.7 58.2 42.9 -2 -2 -2 -2 -2 -2 -2 -2 -2 -2 -2 -2 -2 -2 -2 -2 -2 -2 -2 -2 -2 -2 -2 -2 0.1 2.2 7.2 10.1 12.5 17 20.4 21.9 28.3 32.3 33.4 33.9 36.3 40.3 36.8 31.6 32 31.7 32.8 39 43 53.5 72.1 80.9 93.2 102.7 111.1 113.2 115.3 124.1 129.4 130.3 130.7 130.4 129.7 128.1 127.1 127.6 130.3 131.7 132.5 136.7 141 149 157.8 166 170.8 172 172.7 178.7 184.1 187.2 185.5 188.3 188.7
190.5 188.4 189.3 188.9 188.8 189 189.8 188.4 187.2 185.2 183.4 181.6 179.1 175.2 173.2 169.9 166 162.4 159.1 157.5 155.2 151.7 149.2 145.5 142.8 140.7 140.6 140.9 141.1 139.9 139.6 139 136.2 133.2 128.2 120.6 113.6 112.1 114.8 118.5 139.9 152.4 147.7 142.6 131.8 113.5 83.9 72.4 72.7 69.4 47 28.9 11.2 -2 -2 -2 -2 -2 -2 -2 -2 -2 -2 -2 -2 -2 -2 -2 -2 -2 -2 -2 -2 -2 -2 -2 -2 -2 -2 -2 -2 -2 -2 -2 -2 -2 -2 -2 -2 -2 -2 -2 -2 -2 -2 -2 -2 -2 -2 -2 -2 -2 -2 -2 -2 -2 -2 23 29.6 27.5 23.2 25.1 30.2 27.8 35.2 48.4 58.2 62.7 72.9 69.1 47 27.7 21.1 -2 -2 -2 -2 -2 -2 -2 -2 -2 -2 -2 -2 -2 -2 -2 -2 -2 -2 -2 -2 -2 -1.1 0.4 1.8 4.1 5.1 11.4 14.1 17.8 24.1 30.9 36.4 38.7 38.1 35.9 40.9 36 29.2 29.5 30.5 30.9 34.8 41.1 54.5 68.5 79.6 93.3 105.8 111.7 110 111.3 119.5 124 128.6 129.1 129.5 129.6 128.8 127.5 127.4 129.5 129.2 131.8 132.4 138.6 151 158.5 168.9 179.3 174.1 168.7 178.6 182.5 174.8 175.7 181.4 183.1
190.4 189.7 188.1 187.6 189 190 191.2 190.5 188.5 185.6 183.6 181.9 180.6 176.4 175.6 172.1 168.8 164.2 161 159.9 157.7 154.4 152 149.4 144.9 142.5 139.5 139.9 140.5 138.7 137.8 135.8 133.4 129.5 124.9 120.5 117.4 115.1 120.2 130.1 128.5 139.3 140.7 135.6 124.7 108 88.4 84.9 84.4 70 53.9 36.1 15 -2 -2 -2 -2 -2 -2 -2 -2 -2 -2 -2 -2 -2 -2 -2 -2 -2 -2 -2 -2 -2 -2 -2 -2 -2 -2 -2 -2 -2 -2 -2 -2 -2 -2 -2 -2 -2 -2 -2 -2 -2 -2 -2 -2 -2 -2 -2 -2 -2 -2 -2 -2 -2 11.8 20.1 21.6 24.4 26.8 28.5 32.5 28.5 45.2 60.3 73.1 79.6 78.6 66.4 51 42.6 28.6 -2 -2 -2 -2 -2 -2 -2 -2 -2 -2 -2 -2 -2 -2 -2 -2 -2 -2 -2 -2 -2 -1.7 -0.2 1.3 4.3 4.9 7.3 12.6 17.5 23 28.6 35.3 41.2 40.4 38.8 40.5 33.2 29 28 29 30.2 34.6 42.3 54.4 66.7 80 98.8 105.4 106.4 107.7 109.8 112.9 120.1 126.4 128.5 129.6 129 128.2 126.2 127 129.3 128.9 130.9 131.2 136.9 145.1 155.4 165.4 175.1 170.1 164 168.9 170.1 167.8 169.1 172.9 174.9
192.3 191 189.8 187.4 186.7 189 190.3 190.6 189.5 186 183.6 181.8 179.9 176.6 176 172.5 169.8 166.7 164.3 162.9 160 156.5 153.9 151.9 148.6 144 140.2 138.2 138.3 137.9 136.9 134.7 130.8 126.7 122.6 119.7 118.5 117.2 120.8 138.1 137.5 128.9 127.6 125 115.4 100.9 87 83.1 86.1 68.7 52.1 38.4 23.9 -2 -2 -2 -2 -2 -2 -2 -2 -2 -2 -2 -2 -2 -2 -2 -2 -2 -2 -2 -2 -2 -2 -2 -2 -2 -2 -2 -2 -2 -2 -2 -2 -2 -2 -2 -2 -2 -2 -2 -2 -2 -2 -2 -2 -2 -2 -2 -2 -2 -2 1.5 6.6 13.6 19.2 23.9 30.1 33.4 34.1 31.4 29.2 32.2 47.3 63.7 75.9 79.1 71.3 66.4 58.4 44.4 26.5 -2 -2 -2 -2 -2 -2 -2 -2 -2 -2 -2 -2 -2 -2 -2 -2 -2 -2 -2 -2 -2 -2 -0.7 0.6 2.2 2.3 6.8 12 14.5 20.3 27.7 35.2 42.6 45.8 44 37.1 32.8 28.2 26.9 27.6 29.3 35.2 42.9 54.6 71.5 88.5 99.7 101.5 103.9 110.8 111.2 111.7 119 127.5 129.5 128.7 128.1 126.9 124 124 128.1 129 130.4 130.4 136.3 145.3 152.5 161 166.6 158.7 160.3 160.7 162.9 164.9 168.2 170.1 167.8
192.7 191 188.3 188.4 187.3 187.4 187.8 188 187.3 184.6 182.5 180.8 178.7 176.1 174.5 172.8 170.2 168.3 165.4 163.4 161.3 158.3 155.3 153.1 149.3 145.1 140.2 137.2 134.5 134.3 130.8 130.9 128.2 122 120.4 120.6 118.6 118.9 120.8 132.1 143.8 131.5 119.6 112.9 107.5 99.5 91.3 82.7 76.2 64.1 52.4 42.6 30.3 19.2 6.5 -2 -2 -2 -2 -2 -2 -2 -2 -2 -2 -2 -2 -2 -2 -2 -2 -2 -2 -2 -2 -2 -2 -2 -2 -2 -2 -2 -2 -2 -2 -2 -2 -2 -2 -2 -2 -2 -2 -2 -2 -2 -2 -2 -2 -2 -2 -2 -2 12.5 15 18 20.6 24.9 29.1 32.3 35.3 32.9 27.2 26 36.3 46.4 52.3 64.3 71.2 73.3 50.7 43.6 19.6 -2 -2 -2 -2 -2 -2 -2 -2 -2 -2 -2 -2 -2 -2 -2 -2 -2 -2 -2 -2 -2 -2 -2 -2 -2 2.4 7.8 11.1 13.7 18.5 26.9 35.4 41.8 49.6 50.9 44.1 32.8 28.7 26.4 27.3 30.2 36.5 46.1 59.5 74.1 88.5 95.1 104.2 106.3 116.2 115.6 112 114.8 124.1 128.1 127.7 127 125.6 123.5 122.3 124.2 125.4 126.4 128.9 135.8 141.4 148 153.8 151.5 151.1 153.8 158.1 164 165.7 168.5 164.8 160.6
192.5 190.4 189.7 189.5 187.1 185.6 186.5 185.8 185.6 183.2 181.6 178.2 176.6 176.5 175.1 175.2 172.3 169.2 166 163.8 161.7 159.7 156.2 153.8 149.8 145.4 140.3 135.2 133 129.2 127.1 126.2 124 119.1 117.3 118.7 118.6 117.5 118.6 122.5 126.6 125.7 114.9 109.3 107.9 105.9 97.8 90.9 80.9 74.2 66.9 55.9 36.6 23.6 9.3 -2 -2 -2 -2 -2 -2 -2 -2 -2 -2 -2 -2 -2 -2 -2 -2 -2 -2 -2 -2 -2 -2 -2 -2 -2 -2 -2 -2 -2 -2 -2 -2 -2 -2 -2 -2 -2 -2 -2 -2 -2 -2 -2 -2 -2 -2 7.9 16.5 17.2 26.4 21.5 20.4 21.5 25.8 28 27.3 26 27.1 24.8 37.1 44.4 42.8 64.2 68 61.4 49.9 39.7 25 -2 -2 -2 -2 -2 -2 -2 -2 -2 -2 -2 -2 -2 -2 -2 -2 -2 -2 -2 -2 -2 -2 -2 -2 -2 0.9 4.2 12.8 13.6 16.5 24.7 34.6 41.5 47.1 46.8 44.9 35.2 26.5 25.8 26.8 29.7 38.4 50.5 60.1 69.3 88 103.8 107.9 112.9 119.6 116.6 112.9 114.9 120.2 124.7 126.4 126.8 126.1 124.1 122 122.3 122.9 124.6 126.4 132.5 139 143.6 143.3 146.3 148.7 152.7 157.9 166.4 169.4 161.4 157.5 156.3
196.2 192.9 190.8 190.3 187.3 185.7 185.6 184.5 184.7 182.8 180.9 180.8 180.4 180 179.4 177.1 174.1 172 168.7 164.4 162.1 160.4 157.1 154.1 151.6 148.1 143.9 139.4 136 130.8 125.4 121.2 119.1 117 116.3 115.9 117.7 117.4 116.1 120.6 119.5 120.8 115.1 109.4 108.3 107.9 108.8 96.1 90.1 87.5 86.9 69.3 44.9 32.2 16.9 -2 -2 -2 -2 -2 -2 -2 -2 -2 -2 -2 -2 -2 -2 -2 -2 -2 -2 -2 -2 -2 -2 -2 -2 -2 -2 -2 -2 -2 -2 -2 -2 -2 -2 -2 -2 -2 -2 -2 -2 -2 -2 -2 -2 -2 -2 12.7 17.9 18.7 19.8 20.1 20.3 20.1 20.9 26.8 26.4 25.4 24.5 23.5 30.7 32.1 36.4 47.4 58.6 54.9 41 37.8 25.3 -2 -2 -2 -2 -2 -2 -2 -2 -2 -2 -2 -2 -2 -2 -2 -2 -2 -2 -2 -2 -2 -2 -2 -2 -2 0.6 4.1 11.5 13 14.8 22.8 31.9 38 40.9 43.7 41.1 32.3 26 25.5 27.8 33.1 40.9 52.6 59.7 71.9 86.8 103.7 113.4 122.4 117.3 115.5 116.9 114.4 117.2 120 125 127.3 127 125.6 122.2 122 121.8 123 124.7 127.5 135.7 136 137.8 143.1 146 148.6 153.5 161.9 160.2 154.1 151.6 152.7
199.4 194.8 193 190.5 186.5 183.1 185.1 184 184.8 182.6 182.6 182.3 183 181.9 180.7 178.9 175.7 174 171.7 166.5 163.1 161.1 158 154.6 152.5 149.4 145 140.1 135.1 129.7 125.3 120.7 118.7 115.8 115.4 114.5 115 117.1 115.1 116.4 117.6 117.4 116.3 111 105.9 106.4 107.2 98.4 93.3 92.6 85.1 70.7 56 36 20.2 10.6 -2 -2 -2 -2 -2 -2 -2 -2 -2 -2 -2 -2 -2 -2 -2 -2 -2 -2 -2 -2 -2 -2 -2 -2 -2 -2 -2 -2 -2 -2 -2 -2 -2 -2 -2 -2 -2 -2 -2 -2 -2 -2 -2 -2 -2 7.7 12.8 15.2 15.8 18.3 19.8 19.1 19.8 22.3 24.6 22.4 25.8 23.5 20.6 22.4 32 43.6 50.2 46.6 36.3 26.4 12.3 -2 -2 -2 -2 -2 -2 -2 -2 -2 -2 -2 -2 -2 -2 -2 -2 -2 -2 -2 -2 -2 -2 -2 -2 -0.7 1.5 6 12.1 13.9 14.7 20.1 31.8 35.3 38.4 39.3 36.9 27.9 25.9 25.2 27.4 31.8 42 53.7 63.4 69.7 85.6 101.1 121.2 130.7 122.6 122.6 120.5 115.4 115.7 118.8 122.2 124.5 126.3 124.9 122.2 122 121.7 122.3 123.7 124.8 126 128.8 135.9 139.8 142 143.4 150.1 154.7 150.3 148.5 150.6 156.6
202.1 196.5 191.5 188.1 183.8 181.9 181.8 181.8 181.8 182.3 184.3 185.5 185.4 186.1 184.9 183.9 179.1 176.5 174.3 169.7 164.8 161.9 158 154.3 152.7 149.5 145 140.1 135.1 131.1 123.9 119 116.2 115 114.7 114.4 113.2 114.4 116.3 113.4 112.3 113.4 117.5 110.4 104.6 102.3 100.9 94.1 89.4 84.7 79.1 68.3 57.3 44.6 25.8 11.9 -2 -2 -2 -2 -2 -2 -2 -2 -2 -2 -2 -2 -2 -2 -2 -2 -2 -2 -2 -2 -2 -2 -2 -2 -2 -2 -2 -2 -2 -2 -2 -2 -2 -2 -2 -2 -2 -2 -2 -2 -2 -2 -2 -2 -2 3.7 7.9 10.7 12.1 14.5 19.3 19.7 15.4 18.7 21.6 20.8 25.6 23.2 16.1 15 20.7 41.6 41.1 42.8 28.8 14.8 -2 -2 -2 -2 -2 -2 -2 -2 -2 -2 -2 -2 -2 -2 -2 -2 -2 -2 -2 -2 -2 -2 -2 -2 -2 0.3 3.7 9.2 11.9 13.4 15.4 27.2 30.5 30.5 35.1 35.8 31.7 26.9 24.9 24.5 28.5 36.6 46.4 55.3 63.6 72.5 83.5 99.7 118 127 121 121.4 115.2 114.6 113.7 117.1 121.6 123 124.7 123.9 122.3 122 121.4 122.2 124.4 124.7 126.4 130.7 133.9 138.2 139 142.2 147 147.5 145.6 143.6 148.8 161.4
200.6 194.5 190.2 186 182.7 181.8 181.8 181.8 181.8 185 186.8 187.4 187.1 186.8 186.5 185.2 182.1 179.3 175.9 172.6 167.9 161.9 157.2 154.7 152.5 147.7 144.5 140.2 135.8 129.5 123.2 118.9 116.1 114.7 114.2 114.1 113.3 112.6 111 111.7 102.7 104.4 108.2 106.2 102 96.5 91 85.4 81.4 76.2 71.2 65.1 55.8 44.1 32.3 16.3 4.6 -2 -2 -2 -2 -2 -2 -2 -2 -2 -2 -2 -2 -2 -2 -2 -2 -2 -2 -2 -2 -2 -2 -2 -2 -2 -2 -2 -2 -2 -2 -2 -2 -2 -2 -2 -2 -2 -2 -2 -2 10.4 10.8 12.3 7.1 7.2 7.6 7.8 8.7 9.5 11.9 12.8 13.8 15.2 16.8 17.8 18.5 15.8 12.7 11.5 20.1 22.5 33.4 26.9 17.4 -2 -2 -2 -2 -2 -2 -2 -2 -2 -2 -2 -2 -2 -2 -2 -2 -2 -2 -2 -2 -2 -2 -2 -2 -2 -2 1.3 6.1 13 13.3 13.9 14.9 20.5 23.9 24.9 29.5 31.1 26.8 25.6 24.4 24.6 25.9 39.5 48.5 55.4 62.5 72.3 80.7 95.2 109.4 110.7 115 113.9 112.2 110.4 113.1 115 119.9 121.6 124.6 123.6 122.3 121.9 121.1 123.6 123.6 127.9 130.4 131.4 134 136.8 141.5 141 142.2 140.4 138.6 142.2 151.7 162.8
199.2 193.8 189.4 186 183.8 181.8 181.8 181.8 181.8 185.8 188.8 189.4 188.9 188.6 187.2 184.7 182.7 181.1 179 175.3 169.4 164 160.9 156.7 152 147.7 143.6 138.9 133.6 127.2 121.8 119.9 118.6 116.3 116.4 116.6 117.5 118.5 118.2 116.3 108.4 101.4 93.1 94.5 91.4 89.6 85.4 77.3 68.4 64.1 62.7 57.8 51.9 44.2 34.8 22.5 11.7 -2 -2 -2 -2 -2 -2 -2 -2 -2 -2 -2 -2 -2 -2 -2 -2 -2 -2 -2 -2 -2 -2 -2 -2 -2 -2 -2 -2 -2 -2 -2 -2 -2 -2 -2 -2 -2 -2 -2 -2 18.4 21.5 29 18.9 9.5 7 7.2 8.6 10 10.4 12.2 13.6 15.2 16.8 17.5 15.1 12.7 9.5 2.5 1.9 14.2 19.1 20.9 9.9 -2 -2 -2 -2 -2 -2 -2 -2 -2 -2 -2 -2 -2 -2 -2 -2 -2 -2 -2 -2 -2 -2 -2 -2 -2 -2 3.4 12 12.7 12.8 14 14.5 13.8 12.6 13.3 19.8 17 20.9 22.5 22.8 23.4 27 39.7 49.9 56.1 62.5 71.9 79 84.9 91.1 99.3 107.5 108.5 108.5 111.4 112.7 116.3 118.7 120.2 121.9 122.3 122.9 125.2 121.9 121 123.2 126.6 130.6 132.7 135.2 138.4 137.1 136.7 134.4 132.8 137.3 146.2 155.1 161.6
195.4 191.5 188.3 187 185 183.8 181.8 181.9 183.5 185.5 188.6 189.1 190.8 192 193.3 190 185.2 183.2 181 178.2 172.6 166 167 164.2 160.6 152.4 148.1 143.8 138.4 133 125.5 123.5 119.6 117.8 117.9 118.7 119.7 120.1 125.4 120.9 126.6 126.9 105.9 96.3 89.3 79.8 76.1 73 68.7 62.7 55.4 48.3 44 40.8 35.8 25 -2 -2 -2 -2 -2 -2 -2 -2 -2 -2 -2 -2 -2 -2 -2 -2 -2 -2 -2 -2 -2 -2 -2 -2 -2 -2 -2 -2 -2 -2 -2 -2 -2 -2 -2 -2 -2 -2 -2 -2 -2 11 17.4 28.8 23 10.9 8.8 8.8 9.2 9.7 10.5 13.4 17.7 20.8 32.5 25 16.6 10.9 6 1.9 -2 -2 6.7 7.6 -2 -2 -2 -2 -2 -2 -2 -2 -2 -2 -2 -2 -2 -2 -2 -2 -2 -2 -2 -2 -2 -2 -2 -2 0.8 3.6 -2 11.2 13.3 15.5 11.1 11.8 12.4 9.3 10.8 10.8 12.9 16.7 19.7 19.2 20.9 22.5 28.2 38.5 49.4 58.4 64 71.7 79.7 86.8 95.8 99.3 100.7 106.2 106.1 113.9 112.4 115.2 117.4 119.9 120.1 119.6 121.6 121.9 121.8 121.4 123.6 127.2 129.9 133.1 135.5 134.8 134.7 133.2 132.2 132.9 139.7 149.1 155.9 161.7
194.6 191.6 188.3 187 185.9 184.4 181.8 181.8 182.4 182.7 185.6 188.1 191.4 194.9 197.7 197.4 193 186.4 184.5 182 175.9 173.9 174.6 167.8 166.7 164.1 156.7 149.7 145.4 136.5 128.5 124.4 119.9 118.9 120.9 121 122.3 123.8 127.6 127.2 132.6 130.5 121.3 113.2 103.2 88.2 81.9 75.6 73.3 66.7 60.6 52.6 42.4 33.3 30 21.2 -2 8.3 -2 5.8 -2 -2 -2 -2 -2 -2 -2 -2 -2 -2 -2 -2 -2 -2 -2 -2 -2 -2 -2 -2 -2 -2 -2 -2 -2 -2 -2 -2 -2 -2 -2 -2 -2 -2 -2 -2 7.3 12.3 18.1 30 29.4 16.6 12.5 9.9 9.6 10.2 26.1 23.9 22.2 22.7 39.4 40 36.5 12.6 7.5 4.3 -2 -2 -2 -2 -2 -2 -2 -2 -2 -2 -2 -2 -2 2.3 2.2 2.1 -2 -2 -2 -2 -2 -2 -2 -2 -2 -2 -2 1.3 8.2 13 11.8 9.9 10.1 12.2 14.9 13.2 12.9 14.4 12.6 10.2 10.2 10.2 14.3 17.5 20.1 21.2 30.1 37.4 47.8 56.7 62.7 68.8 79.9 89 91.3 91.7 100.2 105.9 107.7 110.5 109.7 113.3 115.6 119.8 117.1 116.1 118.9 120.4 120.8 122.9 124.6 127.3 127.4 129.7 132.5 131.6 131.5 130.3 131.8 135.6 142.2 151 159.4 161.2
194.6 190.7 187.6 186.9 184.9 184.4 181.8 181.8 181.8 181.8 185 188.3 191.7 195.4 200.3 201.4 199.2 192.8 186 183 180.6 178.1 177.9 176.1 171.9 167 163.4 156.8 149.3 139.7 132.5 126.4 123.3 122 122.2 122.3 123.7 128 129.5 135.9 134 135.7 126.3 117.2 112.2 100.2 88.8 80.1 70.1 66.6 58 54 45 35.6 29.7 21.2 15.9 13.6 12.7 12.3 8.2 -2 -2 -2 -2 -2 -2 -2 -2 -2 -2 -2 -2 -2 -2 -2 -2 -2 -2 -2 -2 -2 -2 -2 -2 -2 -2 -2 -2 -2 -2 -2 -2 -2 -2 -2 1.6 15.2 21.4 22.6 27.2 21.7 23.1 28.8 24.1 15.5 23.1 28.3 22.9 22.9 30.7 50 50.6 42.1 12.4 6.2 -2 -2 -2 -2 -2 -2 -2 -2 -2 -2 -2 -2 -2 7.3 18.8 17.9 -2 -2 -2 5.8 -2 -2 -2 -2 -2 9.8 10 8.5 12.8 15.3 14.5 15.5 16.3 27 26.9 26.8 13.5 11.4 10.1 10.2 10.2 10.2 13.3 16.1 19.1 22.2 23.7 29.6 35.3 53.6 69.6 71.2 80.8 88.7 89 92.3 101.1 106 106.1 106.9 105.9 110.4 113.8 115.1 112.5 111.5 116.2 115.1 118.8 122.9 126.3 125.9 125.3 125.3 127 129.1 133.6 133.3 134.6 139 145.6 154.5 157.9 163.5
194.6 191.9 188.4 187.2 186.4 185 182.1 181.8 181.8 181.8 185.2 188 192.2 194.7 199.9 203.3 202.4 197 191.4 186.1 181.7 181.3 181.7 181.3 176.9 170.9 165.5 160.2 150.3 142.9 136.8 130.6 125.5 124 124.3 124 126.1 132.2 134.6 136.8 131.7 132.1 131.5 123.7 118.8 109.1 98.3 86.5 76.8 65 57.1 50.9 45.7 37.6 30.7 23 17.4 16.1 15.4 16.6 14.7 11.1 -2 -2 -2 -2 -2 -2 -2 -2 -2 -2 -2 -2 -2 -2 -2 -2 -2 -2 -2 -2 -2 -2 -2 -2 -2 -2 -2 -2 -2 -2 -2 -2 -2 -2 -2 11.4 16.5 14.5 16 13.8 33.2 45.3 48 44.4 45.4 43.1 27.8 24.7 24.4 37.6 42.3 36.4 19.7 8.2 -2 -2 -2 -2 -2 -2 -2 -2 -2 6.3 -2 -2 -2 13.2 33.8 25.6 26 3 6.6 12.1 10.8 9.9 9.3 8.8 12.2 18.2 14.2 14 22.7 27.3 27.8 17.6 17.6 27.3 30.7 24.9 13.9 10.2 10.2 10.2 10.2 10.2 10.2 13.7 15.6 18.2 18.5 27.9 40.5 57.3 64.4 70.3 76.3 82.4 86.9 90.9 96 98.9 100.8 102.4 104.3 105.9 108.3 107.4 104.5 106.3 113.9 123.3 123.7 124.3 124.3 124.3 124.6 124.9 125.5 131 139.6 136.3 138.3 141.1 150.3 153.5 157.1 168.8
194.8 192.1 188.6 187.5 185.3 183.8 181.8 181.8 181.8 181.8 185.5 188.3 190.8 193.9 200.5 206.4 204.5 202.1 196.4 189.7 184.1 181 178.5 179 176.6 171.6 163.5 157.8 150.6 144.9 142.4 133.8 128.2 126.8 125.7 126 129 132.3 134.4 133.8 132 129.2 130.7 129.4 121 111.7 101.1 88.2 78.5 66.7 56.1 50.8 43.1 36.6 29.5 23.8 19.2 18.6 18.7 19.8 29.1 17.6 19.9 -2 -2 -2 -2 -2 -2 -2 -2 -2 -2 -2 -2 -2 -2 -2 -2 -2 -2 -2 -2 -2 -2 -2 -2 -2 -2 -2 -2 -2 -2 -2 -2 -2 -2 12.9 12.7 12.4 -2 -2 17.6 41.2 57.9 59.3 56.5 53.1 40.5 34 27.3 27.8 33.2 32.2 25 16.7 -2 -2 -2 -2 -2 -2 6 8.3 17 9.7 -2 -2 -2 23.9 38.6 38.2 28.4 15.3 14.6 18 20.2 24.2 22.2 18.1 19.2 25.5 29 31 26.5 29.1 23.7 18.2 22.5 24.3 25.9 22.3 10.2 10.2 10.2 10.2 10.2 10.2 10.2 10.2 11 15.1 17.8 25.8 36.4 46.9 57.4 59.4 66.6 75.9 80 85.2 88.8 94.4 97.8 100.5 99.1 100.1 100.4 101.1 102.4 104.5 114.7 123 126.8 128.2 126.5 125.9 125 125.3 125.7 134.3 144.9 139.2 139.4 143.8 149.6 151.6 156 162.9
195.6 193.6 188 186.2 184.5 183.4 181.9 181.8 181.8 182.5 185.7 189.2 191 195.7 201.6 204.3 206.8 204.8 198.7 192.6 187.1 183.2 178.2 175.9 173 170.3 162.7 156 152.5 148.3 145.9 141.4 131 128.9 128.1 129.2 131.7 134.5 138.3 135.6 133 126 124.5 125.3 118.3 106.2 96.3 87.3 78.1 68.9 60.3 48 40.3 34.7 28.7 23.8 22.1 20.8 20.7 22.8 24.5 26.6 32 28.3 -2 -2 -2 -2 -2 -2 -2 -2 -2 -2 -2 -2 -2 -2 -2 -2 -2 -2 -2 -2 -2 -2 -2 -2 -2 -2 -2 -2 -2 -2 -2 -2 -2 -2 -2 -2 -2 -2 -2 25.2 46 62 60.2 59.8 52.3 32.4 24.3 27.1 26.2 22.6 20.8 13.4 -2 -2 4.6 9.4 16.3 19.1 26 22 28.5 23.2 -2 -2 4.3 33.7 43.6 41.6 25.2 18.3 18 27 35.1 37 26.1 21.5 25.6 33.5 39.5 36.8 27.8 23.4 22.9 23.7 31 24.7 23.9 15.1 10.2 10.2 10.2 10.2 10.2 10.2 10.2 10.2 12.3 15.1 20.6 24.8 30.4 38.4 42.8 51.3 58.6 68.4 72.7 79 82.6 84.7 90 95 96.9 101 96.4 98.6 99.7 103 113 120.1 126.6 131.4 129.5 127.6 126.1 126.2 126.5 132.7 137.2 139.2 139.5 144 146.4 153.3 158.5 164.1
201 195.5 191.6 186.9 185.8 184 183.2 183.6 184.6 181.8 185.3 188.6 191.2 197.1 201.7 207.2 208.5 207.5 204.7 197.8 188.9 186.3 181.6 176.5 171.5 166.8 161 155.3 150.4 149.1 146.9 143.5 136.7 132.4 131.1 131.1 132 139.1 137.2 134.4 130.6 127.4 123.8 120.1 115.4 102.1 94.4 88 79.7 69.6 60 50.1 38.4 32.4 28.8 25.4 24.2 23.8 27 27.6 28.4 28.9 29.7 27.7 16.2 -2 -2 -2 -2 -2 -2 -2 -2 -2 -2 -2 -2 -2 -2 -2 -2 -2 -2 -2 -2 -2 -2 -2 -2 -2 -2 -2 -2 -2 -2 -2 -2 -2 -2 -2 -2 -2 -2 -2 18.6 36 56.4 53.9 50.6 34.1 23.9 18.4 21.5 21.3 14.4 9.1 4.6 12.4 13.4 18.1 29.4 32.5 41.3 39.6 37.1 28.3 13.5 1.6 11 31.4 39.5 35.2 20.7 19.1 22.5 35.2 42.3 41.6 32.4 28 33.2 39 41.8 41.5 31.1 23.1 25.1 26.4 30.3 28.2 27.9 14.7 10.7 10.2 10.2 10.2 10.2 10.2 10.2 10.5 12.2 15 19.5 21.6 25.9 32.5 38.3 43.4 51.4 58.5 67.7 73 79.7 85.2 89.7 92.3 94.5 90.9 93.9 97.5 98.4 100.8 109 117.1 125.9 131.3 131.4 129 127.7 127.8 128.4 130.4 133.9 136.8 139 141.8 147.9 155.9 164.2 168.1
200.6 197 193.3 190 187.7 186 186.2 184.7 181.8 181.8 184.6 187.5 189.8 194.3 204.9 214.2 208.4 206.2 204.6 195.4 189 184.8 178.9 174 168.2 162.5 159.5 157.8 155.7 150.2 148.8 144.8 142.7 137.8 135.8 133.8 133.4 133 134.6 140 131.9 130.2 126 118.9 107.7 101.9 95 88.5 80.4 72.6 61.6 49.1 38.4 32.3 28.4 27.4 25.2 26.5 32.5 38.7 35.9 33.2 30.7 28.1 22.9 14.5 -2 -2 -2 -2 -2 -2 -2 -2 -2 -2 -2 -2 -2 -2 -2 -2 -2 -2 -2 -2 -2 -2 -2 -2 -2 -2 -2 -2 -2 -2 -2 -2 -2 -2 -2 -2 -2 -2 -2 6.5 25 33 38.1 31 34.6 24.8 15.8 14.7 15.1 18 19.5 18.6 17.9 17.5 38.2 45 52.2 56.5 51.5 40.4 25.3 12.4 13.5 25 28 26.4 20.4 23.6 35.1 45.8 48.8 44.8 36.4 38.4 40 41 41.4 37.2 27 25.4 31.5 32.2 32.5 23.3 15.8 12.6 15.3 10.2 10.2 10.2 10.2 10.2 10.8 11 12.4 14.5 17.7 20.5 26.6 32 36.7 44.6 49.9 57.3 64.6 74.4 79.8 84 83.9 84.3 85.2 90.6 93.8 97.1 97.9 95.9 109 114.4 121.8 124.5 128.1 129 128.9 129.8 131.3 132 135.2 143 142.6 144.5 150.3 161.9 168.5 169
201.7 198.6 194.5 191.9 190.5 189.5 186.7 183.2 181.8 181.8 181.8 184.3 187.2 192.7 203.5 209.8 206.9 202.7 200.5 195.4 188.8 183.3 181 175.6 170.1 164.9 159.6 157.3 158.9 155.7 151.4 147.2 144.8 140.2 138.5 137.1 134.6 130.9 129.5 129.3 129.6 122.7 115.9 111.2 103.9 102.7 99 90.4 77.7 70 60.7 50.3 41.1 38.6 36.5 31.4 28.1 27.7 33.8 43.5 46.1 42.3 36 28.6 27.5 27 -2 -2 -2 -2 -2 -2 -2 -2 -2 -2 -2 -2 -2 -2 -2 -2 -2 -2 -2 -2 -2 -2 -2 -2 -2 -2 -2 -2 -2 -2 -2 -2 -2 -2 -2 -2 -2 -2 -2 12.9 10.4 12.4 14.4 24.5 36.5 24.4 16 16.2 17.4 20.9 23.6 18.7 17.4 18.5 39.2 51.9 61 64.4 65.7 50.3 30.9 18.4 30.3 30.7 27.8 25 21.6 29.4 42.4 54.6 61.2 46.8 43.9 43.1 44.5 39 32.9 29.5 24.4 24.4 27 34.4 28.3 15.3 14.7 22.4 18.5 10.2 10.2 10.2 10.2 10.2 11.4 11.7 12.2 13.9 16.5 21.4 25.9 34.2 41.9 44.4 50.5 58.4 64.7 71 77 79.7 80.1 81.9 85.7 92 94.3 99.7 94.7 96.9 108.2 113.3 115.3 116.8 121.5 124.3 126.3 129.1 130.4 131.2 134.1 141.8 142.3 144.7 151.3 160.3 162.1 165
201.6 198.4 195.6 193.5 191 190.5 186.8 182.6 181.8 181.8 181.8 181.8 185.6 191.7 196.6 199.7 200.7 198.8 198.7 195.6 185.9 182.8 180.1 177.8 173.7 168.1 162 155.1 151.2 154.5 154.8 151 147.8 143.1 138.7 135.6 133 130 127.8 126.2 122.4 117.6 113.5 110.9 107.5 104 96.7 86.7 76.5 68.2 62.1 56.3 47.6 45.3 50 46.8 35.9 31.1 33.2 41.3 46 46.8 43.3 31.7 31.9 32 20.5 -2 -2 -2 -2 -2 -2 -2 -2 -2 -2 -2 -2 -2 -2 -2 -2 -2 -2 -2 -2 -2 -2 -2 -2 -2 -2 -2 -2 -2 -2 -2 -2 -2 -2 -2 -2 -2 -2 15.1 19.4 19.7 22.2 24 24.6 22.8 20.8 20.5 19.6 18.6 17.5 17.4 18 19.3 39.6 52.5 72.2 72.3 77.2 52 39.1 29 36.7 37.2 35.8 31.3 27.8 31.2 42.1 64.8 76.4 57.9 50.3 49.4 44.9 34.3 32 27.8 25.9 30 26.2 28.2 21.4 21 27.8 25.1 17.6 10.2 10.2 10.2 10.2 11.9 12.3 12.1 12.6 13.1 19.3 20.9 27 32.6 39.8 44.3 53.7 57.4 65.9 67.5 72.6 75.5 81.6 84.2 92.3 90.8 97.6 100.7 90 96.1 107.2 111.9 110.1 108.9 111.1 115.4 121 126.2 127.9 128.8 132.3 138.5 140.1 144.2 150.2 156.3 159.4 167.4
199.4 198.8 197 194.2 192.6 190.8 185.9 181.8 181.8 181.8 181.8 181.8 184.2 188.2 191.2 193.8 194.2 192.6 190.7 188.4 187.9 184 180.9 176.5 171 168 162.7 158.2 151.3 149.2 151 151.4 151.2 144.9 137.9 133.3 131.5 129.6 127.1 125.5 124.5 124.2 119 115.7 117.2 109.8 98.9 90.3 82.8 72.7 63.9 60.3 58.9 58.1 52.2 55.5 52.2 39.8 35.2 37.8 45.5 46.1 45.3 38.6 35.3 33.6 28.4 15.7 -2 -2 -2 -2 -2 -2 -2 -2 -2 -2 -2 -2 -2 -2 -2 -2 -2 -2 -2 -2 -2 -2 -2 -2 -2 -2 -2 -2 -2 -2 -2 -2 -2 -2 -2 -2 -2 12.2 17.3 22.6 25.8 28.2 29.5 28.5 29.1 31.5 27.8 19.6 17.6 17.3 19.8 21.2 41.3 60.6 81.8 83.2 75 57 48.2 32.4 38.7 43.9 42.7 45.1 31 32.4 38.9 65.8 71.4 65.5 54.9 51 40.7 33.3 33.4 36.5 29.4 30.1 20.1 18.3 22.4 31.8 29.4 23.8 15.8 10.2 10.2 10.2 10.3 12.1 12.5 12.1 12.7 13.4 16.2 20.4 27.1 29.5 37.2 46.1 53.3 57.6 61.8 68.8 74.5 80.9 85 90.4 96.3 95.3 97.5 95.4 83 97.2 104.1 101.3 101.4 100.7 102.8 110.4 117.1 121 123.4 125.8 130.5 136.3 145.1 145.7 149.5 153 163.4 173.4
201.1 199.7 198 195.6 193.5 191.1 185.7 181.9 181.8 181.8 181.8 181.8 182.6 187 187.9 189.4 190.7 191 189.3 187.8 185.1 182.7 176.9 174.8 171 167.7 160.1 154.6 150.3 145.6 144 147.9 147.1 142.9 136.1 132.9 131.3 129.7 128.8 126.7 125.6 123.5 120.7 120.8 123 116.7 104.2 95.7 85.3 77.1 71.6 69.4 66.6 61.6 56.2 56.8 54.3 49 42.4 38.7 45.5 47 46.1 43.7 42.2 37.8 35.8 24.6 -2 -2 -2 -2 -2 -2 -2 -2 -2 -2 -2 -2 -2 -2 -2 -2 -2 -2 -2 -2 -2 -2 -2 -2 -2 -2 -2 -2 -2 -2 -2 -2 -2 -2 -2 -2 -2 8.1 13.8 21 25.7 27.6 31.5 37.8 44 44.2 43.4 25.7 21.1 22.8 25.9 32.8 44.5 64.7 85.2 92.5 80.1 62.6 56.8 38.6 40 55 47.9 48.8 33 35.1 43.6 65.7 79 67.4 56.9 52.6 44.4 36.4 34.7 30.8 20.6 18.9 18.9 25.8 27.6 29.4 29.1 22.6 13 10.2 10.2 10.2 10.2 10.8 11.5 12 12.6 13.3 16 21.7 24 32.4 38.7 47.3 54.4 61.1 62.6 68.2 76 83.8 85.5 92.9 96.6 96.4 96.7 92.3 75.3 89.7 90.2 90.2 91 89.8 94.6 101.9 108.1 116.8 124.1 127.3 132.8 140.9 148.4 156.1 152.6 152.5 158.7 165.4
203.6 202.5 199.4 196.9 193.7 191 188.2 185.9 182.9 181.8 181.8 181.8 185.4 185.8 186.7 188 189.9 189.4 187 186.1 181.6 177.7 173.6 171.5 167.8 163.4 159 153.3 147.9 144.2 140.5 139.2 143.1 139.9 136.8 133.5 132 130.1 128.7 127.4 126.8 127.4 125.7 123.3 119.9 115 104.8 95.3 86.7 87.3 81.8 78.2 72.3 65.2 59.9 58.5 59.5 59.8 53.3 45.9 41.6 45.8 46.2 47.9 57.7 42.7 43.5 31.3 13.5 -2 -2 -2 -2 -2 -2 -2 -2 -2 -2 -2 -2 -2 -2 -2 -2 -2 -2 -2 -2 -2 -2 -2 -2 -2 -2 -2 -2 -2 -2 -2 -2 -2 -2 -2 -2 -2 15.8 30.9 32.5 32.2 38.7 47.6 49.7 49.3 49.4 36.4 33.1 34.9 36.5 43.2 48.2 69 93.4 102.1 83.3 75 66.1 48.3 45.3 55.5 52.7 48.4 37.5 38.4 44.2 61.6 77.8 66.8 53.8 42.4 36 31.5 31.1 22.6 18.9 18.9 31.8 36.1 34.4 31 26.8 14.3 10.2 10.2 10.2 10.2 10.2 12.5 12.4 12.1 12.4 13.2 16.1 21.4 24.6 30.7 36 46 54.1 60.2 63.3 67.8 72.7 79.5 82.7 93.6 95 94.4 93.9 86 69.8 77 77.8 82.1 88.1 83.8 92.7 102.7 111 120.2 125.5 129.6 137.1 145 150.6 155.4 156.2 154.6 158.4 167.4
202.6 200 199.5 196.8 194.9 191.7 189.6 187.6 186.9 186 185.3 184.7 186.2 186.4 185.8 187.7 187.5 185.2 183.7 180.7 176.2 173.5 169.7 168.5 166.7 163.5 157 152.1 147.7 146.2 140.6 137.4 137.1 137 138.3 136.6 132.4 130.6 129.7 128.2 129 130.5 128.9 125.5 121.2 119.3 109.1 97.8 92 94.7 91.3 86.9 85 73.1 62.7 63.7 65.1 75.6 68.9 57.5 46.6 45.1 47.7 50 53.9 57.4 46.8 44.2 30.4 -2 -2 -2 -2 -2 -2 -2 -2 -2 -2 -2 -2 -2 -2 -2 -2 -2 -2 -2 -2 -2 -2 -2 -2 -2 -2 -2 -2 -2 -2 -2 -2 -2 -2 -2 -2 -2 13.7 27.8 35 36.5 45.7 53.4 53.4 48.4 50.2 44.6 39 47.8 51.3 56.2 56.8 69.9 90.9 102.8 92.8 80.2 70.2 66.9 70.5 55.7 50.1 46.5 45 42.9 46.8 57.9 69.3 57.8 46.4 35.9 30.3 26.9 20.6 18.9 18.9 25.6 33.6 38.2 35.1 31.7 23.4 11.2 10.2 10.2 10.2 10.2 10.2 10.2 11.8 12.9 14 13.8 14.5 18.3 24.6 27.4 35.8 42.8 48.5 55 63.1 65.3 69.5 76 77.8 84.8 89.9 90.1 84.8 77.2 67.3 71.9 75.2 83.8 80.3 86.1 99.1 106.1 112.9 118.5 123.9 129.6 138.9 146.5 155.8 159.5 163.7 164.7 167.3 169
202.8 198.9 198.2 198.1 195.7 192.9 190.7 190.1 188.3 188.1 187.7 187.3 186.6 186.2 186 186.1 185.6 184 179.7 176.4 173.7 171 169 165.3 164.9 163.8 157.3 153.6 149.9 145.7 140.3 137.4 136.2 136 136.6 139.1 135.2 131.7 128.8 130.2 130.7 132.2 134.4 134.1 127.2 119 112.5 102.6 95.2 95.8 98 92.2 82.2 73.7 69 72.3 71.5 79.5 81.1 65.9 52.6 48.9 50.3 50.9 51.9 55 50.9 47.9 46.6 24.8 -2 -2 -2 -2 -2 -2 -2 -2 -2 -2 -2 -2 -2 -2 -2 -2 -2 -2 -2 -2 -2 -2 -2 -2 -2 -2 -2 -2 -2 -2 -2 -2 -2 -2 -2 -2 11.2 23 32.2 37.7 46.7 54.6 55.9 48.4 47.1 45.1 45 53 61 64.7 66.8 69.1 80.3 98.3 96.1 84.2 79.1 87.7 86.8 70.2 51.8 52.3 48.3 50.7 49.8 59.7 53.5 50.3 43.1 30.7 20.7 18.9 18.9 18.9 22.8 31.4 33.8 37.3 34.6 26.8 19.9 10.2 10.2 10.2 10.2 10.2 10.2 10.2 10.3 13.9 16 16.8 18.8 21.2 22.2 25.4 33.6 36.6 43.4 55.2 58 62.5 67 72.5 73.3 76.6 76.9 79 77.6 71 63.7 68.3 73.7 77.5 71.4 90.2 100.8 107.8 112.9 117.2 123.9 130.7 139 149.5 159.2 164 179.9 176.6 175 173.9
202.4 199.6 199.8 198 195.5 192.1 192.5 192.7 191.7 191.3 191.4 190.4 189.3 187.5 187.3 186.4 185.6 181.8 177.7 174.1 173.2 172.9 168.4 162.8 162.9 164.7 156.6 151.8 147.3 143.5 138.7 137.2 136.1 135.3 135.9 140.3 135.4 132.1 130.1 130.2 132.2 132.8 134.6 139.8 130 120.9 111.4 103.1 98.2 96.9 102.7 91.9 81.7 75.4 76.9 81 81.8 81.2 80.1 74.4 57.1 57.7 52.2 52.5 52.6 53 51.3 47.8 47 36.3 16 -2 -2 -2 -2 -2 -2 -2 -2 -2 -2 -2 -2 -2 -2 -2 -2 -2 -2 -2 -2 -2 -2 -2 -2 -2 -2 -2 -2 -2 -2 -2 -2 -2 -2 -2 3.9 12.1 25.7 31.2 44.3 48.4 47.6 45.8 47.4 50.7 50 59.2 71.5 71.7 73.9 76.1 84.4 96.4 87.7 87.7 92.5 98.1 90.7 84.1 54.6 53.2 50.6 49.4 47.2 56.6 51.7 44.7 36.4 27.1 19.6 18.9 18.9 24.1 26.7 30 35.2 37.9 31.2 26.7 14.4 10.2 10.2 10.2 10.2 10.2 10.2 10.2 10.2 17.6 19.9 20.5 21.8 21.6 21.9 22.9 26.9 31.5 40.3 46.1 52.9 58 62.8 68.2 68.9 70 70.7 75 73.8 65.5 61 64.5 61.6 65.7 77.1 91.5 100.5 111.2 113.2 116.6 123.1 129.5 138.2 149.2 156.9 167 177.4 178.6 177.8 177.3
203.6 202.6 200.4 198.2 195.8 193.4 194.4 194.2 193 193.9 195.7 195.6 193.6 190 188.5 187.7 184.4 179 174.5 172.5 170.6 167.2 161.9 160.9 160.9 160 155.9 152.9 150.9 143.8 139 137.3 136.1 135.2 135.2 136 135.2 133 130.6 130.6 133.3 133.3 136.1 137.4 134.6 122.1 115.1 109.7 101.5 98.8 96.3 89.9 83.9 77.7 81.5 87.3 88.6 87.3 82.6 71.1 71 68.2 59.4 53.9 54.2 53.5 54.4 47.3 43.9 35.7 25.8 12.2 -2 -2 -2 -2 -2 -2 -2 -2 -2 -2 -2 -2 -2 -2 -2 -2 -2 -2 -2 -2 -2 -2 -2 -2 -2 -2 -2 -2 -2 -2 -2 -2 -2 -2 -2 9 14.6 27.9 32.9 35.5 38.9 40.8 43.3 48 51.6 61.1 73.7 79.8 77.4 82 97.2 100.3 87.7 87.7 95.5 98.1 92 90.3 72.4 57.6 51 48.4 50.5 47.6 43.9 35.4 27.2 23.3 21 20.3 26.4 25.5 26.5 31.9 37.4 38.6 28.2 23.3 11.4 10.2 10.2 10.2 10.2 10.2 10.2 10.2 13.7 19.1 24.6 26.2 23.3 22.8 22.4 23 24.8 30 37.1 42.8 48.8 54 55 57 59.8 62.7 64.4 68.8 66.1 63.9 59.2 58.8 57.7 70.6 81.2 93.6 99.5 106.2 108.7 114.4 122.8 130.2 137.3 146 154.8 165.4 187.8 193.7 194.3 181
204 202.9 200.7 198.4 196.3 195.8 195.5 195.2 195.8 197.4 199.3 198.8 194.6 191.1 190.1 188.9 187 181.8 177 174 170.1 163.8 161 161 160.6 159.2 157.8 155.4 150.9 143.2 139.5 137.7 136.3 135 135.4 135.1 133.8 133 131.2 130.9 134.8 135.6 136.2 135 132.3 130.7 125.2 117.8 107.7 99.6 96 89.3 86.3 86.5 87.2 94.9 98.5 92.8 84.3 86.9 89.2 81.1 75.4 64.8 53.4 51.8 50.4 47.5 42.2 36.2 31 23.2 21.9 -2 -2 -2 -2 -2 -2 -2 -2 -2 -2 -2 -2 -2 -2 -2 -2 -2 -2 -2 -2 -2 -2 -2 -2 -2 -2 -2 -2 -2 -2 -2 -2 -2 -2 -2 9.6 19.3 27.7 30.9 33.7 36.9 39 41.6 52.2 62.6 71.6 76.2 83.9 86.7 103.3 109.2 98.1 94.3 94.8 95.5 89.4 88.1 82.5 71.5 61.2 55.4 49.3 40.8 32.7 24.6 24.6 23 21.9 26.8 30.6 22.8 23.5 31.5 37.1 31.5 19.6 15.7 12.2 10.2 10.2 10.2 12.6 12.9 12.7 13.4 15.5 18.3 26.4 25.7 25.5 24.6 23.3 23 25.2 30.3 34.2 38.6 44.4 48 48.8 49 54.2 56.8 59.6 63.8 64.6 64.7 60.8 55.6 60.2 74.2 85.6 91.8 96.9 100.7 104 111.4 121.2 130.4 135.5 142.7 149.5 179.1 185.6 189.8 190.7 187.1
204.5 201.9 200.1 199.2 196.6 196.8 196.4 197 198 199.4 201.5 198.5 194.4 192.8 190.6 189.9 190.3 187.6 183.7 177.6 171.3 164.9 162.3 162.6 161.1 159.4 159.5 152.9 147.1 143.1 140.5 139.1 138.5 137.5 136 135.4 134.4 134 133 132.6 133.8 136.2 135.5 137.3 141.5 143.8 128.6 119 111 102.5 96 92.1 96.3 96.7 93 98.9 98.8 96.7 99.3 90 99.1 97.3 82.9 70.8 59.2 50.3 48.3 46.6 42.2 36.9 32.7 29.6 26.7 15.7 -2 -2 -2 -2 -2 -2 -2 -2 -2 -2 -2 -2 -2 -2 -2 -2 -2 -2 -2 -2 -2 -2 -2 -2 -2 -2 -2 -2 -2 -2 -2 -2 -2 -2 3.4 14.2 21.2 24.8 29.2 32.2 38.1 43.4 51.2 58.3 71.1 81.1 83.8 93.5 104.6 112.1 104.3 100.5 99.1 93.2 88.6 82.1 81.2 78.9 70.4 60.9 47.2 33.9 24 23.4 24.1 28.2 23.1 29 20.3 16.7 18.2 26.4 23.7 15.4 12.2 11.8 11.3 10.2 10.2 11.1 13.2 13.6 14 14.7 17.5 21.2 26.4 28.3 26.1 25.5 26.1 25.6 24 28.4 31.4 34.4 36.9 40 43.6 47.4 50.1 53.1 57.6 62.7 65.4 63.2 57 49.5 63.3 77 86.4 91.2 96.1 101.7 102.2 110.8 120.4 127.1 131.7 138.3 155.5 172.7 179.5 188.5 189.5 191
205.3 201.1 199.8 198.6 197.4 197.3 198 197.9 198.6 199.4 201 197.4 194.4 193 190.7 190.9 192.1 192.5 190.9 186.9 178.5 169.9 166.3 163.3 162.3 158.7 155 149.7 146.4 144.3 143.7 142.4 145.1 141.6 139.2 137.3 135.8 135.5 134.3 135.2 134.5 135.1 136.3 137.5 140.4 141.1 131.2 121.9 113.6 105.2 98.6 96.1 97.2 100.8 99.2 109.1 107.2 105.3 100.6 92.6 100.6 99.9 89.1 77.5 66.8 58.1 47.5 45.4 41.7 38.5 34.7 32.8 28.4 20.6 15.5 -2 -2 -2 -2 -2 -2 -2 -2 -2 -2 -2 -2 -2 -2 -2 -2 -2 -2 -2 -2 -2 -2 -2 -2 -2 -2 -2 -2 -2 -2 -2 -2 -2 -2 -2 15.2 17.7 23 27.5 32.8 39.3 46.5 55.8 64.9 72 90.1 95.8 111.5 115.6 110.5 104.4 100.6 94.5 87 81.1 79.1 73.6 63.4 54.1 39.8 29 24.4 23 24.6 35.1 28.9 19.6 17.6 15.9 13.2 12.6 12 11.3 11 10.5 10.2 10.8 11.3 13.3 13.6 13.9 14.3 15.5 17.3 21.1 21 27.6 30 31.9 28.6 27.8 27.6 27.6 30.6 32.7 33.3 35.5 35.6 39.3 41.4 47.2 54.9 61.2 62.2 54.2 52 48.1 63.7 75.3 81.1 87.6 94.4 104.1 105 111.4 119.5 121.8 129 138.5 156.5 167.4 172.7 181.1 186.3 190.2
206 201 199.2 198.1 198.6 197.2 197.2 197 197.9 198.1 198.7 196.6 194.1 192.4 191.1 192.8 194.9 196.8 196.5 194.2 187.1 176.5 169.3 165.5 163 157.6 152.6 148.5 147.4 146.9 147 149.1 149.6 145.3 142.5 140.1 139 137.3 136.1 135.4 134.8 134.6 135.6 137.2 136.8 135.3 133.5 124.4 114.7 106.7 101.5 109.8 112.3 111.1 115.7 122 116.4 108.9 98.1 93.1 93.3 96.8 93.5 87.1 79.1 65.2 51 45.4 43.9 44.2 39.7 38.7 31.1 27.7 23.5 13.2 -2 -2 -2 -2 -2 -2 -2 -2 -2 -2 -2 -2 -2 -2 -2 -2 -2 -2 -2 -2 -2 -2 -2 -2 -2 -2 -2 -2 -2 -2 -2 -2 -2 -2 13.7 20.1 20 23.5 27.3 34.4 37.2 48.5 59.5 63.6 76.1 92.7 112.4 111 109.4 107.6 106.6 99.6 95.8 89.7 77.4 67.6 53.5 43.8 34.7 28.7 24.3 23.5 24.2 28.2 28 18.7 17.4 13.5 12.6 12.5 12.6 12.2 11.6 11 11 11.6 12.2 12.8 13.8 14 14.6 15.6 16.5 17.1 21.2 34 39.1 37.9 37 32.7 30.6 29.7 31.4 31.9 32.4 32.9 33.7 34.9 38.9 44.5 50.5 54.2 53.3 51.3 46.3 51.2 64.3 74.5 76.6 83.3 97.2 103.8 107.3 108.8 114 119.2 122.1 141.1 154.9 168.5 173.7 177.3 183 187
203.5 201.8 198.7 197.1 198.2 197 197 197.4 197.9 198.8 198.1 198 195 192.4 191.6 193.7 197.3 200.4 200.4 198.9 192.1 182.4 173.6 168.2 162.8 157 153.8 153.1 150.1 149.8 149.9 153.4 156.7 149.8 145.2 144.2 145.6 142.4 138 136.6 135.4 134.2 133.5 134.3 135.2 131.8 127.7 122.5 115.4 108.7 108 117.4 123.1 124.1 123.1 122.7 115.5 104.2 95.6 93.4 94 102.4 107.1 96.5 87.3 74.8 66.8 54.3 48.3 49.2 47.1 45.6 42.2 33.2 27.5 15 -2 -2 -2 -2 -2 -2 -2 -2 -2 -2 -2 -2 -2 -2 -2 -2 -2 -2 -2 -2 -2 -2 -2 -2 -2 -2 -2 -2 -2 -2 -2 -2 -2 -2 7.2 13.1 16.5 26.4 27.2 26.8 31.6 38.9 46 62.5 78.1 86.6 102 106.1 110.9 110.7 107.3 105.7 103.4 91.4 70.4 58.5 48.8 40 31.6 25.7 24.7 22.5 22.5 24.2 23.3 18 15.7 18.8 14.3 13 12.6 12.6 12.1 11.8 12.9 14.3 13.7 14.5 13.6 14.1 15.7 16 16.5 16.9 17.3 26.1 35.6 42.3 42.6 33.3 32.8 29.8 30.9 31 31.4 32.1 32.8 33.4 36 40.4 43.1 47 49.9 51.1 43.9 50.4 62.4 68.7 76.2 86.9 98.4 102.4 103.5 102.8 110.9 117.1 120.4 134.4 147.6 159.6 172 173 177.3 183
203.4 202.2 198.1 195.5 195.4 197.5 197.5 197.7 197.3 197.4 196.8 199.5 195.7 192.6 192.3 194.5 197.8 198.8 198 196.2 192.7 185.3 178.4 170.1 160.7 157.3 155.9 158.4 153.9 153 150.7 150.9 151 149.6 146.6 144.7 145.3 141.9 139.8 137.9 135.9 134.4 133.1 131.5 131 128.5 124.1 121 116.4 112.5 118.8 132.6 130.2 132.9 125.6 118.9 111.7 101.8 96.1 95.4 96 108.4 121.3 128.7 109.2 87.8 78.6 68.2 64.8 64.7 64.1 58 56.3 51.1 35.7 27.4 11.5 -2 -2 -2 -2 -2 -2 -2 -2 -2 -2 -2 -2 -2 -2 -2 -2 -2 -2 -2 -2 -2 -2 -2 -2 -2 -2 -2 -2 -2 -2 -2 -2 -2 4.1 11.5 16.5 16.4 23.4 33.6 33.9 35.6 39.3 56.5 79.8 86.7 97.1 106.7 110.1 108.6 107.6 105.7 96.7 77.1 56.9 51.5 46.7 38.7 30.7 22.6 23 22.5 22 22.3 20.6 17.6 21.2 31 27.7 18.3 12.8 12.8 12.8 14 21.5 27.1 20.8 24.1 24.1 17.9 16.8 17.1 16.9 17.5 18.1 18.7 20.6 23.8 26.5 34.5 33.5 31 30 30.2 30.6 31.3 32.2 32.7 33.4 34.5 38.1 43.5 49 50 42.2 48.6 62.7 65.8 77.2 87.7 93.2 97.1 97.4 101.1 107.8 113.9 118.1 128.1 136.1 148.8 160 165.7 173.1 177.5
202.2 201.6 196.9 195.4 194.1 195.8 197.4 195.2 195.6 193.8 195 196 193.2 192.1 193.4 195.2 197.4 199 197.6 194.3 190.6 184.8 180 172 161 157.3 157.6 155.5 151.5 149.9 149.9 149.9 149.1 148.9 148.8 145.5 144 142.1 140.3 138.4 136.6 135.4 133 130.1 127.5 126.1 124.2 123.3 127.9 118.3 131.1 137.3 132.8 128.4 126.8 116.5 110.8 104.5 101.7 102.8 98.4 111 123.4 132.7 126.3 110.3 93.6 83.9 79 80.6 84.2 77.1 62.6 54.8 46.6 36.3 29.6 -2 -2 -2 -2 -2 -2 -2 -2 -2 -2 -2 -2 -2 -2 -2 -2 -2 -2 -2 -2 -2 -2 -2 -2 -2 -2 -2 -2 -2 -2 -2 -2 -2 -2 6.1 15.7 17.8 21 26.6 35.8 36.2 41.9 52.8 71.6 87.2 97.6 102.6 104.6 102.7 102.8 92.4 80.7 66.6 52.9 49.5 45.6 37.5 28.8 21.6 21.2 22 21.5 21.9 20.7 20.3 23.5 38.9 34.9 27.7 20.9 20.5 24.5 24.3 31.6 37.2 33 29.3 26.8 23.5 22.5 27.6 17.7 23.3 20.2 21.8 22.7 31 38.6 44.9 48.8 32.1 31 31.3 30.9 30.8 31.8 32.4 32.9 33.6 36.4 40.2 45.1 42.8 42.3 50.2 61 67.1 74.6 84.6 90.1 90.3 93.7 97.4 102.6 108 113.3 125 129.9 140 153.5 160 169.9 175.8
202.4 200.8 196.8 193.7 194 194.9 196 192.7 191.6 190.1 191.6 188.9 188.8 190.9 193.8 197.7 200.5 200.5 198.4 193.9 189.3 184.6 179 172.8 161.2 157.5 156.5 151 149.9 149.9 151.6 151.6 150.8 150 149.9 146.2 144.3 142.5 140.7 138.9 137.5 136.2 134 131.8 129.2 127.7 132.6 138.5 133.6 128.1 134.8 141.1 131 125.2 121.2 116.2 111.9 109.1 109.2 108.8 102.9 109.8 124.8 146.3 137.2 120.4 108 95.8 98.6 93.4 100.8 95.9 82.8 60.9 49.4 41.4 37.6 18.1 -2 -2 -2 -2 -2 -2 -2 -2 -2 -2 -2 -2 -2 -2 -2 -2 -2 -2 -2 -2 -2 -2 -2 -2 -2 -2 -2 -2 -2 -2 -2 -2 -2 -2 9.4 11.9 14.4 20.3 27.1 37.4 42.8 52.5 63.7 80.5 91.9 92.8 90.6 95.1 88.8 76.2 68.8 60.3 48.6 47.1 41.9 36.5 24.4 21.6 21.6 21.6 22 25.7 23.5 26 30.6 42.2 50.6 44.2 43.6 40.3 39.8 39.4 39.2 38.1 36.1 44.7 36.7 43.6 35.1 37.5 20.2 28.6 25.2 29.3 33 39 46.4 49.3 42.2 34.2 35 36.8 35.8 31.7 31.9 32.4 32.4 33.3 37.5 38.3 38.7 37.4 47 49.5 58 66.6 77.3 78.2 85 86.3 89.4 91.1 96.9 102.2 110.9 121.1 126.3 137 146.5 157.8 166.7 175.5
202 200 195.9 192.7 193.1 193.7 193.9 189.8 188 187.8 185.7 185.7 188.3 190.9 195.5 201.1 201.3 201.2 199.1 193.3 188.5 184.1 178.8 173.3 163.3 157.7 152.8 150.2 149.9 149.9 154.8 152.2 151.5 150.8 149.6 147.1 145.2 143.6 142 139.9 138.3 136.7 134.7 133 131.5 132.7 133.3 134.5 132.2 129.5 133.2 131.2 127 121.4 119.2 115.3 112 116.9 119.7 112.3 109.8 118.4 146.1 162.6 148.9 130.8 130.5 107.5 107.7 123 104 96.6 90 75.1 56.3 45.4 38.5 29.3 19.7 -2 -2 -2 -2 -2 -2 -2 -2 -2 -2 -2 -2 -2 -2 -2 -2 -2 -2 -2 -2 -2 -2 -2 -2 -2 -2 -2 -2 -2 -2 -2 -2 -2 -2 2.2 10.3 16.6 21.8 30.4 39.6 48.7 59.7 73.5 83 83.6 80.5 78.5 74.4 64.1 57.8 52.6 46.6 42.5 38.9 32.2 24 22.6 22 21.9 23.6 30.4 28.2 34.3 36.1 51.7 67.5 67.5 68.2 76 58.8 50.8 44.8 53.2 52 59.6 58.7 58.3 60.7 44.5 29.6 30.8 35 36.7 40 42.9 49.5 45 46.1 42.2 42.8 46.8 38.5 33 31.8 32.3 32.8 33.2 33.6 35.2 35.4 36.7 46.9 48 57.2 70.2 76.8 75.2 76.9 81.9 85.3 90.3 99.2 102.3 109.6 113.2 123.9 129.3 133.9 150.7 164.8 176.8
201.6 198.8 194.7 192.1 190.9 191.3 189.8 188.3 184.9 181.6 180.4 184.3 189 193.7 197.4 200.3 201.9 202 199.5 194.3 188.2 184 179.1 173.9 164.6 156.4 151.2 150.1 148.9 150 153.8 152.5 151.9 151.3 149.9 148 146.3 144.7 143.2 141.3 139.2 137.4 135.4 133.9 133 134.1 138 133.9 133.4 130.7 129.6 128.4 124.5 121.1 117.8 114.7 116.4 118.6 120.5 119.1 119.4 120.8 133.9 157.4 141.5 143.3 150.5 129.1 115.1 134.6 143.7 111.1 95.2 86.4 67.2 50.6 39.5 33.4 24.7 -2 -2 -2 -2 -2 -2 -2 -2 -2 -2 -2 -2 -2 -2 -2 -2 -2 -2 -2 -2 -2 -2 -2 -2 -2 -2 -2 -2 -2 -2 -2 -2 -2 -2 -2 7.5 13.9 21.1 28.8 39.3 47.7 56.3 67.1 73.8 74.8 72.1 70.1 65.5 58.9 50.8 45.8 41.8 37.8 36.4 32.7 27.6 28.1 25.9 22.9 24 37.6 40.9 38.3 42.2 52.2 79.1 92.7 87.1 92.4 86 74.1 65.9 55.8 63.3 66.2 66.1 71.7 65.7 45 37.1 51.5 45.9 43.4 43.3 45.7 46.8 46.5 51.5 48.6 52.2 51.6 41.2 36.9 32.2 32.5 33.8 33.5 34.6 35 36.1 37.2 43.8 46.9 59.7 65.9 71.2 70.3 75.8 77.9 82.5 89.5 97.6 99.6 105.4 115 121.6 127.2 132.3 153.1 167.8 180.2
198 197.3 193.8 190.6 189.8 189.4 187.6 185.9 181.1 176.5 179.7 185.7 192.9 195.5 202.5 204.2 203.5 204.6 199.1 194.6 188.5 184 180.9 174.8 166.8 156.3 151.8 150.9 149.1 150.8 151.6 153.1 152.2 151.7 152 150.2 148.3 146.3 144.8 143.2 141.5 139.5 137.5 135.8 135.6 135.9 138.3 134.4 133.8 130.8 129.9 129.2 125.4 121.8 121.3 124 120.9 121.2 122.6 127.9 134.8 127.8 130.1 130 131.1 133.8 137.1 133.2 122.4 148.7 153.5 148.2 114.6 104 84.9 63.2 46.2 34.1 23.5 15 -2 -2 -2 -2 -2 -2 -2 -2 -2 -2 -2 -2 -2 -2 -2 -2 -2 -2 -2 -2 -2 -2 -2 -2 -2 -2 -2 -2 -2 -2 -2 -2 -2 -2 7.6 13.6 22.2 30.2 39.8 48.5 53.5 62.9 67 68.2 68.2 64.5 59.6 53.6 44.1 39.2 35.8 36.2 35.8 38.7 35 34.8 28.6 24.5 32.7 41.9 52 40 50.8 57.9 73.4 86 107.7 107.1 101.7 87.6 77.1 58.4 67.3 75.7 75.5 79.5 72.9 45.9 49.2 61 52.6 45.4 45.3 46.5 47 54.1 57.4 55.9 60.8 54.9 45.1 35 32 34.7 35.5 35.6 36.3 35.3 36.5 40.2 41.9 45.5 56.1 63.2 68 71.6 73.2 76.2 81.4 88.8 89.9 91.8 102.6 113.9 115.3 129 142 155.3 165.4 170
