ncols 200
nrows 83
xllcorner 190000
yllcorner 781000
cellsize 50
361.7 362.9 362.2 363.9 359.2 349.6 352.2 351.5 352.6 350.6 343.6 330.7 330.9 332.5 329.5 325.6 330.9 314.9 309 304.5 307.1 292.8 260 235.7 228.3 232.1 239.2 230.3 212.2 197.3 196.7 196 182 163.2 157.7 155.6 146.4 140 136 144.4 148.5 153.9 161.4 169 178 191.6 208.4 224.5 243.3 265 284.1 303.8 322.8 347.9 374.5 394.7 417 451 461 470.9 489.1 508.2 522.2 545.7 575.7 583.7 603.2 636.8 676.5 728.4 780 802.4 829.4 855.7 839.5 821.1 792.3 753.4 727 713.9 688 654.9 628.9 605.2 600.6 571.3 550.5 529.4 508.8 475.9 464.1 453.3 452.4 446 427.8 415.8 420.9 446.7 472.8 480.6 506.5 515.5 521.2 544.9 569.5 571.2 555.9 545.1 528.8 513.7 503.1 490.1 479.1 459.9 443.7 434.2 418 401 376.2 359.3 343 322.5 308.6 300.3 297.1 294.8 298.4 301.3 309.2 318.9 331.8 347.6 367.2 387.7 413.8 444 474.7 512 545.8 566.7 590.5 592.5 580.1 574.6 568.3 557.2 546.2 539.9 532.2 521.1 512.1 502.6 483.5 470 452.2 439.9 428.5 414.1 396.9 373.8 369.2 349.9 333.1 320.7 309.8 289.4 266.8 247.9 232.3 221.2 211.5 204.5 211.6 219.7 232.1 240.7 255.3 276.9 302.4 328.1 363.7 411.8 451.4 474.1 495.8 520.2 546.4 570.1 577.4 576.7 577.5 577 568.8 558.9 547.3 543.4 533.3 517.4 502 487.9
331.2 329.1 324.2 329.9 322.5 320.8 318.4 323.6 313.4 317.2 311.3 312.1 305.5 311.1 306.5 295.7 293.9 285.5 281.6 284.9 280.4 258.2 240.7 224.8 219 221.5 223.6 225 211.7 214.1 194.9 169.4 148.4 151.6 144.6 136.3 133.2 129.5 139.1 144.7 149.5 158.1 166.4 175.2 188 205.2 225.2 241.6 259.2 277.6 297.6 317 337.4 363 386.9 410.4 433.9 455 470.8 478.8 492.5 509.9 533.9 560.2 591.9 599.6 611.2 635.3 672.5 715 756.7 789.7 831.2 840.9 817.1 786.6 759.5 729 704 685.1 659 637.3 613.5 587.7 573.7 556.3 524.4 500.2 480 461.5 449.3 444.9 443.5 432.1 419.9 406.9 409.2 432.5 450.1 461 482.9 491.4 501 519.3 548.4 548.4 531.8 516.1 506.7 491 481.6 474.8 464.2 442.9 428.9 420.4 401.7 384.1 362.2 346.6 329.4 311.7 304.1 298.4 295.2 294.2 297.8 303.6 311.3 324.7 340.7 356.8 375.8 399.4 424.8 451.8 482.9 513.3 551.7 575.8 587.6 586.4 575.6 569 558.5 551.6 544.9 537.5 528.7 515.6 503.3 489.8 476.2 465 447 437.1 422.2 412.2 402 392.4 380.5 350 323.1 308.9 292.4 273.6 259.4 243.8 229 217 207.5 199.5 203.2 213.4 225.7 233.3 246.2 267.8 292.5 321.5 357.3 400.5 432.3 455.7 476.2 502 521.9 548.8 555.4 555.3 553.6 546.7 539.7 528.6 514.5 508 499.8 486.5 472.1 458.1
300 296.1 290.6 287.9 284.9 288.4 285.1 285.9 283.4 285.5 287.3 286.5 282.8 282.4 289.5 275 268.3 262.9 258.8 263.1 242 234.7 217.9 206.2 200.5 208.2 216.4 210.6 207.2 231.4 215.4 176.5 146.6 134.4 130 126.7 118.4 130.5 139.5 149.6 155.9 163.8 177 193 204 221 241.5 259.2 275.6 293.9 313.4 332.3 354.8 378.4 401.2 424.1 444.3 460.5 475.9 484.8 508.1 526.2 550.6 588.2 620 617.8 623.2 642.1 672.4 708.3 742.9 779.3 818.8 814.9 793.7 767.9 744.4 712.8 685.3 665.8 641.8 618.4 597.3 576 552.5 534.3 506.1 482 466.5 444.2 431.1 422.6 427.8 413.6 403.2 388.3 397.5 418.3 432.6 438.9 460.3 469.6 482.5 501 525 523.2 513.5 494 473.6 463.7 460.9 456.7 440.2 428.2 413.2 407.7 385 366.9 348.9 331.5 315.9 303.7 296.7 294.1 293.6 295 300 305.7 316 331 349 368.1 387.3 409.5 432.9 462.2 495.4 540.6 563.8 581.5 586 580.8 572.3 564.1 556.6 547.9 538.8 526.9 516.3 509.1 494.8 487.5 474.1 456.1 445.3 434.9 424.2 414.2 414.8 400 359.9 336.4 315.7 295 277.5 266.5 250 237.1 222.8 210 201 192.1 196.2 205.2 215.9 223.4 242.2 262.6 285 314.8 348.5 383.4 411.1 437.8 461.2 485.3 508.3 526.2 533.4 532.9 528.3 520.6 510.1 500.4 484.2 478.8 469.8 455.5 441.9 426.4
267.6 264.6 260 256.8 253.4 263.5 257.6 262.5 263.5 256.2 262.9 262.9 261.4 257.3 267.1 256 240 242.5 228.6 231.4 226.4 202.8 197.2 185 184 202.7 210.9 196 195.4 217.6 207.7 159 137.1 129.8 116.4 117.9 125.4 136.3 153.8 157.5 167.7 178.4 188.8 204 219.9 238.5 258.4 276.1 292.4 310.8 329.6 349.5 371.5 390.9 405.7 432.7 449.9 468.8 483.8 505 530.8 552.6 587.5 637.9 644.4 639.4 639.8 658 679.9 710.1 748.5 779.4 795.7 787 766.9 754.7 727.5 695.9 668.9 650.3 632.7 610.6 589.5 566.3 538.5 512.5 491.3 471.5 448.8 428.3 413.5 400.1 396.8 391.8 380.5 370 380.9 400.9 409.4 414.8 429.3 444.3 459.5 479.6 498.5 484.8 488.6 468.2 451.9 444.4 432.5 428.8 417.7 402.4 393.8 390.3 370.4 349.5 332.7 316.7 304.5 298.7 294.5 292.7 293.2 296.2 302.5 309.3 323 340.1 359.5 379.9 397.4 421.6 445.6 474.1 509.2 554.7 583.3 593.6 593.9 587.7 577.7 566.2 556 546.7 537.3 528 522.5 513.6 500.1 484.9 471.7 460.8 446.1 432.2 415.6 404.7 397.2 371 348.9 326.2 303.6 285.4 268.4 251.5 245.4 228.3 215.3 204.5 195.9 187.5 190.1 196.8 206.1 220.9 234.5 253.2 279.5 308.3 335.4 367.4 396.6 423.1 448.4 467.2 486.9 503.5 509.5 508.4 502.8 491.1 478 469.6 460.9 445.2 438.4 427.5 416.4 401.6
240.4 234 233.2 233.2 232.2 231.5 235 235.5 245.3 241.7 243.9 243.1 243.6 235.6 235.6 231.4 214.2 211.6 211.2 209.9 207.9 184.3 169.8 167.2 176.4 198 185.9 174.5 176.5 177.7 167.4 144.2 129.8 118.2 115.8 122.4 132.8 147.1 157 165.9 178.1 189.3 200 218 237.8 255 273.4 287.4 302.8 324.8 347.3 366.4 387.9 413.2 430.1 448.3 459.8 484.9 508.1 535.2 563.3 596.6 646.9 674.4 673 661.4 664.3 678.3 692 718.5 751.9 765.8 760.2 744 727.5 713.1 714.4 691.7 671 649.7 623.2 599.8 587.1 569 546.9 524.6 490.7 467.4 437.5 420.3 398.5 381.9 368.7 367 358.2 347.7 369.8 374.6 386.2 391.3 408.6 427.9 432.3 445.6 455.9 454.5 452.2 440 427.2 415.1 407 398.8 391.9 379.5 375 363 350.2 332.9 315.7 303 298.2 294.9 293.1 292.1 293.5 298.6 307.2 316.4 332.2 352 368.5 388.3 409.9 434.1 457.6 486.6 527.5 565.3 597.3 608.5 606.6 598.3 584.6 578.6 568 554.2 540.4 526.6 513.7 512.1 503 496.2 472.4 459.7 449.7 433.7 418.1 396.9 375.9 354.3 333.2 314.1 295.8 279.4 262.2 247.9 233.2 224.3 211.3 198.2 188 184.7 185 193.2 202.2 213.6 228.7 245.3 273.1 296 324.8 354.8 384.8 407.2 436.2 454.8 465.7 480.4 485.2 482.8 473.5 462.2 454.1 438.2 433.6 417.6 408.4 398.9 391.1 379
217.5 213.1 214.9 211.8 205.1 214.3 212.6 209.9 212.5 223.3 230.3 228.2 221.7 211.9 220.5 201.1 191 194.7 192.9 196.4 188.1 167.9 154 158 167.2 183.8 171 149.4 143.1 141.7 138.6 133 117.3 101.2 119.6 127.8 142.2 158.5 167.3 176.9 190.1 200.9 214.1 235.3 255.9 271.2 287.4 300.5 315.3 343.3 365.6 381.8 403.5 427.2 446.4 462.8 480.9 508.1 532.7 562.5 596.9 634.3 667.4 691.1 698.3 686.8 686.2 699.1 706.3 722 748.2 748.8 725.8 704.9 689.1 675.2 664.1 659.7 655.1 640.1 616.9 587 572.6 543.4 523.7 504.7 483.5 462.9 439.6 414.1 390.9 373.2 352.9 344.6 332.7 323.5 351.2 349 354.7 369.3 391.8 404.4 409.4 410.7 419.3 425.3 424.1 415.2 402.7 392.1 378.7 372.8 367.5 364 354.9 345.1 334.3 317.7 304.1 297.2 294.6 292 292.1 292 295.1 302.5 312.7 327.5 344.3 361.6 382.9 401.1 423 446.6 470.3 499.1 534.5 574.3 623.4 626.6 615.5 602.4 596 588.6 580 558.5 545.8 522.6 500.8 499.6 495.5 481.4 469.1 463.6 452.1 432 414.7 398.6 384.8 366.6 347 323.5 300.4 281.4 263 246.3 231.2 218.3 205.2 191.1 183.6 178 181.5 187.9 198.5 208.9 221.8 239 261.6 284.2 314.8 344.5 371.9 398 426.4 440.3 450.5 460.6 463.4 460 446.1 436.2 424.6 414 407.2 394.1 382.2 375.4 367.2 358.3
195.7 198.3 195.6 194.3 189.5 174.4 186.8 186.3 194.3 208.7 207.9 199.7 196.9 187.9 194.5 183.4 173 175.3 174 179.1 172.5 157.9 144.2 146 154.2 161.2 139.7 130.9 120.6 118.4 120.9 115.4 96.2 110.2 121.7 148.3 157.2 173.4 176.2 184 198.3 210.6 233.3 254.5 271.5 287.7 305.5 321.4 340.7 361.7 377.9 405.6 421.3 443.2 463.3 486.3 514.4 534.8 558.6 602.5 625 658.6 687.4 707.7 713.6 704.7 702.6 704 710.4 729.3 744.9 728.8 703.7 683.6 665.2 653.7 645.7 623.6 615.3 610.3 594.5 571.9 555.2 542.6 519.4 491.3 474.4 460.7 437.1 410.4 384.6 364.2 344.2 326.6 318.1 300.4 318 329.4 332.8 357.9 370.9 383.7 382.4 387.4 387.5 393.7 404.6 392.4 381.3 359 356.4 352.1 344.2 344 350.7 337.8 321.9 306.7 296.4 293.5 293.2 291.7 291.5 293.4 301.5 310.3 322 338.2 355.5 370.2 391 414 434.4 460.8 488.1 516.2 549.4 608.5 636.3 634.4 624.9 612.2 612.2 603.9 588 562.9 548.7 519.6 497.2 485.4 479.5 468.7 460.6 453.9 442.8 429 414.8 398.3 385.6 371.2 358 324.4 302 285.8 265.5 250.5 236.7 222.3 205.4 193.1 180.9 172.6 177.9 185.3 193.9 203.9 215.8 231.2 252.8 277.2 303.3 331.7 364.7 389.5 415.2 426.7 427.7 430.9 433.6 427.9 417.6 411.4 396.3 389.7 380.8 372.2 361 352.1 344.3 332.9
177.8 178.5 175.7 173.9 170.4 154.5 160.1 172.1 178.6 179.8 191.6 184 174 167.9 176.5 167.9 156.6 151.4 153.6 164.7 159 138.8 130 128.8 126 126.1 119.3 113.2 105.6 99.9 103.8 102.1 99.2 119.1 134.6 158.7 173.7 178.1 183 193.9 206.3 224 248.6 273 285.7 302.4 322.2 342.5 363.6 379.6 398.2 419.5 444.6 462.4 485.3 509 538.8 561.1 588 617.1 650.1 677.5 710.7 728 724.5 721.9 714.2 712.2 719.7 737.9 753 737.2 709.6 684.3 657.7 640 622.2 608.8 594.4 581.2 567.7 550.6 541 529.5 518.7 490.5 472.4 441.2 421.7 407.5 382.4 359.5 337.7 316.1 304.8 292.8 297.8 304.5 317.2 339.6 349 358.3 358.1 361.1 364.5 367.4 381.2 369.9 355.3 341.1 335.4 336.3 332.7 335.7 341 324.3 308.7 297.5 292.9 291.8 291.8 291.2 292.3 300.5 309.6 318 331.6 348 365.8 385.3 403.5 428.9 454 477.9 509.6 538.5 571 629.8 645.9 645.7 639.6 625.4 616.5 607.4 582.6 563.1 549.4 515.9 490.9 478.9 464.9 455.6 448.5 446.1 438.6 426.8 414 397.5 388.8 379.7 356.9 323.4 301 285.9 272.3 256.8 241.6 223 208.5 192.1 180.9 171 174.7 180 188.3 199.5 210.6 226.1 242.8 269.2 297.4 322.5 352.2 373.7 397.3 406.4 403.3 400.8 402.5 399.1 394 382 377.2 367 356 352.3 345 330 322 313.6
160.1 157.8 162.5 153.1 146.9 145 150.8 151.5 167.5 158.4 165.8 164.1 155.6 145.5 146.3 147.6 143.5 139.2 136.9 139.2 139.5 122.5 117.9 113.4 106.4 102.3 101.1 99.5 93.4 95.5 98.1 90.7 110.7 131.3 148.6 172.2 185.6 181.7 189.1 201.5 215.6 236.8 263.3 286.6 298.5 314.2 337.1 359.8 381.6 400.2 419.2 443.8 464.1 495 516.7 547.3 571.7 588.1 610.2 637.6 669.9 699 722.7 733.2 740.5 736.3 731.3 728.4 729.8 754.8 771.7 749.3 718.2 697.4 677.3 651.7 625.4 608.6 588.6 579.5 571.2 554.5 535.6 524.2 511.9 493.8 469.4 454.3 432.2 407 381.1 354 326 311 295.9 285.1 283.5 291.7 301.2 317.9 330.7 334.7 332.9 339.9 341.7 340.1 342.9 337.7 331.3 319.2 320.5 321.8 323.9 328.3 324 310.3 301.8 292.9 290.8 290.4 290.5 293.2 298.1 306.8 318.1 328.7 342.6 358.9 378.8 396.9 421.3 446.4 469.6 496.9 526.1 559.1 602.9 651.9 662.7 660.4 648.6 626.6 622.1 612.8 576.7 560.2 530.4 514.3 496.9 474.8 459.4 446.5 442.2 435.4 435 429 416.8 399.6 388.8 359.3 334 316.2 299.5 285.5 273.2 261.8 245.4 230.2 213.3 192.9 179.9 168.6 171.5 176.4 183.7 192.5 203.9 216.1 238.9 260.7 286.8 311.1 338.7 358.2 372.3 379 378.3 375.5 375.1 375.5 373.1 363.3 355 346.6 342.1 330 326.5 316.5 305.5 296.4
171.2 164.8 155.5 150.8 150 143.3 137.2 132.7 143.4 141.4 140.3 139.8 140.2 129.8 135.2 137.5 132 129.4 128.3 117.9 118.3 107 98.7 93.3 90.9 89.5 89.9 93 83.1 83.3 84.8 100.5 124.1 144.2 162.1 182.2 182.8 181.2 195.5 208.1 222.8 243.8 272.7 291.6 307.4 326.8 350.4 375.8 398.9 427.2 445.6 468.6 501.1 526 552.3 579.3 602 625.7 642.5 665 688.5 708.6 730.6 747.2 752.9 744.1 742.9 745.7 761.5 778.5 779.8 745 716.7 691.1 676.7 654.5 622.9 603.1 591 568.9 566.2 552.7 531.7 506.9 496.1 475 457.9 453.3 440 409 374.4 350.1 324.6 305.5 289.3 276.3 274.1 282.7 294.5 302.4 315.2 310.2 309.8 315.8 322.8 318.6 318 313.9 305.2 301.9 312 319.1 326.7 323.6 310.2 298.6 292.2 290.5 290.4 291.7 295 296.8 305.1 313.4 327.3 339.9 357.7 372.5 392.2 415.3 437.1 465.8 487.6 515.3 543.5 582.5 629.1 658.4 672.7 666.4 648 629.9 625 608.1 568.8 546 520.1 509.9 489.9 466.1 455.7 436.8 429.1 420.7 415.5 408.1 399.2 384.9 371.6 353.1 335.8 318.4 304.2 287.5 276.3 264.2 245.5 231 214.5 197 180.1 171.5 167.8 172.7 178.7 184.7 195.2 209 224.8 252.4 277.3 295.7 316.4 336.4 346.5 349.5 347.9 352.8 348.5 347.8 347.7 342.2 335.4 330.9 321.9 308.8 305.6 292.6 285 278
192.1 186 186.4 187.5 182.9 170 160.5 148.5 137.2 125.7 120.3 118.1 118.9 112.7 122.4 120.1 119.7 118.1 116.9 107.9 97.2 92.4 88.3 82.8 80.9 80.9 82.1 82.3 75.2 85.6 96.4 114.1 131.1 150.4 169.2 173.2 169 186.8 203.3 215.4 228 251 275.4 296.8 316.1 341.5 364.7 389.7 418.4 448.1 472.5 497.9 539.2 567.4 590.2 613.6 646.3 662.4 683.2 695.5 716 733.4 745.3 755.6 757.4 757.9 761.2 768.6 786.5 800.3 802.6 752 720.3 693.6 668.5 631.6 611.9 591.7 576.6 547.6 533.5 529.5 515.4 505.3 477.6 465.1 439 426.7 412.4 394.1 370.7 342.4 322.7 303.7 286.2 270.4 267.6 276 283.7 288.9 294 291 286.4 291 298.8 298.9 298.4 290.8 284.1 290.8 309.5 317.8 322.2 316 302.6 290.5 289.8 292.2 295.5 295.7 301.4 305.3 313.2 324 337.1 352.1 369 388.6 406.8 433.4 457.8 482.2 508.6 534.8 564.6 597 639.1 664 667.9 658.1 642.4 630.2 615 590 567.1 543.3 515.1 497.3 481.7 466.2 447.5 433.8 423.1 416.6 408 400.9 386.6 373 364.4 350.6 337.8 317.5 302.9 291.2 277.1 263.3 248.9 231.8 217.1 197.8 178.1 168.4 163.1 167.9 171 179.5 189 200.9 217.9 243.1 261.6 277.9 296.7 307.1 315 315.5 316.5 319.6 317.7 318.8 325.6 320.4 307.6 311 293.7 292.7 283.8 272.8 267.3 257.8
214.7 212.1 214.8 211.9 209.5 202 196.7 196.3 167 152.2 139.1 131.7 122.5 112.4 104.3 99.3 101.2 103.6 108.2 102.9 87.5 83.6 79.7 77.4 74.9 75.3 75.2 74.2 79.8 89.4 104 120.6 127.6 150.7 164.3 159.5 179.4 195.7 210.3 221.3 234.9 255.3 278.4 302.8 327.1 350.8 374.4 408.6 435.6 462.5 490.5 525.5 561.9 595.1 623.1 663 680.9 696.1 709.5 727.9 743.5 747.1 759.5 770.8 774 771 777.7 797.7 813.3 815.8 809.7 764.5 735.4 708.6 681 650.3 619.7 590.4 560.4 537.3 521.8 497.4 502.1 487 462.4 446.7 429.8 407.8 387 373 357.8 333.5 313.3 298.2 285.5 268.6 260.1 265.4 271 276.2 271.3 269.7 272.7 275.7 275.7 279.3 274.7 270.7 267.6 282.3 302.1 300.1 289.9 294.9 289.9 291.2 293 295.9 300.8 307 311.9 315.3 330.2 335.9 350.1 368.8 385.8 404.6 428.7 453.5 478.5 505.9 530.6 557 589.4 626.3 653.1 666.4 659.1 652.1 641.8 625.8 608.1 586.2 566.4 543.9 510 494.7 477.6 461.3 447.5 435.5 421.9 408 394.6 399.1 380 367.3 355.9 341.7 330.1 311.8 298.1 287 275.6 264.9 248.8 231.5 214.8 197.7 178.4 165.5 154.7 162.4 167.2 174.2 182.6 192.6 209.8 229.3 249.5 264.3 279 286 292.2 291 292.1 293.6 294.3 298.5 302.1 298.6 287.8 279.8 275.7 273.8 263 259.1 252.4 241.9
249 240.2 235.5 236.3 242.8 239.2 228.6 209.3 194 175.7 164.8 150.8 139.5 130 122.6 120.3 109.6 96.4 86.6 85 80.4 76.2 74 72.9 69.4 69.6 72.4 70.9 83.1 91.3 108.9 117 125.7 143.7 145.4 169.8 190.6 202.7 214.7 227.2 245.5 262.9 287.6 310.8 334 357.5 388.4 418.5 453.7 488.5 523.4 553.7 586.1 618.9 648.6 682 699.5 722.6 731.9 749.1 766.6 774.4 785.5 788.8 788.8 790.3 791.5 807.5 815.6 812.6 795.3 781.9 753.7 719.3 691.7 662 630.2 595.8 572.9 547.8 518.4 492.6 467.7 467.4 457.1 432.9 410 396.4 388.1 362.2 335.9 319.8 306 293.3 281.2 266.6 253.9 249.7 251.2 258 255.3 254.1 253.7 260.3 261 258.4 253.6 247 254.2 264.7 278 275.5 288 312.5 300.9 299.2 298.7 302.4 308.2 316.7 323.4 332.1 338.7 352.6 367.2 386 404.2 423.9 449.7 474.1 500.1 527.4 554.9 580.1 619.3 653.6 675.8 669.9 659.2 649.7 637 622.2 607.5 578.8 560.5 535.8 508.5 493.9 476.7 455 435 417.4 406.7 394.4 385.1 380.8 371.7 352.8 344.2 327.5 316.7 308.3 298.1 286.2 274.1 258.4 241.7 224.6 205.3 187.7 176.4 165.6 156.7 158.8 163.9 170.1 176 186 198.8 218.3 233.6 245 259.4 272.3 272.6 271.9 272.3 276.8 275 279.4 283.9 283 276.4 268.7 264 255.6 247.1 237.5 233.6 227.6
277.4 262.4 264.1 270.4 262.7 257.6 244.3 231.3 217.8 203.9 190.6 173.1 157.6 146.8 142 135 125.6 117.9 102.4 91.4 77.6 72.6 70.7 70.2 68.6 69.1 69.8 71.6 79.8 87.9 100.4 109.4 122 133.3 152.6 176.9 196.8 205.6 216.7 236.5 251.6 273.2 299.7 320.4 345.9 368.2 401.1 436 468.2 507.3 551.2 583.1 613.4 645.6 680.7 700.1 715.4 737.8 754.4 771.3 782.1 793.4 797.5 802.2 811.5 812.8 819.8 822.4 816.2 781.8 767.7 756.6 746.9 729.1 710.8 675.1 637.8 604.9 572.4 546.8 514.6 486.1 460 436.8 423.4 415.7 404.7 377.5 362.3 346.6 329.1 313.9 298.7 286.7 272.4 255.1 254.8 233.1 235.7 237.9 240.8 240.9 239.8 243.8 249.8 250.8 244.2 252.8 261.3 267.4 267.3 276.9 283.4 300.5 305.6 306.9 309.1 312.9 319.2 330 338 348.7 357.6 369.9 387.8 405.8 422.7 448.8 471.6 495.2 517.5 546.9 580.5 621.5 650.9 681 677.7 673.6 663.6 655.4 648.2 636.1 611.5 589.9 563.8 538 521.2 493 477.1 452.8 422 398.3 384.3 376.4 365.2 355.6 341.8 332.3 326.3 318.4 315.7 308.5 301.5 288.6 278.3 265.3 246.8 221.7 198.3 187.3 175.4 163.8 155.3 151.7 161 166.5 171.1 179.8 189.6 206.2 224.8 233.4 242.8 252.3 259.3 258.5 259 260.3 262.2 264.5 270.1 257.4 258.4 249.5 242.4 236.9 227.2 223.1 217.3 209.8
296 286.4 285 285 282.2 273.1 264.9 255.7 244.4 224.3 208.6 190.8 176.2 162.2 160 151.7 133.1 121.7 114.7 102.5 82.5 74.2 68.2 66.7 68.8 69.1 69.1 70.7 81 89.2 100.9 111.9 122.4 139.8 159.1 185 201.6 210.7 222.7 241.8 259.5 279.1 303.6 328.4 356.3 386.7 429.5 456.3 483.2 517.4 556.3 598.6 640.3 663.5 686 712.1 734.9 759 775.7 785.9 794 798.3 803.4 816.6 829.1 830.6 837.6 829.8 815.7 776 747.4 733.7 721.2 719.2 710.4 673.6 640.3 609.3 575.5 548.8 516.8 480.4 457.1 431.4 407.7 391.7 385.6 373.5 353.8 333.3 321 308.2 291.1 273.4 256.2 243.2 240.4 229.2 226.8 228.3 233.5 230.7 229.9 231.8 229 238.9 252.1 262.7 274.8 277.6 301.8 307.1 309.9 310.5 312.1 316.9 322 329.7 338.4 345.5 356.1 363.8 377.8 389.6 408.4 425.4 448.9 475.3 497 517 543 578.3 617.3 650.8 681.1 678 677.8 669.8 661.3 657.7 649 630.6 609.9 587.6 561.7 533.9 511.6 494 470.6 448.3 426.8 393.9 377.8 361.6 354.2 340.7 335.5 320.8 318.7 307.2 302.7 292.1 290.6 277.5 268.2 254.3 237.6 214.7 196.1 180.7 169.9 160.2 154.9 149 159 162.3 165.3 172 180.7 198.3 212.2 219.8 227.8 236.1 241.6 251.2 251.3 254.7 251.9 248.5 249 246.6 241 234.8 226.8 220.3 215 209.9 205.6 199.7
309.2 299.9 308.7 305.4 313.5 305.9 294.3 278.8 266.5 249.2 224.6 202.7 187.2 176 175.5 145.8 128.6 121.1 117.5 98.5 87.6 78.5 69.8 65.3 65.1 65.2 65.8 73.5 82.3 92.5 104 116.8 130.2 145.7 167.5 188 202.8 214.8 230 247.4 265.7 283.6 309.4 337.8 365.6 394 427.6 458.1 488.9 523.1 559.5 586 635.5 665.8 700.7 728.4 749.8 772.3 786.2 798.8 809.6 817.9 815.5 833.4 834.4 833.7 837.8 832.4 813.2 776.3 745.1 718.3 706.6 706 698.7 684.4 660.6 610.9 573.8 542.7 511.8 488.4 466.1 443.7 421.7 382.3 357.9 344.6 336 320.3 312.7 305.2 290.6 265.7 246.2 233.6 225.7 222.2 223.3 223.3 221.8 221.1 214.4 228.3 237.9 248.1 260.2 275.4 290.1 300.6 320.5 327.7 332.2 333.9 331.5 338.8 342.5 350.6 355.7 361.4 368.5 383.4 395.3 411.6 426.9 445.9 477.1 497.8 516.1 542.1 574.4 604.7 637.6 677.7 681.7 680.3 673.3 666.2 658 653.1 644.1 631.1 606.7 583 560.7 531.5 506.7 479.6 465.3 442.3 418.8 382.5 367 354.7 340.6 332.8 328.4 317.8 302.7 297.2 282.5 275.3 266.4 258.6 246.4 237.9 224.8 207.4 190.7 179.6 167.6 159.6 150.6 143.3 151.9 157.3 161.6 165.7 171.9 187.5 199.9 207 212.8 221.8 232.9 238.5 244.9 250.1 243.1 235.4 229.6 234 231.1 218.8 211.3 206.9 202.1 198.1 193.9 182.6
326.7 327.3 343.5 340.6 338.9 326.7 317.8 309.3 288.7 255.5 233.9 213.7 206.2 194.2 165.5 145.2 124.4 120.9 104.7 97.3 91 74.6 67.6 64 64.2 68.1 73.3 82.4 87.5 96.2 109.7 121.8 135.9 151.3 158.6 183 202.2 215.8 233 253.6 274.2 287.8 312.6 336.2 363.2 387.7 416.6 445.3 484.5 522.1 569.9 606.4 649.8 675.7 708 732.8 759.5 774.6 792.9 807.5 813 813 818.5 836.8 832.1 825.2 816.8 802.4 787.4 776.1 759 735.8 708.9 680.5 671.8 668.2 654.8 624 593.6 555.5 527.7 495.1 463.7 439.8 403.4 368.1 342.2 324.7 318.3 305.2 301 298.6 290.9 260.1 238.7 226.9 222.9 221.3 219.7 218.3 216.1 214.2 223.4 237.9 253 265.2 277.4 291.9 310.4 337 350.5 358.2 366.2 358.4 356 362.4 366.8 370.1 373.9 379.7 390.7 401.3 415.9 430.2 448.6 471.5 496.4 515.2 538.7 570.8 603.4 629.8 661.7 678.5 683.1 677.3 665.6 661.5 651.7 649.5 643.3 625.1 604.3 578.4 552.4 525.6 491.9 458.3 441.5 418.8 397.7 372.2 356.8 346.9 335.9 326 319.5 309.1 297.3 286 271.9 264.2 256.2 248.1 242.7 232.3 217.7 198.3 181.1 170.5 162.1 155.9 147.5 142.2 144.6 150.4 156.1 156.3 164.2 179.2 189.6 192.8 203.2 212 220.4 227.9 231.2 230.9 226.6 222.2 222.2 218.5 207.5 200.9 198.4 194.5 183.4 178 179.1 191.4
353.6 352.2 380.2 368.7 366.4 361.9 338.3 311 283.1 263.2 239.6 224.2 217.5 184.5 150.6 141.4 126.8 119.8 110.3 96.6 76.6 66.4 63.8 60.1 66.9 73.4 77.1 84.9 92.9 106.8 120.4 130.9 143.7 160.8 175.7 189.9 204.3 214.2 235 252.7 274.7 298.9 322 350.9 375.7 402.2 430.5 464.3 495.9 529.1 570.7 624.3 664.8 689.2 715.1 739.4 756.2 776.4 794.5 804.5 801.9 805.3 817.4 822.6 810.1 801.2 780 764.3 756.2 750.5 743.8 733.4 719.7 680.9 649.6 644.1 634.2 617.3 593.8 568.1 528.6 494.1 463.7 423.9 387.2 355.3 333.1 314.3 299.4 292.7 285.4 282.3 278.1 252.6 233.2 225.4 220.8 218.6 217.2 214.7 212.5 214.7 239.7 256 268.4 283.8 293.5 310.6 337.7 356.9 373.2 383.8 382.1 379.3 379.6 381.8 385.4 390 398 404.6 412.1 418.3 434.7 451.2 468.3 493.7 511.9 533.5 564.4 600.5 626.3 650.2 679.8 690.8 678.5 676.8 660.8 652.6 646.1 640.4 637.3 621.5 590 570.1 552.7 526.9 485.8 443.5 424.9 405.8 390.9 373.5 356.3 346.1 332.5 317.4 305.6 294.1 283.3 275 269.5 262.3 254.5 235.8 236.5 222.6 208.5 191.2 175.9 166.7 158 147.4 144 137.2 141.4 145 142.4 148.5 155.6 168.4 178 187 197.1 204.8 209.6 213.3 210.2 213.1 208.9 205.8 207 204.3 192.8 188.7 186.1 173.8 176.2 186 197.2 209.8
384.1 382.4 394.6 400.5 405 388.7 359.4 318.3 294.3 276.9 251.9 229 199.1 170.9 146.5 137.4 130.6 135.6 122.5 86.7 66.8 62.4 60.2 62.2 70.3 77.6 82.8 87.5 97 113.8 129.4 138.4 148.6 165.4 182.1 198.3 216.9 232 247.5 257.7 271.5 299.3 325.7 351.9 380 408.9 442.9 469.3 496.2 531.4 569.3 606.7 650.9 690.5 713 726.2 743.3 761 781.3 788.9 787.1 795.9 789.6 787 772.7 759 743.2 732.8 725.5 720.4 717.3 709.9 701.2 684.4 652 615.6 606.8 597.4 579.9 554.5 515.9 485.2 446.2 413.7 377.3 355.4 329.2 307.8 294.3 281.3 276.8 271 252.6 240.2 227.8 224.2 221.7 218.3 214.6 213.3 209.7 234.5 257.6 270.2 282.4 296.1 310.1 326 353.9 385 413.4 417.1 406.9 400.8 400.7 400.2 404.5 411.9 418.7 429.2 429.4 439.8 448.2 470 487.4 510.8 533 561.9 596.5 617 636.5 672.8 679.1 683.8 673.7 671.7 659.3 643.3 633.8 626.2 619.9 608 577.7 564.2 545.2 521.6 475 449.2 416.2 400.9 385.2 368.4 356.2 344.4 335.9 322.5 309 291.3 275.5 254.1 247.8 237.8 237 221.8 206.3 204.3 193.2 178 167.1 160.6 152.5 143.9 137 131.7 135.5 137.2 136.8 141.6 148 164 168.2 176.4 183.3 191.1 195.1 200.3 198.2 195.3 190.4 190.8 192.4 187.1 182.8 180.5 167.8 172.6 184.5 200.2 214.4 230.8
418.8 400.4 409.2 412.9 412.9 387.4 352.8 329.6 314.3 284.9 264 227.9 199.6 163.8 141.5 126 113.2 115.3 89.2 76.9 64 59.5 56.1 65.8 75.5 82.3 86.8 93.8 102.7 118.7 135.1 146.2 158.6 173 188.6 207.9 225.8 244.1 261.2 284.9 304.1 303.1 305.6 330.1 357.8 389.1 423.4 455.7 487.7 523.4 557.6 596.4 645.3 676.5 693.6 707.3 735.7 748.3 763.5 767.1 765.8 772.4 751.3 743.8 734.9 720.9 707.7 699.5 692 684.6 680.7 678.2 669.1 660.1 644.3 619.5 573.1 558.9 554.8 528.9 495.2 461.2 431.1 399.1 376.5 351.7 327.4 309.3 291.7 275.6 262.6 257.2 243.7 226.9 221.9 220.5 219.5 215 211.6 210.6 206.8 244.7 262.1 291.7 301.3 309.9 327.3 338.8 377.9 394.9 422.7 425.2 415.2 413.9 416.5 422.1 429.1 437.8 448.6 453.2 452.6 458.9 475.3 486.5 508.3 530.6 563.4 593.6 613.1 628 646 665 668.2 672.7 661.3 658.7 649.9 639.8 626.9 616.7 606.9 589.4 563.7 549.7 531.3 511 477.1 441.6 416 399.9 385.2 373.5 354.3 339.2 326.2 318.2 306.4 290.8 271.3 249.9 235.5 221.2 209.8 202 186.4 177.4 173.7 165 156.2 150.3 143.4 137.8 135.3 128.1 132.1 133.2 133.5 137.8 143.2 160.5 163.2 170.5 180.5 187.3 188.7 187.7 186.8 180.5 179.8 180.5 181.5 177.2 171.1 167.5 172.2 186.2 200.8 217.4 232.7 252.7
448.6 421.5 404.1 403 397.2 376 355.2 338.3 311.2 284.3 261.9 217.7 190.1 154 135.1 120.4 105.2 93.3 81.8 71.9 62.5 54.3 64.8 75.1 83.4 87.2 92.5 98 109.1 123.5 137.1 149.3 164.5 180.2 200.6 217.6 238.3 253.4 270.4 297.6 313.9 335.3 343.7 350.6 359.3 365 402.9 438.8 470.5 501.8 541.5 588.6 625.9 650.7 671.4 695.5 717.9 728 743.2 744.5 738.8 730.6 714.1 704.3 691.8 684.8 671.2 660.7 657.4 651.7 650.1 642.3 639.8 629.3 625.8 614.2 588.9 551.7 520.8 509.2 474.5 440.6 413.6 391.6 372 350.8 334 314 289.8 268.2 250.6 247.7 235.8 220.9 219.5 218.1 215.3 211.8 207 207.3 210.7 243.6 273.1 293.4 309.1 325.8 339.9 345.2 378.8 396.8 418.8 421.4 423.2 424.1 430.7 440.1 448.9 460.1 472.8 472.8 470.8 480.1 492.7 508.4 529.1 555.3 591.4 609.4 625.4 636.1 648.4 649.5 657.2 659.1 649.8 644.4 640.6 629 618 606.3 596.9 578.6 547.9 537.5 522.2 502.4 483.2 450.2 426.8 400.6 377.6 363.2 346.1 330.5 322.5 308 301.3 269.1 255.5 234.7 221.7 203.5 188.7 181.9 173.6 162.2 154.8 150.5 145.1 139.1 134.8 129.5 127.4 124.6 126.6 128 130.6 133.2 137.9 154.7 161.6 162.6 172.6 173.3 184.1 178.6 171.3 169.4 172.7 177 176.2 164.4 163.7 177.4 190.1 204.6 221 239.3 258.4 281.2
439 424.3 407.3 391.8 388.2 377 357.2 344.2 307.7 277.5 248.8 220.1 188.7 154 133 116.1 101.6 86.2 74.6 62.6 57.3 57.8 71.7 78.6 86.3 92.6 97.4 101.4 113.5 126.7 139.1 153.9 172.1 189 211 232.8 246.5 263.9 283.8 307.8 318.5 350.7 373.9 383.4 392.6 407.2 419 436.3 448.6 483.5 518.8 565.4 607.9 630.2 651.4 675.9 698.1 709.5 727.3 717.9 695.7 685.6 676.4 668.1 660.9 655.4 643 634 631 629 615.8 614.2 610.8 601.4 602.4 595 571.5 546.1 514 476.4 457.7 429.2 400.9 380.2 359 352.8 350.3 310.9 290 270.1 246.6 230.3 226.5 216 215.6 213.8 211.3 210.7 203.5 203 218.9 239.8 276.7 303.8 321.4 342.3 353.3 356.3 368.2 384.4 413.9 425.4 428.2 431.6 446 457.9 468.6 480.1 487 490.1 485 496.6 507.5 535.9 553.8 582.2 601.5 621.7 627.2 640 650.5 647.1 643.2 644.3 641 640.1 628.1 613.3 605.5 595.3 578.4 566.2 544.4 521.6 507.6 499.2 477.1 449.2 421.2 384.9 362.2 350 341.4 327 314.7 289.6 277 260.9 238.1 216.5 200.9 190.1 176.8 167.8 157.2 151.9 142.3 137.8 132.8 130.7 126.9 121.8 121.7 122.2 126 126.5 128.8 128.9 131.3 145.5 154.5 156.6 168.6 172.3 171.8 167.5 164.7 165.2 170.7 169.4 157.6 164.1 177.8 191.1 208.8 225 242.1 261.8 284.5 308.7
452.6 436 418.7 404.1 372.6 367.7 346 328.7 295.3 274.3 238.9 211.1 184.1 155.7 131.4 113.2 98.7 83.1 69 58.9 55.3 57.1 66.5 76.2 84.7 94.4 99.4 105.2 116.6 129.1 141.6 158.9 180.4 200.5 221.1 241.4 257.9 267.8 289.9 303.7 331.9 371.5 406.3 423.7 441.5 447.6 451.7 466.3 483.6 503.1 524.2 549.1 587.8 617.9 637.7 659.3 680 699.2 701.5 689.5 664.3 653.7 644.6 637.8 625.8 622.6 614.6 607.3 602.1 595 589 586.5 582.8 580.7 580.6 569.2 550.4 526 502.1 474.3 447.5 420.2 394.9 372.2 354.9 338.4 322.2 301.3 286.3 263.3 239.9 224 219.1 210.8 208 208.3 203.8 200 194.4 208 225.3 249.7 285.3 310.6 333.1 357.2 364.7 360.6 364 387.6 407.7 423.5 425.1 445.5 463.7 471.4 482.6 495.8 499.3 500.4 496.3 505.2 524.3 553.3 583.9 596.5 609.9 621.6 630.6 633.6 638.8 640.1 634.6 634.9 625.1 622.8 605.5 592 576.4 566.4 560.7 547.6 530.4 505.1 484 470.4 448.9 429 401.7 369.2 344.8 339.4 333.1 318.4 300.5 275.7 264.5 252.8 222.7 200.1 188.7 179.4 170.3 162.8 155.2 144.3 136.1 126.7 123.4 121.1 118.9 118.7 120.1 120.8 120.2 122.7 125.5 125.5 129 135.5 139.5 146.7 150.9 164.5 164.7 164 159 162.3 160.1 154.7 165.8 177.6 193.6 209.1 224.8 245 265.1 286.6 313.6 339.7
474.9 457.5 436.3 402.5 374 341 321.8 303.4 276.6 258 228 204.7 180.9 149.2 125.2 106.9 92.9 77.8 65.5 57.6 53 56.6 60.5 70 81.4 93.3 100.1 106.7 115.4 130.1 144.8 164 187.3 206.6 226.8 244.2 260.1 277.4 292.8 312.3 336.9 373.6 418.6 455 489.2 497.3 510.2 508.9 517.8 529.7 545.6 563.4 584.7 607.9 628.7 647.7 659 668.5 673.3 659 636.3 625.6 616.7 613.1 603.5 590.6 586.4 578.2 573.6 568 565.3 555.2 558.7 554.8 557.8 543.8 526.9 510.8 488.6 462.8 439.1 411.8 392 370.7 351.1 328.4 313.9 296.6 269.7 251.2 230.6 219.2 215.3 209.3 203.6 201.6 197.5 191.1 201.1 212.2 239.2 265.7 300.1 325.8 345.1 362.3 367.1 365.7 370 387.5 400.5 412.7 432.1 455.9 470 480.8 495 504.3 508.7 510.6 503.8 511.3 539 577.6 594 610.6 628 634 636.1 636.8 635 630.6 626.8 622.8 612.7 605.1 580.9 558.3 548.1 534.6 521 507.6 502.7 486.5 463.1 440.6 420.1 397 369.2 352.5 331.8 327.1 314.3 300.6 290.7 264.2 245.7 232.9 205 189.9 181.1 171.8 162.8 154.2 143.6 140 126.9 121.3 117.3 115.4 116.3 118.2 120.9 119.2 114.6 118.8 121.3 124.1 127.1 130.2 136.8 139.9 142.3 144.4 147.1 146.6 144.5 146.1 156.9 167.8 179.5 194 208.4 224.3 240.8 262.2 287.4 317.3 337.7 358.5
495.4 467.1 440.3 409.1 386.1 359.1 326.2 297.3 279 247.3 218.5 196.5 171.6 143.6 122.3 102.7 89.7 77.1 66.5 57.6 51.4 53.7 54.7 64.6 77.4 91 100 107.7 116.4 131.7 148 165.7 187.8 209.7 229.1 245.7 265.9 284.3 301.3 319.2 342 370.4 417.7 461.1 502.2 525.3 553.3 564 565.4 567.3 576.2 582.1 595.5 625.4 643.5 655 662.1 668.3 667.9 640.9 617.5 602.9 594.4 586.6 581.8 565.2 553.7 550.1 545.2 541.4 538 534.4 532.6 526.7 526.8 520.5 511.5 496.1 477.3 453.2 431.3 405.4 386.8 367.9 348.3 329.1 311 288.5 257.3 240 227.2 217.1 207.8 203.8 196.1 193.6 191.6 195.4 202.1 214 234.9 272.3 302.3 329.2 341.2 360.3 366.6 372.5 373.3 375.7 389.7 412.1 431 453.6 472.5 484.6 504.5 510.6 513.3 512.1 511.5 522.2 555.7 582.8 603.3 621.6 634.8 639.3 636 636 636.1 634.2 622.1 609.5 597.9 585.6 559.8 543.3 529 509.3 492 476.7 463.1 456.7 435.2 410.2 391.1 367.3 343.6 327.6 322.8 321 305 291.5 278.8 252.8 223.9 208.5 193.2 181.2 173.1 164.5 155.1 146.4 140.3 130.5 123.1 115.5 114.2 113.6 117.2 119 117.7 116.6 113 116.7 121 121.2 114.6 124.4 121.8 117.7 122.9 137.6 145.3 148.7 151.3 158.7 170.2 182.1 193.7 205.8 222.4 240.4 260.3 281.9 307.9 324.1 349.3 361.2
549.5 492.9 463.7 442.1 399.7 363.9 324.3 301.1 274.4 247.5 226.9 204.2 178.5 146.4 123.4 104.7 87.2 77.5 66.6 55.7 52.4 53.5 54.5 58.4 73.8 88.3 98.7 108.5 117.8 132.4 150 167.4 188.4 210.7 229.2 250.9 275.5 294.3 314.1 330.1 353.4 391.9 429.6 472.4 511.8 539 568.8 583.3 601.8 611.8 608.2 610.4 630.2 647.5 663.2 671.2 686.8 696 680.9 646.3 612.7 592.5 574.1 566.3 553.7 543.7 533.4 526.5 523.5 520.7 514.5 510.1 505.1 500.5 502.7 506.3 499.2 487.1 468.3 448.1 424.5 406.1 386 368.1 347.2 328.7 306.6 277.1 257 239.7 225.3 213.3 204.3 196.2 191.5 189.9 187.4 201.5 203.5 212.1 226.3 264.4 296.4 327.7 335.2 350.2 365.4 373.2 376.1 381.3 391.5 402.4 422.7 452 471.2 483.4 506.1 512.9 514.5 516 514.2 534.4 569.9 593.6 608.6 626.7 633.4 636.2 637.4 634.7 630 627.6 621.2 603.8 586.2 572.7 549.7 531.6 509.5 492.1 481.5 456.3 442.1 430.2 415 394.7 373.3 354.6 337.9 328.6 321.8 311.6 290.7 281.7 260.9 233.5 212.7 197.4 184.1 173.3 164.8 155.5 147.4 140.1 133 124.1 118.7 115.4 110.9 114.5 116.5 114.6 111.8 110.2 110.1 113 113.6 116.4 122.6 125.8 132.7 134.6 140.2 145.1 152.3 156.4 158.3 167.1 182.9 194.2 205.6 218.7 235.2 254.7 274.2 296.1 318.1 329.8 348.4 360.2
558.4 540.1 489 456.3 411.3 362.8 328.7 295.6 269.1 248.2 225.8 198.2 176.9 152.4 130 108.4 88.6 75.9 65.4 54.1 51.5 52.5 52.5 52.8 68 84.1 96.8 108.9 118.4 132.7 148.9 168.1 188.2 210.4 232.5 257.2 280.9 304.4 324.6 338.9 370.1 407.2 451 492.6 508.8 536.5 563.4 607.6 636.6 650.4 649.5 654.6 668.2 684.5 688 696.6 720.5 726.5 687.6 647.6 612.4 590.4 571.2 553.5 540.3 526.9 515.9 508.3 505.1 501.7 498.2 486.6 481 479.1 483.7 487.1 486.6 483.8 458.6 442.8 422.5 405.9 389.6 369.9 350.9 330.3 307 287.5 265.3 243.3 227.6 217.1 204.1 193.8 187.4 186.1 195.9 202.8 204.5 210.1 234.1 258 291.1 314.9 332.4 354.4 370.7 379 378.4 374.6 388.2 394.9 414.5 443.9 463.2 478.4 489.3 506.3 514.4 512.8 514.2 547.6 572.6 593.3 606.1 619.7 624.2 630 635.5 628.3 625.1 619.9 610.1 595 583.7 569.5 550.7 525.7 499.5 480 451.9 444.1 429.7 416 410.4 385.9 365.4 349.3 336.1 327.5 315.7 298.8 283.6 272.2 251.4 229.9 213.1 187.2 172 164.2 152.5 143.8 136.7 130.7 121.3 117 114 112.2 109.3 110 110.6 108.6 112.1 111.9 111.9 115.1 119 120.2 126 131.6 137.3 142.8 150 155.9 163.1 166.5 174.4 181.9 190.3 205.9 216.6 226.5 246.5 265.5 282.3 302.9 324.3 334.2 345.8 351.6
563.5 510.6 476.6 436.9 406 372.3 328.5 302.5 271.5 248.9 227 203.9 180.4 156.5 131.9 109.8 91.8 78 66.7 55.8 50.5 49 50.3 50.9 61.1 78.6 93 107.5 121.3 134.5 150 169.5 190.8 213.7 236.3 260.1 283.4 302.8 327.2 347.3 373.2 413.1 451.8 488.3 501.6 535.1 572.4 621.6 653.5 665.7 679.3 692 711.4 720 717.1 732.3 755.5 748.9 698.6 660.4 629 598.5 569.4 546.4 529.6 513.4 505 498.5 492.3 485.6 478.6 473.4 469.6 467 465.7 469.9 475.5 472.7 448.5 439.6 419.4 408.2 394.1 375.8 356.3 336 316.1 292.7 271.7 252 232.6 217.9 201.2 193.2 185.9 184.5 201.2 196.4 199.4 206 234.1 259.5 268.6 300.6 327.2 351.8 372.5 375.4 372.3 365.7 378.2 387.5 412.4 440.2 459.4 477.1 481 497.2 508.5 506.7 517.9 542.7 565.1 584.4 598.2 609.8 617.7 624 625.4 618 614.2 606.7 597.7 586.4 570.5 548.3 527 509.9 484.9 471.8 452.7 420.9 411.9 397.7 389 377.7 360.5 343.7 333.6 316.5 299.8 280.7 277.2 257.2 240.1 219.5 195.1 178 161.6 151.4 141.3 133.1 123.5 117.3 113.2 112.1 110.9 108.6 106.6 107.4 107.3 109.4 111.3 112.7 116 117.1 120.4 125.6 131.4 137.9 146.9 154.1 162.6 168.3 175.2 182.5 190.4 195.3 203.6 213.5 225.9 236.3 252.1 274.2 291.5 309 324.2 331 337.6 348.1
542.1 499.4 466.6 431.8 396.5 368.9 343.9 305.2 275.3 253.4 223.1 199.1 179.6 160.1 135.3 110.7 93.5 78 65.4 56.6 53.2 50 49.1 48.2 61.8 77.2 92.8 108 122.3 136.2 152.9 173 193.8 216.8 239.6 260.5 281.8 300.9 327.2 353.8 372.8 412.6 447.4 473.7 500.1 530.7 567.6 617.7 646.2 671.2 693.6 713.8 732.9 732.2 742.7 756.8 764.6 759.8 720.4 682 651.5 625.8 589.3 560.5 535 510.7 495.2 491.5 486.6 480.7 472.1 467 462.9 459.4 456.8 451.5 450.5 447.1 442.2 431.8 420.7 407.7 390.1 380.5 367 344.2 326 303.9 279.9 260.4 240.4 221.3 202.8 189.1 184.7 186.5 188.3 186.9 190.5 196.1 222.9 246.1 266.1 294.9 324.5 336.4 354 362 357.3 355.3 366.4 386.5 405.4 432 453.8 462.5 479.7 489.3 496.9 503.8 521 540.6 558 577.4 592.8 605.6 610.8 610.4 612.1 606.3 599.8 593 584.3 566.9 546.8 520.4 499.3 480 462.1 447.6 431.4 417.6 399.5 371 368.6 354.8 344.3 332.8 318.5 304.3 288.4 269.2 252.6 237.4 219.7 202.5 182.6 168.5 152.6 139.8 130.2 122.3 113.8 109.5 107.9 107.2 102.3 103.3 106.2 106.8 111.1 112 111.7 114.4 116 118.2 126 134.3 141.8 150 158.6 166.5 173.5 180 187.3 196.6 205.9 213.5 218.3 229.8 241.7 253.4 268.6 286.3 298.9 315.2 323.8 329.3 328.7 343.6
544.3 507.3 479.1 455.4 420.2 368.5 340 306.1 282.2 251.6 220.5 197.8 179.5 163.6 140.3 114.6 94.4 77.5 64.9 56.2 52.2 49.6 48.2 47.7 61.9 74.8 91.4 106.7 122.9 137.1 153.5 174 196.3 219.9 242.9 267.7 281.3 303 333.4 358.6 381.7 404.7 435.5 467.4 493.8 524.3 558.5 596.6 636.2 670 693.1 708.9 728.8 738.2 755.1 779.9 780.3 773.8 740.9 712.9 680.3 644.2 607.1 574.1 545.3 516 499.4 486.1 481.9 475.8 467 462.7 458.7 454.1 455.2 449.3 444.7 435.7 428.3 421.7 413.5 400.8 391.9 383.6 367.6 354.1 328.4 305.1 287.3 265.8 252.2 233 210.9 194.3 183.2 180.5 182.1 181.9 182.6 191.3 210.5 248.6 276.6 295 314.4 324.6 341 349.1 342.3 350.7 363.1 385.6 405.4 429.1 445.4 460.8 481 484.8 495.7 504.1 521.2 532.8 552.8 573.2 589.9 598.1 604.4 602.4 598 595 590.8 580.3 560.1 540.5 526.4 509.3 485.5 455.6 439.1 421.3 408.3 399.5 384.2 373.6 352.4 327.7 320 309 296.5 290.3 273.4 259.4 244.5 226.3 202.9 191.2 178.6 161.6 148.8 133.8 123.7 113.4 106.4 102.4 102.5 102.9 103 104.7 105.7 108.5 111.5 115 114.5 115.5 117.6 123.3 134.9 143 153.6 160.6 170.4 180.7 185.6 193.6 202.2 212.1 221.7 231.3 236.6 250.8 259.2 269 284.7 300.3 314.5 321.2 323.4 324.4 331.1 342.9
536.2 515.4 494 463.1 415.1 381.5 329 304.5 273.6 245.6 221.6 197.1 179.3 163 140.4 116.2 95.6 80.4 70 56 51.3 49.1 47.5 46.3 57.1 71.8 89.7 106.7 123.8 137.7 154.7 176.2 201.1 227.4 248.2 265.8 283.4 307.2 334.9 367.4 390.7 407.3 432.5 462.7 488.5 520.5 554.1 582.6 620.4 656.4 688.7 714.8 732.9 746.3 765.8 787.3 797.1 791.4 779 745.9 709.3 659.9 623.7 598 561.3 534.9 512.9 490.8 484.3 478.3 469.7 464.2 457.9 452.2 447.2 444.9 439.1 434.5 421.6 417.6 413.2 402.5 394 384.2 372.2 352.8 334.8 318.7 298.6 285 262.5 237.6 215.3 197 187.8 182.1 179.8 178.8 180.8 192.1 213.1 252 259.4 278.7 296 308.4 323.3 329.5 331.2 349 365 384.1 405.5 427.7 437.7 457.8 476 489.7 498.6 510 523.5 536.2 555.7 569.4 584.4 592 597.4 593.6 584.9 580.3 565.8 551.9 531.7 517 505.2 482.2 471.5 447 422.8 402.9 395.4 385.3 372.2 359.9 339.8 327.9 307.2 287.1 282 267 256.4 241.3 219.6 205.8 195.3 182.4 166.2 152.3 140.1 129 117.2 108.1 103.3 101 101.7 101.9 103.4 104.7 110.9 113.8 115.3 116.8 116.7 119.4 126.3 133.5 143.2 153 165.1 175.8 188.7 198 206.7 211 220.6 229.3 239.4 249.9 257 266.3 280.2 279.1 295.6 304 314.8 322.3 324.6 326.9 336.9 340.9
538.9 518.3 490.8 448.2 425.9 382 331.5 301.1 274.3 246.3 220.8 193.6 176.8 159.6 142.4 119.7 98.5 79.6 66.9 56 50.6 48.7 47.5 47 52.6 65.8 85.2 103.5 119.4 135.9 156.3 177.7 205.6 234.9 246 258.8 281.1 307.5 334.4 365.5 391.2 406.6 426.7 461.2 483.9 517.1 543.2 579.3 615.7 647.8 687.8 713.2 734.8 747.8 765.9 786.7 801.6 803.7 805.2 782 734.7 700.1 652.1 619 585.6 573.8 532.6 513.2 495.7 482.2 474.6 465.9 460.1 454.3 446.1 441.6 431.8 425.2 419.3 411.9 407.3 401.7 396.7 388.7 378.8 359.8 336.6 330 313.5 294.5 275.1 247 224.5 204.5 189.7 179.5 177.1 178 181.8 195.7 214.3 240.8 250 262.8 276.8 289.1 303.5 312.4 327.5 345.3 366 386.1 406 423.4 440.8 457.9 479.1 492.2 499.2 512.8 528.5 542.9 554.6 566.8 581.2 591.1 595.1 588.4 561.2 555.2 527.8 514.5 505.6 489.1 479.4 467.2 453.5 432.1 413.7 392.3 379.8 360.2 353.3 341.4 322.4 309.7 296.3 285.1 262.6 250.7 236.1 220.9 204.7 187.6 171.9 164.6 146.8 135 125.5 117.3 111.3 104.9 98.9 100.1 100.3 100.9 104.4 113 114 116.4 118.5 120.9 123.2 126.1 137.7 145.8 156.1 169.6 184.1 195.2 206.9 216.7 226 232.3 242.4 249.8 260.7 271.4 276.5 281.5 296 299.2 304.3 312.2 326 332.2 327.7 333.6 341.1 341.1
538.3 504.9 476.1 441.8 413.2 379.4 336.5 305.5 276.4 253.6 230.5 205 180.1 156.9 139 119.5 100.2 79.1 65.4 56.9 50.8 48.5 46.8 47.1 52.6 65.2 82.3 98.8 114.1 131.2 153.6 176.3 200 221.5 230.8 251.7 276.3 301 325.3 349.7 376.4 404.2 430.3 452.7 483.5 505.2 545.2 576.7 611.9 645.1 673.9 695.7 718.2 747.1 765.2 788.7 803 805.4 805.5 799.1 739 698.9 664.3 638.5 614.3 592.2 564.4 543.9 523.7 503.2 485.7 473.1 460.5 452.1 446.2 439.6 431.2 422.7 413.8 406.8 401 400.3 399.7 389.4 383.5 377.4 374.4 356 328.4 308.7 287.5 259.9 235.8 213.1 194.7 181.1 174.3 179.4 183.7 199.1 209.6 231 243.8 248.8 258.6 278.4 298 318.6 339.3 361.3 378.8 398 420.6 433.5 448.7 464.9 481.8 491.1 499.9 518.2 532.8 543.7 558.6 571 577.2 585.1 587.5 579.6 542.8 516.1 493.6 481.7 474.4 465.4 459.8 447.7 426.7 408.7 393 372 359.7 346.7 327.7 315.5 306.6 294.7 287.1 268.1 255 241.5 223.3 209.9 190.1 171 154.5 145.7 132.9 122.9 112.9 104.7 100 98.1 97.9 98.3 101.2 105.2 112.6 120 119.5 120.8 124.7 127.7 132.9 141.3 152.7 164.1 176.7 191.1 203.9 217.9 227.6 238.6 247.2 254.4 257.4 268.2 281.5 294.8 298.8 300.8 306 312.4 315.9 329.1 338.8 336.6 340 345.9 345.7 350.1
522.4 499.6 468 442.3 411 386.1 353.3 310.1 282.8 268.5 245.6 218.2 188.5 161.2 138.5 121.5 101.4 82.1 68.6 55.3 51.5 48.4 46.9 45.5 53.1 64.2 78.7 95.5 108.6 124.8 147 170.4 192.2 208.4 222.8 245.8 267.5 291.4 315.5 346.5 372.4 402.9 429.9 454.1 475.9 502.1 535.6 566.8 602.3 640.6 663.5 685.2 713.1 736.5 768.3 781.5 792 794.9 802.2 782.6 742.4 705.8 688.1 667.1 648.5 620.4 603.8 581 556 526.4 516 483.4 461.4 448.8 441.9 435.5 428 419.4 413.8 406.2 399.5 397.3 396.5 386.9 376.9 373.8 371.8 352 341.8 330 296.6 271.2 245.5 215.9 193.5 182.2 174.8 176.2 182.5 191.7 202.6 216.5 229.9 252.6 271.2 298.1 305.9 321.4 342.4 367.4 387.4 406.6 429.5 450.1 467.3 483.1 490.2 498.6 508.5 526.2 539 549 559.2 572.9 579.7 574.8 566.9 539.5 519.5 483.7 469.1 458.1 451.7 439.6 432.9 418.5 402.1 385.6 371.3 351.3 337.9 327.4 312 290.4 282.7 277.3 267.8 264.1 252.2 235.1 218.2 197.1 175.5 158.2 144.6 136.8 128.2 117 105.9 100 97.2 100.2 100.9 104.7 108.8 111.8 126.6 127.8 126.6 128.8 131.2 138.7 146.7 157.4 170.5 180.8 198.4 212.4 224.1 242.8 251.5 263.8 271.1 278.9 278.1 289.9 300.2 308.7 313.1 316.2 322.1 326.3 329.2 338.2 344.4 351.1 355.8 361.1 364.1 361.8
529.4 494.7 469 436.4 405.8 380.1 353.3 307.9 288.8 266.1 236.7 216.2 195.8 167.8 141.9 125.9 104.5 84.9 70.7 57.3 49.4 46.8 45.8 46.6 49.8 59.4 71.9 87.9 101.4 118 140.3 163.8 182.7 194.4 216.3 242.9 266 287.6 314.4 344.2 372.7 402.3 430.8 460.3 484.7 508.9 532.1 564 606.5 636.8 659.8 689.7 716 740.8 753.4 765.2 792.3 796 783.1 767.2 751.4 735.5 715.4 703.9 674.2 653.8 625.5 596.6 584.5 567.7 542.2 509.2 477.3 452.6 440.6 433.1 429.1 421.6 414 403.5 396.8 397.7 383.8 382.4 366.7 355.4 351.7 332.3 336.6 317.2 292.3 274.8 243.6 240.5 218.3 189.5 176.5 171.8 181.9 200.3 219.5 238.5 252.1 264.2 273.2 289.3 304.5 323.7 351.6 371.4 390.7 412.9 448.4 466 480.9 490.5 494.5 504.6 515.5 536.9 552.1 547.8 550.2 550.9 551.1 538.9 520.2 499.5 476.5 456.9 438.8 431.2 423.9 415 405.6 394.8 380.7 362.7 344.8 328 314.7 303.4 287.6 277.5 266.3 261.1 250.2 248.4 240.6 221.5 199.8 184.4 163.4 151.7 140.1 130.4 123.1 111.8 104.5 98.1 97.9 100.1 103.1 111.2 112.5 113.7 130.8 131 133.7 138.5 142.3 150.3 157.2 168.1 183 201.9 216.9 232.4 249.5 266 276.4 286.7 292.8 301.9 308.4 312.6 327.6 332 335.3 331.5 334.7 335.3 343.2 354.6 362.5 372.2 374.9 379.4 380.1 377.1
527.9 493.8 461.9 429.5 390.8 362.3 335.5 316.7 285.5 255.5 230.9 207.8 188.6 166.6 145.6 128.9 109.2 92.7 79.6 61 51.3 46 45 45.4 47.5 55.2 65.1 79.9 94.5 110.7 132.8 155.9 169.8 189.6 213.9 241.3 266.7 289.7 313.8 342.4 370.1 399.1 431.7 460 486.6 510.9 537.9 563.1 599.7 629.9 656 687.7 718.6 730.8 749.6 765.4 780.4 776.8 763.8 769.7 771.2 770.9 758 749.7 741.3 690.4 644 626.5 611.5 588 563.4 539.2 513.9 480.4 449 435.9 427.6 422.2 412.8 404.3 392.6 384.3 375.3 367.9 352.7 338.5 333.3 314.6 308.2 293.9 272.8 255.7 251.4 240.7 217.8 185.3 171.4 171.6 186.5 218.4 238.3 251.3 265.1 265.3 270.3 284 307.7 331.1 351.3 366.4 397.2 425.6 452.9 479.2 487.6 488.7 494.5 507.9 525 547.3 556.2 548.9 536.8 525.5 517 505.8 489.9 469.4 451.9 434.6 418.4 405.9 396.1 389.9 383.5 373.6 361.6 348.7 335.5 318.6 303 288.9 274.8 258.4 249.4 244.7 236.9 225.1 215.3 199.7 185.1 173.3 156.2 143.7 133.7 125 115.2 109.1 101.6 97.6 95.6 104.9 104.3 114.9 119.9 119.7 126.1 131.1 140.7 144.8 150.7 162 169.9 183.4 196.5 216.6 239.6 258.1 272.7 288 300.5 310.1 320.9 333.7 338.7 339.7 351 355.8 349.3 348.9 351.1 350.3 354.9 373.2 382.4 395.3 401.1 402.2 401 400.7
522.2 485.2 456.3 425.7 394.8 358.6 337.3 308.6 283.1 261.8 236.3 204.8 184.1 165.9 149.4 133.4 118.1 97.6 78.7 61.9 54 45.8 44.7 45.4 52.4 58.2 64 73.3 85.3 104.3 122.4 142.7 160.7 184.5 209.8 236.6 258.8 285.1 311.4 329.3 358.7 391.8 421.2 450.4 477.7 504.3 539.2 570.6 593.3 627.5 653.1 685.4 710 717.2 732 756.8 762.3 750.7 759.7 764.1 777.6 792.6 791.8 782.1 737.8 706.9 670.8 646.9 619.2 596.8 572.8 546.9 514.5 485.4 463.3 447 433 428.4 420.9 411.1 397.8 384.7 365.2 347.4 335.4 318.3 312.4 295.6 284.5 271.5 268.7 265.9 256.8 230.5 197.3 178 167.2 169 180.2 214.6 241.5 237 255.5 256.1 267.4 290.3 318.6 335.3 360 386 412.5 436.5 455 473.7 485.8 485.8 492.3 508.2 527.9 545.3 551.8 548.6 533.4 510.6 495.4 482.3 463 447.3 429.9 414.6 399.6 386.6 374.1 365.6 359.4 349.5 338.9 328.6 315.1 300 290.9 273.6 260.2 249.8 239.1 228.8 223.7 218 204.7 198.4 184.3 164.8 144.6 135.3 128.2 118.7 111.6 105.3 100.7 96.3 96.3 107.9 107.6 115.5 120.3 123 132.8 139.8 147 150.4 157.5 170.5 183.9 199.5 215.3 233.2 258 282.7 298.5 314.6 326.7 340.8 354.1 364.3 368.5 364.6 375.1 364.7 364.8 364.4 364.1 363.7 365.7 386.8 396.4 412 416.8 417.4 419.9 417.5
522.3 485 456.6 429.8 396.3 368 339.4 312 288.2 268.4 236.4 204.9 180.9 163.4 148.3 135.9 122.9 100.7 87.4 75 59.7 50.8 44.7 45.9 52 53.6 58.1 69 83.5 109.4 121.8 134.7 153.9 177.2 204.7 232.3 257.4 276.8 283.2 313.8 351.8 386 418.2 445.6 471.4 506.8 553.6 580.6 598.7 629.2 650.1 674.3 690.3 706.3 723.4 743.3 737.1 730.4 745.3 754.3 776.7 783.6 791.8 781.4 762.5 730.2 686 658.6 631 603 579 550.7 519.7 511.9 491.6 465.1 448.1 439 429.8 419 407.5 384.1 361.7 337.4 313.8 303.7 294.7 286.1 282.1 270 269.6 255.8 240.7 215.3 202.2 181.1 172.2 164 169.9 192.8 215.6 221.6 241.1 248.4 267.2 294.9 316.9 345.5 381.2 405.5 425.7 449.8 469.1 481.4 485.8 483.1 489.1 509.8 523.7 535.6 535.7 532.3 510 491.6 462.9 441.9 436 422.4 408.9 391.7 387.3 363.6 356 342.1 330.9 323.2 316.9 308.5 293.7 280.8 268.5 256.7 249.3 237.4 230.4 218.6 199.5 189.9 178.1 167.9 154.5 136.9 126.8 123.8 115.2 111.1 107 102.1 97.6 92.9 103.9 111.4 112.3 116.1 120.8 136.1 143 147.8 156 160.7 169.2 185.3 201 218.5 234.4 252.4 280 305 325.5 343.4 358.3 371.7 387.2 392.3 390.4 379.8 384 381.6 385.6 383 378.7 376.9 382.5 395.3 411 424.9 434.1 438.6 434 425.1
519.1 491.7 451.8 430.5 398.5 364.4 330.2 303.6 288 256 227.5 202.8 178.2 158 149.7 144.3 119.9 109.1 96.1 82.5 65.7 54.5 47.3 44 44.2 47.7 55.2 66.4 80.6 103.4 117.1 131.9 151.2 174.9 199.7 224.2 246.6 261.8 295.1 324.4 354.3 390.7 422 446.5 475.4 509.2 545.6 587.5 616.5 629.5 646.3 663.7 675.2 692.4 702.1 714.4 720 723.2 735.5 751.4 770.6 777.4 783.7 770.6 762.5 736.2 700.3 664.6 638.4 612.8 587.5 569.5 552.3 537.2 515.1 495.1 478.3 458.9 442.5 435.1 413.1 383.5 362.9 346.5 335.4 314.6 302.2 290.5 270.4 264.5 260.8 249 241.2 232.2 211.9 186.9 168.8 163 166.4 190.7 211 212.3 225.2 243 268.1 289.7 326.5 350.4 385.2 407 437.9 457.2 467.4 480.5 483.8 482.1 489.8 500.9 514.5 513.6 506.9 501.1 482.8 463.9 441.1 419.6 404.4 392.4 381 367.9 357.3 348.6 336.4 324.3 309.5 302.2 293.8 285.6 274.7 263.1 252.6 239.9 224.2 217.7 209.9 197.5 183.9 170.9 160.4 151.1 142.6 126.8 116.4 112.8 108.7 104.9 104.3 100.9 95.6 96.7 103 109.6 111.1 117.9 128.9 145.3 155.4 161 164.8 174.6 185.9 201.6 214.3 232.8 252 274.1 305.8 330.8 354.8 372.7 394 405.6 408.4 415.9 412.2 397.3 404.2 401.4 399.8 400.4 391.1 399.5 398.5 407.8 426.5 443.3 448.3 449.2 444.4 444.4
511.8 483.7 443 419.6 385.5 348.7 324.2 300.6 279.5 249.4 225 202 181.2 164.8 153.2 146.8 132.3 114.8 101.3 88.6 73.5 59.1 50.3 43.8 40.4 46.8 53.1 63.4 77.8 97.2 115.7 131.1 149.7 174.9 197.6 212.8 241 269.1 298.8 324.6 354.7 387.6 418.6 445.9 472 503.5 543.4 576.3 616.7 629.2 645.4 660.8 666.4 685.1 704.7 711.9 706.6 723.7 732.6 748 756.8 771.6 767.7 760.6 758.6 740.9 711.2 675 646.8 623.1 598.9 581.5 561.7 548.8 534.5 514.8 493.3 473.2 453.3 429.6 405.6 384 376.5 367.7 353 325.1 309.7 294.4 270.5 255.5 260.9 250.5 254.3 246.9 221.5 190.4 166.4 157.7 161.9 177.8 187 200.9 219.3 245.9 269.5 295.4 325.5 357.1 381.6 410.5 442.9 449.5 464.7 473.7 476.1 484.1 498.7 500.2 515.7 510.2 495 465.5 448 432.6 413.6 400.3 387.5 373.1 362.9 353.5 344.8 333.1 322.3 308.2 294.4 287.5 277.2 266.7 257.4 243.4 232.7 223.3 207.6 196.4 188.7 180.3 169.8 157.7 147.7 140.7 130.4 121.2 113.6 106 103.4 102.5 103.3 99 94.3 99 99.7 103.8 109.9 122.5 136 147.2 158.5 168.1 177 189.8 206 217.8 232.8 254.5 277.6 299.2 328.1 355.7 387.7 402 425.4 430.2 430.9 436.1 431.9 422.4 424.5 420.7 423.8 413.1 407.8 416.1 408 424.9 442 454.8 466 467.4 460.7 454.1
515.6 467.9 442 409.4 371.6 351.2 321.8 294.2 270.5 242.5 222.9 210.9 199.8 186.7 170.9 156.3 140.7 124.2 114.9 101.3 77.9 63.2 49.5 42.3 40.1 41.6 47.8 59.5 72.9 91.8 111.3 129 145.8 160.1 189.1 212 240.8 267.4 295.8 320.7 352.5 385.9 415.1 441.9 470.4 497.9 530.2 566.4 600.2 626.4 633.5 651.5 664.2 669.3 681.9 687.2 698.3 718.7 722.4 739.4 754.6 754.7 747.6 738.1 737.2 736.3 734.1 703.9 664.4 625.3 596.6 571.4 548.7 534.3 527.7 512.8 493 467 448 436.7 416.8 411.9 389.2 375.5 355.9 333.9 315.1 282.2 254 245.1 242.4 256.2 249.7 238.3 212.1 192.6 171.4 156.8 158.8 170.3 183.4 202.9 229.2 248.4 276.4 298 329.1 356.7 381 406.5 427.6 445.7 461.2 467.6 470.9 489.9 499.3 494.8 503.8 502.1 481.3 459.4 431.8 412.5 400.2 386.2 372.9 359.9 347.2 335.4 328 316.7 303.7 293.1 279.7 268.9 261.8 249.8 240.3 223.2 211.9 204.1 192.2 184.3 174.6 163.7 155.2 145.9 137.4 130.3 121.9 115.3 108.2 102.1 98.3 99.7 97.8 93.9 94.8 99.7 101.3 106.2 116.5 130.9 144.5 155.8 167.1 177.1 191.4 205.6 222.8 238.4 256.2 281.3 300.9 330.5 354.2 385.8 407.5 431.7 446.8 453.1 452 453.3 449 440.9 441.3 445.8 440.7 427.8 421.8 430.6 428.3 441.2 450.8 473.1 477.8 480.5 475.8 464.7
499.5 467.9 432.2 399.6 376.3 356.5 322.7 294 268.9 257 254.1 242.9 233.2 211.2 190.3 170.1 152.6 136.1 122 103.4 82.7 64.7 50.1 41.9 40.1 39 43.5 55 67 83.8 99.3 112.6 142.5 162.9 185.6 208.6 235.8 263.4 288.6 317 345.1 375.3 408.4 438.6 465.5 490.7 523.7 564.7 591.9 625.2 630.5 634.5 646.9 649.7 661.7 665.7 689.8 701 707.8 727.6 725.8 725.7 728.8 731.5 729.5 727.4 719.9 694 670.9 637.9 607.8 574.6 552.3 534.4 512.1 498.1 486 475.9 456.4 439.8 424.2 397.2 370.2 367.6 337.6 320.9 287.4 273.1 248.1 238.4 243.1 244.9 231 235.2 212.7 194.5 177.8 157.8 158.8 167.6 184.7 204.9 227.2 249.8 278.9 307.3 335.4 361.6 381.3 399.9 421 436.9 449.7 454.2 475.3 487.4 498 491.3 485.3 480.2 463.9 445 420.5 404.1 387.2 373.6 357.6 344.8 332.9 317.5 310.3 300.3 286.8 275.6 263.1 251 242.1 230.9 220.6 204.6 192.1 187.3 180.8 174.3 167.1 159.2 145.2 136.6 127.2 120.9 116.5 110.8 107.1 99.3 94.7 91.7 92 91.1 95.7 97.3 103.2 116.2 125 140.5 151.8 165.2 177 188.9 205.7 223.5 237.4 262 279.1 300 327.4 359.2 383.6 416.3 435.2 458.2 472.5 474 477.1 474.7 465.3 454.9 461.1 462.6 455.2 439.2 434 441.6 443.7 450.3 461.9 475.6 481.2 479.9 478.5 471.9
505.2 477.7 443.6 409 378.1 351.3 329.5 307.8 307.8 300.7 284.9 261.8 240.6 217.1 200.9 185.6 172.4 153.9 131.8 112.3 89.9 71.2 53.9 43.7 39.9 38.4 41.1 51.2 63 78.3 97.1 115.4 135.8 158.7 182.6 206.7 233.9 260.2 284.8 309.9 336.3 368.5 401.5 434.6 464.6 493 530 566.3 596.3 627.2 632.4 629.6 633.2 641.4 648.9 656.8 674.3 676.3 687.6 698 702.9 705.8 716.2 723.1 717.3 706.2 703.6 684.5 656.7 631.2 623 601 570.2 538.2 519.8 499.7 481.7 470.7 452.3 430.9 401.6 376 344.2 339.5 323.4 295.8 272.9 259.2 249.7 236.6 237.8 238.2 222 220.8 217.7 200.1 186.1 159.6 158.4 167.8 186.3 211 230 249.7 275.7 304.3 334 360.6 383.8 403.4 418 427.7 437.7 451.6 465.8 476.8 480.1 480.3 473.6 462.9 453.4 431.2 410.3 385.5 369.7 357.6 342.9 326.1 318 305.1 294 284.3 273 260.7 247.8 237.1 221.7 210.8 204 193.8 180.9 174.3 165.6 159.6 155.5 149.8 136.9 127.1 118.8 112.3 109.2 102.7 100.8 98.8 98 89.2 85.5 90.3 92.5 98.2 110.5 125.8 138.2 152.3 164.2 174 190 205 223.2 239.7 262.9 278.9 299.1 320.8 348.3 388.2 415.6 450.1 473.5 490.8 493.5 497.7 500 496.8 487.5 476.9 475.2 479.6 469.9 459.6 466.2 460.3 461.6 465.2 479.6 493.4 494.9 492.5 485.3 471
509 477.3 450 415.4 388.8 366.9 369.6 362.6 337.5 314.1 289.5 264 246.4 227.5 206.6 201 192.8 172 142.9 120.5 97.4 74.5 57.8 45.6 39.7 38.3 40.8 48.5 59.5 73.8 91.7 111.4 131.9 153.9 178.9 204.1 230.2 249.1 276.2 306.4 333.2 366.3 402.5 431.9 465.7 498.9 539.1 575.7 598.6 617.5 630.6 625.2 623.1 628.1 625 644.9 651 650.8 663 674.3 676.7 700.2 704.3 696.1 693.5 682.5 671.6 659.8 641.9 619.2 616.9 595.2 576.2 556.1 537.3 515 493.9 461.9 432.8 409.8 381.4 358.3 332.5 307.2 288 270.4 262.3 260.5 250 235.8 221.3 211.3 208.1 214.9 221.1 208.3 180 159.2 159.8 172.9 187.9 205.9 231.3 261 289 319.1 339.3 362.7 384.3 402 412.9 425.7 433 441.2 458.9 464.3 468.3 468.9 469.1 463.9 454.8 424 397.5 378.1 358.7 338.8 326.4 313.6 302.6 291.6 274.3 269.5 256.8 246.1 235.5 224.2 212.3 190.9 184.7 180.1 170.7 160.7 155.3 148.6 141.7 136.4 127.2 117 109.1 102.8 98.5 95 95 98.2 98.5 87.1 89.4 92.9 96.8 106.8 124 142.5 151.3 164 174 189.5 206.2 224.7 242.1 266 284 301.8 319.7 345.9 373.3 415.3 452 483.3 498.6 507.9 515.7 525.6 514.2 495.8 488.7 483.7 484.9 488.9 487.3 487.7 490.6 479.2 483 484.8 498 504.9 505.1 495.5 487.8 477.8
513.1 479.9 448.5 425.9 413 408.8 394.4 386.7 372.9 348.4 314.3 282.1 262.4 242.8 225.4 226.6 208.4 180.8 154.6 128.6 103.5 79.7 60.1 46.2 39.7 37.6 39.5 46.2 58.6 73.6 90.2 107.3 128.4 150.8 176.4 194.3 218.2 248.3 280.2 305.8 332.6 363.2 396.7 429.7 460.2 498.5 535.8 564.2 589.1 615.9 619.7 616.2 624.1 611.5 612.2 624.9 631.6 628.8 638.2 641.9 668.1 675.8 686.6 672.8 670.9 664 646.5 637.9 620.1 603 591 578.3 567.8 550.4 535.1 520.1 492.3 464.7 431 402.4 376.3 349.3 323.4 301.1 283.3 264.3 250.4 249 242.6 234.3 230 204.1 195 193.1 196.4 189.9 169.5 147.6 158.3 171.6 188.5 208.7 236.8 264.9 298.4 333.3 352.2 376.5 390.6 404.5 416.1 424.2 428.4 440.2 455.4 460.4 464.9 463.9 465.8 458.2 439.6 414 390.7 368.4 350.4 333.2 317.6 302.1 285.9 284 267.6 247.1 233.3 225.9 216 202.7 194 178.5 170.3 165.2 158.1 148.5 141.5 134.9 127.3 127.8 119.9 109.2 101.2 95.9 92.7 90.3 88.9 91 91.7 84.2 92.1 100 109.3 123.3 135.8 158.6 168.1 176.1 186.2 201.8 226.4 244.1 265 289.3 307.2 325.1 340.3 371 400.6 440.4 472.3 501.5 520.1 537 552.3 558.9 533.3 514.2 502.7 498.8 498.5 503.7 506.6 517 508.5 500.8 502.1 504.5 510.1 517 512.1 507.4 498.1 486.2
523.2 500.6 496.8 470.5 449.1 446.1 442.4 430.4 416.2 388.7 342.3 297.7 271.7 247.3 258.5 249.3 220.9 189.7 162.1 138.4 112.4 90.2 68 48.3 38.9 37.6 39.3 43.8 57.8 73.7 89.4 104.1 123.2 143.1 169.3 194 219 248.6 280.1 305.4 332.1 362.4 400.7 431.5 461.2 488.4 529.8 566.7 585.8 610.3 601.6 603.2 611.6 605.7 594 604.4 611 616.6 598.8 632 651.6 656.4 658.5 660.6 650.4 642.2 624.7 615.6 608.4 590.5 581.6 575.9 568 548.6 522.5 500.2 469.9 446.6 417.1 389.8 368 335.6 315.3 300.1 291.8 273.7 246.7 237.3 222.2 226.5 226.3 201.7 186.1 184.3 192.3 165.9 155.6 146.1 162.5 177.7 198.5 220.5 246.5 279.4 309.7 336.7 356.2 379.7 390.9 403.5 411.8 418.9 425.6 442.6 456.1 470.3 469.4 461.3 457.9 447.5 433.6 400 374.6 353.6 337.6 325.1 315.7 300.1 286.5 267.4 246.3 231 217.1 206.5 196.5 186.5 174 162.4 150.2 147.4 143 132.3 124.6 119.3 114.7 115.4 111 99.7 94 90.7 88.3 86.7 86.2 85.6 84.7 94.3 103.3 113.6 125.9 139.5 151.5 163.4 178.8 185.8 200.7 216.2 238.6 264.9 291.5 312.3 333 351.7 366.8 388.9 419.4 458.2 492.3 517 540.6 554.2 560.1 560.1 549.2 531.2 523.1 513.9 514.3 519.4 523.6 529.1 526.1 520.3 516.8 515.9 523.3 520.8 524.9 518 511.1 501.3
556.3 547.6 538.2 513.7 501.1 493.4 458.8 449.4 419.7 392.6 354.9 310.7 280.6 274.4 287 251 227.3 195.5 167.6 151.4 130.8 101.4 74.7 53.9 39.9 37.5 38.8 41.8 54.8 71.3 87.2 103.1 124.2 146.7 168 192 217.8 252.1 280.6 302.2 329.3 362.5 402 427.8 460.2 487.6 525.3 560.8 573.3 590.8 585.8 585.7 594.9 591.8 578.4 578.6 574.9 575 595.8 612.2 639.7 640.6 644.4 647.2 638.7 619.2 609.8 599.8 588.6 581.2 569.7 559.4 542 525.9 515.3 499.9 470.1 432.5 405.9 381.2 349.6 325.1 310.6 307.3 294.6 265.7 248.7 234 207.4 203.6 206.2 193.9 178.5 182.9 173.7 160.4 152 149.4 171.3 190.4 210.8 233.7 268.9 299 325.5 344.4 361.1 375.8 391 404 413.6 421.3 428.8 452.7 467.7 471.2 466 453.3 448 440.6 420.9 390.5 365.8 347.7 327.3 310.9 304.2 289 268.3 252.7 234.9 215.5 208.2 195.9 183.3 171.6 158.2 147.9 137.4 128.7 123.7 114 108.7 108.3 106 102.3 97.8 92.2 88.1 86.1 84.7 83.2 82.4 87.3 94.4 107.6 118.9 129.4 135.6 149.2 163 177.7 185.8 196.7 213.6 239.8 259.9 283.3 315.1 338.4 361.9 381.3 394.3 412.2 439.3 474.5 507.6 537.5 563.1 570.6 581.1 576.6 572.6 560.3 549.2 540.7 544.4 546 551.6 545.6 540.9 539.2 537.4 537.7 534.8 534.6 528.5 522.5 513.4 507.7
572.4 561 543.2 534.9 512.7 487.1 456.2 435.3 406.4 384.8 351.4 310.4 291.9 307.3 289.7 257.1 228 200.1 184.9 163 146.7 116 83.6 61.7 43 36.9 38.1 40.7 50.8 66.1 83.6 102.4 127.8 148.9 166.2 187.8 218.3 249 274.4 296.3 325.9 374.8 400.1 432.4 460.2 490.5 523.5 553 560.5 565.3 569.6 566.8 569.7 565.4 553.7 555.2 539.3 545.9 583.5 601.2 618.3 621.8 626.9 621.8 614.6 606.5 591 578 567.8 565.6 551.8 542.6 533.6 520.3 498.6 469.1 438.7 424.5 392.8 365.1 343.6 328.1 299.6 271.3 258.4 244.6 226.3 207.4 193.2 185.2 181 174.4 170.8 171.8 165.4 155.2 147.6 154.6 177.5 203.2 228.1 246.5 274.9 305.8 330.7 350.6 369.3 382.4 397.7 413.3 418.4 421.9 431.6 452.2 463.5 471.4 459.6 449.8 443.7 431.3 419.9 394.3 365.7 343.8 324.3 307.5 288.5 270.8 252.6 240.4 227.1 204.6 194.6 183.6 168.2 152.6 143.2 134.1 123.3 116.7 107.9 101.1 98.7 99.2 100.6 97.8 92.6 86.5 83.3 80.5 82.6 85.7 88.8 94.8 103.8 119.9 132 138.3 146.3 157.8 171.7 183.7 198 209.2 227.9 259.3 282 301.5 327.1 354.8 382.1 402.8 423.9 444.7 473 504.6 531.6 558.2 571.8 580.7 592.7 600.2 596.3 579.7 566.2 553.9 554.6 552.1 557.1 551.7 549.7 548.6 545.2 547.1 551.6 547.8 542.9 528.5 518.7 506.9
565.8 547.2 535.7 525 505.5 477.3 458.3 429.5 396.4 366.1 331.6 311.8 324.9 320.3 291.9 263.6 234 213 196.5 177.2 151.2 122.1 92 64.1 48.3 36.9 38.1 39.8 48.7 62.6 82.5 102.1 126.1 148.7 166.6 184.3 209.7 238.9 269.2 289.8 320.4 357.7 397.9 428.1 459.5 488.5 521.2 541 544.8 542 548.6 543.9 538.2 530.9 519.5 536.6 521.3 520.7 564 586.9 592.1 600.2 601.9 605.2 601.6 595.7 579 568.8 565.3 554.3 544.5 532.2 524.5 512 478.1 447.3 425.5 396.3 372 358.4 348.6 319 285.2 248.4 232 220.4 211.8 192.2 174.6 169 170.6 160.4 156.9 157.3 151.1 143.5 146.7 164.3 185.2 211.5 238.9 262.8 283.2 306.7 334.3 358.4 380.9 392.2 410.5 422 421.8 422.2 433.5 449.3 470.7 471.8 455.2 441.4 434.6 425.1 414.3 396.3 365 341.2 322.9 299 281.7 262.7 242.7 230.5 215.6 197.8 177.7 166.6 151.9 142.1 130.8 119.6 108.9 100.8 95.4 90.9 89.1 88.4 88.9 87.1 83.5 80.8 81 83.1 85.7 89.8 97.5 105.8 116.8 128.2 141.1 149.8 159.8 173.9 183.6 199.2 211.4 225.9 244.7 271.9 298.6 321 349.6 376.4 403.7 427.8 450 472.7 507.8 529.4 549.9 571.2 589 602 617.5 623.4 619.6 608.4 594.2 582 582.9 584.2 580.1 568.2 562 564.3 565.4 569.8 565.9 560.2 546.9 530.7 519.2 511.5
542.4 530.8 526.8 521.2 502 471.8 449.9 429.7 388 359.2 337 341.4 342.4 333.8 301.7 267.9 243 223.9 202.9 183.3 148.6 125.3 93.5 71.1 53.9 38.3 36.8 39.3 47 63.1 85.4 105.3 127.9 148.3 167.8 187.7 209.3 236.5 262.6 288.3 320.8 353.5 386.2 423.6 454.2 486.9 509.3 523.9 524.9 517.1 519.1 513.4 504.2 493.1 483.4 490.3 477.3 534 564.6 570.7 583.3 583.8 580.5 595.3 598.9 580.4 570.3 557.4 541.6 531.7 519.5 490.4 485.7 482.1 456.5 426 397 382 371.2 353.8 325.8 296.7 265.6 242 218.5 203.6 192.8 176.3 163.2 155.8 153.8 148.3 144.7 145 135.1 144 160.7 179 198 223.5 250.1 273.3 297.7 323.9 350.4 373.9 392 404 420.4 424 421.9 423.1 431.4 445.2 465.5 456.6 445.5 443.1 427.8 423.8 408.6 385.4 359.6 331.2 301.4 277.9 261.1 245 228.3 217.4 209 193.6 172.2 153.6 144 130 119.1 104.6 98.8 89.4 84.8 82.9 80.1 76.8 77.9 81 78.4 81.4 82.2 85.4 90.5 100.9 112.8 119.5 130.4 142.1 153.2 164.4 175.3 187.4 200.4 212.1 223.6 238.2 257 284.3 311.5 340.5 371.3 399.2 423.4 450.1 472.7 501.5 529.7 545.4 575.5 588.2 598.8 616.1 627.5 636.6 636.1 632.2 618.7 611.7 612 606.4 600.8 596.3 593.6 596.8 597.5 608 602.6 584.4 558.3 545.4 521.5 511.4
519.3 515.6 519.9 511.8 492.5 472.8 440.4 414.2 385.9 380.6 368.5 367.3 351.3 329.8 288.9 266.2 246.4 229.9 213.5 183.6 157.9 131.9 105.8 77.3 54.2 41.1 35.7 39.2 46.5 62.8 87.5 108.6 130.4 145.6 164.3 184.5 204.3 229.3 254.9 284 311.4 342.9 378.5 414.5 447 476.4 491.9 503.7 486.8 484.2 490.6 477.1 466.2 457.8 448.7 444 508.4 544.5 563.3 582.7 588.3 592.3 574.9 568.3 562.9 556.5 543.6 534.4 520.8 507.7 490.2 476.5 474.8 461.1 433.4 410.2 396.5 374.3 353 335.6 308 277.1 259 233.5 210.6 189.7 175.5 160.7 153 146.7 142.2 143.6 141.7 135.8 144.5 164.3 182.5 198 215.3 242.6 273.3 299.8 319.7 341.2 368 385.5 408.2 410.5 420.7 421.3 421.6 426.6 433.8 447.1 445.2 439.5 434.3 432 421.3 410.7 391 367.5 339.3 302.7 284.2 264.6 245.2 231.4 215.5 202.3 197.9 187.7 162.5 143 125.6 123.2 111.5 97 86.1 80.5 78.1 73.7 77 78.6 79.6 79.2 83.1 84.2 88.8 95.5 108.2 121.7 134.4 140.2 148.1 159.5 172.2 187.7 197.5 204.5 218.1 227.8 239.8 250.7 269.1 293.9 324.6 354.9 387.2 420.1 447.3 473.6 493.3 517 540.8 565.7 580.5 595.8 605.9 621.8 633.4 640.6 644.2 640.5 633.5 635.4 640.1 641.6 636.6 640.8 641.6 636.6 628.3 626.3 621.6 605.3 571.8 553.9 541 505.5
495.4 512.8 512.6 496.8 480.4 467.3 437.7 426.4 430.9 412.1 392.2 388.7 354.4 318.7 287.3 262 257.3 239.9 218.4 195.8 173.9 142.7 102.9 73.8 54.3 40.1 36.2 35.7 46.9 64.3 88.5 110.2 135.6 146.2 162.7 181.6 199.1 223 251.4 278.9 309 342.4 374.6 413.9 450.6 464.3 475.4 478.7 464.7 454.4 454.9 441 427.1 416.4 431.4 482 499.6 546.8 570.6 579 580.6 582.9 577.3 571.8 564.4 550.2 532.4 524.6 515.5 497.2 482.8 459 452.9 435.8 429.7 416.4 401.4 375.9 356 342.3 297.5 267.5 253.3 230.9 214.5 193.8 168 154.3 144.2 139.9 136.4 136.7 133.7 140.4 160.5 182.6 202.4 220 239.6 262.3 289.9 314.1 330.2 353.1 372.7 393.8 408.5 413 410.1 411.3 418 437.5 437.3 439.6 433.6 425.5 418.9 411.5 406.3 385.6 356.8 331.9 306.7 282.6 266.7 247 232.2 219 203.1 188.4 177.4 167.5 153 133.4 114.1 107.7 103.5 88.8 75.8 74.8 74.1 76.6 79.7 80.9 84 83.2 84.7 92.7 106.6 117.8 125.8 142.8 157.3 160.3 167.6 178.8 192.2 205.3 216.9 222.9 236.5 243.9 256.4 264.7 277.3 305 334.1 370.2 400.5 441 465.5 488.1 511.3 537.3 554 572.1 587.9 599.7 610 627.3 634.7 639.7 643.1 642.9 639.5 647.8 660.7 659.4 657.1 656.4 653.5 650.1 639.2 635.4 630.3 617.8 586.4 564.2 542.2 527.4
490.9 506.4 500.9 486.9 472.1 456.4 436.2 443.5 445.5 419.7 410.1 383.7 356.1 315.4 284.8 256.7 247.4 223.9 212.8 196.8 172.6 139.3 104.8 76.6 50.5 38.5 35.3 35.2 52.3 67.4 93.2 118.4 133.2 144.6 161.8 179.5 196.2 221.1 248.3 275.5 307.9 343.9 374 406.7 444.6 452.8 454.5 446.1 438.7 414.2 411.9 401.2 390.4 417 467.4 503.5 546 563.9 577.6 580.8 580.3 590 584.3 573.7 571.6 552.1 534.6 514.6 497.7 480.4 467.9 446.1 425.9 435.6 420.4 404.2 380.2 349.1 331 324 316.7 268.8 242.4 213.7 192.5 170.3 155.3 145.1 138.4 140.6 131.5 130.9 137.3 162 181 199.9 218.2 237.2 254.1 274.9 303.4 321.4 335.7 363.9 376.3 398.8 410.7 412.4 406.3 403 424.3 437 430 431.6 420.7 416.5 415.3 405 396.3 363.4 334.1 311 287.4 267.5 247.1 234.1 219.3 205 189.5 175.9 167.1 151.4 139.3 122.8 103.4 94 90.4 80.7 75.2 74.8 72.2 75.7 79.7 82.1 85.7 87.1 100.2 112.3 121.7 134.3 146.5 161.5 177.9 181.7 182.8 194.8 209.1 222.8 235.7 247.3 253.1 262.4 269.6 281.6 294.7 317.2 344.2 377.7 407.5 444.3 475.1 506.5 529.2 548.3 561.2 580.1 595.9 606.1 612.3 624.1 627.5 632.2 641.4 637.9 634.3 645.4 653.9 660.2 656 656.5 659 648.1 649.7 644.2 636.3 626 597.6 567.5 551.9 539.7
494.6 493.9 487.6 478.9 465.8 444.3 438.9 450.1 442.1 427.7 404.9 371.3 341.8 321 281.9 253.5 234.2 221.6 211.3 191 173.1 136.7 103.2 71.7 47.5 35.8 34.8 37.2 55.9 72.8 98.2 112.5 129.3 141.4 157.7 173.1 190.4 217.1 245.8 274.2 303.1 339.5 364.1 396.7 420.9 428.9 412.5 409.7 399.6 383.7 371.5 369 404.7 455.2 495.3 517.6 536 540.1 545.6 553.2 556.1 558.5 561.5 556.1 542.8 532.6 518.9 504.9 492 479.1 468.4 454.6 425.4 401.4 385 353.8 336.5 321.3 301 282.5 263.6 248.3 212.4 199.7 174.8 156.4 141.5 137.4 133.4 128.7 127.6 134.1 159.1 174.9 195.8 220 232.3 253.4 262.8 282.6 307.5 317.3 342.1 368 385.1 395.8 403.5 411.5 401.9 392.7 410.9 419.1 413.3 412.8 407.9 403.4 406 388.9 373.8 349.4 327.2 302.6 273.9 252.8 233.5 219.4 203.7 189 172.6 160.9 152.3 144.1 126.6 110.5 96.4 86.2 83.3 78 73.9 71.2 74 75.1 76.7 83.1 90.3 104.8 119.8 129.1 141.2 155.4 167 180.6 191.8 198.9 200.1 214.1 232.2 245.1 254.1 267.3 270.2 276.8 283.3 299.6 319 334 367.3 391 419.5 450.8 492.9 517.8 536.8 553.8 570.5 584.6 600.9 612 610.9 620.1 618.2 619.4 627 628.4 629.7 641.2 645 650.9 651.2 652.2 649.5 649.8 651.9 650.6 642.3 626.9 596.1 572.6 558.5 535.9
489 478.6 475.5 467.3 454.8 440.3 441.2 445.5 436.7 429.5 405.2 368.9 353.9 321.3 285.2 251.9 233.7 219.1 195.8 177.9 157.6 136.5 96.4 68.5 46.1 36 35.7 38.6 55.8 71.7 89.8 103.3 121 133 150.6 168.3 190.9 215.5 239.6 266.1 299.6 332.6 360.5 390.1 393 380.5 374.1 367.7 360 345.3 356.6 396.9 434 466 485.9 494.7 506 510.4 511.3 522.1 528.8 527.8 528.1 527.8 523.8 512.8 505.7 488.8 480.2 478.3 465 456.4 429.8 407.6 378.8 362 343.8 305 278.5 260.3 243.2 224.1 200.6 178.3 163.1 148.1 136.2 133.1 128.9 124.8 130.7 145.3 162.3 179.8 200.4 223.5 242.2 256.3 263.9 285.1 305 319.3 345.5 365.8 382.8 393.5 398.6 400.3 392.1 383.7 394 404.1 399.8 395.6 389.7 392.7 388.8 374.3 355.6 335.1 309.9 280.7 255.6 234.1 217.7 202.6 188.5 176.1 162.9 151.7 137.5 130.1 114.6 100.8 87.4 80.2 77.2 70.7 70.8 72.2 72.5 74.8 79.8 94.1 106.3 122.9 136.4 149.2 159.5 176.5 192.1 201.3 213.8 217.4 223.7 242.3 247.2 267.7 272.3 281.3 285.7 293 301 316.8 337.1 360.6 387.3 414.4 446.8 480.1 511.5 529.4 548.7 562.6 577 591.6 605.1 609.4 608.1 609 607.7 609.6 610.1 615.4 618.4 630.5 636.4 645.2 652.8 652.3 649.8 651.1 653.6 648.8 643.5 634.9 602.7 574.8 552.3 539.4
464.7 465.1 460.7 455.6 443.5 440.1 449.8 445 439.5 431.3 397.2 377 351.9 313.1 275.1 258.6 244.7 224.5 192.9 169.7 150.4 136.2 107.6 72.7 46.1 34.2 35.6 37.3 54.6 65.5 80.5 91.9 106.8 121.1 139.6 160.7 186.7 210.8 236.2 266.7 299.1 327.3 363.2 372.2 360.6 345 337.7 330.7 325.3 343.4 387.8 417.3 440.4 456 464.2 473.9 482.7 493.9 502.2 515.5 521.2 521.9 524.2 517.3 512.9 501.6 482.6 475.3 471.4 458.9 450.9 442.4 424.7 408.9 386 372.8 355.7 327.8 301 276.4 250.2 221.2 192.8 172.7 154.1 141.4 132.5 128.5 125.2 126.8 137.3 154.5 169.1 182.8 204.8 235.6 254.7 254.1 266.8 282.6 301.4 323.4 351.6 370.3 388.1 395.2 398.6 397.6 382.9 370.3 373.5 383 382.7 382.4 378.8 381.4 375.1 365.9 346.3 313.3 289.5 262.5 239.5 222 208.5 193.1 177.6 164.2 154.2 142.2 133 120.6 105.2 92.9 80.6 75.6 72.9 70.6 70.6 71.3 72.2 79.9 98.1 118.4 132.1 143.7 157.2 170.3 179.3 200.6 212.9 219 229.2 234.5 241.4 255.8 267.8 275.7 286.1 295.1 299.6 309.8 321.4 338 358.2 383.6 409.5 446 480.3 504.5 527.3 539.2 553.8 570.9 582.1 592 605.8 606.8 597.9 592.5 591.5 593.8 597.6 600.5 603.6 618.5 627 634.1 641.8 644.7 644.6 645.8 648.7 645.2 640.3 636.2 624 601.1 577 557.9
444.8 447.8 443.5 447.2 435.2 441 447.8 441.3 443.6 423 404 368.2 343.7 303.7 280.7 272.6 245.4 224 198.4 177.5 158.2 139.4 112.7 79.2 45.3 34.2 34.5 35.4 46.2 60.9 73.2 80.7 95.5 114.4 134.4 158.4 183.6 207.6 236.7 266.9 295.5 325.7 344.6 342.3 327.4 312.2 302.6 306.3 332.6 371.8 393.8 412.1 431.2 447 455.3 465.5 481.2 488.2 494 493.2 500.8 506.6 506.8 494.8 485.6 472 461.4 457 446.9 439.7 429.8 428 413 396.9 376.6 351 347.7 337.7 311.5 277.2 247.8 229 207.9 178.8 158.8 137.3 127.8 126.2 119.6 128.5 155.4 158.3 171.8 187.3 220.7 241.2 250 254.4 265.3 287.6 305.4 330.7 355.5 369.9 387.4 388.3 389.2 390.7 372.6 358.5 357.9 367.3 372.2 373.6 370.8 374.2 366.2 342.1 319.2 297.9 273.1 246.7 227.6 211.4 199.2 185 167.4 152.1 141.2 131.2 125.4 110.9 99.4 86.9 74.9 71.8 71.4 70.8 69.1 71.7 78 94.8 118.1 140.2 156.9 162.2 178.4 189 206.8 220 221.2 235.3 248.2 255.2 259.6 272.4 277.9 287 293.8 301.8 312.2 326 342.4 363.9 389.5 419.9 449.6 482.7 503.1 519.9 535.2 549.7 559.9 575.9 586.5 593.5 597.8 596.5 588.8 578.3 577.3 578.2 579.4 583.6 586.6 599.4 608.9 618.8 627.7 633.5 637 638 641.6 641 642 638 632.8 628 602.3 577.6
427.3 438.9 451.4 443.6 433.6 441.3 453.6 453.2 445.6 432.2 405.1 364.3 335.7 307.2 285.5 275.7 253.4 225.5 199.3 180.8 163.3 135.3 111.9 87.7 55 34.7 33.7 34.5 43.9 52.3 60 71.4 88.4 110.4 132.5 157.2 181.7 205.6 237.6 268.9 294.3 308.2 307.4 306.9 288.7 281.6 303.8 329.5 358.4 387.6 408.2 415.2 427.4 433.9 438.6 450.9 459.8 468.4 476.7 470.2 480.7 482 475.5 467.5 457.2 445.6 447.6 439.9 431.1 424.4 418.2 412.8 404 378.9 348.7 321.4 309.1 302.4 289.8 271 243.5 220.1 199.3 180.9 152.6 133.4 125.4 122.1 118.7 128.6 143.5 147 165.6 186.2 213.7 230.3 240.8 253.6 271.3 291.5 301.1 336.1 356.1 366.9 384.1 384.2 384.6 374.5 363.6 345.2 345.4 349.9 354.6 358 363.9 365.7 347.9 330.5 304.5 283 253.1 231.4 215.3 200.4 183.5 167.1 153.6 142.6 128.4 118.7 113.1 103 92.2 80.4 72.1 69.4 69.1 70 69.6 83.1 97.1 113.2 134 157.8 165.5 179.2 192 209.1 229.2 231.9 238.5 247.8 257 266.8 280.3 290.3 295.7 292 307 319.3 332.2 347.8 372.2 400.2 429.8 465.9 486 508.6 529.3 533.6 543.1 553.7 566.6 582.9 588.6 592.9 594.7 585.5 575.4 566.2 565.1 563.8 558.9 563 570.1 579.5 594.4 600 611.3 620.8 625.3 631.3 637.4 641.4 641.8 638 635.4 639.7 633 616.3
432.5 439.5 446.6 428.8 432 443.1 446.6 446.8 446.9 435.9 404.4 361.9 342.4 312.7 288.4 272.6 247.6 217 200.2 177.4 150 126.9 109.8 92.1 60.2 38.7 33.7 33.4 37.3 44.2 53.1 68.4 91.8 109.2 131.3 155.6 180.7 207.2 235 264.2 279.8 273 265.8 258.5 266.3 295.1 332.5 366.3 382.4 399.2 412.3 420.5 420 424.4 430.4 434 444 448.2 452.3 450.5 452.4 453.4 447.3 445.5 439.7 434.5 434.2 429.9 413.7 401.3 402.8 388.1 375.2 360.8 335.8 303.7 279.4 264.1 263.2 238.7 218.8 198.6 191.5 164.8 144 131 123.8 118.3 120.1 123.5 135.9 155.3 176.5 190.5 195.8 218.7 241.3 260.8 275.6 291.3 290 315.4 347.6 361.3 374.2 378.9 360.7 355.2 343 330 332.4 330.2 330.4 329.8 333.6 333 320.1 306 283.7 260.4 239.5 222.1 204.9 185.1 166.8 151.6 140 128.4 116.3 108.2 100.9 91.5 80.7 71.9 69.2 67.9 67 69.9 86 100.5 115.8 131.1 149.6 168.9 181.5 193.5 205.8 222.7 234.6 240.9 250.9 257.6 267.8 286.7 295.6 304.6 309.8 309.9 316.5 331.3 346.9 365.3 400.1 437.1 464.3 488.8 503.1 532.6 547.6 546.6 551.3 560.3 574.6 585 590.9 595.7 589.4 577.4 568.8 556 549.2 547.2 542.7 547.8 552.4 560 577.1 588.4 596.9 605.3 613.3 623.3 630 637.1 636.3 634.7 640.2 640.3 639.7 635.2
437.6 439.4 432.4 415.1 426.4 436.6 449 454.6 445.3 428.3 394.3 368.6 337.5 308.4 284.2 261.2 229.6 203 184.7 168.7 140.6 124.1 111.2 93.7 68.2 41 33.7 33.7 35.7 42.4 52.4 66.8 93 113.8 133.8 158.7 183.4 210.6 233.4 252.7 247.4 237.3 239.7 261 290.3 325.5 358.9 375 376.7 391.1 401.3 405.5 407.5 405.8 412.7 423.7 429.1 435.1 431.8 431.5 432.8 427.3 427.6 432.6 427.6 420.6 420.7 411.8 396.2 394.6 376.4 367.6 351.1 337.9 314.1 276.3 259.4 244.4 235.2 213.8 195.1 186.2 174.1 161.9 145.7 132.9 122.6 117.7 118.9 126.4 149.4 168.6 184.5 199.5 213 230.5 239.1 255 262.7 278.4 278.3 310.3 336.9 353.4 356.3 357 351 339.2 328 317.9 324.5 320.7 313.6 310.4 307.9 302 292.3 279.8 261.7 244.1 225 206.1 190.5 174.9 154 137.4 125.3 115.2 104.6 95.8 88.9 80.8 71.4 66.8 67.2 68.3 78 88.9 104.5 116.7 129.4 142.2 160.7 180.6 188.5 203.1 219 239.8 243.8 255.1 268.2 278.6 284.6 294 307.2 316.1 318.9 324.1 324.2 343.5 363.7 389.1 428.9 461.6 486.2 503.5 517.1 542.8 555.3 555.8 558.1 568.3 579.2 591.8 598.9 592.6 578.5 568.6 558.5 545.3 534.7 530.8 525.3 523.8 531.5 540.2 551 569 580.1 589.6 599.8 609.8 616.3 621.8 627.6 633.1 637.5 638.2 634.4 630
429.9 426.6 412.3 412.4 419.2 423 443.7 440.1 426.4 402.6 388 363.9 335.6 305.4 282.2 257.3 226 198.8 181.6 165.9 143.7 123.9 104.6 86.7 56.6 41.2 33.4 33.8 35.8 42.7 54.5 73.1 94.6 114.2 135 157 189.3 209.8 229.3 229.7 214.6 229.8 250.4 277 317.7 356.7 364.7 367.4 368.7 375.6 386.3 391.2 389.6 385.5 395.2 412.8 410.1 413.5 414.6 414 413 412.2 416 413.4 404.5 400.7 396.6 385.6 377.5 368.6 361.8 337.8 322.6 305.3 283.6 260.2 236.8 233.6 226.6 209.1 195.8 187.6 178.2 164.5 148.6 135.1 122.5 116.2 118.4 127.7 147 171.2 177.2 195.2 220.4 228.5 233.2 236 244.6 259.4 270.4 299.1 321.5 335.4 334.8 337.4 334.6 321.2 311.2 308.4 313.9 313.5 306.1 296.6 290.3 278.6 269 257.8 243 223.3 205.8 189.5 174.3 156.9 140.9 125.2 110.4 101.8 93.6 86.9 77.5 69.6 64.6 67.6 71.3 83.1 90.3 104 117.5 129 140 155.5 175.4 195.1 209.1 222.6 236.4 247.1 260.5 274.9 288.9 288.3 293.1 304 314.3 322.3 328.1 337.6 349.5 366.4 385.6 411.8 457.5 480.7 498.5 512.2 528.6 550.7 558.1 560.8 565.1 576.7 591 600.2 603.1 594.1 576.6 562.9 546.9 531 524.8 517.4 504.4 506 513.8 522.8 531.9 543.2 557.9 571.1 585.4 595.3 603.1 610 616.2 624.7 632.7 631.9 629.7 630.2
419.9 400.4 386.8 396.7 404.7 414 431.1 427.9 411.3 407 387.3 355.5 325.7 305.4 274.5 245.2 223.2 191.1 171.3 146.9 119 109 92 71.2 54.1 39.1 33.8 34.2 36.3 43.9 59.7 85.3 98.2 117 136.6 167.4 202.2 193.6 196.2 195.3 217.4 241.5 275.6 308.8 348 362.1 363 367.9 365.1 368.4 376.9 371.1 375 371.3 383.4 384.5 388.8 391.6 400.9 406.7 402.9 401.3 402.4 400 389.9 378.2 366.4 363.4 351.6 340.6 331.7 318.2 287.3 281.4 266.2 243.2 225.2 213.2 215.7 204.6 198.1 191 181.8 171.6 150.3 136.3 124.5 115.9 117.3 126.1 146.9 167.8 171.5 184.5 204.5 212.2 216.4 221 229.6 246.8 268.7 289.4 306.9 313.8 318.4 319.3 312.8 307.9 298.1 299.1 304.6 306.2 303.2 288.7 271.5 254.8 243.5 237.4 225.6 211.6 195.8 178.3 164 143.4 126.6 112.5 97.9 86.9 82.5 77.7 71 65.9 69.6 73.7 83.8 90.9 106.1 116 129.2 141.2 154.7 174.2 194.1 207.6 221.6 240 251.9 264.1 276.5 286.4 293.3 296.9 303.2 313 326.7 329.8 339.2 352.6 369.2 389.3 410.9 438.1 472.6 493.8 507.5 522.1 543.8 557.2 563 570.6 574 586.6 596.6 604.1 607.3 595.3 569 553.3 541 524.1 509.1 494 487.8 487.2 496.3 500.8 508.3 519.9 530.5 549.2 565.5 575.1 588.5 597.7 605.1 614.7 619.4 623.5 624.5 626.2
395.5 381.8 363 372.6 383.2 403.4 406.5 402.8 415.3 393.5 371.4 349.1 323.6 298.3 266.2 243.1 214.1 176.3 145.4 123.5 100.9 90.1 77.6 61.8 56.3 45.1 33.1 34.4 39.9 57.6 73.8 85.7 97.7 118.3 137.8 173 176.8 175.3 185.2 204.8 238.8 273.6 304.5 339.3 351.2 358.3 358.1 362.5 359.4 363.2 360.4 350.4 357 365.3 371.5 376.6 376.3 381.7 386.5 391.4 387.6 388.1 384.3 383.7 374 365.9 357.8 350.7 335.2 327.9 318.7 293.7 272.3 258.7 248.7 233.4 221.1 214.4 207.2 203.7 198.1 190 180.4 170.7 151.2 138.5 126.1 114 119.7 126.9 141.5 159.1 164.8 178.8 189.6 196.2 201.9 210 224.9 242.9 263.4 285.7 300.5 301.3 309.8 314.3 307.3 297.6 289 289.5 293.3 297.3 295.4 288.7 270.4 246.6 224.6 216.4 209.5 199.8 185.5 169.5 152.9 130.8 114.5 101.1 86 76.6 72.1 66.6 64.2 70.2 82.8 82.6 87.8 109.5 120 129.5 143.6 153.5 170.1 191.8 210 229.8 244.7 251.2 274.4 287.9 294.6 295.5 304 310.7 316.1 327.5 335.2 341 355.2 371.4 391.4 414.7 442.7 463 488.4 503.4 515.9 538.7 554.8 561.6 569.5 581.1 585.1 594 601.2 614.9 615.2 581 564.1 544.4 525.3 505.5 492.7 483.7 472.6 471.8 475.9 480.5 490.9 496 509.7 524.6 534.2 550.4 568.5 581.1 591.8 604.4 610.4 615.6 616.5 617.5
368.5 359.7 340.3 351.5 364.6 389.9 382.9 396 397 368.6 351.4 333.5 312.5 284.2 256.3 232.7 197.8 165.5 136.2 108.4 85.5 70.2 65.8 60.7 73.9 60.5 35.3 35.9 42.9 64 76.3 84.9 104.1 119.4 137.1 149.6 153.2 171.5 191.3 220.1 244.7 280.2 308.2 333.5 343.5 345.4 359.4 353.2 348.5 351.6 346.8 340.9 350 359.5 369 371.1 372.6 382.6 385.8 383 382.1 375.2 370.1 371.4 363.2 356.2 344.4 329.3 322.5 311.7 290.2 284.4 268.9 250.7 234.2 223.8 220 209.3 202.1 200.6 195.8 190.1 181.5 169.1 152.4 139.9 127.7 114.8 116.9 127.3 133.6 145.3 159.3 168.9 177.1 185.5 193.3 204.7 220.6 239.7 253.2 276.5 284.3 294.5 303.5 301 296.6 289.1 284.5 285.4 288 291 284.9 277.6 268.2 243 220.9 203.9 189.3 182.9 167.2 154.2 136.5 119.5 104.8 88.9 76.8 68.7 62.1 66 76 82.3 91.7 92.8 97.6 123.4 130.2 149.6 165.3 175.2 190.3 210.7 228.9 245.6 252.9 267.2 289.3 304 302.5 305.3 315.8 323.2 328.6 336.6 345.6 352.2 368.8 389.3 413.4 445.4 466.6 482.8 496.5 509.8 527.5 547.4 561.3 570.3 583.1 592.2 593.8 599.7 610.7 617.6 606.4 574.3 555.1 536.6 513.3 492.9 479.9 468.4 460.6 460 458.2 462.9 474.3 478.1 487.7 497 507.7 523.8 542.5 557.5 572.5 589.1 598.8 606.9 610 610.6
340.2 334.6 318.7 315 340.5 363.9 378.3 391.5 379 350.2 332.6 312.3 290 258.6 236.7 228 184.6 157.7 132 104.8 75.9 58.2 52.2 58.1 70.5 58.7 34 38.7 51.9 64.2 79.1 96.7 108.1 117.1 127.8 139.1 159.9 176.7 201.3 229.4 252 273.5 314.6 326 334.2 351.5 348.1 340.2 334.6 338.3 335.3 335.4 333.5 346.6 353.9 372 368.7 379.4 380.7 377.7 373.6 360.1 353.5 361.2 353.7 347.6 331.3 316 306.7 298.6 284.1 274.3 267.2 252.2 245.1 233.5 214.8 205.3 200.6 196.5 192.6 188.5 181.9 169.3 154.5 141 128.3 119.3 112.9 118.3 123.3 132.5 153.4 163.1 171.3 176.4 186.7 206.8 222.4 232.2 239.6 262.3 279.6 287.7 290.4 290.5 288.9 285.9 281.4 282.1 283.1 285.9 279 269.4 252.8 233.9 218.1 201.3 179 168.6 156.9 140.4 125.5 108.1 93.7 79.7 69.1 61.4 65 76.7 85 91.4 99.2 108.6 115.3 123.4 136.4 165.9 182.1 190.8 201.9 226.8 242.7 253.9 259.8 280 294 301.5 306.3 317.1 323.3 332 338.1 343.8 355.8 361.5 376.4 403.1 434.8 461.7 481 499.6 510 523.2 540 558.6 566.2 575.8 588.7 598.9 603.5 609.7 613.7 610.9 593.8 568.7 540.4 517.8 499.2 483.3 467.7 456.7 450.8 447.9 446.4 450.1 458.5 463.5 469.7 476.1 486.5 500 510.9 527.5 544.2 564.3 582 594.8 601.6 601.9
316.6 305.8 295.4 295.3 319 336 368.6 381.8 353.6 337.3 308.6 283.9 273.8 244.3 226.2 210.6 178.8 151.1 126.9 101.8 78.1 51 42.9 48.1 50.9 43.7 32.4 40.3 52.9 68.5 84.7 96.7 106.4 121 139.6 149.6 165.1 187.6 211.3 233.5 256.9 279.4 295.1 315.1 336.1 340.5 339.6 325.4 324 331.5 322.3 324.2 326.8 334.6 340.4 350.6 350.9 353.1 364.9 362.9 356.1 343.8 341.1 339.8 331.8 326.7 309.8 302.3 289.3 284.8 278.2 274.1 256.1 242.3 229.6 222.3 210.3 202.5 197.3 193.4 190.6 187.1 182.3 171.1 156.8 141.9 128.9 118.1 114.8 111.2 120.1 133.5 144.5 157 162 172.4 184.3 206.4 216.6 225.8 237.8 259.1 273.5 280.3 285.8 289 286.2 283.7 279.1 279.2 279.1 279.7 274.2 256.8 241.6 226.9 208.5 191.1 173.1 157.3 146 129.7 115.2 98.8 84.8 71.8 63.3 63.1 68.8 87.8 90.5 99.7 107.2 118.5 120.1 126.6 143.2 167.5 188.3 199.1 209.2 234.8 253.5 260 268.5 285.8 294.5 302.8 314.5 326 331.1 339.7 349.4 356.5 362.8 369.2 389.5 428.4 446.5 467.7 490 506 527.8 532.2 548.4 563 570.1 582.6 597.2 608.3 612.2 619 610.6 597.3 578 557.1 539.1 523.2 503.3 482.7 464.7 450.7 444.7 439.4 439.4 440 447 450.9 454.6 459.6 466.6 477 491.4 499.9 513.9 535.3 559.4 580 589.2 592.5
296.5 280.5 268 276.7 298.6 326.6 352.9 357 333.7 314.5 295.2 269 244.4 224.8 205.3 195.5 171.1 150.4 126.7 100.9 77.2 47.5 38.1 41.9 40 30.5 29.2 42.4 56.2 73.2 89 94.4 104.7 126.5 146.6 149 161 185.8 213.2 232.7 248.6 275.3 292.8 302.6 326 328.2 328 321 313.5 319.6 318.3 318.7 320.5 318.5 323.5 331.8 332.8 337.5 345.5 345 331.6 339.8 321.8 314.6 303.1 301 297.7 290.7 287.8 277.3 262.5 249.1 238.8 232.6 219.7 211.3 201.2 195.1 189.3 184.8 183.4 183.3 177.3 165.5 155.4 142.2 129.7 118.5 114.3 112 119.1 127.5 135.9 150.6 160.1 173.3 191 204.4 220.1 230.7 236.5 248.9 262.6 271.9 282.8 287.1 286.8 282.9 278.3 277.8 279.4 275.1 255.3 239.3 224 211 194.8 180.5 166.5 149.9 136.8 121.6 104.7 94.6 79.3 68.3 62.6 63.3 74.1 87.5 96.6 102.2 106.9 118.7 121.5 143.5 157.9 179.7 196.3 203.5 216.8 236 249.4 258.2 275.6 292.2 299.2 308.9 322.3 329.7 338.3 349.5 357.9 366.1 367.5 379.9 399.6 438 458.6 474.7 492.2 514.3 532.3 545 556 570.2 576.9 587.3 604.2 613.8 618.3 618.7 607.6 590.2 580.8 566.2 540.3 516.8 496.5 481.6 464.7 454.2 444.1 440.2 436 435.9 437.6 439.1 441.9 448.2 450.1 458.1 466.1 475.1 490 508.1 529.3 559.5 570.4 581.5
273.1 256.4 245.8 258.8 287.6 317.9 332.7 329.7 315.3 291.8 276.4 264.8 234 199 186 175.2 159.5 147.2 124.7 93 68.8 38.4 32.6 35.3 29.3 28.7 26 46 57.6 70.3 81 94 107.1 126.9 142.7 152 161.8 182.6 209.7 238.4 257.2 271.7 278.4 288.7 312.4 315.3 312.7 308.1 312.3 310.6 313 313.2 310 305.1 309.9 306.5 310.5 313.4 316.4 318.7 313.8 308.5 305.8 300.8 303.2 301.6 299.1 294.2 283.9 272.1 260.7 246.9 229.1 219.5 205.7 199.5 191.1 186.2 181.6 176.9 176.9 173.1 165.5 157.9 148.6 139.7 129.4 120 113 110.6 112.7 120.3 130.6 148.6 164 183.8 202.2 211 221 227.1 235.8 244.4 255.6 273.9 291.4 302.5 295.1 292.7 286.5 283.1 287.3 279.4 266.3 251 232 215.3 196.6 177.3 163 142 124.6 113.7 96.5 86.8 78.2 65.9 61.5 61.9 68.5 78.9 94.5 101.5 105.5 116.4 131.1 145 159.9 188.2 194.2 206 220.9 233.1 243.4 254.6 273.9 292.9 304.7 314.3 327.6 337.7 344.4 356.3 365 370.9 377.7 388.5 410.3 441.3 459.8 476.8 502.4 516.5 534.1 545.6 562.6 569.3 579.5 594.4 604.6 613.6 619.1 621.1 605.7 587.6 570.5 555 535.1 510.6 490.8 473.9 460.2 450.6 448.8 444.6 435.2 432.9 431.4 429.8 432.4 435.2 435.6 442.6 450.5 457.8 468.5 483.3 503.1 523 540.3 557.6
249 233.8 227.4 253.8 279.9 306.7 316.4 306.2 301.1 274.2 256.7 248.4 217.9 193.8 175.5 151.2 126.9 117.4 101 77.5 52.1 30.5 29 32.2 26.9 24.1 30.8 40.7 51.3 66.2 87.8 104.2 113.8 126.7 137.1 153.7 164 185.9 216.4 236.9 252.2 261.3 266.5 281.2 296.8 301.7 301.2 297.1 299.9 302.5 301.2 303.2 305.5 301.5 297.3 298.4 297.7 305.8 304.9 305.5 309.5 306.8 299.9 296.9 292.7 295.5 296 289.5 277.2 258.7 244.1 230.1 209.4 200.2 194.4 187.1 183.4 179.4 175.3 168.8 164.5 159.3 152 146.6 142.6 134.6 128.1 120.3 112.4 109.9 113 116 131.7 150.9 169.7 194.1 205.8 212.3 223.1 229.8 242.8 252.6 261.7 286.7 297.5 299.7 297.7 295.6 294 301.7 288.8 274.7 264.4 248 233.9 216.4 192.8 178.5 159.8 140.1 125.4 108.4 94.3 82.6 75.1 65.3 61.7 62 66.7 75.3 83.8 98.8 109.2 134.1 142.4 154.9 171.7 184.8 199.2 211.3 225.9 232.7 243.8 259.2 280.3 301.2 311.8 323.5 336.1 344.2 349.5 363.6 367.8 374 380.6 394.7 417.4 440.5 460.5 478.8 504.9 522.2 540.8 556.1 568.7 579.5 584.9 599.9 610.4 624 622 620.1 610.7 590.4 568.2 548.3 530.4 501.6 483.6 475.1 463.4 453.5 453.8 447.1 444.8 435.9 427.2 420.5 424.3 424.8 427 430 434.9 441 447.3 461.9 474.1 490.1 509.9 528.9
227.9 212.2 222.6 249.3 278.5 296.9 298.8 297.5 276.6 258.2 233 215.9 200 180 171.4 149.3 124.9 93.1 74.7 63 41.7 26.6 24.5 26.4 22 24.4 39.1 48.6 53.1 65.9 97.9 115.1 120.8 125.5 133.1 147 166.1 187.4 206.4 221.2 230.9 238.9 250.3 260.1 266.1 267.1 279.1 285.4 296.4 295.7 296.8 291.6 295.2 298 291.9 291.6 291.7 293.1 297 305.2 303.5 301.6 298.8 286.7 283.4 289.8 286 280.3 268.6 246.8 220.9 209.2 190.5 178 177.8 167 166.3 163 158.9 151.7 148.6 143.1 136.3 138.4 136.3 130.3 123.8 117.9 111 111.2 114.9 121.8 133.5 152.7 167.1 182.9 202.4 218.7 224.6 236.7 251.6 258.2 273.8 294 305.1 298.6 292.8 297.6 313.5 299.1 282.5 276.9 263.2 245.8 231.5 213.2 186.7 172.2 151.4 135.3 118.2 107.9 93.6 81.4 70.9 64.5 61.6 60.8 66.7 75.9 92.2 99.9 113.4 134.7 141.1 162 177.2 191.3 204.2 216.4 228.6 235.9 246.6 267.9 286 305.9 316.8 335.2 339.4 347.1 358.1 365.4 370.8 379 386.3 404.4 424.9 450.5 475.2 491.9 508.5 531.2 546.6 556.8 568.8 583.9 588.9 599.5 613.6 622.1 625.9 626.7 612.8 596.7 571.1 550.9 530.5 514.4 488.4 481.2 470.5 459.8 458 460.3 452.2 443.7 430.1 419.3 416.3 417.9 419.4 418.2 420.2 423.4 429.7 438.2 448.5 461.5 478.8 499.8
199.2 193.4 214.4 251.9 284.1 289.9 289.3 281.5 262.5 247.2 215.4 190.4 172.7 166.2 165.5 136.3 105.7 88.4 66.9 44.8 31.9 24.8 21.5 19 26 40.7 49.5 52.7 57.9 75.3 101 111.4 114.5 116.5 129.4 144.2 158.7 173.8 187.9 203.2 207.5 220 230.8 243.9 257 265.5 283 288.2 289.5 312.6 310.5 302.9 291.6 291.6 291.6 291.6 291.6 291.6 295.7 297.4 298.1 297.5 292.7 283.8 282 277.8 275.6 265.6 250.6 232.6 208.6 184.6 168.8 158.9 150.5 144.5 141.2 137.5 132.2 126.5 126.1 125.9 125.4 128.6 131.9 127.4 119.3 114.2 111.3 114.4 123.4 134.2 143.2 156.9 175.8 192.6 204.1 215.6 227.9 249.5 262.3 263.3 276.2 286.3 290.8 294.4 290.7 301.4 308.3 297.7 279 271.7 259.3 241.5 223.4 202 178.6 159.1 145.8 132.4 119.7 107.6 97.9 84.5 71.4 69.6 61.3 61.6 65.4 74.5 86.9 100.3 112.6 130.3 141 154.8 172.6 193.9 211 219.6 230.4 242 253.6 272 287.8 305.4 320.4 327.5 339.4 345.3 357.4 369.9 375.9 383.9 389.7 409.9 436.2 458.1 481.3 499.1 513.3 532.2 546.4 561.8 573.6 584.5 596.7 603 616 623.9 632.3 628.3 613.6 595.8 578.6 560.2 537.7 513.8 498.7 485.9 476.7 469.3 465.1 457.2 454.9 450.2 438.4 425.1 418.1 409.7 412.9 409.7 407.9 406.1 410.1 413.8 424.4 433.6 450.3 472.9
176.1 191.4 211 246.8 274.7 278.5 277.7 258.9 240.9 230.7 203.3 174.6 150.5 138.6 140.6 117.2 89.1 69.1 57.9 41.2 27.1 21.8 20.3 20.8 38.4 47.5 55.9 55.3 65.9 75.1 91.2 101.5 103.5 108.8 121.4 135.9 156.1 173.7 191.8 209.2 227 243.2 268.5 273.1 272.6 271.6 286.4 287.6 285.8 308 311.6 310.3 300.4 296.1 297.3 297.3 293.3 292.3 292.8 294.6 297.4 299.9 292 285.7 282.7 272.7 261.2 250.1 233.1 214.9 191.1 171.4 153.6 140.7 131.7 121.4 115 113.7 114.5 112.3 113.3 115.6 117.8 119.8 123.5 121.1 113.3 113.1 112.8 124.5 135.3 149.8 164 173.1 178.9 195.5 206.9 218.2 234.4 257.1 262.6 257.6 264.8 277.6 285.6 287.6 283.1 296 301.4 287.1 277.7 265.8 249 236.6 216.6 195 172.5 156.8 145.1 132.4 121.9 108 90.7 81.7 72.3 67.7 61.2 61 64.6 76.1 87.2 96.6 111.2 125 148.9 160.7 177.1 200.3 215 223.5 235.8 251.1 262.1 278.8 291.7 301 316 328 338.4 348.1 359 371.6 378.7 389.5 397 418.8 444.6 467.5 489.6 498.2 514.7 531.3 548.9 566.7 578.2 593.1 605.8 608.6 622.3 631.2 637.7 639.2 625.4 609.7 581.5 563.9 550.4 528.2 515 499.5 492.4 482.1 471.4 460.6 451.7 445.5 434.7 430.2 420.5 414.2 403.5 403.4 397.7 390.1 389.6 391.4 399.5 408.3 426.7 447.6
178.3 192.3 211.2 230.9 250.8 263.8 266.4 242.8 223.4 206.7 187.3 159.2 138.3 123.2 102.5 88.4 70.3 58 43.9 31.5 20.3 19 16.3 32.9 41.3 46.6 50.3 54.8 60.1 71.3 87.6 87.9 104.1 123.1 142.2 158.6 171.5 187.7 208.5 238 263.4 275.1 280.2 279 270.6 274.4 285.1 284.6 284 304.3 308.4 313.4 307.2 295.6 301.4 301.8 299.4 296 291.4 299.6 295.9 294.9 285.8 280.6 278.7 272.9 266.1 246.9 219.3 200 176.9 163.2 147.6 130.8 115 101.4 91.8 98.7 101.5 101.4 104.4 107.1 109.2 111.3 112.7 110.1 102.7 109.6 125.1 136 153.6 171.2 179.5 184.8 193.8 197 205.3 223.5 237.1 241.4 248.4 252.1 260.4 269.5 273.1 274.2 273.2 284.4 284.2 281.9 272 264.4 249.3 229.4 207.5 185.1 167 157.3 143.8 136.8 126 106.5 89.9 78.9 69.7 64.6 60.7 60.1 65.1 74.6 90.5 101.8 110.5 129.2 143.4 156.3 180 206 213.5 235.4 245.2 253.2 266.6 280.4 298.7 312.7 322.1 333.5 344.4 354.8 371.4 375.4 383.8 392.9 403.6 425.3 450.3 470.7 486.1 501.5 519.4 534.6 549.8 569.4 581.6 599.6 612.2 614.7 625.3 631.2 640.7 644.4 629.2 617.8 597.6 573 562.1 554 544 517.6 502.5 490.6 478.3 466.7 454.7 440.6 427.6 422.7 421.1 418 407.5 397.3 391 375.5 372.4 372.1 378.6 389.4 407.3 422.8
185.3 208.9 222.8 229.9 240.1 238.6 235.6 223 206 190.6 169.8 145.3 128.7 120.3 99.6 78.9 58.7 43.8 34.9 24.5 18 16.2 19.1 27.3 37.7 50.6 54 56.9 60.7 69.6 76.2 91.2 109.5 132.5 161.3 177.1 183.7 203.9 227.5 257.5 288.9 294.7 277.8 269.6 265.6 268.9 274.7 276.2 281.1 299.5 310.6 309.3 306.2 297.1 297.7 301.3 293.2 293.8 294.8 298.6 299.4 295.8 280.4 273.8 267.6 256.8 244.9 231.7 217.1 193.7 169.5 155.8 141.2 122 100.1 85.1 81.7 86.2 88.5 91.4 96 98.5 100.4 102.5 104.2 101.2 100.6 119.5 135.2 155.6 179.5 186.6 183.1 190 201.2 204.8 205.1 225.1 237.6 240.4 249.2 252.6 254.5 258.7 261.7 265.8 267.7 283.5 282.2 272.4 263.1 258.5 240.9 218.7 196.5 175.4 161.3 152.8 144.3 139.4 126 107.8 92.3 79.3 69 63.5 60.1 60 64.1 70.3 91.7 99.9 107.2 122.5 140.5 158.8 180.2 199.2 223.7 238.2 251.8 259.1 269.3 287.6 303.1 316.9 329.1 339 350.4 363.7 373.9 378.7 389.1 399.8 407.1 430.9 457.2 473.9 493.6 506.3 525.9 536.1 553 563.9 581.9 601.7 608 614.1 620.8 635.2 641.2 644.5 633.1 614.1 597.5 582.7 583.3 564.6 543.7 519.4 504.9 495.9 480.5 470 460.3 447.1 434.6 421.1 418.6 412.8 407 398 388.1 375.3 359.5 357.1 359.3 371.5 386.3 400.4
181.5 197.2 215.7 219.1 230.2 240.6 231.4 224.7 204.2 179 158.9 136.7 118.6 110.5 92.2 75.4 51.3 37.9 27.1 21.6 15.4 17.4 27.3 33.9 44.2 53.2 57 58.7 63.2 71.5 81.2 101 120 152.8 180.3 185.6 194.3 215 234.4 256 280 278.4 269.9 267.8 258 267.5 267 269.4 270.4 291.7 311.9 305.5 304 299.3 294.4 290.1 287.7 291.7 290.2 292 303.6 298.6 284.9 277.1 265.8 251.8 235.1 221 200.8 178.2 154.9 144.7 133.6 110.3 89 78.1 76 77.6 77.9 81.7 87.5 90.3 91.9 94 96.6 87.9 104.5 131.8 151 169.5 177 190.2 188.7 192.8 209.7 214.6 211.4 215.5 230.6 235 241.3 241.1 249 253.4 256.6 256.5 259.7 282.4 277.5 268.1 258.4 244.9 229.6 209.4 186.6 171.5 159.2 150.6 144 137.9 116.2 106 92.3 78.5 67.4 62.3 59.1 62.7 65 68.9 86 97.2 111.1 119.1 137.9 162.9 180.6 203.9 225.4 242.8 253.6 268.1 280.2 298.7 310.1 321.9 332.5 347.4 359.4 372.1 375.2 381.8 394.2 404.6 423.1 443.9 458.7 479.6 495.7 510.5 526 537 554.9 568.2 581.9 596.7 607.9 615.9 622.7 632.5 645.2 642.3 631 619.8 601.3 585.1 575.2 556.7 536.9 523.8 505.9 497.1 483.6 478.7 466.1 450.3 432.7 420.6 415 405.2 402 392.8 383.2 374.3 358.4 341.1 342.1 358.5 373 391.7
182.7 188.3 200.6 204.4 208.3 229.6 219.8 215.2 200.6 167.2 150 132.7 115.5 106.4 89.9 69.3 47.4 33.6 24.1 14.9 15.1 15 25.3 33.2 48.2 59.8 62.6 60.3 64.9 75.8 92.7 117.8 134.2 160.1 189.4 207.5 220.5 230.7 236.4 241.5 256 263.1 262.6 253.3 245.7 247.5 256.6 257.7 253.9 278.4 307.5 303.6 299.5 296.9 291.2 288.5 287.8 292 288.3 286.4 291.9 295.4 282.9 275.6 260.9 235.5 219.6 203.1 182.1 161.5 147 135.6 121.1 103.5 81.3 72.3 70.4 72 72.3 76.2 81.2 85.1 86 83 88.8 95.4 123.3 150.6 160.5 167.6 177.8 182.8 194.3 204.4 209.7 215.1 219.4 222.8 228 231 236.8 235.6 245.5 249.3 252.8 249.5 249.6 271.7 265.7 259.6 244.9 230.2 213 195.8 183.7 170.3 159.5 146.9 138.9 130.1 113.5 98.4 84.1 73.3 64 61.7 55.4 63.5 70 70.4 79.4 94.9 108.5 123.3 133.4 159.3 182.3 210.7 234.2 248 261.9 275.1 293.8 305.9 320 325.4 340 354.4 367.4 375 381.4 389.9 399.6 409.3 432.9 454 467 480.6 500.8 506.3 524.6 538.2 556 568 581.2 594 601.6 612.8 621 630.6 637.9 643.5 636.9 631 609.8 580.2 562.8 537.8 515.7 508.5 496.7 489.6 477.3 468 464.2 445.6 421.8 415.2 406.4 406 400.8 384.6 369 355.9 348.1 334.9 323.8 343.7 353.6 372.7
167 177.3 195.5 192.4 184.9 203.1 197.6 186.3 171.7 148.5 143 126.9 112.3 95.5 82.7 56.5 38.5 29 22.1 12.1 13.6 14.6 27.6 37 53.6 65.9 65.8 65.5 72 91.7 112.6 123.3 144.5 170.5 193.1 217 236.9 248.1 249.6 240.1 237.2 243.2 245.1 238 233.9 232.7 246.8 248.7 240.9 260.3 288.4 297.6 297 294.8 289.8 290 288.6 287.5 279.7 276.8 282.1 285.9 275.7 258.7 233.9 221.5 204.9 184.8 164.5 151.2 136.6 122.6 107.4 92.5 79 68 67.1 69.6 72 75.6 79.4 80.7 77.7 89.9 98.7 109.5 136.4 149.6 158 173.4 186.6 197.2 207.8 216.8 219.2 221.8 227.5 230.1 233.9 235.9 234.4 237.3 245.1 247.8 249.3 245.5 243.4 253.6 252.6 248 235.6 212.4 206.6 189.6 178.3 164.9 155.8 141.5 134.5 115.7 102.4 91.7 79.6 68 62.9 60.3 58.4 62.8 71.9 72.6 80.5 95.5 114 124.5 138 161.5 188.3 217 237.3 249.7 265.8 285.4 293 308.6 320.8 331.6 345.1 361.3 373.1 381.8 387.1 394.3 405.8 413.6 436 454.9 473 484.8 498.1 506.2 525.1 538.9 558.6 569.9 583.6 596.9 607.5 613.7 621.9 629.2 632 638.3 648.7 640.1 612.3 581.8 553.6 533.3 506 493.2 479.4 467.2 460.2 451.2 444.1 426.8 410.2 403 397.5 398.8 391.3 382.4 370.2 355.4 337.5 325.7 314.1 326.2 344.5 358.7
156.5 164.8 179.9 176 163.2 159.1 156.8 161.3 156.9 133.1 124.5 109.9 90.4 84 70.9 49.3 35.1 26.4 18.8 10.3 12.8 16.9 25.6 36 54.8 61.4 61.7 68.4 84.1 105.2 120 127.8 153.7 184.3 203.1 225.8 239.6 244.6 255.1 245 233 226.2 231.8 229.3 221.7 222.5 224.3 233.1 238 252.1 269.6 283.9 286.4 291 285.3 292 285.3 274.2 274.9 275 279.3 268.7 252.9 234.8 212.8 197.7 182.7 165.7 154.1 139.3 122.9 107.7 91.4 77.9 73.1 65.8 65.3 68 70.3 71 74.2 75 86.1 97.3 106.5 120 143.9 165.3 178 181.9 194.1 208 218.4 227.6 238.2 238.1 234.7 237.1 238.2 238.3 236.8 235.7 238.9 246.3 248.9 246.2 242.1 252.5 252.2 243.6 230.2 213 198.4 186.8 173.5 161.5 147.3 131.6 120.1 106.3 95.7 84.7 72.3 64.8 62.1 56.5 58.4 62.7 69.4 74 79.2 96.3 114.1 135.7 140.9 169.5 197.4 221 238.6 253.7 272.7 287.1 297.7 309.6 325 344.6 354 363.7 376.3 385.4 390.5 398 406.9 422.9 442.2 461 475.4 489.4 498.8 510.7 522 539.2 558.2 573.4 584.8 601.5 611.4 614.5 624.1 624.7 629 631.4 643.5 638.2 618.2 579.2 553.1 529.5 516 492.4 475.7 463.3 448.6 436.8 427.7 413.5 401.5 393.1 390.3 387.5 382.1 378.3 371.7 356.8 338.8 320.4 309.4 313.2 325.7 341.8
153.2 145.9 165 159.6 144.2 130.4 117.4 110.5 120.9 114.3 102.8 92.3 80.6 71.3 67.6 43.4 26.8 19 12.8 9.5 13 16.8 23.6 41.2 45.1 54.5 59.2 75 91.8 107 120.1 132.1 158.5 187.3 203.9 236.5 244.9 243.5 254.7 249.2 236.4 225.5 218.8 226.3 224.4 215.8 220.9 217.7 224.4 234.6 248.8 274.2 272.2 284.7 273.6 273.9 272 259.8 261 264.1 258 251.9 241.9 227.2 207.6 193.4 171 156.4 141 123.3 108.4 95.6 82.4 73.1 66 60.8 62.9 64.8 67.2 75 82.5 88 94.9 104.3 115.5 125.2 148.3 169.7 173.4 180.9 194.6 212.3 227.8 233.9 247.9 248.7 245.4 245.3 245.8 241.3 240.3 239.6 237.1 241.7 247.1 247 243.7 254.4 249.1 237.9 223.5 208.3 195.8 179.4 170.5 156.4 133.8 120.6 110.1 99.3 89.4 78.4 74.8 66.3 61.1 55.9 59.5 63.4 67.9 75.2 85.8 100.3 127.2 141 150 174.3 203.7 230.6 243.2 261.9 278.3 290.8 302.5 312.9 331.5 348.7 361.8 368 375.2 386.7 393.1 400.5 407.4 432.7 449.6 462.9 480.4 489.7 503.2 513.3 522.6 540.6 556.1 566.5 583.5 603.9 616.4 620.4 623 622 625.3 627 632.4 627.7 609.4 586.2 559.4 535.3 516.1 504.2 483.3 457.6 445 431.5 416.6 408.3 400.3 391.6 385.9 376.8 374.8 371.7 369.5 354.2 337.7 322.6 307.7 299.6 315.2 325
137.8 136.7 128.6 138.5 125.6 110.4 100.5 98.6 79.9 79.5 84.1 81.6 68.5 51.6 47.3 28.2 20.1 12.9 10.6 8 11 20.7 20.3 31.2 41 49.5 64.2 76.7 90.4 103.7 114.7 133.5 161 192.9 203 233.9 242.9 245.4 246.6 246.8 235.9 230.9 219.9 212.8 214.4 216.6 211.2 207.9 212.3 215.6 232 243 251.5 263.7 257.9 248.7 249.3 248.3 243.1 246 240.6 236.1 226 213.7 197 178.8 155.7 138.5 124.2 108.6 96 83.9 72.7 65.4 58.9 64 67.5 69.9 76.7 86.4 95.1 103.1 112.4 125 134.5 139.9 151.9 159.8 169.4 178 192.9 210.5 226.1 231.2 239 246.6 251 252.4 253.1 249.1 243.1 243.9 238.2 239.6 242.7 238.9 244.3 243.2 244.2 231 215.3 201.6 188.5 175.5 161.3 143.6 129.3 112.4 101.9 93.5 84.2 78.4 75.5 67.3 62.6 54.4 57.6 64.3 70.1 82.6 94.9 105.2 131.7 145 157.5 181.6 206.4 242 247.8 265 284.6 296.3 308 321.9 341.8 356 370.2 373.3 382.1 389.2 395.2 400.7 412.9 435.6 451.7 463.5 475.4 490 503.5 517.3 526.5 546.4 555.5 570.2 590.4 605.5 612 618.6 617 618 625.3 630.7 626.9 623 606.4 584.7 552.1 524.9 505.5 488.4 463.8 447.5 434.8 424.8 417.6 405.9 396.1 385 379 368.6 361.4 364.4 360.5 346.9 333.5 317.9 304.2 291.7 295.7 318.2
119.6 122.7 111.1 106 105.2 90.9 82.3 75.4 62.6 60.3 62.8 55 44.4 35.4 28.5 20.1 14.2 10.5 8.8 8.4 9.6 11.9 15.3 29.7 45.7 58.4 64.8 74.8 85.5 97.9 117.8 147 163.3 194.8 203.6 226.1 243.4 239.4 236.9 231.4 231.1 230.6 222.3 212.8 201.9 208.7 206.7 205.2 205.3 206.2 221.3 227.7 227.6 238.6 240.3 235.5 230.9 232 218.3 223.2 217 212 201.4 188.7 171.6 153.3 134.6 121.9 109.4 97.8 85 72.9 66.2 58.7 62.3 67.5 73.3 78.8 87.6 100.5 113.8 120.1 128.4 139.7 149.7 152.3 160.9 164.4 170.9 181 191.1 206.7 220.1 227.5 232.9 245.1 253.5 260.3 263.4 257.9 249.2 243.1 242 242.2 239.4 234 244.3 241.5 237.4 226 207.7 193.5 179.1 163.7 153.3 143.6 126.2 102.3 91.8 87.4 80.4 75.6 69.5 66 61.2 58 55 65.4 75.1 87.3 102.1 113.3 135.2 153.9 169.8 191.8 216.2 235 253.3 268.7 284.4 297.7 311.5 336.2 347.9 356.4 371.2 375.6 386.4 391.3 394.2 404.6 417.3 435.2 450.1 464.1 478 490.1 503.1 520.4 529 545.3 556.5 567.5 586.7 596.5 608.7 605.6 606.6 611.5 619.7 630.6 629.8 626 600.3 598 556.2 531.2 506.6 478.5 453 437.6 428 417.4 409.5 401.8 389.7 373.9 362.8 358.5 349.3 350.3 353.8 345.7 330.1 314.8 300.7 286.7 285.8 305.7
99.8 104.2 97.8 87.4 93.7 83.5 71.6 62.1 47.9 53 54.1 40.2 27.6 24.2 20.7 16.3 10.2 8.7 8.8 9.2 10.2 12.5 19 36.1 55.4 80.6 81.9 77.9 82.4 95.3 114.3 141.9 159 182.7 192.4 212.3 234.9 231.2 227.7 224.4 221.1 223.3 225.3 215.2 200.8 199.2 209.1 206.8 205.3 203.8 207.7 212 214 219.5 223.9 229.3 220.2 217.9 198.6 198.4 200.5 192.2 181.8 168 146.4 132.2 121.1 109.9 96.9 85.5 73.9 66.9 61.6 58 65.5 74.5 81 89.7 101.5 116.7 130.2 130.6 139.1 151.4 148.1 152.7 155 167.7 172.2 182.9 191 205 213.3 222.2 230.3 254.4 262.1 264 262.8 257.6 249.6 244.4 242.4 237.4 236.6 230.3 249 240.4 235.2 221.7 202.1 188.1 174.5 159.9 149.4 142.4 119.2 96.7 80.9 81 77.4 71.5 67.4 63.1 58.6 51.8 59.4 69.9 82 94.7 109.8 122.8 144.5 163.3 181.2 197.8 216.6 233.9 253 268.2 284.9 303.4 322.7 340.1 356 360.1 368.2 378 383.2 389.9 398.1 404.4 419.1 433.7 448.5 465.5 476.6 489.8 505.5 522.2 530.7 539.8 554.7 569.5 579.7 586.8 598.1 594.4 600.5 607.8 618.5 623.5 628.8 619.1 604.1 591.5 561.9 536.4 499.9 477.6 459.4 441.6 416.1 402.3 394.8 388.2 374.9 364.8 347.1 341.7 335.8 329.7 336.9 336.9 325.7 306.9 294.7 282.8 271 286.9
85.5 90.5 86.1 78.5 84.4 75.6 63.3 54.8 42.9 49.7 41.3 26.6 19.7 17.6 14.4 11.2 8.4 7.8 7.7 7.6 9.7 24.9 35.4 41.4 58 80.1 78.4 73.2 76.7 90.1 109.7 135.9 153.4 173.7 189.5 204.6 225.6 228.6 224.8 225.7 220.8 218.1 222.5 216.7 209.6 194.7 197.1 209.6 207.7 201.4 203.3 204.8 210.3 214.1 214.4 212.9 208.3 194.4 186.8 183.5 181.8 176.9 163.5 146.6 131.7 119.8 110.1 97.8 85 74 66.2 61.9 59.9 60.9 70.9 83.8 97 110.7 115.9 124.1 136.8 135 150.9 153.3 146.8 151.8 152.3 162.5 172.5 178.5 197.9 207.2 211.3 221 227.6 247.5 275.8 270 263.2 259.1 248.9 244.8 242.5 237.7 230.3 222.1 241.4 232.8 227.3 216.9 200.3 186.7 168.5 159.4 143.2 129.8 109.8 93.5 80.1 73.9 72.4 65.5 62.1 57.1 50.1 55.5 63.3 72.5 89.8 103.7 111.2 129.4 146 165.8 184.3 201.8 222.2 237 258.2 283.2 294.2 309.7 326.6 341.9 349.2 359.7 367.9 372.4 381.4 387.8 396 401.5 420.4 435.2 450.8 466.2 476.6 493 507.4 517.5 532.7 544.4 563.1 568.2 576 582.5 591 599.9 607.1 610.6 614.2 618.5 620.3 618.1 605.7 586.8 558.9 529.3 509 485.1 461.8 439.3 416.8 394.4 382.9 377.6 364.7 346.9 333.9 322.8 316.7 310.6 313.7 314 308.5 298 285.5 277.7 264.2 284.5
