ncols 200
nrows 83
xllcorner 300000
yllcorner 191600
cellsize 50
397.9 389.4 385.1 387.1 381.8 377.3 369.5 355.4 341.5 333.5 324.6 315.8 306.7 297.9 292.5 280.6 269.8 257 241.1 229 220 209.4 199.7 194.2 176.7 179.7 202.9 228.3 250.5 264.5 287.2 305 317.2 334.4 352.2 381.9 391.3 402.2 413.1 413.3 408.1 408.5 410.3 409.6 408.1 405.2 401.5 397.8 393.8 388.2 381.8 374.7 367.4 360.6 356.2 351 343 336.9 327.8 320.9 314.5 316.7 325.1 325 316.8 313.2 314 328.9 344.1 349.8 353.1 353.2 354.1 355.9 355.9 351.5 347.7 342.5 336.6 329.7 325 318.1 314.4 313 312.5 315.3 315 312.3 298.9 286.6 277 268.9 260.6 252.9 244.3 239.8 237 234.5 231.8 227.5 222.8 215.3 204.7 192.7 179.4 167.5 176.9 189.1 200.2 210.9 219.8 224.5 230.9 236.9 243.7 249.7 252.8 255.7 260.1 266.1 270.8 276.4 283.4 290 289.1 287 284.4 282.3 278.9 275 270.4 266 262.4 258.6 252.2 252.3 249.9 245.3 245.4 241.3 235.8 225.9 203.6 188.1 180.1 170.5 164.7 155.9 147.6 140.7 128.3 116.1 108.1 100.2 93.1 86.2 85.3 84.6 84.1 83.5 91.2 98.2 109.4 118.4 132.4 142.7 151.3 159.6 164 166.5 167.6 169 166.8 162.6 154.8 149.6 144.4 139.9 135.1 128.6 122.2 115.2 117.8 114.8 92.7 88.5 99.2 108.9 108.7 98.7 111.8 124 131.8 136.4 140.9 145.6 150 151.9 153.4 154.4
400.2 393.8 387.4 388.5 385.3 380.9 376.7 368.9 351.8 335.6 326.1 320.3 310.2 299.9 292.1 281.9 273.9 263.2 247.5 233.4 220.2 207.3 198.6 192.7 179.4 175.6 196.4 222.1 243.5 260.9 283.5 302 312.7 332.1 352 383.4 391.2 413.5 433 430.4 419.2 407.7 408.8 409.6 408.3 406 402.4 399.5 396.5 391.8 386.5 380.1 374 365.9 362.4 359.3 356.3 352.1 336.6 328.7 322.8 318.4 326.7 332.2 320.5 313.8 313.1 318.7 333.1 344.7 348.9 351.7 349.6 351.8 353 351.6 348.6 344.2 337.9 331.2 325.6 319.4 312.1 309.4 307.8 308.4 307.8 308.6 302.2 288.7 279.5 271.6 263.3 254.6 246.3 241.2 237.9 234.8 230.2 225.4 220.2 217 209.1 197.3 182.7 170.4 171.9 183.4 193.6 207.7 218.3 223.3 227 231.6 239.2 245.1 250.1 253.4 257.7 262.5 267.4 272.8 280.7 289.1 289.6 287.6 285.6 283.6 281 277.3 273.8 268.5 263.7 259.5 257.1 254.6 252.2 252.8 255.7 256.6 255.7 247.9 226.3 200 188.6 182.5 182.8 172.8 157.9 146.8 139.1 129.9 118.9 109 99 88.8 84.5 84 84.2 83.1 83.3 90.3 100 105.2 110.7 124.2 134 140.4 146.8 153.8 156.9 157.9 158.9 151.4 146.5 143.8 144 139.1 134 120 120.7 120.2 119.4 117 97.8 82.1 97.4 109.4 113.8 115.1 112.2 109.7 119.7 127.7 132.9 139 143 146.8 150.3 151.5
400.6 396.4 389.3 387.9 385.6 382.4 377.9 372.1 363.4 345.8 331 319.7 310.6 301.7 291.2 281.3 273.8 264.8 249.7 235.7 221.5 205.5 197.5 191.3 180.1 173.3 192.3 218.1 240.1 258.1 278.7 299.2 312.9 328 351.8 383 395.2 419.9 442.8 444.8 434.4 414 406 407.9 407.3 405.6 403.1 400.8 398.9 395 389.5 382.1 373.9 369.5 367.1 366.2 362.9 358.3 351.3 335.5 331.6 321.5 322.8 330.6 325.1 313.1 310.7 311.9 319.3 334 343.4 347.4 347.2 347.5 347.8 347.3 346.4 344.2 339.4 333.3 326.2 320.3 312.4 305.5 304 303.9 303.2 302.5 300.5 290.3 280.7 274.2 265.6 256 248.3 242.2 238.8 234.4 229.1 223 217.6 214.8 208.5 198.4 185.4 170.2 164.7 180.9 192.3 205 217.5 222.5 226.1 230.2 237.5 243.2 247.8 250.5 255.1 259.5 264 268.8 279.2 287.1 290.4 288.3 286.4 284.6 282.2 278.7 275.3 271.7 267.2 262.8 259.2 257.9 256.9 257.5 265.5 272.5 273.2 268.7 248.5 223.1 197.9 190.8 190.9 182.4 171.8 158.2 146 140.2 132.6 120.8 108.1 97 86.1 84.5 84.2 80.3 83.4 87.8 91.1 99.8 102.8 108.8 115.9 126 132 137.4 142.4 142.7 144.6 141.8 139 135.8 135.8 132.5 119.8 119.7 112.3 119.7 121.4 120.3 100.5 82 100.7 117.3 127.9 131.5 127.3 115.5 112.7 117.1 124.9 132.3 137.1 140.9 144.6 146.8
399.5 395.9 391.9 389.7 388.6 386.3 381.1 373 365.4 351.9 336.6 322.5 312.2 302.2 292.7 281.9 273.2 262.9 251 236.4 221.5 206.3 194.5 188 176.4 173.2 194.4 216.8 236.7 256.5 278.2 298.8 309.3 323.5 355.5 378.4 394.5 418.4 436.9 445.9 443.5 418.2 404.4 405.6 406.2 404.4 403.5 401.6 399.6 396.3 391.3 383.5 374.7 371.6 371.1 371.4 369.7 364.5 358.3 351.3 334 326.2 321.2 324.8 324.7 314.4 307.2 307.5 309.3 318.9 334.3 340.7 343.5 343.6 343 341.3 340.8 341 339 335.4 327.8 321 313.7 305.4 299.8 299 299.9 299.6 298.1 290.8 282.2 276.2 267.4 258.5 250.3 243.3 238.7 234.1 228.5 221.7 215.7 208.8 202.5 197 185.4 170 160.8 179.5 192 203 214.1 220.9 224.4 227.7 237.6 241.5 245.5 248.5 252.3 255.9 259.1 264.9 276.2 285.1 290.9 289.3 286.9 285.8 283.5 279.9 276.3 272.8 270.8 266.7 263.4 262.1 260.2 261.1 271.1 276.9 280.2 277.5 267.1 248.1 221.8 196.1 188.6 183.3 173.3 166.3 155.5 151.1 143.7 129.3 123.2 108.2 95.8 83.6 83.8 83.8 81.4 83.6 86.6 91.2 96.5 100.8 105.5 113.2 117.5 123.1 129 131.6 132 131.9 129.9 130.8 122.9 126.2 124.7 121.5 118.1 121 121.1 117.8 97.3 81.8 110.4 132.8 135.4 135.2 138.6 136 122.8 115.7 117.4 125.2 130.4 134.9 138.6 142.7
399.3 397.1 394.7 392.8 392.3 388.5 381.4 372.4 365.4 355.7 341 325.3 312.3 303 292.8 282.8 271.8 263.2 249.7 235.8 219.5 203.4 191.1 185.6 172.4 173.6 195.4 216.6 236.3 255.6 277.2 296.8 307.3 321.3 347.4 369.1 388.8 404.3 421.6 431.7 432.9 412.7 402.6 404 404 403.9 403 401.8 399.8 396.6 391.5 382.7 375.2 374.2 373.8 374.3 372.4 369.1 364.1 358.9 349.5 327.3 321.2 320.7 320.2 314.5 306.5 304.6 305.9 306.2 320.5 332.5 336.5 338.5 337.9 336.4 334.8 334.8 336.4 334.3 329.1 321.9 314.9 306 298.3 294.6 295.4 296.5 295.1 291 284.9 277.8 269.4 260.9 252.7 245.1 239.4 233.8 227 219.7 212.7 204.5 197.7 191.2 184.5 169.6 159.6 176.6 190.7 199.9 209.8 217.7 222.3 225.5 232.9 238.8 242.2 244 247.3 250.8 255.6 261.6 271.9 284 289.8 290 287.7 286.4 284.9 281.2 277.5 274.6 272.4 269.3 266.3 263.8 263.3 266 272.5 277.8 280.6 280.5 274.6 269.2 247.2 219.1 203.4 196 183 166.9 156.9 155.8 150.2 139.2 132.4 119.2 105.9 92.2 83.7 84 83.5 82.5 80.7 84.6 86.1 95.5 99.9 103.9 111 115.3 119.3 122.7 123.4 124.5 124.7 127 128 124.8 123.3 120.8 117.2 116.1 114.5 101.9 86.4 92 119.5 137.6 137.2 161.8 155.2 147.8 139.6 127.7 120.4 118 123.5 128.6 133.9 138.5
399.4 398.7 396.6 393.9 391.2 386 379.7 373 365.2 357 343.9 326.6 313.3 302.9 292 281.5 271.4 260.5 245.5 231.4 213.1 197.4 186.9 183.9 169.3 172 198.5 216.6 236.2 255.5 278.6 294.8 304.4 320.3 343.5 358.9 375.6 391.6 405.4 404.4 407.9 397.1 398.1 399.9 400.8 402.1 402 400.9 398.9 396.7 390.9 382.6 376.2 375.3 375.7 376.8 374.8 372.2 367.6 361.8 354 339.6 322.5 317.4 315.9 313.1 306.8 303.5 302.3 302.6 305.6 316.3 325.8 329.7 331.5 332.1 330.2 329.9 329.3 331 327.9 323.1 316.9 307.2 298.6 292.5 290 291.3 291.6 290.2 285.4 278.2 270.3 263.6 258.1 249.6 241.1 233.8 227.3 219.4 210.1 201.7 196.3 185.1 181.1 167.7 160 174.3 187.6 195.9 204.9 213.9 219.8 222.7 228.6 235.5 236.8 237.8 243.3 247.8 252.9 258.8 267.1 283.9 288.6 289.7 288 286.7 285.3 282.5 278.6 275.8 273.3 269.9 267 265.8 266.3 267.7 271.8 276.1 278.9 280.2 276.7 271.4 265.1 248.6 240.7 230.7 210.3 188.9 167.2 153.5 153 144.6 139.7 128.4 113.7 103.8 93.6 83.7 82.8 82.2 82.1 79.5 85.3 94.4 96.8 100.1 102.8 107.9 113.2 116.1 116.5 118.2 121.6 126 128.1 123 119.7 115.9 121.2 107.3 94.3 84.1 84.1 105.1 126.3 147.8 162.4 166.6 162.3 158.8 153.1 145.2 134.1 122.9 119.2 122.2 127.7 134.2
396.2 395 392.7 389.7 388.1 382.9 376.6 370.2 363.4 355.4 340.4 326.2 311.4 300.8 287.8 278 268.3 255.4 238.8 227.1 210.4 192.9 182.7 180.4 164.5 182.4 203 220 237.9 258.9 280.7 292.8 301.9 315.1 332.8 355.5 364.5 380.9 388 390.7 390.7 388 393.5 397.7 400.3 399.9 398.9 398.7 397.4 394.2 389.7 382.6 376.6 376 375.5 374.5 373.5 370.9 366.8 362.7 355.6 346.4 325.9 316.8 312.7 310 307 302.3 300.2 300.6 301.5 302.9 310.7 318.8 322.9 325.8 325.7 324 323.2 324.3 325.9 324.1 319.1 310.4 301.4 292.5 288 285.7 287.6 286.4 283.8 278.8 271.2 264.6 260.3 251.6 242.5 234.2 227.2 218.9 208.9 204.9 202.6 189.4 177.5 170.3 159.3 167.1 182.2 190.9 199.4 207.5 214.2 218.5 223.2 228.5 229.9 236.5 242.9 247.3 252.4 257.1 262.5 282.8 286.9 289.2 288.2 286.9 285.7 283.4 279.9 277 273.8 270.4 267 266.2 267.2 268.7 270.7 273.3 276.1 277.2 275.6 269.6 264.8 259.1 248.6 241.9 231.2 210.3 189.8 167.2 152.6 148.4 144.6 137.7 127.6 112.7 103.4 94.3 83.9 82.6 82.1 81.4 82.1 85.9 96.6 97.2 102.3 103.1 105.6 109.1 112.6 115 118.8 123.9 121 115.4 126.6 114.5 109.3 95.5 85 83.1 90.3 111.6 134.4 154.2 167.7 168.6 166.3 163.5 159.4 154.7 147.3 137.2 126.1 120.3 121.9 128.7
388.6 387.1 386.1 385.8 384.4 378.9 373.1 366.7 360.2 352.2 340.3 323.5 307.7 295.6 286.6 275.2 264 247.4 232.2 216.2 199.7 187.7 182.4 173.5 169 185.1 205.4 222.5 241.4 256.9 282.2 290.6 300.3 310.8 324.6 335.7 350.4 370 366.2 367.1 372.4 380.8 388.9 394.4 397.1 397.8 398.2 397.4 395.9 393.1 388.5 380.9 376.6 375.1 375 372.8 370.8 367.1 363.4 359.4 355 348 334.9 319.9 313 309.5 306.4 301.9 299.1 298.1 298.5 299.1 299.9 305.7 313.9 317.7 320.6 317.4 317.1 317.9 320.5 324.2 320 312.9 304.8 294.6 286.5 279.7 280.4 280.4 279.2 275.8 270.2 263.8 259.9 251.8 240.7 232.8 225.6 218.9 208.5 211.2 201.3 189 182 171.3 161.8 160.8 172.3 182.7 191 200 209.2 214.1 218.4 222 225.5 232.8 240.9 246.3 251.6 255.7 258.6 277.5 285.4 287.5 287.6 286.5 285.2 283.5 280.5 277.5 274.3 270.9 267.9 267.2 269.2 271.8 272.2 270.8 272.4 274 269.8 264.2 260.8 257.6 249.2 244.4 240.9 224.4 203.3 188.7 176.7 159.6 150.5 145.6 139.2 125.7 112.8 102.9 98.1 84.4 81.5 81.4 78.8 82.6 83.7 89.6 100.2 101.7 102.9 104.8 110.1 110.5 115 117.6 114.9 121.7 122 113.2 98.1 87.4 80.7 88.1 104.7 123.2 139.5 162.6 169.5 168.4 167 165 162.6 157.7 153.3 145 136.6 126.3 121.1 123.5
382.1 380.9 380.1 379.5 378.2 372.9 367.1 361.9 356.5 349.7 338.1 320.8 306.3 293.1 284.6 270.9 259 241.3 223.2 207.5 193.6 184.1 181 166.9 171.4 187.4 207.1 224.6 241 262.2 284.2 290.9 299.8 309.9 319.4 327.5 332.2 338.8 346.3 351.3 355.1 371.8 382.4 387.9 390.5 393.8 396.9 398.1 395.2 390.2 385.8 379.5 376.6 374.7 373.2 370.6 367.6 364.2 360.9 357.7 353.2 347.4 336.9 325.5 316.8 310.8 305.7 301.6 298.7 297 297.1 298.1 297.7 296.7 302.2 308.9 312.8 312.7 311.1 312.1 314.1 320.6 320.5 314.5 308.1 299.8 289.7 281.3 275 272.5 271.2 269.3 266.2 261.5 258.6 251.6 240 230.8 224 216.6 206.9 198.6 190.3 185.9 181.3 173.5 168.3 157.8 165.2 175.9 184.8 193 201.2 208.4 213.3 217.9 223 231.2 239.6 245.6 251 254.4 257 272.2 284 286.8 286.8 285.8 284.2 282.8 280.2 277.4 274.6 271.6 269.2 269.1 271.6 275.8 274.4 271.4 269.3 267.8 267.2 262.9 261.1 258.9 246.7 240.4 236.5 227.2 207.7 200.2 193.5 185.5 171.8 156 149 139.8 123.9 112.9 102.4 96 82.8 81.7 81 82.1 82.6 83.3 88.2 99.2 100.2 103.2 105.1 106.8 112.8 111.8 113.5 114 110.9 104.8 92.1 80.2 86.5 97.2 114.6 130.1 150 168.3 170.7 171.3 169.7 167.7 165.1 160.2 156.8 154.3 144.1 133.2 125.4 123.4
374.7 375 373.9 373.4 371.1 366.8 361 356.5 349.6 344.6 336.7 318.8 305.1 290 271 263.5 252.3 238.4 218.8 204.9 193 182.6 173.7 162.7 168.5 183.9 209.4 225.1 242.6 265.8 283.7 289.3 298.4 308.3 316.1 323.1 327.8 331.1 333.5 337.3 346 361 374.3 382.2 385.6 388.7 393 392.8 390.2 386.9 384 379.7 378.3 375.5 372.4 369.1 365.8 362.3 359 355.7 350.1 345.4 337.7 327.1 319.5 312.7 307.9 304 300.3 297.5 294.9 296.7 296.1 293.9 293.3 299.7 305 307 304.4 306.3 308 312.7 318.2 315.4 309.6 301.8 292.9 282.4 275 269.3 261.6 263.6 260.4 257 254.4 249.3 241 230.7 221.7 214.9 205.1 197 187.8 189.4 182.7 173.3 168.3 156 159.8 169.7 177.5 184.5 191.7 199.7 203.6 214 221 228.9 236.9 244.5 249.7 253.5 255.3 265.1 280.5 285.4 285.7 284.7 282.9 280.7 279.1 276.6 273.8 270.8 269.6 270.1 272.9 280.1 279.3 275.5 271.1 267.1 261.8 258.1 254.5 250.9 243.1 235.4 227.6 219.3 209.9 204.4 199.7 193 184.8 174.6 161.7 153.3 139.9 123.3 112.5 101.4 95.4 81.7 80.9 80.9 81.7 82.7 83.2 93.5 98.6 103.7 103.7 107.2 107.1 107.9 106.4 107 107.3 99.4 86.9 84.4 91.1 110.2 124.2 138.5 159.6 169.7 173.5 175.9 172.8 168.9 166 162.4 158.4 155.5 149.4 140.2 133.2 127.2
366 366.9 367.5 366.3 364.3 360 355.1 348.7 344.8 339.6 333.2 320 299 282.7 267.7 260.1 249.9 234.9 214.7 200.6 188.6 182.5 169.7 167 168.1 188.8 211.2 226.3 246.8 268.4 282.6 288.5 297.3 304 310.1 318.3 323.7 327.7 329.4 331.1 335.5 349.3 363.5 374.8 379.6 382.5 385.3 385.7 384.7 384.1 383 380.2 377.8 374.6 371.5 368.3 365.1 362 357.8 353.1 346.3 340.4 335.2 328.8 322.1 315.8 311.8 306.9 303.3 299.5 294.8 292.4 294.7 293.1 289.9 290.2 296.3 298.6 299.3 300 300.7 303.8 312.3 313.3 310.1 302.2 294.2 283.7 274.8 269 264 258.5 251.5 252.9 250.2 247.1 241.5 234.8 221 212.1 203.4 194.6 187.4 188.4 185.4 177.8 169.4 161.3 155.3 159.9 172.7 177.8 185.6 191.8 196.6 208.3 217.8 224.9 234 243 248.3 252.3 253.9 257.6 272 282.7 284 283.2 281 278.1 276.5 275.4 273.1 270.5 270.2 271.5 276.8 284.1 284.9 283.6 278.1 272.7 267.5 262.7 256.4 250.6 245.4 238.2 228.6 218.1 210.8 206.4 202.8 197.6 189 180.5 171 159.1 150.2 133.9 120.2 105.6 99.5 93.7 80.8 78.2 81.6 82.2 85.6 95.7 99.2 101 102.9 101.3 104.6 105.1 104.6 97.3 95.1 87.2 78.9 89.2 103.7 119.4 133.6 151.6 165.8 172.4 176.7 177.3 175.6 172 167.6 164 161.3 158.4 152.9 145.9 140.3 134.2
357.7 358.9 359 358 356.8 352.7 348.8 343.9 338.3 333.3 327.9 321.5 290.7 282.6 270.9 255.7 248 233.1 209.6 196.4 186.1 184.4 163.7 167 167.3 194.5 211.5 227.8 247.6 270.9 281 288.4 294.9 299.3 306.5 312.5 319 323.3 324.5 325.7 329.3 338.8 351.8 363.6 372.1 373.1 375.8 380.2 381.9 382.7 381.8 379.4 377.3 374.1 371.7 368.9 365.5 362.8 360.1 355.7 348.7 342.7 338.4 333.7 327.3 322 316.7 310.2 306.3 301.3 296.2 292 290.5 292.6 289.4 286.6 285.8 289.4 292.7 294.7 294.5 297 302.8 307.4 308 301.9 294.3 285.8 275.4 269.3 264.6 260.4 256.4 248.4 246.5 242 240.4 236.2 222.6 210.9 202.6 194.9 188.5 181.1 185.1 179.1 171.4 163.9 159.2 154.2 160.5 172.5 178.7 185.2 190.5 200.3 212 218.7 226.5 236.8 245.6 251.2 253.3 255.4 260.7 272.3 282.1 281.4 278.7 275.6 273.6 272.5 270.9 270.4 271.1 275.1 282.2 288.7 290.9 289.5 286.6 280.4 275.6 271.8 266.5 260.8 253.1 244.4 232.1 220.7 211 205.6 202.8 199.3 191.9 183.4 174.6 162.2 149.8 136.6 124.1 108.1 101.1 96.2 85.5 80.4 81.2 81.8 84.5 93.2 96.3 97.3 101.2 91.7 91.4 93.3 85 80.7 78.8 82.7 91.6 106.3 123.2 136.8 146.5 158.2 170.1 175.3 177.8 178 176.7 174.6 170.4 165.9 163.1 160.9 157.3 149.5 144.5 139.4
349.6 348.8 348.9 348.2 348.7 346.5 344.8 342 333.8 327.8 322.2 316.1 304.7 275.8 264.3 252.8 243.7 231.3 211.9 192.7 185.5 183.2 162.7 171.9 174.7 195.9 211.5 228.6 250.7 270 278.8 289.5 292.6 296.5 302.2 307.2 313.7 317.9 319.8 320.9 322.5 329.1 339.2 350 359.7 365.1 369.1 375.3 379.1 379.8 380.4 379 377.3 373.4 371.5 369.6 367.3 365.2 362.6 358.1 352.3 346.2 341.9 337.1 330.9 326.6 322.3 315.7 308.7 302.4 297.2 292.4 286.5 289.4 288.9 284.9 283.5 284.4 285.9 289 289.6 289.9 294.6 301.8 304 300.4 294.5 287.7 277.9 270.1 264.8 260.2 255.7 249.4 239.5 237.6 234.9 232.4 228.5 212 204.1 195.8 189.4 183.7 179.5 177.3 172 176.7 162.2 154.6 152 165 172.9 178.5 185.4 192 204 213.1 220 230.1 242.8 250.2 252.1 252.9 255.5 259.9 269 276.2 276.1 272.8 270.5 269.4 269.7 270.3 272.4 279.2 286.4 292.8 296 295.1 291.7 286.4 282.2 278.5 275.3 270.1 263.2 251.2 233.8 222.7 211.7 205.6 201.8 198.4 194 183.7 174 162.8 149.1 135.9 122.7 109.7 101.2 97.9 87.3 82.9 81 82 88.5 90.5 94.5 96.3 85.4 79.7 83.6 85 89 89.8 96.3 105.2 111.6 123.7 136.4 148 153.5 163 172.1 177.3 178.6 178.3 177.4 175.1 172.2 167.5 164.4 162.4 158.7 154.6 151.8 146
342.3 340.4 339.1 338.6 340.8 339.7 336.9 332.5 328.5 323.1 316.5 310.9 304.6 279.9 257.8 246.7 238.6 228.2 204.7 192.6 184.1 182.5 166 165.1 183.6 199.1 212.7 229.8 254.8 268.2 282.7 290.1 291.5 292.5 297.3 302.8 308.2 312.3 314.4 315.4 316.1 318.9 328.6 337.8 349 359.8 364.5 369.6 372.6 376.4 378.8 379 377.6 373.8 371.4 370.5 369.2 366.5 363.3 359.8 355.1 348.8 343.4 338.4 334.1 330.9 328.2 321.1 312.7 304.9 299.6 292.8 286.7 286 288.1 284.6 282.1 280.2 280.8 283.4 284.3 284.5 286.5 294.6 298.7 297.3 293 287.7 280.2 271.1 264.6 259.3 254.5 249.2 244.6 235.7 228.4 224.7 224.7 212.1 204.1 194.9 189.5 184 180.5 172 165 163.1 161.3 153.2 150.7 160.6 168.2 171.9 179.8 185.2 195.3 207.5 214.8 224.2 239.1 247.9 250.9 253.1 254.5 254.8 257.7 263.6 268.4 269 267 266.1 268 270.6 274.1 281 288.8 295.2 299.7 300.5 297.9 293.1 288.7 286.5 283.3 278.9 272.2 260.7 243 227.1 215.5 207.9 202.3 196.6 191.6 181.8 169.8 155.5 133.2 126.4 114.7 104.8 100.1 97 87.3 84.4 78 87.9 88.8 90.6 94.2 84.5 81.5 87.5 96.1 101 105.4 107.8 110.9 113.2 122.5 134.1 143.6 150.9 157.4 166.5 175.4 179.5 180.8 179.9 177.5 175.4 173 169.8 167.1 164.4 162.6 160.1 156.7 154.3
336.1 332.3 331.1 331.3 332.3 332.5 329.9 327.1 322.1 316.9 311.4 306.1 300.7 280.1 251.4 240.2 232.3 222.5 208 191.2 183.9 174.7 162.9 168.2 189.6 202.2 214.2 234.2 257.4 270.7 284.8 290.1 289 288.8 292.1 298 301.9 305.7 307.9 309.1 309.9 313 320.4 329.5 339.2 352.7 359.7 363.1 367.8 373.2 377.3 379.9 379.6 374.8 371.8 370.9 368.5 366.5 363.6 360.5 356.4 351.4 346.4 341.4 337.1 335.1 334.5 329 319.8 310.7 305.1 295.7 287.5 281.3 286.5 285.1 281.9 279.1 276.2 278.2 279.4 280 280.2 285.3 293 293.7 290.7 287.1 280 272.3 264.3 258.8 253.5 248.8 243.7 237.1 230.7 224.9 219.4 213.5 208.5 199.5 193.5 191.7 183.9 175.3 161.6 160.5 156.3 153.3 151.5 161.4 163.6 165.2 173.2 179.5 188.3 200 208.9 218.7 233.8 244.4 247.8 251.5 253.2 252.9 252.2 253.6 258.8 262.4 261.8 260.5 265.7 269.9 274.7 282.6 290.9 296 301.1 304 302.9 300.3 297.4 295.4 292.1 288.1 280.2 270.9 253.7 236.1 220.3 209.6 202.5 196 187.5 176.7 162.2 143.8 121.4 111.3 101.9 97.3 93.5 87.1 85.9 84.7 83.5 88.6 88 90.4 76.8 87.3 88 91.9 103.3 105.9 103.7 108.7 109.9 120.6 127.8 139.1 146.5 153.4 161.2 171 180.1 181.6 183.2 182.5 179.9 176.8 174.1 171.7 169.8 168.2 167.5 164.6 162.5 161.9
328.3 324.7 325 325.2 323.9 324.4 322 319.9 316.9 310.6 304.9 304.6 292.4 277.7 247.9 234.1 228 217.5 204.3 189.2 180 167.5 159.7 179.6 191.9 202.3 217.3 239.4 257.4 275 288 288.2 284.3 283.6 286.4 292.2 296.4 300.1 302.3 303.6 304.9 307.8 311.4 321.6 332.3 343.9 353.4 359.1 364 370.2 375.3 377.5 376.7 373.6 372.1 369.8 367 365.6 364 360.8 357.3 352.3 347.4 342.5 338.7 336.7 335.2 331.1 323.5 314.7 308.6 298 287.8 279.7 284.5 284 281.9 278.8 274.2 274 275.6 276.4 276.2 278.2 284.9 289.1 288.1 284.1 278.6 271.5 264.5 257.9 251.5 247 242.2 237.4 229.9 225.1 221.3 215.3 207.1 198.1 192.4 177.9 174.1 177 174.5 171.8 166.6 158.7 149.1 148.7 156.4 160.2 166.4 175.3 183.7 192.6 202 210.5 221.3 235.3 244.1 250.9 250.6 249.8 249.2 248.2 249.6 253.7 255.8 252.4 259.5 269 274 280.2 290.4 296.9 302 306 306.3 307.1 305.9 305.6 301.8 295.4 286.8 277.3 264.7 248.9 231.6 215.8 205.3 195.4 183.1 171.1 157.4 140 115.4 103.2 93.8 90.7 87.2 86.4 85.3 84.3 77.6 87.7 85.7 82.2 86.5 88.2 102.4 101.9 99.4 103 109 109.3 115.2 122.1 131.2 141.7 150.1 158.7 167 176.8 184.2 185.3 186.1 185.4 182.9 179.8 177.5 175.5 172.9 170.1 170.9 169 167.1 166.6
322.5 320.1 319.5 318.6 317.7 317.8 320 314.2 307.4 307.2 300.9 292.9 286.7 274.6 243 231.2 222.3 214.9 199.4 186.5 170.3 161.4 179.6 187 194.5 205.8 222.6 237.7 258.7 279.6 286.3 284.2 278.8 272.2 279.2 286.5 290.6 293.2 295.9 298.7 300.7 302.4 305.9 315.5 327.1 338 347.9 355.3 360.8 366.6 371.8 374 374.2 372.6 370.4 368.5 366.5 365.4 362.7 359.9 356.8 352.8 347.7 343.2 339.2 336.3 334.4 331 325.1 317 311.2 302.6 289.8 277.6 281.1 280.2 279.2 278.3 275 270.7 271.6 272.8 273 274.9 277.6 281.3 283.9 281.3 276.6 271.3 264.5 257.1 249.2 244.3 240.3 235.5 229.6 222.6 220 214.2 205.8 193.9 182.9 182.8 187 185.6 182.8 178.7 171.3 164.6 157.6 149 142.9 148.6 157.2 165 175.2 185 194.6 203 210.4 223 234.7 242.7 244.7 244.2 245.1 243 242.5 245.9 247.9 245.5 253.2 266.5 272.6 276.7 285.7 299 304.5 307.3 308.1 311.3 311.9 311.2 309 301.5 292.6 284.3 274.9 262.9 247.2 230.8 215.1 201.2 184 169.4 155.1 135.2 113.2 101.7 91.5 86.2 85.1 84.5 83.9 81.7 78.8 84.5 80.4 86.3 88 100.8 101.4 101.4 102.1 108.7 108.2 108.8 116.6 123.5 134 144.3 154.9 165.3 172.2 180.4 187.2 188.2 188.9 188.2 185.6 182 179.7 178.4 177 173.8 172.4 171 169.9 169.3
318 315.3 313 312.1 311.5 312.3 311.9 308 306.1 298.7 295.8 287.8 284.3 272.2 240.7 225.5 217.1 209.8 197.1 182.1 167.2 163.4 180.7 187.7 197.4 209.8 226.4 245.9 261.2 282.1 283.5 279.6 271.4 265.3 267.3 278.1 283.7 286.8 289.6 292.7 295.5 296.9 300.7 309.7 324.1 333.7 341.9 350.4 358.6 363 368.5 371.9 373.4 372 369.7 367.4 365.4 363.3 360.3 357.3 354.3 350.6 346.3 342.5 338.7 335.6 333 330.5 325.1 317.6 312.5 306.9 297.9 282 275.6 276.3 275.2 275 273.3 270 267.1 269 270.5 273 273 274.3 277.3 277.3 273.9 269.7 263.6 255.8 247.8 241.2 237.1 232.7 225.6 218.7 217.2 212.2 201.5 189.2 183.1 191.8 191.6 189 186.1 182.4 177.6 171.5 165.6 158.6 148.4 144.9 144.5 150.8 162.2 173.8 183.1 193.5 202.3 210.6 221.9 229.5 238.6 239.8 239 236.4 236.1 238.8 240 239.6 248.4 263.9 271.9 276.7 284.1 297.2 305.6 308.2 310.9 315.8 317.1 315.3 311.9 305.8 298.5 290.3 282.2 273 260.3 249.7 226.8 202 182.6 166.1 151.8 130.9 111.9 104.6 88.7 85 84.2 83.4 82.6 84.2 86.9 75.8 86.8 87.9 95.6 102.3 101.4 100.9 106.6 107.6 111.1 113.7 117.3 129.8 136 147.2 158.8 170.5 175.3 182.7 189.8 190.8 191.2 190.6 187.2 183.2 180.3 179.2 178.6 176.8 175.6 174 172.6 171.5
312 310.3 308.4 306.4 305.9 305 303.8 303.1 298.9 296.7 287.9 285.1 278.9 270.8 244.5 219.8 210.2 200.9 192.5 178.2 154.1 163.8 180.4 189.4 198 213.4 233.2 249.6 265.2 285.6 282.2 275.9 267.9 260.6 259.3 263.1 274.5 278.9 282.5 286.3 289.9 292.6 295.7 301.5 314.4 328.1 338.9 347.4 353.2 358.9 365.7 371 371.7 371.4 369.1 366.8 363.4 360.6 357.2 355.2 351.8 347.4 343.2 340.3 335.8 332.3 330.6 328.9 324.4 317.7 312.3 307.5 300.8 287.3 271.8 272 271.3 271 270.7 268.8 266.6 262 266.9 268.7 268.4 269.2 272 273.2 271.1 267.1 262.6 255.4 247.4 238.6 233.6 228.8 221 214.5 212.1 207.8 196.3 188.6 192.5 194.2 193.1 190.9 188.4 186.2 181.9 175.7 172.2 164.8 159 148.2 145.2 143.4 146.4 163 170.8 181.1 193.6 201.5 209.2 215.6 222 229 230.5 227 228.4 231.6 232.4 234.4 243.3 259.8 272 277.3 284.3 297.5 305.9 310.7 313.6 317.7 319.4 318.1 314.5 308.4 302.1 293.7 285.9 278.7 263.5 232.2 207.9 190.1 172.3 157.5 141.8 125.8 111.8 106.4 96.7 83.3 82.4 82 81.7 85.6 79.2 83.5 88.3 91.2 101.2 101.1 100.8 107.1 107.7 109.8 112.7 115.5 120.9 127.9 138.5 149.6 159.7 170.9 177.1 185.2 191.9 191.9 191.6 191.6 188.2 185 182.1 181.2 180 178.1 177.4 176.8 174.5 172.3
304 306.2 303.1 300.5 299.7 298.2 297.8 296.5 294.3 289.5 285 280.7 274.1 264.5 240.2 213.9 203.7 194.8 182.5 171.1 153.8 163.8 183.5 192 204.3 218.6 240.1 253 270.3 284.6 282.4 273.9 262.8 252.7 250.7 255.3 260.6 269.6 274.5 279.3 284.2 288.6 291.1 296.5 307.6 324.7 340.3 346.5 349 354.5 361.2 367.7 369.4 370.2 368.1 365 361.9 359.1 355.9 352.9 348.6 343.5 338.6 336.1 333.3 329.4 327.6 325.4 321.3 314.6 311.1 307.2 302.2 293 279.8 266.2 267.3 265.6 265.8 265.3 264.9 258.3 261.8 264.4 263.6 264.7 266.3 269 267.6 264.6 261.1 254.6 245.4 236.2 229.4 222.5 215.7 210 206.2 198.3 189 199 203.8 198.8 194.1 192 191 188.7 184.9 180.5 177.1 173.6 166.8 160.4 156.7 148.2 139.5 144 156.8 169.2 180.6 190.8 199.1 205.3 210 213.6 217.2 219 221.1 224.9 226.5 232.6 240.8 255 270.4 278.5 284.8 297.5 307.3 312.8 315.9 318.4 319 317.2 312.7 307 302.9 296.5 288.8 277 237.8 208.9 185.4 171.2 159.2 148.2 135.4 122.3 112.3 106.4 97.1 81.4 80.1 80.8 83.6 83.1 74.6 85.8 91.3 98.7 100.9 100.2 102.1 107.1 110.6 111.2 121.7 125.2 129.3 133 140.6 149.6 159.5 169.7 177 184.7 192.4 193.1 192.7 191.8 190 187.3 184.9 183 181.3 179.2 179.1 179 176.2 174
296 299.3 298.4 296.1 293.3 291.9 289.8 289.3 288 285.7 281.1 276.8 270.6 263.2 237.3 211.6 196.5 181.7 174.3 170.2 161.5 171.9 181.2 190.2 205.5 224.2 245.2 258.5 278.3 283.9 281.4 271.1 256.3 249.2 244.1 249.8 253.2 257.7 265.4 272.6 278.4 283.2 286.6 291.1 304.8 322.1 340.1 348.7 352.4 354 357.1 363.4 367.4 368.6 367.1 365.3 361.6 357.9 353.9 349.6 345.1 339.8 335.4 333.5 331.3 327.2 323.1 319.4 316 312.7 309.5 305.8 301.7 296 285.4 271.8 261.2 261.4 260.1 260 259.8 257.2 253.1 259.5 259.7 260.6 262.3 265.3 264.1 261.3 258 253.1 244.6 235.2 227.6 220.1 214.2 208.8 200.7 188.9 198.3 206.3 216 209.3 194.2 190.8 192.1 190.4 187.3 183.8 181.2 178.8 176.6 175.3 170.4 160.4 145.8 136.6 142.8 156.4 159.7 179.3 189.7 197.3 200.8 202.5 204.3 202.9 212.4 215.8 224 231 240.5 253.5 271 279.7 285.4 298.9 309.2 314.1 316.5 318.9 319.9 317.8 311.6 306.4 302.2 296.9 286.4 252.7 216.7 188.1 169.4 155.6 149.3 140.9 132.2 120.8 111 105.5 91.7 79 79.6 82.9 82.7 78.9 86.1 86.4 96.1 100.8 97.8 104.3 105.5 108.3 116.1 128.6 138 139.9 137.3 138.8 142.2 148.9 159.9 168.7 175.5 183.7 190.8 193.8 193.4 192.4 191.6 190.7 188.3 186.2 184.3 181.9 180 179.4 178 175.9
280.7 291.8 293.2 290 288.9 285.5 283.2 282.2 281.4 278.5 274.3 269.3 263.9 256.2 236 207.7 187.1 175.9 171.1 167.9 160 170.6 182.2 192.5 210.2 236.1 250.7 266.2 285.7 284.6 280.8 264.7 252.8 247.3 241.6 241.3 250.6 249.9 257.1 265.9 271.9 276.9 281.1 286.4 304.2 315.1 330.8 345.3 355.2 358.7 360.1 362.8 366.7 368.1 367.3 364.9 360.4 356.6 351.5 347.2 341.9 336 333.8 331.7 329.6 324.6 319.3 315.7 313 310 307.6 304 299.5 295.1 289.1 278.5 266.8 260.2 252.6 252.5 254.3 252.9 247.3 253.4 255.3 256.3 258.5 260.3 259.9 257.3 253.9 248.8 241.9 234.3 228 223.2 217.6 208.3 191.7 198.7 206.9 210.8 213.2 208.9 195.3 188.5 189.1 189.2 186.9 185.8 183.7 181.8 180 177.3 173.5 170.6 154.6 141.3 137 143.3 143.7 171.2 179.8 188.4 192.6 192.6 190.7 193.3 202.2 211.8 222.7 230.9 238.4 254.1 272.9 282.3 287.4 300 312 315 317 319.9 320.8 317.7 311.1 305.5 300.8 294.2 273.9 225.4 198.6 174.9 158.6 146 139 133.5 124.2 113.6 108.1 104.7 81.3 78.3 82.9 83.1 82.7 73.9 86.1 92 101 95 105.1 106.4 105.4 115.2 130 146.6 154.5 155.9 151.1 145.8 146.5 148.3 159.4 168 174.1 181.8 189 193.8 194.3 193.8 192.9 191.7 190.3 188.5 185.8 183.9 182.5 180.8 179.9 177.8
269.4 281.2 285.5 288.2 288.9 284.7 276.7 271.3 269 265.2 260.2 255.2 250 241.9 228.6 203.5 183 175.2 169.3 161.5 161.8 177 183.9 202.8 226.1 246.9 256.1 276.5 287.4 284.8 280 261.2 250.4 243.1 235.8 232.8 238 241 249.8 258.6 265.2 270.2 273.1 284.9 300.8 310.3 320.5 336.7 353.1 360.8 362.4 363.2 365.3 367.5 367 364.9 359.1 354.7 349.2 344.8 339 333.5 332 329.7 326.6 320.7 315.1 312.5 310 307.3 304 300.4 298.1 295.8 290.5 282.7 272.1 266.3 259.7 253.8 247.9 243.7 241.6 247.8 250.2 251.6 252 254.6 254.9 251.7 248.6 245.5 238.4 232.4 227.5 224.8 220.5 205.7 202.5 210.9 214.7 213.2 212.4 209.8 199.3 187.8 183.7 182.5 182.6 184.5 184.5 183.9 182.7 182.3 175 170.6 164.5 148.1 137.9 135.4 140.6 162.7 171.8 180.3 185.5 182.6 180.2 185 198.8 209.9 225.5 232.1 238.8 255 274.5 284.4 289 300.3 314.5 317.6 318.9 321.1 321.1 317.7 309.2 301.6 299.7 281.3 243.2 205.1 178 163.4 150 138 131.8 125.3 114.8 108.8 110.4 105.2 82.9 82.1 83.4 80.4 74.3 86.2 86.3 99.1 93.8 104 106.3 113.5 120 129.6 150.5 164.3 173.5 173.9 166.5 160.5 154.9 153.4 160.1 168.5 173.7 180.5 188.4 192.8 196 195.4 194.1 192.6 191.1 190.4 188 186.2 185.4 183.1 182.1 181.2
250.9 264.5 276.2 281.4 286.1 285.8 279.8 272.6 264 255.3 252.5 246.1 240.2 234.1 220.4 198.7 181.8 174.6 167.4 150.9 160.6 183.2 198 216.4 236.4 252.2 265 285 287.8 284.1 276.2 258.6 249.1 240 232.2 222.4 227.5 234.8 241.8 249.6 257.5 263.3 266.2 275.1 293 302 313.8 329.5 347.2 360.5 362.5 363.5 364.7 365.9 366.6 363.4 357.9 352.6 347.1 341.9 336.8 332 329 325.7 321.6 316 311.5 309.5 307.5 304.7 301.1 297.5 295.8 294.6 291.1 285.9 277.3 270.7 265.2 260.3 255.4 252.3 245.3 236.7 244.8 246 245.6 248.2 248.5 246.4 243.8 242.1 238.3 233.5 227 219.7 212.1 199.5 213.9 220.4 217.5 214.7 213.9 210.8 202.1 190 182.9 181.2 180 181 181.3 183.2 185 186.2 180.2 172.9 166.9 154.2 143.6 135 137.5 160.3 164.4 168.3 173.7 171.7 170.3 185 198 208 226.1 233.1 239.7 254.2 277.1 286.3 290.5 299.3 317.1 321.3 322.5 323.8 322.9 317.6 300 290.7 283.9 252.6 223.7 185.4 168.9 158 147.2 134.3 125.6 117.6 109.9 106.3 108 93.9 81.5 78.8 73.4 79.7 86.6 85.9 86.6 93.4 103.6 105.5 115.4 127.4 136.4 152.9 169.8 183.1 190.1 187 176 168.5 163.2 160.3 163.3 169.4 173.9 180.4 188 192.7 199.4 200.1 196.7 194.8 192.6 191.2 190.5 189.1 187.4 186.1 185.8 184.4
236.1 250 265.3 275.2 282.6 284.9 283.6 276.8 268 259.9 250.1 240.8 234.6 229.4 216.2 197.4 184 174.9 161.8 156.1 160.9 185.5 206.4 234.9 249.9 253.7 271.8 287 287.7 283.5 268.8 256.3 246.1 238.2 229.7 223.7 219.4 227.1 234.5 241.8 249.3 255.6 258 268.9 283 295.2 307.2 323.5 341.9 359.1 362.6 363.7 364.3 364.7 364.6 360.8 355.5 350.2 344.9 340 335.2 330.4 325.6 321.2 317.3 312.7 309.3 307.1 305.1 303.5 299.7 296.2 293.5 292.5 288.2 285.7 278.6 269.9 259.7 251 242.7 235.7 234.7 230.3 230.5 233.2 236 238.4 241.4 242.4 241.5 240.3 238 232.3 217.4 205 205.9 215.1 223.8 223.3 218.7 216.5 215.7 211.7 203.5 190.1 181.8 180.1 179 178.2 179.4 181.9 183.9 184.7 182.8 175.4 169.7 159.9 147.3 137.8 135.7 155.1 165.5 161.6 160.4 163 161.3 181.2 194.8 204.6 224.8 234.3 239.9 254.7 277.9 287.5 291.6 297.2 317 326.2 327 325.7 324.9 313.6 282 265.4 255.7 237.9 209.3 182.7 164.4 154.4 144.5 131.4 121.4 112.1 106.4 102.4 97.6 78.7 75.1 80.2 85.4 87.8 86.2 85.6 93.5 89.3 104.9 115.8 133.3 145.8 162 175.7 189.8 197.6 197.7 192.3 183 175.4 171.2 168.8 169.5 171.7 174.9 180 186.7 193.2 199 202.5 201.3 198.6 196.6 192.9 192 191.7 190.1 188.9 188.2 187
229.7 237.2 251.1 268.2 276.7 283.9 286 281.4 273.9 262 252.1 240.4 228.4 222.4 206.7 191 183.2 174.5 158.7 148.3 160.4 184.9 211.2 243.2 250.5 253.4 267.1 287.9 288 280.8 263.9 253.4 244.9 236 227.6 221.4 209.3 221.2 227.3 232.4 237.9 238.4 244.8 259 276 290.7 301.7 318 337.1 356.4 361.2 361.9 361.9 360.9 360.1 357.1 352.4 347.2 342.4 338.3 333.9 329.6 325 320.6 316.9 312.3 308.3 305.2 303.2 301.6 299.1 295 290.1 285 278.8 269.9 258.5 254.9 256 254.3 251.1 247.6 241.9 237.8 231.8 225.2 223 226.2 229.5 235 236.8 235.7 229.8 222.8 208.2 213.4 219.1 227.1 232.1 226.6 220.8 218.3 216.8 211.1 203.3 191 180.6 179.5 178.5 177.6 177.4 179 182.9 183.6 182.5 178.1 172 166.4 150.7 140.5 132.2 153.8 164.3 161.1 157.3 157.7 162.4 176.5 191.6 203.9 220 235.7 240.9 252.7 277.7 288.2 291.6 294.2 311.8 329.5 329.2 327.1 315.1 286.4 265.1 254.6 246.2 224.5 196 174.9 161.6 153.1 142.1 131.1 117.8 106.2 102.7 99.4 81.5 76.9 86.2 88.1 87.8 87.1 86.1 85.8 88.1 96.9 113.4 133.8 154.2 170.7 185.1 195.5 204.1 204.7 201.5 197.5 191.2 184.5 180.5 178.6 176.2 176.2 177.3 181 185.9 193.1 198.8 203.7 204.3 202.5 201 198.2 196.8 195.3 193.3 191.7 190.7 189.8
223.2 229.1 239.7 255.9 269.5 279.9 287.1 285.4 278.6 265.8 255.6 241.4 228.2 222.6 207.7 197.6 186.4 175.7 159 153 155.8 180.9 204.8 237.3 249.4 251.8 260 275.6 283.4 275.2 261.8 252 242.8 233.3 224.9 218.6 206.3 214.1 219.8 223.3 225.5 226.5 232.8 248.9 266.9 285.9 298.3 314.7 334.9 353.2 358.5 359 357.2 356.5 354.6 352.2 348.7 344 340.9 338.1 333.9 329.5 325.3 321.1 317.1 312.1 308.4 304.7 300.9 299.4 298.7 296.9 290.8 284.7 273.6 277.7 277.8 273.8 269.5 266.1 261.2 257.5 250.8 245 242.8 235.5 228.2 220.7 218.9 223.2 225.2 222.8 213.3 206.2 215.9 223.7 229.7 237 238.8 231.2 224.2 220.7 216.8 209.8 201.3 191.1 180.6 179.1 178.2 177.1 177.1 177.8 179.5 182.7 183.1 181.2 175.2 168.1 156 142.1 136.2 147.9 155.8 155.3 154.8 154.2 159.1 170.9 188 200.5 215.2 235.8 242.6 250.5 274.9 288 290.9 292.6 302.6 324.5 328.6 314.5 287.4 270.2 260.5 250.6 240.6 210.1 183.3 171.5 162.2 152.6 141.9 128.7 114.7 102.6 99.5 93.1 79.3 77.1 87.4 87.3 87.5 86.4 86.7 89.2 87.3 103.5 127.6 156.6 173.7 192.8 202.2 208.8 211.7 210.4 206.9 202.8 197 191.6 188.7 187.2 185.2 181.6 180.9 182.4 186.4 193.7 200 203.5 206.4 205.5 204.6 202.7 201.3 198.7 196.2 194.2 194 193.1
217.2 223.7 230 243.3 260.3 274.8 285.7 287.5 282.2 274.4 259.6 244.1 227.7 224.9 216 199.2 185.6 172 159 152.2 153.9 174.8 192.4 221 246.2 249.1 254 263.7 273.9 270.9 261.6 249.8 239.5 229.9 223.4 217.5 207.4 211.9 213.1 214.7 216.5 217.9 229.1 247 267.2 284.3 294.5 313 333.1 348.1 354.3 353.4 352.4 352.4 350.9 349.4 345.6 342.2 340.3 338 335 330.6 326.1 321.7 317.6 312.9 308.1 304.2 299.8 297.5 296.6 294.3 279.7 282 286.8 287.5 284.5 281 278.8 277.8 272.5 263.2 255.8 249.8 245.4 238.9 235.6 232.6 224.1 216.6 215.2 215.4 217.7 223.2 228.8 232 235.9 238.9 241.6 235.4 226.7 224.7 217.2 208.1 199.9 190.1 182 179.3 178.8 178.1 177.4 177.3 178.7 182.1 183.3 181 176.4 168.1 155.7 139.2 137 145.4 153.3 152.6 152.4 151.8 154.9 165.2 183.1 199 212 229.1 241.1 247.5 269.1 287.4 290.3 292.1 295.9 308.9 316.8 294.4 275.6 265.9 255.1 246.2 226.4 195.6 181.9 170.9 163.2 151.1 140.7 125.6 110.4 98.3 95.8 80.1 94.6 72.3 77.8 86.7 86.5 86.2 86.4 88.2 93.5 114 147 166.2 186.8 202.5 210.2 214.7 216.5 214.9 211.8 207.6 202.3 198 195.7 193.3 190.4 187.3 186 185.7 188.5 194.3 201 204.7 207.6 207.5 207.3 205.3 202.6 200 198.1 196.6 196.5 196.5
210.9 218.1 225.1 234.9 251.3 268.3 282.5 287.5 286.1 280.3 267.6 249.4 233.7 225.5 220.4 199 187.2 171.2 159.6 151.8 152.7 165.8 179.4 205.7 234.8 244.1 248.4 253.5 261.9 263.9 257.7 247.9 238.8 227.6 223.8 216.2 211.9 208.1 195.6 205.2 210.1 213.6 226.4 245.9 264.5 281.7 291.7 309.8 328.9 342.4 346.9 347.8 349.2 349.6 348.7 346.8 343.1 340.2 339 338 335.6 331.9 328.4 324.5 320.3 314.5 308.6 304 300.8 298 295 289.9 291.5 291 292.9 294.4 291.6 290.1 289 285.9 280.4 271.6 260.5 254.3 246.3 238.3 234.2 228.5 224.9 225.4 225.1 226.7 233.8 237 236.9 239.3 237.6 237.9 241.9 237.1 227.7 224 217.2 207 198.3 188.3 182.2 180 181.2 180.9 179.5 177.3 178.9 180.2 180.6 177.5 172.1 165.1 138.6 137.3 138.2 148.7 152 151.2 150.7 150.2 151.7 160.8 177.9 195.9 205.9 226.9 239.8 245.3 261.5 285.6 290 291.5 293.4 296.1 299.9 283.8 271.5 262.4 251.1 234.7 210.3 192.6 180.9 172.6 162.1 149.2 136.1 121.9 107.4 97.1 94.4 79.7 90.1 87.4 71.5 76.5 85.5 86.2 86.4 87.7 96.6 124.8 157.4 173.4 194.4 208.5 213.6 220.5 221.5 218.5 214.9 210.3 205.9 202.4 199.7 198.1 196.3 193.6 191.5 190.8 191.2 195.1 202.5 205.8 208.3 209.9 209.9 207.3 204.8 201.7 200.1 199.4 198.5 198.9
204.1 211.5 218.6 226.7 240.7 262.4 280.2 287.4 286.7 281.7 274.1 257.4 242.6 229.5 216.8 198.4 186.8 177.2 164.8 151.7 144.7 152.6 173.4 190.1 219 239.4 242.4 246.9 252.3 255.6 253 246.6 239.6 227.1 219 214.7 211.9 207 197.8 186.9 188.4 210.3 224.1 241.2 260.5 275.2 287.7 304.5 322.7 336.3 342.4 346.1 347 347.5 346.3 343.7 341 339.1 338.3 337.8 335.4 332.1 329.1 325.8 322.2 317.1 311 306.5 303.1 300.5 298 296.7 297.2 297.6 298.9 300.5 300.7 300.1 298.5 292.7 286.2 278.9 266.8 258.5 250.2 239.4 233.3 232.8 234.6 236.9 239.7 249.1 255.7 251.9 243.2 241.8 239.6 236.6 238 236.1 226.4 217.3 213.9 204.9 197.4 188 182.1 180.8 182.9 183.4 180.7 178.7 178.8 179.2 177.2 173.1 168.7 160.8 151.6 136.2 135.4 146.7 149.9 149.4 148.8 147.9 148.6 157.7 178.8 195.5 205.5 222.8 238.1 242.7 254.6 278.5 289 290.9 291.9 291.7 288.4 281.8 272.9 259.6 242.8 224.3 203.2 190.4 179.9 173 161.2 147.1 133.4 118.5 104.1 95.9 93.4 78.5 84.9 84 77.3 70.5 76.8 84.1 88.5 87.7 109.1 139 162.5 176.8 202.3 212.8 218.8 226.4 225.4 222 216.4 212.9 209.1 206.4 203.7 202 200.8 198.4 195.3 195.1 195.5 197.9 203.5 206.9 209.3 211.8 211.5 208.9 207.2 204.6 202.5 202.4 201.9 199.6
197.6 203.1 209.8 219.1 232.4 253.9 276.5 287.1 287.4 283.5 277.4 264.7 248 231.2 214.4 199.9 185.2 175.5 166.9 155.1 150.9 148.3 158.7 176.4 200.7 227.1 237.2 241.7 246.2 249.4 248.7 245.8 239.4 227.5 217.5 213.6 210.6 206.3 200.5 180.4 187.4 204.9 218.7 236.3 254.8 264.8 281.1 293.7 311.5 330.5 339 343.7 345.1 344.7 343.4 341.4 339.5 337.8 337.4 336.4 334 331.2 328.2 325.1 321.8 319.2 314.7 309.9 306.2 303.7 301.6 300.3 301.6 302.8 304.7 305.4 304.7 303.5 301.8 298.7 292.4 284.3 273 261.3 250.6 248 241.4 240.9 246 254.7 262.7 269.4 271.7 269.9 256 249.1 244.1 239.1 235.4 233.3 223.9 212.8 209.3 202.8 196.8 188.6 182.8 181.7 183.1 184.2 182 179.3 178.5 178.4 175.2 169.8 163.8 156.5 150.4 142.9 135.9 130 146.3 145.5 144.7 144 143.4 159.1 183 195.1 213.6 225.6 238.8 239.7 248.3 266.7 285.1 289.8 290.7 289.7 286.2 281.3 273.8 255 234.5 214.4 198.8 186.6 179.6 172.4 159.7 144.2 130.4 115.8 101.4 94.2 88.7 83 82.6 82.1 78.1 75.5 70.5 81 88 95.5 117.9 145.1 163.4 176.9 195.2 212.4 218.6 228.3 228.2 225.3 223.1 219.3 215.3 211.2 207.8 207.9 207 203 199.8 198.9 199.4 201 203.7 207.9 210.4 214.7 213.8 211.3 209 207.3 205.3 204 203.6 201.4
190.6 197.6 205 212.9 226.1 247.2 272.2 286.5 287.8 285.1 279 270.8 254.6 237.6 217.4 200.8 187.6 173.7 167.1 158.3 151.6 149.3 148.7 168.4 182.9 207 231.4 238.9 241.4 242.8 246.2 245.2 238.7 226.4 215.6 209.9 207.5 204.3 194.5 181.6 177.4 193.3 209.7 225 239.2 257.3 271.1 284.3 293.2 316.2 331.6 337.4 340.7 340.8 339.9 339.5 337.7 336.3 335.6 334 332.6 329.9 327.1 325.1 322.4 320.2 317.3 313 309.6 307.2 305.3 304.5 305.3 306.5 307 306.8 305.2 304.4 302.8 300.5 296.6 288.5 278.1 266.1 260.7 255.6 249.6 253.1 259.1 268.4 274.8 278.1 276.3 273.1 263.9 255.3 248.5 243 236.8 231.7 223.7 210.9 206.5 201.6 196.9 190.4 185.1 183.8 183.3 183.3 181.5 178.6 177.3 178.2 174.9 167.5 159.6 154.6 149 144 138.3 133.2 135.8 144.3 143.8 143.6 143.1 153.2 179.3 192.3 216.6 228.8 239.9 236.6 242.8 253.2 275.7 287.3 289 287.9 285.4 281.1 268 247.4 225.7 210.1 194.6 185.2 179.1 172.4 159.8 140.9 124.9 110.5 99.1 92.4 82.6 81 81 80.8 79.3 74.8 70.4 79.9 87.1 98.9 118.5 142.2 158.6 173.4 183.4 203.9 214 219.4 226.3 226.5 225.1 223.5 222.1 218.9 216.4 216.1 214.1 210.2 205.4 203.4 203.7 204.6 206.5 209.5 211.6 214.1 215.9 214.8 212.7 210.3 208.3 206.3 202.5 200.4
184.7 190.5 197.3 206.7 221.3 244.3 269.2 286.3 288.5 286.2 281 273.9 263 247.6 231.7 206.1 190.4 175 167.2 159.7 149.6 149.5 141.1 150.9 173.3 190.1 217.7 233.1 237.2 238.6 240.3 241.2 236.1 226.1 214 207.1 203.4 200 192.3 180.4 163.5 182.8 200.9 214.1 230.4 247 261.8 271.7 281.9 297.5 317.3 328.6 333 334.8 336.5 336.8 334.6 333.9 332.6 331.6 330.6 328.6 326.7 324.6 322.5 319.8 316.9 314.3 312 309.8 307.9 308.1 308.7 308.8 307.6 307.1 305.3 303.8 303.1 301.3 297.8 292.2 284.5 278.2 269.7 261.8 259.1 260.7 262.6 272.8 279.6 280.8 278.7 273.9 266.8 259.8 252 246.3 240.8 235 229.6 217.5 207.2 202.5 198.3 194 188.6 187.3 184.3 183.6 180.1 176.9 175 175.4 172.1 164 157.9 152.1 146.9 141.3 137.5 135.1 129 140.1 144 142.6 142.5 147.2 173.4 190.7 211.8 223.3 235.7 233.9 239.2 246.8 264.2 282.4 287.3 287.8 284.8 279.1 262.6 237.6 221.3 205.5 194.2 187 179.6 172.3 160.6 139.4 120.9 109.6 99.6 91.2 82.1 80.1 79.8 80.5 78.2 72.6 72.4 78.3 85.9 98.2 114 135.6 147.4 159.5 170.5 182.7 208.3 215.8 221 227 225.9 225.8 225.2 223.8 223.4 222.7 220.3 215.5 211 208.2 207.9 208.9 210 211.5 212.8 214 216 216 215.6 212.3 209.1 205.6 202.6 201.1
176.3 182.4 189.1 200 217.4 244.7 267.8 286.5 288.8 287.2 282.8 276.5 268.3 258.3 246.2 221.6 196.3 181.6 168.3 161.4 151.8 147.6 147.2 140.4 161.5 175.3 200.6 224.9 231.9 233.8 234.9 235.7 231.6 223.2 212.4 204.3 198.7 197.1 192.3 181.5 161.4 170 185.6 202.9 218.6 234.8 246.3 259.8 270.8 282.1 294.4 312.1 322.6 327.5 330.1 331 329.9 329.9 329.5 329.2 328.4 327.7 325.9 323.9 321.9 319.3 316.8 314.4 312.8 311.9 310.5 310.9 310.9 309.8 308.5 307.4 305.5 303.7 302.5 301.4 299.3 294.3 288.4 284.3 278.3 271.9 264.8 265.4 263.4 269.4 279.3 280.7 279.7 277.6 268 261.1 254.6 247.6 242.2 237 232.5 224.2 213.8 207.3 202.4 198.3 193 189.9 186.8 183.7 181.5 177.6 171.8 168.7 158.7 156.2 154.6 147.8 146.8 145.9 141.6 137.3 134 126.3 135.9 141.6 142 144.1 166.8 184.7 205.2 216.5 228 231.8 236.2 243.4 251.2 273.2 283.8 287.1 283.2 272.9 246.6 232.4 217.9 204.3 196.9 190.2 183.6 175.6 160.8 138.9 122.4 111.2 102.9 90.2 81.8 80.3 79.4 79.5 79.8 71.3 77.4 77 84.2 92.1 106.9 121.5 143 144.4 156.8 173.7 192.7 209.1 218.9 226.1 227.9 227.4 228.5 228.3 227.9 227.5 225.5 221.8 217.5 214.5 212.5 213.5 214 214.4 214.1 214.8 214.1 214 213.3 209.8 204.8 202.6 201.4 200.9
167.6 174.2 185 197.6 218.2 246.4 268.7 286.6 289.5 287.6 284 279.1 273.4 262.9 254.1 236.6 208.4 188.5 173.4 162.6 158.1 147.4 147 143.7 147.6 169.2 186 210.6 226.4 229.1 229.4 227.8 225.1 218 209.8 201.9 196 189.6 182.5 175.8 163.3 159.6 173 190.4 206.7 218.8 227.8 240.7 260.5 270.6 279.6 290.2 304.7 314.5 322.1 324.1 324.9 325.5 326.5 326.2 327.1 327.6 326.5 324.6 323.6 320.9 318.8 316.6 315.4 314.4 313.4 312.2 311.6 310.5 309.4 307.8 305.9 304.1 301.9 301.3 300.4 295.2 290.3 288.5 284.2 280 270.9 264.9 261.1 264.7 272.1 275.6 275.8 275.2 268.9 261.9 255.3 249.2 243.2 236.9 233.4 228.2 219 213.7 207.9 203.7 196.4 191.9 188.7 184.4 182.2 180.1 174.4 171.2 171.9 171.8 160.7 152.2 151 149.7 145.3 138.8 134.2 129.7 127 131.6 138.3 144.8 163.9 179.4 194.5 206.4 216.6 224.4 231.2 239.2 245.9 260.5 279.8 284.8 281 266 238 226.5 213.7 205.6 199.5 193.4 187.4 178.8 161.6 139.2 123.2 112.6 103.2 89.5 80.6 79.7 78.4 79 79.9 69.4 79.6 84.7 83.6 86.5 100.8 112.3 129.1 152 152.2 161.6 178.8 191.9 214.9 229.2 232.7 231.9 234.7 233.8 232.7 232 229.9 226.2 222.8 221.1 220 218.6 218.3 218 217.2 215.3 212.3 212.2 212.8 207.4 204.2 202.7 202.8 198.9
166 175 186.2 198.6 212.5 247.9 271.2 286.1 290.9 289.5 285.8 281.3 276.2 267.2 259.2 248.1 225.8 202.1 183 171.2 163 153 146.9 144.8 146 158.1 174 193.1 214.8 224.6 224.2 218.5 213.6 210.7 205.1 198.7 192.6 183.5 174.7 165.7 159.3 153.6 163.1 177.7 195.4 206.2 209.1 221.4 242.6 257.4 268.2 278.2 284.2 298.9 309 317.3 320.4 321.5 323 324.8 326 327.3 328 327.6 326.7 324 321.4 319.5 318.2 317.6 316 314.1 313.2 311.6 310.6 308.9 306.8 304.9 303 300.7 299.4 296.2 292.7 290.5 288.3 287.3 280.3 270.5 260.8 258.8 264.5 266.1 269.1 269.9 267.2 261.7 254.8 249.1 243.9 236.9 232.2 227.7 221.8 216.5 210.4 205.5 198.3 193.3 188.8 184.9 182.8 180.9 176.7 176 175.3 176.3 173.9 160.4 151.4 149.3 145 140.9 133.9 132.5 126.5 124.6 134.8 144.7 157.6 172.4 179.7 188.1 199.9 216 225 234.5 242.4 252.4 273.3 280.4 273.4 258.3 238.6 221.3 213.6 207.8 201.5 195.6 189.8 180.4 161.4 140.9 124.5 114.2 104.7 89.2 79.6 79.1 78.3 78.4 80.4 68.7 77.5 82.3 82.1 81.7 96.7 106.2 114.2 134.8 158.3 162.3 174.7 185.5 183.6 223.6 236.4 239 240.9 241.2 239.6 237.7 233.6 230.6 229.1 228.2 225.5 223.4 222.6 221.4 219.1 216.4 212.1 209.1 208.1 207.6 207.7 205.7 203.6 199.5
168.1 176.9 188.1 201.1 225.6 250.9 274.4 288.1 293.7 291.1 288.3 284.1 281.4 273.6 264.1 247.2 240.8 216.5 195.3 179.3 167.8 160 150.8 145.7 140.5 144.2 163.6 178.2 195.2 212.1 216.7 209.6 202.5 200.5 197.8 192.9 187.9 182.7 168.9 161 155.2 151.9 152.3 165.3 180.8 193.2 201.8 208.4 220.1 239.4 253.6 263.5 272.9 283 296.3 307.3 313.1 318.2 320.7 322.9 325.3 326.7 327.9 328.5 327.5 326 323.4 321.7 320.3 319.7 319.2 317.3 315.6 312.9 311.8 310 308 306.4 304.6 302.4 299.9 297.4 294.7 292.2 290.6 288.2 284.2 275.4 263.4 253.5 257.7 260.3 259.9 260.8 261.9 258.6 254 249.1 244.3 238.4 232.9 228.1 223.4 217.8 212.9 206.6 201.4 194.7 190.3 186.3 184.1 182 180.9 179.7 179.9 180.4 180.2 171.4 155 147.3 144 139.8 134.2 131.3 127 124 131.8 143.8 153.1 161 170.7 180.1 194.9 211 219.3 225.5 236 246.4 262.5 273 264.5 252.3 236.6 222.7 216.8 211.6 203.2 198.1 191.4 179.9 160.4 141.3 126.9 115.9 106.2 89.9 79.1 78.3 77.4 78.2 80 68.2 84.5 79 81.8 81.3 89.2 102 108.8 120.1 145.8 165.6 171.8 176.6 196.4 214.1 231.3 244 247.9 247.9 244.9 241.5 236.7 233.3 231.6 231.7 230.2 227.7 225.5 224 221.2 217.7 213.5 210.1 207.5 204 203.4 202.9 200.2 197.7
170.6 180.7 192.3 208.1 230.2 254.4 280.3 292.1 296.3 294 291.1 287.2 281.5 277 269.8 263.8 251.1 230.2 207.2 191.9 177.3 163.8 156.1 150.9 143.2 142.2 149 166 177.6 189.8 199.5 195.3 189.4 188 183.1 177.9 173.4 167.8 161.7 154.1 151.5 149.3 142.9 155.8 166.8 178.4 187.5 199.8 209.8 220.7 235.8 249.6 260.9 271.8 279.5 292.4 304.3 312.8 316.7 320.1 323.3 325.9 327.1 328.1 328.1 327.4 325.2 323.5 321.8 320.7 320.2 319.9 317.7 314.9 313 311.1 309.5 308.2 306.5 304.1 301.6 299.1 296.3 292.7 291.7 290.1 286.2 277.9 268.7 257.9 251.9 253.2 253.9 254.4 255 254.9 251.6 247 243.4 240.3 235.4 230.7 225.3 218.4 213.5 208.8 204.4 199 193.8 191.8 192.9 190.5 187.7 186.4 185.4 185.6 186.3 181 161.9 147.2 143.8 140.3 135.2 130.9 127.1 123.8 128.5 140.5 149.4 157.1 165.4 173.7 187.3 204.9 216.5 222.8 229.8 242.9 255.6 262 257.2 246.9 231.3 224.1 219.4 213.9 205 198.4 190.8 177.9 159.2 140.9 128.9 119 107.2 91.5 79.4 77.4 77.2 78.2 79.3 67.5 75.8 79 81.5 81.6 82.3 96.8 104.8 113.3 136.8 157 173.6 179 184.5 202.2 219.1 237.1 251.2 252.4 249.3 246 240 236.8 234.4 233.5 232 230 227.8 225.7 223.3 220.1 215.4 211.7 208.7 204.4 198.5 194.5 192.9 194.6
174.5 186.2 197.6 213.8 234.7 259.7 285.4 295.7 298.7 296.5 293.2 289.5 284.2 280.2 275.1 268.3 258.1 244.4 219.2 202.6 186.8 170.4 164.2 157.1 151.5 143.4 139 151.5 163.2 171.2 177.6 176.3 170.1 166.1 160.6 153.4 152.5 152.6 147.3 146.3 145.1 142.7 140.8 144.1 153.2 163 169 179.2 196.7 208.8 220.1 233.9 249.9 261.2 269.6 277.5 294.9 305.7 311.1 315.8 321.2 324.3 326.4 327.4 328.9 328.7 327 325.3 323.5 321.8 321.6 321.6 320.3 317.1 314.2 312.7 311.4 309.9 308.5 305.9 303.3 300.7 296.9 291.9 291.9 287.2 282.8 277.2 267.9 258.5 253.5 251.4 251.1 250.9 251.6 251.4 248.5 244.7 242.4 239.9 235.9 231.6 226.9 220.4 216.6 212.5 208.3 204.4 200.4 198.7 201.7 200.8 197.4 195.1 192.9 191.5 190.5 185.4 164.3 150.9 146.1 143.1 137.1 130.7 126.9 122.9 126.7 137.9 146.6 153.8 162.4 171.4 182.2 196.3 214.1 220.5 225.5 234 249.7 254.4 249.5 239.7 230.5 224.3 219.2 213 205 197.8 188.6 175.3 157.8 141.5 129.5 120.1 107.4 93.4 81 77.9 77.4 78.4 78.9 76.6 70.9 78.4 81.4 81.2 82.8 90.1 100.9 110.2 123.8 147.4 164.9 181.3 189.9 195.5 210.8 225 240.7 253.2 253.3 248.5 242.3 239.5 237.4 235.2 234.2 232.9 230.6 227.5 225.2 221.7 216.6 212.9 209.2 205.3 198.5 193.5 192.7 193.4
179.6 192.2 205 221.5 242 270 290.8 299.8 301.7 298.9 295.6 291.1 287.9 285.2 280.7 273 263.7 252 230.3 210.8 197.9 179.2 166.2 160.9 154.6 151.6 143.9 135.4 141.9 153.4 152.5 153.1 156.2 154.5 150.1 139.5 137.4 136.5 136 135.5 134.2 133.7 134.4 132.9 138.3 145.4 152.4 164.6 181.1 195.2 207.8 221 236.9 249.6 258.7 270.1 281.5 297.2 305.2 311.7 317.5 322.5 325.3 327.6 329.3 329.3 328.3 326.8 325.4 324.1 323.2 323 322.4 319.7 317.3 315.2 313.4 311.3 309 306.4 304.3 301.5 293.4 288.9 287.5 283.5 277.8 275.6 267.3 257.3 254.2 251.3 250.1 249.4 249.5 248.9 246.5 243.7 241.8 240.8 237.2 233.1 229 224 219 216.3 213 210.1 207.5 207.9 208.8 208 207.3 203.5 201.4 198.9 194.7 186 173 158.8 151.1 145.3 139.5 131.2 126.4 121.9 126.5 136.4 144.8 153.9 163.3 170.8 178 188.8 210.4 218.8 222.4 226.8 242.7 246.8 242.3 233.4 228.2 222.9 215.8 211.1 204.8 197.5 188.2 175.7 158.8 144.8 130.3 120.1 108.3 96.4 85 77.6 77.4 78 78.1 77.7 77.4 67.4 78.4 81.5 83.7 84.7 95.5 106.2 114.9 129.8 151.4 172.4 191.7 197.9 204.2 219.9 230.1 245.9 249.1 246.3 244.2 243.9 241.4 239.6 238.4 237.6 236.6 232.4 227.3 222.7 217.7 212.2 208.8 203.8 198.4 194.6 191.7 193.1
185.4 198 214.2 231.2 253.1 279.8 296 304.1 305.3 303.1 297.4 294.2 291.1 288.4 285.5 278 269.1 256.2 239.1 220.3 213 191 176.3 165.7 159.6 154.1 152.8 149.3 142.3 133.9 133.4 137.7 131.9 136.2 132.4 131.4 133.5 132.7 132.7 132.2 133.5 133.2 134.1 134 132.9 132.7 140.2 151.7 165.5 181.4 197.6 210.9 221.2 232.3 249.5 262.8 272 285.5 297.9 305.9 313 319.4 323.9 327.8 330.3 329.3 330.1 328.8 327.4 326.2 325.5 324.6 323.5 321.9 320.4 319.1 316.1 313.2 309.3 306.5 303.5 297.7 291.6 287.1 285.8 279.7 273.9 271.7 266.2 256.8 253.5 251.3 249.3 248.4 247.7 246.5 245.3 243.9 242.8 242.8 240.3 236.2 231.8 226.9 222.4 219.8 218 216.5 214.3 215.1 215.5 214.4 213.6 211.3 209.2 207.5 200.2 192.4 181.4 165.3 156.3 148.8 141 131.7 124.8 120.7 123.3 133.9 142.8 151.9 163.5 171.5 179.8 184.1 203.6 217.8 221.2 224.1 231.1 237 233.5 227.1 222.4 218.4 212.5 208.2 202.4 196.3 187.5 175.6 160.1 147.8 136.8 124.3 110.2 97.8 86.5 78.6 76.7 78.2 77.8 76.8 77.4 75.9 67.2 79.2 84.7 86.3 91.3 99.1 109.7 120.6 132.4 155.8 180.5 199.5 208.9 213.4 226.6 235 246.2 244.7 244.9 244.8 244.2 244 242.6 240.6 239.2 237 230.7 225.7 219.8 210.6 205.5 199.6 195.2 191.8 187.1 187.7
191.7 205.7 223.2 242.8 265.8 289.8 303.6 308.1 309 306.4 301.4 297.6 295 292.2 287.9 282 274.2 262.6 247.5 232.2 217.1 200.2 186.1 173.5 166.7 158.9 158 150.7 151 140.8 142.3 147.9 148.6 146.6 146.1 144.3 141.9 139.5 137.8 134.2 132.6 130.3 132.6 133.4 132.2 131.3 130.7 140.6 153.3 166.1 181.9 198.4 206.8 224.4 239.8 253.7 266.3 275.9 287.7 296.2 307.8 315.4 322.4 327.2 330.2 330.9 331.9 330.8 329.7 329.2 327.8 325.8 324.1 323 321.7 321.2 318.6 315.4 310.5 304.7 299.4 294.5 289.2 285.6 281.4 276.7 273.6 270.4 264.4 256.7 253.1 250.9 248.7 247.3 247 245.6 244.3 243.3 243.3 244.1 243.3 239.1 235 231.6 228 225.6 223 220.7 219.5 220 221.9 220.1 219 217.8 217.1 213.3 206.5 198.9 189.2 172.6 159.8 151.1 142.5 132.6 126.9 119.9 117.4 129.2 139.4 149.7 164 176.5 185.2 188.3 194 216.4 220.2 222.7 224.2 225.7 224.8 219.7 217 213.5 207.9 204.5 200.2 194.2 185.9 173.5 159.9 152.1 144 128 113.3 97.2 87.1 79.7 76.5 77.5 76.3 76.3 76.9 76.9 71.3 67.1 80.6 86.8 88.2 94.5 104.1 113 123 138.2 166.8 185.8 202 220 220.1 226.7 233.1 240.5 242.6 244.3 243.9 240.9 243.4 242.4 239.4 235.6 230.8 227.7 222.4 209.4 202.2 196 191.4 187.7 185.5 186.4
198.1 215 235.2 255.9 279 299.3 307.6 311.1 312.5 310.8 309.4 304.8 299.6 297.9 291.8 287 280.7 269.8 256.8 239.1 220 212.5 199.1 183 175.5 170.1 165.2 154.5 156.4 152.1 155.3 157.1 156.1 153.7 159.6 158.3 156.3 156.4 155.6 154.2 145 134.5 133.3 129.9 131.9 131.2 129.6 131.3 140.4 150.8 168.6 175.2 190.7 215 228 242.6 256.3 266.8 274.1 287.9 301.7 311.1 319.6 326 330.5 332.6 333.7 333 332.7 332.3 330.9 327.7 325.4 324.1 323.4 322.8 321 317.5 311.6 305.7 298.5 291.1 286.2 282.8 279.1 276.7 274.4 270.9 265.3 258.2 252.5 249.6 247.3 246.2 246 245 244.1 242.7 242.4 243.6 244.4 242.1 239.8 236.7 234.5 231.8 227.7 223.5 221.2 223.2 225.7 228.7 226.4 224.9 222.7 219 212.1 205.3 197.1 181.9 164.7 152.3 144 132.6 126.9 119.7 118.4 122.6 132.3 143.9 161.4 180 187.9 192.2 189.4 207.1 219.2 220.2 220.3 219.1 218.4 216.5 212.1 207.4 204.5 200.8 197.5 191.1 179.3 167.7 160.2 155.5 146.5 131.3 116.7 100.4 88.3 79.7 76.5 76.5 75.4 75.7 76.1 74.8 71.6 71.2 74.3 86.8 89.9 92.4 100.5 106.6 115.3 131 150.6 169.3 185.1 212 220.2 220.1 221.7 225.4 232.2 235.4 232.8 233.5 235.6 236.2 233.8 231 229.2 228 221.2 210.9 202.6 194.7 189.4 184 182.8 185.6
207 224 246.3 267.9 289.6 304.3 310.5 312.9 314.9 320 319.1 313.2 304.1 301.5 296.6 290.6 285.8 276 263.9 248.3 231.9 220.5 210 198.5 187.3 180.7 174.5 168.2 168.6 164.6 165.5 164.5 162.2 166.7 174.5 172.6 173.7 178.2 171.4 171.7 165.8 154.4 143.7 130 123.9 130.1 130.3 128.5 131.2 143 154.1 169 190.7 208.4 218.2 230.8 244.9 255 267 278.9 293.2 306.4 318.3 325.9 331.2 334.4 335.4 335.6 335.3 334.8 334 330.9 327.1 324.8 323.5 322.6 322.5 320.3 314.1 307.1 298.7 292.5 288.5 285.8 281.3 277.8 274.4 268.7 262.1 256.4 252.2 248.5 245.6 242.3 244.7 243.8 242.7 242 240.8 242.4 244.7 244.6 244.9 244.2 242.3 239.2 234.8 227.4 222.5 224.2 227.3 229.5 231.9 230.1 225.7 221.1 214.2 208 197.9 185.2 167.7 153.4 144 132.5 126.8 122.4 117 119.8 127.9 136 150.7 176.1 186.4 193.5 191.4 192.7 212.5 219.9 217.7 216 214.7 212 208.1 203.3 199.1 198.4 193.5 184.6 171.8 165.2 158.8 154.3 145.1 132.7 118.7 105.1 92.9 82.5 76.4 75.8 75 75.4 75.7 70.9 71 71 66.3 82.8 90.5 90.2 97.4 104.6 112.2 124.4 139.7 158.8 181.6 202.5 218.6 220.6 215.4 218.1 222 226.6 226.6 228.2 229 229.3 228.6 227 225.4 223.6 218.5 212 203.9 194.3 187.5 181.7 179.3 181.6
219.2 241.3 258.4 268.5 295.9 307 314.8 316.3 320.9 325.2 322.5 315.5 308.1 303.7 298.6 293.1 286.9 280.7 268.6 259.6 242.3 232.9 221.7 211.2 203.6 193 182.3 184.4 180.3 180 180.3 185.3 184.5 183.2 184.5 191.7 199.2 203.3 203.8 198.7 190 173.1 155.1 143.4 127.5 127.4 126.4 121.7 126.6 133.8 143.4 158.3 177.8 196.8 211.2 219.7 231.8 248.5 262.3 274.1 284.9 300.1 313.3 324.2 332.2 335.9 337.6 338 337.9 337.5 336.7 333.4 328 325.5 324.5 322.8 323.1 322.8 316.4 308.3 300.7 294.4 291.7 289.3 283.6 278.1 274.2 271.2 265.5 259 252.9 249.3 245.7 242 238.6 241.3 240.9 240.3 238.4 239.7 243.2 243.9 251.5 256 253.9 249.7 243.3 234.6 225.7 222.2 225.9 227.9 229 230.1 225.9 219.5 213.8 206.2 197.5 183.6 169.4 155.8 142.8 134 130.1 124.5 116.1 117.5 124.4 129.8 148.5 166.9 179.9 188.4 191.6 188.7 193.6 212.2 216.2 212.7 210.5 208.1 205.1 201.2 195.5 189.7 183.2 173.1 167.1 161.7 155.7 150.1 141.6 131.7 120.1 108.1 97.5 86.4 76.2 74.8 74.4 75 71.3 70.9 70.8 70.7 70.6 78.3 87.7 90 93.2 101.1 108.8 119.5 128.4 141.9 163.4 188.2 207.2 218.3 221.4 210.4 215 218.8 220.7 222.6 223.2 223.5 223.5 223.2 221.8 220 216.4 211.4 204.2 194.5 185.1 178 175.8 177.7
235.8 259 276.3 288.3 300.1 309.6 318 319 322.4 325.9 323.3 318.1 310.5 306.2 301.2 295.9 290.7 286.6 275.6 267.7 254.1 242 231 220.4 210.4 199.7 197.7 195.3 194.9 199.4 204.8 212.4 212.4 207.7 210.4 215.4 218.6 219.4 216.3 210.8 202.2 188.1 164.9 159.2 144.6 131.1 126.6 125.7 125.6 127.1 138.6 153.1 171.1 188 204.3 217.6 229.8 239.9 259.9 270.6 282.8 294.1 308 321.3 332.2 336.9 339.6 340.6 340.3 339.6 338.9 334.8 329.2 327.5 326.9 324.9 323.3 322.1 318.1 310.6 303.2 296.2 293.1 290 284.1 281.8 279.9 275.3 268.9 262.2 255.3 249.4 245.9 242 239.2 236.8 238.3 237.7 237 240.5 246.5 257.7 267.6 274.9 273 268.9 257.1 239.3 230 220.2 219.5 222.4 223 230.1 227.6 216.1 209.4 202.1 192.8 180.6 168.4 156.2 144.7 138 133.6 126.2 113.2 115.8 119.4 126.7 135 153 167.3 177.9 185.4 182.6 183.5 193.5 199.2 199.4 198 202.9 201.6 198.2 193.6 187.1 174.3 169.2 166 159.3 153.7 146.5 137.5 128.6 120.6 111 100.5 88.7 75.8 73.9 73.5 72.5 69.9 69.8 69.9 70 70.7 66 83.4 89.3 90.6 97.2 104.8 114 123.1 134.9 154.2 170.3 187.3 197.6 203.6 218.7 216.3 211.9 213.8 215 216.5 217.5 217.4 218 217.6 217.2 215.4 210.7 202.2 191.3 179.7 173.2 170.9 174.2
254.3 275 296.2 299 303.9 311.1 318.3 320.4 322.2 325.4 324.4 319.8 313 308.7 304.2 299 295.3 290 281.5 275.6 263.7 252.6 242.8 233.9 218.8 202.6 207.3 208 218.1 225 230.7 247.7 244.2 235.5 234.3 233.9 231.8 228.6 224.2 220.5 212.4 200.9 176.9 171.6 161.6 144 127.2 125.7 120.2 123.9 131 146.3 159.2 174.3 201.2 217.4 226.6 236.4 249.5 267.4 278.2 289.8 303.7 319.3 330.5 336.8 341.2 343.2 342.1 340.9 339.8 336.2 331.3 328.9 327.9 326.3 322.6 320.5 317.4 312.2 304.6 297.4 293.7 290.7 291.3 290.5 286.1 281 272.6 266.1 260.1 253 247.6 242.6 238.2 234 231.4 233.4 239.9 250 263.6 271.8 280.5 287.1 287.6 281 270.5 252.8 230.5 219.7 216.1 215.4 217.1 219.6 223.9 214.2 206.9 199.5 188.6 178.7 168.5 157.6 146.5 140.4 134.3 130.2 112.1 115 116 121.5 129.4 144 160.6 168.5 171.7 169.8 172.7 182.5 189.3 192.6 190.3 189.5 193.5 193.2 190.1 183.8 172.4 168.7 165.8 159.2 153.3 144.8 135.1 126.8 119.2 110.7 102.3 90.6 76.6 73.8 74.1 71.1 69.8 69.4 69.1 69.5 70 66 80 86.7 88.9 93.7 101.8 110 117.1 128.4 144.9 163.7 177.3 194.5 204.1 211.5 219.2 211.7 203.8 206.1 207.7 209 209.2 209.9 210.1 211 210.5 205.2 197.5 185.7 175 168.9 165.9 170.8
266.9 290.1 303.4 303.4 305.3 312.5 315.9 321.2 322.8 324.4 325.7 321.1 313.8 310.3 307.5 303.6 299.7 293.6 286.4 281.4 271 262.3 243.4 243.5 228.2 224.2 223.1 227.9 234.7 241.6 248.5 277.7 274.4 250.3 248.1 245.7 243.3 238.4 233.2 226.8 219.5 214 202 184.1 169.2 152 135.3 127.6 124.7 123.2 125.6 141.3 152 170.3 190.8 213.2 224.5 233.5 245.7 265.3 278.6 286.3 300.4 316.2 331.2 336.8 342.5 344.7 343.6 341.9 340.5 337.4 332.9 330 328.5 326.2 322.5 318.2 314.8 311.2 306 298.6 294.8 295.6 297 296.3 292.3 285.9 278.2 269.1 263.5 257 251.2 245 239.8 236.2 235.5 230.3 243.5 259.4 270.3 279.9 287.6 288.9 290.2 286 278.2 263.6 232.1 218.8 212.8 210.4 212.2 213.2 213.2 208.6 201.3 194.1 186.3 178.2 169.4 160.4 151.2 144 134.2 128.1 119.8 110.9 114.1 116.5 123.5 134.2 150 157.5 159.8 160.8 167 174.2 180.5 185.6 186.9 184.8 184 183.4 181.9 178.3 170.9 167.9 164.4 159.3 151.3 142.6 133.3 126 119.3 111.5 103.7 93.3 79.6 73.5 73.3 70.9 70.6 70.7 69.5 70 70.9 67.7 77.8 84.4 88.3 90.8 98.9 106.5 113.5 121.8 137.2 156.7 170.7 186 198.4 205.3 205.5 202.5 196.6 198.4 199.4 199.3 200.1 198.9 197.8 199.1 197.8 193.4 185.7 177.9 169.3 164.9 161.7 166.4
280.5 299.4 306.8 306.7 306.2 311.5 314.6 321.8 323.1 324.1 326.4 322.5 315 309.7 307.2 306.7 304.2 301.1 292.5 285.5 276.9 270.5 261.7 249.2 247.8 241.1 241.5 244.7 249.6 254.5 258.8 283.5 289.2 268 256.9 254.5 251.3 247.4 240.5 232.8 225 221.6 212.3 185 171.5 155.7 137.2 127.2 126.2 122.9 122.8 132.7 145.7 160.8 178.9 200.4 220.4 229.8 245.1 260.1 274.6 285.3 297.3 313 331.2 337.3 343.5 345.8 345.8 344.4 342.2 338.5 334.2 330.6 328.8 326.3 323.4 318.8 313.8 310.9 306.8 299.9 296.6 299.4 300.9 300.3 296.1 289.7 283 274.2 267.2 260.2 253.1 249.4 246.6 243.5 243.5 235.7 232.7 257.2 272.8 275.5 282.7 282.5 280.5 283.9 275.6 258.7 230.5 210.6 205.5 205.6 206.4 206.9 207.2 201.2 194.6 187.9 183.4 177.8 171 162.8 156.1 149.7 135.2 128.8 125.2 115.2 113.3 114.1 118.3 127.7 139.1 146.8 149 156.3 161.5 167.4 173.9 178.1 180.4 181.5 178.6 178 176.8 174.6 168.6 166.7 164.2 158.8 149.1 139.9 131.8 125.5 119.4 111.6 104.2 94.3 81.5 73 69.7 62.6 63 63.8 64.5 64.5 66 76.2 75.4 79.7 86.7 88.3 95.3 103.7 111.1 118.3 131.9 147.8 164.8 174 182.3 195.2 201.9 191.1 189.8 191 192.3 192.5 191.5 188.1 185.1 185 185.1 182.7 177 172.2 166.1 162.5 158.4 163.5
293.9 305.4 310.3 308.7 307.5 309.3 312.8 320.9 323.2 323.1 325.5 323.9 313.8 308.9 306.3 303.9 302.2 303.6 299.9 292.6 283.4 276.2 269.2 261.3 259.7 255.7 255.9 258.2 260.6 269.4 285.8 288.5 294.7 278.7 263.7 261.4 258.2 253.6 248.1 239.8 229.8 221.8 207.1 182.5 168.4 152.2 139 128.7 128.8 122.6 118.1 124 140.6 153.7 171.9 192 214.8 227.5 242.1 256.9 271.9 283.6 294.6 310.6 331.3 339.4 344.8 346.8 347.8 346.5 343.1 339.2 335 331.7 329.2 326.1 323.8 319.2 314.6 310.2 306.5 300 301.2 302.7 305 305.2 300.2 292.6 285.4 277.4 271 265.1 257.9 253.2 251.4 250.4 251.3 247.6 227.1 237.7 254.6 256.5 256.4 255.6 256.3 261.1 249.4 231.3 214.7 200.5 195.7 196 198.5 200.7 199.7 195.5 189.2 186.8 183.2 179.2 173.7 166.6 159.3 150.4 142.3 133.4 127.6 116 109.1 111.9 116.3 124.9 134.5 140.3 145.6 151.9 157.4 162 166.4 169.3 173.5 175.6 172.6 172.1 173.3 173.7 169.5 165.8 161.4 155.9 147.6 139.6 131.8 126.2 119.5 112.4 103.9 94.3 83.5 72.9 62.6 66.9 66.1 67.4 67.7 75.4 74.3 70.7 72.5 75.7 83 88.1 93.2 101 109 115.3 127 140 156.5 165.9 171.9 175.3 183.2 182.3 183.8 184.9 185.3 185.9 185.9 182 182.1 181.1 179.6 175.9 172.6 168.6 163.6 160.4 156.1 161.7
298.3 306.1 314.3 312 310.1 310.6 311.5 318.9 321.6 322.2 323.3 323.3 313.9 308.8 305.1 302.6 300.4 299.2 302.7 295.1 290 281.9 274.8 272.3 269.1 265.7 266.4 268.6 269.7 272.7 291.7 294.8 296.5 284.5 268.6 267 263.2 258.6 252.9 246.3 236.9 228.2 213.8 183.5 167.7 154.9 140.3 128.8 128.3 122.3 120 117.2 130.7 147.6 165.5 186.4 211.4 226.7 241.1 254.8 269.9 282.2 291.6 308.8 332.4 342.5 346.2 347.8 348.5 346.3 343.5 340.4 336.2 333.1 330.1 325.4 322.4 319.5 315.6 311.3 306.7 303.4 304.7 305.8 308.6 309.2 304.6 299.4 290.7 283.1 277.5 272.9 266 258.9 255 256.8 258.6 257.5 236.5 218.4 232.9 237.3 233.9 231.5 231.7 230.8 220.4 203.6 199 191.5 185.1 184.3 186.1 190.2 190.1 188.6 184.4 183.5 181.4 177.3 172.8 166.3 159 149 143.3 136.8 131.3 128.3 114 113.6 108.7 119.7 130 137.8 144.8 152 158.1 159.9 159.7 162.5 166 167.5 166.8 167.7 170.9 173.3 170.4 164.4 160 155.6 148.1 141.4 134.9 130.5 123.8 115.7 104.8 95.4 87.5 71.7 64.7 65.8 66.5 66.4 66.3 72.9 72.1 70.7 72.6 76 76.8 88.4 91.5 99.6 108.1 114.2 122.4 135 148.4 158.8 165.3 168.2 173.2 176.8 178.2 179.1 179.1 180.1 180.3 180.1 179.3 178.2 174.7 170.5 167.7 165.9 160.1 155.1 150.9 161.3
300.8 304.4 311.2 315.4 317.2 315 311.7 316 321 321.8 321.7 320.2 314.5 309.4 306.1 300.6 299.3 297.9 297.1 294.1 291.3 285.5 282.1 280.3 276.8 275.9 276.7 278 279.2 283.9 288.3 287.5 298.2 284.2 279 281.1 271.4 262.9 257.5 251.6 242.5 232.9 220.5 187.7 167.8 156.7 142.2 126.9 127.2 124.5 120.1 117.2 126.7 143.3 161.4 183.5 209.6 226.2 237.4 253.2 267.5 280.4 289 306.9 332 344.8 348.1 348.9 348.1 347.2 343.5 339.8 336.8 334 330.6 326.1 322.3 319.2 316.4 312.6 308.2 307.5 308.5 309.3 311.3 311.5 308 304.4 297.9 285.5 278.1 273.9 269.2 264.3 258.6 255.4 254 253 241.3 224.1 218 221.3 221.9 219.7 215.2 212.7 207.4 201.1 193.1 184 177.5 175.5 173.2 176 180 179.8 179.3 179 178.2 174.3 169.8 164.2 155.9 147.8 142.5 138.1 135.1 131.2 126.1 113 112.6 117.5 127.4 138 147.2 154.1 160.2 161.6 156.6 156 157.4 159.7 161.3 163.9 167.8 170.1 168.4 161.7 153.1 152.2 145.7 138 132.6 130.2 128.6 120 105.7 98 88.6 71.3 69.8 64.1 63 65.2 65.1 66.4 73.2 72.5 73.9 74.1 75.5 87.7 87.1 98.4 106.1 113.7 120.5 130.7 140.4 150.5 156.9 161.7 166.3 170.5 172.7 172.9 173.2 174.6 174.5 175.5 177.2 175 170.1 165.4 162.5 158.8 150.5 144.4 147.2 158.7
309 309.6 319.3 314.7 320.3 318.6 312.8 313.4 318.7 320.4 320.1 319.1 314.2 310.1 306.8 300.9 297.7 297.6 294.8 292.3 287.2 287 287.5 287.6 286.8 286.5 286.8 286.7 285.6 289.6 297.1 295.1 300.6 292.8 290.8 286.6 280 268.3 261.2 255.4 247.9 236.5 222.5 192.1 170.4 158 145.5 131.1 123.7 122.4 119 118.6 121.8 141.6 157.5 181.5 206.9 225.6 237.3 251.7 265.3 278.7 287.2 304.5 329.5 345.1 349.9 349.6 347.8 346 342.8 340.4 336.7 334.1 330.1 327.6 323.9 319.2 317.2 313.7 311.6 310.8 311.7 312.6 313.5 313 311.1 309 305.1 296.1 281.1 277.2 274 268.6 262.5 256.5 250.9 248 239.3 230.5 219.6 208.4 210.8 208.7 205 201.1 199.3 193 184.2 179.3 180.5 178.7 171.2 172.7 171.2 174.9 174.1 174.7 175 172.5 167.5 161.8 154.4 148.4 143 140.1 136.6 131.1 126.4 119.7 112.5 115.2 124.9 137 149.1 154 158.1 160.7 158.2 150.4 150.5 152.1 155.6 159.6 163.1 165.4 164.4 158 149.6 146.5 141.2 133.5 128.7 126.9 121 117.6 103.1 97.4 88.7 71.1 67.9 65.3 64.3 63.4 64.6 65.8 71.6 73 73.3 73.7 74.2 83.4 87.4 96.1 103.8 111.5 117.1 121.8 132.4 140.7 148.8 154.8 159.7 164 165.9 166.5 167.6 168.1 167.8 169.4 172.1 172.1 168.5 165.6 160.1 150.4 143.2 136.4 145.3 152.3
321.4 323.5 322.7 312.1 321.8 320 312.6 309.9 314.2 317.4 317.6 317.1 315 311 307.6 305.8 301.7 297.7 295.6 293.2 290.9 291.3 292.2 293.2 294.7 295 293.6 292 290.6 290.9 299.1 302 299.5 296.5 296.2 292.6 285 273.1 264.2 258.2 251.7 240 226.1 196.8 171.3 160.6 148.7 139.2 123.5 122.6 118.3 117.8 118.5 139 156.5 178.3 204.7 225.3 236.5 251.2 264 276.7 286.4 302.6 327 343.2 350.1 350 348 345.1 342.1 340.5 336.7 334 330.3 327.9 325.5 321.3 318.7 315.6 313.8 314 314.1 315.1 316 314.5 313.4 311.7 308.4 303.6 290.2 278.1 276.5 270.2 265.6 260.1 257.4 250.3 240.3 233.3 225.1 215.8 215 212.3 205.9 197.5 191.7 186.2 190.6 192.1 188.4 183.1 177.5 172.5 171.2 171.4 166.5 168.8 170.3 169.3 165.8 163.1 156.1 150.4 147.2 142.2 138 130.9 125.8 119.3 110.8 105.4 121 132.5 145.4 153.3 155.4 157.2 157.9 150.8 144.9 145.1 150.4 154.4 157.4 158.9 158.2 154 144.6 140.1 134.7 128.1 123.5 121.9 119.1 104.3 100 91.4 88.8 71.4 67.9 65.7 65.8 61.3 64.6 66.3 71 72.8 73.1 72.6 73 76.8 86.4 94.2 100.1 108.2 113.5 117.3 124.1 131.9 140.5 147.5 153.1 157.5 157.4 156.7 157 156.8 156.4 159.9 164.6 166.5 165.2 162.5 158.7 149.8 141.3 133.3 134.8 137.9
319.2 325.8 325.7 318 322.5 319.9 310.9 306.2 307.4 311.5 313.8 314.4 314.1 312.2 310.4 309 305.6 300.2 296.2 293.9 293.4 297.6 298.6 299.4 299.4 300 298.9 297.9 298 304 307.2 305.5 303 300.8 299.3 295.2 288.2 279.6 267.7 260.5 253.4 243.6 228.4 199.9 171 160 147.7 136.6 122.5 121.6 118.9 117.8 117.8 140.8 156.4 176.8 203.6 224.1 234.9 249.2 261.9 276.6 286.7 300.6 324.8 340.9 349.7 350.4 348.1 344.6 341.8 339.1 336.4 334.6 331.1 328.7 326.8 324.2 321 318.5 317.7 317.7 317.2 317 317 316.3 317.1 315 311.2 307 300.1 284.7 276 274.8 267.6 260.6 256.9 253 243.2 236.7 229 222.9 223.7 220.1 215.1 208.9 203.5 199.7 202.3 203.3 196.7 191.1 182.3 177.7 178 177.2 172 163.9 162.8 165.1 163.3 161.2 159.7 153.5 148.4 144.5 139.1 132 125.3 118.5 110.5 104.1 117.8 127.1 138.8 149.2 154 155.7 156.3 152.2 143.6 138.7 144.4 148 151.5 152.6 151.8 149.5 142.3 132 126.6 121.6 115.7 117.3 114.5 101 92.5 89.3 86.5 72 68 65.3 65 61.2 64.4 66.9 71.1 72.4 72.7 72.7 73 78.6 85.5 88 96.6 104.3 110.2 113.9 117.8 125 132.6 137.6 138.6 135.7 135.4 135.2 135.8 137 137.2 143.1 153.3 158.7 159.5 156.6 153.1 144.6 135.3 129 137.4 141.9
311.6 323.7 322.6 325.8 318.9 319.4 310.1 301 301.1 304.1 307.2 310 312.2 312.8 312.4 310.8 308 303.9 298.5 296.2 296.6 305.3 310.4 309.8 307.4 305.9 305.3 309.1 311.2 313 310.8 308.9 306.2 303.3 300.9 297.7 291 283 270.5 262.6 254.3 243.8 224.4 194 169.8 153.8 142.2 132.6 121.1 120.7 120 119.6 113.8 141.3 156.7 177.2 203.7 225.7 237.6 249.7 260.9 274.9 286.6 298.6 322.4 338.5 349.3 350.9 348.4 345.5 342.1 339.5 336 334.2 330.8 329.1 327.7 325.6 322.7 322.6 322 321 319.9 318.5 318.4 318.5 319.2 316.2 312.4 309.2 302.1 293.8 279.6 272 265.9 263.6 257.3 253.2 246.6 240.1 232.1 226.4 228.2 223.4 219.6 216.4 212.5 209.3 213.3 214.4 207.5 196.3 186.3 183.9 179.6 178.6 177.3 177.7 168 159.1 159.9 158 158.5 157.3 153.5 148.2 140.1 131 124.7 120.1 110.7 102.8 112.1 120.8 130.6 141.3 148.5 153.9 154 152 140.8 136 137.2 142.8 146.3 148 146.5 143.7 139.1 130.2 124.3 117.4 110.3 106.5 102.3 96.5 91.9 87.6 78.3 72.3 66.2 64.8 64.4 61 64.5 66.7 71.4 72.6 72.7 72.6 73.4 77.4 84.4 86.6 93.6 101.1 107.5 111.8 114.3 120.1 124.2 124.7 127.3 130.6 131.6 131.2 131.9 133.4 134.1 134.4 142.9 148.4 151.4 149.2 145.9 139.5 127.2 136.7 147.4 154.1
312.6 316.8 322.5 314.5 318.4 313.8 305.9 294.5 291.7 294.9 299.5 303.7 307.2 310.9 311.6 311 309.5 306.4 302.1 299.9 301.5 309.9 321.3 321.6 319.6 317 315.8 317.6 321.4 322.5 315.8 311.7 307.8 305 301.5 297 291.7 283.2 272.2 264.7 255.3 243.5 220.3 189.4 166.2 149.2 138.2 129.5 120.6 120.2 119.9 119.6 116.6 142.2 158.9 178.8 203.6 226.4 238.4 249.5 261 276.3 287 297.5 319.8 337.5 346.6 350.2 349.6 347.1 343.4 340.1 337.1 334.9 332.1 330.2 328.5 326.6 325.5 325.5 325 323.8 322.3 320.7 320.2 320.9 321 318.7 314.2 310.2 304.4 298.8 283.5 275.1 268.4 263.7 259.2 254.4 248.6 242.9 236.9 231.2 231.2 225.8 222 218.9 216.3 214.7 215.9 214.8 209 195.3 188.9 188.5 185 184.2 179.8 178.4 176.6 170.1 154.7 152.6 154.2 153.5 151.1 145 137.3 129.1 123.8 118.6 113.8 104.3 107.7 114.6 121.5 132.3 140.7 149.7 151.7 143.7 135.1 130.4 130.9 135.6 140.2 143 142.3 137.8 139.7 128.3 122.2 116.4 110.1 104 99.3 91.9 88.6 84.7 80.9 73.8 66.4 65.1 64.5 60.5 64.5 68.2 69.4 70.1 69.6 71.3 72.3 75.6 84.3 82.8 91.4 97.7 104.5 108.8 112.4 115.4 117.1 119.3 122.7 123 123.2 121 122.3 123 121.5 122.5 128.8 134.2 138.1 136.7 133.5 128.4 129.7 142.6 152.1 159.8
312 311.3 319.9 322.2 305.2 303.3 302.1 290.5 282.5 283.5 290.9 297.4 299.3 303.2 307 307.7 310.1 308.2 305 303.4 304.6 311 318.5 324.2 324.6 322.9 322.5 324.3 325.6 326.5 319.8 312.9 309.4 306.7 302.7 298.1 293.3 285.8 274.8 266.5 257.4 240.9 212.6 186.1 162.2 145.5 136 128.7 118.7 119.2 119.2 118.9 113.3 142.6 161.3 179.2 204.5 224.5 237.9 249 262.3 277.9 288.2 296.9 317.9 336.9 344.8 349.9 350.8 348.6 346.6 343 339.8 337.7 334.8 332.2 330.4 329.2 328.5 328.2 327.8 327.2 325.5 324 322.3 322.3 322.8 320.2 315.2 310.1 306.5 302.3 292.2 280 272.1 266.9 260.3 255.3 250.5 245.3 240.2 236 233.9 228.7 223.9 221.3 219 217.4 216.5 213.6 209.2 200.6 197.7 190.4 190 188 184.6 179.6 176.9 173.7 168.3 155.2 144.3 145.4 143.6 139.5 132 128.1 121.2 116.4 114.3 106.9 107.3 108.7 115.1 122.8 132.9 138.7 140 134.1 128.5 126.1 126.2 129.3 133.2 136 134.5 133.1 136.2 128.6 119.3 113.4 109.3 105 101 95.6 91.2 87.1 86.6 73.7 66.7 63.8 64.4 60.4 64 69.2 70.2 69.3 67.7 70.5 74.3 75.9 84.8 82.7 89.2 94.3 101.2 105.5 108.4 110.1 111 111.5 113.2 114.1 111.3 110.7 112.9 105.5 107 109.4 111.9 117.9 119.7 120.7 120.5 125.9 136.4 148.8 157.7 165.8
310.7 312.4 314.7 316.4 306 302.7 299.2 286.9 274.2 268.9 272.5 280.4 285.9 288 293 299.9 309 310.9 308.7 306.5 307 311.2 316.4 321.3 325.2 327 325.9 325.4 324.5 324.3 321.9 312 309.2 306.9 303.2 298.6 293.5 287.2 277.5 267.6 259.1 236.3 204.6 181.2 161.8 146.9 136.1 125.2 118.3 117.4 117.5 117 117.1 144.9 160.3 177.8 202.9 224.3 237 247.4 260.4 276.9 287.1 296.9 312.2 335.3 344 351.2 352.6 351.2 349.3 347.1 344.1 340.4 337.4 334.7 332.3 331.7 331.4 331 330.7 330.2 328 325.8 324.5 323.4 321.4 318.6 315.3 311 308.4 305.6 298.8 286.1 277.2 269.3 263.1 257.5 253.1 247.8 242.3 238.4 237.2 233.2 229.1 225.7 224.8 228.4 228.7 220.8 214.4 206.2 204.7 200 198 192.4 189 183.6 179 174.5 171.5 162.4 150.5 141 136.7 133.8 128 121.1 118 114.6 112.3 107.7 102 108.1 109.9 114.7 122.7 132.5 129.7 126.7 125.6 123.8 122.6 123.8 126.7 128.3 126.3 128.8 133.8 128.4 115.7 110.7 106.3 102.5 97.9 94.3 91.3 89.9 85.2 71 67.4 64.4 64 63.4 63.2 69.1 70.9 71.9 72.7 72.3 74.3 76 80.8 84 86.6 91.2 96.9 100.9 103.3 105.2 105.5 107.6 110 101.1 99.7 102.3 102.8 117.8 121.6 125 125.1 124.4 126.4 130.5 134.4 139.9 146.4 154.9 162.8 169.7
307.5 311.9 313.8 317.7 307.9 304.5 299.1 287.6 275 268.6 264.1 267 273.2 276.3 281.5 288.7 303.2 310.1 311.5 310.1 309.1 311.3 315.2 317.3 319.6 323.1 325.2 325.2 323.1 321.8 321.7 310.3 306.7 306 302.2 297.9 293.5 286.8 277.3 269.2 259.1 227.7 197.7 177 161.5 147.7 134.3 122.8 117 116.4 116.7 116.3 122.7 145.8 161.1 178.2 200.5 221.9 235.9 247.6 260.7 277.4 287.4 299 316.1 338.5 343 351.2 354.5 353.1 351.1 349 346.2 342.3 339.4 335.6 333.6 333.7 333.8 334.6 333.1 331.7 330 327.3 325.6 323.5 322.2 318.4 315.7 312.2 309.5 306.7 301.5 292.6 282.2 273.1 266.9 261.2 255.7 250.3 244.7 241.3 239.2 237.2 235.1 232.8 232.5 237.1 239.4 232.8 225.3 217.4 213.2 210.9 205.8 199.1 190.9 188 183.5 177.3 173.3 167.8 158.6 153 147.2 140.5 131.9 126.8 125.7 122.5 120.2 116.5 107.2 108.1 106.4 107.9 111.9 121.5 119.7 120.7 121.6 121 118.6 118.9 117.8 116.7 116.8 118.1 124 124.1 111.1 107.4 103.8 99.5 95.9 92 89.1 90.5 72.9 72.2 72.9 65.1 63.8 63 63.9 66.9 69.2 70.9 71.1 72.3 74.1 76 76.4 80.8 83.3 88.9 92.4 95.8 99.9 100.4 100.1 100.4 100.3 93.2 108.8 115.1 121.2 126.8 130.1 133.2 134.6 135.1 139.4 144.8 149.8 155.2 158.2 163.7 170.2 177.5
302.4 308.3 310.5 316.7 316 308.2 301.4 287.7 273.4 264.4 257 257.6 261.8 264.8 268.6 274.9 286.9 301.3 309.2 311.6 311.2 312.1 313.2 314.9 316.6 316.5 317.8 318.9 319 316.8 318.3 308.1 303.3 303.9 301.9 298.9 292.5 286.2 277.1 269.9 249.3 217.6 191 177.6 160.4 146.8 134.3 119.8 114.9 114 115.6 115.3 124.6 147 161.8 179.2 201.9 223.3 235.3 246.5 260.1 277.8 288 302.9 317.9 337.8 343.3 352 355.5 354.1 352.2 350 346.8 341.8 337.5 334.9 334.6 334.5 334.8 334.9 334.7 333.3 332.1 329.1 326.5 323.8 322.2 319.3 316.3 313.2 310.4 307.7 302.7 297.7 286.7 276.5 269.4 264 257.8 252 248.2 244.1 242.6 242 242.8 239 237.9 244.7 249.5 244.6 232.5 225.5 221.1 219 214.2 205.8 195.2 188.9 186.6 180.3 175 169.9 163.1 158.8 151.9 145.2 139.4 131.5 129 129.2 124.6 120.6 114.7 110.9 104.8 101.3 102.4 106.3 106.9 107.6 110.1 114.6 111.4 107.6 104.2 100.1 100.1 104.8 109.7 109.6 106.5 103.6 99.6 96.8 94 90.9 87.3 74.1 70.6 86.1 80.9 64.6 63.6 63.2 59.8 65 66.3 68.2 70.9 72.3 74.1 76.3 76 79.2 81.7 85.1 89.3 92.3 95.3 89.6 88.4 91.1 95 108.7 119.1 125.3 130.1 133.8 137.7 139.8 140.9 144.5 149.4 155.4 160.9 165.4 168.2 169.4 177.3 185.4
295 301.3 305.1 305.1 306 304.7 302.9 292.1 271.3 256.4 245.7 243.4 247.6 251.2 254.4 261.2 272.4 288.1 301.9 308.4 311.4 311.7 312.8 312.3 313.1 312.9 312.6 311.6 310.5 308.4 308.7 305.8 299.9 300.8 300.6 297.8 291.5 284.7 277.1 270.1 236 210.1 188.7 173.8 158.3 144.9 133.3 115.9 113.6 113.7 116.3 116.2 127.6 148.6 163.7 180.4 203 224.1 235.3 247.7 264.5 279 290.2 304.3 322.6 335.5 342.3 350.6 354.2 354 352.1 349.7 346.2 341.5 338 335.5 335.5 334.9 335.1 334.8 334.4 335 333.7 331 327.9 324.4 321.7 318.8 317 314.5 311.4 308.5 304.4 299.8 293.4 281 272.1 266 260.7 256 252 247.3 244.6 243 242.6 242.3 243.5 254.5 255.2 248.1 238.1 233.2 228.1 224.5 221.2 212.3 200 192.3 188.9 184.3 178.5 172.5 166.3 163.6 155.6 149.5 143.8 136 132.4 132.1 128.3 123.2 125.1 123.1 117 109.2 102.7 97.7 99.6 99.4 99.3 101.6 99.2 97.7 95.9 94.4 91.5 89.9 88 93.7 98.5 97.3 95 92.7 91.8 88.6 74.2 78.8 88.4 86.6 83.3 73.1 63.9 63 59.8 63.7 64.4 65.3 66.8 71.1 75.7 76.4 76.7 77.7 81.7 79.3 79.8 80.3 80.8 85.8 94.1 98.7 107.6 116.8 124.1 128.5 132.9 136 141.1 144 148.5 153.9 160.1 168.1 170.7 175.3 177.8 177.8 184.5 192
281 293.9 299.1 301.7 302.2 303.1 301.2 292.6 274.1 249.3 238.1 230.6 234.2 237.1 241.4 246.8 256.8 272.5 290.3 299.8 306.2 308.9 309.7 310 310.1 310.2 310.1 309.2 307 305.2 304 302 296.5 295.9 296.5 295 289.4 282.7 276.6 267.3 229.3 203 186.3 170.9 156.4 141.1 131.2 115.5 112.9 113.6 117.4 116.9 134.7 148.6 163.9 183.3 203.2 226 247.8 253.3 263.2 279.3 288.1 300.1 318.5 332.2 342.6 348.4 352.8 352.9 351.6 349.5 347 341.2 337.9 333.7 333 333.9 334.2 333.6 332.4 331.8 332.7 331.2 328.1 325.6 322.1 319.9 318.4 316 313.2 310 306.2 302.3 298.1 290.2 276.9 268.5 263.2 258.1 255 251.9 247.9 244.3 243.5 243.7 247 255.2 268.6 251.6 245.4 236.5 234.4 227.5 221.9 219.8 207.5 198.2 191.5 187.4 181.8 174.6 168.3 164.5 157.6 152.3 148.3 141.6 136.7 134.9 131.1 131.3 131.5 129.2 122.8 117.1 114.6 112 102.8 98.6 99.4 99.1 98.4 97.5 98.9 100 112 112.6 109.6 100.8 91.4 86.7 86.7 87.1 83.8 81.8 87.3 89.7 89.1 87.8 84.7 81 66.4 63.3 59.8 63.2 64.2 64.9 65.6 66.3 71.2 76.5 76.1 77.7 81.4 81.7 83.6 83.4 88.6 96.6 99.4 105.3 113.8 122.4 128.2 131.8 135.9 141 145.8 150 155.8 164.3 174.2 180.2 184.5 187.3 187.8 187.1 193.3 200.4
258.8 274.4 283.2 290.6 290.6 292.4 293.1 287.2 266.5 242.8 231.1 222.9 223.6 226.5 230.4 234.3 245.1 256.5 277.7 292.5 298.3 301.8 303.2 304.9 306.8 307.2 306.4 305.4 304 302 300.5 298.2 293.6 292 292.5 291.2 287.7 281.3 277 258.3 226.5 199.4 183.6 166.3 153.2 139.6 128.1 116.7 112.7 113.4 119.2 117.9 135.7 150.5 166.6 185.7 208.4 231.3 246.2 248.5 259.1 280 288.6 302.8 320.5 334 343.2 348.8 352.4 353 350.9 348.5 344.5 340.5 337 333.4 331 329.1 326.9 329.3 327.8 325.4 324.5 327.4 326.8 325.3 322.8 321.1 319.4 318 315.4 312 308.1 304.1 299.3 293.8 285.2 272.6 265.2 260.4 256.9 255.1 251.1 247.3 245.1 245.3 249.7 254.5 265.8 258.3 262.2 243.1 241.1 233.2 224.8 221.7 214.7 206.1 197.7 191.1 185 177 170.6 165.7 160.8 154 149.7 142.6 139.9 137.2 136.6 138.8 137 132.9 127.3 123.7 120.9 119.6 117.4 114.5 112 111 111.4 113 117.8 123.5 120.2 117.7 113.7 106 102.1 99.6 98.5 93.1 90.3 87.8 86.4 85.9 87 86.4 82.5 82.5 73.3 63.4 59.6 62.5 63.7 64.1 64.6 65 69.5 75.2 75.2 76.5 81.1 82.9 85.5 87.5 95.7 98.4 102.6 114.3 127.3 135.9 135.9 137.8 143.1 148.7 152.4 157.4 166.1 181.4 188.6 192.5 195.5 196.9 197.1 197.4 202.2 208.9
239.7 249.5 255.5 262.2 263.9 264.7 265.8 263.2 253.4 237.2 224.6 214.9 215 214.2 218 223.9 233.1 243.8 258.1 276.1 288.1 295.2 298.1 298.2 299.4 300.2 301 302.3 301.8 299.1 297 295 291.2 288.7 288.8 287.8 285.1 281 276.9 252.9 219.6 195.8 181.8 164.8 151.5 138.8 127.3 111.6 112 112.7 109.5 121 133.7 152.6 168.8 190 216.6 231.5 236.7 245.5 259.6 281.2 288.5 300.7 315 335.3 344.3 350.4 353 352.9 351 347.9 344.7 338.6 335.4 332.3 327.4 320.9 316.7 316.3 315.3 315.7 318.3 318.7 322.3 321.3 321.8 323.1 321.6 319.7 316.4 313.7 309.9 306.1 300.7 294.9 288.7 279.9 270.7 262.5 259 256.5 254 250.2 247.4 249.3 251.7 253.9 259.4 259.7 260.4 254.9 241.3 239.9 229 226.4 218.9 210.1 204.4 195.5 188.1 182.4 173.7 168.5 164.1 158.9 151.1 145.5 142.7 140.9 141.9 144.8 143.2 137.2 134.3 130.6 131.3 128.8 126.5 121.2 119.5 121.6 123.3 127.9 129 128.9 127.2 121.8 113.2 107.8 102.5 105.3 104 99.5 94.6 91 88.5 86.9 85.8 86.2 85.4 83.7 78.5 64.4 59.3 62.8 62.8 63.6 64 64.8 67.6 74.7 74.7 75.6 81.4 84.6 86.9 90.5 96.8 107.1 113 123.9 138.6 151.7 154.2 147.3 152 157.6 161.4 168 183.3 194.2 201.3 204.9 207.2 207.8 208.8 209.3 211.5 216
220.1 227.3 234 242.2 245.9 245.7 242.3 243.1 238.2 230.1 219 207.6 204.7 206.2 207.1 209.9 216 230.1 243.6 254.3 268.5 282.6 290.9 293.1 290.8 289.9 293.6 295.4 296.3 294.2 292.4 291.5 289.4 286.1 285.8 284.8 282.6 280.3 276.8 249.8 216.3 196.9 181.1 166.6 151.3 139.8 127.9 112.4 113 112 114.4 116.3 133.8 153.1 170 193 221.5 229.8 237.8 247.6 260.9 281 288 294.5 311.5 334.3 343.3 351.5 354.1 353.5 351.8 348.9 344.9 340.1 336.4 333.1 326.7 319.3 309.4 304.4 303.7 304.5 307.2 307.8 310 314.5 318.1 322.6 322.6 320.5 317.5 315.2 311.7 308.3 303.5 297.8 292.2 286 277.6 267.7 261.6 258.4 256.5 253.4 250.4 253 252.3 252.1 255.3 261.7 257.8 253.3 248.7 241.7 235 224.6 221.2 213 206.2 198.3 190.2 182.6 177.3 172.7 167.8 163.1 156.4 150.8 148 145.3 143.6 145.6 145.7 143.8 141.1 138.9 139 137.5 135 132.8 128.9 128.4 131.6 136.3 136.5 132.9 130 126.3 123.1 120 116.7 113.2 109.3 105.5 101.7 97.7 90.9 89.4 88.1 87.2 86.2 85.6 81.8 70 59.3 62.5 62.7 63.1 63.9 64.8 67.3 73.2 73.9 75.9 81.9 85 88.5 93.9 100.6 113.4 125 134.1 146.2 163.4 167.3 164.2 168.7 170.7 173.3 183.3 197.7 209.4 215.3 218.4 219.9 219.7 220.5 221.1 221.7 225.5
199.8 212.3 217.6 221.3 224.6 225.8 225 224.4 222.8 218.7 214 203.6 197.1 200 200.9 202.4 204.6 212.5 228.9 241.4 249.4 260.5 275.8 284.2 284.7 283.2 281.7 285.7 288 286.8 285.6 284.5 283.1 280.5 282.1 280.9 278.8 278.1 275.2 248.1 215.7 195.3 179.8 168 153.6 140.1 129.7 113.8 106.4 111.9 115.7 116.2 136 153.6 170.7 194.7 218.2 232 238.5 247.9 261.7 281.3 287.9 294 305 329.9 342.6 350.1 352.4 352.9 350.6 347.5 344.3 341.4 338.9 336.1 330.5 322.5 305.8 295.9 291 290.5 293.7 299.9 301.3 305.3 315.2 319.7 321.9 322 319.6 316.6 313.4 310.2 305.5 300.5 294.8 289.2 283.1 274.5 267 261 257 255.7 253.2 251.6 253.4 249.4 250.8 253.1 263.7 258.2 249.8 242.2 241.7 233.1 222.1 213.8 207.9 202.9 192.5 183.7 180 175.6 171.2 167.1 162 157.1 152.5 148.3 146.2 147.6 149.6 150.2 149.2 147.8 148 147.1 144.7 142 138 135.5 138.4 142.1 141.8 139.8 136.3 131 128.6 128.1 124.5 121.6 118.4 112.8 108.7 104 98.7 94.8 90.2 86.8 86 84.6 83.5 72.4 61.7 62 62.4 63 63.9 64.7 67.7 72 72.6 77.4 83.3 88.4 92.7 98.5 105.1 119.3 132.1 145.6 153.6 168 179.2 187.1 190.4 190 195 204.9 213 223.1 228.7 234 235.9 235.2 234.7 233.6 232.6 234.6
181.8 191.3 198.3 204.1 206.3 207.1 207.4 205.3 200.3 201.9 202 194.6 187.7 193 195.1 195.9 197.5 201.2 211.3 225.2 233.7 240.2 249.4 266 273.5 274.4 272.4 271.1 275.7 277.8 276.7 276 275 272.6 274.6 276.1 273.9 273.3 267.5 243.6 213.7 192.9 179.8 166.4 152.5 139.9 131 114 110.4 111.2 111 118.3 138.6 153.2 170.2 196.6 221.9 235.6 240.5 248.4 261.7 280.4 287.8 293.2 303.6 321.6 339.2 347 348 348 346 344.1 342.4 341.2 339.7 336.7 331.8 323.2 302.7 283.7 282.6 281.9 281.7 287.8 293.2 298 310.1 317.3 321.1 322.6 321.6 318 314.8 311.6 307.6 302.6 297.4 291.6 286.5 280.1 273.6 265.3 258.1 255.9 254.8 250.7 251.8 245.1 247.1 248.5 253.2 256.5 250.9 249.5 240.3 238.9 229.2 217.1 210.2 205.4 195.7 187.6 183.7 180.1 175.2 170.5 166.3 161.9 156.4 151.7 149.7 149.9 153 155.7 156.5 155.6 154.4 152.5 151.8 150.7 146.6 143.7 143.8 147.4 146.2 143.1 140.9 139.1 136.3 134.1 131.3 128.5 125 121.7 116 111.5 106.2 101.8 96.8 90.9 85.7 84.5 84 72.9 62.8 58 62.4 62.8 65 64.9 68.3 71.5 71.7 78.5 86.3 93.2 97.5 103.2 109.5 121.8 137.1 150.1 159.9 171 189.6 204.8 207.7 209.5 215.1 221.4 230.1 239.7 246.2 251.4 253.2 252.1 249.3 246.1 243.6 244.9
167.3 177 184.2 189 190.6 188.7 187.5 187 185.2 185.6 187.2 184.5 180.2 184.7 187.6 191.2 191.8 192.6 198.2 207 216.6 224.9 230.2 235 244.2 254.9 258.6 257.2 258.5 260.3 259.7 260.4 260.3 254.7 263.4 267.6 267.9 265 255.3 233.4 209.3 192.2 175.2 165.2 152 139 131.3 114 107.7 110 109.3 122.1 140.2 155 172.6 201.4 225.7 237.7 242.3 249.5 261.6 281.1 287.3 292.7 300.1 310.9 328.7 337.8 339 338.6 337.1 337.8 337.7 337 337.4 333.2 326.3 317.3 296.6 279.2 277.8 277 276.2 277.9 281.8 286.3 295.3 312 320.2 322.2 321.8 319.3 316.2 313 309.7 305 300.5 294.4 288.7 284.1 279 272.7 263.6 256.7 254.7 250.4 248.2 241.9 243.9 244.4 249.6 252.6 251.3 249.2 244.5 239.8 233.6 224.7 212.5 205.7 197.7 191.3 186.8 182.2 177.9 175.2 171 166.3 160.4 155.6 153.3 151.5 155.7 161.6 163.3 162.8 161 158.6 159.5 157.2 154.4 151.5 150.3 152.2 151.2 147.5 144.2 142.7 141.5 139.2 136.4 133 129.9 128 122.4 116.2 112.7 108.5 103.4 96.3 88 84.7 83.9 73 62.6 62.5 61.7 62.4 65.1 65.6 65.8 70.4 70.3 80.1 89.1 95.7 101.7 106.9 114.6 123.8 138.7 152.9 164.7 179.1 209.7 216.2 224 227.1 231 236.3 253.5 263.4 266.7 269.4 270.3 270.2 267.8 262.4 256.1 255.5
155.3 163.5 171.5 175.8 176.3 175.9 174.8 175.3 174.7 171.9 175.3 174.9 173.8 177.6 179.7 183.8 184.6 184.6 187.6 193.7 198.8 203.4 210 216.4 220.4 225.7 232.6 238.6 244.9 246.2 243.8 240.6 237.9 236.1 241.3 249.9 254.2 251.8 241.9 223.6 204.6 190 176.1 164.5 150.9 140.4 131.2 112.6 102.5 109 108.8 123 141.4 155.6 179.8 209.4 230.2 239.6 243.7 250.9 261.1 281.1 287.7 292.6 297.9 304.3 311.7 319.2 322.1 323 324.4 325 327.6 322.3 329.9 328.6 319.4 306.2 291.4 278.2 271.5 270.3 267.8 270.5 271 274.9 284.7 299.4 315.7 320.1 321.5 320.5 317.9 314.9 312 308.2 303.3 297.2 291.3 287.8 281.7 276.7 271.4 260.7 258.6 252.6 242.5 236.8 240.2 240 243.5 249.3 250.5 250.2 246.9 243 236.1 230 217.4 208 201.1 195.1 190.3 186.6 183.9 179.8 175.4 171 166.1 162.1 157.7 155 156.9 165.7 168.5 167.5 166.3 162.6 163.6 163 160.5 157.8 156.2 157.5 155.9 152.8 149.1 147.2 143.9 142.5 140.6 138.1 135.3 131.9 129 123.5 118.3 115 110.8 103.4 92.2 84.2 82.5 73 62.4 63 62 61.8 63.6 65.6 65.4 66.2 71.2 84.9 92.4 101.1 106.4 111.2 117.4 124.6 136.4 148.7 165.6 196 213.5 224.3 236.2 242.7 246.7 253.9 269.2 277.3 283.1 286.6 288 288.1 285.3 280.9 273.8 269.7
149.4 153.8 160 163.9 165.3 164.6 163 161.9 163.7 164.7 164.3 164.4 169.1 170.5 170.6 173 175.9 176.4 177.1 181.9 186.4 189.8 191.9 195.9 199.1 203.1 207.4 213.1 217.2 217.8 223.1 221.3 218.9 216.8 220.5 225.9 230.9 234.5 229.7 216.6 201.7 188.3 176 165.1 148.5 139.6 130.5 111.6 106.7 108.1 108.4 124.2 142.5 157.1 181 209.1 233.1 241.4 244.5 252.1 262.8 280.4 287.4 290.7 295.4 299.1 302.8 304.3 304.1 307.3 308.4 310 312.4 316.4 318.6 314.6 309.8 298.8 288.4 277.2 269.1 263.9 257.5 259.1 262.6 267.9 275.5 286.6 300.6 315.4 319.4 320.4 319.6 316.7 313.8 310.7 306.2 300.2 294.6 289.6 284.8 280 274.5 268.6 260.1 259.2 246.2 235.3 236.8 236.4 238.6 243.9 247.7 247.8 248.4 245.4 239.2 230.5 222.6 213.9 206.7 200.1 194.9 192.8 190.4 185.4 180.6 175.9 171.6 168 164.8 159.2 157.3 159.6 165.9 168.4 167.2 164.9 165.5 165.9 164.6 163 161.8 161.2 161.2 158.5 155.6 152.4 148.8 146.2 145.7 144.4 141.5 137.5 134 129.8 125.8 120.8 118.3 114.6 96.8 85.3 84 73.2 62.4 62.3 62.2 62.1 60.1 65.1 64.9 67.5 78.8 86.8 96.2 105.8 110.4 117.2 122.6 128.5 137.8 149.9 167.9 196.9 215.9 229.4 245.2 257.5 262.4 265.9 275.2 287.1 295 300.3 300.9 300.7 300.7 296.8 292.2 289.7
143.4 148.3 151.3 153.9 155.7 156.1 156.4 156.2 157.7 158.6 158.5 159.9 164 164.7 163.8 164 165.7 167.5 170.2 174.5 177.4 180.5 179.9 182.4 184.9 184.7 185.5 189.6 194 199 201.2 201.2 199.8 202.6 203.7 207.2 210.7 206.6 214.3 209.5 199.3 186.1 173.8 162.3 145.5 137.1 129.2 109.4 106.4 107.8 107.8 124.6 143.2 158.9 185 215.2 234 242.2 245.7 253.4 263.5 277.9 285.3 287.8 291 294 294.7 294.4 294.5 295.3 297.2 298.6 300.3 303.2 304.5 303.1 299.7 293.1 284.7 276.1 268.7 260.2 249.7 243.4 253.6 261.7 268.5 275.9 288.3 300.5 308.6 317.5 319.3 317.9 314 310.9 307.5 302.5 297.2 291.1 287 282.9 277.8 271.2 262.3 258.7 250.9 234.9 230.1 230.3 234.8 238.6 242.8 244.4 245.6 246.9 242.4 235.2 227.7 219.6 212.6 205.5 200.5 197.4 195.1 191.3 187.1 182 177.1 172.6 169.2 164.8 163.8 159.8 160.5 163.2 164.8 164.8 167.2 169.1 169.4 168 167.1 166.6 166.9 166.3 162.9 158.3 155.7 151.2 150.9 148.9 147.4 143.8 140.5 135.5 131.7 128.3 125.1 118.8 102.3 87.2 83.2 73.7 63.9 62.2 62.2 62.6 61.9 61.6 64.6 67.9 82 90 100.4 109.9 116.1 121.7 126.2 132.4 141.2 154.2 170.1 196.2 215.1 229.3 245 261.4 273.4 279.1 286.9 295.3 302.4 307.1 310.3 312 311.9 310.9 308.5 306.7
138.5 141.7 145.6 148.6 149 148.3 149.2 151.2 152.6 154.4 155.2 156.6 157 159.4 158.9 160 161.2 162.7 165.3 166.1 168.4 170.9 173.1 175.9 177.1 176.7 175.2 176 179.5 183.4 184.3 184.9 187.3 190.3 190.7 190.3 189.9 191.3 195.3 197.4 192.4 181.5 167.4 157.6 141.7 133.9 126.9 108.6 108.5 107.4 108.1 124.6 144.5 161.8 188 217.3 233.4 241.7 246 252.7 261.9 271.1 278.3 280.5 284.5 287.3 287.8 287.8 288.2 288.3 290.1 290.4 292.2 294 295.8 296.1 295.1 289.6 283.9 277.4 269.6 261.3 251.1 235.8 243.3 255.7 261.9 268.2 279 293 299.6 303.9 315.2 316 312.5 309.8 307.8 303.8 298.6 293.5 288.4 283.7 279.5 273.2 265.5 259.3 252.2 237 227 223.9 229.1 234.8 238.3 241.4 242.3 243.6 242.8 237.8 231.2 223.8 217.5 212.3 206.3 203.1 199 195.1 191.7 187.7 182.7 178.2 173.1 168.3 166.7 163.7 162.6 162.4 163 164.9 169.4 172.3 173.7 173.8 173.4 173.5 173.3 173.5 172.8 169.2 164.3 159.6 153.9 153.2 152.8 150.6 146.2 141.5 136.7 132.3 128.9 125.8 108.8 90.1 83.6 74.4 65.7 62.4 62.1 62.2 62.2 58.4 64.6 70.8 84.1 94.1 105.7 115.2 121.1 125.6 128.9 135.9 144.2 156.5 170 190.9 212.6 226.5 241.2 255.8 270.4 281.5 289.5 297.9 307 311.5 316.1 321.5 319.7 318.7 319.1 319.6
132 133.4 139.1 143.7 145.3 145.3 146.1 145.5 142.8 151 144.9 145.3 153.3 152.7 154.4 155.5 156.7 158 159 160.1 161.7 164.3 167.1 168.8 170.6 170.9 169 170.4 172.9 173.9 174.4 175.5 177.6 177 178.3 178.9 179.4 178 180.2 183.3 182.9 173.6 163.2 157.2 139.1 127.6 122.6 108.9 100.8 106.5 108 129.3 143.8 162.7 190.8 218.8 233.8 241.1 245.8 250.9 259.2 263.6 267.5 269.4 273.4 276.2 278.8 279.6 279.8 280.1 282.8 284.6 285.4 286.8 289.5 290.8 291.5 288.9 286.2 280.1 270 260.3 249.6 233 232.8 247.5 255.6 262 268.8 279.8 290.1 294.5 299.6 305.6 309 308.7 307.9 304.5 300.4 296.7 291.5 286.6 282.6 277.7 269.9 259.5 252.4 240.2 227.9 221.3 223 229.9 235.5 238.5 239.1 239.9 240.6 239 233.1 226.2 221.2 216.9 213.7 210.3 203.8 199.7 196.6 192.9 188.5 183.8 178.2 172.1 170.3 167.8 167.5 167.7 164 164.2 169.8 174 177.4 179.1 180.4 181.2 180.1 179.3 180.2 176.9 172 167.4 159.6 156.6 156.7 156.1 153 148 141.6 135.5 132 128.6 113.8 91.9 84.4 75.8 65.8 62.4 61.5 61.7 61.8 59.3 62.9 77.6 83.6 96.4 110.4 118.9 124.4 128.8 134.6 139.9 146.5 159.1 172.6 186.7 207.4 219.8 234.6 247.6 260.4 270.6 281.8 294.8 308.8 315 320.8 327.1 330.1 329.4 329.3 330.4
121 118.6 123.6 131 132.7 133.2 130.5 127.3 127.4 126.8 130 136.3 137.9 147.6 150 152.2 153.2 153.7 154 154.9 156.2 158.6 160.9 161.1 162.9 163 162.5 164.2 165.5 166.2 166.4 167.1 168.7 166.5 166.4 168.4 170.1 168.8 170.5 172.8 171 164.6 160.1 151.1 136.1 122.6 116.7 108.2 101.6 105.2 110.3 133 143 164.7 192.9 220.1 234.8 241.2 245.6 249.1 256.3 259.3 259.7 261 261.4 263 264.2 265.4 266.8 269.6 274.6 277.3 278.6 280.3 282.5 284 285.9 287 286.8 281.3 270.8 261.1 248.3 229.1 219.2 236.8 247.8 257 262.5 269.6 277.4 283.6 288.5 294.6 300.5 302.9 303.6 304.1 301.1 298.3 295.3 291 285.5 280 272.1 261.9 253.6 243.5 230.6 220.6 219.5 221.3 231.9 235.8 236.8 237.8 239.6 239.2 234.4 227.6 223.6 220.8 221.2 215.7 209.3 204.5 201.4 197.4 193.4 189.4 182.6 177.4 175.6 173.4 171.8 171.9 168.6 165 167.6 174.5 179.6 182.7 185.5 187.3 187.2 186.2 184.7 181.3 177.7 172.5 167.5 161.7 159 158.4 155.7 152.6 149.3 145.5 135.5 127.5 115.4 96.8 85.1 75.6 65 61.9 61.4 61.1 61.1 58 62.5 80.3 90.5 98.8 112.6 121.9 127.1 132.5 138.5 143.5 148.8 159.2 172.9 185.7 200.5 212.3 223.7 234.2 248.7 260.1 272.8 285.6 304.1 317.5 328.2 333.1 337.3 340.4 341.5 342.1
117.9 118.8 117.1 116.3 116.9 116.8 116.1 115.4 114 113.4 120 123.8 128.7 134.2 141.3 148.8 149.4 150.2 149.8 151 151.8 153.2 153.2 153.8 153.7 154.2 155.8 157.3 158.1 157.4 157.6 158.2 159.3 156.9 158.4 159.9 160.8 161.4 160.7 161.9 158.8 156.2 151 142.8 132.2 120.7 110.3 106 102.8 104.2 113.5 132 143.4 165.6 194.1 219.5 236.3 241.2 245.1 247.6 252.9 255.6 254.4 253.2 251.7 250.9 251.7 252.6 254.6 257.7 261.3 265.9 269.9 272.7 275.3 276.9 278.6 280.9 282.2 279 270.3 259.9 243.9 224.3 209.8 226 238.6 249.5 257 262.6 268.4 275.4 278 282 286.5 291.5 296.6 303.4 302.3 300.1 296.5 293.1 288.7 284.6 277.8 266.2 257.2 246.9 233.3 220.8 218.1 218.4 222.4 232 234.8 236.3 238 238.1 236.5 231.3 227.8 225.1 225.2 219.5 214.3 210 205.9 202.2 198.3 193 186.5 183.9 181.4 179.3 176.8 175.5 174.8 171.8 168.2 172.3 177.4 183.1 187.9 190.3 191.3 190.4 188.7 185.3 182.6 177.6 170.9 168.2 166.3 165.7 158.9 158.2 159.3 146 135.6 123.8 129.2 102.2 86.2 73.8 63.1 62.2 61.2 61 61.3 57.7 62 83.4 92.4 103.8 116.5 123.6 128.7 133.1 138.8 144.6 151.1 159.7 172.3 185.7 197.8 209 218.5 226.9 238.3 251.7 266.5 280.4 294.1 316.7 331.1 337.2 342 345.8 347.8 349
115.7 118.3 117.3 116.2 116.7 115.3 117.1 114.8 113.8 113.8 110.6 112.9 113.4 117.2 127.4 135.2 146 145.4 144.9 146.7 147.1 147.2 148.5 149.5 149.8 148.7 147.7 149.4 150.4 150.7 152 151.7 149.6 148.6 150.3 151.4 150.6 150.8 151 150.1 148.1 147.3 143.4 137.2 127.5 115.9 106.4 104.8 98.1 103.3 119.3 129.3 142.1 166.2 194.8 223.6 236.2 241.6 244.4 246.8 247.8 249.8 248.5 245.6 241.5 238.9 240.2 242.3 244.3 246.8 249.8 253.5 258.4 263.7 267 269.2 271.2 273 276 275.1 269.7 262 242.9 220.5 203.2 214.3 228.4 243.4 251 256.7 261.6 267.7 269.7 272.1 275.5 280.8 285.3 291.9 301.4 301.3 298.1 295 292 287.6 282.2 272.1 259.8 251.1 234.1 218.3 218.4 216.4 220.2 225.1 230.9 233.8 236.1 237.5 236.6 233.7 230.7 227.3 226.9 224.3 220.1 215.4 210.6 205.9 201.8 197.1 190.7 189.9 187 184.5 181.8 179.1 178.1 176.9 173 171.1 176 181.2 186.9 191.3 193.6 193.5 192.9 190 188.9 183.7 176.4 170.9 167.9 166.9 162.2 165.1 146.7 132.7 102.1 116.8 120.8 107.5 87 72.3 63 63 60.8 60.7 61.1 57.7 73.6 86.1 96.5 108.6 116.9 124.2 129.7 134.9 140.1 145.9 151 158.5 170 183.2 194.5 205.1 214.3 223.1 234.2 247.2 261.6 277.6 289.9 309.5 327.9 338 345.6 349.2 351.5 352.8
117 116.3 116.8 115.1 112.2 124.5 129.5 130.9 135.9 130.5 119.9 117.7 112.6 110 113.2 123.2 127 138.1 142.1 133.9 131.5 126.8 122.4 124.4 125.9 125.7 134.3 142.9 144.3 144.8 146.6 145.8 143.7 141.9 144 144.5 144.7 144.4 143.4 142.5 141 137.9 135.3 133.1 124.8 112.3 104.6 103.2 101.3 102.3 119.5 126 138.8 160.2 190.9 219.3 235.7 241 243.3 244.7 245.4 244.3 241.7 236.5 233 230.1 230 231.8 235.1 237.5 239.7 242.1 245.8 250.1 253.7 257.6 261.7 263.9 267.1 267.5 265.5 258.2 237 217.2 199.3 204.4 216.4 231.5 243.7 250.5 255 258.7 261.7 263.5 264.8 265.5 270.2 274.5 283.1 294.3 299 296.7 293.7 290.6 285.2 275.8 262.9 253.9 234.2 210.8 217.3 214.7 219.5 223.1 227.1 229.6 232.1 235.4 236.6 235.7 232.2 229.3 229 229 226.3 221.2 216.1 209.9 205 200.5 197.5 194.8 192.1 189.2 186.1 182.7 181.1 179.9 177.2 174.2 175.9 179.5 184.6 189.4 193.4 195.2 195.7 194.7 194.6 188.8 183.9 178 172.4 169.3 165.8 158.9 134.1 101.9 101.7 112.8 125.9 104.6 82.9 67.4 63.3 62.3 61.6 60.7 61.2 60.8 76.5 93 103 107.9 115.9 124.5 130.5 135 142.9 147.2 152.5 159.3 168.3 180.4 190.9 200.3 209.9 219.3 230.5 244.3 258.8 274.3 290.2 304.7 320.9 337.6 346.7 352.4 355.3 356.4
133.4 122.4 116 118.5 133.3 144.4 150.9 150.1 149.1 147.1 142.1 137.8 123.6 116.8 116.3 108.5 112.1 112.5 112.1 111.1 110 104.4 107.4 106.2 101.9 106.5 108 111.6 122.8 133.7 141.2 139.8 138.9 137.9 138.2 139 139 139.9 138.7 137.7 132 129.9 129.1 128 124.2 117.1 104 99.1 94.8 101.7 116.5 122.2 132.7 150.9 178.7 206.4 232.6 239.2 240.9 241.8 241 238.4 233.1 227.9 223.3 220.7 219.4 220.1 225.1 229.3 232.1 234.1 236.6 239.2 241.8 243.4 246.3 249.2 254.8 257.6 257.6 251.7 231.7 212 196.2 193.7 206.5 220.2 234.5 243.5 247.7 251.3 254 255.5 256.3 256.8 258 260.8 264.6 269.9 276.6 286.8 291.6 291.8 287.3 279.8 268.3 254.5 238.4 212 205.9 213.5 219.3 222.1 224.4 225.2 225.9 229.9 234.2 235.8 233.7 231.5 230.6 230.2 229.7 227.1 221.6 215.2 209 204.7 202.4 199.8 196.9 194.1 189.6 186.6 184.1 182.6 179.8 177.7 173.9 176.7 181.9 187.2 192.5 195.3 197.9 198.1 160.6 169.4 184.4 186.9 181.3 176.3 169.2 126.9 109.6 101.9 101.5 105.9 114.4 90.9 75 63.2 62.4 62.1 62.3 60.3 60.5 62.9 83.1 90.9 91.9 117 120 126.6 132.5 138.3 145.4 148.2 154.1 161.3 170.7 180.4 190.6 199.7 209 218.4 234.5 251.9 259.8 273.8 290.7 301.7 319.3 337.4 346.4 353.5 357.3 359.3
145 147.3 141.6 145.6 152.8 155.7 154.5 153.8 154.3 153.5 151.1 147.7 143.7 126.6 121.8 117.1 117.3 112.9 108.7 118.6 117.7 117.5 117.5 113.6 113.7 115.2 105.1 106.2 105.6 105.1 110.5 127 135.4 133.7 132.9 134.9 136.9 135.9 134.4 130 125.2 124.5 123.7 123.1 121.8 118.8 105.6 98.1 96.8 100.9 112.2 118.5 126.7 141.8 165.1 190.5 219.5 232.4 234.5 235.3 233.5 229.9 224.7 219.9 214.7 210.2 206.9 206.7 208.1 214.9 219.9 226.2 228.7 230.3 232.8 233.4 234.2 237.2 240 245.9 248.6 242 225.2 209.5 194.6 185 197.4 210.4 223.7 232.6 239.7 243.8 245.9 248 249.9 251.2 250.8 252.4 254.5 257.6 261.8 267.1 273.1 278.7 287.2 282.4 274.2 260.9 244.4 216.5 195.8 207.9 218.5 221.5 223 222.3 221.3 222.8 229 233.3 235.3 234.8 233.2 231.3 231.2 232 227.3 220.7 214.4 209.6 207.4 204.9 202 198.7 194.8 191.3 188.1 185.7 182.3 180.2 179 173 174 179.8 189.1 194.5 172.6 153.7 151.9 138.4 154.1 167.6 168.4 167.3 143.8 101.1 130.1 102.2 101.2 100 94.3 80.8 70.7 62.4 62 62.2 61.8 61.3 57.7 70.7 87.3 97.3 100.8 117.4 124 131 135.2 139.6 146.3 149.8 156.3 165.3 172.9 182.8 193.2 202.4 211.8 224.5 248.1 270.6 274.8 278 292.6 302.4 318.6 334.6 346.2 353.6 359.6 360.6
149.3 152.1 153.3 155.6 159.8 162.1 161.4 161.6 161.9 161.8 160.9 156.9 152.2 149.6 135.1 131.5 132.4 127.6 122.7 119.4 118.5 117.1 117.3 113.6 113.4 112.9 110.4 105.9 99.6 103.6 103.6 104.1 118.1 131.8 131.5 129.3 128.8 126.7 124.3 124.2 120.5 120.9 121.7 121.2 120.5 118.2 108.8 97.1 94.6 100.5 109.8 114.1 121.8 133.8 154.3 175.1 200.3 221.9 226.7 228.5 225.3 221.3 216 209.5 204.7 199.8 199.3 201.4 199.5 200.4 208.3 213.2 216.5 219.8 225 225.4 226.1 227.3 230.5 233.1 233 229.8 218.4 207.9 190.2 173.2 186.2 201.8 214.6 223.1 230.3 235.1 237.7 240.3 243.8 246 246.5 247.6 248.8 250.3 251.7 256.1 263.5 268.1 273.8 278.6 276.5 265.8 243.3 218.7 200.8 188.1 205.6 215 219.6 219.3 217 211.4 218.6 227.2 234 237.3 236.8 234.5 232.2 232.8 232.2 226.8 219.6 215 212.5 209.6 206.3 202.8 199.4 196 193 189.3 186.2 181.7 181.5 176.3 171.6 173.2 179.3 185 194.4 170.6 151.3 146.8 137.6 140 143.4 140.7 111.4 110.3 154.5 103.8 99.3 99.4 84.5 74.5 62.9 61.7 61.3 62.2 62.1 61.2 57.7 77.6 93.4 103.1 115.2 122.5 129.4 135 140.1 144.6 149.5 153.4 159 168.5 176.7 186.8 197.3 208.7 220.1 239 266 285.3 288.1 288.8 295.9 305.7 319.3 332.6 345.8 353.5 359.7 361.3
153.8 156.6 159.7 166.3 165.9 167.3 167.4 167.9 167.6 167 165.5 164.6 161.6 159.1 154.6 151.7 146.5 144.1 140.6 138.2 136.7 130.7 121.8 118.9 118.7 113.7 109.8 106.8 104.7 103.6 103.4 102.2 102 103 105.7 110 109.7 109.9 108.8 112.9 111.1 109.9 110.3 112 118.1 117.7 109.3 98.1 92.2 101.1 106.3 109 116.4 125.5 141.4 161.2 184.2 204 219.8 220.3 216.9 211.2 205.7 199.3 196.4 193.9 186.4 185.3 184.6 188.2 192.6 198.1 204.4 206.8 209.9 213.3 216.9 218.4 219.1 220.8 219.3 216.7 212.5 204.7 190.7 171.2 176 193.4 204.3 213.2 219.9 224.5 228.6 232.4 236.9 240.6 242.1 242.9 244 244.6 244.6 245.3 250.6 260.7 264.8 268 269.8 259.5 244.8 223.2 198.4 179 178.5 187.8 203.7 207.1 205.3 201.7 204.7 215.4 227.2 236.6 238.3 236.1 234.5 233.3 233.4 231.1 225.8 221.8 218.3 213.5 210.1 207.2 204 200.1 196.8 194.4 191.2 185.9 184.3 182.7 176 172.2 177.4 176.1 180.9 195.3 187.2 153.8 145.3 139 133.1 119.2 97.8 127.3 157.4 137.1 120.1 87.7 81.7 68.5 62.4 60.8 61.6 62 61.7 60.1 62.6 84.5 99.8 108.2 120.3 129.3 136.5 142.1 143.2 149 153.6 158.3 164.2 172.2 180.4 190.3 202 215.1 231.4 253.9 280.2 292.5 296.5 301.1 303.5 308.5 320.9 332.5 344.4 352.9 359.2 361.2
157.4 166.7 169.1 168.8 170.8 170.8 171.5 173 173.6 172.6 171.3 170.2 168.9 169 168.5 165 163.8 163.4 155.1 150.9 148 145.8 143.3 140.8 135.9 123.7 118.5 110.8 106 103.5 103.7 103.7 101.5 96 103 102.3 101.8 100.8 95.8 94.7 98.1 97.8 95.1 93 97.7 97.7 97.5 97.3 96.3 96 98.7 105 113.7 121.6 130.9 152.3 172.7 190 201.9 209.1 204.9 198.5 194.8 189.6 184.8 179.2 175.4 172.9 174 176.7 178.3 182 186.5 190.1 193.9 199 200.1 205.3 206.4 208.2 210.3 208.7 206.4 198.9 186 169.3 167.3 184.5 195.8 202.7 210 213.3 217.8 223 228.8 232.2 236.3 237.7 239.2 239.8 239.3 240.5 241.9 247.5 255.2 260.2 261.4 258.5 249.7 229 203.5 184.2 170.4 172.9 177 191.3 195.1 194.8 196.6 203.7 214.8 226.4 235.1 238.1 236.7 235.9 235.7 234 230.3 226.9 223.9 219.1 214.8 211.4 208.2 203.9 201.7 198.6 195.2 190 187.1 185.7 181.6 170.4 167.3 162.2 170.8 186.5 196.3 198.2 169.6 137.8 137.2 119.8 97.4 136.2 160.9 135.2 111.9 85.4 72.9 62.3 61.7 61.7 61.7 61.6 61.5 57.6 73.7 88.7 98.4 112.5 126.9 136.7 142.6 147.5 150.3 154.9 161 163.6 169.6 176.2 184.8 195 207.8 222.2 244.6 270.5 288.6 298.9 309.4 311.8 310.4 312.6 322.9 333.1 344.1 352.4 357.6 360.1
