ncols 200
nrows 83
xllcorner 230000
yllcorner 244800
cellsize 50
153.3 151.5 151.4 152.5 153.4 153.8 153.3 152.2 149.7 140.5 133.9 136.4 145.1 147.6 146.8 145.3 142 139.7 137.6 134.2 128.3 115 109.7 110 112.6 114.9 117.7 120.9 123.5 125.8 127.8 129.9 132 133.8 136.2 138.6 141.7 144.9 148.1 151.3 154.6 157.9 160.8 163.8 166.8 169.7 172.4 175 177.6 180.2 182.9 185.7 188.1 190.6 192.4 194.2 195.2 195.7 194.4 193.1 191 189.1 185.5 184.1 184.2 186 190.3 194.6 196.4 198.2 199.2 200.4 201.4 201.5 201.5 201.2 200.2 197.9 195.3 191.3 187.6 182.3 175.9 168.3 160.7 152.5 144.5 137.7 132 121.9 115.3 118.1 122.5 124.9 126.7 129.2 131.7 134.7 137.8 142 144.3 147.2 152.2 157.4 162.5 166.3 169.7 173.8 178.9 183.9 188.9 193.7 198.8 203.5 208.1 212.4 216.2 219.7 223.1 226.2 230 232.2 237.1 245.4 253.2 261.6 267.6 272.1 274.3 275.3 277.5 280.9 284.4 287.9 291.3 293.7 296.2 298.4 300 301.5 302 301.2 301 300.4 299.1 297 295 292.6 288.1 285.9 282.9 279.4 275.6 271.3 265.7 256 244.7 238 231.2 229.9 228.3 227 223.8 220.8 218.1 216.5 214.5 214 213.3 212.1 209.7 206.6 204.3 197.1 195.1 192.4 213.9 236.6 242.5 246.6 249.9 252.6 255.8 260 264 266.2 266.6 265.8 266.2 267 267.2 268.7 270.4 273.2 274 275.3 275.9 276.4 276.7 276.8
149.1 147.1 148.1 150.7 152.5 152.6 152.4 151.5 149 134.5 130.4 132.2 137.6 140.8 140.2 139.8 138 135.6 133.2 129.3 116.9 111.9 108.6 109.2 112.2 113.3 116.6 119.7 122.2 124.6 126.6 128.7 130.9 132.7 134.9 137.1 139.7 143 146.5 150 152.7 156.3 159 162.2 164.7 167.7 170.5 172.7 175.6 178.2 180.7 183.4 186.5 187.9 190.3 192.1 192.9 193.3 192.6 190.7 188.9 185.7 181.8 180.5 181.7 182.6 186.6 193.3 193.6 194.7 196.4 197.6 198.7 199.5 200 199.6 199.1 197.4 194.5 191.4 188 183.4 178.2 171.5 163.7 156.6 149 144.5 136.5 124.2 113.3 111.9 119 122.8 125.6 128.4 130.9 134 138.8 143.5 147.4 152.1 157.4 161.8 166.1 170.1 173.8 177.3 180.7 185 189.7 194.5 199.5 204.1 207.8 211.5 215.1 218.8 222.4 224.9 228.2 231.9 236.7 243.8 250.9 260.3 267.9 271.1 273.2 274.7 277 279.6 283.1 286.5 289.2 291.9 294.5 296.3 298.2 299.5 300.6 299.9 298 296.8 295.8 294.2 291.8 288.7 284.4 282.6 280.3 277.2 273.4 269.1 263.2 253.6 243.9 237.2 235.6 235.8 233.9 230.9 228.3 223.9 221 220.2 218.6 217.5 215.6 214.3 212.7 210.3 207.4 206.7 202.8 191.2 201.9 228.8 243 246.3 249.1 251.5 254 256.3 258.9 260.5 260 260.2 260.6 262.9 263.1 267.5 271.2 274.2 276.2 277.8 278.6 279.4 279.6 279.5
147.9 144.7 143.3 146.4 146.2 147.6 147.2 145.4 133.4 130.1 128 128.7 132.3 135.3 135.8 135.6 134.2 131 127.8 119.3 113.6 109.4 108 110.1 111.7 113.2 114.6 117.1 119.9 122.2 125.3 127.5 129.4 130.9 133.3 135.4 138.1 141.1 144.5 147.7 151.1 154.3 155.6 159.8 162.2 165.8 168.8 170.9 173.7 176.2 175.6 181.7 184.3 186.9 188.6 190.3 191 191 190.7 189.2 186.9 183.7 179.1 177.9 178.5 180.1 182.8 185.5 188.4 191.3 193.2 194.5 195.8 197.1 198.2 198.1 197.2 195.8 193.5 190.8 188.1 184.3 179.2 173.9 167 160.8 154.9 151.6 144.8 127.2 120.5 113.9 115 120.3 123.2 127.4 129.6 132.1 138.7 145.8 151.6 156.2 160.6 164.7 168.6 172.2 175.9 179.2 182.4 186.5 190.4 195.2 199.3 203.3 207.4 210.4 213.5 217.1 220 223.5 226.4 229.8 234.2 240.4 245.8 254.3 262.4 268 270.6 272.1 274.9 278.1 281.4 284.6 287.3 289.8 291.9 294 295.9 297.4 298.3 297.9 295.9 294.4 293.1 290.2 288 283.8 281.7 279.7 277.2 274.8 271.5 267.1 261.4 251.1 245.4 245.4 244.1 241.1 237.7 234.1 230.2 224.9 226.3 224.7 222.5 220.6 218.8 217.7 216.9 215.2 215.5 214.3 208.7 198.2 191.7 219.5 239.1 243.3 245.2 247.5 249.8 250.9 251.4 249.1 249.7 249 250.2 258 264.7 269.1 273.2 276 278.3 279.7 280.9 281.6 281.5 281.3
155.5 144 139.8 138 137.4 136.4 134.4 133.1 129.7 128 125.6 126.1 127.6 130.6 132.2 132.2 130.9 127.5 119.1 113.6 109.7 107.4 108.6 110.4 111.9 114.2 115.8 117.1 118.2 119.7 122.8 125 127.3 129.6 131 133.7 136.2 138.5 141.9 145 149.1 152 154.8 157.2 160.7 163.6 166.5 169.2 171.8 174.5 177.2 180.2 183.2 185 186.9 188.3 189.1 189.1 189 187.8 186 182.7 178.4 175.6 175.6 178.1 179.7 181.3 183.4 186.6 189.6 191.5 193.1 194.6 195.9 196.1 195.2 193.9 192.1 189.9 186.9 183.9 179.4 174.1 169.1 164.6 161.3 158.6 154.2 133.3 122.8 113.4 114.6 118.9 121.7 125.4 127.9 130.3 136.4 146.4 154.3 159.5 163.3 167.1 170.8 174.5 178 181.4 184.6 188.3 191.5 195.1 198.6 202.1 206.1 209.4 212.1 214.8 218.1 222.5 224.8 228.1 231.9 236.6 241.7 247.8 254.9 260.6 265.5 268.1 271.6 275.2 278.7 282.2 284.9 287.2 289.8 291.8 293.8 294.1 295.8 294.7 292.1 290.5 289 286 282.9 280.5 278.8 276.9 274.9 272.2 269.3 265.7 260.8 257 252.7 250 247.1 244.2 240.6 236.8 232.5 229.8 229.2 229.3 227.4 225.2 221.7 221.9 221.6 220.8 220 219.4 216.1 205.5 190.2 208.4 228.5 234.7 238.6 235.2 234.7 233.6 232.8 230.3 234.6 244.6 253.6 260.5 266.7 271.5 274.8 277.3 279.8 281.2 282.6 282.8 282.9 282.6
159.3 153.4 140.6 136.8 133.4 131.8 130.1 128.8 126.6 125.3 123.7 123.3 125.5 126.4 128.1 128.9 127.9 124.2 114.5 109.9 106.4 107.6 109.3 111.1 113.2 115.6 117.9 118.7 119.4 120.6 121.7 122.9 124.9 127.6 129.9 131.8 134.3 136.4 139.3 142.7 147.3 150.4 153.7 156.4 157.4 162 164.9 167.7 170.7 173 175.2 178.4 180.9 183.1 184.9 186.2 187.5 187.6 187.6 186.8 185.2 182.6 177.9 173.9 173 175.1 176.6 178.2 179.9 182.5 185.9 188.6 190.2 192.1 193.5 193.9 193.2 192 190.4 188.5 186.1 183.2 179.6 175 171.2 167.7 165.9 163.8 159.7 143.1 125.6 112.4 112.6 116.5 119.4 123.3 126.2 128.9 133.2 145.3 154.4 160.2 164.8 168.5 171.7 175.5 179.5 183.1 186 188.6 191.6 194.5 197.8 201.1 204.9 208.1 210.6 213.1 216.3 220.2 224 226.7 228.7 232.5 237.9 243.1 248.8 254.1 259.2 264.5 267.8 271.8 275.9 279.6 282.5 285.4 287.7 289.8 291.2 290.6 292.6 291.5 287.8 285.8 284.6 282.2 279.4 277.3 274.9 273.4 271.5 269.4 267 263.5 260.5 257.5 255.3 252.4 249.7 246.3 242.4 238.7 235 234.2 233.6 232.7 230.8 228.9 226.7 227.3 226.2 225.4 224.8 223.6 221.7 208.3 189.1 201.7 215.7 217.7 213.6 210.3 212.5 218.9 226.1 237.7 245.4 252.5 258.4 264.5 269.3 272.7 275.9 278.4 280.5 282.1 283.4 283.9 283.7 283.5
159.7 153.7 144.8 137.5 134.3 130.9 127.9 125.9 124.5 122.5 120.4 121.4 122.5 123.7 124.7 125.8 124.3 118.6 111.7 106.4 106.4 108.6 110.7 112.7 114.3 117.2 119.5 120.6 121.8 122.1 123.1 124.1 125.9 127.2 128.9 130.7 132.5 135 137.5 140.3 145.9 148.2 156.1 154.8 156.8 161.4 163.4 166.6 169.2 171.3 173.4 176.5 179.3 181.4 183.4 185 185.9 186.5 186.5 186.1 184.7 182.6 178.8 173.9 170.5 171.2 173.4 174.9 177.2 179.2 183.9 186.1 188.3 190 191.3 191.3 191.2 190 188.6 187.1 184.7 182.3 179 175.5 172.1 170.2 167.6 166.5 163.3 153.5 133.7 117.7 109.8 115.5 118.4 121.3 125.1 127.6 131.2 140.3 150.7 158.6 167.1 169.4 172.6 176.1 179.7 183.2 186.5 188.7 191.1 194 197.2 200.1 203.2 206.4 208.8 211.3 214.4 218.9 222.5 225.3 226.6 230.5 234.5 239.4 244 248 253 259.2 263.9 268.6 273.3 277.3 280.6 284 286.3 287.6 287.4 287.7 288.7 287.7 284.4 282.4 280.7 278.3 276.3 274.1 271.1 269.9 268.1 266.3 263.8 261.7 259.5 257.5 255.2 252.6 250.3 247.4 244.2 240.3 238.2 237.6 237.1 236.4 234.5 232.6 232 231.3 230.9 231 230.3 228.8 224.2 205.2 188.6 195.4 194.1 200.6 209.6 216.7 223.6 229.2 235.7 241.6 248.4 256.1 262.7 267.2 270.7 274 277 279.2 281.1 282.8 283.9 284.3 284.7 284.5
157.9 152.6 146.1 139.2 134.7 132 128.1 125.6 123.3 119.3 117.5 118.8 120 121.5 122.8 123.8 120.9 113.6 109.5 104.9 107.5 110.1 112.2 113.3 115.3 118.4 121.3 122.7 123.3 123.7 124.3 125.2 126.9 128.2 128.8 130.3 132.5 133.6 136 139.3 142.3 145.8 148.8 154.9 156.8 158.8 162.4 165 167.3 169.9 172.6 174.7 177.4 179.8 182.1 183.6 184.7 185.4 185.7 185.5 185.1 183.3 179.1 175 171.1 168.9 170.5 172.5 174.2 177.4 181.3 184.3 186.3 187.8 188.9 188.9 188.9 188.2 186.9 185.7 183.4 180.8 177.4 174 171.4 169.5 167.9 166.2 164.1 159.3 145.4 123.7 111.7 114.7 117.2 120.6 123.5 126.5 129.1 134.7 141.9 151.8 160.5 164.8 168.9 172.9 178 182.5 185.5 187.6 190.2 192.7 195.1 197.8 200.6 203.3 205.6 209 211.8 215.4 219.4 223 225.4 227.1 230.9 235.4 238.8 243.1 248.3 253.6 259.6 266.2 270.7 274.6 278.5 282.2 284.1 284.9 284.9 284.8 285.3 283.2 280.1 278.1 277 274.6 272.9 270.4 267.7 266.6 264.8 262.9 261.1 259.1 257.9 255.6 254.1 251.9 250.1 247.9 244.8 242.4 241.4 240.8 240.2 239.3 237.4 236.1 235.6 235.6 235.6 235.1 234.3 232 223.7 198.2 188.1 191 196.5 204.3 212.7 220.3 227 233.4 239.5 244.8 252.9 259.7 264.3 268.4 272.3 275.2 277.5 279.9 282.1 283.5 284.8 285.5 285.8 285.6
155.2 150.4 145 139 134.4 131.5 128.5 125.6 122.5 118.6 116.4 115.6 116.9 119.2 120.7 122 118.4 111.7 105.1 105 108.1 110.7 112.5 113.3 115.9 119.3 122.1 123.8 124.5 124.9 125.3 126.4 127.6 128.7 129.9 131.5 133.7 135.6 136.6 138.9 141.9 145.8 148.1 152.5 156 158.5 161.2 163.9 166.8 169.5 170.5 173.3 175.1 178.3 180.7 182.1 183.4 184.5 184.8 185 184.5 183.6 181.4 174.3 171.4 169.3 166 169.4 171.7 175.9 179.4 182.9 184.2 185.6 186.5 186.6 186.7 185.9 185.1 183.4 180.9 178.4 175.3 171.8 168.7 165.5 163.5 163.1 161.4 149.4 134.2 118.6 111.3 114.3 116.7 118.8 122.2 125.2 127.4 130.8 134.3 138.6 143.5 151.7 158.4 166.3 174.3 179.6 183 185.6 187.8 190.3 192.6 194.8 197.5 200 203.3 207.1 209.7 213.8 216.5 221 222 224.7 227.9 231.7 234.2 238.1 241 250.6 257 263.5 268 272.4 276.3 279.6 281.5 282.1 282.3 282.2 281.7 279.4 276.5 274.7 273.4 271.7 269.1 267.7 265.6 263.7 261.5 259.4 257.6 255.7 254.4 253.1 252.2 250.9 249.5 248.6 245.8 245.1 244.6 243.5 242.4 241.6 240.7 239.7 239.6 239.8 239.8 238.9 236.2 232.3 213.8 192.4 188.1 197 196.3 201.1 211.5 220.6 228.6 235.7 242.8 249.5 255.7 260.7 265.3 269.2 272.7 275.8 278.4 280.8 282.9 284.1 285.4 286.6 287 286.7
152.9 148.6 145.6 137.3 134.1 130.9 127.6 125.1 120.8 118.1 115.9 113.4 113.5 116.2 117.5 119.3 116.6 110.3 106.5 104.7 107.1 110 112.1 114.4 116.9 119.6 121.9 123.7 124.8 125.7 126.2 127 127.5 128.6 130.4 132.5 134.6 136.9 139.9 143.1 145.4 147.3 149.7 152.1 156.2 158.3 160.7 163.1 165.3 167.8 169.4 171.5 173.5 176.5 178.9 180.6 181.9 182.9 183.6 183.9 183.8 183.4 182.3 180.3 174 171.8 164.8 164.6 167.6 173.4 177.3 180.5 182.5 183.3 184.3 184.5 184.2 183.6 182.9 180.7 178.1 175.3 172.6 168.8 166.7 162.1 159 157.1 151.3 132 124.2 111.7 111.2 113.3 116.2 119.5 121 122.8 125.5 128.5 131.7 135.6 141 142.2 146.5 153.8 163.8 171 176.9 180.9 185.1 187.2 189.2 191.6 194.6 197.7 201.8 205 207.6 210.9 214 216.6 219.5 221.8 224.1 227.5 227.1 235.2 242.4 248.9 255.8 261.2 265.7 270.5 274.3 277 278.7 279.9 279.8 279.7 277.7 275.9 274.1 272.2 270.4 267.8 265.7 264.5 262.7 260.9 258.3 254.7 253.5 252 251.2 250.4 249.7 249 248.3 248 247.3 246.5 245.9 245.1 244.3 243.6 242.9 242.8 243.1 244 243 240.6 237.1 231.8 207.5 187.8 190.2 200.8 201.5 201 207.8 219.8 228.5 236.4 243.1 250.5 256.4 261.2 265.5 269.7 273 276 278.8 280.8 282.8 284.6 285.9 287.1 288.6 287.1
149.1 142 139.3 135.8 133.3 130 127.8 125.6 123.1 121.2 118.2 115.5 113.3 111.5 112 114.2 115.2 108.9 106.5 104.8 106.3 109.3 111.6 114.3 116.8 119.2 121.5 123.4 125 125.9 126.4 126.9 127.1 128.9 131.4 134.9 137.6 140.1 142.9 145.1 147.7 149.5 151.4 153.1 156.6 158.9 161 162.1 165.5 167.3 169.4 170.6 172.4 174.5 176.7 178.8 180.1 181 182 182.6 182.8 182.7 182 180.8 178.4 173.4 165.6 161.7 163.3 168.5 173.8 176.8 179.1 181 181.9 182.2 181.7 180.7 178.9 176.7 174.9 173 170.7 167.6 164.4 156.7 148.1 145.5 132.4 125.2 120.3 111.9 109.7 112.2 116.5 118.8 121.7 123.5 125.3 128.2 131.5 132.8 135.6 138.2 145.2 145.5 152.3 158.1 165.7 171.4 177.8 182.6 183.5 188.9 193.7 197.1 200.2 202.9 206 208.4 211.3 213.9 216.2 218.6 220.8 217.3 227 233.1 240.1 246.3 253.5 258.9 263.9 268.7 272.2 274.6 276 276.5 276.2 275 274 272.4 270.6 268.7 266.4 264.7 263.4 262.1 260.6 259.5 256.4 253.9 248.8 244.9 247.1 247 247.3 246.7 246 246.7 246.8 246.5 246.4 245.8 245.5 244.8 244.6 245.3 245.6 246.2 245 242.1 237.4 224.8 200.6 185.8 190.7 204 206.6 207.4 206 216.1 228.3 235.5 241.3 249.8 255.9 260.7 265.2 269.1 272.8 275.6 278 280.4 282.4 284.6 286.1 287.1 287.5 287.1
145.6 143.2 139.9 137.1 134.1 131.4 128.9 127.5 124.9 122.2 119.5 116.3 113.8 111.9 110 109.1 109.7 106.2 104.4 103.9 104.1 107.8 110.4 113.1 115.3 117.9 120.8 122.9 124.4 125.3 125.7 124.8 126.6 129.4 133.4 136.6 139.3 141.9 143.7 145.7 148.1 150.2 151.9 153.3 155.5 158.1 161 162.6 164.1 166.7 168.1 169.4 170.3 171.6 174.5 175.2 177.6 178.9 179.8 180.5 181.9 182 181.9 181.3 179.4 176.5 168.1 159.9 157.6 161.5 169.3 173.2 177.3 178.9 179.3 178.4 176.8 175.4 173.9 173.3 172.2 170.3 168.4 166 163 157.1 139.7 129.9 125 120.8 111.1 108.5 109.8 113.3 116.5 118.2 121 123 126 128.7 131.8 135.1 138.8 142.1 144.8 147.1 149.8 151 156.8 161.9 166.9 175.8 181.9 187.8 192.6 196 199.4 201.5 203.7 206.2 208.1 210 212.7 214.4 213.6 220.2 225.3 231.5 237.2 243.2 250.7 256.8 261 267.2 271 272.9 273.5 273.6 272.7 271.6 270.2 268.6 267 265.1 263.3 261.5 260.5 259.8 258 256.4 254.1 251.1 247.3 241.9 240.7 244 243.9 244.6 244.5 245.1 245.4 246 246.5 246.4 246.2 246.1 246.4 247.3 248 247.9 245.7 242.2 237.9 214.7 193.5 184 194.1 207.8 213.4 216.2 217.4 211.6 224.1 232.8 240.2 247.2 253.7 258.5 263.3 267.6 271.5 274.4 276.8 279.3 281.7 283.7 285.1 286.1 286.8 287.2
150.2 147.9 142.7 139.2 135.7 133.8 132.7 130.7 129.1 124.7 120.4 117 114.9 112 110.3 108.2 107.6 106.2 105.2 103.4 102.2 106 109.2 111.9 114 116.2 118.5 120.9 122.6 123.2 122.5 124.7 127.6 130.9 134.4 136.5 138.9 141.3 143.6 145.5 148 149.2 150.7 152.7 154.8 157.5 160.1 162.6 163.9 165.7 167.4 167.9 168.8 170 171.7 172.9 174.4 175.4 176.7 178.5 180 181.6 181.9 181.8 180.5 178.2 174.5 160.7 156.9 153.8 163.5 168.6 171.7 172.8 172.5 172.4 171.5 169.9 169.2 169.3 168.6 167.4 166 163.9 161.4 157.7 143.9 126.9 122.3 117.9 108.6 111.6 115.2 117.1 118.5 120.8 122.6 124.6 127.2 129.4 132.5 137 141.6 146.7 151 155.7 158.5 160.8 162.9 167.2 170.3 173.5 180.5 186.1 191.4 195.1 198.1 200.6 202.2 204.1 205.8 207.7 209.9 208.3 210.7 218.1 223.1 229.3 235 240.9 248.1 254.9 260.1 265.3 268.2 270.3 271 270.7 269.6 267.9 266.1 264.1 263 261.2 259.4 258.4 258.3 257.5 255.8 254.1 251.5 248.7 245.7 241.9 235.6 239 240.7 241.4 242.3 242.9 243.5 244.6 245.6 246.6 246.2 246.9 247.8 248.5 249.1 247.7 245 241.5 234.4 208.5 187 183.2 198.2 213.6 219.2 222.8 225.7 225.4 221.1 228.8 237.5 245 252.4 256.6 260.6 265 268.6 271.9 275.1 278 280.4 282.1 284 285.2 286.5 287.5
154.9 153 147.8 145.2 143.2 141.1 138.2 135.1 132.2 129.1 123.4 119.8 115.3 112.7 110.7 108.3 107.6 106 106 104.7 102.8 105 108.1 110 111.7 113.9 116.4 118.4 119.9 121.5 122.6 125.1 128.2 131 133.7 135.9 138.1 140 142 144 146.1 147.8 149.6 151.8 154.2 157 159.6 161.7 163.5 165 166.1 167 167.5 166.7 168.8 170 171.6 172.2 173.9 176.6 178.1 180.7 182 181.7 179.9 178.7 176.7 165.8 156.9 151.9 152 159.5 162.7 162.9 163.8 164.4 164.6 163.8 164.5 164.8 165 164.7 163.4 161.4 158.7 156.1 151.3 132 121.7 113.8 106.2 111.8 114.8 118.1 119.4 121.2 123.4 125 127.6 128.8 132.5 137.8 144 149 154.1 159 163.8 167.8 171.7 175.4 178.7 181.7 182.8 187 190.5 194 196.2 198.2 199.5 202.9 204.5 205.8 206.2 198.8 208.4 216.8 222 226.7 233.9 239.5 245.7 252.8 258.8 263.1 265.9 267.6 267.7 267.1 265.6 264.2 262 259.1 257.6 256 254.8 255.6 255.8 255.4 253.6 251.1 249.4 246.6 243.4 240 236.2 231.3 236.6 237.8 239.5 240.5 242.2 243.1 244.1 245.2 246.1 247.3 248.4 249 248.7 246.9 242.9 238.4 225.8 203.5 184.2 184 203.6 218.6 223.5 227.6 230.2 231.4 229.4 227.8 235 242.3 248.4 254 258.2 262 265.5 269.1 272.4 274.9 278.5 281.8 283.9 285.9 287.1 288.6
159.5 156.3 152.6 148.6 144.8 142.1 139.5 136.9 133.5 131.2 127.9 122.5 118.2 113.6 111.4 110.3 107.7 106.4 105.4 105.1 102.9 103.4 107.4 109.6 111.4 113.2 115.3 117.1 119 120.7 122.6 125.4 128.2 130.6 132.4 134.5 136.8 138.6 141.3 142.9 144.4 147.3 149.1 151.2 153.7 156.2 158.9 161 163.3 164.3 164.6 165.4 165.8 165 165 166.5 167.7 168.6 170.8 173.3 176 178.7 180.1 179.6 178.5 177.7 176.6 173.2 158.5 152.5 146.9 149.2 152.1 155.1 155.8 155.8 156.5 158.1 158.9 160.3 161.2 161.4 160.2 159 156.7 154.3 150.8 142.9 122 107.8 106.5 112.4 115.3 118 119.8 121.6 123.5 125.1 127.4 129 132.6 138.4 144.7 150 155.4 161.1 166.1 170.9 175.4 179.5 183.2 185.2 187.1 188.5 190.9 193 194.4 196.4 197.6 200.2 202.2 203.1 190.6 198.5 209.3 215.9 220.4 226.5 234 239.2 244.2 250.3 256.9 260.6 263.1 263.8 263.9 263.1 261.5 259.9 255.7 253 248.9 248.6 249.9 251.7 253.1 252.3 251.6 249.6 246.7 244.1 240.9 238.1 234.5 228 231.5 233.3 236.2 238.1 239.5 241 242.3 244.5 246.2 247.7 248.4 248.2 246.8 244 239.2 231.8 215.9 197.5 183.8 187.2 205.7 220.7 226.7 230.8 232.9 235 235.7 235.6 238.4 243.5 247.9 250.5 255.6 260.3 264.5 268.9 273.2 276.2 279.3 281.9 284.4 287 288.5 289.4
161.2 158.2 154.3 149.6 144.4 141.7 138.7 136.3 133.6 130.3 127.9 123.3 119.6 114.6 111.6 109.6 108.6 107.8 107.2 106.1 101.5 101.5 106.2 108.6 110.3 112.6 115.1 117.1 119 121.1 122.5 124.9 127.2 128.9 131.2 134.4 136.4 138.5 140.3 141.9 143.8 147.1 148.8 150.8 152.9 155.3 157.7 159.8 161.7 162.9 163.5 163.3 163.3 161 162.2 161.7 162.2 162.7 166.2 170 173.1 175.3 177.2 176.9 176.1 175.7 176 173.2 163.7 154.5 146.8 144.6 146.5 149.5 149.2 148.2 150 151.7 153.1 155.5 156.6 157.3 156.7 155.7 154.5 152.2 148.3 140.5 117.8 106.8 109.5 113.6 116.4 118.3 119.8 121.8 123.2 124.7 126.2 128.6 132.2 137.2 144.3 150.7 157 162.9 167.7 172.2 178.5 182.5 185.6 187.6 189.7 190.1 190.9 192.5 193.9 195.3 196.6 198.2 199.3 199.1 187.2 199.4 209.2 214.7 220 226 232.6 238 242.1 246.8 253.2 256.5 258.9 259.6 260 258.9 257 254 250.8 247 243.3 243.4 245.8 248.6 249.8 249.7 249 247.1 245.2 241.8 238.6 235.7 231.1 224.3 226.2 230.3 232.9 235.1 236.3 239.6 242 244.3 246.7 247.8 247.6 246.4 243.6 239.3 233.6 222.5 202.8 197 182.5 185.3 204.6 223.3 228.7 233.2 236.3 238.2 238.4 241.2 242.9 246.6 250.2 254.5 258.4 261.7 266 270.2 274.1 277.6 279.9 282.4 284.5 286.8 288.5 288.6
163 160 155.5 149.7 143.1 139 136.3 134 131 128.6 125.5 121.7 118.9 114.8 111.8 110 108.6 108.4 108.5 107.3 105.1 101.2 101.7 107.8 110.6 112.6 114.7 116.3 118.8 121 123.6 125 126.7 129.4 132 134.4 136.7 138.3 140.3 141.6 143.3 145.6 146.3 149.4 151.5 153.8 156.3 158.6 160.3 161.4 161.7 160.5 160.7 158.7 153.5 156.2 155.6 157.8 162.5 166.3 168.9 171.4 173.6 172.9 172.2 172.5 171.6 167.5 163.9 157.3 150.6 143 141.4 142.3 143.9 141.4 145 144.7 148.2 150.6 152.3 152.9 154.1 152.8 152.1 149.7 145.5 136.9 114.4 107.2 108.9 114.1 116.9 118.2 119.7 121.8 122.9 124.6 125.8 128.5 131.3 136.6 144.1 151.7 156.5 163.1 169.4 174.8 179.9 184 186.9 189.2 190.3 190.5 189.9 191.5 193.4 194.5 195.6 196.4 196.3 186.7 188.3 198.8 206.8 212.3 217.9 224.4 230.9 235.9 240.5 245.1 249.4 252.3 254.8 256.3 255.8 254.5 252.1 249 246.1 242.9 236.6 238.5 242.6 245.4 246.9 247.2 246.2 244.5 242.6 240 236.8 233.4 229.4 221.7 223.3 226.8 229.9 233 235.8 238.7 241.4 244.1 246.3 247.3 246.5 243.4 240.2 235.6 229.5 214.3 211.6 205.4 185.7 180.2 200.2 221.3 230.8 235.1 238 239.9 241.6 243.4 244.9 248 251.7 254.6 258.7 263.3 267.6 271.5 275.3 278.2 280.6 283.1 284.8 286.2 287.1 287.8
163.8 160.1 155.9 150.1 142.7 137.4 132.9 130.5 127.5 125.7 122.7 119.8 117.2 114.6 111.6 109.6 109.7 108.5 108.8 107.7 106.7 103.1 99.7 107.2 110.2 112.4 114.7 117.4 119.7 121.9 123.7 126 128.2 130.3 132.4 134.3 136.1 138.3 139.3 139.8 141.4 142.7 144.2 147 149.5 152 154.2 156.4 158.5 159.3 159.4 157.8 157.7 155.1 145 145.7 147.6 152.9 157.5 160.9 164 166.8 169.3 168.6 167.7 166.9 166.2 163.9 161.2 158.4 153.3 145.9 140.9 137.3 138 139.5 139.6 139.9 143.8 146.6 148 149.1 149.6 149.1 147.9 145.3 140.8 131.6 108.5 105.1 109.4 113.8 116.1 117.8 119.6 122 122.7 124 126.1 127.8 130.2 135.1 142.6 151 156.4 162.6 168.9 175.3 180.1 183.1 185.7 187.9 188.7 188.5 188.4 190.9 192.8 193.6 194.3 194.6 192.4 176.2 188.2 197 202.2 209 216.1 222.7 229.7 234 237.8 241.7 245.3 248.3 251 251.8 251.2 249.4 246.9 244 236.3 232.7 230.7 236.8 240.1 242.9 244.1 244.3 243.6 241.9 240.2 237.6 234.8 231.9 228.3 222.7 221 226.4 227.8 232.3 235 237.6 241 243.3 245.5 246.1 244.2 241.3 237.8 233.3 225.4 223.6 223.8 212.9 190.7 179.1 194.8 219 232.2 235.7 237.8 240 241.5 242.8 245.6 248.4 252.8 256.4 260.1 264.3 268.9 272.9 277 279.9 282.1 283.9 284.8 284.8 284.8 285.5
163.5 160.1 155.9 149.7 141.8 135.3 130.6 126.9 124.4 122.3 120.5 118.5 116.6 114.5 110.6 109.4 108.2 107.9 108.7 107.9 107 104.8 98.9 106.8 109.8 112.2 115.7 118.2 120.5 121.8 124.1 126.7 128.7 130.9 132.3 134 135.6 136.2 136.6 137 138.5 139 142.3 144.6 146.8 149.1 151.3 153.2 155.2 155.4 156.9 153.8 152.2 151.4 145.6 138.9 141.2 146.3 150.7 153.7 157.4 161.2 164.3 163.9 163.2 162.4 161.3 159.9 159 157.6 153.4 148.2 142.6 136.8 131.4 134 133.9 134.6 138.4 141.6 142.2 143 142.9 142.8 142 139.8 136.1 128 108.5 102.7 108.4 112.2 115 117.5 117.8 120.4 122.3 124.1 125.6 128.1 130 134.7 138.8 146.9 153.5 159.7 166.5 172.1 175.5 178.5 181.9 184.3 185.5 183.4 187.9 190.3 191.6 193.2 194 193.4 184.3 173.3 185 192.8 197.8 204.2 211.7 219.5 227.9 232.3 234 238.2 242.1 244.7 247.4 248 247.3 244.6 241.1 232 227.1 224.8 229.7 235 238.7 239.8 241.2 241.3 240.7 239.4 237.7 235.1 232.2 229.9 226.7 218.2 218.9 226.2 228 231.5 233.7 236.4 239.2 241.8 242.9 242.5 241.6 240.4 237.5 234.8 235.4 234.4 230.6 223.1 196.7 177.7 188.3 211.8 227.1 232.9 234.1 235.7 237.9 241 244.1 250.4 254.2 257.5 262 266 270.9 274.2 277.9 281 282.5 283.3 283.3 283.3 283.5 284
162.9 159.5 155 149.7 142.4 133.5 128.8 125.9 123.3 120 119 117.7 114.6 113.1 110 108.1 108.1 107.6 107.2 107.4 107 106.5 100.5 102.8 108.5 111.4 114.8 117.4 119.8 121.6 123.9 126.6 128.9 130 131.4 133 133.7 134.2 134.6 135 135.7 135.5 138.9 140.9 142.8 144.4 146.5 148.6 150.7 151.6 150.9 150 149.2 148.7 147.3 135.1 133.6 137.3 141.6 144.6 149.4 153.7 155.3 156.4 157.7 158.1 157.9 157.4 156.4 155.9 153.8 150.3 144.3 139.3 133.9 128.1 128.8 129 130 133 134.9 136.1 137.1 137.4 137.2 136.8 133.8 126.2 110.5 103.1 107.4 109.8 114.5 117.2 118.1 120.7 122.6 124 126.1 128.7 130.1 134.3 136.6 142.3 148.8 155.7 161.8 166.8 170.8 174.7 177.9 179.7 178 184.1 186.6 190 192.6 194.4 194.4 193.9 176.9 167.9 178.4 186.2 193 198.8 207.2 214.8 222.2 226.8 228.7 233 238.6 242.5 245 245.3 243.5 238.8 230.1 223 220.7 225.4 230.3 233.6 236.1 237.3 237.8 238.2 237.4 236 234.1 232.1 230.2 228.2 222.7 213.3 222.1 225.7 228.3 230.5 232.8 235 237.2 238.2 239.6 240.4 241.2 241.2 241.3 241.5 240.6 239 235.5 231 212.7 189.4 177.9 194.2 214 224.1 226.5 225.8 226.1 240.4 247.1 252.4 256.4 260.7 265 269.1 272.5 275 277.8 279.7 280.8 281 281.1 281.1 281.1 281.9
161.8 158.2 153.6 146.9 139 133.8 129.5 126.6 123.5 121.6 118.8 116.9 114.3 112.5 110.7 108.5 106.6 107.2 107.5 106.3 106.3 105.9 104.7 95.9 105.2 109.7 112.8 115.5 117.9 120.1 122.5 125.3 127.8 128.4 129.6 130.3 130.8 131.5 131.6 130.9 129 131.3 133.7 136 137.8 139.3 141.6 143.5 146.1 147.2 146.3 146.8 146.8 146.3 144.8 138.1 129.8 128.4 128.9 134.1 140 143.1 145.6 149.3 151.7 153.4 154.1 154.1 154.7 154.5 153 150.5 146.8 142.6 136.4 132.1 126.6 123.7 125.3 127.2 128.8 131.6 133.4 134.7 135.3 135.2 131.4 124.3 110.2 104.2 106.7 109.9 113.6 116.5 118.6 120.1 122.3 124.3 126.5 128.9 131.3 133.4 135.9 138.9 144.2 150.8 156.8 160.4 164.2 165.1 168.3 175.3 180.1 183.2 185.6 189.7 193.7 196.7 197.3 195.4 177.1 164.5 171.3 179.6 186.8 192 199.5 205.8 212 218 222.7 228.4 235.9 241.5 242.8 242.3 239 231.1 223.6 217.6 220.2 225 229 231.9 233.6 234.7 235.4 235 233.9 231.9 230.6 229.4 228 226 222.7 211.2 222.4 225.1 227.2 229.4 230.8 232 233.8 235 237 239 241.4 243.6 244.4 244.3 243.2 241.3 238.5 234.8 226.9 205.1 182.3 179.3 201.1 208.3 208 213.7 233.3 244.1 249.5 254.6 258.9 263.2 267 270.8 273.6 275.7 277.4 278.5 278.7 278.8 278.8 278.3 278.5 280.1
160.1 156.8 152.4 144.3 140.7 137.3 132 127.5 124.6 121.8 119.4 116.6 114.7 112.3 110.4 108.6 106.8 105.7 106.9 106 105.4 105 104.6 94.2 97.1 105.7 109.7 112.6 115.3 116.4 118.8 122.2 123.6 124.5 125.5 126.7 127.5 128.3 128.8 129.2 123.6 127.1 128.2 129.1 131.2 133.9 135.7 137.9 139.8 141.7 143.3 145 145.1 144.5 143.3 140.8 131.3 125.1 123.7 124.8 128.6 134 137.9 141.5 145.7 148.5 151.1 151.6 152.7 152.6 152.3 150.5 148.3 144.7 140 136 130.8 121.5 120.8 122.4 125.2 128.7 130.3 132.4 133.9 134.1 130.7 121 105.1 102.3 106.5 110.1 113.3 115.9 118 120 121.8 123.6 126 129 134.5 139.2 141.2 142.4 143.9 147.4 150.8 156.9 162.6 166.8 171.1 175.1 178.4 181.4 184.9 189.2 195.3 198.7 197.9 194.4 181.1 160.7 165.6 174 180.6 186.7 192.2 197.5 202.5 206.4 215.9 224.5 232.8 238.6 240.3 238.4 234.8 227.3 221.3 214.1 220.3 224.1 227.1 229.5 231.4 232.1 232.1 231.5 229.6 228.5 227.6 226.9 224.8 221.6 221.1 208.7 220.8 224.1 226.3 227.3 228.1 228.7 230.6 232.9 236.4 240.4 243.8 246.3 246.9 246.1 245.5 244.1 241.3 237.6 231.6 217.8 196.2 174.3 183.2 187.3 206 226.5 240.1 246.3 251.6 256.6 261.3 265.2 269 272.1 274.6 276.3 276.9 277.7 277.6 276.8 276.2 275.4 276.4 278.8
159.6 155.8 151.7 148.1 145.5 142.4 139.8 134.6 130 124.1 119.1 116.4 113.9 111.5 109.7 107.9 106.2 103.9 105.2 105.9 105.4 103.7 103.6 97.3 89.6 97.6 104.9 108.7 110.8 112.7 114.9 116.8 117.6 118.6 120.2 121.5 122.5 123.6 124.5 125.3 124.8 122.1 122.9 123.9 125.5 128.5 130.8 133.7 136.4 139.1 141 142.8 143.2 143 141.8 139.4 133.3 125.3 121.5 119.8 121.6 125.9 129.9 135.3 140 143.6 146.4 148.8 149.8 150.4 150.5 149.9 148.7 146.7 144.4 140.9 133 126.3 116.5 117.4 120 124.7 126.3 129.5 132.1 132.9 128.6 114.6 102.7 103.3 106.6 111.4 113.8 114.9 117.8 119.4 121.1 123.8 129.8 135.6 142.5 146 148.8 150 150.2 152.5 156.5 161.8 165.5 168.1 171.1 174.4 176.1 179.7 183.2 186.9 191.8 195.2 194.3 190.7 183.9 156.6 158.1 167.8 174.7 179.7 185.2 190.4 190.5 199.7 211.4 220.8 229.1 235.4 236.9 235.4 230.5 225.7 217.6 212 219 222 224.7 227.1 228.5 229.2 227.9 228.1 226.9 225.6 225 223.7 221.9 220.6 219.1 206.9 217.4 221.5 222.9 222.8 223.6 226.5 229 233.7 239.3 243.5 246.1 247.5 248.1 248.4 247.5 246 243.5 239.9 226.1 207.3 184.3 173.3 179.9 199.5 220.1 235.9 242.7 248.7 254 259.2 262.9 267.3 271.1 273.7 275.3 276.4 276.8 277.1 275.9 274.7 273.5 272.6 274.1 277.1
159.2 157.5 154.8 152.7 149.4 145.5 141.6 136.5 131.8 126 120.7 117.8 114.2 111.6 109.6 107.2 105.3 103.3 103.5 105.7 104.9 104.8 103.2 101.7 95.1 90.5 97.7 104.7 108.1 109.7 110.5 111.1 111.6 111.9 113 114.2 115.5 116.8 118.3 119.3 119.2 117.3 118.8 120.6 122 124.4 127 130 134 137.7 138.8 140.5 141.2 141.2 141 139.6 135.2 130.7 120.1 118 118 121.5 125 130 135.1 138.9 142.3 144.7 146.2 147.5 148.2 149.1 148.6 146.4 145.3 142.8 137.8 127.2 120.8 113.2 115 120.3 121.4 126.5 129.3 128.9 117 103.4 102.2 105.9 108.5 111 113.8 114.7 116.6 117.5 120.6 125.2 132.9 140.7 147.6 152 154.1 155.9 157.6 158.4 161.5 164.4 166.7 168.6 171.3 173.6 175.6 178.5 181.3 184.3 187.2 189.7 188.4 181.2 167.6 154.5 155.5 160.8 166.1 170.3 173.6 172.8 177.4 192.1 203.8 217.5 228.2 231.6 232.9 230.3 227.5 223.3 212 210 216.9 219.6 221.7 223.7 225.2 225.6 225.2 225.2 224.5 223.2 222.8 220.6 218.1 218 216.8 213.2 207 215.7 217.4 217.1 221.9 226 231.9 237.9 242.1 244.7 246.7 248.3 249.5 249.8 248.6 247 243.1 228.8 211.9 189.2 174.5 171.5 184.9 213.1 231 239.3 245.4 251.4 256.7 261.3 265.4 270.4 274.1 275 276.2 276.3 276 274.6 273.6 272.2 271.3 268.7 271.8 275
160.6 158.8 156.5 153.9 150.8 146.7 143.1 137.8 132.8 127.8 122.1 117 114.4 112.3 109.7 107.9 105.4 103.3 102.2 103.3 105 104.7 102.3 100.6 98 88.5 92.2 101.1 105.1 107.6 108 108.9 108.7 108.5 107.6 107.1 107 108 109.8 111.7 113.1 114.6 116.9 118.5 120 123 125.5 130.4 132.5 136.3 137.4 138.9 139.2 139.4 138.9 137.2 132.8 126.4 119.7 116.4 115.1 117.5 120.7 125.3 130.2 134.3 137.8 140.2 142.7 144 146.1 147.3 147.4 146.8 145.5 143 139.3 130.3 122 115.6 106.4 114.6 118 120.2 123.5 118.2 104.7 100.3 103.2 106.4 109.3 111.5 112.8 114.1 115.7 118.2 120.6 125.9 135.4 143.4 150.5 156.5 157.8 159.7 160.4 161.6 164 165.9 167.4 168.7 170.8 172.9 175.3 177.2 179.9 181.1 181.8 182.7 175.5 158.5 150 149.8 151.2 151.3 153.4 156 158.2 162.1 166.3 179.2 194.7 212.3 222.9 227.9 227.9 225.4 222.5 214 200.4 204 213.9 216.2 218.2 220.4 222.3 223 223.1 223.2 223.1 222.4 219.6 217.6 214.8 214.5 214.4 213 201 208.3 209.9 216.2 224.1 230 236 240.1 243 245.4 247.3 248.6 250 250.2 249.1 246.3 228.8 212.5 192.8 175 170.1 169.5 199.5 226 235.3 241.9 248.2 254.2 258.8 263.2 269.5 273.6 275.3 276 276.6 276.1 273.5 272.5 271.6 270 267.9 265.8 268.7 272.5
160.8 159.3 156.3 154.2 150.9 146.8 142.4 137.4 132.9 128.3 123.7 119.5 116.2 112.2 110.3 108.3 106.1 104.6 102 102.3 104.4 104.4 102.6 99 98.9 90.7 90.2 97.8 101.9 104.5 105.7 105.9 105.7 104.9 103.9 103.7 104.6 105.6 106.6 107.6 110.1 113.6 114.8 117.6 122 126.4 128.8 130.7 133.5 135.4 136.7 137 137.4 137.6 136.9 135.4 132.4 127.3 123.7 116.7 113.8 112.9 115.6 118.6 122.7 127.2 131.9 135.1 138.8 141.4 144 145.4 146.2 146.1 145.2 143.3 140.3 135.9 123.7 115.5 108 110.2 113 113.5 115.3 103.4 100.4 101.8 105.3 108.1 109.8 110.2 111.7 111.9 114.4 116.8 119.9 126 134.8 141.5 149.1 157.2 159.9 161.2 162.7 164 165.7 167 168 170.1 172.3 173.1 174.9 176.5 177.6 178.4 178.3 172.9 154.4 148.4 147.2 147.9 152.2 155.9 158.3 159.2 161.9 162.2 162.8 165.4 174.9 193.1 211 220.5 221.6 219.7 213.7 202.9 196.5 200.5 208.5 211.7 214.8 217.4 219.4 220.4 221.2 221.7 221.7 220.8 219.4 216.3 212.8 211.1 212.1 210.8 204.5 201.4 209.9 219.2 226.7 233.1 237.5 241.1 243.4 245.8 247.9 249.5 250.2 250.1 248.4 237.2 215.4 196.2 177.7 168.6 167.7 190.4 216.7 229.4 237.2 244.3 250.9 256.3 260.6 267.6 271.7 275.9 276.9 278 277.3 275.3 273 271.7 268.9 267.3 265.3 262.6 266.2 269.6
160.8 158.8 157 153.4 150.7 147.3 142.3 137.4 132.5 127.9 123.5 119.9 116.9 113.7 110.9 109.2 106.3 103.8 101.5 98.7 101.4 102.9 102.5 100.1 97.8 92.7 89.3 96.3 98.5 101.2 102.2 102.2 102 102.2 101.3 101.7 102.9 103.4 105.4 107.3 110.8 114.3 116.7 119.4 124.1 127.1 130.9 133.6 135.2 136.5 136.7 137 136.9 135.7 135.1 134.3 132.6 130.3 127.1 121.8 114 111.1 110.5 113.5 116.4 119.7 125 130.6 135.8 139.4 141.9 143.5 144.5 144.8 144.2 143 140.4 136.3 127.7 114.5 109.5 100.6 107.6 107.3 101.9 100.3 100 104.8 107.3 109.2 109.6 110.1 110.2 110.9 112.5 115.2 118.8 124.5 133.5 142.8 152.5 156.9 160.3 162.2 164.2 165.5 166.4 167.9 169.8 171.4 172.7 174.6 174.9 175.5 176.4 176.3 170.1 156.6 146.8 144.1 147.6 153.7 158.8 162 164.7 166.3 168.2 169.8 167.7 165.7 167.5 175 193.2 207.4 211.4 208.5 198.7 190.6 191 194.2 200.7 206.5 211.9 214.9 217.4 219.4 220.1 220.3 220.4 219.9 218.2 215.2 211.2 204.8 207.8 207 198.5 199.4 212.4 221.7 227.7 233.8 237.6 240.7 243.3 245.8 248.1 249.5 249.9 249.4 248 228.1 204.5 183.1 167.4 166.4 183.6 208 222.5 231.7 239.5 247.4 252.6 257.4 263 268.6 272.3 276.8 278.1 278.2 277.2 275.1 272.2 270 266.5 264.5 261.3 258.6 262.9 267.2
159.2 158 155.8 153.1 150.9 147.1 142.7 136.7 131.5 126.1 122.9 119.4 116.2 113.1 111.2 108.8 106.8 104.7 101.9 97.8 98.3 99.8 98.9 96.4 94.6 89.9 89.1 94.2 96.6 97.6 99.8 99.9 100.1 99.8 100.4 101.1 102.3 103.9 106 108.3 111.1 113.7 116.7 120.8 123.8 127.6 131.1 133.5 136 136.9 136.8 136.5 135.9 134.4 133.9 133.4 132.7 130.7 128.5 124.5 115.7 110.8 107.7 109.9 111.5 115.6 120.7 125.5 131.3 135.4 138.2 140.3 141.4 142 142.5 141.6 139.2 134.8 127.2 113.3 109 100.8 103.2 99.5 99.2 98.9 105.2 106.4 108.3 109.3 109.2 110.8 110.9 111 111.2 112.9 116.8 121.3 129.6 138.9 148.3 154.5 158.5 161.9 164.6 166.4 168.2 169.9 171.2 172.7 173.8 174.9 175.3 175.7 175.3 170.1 155.9 144.8 142.2 146.6 154.1 161.9 166.3 169.7 172.2 175.7 177.4 180.5 180.1 176.8 172.9 169.8 175.9 190.2 193.7 189.7 183.3 192 201 206 208.8 211.8 214.4 215.8 217.3 218.7 219.1 218.8 217.9 217.2 215.9 213.1 209.1 204.9 198.8 200.7 194.8 203.2 215.6 222 228.1 232.7 236.9 240.3 242.9 245.3 247.5 248 248.1 247.5 243.3 220.2 193.7 174.3 163.7 176.1 194.1 213.4 226 234.3 241.7 248.4 253.9 258.2 264.4 268.6 272.4 277 278.1 277.2 276 274.1 271.1 267.7 264.5 261.2 257.8 254.9 259.6 264.2
158.1 157.1 155.3 153.2 150.4 146.5 140.7 135.3 129.7 124.7 120.5 117.7 115.2 112.8 110.1 107.7 106.1 104.1 101.9 98.7 93.2 95.1 95 94.4 92.1 85.8 87.4 92.4 94.6 95 96.7 97.9 98.7 99.5 100 100.8 102.2 104.1 106.4 109 112.5 114.3 118.2 121.7 125.3 129 132.2 133.7 136.2 136.5 136.6 136.2 134.6 133 131.9 132.2 131.9 131 128.7 125.4 119.6 111.8 106.6 106.3 109.7 112.3 116.7 120.7 126.4 130.1 133.9 137 139 140.4 140.5 139.5 138.2 134.1 122.7 111 107.3 98.9 98.3 98.4 98.6 105 106.9 108 108.7 109.2 109.7 110.8 111.5 112.3 112.6 112.9 114.3 117 121.3 130.8 139.6 149.5 157.2 161.4 164.8 167.2 170.5 172.5 173.1 173.8 174.4 174.9 174.9 174.7 165 153.6 143.7 139.8 144.5 152.7 161.6 170.5 176.2 180.3 183.3 186.4 187.7 190.7 192.2 192.9 190.7 184.2 175.7 174.7 177.9 181 190 200.1 206.3 210.7 213.3 215.5 217.3 219.2 220.2 220.4 220.7 219.2 217.3 214.1 213.1 209.9 206.7 200.1 194.6 191.1 192.8 203.9 214.6 221.3 227.8 232.3 236.2 239.9 242.3 244.3 245.8 245.6 244.4 243.9 232.7 210.8 185.3 167 168.3 187.4 204.7 218 227.8 236.3 243.5 249.9 254.5 259.3 264.2 268 272.1 275.7 276.3 276.3 275.4 272.9 270.1 266.4 263.5 260.7 257.3 249.4 256.5 262.5
157.5 156.4 154.8 152.1 149.9 145.9 141.3 136.3 130.6 125.2 120.4 117.8 116 114.7 112.8 109.2 105.9 103.4 99.8 97.1 94.5 91.1 90.4 91.4 88.9 84.8 87.3 90.8 92.4 94.6 96.6 97.4 98.4 98.6 99.8 101.4 102.4 104.5 107.6 110.5 113.7 117.3 120.9 124.3 127.1 129.9 132.7 134.2 135.6 136 136 135.3 132.9 129.8 128.7 131.2 130.8 129.4 127.3 123.5 118.6 111.6 104.9 102.9 105.8 109.4 112.2 114.9 121.1 126.2 131.2 134.4 136.8 138.6 139.3 138.9 137.6 134.2 117.1 107 101.8 96.6 99.4 100.6 103.5 106.1 107.9 108.5 108.8 109.1 110.4 111.6 112.8 113.2 113.1 113.4 112.6 114.5 117.8 123.3 130.9 143.2 154.6 161.3 164.8 168.8 172.7 174.4 173.9 173.1 172.3 172.6 168.6 158.6 148.7 141.3 138.3 142.5 149.4 159.5 169.4 177.6 183.3 187.5 190.8 194 194.8 197.6 199.5 200.9 200 197.1 189.8 181.3 187.3 196.3 201.7 207.6 211.2 215.3 218.2 220.1 222.1 223.5 222.8 222.4 222.1 220.6 218.1 215 208.9 205.5 200.3 198.7 197.8 197.5 188.8 196.4 211 220.1 227.1 231.9 235.8 239.2 241 242.5 242.5 241.5 239.8 238.8 222.4 200 176.8 161 172.1 189.8 206.2 219.7 229.5 239.1 246 251.1 255.6 260.1 264.3 268.2 271.7 273.7 274.8 275.2 274 271.7 269.5 266.2 263.5 260.7 256.7 249.1 251.4 259.9
156.2 155.4 154 152.2 150.3 147.6 144.2 139.4 134 127.3 123.2 121.2 119.6 117.3 114.8 111.5 108.4 104.1 100.4 97.3 94.6 91.5 88.8 84 84.3 84.6 92 94.8 96.4 97.3 97.8 98.4 99.9 100.3 101.2 102.5 104.2 107.7 111.2 113.9 116.6 119.8 122.9 125.3 128 130.4 131.6 133.1 134.5 134.6 134.4 134 131.1 122.8 118.9 126.3 126.3 124.9 122.5 118.7 113 105.6 101 100.5 104.3 107.1 109.8 113 118.6 123.9 128.4 132 135.4 136.9 137.7 138 137.1 134 116.6 104.2 96.4 96.1 99.3 103.3 105.6 107.1 108.2 108.7 109 109.4 111 112.1 112.7 113.1 113 113.2 113.6 113.3 114.7 118.9 124.5 135.2 148.5 159.4 165.1 168.3 171.1 171.1 171 170.1 168.4 161.3 151.6 143.3 137.6 136.4 140.6 146.3 156.8 166.9 176.9 183.7 189.2 193.8 197.3 200 200.8 202.4 204 204.8 204.6 204 199.3 191.3 196.6 202.3 207.5 212.6 216.2 219.3 221.6 222.9 224.6 225.5 226 224.3 223.7 221.3 217.6 213.1 205.8 201.9 205.3 209.3 210.5 209.4 196.3 190.1 201.8 217.1 227.1 231.8 235 237.7 238.8 239.4 238.5 237.3 235.8 233.2 212.5 188.4 166.5 160.6 171.7 188.7 205.4 219.9 231.8 242.9 249 253 257.2 261.3 264.8 268.3 270.7 272.9 273.7 273.6 273.2 271.4 269.3 265.9 262.2 257.8 252.8 246.8 241.3 251.5
154.4 154.2 154 153.3 151.7 149.6 146.9 142.6 135 130.8 127.6 127.6 124.7 119.5 116.2 113.1 109.7 105.9 101.7 98.8 95.6 91.7 87.2 82.3 82.7 89.4 95 96.6 97.9 98.1 99 99.5 101 102.5 102.8 104.7 106.1 110.3 113.7 116.6 119.2 121.3 124.2 126.4 128.4 129.8 130.7 131.6 132.1 132.5 132.9 132.7 130.6 118.2 112.3 112.2 117 118 116.2 112.6 107.9 100.3 97.1 99.6 102.8 105.9 108.1 112 117.7 122.2 126.3 129.6 133 135.8 136.9 137.2 136.8 134.4 120.4 100.8 95.7 95.5 101.4 105.4 106.6 107.5 108 108.4 108.2 110 111.2 111.8 112.2 112.1 110.6 111.1 111.1 110.8 113.5 115.3 120.3 125.8 136.8 146.3 153.5 159.1 161.8 163.6 164.7 164.7 163 147.8 138.2 134.4 132.6 139 145.6 154.7 167.8 176.1 182.6 188.8 194.8 199.8 203.4 205.3 205.9 206.8 208.2 209 209.2 209 207.7 201.9 200.3 206.5 212.4 217 220.5 222.9 224.9 225.9 226.9 228.7 228.7 227.4 226.4 221.5 215.9 209.3 210 215.5 220.3 222.8 223.3 218.9 203.8 188.8 193.9 212 225.6 230.9 233.7 235.3 236 235.5 234.7 233.5 231.2 225.5 209.1 182.4 161.7 159.4 171.9 188.2 204.4 221.2 235.1 245.2 249.8 254.1 258.2 262.3 265.4 268.3 270.5 272 272.4 271.9 271.3 270.4 268.2 266.2 260.9 255.6 243.4 236.5 241 251.4
153.1 153.8 154.2 153.9 152.8 151 148.4 145.7 141.8 139 135.6 132.5 128.9 124.6 119.4 113.9 111.1 106.1 103.1 99.3 95.4 90.9 84.2 82.4 86.2 92.6 94.4 97.2 99.2 100.1 100.6 102.2 103.7 104.7 105.6 108.5 110.6 112.9 116 118.4 120.8 122.7 124.6 126.5 128 129.2 130.1 129.3 129.6 129.4 130.5 130.5 128.8 120.6 108.6 105.1 103.1 105.8 107.6 106.2 102.7 97.1 91.6 96.8 100.3 104.2 106.7 109.5 114.4 118.8 123.1 127.1 130.9 133.9 136.1 136.7 136.2 134.8 124.8 101 95.4 94.8 101.8 103.4 106.3 106.8 107 106.8 106.7 108.5 109.7 109.5 109.7 109 105.8 107.1 109.2 109.8 110.7 114.4 116.9 121 126 134.5 143.3 150.8 155.5 158.4 161.1 161.7 158.8 137.4 130.8 131.6 138.6 145.7 154 165.5 173.8 181 187.9 193.9 200.3 205.3 207.9 209.4 210.2 210.9 212 212.8 213.5 214.3 214.4 213.3 210 210.8 217.2 221.5 224.4 226.7 229 229.4 231.9 232.1 231.7 230.6 227.9 224.7 217.8 214.3 220.8 226.4 230.6 232.5 231.8 227 213.5 192.9 187.3 202.3 217 226.7 230.4 231.7 231.8 231.2 230.9 228.7 224.7 220.9 207.7 180.3 159 158.6 172.4 188.1 204.8 220.2 235.9 245.5 250.4 255.2 259.5 262.1 265.2 267.2 269.2 270.1 270.2 269.8 269.3 268.1 266.5 262.8 258.6 247.8 232.4 231.1 253.9 260.2
152.8 153.8 154 153.7 152.1 151.5 149.6 147.2 144.6 141.6 138.2 134.7 130.7 126.7 122.2 117 111.9 108.6 104.5 98.3 93.9 90.4 85 81 85.1 91.3 93.8 96.6 100.2 102 102.7 104.7 106 107.4 107.6 111.4 113.5 115.4 117.3 119.7 121.1 123.3 124.6 126 126.8 127.5 128 127.8 127.4 127.2 127.2 127.2 125.5 121.7 108.9 100.1 95 96.2 99.3 98.9 94.6 88.6 89.1 92.5 97.3 101.7 104.3 105.5 109 114.1 119.6 123.4 128 131.8 134.1 135.5 135.3 134 128.7 104.3 93.7 93.4 101.7 104.2 105.2 104.8 103.9 104.3 103 105.7 104.8 103.9 103.4 106.5 109.5 111.1 111.5 112.2 112.2 110.1 114.3 118.1 121.8 126.4 134 143 149 152.7 155 154.7 150.4 131.3 131.7 134.7 143.4 152.7 161.9 170.4 178.8 187.3 194.6 199.7 205.7 209.1 211.5 212.9 213.9 214.6 216.2 217.5 218.6 219.5 219.8 220.8 221.2 219.8 223.3 225.8 228.3 231 233.4 234.5 235.5 235.7 234.8 233.7 231 227.9 223.2 221.5 227.4 234.1 236.8 237.2 236.2 233.4 220.5 198.3 183.6 186.6 197.2 207.5 216 221.5 223.1 223.6 223.4 220.7 219.4 216.5 207.7 181.6 158.3 159.2 172.6 186.3 204.2 218.7 233 244.7 250.2 256 259.1 261.7 264.2 265.5 266.8 267 267.4 266.9 265.8 263.5 259.7 255 250.2 234.1 225.6 247.4 259.2 263
151.8 153.1 153.3 153.3 152.3 151.4 149.9 147.5 145.1 142.3 139.3 135.7 132 128.2 123.9 118.9 113.9 109.9 105.6 101.2 96.8 89.5 85 81.2 82.2 86.3 93.5 98.1 100.6 104 105 106.7 108 110 111.8 114 116.2 118.4 118.9 120.1 121.8 122.8 124 124.5 124.8 124.9 125.5 125.6 125.5 125.1 124.5 124.5 122.7 119.1 112.6 101 91.5 85.6 90.4 87.2 83.1 82.7 82.4 85 92.8 97.7 97.8 103.2 105.6 107.3 113 118.5 122.2 126.4 130.1 133 133.7 132.5 130.5 108.1 94.6 94 100.9 101.5 102.4 101.1 100.5 98.2 99.5 101.4 102.4 105.4 109.1 110.3 112.2 112.9 113.6 114.2 114.3 113.2 113.9 113.1 118.6 122.9 128.9 137.2 143.4 147.8 149.6 148 135.5 129.8 132.3 134.5 140.6 153.7 164.2 174.1 182.1 192 197.5 203.8 208.6 212 214.5 216.4 217.5 218.9 220.5 222.6 223.7 224.7 225.6 227 227.7 228.2 229.5 231.4 233.6 234.6 236.5 237.9 238.9 238.8 238 236.7 234.5 233.3 232.4 231.1 235.6 238.9 240.4 240.6 240.2 238.8 230.2 209.3 192.5 179.7 182 185.7 193.9 199.1 202.1 206 209.3 211.8 212.4 211.4 207 185.6 159.3 155.9 171.5 184.1 200 215.9 230.1 239.5 250.7 254.7 257.5 259.9 261.6 262.8 263.8 263.7 263.9 261.6 256.8 253 247.2 240.6 230.3 222.3 236.4 257.9 262.9 266.2
150.5 151.4 152.1 152.1 151.5 150.6 149.3 147.2 144.7 142.5 139.7 136.5 132.9 129.2 125.2 120.5 115.5 110.8 106.5 101.4 96.1 93.7 86.1 82.1 79.3 78.9 90.3 97.1 103 105.3 106.6 108.2 110.8 113.2 115.3 116.8 118.5 119.8 120.4 121.4 122 122.5 123.1 122.9 122.1 121 120.4 121.6 122.6 123.2 122.1 121.3 119.2 115.6 109.5 97.4 83 81.2 81.4 81.3 81.7 82.6 82.7 83.2 88.9 93.5 94.5 97.8 101.9 99.9 103.6 107.5 112.6 119.1 122.4 126.1 126.9 127.3 125.5 111 93.5 93.1 94.5 95.7 97 99.5 100.4 104.7 106.7 106.9 108 109.7 111.7 112.8 113.8 114.5 115.3 115.7 116.3 116.4 116.7 116.5 115.9 115.3 123.3 131 135.8 137.5 128.8 129.9 126.4 129.8 132.9 135.7 137.7 146.2 163.5 174.9 183.4 192.8 199.4 207 211.4 214.4 217.3 219.2 220.5 222.3 225.1 226.8 228.6 230.1 230.9 232.3 233.1 234.3 235.2 236.1 237.9 239.4 240.3 241.4 241.8 241.9 241.6 240.7 240.4 239.7 240 240.5 242.3 243.4 244.5 245.2 245.3 244.3 240.9 226 206.9 189.8 178.2 175.1 176.7 177.1 180.8 184.4 193.1 200.2 204.3 206 202.3 192.3 167.6 154.3 166.6 178.5 194.5 210.6 224.2 236.6 248.3 252.2 254.8 257.3 259 259.7 260.5 259.5 257.4 243.4 234.4 228.4 224.7 221.1 216.2 232.1 251.6 261.7 265.3 267.8
148.4 149.3 150 150.1 149.7 148.9 148 146.5 144.3 142.2 139.7 136.8 133.5 129.7 126 120.8 115.6 110.8 106.2 103.2 97.6 95.1 87 83 80.9 78.5 91.3 97.9 103.1 106.7 108.5 110 112.9 115.8 118 119.2 120.3 121.5 122.3 122.4 122.2 122.1 121.5 120.1 119.4 116.3 114.1 115.5 117 117.7 117.7 116.6 114.1 108.8 104.1 86.1 79.7 80.5 84.7 87.2 87.4 87.3 84.7 82.9 83.9 86.1 86.6 85.9 91 92.6 94 96.4 99.8 106.9 108.9 109.1 110.7 113.6 113.5 112.7 92.9 92.3 97.1 97.9 99.3 102.3 104.8 106.2 108.4 109.3 109.9 111.8 112.8 113.9 115.5 117.7 117.7 118.5 118.8 119.4 119.5 119.3 119.4 118.4 117.4 120.3 122.7 124 124.9 124.2 126.4 131.1 136 140.1 139.6 142.6 152 169.3 183 192.9 201.3 208.9 213.3 216 218.5 221 222.7 225.6 227.9 230.7 232.7 234.3 235.6 237.1 238.3 239.2 239.7 240.3 241.9 242.8 243.8 244.6 245.2 245.4 245.5 245.7 246.9 247.6 247.8 246.9 248.1 249.5 249.2 250.8 250.2 249.1 246.1 239.4 224.5 207.1 189.9 178.6 171.7 170 169.2 167.2 171.9 185 196.9 199.4 200.2 196 173.2 153.6 159.9 174.1 188.7 205.3 219.6 232.8 243.1 248.7 251.5 254.4 256.1 257 257.1 255.7 244.3 227.9 217.1 214.2 213.8 216.8 235.6 249.3 259.6 263.7 266.7 268.7
146 146.7 147.5 147.6 147.3 147 146.1 145.1 143.7 141.8 139.6 136.9 133.7 130.4 126 121.4 114.9 109.4 105.3 101.6 97.9 93.5 89.9 86.7 83.7 79.3 88.7 97.5 103.1 107.2 110.1 111.8 114.4 117.1 119.6 121.1 122.3 124 124.1 123.1 122.1 120.3 119.4 117.1 116 109.9 104 106 109 109.1 108.8 107.6 105 93.4 80.6 79.2 82.4 85.7 88.3 88.8 88.8 89.3 89 88.4 82.2 83.5 87 86.8 84.9 85.3 86.8 88.4 87.9 88.8 88.3 88.3 91.2 92.2 92.9 93.7 92.3 92.5 96.8 100 101.6 103.2 105.5 108.1 110.5 111.4 112 113.2 114.1 116.3 116.9 118.2 120.9 122.1 123.4 123.2 122.6 121.3 121.8 122 121.3 121.7 119.6 121.5 124.9 127.3 131 138.3 149.6 156.1 151.3 144 147.6 156.8 176.2 190.7 200.1 207.6 212.9 215.8 218.3 221 224.2 227 229.7 233.1 235.4 237.2 238.9 240.6 241.8 242.8 243.4 243.9 245.2 246.3 247.2 248 248.3 249.2 250.4 251.2 252.3 252.6 252.5 252.5 252.4 253 254 254.5 254.5 253.5 251 244 234.8 221.8 204.7 191.3 177.9 174.5 175.5 170.5 163.7 167.6 187 193.6 196.8 194.8 176.9 153.4 155.7 169.2 182.5 199.8 213.1 227.7 239.1 245.2 248.6 250.9 252.6 253.9 253.8 251.2 233.4 213.6 204.2 219 231.8 244.5 251.7 257.5 261.2 263.8 266.8 268.5
143.1 143.9 144.3 144.6 144.6 144.1 143.7 143.4 142.3 141 139.3 136.7 134 130 126.7 122.3 115 108.3 102.6 98.4 95.5 94.1 89.7 86.9 85.9 81.8 81.2 96.3 102.6 107 110.8 113.4 115.2 118 120.6 122.4 123.7 124.3 124.1 123.2 122.1 119.7 116.1 112.8 110.6 105.9 92.3 91 95.8 98.9 100.1 81 79.3 78.6 78.2 84.6 85.2 87.9 88.9 88.8 89.3 89 90.1 91 87 89.7 92.9 93.6 93.3 91.4 86 87.1 85.9 88.1 91.5 91 88.5 89.2 90.7 90.6 90.9 91.2 98.9 101.7 100.3 104.8 107.4 109.8 112.1 113.4 114.3 115.4 116.8 118.3 120.1 123.7 128.2 133.1 135.6 134.7 129.8 127.3 124.9 125 124.2 124.1 125.4 127.3 129.8 133.9 140.1 152.8 163.3 168.6 168.1 160 151.2 153.1 163.1 177.9 192.9 201.4 206 214.6 218.5 221.8 225.3 229 232.3 235.2 238.1 239.8 241.5 243.1 244.3 245.3 246.1 247 248.1 249.1 250.3 251.6 252.4 254 255 255.6 256.1 256.6 256.3 256.1 256.8 257.2 257.7 257.4 258.1 256.6 251.4 248.9 239.1 228.7 216.6 196.4 186.4 188.7 187.8 181 170.7 161.9 172.5 188.7 196.5 197.9 180.3 155.2 153 163.4 177.7 193.8 208.6 222.8 232.4 239.1 243.9 247.6 249.9 250.5 250.3 248 225.5 203.3 210 237.6 245.2 250.5 254.6 258 260.7 263.7 265.4 266.7
138.5 139.7 140.4 141.1 141.4 141.6 141.4 141.2 141.1 140.1 139.2 137.4 134.4 131.6 126.9 122.1 114.4 107.7 102.4 98.7 95.5 91.4 90.5 88.5 85.5 82.1 76.8 89.3 100.8 106 110.1 113.6 115.7 118.2 120.8 123 124.2 124.6 124 122.8 120.9 118.4 114.6 103.7 102.3 101.9 92.2 81.4 82.3 84.5 76.6 76.7 77.6 78.2 82.2 85.5 86.5 88.9 88.8 90.8 92.1 91.9 92 92.4 93.2 94 94.2 95.1 95.6 95.7 91.9 94.3 93.6 92.5 92.1 91.8 89.3 88.5 89.2 91.4 92.9 97.8 101.5 103.6 104.7 104.8 108.1 111.6 113.2 114.6 116.7 117.9 119.5 120.7 125.7 131.5 135.1 140.2 144.2 143 140 137.1 134.5 133.4 132.7 134.1 138.1 141.5 145.1 147.8 144.5 164.2 174.4 181 183.8 180.1 168.3 158.8 159.9 164 179.1 188 205.7 214.2 219.2 223.3 227.1 231.1 234.7 237.3 240.4 242.4 243.9 245.1 246.2 247.3 248.2 249.1 250.5 251.7 253.2 255.1 256.8 258 258.7 259.1 259.4 259.3 260 260.2 260.3 260.8 261 261.5 259.5 258.2 254.1 248.8 241 231.1 212.7 198.1 202.7 203.5 199 190 178.8 163.9 162.5 184.8 201.1 205.9 189.3 163.6 151.6 160 173.2 189.1 204.6 219 228 235.2 240.5 244 246.4 247.2 246.4 245.1 221.3 200.6 204.1 232.1 245.9 250.5 254 256.9 259.7 261.6 263.6 265.4
132.7 134.7 136.4 137.3 138 138.1 138.4 138.5 138.5 138.3 138 137 134.6 132.1 127.7 122.9 116.1 108.2 102.5 99.4 98.5 97.2 95.1 92.3 87.8 85.1 79.2 81.3 97.5 104.4 109 112.8 115.9 118 120.4 122.4 123.7 123.9 123.3 122 120 117.7 113.7 106.9 89.3 90.2 84.4 78 76.4 75.8 76.7 81.9 77 78.2 85.3 85.5 89.9 92 92.6 93.8 94.3 94.5 93.9 92.7 94.1 94.3 95.5 95.4 96.2 94.4 95.8 95.3 95.2 95.3 94.5 95.7 96.7 92.4 95.6 99.2 100.4 100.7 103.4 105 107.6 109.3 109.6 113.3 115.2 116.7 118.1 120.2 122.1 125.1 130.1 134.5 141.1 146 147.6 148.5 149.4 150.4 151 151.7 151.9 156.1 160.1 166.3 169.2 169 165.1 168.1 184.1 191.8 194.8 194.6 189.3 182.6 177.8 179 171 180.7 200.8 211.2 218.9 225 229.3 233.5 237.6 240.5 242.7 244.4 245.8 246.8 248 248.7 249.8 251 252.6 254.3 256.2 258.1 259.7 260.6 261.3 261.8 262.1 262.9 263.1 263.3 263.6 263.8 263.8 263.3 262.3 258.8 254.7 249.1 241.4 225.3 214.5 216.3 220.6 217.7 208.6 197.3 185.1 168.9 160.7 178.4 201.2 210.9 198.1 170.9 150.1 156.3 171.8 186.9 202.4 214.8 224.4 232.1 237.3 240.9 242.5 242.8 242.6 240.2 221.4 197.8 200.9 223.1 243.4 248.7 252 255.2 257.9 259.7 261.9 264.1
125.7 128.4 131.3 133.2 134.4 134.7 135 135.5 135.8 136.8 136.7 135.9 134.7 132.6 129.5 124.3 116.7 108.5 105.2 103.6 104 109.1 107.1 99.8 90.6 84.9 80.4 75 88.8 101.4 106.7 111.1 114.9 117 119.2 121.1 122.4 122.7 122 120.7 118.7 116.6 112.4 106 92.5 74.7 75.7 77.8 75.5 76 80.2 84.4 85.9 88.2 89.9 90.4 91.4 93.1 94 95 96 96.4 96.9 97.5 97.2 96.8 96.2 96.5 97.2 96.7 96.7 96.9 97.1 97 98.4 97 97.7 97.5 100.5 101.3 103 103.1 103 106.5 110.7 111 113.2 115.3 116 118 120.3 121.3 125.2 128.3 133.1 140.1 145.6 149.7 153.2 156.1 159.4 162.3 165.6 169.5 173.1 176.3 181.1 184.3 187.1 189.6 188.5 185.2 196.7 203.1 205.8 207.5 206 202.3 197.1 190.1 183.6 178.1 196.1 210.6 218.8 226 231.6 236.3 239.8 242.6 244.7 246.4 247.6 248.3 249 249.8 251.1 252.4 254.1 256.3 258.3 260.1 262 263 263.6 264.1 264.5 265.3 266.1 266.4 266.6 266.4 266.2 264.8 262.6 259.9 255.3 249.7 241.1 233.1 234.5 234.3 229.2 224.3 216.1 202.8 188.9 173.5 155.7 169.6 192 206.9 192.1 168.1 148.5 154.2 171.6 187.4 201.5 212.9 222.6 229 233.9 237 238.6 239.3 238.3 235.4 226.1 199.1 193.8 212.2 234 245.7 249 251.9 255.4 257.8 260.5 262.3
118.8 119.5 124.9 128.1 129.9 130.8 131.5 132.8 133.7 134.7 135.2 135.3 134.7 133.7 131 126.4 118 111.6 110 114.9 117.8 119.1 116 107.6 97 87.4 82.4 73.3 80.5 96.1 103.6 108.5 112 115 116.9 118.5 119.7 120 119.8 118.6 117.1 114.9 109.3 102.1 77.8 71 71 77.1 79.8 81.2 85.5 87.3 89.3 90.3 91.7 92.2 93.8 93.6 95.4 96.2 97.2 97.7 97.9 98.4 97.4 97.4 97.7 98.3 98.2 98.2 97.9 98.4 99.2 99.8 99.7 100.1 100.8 99.6 102.5 104.3 105.6 105.9 106.2 109.5 110.9 112.9 114.9 116 118.1 121 124 125.1 124.2 129.8 136.9 143.5 148.8 153.5 158.4 163.7 168.5 173 177 181.8 185.6 189.1 192.8 197.4 199.6 201.5 203.3 205.7 207.4 211.7 212.9 215.7 215 211.8 207.9 201.3 194 189.7 190.8 210.6 218.9 226.9 233 237.4 241.3 243.8 245.5 247.1 248.4 249 249.6 250.3 251.8 253.2 255.5 257.7 259.6 261.5 263 264.1 264.9 265.9 266.7 267.4 268.2 269.3 268.9 268.3 267.4 265.7 263.2 260.3 257.2 252.1 247.4 245.9 243.5 240.5 236.7 230.7 219.1 210.1 189.8 176.7 155.4 157.9 172.9 184.1 172.6 155.3 147.8 157.7 175.5 190.4 203 212.9 221.1 227.3 231.5 233.8 235.4 235.3 234.1 231.2 226.5 209.3 187.5 199.8 222 239.1 244.1 249.7 253.7 256.6 258.8 260.6
121.3 119 115.7 122 124.5 126.4 128 129.9 131.5 132.6 133.8 134.5 134.8 134.3 133.1 128.2 122.5 122.7 124.8 128.6 128.3 127.9 124.4 118.9 109.5 92 82.2 74 74 87.1 97.7 104.7 108.7 112 113.9 115.5 116.3 116.4 116.1 115.5 114.5 111.8 106.3 87.1 69.7 69.5 73.8 78.8 79.5 83 87.6 90.7 91.2 91.4 93.1 94.3 95.2 95.2 95.5 97.2 97.4 97.5 97.9 98.4 98.7 98.7 99 98.7 98.6 98.8 99.4 98.7 100.2 100.6 100.8 102.2 103.2 104.6 105.5 106.6 107 108.3 111.2 113 112.5 114.7 117.1 117.3 120.5 124.2 129 130.5 130.9 132.1 138.1 145.5 153.2 159.5 166.3 171 175.8 180.9 186.6 191.8 198 200.1 203.4 207.1 210.5 212.7 214.7 216.4 216.6 218.9 220.2 222 222.3 219.2 216.8 211.9 204 202.9 200.5 206.8 218.8 226.1 232.6 237.4 241.7 244.2 246 247.7 248.4 249.1 249.7 250.5 252 253.8 256 258.1 260.2 262.2 263.5 264.5 265.7 266.9 268 269.1 269.9 270.5 270.4 270 268.4 266.2 263.5 260.8 257.9 254.9 252.3 250.5 248.1 244.4 241 234.8 223.5 213.7 195.4 178.8 163.6 151.9 153.6 157.4 152.8 146.5 150.8 165.7 182.1 195 206.6 215 222.4 226.8 230 231.5 232.1 231.7 230.3 227.7 224.3 209.5 192 188.1 211.2 231.9 241.7 247.5 251.8 254.8 257.1 258.7
123.3 120.6 117.8 116.4 119.3 121.8 124.9 127.1 129 130.6 132.1 133.7 134.8 135.6 135.7 134.8 134.5 134.8 134.8 134.6 133.5 131.2 129.4 125.3 117.7 99 82.8 78.6 75.4 73.5 89.4 97 103.8 108.3 109.9 111.3 112.2 112.4 111.9 111.4 110.4 107.7 103.5 71.7 71 73.6 76 80.6 81.5 84.6 89.8 91.1 92.4 93.1 94.4 95.3 96 95.2 95.8 97.1 97.6 98.3 98.9 99.5 100.2 100.3 100 99.9 99.6 100.3 100.4 100.2 100.6 101.1 101.6 103 105.4 106.3 106.5 108.4 109.5 111.9 112.8 114.6 114.9 116.7 118.4 120.4 123.6 129.6 133.7 136.6 138.1 138.5 138.9 147.3 157.7 166.3 171.8 177.7 184 190.1 195.6 202.5 207 210.1 213.8 216.3 218.7 222.2 225 227.5 226.8 227.1 228.9 228.9 228.5 226.8 224.1 219.5 213.8 213 212.1 209.3 216.1 225.2 230.9 236.4 241.2 244.3 245.9 246.9 247.9 248.6 249.6 250.5 252 253.6 255.8 257.8 259.6 261.4 263.3 264.8 266.1 267.5 268.8 269.9 270.7 271.1 271.3 270.2 268 265.7 263.4 260.7 258.8 256.6 254.9 252.4 250 246.5 242.8 235.4 226 216.8 201.6 181.8 170 153.2 148.5 146.4 145.4 146.6 157.7 175.6 191 200.9 210.1 218.4 221.7 225.2 227.9 229.2 229.3 228.9 227.3 224.2 208.3 190.7 178.8 187.5 211.2 232.3 239.8 245.8 250.1 253.1 255.4 257.4
126 122.1 119.1 116.8 114.5 117.8 121.8 123.8 126.7 128.6 129.5 132.2 134.3 135.4 138.1 138.8 139.9 140.1 139.8 138.9 137.6 136.1 134.5 130.3 123.5 109.1 92.3 83.2 79.4 73.6 75 88 95.1 101.3 104.2 106.1 107.4 108 107.7 107.3 106.1 103.5 93.8 67.8 71.4 73.8 77.6 81.6 86.2 88.7 90.8 92.4 93.7 94.8 95.6 95.9 95.8 94.7 95.5 96.4 97.8 98.5 99.4 100.4 100.8 101.1 101.4 102.4 102.8 102.5 102 102.5 103.4 102.4 102.6 104.5 105.4 106.7 107.7 109.9 110.9 112.3 115.4 116.6 116.9 116.7 120.7 124.1 129.9 135.6 140.2 144.6 148 147.1 143.7 147.6 160.9 170.9 177.9 184.3 191.6 199.1 205.5 210.5 214.3 217.2 220.3 223.9 226.7 230.3 233 234.5 234.7 235.1 235.7 235.7 235 233.5 230.6 226.5 223.5 221.8 221.6 221.7 221.3 220.1 231.5 236.4 240.4 243.4 244.9 246.5 247.3 248.1 248.9 250.1 251.2 252.8 254.8 256.5 258.4 260.5 262.6 264.5 266.1 267.8 268.7 269.6 270.3 270.8 270.9 268.6 266.4 264.2 262.5 260.3 258.7 257.3 256.3 253.8 251.1 247.3 241.5 233.1 226.3 218.1 206.6 189.3 172.7 158.1 150.5 146.1 143.5 151.3 171.6 187.7 197.9 205.2 212.8 218 221.9 224.7 226.8 227.6 227.3 226.8 225.2 209.1 191.7 179.5 169.6 190.4 214.4 230.9 238.3 243.9 248.8 252 254.1 255.4
133 123.8 120.7 117.9 114.2 111.8 116.7 121.3 124.4 123.9 124 129.4 134.4 137.4 140 141.5 142.7 143 142.9 141.9 140 139.1 137.7 134.2 127.9 119.5 100.8 87 81.7 76.8 72.8 73.2 83.6 90.2 96 99.4 101.1 102.8 103.8 102.9 102.3 100 87.4 67.2 72.5 75.8 81.6 84.6 86.2 89.3 92.1 93.9 94.9 95.8 95.7 94.9 93.9 94.6 96.4 97 97.9 99.4 101 102.2 103.4 103.5 103.3 103.9 104.6 103.3 104.1 103.8 102.7 104.1 104.8 105.5 106.1 107.1 108.9 110.3 112.1 114.4 116.7 117.4 118.9 119.9 123.5 127.5 134.2 141.7 146.3 150.9 155 157 157.8 152.1 159.1 172.8 183.2 191.8 200.6 207.6 212.7 216.3 220.2 223.3 227.8 231.1 235.4 237.9 239.6 240.8 241 241.3 241.7 242.7 242.3 241.2 238.1 233.5 232.6 231.5 230.8 230.1 229.5 229.3 233.5 237.2 240.6 243.5 244.9 245.8 246.8 247.6 248.2 249.2 250.3 251.6 253.3 255.2 256.4 259.6 262.2 263.9 265.7 266.8 267.7 268.7 269.1 269.3 268.9 266.9 264.6 262.5 260.8 259.1 257.3 257.5 256.1 253.6 250.8 244.7 239.6 232.5 224.6 213.1 204.3 184.7 167.3 158.5 164 152.3 143.8 146.8 171.5 189.3 201.1 207.1 212 217.3 221.9 224.8 226.1 226.9 226.6 225.3 222.4 201.4 180.3 169.6 174.7 195.8 218.3 229.4 237.3 243 246.8 250 252.2 253.5
140.9 135.5 124.2 118 116.1 113.3 110.2 114.3 117.3 119.2 123.4 129.5 134.4 138.3 141.2 143.1 143.5 144.2 145.5 143.9 142.6 141.4 140.1 136.5 131.3 124.4 112.1 93.7 85.8 82.1 77.2 70.8 69.6 76.8 82.2 86.7 91.1 95.8 97.4 98.6 98.7 97.1 79.3 70.1 72.7 75.9 82.7 84.3 88.1 90.3 93 94.5 95.4 95.9 95 91.8 92.3 94.8 96.7 97.6 99 100.8 102.3 103.8 105.2 105.1 105.1 106.1 105.5 105.4 104.8 105 104.8 105.7 106.6 106.6 107.7 109.2 110.8 112.2 113.6 115.6 119.2 120.3 121.5 122.7 125.2 130.7 142 146.8 152.7 157.9 163 166.3 169.3 166.5 164.6 175.9 189.3 198.2 208.1 212.6 217.6 222.1 225.5 229.5 233.1 238.3 242.1 245 246.1 247 247.2 247.1 247.7 248.9 249.3 248.6 245.4 241.2 240.2 240.1 238.5 237.2 236.8 236.5 238.2 240.3 243.7 245.9 246.9 247 247 246.8 247 247.7 248.5 249.7 252.2 254.2 256.1 258.5 261 263 264.3 265.6 266.3 266.8 267.3 267 266.3 264.5 262.1 260.2 258.5 256.7 255.8 255.4 254 251.5 247.9 243.1 237.4 230.2 219.2 211.2 195.3 176.5 168 170.5 172.8 157.8 142.9 144.5 166.6 187.2 198.8 206.2 211.7 217.6 223.3 226.5 227.2 226.7 225.3 222.4 215.7 193.6 172.5 163 178.1 200.8 220.2 228.6 235.1 240.5 244.3 247 248.9 250.5
144.4 140.4 135.7 124.1 117.9 114.5 111.5 109.1 112.4 116.7 123.6 129.2 134.3 138.6 141.4 143.4 144.6 145.8 146.1 145.6 144.1 142.7 141.4 138.5 134 128.3 119.4 106.1 89.8 84.4 80.6 74.1 70.4 69.3 68.5 72.1 77 81.3 85.7 90 92.7 92.4 68.6 68.4 71.7 76.3 81.9 84.4 87.6 90.1 92.8 94.6 94.9 94.1 91.4 91.6 93.7 95.9 97.4 98.5 100.3 102 103.2 104.9 106 106.8 107 107 107.6 107.3 107.1 107.9 109.5 109.7 109.5 109.5 110.6 111.6 113.2 115.7 117.4 118.6 121.5 124.8 124.7 123.9 127.7 136.2 147.4 154.4 159.8 164.8 169.9 175.1 178.8 181 178.3 178.7 193.2 205.3 212.6 217.3 222.1 226.3 230 234.4 239.6 244.5 248 250.7 251.8 252.4 252.2 252.5 253 254.1 255.5 254.5 251.9 248.6 248.8 248.7 247 246.6 244.6 243.5 243 245.3 247.4 248.7 248.9 248.5 247.2 245.8 245.5 245.8 246.3 247 249.9 252.2 254.5 257.3 259.3 261.2 262.6 263.7 264.4 264.7 264.4 263.8 262.8 260.9 259 257.4 255.8 254.5 253.7 253 251.6 249.6 246.2 240.9 234.8 227 218.1 202.9 185.6 180.9 185.5 186 174.5 160.1 142.4 139.4 161.7 181.8 194.9 203.7 210.4 217.6 223.1 226.7 226.7 224.6 222.1 218.9 208.4 187.9 166.8 161.4 177 201 219.7 226.4 231.7 236.9 240.5 243.3 245.6 246.8
146.3 143 139 132.9 121 117 113.5 109.4 108 116.3 123 128.4 134.3 138.2 141.2 143 144.3 145.1 145.9 145.2 144.8 143.5 142.1 139.7 135.6 130.5 123.4 113.6 99.6 88.7 82.6 78.8 75.8 73.3 68 70.5 73.7 70.7 72.6 78.4 81.5 82.9 66.5 69.3 74.1 79 81.5 84.6 86.6 88.8 91.7 93.3 92.8 91.1 87.2 93 95.3 97.1 98.4 99.8 101.8 103.2 104.9 106.1 106.9 107.1 108 108.8 109.6 110.1 109.5 110.6 112.1 112.9 112.6 112.6 113.3 115.5 119.6 122.9 124.7 126.2 131.7 134.4 133.1 129.7 131.1 140.9 152.4 160.1 164.5 169.8 176.4 181.7 186.7 190.8 193.9 194 199.7 211.6 217.3 222.1 226.6 230.4 234.1 239 243.8 248.4 252.5 255.4 256.4 257.1 257.1 257.6 258.3 260 260.3 259.3 257 255.5 255.2 255.1 249.5 253.7 251.5 250.4 250.6 251.3 252.1 251.5 250.7 249.3 247.1 245.3 243.7 243.1 243.5 245.6 247.7 250.7 253.1 254.9 257.4 259.2 260.6 261.1 261.5 261.3 260.8 260 259.3 257.6 256 254.3 252.5 251.8 250.7 250.5 249.2 247.5 244.6 240.2 234.7 228 211.9 195.9 197.1 201 198.6 192.9 177 155 141.6 139.3 153.5 177.6 191.6 202.1 210.1 215.6 220.2 223.2 222.6 220.8 217.5 215.2 202.3 180.7 161.5 159.2 173.4 198.3 217.7 223.4 228.5 233.3 236.7 239.7 241.8 242.6
147.1 144.5 141 136.9 131.6 119 114.8 110.3 104.6 114 121.6 128 133.4 137.3 140.2 141.9 143.4 145.1 146 146.2 145.3 144.1 142.7 140.4 136.6 132.1 125.9 119.5 109.3 97.4 85.7 80.5 76.3 69.3 67.6 69.9 70.8 69.6 69.6 69.7 69.8 70.7 66 69.2 72.8 81.4 82.3 84.5 85.8 88.4 89.7 90.1 90.1 86.3 91.1 93.9 96.3 97.9 99 100.9 102.7 104.2 105.9 107.3 107.8 108.3 109.6 110.4 111.2 111.7 112 112.4 114 115.3 115.6 117.4 121.5 127.7 131.6 133.6 132.6 135.8 139.5 143.8 144.5 134.7 134.1 142.3 157.4 165.8 169.4 176.5 182.7 187.9 193.2 198.7 202.2 205.4 210.4 216.6 221.9 226.3 230.5 234.5 238.3 242.9 247.8 252.9 257.4 259.9 260.8 261.5 261.8 262.8 264.2 264.7 264.8 263.6 261.7 261.1 260.9 261 260.6 260.3 258.5 257.1 257 257.3 256.6 254.3 252.1 250.1 247.5 243.7 241.6 240.4 241.4 243.9 245.9 248.5 250.7 252.8 254.9 256.7 257.7 258.2 257.8 257.2 256.8 256.3 255.5 254.9 252.9 251.3 248.9 248.9 248.1 247.6 246.8 245.3 243.2 239.5 232.4 222.8 217.3 216.9 215 210.5 202.6 193.3 174.4 151.9 139.7 138.5 151.7 176.9 194.6 202.9 210.8 215 216.7 217.5 216.8 215.7 213.3 209.6 189.1 170.5 156.5 160.7 173.3 197 214.9 220.5 224.7 229.5 233.1 236 237.9 238.9
146.7 144.5 141.7 138.4 134.4 128.8 118.3 111.4 103.6 111.6 120.9 127.5 132.7 136.5 139 140.8 142.3 144 145.4 146.1 145.1 143.9 142.9 140.9 137.3 133 128.4 122.5 114.4 104.8 92.6 83.5 75.7 71 65.2 68.9 68.8 68.6 68 68.3 66.2 66.3 67.6 71.7 78.2 80.6 82.1 84.4 85.6 86.8 88 86.6 83.1 86.8 89.6 93.3 95.8 96 99.2 101.3 103.2 105.5 107.2 108.1 109.2 109.9 111.1 112.4 113.3 113.6 114.7 114.6 116.4 117.2 120.1 126.3 132.1 136.1 140.4 143.2 143 144.4 148.6 151.8 153.7 152.9 138.1 144.6 160.3 170.1 174.8 182.5 189.1 194.8 200.3 204.7 208.3 212.9 218 223.1 227 230.4 234.4 238.2 242.2 247.4 252.4 257.7 261.1 263.3 264.3 265.4 266.8 268.1 268.5 268.7 268.5 267 266.3 266.5 266.5 266.5 265.8 265.2 264 263 262.2 261.4 259.7 257 253.9 250.5 246.3 242.3 239.6 237.3 239.4 241.9 244 246.1 248 249.9 251.7 253.5 253.9 253.9 253.4 253.1 252.8 252.4 251.8 251.3 249.4 247.9 246.6 245.7 245.4 244.7 244.8 244 242.1 235.7 231.5 231.7 230.1 227.2 221.5 215.5 205.8 193.9 168.7 149.3 139 138.3 147.9 176.5 194.9 205.2 213.6 215.3 215.1 214.1 213.6 211.5 207.1 191.5 176 158.8 151.6 160.4 176.5 201.1 212.6 217.6 222.2 226 229.4 232.3 234.5 235.6
145.8 143.7 141.6 138.7 135.5 131.7 126.2 117.1 102.8 110.5 119.2 125.4 130.7 134.8 137.5 139.5 141.2 142.5 143.8 145 144.4 143.2 142.4 141.1 137.6 133.8 129.4 124.4 117.3 108.8 101.2 89.4 79.4 74.1 66.9 65.6 67.7 67.4 67.1 66.2 64.9 69.1 75.6 76.5 78.9 79.4 81.5 82.5 84.4 84.7 84.2 79.2 81.1 84.5 87.4 88.9 92.3 94.2 96.8 100.9 103.3 106 108 109.1 109.5 111.1 112.1 113.9 115.3 116 117.1 117.1 117.9 121.2 126.6 133 138.1 142.5 146.6 149 151.6 153.6 157.2 160.3 162.8 163.2 150.9 144.9 163.8 174.5 180.3 188.5 195.3 201 205.5 209.6 213.6 218.8 225.1 228.3 232.1 235.3 238.5 241.8 246.2 251.9 256.7 261.1 263.8 266.1 267.3 269 270.5 272 272.2 271.9 271.1 270.1 269.5 270.2 270.4 270.4 270.6 269.2 268.7 267.8 266.6 264.9 262.3 258.7 254.9 252.1 241.2 241.7 237.7 233.7 235.8 239 241.1 243 244.5 246.1 247.2 248.4 248.9 248.6 248.3 248.3 248.1 248.1 247.8 247.4 245.9 244.4 243.4 242.8 243.3 243.5 243.6 243.1 241.7 239.9 238.9 237.1 234.8 231.4 222.5 217.5 206.8 187.5 164.2 145.5 137.9 137.3 150.2 178.5 193.9 204.9 212.3 212.7 211 210.2 208.3 200.4 185.3 168.7 159.7 150.8 152.1 163.6 185.1 204.9 211.5 215 219.3 222.4 225.5 228.2 230.2 232.8
143.9 142.6 140.7 138.2 135.7 132.3 128.5 119.8 102.6 106.2 117.2 122.8 128 132.6 135.7 137.2 138.8 140.3 141.5 142.6 142.7 141.7 141.2 139.4 137.4 133.8 130.3 126.1 120.5 113.5 105.5 97.3 86.4 80.8 74.6 63.6 65.5 65.5 64.5 63.9 64.5 71.4 75 75.7 77.1 79.2 80.7 82.7 83.6 83.1 78.9 78.9 83.7 87.7 89.8 91.4 92.3 93.9 95.8 98.4 102.9 106.1 108 108.9 111 112.9 115.1 117.2 119.4 120.4 121.3 120.5 120.6 123.6 133.5 138.6 143.1 147.8 151.3 154.5 158.4 162.3 164.3 166.8 171 171.8 167.1 151.2 166.3 179.8 186 193.7 200 205.2 210.3 214.5 219.2 224 230.2 233.1 236.1 239.1 242.2 246.2 250.5 255 259.8 263 265.9 268.4 270.4 272.1 273.1 273.7 274.2 273.2 272.8 272.7 272.8 272.8 273.2 272.9 272.4 271.6 270.5 269.8 269 267 263.8 260.3 256.1 251.1 240.9 238.9 235.1 232 232 233.5 237.8 238.7 238.1 238.5 240.1 242 242.8 243.5 243.5 243.5 243.5 243.6 243.3 242.7 241.8 240.5 240.2 240.1 240.4 242.5 242.8 243 242.9 242.6 242 240.3 236.5 232.6 226.4 217.3 199.4 177 157.6 142.6 136.4 135.3 159.5 179.4 190.8 200.3 203.7 204.6 204.6 202.8 199 182.3 167.8 156.3 149.8 148 155 174.9 195.5 205.4 209.9 213.2 215.9 218.4 220.9 223.1 225 229.4
141.5 140.7 139.4 137.1 134.8 132.3 129.3 120.9 98 107 114.2 119.3 125.7 129.8 132.7 134.6 136.2 137.8 139.1 140.3 140.7 140.4 139.3 138.4 136.9 134.2 131 127.6 122.7 116.7 109.6 101.3 89.6 82.1 77 74.8 64.9 63.3 64.6 71.1 72.4 72.5 73.9 76.2 78.2 80 81.5 82.3 81.8 79.5 76.6 81.1 85.1 89 91.4 94.1 96.4 96.7 96.7 97 101.6 105.1 107.6 109.9 112.4 115.1 118.1 121.2 124.4 126.9 128 126.6 123.2 126.3 134.2 141.2 147.1 151.9 156.3 161.3 165.5 167.4 170.7 174.3 178.4 179 177.8 160.7 170.6 184.1 191 198.9 204.8 209.8 214.4 218.6 222.4 230.9 233.8 236.5 239.4 242.4 245.8 249.8 253.5 256.9 261.2 264.3 267.3 269.6 271.4 272.7 273.9 274.8 274.5 274.3 274.2 274.2 274.2 274.7 275.1 274.8 274.1 273.2 272.2 271.4 270.4 267.9 264.5 260.6 255.9 250.4 241.3 236.2 233.1 230.1 226.2 227.2 227.5 228.8 230.9 233.2 235.2 236.5 237.7 238.9 239.4 238.7 238.6 238.5 238.2 237.7 237 236.8 236.2 239 240.4 242.3 242.7 243.7 244.7 244.9 244.4 241.6 237.7 233.3 226.5 212.1 184.7 164 150.3 141 136.5 136.1 159.7 175.2 186 192.2 195.9 197.4 195.4 192.7 184.4 166.7 152.4 146.3 143.7 151.7 166.2 188.1 198.2 203.5 207.3 209.7 211.7 213.1 213.7 213 221.4 228.2
138.4 138 137 135.3 133.5 131.3 129.6 122.5 103.3 102.2 111 115.4 122.1 126.5 129.2 131.6 133.6 135.2 136.5 137.9 138.5 138.7 138.3 137.4 136.1 133.9 131.1 128 124.6 119.4 112.8 104.7 95.7 83.6 73.3 69.6 63.1 63.9 66.7 68.4 71 73.3 75.2 76.8 78.9 80.3 81.5 80.8 77.7 74.7 77.8 83.1 86.1 89.3 92.3 95.9 98 99.4 99.6 99.2 100.7 104.3 107.1 110.5 114 118.4 122.7 126.7 130 133.7 136.8 138.7 128.9 127.4 132.8 143.6 150.2 155.6 161.8 165.3 169.3 173.2 177.2 181.9 184.5 186.7 186.4 177.1 169.3 187.8 195.7 203.4 208.7 213.3 217.7 221 227.4 233.5 236.9 239.5 242.4 245.5 248.7 252.4 256 259.1 262.5 265.1 267.7 269.6 270.9 271.9 273.9 274.3 274.7 274.8 274.8 275 275.1 275.5 275.8 275.3 274.7 273.8 273.3 273 271 268.1 264.3 260.6 255.6 247.9 241.4 235.8 230.8 227.2 223.2 219.3 220.8 222.7 225.5 229.2 231.3 232.6 234.2 234.1 234.3 233.9 233.4 233.2 232.9 232.6 231.8 233 236 238.8 240.9 242.8 243.9 244.7 246 245.8 244.8 242 238.3 233.3 226 198.3 173.9 160 153.2 141.3 135.6 135.8 151.9 163 176.5 184.8 188.2 190 188.9 184.9 171.4 153.3 144.3 139.3 150 165.9 181.5 191.2 197.1 201.3 204 205.6 206.8 204.2 199.3 211.5 222.8 228.6
133.6 133.4 133.3 132.2 130.9 130 128.9 125 104.1 94.3 104.5 110.1 115.8 122.7 126.1 128.8 131 132.7 134.1 135.4 136.5 137.1 136.7 136.2 135.4 133.5 131.1 128.3 125.1 120.8 115.8 108 101 88.8 76 65.6 62.8 65.3 66.3 67.6 70 73.8 76.5 77.8 79.1 80.3 79.7 76.7 72.9 77 80.9 83.5 86.9 90.6 93.6 96.6 99.4 101 101.9 101.9 101.1 104.1 107 111.5 116.5 122 127 132 136.9 141 144.8 145.3 144.6 136 132.9 144.7 152.9 159.4 164.3 169.4 175.7 179.8 184 187.3 190.7 193 193.1 191.2 174.3 189.1 198.8 206.7 211.4 215.9 219.5 224.7 232 235.6 238.7 241.8 245.3 248.5 251.2 254.5 257.5 261.5 263.4 265.8 267.6 268.9 270 271.2 273.4 274.5 275.1 275.3 275.4 275.5 275.6 275.8 275.8 275.2 274.6 274.1 273.3 272.6 271.1 268.1 263.9 259.7 254.7 247.4 241.6 235.8 228.9 225.3 218.5 213 215.1 218 220.9 224.2 226.9 227.5 228 228.3 228.2 228.3 227.5 227.4 227.2 227.1 229.3 233.8 236.8 239.5 241.7 243.6 245 245.6 246.4 245.6 244.4 242 238.4 232.8 211.8 190.1 186.4 181.7 162.5 143.6 137.6 134.8 136.5 146.9 157.4 171.1 181.5 182.5 179 171.1 158.1 144.5 138.7 146.6 164.4 178.2 185.4 191 195.4 198.1 199.8 202 201.8 188 194.7 213.9 222.9 228.6
126.9 127.2 128.2 128.7 127.7 127.1 125.8 124 106.3 98.7 94.8 103.1 112.8 118.4 121.8 125.1 127.8 129.8 131.5 133.1 134.4 135.1 135 134.8 134.3 133.1 131.5 129.1 126.1 122.2 117.3 112.2 103.4 95.6 83.4 70.6 61.5 65.2 65.6 66.8 69.4 73.8 76.1 77.7 78 78.5 75.9 71.5 75.7 79.5 82 84.9 87.9 91.2 94.9 98 100.8 102.8 103.9 104.8 104.5 105.4 107.3 112.2 119 125.2 131.5 137.7 143 146.8 149.8 151.5 152.5 152.7 141.6 142.1 154.6 160.9 167.6 175.6 181.1 185.5 188.4 193.2 197.4 197.6 198.1 197.6 190.8 188.5 200.8 208 213.7 217.8 221.1 228.2 233.6 237.3 240.1 243.6 246.7 249.8 253.1 256.1 259 261.6 263.6 265.7 266.9 268.3 269.5 271.4 273.5 274.6 275.3 275.7 275.8 275.7 275.6 275.5 275.3 274.9 274.4 273.6 272.8 271.8 269.5 266.7 263.9 259.5 253.2 247.6 241.1 233.9 228.3 222.7 210.8 205.3 210 212.8 218 218.8 219.9 221.5 222.7 222.2 221.7 220 216.6 221 225 228.5 232.3 235.7 238.5 240.6 242.5 244.2 245.6 246.2 246.4 245.5 244.3 241.8 238.2 231.2 225.4 216.5 207.3 192.6 168.6 147.6 140.1 135.2 132.6 131.6 138.8 153.5 171.1 178.4 174.2 159.9 146.8 138.9 135 154.8 171.9 180.4 185.8 189.5 192.9 195.1 195.8 197.3 192.7 178 189.7 209.2 223.1 228.2
121 120.2 121 121.5 121.2 120.6 119.5 115.7 106.5 97.5 93.1 92.6 107 114.3 118.8 122 124.6 126.9 128.6 130.4 131.9 132.8 133.2 133.2 132.8 132.5 131.2 129.4 126.9 123.6 119 113.8 108.8 102.2 95.7 82.4 63 61 65 65.6 67.8 71.7 74.5 75.9 76.9 75.3 71.7 72.3 75.2 79.4 82.1 84.2 88.2 91.4 95.1 98.4 101.9 104.4 106.5 106.8 107.8 107.9 108.8 113.1 120.9 128.3 135.7 141.9 148.2 151.8 154.8 156.5 157.1 157.2 156.7 143.5 152.6 162.9 172.5 180.3 186.9 189.3 192.4 199.3 205 205.2 204.1 202.7 202.3 196.6 201.7 210.6 215.6 219.6 223.6 231.1 235.8 238.1 240.7 244 247.7 251.1 254.2 257 259.5 261.5 263.6 265.1 266.4 268.1 269.9 271.9 273.6 274.9 275.6 276 275.7 275.6 275.3 274.8 274.7 274.2 273.4 272.3 271.5 270.3 268 265.3 262.3 258.3 252.8 246.9 241.2 234.1 227.7 219.8 207.1 198.7 203.9 207.6 209.7 212.3 214.5 216.1 216.6 210.8 208 212.1 217.3 222.8 226.7 230.6 234.2 237.2 239 240.8 242.9 244.5 245.7 246.4 246.5 245.6 244.4 243.1 240.2 237.3 231.3 222.5 204.3 180.1 161.3 162.9 157.5 145.5 136.1 132.3 131 137.5 157 171.4 169.1 151.7 138.9 134.8 138 156.2 170 179 183.6 186.8 189.5 190.5 191.4 191.7 180.4 168.8 178.9 207.2 221.9 228.3
115.6 114.4 113.6 111.4 109 107.2 103.6 98.9 97 97.8 98.9 93.7 95.9 108.5 114.1 118.2 121.3 123.7 125.7 127.4 129.1 130.3 130.9 131.4 131.4 131.1 130.6 129.2 127.4 124.6 120.7 116.3 111.8 106.9 101.2 92.5 68 61.9 64.2 64.8 65.8 68.4 72.4 73.8 73.6 71.5 68.4 72.5 76 80 81.7 84.8 88.2 91.4 95.9 100.1 102.9 105.3 107.9 110.2 111.5 111.6 111.4 113.8 121.3 130.4 139.4 147 151.6 155.5 158.8 160.7 161.8 164.1 162.3 155.6 151.2 167.2 175.8 184.2 188.6 192.4 197.9 204.8 210.2 211.3 210.4 208.3 207.6 207.3 202.8 211.9 216.3 221.1 225.5 232 235.3 237.9 241.8 244.7 248.3 252.5 254.8 257.3 259.2 261 262.9 264.2 266.4 268.6 270.8 272.6 274.2 275.6 276 276.1 275.6 275.2 274.4 273.9 273.4 272.8 272.2 271.3 270.2 268.6 266.2 263.9 260.9 257 251.4 245.9 240.4 234.1 226.8 218.1 206.2 195.4 197.2 201.5 204 206.7 208.8 208.9 200.4 204.7 210.2 215.7 219.8 224 228.5 232 235.1 238 239.7 241.5 242.4 244.6 245.8 246.5 246.8 246.7 246 244.7 242.3 238.9 234 221 195.3 184.5 181.5 182.9 173.7 160.8 146.4 136.6 131.6 130.6 139.8 155.1 160.2 143.1 135.3 132 136.5 152.4 163.8 174.8 180.3 183.4 185.8 187.4 186.8 180.1 167.3 162.4 172.8 204.4 218.1 224
120 116.3 114.8 113.9 111.5 110.2 107.5 105.4 104.1 102.2 99.9 97.5 90.2 99 109.5 114 117.8 120.3 122.8 124.8 126.7 127.9 128.6 129.3 129.8 129.9 129.6 128.9 127.4 125.4 122.5 118.9 115.1 110.7 104.7 97.6 76.2 61.3 63.7 64.7 65 67.8 69.8 71.2 67.9 68.1 70 73.5 75.4 80 82 85.2 88 91.7 96.3 100.7 104.5 107.7 110.3 113.1 114.7 115.7 114.6 115.5 120.8 133.5 142 149.2 154.2 159.2 162.6 165.1 167.3 166.2 169.2 166.4 155.1 166.6 177 185.1 190.2 196 203.6 210.2 214.2 214.5 214.9 214.1 212.5 212.2 210.6 213.9 218.3 222.1 226 231.1 234 239.9 240.6 244.2 242.8 251.6 254.8 256.7 258.4 260.4 262.1 264.7 266.9 269.5 271.7 273.3 274.9 276 276.3 275.7 275.2 274.7 273.7 272.8 271.9 271.1 270.2 269.4 268.2 266.2 264 262.2 259 255.1 249.6 244.3 238.9 233 225.7 217.7 209 197.9 189.8 194.8 197.6 200.2 199.2 194 201 207.9 213.2 217 220.5 225.4 230.1 233.5 236.1 238.1 240.1 241.7 243.1 244.5 245.9 246.9 247.8 247.7 247.3 246.3 244.2 240.5 235.7 226.7 216.4 206 200.1 194.2 186.8 177.1 162.9 147.7 134.3 130.7 129.4 135.4 155.7 138.6 132.4 130.2 135.2 142.7 154.5 166.4 175 179.5 181.9 181.7 176.5 164.7 155.7 155.2 174.1 204.5 213.3 218.1
123.2 120.6 119.1 117.2 116.6 114.9 112.9 110.3 107.7 105.3 102.2 98.6 94.6 87.1 103.1 109.7 113.8 117.2 120 122.1 124.1 125.8 126.6 127.3 127.9 128.5 128.5 127.8 127.1 125.3 123.2 120.2 116.6 112.9 107.2 101.2 89.2 64.4 61.4 63.3 64.2 65.8 66.6 66.6 68.7 69.9 72.3 74.1 75.7 78.8 81.4 84.2 87.6 92.2 97 101.4 105.7 109.3 112.7 115.3 118.8 120.7 120.1 118.8 121.6 134.5 143.7 151.5 157.3 162.2 166 169 171.5 173.8 176.9 176.3 171 165.7 178.3 186.9 193.4 199.4 207.7 214.4 216.4 217.4 217.9 217.6 216.6 215.8 215 215.8 219.5 222.4 225.9 229.2 231.3 231.5 238.5 241.3 244.1 249.7 252.9 254.2 256.3 259.1 261.7 264.7 267.8 271 272.4 274 275.4 276.2 275.9 275.2 274.8 274.1 272.8 271.2 269.5 268.1 267.6 266.7 265.2 263.8 262 259.7 256.5 252.7 247.2 242.2 236.7 231.2 225.6 218.8 210.6 201.6 187.2 186.4 190.3 187.2 189.6 198.2 204.6 210.4 215.1 218.8 222.5 227 231.5 234.4 237.1 238.6 240.3 242.4 243.8 245.8 247.8 248.5 249.2 249.7 249.4 248.1 246 242.4 237.8 231.1 223.4 215.8 208.8 202.8 195.7 188.4 180.2 163.4 147.1 133.9 128.6 127.9 133.5 136.1 129.7 128.8 129.9 132.1 143 152.6 164.3 173.7 175.4 168.3 158.3 149.7 148.5 155.3 180.5 200.4 208.5 213.6
131.8 127 123.4 121.5 120.4 118.6 115.6 112.6 109.9 107.2 104.3 100.1 94.6 87.4 91.9 104.7 110.1 113.9 117 119.4 121.5 123.2 124.4 125.2 126.1 126.7 127.2 126.7 126.3 124.9 123.3 120.8 117.5 113.9 109 102.8 94.3 76.6 60.7 62.2 63.2 64.2 64.1 68.2 68.5 72.2 73.3 75.3 77.6 79.7 81.8 84.3 88.3 92.6 97.3 102.4 106.9 110.8 114.7 118.2 122.5 125.9 128.5 122.8 122.9 133.3 144.7 152.8 159.5 165.1 169.4 172.8 175.8 178.1 179.7 180.9 180.7 174.5 180 190.4 196.1 203.3 209.9 215.7 217.8 219.7 220.4 220.3 219.4 218.9 218.5 219.1 220.8 222.9 225.3 227 230.7 232.7 235.5 238.4 240.7 244.3 246.3 251.5 255 258.4 261.4 265 269 271.2 273 274.6 275.6 275.7 275.3 274.5 273.9 272.6 271 269.1 266.8 265.4 264 263.7 262.4 260.9 259.3 256.4 253.2 248.7 244.1 239.4 234.4 229.2 223.9 217.3 210.1 203.7 196.8 179.3 182.5 186.9 193.9 201.8 207.3 212.6 216.1 219.6 225.2 229.3 232.3 234.9 237.4 239.5 241.4 244 246.2 248.2 249.8 251.3 252.3 252.8 253 251.4 249.3 246.1 240.9 235.4 228.7 222.1 215.7 209 202.7 198.2 190.6 178.5 158.1 138.3 130.6 128.1 127.2 125.8 127 126.1 125.6 125.4 128.8 137.5 151.1 160 159.5 151.9 143.6 141.9 144.4 163.3 186 194.5 201.9 207.5
142.9 138.8 135.3 132.5 129.4 125.8 121.4 116.6 112.7 109.1 106.2 102.2 97.6 92.1 84.9 93.4 106 110.2 113.4 116 118.8 120.5 122.1 122.8 123.8 124.3 125.2 125.6 125.2 124.5 123.2 120.9 118 114.1 109.8 104.1 98.1 85 67.9 60.8 62.4 63.3 65.1 67.8 70.9 72.9 74.6 76.7 78.6 81.5 82.9 84.8 87.8 92.5 97.8 102.8 107.4 112.3 117.2 122.1 127.1 131.2 133.7 132 126.7 130.4 144 152.8 160.7 167.4 171.8 175.4 178.3 180.6 182.9 184.9 186.2 186.4 182.5 193.5 200.1 207.5 212.8 217.8 220.4 221.8 222.7 222.7 222.5 221.5 221.8 222.2 222 223.2 224.4 226.4 228.2 230.3 232.2 234.7 236.6 240.5 245.9 250.3 253.8 257.4 260.6 265.7 268.7 270.6 272.4 273.7 274.1 274.3 274.1 273.4 272.6 271.2 269 266.4 264.2 261.5 260.1 259.3 258.2 257.3 255.3 253.1 248.8 244.8 239.9 235.3 231.1 226.2 221.2 215.1 208.9 203.4 198.5 179.5 181.2 184.7 196.1 205.1 210.1 214.2 218.6 222.9 226.9 230.1 232.8 235.5 237.9 240.8 243.8 246.4 248.8 251.4 253.5 255.3 256.5 257.1 256.6 255.2 253 249.8 245.5 241.2 235.7 228.9 221.6 214.5 208.3 203.1 195.3 181.4 162.4 143.2 133.3 131.1 128.4 127.6 124.8 124.1 124.4 123.1 122.7 125.4 131 138.1 140.9 136.5 134.6 137.4 151.3 171.1 182 190.1 196.9 204.2
146.6 143.4 140.3 137.3 133.8 129.9 125.6 120.9 116.5 113 109.5 104.9 99.9 94.8 87 85.2 100.7 105.4 109.2 112.1 115.6 117.6 119.5 120.4 121.1 121.9 123.1 124.1 124.1 124 123 120.8 118.1 114.5 110.3 105.3 99.2 92.3 80.4 63.6 59.9 63.2 64.1 67.7 70.7 72.5 75.2 77.3 79.8 81.2 83.2 85.2 87.8 91.3 95.9 101.6 108.2 114.5 120.5 125.6 130.7 134.9 138.2 140.3 134.4 132.8 138.3 151.5 162.6 169.1 174 177.3 180.7 183.9 186.5 188.6 190.5 190.7 185.9 196.4 204.5 212.2 217.9 220.8 223.1 224.9 225.3 225.2 225.4 224.8 223.9 223.8 223.7 223.6 223.8 224.2 225.2 227.2 229.1 230.8 235.8 240.6 244.7 249.1 252.4 255.9 259.8 264.8 267.4 269.7 270.9 272.1 272.5 273.8 273.1 271.7 270.7 268.9 266.1 263.7 260.8 257.2 255.8 254.6 253.7 252.9 250.9 248.4 244.7 240.2 235.5 231.6 227.5 223.1 217.9 212.6 207.2 202.6 191.9 172.5 178 188.9 202 209.2 213 216.8 220.3 223.7 227.1 229.8 232.4 234.9 238.8 242 245.3 248.6 251.7 254.3 257 258.6 260.1 260 260.1 258.4 256.6 253.8 250.1 246 240.7 234.5 226.9 219.2 212.3 204.1 188.8 171.3 153.7 140.6 136.3 133.4 131.5 130.2 130.9 125.5 127.1 125.7 121.7 122 123.6 125.8 126.4 127.7 130.6 141.2 155.8 167.7 177.5 186.6 194.7 201
149.6 146.2 142.5 139.1 135.5 130.8 127.4 123.4 120.2 116.9 113.6 109.2 102.2 96.6 90.4 85.1 88.6 100.2 104.7 108.3 111.6 113.7 115.7 116.9 118.6 120.1 121.1 122.1 122.8 122.7 122 120.3 117.3 114 110.2 106 101.8 95.9 86.3 69.5 60.3 63.4 63.9 67 69.5 73.5 74.7 77.8 79.5 79.7 81.7 86.6 89.3 92.5 97.5 103.5 109.8 116.4 122.6 128.6 133.5 138.3 142.1 144.5 148 145 147.8 148.9 161.8 170.8 175.9 179.8 183.8 187.2 189.5 192.1 194.9 197.8 198 201.7 209.8 217.7 221.4 224 226.8 228 228.6 229 228.3 227.1 225.4 224.6 224.1 223.1 221.4 221.5 221.8 221.3 225.8 230.8 234.6 239 243.1 247.7 250.8 254.7 258.6 262.8 265 266.7 268.2 269.7 271 271.4 271.2 270.2 268.3 265.5 263.1 260.1 257.1 254.5 250.5 249.6 249.1 247.8 245.9 243.5 239.7 235.8 231.7 228.2 224.6 219.3 214.3 209.5 204.7 196.6 179.7 173.2 181.7 195.1 205.6 211.3 214.9 218 221 223.9 226.3 229.5 232.1 236.3 239.7 243.1 246.6 250.2 253.5 256.6 259.4 261.1 261.9 262.6 262.4 261.4 259.9 257.2 254 249.9 244.1 238.4 231 222.2 213.9 194.7 172 158.2 146.4 144.2 143.3 139.6 136.7 139.4 139.1 135.3 132.5 130.1 125.3 120.4 120 120.6 120.4 122.9 127.1 134.5 150.7 162.4 174.1 183 190.9 198.8
151.9 148 143.8 140.2 135.3 131.6 128.3 125.5 122.9 120.5 117.3 112.7 107.2 99 92.5 86.9 80.5 89.1 99.2 104.1 107.9 110.3 112.4 114.3 115.9 117.5 118.6 119.8 120.7 120.8 120.2 119.1 116.6 113.3 109.7 105.5 102 96.9 88.9 79.3 59.5 59.7 63.8 67 68.8 71.8 74.4 76.9 78.5 81.8 84.4 87.5 91.1 95.4 100.9 106.4 112.2 118.8 125.3 130.6 135.7 140.9 145.2 148.6 153 156 158.6 160.6 167.5 174.1 178.3 182.8 186.8 189.7 192.9 196.1 200.3 204 206.4 208.5 216.2 221.2 224.5 229.1 230.4 230.8 231.1 231.1 230.1 228.3 226.9 225.5 224.2 222.4 219.8 213.3 216 221.4 224.8 229.5 232.7 237.1 241.5 245.8 249.1 252.9 256.6 259.6 261.7 263.5 265.2 266.3 268.2 268.9 267.3 265 262.1 260.4 258.7 255.7 253.3 251.1 245.4 244.5 244 242.5 240.5 238 235.5 232.1 228.8 225.4 221.4 216.2 211 206.3 201.9 191.6 171.3 171.4 184 198.1 206.6 211.7 215.6 218.7 220.9 222.9 225.9 228.9 232.3 236.3 240.2 243.8 247.4 251 254.8 258.3 260.7 262.1 263.1 263.7 264.1 264 262.4 260.3 257 252.5 246.7 240.8 233.4 223.5 206.3 182.6 164.3 153.9 151.3 158.6 162.1 154.6 143.8 143.3 142.1 140.7 139.4 137.8 129.5 124.7 123.1 119.7 119 118.1 121.4 128.2 136.9 150 170.8 180.9 189.3 196.6
153.5 149.3 144.9 140 135 130.5 128 125.9 123.8 121.7 118.9 115.2 110.2 103.5 95.1 89.9 83.5 77.6 91.2 97.8 102.9 105.5 108.7 111.1 113.2 114.8 116 117.1 118.2 118.5 118.3 117.2 115.3 112.8 108.4 104.1 101.3 96.5 88.6 80.8 62.4 60 63.9 66.2 68.4 71.3 73.9 77.1 79.9 83.6 85.6 88.7 92.7 97.9 104.3 110.1 114.8 122 127.4 132.7 138 143.5 148.5 153.2 157.2 160.7 164.2 168.7 173.1 177.4 181.4 185.4 189.3 193.3 196.8 200.3 204.6 208.8 213.3 216.6 220.4 225.4 229.5 232.3 232.8 233.1 233.1 232.9 230.9 229 227.6 225.8 223.7 220.7 217.2 208.7 214.4 218.9 222.7 227.5 230.9 234.6 238.6 243.2 246.8 250 253.4 256.2 258.1 259.4 260.8 261.3 262 261.7 260.4 259.6 257.6 255.8 254 251.6 250 246.8 242.2 238.4 237.7 236.4 234.8 233.1 231 228.8 225.6 222.6 218.5 214.1 208.9 203.2 197.4 183 168.8 168.2 187.6 200 206.1 210.9 215.1 217.5 220.1 222 225.1 228.2 231.9 236.4 240.4 244 247.8 251.5 255.2 258.3 260.5 262.3 263.3 264.8 265.3 265 263.9 261.8 258.5 253.7 248.5 242 235.2 222.2 197.7 174.5 163.3 166.5 173.2 180.7 178.3 168.7 154 157.5 158.3 151.2 148 143.9 130 128 126.3 123.1 121.6 118.8 117.6 121 127.5 143.9 166.7 178.7 188.5 194.3
155.2 151.3 146.3 141 135.2 127 126.1 125.3 123.9 122.1 119.9 117 112.6 107.9 100.9 93.1 87.1 80.2 76.9 90.5 95.7 98.8 105 107.7 110.6 111.9 113.3 114.8 115.5 116 116.1 115.3 113.5 110.7 106.9 101.3 96.2 94.6 86.9 78.7 64.4 61.4 64.4 65.7 66.7 69.7 73.2 77.3 79.2 82.9 85.4 89.8 94 100 106.4 111.7 117.7 124 129.7 135.1 141.2 146.2 151.4 156.4 160.7 165.5 168.6 172.1 175.6 178.8 184.4 188.2 192.5 196.7 201.3 205.4 209.7 214.3 219 222.4 225.5 228.8 231.4 233.6 235.1 234.8 234.8 233.4 231.3 228.7 226.8 224.8 222.2 219 213.7 205.8 213.4 216.8 220.7 225.2 228.2 231.6 235.2 240.3 243.7 246.9 250 252.8 254.6 255.9 257 257.8 257.9 257.2 256.1 254.8 253.4 251.7 249.7 248.1 244.8 241.4 238.1 233.6 231.9 230.6 229.8 228.8 227.4 225.7 223.2 220.3 216.3 212.4 208 200.9 193.6 176 166.3 168.2 189.9 199.2 204.8 209.7 213 215.6 218 222.2 225 228.7 232.3 236 240.2 244.2 247.8 251 256 258.9 261 262.1 263.6 265.7 265.7 265.3 264.4 262.5 259 254.4 249.5 243.7 233.9 215.3 188 173.9 178.1 186.2 193.1 193.7 188.8 179.1 165.8 174.4 171.4 162.8 154.4 141.3 134.4 139 139.9 135 128.7 121.5 116.8 117 119.3 140.2 162 175.9 185.8 191.3
156.8 153.3 148.7 143.5 136.7 125.8 119.7 122 122.1 121.4 119.7 117.8 114.5 110.1 104.7 98 90.7 85.4 78.7 79.2 87.6 94.8 100 104.6 107.5 109.8 111.3 112.7 114 114.2 113.8 113.3 111.8 108.8 105.9 101.7 92.7 87.4 84.7 76.2 62.9 58.9 63.7 64.3 66.4 69.3 72.8 77 79.9 82.5 88.7 88.7 94.9 101.9 107.8 113.5 120 126.4 132.6 138.2 144 149.1 154.3 159.4 164 167.8 171.5 174.7 178.2 182.4 187.2 191.3 196 200.4 205.3 209.9 214.4 221.5 223.8 225.2 228.5 231.7 234 235.8 236.9 236.3 235.5 234 231.7 229.2 226.3 223.1 220 216.2 208.3 202.7 210.2 213.7 217.2 221.3 225.3 229.2 233.1 237.3 240.6 243.9 246.6 249.1 251 252.2 253.1 254 254.2 253.6 252.4 251 249.6 247.8 245.6 243 239.9 237.6 234.2 229.3 225.9 224.9 225.5 224.7 224.1 222.7 220.6 218 215.2 212.2 208.3 202.3 191.9 171.1 160.8 169.7 189.7 198.8 203 207.5 209.9 213 217.2 220.5 224 227.7 232.1 235.4 239.8 243.1 246.6 250.1 255.6 258.5 260.8 262.8 263.7 264.9 265.6 265.2 264.6 262.6 259.5 255.6 250.8 243.7 231.3 207.7 189.5 193.3 198.6 204 206.7 204.8 200.3 183.7 183.9 186.2 180.3 171.2 157.9 150.1 148.2 151.5 149 145.3 139.1 128.1 120.6 115.2 116.2 134.4 152.2 171 181.2 187.3
159 155.7 151.2 146.4 139.9 127.4 118 115.8 118.2 117.9 110.4 107.5 109.8 104.4 105.9 100.7 93.4 87.7 82.3 75.9 80.9 89.9 95.9 100.5 104.7 107.5 109.4 110.5 111.3 112.1 112.2 111.5 110.1 108 105 101 90.2 79.4 78.8 74 61.3 57.4 60.7 64.1 64.9 67.7 73.4 75.1 77.2 79.9 84.8 90.6 96.1 102.8 109.2 115.4 121.8 128.2 134.9 141.5 147.7 153.5 158.5 162.7 166.7 170.7 174.2 177.6 181.1 185.2 190 194.6 199.4 204.3 208.9 214.2 218.3 224.3 226.7 228.9 231.2 233.9 236.4 237.9 238.3 237.9 236.3 233.4 231 228.5 224.6 221.3 218.1 214 204.3 199.1 206.7 211.1 214.6 218.4 222.7 226.6 230.4 234.2 237.6 240.7 243.5 246.1 248.1 249 250.3 250.6 250.4 249.8 248.8 247.5 245.8 243.3 240.8 237.7 235.9 233.6 230.3 225.7 219.3 220.2 220.8 220.4 220.6 220.2 218.5 216.8 214.6 211.9 208.3 204.2 195.5 171.3 157.2 166.2 188.7 197.9 202.1 204.9 206.9 211.4 215.2 219.2 222.9 226.8 230.9 234.2 238.4 241.5 245.4 249.3 254.2 257.3 259.4 261.9 263.1 264.4 265.1 264.9 264.2 262.7 260.1 256.7 251 244.4 225.8 209.8 209.8 214.9 220.9 221.4 218.8 215.5 210.7 193.6 200.8 196.7 190.4 181.5 172.9 168.2 162.6 160.7 157.8 154.3 145.4 134.6 124 117.1 115.6 128.4 142.7 160.9 172.5 179.9
161 158 154.2 149.9 144 132.8 118.6 113.4 111.3 109.1 105 101.4 99 98 96.6 100.4 95.3 86.5 83.3 76.6 74.5 83.3 92.4 97.1 101.5 104.8 106.9 108.7 109.7 110.7 111.1 110.6 109.2 107.1 104.1 98.7 89.5 77.4 69.9 70.4 65.2 58.5 58.9 60.9 66.2 69.2 72.1 75.2 77.1 80.4 85.4 90.7 97.9 104.5 110.2 115.9 124.2 130.2 137.2 145 151.3 156.6 161.5 165.4 169.4 173.4 177.3 180.8 184.5 188.5 193.7 198.4 202.8 207 212.3 216.9 222.1 225.1 227.8 230.9 233.6 235.8 238.2 239.8 239.6 239.3 236.6 233.3 230 226.5 223.3 219.6 215.7 211 200.4 195.5 204.1 207.7 210.9 214.9 219.3 222.8 227.1 230.7 234.1 237.6 240.3 242.8 244.7 246.2 247 247.3 246.5 246.1 245.3 243.8 241.3 239 236.8 234.9 232.7 229.5 226.3 220.5 212.7 215.4 216.6 217.6 217.6 217.2 217.4 215.4 213.5 210.8 208.7 205.2 195.9 171.8 155.7 160.3 180.4 196 199.7 200.5 205.1 208.7 212.3 216.7 220.8 224.5 229.5 233 236.4 240 243.4 247.1 251.6 254.4 256.7 258.6 261.7 262.4 264.1 264.4 264.1 263.1 261.1 258 253.8 246 238.5 233.4 233 232.7 231.5 229.8 227.3 224.8 220.2 213.8 212.7 208.4 202.1 198 193.4 185.2 175.9 170 166.1 160.7 151.3 143.7 132.1 116.1 113.6 117.9 133.7 147.2 158.9 166.4
162.8 160.1 156.6 152.2 146.7 138.4 123.2 113.6 110.1 106.8 102.8 99.8 95.1 93.1 90.2 88.2 84.7 82 80.4 77.3 71.6 74.1 86.9 93.1 97.7 101 103.8 106.1 107.7 109 109.5 109.6 108.2 106.6 103.2 96.5 87.4 76.9 72.2 65.5 63.8 57.9 57.1 63.9 64.4 68.4 72.3 74.4 77.3 81.3 85.8 92.7 100.7 106.4 112.8 118.1 124.6 132 139.4 147.1 153.4 159 163.8 168.2 172.3 176.3 180.2 183.8 187.8 192.2 196.6 200.9 205.1 210.2 214.5 218.8 222.3 225.3 227.8 231.1 235.1 237.5 239.8 241.5 241.5 241 238 232.7 228.8 225.1 221.5 217.7 213.1 208.2 196.5 192.9 201.3 205.2 207.2 211 215.3 218.9 223.4 227.4 230.9 234.4 237.4 239.9 241.7 243.3 243.8 244 243.5 243 241.7 240.1 238.2 235.8 233.6 231.6 228.3 225.1 221.7 216.1 208.8 211.3 213 213.8 214.2 214.4 214.1 214 212 209.6 207.3 203.8 198.6 174.4 157.1 153.5 170.9 188.9 194.4 191.4 199.9 202.7 204.8 213.8 218.3 223 227.1 230.8 234.3 238.2 241.4 244.6 247.8 250.7 254 256.6 259.2 261.5 263 264.1 264.4 263.8 262.5 260.4 257.4 251.9 248.1 245.4 243.9 241.7 239.1 237.3 234.6 231.8 229 226.1 223.4 219.1 216.3 210.8 205.9 199.3 188.9 182.5 174.3 168.1 160.7 153.1 144.2 123.8 116 113.8 114.4 134.7 145.2 150.7
164.8 162.1 158.6 154.2 148.8 142.8 130.1 116.1 110.1 105.5 101.4 96.1 96.6 93.2 89.8 87 84.8 83.6 81.2 79 77.2 72.4 74.9 85.7 92.1 96.3 100.5 103.4 105.2 106.9 108.2 109.2 107.6 106.3 104.5 99.5 94 89.2 81.5 67.3 61.2 58.9 56.6 61.4 63.6 68.2 70.8 72.9 75.9 81.6 85.9 92.1 100.1 107.6 114 119.2 125.6 131.7 141.1 148.8 155.5 161.3 165.5 170.1 174.4 178.5 182.6 186.2 190.4 194.3 199 202.7 207.8 212.3 215.9 219.8 222.6 224.9 228.1 231.5 235.5 238 240.8 242.4 242.8 242 239 232.8 226.3 222.7 219.4 215.4 210.9 206.2 199.2 186.6 198 201.6 204.6 206.7 210.5 215.2 218.9 223.6 227.9 231.5 234.4 237.1 239.1 240.4 240.6 240.5 240.2 240 239 237.4 235.3 232.9 230.5 227.2 223.4 219.4 215.8 209.9 205.8 207.4 209.4 210.1 211.1 211.6 212 211.3 209.7 207.5 204.9 201.5 197.5 178.8 159.7 152.6 161.1 179.2 187.3 183.7 187.3 186.5 199.3 210.5 216.3 220.5 224.1 227.8 231.8 235.1 238.5 241.8 245.9 248.3 251.6 254.9 258.2 260.6 262.7 264 264.3 264.1 263.7 262.4 260.5 257.5 254.2 252.5 250.7 248.6 246.6 243.7 241.2 238.3 235.6 233.3 230.8 228.8 224.8 220.3 215.8 208 200.1 190.9 182.4 175 170.4 162.1 151.1 130.7 116.6 113.9 112.1 117.3 133.7 138.5
166.5 163.7 160 155.2 150.6 144.8 137.4 122.4 111.7 106.6 100.3 103.9 102 98.5 95.3 90.6 88.7 87.1 86.2 83.3 79.7 78.2 73.5 72.1 81.3 90.6 96 99.1 102 104.1 106 107.4 107 106.1 105.6 103.9 101.6 98.5 89.9 74.8 60.4 58.7 58.1 60.1 64.4 66.6 70.9 72.4 75.9 79.6 86.4 93.2 100.2 107.1 114.2 120.2 124.6 133.6 141 149.3 156.7 163 168.2 171.7 175.7 180.1 184 187.8 191.8 196.5 199.8 203.4 208.8 212.6 216.7 220.6 223.2 225.4 227.7 230.4 233.6 238.1 241.4 243.5 244 242 236.2 229.1 224 220.5 217.3 213 208.6 204.9 200.2 185.3 193.2 197.8 199.8 202.4 205.7 210.6 215.5 220.4 224.8 229.2 231.7 235.2 236.6 237.4 237.8 237.3 237.6 237.4 236.4 234.5 232.4 230.1 227.1 223.2 218.8 213.7 211.4 205.6 200.3 203.5 205.6 206.6 207.4 208 208.6 208 207.1 205.7 203.2 199.9 195.2 183.4 164.3 149.8 151.9 168.9 178.6 174.7 175.2 191.4 202.4 209.1 213.6 217.7 221.3 224.8 228.4 232 235.2 238.4 242.3 245.9 250.2 253.7 257 260.1 262.3 263.9 264.3 264.5 264.5 264.4 263 261.7 259.3 257 255.1 253.4 251.1 248.8 246.6 244.3 241.5 239.9 237 234.7 232.1 225.9 220.6 214.8 207.5 197.5 189.8 183.5 176.7 161.7 140.9 125.4 117.8 115.9 114 110.9 123.7 128.6
167.2 164.3 160.7 155.8 151.3 145.8 139.2 130 115.4 105.2 106.8 107.2 105.4 102.4 98.5 95.6 93.3 91 88.3 86.2 82.9 79.8 76.9 71.9 68.8 77.1 87.2 93.1 96.1 99.6 103 105.5 106.5 106.2 106.2 105.2 103.1 100.1 94 80.7 59.9 57.8 58 58.1 62.7 64.5 66.6 70.1 72.3 77 82.4 89.5 97.6 104.2 112.1 119.1 125.4 133.4 141.3 149 157 164.3 169.2 173.2 176.8 181.3 185.6 189.3 193.3 196.6 199.5 203.7 208.9 213.1 216.4 219.8 222.3 224.2 226.1 227.6 230.6 236.8 240.6 241.6 241.5 237.4 230.7 225.3 221.6 218.2 214.5 210.2 206.8 203.1 198.9 185 187.7 192.9 195.5 198.3 202.2 207.1 212.3 217.9 222.4 226.9 229.5 232.4 234 235.4 235.9 236.2 236.1 235.3 234.2 232 229.9 226.8 223.5 219.2 214.8 210.9 205.9 200 197.8 199.9 201.4 202.4 203.6 204.3 205.4 203.7 204.6 204.3 202.3 199.3 195.4 189 170.9 151.3 147.7 161.9 173.4 165.1 179.6 190.8 200.2 205.9 210 213.9 218.2 221.7 225.6 229 232.2 235.2 239.6 243.9 248.8 252.9 256.2 259.4 261.5 263.2 264.7 265.2 265.7 265.8 265.5 263.9 262 260.2 258.2 256.3 254.6 252.4 250.3 248.5 246.7 244.7 242.8 239.9 237.3 232.8 226 219.6 213.2 205 195.4 187.8 171.4 148.5 131.3 123.5 119.7 116.1 114.8 113 112.5 115.3
167.4 163.9 160.3 155.8 151.7 146.1 139.8 131.4 117.6 104.5 110 110.3 108.5 105.9 103.7 100.4 97.9 95.1 91.5 89.8 86.6 82 76.9 74.6 71.9 66.1 68.9 76.8 84.6 94.8 100.8 103.6 105.3 105.8 106.1 105.2 103.6 100.9 95.9 85.9 63.8 57.7 56.6 58.9 66.5 67.5 68 72 73.8 76.5 77 83.3 88.9 98.9 108.7 113.5 125.6 131.4 137.7 146.5 155.1 162.4 168 173.3 177.9 182.1 186.1 190.1 193.7 197.3 200.7 204.5 209 212.6 215.7 218.3 220.2 221.9 223 224.5 227.1 230.4 235.8 236.5 234.5 228.9 226 221.9 218.8 215.3 211.7 208.1 204.8 201 197.1 186.4 179.9 188 190.6 194.1 198.9 204.1 209.7 215.3 220 224.4 227.4 230 231.7 233.3 234.3 234 234.5 233.6 232.2 230 227.8 224.7 220.6 216.2 211.7 206.8 200 193.7 193.3 195.2 197.1 198.6 199.4 200.5 202.4 202.8 203.1 203.4 202.3 199.9 195.7 190.1 176.8 155 144.9 154.8 159.9 157.4 173.5 185.8 192.1 199.8 203.6 209.5 214.5 217.7 222 226 229.6 233 237.4 242.6 248.2 252.1 255.4 258.5 260.7 262.6 264.3 265.2 265.9 266.8 266.7 265.6 264 262.2 260.3 258.4 256.9 255.2 253.4 252.1 250.4 248.9 246.7 244.6 240.9 236.5 230 224.2 217.9 211.8 201.6 187.8 158.3 139.3 131 129.9 127.6 118.4 116.1 114.8 112.7 111
165.9 163.2 159.9 156 151.6 146.3 139.9 130.9 115.9 108 115.2 117.6 114.1 110.4 108.3 106.7 103.8 100.4 96.4 94.4 89.5 83.9 79.5 76.4 74.3 72.5 69.3 63.7 72 88.4 98.4 102 103.9 105.1 105.5 104.9 103.6 101.4 97.3 90.2 65.2 56.6 56.4 58.3 65.7 67.1 69 71.5 75.3 78.8 81.2 83 84.8 87.1 99.4 111.1 120.8 127.2 134.3 141 148 156.4 163.2 170.9 176.8 181.2 185.1 189.4 193.3 197 201.2 205.1 208.7 211.7 214.1 215.7 217 218.6 219.9 221.3 223.3 225.5 227.4 228 226.6 224.3 221.5 218.5 215.8 212.7 209.3 206 203.2 199 194.7 185.9 173.8 178.4 181.7 186.7 194 201.4 206.5 211.8 217.7 221.5 223.6 227.8 230.2 231.8 232.8 232.8 232.9 232.1 230.3 227.9 225.6 222.4 218.7 214.8 210.4 203.7 196.9 191.6 186.4 188.3 192.7 193.4 196.4 196.9 199.9 201.1 202.2 203.9 203 199.2 194.3 184.9 174.3 156.3 143 146.7 149.2 153.3 164.3 171 174.3 179.3 185.4 192.1 199.8 206.3 216.4 222.8 226.8 230.9 235.4 240.7 246.6 251.2 254.6 257.1 259.7 261.8 263.7 265.2 266.2 266.6 266.4 266.2 264.5 262.9 261 259.4 258.1 256.7 255.5 254.4 253.7 252.1 250 247 243.2 237.7 233.8 228 222 215.5 206.9 188.5 157 139.5 144.5 147.2 141.5 129.2 118.3 116.2 115.9 112.4
164.4 162 159.1 155.7 151.3 145.6 139.5 131.3 116.4 111.4 122 123.9 122.3 119.1 118.4 113.3 110.7 106.5 101.6 99.3 94.6 86.2 81.7 78.2 76.2 73.7 70.7 67.5 62.9 73.1 90.7 100.2 102.5 104 104.8 104.5 103.6 102 98.4 92.4 68.5 56.2 56.5 62.4 65 67 69.7 71.9 76.1 79.9 85.2 87.7 91 94.9 95 94.6 109.3 117.2 125.4 132.6 141 148.7 156 163.2 170.5 177.2 181.7 186.2 191.6 196.3 200.7 204.4 207.6 209.8 211.5 212.8 213.7 215.4 216.5 218.3 219.8 220.6 221.5 221.4 220.8 219.3 217.3 215.2 212.8 210.1 207 203.6 200.9 197.2 192.5 182.7 168.6 174.5 177.1 183.2 187.9 192.9 199 204.8 208.3 213.3 218.1 223.2 229.3 231 231.9 232.1 232.4 231.7 229.6 227.4 224.8 221.4 217.6 213.7 210 205.4 200.4 195.5 185 182.4 187.4 190.8 192.7 194.9 197.3 199.9 201.5 202.9 200.8 193.5 180.1 167.4 156.7 145.8 141.2 144.2 147 150.8 155.8 160.3 166 171.4 177.5 194.1 206.4 216.5 221.2 225.2 228.5 232.2 236.3 240 245 250.2 253.6 256.5 258.9 261.1 263.2 264.4 264.8 265.3 265.1 264.5 263.6 262.3 261.2 260.2 258.7 257.3 256.7 256.1 255.4 253.8 251.4 248.3 244.3 239.9 235.8 231.9 226.1 220.1 212.6 188.3 158.5 159.9 170 163.4 154.6 143.2 129.1 118.3 116.8 115.8
163 160.2 157.5 154.6 150 144.4 138.8 126.5 120.4 113.1 127.3 131.1 132.5 131.8 129.1 125.5 118.6 113.2 107.4 106.9 101.7 95.1 86.1 81.5 79.5 75.7 71.8 70.3 68.8 60.7 76.4 95.7 101.1 102.8 103.6 103.9 103.4 101.8 99 93.5 66.9 56 61.1 62.6 64.2 67.1 69.6 74.1 78.8 86 93.5 97.3 99.3 101.5 103.5 102.1 103.8 101.9 113.1 120.2 131.9 140.6 147.3 153.2 160.1 167.5 175.5 182.7 188 194.7 199.5 202.7 204.9 206.5 208.1 209.7 211.1 212.4 213.8 215.7 216.7 217.1 217.2 216.7 215.7 214.6 213.3 211.8 209.6 206.7 204.4 201.1 198.9 195.4 190.4 178.9 174.9 181.5 185.6 190.7 195.5 199.7 203.7 210.4 217.9 221.8 224.9 226.8 228.9 230.2 231.2 231.9 232.6 231.8 229.9 227.5 224.7 221.4 218.5 215.1 211.5 207.4 203.3 198.6 189.7 178.4 183.9 185.5 189.5 193.1 196.3 197.9 199.6 199.7 195.5 178.2 164 151.8 143.4 139.1 141.7 146.5 149.6 154 159.4 168.8 178.7 189.1 199.2 207.3 214.2 219.4 224 228.5 232.2 236.6 240.8 244.2 246.6 249.6 253.6 256 258.4 260.5 261.8 262.8 262.9 262.6 262.2 262.2 261.8 261.1 260.2 259.3 258.6 257.9 257.2 256.9 255.7 253.9 251.3 248.1 244.7 241.2 237.5 233.8 229.2 223.6 217.7 198.4 182.5 189.7 190.6 183 169 152.4 138.4 121.9 119.5 121.4
160.9 158 155.6 151.9 147.4 142.3 134.7 129.7 124.1 122.3 130.3 139.1 140.2 139.3 137.6 133.8 127.9 119.2 116.9 115.7 111.4 104.1 97.7 89.3 83.6 79.9 76.5 73 69.2 65.1 62.4 85.7 98.5 101.2 102.3 102.7 102.1 100.6 98.2 92.7 64.1 55.8 57.1 62.3 63.9 67 70 78.2 85.1 90.8 99 103.8 106.9 110.6 111.6 112 111.5 111.4 110.7 117.7 119.8 123.6 129.6 138 147.1 155.7 168.6 177.1 184.8 192 196.1 199 197.6 202.5 204.6 206.7 208.4 209.6 211.9 213.4 214.1 214.1 213.8 213.3 212.3 211 209.5 208.2 205.7 203.8 201.7 198.7 196.6 193.5 188.9 170 174.3 181.9 188.1 193.8 200 205.2 210.3 215.3 219.7 223 226.1 228.3 230.1 231.8 232.3 232.7 232.2 231.5 230.1 227.4 224.5 221.7 219 215.9 212.4 209.3 205.5 201.1 195.8 179.7 177.5 180 185.6 191.1 193.2 195 196.2 194.1 180.1 166.2 152.3 141.2 136.6 144.3 143.2 145.4 149.4 153.4 158.5 166.4 178 188.4 199.2 208 215.2 221.3 226.1 230.9 235.5 240.5 245.2 248.8 251 251.8 253.6 255.5 257.3 258.8 259.8 260.4 260.1 259.7 259.5 259.5 259.2 258.6 258.2 257.5 256.8 256.6 256.4 255.6 254.4 252.6 250.2 246.4 244.3 241.6 238.2 234.4 230.8 226.8 221.6 214.3 209 205.4 199.4 192.7 183.6 163.2 138.2 124.7 123.2 134.2
157.9 156.1 153.5 150.3 146.4 139.3 136.3 132.8 120.9 135.8 141 144.9 145.8 145.5 144 140.8 135.3 129.5 128.3 126.9 122.5 116.2 108.9 96.1 96.8 92.2 83.2 76.2 72.4 68.2 62.4 69.2 92.2 99.7 100.9 101.1 100.1 98.7 96.6 92.9 68 54 56.1 61.3 63.5 67.2 73.6 83 90.4 97.2 102.9 108.4 113.1 118.1 121.7 121.4 119.4 117.7 118.9 120.8 130.3 134.9 136.9 136.5 137.7 138.3 154.9 172.5 180.9 187.6 192.6 195.5 197.3 197.7 200.8 203.7 205.6 208.1 209.8 211.2 211.6 211.6 210.6 209.8 209 207.6 206 204.7 202.6 200.6 198.8 197 195.1 192.5 180 162.5 178.4 185.5 190.6 195.8 201.9 208.6 213 217.3 221.3 224.4 227 229.1 230.9 232.9 233.5 232.9 232.2 231.5 229.5 227 224.3 221.4 218.6 215.8 213 210.2 207.1 203.6 199.2 191.1 173.3 174.1 176.6 180.5 182.8 185.9 189.9 185.9 169.1 151.1 140.9 135.5 144.5 150.9 151.9 152.5 156.3 162.1 165.3 166.2 173.6 183.7 195.3 205.9 215.2 222.9 227.8 233.6 239.3 244.6 247.9 250.6 252.7 254 254.9 255.8 256.6 257.4 257.3 257.6 257.2 256.8 256.4 256.1 256.5 255.9 255.3 254.7 254.4 254.2 253.9 253.3 252.3 250.3 247.8 245.6 243.5 240.9 238.3 235.3 231.9 228.9 224.8 220 215.5 211.2 206.3 200.1 192.1 175.9 147.4 128.5 126.4 140.8
156 153.8 151.6 148.3 144.3 142.1 136.3 132.5 135.4 145.2 148.5 149.9 150.2 149.9 149 146.2 142.4 140.8 139.4 136.5 132.7 127 116.4 113.3 108.8 105.6 95.3 85.2 73.4 69.3 67.9 59.5 80.2 97.8 99.1 98.3 97.3 96 94 90.3 67.4 54.1 56.8 60.6 63.4 69.3 76.9 87 93.2 100.6 106.3 112 117.8 123 127.4 129.9 130.9 128.1 125.3 132.9 138 143.5 149.1 152.3 155.8 160 150.4 164.3 175.4 183.5 188.7 192.1 195.1 197.5 198.4 201.3 203.8 206.3 208.1 209.2 209.3 208.3 207.9 206.7 205.5 203.9 202.2 201 198.7 197 195.6 194.8 193.2 191.4 175.5 161.1 181.9 188.4 193.2 198.7 204.1 210.2 215.4 219 223 226 228 230.5 232.4 233.3 233.5 232.8 231.8 230.6 228.5 226.7 223.5 220.6 217.8 215.1 212.8 210.2 207.5 204.5 200.4 195.2 183.3 172.1 163.9 160.4 160.5 163.8 169.4 171 155.6 139.2 133.1 134.3 148.9 152.1 156.2 160.1 164.7 169.5 175.3 183.1 186.7 188 190.2 203.5 216.5 225.2 230.7 236.4 241.8 246 249.2 251.4 253.4 254.6 255.2 255.8 256.7 256.1 255.8 254.6 254 253.3 252.7 252.5 252.6 252.4 252.1 251.8 251.2 250.9 250.6 250.3 248.8 247.3 244.8 242.5 241 239.4 236.9 234.7 232 230 227.5 223.5 219.2 215.4 211.4 205.8 199.2 186.6 159.2 138.8 131.2 148.5
154.8 152.6 149.9 149.3 147.6 144.9 141.2 135.7 148.1 151.7 153.4 154.5 154.4 154.1 153.6 151.3 150.1 148.5 146.2 143.4 139.9 136.7 131.9 127.8 122.9 116.4 109.5 97.8 80.3 68.6 64.9 58.9 68.2 86 95.5 95.5 89.2 82 74.9 67.9 55.1 53.9 55.8 61.5 63.5 68 77.9 88.7 95.6 102.9 109.6 115.9 121.8 126.8 131.7 134.8 136.7 137.2 132.1 137.3 144 149.7 154.6 159.2 163.8 168.9 170.3 159.1 168.3 175 182.7 186.9 188.9 193.4 196.5 199.6 202.4 204.5 206.5 207.3 207.5 206.5 205.6 204.2 202.7 199.9 197.2 196.6 195 193.8 193.1 192.5 191.5 190.2 175.7 158.1 176.3 191.4 196.1 200.9 206.4 212.2 217.2 220.9 224.4 227.1 229.5 231.8 232.5 233 233 232.1 230.9 229.1 227.2 224.8 222.5 219.7 217.2 214.9 212.6 210.2 207.2 204.2 200.7 196.8 191.1 185.8 178.5 165.4 151.1 147 149.4 154.6 142.3 131.8 131.1 143.5 149.6 154.7 160.9 167.3 172.3 177.2 182.4 190.8 198.2 205.6 207.8 211.6 221 228 233.8 238.1 242.3 246.5 249.4 251.8 253.6 254.8 255.9 256.3 256.1 255.4 254.1 252.4 250.6 249.7 248.7 248.4 248.3 248.1 247.9 247.3 247.3 247.2 246.3 245.6 244.9 243.6 241.1 239.4 238.1 236.8 235.7 233.3 231.4 229.9 228.3 225.5 221.6 218.2 214 209.6 204.3 196.7 177.9 151.6 139 157.5
