ncols 200
nrows 82
xllcorner 290000
yllcorner 631600
cellsize 50
295.4 300.2 303.7 307 310 314.4 319.1 323.6 327.1 331.2 334.9 336.8 338.7 337.7 335.7 331 326.3 321.8 316.9 311.7 307.2 302.2 297.9 292.4 287.7 285.3 281.9 279 275.8 271.7 269.8 269 269.7 270.7 273 273.4 273.7 275 276 275.9 276.1 276.4 276.5 276 276.6 275.7 277.7 278.2 282.9 287.2 289.9 291.9 292.5 292.7 292.9 291.5 289.5 287.2 285.9 286.7 284.8 285.4 285.4 287.2 287.2 287.2 289 294.9 299 302.1 304.3 306.9 308.3 308.4 309.8 312.5 315.3 316.9 317.5 318.7 319.7 321.2 324.6 327.3 330 333.2 337.5 343.8 348.8 350.6 350.8 348.4 349 350.4 353.2 354.6 356.5 358.6 360.7 363.2 365.1 362.4 349.7 342.7 354.5 381.4 411 440.2 465.8 478.8 484.2 486.4 485.6 480.9 475.3 464.6 455 444.2 431.4 419.7 408.9 400.6 393.3 383.8 381.5 377.7 374.1 368.1 361.1 350.1 341.3 332 326.1 324.5 327.9 329 324.1 320.6 313.9 307.4 300.3 295.4 293.1 291 288.3 285.6 283.8 281.1 280.5 286.3 286.6 284.4 279.9 276 276.3 276.8 276 275.8 274.1 271.1 267.5 267.5 268 261.4 260.4 257.5 254 251.9 249 247.1 242.5 242.6 242.4 240.3 238.8 236.5 235.2 235 233.1 232.7 231.7 228.7 226.7 224.9 223.9 223.3 222.1 221.5 221.8 221.8 219.4 219 219.2 219.9 217.8 216.5 216.5 217.2 217.9 216.5
298.6 302.9 305.2 309 311.6 316.1 321.3 325.9 330.6 334.8 336.7 338.3 338.6 336.8 333.6 328.5 323.3 317.9 312.2 306.5 301.2 295.5 292.3 287.2 284.9 282.3 279.1 276 271.8 272 271.3 273.1 274 274.6 275 276.3 277.7 278.3 278.7 278.2 279.2 279.5 278.6 279.9 278.3 279.3 282.2 281 286.7 290.3 292.3 294.2 295.1 296 295.7 294.2 291.6 288.7 287.9 287.2 287.2 287.7 287.6 287.5 287.2 287.2 287.2 290.2 294.2 300.2 304.1 306.3 306.6 310 313.5 317.5 320.6 322.2 322.8 324 325.6 329.2 332.5 336.2 340.4 344.5 354.5 360.9 362.1 362.8 362.1 364.5 365.1 365.4 367.9 369 371.2 372.2 374.3 377.9 376 373.2 360.1 351.1 347.9 369 399.2 430.1 457 478.4 487.6 487.7 484.4 479 472.7 462.6 451.9 437.8 426.2 414.7 409.3 401.9 393 382.9 369.3 362.7 359.9 353.1 344.1 335.6 332.9 334.3 335.7 335.7 334 330.9 327.9 324.6 320.2 315.5 309.5 304.7 298.6 300.6 296.3 292.2 285.9 288.9 289.9 288.4 286.4 284.7 280.5 281.8 281.7 282.1 281.3 279.6 277.6 275.5 272.6 268.6 268.5 263.3 259.6 256.6 254.1 251.4 249.4 247.3 242.6 243.6 243.4 241.3 238.3 236.2 234 234.3 233.2 232.2 229.4 226.8 226.7 224.7 224.4 223.3 222.7 222.2 222.9 221.2 219.1 219.3 218.1 219.8 219.1 217.2 218.7 218.5 218.4 216.5
301.1 305.2 306.7 310.3 312.9 317.3 322.4 327.9 332.6 336.4 337.6 338 336.7 333.4 329.9 325.6 319 312.7 305.8 298.8 294.8 291 286.9 284.9 281.5 279.1 276.8 272.5 273.5 273.8 274 275.4 276.5 276.8 278.2 279.3 281.3 280.5 281.2 281.2 281.8 282 280.8 283.3 279.4 283.6 285.8 284.2 288.9 293.1 295.3 297.1 298.6 298.9 298.3 297 293.6 290.5 290.3 289.9 289.8 290.1 289.7 289.7 289.5 287.2 288.7 290.6 292.9 294.9 297.2 299.9 303.2 310.4 317 321.3 325.7 327.5 328.6 331.5 333.3 337.5 342.5 345.5 354.1 362.3 374.6 380.1 378.7 377.3 380 381.3 381.5 382.8 383.8 386.1 388 389.8 393.2 394.1 391.3 384.7 371.4 361.7 354.7 359.3 388.7 418.7 448.4 470.9 488.7 491.3 488.1 481.9 474.3 466.1 456.1 445.4 436.9 427.1 416.1 405.9 393.9 380 367.5 355.8 349.5 345.6 345.4 344.3 344.6 344.3 344.1 342.1 339.1 336.2 332.2 328.1 324.2 319.4 314.2 307.5 308.5 301.9 299 295.4 287.9 295.2 292 292.8 289.8 287.8 283.2 286 288.1 288.5 288.4 286.7 283.4 280.1 277.1 274.5 271.4 267.9 262.7 258.3 255.8 255 250.9 246.3 243.3 243.4 243.1 241.5 238.2 235.7 234.3 232.4 231.7 227.5 229 228.8 226.1 224.7 224.1 223.4 223.3 223 222.7 220.4 219.6 219.6 219.1 218.1 218.1 218.6 220.1 219.3 219.6 217.4
303.6 306.9 308.4 310.9 314.3 317.7 322.5 328.7 333.3 335.1 336.2 335.6 332.9 328.7 323.5 318.6 311.9 305.1 298.5 295.1 290.8 287.6 284.2 281.8 280.3 277.8 274.6 274 275.6 275.1 276 276.6 277.3 279 280.5 283 283.3 284.5 284.3 285.1 284.6 285 284.1 286.4 281.3 286 290.6 285.1 291.6 296.9 298.8 300.2 301.8 302 301.3 300.2 297.7 295.7 295.1 293.9 293 291.9 293.4 293.2 290.9 287.2 289.5 291.5 293.7 296.3 297.8 299.9 303.7 311.5 320 325.6 329.5 332.5 335.6 340.8 345 351 356.4 362 369.6 381 393.4 398.5 399.8 399 398.7 400.6 401.2 402.1 402.9 405.3 407 406.6 410.1 412.1 409.8 397.5 383.7 373.3 364.9 367.4 382 416.1 445.1 471.3 491.6 497.5 496.8 490.9 483.3 474.8 465.4 455 447.2 437.3 424 408.6 392.5 375.9 361.8 354.8 356 355.3 355 353.5 352.5 350.8 349.7 347.6 344.8 341.3 337.3 332.9 328.5 323.1 317.5 311 309.1 303.8 300 296.1 291.6 295.7 295.3 295.4 293 289.9 287.3 291.6 294.7 298 297.8 294.9 289.7 286.2 282.4 279.3 275.6 270.6 265.3 259 254.3 252.3 249 246.1 244 243.2 242.7 240.8 238.8 234.8 235.1 233.9 229.2 232.7 230.2 228.3 226 225.1 224.8 223.5 222.3 221.5 221 220.4 219.9 219.4 218.9 219.4 218.2 220.2 220.6 221 219.3 217.4
305.7 309.6 311.9 312.9 315.4 316.6 321.6 327.5 330.6 332 333.2 333.5 328.3 321.5 315 308.8 303.7 297.5 293.7 290.4 287.8 285.1 282.7 280.4 278.6 276.3 275 275.4 277.6 277 278.5 277.8 279.6 282.3 284 285.7 286.7 286.6 287.3 287 288 287.8 289.2 287.4 285.2 288.6 289.8 293.3 292.9 300.3 301.2 302.4 304.4 305.4 304.1 303.3 301.7 300.9 297.8 296.5 294.8 295.7 296.2 294.2 291.2 289.2 290.1 291.7 295.6 299 301.6 304.4 307.9 310.7 320.8 329.1 333.9 337.8 344.4 350.6 356.6 363.2 369.6 378.2 387.3 401.1 413.3 419 423.7 421.7 420.8 421.6 422.7 423.6 426 427.4 428.4 427.2 429.9 433.8 429.9 414.8 399 386.9 377.7 378.8 385.2 417 447.5 475.9 500.1 509.3 506.2 501.3 497.1 490 481.1 470.1 458.2 444.8 428.9 409 388.9 368.8 362.7 366.8 367.7 366.9 365.4 363.5 360.3 358.3 356.2 353.4 349.8 346.5 342.5 337.8 333.1 327.7 321.1 316.1 312.1 307.9 304 300.4 295.4 298.6 299.6 300.3 297.8 294.1 293.7 297.4 302.7 307.3 307.6 305.3 299.8 295.2 290.3 284.2 279.3 274.8 268.3 261.5 254.9 250.5 248.7 245.9 244 242.9 241 239.2 236.1 235.9 233.9 230.9 232.9 232.9 230.6 227.9 226.7 224.8 224 223 221.7 220.9 221 220.3 220 219.6 219.3 219.1 219.2 221.2 221.7 220.7 219.5 217.4
308.4 312.5 315.5 316.1 316.6 316.3 318.3 323 326.5 328.4 329.1 325.9 319.7 314 307.8 302.1 297.1 293.4 290.4 287.4 284.9 285.2 283.2 281 277.3 276.9 277.8 279.1 279.9 279.6 280.2 281.1 282.9 284.8 286.8 288 289.2 289.5 290.7 290.3 291 292.8 290.8 289 289.5 287.2 291.1 296.6 295.6 300.8 302.3 303.8 305.9 307.3 306.4 305.9 304 301.6 302.1 299.1 297.7 298.9 298.4 295.7 292.5 291.2 292.1 294.6 299.1 301.9 305.1 309.1 310.2 319.9 320.1 331.4 338 344.8 350.8 356.6 364.6 372.8 380.6 391 402.2 418.5 432.8 439 444.5 448.5 448.4 447 446.2 447.4 450.3 450.6 450 448.8 450.4 450.4 447.1 435 415.4 401.3 392.2 392.2 394.7 424.4 453.2 481.4 506.9 519.9 517.9 513.9 509.2 502 492.5 480.2 466.3 449.2 429.1 406.1 381.5 369.4 376.5 382.3 380.4 378.4 375.9 374.3 369.8 367.3 365.7 363.9 360 354.5 348.7 343.2 338.3 332.9 328.6 323.8 319.4 314.3 308.4 303.6 302.3 302.7 304.1 305 302.2 297.2 299.6 303.8 311.4 316.4 318.4 316.1 311 305.4 298.1 290.2 283.5 277.3 270.5 264.4 257.3 250.8 247.4 245.4 243.8 242.5 240.5 238.2 236.3 232.3 231.4 233.3 234.5 233.3 230.3 226.4 227.6 223.9 223.1 222.2 221.5 221.8 220.9 220.9 220.7 220.2 219.7 220.6 221.2 221.5 220.5 220.4 219.2 217
310.7 314.8 318.7 320 319.3 317 314.4 315 319.6 322.3 321.4 316.6 310.5 305.7 301.5 297.2 293.6 290 288.8 287.2 285.4 284.7 281.5 280.1 278.3 280.5 280.7 281.3 281.3 282 284 285.6 286.8 287.2 290.2 292.3 293.3 293.7 293.6 294.4 295 296.1 292.5 291.6 291.4 290 291.2 299 297.3 301.6 304 306.1 308 309.4 309.2 308.1 306.5 304.6 302 300.6 301 301.9 301.1 297.2 294.1 293 294.9 298.4 302.4 305.3 309.3 313.1 318.3 320.1 320.1 328.1 339.5 349.3 357.3 364.1 375 384.2 392.9 403.9 417.3 436.6 452.6 461.4 466.6 472.4 476.2 475.4 474.3 475.2 474.6 473.4 471.3 469.3 468.4 466.6 465 452.9 434 418.5 410.5 407.1 407 433.4 460.5 488.1 513.2 529.8 531.5 527.1 520.1 511 499.8 486.2 470.1 449.4 427 401.3 377.8 384 391.2 396 394.4 390.8 388.5 385.9 383.7 382.4 380.2 377.1 370.9 366.1 359.4 351.3 345.9 340.4 335.9 331 326 319.6 313.3 308.5 309.6 310.3 310.4 308.8 306.3 304.4 306.4 311.9 320.8 325.8 328.5 327.3 321.8 314.5 304.9 294.5 286.3 279.2 272.3 266.1 259.9 251.8 246.1 244.1 243.1 242.3 238.7 237.3 235.7 233 234.6 235.7 234.8 231.5 226.4 226.1 228.5 224.6 222.6 221.4 221.4 221.2 221.3 221.6 221.5 220.7 220.7 221.7 221.9 221.3 221 219.9 218.6 216.5
313.8 319.3 323.5 324.7 323.3 319.7 314.4 310.8 310.6 313.4 311.9 306.5 302.3 299.7 296.4 295 292.8 290.9 288.9 287 285.2 285.1 281.3 279.6 282.3 283.2 282.9 283.6 284.1 285.5 287.3 288.7 289.1 291.3 294.6 295.6 296.2 296.6 296.1 297 296.9 296.4 294.1 293.1 292.6 291.9 292.8 296.4 298 301.5 305.6 308.4 309.7 310.9 310.3 309.3 307.9 305.9 305 303.9 304.4 305.4 303 299.1 295.7 296.2 297.6 301.7 305.1 308.6 312.5 316.9 320.4 320.1 320.1 320.1 335.1 348.5 360.1 370.7 382.4 390.4 404.6 416.4 432.2 454.8 472.3 483.5 493.7 495.3 497.8 499.6 499.8 500.9 500.2 497 493.4 491.8 489.4 486.4 482.8 471.4 454.2 439.6 431.9 427.7 428.6 447.3 471.3 495 517 535.8 543.4 539.5 530.9 519.2 505.5 489.8 470.8 447.6 424.4 397.7 384 399.1 407.4 410.1 409 408.1 403.1 402 401.7 399.8 396.5 391 385.4 381 372.4 362.4 354.9 349.8 345.6 339.2 333.4 326.1 318.9 319.2 319.7 319.4 318.8 316.8 314.6 311.3 314.9 321 330.6 336.1 338.7 338.6 331.8 321.9 309.2 297.1 288.1 281.4 273.6 265.9 259.7 251.9 245.4 243.1 243.6 241.6 238.1 237.2 235.8 235 234.9 235.4 233.3 228.1 228.2 226.5 227.4 223 222 221.6 221.5 221.1 221.2 221.9 221.8 221.2 221.1 221.9 222.1 221 220.2 219.2 217.4 215.8
317.6 322.7 326.8 328.6 327.6 324.6 319.2 315.9 309.9 307.6 305.6 302.9 301.5 300.8 299.1 296.8 294.1 292.3 290.9 287.3 287.9 282.7 282.8 284.6 286 285.8 286.3 286.6 287.8 289.7 290.5 290.6 292.2 296.2 298 298.4 298.8 299.4 299.2 299.2 300.3 296.6 296.2 295.1 294.2 294 294.7 298.4 301.4 304.1 308 310.5 312.1 312.8 312.4 311.4 310.6 309.8 309 305.9 308.2 307.7 303.9 299.8 298.9 301.1 302.4 302.3 307.3 312.7 317.6 321.7 323.9 323 320.1 320.1 328.4 341.6 357.4 371.4 387.4 399.6 414.4 426.5 445.5 466.9 486.3 500 510.2 516 519.7 521.6 521.6 522.2 521.4 519.3 515 512.8 510.4 506.9 502 491.1 475.9 461.4 453.7 448.3 445.3 465.3 484.4 505.4 525.3 544.2 553.9 548.9 538.3 524.2 508.9 490.4 469.6 445 423.3 398.6 397 413 420.5 422.7 422.6 420.9 420.6 419.6 419.4 418.2 414 410.5 406.6 400.3 390.1 379.6 368.5 359.2 354.5 348.8 341.1 333.6 330.2 331.4 331.9 331.4 329.1 325.4 323.2 319.3 324.2 333.6 341.1 344.7 347.6 346.3 338.8 326.7 312.9 298.9 289 283.4 272.9 266.7 258.7 251.3 244.2 242.1 241.2 240 237.6 237 235.1 234.8 235.5 234.1 229.7 229.7 228.4 225 224.7 223.1 221.9 221.6 221.6 221.7 222 222 221.7 221.3 221.1 220.8 221.5 220.7 219.8 217.7 216.2 214.8
323.6 329.2 333.5 334.3 333 328.9 323.6 318.5 313.4 310.5 308.3 307.9 307.8 306.7 305.1 302.5 297.3 295.8 292.4 291.5 285.2 289 288.5 288.6 289.2 289 289.6 289.9 290.8 289.2 292.3 294.3 296.3 298.4 300.9 302.3 303.2 302.8 302.5 302.1 303 298.4 297.9 297.6 297 299.7 302.4 300.2 302 306.7 309.9 312.6 313.8 314.5 314.4 314.8 314.4 313.6 312 308.7 310.5 308.7 305.1 302 303.2 304.9 306.8 307.4 309.6 316.8 325 328.6 329.3 326.9 330.1 333.8 325.9 335.5 350.3 367.6 385 403.4 419.4 432.9 453.4 474.9 494.9 510.8 523.8 533.6 538.8 541.3 541.9 541 539.3 538.2 535.6 533.5 531 528.2 523.3 515.3 498.5 484.7 476.8 469.1 463 482.3 501.3 520.6 538.3 553.2 561.2 552.7 539.8 525.4 510.1 490.9 469.6 444.5 423.7 402.3 408.9 425.8 432.4 434.9 435.1 434 434.6 435.7 437.5 437.9 435.8 432.8 427 419 409.6 396.1 383.7 373.8 365.7 359 352.2 343.6 346.9 347.2 347.8 346.2 342.7 338.7 333.7 326.7 335.5 343.3 351.8 352.5 354 351.6 341.9 326.9 313.1 298 287.9 280.9 270.2 263.9 257 250.3 243.7 242.2 242.1 238.7 237.2 236.2 235.3 235.4 234.9 232.2 230.7 231.3 227.6 226.6 224.8 224 222.8 222.9 222.9 222.7 222.8 223 222.7 222.2 221.4 220.7 220.4 219.4 218.5 218.2 216.3 214.7
328.9 335.8 339.3 338.8 337.1 332.2 327 320.6 318.9 318.2 317 315.8 314.8 312.6 310.1 305.4 299.8 299.3 294.9 290.8 289 292.4 293.1 292.7 292.6 292.8 293.1 293.1 293.3 292.7 295.7 298.1 300.6 302.6 304.2 305.8 306.4 306.7 307 304.9 303.1 302.4 300.4 300.2 299.2 302 304.3 303.5 306.2 308.2 311.9 314.6 315.9 316.4 317.9 318.8 318.4 316.6 313.7 313.1 312.6 310.2 307.4 307.3 308.6 309.4 311 311.7 312.4 317.7 324.6 332.3 334.6 330.6 336.7 343 344.1 329.2 343.3 358.5 378.9 398.4 419.1 432.4 455.1 480 501 518.7 533.2 546.3 555.3 557.8 557.1 556.8 556.7 556.3 555.3 555.1 554.6 552 545.9 537.1 521.9 507.4 497.2 491.1 488.7 501.4 520.8 538.2 553.4 563.6 567.1 555.2 542.7 528.8 512.8 492.4 471.8 446.9 426.4 405.7 419.7 439.4 446.2 446.7 448.9 450.6 451.7 452.5 454.9 458.5 458.7 456.3 449.7 441.5 431.5 415.1 400.3 388.9 380.3 373.8 366.3 361.7 364.7 365.2 364.7 364.1 357.4 350.7 342.8 339.2 346.8 354.5 360.8 361.1 360.7 352.8 340.3 325.5 310.4 293.8 284.5 277.4 267.7 261.2 256.5 249.7 243.5 243.2 240.5 238.6 237.6 235.1 232.4 232.7 230.6 230 232.4 227 229.9 227.7 225.3 224.5 223.4 224.3 223.9 223.3 222.4 222.8 223.2 222.9 221.9 221.3 220.9 220.6 220.3 220 216.2 215
332.3 340.2 345.2 344.1 340.2 334.9 328.8 325.2 324.6 324.6 322.8 321 319.9 318.1 314.5 306.3 303 299.5 294.8 293.2 295.9 297.1 296.5 295.9 296.7 296.9 296.7 295.7 297 295.4 298.2 301 302.9 305.1 307.2 309.2 309.6 309.9 308.7 306.5 305.9 305.1 302.3 302.6 303.5 304.8 306.9 307.1 308.8 311 313.9 316.4 318 320.2 322.3 323.4 322 319.5 318.5 317.3 316.9 315.1 312.5 312.9 313.9 314.9 315.6 316.3 316.2 320.3 325.3 334.1 339.7 337.1 341.8 348.6 352.6 344.5 335.4 349 369.8 390.9 411.2 427.6 453 477.9 499.7 520.6 537.1 551.3 565.1 570.7 570.3 572.3 573.7 573.3 573.3 575 575.6 575.1 570.7 562.2 547.8 531.3 520.4 513.9 514.6 527.7 541.2 555.1 563.9 569.5 565.5 556.1 545.3 531.7 515.8 495.4 474.3 449.5 432.2 412.4 431 449.5 459 459.9 462.6 464.1 467.6 470.1 474.4 477.8 479.2 477.6 471.3 462.7 451.5 437.3 421.8 407.1 396 387.7 380.4 376.4 380.7 379.5 376.3 374.9 370 360.3 349.6 350.4 358.3 365.9 369.8 368.8 364.9 355.3 339.4 324.1 304.2 290.3 280.2 271.9 265.7 260.2 254.6 246.3 243.2 242.7 239.8 238.7 235.8 232.6 231.2 232.9 233.2 232.3 228.5 232.1 230.7 229.2 225.5 225 224.8 225.3 223.8 224.1 223.6 223.5 223.5 223.2 222.1 221.3 221.5 220.8 220 217.5 215.8 216.8
335.1 345.9 349.9 346.8 342 335.1 332.6 332.2 332.1 331 328.1 326.5 323.7 320.9 316.7 307 302.3 294.3 294.9 298.5 299.7 301 300.4 299.6 300.8 300.9 299.9 299.3 299.1 298.8 300.6 302.7 304.7 307.2 310.9 312.5 312.4 311.7 310.1 308.9 308.4 306.5 304.7 307.1 305.9 303.9 309.8 311.4 311.4 314.4 316.8 319.6 322.3 325.2 327.5 327.4 326 324.1 323.4 322.8 322.2 321.7 319.4 319.8 320 321.2 322.3 322.6 322 323.1 328.8 335.1 342 343.8 345.1 352.6 361 359.1 346.5 340 355.9 381.9 403.4 419.9 445.9 470 492.8 513.8 533.6 550.1 566 575.4 581 584.1 588 590.2 591.1 592.6 595.2 596.2 595.4 590.2 576.3 559.9 547.4 540.5 541.8 548.8 556.2 564.2 569.7 572 567.1 559.1 550.5 534.4 519 499.3 477.5 453.4 440.5 427.1 441.9 457.5 468.5 472.2 475.2 477.6 482.8 487.7 493.3 498 499.2 498.8 491.5 483.2 472 459.2 443.7 428 411.3 402.6 395.5 394.4 393.5 392.7 388.4 384.6 378.6 368.5 359.6 361 372.6 377.8 379.2 376.8 370.2 354.4 338.7 320.1 300.9 285.9 275.9 269.3 264 258.2 252.8 245.2 243.8 239.5 239.2 238 235.9 232.8 233.3 233.8 233.7 228.5 232.7 232.3 230.9 228.3 226.3 225.8 225.7 225.2 225.2 224.6 224.1 224.7 224.8 224.3 223 222.5 222.2 221.3 220 218.3 216.5 218.9
339.1 349 352 348 342 337.4 340.2 339.3 338.6 336.4 332.8 330 325.7 320.6 312.6 305.9 297.9 302.2 301.5 303.7 304.3 304.3 305.3 305.7 305.9 304.4 303.2 302.6 302.8 302.8 303.4 304.3 307.3 310.7 314.9 316.1 316.1 312.8 312.2 312.5 310.9 309.2 308.8 309.6 309.8 308.7 311.8 313.4 314 316.7 319.8 323 326.9 330.4 332.7 332.5 331.1 329.8 329.6 329.7 329.3 327.9 327.7 328 328.8 330.1 330.5 329.3 328.4 328.4 334.1 339.8 346.5 350.3 348.8 355.6 365.4 369.7 364.4 348.3 343.6 366.5 392.8 410.8 434.8 460.3 481.4 503.4 522.9 543 561.1 575.7 585.7 591.1 597.7 601.7 605.3 608.2 611.1 613.3 614.8 613.4 605.6 590.9 579.8 568.9 564.7 566.7 568.4 573.1 575 574.5 570.3 561.7 552.7 539.1 523.7 505.1 481.8 459.3 453.5 447 451.7 464.7 475.6 481.9 486.1 492.8 498.6 504.7 511.8 516 520.1 518 511.2 502.6 491 477.6 461.2 445.2 426.4 415.6 411 408.9 407.6 405 400.3 392.9 385.7 376.6 370.9 374 382 387.3 387.3 383.5 372.7 356.6 336.7 314.1 298.3 282.8 273.8 267.1 261.3 255.9 249.9 244.1 242 239.2 239.7 239.4 235.4 233.4 233.7 233.6 229.5 231.1 232.9 232 231.2 228.5 227.4 226.3 225.2 225.9 225.9 225.1 224.7 225.9 226 225 223.7 222.5 222.4 221.6 220.2 218.1 217.3 219
340.2 348.9 351.3 346.9 343.8 344.4 346.2 345.8 343.5 339.3 335.8 332.1 327.4 318.1 310.5 300.9 305.8 307.8 307.4 308.1 308 308.7 309.8 310.3 309.8 309 307.4 305.6 305.8 305.9 305.6 307.3 310.8 316.2 319.7 320.8 319.3 314.5 316 314.1 312.3 312.1 312.2 312.5 313.4 310.7 314.3 315.4 316 319.5 323.4 326.8 332 336 337.7 337.9 336.9 336.5 337.6 338 337 336.7 336 336.1 338.5 340.3 339.1 337.2 335.6 337.6 339.6 345.6 353.6 357.7 356.6 358 367.3 374.9 375.7 365.2 351.4 351.5 377.5 398.4 421.3 446.3 468.6 489.8 510.8 531.3 551.6 569.7 584.7 593.6 601.8 608.7 615.2 619.8 624.2 628.1 631.4 631.8 626.5 617.9 608.2 596.4 584.3 579.8 579.9 579.5 579.5 576.8 571.3 563.5 553.8 542.4 528.5 511.9 490.2 473.3 468.7 466 461.7 473.8 482.8 490 498 505.1 511.8 517.4 524.4 531.5 535.9 534.6 528.9 520.3 507.2 492 474.5 456.5 440.2 424.7 422.5 420.5 417.5 413.5 407.9 400.3 391.6 384.2 382.4 382.7 389.2 393.1 392.9 386.2 372.5 353.3 332.7 314 294.8 280.2 271.4 264.7 258.5 253.1 246.2 242.6 240.8 239.9 238.4 236.3 234.7 233.3 231.9 231 232.3 230.9 232.7 231.9 230.6 229.6 227.6 226.5 226.3 227.7 227.5 226.4 225.8 226.4 226.2 225 224 222.7 222.4 221.8 220.6 218 218 218.8
338.8 345.2 347.3 347.7 348.4 350.3 350.8 350.2 347.2 341.5 337 330.8 322.7 312.9 303.3 307.8 311.4 312.2 311.8 312.7 314.1 314.4 314.7 315.5 315.6 313.7 311.5 308.4 308.5 309.2 309.1 311.7 316.9 322.1 324.5 325.6 324.9 318.3 317.2 316.4 314.9 314.7 314.9 316.6 316.5 315.9 317.1 318 318.9 323.2 328.8 332.8 337.8 341.5 342.9 342.9 343.1 343.9 345.4 345.4 345.4 345.7 345.9 345.9 347.9 349.7 349.3 347.6 348.2 348.9 350.8 358.6 363 366 365.3 363.1 370.1 380.4 384.9 382.2 364.5 353.3 360.4 386.9 414.1 435 454.4 475.4 497.6 518.6 540.3 560.5 577.9 590.2 600.9 610.2 619.1 626.7 633.4 638.1 642.5 645.1 640.6 634.6 626.9 616.1 605.3 595.1 590 587.5 584.3 580.9 573.9 564.9 555.7 547 534.5 520.6 505.2 490 482.7 479.1 472.5 484.3 491.7 498.9 505.8 516.1 523.5 527.4 536.9 543.5 548 547.3 541.7 531.2 518.3 503.4 484.7 465.4 447.9 431.6 430.6 428 423.7 419.7 413.7 405.5 396.5 390.4 389.8 390.8 396 397.3 394.3 385.1 369.9 350.3 330.8 311.5 290.8 276.9 269.5 262.5 255.9 249.5 244.3 242.1 240.6 239.6 238.2 235.8 236 232.8 232.4 232.7 232.4 231.8 233.5 232.9 230.7 229.9 228 226.4 228.4 230.1 229.6 228.3 226.9 226.4 226.1 225.2 224.5 222.9 222.3 221.1 219.7 218.3 217.3 217.3
338.4 344.8 350.9 352.3 354 355.3 355.5 354 349.6 342.7 336.4 329.4 318.1 307.1 311.5 314.8 316.3 316.2 316.2 317 319.9 320.7 322.7 322.3 321.5 319.5 316.9 313.7 312.3 312.3 313.3 316.9 322.6 327.3 330.1 331.1 331.3 327.5 319.6 320.6 318.2 317.6 318 320.6 317 321.4 322.6 321.7 322.1 326.5 332.9 337.7 343 346.4 348.3 349.2 350 350.4 353 353.7 357 356.7 357.3 359.5 361.3 362.1 361.8 363.5 362.1 358.9 362.4 369.6 374 375.3 374.5 368.7 374.4 386.7 392.8 393.1 383.2 363.1 356.4 375 401.6 424.1 445.3 465.2 487 507 528.9 550.9 570.1 584.8 595.6 607.3 618.8 629.5 637.8 644.3 649.7 652.3 650.7 644.9 639.2 630.8 621.2 610.9 599.9 595.3 591.3 586.2 578.5 569.1 560.3 551.7 541.3 530.3 519.9 507.9 495.6 491.1 486.9 494 501.6 508.5 516.2 526 534 539.4 547.3 553.3 557.3 557.2 551.9 540.8 527.6 512.8 494.4 474.3 456.9 440.5 435.3 432.5 426.7 422.9 417.8 408.8 399.7 394.8 394.2 399 402.2 400.2 392.6 380.4 367 344.8 325.8 306.8 284.7 273.2 267.6 259.8 253.7 248.3 243.8 242 240.5 239.9 240.8 236.5 237 233.4 233.2 233.4 232.4 231.6 233.3 233.1 231.3 229.8 227.9 227.6 231.9 232.2 232.8 231.1 229.4 227.5 227 225.9 225.8 223.6 222 221 219.8 218.1 217.4 216.6
342.1 350.5 354.7 357.2 358.8 358.7 357.2 353.7 346.9 341.3 334.4 325.6 314.7 309.5 315.2 319.6 320.5 320.8 323.4 324.5 327.2 328.7 329.6 329.6 329.4 326.5 323.2 319.6 317.4 316.5 318.5 323.9 328.6 333.8 336.1 338.6 337.8 334.6 328.8 322.7 320.2 322.2 324 322.8 327.9 329.1 328.3 326.1 326.3 330.8 337.4 343.1 348.1 353 354.9 356.6 357.2 357.4 361.5 363.8 366.9 367.6 368.8 370.9 375.6 380.7 382.2 381.3 374.5 371.1 372 380.2 386.1 387.1 385.6 380.5 382.3 395.5 405 404.2 397.9 380.1 361.5 368.4 384.2 407.7 432 455.5 477.6 499.8 519.1 540.3 560.2 577 591.2 602.5 616.2 627.9 638.1 646.4 652.8 656.3 656.2 652.4 646.9 640.3 631.8 623.2 613.2 603.9 597.4 591.7 583.3 574 565.9 558.3 548.4 537.3 529.2 521.3 510.4 503.4 500 503 509.6 517.5 525.2 534.3 543 547.4 555.2 560.8 564.7 565.2 559.6 548.7 535.6 520.3 503.4 487.3 469.2 454.2 443.1 438.3 430.4 427.3 422.9 414.2 404.4 399.1 400.6 404.3 402.7 398.4 387.9 375.6 359.7 338.6 320.5 298.6 280.3 270.8 265.1 259.8 250.8 246.4 244 242.2 240.6 240.8 238.1 236.3 237.4 234.7 233.4 233.3 232.1 232 232.9 231 229.9 228.5 227.6 232.3 233.3 236.2 235.9 234.1 231.4 229.9 228 227.8 225.9 224.3 223 221.9 220.1 218.3 217.8 216.6
348.9 354.6 360.1 362.3 361.6 360.4 358.5 350.7 345.2 338.8 330.5 319.8 312.1 314.9 320.7 324.2 326.4 327.4 330.2 333.7 335.7 337.5 337.7 338.2 336.6 334.3 331.1 327 323.4 324.4 325.6 329.2 335.4 340.1 343.6 346.6 345.2 340.4 332.8 325.3 327.9 329.8 328.9 332.3 335.1 336.4 334 332 329.7 335 343.3 350.2 355.7 360.1 362.6 365.2 365.8 367.7 375.1 380 382.6 382.9 383 388.7 394.4 399 401.7 400.4 393.6 388.1 386.9 394.5 402.4 402.5 399.6 394.5 391.4 404.1 415.2 418 410.4 396.2 373.6 370.1 384.3 401.7 419.6 442.8 469.7 492.6 513.1 533.8 553.8 570.2 586.5 598.8 613.1 626.1 636.9 646.6 653.9 658.6 659.9 658.2 653.2 646.5 639 631.1 621.9 612.2 603.2 596.9 589.5 579.5 572.9 565 554.5 544.2 537.3 530.9 521.5 514.6 512.1 510.6 516.3 524.9 532 539.9 549.8 553.3 563.3 569.1 571 570.5 564.1 555.3 540.6 526.9 512.1 495.9 479.1 466.3 454.2 444.5 435.9 433.3 428.6 420 410.5 405 406.9 407.3 402.3 397.6 386.6 373.4 354.4 332.7 311.7 288.8 277.9 268.9 263.3 256.7 249.7 245.9 244.5 242.4 239.3 237.6 236.8 236.6 237 234.4 233.5 232.6 231.6 231 230.3 229.9 228.7 228.3 230.6 232.3 236.8 239.4 240.1 238.1 236 232.8 229.9 228.3 226.5 225.4 224.6 222.4 219.8 218.2 217.1 216.1
355.8 360.8 363.7 364.4 363.6 361.4 355 348.3 342 335.6 325.1 316.8 315.6 321.5 326.9 331.3 333.3 334.5 337.8 341.7 344.8 348 348.1 347.7 347 346.2 342.7 337.8 332.3 329.6 331 335.7 341.4 347.6 351.8 354.7 352.8 344.9 336.8 329 334.1 336 336.7 339.8 343.9 344.3 340.4 336.6 336 343.7 354.7 361.6 369.5 372.1 375.1 377.4 380 385.6 393 398.9 404.8 409.2 405.9 410 416.5 422.6 425.6 423.2 418.3 410.3 404 413.3 419.3 418.8 414.9 408 402.5 411.8 423.1 429 426.5 410.6 389.3 370.1 384.9 409.6 431.5 451.2 468.4 486.9 511.1 530.5 549.9 566.1 581.2 595.4 609.8 622.3 635.1 645.2 654 659.4 663.3 663.9 660.8 653.7 645.3 636.8 628.2 618.7 609.4 602.6 595.5 585.9 578.7 570.3 558.6 551.4 545.3 538.3 530.9 524.4 523.4 522.9 526.2 532.8 539 546.5 555.4 561.6 569.7 575.8 576.2 574 566.2 557.1 544.5 531 517.2 502.4 486 473.4 461.7 448.5 442.7 438.1 432.6 423.6 415 410.3 407.5 404.1 400.1 394.5 381.2 366.9 345.7 324.5 302.1 284.3 276.5 268.2 262 254.7 249.2 246.1 243.9 242.1 239.1 237.3 237 236.8 236.4 234.8 233 232.4 231 230.4 230.2 229.7 229 228.7 231.8 234.9 239.5 243.1 244.1 242.3 240 236.4 233 230.5 227.9 226.8 225.1 223.2 220.8 218.9 216.9 214.7
361.1 365 365.7 365.3 363 358.7 351.9 344.5 337.6 329.7 323.9 318.5 321.3 324.4 329.9 333.4 339.7 342.8 346.2 351.9 358 360.7 362.3 362.8 363.9 360.4 354.3 347.4 343.1 339.5 337.6 340.2 347.5 354.1 358.3 360.8 356.6 348 340.7 332.3 338.9 341.6 347.3 354 354.3 353.6 349 343.3 342.8 350.2 364.9 376.7 385.6 387.4 390.8 393.8 394.8 404.5 411.7 415.9 424.7 431.2 431.6 432.8 439 443 446.5 445.6 440.6 431.2 426.4 431.1 433.5 433.8 430.3 423.1 416.7 420.8 430.4 438.5 439.2 427.6 405 380.8 379 407.6 433.8 458 478.1 497.1 515.3 533.6 549.5 565.2 579.7 594.1 607.9 621.7 633.3 644 653.7 660.1 666 668.8 667.7 662.2 654.1 643.8 633.3 624.9 616.1 607.8 600.2 589.6 582.6 574.6 565.7 559.3 551.9 544.8 539.1 533.8 534.6 534.5 537.8 543.9 547.3 553.1 562.1 569.3 574.8 579.2 579 574.8 567.4 557.6 545 534 521.8 509 496.3 484 469 451.8 445.1 439.1 432.5 422.5 415 410.6 404.6 401 393.7 385.2 373.5 354.7 334.9 313.6 295.1 281.4 274.1 267 257.9 253.2 249.3 245.7 244 243.3 238.7 237 236.8 237.5 236.4 234.7 232.9 231.6 231 230.7 230 230.2 229 230.3 233.4 237 242.8 247 248.2 247.2 243.7 240.1 236.1 232.4 229.2 227.5 225.4 223.8 221.8 219.6 217.6 215.1
365.6 366.8 365.3 363.6 358.4 353.4 347.2 338.8 332 325 323.2 323.9 325.7 329.5 334.2 341.7 348.4 352.9 358.4 364.6 371.2 375.9 379.1 380.4 381 373.3 365.8 358.9 354.7 348.4 348.6 347.6 350 358 362.8 364.7 360.3 352.4 343.3 340.7 351.7 354.2 361.6 366.2 369 364.7 359.8 352.2 350.7 356.2 369.9 385.8 396.6 399.7 403.7 407.6 410.7 424.1 427.8 435.8 443.9 452.7 452.6 455.8 458 460.4 461.1 460.8 458.9 451.1 446.5 447.7 449 445.8 440.7 437.9 433 430.6 438.2 446.4 449.4 440.6 418.9 393.1 381.5 407.5 436 460.5 482.5 502.7 521 537.4 552 567 579.4 593.8 607.2 621 632.9 642.8 652.3 662.2 669.8 673.8 674.3 670.6 663.6 655 641.8 631.3 618.2 611.7 604 595.4 588.6 580 573.4 567 560 553.2 548.9 543.6 541 543.5 548.1 553.2 556.4 559.3 568 575.8 579.7 581.7 579.6 575.6 570.6 560.6 548.5 536.7 524.9 513.4 501.2 487.7 470.8 453.1 443.4 436.5 428.6 417.3 409.9 404.1 398.1 390.3 385.1 373.5 359.3 340.8 320.8 304.2 289.9 277.6 271.9 264.6 256 252.9 248.6 245.1 243.4 240.6 239.1 237 235.7 237 236.4 234.5 232.8 231.9 231.4 231.1 231.5 230.1 229.9 232 235.9 241.1 247.5 251.5 252.4 251.8 247.7 243.3 239 234.4 231 227.9 225.7 224.1 222.3 220 217.1 214.5
367.4 365.4 362.4 358.4 353.3 347.3 341.2 332.6 327.7 326.7 327.1 328.4 332 337.4 342.4 349.6 357.6 362.7 370 376.3 383.6 390.2 392.8 394.1 391.8 383.5 378.8 372.5 365.7 362.4 361.6 358.1 357.8 359.9 365.5 367.8 362.4 352.6 345.9 349.9 362.8 369.6 374.8 381.7 385.3 382.1 372.9 363.8 360.6 361.4 369.9 386.8 403.1 408.9 416.1 423.4 428.6 437.9 446.3 455.1 463.1 470.3 471 474.6 475.9 476.5 477 475.2 473.2 466.5 463.2 461.9 460.7 458.3 454.2 450.4 449.3 446.7 447.8 452.2 454.8 449.1 426.7 400.1 388.6 407.9 436 462.9 484.8 505.4 524.2 540.3 554.8 568.6 580.6 594 607.8 623.3 634.2 643.6 650.7 665.1 674.3 679.2 680 678.1 673.1 665.3 655.9 642 631.7 619.1 610.1 602 593.9 585.1 578.2 572.5 565 558.9 554.1 550.8 545.4 550.3 555.1 558.9 564.9 569.5 575.3 581.4 584.9 584.8 581.3 575.9 569.1 562.6 553.3 539.6 526.9 516.2 504.3 487.6 469.2 452.1 438.9 430.4 418.6 406.3 399 394.6 386.9 378.1 367.6 355.9 341 319.3 308.8 294.2 285 275 268.6 261.8 255.7 251.9 247.2 244.7 241.7 240.4 238.7 236.4 235.5 234.4 234.3 234.1 232.7 232.9 232.5 231.6 231.4 230.9 231.4 234.3 238.3 244.9 252.2 256.3 256.6 255.8 251.7 246.7 241.7 236.9 232.9 228.8 226.3 224.5 221.3 218.8 216.5 213.6
364.5 360.3 356.9 351.8 347.8 342 334.3 329.9 328.3 330 332.4 338 341.2 346.8 352.9 361.6 367.9 374.2 381.4 389.8 397.4 401.6 404.3 405.2 401 395 390.9 385.2 378.6 377.3 376.3 372.7 372.2 368.8 369.2 369.6 362.9 350 359.5 358.4 374.9 383.6 391.5 397.2 401.9 398.3 389.8 380.2 373.3 370.6 374.6 387.6 403.1 417.3 430.5 440.1 445.9 454.6 464.2 472.6 479.1 483.6 485.9 488.9 488.8 487.3 486.1 485.5 482.4 480.2 476 473.1 470.4 468.3 464.8 462 461.5 460.9 461.2 462.2 460.6 452.9 432.7 410 399.4 405.9 434 461.7 485.7 506 525.1 542.4 556.8 571 582.5 593.2 609 624.2 638.3 650 657.9 669.6 680.3 685.3 686.4 684.9 680.5 674.8 666.3 655.9 643 631.6 619.6 607.1 598.2 590.2 583.8 577.3 572 566.3 562.5 559 553.9 557 561.6 567.5 571.8 576.5 582 584.5 585.7 583.4 579.8 573.6 564.2 558.7 550.1 539 528 517.1 499.6 482 464.2 444.4 429.4 419 406.2 393.5 385.5 378.8 369.7 359.4 346.6 336 323.6 308.4 296 288.2 277.7 270.6 264.4 259.2 255.1 250.6 245.5 242.9 240.9 239.2 237.9 236.3 234.7 233.5 233.7 233.4 232.9 233.2 232.5 230.1 231.6 230.7 232.1 235.2 239.8 246.1 252.7 256.5 259 257.8 252.5 248.8 244.1 238.7 234.3 229.7 226.9 223.6 220.7 218.2 216 213.4
357.3 354 349.3 343.7 338.8 334.1 332.3 330.9 335.5 336.3 341.1 345.6 352.2 356.8 366.9 374.5 380.2 386.8 392.9 401.9 406.8 410.8 414 413.4 410.4 407.3 403.5 398.6 394.7 391.6 392.2 388.1 385.7 382.6 380.3 375.4 368.4 356.8 366.9 373.7 390 399.1 405.7 412.5 418.3 418.5 410.8 397.1 392.8 388.1 388.3 393.6 407.1 425.3 442.8 454.4 461.5 471.4 482.4 489.7 494.1 494.9 498.6 498.3 499.8 497.8 494.8 494.3 492 488.1 486.5 482.7 478.6 476.9 473.8 471.5 471.2 472.2 474 476.3 475.1 461.7 442.5 422.9 410.9 406.6 429.3 457.3 483.4 506.2 525.9 543.4 558.7 572.1 583.5 593.4 611.3 624.7 640.1 651.9 664.5 675.7 686.6 691.9 693.8 693 688.8 683.1 675.2 665.6 652.3 638.1 624.8 609.1 601.3 594.4 588 583.4 578.6 573.8 570.9 564.6 561.5 564.2 568.7 572.2 575.1 577.3 580 580 578.6 577.4 573.9 567 558.8 550.7 542.1 531.4 520 508 490.3 474.5 454.7 432.7 416.6 404.7 390.7 376.7 366.6 357.3 348.7 338.1 327 316.2 303.1 291.3 285.8 279.8 272.5 266.2 260.4 257.2 253.9 249.1 244.2 241.8 240.5 238.4 237.4 237 234.3 233.9 233.1 232.5 233 233.7 232.6 233.2 231.6 230.5 233.1 235.6 240.2 245.4 250.4 253.5 256.2 254.5 251.1 247.3 243 238.5 233.8 229.8 226.8 223.8 219.7 217.6 215.9 214.9
351.3 348.1 343.6 339.4 336.5 334.7 334 337.2 342.4 344.4 351.1 355.4 362.2 370 379.2 386.6 390.6 397.8 406.3 412.7 418.7 423.4 424 423.1 420.7 418.9 416.4 413.5 410.7 407.8 407.3 403.2 401.7 397.7 392.7 382.7 375 363.6 377.4 387.6 396.5 408.9 415.8 426.3 433.7 438 431.8 421.7 413.8 409.4 408.1 414.7 424.9 437.6 454.3 468.5 476.5 488.4 496.7 504.2 508 508.3 507.2 506.2 506.4 505.2 504.3 502.2 499 495.7 492.1 489.1 486.6 484.5 483.3 479.1 479.3 480.5 484.7 487.6 485.9 472.7 455.7 443.1 432 423 430.3 445.2 475.3 505.1 527.2 543.7 559.1 572.8 584.9 594.4 610 626.1 639.4 651.1 666.4 679.8 689.6 697.6 702.6 703.4 700.3 694 684.1 672.9 659.2 642.1 626.7 611.6 601.8 595.4 590.4 586.5 582.2 580.9 576.8 568.3 565.3 568.4 567.9 569.5 573.1 574.5 572.8 569.7 567.8 566.6 564.5 557.9 548.9 539.8 529.9 518.3 506.2 492.7 476.1 458.4 439.3 419.1 402.4 388.7 373.6 358 346.7 338 329.3 320 307.8 298 288.1 282.7 277.4 272.1 267.2 262.5 258.2 254.7 251.4 246.7 243.6 241.4 240.5 239 237.7 237.2 234.3 233.6 233.1 231.5 232.1 232.9 233.4 233.3 231.4 231 232.5 234.8 239 243 247.2 249.2 249.8 247.9 245.8 242.2 239.1 236.1 232.2 227.5 224.9 220.1 217.4 216 214.6 213.7
346.6 343.3 340.8 339.1 337.6 335.6 339.2 343.6 349.6 351.6 356.9 365.2 372.6 380.1 389.2 396.3 401.4 409.2 416 420.6 427.7 432.1 432.8 432.4 430.1 430 427.5 428.1 422.4 422 422.1 417.9 415.8 412.8 404 393.9 387.1 367.4 381.6 392.2 404.2 415.5 427.6 437.8 445.7 450.1 446.6 441.4 437.8 433.5 431.4 437.5 444.7 454.3 470.7 484 488.5 500.2 511.9 516.7 519.1 517.5 516.6 515.3 513.2 511.6 510.3 509.6 506.6 500.8 499.2 495.4 492.2 489.1 490 485.9 484.9 486.1 489.9 491.6 493 486.2 471.7 461 452.9 448.6 450.9 463 485 510.2 529.7 546.4 560.5 573.8 585.8 595.8 610 625.9 638.3 650.2 663.6 678.1 689.6 697.7 703.8 707.1 709.2 703.8 691.5 678.5 663.5 646.6 627.5 610.3 599.7 593.5 587.3 583.3 580.5 577.4 570.7 563 562.2 562.3 562.2 563.4 564.6 565.5 562.3 558.3 557.4 555.9 551.7 544.1 534.1 523.7 512.9 500.4 488.2 474.9 457.9 440.6 420.9 403.7 389.9 374.9 356.4 340.4 328.8 319.5 311.6 301 292 285.9 281.3 276.7 272 268.3 264.7 259.6 255.9 252.3 249.1 245.9 242.9 240.9 239.8 238.9 238.2 237.7 234.3 233.3 233.1 231.5 230.7 232.9 229.6 233 232 232.3 232.2 233.6 237.5 241 242.9 243.8 243.2 241 239.1 236.9 233.5 231.1 227.1 223.1 219.8 217 215.4 214.8 214 212.7
342.1 339.5 339.2 339.3 339.4 342.1 346.3 351.8 357.2 360 365.7 373.2 380.1 388.5 396.5 403.1 408.3 413.7 421.6 428.4 434.7 439.9 442.4 441.8 438.5 439.2 436.2 436.3 433.1 431.8 434.3 432.2 429.9 423.8 413.6 407.4 397.5 385.4 373.8 388.6 403.1 416.5 427.9 441.4 451.6 453.5 451.6 450.9 456.1 457.4 454.9 458.8 465 471.6 483.5 493 498.4 512.1 522 525.1 525.7 523.4 522.5 521.7 519.8 517.6 514.3 512.9 510.2 506.1 502.3 498.1 494.9 491.9 490.9 487.9 487.6 488.9 492.3 496.2 501.3 502.2 492.3 481.3 474.4 472.2 474 483.2 500.6 519.5 534.5 548.9 562.1 574.8 586.3 596.8 609.4 625.1 638.4 648.8 662 673.6 684.4 691.9 697.7 701.8 703.5 702.6 694.3 680.1 665.3 647.5 626.4 606.4 593 580.4 571.7 566.5 561.2 557.4 552.1 546.2 545.5 549 550.2 551.1 553.1 553.2 551 548.4 545.3 540.3 534.3 527 515.7 505.1 494.8 480.5 466.3 453.3 437.9 421.2 402.7 387 373.4 358.9 340.8 319 312.8 300.7 295.1 290.3 285.5 281 276.5 272.1 268.6 265.4 262.2 257.6 254.1 250.6 247.1 244.7 242.1 240.3 239.5 239.3 237.9 236.9 233.6 233.8 231.2 230.2 228.7 231.5 232.8 232.6 231.5 232.7 233 232.8 235.4 237.4 237.8 238 236.9 234.5 232.5 229.6 225.9 222.7 219.8 217.7 216.3 215.4 215.2 214.5 213 212.2
339.5 339.7 340.8 339.7 341.1 346.2 353.3 358.1 362.1 369.2 374.4 379.9 385.9 394 401 408.3 414.5 420.1 426 432.9 440.3 443.5 448.9 445.6 444.3 443.3 440.5 440.6 440.3 437.6 440.8 433.4 428.2 426.7 424.4 419.6 412.5 404.4 394.5 383.8 384.7 404.1 418.7 436.4 443.7 447.3 448.3 453.7 464 473.8 474.5 476.8 482.9 487 492.6 496.5 502.3 516.7 524.2 526.7 528.6 528.5 527 526 524.3 521.6 517.2 514.8 512.5 510.6 504.5 500.9 497.1 494.5 492.3 488.6 488.4 491.3 494.5 501.2 505.8 511.6 510.8 506.6 499.1 497.4 500.1 505.9 511 527.8 539.5 551.4 562.7 575.9 584.7 595 606.2 620.3 634.9 646.8 656.5 665.4 672.9 679.1 683.6 687.9 690.8 691.4 689.2 678.3 663.3 644.8 621.2 599.2 578.4 561.8 548.5 540.7 534.4 530.3 526.1 522.3 522.3 527.7 531.4 535.4 536.9 536.3 535 531.9 527.7 522.2 515.8 506.9 496.5 485 472.5 459 445.4 431.4 416.7 401.4 384.6 369.7 351.9 341.2 325.7 310.7 302.4 295.1 288.9 284.4 280.6 276 272.3 268.6 265.5 262.8 259.3 256.3 252.4 248.8 245.5 243.3 241.7 239.8 239.6 239.7 238.4 236 232.6 231.8 230.8 230.5 227.9 230.9 232 232.5 231.3 231.9 232.7 232.4 233 233.6 233.5 233.6 232.2 229.9 227.1 222.9 220 219 217.6 216.4 215.4 214.7 214.3 213.3 211.1 210.1
339.6 341.7 342 341.7 345 349.5 358.8 363.9 368.8 375.8 382.5 388.3 391.2 397.1 404.6 412.1 417.7 422.7 428.4 433.8 438.4 439.8 442.7 442.3 441.4 440.9 437.2 437.5 438.5 439.4 437.1 434.1 428.4 430.1 431.9 428.3 421.4 414.2 407.3 393.8 382 387 407.1 419.7 430.8 435 442.3 449.9 459.8 473 480.1 488.3 495.3 493.7 493.1 494.5 501.6 514.2 520.6 522.2 525.3 527.5 527.7 527.9 527.7 524 520.2 515.9 514.3 513.1 506.9 501.4 497.8 495.5 491.3 487.5 487.5 490 497.5 503.5 510.2 514.6 521.1 523.6 518 517.6 520 523.7 527.9 531.9 540.8 552.6 561.5 571.3 580.3 589.5 599.7 611.7 625.5 636.4 644.2 650.6 653.6 658.3 662.3 666.4 669.3 672.6 673.4 667.2 653.3 635.3 613.9 590.9 568.8 547 524.7 510.7 505.4 501.4 496 491.2 495.8 506.6 511.3 514.8 515.6 515.2 513.7 511.5 506.7 500.7 493.7 485 474.1 461.8 450.7 438.5 424.5 411.4 397.2 382.8 368.9 352.1 342.4 324.8 315.4 307.2 294.6 289.5 284.7 280 276 271.8 268.3 266 263.4 260.6 256.6 254.5 251 247.2 244.1 241.8 240.1 239 239.1 239.4 238.1 236.4 234.5 232.5 230.7 229.6 227.1 229.1 229.8 229.8 230.9 231.3 230.8 230.8 230.7 229.4 229.6 228.2 226.6 224.6 223.2 221.1 219.2 219.4 217.6 216.6 215.7 214.4 213 211.7 210.3 209.1
341.3 344.2 344.6 344.4 347.8 352.3 360.3 367.4 373.2 381.2 388.9 396.4 399.2 401.5 405.8 413 416.8 421.9 426.1 430.1 432.4 431.3 430.5 429.9 431 430.6 428.3 429.9 430.6 431.4 432.9 431.7 427.5 428.5 431.7 432 428.7 419.2 411.7 394 377 373.9 377.2 399.6 412.4 415.9 426.2 439.3 450.3 464.3 474.2 484.1 489.2 487.9 484.7 486.7 495.4 505.8 511 513.6 516.3 519.7 521.4 521.3 521.8 519.8 517.4 514.2 511.6 510.3 504.7 498.7 495.5 492.2 488.1 486.5 486.1 485.9 493.2 501.8 509 516.1 524 528.2 529.4 529.2 529.4 532.4 534.3 536.8 538.5 547.9 556.6 563.2 570 580.1 587.8 595.8 606.6 617.2 623.3 627.4 630.8 634.7 637.9 641.3 645.3 650.3 653.8 650.7 639.2 623.9 604.2 582.2 559.1 535.8 509.3 484.6 474.9 469.8 462.7 458.3 468.5 481.8 487.6 490.7 492.3 492.1 491 488.1 483.6 477.6 469.2 460.6 451.6 440.1 429.2 416.3 405.1 392.5 380.1 366.4 354.9 344.1 327.2 318.8 305.3 299.2 290.6 284.2 279.3 275.3 271.9 268.8 264.7 262.6 261.2 258.3 255 252.6 249.8 245.9 243.4 241.1 240 238.8 238.2 239.2 237.5 236.8 236.4 234.7 231.3 229.3 227 224.4 226.9 229.7 231.4 229.8 230.2 229.3 228.9 226.6 226.2 224.7 223 221 219.6 218.4 217.9 217.3 216.5 215.7 214.5 212.7 210.4 209.2 209 208.7
341.7 344.3 344.5 346 350.1 354.4 361.3 367.2 373.1 383.5 394.5 402.1 407 407.7 409.8 414 414.8 417.7 421.2 422.8 422.2 420.4 419.9 418.5 417.7 417.8 418.9 421.7 424 423.7 425 425.8 424.2 424.3 426.8 428.9 426.5 417.4 407.8 386 373.7 359.4 371.7 376.1 390 393.8 411.5 425 437.9 450.7 461.5 471.3 476.3 476.7 473.9 473.7 483.4 491.5 496.3 498.5 501.9 505.4 507.9 507.6 509 507.7 507.1 505.1 503.8 501.6 496 490.5 487 483.6 481.6 482.9 482.7 483.4 487 492.7 502.5 513.3 521.9 527.9 530.1 531 530.2 531 532.4 531.9 530.4 538 544.4 550.6 556.7 565.7 572.3 578.7 584.3 593.3 599.1 600.8 606 609.3 612.7 615.6 620.6 628.1 633.6 633.2 623.7 610.3 591.2 569.8 549.4 528.1 498.8 468.3 437.7 436.4 429.9 428.7 443.5 455.3 461.7 465 466.7 466.8 466.5 464.1 460.1 453.7 446.4 438 429.8 419.1 408.9 398.6 387.4 375.7 363.9 351.9 342.7 334.7 322 307.5 298 290 284.1 279.2 276.3 271.8 268.1 265 262 260.2 258.7 256.5 253.6 250.6 247.3 244.9 242.6 240.7 239.8 238.7 237.8 235.8 236.3 235.3 236 235.1 232.7 228.6 225.2 222.8 225.8 229.2 228.9 227.8 227.2 226.3 225.2 225.4 223.2 222.5 222.2 220.6 217 218.3 217.2 216.4 215.5 214.9 214.3 213.2 211.2 209.3 207.2 202.8
341.2 344.3 345.8 347.2 350.1 354.1 359 364.8 371.9 382.4 394.3 407.3 412.9 413.8 413.3 415 413.7 413.3 415.7 414.5 409.9 409.7 407.7 405.5 405.6 406.4 410 413 415.4 415.8 416.1 415.3 413.4 415.2 417.3 419.4 417.4 408.2 390.7 373.1 360.1 345.4 354.6 361.4 371 382.2 396.6 410 423 434.3 444.8 453.4 460.3 461.2 457.1 456.9 465.4 474.2 478.3 481.4 484.4 487.5 489.6 490.9 491.9 490.1 489.4 489.4 489.8 489 485.2 479.6 475.1 469.1 466.1 471.3 473.9 478.6 481.6 486.4 493.4 505.5 514.9 521.6 524.5 524.6 523.2 522.8 522.4 520.9 517.1 521 527.2 532.2 537.5 544.4 550.3 556.2 562 567.6 573.4 576.6 579.4 582.7 586.2 590.5 597.4 607.8 615.1 615.7 609.6 596.9 577.4 555.4 537.9 517.1 492.8 457.9 428.1 406.3 401.4 402.4 415.5 428.3 434.3 438.5 440.2 441.9 440.5 440.6 436.3 430.3 422.7 416.3 410.7 399.8 389.9 382.7 371.7 359.3 350 339.4 329.4 320 310.1 298.2 290.1 284.6 279.3 275.1 271 268.1 265 263 260.2 258.7 257 254.5 252.4 249.3 246.2 244.6 242.4 241.2 240.5 240 239 236.5 235.5 232.8 233.2 234.8 233.5 229 227.9 221.6 221.4 226.1 227.9 228.4 226 224.4 223.8 223 222.3 221.8 219 217.1 216.6 216.2 215.3 215.5 215.3 214.5 213.5 212.6 213 211.9 206.8 200.4
340 342 346.8 345.9 348.2 352.5 356 362.7 373.6 382.1 389.1 403.5 413.4 416.7 415.8 414.1 413.3 410.8 410.3 408.8 405 400.4 395.8 392.4 392.3 393 398.9 401.9 404.4 405.9 406.9 404.5 402.8 402.6 404.2 406.9 402.4 390.2 373 357.5 350.3 339.3 340.3 345.9 353.4 365.4 378.4 388.8 404.8 416.9 426.9 435.1 441.5 442.9 438.9 439 445.6 454.3 459.8 463.6 466.7 468.8 470.8 471.7 471.5 471.2 472 474.9 475.5 473.1 470.5 466.6 459.3 452.2 451.3 455.5 460.2 469 474.7 479.9 486.1 495 504.4 509.9 510.6 510.8 510.4 509.8 508.7 505.8 502.2 501.4 505.4 509 515.1 521.3 527.8 534.1 539.3 543.4 548.4 549.3 551.8 555 558.3 564.2 577 588 598.4 602 598.2 586.3 564.7 540.6 523.1 504.2 480.4 453.7 421.6 400.6 380.2 379.1 387.8 400.6 408.1 414.1 417.3 417.6 418 416.7 414.6 409.4 403.3 396.8 388.1 380.7 373.6 366.5 356.2 344.9 335.4 325.7 316.1 305.7 297.7 289.9 284.3 279.7 275.2 271.3 267.9 265.6 263.7 261.3 259.6 258.3 256.2 253.4 249.9 248.2 245.6 243.7 242.4 241.5 240.9 240 238 236 235.2 234.7 233.2 231.2 228.1 225.8 223.6 221.2 219.5 222.2 225.2 225.5 223.4 222.4 221.5 220.8 220.1 219.1 218 218.6 217.1 216.3 215.8 214.7 214.2 213.2 211.4 210.4 210.5 208.5 202 200.5
342.2 342 342 341.9 346 349.7 352.4 357.8 367.3 379.3 384.4 392.6 403.6 410.5 412.1 409.8 409.2 408.3 407.7 406.6 402.1 396 388.6 382.1 378.6 378.1 386 390.2 393 395.3 395.1 391.8 388.4 387.3 384.8 385.7 379.6 367.5 354.2 345.2 338.1 332.9 330.3 337.9 339.4 350.4 364.3 371.1 383.9 397.2 407.8 415.4 419.7 421.2 420 419 426.5 433.3 438.8 444.7 447.9 449.6 450.3 449.8 447.7 448.7 452.1 455.7 457.4 456.9 454.2 450.1 442.6 433.6 433.2 439.7 445.1 457.4 464.8 471.2 479.2 485.6 491.9 494.8 494.3 493.1 493.4 493.6 492.4 488.3 484.5 483 482.6 484 489.7 496.7 503.8 510.4 515.1 519.1 521.5 520.9 524 527.3 531 540.2 558.8 574.8 586.6 594.9 596.7 582.6 554.3 526.6 506.9 485.7 471.5 449.9 424.6 402.7 384.9 366.7 362.9 377.3 385.9 392.9 396 396.6 395 393.4 391.7 387.5 382.5 374.3 366.7 359 352 343.8 332.4 326.4 315.8 312.9 305.7 297 291.8 285.2 280.1 275.4 271.7 268.2 265.3 263 261.1 259.9 258.8 257.5 255.5 252.4 249.6 246.9 244.4 243.4 242.1 241.1 240.5 238.7 235.5 232.7 231.7 231.8 231.9 233.1 231.3 226.9 223.4 222.1 218.4 218.1 221.1 223.1 222.6 220.3 219.9 219.8 219.7 217.5 217.4 216.9 216.2 215.3 215 213.7 212.2 211.7 211.5 210.7 209.7 203.6 202.7 202.3
343.8 342.6 341.2 340.8 343.4 346.8 349.3 351.9 356.8 364.7 377.1 383.9 394.4 402.6 405.8 406.8 404.2 403.3 402.5 404.7 399.4 391.4 384.5 377.1 369.5 366 371.5 375.4 377.3 375.2 373.4 368.1 362.5 362.4 361 359.7 354.6 348.2 340.4 334 329.8 328.7 321.5 329.3 331.4 338.7 349 353.5 364.7 375.8 387.4 394.2 398.5 399.2 399.4 399.5 407.4 412.6 417.9 424.4 428.7 430.2 428.9 427.2 426.6 427 429.4 433.3 436.3 437.5 435.6 431.8 423.8 410.8 411.5 420.6 431.9 443.7 453.2 461.6 469.6 475.5 477.1 476.4 475.1 473.5 473.6 474.3 473.4 470.2 465.7 459.7 458.2 459.9 465.1 473.4 480.1 485.6 490.5 492.4 496.5 498.3 502.6 502.9 506.5 520.3 539.8 550.7 562 570.5 572 557.6 536.5 510.7 491.1 474.1 455.9 442.5 416 396 382.3 371.7 351.6 353.1 359.9 367.3 370.5 372.4 371 368.7 365.5 360.9 356.5 350.4 344.7 335.6 329.9 322.3 313.5 308.6 304.3 301.4 295.8 292.2 286.1 281.4 276.9 272.5 268.9 265.5 262.8 260.9 259.6 258.8 257.8 256.4 254 251.1 248.5 245.8 243.7 242.5 240.8 239.7 236.9 235.4 233.8 230.4 229.5 229.3 228.7 229.6 228.2 227.6 224 224.1 218.4 216.9 218 219.8 221.4 219 218.4 218.6 219 217 218.7 216.7 214.1 214.3 212.9 212.2 212 211.3 210.4 207.3 202.8 204.3 203 202.6
345 343.8 341.8 339.2 339.9 342.4 344.8 347.6 351.3 356.4 363.7 374.7 386.8 397 401.7 403.3 395 394.7 394.4 397.8 391.5 386.1 378 369.7 362.2 351.4 353.1 356.2 361.9 359.2 352.6 346.6 344.7 345.5 344.9 342.4 338 334.1 330.1 326.5 322 319.6 313.8 321.2 323.5 325.5 337.1 340.9 346.3 352.7 366.5 374.2 378 377.4 379.4 379.8 388.7 395.2 399.1 404 407.5 408.8 409.9 407.9 407.3 407.7 410.2 412.5 415.3 416.9 416.6 413.2 405.9 391.2 390.5 402.4 415 427.8 439.2 448 456.2 462 462.8 459.1 457.6 455.6 454.9 455.3 454.6 451.6 445.9 431.7 434.4 434.7 442.8 452.5 459.8 468.3 472.6 476 478.5 478.5 477.1 473.3 474.4 492.5 509.6 520.5 528.8 532.3 532.4 523.1 509 490.8 474.6 459.9 448.9 431.6 415.9 395.2 378 361.8 350.6 340.5 337.1 341 345.1 343.8 343.1 342.1 339.1 334.5 330.9 326.2 325 316.4 310.9 305.8 299.8 294.6 293.2 291.4 291 287 282.6 278.1 273.8 269.9 267.1 263.9 261.6 259.9 258.6 257.6 256.5 254.9 252.3 249.8 248.1 245.6 244 241.7 238.5 237.2 235 232.7 230.8 229.3 228 227.3 226.4 225.6 225.2 223.8 223.5 223.7 218.8 215.9 214.5 216.9 219 217.8 218.2 217.6 215.9 216.2 215.5 214.1 212.9 211.8 210.3 210 209.8 209.2 204.7 202.7 203.7 204.3 202.7 202.7
348.1 345.5 342.3 340.8 338.6 336.6 339.9 342.7 345.8 351.1 355.7 362.7 373.9 381.7 388 390.6 386.8 380.6 383.7 385.2 379.6 373.8 365.9 358.7 350.5 338.4 337.2 341.6 350.8 346.7 338.4 333.4 332.3 329.5 330.7 328.7 324.3 322.7 320.5 317.9 314.5 314.5 309.4 313.3 317 319.1 324.1 330.6 332.2 338.5 344.9 353.6 356.9 359.1 361.2 365.2 372.9 379 383.5 386.3 391.4 392.2 390.7 390.3 390.1 390.8 393.2 395.9 397.8 399.9 399.3 396.8 391.2 374.5 372 388.6 402.9 414.5 425.2 434.3 441.8 446.4 445.4 442.3 439.1 439.1 439 437.8 436.1 431.8 425 413.1 411.4 412.9 422.4 432.7 440.7 446 448.6 451.5 452.1 448.6 446.5 444.4 447.9 466.5 480.4 491.8 496.5 499.4 498.9 492.1 484.7 472.4 456.6 446.8 437 426.2 413.6 397.4 380.2 366.5 356.7 346.4 335.3 329.4 325.3 321.9 320.1 319.8 318.4 316.1 314.1 310.7 307.9 303.2 299 295.3 291.9 285.8 286.1 284.2 284.4 281.9 278.2 274.1 270.5 267.4 264.9 262.5 260.7 259 257.5 255.5 254.5 252.9 250.5 248.8 247.1 245.5 243.1 240.9 238.8 236.6 234.6 231.9 230.3 228.3 227.2 227 225.9 226.9 228.9 225.5 222.1 223.2 220 215.8 214.7 215 216.4 216.4 216.5 216.5 218.5 218.6 217.2 214.6 212.8 210.9 210.1 210.2 207.2 204.1 203.6 203.4 203.8 203.1 202.8 203.1
347.5 344.1 341.3 339.3 337.2 335.5 335.9 338.5 341.9 345.1 349.9 354.8 361.5 365.8 371 373.6 373.6 369.7 369.8 365 360.3 351.6 344.2 339.9 337.5 329.5 327.1 331.7 335.9 332.7 326.8 323.1 320.9 317.2 317.3 318.1 315.6 311.8 310.4 312 309.8 309.1 303.6 305.3 308.7 310.9 314.8 321.3 325.7 328.1 331.3 339.1 342.2 345.7 348.3 353.3 359.5 365.3 368.7 371.8 373.4 374 374.5 374.1 375 375 377.3 380.6 383.1 384.4 384.4 382.7 377.7 364.4 358.3 373.4 388.2 401.5 412.6 420.7 427 428.9 427.6 425.5 423.3 421 419.4 418.4 415.7 411.4 404.9 394 387.5 396.2 404.3 410.3 418.2 422.6 423.3 427.5 429.1 422.3 420.2 420.4 429.7 445.1 455.7 463.5 469.1 471.5 471.5 468 462.6 452.3 445.2 435.5 428.8 420.9 411.4 402.4 391.2 380 364.7 355.7 345.5 333.7 331.8 325.9 320.3 314.7 310.8 307 303.7 299.6 296.5 292.2 288.6 285.4 281.2 277.6 276.2 274.4 276.6 276.3 274 271 268 265.2 263.2 260.9 258.5 256.8 255.8 253 251.6 250.9 249.3 247.7 246.2 244.8 241.9 240.4 238.6 236.2 234.1 232.4 231.8 228.9 227.2 226.6 225.3 227.9 226.5 226 222.5 221.6 220.8 217 215.6 212.1 216.3 217.2 216.6 217.3 218.9 217.9 215.8 212.2 210.8 211.2 210.6 207.6 204.8 203.9 204.1 204.1 203.7 203.6 203.8 203.6
345.4 342.1 339.3 337 334.6 332.2 334.8 337.5 339.9 341.3 344.4 347.4 351.1 357.1 362.3 365.1 365.8 364.4 357.8 352.1 347.3 341.5 337.5 332.9 328.1 324 320.5 323.4 325.4 321.1 318.6 315.8 312.4 307.3 307.5 311.1 309.7 305.7 305 308.5 305.1 303 298.5 299.4 301 302.9 306.7 310.4 315.9 319 322.7 328.4 332.4 334.2 339.5 343.8 348.6 353.3 356.7 359.6 360.1 361.5 362.4 360.1 360.9 362.4 364.1 366.2 368.5 369.5 370.3 369.4 366.5 356 346.3 361 375 387.3 398.6 406.2 410.7 411 409 407.7 404.7 402.8 398.6 398.2 395.5 391 386 379.6 369.6 381.5 386.2 395 400.5 404.6 403.7 408.1 408.1 405.3 400.6 397.1 413.7 424.9 432.7 438.8 443.6 444.1 445.3 444.3 443.5 438.4 433.4 427.7 422.7 416.4 408.2 403.5 396.7 385.9 375 359.5 345.7 347.1 339.5 333.8 329.3 325.3 319.9 315.1 309.8 306.1 301.8 299 296.4 292.1 286.9 281.1 276.5 275.3 268.6 269.1 268.8 267.3 265.7 263.6 261.3 258.6 256.7 255.8 254.7 253.5 250.9 249.8 247.6 246.4 244.5 242.2 240.1 238.9 237.6 236.1 233.8 232.7 231.5 230.1 228.1 226.3 223.4 226.1 229.2 226 223.9 223.8 218.6 216.7 215.8 212.7 215.6 216.2 216.3 216.4 218.2 216.8 212.7 210.1 210.9 212.5 208 204.5 204.2 203.7 203.2 203.3 202.9 202.9 201.5 201.5
342.4 339.8 337.3 334.4 331.7 329.7 333.4 336.5 338.7 340.6 342.8 345.7 348 351.3 356.5 359.4 361.8 361.1 355.7 347.2 340.5 335.7 331.3 327.7 323.7 319.4 315.9 316.3 316.6 315 312.4 309.4 306.2 301 300.7 303.5 305.7 301.4 302.2 303.8 301.4 298.4 294.5 294.1 296.6 298.5 301.7 303.9 308.4 310.9 314.6 319.5 323.5 327.4 332.1 336.4 340.4 343.2 346 348 349.4 350.2 350.8 348.6 350 350.9 352.6 354.9 355.5 356.8 357.9 358 355.6 349.7 336 348.3 363.5 375.2 385.1 391.4 394.7 393.2 391.6 390.4 388.2 385.1 382.4 380.3 377.7 373.2 369.9 364.3 359.2 369 374.9 380.1 383.7 387.4 385.9 390.2 389.8 388.9 381.5 383.6 394.3 405.3 411.7 418.6 421.1 421.6 421.9 426.9 428.6 427.1 424.5 421.8 417.5 411.8 406.3 401.2 390.3 376.9 371.7 366.6 359 353.2 347.3 341.3 337.6 335.1 330.1 324 319.3 314.5 309.6 304.9 298.9 291.6 286 281.4 276.4 273.5 274 268.6 261 261.9 263.1 261.5 259.2 256.7 255.7 254.6 254.5 252.5 250.4 248 246 244.1 242.4 241.2 239.8 238.2 236.9 235.7 233.4 232.2 231 229.9 228.5 227.3 225.7 225.2 226.7 223.3 221 220.9 217.3 214.5 214.1 209.8 212.6 213.4 215.1 214.4 213.1 211.2 209.3 208.3 208.6 202.1 201.6 201.6 201.5 201.5 201.5 201.7 204.2 204.4 204 203.8
340.2 337.9 335.3 331.7 328.1 327.9 331.5 334.6 337 339.2 342 344.9 346.5 349.5 353.7 357.8 359.8 358.6 353.2 345.2 338.9 333.3 328.6 324.7 320.5 316.5 312.3 310.8 310.6 309.5 307 304.5 301.9 298 297.7 298.6 300.7 298.8 296.7 298.6 298.4 294.2 290.9 290.5 292.6 294.3 296.3 297.8 301.1 304.2 308.7 311.7 315.8 319.6 324.1 327.6 332.2 334.7 337.5 338.6 339.5 340.8 341 340 341 340.9 342.4 343.1 344.5 344.2 344.1 345 345 340.8 329.8 337.8 351.9 361.8 369.4 375.8 378 378.4 378.3 374.8 372.2 368.8 367.1 365 363.4 358.4 354.6 353.3 347.6 355.7 361.5 366.5 368.3 371.6 372.2 374.5 373.6 372.2 368.5 374.6 384.3 390.2 394 401.1 405.5 403.5 408.5 416.3 417.1 417.4 415 416.3 414.2 409.9 405.3 401.3 396 386.4 379.9 373.5 369.3 362.3 357.4 351.9 347.8 345.1 339.4 332.9 327.1 320.6 313.5 306.3 297.5 290.1 285.3 280.7 276 269.8 268.3 265.6 262.9 258.2 257.5 259.4 256.9 254.8 253.3 253 252 250.5 248.6 247.5 245.4 243.2 241.2 239 238.4 237.5 236 234.4 232.3 231.5 229.5 227.6 228.1 226.5 225.5 222.1 223.9 221.7 218 219.5 215.1 212.9 210.4 208 210.1 210.6 211.3 211.5 210.8 208.5 202.8 202 203.5 203.9 204.3 204.1 204.3 204.4 204.3 204.6 204.4 204.6 204.4 203.8
337.2 334.8 332.4 329.6 327.1 325.4 329.4 332.2 334.1 338.3 340.7 343.4 346 349.2 352.6 355.6 357.7 356.4 349.2 343.1 338.4 332.6 327.8 323 319.8 316 312.3 308.7 305.8 303.7 302.3 300.4 298.5 295.7 295.4 295.3 296.9 296.7 293.5 294.5 294.2 290.1 287.3 287.9 289.8 291.4 292.9 293 294.8 297.7 301.6 305.1 309.8 312.6 316.9 320.1 323.7 325.9 329 330.7 331.6 333 333.7 332.9 332.8 332.8 332.9 334 334.4 333.8 333.4 334 333.8 331.2 322.3 329.6 341 348 354 359.7 363.1 363.6 362.1 358.6 355.5 353.1 351.3 351.4 348.8 345.8 343.5 342.2 338.9 346.8 350.4 354.6 355.1 358.8 359 360.5 360.6 358.7 357 364.5 373.8 378.4 383 388.4 393.1 391.4 397.5 405 405.9 407.5 408.9 411.9 411.3 409 405.4 401.4 397.1 391.2 385.1 380.7 375 368.8 363.1 359.3 352 348.8 343.3 336.4 330.3 321.4 311.3 302.4 295.7 289.7 284.2 279.3 274.8 271.2 266.7 263.7 260.6 258.3 253.5 255.3 254.3 252.8 251.3 250.6 250.1 248.4 247 246 244.7 242.7 240 238.1 236.8 235.5 234 232.4 231.2 228.9 227.3 225.4 224.9 224.9 225.8 224.4 216.8 219.3 215.9 214.6 213.6 213 209.7 207.7 208.4 206.6 205.5 203.4 202.8 202 202.3 205.2 205.1 204.7 205.1 204.6 204.5 204.4 204.4 204.6 204.3 204.7 204.5 204.3
334.1 331.6 329.2 327 324.8 324 327.3 329.8 332.3 336.2 339.2 342.5 345.3 348.9 352.3 354.5 355 352.2 345.4 340 336 330.7 326.9 322.2 318.3 314.7 311.4 307.9 305 302.8 300.3 298.4 296 294.2 293.4 293.3 293.3 293.4 291 290.1 289.6 287.4 285.2 284.5 287.7 288.5 289.7 290.3 291.3 293.5 296.5 299.9 304 308 311 314.1 317.2 319.7 320.9 323 324.7 325.5 326 324.9 326 324.8 325.9 326.8 327.1 326.1 325 323.9 323.1 322.6 313.4 322.3 328.2 334.5 340.1 343.9 347.7 348.4 347.1 344.3 341.5 339.5 340 340.4 339.1 337.1 336 334.5 331.2 337.7 341.6 343.9 346.6 348.4 349.1 348.7 348 347.8 348.1 354.7 363.8 369.1 373.8 378.7 381.3 382 388.2 395 397.5 401.9 405.3 407.9 409.5 408.3 406 402.2 396.9 392.4 386.2 381 375.5 368.3 362.6 356.7 352.4 347.5 340.3 332.1 325 315.3 306.9 299.9 294 288.3 282.8 277.5 273.6 270.3 267.1 263.5 258.7 256.6 254.1 251.5 251 250.6 249.3 248.4 248.5 247.2 245.9 244.5 243.2 241.2 239.2 237.6 236.2 234.6 233.4 231.8 230.5 229.3 227.9 224.8 223.4 225.2 224.4 222.9 219.1 212.8 214.5 214.1 213.3 212.3 209.9 205.4 206.8 205.3 205.4 205.4 202 202 205 205.1 205 205 204.8 204.1 204.1 205 204.3 203.9 203.8 203.7 204.2 204.3
330.9 328.4 326.1 323.8 321.3 322.5 325.2 327.5 330.1 333.4 336.2 340.4 344.1 347.5 350.4 351.9 350.8 347.5 342 338 334 329.2 325.1 321.5 317.5 314.2 310.8 307.2 304.5 302.1 299.8 295.8 293.1 292.6 291.3 291 290.5 290.1 288.7 288.1 286.4 284.9 282.8 281 285.5 285.7 286.6 288.1 289.3 290.9 293.3 296.5 300.2 303.5 305.1 308.6 311 314.2 314.2 316.6 317.6 317.5 318 318.4 317.9 319.5 319.5 320.1 320.7 320.2 318.2 317.2 315.5 314.4 308 316.5 320 324.2 328.9 332.2 333.9 335.2 332.9 330.6 333.5 331 331.6 332.8 331.4 330.1 328.3 327.1 324.5 331 334.3 336.6 338.5 339.4 338.9 338.6 339.2 340.1 340.7 348.7 355.4 360.4 366 370 371.3 373.7 379 382.7 386.8 392.4 399 403.1 407 407.9 405.7 401.5 395.8 390.5 382.3 375.5 369.8 362.4 357.1 352.2 346.3 339.9 332.2 323.4 315.8 309.1 303.7 298.2 292.4 285 280.1 276.3 272 268.9 265.8 262.7 257.9 254.6 252.8 250.7 247.3 247.4 247.4 247 247 246 244.9 243.2 242 240.8 238.7 237 235.7 234.4 233.2 232.2 232.2 230.7 229.1 227.2 224.6 224.2 219.7 221.6 219.2 213.6 211.5 213.2 212 210.6 207.3 205.8 205.4 204.7 205.2 202 202 205.3 204.9 204.7 204.6 204.4 204.3 204.1 204 203.8 203.8 203.8 203.8 203.7 203.7 204.5
326.4 324.6 322.3 320.3 318.8 319.7 321.5 324.4 327 329.9 332.9 336.1 340.8 343.6 345.6 346.1 343.1 340.3 339.6 335.8 332.2 328.6 324.8 320.6 317.1 313.6 310 307.2 304.4 301.9 298.8 295.4 292.4 289.5 289 288.7 288.2 287.3 286.4 285.7 284.2 282.4 278.9 278.3 282.6 283.5 285.8 286.3 287.4 288.4 290.2 292.9 296.7 298.8 300.4 303 304.4 305.9 307.8 310 310.2 311.3 311.1 312.1 312.3 313.5 314.2 314.5 313.9 312.6 311.8 310.6 309.4 306.9 304 310.1 314 316.9 318.6 321.8 323.4 324.3 324.7 325.1 326 323.3 325.3 326.1 325.7 324.8 323 321.5 320.6 325 328.2 331 332 331.8 331 331.3 331.7 332.1 336.9 342.4 349.4 356.2 360.3 363.8 365.1 364.7 366.5 368.7 372.9 381.2 388.3 395.8 401 403.2 400.1 394.8 388 382.6 371.7 364 359.2 352.9 348.6 343.4 336.8 329.3 320.4 312.9 308.8 304.6 300.2 296.2 290.5 282.7 278.5 274.5 269.7 266.9 264.4 260.6 257.1 254.1 251.5 249.7 247.2 242.7 243.7 246 245.5 244.4 243.7 242.3 241.3 240.2 238.2 236.6 235.6 234.5 232.7 232.2 232.9 231.3 230 228.4 225.2 223 218.4 218.3 215.2 211.9 209.4 211.1 210.4 206.4 205.6 205.3 201.6 202 202 202 205.2 205.2 204.9 204.7 204.6 204.5 204.3 204.2 204 203.9 203.7 203.7 203.8 203.7 203.6 203
322.8 320.5 318.9 317.5 315.8 316.3 317.3 319.3 322.2 324.8 327.8 331.2 334.3 336.7 335.9 336.5 336.2 335.6 335.8 333.7 332.1 329.5 325.9 321.3 316.9 313.2 309.5 306.3 304.3 301.7 298.3 295.7 292.6 289.2 286.1 285.6 286 285.6 285.8 283.7 284.1 283.2 278.9 276.9 278.9 282.8 284.2 284.9 285.4 285.9 286.8 289.7 293.8 294.4 296.7 298.2 299 299.6 301.7 303.2 304.2 304.9 305.2 306.1 306.8 306.9 307.2 308 308.4 306 304.2 304.6 303.4 298 299.2 305.6 308.7 310.2 312.4 313.3 314.7 316.8 316.9 317.5 318.2 319.2 321.1 321.6 321.2 319.8 318.1 315.4 316.5 319.7 323.5 325.7 326.2 326.1 324.7 325.7 324.1 326 333.4 340.1 347.4 353.3 357.3 358.3 357 356.9 357.5 358.8 360.2 366.2 373.7 380.7 385.6 388.5 386.3 381.1 372.1 365 359.1 351.8 349.1 342.2 335.6 329.5 323.1 316.8 312.7 308.7 305 300.9 297.5 294.3 286.9 282.2 276.8 272 267.7 264.8 262.3 259.1 255.8 253 249.3 247.7 246 242.6 240.1 243.6 243.8 242.8 242 241.6 239.7 238.7 236.8 237.1 236.3 234.8 233.2 231.8 230.7 229.8 228 226 224 222.9 220.4 215.4 210.4 207.5 205.8 206.7 206.8 204.7 201.3 201.3 201.4 202 204.6 205 205 204.9 204.9 204.7 204.6 204.5 204.4 204.3 204.1 203.9 203.8 203.6 203.7 203.4 203 209.1
318.5 316.8 315.5 314.1 313.4 312.5 313.6 315.1 317.2 319.9 322.6 326.3 327.2 328.9 329.4 329.4 329.7 330.1 331.1 332.5 331.3 330.2 326.3 321.5 317 313.5 309.8 306.3 303.8 300.9 297.4 295.6 292.7 289.2 286.6 283.2 282.4 284.3 282.4 281 280.7 280.1 273.5 275.2 278.3 279.5 281 281.7 282.8 283.1 283.4 286.1 288 290.9 292.4 293.9 292.9 293.5 295.6 297.4 298.5 299.3 300.1 300.8 301.4 301.6 301.5 302.5 302.5 300.1 298.3 298.2 295.1 292.4 295.4 300.6 302.8 304.2 306.7 307.6 308.8 309.6 311.4 313.3 313.3 316.1 317.9 318.7 317.3 315.2 313 310.2 311.3 315.7 319.2 321.2 321.6 320.9 319.4 319 318.1 325.2 332.5 339.5 346.2 351.6 354.9 355.3 349.9 350.6 350.4 351.5 351.3 356.1 362.7 366.9 369.7 371.5 370.1 365.4 360.1 355.3 349.9 343.5 338.3 331.9 326.2 320 314.9 310.7 308.4 304 300.7 297.2 293.4 289.9 285.4 280 274.7 269.6 265.9 262.9 260.2 256.6 253.8 251.2 248.2 245.6 244.2 242.6 238.3 239.6 241.1 240.8 240.1 240 238.9 237.2 236.2 236.3 235.3 234.3 232.6 231.5 229 227.3 225.8 225.5 223.5 222.6 220.7 216.6 214.1 210.3 203.7 205.5 201.2 201.2 201.3 201.4 201.5 206.6 204.8 204.9 204.9 204.8 204.7 204.6 204.5 204.4 204.3 204.1 204 203.9 203.7 203.7 204 204.5 208.8 214.8
312.3 311.6 310.2 309.3 308.7 307.9 309.9 310.8 312.6 314.2 315.7 317.9 320.3 321.2 322.1 323.2 323.4 324.6 325.6 326.9 329 329.4 325.9 320.3 315.9 312.6 309.4 306.2 303.1 299.8 296.7 295.5 292.7 289.2 286.3 284.5 280.9 279.3 280.2 278.7 277.9 276.9 272.8 272 276.6 277.7 278.7 280.2 281.5 281.1 280.8 282.4 284.3 286.8 287.6 288.5 288 288.5 289.8 291.7 293.2 294.5 295.1 295.5 296 296.3 295.9 295.9 296 295 293.3 291.5 290.3 285.9 291.6 295.9 297.6 299.5 301.1 302 304.2 305 305.5 307.7 311.8 314.2 315.2 315.4 314.1 310.7 307.2 305.1 307.4 312 315.4 317.3 318.2 316.9 315.3 312.5 315.8 324.8 332.2 338.5 343.5 348.8 351 349.5 346.1 342 343.3 344.3 346 350.3 354.3 357.2 359 359.3 357.8 355.9 353.3 348.5 342.3 336.2 329.2 322.6 318.3 314.9 309.5 306.5 303.2 297.9 295.9 291.7 288.9 285.9 282.1 276.6 271.9 267.8 264 261.1 258 254 251 249 247.1 244.3 242.5 240.7 237.8 234.8 238.5 239 239 239 238.7 238 236.7 234.1 233.9 232.3 230 228.3 227.5 227.2 225.9 223.9 223.6 222.5 218.8 214.8 212.2 208 203.7 201.2 201.2 201.2 201.2 201.5 205.3 205.3 205.1 204.8 204.8 204.7 204.6 204.4 204.3 204.2 204.2 204 203.8 203.7 203.6 203.6 205.7 207.6 213 220
309.6 306.7 305.9 306.6 304.4 303.1 304.4 304.8 306.2 307.2 308 310.3 312.4 314.5 316.2 315.9 317.5 319 320.2 321.5 322.9 324.9 322.8 318.6 315.2 312.1 309 305.9 302 299.1 297.1 295.2 292.9 289.2 286.3 284.8 282.4 278 277.1 276.9 275.8 274.2 272.4 270.6 272.2 275.4 276.8 278.4 279.5 280.1 278 279.9 280.2 282.2 283.9 284.8 285 285.1 286 288.2 289.6 290.5 291 291.6 291.7 291.8 291.8 291.3 291 289.6 288.2 286.2 285.9 283 288 291.2 293.3 295.4 297.4 298.6 298.9 300.7 305 308.3 310.6 311.9 312.6 312.3 310.8 307.2 302.4 299.9 305.6 309.6 312.5 314.4 315 313.2 311.1 308.3 315.1 321.9 328.5 333.6 337 341.5 343.8 342.7 340.1 334.3 338.3 337.6 338.5 342.4 344.9 345.2 346.1 347 346.9 344.8 342.1 337.8 333 328.5 322.9 318.2 313.6 309.8 303.5 300.8 296.3 293.1 290.6 286.6 284.1 281.1 276.9 273 268.9 265.6 262.1 258.7 254.8 251.3 248.5 246.2 244.7 242.6 240.7 238.7 237.6 235.6 236.5 237.3 237.2 236.8 237.8 237.4 236.4 233.1 231 229.9 228.4 227.5 226.2 225.4 225.5 224.9 222 219.9 214.9 212.1 210.4 204.9 201.2 201.2 201.2 201.2 201.2 205.4 205.2 205 205 204.9 204.8 204.6 204.4 204.2 204.2 204.1 204.1 203.9 203.7 203.6 204.1 206 208 210.6 217.5 224.5
305.7 304.6 303.1 302.2 299.3 297 298.1 297.9 299 300.1 300.8 302.8 305.5 307.8 310 310.1 310.9 312.6 314.7 316 317.3 318 317.8 315.7 313.3 310.9 308 304.7 301.4 298.9 297.4 294.6 291.7 288.7 286.7 283.8 281.3 279.1 274.5 274.3 273.8 272.4 271.2 269.5 268.2 271.9 274.7 276 276.4 277 275.1 275.8 277.4 279 280 281 281.2 281.2 282.5 284.4 286 286.9 287.5 288.1 288.5 288.5 288.9 289.1 287.8 285.6 284.2 281.4 280.4 279.4 284 287.1 289.1 291.7 293.6 291.6 296.7 300 303.9 306.3 308.4 309.6 309.7 309.1 307.3 303.8 299.5 296.4 304.6 308.2 310.3 311.6 312 310.3 307.3 305.8 310.8 315.4 321.8 325.6 328.5 332.9 334.9 334.2 332.9 327.9 330.6 331.1 331.4 333.1 334.5 334.9 335.2 336.4 335.5 333.6 330.1 325.6 322.5 319.6 314.5 310.7 306.7 303.2 298.7 296.2 291.7 288.2 284.9 281.4 278.6 275.3 272 268.6 265.6 262.6 259.8 255.9 251.8 248.8 246.1 243.7 242.2 240.9 238.7 237.2 236.7 234.1 233.5 235.9 235.6 235.4 236.3 236.6 234.7 232.9 231.6 228.9 227.5 226.5 226.4 222.3 220 216.7 217.3 214.4 212 210.4 205.8 201.2 201.2 201.2 201.2 201.2 205.7 205.3 205.1 204.9 205 205.2 205.2 204.8 204.5 204.2 204.2 204.1 204.1 204.6 204.4 205.2 208.9 211.1 211.4 216.2 221.8 228.2
302.7 301.5 300.3 299.2 298.3 295.7 294.3 292.7 292.2 293.3 295.1 296.2 298.6 301 303.6 303.1 304.8 306.9 309 310.3 311.1 311.9 312.1 311.2 310.1 308.5 305.9 303.3 301.3 299.7 295.9 294 291.4 287.7 284.8 281.8 279.6 277.1 275.2 272.6 271.3 271.5 268.4 268.8 267 267.7 272.5 272.8 272.3 273 271.8 272.2 273.9 275 276.1 277.2 277.9 278.6 278.8 280.6 282.1 283.2 283.7 284.9 285.3 285.7 286.1 285.9 285.4 282.7 280.8 277.5 275.6 275.3 279.9 284 285.5 286.8 288.2 292.9 295.8 299.2 302.3 304.8 306.5 307.4 307 305.8 304.1 300.7 297 298.1 303.4 306.4 308.3 309.7 309.9 307.5 304.7 302.5 306.8 310.3 314.3 318.3 322.4 325.4 327.1 325.9 324.4 323.2 323.8 324.6 325.3 326.2 327.1 328.3 328.1 328 326 324.5 322.6 319.7 315.9 312.2 309.4 306.3 302.1 298.1 294.6 290.8 287.7 283.8 280.5 277.3 274.5 271.5 268.4 265.2 261.9 258.9 256.5 252.5 249.2 246.6 244.2 241.7 239.9 239.4 237.8 235.3 235.3 233.2 231.6 234.9 234.4 234 234.4 234.5 234.1 233.2 231.3 228.5 227.7 225.1 224 223.2 217.9 215.5 214.2 213.3 210.5 205.9 201.2 201.2 201.2 201.2 201.2 206.9 205.3 205.1 205 204.9 205 205.1 205.1 204.7 204.4 204.2 204.1 204.2 204.1 204.5 204 205.1 209.7 210.9 212.9 219 225.3 231.5
304.8 303.4 304 302.9 301.7 300 297.5 295.1 292.9 290.4 290 290.8 293.3 295.9 298.1 297.9 299.9 302.2 303.6 305 306 307 307.9 307.7 306.6 305.6 303.7 301.7 300.1 299.2 299.2 292 289.3 286.3 282.8 280.4 278.3 275.3 272.9 272.1 270.4 268.4 267 266.5 265.2 265.6 266.9 268 268.8 268.7 268.3 269.5 269.9 271 272.2 273.8 274.7 274.6 275.4 276.7 278 279.1 280.6 281.2 282.2 282.8 283.4 283.5 283.7 282.4 279.7 276 272.8 271.2 274.2 276.5 277.7 285.4 288.5 290.6 293.2 297.8 300.7 303.2 304.8 305.3 304.3 302.7 300.9 297.9 292.6 296.6 300.8 303.7 305.9 307.2 307.2 305.2 301.4 299.2 304.5 306.2 308.8 312.4 316.1 318.2 318.7 318.6 317.6 317.6 318.1 318.8 320.5 321.4 322.4 322.5 322.1 321.4 319.2 316.1 314.6 313.4 309.7 307.6 305 302.2 297.1 293.8 290.1 287.1 284.1 280.3 276.7 273.6 271 267.6 264.5 261.3 258.5 256.8 254 250.2 248 244.7 241.8 239.3 237 235.2 234.6 231.5 229.5 227.8 227.7 232.6 233 232.9 232.7 233.6 232.3 231.2 231 228.1 226 223.3 221.5 220.6 217.3 217.2 215.4 210.6 206.7 201.3 201.3 201.3 201.2 203.3 206.1 204.9 205.5 205.2 205.1 205 205 204.9 204.9 204.6 204.4 204.2 204.1 204.1 204.1 204 205.6 205.4 206.2 208.7 215 221.8 225.8 235.1
307 306.5 305.9 306.6 305.1 303.3 300.9 298.7 296.5 293.2 290.6 288.9 287.7 290.1 291.6 293.1 295.2 298 299.4 300.8 302.1 303.2 304 304 303.8 303.3 301.8 299.8 298.4 297.4 294.1 290.4 287.4 284.7 281.4 278 276 273.5 271.9 270.2 268.7 267.6 266.1 264.9 264 264 265.2 265.9 266.4 265.6 264.8 265.6 266.2 267.3 268.3 269.5 270.6 271.1 271.8 273.4 274.6 276.7 276.9 277.6 279.1 280 280.8 281.8 281.7 280.8 279.4 276.1 272.2 268.5 269.7 274.5 279.7 283.5 286.5 288.7 292 294.8 298.7 301.3 302.4 302.1 301.4 299.6 297.7 295 289.9 294 297 299.8 302.7 304.3 304 302.3 298.2 295.9 300.6 302 302.9 306.7 309.5 311.2 312 311.1 311 310.4 312.6 313.7 314.8 316.2 317.1 316.5 315.7 314.6 312.7 311.8 309.6 307.6 305.3 302.9 301.2 297.5 294.1 290.2 286 283.2 280.4 277.2 273.7 269.7 267.5 264.4 260.9 258 256.1 254.2 250.3 248.1 245.1 242.3 240 240.6 239.2 236.6 235.8 235.2 234.5 231.9 225.2 226.5 229.1 231.7 231.3 230.4 230.6 230.5 229.4 228.3 226.4 223 220.7 217 216.4 215 212.6 210.8 201.3 201.3 201.3 201.3 205.2 205.8 205.1 205.7 206.5 206.3 205.2 204.9 204.7 204.7 204.7 204.6 204.4 204.2 204 204.1 204.1 205.4 205.6 206.2 207 209 214.2 222.6 231.1 243.8
309.5 309.4 308.6 308.5 308.1 306.6 304.5 302.3 300 296.5 292.9 291.2 288.3 286.7 288 289.6 291.6 294.1 295.5 296.9 298.7 300.1 301.2 301.2 300.9 300.3 299.5 297.8 296.6 294.9 291.8 289.1 286.2 283.3 279.9 276.6 273.9 272 270.6 269 267.5 266.4 265.2 264 262.9 262.4 263.6 264.3 264.4 263.9 262.1 263 263.6 264.7 266.3 267.6 266.8 267.6 268.6 270.4 271.7 273.7 274.8 273.6 275.8 277.3 278.4 279.8 279.2 278.6 277.7 275.3 271.8 268.1 266.9 273.3 277.3 280.8 284.2 287.4 290.4 293.1 295.3 297.9 298.7 298.6 298 296.3 294.4 291.9 287.3 289.2 292.9 295.9 299.2 300.6 300.7 298.6 295.7 289.6 294.5 296.1 296.4 299 301.8 303.2 303.6 304.4 306.2 305.5 307.8 308.8 310.1 311.2 312 311.2 310.3 309.1 308.1 306.5 305.5 303.6 301.4 299.2 296.4 293 289.4 285.7 282.2 279 276.1 273.4 270.6 267.1 264.4 261.3 257.4 254.6 253.1 250 249.1 247.7 245.6 244.9 243.4 241.5 239.2 237.6 237.6 236.8 234.3 231.7 226.5 223.6 226.7 231.2 229.8 229.2 228.6 228.6 227.4 228.3 227.3 222 218.2 219.6 216.3 212.2 211 205.3 201.3 201.3 201.3 206.1 205.8 206.3 207.6 207.5 207.5 208.8 206.7 205.6 204.5 204.4 204.3 204.2 204.1 204 203.9 204 205.2 205.5 205 205.1 205.8 210.7 219 229.4 243.6 256.1
312.7 311.8 311.5 311.5 311 309.7 307.7 305.6 303.2 299.3 296.2 292.3 289.3 286.2 286.3 286.8 288 290.2 291.7 293.2 295.7 297.5 298.7 298.5 297.8 297.2 296.5 295.7 294.1 292.4 289.7 287.8 285.2 281.8 278.4 275.3 272.4 270.5 269 267.6 266.4 265.3 264.1 262.8 261.8 261.1 261.7 261.7 261.8 261.8 260.4 259.9 261.3 262.7 264.1 265.2 264.5 265.4 265.7 266.5 268.4 270.8 271.8 271.7 273.4 274.2 276.2 277.5 277 276.2 275.1 274.1 271.7 269 264.6 270.3 274.1 276.9 281.6 285.4 288.8 291.1 292.4 293.7 294.6 295.3 294.6 293 290.3 288.1 283.7 284.5 288.9 291.9 294.5 296.3 296.9 295.6 293.5 288.4 287.6 290.1 290.8 293.7 296 297.7 298.8 300.2 302 301.2 302.7 304.7 306.2 307.5 308.7 307.9 306.9 305.2 303.8 302.5 301 298.9 296.8 295 292.3 289.2 285.6 282.7 279.8 276.2 272.6 270.2 268.2 265.6 263 259.1 255.5 255.3 254.2 252.8 251.1 249.1 247.1 245.7 243.2 241.1 239.3 238.3 238 237 233.7 230.7 226.5 223.1 222.8 228.1 228.4 228.3 228.3 227.5 226.3 225.3 223.9 218.8 220.5 218.7 215.7 212.2 208.6 201.5 201.3 201.3 205.6 206.2 205.8 208.5 208.2 207.3 209.7 210.3 204.6 204.9 204.6 204.4 204.2 204.2 204.2 204.1 204.1 204.1 204.1 204.1 204.1 205.2 205.5 212 228.2 241 253 264.8
316.4 316.2 316.2 316.1 314.1 313.3 311.1 309.2 306.2 302.7 299.4 294.3 289.6 286.2 285.4 285 285.5 287.4 288.8 290.1 292.4 294.9 296.1 296 295 294.2 293.7 292.9 292 289.8 287.6 286 283.9 280.4 277.2 274.4 272.1 269 267.8 267.2 265.8 264.2 263 261.7 260.9 260.3 259.7 258.8 258.2 258.3 258 257.8 258.5 259.7 261 261.8 262.1 263.1 263.1 264 266.1 267.1 267.2 269.1 270.7 272.2 273.9 275.3 275.2 274.7 273.9 272.6 270.9 268.6 264.2 265.2 269.8 273.9 278.5 282.7 286 287.9 289.1 290.3 291 291.5 291.4 289.2 286.5 284.6 280.2 280.9 285.7 288.5 290.4 291.7 292.5 291.7 290 287 280.5 286.3 287.8 290.4 292.4 294 295.4 296.9 297.9 296.6 298.4 301.7 303.2 304.2 305.2 304.6 303.7 301.9 300.5 299.3 296.7 295 292.8 290.8 288.5 286.3 282.9 280 277.1 273.2 269.9 267.8 265.8 263.5 260.2 257.7 257.8 257.4 255.9 253.9 251.6 249.5 247.6 245.1 242.6 240.3 239 237.8 235.7 234.1 231.6 231.4 229.6 226.1 220.7 225.4 227.7 227.3 227.8 227.1 226.3 223.4 217.9 217.1 217.4 217.2 214.5 210.1 202.1 201.6 201.5 205.7 205.9 205.4 210.7 210.3 207 208.7 207.2 205.2 205 204.9 204.7 204.5 204.3 204.3 204.3 204.2 204.2 204.2 204.1 204.2 205.1 206.3 212.2 223.5 241.7 253.1 262.9 269.9
320.6 320.6 321.7 320.8 319.6 318.4 315 312.2 309.4 306.9 302.2 296 290.3 286.7 285 284.3 284 284.8 286.1 286.2 287.9 291.1 293.4 293.1 292.3 291.3 290.9 289.8 288.5 286.8 285.4 283.9 281.5 278.7 276.9 274.4 271.3 268.6 267.5 267.2 265.7 264.1 262.7 261 260.6 259.8 259 258.4 257.7 257.4 256.5 256 256 256 257.8 258.9 259.8 260.4 260.2 260.8 261.8 263.8 263.8 266.4 268.2 270.1 271.7 273.3 273.7 273.5 273.1 272 269.6 267.5 265 261.6 267.9 271.3 274.9 278.9 282.3 284.6 285.7 287.3 288.3 288.1 288 285.7 283.2 281.1 275.8 276.9 282.2 284.8 286.9 288.1 287.5 287.3 286.9 285 280.4 281.7 285.4 287.1 288.8 290.4 292.1 293.4 293.6 291.6 295.7 298.9 300.3 300.7 301 300 299.8 298.7 297.9 295.3 293.1 291.3 289.6 287.7 286 283.4 280.2 277.2 274.4 271.6 269.3 266.9 265.3 262.7 261.4 261.2 259.9 258.9 256.4 254.1 251.9 249.6 247.4 244.9 242.4 240.3 239.1 238.2 236.2 234.3 233.7 232.6 229.8 227.9 223.6 220.4 225.3 225.7 225.6 223.1 219.5 217.6 215.4 215.6 216.3 214.6 211.4 202.2 202.9 202.3 205.9 206.1 206.4 208.1 208.9 208.6 208.1 207.5 205.4 205.1 205 204.9 204.8 204.5 204.4 204.4 204.3 204.3 204.3 204.3 204.2 204.3 206.4 210.3 220.4 238.7 252.4 261.7 269.1 266.4
326.3 326.1 326.6 326.4 323.6 320.8 318.2 316.4 313.6 311 306.9 299.4 292.7 288.1 286.2 284.6 283.4 282.5 282.9 282.4 283.2 285.4 288.5 289.1 288.2 287.5 287.7 286.7 285.7 284.7 283.6 282.4 279.3 277.5 275.8 273.8 271.6 269.5 268.1 267.3 265.9 264.6 263 261.2 260.4 259.6 258.8 258.3 257.7 257.2 256.4 255.8 255.7 255.3 255.7 257.1 257.9 258.2 258.2 257.9 258.3 259.6 261 263.3 265.2 267.7 269.8 271.3 272.2 272.4 272.3 270.5 268 266.5 264.3 259.8 266.2 268.8 271.5 275.1 277.9 280.6 282.4 284.5 285.9 285.3 284.5 282.3 280 277.8 272.6 274.9 280.1 283.6 285.6 285.9 285.1 284.2 283.7 281.5 278.2 280 282.2 283.8 285.3 286.8 288.3 289.3 289.5 287.3 292.6 294.6 295.8 296.3 296.7 296.3 296.2 295.7 294.3 292.7 290.7 288.6 286.7 285.2 283.8 281.1 278.2 276.5 273.4 271 268.6 266.6 264.6 263.4 263.8 263.8 261.8 259.5 256.4 254.2 251.9 249.2 247.2 244.7 242.2 240.8 238.9 238 236.5 234.3 233.6 231.9 230.2 229.4 227.2 217.2 220.6 222.1 223.7 220.2 219.1 218 215.8 213.6 214.2 207.4 203.2 203.6 203.4 206.2 206.3 207.6 209.3 208.8 208.4 208.4 207.8 206.5 205.1 205 204.9 204.8 204.7 204.6 204.5 204.5 204.4 204.4 204.4 204.4 204.3 205.6 211 221.7 237 250.6 260.6 261.5 260.5 259.8
332.4 332 331.3 331.1 328.9 324.4 321.1 318.3 314.9 312.1 310.2 305.9 293.7 289.4 287.3 285.7 284.8 283.9 283.1 281.8 280.4 280 282.7 284.3 284.2 283.6 284.3 283.7 283.1 282.1 281.7 280.1 278.2 276.4 274.6 274.1 272.4 270.5 269.2 267.9 266.2 263.2 262.2 261 260.8 260.1 259.6 259.2 258.2 257.1 256.5 255.6 255.1 254.2 254.3 255.2 256.1 256.2 256 256 256.2 256.9 258 260.4 262.2 264.4 267.4 269.1 270.2 270.8 270.7 271.1 266.1 263.8 261.8 257.6 263.6 266.2 268.7 271 273.5 276.3 279.4 281.5 282.6 282.5 280.9 279.2 277.3 274.2 269.6 273.5 277.7 281.3 283.3 283.6 282.8 281.4 280.1 278.6 275.5 276.1 279.1 280.9 283 283.3 284.5 285.2 285.3 286.5 288.4 290.2 291.3 291.8 292.2 292.6 292.3 291.9 291.3 290.2 288.1 286.2 284.6 283.3 282.1 279.4 277.5 275.2 272.7 270.3 267.7 266.1 265.3 265.7 265.3 263.7 262.2 259.9 256.9 254.2 251.8 249.3 246.6 244.3 242.6 241.2 238.8 237.6 236.8 233.5 233.4 230.5 228.1 228.5 227.7 224.2 216.2 216.8 219.1 218.6 217.4 216.6 215.2 212 204.5 203.8 203.6 204.5 203.3 206.4 208 210.1 210.7 211.6 212.7 209.5 205.5 205.3 205.1 205 204.9 204.8 204.8 204.7 204.6 204.5 204.5 204.5 204.5 204.6 206.8 212.5 222.1 235.4 250.2 254.6 253.3 253.6 252.8 254.1
339.2 337.6 336.4 335.3 332.8 329.1 323.9 319.1 315.1 312.2 307.9 303.9 295.4 290.7 288.3 287 285.9 285 284.4 283.8 282.4 280.8 277.6 278.1 278.5 280.2 280.7 280 279.5 279.2 278.9 278.2 276.4 274.9 274 274 273.1 271.6 269.9 265.9 263.2 262.4 262.5 262.8 261.8 260.8 260.3 260 258.4 257.2 256.6 255.7 254.7 253.9 254.3 254.9 253.2 254.5 254.3 254.4 254.4 254.9 255.7 257.5 259.8 260.8 262 264 266.1 267.1 266.8 263.8 262.7 261.2 257.8 254.5 260 262.6 265.1 267.5 269.5 272.5 275.8 278.4 278.8 278.5 277.2 275.6 273.9 272.1 267.1 269.2 274 277.9 280.4 281.1 280.2 278.4 276.3 274.5 271.8 273.3 277.1 279.4 280.7 281.1 281.4 281.4 280.1 282.5 284.2 286 286.9 287.6 288.3 288.9 288.5 288.3 288.7 287.3 285.6 284 282.3 281.8 281.4 279.5 276.8 274.9 272.5 269.7 266.6 265.8 266.4 267 265.4 263.4 261.2 258.8 256.5 253.8 251.4 248.9 245.8 243.6 242.5 240.1 238.9 237.1 235.3 233.4 233.1 229.9 226.6 225 224.6 221.3 216.5 214.6 217.1 217 216.9 218.2 214.2 205.8 203.6 204.1 204 203.8 206.4 207.2 209.1 211.5 212.8 214.2 213.6 209.8 205.5 205.3 205.3 205.2 205.2 205.2 205.1 205 206.3 205 204.8 204.7 205.2 207.3 211.1 216.8 231.5 241.3 243.1 244.6 247 246.9 247.2 248.8
348 343.8 340.1 339 336.7 333.2 327.2 320.5 315.8 311.4 307.4 303 296.2 292.8 289.4 288.1 286.5 287.5 287 286 284.7 283.2 282.1 279.2 277.5 276.2 276.4 276.6 276.7 276.3 275.8 275.1 274.6 273.7 273 273.1 272.9 270.8 265.8 264.4 263.5 266.2 265.3 264.4 262.7 261.3 261.1 260.6 258.9 258.2 257.5 257.2 256.6 255.5 253.5 252.6 252.1 252.7 254.6 253.3 252.5 252.9 253.7 254.7 257 258.4 259.4 257.1 260 261 261.4 259.3 256.9 256.5 254.9 253.6 256.9 259 261.6 263.7 265.6 268 269.9 273.1 275.1 274.3 272.9 271.7 270.8 269.3 265.2 267.2 270.4 274.1 276.5 277.7 277.3 275.4 272.9 271.2 268.1 272.3 275.6 277.8 278.5 279 279.2 278.5 275.5 279.3 281.2 282.9 283.9 284.6 285.4 286.1 286.1 286 285.1 284.8 282.9 281.4 280.6 281.3 281.1 278.5 275.6 273.8 271.4 268 265.3 265.2 265.8 265.6 264.4 261.8 259.8 257.2 255.7 253.4 250.7 247.5 244.3 243.4 242 238.8 238.3 237.1 234 232.8 232.4 229.2 225.6 223.1 220 217.6 216.5 219.2 214.2 217.5 217.7 217 207.4 203.7 204.2 205 203 206.8 209.1 208.4 208.7 211.1 209.7 210.1 209.9 206 205.6 205.5 205.5 205.4 205.4 205.5 204.8 208.3 207.3 205.5 205.5 205.7 206 209.5 214.3 216.4 225.6 232.8 234.6 238.3 239 239.6 242 243.5
354.3 351.1 345.5 341.3 339.1 335.5 330 323.5 318.7 312.8 308.3 302.2 297.6 294.4 290.7 289.6 288.8 290.2 290.5 289.7 288.1 286.5 284.9 282.4 279.6 277.4 276 274.6 274.2 274 273.9 273.9 273.8 272.9 272 271.1 269.1 266.6 270.4 270.2 269.1 267.5 266.2 265.3 263.3 263.1 262 261.5 259.2 259.8 259.5 259.1 258.9 258.8 258.8 258.2 255.9 251.7 251.3 251 254.4 252.6 250.8 252.6 254.5 255.3 255.1 254.3 253.8 255.3 256 254.8 251.8 251.2 251 251.9 254.2 256.2 258 259.8 261.8 263.8 265.5 267 268.4 268.7 269 268.6 268.1 266.1 262.2 264.6 267.4 270.5 272.4 273.6 273.6 271.8 269.8 266.3 267 271.3 273.5 275.5 276.3 276.7 277.1 276.3 273.4 276.7 278.1 279.8 280.6 281.4 282.3 283.2 283 282.5 281.7 282.1 278.9 278.4 279.2 280.2 279.7 277.3 275.7 272.6 269.8 266.5 264.3 264.2 264.3 263.6 262.3 260 258.3 255.9 254.4 252.5 249.5 246.2 244.2 243 242.1 239.4 237.6 237 234.3 231.7 230.6 227 226.4 224.3 218.4 216.7 216.1 216 212.9 218.7 216.2 207 207.6 204.3 203.7 203.9 206.9 207.7 210.3 212.6 209.2 211.6 211.7 209.3 206.4 206.1 205.9 205.7 205.6 205.6 206.5 206.8 205.3 205.8 205.6 206.1 206.3 206.6 209.1 210.6 212.4 213.2 217.7 224.7 230 233.8 233.4 234.3 237.5 242.1
360.2 355.8 349.8 344 339.7 336.1 330.2 323.8 319.4 313.1 307.9 303.3 298.8 295.8 291.8 292.1 293.2 293.6 293.7 293.5 292.2 291.2 289 285.4 281 278.2 277 275.8 274.6 273.4 272.7 272.5 272.8 272 270.4 268.8 267.5 272.8 273 272.2 270.7 269.2 267.5 266.8 265.8 264.4 263 262.9 260.1 261.7 261.5 261 260.3 259.7 261.3 260 258.6 256.7 255 252.3 250 249.9 249.5 250.6 251.8 251.4 252.3 252.3 250.9 251.2 251.4 250.3 250.4 250.2 248.6 249.6 251.3 253.7 254.6 255.6 257.3 259.5 262.1 263.4 263.5 264.3 265.2 265.5 264.7 263.2 259.3 260.8 265.4 268 269.5 270.2 269.1 267.6 265.9 262.2 268.2 270.7 272.6 273.2 273.9 274.5 275 274.2 270.5 274.3 275.2 276.6 276.9 277.9 279.2 279.8 278.8 278.7 277.3 275.6 275.2 275.1 277 278.4 278.4 276.9 275.7 272.7 268.7 264.9 262.7 261.2 261.9 260 258.3 257.2 256 253.6 252.5 250.2 247.5 245.4 243.6 242.4 240.8 239.3 236.2 234.5 232.2 230.1 228.5 227.4 224.9 220.6 216.7 216.9 219 217.6 211 215.3 210.7 206.7 203.9 204 207.5 207.2 206.7 209.4 213 214.8 212.1 211.9 213.2 208.4 206.4 206.2 206 205.9 205.8 205.6 205.4 205.5 204.9 205.1 205.5 206.7 207 207.5 210.3 212.7 214.7 215.9 218.3 222.8 224.2 226.4 229.3 233.9 236.8 236.7
363 359 354.2 346.5 340.8 335.3 329.9 323.5 317.2 310.8 305.1 301 297.7 294.8 294.6 294.4 296.2 297.1 297.5 297.8 296.7 295.9 293.5 288.3 284.4 280.4 278.4 277 275.8 274.6 273.4 272.2 270.8 270.8 270 272.1 272.9 274 274.8 274.1 272.7 270.6 268.1 268.4 267.3 265.9 264.3 264.2 260.8 263.7 263.4 263 262.4 262.9 263.8 263.7 261.9 258.3 255.8 255.3 254.2 249.9 249.7 248.9 248.3 248.1 248.9 250.5 249.8 248.8 248.7 248.6 248.3 248 247.2 247.8 249.8 250.9 251.5 251.8 252.3 255 257.8 259.7 260.4 260.7 261.5 262.1 261.9 260.5 254.1 259.6 262.8 264.8 266.6 267 265.6 264.3 260.2 265.4 268.4 270.2 270.9 271.5 272.2 273.1 273.4 272.9 269.3 269.7 270.8 271.9 273.5 274.2 275.3 275.6 275.4 275.1 274 272 271.8 274.8 276.4 278.9 278.7 276.7 274.1 271.5 267.2 262.6 259.8 256.5 258.3 256.7 254.8 254.8 253.3 250.9 249.1 247.6 245.7 243.7 242.5 241.5 239.1 236.5 234 232 230.3 227.5 226.1 224.9 224.1 217.4 216 216.9 218.1 218.7 210.7 211.2 207.4 208 204.2 204.4 207.6 207.3 207.1 211.8 215.2 216.7 214.8 210.6 208.7 206.4 206.4 206.5 206.4 206.3 206.2 205.9 205.6 205.3 205.1 205.4 205.8 206.9 207.5 207.9 209.8 212.6 213.5 215.9 218.4 220.2 223.5 226.2 229.4 232 231.3 237.2
364.6 359.5 355 348.2 341.6 334.5 326.7 319.3 314.4 308.7 302.8 302.1 300.1 299.1 297.6 297.2 298.4 299.7 301.2 302.1 300.9 299.4 297.6 292 287.3 282.9 280.9 279 277.3 275.2 273.9 272.8 271.4 271.3 271.2 272.5 274.2 275.7 276.3 275.8 274.5 272.2 269 269.8 268.6 267.6 266.4 266.3 262.6 264.7 265.6 265.1 264.8 264.4 264.1 264.5 262.6 261.4 258.5 255.4 253 251.7 251.2 251.2 248.7 247.1 247.4 247.3 248.8 248 246.3 246.1 245.9 245.5 245.4 245.7 246.6 247.5 247.8 247.3 248.5 250.2 252.4 254.7 255.8 256.4 257.1 257.6 258.1 256.8 251.4 257.6 259.7 261.7 263.6 263.5 262.6 261.5 255.8 263.5 267.3 268.8 269.3 269.3 270 270.8 271.3 270.7 268.1 263.9 266.5 269.7 270.7 270.9 271.9 272.9 272.7 271.8 269.9 268.9 270.6 273.4 275.3 276.7 278.2 276.9 274.4 270.5 266.3 261.1 259.2 256.1 253 254.1 252.8 252 250.2 248.5 246.8 245.7 244 241.3 241.1 239.6 236.5 234.4 234.6 231.3 226.9 224.7 221.9 220.6 218.3 216.3 216 218.5 218.2 217.5 212.4 208.3 207.2 204.2 204 204 208.1 207.4 216.2 216.4 215.9 218.4 215.4 212.4 209.7 206.4 206.4 206.5 206.5 206.5 206.3 206.1 205.8 205.5 205.8 207 207.8 207.2 207.6 208.4 209.5 211.6 214.2 215.6 219.4 223 223.2 224.1 226.5 229.4 234.5 238.8
364.4 359.7 354.8 349.9 342 335.5 327.8 321.1 315.6 311.1 307.3 305.1 303.4 302.2 301.6 301.1 300.4 303.1 304.3 305.6 305.3 302.3 299.4 295.4 290.9 286.4 283.4 280.9 278.6 275.8 274 273.1 272.5 272.1 273.2 274.5 275.6 276.8 277.7 277.2 276.5 274.1 271.1 270 269.6 268.8 268 267.6 262.9 266.5 267.7 267.7 268.6 268.6 268.2 265.7 265 263.4 259.2 257.8 256.6 256.5 255 252.2 250.7 247.9 246.8 246.8 246.4 246.1 245.4 245.1 244.4 243.9 243.8 243.7 243.8 243.1 243.5 242.8 242.1 242.5 247.5 249.5 250.6 251.5 252.2 252.8 253.3 252.7 251 255.2 258 259.6 260.4 260.3 259.8 258.3 255.1 261.2 264.8 266.6 266.5 266.7 266.5 267.3 267.5 266 264.1 261.1 266 266.6 267.3 268.3 268.8 270.2 269.2 268.2 266.3 267.2 270 271.6 272.1 274.5 275.7 273.5 270.1 267 264 261.2 256.3 252.6 249.7 251.8 250.9 250.4 249.1 247 245.6 245.6 244.4 242.2 239.4 236.2 232.8 230.8 230.6 230.4 226 221.8 220.4 219.1 216.5 215.7 214.9 216.1 218.2 217.4 213.8 208 204.8 205.7 203.9 204.9 207.2 212.6 220.1 222.1 219.1 220.5 215 212.4 206.9 206.6 206.5 206.6 206.6 206.6 206.2 206 205.9 205.6 206.8 208.6 208.5 208.1 208.6 210.9 211.4 212.4 214.9 218.4 222.9 222.8 222.4 224.2 229.5 234.8 239.1 241
365.6 361.3 356.8 352.7 345.9 339.3 331.5 325.3 319.7 315.3 312.5 308.3 307.4 305.9 306 306.2 304.7 306.7 308.2 309.8 310 306.7 301.2 297.7 293.4 289.7 286 283.1 280 276.5 274.6 273.7 273.7 273.1 273.7 274.9 276 277.3 279 279.2 277.5 275.6 273 271.3 270.3 269.3 269.3 267 263.3 269.5 271.1 271.4 272.1 272.7 271.3 268.9 265.1 264.1 262.2 260 258.7 256.5 255.6 253.9 252.7 251.9 251.2 248.3 247.3 247.3 245.8 244.6 244.7 245.6 246.4 244 243.6 244.3 242.4 241.4 241.8 240.9 239.7 243.6 245 246.7 246.8 248 248.7 246 250.5 252.9 254.8 255.9 256.6 257.4 256.9 253.9 253.6 258.3 261.3 262.8 263.6 262.3 262.3 262.6 259.3 261 259.9 257.7 261.2 263.6 264.8 264.5 264.7 267.2 266.5 264.3 265.6 266.9 266.9 267 268.1 270.1 270.6 267.9 265.4 263.1 260.4 257.5 253.8 250.6 248.2 249 248.8 248.3 247.2 243.8 244.6 245.2 242.9 240.7 236.8 234.1 233 231.7 224.3 223.6 221.7 220.9 218 216.4 216.2 217.9 218.2 214.4 215.3 213.3 208.7 206.9 207.2 203.6 204.3 205.5 208.9 219.9 221.6 222.2 222.1 219.1 214.2 209.1 206.5 206.9 206.7 206.7 206.7 206.7 206.2 206 205.8 205.8 205.7 207.4 208.4 208.7 210.8 215.6 214.5 212.1 215.7 219.8 220.2 221.4 222.3 230 235 236.8 241.1 244.4
368.7 364.3 359.4 354.4 349.6 343.1 336.4 329.2 324.8 321 317.3 314.7 312.7 310.3 310 310.3 309.6 310.9 312.5 313.8 314.3 312 305.6 300.1 296.6 293.2 289.3 285 280.9 277.3 275.7 274.8 274.6 273.9 274.1 275.3 276.5 277.9 279.5 279.6 278.6 276.6 273.4 273 271.3 270.9 269.6 265.9 266.7 272.9 274.2 274.8 275.6 275.7 273.8 272.4 271.6 268.6 265 262.3 260.5 258.1 256.6 255.9 255.1 254.3 253.6 253.2 252 249.8 249.3 248 247.9 247.5 246.7 246.2 246 246 246.2 244.9 244.2 243.1 241.7 238.9 239.4 239.3 242.4 243.3 243.1 246.1 248.8 250.5 251.8 252.3 253.5 254.3 254.1 250.3 251.4 254.8 257.6 258.5 259.3 258.9 258.9 258.4 258.5 258.7 256.7 252.6 258.4 261 261.8 263.1 263.8 263.1 263.4 263.7 264.4 265.1 264.1 262.7 263.4 264.5 264.7 263.2 261.7 259.4 255.7 252.6 247.8 246.3 246.2 246.6 246.7 245.9 244.9 243.6 243.2 245.3 240.9 237.3 235.1 232.2 230.6 228.4 225.5 223.6 219 218.6 216.6 216.1 217.1 219.4 208.3 208.5 209.8 207.8 207.3 206.9 207.3 203.6 205.1 205 214.6 221.3 222.1 220.5 220.9 216.3 211.5 206.6 206.8 207.1 207 206.8 206.8 206.7 206.2 206.1 207.2 206.5 206.7 207.7 209.3 212.1 212.7 215.8 216.6 214.5 214.7 217.9 217.4 221.9 228.4 234.9 237.7 242.1 243 246
371.6 367.5 363 357.3 352.7 346.6 339.2 335.7 330.6 326.3 323.8 320.1 317.5 314.8 314.3 315.2 314.3 315.9 317.1 318.2 318.5 316.2 309.4 302.4 301.5 297.9 293.6 288.7 281.8 278.5 277 276.1 275.5 275.7 275.6 275.9 276.8 277.8 278.5 278.4 276.7 276.4 273.7 273 273 271.4 270.9 266.7 270 274.7 277 278.1 278.8 279.5 277.5 276.4 276.6 274 271.4 268.7 265.7 261.2 259.1 257.8 256.9 256.3 255.8 255.5 255.2 252 250.4 249.2 248.3 247.5 247.3 247.1 246.8 246.4 246.3 245.6 244.1 243.2 243.1 242.8 242.2 240.8 236.9 235.8 242.4 244.2 245.5 247.4 249.5 250.6 251.1 252 252 249.1 248.3 251.5 253.7 254.1 254.7 256 256.4 256.3 256.7 256.1 255 249.1 256.7 258.8 259.2 260 259.5 260.3 261.1 262.1 262 261.3 260.7 259.4 259.6 260.4 260.4 258.3 257.6 256.1 253 249.2 245.8 245 246.8 247.8 244.2 243.1 243.2 243 243.4 242.7 239.9 235.4 234.3 229.9 226.6 227.3 226.3 221.1 218.8 217 215.4 216.1 213.6 217.6 208.3 208.6 208.1 207.4 206.7 207.9 205.5 203.6 205.7 207.9 218.4 225.5 222.8 220.6 218.6 215 206.9 206.6 206.7 206.7 206.8 206.9 206.9 206.7 206.9 208.2 207.6 209.8 210.7 209.3 212.9 214.1 215.5 218.7 221.4 217.8 216.7 217.3 221.7 229.1 235.5 237 239.1 241.7 244.2 248.9
373.8 370.3 365.7 361.1 356 349.4 344.8 341.4 336.5 331.5 328.5 325.1 322.1 319.7 319 320.6 320.6 320.9 322.2 323.6 322.4 319.2 312.4 306.3 303.9 302.8 299.3 293.5 284.5 279.3 278.6 277.6 277.9 277.9 277.2 277.5 277.9 279 278.3 277.3 276.5 276.3 274.8 273.8 273.2 272.1 275 267.3 270 275.5 279 280.6 281.6 283.2 284 283.1 279.9 278.5 276.8 272.9 270.3 267.6 265.3 262.6 260.4 258 256.2 254.8 252.9 251.9 251.6 252.4 251.4 250.5 249.6 248.6 247.9 246.9 246.5 246.9 247.4 246.8 246.9 244.7 243.3 240.9 240.5 236.8 235.7 238 241.1 242.7 245.7 247.8 249.2 250.2 250 248.3 244.7 248.2 250.2 250.7 251.6 252.3 253.5 254.5 254.4 253.4 252.1 248.1 254 255.5 256.8 256.9 257.7 258.7 259.4 260.3 259.9 258.8 256.9 256.3 256.3 256.5 256.5 254.6 252.9 251.6 249.8 244.4 244 245.2 246.3 247.5 246.3 243.3 243.1 243 239.6 238.6 235.5 231.8 230.1 226.6 228.6 229.3 220.6 217.9 217.8 216.6 214.4 213.3 209 208.9 210.5 211 211.3 208.5 208.1 206.9 203.8 207.4 207.8 211.3 220.3 223.1 220.9 217.6 215.4 214.1 207.2 206.7 206.6 207 206.8 206.6 207 209.1 210.9 210 209 213 214.7 212.6 214.2 218 218.8 220.9 220.4 219 218.7 220.6 227.4 234.5 239.4 240.2 243.3 243.5 246.5 249.7
376.3 372.4 368.1 363.9 359.2 353.9 348.4 346.5 342 338.5 334.5 330.6 327.1 325.6 325.8 327 326.6 326.6 327.8 327.8 325.2 320.1 314.6 310.1 309.3 306.8 303.6 298.5 288 281.3 280.5 279.6 280.3 280.3 278.9 279.5 279.9 280.4 279.5 278.6 278.3 277.8 275.9 274.5 273.8 273.6 275 267.6 271 276.1 279.8 284.4 285 286.3 286.7 285.3 285.7 285.6 282.8 279.1 277.2 276.2 273.2 269.2 264.8 261.9 259.6 258.8 255.7 254.9 255.5 257.6 257.3 258.5 257.5 254.6 252.4 250.7 249.5 249.3 247.5 249.5 250.4 248.8 244 242.2 239.9 237.5 236 235.5 236 236.6 239.7 243.9 245 246.1 247.8 247.8 241.5 246.1 248 247.9 248.5 249.2 250.3 251.8 252.4 251.1 246 247.1 250.8 252.6 253.9 254.2 255.7 256.9 256 258 258.2 257.1 254.4 252.5 253.7 253.4 252.8 251.3 249.5 247.8 245.4 241.1 241.4 244.9 244.2 243.9 245.7 244.3 243.2 242.1 239.6 236.9 233.1 233.3 229.9 225.4 226.5 223.8 218.5 217.2 216.5 213.1 210.6 209 216.6 210.3 210.3 211.2 210.3 208.6 208.4 204.2 208.1 208 207.3 214.6 217.7 218.7 216.4 215.2 211.9 208.9 207.1 206.8 206.6 207.2 207.1 206.9 208 214.1 214.7 211.2 210.4 214 216.9 214.1 218.1 220.3 222.3 224.8 221.7 220.7 224.1 226.9 228.8 233.9 235.7 237.9 241.5 244.5 247.9 251.8
377.3 373.8 369.6 365.7 362 357.2 354.9 352.1 348.2 345.6 341.6 338.2 334.1 333.1 331.5 332.8 332.5 332.3 332.5 330.8 326.6 321.3 315.9 315 313.3 309.7 306 298.1 289 282.5 282.6 281.9 280.9 281.3 281.3 281.7 281.8 281.7 280.8 280.4 280.2 279.6 277.8 276.4 275.2 274.1 273.3 269.1 270.9 277 283.7 286.1 287.3 288.8 292.8 293.4 294.1 292.9 290.9 289 284.5 284.4 279.8 274.9 270.7 266.6 263.6 261.4 259.8 259.4 259.8 263.7 266 266.2 265.4 263.2 258.1 255 252.6 251.8 250.4 249.2 249.4 248.9 245.2 241.5 241.7 240.1 237 234.8 234.7 234.2 232.9 234.3 240.1 239.5 242.7 244.1 241.5 241.1 245.2 245.4 245.1 245.1 246.9 248.3 249.9 248.8 238.8 245.7 248.3 249.6 250.9 252.2 253.6 254.5 255.8 256.8 256.4 255.2 252.2 248.9 249.9 250.6 248.9 247.9 247.3 245.5 239.9 238.9 242.3 242 242.3 241.7 241.8 242.8 242.5 240.2 237.5 236.1 233.5 231.1 228.3 227.4 222.7 217.3 217.5 215.4 216.2 210.5 209.6 209.1 216.5 217.4 214.3 213.7 209.9 208.7 204.5 208.2 208.2 207.7 207.4 219.5 215.5 213.6 213.2 208 207.3 207.1 206.8 206.8 207 206.5 207.2 207.3 207.7 213.3 214.3 212.5 212 215.6 215.3 220.5 222.3 221.8 223.3 223.9 222.6 226.6 228.5 230.8 230.9 233.9 237.5 238.6 241.4 245.8 248.9 254.3
376.7 372.8 370.5 367.5 363.7 359.2 360.2 356.9 353.3 351.5 348.2 344.1 341.8 341.6 339.4 339.5 338.9 337.9 336.9 332 328 323.1 321.1 319.8 316.3 312.2 306.9 298.7 288.8 284.6 285.6 285 283.9 282.3 281.9 283.1 283.3 283 282.5 282.3 282.1 281.3 279.6 278 276.4 275.2 273.2 270 271 276.9 283.1 287 289.9 293 295.8 301 301.9 301.4 301.6 299 292.4 288.7 285.4 279.6 275.1 272.1 270 268.8 267.9 266.5 266.9 269.4 270.8 270.7 270.2 267.5 264.1 259.2 255 251.8 250.1 248.1 246 244.4 243.2 242 242 240.5 238.3 237 235.9 234.1 233.6 232.4 232.9 231.9 236.2 237.2 235.8 235.4 236.6 236.9 237.8 239.3 238 239.8 242.6 243.1 236.5 243.2 245.2 246.7 247.5 247.2 247 251.2 254.5 255.8 254.8 253.3 251 246.6 245.7 248.3 246.8 244.4 243.3 241.4 237.1 238.6 242.9 240.8 242.2 239.9 240.3 241.4 241 238.7 236.9 236.8 234.1 231.3 229.8 228.4 224.6 214.5 215.5 212.8 209.9 209.5 209.6 216.4 215.3 216.2 213.9 213.5 205.2 204.9 205.4 208.5 208.1 207.8 207 214.1 212.5 211.3 207.8 207.3 207.2 207 206.9 207.1 207.2 207.2 208 208.6 208.6 208.4 212.2 215.1 214.3 214.3 217.6 223.6 222.7 225.1 224.1 224 228 230.6 232.2 234 234.8 237.2 238.3 240.3 242.4 245.6 250.2 258.5
374 372.1 370.9 369.2 366.3 361.6 365.7 362.1 359.4 357.6 354.3 352.3 350.5 349 346.8 347.3 345 342.3 340.5 335 330.2 327.8 326 322.6 318.6 313.1 306.9 298.5 289.3 288.2 288.7 288.7 288.7 288.2 286.5 285.7 285.4 284.4 284.5 284.3 284 283 281.5 279.6 277.8 276.4 274 270.9 269.6 276.9 282.4 288.4 292.1 297.2 300.4 307.3 309.6 309.3 310.1 305.8 298.2 293.2 289.5 285.4 279.9 277.4 275.6 274.3 273.2 271.3 271.2 273 274.2 273.6 272.5 270.8 268.2 264.6 260.7 257.3 253.8 249.5 245.8 244.1 244.1 242.9 240.7 239.9 238 237.9 238.2 237.2 236.8 235.6 235.4 232.3 233 232.1 232.3 231.6 230.3 230.8 230.7 230.4 231.1 232.6 233.6 235.1 236.9 242.3 241.9 244.1 246.6 247.1 245.9 248.4 251.6 253.4 252.9 251.1 248.6 244.7 242.2 244.8 246.6 242.5 239.9 237.8 234.1 236.4 238.6 238.8 242 238.8 238.4 239.5 238.6 237.3 235.5 234.2 231.4 229.2 228.2 225.2 217.6 211.4 210.6 210.2 209.3 209.7 216.8 217.2 216.3 214.1 213.3 207.6 205.4 208.4 208.1 207.5 208.9 207.5 207.5 207.4 206.7 207.8 207.4 207.2 207.1 207 207.2 207.1 207.5 209.3 209 209.2 209 209.2 213.5 216.2 216 217.3 221.6 224.1 225.6 224.4 225 228.2 231.2 233.3 235.6 236.5 237.7 238.7 241.3 242.8 247.5 254.4 261.4 267.6
372.8 371.2 370.2 368.8 367.3 365.6 368.4 366.2 363.9 363.4 361.8 359.8 358 355.9 352.8 353.4 350.6 346.6 342.4 337.1 334.6 332.2 328.8 326.8 321.3 311.1 302 294.2 292.4 291.9 292.1 292.7 293 293 291.8 289.8 288.1 286.6 286.2 285.9 286 284.5 283.2 281.3 279.6 278.1 276.3 274.9 271.4 276.8 282.7 289.6 297.2 301.6 303.8 310.2 315.7 316 313.8 307.7 302.3 296.5 292.4 288.6 284.6 281.9 280 278.2 276.5 275.6 276.1 277.3 277.2 276.8 274.6 272.6 270 267 262.9 258 253.9 248.3 246.7 248 247.8 244.6 242.3 241.4 240.4 239.6 238.8 238.1 238 238.8 239.8 235.3 230.7 230 229.7 229.3 228.8 229.5 232.5 234.3 232.7 229.6 229.7 231 233.8 237.6 239.5 242.2 244.2 244 244.1 245.2 248.2 250.9 250.2 248.7 246.2 242.6 239.8 240.9 241.8 240.8 238.9 236.1 231.6 235.5 237.1 235.8 237.5 237.8 235.4 236.4 235.4 231.9 231.7 228.9 227.2 224.4 223.2 218.9 211.1 210.7 211.2 210.6 213.5 218.2 221.8 219.8 217.5 213 208.5 204.9 208.3 208.2 208.1 207.7 209.7 207.8 207.5 207.4 207.3 207.3 207.4 207.3 207.1 207.2 207.7 209.5 210.3 211.4 210.3 209.9 210 213.8 218.9 218.5 221.1 221.7 220.5 224 225.2 224.6 226.7 231.1 232.5 235.2 236.4 237.4 239.8 241.6 244.2 248.1 251.3 260.5 270.4 279.2
370.1 369.6 368.9 368.3 366.8 366.9 369.3 368.3 369 370.7 370 366.7 362.6 360.6 358.8 357.6 353.9 349.9 345.2 340.9 337.8 335.4 330.8 328.6 321.6 308.7 299.4 296.1 297.2 295.9 296.1 297 297.1 297.4 296.3 294.7 293 291.4 290.9 290.6 289.8 288.8 287.3 285.7 283.1 281.1 278.7 276.1 273.4 277 280.9 288.1 296.5 301.8 305.1 309.4 315.3 317.7 319.2 312.2 305.7 300.3 297.1 292.7 289.6 286.7 284 281.8 280 279.7 279.8 280.6 281 279.7 276.4 273.3 270 268 262 253.5 249 249.1 251 249.1 246.8 244 245.8 244.6 243.6 242.7 243.8 245.1 246.1 244.2 244.1 242.2 240 239.1 238.5 237.7 234.8 227.7 230 232.3 230.6 235.2 231.3 228.7 231.2 235 237.9 243.2 242.7 240.2 242.1 242.6 244.3 246.7 246.7 245.2 243.5 240.3 237.5 239.2 239.1 238.5 237.7 235.1 229.4 233.8 235.6 234 234.4 236.2 234.4 233.9 233.3 230.9 228.3 224.3 219.1 216.4 212.2 211 211 210.2 211.5 215.2 219.2 221.8 217.1 221.6 220 216 204.9 207.6 208.2 208.1 208 207.9 207.8 208.3 207.5 207.4 207.4 207.5 207.5 208 208.2 208.7 210.4 210.2 211.3 211.4 211.2 210.9 212.3 217.4 217.9 221.7 223.9 226.1 223 224 226.9 228.4 230.5 233.9 236.2 237.5 239.3 239.9 242.8 246 248.2 255.5 258.6 270.1 278.2 287.4
367 366.3 366.1 366.8 366 368.3 369.7 369.4 375.6 376.1 373.3 371 367 365 362.9 359.7 355.8 352.5 348.4 345 339.7 335.4 331.3 325.9 314.3 305.6 299.7 304 302.9 300.9 300.7 301.5 301.8 302.2 301 299.5 297.9 296.3 295.7 294.9 293.9 293 291.7 289.9 287.3 284.7 281.9 278.8 275.8 277.2 278.5 285.9 293.5 300.8 304.1 308 312.9 316.6 318.1 313.9 309.8 304.7 301.9 298.6 294.5 290.8 288.2 286.2 284.3 284.1 283.6 282.4 281.8 280 277.4 271.9 267.2 262.5 256.1 253.2 250.9 252.6 250.9 250.3 250.4 250.9 249 248.5 247.7 249.2 252.9 252.9 252.1 252.8 253.1 252.7 247.2 247 245.3 242.4 238.8 227.6 227.6 227.5 231.8 230.6 227.4 227.3 231.4 233.3 234.6 241 241 238.1 238.6 239.6 240.3 242.3 243.5 241.6 240 237.2 234.9 238.3 236.8 234.5 235.2 234.3 227.8 231.5 232.6 231.1 229.2 230.1 232.7 228.7 229.6 228.2 225.7 220.7 213.7 210.8 211.4 210.7 211 211.5 215.2 219.5 219.7 221.4 221.4 221.8 219.1 209.1 204.9 208.9 208.3 208 207.9 207.8 207.8 207.8 207.6 207.5 207.7 209.6 210.5 210.5 211.1 210.9 211.4 212.7 212.9 213 212.4 212.1 214.3 219.2 222.1 225 226.7 225.9 229.5 226.4 228.8 230.4 233.4 234.5 236.2 238 241.3 242.8 247 250.7 254.8 255.6 265 277.5 285.9 293.6
362.8 362.5 362.4 364.2 365.1 367 369.7 372.2 376 375.8 373.4 371.2 370.1 368.5 365.2 362.3 358.8 355.2 351.6 347.4 340.8 335.5 329.3 320.6 312.3 307.4 307.6 307.8 308.3 306.7 306.1 306.8 307.6 307.6 306.9 304.4 302.8 301.2 300 299 298.1 297 295.6 293.3 290.7 288 285 281.9 278.2 278 275.4 283.6 290.3 296 301.4 305.6 310.4 313.9 316.4 314.9 312.4 309 305.3 302.5 299.2 295.2 292.7 290.6 288.7 287.7 286 282.3 280 277.1 271.2 266.3 264.1 256.2 259.6 255.6 257.2 255.3 254.6 256.4 257.3 258.5 257.9 258.5 258.1 258.5 259.8 262.4 264.8 263.8 262.2 260.3 256.5 253.9 250.5 248.2 243.5 234.3 226.4 227.3 226.3 234.3 233.7 226.6 229.5 231.3 231.4 235.6 237.5 233.2 232.1 234.6 235.3 236 237.3 236.8 235.9 232.5 233.3 233.2 232.2 228.5 228.1 227.3 223 227.4 228.1 227.9 223.2 222.5 221.5 225.2 224.7 225.5 216.6 211.6 212 211.5 211.8 214.7 211.2 214.4 218.2 219.5 218.6 217 216.5 216.5 216.2 206.2 208.5 208.8 208.3 207.9 207.8 207.8 207.7 207.9 207.5 209.1 211.8 213.7 211.7 212.2 214.4 214.8 215.7 215.3 215.4 215.7 214.1 212.7 217.1 220.8 229.9 225.6 223.8 227.6 231.3 227.4 231.2 232.6 231.5 232.8 236.5 239.8 247.5 247.6 251.1 255 261.6 265.8 266.9 278.4 286.7 295.7
359 358.2 357.7 359.4 361.9 364.9 369.4 373.4 375.1 374.8 374.7 372.6 371.8 370.9 367.9 364.9 361.3 357.3 353.4 347.1 340.2 333.8 326.5 317.6 316.9 315.8 315.2 314.7 315.2 314.6 313 313 313.4 312.9 312.3 309.2 307.6 306 304.5 303.2 302.2 300.8 299.4 297.1 294 290.4 288.2 285.6 281.8 280.5 278.5 281.8 288.6 293.6 299.4 303.9 307.8 311.8 316.6 316.7 313.6 310.2 307.9 304.6 302 299.1 296.3 293.8 291.3 288.7 285.8 282.2 279.5 273 267.2 265.6 262 257 260.1 261.6 260.5 258.9 257 261.5 262.8 263.8 264.1 265.8 266 267.4 268.2 270.7 271.6 270 267.6 266.6 260 257.8 254.7 251.4 246 238.1 226.7 226 225.4 225.3 225.2 224.7 223.8 223.9 227 231.3 235.2 233.4 227.2 230 231.5 229.5 230.4 227.3 225.9 223 224.5 224.9 223.8 223.3 223 224.6 219.6 220.6 218.3 216.4 214.5 214 214.4 213.3 212.9 212.7 212.6 212.5 213.1 212.5 215 218.5 210.1 210.6 215.9 218.6 217.2 217.4 215 211.9 208.7 204.9 208.8 208.7 208.2 208 207.8 207.7 207.6 207.7 208 211.4 215.4 217.5 212.5 216.2 217.3 216.6 219.1 218.5 218.4 219 219.5 217.2 217.5 224.8 232.5 226.5 223.6 227.8 232.3 229.6 229.4 234.2 235.9 238.3 242.4 247.1 250.8 252.1 256.1 261.9 268.9 272.8 276 279.8 286.4 294.3
353.7 352.9 353.5 355.3 359.7 364.5 368.6 372.9 375.2 375.8 374.9 374.2 374.1 372.9 370.5 366.3 362.2 358.6 353.3 347.4 341.3 337.2 330.6 326 324.1 323 321.6 321.5 321.7 321.2 320.8 320.9 319.3 317.5 316.1 314 312.2 310.9 309.4 307.8 306.3 304.9 302.7 300.1 296.8 292.5 290.9 288.9 284.7 277.8 277.7 277.5 285.2 292.9 296.9 302 305.1 308.2 312.7 315.5 313 309.7 307.3 305.9 303 300.4 297.4 296.3 293.1 290.8 286.9 283.3 278.2 270.8 266.9 264.4 261 263.3 264.6 264.3 262.9 263.9 263.1 265.8 267 268.6 269.6 271 272.6 275 277.6 280.1 279.7 278.6 275.4 271.4 262.4 255.6 250.5 245.8 241.3 234.8 233.3 225.6 226.5 227.5 224.6 223.5 224.2 223.2 222.3 221.5 227.4 231.4 223.9 228.5 228.7 223.9 222.4 221.3 220.2 219.9 218.5 217.4 216.6 216.2 216 214.5 218.7 213.8 213.9 214.3 213.8 213.5 213 213.3 213 212.7 215.8 218.4 213.3 212.1 213.9 212.6 211.1 211.7 218 219.1 219.2 214.6 212.8 210.8 209 205.7 208.9 208.5 208.2 208.2 208 207.7 207.6 208.1 209.5 212.9 217.8 219.2 214.1 217.2 214.4 216.8 221.6 221.8 223.4 225.2 222.4 219.5 220.5 224.9 228.7 229.8 227.5 227.2 231 231.2 233.8 237.2 242.5 246.6 249 250.1 253 258.9 264.1 269.7 276.6 280.8 284.5 287.9 291.2 294.8
347.4 347.7 349.1 352 359.4 364.6 368.2 372.2 374.9 376.5 376.2 375.8 376.1 374.2 372.2 367.9 362.7 359.3 354 348.4 345 340.8 336.6 333.6 331 329.7 327.5 327.4 326.5 325.6 325.5 324.1 322.5 321.1 319.5 318.9 316.9 315.2 313.8 312.3 310.2 308.1 305.7 303.1 300 294.7 292 289.3 285.7 280.5 279.2 279.8 282.2 289.7 294.7 299.4 302.6 305 307.4 310 310.4 308.7 306.6 304.9 303.6 301.3 300.4 297.5 295.3 292 287.1 283.1 278 271.6 270 263.2 266.3 268.8 269.5 268.8 268.7 269.1 269.1 270 271.9 273.1 274.6 276.5 280.1 282.7 285.5 286.1 286.3 284.4 279.8 275.2 270.1 263.8 257.8 252.6 250.6 249.1 245.4 240.1 237.2 235.8 234.9 230.9 231.5 226.4 223.1 222.1 221.4 221.4 221.8 221.4 220.6 220.4 219.4 218.9 218.1 217.7 217.4 216.4 215.8 215.7 215.4 215.6 215.3 214.9 214.6 214.3 214.4 214.5 214.2 213.4 216.3 218.9 220.6 216.6 212.7 212.9 214.6 215 214.8 218.7 221.9 220.5 221.6 216.9 214.9 213.4 206.1 209.4 208.9 208.5 208.5 208.4 208.1 207.9 207.5 208.4 213.1 217.8 220.7 219.7 215.4 214.4 214.5 217.9 224.2 223.6 225.8 226.2 225.8 220.9 219.5 223.1 227.2 232.6 234.4 234.1 231.9 230.9 235.2 241.6 246.8 250.6 252.4 254.9 259.9 266.6 271.6 278.3 282.4 287.9 290.5 295.5 298 301.4
