ncols 200
nrows 82
xllcorner 380000
yllcorner 620150
cellsize 50
352.7 342.1 328.4 310.6 299.5 286.7 277.1 264.2 253.1 237.5 222.1 204.8 194.1 184.7 176.2 166.5 156.4 150.1 149 147.7 144.5 141.6 132.1 133.6 133.9 134.2 134.6 150.9 163.2 175.3 185.2 190.6 193.5 195.4 200.8 206.8 214.1 224.3 240.1 257.3 270.7 261.1 239.9 221.1 196.1 198.2 204.4 205.7 203.1 202.1 212.5 220.6 237.4 250.2 259.1 266.2 275.4 280.3 281.7 284.2 281.6 277.4 269.4 258.8 252.1 252 251.5 250 243.9 236.6 227.2 216.8 216.8 233.3 247.6 257.7 251.1 248.7 250.2 251.2 250.4 248.4 245.1 239.3 239.9 248.9 274.3 300.7 311.4 318.4 322.2 325.8 330.2 328.5 316.6 296.1 290 292.7 297.4 303.5 310.6 318.4 337.2 353.3 353.4 359.7 372.9 379.4 396.6 417.6 440.3 461 472.9 473.7 462.2 446.2 424.4 398.2 380.8 395.4 412.2 431.9 456.7 477.3 489.2 494.2 495.6 493.3 493.1 494.3 497 503.2 506.6 510.4 516.4 519 520.6 518.9 513.7 510.4 507.2 501.7 496.9 494.5 492.4 489.6 485.6 482.6 478.6 474.2 469.1 461.8 455.5 450.8 445.6 439.8 433.7 424.4 409.7 390 388.7 380.7 369.9 355.9 339.7 320.9 302.5 283.8 264 245.9 229.5 216.1 207 200.9 197.7 206.4 215.6 220.1 225.1 215.1 202.6 207.2 212.1 220.1 236.1 248.3 264.6 276.4 283.2 286.9 293 300 313.2 327.8 341.3 354.5 363.4 372.7 389.4 404.5
335.4 325.3 311.1 298.9 290.2 279 270.2 259.2 243.4 229.9 219.1 203.9 190.8 181.6 172.9 164.1 153.3 156.1 153 150.3 144.9 143.6 133.4 134.2 134.6 135 135.3 149.9 163.2 176.5 188.4 196.7 204.6 210.4 216.9 221.5 222.8 230 240.6 256.1 267.4 254.4 235.8 221.3 194.1 203.1 206.9 210 210.8 209.7 206.7 213.3 233.3 244.5 250.4 257.2 265.7 276.7 286.5 292.4 293.5 291.1 284.7 274.3 266.5 265.5 266.8 264.2 259.4 244.7 233.7 223.5 215.3 232.2 251.3 264.6 261.9 259 261.6 263.3 262.8 261.4 257 250.1 242.1 244.2 260.4 282 291.2 292.2 291.7 294.9 301.7 306.6 297.6 282.7 290.4 297.5 300.8 301.2 307.5 315.8 331.9 349.1 359 369.2 385.3 400.6 414.5 434.2 453 469.8 480.9 479.8 467.4 450.2 428.6 404.5 391.5 401.3 421.5 443.7 467.3 487.7 500.2 505.4 505.1 503.5 503.4 502.2 504.8 509.1 512.4 516.1 521.3 524 525.9 524 518.6 514.6 509.5 505 500.2 497.6 495.4 492.3 487.9 483.7 478.8 475.3 469 460.2 450.4 443.8 436 433 427.2 419.6 406.1 385.2 364.3 358.2 345.6 331.1 317.1 299 281.4 264.6 250.7 239 225.5 215.5 207.9 200.8 200.2 211.7 223.3 228.4 231 226 205.5 201.8 210.6 218.1 232 238 248.6 256.9 264.4 269.9 288.5 301 314.7 327.6 341.1 352.2 364.1 380.1 393.4 407.8
309.2 305.9 296.4 283.7 277.2 271.2 261.9 244.9 232.7 220.7 208 196.7 186.2 177.2 168.7 160.2 158.4 159.2 155.8 151.7 144.3 144.9 134.5 134.8 135.1 135.5 136.9 148.8 162.1 177.2 190.6 201.5 211.4 221.5 236.4 244.6 244.4 243.7 249.3 261.9 266.9 249.7 233.4 221.2 197.4 204.5 209.6 216 218.2 218.4 215.1 210.9 221.3 231.3 240.2 248 256 272 289 301.5 307.2 304.6 300.8 289.9 282.7 280.1 282 280.6 270.3 254.2 239.9 230.9 222.7 226.1 244.6 258.5 264.2 267.9 272.2 275.8 276.5 280.9 272.2 259 253.8 249.1 247.3 256.4 262 261.8 264.5 267.3 271.8 275.9 279.7 289.2 297.4 304.2 305.4 312.4 315.6 315.9 324.7 338.1 356.5 375.7 395.4 417.5 430.9 443.5 462.4 478.1 488.4 485.9 473.5 454.7 433 409.4 402.4 411.6 425.2 449.1 471.8 493 505 510.8 512 512.3 511 509 510.3 513 516.4 520.2 523.5 526.3 527.6 525.2 520.4 514.2 509.8 505.4 500.5 496.3 494 490.6 486.8 482.3 477.4 472.2 464.6 451.5 441.2 434 425.3 418.7 417.8 414.5 407.2 391.1 366.9 346.4 325.7 306.9 293.6 279.7 266.3 255.4 240.2 232.4 223.3 215.7 205.9 202.2 205.7 218.4 230.1 237 242.2 239.8 228.8 208.6 208.7 214.6 225.2 231.8 238.5 244.7 260.7 274.5 288 301.4 314.6 326.6 341.1 353.8 368.3 385.4 397.4 410.6
291.9 287.1 280.2 270.2 260.3 253 243 231.7 221.6 211.3 199.8 189.3 179.2 171.2 162.5 157.9 162.8 163 157.4 152.3 144.3 144.4 134.6 135.4 135.6 135.9 138.3 148.3 160.5 177.6 192.7 204.8 216.7 234.8 251.8 263.7 267.4 262.2 262.5 264.8 265.3 248.5 233.7 220.5 200.4 206.1 213.7 221.8 225.6 227.4 225.4 220.8 219 223.1 231.4 240.5 250.7 269.5 287.5 308.8 314.8 312.4 308 300.4 295.6 291.7 291.6 288.5 276.7 263.2 247.2 237.6 233.1 224.3 236.5 250.4 262.3 271.8 280.9 292.8 287.9 288.8 278 265.1 263.2 262.8 258.3 259 262.5 267.7 272.6 273.7 277.1 282.2 291.1 300.8 311.4 316.2 315.8 319.9 324.5 327.8 326.4 335.3 356 375.9 397.2 422 442.1 450.7 467.6 483.9 492.9 491.1 479.1 460.5 438.6 417.3 414.7 424.4 437.5 454.7 470.9 495.9 508.1 515.2 517.6 517 515.6 514.3 514.6 516.1 519.2 522.1 524.9 526.3 524.9 522.9 518.8 512.4 507.3 502 497.7 492.8 488.7 484.8 482.3 478.3 473.5 467.8 459.3 448 436 426 416.5 401.4 400.2 404.8 403.3 393.8 379.3 361.3 346.2 330.4 317.6 304.9 289.2 270.4 250.4 233.3 222.1 212.6 206.6 201.2 216.9 222.9 237.5 244.1 251.9 252.6 244.4 227.6 212.5 211.6 220.3 227.2 235 248.3 262.5 274.2 287.4 302.6 315.3 329.1 343.1 357.6 374.2 388.7 401.7 416.3
276.3 274.5 265 257 247.1 237.2 231.3 223.8 214.7 203.9 191.4 182.4 172.9 165.2 159.7 161.9 167.1 165.5 158.9 153.2 145.8 141.9 134.3 134.7 135.8 137 138.8 148.8 160.3 178.3 193.6 208 223.8 243.5 265.5 275.5 281.6 280.2 278.8 278 264.6 249.1 233.7 221.4 208.2 205 216.2 225.8 232.6 236.9 235.8 233.3 231.5 233.7 236.6 238.4 248 263.9 285.7 309.5 317.1 315.9 312.2 307.4 304.9 300.4 295.3 286.6 274.8 262.6 253 247.6 241.3 234.3 236.4 248.1 260.6 274.9 288.1 304.8 299.1 295.7 286.7 272.8 272.8 276.7 279 279.2 279.3 283.6 287.8 285.4 292.8 299.7 308.4 318.7 328.3 331.2 327.7 329.3 332.7 337.8 340.8 336.7 348.8 369.4 390.4 416.8 435.8 445.8 466.9 486.1 497.2 496.1 485 468.4 447.1 427.5 430.3 441.4 453.1 468.8 488.9 505.6 514.6 519.9 521.6 520.5 518.8 517.5 517.7 518.3 519.7 521.2 523.2 523.4 521.1 518.4 514.7 510 503.4 497 492 486 481.2 477.6 475.1 471.7 466.6 460.2 450.9 440 426.9 416.8 403.3 384.6 379.9 387.1 390.7 390.5 382.9 371.7 361.4 351.1 335.7 319.4 298.9 275.3 253.5 232.4 221.2 212.8 204.2 203.8 221.7 229.5 243 252.5 260.4 263 259 242.3 227.1 207.5 216.7 225.4 231.7 244.8 260.4 271.7 289.1 303.7 317.6 331.9 346.1 362.3 377.2 393.9 410.5 421.3
256.6 256.9 253 246.1 233.1 223.2 218.1 213.3 203.9 194.6 183.1 173.2 166.5 162.5 163.2 167.7 171.7 168.7 161 153.5 146.8 134.9 135 134.5 135.4 136.1 140 148.1 159.1 177.7 193.8 213.2 231.2 247.8 265.3 280.1 296.5 297.3 293.8 286.8 266.9 251.9 235.9 224.7 211.2 211.3 216.6 228.4 238.6 245.8 249.3 247.7 248.1 247.8 247.7 249.9 250.8 261.3 281.4 305.3 314.3 317.2 315.9 313.5 313.9 307.8 300.2 287.3 275.1 266.2 259.1 254.4 248.5 241.2 235.6 248.8 259.9 275 292.5 310.4 310.7 306.5 294.9 282 281.7 293.4 302.5 300.3 300.4 305.4 306.7 302.3 302.6 317.8 327.4 337.7 344.8 346 340.5 343.4 350.4 351.6 352.6 352 348.5 360.8 379.8 401 415.1 439 460.2 483.6 499.8 501.8 493 480.4 462.2 441.2 447.8 457.6 469.2 487 504.4 515.2 522.1 525.5 525.2 523.8 521.7 520.1 519.7 519.1 518.6 518.7 519 519 516.3 513.2 509.1 504.4 497.3 490.5 485.6 478.6 473.3 468.9 465.3 461.9 455.2 447.6 439.6 428.6 415.6 402 387.1 369.3 361.3 370.4 373.6 376.3 379 376 369.1 357.8 340.9 320 299.1 274.6 251.8 230.4 219.3 207.4 206.1 212.2 224.6 236.4 248.5 258.7 269.4 274.8 273.6 259 241.2 224 216.3 219.6 229.5 242.8 259.4 274.7 289.6 302.8 318.5 335.7 348.7 367.3 380.9 398.9 413.8 427.5
243.4 242.2 238.6 230.5 219.6 211.5 204.5 198.8 190.6 183.2 173.5 168.7 166.2 166.1 171.8 176.3 176.4 172.4 163 154.7 147.2 139.2 135.7 135.6 135.3 136.8 138 147 159.5 178.2 195.1 216.6 234.2 252.1 264.8 280 296.8 302.4 303.3 292.4 273.4 257.6 240 228.1 213.9 217.6 214.6 222.7 235.3 252.9 258 258.7 261.2 263 262.1 263.6 265.8 267 279.8 297.3 313.1 318.1 319.6 318.8 319.7 314.3 307 292.8 281.4 274.9 268.2 262.2 254.9 246.5 239.5 249.8 260.3 276.7 293.6 311.6 326.2 319.7 307.1 295.5 289.3 309.1 330.6 326.3 325.5 328 329 320.9 310.4 326.3 342.4 356.4 363.6 363.7 360.5 356.7 370.1 371.7 370.4 366.3 363 362.2 371.7 389.4 412.1 431.5 455 479.1 498.3 507.5 502.2 492 479.6 457.2 464.6 476.3 489.7 504.6 517.7 525.3 530.8 531.6 530.7 527.9 524.4 520.4 519.4 518 516.5 514.7 513.4 512.5 510.6 506.8 501 495.3 490.6 484.9 478.3 471.9 465.6 460.7 456.5 450.8 442.6 432.4 423.6 413.9 400.3 384.5 368.3 351.8 341.8 353.2 356.7 358.2 362.8 367 364.6 357.8 336.6 316.9 294.6 270.4 247.6 228.3 218.3 207.6 208.3 219.6 229.5 241.8 252.4 269.5 279.7 284.3 284.9 273.2 254.3 235.3 213.1 217.2 228.1 242.6 258.3 271.6 287.2 305.7 324.2 340.5 353.5 371.6 386.5 404.9 418.5 430.7
233.3 229.5 223.1 216.6 209.9 205.3 200 193 183.2 180.2 177.8 172.7 173.3 177.7 184.2 183.5 180.4 175.2 165.6 156.3 148.1 136.5 136.3 135.5 136.2 136.7 137.2 146.4 158.9 177.9 197.7 215.3 240.5 250.6 257.7 270.1 289.1 301.7 305.3 300.9 285.5 266.5 244.4 228.1 227.4 226.7 222.3 218.5 229.9 247.8 262.2 265.2 273 280.2 279 279.3 279.5 280.3 286 299 316.2 323.5 323.8 323.6 322.6 319.3 314.8 302.3 291 286 280.9 273.2 262.6 252 243.1 252.2 262.6 280.7 301.9 317.2 330.8 340.1 327.2 310.1 297.3 310.2 335.2 349.3 350.2 349.1 342.1 331.9 324.9 331.9 351.9 373.4 382.3 382.2 380.5 377.6 387.7 393.9 395.2 385.5 380.2 377.6 375.7 385.8 404.7 429.5 453.2 476 495.8 512.2 510.1 501.6 491.8 474.8 488.7 498.1 508 518.9 527.7 534.3 538.1 537.5 535.9 531.4 526.7 521.3 517.6 515.8 513.5 510.2 505.9 505.2 502.9 498.7 492.3 486.5 482.3 477.8 470.7 464.1 458.1 453.1 447.2 441 433.8 423.1 409.9 398.7 383.6 367.2 350 332.5 320.2 328.3 334.1 340.7 343.4 348.5 348.5 340.9 327.5 307.1 286.4 264.2 242.6 225.5 211.2 209.9 210.3 225.5 236 248.7 261.6 277.5 289.2 294.1 298.2 287.7 267.7 243.2 224.4 214.6 223.6 238.1 258.2 272.2 293.2 310.6 329.4 345.6 359.7 377.1 393.3 408.9 424.1 435.7
231.7 222.3 218.4 212.2 207.3 202.9 198.2 191.7 182.9 187.5 184.3 183.5 187 191.6 193.5 189.2 183.7 177.5 167.7 158.2 147.5 136.7 136.6 136.9 136.6 137.2 137.4 145 158 177.3 197.3 207.9 218.7 229.7 237.6 253.5 279.5 299.2 308.8 303.2 293.1 273.6 247.9 232.5 240.4 235.8 229.4 225.1 227.2 238 253.8 266.3 281.4 291.7 291.9 292.3 292.2 291.9 300.2 306.6 319.4 326.6 327.7 327.4 329.1 324.6 317.7 306.8 299.3 297 296.7 288.3 274.1 259.3 247.8 255.6 264.9 282.7 303.3 314.7 330.2 344.5 344.5 329.3 312.4 309.8 325.7 344.5 363 365.5 355 343.6 343.1 340.8 358.5 383.2 401.1 401.3 402.3 400.4 407 415.8 417.6 413.9 401.3 391.7 392.8 388.2 407.2 428.6 453.3 473.8 495.2 514 516.8 510 502.1 500.9 505.7 512.2 522.5 532.2 537.3 540.7 541.7 540.2 535.1 529.5 524.3 519.1 514.2 512.1 509 505 500.2 494.8 491 486.7 484 479 474.4 469.4 461 454.2 450.6 444.8 438.6 432 424.3 413.8 400.7 386.8 365.2 350.6 331 311.3 299.4 301.8 308.5 319.4 323.2 322.9 323.8 316.8 306.7 293.7 275.7 256.5 233 223.1 211.8 210.5 220.5 229.9 241.1 254.7 271.6 286.5 297.5 304 308.8 302 278.1 251 230.5 220.3 218.1 237.5 258.5 274.8 291.9 314.2 334 350.5 365.8 383.5 396.5 413.1 428.5 436.4
234.2 223.2 215.9 209.7 204.6 199.8 194.7 188.5 189.3 191.1 192.2 193.7 198.7 202 200.5 193.3 186 179.7 170.1 159.6 148.8 136.5 137.1 137.3 137.5 137.4 137.7 146 155.9 170.5 186.9 203 209.8 218.2 229 243.2 267.7 294.4 307 306.6 297.4 276 248.4 241 250 246.2 237.1 232.4 229.3 236.8 246.5 261 281.4 299.1 305.2 304 307.3 306.8 310 315.2 323.8 328.7 330.5 330.6 337 330.2 319.8 311.6 308.3 306.8 305.9 301.1 288.6 268.7 257.8 258.8 266.4 278 293.7 310.4 327.9 344.2 358.1 349.9 330.7 324.6 325 330.9 354.9 375.6 370.4 361.8 360.9 360.3 367.7 391.7 413.8 422.2 423.3 422.7 430 433.7 435.3 433.7 425 412.8 407.3 404.2 412 434.7 454.8 473.5 491.8 509.7 517.3 516.9 513 511.9 515.7 521.8 532.3 541.1 543.9 544.5 542.7 538.5 533 526.8 521.3 515.4 510.6 507.1 503.1 497.9 492.7 487.2 482.5 480 477.4 472.3 466.4 460 451.2 444.6 442.1 438.3 432.2 425.6 417.9 406.8 393.4 376.8 359.1 334.7 327.7 309.2 292.9 283.8 284 295.3 301.8 296.2 295.1 289.7 280.8 270.5 257.3 243.3 230.2 222.4 214.1 213.6 225.8 234.5 248 260.6 276.7 291.4 301.9 311.8 317.7 311.3 288.3 262.7 239.9 220.6 220.5 237.5 256.1 276 296.1 319.3 338.4 355.2 370.1 387.1 402.1 415.2 427.3 434.5
243.7 224.1 216.7 210 205.3 201.6 198.2 195.4 194.7 197.9 201.7 204.5 209.5 210.7 206 197.3 189.2 182.3 171.6 158.8 148 138.3 137.6 137.8 138.1 137.9 137.6 145.8 158.3 172.8 188.3 204.8 213.4 221.4 231.7 244 261.8 288.7 306.8 306.7 292 267.5 241.4 257.1 262.9 259.7 249.3 241.1 237 234.7 244.7 255.5 277.3 296.4 309.1 311.2 315.4 314.3 317.6 322.9 329 331.1 333.1 337.8 340.1 336.1 327 318.7 318 314.9 310.7 303.5 296.1 281 265.1 261.2 272.9 281.1 292.3 307.4 329.6 347.9 363.8 363 353.6 346.5 341.4 342.4 346.4 364.3 386.7 387.4 387.5 387.9 378.1 399 425 437.1 442.7 444.5 448.4 450.2 452.4 452.7 449.3 432.4 424.9 416.9 418.8 439.3 455.9 471.7 489 504.2 514.7 518 516.5 516.3 520 526.8 537.5 546 548 545.1 540.9 535.8 529.7 522.6 515.6 509.9 505.2 501.5 498.6 494 487.6 480.4 474 470.8 468.1 463.3 455.6 447.7 441.3 436.6 433.1 430.4 426.2 420.6 413.1 405.4 395.4 379.9 365.8 358.5 344.5 323 297 279.3 274.6 271.1 273.5 269.3 264.6 259.5 251.6 244.9 239.2 234.2 227.6 219.3 215.4 214.6 229.6 240.7 254.2 266.9 280.5 292.9 305.9 317.2 323.1 318.7 298.4 272.6 251.2 228.5 221.4 231.2 253.4 275.1 298.6 322 341.1 355.8 371.2 388.7 403.3 413.5 420.5 427.6
251.5 228.2 222.2 214.8 210 208.4 205.6 202.6 202.3 206.8 212.4 215 216.5 216.4 209.8 200.4 191.3 183.8 173.7 161.6 149.2 140.2 138.2 138.3 138.6 138.6 138.5 142.8 157 171.7 188.6 204.6 219 231.9 241.5 253.6 264.3 289.3 301.4 300.1 285.1 262.7 253.8 270.2 277.6 275.7 264.3 251.9 245.3 241.1 240.4 250.5 271.1 287.1 298.9 314.3 319.4 320.3 324.3 327.5 332.2 334.8 337.6 343.8 346.1 339.9 336.6 330.5 327.4 323.5 317.9 308.6 298.8 288.9 276.9 269.1 280.7 289.1 298.2 312.1 335.4 353.1 365.5 375.1 374.2 361.4 356.3 359.7 364.9 367.6 389.9 407.9 413.1 412 402.5 413.2 437.1 456.1 462.9 464 465.5 466.4 469.9 471 469.4 456.3 444.5 433.3 430.1 438.9 460 474.8 487.8 502 510.6 515.2 515.5 516.1 520.2 527.5 535.1 543.8 545.9 543.5 538.9 533.6 524.1 517.3 510.8 505.9 501.9 498.9 496.1 490 483.9 476.2 466.4 459.9 454.8 450.8 444.5 436.8 431.3 426.9 423.5 421.3 419 415.8 411.1 406.4 399.2 390.2 380.3 368.9 352.5 332.9 307.2 278.4 270.6 267 261.9 257.7 253.1 248.4 243.6 240.4 236 231.2 226.3 219.2 215.8 224.9 236.5 246.1 261.6 273 284.6 297.1 309.6 321.4 327.3 323.1 306.1 278 259.4 234.5 224.3 226.6 245.8 271.8 294.4 317.7 339.3 355.6 372.9 386.4 397.2 404.9 412.4 413.5
249.5 235.9 231.7 225.4 221 219.5 215.9 214.7 213.6 217.2 221.4 223.4 225.8 222.9 214.2 203 194.2 188.1 177 163.9 152 142.3 138.7 138.7 139 139.2 139.3 138.7 156.4 170.6 188.2 206.7 228.1 246 258.7 270.9 276.1 286.7 292.9 289.8 276.5 256.8 261.4 277.7 289.5 284.1 271.4 262.3 253.9 248.4 246.4 249.3 260.4 276.3 292.3 315.9 325.3 325.8 331.4 331.4 334.8 337.2 341.6 348.7 352.2 347.9 341.7 336.2 329.5 321.9 316.5 309.9 304.2 295.5 284.6 277.3 287.5 291 305.7 320 341.7 354.8 368.9 382.8 391.8 388.4 382.7 386.6 389.8 392.5 396.3 420.9 435 438.3 431.2 433 454.9 471.9 479.9 482.4 483.8 486.7 490.5 491.8 490 480.5 464.4 452.1 444.6 456.2 461.3 473.3 487.5 499 505.4 508.5 508.5 510.4 517.3 527.3 533.2 540 543.3 539.8 534.6 528.1 519.6 512.8 507.3 501.3 496.8 493.3 490.1 485.3 479.5 472.7 463.1 453.2 446.7 440.5 434.5 427.4 421.3 417.6 414.5 412.1 410.9 411.2 409.8 406.9 402.8 393.9 385.7 373.4 358.9 342.2 312.5 283.8 270.6 265.9 261.9 257.9 253.2 248.3 243.8 239.3 234.6 229.7 224.1 220.5 217.2 231.9 241.1 252.3 264.8 278.4 292.4 303 312.8 324 329.6 327.1 309.1 289.8 266.2 247.7 231.9 225.8 231.8 256.3 280.4 305.9 327.2 346.5 364.3 378.8 387.1 392.1 397.5 397.2
256.8 249.7 245.9 240.2 235.4 233.7 232.2 229.6 226.9 228 230.9 232 232.7 228.3 217.7 205.3 196.5 190.6 180 166.3 154.9 146.2 138.9 139.2 139.3 139.4 139.5 138.8 155.3 169.6 186.2 208 233.4 257.9 277.3 285.8 288.9 291.8 291.8 280.1 264.9 251 263 280.9 295.1 294.9 286.5 278.6 270.6 257.4 252.7 249.5 257.2 271.2 291 312.5 321.9 327 333.7 333.6 336.5 338.7 344.8 355.2 357.5 350.1 340.4 328.2 322 315.1 310.3 307.2 304.7 300.3 289.9 286.2 289.7 302 313.2 325.7 342.3 355.6 370.9 391 407 411.7 409.5 410.4 417 421.1 425.7 432.5 451.3 459.1 461.1 466.1 475 488.4 495.2 499.9 504.5 509.8 512.6 514.1 512 503 488.6 475.2 464 477.9 481.5 479.2 485.1 491.9 495.2 496.8 492.5 501.9 507.5 516.6 529.5 529.4 533.8 531.5 526.9 521.5 514.3 508.3 503.2 497.4 491.7 487 483.8 479.4 474.6 468.2 460.3 450.4 439.9 431.7 424.4 417.1 411.7 409.2 404.9 403 404.1 404.1 407 406.1 402.1 393.3 384.4 373.4 358.6 340.5 316 291.5 275.6 270.1 264.4 260.8 254.6 248.8 243.6 238.1 230.4 226.6 224.2 219.5 221.2 236.2 246.9 257.2 271.5 285 299.6 311.3 321.8 330 333.7 330.3 313.9 298.8 273 258.1 242 236.1 227.6 240.3 261.4 288 309.7 330.8 350.9 367.7 375.5 374.2 374.2 376.9
269.4 263.9 261.1 259.6 252.4 251.8 251.2 241.3 241.7 240.2 242.3 241.2 238.1 230.6 220.1 206.3 196.8 191.1 182 167.8 156.5 147.1 139.7 139.9 140 140.1 140.2 139.6 150.9 167.6 184.4 205.8 233.7 260.2 282.3 297.5 298.6 295.1 287.4 272.5 254.4 247.7 257.7 274.6 288.4 300.4 300.9 295.3 284.3 269.3 261.7 255.5 254.3 264.1 285.1 305.2 317.6 321.7 323.8 325.9 328.3 335.7 344.3 355.2 355.2 346.7 332.8 320 311 304.2 298.5 297.2 295.6 294.3 292.2 291.9 299.1 309.1 318.8 329.7 342.8 359.6 381.7 403.2 423 437 438.7 440.1 443.5 446.2 449.5 450.6 463.1 472.5 479.4 488.6 497.2 504.1 510.8 519.1 525.2 531.2 535.6 534.7 529.4 522.6 512.4 501.8 491.7 491.9 491.4 485.2 483.5 485.5 485.9 482.1 473.8 483.1 495.8 503.4 510.8 515.4 515.8 514.4 514.1 512.7 508.2 503.2 497.1 491.2 485.2 479.7 476.3 473.4 470.3 465 457.8 449.1 439.1 428.5 418 404.3 401 397.7 394.1 386.9 390.3 391.5 398.6 395.9 391.4 383.6 375.4 365.4 348.6 330.5 310.4 293.1 279.2 272.1 267.8 258.7 252.1 245.7 240.2 238.1 233.8 229.9 222.6 220.6 229.3 241.5 250.3 262.8 279 294.6 308.4 317.9 327.5 337.1 337.5 331.2 318.9 302.3 282.9 266.9 248.7 241.7 229.2 233.7 249.1 265.5 288.4 310.7 332.3 353.6 348.5 345.4 347.6 349.7
288.7 282.3 279.4 278.6 273 271.2 271.1 260.2 256.1 252.9 252.7 248.6 243.3 230.3 217.8 204.6 195.3 189.3 180 168.6 156.9 146.8 140.5 140.5 140.6 140.7 140.6 140.1 141.7 165.2 182.6 203.4 233.3 260.9 285.4 301.1 301.3 290.3 278.1 263.7 248.1 245.3 250.2 264.6 280.2 294.9 303.1 308 296.4 284.6 275 264.5 258.8 260.7 275.6 295.9 304.2 305.9 310.1 313.9 321.5 332.9 342.2 351.5 351.9 340.8 328.7 315.4 301.1 293.3 289.1 287.7 288.2 290 293.5 298.7 305.6 313.4 324.2 335.3 344.6 363.1 387.7 410.9 431.4 448.8 460 463.4 465.3 465.6 467.4 468.6 474.1 482.6 492.5 502.2 511.7 519 527.2 535.7 541.9 546.3 547.9 545 539.9 536.3 527.2 516.1 507.2 499.3 496.8 490.6 482.8 477.1 475 468.6 457.8 466.3 484.4 493.4 498.2 502.2 503.9 504.5 504.3 504 500.2 496.9 490.9 482.7 475.8 473.2 471 468.8 466.6 462.3 455.5 447.2 437.3 426.5 416.8 408 398.9 385.6 380.2 373.8 363.8 378.1 379.2 379 371.7 358.7 349.4 346.2 338.2 323.4 308.5 286.6 283.8 287.4 281.4 275.2 270.2 266.5 256 246.2 235.7 230 222.8 225.9 234 246.2 258.2 271.8 288.2 304 314.7 324.4 336.2 342.5 341.2 333.6 321 307.5 292.1 275.1 257.5 247.9 241.4 230.9 235.2 246.6 265 287.1 310.4 321.8 313.3 312.6 315.9 321.4
298.8 297 293.9 292.3 288.5 289.8 287.2 276 271.8 263 259.6 254.2 247.2 231.1 215.7 202.4 193.1 185.5 173.1 163.2 155.3 148.9 141.5 141.2 141 141.1 141.3 141.1 139.4 160.6 180.4 199.2 227.3 257.3 278.8 296.2 295.5 285.6 268.4 254.7 244.2 240.4 244 254.2 269.3 285.5 300.1 312.1 313.5 306 291.9 278.2 268.6 264.6 267.4 285.4 291.9 294.5 300.3 309.4 321.7 336.2 341.8 347.3 350.1 333.8 320.1 309 294.9 284.4 279.7 280.6 284.4 287.3 289.3 298 302.6 314 326.7 339.8 348.6 366 389.2 414.5 437 456 470.9 478.9 480.7 481.6 480.3 482 485.7 492.3 501.3 512.2 522.1 529.4 538.9 548.3 553.2 555.3 554.6 551 544.3 538.5 533.4 523.8 514.5 504.6 496.4 489.5 480.3 466.7 462.2 452.4 444.3 452.8 469.5 483.1 487.9 490.7 493.6 495 494.6 493.9 492.4 489.7 485.6 479.9 472.1 468.5 465.7 464.3 462.6 458.8 453 445.3 436.5 426.3 416.1 407 395.3 395.4 393.3 385.6 370.8 362.9 349.7 347.3 341.5 330.8 332.6 322.1 316.2 321.9 314.8 319.8 318.2 315.1 307.4 300 292.4 281.3 264 249.2 237.7 232.4 224.2 230.7 239.3 253.4 267.2 283.8 299.5 311.9 327 338.4 346.7 348.6 345.8 337.8 326.1 312.4 296.9 277.9 262 250.9 239.1 237.4 235.4 233.5 246.7 261.6 285.1 292.5 273 276.4 280.4 288.9
290.7 296 298.4 299.3 301.3 300 297.6 288.8 282.9 270 259.1 254.5 239.9 229.1 214 200.3 191 184.7 176.6 166.9 158.7 150.5 143.1 141.4 141.3 141.4 141.1 140.9 140.9 154.7 174.6 193.6 217.5 244.7 266.5 284.1 283.3 269.7 256.7 244.2 236.2 233.4 236.7 244.7 257.7 278.9 295.2 307.4 317 319.9 313 298.3 288.9 280.7 273.6 275.4 283.4 292.6 303.3 315.8 328.3 340.3 343.2 347.7 345 328.9 310 297.1 285.7 276.2 272.8 272.9 275.3 279.6 282.8 285.9 293.3 308.6 326.1 344 354.3 370.8 394.1 416.5 438.4 457.3 474.9 485.5 491.6 490.9 489.7 491.7 496.3 502.8 508.8 518.4 528.3 537.7 547 555.1 560.2 561.5 558.8 552.4 544 535.6 529.7 523.7 516.3 504.2 492.1 483.1 474.5 460.7 447.5 440.8 431.7 441.7 452.7 468.3 475.1 477.8 480.7 483.6 485.1 484.8 483.8 482 480.1 475 470 465.8 463 459.1 456.2 452.8 448.4 442.3 433.8 423.9 411.6 406.2 404.6 402.8 398.9 390.3 388.5 382.6 372.9 362.8 358.9 363.8 362.9 356.8 350.9 348.3 345.2 343.5 342.1 336.9 328.6 315.5 302.7 286.2 268.9 250.3 238.4 227.6 226.2 232.1 245 261.8 280.3 295.3 310.1 324.6 338.4 347.2 352.4 352.9 348.9 340 327.9 315.5 295.9 280.8 264.2 252.9 256.7 254.1 240.9 239.9 239.3 243.9 247.2 250.9 251.3 252.6 254 260.2
281.2 294.2 307.9 307.6 311.5 307.9 300.7 295.6 286.3 271.3 259.6 246.3 234 224.6 211.8 197.9 190 185.7 176.6 165.6 158.2 151.5 146 142.1 141.6 141.5 141.3 141.2 142 146.4 166.1 185.6 205.5 228.6 254 267.3 264.1 257.6 244.6 234.4 227.9 227 231.4 240.8 252 270.9 288.9 301.2 315.9 322.8 321.3 315 310.3 302.2 289.5 287.8 294.2 301.5 311.3 320.2 329.9 330.8 332 341.1 344.7 326.7 305.3 289 276.2 268.4 265.9 265.6 268 272.5 275.3 279.3 284.8 295.3 319 341.5 357.7 373.9 392.6 411.4 429.6 446.4 462 475.7 485 488.6 490.7 494.9 500.1 506 514.4 522.9 532.3 541.8 550.7 557.8 562.4 563.4 560.4 554 544.8 533.6 524.9 518.1 511.3 500.5 486.8 475.1 464.8 451.3 441.4 430.5 419.4 429.3 438.2 452.4 461.1 466.1 469.5 474.3 477.3 478.1 478 477.1 475.2 472.2 468.5 464.4 460.3 455 449 445.2 441.2 433 424 418.3 415.6 412.9 411 407.2 402.4 398.5 395.3 391.3 385.8 380 377.1 378.6 378.5 376.9 371.8 368.6 364.6 360.8 354.5 346.7 336.3 322 308 289.1 269.7 250.6 237.4 231.4 228.2 233.4 252.6 270.3 289.2 308.2 321.8 334.8 345 350.7 353.6 354.1 349.5 339.3 324.2 310 290.3 275.7 262.7 272.5 273.6 269.8 262 260.4 241.7 241.1 241.6 243.9 252.9 271.5 267 263.9
279.7 296.6 309.1 314.4 319.7 317.2 304.9 296.5 282.9 266.4 254.1 241.3 229.4 218.6 207.9 194.1 189.2 184.6 177.2 169.1 161.6 153.8 147.1 142.7 142.4 142.1 141.9 141.7 142 142.7 155.4 174.5 195.2 215.5 235 247 247.3 241.4 231.4 223 219.4 222.9 229.4 239 250.1 264.4 281.1 296 314.3 317.5 318.5 318.9 317.3 308.9 301.5 298.8 302.4 308.4 314.4 319.4 318.6 314.1 316 329 328.8 315 297.9 283.5 268.8 261.4 258.7 259.5 261.1 264.2 266.2 270.9 279.9 289.9 312.4 337.4 356.8 374.1 385.3 396.3 411.5 429.7 444.4 457.6 464.9 467.9 472.6 481.3 493.3 505.9 517.2 525.7 534 543.3 551.4 556.9 559.7 560.6 558.8 553.5 545.3 536.2 525.5 515.6 505.9 494.3 480.4 463.8 451 437.2 427.8 424.5 408.7 414.6 422.6 436.4 448.6 456.1 461.4 465.6 470 472.6 473.6 473.7 472.5 469.5 465.8 460.6 456.7 451.6 446.1 440.1 433 429.8 426.3 423.4 420.4 417.6 414.8 410.7 407 403.4 400.4 398.3 393 391.8 392.6 390.7 391 391 387.6 380.8 373.3 365 357.3 349.2 337.2 322.6 306.6 289.2 268.4 248.9 236.7 233.4 229.7 238.9 259.8 281.8 301.2 319.8 334.1 343.6 348 351.4 352.1 348.3 341 330.1 316.1 299.6 284.3 274.3 287.7 292.5 294.9 294.2 286.6 277.2 272 271.8 274.5 277 272.8 273.3 273.9 271.5
282.9 297.4 310.4 323.6 332.1 318.4 305.3 293 277.6 261.2 249.4 235.2 223.6 213.5 203 195.5 193.2 186 179 170.3 162.4 155.2 149.7 143 142.8 142.7 142.7 142.6 141.7 144.1 150.3 161.8 184.5 203.2 216.8 226 231.7 227.2 218.6 213.7 216 220.8 227.8 237.8 249.7 262.5 274.3 290.1 305.6 307.6 309.6 311.5 312.6 309.3 307.7 306.2 307 311.5 314.5 310 300.8 295.9 302.3 309.8 307 294.9 286 275.2 262.4 253.7 251.7 252 254.6 256.3 265.1 274.2 283.3 294 313.2 333.9 354.4 366.7 373 379.5 394.4 411.2 425.9 435.8 441.6 445.9 452.6 461.3 487.6 505.4 518.2 525.6 532.7 538.9 546.1 550.2 552.9 554.4 554.2 551.2 544.7 537.3 524.9 514.9 505.5 497.8 487.1 470.5 454.5 440.5 429.1 413.1 401.4 400.8 410 421.6 432.2 443.9 451.9 459.5 463.8 467 469.2 470.6 471 468.9 467 463.7 459.7 455.1 449 443.5 438.6 434.1 430.4 427.4 424.2 420.9 417.8 414.6 412.2 410.6 409.5 409.2 409.4 407.5 406.8 407.5 405.8 400.6 395.5 386.2 377.3 365.6 356.9 347.4 335.8 321.7 304.7 287.3 266.1 246.6 237.7 232.2 231.2 241.4 265 294 316.1 333.2 344.3 350.4 351.2 349.2 345.9 339.5 330.6 314.6 302.2 292.7 293.9 299.8 303.8 306.5 308.9 309.5 308 300.2 293.4 291.7 291.4 287.2 280.9 277 276.7 275.7
289.8 302.7 315.4 335.2 338.6 318.3 300.5 285.3 270.8 256.3 241.2 229.6 219.5 210.4 200.3 198.4 197.5 189 179.5 171.4 163.9 156.8 151.7 144.4 143.2 143.1 143.1 143.1 143 142.3 149.1 155.3 171.1 192.8 205 214.5 219.2 213.1 207.9 206.6 212.1 218.4 225.7 235.6 249.2 260.2 268.4 282.2 292.2 297.4 299.4 301.1 296.7 301.4 304.9 308.8 310.7 309.6 305.4 297.5 289.5 281.6 284.1 289.9 284.9 277.9 270.9 261.1 252.6 248.2 243.1 246.1 248.4 254.6 266.3 279.5 292.1 304.6 319.8 336 348.7 356.4 360.8 366.9 374.9 391.4 404.4 414.8 417.7 419.4 431.7 457.7 484.7 504.3 515.1 517.1 516.9 522 530.5 538.2 542.4 545.5 546.6 545.5 540.6 536.5 525.8 514.5 505.6 496.7 488.9 475.1 461 446.5 433.7 426.8 408.1 388.2 397.8 409.9 419.8 432 443.1 452 457.5 461.9 465.2 468.4 471.9 472.6 469.8 466.7 463.4 458.8 454.4 448.5 443.2 438.9 434.5 431.1 427.8 424.5 422 420.9 420.5 421.3 421.5 420.6 418.9 417.1 417.5 417.7 416.6 412 402.2 389.5 377.4 365.4 353.8 344.2 332.7 319.4 301.4 283.6 264.8 245.7 237.7 234.6 233.1 247.7 271.6 300.8 324.8 346.2 353.3 355.6 353.5 346.2 339.6 331 320.5 307.3 300.8 302.1 307.6 311.2 313.5 316.7 319.8 321.7 323.3 320.6 313.2 306.7 303 296.2 286.3 279.1 279.2 277.1
300.9 309.7 328 343.3 337.1 309.2 292.8 278.6 265.2 249.9 236 225.9 215.8 208.8 203.7 203.1 200.3 191 181.4 173 166 159.2 153.1 145.5 144 143.6 143.6 143.7 143.6 143.7 142.8 154.5 166.5 183 195.4 205.8 208.2 204.1 200.3 202.8 208.3 215.1 222.4 233.4 248.8 255 260.9 269.5 280 284.9 285.6 282.5 278.4 286.4 298.5 304.6 313.6 303.9 293.6 280.8 278.6 270.5 266.1 272.7 273.1 262.8 254.8 248.2 241.9 232 237 242 246.4 253.8 265.7 279 293.1 308.3 325.1 340.6 349.9 348 344.5 350.3 359.6 368 381.1 386.6 391.5 415.8 440 462.4 486.5 497.6 499.2 494.2 492 497.1 506.5 520.5 528.6 534.5 537.1 536.6 534.7 530.8 523 514 505.5 496.9 487.5 476 461.6 443.9 429.1 422.8 407.8 389.1 387.4 398.7 409.7 421.8 433.9 443.8 451.3 457.3 462.2 467.2 471.8 474.2 472.7 469.6 466.9 463.4 459.1 455.6 449.9 444.2 438.2 434.3 431.5 429.5 428.6 428.9 429.5 430.2 429.4 428.1 426.1 425.2 424.1 422.8 420.2 413.6 404.4 391.4 375.6 361.5 348.4 338.5 326.3 314.3 297.5 278.1 260 245.6 238.1 235.5 238 250.7 277.2 304.7 333.4 353.3 361 358.4 352 343 335.5 327.5 316.9 316.4 311.6 315.9 318.6 320 324.5 327.2 329.1 332.6 334.4 333.5 327.3 320.9 313.7 303.6 290.2 282.5 282.3 280.5
306.9 321.6 343.8 346.1 327 302.3 286.1 271.8 259.6 245.4 232.7 223.1 216.7 211.4 209.1 208.2 204.3 194.2 183.8 175.4 167.8 160.3 153.5 147.1 145.6 144.6 144.2 144.3 144.3 143.8 143.7 155.1 162.5 178 191.7 198.8 201 198.5 196.8 200.9 206.1 211.3 218.5 229.3 241.5 246.1 250.7 258.1 266.4 268 267.1 263.2 265 276.6 292.9 307 310.2 295.6 280.2 267.6 263 259.4 252.6 255.6 254.9 246.7 239.7 230.8 232 239.9 233.8 235.6 241.1 250.5 262.9 276.9 291.8 305.1 325 336.8 339.8 334.2 331.1 335.7 344.2 349.8 359.1 378.5 401.5 424.6 446.3 464.9 476.3 480.7 477.4 472.2 470.2 473.4 483.1 499.1 516.8 525.3 529 529.5 528.3 524.7 519 511.8 503.7 497.1 487 474.7 457.9 432.5 415.3 410.5 400.8 385.8 376.4 389.2 401.8 413.6 423.5 433.1 442.7 452 458.9 465 470 474.6 476.2 473.5 471.1 468.6 465.6 461.8 457.5 451.8 445.7 442.5 438.1 437 436.5 437.1 438.8 439.5 437.8 435.5 432.9 431 428 424.6 419.7 411.7 401.5 389.8 373.5 354.8 341.1 330 318 306.7 290.8 273.3 257.3 245.2 238.9 237.8 242.7 255.9 284.5 314.8 337.9 358.3 361.5 357.2 349.2 340.1 333.6 325.5 325.1 319.2 321.2 325.9 326.8 328.4 332.7 335.8 338.4 342.5 344.6 343.8 339 332.1 325.3 314.7 298.9 288.5 287.1 283.7
316.4 337.3 350.4 339.8 315.7 297.5 281.3 267.5 255.3 244.1 233.2 226 221.5 217.2 214.7 212.8 207.4 196.8 186.9 178 170.4 163 154.9 148.7 147.2 146.8 144.9 144.9 144.9 144.5 145 156.9 163.6 174.1 187.8 195.7 197.4 194.9 194.2 197 202.4 207.6 213.8 221.8 233.2 233.6 238.7 244.2 249.8 254 249.6 249.9 256.6 269.5 285.8 300 298.3 286.8 271.5 256.4 248.2 244.8 238.3 236.2 235.5 230.6 219.6 232.1 245.5 246.2 245.5 244.9 250.5 242.1 256.2 269.3 285.1 300.5 314.5 325.9 324.3 321.3 319.1 323.1 331.2 341.3 359.5 381.7 404.7 424.8 443.1 453.2 456.7 456.1 452.6 447.3 446.9 454.6 469.1 493.3 511.1 517.8 520 521.3 519.4 516.7 512.9 507 501.4 494.5 485.2 473.1 457.8 436.2 412.8 399.1 388.2 381.4 372.1 383.3 394.4 402.3 410 421.8 433.3 444.1 454.1 461.7 468 473.6 477.1 477.4 475.5 474.2 471.7 467.9 464.2 460.5 455 451.6 449.5 446.9 446.3 445.7 448.2 449.1 446.5 442.6 438.5 434 429 424.7 418.4 410 399.4 385.8 369 350.7 336.8 323.8 310.9 297.6 283 268.4 255.2 245.6 240 239.4 245.1 263.8 295.6 322.2 344.4 360.8 359.7 354.6 346.8 339.7 333.5 332.4 330.1 327.7 329.2 331.9 334.2 335.8 338.6 343.6 349.8 355 356.4 356.7 351.8 342.2 333.3 325.6 307 293.9 290.8 289.9
332.1 350.5 351.4 334.9 314.1 299.6 280.1 268.4 257.1 246.6 238 233.5 228.1 222.9 219.8 216.7 209.8 199.9 189.8 181.5 173.5 165.3 157.9 151.3 148.3 148.8 145.7 145.6 145.3 144.9 145 156.9 164.1 172.3 182.5 192.4 193.8 192.4 191.7 192.5 198.1 203.2 209.1 214.7 218.5 220.4 226.3 230.6 235.4 237 238.5 243.7 252.5 264.6 276.9 284.9 280.9 272.1 260.6 247.5 235.5 229.9 226.1 222.3 219.6 215.9 228.8 237.2 248.3 252.4 251.5 251.2 256.2 258 252.6 260.7 274.3 288.1 298.4 304.6 308.4 305.9 306.9 313.6 324 338 354.1 373.3 395.3 412.9 426.3 429.8 431.5 429.4 426 422.4 432.7 453.8 473.3 495.9 509.5 513.2 513.2 511.7 509.1 507.2 504.8 500.7 495.8 488.7 482.4 471.6 457 436.6 411.4 398.3 386.3 374.9 367.2 377.5 388.3 394.5 402.7 411.9 422.8 436.7 447.4 457 464.8 473 477.4 478.7 479.1 478.6 476.7 473.4 471.6 468.9 466.2 460.9 460.8 460 460.5 459.9 457.2 456.1 454.8 450.2 443.2 436.4 431.3 425.8 418.8 409.7 398.6 384.4 367.2 350.2 334.2 317.1 301.9 290 276.1 263.6 254 244.1 240.7 242 248.8 274.7 307.3 329.1 348.4 359 356.8 352 346.6 339.1 337.4 336.3 334.5 336.5 337.3 339.2 341.1 343.4 345.3 355.8 363.7 367.9 368 366.7 362.5 350.9 340 329.3 307.3 300.3 297.5 294.1
343.8 354.3 351.7 336.6 320.9 304.9 286.6 276.5 266.6 256.1 247.6 241.2 234.9 229.2 225.5 220.1 212.9 203.8 193.7 184.7 176.1 167.9 160.3 153.2 149.6 147.9 146.2 146 145.5 145.3 144.4 155.3 162.7 170.5 179.2 189.6 190.1 189.3 188.5 189.9 193.2 198.2 202.4 205.7 208.2 209.5 211.3 216.9 220.5 224.3 230.9 240 251.5 260.5 267.1 267.2 264.9 255.9 246.1 235.7 225.1 220.6 213.1 211.6 218.9 224.5 232.8 241.9 252.1 258.6 258.3 258.5 262.3 266.4 263.2 257 264.6 277.2 285.4 291.1 294.2 294.3 301 306.8 317.5 332.4 344.3 361.3 376.3 392.5 402.3 403 402.8 401.6 400.6 418.7 441.7 460.1 481.5 500.6 509.2 509.2 505.1 501.8 500 498 495.8 492.5 487.7 483.3 477.5 466.6 454.6 437.2 414.6 400.5 383 370.5 360.7 370.1 378.7 389.9 399.2 407.1 414.6 425.5 437.6 448.9 458.7 467.2 474.3 477.7 479.9 481.4 481.2 479.3 477.9 476.8 476.5 475.8 475.8 474.9 472.9 470.7 467.4 463.5 459.7 453.6 446.2 438.7 432.9 426.6 418.9 410.1 399.2 385.8 370.1 353.7 337.4 322 305.8 292 278 263.7 253.6 247 242.7 242.8 255.9 283.1 311.6 333.6 353.1 357.2 354.8 351.5 347.3 342.7 342.3 341.2 341.8 343 345.1 347.1 350.8 354.7 359.6 365.8 373.9 378.8 378.1 375.8 370.2 359.1 346.8 331.4 312 306.6 303 300.6
346.3 352.4 348.7 337.3 328.8 314.8 299.4 287.4 279 268.2 257.7 249.2 240.9 234.6 229.3 223.5 216.7 208.2 197.6 187.8 178.8 170.9 163.1 155.4 150.3 147 146.7 146.7 146.3 146.2 146 152.8 159.7 167.5 176.5 184.2 188 185.5 183.3 183.5 187.9 192 195.3 197 198.2 199.7 201.6 205.4 208.5 215.7 228.7 236.3 245 253.1 252.4 249.1 245.8 238.5 230 222 215 207.2 209.4 216.1 222 228.8 235.8 241.8 255.2 264.6 263.8 265.2 266.7 273.9 274 272 269.1 261 268.7 269.6 277.4 282.5 288.9 300.3 307.7 317.2 328.6 342.8 358.2 370.2 377.4 378 380.5 383 404.2 427.9 451.4 473.1 491.6 502.7 506.1 502.6 496.5 490.9 487.2 486.8 485.3 483.4 481.7 477.2 470 459.4 448.1 433.3 416.5 400.6 378.7 364.2 358.4 365.1 376.1 385.9 394.3 402 410.2 419.6 429.8 439.8 450 459.1 467.7 474.9 478.7 483.4 485.5 486 486.6 486.2 485.3 484.9 484.3 484.2 483.1 480.3 477.5 472.4 465 458.6 449.5 441.6 434.7 427.3 419.7 410.9 399.7 386.2 370.9 355.8 339 321.4 305.3 292 278.5 264.5 252.9 247.3 244.1 248.5 265 289.8 314.2 339.1 352.9 355.6 354.2 352 348.5 347.7 347.3 347.2 348.5 350.6 352.6 354.9 359.3 363.9 369 377.2 384.5 388.2 386.7 384.8 376.1 367.5 349.6 334.7 317.6 312.5 310.2 308.9
348.9 349.6 345.9 339 336.8 324.5 312.5 297.2 289.9 280 266.8 257.9 245.4 238.3 231.8 227.2 221.7 212.2 202.1 190.3 180.9 173.2 164.9 156.9 151.9 147.4 147.1 147.4 148.1 146.8 146.9 145.3 156.6 165.4 174.8 179.9 184.7 181.5 178.7 178.4 182.3 186.1 188.6 190 189.4 190.2 192.6 196.8 202.5 215.5 224.5 229.9 235.3 239.3 238.2 233.6 228.8 222 219.2 214.5 202.1 206.2 213.5 219.1 224.6 232.6 242.5 251.6 256.4 269.2 269.3 270.3 272 278.3 284.6 283.4 281.9 282.7 282.6 285.2 288.8 292.2 289.6 293.6 300.7 308.6 317.6 327 339.9 350.7 354.4 359.8 367.8 390.9 413.4 437.1 461.1 481.5 498 502.3 498.3 490.7 484 476.4 472.2 472.5 474.4 475.5 474.2 470.6 462.6 452.2 440 426.8 413.8 400.4 375.1 357.7 354.9 362.7 370.6 383.3 393 400.3 409.1 417.5 426.7 434.4 443.9 454.6 464.1 473.3 478.6 485 490 492.8 494.6 493.2 494.4 493.6 493.2 492.7 491.1 488.1 483.7 478.2 471.3 464.3 455.3 445.3 436 427.4 419.9 410.9 398.7 383.5 368.9 353 337.2 318.6 303.7 290.8 275.8 262.3 252.6 248.2 246.1 254.2 274.7 298.1 322.2 342.1 351.7 354.2 354.4 351.8 352.2 352.1 352.7 354 356.2 357.2 361 363.8 367.4 372.6 377.8 387.2 392.9 394.1 394.2 394.3 385.7 374.6 357.5 336.6 322.9 315.5 316.7 319.3
349.2 346.6 343 338.1 337.6 327.8 313.3 302.2 293.4 286.8 272 262.8 248.5 240.9 234.9 231.3 225.3 216.2 206.1 192.8 182.8 174.5 166 158 151.6 148.3 147.5 147.8 147.4 146.8 147.3 144.7 154.8 164.5 173 176.8 178 176.5 173.3 172.3 176.4 179.7 182 183 182.2 182.8 185.8 189 197 204.9 217.1 220.6 224.5 225.3 223.6 218.9 212 208.1 209 202.5 202.7 211.2 217 224.1 229.5 236.4 246.9 257.2 262.8 268.2 273.7 274.8 278.5 281.8 292.1 297 293.1 293.3 296.4 298 298.7 301.9 305.2 307.5 310.4 312 314 319 329.4 336.6 345.6 360.9 379.3 398.8 420.2 444.5 467.6 488.3 497.6 494.8 487.8 478.2 467.5 458 452.9 454.5 461.9 468.2 468.5 463.7 456 446 432.9 419.3 408.9 391.7 369.6 350.7 357.5 364.6 373 385.1 395.7 404.1 412.5 421.3 428.5 435.7 443.8 455.9 466.9 475.1 481.1 487.7 493.7 497.7 501 504.1 503.2 502 502.2 501.3 499 493.7 489.2 482.8 475.9 467.7 458 447.9 437.6 428.4 418.4 407.4 394.1 379 363.8 347.8 332.1 314.3 302.3 289.3 273.9 261.4 253.1 248.9 247.4 258.5 281.4 306.2 328.6 345 351 354.1 355 355.4 356.9 357.8 358.6 360.9 363.5 364.8 368.5 372.9 376.5 381.9 389.2 397 400.5 403.4 404.8 403.4 396.2 383.4 361.9 340.2 328.9 325 323.2 329.2
350.7 344.7 338.7 336.6 334.1 325.5 314.2 301.3 290.8 280.6 271.5 263.7 250.8 243.5 236.7 234.8 227.6 218.4 206.6 194.3 183.2 173.7 163 155.1 154 150.3 148.7 148.3 147.8 147.2 147.1 145.7 155 164.1 170.9 173 167.2 167 164.9 164 170.6 173.2 175.4 174 171.6 173.1 177.7 187.1 191.1 195.5 202.1 209.6 210.8 209.4 207.6 202.7 199.2 197.1 196.2 200.2 208.5 214.7 221.5 228.6 233.7 241.1 252.7 264 270 271.2 272.7 278.2 284.4 287.2 295.5 306.3 310.5 308.5 309.3 312.5 316.4 317.9 320.6 322.3 322.3 323.7 324.5 326.6 328.3 340.7 357.3 374.7 390.7 407.9 428.1 450.9 474 486.5 486.4 480.5 471.1 462 449.7 438.9 434.3 438.6 454.3 462.5 462.7 458.9 450.6 439.4 425.6 411.6 400.8 377.5 359.7 347.8 357 364.2 373 384.9 398.2 408.2 416.3 424.6 431.2 438.6 447 457.3 469.7 478.6 486.6 495.7 501.8 505.6 510.3 512.7 514.8 511.7 511.8 510 505.3 499.6 493.7 486.2 478.5 469.7 459.2 448.7 438.1 428 415.8 403.1 388.5 372.6 357.4 342.4 326 311.2 299.3 286.8 272 262.8 254.5 249.6 249.6 263.2 283.9 309.8 332.6 345.7 350.6 354.7 357.4 358.9 360.8 362.3 363.5 367 370.5 372.7 375.7 381.1 386 392.3 399.4 405.2 414.3 419 416.5 412.1 402.3 386.9 364.2 344.4 335 331.9 332.6 338.2
350.5 342.5 333.2 331.6 327.5 316.7 308.2 298.2 286.6 276.3 267 258.5 248.5 242.3 239 237.9 227.5 217.3 206.1 194.8 183.4 171.8 166.1 164.2 159 152 148.9 148.6 148.1 147.5 148.4 147.5 156.5 165.5 169 168.3 161.3 159.6 160.2 159.8 163.4 164.1 165 165.5 167.2 169 170.7 171.5 181.4 188.5 191.7 194.1 198.1 196.9 189.6 188.3 191.2 193.9 201.6 207 214 219.6 226.8 233.4 240.7 249.1 260.4 272.7 279.9 280.2 279.8 282.3 288.7 295.1 298.4 308.3 317.4 324.6 327.3 329.5 340.3 340.8 342.3 342.3 340.1 339.1 340.5 340.4 342.7 345.8 360.3 381.7 401.1 421.3 439.9 460.4 473.7 475.3 472.3 464.1 455 442.7 428.8 419.5 417.1 436.3 452.1 458.5 460.2 455.7 447.7 433.6 416.2 395.2 383.2 370.3 351.1 347 356.6 364.5 374.1 385.4 399.4 410.4 418.1 426 433.9 442 451 460.9 474.3 484.4 492.3 501.8 508.7 515.4 521 527 527 524.7 521.4 518.7 513.9 505.8 497.6 489.6 479.8 469.9 459.3 448.5 438 427.2 414.3 399.2 382.9 366.9 351.9 335.5 321 307.9 295.9 283.7 272 263 256.5 250.6 253.1 270 294 308 337.2 344.7 350 355.3 359.5 362 364 365.4 367.1 372.8 377.6 380.3 382.3 388.9 395.2 401.1 407.9 416.2 423.8 426.6 425.4 419.2 409.8 391.1 367.6 350.3 336.6 338.4 342.5 349.7
350.3 341.4 329.7 316.7 310.8 307.3 304.5 296.1 285.6 273.4 263.4 254.9 245.2 239.6 243.6 236.6 226.1 215.9 204.9 194.9 184.9 172.5 172.5 169.7 162.7 156.3 149.3 148.8 148.5 148.2 148.8 149.1 155.1 162.9 164.2 161.5 157.8 158.3 160.5 163.8 167.4 170.5 170.4 172.5 175.4 179.9 178.3 172 174.4 177.8 180.6 181.5 183.6 185.1 189.6 194.8 199.5 205.2 209.9 214.9 219.9 227 236 242.8 250.9 259.1 270.7 282.4 290.6 291.2 288.9 287.6 293.1 299.6 304.5 311 323.1 336.5 346.4 351.1 362.3 366.3 363.9 362.4 361.1 358.9 359.6 361.9 365.7 365.7 365.2 380.4 401.3 424.5 445.7 465.6 468.2 465.2 459.4 452 438.7 425.4 412 397.5 418.4 438.3 451.7 458 459.9 455.9 445.5 429.8 411.5 388.7 366.2 356.8 342.2 348.4 355.8 363.9 373 384.2 397.4 409.8 418.9 427.2 436 446.1 456.8 467 479.2 488.8 497.9 509.6 522.8 531.4 537.8 540 538.3 536 530.2 524.3 519 508.5 500.7 493.6 482.4 472 460.3 448.2 437.4 424.9 410.2 395.1 379.4 364.4 348.1 332.8 317.8 304.3 292.3 281.8 272.7 263.5 257.1 250.4 261.8 277.9 303.9 324.7 330.8 340.4 349.8 356.2 361 364.5 367.7 368.9 371.5 378.9 383.9 388.2 391 396.6 403.8 409.2 416.3 424.6 430.4 434.3 433.4 426.9 416.3 395.2 375.5 356.1 342.5 348.2 353.7 361.9
351.3 339.3 324.4 309.9 298.6 295.2 300.4 299.7 287.3 277.2 260.9 249.8 242.6 239.8 234.3 230 222.3 213 203 192.8 182.9 168.4 178.1 174.2 166.4 160 149.6 149.3 149.1 149.2 149.1 151.4 153.7 154.2 154.8 154.8 156.3 159 161.5 165.1 169.8 173.5 175 176.4 177.8 181.5 181.9 180.5 177.7 175.5 178.8 185.4 186.4 190 196.8 203.7 210 216.5 221.2 226.1 231.1 238.1 246.5 253.5 260.1 269.9 280.3 292.9 303.5 304.2 299.9 298.3 299 306.5 312.3 320 330.2 346.5 362 373.8 382.2 385.7 383.7 383.7 384.2 382.5 383.1 384.4 387.2 387.9 386.8 388.3 406.9 422.2 439.1 454.3 457.3 455 447.1 434.9 420.1 407.9 394.4 397.4 420.2 440.4 450.9 458.1 461.5 458.1 447.7 430 411 389.4 363 344.2 339.9 347.3 354.4 362 371.2 382.6 395.6 408.4 419.3 428.5 437.8 450.1 459.9 471 484.9 497.8 512.9 526 536.5 543.4 548.8 551.4 551.5 550.9 543.3 536.8 530.1 518.9 505.6 494.4 483.1 473 462.1 448.4 434.6 421.5 406.4 389.6 375.9 360.9 345.8 330.4 315.7 302.7 291.5 281.3 271.6 264 257.4 253.8 267.6 288 312.3 327.5 337.4 343.6 351.5 357.4 362.4 367.1 370.1 372.9 378.1 386.1 390.3 394.4 400.1 405.5 411.5 418 424.8 431 435.8 438.9 439.5 435 424.1 402.8 382.6 363.9 351.9 358.8 366.2 374.1
351.4 338.9 324 308.3 293 285.1 287.5 291.8 289.7 276.9 262.5 249.7 238.8 231.8 227.8 222 214.3 206.1 197.4 188.1 177.8 180 182.9 178.6 169 161.4 151.1 150 150 149.8 149.5 150.1 151.6 152 152.8 154.9 157.6 162.4 165.3 166.9 171.9 176.8 179.2 180.4 181.7 183.8 184.9 183.9 182.1 181.5 180.7 187.8 190.1 193.3 201.9 210.6 218.3 227.2 234 237 241.7 248.5 257.1 266.1 273.5 282.5 292.9 304.3 317.4 319.7 316.1 310.3 308.4 313.8 323.8 334.1 345.1 357 375.8 392 402.1 405.8 403.2 405.5 408.7 413.2 415.1 413.7 412.3 411 408.7 406.2 408.6 425.6 434.1 441.3 445 444.3 433.6 418.1 404.8 391.3 378.7 398.7 422.6 438.8 448.2 456.6 462.3 458 449.1 431.2 408.3 385 357.6 331.6 338.9 345.6 353 360.9 369.3 380.6 393.9 408 419.4 429.2 439.9 454.4 464 477.9 494 509.5 522.4 534.7 545.4 554.2 561.3 566.7 573.3 563.1 556.3 549.4 541.3 527.6 512.4 495.5 483.4 473 461.2 448 433 419.1 401.7 387.2 371.4 356.8 342.6 327 313.5 301.6 290.3 280.9 271.7 264.1 257.6 255.3 273.4 296.9 315.6 329.2 338.9 344.5 351.9 358.3 363.8 370 373.6 377.2 383.6 392 399 406.8 408.9 413.6 420.4 427.2 432.6 437 441.5 444.5 445 441.4 432.9 414 388.1 374.2 365.2 366.7 378.2 386.6
350.4 337.2 323.3 307.5 290.4 278.8 275.6 278.2 280.9 276.4 260.8 249.3 238.3 231.7 224.6 215.1 206.5 199 191.8 180.9 177.4 183.9 185.8 180.9 171.2 162.2 151.1 150.5 150.5 149 150.6 150.3 152.2 155.7 160.9 161.1 161.8 164.9 169.7 171.2 175.1 181 184 185.1 187.1 187.3 188.9 188.1 186.4 184.8 180.4 187.6 193.4 194.5 203.2 212.1 221.5 231.1 240.7 244.8 249 255.6 265.8 277 287.1 294.5 306.2 322.8 331.4 335.2 330.9 323 322.4 322.9 335.1 348.2 361.3 375.3 392 410.4 423.1 425.5 422.7 423.9 427.6 432 433.3 433.4 431.2 429.9 424.4 418.3 414.2 419.4 425.7 428.6 429.3 430.7 420.6 404.2 388.7 372.2 375.5 399.2 419.4 434.9 445.5 455.9 461.1 457.8 448.6 432.5 407.5 380.9 352.3 326.2 336.1 343.9 351.1 359.6 369.1 379.3 391.8 406.9 419.5 430.4 442.4 457.6 469.5 484.4 502 517.5 527.5 541.4 551.1 562.7 571.9 578.3 580.7 575.4 567.3 560.6 549.7 543.2 523.8 503 486.7 473.5 455.6 445.5 432.6 416.4 399.4 385.5 369 352.3 338.1 324.9 312.5 300.4 289.8 280.6 272.7 264.2 258.8 262.8 280.7 298.6 316.2 330 339.7 345.2 353.8 363.3 369.1 373.6 380.9 387.4 394 404.3 411.4 416.3 422.9 426.8 429.5 434.9 439.7 443.9 447.7 450.8 450.7 448.5 442.1 425.4 397.5 389.5 381.3 370.1 387 397.8
352.8 336.3 321.5 306.8 287.9 275.8 266.1 266.6 267.8 271.9 263.5 246.5 237.9 231 221.6 210.4 199.9 191.8 181.9 180.7 183.2 186.7 187.4 183.2 173.5 163.6 153.4 151.2 150.4 149.3 150.8 150.9 152.8 157.5 165.8 168 168.2 170.2 175.2 174.3 178.7 185.5 189.6 191.7 193.1 193.2 194.1 193.4 191.8 188.6 183.8 185.2 191 195.9 201.7 211.4 221.1 230.9 241.9 250.1 253.4 259.5 269.2 281.8 295.4 307.8 320.6 335.2 345.1 349.5 348 341.3 336.9 334.3 342.6 357.5 376.9 396.8 414.3 429.9 441.7 442.9 440.2 439.9 441.8 445.5 443.8 441.2 438.7 432.8 425.1 420.9 413.2 406.8 405 407.2 411.9 415.9 408.2 391.8 374 358 375.3 397.1 416.5 430.8 442.6 453.2 458.3 455.8 447.5 430.4 404.4 375.7 344.8 325.1 332.2 340.7 349.2 359.5 370.1 380.1 392.5 407 420.6 433.6 447.2 461.5 473.3 490.1 509.2 521.8 532.5 546.4 557.8 573.2 577.5 586.8 590.8 586.2 578.3 571.2 564.5 551.8 537.5 511.2 490.4 476.6 460.2 447.8 433.9 413.9 398.6 383.7 367.9 351.2 335.9 323.3 311.5 300.2 287.3 281.3 274.9 262.3 260 270.2 284.9 301.2 317.9 330.5 340.6 346.5 359.8 369 375.4 383.5 391.2 399.1 408.5 417.4 426.7 430.9 434.9 436.9 439.6 443.2 446.7 451 455.2 457.8 458.3 455.9 449.7 429.4 420.4 401 393.9 379.4 393.9 409.6
353.1 334.9 319.7 305.8 287.5 272.5 261.8 256.4 258.5 260.6 258.8 244.2 236.1 228.9 217.7 206.3 196.4 188.9 185 186.3 187.8 189.2 189 185 176.4 165.3 157.9 151.6 150 150.5 151.4 151.6 153.4 160.9 169.5 173.8 175.8 178 181 180.7 181.4 189.1 194 197.7 199.4 200.2 199.2 198.9 196.9 193.6 192.1 187.2 191.5 196.3 201.3 209.7 219.3 229.1 241.1 253.1 256.7 261.5 268.9 282.5 300.4 319.2 332.8 344.2 355.9 363.7 364.8 362.5 354 348.9 352.3 366.1 389.1 413.1 436.4 449 457.1 459.5 457.6 456.5 455.5 456.5 454 447.4 442 433.1 421 411.9 400.5 387.5 384.6 387 395.4 398.3 392.9 381.4 361.4 354.4 373 393.5 410.3 425.1 438.3 450.1 456 454.7 444.5 427.5 399.1 369.5 339.6 320.8 332.1 341.5 351.7 363.2 373.9 383.8 395.7 408.6 424.1 437.1 452.4 466.8 480.6 496.5 512.7 524.6 535.6 549.4 562.9 583.4 589.5 596.8 597.7 595.4 587.5 577.7 568 557.1 541.8 517.5 495.5 479.6 465.9 447.8 434.4 417.2 396.9 380.6 364.7 348.9 334.5 321.7 310.3 299.2 289.8 281.5 273.7 263.3 265.6 276.1 291.4 307.4 320.6 332.2 340.9 351.5 364.5 374.7 381.6 392.7 401.2 409.7 422.2 428.2 436.5 444.6 448.9 451.5 451.2 452.9 457.2 462 463.6 465.6 465.6 464.4 456.2 453.2 435 408.5 403.6 388.2 399.2 413.6
346.5 331.9 315.5 303.1 285.9 269.1 257.5 248.3 250.1 253 247.9 240.7 233.1 225 212.8 202.8 194.2 185.2 189.2 189.7 190.6 190.4 190.1 187.5 180.4 169.1 159.5 152.1 150.5 151.4 151.8 151.9 155.2 159.5 170.8 177.1 181.2 184.1 186.5 186.4 184.1 191.5 196.9 202.1 205.6 207.4 204.9 203.8 201.7 198.8 195.7 195.1 196.4 199.5 203.9 203.6 216.9 226 236.8 252.4 259 260.6 266.7 278.3 297.7 320.9 339 351.7 364.4 373.8 377.2 377.5 375.4 371.1 370.2 381.6 404.5 426.7 447.8 462 473 473.6 472.3 472 469 466.2 461.3 452.6 444 433 417.7 399.4 384.1 374.2 371.2 376.3 378.2 383.6 377.3 363.1 348.3 349.8 368.1 386.2 403.4 418.1 432.7 446.9 454.6 453.7 444.9 425.3 397.4 366.9 335.5 315.6 329.5 340.8 354.4 366.8 378.6 388.7 402.5 418.6 432.9 445.8 457 472.6 486 500.3 515.1 526.2 537.8 550.4 562.6 581.8 592.7 598.3 600.9 597.5 590.7 580.9 569.2 558.8 543.9 520.6 501.5 483.5 470.2 448.6 433.4 417.6 396.5 377.6 360.2 346.3 331.7 319.7 308.8 297.8 289 280.4 270.5 264.9 267.8 280.9 297.3 313 325.4 336.4 346 356.3 368.4 378.5 388.8 399 412.6 419.5 432.1 442.5 453.7 462.9 465.9 468.4 470 473.5 475.2 476.4 472.6 473.5 474.6 471.3 465.6 471.2 448.1 419.1 407.2 404.9 410.3 412.3
344.6 330.1 315.1 299.2 284.7 267.4 255.7 246 240.3 246.6 241.7 237.1 229.5 221.5 208.8 199.8 193.9 189.5 192.1 193.1 193.6 192.9 192.1 190.2 184.1 174.6 161.2 155 151.2 150.7 152.7 152.7 158.1 158 169.7 179 185.2 189.1 191.6 192.6 188.6 193.6 200.8 206.4 210.2 213 211.6 208.4 206.2 203.4 200 199.7 199.6 200.5 207.2 209.3 207.3 221.5 232.7 243 249.1 253.8 263.2 276.9 293.2 315.3 337.4 352.9 368.2 377.2 385.5 391.8 393.1 391.3 390.7 399.1 417.8 438.2 458.2 473 483.2 487.6 485.5 482.3 477.2 474 466 456.4 446.6 433 415.4 392.7 377 366.4 358.5 363 367.4 364 365.8 352.1 334.4 344.2 358.1 374.5 393.7 410.8 429.1 444.2 452.8 453.4 445.9 425 396.8 366.9 335.5 314.1 325.1 341.3 356.8 370.2 383.4 396.8 412.8 427.4 440.7 452.3 463.5 479.2 491.5 505.8 515.7 524.9 538.1 547.6 559.5 576.7 587.7 592.5 597 590.2 588.2 577.4 569.4 557.2 540.3 519.8 505.4 485.8 472.9 454.3 433.3 414.7 395.8 376.7 359.1 345.5 331.8 318.6 307.1 296.8 287.7 279.2 272 266.8 272.4 285.7 300.9 315.8 328.2 339.6 351.2 364.6 374.7 385.5 396.3 410.3 424.1 435.8 444.6 458.1 469.3 474.9 481.4 484.2 484.9 488 489.9 490.7 489.2 486.6 484.7 483 477.8 481.4 465.3 432.9 413.5 415.6 415.8 413.5
345.6 332.3 317.9 302.6 286.8 268.9 256.5 247.7 236.8 232.6 230.9 228.2 222.7 214.6 203.1 195.1 192 192.2 195.5 197.6 197.4 197 196.4 194.2 190.4 180.6 165.7 159.8 153.4 151.9 152.2 152.2 158.3 161 171.2 179.2 186.3 192.5 196.2 197 193.1 196.1 203.1 208.4 214.5 218.4 218.4 213.6 210.3 207.5 204.6 203.9 201.4 205.6 209.4 215.7 216.4 213.3 220.9 229.8 239.2 248.2 260 273.7 288.4 308.8 329.3 348 363.1 375.5 385.1 393.1 399.1 405 407.4 416.4 429.4 447.7 465.3 478.7 490.5 497 495.4 489.6 485 480.3 472.4 459.2 447.5 433.5 416.9 394 378.7 367.9 354.1 342.5 342.1 346 346.1 340.7 324.8 338.8 348.3 363.1 382 402.7 423 438.9 451.5 452.3 443.6 425.2 397.4 367.4 336.9 312.2 320.4 341 357.2 372.1 386.1 401.7 419.2 433.7 447.5 459.4 473.8 488 498.5 508.8 518.4 527.1 537.1 546.2 554.8 563.5 577.3 581.7 584.8 584 579.5 574.8 564.9 552.5 532 515.7 503.2 488.4 475.8 458.1 438.7 416.7 398.1 381.4 364.6 348.7 336.5 324.5 314.3 299.1 287.1 278.6 272.5 267.8 277.9 289.5 303.7 318.1 332.1 347.5 361.1 373.7 382.8 394.5 410.1 423.6 437.5 450.3 462.5 472.7 485.5 493.6 498.5 501.9 502.9 501.4 506 505.3 503.9 502.3 498.7 496.1 492.8 492.9 479.6 452 424.4 420.6 422.8 420.2
347 335 320.3 304 286.8 270.7 258.2 251.1 240.9 229.3 218.4 213.3 207.8 201.7 200.3 198 197.2 197.9 201.2 203.3 202.2 201.9 201.3 197 192 181.7 169.3 163.5 158.3 153.2 152.8 153.4 153.4 164 165 174.7 186.5 194.8 200.8 202 201.6 197.6 204.6 210.6 217.4 223.2 225 220.1 215.8 212 208.6 208.1 207.2 209.8 211.5 219.4 225.4 227 225.2 226.8 234.5 244.8 256.1 269.7 281.8 300.1 319.5 338.8 355.9 369.8 379.9 385.7 396.2 410.5 418.4 427.5 440 455.6 472.3 479.8 492.2 499.5 500.1 496 489.3 484.8 473.8 460.2 447.4 432.7 418.6 405.3 392 382.8 372.4 356.1 339.6 326.1 326.6 326.2 324.2 333.3 342.2 356.3 368.3 389 410.6 428.1 445.1 448.8 440.4 423.6 396.5 370 341.2 308.1 316 335.4 354.1 370.3 386.9 404 422.7 438.7 454.7 469.3 483.9 495.3 504.2 512.4 521.8 529.7 536.2 542.7 548.4 554.5 560 567.2 567 568.2 567.4 562.9 553.3 541.4 528 509.4 499.4 488.4 476.9 463.5 450.6 431.7 410.6 392 374.5 359.7 347.4 333 321.1 304.1 290.2 278.5 272.3 269.7 280 294.4 307.5 322.9 339.6 355.1 367 380.5 391.5 402.1 419.1 435 448.7 463.3 476 485.4 500.6 508 516.2 519.9 518.7 521.1 521.6 523 521.7 517.4 515.7 512 508.5 511.1 502.4 477.1 439.4 424.9 427.2 426.9
345.4 331.7 318.2 301.2 287 272.2 263.9 256.1 245.9 233.8 224.9 217.4 212.4 211.8 207 204.4 205.1 206.4 207.4 208 207.9 207.2 206.7 201.1 193.5 181.4 172.2 166.2 161.6 152.7 154 154.2 154.3 166.3 166.8 172.9 186.8 195.6 203.4 207.2 204.5 202.6 205 212.2 219.2 226.6 230.7 228.1 222.4 218.7 215.1 213 214.1 211.5 214.7 220.1 228.7 235.3 237.3 233.4 232 243.6 253.9 265.8 276.7 291.6 310.8 329.6 346.9 359.5 365.7 374.3 386.2 400.1 417.3 428.7 441.3 459.1 473.1 481.2 489.7 495.8 497.6 495.4 490.1 482.8 471.4 460.4 446.4 431.7 419.2 410.6 402.3 401.4 393.6 376.7 360.4 343.3 325 311.7 319.1 328 337.9 350.9 362.1 374.4 391.9 409.6 431.1 438.2 432.8 418.5 397.1 373.3 346.7 314.8 309.4 326 349.2 366.5 384.2 404.9 425.4 444.8 462.6 479.9 492.7 502.1 510.1 515.7 523.8 531.3 534.1 538.3 542.2 544.9 550.8 553.6 557.9 557.7 554.9 552.1 543.5 533.8 520.7 508.2 496 486.8 476.9 466.7 456.8 443.7 427.5 407.1 386.5 367.5 353.8 338.5 321.8 303.6 288 274.3 271.7 275.4 282.8 297.8 310.6 327.9 344.6 359.4 374 386.3 396.2 410.1 427.8 444.3 457.3 475.1 487.8 503.7 515.8 525.3 534.5 537.6 538 537.5 537.5 540.3 538.6 536.9 533.7 530 526.5 527.1 524.4 502.8 459.7 432.1 431.2 435.3
345.4 333 319.6 306.4 294.2 279.7 268.5 261 251.1 239.9 230.6 224.1 217.8 219 216 213.1 214.4 216.4 215.5 214.2 214.2 213.7 212.7 206.5 196.5 183.3 174.2 168.9 164.1 154.7 154 154.7 155.3 161.8 166.9 172.1 185.8 196 204.3 211.4 207.8 208.8 208 211.6 220.6 230 235.7 236.1 231.1 226.9 223.2 219.8 219.6 217.4 219.7 221.8 230.4 238.8 245.1 242.7 236 243.9 252.5 262.9 272.7 284.8 302.1 319.2 333.6 343.7 349.8 360.9 375.2 389.8 409.2 425.8 437.3 455.9 466.9 476.1 484.3 489.8 492.2 490.7 487.1 479.6 468.2 456 441.3 428 416.3 411.1 406.5 407.7 405.9 394.1 375.7 358.6 335.4 307.4 312.8 323.6 334.5 345.5 358.2 370.6 381.2 393.9 413.5 425.6 422.5 411.5 396 373.7 347.5 319.8 305.6 320.2 341.1 359.4 378.3 404.5 428.9 449.1 469 485.9 497.8 507.2 514 518.8 522.5 525.7 529.6 532.8 534.2 535.3 537.7 540.9 545.2 546.7 546.2 542.9 535.7 526.9 517 503.5 494 486.4 478.5 469.7 460.4 449.9 432.8 413.6 393 377.1 358.5 336.8 317.4 300.5 285.8 274.2 276.1 280.5 286 299.4 314 331.8 349.4 363.8 380.4 391.9 403.7 418.1 438.6 455.3 470.6 487 504.4 519.1 532.2 542.2 549.8 551.5 553.7 556.2 557.8 557.9 557 553.9 551.6 547.3 544.2 543.1 544.4 524.6 470.6 439.8 438.9 446.8
350.1 338.4 325.3 311.9 298 284.9 272.5 265.2 256.5 244.7 236.8 230 225.3 226.6 226 223.1 220.9 225.7 224.3 221.9 221.2 221.4 218.3 212.2 200.9 188.4 176.9 171 166.4 155.3 155 155.1 154.9 161 169.6 170.8 184 195.7 205.7 214.3 217.2 213.6 213.6 213.6 220.4 231.2 239.6 245 241.1 235.9 232.2 228.3 226.1 224 221.8 224 231.1 240.4 247.5 250.1 245.5 239.3 250.7 260.8 270 279.6 293.6 305.3 315.1 324.8 336.2 349.5 364.4 383.8 402.7 418.8 429 446.3 458.1 467.9 478.3 484.5 485.9 484.8 479.9 469.9 458.4 445.2 431.9 418.2 412.1 410.8 408.1 410.5 408.8 399.2 386.9 367.7 339 309 303.6 319.1 332.2 341.7 353.3 362.4 373 383.9 398.9 411.4 410.1 404 393.1 373.1 349.7 322.6 301.2 317.5 338.3 356.3 377.2 402.4 425.9 450.4 471.7 490.2 500.5 509.4 514.9 519.7 520.7 521 521.5 520.6 522.3 524.3 525.5 525.9 529.4 532.1 535.1 533.6 528.7 521.8 513.3 501.1 493.2 486.8 481.2 472.3 462.2 450.3 433.4 412.8 392.4 376.1 360.3 338.5 315.6 295.9 285.9 276.2 278 284.2 285.6 302.3 316.9 334.3 353 369.5 385.9 397 408.8 426.9 447.1 464 480.4 498.2 517.8 533.9 547.7 558.6 565.9 569.6 573 573.6 573.7 573.8 572.8 570.9 568.1 561.6 563 568.3 566.1 545.7 487.2 454.1 448 452
353.3 341 329.3 314.6 301.6 288.2 277 269.5 261.6 251.9 243.3 235.5 232.9 234.3 234.8 232.1 230.7 233.8 232.4 230.4 229 227.7 225.7 220.2 207.5 194.9 179.7 172.2 167.4 156.2 155.7 155.4 154.6 160.5 168.4 170.5 185.6 195.1 206 217.4 224.7 226 221.8 218 220.3 230 240.8 249.9 249.2 245.2 241.7 237.9 234.1 230.4 226 231 230.4 240.2 249.3 255.4 255.2 250.6 247.9 255.3 265.9 275.1 284.8 294.4 307.9 320.5 333.9 351.3 369.1 384.2 399.4 410.9 418.7 432.6 448 458.8 470.6 477.8 481.1 479.5 471.9 461.6 449 427.1 411.1 401.9 398.4 406.6 411.4 415.1 412.6 405.8 394.1 371 340.8 311.5 299.3 314.4 329.6 338.4 343.8 353 365.6 381.3 390.6 402.2 389.4 383.7 381.4 372.8 351.1 323.9 300 312 334.7 353.2 373.6 402 425.5 448.2 471.2 487.7 498.2 506.5 512.3 516.5 516.5 515.1 513.5 513.1 511.5 510.6 510.6 513.9 517.3 519.9 523.1 524 522.2 516.7 509.1 500.7 493.8 487.8 482 474.2 464.1 451.7 436.8 420.9 403.5 381.9 359.7 336.6 311.5 292.5 282.9 278.3 283.3 289.1 291.5 302.8 319.4 337.2 355.8 373.4 389 400.5 413.7 431 451.8 473.4 492.2 509.8 529.1 546.2 562.1 574.4 582.3 586.5 593.8 591.6 587.2 588 590.2 588.4 586.4 582.6 580.8 584.1 584.9 551.3 498.6 465.5 452.8 456
352.3 340.5 328.6 317.1 304.7 291.4 280.6 275.2 269.3 259.3 249.8 240.9 240.4 241.6 242.7 241.1 239.2 240.8 240.3 238 236.9 237.8 235.4 229.1 216.8 199 183.4 173.3 167.2 156.6 156.4 156.2 155.8 155.6 166.6 171.3 184 194.2 204.8 219.8 228.6 232.1 228.3 224.8 224.7 228.7 238.9 249.2 254.5 254.5 251.4 248.1 243 238.3 233.7 232.3 237.7 239.6 249.4 258 263.9 257.4 257.4 258.3 261.1 269.6 279.4 291.3 306.6 323.3 338.9 356.1 371.9 386.8 396.1 401.9 407.5 419 437.9 450.9 463.5 471.2 473.6 470.2 463 452.8 438.9 413.1 394 382 382.9 396.4 405.6 409 415.3 407.4 396 369.1 341.4 311.6 295.1 311.6 326 331.5 334.6 344.4 357.8 373.4 382.4 395.6 375.2 356.7 357.7 357.9 347.4 320.6 295.7 308.9 331.4 351.4 372.3 399 422.1 444.6 466.6 482.9 493 501 506.8 510 509.5 508 505.8 503.7 503.8 502.7 501 501.8 504 507.6 510.1 514.7 514.2 511.9 506.7 500.3 495.4 489.4 482.2 475.1 465.8 453.3 440.7 424.5 404.7 380.8 358.6 333.8 307.8 288.3 282.3 281 287.2 294.3 298.3 304.6 320.7 339.2 358.8 377.5 392.2 404.5 419.4 437.5 460.4 482.6 503 521.1 539 556.5 574.1 586.3 595.5 604.5 609.3 609.1 607.5 605.6 604.9 601.7 600.6 597.4 596.9 599.4 601.2 570.7 510.7 477 460.8 462.8
350.4 339.4 327.9 317.4 305.3 293.6 285.9 283.2 277.4 266.9 256.1 249.7 248.5 249.1 251 250.8 247.7 248 248.1 246 244.5 245.6 245.9 239.9 225.6 204.8 185.8 174.1 167 156.9 156.7 156.8 156.6 156.2 166.2 173.6 182.9 194.4 204.8 221 231.6 236.9 236.4 233.2 233.9 234.8 239.9 250.3 257.3 262.2 262.2 259.4 254.4 248.4 241.7 236 241.7 242.1 247.7 254.6 266 267.6 264.9 265.9 266.6 268 277.4 286.2 302.4 319.9 335.2 351.2 364.5 376.6 385.6 387.8 392.8 406.9 429.3 445.5 458.1 465.2 466.2 462 453.3 445.8 431.1 403.7 383.3 364.5 366.7 378.3 387.5 397.2 404.3 402.2 391.9 369.9 340.5 310 290 308 317.9 318.5 324.6 337 347.8 355.5 371.2 388.2 374.5 346.9 331.2 333.7 332.6 310.6 294.2 311.9 334.8 348.5 369.1 393 416.7 437.1 457.5 475.6 486.9 494.4 499.4 502.1 502.1 500.2 498 496 494.5 494.6 494.8 495.1 496.2 497.7 499.8 502.8 505 505.7 503.5 501.4 497 491.2 484.4 476.5 464.7 452.5 437.6 418.4 398.7 374.7 351.4 328 300.3 288 286.5 283.4 290.1 303.6 310.8 303.4 323.5 341.1 360.3 379.3 395.2 409.5 422.5 443.6 470.2 492.1 512.8 531.9 549.7 567.9 584.6 596.8 606.8 615.4 621.5 626 626.1 621.2 617.9 616.4 614.8 611.7 610.1 612.7 614.3 586.2 526.1 491.2 471.5 471.5
346.2 336.3 325.5 315.7 306.2 297.3 292.1 289.6 284.5 276.2 261.6 257.4 257.7 258.1 259.8 259.2 255.7 254.6 258 256.8 254.4 254.5 257.9 246.3 234.4 209.1 189 175.2 166.7 157.4 157.5 157.4 157.5 156.3 164.2 172.9 181.2 193.8 206.3 222.2 232.2 242.5 243 241 241.9 243.2 243.1 255.1 263.1 269.4 274.6 271.9 266.2 259.9 251 244.8 243.8 248.3 247.2 252.6 260 267.9 269.6 274.9 275.9 273.3 276.1 283.8 294.1 309.5 325.4 340.7 351 360 368.1 372.6 381.3 400.7 424.9 440.1 451.3 458.4 459.3 455.5 447.4 438.3 426.5 400.7 376 356.4 349.3 357.6 366.4 375.2 380 385.2 381.5 370.6 344.6 313.1 287.1 298.5 307.7 307.7 317.3 323.8 334.1 347.6 367 376 374.3 348.3 324.3 309.7 307.2 291.4 292.8 315.6 331.9 344.4 360.8 385.7 409.6 429.2 449 464.6 478.5 487.2 492.8 495 494.7 493 491 489.2 486.8 485.4 486.6 487 488 487.4 488.7 493.3 495.9 499 501.6 501.7 499.3 493.3 487.6 478.4 463.9 448.8 430.6 409.7 385.7 365.4 342.1 318.8 294 289.7 288.2 285.6 297.3 312.6 322.9 311.8 325.1 343 362.1 381.8 399.1 413.5 429 449.8 478.6 501.8 520.3 538.3 556 575 593.6 607.1 617.8 627.4 634.9 639.6 640.1 636.3 631 631.1 628.5 625.5 624.8 628.2 629.6 596.6 546.1 507.4 484.4 485.6
338.4 331.4 321.9 314.3 306.1 300.2 297.8 295.1 289.5 281.2 268.8 266.3 267.5 267.9 269.4 268.5 263.6 261.3 265.8 264.6 263.6 262.2 262.4 256.4 236.6 212 191.6 174.7 164.6 158.1 157.9 157.7 157.4 157.9 161.2 170.4 178.9 193.2 205.6 218.8 230.5 239.3 246.7 247.4 248.2 252.4 252.6 257.3 270.4 277.3 282.3 282.2 277.8 271.2 260.7 252.9 246.5 252.3 253.3 251.5 258.8 266.6 273.5 281.2 286.6 283.8 279.5 283.8 292.3 301.2 313.8 326.2 334.7 343 351.8 365.5 378.6 401 424.3 437.2 444.1 449.9 453.2 450.8 443 434.1 424 405.3 377.7 354.9 339.3 335.4 344.2 352.1 356.5 360 362.1 360.8 343 315.2 284.1 289.3 295.3 300.2 307.2 315.6 328.9 351.2 359.7 362.2 361.2 351.1 334.3 311.5 290.2 286.8 300.7 316.4 326.8 340.4 353.8 375.4 399.7 418.7 435.9 452.1 466.7 477.2 484.2 487.2 487 485.4 483.1 480.2 478 476.4 477.4 478.2 477.6 478.2 481.2 484.1 488.9 496.1 500.4 502.6 502.5 499.9 493.5 482 459.5 442 423.6 402 379.4 356.4 332.9 311.9 293.2 290.7 288.6 290.9 307.4 324.8 335.6 325.8 323.7 344.8 366.3 385 402.8 419.4 434.4 457.3 484.3 507.1 528.7 546.3 566.6 584.9 602.6 618.1 628.6 637.3 646.1 652.2 651.9 650.2 647.1 644.4 642 638.2 638.3 639.7 639 621.2 566.7 525.7 502.2 506.2
329.1 325.1 318.9 311.9 306.8 303.4 303.6 300.1 293.1 283.6 278.1 275.8 277.1 277.8 278.5 277.4 271.9 268.4 269.5 271.3 271.4 266.2 262.2 252.9 230.6 210 191.4 172.7 158.5 158.7 158.6 158.5 158.3 158.5 160.4 168.2 178.2 191.6 203.6 215.4 227 235.9 244.1 250.3 253.5 258 262.5 263.1 276.9 285.3 291.3 294.4 289.9 281.4 270.7 260.7 251.5 255.8 258.3 257.5 258 265.8 274.8 284.8 294.4 297.6 293.4 291.6 289.3 299 306.8 314.8 326.5 338.4 351.7 367.4 386 408 425.2 433.3 439.7 444.9 447.1 444.3 439.9 432.1 422.5 412 386.5 361.4 343.7 330.7 319.2 325.2 330.3 335 340.9 344.9 342.2 322 294.5 280.9 286.8 294.1 300.4 309 321.4 342.4 345.8 346.9 345.2 339.6 325.9 301.3 285.4 289.5 298.5 309.9 321.2 334.2 345.4 362.1 385.7 404.3 418.6 434.5 450.7 462.4 470.8 475.6 477 476.2 474.2 471.3 469 467.4 467.9 468.5 469.5 470.8 474.5 479.5 487 495.7 501.4 504.5 505.6 503.4 497.7 484.8 462.1 437.6 417.9 396.4 372 348.4 325.9 306.7 294.7 291.3 293.5 299.7 316.2 335.9 348.9 339.1 325.5 345.1 365.5 383.9 404.5 421.9 440.7 464.2 491.1 513.6 533.6 554.2 573.3 593.1 609.6 624.7 637.1 647.6 655.9 660.7 661.4 660.3 656.3 653.2 651.6 648.6 647.6 649.2 647.7 630.1 586.1 555.6 525.7 532.7
318.6 314.6 310.9 307.7 306.3 307.9 307.9 304 293.7 292.8 287.2 285.5 287.2 287.5 287.8 285.6 280.1 274.8 275 276.9 274 264.9 251.5 237.7 222.3 205.4 188.9 171.3 159.3 159.2 158.8 158.8 157.4 158 163.3 167.6 176.5 187.8 201.7 213.2 224.5 234 241.9 251.2 257 262 265 270.4 286 294.8 299 305.6 302.5 297.5 284.9 267.8 257.1 261.2 263.5 264.3 262.1 265.1 274.9 286.5 299.3 309.4 309.4 306.1 304.2 306.7 312.2 324.3 338.2 350 366 383 398.4 415.9 425.3 431.2 435.8 438.3 439.3 438.9 435.1 430.1 422.1 412.7 397.6 374.2 351.7 335.8 322.2 309.7 305.6 309.8 317 322.8 328.1 328 304.2 280.6 279.5 287.4 294.7 302.3 311.8 324.1 326.7 328.4 326.5 319.2 310.7 290.6 282.2 286.6 292.3 300.4 312.4 324.7 336.6 352 371.2 387.9 402.4 417.7 432.5 446.3 455.6 461.9 465.3 465.5 464 461.4 458.7 457.7 458.6 457.8 460 464.5 468.9 476.4 487.3 497.2 503.5 506.7 507.7 504.7 497 484.2 462.8 436.5 412.6 390 367.2 343.4 319.2 301 295 295 298.9 308.6 328.8 346.7 360.6 354.5 335 352.8 375.7 393.5 408 426.6 450.4 470.2 495.9 518.5 538.6 560.2 578.3 599.4 616 629.5 642.6 655.7 662.5 667.4 671.9 668.4 663 662.1 659.8 657.2 656.8 656.3 644.7 618.4 618 587.1 554.4 549.1
308.8 304 303.1 302.5 305.5 311.2 308.2 306.1 299.7 302.1 295.6 295.3 297.1 297 296.6 293.9 288.3 282.2 281.9 282.3 276.6 262.3 240.7 225.1 212.2 198.7 184.4 170 160.1 159.2 158.8 158.2 160.4 162.3 164.4 167.9 175.6 185 197.7 212.5 222.1 231.7 240.1 249.7 258.7 265.6 274.5 280.4 290.2 304.8 309.9 311.5 311.8 302.3 289.5 273.1 261.7 268.1 271.7 271.4 267.6 266.8 274 286.5 301.6 316.1 326.8 326.9 323.8 320.7 322.5 331.4 348.9 363.9 381.9 398.3 409 418.3 424.6 429 431.3 432.1 433.1 433.1 430.6 425.7 420.1 413.9 403.5 388.6 368.3 347.5 331.8 320.7 309.8 295.9 293.8 300.3 307.6 311.6 311.5 296 271.8 279.6 286.5 293 296.2 301.6 305.3 306 305.3 298.4 286.9 280.4 280.8 283.2 286.4 291.1 301.9 314.4 328.3 343.8 362.8 381.7 394.9 404.3 415.4 425.3 437.5 445.4 449.3 451.7 452.8 450.9 448.5 447.5 446.5 447.6 452.1 457.6 465.4 473.8 486.7 497.3 503.8 507.8 508.8 504.5 495.8 483 460.4 433.9 409.8 387.5 363.8 336.4 312.9 300.2 296.9 298.9 309.9 323.7 343.3 361.9 375.3 366.7 351.9 358.1 380.1 397.6 415.8 435.5 457.9 480.1 498.2 522 543.7 563.6 583.5 603.7 620.1 635.5 647.5 661.4 669.2 676.4 679 678 674.9 671 667.5 664.6 663.2 658.4 642.3 647.9 642 620.7 574.3 559.7
295.4 292 293.2 296.8 304.3 306.6 305.8 306.3 306.2 307.5 303.8 302.8 304.9 307.6 307 304.4 298.5 290.9 287.2 285.3 278.9 259.4 235.9 216.8 203.1 190.2 179 160.6 159.3 159.2 159.6 164.1 161.8 165.7 167.8 169.2 175.6 184.3 194.7 208.6 220.4 229.1 238.2 247.6 258.2 268.3 279.7 291.2 300.2 315 321.4 317.9 312.8 303.8 291.1 277.1 269.3 273.4 278.2 281 276.2 274.9 277.2 289.9 304.8 320.2 336.1 346.3 343.2 338.9 337.4 343 354.6 372.7 385.2 400.4 413.8 419.1 424.2 423.9 425.6 426 426.1 426.3 423.4 420.3 415.1 410.1 401.4 389.8 379.4 366 351 338 325.6 310 294.9 283.4 286 289.3 293 295.4 282.9 271.1 277.9 283.7 285.3 285.8 288.6 286.2 280 277.3 277.3 275.7 280.3 280.1 284.7 289.2 297 307.7 321.8 337.9 355.7 375.2 390 399.9 408.5 411.7 419.8 425.3 431.7 435.5 438.3 437.8 435.5 435.2 434.2 434.8 439.7 451.4 462.2 470.5 482.9 495.1 502.2 506.4 506.1 501.3 492.4 478.1 457 431.7 405.5 380.9 355.7 328.4 304.5 300.8 301.8 307.6 321.5 337.1 354.5 372.5 383.1 377.1 367.9 363.2 388.4 404.4 423.1 444.3 465.1 486.6 507.5 525.7 549.3 569.2 587.2 604.8 623 640.8 657 668.8 677.2 684.3 688.8 688.1 684 681.9 675.7 672.7 669.6 661.7 660.3 660.2 658.4 636.7 600 571.5
282.4 283.5 287.1 292.6 299 303 308.9 311.2 312.7 309.7 311.6 316.8 316.7 317.6 316.7 315.6 310.9 302.9 294 287 275 254.8 235.2 213.5 198.5 182.7 159.6 161.3 165.8 161.3 165 165.1 163.6 169.8 172.8 171.4 176.2 182.5 193 205.2 218.6 227.2 236.5 246 257.1 270.5 283.7 297.1 313.1 324.4 328 325.8 316.8 306.3 294.5 282.2 275.1 276.2 283 288.7 288.5 285.2 285.3 289.8 306.8 322.9 341.8 354.9 363.7 361.3 358.3 361.7 367.9 376.5 388.2 401.9 412.7 417.1 418.6 416 416 417.8 418.2 421.2 420.5 418.7 413.3 408.6 404 393.8 383 374.9 364.9 353.8 336.4 316 302.4 293.5 283.2 275 278.6 284.7 282.8 267.6 271.2 275.6 275 271.5 271.4 270.1 272 272.9 274.4 282.4 285.8 286.2 285.3 288 294.8 304.1 317.5 334.1 351.1 370.5 385.4 394 400.9 405 407.2 409.4 414.7 420.3 422.7 421.8 421.2 420.4 420.5 423.9 434.5 448.6 459.3 468.7 481.8 491.9 499.6 504.1 502.6 496.4 486.2 471.5 450.3 424.4 398 371 345 318.2 304.1 306.7 310 315.6 328.8 345.2 361.8 377 384.3 383.6 381.9 379.6 387.7 410.2 432.3 453.9 472.9 492.7 514.9 533.4 553.1 574 590.7 610.1 629.7 646.8 662.7 675.6 684.5 691.9 696.8 695.9 693.2 689.1 683.5 680.1 675.5 667.8 670.3 670.4 669.8 667 627.4 600.7
273.2 277 282.3 288.3 294.5 299.9 308.4 316.6 316.6 316.3 318.9 323.1 325.2 326.5 327 323.5 318.4 312.1 305.3 288.4 269.3 249.6 230.4 211 196.3 175.4 160.4 169.7 171.6 167.4 167.6 166.5 166.6 172.9 177.9 178.3 177.1 182 190.2 200.9 214.2 224.4 234.2 245.1 257.6 269.6 285.2 298.2 315.5 329.4 331.7 331.7 321.5 313 303 290.6 282.1 278.4 285.2 295 298.5 296.7 296 296.6 302.2 322.7 342.3 358.3 371.5 379.1 376.7 376.9 383.5 386.8 391.2 399.8 408.7 409.9 412.9 405.2 405.5 406.6 411.7 417.4 419.5 418.1 413.5 409.6 404.3 393.4 386.7 379.1 367.8 357.2 343.5 322.3 309.3 301.1 290.9 279.9 272 275.5 276.6 267.9 263.9 265.4 263.5 265.9 267.2 269.1 275.4 282.2 285.2 289.8 295 297.1 293.7 292.5 290.8 300 312 327.2 345 364.1 381.5 389 394.2 397.6 398.7 397.5 398.2 401.2 406.2 407.4 406.5 407.3 410 419.6 433.6 447.6 459.5 468.5 481.6 490.2 494.2 496.9 497.4 489.7 477.8 463.4 443.1 418.7 392 363.7 335.2 308.7 305.8 312.6 315.5 322.1 336.7 352.7 368.9 380.3 387.6 392.4 398.6 399.4 392.3 413.3 441.4 463.5 482.2 498.8 523.5 542.9 561.4 577.3 595.4 616.1 635.1 652.8 667.6 681.1 692 699.9 705 703.7 699.4 694.1 690.1 686.8 681.6 675.9 681.4 683 683.4 678.4 646.2 628.4
265.5 270.7 277.3 284.2 290.4 298.2 308.6 319.3 319.4 317.9 322.9 327.1 330.4 333.1 334.7 326.1 321.1 314.6 306.9 283.4 264 242.5 224.1 208.2 194 173.2 162.3 161.9 174.8 170.8 170.6 168.9 169.3 174.8 181.6 183.1 182 184.4 187.4 197 209.9 220.5 231 242.1 254.2 267.5 279.3 292.7 306.9 324.6 331.2 331.5 326.2 320.1 311.8 301.3 291.7 285.9 288.6 299.7 307.8 309.4 307.4 308.1 309.8 319.8 341.2 357.8 371.6 382.5 386.6 388.1 394.1 397.7 395.9 396.6 400.5 400 401 394.4 393.8 401.4 410.8 416 417.3 415.7 411.6 405.4 399.1 394.1 389.1 381.9 368.4 356.5 346.5 338.2 324 314.8 303.9 287.8 273.4 266.8 272.5 262.7 259.8 262.8 263.7 266.2 273.4 277.7 284.4 290 294.3 299.9 307.8 313.7 310.7 301.5 297.8 298.9 304.9 318.5 340 357 373.5 383.6 387.2 387 385.2 384.6 385.2 387.1 389.1 390.6 391.7 392.8 406.1 420.8 436.8 451.1 459.8 468.4 478.1 486.4 489.5 490.2 488.7 481.6 470.5 455.7 432.8 409.2 382.5 354.7 323.2 308.5 313.3 318.1 320.2 329.4 344.2 359.6 375.3 386.4 399.6 408.6 413.8 415.9 414.7 416.8 448 471.3 490.4 508.1 529.7 548.1 566.5 585.7 601.1 621.4 641.1 657.7 671.7 683.7 695.5 708.4 712.1 708.2 703.5 700.5 698.7 695.2 690.8 687.1 690.9 693.8 694.4 690.3 675.4 657.4
259.9 266.8 273.3 279.4 286.4 296.5 307.4 317.3 317.9 320.3 323.8 327.3 331.3 332.7 332.9 329 322.8 314.1 301.3 277.8 257.8 234.3 219.5 206.8 193.3 177.5 162.9 162.8 177.5 174 173.1 171.7 171.2 176.6 184.5 188.6 184.7 188.4 191.8 194.1 205.2 216.3 228.1 239 251 262.4 271.9 285.7 298.6 312.3 325.8 327.9 327.4 324.4 320.6 315.4 303.1 296.1 294.1 303.1 315.8 322 323.1 321.8 323.1 326.5 336.3 356.1 372.1 381.1 387.3 393.4 398.5 400.6 397.1 392.8 389.8 387.4 384 381.9 385.8 401.9 412.1 414.9 414.5 412.2 406.6 397.5 397.6 395.2 388.2 378.9 368.4 359 353.6 348.9 337.3 323.2 310.4 294.8 279.3 269.3 260.5 256.6 263.5 269.2 272.3 274.5 279.3 283.8 289.2 296.2 303.5 313.4 322.7 328.3 326.6 312.3 303.1 298.2 304 310.9 332.8 352.1 366.8 377.1 377.6 374.6 370 370.3 371.3 373.1 375.2 377.3 379.3 394 405.8 424.9 441.1 452.4 461.3 468.6 475.6 482.1 486.4 486 482.6 474.9 465.1 447.8 423.9 399.7 372.1 344.9 315.5 312.3 318.2 323 328.3 337.8 351.1 367.5 382.9 395.5 410.7 419.6 426.7 430 434.6 436.8 447.9 475.3 496.2 516.5 531.7 553.7 574.1 592.1 607.8 627.2 647.1 663 676.3 688.6 699.3 708.7 712 711.2 709.2 706 705.9 701.7 698.2 697.1 699.6 701.8 701.9 701 697.6 688.4
257.9 263.8 270.6 277.4 286.2 296.2 303.9 307.9 311.4 316 320.6 324.3 328 330.6 331.8 327.7 318.6 309.4 292.6 270.3 249.8 229.9 217.1 204.1 190.3 177 163.4 161.8 178.8 176.9 175.6 175 174.2 178.7 187.7 193 189.1 187.4 192.2 199.4 200 212.1 225.1 236 246.6 256.2 264.8 277.3 291.4 303 315.9 320.5 323.9 328 327.5 323.8 317.2 305.4 303.5 307.2 318.6 331.6 336.7 338 340.9 342.7 349.2 353.3 368.3 379.9 386.5 392.3 396.1 396.9 392.6 381.5 373.5 372 372.5 376.1 387.4 402.7 409.5 414 410.2 405.9 398.1 390.4 390 389.2 382.1 372.5 363.3 356.6 352.4 355.4 343.7 321.2 304.4 289 273.8 267.9 255.6 257 269.3 273.7 277.3 280.7 285.3 289.2 294.9 304.3 316.9 327.4 334.4 337 334.7 323.9 310.2 306.1 306.3 309.1 318.9 338.4 358.9 365.5 362.2 356.9 354.1 357.1 359 359.9 363.6 367.8 382.6 394.1 413.6 429.7 442.5 453.1 461.2 467.2 473.2 477.4 481.3 480.6 477.4 470.9 459.1 440 414.5 389.7 364.3 337.6 315 317.3 321.5 326.6 332.8 342.4 357.2 373.9 389.3 402.3 418.2 428 435.7 441.5 446.3 455.8 465.2 476.8 496.1 519.5 537.7 556.7 578 595.9 610.5 633.5 651.3 668.1 681.9 692.7 701.6 709.1 712 712 712.5 712.3 710.1 707.4 705.9 705.1 707.7 709.5 710.3 710.8 710.2 707.6
255.6 261.6 269.1 276.7 285.7 293.4 298.2 301.9 306.5 314.2 318.7 321.9 325 323.2 319.7 313.2 307.7 295.7 278.1 259.6 244.7 225.7 212.8 200.8 187.8 177.5 164.5 162.3 171.6 180.3 176.6 178 177.5 181.6 190.9 197.1 197.6 192.6 190.9 200.2 210.1 210.3 220.4 230.4 240.2 249.8 259.2 270.4 284.3 294.4 304.1 312.3 319.1 328 333.7 331.7 327 320.7 314.6 316.3 323.4 335.9 349.5 354.3 355 357.5 362 367.1 371.3 380.4 386.6 390.5 391.5 389.8 379.9 367.4 362.1 361.3 367 378.5 391.6 400.3 404.8 405.7 404.7 399.5 388.8 381.8 380.8 380.5 374.8 364.1 355 348.7 344.3 340.7 329.6 310.9 293.6 277.8 266.8 253.2 254.9 269.8 278.7 282.7 284.5 286.4 291.2 296.5 304.5 318.7 329.7 337.7 342.8 343.8 342.5 336.3 321.8 311.8 308.2 311.4 314.6 321.3 340.4 338.7 340 337.4 340.2 343.8 348.6 357.3 365.5 374.2 383.3 391.5 415 430.4 442.2 451.8 460.5 466.6 470.9 473.9 475.5 474.7 472.2 464.5 451.3 431.5 407.9 383.6 360.3 335.8 317.3 320.7 323 329.6 337.5 346.2 360.4 377.9 395.5 408.5 423.3 434.3 442.1 451.7 457.6 472.9 486.3 500.3 510.3 520.5 541.8 562.1 583.4 600.6 618 636.3 655.4 673.1 686.2 697.1 704.9 710.9 713.4 715.1 716.1 716.3 714.7 712.9 713.6 711.7 714.9 717.7 719.1 720 720.5 720.7
252.7 258.4 266.5 274.8 282.7 288.8 292.1 297.1 303.5 311 316.5 318.3 320.1 315.7 309.1 306 299.9 285.4 268.1 250.1 234.8 219.1 208.5 198 186.6 176.6 164.5 164.9 165.7 181.3 176.9 178.8 180.5 184.9 193.8 200.3 201.3 201.2 203.2 200.7 217.4 219.1 221 228 239.3 248.9 256.7 265.9 275.4 286.6 296.3 305.6 316.9 327.2 335.9 338.8 337.4 332.9 327 327.2 333.2 343.4 352.9 363.8 366.5 369.5 373.4 378.1 381.6 381.6 385.7 387.7 385.3 379.8 366.4 357.2 353.7 358.4 367.1 377.1 390.5 396.5 399.1 400.9 397.9 388.3 377.2 367.9 368 370.5 365.5 355.2 341.7 332.8 330.7 324.3 315.5 298.8 281.9 267.7 253.9 253.3 266.6 278.9 287.4 290 291.3 295.5 300.2 306.9 316.4 329.4 340 347.2 350 349.4 348.6 343.1 333.3 321.2 313.5 310 316.9 320.4 324.6 326.7 330.6 338.5 343.9 350.7 355.5 362.9 372.7 382.2 394.3 409.2 406.6 428.7 441.8 452.1 460.2 465.6 469.3 471.6 471.2 468.3 463.4 456.8 443.5 421.1 397.6 376.2 355.3 328.9 319.9 323.6 325 331.9 344 359.3 369.9 383.4 402.1 415.6 429.3 440.2 451.4 459.5 472.2 487.5 500.4 514.1 527.9 541.2 550.9 567.8 588 604.8 623.6 642.5 662.4 676.6 689.9 700.3 707.2 712.6 715.1 717.8 719.8 719.6 718.1 718.7 719.4 720.7 723 725.7 727.4 728.9 730.7 731.9
250.2 255.1 261.9 271.4 278.2 282.7 286.1 292.3 300.6 307.9 313.3 314.8 314.4 306.3 299.2 297.8 285.7 272.3 255.6 237.9 223.6 215.3 205 194.8 184.1 173.3 165.3 165.3 165.5 179.9 178.1 179.7 182.9 187.8 198.1 205 206.1 204.7 206.6 204.1 218 226.4 226.8 232.5 241.1 249.4 256.6 263.1 270.9 280 292.3 303.2 317.2 326.4 335.7 342.1 343.1 341.1 337.7 337.8 343.5 353.4 362.1 369 376.3 379.2 381.8 385.4 390.1 389.5 387.6 384.5 379.1 370.8 356.1 347.7 342.8 354.6 365.3 375.9 384.9 394.7 395.4 394.4 387.4 375.6 361.6 351.5 351.5 356.5 354.4 343.2 328 314.4 316.1 310.4 299.8 284.4 268.8 261.1 251.7 262.5 273.7 286.4 294.2 297.4 301.1 306 314.3 323.4 332.3 340.8 349 353 354.4 354.1 351 347.4 343.7 336.1 329.5 322.4 320.2 324.4 328.7 334.6 339.6 346.9 354.1 361.8 367.6 375.4 383.9 396.2 410.3 423.6 431.8 430.5 444.9 454.7 461.7 466.4 469.5 469.4 467.4 463.3 456.4 446.2 432 410.6 387.9 369.8 352 324 323.3 326.7 328.1 335.1 352.5 369.5 385.4 397.4 412.4 424.9 435.6 445.6 458.7 470.1 482.2 496.6 510.8 529.2 543.6 557.5 570.9 580.2 591.5 611.2 630.7 647.1 664.2 679.6 691.7 700.8 709 713.9 714.9 718.9 720.3 721.6 721.8 723.8 725.4 727.4 729.8 733.3 735.5 737.8 740.6 742
247.7 252.4 257.9 265.3 272.8 275.9 283.1 291.1 299.3 305.4 309.7 311.6 308.5 301.3 295.2 282.5 270.1 259.1 242.7 226.4 219.7 211.5 199.2 191.1 183.5 172.3 165.6 165.8 166.1 164.5 179.5 181.7 185.6 190.8 202 211.5 212.2 209.5 208.3 205.1 219.7 230.8 234 236 243.8 252.4 260 265.8 271.8 280.5 292.4 303.9 315.4 325.2 333.1 338.6 340.3 342.1 343.9 347.4 352.9 363 372 377.2 383.4 387.7 390.3 391.9 394.2 394.3 389.5 383.3 374.4 364.8 348 336.9 339.3 347.6 361.7 371.6 382.5 390.8 393.6 390.9 383.1 368.8 348.1 333 334.4 342.8 340.8 329.6 315.5 299.5 294.8 290.4 281.5 269.1 256.7 250.4 253.1 268.6 280.5 293.1 301.1 308.4 313.8 320.3 329.1 336.5 344.3 350 355.3 358.3 357.4 356.2 353.1 350 346.2 342.3 341 337.8 336.7 339.1 344.8 348.9 354.5 362 370.9 380.6 390.9 400.2 409 420.8 433.6 440.8 446 448.3 452.2 461.1 466.2 469 469.9 467.6 463.1 456.2 447.7 436.5 420 398.5 378.2 358.3 345.4 330.9 325.9 328.6 331 335.4 358.3 379.5 397.1 411.8 422.1 433.2 443.2 452 464.5 478.3 493.5 509.5 526.2 542.6 555.1 570.7 584.3 596.5 609.4 622.6 638.1 655.3 670.3 685.2 694.1 702.1 709 712.8 717.4 719 721.7 724.7 726.5 728.7 731.5 734.4 736.2 739.5 743 746.4 749.6 750.4
245.2 249.7 254.5 260.4 266.2 275.1 285.9 294.9 302.7 307.7 311.1 311.7 307.7 297.7 283.2 264.6 252.3 244.2 234.2 223.5 218.1 208.8 195.8 186.5 179 169.1 165.7 166.3 166.8 167.1 181.5 183.1 188 194.5 205.1 219 219.3 216.3 215.4 211.2 219.9 232.6 238.3 241.8 245.9 254.8 265.5 273.4 275.7 282.9 294 304 312.1 319.2 325.3 330.5 335.1 340.3 345.7 351.6 359.7 371.5 382.6 387.6 390.5 394.8 397.6 398.1 398.6 395.7 389.2 380.2 370.9 359 342.4 327.1 329.6 339.6 349.9 362.8 371.3 387.2 392.2 388.2 378.6 365.5 341.2 322 319 324.8 328.7 316.2 301.5 288.1 280 274.1 263.4 251.3 247.8 250.1 265.2 274.5 288.9 299.6 309.8 319.8 325.8 333.4 341.5 348.3 354.4 357.3 360.4 359.3 357.5 355.7 352.8 349.5 346.4 345.4 345.5 345.8 349.7 354 359.4 367.6 374.2 382.6 392.9 403.1 415 425 432.8 443.7 450.7 455.5 459.4 462.2 463.1 467.6 471.4 472.3 470.9 467.2 460 449.5 438 423.9 405.6 387.4 382.9 366 347.1 335.8 331.7 332.2 332.9 337.1 360.6 386.2 406 421.2 431.4 440.1 449.9 456.8 471.9 485.8 505.2 521.4 538.8 554.3 568.1 583.1 598.2 612.2 623.5 632.7 647 661.7 675 685.7 693.5 701.6 705.5 710 716.6 718.7 721.7 727 730.4 734.2 737.4 739.4 743.7 746.7 749.6 753.5 756.3 757.3
241.7 247.1 253.6 261.8 269.1 278.3 290.2 301.6 309.6 313.1 316 315.3 311.6 301.8 285.6 267.5 252.4 244 237.5 230.3 220.9 208.1 195.9 186.3 178 167 166.6 166.9 167.4 166 180.5 184.1 189.8 197.6 209.7 226.8 227.7 223.5 219.7 214.4 219.9 232.1 243.4 247.1 249.3 257.6 267.7 275 277.1 282.5 292.2 296.8 303.9 311.3 317.2 322.9 331.7 340.1 348.2 356.1 365.8 378.8 391.7 398.4 400.4 399.8 402.4 400.8 399.2 394.4 384.4 372.5 361.2 352.8 339.6 322.9 319.9 327 339.8 353.7 363.8 373.5 386.7 379.8 372.9 362.3 337.6 319.3 300.1 308.3 310.6 301.7 288.3 276.5 265.7 257.9 245 248.8 259.8 265.8 272.8 283.2 295.2 307.4 321.8 331.9 338.5 347.7 354.5 358.6 360.2 361 359.4 357.5 354.8 352.5 349.3 346.9 345.4 345.7 347.4 352.1 358.2 364.8 372.3 381.7 389 398.2 407.1 417.9 428.9 438.2 445.6 455.7 462 466.6 470.8 473.5 474.9 475.6 477.4 477.5 473.7 467.8 459.8 450.5 441.2 426.5 418 409.4 387.9 369.4 350.1 338.5 336.8 336.3 335.6 340.6 358.1 389.5 411.1 428.1 438.3 447.8 456.8 463.6 477.9 492.5 512.4 532 549.5 564.3 579.7 597.4 611.2 624.3 634.4 645.2 656 667.5 679.6 687.7 693.4 699.9 705.3 710.8 715.7 719.3 723.4 729.5 733.3 740 744 746.7 749.3 752 755.9 759.3 761.8 762.7
240.8 246.6 254.2 263.2 272.8 284.7 297.4 308.8 315.2 318.9 321.1 320.7 316.9 306.5 291.8 275.1 261.5 251.3 243.4 234.7 224.2 211.8 198.2 187.8 179.1 167.2 167.6 167.2 167.9 167.2 179.4 183.4 191.2 200.6 214.6 232.1 238.1 230.3 225.8 221.8 221.8 230.7 247.2 250.7 252.8 255.2 263.2 266.9 271.6 277.4 282.8 288.4 295.4 304.5 314.6 323.5 331.1 340.7 351.7 365.3 374.7 384.5 395.7 402.9 407.4 405 403.6 401.7 395.6 389.8 376.9 362 351 348.3 338.6 326 310.7 317.9 327.7 341.6 357.5 367.2 370.2 367.4 364.7 356 339.2 316.6 293.9 287.7 293.3 288 276.6 265.8 255.4 242.9 250.9 260.4 266.3 273.1 281.2 291.4 304.3 321.2 334.1 345.4 355.8 360 368.6 365.5 362.2 360.6 357.7 353.9 349.2 345.9 344.2 342.8 341.6 343.7 347.9 355 362 369.5 380 388.7 396.4 407.2 416.4 427 437.4 446.6 454.5 462.3 468.6 473.9 478.4 481 482 482.8 483.8 482.9 479.9 474.7 468.4 462 452.1 441.7 430.8 412 389.6 369.6 353 342.1 341.1 340.2 337.9 343.5 356.2 385.8 411.6 430.4 443.3 453.7 464.5 471.8 483.6 498.8 519.6 541.6 559.3 575.1 591.5 609.1 623.4 636 645.7 655.6 663.6 674.9 683.9 690 695.8 700.5 705.6 711.1 715.7 719.8 725.3 731.2 735 744.1 748.6 751.2 753.4 756.4 760.2 764 766.6 767.1
240.8 246.9 254.2 265.1 278.8 292.7 304.8 314.7 321 324.9 326.8 326.6 322.8 311.5 298 284.5 270.9 258.6 248.8 240.5 229.1 216.1 200.9 189.3 179.7 169.2 167.9 168 168.3 169.2 178.4 183.7 191.6 202 217.6 236.2 250.7 241.3 232.4 226.6 223.6 230.6 242.9 250.4 252.3 254.9 259.5 263.9 267.7 275.1 281.9 289.7 298.2 308.2 317.3 326.1 335.9 343.7 355.3 372.5 384 391.9 401.2 407.7 409.6 406.7 405.2 400.7 392.8 381.2 367.1 354.4 341.7 335 332.6 321.8 308.6 310.9 320.5 332 345.8 362.1 363.3 354.4 350.4 344.2 333 318 297.7 276.4 275.1 272.6 263.7 252.8 242 244.9 260.3 269.1 276.5 285.8 292.7 302.2 314.7 334.8 348.3 361.6 366.3 373.6 371.5 366.5 360.6 355.6 351.6 347 341.8 338.6 337.3 336.5 337.9 341.1 347.6 355.4 364.4 373 384.5 392.6 401.6 414.1 423 433.2 442.9 451.7 459.5 466.3 473 478.8 483.3 486.1 488.2 488.6 489.5 489.2 487 482.6 476.9 470.1 460.7 451.3 434.1 411.8 389.8 370.4 353.3 345.2 344.3 344.3 344 345.1 350.6 374.2 408.9 430.5 446 457.5 469.1 477.1 487.9 506.2 527.4 548.1 567.6 585.4 601.7 619.2 633.9 647 655.8 664.7 675.4 682.4 687.6 695.3 698.9 702.8 706.6 711.2 717.2 721 727.5 732.6 738.7 746.6 751.5 753.7 756.1 759.9 764.6 768.2 771.1 771.1
240.7 248.6 255.9 267.5 283.4 299.9 310.8 319.6 325.7 331.7 332.9 331 327.4 318.8 304.4 291.3 280.2 266.9 252.3 246.3 233.3 219.3 204 190.3 179 171.5 169 168.8 168.3 168.5 178 183.2 191.1 202.3 220.1 246.5 263.1 254 240.9 232.5 227 230.5 238.5 245.3 249.6 247.5 257.5 261.9 266.4 274.3 283.8 292.6 303 310.9 318.2 325.8 339 349.1 358 372.5 392.2 397.5 406.4 414.3 413.7 409.3 403.6 399.6 391.2 379.5 361.2 347.1 334.8 326.7 322.2 313.2 302.4 303.8 313.6 324.9 334.4 350.3 357.1 344.3 333.3 326.9 320.1 311.6 298.3 278.2 263.5 258.7 250.1 239.1 240.1 250.6 267.5 282.2 296.7 302.4 306.3 317.6 332 346.2 357.8 366.8 370.9 374.2 369.2 361.6 353.9 348.8 343.7 339.2 334.4 330.9 328.9 329.8 333.2 338.6 346.7 357 366.2 374.8 386.5 396.9 407.6 418.7 428.5 437.7 446.5 454.6 462.1 468.8 474.8 480.4 485.5 489.7 493.1 494 495.6 496.3 494.9 490.2 485.1 477.6 470 459.9 436.6 413.3 390 368.7 352.3 348.5 347.9 348.2 349.2 349.3 350.2 368.3 402.4 429.5 446.6 460.6 473.3 481.8 489.9 510.1 529.7 553 572.8 592.8 610.3 628.5 644.5 656.7 665.8 675.2 687.8 691.6 695.9 699.6 702 704.5 707.4 710.3 714.7 719.9 728.3 732.6 739.3 746.8 752.8 756.4 758.8 762.4 767.2 771.4 773.9 775.5
240.6 248.6 257.5 269.8 285.9 302.6 314.6 321.5 329.2 336.3 336 332.8 325.7 316.1 305.8 294.3 284.8 274.1 256.1 243.2 233.6 219.7 205 191.6 182.1 175.5 170.9 168.9 169 169.2 172.8 180.2 189.2 203.7 221.4 255.9 268.3 261 250.8 238.6 231.6 229.3 236.1 239.4 235.3 249.9 257.5 261.7 265.7 272 282 293.7 301 314 314.3 320.2 337.4 348.7 358.2 370.7 388 398.7 406.1 410.7 414 410.6 404.7 399.4 391.9 379.8 364.8 349.1 336.5 327 316.2 304.5 294.5 295.1 304.7 316.7 327 338.7 354.4 340.9 319.9 308.3 303.4 300.3 291.9 275.4 260.2 246.3 236.4 242.8 252.3 264.3 280.4 300 309.9 316.3 325.2 336.8 345.5 356.8 365.6 368.2 373.9 369.7 363.7 355.5 347.1 340.3 332.7 329.5 325.7 323.8 322.5 324.7 329.5 337 346.7 356.4 365.7 376.3 386.8 398.3 410.6 421.6 431 440.3 448.8 455.5 462.9 469.8 475.3 480.3 485.6 490.6 495.4 498.4 499.5 500.4 499.8 497.5 492.3 485.3 476.5 460.4 435 412.6 388.9 369 353.6 351.5 351.5 352 353.3 354.1 356.7 359.9 393 422.4 446.3 461.4 474.7 483.4 494 511 534.3 556.9 578.1 598.4 616.9 637 653.5 664.8 673.6 683.3 694.2 698.5 701.1 702 704.9 705.4 707.9 709.6 713.6 718.1 725.3 731.6 740 746.7 752.2 756.6 761 764.8 769.2 773.8 776.5 778.7
242.2 252.1 263 272.9 287.8 302 313.7 322.3 332.1 336.4 334.3 329.8 321.5 308.8 296.8 285.7 276.6 266.8 253 238.3 227.2 215.6 202.7 190.8 184.4 178.1 171.8 169.9 170.3 169.9 169.3 176.3 184.9 199.4 215.8 250.3 258.9 260.5 255.4 244.1 235 230.2 229.8 229.7 233.7 244.3 253.1 258.3 260.4 265.3 274.5 285 291.1 298.2 298.9 306.1 320.2 331.8 343.7 360.4 381.1 391.7 396.6 398.4 402.1 401.6 400.6 401.8 398.8 390.5 377.1 357.3 342.9 330.7 319.4 308.1 295.4 287.2 294.7 308.7 318.9 330.8 342.9 340 319.7 299.8 288.1 281 282.1 271.4 254.8 237.5 237.2 250.6 261.2 276.4 297.7 316.1 324 333.4 341.2 347.7 356 362.5 366.2 372.7 369.6 362.8 356.4 348.2 338.6 331.3 324.5 318.7 316.5 315.9 316.2 320.2 326.7 335.8 346.1 355.8 365.7 374.1 384.4 396.6 410.8 422.3 431.5 440.8 448.3 454.9 462.7 469.9 475 479.7 485 489.6 495.6 500.2 502.4 503.6 503.4 501.8 497.9 488.5 475.4 450.4 430.9 407.1 387.9 369.8 357 354.9 354.8 355.8 357.1 358.5 360.7 361.1 374.4 405.3 440.4 460.9 474 484.5 496.5 515.9 536.8 559.9 584 603.8 623.2 642.6 659.6 671.1 679 688.6 699.1 702.8 703.9 704.4 704.8 706 706.5 706.2 710.4 714.4 721 729.4 738.1 744.8 749.9 756 761.2 765.5 770.3 774.8 778 781.3
247.5 258 268.8 284.9 293.1 304.8 314.1 322 330.3 334.7 332.1 323 312.1 302.4 290.3 275.5 264.8 256 248.2 232.2 220.3 210.1 199.9 197.5 188.9 181 174.5 171.6 172 171.4 170.8 171.1 179.4 189 206.7 233.1 246.7 254 257.5 250.4 238.1 228.9 223.3 215.1 225.5 233.2 241.1 246.9 246.8 253.5 262.5 267.6 276.5 278.7 278.5 291.7 302.4 318 334.6 354.2 372 381.1 383.2 383.8 386.8 391.1 395.2 398.7 399 390.1 380.2 365.1 351.9 339 321 310.3 296 283 288.5 300.4 313.3 323.5 334.9 339.2 321.7 301.4 284.9 270.8 263.8 258.8 244.7 235.4 245.5 257.1 269.6 287.5 309.2 329.5 339.9 344.2 353.9 357 360.9 366.9 371.2 368.9 363.2 356.8 347.9 339.8 330.6 323.3 317.9 311.8 308.9 308.3 311.3 316.6 324.1 333.4 343 352.6 362.6 370.5 379.2 393.1 408.3 421.2 431.7 440.5 447.6 453.7 460.4 467.1 473 477.8 482.3 486.2 493.3 500.1 504.3 506 507.2 505.2 502.6 493.4 477.9 457.7 434.6 412 391.1 372.3 359.4 358.8 358.5 359.5 361.1 362.1 364.1 367 363.4 399.3 430.3 456.6 474.5 485.6 498.2 517.2 535.8 563 587.7 607.4 627.5 645.8 663.2 674.5 683.4 691.2 698.1 705.7 705.5 704.9 704.2 703 702.6 700.4 704.2 708.8 716 725.7 733.5 741.1 746.8 753.2 760.3 764.9 769.4 774.8 778.6 781.9
254.5 265.7 279.1 291.4 302.8 309.8 317.1 324.6 331.7 334.2 333.6 319.2 303.6 292.2 281.5 267.6 257.2 247.6 237 226.7 217 210.2 205.5 201.6 192.6 184.2 176.6 174.2 173.3 173.1 170.4 171 171.3 175.7 191.6 209.1 221.4 236.3 246.7 241.8 232.8 222.5 216 203.7 213 220.4 225.6 228.8 231.9 238.3 245 251.8 258.4 260.3 267.4 279.3 293.3 313 334.8 354.4 367.9 366.5 364.8 365.6 371.1 380.4 388 394.1 393.8 385.9 376.9 366 355.6 341.4 323.9 310.2 297.7 282.5 285.9 295.4 308.5 318.1 327.5 332.6 322.9 306.8 287.9 272 258 246.9 233.9 234 249.5 262.8 276.9 295.4 320.2 337.8 342.1 354 359.4 359.9 367.2 371.7 367.5 362.3 354.9 348.1 340.9 332.9 323.3 317.2 311.2 306 302.4 303.4 307.2 313.7 321.5 328.7 336.2 345.2 354.9 363.9 373.4 386.3 404.6 419.7 430.2 439 446.2 451.7 456.8 463.6 469.1 474.2 478.6 482.7 487.8 496.6 502.8 505.9 507.2 508.2 505.7 497.1 481.2 458.3 435.7 414.6 394 377.6 363.7 363.4 361.7 363.5 365.4 366.7 368.3 371.1 369.3 392.4 420.6 450.3 470.2 483.6 496.7 517 538.7 563.4 591.2 611.8 630.7 649.7 665 676.6 685.1 691.6 696.1 707.3 705.6 703.1 701.1 697.7 691.4 688.2 692.5 699.7 710.9 721.6 729.1 734.8 744.5 751.6 757.8 761.3 767.4 772.1 777.9 781.2
262.9 274.9 287.9 299.7 308.7 315.7 321.6 327.1 331.9 336.6 335.4 320 301.8 287.7 274.8 264.3 254.2 242.7 233.5 226.5 220.3 215.6 210.5 204.8 197 187.7 179.9 176.7 175.1 175.3 175.7 170.9 171.8 172.3 174.8 188.8 199.7 205.8 217.9 217.7 214.2 210.7 205.7 197.2 201.8 206.7 211 213.8 219.8 226.8 232.2 238.1 243.6 251.6 263.9 276.7 294.2 314.9 333.8 350.1 353.4 346.6 343.7 346.8 354.7 366.7 377 384.2 388.3 384.8 375 361.3 347.9 334.9 320.9 305.5 290.7 279.6 283.3 290.1 301.4 310.8 318.3 325.6 316.8 302.8 288.5 272.3 256.5 243.1 233 233.6 252.1 265.8 288 306.3 324.4 335.4 340.8 352.5 356.6 359.3 363.8 366 361.6 355.6 348.3 339.6 333.4 326.4 319.3 311.9 305.5 300.9 297.3 299.1 304.5 312.4 316.8 320.9 327.4 335.7 344.9 355.9 367 380.6 399.6 415.8 427.9 436.4 443 448.2 453.2 459.9 465 469.5 473.6 478.2 483.5 489 495.3 503 505.1 506.9 506.6 500.8 486.2 463 439.2 418.4 398.3 382.2 367.9 368.4 365.9 367.7 370.4 371.8 373.2 375.6 377.1 384.5 411.7 432.9 455.2 480.8 495.4 519.1 541.4 567.1 595.1 614.7 633.1 651.1 664.7 679 685.4 691.2 701.3 708.2 703.9 699.9 692.4 686.1 676.6 665.5 664.6 682.4 699.5 712.7 723.1 733 740.5 747.6 756 760.1 764.6 770.4 775.6 780.2
270.8 282.2 295.8 309.6 315.7 321 325.5 330.9 335.2 338.4 337.6 324.3 308.7 291.2 276.7 265.6 256.4 248.1 239.8 231.5 224.2 219 213.7 207.8 200.8 190.9 182.5 178.5 179.2 179.5 178.4 172.2 172.1 172.6 173.5 175.8 183.8 184.5 188.6 190.2 192.6 194.5 194.8 189.4 193.3 196.2 201 205.2 210 217 222.6 227.1 240 249.9 262 275.4 295.4 315.3 333.7 342.8 334.2 326.2 322.8 324.4 338.2 357 369 376.5 380.1 375.8 367.6 354.7 340.8 328.1 313.9 300.1 284.3 271.6 279.2 284.6 293.9 300.3 307.3 312.5 312.3 297.6 285.5 269.9 254.7 236.6 231.2 237.1 252.2 266.6 284.9 301.8 319.4 330.2 335.5 347 348.3 350.7 356.3 359.5 354.8 348.7 340.9 332.5 326.7 321.7 316 308 299.3 294.6 291.9 295.3 302.8 308.5 309.6 313 319.4 327.4 336.5 348.1 360.4 373.4 390.1 407.4 421 431.3 438.2 443.4 448.6 455.1 459.7 463.8 467.9 472.3 477.2 484.6 490.5 495.9 501.1 503.6 504.1 501 490.3 468.6 445 423.5 402.1 385.6 374.2 380.7 377.9 373 374.6 377.2 379.5 381 381.2 379.6 404.5 434.3 458.2 480.6 497.6 520.4 544.9 569.9 593.6 614.4 632.5 649.4 662.8 674.7 682.3 687.7 690.9 695.8 699.1 691.4 679.3 667.1 655.2 642 641.1 660.7 682 700.3 719.7 729.8 739.9 746.9 752.6 756.6 763.1 767.9 773.5 778
272 284.3 298.2 309.7 319.9 327.4 331.8 336.6 339.8 342.8 341.2 329.1 312.3 296.6 283.2 271.9 262.6 255.1 248.1 237.1 228.1 221.3 216.7 210.6 200.9 190.7 181.1 183 184.7 183.5 179.8 172.6 172.5 172.7 173.3 173.3 174.7 174.8 173.4 174.3 176.2 176.3 178.6 182.1 187.3 190.8 195.6 198.7 202.6 207.9 214.4 225 235.2 245.8 257.3 275.5 295 313.8 329 330 319 309.7 307.7 311.9 326.8 347.2 359.4 367.5 371.7 369.2 361.6 349.4 334.7 322.3 305.8 291.2 278.5 264.4 271.5 277 284.9 290.7 297.6 305.6 307.3 296.9 282.3 268.2 253.9 235.8 229.8 241.1 252.3 265.4 279.8 294.9 312.8 324.5 330.3 339.5 339 340.9 350.1 348.9 345.5 338.1 331.4 324.8 319.2 315.2 310.9 303.9 295.7 289 287.9 291.7 297.9 300.4 302.1 306.1 312 320.5 331.4 342.2 354.9 367 380.5 396.7 411 422.5 430.5 437 443.2 448.6 453.9 458 462 467.4 472.9 481.2 488 493.8 498.2 501.1 501.3 499.1 492.3 476.4 451.1 425.2 405.7 387.6 378.9 394.7 396.7 385.9 380 382.4 386.1 387.7 386.7 384.7 396.2 429.6 455 478 497 520.9 545.4 569.4 591.7 611.1 629.1 643.9 657.1 668 674.9 678.3 681.9 681.4 679.9 674.8 662.6 644.7 628.6 615.1 621.9 639.3 659.3 688.7 716.1 728.3 738 744.4 749.7 757.3 760.4 766.7 771.7 775.3
273.5 287 302.1 315 324.5 331.6 334.4 339.1 344.2 350.4 348.2 332.7 314.8 301.6 289.5 278.9 270.1 261.9 256.9 243.8 230 221.4 216.5 209.9 198 188.2 185.6 189.3 190 187.2 183.5 184.8 178.4 176.7 182.5 179.5 179.7 180.5 176 176.4 177.5 176.6 177.5 178.4 179.8 183 190 192.6 195.6 199.6 209.3 217.9 228.3 239 251.2 268 286.3 303.3 318.6 319.5 307.1 297.2 296.3 303 324.4 338.2 349.5 356 364 364.1 358.8 348.9 333.1 318.9 304.1 289.7 275.4 260.3 264.2 268.9 275.1 281.1 286.2 294.3 300.3 296.5 281 267 254.4 238.8 227.8 240.1 250.7 262.7 275 288.4 308.5 317.2 323.5 331.4 328.7 331.6 340 338.6 333.6 328.3 323 317.3 310 305.5 301.5 296.5 292.1 286.3 281.4 287 290.5 292.1 294.6 299.1 305.4 312 323 335.1 345.9 359.3 372.8 385.6 398.8 410.1 420 428 435.1 441.7 448 452.5 456.8 463.2 469.2 478.9 485 490 494.9 497.7 497.2 495.7 493.2 481.2 457.6 429.8 407.1 386.9 392.1 413.1 417.6 402.4 394.7 391.2 392 395.1 393.4 393.7 392 420.2 456.1 476.6 493.2 516.2 541.5 566.5 586.7 606.9 622 634.9 646.1 654.1 655.8 660.2 666.6 666.5 662.5 655.9 642.5 623.1 599.4 591.8 608.6 634.9 661.6 690.2 716.5 727.8 736.8 743.9 748.9 754.8 760.7 766.7 770.3 774.6
272.4 289.2 303.2 316.7 323.7 328.6 334.3 338.5 345 349.5 349.4 336.3 318.4 303.8 291.9 280.8 274.2 265.3 254.1 241.4 228.1 218.7 213.1 206.3 197.8 188.3 192.8 195.9 195.8 192.6 188.9 188.6 191.1 191.3 188.3 185.6 186.1 187 186.7 177.7 177.2 178.1 177.3 178.6 179.4 179.8 181 181.9 183 187.3 202 211 220.8 230.8 244.2 256.7 274.9 293.7 303.1 304.1 293.6 285.1 284.9 296.8 312.7 326.7 338.8 344.6 350.3 356.2 359.6 356.4 346.1 320.9 303.7 291.5 276.8 263 258.4 261.4 265.8 271.7 276.8 283.2 290.2 285 275.6 263.1 254 242.3 226.6 228.9 248.2 258.6 269.2 281.9 302.6 305.1 309.5 319.5 315.7 318.7 329.7 328.5 321.6 317.9 314.5 306.4 298.2 293.9 292.2 291.2 287.6 282.5 278.2 281 282.7 284.4 286.8 292.3 297.3 300.9 309.7 319.5 330.6 341.9 355.7 368.9 381.7 393 407.3 416.4 424.7 433.9 442.3 446.8 451.6 458 463.9 473.7 480.2 484 486 487.9 491.8 492.9 491.9 483.5 462.2 434.9 411.6 391.9 409.3 432.9 438.9 422.4 409.5 400.8 398 399.9 399.5 398.6 399.8 418.2 454.1 464.3 480.7 505.9 529.6 551.2 569.9 591.9 604 617 625 630.7 626.9 634.5 640.3 641.5 639.3 628.2 613.1 595.2 578.5 591.3 615.5 648.2 674.2 698.1 715.8 727.1 736.2 742.9 748.6 754.5 759.6 764.9 769.1 772.1
268.4 287.5 299.9 309.9 316.7 322.5 329.7 335.5 345.5 347.6 344.5 330.9 315.6 300.1 288.4 277.1 264.4 256.1 243.3 232.4 220.9 215.8 211.8 206.2 196 194.3 199.8 203.6 203.2 200.2 195.9 191.9 195.5 196.1 194.6 192.4 191.1 191.3 190.4 190.2 190.8 189.5 185.1 178.8 179.4 179.8 180.7 181.3 182 182.5 183.2 204 213 222.9 234.9 249.2 264.6 283.1 291.4 288.1 280.6 272.8 274.3 289 302.2 313 322 333.3 340.9 347.9 351.9 353.4 346 327.2 307.9 293.2 279.1 264.4 251.8 254.6 257.9 261.4 267.4 272.9 279.5 278.6 271 259.6 249 240.5 232.7 228.4 245.6 254 262.3 272.7 288.1 289.4 293.9 297.8 300.7 304.4 311.4 316.9 312.2 307.7 301.1 294 290.3 287.1 286.8 287.6 284.6 278.4 274.7 276.8 279.4 281.9 287.5 292.3 298.7 307.9 319.8 326.4 333.1 338.5 343.5 350.8 362.2 377.8 393.2 403.5 415.2 427.8 435.7 443 449.1 454.8 460.7 465.8 473 476.8 479.2 481.3 484.8 489.4 489.4 483.1 465.4 439.4 412.9 410.9 428 451.1 456.3 439.7 424.4 412.7 406.6 403.6 403.6 403.4 404.7 408.3 431 439.5 460.5 480.3 499.6 521.1 544.5 571.4 575.2 580.2 590 596.9 593.6 604.5 608.1 610.6 609.5 597.7 582.1 576.2 570.3 585.4 609.5 634.9 662.1 694.1 715.7 725.9 733.3 739.9 745.9 751 756.8 762.3 766.8 769.7
265.1 283.7 293.3 304 310.2 316.2 323.4 329.9 340.6 342 336 321.1 305.5 291.9 282.4 269.8 255.5 242.3 231.1 222.3 214.8 210.5 208.6 203 196.7 203.8 209 215.9 214.4 210.7 204.5 199.6 198 201.5 200.1 198.7 196.6 195.6 193.8 193.9 193.5 193.3 191.8 191.4 185.9 181.4 180.5 181.1 182.1 182.8 183.2 184.2 204.6 214.4 225 241 256.6 270.9 277 272.5 265.7 260.5 263.9 276.8 289.3 299.8 311 322.2 331.8 343.4 344.8 350.5 346.8 333.4 314.9 298.8 283.9 269.3 254.4 247.1 249.5 251.5 256.4 262.7 272.9 271.1 266.5 259.5 248.7 238.5 233.6 224.5 241 247.8 255 262.7 269 275.8 280.4 281.9 285 291.3 294.7 303.8 303.8 296.5 289.4 283.1 280.2 279 281.4 282.8 279.6 273.8 272.5 275.1 278.5 282.8 288.4 294.8 302.6 313.3 329.4 339.2 349.1 361 368.3 371.5 374.5 377.3 385.3 401.7 412.8 421.6 432.6 440.5 446.2 451.6 455.9 460.3 465.4 468.7 472.3 476.1 480 485.3 488.3 484.1 468.8 446.1 419.3 434 451.3 471.2 472.1 458 441 425.9 416.1 409 408.7 408.8 409.9 411.9 415.5 414.8 436.1 454 472.7 496.3 518.9 539.1 541 545.9 556.6 568.3 551 568.3 570.6 576.7 578.3 569.1 561.2 562.7 571.9 576.9 600.1 632 658.9 691.3 713.9 723.5 729.6 736.3 742.1 747.7 753.3 758.3 762.8 766
263 276 286.5 295.7 302.9 310 317.2 323.9 330.1 333.8 330.5 314.4 296.1 281.7 272.9 265.1 251.8 237.3 224.9 217.3 211.1 205.5 203.2 204.7 208.2 212.2 219.5 229.2 229.1 221.9 215.5 208.8 202.5 204.8 206.2 205.1 202.8 200.6 198.8 197.3 196.6 196.4 195.5 194.2 190 185.3 180.9 182 182.2 183 183.6 183.9 194.8 205.7 216.1 230.8 247.5 258.1 261.4 257.2 252.7 251.4 259.9 270.2 280.3 290.8 302.7 313.8 322.7 331 335 341.9 342.4 333 319.4 306.8 294 278.8 262 249 241.9 243.3 244.8 249.8 257.9 259.8 258.9 255.2 248.5 241.3 233.9 221.6 234.4 240.8 246.2 250.2 255.8 261.7 265.1 266 273.2 280.4 283.3 286.2 290 291.3 288.4 277.6 272.8 272.2 272.8 273.7 272.7 269.4 271.5 274.5 279.4 283.8 289.4 295.9 304.5 316.4 332.6 347.6 359.6 373.9 385.9 391.8 395 398 402.2 408.8 414.9 421.8 431.3 439.5 444.3 448.5 451.8 456.3 460.6 463.8 467.4 471.8 477.4 485.4 488.7 486.3 473.6 445.9 450.4 460.7 476.2 484.2 483.1 474.9 457.2 440.3 428.2 421.9 417.7 416.2 418 422 424 424.9 429.3 435.2 451.6 470 491.9 506.5 508 511.2 510 511.7 515.4 533.2 536.5 538.9 545.4 553 565.6 581.1 586.6 592.8 600.2 626.3 658.4 688.8 710 720.1 726.3 732.1 739.5 744.6 748.5 752.9 757.4 761.2
263 270.6 279.9 288.2 295.9 304.2 312.1 318 323.8 327 324.8 311.5 288.2 274.2 263.3 254.9 246.5 234.9 221.6 214.3 211.5 209.9 211.4 212.9 215.3 223.1 230.7 242.1 242.5 236.7 226.4 219 210.7 206.5 211.4 211.5 210.3 209 206.5 203.7 200.7 198.5 200.4 198.2 195.2 191.4 187.4 191.3 191.5 183 183.3 184.1 185.2 195.6 206.8 219.5 236.9 249.6 245.2 242.9 241.2 248.8 257 266.9 276.3 285.8 295.3 307.2 317.9 322.9 326.9 330.6 333.4 329.5 320.6 308.9 298.6 284.2 270.7 256.2 244.8 236.7 237.1 237.5 242.3 248.5 251.1 249.6 243.3 237 227.7 218.9 223.9 230.4 235.3 240.2 246.7 249.5 252.8 254.9 263.9 270.1 272.2 274.9 278.9 284.1 288 289 272.2 268.8 267.9 268 267.4 268.1 269.9 274.5 278.9 283.4 288.5 295.9 304.9 317.3 336.8 354.7 370.1 384.3 395.2 403.4 409.8 413.5 417.6 421.8 426.9 430.5 435.7 439.6 443 446 449 452.7 456.3 460.8 465.7 470.7 478 485.5 489.3 488.7 472.5 473.6 475.6 480.8 487.7 491.9 492 486.5 475.9 460.3 445.4 436.1 429.4 427.8 429.2 433.7 437.6 443.3 451.7 454.5 447.3 452.6 465 467.3 472.6 489.6 510.8 522.5 536.4 554.8 560.3 567.9 573.2 577.7 587.3 606.4 620.7 633.2 613.7 629.2 654.7 683.8 705.1 718.9 726.2 732.4 737.3 741 743.9 748.3 750.9 753.5
268.3 274.3 282.8 289.8 296 302.3 309.6 316.1 320.7 323.3 320.4 307.8 285.2 270.2 259.3 249.3 239.1 228.9 220.3 215.4 215.9 215.2 216.7 220.2 225.1 233.5 241 252.6 255.6 250.8 241.2 229.8 219.1 210.4 215.6 219.6 219.1 218.5 215.7 212 208 205.8 204.6 203 199.5 194.1 194 197.1 196.1 194.2 192.1 184.5 185.2 185.6 198.5 209.4 224.4 234.4 233.5 232.5 237.3 245.6 253.6 264.5 274.5 282.7 289.3 298 308.6 311.4 317 318.5 322.8 321.7 313.3 304.1 293.3 281.2 272.7 262.6 250.5 242.7 235.1 230.5 229.9 233.9 240.2 239.9 235.7 231.5 218.6 220.6 222.9 224.5 226.9 229.5 233.8 238.1 242.2 246.8 253 258.3 261.1 265.5 269.8 275.5 279.8 281.7 280.3 271.5 267.2 265.6 264.4 265.8 269 273.2 276.6 281.1 288.3 295.1 305.7 319.9 339.3 362.9 380 394.2 403.7 411.6 421.1 426.1 429 431 433.7 435.5 436 438 439.9 442.3 444.7 447 450.5 459.3 466.2 472.5 479.8 485.5 489.3 489 485.2 482.9 483.6 486.5 491.5 496.1 496.4 491.4 484.9 476.1 465.3 454.6 448.1 445.4 445.4 448.5 452.5 460.4 472.3 487.2 484.3 486.6 485.3 484.9 500.8 521.3 542.1 562.8 571.2 584.1 591.6 601.5 607.1 610.1 615.5 631 647.2 653.9 621.3 640.9 664 691.8 708.9 720.7 729.3 734.6 737.1 739.9 741.1 743.8 745 746.5
