ncols 200
nrows 84
xllcorner 260000
yllcorner 205000
cellsize 50
93.1 90.7 88.8 86 83.3 81.8 81.1 81.4 82.4 81.6 78.3 74.4 69.1 52 61.9 62.5 61.6 62.5 61.9 58.7 55.6 52.9 49.6 44.5 39.5 38.5 36.7 31.3 25 17.8 13.8 14.2 14.2 14.4 14.3 14.3 14.2 14 14.3 14.2 14.2 14.3 18.9 22.7 27 31.2 35.7 41.3 46.1 56.9 68.7 86 93 96.1 108 119.6 125 130.9 139 149.8 159.2 163.4 164.2 162.6 159 149.6 132.7 113.2 96.6 85.7 78.7 82.5 83.7 84.9 87.6 90.2 98.8 108.4 114.6 120.1 124.2 126.4 131.4 137.5 142.2 147.3 149.7 153.2 157.2 161.2 161.9 163.2 164.1 166.4 168.3 169 168.2 168.9 166.2 167.4 171.8 174.9 177.9 180.5 184.7 188.8 196.2 197.7 193.7 202.8 213.6 220.7 233.2 249 258 265.9 282.4 299.6 316.1 330.9 341.5 346.2 348.1 349.9 352.2 355 356.9 358.4 359.6 360.8 360.9 359.3 356.7 353.5 349.1 342.4 335.4 328.4 320.7 311.3 301.1 289.8 271.8 255.7 261.4 260.6 258.4 257.3 255.2 250 243.3 235.8 228.3 220.6 209.8 207.8 210.9 207.7 206.8 207.9 211.3 217.8 221.1 223.1 227.6 232.8 240.8 249.4 256.9 264.3 274.5 283.4 293.4 302.9 310.2 315.7 319.2 320 318.6 320.2 322.8 325.1 327.3 327.9 322.2 315 301.2 282.7 263.9 250.4 239.3 225.1 202.8 187.3 173.4 175.3 185.6 187.9 175.7 164.3
91.8 89.6 87.5 85.5 83.7 83.1 83.8 83.8 82.4 80.6 78.1 74.5 70.4 64.3 57.5 51.3 57.8 56.4 55.7 53.1 49.5 46.7 43.7 38.7 34.7 34.1 32.9 28.5 23.6 14 13.7 13.7 13.7 13.8 13.9 13.8 14.1 11 14 14.4 14.4 15.7 19 23.1 27.7 32 37.2 42.4 49.1 56.8 73.2 87.2 91.9 101.2 114.6 120.1 126.1 134.1 147.2 154.1 159.1 162.8 162.6 161.1 159 153.3 146.8 130.3 114.9 101.3 87 90.8 98.1 101.5 104.3 104.1 104.2 104.2 104.1 104.3 107.4 111.4 113.9 116.5 119.5 122.7 127.2 135 143.1 148.1 151.7 153.5 152.8 152.7 152.9 153.8 156.3 167.8 176.4 182.6 185.9 187.9 189.4 189.4 192.6 192.6 190.9 195.3 201 209.9 217.3 227.2 244.1 253.6 261.5 273.3 292.2 309.3 325 336.2 341.2 344.2 345.6 346.7 348.7 350.7 352.7 354 355.2 356.9 357.5 357.3 355.4 352.4 348.8 342.5 336 329.2 320.8 312.5 303.1 292.9 281.7 263.4 244 244.1 247.8 248.4 247.9 245.8 241.5 234.9 226.5 217.8 208.1 203.9 204.9 205.8 212.4 217.7 215.5 219.3 223.1 225.6 229.7 234.8 242.6 250.7 258.1 268.3 278.5 287 297.7 306.7 313.3 317.4 319.1 319.4 319.5 320.5 321.6 323.6 326.5 328 326.9 319.8 307.1 291.6 272.1 254.6 242 224.9 201.2 185 173.1 179.4 187.4 187.4 177.5 164.5
90.5 89 86.3 85.6 85.5 86 85.5 82.9 79.8 77.9 75.9 73.3 69.9 65.9 60.8 51.1 52.6 50.8 50.4 48.1 45.4 41 37.3 32.6 28.4 28.7 28.7 26.1 21.7 14 13.4 13.2 13.2 13.2 13.4 13.9 13.5 14 11 14.3 15.6 15.8 19.6 23.4 28.5 33.4 39.2 46.1 53.7 64.8 80.5 88.5 93.8 108.5 116.5 121.2 127 138.5 147.6 153.2 156.9 160.2 160.1 159.3 158.4 154.8 149.5 142.6 129.2 115.7 101.2 95 103.3 108.6 113 116.5 118.3 120.8 122.7 124.2 126 128.2 131.1 133.8 135 138.3 139.4 136.7 132.7 137.2 139.7 141.9 150 161 162.9 169 178 188.8 196.8 202.6 204.6 205.1 204.4 203.7 203.3 203.6 205.1 205.9 209.6 215.2 224.8 237 246.9 255.8 268.2 283.8 301.9 319.1 331.9 337.5 340.6 341.8 341.9 342.9 343.8 345.8 347.5 349.4 351.2 353.1 353.6 354.1 353.5 351.1 347.8 343.3 337.1 330.4 321.6 313.8 304.5 295.1 285.8 274.5 262.1 248.4 231.3 232.2 236.4 238.3 237.1 231.9 220.3 210.5 204.3 201.4 207.5 212.6 218.4 223.1 222.2 222.4 225.2 227.7 231 235.7 242 249.2 257.4 269.9 281.1 289.6 303.2 310.8 315.6 319.8 320.4 320.2 320.7 321.9 323.5 324.6 326.5 327.9 326.6 322.2 310.7 296 276.7 257.1 242 226.5 201.4 184 171.8 182.5 187.4 186.5 176.5 163.9
89.6 87.1 84.2 85.3 85.5 84.8 83.7 80.8 77.1 74.4 72.5 70.7 67.9 62.5 55.1 49.3 36.5 44.5 43.4 41.6 38 34.4 30.7 27.3 23.5 26 27.9 23.9 19.6 14.1 14.1 13.5 12.9 13 13.7 13.6 13.9 14.2 14.2 11 14.2 15.3 21.4 25.9 31.4 36.6 43.3 51.5 59.6 72.3 84.3 89.9 99 111.1 117.5 121.8 130.3 140.9 148 152.5 155.8 158.8 160.3 160 160.9 157.5 151.9 144.3 135.1 125.5 112.4 95.6 107.1 114.5 119.8 124.2 127.7 129.5 132.8 135.5 138.7 142.3 145.6 148 151.1 153.6 156 156.8 156 154 153.9 164.7 168.2 173.4 181.4 187.6 196.2 207.1 216.2 221.1 223.9 223.9 223.7 222 219.9 216.5 217 217.9 221.8 226.5 236.1 243.4 251.5 263.4 277.8 295.1 313.8 327.1 333.7 337.1 338.8 338.7 338.6 338.6 338.9 340.6 342.2 345.2 347.6 349.3 350.5 351.5 351.4 349.5 346.5 342.2 337.3 331.2 323.7 315.4 305.9 296.5 287.6 278.9 269.8 261.4 246.2 228 221.6 229.9 232.1 226.2 212.7 203.2 201.5 209 215.3 219.1 223.4 226 226.3 225 227.6 230.5 233.7 237.6 245.8 255.8 267.7 272.9 280.8 293.4 304 311.4 316.1 320.8 322.3 322.6 323.2 324.1 325.6 326.7 326.8 326.9 325.6 321.4 310.3 295.4 276.7 256.2 241.2 225 202 182.8 172.8 184.1 186.1 185.3 175.6 163.2
86.1 84 82 82.7 82.9 82.4 81.1 78 74.2 71.1 68.3 66.1 63.5 57.1 49.4 43.2 39.8 33.4 35.3 33.4 30.5 27.4 24.1 21.8 20.9 23.6 25.4 21.7 17.4 13.5 13.3 13.4 13.5 13.1 13.3 13.4 14.2 14.2 12.9 15.4 13.1 18.4 23.2 28.5 34.7 43.4 51 59.3 68.4 79.7 87.3 92.3 103.1 111 117.7 122 132 141.3 148 151.9 156.1 157.8 158.9 162.4 162.8 161.1 156.3 147.2 138 128.5 118.9 101.9 113.5 121.9 128.1 132.2 134.2 140.5 148 152.4 155.8 159.2 160.9 162.7 165.3 167.2 168.5 170.2 171.7 172.7 175.9 180.5 185.2 189.6 196.7 204.1 211.3 221.9 231.7 237 240.1 243.1 244.5 242.4 238.9 235.1 233.4 234 237.4 240.9 243.9 250.9 260.7 271.3 287.5 308.2 322.5 330.2 333.7 335.4 336 335.2 334.7 334.1 334.6 335.9 338.1 341.2 344.1 345.9 347.2 348.5 349.1 347.6 344.8 341.1 336 330.9 324.7 316.8 307.4 298.6 290.4 281.6 272.6 262.9 253.1 238.5 219.3 215.1 220.2 214.4 203.8 200.3 210.4 220.6 226.2 228.1 229.1 230.1 229.5 228.8 230 233 238.6 245.2 255.9 268.5 279.7 286.3 294.1 299.5 305.4 310.8 315.7 318.7 321.1 324.4 325.7 326.7 328.1 328.9 328.7 327.8 324.7 318.9 308.4 289.4 274.3 253.1 238 222.2 200.7 182.1 174 184.3 185.9 185.3 175.9 162.5
82 80 78.1 79.7 79.7 79.5 78.4 76.3 72.5 68.1 64.5 61.7 57.1 51.3 44.9 40.9 36 29.1 30.2 28.1 25.9 22.2 19.2 18.6 18.5 20.7 21.3 18.9 14.9 13 12.8 13.2 13.6 13.3 13.3 14.3 14.3 10.9 14.2 12.7 14.7 19 24.4 32 39.8 51.3 62.1 70.5 79.6 85.8 89.7 94 102.5 109.3 116.5 122.6 130.9 140.8 147.3 149.9 155.4 157.9 161.4 167.2 172.4 174.1 169.2 156.8 142.4 130.6 119.6 108.1 120.9 128.1 133.1 136.8 144.8 153.1 159.4 164.3 169 173.5 176.3 179.1 182.5 185.9 188.1 190.2 191.8 192.5 193.5 195.5 200 204.3 210.4 218.8 225.1 234.4 243.6 249.5 255.1 258.2 258.4 256 252.5 250.2 251.1 251.6 253.9 256.5 260 260.2 266.8 276.2 304.3 318.8 325.2 330 332.4 333 332.3 331.5 330.2 328.9 329.8 331.1 333.6 336.5 340.1 342.4 343.8 345.3 346.3 345.1 342.1 338.1 334 330.5 323.9 317.3 309 301.1 292.8 284.5 275.5 265.2 255.6 242.5 226.3 211 207.3 204.7 199 205.5 219.9 231.2 238.4 242.3 240.8 237.7 233.7 233.4 233.2 237.1 244.8 255 266.1 276.1 284 291 296.7 301.6 306.6 310.7 315.1 318.9 322.1 325.2 328 330.5 332.6 333.6 331.9 329.3 324.1 318.4 306.2 286.6 265.2 247 235 219.6 197.1 181.5 174 181 178.6 177 172.5 160.6
76.7 75.4 74.3 75.4 76.7 76.4 75.6 73.9 70.5 65.8 62 57.4 52.6 48 42.3 37.8 31.3 23.8 25.3 23.2 21.3 18.8 16.7 16.2 17.2 17.9 17.9 15.8 13.7 13.4 13 13.6 12.5 12.8 13 10.2 13.2 13.6 12.7 13.7 17 22.2 27.9 36.9 50.4 64.7 75.3 81.7 86.6 89.9 97.2 103.9 106.3 107.4 115 121.8 130.4 140.7 146.6 149.7 155.4 161.3 169.4 176.9 179.8 177.9 174.1 166.2 152.4 138.1 125.3 115.7 125 132 136.7 142.1 153.4 161.2 168.4 175.2 183.2 190 195 199.7 203 205.3 208 210.9 212.8 213.8 214.1 214.4 215.2 216.3 221.8 228.6 236.8 245.9 253 258.5 264.7 267.8 267 264.7 262.8 263.4 263 263.6 267.9 274.3 280 284.1 281.6 295.8 314.9 321.7 326.3 328.5 330.1 329.3 328.5 327.6 325.8 324.9 325.5 326.7 328.4 331.8 335.7 338.5 340.7 341.9 342.8 342 339.3 335.9 332.4 328.9 323.7 317.2 310.7 303.5 295.3 287.4 278.1 268 256.9 242.2 227.3 211.3 202.6 198.5 201.1 216.8 232.2 242.8 249.8 252.5 250.7 247.6 243.1 238.8 236.7 241.4 250.5 260.6 268.9 276.2 283.3 290 295.4 300.3 305 309 313.9 318.4 323 326.8 330.6 333.7 336.5 337.4 335.3 331.2 324.8 317.7 304.8 284.2 260.9 244.9 232.4 217.1 195.2 180.2 173.4 173.5 171.9 168.9 164.6 160.4
69.8 70.6 71.1 72.1 73.1 73.5 72.5 70.7 67.7 62.9 58.5 54.1 49.5 45.3 39.6 35.3 30.7 22 20.5 19.5 18.2 16.9 15.4 15 16 16.2 16.1 15.3 13 13.5 13.3 9.7 12.1 12.8 13.1 13.3 13.5 12.8 13.9 18.3 21.9 25.7 33.6 46.6 63.8 77.5 81.2 89.4 97.3 103.1 107.8 112.3 113.5 115.2 118.3 122.2 130.9 140.5 145.5 149.7 159.6 168 178 182.7 182.7 180.1 176.2 171.5 162.7 148.1 134 123.3 128.6 134.2 139.7 148.1 158.8 168.1 176.9 187.6 196.4 203 207.7 211.2 216.2 219.7 222.7 226.7 229.1 230 230 230.7 230.7 233.7 234.7 241.8 248.7 255.5 261.1 268.1 273.4 276.8 278.8 275.7 273.7 272.6 271.6 272.8 284.2 294.5 301.6 307.1 311.2 314.5 319.2 323.3 325.7 327 326.8 325.4 324.6 323.7 321.6 320.7 321.4 322.4 323.7 327.4 331.6 334.4 336.9 338.5 339.3 338.3 336.2 333.7 330.4 327.3 322.5 317.1 310.4 304.9 297.7 290.1 280.6 270 256.5 240.5 219.1 203.1 198.4 197.7 213.1 228.9 244.1 253.6 259.3 261.1 259.4 256.2 251.3 246.2 240.9 244.8 250.6 258.9 267.2 273.9 280.3 286.5 291.9 295.9 301.2 306.6 312.1 316.9 322.3 328.4 333.5 338.6 343.6 346 340.1 332.5 324.5 316.6 302.9 281.4 260.7 242.3 229.7 214.6 194.3 179 175 169.5 166.2 164.1 163.5 160
64.4 66.2 67.3 68.1 69 69.8 68.8 67 64.3 59.7 55.1 50.9 47 42.5 37.1 32.9 29.3 25.7 18.6 17.4 16.5 14.7 13.1 12.9 13.3 14.4 15.2 14 12.8 11.6 9.6 12.6 13.2 13.3 13.5 13.6 13.7 13.5 17.2 22.1 26.4 32.9 43.6 60.4 76.3 81 91.2 100.9 108 112.7 115.4 116.6 117.8 119.2 122.4 127.9 133.6 140.5 147.2 156.9 167.3 175.3 181.5 185.5 185.6 183.3 179.5 174.8 169 157 143.4 132.2 132.1 138.9 142.5 150.9 163 175.7 187.4 196.4 203.9 210.5 217.5 223.6 230.5 234.6 238.6 242.5 246.9 250.3 251.5 252.2 252.1 251 250.9 254.1 259.6 266 274.2 280.9 286.5 289.4 291.9 291.1 289.5 288.7 289.8 295.3 301.3 306 310.8 314.8 317.5 318.9 321 322.7 323.9 323.8 323.7 322.2 320.7 319.7 317.6 315.9 316.3 318 319.6 322.4 326.6 330.2 333.1 335.1 335.2 334.2 332.5 330.4 327.7 324.4 320.6 315.6 310.6 305.4 299.1 290.9 280.5 268.1 253.9 232.7 210.3 194.2 195.1 208.7 222.9 239.3 255.3 261 265.2 266.7 266.7 263.2 258.3 251.4 245.4 245.8 251.3 256.4 263.9 270.6 275.8 281.6 286.7 291.3 296.8 303.3 310.3 317.8 326.3 332.6 337.6 344 348 349.8 341.9 332 325.4 317.1 301.9 278.3 258.7 238.8 227 213.9 193.7 180.4 177.6 174.2 168 166.1 160.9 159.8
57.7 61.7 62.1 63 63.8 65 65.1 63.4 60.6 56.1 51.8 48 44.2 39.5 34.3 30.6 27.8 24.5 15.1 15.7 15.2 13.4 12.5 12.4 12.8 13.1 13.5 12.7 9.5 13.1 13.2 13.1 13.1 13.3 13.6 14.1 13.8 16.5 22.2 26.6 31.4 40.2 57.7 71.3 78.8 91.7 102.7 106.9 115 117.9 119.2 123.5 127.2 128.6 132.4 137.8 142.2 146.1 152.7 162.5 173.3 180.3 185.9 188.3 189.4 187.7 183.3 179 173.1 163.3 150.6 139.6 135.6 141.9 146.6 155.5 168.4 181.9 192.8 202.4 210.1 218.1 227.4 237.5 243.5 248 252.5 256.7 261.1 264.7 267.6 269.1 268.6 267.2 265.6 266.7 272.4 280.5 287.6 293.8 296.7 299.1 300.9 302 302.2 302.9 304 306.6 310 313 316 318.6 320.9 321.6 322.1 322.4 321.1 320.9 320.7 319.5 317.6 315.7 313.7 311.6 311.7 313.4 315.3 318.5 322.1 326.2 328.7 330.4 331.2 330.5 328.8 327.1 324.7 321.7 318.4 314 310 304.6 297.9 290.3 278.9 263.1 243.7 220.1 203.5 192.6 203 217.8 232.5 248.5 261.3 265.9 269.1 271.1 270.5 267.1 263.4 257 251.9 249.3 251 254.9 261.5 267.2 271.1 276.2 281.6 287.9 294.7 303 312.9 323 330.1 335.7 339.3 343.7 347.2 348.4 341.5 331.7 325.4 316.8 300.9 273.9 253.9 235.6 223 211.2 192.5 182.3 176.8 173 168.4 164.7 161.2 160.5
51.3 53.5 57 57.8 58.9 60.2 60.9 60.4 57.2 53 49 45 41.1 36.6 31.7 27.9 25.3 22.5 15.3 14.3 13.7 12.5 12.4 12.5 12.7 13 13.3 12.6 13.1 13.6 13.1 13 12.9 13 15.3 13.7 15.6 19.3 27.7 32 38.7 50.8 67.2 74.9 86.3 99 102.8 107.1 117.4 123.8 130.7 136.1 139.3 141.8 144.1 145.4 147.9 151.2 159.2 168.1 175.5 183.1 188.2 189.9 191.6 189.8 186.1 181.6 176 169 156.8 146.2 139.2 146 151.8 160.8 174.3 186.3 195.5 204.5 216.2 227 237.3 246.7 252.5 257.5 262.3 268.2 273.7 277.3 281.4 283.9 285.3 285.4 282.1 280.4 287.5 294.9 298.7 300.8 302.8 303.5 304.7 304.7 305.6 305.2 307.3 310.4 313.1 316.3 318.8 320.6 322.2 322.5 322.4 321.7 320.2 318.4 317.5 316 314.8 312.9 310.8 307.6 306.8 309.4 312.3 315.3 318.6 322.4 324.6 326.7 327.5 327.1 325.7 324 321.6 318.6 315.6 311.7 307.4 302.9 296.7 289.6 277.4 257 232.2 212.4 195.6 191.9 210 225.2 241.6 256.1 264.1 268.7 271.8 272.5 272.4 269.9 266.5 262.7 257.4 254.1 255.3 258.4 261.3 264.7 269.2 273.5 279.2 286.9 295.2 306 316.7 325.2 329.5 333.2 336.6 340.8 344.6 346.1 340.4 330.9 324.2 315.5 298.4 269.7 249.4 231.3 219.1 207.6 194.5 189.1 183.9 179.2 174.2 170.6 160.4 161.1
55.8 50 48.2 51.1 53.4 54.6 55.8 57.5 54.3 50.1 46.2 42.2 37.6 32.9 28.9 24.9 22.2 15.9 14.6 13.7 12.7 12.3 12.5 12.5 12.5 12.9 13.2 13.1 10.5 13 13.3 13 12.8 15.3 13.3 13.9 17.8 21.9 30.6 39 47.6 60.9 70.9 79.6 92.9 99.5 101.6 110.4 124.6 135.4 139.5 146 145.8 146.2 147.8 150.9 156 160.7 165.6 172.2 177.5 185 191.1 194.4 194.7 192.6 188.4 182.8 176.9 171 164.8 156.1 144.2 151.4 156.1 167.6 178.5 187.2 196.1 206.5 219 234.8 244.6 252.9 259.5 266.7 273.5 280.1 288.1 293.8 298.2 301.8 304.5 304.9 303.7 301.2 303.4 305 304.4 306.7 306.8 307.2 306.7 306.5 306.9 306.9 309.5 312.6 315.3 318.3 320.2 321.9 322.7 322.7 322.3 320.6 318.8 316.8 313.8 312.4 311.3 310 307.8 304.4 301.5 305.4 309.6 313.1 316.6 319.8 322.1 324.2 324.6 323.8 322.4 321 318.5 315.7 312.6 308.2 304 299.8 295.1 288.6 273 247.3 223.1 206.4 191.4 197.5 214.6 231.9 248.2 261.5 267.6 271.3 271.8 272.4 271.9 269.8 267.5 265.1 261 259.1 258.4 258.7 261.4 264.5 268.1 272.9 281.1 290 299.7 310.9 319.3 322.9 326.8 329.4 333.6 337.5 341 343.9 338.9 328.1 321.3 313 294.4 265.6 245.4 227.3 216 204 202.2 201.5 197.1 192.2 185 172.8 160.9 161.5
59 53.3 49.2 45.6 46.3 49.3 51.5 53.9 51.5 47.6 43.6 39.4 30.7 23 18 16.5 16.9 14.2 14.1 14.1 14.1 13.3 12.4 12.6 12.6 12.8 13 13.3 12.9 9.3 13.2 13.2 14.1 13.1 13.4 14.5 18.6 27 32 40.9 52 63.3 70.3 84.1 93.7 96.5 104.6 119.2 132.5 139.1 144.6 144 145.6 151.2 160.6 167.4 171.6 172.4 174.2 177 182.3 189.2 195.4 199.1 200.4 198.7 192.3 184.5 179.1 172.9 168 161.5 151.7 157.9 162.7 171.9 181.8 189.3 198.4 209.9 226.7 238.2 248.6 256.9 265 275.4 284.8 294.8 303.9 309.8 314.2 316.4 317.1 316.5 316.1 315.8 314.6 313 311.2 310.6 309.2 308.1 306.6 306.8 307.8 308.5 311.3 314.7 317.4 319.6 321.8 322.6 322.7 322.5 321.4 319.7 318 314.7 311.1 309.7 308 306.4 304.6 301.6 298.8 304 308.5 311.6 314.7 317.4 319.6 321.1 321.7 321 319.5 318.2 315.8 313.1 309.3 304.7 300.8 296.3 291.4 282.2 264.4 237.8 217.3 202.2 190.2 199.1 218.9 237.1 252.6 263.1 268.6 270.9 271.8 271.9 270.6 268.4 266.3 264.2 261.4 260.4 260.8 260.7 261.5 264.2 267.6 274.5 283.1 293 304.8 312.3 316.8 319.3 322.1 325 329.7 333.9 337.5 340.2 336.1 326 318.1 308.8 288.2 259.4 239.7 223.5 212 201.9 204 210.8 206.5 194.9 182.5 168.4 159.1 161.2
60 56.6 54.1 50.6 45.9 42.2 45.1 49.2 48.8 45 41.2 36.9 28.5 20.1 16 14.9 14.9 13.7 13.6 13.6 13.6 13.5 12.6 12.2 12.6 12.7 12.9 13.1 13.4 9.1 13.4 13.3 12.9 13.1 13.3 15.5 24.5 35.1 42.3 49.6 58.4 58.4 69 81 90.9 94.3 108.6 125 132.9 139.5 141.8 142.6 149.5 165.7 176.7 180.3 181.5 181.1 181.9 185.2 189.6 195.6 202.1 208.6 211.1 213.2 204 193.5 182.7 176.3 170.9 165 155.2 165.3 168.8 175.1 185.5 192.1 201.4 214.3 228.7 239.7 249.7 260.2 271.3 284.8 298.3 309.5 317.4 321.8 324.4 325.4 324.9 323.3 322.3 320.6 318.5 314.9 313.4 311.6 309.5 307.1 306.1 306.4 307.4 309.4 312.7 316 318.6 320.8 321.8 322.6 322.3 321.9 320.5 318.8 316.3 312.6 309.1 306.7 304.7 302.9 300.7 296.3 298.1 304.7 308.7 310.9 314 316 317.3 318.2 319 318.5 317.3 315.9 313.5 310.3 306.1 301.4 297 292.3 287.2 276.4 255.1 232.2 213.6 200 190.1 198.6 219.1 240.7 252.9 263.5 268.1 270.5 271 271.1 268.7 266.4 264.3 262.3 260.4 259.1 261.3 263 263.3 264.1 267.5 276.5 286.3 296.9 305.6 310.1 313.9 315.8 317.7 320.8 325.4 329.9 333.3 335.4 333.4 323.7 314.9 304.7 280.2 251.5 232.5 222.8 209.6 198.9 203.2 209.2 202.2 193.1 180.5 167.1 159.5 161.5
62.5 58 56 54.4 50.1 45 42.1 41.7 45 42.5 38.7 32.8 24.1 16.9 14.8 13.9 13.4 13.2 13.1 13 12.9 12.7 12 12.1 12.6 12.8 12.9 12.9 9.1 14.7 14.2 12.9 13.1 13.4 14.5 23.3 33.3 42.8 53.2 61.5 63.9 67.9 67.3 77.7 86.4 94.6 112.5 124.4 131.1 136.8 139 144 160.2 176.5 183.5 187.8 189.5 190.6 193.6 196.3 200 205 212.3 219.8 226.5 231.4 223.4 206 192.7 181.3 174.7 169.5 159.7 169.3 173.3 180.2 187.5 194 201.7 218.3 229.6 240.1 251.2 262.6 278.6 294.4 309.7 319.1 325.3 329 331.2 331.5 329.4 327.3 325.5 323.3 320.7 317.7 314.7 312 309.2 306.4 305.8 305.9 307.1 309.6 313.2 316.6 319.4 320.9 321.7 322.4 321.9 321 319.6 317.9 314.2 310.6 307.1 303.9 301 298.7 296.1 293 300.7 305.5 309.2 311.3 313.3 315.2 315.6 316.3 316.5 316 314.7 313.4 310.8 307.7 303.5 298.5 293.2 288.1 282.4 269.8 245.6 226.6 212.2 199 189.3 191 217.2 240.9 253.3 262.6 267.3 269 269.3 268.1 266.3 264.9 262.4 259.5 257 257.3 260.2 262.6 264 265.6 269.3 277.7 289 297.1 303 307.6 309.8 312 314 316.6 320.8 325.1 328.3 330.6 329.7 320.5 311.9 300.1 273 242.9 225.1 226.3 212 196.6 197.4 198.8 191.6 184.6 177.7 165.8 158.4 162
66 60.2 57.7 56.1 52.5 48.4 44 38.4 38.9 38.7 33.5 25.8 19.7 14.9 14.1 13.3 12.8 12.9 12.7 12.5 12.3 12.2 12.1 12.4 12.5 12.8 13.2 8.1 15.6 17.3 16 14.5 15.1 17.9 23.7 31.7 41.4 53.3 67.4 69.1 71.3 75.4 81 78.6 87 98.7 113 122.1 128.8 134.7 138.3 149.3 168.6 180.5 188 194.1 197 200 203.3 205.6 212.8 220.4 228.9 237.6 244.9 248.9 242.9 224.9 206.5 191.6 179.9 174.5 167.2 171.6 177.4 183.8 189.5 197.2 205.8 218.7 229.3 239.9 251.5 265.8 285.9 303.7 316.5 325.1 330.5 333.7 335.4 334.8 333.1 330.5 328 325.5 322.5 319.5 315.6 312.1 308.9 306.2 305.9 305.3 306.7 309.2 312.7 315.9 318.7 320.5 321.5 322.2 321.6 320.1 318.7 316 312.3 308.7 305.2 301.5 297.8 294.8 290 295.3 301.4 305.9 309.5 311.5 313.1 314 314.3 314.4 313.9 313.2 312 310.8 308.1 304.9 300.9 296.7 291 284.9 278 261 238.3 223.3 213.1 196.5 188 188.7 215.3 239.7 252.4 261.3 264.7 265.6 266.2 264.8 263 261.9 259.7 255.7 253.1 254.8 258.5 261.5 264.1 266.6 270.4 280.2 288.7 295.7 300.9 303.4 305.3 307.6 309.8 312.9 316.3 320.2 322.6 324.5 324.5 316.7 306.8 296.3 268.2 238.8 221.7 222.9 213.6 195.8 190.6 189 180.2 173.1 168.2 158.5 159.5 162.1
67.6 62.7 59.2 56.1 52.6 48.8 43.7 35.5 29.6 32.3 26.3 19.4 16 14.8 14 12.7 12.4 12.7 12.6 12.4 12.2 11.8 12 12.6 12.7 12.8 9.9 13.3 19.3 18.2 18.4 19.1 19.9 25.1 30.9 39.2 51.7 69.5 71.7 73.8 78.8 81.2 85 83.5 92.4 100.7 111.3 119.1 125.4 132.7 138.6 158.2 175.4 183.7 193 197.5 201.7 204.7 209.6 219.8 229.7 237.5 246.5 252.5 256.6 257.9 256.2 246.9 227.1 209 193.1 180.8 174.4 173.9 180.9 186.6 192.3 200.5 209.4 218.5 229.2 240.3 252.4 271.1 291.9 309.6 320.6 328.2 333 335.9 336.3 335.7 333.9 331.5 328.7 326.4 324.1 320.3 316.4 312.9 309.5 306.1 305.2 304.7 306.1 308.1 311.4 314.4 317.4 319.3 320.9 321.7 321 319.5 317.5 314.7 311.1 307.5 303.4 299 294.8 289 288.6 296.7 301.7 306 309.6 311.3 312.5 313.1 312.7 312.5 311.9 310.8 309.2 308 305.5 302.1 298.2 294.3 288.6 281.2 270.4 250 229.8 221.1 214.4 194.8 187 190 214.3 239 251.3 259.6 262.9 262.9 263.1 261.3 259.5 258.3 255.9 250.2 248 250.7 254.9 258.4 261.3 263.9 267.8 277.8 286.6 293 297.1 298.7 300.7 303.1 306 309.3 312.9 316.1 317.2 318.6 319.3 311.4 301.4 293.7 268.8 238.3 220.7 214.6 210.4 196.2 183 180.4 171.1 161.5 158.9 155.7 158.6 161.1
69.6 63.5 58.9 54.5 50.6 46 42.1 36.5 26.6 24 19.9 17.5 16.2 14.7 13.4 12.1 12.1 12.4 12.5 12.3 12.3 11.7 12.2 12.7 11.7 8.6 13.4 14 17.3 22 22.8 26.2 29.7 33.1 37.9 49.3 67.2 73 76.9 84.9 88.2 89.1 87.7 89.2 96.7 102.6 109.7 117.6 124.3 132.7 144.7 163.8 177.4 186.8 193.8 199.5 203 208.2 218.6 231.2 241.9 249.9 256.6 261.5 264.1 264.7 263.3 258.6 246.7 228.5 207.1 192.2 181.1 174.8 182.4 187.7 193.6 201 210.3 219.3 229.6 241 255.1 275.3 297.5 313.1 323 329.6 334.2 336.2 336.4 335.5 333.6 331.2 328.6 326.7 324.2 320.9 317.2 313.6 310.1 306.6 304.4 304 304.2 306.2 308.9 312.2 315.6 318.2 320.2 320.9 320 318 315.4 312.9 309.3 305.4 301.2 297 291.5 282.4 290.7 297.4 301.9 305.7 308.6 310.7 311.4 312 311.3 310.7 309.9 308.5 306.5 305.2 302.9 298.5 295.1 291.2 285.6 278.6 265.9 241.6 223.5 220.7 211.5 191.9 186.2 192.7 214.4 239.5 250.4 258 261.6 261.3 260.6 258.3 254.9 253.4 250.4 246.1 242.1 245.3 249.7 253.7 256.6 258.5 261.8 272.4 282.6 289.3 291.7 293.9 296.8 299.7 303.2 306.8 309.9 312.1 313 314 313 306 296 289 273.5 244.9 217.4 210.8 205.9 195.4 182.1 173.2 166.2 161.2 158.5 156.3 157.6 159.5
71.8 63.4 56.6 53.5 47.7 42 37.7 33 28.6 20.7 18.5 17.6 15.9 13.9 12.7 11.5 11.8 12 12.3 12.3 11.7 11.9 12 12.1 8.4 13.1 13.6 14 23.1 26.2 30.1 32.4 35.8 40.7 45.9 62.2 73.3 77.8 87.5 94.4 95.5 97 95.1 94.8 100.4 104.9 111.4 119.2 126.5 134.1 150.1 166.1 179.7 188.5 195.1 199.6 205.4 215.4 226.9 239 249.4 258.7 264.8 267.5 269.4 269.8 267.7 265.1 258.6 248.3 228.3 207.9 193.6 183.6 183.6 189.5 194.5 202 211.4 220.8 230.7 243.3 255.9 279.1 301 314.2 324.3 330.7 334.2 335.4 335.1 334 332.1 330 328.3 326.4 324 320.8 317.4 314.1 310.4 307 304.1 303.3 303.2 304.3 306.9 309.6 313 316.5 319 319.1 318.6 316.3 313.5 310.8 307.2 303.1 298.9 294.7 287.1 283.1 291.8 297.2 301.3 305 307.7 309.5 310.4 310.9 310 309.2 307.5 306.2 304.3 302.4 298.8 294.7 291.1 287.3 281.8 272.8 259.2 234.2 219.2 218.2 207.5 188.6 185.6 194.2 217.8 241.7 249.9 256.3 260.9 260.3 258 255.5 251.3 247.6 246.4 242.6 237.1 239.3 242.6 246.9 249.8 252.3 256.4 266.7 277.1 283.3 286 289.5 293 297 301.2 304.9 307.3 308.9 309.6 308.1 306.6 302.3 292.2 283 274.4 255.2 227.9 213.2 204.3 192.9 181.2 170.9 164.9 160.3 159.4 155.1 157.1 159.1
61.3 50.9 44.1 40.4 42.2 39.1 33.1 30.2 25 18.8 17.7 16.7 14.8 13 11.8 11.2 11.5 11.7 11.6 11.5 11.6 11.8 12 12.1 7.6 12.5 14.2 19.9 26.3 30.4 33.8 36.8 40.9 46.3 57.8 71.6 76.5 87.3 96.7 102.4 111.7 115.4 111.6 104.1 103.6 109.4 115.2 122.5 129.9 138 154.5 168.1 179.4 188 194.2 200.7 211.3 223.8 237 247.5 257.6 265.7 270.5 272.8 274.2 273.6 271.8 268.7 264.6 257.3 248.8 228 210 195.8 188.5 191.1 196.9 203.8 212.9 222.7 233.5 247.4 259.6 286.8 302.2 314.8 324.5 330.3 332.7 333.2 332.7 331.4 329.8 328.1 326.8 324.8 322.9 320 316.7 313.5 310.6 307.2 304 301.5 301.4 302 304.4 306.8 310.1 314 317.4 317.3 316.4 314.2 311.3 308.1 304.4 300.2 296.2 292.1 284.3 282.4 291.6 297 300.9 304 306.7 308.4 309.3 309.6 308.9 308.2 306.3 304 302.2 299.7 296 291.7 288.2 284.2 275.3 267.1 253 229.4 214.9 212.6 201.5 185.9 184.7 198.6 223.4 243.2 250.3 255.2 260.7 260 257.2 252.5 247.9 244.5 242.9 238 232.2 234.2 237.4 240.2 242.7 245.9 250.9 261.1 270.8 276.9 280.9 284.9 290.1 295.4 301.3 305.8 308.3 308.4 303.9 302 299.8 297 287.4 277 269.7 261.2 245.6 227.5 205.6 188.8 178.1 169.1 163.6 159 156 156.4 156.8 161
45.4 49.4 53.5 47.1 34.6 27.2 25.1 22.1 18.4 17 16.1 15.3 13.9 12.7 11.2 11.1 11.2 11.2 11.4 11.7 12.1 12.2 12.5 12.6 7.3 13.1 15.4 22.5 28.2 33.2 36.5 40.9 45.9 55.3 69.2 75.7 84.8 94.9 102.7 116.8 125.2 126.5 123.9 120.1 113.1 114.2 120.4 127.2 134.7 147.1 159.3 170.5 180.2 188.6 196.3 205.6 220.2 234.6 245.7 256.1 264.8 271 274.8 276.9 277.7 276.8 274.4 271.1 266.6 262.1 255.7 248.1 231 212.3 198.9 194.5 198.6 206.3 216.5 226.3 235.7 246.2 270.1 290.8 302.9 314.8 322.8 327.5 328.8 329.9 329.2 328.2 326.1 324.2 323.4 322.5 320.8 318.4 315.8 312.7 310 307.3 304.1 300.8 298.6 299.1 300.5 303 307.1 311.4 314.8 314.6 313.3 311.3 308.3 305.1 301.8 297.3 293.1 289 280.6 281.3 290.2 296 299.4 302.3 304.9 306.8 307.6 307.5 307.2 307 305.6 303.4 300.2 296.5 293.1 288.6 284.3 277.5 270 261.8 248.8 225.6 210.6 204.3 193.6 184.6 183.8 204.3 230.1 243.7 250.7 254.9 259.8 258.6 254.8 250.2 245.6 242.2 240 234.8 228.2 229.8 231.9 235 238.2 242.9 248.1 255.5 263.8 269.2 276.9 282.9 288.1 294.5 301.6 306.2 308.4 305.2 300.2 296.2 294.3 291.5 285.4 273.4 265.4 258.6 250.2 235.7 212.5 190.3 175.6 167.3 162.9 162.3 157.9 157.1 155.5 159.1
70 71.7 64 53.5 44.5 35.5 22 18.9 17.9 16.2 15.9 14.5 12.6 12.6 11.3 11.3 11.1 11.1 11.4 11.8 11.9 12.3 12.5 9.3 12.5 15.9 20.6 25.6 31.4 38 42.5 47.9 55 67.2 75.3 80.9 91.6 99.8 112.2 126.5 131.6 130.4 128.8 128.9 125.3 123.7 127.8 132.4 144.1 155.9 165.8 175 183.6 191.7 201.1 213.4 231.2 243.9 253.3 262.5 270.2 275.2 277.8 279.2 279.3 278.1 276.1 273 269 264.4 259.9 255.4 244 228.2 211.7 201.3 200.3 211.1 220 228.8 237.4 254.6 278.6 293.8 304.9 313.6 319.9 323.4 324.9 325.3 325.1 323.4 322.2 321.5 320.7 319.4 317.5 315.2 313 311.1 309.4 307.2 304.4 301.3 297.1 295.1 296.3 299 302.8 307 310.9 311 309.9 307.9 304.9 302 298.4 294.1 289.9 285.1 273.6 282.9 288.8 294.3 297.6 300.2 302.2 304 305.5 305.5 305.7 305.9 305.6 303.4 300.4 297.1 292.9 286.6 273.6 265 261.7 253 239.3 220 205.9 198.7 187.5 182.4 185.2 209.9 231.5 245.1 252 255.5 258.3 256.4 252.6 248.6 243.6 239.2 236.2 231.5 226 227.7 230 232.4 235.3 241.8 248.6 255.7 263.3 270.3 276.6 281.6 287.3 295.1 302.1 306.8 308 302.9 297.4 293.6 290 286.3 281.9 271 261.4 254.3 246.9 237 215.3 191.4 175 166.6 162.4 165.3 159.7 158.9 152.6 158.3
78.7 72.3 64.3 54.2 46.6 39.7 24.2 18.1 17.9 16.4 14.8 13.2 12.3 12.9 11.6 11.4 11.3 11.2 11.5 11.8 12.2 12.1 7.3 12.5 16.3 19.4 25.3 29.7 35.2 42.4 50.2 59 69.2 76.1 80.7 86.2 95.6 105.1 124.2 133.5 132.8 132.5 142.2 147.1 144.2 140.5 138.2 145 154.1 163.2 173.3 181.3 188.8 199.1 210.1 221.2 238.8 250.5 259.3 268 274.5 277.9 279.6 280.1 280 279.1 277.5 274.7 271.4 266.6 261.7 257.4 249.6 237.8 223 210 210.2 217.7 223.8 230.4 241.6 265.1 284.5 296.5 305.5 311.9 315.6 318.7 320.6 320.3 320.1 320 320.1 319.7 319.2 317.5 314.7 312.8 310.8 309 307.1 305.7 303.6 301.2 297.3 292.3 291.8 295 298.9 302.4 305.9 307.1 306.4 304.5 301.8 299 295 291 286.2 279 272.5 282.9 288.4 292.4 294.9 297.3 299.1 300.6 302.8 304.7 304.8 305.6 306.1 304.8 301.4 297.9 293.7 288.4 281.9 267.7 245.6 232.2 219.8 208.8 200 193.6 183.3 181.2 188.6 211.5 231.5 244.7 251.6 255.4 256.5 255.9 251.9 247 241.2 236.2 231.7 227.4 223.1 224.4 226.6 230.6 235.9 241.8 248.7 255.6 263.1 270 275.5 280.7 288 295.8 302 306.6 306.2 301.8 297.3 292.5 288.9 283.5 278.6 270.9 260.4 251.2 239.9 226.4 210.2 187.9 174.7 167.9 163.2 167.6 161.5 158.2 155.8 158.8
77.7 71.6 64.3 55.1 48.4 41.9 24 16.5 16.1 15.3 14 12.5 11.9 12.4 12.2 11.8 11.7 11.6 11.8 12.1 12.3 12.5 10.1 15.7 21.7 25.2 31.2 34 41.7 52.2 61.4 70.1 77.2 82.5 85.9 91 98.8 115 128.4 133.3 132.8 143.3 157.5 161.1 161.2 156.9 156 159.1 164.9 172.7 180.4 191.2 198.9 211.6 226.9 237.7 242.1 255.7 264.3 271.7 276.5 278.9 279.9 280.2 280.5 279.8 278.4 277.4 273.9 268.6 263.1 257.3 251.4 243.1 230.5 220.4 221.2 224.2 226.2 234.3 249.8 274.9 285.8 298.4 305.2 309.6 312.7 315.1 316.5 316.5 317.2 317.7 317.6 317.1 316.8 315.1 313 310.6 308.7 306.8 304.7 303.4 302.1 300 297.4 293.6 286.2 291.8 295.7 299.3 301.6 302.7 302.4 301.1 299.1 296.3 292.5 288 281.7 270 275.7 282.6 287 290.5 292.3 294.3 295.9 297.7 300.2 303.1 305.1 307.2 307.4 306 303 299.5 295.4 290.7 285.5 276 264.5 248.4 234 217.3 196.9 188.7 183.2 180.2 188.3 207.2 228 244.1 252.3 255.6 256.1 254.1 250.7 245.5 238.6 233.5 228.5 223.4 218.4 219.8 225.4 230.5 235.1 242.5 250.6 258.5 263.5 269.6 275.5 281.6 288.3 294.6 300.6 304.4 305.3 301.1 297.7 294.3 289 282.7 277.8 272.3 263.7 253.6 242.3 228 210 190.6 176.7 169.1 165.1 168.3 165.7 158.3 156.1 159.3
75.6 69.5 62.5 54 48.6 39.9 25.1 15.1 14.7 14.1 12.9 11.7 11.6 11.8 12.1 12.4 12.2 11.9 12.1 12 12.2 7.1 13.6 20.2 25.5 28.5 37.3 43 56.8 64.8 71.4 77.7 82.9 88.4 90.2 94.3 105.1 123.5 133.4 131.1 136.7 155.5 164.8 168.2 168 166.8 166.7 168.6 174.1 180.8 191.1 199.6 208.1 229 240.5 248.7 255.1 262 268.7 274.2 277.3 278.8 280 279.9 280.6 281.1 281 279.3 275.5 270.3 264.7 258.6 252.5 245.9 236.5 233.4 233.6 231.6 234.8 245.8 266.8 278.8 289.5 298 303.5 307.1 310 311.6 312.7 313.6 314.5 315 314.3 313.7 313 311.5 309.7 308.3 306.5 304.7 302.6 300.8 299.3 297.6 295.7 293.2 287 286.4 292.3 295.3 297.1 298.4 298.9 298.8 296.5 293.5 289.1 284.4 276.9 263.5 276.8 281.1 284.9 287.8 289.5 291 292.7 295.4 298.3 301.7 305 306.9 307.9 306.9 304.4 300.8 296.8 292.4 287.6 281.8 274.7 266 254.9 229.3 200.7 187 181.1 180.8 186.6 202.4 223.6 241.8 251.3 254.8 255.4 252.9 249.7 245.1 239.1 233 226.8 222.2 216.9 220 224.5 230.3 237.2 246 253.9 260.3 264.3 269.2 274.8 281.4 287 292.6 297.7 301.1 302.6 299.9 296.9 294.5 291.6 284.8 278.5 274 268.4 259.6 249.7 238.1 222.4 203 184.1 171.3 164.3 167.7 163.3 156.2 155.3 157.6
72.4 66.5 60 52.9 45.1 37.3 25.6 13.5 13.1 13.1 12.1 11.2 11.7 12.1 12.3 12.6 12.3 12.1 12.2 12.4 9.9 13.7 19.3 24.6 31.2 35.4 42 57.9 69.9 74.2 78.3 82.6 85.8 89.7 93.3 98 114.7 127.8 130.4 130.5 148.6 164.2 171.5 173.6 175.7 176.2 175.6 178.3 183.7 191.7 196.5 205.8 223 238.1 247.9 256.3 262.4 267.8 271.5 274.8 277.4 278.8 279.9 281.1 281.4 282 281.3 279.1 275.2 270.8 265.9 260.2 254.6 248.9 244.2 242.8 244.2 248 254.1 262.3 271.7 281.3 290.1 297.4 301.8 304.3 306.4 308.3 310.4 311 311.7 311.7 311.1 309.9 308.8 307.6 305.8 304.8 304 302.5 300.4 297.3 295.3 294.2 292.8 290.7 286.1 282.4 289.7 291.7 293.3 295.4 295.9 296.3 294.4 290.9 286.7 281.1 270.5 266.9 276.4 279.9 282.4 284.8 285.9 287.2 289.7 293.5 296.8 301.1 304.2 305.8 305.5 305.4 304.4 302 297.9 293.6 289.2 284.4 278.4 271.9 262.1 235.2 207 187.3 178.9 179.4 184 198.7 219.7 239.2 249 253.3 254.9 252.3 249.2 245.2 239.2 233 224.8 220.6 211.1 219.5 227.6 234.5 242 249 256 260.7 264.7 269 275.3 280.6 285.8 290.2 293.9 296.4 297.7 297.5 296 293.8 291.9 286.6 280.3 275.5 270.7 265.1 256 244.2 233.8 216.8 196.1 177 166.7 169.5 163.4 156.2 154.6 157.6
68.6 62.5 56.1 49.6 42.2 34.5 25.2 13.3 12.7 12 11.1 11.4 11.9 7.1 8.1 12.7 12.5 12.3 12.4 7.5 12.1 16.5 22.8 29.5 33.4 43.2 55.7 67.3 73.7 77.2 81.5 84.4 87.7 91.6 95.8 106 118.9 128.5 125.9 139.2 162.6 173.2 179.1 183.3 185.5 184.8 183.4 188.2 193.5 199.2 204.9 220.9 235.9 246.1 255.3 262.3 268.1 272 274.4 276 277.8 279.4 280.6 280.8 281.2 281.6 280 277.5 274.2 270.4 265.9 261.3 256.9 252.9 250.2 248.9 250.9 254.5 259.4 265.9 273.3 281 289.7 295.7 298.8 301.7 303.6 305.8 308.1 308.3 308.8 308.3 306.6 306 304.6 303.6 302 301.3 300.7 299.5 297.6 293.9 292.1 290.5 289.3 287.7 284 277 287.3 288.9 290.6 292.3 292.8 293.3 292.2 289.4 284.5 277.8 263.9 267.3 274.7 278 280.1 281.6 282.9 284.4 288.5 292.4 295.8 299.7 302.4 303.5 303.7 303.6 302.8 301 298.6 294.6 290.2 285.8 280 273.7 264.6 240.9 212.5 192 179.8 178.3 182.3 195.3 217.8 235.1 246.2 251.3 253.1 251.9 248.5 244.9 239.1 231.8 222.7 214.4 214.7 222.9 231.4 238.7 245.3 251.1 255.7 260.1 263.8 268 274 279.4 283 286.3 289.6 291.3 292.4 293.7 293.1 292.7 291.4 287.9 283.4 278.9 273.7 268.6 260.7 249.6 239.4 229.1 210.5 184.8 171.2 169.6 161.1 156 153.3 157.2
64.4 58.5 52.3 44.1 37.3 30.2 21 12.1 11.5 11 11 11.3 11.4 7.1 11.7 7.1 7.1 7.6 8 12 13.4 19 27.2 32.4 39.9 52 62.6 71 76.7 76.8 80.7 85.9 89.5 93.2 97.5 110.6 122.2 124.7 126.6 152.6 170.6 180.2 186.3 188.8 188.8 190.7 195.5 203.2 207.3 213.8 222.8 237.6 247 254.1 261.1 267.2 271.7 275.1 276.5 277.5 278.3 279.9 279.9 279.9 280.1 279.6 278 275.2 271.7 268.6 264.8 260.7 258.5 255 252.7 252.5 254.8 257.3 261.3 267.2 274.2 281.4 288.8 292.7 295.6 298.6 301.5 304.1 305.5 305.9 305.3 304.1 302.2 301.6 300.4 299.3 298.3 297.7 297.1 296.5 293.9 291.2 288.6 286.9 285.7 284.1 279.5 275.3 284 286.2 288 289.9 290.7 291.2 290.1 287.7 283.3 276.2 259.4 265.5 272 275.5 277.6 279.1 280.3 285.8 289.7 292.1 295.1 297.1 299.7 300.3 300.8 301 300.7 299 297.1 294.5 291.3 286.3 281.5 275.2 267.7 246.6 218.8 196.5 183.4 176.7 178.5 193.8 216.5 231.2 242.1 247.8 250.1 249.9 247.1 242.6 235.8 230.4 221.2 209 217.1 226.5 234.7 241.7 246.7 250.6 254.8 258.5 262.1 265.5 270.8 275.5 279.2 282.2 284.2 285.5 286.6 289.2 289.9 289 290 288.7 286.2 282.9 277.3 271.5 264.2 255.3 242.9 234.1 220.5 198.1 177.3 168.3 161.3 155.5 151.6 156.8
61.7 55.5 49.4 40.5 33.1 27 18.5 11.8 11.2 10.7 11.1 11.5 11.6 12 11.8 11.6 11.7 11.7 12 12.1 17 24 32.2 36.6 45.8 57.6 66.9 72.5 73.9 75.1 79.1 85.8 89.8 93.9 101.1 112.9 121.7 122 138.4 163.5 176.9 185.7 189.2 191.8 197.5 206.8 215.7 222.8 229 234.2 241.4 247.7 254.6 260.3 267 270.9 274.1 277.1 278.1 279.1 279.6 279.8 278.8 278.6 277.9 277.2 275.1 272.6 268.9 265.7 263.2 259.3 257 255.2 254.3 254.5 255.8 255.8 259.8 266.7 274.2 280.9 286.3 288.7 291.9 295.9 299.2 301.6 302.5 302.4 301.3 300.1 298.1 296.9 295.9 295 294.7 294.1 293.6 292.2 290 287.4 284.7 283.2 282 280.1 275.1 272.7 280.3 283.9 285.7 287.6 289.1 289.2 288.2 285.6 281.4 273.3 258.9 263.1 269.3 272.6 274.9 276.5 280.7 285.8 288.7 290.9 292.5 294.6 296.3 296.9 297.3 297.7 297.7 296.9 295.2 292.9 290.4 286.4 280.9 276.2 269.9 253.2 226.4 203.6 189.1 176.2 178.1 191.5 212.3 226.8 235.7 243.7 245.8 246.5 244.2 239.5 232.8 227.8 216.5 202 221.8 229.9 236.4 241.8 246 249.6 253.1 256.4 259.5 262.4 266.6 271.4 274.4 276.1 277.5 279.2 282 284.8 285.5 285.8 287 287.9 288.7 287.6 283.6 276.3 268.5 260.5 249.2 238.8 228.3 210.8 187.5 170.4 162.7 154.9 150.4 157.4
58.5 52.5 46 36.4 29.8 22.9 16.4 10.9 11.1 10.9 11.3 11.7 12 12.1 11.8 11.4 11.4 11.5 11.7 13.4 23.4 30.7 35.5 42.1 51 62.4 68.4 70.6 71.7 75.2 80.5 85.9 89.7 95.2 105.7 117.2 121.1 128.1 149.5 167.9 179.1 187.5 193 201.3 212.3 223.2 231.1 237.2 242.4 247.3 251.5 256.5 261.1 267 270.7 273.6 276.6 279.6 280.2 280.7 280.5 278.9 277.8 276.7 275.3 273.8 271.8 269.1 265.8 262.1 260.3 257.7 255.7 253.7 252.1 252 253.2 254.2 258.2 264.7 273 279.5 282.7 284.7 289.9 293.7 296.4 298.3 298.6 298.8 298 296.6 294.9 293.1 292.1 291.5 291.1 290.6 289.4 287.8 286.2 283.5 281 279.3 278 276.2 271.3 271.4 278.6 281.9 284 285.8 287.5 287.3 286.1 283.7 279.1 271.2 255.6 261.1 267.1 269.7 272.4 275.6 280.6 284.6 286.8 288.2 289.8 291.9 292.8 293.3 293.1 293.1 293.1 293.1 292.1 290.5 288.2 284.8 280.1 275.3 270.2 260.1 234.4 209.9 194.3 179.6 174.5 187.6 204.6 218.7 228.5 237.6 241.5 241.9 240.4 237.4 231.2 224 211.6 202.4 219.5 229.3 235.1 240.3 243.6 247.2 250.8 253.8 256 258.4 262.3 266.2 268.4 269.1 269.4 273 277.4 279.8 280.9 282.3 284.3 286.4 288.8 289 287.5 282.8 273.9 264.4 255.7 245.3 233.4 221.2 198.3 175.3 162.7 155.4 148.7 158
54.9 49.4 42.6 33 26.9 19 13.5 11 11.1 11.2 11.6 7.3 7 12.6 7 11.6 11.5 11.4 11.5 19.1 25.9 32.3 38.1 45.9 54.1 60.1 65.2 68.6 70.9 75.8 81.1 85.5 90.8 101.3 111.2 118.5 122 138.2 156.9 169.1 181.3 189.6 200.5 211.8 223.8 233.2 241.3 247.8 252.9 256.8 261.1 264.5 267.9 271.9 274.8 277.1 279.2 280.8 281.4 281.2 279.9 277.9 275.7 274 271.6 270.1 267.9 264.9 261.6 258.5 256.7 254.6 253.1 250.4 247.3 248.1 248.8 249.8 254.7 262.1 270 275.9 277.7 281.7 286.9 290.5 292.7 293.7 294.4 294.5 293.5 292.4 290.7 289.2 288.6 288.1 287.5 286.4 285.3 283.9 282.1 280.1 277.7 275.4 273.9 272.1 267 268.9 276.6 279.7 282.4 284.4 285.3 284.9 284.2 281.9 277.7 269.4 251 257.9 263.8 266.9 270.4 274.5 279 282.5 284.3 285.5 286.8 288.6 289.2 289.8 289 288.5 288.4 288.4 288.4 287.1 285.2 282.2 278.5 273.3 268.2 262.3 244.1 218.3 200.2 183.1 174.5 184.2 189.1 204.9 220 229.7 235.9 237.8 236.5 233.6 227 220.8 209.8 196.8 216.9 225.9 232.3 236.5 240 243.6 247.1 249.7 252 254.5 256.3 259.6 258.3 256.5 260.4 266.6 273.1 274.8 277.6 279.4 281.6 284.3 288 289.4 289 287.1 279.4 268.4 259.2 251.3 239.7 226.2 207.8 181.3 163.6 156.5 148 157.4
51.3 46.3 39.1 30.1 23.6 15.6 11.9 11.5 11 11.3 11.6 10.6 11.8 9.9 7 11.4 11.4 11.4 13.3 21.9 28.2 34.4 40.2 47.3 51.8 56.5 61.6 65.3 69.1 74.5 81 88.4 96.5 105.3 113.9 118.9 131.2 147.6 161.9 174.6 184.6 196.3 210.7 222 233.9 243.9 251.6 258.1 262.4 266 268.8 270.9 272.9 275.7 278.4 279.9 281.2 281.4 281.2 280.1 278.2 276.1 273.9 271.5 268.9 266.3 263.9 260.7 257.5 254.7 252.9 251.7 250.1 248.2 244.7 244.5 243.5 246.8 250.4 258.9 266.6 270.4 272.9 278.9 283.5 286.6 288.4 289.1 289.8 289.6 288.6 287.6 286.5 285.2 284.5 284 283.5 282.4 281.3 280 278.2 275.7 273 271 269.2 267.4 258.1 268.6 274.8 278.4 280.7 282 282.8 282.5 281.2 279 274.7 267.8 252.2 250.7 259.7 264 268.1 273.4 277.4 279.7 281.1 282.4 283.6 285 285.5 286.1 285.3 284.7 284.4 284.7 285.3 284.2 282.2 278.9 275.4 271.1 265.9 260.8 250.6 228.9 207.4 186.7 172.3 175.7 179.9 192.8 209.5 219 227 232.9 231 228.9 225.4 218.5 204.8 193.6 211.7 219.6 225.6 231.8 235.5 239.7 243.2 245.8 248 248.4 249.2 248.7 245.8 247.1 251.4 261.7 267.9 271.3 274.4 276.6 279.4 282.5 286.4 289.3 289.7 288.9 285.2 274.2 262.4 255.7 243.9 229.2 212.7 186.2 166.2 157.1 149 156.1
48.4 42.6 34.5 26.3 19.2 13.4 11.1 11.2 11.3 11.7 11.9 11.6 6.6 11.4 11.4 11.4 11.2 11.7 17.5 25 31 37 41.6 45.5 50.1 56.1 59.4 63.2 68.5 75.6 84.2 94.4 102.2 109.4 114.7 123.3 139.1 154.4 166.4 178.9 190 204.5 219.8 232.2 244.7 253.9 260 264.3 269.1 271.7 272.4 274.6 277 278.9 281 281.8 281.7 280.8 280 277.6 275.9 273.8 271.3 268.6 265.6 262.7 259.9 256.6 253.1 251 249.9 249.5 248.2 246.1 243.4 240.1 239.5 243.3 247.1 255 261.5 265.6 268.8 275.6 279.2 282.1 283.7 284.5 285.2 284.8 283.8 282.9 281.7 281 280.7 279.9 279.2 278.6 277.2 275.5 274.3 271.6 268.9 266.2 263.7 258.8 256.5 268.7 273 276.3 278.7 279.7 280.1 279.5 277.2 275.1 271.7 265.6 252.5 245.2 256.3 261.7 266.9 272.2 275.1 276.4 277.8 279.1 280.5 281.3 281.8 282.3 282.4 281.9 282.1 281.9 282.4 281.6 278.3 274.9 271.7 268.7 263.8 258.7 251.6 239.2 217.9 199.8 173.3 170.9 169.1 182.8 196.1 204.8 214.1 221.8 225.2 223.5 220.6 215.6 201.8 192.2 204.6 213.6 221.5 226.9 231.1 235 238.2 241.3 242.7 242.6 239.9 236.4 236.6 240.2 248.7 259.7 265.1 267.9 271.9 276.9 279.8 282.1 285.7 288.9 290.2 289.1 286.6 281.2 267 256.4 246 231.1 215.6 190.8 169.2 158.2 149.7 153.9
44.6 37.5 29 21.3 15.8 7 11.6 7 11.6 12 6.3 6.4 6.4 11.1 11.2 11.5 11.5 13.2 20.1 25.4 31.4 37.2 41.1 46.4 51.3 54.4 59 63.5 69.1 77.2 89.8 100.1 107.2 112.9 119.8 132.5 146.8 159.1 172.8 183.3 197.3 213 228.1 242 252.5 261.2 266.4 270.6 273.2 275.1 276.1 277.8 279.8 281.4 282.9 282.4 280.7 279.6 277.9 275.4 273.2 270.8 268 265.2 262.4 259.1 255.3 251.3 247.6 246.7 245.6 245.4 245.3 243.5 241.1 237.1 233.7 238.7 243.3 249.3 256.7 260.8 265.5 270.9 274.9 277.5 279.2 279.9 280.5 280.4 279.5 278 276.8 276.2 276.2 275.3 275.1 273.7 272.3 270.8 269.2 267.4 264.9 261.7 254.4 246.6 261.6 267.1 271.1 274.4 276.4 277.5 277.3 275.6 274 272.3 269.1 262.7 253.1 238.1 254.9 261.9 267 270.4 271.8 273.1 274.5 275.8 276.9 277.5 277.9 278.4 279 279.5 279.4 279.5 279 277.1 274.7 271.7 268.7 265.8 261.8 256.9 252.1 245.4 230.2 209.7 185.4 170.7 169.4 169.5 182.3 189.9 199.4 208.8 216.4 217.5 213.7 207 191.8 192.1 200.4 208.8 215.9 221.9 225.7 228.8 231.8 234.6 235.8 233.6 229.3 225.6 234.1 246.5 256.5 263 267.6 270.3 272.5 276.6 280.4 283.5 287.5 290.5 292.3 290.5 287.6 283.6 273 258.6 247.8 233.2 215.8 193.3 170.9 159 150.2 153.1
40.2 31.5 24.2 17.9 11.8 11.2 11.4 11.6 10 11.5 6.3 11.3 11.2 10.9 11 11.1 12.3 17.3 24.4 27.8 32.8 37.5 41.9 47.4 51.9 54.5 58.9 63.9 70.9 83.1 94.8 104 110.2 118.2 129.6 140.5 153.6 166.3 178.7 189.9 206.5 221.1 235.3 248.2 258 265.2 270.5 273.9 276.4 278.7 280.5 282.2 283.4 284.1 283.5 282.2 280.5 278.7 275.8 273.4 270.5 267.7 264.9 262.1 259.1 254.8 250.2 245.7 241.6 240.2 239.4 240.9 241.2 239.7 237.2 234 221.6 232.4 236.7 241.9 252.1 256.6 261.5 266.7 270.4 272.7 274.3 275.2 275.4 275.7 274.9 273.6 272.3 271.8 271 270.9 270.4 269.4 268.1 265.4 264 262.3 260.4 256.3 242.3 252.9 260.7 265.8 269.8 272.3 274.3 275.4 275 274 272.6 270.4 267.3 262.8 252.2 235.6 253.9 261.6 265.8 267.5 268.8 269.9 271 272.2 273.1 273.7 274 274.5 275.1 275.6 275.9 276.1 275.2 273.7 271.4 268.2 265.3 262.7 259.4 255.2 251.8 247.2 239.7 221.5 199.9 180.9 170.3 167.2 166.9 172.2 182.1 191.3 201.7 209.8 207.2 200.6 191.2 186 196.1 203.4 211.6 216.6 219.6 221.6 224.4 227.6 227.8 224.9 220.8 224.9 235 251.9 260.6 265.4 268.1 270.6 274.8 278.7 282.9 286.4 289.5 293.6 295.2 291.8 288.5 284.4 277.9 263.1 249 235.7 217.4 198 175.9 161 153.2 150.1
35.2 26 19.5 14 7 11.2 11.2 11.2 11.2 11.4 6.3 10.8 10.6 10.7 10.8 11 13.2 20.3 25.5 28.9 31.8 36.7 42.9 47 50.5 54.5 59 64.3 75.4 87.9 99.4 105.2 113.6 127.7 139.1 148.5 161.9 173.5 183.9 196.8 215.8 227.4 240.9 253.1 261.3 268.4 273 275.4 279.6 282.1 284 285.3 285.3 284.9 283.9 282.3 280.3 276.1 273.9 271.3 267.9 264.6 261.8 259 255.1 249.4 244.9 240.5 236 233.9 233 234.4 234.9 233.4 231.4 227.7 214.1 223.8 228.3 237.7 247 253.2 258.5 262.6 265.7 266.9 267.9 269.1 270.4 271 270.4 269.3 267.5 266.8 266.3 266.3 265.4 265 263.1 260.2 258.7 257.1 255.4 250.3 236.4 252.7 259.2 264.4 268.6 270.6 272.9 273.4 273.8 272.8 271.1 268.5 265.1 259.8 246 236.9 254.5 261.1 263.6 264.9 265.7 266.5 267.6 268.7 269.3 269.9 270.2 270.5 271.1 271.6 271.9 272.4 272.1 270.6 268.1 264.9 262.2 259.9 257.2 254.1 251.1 248.3 242.8 235.1 219.1 199.8 181.7 172 166.8 166.6 170.3 176.2 185.1 199.6 201.4 195.2 186.8 181.5 191.2 198.9 207.4 211.9 213.3 214.7 216 217.9 218 215.9 215.9 224.4 237.6 249.2 256.9 262.4 268.4 271.8 276.6 280.7 285.6 290.8 296.4 300.2 300.2 296.3 290.5 286.1 281 269.3 251.7 237.6 219.8 200.9 180.8 163.7 156 145.8
29.6 21.4 15.3 11.9 10.4 10.5 10.8 10.8 11 11.2 10.8 10.6 10.4 10.5 10.6 11.5 14.6 22 25.5 28.7 33.5 39.6 44.6 48.2 52 56 61.2 68.8 80.1 90.6 98.8 107.7 123.7 139.7 149 158.4 170.2 179.4 190.1 205.3 222.2 233 245.4 256.2 264.3 270 274.8 278.6 282.4 284.3 285 285.2 284.7 284 283.2 281.1 277.2 273.4 270.4 268.3 265.1 261.8 258.5 255.3 250.5 244 239.3 235.1 231 227.9 226.6 228 229.4 228.2 225.4 222.7 211.7 217.1 223.8 233.2 243.7 249 255.2 258.3 260.6 261.6 262.8 264.2 265.6 266.3 265.8 264.4 262.7 262.4 261.8 261.4 260.8 259.6 257.4 254.9 253.8 253.7 250.9 237.2 240.8 252.9 259.2 264.2 267.3 269.6 271.7 272.1 271.3 270 268.8 266.3 262.5 255.2 237.6 244.4 256.3 259.4 261.1 261.6 262.1 263.1 264 264.9 265.3 265.2 265.1 265.2 266 267.2 268.1 268.7 268.2 266.4 263.6 261 259.1 257.1 255.8 253.9 251 248.6 245.1 238.6 231.7 220 205.1 186.7 171.4 163.5 165.5 168.1 174.6 188 196.1 189.5 180.5 181.3 186.7 193.1 201.5 205.7 208.1 210.2 212.1 211.5 210.5 209 217.4 224.8 238.3 247.7 254.7 262.8 268.8 272.7 276.7 283.3 290.6 298.8 304.6 305.9 306.2 303.1 295.9 289 283.1 274.5 257.7 240.5 224 204.6 187 169.1 159.3 152.2
27.4 18.2 12.2 11 9.9 10.3 10.3 10.3 10.6 10.8 10.5 10.3 10.2 10.4 10.5 11.5 15.9 23.6 27.5 32.5 35.9 40.8 45.9 50 53.9 58.2 66.4 73.8 84 93.4 101 118 137.1 150.5 159.5 167.8 177.9 188.2 197.6 216.5 228 237.8 248.6 258.2 265.1 270.4 275.4 280.1 283.4 284.6 284.4 284.3 283.9 282.8 281.4 279.6 275.3 271.8 269.4 265.4 262 258.8 254.5 249.1 244.6 238.4 233.7 229.2 225.5 222.7 220.7 222.3 224.8 223.6 220.8 217.9 208.1 209.6 219.2 230 240 245.9 251.2 253.6 255.4 256.6 258 259.5 261.2 261.9 261.3 259.8 257.9 256.8 256.5 256.3 255.5 254.1 251.3 249.7 249.2 248.4 238.5 226.5 245.9 253.9 261 264.7 267.8 268.9 270.4 269.8 268.7 267.4 265.7 263.6 259.7 250.8 230.2 247.9 254.2 257.1 257.9 258.3 258.6 259.4 260.4 261.2 261.1 260.8 260.2 260.5 261.2 261.5 262.3 262.7 262.5 260.7 259.1 258.2 256.5 254.7 253.6 252.6 250.8 248.5 245.7 241.2 236.4 229.9 222.2 209.3 191.6 171.7 163.5 163.4 167.3 177.2 186.7 182.4 174.9 176.9 182.8 188.3 194.3 199.5 203.9 206 206.8 205.6 204.2 213.4 220.2 226.3 236.7 246.9 254.1 260.8 266.2 271 276 289.5 296.5 302.8 306.2 306.6 306.8 308.5 303.1 295.3 286.7 277.7 263.9 244.7 227.7 209 192 174.1 161.7 155.1
27.1 17.3 11.3 9.7 8.3 10.8 10.5 10.3 10.4 10.6 10.5 10.3 10.1 10.4 11 12.3 18.1 25.1 29.4 35.1 38 42.2 46.7 52.1 57 62.8 71.9 78.8 87.6 95.8 109.4 129.5 147.9 159.5 167 177.8 190.1 202.8 217.1 225.1 233.7 242.8 252 259.6 265.5 269.8 274.2 279.7 282.7 283.6 283.4 283 282 280.4 279.2 278 275 272.8 270.7 265.1 261.7 256.6 250.7 244.6 236.3 227.6 225.4 222.6 219.5 217.5 216.1 216.5 218.9 219 216.6 213.7 203.3 205 215.5 224.2 234.7 242.3 247.1 249 250.9 252.3 254 255.6 256.9 257.6 256.6 255.5 253.5 251.2 250.9 250.7 249.4 247.7 245.9 244.6 244 238.5 221.8 237.3 250.1 257.6 262.1 265.5 268 268.7 268.1 267.4 265.9 264 262.1 260.1 256.2 243.6 225.9 245.9 252.6 254.1 254.6 255.2 255.6 256.2 256.7 256.9 256.7 256.4 255.3 255.7 256.4 257.1 257.4 257.8 257.6 256.3 256 255.2 254 252.5 251.3 250.1 248.4 247 245.5 243.1 239.3 235.5 229.1 220.1 209.4 191.8 171.2 161.9 163 167.8 174.6 175.5 168.6 170.9 177.1 183.1 189.3 194.6 199.3 200.6 201.1 202.4 208 217.2 225 230.9 237.7 245.8 251.8 257.2 263.7 269.2 276.3 291.3 298.9 303.6 305.2 305.1 305.7 308.5 308.9 303.9 293.9 281.2 268.5 250 231.9 213.2 196.6 180.4 165.1 157.4
24.4 15.5 8.3 7.7 10.8 10.6 10.4 10.3 10.3 10.4 10.3 10.1 10 11.4 10.8 14.5 23.6 27.5 31.6 36.6 40.2 44.5 49 55.5 61.5 68.2 75.6 83.2 90.5 102.3 119.9 138.5 153.5 163.4 177.1 195.8 211.7 221.6 227.6 234.6 242 249.4 255.9 260.2 266.3 270.3 274.3 278.3 280.6 281.5 281.5 280.9 279.6 278.6 277.8 276.7 276 273.5 270.3 266.1 261.1 255.7 250.5 245.7 240.4 232.5 223.3 214.8 213.4 212.7 212.3 212 213.3 214.1 212.3 209.5 199.6 196.6 208.6 219.2 229.8 238.9 243.1 244.8 246.6 248.2 249.7 251.3 252.6 253.2 252.4 251.3 249 246.2 244.2 244.3 242.6 240.8 240.3 240.1 238.9 229.1 221.4 242.6 252.2 258.5 262.9 265.7 266.7 266.7 265.9 264.1 262.3 260.4 258.5 256.3 246.9 226.5 236.1 244.2 249 250.7 251.2 251.8 252.3 252.8 252.7 252.5 252.3 251.8 250.7 251.2 252.2 253.3 253.7 254 253.2 252.7 252.6 252.4 251.8 250.5 249.3 247.9 246.6 245.5 244.2 243 240.7 237.5 234.3 227 219.2 205.2 186 169.9 159.8 162.5 166.3 168.8 164.5 168 173.2 179.8 184.9 186.3 193.9 189.5 198.9 204.9 212.4 221.7 228.6 233.8 238.7 244.3 249.9 255.2 260.7 268.5 282 291.1 297.5 302.6 304.1 304.1 305.1 307.7 308.7 308.3 301.7 287.5 273.4 255.1 236.6 218.3 200.2 186 170.9 159.9
19.9 14.2 9.7 7 10.6 10.5 10.4 10.3 10.3 10.3 10.1 10.1 10 10.7 11.1 17.6 26.3 30.2 34.2 38.6 43.3 48.2 53.1 60.8 66.1 73.3 80.2 86.3 95 111.8 128.9 145 157.7 171.7 190.4 215.2 226.3 233.4 239.1 245.3 250.3 254.9 258.2 261.9 267.3 271.2 274.4 276.5 277.8 278.7 278.6 278.1 277.2 276.9 276.7 275.9 275.6 273.9 269.5 264.1 258.9 253.7 248.3 243.6 239.1 231.8 223.6 214.6 205 207.3 208.1 207.4 207.9 209.1 208.4 206 198.6 187.8 204.2 215.4 225.1 234.5 238.9 241.1 242.4 243.5 244.8 246.2 248.3 248.8 248.5 247.4 245.6 237.6 236 237.3 236 235.6 235.6 235.7 233.2 220.9 223.1 244.3 253.8 259.2 262.7 264 264.5 263.7 262.8 260.3 258.5 256.7 254.9 251.8 234.3 223.1 239.3 242.9 245.2 246.8 247.6 248.1 248.7 248.5 248.4 248 247.2 246.3 246.5 247 248.6 249.7 250.3 250.4 249.8 250.1 250.2 250.3 249.8 248.7 247.7 246 244.7 243.4 241.6 240.7 240.4 238.9 236 231.1 224.3 215.1 198 179.5 164.8 160.2 159 159.8 159.4 166.4 170.5 175.1 178.4 178.1 190.1 196.4 201.5 207 213.9 224.6 230.2 234.1 238.1 242.6 247.8 253.1 259 268.6 281.9 289.6 296 300.5 303.2 304 304.7 305.8 307.2 307 304.3 292.9 276.8 260.8 239.9 222.5 203.7 189.7 175 161.5
16.4 7.8 7.3 7.4 10.7 10.4 10.3 10.3 10.2 10.2 10.1 10 11.2 11.2 13.5 22.5 28.9 33 37.4 41.8 46 52.1 58.6 66.2 72.1 78.2 83.8 90.2 104.3 121.4 138.6 150.3 164.7 180 208.5 228.7 238.3 244.7 250.1 253.7 256 258.6 262.6 266 270.1 272.8 273.2 274.9 275.9 276.4 275.9 275.8 275.3 275.1 274.9 274.2 273 270.6 266.4 261.1 255.9 250.8 244.4 239.8 235.9 229.4 221.6 213.7 204.9 200.6 203.7 201.4 202.1 204.6 204.2 202.2 194.1 182.7 203.2 213.4 221.5 229.2 234.2 236.2 237.7 239.5 240.5 241.3 243.3 244.2 244.2 243.2 240.9 230.2 228.3 229.4 230.2 231 231.2 230.3 225.5 209.6 225.3 246.2 254.2 258.5 260.9 261.7 261.2 260.2 258.4 256.6 254.6 252.9 250.7 244.6 225.9 227.2 238.2 239.9 242.6 242.9 244 244.4 244.3 244.1 243.7 242.5 241.7 241.8 242.3 243.1 245 245.9 247.1 247.4 246.9 247 247.7 248.1 248.3 247.1 246.1 244.6 242.5 240.8 239 238.8 239.2 238.8 237.5 233.9 228.1 221 209.7 192 174.7 162.6 159.4 157.1 158.3 164.8 167.7 165.1 173.9 180.2 186.4 194.2 202.8 211.6 219.2 225.8 229.2 232.7 236.4 240.3 244.9 250.2 257.1 267.6 280.6 288.1 294.6 298.9 303.9 303.9 303.3 303.3 304.7 305.7 303.8 296.4 279.3 264.7 243.6 226.4 208.6 192.7 178.4 163.6
13.3 7.5 7.1 6.6 10.6 10.4 10.3 10.2 10.1 10 9.8 9.8 10 11.5 22.1 27.3 31.4 35.9 40.3 45.8 49.3 56.8 64.2 71.4 78.9 83 88.6 98.5 115.1 132.1 145.3 157.7 174.3 198.7 225 242.6 251.7 253.3 256.5 258 261.2 264.9 268.7 270.8 272.7 271.7 272.1 273.2 274.7 274.9 274.3 273.8 273.4 273 272.8 271.3 268.5 266.1 262.7 257.4 252 246.3 239.3 235 231.8 225.2 217.8 210.2 200.7 192.6 199.4 196.9 196.7 199.5 200 196.5 186.3 186.8 201.4 210 216.6 222.4 229 230.7 232.5 234 235.5 236.8 238.8 239.4 239.2 238.3 236.2 227.1 214.2 222.6 224.3 224.2 223.9 222.4 211.4 212 230.8 245.5 253.3 256.1 258.1 258.5 257.2 255.9 254.1 252.3 250.9 249.3 246.8 239.5 215.8 228.9 235.6 237.6 239.7 240.4 240.6 240.2 239.9 239.7 239 237.8 237 237.6 238.2 239.2 241.4 243.1 244.2 244.5 244.2 244.2 244.9 246 246.5 245.8 244.6 243.5 241.8 239.8 237.5 237 237.7 237.9 237.3 235.7 230.7 224.9 218.2 206 190.5 175.9 165.6 160.6 157.6 162.3 159.1 165.5 169.4 176.4 183.1 190.3 204.4 212.7 219.3 224.2 227.6 230.5 234.2 238.1 242.2 247.7 254.8 265.3 278 286.7 292.2 298.1 302.2 301.8 301.9 302 302.5 303.2 301.8 297.4 281.5 265.7 247.3 230.6 213.9 196.3 182.9 168.7
11.8 7.7 10.2 9.4 9.8 10.2 10.2 10.1 9.9 9.8 9.7 10.3 10.8 15.6 24.6 30.1 34.4 37.6 41.8 50.5 56.5 62.3 68.4 75.9 82.4 87 96.9 111.7 127.4 141.4 153.2 168.7 191.6 217.4 239.4 254.4 259.4 259.3 260.2 262.8 266.5 270.4 272.9 273 271.6 270.7 271.2 271.7 272.7 273.4 272.5 271.8 271.2 270.1 269.4 267.7 264.2 260.7 257.5 253 247.4 241.1 233.5 225.7 219.5 207.7 203.8 200.3 191.7 192.3 195.2 193.6 192.3 194.5 194.5 190.3 179.1 187.9 196.4 204.7 208.2 216.2 223.2 225.3 227.1 229.5 230.9 232.5 234 234.9 234.9 234.3 230.7 223.7 209.5 212.7 216.6 215.8 216.1 205 205.3 220.4 229.1 241.4 250 253.4 255 255.3 254.5 251.9 249.9 248.8 247.4 245.7 242.8 237 212.5 223.9 231.8 234.4 236.7 237.6 237.3 237 236.5 235.7 234.4 233 231.9 232.6 233.7 235.8 238.1 240 241.3 241.8 241.8 241.6 242.4 243.5 244.4 244.5 244 243 240.9 238.5 236.2 235.1 235.4 235.7 235.8 234.9 231.8 228.4 222.6 215.4 205.5 194.9 186.2 181.5 178.4 167.5 153.7 158.4 165.5 173.4 181.7 187.3 203.1 211.8 217.3 222.5 226 228.8 232 235.9 240.9 246.3 252 262.9 276.2 285 290.6 296.7 301.3 301.2 300.6 300.8 301.7 301.4 299.6 296.7 284.2 268.1 249.8 231.7 218.2 201 187.2 172.3
9.4 7 8.6 8.6 9 9.4 9.8 10 9.8 9.6 9.5 9.9 14 22.1 28.5 35 42 47.2 51 55.8 62 66.8 74.3 81.1 88.3 100.9 112.4 125.6 138.1 149.6 164.9 187 211.8 232.7 251.7 260.9 264.6 265.9 265.7 266.8 270 271.6 271.1 269.9 269.6 269.8 270.4 270.9 271.2 270.9 270.3 269.3 268 266.5 264.7 262.7 259.9 255.7 252 248.3 243.1 237.2 236 234.6 228.9 221.5 211.3 201.1 188.4 186.9 190.3 190 189.1 190.1 189.7 185.4 174.9 180.4 188.8 197 201.9 207.5 214 217.8 221.1 224.5 227 228.8 229 229.7 229.8 228.7 223.4 213.2 200.2 205.6 205.4 201.8 197.6 202.2 213.3 221.2 228.1 234.9 243.5 249.4 252.5 253.3 252.6 249.7 247.4 245.4 243.8 242 238.9 234.5 218.6 216.5 227.7 231.7 233.2 233.6 233.8 233.1 232.5 231.4 230.4 228.7 227 228.2 230.2 232.1 234.6 236.7 238 237.7 238.3 237.4 238.7 240.7 242.3 242.7 241.8 241.2 239.6 236.9 234.6 232.1 232.4 233.5 234.3 233.4 231.6 228.9 225.4 219.4 212.7 205.1 198 192.8 182.8 174.6 156.8 157.4 164.1 170.3 177.1 186.6 202.4 210.2 215.5 220.7 224.4 227.2 230 234 239.1 244.3 250.4 260.3 273.8 282.9 289.5 295.6 300.1 300.3 299.9 299.6 300.5 300.3 298.4 295.1 287 269.8 252.1 232.6 220.8 204.9 190.3 178
9.8 8.4 7.3 7.8 8.9 9.8 10 9.7 9.5 9.7 9.6 12 20.7 28.7 38.1 49.4 56.8 60.4 62.9 66.2 71.8 80.6 87.7 97.1 106.6 116 126.2 138.2 148.3 161.8 185.1 208.6 228.5 246.2 257.9 265.8 271.4 272.1 270 269 269.3 267.9 267.5 267.6 268.2 268.7 268.6 267.9 268.6 268 267.3 266.3 265 263.4 261.2 259.3 255.3 252.6 249.7 245.9 241.8 238.5 239.9 237.1 231.6 223.4 214.3 203.3 188.9 182.5 185.1 184.1 186.4 186.9 184.9 180.2 172 172.8 181.2 189.6 193.8 197.4 204.8 211.3 215.7 219.7 222 223.5 224.2 224.2 222.2 215 203.3 192 184.7 187.9 188.9 198.1 205.3 212.3 217.2 223 230.7 236.9 242.6 248 250.9 252.1 251.5 248.8 245.3 243.1 240.1 238.3 235.4 230.9 220.6 205.3 225.1 228.6 229.1 229.4 229.4 229.1 228.2 227.2 226.1 224.7 221.3 222 225.4 227 229.1 230.9 233 235 234.2 235.9 238.9 240.8 240.9 241.1 242.5 240.9 238 234.6 233.2 230.2 229 229.3 230.5 231.2 230.2 228.2 225.7 221.2 214.6 209.6 202.9 196.1 187.3 173.7 155.9 161.8 163.5 167.4 176.2 186.3 198.1 209.1 216.8 220.8 222.6 225.3 227.9 232.9 237.8 242.3 248.1 257.9 271.2 280.2 287.8 293.8 297.7 299.3 299.3 298.3 299.1 298.8 297.4 293.5 287.4 271.1 254.7 235.3 221.9 207.6 193.4 181.1
10.5 9.3 8.1 9.7 8.9 9.4 9.8 9.5 9.3 9.6 11.3 17.2 27 38 53.9 63.1 67.1 70.1 74.2 80.7 90.3 98.1 107.1 114.4 122.6 131.1 139.6 149.2 164.8 184 208.4 226.7 240.4 249.9 260.8 269.4 276 273.7 270.3 268.2 266.3 265 263.8 263.9 265.1 266.2 266 265.8 265.6 265 264.1 262.9 261.6 260.3 259.3 257.2 254.7 252.9 250.1 247.1 243.6 240.7 238.8 235.7 230.9 223.8 214.9 203.5 187.9 177.7 180 181.3 184.6 184.4 181.7 177.5 167.9 168.8 176.3 182.1 185.6 187.6 196.6 206.8 210.9 213.7 215.9 215 213.5 211.7 207.9 198.6 183.4 185.9 194.8 202.3 206.7 210.7 213 216.9 222 228.1 234 239.6 244.5 249.1 253 254.9 254.3 249.9 245.7 240.8 237.8 234.7 231.5 226.5 216.5 202.8 222.1 224.9 224.9 225.1 224.9 224.4 223.9 222.9 221.7 219.3 212.5 212.3 210.3 217.4 221.2 227.2 228.6 232.7 235.9 238.8 242.4 244.2 243.5 243.8 243.8 241.2 238.2 235.1 231.9 228.6 226.1 224.2 224.8 227.2 227.9 227 224.9 221.7 215.6 210.1 202.9 196.8 188.3 174.4 159 156 163.2 164.3 173.7 185.9 199.6 212 216.5 218.5 220.7 223.5 226.4 232.1 236.8 241.1 247 256.2 267.7 277.9 285.8 292.6 296.3 297.7 297.9 297.2 297.8 297.1 296.3 292.2 287.3 274.4 257.6 238.8 222.3 209.3 196.7 184.3
6.6 6.9 7 8 8.7 9.8 9.6 9.3 9.1 10.4 14.3 23.5 34.8 50.8 62.1 68.6 80.6 91.5 97.5 103.1 110.3 117.2 124.1 130.6 137.1 143.7 152.3 169.4 189.7 208.4 224.1 238 244.5 254.4 266.3 274.5 274.5 271.6 268.1 265.2 263.1 261.3 260.2 261.1 262.7 263.4 265 264 262.4 262.5 260.4 259.2 258.3 257.7 257.7 257.3 256.3 254.6 252.7 249.5 245.6 242 238.6 233.8 228.1 222 215.4 204.1 189 173.3 174.4 178.1 183.1 183.9 179.8 172.7 167.9 165.9 171.4 175.4 176.5 179.2 188.7 198.4 204.2 205 201.7 200.7 199.2 197.5 193.8 178.8 187.8 200.5 206.6 211 212.8 214.4 217.6 222.4 227.6 233.4 238.6 244.6 250.7 255.7 259.1 260 258.8 255 249.4 242.3 236.3 232 227.6 222.7 211.2 201.2 217.2 219.9 220.5 220.5 220 219.4 219.1 218.4 216.5 214.5 204 211.1 222.7 227.2 230.2 231.5 234.5 236.8 239.2 243.3 248.5 250.9 250.5 248.7 244.3 241 237.8 234.6 231.8 227.5 224.2 221.7 219.5 221.8 222.7 223.9 221.5 219.1 214.4 209 203.6 197.1 187.9 177.2 161.7 146.4 156.6 161.8 166.7 180.7 197.3 209.6 213.2 214.6 217.5 220.6 224.5 230.6 235.1 239.4 245.2 252.6 264.5 274.1 283.2 290.5 295 295.7 294.9 294.9 295.8 296.3 294.9 291.3 286.2 277 259.9 242.6 224.2 210.8 198.9 187.4
9.2 7.1 8.1 7 9.9 9.7 9.5 9.2 9.1 11.5 19.4 30.3 44.6 57.8 68 87.8 103.9 111.3 117.2 123.2 130 134.2 138.7 143.8 149.3 162.4 176.7 194.8 212 223.9 234.1 242 251.5 261.4 271.7 272 270.5 267.3 264.2 261.1 259.7 258.2 258.5 259.4 260.4 263.3 262.7 261.2 259.7 258.8 256.8 255.5 254.8 256.3 257.9 258.2 258.3 256.8 254.9 251.6 247.2 242.7 237.2 231.8 224.6 218.4 212.2 203.5 188.4 174.4 170.6 179.1 182.4 181.3 178.8 171 167.6 163 167.3 169.4 169.9 170.5 177.9 187.9 189.8 186.4 183.5 183.1 181.6 180.6 176.3 181.7 197.8 205.5 210 212 215.5 219.1 222.7 228.7 233.1 238.3 245 252.8 258.7 264.1 266.9 265.4 262.2 258.2 252.8 245 238 232.1 226.9 221.3 214.6 199.3 209.8 214.7 215.3 215 214.5 213.6 213.6 212.3 210.8 209.1 199.7 217.7 224.6 229.2 231.6 233.6 235.6 238.6 242.6 249.2 255.2 259 256 254.3 246.9 241.2 237.4 234.2 230.6 226.8 223.5 221 217.2 216.4 218.1 217.5 217.7 215.2 211.8 207.6 203 196.7 190.4 181 168.5 149.4 149.1 159.5 163.2 173.8 191 202.7 206.9 210 213.7 217.7 221.8 226.7 231.4 236.3 242.1 248.6 260.1 269.2 278.2 286.6 291.3 292 291.2 291.8 293.5 295.1 294 290.1 285.3 277.8 261.7 247.1 228.4 213.3 202.4 192.3
9.3 9.4 8.2 7.1 7.6 9.6 9.4 9.2 10.1 15.5 25.9 35.6 52 66.3 86.5 107.9 121.3 127.7 132.3 137.5 142.1 147.2 152.6 163.3 176.1 190.4 204.7 217.1 227.3 233.7 240.2 250.1 258.5 268.6 270.6 270.3 268.6 264.2 260.4 257.4 256.1 255.5 256.8 258.3 258 260.7 259.4 258 256.5 254.9 253.6 252.3 254 256.2 258.6 259.8 259.7 258.6 256.3 252.2 246.8 240.6 235.8 229.7 220.9 214.4 208.2 200.6 184.4 171.4 170.7 178.2 180.6 180.1 178.3 173.3 164.5 159.6 163 164.1 164 164.2 167.5 173.1 172.3 169.4 168 167.9 171.2 173.8 179.1 189.6 200.4 207.8 211.6 212.5 217.4 223.3 228.7 233.5 238.6 246 253.8 260.8 266.8 272.1 272.8 270.6 265.2 259.5 254.4 249.5 242.6 235.4 229.5 222.7 217.3 206.5 196.5 209.4 210.1 208.7 208.5 207.6 207.4 206.6 205.5 198.8 206.9 219.2 225.3 228.3 230.2 231.9 235.6 240.2 247.9 255.3 262.5 265.9 263.7 258.3 251.5 244.7 238.1 234 229.4 226.4 224.1 221.7 218.3 210.9 212.3 213.8 213.1 209.5 206.6 203.5 201.3 198.2 197.7 186.8 172.9 154.7 142.1 149.6 155.6 167.6 183.3 196 203.7 208 211.6 215.2 219.2 223.7 227.4 233 238.2 244.2 255.4 265.2 273.7 281.5 285.7 287.3 288 288 290.1 292.2 292 288.1 283.2 278.3 263.8 250.6 232.4 216.1 205.8 195.9
9.2 9.3 9.4 7.5 7.6 8.1 9 9.3 12.2 21.1 31.3 43.8 61 83.1 103.9 122.5 128.3 133.3 140.2 151.5 162.9 170.7 180.9 194.5 205 215.8 223.6 229.2 233.7 239.4 250.9 257.7 263.9 266.6 268.5 267.8 264.9 260.6 257.7 255.2 253.1 253.2 255 256 256.6 256.5 255 254.2 253.4 251.4 250.3 251.7 253.8 256.5 259 260.8 260.8 259.4 256.8 253.1 248.4 242.2 234.1 226.5 217.4 210.5 204.5 198.1 181.9 166.5 169.8 177.2 178 178.4 178.6 175.8 169.4 158.9 157.7 158.3 159.1 159.7 160.9 161.5 164.5 168 176.9 183.8 185.8 188.6 193.1 199 204.4 208.2 210.4 216.6 221.9 227.6 233 238.8 247.7 256.6 264.9 273.8 279.9 283.6 280.7 275.9 268.9 262.5 256.7 251.8 246.3 239.9 233.8 226.8 219.8 211.6 200.4 193.9 202.5 201.7 203.1 203 201.9 200.5 198.7 194.6 208.4 217.8 224 226.3 227.4 230.3 235.8 243.4 251.4 259.3 265.5 268.8 267.6 263.2 256 247.1 240.2 235 231.3 227.3 223.8 220.8 217.8 212.1 205.7 205.7 207.6 203.6 201.4 198.9 196.6 195.2 194.8 186.3 173.3 157.4 142.7 146.9 154.3 162.9 176 192.1 199.8 205.1 209.1 212.6 216.6 220.9 225.3 229.9 233.9 239.7 249.1 259.7 268.2 275.1 279.7 282.1 284.2 286.5 287 288.4 287.5 286.3 282.2 277.4 268.6 251.5 237.3 221.8 209.4 199.2
8.9 9 9.1 8.4 7.9 8.6 8.8 11.4 16.7 26.5 38.7 54.8 78.9 98 116.6 124.7 128 137.3 153.9 174.6 190.5 199 209 216.7 222.1 227.1 230.8 232.9 238.5 248.7 257.7 261.7 262.7 263.9 263.5 261.4 258.5 255 252.5 250.8 249.7 251.4 253.4 254.1 255.7 254 251.5 250.7 249.8 248.4 248.7 250.9 253.3 255.5 258.9 259.6 260.1 259 256.1 251.8 247.2 240.2 231.9 222.9 213.9 207 201.3 195 181.8 165.6 166.2 174.2 175.7 177 177.5 175.6 170.2 158.8 155 154.9 156 158.3 160.5 164 170.2 177.2 185 191.1 196.9 199.6 201.8 204.5 207.8 210.5 215.4 220.5 226.2 231.5 239.6 248.8 258.2 269.3 279 286.8 290 289.7 285.1 278.6 271.4 265 259.4 254.9 249.1 242.4 237.2 229.6 221.4 212.3 204.6 196.2 189.7 193.3 197.5 197.1 196.4 195 190.5 198.2 205.1 214.3 221.5 223 224.3 229 237.9 248.2 257.1 264.4 269.6 273 272.3 268.6 262.7 253.5 245 237.7 232.6 228.8 224.4 221.2 218.1 213.3 208.6 203.5 196.3 195.6 193.9 191 189.6 189.2 187.6 180 171.3 159.5 144.3 138.5 147.3 157.9 172.4 189 195.5 200.9 205.4 209.2 213.1 217.6 221.8 226 230.2 234 245.1 254 262.1 269.5 274.6 277.6 280.1 283.6 285 285.4 283.9 283.6 281.7 279.1 274.7 262.3 245.3 231.4 214.4 203.1
8.6 8.7 8.8 8.9 8.3 9 11.2 13.5 22.3 34.7 49.3 71.2 92.9 108.3 120.6 124.8 131.9 151.3 174.4 197.5 205.6 211 218.2 222.8 224.8 227.7 229.7 236 246.5 254.4 258.3 258.7 258.2 256.6 256.3 254.4 251.5 249.2 247 246.3 247.6 250.3 251.8 252.9 253.1 250.6 248.3 247.3 245.4 245.3 247.5 249.9 252 254.4 257.8 257.9 258 257.2 254.9 250.6 245.9 238.9 228.1 218.4 210.2 203.6 197.9 190.9 179.7 163.9 163.5 170.9 173.6 175.3 174.7 171.8 166 156 152.4 154.4 155.9 159.7 163.4 169.9 176.5 183.3 189.6 195.4 199.9 203 204.9 207.5 210.7 214.2 219.6 225.5 230.5 238.4 248.7 259 271 281.9 288.3 291.7 293.6 292.1 288.5 280.8 271.7 266.1 262.5 258.3 251.7 244.2 236.9 230.8 223 213.8 205.1 198.8 192.5 187.2 190.3 191.3 190.8 190.9 187.1 196 201.5 209.6 216.8 217.6 223.2 230.4 242 253.4 264 271.3 276.3 279 278.4 274.9 269.2 260.5 250.8 241.8 235 230.2 225.9 221.7 218.7 215.8 212.8 208.6 203.7 199.6 195.9 189.8 183 173.9 177.4 174.9 168 158.8 145.8 137.7 145.8 157.4 170.5 183 191.2 197.2 201.7 204.8 209.7 214.4 218.7 223.1 227 230.7 237.3 248.4 255.9 263 269.1 274.8 278.1 281.6 282.6 282.8 282.9 282.8 281.7 281.3 279.8 274.5 258.1 241.9 224.5 208.1
8.6 8.6 8.7 8.7 8.8 10.5 10.4 16.6 27.4 42.4 63.1 86.2 103.1 113.8 120.1 126.6 143.4 168.4 194.4 205.1 212 217.3 218.6 219.2 220.8 223.4 228.4 241.2 248.7 251.2 252.5 251.9 249.8 248.3 248.3 246.4 243.6 242.3 242.3 242.7 246.1 248 249.8 250.7 250.6 248.6 244.6 243.3 241.3 242.9 245.8 248.3 250.8 253.7 255.7 256 255.6 253.5 252 249.3 244.8 237.8 225.4 215 206.7 199.9 194.7 189.2 179.9 164.8 160.1 167.5 171 173.2 171 167.2 156.3 152.3 151.9 154.7 157.9 161.6 166.3 172.8 179.6 187.4 193.8 198.4 202.1 205.3 208.4 211.2 215.4 219.7 225 230.5 239.5 249.3 259.9 272.2 283.2 289.5 292.7 295 295.3 294.6 290.7 283.2 273 265.1 260.5 256 253.2 246.8 237 228.5 221.4 214.1 205.1 198.8 194.4 188.9 187.2 187.2 187.2 187.2 187.2 191.2 198.1 205.3 207.8 216.4 224.2 233.9 245.6 258.9 269.9 281.7 288.7 290.6 289.5 284.4 277.7 269.5 258.5 247.3 238.6 231.9 225.9 222.2 219.2 215.8 212.3 208.1 203.6 200 195.9 191.5 188.1 180.8 167.9 169 164.7 156.3 144.4 137.9 150.8 162.5 168.1 175.7 187.3 193 196.4 200.9 206 210.7 214.3 219.8 223.9 227.8 235.2 242.8 250.4 257.2 265.7 272.6 276.2 278.1 279.2 281.2 282.7 283 282.5 283.4 284 280 272.6 253.2 235.8 217.6
8.3 8.4 8.5 8.5 9.9 8.6 11.2 21.5 33.3 53.6 77.5 94.9 107.5 114.7 122.1 135.5 159.8 187 200.5 207 213.2 213.8 213.3 214.2 216.1 219.5 225.7 239.8 243.5 244.3 244.2 243 241.9 240.9 239.7 237.9 237.7 237.7 237.9 240.6 243.7 245.3 247.6 248.5 247.7 245.8 242 239.3 238.6 240.4 244 246.5 249 252.2 253.8 254 251.8 249.4 248 245.7 242 235.2 224.1 212.1 204.3 196.8 192.3 186.5 177.6 163.3 156.6 163.7 166.9 168.9 165.5 156.7 147.8 150.2 153 156.3 159.9 163.7 169.9 176.3 182.8 190.9 196.3 200.9 204.9 209.5 213.8 217.6 221.9 227.3 234.4 241 249.3 259.4 272.3 283.2 289.7 293.2 296.2 296.5 296.1 294.9 291.8 284.9 275 266.2 259.6 253.6 249.9 245.5 235.4 226.3 218.3 211 202.4 197.2 192.8 188.8 187.2 187.2 187.2 187.2 187.2 189.6 192.4 202.3 210.8 217.1 225.9 238 252.1 266.2 279.3 292.9 300.6 303 300.9 296.2 288.8 278.7 268 256.3 245.4 237 229.4 223.5 219.8 216.4 213 208.9 204.4 201.2 197 191.7 186.2 180.5 172.2 162 159.3 153.1 142.4 140.1 154.2 165.2 169.3 171.7 182.6 190.1 193.9 197.8 201.6 205.6 210.6 215.7 219.8 223 228.2 235.6 245 253.7 263.6 269.9 272.9 274.7 276.9 280 284 285.7 284.5 287.6 287.8 286.3 281.9 269.2 248 229.9
8.4 8.4 8.3 9.1 8.6 7.8 12 23.7 45.2 67.2 88.3 101.7 110.2 115.2 128.7 151.8 178.5 196 202.8 204.1 209.9 208.8 207.3 208.4 211.3 214.4 220.1 230.7 235.8 234.5 234.1 234.2 233.6 232.8 232.8 232.9 232.9 232.6 235.3 239 241.3 243.3 245.5 245.7 245 243.2 239.8 236.3 236.1 237.9 241.3 244.4 247.4 249.9 250.9 249.9 247.4 245.4 243.8 241.3 237.7 230.9 219.9 209.1 199.9 193.7 189 183.2 174.6 160.3 153.9 160.9 162.7 163.4 158.7 149.1 147.8 151.5 155 158.1 161.3 166.5 173.7 181.1 188.9 196.1 201.3 206 211.8 216.4 221 226.3 232.7 241.3 248.7 254.8 262.9 273.6 283.3 288.6 291.9 296.1 296.4 295.7 294.9 294 291.5 285.6 275.4 268.1 262.8 256.8 250.9 245.6 237.7 226.8 216.8 209.3 202.2 197.2 190.4 187.2 187.2 187.2 187.2 187.2 195.4 196.5 203.6 206.6 212.2 219 229 243.2 259.5 275 290 300.8 305.1 306.7 307.9 306.7 301.1 292 281.3 268.1 255.5 244.3 235.1 227.4 220.8 217.5 214.1 211.5 206.1 201.3 196.3 190.6 185.2 179.4 173 162.8 154.8 148.9 138.8 139.2 153.8 164.8 170.3 173.4 180.2 186.9 190.1 193.7 197.4 202.3 207.3 211.5 214.3 217.1 221.4 230.6 240.4 250.7 260.9 267.3 270.5 272.7 274.8 279 283.3 286.7 287.6 288 290.5 290.6 287.1 280.6 261.4 240.4
8.6 8.6 8.3 8.7 8.3 8.1 17.5 33.1 57.7 81 96.6 105.9 110.2 121.1 143.7 168.9 188.5 198.4 199.4 201.5 203.7 202.6 201.7 203.3 205.7 207.5 210 218.5 225.3 225.1 224.8 225.7 226.4 227.7 228.4 227 227.5 230.4 234.6 237 239.4 241.8 244.2 243.4 242.2 239.8 236.2 233.2 233.8 235.8 238.3 241.6 244.9 247.4 247.4 245.1 242.9 241.3 239.7 237 233.1 226.3 213.6 204.2 195.3 190.5 185.8 179.7 171.5 157.4 151.6 157.3 158.2 155.4 148.6 146.8 150.4 153.5 156.9 160.4 164.8 170.8 178 186.1 194.1 201.3 209.4 214.9 219.8 224.1 230.4 237.7 245.6 255.7 264 270.4 276.9 283.7 288 291.5 294.4 295.1 294.4 293.8 292.7 291.6 290.1 286 281.1 275.1 272.6 268.3 263.7 255.7 246.9 235 223.3 212.7 205.2 198.5 189.9 187.2 187.2 187.2 187.2 187.2 199.1 205.4 202.6 210.3 215.6 223.7 235.6 251.6 269 285 297.9 303.4 306.5 308.3 309.8 310 307.3 303.5 293.6 281 268.2 254.4 241.8 231.8 223.5 217.6 213 210.1 205.5 200.5 195.2 189.6 183.4 178.7 172.8 165.2 158.4 150 136.5 138.1 152.5 160.5 166.7 172.2 177.5 181.5 184.6 188.7 192.9 197.2 201.2 204.7 208.5 210.7 216.4 225.1 235.9 248 256.4 263 266.9 269 271.4 275.4 280.1 284.3 286.9 286.8 290.2 292.7 291 287.2 272.5 249.5
8.4 8.3 8.3 8.4 8.4 11.3 24 45.9 69.2 88.7 101.7 107.7 113.9 135.1 163.6 180.4 191.4 197 196.7 198.8 197.6 196.4 197 198.8 200.5 199.8 201.9 208.3 215.3 216.7 218.5 221.3 223.3 224.7 224 224.7 226.4 230.2 233.7 236.6 239.2 241.6 243.3 243.2 240 236.7 232.8 229.9 231.1 234.1 235.5 238.8 242.4 244.2 243.1 240.7 238.8 237.3 235.3 232.9 228.9 221.4 207.8 198.8 191.1 186.8 181.8 176.8 169.1 155.2 149.6 152.8 151.6 147.5 145.2 150.2 152.9 156 159.3 164.1 169.2 175.8 184.5 195.5 204 211.7 218.9 224.6 229.4 234.5 241 248.3 259.9 268.3 274.4 279.6 284.5 287.4 290.3 292.6 293.2 292.7 292 291.1 289.9 288.7 287.6 286.4 283.2 283.6 284.4 283.3 278.7 269.5 255.9 241 228 216 205.9 199 190.7 187.2 187.2 187.2 187.2 187.2 202 211.5 212.3 216 224.6 228.9 246.8 262.2 278.4 292.6 299.5 303.7 306.2 307.6 309.5 311 309.9 307.3 302.3 293.1 279.9 265.4 251.1 237.8 227.2 217.7 211.8 206.9 203.2 198.4 193.4 187.3 181.2 176.8 171.9 165.5 160 149.8 132.5 140 150.9 157.6 160.8 165.7 171.1 173.9 177.1 181.8 187.3 192.3 196 199.3 202.7 205.7 211.7 221.6 233.2 242.9 250 254.9 258.3 261.9 264.7 269.6 274.3 278.9 280.9 285.2 288.5 291.5 290.7 288.7 278.5 259
8.3 8.4 8.4 8.6 8.7 17.8 36.1 59.3 78.4 94 103 109.6 124 150.9 175.2 182.7 191 193.2 194.5 193.5 191.9 189.9 191.6 193.2 192.5 193.6 195.9 201.9 210 213.1 215.8 219 222.1 222.7 221.1 221.7 225.7 229.5 232.8 236 238.9 241.7 242.7 240.9 237.5 233.8 230.7 226.7 230.2 232.2 233.5 237.2 240 240.8 240 237.4 235.4 233 231 228.8 224.1 215.3 202.1 193.8 186.7 182.4 177.4 172.6 166.9 152.4 147 148.6 145.6 143.6 148 152.5 155.5 158.8 162.8 168.2 175.1 182.3 193.6 207 218.1 227.1 231.9 235 238.4 243.6 252.2 260.4 269.4 275.8 280.2 283.5 286.8 288.7 290.4 290.9 290.6 290 289.5 288.2 287 285.8 284.7 284 284.1 284.9 286.3 285.7 282.7 276.7 263.3 245 230.5 218.4 206.1 197.9 189.5 187.2 187.2 187.2 187.2 192.1 205.2 210.7 217.2 225.3 231.8 235.8 254.2 272.2 287.2 294.4 299.9 302.5 304.9 306.6 308.1 309.8 310.9 309.8 306.3 300.6 290.6 275.9 261.4 247.3 233.1 221.6 212.1 205.6 200 195.5 190.9 185.5 179.3 173 166.7 164.6 159.4 147.8 128.8 139.8 148 153.4 156.6 159.9 164.6 169.3 172.3 178.8 183.4 187.7 191.1 194.5 198.8 203 208 217.6 229.4 238.1 243.7 248.3 251.2 255 258.2 262.7 267.3 271.5 276.4 282.4 286.6 289.7 289 286.6 277.9 267
8.2 8.6 8.6 8.6 11.3 26.6 48.6 68.3 85.3 96.9 104.2 116.3 139.6 167.9 180.3 184 187.8 189.6 188.7 187.7 186.1 183.6 184.9 186 187.2 190.1 192 198.7 206.7 210.9 214.6 217.9 221 220 216.8 220.3 224.3 227.8 231.7 235 237.9 240.8 239.5 237 234.3 230.9 228.2 223.9 228.2 229.6 231.4 234.7 236.7 237.1 239.4 235.1 232.1 229 226.7 224.6 220 206.6 196.8 188.5 181.3 176.7 171.6 165.9 157.8 147.8 140.9 143.2 142.4 146.7 150.8 155 158.9 163 168.4 175.2 183 192.5 204.1 216.3 229.8 238.9 243.2 243.6 246.4 253.3 262.5 269 274.9 279.6 282.6 285 286.5 287.9 287.9 287.9 288.1 287.6 286.9 285.5 284.1 283 282.1 281.9 281.9 282.7 284 284.7 283 278.6 269.5 249.8 232.7 219.9 208.4 197 187.3 187.2 187.2 187.2 187.2 195.1 204.9 209.9 220.5 235.8 245.5 244.1 257.4 278 289 294.9 298.8 301.1 302.8 303.9 305.6 307.3 308.7 308.9 307.1 303.7 297.7 288 273.4 258.2 243.4 227.3 215.1 207.1 201 195.7 190.1 186.1 181.5 174.5 166.8 157.9 151.8 144.6 131.5 133.6 141.1 145.9 150.9 155.4 158.5 164.2 169.1 175.1 179.4 182.6 186.2 191.9 197 201.2 205.8 213.8 224.5 232.1 238 242.3 245.6 250.2 254.8 260.6 265 268.2 272.4 277.2 282.7 285.8 285.6 283.2 275.3 269
7.8 8 8.5 8.6 16 38.5 56.8 75 89.7 97.8 109.9 131 159.6 173.6 183.3 186 184.9 183.8 182.3 182.3 179.6 177.1 178 179.1 182.7 186 189.7 199.4 205.2 210.9 213.8 216.9 218.1 215.9 212.1 218.7 222.3 226 229.7 233.2 235.6 237.8 235.8 232.9 230.6 228.5 226.2 220.6 226 227.3 228.4 231.1 233.2 234.2 241.6 244.4 227.7 225.3 222.7 218.4 214.2 201.1 191 183.1 175.3 168.2 161.1 152.5 147 140.1 139.5 143.8 148.1 153.3 156.8 160.8 165.4 169.7 176.1 185.1 195.8 205.5 217.7 230.3 239.5 246.3 250 252.6 255.1 260 267.2 271.8 276.9 280 282.1 283.8 285.2 285.9 286 285.9 285.9 285 284.2 282.8 281.4 280.2 279 277.7 278.2 279.6 281.3 282.7 281.8 278.2 272.4 255.4 234.8 219.2 209.4 195.6 187.2 187.2 187.2 187.2 187.2 196.4 202.9 210.6 224.5 243.9 254.9 261.1 269.2 281.6 288.3 293.4 297.4 299.5 300.4 301.2 302.8 304.4 305.7 306.5 305 303.1 301.2 295.7 285.7 269.3 254.1 237.3 222.7 211.4 202.5 196.6 191.5 187.1 181.3 173 166.1 160.5 154.7 147.8 137.1 129.9 133.4 140.3 147.2 151.6 154.4 158.4 165 170.8 174.6 177.7 182.3 189.2 194.7 198.6 202.9 209.6 218.6 226.7 232.3 236.9 242.7 247.5 252.9 257.7 262 266.3 269.7 273.3 279.2 284.6 284.7 281.1 276.2 269.9
8.1 8.1 8.3 9 26.1 48.6 65.3 80.7 91.8 103 120.6 146.5 166.4 176.7 183.4 184.1 180.4 177.9 176.6 175.9 173.1 171 171.8 174.2 179.4 184.6 189.6 197.4 204.4 208.9 211.5 213.7 213.4 209.6 210.9 216.2 219.7 224.2 227.4 230.5 232.6 233.8 230.6 229.4 228 226.3 224.3 217.9 223.8 224 224.4 226.3 228.5 232.7 244.4 250.1 232.7 220.7 219.1 214.6 206.7 197.4 186 177.6 169.8 159.8 146.3 136.9 138 139.8 147.7 154.5 157.1 159.3 164.3 169.3 174.4 181.2 189 198.6 208.5 219.4 231.5 237.6 243.9 250 253.5 256.3 259.3 263.5 267.7 273.2 277 279.2 281.1 282.2 283.2 284 284.2 284.4 284.4 283 281.6 280.2 278.7 276.4 274.4 273.4 274.8 276.5 278.3 280.1 280.1 278 273 260.2 239.2 220.1 209.1 196.6 187.2 187.2 187.2 187.2 187.2 195 201.7 212.6 226.4 245.5 258.5 267.3 274.9 280.8 286.3 292.6 295.6 297.3 298.1 298.8 299.5 301.1 302.4 303.4 303.8 303.2 302.1 299.5 294.7 283.6 266.1 250.9 234.7 220.6 208.1 200.3 194 189 183.5 177.1 169.4 162.8 156.8 150.6 141.9 128.4 128.5 135 143.9 148.8 151.8 155 162.1 165.2 169.6 174 179.2 186.3 192.4 195.4 198.4 202.2 211 220.6 226.4 231.7 237.4 244.3 250.1 254.8 259.8 263.7 266.6 269.8 277.7 282.4 283.4 281.2 276.5 271.4
8 8.6 10 14.7 38.1 57.3 73.1 85.7 96.3 112.7 133.3 155.5 169.1 178.4 181.3 179 175.2 172.4 171 169.4 167.1 164.9 166.6 171.3 177.6 183.4 189 196.6 202.3 206 208.1 208.8 206.5 203.2 209.4 213.4 217.2 221.6 225.2 227.7 229 228.9 227.5 227.2 225.9 224.8 224.1 222.3 215.2 218.5 220 221.7 224.4 230.2 247.2 260.8 241.2 221.7 215.6 211.2 202.2 192.6 181.3 171.6 163.7 147.8 136 139.5 150.4 156.1 158 159.4 162.1 165.8 171.9 178.4 186.8 194.2 203.6 212.3 221.9 233.2 239.2 243.4 247.8 251.8 254.8 257.1 259.3 263 266.5 272.2 275.8 278.2 279.2 280.2 281.1 282 282.3 282.6 282.5 281.2 279.3 277.6 275.2 272.9 270.8 268.8 271.4 273.6 275.5 277.1 277.7 276.5 273 262.5 239.2 223.4 209.5 199.2 187.2 187.2 187.2 187.2 187.2 192.3 203.9 215.9 231.9 250 261.7 268.6 275 281 286.4 291.4 293.9 295.1 295.1 295.4 296 297.1 298.1 299.2 300.6 301.7 302.1 301 297.7 291.7 282.3 264.1 249.2 232.3 219 207.7 200 194.4 187.4 180.2 172.8 166.2 160.1 153.3 144.9 131.6 126.7 130.1 140.8 145.6 147.6 150.1 155.5 161.1 167.7 172.7 178.2 185.3 190 190.4 195.7 203 213.1 221.5 225 227 231.9 238.2 245.7 251.6 258.5 266.6 269.4 271.9 274.8 278.7 280.8 278.5 276.3 272.6
8 8.2 9.7 26.5 47.7 64.8 79.1 88.6 104 124.7 144.3 161.4 172.1 178.3 176.8 173.6 169.2 165.4 164.1 162.6 159.6 160.6 163.7 168.5 176.4 182.8 189.4 195 198.8 202 202.7 201.3 199 201.7 206.3 210.1 214 218.4 221.5 223.1 223.8 224.2 224.6 224.5 224.7 224.5 223 220.7 215.5 212 215.5 218.5 221.9 230 250.3 266.1 247 222.7 213.5 207.5 196.4 185.4 175.3 166.5 155.6 140.9 135.5 146.4 156.3 159.6 161.5 163.7 167.7 172.7 182 190.6 199.5 208.3 217.5 227.1 235.1 239.8 243.4 246.5 249.1 251.7 253.9 256.3 258.7 261.2 264.7 270.2 273.8 276.1 277.1 278.1 279.1 280 280.3 280.3 279.9 278.8 276.6 274.5 272.1 269.5 264 259.1 267.4 270 272.3 273.6 274.8 274.2 271.5 264.2 238.7 227.9 211.1 201 187.2 187.2 187.2 187.2 187.2 192 209.1 227.5 244.1 254.9 263.2 268.9 274.9 279.9 284.9 288.5 291.4 292.5 292.5 292.3 292.5 293 293.7 295 296.4 297.9 299.3 299.4 297.9 294.2 292.5 284.4 264.2 247.9 234.7 220.5 209.2 200.4 194.2 187 179.7 171.4 165 156.8 145.1 132.9 125.5 127.5 135.8 140.5 140.6 149 155.8 161.6 166.8 171.4 176.2 183.6 180.9 188.1 194.9 204.4 215.2 217.5 219.6 223.7 230 237.6 246.2 255.2 263.4 270.5 274.4 275.8 275.5 275.7 277.2 275.8 274.4 272.2
8 8.3 11.7 37.9 54.8 71.7 81.4 94 114.7 135.6 154.6 165.7 173.2 175.1 173.5 169.4 163.9 159.3 158.1 156.2 156 160 163.3 167.6 177.9 183.4 189.6 191.9 195.8 196.9 195.7 193.6 195 198.6 202.6 206.2 209.7 214.4 216.9 217.5 218.3 219.5 220.1 221.2 221 220.9 221.1 219.3 217.1 211 210 215.2 219.8 230.3 252.8 267.5 246.6 220.8 211.2 201.5 191.6 181.7 171.8 161.9 151.2 137.1 138.9 152 158 161.3 165 167.5 173.6 183 192.6 201.2 212.1 222.4 231.7 236.8 240.8 243.5 245.8 247.6 248.9 250.4 251.9 253.7 255.5 258.2 262.4 266.8 270.7 273.4 274.6 275.8 276.9 277.5 278 278 276.7 275 272.6 270.6 268.3 264.9 257.5 253.4 263 266.3 269 270.5 272 271.8 269.8 264.8 246.1 228 211.1 198.8 186.8 187.2 187.2 187.2 187.2 195.8 216.4 238.9 248.8 257.3 264.9 269.9 274.4 278.8 282.8 285.4 288.3 289.4 289.4 288.9 288.6 289.1 289.5 290.9 292.3 294 296 296.9 296.9 296.2 294.9 292.4 286.5 271.2 252.5 237.4 225.5 212.1 202.2 195 186.5 178.9 172.2 162.5 152.9 143 126.5 122.2 132.1 130.1 138.3 144.7 151.1 158.4 163.4 167.7 172 174.7 178 190.7 199.8 202.2 210.7 213.6 216.3 222.2 230.4 238.9 250.1 257.9 268.2 275.1 278.9 278.8 279.3 273.6 274.2 273.8 273 271.5
8.2 8.3 21.5 45.7 61.8 75.2 86.1 102.4 125.6 146.1 162 167.3 171.7 171.5 167.6 164.1 160.5 153.6 151.3 149.9 153.6 157.8 163.1 171.5 180.7 184.3 187.9 190.4 189.1 188.8 186.5 188.9 191.7 195.1 198.5 201.8 205.3 209.5 210.1 211.8 213.6 214.6 216.5 216.9 216.2 215.8 214.7 214.2 213.9 211.7 206.9 213.1 218.4 233 257.7 266.4 242.1 217.2 205 193.6 186.6 178.2 167.4 157.8 147.9 135.1 139.6 151.9 157.3 162.8 167.1 171.2 179.2 188.9 200.6 213.7 225.8 234.6 239.5 242.5 243.7 244.2 245.6 246.8 247.8 248.5 249 250.5 252.2 254.2 257.8 262.8 267.3 270.3 271.7 272.9 273.9 274.6 275 274.5 273.5 271.3 268.3 266.3 263.5 259.7 243.6 246.8 258.4 262.2 265.4 267.7 269.5 269.5 268 264.2 253.6 225.6 208.1 195.8 190.4 187.2 187.2 187.2 187.2 199.1 224.4 241.9 250.7 259 266 270.7 274 277.1 280.5 283.1 285.3 285.6 285.8 285.2 284.3 284.8 285.2 286.7 288.4 290.5 292.7 294.5 295.2 296.2 296 294.3 292.8 289 277.6 257.4 240.6 229.9 217.6 206.8 196.3 186.6 178.6 169.8 162.2 153.6 141 124.7 123.2 125.3 132.4 139.9 146.3 150.7 156.1 161.2 159 164.5 179 192.5 204.9 212.3 212.9 213.2 217.8 223.5 228.7 239.2 251.4 262.3 273.2 280.9 282.3 283.5 281.9 277.4 270.2 270.3 268.8 266.8
8.5 9 28.7 49.4 65.4 75.1 91.6 113.1 136.1 155.4 165.1 168.7 168.7 165.6 161.9 156.9 153.9 149.8 145.9 147.1 151 156.9 164.4 176.3 181.7 184 185.8 185.4 181.1 179.6 184.4 186.6 187.6 190.4 193.7 197.7 201.4 204.8 205.3 207.1 209.4 211.5 212.9 212.5 211.5 210.6 210 209.5 209.9 205.2 210.7 214.6 219.1 236.4 263.1 262.1 236.8 212.7 195.8 189.7 184.1 175.7 163.7 154.1 145 131.6 140.4 150.1 156.3 162.4 168 174.7 183.4 193.4 208.5 226 236.4 241.8 244.8 245.7 245.4 244.6 244.2 245.1 245 245.9 246.6 247.7 248.1 249.5 252.3 258.5 263.3 266.9 268.3 269.4 270.8 271.7 271.9 271.9 270.6 267.8 264.8 261.6 258 251.6 228.2 242.1 254.8 258.2 261.5 264.3 266.6 266.6 265 262.1 254.3 230.3 207 193.4 181.8 179.2 183.1 186.7 189 203 229.9 242.8 252.3 260.8 266.3 269.8 272.7 275.3 278.3 280.3 282.4 282.8 282.4 281.2 280.1 279.1 280.6 283.3 285.9 288.3 290.7 292.5 294 294.9 295.9 296.5 295.2 294.1 290.8 282.6 258.3 242.1 232.2 221.7 210.5 200.2 190.6 181.5 170.3 155.6 144.7 133.7 119.7 119.7 119.8 131 138.8 140.9 144.8 144.9 155.6 170.4 178.5 191.4 203.4 213.3 217 217.4 220.6 225.3 233.3 241.9 256.5 267.9 274 281.5 284 284.9 283.3 278.2 268 267 264.8 262.6
8.8 11.1 32 51.3 65.1 77.9 97.4 123 143.7 161.5 166.1 168.4 166.1 165.5 162.8 154.9 147.3 143.5 141.5 143.9 149.1 155.5 168.2 177.5 181.2 181.4 180.1 175.8 172.3 179.5 181.4 182.6 182.2 185.6 189 193.1 197.5 199.6 200.6 202.9 205.8 208.3 209.1 208.2 206.6 206.1 205.5 204.9 203.3 201.6 211.4 214.7 223.8 245.9 265.5 259.1 230.2 203.9 193.6 189.4 184.3 174.6 160.5 151 143.3 130.5 140.2 148.7 154.3 161 167.8 176.3 185.3 197.8 217.8 234.7 242 247.2 247.9 246.4 243.4 242.2 241.4 241.2 241.1 242.7 243 243.4 243.4 244.6 246.1 253.1 259.3 262.5 264.7 265.6 267.1 268.7 269.4 269.7 269.8 267.3 263.9 258.6 253.2 234 219.1 231.7 249.8 254 257.6 260.7 263.3 263.6 261 258.3 253 233.8 209 190.1 175 164.8 172.8 179.1 187.6 204.9 233.9 244.5 254.1 260.9 264.8 267.9 270.5 273.1 275.7 278.1 279.7 279.9 278.6 277.1 274.6 274.1 275.6 279.4 283.2 285.9 288.7 290.8 293 294.3 295.3 296.9 297 296.6 294.9 291.4 286.1 258.5 244.5 235.2 225 213.8 203 192 183 170.8 161.1 152.5 143.3 134 121.7 123.2 133.8 137.7 150.9 158 165.9 172.2 178.2 189 200.1 209.3 215.4 218.3 220.7 225.4 233.9 243.8 258.5 273.5 274.3 276.4 283.9 284.7 284.3 278.9 268.9 262.7 262.3 259.8
8.7 13.2 32.2 51.7 64.6 81.4 105.5 131.9 148.2 161.8 164.8 168.4 165.5 167.2 161.7 154.1 145.7 139.8 138.4 141 147.4 157.3 169.8 177.1 177.5 174.6 169.6 165 172.9 176.4 177.3 177.5 178.3 182.4 185.1 188.3 193.2 194.5 196.4 199.4 202.4 204.4 205 203.9 202.1 201.5 201 200.8 193.1 205 208.6 212.5 229.2 255.8 264.9 254 225.7 201.1 194.3 189.7 183.4 174.1 158.7 148.6 140.1 131.5 140.1 147 152.7 159.4 167.5 177.5 186.7 202.2 224.1 240.5 246.7 248.3 247.4 244.6 240.9 238.5 237.9 237.5 237.7 238.5 238.7 238 237.7 237.8 239.2 247.2 254.3 258.4 260.1 261.5 263.7 266.3 268.7 269.9 272.2 270.2 263.7 255.7 248.1 226.1 211.4 219.1 240.2 249.5 253.2 256.5 260.1 259.3 256.1 253.3 249.4 226.6 209.6 188.5 171.7 162.7 171.9 179.2 187.7 209 235.3 245.1 253.3 258.7 262.1 264.7 267.2 269.6 272.7 274.8 276.1 275.7 274.4 272.6 270 267.1 271.6 275.5 279.4 283.2 286.6 289.1 291.4 293.4 294.9 296.7 297.8 297.6 296.7 294.3 290.7 285.1 262.4 240.9 234.2 221.7 208.8 198.6 191.2 183.2 169.1 159.2 148.1 137.6 122.4 121.7 136.9 146.9 151 158.3 167.2 171.3 176.8 185.5 195.9 204.9 212.8 217.5 220.3 225.9 233.5 244.9 258.9 274 273.8 275.8 280.2 284.3 285 280.6 269.3 259.3 257.9 256.9
9.3 15 31.6 51.1 65.2 86.5 113.9 139.7 153.6 159.6 163.3 163.4 167.3 171.8 162.9 153.6 145.3 138.9 135.9 138.4 145.8 157.7 166.6 173.5 171.4 166.3 161 164.8 170.4 172.7 173.5 173.3 175.1 179.3 180.8 184.2 188.5 190.3 193.1 196.1 198.5 199.8 199.1 198 197.7 197 196.4 189.1 200.4 202.9 206.1 214.2 236.9 257.8 263.9 250.4 222.8 199.9 193.4 189.5 181.6 172.5 158.3 145.6 139.3 128.4 138.7 146 152.1 158.7 168.5 179 188.4 207.3 231.4 243.3 246.9 246.6 244.6 241.2 237.5 234.4 232.4 231.9 233 233.7 233.4 232.8 232.5 232.5 234.4 242.2 249.4 253.3 256 258 260.6 264 267.1 272.1 276.1 274.4 269.6 258.2 247.8 226.9 208 207.4 227.4 242.2 246.3 251 255 254.6 251.1 248.1 216.6 211.7 198.8 185 169.1 163.5 164 177.5 187.9 215.5 235.4 244.2 251.9 255.6 258.2 260.1 263.4 266.1 269.3 270.5 271.9 271.1 270.1 267.9 265.2 262.6 266.3 271.4 276.2 280.6 284.3 287.4 289.8 292.1 294.6 296.7 298.3 298.2 297.2 295.5 293.2 289.7 278.2 246.6 239.3 227.2 213.3 202 192.7 184.9 169.5 158.5 148.5 137.5 125.6 118.8 133.3 145 151.3 158.1 164 167.6 172.9 181.4 192.6 202.8 211.1 217.5 220.5 225.8 232.4 244.5 257.2 266 273.9 275.5 281.9 284.9 285.1 280.9 273.1 256.2 253.5 252
10.2 20 32.3 48.8 67.3 93.3 121.5 143.2 153 156.9 159.3 160.5 171.1 175.9 165.1 153.9 145.7 139.1 134.7 136.9 145.2 155.7 163.6 165.4 162.9 159.3 155.9 162.2 167.1 168.8 169.4 169.5 171.7 174.5 176.1 179.9 183.5 186.3 189.4 192.6 194.8 195.4 194.2 192.5 191.3 191.6 190.6 194.6 197.5 201.3 207.9 221.3 243.5 257.5 261.7 247.6 220.1 195.8 190.6 187 179.4 169.1 155.9 143.9 137.9 128 135.9 144.1 151.2 160.1 170.2 180.2 192.7 213.8 236.1 243.7 245.7 244.2 241.8 237.7 234.2 230.8 228.6 227.6 227.6 227.9 228 227.6 226.3 225.7 228.5 236.6 243.1 247.3 251.5 255.1 257.4 261.9 269 274.2 277.2 276.2 270.5 256.1 244.8 228.3 206.6 199.2 216.6 230.3 233.6 237.1 242.2 243.2 242.1 233.8 205.3 201.3 188.2 181.8 167.3 162 164 175.1 191.8 221.1 234.4 243.1 249 251.6 253.8 255.5 258.7 262.5 265.2 266.4 266.9 267.1 265.7 263.2 260.5 257.9 261.6 267.9 273.6 278.4 282 286.1 289.1 291.6 294 296.4 297.5 298.1 297.6 296.4 294.5 291.7 286.2 253 240.6 231.8 217.8 204.2 193.6 185 173.7 161.9 151.3 140.7 126.8 119 128.6 141.8 149 155.4 159.8 164.4 169.4 177.9 189.7 200.7 209.1 214.4 217.8 224.4 230 244.5 255.9 264.6 268.6 277.1 283.1 286.2 287 282.7 269.4 254.5 250 247.5
14.9 21.8 32.2 48.9 69.1 98.1 125.9 142.6 148.2 154.8 155.5 162.6 172.8 172.4 166.8 153.7 143.2 136.4 132.3 135 144 151.3 156.8 156.8 154.3 152 153.7 159 162.2 163.5 164.3 164.2 166.5 169.2 171.3 175 178.5 182 185.9 188.7 190.3 190.3 188.3 186.7 186.2 185.9 180.4 191.4 196.2 201.5 207.1 225.8 245.9 254.4 256.3 244.5 217.4 192.9 186.2 182.4 174.2 165.2 153.4 142.1 136.4 127.7 132.1 141.3 148.7 161.4 171.7 181.3 198.8 221.2 240.1 245.4 244.4 242.7 238.9 234.4 230.7 227.4 224.8 223 220.9 220.7 220.9 221 220.9 220.9 222.8 228.6 234.3 242.5 248 251.5 257.8 264.4 271.1 274.9 276.5 275.1 268.3 252.2 240.9 224.2 204.8 192.8 207.3 212.4 215.8 217.2 223.1 221.8 218.3 210.8 200.5 185.1 184.3 176.8 166.6 159.8 166.2 176.3 198 222.1 233 240.6 245.3 247.9 250.2 253.4 257.2 259.2 261.1 261 261.8 261.6 260 258.3 255.5 253.1 258.8 265.1 272.2 276.2 280.2 284.4 288 290.6 293.2 295.2 296.9 297.7 297.8 297 295.3 293.3 287.5 264.6 237.8 230.8 218.9 208.2 192.7 183.3 174.8 165.6 157.3 144.1 131.7 117.9 129 142.5 148.8 152.4 156.8 159.8 166.1 174.5 185.7 197.6 205.4 210.5 216.7 223 232.7 244 255.4 265 271.2 279.7 283.1 285.9 285.9 282.1 271.9 255.3 244.3 242
14.4 22.5 31.4 47.9 73.1 101.3 126.7 139.9 145.3 150.7 153.1 166.3 171.2 170.7 165.3 153.2 140.6 134.1 129.1 132 140.9 146.8 151.4 150.1 148.6 146.4 151.9 156.3 157.8 159.9 158.9 158.5 162.1 164.8 167.4 170.1 173.6 177.7 181.2 184.5 187.1 185.8 183.3 181.6 182.5 180.1 185.4 189.2 194.4 200 209.5 231 245.2 250.7 250.9 240.1 208.8 190.1 181.6 177.3 169.2 161.2 150.5 141.6 136 130 129.2 139 147.6 161.9 171.6 186.6 208.1 231.2 242.5 245.2 243.7 241 236.5 232.2 227.3 223.5 218.3 212.6 209.7 205.5 208.8 212.7 216.8 221.8 227.7 233.2 239 245.8 249.2 253.9 261.4 267.1 270.4 273.6 274.9 273.4 265.1 249.6 236.9 219.5 197.4 187.2 200.6 207.2 209.8 208.1 206 203.7 201.3 196.8 193 180.8 178.6 170 160.8 159.3 168.3 181.3 205.7 221.9 231.4 237.8 242.2 245.2 251.7 256.4 258.4 258.4 256.5 256.7 256.9 255.9 254.3 252.7 250.7 250.5 256.4 262.5 269.8 275.1 278.7 282.8 286.6 289.3 292 294.3 296 297.2 297.3 296.9 295.2 293.1 289.7 270.4 234 227.1 217.3 208.8 195.4 181.2 174.5 165.3 157.7 147 134.5 120.5 117.6 132.4 141.6 146.4 151.3 154 160.3 169.4 182.4 197.6 206.6 211.8 216.8 222.7 232.4 244.9 256.3 265.7 273.8 279.6 282.7 282.9 282.3 281 272.8 257 240.5 236.6
14.6 21.9 30.1 47.8 71.5 102.3 125.1 135.5 144 145 154.7 168.1 170.2 170.4 163.8 154.4 141.8 131.9 127.8 130.1 136.4 142.4 145.2 142.5 140.9 142.5 150.9 153.5 154.7 155.8 154.1 154.1 157.9 160.1 162.6 165.9 168.8 173.1 176 179 180.8 180.3 179.7 179.1 178.5 172.4 183 186.3 192.4 200.4 215.4 235.1 244.7 248.5 246.8 229.5 202.7 186.6 175.1 171.5 163.5 156.7 149.7 141.1 134.2 129.2 127.3 136.6 146.4 161.5 174.8 195.2 219 238.7 244.1 244.6 242.5 238.6 234.3 229.2 223.2 216.7 209.4 197.1 210.7 216.8 219.7 220.6 226.6 231.9 236.1 239.1 242.9 247.2 250.4 257.6 263.6 266.7 269.6 271.7 272.5 270.8 263.9 247.1 233.8 220.2 196.2 179 194.6 200.1 200.8 199.7 198.5 196.3 192 187.5 186.3 177.7 170.8 164.4 157.7 163.7 171.1 182.9 205.9 220.1 228.6 235.6 241.4 247.4 258.7 265 262.9 256.5 252.7 251.2 250.9 250.4 248.7 247.1 245.5 249.3 255.8 261.8 268.1 273.3 277.2 281.2 285 288 291 293.7 295.3 297 296.7 296 294.8 292.8 288.9 268.6 231.9 227.5 215.3 206 194 182.8 173.3 166.3 159.7 151.6 138.1 124.6 114.2 112.1 121.5 126.2 135 146.8 155 164.6 178.9 195.2 207.4 214.2 218.4 223.6 234.6 247.3 257.9 265.8 273.1 277.6 279.7 280.4 279.5 278.4 271.7 256.9 239.8 231.5
15.3 20.6 29.2 45.9 69.8 101.4 121.4 130.6 138.6 141.6 158.2 165.2 167.5 168.8 163.8 155.1 143.5 131.6 124.6 126 131.7 137.7 139.1 135.2 134.1 144.6 148.7 149.9 151.6 153.3 148.7 150.3 153.5 155.3 159 161.7 164.1 166.2 169.3 172 173 174.6 174.6 174.9 174.1 176.2 180.2 184.6 192.3 205 221.7 236.8 243.7 245.7 239.6 208.6 196.6 181.3 167.9 163.5 156.5 150.3 145.1 140.2 132.4 127.9 123.4 134.6 145.7 161.3 180 204.7 230.3 241.2 243.9 243 240.1 236.1 231.6 226.4 218 208.2 191.6 207.2 215.2 220.7 225.6 232.2 237.4 240.7 243.1 244.9 247.5 249.6 253.6 259.5 263 265.5 267.6 269.1 269.6 267.9 262.2 245.8 230.4 217.3 194.1 173.5 191.4 196.8 196.4 194.5 190.7 186.9 183.8 180.2 181.8 173.2 163.3 161 159.3 168.4 175 199.2 213.6 222.7 230 235 242.3 254.9 264.7 267.2 264.1 257.2 249 246.2 244.5 244.1 244.2 243 243.6 248.2 254.5 260.9 266.4 271.3 275.8 279.6 283.4 286.9 289.9 293 295 297.7 297.5 296.2 294.7 291.9 288.4 264.2 232.7 228.8 215.8 205.6 195.2 186.9 178 166.7 159.4 150.6 140.8 129.6 119.5 109.1 111.2 109.7 119.1 137.3 150.5 159.3 176.6 194.2 207.6 215.2 218.9 226.3 239.5 249 256.1 263.3 270.3 274 276.3 275.6 274.5 273.5 269.1 255.5 238 227.5
14.5 20 27.2 44.7 69.4 96.2 116.6 126.5 134 140.8 158.4 163 164.9 165.1 161.5 156.3 146.2 133.2 121.6 121.2 125.5 131.2 132.5 129.6 132.5 141.9 145.2 145.7 148.3 150.7 145.7 143.5 146.1 151.1 154.1 157.2 158.4 161 164.1 165.6 169.1 169.7 169 170.1 166.3 174.6 177.5 185.2 194 207.3 225.5 237.1 242.1 239.6 220.2 195.5 186.6 172.5 163.2 155.2 150.1 146.1 141.8 136.1 130.5 126.5 123.1 134 146.2 160 184.3 212.2 234.4 241.3 241.9 240.2 237 233.4 228.8 223.2 214.7 198.9 192.9 208.8 216.8 223 230.7 237.9 242.5 245.1 247.5 248.6 250.1 252.5 254.8 258.1 261.5 263.4 265.1 266 266.6 265.1 259.7 244.6 226 213 193.8 166.2 185.1 188.4 186.9 187.9 183.5 178.1 172.4 170.1 167.2 157.6 154.4 156.7 166 175.6 191.6 207 216.4 224.3 230.6 237.9 249.1 259.1 265.5 266.5 262.6 256.4 246.8 243.5 241.8 241.1 239.3 239.3 244.2 248.8 255.2 260.2 265.1 269.5 275.1 279.6 283.1 286.5 289.4 292.9 296.2 298.4 298.2 297.8 296.1 292.7 289.6 270.3 234.7 228 215.8 206.3 201 196.9 186 169.3 158.3 150.1 142.6 133.9 126 120.3 116 110.3 107.1 130.1 146.7 155 173.9 192.7 207.4 214.6 217.7 228.9 240.6 248 253.7 260.3 266.3 270.7 271.5 270.6 269 266.9 264.1 252.9 237 225.1
11.1 15.2 25.8 47 68 92 109.8 121.9 129 140.9 156.5 161.2 162.2 161 158.1 152.5 146 136.8 124.1 117 120.2 123.2 124.7 124.7 130.8 137.7 139.7 142.1 144.8 145.4 141.5 131.4 141.7 145.3 148.7 152.2 154.2 156.3 159.1 159.8 162.5 164.1 164.3 163.1 168.4 171.9 175.7 184.3 195.5 212.1 227.8 236.6 237.5 226.9 191.3 185.2 175.2 165 158.9 149.4 145.7 141.3 137.6 132.5 129.4 123.9 121.9 134.6 147.8 163 189.9 220.2 235 239.2 238.9 236.7 233.9 230.8 226.2 218.8 211.7 191.6 194.8 208.6 217.4 224.2 233.9 240.3 244.6 247.2 248.8 249.6 250.3 251.5 253.3 256.1 258.7 260.7 262 262.8 263.2 261.4 257 243.8 222 208.7 190.9 161.3 175.6 180.7 179.9 178.7 175.9 166.4 159.3 156.7 154.9 153.2 158 165.2 174.8 188.9 201.8 211.3 218.5 225.5 233.1 245.3 255.4 261.3 265.1 264.5 260.5 253.8 245.6 240 239 237.4 235.6 238.5 244.1 249.6 256.7 262.5 267.5 271.9 276.2 280.3 284.3 290.2 293.2 295.4 297.1 299.2 300.2 300.2 298 293.8 290.2 275.9 237.6 226.8 217 206.1 199.6 195.1 187.9 173.9 159.2 153 146.4 138.6 128.4 121.6 117.1 110.4 108 126 144.8 152.5 170.2 191 207 215 216.6 224.7 237.1 244.9 251.3 258.1 262.8 265.2 266.2 264.5 262.6 260.1 256.9 248.9 234 221.7
9.7 13.1 23.8 47.1 67.4 89.1 104.1 116.4 124.8 139.4 152.1 158.6 157 156 151.3 146.3 140.9 135.1 126.1 116.6 115.7 117.7 118.2 123.2 129.3 133.4 135.7 138.2 140.3 139.6 136.7 124.5 134.8 139.1 143.7 147.5 150.6 152.6 154.5 155.7 156.4 157.6 158.2 159.6 166.4 170.2 175.1 186.1 200.9 218 228.1 232.9 231 197.2 181.5 181.7 168.6 161.8 158 144.7 141.2 137.4 133.9 130 127.4 121.1 125.6 138.7 152.2 170.3 197.5 223.5 234 237.4 236.8 234.4 231.6 228 222.8 214.2 204.1 184.2 194.8 207.8 217.4 225 234.1 240.3 244.5 246.7 248.3 248.8 249 249.3 250.6 253.3 255.3 257 258.2 259.1 259.1 257.7 253.2 242.1 219.2 202.8 188.6 160.6 167 171.9 175.3 170 165.6 156.2 151.3 154.6 154.6 160.6 168.6 177.5 189.2 200.3 209.2 216 221.4 228.8 241.1 251.6 255.8 261.4 262.9 261.5 257.6 250 241.8 235.7 234.2 232.8 233.7 239.8 244.2 250.3 257.2 263.3 268.7 273.7 280 286.4 293.8 300.2 304.7 306.6 306 306.5 307.2 306.8 301.9 296 290 282.9 251.1 226.7 218.7 206.5 198.5 190.8 186.1 172 161.1 155.9 150.9 141.9 130.6 123 116.2 109.3 107.1 121.9 139.7 150.3 166.6 191.6 207.3 215.9 213.7 217.5 229.8 241.5 248.7 254 257.6 259.4 259.2 258 256.2 253.5 249 242.6 229.4 218.4
10.2 13.4 21.6 44.9 66.9 85.9 101.5 111.1 119.6 136.6 147.9 153.8 151.4 149 144.6 138.9 134.1 129.8 125.1 119.1 110.2 113.4 116 122.6 125.3 128.9 131.5 133.6 134.5 128.5 121.3 121.5 126.7 135.3 140.4 144 146.3 148.6 150.7 150.9 148.7 152.7 158.7 161.8 165.7 170.2 178.7 192.7 208 220.1 227.2 228 219.9 183.8 181.4 169.2 161.6 159 152.6 138.6 136.2 133.4 130.4 127.5 123.7 119.5 130.7 143.8 158.3 178.9 206.8 227 232.9 235.9 235 232.2 229.1 224.3 219.4 209.1 195.3 177.5 197.2 207.2 216.5 225.9 233.3 238.8 242.7 244.7 246.2 246.6 246.4 246.8 247.3 249.2 250.8 252.8 253.9 254.9 254.2 253.1 249.7 238.7 215.3 197.8 186.5 163 159.2 163.9 161.8 157.9 155.8 152.2 159 166.5 175.2 183.9 192.2 198.5 205.9 210 215.1 219.8 224.9 236.7 247.1 253.9 257.4 260.4 259.7 257.7 253 244.2 235.4 231.2 228.5 230.5 235.1 240 245.1 251.7 258.8 263.8 270.8 278.6 287.1 294.5 301.4 306.1 309.9 312.3 313.7 314.3 314.4 312 307.1 298 289.4 282.9 267.5 234.2 215.7 207.2 197.8 188.3 185.3 173.4 160.3 154.8 149.6 143.7 133.1 124.8 115.7 109.2 105 116 132.5 146.8 164.7 192.3 210 216.7 213.3 213.2 224.9 237.2 244.8 249.6 252.3 253.3 252.8 252.2 249.5 246.2 241.7 236.2 224.3 214.7
11.4 15.1 21.8 44.2 65.9 80.5 95.2 105.8 114.6 132.9 141.3 147.6 143.7 142.2 137.7 131.7 128.4 125.4 122.9 119.2 114 106.8 114.9 120.1 121.7 122.3 124.1 125.7 120.1 112.8 119.2 121.8 119 119.8 127.6 132.1 134.6 140 146 150.3 153 157.3 160 163.4 167.1 175.3 188.2 200.7 213.3 222.1 224.6 221.1 201.4 170.4 167.5 162.9 157.2 155.2 139.2 134.2 131.9 129.8 126 123.8 119.2 123.2 139 147.5 167.8 194.1 218.3 229.5 235.2 238.3 235.4 231.3 226.4 221.7 215.3 203.3 186.3 180.9 198.3 206.6 215.3 224.7 231.3 237 239.9 241.9 243 243.4 242.3 242.7 243 244.7 246.3 248.2 249.7 250 250.1 249.6 246.3 233.8 210.8 192.8 181.1 155.7 150.8 151.6 145.9 151.2 169.8 178.4 187 193.8 201.3 206.9 211.9 214.1 216.7 219.7 223.5 229.4 236.7 243.3 250.1 255.4 257.5 256.9 256 253.1 248.6 238.5 230 224 228.4 232 236.1 240.8 246.4 252.8 259.1 265.6 274.9 284.4 293.9 299.8 304.6 308.4 311.2 313.5 315.7 316.7 316.6 314.3 309.2 299.5 287.3 281.1 274.4 243.5 213.8 205.8 197.1 191.2 179.8 173 164.3 153.6 147.9 143.5 133.7 126 117 110.5 104.1 113.1 130.2 143.9 161 190.3 211.1 217.3 213.2 211.1 219.8 232 238.4 243.7 246.7 247.4 247.1 246.6 243.5 240.1 235.8 229.6 219.2 210.2
13.7 17.3 24.9 42.7 64.1 78.8 88.7 99.5 109.8 126.4 138.1 141.3 136.1 132.9 129.5 126.1 123.7 121.5 119.8 117 112.8 100.5 112.1 115.7 114.9 112.1 110.7 108.2 110.8 118.6 124.1 127.8 129.7 130.7 132.8 137.1 140.3 144.9 148.8 151.5 154.6 158.2 161.4 164.8 170.3 182.2 197.6 207.5 216.6 221.1 220.7 207.1 179.1 161.6 162.1 157.5 151.6 143.6 131.3 127.8 126 124.6 120.2 117.4 120 131.7 143.3 157.9 183.7 209.7 224.9 236.5 243.7 244.2 239.8 233.7 227.5 220.7 212.7 198 181.4 180 195.9 201.9 210.6 221.1 228.1 233.7 236.8 238.2 239.1 239.4 238 238 237.9 238.9 241.7 243.7 245.3 246.2 246.5 245.6 241.4 227.8 204.2 186 171.8 148.1 143.3 144.6 175.1 190.5 198.7 205 210.5 215 219.1 222.9 227.3 231.2 233.9 237 240 242.4 244.7 247.9 252.5 254.4 253.8 253.2 251.3 247.9 242.2 232.1 224.1 224.9 231.1 233.4 237 241.6 246.6 251.9 260.3 270.3 280 289.3 295.4 300.3 304.5 307.7 310.7 313 315 316.4 316.4 314.2 309.8 299.7 287.6 278.1 272.8 253.8 216.4 203.9 196.7 193 185.3 174.2 166.1 153.2 146.4 140.6 133.5 126.4 117.8 109.5 104 111.2 123.5 141.2 157.3 184.6 208.4 216.8 212.5 209.8 215.1 225.8 230.5 236.6 241.2 242.7 242.4 240.9 238.4 235.2 230.6 224 213.1 205.2
17 19.9 27.2 40.9 61.1 76.2 84.8 94.2 104.2 121 131.2 133.8 129.8 126.8 124.2 120.2 119.3 117.3 116.2 113.9 107.3 95 104.3 106.1 101.6 98.5 103.6 111.6 118.1 122.6 126.3 129.5 132.8 134.7 137.1 139.5 141.8 145.7 148.9 152.1 155.6 159.6 163.4 166.7 175.9 190.6 204.1 211.7 216.1 216.2 208.3 187.1 165.6 161.1 155.6 149.4 140.9 131.2 126.7 123.4 121.2 118.4 116.2 120.6 126.2 138.2 151.7 175.1 200.6 219.5 233.9 246.6 252.3 252.1 247.4 239.8 229.7 221 211.1 196.1 178.5 175.9 192.9 198.5 205.5 215.6 223.9 229.6 232.6 234.2 234.7 234.8 233.8 233.1 233 233.1 236.1 239 240.9 241.7 242.4 241 237.1 222.4 199.9 178.8 162 136.3 141.1 155.5 181.7 197.9 206.7 218.2 226.8 232.9 237.1 242.5 245.5 247.5 248.8 249.9 250.3 250.4 250.4 251.2 251.4 251.3 250.3 249.4 246.4 243.2 236.7 225 220.8 228.9 235.3 237.1 239.1 242.4 246.5 253 263.1 274.4 283.9 290.6 295.7 300.2 303.4 306.7 310 312.2 314.2 315.4 315.8 313 308.4 297.1 285.7 276 270.2 259.6 222 203.2 198.9 191.1 182.4 173.6 165.8 157.4 148.5 138.7 131.9 125 117 108.9 102.6 111.8 122 139.4 152.9 177.1 204 213.1 210.8 207.4 210.9 218.3 224.8 230.6 234.8 237.5 236.9 235.1 233.1 230.4 225.6 218.9 207.1 200.2
20.2 24.2 29 38.6 58 72.7 82.1 89.3 98.7 114.3 124.4 125.9 122.9 119.6 117.4 114.1 112.7 113.2 111.2 102.4 92.4 88.9 90 92.9 99.2 104.8 110.8 117 120.8 124.7 127.9 130.9 133.9 136.7 139.3 141.6 144.3 146.8 150.3 154 158.2 162.7 168.4 174.1 185.4 199.8 210.8 215.7 212.9 206.1 188.6 171.1 157.4 150.8 146.2 139.5 131.8 124 122 118.7 115.7 116.1 118.8 126.3 135.4 150.4 167.6 191.3 213 228.7 244.8 253 257 255.6 251.6 244.7 234.2 220.5 210 194.8 177.7 172.7 188.5 194.8 201.5 210.5 219.5 225.2 228.1 229.6 230 229.7 228.7 227.5 226.9 227.5 230.2 233.7 236.4 237.5 237.7 236.7 232.4 221.4 196.6 173 153.8 136.1 153.7 173.8 191.5 201.5 217.9 229.7 237.3 242.5 247 249.7 252 253.8 255 255.3 254.6 253.8 252.8 251 249.4 248.5 246.9 244.5 241.5 238.5 231.4 217.2 225.3 234.8 238.3 240.5 242.1 244.6 249 258.3 267.7 277.5 284.5 289.9 294.5 298.8 302.3 305.7 308.8 311.1 312.8 314 314 311.9 307.3 296 284.2 272.5 267.7 260.2 231.9 201.6 196.7 188.3 177.9 171.5 163.9 156.3 148.3 141 134.9 126.6 116.9 106.8 102.3 113.2 124.2 136.1 149.8 167.6 196.5 208.2 207.2 205.6 207.5 212.1 216.5 223.3 229 231.1 230.6 228.8 227 225.7 221.3 215.5 202.1 195.9
24 27.1 31.9 37.8 54.2 69.8 76.1 84.5 94.9 106.7 118 117.2 114.5 111.7 110.4 107.4 106.6 107.7 102.1 86.3 87.6 96.8 100.7 104.1 107.6 111.4 116.2 120.1 123.4 126.8 129.6 132.4 135.8 139.2 141.9 144.9 147.7 150.4 154.6 158.5 162.9 167.9 175.8 184.7 195.1 206.9 215.2 214.7 208.3 189.6 170.3 158.1 149.2 143.2 138.7 131.1 123.2 120.1 117.7 114.2 114.9 119.8 126.3 134.5 146.3 164.8 185.5 204.9 222.4 238.9 252.9 257.9 260.5 257.4 252.8 246.7 237.5 220.4 209.5 193.5 175.8 166.7 182.4 191.1 198.5 207.3 214.5 219.5 223.2 224 224.1 223.7 222.7 221.2 220.8 221.9 225.2 229 231.6 232.7 233.1 231.4 227.7 220.8 196.6 170.1 146.7 140.1 161.2 183.4 192.9 209.2 224.8 235.2 241.3 246.5 250 252.6 254.5 256.1 257 257.4 256.9 255.4 252.5 250.4 248.2 245.7 243.6 241 237.7 233.9 221.3 218.5 231.2 236.6 240.5 243 245.2 247.8 255.7 263.8 271.4 277.5 283 287.6 293 298 301.7 304.9 307.8 309.7 311.2 312.3 311.9 309.6 305 295.1 281.4 269.8 264.7 258.5 238.7 204.7 191.7 183.8 174.4 167.5 160.5 153.9 146.8 139.7 133.7 129 116.8 102.7 100.9 111.5 123.1 134.3 148.3 163.8 190.7 202.7 204.5 202.7 203.9 206.2 209.3 216 221.6 224.3 222.9 222.8 221.9 220.8 216.8 210.5 191.9 199.6
