ncols 200
nrows 82
xllcorner 260000
yllcorner 725700
cellsize 50
529.1 529.1 537 552.9 564 565.8 561.9 567 571.2 562.7 572.2 572.4 574.2 574.6 570.1 576.3 573.5 557.2 551.7 550.2 544.2 536.6 536.6 548.9 552.6 550.8 546.8 547.5 549.4 550.5 556.9 566.4 577 574.4 578.1 582.5 588.5 601.3 604.6 610.9 612.3 610.6 585.7 557.2 550.4 552.4 553.8 549.1 527.6 500.6 479.4 456.9 438 429.3 421.3 420.3 417.7 412.8 407.4 405.7 405.9 406.9 404.2 403.5 404.4 402 394.7 388.3 389.3 388 384.2 379 385.9 389.3 386.3 385.3 384 382.2 383.5 388.9 395 402.3 412.3 419.8 424.5 429.5 433.2 439.7 446.3 451.6 456.6 463.3 469.1 474.6 478.7 481.6 482.1 483.6 486.1 487.3 491 488.1 490.5 494.7 502.5 506.3 515 520.3 525.1 531.9 545.6 540.6 542.8 549.4 551.3 555.7 559.2 561.8 567.1 571.1 573.8 576.4 579.7 585.5 587.1 589.4 593.1 596.6 600.2 603.8 609.9 614.4 617.2 620.5 626.6 632.1 634.2 631.3 633.8 639.4 639.9 642.6 641.9 639.1 645.5 657 658.7 656.1 648.9 640.9 631.2 624.5 625.3 626.2 632.1 637.7 639.2 633.6 625.9 617.4 610.1 603.6 597.8 591.7 590.8 588.6 587.8 588.8 585.2 585.8 582.6 578.9 574.4 568.9 562.8 560.1 552.9 546.9 544.2 543.8 537.6 531.9 527.9 527.5 525.8 530.6 528.9 525.3 520.2 511.2 505.9 498.9 494.3 490.6 484.5 477.5 468 458.8 448.4 439.4
529.1 529.1 534.5 543.5 549.8 554.3 557.9 558.3 560.6 561.5 561 567.3 577.4 580.9 572.8 567.3 567.6 556.6 554.1 553.8 548.5 539.2 538.7 541.9 549.4 550.7 548.5 547.5 548.6 552.3 560.8 572.6 587.7 590.6 581.7 582.4 587.8 599.5 600.4 599.5 606.8 604.9 581.1 548.1 545.5 548.8 545.2 533 512.1 493.4 472.1 446.9 430.7 426 419.9 414.9 414.5 410.5 406.4 405.8 406.2 404.4 405.1 402.6 401.8 399.5 395.1 390.1 388.6 386.1 384.4 381.4 378.2 382.2 383.3 384.4 383.5 381.7 382.4 388.2 395.4 403.5 413.1 421.2 425 430 435.2 441.9 449.9 455.1 460.3 465.4 471.3 477.5 481.1 483.2 483.8 484.7 486.8 490.3 493.7 489.5 490.8 493.7 502.6 506.2 514.2 520.6 526.8 533.8 547.8 550.7 549.3 557.3 563.1 566.6 570 573.7 577 579.9 579.8 581.1 583.8 588.4 590.6 591.7 594.4 598.5 602.8 608.1 611.5 615.3 618.3 621.1 626.3 635.1 628.6 628.1 630.7 635.4 640.6 645.1 649.1 652.4 656.2 662.6 664.4 661.4 653.9 646.3 638.7 633.4 633.8 632.6 638.3 644 643.3 634.5 625.9 618.2 610.6 605.4 599.8 597.2 599.3 596.9 593.7 595 590.5 586.6 586.3 582.4 574.4 569 564.2 559.5 555.6 554.3 553.7 545.3 539.2 536.6 535 535.3 536.4 534.2 535 530.1 523.4 518.1 513.7 509.8 502.3 492.9 485.5 480.2 471.7 463.2 456.3 450.9
529.1 529.1 529.1 530.3 540.8 543.7 547.5 553.3 556.2 558.4 562 570 580.2 584.9 582.8 566.8 561.7 558.3 555.4 555.6 550.5 542.8 541.1 541.4 547.2 550.9 549.9 549.2 554.7 560.9 568.6 579.5 592.4 597.6 592.3 584.4 585.9 590.2 592 592.3 591.9 594.4 566 544.5 542.7 539.9 525.3 510.8 499.5 487.5 466.8 441.5 430.8 422 417.1 414.5 411.5 408.2 406.8 406.2 406.4 404.8 405.6 400.3 398.4 398.1 391.4 388.8 387.1 387.4 387.7 382.2 375.2 377.9 381.1 382.9 382 380.2 382.7 387.5 396.1 403.6 412.6 420.7 424.4 431.5 436.5 444.7 452 459.2 466 469.2 473.7 478.6 483.2 483.8 483.4 484.9 486.3 490.4 497.1 492.3 491.5 494.4 501 505 511.9 521.3 530.4 536.4 543.7 555 555.4 563.3 572.6 575.2 579.9 584.4 584.3 586.9 589.1 589.6 591 592.7 596.4 596.5 598.9 602.7 608.8 612.4 614.2 620.8 628.3 630.7 627.5 625.8 626 625.4 628.4 632.2 639.1 645.1 652.3 657.8 659.4 664.1 667.2 671.4 671.8 655 650.2 655.5 653 641.7 640.1 643.5 640.6 635 626 618.7 611.4 607.6 605 602.9 605.4 605.9 601.9 599.6 598 595.4 588.8 583.6 578 571.9 568.3 566.6 566.8 561.8 557.4 546.2 546.5 546.6 543.3 545.7 546.5 541.7 538.3 538.7 532.6 524.7 522 518.8 513.8 501.6 491.4 487 483.8 476 466.5 460.1
529.1 529.1 529.1 530.7 538.3 543.6 551.4 557.6 558.4 559.2 568.2 575.1 580.7 587.3 580.5 569.2 568.2 564.2 562 551.7 551 542.4 542.3 542.4 545 548.4 550.8 553.2 562.3 571.9 575.9 584.3 594.3 599.7 599.2 590.5 589.2 589.1 590.6 592 584 568.8 552 540.6 539.9 535.9 515.4 497.5 490.9 478.3 457 436.9 429.1 421.5 418.1 415.7 412.2 408 407.3 407.2 407.2 406.5 406.5 402.1 396.2 395.5 396.3 393.8 390.9 390.1 388.9 385.1 378.3 372.3 376.4 379.5 380.6 379.4 382.5 387.6 396 404.1 413 419.2 425.7 433.1 438.8 445.9 455 463.2 472.4 474 474.3 478.8 486.1 482.7 481.9 485.6 486.6 488.6 496.3 494.8 492.1 494.1 498.6 503.1 511.7 522.9 532.2 537.5 541.6 552.6 560.4 566.7 578.8 583.7 588.7 590 590.2 594.6 596.3 598.8 600 602 603.6 605 607 610.5 613.7 615 622.1 627.6 629.6 629.4 625 623.9 623.3 624.3 625.8 631 641.8 654 654.7 657 660.7 668.3 668.1 671.3 670.1 662.5 661.9 664 659.2 645.7 638.5 642 642.4 634.7 626.8 622.1 616.7 612.6 608.7 607 607.6 608.2 609.9 607.3 605.2 602.8 599.4 592.7 589.6 585.5 581.1 577.7 574.7 571.6 564 552.5 550.3 555.5 548 547.8 550.7 551.6 545.2 546.8 543.4 535.8 530.6 527 521.2 509.8 503.3 496.3 488.4 481.2 475.4 470
530.8 527.2 528.6 534.5 540.6 550.6 556.2 560 560 561.2 575.1 584 584 583.4 580 571 569.7 571.7 564 551.5 546.4 543.4 543 543.9 546.3 553.3 555.9 558.1 572.1 580.7 582.9 592.3 597.9 602 606.1 594.3 594.5 593.4 590.5 590.2 587.4 560.5 543.2 538.9 537.2 536.1 516.3 490.4 478.5 463 446.2 436.5 425.9 421.9 418.9 416.3 412.2 409 409 409.6 409.3 408.2 406.5 404.2 402.8 400.1 398.2 395.7 393.9 391.2 389.9 386.7 381.1 373.2 371 376 378 379.1 381.8 387.9 395.2 402.9 411.8 418.5 427.1 436.3 441.6 447.8 457.1 466.2 474.3 476.7 476.2 477.7 483.5 479.6 478.5 481.8 484.9 487.3 496.3 497 492.5 492.8 497.1 501 512.3 523.5 532 537.8 543.9 547.9 559.3 569.1 582.9 586.9 590.6 593.2 595 597.5 601.1 604.7 608.1 611.4 618.3 620.3 621.8 625.9 622.5 620.6 623 624.9 627.2 625.5 621 622.2 623.3 622.8 625 629.7 640.9 652.1 653.8 655.7 660.3 665.6 667.4 668.4 669.3 670 673.2 671.1 663.3 652.4 642.3 637.6 637.7 636.5 633.6 629.7 623.7 619.6 615.2 612.2 611.7 614.6 615 615.1 614 610.6 608.2 601.7 598 592.6 586.9 582.5 579 575.9 571.7 561.5 557 556.5 554.2 549.3 550 554.7 549.8 549.2 546.2 540 537.4 532.8 527.3 519.6 512 505.3 498.7 489.8 481.7 474.9
530.6 529.6 532.1 537.7 541.8 551.7 559.5 559.1 561.7 565.4 576 591 591.8 590.1 583.9 572 570.9 575.6 566.7 548.9 546.7 544.5 544.8 545.8 549.4 558.5 562.5 567.7 582.4 591.6 592 599.6 603.5 605.5 608.9 600.4 596.5 592.4 591.9 588.3 586.7 572.9 545 538.6 534.6 524.9 506.9 486.8 466.3 452 442.6 435.7 428.9 422.7 419.1 416.5 413.9 411.3 416.4 413 412.3 410.2 409 407.8 407.4 405.6 399.2 396.2 393.8 391.6 391 388.9 382.3 373.9 370.7 372.5 376.1 378.2 381 388.4 394.3 401.7 411.4 417.8 427.2 435.5 443.5 450.2 458.8 468.3 476.4 477.9 477.4 477.7 478.6 477.4 474.7 476.6 481.4 485.4 493.2 498.9 492.2 491.4 493.9 497.4 508.4 520.5 532 539.3 542.3 547.1 559.6 572.7 584.3 590.3 593 596.1 598.4 602.3 606.2 609.9 616 619.9 621.2 624.7 625.5 627.2 627.9 624.4 621.3 622.8 622.6 620.6 619.1 620.8 621.7 619.6 622.3 627.3 636 647.9 655.3 654.6 658.3 663.2 665.3 669.2 676.7 688.5 689.8 688.4 680.3 663.1 650.5 642.5 639 637.8 639.3 638 632.2 627.2 623.9 619.7 617.1 620.6 621.9 621.3 621.4 620.4 618 613.4 604.2 600.1 595.8 595.4 589.4 587.3 583.4 572.2 569.9 564.1 552 549.5 548.7 548.9 550.8 545.9 543.6 541 538.7 532.8 526 522.3 515.8 510.7 504.1 493.2 485.4 479.9
530.3 534.5 537.5 539.5 543.9 549.4 557.3 561.1 570.2 572.4 576.5 587.7 594.7 598.4 605.2 587 572.1 576.5 569.4 548.7 546.1 546.3 546.3 547.9 552 561.1 570.5 578.1 590.3 601.5 600.1 604.9 609.1 611.5 610.9 603.2 599.2 598.4 586.4 583.7 582.4 568 552.7 538.3 530.1 512.7 494.8 477.9 464.5 452.1 443.3 438.4 429.5 422.8 418.4 416 415.1 417.7 419.2 415.8 414.7 413 411.9 410.9 408.5 405.8 400.2 396 393.1 390.9 388.8 389.3 382.2 376.7 370.8 370.4 374.9 375.7 381.2 386.5 393.2 400.9 409.9 416.3 428.1 436.3 444.5 452.4 460.3 469.2 476.6 478.1 477.8 477.5 477.3 475.3 472.2 472 475.6 481.5 490.4 498.2 490.6 488.4 490.3 493.3 504.2 518.4 532 539 541.1 547.2 557.8 575.4 587.8 595.4 601.5 603.3 605.3 611.1 614.1 615.4 622.1 624.9 626.7 626.6 628.2 629.3 626.7 623.5 619.8 622.4 618.9 617 616.1 617 617.4 616.8 621.3 626.5 636 650.6 654.7 654.5 656.6 660.7 662.6 670.2 684.5 692.4 695.5 693.2 685.3 678.6 667.1 660.2 647.9 645.7 645.8 642 641.4 637.7 630.3 627 622 622.4 625.8 627.9 626.4 623.3 622.7 619.7 612.8 604.3 601.1 602.6 600.3 596.9 589.4 577.6 577.2 568.9 556.8 553.4 548.1 544.8 546.9 545.9 544.3 543.6 538.1 530.6 524.1 519.1 514.2 508 500.2 494 490.3 486.2
537.3 540.4 541.8 543.4 546.9 553.6 561 564.9 571.3 578 579.3 588.4 595.5 604.1 609.3 605.6 576.9 565.6 557.1 548 546.8 548.2 549.2 551.9 555.1 567.3 576.8 586.3 598.9 606 603.7 608.5 613.1 615.8 609.1 602.5 602 603.4 589.3 578 573.9 565.7 558.9 536.1 517.5 504 487 476.3 463.2 457.8 448 442.4 435.6 427.3 421.6 419.8 419.8 420.1 421.7 420.5 418.5 417.6 415.4 413.2 409 404.7 400.2 395.4 392.7 390.2 385.8 383.5 380 376.2 368.6 369.3 371.9 376.7 381.8 388.6 394.5 399.6 408.5 417.4 428.6 436.8 445 454 461.8 470.5 475.7 477.4 477.2 476.5 476.9 475.4 471 469.3 470.5 475.9 486.2 492.8 485.7 484.1 487.9 489 500.4 512.4 526.3 535.3 540 545.7 555.4 573.2 589.3 596.5 602.2 610.3 616.6 619.2 618.7 621 623.1 626.9 631.2 627.8 629.2 626.4 620 616.6 612.3 615.1 612.8 612.8 614.4 614.5 614.1 616.3 623.1 627.6 636.7 648.7 654.5 652.9 654.8 661.4 673.3 681.9 686.2 691.9 693.8 692.6 688.3 685.4 681 671.5 662 650.3 651.5 649.9 649.4 644.1 635.1 627.3 627.7 627 630.7 632.8 631.4 625.2 622.4 621.2 617 611 606 604.6 605.6 604.7 597.9 582.9 581.2 572.3 558.5 555.2 551.9 543.8 544.3 544.4 542.6 541.1 537.6 531.5 527.6 521.7 510.3 503.8 498.1 494.6 493.6 494.4
543.1 543.7 547.6 552.7 549.9 559.2 570 572.5 572.8 576 579.8 587.8 594.6 603.2 604.8 608 587.4 559.2 547.4 546.8 547.9 552 555.8 557.6 559.4 570.5 580.3 592.7 606.9 609.6 605.5 609.6 612.8 615.6 608.9 602.5 602.6 608.4 598.7 577.8 568.1 563 552.1 530.7 507.6 493.9 480.2 469.6 462.8 460.6 455.3 446.1 440.5 434.1 429.8 426.5 424 424.2 425.2 423.9 422.3 421.4 418.9 414.4 410.4 405.2 398.7 394.8 392.3 388.8 383.2 381.1 379.2 376.3 371.4 368.3 371.3 376.7 382.2 387.8 393.2 399.9 408.2 417.5 428.1 436.1 444.2 455 464.6 471.6 476.3 477.3 477.1 476.7 476.2 474.8 470.9 467.4 464.8 467.9 479.4 482.9 479.1 478.8 483.8 485.8 495.5 507.7 523.2 532.6 537.4 543.8 553.5 568.3 587.2 596.5 603.4 612.4 617.8 624.3 625.3 624.6 624.5 625.9 623.9 621.4 618.3 614.9 612.9 610.7 610.6 607.4 608.4 609.2 610.7 612.3 612.2 615 623.1 629.6 639.7 645.9 647.2 649.5 657 676.2 690.3 692.2 688.8 696.6 697.8 700 699.8 691.3 683.7 679.1 675.8 664.6 660.3 664 653.8 643.7 635.7 630.5 631.1 628.9 630.8 633.5 629.3 624.7 620.1 616.3 614.9 612 603.1 599.9 598.9 598.3 598.1 590.2 582.7 576 562.5 553.9 547.2 542.4 541.4 542.1 540.3 540.5 533.9 530.5 528.7 525 511.7 498.5 495.9 496.2 497.8 496.3
545.9 547.7 551.2 554.7 549.3 561.6 575 577.5 576.2 574.8 577 579.5 593.2 598.4 607.9 594.1 579.7 562.5 544.1 543.5 550 556.3 561.2 564.5 565.9 573.7 583.9 602.2 611.9 613.3 608.3 608.6 612 613.6 609.3 602.3 603.1 610.3 602.6 577.8 564.5 564.6 546.5 519.6 502 491.8 478.4 468.2 462.2 460.9 457.8 450.8 446.2 440.6 437.6 434.9 433.1 430 429.3 428.6 426.9 425.9 423.2 416 410.7 402.7 397.6 394.2 391.9 385.9 381.8 379.1 376.9 375 372.1 367.6 370 377 382.2 387.6 393.3 399 408.3 416.8 426.9 436 443.8 455.9 464.3 472.8 479.6 479.9 476.8 475.7 476.5 475.8 472.8 468.5 463.4 458.8 466.6 468.4 470.9 472.9 478.9 483.7 491.1 501.7 520.2 528.6 535.9 543.5 551.2 566 586.9 597.1 604.3 609.1 614.9 619.1 623.4 625 626.1 624.1 620.7 613.1 612.3 611.4 610.8 610.3 606.6 605 604.7 607 608.1 610.8 609.3 612.4 622.1 630.2 636.5 641.1 646.5 656.6 670 688.1 693.9 701.9 700.4 700.9 703.1 704.8 704.1 697.4 688.6 683.4 681 673.5 663.5 658.9 649.9 642.6 636.9 634.8 637.8 631.9 639.1 630.1 625.6 619.8 615 610.2 607.7 602.3 600.7 600.1 600.6 598.6 594.1 585.6 584.8 577.3 569.3 554.8 544.2 536.7 533.3 535.2 534.3 531.1 529.4 527.5 524.8 524.6 514 502.9 496.2 496.6 497.4 499.5
547.7 552.8 551.4 547 547 561 576.7 583.9 582.4 577.5 572.8 573 586.6 596.6 601.2 590.2 566.2 551 542.2 542.7 549.3 558.1 569.3 573.4 575.2 577.2 585.4 605.7 614.5 614.4 609.7 609.8 610.9 610.8 606.3 601 603.3 610.5 605.1 581.9 565.7 563.8 540.3 513.4 503.8 491.7 483.5 466.3 459.6 457.2 456.2 453.3 450.3 445.9 444.3 447.6 450.4 436.7 433.6 432.4 431.4 431.5 428.9 417.5 408.9 401.5 396 392.9 389.4 382.4 378.8 376.6 374.7 374 372.5 369.8 369.1 377.1 382.4 387.6 393.1 401.2 408.5 416.1 425.6 434.9 443.6 454.7 463.5 473.9 482.4 487.4 478.3 474.5 474.9 475.9 472.6 469.2 465.4 455.2 450.8 455.8 463.5 464.2 471.3 477.2 485.5 497.3 514.7 521.6 533.5 541.3 550.8 561.7 586 596.4 602.4 607.9 609.5 612.4 616.1 622.3 622.8 619 616.2 613.9 610.4 610.3 608.9 607 603.1 601.9 605 604 604.4 608.9 607.7 613.7 622.9 630.6 636.3 644.4 655.3 666.2 677.9 689.7 696.2 707.5 708.4 698.4 698 700.1 700.3 697.9 692.9 686.9 681.1 673.5 659.7 652.5 646.9 641.7 639.4 641.5 640.4 632.9 635.3 628.6 621.3 615.7 613.4 609.6 607.5 608.1 606.6 604 605.2 600.7 592.4 582.8 577.2 573.9 569.3 559.1 544.6 538.1 531.8 527.4 524.8 525.1 523.3 521.9 520.9 519.2 514.5 507.3 500.3 497 500 503.5
552.6 553.7 549.8 547 547 556.1 574.5 588.4 594.4 589.5 570.6 567.3 576.4 593 586.4 574.5 549.7 540.8 537.7 542 549.4 559.5 570.4 579.3 579.4 580.7 586.3 601.2 612.7 614.7 611.2 610.3 612.1 606.1 601.3 598.7 604.8 601.4 599 585.6 563 556.5 531.7 511.7 501.4 491.5 485.7 467.6 457.8 455.3 454.1 453.7 453.4 451.3 453.8 466.1 465.4 446.4 437.3 434.9 433.3 433.3 424.8 418 409.1 400.6 391.8 390.1 385.5 377.2 375.7 374.2 373.3 372.3 372.1 367 370.2 376.6 382.6 387.8 394.1 401.6 408.6 415.7 424.1 433.2 443.1 451.5 460.2 471.7 483.4 487.3 483.5 473.1 472.3 475 475.5 468.8 461.6 457.1 440.4 445.3 452.5 453.2 461 469.2 480.2 490.2 503.4 514.4 526.7 536.7 547.4 557.3 580.2 593.8 599.7 602.2 603.5 606.3 612.4 619 619.5 618.1 619 613.9 607.1 608.1 607 602 598.4 601 600.3 602.9 600.9 604.9 605 614.5 624 636.4 643.1 650.2 658.9 668.8 677.8 690 696.2 702.6 705.6 692.7 690.6 696.5 701.9 698.6 692.7 686.4 677.2 659.2 642.1 645.9 642.4 641.3 640.9 646.1 646 637.4 634.8 629.2 624.6 626.3 623.8 618.2 615.6 616.8 615.9 617.2 613.6 604.1 590.3 578.4 569.8 565.3 564.8 555.7 542.4 535.3 532.7 527.7 522.6 521.9 519.7 519.7 519.3 518.7 516.8 511.3 506.1 503.9 506.1 506
560.3 559.5 549.8 547 547 552.6 568.5 591.7 602.4 598.7 577.8 563.4 563.3 576.7 570.3 556.5 542.8 533.4 534.2 541.2 550.3 564.5 570.7 576.3 579.8 581.6 588.6 601 605 608.3 611.6 610.6 614.4 608.4 597.7 594.6 597.1 594.4 593.9 578 556.8 541.8 518.8 506.4 495.4 487.3 480.2 468 456.7 453.6 452.6 452.8 453.3 456.4 458.9 473.7 464.3 453.9 438.6 434.3 433.9 427.7 421.6 415 408.7 399 391.5 385.9 382.4 375.1 373.2 371.8 370.5 369 365.3 366.4 371.2 376.5 382.9 388.6 395.1 401.8 409 416.1 423.3 431.7 441.3 450.7 459.1 468.2 479.2 482.6 479.9 472.3 468.5 469.8 478.2 474.8 456.9 446.9 436.8 434.9 438.1 445.6 449.5 460 471.4 480.1 493.3 510.6 521.1 533.3 542.6 550.9 576.2 593 594.4 596.8 598.5 601.3 607.7 612 616.2 612 609.9 610.5 608.2 602.8 599.9 599.5 592.8 597.2 595.5 598.3 596.7 601.6 604.2 614.5 626.5 639.5 647.6 654.6 660.7 667.3 678.6 685 691.1 695.8 690.9 666.1 665.1 675.9 684.7 682.3 678.2 669.2 659 640.5 624 623.5 635 643.2 643.1 649.2 646.7 643.4 640.4 636.6 633.8 636.2 633.8 634.5 633.4 631 628.3 623.9 615.7 604.3 583.9 572.5 568 560.7 552 540.6 538.5 533.6 531 527.7 525 524.1 519.9 513.7 513.9 518.3 517.4 516 515.2 513.5 510.6 509.8
567 560.8 552.1 547.8 549.2 551.3 559.9 582 599.6 598.8 583.9 567.4 553 554.8 556.1 541.2 535.9 526.5 532.7 539.8 549.5 561.8 571.2 576.9 579.3 582 589.2 600.7 607.8 601 604.5 609.8 602.3 608.8 592.6 590.1 591.3 586.8 581.5 569 545 528.3 510.3 504.7 492.6 481.8 473.3 463.9 453.7 452 451.8 451.9 452.9 458.1 460.7 461.8 465 455.9 439.4 430.4 429 424 416.7 408.9 404.2 396.5 387.7 379.4 377.4 373.2 370.3 368.3 366.3 364.6 363.5 368.4 371.6 377 383.2 388.9 395.6 402.5 409.3 416.1 423.6 432.2 441.2 450.8 460.4 468.1 475.7 476.1 474.7 471 466.3 465.3 468.8 463.2 452.8 442.3 434.4 425.4 428.1 436.6 440.5 449.1 460.1 473.1 487.5 503.3 517.4 526.6 536.6 547.1 572.1 584.5 588.6 591.8 593 596.9 600.3 605.1 606.5 607.7 601.9 598.6 600.5 597 592.3 589.4 585.8 588.5 590.3 588.8 590.6 596.5 597.8 608 630.8 645.2 653.3 658 660.9 666.2 667.8 670.4 670.6 668.2 657 650.9 649.6 654.8 661.8 665 658.8 655.3 643 626.1 623.5 623.5 633.4 641.2 642.2 643.8 649.6 650 650 643.9 639.5 645 643.3 638.7 638.3 633.3 627 630 620.1 601 577.3 559.6 556.9 551 539.1 534.5 539.6 536.4 531.2 527.4 525.8 524.5 521 515.2 512.9 516.3 516.4 518.5 519.2 518.1 518.8 514.7
565.1 565 562.8 553.3 550.2 550 551.9 566.7 582.1 589.2 580.4 568.9 553 539.3 537.3 532.2 525.1 521.6 528.2 537.1 548.7 559.3 569.3 577.5 581.3 582.1 586.6 596.5 602.2 601.7 592.6 594.6 592.4 584.3 583.3 582.1 591.2 579.3 576.5 558 537.7 520.3 513.1 503.9 491.6 478.9 465.9 456 451.7 451.2 450.7 451.4 452.2 456 458.2 458.9 458 455.4 438.2 427.9 425.2 417.9 409.2 401.9 397.5 390.1 381.8 374.8 370.6 369.9 368.2 365.9 363 362.1 366.1 369.1 371.9 376.7 382.8 389.2 396.4 402.9 409.6 416.8 424.1 432.9 442.6 452.1 464.8 471.5 477.6 473 469.6 466.7 463.1 460.6 458.3 449.5 445.2 438.5 430.3 420.6 418 425.3 430.4 437.1 452.2 465.8 478.7 494.6 511 519.7 527.4 541.5 563.4 576.6 585.9 589 586.3 587.4 591 593.3 595.7 597.5 592 580.4 583.9 588.7 589.7 588.4 584.7 582.7 583.2 587 592.4 594.6 601.8 612.5 629.8 645.3 653.7 663.6 662.3 657.7 653.5 652.2 655.6 649.4 643.6 642.1 642.4 646.5 652.3 655.9 653.5 647.3 641.1 623.5 623.5 626.2 640.5 649.4 650.3 644.5 653.8 654.6 655.4 648.6 640.1 642.3 643.6 638.6 635.3 629.5 621.8 616 608.2 588.8 563.4 556.9 548.3 540.8 529.3 535.2 541.1 537.8 533.9 528.8 526 524.3 522.6 518.3 511.5 512.3 516.2 519.6 523.9 521.6 519.8 517.6
569.9 570.3 569 560.8 556.1 553 550.8 547.2 561.9 568.8 566.9 562.9 548.9 533.1 526.9 524 517 519.9 526.6 535.8 548.5 560.2 571.6 581.2 587.9 588.1 585.7 595.8 598.8 599.6 593.6 582.4 578.6 575.6 573.5 574.5 579.9 575.3 566.4 546.3 527.9 514.8 510.3 502.3 485.1 471 459.1 452.3 451.6 451.2 450.3 449.5 450.6 452.4 453.9 456.4 451 447.6 435.6 422.7 419.2 411.1 401.6 397.2 390.7 384.2 376.8 371 367.3 367.6 365.7 364.6 361.3 362.2 365.8 368.8 372.2 377.3 383.1 390 397 403.6 410.5 417.9 425.7 434.2 444.9 455.4 468.2 473.3 474.1 472.9 468.4 464.9 460.7 455.4 446.5 441 435 432.1 423.9 415.5 410.9 415.5 419.2 428.1 441.9 456.1 469.6 483.5 499.5 511.7 519 530.4 549.5 571.2 580.5 581.7 581.8 585.3 588 588.4 584.5 578.1 578.1 578.1 578.1 582.2 586.5 586.8 585 581 584.5 587.3 590.7 596.8 606.7 617.6 625.5 634.4 641.7 649.6 653 649.4 647 643.1 641.2 640.4 635.1 632 634.3 635.7 641.2 642.7 643.7 636.7 625.8 623.5 623.5 633.3 644.8 651.2 655.2 650.7 648.6 652.9 644.7 642.8 638.4 630.9 637.2 635.7 627.4 618.3 608.6 601.7 585.1 569.8 554 549.3 544.1 526.6 524 534.7 543.4 542.9 535.4 532.6 530.6 525.7 516.8 512.4 510.6 511.2 516 521.1 522.1 520.2 519 512.9
578.4 577.4 574.5 568.8 564.1 560.6 554.1 544.6 543.9 552 552.1 552.4 539.9 528.4 518.4 515.5 513.6 518.8 526.3 537 549.5 560.2 575.3 587.2 595.4 597.6 584.4 588.6 596.8 597.8 598.2 583.6 573.1 571.3 569.5 568.3 570.6 566.9 558.4 546.2 518.4 507.3 502.3 492.1 476 462.5 455.3 452.9 452 452 452.8 452 449.2 449.3 448.4 449 440.9 436.9 430.1 417.9 410.9 404.5 396.3 390.4 384.5 375.8 368.2 365 363.4 362.8 363.2 362.9 360.7 363.2 366.9 370.5 374.6 378.8 384.8 391.4 397.4 404.9 413.1 420 429.1 436.6 445.9 457.2 469.3 478.4 474.5 471 468.5 463.8 460.4 455.7 448.3 437 425.3 424.1 416.5 410.7 405.4 405.7 410.4 420.2 430.6 444.9 459.1 473.1 488.1 501.2 511.8 520.8 537.5 561.4 571 574.6 579.5 584.9 586 587.3 578.1 578.1 578.1 578.1 578.1 581.4 581.2 580 578.6 578.9 585.7 587.3 590.2 603.9 612.9 617.3 619.1 625.9 631 638 641.9 642.1 640.4 633 630.6 632.4 627.6 623.6 624.3 632.3 632.7 632.1 628.4 624.8 623.5 623.5 629.6 641.1 641.8 646 653.2 658.9 640.6 637 630.8 623 616.3 609.6 616 620.3 615.3 602.1 592.8 583.4 568.1 555.7 541.5 540.2 536.4 522.9 522.4 532.5 535.9 540 536.5 533.7 535.1 523.4 516.3 512.6 510.7 510.4 513.2 516.3 520.4 519.8 517.5 509.3
586.1 581.6 580.1 575.3 571.3 570.9 562.4 549.7 534.1 535.9 538.2 537 528.4 518.8 513.8 510.7 512.5 518.2 523 536.4 548.7 560.6 570.6 587.6 595.8 594.8 585.6 581.3 591.6 598.1 597.3 586.8 572.3 567.7 565.2 562.7 563.6 561 550.5 533.7 512.1 502.6 497.1 483 469.8 459 456.7 456.4 455.4 454.8 456.9 452.2 447 444.6 439.5 437.4 436.5 430.3 424.2 412.3 401.6 396.8 389.6 384.7 376.6 367.8 363.3 360.6 357.6 357.2 357.8 358.7 363.4 365.5 369.2 372.4 375.9 380.2 386.7 392.7 399 407.4 415.2 422 431.9 439 449.7 459 468.4 475.7 478.6 471.5 468.6 465.1 461.7 460.3 457.2 444.2 425.8 414.9 411.5 404.9 401.7 399.6 400.8 411.2 420.7 431.8 448.7 464.1 479.9 492.4 502.6 513.4 524.1 548.1 558.6 568.1 574.8 579.5 583.4 581.6 579.1 580.1 581.8 580.8 578.5 575.4 574.3 573.3 573.7 578.5 584.5 586.8 590.4 600.2 608.8 611.3 609.7 616.4 624.3 628.5 631.8 633.1 632.2 624.9 626.8 629.7 624.6 623 621.9 621.9 622.6 624.3 624.7 625.8 628.3 631.9 641 647.8 639.7 639.3 649 647.9 630.4 620.4 615.8 604.7 597.6 596.3 594.1 594.8 593.2 589.2 581.2 571.6 557 543.2 529.1 522.9 522.9 520 518 525.1 530.1 532.4 533 532.1 530.7 529.3 519.9 514.4 510.8 509.5 512 514 513.6 515.7 517.6 500.1
588.7 588.2 589 583.6 577.5 574.8 570.8 560.9 536.5 520.9 525.7 527.4 520.2 513.5 509.1 506.1 514 517.5 521.1 530.8 543.2 557.7 569.6 577.5 586.8 586.4 581.2 574.4 580.4 592.2 593.2 580.2 572.4 571.2 560.6 560.1 557.4 550.1 533 516.5 503.4 496.1 493.3 479.9 468.2 465 463 461.3 459.8 457.7 458.5 451.6 441.3 436.3 431.5 430.9 432.2 422.4 413.8 405.2 395.8 387.5 381.9 377.6 367.4 360.2 355.8 355.2 357.5 357 362 363.8 365.6 367.4 370.6 373.8 377.6 382.6 387.8 393.9 400.8 408.8 417.5 425.3 433.5 441.5 451 460.2 468.9 476.9 482.1 475.5 470 466.7 463.6 462.1 463.8 449.3 437.1 414.4 402.9 399.8 397.8 395.6 392.5 399.6 411.3 420.8 436 451.2 469.5 482.2 494.5 506.1 515 537.9 555.9 564.8 570.8 577.9 580.8 576.9 578.3 581 588.2 581.1 573.4 572.3 571.1 567.4 566.2 581.1 585.3 585.7 589.5 594.4 602 601.7 603.8 606.8 614.6 621.3 625.8 627.7 628.6 622.5 620.1 620.3 619.7 621.4 621.7 625.4 627.5 628.3 630.2 629.7 628.6 632.1 637.3 640.5 634.8 626.8 625 623.4 609.6 600.8 595.7 595.4 591.8 587.9 582.9 585.4 581.7 574.6 567.3 555.2 541.7 527.9 513.6 514.3 515.1 514.2 510.9 516.3 524.6 528.7 530.8 530 521.2 517.2 512 510.7 509.7 508.5 509.7 510.7 511.4 509.4 508.4 494.9
600.5 605 596 594 581.8 577.2 570.7 565 536.7 521.1 514.9 519.8 515.2 504.6 503.4 507.4 515.8 517.6 518.8 525.8 534.3 552.8 565.7 575.2 574.4 578 574.7 564.4 562.8 575.8 575.7 569.4 569.6 565.4 562.9 552.1 550.7 541.9 521.3 501 489 486.7 486.5 482.3 478.1 474.5 472 467.6 462.3 456.6 454.7 446.5 437.3 427.6 426.7 424.7 423.7 414.7 405.9 397.6 390.4 380.3 373.7 371.7 360.4 353.3 354.4 360.4 362 360.5 362 364.9 366.6 368.8 372.6 377 380.9 384.8 389.6 395.1 402.1 409.5 419.1 427.8 434.7 442.6 452.1 460.7 467.8 474.4 480 476.6 472.5 468.7 464.7 460.5 462.1 450.2 434.8 417.6 400.5 396.4 392.3 390.9 390.3 391 400.4 411.9 423.9 439.5 454.5 469.4 487.3 502.7 511 527.6 550.6 558.9 566.8 575.6 575.9 572.8 573.8 575.9 580.2 576.4 571.1 568.7 564.3 562.7 574.3 578.8 580.6 581.4 584 587.7 593.5 594 593.8 600 605.7 611.7 619 621.6 628.2 621.6 617.4 613.7 613.8 616.7 622 625.6 632.8 638.6 631.1 629.2 628.4 630 631 629.8 626.2 615.7 608.7 600.2 594.3 589 587.6 587.2 586.4 585.4 577.1 572.4 573.4 561.4 549.9 540.3 527 517.6 507.1 505 505.4 506.3 506.8 509.9 518.7 524 526.1 518.3 510.4 508.3 509.3 508.6 506.5 506.1 507.4 506.7 507.3 505.7 496 490.9
621.3 608.5 598.4 597.9 589.1 578.3 565.1 555.3 535.9 523.8 511.6 508.1 508 500.3 496.5 505 514.6 517.9 520.9 515.6 520.7 541.2 552.7 563.9 567.6 567.7 565.6 552.6 552.7 552.1 557.3 559.9 558.7 554.7 552.5 546.8 538.8 531 511.6 494.1 487.3 484.7 484.7 485.3 484.6 483 480.2 473.8 465.5 455.1 447.7 439.7 431.7 425.9 418.8 415.8 411.7 408.5 400.3 391.9 383.8 376.1 367.6 363.4 350.7 358.8 360.5 360.9 362 362.4 364.8 365.8 367.4 370.4 373.9 379 384.4 388.5 391.6 396.4 402.8 410.6 422.2 429.8 435.7 445.2 454.8 464.5 471.8 478.3 480.1 477.3 473.8 470.5 468 463.4 453.2 443.2 428.3 411.9 401.5 393.5 387.3 385 385.1 385.3 392.2 401.4 412.6 425.5 438.8 455.8 478.5 494.3 503.3 515.5 541.5 551.5 557.2 565.2 568.7 571.1 572.7 573.5 575 571.6 569.2 561.3 556.4 566 573.6 574.6 575.3 577 579.2 580.7 581.8 585.8 587.3 590.7 596.6 601.3 605.9 616.3 622.8 620.7 615.7 612.9 615.2 617.1 615.6 619.3 627.7 633 631.2 626 623.9 622.7 621.2 616.2 613.2 606.2 594.9 587.2 579.8 581.6 585.7 583.4 581.5 575.4 570.6 568.5 569.8 558.7 541.4 529.3 518.6 512.5 505.4 504.6 503.9 504.4 504.7 504.3 511.4 518.1 519 513.4 509.6 507 507.6 507.4 506 504.3 504.4 503 501.4 498.6 493.7 490.9
625.7 616.2 599.1 593.7 585.6 576 561 546.4 534.2 523.3 512.1 502.8 498.6 496.4 493.7 498.9 506.8 508.7 519.3 509.5 509.5 519.3 533.4 547.7 555.8 558.2 552.9 538.4 537.2 530.4 539 544.5 550.1 542.3 540.1 539.3 522.5 515.5 503.6 494.2 489.8 486.5 487.1 487.8 490.4 489.9 479.7 470.9 465.4 450.2 440.8 434.2 427.7 422.8 416.5 409 403.5 399.9 394.3 387.9 377.2 366.7 362.3 353.6 352.7 361 362.5 362.7 363.1 364.3 368 370.7 372.5 375.4 375.4 381 386.4 390.7 394.3 398.2 403.8 411.1 420.8 430.2 439.5 448.2 456.3 467.8 476.1 482.7 490.7 489.2 484.1 477.1 474 473.5 463.1 441.7 427.9 411.3 399.1 390.9 384.8 381.1 379.3 379.4 385.2 392.3 402.9 414.4 427.9 443.2 463.3 479.9 491.3 500.3 527.9 544 550 556 563 569.5 571.8 571.9 567.6 566.3 560.7 554.8 549.2 564.6 570.4 569.3 570.6 572.2 573.5 574.1 573.5 575 578 582.6 587.7 591.5 598.9 608.8 615.4 620.3 611.9 607.7 614.7 612.9 612 616.8 624.9 630.7 629.2 624.1 621.5 616.9 608.7 602.1 599.9 596.6 588.6 580.9 575.7 575.5 573.6 575.6 571.8 567 561 565.9 570.8 558.4 538.5 524.3 514.8 507.3 506.3 510 508.9 506.2 504.1 504.4 504.6 511.4 512.4 508.4 509.1 505.9 503.3 502.6 503.6 502.6 498 499.9 498 494.9 493.1 491.3
626.7 617.2 603.6 583.3 576.6 571.1 558.1 542.6 530.8 521.8 511.6 504.3 497.6 493.5 489.4 492.8 498.3 501.6 501.1 502.6 496.5 499.2 511.1 530.9 536.6 538 545.2 525.6 513 511.8 517.5 526.4 532.8 523.7 528.5 528.8 512.2 500.7 496.4 493.1 490.7 489.6 489.6 490 494.9 487.7 475.1 463.4 455.5 445.2 439.2 431.7 424.4 418.1 412.1 402.6 395.1 394 390.4 380.7 371.5 362.6 354.1 348.1 360 362.9 364.3 365.3 365.8 367 372.5 373 375.8 381.2 379.7 384.3 388.1 392.6 396.6 400.2 404.9 411 420.2 429.8 440 449.4 457.5 467.2 477.1 481.2 486.9 491.5 493.8 493.3 484 484.1 477.8 452.2 426.4 410.1 396.8 388.7 382.5 380.3 377.1 376.1 380.6 385.5 394.3 404 416.8 430.7 446.1 463.6 484.5 495.1 515.4 528.6 535.8 545.3 557.9 564.3 569.3 565.8 558.2 555.8 554.8 547.1 549.1 558.9 561.9 562.2 563.2 565.3 567.4 569.3 568.9 569.1 574.6 578.9 584.1 587.3 590.3 597 601.9 607.5 612.2 605.3 605.3 607.5 610.4 614.1 620.3 627.1 625.7 621.8 620 617.3 613.1 604 589.1 582.2 582.5 579.3 575.6 572.2 566.8 565.6 564.8 560.9 557.6 560.8 559.2 554 540.8 524.1 512.4 507.2 508.8 511.7 512.6 510.8 509.2 507.7 503.6 504 505 505.4 506.1 504.8 501.2 499.3 500.4 497.9 493.9 495.4 496 494.6 492.7 490.9
621 615.9 604.4 581.1 569.5 561.4 553.6 541.3 527.5 520 512.7 505.8 499.7 493.6 488.6 490.6 492.8 492.9 490.3 489 483.3 485.8 494.2 505.9 514.6 520.4 527.4 510.6 499.2 496.5 505.4 511.5 513.7 506.2 505.4 507.3 498.5 493.2 497 495.6 493.7 493.8 493.4 490.9 487.6 481 468.4 454.7 445.2 439.1 437 432.5 421.1 411.9 403.1 396.1 391.1 389.4 380.3 374.2 365.2 357.9 347.1 356.5 363.2 365.3 366.7 368.6 369.6 370.6 374.2 375.7 378.5 382.2 384.4 384.6 389.3 394.1 398.1 400.8 406.5 412.4 418.6 427.3 439.1 448.2 457.1 467.2 473.6 479.8 485.2 490.8 495.2 494.7 492.4 490.8 486.3 464.6 436.6 412.2 397.7 387.9 380.7 377.7 377.5 373.6 374.3 380.5 387.5 394.4 404.5 418.1 430.9 449.4 475.3 487.2 496 511.3 520.6 530.6 543.7 554.4 559.5 552.8 551.9 554.2 549.6 541.5 545.3 550.9 553.4 554.3 556.3 559.3 560.9 564.2 562.5 563.2 568.3 574.5 577.6 581 583.6 587.5 592.1 598.5 606.6 608.3 602.8 606.1 610.4 612.7 615.4 619.7 619.4 617.6 617.5 617.5 618.7 610.8 586.4 578.6 577.2 574 570.7 568.1 563.3 557.9 556.3 557.1 556.5 555.8 553.4 547.9 540.3 529.8 514.9 506.8 509.9 513.2 513.2 512.8 512.2 510.8 508 502 501.6 502.2 503.6 503.9 499.9 497.9 494.7 494.2 492.2 491.5 491.8 493.4 491.6 488.6
601.8 603.7 600 581 564.9 558.7 544.9 534.8 525.1 520.7 515.4 508.9 503.8 496.6 488.7 487.3 486.5 487.6 481.9 474.2 469.6 472.2 479.3 487.6 492 501 497.2 486 481.4 484.3 489.7 494.9 492.1 489.9 490.6 488.8 486.5 487.9 496.7 498.1 498.6 495.6 492.1 489.2 481.6 472.9 461.1 448.7 437.6 436.1 434.8 427.9 412.9 401.9 394.8 389.3 385.4 382.9 377.7 368.2 358.2 351.1 352.5 364.3 366.6 368.6 370.1 372.2 373.7 374.2 378.4 380.4 381.2 384.3 387.5 389.2 391.9 394.2 398.9 401.3 405.7 412.3 418.8 426.8 438.1 446.1 454.3 463.3 474.7 478.4 482 486.7 494.6 496.4 495.2 493 492.7 484.8 455.7 421.6 402.5 390.6 379.8 375.3 373.2 371.8 370.8 373.8 379.4 386 394.5 406 417.8 435.3 457.9 473.7 480.5 500.3 510.7 519.2 532.2 539.3 539.9 541.2 548.7 553 545.9 537.7 537.8 547.1 545.5 545.7 551.3 553.1 553.4 555.9 556.1 555.3 559.8 568.2 572.7 576.9 578.5 580.7 586.3 593.6 597.9 602 601.8 606.4 610.6 609.6 610.7 615.4 614.6 613.8 614.8 618.2 624.5 609.1 586.4 574.8 569.8 565.7 565 563.5 558.7 556 554.5 556 555.2 555.6 552.8 547.8 540.6 533.3 525 511.3 511 513.1 513.4 513.9 514 513.9 512.3 509.5 505.9 504.5 502.9 501.2 501.4 501.8 500.2 499.7 496.1 493.8 489.5 491.1 489.2 486.2
597.5 596.3 593.5 578.2 561.2 557.3 538.4 529.2 524.2 520.9 516.4 513.3 512.1 501.2 491.3 482.7 479.6 479.4 474.7 464.9 457.2 462.1 464.6 471.8 470.5 469.4 469.8 466.7 466.2 470.2 477.9 478.4 477.8 477.6 478.1 479 480.7 484.6 490.6 497.1 497.8 491.5 486.8 482.7 475.7 464.1 453.6 443.1 436.8 432.3 430.4 416.4 404.9 395 390.5 385.5 381.7 375.9 368.5 365.5 359.7 343.8 360.6 366.1 368 370.1 372.6 375.4 379.2 379 382.4 384.3 385.8 386.5 390.3 393 397.2 397.5 398.5 401.2 406.2 414 419.4 426.5 434.8 445.6 452 458.4 469.4 477.4 479.6 481.5 490.5 494.6 496.6 498 501.9 504.4 482.6 437.7 411.6 392.6 381.5 373.9 371.7 369.7 368.8 371 373.4 380.1 386 395 405.5 420.2 437.1 453.7 463.6 477.5 495.8 506 518.5 520.8 527.9 538.2 547 547.8 542.9 522.6 538.8 538.3 537.2 537.1 538.8 543.9 544.3 547.7 548.5 548.4 551.1 561.3 566.1 569.9 576.2 578.8 584.5 589.9 595 596.8 599 602.4 605.9 606 608.4 610.2 612.3 615.6 615.1 615.1 619.7 605 585.5 571.2 566.8 563.2 564.5 564.6 557.7 553.5 552.8 551.4 551 553.2 554.4 550.3 542.4 536 529.4 518.7 510.7 511.5 511.6 512.7 515.9 517.1 516.8 514.9 512 508.4 506.5 504.9 503.7 503.6 502.3 500.2 497.7 495.5 491.7 486.6 485.9 483.3
605.2 582.6 590.1 568 553.7 551.4 531.2 525.6 523 517 514 517.9 516.7 510 499.3 486.5 476.1 469.8 466.8 458.1 447.9 449.5 452.4 451 447.7 444.8 449 451.9 449.9 452 461.9 464.9 467 466.2 467 475.7 479.6 482.7 485.6 490.9 488.2 484.5 482.5 477.7 467.2 457.4 452 441.3 434.7 427.2 417.9 408.1 400 393.1 388.9 383.3 377.7 369 363.9 351.3 344.1 348 366.5 371.2 373.3 373.8 376.2 379.3 382.1 383.3 385.2 387.2 389.4 391.3 392.8 395.8 400.3 403.5 407.2 408.2 409.8 413.7 421.9 426.8 433.3 445 451.9 455 460.1 472.1 478.8 479.2 481.5 487.6 495.4 501 505.1 509.5 494.3 454.3 420.1 398.4 385.1 375.7 371.3 368.7 367.6 368.5 369.7 373.4 378.8 386.1 393.9 405.2 417.9 431.2 447 461.1 472.3 488.8 495.8 509 520.6 532.3 539.7 538.8 511.3 533.1 533.4 528.7 528.2 531.1 529.9 529.5 533.5 536.6 538.1 540.7 543.1 556.8 562.6 567.5 572.2 575.8 579.8 585.2 588.1 587.3 590.9 596.1 601.8 604.6 607.1 609 610.8 613.5 609.6 608.8 607.5 596.2 582 570.9 562.1 561.2 564.2 560.8 556.2 551.5 547.8 548.4 548.3 551.8 557.2 554.2 545.4 538.7 531.1 521.5 511.6 510.2 509.9 512.6 517.2 519.6 519.6 518.6 516.7 514.9 511.6 507.6 504.6 503.3 502.4 501.3 500.3 497.9 495 492.7 490.4 488.2
608.4 585.1 561.5 558.9 544.3 535.6 529.7 523.4 518.9 516.3 517.9 520 520.4 516.2 508.9 496.2 479 464.1 456.9 452.4 442.5 435 436.6 433.5 429.3 428.7 431.1 435 436.2 438.3 445.8 451.2 454.2 457.9 462.5 471.2 477.4 477.8 481.3 479.4 480.9 478.2 478.7 474.7 462.8 455.4 448.9 439.4 429.5 420.1 410.1 405.2 397.9 390.2 385.4 378.4 372.8 366.4 358.1 338.4 349.2 361.9 368.8 376.3 378.4 378.1 379.6 382.2 384.5 386.1 388 390.6 393.1 395.3 397 398.8 401.5 408.4 410.5 413 416.9 419 421.3 426.8 433.4 439.6 447.5 452.5 456.1 463.7 474.7 478.5 478.5 482.3 490.5 498.4 507.9 510.7 503.1 463.5 428.3 403.7 389.6 378 371.5 367.8 364.9 366 367 369.6 373.6 378.6 385 392.5 403.1 416.7 428.3 441.5 447 464.2 476.5 492.6 513.3 523.7 525.9 511.6 518.1 528.1 523.6 518.8 518 522.3 521.6 522 524.2 528.8 529 528.8 536.2 550.4 561 565.9 569.4 572.6 577.8 581.8 582.1 584 588.5 592.1 597.5 602.5 604.9 605 610 612.1 610.2 604.1 597.1 586.6 574.3 570.4 563.1 562 571.2 565.8 556.4 548.2 544.4 542.4 541.8 549 551.4 550 545 538.4 529 522.2 515 512.5 510.8 511.6 517 521.3 522.2 522 520.8 519.4 516.7 513.8 510.4 507.3 504.9 503.1 501.7 499.4 498.7 497.2 494.4 490.5
603.2 595.5 569 544.6 536.5 529.1 527.4 522 518 518.4 521.4 522.7 523.3 521.6 516 507.5 495.1 467.5 447.8 442.7 438.1 426.4 419.2 418.4 415.8 416.7 415.5 419.4 424 424.7 430.3 439.1 450 456.9 457.9 464.7 472.7 474 472.2 472.9 473.1 473.2 472.8 468.1 458.4 452.6 445.7 436.7 424.4 415.1 405.1 400 394.8 386.9 382.3 374.4 368 361.4 349.8 333.7 350.9 366.5 371.8 378.3 379.9 380.7 382.7 384.7 386.9 388.8 390.6 393 395.6 397.8 400.9 403.9 407.8 409.7 413.3 418.1 422.9 425.1 427.6 430 433.8 438.7 443.6 449.7 454.7 460.1 470.1 477.5 475.5 478 482.4 493.4 507.3 511.4 509.8 477.7 434.3 409.2 393.1 382.3 375.6 369.4 365.1 364.1 364.4 366.6 368.7 372.3 376.9 382.8 389.4 400.7 409.8 417.8 432.9 446.3 463.6 479.3 499 508.9 507.8 494.3 510.9 516 511.3 508.6 509 509.1 511.4 514.1 515.2 519.2 520.3 518.2 529.6 542.5 552.7 559.2 565.4 569.2 574.9 579 578.7 583.1 585.8 589.2 593.6 599 598.1 597.7 601.8 608.1 608.8 601.6 590.1 578.7 572.1 570.3 562 559.9 568.2 570.5 559.7 548.6 542 538.3 537.8 540.5 543.6 543 538.3 532.5 524.4 520.8 517.7 514.8 515.3 512.3 519 522.5 524.4 524.8 524.7 523.2 521.1 518.7 515.3 511 508.7 504.7 503.2 502.2 501.4 499.5 497.5 493.3
605.4 597.5 584.1 555.1 534.1 529.1 525.5 519.9 517.7 519.8 523.6 525.1 526.4 526.7 522 512.6 500.8 476.9 449.6 433.3 426 418.4 407.7 405.2 403.3 402.3 403.8 406.6 410.9 414.3 416 427.3 445.6 454.4 454.8 455.8 462.4 466.1 465.1 466 467.4 466.1 466.5 460.8 452 446.3 439.4 428.5 416.2 407.4 400.3 393 388.2 379.3 374.5 370.3 362.4 351.7 335.7 330.9 353 366.6 375.4 379.4 381.2 383.2 385.1 387.9 389.2 391 394.4 395.8 398.1 402.2 407.4 409.2 413.4 417.2 420.8 426.3 429.2 430.1 431.7 433.7 435.3 438.6 443 447.2 451.7 456.5 462.8 469.9 469.5 471.9 475.7 486.9 505.5 510.2 507.3 486.3 441.9 417.1 400.5 387.6 377 370.3 367.3 365.6 361.3 363.6 363.6 366.4 370.2 374.7 379.4 386.1 395.9 399.2 414.1 427.9 443.6 457.8 471.2 482.3 485 470.2 506.1 509.2 500.3 500.6 502.9 502.3 501.2 507 508.5 509 508.6 512.9 525.2 534.6 543.1 551.8 559.4 563.5 566.8 573.5 574.5 580.5 586.1 590.2 590.8 590.3 591.8 589.6 590.9 599.5 605.1 592.8 580 572.3 569.3 569 562.9 554 559.1 561.7 554.2 546.5 541.5 538.7 537 535.3 534.5 533.5 531 527.3 523.1 521.3 519.6 519.4 518.8 515.3 523.2 527.5 528.7 529.2 528.3 527.1 525.4 522.7 519.8 516.9 513.2 509 506.4 504.8 503.4 501.8 499.7 496.1
606.2 602.8 586.5 564.7 539.9 533.3 527.8 521.3 519.2 520.5 523.5 526.9 530.2 533.8 529.8 520.8 504.6 483.4 455.3 430.1 416.6 409.9 402.7 396.6 397.5 395.3 394.9 396.5 399.3 404.9 405.1 418.2 435 445.1 449.3 450.4 453 457.2 459.5 462 462.4 459.4 456.7 453.6 446.8 439.7 432.2 420.9 409.6 402.1 395.2 387.5 381 373.9 368.9 365.6 354.3 339.2 331.1 341 359.6 365.7 372.6 378.8 384.3 388.3 388.4 390.4 392 393.9 396.4 399.5 402.4 407.8 413.5 415.6 419.7 423.5 427.7 431.8 433.9 435.1 436 437.5 440.3 440.9 443.9 448.3 451.7 454.2 457.4 460.5 464.1 466.2 467.8 477.6 501 503.2 505.5 487.5 449.1 422.7 405.3 393.7 382.2 372.3 368.1 366.3 364 362.5 357 359.9 364.6 368.2 372.4 376.6 382.6 389 397.6 411.2 423.7 435.5 444.1 454.2 459.4 471.6 488.9 499.2 489.6 493.5 498.8 497 493.5 498 501.3 498.6 495.3 505.4 516.1 523.9 534.3 542 548 554.1 558.1 560.4 566.8 575.9 583.7 590.8 588.1 582.9 583.3 584 587 594.7 596.3 581 574.9 570 562.8 562.6 560.5 548.6 550.9 552.6 549 547.5 543.5 539.1 537.7 534.6 531.5 524.8 523.4 522 521.5 519.9 518.9 517.7 516 517.6 526.6 530.9 532.7 533.1 533 531.8 529.8 527.1 524.4 521.6 518.5 513.7 511.5 509 507 504.5 501.8 498.6
601.3 593.5 585.6 565.2 545.5 539.1 537.5 529.8 522.7 521.9 524.5 528.3 534.1 539.1 537 524.5 501.8 479.8 458.6 438.2 417.6 404 398.4 395.1 388.7 390.4 389.3 389.6 391.9 394.7 395.7 410.5 422.8 435.7 443.4 445.9 445.8 447.9 451.7 456.2 457.2 456 450.7 443.2 440 433 424.1 414.1 404.9 396.2 388.7 383.9 376.5 367.1 361 355.2 345.4 326 338.8 356.8 363.3 372.1 378.5 382.1 385.5 388.1 390.2 393.5 397.2 399.2 400.3 402.4 406.8 414 418.2 422.4 427.3 430.4 433.9 437.1 438.9 441.3 441.2 441.8 444.3 445.5 446.9 448.9 450.9 453.4 455.9 457.7 459.7 462 462.3 466 485 496.3 498.7 487.7 447.4 421.5 404.9 395.2 385.2 376.1 368.7 365.2 363 361.3 359.2 356.7 361.1 364.7 367.2 369.5 373 377.7 384.5 395.6 406.7 421.9 434 436.3 440.3 456.4 469.5 479.3 479.7 483.4 491 489.6 485.9 484 488.3 487.5 484 496 503.9 511.6 522.7 532.2 539.2 543.3 548.3 551.8 558.3 569.7 578.7 583.7 587.3 579.3 579.7 579.6 578.3 580.8 590.1 583.8 570.5 565.1 562.4 560.2 554.7 547.2 546.6 547.4 552.1 554.6 551.5 541 532.4 530.1 524.5 520.7 520.3 519.7 519.7 516.6 516.4 518 519.4 521.2 524.7 531.4 534.7 535.6 535.2 534.1 533.3 531.5 529.3 526.7 523.7 518.1 517.1 513.6 510.8 506.9 504.6 501.3
589.8 589.6 587.9 578.4 549.2 539.4 542.7 540.4 533.3 526.2 526.1 528.9 532.2 536.2 533.1 519.3 500.7 479 465.1 444.1 421.6 407.8 395.6 386.6 383.1 385.5 385.2 383.4 384.4 385 389.1 402.5 412.9 422.8 431.7 440.5 439 441.2 443.7 447.2 449.9 450.1 442.3 434.1 430.8 423.8 414.4 406.8 398.4 389.8 382.3 375.3 366.7 360.1 354.4 343.6 335.8 323.4 337.6 357.9 367.6 375.7 380.8 385 387.5 389.6 391.7 396.1 400.5 402.9 407.2 409.5 415.1 419.8 424.8 429.8 432.8 437.3 442.7 444.9 445.5 446.3 448.7 448.8 449.5 450.9 451.9 452.2 452.6 454.3 455.5 457 458.2 459.8 460 458.7 465.9 480.6 488.9 477.5 443.9 424.1 408.3 396.2 385.8 378.1 371.2 365.4 361.9 358.9 357.5 352.6 355.8 360.4 361.6 362.9 364.7 368.7 373.8 383.3 394.4 404.9 422.1 428.2 430.8 442 451.1 461.4 465.4 468.6 476.5 480.6 477 472.6 473.1 475.8 475 485.2 495.4 504 514.1 523.5 526.7 532.8 540.2 544.9 551.7 561.3 569.7 574.2 574.7 574.5 573.2 574.6 574.2 576.3 576.6 577.5 578.7 569.6 568.8 569 562.5 547.6 545.9 548.2 553.3 555.4 547.1 538 526.5 521.5 520.4 519.5 520.1 523.3 522.7 518.9 518.4 519.3 521.4 523 525.4 529.7 535.5 537.6 537.2 535.6 534.9 533.1 532 530.7 527.6 522 521.6 517.9 514.4 510.6 506.9 505.5
579.1 585.2 585 580.5 557.6 539.5 543.1 545.2 542.3 535.4 529.9 528.2 528.5 530.1 528.4 516.3 498.6 479.3 464.7 446.1 423.9 406.3 396.2 390.4 384.5 378.6 378.9 378.6 377.4 379.2 381.7 394.1 402.8 410.2 417.5 430.9 433.5 434.5 437 438.2 440.5 439.3 434.8 427.4 420.6 414.1 406.8 397.9 386.8 379.4 370.8 365 360.7 355.6 345.9 338.2 318.2 334.9 344 358.1 370 377.8 382.2 386.8 389.3 391.7 394.7 399.1 403 407.5 412.9 417.4 422.4 429.7 435.2 440.6 441.9 445.3 451.7 454.5 454.6 454.6 454.4 454.8 456 456.5 456.9 456.8 456.5 457.3 457.6 457.3 457.8 458.7 460.3 456.2 454.7 462.8 472.7 462.3 442 418.7 402.4 390.2 381.8 376 371.9 366.3 361.8 357.8 355.2 351.5 352.6 353.7 354 355.4 357.7 361.7 364.3 367.7 381.2 391 400.8 411.2 418.1 428.8 437.4 443 448.3 455.2 462.4 467.1 467.2 463.6 462.9 463.7 466.9 475.2 484.4 492.6 504.4 515.4 524.6 533.6 537 540.8 545.7 551.1 559.3 568.9 570.7 570.2 572.2 573.2 573.5 574.5 573.5 573.1 570.1 567.7 567.6 570.7 565.9 552 545.5 549.8 553.5 547.3 540.6 533 522 519.9 520.1 520.8 523.4 529.7 527.6 522.6 520.4 521 524.3 526.5 527.6 528.8 535.8 539.7 540.6 539.6 537.1 535 533.5 532.2 530.7 528.5 526.9 522.7 518.3 514.4 512.6 512.7
578.3 577.4 578.3 573.8 550.6 539.8 541.2 545.5 547 544.7 538.6 529.6 526.5 528.8 527.3 513.7 502 478.8 458.7 443.6 425 408.3 398.6 390.4 385.2 373.2 368.8 371.1 371.2 372.6 373.3 385.7 389.2 397.2 403.3 412 422.5 424.6 429.9 429.3 428 429.6 426.3 419.4 410.5 404.2 398.2 387 377.2 369.9 363.2 360.6 357.4 352.8 340.3 327.9 327.5 348.6 358.5 367.5 374.3 379.5 383.3 386.6 389.8 393 397.4 402.6 407.1 413.3 419 423.7 431.1 438 444 450.5 456.2 459.1 461 464.1 465.7 465.3 464.9 464.8 462.1 464 461.6 461 459.3 459.4 459.7 458.5 457.1 456.3 455.8 453.3 450.1 448 447.8 448.9 443.2 421.6 405.3 394.4 383 375.2 368.9 364.7 360.2 356.8 354.7 351.2 350 350.9 350.2 350.5 351.4 355.2 356.7 358.7 368.1 377.7 387 393 402.5 414.9 426.5 432.1 432.3 438 445.7 451.1 453.5 453.4 456.4 455.9 457 464.8 471.9 481.1 492.5 510.4 520.1 530.4 532.3 533.6 539.3 546.5 552.6 563.6 564.5 568 575.8 575.6 576.8 573.2 569.8 567.1 563.9 561.7 560.6 565.4 557.3 547.1 545.2 547.5 549.8 543.1 534.5 529.1 525.6 523.8 524.5 528.1 529.9 537 532.4 525.5 524 525 524.8 528.3 531.4 532.9 533.4 539.4 543 543.6 541.1 539.4 535.6 533.4 532.6 531.6 530.3 528.3 524.2 520.1 518.6 518.2
571.7 575.7 567.2 555.3 540.8 540.2 541.6 544.9 550.2 552 546.9 536.3 524.9 522.5 519.8 509.1 494.6 476.3 450.7 436.6 425.5 411.5 399.6 391.4 385.5 380.3 373.5 359.7 362.1 366 364.6 375.4 378.6 382.2 388.1 393.4 401 410.6 419.1 421.9 417.4 417.3 416.1 409.9 402.6 396.1 388.9 375.9 367.9 362.4 356.5 351.2 347.9 343.8 334.5 315 333 353.6 364.9 369.8 376.9 382.9 385.4 388 391.6 394.8 400.6 406.2 413.8 419.5 424.9 429.7 437.7 447.9 455.8 463.3 469.4 474.4 476.5 475.4 476.3 477.5 474.7 472.3 469.9 467.2 465.7 464.3 462.9 462.3 461.6 460.8 459.1 456.7 452.6 448.6 445.9 444.6 442.5 442.2 438.4 426 408.1 395.2 384.8 376.4 368.2 362.7 359.2 357 354.9 351.6 347.3 348 347.3 347.4 348.9 349 350.8 352.4 357.1 366 373.3 380.6 390.4 401.1 409.8 422.1 424.2 426.9 433.8 439.8 445.4 445.4 447.1 446.5 448.4 453.5 462.7 470.7 484.5 501.2 514.8 522.4 524.6 527.1 532.7 540.3 547 554.2 563.6 571.5 575.9 575.8 575.4 574.8 574.6 576.5 569.4 565.5 562.8 559.3 552.4 547.1 545.4 544.7 544.5 540.5 533.3 535 536.5 534.6 534.2 537.1 542.2 542.5 536.7 529 530 529.8 529.3 530.6 537.8 537.2 537.5 538.7 543.2 545.8 544.9 544.9 543.2 538 535.6 535.3 534.8 532.7 530.4 527.9 525.8 523.7
569.2 568.5 563.2 545 540.9 542.7 545.7 547.2 550.3 550 546.6 541.5 533.4 517.5 511.2 505.1 492 475.9 455.7 436 421.2 412 402.9 393.6 386.7 381.1 374 366.3 355.7 353 352.7 359.3 366.4 371 374.7 377.5 381.8 394.6 404.7 412 408.6 406.5 406.4 402.2 394.2 387.8 380.7 369.1 362.6 355.3 348.2 342.6 337.3 330.7 320.3 315.8 338.3 355.2 365 372.7 378.9 383.4 387 390.5 394 398.1 403.6 410.8 418.6 423.3 428.2 436.7 447.1 455.9 467.6 480.3 492.9 497.5 496.9 496.7 489.4 493.2 489.7 483.4 478.8 474.8 472.4 469 466.8 466.4 464.8 463 462.5 461.3 458 453.3 444.7 441.2 439.5 438.5 435.9 427.4 413.6 396.2 386.3 376.6 368.6 361.8 359 356.7 355.6 352.8 349.5 347.4 344.8 343.5 345.5 347.4 347 348.6 351.1 357 362.5 373.1 381.5 392.6 400.5 406.6 412.5 416.7 422.9 428.8 435.9 438.8 437.2 437.2 439.9 442.5 449.6 459.2 478.2 488.3 506.9 512 516.5 519.8 522.9 532.5 540.5 551.6 562.3 569.7 576 576.4 577.8 580 585.8 583.9 578.1 572.3 571.1 567.7 560.6 554.4 549.8 548.6 543.2 538.7 540.2 542.4 545.2 548.9 544.8 544.8 552.9 549.5 541.2 533 535.5 537.3 534.5 537.3 540.5 544.1 547.6 547.7 548.7 548.5 551.6 551.6 551.3 546.4 543.5 540.9 538.8 536.1 534 533.2 533 533.3
564.5 558.7 557.3 543.7 542.8 549.2 551.5 550.8 552.1 552.8 549.3 544 535.7 525.8 508.1 500 490.8 476.2 459.7 438.4 420.8 414.6 404.3 396.3 387.2 380.3 373 367.3 360.8 350.2 341.1 346.7 351.9 360.3 361.7 362.5 367.4 378.7 390.6 398.1 400.4 396.7 395.1 393.2 386.1 378.1 372.7 363.9 356.6 351.1 343.5 336.1 324.4 314.8 308.1 330.7 344.5 352.2 362.7 372.1 378.6 384.5 388.7 394.3 397.8 402.2 407.5 414.8 421.3 428 436.5 446.4 456.8 469.2 480.8 491.2 504.3 511.6 511.8 509.2 504.8 499.9 499.5 494.9 490.3 485.5 480.3 476.5 473.7 470.3 468.7 466.5 465 464 461.6 456.1 447.1 444.9 439.6 434.5 436.7 430.2 418.6 405.4 392.2 382.6 370.6 363.3 358.7 356.1 354.5 350.8 349.2 346.9 345.6 344.2 342.2 344.1 344.7 346.9 349.1 352.2 355.7 363 372.6 380.5 389.2 397.1 399.9 406.2 412.4 417.7 425.3 427.7 429.7 429.2 432.3 435 437.9 448.1 465.7 476.5 488.4 499.6 509.6 515.9 518.4 524.5 532.5 542.4 557 566.3 573.2 582.6 582.6 585.2 589.5 591.3 586.2 578.5 578 575.7 567.2 559.6 557.9 556.6 554.2 548.8 548.5 549.9 552 555.2 551.4 552.9 559 554.2 546.7 539.3 539.8 542 541.7 545.4 549.9 553.2 557.9 561 562.7 561.3 562.1 562.9 564.1 559.5 554.1 548.5 544.4 540.4 538.5 537.8 538.1 540.1
557.9 549.9 544.2 540 544.9 551.5 552.5 553.2 554.5 554.5 551.7 548.8 545.1 536.1 519 496.2 486.6 474.8 459.5 440.1 423.2 410.3 402.4 396.3 390.7 380.5 372.3 368 361.8 351.1 338.9 333 338.8 346 349.2 351.1 355.8 363 374.2 382.5 387.6 384.9 384.9 384 377.3 369.7 365 360.6 355 348.3 337.8 326 304.1 312.8 322.4 340.7 355.3 361.5 368.5 374.2 379.6 384.9 389.4 397.5 400.8 406.9 412.9 418.8 426.3 434.7 443.9 454.9 465 477.1 489.2 497.8 507.6 518.1 519.6 517.6 513.5 511.2 508.7 504.7 501.1 496.7 490.6 486.2 482.9 477.6 473.8 471.3 468.7 466.7 464 456.4 454.7 450.1 445.8 437.6 431.9 430 426 411.2 399 391.9 381.1 370.1 363.6 360.6 358.3 355.3 352.6 349.5 346.9 344.9 341.5 341.3 342.5 344.5 346.2 348.2 348.2 353.9 361 367.2 375.4 384.7 389.9 393.1 401.3 408.8 412.3 417.4 421.2 422.2 423.7 427.7 432.4 438.7 450.4 463 475.9 489 497.4 505.8 509.9 512.9 521.3 533.6 549.4 562.6 572.6 578.9 588.2 589.6 593.2 594.6 589.6 583.1 578.8 574.4 566.3 558.2 556.3 556.9 556.9 553.4 551.8 552 553.8 555.5 555.6 558.5 563 556.8 549.5 548.5 545.4 545.4 546 549.1 555.5 561.3 569.6 569.5 569.7 570.1 570.4 571.6 573.2 572.1 565 559.3 553.9 548.9 544.8 544.2 542.7 542.8
553.6 545.9 537.8 537.4 544.6 552.3 554.7 555.8 556.1 556.2 555.6 555.9 553.8 546.2 527.5 506.9 488.8 479 465.7 446.1 430 414.6 407.3 402.5 397.7 390.5 374.1 365.2 361.3 355.5 343.5 331.6 324.4 330.9 335.7 337.8 344.8 349.7 360.9 368.3 372.2 375.3 375.4 375.5 370 363.7 359.2 356.1 350.4 341.2 331.8 317.5 301.1 320.4 338.7 350.4 356.8 364.1 371.2 377.7 382.2 387.5 393.5 399.1 404.2 410.2 416.4 424.8 432.4 440.4 449.9 460.5 471.8 482.7 495.2 505.2 512.4 520.9 524.3 523.7 520.5 519.5 518.5 519.3 513 506.9 501.8 497 491.5 486.3 483.3 481 475.7 472.5 466.5 464.8 461.7 456 449.6 443.6 437.4 430.2 426.5 421.4 412.6 401.9 391 379.2 370 366.2 361.7 357.6 354.1 351.6 349.8 346.8 343.4 340.4 340.8 341.5 343.1 344.5 344 347.6 356 359 363.3 369.7 375.9 384.1 390.3 395.6 401.8 407 414.8 413.6 417.8 419.6 424.2 431.5 441.4 451.5 463.7 475.1 483.6 492.9 497 502.1 515.9 523.1 537.3 556.2 566.8 572.9 580.1 588.3 593.5 595.6 597.2 587.9 580.1 574.3 561 553 548.8 549.5 551.3 551.9 552.7 554.1 555.5 554.8 556.6 558.5 562.5 558.8 553.1 556.2 555.4 554.5 553.2 553.2 556.6 562.8 568.5 572.5 573 573.2 573.1 576 577.7 578.4 575.6 568.2 563.8 558.7 552.6 548.6 547.4 545.9
538.9 532.7 532.5 537.9 545.6 553.1 556.5 559.7 559.8 560.7 561.8 562.2 563.8 552.2 537.2 516 495.5 478.8 466.8 451.1 435.5 424.7 414.1 409.1 403.4 396 385.2 373.2 359 352.9 345.1 333 320.4 316.9 323.1 327.7 335.1 338.7 347 355.5 359.3 363.4 368 366.8 362.9 358.3 353.9 347.3 341.1 333.4 324 306.8 300.9 320.3 328.8 339.7 359.1 364.9 372.1 378.5 384.5 390.8 395.7 401.6 408.7 415 421 430.2 437.8 446.4 456.2 465.7 476.9 487 502.5 512.1 521.4 534 534.4 530.5 529.4 530.3 528.8 528.1 526.6 519.4 515.4 509.8 499.9 494.2 490.6 489.6 485.2 477.6 473.9 471 465.8 461.3 457.7 450.4 443.5 437.2 431.6 426 420.8 410.2 398.8 389.7 377.9 369 363 359.3 356.7 354.1 351.6 348.4 344.8 341.8 339.3 339.3 340 340.9 341 341.6 346 351.7 355.3 358.5 365.4 375.5 385.4 390.6 396 398.9 406.9 406.4 411 415.1 418 422.1 435.9 442.4 452.4 459.1 466.8 473.6 487.5 497.3 506.8 516.6 529.9 545.5 556.7 565.6 571.9 581.5 585.9 591.1 593.6 587.5 578.7 572.7 562.2 548.9 542.8 539.9 541.4 545.5 550.4 553.2 555.9 557.6 556.7 558.4 559.6 560.6 558.8 559.3 561.1 565.1 565.4 564.5 561.2 563 568 573 579.5 581.8 578 581.5 581.7 582 583.3 579.3 574 567.5 562.5 557.6 554.7 551.6
528.1 522.6 526.9 540.3 547.5 552.8 556.2 560.9 563.9 567 566.8 565.1 567.1 563.5 540.8 520.3 499.4 483.2 472.1 457.7 440.4 428.4 419.5 412.8 406.3 398.6 389.4 378.1 364.7 353.2 343.3 335.6 325.6 311.9 311.3 319.2 325.5 331.2 336.4 344.8 350.4 352 358.3 358.3 355.2 352.2 345.1 337.6 332 323.6 310.8 294.4 301.2 319.3 325.7 341.2 359.6 365.7 373 380 385.5 390.7 395.6 401.5 409.6 418 426.6 434.9 442.9 451.7 461.4 472.4 483 496.1 512.7 523.6 533.1 544.3 547.9 541.4 539.6 549.7 553.9 544.4 532.8 530.1 531.2 532 521.1 502.2 496.3 491.6 490.9 488 479.7 476.9 471.1 468 464.8 459.8 452.8 443.4 437.2 430.9 425.3 418.4 410 400.1 385.9 379.7 371.4 364.1 359.7 355.6 351.9 348.9 346.1 343.3 341.3 339.5 338.3 337.7 338.7 337.9 340.3 343 347.9 351.1 357.6 368 375 383.2 387.5 390.3 395.4 396.9 402 408.2 411.4 413.9 422.7 435.5 444.2 447.8 453.4 462.5 476.5 489 499.7 510.8 523.4 534.7 545.9 554.1 562.8 578.7 581.5 584.8 588.3 586.3 578.8 568.9 558 549.2 542.8 538.2 538.9 541.7 547.7 551 555.1 557.3 558.6 560 561.5 563.3 563.9 563.5 565 568.2 570.4 570.7 569.5 565.5 567.6 572.4 576.3 581.7 584.5 584.3 585.7 590.2 592.4 588.8 586.1 578.8 572.2 569.8 564.4 557.9
518.4 516.9 525.3 537.2 546.1 550.2 555.5 558.6 565.2 568 569.9 565.4 562.8 561 541.9 525.1 505.9 490.9 478.1 463.3 448.3 434.1 424.7 417.9 411.2 403.5 394.1 382.7 367.8 350.8 342 335.7 328.4 320.7 300.7 309.9 315.5 322 325.9 334.9 343.7 346.2 346.1 349 346.3 343.5 338.2 331.5 323.7 314.2 296.1 297.5 311.1 321.2 337.9 352.3 359.3 367.1 373.4 379.5 385.3 390.5 395.8 403.9 413.8 421.8 431.2 440.2 450.5 459.1 468.6 480.4 492.8 507.8 521.6 531.8 540.2 551.3 556.7 553.8 551.4 563.1 572.7 568.1 548.8 540.8 539.3 542.1 537.1 516.3 503.9 495.6 498.3 496.3 491.2 484.1 479.4 473.9 469.7 466.9 460.9 453.9 446.2 438.9 433.2 424.5 415.8 405.1 401 392.8 381.4 371.6 364.5 360.1 353.6 349.3 347.4 345.4 342.4 339.4 337.9 336.9 336.7 335.5 336.9 341.5 343.6 345.7 350 357.5 365.4 371.6 376.4 383.1 383.7 388.5 392.9 401.6 405.5 410.2 417.6 422.9 433.5 439.9 445.6 457.9 468.5 480.5 493 504.9 518.1 530.6 539.5 548 557.7 568.8 572.4 577.5 587.3 589.8 580 565.6 554.7 547.5 541.5 536.6 536.5 540.3 546.3 552 557.6 556.1 556.7 559.3 562.4 565.7 566.8 567.2 568.4 571.5 572.9 573.3 573.6 574 569.9 572 576.2 580.9 585.3 586.7 587.7 593.6 598.2 596.9 591.8 588.2 580.5 577.9 572.7 564.6
513.7 516.3 524.6 534 542.9 549.3 553.3 556.5 562.8 566.6 568.6 568.1 562.2 554.6 546.3 530.2 513.2 500 481.4 468.8 457.8 444.5 432.1 424.1 416.3 407.4 397 385.4 370.8 357.4 346.3 335.7 327.5 319.2 301.4 300.9 305.1 310.7 317.2 323.8 332.3 338.2 339.2 340.3 338.4 335.2 332 325.7 314.4 299.8 284.8 309.6 319.8 327.8 345.5 354.6 361.4 367 372.9 378.5 384.6 391.1 397.1 405.5 416.1 425.4 437.1 446.1 455.1 467.2 478.6 490.9 504.1 515 527.5 535.4 544.3 557.7 564.9 564.8 563 574.3 583.9 581.9 570.6 557.1 544.9 543.5 537.2 528.2 513.2 501 502.4 503.5 500 490.8 488.6 482.5 477.8 474.2 469.1 463.6 458.5 449.9 439.5 431.7 420.1 417.2 411.9 404.1 392.9 382.9 371.8 365.3 359 352.7 348.8 345.8 342.4 340.1 338.2 336.7 335.9 335.1 334.5 335.9 340 343.7 346 349.3 357.1 363.2 368.6 374.2 374.1 378 384.8 391.6 399.1 402.9 409.2 416 421.3 429.3 442.2 453.5 463.5 476.6 489.7 495.5 506.7 527.3 538.5 546.5 550.9 553.2 554 560 574 583.8 582.1 564.9 551.6 546.5 543.6 536.4 531.6 531.4 536.2 546.3 551.2 551.8 553.2 558 561.8 566.4 569.4 570.6 572.9 575.6 576.3 576.1 576.9 578 579 578 577.5 583.5 588.2 592 591.4 593.4 596 598.4 594.4 588.7 585.5 582.6 578.5 570.4
512.2 516.7 523.1 530.9 540.1 546.1 551.1 555.2 559.4 563 564.4 566.1 561.6 557.2 546.3 534.7 516.1 499.3 483.6 471.4 465.1 455.6 443.5 433.8 424.2 412.9 400.5 389 374.7 361.4 349.1 338 328 319.4 307.8 294.6 294.9 301.5 306.6 311.9 318.3 326.2 331.9 331.3 330.9 327.7 325.2 315.4 305.7 290.3 292.7 312.1 329.9 339.8 348.7 355.1 361.7 367.2 373.8 379.6 386.4 392.2 399.1 408.4 418 429.8 439.9 449.2 461.7 474.7 485.8 500.4 512.5 522 531.9 540.7 550.2 560.7 569.3 572.1 574.2 583.6 594.9 597.1 591.2 574.3 557.8 550.2 540.5 528.2 517 503.3 502.1 505.1 505.3 502 495.3 489.3 487.8 483.9 480.2 470.8 464.4 459 448.5 438.9 433.9 427.4 419.3 412.2 405.5 396.7 382.2 374.5 368.9 358.9 352.8 347.5 343.4 340.2 338.2 337.1 336.3 336.2 333.9 334.1 336.4 339.9 343.3 347.1 348.7 353.9 358.5 360 371 371 376.5 382.4 390.6 397.7 403.8 408.2 415.2 428.3 439.5 453.1 462.7 473.6 485.7 489.8 497.1 514.1 531.6 544.4 545.6 544.3 540.5 546 554.7 565.6 573.7 562.6 552.9 551.6 545.5 534.3 525.7 522.2 526.2 536.7 543.8 547.6 552.6 558 560 564.8 569.5 572.6 576.5 581 583.1 582.8 582.5 583.7 587 583.3 579.4 583.3 588.2 592.5 598.4 599.9 598.6 598 598.8 597 591.8 583.9 579.6 573
512.8 517.7 523.2 530.4 535.9 542.5 548.7 554.1 555.5 559.9 560.1 559.4 561.9 558.4 545 529 514.6 497.1 483.2 472.8 470.3 465.7 454.5 443.2 431.1 417.8 405.6 392 377.8 364.6 352 338.6 327.4 319.1 311.7 302.4 286.6 293.1 297.3 302.7 308.1 315.5 321.6 325.6 322.1 320.5 315.6 304 292.8 284.7 293.1 315.8 330.5 341.3 348.2 355.2 361.6 367.5 374.3 380.6 388.8 394.6 401.9 411.2 420.8 431.4 442.3 453.7 467.2 481 494.8 508.1 520.4 528.6 536.9 547 557.4 563.3 570.6 577.9 585.9 593.1 607 614.1 608 595.5 571.3 559.1 548 533.3 516.9 504.8 502.8 507 510.5 510.3 504.9 499.6 495.4 490.5 486.8 479.5 472.6 463.9 454.8 447.9 445 439 428.1 419.2 412 405.5 396.1 387.4 377.9 368 358.2 351.2 344.3 340.3 338.5 337.6 338.1 340 335 333.2 334.1 336.2 340.2 344.1 344.6 347.7 349.7 357.4 359.3 364.6 369.4 375.1 384.3 393 396 405 417.2 426.9 436 448.7 461.2 473.2 485.7 487.5 490.8 501.2 514.8 527.6 536.8 537.1 534.2 535.4 543.4 554.5 559.6 557.4 551.7 558.3 554 530.3 519.3 515.3 523.2 533.3 540 545.6 554 556 558.1 562.9 567.9 573.3 578.5 582.6 586.1 587.2 587.4 588.5 587.4 584.4 578.8 578.2 588.2 594.1 600 604.8 606.1 604.5 601.1 600 595.5 588.4 579.9 576
514.2 516.8 519.9 526.2 531.6 535.8 542.6 551.8 551.5 552.2 555.7 553.9 558.6 547.4 542.9 529 521.7 508.4 496.2 485.2 474.7 470.4 463.5 451.4 437.8 423.3 409.7 394.6 380.3 366.9 353.2 339.5 327.1 317.4 309.3 302.5 289.8 283.4 291.6 296.9 301 305.4 312.8 317.3 315.6 310.9 305 294.9 283.7 275.9 298.4 313.7 330.5 340.2 347.8 356.4 362.3 367.7 374.2 381 389.4 396.8 405.2 413.8 423.9 434.6 446 458.7 473.8 486.2 499.2 513.9 527.6 534.7 541 553.3 563.3 568.8 572.6 582.3 596.4 601.6 617.4 624.3 620.5 607 588.3 568.2 558.2 549.7 534.8 512.8 506.7 509 511.2 512.9 511.6 507.6 503.6 501.5 498.4 493.5 479.3 471.8 463.7 453.3 455.8 450.1 442.4 430.5 418.1 409.9 405.5 396.9 386.2 378.3 365.6 358.7 350.2 342.8 340.6 339.4 340 337.2 334.5 332.8 332.2 333.8 336.2 338.2 341.5 342.9 352.4 352.4 353.6 358.3 362 370.6 377.2 382.3 394.5 399.7 409.6 421.9 432.8 443.7 458.4 474.9 486.7 486.5 482.3 491.5 507.1 520.1 528.2 527.9 528.3 530.8 533.9 542.2 549.7 548 547.4 552.9 551.9 529.5 517.2 510.6 514.6 524.1 534.6 539.4 549.8 555.4 561.1 565.7 570.8 576.3 580.5 583.9 587.9 589.1 589.6 589.4 588.3 588.3 578.9 575.1 580 590.1 597.4 604.9 609 610.8 609.5 608.2 603.2 597 585.7 577.3
513.3 515.1 515.6 519.7 524 526.7 533.5 540 542.9 540.8 541.8 542 542.5 541.1 534 528.7 526.6 522.4 509.1 496.9 485.6 477.1 468.3 458.6 444.3 429.6 414.2 399 384.3 370.3 356.7 341.6 327.8 317.8 308.9 301.7 295.6 277.5 282.8 292 294.8 298.7 303.6 305.5 305.2 300.8 291.9 280.8 270.9 290 306.5 321 332.9 339.5 347.3 355.2 362.5 368.9 375.7 382.5 390.5 399.1 408.3 416.2 426.3 437.4 449.8 463.1 476.7 489.4 501.6 516.7 530.9 539.3 545.5 555.6 567 574.2 576.9 586.3 600.6 609.3 623.4 631.2 629.1 618.6 600.5 576.8 565.1 560.4 555.1 533.4 516 518.6 522.1 518.2 516.2 513.2 512.5 514.6 508.6 496.7 489.4 479.1 471.9 466.7 465.3 461.8 461.1 448.5 431.3 417.8 406.7 401.4 391.9 381.1 373.5 365.8 357.9 347.8 342.3 340.6 339 336.4 334.6 333.6 332.2 330.4 334.4 336.6 340.3 339 344.3 348.1 348.5 350.6 358.1 362.7 368.1 376 385.2 393.4 402.6 415.6 428.3 439.4 455.5 471 483.3 482.1 478.1 479.9 499 516.4 525.9 524.6 520.7 525.1 531.6 535.9 539.7 543 544.2 545.1 541.6 526.8 512.6 508.4 510.2 518.3 526.3 534.9 546.6 556.8 564.2 571 575.9 579.6 583.6 585.7 589.3 593.4 593.1 591.4 589.8 587 581.8 573.8 573.5 583.7 590.9 597.1 605 609.3 608 604.2 596 585.6 574.9 568.4
508.4 510.3 511 515.3 520.2 523 527 531.2 536.3 533.5 532.8 534.5 537.3 535 533.9 531.4 539.4 531.5 520 515.9 504.2 487.1 472.6 461 450.7 436.1 419.9 402.5 387.2 372.8 358.3 344.2 330 318.8 309.2 300.3 294.1 279.4 275.6 286.1 289.4 291.1 292.6 292.9 292 285.5 273.4 271.1 276.9 294.9 311 321.9 329.8 338.7 346.8 355.1 362.6 368.7 375.9 382.2 390.5 399.2 409.1 418.5 428.5 440 452.1 465.2 478.3 491.1 503.3 518.6 530.9 540.8 548.2 560.9 567.4 576.7 583.2 591.2 603.7 614.6 629 634.2 635 630.7 615.9 586.8 569.6 570.9 564.7 548.8 525.1 529 537.5 533.8 525.4 518.1 518.4 519.4 514 505.5 494.7 482.9 475.1 475 475.3 476.7 475.9 465.2 451.4 431.3 412.7 402.6 395.2 386 376.2 368.9 361.6 356.1 348.9 340.9 338.4 336.2 334.3 333.5 332.5 331 333 333.6 334.9 335.8 339.7 343.3 344.7 346.8 352.5 356.3 362.6 371.2 381.3 388.6 396.5 410 423 434.6 447.1 459.2 471.1 476.9 476.1 475.1 484.9 503.9 517.7 521.3 515.4 517.7 525.9 532 539.8 537.9 534.3 541.8 534.2 526.1 517.8 508.4 506.9 514.1 521.1 534.7 544.5 554.7 560.9 571 584 587.9 589.9 590.6 598 601.6 601.8 602.3 603.8 601.6 585.4 575.1 569.5 577.2 581.5 590.1 596.1 603 605.5 603.1 587 575.3 570.4 569.1
504.2 505.9 506.5 511.1 517.3 518 520.4 523.1 527.7 529.7 531.1 528.3 531.1 531.8 527.9 532.7 541.5 533.6 528.6 526.4 517.6 496.7 479 465.1 453.3 439.4 424.8 407.7 390.3 375.7 358.7 345.5 332.3 319.8 308.9 299.5 291.5 283.7 266.3 277.8 285.4 284.5 284.9 283.8 279.3 272.6 271.3 286.7 290.1 297.2 313.4 322.2 330.1 337.5 344.6 353.4 360.1 367.3 374.7 382.1 389.2 398.7 409.4 419.4 429.5 441.3 453.9 466.3 480.4 492.9 503.3 519.1 531.9 543 549.1 560 568.6 576 588 601.6 609.4 617.6 635.1 640.9 641.3 638.8 628.5 596.3 578.4 581.3 575.1 550.6 530.7 535.5 546.6 547.9 542.6 526.5 522.7 522.4 521.7 509.7 498.7 486.4 487.6 486 485.1 485.1 486.6 482.9 463.9 443.1 424.6 413.5 400.8 392.8 384.6 375.6 365.3 358.9 349.5 340.2 336.5 334.2 333.4 333 331.9 330.7 329.6 330.7 332.6 334.2 337.9 339.4 340.7 343.5 347.2 351.6 357.4 368 377.2 385.1 393.6 404.1 416.7 427.4 437.9 451.1 466.1 473.3 475.7 473.7 476.9 488 498.6 507.8 505.1 509.6 519.4 532 543.4 541.8 529.8 530.5 529.8 529.9 521.2 510.6 505.8 509.9 518 530.1 540.1 551.7 560.2 577.2 588.8 602.3 600.8 593.6 598.1 603.4 606.8 608.8 608.9 609 604.5 586.1 571.2 563.6 569.7 584.2 589.8 598.1 601.4 598.4 584.6 574.2 572.5 570.4
501 500.7 501.6 505.8 509.2 509.4 511.1 513.9 519.8 526.5 527 523.4 526.4 524 522 527.1 535.5 533.1 534.5 532 523.3 505.5 487.3 469.7 455 442.5 428.6 412.3 393.7 378.2 361.6 346.4 332.8 319.7 308.4 298.4 289.8 283.8 271.5 261.7 277.3 278.1 277.5 273.8 266.7 254.7 272 287.3 287.4 298.4 311.3 320 328.3 335.5 341.9 349.9 357.6 365 373.1 380.9 388.9 398.4 408.3 419.6 429.9 441.9 454.8 467.4 481.1 493.8 503.5 517.9 531.5 542.4 549.8 556.3 565 574 591.1 609.2 614.2 619.9 635.2 646.4 645.3 642.7 634.3 607.6 588 586.6 579.3 555.7 536.6 539.9 555.7 556.8 554 538.9 526.3 526.7 521.1 512.5 496 498.7 503.4 500.4 499.9 498.1 496.4 493 472.8 453.2 435.8 429.8 412 397.4 389.4 382.6 372.9 362.4 350.3 340.3 335.7 333.8 332.7 332 331.7 331.9 329.2 329.3 331.1 332.6 335 336.4 337.8 340.1 343.6 352.1 360 366 373.7 382.6 391.2 398.7 408.3 419 430.2 446.3 463.7 475.4 476 472.8 474 476.3 483.8 489.5 493.3 502.4 512.3 525.6 536.6 541.7 527.1 523.5 520.3 518.7 512.3 508.5 503.5 503.4 510.5 524.1 536.9 551.5 559.9 576.3 594.4 601.2 594.6 591.5 602.4 609.5 615.9 613.1 616 612.7 603.8 599.2 579.4 554.8 554.9 569.5 571.8 579.2 582.7 581.4 579.1 576.1 572.5 571.1
496.6 496.3 496.8 500.3 502.1 498.8 499.3 504.8 511.4 516.5 519.8 514.6 515.1 514.4 515.7 521.7 527.7 531.5 535.5 533.9 522.9 509.6 495.6 476.4 458.2 444 430.2 415.2 398.3 381.4 363.2 348.2 334.1 321.9 309.8 297.9 288.9 282.5 273.6 258.1 271.2 273.1 271.2 263.8 255.2 243.8 270.5 283 291.5 300.2 308.9 317.5 325.5 333.5 340.1 347.7 355.9 362.7 370.6 379.3 388.2 396.3 405.7 415.8 422.8 441.2 454.7 468.1 481.8 492.7 504.9 518.4 530.6 541 548.5 554.2 562.2 572.6 590.3 609 619.4 620.1 635.2 641.2 643.9 642.7 637.1 614.8 595 590.4 582.4 562.3 550.4 542.1 558.1 562.7 558.8 547.8 535.3 530.3 521.9 514.2 506.5 510.6 516.4 515 516.9 510.8 504.4 500.9 485.2 464.1 447.9 438.4 427.9 405.2 393.8 385.5 376.3 368.2 355.5 346.6 338.4 333.7 331.9 331.1 330.8 329.6 328.3 328.9 330 331.3 332.3 334.1 335.7 337.6 340.1 352.1 360.6 364 371.4 380.7 386.3 394.5 403.8 411.5 421.9 438.6 456.8 471.1 475 472.6 468.9 467.8 474.2 480 488.4 494.4 503.8 511.6 522.6 530.8 525.6 514.8 509.3 502.2 500.8 502.8 505.6 496.5 503.3 514.2 528.7 539.3 550.8 576.5 586.4 587.9 583.3 583 592.7 596.5 604.9 603.6 596.4 580.7 578.7 576.9 570.7 553.2 542 545.4 554.2 559.5 567.2 569.1 572.6 573.2 573.2 571.8
492.2 492.7 493.3 490.2 486.7 490.1 490.9 498.3 501.2 505 512.4 508 502.9 505.5 509.3 515.4 521.8 528.2 532.9 529.2 524.3 512.5 499.3 482.7 462.7 446.4 432 417.5 401 384 364.7 350.6 337.5 323.8 309.9 297.1 288.3 280.1 272.3 253.5 266.9 269.6 266.4 251.4 245.5 245 268.8 282.8 288.9 296 306 314.4 322.5 330.9 337.6 343.1 351 359.6 366.6 373.4 386.7 398 407.4 417.3 428.6 441.8 453.5 463.1 478.1 491.4 501.7 518.7 529.6 540.6 547.2 552.8 560.2 569.6 583.4 599.7 611.9 616.6 623.4 632.3 633.9 635.7 631.1 619.9 603.6 592.6 588.4 573.3 565.8 551.8 557.1 564.1 563 555.9 543.3 531.9 523.5 514.9 518.1 520.9 525.4 526.2 531.7 530.4 522.9 505 486.5 470.1 455.6 447.2 434.3 411.7 397.5 386.9 378.1 368.6 358.9 353.5 345.6 335.9 331 330.3 329.8 328.9 327.7 328.3 329.2 330.7 331 331.8 333.9 336.4 339.9 349.8 359.5 361.8 365.3 371.7 380.9 388.9 397.5 404.4 413.1 429.6 444.3 460.1 469.5 469.2 468.1 464.4 466.3 475.6 482 487.7 493.3 499.9 506.2 514.3 514.2 501.9 494.6 492.2 495 496.3 499.3 495.4 496.4 509.1 520.7 527.2 540.2 562.3 568.1 570.3 571.3 577.3 572.4 569.5 580 573.6 565.8 560.8 559.8 557 546.9 537.3 529.1 529.8 536.3 547.2 554.7 558.8 561.1 563.3 565.5 574.3
489.8 490.6 487.1 479.6 476.9 480.1 484 488.5 491.3 496.6 498.9 497.1 495.1 497.6 503.1 509.4 515 520.1 522.6 520.5 517.5 513.3 501.2 486.1 467.8 450.2 434.3 420 401.8 386.1 367 352.3 337.9 324.7 310.5 298.6 288.3 280.7 271.2 250.9 262.9 264 259.2 244.7 241.4 259.3 267.5 278.8 286.2 293.2 304 313.5 317.6 324.4 336.5 343.7 351.1 358.8 367.9 377.2 389.1 401 410.5 421.4 433.6 447.3 460.9 472.5 484.1 494.4 505.9 513.4 526.7 536.9 545.4 551.9 558.8 570.3 584.2 594.8 606.9 610.9 614.5 619.5 619.8 618.5 617.9 618.1 609 594.5 592.3 584.9 581 563.4 560 567.3 568 561.7 548.1 538.3 530.3 521 526.7 530.4 536 535.8 539.7 538.7 532.2 520.2 501.3 482.3 463.9 450.7 437.7 418.4 402.9 391 380.9 371.2 361.9 355.4 348.1 338.7 331.7 330.2 329.2 328.1 327.4 326.7 328.5 329.8 329.8 330.6 332 336.4 338.4 347.5 354.9 359.4 363.6 370.9 377.2 383.7 390 398.9 403.9 413.9 428.6 441.1 453.3 461.4 460.9 458.8 460 467.4 475.6 483.3 487.9 493.9 498.1 499.5 503.1 497.1 483.5 483 486.1 490.2 491 486.3 484.7 498.2 508.5 517.1 528.8 542.5 551.2 555.4 560.9 560.1 550.8 547.3 544.8 543.9 544.3 542.7 534.5 530.2 528.7 526 519.4 518.5 524.2 535.2 542.7 546 550.1 559 561.2 565
488.7 484.6 479.1 473.8 469.3 470.5 476.2 481.4 485.3 488.8 484.6 483.2 487.7 491 496.9 502.6 507.8 512.3 516.2 515.8 514.9 509.1 501.1 488.9 472.8 452.6 436.8 421 402 387.5 368.1 353 338.9 325 312.6 300.7 288.7 278.9 269.4 248.6 255.1 258.8 246.7 233.3 247.7 255.8 259 269.5 283.5 293.1 302.6 310.6 319.1 327.7 334.9 342.2 349.6 357.4 366.8 378.8 391.7 403.9 414.3 425.9 438.4 452.8 464.5 476.4 487.8 497.5 512.6 526.3 537.1 541.9 546.3 552.7 561.4 573.4 583.3 591.5 602.9 607.8 608.1 616.6 616.5 614.6 610.8 606.7 604.4 595.7 589 587.1 584.2 574.9 561.5 571.2 570.4 564.3 552.7 541.3 532.5 533.2 536.3 542.9 545.9 544 544.4 542.8 540.3 538.4 536.3 502.4 475.1 456 442.2 427.1 408.2 396 385.1 374.9 364.1 355.6 348.9 340.4 334.4 330.7 329.5 328.8 328.6 327.2 326.2 329.2 328.1 329.2 331.2 334.1 337.8 345.5 353.3 357.7 362 369 375 379.6 385.1 393.7 401.1 407.8 418.3 427.5 436.8 444.7 451.7 451.9 455.8 458.9 466.9 475.1 480.5 484.4 489.3 495.7 494.7 489.6 478 472.7 476.8 480.3 482.9 478.1 478.8 487 496.2 508.1 518.7 528.7 535.9 538.7 541.6 538.7 538.7 536.6 533 530.1 527.9 524.3 520.8 517.8 516.5 516 516.1 516.5 517.3 518.2 526.8 533.5 540.2 551 558.3 561.9
491.8 483.1 478.7 467.6 461.9 463.7 469.3 474.6 479 481.4 474.7 473.6 478.7 485.4 489.9 495.1 500.2 504 508.3 509 507.6 503.8 499.2 489.2 472.9 455.6 439.1 421.9 401.7 385.7 369.1 353.6 339.8 326.5 313 302.5 289.1 277.4 267.1 250.8 248.8 255.6 237.3 236.3 243.5 255.5 263.4 271.3 279.9 290.8 300.7 309.4 318.4 325.5 332.6 340.1 347.7 355.9 366.7 379.2 391.2 403.5 416.5 429.9 444.4 459.9 469 478.5 491.3 503.6 517.9 533.5 543.3 547.4 548.6 556 564.2 574.8 580.6 586.6 598.6 604 602.4 613.7 619.5 621.1 618.7 606.9 595.6 591.9 584 579.3 576.5 572.3 565.3 567.9 567.7 561.8 556.6 544 534.2 542.9 544.9 548.6 549.1 549.6 555.5 555 555.3 557.7 548.4 523.7 491.5 463.2 450.8 441 418.7 401.3 389.7 378.6 366.5 356.3 350.3 345.6 339.1 333.8 330.1 329 328.4 328.5 324.5 328.2 326.9 328.6 331.7 334.2 339.3 345.9 353.9 357.3 361.2 367 372.4 378.6 384.3 390.1 397.8 403.3 410.5 417.2 427.1 433.3 441.4 445 449.3 452.9 458.3 467.1 474.4 477.9 479 481.7 485.5 483.3 472.5 465.4 466.2 468 468.1 467.1 465.9 475.7 483.8 497.9 505.8 514.7 522 527.4 531.5 533.6 534 535.8 534.2 531.8 530.2 525.4 520.8 518.1 516.5 515.2 514.2 514.6 515.6 516.7 518.4 522.4 527.1 534.6 546.2 549.5
486.4 481.5 475.3 469.1 461.9 455.8 461.1 467.6 472.7 472.2 465.9 467.4 471.1 478.3 483.1 487.2 491 495 499.6 499.1 498.7 496.1 490.6 481.7 471.9 460.1 440.9 419.9 401 385.3 369.9 353.8 340.3 326.8 314.5 301.8 288.1 277.1 266.6 255.7 237.6 247.9 232.4 228.3 248.2 251.1 262.4 270.7 279.9 289.7 298.5 307.5 315.9 323.2 330.3 337.8 345.5 354.8 366.1 379 390.9 403.2 417.2 432 447 462.7 472.9 480.6 494.5 509.8 524 536.8 543.6 548 554.8 558 563.6 573.5 578.9 584.5 589.3 595.7 597.6 605 613.9 620.6 624.2 615 596.3 591.7 587.7 584.2 583.5 575.8 569 566.6 564.6 559.9 551.4 543.8 545.1 548 547.5 550.6 557.3 560.6 564 564.9 565.6 568.2 559.4 539.5 502.5 475.3 459.1 452.5 433.7 408.2 394.3 383.6 373.4 360.5 349.1 344.7 341.2 336 330.9 329.4 328.7 328.3 324.5 325.4 325.8 328.3 331.3 335.6 341 344.3 353.6 357.6 360.7 365.6 370.9 375.9 380.9 387.7 392.6 398.3 404 407.9 418.8 430.6 441.1 446.7 445.5 446 449.9 450.9 455.6 467 473.2 475.7 479 479.4 467.8 461.2 459.9 458.4 457.8 457.7 459.3 463.7 473.8 485.9 492.7 503.6 513.2 521.5 527.9 529.5 532 533.8 534.2 532.7 531.8 528.9 524.9 520.5 517.6 515.4 513.1 514.5 515.4 517.5 520.9 529.4 530.4 529.8 532.4 537.7
488.6 477 471.4 466.8 461.3 454.8 451.1 459.7 464 457.2 457.8 460.9 464.1 469.7 475.5 478.6 482.4 484.9 488.1 490 489.9 486.9 482 475.2 466.1 458.4 443 416.3 398.5 384.2 370.1 354.1 340.5 327.2 316.2 301.6 287.9 276.1 266 255.8 241.6 238.1 232.6 224.9 239.4 251.9 261.1 268.9 278.1 287.6 296.3 305.3 313.3 320.8 327.8 335.4 343 354.8 366.3 378.6 393 403.9 417.6 432.6 445.9 459.7 471 480.6 495.4 510.4 526.2 539.6 545.7 549.5 556.2 563.8 565.9 571.1 576.1 581.1 586.8 591 593 601.7 608.6 615.3 619.3 618.8 605.4 596.7 594.8 592.2 595.7 593.7 583.3 573.4 573.4 566 557.1 555.2 554.6 554.2 555 561.5 566.3 570 573.2 576 577.9 577.7 571 560.1 519.6 486.5 468.7 459.3 445 418 397.9 389.1 381.1 365.1 352 344.7 339.3 335.9 332.3 329.9 329.1 329.1 323.3 327.2 324.5 328.2 331.6 336.4 341.9 347.8 354.1 356.1 361.9 364.6 368.7 371.8 376 382.5 385.8 391.1 401.7 411 416.5 424.7 434.9 447 455.1 448.5 446.6 448.2 450.2 452.6 458.6 462.5 466.4 470.3 465.2 461.6 455.5 453.1 453.2 453.3 457.2 460.1 466.2 475.6 481.7 491.3 501.9 509.5 516.6 522.7 533.4 532.9 532.7 535.4 537.3 538.4 535.5 532.1 525.6 520.2 515.8 513.9 515.5 520.2 527.1 533 537.1 535.8 532.9 531.2
494.7 480.8 468.2 464.8 461.6 454.4 449.6 448.4 452.2 448.7 450.8 451.9 457.3 460.2 465 469.3 471.9 475.4 476.3 476.5 478.2 478 475.7 467.8 458.5 449.5 438.6 416 396.9 383.7 368.4 354 340.7 327.3 316 301.7 288.2 276.4 266.9 256.4 244.4 229.9 222.3 216.8 235 251.9 259.5 268.1 277.1 286.2 294.9 303.3 310.9 318 325 333.4 342 354.2 366 378.5 392.7 404.9 417.1 430.9 445 458.4 469.6 479.8 495.8 510.3 528.8 543.8 549.4 552.3 558.7 566.6 569.2 572.5 577.7 583 588.9 591.4 594.7 601.9 607.1 616 621.8 624.2 616.5 601.7 596.2 598.7 600.9 600.5 597.6 584.7 580.2 578.5 577.3 573.5 571 567.8 571.4 576.7 577.7 581.6 585.2 588 588.3 591.4 590.1 569.9 546.1 498.3 476.4 466.6 451.9 434.5 402.8 392.4 386 368.9 359.8 349.6 341.4 337 333.1 330.2 330.8 331.5 325.8 325.5 325 329.5 332.9 336.2 341.6 353.1 350.3 356.1 358.3 362.5 368.6 375.1 379.3 384.9 391 393.2 399.4 408.3 414.9 418.8 425.9 437.8 447.4 454.3 451.5 450.7 451.5 451.5 454.6 458.8 460.4 456.6 455.4 452.5 451 447 444.9 454.9 457.2 459.1 462 466.3 472.8 481.8 495 503.1 512.1 524.4 533.6 533 534.6 537.7 543.4 545.7 542.7 540.2 534.7 528.5 520.6 514.4 514.2 521.9 532.2 535 541.4 542 541.6 534.7
509 493.3 472.2 460.1 454.9 452.2 447.3 431.9 442.1 439.4 444.7 444.2 450.5 451.7 454.9 460.1 462.3 465 464.6 467.5 467.8 467.6 467.2 460.3 450.8 440.7 426.9 412 395.9 382 368.2 353.6 340.1 326.6 315.2 302.9 286.9 275.9 267.2 256.7 244.9 232.2 225.8 217.4 227.3 245.9 258.1 267.5 276.5 284.7 293.3 301 307.9 315.2 322.5 330.8 339.9 352.2 366 377.9 392.8 405.8 417.3 429.1 441.9 455.6 468.9 481.8 495.3 511.3 532.2 549.1 555.4 556.4 561.1 566.7 571.4 574.4 578 583.5 592.6 595.2 597.8 606.6 614 617.6 623.9 630.3 620.9 607.5 600.1 601.4 606.6 607.3 603.1 597.4 589.1 588.1 589.9 588 586 580.6 579.5 587.3 590 594.6 600.2 601.5 603.5 597.5 598.2 583.8 557.2 513.1 484.1 474.3 458.9 431.4 409.7 393.2 385.1 376.4 367.9 357.1 345.3 337.1 333.2 332.1 334.2 331.5 328.2 324.5 325.7 330 333 337.9 341.5 348.5 347.5 352.2 357.1 361.9 371.2 373.6 378.5 389.8 393 399.5 402.3 405.8 413.4 418.3 422.3 427 434.2 442.2 454.2 454.7 452.6 453.5 454 456.4 460 456.9 453 445.9 439.8 437.2 440.4 446 450.5 453.8 456.7 461.4 468.6 477.1 492.1 500.2 514.1 526.5 529.2 533.4 537.6 537.9 543 547.1 550.4 547.1 540.1 532.5 524.3 515.9 516.4 523 530.3 537.1 544.4 549.9 550 541.7
518.1 500.5 478.6 463.8 453.7 444.7 444.3 439 429.7 431.1 433.6 439.5 442.6 443.3 444.8 447.1 450.7 451.3 453.5 458.7 460.1 457.2 455 450.2 443.5 433.7 420.3 408.1 394.9 380.9 366.1 352.9 338.8 326.2 315 300.4 285.3 275.2 267.1 256.8 244.4 233.6 224.3 216 220.7 240.4 257.8 266.4 274.9 282.8 291.2 298 304.8 312.1 319.9 328.5 339.5 353.1 366.7 378.4 392.3 406.6 419.9 430.6 440.9 453.9 467.9 482.6 496.8 511.5 533 548.7 555 562.1 566.9 573 573.7 576.3 579.5 582.3 591.3 596.8 600.1 607.6 617.5 624.3 627.5 629.9 624.7 613.1 611.7 606.7 608.9 610 609.4 606.7 601.2 596.7 597.2 597.9 594.9 590.8 589.6 594 602.4 613.6 613.5 613.8 615.4 608.7 603.3 593.1 570 526.1 496.6 477.1 464.6 438.6 411.8 393.8 386 382.9 375.7 365.3 349.6 337.9 333.5 332.4 331 329.3 325.5 320.1 327.3 329.2 334.2 341.4 339.8 346.6 343.8 351.1 356.6 362.1 365.1 371.1 378.2 389.5 393.6 399.7 404.9 407.3 409.7 416.4 420.3 422.8 424.8 429.8 434.7 437.6 442.2 450.7 459.2 458.4 455.1 454.2 452.9 448.4 442.6 432.4 434.3 441.7 445.2 448.4 451 457.1 466.7 476.4 487.7 499.8 513.9 527.7 533.7 541.6 543 539.6 538.5 542 548.3 546.8 545.1 533.4 523.2 514.7 509.2 520 534.8 533.5 535.1 535.9 535.8 531.5
524.4 502.6 483.2 475.9 460 446.6 436.3 432.5 419.1 424.5 424.6 433.2 431.8 433.5 436.3 438.3 438.7 439.8 442.5 446.5 448.2 443 442.8 442.5 434.9 424.1 413.3 402.3 391.8 378.4 364.4 351.5 336.6 323.9 311.3 297.4 285.2 276.2 267.3 258.1 243.6 231.9 224.1 215.7 214.9 237 255 266.3 273.8 280.8 288.1 295.2 302 309.5 317.8 326.2 339 354 368.6 380.2 392.5 406.6 421.4 434.2 443.4 455.9 468.3 482.1 495.9 511.8 530.1 545.1 553.2 564.3 574.3 579.2 579.2 577.5 579.5 581 586.1 593.4 599.6 604.8 618.4 629 635.2 637.4 634.1 618.3 619.8 618.8 620.3 617 615.1 613.1 611.3 604.3 604.9 604.6 603.2 600.4 599.7 601.5 609.2 620.4 623.3 622.7 623.9 625.3 613.3 604.5 580 541.1 509.2 477.8 475.3 454.5 423.5 396.4 383.8 381.5 379.4 374.8 356 339 332.5 330.6 328.4 325.3 323.3 320.8 327.5 329.5 336.8 336.8 337.6 343.6 343.7 348.4 355.4 358.9 363.8 370.1 377.1 385.1 392.3 401.3 406.3 411.8 413.4 415.7 417.9 421.1 422 424.9 427.7 430.1 432 435.5 439.4 448.6 458.8 455.5 449.7 448.1 442.6 436.4 427.7 439.4 449.4 448.6 447.3 452.9 466.8 478 488.8 499.7 519.3 533.2 537.2 545.2 556.2 550.4 538.7 536 534.7 539.9 541.6 532.5 519.4 511.6 497 509.1 518.6 521 519.8 520.4 518.6 512.9
529 513.5 490.1 479.5 467 452.2 438.9 429.8 412.5 419.6 418.3 420.4 421.4 421.1 425.6 430.4 430.5 426 429.7 432 432.3 429.9 432.9 432.4 425.4 415 405.7 395.5 386.2 375.4 363.2 349.7 335.7 320.8 307 295.6 286.8 279.2 272.4 261.1 242.2 230.7 223.7 216.4 206.5 228.5 249.3 264 272 278.3 285.8 292.7 299.8 307.3 315.8 324.9 339.3 356.4 369.1 381.9 393.2 405.9 420.7 437.4 451.3 461.2 470.6 482.9 495.3 510.1 523.7 538.5 549.1 562.3 573 579.2 580.7 579.2 577.6 579 582.2 588.6 594.3 600.5 615.8 629.8 637.1 644.3 643 634 628.7 628.9 635.6 632.6 624.1 618.5 613.6 609.5 606.5 608 608 608.1 609.1 609.9 613.3 624.5 631 630.6 635 638.3 624.7 608.6 588.5 552.6 510.1 479 471.1 459.6 428.8 400.8 382.7 378.7 377.4 374 361.8 346.8 334 329.6 326.1 323.7 317.5 325.7 328.5 332.7 338 334.6 335.8 335.8 341.3 347.3 354.9 355.1 366 367.1 375.9 382.5 391.4 398.9 406 414.7 418.7 419.2 419 419.6 421.9 424.7 428.8 435.2 440.6 438.3 437.7 438.8 446.3 457.9 452.6 442.6 440.1 432.9 423.9 431 437.9 444.9 445.5 449.3 467.6 480.1 492.2 503.3 522 532.7 537.4 546.4 557.5 560.5 549.8 535 527.1 525.9 527.2 522.6 522.4 507.7 495.5 494.9 499.4 506.9 501.8 501 501.3 498.9
532.2 518 498.2 484 471 458.5 443.6 430.4 421.9 410.1 408.5 412 412.1 413.4 417 419.9 417.5 415.8 417.9 419.3 418.2 418.8 419.7 418 413.9 406.7 398.9 388.3 378.8 370.6 360.6 347.7 332.8 318.1 304.4 295.8 288 281 273.4 259 239.9 229.5 221.8 218.2 204.2 221.5 241 262.2 270.5 277.1 284.1 291.1 298.2 305.7 314.3 324.2 339.6 356.1 370.1 383.1 394.5 405.8 420.9 440.4 457 469.1 472.8 482.4 493.5 508.5 520 533 545.5 558 567.9 574.2 578.1 579.7 576.7 576.2 577.8 585.7 589.4 596.6 612.6 623.7 634.2 642 641.6 637.3 643.9 640.7 641.7 642.7 633.9 630.3 618.7 611.9 608.9 609.4 611.2 612.7 616.4 623 626.3 624.6 630.8 638.8 643.3 644.6 635.1 615.6 594.3 553.4 515.1 481.2 467.1 456.3 431.9 406.4 384.4 376.3 373 371 368.2 357.4 336.5 328 321.5 317.9 319.8 324.9 326.5 332.1 332.5 333.1 333.3 334.5 339 344.2 348.5 354.5 361.5 368.9 372.8 380.6 390.2 397.9 405.1 412.3 416.4 419.1 421 421.7 423.3 429 435.5 438.7 442.9 452.7 449.9 441.5 441.7 446.2 452.6 444.9 437 427.8 422.9 428 431.4 434.9 439.4 454.6 471.9 486.3 498.5 506.4 514.7 524.7 535 542.4 552 559.6 551.9 539.1 526.2 520.1 520.9 524.3 527.7 515.4 499 488.7 492.2 489.3 487.2 487.9 490.6 488.9
532.2 519.1 502.8 489.4 478.4 462.8 449.2 437.2 424.6 411.4 402.1 406.3 409.1 407 408.6 412.9 408.3 407.1 405.9 407.4 406.2 406.9 407.5 404.1 400.2 398.6 392.8 383.6 374.1 366.7 357.5 344.1 329.5 315.4 303.2 294.7 288.1 280.1 272.3 257.6 238.2 226.8 219.2 212.8 205.9 216 240.8 260.7 269.8 276.5 283.2 290.2 297.4 304.8 312.8 324.3 340.3 356.3 369.7 382.7 394.1 406.3 420.8 439.7 455.9 467.9 475 481.4 491.8 506.4 516.8 528.6 543 554.1 560.5 566.3 571.4 575.2 575.1 573.3 574.4 581 585 589.9 604.9 617.1 623.6 632.8 637.5 636.2 642.2 648.7 648.5 651 648.6 637.2 626.3 615.4 610.6 610.7 613.6 617.9 625 635.2 642.5 640.8 630.4 634.3 639.6 639.4 634.7 620.5 593 560 526 480 466.2 454.8 434.7 415.4 390.4 375.5 368.7 367 369.1 359.4 337.9 325.2 320 312.4 321.6 325.2 325.5 329.4 330.6 334.9 329.9 333.1 336.5 340 347.2 353.7 362.8 367.2 372 379.4 385.2 392.2 400.6 407.7 414.2 419.4 422.5 424.1 426.3 435.2 441.7 447.9 451.8 449.4 450.6 448.6 442.5 443.6 445.8 443.7 434.8 426.2 419.3 426.5 429.3 435.8 445.8 461.5 471.7 483.8 493.4 503.7 508.6 518.2 532.3 536.4 543.2 549 542.5 529.4 519.7 517.4 518.5 520.6 519.9 511.6 502.3 489.1 483.5 483.6 483.1 482.4 483.5 484.4
538.6 525.6 509 493.7 482 468.2 454.7 443.2 432.1 416.3 404.9 396 401.4 397.2 398.2 398.5 397.5 396.6 396.9 394.3 394.6 395.6 394.8 388.4 388.6 388.4 386.4 379.2 371.7 363.5 352.4 338 325.4 313 302.9 293.8 285.9 278 270.3 253.7 236 223.9 215.3 207 203 210.6 229.9 254.2 269.2 275.9 282.4 289.5 296.6 304.4 312.8 324.9 340.6 355.9 368.9 381.5 393.1 406.3 421 438.5 452.4 464.2 473 480.2 490.6 503.9 513.1 523.6 539.2 547.8 552.9 558.3 564 569.2 570.5 570 572.7 577.5 581.9 588.3 597.8 606.6 614.1 622 627.9 632.3 638.4 646.9 652.8 655.4 656 646.8 632.4 618.8 613.9 619 617.9 622.7 634.7 647.8 650.6 648.8 641.1 625 631.4 629.8 631.9 620.3 597.2 560.4 523.8 483.4 467.2 463.5 436.3 419 395.8 377.1 368.3 362.8 364.4 353.6 339.2 326.9 318.4 311.1 318.2 322.1 323.7 328.6 330.5 334.9 327.5 338.8 345.6 349.2 355.4 359.7 364.5 367.7 371.6 377.5 383.1 391 399.2 404.8 412.8 418.8 425 429.8 428.4 435.2 444.2 449.7 457.3 457.8 454.8 449.3 447.6 447.9 454.8 452.1 431.9 422.1 415.7 424.1 428.4 435.6 449.4 460.2 467.8 474.5 488.4 496.6 503.6 509.1 518.2 523.9 526.7 525.5 512.9 511.6 511.9 516.3 515.4 511.3 509.1 503.4 496.3 484.6 471.9 476.8 480.4 481.9 480.4 481.8
545.6 530.7 515.8 502.6 489 473.7 458.4 446.5 435.3 421.8 411.9 401.6 387.5 387.4 388.8 387.9 383.7 386.5 388.3 388.1 383.6 381.9 382.5 378.7 379.2 374.8 373.9 373.9 369 360.9 347.6 333 321.6 313.3 303.6 293 283.3 275.5 265.2 247.4 229.7 219.4 212.7 202.9 196.7 213.4 235.3 256.9 268.6 276.4 282.5 289 296.3 304.5 314 326.3 342.3 356.4 368.5 380.6 393.9 406.6 420.5 435.8 448.6 460.6 470.1 476.8 488 499.4 510 522.1 530.6 541 550.2 555.1 558.1 563.5 565.8 566.6 568.7 573.3 579.7 587.3 594 602 606.6 612 617.1 623.9 633.9 643.2 650.7 655.4 657.1 656.4 640.1 622.3 619.5 621.7 622.5 627.6 641.5 653.8 660.3 649.9 643.5 628.4 616.9 623.4 626.1 617.9 591.4 551.7 523.5 484.4 468.6 456.5 441.7 424.7 403.7 381.2 367.2 355.4 352.1 351.2 344.8 329 317 308.5 315.4 316.8 322.3 330.6 324.5 324.3 331.8 343.7 350.9 354.3 358.8 361.1 364.2 367.9 372.1 376.3 382.3 389.4 397 402.8 411.7 417.8 423.1 428.7 428.3 431.6 439.8 449.9 452 457.6 461.4 456 450.7 450.2 449.3 446.5 429.7 419.2 412.6 419.3 423.8 434 446 454.3 466.3 472.9 479.3 488.2 494.4 503.4 510.4 511.2 508.2 503.8 501.3 507.8 510.1 517.2 516.2 508.1 501.1 494.2 488.2 477.9 467.6 473 479 482.3 479.5 477.1
543.6 529.5 519 508.8 494.4 477.4 461.8 448.6 437.1 426.7 419.8 410.6 393.2 379.8 378.1 377.3 376.9 373.9 377.9 378.1 373.5 370.9 370.9 369.7 369.4 370.4 364.5 363.1 361 354.6 342 330 321.2 311 299.7 289.2 280.1 272.6 261.8 238.8 221.3 214.4 206.4 195.6 205.1 216.2 240.5 265.1 270.7 277.3 283.3 289.6 296.9 306.1 316.3 329.5 343.7 355.9 368.5 380 394.6 406.9 418.2 430.9 442.7 451.7 464 472.5 483.1 496.6 506.2 521.9 526.8 537.5 546.6 549.9 552 554.8 558.8 561.8 565 569.7 576.3 584.4 592.1 598.4 602.8 608.1 612.1 617.3 628.8 637.2 644.8 651.9 656.1 653.7 647.5 624.1 620.1 622.6 625.3 628.7 642.3 656.8 669.4 662.8 642.8 632.3 620 608 607 584.9 562.7 533.5 515.1 486.7 469 460.4 446.6 434 420.6 395.7 369.5 355.7 344.8 343.4 345 334.7 318.6 310 313.3 315.7 320 326.5 320.7 330.6 339.5 346.5 350 353.1 356.4 358.8 363.9 365.5 370.4 374.2 380 387.8 395.3 402.8 409.3 412.9 418.2 424 425.9 427 433.4 443.8 451.5 453.3 459.1 455.5 450.4 446.6 442.2 424.6 411.8 408.7 407.6 412 416.8 428.3 441.7 448.4 459.3 470.3 477.3 482.5 487.7 495.1 503.1 503.8 498 498.8 508.6 521 524.1 520.7 514.4 506.4 496.7 487.3 479.4 472.2 464.1 468.1 476 479.4 479.2 474.8
547 535.4 525 512.2 499 483.1 466.8 453.1 439.6 430.6 421.7 410.6 395.2 382.5 368.5 370.1 369.9 366.6 367.7 367 365.7 367.3 360.9 359.7 362 364.7 359.9 352.5 351.6 345.8 336.1 326.2 318.9 306.7 295.2 284 276.1 268.7 252 229.7 218.5 208.5 199.3 200.3 214.7 227 234.3 260.6 272 277.9 284.3 290.3 297.8 306.6 316.8 330.2 344.1 356.7 369.5 381.2 397.9 408 418.7 430.1 439.6 450.1 460.9 469.8 480.7 493.9 504.6 511.2 521.8 527.2 535.2 542 547.4 551.1 552.1 557.2 562.4 567.2 573.3 580.7 590.1 594.6 601.5 606 609.5 617.2 625.2 632.8 638.4 646.6 651.8 650.5 643.1 631.9 620.6 621.3 623.3 625.2 639.1 655.6 671.7 669.3 651 637.1 627.4 603.7 580 555.7 537.2 525.2 507.7 482.1 471.2 465.1 451 436.6 436.1 417.2 381.2 358.2 343.1 338.3 337.1 334.5 322.9 306.7 311.7 316.4 317.3 315.4 323.1 332.8 339.2 343.7 346.9 350.6 353.8 356.1 359.6 363 366.6 370.8 377.6 384.8 393.4 401 406.1 410.2 412.8 416.6 419.1 419.7 422.4 431.5 445.2 450.3 452.4 451.5 444 439.3 427 410.7 402.2 404.2 400.8 404.4 412.8 422.8 433.2 442.2 454.2 462.4 468.8 476.8 486.5 488.7 492.9 493.1 491.4 500.6 513.6 523.8 532.3 527.1 514.5 505.3 497.1 483.5 474.3 464.6 462.4 464.9 468.2 475.3 473.9 471.2
555 542 529.1 516.4 502.1 489.8 474.6 460.8 445.6 436.2 426.6 414.5 399.5 386.9 374 366.1 365.1 365 360.1 357.9 356.3 359.5 357.8 351.7 352.8 352 348.6 342.5 340.8 336.1 328.6 318.9 312.9 300.3 287.5 279.4 272.5 262.6 243 222.8 213.6 203.6 192.1 206.1 228.1 250.6 256.4 263.2 271.2 278.5 284.7 291.2 298.3 307.1 317.9 330.8 344.2 357.9 370.6 384 398.8 410.2 421.9 435.9 442.4 449.9 460.2 469.6 479 490.8 500.3 506.4 514.3 521.9 528.2 535.9 540.7 543.8 546.3 552.6 558.3 563.6 569.6 578.3 584.8 590.8 597.2 600.1 603.1 615.2 622.4 629.2 634.4 640.4 644.8 644.7 641.6 634.4 622.1 620.2 620.7 622.5 629.9 641.9 651.4 654.7 652.8 640.5 632.5 614.9 568 537.8 520.2 519.5 503.2 483.3 477.9 472.7 459.6 434.2 426.7 416.6 386.8 358.9 342.4 327.8 325.2 322.9 318.2 306 305.8 316.1 311.6 310.4 319.7 329.7 336 339.6 343.7 348.4 352.3 355.2 358 361.5 364.6 368.6 374.5 383.4 391.6 397.9 402.8 408 411.1 413.5 414.4 416.5 421.4 425.7 425.1 432.7 441 443.5 438.1 428.8 411 395 399.9 405.2 402.5 400 408.9 420.3 425.7 436.1 447.5 456.1 463.3 468 477.3 481.6 483.2 480.3 488.3 501.8 512.8 523.1 526.6 524.2 515.7 508.9 502.8 487.1 475.2 465.2 460.5 465 460.7 468.5 469.3 468.3
559.1 547.5 533.8 521.6 507.3 494.5 477.3 463.8 450 441.3 430.5 417 402.7 388.7 374.9 363.6 354 358.9 355.7 350.8 347.1 348 348.9 345.5 342.3 342.1 338.2 332.4 327.7 326.6 320.4 314.1 305.7 294.6 283.5 274.3 266.7 254.1 233.9 215.3 208.2 199.5 196.2 212.5 233.6 252.7 263.1 268.8 274.9 281.7 287.1 293 300.5 308 319.4 332.9 345.8 356.8 372.8 386.8 399.6 409.8 422.2 435.1 444.9 451.2 461.3 470.8 482.2 489.2 496.9 503.9 508.7 512.8 521.3 525.8 532.5 537.7 543.5 548 553.8 560.6 566.3 572.4 578.4 584.4 589.8 594.5 597.9 611 619.2 625.6 630.6 634.1 634.7 637.2 639 632.4 622.4 619.6 619.5 620.5 624 633.3 645.8 654.3 652.1 639.6 630.4 616.5 576.7 539.1 519 500.9 491.2 484.4 481.7 476.6 463.9 438.5 415.6 405.1 388.2 354.9 337.1 323.2 317.4 314.3 313 307.4 300 308.2 304.6 316.2 321.6 326.5 330.6 334.7 340.1 344.7 350.1 354.5 358.3 360.4 363.9 366.3 371.2 379.9 388.7 393.3 397.9 403.3 407.5 410.8 413.4 415.7 423.7 426.1 426.5 420.4 421.2 425.4 429.4 417 402.6 389.1 392.1 397.8 406 395.8 405.3 411.6 419.7 427.9 438.1 448.3 455 460.8 466.6 469.7 471.3 472.2 484.3 498.8 507.7 513.1 515.7 517.7 515.4 509.9 506.7 492.4 477.6 465.3 455.1 452.8 450.9 457.3 462.6 462.3
560.3 549.8 534 521.4 516.5 502.7 484.9 467.8 456.6 446 432.9 421.5 409 394.5 380.5 368.7 352.7 338.9 351.9 349.7 346.7 337.8 340 337.2 332.5 330.3 327.7 322.5 315.6 312 312 305.5 299 289.1 281.2 272.2 259 240 223.9 208.8 204.1 192.9 198.6 216.5 239.7 259.5 267.2 272.2 277.8 285.5 291.1 296.4 302.4 309.7 322 335 347.2 360.3 376 387.9 400.1 411.7 422.4 432.6 446 453.9 461.8 474.9 487.5 492.8 498.3 503.3 504.6 509.3 514.9 519.6 524.9 531.4 537.4 543.6 549.6 556.6 562 568.5 575.1 580.8 584.8 589.2 594.5 601.4 614.4 620.1 623 624.6 628.1 633.5 636.4 636 622.2 619.4 618.8 619.7 623.8 632.3 647.1 654.4 656.2 639 625.6 611.1 566.5 537 519.3 504.3 488.3 482.3 481.6 477.4 464.7 446.4 415.2 397.5 385.2 359.3 343.2 326 318.6 317.5 314 303.7 298.4 299.2 310.1 315.1 318.3 320.8 324.6 329.2 336.3 343.2 349.5 355.1 359.4 361.5 363.1 365.4 367.9 372.2 380.2 387.8 393.4 398.4 403.1 408.4 412.5 415.6 420.9 429.1 428.4 423.4 415.8 414.4 414.5 402.7 392.1 379.8 375.4 378.1 384.1 388.8 402 405.1 408.5 418.1 431 437.2 442.7 449.3 454.3 459.2 462.4 471 476.9 490.4 497.3 504.4 512.6 516.7 513.1 507.6 498.4 487.6 481.1 468.8 453.9 449.5 448.9 448.8 448.8 449.5
564.5 556.1 543.8 535.5 523.3 508.3 490 474.4 461.1 449.3 437.4 425.2 413.2 398.5 383.8 373.1 361 340.1 337.2 341.1 336.3 330.4 328.3 329.4 325.1 318.8 319.6 320.5 312 305.2 301 297.8 291.4 284.2 279.3 270.5 251.9 233.9 214.7 203.5 201.1 185.1 205 223.9 243.9 263.6 270 274.8 280.4 288 293.7 299.5 305.3 313.8 324.3 337.6 347.9 363.6 377.5 390.4 405 417.4 425.5 434.5 443.8 452.4 461.3 472.7 488.5 492.9 499.6 500.9 502.8 508.3 510.1 514.7 520.2 525.6 533.4 539.1 545.1 553.5 556.5 565.1 571.8 577 580.7 585.3 592 596.3 603.1 611.1 615.6 621.5 625.9 631.7 634.9 634.3 622.3 618.1 618.1 619.5 626.6 634 645.1 654.2 653.4 648.6 618.7 595 562.1 541.3 523.8 505.3 490 477.1 469.8 465.9 456.1 443.6 415.7 393.7 379.1 361.4 347.4 337.2 328.3 319.6 313.8 304.7 297.8 299.7 304 307.6 311.1 314.4 317.6 323.3 332.8 340.3 346.7 352.3 358.1 361.6 363.4 365.2 367.2 369.5 372.7 378.8 385.1 391.9 398 405.9 411.7 412.2 416.6 423.7 422.9 420.5 412.4 408.1 399.5 387.5 377.4 366.3 355.1 355 370.2 384.6 396.5 398.7 401.5 406.1 418.2 429.4 434.5 437.5 442.5 452.2 459.3 466.1 473.5 480.4 490.8 503.6 508.9 510.9 510.9 503.7 490.7 480.3 464.2 452.5 448.8 448.8 448.8 448.8 448.8 448.8
566.4 558.7 550.4 540.3 527.8 514 494.8 477 465.2 453.2 440.6 426.7 415 400.6 385.4 374.6 360.2 345.8 330.7 328.1 327.6 325 317.4 317.2 314 309.3 314.2 311.6 305.4 300.6 296.9 290.8 284.7 280.4 276 263.6 243.9 223.2 206.5 199.3 194.9 197.3 218.6 240.1 251.6 267.5 274 278.2 282 288.7 294.6 301.1 307.4 316 328 337.6 350.2 364.7 380.5 393.8 408.3 422.1 430.5 438.9 447.8 455.3 461.8 471.8 482.4 490.8 495.4 499.7 499.3 502.8 503.5 510.6 517.5 522.6 527.8 534.8 542.8 547.7 551.5 558.5 565.3 573.4 576.8 579.2 586.5 590.5 594.6 603.6 611.6 621.6 626.8 629.6 631.1 628.1 617 613.7 614.3 619.4 625.9 634.7 642.2 649.2 651.3 637.8 611.8 583.5 556.9 542.2 528.6 514.8 496.5 474.9 461.2 448 441.6 430.1 408 387.8 370.3 354.3 342.7 335.2 325.9 317.7 312.9 304.1 298.4 291.9 298.3 300 304.3 308.2 311.1 317.3 325.1 334.1 340.9 348 355 361 365 366.7 368 369 369.5 372.8 381.6 387.4 392.9 400.9 402.9 405.5 405.7 408.8 406.5 405.9 405.4 394.4 386.3 377.8 367.8 356.5 345.4 359.3 368.7 372.1 378.4 389.4 393.3 398.1 406.7 417.4 423.4 426.2 437.6 445.4 452.5 459.1 468.2 476.6 486 496.5 500.6 503.3 497.9 486.4 475.2 467.7 460.3 455.6 449.4 448.8 448.8 448.8 448.8 448.8
569.4 563.5 554.1 541.1 531.7 518.5 498.3 481.8 469.2 455.7 442 427.1 412.4 400.8 387.1 374.2 362 350.7 338.9 328.3 316.4 315.9 311.2 308.9 306.1 302 306.3 302.8 298.6 295.8 289.8 285.1 280.1 273.4 266.4 251.9 231.4 210.8 201.1 195.4 183.2 206.1 228.8 245 261 273.3 277.4 280.7 283.8 289.1 295.1 301.2 309.7 319 329.3 339.1 351.7 367 383 395.9 408.4 422.9 434.2 441.9 452.4 465.8 470.6 472.8 480.1 486.4 494.4 496 497.4 498.5 498.1 505.1 512.2 517.1 525.5 533.1 538.7 541.7 544.1 551.9 561.2 569.9 571.7 573.8 578.6 583.1 588.2 597.3 608.5 616.8 622 625.5 626.4 622.3 612.3 608.6 607 614.6 622 627.4 635.3 641 643.5 621.9 601.1 578.1 554.9 539.9 529.2 521.2 510.1 486.3 457 442.8 428.5 415.5 394.7 377.7 363.1 349.6 338.3 330.6 324 316.5 309.8 303.4 296.5 291.7 290.6 297.1 300.4 303.3 306.2 310.4 316.6 326.2 334.3 343 351.1 358.2 365 368.7 370.5 374.9 371.2 368 372.1 380.5 388.4 388.3 391.4 393.6 392.4 390.1 389.1 392.1 387.8 376.9 371.5 367.3 359.5 352.5 341 350.8 357.8 363 365.6 374.1 382.1 387.1 395 406.6 410.9 420.7 430.5 437 444.2 451 461.3 470.5 479.1 485.6 492.3 491.9 489.3 489.6 487 481.8 476.9 467.8 456.5 448.8 448.8 448.8 448.8 448.8
572.3 565.7 555.6 543.8 533.6 520.3 500.7 485.7 471.5 455.6 442.3 428.6 414.1 401 386.8 373.6 363.7 352.2 340.5 330.6 320.8 302.4 305.3 302.7 303.1 298.2 295.5 298.8 294.2 288.2 282.9 278.5 275.7 269.5 259.3 238.9 219 204.6 197 185.1 188.4 206.2 231.3 252.7 269.4 276.3 279.8 283 285.9 290.5 296.3 303.7 312.7 322.1 332 342.3 355 370.5 384 397.4 411.3 423.9 435.6 445.1 456.5 473 482.8 477.4 479.8 482.9 490.1 492.9 495.8 496 494.8 499.3 503.8 512.1 523.3 528.7 531.9 535.8 538.3 545.5 553.1 561.1 565.2 568.7 572.3 576 583.7 595.6 604.6 612.4 618.3 622.2 620.7 615.7 607.3 596.1 595.1 604.2 612.4 618 621.6 624.8 631.6 620.1 591.4 576 563.1 551.5 532.9 525.2 522.8 500.5 462.4 448.4 432.7 402.1 380.9 372.6 358.8 346.8 335.8 328.6 321.3 313.7 307 304.9 297.7 291.8 289 296.4 298.8 300.6 303.2 307.2 312 318.7 327.5 336.7 344.2 351.4 360.9 366.7 371.1 375.5 376.5 373.9 369 363.8 370.6 377.9 380.1 375.7 371.2 371.5 377.7 371.9 363.4 358.1 356.4 356.6 351.6 347.4 341.2 345.6 348.2 353.7 357.1 361.9 366 374.6 385.5 392.7 400.3 409.9 424.2 429.4 434.3 441.4 449.9 460.9 470.9 482 489.3 496.6 501.3 506.8 507.9 503.4 502.1 491.4 465.3 456.8 448.9 448.8 448.8 448.8
574.2 569.5 558.9 544.8 532.2 519.2 503.2 489.6 477.2 458.5 444.4 429.4 415.3 401.7 387.6 374.5 363.9 351.9 340.1 329.3 318.5 310.2 300.3 297.2 299.2 295 289.3 289.6 287.4 280.3 275.9 272.3 270.3 263.5 250.4 229.4 209.7 202.6 194.3 186.9 175.7 200.5 231.8 255.7 271.8 277.9 281.7 284.6 288.1 292.8 298.8 307.8 317.7 323 334.2 346 359.4 372.8 386 401 414.3 426.6 438.3 448 458.8 472.7 489.2 489.2 480.6 481.4 485.6 492.8 495.2 493.5 492.5 495.1 499.1 508.2 518 521.4 524.4 528.4 532.6 538.7 546 550.4 556.2 561.8 566 571.6 577.2 588.3 598.2 605 610.6 613.2 612.2 607.1 598.9 590.4 585.3 592.1 601.9 607.2 608 614.4 620 612.4 592.4 576.1 567.9 557.1 542.3 529.3 527.7 510.2 475.1 445.7 424.4 401.1 390 373.2 364.1 351.3 338 328.1 323.5 318.6 309.9 305.1 297.6 293.3 285 292.8 297.6 299.5 301.8 304.8 307.9 313.7 322.1 330.9 338.7 346.3 358.6 368.7 371.1 372.8 377 378.6 376.7 368.4 355.7 359.9 367.5 362.3 355.4 354.4 353 350.5 349.7 347.1 344.9 344.8 342.7 339.6 335.4 342.9 342.9 345.5 350.6 354.4 358.3 364.2 375.7 384.8 392 400.3 410.1 419.7 428.5 436.4 445.3 455.9 470.1 481 489.3 500 505.7 508.9 515.4 517.9 507.2 493.9 470.2 455.7 453.1 454 448.8 450.7
575.3 569.7 560.2 546 532.3 519.9 506.5 492.1 476.9 461.6 446.8 430.6 415.7 401.2 388 374.8 363.1 351.4 339.2 328.5 317.6 307.5 299.4 288.6 291.1 288.4 282.9 281.9 279.4 272.3 268.5 265.3 263.9 255.3 238.1 215.9 202.5 199.6 189.8 168.2 185.3 207.1 234.8 261.2 273.7 280.2 284.3 287.2 290.2 295.2 300.8 309.9 318.8 328.3 338.4 351.4 364 375 387.5 400.8 414 426.7 438.7 451.3 462.7 468.6 481.7 491.2 485 481.1 482.1 489.5 493.1 490.3 492.4 496.5 500 508 512.1 515.5 517.7 524.8 528.5 534.9 541.4 544.1 547.8 551.8 557.6 564.1 571.2 579.6 588.3 598 602.9 600.5 599.4 593.4 592.8 586.7 580.4 585 591.8 600.1 599.4 599 608.7 611.4 597.7 575.6 570.4 557.1 546.5 533.3 526.5 508.6 476.6 448.1 427.8 410.8 392.9 378.3 363.8 350.7 339.6 330 325.3 320.6 309 305.4 297.6 290.6 285.4 293.4 296.5 297.1 300.2 303 307 313 321.2 329.4 334.1 338.6 347.6 358.2 365.2 368.5 373 378.9 382 375.2 361.9 349.4 343.1 343.1 341.9 343 340.5 341 339.9 339 337.5 337.7 336.2 331.5 333.3 337.4 338.6 340.8 345 348.7 352.3 356.9 365.4 373.2 381.9 391.6 406.3 420.1 427.4 438.1 447.9 455.7 469.6 481.8 490.2 499.7 510.2 513.8 516.3 517.9 512.9 499 476.1 464.3 456.1 455.3 448.9 448.8
574.4 568.8 558.7 546.1 534 520.5 506.3 493.1 478.2 463 448.1 431.8 416.5 401.4 388 375.3 363.1 350.8 338.3 326.7 314.3 303.7 296.9 291.1 274.4 276.2 278.9 275.4 270.7 266.2 262.2 259.7 254.5 242.1 225.3 207.9 198.7 193.7 176 161.6 188.1 213.4 241.1 264.6 275.1 281.9 286.2 289.8 294.5 299 304.3 312.6 323.9 331.5 341.5 355.1 367 377.4 389.4 399.7 412 426.8 438.7 453.6 461.1 472.6 472.3 478 485.6 481.2 479.1 480.8 485.2 487 493.7 495.9 499 503.6 505.9 507.7 511.9 515.6 521.9 528.1 532.4 536.4 540.5 545.9 553.1 558.4 562.5 572.3 581.2 588.5 592.2 587.4 583.6 584.1 581.6 579.4 573.8 574.2 579.6 592.5 594.8 595.7 595.9 593.4 584.9 574.6 567.8 562.6 550.6 536 526.6 504 480 458.5 441.9 418.6 399.8 387.8 365.6 348.4 340.1 330.3 325.8 321.1 309.3 305.8 296.8 289.2 282.6 290 294.6 295.8 298.5 302.1 306.4 312.7 320.5 327.2 330.8 333.6 341.2 349.3 355.1 361.6 366.1 373.6 379.6 374.5 364.9 354.2 346.1 340.5 336.5 335.8 335.3 333 335.9 334.7 333.3 333 332.4 326.3 331.2 333.7 335 335.9 338.5 343.1 350.5 357.3 361.8 371.6 380.6 390.3 402.6 413.4 424.4 436 445.5 453.9 464.6 477.4 486.9 497.2 508 519.2 522.9 520.5 520.4 503.4 493.1 484.5 467.2 457 455.7 451.3
570.5 566.2 556.2 546.7 537.7 521.7 506.6 494.7 478.8 463.2 447.7 432.3 417.3 401.7 387.3 374.5 362.2 350.2 337.3 325.2 313.3 302.3 295 287.6 282.3 274.2 271.4 268.9 263.3 259.3 256.2 253.3 244.6 232 215.3 202.2 195.4 187.6 158.2 162.6 196.1 218.9 246 266.6 275.7 281.5 287.9 291.5 297.5 303.2 309.8 317.8 327.5 334.2 344 357.4 369.4 378.7 390.3 400.1 413.8 428.5 438.7 454.4 462.1 468.6 472.4 466.1 475.5 480.7 479.5 477.3 478.3 487.1 490.9 493 495.8 498.5 500.6 504.9 507.4 509.5 516.7 521.1 525.5 528.6 535 539.4 545.8 551.1 555 562.8 569.7 576 578.1 575.6 575.4 574.8 573.7 572.1 568.7 567.6 570 581.7 593.9 593.4 591.4 583.2 576.2 570.6 563.9 558.3 549.7 537.5 524.5 512.8 490.1 473.7 459.6 431.2 407.8 397.2 373.9 355.7 342.6 331.1 323.3 317.2 309.2 305.1 296.2 285.8 279.1 284.1 292.3 295.1 298.1 301.2 304.6 310.8 314.6 319.5 326.1 331 337 342.2 346.1 351.7 360.8 366.4 369.7 373.6 369.3 358.6 352 349.2 346.1 340.3 334.3 329 327.8 328.8 328.5 327.3 327.1 318.2 329.6 331.2 333.7 333.9 338.2 342.4 344.8 351.6 358.8 366.7 374 381.5 392.8 403.7 414.2 424.9 435.1 447.3 462.9 473.7 481.2 493.1 504.3 513.9 522.4 525.4 518.5 502.2 502.5 502.6 487.2 468 462.1 458.9
566.2 561.6 554.7 546.5 538.5 522.8 508.9 494 478.8 464 447.9 433.1 417.3 401.2 386.1 371.9 359.1 347.2 335.6 323.4 311.8 301 291.9 283.9 278.8 268.8 260.6 265 258.8 253.7 249.2 244 238.2 226.9 210.7 197 190.1 167.4 162.3 183.4 203.7 226.2 251.8 268.2 275.4 281.4 287.3 294.3 300.7 307.7 315.4 323.5 331.9 338.6 348.6 361.7 370.9 380.1 390.9 402 414.5 428.5 438.6 447.4 458.4 459.2 461.4 462.9 465.6 475.4 476.9 472.7 476.5 483.5 486.5 489.3 492.4 494 495.4 499.4 502.7 505.1 511.9 517.2 519 520.8 528.4 533.6 537.1 541.1 545.9 550.2 556.2 559.3 562.7 566.3 568 568.7 569.8 571.4 568.3 566.1 566.6 576.7 586.1 589.8 589 587.7 573.4 567.1 563.9 561.8 555.3 540.9 529.9 516.7 496.5 485.8 469.3 443.8 415.6 404.6 390.5 365.8 347.2 337 322.8 314 307.7 302.5 294.4 282.2 272.6 279.6 288.9 293 296.2 296.8 301.3 306.1 308.6 313.3 318.4 325 331 336.5 340.4 345.4 355.9 362.4 362.9 368.2 373.3 366 356.3 351.2 350.1 349.3 343.8 333.9 326.4 322.9 323.7 324 325.4 322.1 326.9 326.2 328.2 329.7 333.1 335.8 340.2 345.5 353.2 359.8 367.2 374.8 382.5 393.7 404.5 415.1 424.3 436.8 455.4 468 475.8 491.3 503.8 512.4 513.5 516.1 514.1 508 510.3 509 505.3 480.1 468 465.2
562.3 559.4 554.4 544.6 535 522.3 509.6 495.8 479.9 464.8 448.9 433.6 417.5 400.4 386.5 370 356.3 343.8 332.7 321.7 311 299.8 288.4 280.1 274.3 269.2 259.8 251.6 253.7 249.8 244.7 238.5 231.3 222.6 204.3 193.3 182.9 152.3 168.6 190.8 214.1 231.5 255.5 267.8 274.8 281.2 287.5 296.2 303.7 311.4 319.4 328.1 335.1 343.1 353.6 365.5 372.9 381.6 393.2 403.7 414.8 427.4 440.6 445.7 446.1 450.4 453.7 458 459.2 459.9 468.8 464.3 474.6 479.7 483.4 486 487.2 488.3 490.7 494.5 498.7 501.1 504.7 510.3 512.3 515.7 521.4 527 530 533.5 539.3 544.1 548.6 552.2 554 557.6 562.8 566.1 567.8 570.4 569.9 564.6 565.9 575.8 582.7 587 588.4 590.9 587.1 569.5 560 557.7 554.9 542.4 534.4 520.8 507.2 495.1 477.6 457.1 427 412.9 399.3 378.2 356.1 339.2 324 313.9 307.3 299.5 290.3 275.5 273.3 278 285.6 290.4 292.3 293 296.6 300.6 302.6 308.3 311.9 318 327 332 335.3 341.4 355.1 356.8 358.6 366.9 367.6 362 355.5 359 350.6 349.4 347.1 343.9 328.2 323.3 319.4 323.5 320 319.3 321.5 321.8 324.1 323.8 328.1 329.6 329.8 337.3 346.9 354.8 358.6 366 373 383.5 393.6 402.1 415.6 431.4 443.1 456.1 468.2 479.8 492.8 503.2 506.6 507.5 507.2 508.8 511.3 510.8 508.5 498.7 476.2 466.8
