ncols 200
nrows 92
xllcorner 200000
yllcorner 550500
cellsize 50
71.6 72.1 67.7 62.5 63 69.3 74.4 73.2 66.4 62.2 54.8 60.7 52.2 50 53 55.1 59.5 59.5 57.1 55.6 58.8 59.7 58.3 59 59.4 60.3 61.4 62.7 67 74.5 80.7 87 95 105.2 106.6 109.2 107.8 100.7 90.8 88.6 91.4 99.3 102.5 103.3 105.9 104.6 104.3 105.4 107.3 106.9 101 90.1 88.5 101.5 107.8 112.3 110.3 104.3 99.1 96 95.9 95.3 93.4 89.8 90.8 91.7 92.8 94.9 100.6 105.7 111.1 115.2 115.7 121.6 122.4 118.7 114.1 107.8 104.8 106.4 106.8 106.1 102.8 97.3 95.5 95.3 96.3 100 100.5 100 97.9 100 102.2 107.5 108.1 105.8 104.9 102 103 104.7 103.8 102.6 107.6 109.6 108.5 106.5 103.7 97.1 96.9 100.5 102.9 105.3 106.3 105.1 108.5 111.9 111.8 107 102 103.4 98.4 93.8 88.4 82.9 78.9 76.6 78.8 74.4 67.8 62.5 57.2 50.7 48.2 46.6 42.2 38 35.1 31.2 29.1 28.1 28.1 27.7 27.4 26.9 26.3 26.3 26.1 25.6 25.5 24.8 22.7 24.5 24.9 24.5 21.8 19.4 19.8 19.2 21.8 22.7 23.8 25 25.4 25.8 28.3 28.4 28.1 27.2 25.6 24 22.4 21.1 19.9 19.2 18.3 18 17.2 16.4 15.2 14.4 14.6 12.3 13.2 12.6 12.5 13 12.9 12.6 14.4 15.2 13 13.1 11 11.4 14.2 19.3 20.1 19.8 18.9 17.1
69.1 71.1 68 65.5 60 64.5 68.1 67.5 62.4 51.3 51.7 59.3 52 47.6 49.8 53.2 55.5 56 52.8 54.9 59.3 57.7 55.7 56.3 58.3 59.2 60.1 61.9 67.9 74.1 77.5 83 93.6 97.5 102 107.7 106.5 100.6 90.4 85.2 93.5 103.1 104.2 100.4 101.5 100.5 100.4 101.7 103 100.6 92.2 84 93.9 105.2 111.3 112.4 108.2 101.8 96.9 99.9 99 97.4 95.6 91 91 90.7 91.9 92.5 94.4 103 108.5 111.1 114.6 118.2 117.3 114.3 107.4 103.8 105 107 109.7 108.7 103.1 95.6 95.4 95.4 96.3 99.2 99.3 98.9 100.1 100.6 107.3 111.9 111.7 109.3 106.7 106.4 106 105.8 104.4 104 107.8 110.5 109.3 107.1 105.5 101.5 98.4 102 105.2 108.4 109.3 110 116 116.3 114.6 108.9 103.3 99.6 99 95.2 90.9 85.7 81.5 79.1 78.4 78.1 72.8 66.8 61.1 55.7 50.1 44.7 39.8 37 34.4 32.6 29.4 28.5 27.9 28 27 26.4 25.8 27.7 27.4 26.3 24.5 24.5 23.4 22 22.7 24 22.1 19.5 19.3 20.2 21.5 25.1 28.4 30.8 30 28 28.1 28.6 28.3 27.3 26.8 25.6 24 22.2 21 19.8 17.8 18.3 19.1 18.2 16.6 16.1 16.5 16.7 13.4 12.7 12.4 12.5 12.6 12.2 12.3 13 11.5 11.8 11.2 12.1 15.3 18.7 20 19.5 19 17.1
67.6 69.6 67.9 66.2 60.6 59.4 62.4 62.9 56.8 48.6 52.8 53.8 45.8 46.5 48.4 51.2 52.6 50.9 51.4 53.6 55.8 56.9 55.9 59.3 61 60 60.6 62.3 65.4 70.6 74.5 78.3 85.2 91.3 95.6 104.2 104 98.9 87.2 85.8 96.1 104.8 101.7 98.9 98.8 99 96.6 97.4 96.5 91.7 85.5 86.3 99.6 106.3 110.2 109 104.6 98.7 99.2 101 101.3 99.6 93.5 91.4 89.6 92 91.9 92.9 94 100.2 104.3 105.9 112.1 112.2 111.4 107.2 102.6 103.4 106 111.5 112.4 108 101.3 96.1 96 96.1 96.3 97.7 99.2 98.8 98.4 101.4 109 113.1 112.7 111.6 110.4 108.5 107.8 106.7 104.7 105.1 107.6 109 109 110.4 109.7 107 101.6 102.8 108 111.5 115.6 118.2 121.1 120.6 117.8 112.2 105.6 98.1 97 95.4 91.8 87.4 83.4 81 78.7 79.3 75.7 69.8 64 58.8 53.7 47.6 40.8 37.1 37.2 34.2 30.7 28.9 28.5 28 27.1 27.2 30.8 32.8 32.4 30.1 26.4 25.2 24.4 22.4 22.1 23.1 23.1 20.4 20.1 20.6 23.2 25.6 33.7 33.3 31.7 30.2 29.1 28.7 28.3 27.4 27.1 27 25.7 23.5 21.5 19.5 18.9 19.2 18.8 18.5 18.6 16.5 16.1 17.1 14.1 12.5 12.7 12.4 12 11.6 11.5 13.6 15.7 12.6 12.3 14.1 17.4 18.9 19.3 19.3 18.8 16.7
66.2 69.6 68.8 66.6 63 59 56 56.8 52 44.5 45.8 43.5 43.6 44.3 47.8 48.9 50.2 48.4 50.2 51.4 56.9 59.2 61.3 62.6 61.5 61.6 61.8 65.2 68.4 70.4 70.7 74.7 80.6 85.8 90.8 100.5 101.2 96.7 84 85.7 96.9 101.5 98.8 97.2 96.7 93.1 92.3 91 88.4 85.3 84.5 90.3 100.8 105 108.1 104.9 100 98 100.3 102.6 104.3 101.3 94.2 95.3 92.5 91.5 92.8 93.7 94.3 97.5 98.9 102.6 106.3 107.4 105.2 104 102.5 103.3 109.1 112.9 112.2 105.9 98.4 96.4 96.8 97.1 97.4 97.2 97.7 98.5 101.2 103 109.4 113.2 116.6 117.2 116.1 113.3 110.8 107.1 107.7 106.4 105.9 107.3 109.9 112.8 113.2 113.2 108.6 108.4 117 120 120 122.7 125.1 122.6 119 116 109.5 99.8 94.8 92.7 89.9 87.1 84 82.2 80.7 79.8 77.6 72.5 66.2 61.1 57.8 53.1 45.2 38.9 38.7 36.2 32.8 30.6 29.3 28.6 28.3 30.6 34.6 34.6 34.8 33.4 29.2 26.4 25.4 23.5 21.3 21.2 21.1 21 20.2 20.4 21.9 25.4 32.7 34 33.2 31.3 30 29.7 28.7 27.9 27.5 27.2 27 24.5 22.7 20.3 19.1 18.6 18.2 17.9 18.8 17.8 16 15.9 13.4 12 12.7 11.9 11.6 11.5 12.6 14.2 15.8 14.2 14.2 17.2 18 18.4 18.8 18.8 19.2 16.1
65.1 68.9 68.6 61.3 57 53.9 51.5 48.9 45.2 41 40.7 43 52.1 53 49.7 49.1 52.9 52.2 52.6 54.2 59.1 61.7 66.4 69.3 65.1 62.6 63.6 69.4 73.2 75.8 77.2 74.9 78.8 82.8 90.6 97.4 98 92.9 82 84.4 95.5 96.4 95 95.1 93.8 90.7 91.9 86.3 84.7 84.3 83.1 92.5 97.8 102.3 104.5 100.9 97.3 97 100.3 104.1 106.5 103 100.9 98.1 92.4 91.7 93.4 94.1 94.1 94.8 96.7 98.7 101.3 103 104 103.7 102.2 103.1 110.4 111.9 108.3 102.6 98.1 98 98.1 98.5 98.5 98.5 98.3 98.9 102.1 105.8 110.3 114.9 121.6 125.3 121.1 117.6 113.7 108 109.8 108.2 106.7 108.4 114.9 118.2 119.1 116.9 115.1 119 125.8 127.7 126 125.4 126.7 123.7 120 117.5 113.1 102.5 95.6 94.3 93.3 88.7 84.2 83 82.7 81.1 79 74.7 69.8 64.9 60.6 56.3 49.3 43.1 38.9 38.1 34.8 32.3 30.9 31.7 30.7 31.2 34 34.5 34 33.7 31.2 28 25.6 24.4 22.7 20.7 20.5 20.4 20.1 19.9 21.5 24.5 29.2 34.4 34.1 32.5 31.1 30.2 29.4 28.6 27.9 27.5 27.6 25.9 22.4 20.4 19.2 18.3 17.7 17.4 18.7 19.4 17.5 14.9 12.2 11.7 11.6 11.6 12 12.6 13.6 15.2 15 14.9 16.5 17.7 18.1 18.5 18.6 18.5 18 15.7
63.6 65.8 64.8 58.5 54.6 52.2 49.8 48.2 40.2 40.6 47.7 54.7 65.6 68.9 58 60.6 66.2 62.1 56.2 55.5 60.1 63.6 68.9 72.4 70.2 69.4 68.7 74 77.9 82.7 87.9 81.7 74.3 77.6 84.5 92.9 93.4 87.4 79.7 84.4 89.7 90.3 94.6 95.4 93.4 88.4 86.5 84.4 83.5 86.2 90.3 95.1 97.5 100.5 100.6 98.1 94.8 96.7 101.5 105.4 106.5 104.7 103.4 99 93.1 92.2 92.4 93.7 93.4 93.5 96.6 97.5 98.7 100.1 103.4 103.9 101.5 102.7 109.5 108.9 104 99.4 99.6 99.2 99 99.3 99.2 99.3 99.2 99.9 105.2 108.7 113.3 120.4 128.9 130.2 126 121.6 116.9 112.6 111.7 110.1 108.6 113.5 119.2 123.6 124.9 122.4 122.1 129.1 132.5 135.3 133.4 127 126.9 125.1 121.2 118.3 114.3 106.8 101.4 99 97.9 91.8 86.2 83.2 83.8 84.2 81.4 78.8 75.4 70.1 63.6 58.9 53.2 47.5 42.7 39.9 36.1 34.3 33 32.2 31.5 31.8 33.4 35.9 35 34.6 33.1 30.2 27.5 25.3 22.9 21.9 19.9 19.7 19.6 19.8 20.3 24.1 30.3 34.7 34.7 33.6 32.1 30.8 30.1 29.3 29.5 28.7 28 26.2 23.3 20.8 19.1 18.2 17.4 18 18 19.2 18.8 14.4 12.4 12.2 12.2 12.4 13.3 15.1 16.4 17.5 17.2 16.8 16.4 16.7 17.7 18 18.2 18 17.5 16.6
61 63.4 62.4 57.8 51.4 51.2 48 41.8 39.3 45.6 55.1 60.7 68 69.5 61.5 66.8 72.1 71.2 65.6 61.3 63 67.3 71.6 73.4 75.2 77.1 77.1 80.5 84.9 92.4 88.6 81 71.8 73.9 81.4 82.2 86 82.3 79.4 84.7 87.6 87.7 88.4 90.5 90.5 86.3 82.7 81.7 89.8 90.1 92.1 95.2 97 97.7 94.1 92.4 92.7 95.9 100.8 104 105 105.4 103.5 99 94.4 94.9 92.8 94.1 93.1 94.5 95.3 96.5 96.4 99.7 103.7 103 99.8 100.3 102.7 104.2 99.1 101 101.8 100.9 103.2 103.6 101.8 104 105.3 105.9 108.8 111.4 117.5 127 134.2 131.1 128.3 125.5 119.9 114 113 112.3 114.4 119.2 127.3 130.4 133.5 134 132.6 136.9 141.3 142.1 136.9 129.4 125.7 125.9 122.5 119.2 116.3 109.2 106.7 104.2 104.1 98.2 91.3 84.9 83.2 84.2 83.9 82.1 79.6 76.1 68.5 61.8 56 50.8 46.8 43.7 41.5 38.7 34.6 33.1 32.5 31.8 32.7 35.4 36 35 33.9 31.5 28.2 25.1 24 23.8 20.4 19.7 19.8 20.3 20.7 23.8 31.5 35.4 35.1 34 32.8 31.5 30.4 29.5 29.4 28.8 28 26.4 24.1 21.2 19.3 18.7 19.3 19.5 18.8 16.7 16.3 13.8 12.7 12.6 13.4 14.8 18 20.4 21.5 21.5 20.3 19.4 18.5 17.5 16.8 17.2 17.1 17.8 17.6 17.3
58.1 62.1 61.9 54.4 48.3 49 46.5 37.7 42.2 49.7 57.7 64.9 69.3 69.4 68 71.4 76.8 77.7 70.3 70.7 71.9 70.2 71.9 74 79.4 83 81.1 86.2 92 91.8 84.3 78.3 71.2 72.1 76.3 78.6 80.7 79.6 79.8 86.5 90.2 93.8 90.7 89 89.3 89.5 86.8 84.6 89.1 88.3 90 92.6 98.8 94 90.4 90.7 93.7 96.4 100.3 101.1 101.9 103.1 101 98.4 97.4 95.5 92.2 92.8 93.5 95.5 94 96.2 96.6 101.4 102.1 97.6 97.5 98.5 100.3 99.5 101.1 102.8 105.2 107.9 110.3 110.3 107.5 109.1 109.9 110.5 112.9 115 121.3 129.5 133.5 133.4 128 123.9 120.7 115.7 114.4 115.5 119.6 124.7 136.4 143 143.4 140.5 139.7 139.9 142.7 140.7 134.7 128.5 125.4 126.1 123.5 119.6 118.1 112.6 107.9 105.8 104.3 99.6 93 87.1 84.5 83.9 83.7 82.8 81.5 79.1 73.5 65.7 59.7 54.6 50.7 47 45.4 42.3 38.3 34 32.6 32.3 32.9 34.5 36 35 33.9 32.9 29.2 25.9 23.8 22.7 21.8 19.9 19.9 21 21.8 24.3 31.3 35.1 35.2 34.3 33.3 32.2 30.9 29.4 29.2 28.3 27.3 26 23.9 21.5 20.1 20.2 21.2 20.8 19.5 18.7 17.5 15.4 13.4 13.1 16.1 18.3 23.4 27.3 28.4 24.3 21.5 19.4 18.7 18.4 17 16.3 16.7 17.1 16.8 16.4
56.9 58.4 58.7 53.5 48.3 46.1 43.4 34.6 45.9 52.3 57 64.8 69.7 69.8 69.5 74.8 82.2 80.3 75.3 77.3 74.9 72.1 73 75.6 81.9 83.8 82.8 88.3 91.5 86.8 80.2 74.4 70.8 71.8 73.4 74.9 76.9 77.1 81.1 88.1 95.7 95.9 89.8 86.7 90.6 92.3 83.4 86.2 86.9 85.4 88.6 91.8 95.9 90.8 91.4 92.4 91.9 95.5 96.9 97.9 97.8 98.6 98.6 98.5 97.7 93.9 92.3 92.7 92.9 93.2 94 95.3 97.5 100.5 98.1 97.5 97.4 97.6 97.9 99 101.9 105.3 109.1 113 116.1 116.9 114.6 113.9 114.1 116.9 117.4 117.1 122 128.9 130.4 130.3 128 122.7 118.5 116.5 115.6 115 120.1 129 141.1 143.6 142.2 138 136.9 135.1 135.5 135.3 130.5 125.7 123.7 125.3 123.5 119.7 118.9 114.4 106.8 105.1 102.8 99.4 93.5 89.2 84.8 83.9 84.6 84.1 82 80.6 75.6 70 63.6 58.9 55.4 51.8 49.1 46.2 41.8 36.6 33.4 34.4 35.3 35.9 36.9 36.4 35.1 33.7 30.8 27.5 25.5 23.4 21.3 20.1 20 20.8 22.6 25 30.4 34 34.7 34 33 31.9 30.8 29.3 27.8 27.2 26.3 24.8 23.3 22.1 20.8 20.7 21.4 20.8 19.5 17.8 17.2 15.8 15.6 13.1 16.3 19.8 26.1 30.7 31.7 26.8 21.9 19.7 18.5 17.9 17 15.9 16.6 16.4 16.3 15.8
53.8 56.3 55.1 51.8 49.4 45.4 40.4 29.5 44.8 49 55.3 62.3 69.2 70 71.4 78.7 85.1 81.2 83.5 81.8 77.5 73.9 75.3 76.9 82.1 82 83.5 89 88.3 83 77.1 72.3 70.4 70.6 71.6 73.1 74.6 75.6 80 90.5 96.2 94.2 88.6 87.2 88.9 87 80.8 86.8 82.4 82.7 84.5 92.1 90.3 91.5 95.1 92.2 89.5 98.7 98.7 98.3 95.8 97.3 97.2 97.2 95 92.9 92.5 93.2 94.7 94.5 95.7 96.3 96.6 98.1 98.3 98.6 97.5 97 97.1 97.9 102.1 106.8 112.1 118.2 124.2 126.1 123.7 121.7 123.7 123.4 118.1 116 120.6 126 128 126.8 125.6 125.4 123.2 119.3 116.1 115.2 120.5 132.9 140.1 139.7 136.7 134.3 132.2 130 129 129.9 127.8 123.5 122.3 123.2 121.5 117.9 117.3 114.8 107.2 102.7 101.4 97.7 93.7 89.3 85.7 84.7 86.6 87.4 85.1 82.1 78 73.8 67.3 62.8 59.6 56 53.6 51.4 46.9 42.7 36.2 36.3 38.5 39.2 39.5 40.3 39.7 36.5 34.2 30.9 28.6 23.8 21.2 20.3 20.2 20.5 23.3 26.2 28.6 31.9 33.5 33.6 32.6 31.4 30.2 28.3 26.2 25.7 24.4 23 22.5 22 21.3 21.1 20.9 20.2 17.3 16.2 16.1 16.4 15.4 14 16.5 20.8 27 31.5 32.7 29.2 22.8 20.4 18.6 17.9 17.2 16.1 16.1 16.1 16.2 15.5
50.7 52.4 52.6 48.4 47.7 42 30.4 25.7 41.1 44.8 51.2 59.8 68.6 69.5 74.5 82.8 85.3 80.5 85.1 84.5 81.7 80.3 78.5 77.3 79.9 79.2 83.6 86.6 84 79.2 73.7 70.5 70.3 70.9 71.6 73.2 77.4 81.1 85 92.4 94.3 93.9 90 85.1 81 80.2 85.5 83.9 81.3 81.7 83.4 89.1 91.4 92.5 87.6 87 87.5 95.7 97.1 97.9 97.4 97.5 97.2 95.9 95.3 93.1 92.3 92.5 95.3 97.1 97 95.2 94.5 95.7 100.2 99.1 97.9 96.4 96.8 97.6 103.1 108.9 119 127.5 130.3 129.7 127.7 126.2 125.2 122.5 119.5 114.9 116.5 120.9 123.7 124.7 125.6 126.7 124.9 120.7 116.9 116 120.7 130.5 135 134.2 131.6 129.6 128.8 127.2 127.2 126.8 125.1 122.4 121.4 120.9 119.1 116.5 114.7 112.5 106.8 101.6 99.4 97 94.6 90.3 87 85.9 89 90 88.7 84.9 80.8 76.6 72.1 67.3 65.2 62 57.1 54.4 50.1 47.4 39.7 36 42.8 44.2 45 44.5 43.8 43.3 38.9 35.3 34.2 27.2 21.7 20.6 20.3 20.8 23.4 26.6 28.2 30.1 32.2 32.4 31.4 30.3 28.9 27 25 23.7 22.8 22.5 21.7 21.2 19.8 19.2 18.7 17.8 17.7 17.4 17.8 17.1 15.2 14.2 17.4 20.1 26.7 30.5 31.3 29.5 23.9 21.2 18.9 18.3 17.6 16.3 15.6 15.6 15.5 14.8
46 48 46.3 41.1 38.8 33.3 25.5 25 37.1 44.4 51.4 56.5 66.5 67.8 74.4 81.2 82 82.8 88 88.6 87.7 82.3 78.1 76.5 76.1 77 80.6 82.4 80 75.6 71.6 70 70.1 70.6 71.2 74.7 80.5 84.9 89.8 91.9 93.3 94.3 89.5 80.8 79.7 87.6 84.9 80.5 81.8 84.6 86.5 87.6 87 87.1 87 86.7 87.1 88.6 96.5 96.2 98 96.7 96.4 97.1 96.2 97.1 92.4 92.6 93.4 93.6 94.1 94.3 94.7 99.9 100.2 98.4 97.7 95.9 96.8 97.4 105.8 116 124 127.3 128.4 127 125.1 124 123.5 121.2 119.1 116.1 112.7 115 119.3 122.1 125.5 127.5 124.3 121.3 117.3 116.6 120.3 127.1 128.2 127.5 125.6 125.4 125.7 126.6 126.5 125 122.8 121.3 120.2 118.8 117.6 115.2 112 110 106 100.8 98.5 95.1 92.6 89.3 87.3 86.7 90.4 91.7 91.1 87.5 82.8 78.8 75 70.9 68.2 64.5 57.5 57.6 52.7 49.6 45.7 35.9 42.7 49.7 49.6 48.4 47.6 46.3 43.4 40.1 39.4 32.7 26.3 21 20.6 21 23.1 25.6 28.1 28.8 29.2 31 30 28.8 27.3 25.2 23.6 23 22.2 22.1 20.7 19.8 20.4 19.6 19.3 19.6 20.2 19.5 19.3 16.1 13.9 13.6 15.7 18 25.5 28.7 29.2 28 24.1 22.4 20.4 18 16.8 16.2 15.7 14.9 14.4 13
40 37.5 28.9 17.8 18.8 22.2 27.1 41.6 41.8 41.1 46.5 56.3 63.9 69.5 74.3 80.1 83.1 86.3 90.1 92.3 88.9 80.5 76.9 75.2 74.9 75.3 77.6 78.1 75.9 72.5 70 69.6 70 70.5 71.2 76.3 83.9 90 93.7 91.7 93.7 92.2 86.5 78 82.5 85.5 81.5 86.5 89.7 92.8 95.9 94.5 90.6 85.7 89 86.9 88.8 91.5 91.1 96.2 95.5 90.8 96.2 103.7 104.9 99.8 92.8 92.9 93 93.3 93.8 93.8 94.6 99.8 98.2 97.9 97.6 96 96.5 98 108 114.7 121.6 124.4 124.4 122.7 121.5 121.1 122.1 123.1 121.9 117.1 111.5 110 113.5 118.3 122.9 125.1 124.1 121.1 118.1 116.9 117.1 120.2 124.5 124.5 125.5 125.9 124.6 124.4 124.4 123 121 119.6 119 117.9 115.7 114.3 111 107.6 104.7 102.3 97.6 92.6 91.1 88.4 86.6 87.5 90.9 92.1 90.8 87.8 84.1 80.4 76.7 73.2 69.6 66.6 63 59.4 54.6 53.9 51.7 39.2 38.6 50.9 51.5 49.9 48.6 47.5 45.5 42.9 42.3 39.6 30 22.3 20.9 21 23.2 25.7 26.6 27.3 26.1 27.9 28.2 26.8 25.4 23.4 22.8 22.3 21.6 21.1 20.7 21.1 21.2 20.9 20.5 21.3 21.8 21.5 20.7 16.7 15.2 14 14.4 15.9 22.7 27 27.6 25.7 23.7 22.9 20.3 17.2 15.7 15.3 15.2 14.7 14 13.3
33.2 29.3 14.5 18 25.1 27.4 44.9 48.3 51.2 48.9 48.1 60.7 67.1 70.7 75.7 80.6 86.2 90.8 94.5 94.5 87.6 83.1 77.5 75.7 75.5 74.9 75.7 75.2 73.1 70.9 69.5 70.2 70.7 70.9 71.3 78.6 87.1 92.7 91.8 91.1 91.1 87.5 83.3 79.5 80 81 87.2 92.2 95.1 98.1 101.8 100.9 93.9 93.1 94.2 93.3 89.8 86.8 88.3 91.7 90.1 93.1 99.7 108.4 105.9 100.4 94 93.3 92.8 93 93.2 94.2 96.4 97.8 96.6 96.2 95.2 95.5 96 97.9 103.7 108 114.1 119.9 120.5 119.7 118.6 119.3 120.9 122 122.5 116.8 111 107.4 108.3 111.9 118.3 121.9 122.5 120.9 119.9 117.7 116.5 119.3 120.4 121.4 124.6 124.5 122.8 120.3 120.1 119.3 118.9 117.9 117.9 117.1 115.4 113.8 110.2 107.2 104 100.9 96.1 92.9 90.5 87.9 86.1 88.4 91 92.7 90 86.6 83.2 80.5 76.5 73.5 70.2 68.8 66.1 61.9 58.1 56.1 55.5 44.8 37 43.2 52.2 50.7 48.9 47.8 46.2 44.5 44.6 42 32.5 24.3 21.1 21.5 23.7 24.4 25.1 25.9 25 24.3 24.7 23.7 22.9 22.5 22.1 21.6 21.5 21.8 21.9 21.8 21.6 20.8 21.4 21.9 22.7 23 22.9 21.3 16.9 14.3 13.9 15.1 20.5 24.7 26.1 24.2 23 22.9 20.6 16.7 15 15 15 15.3 15.8 14.9
31.2 17.2 12.4 23.8 30.4 36.8 44.2 50.5 56 57.1 55.6 61.9 68 71.9 76.1 82.1 90.8 96.6 96.6 91.4 88.7 84.6 78.7 75.5 75.4 75.1 78.3 76.2 72.3 70.7 70.1 70.9 71 71 71.7 77.9 84.4 86.4 85.5 84.6 83.4 81 78.3 77.9 78.2 85.6 91.8 96.7 100.5 104.5 105 99.8 95.8 100 101.2 98.6 94.5 88.4 87.6 88.3 89.2 97 105 109.3 105.8 100.1 96.4 93.7 93.3 93.2 93 93.8 95.4 96.6 96.2 95.2 94.5 95.3 96.1 96.9 99.4 102.1 108.4 115.8 117.6 117.2 117.2 118 118.8 117.4 118 113.1 106.8 108 107.5 107.5 112.4 120 122.7 124.1 122.4 119.4 116.2 116.7 115.7 119.2 120.5 120.2 119.1 116.9 115.1 115.2 116.5 116.5 116.2 115.8 113.4 112.5 111.1 107.8 105.7 103.5 98.4 93.1 90.5 87.4 85.9 87.8 91 93.3 89.7 84.7 81.2 79.8 76.2 73.1 70.3 69.3 68.2 64.6 59.2 56.9 59.1 50.6 41 37.4 50.7 50.8 49 47.3 47 45.9 44.7 42 34.4 25.6 21.6 21.5 23.1 24 24.5 24.9 24 23.5 23.3 22.9 23 22.8 22.3 21.9 21.8 22 22 21.7 21.5 21.6 21.8 23.6 26 27.6 26.4 25.5 19.3 15.1 14 15 18.5 23.6 25.1 23.5 22.3 22.7 21.9 17.8 15.3 15.3 15.4 15.8 15.9 15.6
23.5 10.6 18.8 25.6 33.9 39 46.5 53.5 59.2 60.8 60.5 63 66.7 73.2 80.2 86.3 94.6 96.1 91.8 89.4 89.9 82.7 77.1 74.3 74.8 78.2 78.2 73.3 72.2 72.8 69.6 70 70.5 71.2 71.7 75 77.8 78 77.2 76.1 76.5 76.7 77.4 77.2 78.4 86 93 97.8 103.2 105.7 102.4 97.1 100.6 105.6 107.8 102.5 97.9 91 87.6 88.2 90.7 99.6 106.4 108.3 105.5 103.1 99.9 94 93.6 93.2 92.8 93.3 94.6 94.3 93.9 94 94.4 94.6 95.4 96.7 99.4 101.5 106.7 112.2 114 113.9 113.9 115.5 116 116.2 113.3 108.7 105.7 107.1 107 106.8 110.5 121 125.2 124.6 122.1 118.6 116.2 114.3 114.4 116 115.9 116.1 115.9 114.3 113.6 113.5 115.3 115 114.7 114 112.6 111.7 110.7 110.5 108.2 107.3 102.8 97.3 91.8 87.4 85.7 86.2 89.3 92.6 89.7 84.3 80.5 78.3 76.4 70.3 70 69.7 69.5 66.8 61.2 56.6 59.3 52.8 43.2 36.6 46.6 50.4 48.7 45.8 43.5 42.5 44.4 41.7 35.1 26.7 23.6 22.2 22.2 23.6 24 23.8 23.8 23.7 23.7 23.3 23.4 23.1 22.5 22.4 22.3 22.6 22.7 22.2 21.7 21.8 22.8 26 30.3 32.1 32.6 32.7 25.7 18.3 15 15.4 18.4 22.4 24 23.1 22 22.4 21.4 21.2 19.9 16.7 16 16.4 16.5 16.5
7.9 10.2 23.8 27.1 36.3 41.5 48.6 56.5 60.2 61.1 62.9 61.9 66.4 75.7 85.8 89.1 92 90.5 86.2 88.2 87 80.3 74.5 73.3 75.1 79.5 75.2 68.4 67.7 69.3 70.2 70.9 72.3 70.9 73 73.7 73.4 74.1 74.5 74.7 75.9 76.4 76.3 77 78.6 85.1 89.8 97.1 103.1 102.8 98.3 98.2 104.8 112.7 113 107.3 100.9 92 89.5 88.3 91.1 96.8 102.2 106 106.1 105.7 101.3 94.6 94.1 93 93.1 93.4 93.7 94 94.3 94.3 94.4 94.4 95.1 96.6 98.9 100.5 104.9 108.5 109.8 109.4 110.7 111.9 111.6 110.3 108.4 104.7 105.2 105.9 107.2 107.2 112.6 120.2 125 122.9 119.5 116.4 114.2 113.5 112.6 112.8 113 113.5 113.9 113.1 112.4 112.5 113.4 113.5 113.1 112.2 111.2 111.5 110.5 110.6 111.3 111.3 107.9 102.4 98.5 92.5 86.3 85.6 87.6 90.6 89.6 84.8 79.8 76.7 75.6 67.6 66.3 69.6 70.3 68.7 63.1 57.4 58.8 58 47.9 38.6 40.9 49.2 40.1 35.9 34.4 33.4 35.4 38.5 36.8 29.2 25.4 23.7 22.7 23.3 23.9 24 24 24 24.1 23.8 23.8 24.1 23.8 23.7 24.1 25.6 26.1 24 23 22.4 24 27.8 32.2 34.2 36.3 33.6 31.3 24 16.1 14.9 16.9 20.5 22.2 22.8 22.1 20.7 19.7 21.7 22.6 20.5 17.5 17.2 17.4 17.2
8.8 11.8 24.6 31.4 37.8 42.1 50.3 57.3 60.6 60.6 61 57.8 68.6 75.9 81.7 83.7 86.3 84.1 81.3 84.6 83 78.6 77.3 74.7 76.9 77.3 72.8 69.2 71.5 71.3 72.5 71.2 74.5 72 72.3 75.5 76.2 75.1 77.3 79.3 77.4 78 76.6 77 77.6 79.9 85.6 94.8 99.3 98 93.8 101.3 109.8 114 113.2 108.1 101.5 93.8 92.1 88.5 90.3 94 99.8 104 106.9 105.9 99.4 94.4 93.6 93.2 93.6 94 94.2 94.4 94.6 94.6 95.2 97.3 96.6 96.4 97.1 98 100.7 103.5 104.6 105 107.4 107.3 106.3 104.6 103.8 102.4 103.9 104.7 106.5 106.8 110.6 118.5 120.4 118.9 116.5 115 113.6 112.9 112.1 111.8 111.9 111.7 112 111.8 111.2 111.1 111.3 111.4 111.3 110.4 111.2 110.9 110.6 112.5 114.6 115.6 111.5 106.3 100.6 97.4 89.5 85.7 85.3 88.1 89.8 86.4 80.2 76.4 74.8 71.9 64 65.1 68.8 69.6 65.6 56.8 54.8 54.5 53.1 42.8 37 36.9 35.5 33.8 33.3 33.9 31.6 31.5 35.5 35.6 28.5 24.9 22.7 23.5 23.8 23.8 23.9 24.5 24.5 25.5 26.1 27.4 27.7 26.8 27.9 29.6 28.8 28.1 27.6 26.1 25.8 28.6 32.1 34.4 35.3 36.6 33 27.4 21.2 15.8 16.3 18.4 20.1 20.8 21.5 19.2 18.3 21.5 23.5 21.9 19.1 17.7 17.8 17.6
6.9 9.9 15.8 31.6 37.9 42.3 49.5 55.3 59.1 60.4 59.9 57.4 67.7 71.7 74.4 76.2 77.9 77.3 78.9 80.2 79 78.8 77.4 76.7 78.6 75.3 71.9 69.7 72.7 71.3 72.1 73.5 73.4 75.5 76.9 77.5 77.4 78.2 80.7 82.5 82.9 83.7 78.8 77.6 78.9 79.8 81.4 92.6 95.5 93.4 94.1 101.7 106.6 110.4 110.9 106 102.1 98.3 92.6 88.7 90.3 93.3 97.5 102 105.5 103.4 95.7 94.6 93.5 93.5 93.5 93.9 94.4 94.7 94.8 94.6 97.9 100.7 99.8 98.5 98 97.6 97.9 99.9 100 102.3 102.2 101.6 100.9 102 102.3 102.5 103.2 104.7 105.6 107.5 110.8 115.8 115.1 113 113.7 114.7 115.3 115.1 114.2 112.5 111.8 112.1 109.5 110.9 109.8 109.9 109.2 109.5 109.6 109.1 109.7 110.1 112.5 116.4 119.2 120.6 115.1 109.9 102.8 100.4 95.9 87.6 85.1 86.6 88.5 86.7 81.5 77.3 74.5 72.2 66.9 61.3 65.3 69.2 66.8 58.4 54.1 53.9 47.7 40.2 38 37.3 37.4 40.4 45.3 43.2 35.9 30.7 30 34.6 35.2 25.9 23.7 23.1 22.9 23.2 23.4 23.8 25 27.5 28.3 30 30.8 32.1 32.7 34.5 31.1 34.5 34.3 32.4 30.5 29.8 31.1 33.4 34.8 34.4 32.7 28.7 23.1 17.4 16.8 17.2 18 18.3 18.4 18.1 17.6 20.8 23 22.9 19.9 18.2 17.8 17.8
6.7 15.5 26.9 33.3 35.2 37.9 47.5 53.7 57.3 59.9 58.8 56.4 63.4 64.9 65.7 67 68.3 70.3 73.9 74.4 75.8 77.1 77.5 80.4 79.6 74 69.7 68 69.8 71.9 73.8 73.2 73.4 76 79.2 81.6 80.4 80.1 82.3 87.6 90.3 84.5 77.3 79.3 85.1 81.6 84.4 91.6 91.8 91 93.1 98.1 100.3 104.5 106.7 105.4 103.4 99.7 91.5 89.8 90 91.7 93.4 97.1 101.2 99.8 95.1 94.3 93.7 94.1 94.3 94.6 94.6 94.9 100.1 100.3 101.6 103.4 104.1 103.3 102.3 101.3 99.4 99.7 100.7 102.5 104.1 103 101.8 102.1 103 103.5 103.8 105 105.5 106.4 109 112.9 112.2 112.8 115.3 117.4 116.8 115.4 114 113 114.5 114.8 114.2 110.1 107.1 108.5 107.7 106.9 107.2 107.2 108.6 111.4 115.3 121.4 125.6 126.2 120.4 113.9 106.1 102.4 98.4 93.4 87.4 84.5 87.2 86.4 83 78.9 76.4 74.1 72.4 67.4 58.4 65.4 66.6 56.9 52.3 53.4 46.4 41.1 45.6 45 46.4 51.3 55.1 53.4 46 35.3 30 29 32.4 30.7 24.1 24 23.7 23.6 23.9 23.6 25 27.6 29.2 33.4 34 34.6 37.2 34 35.5 36.7 38.3 37.4 34.8 31.6 30.1 31.7 33.3 33 32.2 29.6 24.5 19.1 17.3 18.1 17.1 17.7 18.1 17.7 17.6 18 22.7 23.3 20.4 18.4 17.9 17.5
7.3 20.3 32.5 38.9 43.4 43.7 45.9 51.4 57.5 59.2 57.3 56.1 58.9 59.3 59.6 61.7 62.3 64.1 65.5 67 72.3 74.3 77.5 80.2 77.2 72.1 68.2 65.3 71.2 76.2 75.7 74 73.4 76.8 82.1 83.4 81.4 80.3 84.1 88.5 92.2 88.8 84.2 88.4 83 87.9 87.8 88 90.9 89.4 92.2 95 96.4 99 101.9 105.2 105.9 100.8 93.1 90.5 90.4 91.3 92.2 93.6 95.4 96.1 95.4 94.8 95 96.8 98 97.3 100.4 104.1 108.3 106.7 104.9 106 107.5 106.6 108.7 107.9 103.9 105.5 108.5 109.1 109.3 107.3 104.2 103.6 104.3 104.3 104.3 104.6 105.7 106.7 108.3 110.6 113.3 119.8 123.7 122.5 118.8 115.3 114.5 116.6 118.4 119 116.3 112.3 108.4 105.4 106 104.1 104 104.7 107.1 110.2 115.5 121.4 126.3 128.9 127.7 121 112.2 104.5 100.4 96.7 90.4 84.3 85.2 86.7 84.3 80.7 78.6 76.8 75.1 72.3 67.3 62.1 50.8 51.1 51.1 45.9 45 49.4 56.1 57.6 55.9 56.1 57.1 55.2 48.9 38.4 34 29.2 28.2 31.3 26.7 24.8 24.8 23.9 23.8 23.7 23.8 25.8 29.1 34.2 35.2 34.5 35.2 37.8 37.5 37.8 39.8 40.5 38.2 34 31 30.5 31.7 31.4 30.6 29.2 25.5 20.5 18.5 18.3 18.1 17.1 17.4 17.8 17.3 17.5 21.9 22.8 20.3 18.8 18.1 17.6
9.5 28.8 35.2 40.8 45.4 47.6 47.2 51.6 56.9 54.7 54.1 55.3 54.1 53.3 54.7 56.2 56.7 58.2 56.6 60.4 65.9 70.4 75.5 75.7 71.5 68.2 64.6 68.1 73.1 75.3 76.5 75.3 74.8 80.7 84.9 85 81.2 81.3 85.5 91.1 96.3 95.8 91 92.4 86.7 89.8 89 90.9 92.1 90.5 90.7 94.6 93.1 93.7 97.1 103.3 104.3 101.2 94.4 94.2 93.5 92.4 94.5 96.9 96 95.9 97.9 96.8 98.3 101.6 103.1 105.4 108.9 112.9 113.4 110.3 112.3 113.5 114.6 112.6 111.4 111.4 112.5 112.8 112.4 111 110 108.4 105.6 106.9 105.7 105.3 105.2 105.2 107 106.5 107.7 110.1 118.4 124.5 127.8 125.4 120.7 116.3 120.3 124.4 126.1 123.8 120.7 116.3 107.9 104.6 104.2 103 102.6 101.7 102.3 106 111.9 117.6 120.4 122.9 124.5 120.6 115.8 109 102.9 98.8 93.8 86.7 81.9 84.8 85.7 83.4 81.8 79.9 78 75.4 72.5 66 64.9 67.1 59.1 55.5 52.1 52.1 53.1 57.3 58.7 58.6 57.4 55.4 50.5 50.2 44 34.1 29.6 28.4 27.2 26.4 25.7 25 24.5 24.3 24.1 24.8 26.8 32.3 35.7 35.2 35.6 37 39 39 40.6 42.4 40.5 36.2 32.6 29.7 30.2 30.1 29.4 28.5 26.3 21.5 19.1 17.8 17.4 17.4 17.9 18.1 19.2 18.4 20.5 22.2 20.1 18 17.5 16.6
22.5 28.3 36.6 41.4 44.4 47.5 47.5 52.6 55.5 58.9 58.6 56.9 53.8 52.6 54.3 54.2 54.5 54.7 57.5 57.6 59.9 65.6 71 69.8 67.3 64 60.7 66.9 71.4 74.1 76.1 74.6 77.2 83.8 86.6 85.5 82.1 81.6 90.8 97.6 98.4 97.2 91.5 97.5 89.4 94.2 93.6 94 91.5 91.4 90.3 92.9 93.7 95.9 95.6 103.5 106.8 104.1 100.2 96.7 95 94 95.8 98.8 98.1 98.1 98.9 98.7 102.5 105.8 108.2 110.5 113.4 116.2 114.6 115.3 117.4 119.8 119.9 119 116.1 118 119.1 118.5 115.8 110.9 110.1 109.6 111.7 109.6 108.7 108.1 108.6 111 111.5 110.6 108.4 111.6 120.6 126.3 126.3 125.4 117.6 123.9 128 133.2 131.7 127.2 123.8 119.1 113.3 104.8 103.7 103.4 102.3 100.7 101.2 101.4 105.9 112.1 114.9 116 117.1 115.1 111 106.3 102.8 98.4 96.5 88.8 80.5 83.8 86.8 85.9 85.4 83.9 81.1 79.5 77.6 75.7 75.1 74.3 68.5 60.5 57.1 52.4 52.8 55.3 59.7 60.5 58.7 55.9 53.5 48.3 41.6 40.5 35.6 29.2 26.9 26.7 26.1 25.9 25.6 26.2 24.6 24.5 26.1 31.7 35.6 36.3 34.2 36.3 38.4 39.7 41.4 43.8 42.6 38 33.9 30.4 28.6 28.8 28.8 28.1 26.6 23.5 20.1 17.8 17.3 18.7 19.2 19.6 20.2 19.8 21.7 21.6 19.4 17.5 17 16.2
21.5 27.2 38.4 43.1 44.4 48.8 54.2 57.7 59.5 60.1 60.2 58.8 55.3 52.9 53.7 52.7 50.9 53.7 54.5 55.5 57.6 60.8 63.1 64.2 61.5 58.9 64.6 66.1 69.1 72.7 74.9 72.9 79.3 85.6 87.5 86.5 84.1 83.6 96.4 99 99.3 102.3 100.8 96.8 94.4 95.7 95.7 93.4 91.6 93.4 92.6 93.9 95.2 100.4 99.9 102.8 108.1 107.3 106.5 101.2 98 101.2 101.6 101.5 100.4 99.7 100.5 102.6 106.1 109.4 110.3 111.2 111.7 113.4 115.7 119.1 122.9 127 127.9 125.5 119.8 123.9 125.6 125.1 120.3 111.8 110.4 112.7 112 110.9 110.4 111.6 115.2 116.3 117.5 118.1 116.2 109.6 115.1 121.8 124.1 119.6 123.9 130 136.4 140.1 139.5 132.4 126.4 121.5 116.3 109.4 102.9 103 101.9 100.1 98.8 99.6 100.7 106.1 109 109.1 108.4 107.5 104.7 101.9 99.4 96.6 95.1 90 82.1 83.9 88.2 89.6 87.9 88.7 86.4 83.2 81.8 81 80.2 76.3 68.8 62.4 57.7 52.6 53.3 57 60.1 61.3 60.6 57.2 54.4 52.7 52.3 49.6 43.4 33.9 30.2 28.5 27.8 28 26.5 26 26.1 25 26 29.8 33.7 35.9 36.7 34.8 36.4 39.2 41.9 44.2 44.6 40.3 35.2 30.8 28.7 27.7 27.9 27.7 26.7 24.8 21.8 18.8 18.4 19.9 20.2 20.8 21 20.9 21.9 21.1 19 16.9 16.7 16.1
19 28.2 34.2 44.8 46.2 53.6 59.9 61.6 60.6 61.4 60.8 59.5 54.7 53.8 53.7 49.2 50.3 52.3 48.9 51.5 54.9 56.7 58.9 58.5 60.6 64.1 65.8 65.4 67 71.2 72.9 73.1 82.4 87.3 89.9 91.4 91.4 88.1 98.8 101.1 104.7 106 102.8 102.7 98.2 98.3 97.7 94.6 93.7 91 92.6 98.3 96.9 99.2 98.8 100.1 106.6 111.2 108.8 101.2 103 104.9 106 106.8 104.4 101.6 104.3 106.2 108.6 109.4 109.6 109.6 110.2 112.3 117 124.1 129.5 134.6 133.7 127.4 122.9 126.7 127.3 127.1 122.7 114.2 112.3 112.8 112.6 112.4 112.6 115.3 119.2 122.1 124.4 126.2 121.2 112.3 109 116.6 122.9 120.3 121.6 128.5 136.6 140.7 140.6 134.1 128.4 122.6 118.5 112.2 104.2 102.7 102.1 100.3 98.1 97.5 97.8 100.5 104.1 103.2 101.7 101.2 98.9 97.5 96.2 91.1 87.5 81.3 76.6 82 87.9 90.3 89 89.8 91 87.7 85.9 84 82.2 78.9 72 65.1 55.8 52.1 54.2 59 60.1 61.4 61.5 58.7 55.5 54.4 53.1 51.1 47.1 41.3 39 35.3 31.4 32 28 27.9 27.1 26 26.4 27.6 30.6 33.9 35.2 35.2 33.4 37.3 40 43.5 45.8 42.5 36.7 31.5 28.6 27.4 27.2 26.8 26.5 25.8 24.2 20.7 19.4 20.6 20.9 21.3 21.1 21.1 21.9 21.6 18.7 16.7 16.1 16
19.5 29.6 36.9 42.5 48.6 56 63.8 62.5 61.2 61.3 60.7 58.4 55.9 52.4 49.9 49 50.8 48.8 45.9 47.9 54.5 56.8 56.8 60.6 64.4 65 65.6 65.6 66.4 69.2 70.5 78.5 85.6 90.8 94.5 97.3 96.6 94.4 101.1 104.4 104.2 110.4 109.5 104.5 100.9 103.2 99.1 95.4 92.7 92 92.4 93.8 99.6 102 104.4 98.6 108.6 112.6 109.8 104 109.8 109.8 111.4 112.3 109.7 107 109.8 109.2 110.5 111.8 116.6 114.3 111.1 114 123.3 130.5 136.7 137.4 130.8 125.3 122.7 126.7 128.5 127.4 122.3 113.8 113.1 112.9 111.8 112.7 114.4 119.5 124.8 130.1 132.5 130.4 121.7 113.2 106.4 112.9 120.2 122.9 120.3 124.4 130 133.8 137.6 137.9 129.2 122.7 118.8 114.2 105.1 102.6 100.6 98.3 97.4 94.4 95.5 96.8 99.1 97.7 95.5 92.3 89.6 84.7 81.5 75.6 83.4 73 75.5 75.6 84 88.3 88.3 88 89.3 90.5 87.4 84.8 82.1 78.5 73.2 66.5 56.9 51.6 54.3 59.2 59.7 61.2 62 60.1 54.2 48.8 44.8 40.3 41.5 44.2 42.9 41.9 38.3 32.7 29.8 27.9 27.3 26.9 26.6 26.7 28.5 30.6 32.3 33.2 31.5 35.5 37.6 40.6 44.8 44.4 38.6 32.5 28.6 27.1 26.7 27.1 27.9 28.6 28.5 25.5 21.3 21.2 21.4 21.4 21.1 21.1 21.6 21.3 18.4 17.3 16.8 16.3
12.1 36.1 43.3 45.1 53.1 58.5 64.7 61.3 60.2 60.2 59.9 58.1 55 49.7 51.7 47.1 50.7 47.3 45.6 52.6 55.3 54.1 60.8 63.4 64 65.5 65.6 66.1 67 68 72.7 81.8 86.8 92 96.3 100.8 101.1 97 104.5 103.3 109 110.7 113.7 113.3 108.8 105.7 100.3 95.5 93.1 92.8 93.2 96.5 101.6 108.4 101.8 99.3 106.4 111 109 111.3 117.6 121.5 118.9 117 115.7 116.1 114 111 115.8 120.3 122.1 123.4 116.7 120.7 128.3 134 135.8 132 125.8 121.8 121.2 125.9 127.1 124.3 117.2 112.2 112.7 112.4 113 113.9 119.1 126.5 132.8 134.8 134.3 126.3 118.9 111 104.2 109.9 116.5 120.7 123.8 121.2 124.6 128.5 131.5 133.1 131.5 123.8 118.9 113.7 106.8 101.7 98.6 97 94.4 94.8 91.3 95.8 83.8 97 95.9 81 80 87.8 91.4 89.9 82.8 76.8 70.4 59 78.2 83.4 85.2 84.5 85.6 86.8 86 83.7 80.9 76.3 69.7 63.8 59.4 52.4 52.6 58.7 59.4 60.7 59.8 48.6 41.8 37.3 36.1 35.5 34.9 34.7 38.5 42.8 41.9 36.1 31.1 29 28.1 27.4 27.2 27.1 26.5 28.1 29 30.7 29.1 31.8 33.3 36.5 40.7 43.3 40.5 33.7 28.1 26.8 26.4 27.6 30.9 32.2 33.5 32.2 25.2 21.8 21.9 21.7 21.2 20.9 20.8 20.6 18.8 17.7 17.5 17
-2.1 11.8 48.3 51.5 55.4 62.1 62.4 58.8 60.5 59.2 59.2 55.3 48.7 46.9 51.6 48.6 49.9 48.7 47.3 52.2 51.3 56.7 63 63.5 64.2 65.2 65.7 66.2 66.5 67.1 74.8 82.3 88 93.8 99 106 102.6 98 104.8 106.5 113.3 117.1 117.5 116.5 113.7 110.2 101.6 94.9 94.7 94.7 94.2 96.3 96.2 103 102 99.9 102.1 108.5 111.7 116.4 124.7 130.2 131 127.5 123.8 120.6 112.9 116.6 122.7 129.7 133.6 130 122.7 124.6 128.2 131.3 132.2 126.5 121.6 118.4 119.5 122.7 123.3 117.8 111.8 111.7 111.5 111.5 113.9 118 124 131.1 135.1 130.7 127 120.5 114 107 102.4 104.8 112.1 117.3 120.7 121.6 119.1 123.1 124.6 125.6 126.3 123 118.6 112.5 107.2 103.6 101.7 98.5 95.3 87.1 87.4 93.1 96.7 98.2 95 93.2 91.5 91.9 89 86.3 81.2 76.7 75.1 71.8 56.7 78.5 80.8 81 80.9 81.2 81.3 79.5 75.6 63.7 54.4 46.7 45.1 46.9 49.5 54.7 58.1 50.5 44.2 39.7 37.9 36.8 36 35.4 34.7 34.2 33.3 33.5 38.5 38.7 32.6 30.7 29.3 28.3 27.7 26.7 25.3 24.6 23.8 23.3 22.9 24.3 29.2 31.7 36 40.3 39.4 34.4 28 25.5 25.1 27.4 32.5 35 35 33.1 28.6 23.6 21.5 21.1 20.6 20.7 20.6 19.7 18.9 18.1 17.9 17.7
-2.1 11.6 46.8 52.5 54.8 59.9 59.7 56.8 58.4 57.9 57.2 53.4 46.4 48.1 50.5 48.4 43.9 45.6 48.1 49.2 54.8 60 63.2 64.2 64.8 65.1 65.8 65.7 66.7 70.2 78.7 84.1 88.7 93.8 102.3 107.7 101.6 99.9 109.2 112.8 114.5 119.9 118.8 117.6 114.5 112.6 102.7 98.6 95.7 95.3 100 98.6 104.9 106.5 102.3 100.5 101.4 106.3 111.3 118.9 127.3 132.7 133.1 130.1 126.6 122.8 119.1 123.5 131.8 136.4 134.5 128.6 123.1 121.7 124.6 128.6 127.4 121.5 117.7 113.5 117.3 120 117.4 111.3 109.8 110.2 110.5 112.6 117.6 120.9 122.5 130.7 131.3 126.3 118.3 113.5 105.1 103.1 101.7 101.2 107.2 112.5 114.9 115.2 112.5 117.2 118 119 118.9 117.8 115.7 111.2 110.2 107.5 104.6 98.4 88.8 94.5 95.4 96.4 99.8 101.2 98.4 96.6 93.2 93.3 91.5 88.9 87.3 81.5 80.2 75 55.9 72.3 77.8 77.5 68 68.7 72.4 71.4 63.7 51.8 45.2 44.2 43.4 42.5 41.8 41.3 40.5 40.1 39.2 37.8 37.1 36.5 35.8 34.7 34.3 33.6 33 32.5 32.2 35.7 33.1 30.6 29.2 27.9 27.4 26.6 25.3 24.3 23.6 23.8 23 22.2 22.1 25.6 30.5 35.8 36.8 33.1 28.3 23.6 23.7 24.8 30.6 35.4 34.7 32.3 28.9 23.6 19.9 16.6 16.4 16.3 17.2 17.4 18.1 18.3 18.1 17.9
-2.1 -2.1 -2.1 46.8 52.4 56.6 55.7 54.1 56.2 56.3 54 44.6 48.1 49.2 49.2 41.8 43.5 44.3 44.5 51.4 54.6 60.3 61.5 64.7 65.2 65.8 65.9 66.2 66.5 72.4 78.6 84.4 88.4 95.2 106.2 105.4 99.4 103.9 111.2 114.5 119.7 124.1 124 119.9 114.8 112.9 104.6 101.4 97.4 101.3 97.2 100.9 107.1 106.7 105.8 104.8 101.7 104.5 109.6 117.5 125.2 131.9 131.7 129 127.5 125.7 123.2 125.8 132.4 135.8 133 127.8 121.3 116.7 121.8 125.1 122 116 111.3 112.7 115.3 115.8 112.2 108.8 108.9 109.3 110.7 115.9 118.8 119.1 120.9 126.7 125.9 120.5 111.1 107.7 112.6 111.3 104.3 100.7 100.6 106.6 108.2 107.9 109.1 110.2 110.3 110.2 111.1 111.8 111.8 110.8 109.8 101 98 94.2 98 102.9 103.3 100.6 101.1 100.9 98.2 95.8 93.3 92.8 92.4 90.9 87.9 83.2 79.2 76.1 60.8 53.4 71.5 64.8 50.5 49.6 59.8 66.7 59.2 46.2 46 45.8 44 43.2 41.8 40.6 39.8 38.6 38.1 44.3 45.4 39.5 42.4 42.7 37.4 35.4 33.9 32.7 31.9 30.9 30.3 30.5 29.2 27.8 27 26.3 25.1 24.5 26.5 26.9 24.7 22.5 20.8 21.2 23.9 29.9 32.8 31.2 27.5 22.5 21.1 22.7 27.1 33.2 33.6 30.2 27.3 23.7 18.8 12.6 11.3 11 12.3 15.7 18.7 18.4 17.9 17.5
-2.1 -2.1 -2.1 35 46.1 50.6 50.1 50.7 52.3 51.3 45.6 50.3 48.5 44.4 37.1 40.3 45 39.8 49.3 52.4 54.4 59.1 63.6 63.3 64.6 65.8 67.4 65.6 67 72.4 77.9 83.7 91.8 100.3 105.5 101.7 98.5 103.5 111.1 116.5 118.9 124.9 125.8 118.5 115.5 111.5 105.4 99.7 102.2 101.9 101.9 101.8 105.3 106.9 109.4 105.6 104.9 103.3 109.8 114.7 121.8 128 128.5 126.8 127.2 125.6 123 124.1 130.2 132.9 130.9 126.1 118.5 115.6 120.3 120.9 116.9 110.6 107.8 111.1 112 111.1 108.8 108.3 108.6 109.4 114 117 115.8 115.7 115.4 120.9 119.1 111.4 107.9 115.1 117.2 114.3 107.9 101.5 101.4 101.5 100.8 102.5 104 104.4 104.8 105.6 107.2 108.3 108.8 106.3 94.3 97.7 102.4 104.9 107.7 107.4 108 105.6 102.7 99.2 96.8 94.9 93.6 92.4 91.3 91.4 87.8 85 81.5 80 77 62 53.8 52.1 72.7 66.9 51.5 49.9 45.7 51.4 52.3 51.1 47.5 44.8 44.3 42.4 41.5 44.2 48.5 47.3 48.8 52.5 51.7 52.5 46.3 42.4 38.4 35.1 32.7 30.6 29.8 29.6 29 27.7 26.7 25.9 25.7 26.2 30.2 29.2 26.3 23.2 20.9 20.1 20.3 22.6 27.4 27.3 24.9 21.4 20.6 21.4 23.7 29 31.9 29.2 25.7 22.4 18.4 13.7 10.5 10.3 13.4 17.4 18.6 18.5 18 17.5
-2.1 -2.1 -2.1 -2.1 -2.1 42.8 45 47.4 47.4 45.7 44.1 44.5 39.5 35.3 32.7 37.4 41.1 46.4 49.4 52 52.1 57.6 60 63.2 65.6 66.2 66.3 64.5 67.2 71.9 77.4 85.1 92.8 100.6 101.6 96 98 105.1 111.3 117.5 120.8 126 127 122.5 117.5 110.5 103.7 99.7 107.4 108.8 110.6 106.2 112.6 106.9 109.4 109.7 107.1 103.5 107.6 113 118.2 122.3 123.9 125.5 126 122.9 121.6 123 128 129.1 128.2 124.2 116.1 114.4 117.7 116.7 112.2 106.8 107.3 109.9 110.1 109.5 108.3 107.9 108.2 110.8 115 114.3 111.8 111.1 113.5 114.2 112.2 105.3 112.2 117.6 117.4 113.2 107 100.3 99.7 98.7 97.7 98.6 100.6 98.9 97.8 99.7 103.4 104.8 101.5 94.8 99.4 106.6 109.1 111.9 112.9 110.9 110.6 109.8 107 100.4 99.3 100.3 96.4 94.6 93.7 91.8 90.6 89.3 84.7 81.6 78.9 75.1 71.3 70.9 76.3 76.2 71.3 57 57.3 60 60.4 57.6 50.6 46.8 47.9 45.3 47.8 52.7 55 56.2 59.7 62.6 62.8 62.5 61.1 57.3 46.1 40.8 37.4 33.4 29.7 29 28.5 27.5 27 26.2 26.1 27.4 27.9 28.4 27 23.3 20.4 19.7 19.1 19.4 22.7 24.7 23.9 22.3 19.1 19.5 22 25.4 28.7 28.2 24.9 21.8 18 13.5 10.3 10.8 13.5 17.9 18.3 18.4 18.1 17.5
-2.1 -2.1 -2.1 -2.1 -2.1 -2.1 37.3 41.2 40.5 39.7 36.8 39.9 38.2 32.6 27.3 40.6 43.7 45.9 49.9 51 55.5 55.6 57 59.3 61.5 63.7 64 63.7 67 69.9 80.2 86 92.8 97.9 97.8 92.8 93.8 104.6 112.2 117.3 123.2 126.6 126.9 120.7 116.4 109.9 102.9 101 108.6 111.6 111.6 110.2 111.2 108.6 111.9 112 108.3 104.4 106.9 111.6 115.1 117.8 120.6 123.9 124.9 121.7 121.9 121.1 126.1 126.4 124.1 120 115.4 113.9 114 111.7 108.6 106 107.3 108.8 109.2 108.8 108 107.3 107.2 112.3 113.4 110.1 108.4 111.5 112.6 110.4 105.4 107.2 113.9 115.9 114.3 110.1 103.2 98.9 97.9 97 99.3 97.3 96.6 95.5 95.1 97.2 97 99.3 94.2 106 109.9 115.1 115.5 117.3 117.2 115.8 113.2 112.2 108.9 103.7 105.6 103.1 97.8 95.6 96.3 95 93.6 92.1 88.2 82.9 80 77 69.3 73.6 77.3 78.6 78.5 74 69.1 67.6 69.2 64.5 56.7 51.2 50.1 49.6 54.7 59 63.7 66.1 68 69.7 70.4 70.4 67.8 62.5 58 53.3 46.5 40.6 36.4 30.4 29.1 28 27.9 27.8 28 28.1 27.1 26.6 26.1 25 21 19.9 18.6 18.4 20 23 22.4 21.1 19.1 17.4 19.6 21.5 23.7 25 23.6 21.3 18.3 12.5 9.7 10.9 11.1 15.6 18.3 18.4 18.1 17.5
-2.1 -2.1 -2.1 -2.1 -2.1 -2.1 29.6 33.4 33.3 13.6 33.1 38 40.2 39.8 35.9 42.3 47.8 48.8 49.5 50.6 51.7 53.5 57.8 60.9 61 65 64.7 66.8 69.4 73.3 83.5 86.9 92.7 94.8 94.2 91.8 98.7 108 112.4 120.6 123.7 126.9 126.1 124.6 116.8 108.1 103.6 101.5 104.7 110.6 110.9 111.4 111.9 111.2 113.7 110.9 107.7 106.1 107.1 109.9 111.9 114.3 118 121.4 122.4 122 124.1 119.7 123.7 123.2 120.3 116.1 113.6 112 110.7 108.1 106.8 106.7 107.5 108.3 108.4 108 106.9 106.1 106.6 110.3 109.4 105.6 106.1 108.4 108.6 106 102.1 108.2 111.4 112.5 110 105.2 99.1 96.3 96.1 96.7 96.4 95.2 94.6 94.9 94.6 96.4 94.1 96.7 101 110.6 112.6 117.1 120.6 123.9 121.3 119.1 117.3 115.7 113.2 110.8 109.5 105.9 99.8 98.3 99.1 98.7 97.3 95.8 91.9 84.1 80.8 78.7 75.4 77.3 79.5 81.8 82.9 83 82.5 76.3 78.9 75.3 64.7 59.9 55.7 56.5 62.7 68.3 72.6 73.1 73.7 75.5 76.3 74.7 72.1 70.7 66.4 60.6 54.1 46.7 38.2 32.7 31.9 30.5 29 28.5 28.4 28 26.9 26.4 26 24.5 22.7 19.6 18.2 17.8 20 22.3 21.8 21.4 20 17.8 16.4 19.8 20.3 21.2 21.7 19.2 17.4 12.1 9.8 11.1 11.4 13.4 18.4 18.4 18 17.5
-2.1 -2.1 -2.1 -2.1 -2.1 -2.1 -2.1 29.2 2.4 10.2 32.5 36.3 39.8 23.1 42 47.5 48.7 50.8 50.1 52.7 55.1 57.5 60.3 62.5 61.2 66.5 64.6 67.1 70.7 75.7 80.9 87.3 90.4 94.2 91.9 90.6 97.6 106.8 111.9 120.1 126.1 130.3 126.2 121.7 114.7 109.6 104.6 111.1 112.8 111.2 110.8 110.4 110.7 112.1 112.2 110.2 108.3 107.8 107.9 109.8 110.3 111.4 116 119.5 119.9 123.1 123 119 121.2 118.1 114.4 113.5 111.7 109.3 106.8 106 105.6 106.5 107.7 108.3 108.7 107.9 106.8 105 104.4 105.8 104.9 102.7 103.2 104 103.1 100.3 102.3 105.2 107.1 106.9 104.4 98.5 96.3 97.5 96.3 95.3 94.7 94.9 94.9 95.8 95.7 98.5 99.7 102.6 108.5 113.9 117 120.9 127.1 130.5 125.6 123.1 121.8 120.5 119.3 116.4 113.4 109.6 104.5 101.6 102.1 102.7 101.8 100.2 96.3 90.1 86.3 79.3 79.9 79.9 81.9 84.8 86.1 88.4 88.3 87.8 87.3 81.6 73.8 68.8 63.3 65.7 69 75.1 80.6 81.1 80.6 80.1 80.1 81.6 80.2 79.5 76.2 72.4 61.5 54.8 45.3 38 33.6 31.7 30.1 29.1 28.5 27.9 26.8 26.1 25.7 24.8 23.1 20.7 18.6 17.7 18.6 22.6 21.5 21.2 19.4 16.7 15 15.8 19.1 19.5 18.5 15.6 12.6 10.4 9.9 11.3 11.1 15.3 18.5 18.3 17.9 17.6
-2.1 -2.1 -2.1 -2.1 -2.1 -2.1 -2.1 -2.1 -2.1 6.4 28.4 30 29.8 40 45.2 48.5 53.2 54.1 54.7 55.7 55.7 60.5 60 62.1 61.6 65.5 65.5 66.4 69.6 74.6 79.5 86 90.1 91.1 89.6 89.8 97.4 102 112.9 121.8 127.2 130.2 128.1 121.8 114.9 111.9 105.8 116.2 115.1 111.8 110.9 110.5 110.3 110.6 109.9 110.1 109.5 108.5 109.3 110.4 112.4 112.8 112.5 115.3 118.9 122.6 118.1 118.6 117.5 113.4 111.7 110.7 109.1 106.9 105.5 105 104.9 106.6 107.8 108.7 109.6 108.5 107.2 105.1 103.3 102.8 101.2 100.5 100.3 99.6 98.6 98.4 99 100.5 101.4 100.4 97.2 96.4 97.4 96.4 96 95.9 95.1 95 97.9 99 100.2 99.5 100.1 107.3 111.5 117.5 122.4 126.7 135.6 137.6 134.3 131.4 127.5 126.8 125.2 121.4 117.6 113.2 109.3 104.6 106.2 106.2 105.4 103.3 98.7 93.7 89 82.2 82.6 83.8 85.8 88.7 91.7 92.1 94.7 93.7 93.1 90 81.9 78 74.2 75.8 78.6 85 87.7 86.3 85.9 85.1 84.9 85.2 86.8 86.4 84.3 81.5 74.3 64.4 53.5 45.7 36.6 32.9 31.2 30.5 29.6 28.5 27.7 26.6 25.2 24 22.3 21 18.7 18.2 16.9 18.2 19.3 19.1 16.2 14.9 14.1 13.5 13.2 15.1 16.4 13.7 11.3 10.7 10.3 11.3 11.4 14.8 18.1 17.9 17.7 17.4
-2.1 -2.1 -2.1 -2.1 -2.1 -2.1 -2.1 -2.1 -2.1 2.5 19.3 18.9 31.9 42.2 48.1 49.7 55.8 54.7 55.4 56 60 61.4 63.7 63.3 64.5 67.6 65.6 66.9 70.5 71.9 78.6 86.8 89.1 89.2 88.4 94 99.7 102.9 113.8 122.4 127.5 128.2 128.1 122 115.7 112.6 108.4 117.5 114.7 110.4 109.9 110 109.7 108.5 111.5 114.5 114.3 111.3 110.2 112 115.6 115.2 112.9 113.4 117.1 117.8 113.8 114.3 112.9 110.1 109.2 108.5 107.5 106.9 107.6 104.9 103.2 106.7 108.2 109.6 110.7 110.2 108.2 104.7 103.2 102.1 101.4 100.3 99.9 99.5 98.2 97.9 97.5 97.4 97.3 97.9 96.8 99.1 99 98.7 100.5 96.1 96 96.1 100.2 100.2 102.2 105.4 104.2 108.8 114.5 119.9 126.6 131.9 133.3 133.6 131.4 129.6 127.9 127 127.3 126.2 121.7 117 112.8 108.8 110.4 109.4 108 106.6 101.2 96.2 89.8 85.7 86.1 87.5 90.5 93.6 95.8 97.5 97.1 97.4 95.8 97.6 95.3 89.8 86.1 86 88.7 95.3 95.8 94.3 93.4 90.8 89 86.8 88.4 88.6 87.8 86.5 80.9 72.5 62.3 51.6 46.7 37.7 33.7 32.4 31 29.4 28.8 27.7 26.2 24 23.2 22 19.7 19.2 18.6 16.3 17.4 15.8 15 14.4 13.9 13.4 12.9 12.3 12.1 12.7 11.2 10.4 10.1 10.7 13.1 16.9 17.9 17.6 17.4 17.2
-2.1 -2.1 -2.1 -2.1 -2.1 -2.1 -2.1 -2.1 -2.1 -2.1 -0.3 28.3 35.4 44.1 49.4 51.7 55.1 56 57.7 56.4 60 62.9 65.7 67.4 68.1 69.3 66.5 67 70 69.7 74.2 85 87.4 87.4 88 92 96.3 104.9 113.7 120.4 123.4 126.9 128.3 118.8 116.7 113.3 109.7 115.4 113 111.1 110.3 109.5 109.6 112 115.9 119 119.4 116 113 114.2 115.9 115.2 114.3 112.6 113.8 111.7 111.3 111 109.7 108.3 107.2 106.9 106.7 107.1 106.7 104.2 102.4 105.9 108.2 110.2 111.8 112.4 109.9 106.2 105.2 103.3 101.7 101.2 100.5 99.2 97.8 97.5 97.4 97.1 96.6 97.9 98.9 100.1 98.1 98.2 97.4 97 99.4 104.7 105 104.2 103.5 104.6 104.8 111.5 116.5 121.2 128.2 128.8 128.8 129 127.4 125.2 123.2 123 127.6 128.6 125.9 120.8 117.2 115.4 113.9 112.3 111.9 110.9 106.3 100.5 93.9 90.9 89.7 92.3 94.9 97.1 97.3 97.9 99.6 100 97.3 98.1 100 98.1 95.5 99.2 99.1 97.3 97.5 98.5 98.4 96.9 94.2 90 87.4 88.2 86.8 85 82.9 79.6 68.6 62.6 56.1 45.8 37.6 34.8 34.2 32.6 30.2 28.5 26.2 23.9 22.5 22.2 20.4 21.8 23.5 23.2 18.3 16.6 14.7 14.5 13.9 13.3 12.8 12.1 12.2 12 11.2 10.1 9.9 10.3 12 17.3 17.8 17.6 17.3 17
-2.1 -2.1 -2.1 -2.1 -2.1 -2.1 -2.1 -2.1 -2.1 -2.1 24.6 27.2 33.2 43.2 49.8 50 51.9 58.2 61.8 56.7 58.7 63.7 67.8 68.7 69.5 70.6 68.2 67.2 70.7 71.2 76.5 83.7 85.6 85.9 87 92.4 97.4 105.3 109.9 117.8 124 126.2 123 119.4 118.6 114 111.6 112.4 112.2 112 113.3 109.3 110 114.8 119.4 123.7 126.1 119.6 113.8 115.3 117.8 115.6 114.7 112.8 111.1 109.3 108.8 107.9 106.8 105 104.4 106.9 109 108.2 108.1 104.3 106.4 102.4 105.9 108.6 113 113.5 113.6 112.6 111.3 106.7 102.4 101.8 100.2 98.8 97.3 96.6 97.2 97.1 96.9 100.4 100.1 99.4 97.3 98.3 100.4 106.4 108.3 108.7 109.2 107.6 104.5 104.8 106.6 111.4 116.2 120.5 123.3 123.6 124.5 125.1 123.4 122.1 119.9 125.6 132.9 129.2 128.5 125.6 122.2 119.9 120 119 117 116 111 105 97.8 97.4 96.9 95.3 94.2 96.7 96.8 96.6 97.6 98.5 97.9 95 97.1 96.7 95.1 97.6 97.8 96.5 95.2 96.7 100.1 101.5 99.1 93.2 87.6 85.9 84 82.1 80.3 78.8 74.4 66.4 54 43.6 39.6 39.7 42.1 37.8 34.4 29.5 27.8 24.2 23.6 22.1 21.9 20.8 23.6 24.8 21.9 20.3 17.6 14.8 13.9 13.2 12.5 11.9 11.4 11.2 10.9 9.7 9.7 10.1 11.3 17.3 17.7 17.5 17.3 17
-2.1 -2.1 -2.1 -2.1 -2.1 -2.1 -2.1 -2.1 -2.1 -2.1 19.2 24.9 33.1 41.5 45.6 49.8 53.3 60.8 65.1 57.7 59.2 62.9 67.7 69.1 70.7 71 69.8 68.4 73.8 74.7 78 80.8 83.5 85.3 87.7 91.1 99.5 104.9 109.8 111.6 122.4 123.7 117.6 122 122.4 115 111.2 112 112.3 112.1 111 110.3 111 117.5 126.2 131.2 124.8 119.6 115.4 118.8 121.6 120.1 113.8 111.4 110.6 108.8 107.9 105.3 103.5 102.9 103.7 110.2 109.1 109.1 107.6 105.6 106.2 98 103 106.1 110.3 113 115.4 115.6 113.6 108.7 105.4 102.6 100.6 98.7 97.7 97.8 97.8 97.8 99.4 99.5 99.1 98.3 99 105.7 108.6 110.5 111.8 112.1 112.1 110 105.1 106 107 108.6 114.6 117.5 118 118.1 118.7 119.8 119.7 119.2 121.5 125 128.2 128.8 126.9 124.8 123.9 123.4 125.3 125.5 121.9 121 113.9 105.4 101.9 103 102.1 99.7 96.1 93.3 95 94.7 94.4 94.8 94.8 92.5 90.7 91.7 91.1 92.9 93.4 92.9 93.3 92.5 95.8 102.1 102.4 97.8 91.5 85 80.3 79 76.9 70.2 59.8 53.5 50.5 48.2 47.4 50.4 49.6 44.7 38.4 33.6 30.3 27.4 24.7 24.7 24.8 23.2 22.5 25 24.2 21.3 19 14.7 13.7 12.9 12.1 11.7 11.1 10.6 10.3 9.6 9.5 9.9 10.8 14.1 17.1 17.4 17.3 16.6
-2.1 -2.1 -2.1 -2.1 -2.1 -2.1 -2.1 -2.1 -2.1 -2.1 18.1 22.7 31.7 37.6 41.5 48.9 54.2 62.4 63.2 57.4 59 62.5 66.2 67.4 70.1 71.1 67.9 72.9 79.4 74.4 76.7 79.1 82.8 83.4 87.8 92.4 99.6 104.8 107.7 111.2 120.2 119.8 118.5 125.8 124.9 116.9 114.8 113.5 117 119.6 116.5 112.5 113.4 121.4 132.5 127.4 122.1 118.3 119.5 127 130.3 123 116.3 111.9 109.8 108.2 105.5 102.2 99.8 101.2 102.4 109.3 108.5 108.8 107.9 100.8 97.4 95.7 102 105.2 106.9 110 115.2 116.6 112.9 108.6 106 103.7 101.3 98.9 99.4 98.9 98.7 99.1 99.3 99.4 99.9 100.2 104.9 109.3 111.9 114.1 116 116.4 115.1 114.8 110.2 111.4 107.7 107.3 109.3 112.4 113.4 113.9 114.8 114.8 115.7 117.6 121.1 124.2 123.2 123.7 124.1 123.5 122 121.8 123.9 124.9 125.1 122.2 116.2 107.2 107.6 107.6 104.4 101.9 98.2 91.6 90.3 91.6 90.6 90.8 91.2 89.2 86.6 86.8 87.3 87.2 87.9 87.9 87.5 88 91.1 99.3 105 101.5 96.6 88.1 80.6 73.5 74.9 70.6 67.1 63.8 62.4 57.4 54 59.7 58.4 51.3 45.5 38.3 33.9 30.5 27.3 25.3 24.5 24.3 23.6 24 24.7 22.1 19.2 16.1 14.3 12.5 11.8 11.3 10.8 10.3 9.9 9.3 9.2 9.4 9.9 10.7 12.6 14.7 16.8 16.2
-2.1 -2.1 -2.1 -2.1 -2.1 -2.1 -2.1 -2.1 -2.1 -2.1 8 21.3 28.2 37.3 40.9 47.7 54.7 63.7 60.1 55.1 53.7 61.5 63.5 66 69.5 71 69.4 76.6 79.9 74.9 75.8 79.1 80.6 82.6 84.5 90.2 95.3 101.1 106.5 112.7 117.3 115.3 122.8 128 123.6 117.7 116.2 116.9 121.9 120.9 115.9 114.8 116.2 122.8 131.4 124.7 119.6 116.3 124.9 132.7 132.3 122.2 116.5 112.4 108.1 105.5 103.7 101.6 98.2 96.4 99.6 105.4 103.8 106.4 100.3 92.7 94.8 101.4 103.8 103.3 104.6 107.1 110.9 111.3 110.3 107.3 105.3 103.1 100.3 100.5 100.6 100 99.6 99.6 99.4 102.1 101.5 103.5 108.7 112.8 115.4 118.4 120.6 121.4 122.7 124.5 118.7 116.3 113.5 111.8 108.1 106.2 109 111.2 111.2 110.6 111.4 115.2 118.7 118.9 118.8 118.8 119.1 119.8 119.1 118 119.6 121.2 121 118.3 114.1 107.6 111.9 114.6 110.1 104.7 100.3 94.8 88.2 86.7 86.9 86 86.6 85.8 84.3 83.4 83.8 83.6 83.5 83 82.4 84.2 86.7 95.3 102.2 103.7 98.7 92.2 83.6 80.8 82.6 82.1 78 76.3 71.4 67.7 61.1 66 64.9 58.1 50.9 44.3 38.6 32.5 29.2 26.7 24.9 24.1 24.1 23.8 24.1 24.1 22.5 19.2 14.4 13.6 12 12 11.3 10.6 10 9.1 9.1 8.5 9 9.9 10.4 12.5 14.8 15.8
-2.1 -2.1 -2.1 -2.1 -2.1 -2.1 -2.1 -2.1 -2.1 -2.1 -2.1 14.1 27.5 34.3 42.1 47.3 54.7 64.7 57.1 52.2 51.5 59.2 63 65.4 68.5 68.5 70.6 78.8 76.2 70.3 74.2 78.1 79.3 79.8 85 88.2 98 98.1 105.6 110.9 113.2 116.7 126.3 126.7 120.7 118.1 116.5 118.2 120.6 117.4 116 116 116.8 123.5 126 120.7 115.2 115.3 127.1 131.9 128.3 122.3 115.4 111.7 107.4 104.6 105.5 103.7 96.1 89.5 92.2 104.3 101.7 95.2 90.6 98.8 105.5 105.7 102.9 96.2 102.3 104.4 105.5 105.7 105.4 104.5 104.1 102.3 100.4 101.1 103.1 102.8 102.9 101 101.8 101.9 102.6 107 110.8 115.8 119.3 123.4 125.6 128.3 130.2 129.1 123.4 121.4 119.2 116 110.1 103.4 104.4 107.5 107.6 107.3 108 112.2 114.4 114.1 113.1 113.3 114.1 114.6 114.2 113.6 115.1 116.3 117.2 114.8 111.1 107.8 114.3 117.2 111.3 105.4 99.8 94.7 89.2 86 84.4 83.3 82.9 83 82.5 81.5 81.3 81.4 80.8 80.7 81.3 82.1 84.3 90.2 94.6 101.1 99.6 96.8 90.1 85.2 87.7 88.9 84.5 77.7 72.7 68.3 65.5 66.9 69.7 64.7 57.6 50.3 44 38.1 32.6 28.6 26.7 25.3 25.4 25.6 24.6 24.8 24.6 23.7 19.2 13.3 12.1 11.6 11.2 11.5 10.7 9.2 9 8.7 8.9 9.4 9.8 10.9 13.5 15.6
-2.1 -2.1 -2.1 -2.1 -2.1 -2.1 -2.1 -2.1 -2.1 -2.1 -2.1 -2.1 29.6 34.6 40.4 45.3 56.7 61.4 52.6 47.3 54.4 57.8 62.6 65.8 66.1 69.2 72.6 77.2 71.5 68.6 71.5 75.4 77.6 78.4 86.6 89.2 94 94 101.2 106.9 111.7 120 127.5 124.4 119.6 117.3 116.4 117.3 117.9 117.7 117.8 116.7 115.3 122.7 122.6 117.7 110.4 115 125.3 127.7 124.3 119.5 114.1 108.5 105.7 103.9 103.6 102.7 94.2 92.5 86.6 95.4 100.8 92.7 89.4 95.3 105.4 105.8 104.9 96.3 101.6 103.6 102.9 103.6 103.5 102.6 102.7 101.7 102.3 103.5 105 104.4 105 103.8 103.2 102.5 103.8 107.3 111.8 119.2 125.4 128.7 134 137.6 138.5 132.9 128.6 126.1 124 120.8 114.1 106 99.6 101.6 103.4 103.4 104.2 107.3 109 108 106.6 107.4 109.1 109.3 108.6 109 110.1 110.3 111.5 110.6 108.8 107.1 112.7 115.6 110.6 104.2 98.9 93.9 87.2 90.5 84.2 83.4 82.8 82.2 82.2 81.1 80.9 81 80.6 80.4 80.6 81.6 82.7 87.3 90.2 96.2 100.3 100.6 96.1 89.8 88.5 87.9 86 78.3 72.6 68.3 65.2 66 70.5 68.3 62.7 55 48.4 42 35.8 30.5 28.1 26.9 25.6 25.5 24.7 24.5 24.4 24.3 22.9 16.7 12.6 11.2 10.7 10.6 10.7 9.6 9.3 9 8.7 9.1 9.6 10.3 12.8 14.9
-2.1 -2.1 -2.1 -2.1 -2.1 -2.1 -2.1 -2.1 -2.1 -2.1 -2.1 -2.1 20.2 32.2 37.4 44.9 53.4 55.3 46.8 42.1 48.8 56.5 60.9 63.7 64.9 67 72.1 72.8 64.3 64.8 68.1 73.7 75.5 76.7 83.6 89.6 91.6 93.1 98.2 104.6 111.4 120.3 125.3 122.8 121.4 117 114.9 115.8 116.8 117.7 117.7 115.3 115.3 119 117.7 113.6 108.3 114.4 120.1 121.7 121.5 116.8 111.8 107.3 105.6 105.4 102.7 96.8 92.8 90 85.8 90.7 92.6 91.3 89.9 87.9 95.5 106.9 104.5 98.6 92.7 94.2 101.1 103.2 103.9 102.6 103.7 104.3 105.3 106 105.3 105.1 104.9 105.4 105.5 104 104.5 106.7 113.1 123 130.9 134.2 137.2 139 136.1 132.9 129.9 128.4 122.9 119.2 114.4 108.3 100.7 98 98.3 99.3 99.9 102.1 102.5 101.6 99.9 100.2 104.1 104 103.3 103 104.1 104.1 104.4 105 101.9 103.8 110.3 112.4 109 102.9 97.7 92.8 88.5 91.4 90.8 87.9 85.7 84.3 83.7 83.3 82.3 82.8 82.4 82 81.1 80.3 81.4 82.5 85.9 90.1 96.9 100.5 98.6 91.4 87.1 86.9 85.2 78.5 71.3 68.8 65.2 64 68.4 69.8 65.5 58.2 51.7 46.1 39.7 32.4 30 28.5 27.2 25.9 24.5 24.2 24.1 24.4 24.3 21.7 14.3 11.2 10.8 10.2 10.5 10.4 9.6 9.3 8.9 9.3 9.5 11.2 12.8 13.8
-2.1 -2.1 -2.1 -2.1 -2.1 -2.1 -2.1 -2.1 -2.1 -2.1 -2.1 -2.1 -2.1 13.7 2.4 41.5 47.7 48.3 41.4 39.6 45.2 52.2 57 61.5 63.4 64.5 67.8 66.9 61.2 61.5 65.6 68.7 74.4 76.5 81.3 85.8 90 92.7 98.5 104.2 109.7 118.7 122.3 123 121.3 116.1 112.9 114.2 116.1 116.8 116.3 113.7 113.9 115 112.1 108.4 105.8 110.4 114.5 116.8 116.5 112.8 108.6 106 107.9 108.7 104.9 103.4 99.3 92.9 82.8 89 86.3 84.7 87.7 91.5 90.4 91.3 103.3 94.9 91.9 93.2 99.7 104.5 103.9 102.6 105.7 104.7 105.2 105.4 104.8 107.1 106.3 110.8 112.2 111.1 109.2 106.2 114.3 122.3 126.3 128.7 131 131.9 131.3 130.5 127.8 124.7 120 116.2 112.4 108 100.9 96.5 96.5 97.5 98.1 98.6 97.3 97.5 97.8 97.9 97.9 98.8 98.9 99 98.4 98.9 99.5 100.1 100.3 100.4 105.3 109 106.2 101.6 96.7 91.8 92.5 98.9 95.3 92 89.9 90.2 90.4 89.5 85.4 85 85.3 85.1 83.1 81.3 80.1 79 78.6 84.1 90.7 95.7 96.9 93.2 88.2 84.8 84.1 79.9 71.7 68.2 65.2 62.1 64.9 68.4 67 60.2 53.4 47.7 42.3 35.1 30.8 28.7 27 26.4 24.4 23.9 23.6 24.1 24.2 23.1 17.6 12.3 10.8 10.3 9.9 9.9 9.8 9.5 9.1 8.9 9.7 11.8 12.6 12.4
-2.1 -2.1 -2.1 -2.1 -2.1 -2.1 -2.1 -2.1 -2.1 -2.1 -2.1 -2.1 -2.1 -2.1 -2.1 20.6 39.2 38.6 31.2 19.4 41.7 45.5 52.6 58.8 60.5 61.3 60.4 58.7 53.9 59.2 64.1 66.8 74.4 76.2 79.8 84.1 87.8 91.7 97.5 102.4 107.8 114.8 119.2 121.7 117.9 113 111 112.6 113.8 114.2 113.9 110.1 110.3 110.1 106.5 102.2 100.3 104.2 106.5 110.6 110.5 108.4 105 107.2 110.4 109.5 105.2 101 95.5 84.9 82 86.8 91.3 90.5 92.4 98.8 100.9 95 89.3 90.4 91.6 94.2 100.7 104.6 103.2 103.4 103.3 104.4 106 105.4 109.4 112.3 113.7 115.8 116.7 118.4 115.5 108.2 113.1 120 123.5 124.6 125.8 125.7 126.7 127 123.1 119.5 117.1 113.3 110.1 106.4 99.6 96.1 96 97.3 98.6 97.8 97.4 97.5 97.8 98.1 98.4 99 99.1 98.9 98.9 98.7 99.6 100.7 100.9 100.2 100.6 104.9 103.9 99.6 95.2 94 99.3 102.2 100.9 96.4 94.4 95.1 95.6 93.7 90.3 89.7 89.7 86.8 83.8 82.2 81.1 79.9 77.1 76.8 83.4 88.2 93.2 91.4 86.5 83 83 79.9 73.3 67.4 64.1 60.5 61.1 64.6 64.6 60.9 54.5 49 43.2 37.1 32 28.5 27.1 25.2 24.6 24.1 22.2 22.9 23.1 22.7 20.2 15.9 13.6 10.3 10.7 10.4 10.4 9.7 9.4 9.3 8.7 10.2 11.2 11.5
-2.1 -2.1 -2.1 -2.1 -2.1 -2.1 -2.1 -2.1 -2.1 -2.1 -2.1 -2.1 -2.1 -2.1 -2.1 15 34.4 34.1 2.5 20.6 39.1 43.9 49.9 54.6 56.9 55.7 52.1 51.1 47.3 57.5 61.4 64.3 67.4 75 76.8 81.6 86.1 90.4 95 99.7 103.7 109.3 116.4 117.3 112.9 109 109.5 110.1 110.3 109.5 108.1 106.1 107.1 105.4 99.8 93.8 94.4 95.6 97.1 102.8 102 100.9 103.2 108 109.1 104.5 101.8 90.5 78.9 84.5 92.2 99.9 101.6 97.8 95.8 98.1 103.9 96.1 89.5 90.8 92.8 93 100 102.4 104.2 106.8 103.3 104.1 105 107.4 112.2 115.5 118.9 121.4 121.6 124.2 120 110.8 109.2 116.2 119.7 120.9 120.9 121.3 122.4 123.1 119.8 116.2 113.7 110.8 107.4 103.6 97 95.2 95.9 99 98.6 99.5 97 97.4 101 100.4 98.8 99.3 99.5 99.4 99.9 99.3 100.3 100.9 101.1 100.4 100 101.1 101.4 97.8 99.2 100.4 102.4 103.9 103 99.9 98.1 99 99.3 98.1 95.3 92.6 91.7 89.3 86.1 82.9 81.7 80.3 77.4 75 74.6 81.6 87 89.6 86.5 82 81.8 79.9 74 68.2 63.9 59.4 57.1 61.2 61.4 59.7 54.1 48.8 43.5 36.7 33.4 29.5 26.1 24.3 23.8 22.7 20.9 20.6 21.1 21.3 20.2 17.2 14.3 12.3 11 10.7 10.5 10 9.8 9.9 8.6 9.9 9.7 11.8
-2.1 -2.1 -2.1 -2.1 -2.1 -2.1 -2.1 -2.1 -2.1 -2.1 -2.1 -2.1 -2.1 -2.1 -2.1 -2.1 -2.1 -2.1 -2.1 -2.1 -2.1 -2.1 43 47.8 47.8 46.7 10.4 29.4 37.3 51.7 56.2 35.7 59 73.1 74.8 77.3 82.6 87.8 91.1 94.6 99.6 104.9 110.4 110.2 107.5 106.6 107 106.5 105.7 104.2 104.1 103.4 103 98.7 90.3 84.7 86.7 88.8 89.8 92.5 93.8 93.6 101.7 105.2 103.7 99 93.4 79.4 82 99.9 100.4 100.4 100.1 103.2 101.6 102.1 102 96.2 89.6 90.4 91.2 92.8 99 104.5 108.1 107.4 103.7 103.7 104.5 110.1 116.6 121 125.5 127.9 129 127.4 120.6 112.5 107.3 110.2 115.3 116.8 117.2 117.4 117.4 118 117 113.5 110.8 107.9 103.9 98.2 94.7 94.5 99 98.1 99.5 97.6 96.6 99.5 101.1 100.4 98.6 98.7 98.9 99.2 100.3 100.4 100.2 100.1 101.1 101 100.3 100.1 100.5 100.9 102.5 103.2 105.5 105.5 104.1 102.5 100 101.5 103.2 102 99 95.5 94.7 90.6 87.2 84.5 82.2 79.8 76.5 74.5 73.1 73.3 80.3 84.6 86.9 80.8 80.1 79.4 76 69.9 64.3 59.2 54.8 56.5 59.2 58.1 53.6 48.7 43.9 39.2 35.1 30.2 26 22.7 21.9 21.1 19.8 18.2 18.6 19.5 20.4 17.5 14.5 11.2 10.5 9.4 10.8 10.7 10.8 11.2 10 9.7 9.7 10.2
-2.1 -2.1 -2.1 -2.1 -2.1 -2.1 -2.1 -2.1 -2.1 -2.1 -2.1 -2.1 -2.1 -2.1 -2.1 -2.1 -2.1 -2.1 -2.1 -2.1 -2.1 -2.1 41.2 40.8 40.6 7.6 1.3 1.9 1.8 3.2 5.9 8.1 14.2 46.3 49.8 55.7 77.8 83.3 87.8 90.2 94.1 98.4 102 101.6 102.6 104.5 104.4 103 101.7 99.9 99.7 99.9 97.3 91.7 82.7 77.8 80.1 83.3 84.3 84.8 84.2 90.9 96.8 98.5 97.2 90.3 86.8 74.3 91.3 100.7 101.6 101.5 97.6 98 100.9 103.6 104.6 97.6 91 90.8 91.8 95.3 102.4 108.4 108.4 107.7 103.9 104.2 106 115.7 123.1 128.2 127.6 130 129.6 122.9 117.7 111.8 104.6 106.6 110.8 112.6 113.7 113.6 112.8 112.2 112.1 110.2 107.5 104.6 99.7 94.6 94 94.8 97.1 96.4 96.3 96.3 99.6 101.9 100.8 99.6 98.7 98.7 98.9 100.9 99.9 100.1 100.2 100.5 101 100.9 100.4 100 100.7 102 105.9 105.2 106.6 106.6 105.3 102.9 101.4 104.5 106.2 104.2 100.9 97.1 95.4 92.9 88.4 85.4 81.8 80.3 77.3 75.2 73.5 72 73.9 79.9 84.5 81.3 78.1 78.3 77.7 71.9 64.6 59.8 54.1 52.3 56.5 56.8 53.7 48.4 43.5 39.2 35.2 31 26.4 23 19.9 19.7 18.5 16.8 16.9 17.9 18.7 18.2 15.6 11.1 11.9 12.9 12.7 12.4 11.8 10 10 10.1 9.9 9.8
-2.1 -2.1 -2.1 -2.1 -2.1 -2.1 -2.1 -2.1 -2.1 -2.1 -2.1 -2.1 -2.1 -2.1 -2.1 -2.1 -2.1 -2.1 -2.1 -2.1 -2.1 -2.1 -2.1 -2.1 8.7 -2.1 -2.1 -2.1 -2.1 0.9 2.5 3.4 5.7 6.4 12.5 24.5 64.3 75.3 81 85.3 88.7 92.5 94.6 95.3 97.8 102.2 101.6 98.9 97 95.3 95.3 94.7 91.5 86.2 79.7 72.1 72.1 75.6 77 76.6 77.8 84.5 88.6 91.4 82.1 79.5 72.1 82 99 99.9 100.3 96.5 96.7 97.4 98.3 103.7 103 95.9 90.9 91.8 94 100 106.7 108.4 108 107.2 104.8 107.7 113.8 124.9 127.3 126.1 124.7 125.9 124.6 119.5 115.1 110.3 103.2 104.1 105.6 107.8 108.2 107.4 108.4 107.8 106.5 102.7 101.3 98.2 94.5 93.3 94.5 94.3 95.7 99 99 101.5 101.8 100.9 100.3 99.7 99.2 98.9 99.1 99.6 99.9 100.2 100.3 100.8 100.8 100.8 100.5 99.5 101.3 102.8 105 105.9 106.3 106.5 105.3 105.8 105.9 106.9 106 104.3 101.5 98.6 94.7 91.9 87.1 86.1 83.1 81.1 79.1 76.5 73.5 71.7 70.7 75.9 80.3 81.4 77.1 76.5 76.1 74.2 65.5 59.7 53.6 50.1 52.2 55.2 52.8 48.5 43.3 38.4 34.9 31.4 27.5 23.6 20.5 18.2 17.2 15.5 15 15.7 16.6 18.1 13.7 11.2 14.9 15.6 15.3 15.3 14.7 13.5 10.4 9.7 10 9.6
-2.1 -2.1 -2.1 -2.1 -2.1 -2.1 -2.1 -2.1 -2.1 -2.1 -2.1 -2.1 -2.1 -2.1 -2.1 -2.1 -2.1 -2.1 -2.1 -2.1 -2.1 -2.1 -2.1 -2.1 -2.1 -2.1 -2.1 -2.1 -2.1 -2.1 -2.1 1.5 2.2 3.5 5.1 7.5 24.1 67.6 72.7 78.7 83.5 90.6 92.4 89.1 91.4 97.7 97.4 94.8 92.4 91.1 92 89.6 86.4 85 84.8 78 66.1 66.2 68.5 67.9 72.9 77.7 78.7 73.1 66.7 67.9 84.7 97.8 100 101.4 99.2 97.2 96.3 96.8 100.9 104.4 100.7 92.3 91.8 91.7 94.3 99.5 106.2 108.8 108.4 108 106.7 111.6 119 124.9 122.6 120 118.3 117.4 117.9 115.3 111.7 107.5 101.3 101 101.1 101.2 101.4 101.9 103.3 103.2 99.7 96.5 94.3 93.2 92.4 91.8 92.7 95.2 99.5 102.3 103.3 103.1 100.4 99.6 99.5 100.1 99.8 99.3 99.4 99.7 100.1 100.3 100.5 100.5 100.6 100.6 100.8 99.7 101.1 103.2 104.9 106.2 106.2 107 106.8 107.1 106.7 106.9 105.7 104.2 101.6 97.6 93.5 90.2 87 85.2 83.5 80.1 80.7 79.1 75.9 72.4 70.4 72 77.6 80.1 77.5 74.8 73.5 71.7 65.9 59.7 53.5 49.3 48.1 51.9 52.4 48.6 43.4 38.3 33.5 29.9 27.7 24.2 20.3 16.6 16.3 16.1 13.9 13.5 14.1 17.7 12.6 11.6 16.3 18.2 17.5 17.2 16.5 15.4 13.2 10.4 10.1 9.7
-2.1 -2.1 -2.1 -2.1 -2.1 -2.1 -2.1 -2.1 -2.1 -2.1 -2.1 -2.1 -2.1 -2.1 -2.1 -2.1 -2.1 -2.1 -2.1 -2.1 -2.1 -2.1 -2.1 -2.1 -2.1 -2.1 -2.1 -2.1 -2.1 -2.1 -2.1 -2.1 -2.1 -2.1 2.9 5.2 8.7 30.2 68.1 74.4 83.4 89.9 96.3 89.2 83.5 91.4 90.8 89.2 87.7 87.1 86.2 85.8 85.5 85.1 82.5 72.5 64.6 61.2 62.6 63.1 62.7 63.5 63.8 64.8 76.9 86.6 88.7 94.8 100 100.6 99.5 98.8 95.9 96.7 102.5 102.9 99 92.6 91.8 92.4 94.1 98.8 105.3 107 109.2 108.5 108 113.6 120.2 120.9 117.1 114.4 112.8 112.1 111.6 110.1 108.5 104.9 101.6 99.8 98.7 98 97.5 97.8 99.1 97.7 96.6 95 93.2 92.2 91.9 92.6 93.4 97 102.5 104.8 107.4 108.1 106.7 105.7 101 99.7 100.1 99.8 99.5 99.9 100.2 100.6 100.6 100.6 100.6 100.6 100.6 100.2 101.1 103.8 104.9 105.6 106.1 107.2 107 106.8 106.8 106.4 105 103.5 100.3 95.8 92.9 92.2 87 83.6 82.7 80.5 80.8 80.9 78.4 75.4 72.2 70 76.1 80 78.3 74.7 72.4 69.8 65.8 59.9 53.4 48.1 44.8 48 50.8 48.4 43.7 38.1 32.7 28.7 26.1 23.8 20.2 16.5 14.7 15.9 14 12.8 11.7 12.3 11 15.5 18.5 19.3 19.2 18.1 17.1 16.4 14.5 10.2 10 10.1
-2.1 -2.1 -2.1 -2.1 -2.1 -2.1 -2.1 -2.1 -2.1 -2.1 -2.1 -2.1 -2.1 -2.1 -2.1 -2.1 -2.1 -2.1 -2.1 -2.1 -2.1 -2.1 -2.1 -2.1 -2.1 -2.1 -2.1 -2.1 -2.1 -2.1 -2.1 -2.1 -2.1 -2.1 0.6 1.9 7.2 24 64.2 71.6 82.1 86.6 88.8 83.2 83.5 86.2 85.8 85.4 85.6 85.6 82 85.4 85.4 85.1 84.7 79.3 70.3 61.1 58.1 57 58.2 65.4 73.2 77.5 81 81.2 84.7 90.2 97.7 100.5 100.4 99.4 96.9 96.2 98.1 97.6 94.8 92.1 94.3 95.4 98.1 100.2 102.1 108.3 109.1 108.3 109.1 115.1 116.6 115.4 113.1 109.2 107.9 106.7 106.2 105.6 102.9 102.5 101.5 99.4 97.7 97.2 96 95.8 96 96.2 95.4 93.9 92.3 92 92.8 93.4 94.6 99.6 105.1 108.5 110.8 112.7 113.3 109.5 105.7 101.9 100.4 100 99.8 101.8 103 101.5 101.2 101.1 100.9 101 101 100.6 101.4 104.1 104.9 105.8 107.4 106.8 106.8 107 107.2 106.6 105 102 98.1 94.7 92.3 90.6 87.5 84.3 80.8 80.5 79.4 81.2 81.8 77.6 73.9 69.6 73.4 79.8 79 76.1 73 68.9 64.3 58.4 51.5 46.6 43 45.4 48 47.6 43.6 38.1 32.5 27.9 24.6 22.9 20.7 17.2 13.4 12.7 12.8 13.1 12.5 11.9 12 16.3 17.7 19.8 22.4 18.6 17.4 16.8 15.7 11.6 9.2 9.6
-2.1 -2.1 -2.1 -2.1 -2.1 -2.1 -2.1 -2.1 -2.1 -2.1 -2.1 -2.1 -2.1 -2.1 -2.1 -2.1 -2.1 -2.1 -2.1 -2.1 -2.1 -2.1 -2.1 -2.1 -2.1 -2.1 -2.1 -2.1 -2.1 -2.1 -2.1 -2.1 -2.1 -2.1 -2.1 2 6.6 34.4 60.2 66.6 75.9 76.1 78.5 61.5 75 84 80.4 84.1 85.3 85.4 61.8 84.9 81.7 83 81.5 73.5 70.4 64.2 54.2 65.1 67.3 73.5 75 77.4 80.4 80.8 81.7 84.4 95.5 94.6 95.4 96.6 97 95.1 94.8 94.7 93.9 95 96.6 103 106 107.6 111.4 112.4 111.6 109.2 109.7 113.5 114.3 111.6 108.3 106.6 105.5 105.7 106.5 105.8 104.1 101.9 99.8 99.6 99.2 97.4 96.1 95.1 95.5 95.4 94 92.2 92.6 94.8 95 93.6 97.8 101.4 106.4 111.6 114.3 117.4 118.3 116.8 111.3 106.4 101.2 100.2 103.1 105.7 107.4 107.1 104.1 101.8 103 106.4 106.6 103.9 104.2 105.5 105.4 105.6 107.6 107.2 106.7 107.5 108.2 106.4 103.7 100.8 97.6 94 91.7 92 86.9 82.9 80.2 79 78.4 79.7 81.4 81.4 79.3 72 71.1 80.8 80.1 77.7 74.9 70.7 65.6 59.1 52.7 46.7 42.4 41.7 45.4 47 43.6 38.2 32.7 27.3 23.6 21.2 19.7 17.3 14.2 13.9 15.1 14.7 14.8 14 13.7 13.4 16.4 20.9 24.5 21.2 17.6 17.2 16.3 14 10.1 9.3
-2.1 -2.1 -2.1 -2.1 -2.1 -2.1 -2.1 -2.1 -2.1 -2.1 -2.1 -2.1 -2.1 -2.1 -2.1 -2.1 -2.1 -2.1 -2.1 -2.1 -2.1 -2.1 -2.1 -2.1 -2.1 -2.1 -2.1 -2.1 -2.1 -2.1 -2.1 -2.1 -2.1 -2.1 -2.1 2.5 21.3 48.6 60 63.4 68 53.3 49.4 43.3 67.9 71.5 67.2 77.1 66 54 59.7 81.2 67.1 73.8 74.8 64.5 57.4 52.3 60.6 63.1 66.4 70.2 74.3 77.9 82.8 85.8 88.3 91 89.7 96.5 96.2 96.3 95.6 94.7 94.8 94.2 94.7 97.4 100.2 107 111.1 114.3 115.1 115.8 115.6 112.3 110.9 113 110.9 108.3 107.2 107.4 110.1 111.8 112.3 110 107 101.7 99.1 97.8 97.2 97.4 95.1 94.3 94.7 93.5 92.1 92 94.1 95.5 95.7 94.4 98.9 102.3 108 115.5 118.3 124.3 125.2 121.6 115.4 109.4 102.4 101.9 106.3 108.5 111.2 113.8 108.6 104.8 110.7 113.8 113.1 109.6 106 107.9 108.5 106 106.6 107.1 106.2 108 108.7 104.6 103.3 99.9 96.2 93.1 91.2 91 87.3 85.3 80.6 77.1 78.5 78.4 79 81.3 81.5 74.1 68.7 76.7 80.1 78.2 77.5 74 69.4 62.3 55.2 48.2 43.5 41.2 41.5 44.9 43.2 38.7 32.9 27.6 23.5 20.8 19.4 17 14.2 14.5 15.3 15.9 16.8 17.1 18 18.1 20.3 22.1 23.1 21.6 17.6 17.1 16.5 16 14.5 9.5
-2.1 -2.1 -2.1 -2.1 -2.1 -2.1 -2.1 -2.1 -2.1 -2.1 -2.1 -2.1 -2.1 -2.1 -2.1 -2.1 -2.1 -2.1 -2.1 -2.1 -2.1 -2.1 -2.1 -2.1 -2.1 -2.1 -2.1 -2.1 -2.1 -2.1 -2.1 -2.1 -2.1 -2.1 -2.1 8.4 12.4 44.5 47 44.7 46 26 23.3 33.6 57.8 57.6 52.6 56.7 44.4 65 62.7 59.3 56.2 57.8 57.1 60.4 48.7 61.4 66.6 71.7 75.4 78.2 81.5 85.6 85.6 88 90.5 94.4 95 98.9 100.5 96.4 95.5 101.1 103.9 102.7 98.4 101.1 106.1 110.6 115.4 120.1 122.4 120.2 118.8 113.8 112.2 114.6 114.8 112.6 109.4 111.2 114.6 116.2 115.9 111.9 107.9 104.3 98.2 96.8 95.6 95.4 94.6 94.2 93.4 91.8 93 93.2 94.1 95.3 95.3 95.4 100.4 102 109.8 118 124.5 126 125.6 124.3 118.4 111.5 104 103.4 108.2 110.6 114.3 118.1 113.7 109.8 112.9 117.4 116.9 115.3 108.8 109.6 110.4 108.3 102.8 104.2 103.9 105.5 107.4 107.1 103.7 101.1 94.2 91.7 89.6 88.7 87 86.8 83.8 77.5 76.2 77.4 77.2 79.2 80.5 78.7 71.6 68.3 75.7 76.9 80.3 78.1 73.4 66.3 58 50.7 45.7 42 37.4 40.7 42 38.9 34 28.3 22.7 20.7 19.4 17.5 14.5 15.4 15 17 19.2 20.4 21 22 22.3 20.9 20 19.5 17.5 17.2 16.6 16.4 15.3 10.3
-2.1 -2.1 -2.1 -2.1 -2.1 -2.1 -2.1 -2.1 -2.1 -2.1 -2.1 -2.1 -2.1 -2.1 -2.1 -2.1 -2.1 -2.1 -2.1 -2.1 -2.1 -2.1 -2.1 -2.1 -2.1 -2.1 -2.1 -2.1 -2.1 -2.1 -2.1 -2.1 -2.1 -2.1 -2.1 0.2 -0.3 5.1 4.7 8.7 7.6 9.5 12.9 21.8 39.3 42 45 40.4 45.9 48.5 49.2 45.9 41.2 41.5 46.8 49.1 57.7 63.4 70.6 78.6 83.2 87 89.7 91 89.6 92.2 94.8 99 102.5 106.2 104.8 97.8 101.7 109.1 110 111.3 109.5 106.4 107.4 115.6 121.6 124.9 129.8 126.7 123.2 118.2 116.5 119.4 119.3 116.3 112.9 113.1 116.9 119.9 121.8 114.5 109 104.8 99.4 97.1 95.5 94.2 93.9 91.5 93.7 98.8 100 97.3 94.9 95.5 96.2 97.6 99.9 104.1 112 116.4 121.1 121.7 120 119 117.7 112.9 106.2 104.5 109.8 112.7 118 119.9 115.9 112.2 115.1 119.3 122.4 119.2 112.7 110 110.4 107.6 105.1 101.7 101.8 104.3 106.5 107.5 104.1 98.6 93 90.4 89 87.8 86 85.3 84.6 78.1 74.6 74.8 76.2 77.2 78.4 79.5 78.2 69.4 68.1 73 80.1 82.4 77.1 69.2 61.2 53.8 48.3 43 37.4 37 39.4 38.7 34.6 28.6 22.4 20.1 19.2 15.1 16.5 16.1 15.5 18.2 20.7 21.7 23.8 24.6 21.4 19.7 18.6 18.2 17.5 17.1 16.8 16.3 13.8 9.6
-2.1 -2.1 -2.1 -2.1 -2.1 -2.1 -2.1 -2.1 -2.1 -2.1 -2.1 -2.1 -2.1 -2.1 -2.1 -2.1 -2.1 -2.1 -2.1 -2.1 -2.1 -2.1 -2.1 -2.1 -2.1 -2.1 -2.1 -2.1 -2.1 -2.1 -2.1 -2.1 -2.1 -2.1 -2.1 -2.1 -2.1 1.1 -2.1 -2.1 4 6.3 8.6 14.2 22.9 27.7 25.9 28.4 30.9 34.1 35.8 41.6 48.2 54.2 58.8 60.3 65.1 72.4 79.4 83.6 86.2 90.2 93.4 94 94.9 96.7 98.9 103.6 107 110.7 105.8 101.3 105.9 111.7 114.5 116.7 116.4 112.8 112.5 121.4 127.8 135.1 135.8 132.6 126 121.1 121 123.8 124.3 118.4 112.5 113 119.1 123.1 121.5 114.1 109.7 105.2 100 96.1 95 93.5 93.7 98.1 101.4 102.9 103.1 102.2 97.9 98 100.7 100.9 101.5 105.7 109.8 113 115.2 115.7 115.3 116 115.2 113 107.3 103.9 111.3 115.3 119.5 117.7 114.7 111.3 111.6 114.7 117.8 116.6 112.7 108 107.3 106.4 103.3 100.9 100.3 104.6 104.7 106.5 104.8 99.3 92.9 90.5 88.8 86.5 83.2 82 82 80.3 75.2 72.2 75.2 75.3 76 77.8 79.6 74.9 66.4 68.2 73.7 81.8 79.2 72.3 64.6 57.3 50.1 44.2 38.1 33.6 36 36.3 34.4 29.2 22.9 19.4 16.3 16.6 18 17.6 16.7 19.2 19.9 20.8 22.6 22.6 20 18.5 17.5 17.4 17.5 17.2 16.7 16.4 12.1 9.1
-2.1 -2.1 -2.1 -2.1 -2.1 -2.1 -2.1 -2.1 -2.1 -2.1 -2.1 -2.1 -2.1 -2.1 -2.1 -2.1 -2.1 -2.1 -2.1 -2.1 -2.1 -2.1 -2.1 -2.1 -2.1 -2.1 -2.1 -2.1 -2.1 -2.1 -2.1 -2.1 -2.1 -2.1 -2.1 -2.1 -2.1 -2.1 -2.1 -2.1 2.4 6.4 5.1 14.2 29.7 31.8 35.9 39.2 42.4 47.5 49 52.1 59.7 66.5 70.2 72.5 74.8 80.6 84.4 87.5 90.1 93.3 95.9 97.8 99.3 101 103.6 109.5 112.7 111.6 106.4 104.1 108.4 114 118.9 123.2 123 120.3 117.9 124.2 130.6 137.2 135.6 132.6 126.9 122.8 124.9 128 128.4 120.9 111.4 115.3 124.3 127.7 119.1 113.6 109.5 105.4 100.5 94.4 93.2 94.1 99.1 102.9 105.1 106.6 106.6 105.5 102.7 104.1 106.7 106.3 104.6 104 105.8 107.4 109.6 113.2 116.5 115 117 112.8 107 104.2 111.6 115.1 114.3 112.4 111.1 108.5 107.8 109.9 112.2 112.1 107.6 103.6 101.9 103.5 101.5 99.9 98.9 103.2 105.5 104.8 105.2 100.4 94.7 91.4 89.2 85.3 82.2 79.1 78.3 78.8 77 73 73.1 74.8 73.5 74.7 76.2 76.2 67.8 65.8 69.5 77.8 80 75 67.3 59.2 52.3 44.1 39 34.2 32.3 34.1 32.3 29.5 23.8 19.1 16.9 17.9 19.2 19.7 19.5 19.9 20 19.8 19.9 19.8 18.7 18.1 17.2 16.8 17.1 17.1 16.5 15.8 13.6 9
-2.1 -2.1 -2.1 -2.1 -2.1 -2.1 -2.1 -2.1 -2.1 -2.1 -2.1 -2.1 -2.1 -2.1 -2.1 -2.1 -2.1 -2.1 -2.1 -2.1 -2.1 -2.1 -2.1 -2.1 -2.1 -2.1 -2.1 -2.1 -2.1 -2.1 -2.1 -2.1 -2.1 -2.1 -2.1 -2.1 -2.1 -2.1 -2.1 -2.1 1.7 2.6 8.7 31.2 36.1 42.9 48.2 51.1 55.7 57.9 63.4 68.3 74.5 78.7 78.7 78.4 81 84.9 87.8 90.7 93.4 95.7 97.8 99.7 100.4 102.1 108 113.5 114.8 111.8 106.4 108 109.8 115.2 121.7 127.6 128 120.4 117.5 124.4 128.9 132.4 130 128.4 124.8 123.7 127.2 130.5 126.8 120.7 112.6 119.3 126.2 124.8 117.2 112.1 108 104.7 100.5 94.5 93 98.1 102.7 106.1 108.6 110.9 110.5 109.6 105.3 109.9 111.7 112.6 109.9 105.8 105 105.9 108.1 112.3 116.3 114.2 114.4 113.2 107.2 105.3 108.9 110.9 110.3 108.7 107.4 105.2 103 105.2 107.2 106.6 104.3 100.1 99.4 100.8 102.4 102.4 100.8 100.8 105.1 105.5 103.8 101.2 96.8 92.1 89 85.7 81.7 78.5 76.4 75.8 75.2 74.1 71 74.6 72 71.6 71.6 72.3 66.6 63.9 68.3 72.9 77.5 75.5 69.2 60.9 53.5 45.4 39.4 34.1 29.8 30.4 30.4 28.6 23.7 19.8 17.7 19 19.4 20.9 21.1 20.5 19.7 19.4 19.3 18.8 17.7 17.6 16.6 16 16.2 16.5 16.1 15.7 13.8 9
-2.1 -2.1 -2.1 -2.1 -2.1 -2.1 -2.1 -2.1 -2.1 -2.1 -2.1 -2.1 -2.1 -2.1 -2.1 -2.1 -2.1 -2.1 -2.1 -2.1 -2.1 -2.1 -2.1 -2.1 -2.1 -2.1 -2.1 -2.1 -2.1 -2.1 -2.1 -2.1 -2.1 -2.1 -2.1 -2.1 -2.1 -2.1 -2.1 1.2 2.8 16.2 21.7 34.5 42.6 52 59.9 64.5 66.8 69.5 73 76.9 80.5 83.7 84 82.6 84.3 86.9 88 91.7 95.1 96.8 99 100.5 101.3 103.3 110 114.6 113.7 111 110.3 112.3 111.7 116.5 124 127.9 124.5 116.8 114.7 120.6 123.6 125.4 125.1 123.8 121.6 124.5 129.4 127.2 123.9 119.6 114.3 123.1 123.9 122.7 117.9 111.6 106.9 103.3 99.2 93.6 94.2 101.8 105.5 108.9 112.4 114.8 114.9 114.9 109.7 115.2 116.5 117.1 112.6 108 104.4 105.4 106.5 110.5 113.6 114.1 111.2 107.5 105.7 103.7 106 106 106.3 105.3 104.3 101.9 100.8 105.4 105.1 103 100.8 97.8 100.9 104.4 106.7 107.2 105.3 100.2 103 105.3 103.3 100.4 97.2 93.2 91 89.8 85.5 79.6 75.3 73 72.8 72 70.1 72.7 73 70.2 68.9 69.2 66.2 64.1 67.7 67.6 74 74.7 70.4 63.2 55.5 47.7 39.9 34.9 30.7 26.8 27 24.8 22.7 18.9 19 20.2 20.6 21.1 21.6 20.3 19.6 18.7 18.2 17.7 17.3 17.2 16.2 15.6 15.3 15.7 15.8 15.5 12.7 9.2
-2.1 -2.1 -2.1 -2.1 -2.1 -2.1 -2.1 -2.1 -2.1 -2.1 -2.1 -2.1 -2.1 -2.1 -2.1 -2.1 -2.1 -2.1 -2.1 -2.1 -2.1 -2.1 -2.1 -2.1 -2.1 -2.1 -2.1 -2.1 -2.1 -2.1 -2.1 -2.1 -2.1 -2.1 -2.1 -2.1 -2.1 -2.1 -2.1 -2.1 5.1 27.8 28.9 38.6 46.1 57.8 66.3 72.7 73 73.8 75.5 80 82.1 83.7 84.8 82.9 86.4 87.5 87.8 91.4 94.9 97.8 100 102.6 103.1 105.4 110.3 112.7 110.6 111 114 112.7 112.1 117.9 123.8 122.4 118.3 112 112.2 116.7 118.9 120.1 119.9 119.5 118.9 123.7 123.6 122 120.4 116.7 117.7 123 121.9 121 116.2 111.3 106 101.6 97.2 91.9 97.5 102.7 107 111.2 115.6 119.6 121.5 117.5 114.8 119.5 121.2 118.9 113.4 108.9 103.5 104.3 103.4 107.8 111.1 112.8 111 106.8 105.2 101.9 100.7 100.7 101.8 102.1 100.9 95.5 102.3 103.5 102.5 100.1 97.6 97.4 102.9 108.3 110.4 108.8 106.1 103.5 98.7 104.8 104.2 100.3 97.7 94.2 92.3 91.4 88.6 82.1 76.4 73.6 70.6 69.9 68.2 69.2 71.8 70 68 66.6 65.6 63.4 63.5 65.2 69.7 71.6 70 63.9 56.9 49.3 40 34.2 30.4 26.6 24.6 21.1 19.9 20.7 21.6 21.2 20.9 22.1 22.1 20.3 19.6 18.2 16.8 16.8 17 16.5 15.5 15.2 15 14.6 14.3 14.3 14.4 11
-2.1 -2.1 -2.1 -2.1 -2.1 -2.1 -2.1 -2.1 -2.1 -2.1 -2.1 -2.1 -2.1 -2.1 -2.1 -2.1 -2.1 -2.1 -2.1 -2.1 -2.1 -2.1 -2.1 -2.1 -2.1 -2.1 -2.1 -2.1 -2.1 -2.1 -2.1 -2.1 -2.1 -2.1 -2.1 -2.1 -2.1 -2.1 -2.1 -2.1 3.2 28.6 35 41.2 49.9 62 68.6 72.4 72.1 72.4 75.4 79.9 82.4 82.9 83.2 84.2 85.5 86.2 88.8 94.3 98.5 102.3 105.3 104.9 104.1 107.7 109.9 109.8 109.3 113.2 115 111.4 111.2 117.1 120.6 119.2 114.6 109 108.7 111.2 114.5 115.6 115.8 115.6 115.6 118.7 118.5 117 115.9 112.2 118.3 119.6 119 119.9 113.8 108.8 104.6 100.3 95.4 92.4 97.2 102 108.1 115.5 119.3 125.3 122.1 116.6 118.7 124.3 122.8 116.7 112.4 109.4 103.5 103.8 103 104.9 109.8 111.6 108.5 105.2 100.5 95.4 96.5 96.6 97.7 98.3 95.4 96.3 99 98.7 97.7 96.6 95 95.9 101.9 106.6 109.1 107.7 105 101.8 95.7 101.3 102.9 101.6 98.5 95.7 94.6 93.9 92.5 86.4 79.1 74.4 71 68.8 67 66.3 68.8 68.6 66.7 65.6 64.6 63.4 62.1 62 64.4 67.1 67.7 64.1 57.9 49.6 39.7 30.3 27.8 25.8 23.9 21.7 20.2 24.2 22.9 22 21.7 22.2 22.4 20.6 19 17.7 16.5 16.5 16.8 15.7 14.9 15.2 15.6 13.9 12.3 13.8 13.3 10.9
-2.1 -2.1 -2.1 -2.1 -2.1 -2.1 -2.1 -2.1 -2.1 -2.1 -2.1 -2.1 -2.1 -2.1 -2.1 -2.1 -2.1 -2.1 -2.1 -2.1 -2.1 -2.1 -2.1 -2.1 -2.1 -2.1 -2.1 -2.1 -2.1 -2.1 -2.1 -2.1 -2.1 -2.1 -2.1 -2.1 -2.1 -2.1 -2.1 -2.1 3 25.3 36.7 43.8 53.5 61.6 68.2 69.4 68.1 71.5 75.7 78.3 80.2 80.3 82 84.4 85.4 86.6 92.7 97.5 102.2 106.6 112 106.9 105.3 106.7 108 107.7 109.7 112.6 110.6 106.9 109.2 113.6 117.6 115.6 110.6 107.2 107.4 107.2 108.7 110.1 110.6 109.9 111.2 113 114.1 111.9 111.2 109.5 111.9 114 115.8 117 110.8 106.1 102.5 98.1 93.3 91.9 95.4 101.3 111.3 119 124.2 122.7 119 117.2 121.4 125.6 120.6 116.2 111.7 108.1 102.7 102.5 103.1 102.2 107.4 108.1 104.3 99.6 93.2 90.1 90.3 91.7 91.7 92 88.3 93.1 94.7 93.7 92.7 91.7 91.7 93.9 98.8 102.2 103.3 102.5 101 99.4 94.1 98.1 99 100.3 100.2 98.1 97.6 96.3 94.6 90.2 83.1 76.4 71.6 69.4 67.7 65.4 66.2 66.8 65.4 64.6 64.2 62.9 63.5 61.3 61.4 62.3 63 61.4 57.1 47.7 32.4 28.2 26.3 25.2 23.8 22.4 22.7 25 24.7 23.4 22.5 23 25.6 24 19.5 17.8 16.7 16.8 16.7 15 14.7 15.2 14.7 14.3 11.9 13.8 13.3 13.2
-2.1 -2.1 -2.1 -2.1 -2.1 -2.1 -2.1 -2.1 -2.1 -2.1 -2.1 -2.1 -2.1 -2.1 -2.1 -2.1 -2.1 -2.1 -2.1 -2.1 -2.1 -2.1 -2.1 -2.1 -2.1 -2.1 -2.1 -2.1 -2.1 -2.1 -2.1 -2.1 -2.1 -2.1 -2.1 -2.1 -2.1 -2.1 -2.1 -2.1 2.2 14.8 34.5 42.8 51.4 59.6 64.5 64.8 69.4 71 73.9 77 79.3 80.6 81.7 84 85.5 87.8 94.8 99.3 105.4 112.3 112.5 107.1 104.8 105.7 106.6 107.5 109.6 109.2 103.8 104.7 106.2 107.6 111.7 110.1 106.9 106.5 106.8 105.6 106.4 106.9 106.3 106.7 107.1 107.7 109.3 108.3 106.6 106.4 108 109.3 110 110.3 106.9 103.2 99.4 94.8 93.6 92.7 94.8 102.4 109.2 114.9 118 119.4 116.2 117.5 122.5 123.9 118.3 114.7 110.9 106.4 102.1 100.9 100.5 100.8 102.2 103 99.9 95.5 89 87 86.9 86.5 85.8 86.1 86.3 88.3 90 90 87.7 87.8 88.9 92.4 96.1 98.2 98.4 97.1 95.5 93.6 92.6 93.3 95.6 95.2 97 98.6 96.8 97.1 95 91.7 86.6 80.3 74.5 69.8 66.8 65 64.6 64.9 63.9 63.8 64.3 64 62.1 61.2 61.1 60.3 60.2 58.4 55.3 43.5 39.6 32.2 29.7 26.6 24.6 23.2 23 25 23.8 24 22.9 24.8 28.6 29.3 21.7 17.5 16.8 16.1 15.7 14.5 14.6 15 13.8 13.2 10.7 10.5 12.3 10.9
-2.1 -2.1 -2.1 -2.1 -2.1 -2.1 -2.1 -2.1 -2.1 -2.1 -2.1 -2.1 -2.1 -2.1 -2.1 -2.1 -2.1 -2.1 -2.1 -2.1 -2.1 -2.1 -2.1 -2.1 -2.1 -2.1 -2.1 -2.1 -2.1 -2.1 -2.1 -2.1 -2.1 -2.1 -2.1 -2.1 -2.1 -2.1 -2.1 -2.1 -2.1 26.5 32.4 41.6 48 56.8 59.2 64.4 67.9 69.9 73.9 77.5 80.6 81.4 83.2 84 85.6 91.1 96 101.5 109.9 115.3 111.1 106.6 104.7 105.6 106.9 107.9 107.9 105.4 103.9 104.7 105.1 105.7 107.1 106.3 106 106.2 106.4 106.1 106.5 105.7 105.8 106.4 107 107.4 108.1 108.3 107.2 105.6 104.2 104.9 105.6 105 103.4 98.2 96.3 94.5 93.8 93 94.6 100.9 106.1 110 112.7 114.6 110.8 118.1 122.7 119.8 116.1 113.2 112.7 107.7 101.1 99.9 97.1 96.3 96.9 97.4 94.5 92.4 92.9 93.4 90.8 88.2 84.9 84 84.1 84.5 85.1 85.4 85.3 85.8 87 89.8 94.1 95.8 95 92.8 91.7 92.5 90.8 89.6 94.1 94.8 93.8 94.5 94.9 96.1 94.8 92.6 88.4 83.3 77.7 70.8 66.6 64.9 63.8 63.7 63.5 63.2 63.4 62.5 62.3 61.4 60.9 60.1 60.1 61 56.8 51.6 46.6 34.6 31.7 27.2 25.6 24.1 23 23.7 23.8 23.4 24.5 25.8 29.2 31.8 25.4 18.6 16.6 15.7 14.7 13.8 14.4 15 13.6 12.7 11.7 9.5 9.8 8.8
-2.1 -2.1 -2.1 -2.1 -2.1 -2.1 -2.1 -2.1 -2.1 -2.1 -2.1 -2.1 -2.1 -2.1 -2.1 -2.1 -2.1 -2.1 -2.1 -2.1 -2.1 -2.1 -2.1 -2.1 -2.1 -2.1 -2.1 -2.1 -2.1 -2.1 -2.1 -2.1 -2.1 -2.1 -2.1 -2.1 -2.1 -2.1 -2.1 -2.1 -2.1 8 25.9 39.3 42.9 51.6 57.5 61.4 67.4 68.6 72.6 76.7 80 80.9 84.2 82.6 84.8 90.6 96.5 102.9 111.2 111.5 110.8 105.4 105.2 107.3 108.4 107.7 106.2 104.2 103.9 104.6 104.9 105.2 105.5 105.2 105.1 104.9 105 105.1 106.1 105.9 105.9 107 109.1 110 109.1 111.2 112.5 110.3 106.3 104.5 102.6 102.7 101.8 102.2 96.9 96.1 94.2 94.5 93.5 99.4 103.6 106.5 108.2 108.4 112.4 118.8 118.9 116.7 114 116.7 113.6 108.2 103.4 99.3 100 96.9 95.9 96.6 94.3 95.5 94.5 92.9 89.2 87.3 86.3 83.5 82.9 82.3 82.2 82.8 82.5 83.4 85.6 87.2 90.6 92.8 91.8 90 89.4 90.6 90.9 88.4 91.5 92.9 94.1 90.9 90.2 93.7 95.3 93 89.6 84.9 80.7 74.5 67.6 65.4 64.3 63.2 62.8 62.4 62.4 61.9 61.2 61.1 60.5 58.3 58.6 60.1 57.7 54.1 42.4 34.2 35.2 28.9 25.9 23.8 23.9 23.7 26.1 24.2 25.3 25.8 29 31.7 29.7 20.5 17 15.9 15.4 14.3 13.3 14.6 13.7 11.9 13.2 11.7 9.2 8.7
-2.1 -2.1 -2.1 -2.1 -2.1 -2.1 -2.1 -2.1 -2.1 -2.1 -2.1 -2.1 -2.1 -2.1 -2.1 -2.1 -2.1 -2.1 -2.1 -2.1 -2.1 -2.1 -2.1 -2.1 -2.1 -2.1 -2.1 -2.1 -2.1 -2.1 -2.1 -2.1 -2.1 -2.1 -2.1 -2.1 -2.1 -2.1 -2.1 -2.1 -2.1 -2.1 11.6 11 40.9 46.6 52 60.5 64.3 67.5 71.3 75.4 78.9 80.9 82.2 82.7 84.1 88.1 97.2 103 107.5 107.4 106.1 104.1 107.2 109.8 108 105.9 104.6 102.4 104.2 104.4 104.8 104.8 105.1 104.4 104.2 104.9 104.6 105.3 105.7 106.6 107.8 109.8 113.5 112.2 113.8 115.9 116.3 114.1 109.4 109.1 109.8 109.7 107.8 102.9 100.3 99.2 98.5 97 91.8 96.5 100.2 102.5 103.4 106.4 111.8 116.4 114.2 111.2 116.1 119.8 112.4 107.8 103.7 95.8 95.9 94.7 94.1 94.8 95.2 94.8 94.7 92.1 88.6 88.6 86.4 84.2 82.7 82.2 82 82 81.4 81.4 81.2 83.4 86 88.7 90 90.2 89.7 88.5 88.6 87.2 87.4 88.5 90.1 90.5 90.2 89.6 94.3 93.6 89.9 85.9 82 77.7 70.6 66.7 65.7 65.1 64.1 63.8 63.4 63.1 61.9 60.8 60.7 61.6 60.4 49.4 44.8 45 46.3 42 38.3 30.5 26.3 23.1 24.3 26.3 26.4 26.4 25.2 25.3 28.2 30.3 31.1 24.5 17.7 16.6 16.5 15 14.2 12.4 12.4 11.7 12.9 11.9 10 8.4
-2.1 -2.1 -2.1 -2.1 -2.1 -2.1 -2.1 -2.1 -2.1 -2.1 -2.1 -2.1 -2.1 -2.1 -2.1 -2.1 -2.1 -2.1 -2.1 -2.1 -2.1 -2.1 -2.1 -2.1 -2.1 -2.1 -2.1 -2.1 -2.1 -2.1 -2.1 -2.1 -2.1 -2.1 -2.1 -2.1 -2.1 -2.1 -2.1 -2.1 -2.1 -2.1 -2.1 2.1 37.9 42.5 48.5 56.3 63.8 67.4 70.2 73.6 76.8 82.3 82.4 83.2 83.4 86.9 92.1 99.1 103.5 103.6 102.6 105.2 108.4 108.4 106.1 103.5 102.3 103.5 104.3 104.3 104.2 104.2 104.6 103.8 104.2 105.2 105.9 106.1 106 108.5 108.1 112.6 114.2 114.2 116.6 119.3 120 117 116.8 118.9 117.1 115.6 113.4 109 106.8 103.5 102.5 99.3 93.4 92.9 94.5 96.3 100 104.4 110.8 111.3 108.2 112.4 117.7 119.1 112.4 106.6 101.8 98.8 94 93.1 92.8 93.9 93.3 93.1 94 91.7 88.9 86.7 85.1 84.3 83.4 82.4 82.7 82.9 81.8 81.4 81.2 80.6 80.9 84.9 87 89.5 90.9 89.4 86.7 87.6 85.9 84.7 85.3 88 89.6 89.8 88.8 89.3 89.1 86.5 83.3 79.7 75.1 69.1 67.1 66.5 65.7 64.8 64.3 63.8 63.1 62.3 63 62.8 59.6 58.1 56.3 52.1 49.4 45.3 35.1 31.9 26.8 22.7 22.4 26.3 26.1 25.9 25.1 24.9 28 29 29.6 27.5 19.8 17.6 17.3 16.1 15.5 13.5 10.6 10.6 11.4 9.6 8.9 8.9
-2.1 -2.1 -2.1 -2.1 -2.1 -2.1 -2.1 -2.1 -2.1 -2.1 -2.1 -2.1 -2.1 -2.1 -2.1 -2.1 -2.1 -2.1 -2.1 -2.1 -2.1 -2.1 -2.1 -2.1 -2.1 -2.1 -2.1 -2.1 -2.1 -2.1 -2.1 -2.1 -2.1 -2.1 -2.1 -2.1 -2.1 -2.1 -2.1 -2.1 -2.1 -2.1 -2.1 -2.1 20.1 38 44.1 53.9 60.8 65.7 68.4 71.2 74.3 80 82.3 83.2 83.1 85.5 89.4 96.4 99.2 99.3 102.8 106.4 106.8 105.1 102.1 101.7 102.1 103 103.8 103.7 103.5 103.7 103.8 104 104.4 106 107.3 107.9 108 109.7 110.7 113.8 114.9 115.7 120.2 121.9 120.8 119.6 122.3 121.4 119.6 119.6 117.7 116.3 111.9 108.1 105.1 100.9 94.6 91.5 92.1 93.7 97.5 101.2 106.1 106 106.7 113 118.3 115.1 110.2 107.6 106.6 103.4 99.3 94.4 93.1 92.4 91.6 91.4 91.3 89.3 88.2 86.1 84.8 86.1 85.5 83.6 83.2 82.6 82.8 82.7 80.9 80.6 80.2 84.5 86.1 86.3 88.4 87.8 85.2 83.6 85.1 84.3 83 84.5 86.7 88.7 90.7 89.6 84.6 85.9 83.4 80.9 77.5 72.8 69.5 68.1 66.9 66.6 66.7 66 64.1 63 63 64.7 60.2 57.6 54.3 52.3 49.2 47.7 44.4 36.6 31.8 26.7 21.7 24.3 26.1 25.6 24.5 24.6 26.6 27.8 27.7 27 21.5 17.8 17.2 17 16 14.8 12.4 10.7 9.3 9 9.2 8.9
-2.1 -2.1 -2.1 -2.1 -2.1 -2.1 -2.1 -2.1 -2.1 -2.1 -2.1 -2.1 -2.1 -2.1 -2.1 -2.1 -2.1 -2.1 -2.1 -2.1 -2.1 -2.1 -2.1 -2.1 -2.1 -2.1 -2.1 -2.1 -2.1 -2.1 -2.1 -2.1 -2.1 -2.1 -2.1 -2.1 -2.1 -2.1 -2.1 -2.1 -2.1 -2.1 -2.1 -2.1 27.8 36.1 42.7 50.3 58.6 63.2 66.6 69.9 74.3 79.6 81.9 82.3 82.9 85.3 89.5 94 96.8 101 104.6 105 103.5 101.8 100.5 101.7 102.1 102.9 102.9 103.2 103.7 104 104.3 104.7 105.1 106.4 107.3 109.5 110.8 109.5 113.3 114.8 116.1 117.8 120.6 121.2 121.7 119.3 123.3 121.6 121 119.6 121.3 120.1 118.1 110.4 104.5 102.1 96.2 90.9 90.9 91.1 94.6 98.5 101 100 107.2 114.3 114.7 110.6 108.5 111.9 110.2 106.4 102.5 98.7 94.6 92.4 90.8 89.6 91.4 89.2 87.4 86.3 86.8 89.1 88.7 86.1 83.3 85.2 84.6 82.9 81.3 80.3 80.2 80.7 82.4 82.7 83.5 85.7 83.4 81.9 81.7 82.4 81.6 82.3 84 86.9 89.2 89.4 86.7 79.9 79.2 79.4 79.1 76.4 73.8 70.2 68.2 68.8 69.7 69.7 66.7 64.2 62.2 61.3 63.2 57.6 54.8 53.1 50.8 47.5 44.1 39.7 38.2 31.5 22.5 24.5 25.6 24.6 24.3 22.8 26.2 27.1 26.8 25.7 22.1 18 17.1 17.1 16.6 15.3 13.5 10.3 8.9 8.8 10.9 10.8
-2.1 -2.1 -2.1 -2.1 -2.1 -2.1 -2.1 -2.1 -2.1 -2.1 -2.1 -2.1 -2.1 -2.1 -2.1 -2.1 -2.1 -2.1 -2.1 -2.1 -2.1 -2.1 -2.1 -2.1 -2.1 -2.1 -2.1 -2.1 -2.1 -2.1 -2.1 -2.1 -2.1 -2.1 -2.1 -2.1 -2.1 -2.1 -2.1 -2.1 -2.1 -2.1 -2.1 -2.1 -2.1 30.3 41 51.6 57.3 61.7 64.2 68.2 73.9 76.9 78.3 80.5 82.9 85.4 88.7 92.7 98.4 102.5 103.9 102.3 100.3 99.9 100 100.7 99.9 101.3 102.8 104 104.4 104.7 105.5 105.3 106.2 107.3 109.4 112.4 111.5 113.8 114.5 114.9 117.2 117.8 118.7 118.6 121.2 120.7 123.7 122 121.9 121.4 121.8 122.5 119.3 111.5 105.6 100.5 91.9 90.6 91.2 93.4 92.4 92.7 96.2 100.6 108.4 110.8 109.9 106.6 110.7 114.8 113.8 109.2 105.4 102.1 99.4 95.9 92 94 95.9 96.5 93.9 88.3 91.7 94 92.5 88 86.7 89 87.6 84.2 80.2 80 79.6 79.6 80.7 82.9 82.8 82.8 82.3 79.9 80.3 80.7 80.7 81.2 81.9 84.6 87 87.2 86.1 83.4 79.6 76.2 76.7 74.9 73.7 74 71.9 73 73.8 75.3 73.9 69.9 66.3 62.5 59.1 58 56 53.7 51.4 48.1 42.8 36.6 37.6 37.9 25 22.1 24.4 24.2 22.3 21.2 24 26 25.6 24.3 22.1 18.1 16.3 16.3 16.8 15.9 14.6 12.3 9.3 9.6 10.5 10.3
-2.1 -2.1 -2.1 -2.1 -2.1 -2.1 -2.1 -2.1 -2.1 -2.1 -2.1 -2.1 -2.1 -2.1 -2.1 -2.1 -2.1 -2.1 -2.1 -2.1 -2.1 -2.1 -2.1 -2.1 -2.1 -2.1 -2.1 -2.1 -2.1 -2.1 -2.1 -2.1 -2.1 -2.1 -2.1 -2.1 -2.1 -2.1 -2.1 -2.1 -2.1 -2.1 -2.1 -2.1 -2.1 22.4 46.1 53.9 55.6 61.5 69.8 73.4 76 79.8 80.9 81.4 82.2 84.9 88.9 94.5 99.5 102.1 102 99.4 98.6 99 99.4 99.5 100.5 102.7 103.9 105.1 105.7 106.5 108.7 107.8 109.2 107.4 111.7 112 115.1 116 115.3 116.4 117.2 117.5 117.3 116.3 118.7 123.5 125.6 126.3 125.1 123.4 123.3 123.5 117.8 110 104.9 98.9 91.6 92.4 96.5 99 98.3 93.3 91.6 99.7 106.5 107.7 104.6 107.6 112.7 117.3 120.1 112.6 108.4 105.5 102.4 99.7 95.4 96.8 99.1 100.4 96.6 92.3 95.9 98.3 94.7 89 90.8 93.1 89.5 83.5 79 78.9 78.7 79.3 82 82.1 82.8 80.8 80.6 79.1 79.5 80 79.8 80 80.9 82.9 84.6 84.8 82.9 81.1 80.9 76.7 77.9 77.3 79.1 78.3 77.9 82.6 82.7 81.3 79.3 74.4 70.4 68.5 66.1 61.9 54.7 50.5 46.2 45.4 41.8 34.7 36.8 39.2 28.8 20.7 19.2 21.7 21.2 19 18.9 24 24.1 23.7 22.8 17.8 15.2 14.5 16.1 15.8 14.2 12.7 11.5 10.7 9.4 8.8
-2.1 -2.1 -2.1 -2.1 -2.1 -2.1 -2.1 -2.1 -2.1 -2.1 -2.1 -2.1 -2.1 -2.1 -2.1 -2.1 -2.1 -2.1 -2.1 -2.1 -2.1 -2.1 -2.1 -2.1 -2.1 -2.1 -2.1 -2.1 -2.1 -2.1 -2.1 -2.1 -2.1 -2.1 -2.1 -2.1 -2.1 -2.1 -2.1 -2.1 -2.1 -2.1 -2.1 -2.1 -2.1 37.1 48.1 59.3 62.5 67.7 73.7 77.6 80.4 84.8 85 82.5 82.3 86.6 91.9 96.4 99.2 99.7 98.9 97.6 97.6 98.2 99.1 100.3 102.5 103.1 105.2 105.9 106.4 110.7 111.7 109.9 111.2 110.4 112.8 114.5 114.7 114 114 114.8 115.3 115.4 113.4 113 116.7 126.8 126.7 126.3 125.1 123.9 123.4 122.8 118.2 107.9 103.4 98.9 92.5 95.5 99.9 103.5 104.6 98.4 90.4 96.1 103.1 104.8 103.7 108.5 114.5 120.2 121 117.9 112.8 110 105.5 102.5 99.9 100.8 104.4 104.3 99.1 97.6 102.1 99.6 94.2 89.2 92.7 92.3 87.5 81.6 79.8 79.3 79 79.6 79.9 80.9 82.3 82.8 81 78.7 78.8 79.3 78.9 79.3 80.3 82.8 84 83.2 81.5 81 79.8 77.2 77.9 77.8 80.5 81.7 83 87.3 90.4 86.5 84 79.3 72.6 69.8 67.7 65.9 58.4 49.3 46.5 43.7 42 34.6 34.5 35.8 32 25.1 17.8 19 21.7 19.7 16 18.6 20.9 23.2 23.3 17.1 14.6 13.7 14.7 15.1 13.5 12.7 12.3 11.4 8.9 8.6
-2.1 -2.1 -2.1 -2.1 -2.1 -2.1 -2.1 -2.1 -2.1 -2.1 -2.1 -2.1 -2.1 -2.1 -2.1 -2.1 -2.1 -2.1 -2.1 -2.1 -2.1 -2.1 -2.1 -2.1 -2.1 -2.1 -2.1 -2.1 -2.1 -2.1 -2.1 -2.1 -2.1 -2.1 -2.1 -2.1 -2.1 -2.1 -2.1 -2.1 -2.1 -2.1 -2.1 -2.1 -2.1 -2.1 19.9 55.4 67.9 72.7 76.3 80.4 84.7 89 87.8 82.5 82.4 90.3 94.4 97 98.4 97.8 97.3 97.7 99.2 99.8 100.1 101.1 105.1 107.1 109.7 109 108.7 113.4 111.8 109.8 107.3 108.3 109.7 112.6 111.6 111.1 111.1 109.7 110.1 109.5 108.2 110.9 117.7 122.2 125.6 125.4 123.9 123.3 121.6 119.7 112.3 104.4 99.6 95.2 95.6 99.3 103.5 109.6 108 100.5 94.1 93.1 101 103.4 104 109 115.1 117.6 118.1 121.8 118.2 113.6 109.5 105.8 102.4 103.9 107.8 107.4 102.2 99.3 100.3 96.7 92.3 88.4 91.8 89.4 84.9 84.5 86.3 85.9 81.6 82.3 82.5 82.2 82.5 80.4 78.6 78 78.1 78 77.6 78.1 79.7 82.4 84.4 84.6 83.3 81.3 80.6 78.8 80.6 80 77.7 83 86 91.4 96.4 95.8 92.2 86.8 79.4 74.1 67.6 63.6 58.2 51.9 48.1 45.4 39.1 33.3 32.5 34 32.8 28.6 21.5 16 17.2 19.2 15 15 17.8 20.1 21.3 16.7 14.6 13.8 14.2 14.7 13.4 13.7 13.4 10.9 8.8 8.6
-2.1 -2.1 -2.1 -2.1 -2.1 -2.1 -2.1 -2.1 -2.1 -2.1 -2.1 -2.1 -2.1 -2.1 -2.1 -2.1 -2.1 -2.1 -2.1 -2.1 -2.1 -2.1 -2.1 -2.1 -2.1 -2.1 -2.1 -2.1 -2.1 -2.1 -2.1 -2.1 -2.1 -2.1 -2.1 -2.1 -2.1 -2.1 -2.1 -2.1 -2.1 -2.1 -2.1 -2.1 -2.1 -2.1 5.9 44 64.1 73.3 77.5 82.2 88.5 92 88.3 85.4 89.7 93.6 94.4 97 97.3 97.2 97.6 101.8 103.9 104.1 102.8 102.4 107 110.1 114.1 112.2 112.1 113.1 110.2 108 105.7 106.2 108.7 110.5 109.8 109 108 105.4 103.6 106.1 108.5 110.2 114.2 120.8 122.3 124.7 122.2 122.3 119.4 114.4 105.5 100.3 96.1 94.9 98.5 103.6 109.6 110.2 110.1 104.9 98.3 89.3 96.5 100.3 102.5 107.1 111.4 112.1 114.8 121.3 117.6 114 110.8 107 101.5 105 109 106 101.1 98.5 97.1 94 89.8 87.5 90.4 85.7 86.6 89.4 91.8 92.3 89.5 87 89.1 88.9 86.9 83.6 78.2 77.3 77.1 77.9 77.9 76.5 76.8 79.2 82.4 85.4 85.6 83.8 80.9 79 80.8 81.5 79.7 81.4 86.9 94.1 96.3 95.3 92.5 88.8 85.4 82 75.2 66.2 57.6 51.9 49 45.6 34.1 32.5 31.5 32.8 31.1 29.1 24.7 17.6 15.1 13.9 13.2 13.7 15.3 21 22.5 20.1 17.2 15.4 15.2 14.5 12.9 14.2 13.6 9.6 9.2 9.4
-2.1 -2.1 -2.1 -2.1 -2.1 -2.1 -2.1 -2.1 -2.1 -2.1 -2.1 -2.1 -2.1 -2.1 -2.1 -2.1 -2.1 -2.1 -2.1 -2.1 -2.1 -2.1 -2.1 -2.1 -2.1 -2.1 -2.1 -2.1 -2.1 -2.1 -2.1 -2.1 -2.1 -2.1 -2.1 -2.1 -2.1 -2.1 -2.1 -2.1 -2.1 -2.1 -2.1 -2.1 -2.1 -2.1 -2.1 35.7 63.7 68.4 74.7 84.5 91.3 88.5 85.1 88.9 93.7 94.3 94.7 96.3 96.3 97.3 101.5 103.4 105.3 104.5 102.2 104.7 109.3 113.8 116.6 113.6 113.4 111.2 108.3 105.6 103.7 107.4 107.2 108.2 105.7 107.2 104.9 103.3 102.7 103.5 103.9 107.1 110.4 115 117.4 118.1 118.3 118.5 114.3 106 104.4 97.8 98.5 97.1 101.9 107.8 108.4 109.3 110.6 109.3 101.9 92.9 89 96.4 101.5 103.1 105 107.4 110.8 115.8 113.8 110.6 108.4 105.1 100.4 106.7 106.5 101.5 98.3 96.1 93.4 90.2 84.5 85.9 86.3 84.5 89 93 97.6 98.6 95.3 91.5 92 92.4 90.2 86.6 82.1 79 81.2 83.1 83.4 81.4 77.4 74.9 79.2 85.5 85.5 84.4 80.9 79.3 80.2 80.9 80.3 82.3 90.6 93.5 93.4 90.9 87.9 84.6 81.4 80.3 76.5 67.1 58.3 50.5 47.2 44.1 37.2 32.2 30.6 30.8 29.8 28.5 25.2 20 15.8 12.8 12.4 12.7 12.4 19 22.4 21.8 19.1 16.8 15.9 14.2 12.2 12.3 9.4 9.1 9.3 9.6
-2.1 -2.1 -2.1 -2.1 -2.1 -2.1 -2.1 -2.1 -2.1 -2.1 -2.1 -2.1 -2.1 -2.1 -2.1 -2.1 -2.1 -2.1 -2.1 -2.1 -2.1 -2.1 -2.1 -2.1 -2.1 -2.1 -2.1 -2.1 -2.1 -2.1 -2.1 -2.1 -2.1 -2.1 -2.1 -2.1 -2.1 -2.1 -2.1 -2.1 -2.1 -2.1 -2.1 -2.1 -2.1 -2.1 -2.1 35.3 18.3 64 72.9 79.5 80.4 72.9 84.3 91 95 91.6 93.5 96.2 97.9 97.9 101.6 105.4 105.3 102.4 103 107.1 112.1 116.1 113.8 112.4 110.5 107.2 103.7 102.8 105.9 106.3 105 104.7 105.3 103.2 101.5 100.2 99.1 98.9 100.4 104.5 106.3 109.2 109.2 109.8 111.1 109.3 106.1 102.9 101.4 99.3 97.8 98.1 103.3 105.2 105.3 107.4 109.7 110.7 103.9 97.3 87.6 91.9 97.9 98 99.9 103.2 105.3 110.5 110.3 107.4 105.9 102.3 103.1 106.2 102.3 98.5 95.3 91.7 90 87 82.8 83 82.5 86.6 90.7 97.2 100.5 98.6 96 92.9 91.6 92.3 89.6 86.5 84.1 83.5 86.6 87.6 87.6 85.6 82.9 75.8 72.8 77.9 77.9 78.8 77.1 79.1 81.7 79.7 77.1 80.4 89.6 89.5 88.3 85.1 81.6 77 75 74.4 73.3 66.3 54.7 49.6 46.7 43.7 40.3 34 30.5 29.7 29.2 28.3 25.9 21.2 16.9 13 11.6 11.8 11.8 13.1 18.9 21.9 21.5 12.7 9.7 9.3 9.5 9.6 9.4 8.9 9.9 9.7
-2.1 -2.1 -2.1 -2.1 -2.1 -2.1 -2.1 -2.1 -2.1 -2.1 -2.1 -2.1 -2.1 -2.1 -2.1 -2.1 -2.1 -2.1 -2.1 -2.1 -2.1 -2.1 -2.1 -2.1 -2.1 -2.1 -2.1 -2.1 -2.1 -2.1 -2.1 -2.1 -2.1 -2.1 -2.1 -2.1 -2.1 -2.1 -2.1 -2.1 -2.1 -2.1 -2.1 -2.1 -2.1 -2.1 -2.1 -2.1 9.5 18 44.2 25.6 26.1 63.5 85.2 91.4 92.3 90.1 94.6 96.4 98.8 102.5 104.5 106.1 102.5 103.2 102.6 108 113.3 111.8 111.2 109.9 105.6 101.9 99.1 102.7 104.6 105.1 102.4 100.8 99.3 99.3 97.9 97 96.2 98.1 99.4 102.7 104.8 105 104.2 105.8 105.4 104.4 103.2 103.1 102.3 101.7 98.9 98.2 100.7 101.5 101.3 103.6 106.6 105.4 99.4 89.8 87.5 89.8 91.5 92.1 95.2 98.5 101 104.6 107 103.1 101.9 97.9 104.2 103.8 98.6 95.4 92.3 87.9 86.5 83 80.6 80.8 78.3 86.4 92 96.5 97.6 96 93.1 91.8 90.7 90.8 88.4 85.5 85.6 89.4 91.5 92.5 92.4 89.9 87.6 83.1 78.3 74.9 71.7 74.3 71.8 76.8 80.7 81.3 76.5 77.8 85.2 85.2 82.1 78.7 74.2 69.7 67.6 66.9 67.2 64.3 53.7 48.3 45.4 42.3 38.7 34.1 30.6 29.5 28.9 28.2 26.3 22.2 18 12.8 11.2 11.7 14.5 12.1 20.3 21.8 19.8 10.7 9.5 9.3 9 10 10.5 12 14.4 10.3
-2.1 -2.1 -2.1 -2.1 -2.1 -2.1 -2.1 -2.1 -2.1 -2.1 -2.1 -2.1 -2.1 -2.1 -2.1 -2.1 -2.1 -2.1 -2.1 -2.1 -2.1 -2.1 -2.1 -2.1 -2.1 -2.1 -2.1 -2.1 -2.1 -2.1 -2.1 -2.1 -2.1 -2.1 -2.1 -2.1 -2.1 -2.1 -2.1 -2.1 -2.1 -2.1 -2.1 -2.1 -2.1 -2.1 -2.1 -2.1 -2.1 -2.1 -2.1 -2.1 7 67.5 81.6 88.3 89.6 94 96.9 98.8 102.8 105.3 107.9 103.6 103.7 101 102.9 108.4 109.4 107.3 107 106.9 102.7 98 96.7 101.2 101.2 101.3 99.6 98.5 98.5 97 96.9 94.7 95.3 96.6 100.6 101.8 102.3 102.2 104.6 104.1 104.1 103.1 105.1 107.2 108.3 106.4 102.7 99.4 95.3 95.3 96.3 99.7 101.3 99.6 92.8 87.1 87.2 86.8 85.8 86.5 91 95.2 97.9 100.3 100.1 95.3 96.3 97.6 100.8 99.3 96.2 92.4 89.6 85.2 81 79.1 79 77.6 78.9 80.8 88.2 91.4 93.1 94.1 93.6 91.8 91 90.2 87.4 86.8 90.5 95.4 97.7 98.2 98.3 96.6 92.7 88.8 84.5 80.1 77.2 72.8 68.2 74 77.5 81 79.5 75.7 79.6 79.3 76.9 72.5 67.9 62.4 60.5 60.3 60.4 58.7 50.4 46.8 43.9 41.9 40 35.7 30.9 29.5 28.7 27.5 26.1 21.5 16.6 12.1 11 10.9 15.8 16.2 18.8 23.4 17.6 10.1 9.6 9.5 9.8 13.7 14.8 15.7 15.5 9.1
-2.1 -2.1 -2.1 -2.1 -2.1 -2.1 -2.1 -2.1 -2.1 -2.1 -2.1 -2.1 -2.1 -2.1 -2.1 -2.1 -2.1 -2.1 -2.1 -2.1 -2.1 -2.1 -2.1 -2.1 -2.1 -2.1 -2.1 -2.1 -2.1 -2.1 -2.1 -2.1 -2.1 -2.1 -2.1 -2.1 -2.1 -2.1 -2.1 -2.1 -2.1 -2.1 -2.1 -2.1 -2.1 -2.1 -2.1 -2.1 -2.1 -2.1 -2.1 -2.1 -2.1 45.4 63.1 77.7 88.7 94.2 97 101.9 105.2 105.7 105.2 103.6 101.4 100.2 102.7 106.2 104.7 103.7 102.5 100.7 97.9 96 94.6 97.5 97.7 96.8 97.1 97.7 97.2 96.5 93.7 94.5 95.8 97.7 98.8 100.4 103.4 105.1 106.6 107.2 105.7 104.9 108.9 111.5 113.2 110.1 105.1 102.5 97 92.9 92.6 94.4 96.9 94.9 90.9 86.7 86.1 85.2 84.5 84.4 86.6 89.4 93.5 95.2 94.8 89.8 91.3 93.8 94.7 94.9 92.2 88.4 85.9 80.8 79.5 82.1 78.9 85 84 76 83.8 86.9 90.3 92.3 91.4 89.7 87.8 87.6 86.4 87.4 91.4 97.3 103 105 101.6 97.2 93.1 90.1 88.9 84.2 80.1 76.3 72.1 65.6 71.9 75.4 79.3 76 71.5 72.4 69.7 65.3 60.7 57.5 55.2 54.9 54.8 52.3 47.4 46.4 46 47.2 45.3 42 37.6 30.2 28.3 26.7 24.6 19.9 15.7 12.3 11.3 10.7 11.4 11 13.2 16.4 11.3 10.5 10.2 10 11 14.7 16.1 16.5 15.5 8.6
-2.1 -2.1 -2.1 -2.1 -2.1 -2.1 -2.1 -2.1 -2.1 -2.1 -2.1 -2.1 -2.1 -2.1 -2.1 -2.1 -2.1 -2.1 -2.1 -2.1 -2.1 -2.1 -2.1 -2.1 -2.1 -2.1 -2.1 -2.1 -2.1 -2.1 -2.1 -2.1 -2.1 -2.1 -2.1 -2.1 -2.1 -2.1 -2.1 -2.1 -2.1 -2.1 -2.1 -2.1 -2.1 -2.1 -2.1 -2.1 -2.1 -2.1 -2.1 -2.1 -2.1 -2.1 6.9 47 83.6 92.6 98.7 102.3 104.1 104.5 101.2 101.7 100.9 99.5 100.5 101.8 100.5 99.4 97.4 93.5 94.7 94.6 92.2 95.1 93.9 96 95.7 95.3 95.5 94 93.7 95.4 98 100.2 101 102.4 107 109.6 110.7 110.8 109.3 107.8 111.9 114.7 115.7 111.5 107.7 104.1 99.5 93.7 91.6 92.2 93.9 92.2 90.3 87.7 84.9 84.4 83.9 83 83.7 84.7 88.7 90.1 89.3 86.3 88.5 88.8 89.8 89.6 85.7 81.2 79.9 80.1 85.2 87.2 88.2 90.9 88.7 79.1 78 84.7 88.2 89.4 88.3 86.8 84.1 83.9 84.6 87 90.3 95.1 99.7 103.8 99.3 92.9 90 88.2 88.8 88.8 82.4 78.4 74.6 67.9 65.1 70.4 73.3 73.4 71.3 67.6 61.3 59.3 56.4 54.9 52.6 51.2 49.7 46.5 46.8 46.9 48.8 51.1 49.9 46.8 41.9 35 29.3 27.2 23.1 21.2 15.4 12.9 12 11.5 12.2 11.5 11.3 11.3 10.6 10.4 10.8 12.4 14.2 17.2 17.6 17.6 8.9 8.1
-2.1 -2.1 -2.1 -2.1 -2.1 -2.1 -2.1 -2.1 -2.1 -2.1 -2.1 -2.1 -2.1 -2.1 -2.1 -2.1 -2.1 -2.1 -2.1 -2.1 -2.1 -2.1 -2.1 -2.1 -2.1 -2.1 -2.1 -2.1 -2.1 -2.1 -2.1 -2.1 -2.1 -2.1 -2.1 -2.1 -2.1 -2.1 -2.1 -2.1 -2.1 -2.1 -2.1 -2.1 -2.1 -2.1 -2.1 -2.1 -2.1 -2.1 -2.1 -2.1 -2.1 -2.1 -2.1 16.8 59.2 87.2 94.4 98.8 100.1 100.8 98.3 98.3 98.1 97.2 96.2 96 94.1 94.2 92.6 90.8 92 92.1 89.1 93.6 95.6 94.4 94.4 93.2 94 95.1 96.5 99.8 102.3 104.1 104.9 106.3 109.7 111.5 113.4 114.6 112 109.4 115.3 120.9 117.1 112.8 109.4 104.6 99.8 92.8 91 91.3 93.7 94.4 92.5 90 86.5 84.8 84.3 83.6 83.4 82.2 83.6 86 84.2 83.3 83.5 81.9 84 83.5 80.5 79.2 80.3 82.8 88.2 90.6 92.3 95 90.6 82.3 75.9 79.9 84.3 85.9 85.5 84 81.4 79.3 80.3 85.3 87.7 91 95.2 98 94.4 88 84.6 85.3 86.4 84.9 82.6 79.2 75.5 71.8 66.2 63.2 66.2 66.9 66 65.4 62.3 57.4 55.2 53 50.4 48.6 46 42.2 48.2 52.9 56 54.6 53 50.1 44.4 37.2 32.2 28.3 26.8 25 15.2 13 12.9 12.8 12 11.2 11.1 11 10.4 10.8 12.2 15.6 17.3 18.5 18 11.1 8.6 8
-2.1 -2.1 -2.1 -2.1 -2.1 -2.1 -2.1 -2.1 -2.1 -2.1 -2.1 -2.1 -2.1 -2.1 -2.1 -2.1 -2.1 -2.1 -2.1 -2.1 -2.1 -2.1 -2.1 -2.1 -2.1 -2.1 -2.1 -2.1 -2.1 -2.1 -2.1 -2.1 -2.1 -2.1 -2.1 -2.1 -2.1 -2.1 -2.1 -2.1 -2.1 -2.1 -2.1 -2.1 -2.1 -2.1 -2.1 -2.1 -2.1 -2.1 -2.1 -2.1 -2.1 -2.1 -2.1 -2.1 45.3 74 83.8 66.9 95.1 93.4 92.4 95 95.2 93.8 93.5 91.2 92 92.8 90 91.5 91.4 91.7 91.8 93.4 93.5 93.1 92.4 93.8 97.5 99.2 100.1 102.8 105.7 108.7 110.1 107.8 111.4 113.6 116.7 120.1 116.4 111.5 117.3 123.4 119.4 114.3 109.3 104.1 99.7 93.1 91.9 91.4 93.5 94.7 93.9 90.9 87.2 85.5 84.8 85.2 84.7 83.1 82 81.5 81.7 80.7 80.5 79.5 79.2 79.6 79.3 79.9 83.8 87.3 91 93.9 96.6 95.9 90.1 85.8 79.3 75.2 80.6 81.8 81.6 79.8 77.3 75.3 75 80.2 84 87.1 89.8 91.1 90.1 83.7 78.9 81 82.7 79.5 77.5 75.9 72.6 69.2 68 61.4 62.7 62.9 60.8 60 59.4 56.9 53 49.9 46.5 44.3 42 40.6 46.2 52.5 56.4 56.3 55.3 52.8 47.4 40 33.1 28.4 27.4 26.1 16.8 13.5 13.4 12.7 11.9 13.5 16.4 17.5 18.1 15.7 13.4 17.3 19.9 18.7 18.8 8.8 8.5 8.1
-2.1 -2.1 -2.1 -2.1 -2.1 -2.1 -2.1 -2.1 -2.1 -2.1 -2.1 -2.1 -2.1 -2.1 -2.1 -2.1 -2.1 -2.1 -2.1 -2.1 -2.1 -2.1 -2.1 -2.1 -2.1 -2.1 -2.1 -2.1 -2.1 -2.1 -2.1 -2.1 -2.1 -2.1 -2.1 -2.1 -2.1 -2.1 -2.1 -2.1 -2.1 -2.1 -2.1 -2.1 -2.1 -2.1 -2.1 -2.1 -2.1 -2.1 -2.1 -2.1 -2.1 -2.1 -2.1 -2.1 -2.1 37.7 32 14.6 45.1 71.1 88.3 91 92.1 91.7 89.4 88.4 89.4 90.2 90.5 91.9 91.9 90.2 90.4 91.2 91.8 91 90.9 95.9 100.6 103.6 103.5 106.3 110 113.3 110.9 108.4 113.5 118 123.3 121 116.6 113.6 119.1 121.8 117.6 112.9 109.1 104.7 101.8 96.4 95.3 92.9 90.2 90.1 88.1 87.5 86.6 86 89.1 89.8 88.7 86.6 82.7 81.5 80.1 80.4 80 79.5 79.5 79.4 79.5 81 85.5 88.1 93.8 100.7 99.6 94.6 89.9 85.7 81.5 75.9 77.1 77.6 76.7 73.9 72.5 72.1 73.3 75.8 79.8 83.5 86.4 86.7 84.8 81.2 74.7 75.2 76.1 74.6 72.2 71.1 69.1 62.6 59.4 61.2 59 59.9 58.9 54.3 52.2 54.8 43.1 39.8 38.7 38.4 37.4 38.3 40.9 45.2 50.1 54 56.2 55.2 50.4 43.4 34.1 28.9 27.2 25.9 17.9 14.9 13.8 14.1 16.7 20.4 25.2 22.5 20.4 16.1 14.6 15.8 20.6 19.6 10.9 8.3 8.2 8.1
-2.1 -2.1 -2.1 -2.1 -2.1 -2.1 -2.1 -2.1 -2.1 -2.1 -2.1 -2.1 -2.1 -2.1 -2.1 -2.1 -2.1 -2.1 -2.1 -2.1 -2.1 -2.1 -2.1 -2.1 -2.1 -2.1 -2.1 -2.1 -2.1 -2.1 -2.1 -2.1 -2.1 -2.1 -2.1 -2.1 -2.1 -2.1 -2.1 -2.1 -2.1 -2.1 -2.1 -2.1 -2.1 -2.1 -2.1 -2.1 -2.1 -2.1 -2.1 -2.1 -2.1 -2.1 -2.1 -2.1 -2.1 -2.1 -2.1 -2.1 2.5 31.3 78.8 84.3 86.5 84.4 84.4 85.3 86.7 85.8 86.8 88.3 86.5 83.5 88.1 89.2 89.6 88.6 94.1 99.8 105.4 106.5 103.6 109.7 114.8 113 108.8 109.8 115.8 121 119.6 117.5 113.7 114.3 118.9 117.4 114.2 110.8 107.5 106.8 105.1 100.7 95.8 91.8 95.9 96.5 98.9 93.9 91.8 92.7 94.7 95.2 93.6 89.6 83.4 80.8 80.2 80.1 80 79.6 79.5 80.1 80.4 80.9 83.2 85.7 98.9 105.6 97.2 94.1 90.3 85.9 80.7 76.3 75.5 75 72.6 71.7 72.6 73 73.2 73.1 77.7 82 85.7 87.6 82.4 78.4 73.6 67.4 65 65.1 63 65.1 57 57 50.3 54.1 45.1 54.9 54.4 50.5 43.8 38.1 37.9 36.2 35.8 36.5 35.8 35.4 34.3 36.5 42.3 45.8 50.4 50.9 42.9 25.2 18.3 18.7 18 18.2 16.7 14.7 14.1 14.7 22.7 23.7 24.6 22.7 20.8 16.4 16.1 18.1 20.5 19.2 8.8 7.7 7.7 7.3
-2.1 -2.1 -2.1 -2.1 -2.1 -2.1 -2.1 -2.1 -2.1 -2.1 -2.1 -2.1 -2.1 -2.1 -2.1 -2.1 -2.1 -2.1 -2.1 -2.1 -2.1 -2.1 -2.1 -2.1 -2.1 -2.1 -2.1 -2.1 -2.1 -2.1 -2.1 -2.1 -2.1 -2.1 -2.1 -2.1 -2.1 -2.1 -2.1 -2.1 -2.1 -2.1 -2.1 -2.1 -2.1 -2.1 -2.1 -2.1 -2.1 -2.1 -2.1 -2.1 -2.1 -2.1 -2.1 -2.1 -2.1 -2.1 -2.1 -2.1 -2.1 14.2 43 75.4 80.3 79.9 80.6 80.6 80.2 80.1 81.3 80.8 82.2 83.4 86.9 87.6 87.5 89.9 95.6 101.6 107 104.2 106.7 112.2 114.1 110.1 107 111.3 117.1 116.2 115 113.4 110.9 114.5 116.1 113 110.6 107.9 105.1 103 101.6 98.4 94.3 96 102.3 102.6 100.6 96.3 98.9 100 100.8 100.2 95.8 88.8 82.1 80.6 80 79.8 79.7 81.1 85.9 88 85.3 84.3 84.8 88.1 99.3 103.5 95.6 92.9 89.3 85.3 80 76.4 75.7 74.4 72.8 71.5 71.2 70.4 70.7 70.8 75 79.3 82.3 83.2 80.5 75.7 66 55.6 54.3 53.8 56.6 54.6 51.6 52 63.4 67.4 59.1 42.9 40.6 40.3 40.8 41.8 41.7 43.5 43.4 41 35.4 34.1 33.9 32.5 32.8 37.7 42.8 43.9 34.8 18.3 18.9 21.4 20.5 20.1 16.7 15.5 14.1 13.7 24.4 23.4 23.7 22.2 20.9 16.8 17.4 18.2 20.4 10.6 8.1 7.3 7.3 6.9
-2.1 -2.1 -2.1 -2.1 -2.1 -2.1 -2.1 -2.1 -2.1 -2.1 -2.1 -2.1 -2.1 -2.1 -2.1 -2.1 -2.1 -2.1 -2.1 -2.1 -2.1 -2.1 -2.1 -2.1 -2.1 -2.1 -2.1 -2.1 -2.1 -2.1 -2.1 -2.1 -2.1 -2.1 -2.1 -2.1 -2.1 -2.1 -2.1 -2.1 -2.1 -2.1 -2.1 -2.1 -2.1 -2.1 -2.1 -2.1 -2.1 -2.1 -2.1 -2.1 -2.1 -2.1 -2.1 -2.1 -2.1 -2.1 -2.1 -2.1 -2.1 -2.1 40 64.3 72.4 63.9 73.1 74.4 68.5 77.1 78.6 79.5 81.9 84 85.1 85.6 84 91.2 96.8 104.1 104.6 103.3 108.2 112.5 109.6 106.6 106 111.5 114.1 111.6 110.3 108.9 109.5 113 111.8 108.5 106.7 104.2 100.2 98.5 97.5 95.8 95.8 102.4 106.9 103 100.6 102.1 105.2 105.7 106 103.1 96.3 87 87.1 83.3 80.1 79.7 80.3 88.8 95.9 99.9 97.7 93.5 92.8 91.8 96.9 100.4 94.3 91.2 87.7 83.8 78.7 75.6 74.4 74 73.2 73.9 73.5 72.5 68.6 68.8 70.2 75.7 78.6 79.2 75.3 70.8 58.5 65.2 66.5 67.9 68.9 67.4 66.5 66.9 71.4 75.7 65 57.4 49.8 46 44.5 46.8 51.9 54.2 54.5 51.5 46.9 44.2 41.3 39.8 33.9 31.9 30.2 33.5 23.4 32.7 29.2 27.2 20.4 22.7 18.3 16.5 15.1 13.8 23.3 23.2 23 20 20.2 17.3 18.9 19.5 22.2 8.9 7.8 7.1 7.1 6.6
-2.1 -2.1 -2.1 -2.1 -2.1 -2.1 -2.1 -2.1 -2.1 -2.1 -2.1 -2.1 -2.1 -2.1 -2.1 -2.1 -2.1 -2.1 -2.1 -2.1 -2.1 -2.1 -2.1 -2.1 -2.1 -2.1 -2.1 -2.1 -2.1 -2.1 -2.1 -2.1 -2.1 -2.1 -2.1 -2.1 -2.1 -2.1 -2.1 -2.1 -2.1 -2.1 -2.1 -2.1 -2.1 -2.1 -2.1 -2.1 -2.1 -2.1 -2.1 -2.1 -2.1 -2.1 -2.1 -2.1 -2.1 -2.1 -2.1 -2.1 -2.1 -2.1 -2.1 -2.1 22.4 24.2 25 31.4 14.2 29.9 75 78.2 80.2 81.3 82.4 81.6 85.8 91.7 97.7 100.2 99.4 104.8 109 107.1 105 103.2 104.5 109.5 107.9 106.6 105.4 102.8 106.7 106.4 106.1 104.8 102.9 101.5 102.8 107.5 106.4 100.7 102.3 106.6 105.9 105.1 104.4 107.3 107.5 107.1 106.7 101.9 93.7 93.5 95.8 93 82.4 81.4 86.8 94.7 102.5 105.7 103.3 99.9 97.9 91.9 92.3 98.1 94.7 89.4 85.8 81.3 76 75.2 74.1 73.6 73.5 74.2 73.5 72.4 69 68 67.7 71.4 73.7 72.2 67.7 60.4 63.9 71.7 73.7 76.1 76.3 77.3 76.4 75.9 76.2 77.8 74.2 67.4 59.7 56.4 52.1 54.8 56 57.6 57.3 56.7 52.8 51 46.9 42.1 39.5 36.6 36.3 26.7 35.4 36 31.4 21.1 23.7 23.5 20.4 18.5 17 14.8 16.6 22.9 23.3 22.2 17.6 19.1 20 19.9 14.5 8.5 7.6 7.1 6.6 6.1
-2.1 -2.1 -2.1 -2.1 -2.1 -2.1 -2.1 -2.1 -2.1 -2.1 -2.1 -2.1 -2.1 -2.1 -2.1 -2.1 -2.1 -2.1 -2.1 -2.1 -2.1 -2.1 -2.1 -2.1 -2.1 -2.1 -2.1 -2.1 -2.1 -2.1 -2.1 -2.1 -2.1 -2.1 -2.1 -2.1 -2.1 -2.1 -2.1 -2.1 -2.1 -2.1 -2.1 -2.1 -2.1 -2.1 -2.1 -2.1 -2.1 -2.1 -2.1 -2.1 -2.1 -2.1 -2.1 -2.1 -2.1 -2.1 -2.1 -2.1 -2.1 -2.1 -2.1 -2.1 -2.1 -2.1 -2.1 -2.1 -2.1 14.2 64 75.4 53.7 66.4 79.6 79.3 84.2 89.1 94.5 94.4 97.2 104.6 107.3 102.8 100.7 99 102.1 104.6 102.7 102 100.6 98.7 99.5 101.9 100.9 100.3 101.3 104.5 112.9 112.7 106.8 103 107.6 108.8 108 108.2 108.4 108.7 107.1 106 103.9 95.9 91.5 97.7 102 98.3 88.5 86.1 90.3 98.1 105.7 106.3 103.3 100.4 98.6 90.2 89.8 95.5 93.3 88 82.8 77.8 76.1 77.5 78.4 75.8 76 74.5 73.7 73.2 72.2 72.4 71.1 73.9 68.4 64.7 67.2 66.3 69.7 75.8 78.3 82.3 83.9 84.4 83.8 82.8 80.1 77.9 75.7 70 62.3 59.2 57.4 55.9 54.8 54.2 56.1 58.3 55 51.9 48.9 44.5 40 38.4 36.2 34.5 35.4 33.3 28.4 23.9 24.9 23.1 20.2 18.4 17.3 16 15.1 14.1 18.4 17.7 17.5 21.3 21.6 21.4 9.3 8.2 7.5 7 6.5 6.4
-2.1 -2.1 -2.1 -2.1 -2.1 -2.1 -2.1 -2.1 -2.1 -2.1 -2.1 -2.1 -2.1 -2.1 -2.1 -2.1 -2.1 -2.1 -2.1 -2.1 -2.1 -2.1 -2.1 -2.1 -2.1 -2.1 -2.1 -2.1 -2.1 -2.1 -2.1 -2.1 -2.1 -2.1 -2.1 -2.1 -2.1 -2.1 -2.1 -2.1 -2.1 -2.1 -2.1 -2.1 -2.1 -2.1 -2.1 -2.1 -2.1 -2.1 -2.1 -2.1 -2.1 -2.1 -2.1 -2.1 -2.1 -2.1 -2.1 -2.1 -2.1 -2.1 -2.1 -2.1 -2.1 -2.1 -2.1 -2.1 -2.1 2.5 30.4 50.4 14.5 56.1 76 75.7 81.3 84.9 78.7 77.1 94.5 102 102.1 97.4 96.2 93.2 97.7 97.1 96.9 95.6 94.7 95 98.9 101.3 99 100.7 105.7 111.3 114.1 109.7 105.7 107.4 111.9 112.6 111.2 110.1 108.7 107.3 104.9 103 99.6 92.2 96.9 105.6 104.8 98.9 91.5 88.2 92.4 100.6 105.7 103.5 100.2 98.6 96 87.2 86.3 91.6 89.8 85 78.2 80.4 83.2 84.6 84.8 83.7 81.1 77.5 76.8 76.2 74.2 76.2 75.5 73.5 71.2 74.5 72.5 71.3 75.4 80.3 82.2 86.5 89.2 90.5 91.5 88.8 84.9 82.7 78.3 73.1 65.5 61.6 59.2 57.6 56.2 54.8 56.6 57.1 56.2 52.4 49.4 44.6 40.1 38.3 36.5 36.5 37.2 32.3 28.5 26.1 25.4 25.2 21.1 18.5 16.8 14.7 13.5 15 17.8 18.7 19.8 22.9 27.4 22.5 9.2 8.5 7.7 6.9 6.4 7.3
