ncols 200
nrows 83
xllcorner 240000
yllcorner 762300
cellsize 50
652.8 663.1 673.3 683.7 696.7 708.1 719.1 729.9 736.3 741.8 748.3 753.6 759.6 767.5 779.1 787.6 798.4 807.2 816.9 826.5 834 843.5 854.4 863.4 871.4 879.7 884.6 883.6 865.1 843.5 829.3 816.7 813.5 815.5 814.3 819.8 820.2 832.5 834 834.4 839.6 848.5 842.7 842.9 839.3 828 816.4 807.9 796.8 785.7 774.1 761 749.7 737.4 726.8 716 706 699.8 692.3 686.8 679.8 673.9 672.6 668.5 664.2 662.4 658.2 656 659.9 662.6 663.3 665.4 671.6 677.7 682 689.4 699.1 707.1 715.8 722.6 730.7 743.3 752.7 761.9 772.7 783.4 790.2 794.6 802.2 805.4 806.1 788.9 760.6 730.6 707.9 686 667.8 658.7 651.5 640.7 629.1 619 610.1 600.6 590.2 582.5 569.3 558.9 553.6 541.9 536.4 529.4 526.8 517 513 508.1 504.9 503.5 500.4 497.1 491.2 488.2 486.5 481.4 478.3 477.9 474.1 468.9 467.7 467.8 467.1 465.6 464.4 468.9 463.3 463.4 459.3 461.6 460 459.8 462 460.2 459.1 455.2 457.2 455.9 455.3 455.6 454.2 453.4 454.1 450.9 450.8 450.8 450.4 448.3 444.9 441.6 439.5 437.3 436.3 431.5 428.3 433.2 426.5 423.8 421.7 423.8 418.4 417 417.2 418.9 419.4 412.7 408 405.8 404.2 402.4 402.2 395.8 390.7 387.6 386.6 386.1 384.9 379.5 375 370.7 364.6 357.8 356 356 356 356 356 356 356 356 356 356
657.9 669 679.9 691.3 704.6 715.1 726.7 737.2 745.2 752.8 759.2 767.7 771.7 776.9 786.1 793.8 801.7 810.2 818.3 826.6 834.7 842.3 850.7 859 867.3 876.5 885.6 892 889.5 872.4 852.2 844.8 839.3 841.4 843.6 848.4 843.6 847.2 858.8 868.3 864.9 872.7 858.8 844.4 823.3 813 803.2 794 783.3 769.3 759.1 749 737.7 728.6 717.4 708.1 699.9 693.2 686.4 680.7 674.6 670.7 665.8 663.2 660.8 657.1 653.7 655.6 656 654.8 656 658.5 664.5 670 676.3 683.9 689.7 699.2 707.6 715.1 724.7 737 748.7 759.4 770 778.4 785 790 795.4 797.9 794.2 789 774.6 738 708.7 688.4 671.3 657.3 644.5 635.5 624.6 613.8 604 593.7 583.3 574.7 562.7 554.4 550.9 541.2 536.2 529.2 523.9 516.7 512.7 507 504 501.9 499.7 496.1 494.7 488.4 488.2 481.9 478.5 476.7 472.6 471.4 469.1 466.6 464 463.5 471.7 468.1 463.1 466.1 468.1 468 461.9 461.8 460.9 460 459.1 454.7 455.9 455.1 454 450.2 451.4 452.8 452.5 450.6 447.9 447.6 447.5 444.9 445.8 441.3 438.9 435.5 434.6 430.1 431.7 426.9 423.8 422.1 421.2 416.6 414.1 411.8 411.4 417.5 413.9 409.8 408.8 407.3 404.2 401.9 395.5 387.6 383.5 383.4 384.1 382.6 384.2 381.3 376.7 367.5 361.5 356 356 356 356 356 356 356 356 356 356 356
661.6 675.5 690.1 701.4 713.1 728.4 740.7 749.2 755.7 766 771.1 777 780.8 785.8 791 796.7 803 809.4 815.7 822 829.8 837 844.5 852.4 861.7 871.2 880.5 888.4 891.7 894.1 885.6 869.2 869.1 864.8 868.9 864.7 870.9 869.4 879.9 890 887.9 875.2 862.5 837.8 819.5 805.7 794 777.5 771 761.1 751.6 741.2 730.1 718.7 709.5 700.4 691.8 687.2 680.9 675.4 669.7 663.8 659.5 657.9 654 654.9 652.2 651.9 651.6 649.1 649.6 652.6 658.4 664.6 671.3 678.7 684.1 692.3 700.6 710.6 721.7 734.6 744.6 754.2 763.6 772.2 778.7 782.9 786.4 788.6 785.4 783.5 780.2 744.5 720.9 685.6 669.1 653.6 639.3 627.5 615.1 605.1 592.9 581.2 571 564 554.2 550.2 546.1 541.2 532.3 526.5 522 516.9 509.4 507 502.6 501.3 500.6 494.2 490.5 488.1 485.6 484.3 484.4 474.1 473.6 469.8 468 466.3 465.7 466.2 473.8 475.2 469.5 470.5 470.7 468.2 465.4 461 460 457.4 456 455.9 455.1 453.4 451.7 449.2 452.7 449.2 448.1 446.7 446.4 444.7 443.1 442.4 442.6 441.1 438 436.8 431.3 431 426.6 424.2 422.7 422.2 423.6 414.2 409.1 408.5 407.7 410.8 408.5 407.1 405.5 403.3 403.1 399 391.1 387.7 382.2 379.4 377.5 373.7 374.9 379.3 371.5 364.9 361.1 356 356 356 356 356 356 356 356 356 356 356
668.3 686.1 700.1 714.4 727.6 741.6 753.7 759.7 767.7 774.1 778.1 780.1 785.3 788.1 792.7 795.1 799.2 803.3 808.8 815.6 821.8 827.8 835.2 843.2 852.4 861.2 870 879.5 888.4 900.6 907.2 901.4 895 895 892.8 887 889 893 904 898.1 890.4 874.5 852.1 832.6 814.3 797.2 785.4 770.2 758.7 750.3 741.6 732 724.5 715 704.7 695.1 687.3 680.4 675.8 669.2 663.3 658.2 655.3 652.7 651.9 649.3 644.7 644.6 645.1 644 647.4 648.7 653 658.1 663.5 671.7 681.1 689.5 697.1 707.1 715.8 726 737.7 748.5 757.9 765.2 770.2 776.4 781 785.4 786.7 780.3 775.1 756.8 730.7 684.1 665.1 645.5 631.2 616.2 604.4 592.9 582.8 567.4 558.8 549.7 544.3 539.7 536.9 533 528 524.4 519.9 514.8 509.2 505.5 502.9 501.5 496 492.5 490.5 487.6 482.1 482.3 477.6 473 475.4 467.6 468.9 469.1 469 470.7 473.4 476.8 474 470.7 470 468.4 466 460.9 458.1 455.7 452 453.7 453.9 453.1 449.4 448.1 448.6 447.6 442.7 442.6 443.9 442.4 440.1 440.6 438.3 436.8 435.5 434.1 431.3 429.2 425.1 424.4 423.2 424.3 423.5 413.2 409.4 406.5 404.7 405.7 405.3 403.7 404.3 399.7 397.4 395 393.1 390.4 383 380.1 379.9 374.5 370.5 369.7 365.6 362.9 359.6 356 356 356 356 356 356 356 356 356 356 356
676 693.5 711.2 726.4 741.9 752.4 762.9 767.7 771.8 776.5 780.9 781.4 785.2 787 788.4 790.1 791.9 795.1 799.2 804.7 809.8 816.5 824.1 831.6 839.3 848.1 857.9 868.1 879 888.6 902.4 910.3 913.9 918.2 921.8 925.6 922.8 916.8 914.3 905 883.8 862.9 844.9 827.3 813.9 795.4 779.8 765.2 749.3 738.3 729.5 721.8 715.6 709.5 699.3 691.3 681.9 675.9 670.4 664.5 658.6 654.4 652.6 647.8 645.7 642.9 641.3 642 641.4 643.2 641.6 646.2 647.3 653.8 660.6 667.4 676.2 685.5 693.2 701.8 711.8 725 735.4 743.8 751.7 758.8 766.4 771.6 776.3 780.9 784.2 784.5 780.4 773.1 737.2 701.7 660.4 639.7 623.4 604.8 594.7 577.8 566 557.8 547.1 540.5 534.9 532.5 527.9 526.2 524.7 520.2 517.8 512.8 510 509.9 502 497.2 493.2 491.9 488.8 487.3 486.3 483.5 478.4 477.4 474 470.5 471.7 471.5 472.6 474.1 476.1 476.9 475.5 470.9 468.2 466.3 464.1 462.2 458.3 455.1 454.4 451 447.4 451.2 447.9 447.3 445.4 443 442.8 439.9 439.3 438.9 435.9 436.5 435.4 432.9 432.3 429.4 426.3 425.5 422.8 422.2 424.7 420.5 417.4 413.5 408 406.1 404.8 404.3 406.3 405.3 406.5 404.1 404.6 401.8 396.2 392.9 385.9 383.8 381.8 375.3 371.8 367.2 361.3 356 356 356 356 356 356 356 356 356 356 356 356 356
684.3 700.1 715.2 729.8 743.6 755.3 763.9 768.1 771.1 773.4 777.3 779.1 779.6 778.5 778.4 778.9 780.6 783.3 787.6 792.9 795.9 802.8 810.6 818.1 824.9 831.8 840.9 852.5 862.1 871.6 888.1 903.2 914.9 924 937.1 938.9 931.9 925.1 918 901.6 889.7 863.3 841.2 821 802.3 789.9 775.8 761.3 743.9 731.3 721.2 713.8 705.3 700 692.3 683.4 676.7 671 664 657.2 653.1 650 645.6 643.8 641.5 639.3 638.6 638.7 638.3 637.2 638.1 640.1 643.9 650.4 655.3 660.8 670.7 679.1 688.9 696.2 704.9 715.7 725.3 734.9 745.2 755.5 763.2 768.7 773 780.8 787.3 790.3 785.4 779 753 715.8 667 631.8 617 599.3 583.3 575.7 559.5 549.3 539.8 531.8 526.9 525.1 522 520.5 517.4 517.5 513.6 511.7 511.1 504.7 499.5 496.8 497.3 492 489.5 487.6 488.1 484 481.9 477.5 478.5 474.6 475.5 475.3 476.7 478 477.1 475.2 473.4 470.1 468.8 465.6 462.7 459.9 458.4 455.9 453.7 451.2 444.7 448.8 446.7 446.1 444.1 440.9 439.6 438.5 434.3 432.5 434.1 432.4 431.9 429.9 426.9 427.6 424.4 422.2 421.6 420.5 421.7 418 414 411.6 407.9 405.7 404 405 403.8 402.8 404 402.3 400.1 400.5 403.2 393.5 388.3 388.1 383.1 378.1 373.3 367.6 363.5 356 356 356 356 356 356 356 356 356 356 356 356 356
687.3 702.5 716.6 729 740.3 749.2 758.5 763 766.5 765.6 768.4 770 769.7 769.3 768.3 769.7 770.5 771 773.6 781.2 785 789.5 795.1 801.4 808.8 815.1 823.4 834.9 847.1 857.1 871.9 885.1 900.8 913.3 925.5 939.5 935.2 930.7 922.2 906 892.9 867.6 843 820.8 803.1 783.4 768.2 756.4 741.4 725.6 715.8 707.7 699.8 692.7 684.3 677.4 672.7 664.6 659.2 651.9 648 642.7 640.7 639.9 638.7 637.1 633.9 632.9 630.1 630.2 634.9 636.7 639.7 643.2 647.8 655.2 663.1 672.3 683.2 690.2 700 710.1 721.7 733.2 742.9 752 760 766.3 772.1 779.8 788.4 792.7 791.8 777.8 760.3 722.2 664.5 631.3 612.7 595.4 575.7 563.6 554.9 541.9 533.8 527.7 523.9 521.2 518.7 515.9 515.2 514.1 512.1 510.8 513.2 503.6 501.1 503.9 495.8 492.2 492.1 488.1 487.6 486.3 481.9 479.2 479.1 478.4 479.3 480.1 480.6 480.7 477.8 473.9 472.3 470.3 469.1 465.5 461.9 458.2 456.4 456.5 452.6 449 447.3 445.6 440 443.9 442.3 439.8 436.9 435.7 433.8 430.4 431.3 428.1 428.2 426.2 426.2 424.1 421.7 419.8 418.3 419.8 419.7 413.4 410.8 408.7 408.2 408.2 406.3 406.8 406.6 406.9 406.1 406.4 402.6 401.3 399.9 394.1 392.8 391.3 385.4 380.5 374.4 366.6 359.1 356 358.7 356 356 356 356 356 356 356 356 356 356 356
687.9 702.5 713.1 725.7 735.9 744 750 755.7 757.6 757.5 757.7 759.5 759.7 758 756.9 758.2 757.8 759.6 763.7 768.5 772.8 775.4 781.5 785.9 791.4 796.8 805.6 816 828.7 840.8 854.4 868.8 882.5 895.7 907.9 920.4 929.6 935.5 924.8 909.5 891.1 874.6 845.8 823.3 804.2 786.7 774.5 750.5 726.3 722 709.4 702.3 697.7 688.8 681.9 675.2 668.6 660.5 653.1 648.9 643.7 637.9 637.3 635.7 635.1 633.6 628.5 627.9 627.7 628 629.6 629.6 632.9 636.8 641.6 648.8 657.1 666.9 676.9 688.2 698.9 710.9 722.4 732.2 740.6 750.5 758.3 765.2 771.4 778.4 786.3 793.1 794.7 773.1 748.9 709.3 658 621.5 604.8 593.7 571.9 556.3 546.2 540.2 532 525.5 522.9 518 515.9 514.5 513.2 515 509.9 510.1 507.3 504.7 507.2 505.4 500 495.5 497.3 492.7 489.4 487.9 483 481.5 484.5 484.4 484 483.8 485.1 482.5 477.8 473.8 470.6 467.6 465.1 463 462.1 461.2 458.6 454.6 453.1 449.5 447.3 444.8 443.8 438.4 436.1 435.9 434.8 432.3 431.8 429.4 427.8 425.5 423.4 424.2 421.9 422.9 418.7 416 417 419.9 415.9 412.3 410.1 408.4 407.3 408.4 408.9 408.5 408.9 407.6 406.9 407.5 406.7 403.5 398.3 394.9 393.7 392.4 388.4 384.8 375.3 366.9 359.7 356 356 356 356 356 356 356 356 356 356 356 356 356
686.2 698.6 708.8 720.6 730.6 737.6 741.5 744.6 746.3 746.3 748.4 747.3 744.6 744.1 742.3 743.3 745.8 747.6 749.9 753.6 754.6 762 767.7 772 775.7 782.5 790.4 799.3 810.2 822.4 836.9 850.7 864.7 878.8 889.8 901 915.2 927.8 926.3 911.2 892.9 870.8 849.5 828.5 809.9 787.5 773.9 753.8 732.2 711.1 701.5 695.1 693.4 685 678.8 673.6 664.6 656.3 649.4 643.1 640.3 636.5 631 632.1 631.9 629.3 627.7 622.9 622.9 624 625.8 626.9 628.1 632.8 638 645.2 655.3 666.1 679 689.4 700.4 709.2 720.3 729.4 740.7 749.6 756.5 763.6 770.8 777.7 784.6 787.8 783.8 764 733.5 695.7 648.4 615 602.3 588.7 571.5 555.3 543.3 536.5 531.4 525.3 521.1 517.3 517.6 514.9 510.6 510.8 510.9 515 512.5 512.3 506.5 508.1 503.5 500 501.5 496.7 494.7 488.5 487.5 487.6 487.6 486.7 486.5 485.5 485.6 481.5 476.1 472.8 469.4 467.4 464.4 462.1 462.1 459.9 458.4 456.9 454.3 452.2 448.3 444.8 443.2 439.6 439 432.3 434.4 431 428.2 427.5 424.1 422.5 422.5 420.7 419.7 419.6 417.3 415 415.8 419.9 414.1 411.9 409.6 408.4 410 410.6 413.1 412.6 410.5 407.9 408 409.3 411.4 406.7 400.3 395.2 394.2 392.5 390.5 384.9 377.2 368.7 363 360.7 356 356 356 356 356 356 356 356 356 356 356 356
683.8 694.3 704.6 714.1 723 727.5 731.4 732.8 734.6 735.7 735.1 732.7 731.8 731.4 729.1 728.6 729.7 731 733.5 736.2 740.9 747.1 752.1 757.1 763.1 768.8 777 785.7 795 805.7 818.7 833.6 848.7 864.2 876 886.9 896.9 908.9 916 915.1 903.6 867.2 850.2 832.9 813.9 791.3 770.5 756.3 736.2 711.6 695.6 689.1 691.3 682.5 675.4 667.7 661.8 653.4 645.8 642.7 637.7 633.9 630.3 627.8 628.3 627.2 624.1 623.4 619.3 620.9 622.3 623.6 627.3 630.5 635.7 641.8 653.2 664.5 675.6 685.3 695.6 707.5 718.6 727.5 737.1 746 754.6 762 770.1 774.9 781.3 781.2 774 752.3 722.8 678.9 639.8 604 585.3 579.4 566.8 552.9 543.5 535.7 528.6 522.5 521.2 520.4 515.5 512.1 512.7 510.9 513.4 512.8 513.3 513.8 511.1 507.6 508.1 504.9 506.6 498.4 496.8 491.8 488.8 488.6 490.1 488.3 486.8 486.2 485.1 482.3 477.5 472.8 469.8 466.6 463.1 461.4 461.5 461.2 457.5 456.8 453.1 452.7 449.4 443.7 442 437.3 435.9 435.3 431.8 426.3 426.5 423.8 423.2 422.9 420.6 419.9 418.9 418.8 416.5 414.7 415.8 417 412.8 411.7 409.4 409.5 410.9 412.7 414.8 414.2 410.7 408.1 408.8 409.9 410.5 409.5 400.5 397.7 396.1 394.5 390.3 382.7 377.3 370.2 365.8 357.9 356 356 356 356 356 356 356 356 356 356 356 356
678.8 689 697.2 706.4 713.5 717.1 720.3 720.9 722 720.9 720 719.2 720 717.8 714.6 714.9 716.8 719.7 722.5 724.1 727.2 730.7 737.5 743.6 749.8 755 761.9 771.4 781.2 793 803.7 817.8 833.9 848.6 861.4 872.4 883.9 894.7 901.9 904.8 893.5 870.6 841.5 822.7 803.5 784.2 773.8 756.1 732.3 709.4 693.9 684.3 683.8 678.3 667.8 662.9 654.6 649.7 643.7 641.2 635.2 630.4 626.3 625 624.2 623.1 621.6 620.3 617.7 619.1 620.2 622.8 625.1 629 634.2 641.3 649.3 658.9 670.8 682.9 693 704.7 713.8 724 733 743.1 752.5 760.1 765.3 768.1 772.7 769.8 753.9 740.1 708.9 665.7 626.4 598.7 576 563.7 559.5 549.8 541.9 534.2 528.4 523.9 521.5 518.6 513.7 512.2 514.3 512.6 513.1 513.5 513.2 516.4 514.4 514.1 511 507.7 507.7 504.2 497.2 494.8 492.7 491.3 490.7 491.5 490.3 490.3 487 480.3 477.6 472.7 468.5 467 463.1 462.3 461 459.1 457.2 456.2 452.3 449 450.8 447.5 441.2 436 434.2 433.5 430.9 429.8 427 425.2 421 420.3 419.6 417.7 416.6 416.9 414.7 412 413.2 412 411.2 411.2 410.2 410.8 412.5 414.8 416.7 415.8 411.5 408.4 409 409.8 409.8 409.6 398.9 397.6 395.9 393.3 389.6 385.5 378.7 371.1 366.2 358.2 356 356 356 356 356 356 356 356 356 356 356 356
674.6 683.7 690.9 696.5 702.4 706.7 708.6 708.3 707.9 706.5 707.2 706.2 706.1 704.6 702.9 704.3 705.5 707.8 711.3 713.8 715.1 718.4 725.1 729.8 735.3 741.7 749 757.2 767.3 779.8 790.9 804.5 818.6 833 844.1 856.6 868.6 880.6 890.6 894.7 893.3 872.2 841.5 824.2 806.8 785.7 770.5 761.4 728.8 703.9 690.8 679.7 672.7 671.8 663.7 654.1 650.4 645.3 641.6 638.1 633.8 628.7 624.6 624.1 622.5 620.4 620.3 618.5 615.3 618.7 619.5 620.9 622.5 624.1 628.7 636.1 645.2 652.6 665.9 677.9 687.5 698.5 711.8 722 733.4 743 748.6 755.3 760.3 760.6 764 756.5 748 724.4 688 652.5 619.2 592.7 568.2 555.5 545.9 544.2 538.2 532.3 530.4 523.9 519.5 515.4 514.5 512.9 512.9 513.2 512.7 512.3 512.3 516 516 520.1 515.1 510.9 510.7 507.4 501.6 498.7 496.4 494.4 493.8 491.9 491.8 490.3 486 480.6 478 473.2 469.3 466.6 464.2 462.8 462.7 459.1 457.1 456.2 453.1 453.7 449.7 446.8 442.8 437.2 433.4 430.6 430.2 428.2 425.9 423.1 420 419.6 417.4 417.1 417.6 416.8 411.2 410.7 411.2 410 411.3 410.7 411 411.5 413 415.1 418.3 417.4 411.6 410 409.6 410.2 410.9 409.4 398.4 397 397.3 394.7 392.3 386.7 377.6 371.1 366.6 356.3 356 356 356 356 356 356 356 356 356 356 356 356
668 677.1 681.4 686.4 691.6 695.4 694.8 696.4 697 697.1 696.5 695.7 694.1 694.2 694.1 694.8 695.6 698.1 700.5 703.3 706 710 713.6 718.4 724.2 730.6 738.1 746.4 754.5 765.4 777.8 791.1 804.5 817.2 830 844.2 855.5 867.4 876.9 883.6 882.9 874.1 849.3 821.6 798.6 784.1 765.2 745.3 718.9 696.5 685.7 677.9 670.7 663.9 655.6 653.2 649.4 645.5 638.2 635.7 631.7 627 622.6 620.4 620.2 618.1 619.7 617.1 616.8 618 617.5 616.1 619 621.6 626.1 633.3 643 651.3 659.5 672.7 684.2 696.1 708.2 719.8 729.8 738.2 744.3 749.2 749 751.1 749.4 734.8 726.3 709.4 672.4 636.7 613 586.8 565 553.7 543.8 537.4 534 530.4 528.3 523.5 519.1 517 520.2 519.6 517.2 513.6 513.9 513.9 512.3 515.1 519.4 521.4 519.5 515 513 509.7 505.5 501.8 499.9 498.7 495.9 493.1 491.2 488.1 485.5 479.8 478.1 475.2 472.7 469.3 465.9 462.5 462.5 459.1 461 455.8 455.7 454.9 449.7 449.4 443.7 441.8 436.5 432.5 430.6 429.7 426.5 422.3 420.2 419.9 418.4 419.1 418.8 416.7 412.8 408.6 410.4 409.3 411.3 411.3 410.9 412.1 413.7 416 419.4 417 413.6 412 411 413.9 411.2 406.3 398.3 397 397 395.7 393.5 389.5 378 372.8 368 362.3 356 356 356 356 356 356 356 356 356 356 356 356
663 669.7 674.3 678.2 681.4 683.4 684.7 686 687.1 685.2 685 684.4 683.9 685.5 685.6 684.8 684.9 688.1 691.2 694.7 696 699.2 703.6 709.7 714.8 719.6 727.6 735.2 743.6 753 766.1 778.9 790.5 803.1 817.1 831.1 843.5 854.4 864.3 870.2 872.5 864.5 841.6 826 801.8 786.7 768.1 749.9 726.5 702.8 684.4 671.3 665.3 663.1 653.3 651.2 647.5 647.8 639.3 633.8 627.7 624.2 622.7 620.5 619.9 615.4 617.1 615.3 616 615.3 610.8 613 614.3 618.7 624 629.3 637.8 646.8 655.9 668 680 689.4 701.3 711.3 722.1 728.1 733.5 737.8 739.3 740 737.3 722.9 714.8 691 659.6 630.5 602.3 579.7 558.4 549 542.6 535.5 530.1 528.2 527.3 523.4 520.7 521.2 521.9 522.5 518.2 515.2 515.2 516.4 516.2 517.7 519.9 522.2 521.6 519.5 514.7 513 507.6 503.1 501.4 500.4 498.3 496.2 492.6 488.3 484.5 482.2 481 478.1 473.6 470.8 467.7 464.7 463.5 464.2 459 458.8 457 453.7 456.6 452.1 445.2 442.4 437.4 434.8 432.9 429.8 427.2 422.9 421.4 421 422.3 418 414.8 412.8 410.6 407.3 409.2 409.9 410.7 410.8 411.5 412.6 414.6 417.2 419.9 417.9 415.3 413.8 414.7 418.7 409.4 401.8 397.6 396.7 395.4 393.6 391.2 386.6 378.9 374.7 369.4 362.9 356 356 356 356 356 356 356 356 356 356 356 356
655 659.7 664 666.5 670.1 672.1 674 674.1 674.5 674.1 673.6 673.1 673.1 674.9 673.8 673.8 675.6 678.8 681.7 683.5 684.5 687.5 691.4 697.7 703.8 709.2 717.2 720.2 733.6 744.5 755.3 767 778.1 790.5 803.1 817.9 831.5 842.6 852.1 858.1 861.4 860.6 847.5 822.3 809.8 780.1 765.3 754.9 733.1 709.2 685.7 669.4 662.2 657.8 652.2 646.9 646.2 645.8 636 631.9 627.8 624.8 621.2 619.8 620.6 614.8 615.4 615.3 608.6 610.4 607.8 610.5 613.3 614.9 619.4 626.2 633.9 640.2 648.3 661.4 670.8 682.9 692 702.6 710 717.6 723.6 724.9 728.4 725.1 725.5 713.8 703.1 682.7 653.8 621.9 596.1 572.2 555.6 545 537.5 533.9 531.1 531.2 529.8 529.6 522.4 524.3 523.3 521.5 519.3 520 519.1 517.8 515.8 519.7 525.2 523.2 521.1 519.1 516.7 513.5 509.9 505.6 502 499.4 498.7 495.6 493.1 488.5 484.7 485.5 484.5 479.8 475.6 472.7 468.1 467.3 470.5 465.8 464 464.7 462.6 464 463.2 456.6 446.7 442.8 439.4 439 435.8 430 426.5 423.2 421.6 421.8 419.2 415.9 412.8 410.8 408.9 407.8 408.8 410.5 412 411 411.9 413.5 415.9 418.4 420 419.5 417.1 417.2 421.9 415 404.8 399.6 396.6 395.9 393.4 391.6 387.4 382.3 378.6 374.3 369.7 361.1 356 356 356 356 356 356 356 356 356 356 356 356
646.4 650.7 653.2 656.6 659.8 660 662 662.3 663.5 663.6 662.7 663.6 663 662.5 662.4 664.3 666.1 669.4 672.2 673.7 676.4 679.8 683.7 688.3 693.6 700.6 707.6 716.1 726.2 735.9 744 756 768.1 778.3 793.2 806.6 819.7 831.6 840.9 846.7 847.3 845.8 834.4 814.6 793.8 776.3 759.6 745.7 732 712.9 691.5 673.4 663.9 655.9 652.6 645.2 642.2 640.1 638 631.2 629.6 625.3 623.9 620.5 619.7 612.9 615.5 612.3 611 606.4 606.1 608.2 610.5 611.4 616.6 620.1 627.1 634.7 641.3 651.6 660.9 673.3 683.6 692.6 700.5 706.7 711.5 716.8 717.5 717.2 713.7 703.3 695.3 674.7 648.1 619.1 591.4 566.8 553.5 539.9 536.7 535.1 533.5 531.3 526.8 525.8 527.2 526.4 524.4 523.3 523.6 521.6 522 519.7 517.1 520.5 525.2 522.7 520.5 519.2 517.3 514.2 510.6 507.2 502.4 501.3 500.1 496.2 492.3 491.3 489.1 487.5 486.5 481.7 477.1 472.6 469.5 470.7 471.9 466.9 466.3 470.1 467.2 467.2 466.4 457.5 449.1 446 442.2 439.1 435.9 432.4 427.8 422.9 420.9 420.3 416.5 414.1 411.3 408.7 405.5 407.5 410.5 412.3 412.1 411.3 412.7 414.2 416.7 419.6 420.6 419.5 418.6 418.4 421 409.8 402.9 398.2 395.8 394.5 391.1 389.8 384.2 379.3 376.1 372.8 367.4 357.6 356 356 356 356 356 356 356 356 356 356 356 356
639 642.9 646.6 648.5 649.4 649.5 650.5 650.2 651.3 652.5 651.8 650.4 650.3 650.9 654.5 656.6 658.4 661.3 664.7 667.6 670 671.4 675.7 680.1 686.4 692.4 699.6 708.9 717.3 722.1 736.8 748.2 760.1 772.4 784.8 796.7 810 821.8 830.4 836.9 836 829.6 819.4 808.1 796 773.5 753.4 740.1 723.9 713.2 690.2 677.6 663.2 659.1 649.4 643.3 641.3 641.3 639.3 631.6 629.9 625.4 622 621.5 618.9 613.5 608.6 609.9 607.6 605.8 606.1 605.8 605.1 607.7 610.8 617.3 621.4 630.6 638.6 646 655 663.3 673.5 681.3 686.4 692.5 699.5 702 703.9 703.6 699.4 694.1 685.6 670.9 648.2 619.2 588.7 564.8 549 539.6 536.8 533.6 530.8 530.9 530.2 532.8 530.6 529.5 527.8 526.8 529.1 528.1 523 519 519.8 523.7 526.2 527.5 523.9 518.5 517.8 514.8 511.4 507.8 505 502.6 500.2 497.4 496.6 494.5 491.1 489.4 488.4 484.4 480.8 476.1 472.6 472.4 472 470.5 471.2 468.5 468.8 467.7 468.2 460 451.7 447.6 445.2 439.5 437.7 434.5 428.9 424.5 420.7 417.3 414.9 413 410.7 406.8 407.2 408.3 409.7 412.5 411.1 413.4 414.2 415.2 417.1 419.7 421 419.9 418.7 418.8 415.6 405.6 402.8 396.9 394.7 392.6 389.6 388.3 383.1 376.7 371.2 368 363.4 358.9 356 356 356 356 356 356 356 356 356 356 356 356
629.3 632.1 635.2 637.3 639.4 640.8 638.8 638.8 640 639.7 639.4 640.2 641.2 642 645.1 647 650.6 653.4 657.1 659.6 661.1 663.6 666.4 671.8 677.5 684.1 692.2 700 705.9 716.2 727.8 741.1 752.7 765.4 777.7 792.5 803.5 814.3 823.9 829.1 828.5 825.2 813.8 801.5 790.6 780 758.8 739.3 723.8 702 687.3 673.9 664.2 663.4 651.6 644.7 641.2 639.1 639.1 633.2 629 626.7 621.9 620 619 613.3 613.9 607.4 605.9 606.5 603.2 603.9 602.8 604.9 607.1 613 618 626 632.5 638.5 647.3 654.7 662.3 666.8 675.2 679.6 684.6 690.7 694.2 692.5 692.5 683.5 678 666.3 649 623.4 590 567.4 554 545.2 539.6 536.1 533.1 532.5 532.5 535.8 534.4 534.4 534.8 532.3 533.1 532.8 529.5 524.1 525.2 527.2 528.1 528.4 524.5 520.7 517.2 515.2 511.1 509 507.8 505.7 501.8 501.8 500.3 497 495 492.3 491.8 489.1 484.5 481.6 477 475.6 474.2 474.4 473.2 472.3 469.4 471.5 470.7 462.2 456.6 450 444.9 440.5 438.3 434.6 428.1 424.9 418.1 413.3 408.5 406.2 406.8 407 404.7 409.2 410.6 411 412.1 413.7 415.3 415.9 417.7 419.5 421.2 419.5 417.3 415.8 409.5 403.4 399.7 394.8 391.1 388.8 386.7 383.3 378.9 373.6 369 365.1 364.2 356 356 356 356 356 356 356 356 356 356 356 356 356
617.9 620.6 624 625.8 625.9 626.1 626.2 626.4 628.2 628 629.3 631.2 631.8 634.3 636.3 640.6 643.9 646.6 649.4 651.3 652 654.2 658.2 662.6 667.8 675.1 684.1 691.1 700.6 710.1 721.7 732.3 743.5 756.6 771.3 785.6 798.3 809.8 820.4 825.8 827.7 828.2 819 804.8 793.2 783.1 770.1 746.4 731.5 704.5 678.8 667.5 656.9 661.4 652 644 640.1 641.4 637.2 635.4 630.7 626.3 621.9 616.3 613.1 610.9 610.4 606.9 602.7 604.2 601.8 602.3 602.8 602.6 607.4 611.8 615.7 621.5 626.5 633.6 640.7 645.3 649.6 654.8 660.2 665.3 670.7 673.6 679.2 685.6 681.7 676.6 670.6 662.8 651.1 631.8 605.7 579.8 562.9 551.8 547.1 541.9 540.3 538.5 537.9 537.4 536.4 537.4 538.1 536.4 537.2 536.7 533.4 530 531.1 530.9 526.8 525.8 522.6 519.2 517.1 515.2 511.8 510.8 509.5 506.2 504.5 503 501.8 501.2 497.8 496.4 494.3 489.9 488.9 487 483.9 477.3 478.2 477.3 475.2 472.7 471.8 472.5 468.7 462.7 454.9 450.1 445.1 440.9 439 434.9 428.7 421.9 412.4 408.3 406 404.1 403.9 404 403 409.9 410.3 411.2 412.3 413.8 415.3 416.7 418.6 420.6 420.9 417.5 415.4 411.9 404.6 400.5 396.3 390.3 387.5 384.6 382.4 376.8 372.7 369.6 369.1 362.1 361.3 356 356 356 356 356 356 356 356 356 356 356 356 356
607.7 610.4 613.3 615.4 616.6 614.7 613.8 614.4 617.8 619.4 619.9 622.1 624.8 627.4 630.7 633.3 637.2 639.3 640.7 642.1 644 647.6 651 654 660.5 668.1 674.5 683.1 693.6 704.1 713.2 724.6 736.3 749.7 763.2 780.5 795.7 808.2 819.5 828.5 834.5 831 824.2 819.1 801.5 782.3 765 743.2 715.1 691.9 677.7 661 654 653.5 645.9 639.2 639.2 630.8 633.8 634.6 632 624.9 621.5 615.7 610.9 608.8 607.2 605.2 602.9 601.6 602.2 599.7 600.8 602.6 607.2 608.5 613.4 619.3 624.3 627.2 632.9 636.5 639.1 643 649.4 654.3 655.8 663 673.8 679.2 675.1 675.3 674.6 672.5 663.9 645.3 621.2 591.6 571.8 559.8 552.8 547.1 546.6 542 540.4 538.2 540.2 542.1 541.6 541.5 539.9 538.1 536.4 535.6 535.6 531.8 527.3 526.1 522.6 519.6 518.1 517.3 512.9 511.2 509.1 504.9 507.7 503.7 503.7 503.8 501.9 501.2 497.5 494.4 490.9 487.8 482.4 480.3 480.4 480.3 475.6 474.1 472.3 470.4 465.7 465.7 455.8 452.1 447.1 442.1 437.6 432.9 428.9 424.9 415.7 408.4 405.3 403.9 403.5 402.4 404.4 407.4 409.5 411.3 412.3 413.3 415 418 419.4 419.5 418.4 415.6 412.3 409.5 401.6 398.4 395.5 388.1 385.4 381.3 379.2 375.5 372.6 372.3 368.5 362.1 356 356 356 356 356 356 356 356 356 356 356 356 356 356
599.4 601 603.2 604.2 603.5 604.5 603.3 606.4 608.7 612.6 614.5 615.1 617.5 619.2 622 626.1 628.8 629.5 631.3 632.3 635.2 638.6 642.7 647.8 652.9 659.1 667.4 677.1 685.2 695.3 705.3 721.2 735.3 749.3 765.7 779.1 794.2 809.9 822.9 832.1 842 843.1 834.6 816.3 805.1 780.6 759.3 734.9 713.2 691 675.8 662.1 653.7 646.7 642.1 639 635.8 626.6 631.1 630.2 625.8 622.5 618.6 613.3 610.5 606.1 605.9 603.4 602.1 599.6 601.2 598.1 600.1 601.1 604 606.4 613.3 616.1 621.1 621 625.9 631 636.1 637 644.7 651.8 655.2 658.2 672.2 674.1 681.6 680.8 681.6 673.3 667 656.7 635.8 605.7 585.1 568.7 560.5 552.1 549.5 547.4 545.1 545.6 545.4 545.7 545.2 543.3 541.8 539 539.3 538.7 538.1 535.2 530.3 527.6 524.2 522.3 520.1 516.2 513.6 509.2 508.7 507.7 507.9 508 507 506 506.3 504.3 500.9 500.3 493.7 492.2 485.2 484 485.6 482.2 481.8 476.9 476.3 469.1 471.3 465.1 459.8 453.4 447.6 442.6 437.7 433.4 429 424.5 420 413 409.4 405.9 402.5 401.8 407 406.4 406.1 408.1 410.5 412.9 415.8 418.7 419.5 418.9 416.9 412.7 410.1 407.3 401 395.8 389.9 386.8 382.9 379.1 376.7 372.8 369.3 366.2 363.9 361.4 356 356 356 356 356 356 356 356 356 356 356 356 356 356
590 593.2 594.1 593 593.3 593.9 595 596.8 599.7 603 606.8 608 610 613.7 615.7 619 621 621.1 621.5 624.1 626.9 629.9 634.1 638.8 644.3 650.5 659.4 669 681.4 691.8 703.1 718.4 733.1 749.1 765 780.1 795.4 813.6 828.7 839.6 847.8 848.5 841.8 820.8 805.4 784 764.7 738.3 710.4 697.1 675.5 660.4 652.1 642.1 641.4 637.9 635.3 630.2 619.1 622.3 619.6 617.3 613.8 608.7 608.3 600.8 601.7 602.5 600.4 597.7 601 599.8 598.4 598 602.7 604.3 608.8 615.8 618.9 619.9 624 627.9 634.2 638.6 645.6 651.9 658.6 665.3 671.1 678.1 681.6 684.7 678.8 678.3 669.8 661.4 645.8 620.9 598.1 581.3 566.7 560.1 556 552.4 550 550.9 548.6 548.3 547.5 545.8 543.2 543.5 542.1 539.9 538.4 534.8 531.5 527.8 525.1 522.4 518.4 519.3 515.4 511.6 511.7 509.2 509 512 509.8 510.1 509.1 507.6 506.3 504.3 500 493.2 490.7 486.5 487.1 485.3 482.2 482.5 479 475.4 470.2 465 460 454.1 448.5 442.7 436.1 434.2 430.1 425.3 419.1 410.3 407.2 405.4 405.5 404.5 404.5 405.9 406.6 408.3 410.3 412.4 414.1 416.3 418 417 414.6 411.5 408.2 404.3 398.7 393.4 387.5 384.1 381.2 378 375.1 370.6 365.9 362.7 361.3 357 356 356 356 356 356 356 356 356 356 356 356 356 356 356
580.1 582.9 584.4 584 583.3 583.5 585.1 589.2 592.8 596.6 600.1 603.9 604.9 607.8 609.6 611.2 612 613.4 614.9 617.8 620.3 623.5 626.9 630.6 637.4 642.4 653 665.9 676.7 688.2 700.7 715.4 731.1 747.2 762.1 778.5 795.2 813.5 830.8 843.3 850.6 850.9 846.4 828.3 804.6 789.8 764.9 739.1 720.4 691.9 669.5 663.9 647 638.2 635.3 631.9 631.6 625.2 620.3 608.5 611.6 609.6 607.5 603.4 602.7 598.8 596.8 599 599.5 597.1 598.2 599.5 596 598.6 601.5 603.5 606.9 615.4 617.6 618.4 620.9 627.5 634.6 636.7 644.7 652.5 661.1 666.2 675.8 680.1 689.8 692.2 690 688.2 680.5 668.4 655.5 635 609.9 590.9 574.9 567.6 561.3 560.3 556 554.7 552.2 550.7 548.6 548 546.2 546.2 543.5 540.2 537.1 534.2 532 526.3 525.1 523.2 519.2 519.9 520.3 516.6 511.6 511.5 512.7 516.1 514.8 513.3 513.8 510.4 510.5 509.1 502.7 496.4 493.4 493.6 490.4 488.8 485.1 482.6 479.9 474.3 469.7 465.4 460.6 453 447.6 440.1 433.4 431.3 424.9 419.3 416.9 411.3 409.7 411 409.6 407.4 404.2 409.1 407.4 408.5 410.4 411.3 413.3 415.5 415.9 414.4 411.8 406.8 403.9 400.9 396.4 390.6 385.6 381.5 378.9 376.6 374.9 369.8 364.8 360.7 356 356 356 356 356 356 356 356 356 356 356 356 356 356 356 356
566.3 569.9 571.7 574.2 574.3 575.5 577.5 581.7 586.3 590.2 593.7 597.1 600.3 601.5 603.1 605.3 607 607.9 610.8 612.6 613.8 616.2 620.5 623.7 631.7 639.3 649.6 661.2 672.1 684.7 698.5 713.1 728.3 744 761.1 774.8 795.2 814 831 844.6 852.2 858.3 851.8 831.2 807.5 780.7 766.8 747.8 720 694.7 668.4 655.6 647.3 635.3 627.3 626.2 622.2 620.9 616.3 607.2 604.3 601.7 599.8 598.8 595.7 594.7 594.2 596.7 597.9 595.7 597.4 597.6 597.4 598.3 602.3 603.3 606.2 610.6 616.8 619.4 619.1 626.1 634.7 635.9 645 653.4 659.3 669.4 676.1 687 690.8 697.5 702.2 697.5 690.3 681.4 669 648.7 624.7 601 585.7 575.2 567.1 566.2 563.4 558.2 553.8 552.3 549.6 549 547.8 544.6 540.9 538.3 537.2 535.9 529.4 524.4 523.4 521.9 522.8 520.4 518.8 516.1 517.8 513.9 516.5 518.6 519.9 519 517.5 514.8 515 513.9 507.6 500.6 497.7 494.1 492.5 490.1 486.9 484.4 480.6 477 472 467 461.8 454.9 445.2 440.5 430.8 427 421.5 419.8 416.2 411.8 409.5 410 407.9 406.5 401.8 403 407.7 409.1 408.8 410.2 412.6 413.8 414.5 412.9 407.9 403.7 401 398.4 391.9 387.9 383.8 379.7 376 374.4 372.6 372.9 363.1 359.9 356 356 356 356 356 356 356 356 356 356 356 356 356 356 356 356
554.3 556.5 559.2 562.7 564.3 566.9 570.3 575.8 580.6 584.1 587.7 590.6 593.5 596.5 598.9 601.2 602.3 603.1 604.5 606.1 608.5 610.6 612.4 617.7 625.4 634.6 644.4 654.6 667.2 680 694.5 710.4 727.1 742.3 757.7 774.3 793.7 812.9 828.8 841.2 852.3 855.6 845.1 827.1 799.7 781.9 751.9 733 710.9 679.4 660.6 653.1 640 630.5 622.4 617.5 613.8 608.2 604.5 601.2 595.5 596.3 596.1 594.8 594.1 593 592.6 594.2 595 593.9 595.2 596.3 596.7 596.2 600.1 603.1 605.1 612.4 617.4 617.7 621.7 622.9 630 637.6 645.8 651.9 666.7 670.2 676.1 686.4 695.3 705 710.1 706.5 702.2 696 690.7 665.3 635.7 613.1 594.8 583.1 575.1 573.7 567.5 563.1 559.2 554.3 549.8 548.3 544.9 541.7 539.8 537.4 535.2 535.4 530.2 528.4 524.1 525.9 525.1 522.7 521 521.3 520.1 519.6 522.5 523 524.4 524.8 521.6 519.8 518.9 515.5 509.5 502.8 497.8 497.3 493.1 489.7 487.8 485.6 480.6 476.3 471.7 467.9 462.8 452.3 449.6 440.1 435 431.4 417.8 414.4 412.7 410 406.6 405.6 406.2 404.7 404.2 398.5 404.6 408 407.6 409.5 411.3 412.2 413 410.4 404.7 401.5 397.6 393 387 382.9 379.9 376.9 373.9 370.4 368.2 366.8 361.7 356 356 356 356 356 356 356 356 356 356 356 356 356 356 356 356 356
545.4 546.8 548.8 552.6 556.5 557.8 562.3 568.4 573.6 578.7 581.2 584 587.3 590.5 593.7 595.4 595.6 597.1 598.4 600.4 601.5 603.7 607.3 612.2 619.7 628.7 638.9 649.9 661.9 675 689.8 704.9 721.5 739.3 756.8 774.4 792.8 810.5 826.5 835.5 845.3 850 845.2 828 799.9 768 741.3 717 695.3 672 656.4 646.7 634.2 627.7 616.1 612.5 607.3 602.2 598.7 595.2 592.4 589.4 590.2 591.8 592.7 592.2 591.7 592.4 592.7 593.8 594.4 594.1 596.8 595.8 600.1 604.3 608.5 611.4 614.7 618.7 623.3 625.6 629.1 636.6 645.4 657.1 665.8 672.4 680.9 687.9 697.4 705.2 711.6 712.8 708.7 706.2 704.4 689.8 650.2 626.3 608.3 592.4 586.6 580.3 575.5 571.3 563.4 554.1 551.1 549.1 547 545.3 539.2 537.7 534.6 534.5 535 532.6 526.1 528.3 527.1 525 527.5 524.3 522.5 523.9 525.2 526.3 530.3 528.9 525.7 523.1 521 517.1 513.5 508.8 504.4 500.7 495.1 493.9 489.6 483.5 479.1 477.1 472.9 466.9 459.4 456.4 449 440.3 435.5 432 421.5 415.4 413.9 409.4 409.9 406 404.9 404.5 402 398.8 404.3 406.7 407.5 408.3 409.7 409.5 410.3 408.9 401.4 398.5 395.4 391.6 384.2 378.6 376.2 373.1 369.6 366.2 363.2 361.4 359.9 356 356 356 356 356 356 356 356 356 356 356 356 356 356 356 356 356
534.8 537 539.5 544.3 549.8 549.5 555.2 561.2 565.8 568.7 571.9 576.2 581.6 583.6 587.2 588.9 589.2 590.7 592.4 592.9 593.8 594.5 601.9 606.5 613.7 623.3 633.1 644.3 656.3 670.6 686.2 702.1 719.5 735.3 751.6 770.1 791.9 812.9 824.8 835.7 844.1 851.1 843.9 829.6 797.7 766.1 743.1 713.9 692.6 668.9 654.1 638.6 631.2 621.8 611.6 605.8 601.4 597.7 595.1 593 586.7 586.6 586.6 588.3 591.3 590 588 589.6 587.5 591.8 590.9 593.2 596.9 598.3 600.6 602.2 608 612.1 616 623.3 624.3 626.8 635.9 640.7 645.9 658.8 665.4 673.3 682.8 690.8 697.5 702.7 709.4 713.6 712.4 715.6 712.7 703 665.9 641.1 620.1 605.8 594.3 587.1 581.3 572 562.5 556.4 552.6 550.3 550.3 544.6 537.3 536.1 535.8 535.5 537.2 534.5 529.7 532.1 531.1 529.4 533.5 527.6 525.1 526.2 527.5 529.8 530.8 529.7 528.1 525.1 522.5 519.2 513.8 511 510.1 504.2 500.7 492.5 489.6 484.1 477.8 476.1 471.3 466.4 463 456.8 449.4 440 435.8 425.5 422.1 417.7 414 412.8 410.6 404.4 401.7 403.7 399.1 404.4 404.8 405.3 406.3 407.2 408 408.3 407.6 404.7 400.4 396.5 391.4 388.8 380.1 375.8 373.8 371 368.3 366.1 362.1 356 356 356 356 356 356 356 356 356 356 356 356 356 356 356 356 356 356 356
527.7 529.6 532.5 536.3 538.6 541.2 545.6 552.2 557.1 562.4 565.2 568.8 572.5 576.9 578.6 580.9 582.9 583.7 583.6 585 586.2 589.5 596.7 601.7 609.2 618.9 630.4 642.6 654.3 669.1 683.7 698.4 713.1 730.1 745.8 763.8 783.2 804.8 820.2 828.9 840.4 848.4 847.5 829.1 799.6 768.4 742.7 715.3 692.8 676.1 652.6 640.3 627.2 619.8 612.7 603.1 598.8 595.2 589.8 586.6 585.1 584.8 581.9 585.7 587 588.8 588 587.7 583.5 589.4 594.8 595.7 599 600 604 607 608.2 609.9 614.3 625 622.3 629.8 635.8 641.7 650.5 655.4 661.1 671.7 681.1 689.6 695.1 703.1 708.7 710.7 717.6 719.7 720.4 714.9 688.1 664.1 640 618.4 608.1 598.3 589.7 577 566.4 559.8 555 552.7 550.8 546.8 545.3 541.6 539.1 537.7 536.1 539.2 534.3 536.5 536.7 534.9 536.1 529.3 531.6 531.7 533.4 534.4 532.6 534 531.2 529.3 524.5 522.2 516.7 513.2 511.7 506.6 499.4 494.3 489.3 485 478.2 472.9 470.3 468.2 464.4 459 449.9 439 432 425.2 415.7 410.1 406.6 403.5 404.2 401.3 399.7 398.3 396.9 399.9 402.7 404.8 405.9 405.9 406.4 406.9 405.2 402.3 400.5 395.7 388.7 383.5 376.9 373.9 372.6 371.3 369.3 367 362.9 356 356 356 356 356 356 356 356 356 356 356 356 356 356 356 356 356 356 356
521.8 524 525.5 527.7 529.7 532.1 536.1 542 547.5 553.8 556.8 561.5 566.2 567.9 570.5 573.1 574.9 575.6 576.1 577.7 579.7 585.6 590.1 596 603.7 614.6 627.1 639.3 652.2 665.7 680.2 694.1 708.7 724 740.9 757.1 772.8 790.4 810.5 820.6 829.9 840.6 843.5 829.6 802.9 781.1 746.6 724.9 695.6 673.6 654 640.6 627.6 615.5 608.4 599.7 596.2 592.7 588.9 584 582.1 582 580.1 582.1 581.8 583 586.3 583.3 584.8 590.5 595.2 597.7 597.7 601 605.7 608.4 608.6 612.6 619.2 623.7 626.1 633.7 639.3 641.9 651.6 655.9 664.4 672.9 680.6 689.2 696.7 700.2 706.7 712.4 721.7 725 724.3 725.5 708.6 693.5 664.2 632 619.2 611.4 598.9 586.3 575.9 564.3 558.6 553.4 552.9 551.6 546.3 546.1 543.8 540 541.1 542.7 539.7 539.1 539.7 536.4 539.1 537.1 535.5 535.4 537.3 536.2 534.4 535.7 535.1 530.5 526.6 523.2 518.6 515 511.5 507.3 502.5 497.2 492.7 486.7 482.6 475.9 472.7 470.6 462.7 454.8 450.2 440.5 429.7 422.9 417.4 410.3 406 402.7 399.9 399.3 397.2 395.3 396.2 398 399.4 401.9 403.4 404.9 407.5 406.5 403.2 401.1 398.2 394.7 389.5 384.5 377.9 372.9 369.7 368.6 368.1 366.2 362.9 356 356 356 356 356 356 356 356 356 356 356 356 356 356 356 356 356 356 356
513.1 514.8 518.6 521.2 522.1 525 529.9 533.5 539.9 545.2 550.1 555.1 558.2 560 561.8 564.1 565 568 568.5 570.8 575.8 580.5 586.1 591.9 600.7 612 623.7 635.3 648.5 661 675.7 689.5 703.3 716.1 729.8 744.7 759.4 771.8 787.9 802.5 815.9 827.6 837.7 837.2 813.5 787.7 758.7 728.7 699.5 674 655.8 640.7 628.7 615.8 610.7 601.3 594.5 591.9 587.4 580.8 580.8 581.9 579.3 578 578.7 577 580.4 575.2 583.6 589.4 595.2 597.4 597.3 601.8 607.1 610.6 610.8 616.4 618.5 624.9 629.2 636.3 640.6 643.6 649.6 656.8 664.2 673.5 680.8 688.3 696.4 700.3 708.3 715.1 722.6 730.3 736.3 740.3 732.3 708.1 687.3 654.3 633.4 617.9 608.5 595.5 583.6 568.7 560.3 553.2 550.6 553.3 553.2 550.3 548.2 544.8 544.9 545.8 543.3 540.7 541.8 542.2 543 538.7 539.7 541.8 541 542 540.9 535.9 534.8 533.8 528.8 526.6 521 517 514.4 510.6 506.5 502.7 496 490.7 486.5 483.9 476.4 474.2 462.2 455.2 446.8 436.4 427.7 422.2 416.8 410.2 405.8 400.4 399.2 402.1 394.6 396.2 398.8 398.4 399.8 401.4 403.2 405.6 405.9 404.8 403.5 401.2 396.9 392.6 389.9 384.3 377.4 372.3 367.3 365.2 364.1 362.7 359.1 356 356 356 356 356 356 356 356 356 356 356 356 356 356 356 356 356 356 356
505.6 507.6 509.1 512.9 515.6 520.2 523.6 528.6 533.3 536.7 540.4 545.2 549.4 551.8 553.4 555 558.2 559.7 560.8 566.5 572.3 577.3 582.9 589.9 598.7 608.9 620.1 631.2 643.6 656.2 668.1 681.7 694 705.3 718.4 732.4 743.8 753.8 765.7 780.1 798 811.3 824.3 823.3 809 787.3 760.1 730.8 713.3 674.5 656.6 641.8 627.8 620.1 607.9 601 592.6 590.4 582.1 580.7 581.1 578.9 574.9 576.2 574.8 575 574.9 576.5 579.9 586.8 591.5 595.5 598.2 603.5 609.9 613 614.4 619.7 625.7 629.9 633.5 639.6 643 647.3 650.2 658.9 668.6 675.1 683.7 690.4 697.4 702.8 711.4 719 727.8 738.8 747.9 751.7 751.7 733.1 709.9 682.9 646.7 629.5 613.1 604.6 593.7 582.2 567.2 555.4 551.2 554.6 555 556.3 552.4 552.9 550.5 549.7 545.5 547.3 543.4 543.8 543.8 541.4 540.6 544.4 545 542.3 543 540.3 537.9 534.6 531.6 528.5 524.4 519.8 516.8 513 510.9 507.5 499.8 493.5 489.8 488.5 479.5 471 462.7 453.9 445.4 435.3 429.1 421.8 415.5 410.2 406.7 401.4 398.2 396.9 394 397.9 398.3 400.9 401.7 404 403.7 405.1 405.3 404.1 403.8 404.2 398.6 394.4 391.8 384.8 376.4 370.1 366.8 364.3 363.6 362.2 361.4 360.5 356 356 356 356 356 356 356 356 356 356 356 356 356 356 356 356 356 356
499.5 502.7 504.5 507.7 512.8 515.6 519.4 524.1 527.2 530.4 534.3 538 541.1 545.4 548.5 550.4 552.1 553.4 555.6 563.8 569.7 574.6 580.3 586.6 595 605 613.8 625.4 637.4 648 659.7 670.2 682.4 696.1 707.6 717.8 729.4 741 753.9 767.5 782.7 796.4 812.7 821 816.9 785.1 750.9 724.6 699.4 677.9 657.7 642.4 629.8 616.4 608.2 603.1 591.3 586 578.7 577.1 579.2 574.2 575.5 574.2 573.5 573.4 568.3 575.9 578.9 582.8 589.6 592.7 596.9 603 611.1 613.5 619.6 624.2 629 635 642.1 646.9 649 653.3 655.9 657.3 668.3 677.8 684.9 694.5 701.9 709.4 716 722.2 731.6 746 756.1 768.4 770.7 765.8 735.5 702.4 672.9 647.8 628.5 616.5 601.5 592.3 578.4 562.1 554.2 554.5 553.4 556 554.6 554.7 554.6 551.5 550.9 548.5 547.7 545.9 546.1 545.4 544.8 546.2 545.4 545.4 545.5 544.1 540.5 536.7 535.3 532.1 527.7 523.7 519.1 517.3 513.6 509.6 503.5 496.7 493.3 492.2 479.6 472.9 461.7 454.4 444.5 437.6 428.2 420.9 414.8 411.6 408.8 404 400 399.6 394 395.8 397.3 400.7 400.1 401.2 403.2 403.7 404 405 406.8 405.5 397.6 392.6 390 386 374.8 369.7 367.1 366.6 366.5 366.4 363.2 360.4 356 356 356 356 356 356 356 356 356 356 356 356 356 356 356 356 356 356
493.4 498.6 501 503.1 506.8 510.4 513.6 517.6 521.3 525.3 528 530.8 533.8 537.7 540 542.5 544.1 548.7 555 559.9 566.3 571.8 576.8 583.9 590.9 600.9 609.7 619.4 629.3 639.6 651.7 661.7 671.6 682.8 694 706.5 715.8 728.4 738.7 753.9 766.3 781.3 798.6 817.1 817 803 753.7 721.6 695.3 676.5 654.2 641.2 626.6 618.7 610.4 602.2 592.8 581.1 576.7 572.5 574.1 573.1 572.1 570.7 572.4 570.5 571.8 576.1 579.8 583 587 591.2 597.8 604.9 611.5 617.1 625.6 630.2 635.2 642.4 650.5 656.7 659.8 663.3 663.5 667.6 672.3 682.5 689.8 696.6 701.9 709.4 719.1 729.8 741 752.7 766.4 778.7 783.1 783.8 760.7 730.1 698.6 669.2 644.8 631 614.5 601 585.9 565.7 557.9 554.9 554.4 554.2 556.7 558.1 558.3 554.8 555.4 552.7 550.5 549.1 550 546.4 546.8 546.7 547 546.3 546.1 547.1 542.8 540.4 536.2 533.6 530.1 526.1 521.8 520.2 520.1 514.8 511.1 501.4 495.1 489.2 482 470.6 462.4 452.2 444.7 436.8 428.3 420.6 415.1 411.3 408.6 404.4 403.2 397.6 395.9 396 398.1 399.7 400.5 401.3 403.5 403 404.2 405.2 408.7 403.9 396.9 392.3 390 383.3 377.5 370.9 367.5 367 367.2 368 365.8 361.6 360.5 356 356 356 356 356 356 356 356 356 356 356 356 356 356 356 356 356
490 494.6 497.5 498.8 501.1 504.5 509.1 510.8 515.3 520.3 523.1 527 529.7 531.7 534 535.4 535.9 544.4 550.7 556.1 562.5 568.1 573.4 579.8 588.1 595.4 604.1 612.5 620.6 630.7 640.5 651.1 660.9 669.8 681.5 691.9 700.4 714 725.8 741.4 756.9 770.7 788.4 800.3 805.9 790.7 760.9 725.6 698.1 673.8 654.3 639.2 627.3 618.5 608.6 601.3 593.2 583 574.7 570.2 570.7 567.5 569.4 568.6 569.6 565.2 569.5 572.4 578 585.2 588.3 593.8 599.7 606.8 614 621.9 628.8 637.2 640.8 648.5 655.6 664.4 669.4 675.2 677.1 675.8 679 686.2 692.7 698.5 708.2 717.1 726.6 739.6 754.4 763.3 774.1 787.2 796.5 797.8 776.3 743.7 712.6 687.7 661.7 639 627.3 605.3 594.9 576 560.6 556.5 558 562.8 560.1 560.6 561.7 562.9 560.9 556.9 554.7 554.1 554.3 551.8 548.9 546.4 547.7 547.6 547.5 548 545 541.6 538.2 533.9 531.5 527.6 523.6 519.4 518.2 512.6 511.5 502.4 497.1 489.1 480.4 472.9 463 454 446.4 438.9 431.6 421.7 416.2 412.2 407 402.4 399.3 398.4 396.1 395.3 397 399.1 400.7 401.9 403.7 402.9 403.6 405.8 406.4 403 395.6 393 389.2 382 375.9 371.1 369.3 367 366.4 365.3 363.3 361.6 356 356 356 356 356 356 356 356 356 356 356 356 356 356 356 356 356 356
485.2 487.4 489.6 494.6 497.3 501.8 502.9 505.1 509.2 513.1 515.6 520.3 522.6 527.5 531 533.6 535.5 540.1 545 552 558.6 564.8 570.7 577.3 582.6 589.5 597.8 606.1 613.7 621.2 630 639.4 646.6 656.4 667.3 675.1 687.5 698.5 712.1 728.8 746.6 761.6 778.4 792.4 799.8 795.7 769.3 734.1 707.6 683 661.3 645.9 630.9 618 608.4 600.7 592.1 581.8 576.8 569.4 569.1 569.2 566.3 567 565.5 562.1 568 571.7 578.2 583.9 585.3 591.5 599.2 605.4 615 624 630.6 638.9 646.3 654.1 661.3 671.4 681 685.9 686.5 690.8 691 698.9 702.9 708.9 718 729.5 741.3 754.4 761.9 773.7 788.9 799 804.8 803.6 794.7 759.9 734.4 709.6 689.8 655.2 637.6 622.8 603.1 587.4 573.2 568.1 564 563.8 565.7 564.4 562.5 562.4 563.4 559.7 557.5 557.6 555 551.8 552 550.2 547.9 550.4 547.8 548 545.4 541.4 537.8 536.3 531.7 526.9 523.3 521.7 518 514.8 507.4 504.1 496.2 489.1 482.7 474.6 464.6 458.2 450 440.4 432.6 422.3 414.1 408.2 404.1 401.1 399.7 396.7 397.3 394.8 396.9 396.6 400.9 402.4 402.4 402.2 402.5 403.9 402.8 399.4 395.2 393.6 388.6 381.2 375.7 370.9 369.3 367.5 364.6 362.8 358.5 356 356 356 356 356 356 356 356 356 356 356 356 356 356 356 356 356 356 356
479.8 483.5 488.4 490.8 494.8 497.5 498.2 501.4 505.2 508 510 514.7 517.3 522.3 525.4 527.7 531.5 537 542.4 547.4 553.5 560.9 567 573 579.4 586.7 592.9 599.3 606.4 614.2 622.1 630 638 645.7 654.2 664.8 675.9 687.9 702 717.2 734.8 752.7 771.2 788 795.6 791.6 776.5 745.8 712.4 689.4 667.5 648.5 634.5 619.7 608.2 604.1 587.9 578.4 573 565.4 562.9 564.8 564.7 561.5 563.4 563 567.4 572.3 576.4 580.8 585.3 589.9 598.8 604.6 613.3 622.7 630.8 639.7 650 659.7 668.7 682.8 694.6 699.9 700.4 700.9 701.7 709.5 715.2 719.8 729.1 738.4 752.2 762.2 771.3 781.6 796.3 808.3 804.8 806.4 799.2 781.9 755.5 734.2 712.9 681.3 655.6 632.2 613.6 597.7 581.9 574.9 570.6 570.4 570 568.3 566.1 565.6 564.8 564.5 562.2 557.5 556.3 556 554.1 552.8 552 549.7 549.4 548.6 545.8 542.8 539.8 535.9 531.4 528.7 525.7 520.4 517.7 513.9 510.4 505.2 498.6 489.6 479.5 473.7 465.2 459.9 448.6 439.1 429.4 420.6 414.6 407.5 401.9 399.5 398.9 394.3 394.2 396.5 395.3 396.9 399.4 400.6 401.9 401.6 402.6 402.1 400.8 397.4 395.8 394.5 389.6 382.6 376.9 372.7 369.9 367.5 366.6 362.1 356 356 356 356 356 356 356 356 356 356 356 356 356 356 356 356 356 356 356 356
475.4 478.8 483.5 486.8 489.8 491.8 493.7 497.3 500.3 502 505.5 510.2 513.5 517.9 523.2 524.8 529 534.5 539.4 543.1 551 557.4 562.6 569.7 574.7 582 588.5 593.9 602 608.9 615.9 624.3 632.2 639.6 648.8 659.4 668.2 683 699 714.7 730.4 748.7 770 785.4 794.2 793.4 774.7 751.5 723.1 690.7 671.2 652.1 634.9 621.4 605.7 598.2 583.3 572.7 567.5 563 559.4 556.6 561.8 561.1 557.1 564.4 567.4 569.6 574.5 577.7 584.3 587.8 595.5 604.5 608.2 620.7 631.3 640.4 650.9 664.8 674.1 685.7 697 712.9 715 715 718.8 719.8 726.3 731.8 737.9 748.4 760.7 770.2 781 792.3 803.5 815.4 814.3 809.5 809.6 802.8 784.8 757.2 737.2 714.5 680.6 648.7 625.8 608.8 591.4 581.1 580.2 577.4 573 573.5 572.2 573.4 572.9 571.6 567.9 564.9 561.8 559.1 555.5 552.4 550.9 550.3 548 547.9 544.9 542.9 539.7 535.4 534.1 528.6 526.8 523.5 521.9 517.2 515.5 510.5 498.5 489.8 476.7 470.6 466.4 460.4 451 439.2 430.2 419.4 412 407 401.1 398.5 396.6 396.7 399.8 401.2 401.6 399.3 397.7 397.9 399.5 401.5 401.9 401.1 399.3 397.9 396.6 394.4 389.5 383.9 377.8 375.5 371.9 369.3 367.1 361.5 356 356 356 356 356 356 356 356 356 356 356 356 356 356 356 356 356 356 356 356
471.7 474.5 477.9 482.7 486.5 489.6 491.6 493.9 495.2 499.4 504.6 508.3 511.2 516.1 520.2 521.1 526.1 531.8 536.4 541.2 546.3 551.8 557.9 565 570 576 582.5 588.9 596.6 603.8 611.6 620 625.5 635.3 644.9 653.9 666.1 681.4 695.6 710.4 728.8 746.8 768.6 785.7 799 799.6 790.2 765.2 728.1 697.3 672.1 655.5 631.7 619.8 601.8 591.7 579.3 572 565.2 561.3 558.2 554.2 554.4 554.1 560.8 563.9 565.2 568.8 573.4 576.9 580.9 586.1 593 600.3 607.4 619.1 628 639.4 650.5 661.5 677.1 688.1 699.6 713 727.8 730.5 736.4 737.3 742.8 747.9 750.4 764.4 768.3 778.5 786.3 794.5 804.5 816.7 817.9 815.9 817.1 816 810 794.9 768.7 735.4 702.8 671.7 648.8 622.6 610.4 597.2 586.8 583.4 582 583.4 584.4 583.9 580 576.3 573.5 567.7 562.5 559.3 556.3 552.2 549.9 547.8 547.1 547.7 544.1 540.8 538 535.8 532.8 528.7 527.5 524.1 522.8 517.1 512.3 505.4 495.8 489.2 477.5 468.9 463.5 454 446 438.3 426.5 416.3 409.5 405 400.6 397 391.6 396.6 395.5 397 396.1 395.9 395.5 396.3 398.2 400.5 400.5 400.5 399.1 398.1 397 392.4 387.6 383.7 377.8 374 371 367.3 361.7 356 356 356 356 356 356 356 356 356 356 356 356 356 356 356 356 356 356 356 356 356
469.3 469.3 473.5 478.4 482.4 484.4 487.6 489.4 493.5 498.5 501.7 505.3 507.1 511.9 515.9 519 524.4 528 532.1 538.5 544.9 550.8 555.5 560.9 567.1 573.4 578.6 585 591.5 599.6 608.5 616.5 625.5 634.6 642.9 652.7 665.3 679.9 694.5 712.3 730.2 750.2 769.1 787.5 800.9 812.8 800.3 765.7 736.1 705 679.5 654.5 629.4 615.1 598.2 588.2 579.1 569.4 563.2 555.8 554.2 551.7 552.7 558.4 562 563.1 564.9 567.2 572 576.1 578.5 585 591.2 597.7 605.7 615.5 626.2 637 647.3 661.2 674.1 688.4 699.8 712.8 727.1 738.3 751.1 757.4 765.6 768.2 768.9 775.7 784.2 793.1 796.6 803.7 811.9 821.8 824.1 823.7 825.2 824.1 820.7 812.2 787.9 752.5 719.9 698.3 672.7 640.6 632.4 615.3 604.5 594.6 590.6 596.3 596.4 597.5 587.6 584.2 580.9 574.6 568.2 562.8 557.6 552.6 551.7 549.2 545.8 545.1 543.2 542 537.6 535.2 533.3 532.3 526.3 522.4 520.3 515.7 508.2 500.5 493.3 485.6 476.6 471 460.4 451.7 440.8 430 421.1 412.6 408.3 404.4 401.6 395.8 391.9 394.7 393.6 393.6 392.8 392.4 393.4 394.6 396.6 399.2 399.2 399.6 398.8 397.8 395.4 390.4 386.8 383.6 377.9 373.7 369.2 363.9 358.9 356 356 356 356 356 356 356 356 356 356 356 356 356 356 356 356 356 356 356 356 356
466.4 468.3 471 475.3 479.5 482.1 485 487.3 490.4 493.1 494.9 501.2 504.5 507.6 512.3 516.4 521.8 526.1 529.8 537.2 542.5 547.2 553.1 557.7 563.5 570.3 577.1 582.8 591.7 598.6 607.5 615.3 624.4 633.3 643.5 654.1 667.8 680.7 697 714.9 736 752.4 770.7 787.9 800.9 812.3 803.8 775.3 743.1 711.3 684.1 659.1 631.8 608.2 594.2 582.6 573.4 566.5 559.9 551.5 551.2 549.7 553.3 557.1 558.8 560.7 562.6 565.8 568.3 573.9 577.9 584.7 589.1 595.4 604.1 612.2 621.2 633.4 647.8 658.6 671.7 685.6 698.1 713.6 726 740.1 751.7 761.4 766.9 777.9 781.2 786 792.7 795.9 804.7 812.8 817.8 823.1 827.9 824.3 826.4 829.6 828.8 816.1 796.7 776.5 746.6 732 703.6 675.9 653.5 639.4 628.8 612.7 608.3 605.1 606.5 609.6 600.3 593.3 590.7 582.6 574.3 566.9 560.8 556.9 551.6 548.1 544.5 544.6 541 538.9 534.7 534.5 531.4 525.8 524.2 522.6 518.9 511.3 501.7 495.8 489.5 482.9 472.2 465.5 456.3 448.7 440.8 427.8 418.8 412.7 407.2 403.4 397.6 393.2 387.9 389.2 389.7 389.5 393.6 393.6 393.2 393.8 395.8 397.9 398.8 398.9 398 396.5 393.2 388.2 385.2 382 377.3 372 367 362.1 356.7 356 356 356 356 356 356 356 356 356 356 356 356 356 356 356 356 356 356 356 356 356
463.4 465.1 468.4 471.6 478.7 480.1 482.3 484.5 488.4 489.7 493.9 500.2 502.2 504.8 510.2 514 516.5 523.6 527.4 532.8 538.4 544.3 549.7 553.9 560.7 568.9 575.8 580.3 587.7 594.9 605 614.5 623.6 633.9 644.1 655.2 668 682 696.9 716.4 736.1 752.3 771.1 788.5 803.7 813.6 810.8 788.1 754.6 722.4 692.5 659.6 630.7 609.6 591.5 578.4 566.8 562.2 556.7 551.4 551.1 545.3 552.2 553.9 555.2 557.8 559.4 564.6 568.1 571.4 577.2 583.5 587.2 593.5 604.2 613.2 623.4 632.3 646.5 659.3 671.5 683.1 695.5 709.4 722.4 737.3 750.7 760.7 770.1 777.4 785.5 791.4 798.9 802.6 805.5 809.9 819.9 819.3 817.4 820.9 830.5 838.2 835.3 825.3 817.7 801.4 778.2 759.5 730.5 712.4 684.7 661.8 647.6 628.9 621.8 622.3 617.9 616.2 611.6 605.9 600 593.8 580.8 571 565.9 557.8 552.7 548.4 544.5 541.2 539.7 537.7 533.1 528.9 527.6 523.3 520.4 518.3 513.8 509.6 501.6 493.9 484.7 478.7 470.5 462.2 457.2 447.6 436.1 426.2 419.1 413.1 406.9 404.7 397 393.6 387 383.6 385.5 389.8 393.8 394.2 393.2 393.4 393.5 395.7 397.6 395.5 394.7 394.2 389.7 384.8 379.8 376.8 373.4 367.8 363 360.7 356 356 356 356 356 356 356 356 356 356 356 356 356 356 356 356 356 356 356 356 356 356
461.9 462.8 465.7 468.7 476.2 477.2 479.3 483.4 486 484.8 491.3 496.1 500.1 501.7 505.6 510.4 515.2 520.8 523.3 529.7 534.3 540.3 545.7 553.9 559.8 566.4 573 580.1 588.6 596.2 603 612.4 624.1 633.3 644.1 655.8 669 683.8 699.3 717.6 734.5 752.7 769.2 787.2 803.5 816.9 814 795.2 766.6 736.9 706 670.9 638.8 608.4 589.2 576.9 564 560.3 555.4 554 553.7 546.3 551 551.1 553.4 556 557.2 562 566 569.9 576.6 582.3 585.6 591 601.8 610 622.3 632.3 645.1 660.4 675.2 686.3 699.6 715.4 729 746 757.8 772.5 780.4 791 793.7 797.2 804.1 805.1 809 810.9 812.9 814.1 813.9 816.6 826.8 836.4 836.6 829.7 826.3 814.6 802.9 777 754.2 739.9 719.5 698 680 662.2 642.6 626.9 624.6 625.1 618.9 615.7 608.1 600.4 592 574.7 569.6 560.5 553.9 550.3 544.6 540.8 537.4 535.7 533.2 529.1 525.9 522 514.9 512.6 512.3 506.6 499.4 488.3 482.2 474.5 465.5 456.4 447.3 438.4 431.8 425 416.4 408.8 403.9 400.5 396.4 391.4 388 385.7 379.2 386.2 389.5 389.9 392.1 391.5 390.2 390.1 391.1 392.2 391.8 390.5 382.5 380.7 377.6 373.4 369.9 365.6 361 356 356 356 356 356 356 356 356 356 356 356 356 356 356 356 356 356 356 356 356 356 356 356
456.3 460.4 462.3 464.7 468.4 472.9 478.1 479.7 482.9 485.4 488.2 495.7 494 498.7 504.2 508.5 514.6 517.6 523 528 534.4 538.7 542.5 550.1 559.2 566.8 573.4 581.5 589.2 595.7 603.8 613.2 624.3 634.3 645 655.9 670.6 687.1 702.2 719.1 735.8 752 766.9 785.4 802 811.8 815.9 806.1 782.9 751.3 719 683.1 644.5 611.8 591.5 578.2 564.8 556.6 552.4 550.2 547.9 542.3 547.7 549.9 551.3 554.2 556.3 560.4 562.6 567.6 574.2 578 583.1 589.3 599.2 610.2 617.2 628.4 645.5 660.3 676.6 690.7 703.1 714.9 732 748.6 761.7 775 789.4 802.3 811.5 813.3 820.2 824.6 814.9 818.3 818 813 813 814 817.5 829.3 830.4 832.6 829.7 818 809.1 790.5 772.7 762 744.7 718.6 699.7 680.2 657.6 643.1 634.6 631.3 628.1 626.2 612.9 606.2 594.1 583.5 571.2 564.4 553.3 549.1 544.1 540.5 536.7 533.5 530.1 526.1 523.3 517.6 512.8 509.1 506.5 500.6 494.5 484.5 476.4 467.1 457.9 450.1 443.8 437.7 432.6 421.1 415.2 410.8 405.7 396.6 394.3 388.2 384.9 382.5 378.7 380.5 383.4 387.5 386.1 386.5 387.4 387.6 389 389.6 388.7 384.5 379.5 377.6 374.6 371.4 367.5 363.1 358.2 356 356 356 356 356 356 356 356 356 356 356 356 356 356 356 356 356 356 356 356 356 356 356
452.3 456.1 458.6 461.6 464.1 471.5 473.3 475.6 479.2 480.1 485 489.6 490.5 495.7 499.3 505.7 511.5 516.4 519.1 525.3 532.5 538.1 542.8 549.9 557.9 566.6 573.3 581.8 590.3 597.3 606.2 615.7 625.8 636.6 646.1 658.1 671.8 688.5 703 716.8 733.8 747.2 766 781.4 797 809.9 812.2 806.6 781.9 757.5 726.3 693.1 654.7 620.8 595.7 580.9 568.9 557.8 554.1 549.1 546.1 542.7 542.7 544.8 548.4 550.7 554.8 558 562 566.9 571.7 578 582.3 589.6 597.2 606.5 612.2 626.7 643.2 659.7 676.1 694.3 705.4 716.7 731.3 746.4 763.5 777.2 790.6 805.1 817.2 825.3 833.7 842.9 845.4 849 841.7 832.2 832.2 822.1 819.5 819 825.7 834.6 830.7 823.9 814.8 802.6 796.1 778.6 766.9 749.7 725.4 706.8 677.3 669.4 663.4 650.6 646.7 640.1 626.4 614.7 601.1 590.8 575.4 566.8 556.9 548.4 544.4 542 536.5 532.8 528.4 521.6 518.1 518.6 511.3 506.1 502.2 494.2 487.5 481.4 471.1 463.1 453.8 448.4 440.1 435.3 428.8 417.2 410.6 405.9 402.9 396.3 389.3 384.9 380.9 376.9 376.1 377.2 379.5 380.8 381.3 381.2 381.8 385 384.7 384.8 381.6 375.6 376.6 374.7 372 367.8 364.2 365 358.7 356 356 356 356 356 356 356 356 356 356 356 356 356 356 356 356 356 356 356 356 356 356 356
450.9 453.8 455.9 459.7 464.2 469.5 472 471.9 472.5 479.1 482.7 487 489 493.6 498 502.2 505.7 512.2 520.1 526.7 530.7 536.5 541.5 549.4 558.3 564.5 573.1 580.1 587.9 597.8 607 616.8 624.5 635.5 645.4 658.8 671.9 686.9 701.5 714.7 729.6 741.7 760.3 776 791.8 800.8 795.8 785.3 779.8 764.6 738.2 708.7 663.6 626.8 601.5 581.5 568.4 558.7 553.8 548.4 544 541.7 540.2 542.1 545.4 547.6 552.6 555.7 561.3 566 569.5 575 582.5 586.5 596 599.8 607.6 621.2 641.4 661.2 678.8 695.5 709.2 718.6 727.1 742.5 760 775.9 788.8 800.9 816.5 828.3 842.2 851.4 858.2 865 864 853.9 842.6 829.9 831.1 830.9 820.6 820.8 820.8 822.4 824.1 831.6 828.6 816.4 800 776.1 759.1 736.8 707.5 696.1 686.9 678.5 664.6 662 637.3 625.2 607.4 593.6 579.9 569.7 563 553.6 547 539.6 538.1 534.7 526.1 520.6 514.9 514.8 507.2 503.1 496 489.9 482.3 476.5 469.3 459.7 451.5 446.8 439.3 432.3 426.1 416.7 404.8 401.7 397.8 393.5 387.4 382.2 376.3 374.1 373.8 378.1 379.4 379.6 378 379.2 377.2 378.1 379.6 376.9 371.8 370.7 373.9 372.8 366.1 365.4 368.8 356.5 356 356 356 356 356 356 356 356 356 356 356 356 356 356 356 356 356 356 356 356 356 356 356 356
450.2 452.1 453.9 456.4 460.1 468.5 471.9 466.1 473 475.4 479 484 487.8 492.5 494.3 499.5 505.6 513 517.5 522.8 530.1 536 541.3 549.8 556.7 563.7 571.9 580.2 587.4 596.7 607.5 616 623.5 633.4 645.3 659.6 672.7 683.5 698.7 711.2 723.4 734.8 750.9 765 783.4 787 788.2 780.4 771.8 761.7 738.1 708 664.9 629.5 601 581.8 569.4 559.5 551.2 546.4 541.8 540.2 539.1 542.1 543.4 546 550.3 553.8 558.7 564.4 568.8 571.4 579.1 583.8 587 596.6 605.6 618.8 637.2 660.4 678.1 698 710.2 718.9 725.4 735.4 747.7 767.9 781.1 796.4 810.7 824.8 839.7 851.4 855.6 855.7 865.2 859.7 843.3 835 831.5 821.5 820.8 820.8 820.8 823.3 827.1 832.7 833.5 827.8 815.4 796.6 786.9 762.3 746.7 728.4 703.3 704.5 681.5 674.6 654 629.6 613.4 601.3 586.6 574.1 567.8 558.5 553.2 545.3 539.8 536.3 531.2 524.5 515.3 511.2 504.1 497.9 491 485.7 477.6 469.7 463 453.8 448.2 443.3 435.8 428.6 420.7 413.9 402.7 393.7 390.6 388.2 383.4 380 376.6 372.5 374.4 376.7 379 379.9 376.9 374.6 373.2 372.6 371.7 369.2 366.8 366.7 370.5 366 362.2 359.9 356 356 356 356 356 356 356 356 356 356 356 357.9 356 356 356 356 356 356 356 356 356 356 356 356 356 356
451.3 452.7 452.8 454.9 458.7 464.4 464 462.6 467.5 472.1 477.9 481 486.6 489.3 494 499.7 502.8 508.4 514.3 522.1 527.5 534.3 540 546.6 555 562.9 568.4 576 586.5 595.5 605.5 613.7 622.4 633.9 645.2 657.4 670.9 682.3 695.5 708.4 720.5 733.9 746.9 758.4 773.9 779.5 780.1 774.4 763.6 748.3 720.9 690.4 671.5 624 600.3 583 567.6 558.7 550.4 544.5 541.2 538.4 538.5 542.5 544 547.6 549.4 553.3 556.8 560.3 567 567.7 574.3 577.3 584 595.4 601.7 616.5 634.4 653.8 675.1 693 705.6 714.3 725.4 733.8 742.5 756.6 773.2 786.6 800.2 814.5 828.6 842.4 847.5 855.8 859.6 851.7 844.1 832.3 827.9 824.4 819.8 820.8 820.8 822.3 823.2 823.3 821.2 817.5 810.8 799 792.8 778.7 764.9 743.7 724.5 715.4 698.2 682.2 662.7 636.9 625.1 613.1 598.1 585.2 575.8 567.7 556.7 547.6 544.1 536 530.8 522.1 514.6 508.1 500 489.8 485.2 480.7 472.7 464.9 457.4 451 441.4 436.6 429.3 425.6 414.9 410.1 400.6 395.3 388.4 385.6 386.4 383.4 377.5 370.2 372.9 374.6 375.6 375.3 372 370.4 370.3 367.4 366.4 361.2 361.2 361.9 362.1 360.9 356 356 356 356 356 356 356 356 356 356 356 356 356.4 360.1 360.4 363.4 356 356 356 356 356 356 356 356 356 356 356 356
450.2 452.6 453.6 454 456.4 458.7 458.9 459.2 464.5 468.9 472.8 479.8 484 488.1 495 498.6 501.6 506.7 512.1 518.7 523.8 529.9 537.7 544.1 550.8 561 568 574.1 582.3 593.1 602.5 611 621.1 631.8 643.2 653 665.4 676.4 689.2 700.7 714 728.4 740.6 754.6 765.3 771.5 770.4 762.3 752.6 736.2 709.3 676.3 643.9 621.4 596.4 581.2 566 555.3 548.5 544.1 539 537.2 539.2 541.5 544.3 544.8 548.1 551.7 553.4 558 560.9 564.2 569.6 575.2 579.8 588 597.4 614.2 630.9 649.6 668.3 685.4 699.9 712.5 721.8 729.9 738 747.2 761.6 775.4 788.3 800.1 815.9 830.2 842.2 851.2 846.6 836.3 835.8 829.3 826.9 826.7 825.5 822.8 822.6 823.3 819.2 813.7 810.6 805.3 801.2 794.1 786.7 777.9 763.5 746.8 733.5 717.6 699.3 688.9 673 658.2 638 626.2 613.2 597.9 584.3 577.8 564.5 552.6 546.1 539.7 528.4 523.6 515.2 507.4 497 486.7 480.5 474.5 466.8 459.2 451.5 443.5 436.5 429.2 423.4 420.2 408.4 405 402.3 395.3 387.9 385.6 382.9 382.2 375 371.5 369.1 371.6 373 369.3 366.3 365.1 363 363.4 362.4 362.4 363.8 362.5 360.6 361.3 357.5 356 356 356 356 356 356 356 356 360.7 358.6 356.2 359.5 361.9 364.1 361.5 356 356 356 356 356 356 356 356 356 356 356 356
453 450.6 453.1 452.5 452.7 454 457.6 462.4 463 464.6 472 478.3 481.4 484.1 494 495.2 497.7 502 508.5 515.6 521.4 529.9 535.5 541.1 548.1 556.6 564.6 570.6 579.1 589.3 598.6 608.1 616.1 626.5 637.9 647.1 656.9 669.6 680.9 693.4 703.9 716 732.9 748.9 764.1 762.6 764.2 756.5 739 720.3 703.6 674.6 645.2 615.6 594.8 577.6 565.6 555.9 548 542 539.7 536.2 537.9 540.4 543.6 544.3 545.4 549.1 550.8 555.4 557.3 563.3 565.9 569.6 576.6 582.8 593.6 608.1 624.5 641.2 660.9 678.4 691 702.5 711.6 720.7 729.2 738.4 748.6 761.9 776.5 788.1 802.5 816.9 831.2 837.9 837.7 829.7 826.2 825.5 824.8 827.6 829.6 833.5 833.7 832.9 828.3 824.5 805.9 797.4 790.2 783.8 777.2 765.9 750.5 735.7 722.1 704 699.4 690.4 679.5 665.8 642.5 626.9 612.9 596.4 583.9 574.4 561.2 550.8 540.7 537.4 523.9 513.8 511.9 504.2 491 483.8 476.2 468.3 460.7 452.8 443.7 437.5 430.7 420.4 413.1 407.4 401.1 399.5 397 389.4 385.7 381.6 381.5 378.7 374.9 369.3 369.9 370.5 369.8 367.7 366.8 368.7 368.7 364.3 361.8 365 367.2 367.2 367.9 368.7 364.8 361.8 360.8 363.7 362.2 356 356 356 361.6 359.6 358.1 358.7 362.3 364.5 364.4 363.8 358.6 356 356 356 356 356 356 356 356 356 356 356
453.1 453.4 451.4 451.6 453.9 454.4 462.1 462.3 470.3 462.9 466.8 471.4 476.2 481.4 488.1 488.5 494.1 499.7 507 513.8 518.6 526 531.4 537.5 545 552.3 558.9 567.2 576.4 584.2 593.8 601.8 610 620.8 630.1 639.2 649.1 661.8 673.8 686.1 697 710.1 723.6 742 752.1 758.4 758.5 760.5 751.7 727.9 700.4 671.7 643.9 620 596.5 578.4 565.6 556.3 547.6 543.7 540.4 534.9 539.1 538.1 540 543.2 543.4 545.2 546.7 549.7 552.8 561 561.9 567.4 572.3 579.7 591.4 603.9 618.6 634.2 651.2 668.8 679.2 687.8 699.2 708.1 717.9 728 737.9 748.9 760.3 774.6 787.3 800.2 810.4 817.3 818.9 816.5 814.2 817.9 822.5 827.9 831.6 833.9 835.5 832 828.5 822.2 798.7 784.5 781.6 769.8 763.4 755.3 740.7 719.1 710.7 702.9 693.5 684.6 674 656.6 639.4 622.3 607.3 589.7 577.6 567.8 553.8 542 534.1 527.3 519.3 508.4 501.6 496.1 484 477.7 468.2 461.5 453.8 444.3 438.3 425.2 420.6 413.7 405.7 400.1 397.6 396.1 392.5 385.7 383.3 380.2 379.4 377.3 373.4 369.4 369.6 370 368.6 368 370.8 370.7 367.4 363.8 365 368.5 371.3 374.7 377.1 374.7 371 367.7 368.4 368.1 364.9 362.2 360.5 360.2 360.5 359.3 360.3 361.3 364.5 367 368.9 362.7 360.2 356 356 356 356 356 356 356 356 356 356 356
450.2 452.6 453.6 452.6 453.8 454.8 462.5 464.3 468.7 461.9 465.8 467.4 472.4 476.3 480.1 487.6 493.4 497.6 502.4 510.6 514.9 520.1 526.9 533.6 540.7 546.7 552.8 562 571.6 579.1 587.1 595.5 603.9 613.8 622.3 632.4 642.7 651.4 665.6 678 690.7 704.3 718.8 734 748.8 757.2 764.8 760.4 747.4 730.2 699.8 673 646.9 621.1 597.1 581.7 567.6 555.7 547.7 543.9 540.3 533.5 538.8 537.3 536.6 540.2 541.7 541.7 544.8 548 551 554.3 558.8 564.5 569.1 576.7 587.1 598 615 626.5 642.8 658.3 668 678.4 688.3 697.2 708.1 718.3 728.4 737.7 748.3 759.1 769.7 778.9 786.7 796.1 799.9 807.5 807 811 817.3 825.2 829 832.3 833.5 830.2 823.9 817.3 795.9 782.6 764.2 758.4 751 731.6 717 699 698.9 693.8 684.6 674.2 661.2 651 634.1 617 599.8 585.7 574.2 562.5 550.1 539.5 530.5 520.6 512.3 504.6 498.2 486.7 476.6 469.3 460.6 454.3 448.5 441.4 432.8 420.2 411.9 408.6 403.2 398.1 392.9 393.5 391.1 381.6 381.3 379 378.5 375 375 370.6 368.6 369.7 373 370.1 369.4 367.4 366.7 366.5 370.5 374.2 377.5 380.4 381 380.2 378.1 378.5 379.1 375.6 366.3 364 362.6 361.4 360.2 360.1 361.2 363.9 367.9 369.6 369.1 363.5 357.9 356 356 356 356 356 356 356 356 356 356 356
448.4 450.2 452.5 453.9 452.5 453.5 457.2 459.5 460.8 457.8 457.3 464.8 466.7 471.5 477.6 486.3 490.5 495.2 499.1 505.2 511.2 516.3 522 527.9 534.1 540.7 548 556.1 564.8 572 580.3 588.2 596.8 606.1 616.8 626.3 637.7 649.6 661.2 673.5 684.6 701.2 717 734.5 750.6 760.5 759.9 759.2 751.3 729.4 704.5 675.4 649.4 623.6 600.5 580 571.4 555.8 547.8 542.9 536.6 534.8 536.6 535.9 531.9 536.3 538.6 537.8 541.1 544.7 546.9 550.9 553.9 560.4 564.9 573.3 582.1 592.6 604.4 619.9 630.7 644.8 658 668.1 677.9 688.3 698.3 707.5 719.2 728.4 739.1 748.3 758.1 766.7 774.2 782.8 790.9 797.7 803.8 806.3 812.8 818 822.3 825.9 826.9 822 811 802.4 786.6 774.3 749.6 741.1 730.5 718.3 696.1 693.5 689.2 680.4 671.3 662.7 652.2 640.1 625.8 610.7 593.1 581.6 570.6 560.1 546.1 534.9 524.3 511.9 504.8 498.7 492.9 480.2 471.2 460.6 453 448.4 442.5 432.5 422.9 415 407.2 401.3 400.6 395 390.1 387.3 384.6 378.8 377.2 377.4 377.3 375.7 373.2 370.8 370.2 375 373.6 369.6 368.3 367.1 367.1 369.8 378.2 379.8 382.3 386.3 391.1 389.8 389.3 392.1 385.7 375.8 367.1 364.5 363.2 362.3 361.5 362.1 365 368.9 370.4 371.1 369.6 364 361.9 359.7 356 356 356 356 356 356 356 356 356 356
448.6 454 456.7 452.4 448.9 453.4 453.8 455.9 461.1 454.9 457 459.8 465.6 472.3 476 480 485.2 490.3 497 502.3 509.5 515.2 519.5 525.2 532.3 538.3 544.3 551 559 565.6 573.3 581.1 591.5 601.2 610.7 620.8 632.2 641.2 655.5 669.4 681.1 695.7 710.4 727.8 748.2 759.9 757.9 753.6 747 735.6 711.9 679.9 652.1 622.5 600.4 582.6 569.5 557.9 551.2 542.1 536.7 534.5 532.5 532.6 528.7 530.4 533.5 529.4 536.6 539.9 544.3 546.9 549.9 556.5 563.2 568.4 576.4 586.8 597.8 608.1 621.3 633.8 644.4 656.9 668.8 679.1 688.4 698.7 708.5 719.6 728.8 737.1 746.1 754.9 763.6 773.4 783.7 792.3 800.7 803.8 809.9 815.2 815.4 818.5 818.3 808.9 798.3 788.8 778.1 760.3 735.8 718.4 710.9 697.3 691 686.1 678.6 670.7 661.1 652.9 642.8 633.8 621.5 607.3 591.3 579.3 563.1 556.2 539.5 527.7 517.6 508.9 500.6 493.2 485.3 477.3 466.2 453.5 444.1 440 440 435.3 423.7 419.5 410.3 401.9 397.6 394.2 389.4 387 381.1 375.4 374.3 371.4 371.9 371.5 371 370 370.2 372 369.4 368.2 366.4 367.2 370.9 377.5 385.9 388.3 394.4 400.8 409.2 406 403.1 400.3 386.9 372.6 366.7 365.1 363.4 363.1 363.6 366.6 370.2 373.1 373.3 372.5 368.5 364.7 362 356 356 356 356 356 356 356 356 356 356 356
446.2 447 448 447.9 449.2 451.5 450.5 453 457 455.8 459.6 463.4 465.3 468.5 473.2 477.3 482.8 486.9 492.7 499.5 505.7 510.1 516 521.8 529.1 534.2 540 547 554.1 562.1 571.5 579.9 589.6 599.3 606.4 615.2 625.3 639.1 652.1 664.1 677.2 692.4 705.1 721 740.1 749.1 752.1 753.4 746.5 736.3 719.4 683.1 654.4 628.9 604.8 586.4 571.3 559.7 547.8 541.8 534.9 533.3 532.6 526.6 523 524.7 527.8 527.4 532.9 535.1 539.3 541.6 545.7 550.7 557 561.6 572.5 583.7 591.1 599.4 612.1 625.1 637.6 648.9 659.9 669.4 679 689.3 700.4 711.4 720.9 730.1 740.2 746.9 756.3 765.8 776.7 788.9 800.3 804.8 808.8 810.7 809.2 808 802 794.8 784.5 776.8 766.1 743.3 724.2 707.6 697 691.9 686.7 680.5 667.9 663.1 659.5 649.1 639.1 628.3 612.4 596.9 587.6 574.6 561.7 554.1 536 523.9 515.3 510 496.3 487.1 472.8 467.5 463.5 452.4 445.9 441.7 435.5 428.9 418.6 415.3 410.8 402.2 399.6 399.5 390.7 386 381 377.5 372.9 371 370.1 368.5 367.5 367.9 368.7 368.3 367.7 366.4 365.3 367.5 376.3 402.8 404.9 407.1 421.9 427.4 418.9 413.8 412.6 403 380.7 369.2 366.4 365.1 365 364.5 367.1 371.8 373.8 375 375 372.7 368.3 364.5 362.5 356 356 356 356 356 356 356 356 356 356 356
445.9 444.4 446.7 446.9 448.6 448.9 448.9 454 457.6 455.4 458.1 460.1 463.8 466.5 470.3 474.3 481.4 486.6 490.4 497 502.6 507.3 514 519.9 526.7 531.6 536.7 541.8 551.1 559.9 569.6 578.3 587.7 596.6 605.6 612.6 622.4 637.2 648.6 661 675.1 687 700.6 714 726.8 734.9 744.7 747 745.9 730.8 711.2 683.4 654.7 633.9 610.4 589.8 569.5 556 547 539.9 533.4 529.9 528.7 526.3 519.4 520.6 520.3 522.2 526.4 530.5 533.8 539.1 544 549.3 554.3 562.7 571.6 579.9 586.3 591.4 605.2 619.1 630 639.9 650.6 660.6 670.1 681.1 692.1 702.7 713.4 724.7 737.2 744.5 752.6 764.4 774.7 788 800.9 811.4 814.8 811.9 807.1 799 786.8 775.1 765.9 755.7 733 723.8 701.8 700.8 689.5 680.5 678.6 672.9 660.5 654.4 649.5 638.6 628.5 619.1 607 596.6 587.3 575 566.4 555.4 540 523.9 508.8 500.2 485.6 475.8 469.9 464.1 455.7 446.3 442.1 433.1 423.9 420.2 413.3 409.7 407.9 403.1 396.6 396.1 388.3 384.4 382.8 375.8 371.8 369.2 366.5 364.5 363.2 364.1 365.5 366.1 365.7 362.9 363.7 369.3 393.2 414.7 424 425 436.1 429.2 424.4 420.1 409.2 393.5 372.4 367.9 366.7 367.7 370 370.5 371 374.5 375.6 375.3 375 373.4 370.1 366.1 363.2 359.3 356 356 356 356 356 356 356 356 356 356
443.2 443 445.7 446.7 448.6 448.5 450.2 452.2 454.2 453.1 455.9 459 461.3 464.3 467.8 472.7 478.5 483.8 489.3 495.1 499.5 503.9 509.6 516.4 519.9 526 531.5 539.3 545.9 553.6 565.5 577 585.1 593.8 603.6 611.3 622 632.4 644.9 657.5 669.2 682.8 694.4 707.5 717.2 725.6 732.6 735.8 733.1 726.8 709.9 680.6 657.9 633.1 611.7 589.7 568.5 555.6 545.3 536.5 530.2 526.3 524.2 521.7 517.2 518.8 517.5 522.7 526.2 527 530 535.3 542.8 547 554.6 559.1 568.6 576 581.9 588.8 599.7 611.4 623.8 635 643.8 656.4 668.1 676.6 691.4 703.4 715.3 724.7 737.8 744.6 754.7 764.3 776 790.4 802.9 813.6 816.1 814.5 804.7 803.8 781.2 760.3 749.3 735.7 721.4 709 700.6 690 686.4 676.4 669.6 663.8 655.5 651.5 641.1 628 618.8 609 601.4 590.1 579.8 571.2 562.8 548.8 531.5 509.9 501 489.1 479.6 476 465.1 453.8 446.9 436.7 430.2 422.1 416.1 412.3 408.7 405.4 401 397.6 392.1 390.6 388.9 386.3 378.3 374.6 371.8 368.5 366.5 358.5 359.6 362 362.2 362.9 361.5 364.7 367.3 389.7 415.2 428.3 437.9 438.1 432.9 425.8 419.1 410.9 396.6 378.7 371.1 369 371.3 375 375.2 376.7 379.9 379 376.9 375.4 374.2 373 370.7 367.7 364.8 358.1 356.1 356 356 356 356 356 356 356 356 356
442.5 443.3 444.6 444.5 445 446.3 447.7 450.3 453.7 453.1 452.3 456.9 461.7 462.3 465.9 471.6 474.8 479.6 484.5 491.1 493.4 497.3 503.1 511.1 516.6 519.7 528.3 534.8 540.1 551.9 562.4 572.2 580.7 588.8 598.7 607.1 618.1 628.5 640.6 651.9 664.5 678.1 689.1 701.1 711.3 718.5 725.3 724.3 723.6 713.3 705.1 687.3 660.4 635 613.9 591.2 570.3 556.9 545.3 534.4 529.6 523.7 519.9 517.5 512.6 515.6 515.3 518.7 521.3 524.6 527.5 532.7 540.4 543.9 552.1 558.2 563.8 575.1 582.7 592.2 603.6 616.1 627.7 638.7 647.2 655.1 667.3 679.5 693.4 704.2 714.9 724.3 736.3 746 758.4 766.1 779.4 792.7 807.4 818.1 827.1 823.3 823.9 809.5 778.6 751.1 732.4 720.2 707.1 704.8 698.2 689.7 685.2 676.7 669.1 657.8 652.6 645.7 635.6 625 616.4 603.6 591.7 583.8 574.1 560.7 550.6 536.9 522.5 505.9 497.8 485.8 472.7 465.8 452.7 443 436.9 427.2 422.5 413.1 409.7 404.7 400.9 399 396.5 394.5 391.5 389.6 386.9 381.8 377.8 371.9 368.8 366.1 362.2 358.7 358.9 360 362.6 359.4 359.4 364.1 373.6 396.1 421.2 431.7 434.2 430.6 424.6 417.6 409.9 397.7 382.9 377.8 375 376.1 377 379.1 380.3 381.3 383.8 381.2 376.8 374.5 371.9 371.2 369.2 368.5 366.8 364.4 361.9 361.3 356 356 356 356 356 356 356 356
441 441.1 442.8 443.2 443.4 442.6 448.4 448.7 448.6 449.6 448.3 456.2 457.4 459.8 462.2 469.2 472.1 475.3 480.5 484.5 488.7 493.2 497.8 505.2 510.6 516.8 522.8 529.7 538.6 547.9 558.4 566.1 577.7 583.4 594.9 605 614.8 623.9 634.9 647.2 660.3 674.2 683.4 694.1 706.3 711.8 717.6 719.9 722.1 714.8 705.1 690.6 665.1 644 620.5 592.8 572.9 557.3 542.8 533.9 528.5 522.3 518.3 515.1 514.3 515.7 510.7 515.5 516.4 518.2 524.2 529 539.9 544.1 551.1 553.8 568.9 575.7 582.4 592.5 604.3 620.5 632.2 641.8 653.8 660.8 670.3 680.4 696.3 706.5 718.8 729.2 736.3 751.4 761 769.3 780.8 791.2 805 819.5 827.3 835.2 833.8 815.8 783.1 753.1 732.5 715 701 693.7 687.1 679.6 677.7 667.7 661.1 658.5 652.4 646.2 638.2 621.7 612.3 601.7 585.4 576 564.1 552.1 540.4 528.2 516.9 498.8 489.6 474 467.4 458.1 447.7 439.7 426.7 418.8 413.2 410 409.1 402.4 398.7 395.6 394.6 390.4 386.3 382.8 380.5 376.5 371.6 369.8 368.1 363 362.1 357.9 355.4 357 357.3 358.3 358.1 370.2 384.2 396.7 410.7 421.6 422.9 418.4 413.6 406.1 398.5 388.6 378.4 378 380.2 381.9 382.4 383.8 385.6 383.6 382.4 380.5 375.8 373 372 371.8 370.5 368.5 367.7 366.3 365.2 363.1 360.6 358.4 356 356 356 356 356 356
438.3 440 440.1 441.8 442.3 441.6 445.1 445.1 446.7 445.9 449.7 452.2 450.8 460.2 460.6 464.9 469.5 473 475.5 478.9 483 488.2 495.2 497.6 505.1 512.1 517.8 525.1 533.7 541.8 554.1 562.1 570 581 590.5 599.2 610.2 620.3 631.9 644.3 656.5 668.9 682.1 692.6 701.5 708.7 714.9 721.9 723.8 719.6 704.6 689.9 677.5 650.6 626.7 600.8 575.5 556 542.9 536.2 528.8 522.6 517.2 514 512.6 507.8 508.3 510.9 511.9 513.7 517.3 526 535.6 541.4 548.5 552.5 565.1 571.7 583.4 593.7 606.9 621.2 634.2 645.9 659 668.8 675.4 686.8 702.1 717 726.1 737.8 743.5 755.7 767.2 774.9 781.5 791.6 799.7 808.7 819.8 828.1 827 810.5 785.3 748.1 730 712.8 698.9 688.2 676.9 669.7 666.6 662.3 660 656.4 653.2 649.7 636.6 621.5 608 599.2 586.3 572.2 558.6 545.3 532.6 519 505.6 488.7 480.1 466.9 462.8 456.9 446.2 435 428.4 423 416.5 410.1 402 397.5 395.2 390.7 390.2 388.5 385.3 382.4 378.3 375.1 371.5 370.2 364.3 360.3 357.7 355.8 354.1 354.3 355 355.7 363 377.6 385.1 395.4 402.6 411.3 410.7 409.1 403.4 395.7 387.4 381.2 378.4 379.3 381.7 385.2 386.7 387.4 387.5 385.2 383.9 381.7 379.3 376.2 372.4 373.1 372.8 371.8 370.8 368.5 366.6 366.7 365.2 364.3 362.1 358 356 356 356 356
439.2 437.4 439.1 444.4 441.5 437.8 442.5 443.3 443.7 446 446.4 449.8 451.2 454.2 457.4 459.6 464.4 468.3 471.6 475.6 479.4 482.8 489 493.1 500 506.7 513.5 521.4 528.6 535.5 543.7 553.4 563.1 575.7 584.5 595.3 606 615.5 628.7 640.6 653.3 665.1 678.8 689.3 697.7 706.3 713.9 720.1 721.7 721.6 712 693.4 679.7 659.2 638.2 607.9 580.8 558.4 543.6 536 528.6 522.2 517.4 513.5 511.2 509.4 504.2 507.4 508.4 510.4 516 521.6 530.3 536 546.2 549 559.5 572.9 585.8 598.9 610.7 626 640.5 653.5 667.5 677.6 684 695.8 708.9 727.5 740.8 748 752.4 754.6 768.9 776.2 782.9 788.2 795 799.7 809.8 812.2 812.9 802.6 784.9 747.5 729.3 711.8 695.4 681.7 673.7 669.3 664.6 661.4 658.4 657.2 651.4 645.5 635.3 619.3 604.7 592.4 579.7 564 550.3 535.3 519.6 505.7 496.6 481.4 474.1 462.2 456.2 447.7 439.2 427.1 421.2 416.5 409.8 403.8 397 393.8 391.6 389.3 386.7 385.6 384.3 380.9 376 375.1 370.6 368.8 363.4 358.8 355.6 354.1 354.9 353.4 355.8 360.2 365.6 375.9 384.2 391.2 399.6 405.7 405.4 401.9 395.6 388.9 383.2 380.3 379.4 381.2 384.3 386.6 388.6 388.1 388.3 390.4 386.7 383.8 381.3 381.1 374.7 375.3 376.1 375.1 373.9 373.1 371.1 372.5 368 367 367.9 364.9 361 356 356 356
439 437.1 437.4 440.8 437.7 436.3 439.6 439 440.3 440.1 441.9 444.3 448.1 451.1 452.8 455.8 459.7 463.7 467.6 471 475.2 477.6 484.8 493.8 495.5 503.3 510 514.9 521.8 529.8 535.6 547.1 559.5 564.8 577.3 589.3 599 612.1 624.3 636.1 649.7 662.1 673.8 686.8 697.1 704.2 712.7 720.5 720.9 722.8 723.2 708.6 689.1 672.5 649.9 620.8 584.5 562.9 545.1 536.9 528.5 522 516.7 513 510.8 506.4 503.9 506.1 506.7 508.4 511.5 515.4 524 532.2 540.2 548.4 562 574.1 587.7 600 615.2 629.3 648.5 663.9 678.3 691.9 698.4 705.8 725.9 740.2 754.5 758.1 759.2 760.6 767.6 777.1 785 782.9 786.7 787.3 789.9 795.7 794.8 786.9 769.9 747.1 722.1 705 687.6 679.7 673.8 669.1 667.8 666.9 662.2 655.4 650.4 637.2 627.7 616.4 600.8 584.8 573.1 558.2 541.2 529.3 514.4 496.4 482.2 477.4 463.6 450.6 440.9 437 431.2 423.5 422.3 411.4 407.5 401.5 394.7 391.6 389.7 384.5 382.8 382.9 382.2 377.9 374.3 371.7 369.7 364.4 360 355.3 354.2 353.4 355.4 358 357.3 364.3 367.1 376.6 383.9 389.3 394.9 400.9 398.4 394.3 387.8 383.6 383.8 381.2 381.5 383.3 385.7 388.8 390.6 389.9 389.4 389.4 387.1 383.4 381.6 380 377.4 377.2 378.9 378.5 378.2 377.7 376.8 374 369.7 368.4 367.6 365.2 364.2 356 356 356
440.2 438.7 437.1 436.4 436.7 434.9 435.2 435 433.7 435.4 435.8 438.3 444.8 448.3 449.9 451.3 457.8 460.4 462.9 466.5 471.4 475.5 482.5 486.8 490.9 496.4 502.5 508.8 516.5 522.5 531.8 540.3 549.8 559.9 572.2 581.2 594.7 605.2 619.8 633.3 646.5 661.1 676 688.4 693.6 700.5 715.6 721.1 726.9 728.1 732.4 720.6 701.2 689 660.4 620.9 591.3 565.2 547.6 536.9 528.6 522.6 516.7 511 508.6 505.7 503.1 502.8 503.2 505.3 510.2 512.7 519.9 527.2 536.1 545 560.7 572.7 588.1 603.2 618.8 634.4 656.5 673.7 694.5 705 713 728.5 741.9 760.1 764.7 769.9 767.7 768.2 770 772.8 775.7 771.2 773.3 769.5 769.1 771.5 770.3 771.8 761.6 745.7 716.2 693.5 685.5 678.1 672.4 669.2 669.9 669.7 664.7 655.9 648.8 639.9 628.9 618.6 598.9 584.1 565.1 549.4 535.7 520.2 501.3 488.8 478.9 462.8 458.1 447.2 437.6 426.8 424 416.9 413.3 406.7 400.3 400.3 398.7 389.4 386.4 381.7 379.1 379.1 376 376.1 372.8 370 367.8 363.7 359.6 354.2 352.8 352.7 354.2 353.5 358.5 366.7 371.5 379.4 384.3 389.9 392.1 392.3 390 386.6 384.1 383.6 383 382.6 383.5 387.4 387.5 390.5 393.1 390.2 388.5 387 385.4 383.3 380.9 378.4 377.3 379.7 382 383.5 381.7 381.5 382.2 377.4 371 369.8 366.9 363.8 363.1 356 356 356
441 439.3 437.1 435.8 434.9 433.8 433.2 431.8 431.7 433.7 432.3 439.1 440.5 443.5 449.6 449.9 452.6 456.2 460 461.2 464.2 473.5 477.1 480.1 483.7 489.4 498.1 505.2 509 515.5 525 532.5 543.8 554 562.8 575.3 584.8 598.9 611.8 624.8 638.3 653.1 666.6 671.7 680.3 694 709.6 718.8 726.1 731 736 723.7 713.6 706.3 677.3 628.6 594.4 567 547.9 536.8 526 519.9 515 511.7 505.4 502.2 499.6 499.6 499.8 502.3 505.9 508.9 516.2 521.9 533.8 542.5 557.7 571.2 586.9 602.6 619.8 639.4 665.8 686 701.4 715.4 730.2 747.1 763.1 781 787.7 785.7 772.4 769.2 774.2 769.3 760 760.1 756.8 752.2 752.7 751.8 752.4 751.9 752.7 740.4 718.5 691.9 680.5 675.6 673.7 670.7 671.4 671.9 664.1 660.8 652.7 643.7 632.6 623.6 606.8 589.3 566.3 546.6 525.2 507.1 495.6 485.8 475.9 455.9 442.1 434.3 425.6 421 417 412.6 410 402.2 397.9 397.7 390.6 387.6 387.1 386 382.5 379.3 377.4 371.1 369.9 363.6 366 365.1 361.5 354.4 352.5 354.3 355.2 355.4 366.5 372.5 376.7 380.9 385 387 386.4 385.2 382.3 382.7 382.6 382.7 382.3 382.5 386.9 389.1 388.9 390.5 391.1 390.5 389.2 386.7 384.2 381.4 380.3 382 382.8 381.3 384.7 383.7 383.4 382.9 380.5 376.6 374.4 372 369.1 365.9 362.2 356 356 356
442.9 440.2 437.2 435.5 434.2 432.6 431.1 431 429.5 431.4 428.5 434.4 436.4 441 444.6 447.1 448.8 455.1 456.8 458.2 461.6 469.8 473.4 476.1 480.7 484.3 493.5 496.7 503.3 508.2 517.7 528.4 537.8 545.3 553.4 565.2 575.6 589.1 600 612.4 625.5 638.1 647.4 656.7 666.9 681.6 695.2 709.9 721.5 732 732.9 722.3 721.3 715.3 680.5 637.3 603.3 574.3 550.4 537.7 527.3 520.6 515.8 509.4 504.8 501.5 496.3 497 498.2 501.6 504.3 506.8 510.1 520.9 529.5 540.5 554.9 569.7 585.1 602.1 620.5 640 664 689.7 710.3 726.1 745.8 759 779.6 792.2 796.9 790.4 782.1 768.2 771.8 764.2 758.5 750.1 747 739.3 736.3 736.9 733.9 740.2 736.4 726.4 713.5 699.8 680.8 676.2 674.3 674 674 673.6 671.4 669.4 663.7 648.5 638.5 624.5 609.4 590.4 562.6 541.3 526.2 512.2 493.4 480.6 466.9 451.9 438 422.9 418.7 416.5 413.2 406.9 403 400.1 395.9 391.3 386.1 385.4 382 379.8 377.7 374.4 372.6 372.2 371.5 363.3 360 353.3 351.7 352.2 354.2 356.3 358.6 365.3 371.6 375.5 378.8 380.3 382.2 382.3 381.4 379.5 379.5 379.2 381.1 381.1 382.4 384.4 387.3 388.8 388.9 388.9 389.2 390.9 389.8 388.5 385.9 383.3 383.6 385.4 384.4 383.7 384.7 384.6 384.2 383.3 380.4 378.2 376.7 375 371.8 368.4 364.6 360 356 356
442.1 439.9 437.4 435.2 432.6 431.1 429.3 427.6 427.6 427.7 429.6 429.9 434.9 436.2 438.9 444.3 446.4 450.6 451.4 455.1 459.4 464.2 467.5 470.7 475.2 480.3 486.3 491.4 498.2 504.7 510.6 519.6 527.8 539.1 547 557.7 567.7 577.2 590.5 602.9 614.6 622.4 634.1 645 655.6 671.3 683.3 699.5 712.7 724.1 731.5 732.6 725.5 721.9 694.5 646.3 612 577.3 553.2 541.6 530.2 519.6 512.9 507.7 501.9 499.1 496 494.4 494.6 498 501.9 505.9 510.4 517.7 526.9 540 555.8 570.5 586.1 603.4 623.6 643.4 662.8 691 713.5 734.9 752.4 767.2 787 799.8 800.6 790.2 776.1 771.4 761.1 754.1 746 742.4 731.8 723.7 719.8 720.2 716.4 719.6 724.1 716.9 709.9 694.8 678.8 676.3 675.7 675.3 677.3 677 678.9 676.9 670.6 660.8 647 635.2 614.5 589.6 561.3 547 532 507.6 493.6 481.8 464.9 449.3 432.5 419.3 409 406 402.8 400.3 401.9 391.1 393.1 389.7 383.2 383 380.9 375.1 374.5 372 370.7 368 359.1 353.6 352.5 351.5 354.9 364.6 357.5 357.7 362.2 367.4 372.6 376.1 377.6 377.4 378 376.7 376.6 376.8 377.8 378.2 378.7 381.7 384.4 385.8 388.7 389 388.9 388.9 389.6 389.9 390 388.7 387.2 384.6 386.5 385.8 384.7 384.3 385.3 385.6 386 385.2 383 380.5 378.8 375.9 373.2 368.8 364.1 358.8 356 356
439.3 437.4 436.8 434.8 431.9 430.1 427.5 425.9 426.3 424 425 426.8 434.9 432.9 435.7 439.9 444 446.5 448.7 451 456.9 459.8 465.5 468.8 472.2 477.2 484.1 487.3 493.2 501.8 507.5 514 522.4 531.5 540.8 547.4 559.1 569.7 581.5 591.4 603.2 612.4 621.6 632.7 644.9 659.5 671.6 685.2 697.8 710.9 725.2 729.7 724.1 721.9 698.5 661.7 618.2 580.8 556.8 543.7 532 521.4 512.2 506.9 502.1 497.5 493.8 493.3 493.4 496.9 498.4 502.8 509 517.5 524 541 553.5 571.1 589.5 609.5 627.1 648.9 668.6 684.6 712.5 736.2 755.2 770 789.3 799.6 799.7 783 766.9 760.4 751 742.7 735 727.8 721.9 716.5 712.3 709 707.2 702.3 705.1 704.7 699.3 692.6 684.1 680.1 677.9 678.2 677.7 682.1 680.5 678.9 679.4 671.1 666.2 646.2 618.6 590.4 565.6 551.3 529.3 507.5 500.1 489.6 468.4 445.9 432.9 423.7 416 405.9 395.9 396.4 391.1 384.7 387 382.4 379.5 378.5 375.6 372.2 368.5 370.4 361.6 356.9 354.1 352.5 354.5 351.1 351.2 354.8 358 360.3 364.1 368.9 371.7 374.3 376.8 376.5 376.3 375.8 376 376.3 376.7 377.5 378.8 381.3 384.4 388.1 388.4 388.7 389 388.9 389.4 389.9 390.1 388.8 387.5 386.1 387.5 386.8 385.8 385.4 386.3 386.3 386.7 386.8 385.6 382.7 378.6 376.6 373.5 369.8 364.7 356 361.6 364.3
438.3 436.4 434.4 431.8 429.5 427.4 426 424.7 422.6 422.9 423.5 423.5 425.7 431.7 433 434.7 439.5 442.2 444.5 448.5 453.2 457.3 461.1 462.3 467.8 473 479.4 483.2 489 498.1 504.4 512.1 517.5 524.7 532.2 539.5 549.1 559.2 571.5 582.6 593.1 601.3 613.3 625.2 636.6 649.2 663.7 674.8 687.3 700.3 716.6 722.6 723.1 716.1 694.5 665.8 631.5 590.8 564.7 549.1 536.1 522.2 512.1 506 502 497.5 493.1 491.4 492.8 492.8 495.2 501.8 507.6 514.7 522.6 539.7 551.2 570.2 590.6 609.4 631.5 654 672.9 687.3 710.4 730.9 754 770.8 789.9 795.7 790.2 777.3 757.6 751 745.3 734.9 730.8 724.1 715.3 711.4 704.7 698.1 694.8 689.6 691.5 689.5 685.4 686.5 682.5 684.3 683.1 680.4 673.6 676.6 679 677.7 676.7 676 671.9 650.4 628.2 594.7 576.1 557.1 534.3 513.7 501.2 485.9 475.7 454.3 438 428.4 417.2 405.1 395.9 392.6 384.8 381.3 381.2 376.5 376.4 377 373.1 372.4 368.8 367.2 359.1 358 351.9 351.7 350.7 350.5 350.6 351.1 361.2 363.6 365.3 366.8 369.5 372.4 375.4 375.5 375.2 374.6 374.9 375.5 375.5 376.3 377.9 382.8 386 387.4 389.3 390.3 389.3 389.3 389.2 389.8 390 388.6 387.5 386.4 388.6 387.7 387.3 386.8 387.1 386.7 387 387.2 384.3 381.5 378.1 376 373.2 369.5 365.5 358.7 362 364.2
433.1 432.3 430 428.7 426.3 425.6 423.8 421.9 419.3 419.9 421 420.1 423 425.9 428.6 430.5 434 437.1 443 445 446.8 452.1 456.2 459.7 464.4 471.6 473.8 478.3 486.2 492 500.5 506.9 510.9 516 524.5 533.8 538.5 550.4 559.4 572.7 582.1 592.9 605.1 615.8 627.2 640.1 653.2 666.7 681.2 695.7 706.2 713.8 712.2 705.7 690.8 666.8 636.3 598.9 573.2 555.7 540.8 524.8 514.5 506.7 500.9 495.5 495.6 491.3 490.8 491.3 493.9 498.6 506.3 512.9 523.9 538.5 552.9 568.7 585.4 608.8 632.2 652 673.6 686.5 700.5 723.8 749.8 768.7 786.9 787.7 777.7 772.3 763.1 750.9 742.2 732.8 720.4 717.1 709.7 699.7 693.8 687.2 681 676.5 680.2 679.2 674.5 677.5 677.6 680.3 681.2 676.1 671.9 672.1 675.6 680.8 679.6 679.7 672.5 657.3 633.7 611.3 593.8 574.8 548.2 524.7 506.9 498.1 489.2 468.1 444.7 431.5 420.7 410.6 399.1 392 385.6 383.6 380.1 375.8 370.9 373.8 372.1 368.4 365.8 357.2 353.5 351.7 351.1 351.2 350.6 349.9 349.9 356.2 361.2 365.1 365.3 366.3 368.4 370.9 373.5 374.6 374 373.3 373.5 374.2 375.7 377.2 379 384.3 386.6 388.4 391.9 390.1 389.6 389.4 389.2 389.6 389.3 388.4 387.1 387.2 389.4 389.4 388.8 388.2 388 387.7 387.3 387 384.7 382.3 379.4 376.1 372.8 369.5 366.3 362.4 360.2 363.4
428.8 429.6 427.4 425.1 425.7 424.3 420.9 419.3 416.6 417 418.7 419.2 419.4 421.8 424.6 427.6 430.4 434.2 437.8 440.3 442.1 447.8 451.5 454.5 460.4 467.4 469.7 472.9 480.4 488.4 492.7 500.6 502.4 508.4 521.1 528.3 531.5 542.3 553.7 559.1 573.4 582.1 595.5 608.1 620 630.4 642.8 656.5 670.1 686.7 695.2 704 708.3 709 695.1 674.1 648.3 614.1 580.4 562.3 543.8 528.6 518.3 509 502.3 496.3 493 489 491.1 489 492.3 495.2 503.8 511.1 518.7 535.4 548.8 563.7 585.1 604.7 631.4 650.7 672.5 686 700.1 720 744.3 765.5 776.9 781.4 781 774.4 770.2 755.3 744.8 728.5 718.3 711.4 703.7 696.5 687.6 681.4 674 664.2 665.7 669.8 668.2 665.5 667 672.5 675 671.1 670.7 669.6 672.5 677.3 679.2 675.6 669.7 661.6 648.4 627.6 620.4 591.1 575 544.6 527.5 507.7 493.6 474.8 450.5 439 425 411.8 399.6 392.1 387 385.4 378.2 374.2 369 367.7 368.9 368.1 360.1 364.5 353.7 351.2 351 350.8 350.5 350.3 350.3 353.8 361.1 363.7 366 370.7 369.1 370.1 372.6 373 372.7 373.6 374.4 375.1 376.4 378 380.7 383.8 387.4 391 392.6 391.2 389.9 389.6 389.3 388.9 388 387.7 387.7 388 389.4 390.6 392.4 390.5 390 389.4 388.4 387.6 386.9 384.7 381.1 376.7 374.6 371.5 368.5 364 360.3 363.4
426.5 424.8 424.9 422.7 421.2 419.7 418 415.6 415.1 416.1 414.6 416.3 416 416.3 419.1 427.1 426.5 431.2 434.3 437.7 439 441.1 444.9 453.8 457.3 459 464.9 468.9 477.9 479.7 486 492.7 497.1 503.6 511 521.1 523.7 535.4 546.3 554.6 563.5 574.8 587.1 597 610.7 619.9 633 646.2 658.9 672.8 687.4 701.1 710.3 713.9 707.3 677 648.1 623.2 591.5 567.4 548.6 532 522.2 512.4 503.4 496.7 491.8 488.8 489.9 486.7 491.5 494.8 502.5 506.6 516.6 527.4 540.2 558.3 578.1 602.4 624.7 650.5 667.2 685.6 702.9 714.5 732.3 762.8 777.6 777.8 778.3 774.1 768.2 756.1 744.5 731.8 718 710.9 701.2 689.5 679.2 672.6 662.4 655.9 653.3 655.4 662.7 662.1 661 664.3 667.9 670.3 670.4 670.7 668.6 670.2 672.3 667.8 664.5 659.1 649.6 639.3 625.4 609.6 590.1 565.1 548 522.8 503 478.4 459.1 439.7 425.5 416.5 400 390.7 386.5 385.1 376.2 371.2 368.8 366.1 370.1 367.3 358.9 356.8 353.7 350.9 351 349.4 349.1 349.5 350.2 357.3 360.5 361.5 364.4 365.5 367.2 368.2 370.1 371.9 375.2 375.8 376.4 377.6 379 379.6 381.2 383.8 386.3 390.4 393.5 391.7 390.6 390.7 389.7 389.1 388.9 390 390.3 389 390.3 392.2 392.8 392.9 392.2 391.4 390 389 388.1 384.8 381.8 378.2 376.1 373.6 370.6 366.3 364.9 364.1
424.9 423.3 422.7 421.5 417.9 415.7 413.7 411.2 412.6 412.5 417.1 415.9 413.5 412 418.1 422.6 423 427.7 430.6 432.8 434.9 437 442.7 449.6 449.8 455.1 461.1 463.1 469.9 471.8 482.8 487.1 494.7 494.4 503.3 515.1 518.2 528.1 536.2 546.9 553.5 564.1 577.7 586.2 598.7 612.7 623.5 635.8 649.6 663.7 680.1 696.4 704.7 704.7 692.2 681.1 660 637.4 604.5 573.5 555.4 537.1 523.8 512 504.3 496.1 490.9 488 489.3 488.2 489.2 491.4 497.8 504.8 512.9 524.4 535.1 552.6 570.7 595 619.4 645.6 661.8 689.3 705.7 715.8 726.2 752.5 771 778.3 782.2 779.7 776.4 767.7 753.5 746.2 727 718.8 706.1 690.3 678.6 669.7 661 650.2 639.3 644.7 650 655.3 656.4 655.4 659.1 665.2 670.2 669.8 665.1 664.1 664.4 663.7 659.9 657.1 652.3 640.8 629.5 616.8 600.6 578.2 554.9 531 511.9 491.3 468.8 443.9 427.3 414.6 398.5 388.7 386.5 381.7 376.8 371.2 369.1 364.1 363.7 360.2 358.3 360.1 355.5 353.9 351.7 348.9 348.9 349.7 350.2 353.1 356.7 361.2 363 366.6 369.2 371.3 373.8 376.5 379.9 381.4 381.1 380.7 381.7 383.4 383.3 385.7 388.4 389.9 393.5 393.2 391.6 390.5 390.2 391.2 392.2 393.1 392.1 390.1 395 395.5 398.5 398.7 395.9 393.7 391.7 390.5 388.2 384.8 381.6 378.7 376.7 374.7 371.6 367.3 367.5 367.5
421.9 421.4 419.5 418.6 414.8 413.7 411 409.3 409.6 412.7 418.7 416.5 411.1 409.1 413.1 419.1 423.2 426.2 426.6 429.4 428.8 433 438.6 444.6 446 449.4 456.5 459.5 462.9 466.7 475.1 478.1 485.5 491.8 499 508.9 514.7 521.5 530.2 536.3 546.8 555.5 565.8 577.5 590.9 601.6 614.5 627.6 640.2 654.2 668.7 682.9 693.2 698.6 697.3 689.9 672.5 649.5 610.9 579.3 561.7 544.1 529.2 515.2 505.5 497.4 493 486 487.6 483.8 486.8 487.1 496.2 501.9 509.3 520.5 530.6 548.5 568.2 584.2 612 632.9 661.3 688.2 709.2 715.6 720.4 737.1 766.5 784.4 788.2 787.7 780.4 778.8 762 749.5 735.3 722.8 709.5 697.4 680.6 667.7 655.2 640.7 629.3 632.5 639.5 645.1 647.3 648.3 651 657.3 663.8 668 666.9 666.3 667.6 665 657 650.3 642.9 629.1 620.8 613.7 604.3 583.6 570 546 524.8 494.4 470.6 449.6 433.1 417.9 401.9 392.6 386.4 380.1 376.6 370.8 369.5 365.4 363.9 360.5 363.3 355.1 353.4 350.4 348.9 347.9 349 349.8 350.7 353.6 358.9 360.8 365.6 369 372.9 376 378.3 381.3 384.4 385.2 383.2 381.7 383.3 385.8 387.2 389.7 391.7 392.8 394.4 393.7 392 391.4 392 392.5 393.1 393.2 392.3 392.7 396.2 399.3 401.6 402.6 399.6 397.2 394.8 392.2 388.3 384.9 381.5 378.7 375.9 373.7 371.4 369.9 373.1 372
418.8 420.6 417.5 415 412.5 410.1 409.1 407.2 408.1 410.1 410.7 411.4 407.2 408.7 410.4 415.7 419.3 421.1 421.9 424.1 427.1 429.5 433.1 441.1 442.8 446.2 451.7 455.1 456.2 463.7 470 473.1 478.9 488.7 493.6 502.3 506.5 513 520.4 529.4 539.8 551.6 559.6 567.8 582.8 594.3 606 618.6 630.5 643.4 656.7 672.7 685.2 691.5 693.4 689.1 678.1 653.3 614.2 588.3 569.4 552.2 532.6 516.8 506.3 499.4 490.5 486.6 480.5 482.9 480.6 484.8 492.8 499.6 505 515.6 525.4 540.7 559.8 575 595 622 654.8 680.7 699.3 707.3 715.5 728.2 750.5 779.8 791.2 794.3 788.5 785.1 772.7 756.3 738.7 726.2 706.8 691.8 677.2 662.5 649.9 633.6 625.6 623.2 627.6 633.1 636.6 641 645 650.7 654.9 662 665.4 665.1 668.5 665.5 651.6 639.4 631 619.1 611.6 603 596.8 590 577.3 559.2 534.7 501.2 473.8 457 439.3 419.8 406.1 398.2 388.1 380.7 375.7 374.4 370.1 366.7 362.8 359.1 360.1 350.3 349.7 347.8 348.1 348.8 350.1 351.5 352.1 353.7 357.3 360.7 366.3 372.6 375.8 378.4 382.3 385.6 387.1 386.4 384.4 383.5 386.6 389.1 391.9 394.3 393.8 394 394.2 393.8 392.9 391.9 392.2 392.8 393.9 393.3 392.2 394.8 397.9 400.4 401.6 403.4 402.8 400.7 397.9 394 390.1 386.1 382.2 380.4 376.6 374 370.5 373.4 374.8 374.2
418.3 415.7 415 412.5 410.6 408.4 407.4 406.4 405.8 408.6 406.7 407.4 406.8 406.9 409.2 411.9 413.9 416.7 417.2 421 423 424.5 429.3 435.8 437.8 443.6 446.7 450.3 453.8 463.3 464.6 468.9 475.7 479.8 486 492 497.4 505.6 512.1 521.2 531.3 542.2 554.7 560.3 572.4 585.4 597.3 607.8 619.3 632.3 644.6 656.7 668.5 676.3 679.8 680.4 675.7 663.5 636.4 599.5 577.1 559.4 535.6 523.1 508.4 500.7 492.2 484.9 479.4 481.1 479 482.1 491 495.3 502.7 511.7 521.5 534.3 549.5 567.3 586.6 609.8 640.7 668.1 685 699.1 712.9 723.4 737.3 761.4 787.9 790.9 792.5 784.5 775.1 757.5 745.1 726.2 712 698.5 677.2 665 650.7 636.5 623.8 617.6 620.3 621.4 626.6 631.3 638.6 642.2 645.5 652.3 658.2 661.9 662 659.9 648.9 633.9 621.8 609.5 600.9 595.1 589.5 583.6 573.6 562.1 540.8 516 490.5 470 446.5 426.4 412.5 399.6 388 381.2 378.1 374.6 369.9 366.7 361.4 358.8 353.8 350.4 347.9 347.8 348.7 351.1 349.7 350.3 351.1 353.4 357.6 362.8 367.7 374.1 377.7 379.7 384.2 387.2 387 386.3 385.7 386.2 389.3 391.9 394.3 395.8 394.7 395.7 394.8 394.9 394.7 393.7 392.5 393.4 394.8 393.5 394.9 397.6 399.1 400.4 401.4 402.5 404.5 403.1 398.3 394.3 390.5 387.3 384.1 381.2 378.1 377.5 375.7 375.2 375.2 374
413.4 413.2 412.2 410.4 408.6 407 405.9 405 405.3 404.6 404.9 402.8 402.7 405.4 406.8 407.9 409.5 411.9 414 416.5 419.1 421.6 422.9 429.9 435.2 440.9 445.6 443.9 448.5 456.1 459.1 464.3 469.3 474.9 482.2 485.8 493.5 499.1 506.2 515.1 524.8 532.6 542.3 554.3 565.2 575.1 586.4 597 608.3 619.8 630.5 643.2 653 660.7 667.4 673.8 671.5 663.2 642.4 606.8 582.1 568.5 540.8 521.7 510.6 501.1 492.4 482.5 480.1 476.3 478.6 481.8 485.6 492.5 501.9 506.8 516.3 529.2 545.4 559.3 579.7 602.5 625.6 653.9 675.5 692.2 708.3 719.5 727.7 747.7 766.4 785.4 788.8 787.4 777.2 761.6 746.9 728.5 715.9 696.2 679.7 668.1 654.4 642 629.7 616.7 611.5 613.2 616.4 621.2 626.5 632 638.4 643.6 647.4 650.4 653 647.7 642.7 633.2 618.4 609.1 599 590.5 583.3 578 568.9 562.6 545.2 526.7 502.9 476.6 450.9 431.9 416.9 398.9 391.3 384.2 382.4 374.7 370.8 366.7 358.6 354.6 357.5 348.7 348.3 346.5 348.4 352.6 351.5 350.7 351.3 353.6 360.4 367 371.7 374.9 379.1 381.1 384.7 386.8 386.8 385.9 385.4 387.7 390.9 393 394.7 395.3 397.8 396.2 396.7 396.4 396 395.4 393.6 393.8 394.7 395.5 397.1 398 399.1 400.5 401.2 401.4 400.7 399.1 396.3 392.6 389.8 386.6 384 381.5 380.5 381.4 382.5 378.8 376.3 374.7
411.5 410.7 408.4 406.8 406 406.1 406.4 404 403.5 399.9 400.8 402.6 400.8 403 404.6 405.4 405.7 407.5 411.6 413.7 417.2 417 421.6 423.8 429.6 436.6 440.5 440.3 445.1 449.3 453.1 458.5 463.1 470 473.4 479.7 489 494.1 499.8 507.1 516.5 525.9 535.4 546.7 555.7 564.6 577 586.5 597.9 608.9 618.1 629.6 639.2 648.5 655.9 662.2 662.8 658.7 641.6 607 580.8 562.8 544.7 526.6 512.9 502.3 492.3 482.7 478.9 477.8 477.3 477.8 482.2 487.9 497.6 503.7 512 525.3 536.7 553.1 569.3 596.1 613.3 640.7 663.6 681 696 710.9 726.6 738.4 756.2 778.3 790.1 784.6 773.5 763.3 750.8 729.8 718.9 697.8 683.4 664.3 652.6 641.3 630.2 615.6 605 607.6 610.4 614.7 614.4 620.2 630.9 636.5 639.3 638.5 640.9 638.1 629.1 625.1 620.4 606.7 592.3 581.7 576.4 568.9 563.4 555.6 546.7 536.2 515.3 484.8 456 438.8 415.8 395.9 388.9 386.7 383.2 375.1 371.4 363.7 357.3 351.4 349 348.5 347.5 348 349.1 354.7 352.1 351.6 352.2 356.6 362.2 368.3 373.2 376.9 379.9 382.7 384.1 385.9 386.1 386.2 387.6 388.6 392.1 395.1 397.1 399.5 400 397.4 397.7 397.5 396.5 395.5 394.9 394.9 395.3 395.8 397.5 398.4 399.4 400 400 400.2 398.7 396.9 394.6 392.3 390.1 387.6 384.6 381.6 379.9 384 383.5 381.6 378.7 377.8
408.4 407.4 405.5 405 404.6 404.9 404.5 402.4 402.2 400.8 399.2 400.9 400.6 400.3 401.6 401.8 402.6 404.7 407.8 409.9 413.5 415.8 417.5 419.1 424 431.9 434.5 438.4 441.2 443.5 448.6 452.6 456.6 461.5 467.4 472.8 480.5 488.4 494 498.7 508.2 520.1 528.5 536.8 546.1 558.3 566.3 577.5 588.1 598.9 608.1 618.2 626.6 634.8 642.7 647.2 649.6 648.5 635.3 604.3 583.8 564.9 548.6 532 512.3 499.6 488.7 481.2 477.7 477 474.1 474.4 480.4 486.8 493 498.5 508.3 519.7 531.3 547.5 561.7 581.2 602.2 626.1 651.2 672.8 690.1 704.7 720.7 730.5 746.3 760.4 777.8 776 772.9 762.2 752.8 732.4 716 693.5 675.4 662.6 650.9 638.9 625.3 610.6 600.1 601.5 608.5 612 612 613.4 622 629.6 632.4 631.2 627.4 626.2 623.6 620.3 611.4 597.4 583.4 575.2 566.6 559.1 553.8 546 537.8 527.4 505.8 474.9 450 432.5 408 393.5 384 383.7 378.6 373.9 369.3 361.4 359.1 354.7 349.1 348 347.1 348.3 352.1 358.9 353.1 352.8 353.6 360.1 363.8 368.9 373.5 376.5 379.8 381.9 384.1 385.9 386.8 388.9 389.1 389.6 393 397.1 398.5 399.3 400.5 399.6 399 398.7 396.6 395.6 395.7 396.3 396.9 397 396.9 398.5 399.6 399.8 399.6 399.3 396.4 394.6 392.8 392.5 392.6 389.3 385 381.2 380.7 382.2 382.9 381.4 381.1 381.4
404.1 404.9 403 404.1 403 403.3 402.3 400.4 399.7 399.1 399.4 400.4 396.8 397.7 398.7 399.3 401.9 403.1 405.6 408.5 410.8 414.2 417.2 417 419.9 425.2 433 435.8 440 441.9 443.5 447.3 453.2 457.2 462.2 467.4 474.6 479.6 485.8 494.2 502.5 509.8 518.6 528 537.5 545.7 558.2 566 578.3 588 598.1 607 614.8 622.1 629 634.9 638.6 637.5 628.6 604.7 584.8 567.1 543.7 529.8 512.2 498 487.2 480.9 477.4 474.5 473.6 471.7 476.3 482.7 490.7 497 503.8 517.2 525.7 540.8 556.9 575 594.2 616.4 641 663.3 680.9 697.9 714 725.7 736.6 754.8 763.7 771.2 768.3 757.4 744.2 727.1 704.8 682.7 671.3 652.1 637.9 622 613.3 602.9 588.9 592.7 600.4 605.7 609.4 610.8 614.4 617 619.6 619.2 614.9 615 614.2 611.9 609 598.8 583.1 568.4 562.3 552.6 545 538.6 526.8 516.6 495.1 465.5 445.8 424.1 398.9 389.2 379.6 377.4 375.4 370.9 367.5 362.2 353.5 348.4 347.8 347.3 346.2 348.3 349.9 353.8 358.6 352.4 356.2 362.2 365.4 369.7 374.1 377.6 379.9 382.4 385.3 386.7 388.3 391.1 390.5 393.3 395.3 396.9 399.8 399.3 399.4 399.9 400.6 399.1 398.5 396.4 397.9 397.8 398.8 398.6 397.7 398.9 399.5 399.6 399.4 399.5 396.6 394.5 393.3 394.1 392.2 391.1 386.9 382.8 381.3 381.4 382.9 384.1 383.3 384.7
401.8 401.4 401.3 402.9 402.8 400.6 400.5 398.1 398.5 398 398.6 398 398.3 396.3 394.1 396.9 398.7 401.6 403.8 407 410.7 410.9 415.3 414.4 417.8 426.9 428.8 431.4 436.1 439.2 440.1 443.4 449.2 451.7 456.7 461.4 468 473.8 479.1 489.6 494 502.2 507.5 517.8 527.7 539.9 545.9 554.4 565.6 576.4 586.6 594.4 602.1 608.5 614.4 617.4 620.7 621.2 614.5 599.7 581.3 561.5 541.7 525.2 511 497.2 483.9 477.6 475.3 473.3 470 473.6 475.5 480.2 488.5 492.2 502.2 512.3 522.4 538.2 553.8 570.2 591.4 611.8 634.2 659.1 676.7 691.3 709 723.7 729 742.4 755.8 753.9 753.9 742.7 727.5 702.2 680 658.8 643.9 626.1 611.5 601.1 592.8 586.8 584.2 585.5 591.1 596.1 599.8 604.9 608.1 605.4 604.4 604.1 602 597.5 596.9 600.9 599.8 592.8 583.6 568.4 555 545.1 539.1 528.2 520.9 508.1 488.5 459.4 430.1 414.7 397.5 388.4 381.3 373.1 370.1 366.5 360.4 360.7 349.8 347.3 346.1 346.4 348.9 349.2 348.9 350.6 351.9 352.5 358.6 364.4 365.8 368.9 373 377.7 380.5 383.6 385.9 388.5 392 391.3 391.9 394.7 397.9 399.7 401.2 401.8 401.1 401.8 402.2 400.2 399.7 398.6 399.2 399.4 399.8 399.7 399.5 399.1 399.4 399.5 399.7 399.7 397.5 394.3 392.9 392.8 391.7 391.7 388.8 384.7 382.2 384.6 383.1 385.5 387.5 385.7
399.1 399 398.6 398.5 398.3 397.6 397.7 397.7 396.8 397 396 395.6 395.1 395.4 396.6 392.1 398.1 399.8 402.2 405.4 408.2 409.3 412.6 414.2 416.6 423.8 426.6 430.2 434.5 434.5 436.6 441.3 444.3 447 451.3 458 462 466.2 472.5 478.7 486.2 495.6 501.3 508.3 516.9 529.3 538.6 545.2 556.1 565.6 574.3 582.8 588.8 597.7 601 603.1 605 604.2 599.7 588.5 575.2 561.5 541.2 521.1 506 493.3 482.6 477.3 473.4 472.9 471 471.2 473.6 477.3 482.9 492.1 499.9 511 521.5 538.1 554.4 569.2 587.6 613.5 630.3 654.5 674.3 689.6 707.4 718.9 721.3 727.1 740.7 737.4 724.8 714.4 699.8 680.6 662.5 649.5 628.6 612.5 600.2 591.7 586.5 582.2 578.3 574.3 581.3 587 592.8 600 597.2 598.2 595.5 593.2 590.6 588.4 581.3 586.7 586.5 582.1 576.8 565.1 550.6 540.1 529.2 521 510.8 500.9 478.8 450.6 423.8 402.9 391.8 384.5 376.2 371.5 369.6 363 356.1 353.1 347.1 346.7 348.4 348.7 349.2 353.5 354.8 349.4 351.8 354 360.6 363.8 367.3 370 372.8 377.7 381.2 383.3 386.1 394.8 391.9 391.8 395.1 398.3 402.3 403.2 404.9 405.4 405.7 405.4 404 401.2 398.8 400.6 399.6 400 401.4 400.8 401.4 400.7 400.3 400.7 399.9 399.9 398.8 395.1 392.2 392 391.4 391.6 390.7 387.5 385.1 382.8 383.4 384.8 387 385
396.3 396.8 395.9 395.1 394.7 395.5 396.6 395.7 395 395.6 395.1 393.6 393 392.8 393.3 391.3 394.5 398.5 400.5 402.8 405.1 405.7 409.2 410.8 416.4 423.6 424.9 427.2 428.9 431.3 433.2 436.3 439 441.9 444.4 450.8 453.7 459.6 465.2 470.5 476.8 486.6 495.5 500.5 507.3 517.1 528.3 537.8 543.8 553.7 561.3 570.6 577.4 583.9 588.9 590.9 592.7 590.9 583.9 576 564.1 550.8 533.7 520.8 505.1 492.2 487.3 477.9 474.1 470.7 469.5 470.3 470.5 474.1 480.4 487.7 496.9 505.4 518.8 534.2 549.8 568.5 585.5 609.6 627.6 650 670.4 689.6 702.5 709.8 712 715.8 717.5 721.7 722.3 705.1 689.8 676.1 657.3 640.8 623 608 596.7 587.1 578.4 574.8 573.2 569.8 568.8 574.9 581.3 586.5 586.1 589 588.1 588.4 584.9 579.8 575.4 572.8 570 572.8 565.2 554.5 544 539.7 527.2 514.3 501.5 484.9 459.6 442.3 416.6 401 386.8 379.6 374.5 371.3 369.5 367.7 354.5 347.3 345.7 349.6 347.9 348.5 348.8 352.3 353 350.6 355.9 360.3 361.6 364 368 371.4 374.2 378.8 380.9 386.1 389.6 393.6 392.3 393.7 399.2 403.3 405.1 406.8 408.3 408.1 412.1 410.8 408.1 403.2 401.3 402.8 400.6 400.9 403.4 404.2 403.2 402.2 402.2 403.1 404.5 402 399.7 396.5 393.4 391.4 391 391 392.1 391.4 388.6 385.6 383.5 384.8 385.9 386.9
396.1 395 394.1 393.7 393.9 395.4 395.4 393.3 393.6 394.3 393.9 392.2 392 391.5 391 389.4 393.8 396.9 399.6 400.4 401.4 403.2 406.5 409.6 419 424.8 425.7 425.2 427.1 428.5 430.8 433.3 434.9 438 441.1 446.2 449.5 454 459 465.5 470 482 487.8 494.4 499.2 507.3 518 528.7 534.7 542.3 551.5 560.6 568.3 572.5 576.4 578.5 578.8 579.1 573 563.3 554.3 541.8 530.6 515.8 503.6 493.5 482.2 471.8 468.6 468.3 467.6 469.8 470.8 471.2 476 485 494.6 502.9 515.2 530 545 564.2 583.4 603.6 622 642.1 663.3 683.4 695.7 699.8 702.7 706.1 701.9 704.5 704.9 686.1 672.6 659 653.5 643.1 622.1 606.6 593.4 585.7 577.8 571.4 567.2 563.3 565.4 569.8 570.6 573.4 575.2 579 579.3 575.4 573.9 571.9 566.2 564.8 556.8 558 552.7 550.2 542.6 533.5 525.9 512.6 495.2 476.5 456.8 436.4 421.6 404.8 386.7 376.3 371.1 367.6 366.5 355.2 349.5 347.2 345.9 345.7 344.8 346.5 348.5 349.7 351.5 355.7 356.1 359.3 361 363.5 366.8 370.9 376.2 378.8 381.8 388 389.6 391.7 393 398.1 403.9 406.5 410 414.1 414.5 417.4 419.9 420 418 411.8 411.1 408.3 406.2 406 409.4 408.7 407.9 404.9 404.7 406.9 409.4 408.3 404.6 398.9 395.7 392.7 390.7 390.3 391.7 390.5 390.5 387.4 384.3 385.9 387.8 390.7
392.1 393.4 392.2 392.8 394 393.6 393.7 394.2 393 392.9 392.7 390.9 391.2 391 390.8 388.6 391.3 394.4 395 397.7 397.8 403.1 406.9 410 417.9 424.9 423.4 424.4 425.4 425.5 428 428.5 432.4 434.8 437.6 440.9 447.1 450.5 454.4 458 463.8 471.5 477.9 483.6 489.9 497.9 507.3 519.1 523.6 532.7 541.4 550.7 555.4 559.2 562.9 564.2 565.8 563.6 558.6 553.9 542.3 533.6 523.9 510.3 499.3 491.4 482.4 468.9 466.2 467.1 464.7 468.2 468.4 470.4 475.6 484.1 491.7 502.2 512.1 527.6 542.1 559.7 578.6 599.8 620.8 640 663.2 681.4 693.8 702.6 696.8 694.1 689.3 687.7 688.6 677.2 657.8 647.5 642.6 631.3 616.2 603.7 590.4 583.2 574.8 567.7 562.9 557.9 557.6 560.3 561.5 562 565.8 569.8 565.1 560.7 563.4 557.3 555.1 552.4 549.5 541.4 535.5 529.9 525.2 521.1 522.1 514.5 494.8 475.2 455.5 442.9 425 404.7 382.9 376.1 370.3 365.7 358.3 352.1 348.9 347.7 348.3 348.4 347.8 346.3 345.7 346.6 351.1 356.8 359.6 359.4 359.8 361.8 368.1 373.7 378.2 379.5 382.1 387.1 389.4 392.4 395 401.7 407.4 411.4 417.8 424.2 426.6 430.6 430.9 432.3 432 431.7 424.9 420.2 414.8 416.2 416.5 414.4 411.1 408.9 408.9 411.1 413.9 414 409.7 403.9 397.9 394.8 392.5 390 391.1 392.6 391.4 387.8 385.6 387.5 392.5 393.2
