ncols 200
nrows 85
xllcorner 390000
yllcorner 380950
cellsize 50
83.3 83.8 84.3 85.1 86.1 87.1 87.4 85.3 88 88.2 87.5 87.6 87.5 86.4 82.9 81.4 80.9 82.3 83.3 84.5 85.1 85.5 86.4 87.1 86.8 86.8 85.9 85.2 87.1 87.7 87.5 82.7 75.9 74.7 77.3 78.7 85.3 87.2 82.1 80.8 75.9 81.7 83.1 83.8 83.9 84.1 85.2 86.5 88.7 88.4 88.9 91.4 93.5 94 94.6 95.1 96.2 97.4 98.3 98.6 99.1 101.2 102.3 103.1 104.7 106.5 108.5 110.5 112.6 115.3 119 122.7 126.8 129.9 132.7 135.5 138.1 138.5 138.3 136.5 134.4 120.1 120 135.9 140.8 142.9 145 144.9 143.4 139.5 144.9 145 142.6 142.6 147.7 151.5 155 158.9 160.6 161.3 161.7 163.8 165.4 166.6 167.7 168.9 170.1 171.2 172.3 173 173.1 174.4 175.1 175.5 176.6 177.4 179.1 180.7 182.6 184.5 187.6 191.4 196.2 201.8 205.5 209.5 210.1 209 209.6 211.7 215.4 219.4 220 221.9 225.8 232.3 235.5 231.8 229.2 226.8 224 221.3 214.3 210.1 206 201.5 198.4 194.9 191.3 186.8 185.4 180 172.9 165 160.4 153.8 137.9 140.1 143.5 144 136.7 132.9 128.5 124.4 124.3 126 120.4 118.2 115 114.1 113.2 112.2 112.3 112.8 113.2 114.3 116.1 119.6 119.5 115.9 115.2 115.4 115.8 116.5 119.6 118.6 119.9 121.7 120.1 122 123.7 117.3 121.2 130.1 140.3 146.9 147.7 150.3 151.4 152.7
83.7 85.4 85.6 86 86.9 87.7 88.2 88.1 87.2 87.8 87.8 87.6 87.4 85 82.6 82.2 82.3 83.1 84.1 85.1 85 84.8 86 87 86.3 85.9 86.1 87.5 87.7 87.4 88 88 78.8 76.5 76.2 77.8 79.6 83.2 80.5 78.3 81.3 81.9 82.5 83 83.6 84.3 86 88 89.6 90.6 89.6 89.6 93.5 94.8 95 95.7 97.1 97.9 98.3 99 99.2 101.2 102.9 104 105.3 106.5 107.7 110.3 112.6 116.2 119.3 122.7 126.5 130.3 134.1 137.6 140.1 141 141.3 139.7 138 137.6 126.3 119.4 132.2 142.2 144.3 144.6 144 142.1 140.4 142.8 142.6 150.3 150.5 153.5 156.5 158.9 160.5 161.7 162.8 163.7 165.6 166.5 167.5 169.4 170.7 171.3 172.3 172.8 173.6 174.2 175.3 175.4 176.3 177.2 178.6 180.3 182.4 184.4 184.8 191.3 197.1 205.3 207.6 209.2 207.4 209.4 212.5 213.6 217.8 221 222 225.8 230.9 237.5 235.3 231.6 227.3 225.5 222.1 220 215.9 211.3 207.6 202.9 199.8 195.8 192.5 191 187.4 181.1 178.6 172.2 164.2 158.1 142.1 154 151.3 145.7 141.8 141.5 139.1 135.8 134.3 134.9 135 134.9 126.5 125.9 121.6 120.6 116.1 116 115.2 117.4 121.3 124.6 123.8 118.8 114.2 115.7 116.7 116.9 116.6 117.3 117.6 118.1 118.9 117.8 119.2 121.5 132.8 143.2 148.1 148.1 148.9 149.2 149.5 149.5
84 85.5 85.9 86.2 87.1 88 88.3 88.2 87.5 87.6 87.6 86.9 85.8 83.3 83.8 83.5 83.5 84.4 84.8 85 85.1 84.9 85.8 86.9 85.5 85.8 86.1 87.4 88.4 87.9 88.6 87.5 84.6 77.9 75.8 76.7 78.9 80.9 76.8 80.4 81 81.5 81.7 82.4 83 85.9 87.5 89 90.4 91.6 93.2 93.8 94.4 95.4 95.5 96.9 98.3 99.2 99.5 100.1 101.3 101.4 102.7 104.5 105.8 107.1 108.7 110.9 113.3 116.5 119.4 123.3 126.7 130.8 135.4 139.4 141.9 143.1 143.2 141.9 140.8 140.2 139.7 127.8 122.9 139.5 142.5 143.1 142.3 140.1 137.5 144.8 145 150.2 153.1 154.4 157.2 159.3 160.6 162.4 164 157.6 166 167 168.8 170.4 171.4 172.1 172.9 172.7 173.4 174.4 175.4 175.5 176.3 177 178.7 180 181.9 184.9 186.5 191.7 196.3 202.6 205.5 205.3 206 207.3 209.8 214.5 218.8 221 223.7 227.1 236.3 237.8 233.6 230.6 227.1 224.6 222.1 219.3 216.1 211.8 208.3 204.8 202.1 199.3 196.3 192.7 189.8 187.9 182.8 179.3 172.5 162.2 158.8 158.5 158.8 153.6 147.3 143.1 143.4 144.4 143 143.3 140.1 138.3 134.3 133.6 137.8 139.3 134.2 125.5 125.4 127.4 126.9 132.4 132 131.7 123 123 116.1 115.3 116.9 116.3 117.3 118.5 118.7 118.4 121.2 131.6 138.5 148.1 149.1 150 149.6 147.7 147.5 145.4
85 85.6 85.9 86.2 87.7 87.9 88.3 87.7 86.9 86.8 86.6 85.3 84.9 84.3 84.1 83.7 82.1 84 83.9 83.8 84.4 84.7 85.8 86.4 85.8 86.1 86.7 87.7 87.8 87.9 88 87.5 82.7 80.6 76.9 77.3 77.7 77.8 72.7 77.6 80.2 81.1 81.6 82.5 83.7 86.6 87.8 89.2 90.4 92.1 94.1 94.7 95.3 95.4 95.7 97.1 98.6 100 101 101.4 102.1 103 103 103.4 105.7 106.9 108.1 110.8 113.7 116.7 119.6 123.3 126.8 131.2 135.9 140.4 143 144.5 145 144.3 142.9 142.7 141.8 139.4 120.8 125.4 135.9 140.5 137.6 134 140.8 146.1 146.7 149.2 153.6 155.1 157.6 158.8 160.4 162.6 167.1 158.9 167.3 168.8 170.3 170.6 171.1 172 172.3 172.5 173.6 173.2 174.4 174.9 175.7 176.8 178.7 180.6 182.3 185.5 187.2 190 193.3 198.2 201.3 202.4 204.6 204.4 207.7 213.5 218.1 223.4 225.9 229 238.1 237.5 235.9 229.2 226.1 223.7 221.6 218.5 216.1 212.4 210.4 208.1 205.2 200.8 197.7 194.4 194.2 191.1 186.7 181.5 174.1 157.2 163.2 168.2 161.7 159 150.9 151.5 153 150.4 146.7 143.6 139.7 143.5 144 138.7 140.8 143.2 142.9 139.2 136.7 136.8 136 137.5 138.9 138.9 129.1 131.4 135.7 121 113.7 115.9 114.5 119.2 119.6 122 125.4 134.4 144.5 148.3 150.4 152.2 152.5 151.5 145.8 145.5
85.1 86 86.4 86.5 87.4 88.1 88.4 87.5 85.9 85.1 85.5 85 85.2 84.1 83.4 82.9 80.1 82.6 82.9 83.2 83.6 84.4 85.3 86.9 87.1 87.9 87.4 88.7 87.5 87.2 88 88 85 83.1 83.3 79.3 82 79.2 79.7 79.5 77.1 78.3 81.9 84.2 85.6 86.9 88.2 89.5 91.3 93.6 95 95.6 96 95.5 95.9 96.7 98.7 100 101.5 102.3 103.4 104.1 104.5 104.8 105 106.1 108.1 110.1 113.3 116.7 119.6 123.2 126 131.3 136 140.6 142.7 145.2 146.5 145.9 145.3 144.4 143.4 142.3 139.2 122 127.3 136.9 135.3 136.2 144.3 151 152.2 152.8 152.8 154.2 156.5 158.4 160.3 163.3 168.5 166.5 168.2 169.8 170 170.2 170.7 171.4 171.2 171.2 170.8 171.2 172.5 174.2 175.5 176 178.9 181 183.5 186.2 188.1 189.2 193.1 195.9 198.2 199.9 200.9 202.2 204.5 209.7 215.9 224.4 226.3 230.3 237 237.2 233.1 229 225.7 223.2 221.4 219.7 217.5 214.4 212.3 210.4 206.6 202.5 200 198.8 195.1 190.3 184.2 176.6 165.1 155.9 168.1 170.8 164.6 162.5 158.1 159.4 157.1 154.5 152.9 149.9 149.1 147.2 145.1 131.6 144 147.2 144.4 146.6 145.1 141.7 140.5 145.7 144.2 141.5 136.4 137.5 144.8 139.6 126.9 126.5 123.7 121.4 124 127.7 131.3 141.7 147.9 145.2 150.3 155.8 154 152.5 146.2 148.7
85 86.3 87.1 86.5 87.8 88.1 88.1 87.6 85.2 84.9 84.6 84.7 84.2 83.8 83.5 83.2 82.2 83.3 83.5 84.2 84.2 85 85.8 87.6 88.4 88.3 89 90.1 89.1 87.3 87.3 86.3 85.5 86 89.3 85 84.2 80.2 80 79.8 81.2 80.4 82.9 86 86.4 87.2 88.8 90.3 92.3 94.2 95.8 96.3 96.9 97.1 97.2 97.2 98.5 99.3 101.7 103 104.2 105.1 105.5 106 105.7 105.5 107.4 120 121.1 119 121.2 125.8 124.3 130.4 136.1 140.5 143.2 145.6 147.7 147.3 146.9 146.1 145.1 144.6 143.4 128 120.5 129.7 130.9 137.3 144 152.3 152.3 151 150.5 152.6 154.8 157.2 159.7 163 166.2 168.9 165.7 169.7 169.1 168.4 169.4 170.4 170 170.3 171.3 172.2 173.6 173.2 174.3 174.4 175.2 178.8 182.4 185.5 189.6 190.9 190.7 192.5 194.9 197.7 196 199 201 205.7 213.5 223.6 230 233.7 233.9 234.2 231 229.5 225.8 224.7 223 221 217.8 215.7 213.5 211.2 208.5 205.5 203.2 200.6 197.3 189.4 180.1 169.5 163.6 169.6 171 173.5 172.1 165.4 164.3 164.2 164.5 164.1 161.3 158.2 153.7 152.7 150 143.2 148.3 150.7 153.3 153.9 153.8 153.5 147.8 144.1 144.3 146.6 142.4 139.2 150.3 144.1 140.8 140.3 139.2 140.8 142.5 134.1 145.3 151.6 156.2 156.5 157.4 155.8 155.3 152.7 147.6 133.8
85.3 86.3 87.2 84.7 85.3 87.8 88.1 86.5 84.4 84.4 85 84.6 84.1 83.8 83.5 83 82.6 84.1 84.1 84.6 85.4 86.4 86.5 86.9 89.2 89.3 90.2 90.2 90 90.2 87.8 85.5 85.5 89.2 90.5 83.1 89.8 88.5 87 83.5 82.4 82.6 84.9 86.6 86.9 87.9 89.1 91 92.8 94.2 95.4 96.6 97.6 98.4 98.6 98.6 99 99.8 101.9 103.5 104.9 105.8 106.5 107 106.7 106 107.7 120.4 121.6 123.1 128.9 129.7 125.7 130.6 136.4 141.4 145.1 148.4 149.8 149.4 148.5 147.7 147.3 146.8 145.6 134.4 120.9 122.8 131.1 135.6 142.9 151.1 148.2 147.5 149.1 151.4 153.9 156.4 159 161.8 163.5 165.9 161.5 168.6 167.6 166.9 166.7 169.3 167.5 170.2 171.4 172.4 172.4 172.7 173.5 172.9 172.6 177.5 182.4 186.5 189.2 189.7 189.7 189.5 191.4 192.8 192.9 193.5 198 201.2 210.5 221.5 228.8 233.6 233.4 232.9 232.4 231 227.4 226 223.8 221.3 218 214.5 213.3 211.5 209.3 207.1 204.8 201.7 198.6 191.3 173.3 167.9 173 175.6 175.9 175.6 174.1 170.6 168.2 167.3 166.1 166.6 166.6 166 160.4 156.5 153.7 148.9 152.2 154.2 156.5 158.1 159.7 160.2 160.6 158.1 154.9 151 148.1 145.6 150.9 152.4 152.5 151.6 146.9 148.4 151.7 142.3 152.7 155.4 160.2 163.3 161.3 157.9 157.5 155.2 152.9 146
85 87 86.8 86 85.4 85.6 85.8 84.8 85 84.5 84.9 84.4 84.1 83.8 83.5 83.1 84.2 84.7 84.2 86.3 86.8 87.4 87.1 87.2 88.6 88.8 89.9 90.5 88.9 91.1 89.3 87.3 89.3 90.6 83.4 90 90.1 89.2 88.4 85.1 82.7 82.2 84.8 87 87.5 88.1 90.1 91.2 92.7 94.2 95.1 95.9 96.6 98.9 99.7 99.5 99.2 99.7 102 103.3 104.9 106.3 106.8 107.3 106.7 107.3 107.7 116.9 122.6 123.6 129.5 131 126.1 131.2 136.5 142.5 147.2 150.2 152 151.8 150.8 150.7 150.1 148.7 146.8 138.9 120.5 120.7 122 129.5 138 144.1 145 145.2 147.8 150.4 153.2 155.7 158.3 160.9 162.4 163.5 157.6 166.3 165.5 163.3 166 165.7 168.8 169.9 170.7 171.4 171.3 172.4 172.2 171.8 169.3 175.3 180.3 184.8 186.4 185.1 185.3 185 187.7 188.4 188.9 191 193.9 197.4 208 217.9 225.8 231.3 233.3 233.1 233 232.1 228.9 226.4 223.9 221.2 218.5 215.5 213.2 208 207.7 205.7 203.3 200.6 198 181.1 176.2 181.4 183.5 182.6 181.6 182.9 179 176.8 173.6 170.1 174.3 167.9 167.3 167.1 165.8 165 159 152.9 152.5 158.4 161.1 162.2 163.2 164.5 165.3 164.7 162.2 158.1 157 151.2 154 156.1 156.1 157.8 158.1 156.1 156.1 156.1 159.9 164.6 166 163.7 162.4 161 159.4 156.8 154.3 143.6
85.3 85.8 86 85.9 85.2 85.5 85.8 85.2 84.5 84.6 84.9 85.6 84.6 84.2 83.8 83.5 84.9 87.5 87.4 87.1 87.7 88.3 88.4 89 87.2 89.1 91 92.3 91.6 90.8 89.4 88.4 90.5 87.6 86.3 90.2 90.1 89.3 88.7 87.6 83.6 82.1 85.2 87.2 87.7 88.5 89.5 89.6 90.7 94 95.5 95.6 95.6 97.5 99 100.3 101.3 102.2 102.6 103 104.4 106.1 106.7 107.4 108.1 108 109.5 112.7 123.1 125.7 127.5 128.9 128.5 131.8 136.8 143.3 148.2 151.7 154.1 154.4 154.1 153.9 153.2 150.4 147.5 142 127.8 122.1 121.3 122.8 140.5 136.9 139.4 144.1 146.3 148.7 153.1 155 157.3 160.3 162 161.1 159.3 163.2 159.6 163 165.1 165 167.6 169 169.5 170.4 171.2 171.2 171.2 168.6 165.1 171.2 175.7 180 180 176.7 177.7 179.8 181.8 182.5 181.4 186.3 191 194.4 204.2 214.3 223.7 230 233.8 233.4 233.3 232.6 228.9 226.1 223.2 220 217.2 213.2 210.7 207.9 201.8 201.2 199.7 198.1 187.9 178.5 171.9 189.2 190.4 186.8 185.5 184.6 182 178.7 177 174.8 174.4 174.7 173.8 172.2 166.5 166.1 165.2 161.1 160.2 163.5 164 165.9 167.6 169.2 171.7 170.8 168.5 163.4 163.9 156.1 161.5 166.9 166.7 168.3 167.7 166.4 158.3 162.4 172.5 170.2 169 166.3 166.4 163.9 161.6 157.9 155.6 149.4
85 84.1 84.7 84.9 84.8 86.3 86.4 85.9 86.8 85.1 85.4 86.7 85.3 85 84.7 84 86.5 89.4 89.8 88.8 88.8 88.8 88.5 88.7 88.4 88.7 92.2 93.7 93.5 90.5 90.9 91 88.5 85.6 88.7 88.8 88.8 89.2 88.3 87.3 84.6 82.4 84.7 86.9 88 89.3 89.6 89.6 92.2 93.7 95.1 95.6 96.1 97.9 99.2 101.1 102.3 103.4 103.7 104.2 104.7 105.6 106.7 107.5 109 110.6 112.9 114.7 116.9 121.7 126.3 128.5 129.7 131.4 136.2 143.1 148.6 153 155.5 157.2 157.2 156.3 154.9 152.9 149.7 144.8 131.4 130.5 125.8 125 141.4 124.3 132.5 138.7 141.4 147.5 148 148.5 153.9 155.1 157.4 158.2 159.4 158.8 158.9 163.9 164.5 164 166.3 167.3 168.7 169.5 169.7 170.9 169.2 165.8 162.8 168.2 168 166.1 165.6 168.7 172.6 175 177.3 178.3 179.9 185 188.3 193.4 201.6 208.3 221.3 231.1 233.6 233.5 233.7 232.3 228.2 225.3 221.3 215.8 213.5 209.5 204.7 202.7 199.3 193.5 196.7 191.4 184.8 180.1 180.3 193.5 196.2 196 190.5 188 184.7 183.5 181.8 180.1 177.3 178 177.3 178.9 177.4 173.3 166.9 164.8 164.7 164.9 166.1 168.8 171.4 173.5 176.1 176.3 174.2 171.1 171.4 162 166 168.6 171.1 171.5 172.3 172.3 163.5 169.4 172.8 169.7 170.8 170.3 169.2 166.3 162.3 157.9 153.4 144.7
84.4 83.8 84.3 85.1 86.5 86.7 86.5 86.9 86.8 86.3 85.9 86.8 86.1 85.6 85.3 84.6 86.2 90.3 90.9 90.7 89.9 89.8 89.6 89.6 89.1 88.2 93.3 94.9 94.9 91.4 91.6 87.2 86.4 90.1 89.7 88.3 87.6 87.9 88 87.3 86 82.2 83.2 84.7 86.8 89.5 89.6 89.5 91.8 93.5 94.2 94.7 96 97.8 99.9 101.3 103.1 104.2 104.7 105.4 106.1 106.6 107 107.6 109.1 111.1 113.8 115.5 117.3 120.6 124.3 127 128.4 131 135.8 142.4 148.4 154.1 157.4 159.4 159.3 156.2 154.9 155.4 152.3 147 137.7 137.6 136.3 138.2 141.2 126.9 131.6 143.5 141.5 141.1 140.9 141.1 142.5 143.7 145 145.5 145.4 153.9 149.2 154.9 159.4 160.3 161.4 164.3 166 167.8 167.5 168.5 167.6 163.8 155 160.5 158.8 158.6 162.7 164.2 166.8 171.8 173.6 174.3 178 181.5 186.5 192.3 198.9 205.6 220.9 229.7 232.6 233 231.6 229.8 225.5 221.5 216.7 212.4 208.9 206.7 192.6 189 184.6 186.4 186 185.2 179.2 177.6 184.3 196.3 199.6 200.3 196.6 193 190.2 189 186.8 184.3 183.5 183.6 182.8 183.1 183.9 179.4 172 169.2 166.4 166.9 169.3 172.2 175.3 178.1 179.9 180.2 177.1 176.2 175 173.7 173.3 174 172.6 174.4 174.1 172.9 164.6 175.4 182.2 178.5 176 173.8 169.9 169.4 164 158.1 150.8 149.2
83.7 84.4 83.7 84.6 87.7 87.1 86.6 87.2 86.2 86.1 85.2 85.8 87.2 87 86.4 85.3 85.9 90.6 91.4 91.4 90.3 90.3 90.1 89.3 88.7 88.5 94 95 94.7 90.9 85.4 88.6 90 89.7 90 89.6 88 87.6 88 87.6 86 83.3 83.2 86.2 86.5 89.6 89.6 89.5 89.6 91.4 93.1 94.7 96.4 98 100.2 101.6 103.3 104.9 105.8 107 107.8 108.8 109.1 109.2 109.8 111.4 112.9 115.5 117.5 119.6 122 125 127.1 130.2 134.8 141.4 148.2 154.2 159.2 160.8 161 159.1 157.6 156.3 153.8 149.1 142.9 141 139 137.8 140.5 140.3 143 143.5 139.7 130.9 129.6 134.1 138 148.5 150.9 150.7 150.5 156.7 150.7 156.1 156.7 155.9 152.8 152 156.3 162.4 162.5 162.9 163.3 159.8 151.4 150.6 149.8 152.1 153.4 157.9 162.1 166.9 169.3 168.6 174.5 178.9 182.3 188.2 196.4 204.8 217.9 226.7 229.1 230.3 230.7 226 222.8 217.4 213.3 204.6 196.7 188.9 182.2 182.3 181.1 182.2 182.4 181.9 180 181.9 191.1 197.8 202.6 203.9 204.3 202.4 199.1 195.5 195.8 194.5 188.8 187.6 187.1 187.4 189.3 186.1 178.8 174.6 172 170 170 175.9 178.5 182.2 185.3 186.1 181.8 179.9 177 176.2 177.9 178.1 177.5 176.5 176.4 168.6 175.3 181.9 187.1 183.1 178.1 177.3 173.9 173.7 168.6 161.8 156.2 151.6
82 82.3 82.5 84.4 85.6 86.4 86.7 86.6 84.7 85.5 84.8 84.5 86.4 87.2 87.1 85.9 85.2 90.1 91.6 91.7 91.1 89.7 88.9 88.2 88.2 88.8 88.9 92.3 85.8 86.8 88.5 89.2 89.7 89.4 89.8 88.9 86.7 87.2 87.6 85.5 80.7 81.7 84.3 87.6 89.5 89.5 89.6 89.6 90.5 89.5 92.4 94.7 96.4 98.2 100.1 101.9 103.4 104.8 106.3 107.9 109.5 110.8 111.2 111.5 112.4 113 114.6 116.5 118.6 120 122.2 123.8 126.4 129.8 134.7 140.1 147.2 153.5 159.2 161 161.3 160.3 159.2 156.9 154.2 149.7 147.9 144 143 141.4 141.1 143.7 144.5 145.3 143.7 144.5 143.8 139.1 133.4 134.5 139.1 140.2 141.6 157.6 146.6 146.8 146.8 144.6 144 144.6 146.3 151.5 153.9 152.1 156.6 155 150.4 154.8 154.7 156.9 153.3 154.5 154.9 162.5 162.7 168 171.7 175.5 178.7 182.8 190.8 201.4 212.9 222 226.6 225.2 225.9 221.2 216.8 207 200.7 192.2 182.3 181.3 177.8 179.2 180 180.7 181.2 182.1 181.8 189 196.8 199.1 206.2 208.1 209.6 209.4 207.7 204.8 202.2 201.1 197.1 196.6 194.7 192.6 193.3 192.1 186.5 180.6 180.1 179.6 179.4 179.7 182.9 185.8 188.4 189 186.1 181.9 183.2 181.7 180.9 181.6 181.2 181 179.7 176.1 179.6 186.6 191.3 188.2 184.1 181.7 180.3 176.7 178.1 177.6 167.4 158.5
81.5 80.5 81.4 82.5 84.4 84.9 84.9 85.6 85.5 84.6 84.4 84.5 85 85.8 86.2 86.2 85.7 87.1 88.9 90.7 91.1 89.3 88.5 88.2 88.2 91.8 86.4 88.1 87.7 87.8 88.3 89.3 89.3 88 88 87.8 87.1 85.8 82.3 82.1 84.3 84.2 85.5 88.3 89.9 89.5 89.6 91.6 92.4 91.3 89.6 93.7 96.7 98.2 99.1 100.5 102 103.2 105.6 108.2 110.8 112.6 113 113.1 113.7 113.9 115.4 118.8 120.4 122.3 124.2 125.8 126.6 129.1 134 139.6 146.7 152.2 157.7 159.2 160.8 160.7 160 158 155.4 154.1 150.8 147.6 145.9 145.1 142.6 144.1 144.7 147.7 143.3 143.3 143.8 147 142.8 143.8 142.5 138 139 157.6 141.6 140.8 143.9 143.6 145.3 148.7 146.5 147.2 146.6 147 148.5 151.2 153.8 157.3 160.5 160.2 158.2 154.1 155.6 155 158.2 163.9 168.3 172 176.7 180.7 187.5 195 204.5 210.8 216.1 221.8 217.1 212.3 202.3 194.3 189.2 182.1 178.4 177 187.4 196.2 192.4 191.2 196 196.4 187.4 197.3 197.8 202.3 207.7 211.4 213.8 214 215.1 213.9 211.6 209.6 206.9 203.7 201.2 198.8 198.2 197.3 194 186.2 183.4 183 180.7 182.4 187.3 189.8 192.6 192.7 189.3 187.7 186.5 186.5 186.6 185 183.5 183.5 180.1 170.5 182.3 189.9 193.7 192.5 189.5 187.4 186.7 189.7 191.2 190 187.8 178.6
82.6 84.1 84.7 84.6 82.2 85.3 85.1 84.4 84.3 84.7 84.8 84.8 85.2 85.5 85.1 86.5 86 86 89 90.6 90.6 88.7 89.1 90.5 86.6 87.2 93.2 87.9 86.2 87.7 88.7 89.4 89.4 87.6 86.7 86.7 87.1 85 83.3 86.7 86.8 85.5 85.5 88.3 89.6 89.5 90.1 92.4 93 92.7 92.6 93.1 96 97.1 98 99.7 102 104.4 106.6 109.7 112.1 113.7 114.9 116.5 116.8 116.1 117.7 120.7 122.3 125.2 127 127.5 129.2 131.4 134.6 139.1 145.3 150.5 154.7 157.2 159.7 160.6 160.6 160 157.7 155.7 152 148.6 147.2 146.9 143.4 143.7 144.4 142.3 148.2 146 150.5 147.5 149.5 145.3 148.2 149.5 151.5 158 145.1 153.4 149.7 150.6 151.5 154.9 156.3 154.4 155.7 154.4 155.8 157.7 158.3 160.2 162 162.2 162.1 161.8 159.4 157.6 156.4 159.3 165.6 170.4 175.3 177.9 183.9 190 197.5 203.4 208.6 213 202.4 195.2 186.6 182.5 178.8 177.5 177.8 189.6 200.6 203.5 203.5 202.8 202.2 199.6 193.3 199.6 204.9 205.5 209.6 213.6 216.8 218.6 219.4 218.8 217.5 215.8 214.3 212 207.9 205.4 204 202.8 199 194 189.9 188.3 187.8 183.4 190.8 194.8 197.9 199.9 198.3 194.5 189.5 189 190.2 189.2 189.3 188.3 187.3 173.5 184.7 193.8 196.6 196.7 195.2 196.2 198 206.9 212.6 208.3 194.9 191.2
84.2 85.3 85.5 86.1 85.6 86.4 86.9 85.9 86.2 84.8 84.6 84.8 85.1 85.4 86 86.6 86.5 87.2 87.8 90.4 87 85.3 85.3 87.8 87.7 87.7 87.7 87.9 87.6 87.7 89.3 88.5 88.3 86.4 85.3 85.2 82 84.4 85 87 87.3 86 83.1 87.9 89.6 89.6 91.6 92.4 93.2 94.2 94.8 95.5 96.2 97.5 99.3 101.2 102.8 104.4 107.3 110.4 112 114.3 116 116.8 119.9 119 119 120.7 122.2 125.1 130.4 130.4 132.6 133.8 136 141.1 145.6 149.1 152.8 155.4 157.9 159.8 160.3 159.8 157.9 156.5 152.2 148.2 146.8 146.6 143.3 143.7 144.2 144.4 143.6 145.5 150.1 150.8 152.2 150.8 150.9 153.7 155 158.6 152.9 154.6 157.6 157.7 157.6 159.9 162.6 162.1 159.8 159.6 162.6 163 164.1 163.1 165.7 166.5 167.5 167.1 166.3 161.7 161.2 157.7 163.3 167.6 171.7 175.4 180.9 187.8 194.5 198.6 205 196.4 184.9 183.2 176.5 176.6 176.7 184.1 193.4 199.2 205.3 206.8 208.8 207.7 206.1 202.4 195.8 203.5 207.9 211.2 212.7 214.9 219.1 221.9 223.2 222.3 221.3 220.3 218.2 216.3 213.4 211.5 209.1 208.1 205.9 200.8 192.8 193.3 192.7 189.1 194.6 199 203.1 206.7 205.3 201 197.2 195.7 194.2 193.5 193.3 192.9 190 175 189.9 197.2 200.2 201.1 203.1 205.4 215.5 229.8 231.3 225.1 216.3 202.4
85.1 85.8 86.7 87.1 86.7 86.6 87 87.7 85.9 85 94.5 96.5 89.7 88.3 87.5 84.7 83 82.5 83.9 86.4 88.5 88.4 88.3 87.9 87.7 87.5 87.9 87.9 87.6 87.3 87.5 87.7 87.2 85.4 84.1 84.7 85.6 84.5 85.9 88 87.9 87 85.1 87.9 89.9 89.5 91.7 92.4 93.1 94.3 95.3 95.9 96.6 98 100.1 101.6 103.4 104.6 107.3 109.8 113.4 116.5 116 116.9 120.8 121.2 120.3 119.9 121.7 124.5 131 133.4 134.7 135.8 135.6 140.7 145.4 149.5 152.1 154.2 156.4 158.1 158.4 157.9 157.1 155.4 152.2 148 146.8 146.3 142.6 147.3 146.3 147 149.3 148.2 151.1 150.7 151.1 151.9 152.7 154.8 157 157.6 157.7 154.8 157.1 161 162 163.5 165.4 166.6 164.6 167.7 169 169.6 168.9 168.4 167.3 170.6 171 170.9 170.3 168.2 161.8 160.4 159.8 164 169.6 172.7 176.6 183.8 189.5 195.1 193.3 184.2 181.2 174.6 177.2 179.3 193.6 200.5 202.4 204.5 209.2 211.9 212.8 212.8 209.2 206.1 199.8 205 209.8 213.4 215.9 218.8 220.3 224.5 226.6 226.2 225.2 223.2 221.6 220.4 219 217 214.6 213.2 211.3 205.7 201.6 199.6 198 188.6 199.2 202.9 207 211.6 212.2 208.2 205 203.3 201.8 199.6 198.5 197.2 187.8 186.6 191.2 198.7 203.5 209.2 219.7 226.2 231.3 236.7 232.3 226.2 208.2 205
85.4 86.1 84.4 88.1 88.2 87.7 87.8 88.4 88.6 88.1 98.2 96.2 91.1 88.5 90.2 91.1 90 89.7 88.4 88.6 88.5 88.4 88.3 88.1 88.1 88.2 88.2 87.7 87.1 86.7 86.5 86.5 86.3 85.2 85.7 86.6 86.4 85.8 87.3 87.7 87.6 86.8 86.1 87.5 90 89.5 92 93 93.6 94.5 96 96.9 97.6 98.9 99.9 101.4 103.5 104.6 105.8 108 111.2 113.1 113.9 114.3 115.8 115.3 116.6 119.7 122.7 123.8 129.4 133.1 135.4 136.5 137.5 141.2 144.4 147.6 149.4 152.3 154.3 155.7 156.1 155.5 153.8 152.1 150 147.4 145.4 145.4 142 147.3 147 146.7 149.4 151.8 152.4 152 151.4 153.2 154.3 156.8 158.2 159.4 159.5 157.5 150.8 160.1 163.8 165.3 167.2 169.8 172.2 171.6 172.7 173.6 174.1 174.4 170.6 174.5 174.7 173.6 173 168.7 168.9 161.3 161.2 167.4 166.2 170.1 173.7 177.3 181.5 185 179.6 174.2 175.6 175.7 183 187.7 194.9 202.2 205.3 207.5 212.1 213.8 215.3 214.7 211.7 210.9 206.3 207.8 212 215.2 219.1 223.5 225.5 226.4 230 229.9 228.9 227.6 226.3 224.5 222.6 221.7 221.1 219.2 217 212 211.2 206.8 204.5 194.7 203.2 206.1 209.8 215 217.7 214.9 214.1 213.2 210.5 207.4 206.2 201.6 199.1 188.7 194.9 202.7 211.1 225 237.9 244.4 237.4 232.3 226.5 220.9 201 191.2
84.2 84.4 84.1 88.2 88.5 85.2 87.7 88.7 88.7 94.9 94.6 93.9 97.6 96.3 87.6 88.7 89 88.6 89.9 89.6 89.5 88.5 88.4 88.2 88.2 88.2 87.4 86.9 86.5 86.1 86 85.9 85.9 85.2 86.2 86.5 86.6 86.5 87.2 87.7 87.1 87.4 87 88.7 89.9 89.5 92.3 93.8 94.4 95.1 96.7 97.9 98.6 99.8 100.7 102.5 104.3 104.7 105.7 106.6 108.8 109.6 110.6 110.5 111.2 112.3 114.4 119.2 122 124.9 129.4 134.4 136.4 136.8 137.1 139.6 141.8 144.2 146.8 149.2 151.4 153.2 153.7 151.8 149.9 148.6 146.6 146.1 143.9 144 142.2 148.2 148.2 147.5 148.1 150.4 151.8 153.2 153 154.6 157 158 159.1 160.5 161.5 162.2 157.5 156.6 165.6 167.2 168.5 170.9 174 176.7 175.9 176.4 178 177.4 173.6 177.6 177.4 177.1 175.6 174.8 174.1 170.4 167.1 161.2 163.2 165.5 168.1 173.3 175.2 174.1 174 173.8 176.8 179.8 183.8 188 196.1 202.5 206.2 210.2 213.2 216.1 216.8 215.4 213.8 212.8 208.1 206.2 212.1 215.9 221.1 226.2 229.2 230.2 231.2 233.7 233.9 233.1 230.3 228.9 226.9 226.9 225.6 225.2 224.7 223.4 219.2 215.8 212.9 201.6 208.4 211.4 214.6 219.7 221.9 221.8 221.2 220.9 220.8 218 214.7 206.8 205.9 197.2 199.8 207.5 219.8 234.7 246.5 248.8 240.3 231.4 224.6 216.8 208.4 202.4
87.6 85.5 87.8 89 94.3 97.6 96.4 90.6 87.4 88.8 94.3 93.6 95.2 88.1 89.1 89.7 90 91 91.6 91.3 92.3 91.1 89.7 89.1 88.5 88.1 88.2 86.8 86.5 86.5 86.4 83.5 85.6 85.6 86.4 86.9 86.6 86.5 87.2 87.4 88.3 88 87.8 88.4 90.1 89.6 92.6 94 94.9 96.3 97.7 98.4 100 100.7 101.9 103.7 104.8 104.9 106 106.6 109.3 109.7 108.2 110.1 115.1 116.3 117.8 121.3 122.3 123.5 126 130 133.4 133.8 137.2 138.4 140.2 142.5 144.8 146.5 148.5 149.7 150.4 148.1 145.2 144.3 145.1 144.2 142.2 143.2 142.4 148.4 148.9 147.1 147.5 147.9 150.2 153.2 155.2 156.5 156.8 158.4 163.7 162.5 163.2 164.2 165.2 156.5 162.3 168 169.6 171.5 173.8 177.7 181.3 181.6 181.5 180.3 178.4 179.1 179.9 179.8 176.3 178.3 176.9 173.7 169 167.2 162.5 164 167 168.8 173 174 174 176.2 178.7 182.4 185.6 189.4 196 202.9 206.9 210.5 214.6 216.7 216.7 215.5 214.9 212.1 211.2 210.7 208.6 215.5 220 226.3 231.2 232.9 234.8 235.6 237.8 238.5 236.7 233.8 232.6 232.5 231.6 230.7 230.5 229.9 226.8 223 219.2 212.2 214.2 216.8 219.8 224.4 226.4 227.3 227.1 226.5 226.7 225.2 214.2 215.9 211.6 204.8 205.1 215.6 230.9 242.4 247.4 247.7 241.5 232.3 225.9 216.7 207.9 199.7
85.4 87.4 88.2 93.2 99.8 104.1 104.5 96.6 99.2 93.6 89.9 87.6 89.1 90.9 89.8 91.3 91.4 90.5 90.7 90.4 90.8 91.7 91.2 90.4 90.1 89.6 88.4 87.3 86.9 86.8 86.4 85.8 86.7 86.5 87.2 87.6 87.6 87.8 87.3 87.3 88.5 88.5 88.4 89.1 89.9 89.5 93.1 94 95.1 97 98.5 99.7 100.5 101.3 102.4 103.9 105.1 106.3 106.3 108.6 109.2 111.9 112.8 116.1 118.9 118.5 117.8 121.8 122.7 124.1 128.8 133.5 134.8 136.1 138.5 139.1 140.5 141.8 142.7 144.3 146.4 147.4 146.4 145.2 142.3 142 143.1 141.3 142.4 143.9 144.6 149.6 149.8 148.3 147.9 148.4 149.4 153 155.9 157.4 157.6 160.6 162.4 163.1 165 166.1 167.2 167 158.4 167.5 170.1 171.5 173.7 176.9 181.2 184 183.2 182.4 181.5 182.1 182 182.3 181.1 180.8 179.2 176.4 171.9 169.8 165.3 166.3 167.4 169 171.5 174 174.5 178.2 181.3 183.9 186.6 189.9 196.6 203.1 208.2 211.6 214 215.8 216.4 216.5 216.7 216 215.7 215.1 215.5 213.5 217.6 223.8 231.1 235.8 238.3 238.5 239.9 242.5 243.1 242.6 240.2 238.6 237.6 237.1 235.7 236.7 233.3 228.7 225 217.8 220.8 222.8 225.8 229.1 231.2 232.2 231.6 230.4 230 228 220.8 222.2 216.9 209.7 207.9 222.2 235.8 244.3 247.3 245.5 240.3 233.8 227.7 218.4 209.2 201
88.2 88.2 87.9 88.8 92.1 99.5 95.2 101.2 94.6 92 91 89.9 93.2 87.9 90.9 91 90.5 88.9 90 90.1 90.5 90.3 90.7 91.3 91 89.3 88.8 87.6 86.6 86.3 85.9 86.5 87.3 87.2 87.4 87.6 87.8 87.6 87.1 87.7 88.3 88.4 88.6 89.2 89.6 89.5 92.5 93.6 95.5 97.1 98.8 100.2 100.3 100.4 101.7 103.4 105.2 107.4 108.8 109.7 110 110.3 111.8 114.4 118.5 118.2 119 121.2 122.5 124.3 128.7 135 137 136.6 139.9 141.1 141.2 142 141.3 141.6 144.2 144.9 145.5 145.2 142.3 139.1 142.2 141.6 143.7 145.7 147 147.7 149.4 149.5 149.3 149.5 149.9 150.8 154.3 156.1 159.4 161.5 162.8 163.8 165.7 168 169.3 169.7 168.4 160.1 165.5 171 173.3 176.2 180.5 183.4 184.5 184.9 184.8 185.1 184.8 183.9 182.6 183 181.8 180.2 175.9 171.7 169.1 171.4 169.6 168.4 171.3 174.1 177.6 179.4 182.4 185.6 188.5 191.5 196.8 203.4 208.1 211.9 214.1 214.5 216.2 217.9 220.9 221.7 221.5 220.2 219.4 219 219.1 224.1 231.3 237.6 241.4 242.2 242.3 244.4 248.5 250.1 247.4 246.2 245.3 245.2 244.3 243.2 240.7 236.3 231.3 219.6 227.6 229 230.7 233.7 236.3 236.7 235.6 234.3 233.1 228.5 226.2 226.3 221 215.6 213.9 225.8 236.9 244.9 247.2 244.5 240.4 234.8 229.6 221.1 210.7 203.6
88.8 89 89.1 89.4 89.9 94 100.8 94.5 93 93 93.6 91 90.6 90.3 89.7 90.2 89.7 89.6 90 90.2 90.4 90.5 91 91.1 89.6 88.6 88.4 87.7 86.4 86.3 87.2 87 87.6 87.4 87.7 87.3 87.8 87.2 87.1 88.7 88.8 89 88.9 89.4 89.6 89.6 92.1 92.9 94 96.1 98.1 100.2 100.4 100.7 100.5 105 107 108 109.9 111.2 112.3 112.9 113.4 111.8 117.4 117.6 119.4 120.7 122.3 124.4 126.8 133.2 136.9 137 140.3 140.7 140.5 140.6 139.5 139.2 139.6 143 143.8 141.9 138.9 141.2 141.5 142.1 145.2 146.5 147.1 150.8 149.1 149.8 152.6 152.1 150.5 150.9 154.7 158.9 159.6 161.7 163.3 164.7 166.6 169 170.5 171.2 171.9 170.9 161.5 166.2 172.9 174.8 179.3 182.4 185 186.3 186.9 188.1 187.8 186.6 185.4 186.1 186.1 182.1 175.7 173.5 167.3 173 172.5 172.3 172.9 172 175.8 179.4 182.6 186.7 189.5 193.2 197.2 202.3 206.8 211.3 214 215 216.1 218.6 222.3 225.3 226.8 226.5 224.3 223.3 222.7 223.2 228.4 235.6 241.5 245.4 245.4 246.9 249.6 254.7 255.3 254.7 253 253.8 252.8 249.8 246 244.8 236.1 228.7 234.6 234.9 235.6 238.6 240.6 240.7 239.4 237.7 234.5 230 231.4 229.5 225.4 221.7 216.9 228.2 237.6 245.4 247.8 246.6 243.7 238.7 233.3 225.3 219.8 212.9
88 87 90.2 90.6 93.1 99.6 95.6 93.3 93.5 94.2 94.6 90.7 90.1 89.8 89.8 89.5 88.8 90.6 90.9 90.1 91.2 91 90 89.7 88.3 87.7 87.7 87.3 86.3 87.7 88.3 88.5 87.3 87.9 88.4 87.7 87.7 87.1 87.7 89.1 89.1 89.5 90 89.6 89.5 91.9 92.4 92.7 93.7 95 97.3 99.6 100.4 100.4 102.4 105.7 107.6 108.8 110.1 111.8 114 115.7 113.5 112 113.4 115.6 118.3 119.4 123.6 123.4 125.2 130.7 134.9 136.8 138.1 139.2 140.4 138.7 137.4 137.9 138.1 140.4 139.7 139.9 140.7 141.3 141.8 144.5 144.7 145.7 148.3 149.4 149.1 150.5 153.6 153.8 153.9 154.4 157.6 158.5 158.5 161.3 163 164.6 166.9 169.3 171.5 172.7 173.6 174.3 172.7 162.2 173.5 175.9 178.8 181.9 185.7 188.9 191.3 190.5 189 188.7 188.6 189.7 189.5 183.4 177 175.3 168.5 175.2 174.3 173.3 174.4 174.6 173.4 177.4 183.1 186.9 189.9 193.4 197.7 203.2 207.2 210.2 213.3 215.7 217.1 218.9 222.7 226.8 229.2 229.9 222.5 228.4 226.8 225 228.7 233.6 239.5 244.8 247.7 249.5 252 254.6 259.3 260.3 261.6 261.6 261.1 258.1 251.3 246.6 236 238.7 240.3 240.6 242.4 243.9 245.4 244.4 242.5 239.1 233.9 237.5 236 232.8 229.9 226.1 222 229 237.4 245.8 251.5 252.4 250 247.1 242.5 236.7 231.2 222.9
88.5 89.2 92.9 91.6 98.5 94.5 93.2 93.7 94.1 94.6 93 90.4 90.4 89.8 89.8 89.8 88.6 89.2 91.2 89.9 87.3 88.4 89 88.6 87.3 86.9 86.6 87.2 86.3 87.2 88.2 88.1 87.4 88.1 88.4 89 88.3 88.6 88.5 89.4 89.4 89.7 90.2 91.5 91.7 91.3 92.6 92.9 93.8 95.4 97.3 99.2 100.5 102.3 104.6 105.8 107 109 110.6 111.3 114.4 117.6 117.2 115.3 115.2 116.4 117.9 120.9 123.2 122.5 124.5 128 132.8 135.4 136.6 136.9 138.3 136.1 133.1 134.5 137.2 140.2 140 139.4 140.8 143 145.2 145.4 145.5 145.9 146.6 147.8 149.4 150.4 154 155.6 156.1 157.6 159.1 159 159.9 160.7 162.4 164.5 167.3 170.1 172.6 174.1 175.3 175.8 175.7 167.8 173.9 176.5 178.6 181.9 185.6 189.1 192.3 193.7 192.2 191.2 191.6 193.3 192.3 182.6 181.1 178.7 171.4 179.7 179.1 177.5 176.3 177.2 177.6 174.9 177 186.5 189.8 192.4 196.2 201.8 205.3 208.8 212 216.8 219 220.3 222.6 227 230 232.9 234.9 235 231.6 229.1 227.8 233.4 237.1 241.2 245.3 249.3 253.1 255.9 258.8 264 268.7 269.1 267.9 261.7 253.8 245.2 243.9 245.6 246.4 248 248.7 250.2 250.1 248 245.4 238.6 242.4 241.6 239.8 236.9 233.7 232 229.9 232.9 239 247.4 254.5 260.5 258.4 254.5 250.5 245.6 239.2 232.6
87.7 90.2 90.8 95.4 92.9 93 93.6 94.1 94.6 94.8 93.8 92.1 92.2 90.9 90.3 89.8 87.5 87.5 88.3 89.1 88.4 88.5 88.2 88.2 87.2 86.7 86.8 87.2 85.8 87.3 87.6 87.4 87.6 88.3 88.6 88.7 89.1 89 89.2 89.5 89.9 90.2 90.5 92.2 92.2 91.9 93 94.1 95.5 96.8 98.1 99.1 102.6 104.2 104.4 105.9 107.9 109.3 110.7 112.6 114.6 117.4 119.5 119.4 120.2 118 118.9 121.9 123.9 125.6 125.5 128.7 134.4 135.9 135.9 135.1 133.5 130.6 137.6 140 142 140 140.6 140.6 142.7 145.5 145.7 145.8 145.8 145.5 147.3 148.1 149 150.3 153.1 157.6 157.6 159.1 158.5 159.7 161.5 161.7 162.5 165 168 170.8 173.6 175.3 176.5 177.1 177 169.8 172.8 174.8 178.5 181.6 185.4 189.8 193.3 196.2 195.3 194.6 195.1 197.1 195.2 184.7 186.2 181 175.8 183.3 186.8 182.1 180.2 179.1 178.9 177.5 178.5 179.9 185.6 192.6 197 200.8 205.5 210.3 214.3 218 221.2 222.7 225.4 228.9 230.8 233.1 236.3 239 237.5 233.5 232 234.1 237.9 241.8 244.9 248.4 253.7 257.5 260.6 263.3 269.9 274.5 272.6 262.7 255 250.4 250.1 250.5 254.5 255 255.6 255.2 254.1 251.7 249.1 246 247.3 246.4 245.1 242.2 238.5 237.3 235.7 236 242 248.6 258.3 263.8 268.7 268.8 263 251.6 245.1 238.1
89.9 90.4 91.5 91 93 93.6 94.1 94.6 94.8 95 93.8 92.7 92.9 93.4 93.1 91.6 87.4 87.6 87.5 88.4 88.6 87.9 87 87.1 87.2 86.9 86.9 87.4 86.8 86.6 87.2 87.2 87.6 88.5 89.1 89.2 89.3 89.3 89.5 89.7 90.3 90.7 90.5 91.2 92.3 92.6 93.3 94.6 95.9 97.4 98.7 99.5 103.2 105.3 105.5 106.6 108.3 109.8 110.9 112.6 115.8 117.5 120.1 121.1 122 120.9 121.3 121.9 123.5 126.4 129.5 132.7 135.4 136.8 135.5 131.7 136.2 140 141.4 141.2 142.7 142.9 143 142.9 144.5 145.4 144.1 144.5 145.1 144.2 147.5 148.5 149.7 151 153.4 157.6 159.3 160.1 161.1 159.6 162.1 163.1 163.3 165.4 167.9 171.1 174.1 176 177 178 177.4 171 166.4 176.6 179.1 181.7 185.5 189.8 194.9 199.3 199.1 198.6 199.5 200 196.7 188.3 188.7 179.8 180.1 187.9 192.8 194 191.9 184.4 180.5 180.7 181.3 180.4 188.3 191.6 194.8 200.7 204.5 209.2 212.9 216.7 221.2 224.9 227.6 230 231.5 233.2 235.8 239.5 242.6 238.2 236.1 234.7 239.2 242.6 245.7 248.8 253.1 258.6 261.9 264.5 267.4 270.7 269.3 262.4 254.1 257.4 258.6 260.2 263.2 262.7 262.1 260.3 258.2 255.2 250.8 252.2 252.5 252.4 248.6 248.1 246.5 244.1 242.5 242.2 242.2 250.9 262.2 273.2 278.7 280 274.3 260.6 247.8 240.7
89.5 92.5 93.1 92.9 93.2 93.8 94.2 94.6 95 95.4 95.2 95.7 96.1 96 95 92.7 91.6 88.1 87.4 88.4 88.7 87.8 87 86.6 87 87.1 87 87.4 86.8 85.8 87.4 87.8 87.4 88.3 88.7 89.1 89.5 89.6 89.6 89.7 90.3 90.6 90.8 91.3 91.8 92.8 93.6 94.7 96.1 97.9 99.6 101.9 104.8 106 106.6 107.8 109.2 110.2 111.3 113.2 115.3 117.6 121 122 123 123.4 123.5 123.3 123.7 125.7 130 133.7 134.3 135.5 132.5 130.3 137.9 139.9 141.3 142.4 143 145.8 147.2 144.9 146 143.3 143.4 143.6 144.7 142.9 148 149.5 150.5 151.5 154.8 158.7 159.7 161.3 162.7 163.6 162.6 163.4 165.2 167.9 170.5 173.5 174.5 176.1 177.5 178.4 178.6 178.7 172 173.4 178.9 181.9 185.2 190.8 197.5 202.6 203.6 203.5 203.3 202.2 196 190.8 189.3 176.2 185.2 191.4 197.6 203.5 201.9 197.4 185.2 184 190.2 185.3 189.2 194.4 199.8 197.6 204.4 206.6 210.7 215.2 220.8 225.2 228.6 229.9 231 232.7 234.9 238.7 243.7 243.5 240 238.8 238 242.9 245.8 249.6 253 257.9 263.5 265.7 268 269.4 268.8 264.5 261.3 265 270.3 273.2 272.1 270.9 268.8 266.3 262.4 259.1 253.7 256.7 257.9 257.8 256.2 254.9 253.1 252 250.1 248.8 249.6 254.6 265.9 278.8 283.2 283.1 275.3 265.6 249.2 240.3
92.1 92.5 93.7 93.8 93.5 93.8 94.1 94.6 95.4 95.9 95.8 95 95.3 97.4 96.8 94.3 93.6 91.9 90.2 89.2 89.3 88.4 87.4 86.4 87.5 87.2 87.2 87.5 87.6 86.9 87.5 87.2 87.7 88.2 89.1 88.7 88.7 88.7 89.6 90.1 90.4 90.8 91.3 91.6 92.1 93.2 93.8 95.4 96.8 98.3 100.3 102.3 104.3 106 107.5 108.9 109.9 110.7 111.6 113.5 115.7 118.8 122 122.4 123.5 134.5 123.7 123.6 123.7 125.5 128.3 129.1 130.6 131.4 128.4 131.6 136.1 138 139.8 143 142.7 145.4 146 145 144.2 142.9 143.9 144.4 145 143.7 148.4 150.3 150.6 151.8 157.7 158.8 160.2 162.2 164.1 165.5 165.5 164.9 166.1 168.7 172 174.7 176.9 176.7 177.9 179 179.4 179.7 177.8 177.1 180 182.2 185.5 190.4 197.9 204.9 207.7 207.3 206.6 203.2 192.5 192.7 190.7 178.4 181.7 193.5 202.3 208.6 209.6 208.3 202.2 198.6 196 191.1 194.6 197.7 201 202.9 204.5 207.8 210.5 215.3 221 225.9 229 230.4 231.3 232.7 234.2 237 242.6 246.7 243.8 241.9 240.8 242.8 246 250 253.5 257.7 263.6 268.9 272.7 272.6 272.2 270.9 270.3 273.7 278 279.7 279.7 278.6 276.2 272.1 267.8 263.7 259.2 259.2 263.6 261.5 261.5 260.8 259.8 261.2 260.4 258 257.5 262.2 272.3 282.5 285.9 283.5 277 267.3 254.7 245.8
89.4 92.3 93.5 93.5 93.8 94.1 94 94.1 94.6 94.6 95.8 95.9 95.6 96.8 97.5 97.2 96.5 95.3 93.9 92.6 91.7 90.2 88.4 89.1 87.8 87.7 87.7 87.6 87.1 86.8 87.6 88 88.1 89 89.6 89.3 89.3 89 89.6 90.4 91.2 91.4 91.9 92 92.4 93.1 93 94.9 96.4 98 100.8 102.9 104.4 106 107.4 108.9 110.3 111.2 111.8 113.5 115.5 118.4 121.4 125.6 130.1 135.1 122.6 120.1 124.4 124.3 124.4 123.7 121.5 121.6 130.7 133.1 135.8 138.4 141.4 143.4 143.2 141.5 143.5 152.3 143 143.7 144.7 145.2 144.9 145.9 147.8 149.7 151.4 153.1 157.6 159.8 161.9 163.5 165.2 166.3 167.1 167.3 167.9 169.6 172.5 175.2 177.4 178.7 178.8 179.9 180.5 180.5 178.5 175.7 181.3 183.2 185.5 190.1 197.8 206.1 210.8 210.5 209.4 202.6 194.7 193.4 188 179.1 186.2 194.2 204.8 211.2 215.3 215 211.7 205.6 203.3 203.3 203.7 201.6 202.7 204.1 204.7 206.6 209.3 215.5 222.4 227.3 231 232.1 232.1 232.1 233.5 235.8 239.8 247 248.1 244.6 243.6 243.8 247.1 250.6 254.9 259.2 262.1 267 271.7 277.2 279.7 278.2 279.7 280.6 286.3 288 288.7 287.1 284.3 279.3 274.2 269.2 265.1 263.2 268.8 266.7 266.2 266.1 267.5 269.7 271 269.7 267.9 271.5 278.4 286.1 286.7 284.6 280.6 274.3 262.7 251.3
89.5 92.9 93.6 93.6 93.7 94.2 94.3 94.8 95.2 95 96.1 96.1 96 96.7 97.4 97.3 97 95.8 93.8 93 91.6 91.4 89.7 88.2 92.1 89 87.6 87.2 85.9 87.9 88.3 88.4 89 89.5 89.6 89.8 90.2 90.1 90.8 90.8 91.7 91.9 92.4 92.6 92.9 93.9 94.4 95.2 96.5 98.1 100.6 102.4 103.4 104.9 106.2 108.8 110.2 111.3 112 113.2 114.7 117.8 121.2 124.9 128.5 123 121.8 119.2 118.4 122.2 116.7 124.5 128.7 131.3 132.5 134.4 135.2 137 140.9 144.2 144.1 143.4 141.9 147 142.4 142.2 142.5 144 145.3 146.6 149.4 151.1 153.6 153.8 158.3 158.4 163.6 165.5 165.7 166.5 167.3 168.3 168.6 169.7 172.5 175.3 176.9 177.7 180.1 180.8 181.5 182 180.6 180.2 178.5 183.6 186 190.3 197.2 206 213 213.7 211.9 201.4 195.8 195.4 186.5 183.8 192 197.3 206.6 212.8 219.3 219.4 215.7 209.8 203.3 203.3 203.3 204 203.9 204.1 203.3 203.3 206.2 211.3 216.8 223.7 230.3 232.2 231.5 230.1 231.4 233.9 237.5 242.9 249.9 247.8 246.5 246.3 248.4 252.1 256.2 259 262.1 265.8 271 277.9 281.9 284.8 284.9 282.1 290.4 292 294.7 295.4 292.4 288.2 281.7 275.8 273.5 268.8 274 273.5 271.9 272.9 274.8 280.9 281.6 279.7 276.9 279 285.1 288.5 288.6 288.4 285.7 279 270.2 260.8
92.8 92.8 93.2 93.5 93.6 95.1 94.9 95.2 95.5 96.1 96.8 95.3 94.9 95.1 96.1 96.8 96.5 95.6 94 92.5 91.1 90.6 88.4 88.5 88.1 87.5 87.5 86.9 87.6 88.5 88.3 88.5 89 89.4 89.9 90.4 90.8 91.1 91.8 92.1 92.1 91.7 92.8 93.3 93.8 94.7 94.4 95.4 96.6 98.3 99.5 101 102.3 103.8 105.1 107.2 109.5 110.2 111.1 112.7 114.6 118 121.3 124.3 126.6 126.8 119 113.6 113.6 116.1 117.9 124.5 127.9 131.4 133.1 134.8 138.4 141.2 143.6 144.4 143.8 141.6 141.4 141 141.6 143.5 145.7 147.3 146.3 146.9 150 152.7 154.8 156.9 158.8 161.9 162.3 166.2 166.8 166.7 167.7 168.9 167.7 168.9 171.9 175.2 177.1 179.9 181.3 182.5 182.5 183 183 181.3 183.5 183.3 186.5 190.5 197.1 206.3 213.9 215.5 212.4 199.8 196.5 195.8 182 189.8 197.2 201.8 207 215.2 218.9 222.8 219.2 214.4 206.8 203.3 203.3 203.3 203.3 203.3 203.3 203.3 203.5 203.4 218.8 223.9 223.9 224.1 225.4 225.2 227.9 231.8 235.2 239.9 246.1 249.1 248.9 248.7 249.7 253.4 256.8 259.8 263.1 266.5 271.6 276.3 283 290.2 291.1 291.2 291.5 298.3 300.3 301.7 299.6 297.4 291.3 285.2 281 278.4 280.4 278.9 278.3 279.8 282.1 288.5 288.7 286.5 284.2 285.8 288.9 290.2 290.1 286.5 282.3 279.6 274.8 267.5
97.2 93.4 93.2 94.2 95 95.6 95.6 95.8 95.5 96.7 96.3 95.1 94.2 94.5 96.3 96.5 96.1 95.3 94 92.6 90.7 89.1 88.4 88.1 87.5 87.2 86.7 86.7 88.1 88.6 88.6 88.6 89.2 89.7 90.2 90.6 90.8 92 92.2 92.5 92.6 92.7 93 93.9 94.7 95 95.1 95.2 96.7 97.4 98.8 100.1 101.8 103.9 105.4 108.4 109.5 110.1 111.1 111.8 114.8 117.9 119.9 123.6 124.9 121.7 112.3 112.3 124.8 126.5 124.7 124.3 121.5 129 131.2 136.4 141 143.2 144.3 144.7 142.2 142 140.7 141.3 141.8 145.1 146.2 147.2 147.7 147.9 150.8 154.1 155.8 158.4 160 163.8 167 166.8 166.2 166.5 167.1 167.4 167.3 169.4 172 174.6 177.7 180.4 182.4 184 184.3 184.4 184.5 178.9 182.2 184.6 187.1 191.6 197.1 205.7 213 214.8 211.2 198.8 197.4 193.7 185.4 197.8 200.6 203.5 208.5 218 225.2 226.6 223.2 219 211.4 204 203.3 203.3 203.3 203.3 205.9 208.3 210.6 211.1 223.9 223.9 223.9 223.9 223.9 223.9 223.4 227.6 232.9 237 242.8 246.8 249 250.1 252.1 254.1 257.4 261.2 264.7 267.9 272.8 277.1 282.2 288.6 293.9 294.9 296.3 297.6 303.4 305.9 307.8 305.8 301.9 294.6 289 284.9 284.4 285.2 285.7 287.1 289 294.1 295.3 292.2 289.2 288.7 290.2 289.9 287.6 282.3 276.9 274.8 273.1 269.3
94.7 93.7 94 95.2 95.7 95.7 95.4 95.4 95.5 96.2 95.8 95.2 94 94.3 95.5 95.5 95.5 94.2 92.6 91.2 90.3 88.4 88.8 86.8 86.9 88.7 86.8 87.1 87.9 88.5 88.9 89.3 89.5 89.4 90 90.6 90.9 92.2 92.5 91.6 92.7 92.7 93.3 93.8 94.3 95 95.5 96.3 96.8 97.6 98.4 99.8 100.9 102.7 104.7 107.1 109 110.2 111.3 110.8 111.3 113.5 117.9 118.3 120.6 115.7 111.3 114.3 122.2 124.5 125.8 128.1 130.8 127.3 130.8 135.3 139.6 142.3 140.8 139.5 141.8 141.4 142.2 142.5 142.5 144.1 144.4 145 146.3 148.9 153 155.1 156.4 157.6 161.3 165 168.9 170.2 169.1 167.3 167 168.3 167.9 170 172.9 175.5 177.9 180.8 183.4 185.1 185.3 185.6 185.5 183.4 183.3 186.2 188.5 192.3 197.7 205 210.4 213.3 210.6 198.9 196.3 185.3 188.2 200 202.5 205.5 211 219.8 227.4 230.5 227.4 223.1 217.6 209.4 203.3 204.4 203.3 210 210.8 210.6 213.5 219 223.9 223.9 223.9 223.9 223.9 223.9 223.9 223.9 228.9 234.1 239.2 244.1 247 250.3 252.8 255.9 258.9 262.6 267.5 271 274.3 278.4 283.1 289.3 295 297.9 299.3 302.2 304.7 308.2 312 313.9 310.3 303.8 296.6 292.9 291.4 290.3 290.8 292.7 294.3 297.2 299.7 295.4 289.4 285.4 284.9 284.2 281 277.1 270.7 267.3 265 263.5
92.5 93.7 94.5 94.8 95.3 95.2 95.4 95.6 95.7 97 96.2 95.6 94.3 94.4 94.6 94.5 94.8 93 91.8 89.6 89.3 88.6 88.8 87.2 86.4 86.9 87 87.3 87.8 88.2 88.8 89.5 89 89.1 90.2 91.4 90.8 92.3 92.5 92.7 92.8 92.8 93 93.3 94.1 95 95.7 96.9 98.1 97.5 98.2 99.9 101 101.8 102.9 104.3 105.7 105.4 105.6 108.7 109 112.4 112.7 112 110.1 112.7 116.5 117.8 121 124 127.1 130 134.3 134.1 134 133.4 133.5 134.8 135.2 136.6 138.6 141.2 142.5 143.1 143.4 143.4 143.6 144.6 145.1 148.3 152 154.4 156.8 159.1 162.3 166.3 171 173.3 172.4 171 170.7 171.5 170.4 172.7 176.1 177.4 180.1 182.1 184 186 186.5 186.8 187.2 183.7 184.3 187.5 189.8 193.3 198 203.9 208.6 212.1 209.3 198.7 189.9 189.7 198.2 202 205 207.4 214.5 223.2 231 232.6 231.1 228.2 219.1 211.9 203.3 210.3 211.8 213.7 215.2 215.2 216.2 218.8 223.9 223.9 223.9 223.9 223.9 223 223.9 223.9 223.9 232 236.3 241.7 245.4 249.2 252.9 256.2 260.6 265.7 269.3 272.1 275.3 278.9 284.5 289.7 296.4 303.1 304.7 306.5 309.1 312.1 316.3 322.2 319.9 312.1 304.1 299.5 297.4 294.5 290.5 290.7 291.1 292 293.4 289.8 283.8 276.3 273.9 272.1 268.7 264.6 261 256.7 254.3 250.4
93.9 93.9 94.7 94.8 94.7 95.7 96 95.8 95.7 95.8 97 96 94.5 94.4 93.6 92.2 92.7 91.5 90.2 89.1 88.6 88.7 89 88.4 87.1 87.1 87.1 87.4 87.8 88.9 89.5 88.7 89.4 89.9 90.9 91.8 91.9 92.7 92.8 93.2 93 93.1 93.4 93.6 94.3 95 96.7 96.6 98.8 99.6 99.4 98.7 99.6 101.1 102.4 103.3 103.2 103.5 104.9 106.3 108.1 109.7 111 115.6 118 118.7 118.6 119.5 121.5 124.3 127.9 132.9 136.2 137.6 138.4 138.7 140 139.2 137.2 137.3 138.3 139.1 140.1 141.7 143.3 143.9 145 146.5 144.1 148.5 151.7 154.3 157.6 160.7 163.8 168 173 175.8 175.9 174.5 173.6 171.1 174 176.2 177.8 179.4 182 183.6 186.3 187.9 187.9 188.4 189.1 183.7 188 188.6 191.1 194.6 200.1 204.8 208.9 211.8 209.1 198.4 189.4 197.6 199.9 203.5 207.6 211 218.1 226.6 233.2 235.9 234.1 231.4 224.6 215 203.3 213.6 215.7 215.8 219.5 219.5 220.3 225.2 223.8 226 223.9 224.1 228 230.2 231.2 228.2 226.6 222.6 234.4 239.3 244.3 248.7 252.7 256.7 262.1 266.6 271 273.4 276.2 279.5 283.6 288.8 294.8 302.4 312 316 317.7 317.4 320.6 329.7 327.7 319.5 309.7 304.8 301 295.2 289.6 283.9 281.4 279.9 281.6 279.7 271.8 267 264.3 262.2 259.2 257.3 252.3 247.4 244.6 241.2
93.4 93.5 94.5 95.1 95 95.6 96.5 96.2 95.9 95.8 95.7 93.8 94.6 92.8 92.7 91.5 91.2 90.2 89 88.2 89.4 89.4 89.5 88.9 87.1 87.1 87 87.8 89.2 89.4 89.3 89.5 89.2 90.1 91.2 91.8 92 92.9 93 92.3 93.1 93.2 93.8 94 94.7 95.3 95.9 96.1 98.7 100 101.7 101.8 100.8 102.1 99.8 101.5 104.8 105.5 107.9 109.1 110.4 112.2 113.4 115.2 117.4 118.9 119.3 121.1 123 124.7 128.7 134 136.5 138.7 140.2 141.9 141.5 140.1 138.9 138.3 138.6 139.2 139 140.3 143.3 144.7 144.8 146.7 144.5 150.7 155.2 158.6 159.9 162.8 165.8 169.2 173.8 178.7 180.9 177.6 175.7 172.6 174.3 177.3 179.8 182.1 183.3 186.9 189.5 189.7 191.4 190.7 189.8 185.6 188.6 190.5 192.5 197.3 203.5 208.1 210.9 211.9 208.8 198.6 189.8 198.1 202.5 206.2 210.1 215 222.4 230.5 237.3 240.6 237.1 232.8 224.9 218 208.1 213.9 221.1 218 223 224.3 225.3 228.3 232.6 229.9 228.6 229.8 232.7 238.5 239.6 234.1 232.1 229.2 229.3 232.3 242.4 247.9 253.3 256.9 261.7 265.9 269.6 272.5 275.9 279.6 284.8 290.4 296.3 300.6 307.7 318.6 324.8 326.5 326.9 336 336.1 328.5 318.2 307.6 302.5 295.4 289.1 282 275.7 271.8 270.6 268.6 263.4 259.7 256.6 253.4 250.1 249.3 245.7 241.2 237.3 234.8
93.5 93.5 93.3 95.7 95 94.9 96.5 95.5 95.5 96.5 94.6 92.6 93.1 92 91.4 91.4 90.1 88.6 87.3 87.2 88.6 88.8 88.8 87.6 87.2 87.2 87.2 89.1 88.8 89.6 90.1 89.8 90.4 90.3 90.8 91.2 91.6 92.4 93.1 93.1 93.4 93.4 93.8 94.4 95 95.9 97 98.7 99.3 99.9 101.6 102.8 103.4 104.3 105.4 106.1 107 107.5 107.6 109.5 110.5 110.7 112.5 114.5 116.7 118.4 120.4 122.4 124.4 125.9 128.5 132.1 135.1 138.2 140.3 142 141 140.2 139.7 139.6 139.8 139.7 139.4 139.6 141 143.6 143.5 146.3 145.2 157.9 157 157.6 161.3 164.4 167.7 171 174.7 180.7 185 182.5 178.4 172.7 176.4 177.3 179.4 181.4 185.7 189.3 192.1 192.4 193.4 193.7 193.2 187.5 190.6 191.7 194.6 200.1 206.9 211.5 213.3 211.9 208.6 201.8 194.8 199 204 208.3 213.2 218.4 225.9 235.3 242.7 246.2 241.9 235.3 228.6 221.9 214.3 220.7 223.2 225 227.4 228.2 230.2 231 233.8 232.8 232.4 233.4 234.7 240.6 247.2 243.1 236.8 237.7 233.7 234.8 240 245.3 251.8 255.3 259.4 262.7 267.9 272.3 277.2 280.7 284.1 290.4 295.9 300.6 307.7 318.2 331.7 332.5 334.7 341.9 343.6 335.6 326.8 315.3 303.9 296.4 289.2 281.3 273.7 268.1 264.3 260.9 257.2 253.5 250.4 247.7 244.4 242.3 240 236.7 233.7 230.7
93.7 93.2 92 93 93.9 94.5 95.9 95.7 95 95.8 95 93.8 91.5 91 91.1 90.9 89.5 88.4 87.2 87.5 88.8 89.3 88.3 87.5 87.4 87.3 87.5 87.6 88.8 89.7 90.3 90.7 90.8 90.6 91 91.6 92 92.1 92.8 93.3 93.4 93.5 93.9 94.8 95.3 95.9 97.1 99 100 100.8 101.7 102.7 104.6 106 107.3 107.3 108.1 108.4 108.1 109 109.6 110.6 112.3 114.1 115.7 117.9 119.9 122.1 124.1 126.2 128 130 132.8 136.4 138.8 139.8 137.9 138.9 140 140.8 141.4 141.6 141.6 142.4 142.8 141.9 146.2 148 148.8 154.9 157.6 161 162.9 165.7 169 172 176.4 181.7 187.2 188.9 179.4 173.1 178.3 178.3 180.2 183.7 186.5 190.5 194.2 195.2 196.8 196.8 195 189.4 191.8 192.9 196.1 202.9 210.3 213.2 212.4 210.9 207.7 203.5 194.3 199.2 205.5 210.3 215.3 220 230.2 238.4 248 251.8 247.3 238.3 230.9 224.3 216.7 224.7 227.6 228.7 231.4 232.3 233.8 234.6 236.3 236.2 237.5 239.9 240.7 241.8 247.9 251 243.2 241.3 241.8 232.7 240.7 246.8 245.2 252.6 258.2 263.6 269.7 273.3 277.4 282 285.7 290 296 303 309.2 318.4 333.8 336.4 340.2 346.9 350 344 333.4 321.2 307.1 297.9 290.1 282.5 275.2 268.3 262.9 257.9 250.2 246.6 239.6 237.6 239.4 237.6 235.3 232.8 230.1 228
93.2 92.2 91 93.1 92.7 91.9 95.4 96.1 95 95.2 95.4 95.1 94 91.5 91.3 90.1 89.3 87.7 87.9 87.4 88.3 87.8 87.6 87.3 87.4 87.7 87.5 88.6 90.3 89.6 91.1 90.9 91.3 91.3 91.2 92 92.5 92.8 92.6 93.2 93.3 93.6 94.5 95.2 95.7 96.5 97.9 98.6 99.5 100.7 101.7 102.1 103.8 106.6 107.3 108.4 108.5 108.5 107.9 108 108.9 110 111.4 113.5 116 117.3 120 122.2 123.3 125.7 127.5 129.3 132.3 135.2 136.2 134.6 136.2 137.7 139.9 141 141.7 142.6 143.6 144.4 144.9 145.5 146.1 148.7 151.3 155.4 157.6 161.6 163.9 166.6 169.6 172.8 176.6 181.8 188.4 191.8 181.4 176.8 179.3 179.9 182 187.3 190.9 193.7 198.2 198.4 198.7 199.5 198.9 194.4 194.2 195.2 197.7 207.6 211.6 212.9 211.3 210 207.2 204.9 194.6 204.7 207.6 212.9 217.7 225.7 235 242.8 251.7 256.5 251.6 241.8 233.3 226.6 217.5 228.7 232.3 234.2 234.8 236.7 238.4 239.7 240.9 241.4 238.1 246.3 246.6 245.4 248.6 253.4 251.7 245.4 244.4 234.6 247 248.5 252.5 253.2 258.4 263.6 267.4 274.2 278.2 283.1 288.6 292.9 298.5 304.7 310.8 320.6 336.3 342 343.3 349.9 355.4 349.6 340.5 327.7 311.9 302.5 293.1 283.7 276.1 270 264.1 258.3 255.5 248.5 247.8 242.3 235.2 230.8 225.1 225.7 225.5 218.9
92.1 91.1 91.7 92.5 90.2 91.8 94.8 95.7 95.2 94.9 95.4 95.5 94.1 91.8 91.4 89.8 88.5 87.5 87.8 87.7 88.1 86.6 87.3 87.6 87.9 88.3 87.9 88.7 88.9 91 91.1 91.4 91.5 91.6 91.5 92.1 92.7 92.9 92.9 93.6 93.8 94.2 94.9 95.8 96.2 97 98.3 100 101.6 101.1 102 102.6 103.3 105.2 106.9 107 106.9 106.4 106.9 107.7 108.4 109.5 110.5 113.3 114.9 117.2 118.5 120.9 123 125.6 129.9 133 134.1 133 135 134.9 136.2 137.4 139.6 141.1 142.3 143.8 144.8 145.2 145 146.6 147.9 149.8 152 154.5 157.6 162 165.3 168 170.5 173.7 177.3 182.6 188.7 194.7 184.1 177 179 180.8 184.3 189.3 194.2 198.5 202 202.8 202.9 200.6 200.2 196.5 196.4 199.3 204.1 205.8 208.8 210.3 211 212.1 209.1 206.1 197.8 207.5 209.5 214.7 219.6 229.5 238 247.1 255.7 260.5 254.4 244.1 235.5 229.4 227.2 233.1 236.1 238.5 239.6 240.4 242.5 245.9 245.7 246 247.9 248.2 250 250 252.2 255.1 254.5 250.3 247.4 240.5 246.5 251.6 252.2 256.6 260.3 265.6 271.1 275.8 278.2 283.9 290.2 295.5 300 306.8 313.1 322.9 338.9 346.8 347.3 352.6 359.5 354.3 345.7 334.9 319.9 306.9 296.4 287.1 276.9 271.2 264.2 260.7 258.2 255.6 250 244.3 240.3 236.5 232.7 226.9 217 217.5
91.7 91.5 92.7 92.5 92.7 91.8 93.8 94.6 94.4 94.3 94.6 94.5 92.9 90.7 89.5 89 88 87.8 87.2 87.6 88 87.3 88 88.2 88.5 88.4 88.7 89.4 89.4 90.2 90.8 91.4 92.4 92.8 93.1 93 92.7 92.7 93.4 93.8 94.3 94.8 95 96.1 96.6 97.9 99.2 101.1 102.8 103 103.9 104.8 103.5 104 104.6 105.3 106.2 107.3 108.2 108.2 107.8 108.6 111.4 113.2 114.9 116.1 117.9 121.7 123.1 125.5 129 132.1 134.7 134.9 135.4 136.9 138.1 138 138.4 140.2 142.2 144.6 145 146 146.5 146.3 148.4 150.5 152.1 154.7 157.6 161.7 165.6 168.5 172 175 177.6 182.5 188 190 184.3 176.1 178.7 182.6 186.3 190.5 196.1 201.3 205.1 206.2 205.9 203.9 201.4 199.7 199.5 204.2 209 212.9 214.7 217.9 215.3 216.3 209.7 205.3 198.6 208.5 211.6 216.5 222.4 232 242.5 251.8 259.9 262.6 255.7 246.5 238.5 229.5 234.5 237.7 240.9 242.7 243.7 243.7 246.5 251.4 251.6 251 252.2 252.7 251.3 253.2 255.3 256.8 255.7 251.6 249.4 241.9 245.5 249.5 253 260.1 261.5 265.6 273.8 279.6 282.9 286.2 291.2 297.1 302.3 308.7 315.7 325.7 343 352.1 352.4 356.1 364 358.5 351 340.9 328.3 315.3 303.8 291.3 282.6 275.1 270.3 267.4 265.6 260.3 254.2 246.5 241.7 237.6 232.5 222 227.6 225.9
92.3 92.2 92.5 91.9 92.4 92.7 92.6 93.3 93 93.5 92.9 92.3 90.8 90.1 89.3 88.4 88 87.4 87.5 87.7 87.9 88.2 88.7 88.9 89 88.4 89.7 90.2 90.2 90.6 91.5 92.4 92.9 93.1 93.3 93.3 93.4 93 93.4 93.7 94.2 94.8 95.4 96.3 96.8 97.8 99.1 101.4 103.1 104.7 105.5 106.3 106.2 106.1 106 106.7 107.7 108.9 109.4 109.4 108.7 108.7 110.3 113.1 114.8 115.6 118.4 120.9 122.8 125.6 128.4 131.1 133.1 133.5 135.3 136.8 138.6 139.2 139.8 141 142.9 145.5 145.7 146.5 147.8 149 150 146.5 152.7 158.3 158.6 161.9 165.1 168.1 170.9 174.2 177.8 183.2 186.7 186.1 184 175.9 178.3 183.4 187.7 191 196.7 202.3 206.4 207.7 207.2 205.4 204.3 206.9 204 207.1 213.6 217.9 224.4 223.1 220.9 220.6 211.6 209.2 201.3 208.8 214.6 220.1 226.1 235.6 244.5 254.8 263.9 262.6 255.2 249.1 239.7 229.5 240.3 243 246 247.8 248.1 247.3 252 257 258.5 256.4 256.9 255.9 254.8 256.4 259 259.2 256.9 253.6 250.8 248.3 242.5 253.1 253.8 257.3 263.6 265.3 273.4 282.4 286.6 288 293.6 299.1 303.4 310.3 317.6 328.8 345.9 357.2 356.8 359.6 366.5 362.8 355.7 347.1 335.3 323.1 310 299.4 288.7 281.4 275.3 270.5 266.9 262.3 254.7 247.6 242.8 237 232 232.2 232.3 230.2
93.7 93.6 93.4 92.7 93 92.4 90.3 91 91.9 91.3 91.3 89.8 89 89 88.3 87.8 88 87.8 87.8 88.3 88.4 88.4 88.7 89.3 89.1 88.1 90.1 91 91.4 92.1 91.6 92.9 93.1 93.1 93 93 93.5 93.3 93.6 93.9 94.5 95.1 95.9 96.5 96.7 97.5 98.8 100.9 102.5 104.3 106.4 107.2 107.3 107.5 107.6 108.2 108.6 109.4 109.8 109.9 109.5 109.8 111.1 114.1 115.4 116.4 118 119.9 122.8 125.3 127.6 129.5 129.6 130.3 133.6 136.1 138.6 139.1 141 143.7 144.7 147.6 146.4 146.3 147.5 148.9 151.3 146.4 153.4 157.6 158.8 162 165.4 168.5 171.1 173.4 177.7 182.2 183.1 182.2 180.9 174.8 178.3 183.1 188 193 197 202.9 206.6 208.5 208 206 205.3 207.5 208.4 210.9 215.8 222.2 228.5 228.9 227.8 222.1 212.4 211.7 207 212 217.5 223.5 229.2 239 248.6 256.3 263.9 261.8 254.4 248.4 240.2 239.6 244.4 247.6 250.3 252.3 252.6 253.9 256.4 263 265.2 262.9 262.4 260.8 260 259.7 263.5 264.3 261 255.5 254.1 252.4 245.2 255.2 256.4 260 260.5 266.7 274.6 282.5 289.8 292.1 295.1 301.7 307.3 311.2 318.9 331.7 345.8 361.9 360.9 364.2 370.3 368.1 360.6 352.1 342.2 331.2 320.2 305.7 296.2 286.4 279.1 272.7 265.4 259.4 253.1 248.9 242.4 239.8 237 231.6 237.1 236.4
93.3 93.8 93.9 93.8 92.7 91.8 91.8 90.5 90.1 89.7 89.2 89.4 88.4 87.6 87.5 87.3 87.5 88 88.3 88.3 88.3 88.4 88.6 88.9 88.8 89.7 90.7 91.1 91 91.9 91.4 92.3 92.7 92.8 92.3 92.6 93.4 93.5 94 94.3 94.9 95.8 96.4 96.6 96.9 97.2 98.4 100.4 102.2 104.1 105.9 106.7 107.5 107.9 108.7 108.9 108.8 109.2 109.9 109.9 109.9 111.1 112.8 113.7 114.6 116.7 119.7 121.1 122.6 123.4 124.7 126.9 129.9 131.9 133.5 136.4 139.2 140.4 141.7 145 146.8 147.7 147.8 146.8 147.3 148.8 151.1 152 154.1 158.4 160.3 162.7 165.7 169.2 171.4 173.2 176.2 178.7 179.5 179 177.7 172.1 177.8 182.5 187.9 196.7 199.5 202.9 205.6 208.6 208.7 206.3 206 207.5 211.1 214 218.4 228 233.5 232.9 230.7 223.5 213.8 213.4 204 213.5 219.2 224.5 231.6 241.3 252.7 258.6 261.2 257.9 252.9 247.2 236.7 247.2 249.8 252.6 256.6 258.3 258.7 261.3 263 266.4 269.9 270.2 269.5 267.9 266.2 267 267.4 270.1 265.9 258.6 257.4 255.4 248.2 256.9 259.8 264 267.2 267.5 275.7 281.5 289.6 295.6 299.3 303.7 308.9 314.7 321.9 333.6 346.6 367.3 366.7 368.1 373.5 372.9 366.1 356.9 347.3 339.1 328.4 316.1 305.3 293.9 284 275.8 266.4 260.2 255.2 248.5 247.4 244.8 241.3 240.9 242.7 242.1
92.2 93.7 93.8 93.8 92.2 90.5 91.3 89.6 89.4 88.1 88.2 88.4 88.1 86.8 87.3 87.3 87.3 87.6 87.8 88.2 88.4 88.6 88.9 89.6 89.2 90.1 90.8 90.9 90.9 90.6 91.5 91.6 92 92.5 92.3 92.4 93 93.5 94.5 94.8 95.6 96.2 96.6 96.8 97.2 97.5 98.3 100 102 104 105.5 105.9 106.8 107.8 108.1 108.2 108.5 110 111.2 111.1 111.4 111.7 113.4 115.8 116.9 118.1 120.7 121.8 123.3 125 126.4 127.8 130 131.9 134.3 137.4 139.2 140.7 142.9 145 147.1 148.4 148.6 147.4 146.8 148.4 149.6 152.5 154.4 157.4 160.1 162.9 166.1 169.4 171 173 176.8 177.9 177.8 176.2 174.6 174.3 178.8 182.4 187.3 195 198.7 200.7 205.6 208.8 209.6 206.7 207.5 209.6 212.6 216.1 223.1 232.2 236.3 235.2 233.2 223.3 214.9 212.6 206.2 216.9 222.3 227.4 235.6 245.2 253.8 259.3 259.6 255.7 251.7 245 245.3 251.5 254.5 258.7 262.9 264.8 265.5 267.7 268.6 270.6 272.9 274.1 274.4 274.2 273.3 272.5 271.1 275 272.6 265 261.1 259.3 249.2 257.9 263.9 265.9 269.4 271 276.9 282.2 290.5 297.8 302.7 306.9 311.7 317.2 325.8 334.8 348.7 365 371.9 372.6 379.1 378 371 362.2 352.6 343.4 334.8 323.6 311.7 300.4 290.1 280.5 271.4 263.5 258.8 255.7 254.7 248 248.2 245.5 247.8 247.9
93 93.3 93.5 93.3 90.8 90.2 90.2 89.2 88.4 87.3 87 86.7 86.5 86.1 86.6 87 87.3 87.8 88.2 88.5 88.7 88.9 89.4 89.7 89.1 90.5 90.6 90.6 90.7 90.7 91.6 91.2 92 92.6 92.4 92.2 92.8 93.5 94.3 95.3 95.6 95.9 96.7 96.9 97.4 97.9 98.8 99.5 101.4 103.6 105.2 105.8 106.3 107.3 106.7 107.8 108.8 109.5 112 112.3 113.2 113.9 114.1 116.8 119 119.2 119.6 122.7 124.6 126 127.7 129.4 130.5 132.1 133.8 137 138.7 139.2 142.2 145.7 147.7 150.5 150.2 149.2 148.4 148.6 147.9 151.8 154.2 157.1 158.5 162.4 165.3 168.4 170 172.7 175.3 176.4 175.5 172.8 167.2 174.6 178.6 182.5 186.8 196.2 198.6 199.2 203.3 206.8 208.2 207.8 210.3 213.2 215.6 219 226.9 236 238.2 237.3 234.8 227.3 216.2 214.2 207.3 216.2 222.5 228 238.2 247.6 256.8 261 259.8 256.3 251.3 247.1 251 251.6 257.4 263.4 266.4 267.2 268.7 270.2 271.3 274.1 276 278 279.3 281.5 282 281.1 279.2 280.8 278.4 270.2 265.6 262.6 251.9 260.2 265.6 268.9 270.3 272.6 277.6 284.3 294.1 300.5 304.9 309.2 314.3 320.1 326.3 336.4 348.7 363.3 378.4 375.5 382.5 382.8 376.3 367.2 357.8 348.3 339.2 327.7 319.8 308.1 298.3 287 277.8 269 263.3 261.6 256.3 257.2 251.6 252.1 254 255.2
92.2 92.1 92.6 92.3 91.9 90.4 89.2 88.4 87.4 86.9 86.5 86.2 86 85.9 86 86.7 87.3 88 88.5 88.8 89 89.3 89.6 89.8 89.6 90.2 90.3 90.4 90.4 90.7 91.1 91.5 92.1 92.9 93.3 93.6 93.5 94 94.6 94.9 95.3 95.8 96.7 97.1 97.6 98.4 99.3 99.9 101 102.7 104.3 105.8 106.3 106.9 106.2 107.9 108.7 109.5 112.6 113.4 115 116.8 116.6 117.4 119.8 121.4 121.3 121.9 124.1 124.4 127.8 129.4 130.9 132.5 134.4 136.1 138.4 140.8 142.8 146.1 148.8 152.2 152 151.2 150.3 149.4 146.3 150.8 153.4 156.3 157.6 161.7 164.6 167.3 169.8 172.1 172.7 174.2 173.3 170 168.9 173.4 178.4 181.2 187 189.7 191.9 195.2 201 201.9 205.8 208.9 212.6 215.3 218.2 222.5 230.5 238.7 240 238.8 235.7 226.6 218.1 213.2 211.4 217.9 222.8 231 240.6 250.7 256.8 262.3 259.8 256.5 250.9 253.2 256.7 258.9 260.4 264.1 266.8 267.9 269.2 271.1 273.6 276.9 280.5 283.2 284.3 287.4 289.7 288.9 286 285.1 283.6 279 273.6 266.1 256.2 262.9 263.8 268.6 272.5 274.7 279.5 285.9 294.5 301.1 305.9 311.2 315.9 322.2 328.5 338.2 348.8 363.1 384 380.9 384.4 386.5 381.3 373.2 362.7 353.2 344.5 335.1 323.9 313.2 304.8 294.3 283.7 275 269.7 267.1 265.9 262.7 255.7 258.9 261.6 262
91.9 91.1 90.8 91.1 90.6 89.7 88.1 87.3 86.9 86.7 86.5 85.8 86 86.1 86.7 87.2 87.7 88.1 88.7 88.8 89.1 89.4 89.6 89.8 90 90.1 90.1 90.1 90.3 90.8 91.9 92 92.5 93.3 93.6 93.5 93.7 94.6 95.3 95.6 96 96.4 96.6 97.1 97.7 98.6 99.7 100.4 101.4 102.2 103.4 104.8 106.1 106.4 106.9 107.8 108.6 109.3 112.9 114.2 116.3 120.1 118.7 118.7 120.2 122.7 123.7 124.7 125.1 124 127.4 129.2 131.3 133.2 134.4 135.8 138.7 141 144 148.4 152.1 153.9 154.8 154 152.4 151 150 150.1 151.8 155.7 158.3 159.5 164 166.5 168.4 170.2 171.3 171.2 170.9 160 171.7 174.7 178.5 183.6 188.2 193.7 197.4 203.6 207.4 210.7 214.4 211.9 214.9 217.5 220 224.2 233.1 240.9 241.7 239.9 236.7 225 218.1 213.5 216.3 219.2 224.5 231.8 242.2 252 258.5 263.6 259.4 255.8 256 258.7 260.6 262.2 264.5 265.4 266.1 268.5 270.7 273.7 278.8 283.4 288.9 292.2 290.8 291.9 295.2 296.5 291 291.1 289.1 286 281 271.6 260.2 263.5 268.8 271.7 273.3 277.4 281.8 288.5 296.6 302.9 307.5 312.5 316.3 322.9 330.1 339 348.8 363.2 383.8 386.3 387.7 389.9 386 377.4 367.3 357.7 349.2 339.9 329.5 319.3 310.3 301 290 281.7 277.8 268.6 273.5 267.1 263.4 266.1 269 270
89.9 90.9 90 89.6 89 88.2 87 86.5 86.6 86.3 86.2 86.3 86.6 86.7 87.2 87.8 88.1 88.5 88.7 88.7 89 89.4 89.6 89.9 90.1 90.3 90.5 90.6 90.8 91.4 91.3 91.4 92 93.4 93.5 93.5 93.6 94.8 95.1 95.6 96.1 96.5 96.8 97.5 98 98.9 99.8 100.7 101.6 102.5 103.4 104.3 105.2 106.3 107.1 107.9 108.5 109.2 113.2 114.2 116.5 117.3 118.5 120.4 121.3 123.6 124.5 125.7 126.8 128.3 129 129.6 131.4 134.3 134.6 135.7 137.3 140.2 143.9 151.7 152.3 153.8 154.7 154.6 153.4 150.1 151 147.7 150 154.5 158.2 157.6 161.4 162.9 164.8 166.8 168.5 169 161.6 166 171.2 174.2 177.2 184.4 189.7 195.5 200.8 206.4 211 214.4 216.8 216.2 217.9 219.6 222.4 227.2 235.7 243.2 243.2 240.9 237.1 223.1 218 213.9 216.9 219.8 226.3 233.5 243.8 253.2 260.8 264.8 258.8 255.6 258.9 260.6 261 263 264.5 263 265.3 269 272.1 276.3 282.6 289.2 296.6 301.4 301.8 299.3 300.6 301.3 296.7 296.8 293.4 291.3 285.6 276 267.7 262.7 269.3 273 276.7 279.6 282.3 289.4 297.1 304.2 309.2 313.2 317.5 323.7 333.1 339.8 349.6 362 379.6 390.8 391.2 393.5 390.4 382.1 371.2 362.2 353.8 344.4 334.5 325 314.7 306.5 296.7 289.1 282.9 284.1 278.4 274.4 271.8 275.1 279.6 279.8
88.3 89.2 89.4 88.7 87.9 86.8 86 86.2 86.3 86.2 86.2 86.8 87.3 87.3 87.7 87.8 88 88.3 88.4 88.7 89 89.4 89.6 89.3 90.2 90.3 90.6 90.8 91.3 91.2 92 92.2 92 92.4 93.4 93.2 93.6 94.7 95 95.4 96.1 96.5 97.4 98.1 98.6 99.5 100.2 100.9 101.7 102.6 103.4 104.3 104.8 106.2 107.2 107.8 108.4 109.4 111.6 113.8 116 117 117.5 120.9 122.7 124.4 125.5 126.6 127.7 129.8 131 131.9 133.1 135 135.2 136.5 137.9 141.1 146.6 149.4 148.6 149.2 145 140.5 142.5 146.4 142.6 147.4 149.3 152.4 156.4 157.9 158.8 160 161 162.4 163.7 157.8 159.1 162.2 163.7 172.2 175.7 183.9 190.7 193.6 200.6 206 210.7 215.3 218.1 219.5 221.7 223.2 224.7 230.4 238.8 246.1 245.6 243.3 240.1 229 219.3 213.3 217.9 220.9 227.2 234.5 242.9 254.1 261.9 263.5 255.6 259.3 258.9 261.4 261.3 262.9 263.4 265 265.8 270 274.6 280.1 288.9 297.1 304.9 309.9 312.3 312.4 307 306.7 303.4 301.9 297.8 294.8 287.9 279.3 271.4 266.2 269.3 273.5 278.2 282.7 284 289.2 296.2 302.7 309.2 313.3 318.1 324.7 334.5 341.5 350.2 359.9 377.1 393.9 395 397.1 394.2 386.8 376.8 366.1 357.9 348.7 339.1 330.5 320.8 312 303.1 296.1 285.4 290.8 282.7 279.8 281 286.3 287 285.8
87.3 87.6 88.1 88 87.4 87 85.6 86.1 86.2 86.4 86.6 87.1 87.6 87.4 87.6 87.7 87.9 88.1 88.4 88.8 89.1 89.5 89.4 90 90.5 90.5 90.6 90.9 91.3 91.3 91.9 91.9 92 92.2 92.2 93.1 93.9 94.5 94.5 95.4 96 96.8 97.5 98.3 99.1 99.7 100.4 101.1 101.9 102.7 103.4 104 104.4 105.8 107 107.9 108.4 109.5 110.7 112.6 114.8 116.2 118.5 121.3 123.1 124.8 126.3 127.9 129.5 130.5 131.9 133.3 134.8 136 137.1 138.7 139 142 146.3 146.5 134.1 133.1 130.8 131.6 139 143.8 132 136.8 146.4 151.4 152.4 149.5 157.6 153.8 155.3 155.8 152.5 158.2 161.9 165.6 171.3 168.8 173.7 184.5 189.9 193 195 200.8 207.5 215.3 219.5 222.1 224.3 226.5 228.6 234.4 242.3 249.3 248.9 246.2 243.9 233.5 221.5 213.3 217.4 220.5 227.7 234.6 244.3 253.6 261.3 258.1 256.8 258.6 258.7 260.6 261.9 262.2 262.9 265.3 268.2 272.3 277.9 286 295.8 303.4 311.7 317.7 321 317.3 312.3 309.7 308.6 307.5 303.4 298.4 290.2 283.1 274.6 269.2 271.9 274.7 279.7 285.8 290 292.3 295.4 302.8 308.8 313.9 318.8 325.6 335.3 344 350 359.8 376.3 397.7 398.2 400.4 397.5 389.9 381.1 371.1 361.8 351.5 343.6 334.6 325.3 315.3 307.3 301.3 297.8 294.2 290.4 286 289.4 293.3 293.9 292.2
87 86.4 86.5 86.7 86.3 85.9 86.1 86.5 86.3 86.5 86.7 87.2 87.3 87.2 87.4 87.6 88.3 88.7 88.7 88.8 89.1 89.5 89.7 90 90.5 89.8 90.5 91 91.3 91.2 92 92.3 92.5 92.6 92.3 92.6 94 94.3 94.4 95.3 95.6 96.7 97.4 98 98.8 99.5 100.2 100.8 100.9 102.3 103.1 103.1 104.1 105.3 106.8 108 108.8 109.7 110.6 111.7 113.3 113.6 116.6 119.5 122.3 124.5 126 127.7 129.1 130.3 132.1 133.9 135 136.1 136.4 139.3 140.6 141.2 139.9 127.6 126.9 130.3 130.9 137.3 146 144.9 140.7 134.5 136.2 143 142.3 141.9 157.9 146.1 146.6 155 157 165.1 167.8 171.8 174.6 177 179.2 180.1 182.3 187.4 188.4 202.3 208.4 215.4 219.7 223.6 226.7 229.1 232.4 238 245.7 251.6 251.1 248.9 246.5 237.5 222.8 217.6 219 220.8 228 235.1 244 253.4 258.7 253.6 257.9 256.7 257.1 259.8 261.4 261.5 263.3 266.5 268.6 273.6 282.2 292.3 301.6 310 317.8 323.7 321 317 314.3 312.9 312.3 311.1 308.3 303 292.9 285.1 273.4 276.7 277.4 276.2 282.6 291.6 295.6 296.6 298 303.3 310.5 315.8 321.5 327.9 336.7 345.1 351.7 361 378.7 397.4 400.3 403 400 392.2 383.9 374.7 365.6 356.5 347.3 338.7 328.2 320 313 307.9 303.3 299.6 296.1 294.5 296.3 298.7 296.9 294.1
87.5 86.7 85.4 85.7 85.2 87.5 86 86 86.3 86.5 86.7 87.1 87.1 87.6 87.9 87.7 89.4 89.2 89.1 89.1 89.1 89.1 89.3 89.8 90.3 89.9 90.6 91 91.4 93.2 92.6 93 93.2 93.5 93.5 93.2 93.8 94.7 95 95 95.5 96 96.5 97.1 98.4 98.8 99.8 100.7 99 101 101.6 100.9 103 104.2 105.8 107.1 108.4 109.3 109.8 110.7 110.1 111.1 111.7 117.1 119.9 123.2 124.5 125.6 126.8 128.3 131.3 133.4 134.9 133.6 132.4 132.9 130.1 129 123.3 126.9 137.7 141.8 143 144.1 146.8 146 145.7 146.2 137.3 140 145.8 147 158.2 154 155.8 157.2 160.7 166.4 170.5 174.4 180.5 186 187.5 192.2 194.8 196.4 200.9 204.7 204.9 211.5 219.3 219.4 227.3 231.3 234.7 239.8 247.5 254 253.3 251.1 249 242.3 224.9 222.3 222.3 222.5 227.8 235.5 242.9 252.7 252.6 254.4 257.4 255.6 256.6 258.5 260 261.6 264.4 267.2 269.7 275.8 286.2 297.6 307.5 315.8 323.4 324.3 321.4 319.6 320.1 323.4 323.9 319.6 311.4 304.1 295.7 282.1 283.8 282.7 282.4 282 283.1 290.5 296.8 299.2 301.3 305.1 310.6 317.7 323.2 329.5 338.4 346.9 353 363.6 381.3 399.2 401.5 403.6 400.7 394 385.6 377.2 368.7 359.6 350.6 341.8 332.2 323.9 316 312.5 308 302.6 299.5 298 299.7 302.7 299.9 295.5
87.4 86.7 86 85 85.6 85.8 85.9 86.1 86.4 86.6 86.8 87.1 88 89 90.3 90.8 89.8 89.4 88.8 89 89.3 89.6 89.6 89.8 90.3 90.4 91.1 91.3 91.6 91.7 92.9 93.2 93.5 93.6 93.5 93.3 93.6 94.5 95.1 95 95.9 96.2 96.4 97 98.1 97.1 99.1 99.7 100 101.9 102.8 104.8 105.8 104.9 102.3 105.3 106.4 108.3 108.5 108.7 108.7 112.3 112.1 111 115.1 115.6 116.1 118.1 120.2 120.3 123.8 121.7 120.4 121 122.6 123.8 122.1 124.7 129.6 132.8 139.7 141.5 143.2 144.1 146 146.2 146.5 147.8 143.3 138.2 151.3 154.7 156.9 160.2 161.4 163.6 166.3 168.9 172.1 179.2 184.4 189.1 193.3 195.7 200.4 201.1 206.9 210.4 215 220.9 224.9 227.8 227.7 232.8 236.2 239.5 248.1 255 254.2 252.8 251.2 245.3 227.9 222.3 222.3 223.4 227.9 234.8 241.9 247.7 251.4 253.6 253.3 253.7 256 258.5 259.7 261.8 265.1 268.5 273.4 278.9 289.5 300.3 310.5 319.4 323.3 323.4 323.8 326.2 331.3 334.4 331.4 319.6 311.4 304.1 293.5 290.1 290.1 288.1 287.5 288.3 289.8 293.4 297.5 299.7 301.8 306.1 313.7 319.8 326.3 332.7 339.2 348.4 354.4 366.3 384 399.6 402.4 404.7 401.1 394.6 386.4 378.5 370.6 361.7 352.4 343.8 335.1 325.4 318.8 314.7 310.4 305.8 302.5 300.7 301.6 304.1 301 296.1
86.7 86.1 85.9 84.4 85.8 85.8 85.9 85.5 86 86.9 87.7 88.9 89.7 89.8 90.2 90.6 90.1 89.8 89.4 88.8 89.2 89.7 90.1 90.2 90.5 90.5 90.4 90.7 91.4 92.3 92.9 93.2 93.6 93.8 93.5 94 93.8 94.8 95.3 95.4 96.1 96.2 96.4 97.4 98.2 98.6 99.1 99.4 100.4 102 104.3 106.2 107.3 107.2 107.9 108.4 107.4 106 108.4 111.8 114.5 115.2 116.4 114 112.9 112.5 111.2 116.1 117 119.1 117.8 117.7 117.7 120 122.2 118.6 127.8 132.1 134 129 135.9 140.5 142.4 146.6 146 146.6 145.8 147.8 147.1 139.5 147.8 155 158.9 160.1 162.6 165.1 167.4 170.1 173.8 180.8 185.3 192.6 197.9 200 204.8 205.1 208 212.8 221 229 234 233.3 233.8 232.8 235.2 239.4 244 250 252.8 252.9 252.1 248.4 231.9 222.3 222.3 224.3 228.3 232.6 239.5 244 248.8 252.6 252.2 252.6 255.1 257.3 259.3 262.3 266.1 270.5 275.5 281.8 292.9 302.1 313.6 321.5 324.3 324.9 330.9 336.9 340.7 342.4 330.9 322 311.1 304.1 290.2 297.3 297.7 294.7 293.8 293.8 293.6 296.7 299 300.8 302.9 307.8 315.7 322.6 329 335.6 342.2 350.5 357.6 367.5 385.1 396.7 402.4 406.7 401.9 395 387.2 379.4 371.7 363.3 353.6 345.1 336.5 327.1 319.2 314.5 309.9 305.5 302.5 299.4 299.2 301.4 299.3 295.9
86 85.8 84.1 85.6 85.6 85.7 85.9 85.8 85.8 86.6 87.5 88.6 90.2 90.2 90.9 90.8 90.3 89.7 89.7 89.3 89.1 89.7 90.2 90.5 90.8 90.7 91.2 91.6 91.8 94 94.2 93.7 93.2 94.4 93.9 93.9 94.6 95.5 95.2 95.5 96.1 96.3 96.4 97.1 97.9 98.6 99.4 100.1 101 102.2 104 105.9 106 107.9 109.2 109.3 108.3 110.5 110.9 112.9 115.1 116.1 117 116.9 118.4 119.6 118.4 120.6 118.3 123.6 125 127.1 129.3 130.6 132.2 133.5 136.3 140 141.2 139.2 140.1 134.6 142.2 145.5 146.2 146.7 148.1 149.4 149 141.7 142.5 154.1 157.5 159.9 162.4 166 168.2 171.6 174.8 181.6 188 195.7 201.4 203.7 207.6 208.1 210.4 218.8 226 234.1 239 238.8 236.9 235.9 238 237.6 240.7 244.5 251 250.1 247.2 244.1 235.4 224.6 224.6 225.8 227.7 236.3 243.1 243 244.7 247.7 252.7 254.6 256.7 258.9 258.6 262.6 266 270.9 277.3 284.9 294.3 304.5 315 321.4 324.6 330.6 338.1 345.1 349.8 341.3 332.8 321 311 304 289.8 302.6 303.8 304.1 300.5 298.8 298.6 299.8 301.3 302.6 304.9 309.4 318.5 324.8 331 337.5 345 353.2 360 371.1 386.5 398.5 403.5 406.1 402.5 396 388.4 379.2 372 364 354.4 344.7 337.2 327.5 319.5 312.8 308 304 300.3 295.9 295.1 297 297.2 294.6
85.5 85.2 84.8 85.3 85.4 85.5 85.8 85.9 85.7 86.4 87.4 88.8 90.6 90.3 90.7 92 91.9 91.8 92.4 91.1 89.6 89.6 90.2 90.4 91.6 90.8 91.8 92.6 93.2 94.3 95.7 94.4 94.3 95.2 94.4 94.6 94.9 95.7 95 95.6 97.9 98.1 97.8 97.7 98.5 99.6 100.3 100.5 101.6 102.7 104.1 105.8 106.6 107.4 109 109 109.6 109.8 111.3 112.9 114.9 116.9 116.9 119.3 120.7 121 122.2 122.3 122.8 124 125.8 128.2 130.7 132.6 134.6 136.7 139.2 142 142.3 141.8 143.4 145.3 146.7 144.6 145.6 147.7 149 150.8 150.3 148.6 144.1 148.1 156.7 160.3 163.3 166.9 169.7 172.9 177.5 183.2 189.5 197.9 203.7 206.2 209.6 208.9 215.3 223.2 231.6 239.7 242.5 241.8 237.5 238.1 244.2 243 240.4 240.9 241.3 241.9 242.3 242.5 245.8 234.5 226.6 227.3 228.4 231.9 242.3 242.7 245.3 248.6 251.8 254.9 256.1 259.1 260.8 263.7 267 271.5 278.4 286.5 295.6 304.2 313.8 318.1 327.8 336.9 345.2 352.9 352.2 343.8 329.6 320.4 311.3 302.4 300.6 306.6 308.6 310.5 306.6 304 303.3 302.3 303.2 304.5 305.9 312.8 320.3 326.3 331.6 338.6 346.3 354.9 362.4 372.9 388.1 403.8 405.1 406.3 402.7 397.1 388.8 380.4 371.7 363.8 355.4 345.5 336 327.5 317.9 310.9 305.3 300.9 297.7 293.1 289.9 288.8 290.1 287.7
84.9 85 85 85.1 85.2 85.3 85.7 85.9 86 86.3 87.5 89 91 91.3 92.3 92.7 92.3 92.4 91.7 91.3 90.5 90.1 90.5 90.4 92.4 92.4 96.3 93.1 93.2 95.5 97 95.6 95.5 95.6 94.3 95 94.5 95.6 95.2 95.6 98.6 98.5 99.2 99.9 100 100.1 101.1 101.4 102.6 103.7 104.8 105.5 107.1 108 108.2 109.1 110.8 111.6 112.2 113.9 114.2 117.9 118 122.8 126.1 126.9 126.8 124.9 125.2 125.8 127.3 128.3 130.3 132.4 134.4 135.9 139.6 142 143.6 144.2 144.7 145.8 146.5 144.8 147.3 148.2 150.3 152.9 152.8 152.1 147.7 145.6 157.2 160 164.4 167.7 170.5 173.6 178 182.7 190.1 199.3 204.1 206.8 208.8 211.5 218.5 227.7 236.2 243.1 246.9 244.8 238.1 239 248.6 253.1 244.7 240.5 241.3 242.1 242.9 242 240.4 232 229.6 229.3 231.2 236 242.2 241.2 241.2 242.5 247.4 254.3 254.1 254.3 260.5 263.4 268.1 272.7 282.5 289.8 298.1 305.9 313.8 321.9 331.3 340.8 349.8 357.8 353.7 342.6 327.9 319.9 309 304.5 310.1 309.9 314.6 316.4 311.8 308.8 307.2 306.2 305.2 305.7 307.4 315.8 320.1 326 333.3 340.7 347.8 356.3 364.3 373.8 389.2 403.8 406.1 406.7 404.6 398.4 390.5 382.1 372.8 363.2 356.2 347.5 338.2 328.2 317.8 310 303.7 298.4 292.3 290.4 285.8 283.3 280.8 278.1
84.6 85 84.7 84.9 85 85.2 85.7 85.9 86.1 86.8 87.7 89.6 90.9 91.3 92.4 93.1 92.6 91.6 92.5 90.7 91.4 90.8 91.1 90.5 93 95.4 94.1 94.3 93.6 96.2 95.5 96.5 96 95.3 94.4 94.6 94.2 95.3 95.7 95.6 97.8 97.9 98 99 101.1 101.2 101.4 102.4 103.4 104.6 105.6 106.3 107 108.6 109.2 110.2 112 112.9 113.5 115.2 116.8 115.4 119 124.6 127.2 129.8 130 128.3 128.1 130 131.9 133.4 132.1 135.3 136 136.6 138.2 140.4 143.8 145.6 146.3 147.2 148 143.2 148.2 150 150.7 151.8 153.1 153.6 150.9 147.9 155.8 159.7 163.9 167.3 170.1 174.6 179 184.1 191.6 197.9 202.6 206.2 208.5 212.6 221.2 230.1 239.2 245.1 250 248.3 237.8 238.9 250.1 255.4 243.3 240.4 242.4 243.3 243.2 241.4 231.2 233.7 233.5 232.3 242.3 243.7 244.8 246.4 245.6 249.5 253.5 256.7 258.7 258.5 261.2 265.6 269.6 276.3 286.7 294.3 302 309.1 316 324.2 333.3 343.3 353.3 362 354.1 338.2 328.5 320.4 309.2 315.6 315.5 313.9 316.4 318 315.5 313 311.2 308.7 306.6 307.4 308.7 315.8 320.4 321.3 334.9 340.9 348.4 357.6 365.8 374.5 388.5 405.8 407.8 408.3 406.5 400.6 393 383.9 374.6 365.5 357.3 348.6 340.1 329.1 320 310.3 303.9 298.4 293.7 288.1 282.6 275 274.1 265.1
84.6 84.5 84.5 84.6 84.8 84.9 85.1 85.6 86.4 87.2 87.8 88.1 89.5 91.4 93.2 93.1 92.3 91.6 92.4 92 92.6 92.2 91.6 92.4 93.7 94.5 96.2 95.5 95 98.3 94.7 94.5 95.2 95.1 94.8 94.6 94.7 95.2 95.8 96.1 96.8 97.7 98.4 98.8 100.1 101.6 102 102.3 103.4 104.4 104.9 105 105.8 105.5 110 111.3 113 113.9 114.8 116.5 117.6 118.3 118.1 123.7 126.2 129.4 130.8 130.6 130.9 133.9 136.5 137.9 138.8 138.4 139.1 140.4 142.2 144.3 144.8 145.9 147.5 149.7 149.7 149.6 144.4 150.7 151.8 153.1 154.5 154.9 153 150 151.3 157.6 163.5 165.7 170.1 175 181.7 186.7 195.1 201.2 204 206.7 208.9 214.2 223.1 230.6 241.2 247.9 253.2 246.7 235.5 236.7 248.6 243.4 238.9 239.9 243.1 242 243.2 236.9 241 241 239.4 235.9 238.5 242.1 247.6 249.4 249 253.4 256.8 259.7 261.7 261.7 262.3 267.7 271.6 278.6 287.8 296.6 305.4 311.6 318 325.8 335.1 346.1 356.2 361.4 353.7 338.3 329.7 321.1 319.1 320.8 320.1 319.3 317.8 319.5 316.1 314.6 314.1 307.6 304.8 306.9 310.2 315.9 321.4 328 334.5 341.1 348.7 357.6 365.8 374.2 388 406.4 408 410.2 408.9 402.8 395.1 385.5 376 367.2 359 350.8 341.1 332.9 322.5 313.2 304.6 298.5 294 288.9 283.8 279.8 275.3 270.4
84.7 84.4 84.4 84.4 84.5 84.7 84.8 84.9 85.5 87 85.6 87.6 89 91 91.8 93.5 93.5 93.2 94.8 92.6 93 92.5 92.5 93.5 94.7 96.1 97.1 97.4 99.2 93.6 96 95.8 96.4 95.6 95 94.9 94.9 94 96.2 96.2 96.3 97 97.9 98.8 99.7 100.3 101.1 101.8 103.1 103.8 104.2 105.3 106.9 109.9 111.4 113 114 114.9 116.4 117 117.9 119.7 121.9 119.8 125.3 128.1 131.3 131.9 131.9 136.9 139.1 141 142.1 142.9 141.9 142.9 146.2 147.3 148.5 148.2 148.9 150 151.3 151.7 141.2 152.8 152.8 154.1 156.5 156.9 155.9 152.3 150.1 157.6 164.3 168.2 171.8 178.1 183.1 189.7 197.9 202.9 205 207.2 209.2 216.6 225.3 232.7 242.6 249.3 256.4 243.6 233.8 234.8 236.2 237.8 242.4 242.6 245.8 243.1 243 244.8 247.6 245.4 245.8 244.7 239.7 246.8 248.7 252.1 252.9 256.6 259.6 261.9 262.5 265.2 264.1 268.9 274.2 282.2 290.9 299.3 308.9 313.7 320.7 330.7 343.8 349 359.3 361.5 355.9 339.8 331.9 324.1 326.3 326.2 322.5 322.2 321.1 318.9 315.4 313.2 310.7 304.6 303 306.3 310.9 315.6 320.7 327.5 333.6 340.4 347.6 356.5 364.3 373.1 389.5 402.8 407.1 409.2 410.3 404.8 397.1 387.6 378.3 368.9 360.3 352.7 343.2 336 327 317.4 307.3 300.1 294.4 289.5 286.1 282.3 278 273.5
85 84.5 84.4 84.2 84.3 84.5 84.7 84.8 85.1 85.9 85.6 86.8 88.8 90.6 92 93.1 93.1 94 93.9 93.5 93.1 93 92.9 93.2 93.4 96.5 98.1 99 96.1 97 97.6 97.7 97 95.8 95.2 95.2 95.3 95.7 96.2 96.4 96.7 97.2 98.2 98.8 99.7 101 101.5 102.1 103.4 104.1 104.7 105 108.7 111.4 112.9 114.4 115 116.3 117.1 117.9 118.8 120.4 123.2 122.3 124.5 127.5 131.3 134.1 135.5 138.8 140.3 141.5 142.7 142.8 143.4 146 149.3 151 151.6 149.3 152.2 152.5 152.9 154.4 144.8 154.2 154.8 156.4 158.8 159.3 160.2 155.5 158.3 158.3 165.2 169.5 174.2 180 185 192.7 199.7 203 205.5 207.4 210.2 217.7 226.8 234.6 244.4 250.8 257.3 241 231.1 241.2 251.1 255.8 252.6 247.2 246.7 243.4 244.8 247.7 251.1 250.7 250.7 250.1 248.9 250.5 252.6 255.2 258.3 259 261.9 264.4 268.4 271.8 271.7 271.3 277.8 285.3 292 300.4 310.9 318.1 325.8 341.1 351.7 355.1 363.7 361.2 351.8 342.4 336.8 327.7 330.7 331.4 328.3 325.4 319.9 317.5 314.6 311.8 306.1 302.4 300.9 306 310.8 314.3 319.6 326.2 333 340 346.7 354.4 361.4 371.7 390.7 404.2 404.6 403.9 401.3 399.7 396.7 388.8 380.2 371.1 362.7 354.2 347.2 338.8 329.9 319.5 309 302.8 297.1 292 287.9 283.3 281.1 284.5
84.5 84.1 84 84 84.1 84.2 84.3 84.7 84.9 85.5 86.6 87 87.9 89.4 90.3 91.2 92.4 93.3 93.5 92.2 92.4 93 93.2 94.2 94.8 97.4 98.5 98.3 96.3 95.2 99.4 99.5 97.9 96.3 95.5 95.5 95.7 96.2 97.4 96.9 97.4 98.2 98.9 99.3 99.6 100.5 101.7 102.4 102.6 104 105.2 107.2 107.3 109.7 111.1 114.5 115.8 116.6 117.5 119 120.1 121.8 124.4 124.5 124.7 127.9 128.5 134.9 135 137.6 143.9 143.7 141.6 142.5 144.8 148.6 151.5 152.7 154.4 153.3 154 154.3 155.1 155.2 146.1 155.6 156.5 157.6 157.6 160.7 162.3 160.3 153.9 161.7 166.5 171.1 175.8 182 188.5 195.4 199.5 202.1 206.5 207.3 211.1 219.1 227.4 235.6 245.4 251.8 259.4 244 231.3 235.7 254 258.3 254.7 248.1 246.6 244.5 245.9 248.1 251.3 255.2 254.4 254.8 253.3 248.9 253.7 255.7 259.4 263.1 265.6 267.9 272.2 276.9 279.1 280 280 288.9 297.7 306.8 313.4 321.9 327.4 343.6 356.5 366.4 369.1 363.1 354.5 346.4 340.6 337.3 334.5 335.4 335.3 332.8 323.9 322.1 318.4 313.8 308.5 300 299.2 305.5 307.8 312.4 318.9 325.8 332.9 339.5 346.2 352.9 360.3 371.5 388.4 406.5 402.8 399.3 395.4 391.9 386.3 380.7 375 367.4 360.8 356.1 349.7 342.2 333.1 323.1 311 304 299.8 294.7 290 288.6 288.5 288.3
82.4 83.8 83.8 83.8 83.8 83.9 84 84.5 84.8 85.4 85.8 86.3 87.2 88.1 89.5 89.8 91 91.5 91.8 92.4 92.9 93.7 94.7 95.1 96.3 96.9 98.1 97.8 95.9 99.7 100.2 99.7 98.6 96.8 95.6 95.4 95.8 96.3 96.8 99.2 97.8 98.7 99.4 99.8 100.4 100.8 101.7 102.7 103.3 104.7 107 110 112.6 109.5 109.5 113.2 116.2 116.6 117.6 118.3 120.1 122.9 124.7 126.3 128.5 128.2 134.3 137.4 138.6 140 141.5 141.6 142.5 144.3 146 149.5 152.8 154.9 148.7 153.3 155.2 157 157.5 157.4 147.9 156.1 157.5 157.9 160.8 162 165.4 164.6 156.3 163.6 169.9 174.4 178.3 183.7 191.8 195.5 199 202.4 205.9 207.7 211 218.7 227.3 235.5 245.2 252.8 260.4 253 232.1 232.3 255.5 259.6 255.9 249.1 248.6 246 247.1 249 253.5 259 261.7 260.2 257.5 254 254.8 258.1 262.4 264.7 269.2 272.9 276.5 280.2 285.7 289.9 291.7 292.8 303.2 313.4 323.1 328.2 332.8 342.1 358.3 370.4 373.6 369.5 360 350.2 345.7 342.9 340.3 343.2 343.1 337.9 328.6 323.1 319 312.8 310.2 298.4 298.8 301.3 306.7 313.1 318.6 325.1 332.2 338.7 344.7 349.4 358.8 370.4 384.9 400.5 406.9 400.5 392.4 386 380.9 374.9 369.3 363.5 359.3 355.9 351.4 344.1 336.1 324.8 314 306.9 301.2 298.5 294.2 292.6 292.1 292.1
82.3 83.3 83.4 83.5 83.6 83.6 83.8 84.4 84.8 85.2 85.7 86.9 87.1 87.9 88.7 89.5 90.3 91.3 92.5 93 93.6 94.8 95.9 96.7 97.5 98.5 97.8 97.5 96.2 99 99.2 98.1 97.5 96.8 96.1 95.5 95.5 96 96.5 97.7 98.4 98.4 99.4 99.7 100.6 101.4 102.2 103.3 104.3 105.8 108.6 111.4 114.2 114.3 110 111.2 113.1 114.6 116.4 118.3 121.2 122.9 124.9 127.2 129.9 132.7 133.3 140.3 141.1 142.5 142.7 143.3 145 148.8 148.8 153 154.5 155.6 155.1 155.9 157.3 158.4 159.2 159.2 148.4 157.5 157.6 159.6 161.6 165.1 166.7 166.1 155.8 167.3 172.6 176.7 180.1 186.2 190.5 193.4 198.4 202.6 205 207.5 211.6 217.7 226.1 235.2 244.8 252.9 260.9 261.3 241.8 230 248.1 262.4 255.5 251.6 251.3 247.3 248.3 250.2 256.5 262.5 265.5 266.2 262.2 257.8 256.8 260.4 264.5 269.4 272 276.7 280 285.4 293.6 300.8 304.8 301.8 308.1 318.3 329.4 334.8 336.4 342.8 355.3 370.1 376.4 374.5 363.7 355.7 350.8 348 348.6 352 351 342.8 331.7 321.9 319.7 316.4 306.7 295.6 292.7 301 307.2 313.3 319.2 326.4 332.6 337.5 342.2 344.9 353.2 364.2 376 386.6 394.6 400.7 396.5 389.1 381.2 372.8 364.1 358.5 356.3 354.2 352.4 346.5 338.4 328.2 317.4 310.6 305.8 300 297.2 296.5 295.3 294.2
83.1 83.2 83.4 83.4 83.4 83.4 83.9 84.3 84.5 85.1 86.2 88.2 88.9 89.2 89.3 90.1 91.1 91.3 91.9 92.5 93.2 95.4 96.7 97.6 98.5 99.1 99.1 97.3 96.7 97.4 97.9 97.8 96.8 96.9 96.6 95.7 95.7 96.1 96.7 97.6 98.6 99.1 100.2 100.7 100.7 101.8 102.7 103.9 104.9 105.9 108.8 112.1 115.1 116.4 113.8 115.5 113.2 112.5 116.9 119.6 122 123.5 125.4 128.3 130.9 134.1 134.8 139.1 141.8 142.7 143.2 144 146.6 149.8 151.7 154 155.4 149.9 156.6 157.5 157.8 159.1 157.6 158.5 153.1 157.6 159.8 160 162 166.1 166.7 167.1 160.8 166.8 170.1 174.1 178.5 181.6 186.1 190.6 199 202.2 204.8 208.2 212.7 217.3 226.7 236.1 244.2 250 256.9 257.6 245.9 227.2 243.3 262.7 255.3 253 251.1 249.5 249.6 252 260.2 264.5 269 271 267.2 262.5 260.3 262.5 267.1 273.8 275.3 279.8 284.7 290 297.4 306.8 315.5 309.3 309.3 320.5 332.3 338 341 346.3 356.5 366.6 375.7 376.3 368.7 360.6 356.1 352.5 355.3 358.8 356.7 348.5 335.1 325.2 324.4 322.6 311.9 294.6 294.4 296.9 306.1 313.6 320.6 327.5 332.9 336.6 338.5 340.1 342.9 352 360.3 369 376.5 381 384.9 386.5 383.7 375.1 365.7 357.4 349 349.6 350.2 348.3 341.2 331.7 321.4 313.8 309.8 305.4 301.5 300.3 297.6 295.5
82 83.2 83.3 83.3 83.3 83.3 83.8 84.5 84.3 84.7 85.8 87.3 87.8 88.6 89.7 90.8 91.5 91.7 92.6 93.4 92.5 94.8 97.2 98.2 98.9 99.4 99.6 98.6 97.9 97.4 97.1 96.6 97 97 96.6 95.6 96.4 96.2 96.8 97.7 99 99.4 100.6 101.4 101.8 102.1 103.2 104.5 105.8 106.5 107.7 108.5 111.4 114.2 115 114.7 116.4 117.7 115.5 118.5 121.4 123.8 125.9 128.6 131.1 133.9 136.6 137.5 139.1 141.6 143 145.6 148.7 151.3 153.6 154.4 155.3 156.7 158.2 158.2 158.2 165.7 161.7 160 157.4 159.5 160 160.1 161.8 166 167.3 167.2 166.7 160.3 164.3 170.1 173.6 179.7 185.3 192.5 201 201.4 205.7 208.7 213.3 218.5 227.2 236.6 242.3 245.8 251.2 253.2 233.8 228.8 252.2 261.2 255 254.8 252.5 251.4 251 254.4 262.6 266.3 270.6 273.5 275.4 269.3 265.9 266.2 270.4 276.5 280.7 282.2 290.6 295.3 300.2 309 318.8 322 311.9 320.9 333.5 343.9 347.5 352.1 361.2 369.1 377.1 381.9 376.8 368.6 361.8 357.9 361.7 365.2 362.1 353.4 338.1 329.6 324.3 318 306.1 290.8 287.2 293.9 302.4 313.8 321.7 326.7 332.4 334 334.5 331.8 333.6 338.1 345.2 350.7 356.6 363 367.1 368.6 368.4 370.3 363.7 358.5 350.8 342 344.6 348.1 343.3 334.4 325.8 317 312.7 308.5 305.6 302.7 298.3 295.5
82.1 83.1 83.1 83.1 83.2 83.2 83.7 84 84.5 85.1 85 87.6 88.5 89 89.9 91.1 92.5 92.3 93.2 94.1 94.6 95.6 96.7 97.8 99.1 99 100.8 100 98 98.6 97.5 97.1 97.1 96.7 96.4 96.7 97.1 96.9 97.4 98.3 99 99.8 100.7 101.7 102.8 103.3 103.3 104.3 105.4 107.1 108.2 109.5 110.8 113.8 115.3 115.4 117.5 119.2 120.3 119.6 122.1 123.5 125.3 127.8 130.7 133.6 135.6 138.3 140.5 141.7 144.3 144.9 149.3 151.6 153.7 155.4 152.3 158.2 159.5 158.3 160.4 166 162.7 160.6 154.8 160.6 161.1 161.9 163.6 166.6 167 166.2 165 164.2 161.3 167.8 172.9 178.5 184.7 191.1 196.1 201.5 206 209.6 213.8 220.2 227.2 237.4 240.8 242.9 247.4 237.2 224.1 241.9 264.1 259.6 255 256.8 255.5 255 254.9 255.3 264.4 268.3 271.1 273.4 275.5 276.3 272.8 271.8 273.6 279.4 286.8 286.9 295.2 299.9 303.9 313.1 321.7 325.5 315.7 328.5 338.1 349.4 359.2 365.9 371.7 376.2 382.5 386.4 381.4 373.4 366.8 364.5 369.4 371.2 366.4 355.7 338 330.1 322 311.3 300.6 291.2 283.3 288.6 297.7 309 320.2 323.8 326.5 327.3 324.8 321.2 323.9 327.2 331.7 334.7 340.7 344.1 347.7 350.5 352.5 351.9 350.7 353.8 350.1 340.9 337.2 341.8 344.2 336.2 327.3 320.7 315.1 311.2 307.8 304.4 297.8 293.4
83 83 83 83 83 83 83.2 83.5 84.4 85 86.4 86.4 88.9 89.5 90.1 91.1 92.3 93.8 94.8 95.8 96.4 97.1 97.2 97.1 98.3 100 100 98.9 98.3 98 97.5 97.2 96.8 96.4 96.5 97.1 97.3 97.6 97.8 99.2 99.7 100.5 101.4 102.8 103.8 104.2 104.3 104.3 105.5 107.7 110.4 111.5 112.5 113.6 114.4 116.3 118.3 120.3 121.8 122.4 119.1 124.3 125.3 128.2 130.1 133.5 136.7 138.4 140.1 142.1 144.3 146.5 148.5 151.6 153.5 152.1 156.8 158.2 158.2 158.2 162.9 163.5 162.8 161.5 159.2 162.1 163.5 164.7 167.5 168.7 168.1 167.7 166.5 166.3 165.8 166.2 168.2 177.8 183.1 187.9 188.1 199.2 207 211.3 217.6 223.3 229.3 236.8 236 226.1 224.5 221.3 232.1 257.6 263.8 259.1 256.3 255.7 257.1 258.8 261.3 258.2 263.5 267.8 271 273.5 275.7 278.4 280.9 278.2 277.1 284.5 292.3 295.4 299.2 304.3 308.6 316.7 325.1 330.3 326.7 333.5 344 354.7 365.5 375.5 384.4 385.4 389.6 392.2 385.5 378 371.3 370.7 375.2 376.9 368.4 352.9 336.8 328.3 319.1 309 298.3 290.4 282.8 284.9 292.6 308.1 318 318.6 315 314.2 312.1 308.4 310.1 313.4 315.9 319.1 322.1 325.5 327.3 329 332.2 333.8 336 336.9 343.6 340.9 329.6 334 338.5 337.3 328.3 321.1 315.1 310.8 307.4 303.8 297.4 292
82.8 82.8 82.9 82.9 83 83.1 83.2 83.4 83.3 84.7 86.6 87.8 89.8 90.5 91.3 92.3 93.2 94.6 96.1 97.2 97.7 95.8 94.8 96.1 97.9 99.3 99.1 98.5 98.3 97.8 97.1 96.5 96.3 96.1 96.9 97.6 97.9 98.3 99.3 99.2 101.1 101.2 101.9 103.9 104.7 105 104.9 103.9 106 108 111 113.1 112.8 113.9 117.1 119.1 120.3 121.8 124 124.7 126.2 124.2 124.4 126 129.8 133.4 137 139 140.6 142.1 144.7 147.3 150.2 152.7 154.7 155.7 158.2 158.5 159 161.8 164.8 165.4 164.7 164 159.7 163.2 165.5 166.9 169 170.9 170.7 169.6 168.6 167.9 168.5 169.1 168.9 172.2 177.2 182.3 191 199.8 208.2 213.6 220.3 227.4 229.9 234.3 218.3 216.5 227.4 238.7 246.8 258.1 264.9 259 258.1 259.4 258.5 258.6 259 258.1 262.4 267.1 272.8 276 277.6 281.1 283.9 284 281.3 286.6 297.7 301.2 304.6 309.1 313.1 320 328.8 333.8 332.3 339.3 348.6 358.8 369.1 379.4 390.2 393.5 395.7 397.2 389.4 381.6 377.7 377.1 379.3 376.4 366.7 346.5 332.7 322.1 311.9 301.9 293.7 289.1 282.8 280 291 306.3 317.9 316.7 306.7 302.2 298.9 294.3 294 297.9 298.7 299.4 304.7 307.1 307.6 307.9 310.3 313.5 316.8 320.6 324.3 332.1 331.7 320.6 332 336.2 328.1 320.3 314.6 310.3 306.3 302.4 296.8 294.6
82.3 82.8 82.8 82.8 83 83.2 83.3 83.4 83.5 84 86.1 88.3 89.4 90.6 92.1 92.5 93.6 94.7 96.5 98.2 98.5 97.4 97.2 97.6 99.5 99.2 99.1 97.3 99.2 98.2 97.4 96.9 97.4 97.4 98.1 98.1 98.5 99.7 100.6 101.5 102.5 102.8 103 104.1 105.1 105.2 105.7 105.1 106.4 108.3 110.8 113.4 114 118.6 120.6 122.3 122 122.7 125.1 126.6 128.1 129 127.7 129 133.1 134.9 135.9 138.6 140.4 142 145.5 149.8 152.4 153.8 151.2 158.5 160.1 159.7 162.7 163.8 165.4 165.4 167.4 164.4 164.3 165.5 167.7 169.7 172.1 174.8 173.4 172.4 171 170.3 170.8 171.5 172.4 169 176.1 182.7 191.5 204.9 211.7 217.5 223.9 229.5 229.4 215.6 211.9 224.8 235.2 243.3 252.9 261.9 266.3 259.5 258.8 260.9 260.8 261.1 261.9 260.7 263 267.9 273.9 281.5 284 285.1 288.3 290 287.1 287.6 298.6 304.4 307.9 313.6 317.8 322.7 333.5 339.7 337.8 344.5 352.4 361.4 371.5 381.5 390.4 395.9 400.5 398.7 389.1 383.2 381 381.9 383 366.8 353.7 341.2 329.8 317.8 307.9 298.1 291 285.3 280.3 278.5 286.7 305.1 317.5 318.4 304.4 295.6 290.3 287.3 285.3 284 285.3 284.2 286 286.9 289.6 291.3 291.7 293.9 297.7 302.1 307.3 310.6 318.3 315 324.1 329.5 325.5 319 314.4 311.1 307.9 304.1 301.2 297.1
82.2 82.8 82.8 82.8 83 83.3 83.5 83.6 83.7 83.6 85.4 86.8 89.8 91.4 92.6 93.8 92.5 97.2 98 97.7 97.3 97.2 99.9 100.1 100.4 99.3 99.4 98 99.4 98.1 97.5 98 100.2 100.8 100 99.6 99.1 100.4 101.2 102.6 103.5 104.5 104.5 104.9 106.2 106.3 108.3 106.1 106.6 108.4 111.1 112.2 114.7 119.2 122.6 124.3 124.4 124 124.2 128.3 130.1 130.7 129 132.1 136.2 138.7 141.1 137.5 139.7 144.1 147.6 151.8 154.5 152.1 156.8 160.4 161.3 162.2 164.1 165.6 166 166 169.2 167.3 163.2 167.3 169.8 172.8 175.6 176.1 175.9 174.7 173.3 172.8 173.6 174.8 176.6 180.1 179.8 185.1 190.8 198.5 213.3 220 219.7 210.4 211.9 205.6 219.7 231.7 240 246.9 257.6 265.5 266.2 258.4 258.6 262.1 263 247.3 247.3 253.5 256.3 269.1 275.6 284.3 287.7 287.2 289.2 292.8 292.6 290.3 299.6 305.4 310.7 316.5 321.3 325 335.4 342.3 344.1 347.6 356.9 365.5 374.9 383.8 389.9 395.6 400.3 395.7 388.5 384.1 380.7 376.1 369.1 360.2 349.6 339.8 329.1 318.3 304.7 294.9 288.4 282.8 277.2 277.3 281.9 298.6 314.2 317.5 307.8 294.5 286 281.7 277.8 276.4 275.8 273.8 273.2 273.5 273.2 274.3 275.9 279.1 282.3 287.7 288.3 292.1 297.4 296.8 314.5 318.4 320.1 316.6 314.7 312.5 310.1 307.6 303.8 299.8
82 82.9 83 83 83.1 83.3 83.5 83.7 83.9 83.7 86.3 88 89.6 92 93.1 94.5 95.7 97.5 98.8 98.4 99.3 100.8 101.7 101.4 101 99.8 100.4 99.8 97.7 97.5 98.2 99.4 100.6 102.1 101 101 99.4 100.3 101.7 103.5 104.4 105.7 106.5 107 107.2 107.6 109.5 109.5 106.8 108.4 110.3 112.8 115.6 118.3 121.4 125.3 126.7 124.3 125.1 128.7 132 132.3 131.4 133 137.8 140.4 143.3 144.6 145 143.5 149.4 152.9 155.2 156.7 158.2 160.1 162.4 163.8 165.1 166.6 167.6 169.5 169.6 169.2 167.8 167.4 171.1 174.4 178 178.5 177.7 178 177.3 176.2 176.9 178.6 181.3 185 188 178.1 178.6 180.3 188.2 200.4 197.3 203.3 209.8 218.7 232 237.7 243.5 251.4 261.5 268.9 262.8 252 257.1 263.4 243.6 250.4 258.8 265.3 264.5 263.6 276.3 282.6 285.7 286.5 287.3 287.1 289.1 292.8 299.8 306.1 311 316.2 321.6 326.3 336.1 344.3 347.1 350.1 359.2 370.1 377.1 383.3 390.4 395.7 396.8 391.7 386.5 383.6 380.1 376.2 364.6 353.4 346.4 338.1 329.1 318.9 304.9 292.6 285.9 281 276.2 271.4 275.8 290.6 309.6 314.2 309.6 299.2 287.3 279.5 272.4 270.9 269.1 266.3 265.4 263.6 261.2 260.4 263.6 268.1 269.6 270.9 271.1 273.3 275 291.2 304.6 311 313.1 313.9 312.8 312.8 313.3 310.6 306.6 302.9
82.4 83.1 83.1 83.2 83.2 83.4 83.6 83.8 83.7 83.6 85.6 87.1 90 91.2 93 94.5 96.3 98.5 99.1 99.3 101.8 101.7 102.6 102.5 102.3 101.7 102 101.2 99.4 97.6 101.4 102.4 100.9 102 102.1 102.8 102.2 101.7 102.9 104.4 105.4 106.5 107.3 107.8 108 108.9 110.8 111.7 109.4 109 110.4 114 116.9 118.8 121 125 128.5 127.4 128.8 131 133.6 134.4 133.2 135.7 138.6 141.1 143.1 144.9 147.2 148.3 148.3 146.5 150.8 158.1 159.9 160.2 163.2 164.9 166.2 166.9 168.6 169.5 169.9 170.3 170.4 167.5 171.6 174.7 177 178.6 180.2 182 182.9 180.9 180.7 182.5 186 189.5 192.2 196.8 194.8 187.3 190.6 196.8 205.6 214 220.6 229.1 236.9 240.5 248.1 257.5 264.1 264 254.3 241.5 246.5 244.1 245 257.7 265.8 270.5 271.7 276.8 271 274.8 277.4 278 277.8 281.8 287.9 291.3 299.5 305.6 309.9 314.5 319.3 325.3 335.3 344.7 349.9 352.5 360.5 372.4 379.9 385.3 391.5 395.9 394.1 389 385.5 382.7 379.2 374.3 363.3 353.8 347.1 338.5 329.8 317.7 307.7 292.7 284.2 279.2 272.6 264.9 272.8 283.1 302 312.4 310.3 303.5 294.2 286 277.3 266.8 260.4 258.9 258.1 257.4 255.8 254.4 254.9 259.4 259.3 259 261.6 265.1 264.2 277 290.4 298.4 303.2 306.8 309.6 315.5 318.9 315.7 311.9 306.4
82.1 83.2 83.3 83.3 83.4 83.5 83.5 83.5 83.5 84.1 85.4 87.1 88.9 90.1 92.4 94.2 95.3 96.2 96.3 96.4 100.5 99.2 102.3 103.5 103.6 103.6 102.3 100.6 99.4 99.7 102.4 102.7 102.3 102.1 103 104.3 104.4 103.4 103.4 104.8 106.3 107.3 107.6 108.1 108.8 109.4 109.6 110.8 111.6 109.4 111.2 115.5 118 119.8 122.2 125.4 129.9 130.1 133.5 134.3 135.5 136.6 136 139 142.3 143.8 145.9 146.6 148.9 150.7 151.3 150.5 151.9 158.2 160.4 161.4 163.2 165.3 166.8 167.6 169.9 171.2 172.4 173 172 168.4 171.1 175.4 178.3 179.9 183.4 185.1 184.5 185.7 185.7 187.2 190.2 194.7 200.4 204.5 210.7 210 201.3 192.2 208.5 220.7 225.7 234.8 239.2 245.3 251.9 259.4 258 251.3 232.7 229.4 243.3 243.9 253.1 261.7 270.3 273.4 278.2 283.5 288 287.7 284.4 284.5 284.2 282.5 281.6 290.3 297 303.4 308.3 312.9 318.4 324.3 333.5 344.2 353 354.8 361.8 372.4 379.4 384.3 390.5 393.5 391.3 386.9 384.2 381.4 377.5 372.8 362.6 353.7 347.7 341.8 334.1 324.6 312.2 296.2 282.4 277.2 273.2 260.2 269.9 277 294.8 307.5 315.5 312.6 307.2 298.5 288.6 279.3 269.6 264.9 260.3 255.6 247.2 248.1 246.9 251.4 252.3 251 249 252.7 260.4 267.7 279.1 284.3 287.1 293 302.6 310.9 317 322.5 316 307.4
82.1 82.6 83.4 83.4 83.5 83.5 83.6 83.6 83.5 84.4 85.8 86.6 87.8 89.4 91.4 92.7 94.2 94.9 97.8 99.1 102.3 100.1 101.8 104.1 104.4 104.3 102.8 99.5 97.7 99 101.9 102.3 102.4 102.7 103.2 105.2 105.5 105 105.4 106.3 107.1 107.7 107.7 108.7 109.3 108.9 109.3 110 111.2 111.4 109.6 112.3 117.6 120.4 122.8 126.7 133 137.4 137.2 135.9 136.3 137.6 138.4 139.5 144.2 147.7 151.8 154.6 154 152.7 152.6 154.1 156.7 158.4 158.8 160.6 163.7 165.9 167.5 168.4 169.8 171 173.2 173.3 171.4 171.6 174.8 178.4 180.2 181.8 185.5 186.2 186.1 186.9 188.5 191.1 196.1 203 209.4 214.4 218.1 217.9 212.2 216.3 207.2 214.3 230.9 241.3 244 248.9 256.8 255.4 243.1 229.8 235 243.3 249.8 251.3 257.1 263.2 271.1 277.4 282.2 287.5 292.7 297.8 295.9 291.6 289.5 287.6 289.4 287.9 295.4 300.6 306 311.7 317.3 323.2 332.3 344.5 354.4 353.6 360.3 369.8 376.1 381.7 386.9 391.2 388.5 384.7 382.5 379.1 375.8 370.7 361.3 353.4 348 342.1 335.2 326.6 313.3 298.9 279.7 270.2 270.2 260.9 270.7 278.3 288.5 301.9 316.7 316.7 315.2 308.5 297.7 289 282.8 270.9 265 261 256.4 246.4 237.1 235.6 237.9 239.4 238.4 238.3 252.2 262 270.7 274.7 277.6 281.4 288.6 296 301.9 310 315.8 307.7
82.6 82.5 83.1 83.5 83.5 83.5 83.7 83.9 83.6 84.6 86.2 86.8 87.6 89.5 91.2 91.8 93.1 94.4 97.7 100.1 101.4 101.8 101.4 105 104.8 103.6 101.3 101 100 100.9 102.6 103 101.8 101.8 103.5 105.5 106 106.3 106.2 107.2 107.5 107.6 107.8 109.1 109.9 109.1 109.5 110.9 110.9 114.2 114.8 112.1 115 120.2 123 126.6 132.5 138.7 143.3 140 138.3 138.3 140.5 140.2 142.1 148.3 150.1 153.8 152.4 153.1 149.8 156.5 157.4 159.6 160.1 161.4 164.6 167 168.8 169.1 169.6 172.3 174.2 173.7 173.1 174.5 178.2 180 182.1 183.4 185.2 186.8 187.7 189.2 192.2 195.6 201.3 208.7 214.2 220.9 224.7 225.6 218.2 221.9 220.3 207.3 222.4 238.5 245.6 250.9 243.1 230.2 222.9 231.1 238.4 244.1 257.4 264 266 265.9 271.8 280.2 286.4 291.6 297.5 302.8 305.3 300.3 293.5 291.3 288 293.6 297.2 300 303.6 309.6 314.5 320.7 330.8 341.8 348.5 349.5 356.3 367 373.3 378.9 383.7 388.9 385.6 382.3 380.8 377.4 374.9 369.4 359.2 351.9 347.7 341.7 334.6 324.5 314 298.8 279.6 270.7 260.7 255.9 270.7 278 284.8 301 311.4 316.4 316.7 312.9 306.1 296.9 291.7 284.2 273.1 263.7 258.4 252.2 247.2 243.3 227.1 233.6 229.3 234.1 248.8 258.1 264.1 268.3 271.3 272 279 285.5 292.1 298.4 300.7 302.7
82.6 82.5 83.2 83.6 83.5 83.7 84 84.2 84.5 84.8 86.3 87.5 88.2 89.7 91.5 92.3 93.2 92.4 96.4 98.4 100.3 101.2 100.8 104.7 105.2 105.5 99.2 103.4 101.3 101.9 102.2 103.1 103 104.3 105.7 107.2 107.6 108 107.3 106.7 107.6 107.5 108.4 109.5 110.4 109.9 110 110.3 110.8 114.1 117.2 117.3 113.1 120.5 124.3 129.1 133.4 139.1 143.4 145.8 144.1 141.3 141.8 141.9 142.2 144.5 148.7 151.4 152.3 151.1 155.9 157.6 157.7 159 161.1 164.1 167.2 169.7 169.8 169.8 171.4 174.2 176.2 176.5 176.2 177.5 176.9 180.6 183.7 186.1 188.3 188.1 189.3 191.4 195.6 200 206 212 217.8 223.5 230 230.7 220 222.1 226.4 230.7 210.8 218.3 222.5 218.3 218.6 227 234.8 241.3 247.7 252.9 255.2 268.9 270.1 272.2 277 284.2 290.1 295.2 302 307.7 311.5 309.1 299.9 295.5 289.4 296.7 300.4 304.4 309.3 310.6 313.1 318.2 324.9 331.4 339.1 344.8 352.1 363.5 371.7 376.8 382 386.8 383.7 380 378.3 376.4 373.9 368.8 357.2 348.9 344.7 340.7 333.3 324 312.5 295.2 276.8 267.6 250.5 262.7 271.1 278.3 284.7 297.4 311.1 312.7 313.1 310.5 307.6 302.4 296.1 290.7 283.4 273.5 260.6 250.3 241.8 241.7 233.2 223.5 221.6 228.5 240.5 248.9 259.1 262.9 257.7 255.9 263.3 273.6 280.2 284.3 286.8 289.1
82.5 83 83.4 83.6 83.7 83.8 84.2 84.5 84.8 85.1 85.9 87.2 88.4 89.6 91.8 93.4 94.4 95.4 96.1 96.8 95.5 98.3 101.1 103.4 106.2 105.5 99.5 105.5 102.6 100.1 100.1 102.1 103.1 104.8 106.5 107.9 108.7 108.5 108.4 107.8 107.1 107.7 108.6 110.4 111.5 111.2 110.5 110.4 111.3 113.8 118 119.8 116.2 118.5 123.3 129.2 133.7 139.1 142.3 144.4 147.4 144.6 142.6 142.8 144.3 146 147.4 150 151.2 153.6 157.7 158 158.2 160.2 162.2 165.3 168.6 169.4 170.2 171.5 173.5 176.1 176.9 178 178.4 178.2 178.6 182.1 184.7 189.3 191.6 191.6 191.6 195 199.2 204.6 209.4 215.3 222 230.2 235.7 225 222.1 226.4 233.5 238.1 235.4 223.7 234.3 239.8 243.5 232.3 242 242.6 248.7 262.1 268.5 273.9 274.2 276.7 281.1 287.2 293.5 299.8 305.9 312.7 316.9 316 306.3 299.4 296.7 298.5 303.3 307.5 312.4 315.6 319 322.3 331.2 341.6 343.6 345.7 353.4 364.6 372.9 377.7 381.8 386 380.6 376.4 374.9 374.3 371.9 364.2 353.8 343.9 338.1 336.5 330.2 320.7 306.8 291.3 272.1 251.5 261.5 267.3 273.2 277.8 283.6 295.6 309.1 307.4 301.4 297.9 295.8 291.3 288.6 287.6 284.9 277.7 265.4 251.4 240.3 231.4 232.4 221 216.5 223.7 225.3 239.1 246.5 255.3 246.5 244 251.9 259 261.7 269.9 274.3 278.8
82.6 83 83.3 83.7 83.8 84 84.3 84.8 85 85.3 86.2 87.2 88.2 89.4 91.7 94.2 95.6 97.1 97.6 97.6 96.1 98.4 100.2 101.5 103.7 106.2 102.3 106.3 104.8 101.7 100.1 102.3 103.8 105.7 106.6 108.5 109.2 108.8 108.8 108.2 108 108.3 108.8 110.7 113.2 112.2 110.7 111 112.6 114.8 118 120.8 119.3 116.2 122.3 128 137.4 141.3 143.3 144.4 144.7 143.2 143.1 144.1 145 146.8 147.6 150 148.9 154.5 156.7 158 158.4 162.3 162.6 164.5 167.7 168.7 169.9 172 174.7 176.4 177.4 178.7 180.1 178.7 180.5 183.3 186.7 193.2 195.4 196.1 196.4 199.7 203.1 208.9 214.4 219.8 228.4 235.8 228.3 222.9 226.9 233.4 240.4 245.5 246.5 237.2 241.2 243.9 253.4 238.1 250.2 253.9 259.2 261 272.2 271.5 277.5 280 286.3 291.1 296.2 304.3 311.5 318 323 321.9 309.3 298.2 300.5 300.9 306.9 310.5 314.7 318.5 322.4 325.5 333.3 344.2 351.6 347.4 355 365.4 374.1 378.2 382.4 384.3 378.4 374.5 372 371.3 368.8 358.6 348 338.1 330.4 329.1 323.2 314.2 298.2 281.1 263.2 251.3 264.8 268.7 273.3 275.9 281.2 294.5 307.3 303.6 296.2 288 282 275.8 272.3 269.3 266.2 265 263.8 255 242.5 232.1 222.2 219.3 213.3 218 222.2 228.2 235.6 238.6 235.4 245.9 258.2 253.4 248 255.8 262.6 265.5
82.7 82.9 82.8 83.6 83.9 84.1 84.6 85.2 85.2 85.5 86.9 87.6 89 90.4 92.3 94.5 97 98.3 98.5 98.3 98.6 99.7 100.6 101.3 102.7 103.6 103.2 103.5 104.4 103.4 102.3 102.6 104.4 106.8 107.9 109.1 109.4 109.3 108.8 108.6 108.1 107.9 109 110.9 112.2 114.6 112.3 112 113.1 116.2 119.7 122.3 122.9 116.6 116.9 121.1 137.2 142.2 145.2 143.6 142.6 142.1 141.8 142.8 144.2 146.4 147.9 149.5 153.6 154.5 156.8 157.9 159.4 162.6 162.7 164.8 166.8 168.4 170 172 173.9 174.5 175.5 179.2 181.1 180.4 182.2 185.2 190.7 197.2 199.6 200.1 201.5 204 208.4 214.3 220.2 227.5 235.6 229.4 223.1 225.5 233.3 241.3 248.5 256 257.9 242 247.8 256.7 261.9 249.7 248.7 261.3 268 274.2 278.1 277 280.7 288 293.3 299.2 306 312.4 318.4 324.6 328.6 324.5 311.9 305.9 303.6 306.8 308 313.4 317.5 321.6 325.1 328.3 334.9 346 354.5 355.1 357.9 365.8 374.6 378.8 382.4 382.5 375.9 372.1 368.7 368.1 363 352.3 342.1 331.5 320.7 318.5 312.9 302.9 288.5 272.5 255.6 251.1 262.6 265.9 267.7 273.9 281.9 281.8 295.8 299.2 293 285 276 265.9 260.5 258.8 254.2 250.9 248 247.2 240 232.4 220.1 216.5 209.8 211.2 218.3 223.5 223.8 226.5 236.4 255.9 258.2 257.6 243.5 241.1 246.6 254
82.6 82.7 82.9 83.4 83.6 83.9 84.3 85.2 85.5 85.8 87 87.7 88.9 90.1 92.8 94.1 97.4 99.5 98.8 98.8 99.2 99.1 100.6 101.7 103.1 103.4 102 102.2 102.4 102.6 102.2 102.8 105 107.1 108.2 109.1 109.4 110.2 110 109 108.1 108.1 109.4 111.5 113.9 114.3 114.3 113.4 113.9 117.3 120.8 123.5 124.5 125.3 123.3 119.9 130.4 138.6 140.1 139.1 138.9 138.6 138.7 140.9 143.5 146 147.4 150.5 152.9 154.8 155.9 158 159.8 161.1 162.3 164.2 166.2 168.2 170.4 171.9 172.4 173.8 174.8 180.6 181.7 182.2 183.6 186.9 192.4 198.9 201.9 202.9 203.9 207 213.6 219.5 227 235.1 232.7 223.9 224 232.3 241.6 250.1 257.8 264.4 259.5 250.3 259.6 254.4 264.9 261.3 260.6 263.8 273.9 281.2 281.4 284.1 288.5 293.1 298.3 305 311.9 318.9 324.8 330.2 332.5 323.3 315.6 307.1 307.3 312.3 313.5 316.3 320.3 324.4 327.7 331.1 337.5 347.9 357.7 359.1 360.9 366.9 375.8 379.2 381.8 379.7 373 369.1 365.9 364.5 357 346.8 335.4 325.4 312.9 303.1 299.6 287.5 279.1 266.5 255 241.8 254.9 260.6 267.8 278.3 284 284.8 278.2 288.6 289.5 282.5 274.1 263.1 254 248.9 245.3 239.1 236.1 232.2 230.6 224 215.4 206.5 207.4 206.7 212.7 213.7 218.5 228.1 237.2 251.2 253 248.5 242.7 232.8 234.3 241.6
83 82.8 82.9 82.9 82.8 84.2 84.1 84.5 85.8 86.2 86.5 87.4 88.9 90.4 92.1 95 97.7 99.3 99.4 98.4 98.3 98.2 99.9 100.6 101.8 102.6 101.7 102.9 103.6 103.3 102.3 103.1 105.5 106.9 108 109.8 110.3 111.1 111.2 110.5 109.2 108.7 110.7 112.7 114.5 115.6 115.5 115 115 118.3 122.3 124.9 126.4 127.8 127 121.5 124.1 132.3 135 135.2 134.8 136.2 139.1 140.5 143.2 144.8 148 149.4 151.8 153.9 155.3 158 159 160.1 160.9 162.7 164.7 166.3 168 170.3 172.5 174.5 176 179.3 183.1 183.1 184.7 188.3 192.1 198.1 202.3 202.8 206.1 212.1 218.6 226.4 234.4 228.5 223.2 223.2 230 241.1 250.6 258.7 266.2 269.6 255.4 259.1 265.5 252.5 266.4 266.4 268.1 267.1 278.6 284.4 286.4 289.1 293.7 297.9 303.3 311 319.1 325.1 330.6 333.4 330.1 323 318.1 306.4 312.2 316.9 318 318.2 323.1 327.1 331.1 334.9 339.9 349.5 359.5 363.5 364 368.6 378.3 379.2 379.4 376.9 370.3 365.3 361.3 364.7 354.3 343.8 332.2 321.7 309.6 291.1 283 278.4 271.3 262.4 255.4 242.7 239.5 246.2 259.6 269.2 269.9 272 271.5 269.7 272.9 272.4 269.6 260.7 250 239.7 235.2 230.9 225.1 220.4 216.3 212.6 205 200 200.7 205.2 210.1 210.1 216.1 223.5 236 248.7 242.1 236.2 236.9 233.7 222 228
83.2 83.2 83.4 84.1 84.5 84.7 85.7 86.3 85.1 86.2 86.7 87.5 88.7 90 90.4 93.8 96.6 98 99.3 98.5 99.2 99.3 98.7 99.1 99.9 101.1 101.8 103.7 104.3 103.7 103.3 105.4 105.5 106.4 109.1 109.6 110.9 111.6 112.4 111.6 110.5 110.1 111.7 113.6 115.5 116.9 116.7 116.2 116.4 118.5 123.4 126.6 128.4 130.7 131.1 120.5 125.7 130.8 130.4 131.4 135 136.8 133.5 136.4 142.5 145.4 146.5 148.5 150.3 153 154.7 157.2 158.7 157.3 160 160.9 162.2 165.6 168.7 172.1 173.4 174.3 175 179.1 183.6 184.6 185.9 189.5 193.5 200.7 202.8 204.6 209.7 216.5 224.9 233.3 227 221.6 222.4 228.3 241.5 250.7 260.2 267.2 272.8 269.2 255.2 266.1 268.7 259.4 268.2 270.6 276.1 279.9 282.4 286.2 290 294 298.7 303.1 309.5 318 325.5 331.3 335.9 336.5 329.4 324.2 318.5 320.1 319.6 321.3 322.7 323.9 326.6 330.4 334.1 338.2 343.2 352.1 361.1 366.6 367.2 372 379.7 381 376.2 371.6 364.2 359.7 357.1 359.5 349.5 340.2 330 321.5 313.1 301 285.5 270.3 264 257.1 245 248.4 242 235.5 234.2 233 233.3 239.2 259.5 257.1 254.7 255.4 254.9 252.4 244.7 235.4 227.7 221.5 213.5 208.2 201.1 199.6 198.9 198.7 197.3 200.8 201.8 207.2 213.5 220 233.6 244.7 234.2 231.7 233.4 236.4 222.3 216.3
