ncols 200
nrows 82
xllcorner 290000
yllcorner 810600
cellsize 50
224.6 228 228.6 230 228.9 224.6 224.1 224.5 222.7 226.4 227.4 230.8 214.4 217.7 218.3 210.8 208.6 209.1 211 212.4 213.1 213.5 213.4 216.8 220.8 222.1 221.8 223.2 223 220.3 215.8 215.2 215.4 217.9 218.7 219.6 218.3 211.8 209 208.6 208.6 208.6 208.6 207.6 206.8 206 205.8 201.5 201.5 204.6 205.8 204.7 217.7 219.1 218 218 218.3 218.5 218.6 218.1 217.8 217.9 217.8 216.6 214.4 216.4 222.6 221.2 218 218.1 216.6 217.7 221.2 217.5 216.1 217.3 217.7 220.1 227.8 215.6 216.5 213.3 213.7 215.9 222.7 225.7 225.6 233.6 233.7 234.8 235.6 233.8 232.6 233.2 231.9 231.1 234.4 235 235.8 232.8 237.6 242.6 246.2 253.6 260.1 261.3 263.5 267.5 268.1 268.1 267.9 267.3 267.3 266.8 265.8 265.2 265.5 264.9 274.2 277.5 288 295.2 304.1 313.7 317.7 320.8 323.6 324.6 326.3 328.7 329.1 327.3 327.2 329.3 330.8 331 334.4 337 340 346 350.5 353.8 361.3 365.8 367 373 373 375.1 375.8 374.5 370.2 367.1 365.2 360.8 357.4 355.3 354.1 352.6 354.8 354.3 358.9 361.2 361.6 362.6 364 365.4 366.5 365.8 367.1 368 369.2 370.8 371.5 371.5 372.3 373.2 373.3 374.5 375.6 374.9 372.5 372.9 374.7 374.6 376 381.5 385.3 387.3 388.6 389.1 389.3 388.4 388.5 387.8 387.4 389.1 389.5 390.7 390.1 389.2
223.5 223.2 225.2 225.6 225.4 224.4 224.3 222 222.1 221 223.3 217.8 214.5 217.4 210.6 208.3 207.6 208 208.4 212.3 215.5 216.2 213.1 213.2 219.9 220.9 221.6 220.8 220.2 217 213.5 212.8 215.8 216.3 215.7 212.8 210.1 208.1 208.7 208.2 207.5 207 207.4 206 205.3 204.9 202.6 201.5 204.6 204.6 205.8 215.6 215.9 216.1 217.8 217.6 217.5 215.8 216.1 216.6 217 216.7 216.2 215.5 214.8 218.6 223.1 224.2 222.1 221.9 220.2 217.2 216.9 218.9 215.9 217.5 222.7 223.9 225.5 219.8 217.3 226.5 219.9 223 225.9 228.7 235.1 236 236.8 240.1 238.2 233.8 239.5 240.3 235.1 234.6 235.7 238.2 237.2 240.5 244.8 248 253.3 263.8 267 263.9 269.1 269.8 270.1 270.2 268.9 268.3 268.2 267.3 267.6 266.7 268.5 274.6 280.8 290.3 296.3 306.4 313.2 318.5 323.7 329 330.9 333.9 333.4 332.6 332.6 334.9 334.1 333.5 336.8 335.4 338.3 342.2 346.7 350.7 357.6 364.6 367.7 372.8 377 382 382.7 383.4 381.8 377.8 375.4 372.6 369.3 366.2 361.2 357.1 358.8 355.4 357.4 358.9 361.8 364.7 365.5 366.6 368 369.7 370.2 370.5 370.7 370.7 372.3 373.5 374.5 375.1 374.7 376.5 376.9 377.8 377.8 376.9 374.9 378.9 379.1 380.5 385.8 388.2 390.3 392.9 395 395.3 394.9 394.8 395.1 394.9 393.5 392.3 393.7 394.6 393.5 392.6
221.6 221.9 222.6 223.3 224.1 224.6 223.7 221.3 221.9 217.8 215.9 215.9 215.6 214.1 212.9 212.8 209.6 208.4 208.1 207.8 210 213.4 217.3 215.8 214.6 219.6 220.5 219.3 218.2 213.8 211.4 212.2 213.2 210.5 209.2 206.5 206.4 206.8 206.5 206.1 206.1 206.1 205.8 204.5 204.1 202.6 201.5 205.6 205.8 204.5 206.7 214.3 215.8 216.3 216.6 217.3 216.2 216 215.8 215.9 216 216.4 216.5 218.9 222.5 222.5 226 227.4 229 226.6 224.6 219.1 218 218.4 221.1 226.1 223.9 225 226.1 229.5 220.2 222.1 224.6 230.2 234.9 236.7 234.6 231.5 233.9 241.2 242.5 246.4 252.4 253.3 248.9 246.1 239.3 243.4 246.3 249.9 253.1 261.5 264.5 270.3 270.9 271.3 273.5 274.7 276.1 275.8 273.2 272.9 276 272.4 272.5 279.7 275.8 284.3 295 299.5 308 316.1 319.6 321.8 329.5 334.3 336.2 337.5 337.9 340.8 340.9 339.3 339.5 340.3 342.6 343.4 344.6 347.8 350.5 357.4 364.8 371.9 376.6 382.1 385.3 390.9 388.9 389.5 386.9 383.5 379.6 375.5 373.8 369.5 366.7 363.6 359.6 358.1 360.1 363.5 366.8 367.7 369.6 370.5 371.5 374.2 376.5 374.9 374 373.9 376 378.2 378.5 378.3 377.5 379.3 380 380.3 379.9 378.6 380.2 384.9 386.6 387 390.4 392.7 394.9 396.1 397 397.5 397.2 397.9 398.3 398.2 397.6 396.5 397.1 396.9 395.7 394.5
218.7 219.1 220.7 222.1 224 218.7 218.5 215.9 217.5 218.2 215.8 220.3 217.9 214.4 209 206.2 204.1 205.2 207.6 207 209.5 209.9 211.5 214.9 217 216.4 216.9 216.3 216 214.4 208.9 206.1 205.7 202.3 202.3 202.3 202.3 202.3 202.3 206.2 205.5 205 204.3 204.5 203.9 202.6 203.8 207.9 210.4 206.3 204.9 210.4 217.1 217.3 216.7 217.6 217.2 216.7 215.9 215.9 216.2 217.2 221.9 225.6 227.9 229.9 232.3 234.1 234.6 231.7 226.1 222.3 222.2 219.9 221.3 225.5 227.5 227.4 228.8 227.6 228.6 225.2 224.4 230.7 234.7 233.2 234.8 234.1 236.7 242.1 245.1 246.1 249.8 251.8 256.6 264.3 262.5 252.4 254.9 264.6 269.3 272.7 270.9 271.7 280.5 285.2 287.5 286.5 286.2 285.7 282.7 285 284.3 286.1 283.8 284.4 289.6 293.2 304 311.8 320.5 327.1 326.3 330.9 334.7 339 340.3 341.8 346.3 345.5 349 346.6 346.7 347.9 347.5 348.3 350.1 351.6 358.4 366.7 371.5 378.9 385.3 391.7 395.7 400.9 397.6 396.5 391.3 385.6 380.5 377 374.6 373.5 369.9 367.3 363.3 360.3 363.4 366.5 368.9 370.7 373.4 373.2 373.7 375.6 378.2 377.3 377.3 377.2 379.2 381.1 381.4 381.2 380.8 381.7 382.3 382.9 384.2 386.5 382.8 389.4 390.5 391.8 394.4 396.7 398.5 399.7 400.6 401.1 402.5 402.2 402.2 400.3 399.6 399 399.5 399.1 398.3 398.2
220.3 219.1 220.4 222.9 219.4 215.6 220.4 212.3 215.4 213.4 220 218.3 218 211.9 207 206.4 205.3 204.1 204.1 207.5 209.4 207.7 209.5 212.8 215 215.4 212.4 210.9 207.2 205.1 202.3 202.3 202.3 204.3 206.7 205.9 204.9 204.7 205.2 202.3 201.5 204.2 204.5 204.2 202.1 201.5 217 215.5 212.8 209.9 205.7 205.7 215 215.9 219.2 219 218.4 216.5 215.7 216.8 221.2 228.1 228.1 231.4 235.5 235.9 237.2 241.4 240.1 233.5 227.6 226.9 227.5 223.5 222.8 228.5 229.3 228.5 228.5 229.9 230.6 229.4 225.3 232.7 235.6 235.8 240.6 238.2 245 246 247.6 253.1 255.7 255.5 259.2 259.2 257.5 258.3 270.1 275.4 275.5 280.2 289.3 298.7 305.8 305.6 304.6 301.9 297.3 298 297.2 297.2 297.2 298.5 297.1 299.1 300.4 304.1 312 320.4 325.5 329.8 334.6 338.9 341 345.5 346.9 347.9 349 353.3 351.7 351.3 350.9 350.5 349.3 352.4 355.4 359.9 365.7 372.5 379 384.4 392.1 398.6 406 410 405.3 403 398.3 390.3 386.2 381.9 377.1 374.3 372.1 370.9 368.7 365.7 366.9 368.6 370.2 372.8 375.9 376.7 377 377.5 378.5 378.4 379.6 381 381 382.7 382.9 382.9 383.4 384.1 385.2 387.4 390 392.4 391.8 390.4 394.5 395.6 397.5 399.6 401.8 404 406.6 406.8 408.3 409.3 407.9 406.7 406.7 405.8 404.5 401.5 400.1 398.9
218.1 217.7 220.2 222.4 220.2 218.2 214.2 213 217 216.7 221.3 218.1 219.7 210 207.1 207.4 204.7 205.5 208.4 210.4 211.1 208.4 210.6 207.9 206.4 205.7 205.1 205.2 203.8 202.3 202.3 206.7 206.2 206.1 206 204.7 203.7 204.2 204 204.6 204.8 201.5 201.5 201.5 201.5 217.7 211.8 209.8 208.9 208.5 205.9 205.3 206.5 209.5 216.8 218.6 217.7 216.1 216.3 222.5 230.2 239 246.2 246.8 251.5 251.7 247.5 246.7 240.4 233.2 231.9 231.7 233.9 229.3 229.8 231 231.6 231.5 231.3 231.2 233 234.3 234.3 235.6 238.1 241.5 241.4 245.3 248.6 252.6 256 258.2 257.9 259.6 263.8 267.2 265.1 272.7 278.1 282.1 290.8 302.5 320.1 330 328.7 324.3 321.1 318.2 318.4 315.7 313.6 310.3 312 310.8 308.5 307.9 307.1 310.8 318.5 326.1 331.8 336.6 340.6 345.2 348 351.2 354 355 356 356.8 354.9 355.2 353.5 353.3 356 357.2 361.7 369.5 374.5 377.8 383.7 391.5 398.5 404.7 413 415.7 411.1 407.6 400.7 394.9 389 385.1 381.6 378.8 377 374.5 373.9 369.4 370.5 372.3 372.5 375.8 378.9 380.7 380.9 380.2 380.7 380.3 380.2 381.7 382.7 384.1 385.2 385.6 387 388.4 390.5 393.5 395.6 396.7 396.8 394.6 397.2 398.8 400.6 403.4 406.7 409.6 411.4 413.2 413.1 412.7 411.1 410.1 407.3 408.6 405.8 402 402.5 402.4
217.2 220.7 221.3 220.3 218 219.1 220.1 216.4 218.4 220.7 222 219.2 212.8 210.2 210.5 207.5 207.9 210.4 212 214.8 214.2 207.8 205.9 205.9 207.5 204.3 206.2 202.4 202.3 205.8 205.6 205.2 204.4 204.5 205.3 204 203.8 203.7 203.2 203.8 204.3 204.1 202.3 211.4 220 212.7 207.3 206.6 206.7 206 205.3 205.5 207.5 208.2 212.5 216.9 216.5 216.6 220.2 228.7 240.8 252.7 258 264.7 272.3 266.4 258.9 252 241.6 238.8 239.6 239.9 243.4 240.3 236.6 237.1 235.3 236.4 235.6 231.8 234.2 237.2 240.8 242.4 244.3 247.6 249.6 251.5 257.2 259.4 261.7 262.3 266.1 265.9 268.5 269 279.1 286.6 291.2 299.9 311.2 325.4 335.7 339.2 337.5 335.7 337.2 337.8 335.9 331.6 331.4 325.6 325.6 325.4 323.1 322.4 325.3 329.4 335.3 340.9 345.9 351.4 351.9 352.9 354.5 356.4 359.8 362.6 363.2 361.1 359.8 358.6 358.1 359 361.9 366.4 371.7 373 379.6 384.1 388.6 396 403.1 411.8 419.9 422.1 417.6 411.6 405.4 400.4 395.6 391 387.1 384.8 382.6 380.2 378.2 374.6 379.3 378.6 377.9 378.2 380 383.9 385.2 382.9 382.9 382.3 381.5 382.7 384.9 387.9 388.9 390.3 390.6 395 396.2 398 399 399.8 400.5 399 400.7 402.3 404.8 408.1 411.5 414.1 415.9 417.5 420.2 420.6 418.7 414.6 411.5 413 412.5 412.3 409.1 409.5
217 223.3 215.5 217 216.1 216.7 219.6 222.5 222.7 222.9 218.9 219.4 211 210.9 211.6 210.1 209.6 210.7 212.6 214.4 208.2 205.2 203 202.3 202.3 202.3 202.3 204.1 206.6 206.6 206.5 205.7 205.5 205.2 204.4 203.3 203.3 203.8 203.6 203.8 204.1 205 216.9 221.4 217.2 209.4 207.2 206.2 205.8 205.5 205.9 212.2 219.2 211.3 213.9 217.1 218.1 219.9 227.2 240.9 250.4 259 265.6 274 280.4 272.7 268.4 257.4 250.6 250.8 249.5 248.6 249.2 249.4 244.3 241.9 244.6 242 238.3 233.4 236.7 242.6 246.6 250.3 253.2 263.2 268.5 263.6 277.2 277.6 277.8 276 273.9 273 275.3 278.8 292.9 302.5 320 331.7 342.8 340.7 346.7 350.4 355.7 360.3 359.4 357.4 352.5 350 351.4 345.7 346.3 341.7 341.5 344.5 347.8 350.6 356.7 364.8 370.1 367.9 369.6 368.8 368.6 367.9 371.1 374 373.7 372 371.4 366.6 367.9 369.9 372.4 375.1 379.2 384.2 389.8 390 392.2 402.5 408.1 415.5 423 426.8 419.5 413.5 409.6 403.6 399.7 395.2 391.9 389.8 387.4 386.1 383.2 377.8 382.8 383.9 382.9 383.8 385.2 385.4 385.5 384.5 384.6 384.7 384.8 385.7 390.4 391.1 393.4 393.3 395.2 398.2 399.5 401.1 402.1 403.2 405 404.2 404.9 405.9 409 411 415.2 418.3 421.2 423.7 424 423.5 423.2 426.4 425.9 423.5 420.9 418.4 416.6 414.4
217.3 217.4 221.2 215 215.2 216.6 219.9 223.5 223.5 221.3 221.1 214.6 212.3 213.1 213.1 211.9 211.1 210.4 209.3 202.6 202.3 202.3 205.3 205.2 205.6 204.8 205.4 208 209 210.1 209.4 207.5 205.8 206.4 204 203.7 204.3 203.9 203.7 205.1 215.2 213.9 220 220.7 215.7 214.4 206.9 206.1 205.6 206.6 214.7 222.3 221.1 212.9 215.8 219.3 221.1 227.5 241.9 249.6 256.2 264.9 277.5 287.9 285.9 278.9 276.9 262.8 259.7 259.4 259.7 259.2 261.1 257.3 253 249.8 250.4 251.5 243.4 234.8 241.1 249.5 255.6 262.8 273.9 280.8 283.2 282.1 294.3 293.2 297.3 290.1 280.9 284.5 283.7 282.8 301.3 312.6 328.9 346.9 358.5 366.3 368 371.6 374.5 376.8 378.7 383.2 375.3 372 372.3 370.9 363.3 363.6 365.2 369.9 374 376.4 378.7 382.8 391.2 390.5 394.8 395.3 391.3 388.7 386.7 386.8 386.5 383.7 380.9 379.2 378.1 378.7 380 383.3 390 394.6 395.5 398.5 399.3 409.7 413.4 420.2 426.1 422.2 419.1 418.5 413.4 406.9 403 399.8 395.7 393.5 391.8 389.6 387 383.8 384.2 389.7 390.4 388.9 389.4 388.9 388.7 390 391.9 392.8 390.9 391.2 392.8 394 395.4 396.7 399.6 400 403.3 404.1 406.2 407.5 408 406.7 407.7 411.1 412.5 413.7 418.4 421.9 425.1 428.4 430.9 433.8 436 435.6 434.1 432 429.8 426.3 424.1 421.8
220.2 220.1 218.7 218.2 216.6 220.8 221.7 221 221.1 219.5 218.1 215.7 214.5 213.6 213.4 215.7 213.1 202.3 202.3 205.3 206.1 206 205.5 205.5 205 205.9 209.9 210.2 209.9 210.2 210.2 213.1 215.6 215.7 208.8 203.7 203.4 204.3 204.8 219 218.1 219.7 217.5 216.4 208.7 205 205.6 209.4 212 212.1 213.6 221.2 221.6 218.6 219.7 222.9 228.3 240.8 252.5 258.5 268.2 278.4 292.4 292.7 293.2 286 279.7 268.9 270.3 270.9 272.1 270.5 268.3 265.4 263.7 261.9 261.6 259.6 242.2 236.4 250.7 261 273.5 280.3 293 297.1 302.3 303.3 308.4 310.8 308.5 303.5 293.9 292.8 297.8 292 313.2 324.6 337.4 351.9 363.9 372.6 379.9 382.8 389.5 394.9 400.6 402.3 403.6 403.1 399.9 393.3 386 388 393.6 391 400.4 413.5 410.9 406.1 409.1 417.7 429.2 424.2 415.5 415.2 407.3 402 397.7 393.8 391.5 388.8 386.4 386.6 389.3 392.7 397.9 403.1 398.5 406.9 406.4 414.6 416.6 421.6 423.5 422.9 422.8 419.5 413.6 411.3 407.5 403.6 401.8 398.6 396.1 392.9 391 390.7 386.3 391.1 390.7 390.6 390.8 391.7 393.4 394.8 397.4 395.4 395.2 393.7 393.8 395.4 396.9 402 403.4 403 407.2 408.8 410 410.8 410.9 406.7 411.2 413 414.8 416.7 420.5 424.9 429 433 436.2 439.5 441.9 442.7 441.5 439.5 436.5 433.6 429.8 427.2
220.7 219.7 219 218.6 213.8 218.8 220.2 219.7 218 218.9 217 215.3 213 214.2 212.2 214.2 202.3 204.7 206.2 205.4 204.7 205.1 204.8 204.7 204.4 210.9 211.4 210.1 210.4 210.9 213.3 217.1 217 216.9 219 208.5 203.8 209.2 219 220.9 214.1 210.1 205.4 206.3 207.9 216.2 218 220.7 210.5 209.6 213.6 222 222.4 222.5 225 233.6 243.3 253.8 260.4 267.5 279.7 293.3 299.1 301.7 297 289 287 282.2 284.6 285.1 284 282.2 279.4 274.7 273.5 271.8 267.5 262.5 250.3 237.7 254.9 273.3 292.4 300.7 305.7 312.6 317.6 320 325.4 329.6 321.7 313.5 308.5 313.8 314.3 302.4 313.9 330.9 346.7 359.3 367.4 374.9 383.6 389 396.5 407 417.4 422.8 430.9 428.1 423.3 413.2 408.9 408.2 408.7 414 430.5 450.1 448.1 441.9 435.8 444.7 453.4 448.6 444.2 436.6 429.7 423.3 414.8 409 403.9 400.7 397.2 395.7 398 402.3 407.3 409.8 406.2 412.2 411.5 418.9 420.9 425.4 426.5 426.1 426.7 420.7 418.3 415.5 413.4 411.5 407.7 403.3 400.8 395.8 392.8 392.2 391.5 391.1 391.9 392.5 393.4 394.9 396.1 399.1 400.1 400.5 400.3 398.5 396.5 397.4 402.3 404.6 409.6 408.5 409.9 412.4 413 413.4 413.1 411.2 412 415.4 417.4 419.2 422.8 427.8 432.1 435.8 440.8 444.3 448 448.5 447.6 445.4 442.6 438.9 435.3 431.3
221 220.7 219 218.6 213.1 216.5 220.5 220.7 218.2 217.9 217.8 216 213.4 209.5 209.4 202.3 205.9 206.5 205.6 204.8 204.6 205.6 205.2 205 211.4 211.1 210.6 208.9 210.9 214.1 217 217.1 217.7 217.1 217.6 222.9 222.2 217 211.1 210.5 209.8 205.8 208.4 213.2 215.3 218.8 223.4 218.5 209 210.9 218.1 222.6 224.2 236.6 242.6 251.4 257.8 264.5 272.8 283.2 289.7 299.5 303.9 307 301.7 297.4 293.9 291.3 296.5 297.2 294.1 293.6 294.4 285.8 282.1 278.2 273.9 267.6 257 241.7 256.5 277.5 300.6 314.7 325.3 331.2 330.2 339.1 340.3 341.2 330 324.9 320.6 325.5 325.8 323.4 317.2 331.9 347 362 372 379.5 386.6 393.9 401.9 413.7 424 436.7 441.4 444.6 443.2 433.7 431.2 432.5 436 436.9 448.4 470.4 471.9 463.5 465.2 471.7 477.7 479.1 475.5 462.8 451.6 445 436 427.7 423 416 411.7 406.3 408 412.2 415.6 417.7 415.2 418.8 420.5 423.2 426 428.1 430.8 433.4 431.3 430.6 425.9 421.2 417.4 415 412.2 408.1 404.8 403.4 400.2 395.9 394.8 394.1 395.8 396.2 396.3 397.2 398.6 399.8 402 403.7 402.7 398.5 400.3 404.4 406.5 409.9 412.7 412.6 414.7 415 414.8 415 415 413.7 411.5 417.7 420.2 422.3 424.6 429.4 433.5 437.9 443.4 447.5 449.2 452.6 453.2 451.8 448.7 444.5 439.3 436
220.7 220.3 219.1 217.6 216.9 211.1 211.8 213.3 211.2 212.7 214.3 213.3 210.7 207.8 202.4 205.4 206.9 205.2 205.1 205 204.6 205.2 204.6 210 208.2 208.5 209.4 209.6 213.1 215.5 217.7 218.2 217.7 218.8 221.1 222.2 221 212.5 211 207.6 205.6 205.6 205.6 205.6 206.6 210.9 213.1 215.1 215.8 220.3 223.3 225.3 238.5 252.5 264.6 267.3 272.6 282.4 287.8 295.4 300.5 308.3 313 310 308.9 307.8 305.8 306.1 306 302.4 309.6 310.7 302.5 295.4 290.9 283.5 275.9 270.9 261.5 238.7 256.6 276.6 295.9 316 334.2 333 342.2 351.9 356.5 349.6 339.8 334.1 331.6 334.2 336.2 338.5 340.6 340.4 352.5 363.1 375.2 384.2 391.9 402.3 413.9 422 430.9 441 449.8 459.3 462.9 456.6 459.2 456.3 459.5 462 467.8 478.2 482.4 493.5 492.4 489 492.4 498.7 502.4 478.7 471.2 463.3 453.9 448.1 440 433.7 426.7 422.5 421.6 420.7 425.6 428.4 426 429.8 433 434.8 434.5 435.2 439.5 439.5 437.4 433.6 429.9 425.9 423.9 420.6 416.6 412.7 409.4 406.8 405.4 403 399.1 398.1 402.4 404.8 402.6 399.2 400.4 401.6 403.4 404.5 401 400.8 407.7 408.4 410.4 412.9 415 415.8 416.6 417.4 416.6 416.8 416 416.1 413.2 418.7 423.2 425.2 426.8 430.9 434.9 438.7 442.7 447.9 451.4 453.8 454.7 454.3 452.4 449.1 443.4 439.6
220.6 219.9 219.6 219.3 217.8 216.6 216 213.1 212.9 212 208.7 206 208.6 204.3 202.3 207.2 206.4 205.7 206.6 205.5 204.6 204.4 204.4 206.8 206.5 208.4 210.6 213.6 216.3 216.8 218.7 218.1 221.9 221.6 220.3 222 220.4 209.2 208.3 206 205.6 205.6 205.6 205.6 205.6 205.6 205.6 209.5 215.6 225.4 225.1 231.1 247 263.7 271.6 281.2 293 304.9 302.2 309 312.5 316.8 319.9 318.1 321.2 318.5 319.5 321.1 319.1 319.6 320.4 315.6 305.3 303.3 294.2 285.8 278.3 272.1 261.7 242.8 255.1 275.4 292.2 311.8 327.8 337.5 340.4 352.9 359.7 356.8 350.8 344.2 341.9 344.3 348.4 350.3 349 339.7 356.9 367.3 378.7 389.1 397.6 410.3 421.9 431 439.1 458.4 472.4 481.7 482.6 480.8 489.9 488.3 482.4 482.9 491.8 510.6 505.5 516.4 521.3 518.5 510.6 506.6 505.3 493.5 495.6 484.2 473.9 473.4 459.3 452.8 444.1 441.3 436.1 434.5 436.4 438.9 437.8 437.6 440.9 443.3 444.4 445.9 447.1 446.9 444.7 441.1 438.8 436.6 432.6 428.2 423.9 418.2 415.3 412 408.3 404.9 402.7 399.7 403 404.4 407 406.7 402.7 403.9 405.3 405.2 405.6 409.9 415.1 414 414.7 417.8 420.7 420.3 418.1 419 418.5 419.1 417.8 417 415.3 418.4 421.4 424.2 426.9 431 434.8 437.8 441.4 446.2 449.5 452.2 453.5 454.4 452.8 449.9 445.6 443.3
220.2 219.7 218.9 215.4 215.4 214.2 215.6 214 214.4 214.8 215.1 214.6 210.5 207.4 202.3 206.3 206.2 207 208.7 206.5 207.8 210.5 210.4 210.8 210.7 211.1 211.5 216.3 216.8 218 219.5 223 222.4 222 221.7 222.8 222.3 217.8 205.8 206.2 205.6 205.6 205.6 205.6 205.6 205.6 205.8 213.7 221.3 220.8 224.6 237.8 253.1 266.5 277 293.5 313.3 320.8 323.1 322.8 322.5 323.3 325.6 334.4 334.1 336.1 334.3 336 335.4 334.8 329.5 319.8 309.9 302.4 293.3 284.9 277.8 266.4 259.8 244 251.5 272.9 291.3 312.6 327.7 340.5 349.4 352.2 355 359.9 364.9 357.2 355.3 355.7 358.2 359.5 356.8 346.2 360.5 373.1 383.6 393.5 406.6 417 426.9 440.1 448.6 469 484.5 495.3 496.2 502.3 511.7 512.3 511 512.8 525.1 540.4 545.1 538 542.8 554.5 541.8 527.6 519.2 514 512.2 501.7 493.1 485.8 480.3 478.4 461 453.1 451.2 451.4 450.5 449 447 445.8 448.1 450.9 451.5 452.9 455 453.4 452.6 452.1 449.2 445 440.9 435.6 431.2 428.4 423.7 423.7 417.3 413.6 410 410.5 407.3 407.2 408.3 409 406.9 406.2 406.6 407.3 408.5 414.4 415.3 417.4 419.2 421.8 424 425.5 423.3 421.3 421 421 419.9 418.1 417.7 418.7 421.6 423.8 425.1 430.4 434.7 437.4 440.7 443.6 446.5 449.8 452.3 452.4 452.4 449.3 443.7 442.7
218.2 218.6 217.4 215.1 214.4 214.4 214.5 214.2 214.6 214.9 213.7 209.9 207.5 207.5 202.3 206.7 206.3 207.4 209.3 209.3 210.5 210.7 210.3 211.6 211.5 210.9 213.5 215.8 216.6 220.6 223.7 223.5 222.9 222.6 223.3 223.3 223 221.9 210.3 207 205.3 205.6 205.6 205.6 205.6 205.6 205.6 206.4 212.5 222.7 232.4 244.7 258.2 272.2 285.4 304.6 317.2 333.1 345.8 336.7 332.7 330.1 335.9 341.4 345.8 347.8 344.4 345.6 351.8 357.9 344.3 328.4 318.7 306.2 294.9 285.7 278.5 268.9 265.9 253.6 247.8 265.7 286.9 309.3 327.7 341.2 350.9 358.6 361.2 368.6 374.2 375.8 373.2 369.4 366.6 368 366.5 353.1 367.9 379.3 388.2 397.4 409.9 422.3 434.3 448.2 457 471.6 490.7 502 505.5 516.9 523 527.7 533.7 544.9 550.4 565.6 566.1 568.9 571.4 572.4 562.3 547.9 535.1 531.8 526.5 524.1 517.5 504.7 494.2 495.5 475.4 467.8 463.8 463.7 462.8 458.7 456.2 448.9 455.4 458.4 460.8 463.1 464.5 465.4 464.6 461.5 457.5 453.7 449.3 444.6 441.9 438.6 433.7 426.9 423.4 417.3 413.5 412.7 411.3 409.8 409.7 410.1 408.2 409.3 409.4 409.4 409.1 413.4 415.6 421.3 423.1 425.1 427.3 428.7 429.4 427.9 422.6 422.3 421.4 419.2 419.7 421.7 425.4 427.8 429.8 431.6 435.9 437.5 439.6 442.2 444.6 447.4 449.4 449.5 448.4 446.7 442.9 440
217.9 218.5 214 213.4 213.2 215.8 215.3 214 214.2 214.5 211 210.6 207 205.1 202.3 204.7 205.7 206.8 209.6 209.9 212.1 211.6 211 211.7 210.9 210.8 214.7 215.7 218.3 223.2 223.7 224 223.6 223.8 223.5 224.3 224.2 223.1 210.9 206.4 205.9 205.6 205.6 205.6 205.6 205.6 205.6 205.6 216.9 228.5 239.2 251.7 264.9 278 296.9 319.7 332.3 350.6 351.5 348.6 341.9 339.5 350.1 355.4 359 359.3 354.1 352.6 351.6 359.2 345.6 328.2 317.6 309 296.2 287.2 278.9 269.7 267.7 260.4 245 260.8 286.8 310.3 328.5 344.6 357 358.4 361.7 369.2 377.1 397.2 388.5 388 381.1 378 376.7 364.3 372.5 382.5 389.6 400.6 408.3 423.8 439 452.5 463.2 480 493.4 504.9 512 521 528.6 538.3 554.3 564 581.3 586.3 588.6 583.7 592 597.6 589.5 582.5 563.4 553.1 545.9 541.1 534.6 521 512.2 505.3 496.7 484.1 479.1 474.8 470.8 467.8 464.9 457.9 463.6 465.5 469.2 473.6 478.3 480.5 480.9 475.9 468.6 463.4 457.9 454.7 450.6 446 440.5 435 428.5 424.4 418.5 416.1 413.7 413.2 412.9 413.3 413.5 413 412.7 413.7 411.5 412.9 416.7 422.5 424.9 427.1 429.3 431.8 431.9 430.2 427.2 423.5 420.9 422.3 423.4 424.8 427.5 431.6 431.1 431.1 436 436.9 437.6 440.9 443.5 445 445.5 446.1 445.8 443.2 440.4 437.8
217.6 216.9 214.5 213.2 213.4 212.9 212.8 212.6 213 210.3 211.3 211.3 207.1 210.3 206.5 202.3 206.6 206.7 209.6 211.2 212.7 212 211.1 211.7 211.6 211.1 215.3 217.6 219.5 223.1 224 224.4 224.5 224.6 224.3 223.1 224.2 222.2 215.6 210.3 205.6 205.6 205.6 205.6 205.6 205.6 205.6 211 226.5 237.1 250.7 263.7 277.3 294.1 318.2 334.7 340 357.7 356.8 350.6 349.4 358.2 367.9 371.1 370.5 366.1 361.7 359.2 356.4 351.7 342.9 329 315.7 304 296.2 288.1 281.6 272.7 275.9 264.8 245.3 255 283.2 306.5 326.5 346.1 362.4 366.2 371.9 377.8 385.9 402.2 405.5 402.5 393.6 386.9 383.1 373.9 377.9 388.4 398.2 404.7 413.3 420.9 438 451.5 466.8 486.1 497.3 509.1 518.3 526.4 533.4 550.5 564.8 580.1 595.3 598.5 605.6 609.5 607.9 618.4 619.3 604.6 589.7 588.8 572.7 555.6 547.5 539.1 532.9 525.9 514 502.8 491.8 485.9 482.9 478.4 474.1 470.1 472.8 475.4 479.6 485.8 492.9 498.2 496.2 492 484.3 478.6 470.7 464.7 459.2 452.6 448.1 443.5 437.9 431.7 425.4 423.7 418.8 416.7 416.1 416.5 416.7 416.5 418.8 420.8 418.7 419 417.5 421.6 427.9 428.6 431.3 432.7 433.1 432.2 428.6 426.3 426.5 429.2 427.8 430 429.7 434.1 433.5 432.5 434.4 435.8 436.4 439.1 442 442.9 443.3 441.5 440.2 438.1 436.3 433.7
217.9 216.6 215.2 214.6 215.6 211.8 212.8 211.6 211.1 210.8 212.3 210 207.9 206.6 205.6 202.3 202.3 205.9 209.5 211.4 212.4 211 211.5 211.7 211.1 210.8 216.7 219.1 220.7 223.1 222 223.7 224.6 224 224.1 222.3 219.1 212.3 208.9 205.6 205.6 205.6 205.6 205.6 205.6 205.6 205.6 223.4 236.8 250.3 265.9 278.4 293.4 317.5 348.8 351.4 355.7 363.2 359.1 357.1 361.3 378 388.3 388.2 382.4 375.4 376.1 370.2 364.3 358.3 349.2 334.9 320.4 306.4 299.9 291.3 282.5 275.6 278.8 269.2 249.1 252.5 275.5 299.2 320.6 341.6 360.1 367.1 382.5 393.2 396 397 402.7 408.6 400.5 392 387.3 385.8 382 397.1 402.9 409.4 418.1 426.3 437.6 450.2 466.5 482.8 496.5 506.9 520.3 530.1 538.8 562.3 577.6 588.9 602 614.3 621.3 629.4 628.9 634.9 634.7 634.8 621.8 604.1 594.8 581.6 568.5 561.2 555.7 544.5 534.1 519.6 505.5 498.2 492.6 487.4 483.4 479.7 481 483.7 492.4 500.2 512.3 518.9 514.7 504.1 496.3 489 479 471 465.6 458.9 453.6 449.4 446.1 440.6 431.5 428.3 426.7 424.4 421.4 418.4 419.4 418.8 420.8 422.8 423.2 425 419.9 426 429.5 432.6 433.4 432 434.5 433.3 433.8 427.2 427.3 433.7 434.1 433.7 432.7 434.3 433 432.3 433.6 434.6 435.4 436.4 439.4 440.8 440.5 438.2 436.8 435.1 431.8 430.1
219.2 215.9 216.3 215 211.6 211.8 212.7 212.1 210.9 211.9 212.5 208.8 207.1 207.6 206.5 205 203.4 202.3 208.7 212.3 212.6 211.5 211.6 211.7 211 211.9 217.1 219.2 219.5 222.8 221.8 221.2 222.7 224.4 217.2 211.4 207.4 209.3 205.4 205.6 205.6 205.6 205.6 205.6 205.6 205.6 218.3 235 251.8 269.2 282.5 293.5 306.8 328.9 348.8 356.6 363.1 366.5 364.4 371.1 389.2 398 401.4 400.6 395.8 393.8 393.9 388.1 384.9 371.8 359 342.5 327.6 316.2 303.2 295.1 284.5 282.1 283.4 272.7 254.9 248.2 261.7 288.5 310.2 332.6 353.5 373.2 382.2 393.7 407.7 411 403.8 405.9 401 399.1 396.5 393.4 397.2 393 407 413.5 422.3 431.7 439.7 451 467.6 482.3 496.5 510 523.1 534.8 546 571.3 587 598.3 607.6 618.7 629.9 636.2 643.9 654.4 650.1 646.1 637.5 630.4 611.5 596.2 587.2 582.4 573.5 566.1 551.6 532.4 522 510.2 501.6 495.7 490.9 488 490.1 494 504.4 516.9 529.5 535.5 534 523.2 519.5 504.8 492.5 480.2 471.9 464.4 459.4 455.4 452.3 447.8 443.4 439 432.2 429.7 427.9 427.1 423.3 422 421.6 424.2 425.2 428.9 425.5 431.8 432.9 434 436.7 440.1 439.8 438.2 437.6 435 427.4 431 432.2 432.7 432.7 432.8 432.8 433.5 434.5 435.7 435 435 436.3 436.5 435 434 432.9 432.9 430.4 426
216.7 219.6 215.6 214.9 213.2 212.5 213 213 212.6 211.9 213.6 209.9 206.1 210.1 209.2 206.4 205.2 202.3 205.3 212.4 212.3 211.1 211.7 211.5 210.7 211 217.9 218.5 220 221.7 219.4 214.8 216.2 213.8 208.7 205.6 205.6 205.6 205.6 205.6 205.6 205.6 205.6 205.6 205.6 213.2 227.4 242.7 261.6 279.6 289.6 304.3 320.7 338.4 350.9 360.5 369.4 374.2 384 394.1 407.8 417.1 415.2 412.5 406 408.9 408.7 403.6 396.2 382.2 366.6 350.2 333 317.4 307 293.8 288 285.9 284.5 274.1 264.7 250.8 252.3 274.4 298.4 322.1 346.1 367.1 384.8 395 401 404.8 406.7 410.6 412.2 406.2 404 404.8 408.6 401.8 409.8 415.5 425.2 433.7 443 452.4 467.6 481.6 496.8 514.6 529.1 539.9 553 575.4 595.5 606.7 618 624.7 630.7 637.4 648.2 657.2 660.1 656.7 647.4 640.1 631.7 620.5 609.5 598.4 591.4 584 562.8 542.2 533.8 522.4 509.9 505.1 498.8 497.5 499 506.6 519.1 533.9 544.6 549 551.3 550.3 539 517.7 503.6 493.5 481.1 471.6 466.5 463 458.7 454.6 451.5 448.2 443.8 440.1 434.2 436.5 432.2 430.6 428.7 428 427.5 429.7 431 440.3 439.1 438.4 438.4 438.6 440.4 440.1 441.3 439.2 429.3 430.7 433.7 433.9 434.8 435.4 435.4 433.8 435.3 436.5 436.1 434.7 434.5 434.7 437.4 432.4 432.3 427.2 426.2 421.8
217.7 216.6 216.6 214 213.3 212.7 212.9 212.5 212.4 212.9 212.8 210.5 209.7 211.4 211.7 211.1 206.4 206.2 202.3 211 211.9 210.5 210.4 210.9 210.1 213.2 219.6 220.8 219.5 216.9 210.8 208.3 206.8 205.6 205.6 205.6 205.6 205.6 205.6 205.6 205.6 205.6 205.6 205.6 205.6 223.8 233 252.1 269.2 286.4 301 319.1 336.4 350.1 364.7 368 371.9 374 384.1 406.7 425.7 427.1 423.6 415.6 415.2 418.1 414 413.2 406.1 387.5 374.1 361.9 338.1 320.5 310.5 295 289.3 289.6 284.8 274.6 258.8 256.3 251.4 263.6 288.6 312.9 337.2 358.4 381.2 395.5 408.8 411.1 420.9 426.7 418.2 411.2 409.6 411.5 419.3 412.4 414 418.1 426.9 436.6 447.2 456.1 468.9 484.1 497.5 519.7 539.4 547.3 552.7 574.2 594.6 610 621 628.2 632.4 642.1 649 654.5 662.4 658.2 654.8 651.5 644.6 637.2 623.3 614.9 603.8 586.8 565.7 548 540.2 529 519.5 512.5 502.6 506.4 508.7 519.8 531.1 545.5 558.6 568.8 570.4 566.8 555.6 532.3 515.4 504.2 492.1 480.5 472.5 469.3 465.3 462.1 459.3 455.9 452.2 449.4 442.5 443.5 442.3 440 437.2 435.6 433.6 437.1 441.2 440.8 439.8 439.9 440.2 440.9 440.2 439 437.1 435.8 439.9 436.1 436.1 436.1 436.7 439 438.2 436.2 436.4 436.8 437.7 437.4 435.4 433.2 432.6 434.1 434.3 429.4 426 418.9
216.6 214.5 213.4 213.2 212.7 212.3 212.6 212.4 213.5 213.5 213.1 213.2 212.7 212 212.4 211.4 206.8 207.3 206.6 202.3 210.7 210.2 210.4 210.7 210.1 214.2 219.6 219 218.2 214.7 207.8 207.2 208.4 205.6 205.6 205.6 206.1 206 205.6 205.6 205.6 205.6 205.6 211.2 219.4 227.1 242.3 261.2 276.9 294.4 314.5 340.8 355.8 378.9 386 376.9 381.8 387.1 392.1 407.7 429.1 429.9 424.7 417.7 418.5 422.6 420.9 421.8 416.4 404.5 387.7 370.3 343 328.1 313.7 299.6 291.3 292.9 287.5 278.2 264.3 268.8 256.3 256.5 279.6 304.6 328.4 350.6 376.6 394.2 408.7 422.6 430.7 430.6 426.4 417.8 413.8 416.1 418.6 417.5 417.9 421.8 428.5 437.3 448.2 459.3 473.6 488.9 500.6 519.4 538.6 548.3 556.4 571.5 588.2 605.5 618.1 625.7 635.7 644.7 648.6 653 654.6 654.7 667.7 669.2 661.5 650.8 636.4 623.5 606.5 587.5 569.2 557.2 549.1 536.5 526.9 517.2 513.9 514.7 521.1 532 544.7 558.1 572 581.7 583.4 577.4 566.7 545.8 528.8 516.5 501.8 490.8 481 475.2 471.9 468.5 465.7 460.8 459 455.9 452.1 449.9 448.7 446.8 445.5 445.6 442 441.7 444 443.5 444.2 442.4 442.9 443.1 442.3 441.6 440.4 437.3 439.5 439.3 438 437.8 438.2 440.2 440 438.3 437.9 438.1 438.5 439.5 440.7 438.5 432.2 429.1 427.1 424.5 425.9 420.7
212.8 211.8 212.6 212.3 212.7 212.4 212 212.8 213.9 213.4 212.9 213.5 213.2 212.5 212.7 209.6 206.5 205.8 205.1 206 202.3 210.5 210.8 210.5 210.3 214.9 218.2 218.5 216.6 223.9 226.3 223.4 222.5 220.8 215 211.6 211.7 208.8 205.6 205.6 205.6 205.6 205.6 211.7 223.1 233.7 251.1 268.3 286 306.2 322.5 345.9 370.2 394.7 394.6 383.7 390.8 397.7 412.8 417.1 430.8 429.9 422.5 422.2 425.8 425.5 424.3 422.6 414.8 402.9 392.9 378.1 353.5 336.6 318.6 304.7 293.4 294.5 290.1 279.5 269.8 274 261.1 254.3 273.2 292 318.1 347.5 371.2 389.6 407.3 424.2 435.6 435.1 429.7 421 420.4 420 418.6 419.8 420.9 425.1 431.1 439.2 450.6 462 475.7 491.9 504 517.8 533.4 544 558.4 570.8 585.7 597.2 608.5 618.2 627 637.4 644.8 650.1 650.1 659.5 672.9 679.8 677.8 667.7 655.5 638.2 615 592.2 576.3 563.5 552.4 540.1 529.9 520.5 522 526.6 534.8 544.9 557.4 569.9 583.3 592.3 592.4 584 573 556.1 545.8 530 512 498.7 489.6 482.6 480.1 475.2 471.3 467.9 465.3 462.3 460.2 457.5 455.4 451.7 450.4 449.5 446.5 444.8 448.2 450.7 452.5 451.9 451 444.8 445.1 442.1 439 438.5 439.6 442.1 443.6 441.2 442 442.7 442.4 441.2 440.5 440.7 440 440.2 440.3 440.2 434.9 433.2 427.1 422.2 417.5 420.4
212.8 212.6 213 212.1 210.8 212 212.3 213.4 213.6 213.5 212.7 212.6 212.4 211 211.2 209 206.6 206.5 205.2 207.2 203 209.3 210.8 210.3 211.2 218.1 218.5 219 217.1 220.1 224.8 225.1 225.1 222.8 223.5 220.7 213.4 205.6 205.6 205.6 205.6 205.6 205.6 212.1 230.2 244 266 281.5 295.8 318.1 335.4 365.4 393.1 404.7 399.3 387.9 396.1 408.7 428.7 425.2 430.4 428.9 427.1 427.5 429.4 429 423.9 419.8 409.1 402.6 390.6 378.3 365.2 340.2 322.2 311.5 297.6 294 293.5 283.4 272 280.9 266.8 254.9 266 287.2 311.9 341.3 367.1 386.7 406.6 418.4 431.4 436.5 435.9 425.5 421.4 420.7 420.3 421.5 423 427.9 433.4 441.4 451.7 463.6 477.8 492.7 504.3 519.1 532.1 541.6 553.8 566.3 578.2 588.5 598.6 607 615.5 625.7 634.1 642.5 656.7 664.7 671.4 682.8 680.3 670.6 661.3 645.9 625.2 599.8 581.6 566.9 553.9 542.2 534 529.5 531.7 538.4 546.9 557.8 572 584.4 596.6 603.9 603.2 587.3 575.7 564.5 553.7 538.9 522.8 509.2 499.1 491 485.1 481.2 474.6 473.5 471.5 469.7 467.8 465.9 464.5 463.2 458.2 451.5 453.8 457.7 459.8 459.3 456.7 456.8 455.2 451.6 444.4 445.1 441.3 440.3 440.8 445.4 446.9 447.7 447.3 446.2 445.9 445.2 441.6 440.6 439.6 439.9 440.8 439.3 433.7 428.2 430.3 425.9 410.7 405.1
213.3 212.6 212.9 210.9 210.4 211.5 212.5 212.8 212.8 212.2 212 211.5 212.1 210.8 208.1 208.4 207 205.9 205.2 206.2 206.8 202.3 210.5 210.2 213.5 218.3 219.3 220.6 218.7 220.2 224.9 222.2 219.1 217.6 221.6 216 205.6 205.6 205.6 205.6 205.6 205.6 205.6 215.6 233.9 257.7 276.8 296.3 321.7 338 344.7 371.6 401 405.6 397.5 392.6 402 418.3 436.8 433.3 429.3 433.6 431.6 429.1 429.6 426.6 421.5 415.9 404.9 393.5 385.9 380.3 371.3 346.8 328.1 316.1 300.1 296.6 296.1 290.5 276.7 282.5 273 256.6 261.9 282.7 303.5 332.3 357.5 379.5 400 415.8 427.6 430.4 433.2 431.8 422.1 421.1 420.6 422 423.9 430.1 436.2 444.4 453.5 464.8 478.1 492.9 504.7 518.8 530.1 539.7 546.2 558.6 568.2 577.4 587.7 596.9 605.3 615.7 626.7 640.9 654.7 665.3 673.3 683.2 681.9 675 662.7 646.7 625.9 607.6 590.4 574.3 563 544.9 538.8 537.8 540.1 551.1 558.9 571.9 586.8 599.9 607.3 612.4 605.3 592.4 580.3 569.7 557.9 543 529.9 518.1 508.1 499.5 491.3 486.8 484.9 481.6 479.1 477 476 475 472.3 470.5 468.4 465.7 463.8 463.8 465.8 465.4 465.2 462.8 461.5 459.3 453.2 444.7 444.1 442.8 442.1 445.5 448.1 448.7 448.2 448.8 450.7 450.3 448.5 443.3 440.2 438 439.3 439.8 435 430.5 424.9 422.6 415.7 408.2
213.8 213.6 213.5 210.6 211.4 211.4 211.6 213.3 213.2 213.7 213.4 212.1 213.2 212.4 210.7 210.1 207.7 206 205.1 206.7 206.1 202.3 209.8 210 217.1 220.2 221 221.2 217.7 220.4 224.3 220.2 219.5 216.7 215.7 205.2 205.6 205.6 205.6 205.6 205.6 205.6 207.4 220.7 239.5 258.5 283.9 306.3 322.8 341.5 353.3 373.1 396.1 401.3 396.8 396.4 419.1 424.9 435.4 435.8 430.7 437.1 435.7 431.2 427.4 420.4 416.6 408.5 399.6 389.5 384.3 381.4 378 352.2 335.5 319.6 304.9 299 297.4 293.3 281 287 280.5 264.5 259.7 275.2 295.1 321.1 347.7 370.6 392.5 408.5 420 423.6 426.1 432.3 427 421.6 422.7 423.2 424.5 431.6 439 446.9 455.5 466.2 479.7 492.1 504 515.1 526.2 536.3 545.7 555.2 566.3 576 584.8 593.2 601.3 609.1 620.8 634.8 650.3 664.8 675.1 682.6 682.1 676.8 665.9 647.4 626.1 608.3 593.1 575.5 564.5 548.3 545.3 545.7 554.1 564.7 573.3 587.2 601.9 614.2 621.5 615.4 607.5 597.7 586.8 572.6 561.8 549.6 537 525.6 516 506.5 499.2 492.1 490.5 488.1 486.7 481 483.7 480.8 479.7 476.2 473 471.2 470.7 470.2 469.6 469.2 468.2 467.9 465.4 462.8 460.2 456 447.1 445.6 445.2 446.8 447.9 449.4 449.3 448.3 446.5 450.1 451.5 446.9 443.7 439.2 433 431.4 428.9 423 421.5 412.8 413.9 407.7
215 214.2 211.4 211 212.2 211.3 209.6 213.2 213.5 213.5 212.7 211.9 212.8 210.7 210.8 210.4 209.4 206.2 205.2 205.6 205.7 202.3 208.4 210.4 216.4 221 220.5 220.9 218.4 222.2 224.7 227.9 227.3 222.4 215.7 207.8 205.6 205.6 205.6 205.6 205.6 205.6 216.9 232.7 253 269.3 288.2 307.6 327.1 346.9 357.1 377.6 394.7 399.1 397.5 401.7 431.1 429.2 430.7 432.3 432.6 434.4 437.2 435.1 427.5 415 408.6 403.6 397.1 394.2 384.7 381.2 378.7 354.4 334.5 322.2 311.8 303.7 300.4 294.9 286.4 292.8 288 275.3 260.8 267.2 287.7 313 337.9 363.4 383.1 399.6 410.3 420.1 425 431.1 428.1 427.4 423.4 423.9 425.3 431.5 439.5 448.5 457.5 466.5 478.7 491.1 501.4 514.5 525.6 538.7 548.6 558.6 567.8 577.9 585.9 593.5 600.6 607.5 616.6 630.2 645.6 658.3 672.3 680 680.5 675.2 666.4 649.6 629.8 608.7 592.3 577.2 565.1 552.8 554.5 559 568.4 580.4 592.2 604.2 615.9 625.3 628.3 620.8 613.2 603.5 591.2 577 564.6 552.8 542.4 533.7 523.4 513 506 502.4 498.5 496 493.7 488 492.4 487.9 489.6 486 481.4 480 480.2 478.7 480.2 480.5 479.2 476.8 473 468.6 462.3 455.4 452 450.5 448.8 448.8 449.8 451.3 457.5 454.2 450.2 440.6 438.3 439.9 442.4 439.5 434.7 422.9 417.3 418.2 413.5 406.4 405.2 401
214.6 213.9 211.5 212.4 212.7 211 213.3 212.9 213.1 213.2 213.3 209.7 211.2 212.2 211.1 209.6 207.6 206.9 205.7 206.3 205 202.3 209.9 211.2 216.1 220.7 220.8 221.2 217.9 223.4 230 235.7 237.6 234.4 228.1 214.3 205.6 205.6 205.6 205.6 205.6 205.6 222.5 240.6 262.8 283.7 303.7 319.1 340.3 351.1 362.4 381.6 392.3 398.6 399.6 399.9 425.8 439.6 437.6 430.1 428.9 429.3 430.2 428 422.7 411.5 408.2 407.1 398.6 398.6 387.6 382.9 373.6 360.8 341.9 327 314.4 308.7 304.9 300.8 291.3 298.3 296.2 283.6 267.1 259.8 276.7 304.5 326.7 352.5 371.5 391.7 404.7 419.7 426.7 431.2 425.4 423.8 423.4 424.1 426 431.3 438.1 446.7 455.8 466.6 476.4 489.3 499.5 512.3 525.8 537.2 548.8 560 571.5 580.5 587 593.3 600.8 609 616.4 627.2 641.6 652.6 665.4 674 674.9 673.6 666 654 632.2 612.2 590.9 576.3 567.1 562.9 566.3 572.9 584.4 597.5 608.2 619.1 627.9 634.4 632 623.5 615.7 605.3 592.3 579.5 564.6 555 546 537.5 527.5 519.2 511.8 507.7 506.5 504.1 501.5 496.5 499.8 498 497.5 496.2 491.3 492 492 490.6 490.5 488.8 485.8 483.5 481.5 478.8 472.8 467.7 459.5 456.5 452.8 454.8 454.9 457.9 459.5 456.5 451.8 441.5 439.3 429.1 430.2 428.8 428.1 423.7 413.2 407.4 405.1 404.1 401.2 396.3
214.1 213.6 211.9 212.7 212.1 211.7 212.4 213.2 213.7 213.2 213.7 208.9 211.9 213 212.1 209.8 208.2 207.6 205.7 207.1 205.3 203.9 210.6 210.9 213 215.8 221.6 220.6 219.6 225.3 238 243.9 247.8 246.7 242 217.7 205.6 205.6 205.6 205.6 205.6 205.6 224.5 244.2 267.4 289 310.5 325.1 339 351.4 365.6 376.6 386.3 391.8 392.8 396.1 407 432.2 444.3 434.9 428.8 428.1 425.1 422.4 421.1 410.7 408 411.5 411.3 410.2 401.5 398.7 387.8 364.8 346.8 327.7 321.6 316.4 311.8 307.4 303.4 307.6 305.5 292.2 278.1 266.2 267.5 289.4 315.5 342.2 366.4 384.7 399 413.3 424.4 430.7 429.9 424.7 422.5 423.2 427.7 431.9 437.5 444.1 453.4 464.6 476.1 489.3 500.3 513.5 526.1 538.1 551.1 562.4 572.9 581.1 587.4 596.7 605.2 611.3 618.6 629.2 642.4 652 659.8 664.5 668.8 669.2 662.7 647.6 626.9 608.1 590 578.1 571.3 572.6 573 582.8 599.7 613.6 625.9 633.2 638.1 641.4 635.1 623.8 614 601.8 590.2 578.4 566.5 557.7 550.2 541.5 533.1 524.7 518.4 514.1 512.6 510.9 509 506.5 506.2 504.6 508.9 509.7 508.6 503.5 499.9 499.1 498.4 495.2 492 489.6 487.6 484.4 480.1 475.5 472.1 467.1 456.5 462.4 464.9 464.9 457.6 453.9 447.6 441.9 434.3 436.9 423.7 419.5 418.2 418.7 407.3 405.5 404.4 401.9 397.3 394.9
213.6 213.4 212.1 211.4 211.7 212 213.4 213.7 214 214.5 210.5 211.3 212.7 213.1 212.1 209.5 207.9 207.1 205.5 204.8 202.3 211.2 212.4 216.1 211.6 212.7 219 218.9 219.5 230.5 243.3 250.9 254.6 255.1 248.3 213.2 205.6 205.6 205.6 205.6 205.6 205.6 227.3 249 271.7 294.6 317.2 331.3 342.1 354.9 359.5 364.9 373.8 377.9 382.6 391.5 400.5 419.8 425.1 424.3 426.4 430.1 427.1 421 416.4 403.5 402.9 403 404.6 406.2 406.5 392.8 385.9 367.6 355 337 328 327.1 317.7 314.3 313.1 315.9 316.4 307.3 290.4 275.9 266.5 271.3 294.1 325.1 354.7 374.9 391.7 406.2 420 430.5 431.2 430.3 428.4 427.7 429.4 432.8 436.9 441.9 451.8 463 474.1 486.7 499.7 513.7 525.5 537.9 552.4 563.8 574.3 582.7 590.2 601.3 612.2 619.2 625.2 634.1 643.2 652.8 656.9 660.1 663 663.6 654.7 640.6 622.2 604.1 589.6 580.9 577.3 581.5 587.8 600.1 614.2 630.8 642.2 647.7 647.5 644.6 635.5 624.1 613.1 600.3 589.6 579.1 570.3 562.6 555.4 547.4 540.3 531.4 525.8 521.6 519.3 517.7 515.3 510.1 514.5 514.7 520.9 520.9 520.8 515.2 511.4 509.3 509 504.3 500.7 496.9 492.6 488.2 482.9 478.4 475.1 470.5 464.2 470.5 471 474 472.2 467.5 463.8 452.8 436.5 437.7 431.5 419.3 412.8 412.9 405.5 404.7 403.7 403.2 398.9 395.1
212.9 213.7 211.3 211.3 211.3 212.2 213.3 215.1 213.6 211.4 212 212.4 212.7 213 212.3 206.9 206.2 206.1 204.7 202.3 211.6 212.6 214.9 217 214 215.2 218.4 219.6 222.3 234.3 246.9 254.8 260.4 260.1 236.6 207 205.9 205.6 205.6 205.6 205.6 206.9 227.9 253.5 277.5 301.2 321.2 335.9 344.1 351 354.6 358 364.1 368.6 378.6 389.7 401.3 412.8 417.7 416.2 418 416.4 410.6 406.2 403.6 402.5 401 406.2 405.5 403.3 396 384.3 377.8 369.6 364.3 345.5 336.5 333.1 324.4 320.2 320.3 323.2 327.8 321.5 307.1 290.8 277.4 268.4 271.3 305.9 340.4 362.4 383.2 398.1 411.8 420.9 430 433.6 434.2 430.9 430.6 432 434.9 440 448.9 461 472.3 484.5 497.3 511.2 523.4 538.5 553.7 566.1 577 585.7 593.6 605.3 617.3 628.2 633.7 638.8 651.1 655.9 660 662.4 662.5 658.7 650.7 637.2 618 601.5 593 588.6 588.3 593.7 599.9 616.9 632.7 646.1 655.5 659.2 655.3 646.9 636.2 625.8 613.6 602.1 591.7 581.2 573.7 568.7 562.1 555.2 549.1 542.7 534.8 529.9 526.6 523.3 519.8 516.5 520.2 527.1 533 534.4 532 528.6 524.8 522.3 518.4 513.5 510.2 506.1 498.9 493.7 487.9 482.2 477.2 467.7 477.4 480.9 483.1 485.1 484.9 482.9 476 465.8 456.9 443.8 429.1 428.9 423.1 409.7 408.4 406.5 404.7 402.7 402.3 398.5
212.2 211.1 211.7 210.7 211.8 214.6 214.1 212.9 211.2 212.8 210.7 212.1 212.4 212.2 207.9 205.3 207.2 202.3 202.3 210.1 215 218.6 217.3 216.3 217.1 216.7 220.3 220.4 224.1 234.4 245.5 253.2 258.8 255.2 221 206.7 206.6 206.5 206.6 205.9 205.9 210.8 231.7 258.4 284 306.5 320.1 332.2 340.4 344.9 348.1 354.3 360.7 361.4 366.7 378.3 392 401 406.2 406 404 403.2 397.5 395 399.4 400.6 400.5 404.5 399.7 401.1 393.7 385 375.3 372 365.9 349.1 341.1 337.7 330.2 324.8 326.5 330.5 336.3 333.3 324.6 307.2 291.6 278.5 286.6 287.7 330 354 371.3 389.1 404.7 415.6 423.2 432 434.8 434.3 433.8 433.5 434.9 439.8 446.9 457.5 469.1 481.8 494.4 508.3 522.6 539.9 557.9 569.5 579.6 590.1 598.7 608.5 619.8 629 636.1 645.3 654.9 663 663.5 665.8 664 656.2 645.9 630.9 617 611.5 605.3 604 602.4 608.3 616 630.1 647.4 660.9 673 673.2 664.4 652.9 638.7 627.4 615.1 604.1 593.5 585.9 577.6 573.5 568.1 562.5 556.2 550 545.4 538.9 532.9 529.8 525.6 524.2 529.2 537 542.3 543.8 543.1 540.6 536.3 531.2 526.9 522.6 517.8 510.2 503.2 498.8 492.8 486.6 480.1 476.3 485.2 489.4 492.3 494.1 494.1 491.5 485.5 476.4 466.3 454.1 443.3 431 423.5 415.9 410.8 409.1 409.3 404.9 400.8 399.4
209.2 210.6 211.3 211.3 212.6 214.4 214.1 213 213 211.5 210.3 210.7 211.1 206.6 204.5 202.3 202.3 206.2 209 214.5 217.7 217.7 215.7 215.1 215.2 216.8 219 220.6 224.4 232.4 241.9 248.4 247.3 232.5 210 206.8 206.6 206.8 206.8 206.7 206.4 213.1 231.3 263.9 289 306.3 316.9 328 335 339.8 345.1 349.9 352.8 354.5 358.6 365.8 377.2 386.6 393.2 393.9 393.2 390 385.4 385.9 387.5 387.3 393 395.2 397.2 396.3 391.6 388 375.3 369.4 359.9 347.9 345 342.3 336.4 331.1 332.7 338.1 343.8 344.6 337.3 326.7 307.5 301.5 302.3 282.1 313.3 340.6 356.4 378.9 395.6 409.5 416.3 427.3 432 434.5 435.4 435.3 437.1 442.1 447.3 454.2 465.8 478 491 504.7 520.1 539 556 568.9 582.1 590.7 601 610.6 619.5 627.3 634 645.8 655 663.8 666.4 664.3 658.8 650.1 640.4 625.5 622.2 620.3 624 624.5 622.4 623.2 629.9 642.4 660.5 672.3 681.9 680.4 669.8 655.3 640.6 629.7 617.8 607.4 598.5 590.5 582.6 578 574.5 569.9 563.7 558.4 552.5 546.8 540.9 538.8 534.9 532.2 544.2 551.8 552.9 555.2 552.5 551.6 548 541.8 534.8 529.5 521.7 513.9 507.7 502.3 496.1 489.3 478.9 484.2 492.3 496.1 499.3 502.9 504 500.7 494.5 485.1 474.3 459.8 448.5 437.7 426.2 420.7 413.4 411.5 409.6 410.5 408.9 402.1
207.4 209.5 210.2 210 211.4 211.4 211.3 210.2 207.6 208.9 207.5 204.7 202.3 202.3 202.3 206.4 207.3 212.6 218.8 218.2 217.8 216.1 215.6 215.1 216.4 214.1 220.2 220.9 224.1 229.5 236.3 240.4 235.6 221 207.6 206.9 206.8 207 206.9 206.9 207 216.8 237.7 267.8 291 308.2 315.7 324.6 329.9 334.6 339.4 344.6 344.3 345.5 350.2 358.7 365.5 371.7 377.8 380.4 375.7 374.1 374.2 373.3 373.1 378.1 385.1 388.6 388.5 388.9 390.9 388.3 380.4 366.3 361.4 356.2 351.2 348.5 341.5 337.5 347.9 349.8 348.9 354.7 352.5 342.6 329.9 324.1 312.5 298.1 290.9 319.8 344.5 364.6 384.8 400.8 410.3 419.7 426.1 431.6 432.8 433.9 436.7 441.6 447.4 453 462.1 473.4 487 500.5 517 532.9 548.5 561 575.8 589.9 596.9 606.1 613.2 623 628.1 640.6 650.3 658.3 663.4 661.4 656.3 654 648.3 637 630 626.9 632.8 634.5 638.6 638.6 644 657.4 670.9 680.4 684.6 681.5 670.6 657.1 644.1 633.3 622 612.7 603.6 596.6 589.3 584.8 582 577.5 572 567.6 561.9 553.7 547.6 544.9 539.1 539.2 554.7 561.5 565.5 567.2 566.7 562.6 558 550.7 542.3 535.3 527.7 518.8 510 503.8 498.4 493.4 482.8 492.5 498.9 503.6 507.4 512.2 512.5 508.3 501.5 491.3 481.4 465.5 454.2 447 437.8 428.5 421.1 420.1 411.2 413.7 404.5 405.8
206.6 206.5 206.4 206.6 206.7 206.9 206.6 206.8 205.9 202.3 202.3 202.3 205.9 206 206.1 208.2 217.7 219.4 218.9 217.8 216.4 214.3 215.6 214.4 216.9 216.9 218.1 220.2 222.2 224.4 228.1 230 223.5 209.9 207.3 207.2 207.2 207.2 207.2 207.2 207.2 221.8 244.3 270.5 289.1 303.9 311.7 318.5 322.9 328.8 333.9 336.8 336.8 339.9 342.6 349 358.2 360.7 363.7 364.5 362.9 362.3 361.3 363.1 367.5 373.3 376.9 380.9 385.1 383.1 381 379.3 372.6 369.8 364.1 368.6 363.4 350.4 346.4 350.6 357.7 355.1 355.2 360.9 362.6 357.1 352.1 341.1 324.3 312.7 297.2 300.6 327.2 352.4 374 390.7 403.3 413.4 422 427 430.5 432.7 435.7 440.2 446.6 453 459.1 468.7 482.8 496.6 509.3 525.9 541.4 552.3 565.7 577.6 588.1 595.3 603.3 610.5 617.4 626.5 635.4 646.1 651.7 652.5 649.9 653.4 655.3 648.5 640.6 641.9 644.4 643.8 646.6 653 660.6 670.2 680 688.2 689.3 684.5 674.8 662.5 648.5 636.9 625.9 616.6 609.6 603.3 598.1 594.3 591.7 587.4 580.3 574.5 568.5 560.7 555.1 547.8 543.7 552 564.8 573.4 578.5 578.8 577.6 572.5 565.3 555.4 547 541.2 535 525.6 513.2 506.4 502.1 496.3 488.8 500.6 506.1 511.2 516.7 521.9 523 519.3 508.4 496.7 485.7 472.7 461.9 451.7 440.1 434.1 426.7 418.1 412.5 408.2 411.2 409.6
205.2 205.6 206 206.1 206 205.8 206.1 203.7 202.6 202.3 207 205.7 206.2 207.2 211.5 220.3 219.1 220 219.1 218.7 217.5 217.4 217.4 217.5 219.4 220.4 220.6 220.4 219.8 221.5 223.9 221.9 214.6 208 207.5 207.4 207.3 207.2 207.3 207.3 207.4 222.3 249.7 270.2 285.3 297.7 307.5 312.1 318 323.2 325.7 328.6 329.7 332.6 337.3 344.6 351.1 353.1 354.9 355.8 354.9 354.3 355.2 357 362.2 367.6 371.9 375.5 378.6 377.3 373.8 370.8 368.9 366.1 365.8 370.3 367.9 353.2 348.8 364.3 366.5 365.5 361.2 361.6 363.9 362.6 357.1 350.8 335.9 320.1 308.5 294.5 317 343 361.2 383.3 397.3 406 416.2 420.9 425.9 430.5 434.2 439.6 444.8 450.8 457.5 466.9 477.1 490.5 502.4 518.2 532.3 544.3 555.5 565.2 576.1 584.1 590.5 596.8 605.1 612.9 621.7 627.5 633.6 633.8 635.8 640.9 649.7 653 653 651.8 661.7 664.6 666.1 666.6 673.5 679.3 688.1 695.3 695.7 691.4 683.4 669.7 653.7 642.1 631.4 622.2 615.8 611.3 608.3 603.6 600.4 595.3 588.1 581.2 574 567.1 561.2 550.4 554.3 565.8 577.6 587.2 592 590.8 588.4 581 571.1 557.9 549.5 543 536.2 526.9 516.2 509.8 503.9 492.9 498.5 506.5 511.5 517.6 525.3 531.8 533.6 527.7 519.8 507.2 492.1 480.7 468.4 451.5 444.2 440.5 434.2 426.6 426.7 423.5 421.9 415
205.8 205.3 204.8 205.6 205.6 204.7 204.4 202.3 204.3 208 207.4 211.6 217.3 217.7 217.7 219 219.1 219.2 219.3 219 218.4 219.5 219.6 219.7 220.6 220.4 221.2 219.4 217.6 220.6 219.4 214.6 208.2 208 207.4 207.5 207.2 207.3 207.3 207.4 207.6 226.3 250.7 267.5 283.1 295.3 301.5 307.8 313 317.7 319.2 321.4 323.8 325.4 330.3 338.3 345 347.7 346.2 345.5 345.3 346.1 349.1 350.4 355.6 360.6 365.9 370.3 371 370.9 369.7 365.3 365.2 365.1 365.4 365.5 361.4 354.7 366.2 372.7 375.2 372.5 369.4 362.1 361 359.8 356.1 350.8 338.2 325.1 312.1 297.2 312.1 336.6 359 377.5 391.5 400.4 409.1 415.9 421.5 426.9 431.1 437 442.1 447.9 455.3 464.3 475 483.3 495.3 508.5 522.8 535.4 546.2 556.5 564.1 569.6 574.8 580.9 588.5 596.9 605.9 610.9 615.9 619.5 626.9 627.3 635.8 645.8 652.4 655.4 673.8 681.9 687.7 689.9 686.2 688 695.7 702.4 701.2 697 688.4 677.6 664.2 651.6 640.6 628.6 622.8 618.7 616.9 615.1 611.6 607.7 602.5 591.7 581.9 573.5 566.4 556.1 566.8 579.4 589.9 598.1 602.1 602.9 598.9 587.9 575.5 559.4 550.8 543.4 536.1 527.2 519.1 512.3 502.7 502.9 507.1 513.8 518.8 527.2 534.4 541.6 543.3 538.8 529.7 515.8 500.3 487.8 468.4 457.3 449 444.9 438.4 436.3 434.3 431.8 428.7 425.4
210.4 211.2 211.2 206.7 202.3 202.3 205.5 215 219 216.9 216.9 218 218.7 218.8 218.5 219.1 219.2 219.4 217.3 218.3 218.4 218.2 219.4 219.5 220.4 220.2 220.8 221.3 215.9 216.9 217.7 217.5 214.6 209.2 207.7 207.5 207.2 207.3 207.4 207.7 209.7 232.5 248.4 262.8 281.5 292.2 297.4 302.6 307.5 311.1 313.3 315.6 318 320.2 324.5 330 335.9 338.9 336.3 335 336.4 338.4 342.6 346.5 351.3 355.3 358.9 362.5 365.5 366.8 364.7 363.4 364.4 365.4 364.6 365.2 362.5 365.8 375 381.8 385.1 382.3 377.9 368.8 362 358.7 353.1 345.5 338.8 328.6 313.1 298.4 311.5 332.7 354 371.4 385 395.4 403.9 411.3 416.9 422.1 427.2 433.5 439.1 445.6 453.2 462.3 472.1 480.4 489 501.1 513 525.3 537.1 548 554.3 558.6 561.8 565.1 573.3 580.3 586.7 592.3 596.3 601 607.8 615.5 623.6 632.3 644.4 656.8 673.1 686.3 696.3 701.8 703.3 700.2 699.5 704.7 699.8 696.5 690.8 683.7 675.6 662.1 648.8 640.8 635.9 630.4 627.7 623.8 621.5 618.3 609.5 597.8 586.3 579.9 571.9 568 581 591.2 600.4 607 611.6 610.4 602.2 591.2 576.6 562.3 550.9 544 537.2 529.2 521.3 511.3 506.9 512.6 515.3 519.7 526 535.5 542.9 550.5 552 545.7 535.8 521.7 507 491.9 476.9 461.6 453.1 447.4 444.2 442 440.1 437.9 434.4 431.4
211.5 202.3 203.3 202.3 205.5 205.6 213.6 215 218.7 216.7 216.5 217 216.5 217.5 217.6 218.2 218.6 215.5 215.6 216.1 218.6 219.2 219.9 219.8 220.2 220.3 220.5 220.3 216.9 218.1 220 219 218 209.8 207.8 207.3 207.5 207.8 208.2 209.7 217.4 233.8 239.5 259.1 278.1 288.7 295.1 298.6 301.3 303.9 307.3 308.2 311.6 315 317.7 319.4 324.1 326.5 325.7 326 328.9 332.9 336.8 342.7 347.8 351.4 354.4 354.7 357.5 358.8 360.9 362.6 364.9 362.5 363 365.2 368.6 371.2 383.3 390.7 395.7 395.8 388.5 378.3 364.3 358.8 353.7 346.8 339.4 330.9 311.4 299.1 312.1 333.7 351.5 368.9 381.3 388.7 399 406.8 413.4 418.3 424 429.5 435.9 442.3 451.5 460.9 466.6 474.9 483.9 492.8 503.6 515 525.7 535.3 542.6 545.9 549.6 553.2 555.5 560.7 567.9 573 577.6 582.6 589.3 596.6 606.9 623.3 632.6 647.1 664.9 680.5 695.5 702.9 708.8 709.2 700.9 695.7 693.8 690.7 686.5 684.1 678 669.6 658.6 651.8 650.8 646.3 645.8 639.5 629.1 623.8 614.7 599 588.9 581.4 573.9 582.1 591.1 600.9 609.7 618.4 620.6 615.2 604.1 590.9 576.8 562.2 551.5 542.7 535.5 527.9 519.1 510.5 518 519.6 521.3 526.8 534.4 543.2 550.7 556.9 559.5 553.4 542.1 529.8 516.2 496.4 482.3 468.1 457.8 453.1 450 448.1 446 444.3 440.6 437.2
204 202.3 202.3 204.8 211.3 213.5 214.5 218.3 218.6 217.3 215.4 215.8 216.4 216.8 217 217.3 215.5 216.4 217.1 219.1 219.3 220.2 220.3 220 219.9 220.6 221.6 219.4 219 219.6 219.9 218.9 216.2 208.5 207.7 207.5 207.7 208 208.4 210.1 220.3 233.5 238.6 253.9 268.7 282.1 291.4 297 299.3 301.2 301.9 304.2 307 309.3 310.8 313.7 315.4 316.9 318.6 320.4 323 326.8 332.1 339.2 344.1 347.7 350.4 349.5 351.8 354.4 359.3 363.9 365.9 367.5 369 371.8 374.3 377.4 390.8 404.5 411.3 409.2 397.6 384.7 371 361.7 353 342.8 331.8 324.3 308 299.4 310.8 335.4 351.1 368.2 377.2 385.2 393.7 402.8 409.9 414.8 420.1 425.6 432.5 438.1 448.5 455.6 460.8 467.2 477 487.4 495.6 504 512.6 521.5 528.8 533.6 536.8 539.7 541.4 543.1 546.1 553 558.8 565.8 573.5 582.2 592.6 608.9 626.4 640.7 654.6 671.6 686.4 694 695.9 696.9 692.5 686.3 687 686.9 683 681.3 676.2 670.3 665.4 669.1 670.5 663.7 659.9 648 641.1 632 617.9 603.1 592.1 578.8 583.7 594.3 603 611.3 620 626.4 623.9 616.2 605.1 591.7 579.2 562.6 550.5 543.5 534.4 522.3 515.4 518.1 523.5 524.6 531.2 538.6 544.9 551.9 558.7 564 566.5 563.2 552.1 538.9 522.3 503.2 488.8 473.9 464.5 459.6 455.9 454 452.3 450.7 447.8 444.4
202.3 202.3 215.6 218.3 216.9 216.6 217.6 219.1 219.4 216.8 216.6 216.2 216.4 216.7 216.9 217 218.1 219.5 220.6 220.1 220.5 220.6 220.7 220.5 219.9 220.3 220.8 220.6 219.4 219.9 219.7 218.4 214.4 208.1 207.8 207.8 208.1 208.3 209.6 213.1 225.4 235.2 238.4 247.2 256.8 268.6 283.2 294.7 298.4 300.6 301.3 301.4 304 305.6 309.2 311.3 313.9 315.4 317.1 318.7 321 323.9 328.7 336.4 341.3 344.6 346.2 346.4 351.2 351.3 355.8 361.1 366 374.7 375 373.4 377 383.7 391 410.2 418.9 412.3 400.3 382.8 368.8 359.3 349 339.2 330.1 319.9 303.1 299.3 309.9 335.8 349 364.5 374 382.1 391.7 400 404.2 410.6 415.6 421.1 427.7 435 442.5 449.4 454.6 461.4 469.8 479.3 487.6 494.5 501.2 508.1 515 520.3 523.7 524.6 526.2 528.2 531 533.6 540.5 548.2 559 570.8 580.5 598.3 615.8 636.8 650.6 662.2 673.2 679.4 681.6 679.3 673.3 667.6 670.4 674.9 676.1 676.9 681.8 678.5 675.2 681.3 681 676.3 669.4 660.6 646.5 632.4 617.5 606.2 594.9 591.7 598 603.9 613 622.6 629.5 631.9 626.3 616.3 604.6 592 578.7 562 546.5 537.2 526.6 521.3 520.3 524.6 529.7 535.4 543.1 550.2 556.6 561.1 567.6 571.1 571.7 568.4 558 544.6 528 511.4 495 482.1 471.7 466.7 462.2 460.1 459.1 458.1 455.9 452.3
211.8 213.7 217.2 218.4 218.6 219.7 220.9 220 218.6 218.9 216.3 216.6 217.2 216.7 216.9 217.4 219.5 220.6 221.5 220.5 220.7 220.9 221 221.1 220.1 220.6 220.9 220.9 220.2 220 218.9 216 209.3 208.2 207.9 208.2 208.5 208.8 211.2 216.4 229.8 235.5 238.4 253.5 264.9 265.2 279.9 290.7 296.6 299.1 299.8 300.4 301.5 304.2 308.4 309.5 311.9 313.3 315.7 318.1 320.1 323.6 327.9 333.5 336.6 339.1 340.1 344.3 347 350.9 354.1 358.7 364.6 370.4 375.9 382.8 382.5 387.5 393.8 409.6 418.6 407.9 394 378.2 366.7 356.5 348.8 341.6 329.6 316.8 307.8 300.4 307.1 335.1 348.8 363.2 371.5 380.6 388 395.8 402.1 406.3 411.4 416.2 422.4 429 435.9 442 449.6 456.5 462.2 469.9 478.1 485.8 491 496.1 501.9 506.3 510.5 512.1 511.8 513.6 517 520.4 521.6 530.1 542 555.2 568.6 587.1 603.5 623.5 640.7 652.2 659.2 660.1 659.3 656 651.1 646 647.4 650.1 654.6 663.6 675.9 682.4 684.2 684 685 683.3 678.3 667.3 648.4 632.9 617.3 608.7 598.3 602.9 608.1 615.5 624.3 632.3 638.4 636.2 628.3 616.3 604.1 590.2 576.1 559.9 542.8 531.7 525.7 520 525.3 531.9 537 547.7 553.6 559.7 567.3 571.5 574.1 576.2 576.6 572 562.4 548.4 530.9 515.3 500.9 488.4 478.8 475.3 472.2 471.4 470.7 468.3 466 461.6
215.9 218.7 218.4 216.2 216.9 218.4 219 219.5 219.6 219.8 219.6 219.2 218.8 218.1 217 217.2 218.4 219.7 221.2 220.7 220.5 220.7 220.9 221.1 220.4 221.3 221.3 221 220.4 219.8 216.5 209.6 208.8 208.4 208.5 208.9 209.4 211.1 216.9 226.4 231.2 235.9 238.6 248.4 259.1 269.9 282.3 285.6 292.1 295.4 296.3 298.4 299.5 304.1 306.6 309.1 312 313.6 316.1 317.1 319.1 322 326 326.4 331.4 335.8 340.4 342.7 345.9 349.3 352.9 357.1 363.1 369.8 379 384.5 393.5 397.9 399.1 405.6 410.5 404.8 391.5 379 366.3 358.1 351.8 346.1 332.7 318.4 309.2 300.8 307.1 335.2 349.1 362.1 370.9 378.7 386.7 393.2 399 403.4 406.5 410.9 415.7 421.9 428.5 432.7 440.5 447.8 453.8 459.6 467.2 475.2 481.9 486.8 490.5 494 498.3 498.7 496.6 496.8 500.6 504.1 510 517.5 526.4 539.3 552.9 573.8 591.5 608.4 622.4 633.4 638.8 642.7 643.1 638.7 632.7 626.6 627.8 629.6 635.2 644.3 656.6 669 679.4 684.2 684.6 681.3 675.5 662.1 647.8 634.1 621.5 607.7 609.7 611.8 616.4 623.8 633.9 641.9 643.7 638.1 628.7 615.7 602.8 588.4 574.7 561.3 545.5 532.6 527.3 525.3 531.9 541.3 548.5 558.9 565.3 573.1 578.4 581.2 584.5 586.4 583.4 576.4 567.4 554.8 539.4 521.8 507.3 495.8 489.8 487.4 487.2 488.7 487.7 484.5 480.3 474.3
217.5 220.2 218.3 216.2 214.5 215.7 218.6 219.7 219.4 220 220.1 220.2 220.2 219.4 219.3 218.1 218.1 218 220.3 220.7 220.8 220.5 220.6 220.8 220.3 221.3 221.3 220.8 220.2 218.3 214.1 209.4 208.9 208.3 209.4 209.8 210.8 213 219.8 229.6 231.7 234.9 236.9 243.2 256.2 267.1 275.1 275 287.7 292 294 296.2 300.2 303.2 305.3 306.8 310.2 314.3 315.4 316.3 317.7 319.5 321.8 328.4 333.9 336.6 339.4 342 344.5 347.6 351 355.7 362 368.9 377.9 384 393 400.1 411.7 409.9 409.3 406.7 395.9 379.6 371.3 363 355.2 347.2 332.4 317.5 309.9 301.5 309 333.8 347.5 360.9 370.6 378.2 385.3 394.6 397.9 401.4 402.9 405.9 410.2 414.4 419.5 426 431.7 439.2 445.3 449.6 456.3 463.8 470.8 476.3 480.2 484.6 486 486.4 484 484.4 485.6 488.5 495.3 505.6 516.5 527.7 542 559.7 577.4 593.7 605.3 614.8 617 619.9 619.1 616.2 613.1 609.1 610.9 613.8 619.2 626.8 637.1 650.2 664.6 674.5 679 676.9 671.8 663.4 653.1 635.6 621.2 618.4 617.4 620.2 628.5 636.8 644.2 649.1 647.3 639.6 627.2 614.6 602.5 590 577.8 563.1 547.5 537.8 529.1 530 540 549.5 559 570.2 577.9 586.7 593 595 596.9 594.2 592.8 585 573.4 561.9 548.9 531.5 517 508.2 504.3 502.5 504 509.7 505.1 500 494.6 488.3
216.7 219.6 218.3 218.1 218.4 218.3 221.5 221 220.4 221.2 220.9 221 220.9 221.2 219.2 218.5 217.9 218.1 220.5 220.7 220.7 221.1 221.5 220.2 221.3 221.4 220.4 219.5 218.6 218.2 209.9 209.5 209.1 208.5 209.5 210.3 211.8 213.8 217.2 228 231.1 233.7 236.3 239.1 246.3 253.3 258.4 275.4 285.4 289.6 292.5 295.1 300.5 303.5 305.5 306.6 310 313.1 314.8 315.6 316.8 318.5 322.9 327.4 333.4 335.3 336.7 340.1 341.4 345 349.5 354.4 360 366.7 374.5 384 390.5 400.8 415.8 418.9 424.3 429.5 409.8 390.1 378.5 366.3 354.6 340.4 326.6 316.1 307.5 301.9 309.7 332 346.3 358.2 367.7 375.4 382.9 389.1 393.4 395.8 398.6 400.2 403.8 407.7 413 418.1 422.6 428.3 434.8 438.7 444.6 452.5 459.8 466.1 470.8 473.5 473.1 473.8 472.1 472.9 474.1 475.4 483.1 495.1 507.9 519.2 531.1 546.6 562.6 577 588.6 596 597.2 597.5 595.2 590.1 587.4 590.1 592.7 592.9 601.8 611.7 622.8 634.2 645.8 660.2 669 670.2 667.4 661.7 650.9 642.5 632.2 625.8 626 631.7 639.5 647.5 652.5 654 649.3 640.5 627.4 613.4 600.6 589 575.5 561.2 545.4 535.4 533.6 537.7 548.7 559.4 570.4 583.2 590.8 598.4 604.5 608.2 606.3 606.8 604.3 597.9 584.9 573.4 558 543.2 528.6 526.4 525.3 524 525.3 524.4 521.9 516.5 508.5 500.3
216.8 218.8 218.2 218.8 220.2 220.4 221.9 221.9 221.7 221.3 221.6 221.4 220.9 221.4 220.4 218.5 215.1 216 220.5 220.7 220.2 221.4 221.1 220.4 220.9 220.8 219.1 217.9 217.1 212.3 209.9 209.5 209.2 209 209.5 210.2 211.6 215 225.6 233.7 233.9 237.8 238.9 239.2 242 246.2 251 264.6 279.8 291 292.6 294.7 300.4 304.2 304.7 305.9 310 314.3 314.2 314.4 316 317.7 321.3 326 330.9 333.2 335.6 337.5 339.7 343.1 348 353.8 359.1 364.4 372.4 378.5 387.9 400 412.8 419.7 429.7 430.9 414.7 399.9 382.5 368.7 353.2 339.2 326.5 315.9 307.3 301.5 309.8 330.4 344.3 354.2 364.5 370.7 376.2 382.9 384.8 387.6 391.2 393.4 394.5 399 403.4 408.3 413.2 417 423.1 428 434.9 443.4 450.2 456.4 462.6 463.6 462.3 461.1 459.6 460.2 462.6 464.4 471.5 484.2 498.1 510.9 524 536.6 549 560.8 570.3 576 573.3 574.6 570.2 566.3 568.3 572 573.4 577 583.7 594.6 607.9 620.4 634.4 647.1 657.4 663.2 664.3 662.4 656.5 649 639.4 637.4 637.1 642.8 649.1 656.7 660.8 658 650.8 640.6 627.3 612.7 600.2 586.7 573.3 558.4 542.2 535.3 539.4 546.5 556.4 567.6 579.6 593.3 601.1 609.1 615.4 617 618.1 618.2 616.7 610.9 600.3 585.6 573.8 561.5 549.9 546.7 549 546.1 545 539.6 533.9 528.4 518.2 508.2
216.4 219.1 217.5 217.6 220 222.5 223.2 222.5 222.4 221.5 220.8 220.4 220.5 221.2 220.4 217.8 216.7 216.7 220 221 220.6 221.3 221.1 220.6 221.4 220.3 220 219 219 210.8 210.2 210.1 209.9 209.8 210 210.1 211.8 218.5 229.7 236.3 233.7 240.7 252.7 252.5 252.8 260.9 256 262.7 280 289.6 292.4 295.8 301.2 304.4 305.7 306.4 309.3 312.6 312 312.8 314.2 316.2 319.5 323.9 327.3 330.7 333.6 335.2 337.3 340.6 347.1 352.5 357.3 362.3 368.1 375 384 396.5 407.2 418 425.7 422.6 415.2 404.6 392.2 374.1 357.9 341.9 326.7 314 306 303.3 309.9 328.3 340.6 350.1 360.3 367.3 371.4 374.3 377.7 380.3 382.7 385.3 386.6 389.9 393.5 398.1 405.2 408.8 411.1 415.4 425.8 432 439.9 446.8 450.7 450.2 448.4 449.7 449.7 448.4 446.7 454.3 462.1 476 489.2 501.7 514.4 526.5 537.7 546.9 552.4 555 552.3 550.9 548.5 548.7 550.2 552.5 554.8 558.8 566.5 580 592.4 605.9 626.8 640.4 652 662.1 667.6 672.3 664.6 657.3 651.5 649.1 649.6 651.7 657.5 663.7 667 662.4 653.7 640 626.7 612 597.8 583.5 571.3 555.9 546.5 538.8 545.2 553.6 563 575.5 588.6 600.7 611.5 622.2 625.6 629.7 632 632 629.8 623.6 614.7 601.9 589.1 578.9 574.1 573.4 574.2 573.9 563.6 558.5 549.1 539.1 529.3 516.5
216.9 218.4 217.7 218.9 222.1 223.6 222.9 222.1 222.3 222 221.5 220.9 221 221.7 221.1 219.7 219.3 218.3 219.4 221 221.5 221.5 221.3 220.8 220.5 220.4 220 220.3 221 211.3 210.8 210.7 210.1 210.2 210.7 211 214.3 220.9 232.3 237.8 234.4 241.7 256.5 263.5 268.3 272.7 260.2 267.5 281.1 288.9 293.3 297 302.5 303.8 304.7 306.7 308.7 310.3 310.7 310.8 311.9 314.2 317.9 321.5 325.5 328.5 330.5 332.6 335.1 338.4 344.7 349.6 355.1 360.3 365.8 373.6 380.8 389.5 402.2 411.1 415.3 413.4 408.8 401.2 379.5 366.2 353.6 340.6 322.7 309.6 303.2 303.8 308.3 324.7 337.2 346 354.8 361.3 365.5 368.8 371.2 372.7 374.2 375.6 378.7 381.3 382.9 388 392.5 396.6 399.5 406.3 413.6 421.2 428.3 435.8 440.5 441.3 439.5 437.7 436.1 439.1 435.9 446.6 455.6 466.5 479.1 491.5 505 517.5 525.5 533.5 537.4 536 535.2 533.2 532.8 531.6 531.4 533.3 535.9 541 553.1 564.5 576.6 597.1 617.3 633.8 649 660.3 674.3 682.6 681.9 675 663.6 660.5 659.2 661.7 666.5 672.5 677 667.6 655.2 641.7 627.3 610.5 594.6 580.6 568.5 554.2 545.7 544.6 552 560.8 570.7 584.6 597.4 609.7 622.1 631.2 638.3 643.9 645.7 645.6 643.6 637.8 628.9 620.1 608.1 598.9 597.4 596.7 595.8 591.3 583.7 577.2 564.8 551.5 538.1 519.3
214 217.9 218.8 220.7 221.7 220.8 221.2 221.8 222 221.8 220.4 219.5 220.3 221.3 221.5 220.7 220.5 219.8 220 219.9 220.6 221 221.2 220.9 219.7 219.9 220.2 220.8 220.7 211.5 211.3 211.2 210.9 211.1 211.5 213.9 219 225.8 234.4 235.5 235.1 240.8 257 264.7 269.8 273.2 263.5 265.2 280.3 288.1 294 299.1 304.2 304.2 305 306.6 308.5 309.6 308.6 308.4 309.6 311.9 316.2 320.4 323.4 325.2 327.7 330.3 332.5 335.5 339.9 345.9 352.2 358.1 364 371.6 376.8 386.8 396.6 401.7 400.8 399.2 395.1 383.2 366.8 357.2 348.3 334.3 317.5 309.4 303.2 305.1 307.9 321.6 332.5 341.9 349.4 353.5 358.4 361.2 363.4 363.9 365.3 366.8 370 372.2 374.1 377.8 381.9 384.5 390.5 397.2 403.3 410.5 418 423.5 426.4 429.2 429.3 426 426.2 426.4 429.3 438.4 447.2 458.7 469.4 481.5 493.7 506.4 516.8 519.8 520.4 519.8 518.4 516.6 515.1 513.2 513.4 516 519.1 525.2 536.4 551 567 586 604.7 626.9 645.1 661.9 679.3 699.2 703.5 687.7 678.8 677.2 673.4 676.2 681.5 682.2 681.1 671.5 657.1 641 624.2 606.6 591.8 576.3 563.6 555.5 547.7 551.4 559.6 568.6 579.3 591.6 605.8 620.7 633.5 642.2 651.4 657 658.9 659 657.2 653.3 642.9 634.7 626.1 621.1 616.9 615.1 613.2 607.3 599.4 590.3 576.8 560 544.8 525.2
209.6 218.7 219.7 221.6 221.2 219.2 220.4 221.4 221.6 221.6 220.5 219.5 218.5 219.3 220.1 221.1 220.6 220.3 220.2 220.3 220 219.2 220.6 221.1 220.4 220.1 220.6 221.6 214.7 212.2 211.8 211.5 211.6 212 213.1 218.7 220.8 229.9 237.3 237.3 235.6 244.4 257.2 264.7 270.1 274.1 273.5 263.5 279.7 289.9 295.4 300.3 304.1 304.7 307 307.3 307.5 306.2 305.5 306.3 307.9 310.3 314.8 318.7 321.4 322.9 324.8 327.7 330.5 334.7 338.5 342.2 348.8 354.5 360.1 367.9 375.6 385.1 391 392.4 390 384.9 380.2 367.9 359.2 349.5 340.1 324.7 313.3 306.1 303.2 304.9 307.5 316.6 327.5 335.3 342.1 346.1 350.1 353.3 356.2 356.3 358 359.7 361.5 363 368.2 370.1 373 377.3 383.7 389.2 394.1 400.6 408.1 412.2 414.8 415.4 415.6 415.8 415.9 414.8 422.7 430.7 439.1 448.8 461 472.4 484 495.8 503.3 505.3 505 505.5 503.5 502.2 501.5 499.7 500 502.6 506.3 512 525.3 540.1 556.1 575.5 594.6 617.3 640 658.9 676.2 694.2 708.5 710.7 704 696.5 692.8 692.6 692.1 689.8 683.9 671.7 655.2 640.2 621.5 605.9 591.5 576.6 565.2 558.2 554.4 558.4 567 575.8 586.5 599.2 612.5 629.2 644 657 666.3 671.9 675.2 675.2 672.3 669 657.3 649.2 642.8 636.9 634.6 631.2 628.8 623.5 613.7 601 585.2 567.4 549.5 530.4
210.4 217.7 219.4 221.9 222.8 221.5 221.3 221.2 221.8 221.7 221.6 220.9 219.2 219.7 220.2 221.4 221.2 221 220.8 220.3 218.8 216.7 218.3 219.1 220.1 221.5 221.8 222.3 212.7 212.7 212.5 212.4 212.4 213.7 216.4 221.1 223.5 230.6 240.3 238.4 237.3 245.1 257.8 264.9 270.2 274.3 276.7 268.8 283 288.8 296.5 300.7 302.2 304.4 306.8 307.1 306.7 304.2 304 305.1 306.7 307.8 313.2 317.7 319 321.2 323.3 326.6 329.4 332.5 336.8 340 344.7 351.6 357.8 365.6 374.3 381.1 384 383.5 379.5 375.5 369.1 358.6 350.9 340.2 330 317.6 310.5 304.1 304 304.9 306.7 313.6 320.1 326 332.8 338.7 341.5 345.1 348.3 350 351.7 353.1 353.5 356.5 360.6 363.2 365.7 371.6 375.8 381.1 385.6 390.5 395.5 399.6 402.1 404.2 404.6 406.8 406.6 408 415.9 425 432.9 442 450.8 461.6 474.7 484.3 491.4 494.2 493.9 494.5 492.9 490.2 490.1 490.1 490.5 493.1 495.6 503.8 515.4 530.5 547.8 566.4 585.7 607.8 629.5 650.4 669.5 686.6 702.9 717.6 726.5 729.1 722.5 705.9 700.9 692.9 685.6 673.2 655.5 640.8 624.2 607.3 593.7 579.8 570.1 557.4 559.8 564.9 573.5 583.5 596.1 607.7 619.1 636.4 652.6 669 681.5 689.2 689.6 690.8 689.7 686.7 679.8 669.9 660 656 653 648.6 643.2 635.7 623.9 609.5 592.4 573.8 556.2 536.6
212.5 217.2 219.8 222.8 223.4 222.4 221.9 221.2 221.1 221.5 221.5 221.3 220.5 221 220.2 221.8 221.5 221.2 220.8 220.1 217 213.4 216.8 217.3 218 220.4 220.1 219.5 213.4 213.3 213.2 213.4 213.5 215 220.9 223.9 227.8 232.9 240.1 239.7 239 244.6 258.5 264.8 268.6 272 269.5 271.4 279 286 293.2 299.7 304.4 304.1 305.4 304.8 303.8 302.5 302.8 304.1 306.3 308.8 312.4 315.4 317.4 319.2 321.2 324.2 327 330 334.2 337.4 341.5 348.7 356.3 363.3 371.4 375.8 376.6 375.6 372.4 369.5 368.4 351.9 343.8 333.2 321.6 315.6 308.5 305 304.5 304.7 305.6 309.4 317.3 322.4 327.5 332.6 335.6 337.8 339.9 341.9 344.2 346 346.5 347.5 350.9 354.8 358.3 362.4 367.2 372.9 377 382.1 385.8 389.5 394.7 395.7 395.5 397.4 393.4 401.8 408 416.2 424.8 433.2 442 452.4 462.5 471.7 477.5 480.2 478.5 478 478.3 476.7 477.8 479.2 479.6 481.3 485.9 496.3 508 521.6 539.5 558.6 576.6 599.3 621.6 641.7 662.5 679.6 696.3 711.1 727.1 733.4 730.8 726.3 714.5 699 687.2 675 658.1 641 625 609.5 594.9 585.1 576.3 563.5 565.9 571.1 581.3 592.9 606.3 616.7 628.2 642.6 659.9 678.4 692.7 701.6 704 704.9 704.7 703.2 698.7 691.4 681.4 675.4 669.6 663.3 655.9 644.7 632.1 615.9 599 577.9 561.4 543.7
215.7 218.9 221 222.5 223.4 223.2 222.4 221.6 221.5 221.4 221.3 221.3 221 220.6 221.9 221.5 221.2 221.3 220.8 219.6 217.8 213.7 217.4 219.2 218.6 219.9 220.9 216.6 214 213.9 214.1 214.6 214.8 216.8 220.9 228.5 230.1 235.7 241.3 239.9 239.3 249.8 259.2 265.3 268.4 269 274.2 284.3 286.8 290.3 292.1 296.5 301.4 298.3 299.1 301.5 300.6 300.8 301.8 303.5 305.7 307.8 311.2 313.6 315.3 317.1 319 321.9 324.5 327.7 331.4 334.7 339.5 344.9 354 360.8 367 369.8 369.5 369.2 366.3 362.6 354.1 346.1 336.9 328.2 317.4 312.8 306.8 305.1 304.5 304.6 306 306.4 313.2 318.2 322.6 326.1 329 331.6 334.9 336.7 338.4 339.8 340.6 342 344.4 347.9 351.4 355.7 359.1 364 367.1 372.8 377.4 380.5 384.1 388.9 388 388.6 389 395.5 403.8 411.2 418 425.2 432.6 442.5 449.4 457.1 461.8 464.2 463.6 463.1 463.5 463.3 464.4 466.1 468.5 469.3 479.6 489.1 500.9 515.9 532.2 549.5 566.9 589.3 613.5 635.1 653.1 671.5 688 701 718.3 731.3 734.7 732.2 723 708.3 690.8 677.2 658.1 640 624.4 610.4 598.3 588 579.8 570.9 574.1 580.8 591.4 604.2 617 628.5 639.1 652.2 668.9 686.4 701.1 710.4 715.2 718.9 720.6 719.7 716.5 710.6 701.5 692.8 684.1 676.3 666.8 653.2 639.9 622.2 602 583.1 564.9 547.1
217.6 219.1 220 221.1 220.4 221 221.4 222.6 222.1 221.7 221 220.9 221.9 221.8 221.7 220.9 221.5 221.3 220.7 220 220.3 220.2 220.6 220.5 219.6 220.1 220.5 217.7 214.5 214.8 215 215.6 216 219.2 222.3 228.3 234.2 239.8 242.2 240.5 239.9 252.3 260.3 265.8 267.5 270.5 279.9 287.6 293 297.3 301.2 302.2 299.3 299.2 299.5 298.1 298.7 298.6 300.1 302.7 304.9 307.9 308.6 311.2 313 315 316.5 319.2 322.4 325.5 329.2 332.6 336.8 341.3 351 357.4 361.4 363.2 362.8 361.1 357.1 353 347.3 339.2 331.3 322.8 317.1 309.1 305.6 304.6 304.7 304.9 305.8 305.6 307.3 309.6 309.7 311.3 321.7 325.4 329.2 331.5 333.3 335.1 335.9 338.5 340.2 342.4 345.5 347.2 350.5 353.8 358.9 361.4 365.4 368.2 373.2 376.6 377.5 378.1 384.8 389.2 395.9 404 411.6 418.7 425.8 432.8 439.4 443.9 447.3 448.6 450.8 450.8 450.8 452.1 453.3 454.4 458.6 459.5 469.8 482.1 493.7 508.9 525.5 539.8 559 577.5 601.2 622.3 641.4 662 678.3 691 708.4 723.2 731.8 729.4 722.1 711.9 697.6 682.8 661.3 640.4 625.4 611.9 600 589.9 579.5 576.4 583.1 590.8 604.4 617.2 628.7 638.3 648.6 664.6 679 694.4 709.5 719.6 726 731.8 735.2 735.6 733 727.9 720.2 710.2 700.4 689.3 677.5 663.3 647.5 627.6 605.9 587.4 568.1 551.7
218.9 219.3 221.3 221.2 220.8 221.3 220.9 222 221.6 221.3 221.8 221.5 221.4 220.6 221.3 221.5 221.6 220.7 221.2 220.9 220.5 220.8 220.7 220.9 220.2 220.1 221.1 221.6 215.4 215.6 215.9 216.8 217.4 218.9 225.6 230.5 237.6 242.6 243.1 240.4 243.7 256.3 260.3 264.3 269.3 273.8 282.7 288.5 294.9 300.1 303.4 303.9 302.9 301.2 300.1 298.3 297 297 298.5 301.6 303.3 305.5 307.8 308.7 309.7 312.3 314.9 318 320.7 323.9 327.4 330.8 334.7 339 347.7 353.6 355.5 356.4 355.3 353.3 350 345.7 340 332.5 327.3 320.8 312.7 309.4 306.2 305.1 305.2 305.4 305.7 304.9 306.4 307.4 306.4 307.1 310.6 319.6 322.6 325.3 328.3 330.9 333.1 334.9 337.1 338.8 339.8 342 343.2 346.3 349.3 351.6 354.9 359.9 364.5 369 370.5 374.8 380.1 384.9 390.1 396.8 403.7 409.5 415.6 420.7 427.1 431.5 434.5 435.3 437.2 438.1 438.8 440.3 442.3 444.8 446.7 452.7 461.2 473.7 488.1 503.8 518.2 533.6 550.2 568.8 588.1 608.4 630.4 650.8 668.4 684 698 713.3 721.3 721.5 713.5 704.7 691.5 678 661.5 641.6 627.9 615.3 603.7 595 589.1 584.9 592.6 601.6 616.7 629.1 640.9 651.8 664.2 674.9 690.1 703.8 718.5 729.7 738.1 744.7 749.8 748.8 746.5 742.2 734.6 724 712.9 700.6 686.6 671.5 655.1 634.3 613.8 593 572.6 554.1
219.5 220.1 216.6 212.5 210.4 210.4 210.3 210.6 211 211.6 216.6 220.5 220.7 220.6 220.8 221.2 221 221.6 221.4 220.9 221 221.1 220.7 221 220.6 220.7 222.5 222.1 216.2 216.1 216.7 217.7 218.7 219.3 223.5 228 231.8 239.2 242 240.6 245.9 255.3 261.7 267.6 270.3 274.6 284.7 291.6 296.9 301.6 305.1 303.3 303.1 299.8 298.4 297.5 295.9 295.4 297.1 299.4 302.1 304.5 306.2 307.5 308.9 311 313.7 316.7 319.4 322.5 327 329.1 332.1 337.4 343.9 349.9 350.2 350.5 349.2 346.9 343.3 338.4 333.4 327.8 323.1 317.9 311.4 309.8 307.6 305.6 305.7 305.5 305.1 306.4 307.3 307.3 308.6 309 310.1 314.8 319.2 323.9 325.5 328.5 330.1 331.4 333.4 334.9 336.3 338.3 340.1 342.1 344 345.9 348.7 352.2 357.3 360.8 362.5 368.7 374.9 380.3 385.7 392.3 398.2 402.7 407.3 412.1 416.5 420.2 422.4 423.6 425.2 426.6 427.6 429.6 432.3 435.3 439.3 446.3 455.3 465.6 479.4 495.5 512 526.8 540.5 557.6 576.2 598.5 617.8 635.8 654.7 673.3 690.2 702.2 709.5 709.4 701 693.1 682.9 671.8 658.3 646.2 633.7 620.9 609.2 602.2 593.5 594.3 602.2 614 627.6 642.5 656.1 667.6 678.7 689.4 702.7 714.6 728.5 739.8 747.1 758.9 765.5 764.3 759.6 753.8 745.9 734.2 720.7 706.8 694.3 679.5 663.3 643 622.8 599.9 579.8 561.9
216.4 209.8 210.1 210.1 210.4 210.8 210.8 210.8 211.2 211.3 210.7 213 221.5 221.3 220.9 220.9 220.6 221.2 221 221.6 221.7 221.6 221.6 221.7 221 220.7 223.5 223.8 216.8 216.9 217.5 218.5 219.2 220.5 221.7 225 229.5 228.9 239.3 241.7 251.9 257.5 261.3 266.4 270.7 278.8 286.4 292.9 297.4 300.5 302.5 302.9 304.9 298.6 296.2 294 293.5 294 296.3 298 299.8 302.1 304.5 306.4 307.9 309.5 312.2 314.9 317.6 321 325.1 328 330.7 335.4 340.1 344.3 345.1 344.3 342.2 337.4 335.2 331.2 327 322 317.4 313.1 310.4 310.5 308.5 306.7 305.6 304.9 305.5 308 308.5 307.8 314 314.3 310.1 310.7 315.3 318.6 321.8 325.5 327.7 329 330.9 332.5 333.4 335.7 337.3 338.9 340.4 342.8 344.5 347.2 350.4 354 356.4 361.4 366.5 373.7 380.4 386.7 391 395.3 399.6 403.6 407.2 410.9 412.8 414.2 416.4 417.3 419.1 421.7 424.4 427.3 433.5 440.3 449.4 459.3 473 486.9 503.6 520.8 535.2 549.2 563.7 583.6 606.2 624.4 640.6 659.3 677.7 691.1 698.1 698.7 691.1 682.8 672.6 663.8 653.3 643.3 632.9 623.5 616.1 607.1 600.5 605.7 613.6 624.1 641.7 658 671.9 683.2 693.5 703.7 715.3 725.4 738.3 748.5 759.2 771 778.5 777.6 771.2 761.7 751.2 739.2 725 712.4 700.3 686.1 669.1 651.9 633.8 611.1 588.1 568.7
209.1 209.6 209.8 209.9 210.4 210.9 211.1 211.1 211.5 211.7 211.9 212.4 212.2 213 215.7 218.2 221.6 220.6 221.4 220.7 221.1 221.7 221.8 221.4 222.4 222.8 224.5 223.3 217.2 217.8 218.5 218.9 220.8 224.3 224.2 232.6 235.7 239.5 239 243.2 254 258.4 256 268.7 271 280.7 287.9 293 297.7 299.8 299.9 299.9 301.5 297.9 295.4 291.8 290.1 291.8 295.4 297.4 298.2 301.9 303.1 305.1 306.4 307.6 310.1 312.7 316 319.3 323.2 327.1 330.1 334.3 337.3 336.3 336.6 335 334.3 327.9 324.5 321.7 317.4 313.5 314.9 313.8 311.3 310.1 309.3 308.7 307 305.9 306.8 309.8 309.7 309.6 314 314.5 312.4 311.3 311.7 312.6 314.6 318.1 323.4 326.3 328.6 330 331.8 333.8 335.8 337.3 339.4 340.8 342.3 344.9 347.4 349.8 349.4 351.8 360.1 367 374 379.5 384.5 388.2 391.6 395.2 398.5 401.5 404.8 406.5 407.5 409.5 411.6 414.1 418 423 429 436.3 444.2 453.9 464.9 479.4 495.1 511.5 527.1 542.2 554.6 570.7 589.9 611.7 629.9 646.8 663.9 678.7 687.8 690 684.3 675.4 666.5 658.3 652.9 643.4 632.3 626.7 620.2 612.4 610.3 619.4 624.4 635.6 655.2 671.5 684.7 696.4 705.7 716.8 727.3 737.5 748.6 759.9 771.3 780.7 789.1 791.3 782.4 767.9 753.7 740.8 727.7 715.3 703.2 689.6 673 658.1 643.1 621.8 598.1 576.9
208.9 209.4 209.5 209.9 210.4 210.9 211.3 211.5 211.7 211.9 212.2 212.5 212.2 212.7 213.1 213.5 213.4 219.4 221.4 221.7 222.2 221.9 222 223 224.4 224.2 224.6 218.4 218.6 220.3 220.5 221.4 225 229.1 231.2 233.6 240 245.3 234.6 243.1 249.7 257.9 260.2 268.7 272.8 283.2 290.3 294.6 298.2 299.1 297.9 297.4 294.7 291.9 290 288.3 288.9 289 294.3 295.8 297.6 298.4 301.4 303.9 306.2 308.6 311.1 311.4 314.6 318.1 321.6 326.7 329 332.6 333.3 333.8 334.5 335.2 333.1 329.5 326.3 321.5 320 318.4 316.2 313.9 312.2 310.7 309.9 309.4 308.6 306.7 307 311.3 309.4 314 315.7 316.5 315.9 313.7 312.7 313.2 313 314 316.8 321.9 325.9 328 330.2 332.2 334.2 336.5 338.6 340.1 341.5 343.2 344.8 346 346.6 346.8 352.7 359.9 366.8 372.6 378 381.6 384.8 388.1 391.2 393.6 397.4 398.6 401.3 402.3 404.6 407.6 413.1 418.6 425.3 432.5 440.1 448.7 459.7 472.9 488.2 502.9 517.7 532.8 546.9 560.1 576.1 594 614.6 633.2 650.8 665.8 675.1 679.9 676.1 666.7 658.6 650.9 648.2 643.4 635.3 629.3 624 617.4 617.7 628.2 634 647.6 663.6 678.2 692.3 705.5 716.8 727.8 738.6 748.6 759.3 771.1 782 788.1 793.1 791.9 785.8 770.1 755.2 742.7 729.9 717.5 703.2 690 676.6 661.5 646 627.7 606 584
208.9 209.1 209.4 209.9 210.4 210.9 211.3 211.7 212 212.3 212.7 212.9 212.8 212.6 212.9 213.4 214.2 215.3 220 221.4 223.4 223.7 224.3 225.2 225 225.4 225.5 219.1 221.4 222.9 221.2 223.4 226.1 231.6 232.7 232.5 238.3 245.6 240.8 238.7 245.1 259.2 260.1 268.5 278.1 286 292.9 296.4 297.2 297.8 295.2 294 291.1 288.2 285.9 285 287.7 287.9 292.1 294 296.9 297.3 297.9 298.7 301.9 305 309.1 313.3 313.1 316.9 320.3 323.7 327.4 330.8 332.4 332.6 334.1 332.7 330.8 328 325.5 322.6 320.3 317.4 314.8 313.2 312.1 311.1 310.4 309.8 308.7 306.3 309.9 312 311.3 314.1 316.4 317.2 317.9 318.3 317.8 316.8 315.5 313.3 315 317.6 320.6 325 328.5 330.8 333.2 335.6 337.5 339.2 340.5 341.6 344 344.3 344.6 344.6 346.8 352.5 359 365.5 371.2 374.6 377.9 381.2 384.3 386.9 390.3 392.6 394.3 396 399 404.3 409 414.6 421.6 428.7 437.1 445 454.3 465.9 480.4 494.5 508.6 523.2 538 552.5 564.2 579.3 596.6 617.4 635.9 654.2 664.2 666.8 664.2 657.3 649.6 644.7 644.4 641.9 635.3 631.4 627.5 621.8 627.8 637.8 647.4 657.5 667.2 680.7 696 711 724 736.3 749.5 760 770.7 782.4 789.8 793.5 792.7 787.4 780.2 765.6 751.8 739.9 729 716.7 703.1 690.1 675.2 662 649.6 634.8 615.3 592
209.1 209.3 209.6 209.9 210.4 210.9 211.3 211.7 212 212.6 213.1 213.4 213.5 213.6 213.2 213.9 214.5 215.2 216.3 220.1 223.2 223.7 223 224.6 224.8 225.5 225.5 220 221.9 224.2 222.6 224 226.8 232.4 233.9 233.5 237.9 243.5 245.4 241 239.1 250.2 263 265.5 275.3 287.8 295.8 297.6 296.7 296.1 296.3 293.5 289.1 285.4 283.5 283.7 286.2 287.6 290.9 292.6 295.2 296.9 298.6 299.7 300.5 302.8 307.9 313.3 314.2 314.9 318.1 321.3 324.7 327.3 329.8 331.2 331.7 329.2 327.2 325.3 323.1 319.9 317.4 316.2 314.4 313.4 312.5 311.8 311.4 310.1 309.1 308.5 311.3 312.7 313.2 315.9 317.2 318 318.7 319.3 318.9 319.2 318 315 314.7 314.9 317.9 321.5 326.3 329.2 331.8 335.2 337 337.2 338.5 339.4 341.9 342.5 343.4 343.2 343.2 346.4 352 357.8 363 367.5 371.6 374.9 378.8 381.4 385 387.6 389.4 391.9 395.9 401 406 412.1 418.7 425.3 433.1 440.2 449 459.6 472.1 484.2 497.7 513.3 528.7 543.3 555.5 568.4 583 601 619.6 640.4 653 656.9 652.6 645.8 639.2 636 636.4 637.8 638.3 635.8 629.4 623.7 637.9 648.4 653 658.3 669.2 683.9 696.7 712.5 729.2 745.3 760.3 771.9 783.6 794.8 799.1 794.1 788.4 781.5 772.7 757.4 744.7 732.2 722.1 711.6 700.1 686 671.6 659.3 648.4 635.6 619.1 599.4
209.1 209.6 210 210.3 210.7 211.1 211.3 211.6 212 212.7 213.4 213.8 214.1 214.4 214.8 214.5 215.6 215.6 216.4 218.8 221.9 220.3 221.9 221.4 225.1 225.3 222.9 220.9 222.1 223.7 224.6 224.1 227.5 233.1 237.4 234.5 240.5 246.1 249.1 246.3 240.3 245.9 261.4 266.8 271.7 286.4 293.1 297 297.1 295.3 293.9 289.3 286.7 284.2 282.7 283.2 283.4 286.7 288.9 290.8 293.1 295.8 298.7 299.8 302.4 304.7 309.4 312.2 315.5 315 317.3 320.5 323 325 324.6 326.2 327.4 327.2 323.3 321.4 319.6 317.6 316.2 314.6 313.7 313 312.4 312.1 311.6 310.7 310.1 311 312.8 312.9 314.6 316.8 317.5 318.8 319.7 320.1 319.8 319.2 317.6 317.1 321.5 317.3 317.7 319.6 323.2 327.9 331.6 334.4 335.8 336.8 338.7 339.9 340.3 341.8 342.3 342.9 342.4 343.6 348.5 353.2 358.1 362.7 366 370.2 374 376.3 380.1 382.8 385 387.4 392 398 403.1 409.8 416.1 422.2 428.4 435.2 443.8 453.7 463.2 473.7 487.6 501.8 516.9 532.3 546.6 560.6 573.1 588.7 605.7 623.9 640.8 645.4 642.2 636.8 630.2 626.3 625.9 626.9 628.1 629.6 624 623.1 636 644.3 648.9 658 668.9 682 696.2 711.3 730.3 749.6 765.9 779.3 794.7 803.4 802.3 792.9 783.4 774.2 762.6 748.2 734.5 721.5 710.4 698.3 687.5 676.1 665.4 653.9 644.9 634.4 620.3 600.5
209.6 210 210.3 210.6 210.9 211.5 211.9 212.1 212.5 213 213.7 214 214.7 214.9 215.2 215.5 216.6 216.7 216.7 217.6 219.2 221.6 222.6 222.3 220.8 225.1 225.4 223 222.1 224.8 226.4 226.1 229.3 233.4 235.8 234.7 244.1 248.3 250.3 248.9 243.3 243.1 256.3 269.3 270.7 280.6 288.6 290.2 289.7 287.8 286.6 284 283.2 282.2 282.3 285.2 285.1 285.6 287.8 290.2 293.2 296.6 299.2 302.1 306.4 308 311.3 313.6 314.6 315.6 317.1 319.3 321.7 322.5 322.3 323.7 325.4 325.3 321 318.3 316.9 315.9 314.7 313.9 313 312.5 312.3 312.1 311.8 311.3 311.3 311.7 313.6 314.5 315.5 316.6 318.7 319.7 320.4 320.7 320.5 319.9 315.8 317.9 322.1 321.2 318.5 319.7 322 326.6 330.8 333.6 335.2 336.6 337.8 338 339.7 340 341.4 343.8 342.3 342.7 347 350.7 355 357.6 360.6 366.4 369.7 372 374.7 377.8 379.8 384 389 394.8 400.4 406.5 412.3 417.9 423.6 430.6 438.1 446.3 455.5 464.4 477.9 490.5 504.9 520.5 536.7 550.9 566 579.9 593.9 609.5 625.5 637.1 636.5 631.4 624.3 618 615.9 615 615.4 615.9 616.7 617.9 625.1 631.1 638.2 649.1 663.7 677.1 691.9 707.7 724.4 743.8 764.5 781 796.1 807.7 802.1 786.9 777.3 765.8 751.6 737.3 723.3 709.6 696 683.8 673 662.8 652.5 643.2 637.1 630.4 618.4 599.4
209.5 210.3 210.6 210.9 210.9 211.9 212.3 212.7 213.1 213.5 214.2 215 215.3 215.4 215.7 216.8 217.4 217.7 217.7 218.4 221.2 218.2 222.7 222.6 221.5 224.7 226.5 224.1 223.5 226 226.8 226.8 229.6 234 237.1 234.4 245.6 249.3 251.5 252.2 250.3 246.7 247.4 264.4 271 276 278.4 284.3 285 281.3 280.7 280.6 279.1 279.4 280.3 283.2 285 288.6 289.7 290.9 293.9 296.4 299.9 302.6 305.1 310 313.7 315.3 314.4 314.9 317.5 319.9 321.3 321.8 322.5 324 324.3 321.8 318.4 315.9 315.2 314.9 313.9 313.2 312.6 312.4 312.2 312 311.8 311.8 312.2 313.8 314.9 316.1 316.9 317.3 319.2 320.2 320.7 320.8 320.6 320.1 317.9 319.5 322.8 324.1 319.3 320 326.9 325.6 327.4 329.9 334.4 336.2 337.7 338.5 338.6 338.9 339.8 340.9 341.3 342 345.6 349.5 350.5 353.4 356.9 361.5 365.2 368.8 371.8 373.1 377.1 380.4 385.2 391.1 396.8 402.2 408.1 413.4 419.7 426.2 432.9 440.7 448.1 458.5 467.4 480.4 495.1 509.2 525.9 541.1 560 575.4 587.3 599.6 613.6 624.8 625.1 620.4 614.3 608.3 602.5 600.3 599.3 600.8 603.8 605.9 611 616.3 625.3 638 652.1 667 684.3 699.3 715.9 733.6 753.1 772.4 791.3 798.7 795 778.5 766.1 754.6 740.9 726.8 711.5 696.2 682 669.8 658.4 647.4 636.8 627.9 622.1 617.6 610.1 594.8
209.3 210.1 210.9 210.9 211 212.4 212.8 213 213.4 214.5 214.8 215.4 215.7 215.9 216.7 217.3 218.1 218.7 218.8 219.2 223.1 221 223 224.4 224.5 226.3 227.1 226.7 225 229.2 228.3 228.1 228.7 232.8 236.3 235.9 244.8 250.3 253.5 255.7 253.4 250.4 245.9 257.7 269.3 273.3 274.7 276.7 276.8 280 278.6 277.1 278.8 279.3 279.2 281.7 283.8 285.5 288.7 291.2 294.5 299 300.4 304.4 308.7 312.6 314.1 315.5 316.2 317.8 318.2 319.3 320.9 321.2 323.3 323.7 322 318.1 316 314.9 313.8 313.5 313.3 312.8 312.3 312.2 312.1 312 312 311.6 312.8 314.7 315.6 316.5 317.6 317.7 319 320.2 320.8 320.9 320.5 320.1 319.3 321 322.7 324.4 320.9 320.2 327.4 330.8 332.4 333.5 332.8 334.1 336.4 337.4 338.2 339.3 339.7 340.7 340.5 341.8 342.9 345.7 348.9 351.4 354.4 358.7 362.6 365.6 367.6 370.6 374.2 377.3 381.7 387.4 392.8 398 404.1 409.7 414.8 420 426.7 434.8 443.2 452.3 462.1 472 484.5 500 516.7 534.5 553.3 571.3 585.7 594.3 601.6 610.4 610.7 604.6 597.3 590 584.4 583.3 583.6 585.9 587.7 589.5 592 599.2 610.2 625.2 642.2 655.4 670.3 687.4 704.2 722.5 739.4 759 777 788.2 786 771.6 757.4 744.8 731.3 716.5 698.9 681.5 667.1 653.6 642.1 631 620.7 612 604.8 597.2 589.3 576.6
209.6 210.5 210.8 211.3 211.4 212.6 212.8 213.4 213.9 214.5 214.5 214.9 216.1 216.6 217.3 217.9 218.7 219.4 219.9 219.9 222 225.4 224.2 226.1 226.6 227.3 227 228.3 225.3 229.3 229.4 229.1 229.1 230.5 235.3 236.7 241.6 251 253.4 256.5 258.7 255.2 246.7 255.8 265.3 271.9 272.7 274 275.4 277.3 276.3 275.5 276 277.6 278.2 280.8 283.4 285.1 287.2 291.4 293.7 297.7 300.8 305.4 310 312.1 313.6 315.5 316.8 319.4 318.9 318.7 319.2 320.1 320.3 319.5 318.4 316.2 314.2 314.1 312.8 312.5 312.5 312.1 311.4 311.2 311.7 311.8 312 312.4 313.1 315.1 315.5 316.5 318.7 319.6 320.7 319.7 320.8 320.9 320.5 320.3 320.5 321.8 322.7 324.7 321 321.2 327.3 330.7 333 334.4 336.1 335.7 337 337.4 338.5 338.9 339.4 341 341 341.9 342.8 345.2 348.2 350.2 352.9 356.6 360.3 363.3 365.2 366.9 369 373.6 378.3 383.1 389 393.6 399.5 405 410 415.4 422.5 429.7 438.1 445.9 455 464.7 475.7 491.3 508.4 526.4 544.4 565.3 581.9 593.9 599.7 600.5 599.2 592.4 584 575.2 569.1 566.2 566.4 568.9 568.6 569.6 574.1 583.7 597.4 614.2 629.8 644 658.4 673 690.9 707.2 724.1 742.3 761.7 774.9 775 765.1 751.8 737.9 722.7 704.5 687 669.5 652.3 637.2 622.8 612.4 603.4 594.3 586.4 577.8 569 557
210.6 210.6 211.2 211.6 211.3 212.1 212.8 213.2 214 214.3 214.8 215 216.1 217.2 217.8 218.6 219.1 219.7 220.7 221.2 221.9 225 225.5 227.3 227.6 228.5 228.8 226.7 227 230.2 231.1 231.7 231.2 231.2 234.1 236.9 242.2 250.3 252.3 257.1 258.5 259.7 249.5 256.4 265.9 270.9 273.4 273.7 277.3 277.1 275.6 275.5 276.2 276.7 278.1 280.1 282.4 284.4 286.6 290.3 293.3 296.2 299.6 304.8 307.9 309.5 311.1 313.2 317.5 319.2 318.8 318.5 318.6 320.8 321 319 317 315.2 312.6 312.4 311.6 311.5 311.7 311.2 310.6 311.1 311.5 311.7 311.8 312.1 313 314.6 316.6 318.4 319.4 320.1 321.6 321.2 320.8 320.9 320.6 321.1 321.6 322.4 323 326.3 321.1 322.3 328.8 331.2 332.6 334.9 336.3 336.6 337 337.2 338.2 338.9 339.5 340.4 341 341.9 342.7 344.3 346.7 349 351.8 354.9 357.9 360.3 362.2 363.8 366.3 370.3 375.5 380.6 384 388.8 395.1 400.9 406.6 412 418 424.7 433.2 440.8 450 459.8 471.6 484.4 500.1 519.4 537.4 556.5 575.8 591.9 600.6 600 592.9 584.3 573.3 565.2 557.6 553.6 550.3 549.8 552.2 555.1 558.4 569.1 584 600.3 614.5 630.2 644 659.5 677.4 695.1 711.4 727.7 745 759.8 768.5 762.2 749.4 731.8 714.5 694.4 676.4 657.9 640.3 624.1 610.6 597.9 585.2 576.1 564.4 556 546.7 532.8
210.4 210.7 210.6 211.4 211.8 212.6 212.7 213.2 214.1 214.9 215.3 215.9 216.4 217.3 218.2 218.6 218.9 219.5 221.3 221.9 222.3 226 227.3 227.2 228.6 229.3 228.8 227.5 229.5 231.2 231.2 231.5 232.7 232.6 235.1 237.6 242 250 252.2 256.4 257.8 254.7 250 255.9 263.3 271.1 272.3 274.7 275.1 275.5 274.9 275 275.3 275.6 277.8 279.1 281.3 284 286.5 290.3 293.9 296.4 299.9 304.4 307.2 309.4 309.9 311.4 316 319 318 317.5 319 320.1 320.2 317.7 316.9 314.3 311.8 310.8 310.9 311.1 310.8 310.3 310 310.4 310.8 311.4 311.6 312 313.7 314.8 316.7 318 318.9 319.9 320.8 320.6 320.9 320.9 321.1 321.8 322.7 322.4 323.2 326.3 321.1 322.9 330 332.6 334 335.4 336.4 336.2 337.4 337.6 338.1 339.1 339.8 340.8 341.4 341.9 343 344.2 346.1 348 350.8 353.5 356.2 358.8 360.5 362.6 364.9 368 372.9 377.8 382 386.2 391.9 397.7 403.6 408.3 413.9 420.6 427.6 436.3 445.4 456.2 467.1 478.8 493.7 509.7 528 546.5 566.4 585.3 593.4 592.7 585.7 577.2 565.3 556.6 547.7 540.7 538.1 538.3 541.4 544.5 547.6 557.4 570.1 585.4 600.4 616 631.6 647.1 665.2 683.4 699.1 715.1 732 747.8 757.9 758.7 750.7 732.1 709.4 687.5 668.1 650.7 631.9 614.2 600.1 585.5 570.5 558.2 547.3 537.5 527.4 514.5
211.7 211.2 210.3 211.5 212.3 212.9 213.5 213.3 214.3 214.9 214.5 215.2 215.8 216.3 217.8 218.6 218.4 219.4 220.6 222.5 223.1 223.7 226.6 229.1 229.3 229.1 229.1 228.6 231.7 232.4 232.9 233 232.8 235.1 235.1 237.4 241.1 249.1 252.3 256 257.2 254.2 250 253.7 264 269.4 270.3 271.9 273.9 272.7 272.9 273.1 274 276 277.9 278.4 282 284.3 286.7 290.5 293.7 296.2 300.3 304.5 308.2 308 309.1 310 313.9 316.1 315.6 315.9 317.2 318.9 318.7 317.5 315.7 312.7 311.2 309.2 310.5 310.3 309.6 308.7 309 309.5 310.1 310.9 311.4 311.8 312.8 314.4 316.4 317.9 318.7 319.9 320.3 320.5 320.7 320.9 321.4 321.8 322.8 323.7 323.9 326.5 321.1 324.8 331.5 334.3 335.6 336.5 337.3 337.2 337.6 338.3 338.9 339.4 339.9 340.7 341.3 342.1 343.2 344.3 346.1 347.5 348.9 351.5 354.1 356.6 358.7 360.8 364.3 367.3 370.4 374.9 380.3 383.2 388.7 394.5 399.9 404.6 409.7 417.3 424 432.1 440.6 451.5 461.6 472.7 487 501.8 516.4 534.8 553 570.5 579.1 578.8 573.1 565.1 556.2 546.4 537.6 530.9 527.9 528.2 530 533.5 538.5 546.5 559 572.9 588.2 604.6 621.6 639 655.4 672.7 687.3 703.9 719.6 734 746.5 752.5 747.9 731 709 685.6 663.9 646.7 629.6 612.2 594.2 579.2 563 549.1 537.6 526.6 514.7 501.8
213.9 212.2 210.6 211.5 212.2 213.1 213.5 213.4 214.5 215 215.1 215.6 216.2 216.6 217.5 217.9 219.1 219.1 220.5 222 223.9 223.8 224.7 225.2 226.3 227.4 229.8 229.4 231.7 233.1 233.6 233.7 233.8 235.2 235.6 240.9 243 248.5 252.5 255.3 256.1 254.8 250 253.9 263.8 267.6 268.1 269.9 271.1 270.9 271.1 270.8 272.5 275.1 277.5 278.8 281.6 284.2 287.5 290.3 293.1 296.2 299.8 303.4 305.4 306.8 308.5 308.7 310.2 311.8 312.6 314.4 314.1 317.6 317.1 314.6 313.2 312.9 310 307.9 308.9 308.4 307.6 307.3 307.2 307.8 308.9 310.4 311.1 311.1 312.6 314.3 316 318.5 319.5 320.1 320.2 320.3 320.6 320.8 321.5 322 324.4 325.1 325 325.2 324 326.5 332.4 335.8 336.6 337.7 337.5 338.2 338.9 339.3 339.4 339.6 339.9 340.6 341.3 342.2 343.1 344 344.8 346.2 347.6 350.6 353.3 355.3 357.4 359.7 363.8 366.9 369.1 372 377.1 381.3 385.9 390.8 395.7 400.4 406.6 413.8 420.3 427.4 435.9 444.2 453.9 466 478.6 491.9 504.9 520.3 537.6 552.4 560.9 560.9 557.7 551.3 544.6 535.2 527.5 521.5 518.3 517.1 519.8 523.7 530 537.3 548.1 561.7 577.5 594.9 612.5 631.8 647.1 664 677.1 693.6 710.9 726.4 738 744.8 740.7 727 707.1 684.6 659.7 642.2 627 614.5 598.4 578.3 560.4 547.6 535.8 522.8 511.1 497.2
214.3 213.1 211.1 213.5 212.5 213 213.9 214.7 215.3 215.6 216.3 217 216.8 217.8 218.5 218.9 219.1 220.9 221.2 221.1 222 223.2 224.7 225.5 225.8 226.1 227.3 228.3 230.8 233.5 234.9 234.7 234.8 236.1 237.1 241 243.9 248.4 252 254.9 256.5 252.9 250.1 250.9 260.8 267.1 267.3 268.5 266.7 267.6 267.7 267.6 271.9 274.8 276.6 279.6 280.7 284.3 288.6 291.2 293.6 297.3 300.7 303.2 304.4 304.1 305.4 307.1 308.9 310.4 312.5 313.7 314.3 313 314.2 311.9 311.1 310 307.5 305.7 306.2 306.4 306.1 306.1 306.3 306.5 307.6 309.3 310.9 310.6 312.4 314.1 315.8 319.1 319.9 319.8 320 320.2 320.4 320.7 321.5 322.3 324.3 325.3 325.3 325.5 324.5 329.8 334 336.5 337.8 338.7 338.5 339.3 339.5 339.2 339.6 339.8 340 340.4 340.8 341.6 342.4 343.3 344 344.9 346.5 349.6 352.5 354.2 356.3 358.8 362.5 365.5 367.7 370.5 375.3 379 383.2 387.2 391.5 396.2 403.2 410.5 415.9 422.5 430 437.8 446.2 456.2 470.9 481.4 493.3 505.7 520.1 532.3 539.7 541.4 539.2 537.6 533.2 524.2 517.2 512 506.3 505.4 508.5 515.1 520.9 528.9 538.7 552.8 569.2 585.8 604.1 622.2 637.8 653.9 668.2 682.4 699.1 716.4 731.6 737 733 721.5 703.3 683.1 661.7 640.4 625.8 614.2 597.7 578.9 562.4 551.3 537.5 524.9 512.3 497.9
214.1 214.4 213.7 211.8 213.2 213.9 214.6 215 215.4 215.7 217.2 216.9 217.2 217.7 219 219.6 219.6 220.8 221 221.1 222.4 222.8 222.5 223.8 224.7 225.2 227.1 228.8 232.2 231.9 234.6 235.9 235.9 237.1 238.7 240.8 243.6 248.4 252.2 253.4 254.7 252 251.1 252.1 251.2 258.5 266.6 261.5 263.8 265.9 266.3 266.7 267.5 271.5 275.5 279 280.4 283.6 287.9 290.7 293.5 296.6 300.3 301 300.8 302.2 303.6 304.9 308.4 310.5 311.4 312.7 312.8 311.1 310.8 310 309 307.4 305.4 304.2 304.5 304.9 305.5 305.2 305.3 305.9 306.6 308.5 308.7 309.8 311.6 313.2 314.8 316.7 318.8 318.6 318.8 319.8 320.7 320.8 321.5 323 324.5 325 325.4 325.5 326.6 331.9 334.8 336.9 338.3 339.2 339.8 340.1 340.4 339.7 339.6 339.6 339.7 340.1 340.5 341.2 342 342.6 343 343.9 345.5 348.5 351.7 353 355.2 357.6 361 363.8 366.5 369.4 373.1 376.7 380.4 384 388.1 392.4 399.1 405.1 411.9 417.2 424.1 431 437.8 447.5 460.1 471.8 481.7 491.8 502.9 510.6 519.4 521.3 521 523 519.2 514.2 508.1 503.9 497.2 496.2 499.9 505.5 512.2 520.8 531.1 545.4 562.8 577.7 594.9 611.6 625.6 641.3 656.5 671.7 686.5 704.5 722.4 732.2 727.3 716 699.7 681 663.2 645 628.1 615 599.5 579.3 564.5 555.3 541.5 525.4 508.3 491.2
215.8 215.7 215.5 214.2 213.7 213.2 213.9 215 215.1 215.8 216 216.6 217 218.4 219.6 219.7 220.1 220.7 221.8 222.2 223.2 222.1 223.2 224.8 226.8 226.3 227.7 227.3 228.8 233.2 234.2 236.3 237.2 237.6 238.6 240.8 244.7 247.1 250.6 253.4 251.4 251.8 252.4 254.7 254.5 252.6 252.8 258 268.5 269 260.3 263 269.6 270.5 272.2 277.9 280.7 283.4 287 290.2 293.6 296.8 298.9 299.2 300.3 300.9 302.7 304.4 307.3 311.3 310.5 310.7 310.6 310.4 309.2 308.5 307.3 304.8 303.8 303.3 303.4 303.7 304 304.2 304.8 305.3 305.9 307.3 308.1 309.3 310.9 311.9 313.6 315 316.6 316.9 317.6 318.5 320.1 321.1 321.7 323.3 324.9 325.6 326 326.1 328.8 333.4 336.1 337.5 339 339.5 340.1 340.4 340.6 339.9 339.4 339.2 339.4 339.8 340.2 340.8 341.6 342.1 342.4 343.2 344.7 347.1 350.3 353.1 354.8 356.5 359.8 362.3 364.8 367.9 371.2 374.2 377.6 382.1 385.5 390 394.7 401.8 407.4 412.3 417.4 424.1 429 437.1 446.7 459.4 469.2 479.9 490.8 497.1 502 504.7 507 508.9 506.3 503.2 498.1 494.4 489.3 487.5 491.6 497.9 504.7 514 525.5 539.5 554.5 569.8 584.3 598.3 612.6 629.3 645.5 661 675.9 692.1 710.9 720.5 719.6 709.7 693.8 677.9 663.5 645.9 628.9 616.8 602.4 582.2 567.1 553.7 536.8 518.2 497.5 475.8
217 215 214.3 215.2 214.4 215 214.9 214.7 214.9 215.3 216 217.4 218.3 218.2 219.6 221.4 220.6 221.2 221.8 223.2 223.4 224.2 224.2 225.3 225.5 225.6 228 227.4 229.5 230.8 233.1 235.3 237.5 237.1 239.1 241.8 243.9 246.6 250.1 250.8 251.1 252.3 254.4 255.3 255.4 255.4 255.8 255.3 254.8 258 269.5 268.3 267.1 273.4 272.2 273.9 280.7 283.9 286.4 289.2 292.7 295.4 297.1 297.8 298.8 300.1 302 303.5 305.4 308.1 309 309.3 308.6 309.3 307.5 306.8 305.5 303.2 302.3 302.2 302.6 302.9 303.2 303.8 304.3 304.8 305.4 306.3 307.4 308.9 309.5 311 312.3 314.3 314.6 315.8 316.9 317.6 319.8 320.7 321.9 323.6 325 326.3 326.7 327.3 330.6 334.7 337.2 338.6 339.9 340.3 340.2 340.5 340.4 339.9 339 338.8 339.1 339.5 339.9 340.4 341.1 341.6 342.2 343.1 344.3 346.3 349.1 351.4 353.9 355.5 358.6 361.6 364.4 366.9 369.5 372.9 375.4 378.8 383.9 386.8 390.7 395.9 401.3 405.5 411.1 416.7 422.4 427.7 435.4 445 455.8 465.5 475.7 484.9 489.5 493.2 494.3 494.2 493.2 491.8 487.5 485 481.4 480.1 483.7 491.8 497.9 508.2 518.5 531.9 546.6 560.2 573.2 587.1 601.6 618.2 633.8 647.8 663.4 681.3 696.8 709.6 711.2 702.9 687.4 673.3 661.4 644.9 630.1 622.2 605.2 583.7 567.2 551.5 530.4 510.6 484.2 456.6
217 214.4 213.6 214 215.3 215.4 215.3 216.7 216.9 216.7 216.5 216.7 217 218.8 222.2 224.3 227.5 222.7 223.3 222 222.6 224.4 225.8 227 226.2 226.3 227.5 229.1 230.1 231.5 231.5 235.6 237.5 238.5 239.4 242.5 244.7 246.8 248.1 250.8 251.6 252.8 253.6 257.2 257.6 257.6 257.9 257 257.5 260 269.2 269.5 269.2 269.8 273.6 273.3 278 284.2 287.1 289.2 291.6 293.2 294.7 297.2 298.5 300.1 301.8 302.9 304 305.9 306.2 305.5 305 305.9 305.5 305 304.5 302.2 301.7 301.9 301.9 302.2 302.8 303.5 304.1 304.6 305.2 305.8 307 308.3 309.2 310.2 311.4 312.6 313.6 314.9 316.3 317.1 318.6 319.6 321.7 324.1 325.3 326.9 327.3 328.4 332.1 335.4 337.1 339.2 340 340.2 340.4 340.5 340.2 339.6 338.7 338.5 338.8 339.2 339.6 340 340.6 341.3 342 342.6 344.1 345.7 348.2 350.4 353.6 355.4 357.9 361.1 364 366.3 368.5 371.2 374.9 377.4 380.9 384.3 387.1 391.3 395.3 399.9 405.3 411.2 416.4 422.1 428.4 435.9 443.5 452 461.2 470 476 480.1 482.5 483.3 484.5 481.4 477.5 475.7 473.6 473.8 477.6 485.8 491.8 500.3 511 522.7 533.9 549.2 561.4 574.2 589.3 605.2 623.1 637.6 651.9 669.1 684.2 696.6 698.5 691 679.7 666.4 656.1 641.8 634 628.6 613.8 591.1 576.1 549.6 524.7 496.5 463 439.8
214.2 212.6 213.6 213.8 215 215.2 215.9 216.8 217.3 218.5 219.9 224.3 225.5 224.3 223.6 224.9 228.1 228.4 229.8 230.3 230.6 230.6 225.4 226.1 233.3 233.8 234.3 232.9 229.6 229.8 233.5 233.5 237.8 238.9 240.1 241 243.5 247.5 248.1 250.1 252.2 252.8 253.3 257 259.1 259.8 260.1 259.2 258.5 259.5 261 267.5 269.3 270.2 272.6 273.7 274.8 282.7 286.9 288.8 290.5 291.7 293.9 295.2 296.3 298.2 301.1 303.2 302.7 303.1 303.7 303.2 302.7 302.8 303.4 303.7 302.3 301.1 301.1 302.7 301.4 301.9 302.6 303.3 303.9 304.5 305.1 305.6 307.3 308.3 310 310.3 310.7 312.1 313.1 314.5 315.9 316.8 317.8 318.8 320.9 323.3 324.9 327.6 327.3 328.2 332.7 335.2 336.5 338.5 339.4 339.6 339.8 339.9 339.7 338.8 338 338.1 338.7 339.2 339.6 339.9 340.3 341 341.7 342.4 343.7 345.5 348.1 350.2 353.5 355.5 357.7 360.4 363.1 365.8 368 370.9 374 376.9 379.2 381.8 384 386.8 390.4 395.8 400.9 405.7 410.9 415.6 421.2 428 434.1 440.7 448.3 456.1 462.4 467.1 470.2 472.2 472.7 473.1 470.7 468.8 467.1 467.7 471.9 479.6 486.1 494.3 503.6 513.3 523.2 535.1 548.6 561.7 576.9 593.4 611.4 627.2 641.5 655.5 668.9 677.9 681 678.9 668.9 657.3 649.2 638.4 633.2 628.6 619.8 596.7 571.7 539.8 509 480.2 456.4 424.4
212.4 213 213.3 213.9 215.1 215.6 217.4 218.7 218.9 218.8 220 220.3 223.5 224 226.9 227.6 228.7 229.5 229.5 231 231.3 229.6 232.7 233.6 234.3 235.2 235.4 233.4 234.7 234.1 230.3 234.1 237.8 241.4 240.5 240.9 241.6 247.6 247.7 249.5 251.5 252.9 253 256 259.1 258.9 260.2 259.5 265.1 260.8 261.4 263.6 268.7 270.1 274.2 274.3 274.5 284.5 285.2 286.6 288.5 290.6 292.7 293.6 295 296.8 299.2 300.9 300.9 300.8 301 301.3 300.7 300.6 301.7 301.3 300.8 300.6 300.7 301.2 301.2 301.8 302.5 303.1 303.7 304.3 304.8 305.9 306.8 307.9 309.3 311.3 310.5 312 312.6 313.7 315.3 316.2 317.3 318.6 321 323.1 324.8 327 327.8 327.7 332.1 334.8 336.3 338 338.7 338.9 339 338.7 338.5 338.1 337.5 337.8 338.2 338.5 339.1 339.7 340.1 340.7 341.4 342.2 343.4 345.3 347.8 350.7 353.2 354.9 357.6 360.6 363.1 365.5 368 370 372.5 375.7 378.3 380.3 382.5 384.2 387.5 391.5 395.6 399.8 404.7 409.8 415.1 420.1 426 432.2 438.2 444.3 450.8 455.3 458.3 461.2 462.5 464.3 464.2 462.7 460.9 461.4 466.9 474.3 481.3 489.1 496.7 505.1 515 524.9 537.8 551.1 567 583.1 599.9 614.4 628.2 642.2 655.3 662.2 663.2 660.4 653.3 643.8 638.7 631.4 626.9 622.6 616.6 595.7 563.4 525.5 489.3 462.4 435.7 407.9
212.6 213 213.5 215 215.1 216.4 217.6 218.3 218.8 218.5 220.7 220.4 222 223.3 225.1 226.4 229.1 230.3 230.9 231.2 231.2 232.5 231 232.3 234.4 234.9 235.5 234.7 236.3 236.8 234.6 235.4 238.2 239.8 242.1 241.4 242.2 245 246.9 248.8 251.2 252.7 252.8 253.9 257.9 259.1 259.6 261.6 265.1 266.5 261.8 262.6 264.5 269.7 273.8 274.1 275.8 283.3 285.2 285.5 287.5 289.9 291.1 292.9 293.9 295.7 297.8 298.7 299.1 299 299.5 299.6 299.2 299.1 299.8 300 300.3 300.2 300.3 300.6 301.2 301.8 302.4 302.9 303.5 304 304.8 306.4 306.8 307.8 308.9 309.6 310.8 311.7 312.4 313.4 314.6 315.5 317 318.4 320.6 323.2 325.1 326.8 327.6 328.3 331.6 334.4 336 337.2 337.7 338 338 337.6 337.3 336.9 337.1 337.3 337.7 338 338.4 339.1 339.7 340.3 341.1 342 343.4 345.6 348.3 350.7 353.1 355.6 357.7 360.8 363.2 365.4 367.7 369.7 371.9 374.3 377.2 379.6 381.4 382.9 384.9 387.6 390.6 395.2 399.7 403.9 410.4 413.4 418.9 425.2 430.6 434.9 439.8 444.9 448.5 450.7 453.4 455.4 457.6 456.3 454.5 456.4 462.1 468.9 475.6 483.3 490.5 497.7 505.5 516.3 528.1 541 556.7 571 586.7 601.2 612.2 624 635.6 643.3 644.7 640.9 634.9 626.2 622.9 620.7 615.9 612.7 611 591.4 552.4 509.9 474.7 442 414.3 389.2
212.4 213.1 213.8 214.9 215.3 216 217.4 219.9 219.3 219.1 220.8 220.9 222.4 223.3 223.4 224.6 225 229.4 231.4 231.7 232.6 233.3 233.5 234.3 234 235.5 234.8 235.4 237.3 237.1 236.4 231.3 236.5 239.5 241.6 242.2 242.9 244.5 246.7 249.3 251.7 253 252.5 253.3 257.4 258.3 260 262.2 264.2 266.9 263.4 262.3 263.6 267.9 272.1 273.6 276.1 282.3 284.3 285 285.7 287.8 289.5 291.1 292.8 295.1 296.6 297.3 297 297 297.6 297.7 297.8 298.3 298.6 299.5 299.9 299.9 300.3 300.7 301.2 301.6 302 302.2 303.5 303.9 304.7 306.1 307 308.2 309.1 309.5 311.1 311.4 312 313.2 314.1 315.1 316.9 319.2 320.7 323 324.5 326.3 327.8 329.2 331.4 334 335.1 336.2 336.6 337 337 336.9 336.3 336.3 336.7 337 337.2 337.6 338 338.7 338.8 339.7 340.9 342.5 344.2 346.3 348.6 351 353.4 356.2 358.1 360.8 363.1 365 367.2 369.4 371.7 374.1 376.5 379 381 382.5 384.1 385.4 388.2 391.2 395.1 398.7 403.2 408.3 412.1 416 421.4 425.7 430.8 435.6 438.9 441.7 445.3 447 448.2 448.3 448.2 451.8 457 463.6 470 477.1 484.3 491.8 498.8 507.8 518.2 530.2 542.7 559.2 572 586.6 597.6 605.8 611.7 617.7 620.7 616.3 610 606.5 605.4 600.9 600 598 597.2 578 537 498.1 461 428.9 399.2 372.2
212.2 213 213.5 214.4 215.1 215.6 220.6 223.3 223.3 219.4 220.1 225.9 227.6 228.8 229.6 224.8 225.3 226.9 229.9 231.2 233.1 233.4 233.8 234.6 235.7 235.3 237.7 236.8 237.9 236.5 236.8 235.4 238.6 238.8 241.5 242.1 243.2 245 245.6 248.3 250.9 252.6 253.7 254.3 256.8 257.7 259.9 262.6 263.5 265.7 260.5 260.8 262 263.8 268.9 273.7 276.6 281 283.1 285 285.2 286.4 288.2 289.8 292.7 293.5 294 295 295.1 295.4 296 296.3 297 297.6 298.1 298.9 299.5 299.8 300.2 300.5 300.8 301.2 301.5 301.7 303.2 304 304.7 305.7 306.9 308.3 309.1 309.7 311.2 311.6 311.9 313.3 313.8 314.7 316.8 320.2 321.4 322.8 325.3 325.8 327.4 329.1 331.3 333.2 333.6 334.4 335 335.7 335.8 335.9 335.6 335.9 336.4 336.7 336.7 336.3 337.8 337.4 338.2 339.3 340.8 342.8 344.6 347.1 349.4 351.7 354.2 356.5 358.7 360.9 362.5 364.9 367.1 369.2 371.5 373.7 375.7 377.7 379.2 380.4 381.7 383.5 385.4 387.9 391 394 398.7 402.4 406.3 408.9 413 417.1 421 425.4 428.7 432.5 435.6 437.7 439.3 440.5 440.6 447 452.6 458.2 465 471.4 478.7 486.9 493.2 501.2 509.6 519.4 530.6 542.3 555.8 567.2 581.2 588.6 595 594 591.8 589 586.1 584.1 582.6 579.8 579.1 578.5 578.1 561.4 526.4 483 448.5 416.5 386 358.2
212.2 212.8 213.2 214.1 215.5 219.5 224.9 223.8 222.1 223 220.4 219.7 221.6 228.4 229.1 230 231.1 229 228.5 233.4 233.3 234.4 235 235.4 237.1 236.5 237.8 238.5 239.1 239.6 236.6 236.8 234.1 234.7 238.9 241.1 243.1 244.6 244.8 247.5 252.5 253.6 253.9 254.3 256.3 259.6 259.8 262.1 263.1 264.6 260.9 259.2 261.8 263.7 264.4 272.2 277.1 280.1 282.5 284 284.9 286.6 288.5 290.5 290.6 291.9 292.7 293.1 294.4 294.8 295.3 295.4 296.1 296.8 298.4 301.2 300 299.3 299.6 300 300.4 300.8 301.1 301.6 303 303.5 304.7 305.7 307.1 308.9 309.3 309.7 310.8 311.4 311.9 312.6 314.5 315.2 316.1 320.5 323.2 323.7 325.9 326.5 326.3 328.4 330.8 332.9 332.9 333 334 335.1 335.1 334.7 335.1 335.6 336.1 336.2 336 336 336.8 337.3 338 339 340.6 342.6 345 347.6 350.1 352.2 354.2 356.3 358.4 360.6 362.7 365 367.7 369.8 371.3 372.9 374 375.4 377 378.2 379.3 380.9 383.1 385.6 388.2 390.1 391.6 396.5 400.2 403 406.4 410.2 413.7 417.9 420.3 423.9 425.9 428.9 431.5 434 437.2 442 446.9 452.3 458.6 465.9 472.1 479.4 485.7 493.7 501.6 509.5 519 529.9 539.7 549.7 558.8 565.2 569.5 570.3 569.3 565 563.4 562.9 559.9 556.4 554.6 554.1 552.4 538.8 505.1 470.5 436.3 404.8 373.4 358.6
