ncols 200
nrows 82
xllcorner 240000
yllcorner 791000
cellsize 50
606.9 604.5 603.7 593.3 583.5 570.7 574.8 574.7 565.7 554.9 546.9 543.4 542.3 541.7 543.5 535 525.6 520.5 507.1 494.5 487 480.9 474.4 470.7 467.7 460.7 458 458.2 458.1 457.2 457.3 455.8 455.7 454.1 451.4 448.2 445.8 438.3 432.5 429.6 427.5 424.6 421.2 416.4 411.3 407.1 403.5 410.4 408.4 408.1 409.2 411 413 415 417.2 419.1 420.4 421.6 420.3 417.9 415.6 414.4 413 409.9 408.4 402.7 399.1 394.5 385.2 382.1 374.6 367.2 359.9 355.4 350.2 347.6 346.1 344 344.1 344 343.5 343.1 342.1 341.3 340.7 340.3 340.2 339.9 340.5 341.1 340.3 340.6 340.7 343 341.6 341.4 339.1 339.7 340.2 341.5 342.4 341.5 340.8 339 339 340.2 341.5 344.8 346.9 352.2 351.4 355.3 363.4 371.3 376.4 377.4 384.6 387 388.7 391.8 394.8 399.3 405.6 408.2 404.3 402.9 402.5 406.2 398.5 396.9 391.8 390.2 391.1 380.4 377.7 373.6 372.7 369.6 364.1 363.8 362.9 361.9 360.1 355.6 351.1 353.5 353 352.7 352.1 350.3 350 350.7 350.1 346.5 346.8 343.7 343.8 343.6 342.9 343.2 351.2 351.7 351.6 351.3 349.7 350 346.3 344.4 348.1 350.8 352.2 353.9 358.8 361.5 363.6 363.4 361.6 359.1 359.1 358.6 357.8 355.6 353.5 350.3 347 341.4 337.9 338.2 332.8 330.6 327.2 325.6 324.9 324.7 325.1 322.5 321.6 320.9 321.1 321.6
598.6 595.7 583.8 570.4 561.9 551.2 545.4 545.8 544.3 537.6 530.2 525.9 528 529.9 532.2 524.7 505.8 501.3 490.5 483.5 475.3 470.3 466 461.6 458.8 455.6 452.3 453.9 452.7 453.9 453.7 453.7 454.1 453.3 449.9 444.7 437.8 433.2 430.6 428.7 427.2 423.4 416.6 412 406.5 404.7 402.7 404.9 405.1 407.5 407.5 408.6 410.1 411.5 414.4 415.3 415.7 414.8 413.9 411.3 409.1 408 404.8 401.8 399.2 395.8 393.4 390.7 381.6 375.7 369.8 359.6 352.3 350.1 346.9 344.4 343.4 343.3 343.5 343.1 342.6 342 341.4 340.4 339.5 339.9 339.4 342.3 342.6 342.5 343.1 341.8 342.1 344.6 341.1 341.7 342.4 343.7 342.4 341.9 341.8 341.7 340.5 339.6 341 342 344.4 349.1 350 353.8 357.7 364.3 373 379.8 381 388.1 391.5 394.6 401.3 405.9 408.8 415 422.4 423 418.3 417.6 417.6 414.8 408.6 406.9 399.5 396.3 393.1 388.4 386.6 383.8 380 377.8 372.6 370.7 370 370 361.2 357.4 357.4 356.4 356 358.1 358.5 356.4 354.9 354.2 351.7 352.2 350.1 349 347.9 347 346.4 348.1 355.4 356.5 356.6 354.3 352.4 351.3 353.1 359 357.4 359.4 362.4 365.8 370.4 373.6 375.5 376.3 372.5 370.4 368.2 366.4 364.6 360.1 357.1 353.9 349.6 343 339.7 337.7 333.5 329.8 328.2 326 325.1 325 325 324 323.1 321.1 319.5 320.7
565.1 563 556.8 547.8 542.9 537.2 531.5 528.6 525.9 522.1 513.4 507.5 514.1 515.8 508 503.5 491 487.6 480.2 467.3 463.1 461.4 457.4 454.3 450 450.1 448.5 448.8 448.5 448 449.1 450.1 454.4 455.4 445.3 437.5 432 430 428.9 426.3 424.3 417.3 409.3 404.9 404.9 403.4 401.1 404.6 408 406 405.5 406.1 407.6 409.1 411.1 410.8 410.1 409.2 408.2 405.7 404.4 401.9 398.5 395 390.9 389.5 387.7 385.1 377.1 370.2 362.9 357.2 353.5 347.5 345.1 343.5 343.2 343 342.8 342.6 341.9 341.4 340.7 341.5 341.3 344.8 348.6 347.7 346 345.6 345.2 343.2 342.2 340.9 342.1 343.2 343 343.1 342 341.7 341.7 341.7 341.8 342 344.4 347.3 352.9 357.4 356.1 359.8 365.6 372.3 375.1 382.8 389.4 392.8 397.5 405.2 414.2 418.5 423.6 431.3 435.7 435.9 433.6 435.4 432.2 428.7 419.1 412.8 407.3 404.7 403.5 396.4 397.1 394 389.3 385 379.8 377.2 376.5 376.2 362.2 363.6 361.3 362.4 364.9 363.9 363.3 362.5 361.2 358.9 357 355.5 355.6 356.1 356.5 355 355.6 358.4 360.4 367 370.6 362.3 355.6 358 360.3 363.7 365.6 369.2 372.3 376.6 382.3 388.9 394.7 398.4 392.7 387.9 382.7 376.8 373.9 369.2 363.1 359.3 353.9 347.9 343.2 341.2 338 333.8 330.5 326.6 325.5 325.4 325 324.4 323.4 321.5 320.8 320.7
536.4 541 540 533.9 524.2 519.8 514.6 514.1 509.3 506.1 495.4 488.3 496.1 493.5 488.6 478.5 478.6 466.7 459.2 456.1 452.9 450.1 448.6 445.9 441.2 443.4 441.9 441.4 442.4 442.9 444.1 442.1 444.1 436.2 433.1 428.9 427.1 425.9 423.9 418.4 414 408.8 405.1 403.8 403 402 398.9 401.5 402.1 403.8 404.1 403.8 405 406.5 405.8 406 406 405.1 402.8 401.4 400.6 397.8 394.3 393 390 386.3 381.8 377.6 371.4 365.2 359.6 353.7 349.7 344.9 343.8 343.4 342.9 342.6 342.4 341.9 341.1 340.8 340.6 346 345.8 348.2 348 349.5 345.9 345.3 342.9 340 341.5 342.3 343.7 343.8 342.9 342.9 342.7 343.3 343.7 347.3 345.5 348.4 349.8 353.8 361 359.9 365.5 367.8 374 379.8 384 387.7 394.1 399.7 407.8 412.9 425.3 434.2 435.6 444.2 449.6 447.9 448.7 449.2 448.1 441.3 430 423 417 415.2 414.5 411.3 407.9 407.7 405.3 401.3 398.2 390.2 385.5 384 369.8 370.4 371.8 370.8 370.1 368.8 369.4 370.5 367 366.2 365.2 363.4 363.5 363.6 364.5 365 363.5 366.9 370.5 370.3 372.4 362.7 363.3 365.5 368.2 370.4 374.1 378.3 381.1 386.1 393.8 401.1 411.3 424.9 428.5 416.2 405.3 396.2 387.8 380.1 371.3 365.6 359.4 352.2 346.3 343 340.4 338.4 332.8 329.4 326 325.5 325 324.5 323.6 322.1 320.7 319.7
511.7 517.3 520.3 509.7 507.4 505.7 497.7 497.6 493.6 491 483.7 472.3 480.7 473.5 467.5 460.5 454.8 451.4 448.8 444.6 441.7 438.2 437.5 436.7 435 433.4 433.9 434.8 435.3 435.3 436.1 435.6 431.3 427.5 426.2 424.9 423.4 421 417.3 414.1 410.7 407 406 405.2 403.9 403.1 402.9 394.8 398 402.8 401.1 400.5 399.5 398.7 399 400.5 400.6 400.3 399 396.9 394.4 391.7 391.8 393.2 394.2 389.7 379.2 372.6 367 361.9 355.8 348.2 349.1 344 343.6 343.3 342.9 342.3 342.1 341.6 341.2 340.8 339.9 342.5 344.2 346 342.9 343.5 344.9 346.3 341.7 341.3 342.6 344.9 343.4 343.2 343.8 344.7 345 348.1 350.3 350.9 350.6 355.7 360.8 366.8 369 370.2 372.8 377.6 381.5 389.1 390.5 394.3 398.8 408.3 419.7 426 435.3 442.2 450.5 459.3 460.1 462.5 469.5 462.8 462.4 451.1 442.5 436.5 432 429.6 428.6 425.4 424 421.5 415.1 410.3 405.3 397.9 391.5 388.1 379.2 381.3 380.2 380.7 380.1 379.9 380 379.2 377.2 374.8 377.8 374 373.3 372.1 373.1 372.7 373.3 372.9 371.9 368.9 364.8 364.4 370.9 372.3 374.5 377.8 382.2 385.6 389.9 396.4 403.8 412.3 425.4 442.5 459.1 456 428.2 416.1 407.6 397.7 387.4 379.4 370 359.3 352.4 349.2 343.6 340.1 336.1 332.2 328.3 325.9 325.1 324.4 323.4 322.3 320.6 320.8
487.4 489.2 490.4 492.3 488.7 486 483.1 479.7 477.4 473.9 468 461.5 460.2 454.3 448 446.2 441 437.6 436.1 433.2 431 428.8 426.9 426.5 426.6 425.2 427.1 426.6 428.1 427.9 427.6 427.2 424.4 422.4 422.6 422.5 421.4 418.3 416.4 413.8 411 410.1 410.3 411.8 410.8 409.6 408.1 405.5 397.7 395.1 399.8 397.9 396 393.6 393 393.8 394.8 394.9 393.3 390.5 388.1 385.7 385.3 385.6 388.7 387.8 383.1 373.7 366.8 356.7 350 347.8 344.6 344.3 344 344 343.4 343 342 341.7 341.6 341.2 341.6 342.7 341.8 341.4 342.3 342.5 340.9 340.2 342 343.1 343.5 343.7 344.1 345.3 346.3 348 350.7 353.4 355.9 361.3 359.3 364.1 368.5 373.7 376.4 377.4 381.5 386.8 391.5 395.8 396.8 403.7 412.3 418.3 430.3 435.7 441.7 448.1 455.6 463.9 469.9 474.8 481.4 474.8 472.4 463.5 452.9 448.5 448.2 444.6 444.8 446.5 443.6 433.8 422.7 416.8 409 397.3 395.7 394.3 390.6 394 394.6 394.6 394 393.2 393 390.7 385.7 383.3 382.6 383 382 379.3 380.6 376.7 375.3 374.6 372.2 371.8 368.9 369.8 375.1 381.2 384.1 387.2 390.2 392.6 397.5 404.2 411.4 420.7 435.6 455.8 474.7 485.3 468.6 442.3 435.1 426 411.3 398.9 386.8 375.9 363.3 355.3 349.9 343.5 338.7 337.2 330.4 327.4 325.7 324.3 323.4 322 320.5 320.2
471.3 471.7 472.5 470.7 472.6 473.3 463.3 462 461.1 458.2 450.1 443.4 445.3 438.4 431.7 433.3 428.7 425.2 423.3 422 420.8 419.3 418.3 417 417.3 417.4 419.7 418.7 419.6 420.1 419.3 418.8 420.2 419 420.1 419.7 418.6 417.4 417.7 416.2 415.6 416.8 421.3 425.9 434.7 424.3 417.9 409.4 400.7 392.5 397.7 396.4 392.5 388.4 387.6 387.4 388 388.6 386.6 383.2 380.6 379.4 378.4 376.7 374.4 370.8 369 366.8 359.8 350.4 346.5 345.2 344.8 344.5 344.2 343.8 343.2 342.7 342.3 342.2 342 341.8 341.9 342.8 341.5 340.7 344.3 343.8 343.3 342.9 343.3 343.3 344.8 345.8 347.1 348.3 350 352.6 354.9 357.8 365.4 367.6 364.4 372.2 376.5 379.8 383.3 385.7 387.7 394.7 398.6 401.2 406.8 413.5 420.7 424.7 437 441.5 447.2 452.5 459.2 468.1 476.1 480.6 489.9 487.3 480.2 475 465 461.3 461.4 464.4 463.1 459.7 449.7 438.1 426.4 417.8 413.3 407.5 405.2 396.8 405.6 409.9 410.1 413.6 414.3 411.2 410.1 405 397.4 392.3 387.5 388.3 389.1 388.9 387.6 381.5 381.2 377 377.6 377.6 375.1 376.7 382.8 389.3 393.2 396.6 399.6 402.8 406.3 412.2 419.1 432.8 447.5 467.2 491.5 508.3 492.3 479.1 465.9 454.3 440.5 429.3 411.7 393.2 375.6 367.2 358.4 348.8 342.4 337.5 333.4 329.2 327 324.5 323.7 323 322.1 321
455.8 456.6 458.3 458.9 456.1 453.9 447.5 445 446.7 445.3 438.6 429.5 429.7 429.9 424.8 417.4 416.4 415.4 413.3 411.4 410.9 408.7 410.7 411.3 409 411.3 412.3 410.9 411.6 413.4 414.8 414.8 415.6 416.2 418.1 417.8 418.4 419.3 420.1 421.2 422.8 427.2 432 445.1 444.5 435 425.8 415.2 406 396.3 381.7 390.6 386.4 383.7 382 382.2 380.6 378.4 379.2 376.7 378.5 376.9 371.8 369.7 367.3 360 358.1 355.9 351.8 347.9 346.2 345.4 345 344.7 344.3 343.7 343.6 343 342.7 342.6 342.4 342.3 342.3 342.6 341.2 344.4 345.1 345.1 344.4 343.9 346.1 346.9 346.3 349.7 351.2 352.7 354.6 360.2 362 363.6 369.1 369.9 366.8 377 381.3 385.6 389.6 393.3 396.3 401.6 404.6 410 416.7 421.6 425.5 431.8 441.4 446.6 453.5 458.2 463.9 469.2 475.3 481 486.3 488.4 489.4 484.3 475.5 473.3 474.3 470.8 463.4 456.8 444.4 436 428.8 424.5 422.2 415 408.2 406.5 419.8 431.1 433.9 437 437.1 434.5 433.8 424.3 414.4 405.1 399.3 394.4 392.1 393.2 392.1 386.4 383.1 380.5 382 382.3 383 385 389.1 397.2 401.8 407.2 410.5 413.7 417.7 423.5 433 447.4 463.1 478.5 494.8 514.3 533.1 521.4 499.2 487.4 484.4 463.5 438.9 415.2 396.3 379.3 367.3 356.1 348.7 345.2 336.6 334.5 331.2 327.2 324.8 324.2 324.3 324
437.8 439.1 440.1 444.1 441.7 441.1 435.5 439.4 430.8 428.9 428.9 419.7 412.8 414 411.2 407.8 409 406.1 403.9 403.1 401.9 400.2 402.8 405 403.8 403.9 406.4 406.3 407.3 408 409.9 411.4 413.2 414.7 416 418 419.8 422.3 424.5 427.2 428.3 434.2 436.4 448.4 446.6 446.4 435 424.8 413.1 404.2 394.8 386.6 375.9 375.1 377.6 378 376.5 375.3 374.6 373 371.6 372.7 367.1 365 359.2 354.5 352.8 351.2 349.5 347.1 346.3 345.7 345.3 344.8 344.3 343.7 344 343.6 343.1 342.9 342.8 342.6 342.6 343 344 345.4 345.9 346.6 348.8 347.9 348.6 350.5 351.5 353.5 355.7 358.3 359.2 361.2 363.8 368.3 373.5 376.1 371.1 380.7 384.9 390.3 395.6 399.7 403.5 408.3 412.6 417.9 422.9 428.3 432.1 440.4 445.6 452 457.7 462.4 467.7 472.1 476.4 478.8 482.6 487.7 493.8 491.3 492.5 482.3 474.6 467 463.4 455.4 445.8 442.4 437.1 433.4 429.6 422.3 404.8 424.3 433.5 444.7 454.2 462 465.5 461.9 456.5 447.5 435 424.3 418.2 409.5 406.1 401.2 399 393 389.6 386.6 387.7 392.6 397.1 399.9 395.5 407.9 410.6 416.8 420.6 423.4 429.9 434.3 445.6 458.9 473.3 490.2 505.1 517.5 540.1 552.2 539.1 517.7 513.4 506.1 498.6 442.8 418.1 395 378.7 365.7 354.7 347.8 346 343.4 340.8 336.2 332.3 329.7 329.2 328.5
424.9 422.9 424.4 423 422.2 427.5 423.5 422.7 426.9 413.3 414.5 414.8 401.1 399.2 397.8 393.1 395.6 395 397.1 397.5 395.9 394 395.1 398.7 398.9 397.9 401.1 402.1 403.8 404.4 405.8 408.2 410.8 412.8 415.1 418.6 421.8 425.4 428.4 430.5 431.1 436.1 438.7 447.9 453.5 451.6 441.6 428 418.7 409.2 395.7 389.2 382.3 376.5 372.1 372.5 371.6 370.2 371.4 373.7 369.6 368.2 363.1 358.2 354.3 353.5 350.7 350.1 348.8 347.3 346.8 346.1 345.4 344.9 344.4 343.8 343.3 343.6 343.6 343.1 343.2 342.7 343.9 344.7 345.5 346.5 347.8 347.9 349.5 350.7 351.8 354.3 354.5 355.2 358.4 361 363.7 366.1 369.3 373.3 376.5 377.8 378.1 383.6 391.2 398.2 401.8 404.1 407.6 414 418.7 422.8 429.2 436.9 441.3 446 450.6 457.1 462.4 466.8 471.4 474.6 477 479.1 482.1 487.4 494.8 498.1 494 484.1 473.2 466.1 461.6 453.1 448.6 446.4 441.4 439 432.9 410.6 426.9 437.5 450.5 463.4 475.2 488.6 493.5 486.3 472.9 462.4 450.3 437.9 430.3 421.2 416.7 412.6 406.6 401.2 394.9 395 400.2 407.4 409.4 410 405 418 421.1 425.5 429.1 433.2 437.6 444.9 455.1 468.5 482.9 497.5 511.6 524.6 542.4 554.4 549 535.1 524.1 533.6 523 504.3 446.8 416.2 386.1 370.5 360 358.3 354.8 347.9 345.4 340.7 339.4 334.4 334.1 332.8
421.1 415.4 408.8 408.7 410.2 410.9 408.1 407.2 414.2 409.8 399.2 397.5 391.7 387.2 383.9 383.1 384.7 386.4 387.2 390.3 388.5 389.5 389.5 394 396 393.4 398.2 399.8 400.2 400.9 403.6 406.5 408.9 411.6 414.6 419.1 423.8 428.1 433.3 436.7 435.8 437.5 441.6 452 454.9 445.3 431.9 423.6 416.6 409.5 398.5 389.7 385 376.8 372.9 368.7 366.8 365.7 367.2 369 365.5 365 360.8 355.8 353.1 351.9 350.9 350 349 347.6 347 346.3 345.6 345.2 344.7 344.2 344.4 343.6 343.3 343.1 343.6 345.2 347.6 348.7 349.5 350.4 352.1 351.5 351.8 354.3 355.4 356.3 357.3 358.1 361.4 365.5 368.5 370.9 374 376.7 379.1 381 384.1 387.4 391.2 403 404.4 406.6 409.9 418.2 424.5 428 433 441.7 446.1 450.9 457 462.8 467.5 470.8 473.7 475.8 477.9 479.9 482.1 486.1 492.2 494.2 489.7 478.6 470.7 462.9 459.2 455.5 450.8 447.7 443.7 441.5 432.7 413.3 436.1 450.9 466.2 481.3 492.4 505.2 503 490.1 474.9 466 455.9 446.9 436.3 432.7 428 419.4 413.2 405 400.2 405.9 411.8 416.1 419.2 421.9 414.8 424.1 429.9 432.8 436.2 439.7 443.9 453.7 464.6 476.2 487 497.4 513.6 526.5 531.7 535.5 530.1 515 508.7 511.8 498.7 471.6 443.8 416.1 393.4 376.9 370.5 364.1 359.7 353 348.8 344 341.2 339 336 335.9
408.2 407.3 397.7 398.1 399.3 401.4 393.5 392.2 394.2 393.5 384.8 381.8 377 369.2 373 371.2 371.1 379.4 381.2 381.4 379.6 383 386.1 387.9 390.4 394 396.3 396.9 397.5 399 402.1 404.4 407.2 410.6 415.6 419.6 425 441.5 437.5 436 435.5 439 443.8 452.4 447.6 435.1 427.6 421.9 417.3 412.1 403.9 395.1 388 379.4 375.1 371.4 370.9 369 369.2 365 359.3 355.8 357.7 354.9 353.3 351.9 351 350 349 347.9 347.1 346.1 345.3 344.3 344.8 344.6 343.6 343.7 347.7 346.8 348.5 348.4 350.4 353.3 357.4 357.5 355.7 356 355.3 357.9 359.2 360.1 360.9 361.2 364.3 368.9 371.8 374.6 377.8 381.3 383.7 385.8 389.1 392.8 397.2 404.2 406.6 410.1 416.8 417.4 425.5 432.6 438.5 443.5 449.5 455.5 461 465.9 470.6 472.6 474.9 477 478.8 479.4 480.4 482.4 483.6 482.3 478.5 470.8 465.5 461.7 459.3 456.5 453.1 448.1 445.3 441.7 434.4 421.1 444.6 459.8 474.4 488.2 496 496.1 497.1 489.2 477 468 461.7 455.8 446.2 437.8 429.7 423 415.3 409.1 411 417.5 419.5 425 427.4 425.1 419.9 427.5 436.3 439.3 441.8 444.2 452.7 465.4 474.1 486.1 496.7 507 514.1 522.6 522.4 516.6 510.2 490.2 468.5 449.1 431.8 419.3 409.3 391.3 373.4 366.8 364.7 362.6 357.1 351.7 348.3 346.1 344.1 341.2 340 339.8
396.9 398.9 395.5 388.2 387.1 389.1 383 382 379.7 377 376.3 373.1 366.5 358.7 360.4 361.3 360.7 363.9 368.6 371 373.4 374.6 378.3 384.1 386.5 385.5 388.8 394.7 395.3 397.8 399.9 402.4 405.3 409.6 414.9 420 426.3 431.8 435.4 433.7 435.3 441.1 451.2 447.5 440.1 432.6 427.4 423.1 418.9 414.6 408.3 401.1 393.7 386.8 379.8 374.8 378.8 377.6 372.1 371.5 363.9 358.9 356.7 354.5 353.6 352.1 351 350 349 347.6 346.5 345.7 345.1 345.4 345.4 344.9 346.4 346.6 348.6 351.2 351.9 351.6 353.5 356.8 359.4 357.5 357.4 359.6 358.3 359.8 361.7 362.3 364.2 365.2 366 370.6 375.9 379.3 381.7 384.3 387 390 394.8 398.4 402.6 407.2 409.2 412.8 417.9 424.2 429 433.2 442.7 446.8 453.8 459.7 464.6 468.5 474.2 476.8 477.5 478.2 478.4 478.2 478.7 479.9 479.4 478.8 473.8 468.2 463.9 460.9 458.8 456 453.3 447.8 443.8 441.4 426 435.3 448.1 461.1 473.1 480.9 484.6 488 491 483.2 473.1 464.3 459.9 452.7 444.3 437.9 429.1 422.1 418.4 410.7 422.4 423.5 427.5 431.9 427.8 428 429.2 434.3 440.7 444.8 448.4 452.7 460.1 469.9 481.4 492 505 514.8 527.5 534.2 512.2 514.5 495.5 469.4 444 418.5 400 391 390.9 396.5 390.8 380 369.2 359.1 355.2 352.8 348.9 347.7 345.5 343.7 342.8 342.9
385.7 388.7 388 378.7 378.2 379.3 372.2 369.8 364.9 366.1 362.1 359.2 354.1 349.9 348.6 349.6 353.6 357.6 360.1 364.9 366.1 369.5 374.1 376.1 379.4 383.3 383.7 390.3 393.1 394.9 397.7 400.2 403.3 408.3 413.7 418.8 423.6 426.5 428.1 431.6 434.8 441.8 446.1 441.2 435.9 431.8 431.9 424.5 420.3 417.4 413.7 410.2 403.2 399.7 389.2 383.2 380.4 378.4 376 371.5 363.6 358.1 355.4 353.5 352.3 351.5 350.7 350 348.7 347.4 346.7 344.9 345.6 346.3 347.7 348.1 347.1 347.4 352.7 353.9 355.3 355.4 357 361.2 361 359.1 359.9 360.4 359 361.8 364.7 365.3 367.8 369.6 371.7 376.6 376.9 382 385 387.7 390.5 394.5 399 401.8 407.5 410.4 412.6 416.4 422.9 429.2 434.9 436.9 445.3 449.6 457.3 462.6 466.3 471.2 477.6 480.6 480.3 479.3 476.9 476.4 477.1 476.8 476.3 474.9 469.8 465.9 462.8 461.3 458.9 456.3 452.5 450 446.1 427.2 429.7 443.9 454.9 461 470.5 476 479.2 480.2 479.7 475.3 470.4 462.2 455.4 447.1 442.9 436.6 428.5 424.1 416.5 421.9 430.4 430.9 434.1 434.3 431.7 435.4 437.4 441.9 446.4 450 455.3 460.6 467.1 478.8 488.7 497.1 507 511.7 521 498.4 476.4 463.3 448.9 431.7 416.8 425.5 440.8 450.7 449.6 433 413.9 396.3 384.6 370.4 361.7 354 351.3 348.4 346.6 345.4 346.7 344.8
377.6 378 376.7 372.6 367.6 364.8 359.3 357 352.9 353.3 347.5 347.7 345.5 343.1 342.5 341.1 343.3 349.7 353.3 354.3 359.8 362 364.7 369.5 374.5 381.6 382.3 385.3 388.5 392.5 395.4 397.7 401.2 406.2 410.5 414.5 418.1 421.3 424.1 427.3 429.7 437.7 435.6 434.2 433.1 430.6 427.7 425.4 422.6 420 417.1 415.2 409.2 402.1 395.7 390.3 383.8 379.2 375.5 370.6 363.8 358 353.8 353.4 352.1 350.9 349.7 348.8 348.2 347.7 346.7 346.4 350.1 350.5 352.9 353.3 352.7 353.3 353.3 355.9 357.5 357.8 358.8 361.3 361.3 361.2 362 363.5 361.9 364.3 367.2 369.8 373.4 374.8 376.8 378.8 382.4 384.6 388.5 391.6 394.6 399.6 403 406.3 411.4 413.9 416.7 420.3 426.9 434.4 438.3 445.2 449.9 454.6 460.2 464.7 469.9 473.4 476.8 479.6 479.2 478 476.8 475.2 476.5 474.5 472.3 470.2 467.9 465.5 463.5 462.6 459.9 457.7 454.7 453 439.1 431.6 442.2 454.3 459.4 464.6 469.8 473.9 475 475.7 473.7 472.8 466.7 460 452.2 445 440.7 432.6 430.5 424.4 429.3 433.5 434.2 437.2 439.5 439.9 439.9 443.4 444.7 448.2 454 456.2 459.7 464 468.7 478.7 487.6 491.3 499.7 486.1 471.5 458.4 446.2 436.7 438.1 455.1 475.1 488.4 494.8 489 471.7 453.5 433.6 417.3 399.6 385.4 372.4 362.1 357.9 353.6 349.9 348.3 347.5 346.1
367.6 365.5 368.3 360.3 356 350.3 347.3 345.7 342.6 341.7 340.4 340.1 338.2 338.1 338.1 339 345.2 345.9 349 351.5 356.2 357.6 358.9 360.8 366.7 369.2 376.2 382.4 383.5 390.5 392.4 394.7 398.6 402.2 405.6 408.7 410.8 413.5 417.4 420.3 424.2 433.2 434.1 441.6 438.4 433.7 427.4 425 422.7 419.3 416.8 414.5 409.6 404 401.8 397 391.2 383.8 376.3 370.9 361.1 357.6 352.8 352.3 351.6 350.4 349.2 348.3 347.6 347.2 346.3 348.4 351.6 353.1 353.9 353.9 356.7 359.8 355.5 357.3 363.9 360.6 361.5 362.6 363.3 365.2 364.1 364.7 365.1 367.7 369.8 373 376.2 378.4 379.5 380.2 384.7 387.6 390.3 395.6 399.3 403.4 406.9 410.3 414.3 417.5 420.5 425.4 433.3 438.7 442.7 448.6 452.7 457.6 462.9 465.8 469.7 472 474.5 478.2 477.6 476 474.9 473.9 474.4 473.3 471.7 469.6 468 466 464.3 463.2 461.2 459.4 456.3 445.3 431.6 442.3 450.2 458.5 463.7 467 468.9 470.6 471.3 470.7 469.1 466.2 461.9 455.8 446.7 441.6 436.7 438.3 438.3 433.3 438.6 439.7 441.6 443.4 445.8 446.8 447.5 448.2 449.7 453.6 459.3 461.8 463.1 466.9 470 474.7 476.9 470.5 457.6 447.9 446 451.7 463.9 483.1 486.1 496.8 514.9 519.9 515.9 511.4 490.8 469.8 455.9 440 419.9 405.7 389.9 377.9 370 363.6 360.2 356.6 353.6 351.2
358.2 356.4 354.8 352.3 346.5 339.5 339.1 336.6 335.3 333.6 333.4 333.9 334.7 333.6 336 339.7 342.4 343.6 347.6 351 354.1 354.5 356 356.1 358.3 359.3 365.8 373.9 376.6 385.7 387.3 389.4 392.7 393.8 394.9 396.5 402 405.7 408.4 414.4 424.3 430.1 434.9 440.7 436.1 429 423.2 421.7 423.2 423.2 416.7 411.2 406.3 405.3 406.6 402.5 394.9 385.4 375.9 368.1 361.1 353.2 351.6 351.1 350.6 349.6 348.8 347.9 347.1 347 347.7 353.3 354.4 355.4 355.7 358.3 357.4 359 360.1 357.9 363.8 365.1 364.9 365.5 364.9 365.4 365.6 366.6 367.8 370.6 373 375.2 378.3 380.7 383.1 383.1 386.8 390.5 393.7 398.1 402.9 406.7 410.7 413.8 417.4 420.6 425.1 433.3 437.7 441.8 446.8 451 454.8 459.1 464.1 465.6 467.8 469.5 471 473.6 473.3 472.9 472.7 472.1 471.9 471.7 470.7 468.8 467.7 466.3 464.9 463.7 462.2 460.1 452.1 435 444.4 449.6 458 461.9 466.2 468 468.9 469.4 469.9 468.9 466.1 462.8 457.8 449.2 447.7 446.3 445.5 446.7 445.6 442.6 444.6 446.1 447.9 449.5 451.7 452.4 452.1 454.1 458 461.4 464.3 465.4 466.5 468.1 468.4 464.2 461.8 459.8 462 479.8 492 502 514.2 527.2 525.2 529.2 531.7 528.2 525.2 517.2 510.3 501.5 489 473.2 451.7 432.5 413.9 398.1 389.3 380.7 376.1 371 367.9 365
346.4 348.1 349 345.6 334.8 334.4 334.7 333.9 332.4 330.7 330.4 331.1 331.8 332.7 336.5 338.8 344.2 347.6 353.7 350.6 351.1 351.9 352.8 353.3 354.2 355.6 358.3 367.7 370.8 377.6 382 382.2 386.8 389.5 392.4 390.5 393.5 398.7 401.3 405 411.3 417.4 425.9 432.1 422.2 417.3 417.5 415.9 419.3 423 412.8 403.6 400.7 400.5 402.7 399.2 388.6 381.2 370.3 366.2 357.6 351.2 350.3 350 349.5 348.5 348 347.6 347.3 346 350.6 354.9 359.4 358.4 358.7 358.6 359.9 359.9 360.9 360 360.8 365.1 366.2 366.1 366.9 366.7 367.1 369.4 371 374 376.4 378.8 380.9 382.9 385.9 385.8 389.9 393.3 398 400.9 405.3 409 414.8 418.5 421.5 425.3 432.3 437.2 441.4 446.1 449.7 452.2 455.5 459 461.7 464.5 465.8 467 468.4 469.8 470.4 471.4 472.4 471.4 470.9 470 469.1 467.8 466.8 465.4 463.9 462.6 460.9 456.8 444.3 446.8 455.7 457.4 461.2 464.7 466.7 468.3 468.4 468 467.3 464.4 458.7 454.9 453.5 457.6 456.6 455.9 455.1 455.4 448.9 449.7 450.1 451.3 453.2 455.3 457.1 458.4 459.9 461 464.8 466.6 468.8 469.7 470.2 471 471.4 471.4 476.2 487.9 496.1 506.3 514.5 521.9 529 538.8 545.1 546.4 544.5 544.7 537.1 533.4 527.3 515.5 501 489.3 473.9 459 437.4 426.2 416.9 406.9 395.6 389.5 383.1 377.4
344.8 336.7 335.1 335.9 331 330.8 331.2 331.5 330.4 329.5 329.4 330.4 330.5 332.6 335.6 341 344.6 345.6 350.6 350.6 350.8 351 351.3 351.6 352.1 354.3 356.4 359.2 366.3 369.6 371.8 377.2 380.1 383.3 383.5 385.6 387.3 389.8 395.5 401 403.9 406.1 407 406.6 407.5 407 408.6 409.3 407.3 411.6 401.7 397.4 393.9 392.8 392.4 387.7 377.3 371.4 366.3 360.3 354.3 349.4 349.3 348.7 347.8 347.6 347.4 346.3 347.1 348.9 353.5 356.4 359.6 363.1 361.6 360.9 361.1 361.4 362.4 363.5 365.7 364.9 363.9 364.4 367.2 368.1 369 371.6 374.5 376.9 379.1 381.5 383.6 386.1 388.9 389.8 393.3 397.4 402.9 406.1 406.6 411.9 417.2 422.7 426.1 431.3 436.9 440.7 444.3 447.5 450.6 452.9 455.7 458.2 460.5 462.6 464.3 465.6 466.8 467.7 468.7 469.5 469.3 469 468.8 467.9 466.7 465.5 464.6 463.8 462.6 461.2 457.5 446.1 445.5 458.4 460.6 460.8 464.3 466.3 467.9 467.3 467.9 467.7 465.7 461.9 465.9 465.7 466.6 466.7 466.7 466.9 466 463.7 454 455.1 455.3 457.2 458.4 459.7 461.5 464.1 465.6 467.9 470.7 473.7 476 477.2 479.4 480.4 485 490.2 495.9 500 506 513 522.4 530.4 538.5 544.3 547 549.5 550 547.3 541.8 537.3 532.7 523.6 513.2 500.5 491.8 484.2 466 454.7 446.1 432.9 423.8 410.9 404.8 399
335.3 333.4 331.2 330.1 328.5 328.9 328.9 328.9 328.9 328.3 328.6 330 334.1 339.6 350.7 349.6 345.3 345.9 352.5 355.1 351.5 351.7 350.7 350.5 350.7 351.2 353.7 356.6 360 363.5 367.1 370 372.8 374.7 376.9 376.7 380 384.6 389.5 393.9 396.3 396.7 396.5 397.2 398.4 399.2 399.9 399 396.8 393.2 388.2 385 382.8 381.8 381.4 377.2 367.5 368.3 362.3 355.9 351.8 348.3 348.3 347.9 347.9 347.9 347.8 349.4 347.9 350.5 353.8 356.2 358.7 362.1 363.4 362.7 363 362.8 362.8 365.1 365.7 365.8 365.7 366.4 367.8 369.5 371.7 374.4 378.1 380.8 381.7 383.5 386.4 388.8 390.7 391.1 396.2 400.8 406.6 409.8 413.3 416.3 420.9 425.8 431 436.1 439.7 442.8 445.2 448.2 451.4 453.4 455.3 457.2 459.4 461.5 462.9 464.4 465.3 466.1 466.6 467 466.9 467 466.3 465.3 464.1 463.5 462.7 462 460.5 457.3 450.3 446.8 458.5 463.6 463.2 464.5 466.7 468.2 468.7 469.1 468.4 469.8 470.1 469.8 472.4 472.8 473.9 474.9 475.9 476.5 475.2 469.9 458 460.5 462.1 463.3 464.1 466.4 468.3 472.6 474.6 480.6 482.7 486.2 489.8 491.3 493.1 497.4 500 504.1 509.1 512.3 513.4 521.1 527.7 534.7 546.2 552.7 556.4 558.8 557.3 555.5 555.4 547.3 542.2 532.3 524.8 513.7 503.6 494.9 482.4 473.3 463.3 453.9 441.8 430.7 423.4 416.2
332.5 329.6 328.5 328.6 327.4 327.9 328 327.8 327.4 328 329.4 335.7 339.9 344.9 351.5 348.2 347.7 349.2 351.3 353.3 352.6 353 353 350.4 350.1 350.3 351.2 354.7 358.2 357.8 358.5 362.7 363.9 365.7 368.2 371.9 372.8 381.9 383.9 384.1 387.7 388.1 387.4 388.1 387.9 389.2 389.9 388.5 387 382 377.6 377.2 375.3 372.1 370.1 367 361.2 355.8 350.6 348.6 346.9 347.8 348.2 348.5 348.4 348.4 349.4 354.4 356.1 353.9 353.1 355.8 358.3 361.5 364.2 364.9 364.8 364 364.5 363.3 365.7 365.9 366.6 367.5 368.5 370 372.6 375.2 379.1 382.7 384.6 385.9 388.9 391.6 394.5 396.8 400.4 404.9 409 413.5 417.2 420.9 425.1 430.3 434.6 437.9 440.9 443.7 445.8 448.4 450.9 453.1 455.4 456.9 458.4 460.4 461.8 463.2 463.8 464.3 464.6 463.3 464.6 463.5 463.8 462.9 462.6 462.2 460.6 458.6 453.5 447.6 448.8 452.8 462.7 464.2 465.5 467.1 469.1 470.7 472.2 473 471.4 473.1 474.3 476.2 478.1 479.6 480.8 481.6 480.3 479.4 479.4 471.4 461.6 466.7 468.7 469.1 471.6 474.7 478.5 484.9 491.1 495.7 500.3 502.6 505.5 508.8 511.4 513.5 515.6 517.9 520.4 522.7 521.8 528.5 536.3 543.9 554.9 562.4 571 573.2 569.1 561.9 563 561.2 558.6 547.3 535.6 525.9 514.2 506.3 495.7 483.4 474.3 472 462.8 452.8 445.2 438
329.4 327.5 327.9 328.6 327.7 326.9 327 327 328 332 336.2 344.3 349.9 350 350.4 351.1 350.5 351.8 354 354.7 355.8 355.2 353.7 352 350.2 350.1 350.3 350.3 354 354.5 356.7 355.8 359.5 358 360.3 363.8 362.7 366.4 370.9 375.3 373.7 379.5 378.5 379.9 378.5 378.2 377.6 376 375.2 371.6 369.4 372.5 371.8 366.4 363.1 359.2 355.1 350.9 348.3 348 348.1 348.3 348.5 349.3 349.2 349.2 352.1 359.4 358.6 357.4 356.3 358.5 361.2 362.7 363.7 365.5 366.3 365.7 368.7 367.5 366.2 366.1 368.4 371.8 369.8 371.5 374.4 377.7 382.2 386 388.1 389.3 391.9 394.7 397.8 401.3 404.8 408.6 412.3 416.2 420 424.1 425.6 431.9 435.7 439.1 441.8 443.8 445.9 448.2 450.3 452.7 455 456.7 457.5 458.9 460.7 462.3 463.2 463.6 463.5 463.6 463.4 463.2 462 461.5 461.1 459.2 455.2 452.9 457.5 451.4 458.6 459.3 464.4 465.8 468.2 470.4 473.2 474.9 476.1 476.6 475.2 476.6 478.6 479.9 482.2 484.2 483.7 484 482.8 478 476.3 467.9 472.1 470.8 474 476.6 477.2 482.3 488.1 494.8 502.1 509.2 515.7 520.3 521.9 524.2 527.3 530.1 531.5 532.8 532.8 534.3 532.4 534.9 541.6 552.1 562.8 574.3 579.1 583.5 583.1 580.5 582.2 575.7 572 560.2 545.1 538.1 533 523.9 519.1 510 503.7 497 481.2 476.1 470.9 464.5
327.1 327.3 327.3 327.4 327 326.2 327.3 331.7 344.9 344.7 355.2 357.7 359.7 355.5 356.8 354.6 354.3 356.5 359.6 360.8 362.3 362.7 362.6 356 352.4 350.2 349.8 349.7 349.6 352.3 351.9 352.8 354.7 354.6 355.2 358.5 361.2 359.6 361 365 367.8 372.3 368.2 367.3 368.9 368.5 371.2 370.9 358.8 357.1 358.1 360.9 357.8 354.4 353.1 350.8 348.9 348.3 347 348.2 348.8 348.8 348.8 349.1 349.8 350.1 353.9 358.8 360 359.9 360 359.9 362.8 363.5 364.4 365.9 366.9 366.7 367.4 369 369.8 369.3 370.6 371.9 373.6 373.8 376.9 380.3 385.3 389.5 391.5 392.6 394.9 397.7 401 404.4 407.9 411.4 415.1 418.9 422.6 426 430.1 433.5 434.6 437.6 439.6 443.1 445.5 448.3 450.8 452.2 454.1 455.5 457.4 459.3 460.5 460.5 462.4 463 462.8 462.6 461.9 461 460.8 459.1 458 457.9 459.9 462.4 462.1 453.5 463.8 466.1 465.3 468.5 471.3 473.8 476 477.4 478.6 478.7 477.1 478.9 479.6 480.7 481.8 482.7 483 483.3 482.2 480.6 478 473.4 475.1 474.6 478.6 481.5 482.6 487.5 494.1 503.1 513 521.7 531.5 537.6 541.3 544.1 545 549.5 551.6 552.3 554.3 550.4 542.8 543.1 550.3 559.2 569.8 577.5 586.4 595.5 602.4 604.2 599.4 596.5 589.1 569.8 561.2 552.9 548.1 541.1 534.4 528 523 515.6 505.5 508.5 491.5 484.8
326.4 326.9 326.9 326.8 326.2 327.5 334.3 345.2 357.7 357.6 367.3 368.3 366.3 363.1 360.2 357 359.1 369.3 365.6 365.7 367.2 363.6 364.9 361.9 355.3 355.3 350.5 350.1 349.6 349.5 349.2 350.1 350.3 350.6 351.2 352.1 354.1 354.4 356.5 359.4 359 363.7 363.3 359.2 360.4 360.1 361.7 359.6 354.1 352.9 351.4 350.8 349.9 349.1 348.8 348.5 348.4 348.5 348.4 348.8 349.3 349.5 349.6 350.2 350.3 355 358.9 357.2 364.8 365.7 363 362 364.7 365.4 366.2 366.9 368.3 369 369.8 371 371.1 372.7 373.8 373.4 376.1 378.7 379.4 382.4 387.5 391.6 393.8 395.6 397.6 400.5 403.8 407.4 410.8 414.2 417.8 421.4 424.6 427.7 430.7 433.7 436.5 438.8 441.2 444.7 445.7 447 450.3 451.4 453.3 454.9 456.6 457.4 459.1 461.2 462.2 462.6 462.9 462.6 462 461.6 461.7 461.7 461.7 459.7 462.4 464 464.4 456.5 467 468.8 469.5 470.7 472.9 475.3 476.4 477.3 477.9 478.3 478.5 479.2 479.5 479.4 479.7 482.7 482.5 482.8 482.1 481.6 478.5 477 477.6 478.6 480.9 485.5 488.6 493.3 500.1 508.8 519.9 530.2 538.4 548.3 555.6 561.6 564.3 567 566.9 568.5 570.6 568.8 560.4 556.5 559.8 567.3 576.5 584 596.8 606.5 614.4 616.8 614.6 607.2 592.4 590 580.1 570 568.5 560.1 550 553.8 539.5 525 511.6 499 489.6 480.4
326.5 326.7 326.3 326.9 328.4 337.3 348.6 359.5 357.3 366.4 368.6 368.3 366.8 366.8 360.1 358.8 362.5 370.9 369.4 369.5 365.9 364.4 366.2 366 356.2 355.9 355.8 352.4 350.2 349.3 349.1 348.9 348.8 349.3 349.5 349.8 349.4 349.4 350 354.4 355.6 357.4 354.8 351.6 352 353.1 352.8 351.6 350.8 349.9 349.1 349 349 349 347.9 348.5 348.6 348.8 348.8 349.7 349.9 350.3 351.4 354.2 356.7 359.6 361.5 362.8 365.4 361.7 363.6 365.9 364.3 365.3 367.1 368.6 370.6 371.2 372.1 373.2 374.5 375.5 379.5 379.7 381 383.2 384.6 386.7 389.5 393.5 395.9 397.8 400.3 403.3 406.5 410.1 413.7 417.1 420.3 423.5 426.2 429.4 432.3 435.4 438.1 440.3 442.8 445.3 447.5 449.4 451.1 452 454.3 455.9 457.3 458.6 459.3 460.1 461 462.9 463.1 463.2 463 462.5 463.1 462.6 462.3 463 464.8 465.8 466.1 460.2 464.9 468.8 470.6 471.2 473 474.7 475.4 476.5 477.2 477.6 478.1 479 480.2 481 482 482.6 482.9 483.5 483.9 483.2 481.9 480.8 480.9 484.3 484 490.3 495.2 501.7 506.6 515.9 524.2 534.6 543 551.9 560 569.6 575.8 584.3 585.6 585.3 585.2 586 582.3 571.5 569.3 574.1 584 592.1 600.7 606.9 611 614.4 616.2 605.2 597.5 591.2 584.7 579.7 575.7 573.9 560.2 548.5 523.4 509.9 498.8 489.9 482 474.3
325.5 324.3 326.1 332.1 341 350.6 359.5 363.2 366.4 365.6 368 370.5 375.6 368.5 361.9 362.3 364.2 370.2 372.6 372.5 371.3 364.7 365.1 366.8 359.7 357.9 354.7 352.6 352.4 349.3 350 349.7 349.3 348.8 348.6 348.3 348.7 348.7 348.7 348.7 348.7 351.6 351.2 349.8 348.7 348.6 348.6 348.9 349.8 349.1 348.8 348.8 348.6 349.3 349.3 349 349.1 349.2 349.5 350.5 350.6 353.5 354.8 357.9 359.2 361 365.6 366.6 369.5 366.9 365.3 368.5 365.8 367.3 368.7 371.9 372.5 374.2 375.7 377.3 379.1 379.7 382.2 379.9 385.9 387.7 388.5 391 394.3 395.6 398.4 400.7 403.8 406.5 409.4 412.8 416.2 419 422.2 424.8 427.9 431.2 434 437.2 439.7 441.9 444.2 447.7 449.5 450.8 452.6 454.6 455.4 456.9 458.6 460.1 461 461.7 461.1 463.1 463.2 464 463.6 463.4 463.6 464.3 464.2 465.1 466.6 467 468.3 460.5 462.5 466.5 468.9 470.9 472.4 473.6 474.8 475.2 476.8 477.5 477.6 478.6 479.3 480.5 481.9 482.7 484 485.3 486.2 486.9 486.3 486.6 488.5 490.6 492.3 495.9 502 509 516 522.9 532 539.5 547.5 555.7 561.5 569.1 576.3 585.8 591 592.3 592.9 593.1 590.5 584.4 578.5 581.2 590.4 598.2 606.3 611.3 612.8 614.4 616.3 615.1 610.1 599.3 593 585.9 568.7 550.6 535.1 520.1 508.9 499.3 490.7 483.4 476.7 471.2
325 327.2 334.9 347.2 352.6 360.1 369.1 376.2 374.2 368.8 370.6 376.3 375.3 371.2 367.4 366 365.3 369.7 372.4 373.8 372.7 371 367.3 369.2 361.1 358.9 355.6 354.3 352.1 351.1 351.4 351.3 350.2 349.3 349 348.8 348.6 348.7 348.7 348.7 348.7 348.7 348.7 348.7 348.7 348.7 348.7 348.8 348.9 349 348.9 348.6 348.9 349.5 349.6 349.6 349.8 349.8 352.2 353.7 352.3 355.3 359 362.6 364.3 364.5 368 369.4 371.9 370 367.7 369.2 370.8 370.9 371.5 375.8 376.6 377.7 380.5 382.1 383.5 384.6 384.1 383.3 387.7 389.4 392.2 395.8 397.3 398.1 401 404.6 407.1 409.8 412.7 415.5 418.6 420.8 423.9 426.3 430 432.9 435.9 439 442.1 444.7 447.7 450.5 452.2 453.5 454.6 456.6 457.8 458.4 461 461.9 462.7 462.9 463.4 463.8 463.6 464.6 464.8 465 465.2 465.4 465.4 466.2 467.4 468 467.3 464.4 470.4 470 472.1 472 473.4 473.6 474.5 476 477.2 478.9 479.1 480 480.4 481.8 483.4 484.1 485.6 487.1 488.5 489.6 492 492.2 494.1 497.6 500.9 505.2 513.9 517.9 524.3 530.7 538.6 546.1 554.8 561.4 565.9 569.9 574.5 580.3 590.7 594.7 596.4 596.5 595.3 590.6 586.2 588.8 597 604.9 612.5 619.1 622.9 625.5 624.9 615.5 606.2 599.8 595.6 581.4 564 545.5 528.7 514.7 505.3 496.2 486.7 480.4 475.9 465.8
326 330.3 344.8 359.5 369.4 371.1 375.5 379.7 380.7 376.5 373.6 375.8 376.1 373.9 370.9 369.1 370.3 372.7 373.4 375.2 376 372.9 369.8 366.4 363.1 361.6 356.9 355.1 353.1 353.5 353.7 353.8 352.8 353.1 350.7 349.9 349 348.7 348.7 348.7 348.7 348.7 348.7 348.7 348.7 348.7 348.8 349.2 349.2 349.1 349.2 349 348.7 349.7 349.8 349.9 350.1 351.7 357.3 358.1 356.7 361.7 362.9 364.8 366.5 367.6 368.8 371.2 373.4 373.4 373.5 374.1 374.5 376.1 374.4 377.2 380.6 380.2 381.2 383.5 388.2 387 386 385.8 390 392.3 395.2 397.7 399.5 401.6 405.1 407.6 410.2 412.8 415.5 418.1 420.9 423.1 425.8 428 432.6 435.9 438.5 441.2 444.7 448.2 450.7 453.2 455 456.1 457.1 458.6 460.1 460.5 462.5 463.3 464.1 464.1 463.6 464.5 464.9 464 465.5 465.2 466.1 466.5 466.2 467.2 468.1 469.1 468.3 467 466.9 472.3 472.8 474.8 473.8 475.7 476.3 477.4 478.4 478.6 480.1 481.2 482.5 483.7 485.4 486.3 487.5 488.9 490.7 493.2 495.4 497.3 501.5 506.4 512.4 517.2 521.8 526.1 532.8 538.9 544.2 550.6 557 562.3 566.7 572.2 576.6 580.5 585.1 588.8 593.3 594.8 595.3 593.6 591.8 593.8 600.8 611.5 622 625.9 630.3 631.9 629.1 622 598.7 579.8 566.5 555 537.2 530.8 521.5 511.1 500.8 491.7 484.2 472.7 462.2 453.1
336.2 346.2 356.5 370.7 374.2 378.9 378.9 380.3 381.3 376.8 374.2 374.8 375.5 376.4 373 373.6 373.9 376.2 374.7 373.6 373 372.5 371.3 370.5 368.6 360.6 358 355.7 353.9 354.5 354.8 355.2 359 356.7 353.9 352.3 349.5 348.7 348.7 348.7 348.7 350.5 349.8 350.2 351.4 351.6 350.4 350.3 350.2 349.7 349.7 349.5 348.7 350 350 350.1 355.1 365.9 364.5 366.1 362.2 363.1 366.6 369.1 373.2 371.6 373 374 374.5 374.1 376.9 377.3 377.3 378.8 379.2 378.8 379.7 382.3 382.6 385.5 389.2 388.7 389 391 393.8 398 398.8 401.2 403.5 405.4 408 410.6 413.1 415.4 417.9 420.5 423 425.6 428.6 431.2 435.4 438.7 441.9 444.7 448.3 451 453.1 455.2 457.3 458.7 459.8 459.7 462.1 462.3 463.7 464 464.3 466.1 466.3 465.6 466.4 466.5 466.7 466.2 467.1 467.8 468.1 468.1 469.2 470.2 470.5 470.9 469.5 473.2 475.5 476.4 475.7 477.8 477.9 478.6 479.8 480.8 481.3 482.8 484.5 486.1 488.8 489.4 490.2 491.8 494.2 496.5 499 501.8 508.7 514.3 517.9 522.9 527.2 532.1 538 543.9 549.7 555.4 560.8 565.6 570.1 574.4 578.3 582.7 584.6 586.5 589.2 590.7 591.3 591.2 590.4 593.1 600.9 608.8 617.8 626.2 632.4 630.4 629.9 620.7 598 570.1 553.3 541.1 529.4 518.2 510.9 502.4 493 483 474 457.4 436.7 428.6
351.7 360.8 371.8 374.6 374.6 377.4 382.2 382 380.2 375.4 374.5 374.4 374.2 373.5 373.1 373.5 374.7 376 376 373.9 372.9 372.3 371.2 369.4 366.9 365.6 360.5 361.6 359 357.8 357.7 359.3 359.2 360.9 357.9 354.7 353.7 354 353.3 351.8 351.8 353.3 351.7 352 352.9 352.7 349.6 350.9 350.6 350.9 352.1 349.7 349.1 349.2 351.1 356.4 365.9 372.4 371.8 369 364.6 370.1 371.4 372.9 375.9 376.8 376.6 376.1 378.8 378.7 378.2 379 379.1 380.5 383.3 384.3 384.2 382.3 384.4 387.6 390.7 392 390.9 395.3 397.9 399.9 402.3 404.2 406.2 408.3 410.6 413.1 415.6 418.1 420.5 422.9 425.7 428.5 431.4 435.1 438 440.9 444.4 448.3 451.1 453.8 455.7 457.5 459.5 460.7 461.7 462.5 463.2 464.4 464.4 466.1 466.7 467.1 467.3 467.7 468.2 468.2 468 467.6 468.2 469.4 469.6 469.6 470.4 471.2 471.7 472.3 471.6 471.6 475.3 477.6 477.9 478.3 479.1 479.9 480.8 482.4 484.1 485.8 487.7 489.5 492.7 493.5 493.6 494.9 497.5 500.2 503.7 507.4 515.1 518.2 522.5 527.5 532.3 537.7 543 547.8 553.5 558.4 563.4 568.5 573.7 577 581.2 584.5 586.2 588.2 589.6 589.5 588.3 586.4 584.5 585.4 590.8 599.6 608.1 613.7 618.7 611.8 606.3 597.7 584.7 568.7 542.2 530.8 521.7 507.7 500.7 490.9 480.4 473.1 463.3 443.4 431 435.8
365.9 374.8 378.2 376 374.5 378.2 381.4 378.9 376.6 375.1 374.7 374.4 373.9 373.4 373.5 374.2 375.5 375.5 375.4 374.2 372.5 371.7 370.3 369.3 368.4 367.8 366 366.8 367.5 366.6 367.3 369.2 369.4 365.4 365.6 363.2 360.7 360 358.2 356.3 355.7 354.2 353.9 353.3 353.3 352.8 351.7 354.3 352.8 351.6 352.4 350 349.3 349.9 353.4 363.8 375.4 371.2 369.9 368.7 370.4 374.8 375.7 377.5 378.9 380.9 379.6 379.6 381.2 380.7 380 380.1 380.5 382.2 386.3 390.9 389.8 384.1 387.4 388.2 391.7 393.2 394.1 399.4 403.3 403.7 404.4 406.7 408.7 410.7 413 415.4 417.9 420.6 423.2 425.9 428.6 431.4 434.6 438.4 441.6 444.2 448 451.1 454.2 456.2 458.1 459.9 461.5 462.5 463.5 464.4 464.9 465.5 466.3 467.4 467.8 468.4 469 469.4 469.7 469.2 469.5 470.2 470.7 470.2 471 471.3 470.9 471.9 472.9 474.2 474.5 472.5 475.2 478.8 478.8 479.2 480.6 481.5 482.2 484.6 486.5 488.8 490.5 492.7 496.3 498.6 496.6 499.1 501.6 505.1 508.4 514.1 519.3 524.1 528.2 532.4 536.2 541 545.7 550.3 555 560 564.4 569.9 574.8 578.9 581.8 585 588.6 591.5 591.4 589 586 581.5 577.7 576.3 579.3 581.8 580.2 577.8 576.8 571.5 564.2 552.7 543 531.5 516.6 505.1 497.6 485.4 477.7 470 463.8 457.2 435.4 436.7 452.8 453.4
371.8 376.4 378.4 375.8 375.4 376.1 377.6 376.7 375.4 375 374.6 374.2 374 374.1 375.3 376.3 376.7 376.5 376.1 375 373.1 371.6 371.2 370.5 370.2 369.7 370.9 370.9 370.4 370.1 369.6 370.7 371.9 372.7 372.3 371.3 371 366.4 364.6 362 359.5 358.5 358.3 354.7 353.2 353.1 352.1 352.6 352.8 352.5 351.8 351.2 351.6 351.9 353.6 364.2 374.9 374.3 372.3 373.4 376 378.5 380.2 381.2 382.5 384.4 383.4 384.1 382.1 381.5 381.7 382 382.3 382.6 387.1 393.6 393.6 388.3 390.5 392.4 393.6 395.5 397.7 401.2 404.6 406.6 407.7 409 411 413.1 415.5 418.1 420.7 423.5 426.2 428.8 431.5 434.6 437.9 441.3 444.9 448 450 453.4 455.9 457.8 459.2 461.4 463.1 464.1 464.5 465.7 466.6 466.9 466.4 468.5 469.8 470.3 470.6 471 471.2 471.3 471.3 471.7 472.2 472.4 472.7 473.2 473.7 473.5 474.6 475.8 476.8 477 474.9 479.9 481 482.3 483.4 484.2 484.8 486.4 488.4 490.9 494.2 497 500.7 503.3 500.8 501.8 505.9 509.2 513.8 519 522.9 527.4 531 534.3 537.7 541.7 546.2 550.8 555.4 559.5 564.2 569.5 575.9 578.7 582.8 585.6 588.5 591.1 590.7 588.3 582.8 575.9 568.8 564.3 558.6 555.6 549.9 545.9 539.3 533.5 524.2 520.5 507.5 496.1 487.7 477.9 471.5 466.4 463 460 454.7 444 448.5 458.1 458.4 456.7
373.8 376.8 376.4 375 375.4 375.8 376.3 376.7 375.3 374.9 374.7 374.9 375.6 376.5 378.2 378.8 378.6 378.2 377.7 376.6 374.9 373.9 373.5 372.5 372.7 373.1 374.6 375.3 374.4 375.5 374.8 375.2 374.9 374.7 377.1 375.1 376 367.2 370.2 367.5 364.9 363.4 362.6 359.1 355.4 353.4 353.8 354.3 355.3 355.1 353.6 357.2 360.3 360 358.8 367.6 375.9 379 377.3 378.6 380.3 381.8 383.8 384.3 386.5 386.6 386.2 384.7 383 382.5 381.9 382.1 383.1 384.9 388.1 390.8 394.1 392.9 393.1 393.8 394.3 398 400.6 402.9 405.8 408.2 409.7 411.2 413.3 415.6 418.2 420.9 423.5 426.3 429.1 431.8 434.7 437.9 440.9 444.8 448.3 450.5 453 455.9 458.4 460.2 461.7 463.2 464.8 465.6 466.2 467.1 468.2 468.8 470 469.6 471.8 472.5 472.8 473.3 473.1 473.5 473.1 473.3 473.8 473.7 475 475.7 474.6 476.1 477.1 478.2 477.6 477.3 476.7 480.6 483.3 482.9 485.7 487.3 487.1 488.8 491.1 493.8 497.5 501.3 504.9 507.5 507.6 502 509 514.4 517.2 521.3 524.6 527.6 530.9 533.9 537.2 541.2 546.1 551.6 554.9 558.5 561.4 565.2 568.8 572.4 575.6 577.6 578.9 581.7 580.7 580.4 573.7 567 561 553.7 546 541.8 532.7 526.3 517.9 511.1 504.4 499 490.3 481.2 472.6 464.3 461.4 458.3 449.7 454.9 452.6 457.1 462.6 461.9 459.4 455.2
375.9 375.7 375.9 375.6 375.1 375.9 376.1 375.5 375.7 375.5 376.4 377.3 378.2 380.7 381.7 380.6 380.4 379.7 379.4 379.1 378 377.2 376.7 376.1 375.6 376.1 377.9 376.7 377.8 379.3 378.2 380.1 381.8 382.9 384.8 378.8 377.5 373.9 376.2 374.6 371.1 366.6 364.2 361.4 359.3 358.3 355.7 358.2 358.9 361.6 360.2 364.1 365.6 364.2 371.4 376.3 378.8 385.5 380.4 382.2 387 386.8 387.9 387.1 388.2 388 386.6 385.4 384.6 383.5 382.8 382.4 384 387 388.5 391.7 393.6 395.6 394.2 397.1 398.3 399.5 402.7 404.4 407.3 409.3 411.5 413.8 416 418.5 421.1 423.7 426.4 429.1 431.7 434.3 437.3 440.2 442.5 446.9 450.5 453.7 456.2 458.5 460.6 462.5 464.3 464.9 466.5 467.2 468.4 470 470.9 471 472.5 470.8 473.5 473.8 474.6 475.1 475.6 475.4 475 475.3 476.1 476.5 476.9 477.9 478 478.8 479.5 480.5 480.1 481.6 479.4 482.2 484.1 485 486.5 489.4 490.6 492.6 494.9 497.8 501 504.3 507.5 510.4 510.1 507.2 511.9 517.4 520.6 523.8 526.5 529.3 531.9 535.4 539.6 543.1 546.9 551 554.1 556.7 558.8 560.9 562.7 565.2 565.8 566.5 567.2 566.3 565.1 563 560.2 553.4 547.6 540.8 535.2 527.3 521.4 513.2 505.5 500.4 494.2 487.3 480.4 473.2 462.4 460.4 460.5 461.6 463.8 471.8 472.1 472.1 469.2 465.9 463.1 462.6
373.5 373.4 377.7 375.2 378 376.9 375.6 375.5 376.1 377.6 379 379.7 381.4 384 382.9 382.1 382 381.6 381.6 382.3 381.9 380.6 380.8 380.2 379.8 380.5 381.5 382.4 384.9 385.9 385.2 389.5 395.7 399.1 397.6 391.2 386.6 384.6 379.6 377 372.8 369.5 367.4 364.1 360.7 360.3 360.5 360.6 363.4 366.1 367.2 367.3 368.8 368.9 376.6 381.3 382.7 387.1 383.8 385.8 391.5 389 388.7 389 389.3 388.7 387.1 385.8 386.1 385.2 384.5 384 386 388.9 391 393.4 397.7 396.8 396.3 397.9 400.5 402.5 406.1 408.3 408.7 412.8 414.9 417 419 421.6 424 426.2 428.5 431.1 433.7 436.4 439.5 443.4 447.2 450.4 453.5 456.4 459.2 460.6 463.4 465.1 466.8 467.7 468.9 470.3 470.9 473 473.4 474 475.3 475.2 475.5 476.2 477.3 478.4 478.1 478.3 478.3 477.8 478.9 479.2 479.8 480.6 480.5 481.9 482 482.8 483.2 484.2 482.1 484 486.8 488.7 490.3 492.1 493.4 495.3 498.2 501.1 504.2 506.8 508.9 511.2 510.7 510.2 515.8 519.5 522 525.6 528.6 531.6 534 536.2 539.4 542.6 546.1 548.9 550.5 552.3 553.9 554.7 556.1 556.7 556.2 555.7 554.7 553.8 553.2 550.9 547.2 542.1 536.8 530.8 525.2 518.9 512.7 506 499.1 492.4 485.7 480.1 475.2 467.3 470.8 470.8 473.5 475.3 479 478.7 480.8 481.5 480.6 480.6 478.5 479.3
371.3 371.5 372.2 371.7 372.7 374.2 374.8 375.7 377.2 378.9 379.8 380.7 383.5 385.4 384.4 383.7 384.2 384.3 384.8 385.9 385.5 384.4 385.1 385.3 384.9 385.9 387.5 390.2 391.9 392.9 394.3 401.3 406.8 405.2 398.9 392.3 389.7 385.9 381.4 378.8 373.1 370.5 368.9 366.3 361.7 364.1 365.6 366.3 368.3 369.1 370.5 372.3 373.5 378.6 380.2 384.9 385.4 386.1 386 388.4 391.4 389.8 389.5 389.7 389.8 389.1 388 387.6 387.4 386.6 386.5 386.4 386.3 390.2 392.8 396.2 399.7 398.3 398.2 400.5 403.8 406.6 406.7 411.8 412.8 415.5 417.7 419.8 421.8 423.8 426.1 428.4 430.6 433.1 435.8 438.8 442.9 447.2 450.2 453.3 456.1 458.2 460.8 463.4 465.8 467.6 469.4 469.9 471.8 472.7 473.5 475.4 476.2 477.1 477.8 477.9 478.7 479.3 480.5 481.6 481.7 482.3 482.3 482.2 482.2 482.5 482.8 483.9 483.3 485.1 484.7 485.2 485.8 485.6 486.2 484.2 487.7 491.4 494.3 495.9 496.8 498.7 500.7 503.5 506.4 508.4 510.4 512.1 513 516.1 517.9 521.2 522.7 525.5 528.2 529.8 531.5 532.9 535.6 538 540 541.6 543.3 544.4 545.3 545.1 545.9 546 545.6 544.8 543.7 543.8 541.6 536.9 533.2 528.2 522.2 517.6 512 506.6 500.5 496.7 492.2 487.7 484.2 482.1 475.9 475.3 479.1 480.7 483.6 486.2 487.8 483.6 487.1 487.3 490.1 489.9 488.8 490.1
370.5 370.1 370.4 371.6 373.7 374.6 375.1 375.9 377.4 378.8 380.2 382.4 384.2 385.1 385.8 384.7 385.3 387.2 388.5 389.8 389.9 389.7 390.3 391 390.7 392 393.9 395.6 397.9 398.2 399.8 404.4 405 398.2 393.6 387.9 386 383.6 380.2 381.3 373.2 370.3 368.8 368.3 368.6 367.8 367 369 371.4 373.2 377.3 380.1 380.4 381.1 383 386.7 388 387.9 387.2 388.2 389.4 389.8 390 390.2 390.1 388.6 389.2 389 388.6 388.5 388.8 389.5 388.5 391.1 394.8 398.2 400.2 400.2 400.7 402.6 406 410 411.4 411.1 413.9 417.9 420.3 422.2 424 425.8 428.1 430.5 433.2 435.7 438.2 441.8 445.8 449.3 452.6 455.6 458.4 460.8 463.6 466 468.2 470.2 471.8 473.2 474.4 475.5 476.8 478.3 479.7 481.1 480.9 480.6 481.7 482.9 483.6 484.8 486.3 487.2 487.5 487 486.5 486.7 486.9 487.2 486.7 487.3 487.1 487.4 488.9 488.8 489.1 489.7 486.6 492.2 495.6 497.2 499.5 500.9 503.6 506.2 508.8 511 512.6 513.9 514.8 517.8 519.2 520.6 522.1 523.8 524.9 525.9 527.9 528.7 528.8 529.5 529.8 531.3 531.2 532.2 532.9 533.4 533.3 533.3 533.5 531.7 532 530.2 526.4 523.2 520.2 515.4 512.7 506.7 501.3 495.8 492.5 488.6 484.8 481.1 478.9 476.7 479.4 482 483.8 486.5 489.5 491.9 491.9 495.3 497.7 498.8 499 499.7 499.5 501.7
368.9 369.1 370.6 372.7 377.5 375.4 375.6 376.8 377.6 379.2 381.5 384.6 385.3 386 386.8 387.4 388.8 390.7 392 393.7 394 394.7 394.5 394.7 395.1 396.5 398.5 399.7 399.8 401.9 402.3 402.5 398.7 393.2 389.1 385.6 384 380.8 379.8 379.2 372.8 372.7 370.6 373 371.7 371 370.8 371.1 375.9 379.6 380.1 384.6 383 385.5 387.5 386.4 387.9 388.6 388.6 389.1 389.7 390 390.9 391.2 390.4 389.6 390.7 390.7 390.5 390.5 391.3 391.9 392.5 393.6 396.8 398.6 400.5 401.6 403.7 407.1 409.3 412.9 414.9 416.4 416.2 419 422.2 424.6 426.2 427.8 430.1 433.1 435.2 438.4 441.4 445 448.7 452 455.3 458.1 460.8 463.5 466.3 468.8 470.4 472.5 475.2 477.2 477.6 479.3 480.6 482.1 483 483.8 484.3 484.7 486.7 489.5 489.4 489.2 490.7 490.7 490.6 490.3 490.6 491.4 491.6 490.8 490.9 489.4 489.6 489.9 491.1 494.5 493.5 493.5 489 492.6 496.9 499.5 501 503.4 506.8 509.2 511.5 513.6 515.6 518.1 519.1 519.8 521.2 522 522.1 522.9 524.1 526.1 527.4 527.4 527.9 527.7 527.8 527.7 526.9 526.3 525.2 523.6 522.1 520.7 519.6 517.9 518.2 517.3 515.7 514.2 512.6 507.7 502.3 499.3 497.6 496.7 495.6 495.5 492.8 487.6 489.9 489.4 488.6 490.6 493.8 495.7 499 501.3 502.5 505.9 507.1 508.6 508.5 510.1 512 511.9
369.7 369.4 370.1 372.8 374.5 375.6 376.3 377.4 378.9 381 383.9 386.2 388.3 388.5 390.2 391.6 392.4 393.6 394.6 396.1 396.8 397.4 397.4 397.6 398.3 399.3 400.3 400.3 399.7 399.3 398 397.1 394.7 390.9 388.2 386.5 382.1 379.2 378.6 376.3 374.1 372.5 374 375.2 377.1 376 373.3 375.5 378.6 382.5 386.1 389.1 385.6 386.5 388.3 388.2 389 389.6 393.5 391.2 391.5 392.3 392.4 391.6 391.3 392.1 393.2 393 392.8 394.1 395.8 395.1 396.1 396.4 398.4 400 401.6 405 407.7 411 410.9 413.6 416.9 419.3 418.6 420.6 423.6 426.4 428.4 429.6 432.3 435.1 438.2 441.3 445 448 451.6 454.9 458.1 461 463.9 466.8 470.1 472.4 474.6 476.9 478.9 480.5 482 484 485 486 486.9 488.7 489.5 491.6 492.4 492.9 492.4 494.2 494.8 493.8 494 494.4 496.9 499.1 497.7 496.8 497.9 496.4 496.3 494.9 494.3 496.2 496.8 495.4 495 492.3 495.2 502.2 504.6 505.3 508.9 512.2 514.6 516.8 519.2 520.8 521 521.9 522.2 522 523.4 524.9 526.4 526.4 527.3 527.6 527.5 527.3 526.6 525.9 524.4 523.9 521.2 519.6 517.3 515.2 514.4 513.7 513.4 512.5 510.3 507.7 510.6 508.2 508.8 508.4 508.1 506.7 505.4 500.7 499.7 496.1 501.4 502.6 502.6 502.5 505.1 503.4 510.2 512.2 517.1 517.3 516.2 519.7 521.2 522.2 523.3 524.5
372.9 372.9 373.4 373.5 375.4 377 378.1 379.8 380.6 382.9 385.5 387.7 390.1 391 392.5 395.3 395 396.2 397.1 398.3 398.9 399.3 400.2 400.5 400.7 400.4 401.5 400.2 399 397.1 395.7 394.1 392.9 391.5 388.5 384.7 382.2 380.4 377.2 377.8 374.4 375.4 376.4 378.7 379.3 385.2 376.3 378.6 384 388.3 390.5 393.1 388.6 388.7 391.1 390.2 390.3 392 396.7 393 393.3 395.6 393.9 393.2 393.6 394.9 395.8 395.6 395.6 396.9 398.1 397.6 398 399.2 401.2 402.5 405 407.9 411.7 413.2 413.4 414.8 418.6 421 420.8 423 425 428 430.4 432.2 434 437 440.3 444.1 447.7 451.3 454.5 457.7 461.3 465.1 467.7 470.3 473.7 476.4 478.6 480.9 483.2 484.4 486.3 489.1 490.6 493.6 494.2 495.7 496.9 498.2 497.5 498.7 500 502.3 501.8 502.6 506 508.1 510.6 511.1 513.1 513.6 511.9 510.1 507.6 504.3 501.3 500.3 498.9 498.9 496.8 492.8 495 498.7 502.8 508.1 510.8 514.4 518.2 519.6 520.7 521.8 522 521.9 523.9 524.6 526.6 527.2 528 528.4 528.6 528.2 528 528 527 524.9 523.7 521.5 519.2 517.3 516.5 516.6 516.9 518.3 517.9 519.5 519.7 521 520.7 518.4 517.9 519.1 515.6 513.9 510.9 507.8 506.4 502.4 510.3 515.1 517.4 516 517.9 519.2 524 526.5 527.8 529.9 531.5 533.2 534.4 536.4 536.5 539.6
375.9 375.2 375.5 376.2 376.7 377.4 380.3 380.8 382.6 384.7 386.9 388.9 392.2 394.2 395.2 397.2 397.3 398.5 400 400.4 400.7 401.4 404.3 401.9 401.8 401.7 402.5 399.6 398 396.8 394.3 392.9 391.7 390.8 390.2 384.6 381.5 379.2 379.4 378.7 379.1 379.5 378.9 382.8 383.8 381.2 380.9 383.1 387.1 388.5 390.5 394.7 390.5 390 391.4 391.2 392.1 393.7 394.4 394.5 394.7 395.8 398.2 395.8 394.9 396.1 398.2 397.5 397.6 398.2 398.8 399.2 400.1 401.7 403.7 405.5 409.9 410.5 413.3 414.7 415.5 416.7 420.7 421.9 423.2 425.5 426.5 429.5 431.8 434.2 436.5 439.5 443 446.9 451.4 455.3 458.7 461.1 465 468.4 471.5 474.2 477.2 479.2 482.6 485.5 488.7 491.6 493.5 496.7 498.7 500.6 503.1 503.8 504.2 505.6 504.1 506.9 509 514.8 520.6 525.1 526.5 529.5 528.6 529.6 538.4 530 529.5 523.3 517.9 513.9 510 506.2 503 501.6 499.3 497.1 500.1 503.1 503.9 504.8 507.1 515.3 518.3 521.2 523.4 523.3 523.6 525 527.9 528.5 530 532.5 534.1 531.8 531.7 531.5 530 527.3 525.5 524.5 523.9 523.2 522.8 525.2 524.8 527.1 528.3 529 529.2 530 529.7 529.5 528.6 526.3 524.8 524.9 522.4 519.3 516.7 514.1 514.6 512.8 520.4 525.5 526.9 530 531.6 535 538.1 539.9 543.4 545.6 549.1 549.1 550 553.3 554.9 553.9
374.8 378.8 378.9 378 379.4 379.4 380.8 382.3 384.8 387.2 388.8 390.9 394.4 397 398.4 399.4 399.9 400.3 402 402.1 403.3 403.3 403.4 402.9 401.6 399.4 398.2 396.8 395 393.5 392.9 392.6 390.9 390.2 387.7 384.1 382.8 380.4 380.4 381.1 383.3 381.7 382.3 384.9 385.2 383.4 383.6 384.7 388.8 390.8 391.9 398.5 393.1 392.3 393.1 393.2 392.1 393 394.9 395.7 396.4 397.3 401 399.7 397.5 398.4 400.1 400.3 400 400.8 400.3 400.7 402.9 404.8 406.4 409.3 412.6 412.9 414.3 416.1 417.7 418.9 419.7 421.7 426 427.8 429.4 430.6 433.2 436.1 438.8 442.5 446.2 450.2 454.3 458.1 462.2 466 468.9 471.8 474.9 477.9 481.3 485.6 489.6 494 498.1 501 503.5 506.2 509.2 512.3 515.3 515.3 513.3 514.2 513.5 516.8 522.8 531.6 541.1 545.8 551 558.9 558.4 555.9 549.5 546.8 543.2 536.4 528.7 524.4 520 514.1 509.2 504.8 502.4 500.6 502.3 504.3 506.8 509.4 512.8 516.1 516.7 521.3 524.4 526.5 527.3 527.9 533.2 534.9 535 536 535.5 534.9 533.9 532.3 530.9 528.9 528.3 529.1 529.1 530.5 531.9 534.4 534.1 535.3 538.3 539.9 541.6 543.1 541.9 540.1 539.1 535.5 534.4 533.7 531.6 527.6 524.2 522 522.8 518.8 527.2 534.2 540.8 544.5 549.5 553.6 556.5 559.7 562.8 565.6 568.2 569.4 571.5 571.3 573.8 572.5
375.6 378.1 380.6 380 380.4 381.2 382.7 384 385.6 388.2 389.9 392.6 395.3 398.3 400.5 401.8 402 403.7 404.8 405.5 405.1 404.9 403.7 402.6 399.6 397 396.4 395.2 393.5 392.6 391.5 390.3 388.9 388.2 387.4 386.5 383.4 382.5 384.8 384.1 383.9 385 385.2 385.3 387.1 389.9 390.8 389.9 392.2 392.8 395.9 400.5 397.5 395.4 399.2 396.2 392.9 394.2 396 397.2 398.1 399.7 401.3 401.4 401.3 400 401.6 402.4 401.7 402 403.3 403.5 405.2 408.7 410.2 412.3 414 416.1 416.8 417.8 419.6 420.8 421.1 423.7 426.2 429.2 430.8 433.5 435.9 438.4 441.7 445.3 449.8 454.6 459 463.2 466.9 470 472.6 476.2 480.2 484.5 489.1 494.8 500.1 505 509.8 516.8 519.1 521.1 523.4 523.1 524.9 525.6 523 525.5 525.9 530.8 537.9 546.4 557.9 569.4 574.7 574.2 578.1 577.8 563.2 562.7 553.2 546.7 541.2 534.6 531.1 521.7 514.6 509 505.2 504.6 505.4 507.6 508.8 512.2 515.4 519.2 523.5 524.2 527.1 530.7 532.5 534.2 538.5 539.1 538.2 538.2 539.4 538.7 539.2 538.4 537.9 538.5 540.8 541.6 544.4 543.5 546.5 549.3 550.5 552.8 554.7 558.6 559.7 560.5 562.9 562.6 557.9 552.7 548.9 545.5 542.9 536.5 531.8 527.4 530.6 527.2 540.3 546.2 556 565 574.7 581.4 591.5 588 586.5 585.3 585.3 587.4 590.6 589.3 589 590.7
376.7 378.8 381.1 381.3 381.5 382.4 383.6 385 386.3 389.3 392.5 394.7 396.8 398.7 400.7 402.1 402.8 403.6 403.9 405.9 404.9 403.7 403.1 401.7 398.2 396.2 395.7 394.5 393.9 393.4 391.2 389.7 388.9 390.9 388.8 386.8 385.9 385.5 385.8 387.4 386.5 388 389.1 389.9 389.2 391.4 393.7 392.7 393.6 394.2 395.8 396 397.6 396.7 398.8 398.2 397 397.2 398 399.1 401.3 403.6 404.7 403.6 403.5 402 403.3 404.2 403.8 403.7 404.3 406.5 408.8 410.8 412.7 414.1 415.9 418.1 418.8 419.6 421.2 422.9 423.9 425.3 426.9 430.8 433.2 435.1 438.4 441.9 445.6 450 454.9 459.2 463.5 467.5 470.8 474.2 477.6 482.7 488.4 494.2 500.3 505.7 512.2 518.3 529.6 527.5 528.6 531.4 533.1 533.3 533.5 533.7 532.6 536.1 540.3 547 551.5 562.3 573.3 587.5 587.1 586.3 584.7 582.8 580.9 579.8 574.7 567.1 556.2 543 537.5 528.8 519.5 512.9 508.5 509.7 510.2 510 512.2 517 521 524.3 527.7 528.2 531 535 538.5 540.3 540.8 541.2 542.5 542.8 543.9 547.1 547.5 548.2 552.8 554.4 557.3 557.2 559.2 562.6 568.7 572.8 576 578.4 581.6 588.5 586.3 585.3 587.4 584.6 580 575.4 564.1 559.7 553.7 544.8 539.1 534 537.7 534.9 552.3 563.8 583.7 593.7 606.4 615.1 614 618.6 615 610.2 608.7 608.6 612.2 616 616 617.2
379 379.4 381.7 381.5 382 383.6 384.7 385.7 387.1 390.3 393 394.8 397.7 399.4 400.9 402.2 402.8 402.6 402.5 402.8 402.5 401.7 401.5 399.9 397.6 396.2 395.1 394.7 394.6 393.9 390.5 389.7 389.1 390 389.4 388.7 387.8 387.9 388.1 391.4 391.5 392.6 391.7 392.6 391.9 394.9 399 395.9 395.7 397.4 398.2 398.8 398.3 398.7 398.4 401.7 403.8 399.7 400.3 401.7 404 405.4 406.6 404.9 404.6 403.2 405.1 405.9 405.9 406.1 406.5 408.4 411 412.8 415.1 416.4 419.3 418.9 419.4 420.8 422.8 424.4 425.9 426.7 428.8 431.9 434 437 441.3 445.8 450.4 455.3 459.1 462.9 467.9 471.8 475.5 480.1 486.1 492.1 498.2 504.9 511.7 517 523.5 530.6 539.8 540.9 536.1 538.6 540.6 544.4 543.5 544.9 545.9 550.6 555 560.5 565.6 572.8 585 596.9 605.7 602 598.3 597.8 595.5 593.3 587.6 580.6 566.8 554.3 542.5 536.5 533 517.3 515 514.6 514.8 513.8 518.8 522.7 526.7 529.6 531.5 534.1 535 538.1 541.7 543.3 546.3 545.2 548.5 550.8 554.6 558.6 560.3 563.3 565.7 568.6 572.9 577.1 582.7 586.3 591.3 599.1 606.5 611.8 619.8 614.7 611.6 616.6 613.9 606.9 601.4 589.4 578.9 572.7 564.9 554 547.1 544.8 548.5 544.7 560.2 576 594.7 616.8 635.2 639 646.6 646.6 642.8 642.3 644.7 646.8 645.2 645.8 642.4 641.1
378.9 379.3 379.8 380.2 381.4 382.9 387.2 387.6 386.6 389 392.7 394.2 396.7 398.1 400.9 402 402.7 402.5 402.2 402.1 401.6 401 400.5 399.4 397.2 395.9 394.7 395.2 393.8 393.3 391.4 390.8 389.8 389.5 390.1 390 390.3 391.1 393.2 395.3 396.4 395.6 395.4 397.3 398.1 398 403.5 402.5 399.9 401.4 403.1 406.6 402.3 401.1 400.8 401.9 402.8 403.3 403.5 404.1 405.5 408.5 408.2 406 405.8 405.8 406.8 408.1 408.7 409.2 410 409.5 413.3 414.7 417 418.3 421.2 422.8 421.3 422.4 424.3 425.4 426.5 428.1 430.4 433.3 436.4 441.4 445.5 450.9 455.7 459 463.6 468.1 472.1 477.2 482.4 488.7 495.3 501.6 507.9 514.4 521.4 527.2 535.6 542.7 552.7 547.9 547.6 555.2 557.3 555.6 557.8 560.1 560.4 566.3 569.9 576.1 581.7 585.1 592.8 605.6 609.3 615.5 613.2 613.7 615.8 609.6 602.3 586.6 568.4 557.6 552.4 544.4 535.8 524.8 519.1 520.5 521.5 523.6 525.8 528.6 530.2 532.9 534.4 537.5 540.4 542.3 543.7 546.9 550.1 553.2 556.9 561.9 566.1 568.6 572.6 576.5 582.3 587.3 593.2 596.4 602.4 611.9 620.7 631.3 643.5 649.8 651 642.1 631.7 630.6 626.7 619.7 613.8 604.1 594.6 584 575.4 565.6 557.8 555.3 559 554.1 570.2 586.8 606.2 635.8 663.2 667.5 676.1 675.8 680.6 677 673.6 671.5 675 677.2 674.9 673.7
378.5 378.6 378.7 380 381 382.5 385.2 385.6 386.2 388.1 390.6 392.8 394.8 395.9 397.6 400.8 402.4 402.4 402.3 401.8 401.1 400.4 399.2 398.9 397.1 395.5 394.5 394.1 392.8 392.3 390.5 393.8 391.1 391.9 392.1 393.4 395 395.6 396.1 398.1 400 400.9 400.7 399.7 401.4 402.8 403.1 404 405.4 406 406.2 406.2 404.4 404.1 404.4 405.3 403.7 405.2 405.6 405.9 406.5 407.3 408.9 409.8 407.7 407.4 408.9 411.2 411.8 413 414 413.1 416.3 417.4 418.7 420.3 421.8 424.3 424.1 424.7 425.8 426.7 427.9 429.4 432.1 436 440.4 445.4 449.8 454.6 459.1 464 467.7 474 479.4 484.4 490.5 496.6 503.4 510.5 516.9 523.2 530.3 539.4 547.3 555.2 552.4 558.5 565 570.2 568.7 563.7 572.6 576.6 580.7 581.5 581.8 592.9 594.4 596.9 602.8 608.9 617.8 622.3 622 626.3 617.1 605.4 586.4 584.2 579.4 570.3 561.2 552.4 541.4 533.2 528.4 529 531.1 534.3 535.4 537.9 538.2 540.4 540.1 543.1 545.8 548.4 548 552.2 559 563 564.8 569.8 573.5 578.9 586.1 592.5 598.8 605.7 615.9 627.5 637.2 650.5 652.3 653.9 659.8 660.1 659.6 655 652.9 655.5 650.1 643.1 635.4 621 604 598.6 588.9 580.2 569.6 566.8 569.9 563.1 576.5 594.2 621 661.8 692.5 701.2 703.3 701.4 701.5 709.9 714.3 711.4 712.5 713.5 712.2 706.8
380.8 378 378 379.7 381 383.7 384.3 385.1 385.5 388 389.8 391.5 393.9 393.3 394.2 399.1 401.9 401.7 402.7 401.3 400.7 399.9 399 398.4 397.1 396.9 395.2 394 393.3 392.4 393.3 394.1 394.2 394.5 396.3 397.1 400.7 401.2 401.3 400.9 403.2 405.4 405.1 405.1 404.4 406.7 406.5 406.5 407.9 409.1 408.6 409.7 408.4 406.2 406.7 407.1 406.2 407.5 407.8 407.7 407.8 408.6 409 410.2 410.1 409.3 413.4 414.5 414.9 415.4 417 416.1 418 419.6 420.7 423.2 424 424.9 425.4 426.2 427.2 428.2 429.5 431.6 434.7 439.3 443.6 449.2 454.3 459 464.1 469.3 474.7 479 484.3 490.8 496.9 504 511.3 517.9 526 532.8 539.9 550.9 564 566.1 566.5 573.2 580.8 582 580.8 583 588.7 589.9 593.6 596.1 597.6 598.7 605.8 607.1 608.8 609.5 608.4 607.8 607.8 606.7 604.6 611.9 624.3 615.1 600.9 584.5 571.3 560.2 551.2 542.7 537 538.3 539.5 542.6 545.2 547.8 549.8 551.4 550.7 552.7 554.5 554.6 553.6 558 564.6 567.9 570.5 576.7 582.7 590.8 600.4 608.5 619.4 636.5 657.3 667.8 672.8 678.3 685.4 684.2 676.6 682.5 684.9 685.7 681.4 678.3 671.9 664.9 658.5 646.6 636.5 614.6 602.1 593.4 583.3 576.9 577.4 573.5 584.3 605.6 630.1 665.6 703.7 726 744 755.4 755.2 753.1 751.9 750.4 753.5 755.2 751 744
380.4 378 379.1 379.6 380.5 382 383.3 384.4 384.9 386.3 388.6 392.1 392.8 392.2 392.3 393.6 398.1 399.3 400.3 400.1 399.9 399.3 399 398 397.4 396.9 395.2 395.1 394.6 394.8 394.3 395.3 398.2 398.4 398.7 403.6 405.2 406.1 404.3 404.7 406.6 409 408.5 409.1 410 410.5 409 408.9 409.7 411 412.4 412.8 411.4 409.7 409.6 409.4 407 408.7 408.9 409.3 409.8 410.4 410.5 411.1 411.5 411.2 414.1 416.9 417.6 418.5 419.5 419.5 418.8 420.6 422.8 424.6 425.5 426.2 427.4 429.1 429.2 431.2 432.9 434.9 438.3 444 449.4 454.8 460 464.7 469.5 474.4 479.9 484.4 489.6 496.5 503.6 511 517.8 525.3 534.9 542.6 554.4 565.5 571.3 572.1 585 592.2 595.1 595.4 597.4 598.6 601.9 602.2 604 606.6 608.1 608.8 610.9 613.8 615.4 622.9 626.5 633 638.7 642 653.8 654.2 648.2 634.3 625 601.8 584.1 572.9 562.3 554.3 538.6 552.4 548.5 553 554.9 557.7 558.2 561.8 562.5 563.8 564.8 565.6 567 562.8 569.3 573 577 583.5 593.2 602.3 613.9 628.4 647.6 668.7 690.2 694.4 695.7 693.5 696.5 700.7 701.9 701 711.8 719 708.9 702.6 693.8 686.3 680.9 665.7 649.3 630.2 614.1 609 599 590.9 585.9 586.4 591.6 612.4 632.5 665.3 708.3 757.2 778.6 793.5 794.8 791.1 788.2 788 791.1 793.9 784.7 773.8
380.6 379.3 379 378.8 380.5 380.7 382.1 383.3 384.1 385.9 389.5 391.4 392.2 390.9 391.2 391.1 391.8 394.3 395.9 399.6 400.9 398.8 398.5 398.7 398.2 397 397.1 396.5 395.2 396 397.2 398.5 400.2 402.4 404 406.7 409.4 409.8 408.2 409.3 410.2 411.4 412.7 414 414.6 413.3 412 413.1 413.2 412.9 413.4 413.5 414.4 414.4 413.9 412.7 411.2 409.7 410.9 412.1 412.7 412.8 412.9 414.3 414.7 415.5 415.7 419.1 420.3 420.9 421.6 422.1 420.6 422.4 423.2 426.3 427.3 429.1 430.8 432.8 433.4 435.4 437.9 439.4 443.8 449.8 455.3 459.5 464.7 469.7 474.3 479.1 485.6 491.4 497.6 504.6 511.2 517.8 524.9 533.5 544.7 555.9 564.4 575.4 582.6 586.9 600.1 604 605.6 608.5 609.6 612 614.5 616 616.3 616 616.6 616.2 616.3 619.2 627.3 632.9 640.1 644.6 649.7 661.5 667.3 668.8 655.2 640.4 620.8 604.1 589.2 580.6 574.6 553.4 562 560.5 564 563.9 566.2 568.9 571.7 574.4 576.7 574.9 577.6 575.8 567.5 568.1 572.8 579.5 584.1 589.8 600.4 613.4 632.4 656 676.2 687.4 697 700.1 704.4 713.1 717.3 730.3 734.1 735.1 744.1 750.4 748.6 736.2 726.4 712 699.6 678.2 655.6 637.7 624.9 615.1 605.4 602.3 592.7 598.4 599.8 615.7 633.8 663.8 713.9 769.4 789 802.2 813.4 820.4 821.8 819.4 812 797.2 786.8 787
381.4 380.8 380.2 378.7 382.4 382.2 380.8 382.3 383.5 385 387.9 390.8 388.6 388 389 388.3 389.8 390.7 392.2 396 399.9 398.6 398 397.6 397.6 397.3 397.7 397.7 397.3 396.6 402.8 401.7 404.1 407 409.9 412.9 413 413.5 412.9 412.5 413.2 414.1 415 416.2 416.3 415 416 417.4 416.5 415.3 415.3 415.7 416.6 416.6 417 415.8 413.7 413.6 413.7 414.9 415.4 416.2 417.1 418 418.4 418.3 417.3 420.7 422.2 423 424 424.6 424 424.4 426 430.3 430.1 431.9 434.3 436.1 437.6 440.2 443.3 445.4 450.4 455.3 460 464 468.4 472.8 478.9 485.1 491.4 497.6 504.7 511.2 518.5 525.3 533.5 542.3 554.6 567.3 575.9 582.1 590 596.3 608.6 614.7 624.6 627.1 629.7 634.4 633.1 632 633.1 632.3 630.6 629.5 629.6 628.5 633 640 648.4 655.8 660.2 665 667.4 662.4 649.1 629.1 615.6 603.4 593.8 583.2 567 576.1 577.4 577.8 579.2 580 580.2 582 587.1 588.4 588.1 589.3 585.3 582.9 573.5 570.5 578.8 586.3 589 599.4 608.2 625.3 645.1 665.8 685 698.3 708.2 716.6 729.3 741.5 751.2 759.9 770 773.3 775 778.1 777.6 767.6 753.8 740.4 727.7 710.8 677.9 659.3 645.5 620.5 617.2 610.5 599 607.5 613.2 620.9 636 667.8 717.3 764.7 782.9 796.4 807.7 805.6 797.6 798.1 803.8 815.2 827.7 829.4
381.4 381.3 381.6 384.3 379.6 382.4 381.9 383.9 382.4 383.6 384.7 386.5 386.3 387.9 387.9 388.5 388.6 391.6 391.6 391.3 396.8 398.5 397.6 397.4 397.4 397.5 399.4 399.3 400.2 402.6 405.4 406.2 409.7 411.2 412.7 415.8 417.7 419.3 420.8 414.9 414.7 417.6 418.4 419 417.9 419.2 419.9 419.6 418.6 418.4 418.6 418.5 418.3 418.8 419.2 419.4 416.4 416.1 416.9 417.3 417.8 418.4 420 420.7 421.1 421 421.3 422.7 424.1 425.3 426.4 427 425.5 428.7 430.1 431.8 433.8 435.3 438 439.4 441.7 445 447.6 451.9 455.8 459.4 464.3 468.8 473.3 479.3 486.4 492.1 497.2 503.9 510.9 518 525.5 533.2 542.4 552.4 565.6 575.5 582.7 589.6 599.3 610.1 615.3 629.1 638.3 640.3 651.1 654.3 652.6 652.2 646.6 648.6 648.6 645.7 645.4 645.2 644.3 648.7 660.1 658.3 660.8 660.4 657.1 647.5 634.1 619.4 611.2 602.8 589.9 588.1 587.4 592.5 594 596.3 598.9 599.2 602.3 603.8 604.2 605.3 606.1 602.1 594.2 586.2 582.2 576.5 582.6 590.4 595.4 606.2 616.9 633.7 653 674 695.4 709.1 724 739.8 756.5 764 775.9 793.5 805.7 812.6 819.2 821.8 820 813.9 793.8 771.4 747.8 728.1 694.1 686.9 683.4 664.2 639 617.1 610 613.1 623.7 632.6 646.8 681.9 740.1 762.1 777.7 790.1 799.9 811.8 825.5 835.1 843.6 849.7 853.3 851
381.4 382.9 384 382.3 380.6 381.7 382.5 384.5 384.4 385.8 384.8 385.6 386.8 387.6 388.3 388.9 390.1 391.5 396.1 395 394.6 399.1 397.7 396.5 396.7 397.3 399.6 402.2 404.2 406.6 407.7 410.8 412.2 414.7 416.5 419.3 419.1 419.8 420.4 419.5 420.1 421.8 422.9 424.5 422.6 420.8 423.1 423.6 421.4 421.1 420.2 419.8 419.8 420.2 419.9 420.2 418.8 419.5 420.5 420.2 421.2 423 423.6 423.8 423 423.4 424 422.3 426.5 427.7 428.3 428.8 428.9 432.9 434.9 435.8 437.4 439.5 441.4 444 445.2 448.7 451.8 455.5 459.8 464.2 468.2 474 479.7 485.9 491.6 497.2 503.1 511.2 519.2 526.5 533.6 543.7 554.8 567.7 574.7 583.2 592.1 600.6 608.7 617.5 623.7 639.1 651.4 662.8 668.5 669.9 667.4 663.2 662 659.8 660.1 661.6 658.2 658.6 659.3 659.9 660.1 661.3 657.3 660.6 655.6 644.1 629.5 620.9 611.1 596.5 601.3 603 604.4 608.4 610.9 612.7 618.1 622.1 626.1 626.7 628.1 627.6 626 615.8 601.5 592 589 586.6 585.9 594.7 600.5 610.9 624.5 641.2 661.2 686 708.6 724.6 741.6 762.1 780.9 794.4 811.9 827.3 838.1 848.7 855.1 857.6 846.7 829.6 812.1 788.6 764.1 734.7 714.3 705.2 694.4 674.4 649.9 624.2 617.2 622 634.3 645.3 657.7 700.8 737.7 759 774.8 789.6 799 808.7 826.4 838.5 849.8 857.9 861.6 870.1
382 384.6 384.2 383.4 383 379.6 381.9 384 385.3 386.5 385.4 386.3 387.6 388.3 389.2 389.6 391.5 392.6 394.3 395.7 394.1 397.4 395.7 395.4 396 397.5 399.8 406.5 408.4 409.1 409.5 413.2 415 417.2 422.4 423.5 422.3 422.1 422.6 426.2 428.6 427.2 427 427.8 426.5 423.5 424.4 424.6 425.8 426.4 421.2 420.3 421.6 422 421.3 420.2 421.6 426.6 428.8 428.3 427.4 426.6 427 427.6 425.6 425.6 426.4 427.1 428.3 430.3 431.4 431.3 432 433.4 438.2 439 441.8 444.2 444.9 447.8 449.5 452.8 456 459.3 464.3 469.4 474.4 480.3 485.4 491.4 496.8 504.4 512.1 519.7 527.8 535.4 544.9 554.7 567.9 579 586.3 594.7 602.4 608 618 627.2 638.1 651.8 669.7 681.7 687.3 684.4 674.9 671 671.8 668 672.9 675.2 669.5 669.6 670.6 669.1 664.5 669.7 663.6 655.9 652.6 641.7 627.8 615.2 604.5 611.8 619.8 619.5 621.4 623.9 628.3 633.1 638.9 643.2 649.3 655 657 655.2 647.2 630.3 615.4 602.7 598 595.5 591 600.5 609.9 620.7 631.4 649.5 672.9 697.8 726.9 744.9 764.6 788.1 808.5 826.8 844.7 856.7 867 875.1 876.9 872.7 860.8 845.6 829.8 800.1 772.7 752.9 745.5 719.4 711.5 692.8 654.5 636.7 636 640.2 650.3 662.1 681.7 718.5 744.7 765 778.7 792.5 801.5 809.5 826.2 839.8 853.5 861.3 869.9 876.6
380 387.2 389.2 386.9 383.3 380.9 382.1 382.9 383.7 383.7 385 386.2 387.6 388.7 389.6 390.6 391.6 393.2 394.7 395.2 395.7 395 394.7 395.5 398.1 400.1 403.4 405.7 409.7 412.1 416.5 420.4 421.8 421.5 426.6 426.9 429.5 429.2 428 430 433.4 430.8 431.3 432.2 430.3 427.3 427.3 426.8 427.4 425.9 422.5 423.4 425 425.3 422.3 422.8 426.6 430.8 431.4 427.4 429 427.6 427.1 428.3 428.2 427.8 428.6 429.5 430.9 432.6 434 436.6 436.6 438 439 440.8 444.9 447.6 448.8 450.7 454 456.5 460.4 465 469 474 480.1 485 491.5 497.8 504.6 512.9 519.8 528.2 536 546.8 559.3 572.6 584.9 592.6 600.6 606.2 611.7 616.9 626.5 634.5 651.8 670.5 683.6 690 688.9 689.2 687.3 684.9 679.8 680.7 675.9 679.7 677.5 679.3 678.5 676.1 671 672.2 665.7 652.9 645.1 632.8 621.6 611.2 624.1 631.3 633 636.5 641.5 645.9 651.1 654.8 661.9 667.3 672.4 674.1 671.7 668.1 657.4 646.5 629.9 613.3 605.9 602.9 600.1 608.4 617.6 625.7 636.8 657.1 687.8 717.4 738.1 764 791.8 812.7 834.3 854.5 870.3 880.8 887.8 890.3 887 880 869.9 856.8 843.3 828.1 808.1 787.9 767.6 744.3 721.8 703.8 689.3 674.2 671.1 672.2 676.3 686 711.5 735.8 758.7 780.5 790.7 801.4 805.8 815.4 829 842.4 857.1 866.9 876.3 883.5
379.9 385.8 387.5 388.4 384.7 382.1 380.8 382.7 384.8 386.4 387.4 387.6 387.4 388.4 392.6 392.4 391.9 392.5 393.1 395.3 395.8 395.8 395.2 397 400.3 403 407.1 408.4 410.7 416.6 419.5 422.1 423.7 428 432 433.9 436.1 436.8 434.8 435 439.2 437 435.4 437 433.8 430.1 429.4 429.3 427.5 425.8 422.6 424.8 425.6 426.5 423.1 428.2 430.5 432.6 427 427.9 427.9 426.1 427.5 428.2 428.7 428.9 429.6 431 431.9 434.1 435.6 437.4 439.6 441.3 443.2 441.9 446.4 450.4 453.6 455.1 458.2 461.1 464.4 470.8 474.5 479.7 486.5 492.3 498.7 505.2 513.4 520.6 528 538.4 549.9 563.8 578 587.9 597.5 602.6 609.9 616.2 620.9 625.9 635.1 648.3 669.3 683.1 692.9 695.9 697.9 697.2 697.6 696.2 690 687.8 690.2 683.4 687.3 687.4 689.6 688.8 682.5 676.1 668.6 655.9 647.2 626.4 624 634.4 644.4 650.4 653.5 654.9 660.5 667.7 671.5 675.9 682 685.2 687.2 685.2 680.8 672.5 662.4 649.7 636.2 624.5 614.2 611.6 606.3 613.6 622 628.8 642.9 666.3 695.8 725.3 743.7 778.2 805.6 828.7 848 863.9 875.9 882.8 886.5 887.4 885.1 879.8 871.9 861 850 837 823.5 807.8 787.3 761.4 739 720.4 711.5 712.5 713.7 714.5 708.8 721.5 747.8 762.2 783.3 797.4 809.5 811.2 817.3 827.8 837.8 848.8 860.8 871.3 880.4 887.6
380.9 382.6 388.5 390 386.6 382.8 382.9 383.6 388.6 388.5 388.9 391.1 390 389.5 392 393.2 393.4 394.1 394.7 395.4 397.1 396.5 397 398.6 400.1 403.1 408.6 409.6 415.9 420.8 422.2 424.6 431.8 435.4 437.5 441.2 442.5 443.2 442.7 442.9 442.7 441.2 439.1 437.1 437.5 431.7 431.5 430.6 428.6 427.4 424.4 425 426.5 425.8 424.7 427 427.6 427.9 427.9 427.9 427.9 424.9 426 427.9 428.4 429.3 430 432.1 434.1 435.1 437.4 439.1 441.2 443.5 446.6 447.7 449 452.8 456.7 459.2 462 466.6 471 474.9 481.1 486.5 492.3 498.6 505 511.1 519.8 527.4 537.5 550.5 563.4 578.6 591.9 599.2 606.1 612.2 620 627.7 628.6 636.4 650.1 668.4 682.8 687.6 695.8 704.8 707.1 703.7 703.1 700.4 694.4 689.7 690.8 691.1 696.1 699.5 694.4 684.1 681.7 674.5 656.7 653.4 632.6 639.6 646.6 651.5 658.8 663.6 669.4 673.4 678 685.5 690.2 694.9 695.7 697.4 696.2 693.8 689.6 682.1 668 652.2 643.2 633.5 623.8 619.4 611.4 616.3 626.5 636.4 647.5 672.5 697.5 723.4 750.5 785.6 812.4 834.9 851 863.3 872.4 879.2 883.6 885.1 883.2 878.6 871.7 863.1 853.2 842.3 830.1 818.2 801.3 782.9 765 746.5 731.3 735.1 758.1 766.5 763.5 762 786.3 797.9 811.1 816.3 823.7 830 836.5 841.3 846.9 857.2 866 875.7 883.8 891
391.2 384.8 389.1 394 391.8 391.1 384.8 385.2 388 390.8 395.4 392.8 393.8 393.7 392.5 394.2 394.7 395.2 396.4 397.3 398.4 397.9 400 401.3 401 404.3 409.8 415.5 420.8 422.4 430.6 436.7 439 442.7 445.7 448.1 449.5 450.4 450 447.9 447.3 444.4 442.4 440.3 438.1 435.7 434.3 434.7 431.2 428.7 425.9 425.8 426 427.6 427.9 427.9 427.9 427.9 427.9 427.9 427.9 427.9 427.9 425.7 427.5 429.3 430.4 432.1 434.8 436.5 439 441.1 444 446.4 448.7 451.9 452.4 455.9 459.8 464.1 465.7 471.4 476.7 479.8 486.9 492.1 498.2 504.3 511.4 519.5 527.8 537.9 551.1 561.7 576.9 592.5 600 607 617.2 624.8 631.5 632.1 643.5 655.6 662.8 681.8 695 698.5 706.1 710.1 715.8 714.7 712 707.5 703.7 696.8 701.1 704.3 704.9 699 698.4 688.3 685 677 662.4 641.8 650.5 654.6 658.4 664.7 671.5 678.4 684.4 690.2 697.3 703.8 707.5 712.3 712.5 711.8 708.2 705.6 698.8 689.6 675.1 658.9 647.6 641.2 632.1 626.4 625.2 622.1 631.8 642.2 654.4 675.5 699.8 729.4 761.5 790.4 816 834.9 849.2 860 868.5 875.1 879.7 881.8 880.4 876.7 870.8 863.4 854.7 845.3 835.1 824.8 813.9 800.8 787.3 767.5 745.1 756.7 779.5 804.5 815.4 815.8 816.6 826.2 830.5 836.8 843.3 847.4 849.4 854.4 859 864.1 871 879.2 886.5 893.1
396.9 396.3 393.8 395.9 392.8 390.8 393.3 388.4 393.7 394.1 393 395.7 397.5 396.8 395.8 396.2 396.6 397.5 398.1 398.7 400.6 404.3 404.1 402.2 403 407.7 411.8 422.3 426.5 433 435.2 440 443.8 448.9 454.7 456.5 457 457.9 457.1 455.1 453.1 451.1 448 445.3 442.9 439.9 438.5 437.1 432.6 429.3 427.4 426.7 426.5 427.9 427.9 427.9 427.9 427.9 427.9 427.9 427.9 427.9 427.9 427.9 425.6 427.1 430 433.4 436.7 439.1 441.5 443.2 447.3 450.3 452.6 455.3 457.6 459.7 464.3 468.9 470.9 475.4 480 484.6 491.6 497.9 504.2 510.2 518.7 528 536.9 548.1 559.3 571.6 586.6 601.2 607.7 616.3 625 635.5 640 645.7 657.3 673.9 681.3 690.9 701 711.6 715.6 717.7 719.2 716.1 714.3 711.6 708.9 712.9 711.9 709.9 709.4 702.4 696.3 691.6 685.2 678 663.2 659.2 664.9 666.5 670.5 676.8 684.9 693.4 700.8 709.7 713.9 721.7 724.8 725.5 729.5 727.9 720.4 713.2 704.2 693.1 677.9 665.9 654.1 645.8 638.2 636 632.1 627.7 638.7 648.9 668.5 686.7 708.3 738.6 767.8 794.7 816.7 834.1 846.9 856.5 864.5 871.2 876.2 878.7 877.7 874.5 868.7 862.3 854.5 845.4 836.8 828.1 818.9 808.2 796.7 774.3 767.5 777.4 794.5 810 819.4 826.9 830.4 838.3 844.3 850.2 855.2 858.5 861.8 864.8 867.3 870.9 877.1 882.8 889.6 894.7
401.2 403 399.5 398.1 398.9 400.2 395.9 396.5 399.4 395.3 398.4 397.9 399.8 400 397.9 398 399 400.4 400.6 400.7 403.8 405.7 405.7 406.8 409.4 421.7 422.9 428.3 432.3 439.4 443.6 447.6 454.1 460 462.2 464.8 465.1 466.6 466.8 465.9 463 460.6 456.5 453 447.8 444.1 441 437.2 434.4 431.5 429.8 428.4 429.5 428.2 426 424.9 424.7 427.9 427.9 427.9 427.9 427.9 427.9 424.8 426.8 429.6 432.5 434.3 437.8 440.9 443.6 446.5 449.5 452.6 455.4 457.9 460.7 462.8 467.7 472 477.3 479.2 485.4 489.2 495.7 502.5 509.9 517.9 527.5 535.3 544.1 555.2 566.8 580.8 593.1 603.4 613.5 625.3 636.3 644.2 649.2 660.5 676 689.4 697.8 700.1 709.5 717.8 722.1 723.2 721.3 717.9 718.4 718 720.1 718.5 715.8 712.3 709.3 707.4 699.1 685.6 673.9 669.3 663.7 674.6 675.7 678.9 682.6 690.5 699.5 711.1 719.5 723.5 728.8 731.5 741.3 747.5 749.1 745.6 730 718.7 708.5 693.9 680 670.6 660.5 653 645.6 643.5 631.2 636 647 658.2 673.7 691.8 718.9 747.8 775 798.1 817.5 831.6 844 853.8 861.5 868.1 872.8 875.4 874.6 871.6 866.3 860.1 853.1 845.7 836.7 828.4 819.1 810.3 798.2 777.1 784.5 793.3 805.3 816.8 826 833.3 840.5 847 852.9 858.6 863.9 868 871.4 874 877.5 880.6 884.1 888.1 892.8 895.4
406.1 408 404.4 405.1 404.5 404.2 404.9 404.9 402.3 402.5 401.9 401.3 402.3 402.2 401.7 401.9 404.1 404.7 404 404.4 406.9 407.6 408.7 415.6 420.1 428.8 431.8 435.8 440.7 449.6 450.6 456.1 462.9 465.6 473.3 476.3 479 480 481.1 478.2 475.9 470.4 464.1 459.8 454.4 448.6 446.3 442.7 440.8 438.3 436 435.9 433.5 429.6 428.1 427.4 425.9 424.9 426.3 425.3 425 424.6 427.9 427.1 430.5 433.8 436.1 437.4 440.1 443.7 446 448.7 451.6 455.1 458.5 460.5 464.8 469.6 471 478.1 481.8 484.9 490.4 494.4 500.2 507.9 515.9 525.2 532.9 540.9 550 561.5 572.4 585.2 597.3 609.3 621.5 633.5 643.4 651.3 664.2 673.3 684.2 696.9 706.6 709.2 719.2 727.4 731.2 727.2 725.6 725.2 723.5 725.9 728.6 724.8 722.8 716.8 710.6 694.7 696.9 694.1 681.6 685 685.3 686.7 688.2 690.1 697.5 709.5 722.8 734.4 739.7 739.4 738.9 749.6 756.4 764.1 764.2 757.7 740.8 723.6 711.4 694.1 683.6 672.2 663 657.3 650.1 649.5 637.2 646.9 653.3 665.3 678.8 699.1 725.4 753.9 778 799.1 816.8 830.8 842.4 851.4 859.5 865.4 870.1 871.8 871.3 868.7 864.2 858.2 852.7 845.1 832.7 827.6 819.4 808.1 796.2 796.7 800.7 807.4 816.3 824.8 833 839.2 846.7 853.5 859.6 865.3 870.8 875.6 879.7 882.9 885.6 887.9 891.4 893.4 895.1 894
413 412.4 411.6 414.3 412.9 411.8 411.9 409 404.3 406.6 406.3 404.4 406.3 406.5 406.1 407.8 409.4 408.8 407.9 407.7 410.7 412.1 416 422.1 429.1 435.6 439 442.9 449.8 451.6 458.3 467.6 474.8 483.5 497.9 508.4 512.7 509.9 502.2 495.9 492.7 485.4 474.3 469.2 464.6 458.2 455.8 451.6 449.8 447.2 446.8 444.5 439.8 435.5 431.3 430.4 428.6 427.7 427.9 428 427.3 428.2 428.9 431.9 436.1 438.5 439.4 441.2 443.6 446.7 449.5 452 454.8 459.5 462.3 465.1 469.7 476.7 481 478.6 487 489.2 493.5 498.3 504.6 512.4 520.8 529.1 537.9 546.2 556.1 566.8 575.9 588.5 599.9 613.6 624.4 638 649.2 663.5 675.1 682.1 696.3 706.7 710.4 715 726.2 740.7 744 740.2 736.6 735.5 736.5 737 735.3 729.5 725 719 712.7 707.5 704.2 697.3 690.5 694.1 694.2 697.2 699 705.2 718.9 731.9 741.1 744.2 748.9 754.2 760 761.8 766.2 774.6 773.9 764.5 746.7 731.2 714.8 703.2 689.9 678.7 667.6 660.9 658.5 658.2 644.8 658.7 662.8 670.7 681.3 703.1 729.5 756.1 779 799.5 817.2 830.5 840.4 850.3 857.9 863.3 867.5 869.2 868.8 866.3 863 856.9 851.6 842.5 833.8 827.3 817.2 803.4 802.7 805.3 809.8 817.9 825.8 832.9 839.1 845.4 852.3 859.4 865 871.1 876.5 881.8 886 889.5 892.3 894.4 897 897.3 894.8 889.4
423.4 420.2 420.3 420.7 419.8 418.3 415.9 411.7 413.5 410 411.9 408.9 409.6 412.8 411 412.7 413.7 413.2 413.4 411.5 418.3 422.4 424.4 430.7 437.1 442.4 445.4 450.8 454.6 459.5 467.1 478.8 490.3 511.8 546.5 549 548.3 542.1 536.4 528.4 516.2 505.3 493.2 482.5 477.7 472.9 466.9 462.9 460.8 458.6 457.7 452.2 447.6 442.2 441.2 438.4 436.8 435.8 435.4 433.6 434.4 435.6 437.3 439.8 443.5 442.5 443.6 445.7 448.8 451 453.9 456.9 459.4 464.5 465.1 470.4 474.4 479.7 483.5 483.3 487.7 492.7 497.8 502.6 508.5 517.3 524.7 533.6 542 551.2 560 569.3 579.4 592.2 602.9 615.6 627.4 639.9 653.9 667.3 680.4 686.9 697.8 708.2 715.8 721.1 735.7 742.4 745.7 746.8 743.1 742 741.1 741.2 739.3 735.2 728.1 724.6 721.4 714.1 706 699.3 696.7 702.3 703.5 706.4 716.5 727.8 740.1 751.4 751.8 754.4 765.5 769.3 772 774.9 766.2 776.4 777.8 769.1 750.3 735 723.6 717.1 700.4 687 677.5 668.3 668.8 664.6 653.2 667.4 671.3 676.6 685.8 707.9 731.9 756.9 778.2 800.3 817.4 830.5 839.7 848.8 856.2 861.2 864.7 866.5 866 863.8 861.5 856 849.5 840.8 835.3 825.8 818.3 806.2 806.1 813.4 817.9 825.2 833.4 838.8 845.2 852.5 859.4 865.3 870.8 876.1 881.1 886.1 890.5 894 896.8 900.4 901.4 898.4 883.8 866.9
429.5 429.5 427.9 427.5 426.9 424.7 423 418.6 418.3 415.4 414.8 412.6 415.2 415.6 414.9 416 418.1 417.9 417 417.8 425.8 430.4 433.8 436.3 441.9 447.4 451.4 456.4 462.2 467.5 479.6 493 511.1 542.2 572.2 583.4 586.6 577.4 563.5 554.3 541.8 533.9 521.3 508.1 496.6 487.6 481.1 476.8 473 469.6 466.1 461.5 459 454.1 452.3 452.2 450.8 448.2 446.8 444.1 445.3 446 448.2 449.4 451.4 450.7 451.1 452.9 454.4 457.3 459.5 463 465.9 470.4 469.5 475.2 478 484.4 488.1 489 492.8 495.4 501.7 506.8 513 520 528.2 536.8 544.5 554 563 572.6 583.2 594.3 605 616.7 628.5 644 657.2 670.5 681.9 690.8 703.6 713.6 721.5 730.5 737.6 746.9 751.8 753.7 753.5 752 749.8 745.6 741.9 741.2 735.4 728.7 721.1 711 706 699.9 705.8 710.3 714.3 724 734.3 748.9 757 756.1 766.9 773.5 782.3 786.9 788.5 789.2 777.1 768.1 770.4 761.2 745.3 735 723.9 722.7 714.7 698.6 687.9 679 673.3 661.1 669.2 670.3 677.9 686.1 695.5 711 733.2 757 781.9 802.4 818.3 830.1 838.8 846.9 853.8 858.4 861.8 863.1 862.8 861 858.3 854 847.3 841.3 831.4 824 813.5 816.2 821.8 821.6 826.4 831.7 839.5 845.7 851.6 859.3 864.9 870.3 875.5 879.9 884.8 889.6 893.9 898.1 901.7 904.6 898.7 876.6 858.2 842.1
441.7 441.2 438.1 436 433.3 430.5 429 428.9 424.2 423 420.8 419.5 421.6 419.6 419 420.3 421.7 424.2 424.2 423.8 431.9 436.6 439.1 444.5 449.7 452.9 457.1 465.6 471.6 478.7 486.2 505.6 525.6 554.1 586 603.5 612.3 610.6 602.5 595.3 593.9 581.1 558.4 534.5 519 508 501.4 495 489.2 485.3 481.6 476 474.3 470.9 467.8 467.4 465.5 463 461.9 459.4 460 459.6 460.9 462.1 461.5 459.1 458.6 460.1 461.7 463.7 465.9 468.1 470.9 474.1 477.7 477.1 483.9 489.6 492.2 494.2 496.6 500.4 505.8 510.2 515.8 522.4 530.1 538.4 547.1 556.2 565.2 574.8 585.1 594.7 604.8 613.9 626.4 643 657.6 674 687.4 699.5 707.2 718.4 729.7 736.8 742.3 749.6 756.4 759.2 759.4 760.6 758.4 753.1 747.6 742.8 736.2 727.1 722.2 717.8 712.7 710.9 711.5 720.7 727.8 738.3 748.6 758.3 764.1 772.6 781.4 790.3 799 803.6 803.4 802.6 800.9 771.7 749.9 739.3 738.4 734.8 730 722 716.4 708.2 694.9 686 672.3 671 680.3 685.6 688.6 695.6 707.1 723.3 737.5 758.9 779.9 802.4 818.2 829.5 838.4 844.8 850.9 855.1 857.7 858.4 858.3 856.9 854.3 848.9 844.1 835.7 821 828.5 828 829 829.5 831.3 834.5 839.4 848 853 857.5 865.7 870 875 879.1 883 887.8 893.5 898 902.2 905.2 883 861.1 846.4 832.2 818.4
451.9 450.7 446.2 441.8 438.8 437.3 434.1 432.2 428.7 428.9 426.7 426.2 427.2 426.4 427.1 426.8 429 431.6 427.9 433.7 440.5 447.2 445.8 451.1 452.7 460 464 471.1 477 485.2 495.9 511.6 536.6 566.1 589.9 610.2 623.9 627.8 624.3 619.8 616.2 597.2 575.9 562.1 548.6 535.1 524.5 513.9 508.9 504 500.3 494.9 491 488.6 486.8 485.2 483.1 479.9 477.1 475.2 474.7 473.3 473.5 473.6 471.4 469.7 467.3 468.2 469.6 470.1 470.3 473 476.3 479.9 482.5 485.2 487.3 492.1 498.2 499.1 504.8 506.1 510.3 514.2 515.7 524.2 532 540.4 549.3 557.5 567 576.8 585.6 594.4 603.9 613.9 627.1 643.6 659.6 674.5 689.8 705.1 718.5 726.3 739.8 749.4 751.8 758.4 763.5 773.1 778.1 776.4 769.2 763.4 756.5 755 748.2 735.7 729.1 722.3 716.1 717.5 725 728.4 737.9 746.9 756.5 765.1 776.9 786.9 795.7 803.5 809.3 813.1 813.6 811 797.2 787.7 768.3 760.3 750.9 740.3 729.3 721.2 715.5 710.7 697 683.2 690 686.1 693.1 698 704.6 711.1 719.7 730.2 746.8 769.8 793.5 809.1 820.3 830.3 839.2 844.3 848.8 851.5 852.6 853.9 852.1 851.3 847.2 839.8 832.2 828.3 836.6 837.7 836.7 837 838.3 841.3 845.3 849.7 851.5 859.2 865.1 872.5 876.6 880.6 883.8 887.2 893.2 898.6 903.8 905.5 873.9 844.6 825.8 814.5 804.3 794.4
458.3 455.5 452.5 445.6 442.7 439.6 439.3 435.5 435.1 433.5 433.7 432.4 433 433.4 436.1 435.9 438.3 437 438.1 439.4 443.5 448.5 452 456.1 458.3 463.7 468.8 475.3 482.3 490.2 502.5 518.6 537.6 560 582.3 609 626.9 634.8 639.9 639.1 628.1 616.1 605.2 589.5 572.6 556.7 546.5 538.5 533.8 526.1 521.2 514.2 509.3 506.6 503.7 502.2 500.3 498.9 494 492 489.4 487.5 485.2 484.1 482.3 480.5 477.8 476.7 478.8 477.9 478.4 479.5 482.9 487.4 489.6 493.5 496.6 495.3 501.2 504.7 507.4 510.9 513.3 519 523.7 528.1 534.8 541.9 549.7 558.3 567.9 576.4 586.4 595 604.3 614 628.9 645.3 660.5 677.5 691 705 718.1 730.1 744.3 755.9 763.1 773.9 780.4 789.7 793.8 786.9 778.2 769.4 762.7 756.7 749.4 739.1 731.5 727 727.3 732.4 735.1 739 744.9 753.9 766.1 777.1 788.3 796.7 805.8 812.4 817.2 819 817.2 810.7 800.4 785.8 778.3 764.3 753.6 739.2 730.3 722.8 716.2 708.8 698.6 688.5 698.4 700.6 705.3 708 716.1 720.1 723.8 737.6 759.7 781 802.3 818.9 828.9 836.7 841.8 845.2 844 847.4 849 845.7 842.6 841.5 834.8 843.2 843.4 843.7 844.1 843.6 843.7 845.7 849.4 852.7 855.8 859.1 862.2 862.6 871.5 877.8 883 886.8 890.5 894.1 899.2 905 909.7 886.9 848.1 821.3 801.1 787.7 780.7 773
466.7 459.4 451.6 446.7 444.7 445.3 443.3 442.5 439.3 437.2 439.3 439.9 442.2 443.4 444.8 444.7 445.5 444.4 446.8 442.2 448.8 450.8 452.6 463.4 465.4 472.5 476.7 480.9 484.8 493.1 507.1 519.3 534.8 556.4 579.2 598.2 617.1 631.5 640.2 642.4 637.3 634.5 621.1 610.7 599.6 584.4 577.9 572.5 567.4 559.9 544.2 533.9 527.8 524.2 522.4 522.5 521 517.8 514.7 509.8 506.2 505.3 500.3 498.7 493 492.2 489.9 486.3 487.3 486.9 487.9 489.1 491.3 494.6 496.8 499.6 503.1 504.5 502.6 509.1 512.4 514.8 517.7 522.7 529.1 533.5 538 542.9 550.3 560.8 569.3 578.5 588.1 596.6 605.4 615.4 631 645.4 661.1 677.9 693.1 706 720.3 732.9 746.6 761.6 777.1 789.4 796.6 798.8 800.9 797.7 789.2 775.9 767 757.4 749.2 741.6 737 732.4 735.1 737.6 740 744.1 751 759.9 770.9 782.7 793.8 802.5 812.8 818.5 821.5 821 816.3 808.9 799.9 789.6 776.2 762.2 751 738.7 730.5 723.7 718 708.1 698.1 694.3 701.6 706.9 711.4 715 718.1 722 731.7 748.3 771 795.3 814.2 826.8 835.6 842.9 846.4 848 847.5 848.8 843.6 847.3 849.9 847.3 847.5 849.2 849.6 850.3 850.2 849.7 852.2 855.9 859.9 863 865.4 867.5 870.2 871.8 872.5 881.8 887.3 891.3 895.1 900.4 905.7 910.8 913.7 880.4 834.9 805.2 784.1 769.9 761.4 751.1
464.2 458.4 451 448.5 444.7 445.3 445 444.7 446.4 447.1 450.9 451.2 453.6 452.6 452.5 452.2 452.5 452.4 452.3 450.6 451.6 457.7 462 466.3 470.9 473.9 478.1 486.4 491.7 497.5 506.9 520.7 538.4 551.6 570.6 588.3 607.7 620.8 635 642.2 642.7 640.9 638 632.8 620.2 607 602.4 597.2 590.4 582.7 570 558 557.2 553.7 550.5 548.9 543.8 538.6 534.6 529.9 526 523.3 517.2 511.7 507.9 505.7 502.9 494.2 494.8 495.7 496 496.5 498.1 501.1 503.1 503.8 507.6 513.1 510.1 511.9 520 520.4 524.1 531.2 535.6 538.7 537.6 543.6 552 562.7 573.1 582.8 591.6 600.2 609.4 622 634.7 647.7 662.6 677.7 693 708.3 722.4 736.1 754.9 770.4 783.1 793.7 799.8 802.5 805.6 807.1 797.6 783.1 769.2 757.7 749.7 744.4 739.2 732.9 738.5 740.3 742.9 747.4 757.2 766.4 777.4 789 799.5 809.4 816.9 820.9 821.4 818.9 813.8 806.1 796.2 784.9 771 757.1 747.7 737.1 730.6 726.3 718.6 706.8 703.4 706.1 707.4 712.2 716.9 718.4 724.8 735.7 744.3 758.1 781.8 804.9 819.7 832.9 842.3 847.6 849.9 851.4 853.3 854.9 855.7 854.6 854.4 854.8 853.8 854.6 855.9 857.3 858.1 859.1 862.4 867.1 870.3 873.3 875.5 876.6 877.2 878 877.9 882.6 889.4 894.5 899.7 904.7 909.2 912.7 915.4 888.6 829.3 798.1 773.5 758.7 744.4 734.5
461.6 453 450.6 452.6 450.2 449.8 448.6 453.5 454.1 455.4 458 458.4 460.5 460.5 460.3 460 459.8 459.1 457.9 460.1 454.6 462.1 466.1 468.4 473.2 477.8 483.6 489.6 494.5 501.9 511.2 520.1 535.6 549 563.8 581.1 595.4 610.1 625.5 638.6 645.2 651.2 647.6 642.1 636.6 630.2 623.9 618.9 612 601 593.4 589.2 582.2 576.8 573.6 569.3 563.2 560.2 559.2 553.1 549.8 545.2 537.5 532.2 529.1 524.2 515 510.3 505.8 506.3 505.9 504.3 505.4 506.6 508.2 509.8 516.2 519 519 521.7 520.8 530.1 536.8 542.2 543.2 541.8 543.5 544.8 553.8 564.8 575 585.1 594.8 604.2 614.5 626.2 638.7 650.1 665 679.8 695.4 710.8 726.1 742.6 759.5 776.7 789.4 802.1 809.9 809.6 808.1 807.1 799 785.1 771.1 759.8 753.7 748.6 741.9 737.7 741.9 743.1 748.1 754.7 763.7 773.6 782.6 793.2 804 813.2 819.1 821.5 821 818 810.4 801.9 790.3 777.3 764.5 752.1 743.7 735.2 730.5 721.7 714.4 714.1 713.6 716.3 717.3 721.9 727.2 733.7 739.3 748.4 760.2 772.2 795.1 814.5 830.4 841.2 848.2 851.8 854.4 857.2 859.1 860.6 860.9 860.2 860.2 859.3 859.8 860.7 861.7 862.6 865.5 869.5 872.7 876.4 880 882.8 884.3 885.1 884.2 884.2 883.5 885.8 889 894.7 899.5 903.9 907.9 910.9 912.2 879.9 839.6 804 778.3 756.7 741.2 728.7
461.6 462.2 463 459.9 458.7 461.1 460.9 463.6 463.9 465.2 466.7 464.6 467.1 469.2 467.7 468.4 467.6 467.5 464.4 466.5 458.8 466.7 470 473.3 475.9 482.4 485.2 491.1 497.2 503.9 514.4 528.6 540.8 553.1 563.9 577.2 591.1 599.8 616.9 631.2 645.5 653.1 655.6 657.6 659.2 657.3 652.1 644.9 635.6 626.4 621.6 614.5 610.3 603.7 598.1 591.8 590.8 588.5 586.6 580.4 575.5 570.2 565.9 559.3 553.4 543.9 535.4 529.2 524.9 519.2 517.6 515 514.4 514.2 518.6 522.1 524.6 527.3 530.9 534.4 531.5 532.8 543.6 547.6 549.9 548.4 548.5 549.1 556.7 567.3 576.8 588.4 598.8 608.3 618.1 629.1 641.5 654.9 669.4 684.5 701.4 715.4 730.8 747.1 764.2 781.7 794.2 806 810.9 814.2 813.1 803.8 795.4 784.2 770.9 762.2 758.2 752 745.5 741.9 748.1 752.8 757.1 764 772.1 778.2 787.3 798.5 808 816.7 821.4 823.7 823.6 816.6 806.7 797.6 784.6 769.7 758.4 746.7 738.3 732.9 727.4 727.7 726.3 723.3 724.4 727.7 731.6 736.7 742.9 747.7 753.2 759.3 773.8 791.1 803.7 823.7 837.5 849.9 853 857 860.6 862.5 864.2 865.9 865.1 865 865 865.8 866.2 867.5 868.8 871.4 874.8 878.6 882.7 885.6 887.9 890.6 891.8 892.4 891.8 889.5 886.8 886.6 889 892.3 895.6 899.5 902.8 905 904.8 883.8 843.5 814.4 790.7 760 740.5 726.7
468.8 467.7 466.7 467.1 472.3 471.5 470 473 472.4 474.6 474.9 476.3 476.3 476.4 474.6 475.3 476 473.2 472.9 467.5 465.6 471.5 477.8 480.8 482.5 482.4 489.8 496.7 500.3 508.3 517.3 527.3 541 554.4 563.7 574.1 586.4 593.4 604 619.7 636.3 651 657.8 664.6 669.6 674 670.9 663.4 655.4 652.8 646.1 643.3 635.1 630.7 625.1 624.3 617.5 615.4 615.9 610.1 606.2 597.4 591.5 585.6 581.8 575.2 565.9 557.5 548.8 539.4 532.8 525.7 524.2 524.1 528.6 534.2 537.3 538.6 541 544.4 539.9 543 552.6 558 558.1 556.2 560.7 560.6 562 569.3 580.8 591.1 601.6 611.7 622 633 646.1 661.3 674.3 690 706.5 718.9 734.7 752.8 769.6 784.6 799.4 810 816 814.4 810.4 802.6 792.7 781.5 771.4 765.6 761.4 754.6 748.3 749.3 755.3 760.4 766.5 772.2 776.5 784.5 793 804.3 813.9 820.6 823.8 824.6 822 813 803.5 792 776.9 763.2 751.5 743.5 736.5 733.3 731.6 730.7 731.4 733.6 735.3 739.4 745 750.4 753.9 759.4 764.2 774.4 790.5 806.7 820.9 832 846.4 852.1 857.3 862.4 866.2 868.1 870.2 871.3 871.5 871.1 871.3 872.1 873 875 876.7 879.1 882.1 886.5 890 892.4 895.2 897.2 897.8 898.5 896.9 893.6 888.9 885.3 886.8 888.3 890.6 893.3 895.7 896.7 897.2 893.3 876.1 840.9 803.6 770.1 747 730
475.3 476 477.1 478.5 480.8 480.7 480.9 482.3 481.7 482.3 486.4 482.8 483.7 483 480.5 481.6 481.1 481.3 476 470.8 471.6 477.4 482.3 485.7 487.9 489.6 491 496.7 502.8 509 519.5 528.3 541.8 555.3 563.5 570.7 579.8 589.1 598.4 610.4 625.8 637.3 647.9 657.8 668 674.1 675.9 673.3 672.8 671 667.2 664.2 662.7 658.1 653.2 649.5 646.2 646.2 644.5 639.5 632.8 626.8 624.6 618 610.2 603.5 595.1 584.3 566.8 558.3 547.7 545.4 541.1 538.7 541.5 545.9 548.3 549.9 551.1 553.4 554.9 552.2 552.3 566.5 568.2 565.5 569.1 568.1 568.8 575.4 584.8 595.2 605.4 615.4 626 637.6 650.6 665.1 677.5 693.1 709.1 725.2 742.9 758.1 772 786.3 798.6 808.3 815.9 816.2 814.3 805.6 796.7 786.3 776.7 770.7 763.3 751.5 755.5 760 764.3 769.2 772.9 779.5 785 792.5 801.6 810.7 818.3 823.4 824.6 822.6 817.8 809.5 798 782.9 771.9 760.6 750.4 746.3 742.6 737.7 735.3 736.1 738.8 742.8 746 750.4 755.5 760.8 766.5 774.1 778.7 792.9 811.3 824.5 835.6 842.8 850.9 857.3 864 868.7 872.3 875 877.1 877.5 878.1 877.8 877.5 878.5 880.1 881.7 884.1 886.9 890.7 893.2 896.1 899.4 903.2 904.7 905.5 903.8 901.4 896.7 889.4 885.6 883.1 882.6 882.7 884.7 885.9 885.9 884 879.9 872.8 862.6 818.9 783.4 759.7 735.6
481.3 484.8 487.8 490.1 495.1 491.9 490.9 489.8 488.5 488.6 491.9 488.7 489.9 489.1 487 486.7 485.9 486.5 479.6 476.6 478.9 480.5 485 490 493 496.7 500.4 502 504 511 519.1 529.7 542.3 551.8 559.7 568.5 575.6 586 594.4 605.1 614.8 628.3 638.6 649.8 661.2 671.8 681.9 688.2 689.3 690.9 692.1 689.4 682.2 677 675.6 672.3 669.3 670.6 667.1 664.5 661.9 656.3 650.2 643.7 637.8 632 620.5 607.4 595.5 576.9 573.6 568.5 565 558.9 561 560.2 560.8 561.6 563.8 564.1 566.7 569.4 560.2 573.7 578.1 574.6 576 574.5 577.4 582.9 589.9 600.3 610 619.9 631.6 642.3 654 666.3 679.8 695.6 710.1 727.1 743.6 758.6 772 783.7 796 804.5 811.5 815.1 813.4 806.2 795.6 788.6 781.3 774.8 763.1 757.5 764.6 771.6 775.2 778.8 783.6 787.9 793.3 803.6 811.4 817 821 822.1 822.3 819.6 813.4 802.9 788.7 775.1 768.1 760.5 752.2 756.8 754.1 749 746.2 745 747.9 752.4 755.9 761.4 766.4 771.4 779.9 791.4 797 811.9 826.1 839.3 847.7 852.5 856.9 863.5 870.1 874.9 878.9 881.8 883.3 884.8 884.7 885.1 884.9 885.5 887.2 889.6 891.1 894.4 897.6 899.9 901.9 907.5 911 912.5 912.4 909.7 905.6 899 890.5 882.6 877.8 874.7 873.5 873 873.6 872.8 871.3 867.2 860.6 850 832.7 810.9 780.3 749.9
491.8 491.5 495.2 498.5 504.9 502.4 498.8 496.3 493.6 493.2 495.2 493.4 493.5 493.8 492.4 491.9 487.2 488.5 484.6 485 484.4 489 491.5 493.3 500 504.1 504.9 506.6 505.9 511 519.9 528 538 548.9 557.3 564.4 572.5 581.1 590.4 599.5 610.8 622.3 634.1 646 656 666 674.7 686.4 695.4 702.6 703.1 702.4 702.4 696.2 689 686.6 686.1 685.1 685.1 683.8 685.6 687.3 682.2 670.5 661.2 657.5 651.3 646.1 645.1 614.6 599.4 601 595.9 590.3 582.7 579.7 578 576.8 578.5 578.5 577.6 579.6 577.1 572.5 583.2 580.6 583.4 585.3 586.7 591.5 597.6 605.1 615.8 627.4 637.1 646.6 656 667.8 682.2 697.2 709.8 725.7 742.1 756.5 768.5 779 790 799.1 806.3 812.1 813.1 807.6 796.8 790.6 784.5 770.8 762.1 769.4 777.4 780.2 782 787.5 793.8 798.1 804.6 812.7 816.8 820.6 819.4 813.7 812.2 809.9 804.7 794 782.1 771.9 764.4 760.5 760.8 766.5 768.2 762.4 760.2 760.4 763 765.6 768.1 773.1 777.6 783.8 791.2 801.8 811.2 824.1 835.9 848.1 854.3 859.5 864.1 870.6 876.3 881.3 885.8 888.8 890.9 890.2 891.6 892 892.1 893 895.1 897.3 898.3 901.1 905 908.2 912.1 915.5 918.3 920 918.7 915 908.9 901.6 892.3 882.3 872 865.7 861.9 859.7 859.1 858.6 855.9 850.9 843.3 836.4 830.3 822.7 800.4 760.4
502.7 497.9 500.8 503.6 508.4 507.1 508.1 508.7 505.1 501.6 502.6 500.2 499.1 499 496.7 494.9 493.3 491 487 490.5 488.9 492.6 494.7 500.6 501.8 509 510.1 511.6 513.7 517.2 519.4 527.1 536.1 546.3 554.5 562.2 571.1 578.6 587.3 598.9 609.5 618.6 630.7 641.9 653 661.9 670.1 678.5 690.1 699.7 707 707.8 701.9 699.2 696.4 695.7 697.7 700.1 701.5 703.2 707 710.4 709.9 702.1 692.5 680.9 683.8 690.8 680.9 660.6 633.8 624.5 622 612.5 605.1 601.4 600.3 596.4 591 591.9 593.7 591.1 593.2 583.6 595 594.8 595 595.7 597 599.4 606.9 615.4 624.4 634.2 643.1 650.9 657.5 668.2 681.5 696.9 710 725 739.4 752 762 772.6 783.3 792 800.1 805.7 807.1 803.5 797.2 792 775.8 774.6 774.1 784.6 790.4 792.2 795 798.3 805.4 811.2 816.2 821.2 822 825.8 825.8 824.2 817.4 811.9 800.6 787.7 778.8 773.3 771.7 765.6 766.2 774.2 778.6 778.2 775.3 775.6 778.2 778.9 781.6 783.9 788 791.9 800.4 811.5 821.4 833.6 846.8 855.2 861.3 868.3 873.4 878.8 883.3 887.6 892.3 895.6 897.8 899.1 899.5 898.8 899.2 901 902.7 904.9 906.3 909.8 912.8 916.2 919.3 922.6 924.6 924.9 923 918.2 911 904.3 893.2 883.2 870.2 861.5 853.9 845.7 840.9 839.1 837.7 834.6 830.9 827.4 821.2 810.9 800.4 778.8
507.3 508.3 507.1 508.5 508.7 510.7 510 508.8 504.2 506.4 506 504.7 503.4 502 500.6 498.2 496.5 496.4 489.9 495.1 496.4 500.9 503.8 507 507.5 508.9 514.4 517.3 519.7 520.3 522.3 529.1 536.9 545.7 553.7 561.6 570.5 579.6 588.3 598.4 608.1 617.6 628.3 638 648.2 657.7 666.4 674.4 684.1 696.2 704.3 704.9 702.4 700.3 700.1 701.7 706.2 711.6 715.5 723.6 731.1 736.6 742.7 739.2 729.5 724.8 714.4 712.1 702 676.9 649.6 637.1 643.5 635.5 634.3 626.4 620.6 613.6 605 602.9 600.4 598.1 588.1 595.6 595.8 595.4 597.8 599.8 602.5 609 614.9 623.5 631.4 640 646.8 652.7 659.4 666.9 681 695.9 709.1 722.1 735.7 747.6 757.5 766.4 776.9 787.8 794.2 798.4 800.3 798 792.1 779.8 782.8 787.9 792.9 795.8 799.4 802.3 808.8 813.4 816.6 823.4 825.6 826.5 829.6 831.1 828.3 826.6 822.3 812.2 799 789.2 778.9 783.6 777.7 771.9 776.3 782.8 787.5 790.8 793.1 794.5 795.4 792.2 796.7 796.8 801.5 809.1 809.7 821.8 834.8 846.1 854.3 864.6 870.9 876.9 882.8 887.5 891 894 897.9 902.3 905.5 907.3 907.5 907.2 907.3 909.7 911 913 914.2 917.2 920 922.6 925.7 928.7 929.8 929.1 925.8 920.2 912.7 904.4 893.1 882.3 869.9 859.1 847.7 839 832.5 827 823 822.1 819.9 812 805.4 798 789.8 777.9
510.8 510 509 509.6 508.8 510.7 506.7 506.5 503.6 506.8 506.6 506.9 507.1 506.3 504.8 502.4 501.2 498.2 495.9 501.2 499.2 506.2 508.6 509.5 514.1 513.9 515.6 522.1 526 527.5 529.1 529.2 537.5 544.5 554.4 562.5 570.1 579.2 587.5 598.5 608.4 616.7 624.6 634 643.2 652.5 660.8 670.2 680.5 691.9 699.6 702.5 702.1 704.6 705.7 713.5 718.5 723.9 731.3 743.2 752.3 762.8 775.5 782.5 789.5 770.4 751.1 737.2 721.6 699 677.3 662.4 660.4 666 667 646.8 632.8 627.4 615.5 609.8 607 604 597.1 601.1 602.8 603.2 604.9 606.4 610.3 616 620.9 627.8 634.9 642.6 648.8 655 661.4 669 680.4 695.8 706.9 718.9 731.9 743.2 752.6 761.7 776.9 786.9 792 794.8 794.7 788.3 788.1 790.7 795.2 798.7 803.4 804 806.8 815.8 820.6 823.8 827.2 829.9 830.5 835.5 839.2 841.2 834.9 827.6 820.8 810.6 800.4 791.9 788.9 791.5 786.4 782.7 785.5 790.3 795.7 800 803.9 809 806.8 806.4 806.9 807.6 814.3 819.5 826.4 836.9 847 855.3 866.1 875 880.7 887 890.4 894.4 897 900.1 904.2 908.6 912.8 914.4 915.6 915.1 915.3 916.6 918.3 919.8 921.3 923.1 925.5 926.3 930.7 932.5 931.9 929.5 925.5 918.4 910.7 901.1 890.4 880.1 868.4 855.9 844.3 828.2 819.7 813.7 811.8 811.8 809.6 805.3 797.1 787.8 780 766.5
516.1 516.2 515.9 514.6 514 511 507.7 506.9 506.9 506.8 507.5 508.1 509 513 512.6 509.2 505.6 502.5 498.9 507.3 508.9 510.1 512.5 515.7 517.1 520.4 521.8 524.6 530.1 533.2 535.2 535.8 536.7 549.1 556.5 562.8 570.8 578 587.3 596.8 606.3 615 622.4 630.5 639.8 648.5 657.4 666 675.8 686.4 695.7 701 704.3 709.1 715.1 721.5 730.6 738.7 747.9 758.2 772.1 784.5 796.2 810.1 817.9 806.1 790.3 771.1 744.7 729 717.7 686.9 679.2 682.4 674.9 655.9 641.7 630.5 623.2 616.2 612.1 609.1 605.1 606.1 607.7 609.2 613.3 615 619 622.1 625.3 630.4 638 646.6 653.8 659.8 666.6 674.9 684.8 697.4 707.4 717.3 728 738.2 748.6 760.2 778.6 784.4 791.1 794.1 793.6 791.8 799.9 802 804.6 807.5 811.9 816.4 819.1 824.3 828.5 833.6 837.2 837.9 840.3 847.8 847 847.4 842.6 831.5 822.3 808.8 800.9 798.1 797.9 795.8 796.2 793.8 793.4 798.8 802.8 807 810.8 817.4 816.8 815.9 818.6 819.2 826.9 835 839.5 845 853.3 866.4 877.6 887.1 893 896.5 899.8 904.5 907 908.7 912 916.1 920 922.3 924.3 923.5 923 923 924.8 925.9 927.7 929.1 930.1 928.7 931.6 931.6 929.9 927 921.3 913 904.5 895.7 886 874.7 864.6 851.5 836.3 824.1 813.4 805.5 804 803.3 797.9 792.5 782.6 770.5 760.1 748.9
525 521.4 522.4 522 520.6 512.9 511.5 509.7 511.3 512.6 510 511.2 511.2 518.3 519.3 515.5 513.8 511.7 505.4 508.3 511.7 513.7 516.2 520.6 521.1 525.5 528.2 531.2 531.6 537.4 540.1 540.4 542.8 550 556.5 562.4 570.4 579.1 586.6 595.2 603.6 613.4 621.1 628.7 637.4 646.5 655.5 663.9 674.2 685 693.2 699.2 706 711.9 720.4 727.9 736.9 748.9 761.5 773.7 790.2 802 816.4 830.7 837.1 830.7 818.6 803.5 793.6 772.2 734.6 706.7 693.9 679.8 664.2 650.6 641 631.4 626.1 622 618.6 610.4 613.9 610.7 615 617.5 618.6 619.8 621.8 624.5 628.7 634.8 642.6 651 657.2 664 672 681.2 690 700.1 708.6 716.7 726 738.2 748.2 760.1 775.2 782.8 789.5 792.8 794.1 801.7 807.4 812.8 814.2 816.7 820.4 828.3 830.9 838.6 840.4 839.3 837.9 847.4 851 852.7 851.3 849.6 845.1 838.2 824.6 812.9 805.5 803.9 806.1 803.9 802.8 803.9 805.4 806.7 809.7 812.2 816.7 820.9 823.7 823.5 828.6 831.3 835.9 838.2 839.9 847.6 860 877 887.9 896.3 902 907.7 911.7 915.1 917.5 919.1 920.9 924.4 927.1 930.2 933.3 934.3 934.6 934.4 933.9 933.8 934.4 934.7 934 932 929 927.3 923.9 919.7 910.8 897.5 888.9 882 874.1 863.7 852.5 838.7 831.7 817.3 805.9 797.2 786.6 782.4 778.9 774.9 762.6 751.6 744.5 738.5
533.1 533.3 527.4 524.4 521.4 513.9 512.2 513.7 516.8 515.2 514.4 515.7 520.1 520.7 523.1 523.8 521.6 515.6 509.6 517.2 515.2 517.1 521.5 524.8 528.2 528.3 533.8 535.1 537.8 540 544.2 547.6 547 551.8 559.9 566.3 571.8 577.2 581.8 590.2 602.5 610.6 622 628.6 636.6 645.4 654.4 663 673.1 682.3 692.3 700 707.3 714.8 723.3 732.8 744.1 760.5 774.4 786.6 803.7 816.8 828.7 840.3 845.1 837.5 826.2 803.5 781.7 754.2 727.2 706.7 687.1 674 660.2 648.5 639.9 633.9 628.6 620.1 615.5 617.2 619 620 619.6 620.3 621.5 623 625.8 629 633 639.2 648.2 655.5 661.5 669.5 677.9 686.5 695.6 704.8 712.9 720 728.6 740 750.4 763.2 777.7 782.6 790.4 794 800.4 807.7 812.7 820.6 824.3 830.6 834.7 836.9 839.6 842.3 840.2 841.7 851.4 856.7 858 858 858.7 853.3 847.1 836.1 825.5 814.9 808.8 808.1 812.3 808.9 807.7 810.4 814.1 816.2 819.5 821.4 824.8 825.8 827.4 828.9 831.2 834.5 835.2 835.9 838.9 847 869.1 886.8 898.5 906.5 913.1 917.9 921.1 923.3 924.5 926.9 929.9 932.7 936.4 940.1 942.9 944.1 944.2 943.2 942.5 941.6 940 934.6 932.4 916.1 907.4 899.5 889.7 888.6 876 868.1 863.3 860.7 855.5 844.6 833.8 825.2 816.7 805.3 790.1 777.2 771.2 765.3 759.5 753.1 744.3 736.7 731.7 723.6
535.6 535.7 530 525.5 522 515.3 517.4 514.9 517.1 519.1 520.1 523.1 524.5 524.8 526.1 526.7 522.4 522.3 520.8 517.5 522.1 522.4 526.9 530.5 533.8 534.5 535.5 538.6 541.2 541 548.5 551.8 550.7 556.2 561.9 563.5 571.5 575.9 585.3 589.3 600.7 607.7 617.9 628.5 636.9 645.1 654.6 663.7 671.9 682.2 691.1 701 708.8 717.2 727 738 751.4 765.2 781.8 796.3 811 823.3 833.2 835.4 832.1 823.4 807 787.5 767.4 744.3 717.5 699.1 683.5 669.3 657.3 648.3 641 634 627.4 624.3 623.8 622.7 622.3 621.8 622.9 623.4 624.9 627.2 630.7 633.9 637.9 644.4 652.8 660.9 667.8 676.2 683.9 693.1 702.2 711.1 717.9 725 734.6 745 755.4 774.9 779.9 788.4 795.1 800.3 810.5 814.1 820.9 828.9 836.4 837.2 841.7 847.5 848.6 851.6 856.6 860 861.3 863.5 864.1 864.6 861.2 853.4 844.7 835.6 825 816.6 814 816.6 815.7 813.3 814.9 818.9 822.6 826.2 829.1 830.7 833.2 834.4 834.9 834.3 834.8 835.8 841.3 844.5 847.4 856.5 878.8 896.1 908.9 916.6 921.9 925.7 928.5 930.2 932.2 934.6 937.8 941.2 945.7 949.2 951.8 952.5 951.6 950.3 948.5 933.6 928.8 894.1 896.5 890.4 868.8 865.8 849 848.7 843.9 837.5 832.3 832 828.9 822.5 818 809.6 801 786.1 771.4 763.5 757.6 749 741 734.7 728.2 722 716.3 705.5
