ncols 200
nrows 82
xllcorner 360000
yllcorner 100500
cellsize 50
160.6 156.7 147.3 154.5 148.6 141.2 137.6 135.6 139.6 144.2 148.5 155.1 167.6 184.6 197.5 196.5 193.7 190.2 183.8 175 170.7 165.6 161 156.2 152.3 147.2 142.9 140.1 135.9 131.1 125.1 122.1 122.5 122.6 126.7 129 130.3 132.2 134.9 138.8 140.8 141 147.2 151.9 158.5 167 179.1 178.4 172.9 164.9 162.2 160.2 158.7 158.7 157.6 153.7 149.1 142.7 140.7 146.6 150.1 151.8 151.1 149.7 147.9 151.3 154.2 154.6 154.2 156.1 158.6 161.5 164.1 164.7 166.7 168.9 175.1 183.3 194 215.8 233.8 246.8 255 253 241 228.1 218.2 210.2 205.1 208.4 219.8 229.4 237.3 245.4 252.2 251.9 247.9 241.6 234.8 227.5 219.9 215.7 213.6 211.1 209 207.4 205 202.9 200.7 197.9 194.6 191.1 189.9 189.4 187.8 186.3 188.3 182.7 174.8 166.5 169 173.6 180.1 187.5 190.5 190.9 194.8 201.4 208.4 220.6 232.2 238.1 240.5 241.4 236.7 231.6 225.1 221.9 219.4 217.2 213.8 213 211.8 213.5 218.7 218.1 216.3 218.4 222.8 224.2 225.2 219.4 206.6 194.4 183.6 173.2 167 161.2 156.9 156.1 156.9 157.9 159 158.8 158.5 160.7 166.3 172.5 164.8 158.1 153.6 152.8 153.4 155.1 153.4 152.5 150.9 148 144.5 145 145.5 145.5 146.6 149.9 155.4 162.3 164.5 164.9 163.5 160.9 162.8 165.2 168.6 172.6 177.7 182.4 188.7 193.6 198.3 201.9
166.5 160.5 154.1 165.3 154.3 144.3 140.8 139.3 139.8 143.9 150 156.4 167.8 184.5 198.5 201.8 200.8 198.7 194.8 186.4 183 177.7 171.7 163.3 157.1 150.9 146.4 142.6 138.7 132.9 126.7 123.2 124.4 124.5 126.2 128.6 132.7 136.1 139.2 140.1 143.4 147.3 150.1 153.9 160.2 166.3 185.2 195.4 193.7 186.3 177 167.8 165.9 162.5 157.2 151.3 148.6 146.9 141.7 147.9 153.4 155 155.4 154.3 149.3 151.9 155.6 159.5 159.4 161.1 166.1 171.7 169.5 171.3 173.5 176 180.4 189.2 203.4 224.2 242.8 252.6 254.6 250 238.7 225.8 213 204.8 200.1 202.7 211.5 217.9 225.4 233.7 244.5 251 249.1 245.1 238.6 234 229.1 224.7 220.3 217.3 214.4 212.4 209.5 207.1 204.6 200.1 194.7 189.6 187.8 186.9 186.7 182.8 186.9 186.1 177.7 166 166.7 172.4 178.1 181.6 180.2 183.8 191.7 197.6 203.2 210.9 223.1 232.8 239.4 242.3 241.3 239.5 236.2 230.4 229.3 229.1 228.8 230.2 229.8 233.4 235.9 235.3 236.4 235.2 234.6 231 225.2 212.5 198.3 186.8 177.9 169.5 164.3 160.4 159.1 160.4 163.3 165.9 166.6 166 169 175.3 178.3 166.8 160.6 157.2 156.3 157.7 159.9 160.5 156.3 152.9 150.2 148.1 147.2 148.4 148.9 148.4 147.9 151 157.8 164.6 167.2 165.8 164.3 161.2 161.9 163.5 166.8 170.4 174.4 180.2 186.3 191.9 197.2 201.3
164.9 161.2 159.6 163.5 153.7 148.8 146.6 141.9 143.3 146.8 149.4 156.2 166.9 179.6 194.3 204.2 205.7 205.3 204.1 200.1 195.1 190.5 181.9 173.3 161.9 156.1 150.1 144.9 139.9 134.8 129.3 124.6 126.6 126.5 127 128.8 133 137.4 141.6 143.9 146.5 149.6 152 156.5 163 168.9 182.6 195 210.2 205.8 195.7 186.2 177.2 166.7 161.7 156.2 152.5 150.2 147.8 150.4 155.2 159 160.2 158.9 154.7 154.2 158.6 164.4 171.9 167 174.6 179.5 178.9 179.7 181.8 184.8 188.1 197.2 216.2 234 248.9 254.8 254.2 248.1 236.2 223.3 210 201.1 196 197.7 201.6 207.3 213.6 223.3 236 245.2 249.6 248.2 243.6 239 235 230.4 225.9 222.3 219.6 217.6 215.8 213.7 211.4 203.9 195.9 189.2 185.8 184.4 184.6 185.2 181.9 183.9 180.3 167.6 164.2 166.6 174.8 172.8 174.9 185.5 189.8 193.8 198.7 203.6 212.3 224.9 235.1 240.6 244.1 243.8 242.8 241.6 239.7 240 241.8 243.8 244.5 245.5 245.9 245.5 242.2 240.4 237 229.2 216.9 205.3 190.7 180.8 173.8 166.4 162.4 161.9 163.8 168 176.3 182.9 186 188.1 193.4 190.2 174.1 164 161.2 160.5 160.9 163.8 165.1 163.1 157.1 154.2 151.5 150 149.2 151.1 153.3 152.1 149.5 153.1 159.9 166.3 167.5 166.5 163.6 161.7 160.7 161.8 164.8 168.4 171.9 177.6 183.2 189.9 195.6 200
163.9 165.3 163.6 166.9 163.6 163 154.9 149.5 146.5 146.5 149.4 154.1 161.9 172.6 185.7 200.3 209.6 210.2 209.4 209.3 206.3 202.3 194.1 182.6 168.3 160.6 154.7 148.7 143.1 135.4 129.9 126.4 129 129.6 129.4 129.6 132.7 138.5 143 147 148.7 149.9 151.6 158.1 167.7 173.2 180.3 190.7 209.3 219.9 214.3 206.4 199.5 190.2 178 164.3 160.7 156.5 152.2 151.3 157.2 161.6 163.6 162.8 160.2 156.4 160.9 166.4 175.9 177 181.9 187.9 191.1 198.7 204.9 206.4 210.3 218.8 232 242.9 253.6 254.5 253.1 243 231.8 219.9 206.9 199.9 194.2 193.3 193.9 197.2 201.8 213.6 223.9 234 242.1 245.3 247.4 244.4 240.1 235.6 231.6 229.4 226.7 224.4 222.9 221.6 218.3 209.3 197.4 189.5 185 181.8 179.3 182.2 183.5 173.9 172.2 166.6 164.1 162.2 166.2 168.8 178.7 184.7 187.2 190.1 192.5 197.8 203.1 213.2 226.5 233.1 240.3 242.2 245.7 246.1 246.2 247.1 248 249.1 250 249.6 249.4 247.6 245.7 241.3 233.4 220.2 208.5 195.6 185.7 177 170.8 166.6 164.3 167.1 173.3 185.1 199.3 204.4 206.6 206.1 203.5 186.6 170.6 165.9 165.1 166 167.7 169.6 169.4 166.7 160.8 154.9 152.6 151.3 152.6 154.2 155.7 155.7 151.5 154.1 161.8 165.8 166.6 164.7 162.3 159.9 158.6 159.8 161.2 164.7 168.6 174.6 180.8 187.6 193.7 197.7
168.5 171 173.5 176.8 177.6 176 172.1 160.6 150.9 150 149.9 152.5 157.6 167.4 178.7 193.3 206.9 213.8 213.6 213.4 213.6 211.3 204.7 195.9 180.6 166.3 157.8 149.7 142.2 136.3 131.7 128.5 130.7 132 131.8 131.8 132.8 135.5 140.1 142.6 144.9 147.6 151.6 157.1 161.8 167.6 174.9 184.8 201.3 223.7 225.6 220 216.1 209.1 199.5 184.2 165.6 162.7 158.5 155.2 158.8 163.4 168.7 168.2 165.7 160.6 161.9 168 176.4 182.6 189.6 197.5 205.3 216 225.7 230.3 233.8 239.2 246.8 251.8 256.3 254.4 249.2 238.3 227 216.3 206.2 198.3 193.5 188.3 188.1 189.9 194.2 197.8 209.1 221.2 230 235.5 242.2 246.9 245.1 240.5 237.6 235.4 233.2 231.8 230.3 227.3 222.9 212.5 197.2 189.1 184.8 182.2 178.3 175 173.6 172.3 170.9 169.1 167 163 159.5 167.9 173.4 180 185 187 188.4 192.2 197.4 204.2 210.9 219.6 226.7 233.6 240.9 245.7 248.3 248.9 249.7 251 252 251.9 250.8 249.2 246 238.7 226.3 212.6 198.7 187.9 180.3 173.6 168.5 167 169.7 176.6 187 203.3 212 214.7 215.3 210.5 200.7 181.5 172.3 170.5 171.9 173.9 179.7 178.9 174.6 169.1 164.1 156.7 154.6 154.7 156.9 159.4 161 160.3 153.9 155.5 160.8 163.6 164.1 162.4 160.7 158 155.2 155.9 158 161.4 166.5 172.5 179.4 185.8 191.1 194.4
175.1 179.1 182.4 185.2 188.1 188.7 186 179 167.3 159.4 154.2 153.2 154.5 161.8 173 185.2 201 213.8 217.4 217.3 217.9 217.4 213.9 206.7 194.3 174.3 161.9 152.2 144 138.3 134.4 131.2 130.5 135 134.5 134.8 135.3 136 138.9 140.7 144.8 146.3 150.6 155.2 158.8 164.3 171.9 180.6 195 221.8 232.1 230.3 225.7 221.6 216 202.7 186.5 174.3 166.7 162.2 161.4 166.1 172.8 173.5 169.7 162.9 163 170.4 177.6 186.5 194.9 206.8 218.8 234.9 244 247 248.6 249.4 252.3 256.5 255.9 252.3 241.8 230.8 220.4 210.8 201.5 195.4 190.9 186.6 184.1 184.8 186.1 190.1 196.6 206.2 216.1 225 231.4 236.3 241.5 245 243.2 241 237.6 236 233.9 229.3 223.2 210.5 196.4 188.6 184 181.7 179.4 176.2 173.5 173.4 172.2 172.7 171 164.3 158.6 163.6 169.7 180.6 182 180.9 183.5 188.4 192.6 196 199.9 206.4 212.7 221.3 229.4 239.2 246.9 249.4 250.1 252.2 253.6 253.3 252.1 249.8 243.9 233.1 215.9 202.5 191.4 185.1 178.7 173.2 170.2 172.6 179.3 189.7 205.1 215.3 219.8 221.2 218.5 208.1 196.5 180.6 177.6 181.4 187.6 193.6 192.8 184.5 175.8 169.2 164.8 159.2 157.1 157.7 163.2 166.9 166.8 162.3 157 158 162.3 162.6 161.6 160.8 160.1 157.4 155.9 153.7 155 160.2 166 172.3 179 182.3 187.4 187.8
179.9 184.8 188.9 190.7 193.7 195.2 195 192.7 188.8 177.6 168.1 163 157.9 157.5 167.6 177.6 194.5 210.3 218.8 220.3 220.5 221.5 220.6 215.9 202.9 181.1 163.7 154 146.8 141.2 136.6 133.1 131.2 136.1 138.4 138.8 139.4 139.4 140.5 143.3 147.1 149.6 152.4 153.6 157.5 163.2 169.2 178.6 190.7 215.1 228.7 236.9 235.2 231.2 225.9 217.6 202.9 190.9 180.3 170.5 167.6 170.1 174 176 171.7 166.3 164.8 172.8 179.7 188.5 199.8 214 236.4 250.3 254.8 255.9 256.6 257.3 256.1 256.9 254.8 247.1 234.3 222.3 210.4 202.4 197.9 192.3 188.4 185.2 182.3 180.4 180.6 182.9 187.2 192.5 198.9 209.4 216.2 223.6 228.8 232.8 237 240.9 241.5 238.5 234.9 229 221.3 207.5 195.4 189.1 184.8 182.1 180 176.5 175.5 176.6 177.7 174.6 173.3 166.7 161.3 160.2 166.1 178.1 173.6 175.2 180.4 184.2 187.1 190 193.4 197.2 201 206.9 218.5 231.3 240.5 248.9 251.3 253.3 254.3 254 252.2 250.1 243.1 229.3 212.2 206.6 205.4 194.7 181.2 174.6 176.2 181.9 193.1 207.2 218 222.9 224.8 222 215.3 201.2 188.2 188.2 194 199.9 203.1 203.3 199.9 186.7 172.2 167.5 163.5 161.9 161.8 161.8 168.1 170 167.7 161.3 158.1 161.8 164.2 162.7 161.6 160.9 160.4 159.1 157 152.1 153.7 159.6 165.2 171 175.6 178.9 180.1 181
185.4 188.8 192.1 195.2 198.1 199.7 200.5 199.7 198.7 194.2 186.3 176.4 168.7 162.3 163.6 172.4 187.7 208.2 218.9 220.5 221.6 223.1 223 221.2 208.5 186.4 167.3 157.5 149.5 143.6 138.6 135 133.5 137.9 141 141.8 141.7 143.6 144.9 145.9 149.5 153.3 156.8 158.4 160.4 164.5 170.1 178.7 191 212.1 228.1 238.5 239.5 238.6 232.9 228 219.9 208.5 197.9 187.4 177.3 177 179.1 178.2 175.7 171.4 167.9 173.3 182 190.6 208.6 226.6 249.6 255.6 258.8 259.7 259.9 259.3 257.8 256.6 252.2 238.9 225.4 216.5 204.9 199.4 194.9 190.9 187.6 185.2 183.6 181.2 179.3 179 181.2 185.8 189.8 194.6 201.1 208.4 214 218.4 222.7 229 235.9 238.2 234.1 226.4 217.9 203.3 194.8 190.8 187.6 183.5 180.7 178.3 177.8 178.3 177 176.9 174 170.7 162.4 158.7 161.5 164.6 169.1 175.7 180.5 180.9 182.7 185.1 187.9 191 194.8 199.3 207.2 221 233.9 244.3 252.2 253.6 254.2 254.4 252.5 250.6 245.1 234.5 221.5 225.5 219.8 197.2 180.9 179.6 185.7 197.1 210.5 220.6 225 228.4 226.8 222.4 210.5 198 199.6 204.7 207.8 210.1 210 207.1 197.1 183.6 172.4 168.3 168.5 169.4 169.4 167.5 170.6 172.3 165.5 160.6 161.5 165.1 166.6 164.5 162.5 161.8 161.1 159.7 157.2 152.1 150.3 156.2 162.1 166.7 170.3 171.8 172.2 171.4
186.4 190.1 193.8 197.6 201 203 204.3 205.2 205 202.4 199.1 193.5 185 175.8 166 170.1 181.9 202.1 216.5 221.2 222.7 224.2 225.3 223.2 211.7 191 170.6 161.1 152.5 146.7 141.6 138.7 135.6 136.8 140.7 143.9 145.4 147.6 151.8 153 153.4 157.8 162.3 165.4 167.7 171.3 176.4 183.5 197.6 214.4 229.3 238.6 240.7 240.8 241.4 238.5 233.7 224.1 212.4 200.9 190.8 187.4 187 185.2 182.2 177.6 172.6 174.6 184.3 200.1 218.6 237.4 254.9 258.2 260.4 260.9 261 258.9 257.6 255.7 247.3 234.3 221.1 210.6 205 202 197.8 191.6 188.1 187.1 185.9 184.3 180.9 178.2 176.9 179.3 183.2 187 189.2 191.5 196.4 200.4 205.5 214.8 223.2 231.5 232.7 224.3 214.1 202.7 197.4 195 190.8 185.9 182.9 180.4 179.3 177.8 176.3 175.6 175.1 173.8 165.8 158.8 159 163.7 170.7 176.8 179 179.4 179.4 181.5 183.7 186.2 189.7 194.6 200.6 210.5 226.3 238.8 249.8 254.4 254.7 255.2 253.9 250.9 246.2 235.3 235.4 233.3 218.4 196.5 184.3 187.6 197.1 208.8 223.6 229.2 231.6 230.3 227.7 222.2 210 211.8 214 215.6 215 214.1 211.1 204.1 194 180.1 173.8 174.7 176.1 176.3 176.3 173.1 173.5 171.2 165.2 163.2 166.5 167.9 168.5 166.3 164 162.3 160.5 159.1 156 152 147.8 151.5 155.7 158.7 160.4 159.5 159 158.7
185.5 189.6 193.4 197.6 202 204.9 206.9 207.9 208.1 208.7 207.3 205.2 201.6 191 179.7 173.4 180.1 198 213.9 221.2 223.2 225.6 226.7 225.8 216.6 198.2 176 165.6 157.1 150.4 145.9 142.1 139 136.8 141.3 146.1 148.7 152.2 154.9 162.9 163.4 164.9 170.9 174.9 177.5 184.5 191 196.2 211.1 225.8 235.3 240.3 241.7 243.3 244 244 243.6 239.2 230 218.9 209.5 201.6 197.6 195.4 190.8 185.1 180.4 181.5 191.6 206.8 224.2 245.8 256.9 259.7 260.9 261.2 259.8 258.6 256.5 252.3 243.9 232 218.9 213 210.1 208.4 202.6 192.8 190.3 189.9 188.6 186.8 183.6 180.6 176.7 175.1 176.3 179.4 181.3 184.1 186.1 187.7 191.4 198.9 211.5 221.9 228 223.7 214.9 207.7 204.8 200.6 193.8 187.7 183.9 181.4 178.8 177.1 174.9 174.9 173.5 174 171.8 161.8 156.7 161.4 165.6 174.7 177.5 177.6 176.6 176.9 179.5 181.5 185.7 190.1 195.5 202.1 217.1 234.2 246.5 255.7 256 255.5 254.6 251.6 246.3 242.1 242.9 233.8 215.9 197.1 190.1 197.2 209.8 225 232.6 235.2 235.2 232.6 228.6 221.1 219.9 221.2 221.1 219.8 217.8 214.7 210.3 201.9 185.9 180.8 182.9 185.6 184.5 182.8 181.3 178.9 174.7 169 166.4 168.3 172.1 173.2 171.7 169.5 166.4 163.1 160.2 157.6 154 150.5 146 146.3 148.6 150.1 151.6 150.2 149.9 150.8
182.2 186.8 191.8 196.6 201.1 205.5 208.5 210.5 211.3 211.8 212.4 212.3 209.7 204.7 194.3 183.6 183.4 202.2 216 222 224.9 226.9 227.7 227.4 220.3 204.6 183.9 170.8 162.3 155.5 150 146.2 142 138.5 145.6 148.7 151.1 155.1 158.8 165.8 176.2 187.3 187.9 193.5 201.2 211.5 217.3 219.9 227.3 234 239.8 242.3 243.9 245.4 246.1 246.3 246.6 246.9 244.9 240.5 232.3 223.1 214.6 208.6 204.5 198.4 193.5 190.9 200.6 213.1 230.3 251.1 258.8 261.1 260.9 260.7 260.1 258.2 255 250.9 241.8 231.1 225.6 224.2 222 217.8 206.4 196.3 192.5 192.4 191.6 189.8 187.4 183.9 180.3 175.3 173.1 173 174.7 175.9 177.9 179.6 182.8 186.6 197.9 209.8 219.8 225.6 219.9 215.5 213.6 208.1 196.6 188.3 184.2 180.9 177.4 174.4 173.2 172.5 172.1 172.4 172.2 165.1 156.5 158.7 162.7 172 176.2 175.8 172.7 171 177.1 179.9 182.7 186.5 191.1 198 208.1 228.9 242.8 254.3 257.1 256.3 255.2 252.7 250.1 247.9 245.5 233.7 214.6 198.4 199.9 210.7 224.1 234.8 239.4 239.5 237.8 234.9 231.1 225.9 226.1 225.5 224.2 222.2 218.9 214.3 207.5 194.6 192 191 193.6 193.5 191 188.5 186.5 183.9 179.2 172.7 170.7 173.6 176.6 176.9 174.7 171.9 168.2 163.6 159.8 156.6 152.7 148.3 145.9 144.5 144.3 144.4 145 145.2 145.9 147.2
175.5 181.7 186.5 192.5 197.4 203 209.3 212.3 214.2 215 215.4 215.4 215.2 212.9 206.2 196.4 188.2 205.1 216.7 223.9 225.9 228 229.2 228.3 226.5 215.1 196.1 177.9 168.6 161.4 154.2 149.6 145.8 141.4 145.3 150 154.4 160.4 164.3 169.9 179.4 201.9 215 218.3 223.1 229.4 230.2 233.4 236.1 239.4 242 244.1 245.8 246.9 247.7 248.5 248.7 249.1 249 247.7 247.1 246 239 230.1 221.9 214.3 208.6 203.6 209.8 222.5 239.2 252.4 259.7 261.3 261.8 261.2 260 258.1 254.8 250.2 240.9 237.8 235.7 234.4 231.9 221.8 206.5 197.1 196.2 196.5 195.9 194.2 191.2 187.2 182.7 178 175 172.2 170.4 170 170.1 172.1 175.6 179.5 184.9 194.6 211.3 223.2 224.9 221.8 218.5 213.5 203 190 183.1 178.6 175.5 173 171.2 170.8 170 163.5 171.4 170.4 159.7 152.6 157.5 170 174.2 173.6 168.9 168.4 176.8 177.7 179.2 182.6 187.9 195.4 206.9 224.3 238.1 252.3 256.5 256.7 256 253.7 252.1 250.4 246.2 233.8 214.6 205.4 214.8 227.2 237.4 242.3 243.3 242.6 240.1 236.6 232.8 231.3 230.1 228.3 226.3 223.7 220.3 214.6 206.5 203.1 203 202.5 202.3 199.6 197.4 195.2 191.9 188.8 185.2 179.7 178.1 180.3 181 179.4 176.8 173.6 168.7 163.8 159.8 155.3 150.9 147.1 144.4 143.1 142.4 142.2 142.4 143.9 145.9 148
169 173.7 178.2 184.9 192.4 200.3 208.2 213.3 215.4 217.8 218 218.1 218.4 218.5 215.3 206.4 197.7 205.5 218.1 224.6 227.7 229.6 231.2 231.5 230.2 222.3 205.3 186.1 173.4 165.3 158.1 152.1 148.6 143.4 144.5 147.8 154.3 162.4 166 173.2 183.4 206.4 224.6 233.7 235.4 236.7 237.2 237.3 239.4 241.8 243.8 245.5 246.8 247.9 248.8 249.7 250.2 250.6 251.2 251.6 251.3 250.3 250.6 249.7 246.9 237.9 228.2 219.6 219 232.4 247.9 256.2 261.3 261.8 262.7 263.1 261.2 258.9 256.1 253.4 249.9 247.4 245.1 242.2 234.9 217.5 206.9 202.2 201.4 201.3 200.9 198.7 195.5 190 185.4 182.9 180.6 176.5 173.2 170.3 168.8 167.6 168.7 173 178.7 185 202.7 215.5 227.2 226.8 222.8 217.6 208.6 194.3 185.1 179 176 173.3 171.5 169.3 167.7 165.5 170.9 169.8 166.1 155.7 153.8 160.4 166 168.3 164.2 169.9 175.2 175.1 177.2 181.3 186.6 192.6 203.5 221.9 238.2 250 255.9 256.6 256.1 255 252.9 251 246.8 233.6 215.7 224 232.9 240.9 244.4 246.2 245.8 244.6 242.1 239.3 236.5 235.1 232.8 230.4 228.3 225 221.8 217.7 214.9 213.3 211.7 210 207.8 205.6 203.1 200.9 197.8 194.5 189.8 184.1 185 185.5 184.8 182.5 179 174.6 170.1 164.1 159.5 154.9 150.4 146.7 144.4 142.8 141.4 141 142 145.3 147.6 150.7
165.8 168.2 171.9 176.9 187.2 195.7 203.6 212.4 216.7 218.9 220.3 220.9 221.1 221.4 220.7 216.3 208.2 204.6 217.8 225.5 229.3 231.3 233.1 233.9 232.9 228.7 210.8 192.6 176.7 168 161.7 154.4 150.1 145.9 147.1 149.5 153.3 159.5 166.5 173.4 181.9 204.9 221.8 233.7 236.8 238 239.5 240.2 242 243.6 245 246 247 248.2 249.1 250.1 251.2 252.1 252.3 253.1 253.5 254 254.4 254.6 254 251.8 246.1 237.2 230.8 240.3 254.4 260.3 262.7 262.9 263.8 263.8 262.8 260.9 258.8 256.1 253.7 250.9 248.6 242.4 231.7 217.3 206.7 210.1 209.8 208.4 206.5 203.4 199.9 195.5 190.8 188.8 186.3 182.5 178.8 175.6 170.7 168.5 165.6 167.2 173.1 180 190.7 206.2 218.8 229.3 226.5 220.7 213.1 200.7 187.6 180.1 176.5 173.6 171.3 169.6 167.7 164.9 160.7 168.8 169.4 162.1 152.1 154.3 158.5 160.6 161.2 169.9 173.6 172.4 176 179.8 183.2 188.6 200.7 221.6 237.7 249.2 255.9 256.1 256 254.8 253.1 250.3 245.7 232.9 232.3 239.4 244.7 247.6 248.6 248.5 247.8 246.4 244.4 242.4 240.1 237.3 235 232.5 229.6 226.5 224 221.1 218.8 217.8 215.7 212.8 210.9 208.8 206 204.5 202.5 199.6 195 191.2 191 190 188.7 185.7 181.4 176.7 171.5 165.1 160.3 156.3 152.8 149.4 145.7 143.2 141.1 140.4 142.8 146.7 151.2 154.8
166.3 168 170.4 173.1 179.7 189.8 199.4 206.1 216 220 221.5 223.2 224.1 224.4 223.7 222 219.1 215.4 221.9 227.5 230.3 233 234.8 236.2 235 232 217.4 198.4 180.7 170.5 163.8 156.5 149 149.5 152.4 153 154.5 159.2 165.8 173.7 183.7 203.2 221.7 234.9 237.1 238.8 240.4 242.2 243.6 244.1 245.1 246.1 247.1 247.8 248.5 249.4 251.2 252.7 253.4 253.9 254.9 255.5 256.1 256.7 256 257.1 256.6 253.2 248.2 248.6 256.3 261 263.2 264 264.4 264.6 263.4 262.1 260.3 257.6 254.9 251.9 249.1 244.3 229.8 215.8 217.7 219.4 216.5 213.7 211.4 208.5 204.5 201 197.3 194.3 190.2 185.6 181.6 177.3 172.7 168.1 164.1 164.3 168.2 175.2 183.4 194.9 208.7 220.8 228.3 222.2 214.2 203.8 189.5 182.2 178 174.1 171.3 169.7 167.1 165.7 160.6 166.7 167.9 168.1 158 150.7 153.8 157.8 162.8 168.7 169 170.1 174 176.8 180.3 186.8 197 216.4 233.3 245.2 254.3 256.1 255.6 254.5 253.5 250.4 246.8 244.2 244.1 247.8 249.9 250.5 250.7 250.1 249 247.6 245.2 243.5 241.1 238.7 236.2 233.7 230.8 228.3 225.7 222.9 219.5 216.9 215.4 213.8 211.4 209.7 207.6 206.4 204.4 202.5 199.7 196.8 195.4 194 192.2 188.5 183.8 178.9 173.1 167 162.4 158.9 155.9 152.8 149 145.7 141.8 139.9 143 147.4 153.1 156.8
167.9 170 175.3 177.6 176.1 182.4 192.5 201.7 209.7 219.7 222.2 224.3 226.4 227 226.6 225.1 224.2 224.3 226.7 229.5 231.8 234.5 236.5 238 237.5 235.1 225.4 204.2 183.5 173.4 164.4 155.9 152 153.9 156.8 162.8 164.4 163.1 168 175 188.8 206.5 224 235.5 238 239.8 242.3 243.2 243.6 244.1 244.7 245.7 245.8 246.5 247.8 249.2 251.3 252.6 253.7 254.7 255.6 256.7 257.4 258 258.1 258.8 259.1 258.6 257.4 256.4 259.7 262 263.4 264.4 264.9 264.8 263.8 262.5 260.2 257.9 254.9 250 245.5 235.7 228.1 228.1 230 228.3 225.1 221.2 217.1 213.2 208.6 205.9 201.4 196.5 190.2 183.4 179.3 172 169.1 165.5 162.9 162 165.1 170.3 177.6 183.4 196.8 210.7 221 222.7 214.8 206.4 194.6 185.8 181.5 177.3 172 167.7 165.1 163.3 159.3 162.7 167.2 166.3 152.7 150.4 152.8 154.9 158.4 162.2 163.8 166.5 169.7 174.5 179.2 186 194.7 209.1 223.4 238.4 250.2 255.5 255.9 255.2 254.4 253.6 252.2 251.3 250.7 252.1 252.6 252.3 251.8 251 249 247.3 245.4 243.7 241.4 238.9 236.3 234 230.4 226.9 221.7 215.9 213.2 210.7 208.8 207.3 206.7 206.3 204.4 204.5 203.4 200.9 198.6 198.8 197.4 195.8 194 190.9 185.9 180.8 175.5 169.6 164.6 160.8 157.6 155.1 152.3 148.1 143.7 139.5 141.2 145.5 151.5 156.8
171.2 173.6 180.2 184.2 182.5 178.5 185 196 204.8 215.3 222 224.4 226.4 228 229.1 228.5 227.7 228.9 230.3 232.6 234.5 236.4 237.9 239.3 239.3 237.9 230.6 208.3 186.6 175 165.5 155.9 155.3 159.3 163.1 168.3 176.9 171.1 173.1 181.4 198.6 216.9 230.6 236.2 238.8 241.3 242.8 243 243.6 244.1 244.6 244.6 244.1 244.6 247.2 249.2 251.3 252.6 253.8 255 255.9 257 257.4 257.9 258.7 259.4 259.8 260.3 259.5 259.6 261.6 262.4 263.4 264.5 265 264.8 264.1 262.5 260.8 258.9 254.5 249.7 244.7 242.6 240.8 240.1 238.9 236.9 233.4 229.2 224.3 219 214 208.6 201.8 192 183.2 176.5 173 169.8 167.4 165 163.5 161.2 162.5 166.2 170.2 175.3 182.2 197.1 211.4 219.8 214.7 208 200.1 191.7 184.7 179.1 173.9 169.7 165.5 162.9 157.5 158 163.2 154.9 148.6 151.5 156.1 160 161 163 165.7 168.5 171.6 175.2 180.2 186.4 193.3 203.3 216.9 231.7 247.8 255.5 256.6 257.7 257 257.2 256.6 255.8 255.3 254.8 254.4 253.6 252.7 250.8 248.4 245.8 244 242.1 240.1 237.2 234.8 231.2 226.7 221.6 213.7 206.1 201.8 197.7 195.3 194.4 193.8 192.7 194.2 196.5 197.9 197.9 198 198.1 196.9 195.7 194.2 191.4 187.3 182.1 176.8 172 167.2 163.5 159.8 156.6 153.9 149.2 143.7 138.9 138.9 142.5 147.9 151.7
175.1 178.7 186.2 190.3 190.4 184.7 181.3 187.5 196.5 208.1 217.2 223.2 226.2 228.3 230.1 231.2 232 232.8 233.5 234.9 236.8 238.6 239.5 240.5 240.2 240.1 233.8 212.1 190.5 175.2 165.8 158.7 160 165.4 171.2 177.1 195.2 193.7 185.4 192.1 209.5 225.7 234.7 237.4 239.7 241.4 242.8 242.4 242.5 239.3 241.2 237.8 235.5 243.2 246.4 248.2 250.1 251.5 252.7 254.1 255 256 256 256.6 257.8 259 259.4 260.3 261.2 261.2 262.4 263.1 263.9 264.5 264.9 265 264.5 262.8 261.1 259.4 257.4 253.2 250.8 248.4 246.6 245.8 244.2 242.1 238.8 235.2 230.2 224 217.1 208.1 200.9 185 177 173.3 171.6 170.2 170 168.7 165.1 162.6 159.8 160.2 163.9 168.9 174.3 184.3 200.3 212.3 215.8 209.4 203.2 195.6 186.7 180.4 174.5 170.3 166.2 162.6 157.7 154.7 160.1 151.3 148.8 153.1 158 162.5 165.8 168.5 170.6 172.4 174.2 176.7 181.9 188 192.8 199.4 211.7 227.5 242.4 251.4 256.4 258.3 259.4 259.4 259.7 258.7 257.3 256.8 255.3 253.8 252.7 249.8 246.9 243.3 240.8 236.9 232.5 228.6 225.3 222.9 217.9 209.6 203.2 190 183.1 179.7 177.9 176.7 176.4 178 180.4 184.4 187.4 190.4 192.1 195.2 194.9 194.1 192.6 190.6 187.6 183.2 178 172.8 168.5 164.6 160.8 157.5 153 148 143 138.1 138.8 142.3 147 149.6
180.3 185.2 192.4 196.7 198.3 194.4 189.2 186.4 189.8 198.4 209.5 217.2 221 227.1 229.7 231.3 233 234.4 235.1 236.5 238.4 240.3 240.9 241.4 241.1 241.1 235.1 215.2 194.5 176.7 166.4 161.6 165.4 171.4 178.2 190.9 207 214.5 204.6 209.7 222 232.9 236.3 238 240 241.4 242.1 241.2 236.7 233.3 227.8 223.1 228 236.7 241.4 244 247.3 249.5 251.4 252.2 252.5 253.5 254.7 255.5 256.8 258.2 259.1 260 261 262.3 262.8 263.5 264.2 264.7 264.9 264.9 264.6 263.5 261.8 260.4 258.9 255.9 253 250.7 249 247.8 246.6 244.8 242 237.6 231.8 224.9 215.2 202.7 188.8 180.1 175.6 173.6 173.6 173.5 173.5 171.6 168 163.7 160.6 158.1 159.4 163.3 168.2 174.8 186.9 202.5 213.9 211.1 205.2 197.8 186.1 177.6 171.1 167.3 163.9 162 158.1 154.6 152.5 149.7 148.5 153.8 159.2 163.6 165.6 168.9 171.9 172.8 174.6 179 183.1 186.9 190.8 195.7 202 217.2 232 246.9 254.9 258.3 260.1 261.3 260.7 259.8 258.6 257.1 255.6 253.9 252.2 249 245 240.1 235.3 227.7 220.7 214.3 211.8 208.9 204 197.3 186.1 175.6 172.1 169.7 168.9 168.3 168.5 169.3 169.8 172.4 177.3 182.5 187.8 191 191.1 190 188.6 187.6 185.7 183 178.8 173.6 169.7 165.8 161.4 157.4 152.4 146.2 140.1 138 141 148.2 153.8 156.8
188.7 192.2 199.7 203.4 205.1 203.1 199.2 195.9 190.5 192.3 197.7 207.6 213.1 220.4 226.7 230.9 233.2 235 236.4 238.1 239.9 240.9 241.4 241.6 242 242.2 239 220 197.7 179.1 168.9 166.4 172.1 178.6 189.4 205.2 226.1 230.2 221 225.9 232.7 236.1 238 238.9 240 240.9 236.9 233.5 227.3 219.5 215.1 212.1 218.1 224.9 230 232.1 236.6 241.1 246.2 249.5 250.2 251.2 253.4 254.6 255.6 256.7 259 260.3 261.5 262.7 263.3 264 264.5 264.7 264.8 264.8 264.5 264.1 262.6 261 258.3 255.5 252.6 250.9 249.1 247.9 246.5 244.7 240.5 234.5 227.5 219.9 206.4 190.9 183.2 179.3 177.7 177.3 178.3 177.8 176.4 173.1 169.1 165.4 162.1 159.4 156.8 158.7 163.3 169.6 176.7 192.8 207.4 211.4 206 197.6 185.7 173.2 168 163.8 160.3 159.1 158.4 154.5 152 148 148.7 157.2 161.4 162.9 163.9 165.6 167.6 167.9 170 173.7 178.1 182 185.1 189.5 196.1 206.8 222.5 241 252 257.5 260.1 261.2 261 259.9 258.4 256.6 254.9 253.2 251.4 246.9 242.7 236.4 227.2 217.1 207.5 200.8 196.8 192.9 189.3 182.7 174.8 172 167.7 164.4 162.8 162.8 163.2 163.5 164 165.9 169.7 177 183.4 186.1 185.3 185.4 184.3 183 182.1 179.5 176.8 173.9 169.7 165.3 161.1 157.1 151.3 143.3 137.7 137.2 143.7 151.5 158.7 162.8
196.4 201.5 206.8 210.4 211.5 210.1 207.9 205.3 202.8 198.8 196.5 197.1 203 211.4 218.4 225.3 231.2 234.4 236.8 238.4 240 240.7 241.1 241.6 241.8 242.4 240 221.8 200.6 181.3 171.2 173.5 179.5 189.4 210 226.5 234 234.8 231.9 233 235.9 237.2 239 239.7 239.2 234.9 230 219.7 214.4 208.5 203.3 198.9 207.4 211.7 217.1 220.7 225.8 230.4 232.8 240.1 243.4 245 247.8 251.1 254.6 257.6 259.2 260.6 261.9 262.5 263.1 263.7 264.1 264.6 264.7 264.6 264.4 264 263 260.3 257.6 254.8 252 249.9 247.8 246.2 244.4 239 233.3 227.7 220.4 208.2 196.2 186.6 184.6 184 183.5 183.1 183.3 181.7 179.7 174.5 170.6 168.3 165.5 161.1 157.1 155.7 158.1 163.8 171.1 180.5 200.9 210.4 207.5 199.7 191.1 176.4 167.4 162.6 158.9 157 156.1 155.8 151.1 146 149.1 159.7 160.5 161.3 161.5 162.5 163.4 164.6 166.2 167.6 170.7 174.4 178.6 185.1 192.8 204.4 222 240.8 252 257.6 259.7 260.7 260.5 259.1 257.3 255 253.9 252.1 250.3 247 242.4 235.8 231.2 223.7 216.7 208.4 198.4 190.4 184.1 181.6 178.1 173.7 167.2 163.3 160.2 159.5 159.6 159.5 160.5 163.3 167.7 175.8 179.2 181.2 178.8 179.2 178.4 177.2 175.9 175.1 173.7 171.5 168.7 164.9 160.5 156.4 149 141.8 136 138.6 146.4 153.6 160.6 164.8
203.3 208.5 212.5 214.7 216.3 216.3 215.3 213.5 211.7 210.3 208.2 208.9 209 206.9 212.3 217.5 224.2 230.8 235.1 237.3 239.3 240.4 240.8 241.2 241.7 241.7 239.5 223.9 202.5 184.8 176.2 182 192.2 209.1 226.9 234.2 236.9 237.4 236.5 236.5 237.9 238.9 239.9 239.5 234.9 226.9 218.3 210.4 202.1 195.2 194 198.2 201.3 201.9 206.1 209.3 213 218 224.2 231.4 239.9 244.9 250 253.5 256 257.9 259.5 261 261.7 262.3 262.8 263.1 263.4 264.2 264.6 264.3 263.8 263.3 262.4 259.7 256.5 252.6 248.7 246.3 243.6 240.7 234.6 226.6 221.7 213 205.3 197.3 192.3 191.5 191.4 190.7 190.4 189.5 188.7 186.5 182.9 178 175.4 172.7 168.9 164.3 159.8 155 154.3 158.3 164.6 170.7 192.5 206.5 209.9 202.1 193.6 183.8 169.3 163.6 158.5 155.4 153.8 151.5 149.8 145.7 150.6 159.3 159.3 158.6 160.4 160.7 161.3 161.7 162.8 164.2 167 171.7 177.7 184.2 194.3 207.9 225 242.3 252.4 256.1 259 259.9 258.9 256.1 254.5 252.7 251.6 250.3 248.6 246.7 244.4 241.2 237 231.1 224.1 216 208.6 201.3 194.7 189.7 180.8 172.8 165.9 161.6 158.4 157.3 157.5 157.4 157.9 162 167.7 172 173 172.1 170.1 168.8 167.8 166.6 163.9 163.3 166.8 167.7 166 162.1 158.3 155.1 148.2 140.6 135.4 139.6 148.2 155.1 159.6 162
208.8 212.4 216 218.3 219.5 219.5 219.9 220.4 220.1 218.6 218.1 218.4 219.3 217.2 221.6 224.2 224.5 226.7 229.1 235 236.9 239.7 240.6 241.1 241.5 240.5 237.9 223.1 201.6 185 186.9 198.7 213.5 227.9 234 237.5 238.8 238.5 238.8 238.9 239 239.7 237.3 235.4 227.1 217.7 207.5 198.5 190.5 191.9 199.9 206.5 212.7 216.5 219.5 224.2 227.4 227.4 231.8 240.8 246.1 249.9 252.4 254.9 256.8 258.4 259.9 260.7 261.2 261.3 261.2 262.2 262.8 263.3 263.7 263.5 263.1 262.5 261.8 259.2 255.4 252.3 248 244 239 234.5 230.6 222 217.2 210.7 207.8 204.2 205.1 204.5 203.6 200.8 199.2 196.8 194.6 191.1 187.1 183.1 179.6 175.8 171.8 167.4 162.4 157.2 153.6 154.4 159.5 167.9 187.5 201.8 211.6 204.7 195.5 187.4 172.8 162.6 157.6 154.5 152.5 148.8 147.2 143.4 157.2 156.5 156.6 157.4 158.3 158.8 159.1 159.4 160.6 163 166.3 171.5 176.7 185 195.5 210.1 229.6 245.8 253 256.4 257.7 258.6 257 253.6 250.8 248.5 246.4 244.1 243.7 243 241.8 241.1 239.4 235.7 230.5 223.8 217.1 209.1 202.5 195.6 184.8 175.4 167 160.8 157.1 155.5 155.9 155.5 156.2 158.4 161.7 163.9 161.9 161.4 156.6 156.7 150.3 147.5 144.1 143.8 148 153.6 157.5 157 154.3 151.2 146 138.9 134.5 140 148 154.4 157.2 157.1
211.9 215 218 219.8 221.2 222.4 222.7 223.9 224.4 224.8 224.1 225 226.1 226.3 228.3 230.4 231.8 232.8 233.9 233.8 236.5 239 240 241.1 240.5 237.6 233.3 218.1 204.2 200.2 200.1 216.8 229.7 234.3 237.6 238.9 239.9 239.6 239.3 239.9 239.7 235.4 233.8 227.5 218.1 206.2 194.7 186.9 193 201.1 208.4 215.5 223.7 227.8 232.2 234.8 236.8 237.7 236.8 242 247 250.2 252.9 254.9 256.8 258.3 259.1 259.7 259.9 259.9 258.5 259.5 260.5 261.3 262.1 262.2 262.3 261.8 261.2 259.7 257.2 254 251.8 248 245.7 243.4 240.9 236.3 231 225.9 222.3 219.9 217.5 215.2 213.1 210.4 207.1 203 198.7 195.3 191.6 187.7 182.7 178.5 174.6 169.7 164.5 159.3 154.4 151.7 157.7 168.5 185.2 199.6 210.2 206.8 197.9 189.8 177.8 164 157.2 153.8 151.1 147.7 143.7 146.2 155.4 155.5 154.9 155.8 157.4 158 158.2 156.4 159.1 161.3 164.8 170 175.3 183.9 196.3 216.4 237.9 248.9 252.8 255.9 256.5 256.9 255.5 252.7 245.9 241.8 235.5 232.2 230.4 236.1 236.4 237.5 236.2 235.4 233.3 228.6 223.2 215 208.1 201.9 195.4 185.9 170.2 161.7 157 154.2 153.9 153.1 155.1 156.6 156.1 154.6 151.9 148.6 145.1 142.8 141 139 138.7 137.1 137.6 141.9 145.3 146.4 146.1 145.2 142.1 135.6 133.4 139.1 144.8 151.6 152 150.1
212.8 217.2 219.6 221.2 222.6 223.9 224.8 225.9 227.2 228.2 228.7 229 229.2 229 230.8 233.1 234.5 235.9 236.9 237.2 237.4 238.7 240.5 241.9 241.2 237.5 234.5 231.8 228.6 223.1 212.4 228 235.2 238.2 240.3 241.1 240.7 240.2 240 239.7 238.7 234.7 228.4 219.2 209.9 194.7 182.6 189 197.4 206.9 215.2 224.2 230.9 236.6 239.8 241 242.3 243.3 243.5 243.3 247.3 250.3 252.3 254.3 256.1 257.3 258 257.9 257.7 257.7 256.6 256.6 256.9 257.8 260.1 260.5 260.6 260.5 259.9 259.1 258.1 255.3 253.1 250.9 248.7 246.5 243.8 240.9 239.2 236.9 233.6 230.6 227.2 223.3 220.2 216.9 213.9 209.5 203.6 199.1 195.4 191 186 181.1 176.6 171.2 165.7 160.9 155.6 151.1 156 168 185 201 212.7 210.1 200.8 190.8 180.6 167.1 158.3 153.5 150 146.8 143.5 147.9 154.4 152.4 154.6 155.7 156.3 156 156.1 152.4 155.7 159.4 163 167.7 172.9 190.4 210.4 227.9 241.5 248.5 251.9 254.6 255.2 255.5 254.4 251.7 246 239 227.9 219.9 215.3 219.4 223.5 228.5 229 230.4 231 230.2 227.1 221.3 214.3 207.5 202.1 192.6 179.5 164 157.6 153.8 151.9 151.2 153.9 154.8 151 146.4 144.4 143.8 142.6 141.9 141.6 142.3 141 139.4 136.9 136 136.2 136.9 136.7 136.7 135.4 132.1 131.8 136 141.5 146.1 147.1 144.2
215.6 217.7 219.6 222.3 224.3 225.1 225.9 227.2 228.7 229.6 230.2 231.1 232.1 232.3 233.1 235.3 236.9 238 239.1 239.6 239.9 239.4 240.8 242.1 241.6 240.3 239.9 239.3 237.2 233.6 225.4 233.6 238 240.6 241.3 241.4 240.8 240.3 240 239.3 237.4 232.9 222.3 212.3 197.9 180.6 184.6 194.5 201.2 209.7 218.9 229.7 236.1 239.7 241.7 243.7 244.9 246.1 247 247 247.7 250.6 251.8 253.2 255.3 255.4 256 255.1 254.8 255.2 252.6 251.3 253 254.3 257.1 258.5 258.8 258.4 258.2 258.4 258.1 256.7 254.6 252.5 250.3 247.8 245.3 242.8 241.1 238.9 235.8 232.9 230.6 228.8 225.9 221.6 218.6 214.1 208.9 203.2 196.4 190.8 185.6 180.8 177.1 172.1 165.5 161 155.8 150.7 156.8 168.4 186.2 202.8 216.2 211.9 201.4 191.4 181.6 169.5 159.8 155.1 152.5 148.4 143.6 144.4 149.8 149 152.4 154.2 153.1 150.5 149.2 151.5 155.1 158.9 162.4 167 173 183.3 199.2 220.2 235.6 243.9 249.3 252.8 253.7 254.1 253.3 252.1 248.8 243.6 234.5 223.6 209.8 201.8 203.9 211.9 218.2 222.7 224.3 224.8 225.7 223.8 220 213.2 205.2 196.2 186 166.7 158.6 153.9 151 150.2 150.7 149.3 147.7 145.9 146.8 148.7 147.7 147 148.4 148.9 147.2 145.3 140.5 137.7 135.3 134.1 133.1 132.2 131.4 130.2 130.4 131.3 137 140 139.6 138
216.4 219.2 221.8 222.8 224.3 225.4 227.6 228.5 229.7 230.8 231.5 232.3 233.7 235.3 235.3 237.3 238.5 239.7 240.8 241.3 241.6 241.4 241.5 242.4 242.5 242.4 241.8 240.6 239.5 237.7 234.4 234.6 239.8 241.4 241.3 241.4 241 240.4 239.5 236 231.5 225.9 215.6 203.2 186.7 178.3 186.6 197.5 205.7 214.6 224.6 232.4 237.6 240.8 243.2 245.2 247 248.2 249.4 249.8 249.9 250.3 251.5 252.6 254 253.9 254 252.6 252 248 241.5 240.5 244.1 247.5 251.2 254.4 256.1 257.4 257.5 257.7 257.4 256.2 254.2 252.2 250.5 247.9 244.9 241.5 238.4 233.1 227.6 224 224.1 220.1 218.8 218.2 217.1 215.2 209.6 203 194.8 189.1 184 176.5 170.8 169.1 161 157 152.4 149.5 157.4 167.7 188.6 206.3 216 211.8 202 191.9 182.5 174.1 166.9 159.9 156 151.8 146.3 142.6 142.4 141.6 147.1 148.3 145 145.8 148.9 153.8 157.5 160.3 163.6 168 174 181.4 192.7 208.2 229.2 238.6 245.7 251 253 253.2 252.4 251.4 248.8 244.2 235.4 225.9 216.6 205.6 194.7 193.2 201.7 207.4 213 215.5 217.3 217.3 216.1 212 204.7 195.9 185.8 165.6 158.2 153.9 151.1 148.7 147.3 147.9 148.1 150.7 154.2 156.3 156.4 155.6 156.5 154.9 153.8 149.8 145 141.4 139.2 137.1 134.9 133.4 132.2 131.7 130 129.2 131.2 133.1 132.8 133.1
217.3 219.8 221 222.8 224.1 225.8 227.2 228.7 230 230.9 232.3 233.7 234.7 236.3 237.9 238.7 240 241.4 242.5 242.9 243.2 243 242.9 243 243.5 243.6 242.9 242.2 241.1 239.6 239.3 239.3 240.5 242.1 242.1 241.8 240.2 239.5 236.3 228.7 224.1 215.6 207.3 194 179.3 175.9 186.6 198.6 207.7 216.7 227.4 234.4 238.6 241 243.5 245.7 247.1 248.6 249.1 249.3 249.5 250 251.1 252.2 252.4 252.1 251.3 248.8 244.2 236.2 228.5 229 233.4 236 239.9 245.5 252.5 255.6 256.6 257 256.7 255.5 253.5 251.5 248.6 245.5 242.1 233.5 225.8 218.7 207.6 206.4 204.1 204.1 205.3 203.5 206 207 202.9 196.4 189.8 181.9 170 163.9 162.2 159.2 156.2 153.2 148.8 148.9 155.6 166.5 190.1 208.8 215.6 211.3 202.5 194.6 187.4 181.3 174.8 166.8 159.8 154.8 151.2 147 143.7 140.4 140.9 140.7 145.2 150.2 152.6 155.4 158.7 162 166 169.5 174.2 180.9 189.1 201.2 220.2 232.9 240.8 246.7 251.6 252.6 251.6 250.3 247.8 241.8 233.2 223.9 215 204.7 191.2 183.2 184.9 189.5 194.4 199.6 205.3 207.2 206.6 203.8 199.8 191.8 177.9 163.2 157.4 153.6 150.7 148.3 149.6 152.7 153.7 157.2 161.2 163.1 163.4 163.3 163.7 162.9 160 156 151.9 147.8 144.5 142.2 140.5 137.8 136 133.8 131.6 129.8 128.9 129.8 128.4 128.9
217.3 218.9 220.4 222.3 223.7 225.1 226.6 228.1 230.3 230.4 232 233.6 235.8 237.3 238.8 240 241.4 242.8 243.9 244.5 244.8 244.7 244.1 243.8 244 244 243.2 242.8 242.5 241.7 241.2 241.4 241.6 243.2 243.1 242.4 240.4 238.2 232.7 223 213.1 206.2 195.9 184.8 177.4 173.4 183.1 197 207.2 216.9 226.2 233.2 237.3 240.3 242.3 243.9 245.8 247.2 248.5 248.9 249 249.6 250.7 251.6 250.9 250.1 248.4 242.5 234.2 222.8 214.5 217.1 221.3 224.2 228.3 238.1 249.9 254.6 255.6 256.1 255.6 254.1 252.9 251.2 247.5 242.4 237.6 232 222 216.6 201.4 194.6 188.9 189 189.2 189.9 190.5 194.1 193 186.5 174.1 165.2 161.4 158.1 156.9 155.7 153.4 150.5 147.3 148.1 153.4 166 190.8 207.4 214.5 211.4 203.2 195.8 190.1 183.1 178.1 172.6 166 161.7 158.2 152.2 149 146.3 140 140.3 150.1 152.4 154 156.9 160.8 164.6 168.6 171.9 176.1 181.9 189 199.4 215.5 229.9 239.1 245.8 249.9 251.4 250.6 249.1 246.4 240.2 231.3 221.5 208.7 197 186.4 181.3 178.2 176.2 178.5 182.9 187.8 193.1 196 195.7 190 181.3 167.8 161.3 156.7 153.2 150.4 149.8 152.9 156.2 159 161.5 165.6 168.9 170.7 170 169.6 168.4 165.7 162.4 158.7 154.6 150.5 147.3 144.9 141.4 139 137.9 136.6 132.7 129.8 128.7 127.3 127.3
215.8 217.9 219.8 221.8 223.3 224.3 225 225.6 228.5 230.3 232.1 233.7 235.8 237.6 239.3 241 242.2 243.5 244.8 245.3 245.9 245.8 245 244.8 244.6 244.1 243.4 242.9 242.9 243.1 242.9 243 243 243.8 243.8 243.2 241.1 238.7 233.5 217.9 203.2 195.4 186 181.7 176.2 172.1 177.9 192.7 204.2 214.3 222.3 230.3 234.8 238.2 240.1 241.7 243.2 245.4 246.8 248.4 248.6 249.3 250.3 250.6 249.7 248 244.5 234.5 222.7 209.7 203.4 205.6 206.5 210.1 221.8 238.5 249 253.4 254.6 255.4 255.6 254.1 252.6 251.3 247.9 244.6 242.9 239.8 235.8 228.5 218.2 205.5 190.6 179.9 175.4 174.2 173.8 176.7 178.4 169.2 162.9 158.7 156.1 154.5 153.8 153.5 152.6 149.9 145.5 146.8 150.9 159.7 176.8 190.5 199.9 205.6 202.5 195.7 190.6 185.1 179.3 175.3 170.9 166.4 161.1 156.5 154.9 150.2 142.9 139.4 148.3 151.4 155.1 158.9 162.7 165.6 168.5 171.7 175.7 182.3 190.5 202.5 218 229.3 237.7 244.8 248.8 249.7 248.7 246.9 244.5 238.5 227.4 213.2 200.4 189.1 188 188 186 180 174.9 172.4 173.3 177.1 181.7 181.8 177 171 165 159.8 156 153 150.8 151.3 155.5 159.8 163 165.8 171.3 176.4 179.2 179.9 178.7 175.2 171.1 167.8 164.5 160 156.4 153.3 149.4 144.9 142.7 141.6 140 137.3 132.5 129.4 127.4 126.5
210 211.2 211.8 213.8 214.6 215.4 217.4 223.3 227.3 230.4 231.8 233.8 235.7 237.5 239.3 241 242.5 243.4 244.8 246.3 246.9 246.7 246 245.3 244.6 242.7 242.3 242.3 242.3 242.9 243.3 243.6 243.7 244.2 244.1 243.7 241.8 239.6 235.8 226.9 215 204.5 198.2 189.2 179 171.3 172 183.5 197 206.8 214.5 218.9 225.5 230.8 235.4 238.7 240.7 242.9 245 246.8 248.2 249 249.3 249.3 247 245 236.7 226.3 210.8 201 195.2 196.4 199.2 206.7 221.1 240.3 247.9 253 253.9 254.8 255.6 254.1 253.1 251.9 250.3 247.8 245 241.9 238.9 234.7 227.2 213.2 203.7 187.7 172.3 168.2 166.2 164.9 164.1 161.4 157.6 155.5 153.8 152.6 152.3 152.2 151.1 148.1 144 144.8 148.6 152.3 158.9 170.4 180.7 187.4 192 184.4 183.3 184.5 180.2 175.4 171.7 167.4 162.9 157.5 154.5 151.3 144.2 138.8 147 148.3 150.3 154.7 158.8 162.6 165.1 166.4 170.7 177.4 188.1 201.5 219.6 230.4 238.9 245 246.9 248.1 246.8 244.8 242.4 235.5 221.5 206.1 197.6 200.8 201.7 200.5 197.1 189.7 182.1 173.8 168.4 168 169.1 168.9 169.3 165.6 161.8 158.8 156 153.3 151.8 152.5 158.1 162.7 166.5 171.8 178.9 183.6 186 187 186.2 181.7 177.5 173.3 168.9 165.1 161.7 158.5 154.7 150.5 146.8 145.1 141.9 138.7 134.2 130.8 127 125.9
201.1 199.5 201.3 203.6 205.4 206.4 211.9 217.3 225.5 228.3 231.9 233.1 235.1 237.1 239.2 240.9 242.6 243.4 244.9 246.4 247.8 248.2 249.8 246.4 245.6 243.1 239.8 239.5 240 240.8 242.1 242.6 243.2 243.7 243.8 243.4 242.6 240.5 237.3 233.4 224.1 215.3 207.8 196.2 181.6 172.3 169 172.5 184.3 196.2 202.5 205.9 211.2 218.8 225.2 232.5 238.4 241.3 244 245.7 247 247.4 247.6 247 244.3 239.5 228.8 214.6 201.7 192.9 187 189.8 196.9 210.7 228.2 240.7 247.8 252.4 253.9 254.5 255 254.4 253.3 252.1 250.8 248.5 246 242.8 239.9 235.7 227.8 214.7 201.5 179.6 169.2 165.4 162.7 161 159.4 157.7 156.9 154.9 153.1 151.8 151.4 150 148.2 147.1 145.2 143.3 144.8 148.1 153.6 158.2 163.1 166.6 170.6 170 172.3 176.7 175.7 175.2 171.2 166.9 162.2 156.2 152.2 148.9 143.2 137.2 143.3 145.7 146.9 149.2 152.2 154.2 157.7 160.7 165.2 171.9 186.9 204.8 222.4 231.1 239.5 245.4 246.9 247.4 246.4 244.3 238.4 229.5 215.3 205.8 207.5 212.1 211.5 208.6 202.3 196.4 187.9 178.7 169.3 165.2 163.8 163.6 162.6 161.2 159.8 157.6 155.7 154.2 153.4 153.8 160.6 165.1 171.4 178.3 185.3 189.8 192.7 193.5 192.2 187.4 182.9 178.2 173.6 169.8 166.7 163.4 159.8 155.1 150.3 147.4 143.4 139 134.7 130.1 126.3 126.3
188.2 185.9 189.2 192.2 194.3 197 207 213.4 219.3 225.5 229.5 232.1 233.9 235.7 236.8 240.5 241.5 243.4 245 246.6 248.1 250.4 248.5 247.8 246.5 244.3 241.2 238.1 234.8 237.1 238.7 240.8 241.2 242.6 243.1 242.9 242.1 241.3 238.8 235.5 231.4 222.1 214.4 203 190.7 177.8 168.7 166.7 171.9 180.6 187.8 191.5 199.1 207 215.2 226.3 234.7 238.7 242.5 244.2 245.5 246.2 246.2 245.1 240 232.1 219.9 204.9 192.5 183.2 184.6 194.3 205.5 218.2 231.4 241.9 248.3 251.7 253.1 254.3 254.1 253.5 252.7 251.4 249.8 248.4 245.7 241.4 237 230.4 221.7 205.7 189.2 173.9 167.4 166.2 165 162.9 161.1 159.6 158.7 157 155.4 154 150.9 147.4 146.8 145.9 144.8 144 142.5 143.9 147.6 150.1 153.1 154.3 153.6 154.5 159.7 164.8 170.4 173.1 170.5 166.5 162 155.5 151.2 147.7 142.8 139.5 139.4 142.4 143.6 145 147.1 149.6 152.9 157.6 163.2 169.9 187.9 205.4 223.6 231.6 240 245.3 246.8 246.7 246 243.3 237 226.1 218.1 217.5 219.5 219.4 217.9 214.2 209 201.1 192.6 183.5 171.7 164.4 162.6 161.4 159.7 159 157.7 156.4 154.8 153.6 153.4 155.8 162.4 167.5 178.1 184.9 190.7 195.3 197.9 198.4 197.1 193.9 189.5 185 179.7 175.7 171.7 168 163.3 158.8 153.2 147.8 143.3 138.4 133.6 129.9 126.1 125.7
175.3 174.6 176.1 179 183.3 189.7 198.6 206.1 212.4 217.1 223.7 229 231.8 233.5 234.9 238.6 241.3 243.6 245.2 246.4 247.5 248.5 249.5 248.4 247.2 245 242.7 240.1 235.8 227.9 231 234.3 237.6 241.4 241.8 242.2 241.7 241.1 239.2 237.4 234.6 228.8 220 207.9 195.9 182.1 170.5 165.8 165.5 169.2 174 179.1 189.2 202.8 214.1 225.1 233.1 237.7 240.1 241.9 243.6 244.5 244 240.7 232.3 225.1 210.1 196.5 183.5 179.5 188 201.9 214.4 225.6 234.4 242.8 247.5 251.4 252.8 253.5 253.4 253.1 251.5 249.2 247.6 241.1 237 231.9 227.7 220.1 208.5 194.2 181.1 172.4 168.8 170.7 169.9 166.6 163.9 163.2 161.7 159.8 157.4 154.5 151.5 149.9 148.8 147.2 145.9 144.8 142.4 141.3 141.7 143 145.3 146.5 146 146.9 149.5 151.4 157.8 170.3 169.5 165.5 161.6 156 150.7 147.9 145.2 140.5 138 140.5 141.9 143.2 145.4 148.5 152.5 157.6 164.7 176.2 191.2 214.6 226.4 234.6 241 245.4 246.8 246.4 246 243.8 239.4 233.7 230.7 230.4 229.9 228.1 225.5 221.1 214.7 205.6 196.5 185.8 171.6 164.8 162 160.4 158.6 157.4 156.6 155.6 154.6 153.3 154.4 158.4 164.2 175.5 184.8 190.4 195.3 199.4 201.2 201.3 200.3 198.1 194.9 190.6 185.9 181.6 176.4 171.5 166.5 161 155.1 149.3 143.6 138.3 132.7 128.8 124.7 126.2
172.4 177.5 183.2 187.9 187.4 187.5 189.3 196.1 203.4 209.5 215 221.3 225.9 232.2 233.9 236.8 239.9 242.5 245 246.3 247.6 248.9 250.7 248.6 247.1 245 242.5 240.2 238.7 232.9 224.6 221.1 227.5 233.6 239.5 240.9 241.2 240.7 239.5 237.6 235.1 231.3 223.9 214.4 200.5 187.5 174.4 167.8 164.1 163.4 167 172.4 185.4 200.2 209.6 221.5 230.5 235.5 238 239.6 240.9 242 239.2 235.3 227.3 216.6 202.4 188.8 176.1 179.9 191.9 206.7 220.3 229.5 238 244.4 248.5 251.5 253.2 252.8 252.9 251.8 249.3 246 239.3 231 225.9 220.9 215.9 205.8 194.9 182.7 175.6 171.3 174.8 175.8 173 169 166.6 166 163.1 159.5 157.1 154.5 152.7 152.9 152.5 150.7 149 147 145.2 143.5 141.1 139.9 139.5 140.8 141.9 140.7 142.2 145.3 151.2 163.6 167.4 164.8 161.4 156.8 152 149.3 147.2 142.1 137.9 138.1 140 142.4 145.4 149.5 153.9 159.9 167.6 184.3 206.2 221.4 229.6 237.3 242.3 245.8 246.9 246.8 246.5 246.1 243 239.3 238.8 238 237.1 234.8 231.4 226.3 217.8 208 196.2 183.9 170 166.1 163 161.7 159.4 157.8 156.8 156 155.5 156.8 158.5 164.2 177.6 185.3 190.3 194.9 198.6 201.2 202 202 201.2 199.8 197.3 194.2 190.5 185.7 179.7 174.4 168.9 163 157.1 151.2 145.3 139.4 133.5 128.4 124.6 128.7
179.5 186.2 192.7 197.4 200.4 199.7 199.1 200.7 200.9 203.2 208.2 211.2 217 225.4 233.2 235.4 238.9 242.7 244.5 245.7 246.9 248.1 250.3 248 246.4 244.2 242 239.8 238.9 235.9 228.1 215.1 212.6 222.1 231.6 238.6 239.9 240.2 239.3 237.6 235.3 232 226.5 216.4 203 189.5 177 170 165.6 160.9 162.8 168.2 180.6 193.9 203.6 215.4 225.2 230.2 234.4 236.5 237.1 238.6 237.5 230.9 221.4 210.3 194.5 180.8 174 178.6 194 212 223 231.5 239.7 245.7 248.6 251.4 252.6 253 252.8 252.1 249.7 243.2 233.3 222 208.8 201.9 196.5 191.7 185.2 178.9 176.9 178.1 180.4 180.3 176.8 173.3 170.7 168.8 164.8 161.3 158.5 155.9 155 155.6 155.3 153.9 152.8 151.5 149.5 147.7 144.9 141.9 140.4 138.8 137.8 137.5 137.6 140.2 145.8 155.7 163.3 164.5 160.4 156.6 152.9 148.9 146 141.2 136.1 137.3 140 142.9 146.1 150.7 155.6 163 178.4 195 217.6 226.3 233.4 239.4 243.7 246.1 247 247.3 246.9 246.5 245 243.9 242.9 242.1 240.7 238.2 234.4 228.1 219.4 206.2 190.4 178.5 171.4 168 166.3 165 163 161.7 160.5 160.1 161.3 162.5 169.3 182.8 189 190.9 194.4 197.4 199.2 200.2 200.5 200.6 200.4 199.4 197.2 195 191.8 187.4 181.3 176.4 170.3 163.8 157.9 152 145.8 139.9 133.8 128 124.3 127.6
186.5 192.6 197.5 201.2 205.2 208 209 211 212.2 213.3 217.3 220.8 224 227.8 231.6 235.6 238.4 241.8 244.5 245.7 246.9 247 247.5 249.3 244.8 243.4 241.7 239.5 238.5 236.3 230.6 217.1 203.3 211.1 221.2 232.6 238.4 238.9 238.9 237.2 234.8 231 226.5 217.6 204.8 191 183 177.5 169.3 162.5 159.9 164.6 174.1 187.5 198.4 207.6 214.7 218.8 224.8 230.4 233.3 235.1 233.7 225.7 216.5 203.7 189.6 176 172 179.3 199.1 214.7 224 231.6 238.2 245.3 248.9 250.9 252.5 253.4 253.2 252.4 250.7 246.8 243.8 236.3 219.8 206.9 195.5 189.1 186.6 186.6 188.1 189.8 190.9 188.6 185.8 180.1 179.6 175.3 171.3 165.1 161.5 158.9 157.9 158.4 157.9 156.4 155 153.2 151.4 150.7 149.2 146.7 143.3 142 139.6 137.7 137.5 137.5 140.9 148.6 157.5 161.8 160.7 156.4 152 147.4 144.3 140.1 135.7 138 141 143.8 147.3 151.9 158.6 169.7 188.5 209.5 222.4 230.3 237 241.8 244.9 246.5 247.4 247.4 247.1 246.9 246.6 245.5 244.4 243.5 242.6 239.9 236.2 229.8 222.3 209.6 195.6 181.9 176.1 173.8 172.4 171.3 170.3 169 167.6 167.7 170.4 176 188.4 193.2 193.2 194.8 195.9 197.1 197.1 197.1 197.3 197.3 197.5 197.1 196.2 194.2 191.2 187.1 182.3 177.1 172 165.5 159 152.6 146.3 139.9 133.7 128.4 123.3 124.7
187.4 194.6 198.4 200 201.2 206.4 209.1 212.7 216.4 218.5 221.8 224.2 227 230.2 233.1 234.9 237.9 240.9 243.6 245.8 245.9 248.2 246.1 247.5 242.7 241.4 240 239.1 238 235.6 230 216.2 201.4 202.2 211.6 224.8 236.8 237.6 237.9 236.7 233.5 230.7 227.3 219.4 209.7 198 188.5 181.7 172.1 163.6 158.2 162.3 170.3 181 190.2 197.9 202.5 205.4 210.8 219.4 228.3 231.4 228.8 222 212.2 199.3 184.3 171.9 170.6 179.3 202.2 214 222.3 228.9 235.5 241.6 247.7 250 252.1 253.4 252.9 252.1 251.3 249.6 246 243.5 236 225.2 212.7 204.7 200.6 200.6 201.7 201.8 200.3 198.2 195.3 193.1 191.1 189.1 184 175.9 166.8 163.1 160.8 161.2 160.5 158.9 156.4 153.2 149.7 149.3 150.6 148.3 147.3 144.7 142 139.9 138.7 137.5 137.6 142.8 151.8 158.1 157.5 155.6 151.1 146.4 141.7 136.2 136.1 138.7 141.5 144.8 148.8 154.4 160.7 182.3 202.9 217.5 226.7 233.6 238.9 242 245.1 247 247.4 247.2 247 246.7 246.2 245.7 245 244.2 243.1 240.6 237.7 232.9 224.5 215.1 199.4 187.9 185 183.3 184.4 185.5 185.4 183.9 181.8 183.4 188.7 193.3 196.3 196.8 196.5 196.1 194.3 194 193.2 192 191.8 192.4 192.9 193.8 193.4 192.2 189.2 185.3 180.5 176 171.3 165.7 159 152.4 146.1 139.5 132.5 128.2 123.1 123.6
181 189.5 193.3 193.2 192.6 197.3 200.5 204.1 209.6 216.6 221.4 225 227.8 230.7 233.9 236 238 241.1 243.2 244.9 246.2 248 245.6 242.9 240.7 239.4 238 237.8 237 232.4 226.7 211.7 198 195.6 208 219.3 233.1 236.1 236.1 235.8 233.6 231 227.6 222.9 214.3 206.5 195.1 184.9 173.3 162.4 157.6 159.3 163.8 171 179.5 183.9 185 189.9 198 211.5 222.9 226.5 224.5 217.8 207.7 196.5 181.6 169.7 168.1 179.1 191.1 203.5 214.3 222 230.7 236.2 244.3 248.8 251.3 252.4 253.6 252.7 251.9 250.8 248.8 245.9 241.9 237.2 230.5 225.8 221.9 219.2 215.9 214.1 212.1 208.7 206.1 204.4 202.1 198.9 194.9 187.9 179.4 168.3 164.9 164 162.7 160.6 156.1 150.5 148.1 148.4 150.3 149.4 149.1 146.9 145.3 143.5 141.1 137.6 137.5 137.2 145.5 152.3 154.1 154.3 150.3 145.5 139.5 134.9 137.6 140 142.2 146 150.7 156.7 167.5 190.3 207.8 221 230 236.1 240.1 242 244.7 246.5 247.1 246.9 246.6 246.4 245.9 245.4 245 244.2 243.3 241.5 238.7 235.4 228.7 219.4 209 203.5 204.7 204.8 205.5 206.7 206 203.3 201.7 200.9 201.6 202.4 201.8 199.5 196.9 193.1 190.4 187.2 185.7 185.4 184.6 185.9 187.1 188.4 188.1 187.4 185.9 182.3 178.1 173.9 169.2 164.1 158 152.2 145.6 139.1 133.2 127.2 122 125.2
171.7 176.8 181.2 182 182.4 185.3 189.9 196.2 201.1 209.4 217.2 223.5 227.2 230.5 233.8 236.5 238.4 241.2 243.6 244.8 245.6 245.8 246.1 239.2 236.2 236.1 236.1 235.2 232.2 225.8 217.3 204.1 190.9 193.2 202.7 214.4 226.8 234.2 235 233.9 232.6 230.4 228.1 224.1 219.5 211.9 202.1 191.5 179.4 164.6 157.6 156.5 157.2 159.5 163.6 165.6 168.8 179.8 191.8 205.9 216.7 221.9 219.7 213.8 203.8 191.8 178 167.6 165.3 168.7 175.7 184.3 197.3 211.4 221.3 230.8 241.5 247.5 250.5 251.6 252.8 253.4 252.5 251.4 250 247.7 244.8 241.3 237.3 234.6 230.9 227.7 224.9 222.5 220.9 218.9 217.1 214.8 211.4 207.5 202.3 195.7 187.5 178 170.2 167.6 164.1 159.4 153.2 148.1 145.9 146.5 147.5 147.3 147.8 149.4 147.1 145.6 142.9 138.9 135.6 136.4 141 147.1 152.5 152.7 149.1 143.3 136.5 133.8 140.5 141.2 144.1 147.6 152.8 159.4 170.8 189.8 211.5 224.2 232.2 237.6 240.7 242.6 244.6 245.3 245.1 244.8 244.7 244.9 244.6 244.5 243.3 242.9 243.1 241.6 239.7 236.4 232.6 226.5 219.4 219 218.2 218.3 218.3 217.5 216.8 215.6 212.2 210.4 208.5 206.2 204.8 202 198.9 194.8 189.6 184.9 179.6 175.1 174 175.6 179.6 181.6 182.8 182.8 181.8 178.3 174 169.5 165.4 159.5 154.4 149.1 144.5 139.2 133.6 126.7 121.4 126.7
161.3 165.1 168.3 171.4 172.6 176.1 182.1 189.3 193.2 202.1 210 219.2 224.8 228.7 232.9 236.5 238.6 241.1 243.4 244.3 244.6 245.5 246 238.2 231.4 226.8 228.5 227.1 222.4 217.2 209.7 198.8 185.4 187.1 196.8 207.5 218 225.6 231.1 231.6 231.1 230.2 228.6 225.1 221.5 216 208.3 198.3 185.6 170.2 160.1 155.7 154.1 153.5 154.6 157.7 161.8 171.1 186.7 199.5 210.6 216.5 214.1 207.7 197.3 186.4 173.7 166.5 163.4 166.4 171.2 176.7 182 197.3 211.2 226.9 241.7 246.8 249.7 251.1 252.2 252.7 251.9 250.9 249.9 247.7 245 242.2 240.1 237.6 235.8 234.5 232.1 230 228 226 224.3 221.7 218.8 214.7 208.1 200.3 191.5 181.8 174.2 167.9 160.7 154.6 149.6 145.2 144.5 143.7 143.9 144.4 145.8 148.4 149.3 146.9 143.6 138.1 132.5 136.4 140.7 146.9 151.6 150.6 146.2 139.1 134.7 134.7 140.8 142.4 145.8 149.3 154.5 162 174.2 193.2 213.2 226.2 233.3 238 241 242.8 243.6 243.6 242.4 242.5 242.1 242.6 242.7 243.2 243.1 242.6 241.6 241.2 239.8 238.1 235.7 232 228.3 228.7 228.7 227.1 226.6 225.5 223.4 220.4 217.6 214.6 211.9 209.4 206.7 203.9 200.8 197.2 192.8 188.5 183.4 176.6 168.1 162.5 166.3 173.9 176.3 177.8 177.1 173.5 169.4 165.2 159.9 153.7 147.9 142.7 140.3 136.7 132.5 125.3 120.5 125.6
159.6 161.1 163 165.3 168.3 172.6 182.9 193.7 200.9 206.5 211.8 217.3 222.4 228 231.6 235.3 239.2 241 242.8 244.2 244.5 245.4 246 237.6 233.1 222.3 216.5 215.3 213.2 209 201.2 192.2 181.9 182.2 187.8 196.1 206.6 215.4 222.7 227.4 229.4 228.9 227.7 225.5 222.9 219.2 212.7 202.8 195.2 180.9 165.5 158.4 155.7 152.8 151.5 152.3 156.5 161 177.7 192.7 203.4 210 207.6 200.5 190.2 178.9 168.4 163.5 162.2 166 171.8 177.7 184.1 195.5 208.2 224.5 240.1 246.3 248.8 249.9 251 251.7 251 250.6 249.5 247.5 244.8 242.1 239.5 237.1 236.2 235 234.1 232.8 231 228.9 226.7 223.8 221 217.3 211.6 203 193.9 184.8 178.1 164.7 155.6 147.8 146.5 143.4 142.2 142.2 141.9 142.3 143.6 145.6 147.5 146.7 143.1 136.6 132.1 135.3 143.6 149.7 152.6 149.7 144.6 137.3 132 135.9 141.1 143.9 147.4 150.8 156.6 164.9 179.7 201.4 218.7 227.8 234.4 237.9 240.9 241.9 242.7 241.6 240.3 236.8 235.9 236.9 238.7 239.8 240.7 240.8 240.1 239.9 239.3 238.8 236.9 234.7 234.1 234.5 234.1 231.6 230.8 228.7 226.7 223.4 220.2 216.6 213.4 210.4 207.2 203.9 200.5 197.1 194.5 190.1 185.2 179.5 173.8 164.2 154.3 158.3 168.4 171.3 172 168.8 164.2 158.8 151.3 145 139.6 136.5 135.5 133.9 128.7 123.1 120.6 122
161.6 162.6 163.5 164.4 166.5 170 179.2 192.7 202 209.2 216.3 221.4 225.4 228.9 232.9 236.7 239.6 241 242.7 244.1 244.3 244.6 246 238.8 234 227 215.5 206.6 199.7 194.7 192.4 185 180.6 178.8 178.9 186.6 195.6 203.1 211.1 219.4 224.5 227.2 226.1 224.8 222.7 219.6 215.6 206.7 197.8 187.7 174.1 162.9 157.9 153.1 151 149.8 151.8 156 165.7 183.5 195.5 201.1 198.8 192.1 182 171.7 164 160.4 162.5 168.2 176.2 185.3 196.1 205.7 217.3 230.8 241.6 246 247.8 248.8 249.9 250.3 250 249.1 248.2 246.4 243.4 239.7 237 233.4 232.8 231.6 230.4 229.6 229.1 227.5 225.8 224.2 220.6 217.1 211.8 203.1 193.5 183.5 163.7 151.9 147.1 143.9 142.1 141.5 140.4 138.7 139.3 140.3 141.3 142.3 143.7 143.9 142.6 136.1 132 136.1 145.8 150.5 152.7 148.2 142.9 136.9 131.6 137.8 140.9 143.5 146.2 151.5 157.8 168 183.3 206.7 222.6 230.1 235.6 238.6 240.3 241.4 241.4 239.4 234.6 227.8 224 224.3 227.3 232.4 234.4 234.8 236.4 237.3 237.8 238.1 238.9 237.7 237.6 236.9 236.1 235 233.5 231 227.9 224.6 221.1 216.9 212.7 208.2 204.6 201.1 198.3 194.9 191.7 189 184.4 179.6 174.2 168.1 156.6 150.5 155.6 166.1 166.5 163.6 159.8 151.7 143.6 139.1 134.8 130.4 129.5 128.3 125.9 121.1 120.1 120.1
163.5 164.9 166.5 168.3 169 169.9 175.7 186.2 197.5 206.4 215.5 222.3 226.1 230 233.1 235.8 239.2 240.4 242.8 244.7 244 244.5 247.5 238.6 235.5 230.5 225.2 217 207.2 197.3 188 186.2 181.7 179.4 176.5 175.7 183.8 191.8 199.9 207.5 215.4 221.5 223.5 223 221.5 219.5 215.7 209.8 200 191.5 179.7 166.1 158.8 153.5 150.5 148.8 148.7 151.9 157 171.4 184.1 189 187.8 180.9 169.7 162.9 159.5 159.9 164.4 172.5 184.4 196.8 207.4 218.8 229 237 242.3 245.5 247.1 247.8 248.3 248.6 248.2 247.7 247.2 245.4 242.9 238.7 230.7 223.6 220 217.6 217.4 217.5 218.9 220.7 221.5 220.7 218.5 213.9 209 198.6 189.7 167.9 154.2 147.4 144 143.3 142.9 141.1 140.4 138.9 137.2 138.3 139.4 139.8 140.5 141.7 142.8 135.8 130.3 137.7 145 148.7 152 149 141.4 135.2 131.8 136.6 139 141.4 146.3 151.7 158.1 171.8 193.7 213.8 224.9 231.4 235.9 237.6 239.2 240.3 239.9 235.8 226.8 212.4 205.4 203.7 207 213.4 220.2 223.7 229.3 232.2 234.5 236.9 237.9 239.1 239.2 238.4 237.6 236.2 234.5 231.3 228.1 223.8 219.3 214.4 209 204.1 199.9 195.7 192.6 189.5 187 184.5 181.7 177.4 172 166.2 158.5 148.9 145.3 153.3 156.7 156.9 152.5 146.9 140 135.6 132 127.6 124.8 123.4 123.1 121.2 118.8 119.9
164.3 167.7 171.7 174.4 176.3 174.5 173 179.6 191.1 200.9 210.6 220.1 225.8 230 233.1 236 239.2 240.6 241.3 244 244.4 244.5 246 238.3 235.4 231.5 226.9 220.5 209.2 200.3 188.1 186.4 186.6 184.7 180.5 175.6 174.2 180 190.1 198.8 206.5 214.2 220.3 221 220.1 218.3 216.1 210.9 201.1 192.4 180.7 166.2 159.1 153.4 149.9 147.7 146.9 149.2 151.7 156.4 166.4 175.1 174.5 164.7 160.7 158 158.4 161.3 167 176.8 193.7 207.8 217.7 226.6 233.7 239 242.7 245.1 245.8 246.4 246.7 246.6 246.6 246.5 246.1 244.4 242.8 238.8 233.5 227.4 216.1 201.4 199.3 198.4 202.5 205.7 212.1 214.2 212.9 209.6 201.4 192.2 177.2 158.4 149.4 145.7 145 145.9 144.1 142.2 140.3 139.2 137.7 136.5 136.7 137.8 139 140.8 141.8 135.5 129.8 137.7 144.3 146 150.5 148.1 140.1 132.7 131.7 135.2 138.3 141.6 146.4 151.8 162.4 177.7 202.5 217.5 226.1 232.4 235.3 236.7 238.2 238.9 237.6 233.9 225.7 209.3 194.3 186.6 190.6 196.2 199.8 211 219.4 224.8 229.2 232.9 235.9 238.3 239.6 239 238.2 236.6 234.6 231.5 226.5 221.8 215.5 209.5 203.6 196.5 191.5 185 182.1 180.2 178.6 177 176 172.5 168.1 162 152.2 144.7 139.8 143.2 145 145.5 144.4 141.6 134.7 129.4 127.4 126.5 123.7 123.8 123.2 122 119.4 118.5
166.8 175.5 180.1 182.5 183.7 181.7 178.9 178.3 183.8 192.2 203.5 213.5 223.7 229 232.1 235.8 238 240.2 241.5 247 244.7 245.6 240.3 238.4 234.9 230.9 226.1 218.4 208.6 194.8 191.7 193.1 192 188.5 180.5 175 170.8 171.1 178.7 189 197.6 204.5 211.6 217 217.8 216.5 214.3 209.8 201 191.8 179.9 164.3 157.3 152.3 148.8 146.9 146 147 148.7 150.4 153.4 156.9 158.8 157.5 156.1 156.2 158.8 164 171.7 185.5 202.9 212.8 222.6 231 236.3 239.2 242.7 244.1 243.7 244.2 244 244.3 244.6 245.3 244.7 243.7 242.7 240.4 236.4 231.4 224 212.6 197.1 188 186.6 190.3 194.6 203.5 205 200.2 193.8 186.4 165 152.8 147.3 146.4 147.5 148 145.6 143.4 141.6 140.8 140.1 138.2 135.5 134.1 134.9 136.4 138.4 132.6 128.6 136.7 142.3 142.4 149.1 146.9 139.5 132.9 130.9 135.2 138.9 142.7 147.8 154.3 166 181.7 206.5 219.5 228.4 232.6 234.7 235.7 236.6 236.9 235.8 231.9 224.6 213.4 193.3 179.2 177.6 183.8 187.2 199.4 202.1 212.2 221 228.8 233.6 236.8 238.8 239.2 238.6 237 234.8 228.6 223.9 217.8 210.8 203.1 193 180.2 170.4 165.3 162.3 163.3 166.3 169.1 168.5 166.4 159.2 151.5 145.5 139 136.3 135.6 134.6 133.9 133.6 132.2 129.3 127.3 126 127.5 128.3 128.8 126.9 124.9 121.8 119.5
173.4 183.2 187.4 189.4 190.4 190.5 187.6 185.3 185.2 189.9 197.2 209.6 221.6 228.7 232 235.5 237.4 239.8 240.2 240.5 240.3 240 239.2 236.2 233.7 229.3 224.2 212.8 202.6 200.1 200.4 199.1 196.3 191.5 183 173.9 169.2 167.3 170.9 177 186.2 195.5 203.1 208.9 213.4 213.2 210.8 205.8 196.3 188.3 176.4 163.9 155.3 150.9 147.7 146.6 145.1 145.8 147.3 149.3 151.3 153 153.5 154.5 155.2 157.6 161.7 168.3 177.1 195.9 208.7 218.2 226.5 233.6 237.5 240.3 242 242.4 242 240.8 239.9 242 242.8 243.2 243.2 242.6 242 240.1 237.6 233.2 228.1 220.3 210.1 196.7 180.6 176.8 180.6 185.6 191.2 190.8 185 173.8 157.3 150 147.5 148.7 149.9 150.5 148.4 147 145 143.8 142.5 140.6 137.9 134.7 133.5 133.3 131.6 129.2 128.8 135.5 139.9 140.3 146.4 144.9 139.6 130.5 130.6 135.4 139.9 142.8 149.3 156.7 170 187.5 211.3 221.8 230 232.5 233.4 232.3 230.7 229.2 230.6 229 223.8 215.5 191.7 171.5 169.6 173.4 177.3 182.1 189 195.3 210.1 222.2 230.5 235.3 237.9 238.6 238.3 236.9 233.3 227.3 220.1 213.4 205 191 176.5 167.7 158.5 153.6 151 150.3 151.5 153.8 153.8 152.8 148.3 143.2 139.4 138 138.8 139.6 138.3 135.4 133 131.5 131.1 132.7 135.4 137.9 138.3 134.8 132.3 129.3 124.6 119.7
178.2 188 192.7 194.9 197.1 196.7 195.7 194.3 194.9 199.8 206.7 212.2 220.3 228.5 232.2 235.1 237.1 238.6 238.8 239 239.1 238.6 237.9 234.5 232.6 228.7 224.8 216.3 210.5 209.7 207.5 205.4 201.1 196.6 188.9 176.2 169.8 166.3 165.6 169 175.4 185.2 194.2 200.1 204.1 204.3 202.3 197.9 191.6 182.8 169 157.3 153.4 149.2 146.9 145.3 144.5 144.7 147 149.1 151 152.5 154.1 155.9 158.4 162 167.1 174.1 186.3 202.9 213.3 222.4 229.5 235.6 237.9 239.6 240.7 240 236.3 227.1 227.4 236.3 238.2 239.2 242.1 241.7 241.2 239.7 237.2 232.9 227.4 218.8 209.6 194.7 179.6 172.1 169.5 170.5 174.1 177.7 172.1 160.4 153.9 149.3 149.3 151 152.2 153.4 152.6 151 148.7 146.7 144 142.3 139.4 136.4 135.4 135.4 134.5 130.4 127.6 133.2 137.5 140.2 142 142.1 139.2 130.5 130 135.6 139.1 143.3 149.6 159.7 176.8 198.7 213.7 225 230.1 231.2 229.5 225.8 214.9 215.4 218.1 219.2 214.1 204.3 181.6 165.2 165.8 167.9 169.9 172.9 178.2 187.1 198.9 215.8 227.5 233.5 236.9 238.4 237.7 235.7 231.6 224.6 215.9 203.7 192.3 177.3 167.3 159.5 155.9 153.8 152.2 150 147.5 146.1 145.2 144 143 142 143 146.1 151.6 152.5 151.3 148.4 145.1 143.4 142.7 145.1 150.2 149.1 145.4 140.6 135.6 131.3 125.2 119.8
177.1 188.8 194.5 198.9 202.4 204.7 205.5 204.9 206.4 210.2 216.6 221.8 226.3 229.7 232.9 234.7 236.2 237.3 237.1 237 236.5 237 236.6 235.9 233.2 230.5 226.8 223.8 219.7 217.9 214.9 211.4 206.3 201.7 195.4 184 173.2 167.9 164.2 162.9 166.4 174.2 184.1 190.9 194.2 196 194.1 189.3 183.7 176 161.4 152.8 149.2 146 144.9 143.8 143.4 143.8 146.1 148.8 152.3 155.6 157.8 159.8 163.5 168.1 173.4 183.7 199.5 208.2 217.2 226.4 232.7 236 237.7 238.5 238.8 237 225.7 213.6 216.5 227.7 226.3 234.1 239.5 240.5 239.9 238.7 236.1 231.6 225.7 214.8 197.5 184.2 173.8 168.5 166 163.4 163.2 163.3 160.5 156.5 152.8 150.2 152.7 153.9 155 156.5 156.8 154.7 152.7 151 148.7 145.7 140.7 138 136.9 137.6 136.8 132.4 127 129.5 134.2 138.1 138.9 140.2 137.5 129.9 129 134.1 138.5 143.2 150.5 164.4 185.1 205.2 217.8 226.3 229.6 227.9 222.9 211.7 194.9 190.9 196 194.9 190.5 184.2 170 159.5 160.1 161.9 164 167.2 173.4 182.7 196.2 213.9 225.1 232.5 235.9 238.4 237.9 236.1 231.6 222.4 208.1 189.8 178.3 168.1 162.7 160.3 159.3 160.1 161 155.6 152 150.8 149.4 148.6 150.2 152.7 155.1 158.3 162.6 164.7 165.3 164.2 162.5 162.9 162.6 160.7 157.5 153.8 149.7 144 139.1 132.7 126.4 120.1
172 184.5 192.6 198.7 205.8 209.1 210 212.7 215.3 218 221.9 225.7 228.9 231.3 233.9 235.1 235.3 235.9 234.9 233.7 233.1 234.1 234.5 234.5 234 231.9 230.1 227.5 226 224 220.7 217.7 212.9 206.8 201.8 192.7 180.9 176.8 169.1 163.1 161.3 164.8 173.6 182.5 186.3 186.5 183.2 177.3 171.5 163.8 153.8 149.1 147.5 145.3 144.7 143.9 142.2 142.9 144.9 147.4 150.8 154.2 160.3 163.8 170 174.7 184.9 193.8 205.2 213.7 222.7 230.1 234 235.7 236.7 237.4 236.7 232 216.4 201.2 202.2 209.6 216.2 228 237.5 239.2 238.5 236.7 234.7 230.2 220.3 204.6 188.9 178.2 171.7 169.1 165.8 161.9 159.6 158.1 156.2 154.1 152 152.2 155.1 158.1 159.2 160.6 160.9 159.1 157.9 155.8 153.5 148.2 141.8 139.7 138.1 138.3 137.4 136 128.2 126 131.3 135.7 136.7 138.6 135.7 127.7 128.6 134.9 139.8 144.2 151.6 166.4 187.7 208.1 220.5 227.5 227.6 223.6 215.7 198.9 181.6 173.1 176.4 173.9 169.3 163.1 155.6 153.2 154.3 156.1 159.3 164.3 170.8 179.6 192.8 211 223.8 230.3 235.8 238.2 237.8 236.6 231.9 223.6 208.3 189.4 178.8 173.4 170.7 168.9 170 171.7 173.6 171.3 167.6 166.5 163.8 163.3 163.6 165.1 166.7 169.1 172.2 174.5 176.4 175.6 173.3 171.3 168.5 165.3 160.5 155.6 151.3 145.2 139 132.1 124.5 118.4
169.1 175.3 187.8 194.9 203 209.9 213.6 216.2 218.8 221.7 225 227.7 230.3 232.7 234.7 235.8 235.8 235.2 233.7 232 229.7 228.5 231.2 232.5 233 232.5 231.8 230.1 228.5 226.6 224.6 222.2 218.7 212.4 206.3 199.2 191.8 185.7 175.9 167.6 163.3 159.8 162.3 170.7 175 173.7 168.8 163.4 158.4 153.8 149.7 147.5 146.5 146.1 145.8 144.3 141.6 141.8 143.5 145.9 149.7 154.5 162 169.9 177.6 185.8 195.1 203.1 211.6 219.8 226.6 232.1 233.5 234.7 235.2 235.5 232.9 224.3 207.4 192.4 186.9 195.4 210.7 225.8 235.4 237.6 236.6 235.1 233.5 226.8 213.9 199.8 187.3 182.1 185.5 184 174.2 169.4 162.3 158.2 156.2 154.7 154 154.2 156.8 160.1 163.1 164.8 164.7 163.9 162.7 160.4 155.7 149.4 143 139.6 139.1 139.1 137.8 136.4 131.4 126.3 128.5 133.7 132.3 137 133 126.6 129.6 134 139.6 145.7 154.6 169.5 188.9 211.5 223 226 223.7 215.4 199.5 183.7 173.2 161.4 161.4 157.4 153 149.8 148.8 149.4 151.2 154 157.9 163.2 169.4 177.5 190.5 207.4 222.6 230.5 235.9 238 238.1 237.3 233.5 225.2 213.9 203.3 196.1 191.3 188.6 186.3 188.3 192.4 191.5 186.4 183.3 179.9 177.6 177.7 177.5 179.2 180.2 181.7 183.4 184.5 184.9 182.9 180.4 176.1 172.1 167.9 162.6 156.7 149.3 143.6 136.2 128.3 122.2 117.4
175.4 176.5 180.1 191.7 197.9 208.8 214 217.3 220.7 223.9 226.6 229.2 231.4 233.3 235.3 236.4 236.2 235.8 235.9 230.7 226.4 221.3 226.5 230.7 232.1 232.4 232.4 231.5 230 228.1 226.1 223.9 221.2 216.3 211.1 205.4 198.5 192 182.6 174.1 166.1 161.5 158.5 159.2 163.2 163.1 159.8 157.8 153.7 149.7 148.7 148.3 148.5 148 147.5 144.8 142 141.2 143.6 147.3 153.7 160.6 171.5 180.4 187.5 196.1 203 211.1 218.1 224.2 228.8 231.7 233 233.7 233.8 233.2 229.8 218.8 201.6 187 177.8 193.3 209.4 224.3 233.9 235.6 236.7 235 233 228.3 217.5 210.5 207.1 202.8 203.1 200 190 183.4 175.5 163.6 159.5 157 157 156.7 158.6 162.9 166.4 168.9 169.4 168.8 166.4 162.2 154.6 146.8 141.1 138.7 137.5 136.7 135.5 134 130.2 126 125.8 129.7 128.8 134.8 130 125.4 130.9 135.1 140.6 148.3 159.8 177.4 198.7 216.6 223.9 223.3 216.5 199.6 183.6 170.8 162.8 154 151.4 149.1 146 146.2 148.6 150.3 152.7 155.5 158.8 163.8 171.7 182 198.5 213.3 223.3 231 236.1 238.7 239 238.1 235.1 230.2 223.9 216.7 211.5 208.7 206.3 205.6 205.2 204.5 202.6 199.5 196.9 194 192.8 191.6 191.4 191.6 191.6 193 193.1 192.8 191.5 188.3 184.1 179 174.6 169.6 163.5 157.2 148.2 137.5 130.3 124.7 120 116.3
184.6 187.5 189 188.7 195.6 205.2 212.4 218.1 221.4 224.8 227.8 230.1 232.1 234 235.9 236.2 236.5 235.8 235.4 232.7 229.1 221.1 221.5 228.5 230.4 231.3 231.6 231.3 230.4 229.1 227.1 224.8 222.2 219.3 215.2 209.6 203.9 196.7 189.1 181.2 172 164.1 159.4 157 156.3 155.2 154 153.8 150.5 150.1 150.5 150.8 151 150.4 148.5 145.2 141.7 140.8 144.3 150.3 164.4 178.7 185.2 190.7 197.7 204.5 210.6 216.5 222.9 226.3 227.6 229.9 230.7 231.1 231.5 230.7 227.1 213.3 195.7 182.5 178.7 193.1 211.6 224.6 232.2 234.6 235.4 235.3 233.4 231.8 227.9 224 219.7 215.9 214.3 209.5 202.4 194.4 184.9 170.1 164.1 160.9 161 161.1 162.5 166.4 170.8 173.1 173.2 170.7 165.7 157.6 150.3 143.5 139.3 137.2 135.3 133.8 132.8 131.4 130 128.1 125.2 126.2 129.2 131.6 126.4 127 133.2 137.3 143.5 152.7 171 189.3 208.6 219.4 223.5 217.2 198.2 180.8 172.1 161.5 154.1 149.3 146 143.3 143.9 147.3 149.9 151.5 154.7 157.9 161.8 166.3 174.1 188.1 205.4 217 225.6 232.9 237 239.5 240.1 239 236.9 233.1 230.1 225.9 221.9 218.8 217.2 215.8 214.8 213.2 210.9 207.6 205.2 202.5 201.9 200.8 200.5 200.2 199.6 199.2 198.9 197.4 194.1 190.3 186.4 181.2 175.9 170.9 164.3 155.9 144.6 140.3 134.6 127.1 120.4 115.7
191.3 195.3 199 199.1 200.9 204.9 213.6 218.8 222.1 225.2 227.7 230.5 232.4 234 235.5 236.1 236.3 236.5 235.5 233.3 228.8 219.2 213.2 218 223 225 227.1 229.2 228.7 227.5 226.4 224.2 221.2 218.9 215.6 211.5 206.4 196.8 191.7 183.9 175 166.2 161 157.1 155.2 154 152.8 151.7 151.8 152.7 154.5 153.3 152.6 150.9 147.9 144.8 141 140.6 145.4 156.9 178.9 187.8 194.8 200.9 206.4 211.6 216.9 221.7 225.3 226.2 227.1 228.2 228.4 228.6 228.8 228 222.4 207.6 189.1 175.6 175.4 191.8 210.2 222.9 230.2 232.8 235.1 235.2 233.8 233.4 232.6 230.5 228 225.2 222.8 218 210.3 201.4 190 174.1 169 170 171.1 170.9 173.8 176.8 178.2 179.2 177.2 173.5 164.9 157.2 149.2 144.5 141.2 138.9 136.7 135.6 134.6 133.3 132.7 131 126.6 124.5 125.8 127.2 123.4 128.4 133.7 138.2 145.6 163.1 185.2 201.4 213.7 221.3 218.8 202.7 184.3 170.9 159 153.5 148.6 144.2 141.3 141.3 143.5 146.7 149.9 152 155.1 161.5 165.4 170.2 179.3 195.9 208 220.1 228.5 234.2 238.8 240.6 240.8 240.1 238.6 236.3 234.1 230.7 227.7 226.2 224 222.2 220.2 217.9 215.6 213.1 210.7 208.3 207.1 206.7 205.4 204.3 203.4 202.5 200.8 198.4 195.1 191.1 187 182.4 177.2 171.7 165.3 157.5 151.9 147.2 140.6 131.5 122.2 115.6
198.3 203.2 206 207.9 209.5 210.5 214.5 219.4 222.7 225.1 227.7 230.2 232.2 233.7 235 236 236.2 236.4 235.7 233.5 228.3 218.2 204.2 206.2 209.5 212.8 216 219.8 221.6 220 218.5 214.3 210.9 207.5 204.6 201.3 197.8 191 186.2 185.7 178.6 172.6 163.9 159.1 156.7 155.4 154.3 154.1 155.4 156.7 159.1 157.4 154.4 149.9 146.4 143 139.5 141.4 147.5 163.8 186.5 195.7 202.2 208.1 213.1 217.2 220.1 222.8 224.3 224.9 225.5 224.5 224.7 224.9 225.2 223.9 217.7 203 184.9 170.6 171.7 187.9 208.4 218.9 226.5 231.6 234.1 235.7 234.7 234.6 234.4 233.3 232.2 230.4 227.5 222.1 217 206.1 193 182.9 180.9 185.5 187.6 185.8 186.4 187.4 187.2 185.7 183.7 180.7 174.8 164.8 154.1 149.9 145.8 142.6 140.6 138.8 136.9 134.9 133.4 131.5 128 125.3 122.5 123.4 126.1 130.9 134.1 138.7 147.5 171.1 192 205.8 215.1 218.4 209.4 190.4 173.4 161.5 153 147.6 143 139.3 138.9 141.8 144.3 146.2 148.9 151.9 156.6 164.3 169.9 175.3 185 201 213.3 222.8 230.5 236 239.8 240.9 240.8 240.1 238.9 236 234.7 233.2 230.4 229.4 226.8 224.5 222.3 219.7 217 214.2 211.7 210.3 209 208.1 206.9 205.5 204.1 202.4 200.2 197.7 194.7 191.5 187.6 182.5 178.4 173.4 168.7 163 158.7 152.8 145.4 135 124.2 116.1
203.4 207.3 209 211.1 212.8 213.9 216.4 220.1 222.6 225 227.6 229.9 231.9 233.2 234.6 235.9 236.1 236.3 235.7 234.1 229.1 220.7 207.1 195.9 198.1 198.9 203.6 206.7 209.3 206.6 199.8 196.9 192.9 191.9 190.5 187.6 180 168.4 166 175.5 179.8 176.2 167.2 162.5 160 159.5 162.5 162.1 161.7 162.7 163 160.3 155.3 149.4 143.4 140.1 139 143.1 150.7 170.3 190.7 201.1 208 212.9 215.9 218.7 220.1 221.4 222.1 222.8 222.6 222.1 220.5 220.8 220.4 218.2 212.9 199.2 181.2 166.5 167.5 185.2 201.5 209.2 216.5 223.8 229.6 234.3 235.4 235.2 234.5 233.1 233 232.8 231 226.1 220.9 211.3 200.2 194.6 195 198.9 198.4 197.4 196.5 196.6 196.1 195.1 193.3 189.6 184.2 176.2 168.2 164 158.2 149.9 145.7 141 138.7 135.9 134.3 133 131.4 127.5 123.9 122.4 126.7 131.6 133.3 136.9 145.8 171.3 191.4 204.8 212.8 212.3 198.8 180.2 159.9 153.5 147.6 142.6 138.5 137.2 139.7 144.7 146.8 147.7 149.5 152.6 157.1 165 175.8 185.4 195.5 207 217 225.2 232.2 236.8 240 240.6 240.2 238.8 237.7 235.3 233.6 232 231.1 229.5 228.1 225.8 223.1 220.2 217.1 213.3 209.4 208.4 207.3 206.2 205.4 204.5 203.2 201.6 199.3 196.8 193.7 190.7 187.1 182.3 178.6 174.6 170.4 166.2 161.5 155.5 148.7 138.8 128.1 118.6
207.7 209.4 210.8 212.4 213.5 215.2 216.9 218.9 222.2 224.9 227.1 228.9 230.6 232.3 234.1 235.4 236 236.6 235.9 235.1 229.6 223.3 214.1 200.4 191.5 188.3 191 192.8 195.1 191.1 186.3 182.5 178.3 177 174.3 170.4 164.7 160 158.5 160.6 171 177.4 174.8 170.5 165.1 166.7 170.5 170.2 169.3 167.8 165.6 161.6 156.2 149.2 141.8 138.2 139 143.5 154.6 178.6 192.8 202.9 209.5 213.4 216 217.2 218.4 219 219.4 219.1 217.8 215.9 213.6 212.9 214.2 212.4 207 195.1 178.4 163.4 162.2 173.5 183.5 191.6 203.6 212.7 224.1 232.2 234.8 234.8 234.1 233.6 233.7 233.8 232.8 229.1 224.3 218.6 211.8 211.3 210 209.5 208.2 207 205.8 205 204 202.4 200.6 197.2 193.9 190.8 185.7 179.4 173.2 164.2 154.5 146.8 140.1 136.8 135.2 134.1 132.8 130.7 126.5 123 125.5 128.6 131.1 135.1 143.1 161.6 185.4 200.8 207.8 203.5 186.7 161.8 154.9 149.2 142.5 138.4 136.2 137.7 142.6 149.7 152.4 152.9 153.3 154.7 159.6 168.7 178.5 192.7 202.6 211.9 220.5 228 233.8 237.2 239.9 240 239.2 237.1 235 231.5 230.7 229.9 229.2 228.2 227 225.3 222.9 219.9 215.3 209.3 203.9 203.7 203.4 202.7 201.8 201.1 200.1 198.5 196.3 194.1 191.4 188.4 185 181.8 177.5 174.4 170.6 166.7 162.4 157 151.1 142.8 132.2 123.5
208.3 209.3 209.9 206.3 202 201.2 202.4 209.8 215.1 221.2 223.9 225.7 228.5 230.7 232.6 234.4 235.4 236.3 236.5 235.3 231.4 226.9 219.6 208.3 197.2 188 181.6 180.8 179.9 177.7 175.9 172 169.3 167 165.2 162.8 162 160.2 157.4 155.7 157.9 172.2 179.5 176.9 171.7 175.5 176.2 174.4 172.3 170.1 166.8 161.7 155.9 149.5 141.7 136.9 138.7 144.7 159.6 179.3 191.8 200.9 207.9 211.7 213.8 214.6 215.3 215.5 214.8 213.2 210.8 208 200.2 202.7 207 206 201.6 188 174.6 160.5 157 162.5 171.1 179.8 189.9 201.2 214 224.7 232.7 234.5 234.3 234.5 234.8 235 234.8 231.9 228.5 225.2 222.1 218.6 219.3 217.3 216 214.9 213.7 212.5 211.4 209.5 207.5 204.7 201.8 198.4 193.9 188.5 181.9 174.5 166 152.1 142.2 137 134.2 133 132.6 131.8 127.2 122.7 122.9 127.4 130.4 134.3 139.8 151.9 174.7 194.1 202.2 195.4 174.2 156 149.2 143.6 139.3 135.9 135.5 138.7 144.7 152.6 156.6 157.2 157.2 158.2 163.4 170.5 184.7 196 206.4 216.3 223.8 230.4 234.8 237.7 239.6 238.8 237.4 234.2 230.5 225.7 222.4 225.1 224.8 224.5 224 223 221.4 219.1 215.2 209.6 201.6 196.1 196.1 196 195.7 195.8 195.2 194.7 192.9 190.9 188.3 185.2 181.5 178.8 176.1 172.9 169.6 166.2 161.5 156.9 152.1 145.3 136.4 126.3
206.4 203.9 200.4 196.9 190.9 187.5 191 196.5 201.7 206.9 210.4 214.4 218.6 227.2 228.9 232.9 234.4 235.6 236.7 235.8 232.9 229.3 224.5 215.8 205.3 193.9 185 180.7 177 174.9 172.7 170.7 168.6 166.6 164.8 165.2 164.4 162.4 158.9 155.3 154.5 160.4 180.4 181.9 178.7 179.9 177.6 175.1 172.2 169.1 165.1 159.6 153.2 147.5 140.1 137.6 138 144.6 161 178.2 187.6 196.9 204.2 209.1 210.5 210.3 210.9 209.2 208.1 205.3 202.5 197.4 186 187.5 196.3 197.4 190.5 178.2 166.3 157.2 154.8 161.7 168.2 175.6 183.9 190.1 203.8 219.1 230.6 234 235.1 235.8 236.2 236.5 236.1 234.2 231.9 229.1 227.2 225.7 224.2 222.8 221.5 220.5 219.9 218.3 216.9 214.5 212.7 209.9 206.6 203.5 200.2 194.7 187.3 178.8 169.6 161.2 142.3 137.4 134.2 133 132.1 131.6 127.7 122.8 122.1 125.6 130.3 134.6 138.8 146.6 167.8 188.1 196.8 183.6 156.9 151 143.9 140.1 136.1 133.5 136.7 140 145.5 151.8 155.1 157.1 159.8 159.9 163.4 173.8 186.9 198.5 208.8 218.3 225.7 231.6 235.2 237.5 238.7 237.5 234.8 230.9 224.8 218.3 209.5 213 216.2 217.2 218.1 217.3 218.6 216.9 214.8 210.9 205.5 198.8 191.2 184.5 182.9 184.8 187.6 187.9 186.9 185.1 182.9 180.4 177.8 175.1 173.1 170.6 166.9 163.5 159.9 155.4 150.1 144.2 136.7 127.1
196.9 195.6 194.4 180.7 176.7 176.5 177.6 183.3 191 194.7 198.7 203 211.6 222.7 228.1 232 233.2 234.3 236 236.5 235.2 231.9 228.1 221.9 212.1 199.9 192 188.5 185.4 183.1 181.8 177.4 172.4 170.3 167.1 165 161.9 159.1 156.6 154 153.1 158.3 179.5 183.2 179.5 172.3 168.5 165 163.3 160.8 157.7 153.2 149.1 142.9 137.3 136.5 138.2 145.2 159.5 173.6 183.5 192 198.9 203.7 206.3 206.5 204.9 203 200.4 196.7 191.7 185.1 176.8 172.2 182.2 183 175.7 167.3 157.4 152.9 155.6 169.6 183.4 195 201 206.9 213.3 226 232.2 234.2 235.2 236.1 237 237.5 237.4 235.8 233.5 231.5 230 228.2 226 224.7 222.9 222.3 221 219.5 217.9 216 213.8 211.5 208.5 205.2 201.2 195.9 188.7 179.2 168.9 155.8 139.9 136.9 133.5 131.8 130.8 130.5 127.9 122.9 122 124.3 129.7 133.3 136.5 142.4 161.2 179.9 183.1 171.4 151.4 146.1 140.7 136.3 133.2 133.4 135.8 139.7 144.4 149.2 149 152.3 154.5 155.6 160.5 173.6 186.8 199.7 210 219.2 226.2 231.9 234.7 236.9 238.1 235.8 232.5 226.8 218.8 206.4 194.2 195.4 197.8 199.4 203.1 208.3 211.4 213 213.4 211.1 207.7 203.3 197.8 190.5 182.5 174.1 171.8 175.7 179.7 178.1 176 174.1 171.2 169.5 168.3 165.9 163.2 160.2 156.5 152.1 146.9 140.5 131.4 123.2
185.8 187.1 180.3 169.9 165.5 165.5 169.2 174.9 178.7 183.8 193.5 205.5 216.7 224.3 227.9 230.7 232.4 234.1 235.9 236.1 236.2 234 231 225.9 216.1 208.5 205.4 201.3 197.7 193.8 190.8 186 179.7 176.1 172.5 163.6 158.5 155.6 153.5 151.6 151.9 160.2 176.8 176.9 171.8 162.1 155.6 151.7 149.6 147.4 145.3 140.1 136.2 135.8 134.9 136.1 138.9 146.5 158.7 169.7 177.6 185.3 191.4 195.9 198.5 199.1 195.9 192.6 190.7 183.8 175.6 173.6 168.6 162.6 164.7 165 159.9 154.3 150.9 150.9 160.9 175.6 194.4 208.9 216.7 222.5 226.9 231.4 233 234 235.4 236.3 237.2 237.5 237.9 236.7 234.6 232.5 231.1 229.4 227.3 225.1 223.4 221.4 220 217.1 214.3 211.8 208.2 206.5 206 204 199.2 192.9 184.6 170.8 153.9 143.1 138.5 134.6 132.4 129.9 129.6 129.6 128.1 125.1 122 123.2 129.4 131.5 133 136.2 147.5 161.3 163.1 152.9 143.4 141.1 137.8 133.9 131.1 132.1 134.8 138.3 141.2 142.4 143.5 145.4 147.8 151.2 156.4 165.5 177.6 196.7 211.3 219.8 225.8 231.4 235.3 236.6 237.6 234.6 230.6 222.9 210.1 194.2 183.1 182 180.7 180.7 185.6 189 195.6 205.6 208.6 208.9 207.6 204.3 200.9 196.2 190.2 183.6 173.8 164.9 166 167.2 164.9 162.7 162.8 162.7 161.8 160.7 158.8 155.6 152.2 145.3 137.2 129.8 123.7 121.1
165.9 167 166.1 159.6 158.6 164.3 172.4 181 188.3 196.2 202.9 213 220.4 225.1 227.4 229.9 232 233.9 235.7 236.4 236.6 235 232.7 228.5 222.1 217.2 214.7 210.7 206.5 202.9 198.6 192.6 185.8 179.9 171.2 161.7 155.9 153.5 151.7 149.8 151.3 156.8 165.8 166.2 159.9 151.3 149.2 144.8 141.3 138.5 137 135.4 133.6 133.7 135.5 139.3 141.7 147 155.7 163.9 171 177 182.1 186.7 189.4 189 185.3 181.6 179.6 174.1 164.6 162.5 160.2 155.7 154.5 153.6 151.4 149.5 148.1 151.6 165.8 181.7 202.2 214 222.3 227.9 231.2 233.1 233.4 234 235.1 236.3 237.3 237.3 237.7 236.7 234.7 232.8 231.2 228.6 226.1 223.3 220.9 217.1 212.5 205.2 198.8 195.5 195.1 194.6 195.2 197.3 193.7 184.8 166.9 153.1 143.1 137.9 135.3 132.7 130.5 128.7 128.3 128.3 128 127.4 122.7 121.6 126.6 129.8 130 132.5 134.4 138.4 141.1 139.6 138.8 136 134.3 132.2 130.3 133.2 135.1 136.6 138.4 139.7 141.1 142.5 146.3 150.5 155.9 164.8 180.2 201.8 212.6 221.1 226 230.9 235.8 237 236.5 233.6 229 220.9 204.6 191.3 182.2 174.1 169.2 167.9 170 172.2 179.4 190.8 201.7 205.2 205.5 204.3 201.9 198.5 193.5 188.8 182.7 171.8 161 155.7 152.7 150.5 148.7 148.3 147.7 148.8 150 144.9 139.3 133.1 127.3 124.2 124.4 126.3
154.1 154.2 154 153.7 157.2 166.5 177.4 186.7 195.6 202.5 210.4 217.2 222.1 225.4 226 227.5 229.7 231.6 234.7 235.9 236.6 235.4 233.6 230.1 225.8 224.9 222.1 218.1 213.4 208.7 203.1 195.2 186.3 174.7 164.1 157.7 153.5 151.2 149.9 148.6 148.8 151.5 154.2 154.4 151.5 147.8 145.2 141.7 138.6 136.7 135.4 134.9 134.1 133.8 135.8 141.9 144.4 146.8 150.6 154.6 160.6 166.4 171.8 176.3 179.5 180.6 176.5 170.2 166.9 162.5 156.9 153.5 152 150.2 148.8 147.4 145.8 145.9 146.9 152.1 167.8 189.3 203.6 213.7 222.9 228.5 230.9 232.5 233.5 233.9 235.1 235.9 236.7 236.6 236.6 235.6 233.9 231.5 229.2 226.1 223 218.4 211.8 204.4 195.2 187 180.7 176.2 174 173.9 177.3 185.9 186.1 170.8 151.8 143.7 137.3 133.7 133 130.8 128.8 127.6 127.2 126.9 127.3 127.8 123.3 121.9 124.1 127.1 128.8 128.5 130.2 133.2 134.5 133.6 133.7 131.9 130.9 129.8 130.2 133.3 135.7 135.9 136 137 140 144.2 149.3 155.7 161.2 168 184.7 205 216.6 224.4 229.1 233.1 236.3 236.2 235.8 233.2 228.3 221.6 210.3 201.7 196.6 187.2 176.7 168.3 161.3 161.1 166.6 176.1 187.9 198.9 201.8 202.8 201.1 199.1 195.6 192.1 187.1 180.7 172.9 168.1 161.7 155.4 151.5 148.1 143.7 138.9 135.6 133.4 130.5 130 131.2 134.4 137.1 142.5
147.4 148.1 149 150.1 154.5 162.3 172.4 180.4 191.9 203.9 211.6 218.8 221.7 222 220.1 220.7 223 228 232.6 234.7 236 235.9 234.1 232.4 229.9 228.5 226.5 223.6 219 210.7 203.2 192.8 178.5 167.6 160.1 155.7 152.9 150.6 149 147.6 147.1 147.1 148.6 148.7 146.7 144.6 141.9 139.5 138.1 136.5 136.9 136.8 134.5 132.1 136.2 141.3 144.4 144.7 144.7 146.2 149 152.5 159.1 163.9 169.7 172.5 168.3 160.6 154.5 151.8 149.4 147.6 146 145.4 144.1 143.5 142.9 145.2 148.5 152.5 164.4 178.3 192.1 204.9 217.6 225.2 229.1 231.5 232.4 233.7 234.3 235 235.4 234.3 234.2 233.4 231 227.9 223.4 219.1 213.4 207.3 200.8 190.9 177.6 169.3 163.8 159.5 159.2 158.6 162.3 170.3 172.3 158.1 143.9 137.1 132.7 130 129.2 128.6 127.4 126.5 126 125.5 127 127 122.7 121.2 124.1 125.1 126.8 127 126.4 127.7 129.2 130.2 129.3 128.7 128.5 128.1 129 131.5 133.1 133.2 134.1 137.7 142 147.4 155.8 171.2 175.9 181.9 192 207.8 220.3 226.9 231.8 234.6 236.7 236.8 235.5 232.7 228.7 222.3 216.3 209.9 203.6 198 191 182.6 169.5 156.6 155.8 164.2 174.8 190.3 196.6 199.2 199.4 198 194.7 191.8 188.8 185.2 181.4 177.3 173.9 170.2 166.8 162.5 157.8 151.1 146.5 143.8 143.6 144.8 146.7 150.8 152.6 149.6
146.1 146.8 147.6 149 151.8 156.1 164.2 169.4 181.4 192.7 203.6 212.9 214.4 214.4 212.2 210.2 214 222.7 228.6 233.9 235.2 236.3 234.8 233.4 231.6 229.7 227.1 222.9 216 208.1 198.2 184.9 170.3 164.5 158.8 155.5 153.1 150.4 148.4 147 145.9 146 145.7 144.4 143.1 141.9 139.9 139.5 139.6 140.2 141.2 139.2 135.8 132.8 131.8 137.5 142.7 143 141.4 141 142.5 144.8 148.4 154.5 160.6 164.8 162.8 155.1 148 145.6 144.5 143.5 142 140.8 140.5 141.2 143.2 148.1 153.6 156.1 160.3 168.9 178.3 189.1 201.7 213.9 220.6 228.7 231.3 233.4 234.4 234.1 234 232.9 230.5 226 221.9 216.7 211.3 206.5 200.9 194.7 186.6 175 165.6 158.7 153.2 148.7 146.3 146.3 148.4 154.8 152.6 144.3 138.8 133.5 129.4 126.9 126.1 125.8 124.9 123 123.2 123.1 124.2 125.1 119.8 118.7 119.9 123.8 123.6 124.9 125.2 125.6 127.4 127 127 126.4 126.4 126.9 128.8 129.7 130.3 131.9 134.7 139.4 144.3 152.3 166 183.2 192.6 196.8 204.3 215.5 224.1 229.4 233.1 235.9 237.4 236.9 235.2 232.1 228.3 223.2 217.3 211.6 206.5 200.7 194.6 188.5 180.7 165.9 153.3 153.2 164.6 179.5 189.7 194 195.8 195.2 193.8 191.6 189 186.4 183.4 180.6 178.4 176.2 173.5 171 168.2 165.9 162.7 161.6 163 161.2 162 159.7 156.6 151.3
149.9 150.7 151.4 150.8 151.3 153.1 156.9 162.3 171.6 181 192.8 202.6 204.9 203 201.1 197.8 201.9 215.8 226.8 232.6 235.5 236.7 235.5 234.2 231.5 228.1 222.3 216.5 209 201.1 190.2 174.4 167.1 162.1 158.4 154.6 152.4 150.1 147.8 146.6 145.5 145.1 143.8 142.8 142 141.7 141.3 141.9 142.5 143.1 143.8 141.3 136.2 133.1 131.2 132.1 138 140.4 138.3 137 138 140.4 143 147.8 153.1 154.9 153.6 147.4 143.2 141.2 140.1 139.2 137.9 137.6 138.8 142.5 146.7 159.5 172.7 168.4 167.4 167.8 171.4 177.9 187.9 200.6 214.8 228.1 231.2 232.9 234.1 234.5 233.4 230.9 227.5 218.9 211 202.5 197 192.2 186.6 181.6 173 164.8 156.7 149.4 145.2 142.5 140.7 140.6 141.4 141.9 141.1 138.4 134.9 130.4 128.4 127.7 127.2 126.1 125.2 124.3 123.4 121.9 122.5 121.2 117.6 117.7 118.7 121.6 122.2 121.4 122.4 124.5 125 124.9 124.6 124.9 125.5 126.2 128.5 129.3 130.1 131.5 134.7 139.8 146.7 154.1 174.5 190.9 200 207.3 214.9 221.3 226.7 231.6 234.5 236.3 237.6 236.8 235.3 232.2 228 222.8 217.2 211.3 205.5 200.1 194.6 189 182.8 171.9 155.3 148.6 155.8 170.5 182.2 187.6 190.8 191.2 190.2 188.8 186.7 184.5 182 180.1 178.9 177.7 176.8 174.5 172.8 172.3 170.7 170 169.5 167.7 165.2 161.9 157.6 152
155.5 156.7 157.5 154.8 154 153.5 154.9 157.4 163.3 170 179.9 188.9 191.9 189.6 187.6 188.3 199.3 216.4 225.8 232.9 235.3 236.4 236 234.2 230.7 224.7 216.4 206.9 200 190.8 178.5 170.5 164.6 161.1 157.7 154.2 151.5 149.2 148.1 147.1 146.2 145.1 144.9 145 144.8 144.5 144.1 144.6 145.3 145.9 146.3 143.6 139.8 134.7 131.4 130.7 131.6 136.4 134.4 133.4 134.1 138.9 139.1 143.1 146.6 147.7 145.1 140.8 138.3 137.4 136.3 135.4 135.1 136.3 139.8 144.9 157.1 173.3 190.9 188.6 182.7 181.3 182.2 185.8 192.5 205.5 219.5 228.1 230.6 232.3 233.7 234.9 234.5 232.7 231 223.2 213.8 203.6 189.3 178.5 172.6 169.2 164.2 157.6 150.5 146 144.7 142 139.8 138.1 136.9 136.9 136 134.2 131.8 130.5 129.7 129.9 128.8 127.5 126.4 125.4 124.7 122.9 123.5 123.4 122.4 117.1 117.9 118.6 120.6 121.6 123.5 122.4 122.4 122.5 123.3 124.8 126.2 127.7 129 130 131.1 131.9 135.5 140.7 146.2 157.9 180.4 195 204.1 211.3 218.3 224.4 229.5 233.5 235.8 237.3 237.6 236.4 234.4 230.5 225.8 219.9 214.1 208.1 201 193.5 187.7 182.3 176.4 168.9 154.8 146.8 147.6 157.9 167.1 177.5 183.5 186.1 185.8 184.6 182.4 179.8 178.1 176.7 174.3 175.2 175 176 175.9 175.5 174.4 173.5 171.7 169.2 166.2 162.3 158.2 151.7
161.1 162.5 163 159.6 157.5 157 157.3 158.1 159.4 161.3 165.8 175.8 177.8 176 180.2 188.3 198.2 218.6 226.2 232.7 235.2 236.9 236.7 234.8 231 224.1 212.6 197.3 188 179.8 172.2 166.7 162.7 159.3 156.1 153.3 151.4 150.6 150.1 149.2 148 147.3 147.2 147.8 147.6 147.2 146.8 147.4 147.9 148.4 148.8 148 145.3 142.1 136.7 131.9 130 131.9 132 131.3 132.9 133.9 136.8 140.5 142.4 141.8 139.4 136.8 135.2 134 133 133.6 134.5 136.9 141.3 149.5 166.9 188.3 198.1 200.6 202.2 203.7 203.1 206.5 212.6 220.9 224.2 228.3 230.5 231.8 233.4 234.9 233.2 233.4 231.5 227.2 217.7 207.7 192.7 179.6 168.5 161.2 156.4 152.6 149.9 151.4 147.8 143.6 140.4 138 135.8 134.5 133.6 132.2 131 132.2 132.5 131.4 128.7 126.8 126 125.7 125.5 123.8 123.9 125.3 125 117.5 116.5 116.9 120.9 120.5 121.9 121 120.2 120.9 124.5 126.3 127.8 129.7 130.9 132.2 133.4 133.8 134.9 139.3 146.8 164.2 182.7 195 204.7 212.4 219.7 226.2 230.8 234.4 237 238.1 237.8 235.6 233.4 228.4 222.9 216.4 209.3 196.8 184.7 174.7 168.2 163.6 160.1 156.2 149.6 145 144.1 146.8 153.7 161.2 171.2 178.7 180.9 179.6 177.1 173.1 170.2 169.4 168.9 169.5 171.5 173.1 174 174.8 174.6 173.5 171.3 168.7 165.4 161.7 158 152.4
165.4 168 168.2 164.2 162.4 163.2 163.2 163.1 165.5 165.9 165.8 167.9 172.2 179 184.8 192.7 203.5 220.6 229.1 234 236 237.7 237.6 235.5 232.2 225.4 215.4 203.9 186.3 176.6 170.2 165 161.2 158.5 156.1 153.8 152.8 152.4 152.7 152.5 151.7 150.6 149.7 150.3 150.3 150.1 150.1 149.5 150.2 150.8 150.7 149.7 147.6 143.4 140.6 136.7 132.6 129 129.9 129.7 130.9 132.7 135.4 138.5 139.5 138.8 136.1 133.7 132.6 131.8 131.9 133.1 135.3 138.2 142.3 154.5 178.2 192.7 197.3 201.2 205.3 209.3 212.9 217.8 220.7 223.1 225.3 228.3 230.2 231.7 232.6 234.2 234.6 233.6 230.8 226.5 216.7 205.6 191.1 176.9 165 158.3 155.1 154.9 157.5 157.6 154.1 146.1 142.1 139 136.5 134.2 133 133 133.3 134.3 134.2 131.2 128.2 126.3 125.6 124.5 124.3 123.1 122.6 122.9 123.4 118 116.6 117.8 118.1 118.8 118.4 120.2 120.7 125.3 126.9 127.9 129.9 131.8 133.3 134.3 136 136 136.2 139.3 147.1 162.3 177.4 190.2 201.9 210.8 219.3 226.1 231.4 235.7 237.9 238.7 238.2 235.9 232.5 225.8 218.9 210.4 196.1 182.8 171.3 164.1 159.5 156.7 153.1 150.4 147.3 145 142.1 140.7 142.4 148.8 156.8 168 173.8 173.7 170.7 161.3 154.3 154.7 155.7 160.1 164.7 168.3 170.9 172.6 172.7 171.6 169.7 167.1 163.7 160.4 157.1 152.4
171.3 173 173.2 170.9 170.5 172.7 171.7 171.6 173.8 173.5 173.4 174.5 178.9 185.4 194.8 206.5 215.9 225.3 231.3 234.8 236.9 237.9 238.3 236.6 233 226.3 214.5 199.1 184.3 175 169.3 165.5 163.4 160.6 158.1 155.5 155.2 155.5 155.9 156 155.2 153 152.6 152.9 153.7 153.7 152.7 151.3 149.7 148.3 148.4 147.5 146.2 143.6 141.1 138.7 137.2 133.4 129.6 128 129.4 130.9 134.1 136.3 137.6 137 135 132.1 130.5 130.8 132.1 134.6 137.4 140.7 151.6 165.2 179.4 186.4 190.9 196.2 201.7 206.1 210.9 216 220.5 223.2 225.9 228.2 229.9 231.6 232.4 233.4 233.6 232.9 229.3 225.2 216.1 201.5 185.7 172.9 163.9 164.5 167.3 168.5 170.7 170.7 167.9 159.1 148 141.7 137.5 134.7 133.8 133.8 134.7 134.7 133 130.3 127.7 127.1 126.6 124.4 123.1 121.3 121.4 121.3 121.1 117.6 116.3 116.4 117.2 119.4 121.8 122.9 125.7 126.9 129.1 131.3 133.6 135.9 136.3 136.5 138.6 139.2 138.6 140 145 153 162.8 175.7 194.3 207.6 217.1 225.4 231.2 235.9 238.5 239.4 238.1 235.3 230.4 223 211.8 195.4 184.1 176.9 172.6 171.9 169.4 165.2 161.4 157.6 154.9 151.2 147.4 143.7 139.1 138.8 145.6 156.1 163.6 164.4 162.8 155.5 144.8 140.5 140.4 146.9 154.2 161.7 166.5 169.2 169.6 168.7 166.8 164.5 161.6 158.5 155.4 151.6
175.7 177.7 178.6 179.3 179.7 181.1 181.1 181.2 180.5 182.6 183.5 184.9 189.5 197.1 210.6 218.5 223.7 228.5 232.8 235.6 237.8 238.2 238.6 236.7 233.2 226.3 213.6 195 181.6 175.9 173.3 170.1 169.9 168.9 161.7 157.6 158.1 158.9 159.2 159.2 157 155.1 154.8 156.2 157.5 155.8 153.5 150.5 147.6 145.4 144.8 143.7 142.8 142 140.6 139.1 137.4 136.9 132.4 127.2 127.6 128.9 132.1 134 134.7 134.6 133 130.2 129.9 131 133.7 139 147.9 155.2 158.8 160.3 165.9 173.3 179.7 186.6 192.2 200.3 206.1 212.5 217.6 222.5 225.4 228 229.8 231.4 232.3 232.8 233.3 231.7 227.8 222.1 212.3 196 178.4 170.7 173.3 178.4 183.3 186 187.2 184.8 179.5 172.4 159.2 145.7 138.6 135.9 135 134.7 134.9 134.6 132.1 130 128.4 127.9 127.2 126.5 123.8 120.3 118 119 117 116.1 116.1 118.4 119.1 122 123.7 126.4 128.4 124.8 132.7 134.7 136.7 138.4 138.9 138.1 140.3 141.9 140.4 140.7 144.3 150.5 157.2 167.5 179.9 200.2 214.2 224.7 231 236.7 238.8 239.7 238.3 235.2 230.6 223.5 211.8 196.3 190.6 189.8 190.7 189.3 187 184.4 180.4 176.7 170.5 163.4 157.1 147.3 140.6 137 138.8 145.4 150.6 153 153.9 149.5 141.3 134.9 131.5 132.6 136.6 147.2 159.2 164.5 165.8 165.5 163.5 161 158.3 155.7 152.6 149.1
179.7 182.4 183.7 185.1 186.8 189 190.8 192.2 192.5 192.8 194.7 197.2 203.5 211 217 223 226.8 230.4 233.6 236.2 238 238.4 238.6 237.4 233.8 227.7 214.3 196.4 185.9 186.1 183.1 180.3 182.9 176.4 163.8 159.9 160.6 162 162.4 160.5 159.3 158.4 158.6 160.4 158.9 155.4 152.2 148.8 145.9 143.4 142.2 141.7 139.7 139.1 138.8 137.4 136.6 135.9 132.6 127.8 126.5 127.9 130.6 132.7 132 131.5 130.6 128.3 128.7 130.8 134.6 139.1 144.5 146.5 145 148 155.6 164.6 169 174.6 180.3 187.2 195.7 205.3 213.5 219.4 224.1 227.1 229.1 231 231.8 232.3 232.1 230.2 226 218.1 204.3 187.1 178.2 185.4 189.9 195.2 198.8 198.8 197.3 192.5 187.3 179.9 167 150.1 139.8 137.5 136.8 136.7 137 136.6 134 132.2 129.7 129.9 126.4 127.5 126.4 122.2 122.3 120.7 118.5 115.9 116.8 118 120.6 122.8 125.2 127.8 131.2 133.5 131.8 137.8 139.1 141 140.8 140.5 142.4 144.5 143.7 143.4 145.2 150.3 156.9 165.3 178.1 195.5 213.3 224.4 231.3 236.3 239.7 239.9 238.9 235 231.1 225.9 215.8 208.3 205.1 201.9 198.7 196.8 195.9 193.5 191.9 187 181.1 173.1 165 153.2 144.3 138.1 135.7 135 139.4 142.3 144.7 141.9 136.3 130.3 126.8 126.3 125 132.4 146.5 158.9 160.8 160.1 158.3 155.9 153 151.5 148.1 145
183.8 186.4 188.5 191.8 194.2 196.4 198 199.8 200.3 202.1 206.5 209 213.9 217.3 220.8 224.6 228.6 231.5 234.1 236.1 237.9 238.5 238.8 239 235.7 230.3 220.3 203.7 202.1 204.7 202.3 200.9 198.7 183.4 166.2 162.8 163.4 164.5 165.6 164.3 163.5 162.9 163.7 162.2 159.3 154.2 149.9 146.5 144.1 141.9 140.8 139.7 138.1 136.9 136.8 136.4 135.5 134.6 131.3 127.4 126.6 128.6 129.8 131.1 129.8 129.5 127.1 126.1 126.9 128.5 131.7 134.1 135.8 137.2 139.2 143.6 149.2 152.7 160.1 163.5 168 173.6 180.5 196.1 207 216.5 221.3 225.6 228.6 230.5 231.5 232 230.8 228.7 222.8 212.7 199.1 194.6 196.3 202.8 207.2 209 208.4 206.4 202.7 197.7 190 181.7 167.2 149.6 140.5 138.8 139.2 140.6 140.7 142 139.7 138.3 136.4 133.2 130.9 129 126.6 124.6 121.6 119.9 118 115.3 116.5 118.6 121.7 124.6 126.8 128.6 131.1 134.1 137.6 138.3 141.7 143.4 143.6 143.5 144.7 146.7 147.6 147.2 147.9 152.5 161.2 169.4 183 200 213.9 224.4 231.3 236.4 239.8 240.3 239.1 235.9 231.7 227.1 219.3 213.5 208.2 204.9 202.5 200.8 196.7 196.3 196.4 193.5 185.6 182.7 172.9 161.7 148.8 141.8 137.4 134.8 133.7 133.4 133.8 133.4 130.4 128.9 130.1 129.7 126.3 124.8 132.4 150.8 155.3 154.8 152.3 149.8 146.6 143.4 140.4 139
188.9 191.8 195.9 198.9 201.4 204.3 206.2 207.1 208.3 210.6 212.8 215.3 217.4 220.9 224.4 226.9 228.7 231 234.1 236 237.8 238.6 239.2 239.5 236.9 233.2 225.9 214.2 218.9 220.9 218 213.1 204.9 187.9 170.8 166 166.5 168.1 169.5 171.3 170.8 171 170.4 167.9 162 155.9 150.4 146.1 142.9 140.7 140.2 139.1 137.7 135.9 134.3 134.2 134.2 133.4 130.5 126.8 127.8 132.5 132 130.9 129.2 126.7 123.3 125.8 125.8 125.8 128.2 130.5 132.4 134.6 137.6 141.3 146 149.6 151.9 153.6 156.6 161.2 168.6 181.3 198.7 213.2 220.3 224.8 228 230 231.1 231.7 231 229 224.1 219.4 214.8 213.2 212.5 215.1 215.5 215.2 213.8 210.6 206.8 200.2 191.4 180.8 163 147.1 141.6 141.7 143.3 147.1 154.3 160.2 160.1 158.1 151.7 140.9 134.4 130.8 127.8 124.4 122.3 121.2 117.6 115 115.9 117.9 121.6 124.3 126.6 127.9 129.3 131.1 133.7 137.1 141.4 145.3 145.6 147.9 149 150.6 152.7 152.6 153.2 157.8 165.3 172.4 185.2 200.6 215.7 223.9 230.6 236.4 239.5 240.6 239.5 236.9 233.2 228.7 222 215.2 209 204.2 201.1 199.8 198.9 197 197 194.4 185.6 185.4 180.1 174.7 162 149.9 140.1 137.1 135.8 133.1 132.8 133.5 135.5 138.9 144.8 138.7 129.9 124.1 126.3 141 148.5 148 144.8 141.1 137.1 132.9 133 126.2
195.1 198.8 201.4 203.4 205.5 207.6 208.9 210.2 211.8 213.7 215.1 216.8 220.1 222.3 224.9 227.5 229.9 230.8 233.9 235.8 237.6 238.6 239.3 239.4 238.1 235.6 231.3 226 227.3 226.7 221.7 214.4 205 189.9 173.5 169.1 170.6 172.6 174.9 178.4 181.9 181.8 180.2 176.1 170.5 163.2 155.2 147.6 143.8 140.4 139.1 138 137 135.6 133.6 131.6 131.6 131.7 129 125.5 129.3 132.5 132.5 131.8 130.1 128.5 122.1 123.7 123.6 123.4 128.1 130.2 131.9 134 136.9 140 142.3 144.3 146.5 147.4 153.1 161 168.6 177 195.2 212.1 219 223.8 227 229.4 231.1 231.6 232 230.9 229.1 226.1 223.2 222.4 220.7 220.2 219.8 219 215.8 212.1 206.7 199.9 191.3 177 158.4 146.6 143.3 146.7 151.6 160.8 171.9 175.9 174.6 169.7 161.9 152.5 142.2 133.2 127.9 125.4 122.9 120.3 117 114.7 115 116.7 119.2 121.5 123.4 124.9 126.2 128.2 131 134.9 139.9 146 149.6 152.6 154.4 157.2 158.5 160.2 161.9 166.1 173.5 183.6 199.5 210.8 218.8 225.6 231.9 236.6 239.1 239.7 238.9 236.2 233.2 228.2 222.3 215.5 207 200.5 195 193.6 193.9 195.9 196.1 195.2 193.3 190 184.7 180 176.3 167.8 157.3 149.3 143 140.1 141.3 145.2 150.5 154.6 149.3 141 132 123.3 121.8 135.1 140.4 137.3 134.2 127.9 121.2 116.9 115.1 114.1
199.4 202.4 204.4 206.2 208.1 209.7 211.1 212.4 213.6 214.9 216.4 217.8 219.9 221 223.6 226.2 228.8 231.3 233.3 235.1 236.6 238.2 239.5 239.9 239.3 237.3 234.6 232.3 230.7 228.9 222.7 214.3 203.8 187 175.7 174 176.5 179.2 182.5 187.4 189.2 189.2 186.7 183.1 178.5 169.7 158.7 150.3 144.6 140.1 137.8 135.6 134.9 134 132.7 130.4 129 128.4 126.6 124.8 127.2 131.3 131.2 131.3 131.3 130.1 124.6 121.5 127.1 127.6 128.8 130.4 132 133.6 135.9 138.2 138.9 139.2 141 146.1 157.6 174.4 188.3 194.2 204.3 212.1 218 222.7 226.3 229 230.8 231.5 231.8 232.2 231.6 230.2 228 225.8 224.8 223.9 221.7 218.5 215 211 205.5 198.1 187.4 169.1 154.5 146.9 146.4 152.8 162 173.4 182.4 183.1 182 176.5 167.9 158 148 135.3 127.2 124.6 122.5 119.9 116.8 114.3 115.3 116.7 118.9 121.3 122.9 123.7 126.3 128.6 132.1 137.7 145.1 152.3 156.2 159.6 161.3 165.5 167.4 170.9 175.7 179.7 187.7 196.5 205.9 214.2 221.7 228.4 234.3 236.8 239.2 239.4 238.7 235.8 232.5 227.1 221.6 214.8 205.9 197 191.2 184.1 186 191.2 193.8 194.8 194 191.5 189.2 185.1 181.5 178.6 175.7 170.8 165.3 160.8 161.8 164.1 161.4 157 150.1 141.9 133 124 120.7 127.3 128.7 124.8 119.9 115.3 113.6 114.1 111.9 110.8
201.8 204.3 206 207.5 208.9 210.3 211.7 212.8 213.6 215.3 216.8 218.3 219.7 220.2 222.3 224.9 227.6 230.2 232.6 234.6 236.3 238 239.2 239.9 240.4 238.9 236.9 235.4 233.6 230.4 224 214.1 197.6 182.8 181.7 182.8 186.5 192.1 195.5 197.3 198.3 196.9 194.2 190.2 183.5 173.6 164.2 152.8 145.1 140.5 137.5 134.7 133.7 132.7 131.2 130.1 129.7 128.9 127.8 124.7 123.2 128.6 129.1 128.8 128.6 128.4 122.5 120.9 128.9 128.6 129.4 130.6 132 133.4 134.1 134.7 134.8 135.3 137.1 144.9 164.4 182.9 193.5 199.7 205.2 211.6 216.5 221.1 224.8 228.3 230 231.1 231.6 232.3 232.2 231.7 230.3 228.4 225.5 223 220.2 216.7 212.6 208.2 202.7 195.4 179.7 163.2 152.5 148 154.8 162.6 170.7 184.2 189.7 189 185.3 177.2 168.4 157.8 146.9 135.5 127.2 123.9 121.9 119.9 116.2 114.3 114.8 117.6 120.3 122.4 123.5 126.4 130.7 134.8 140.7 148.9 159.8 165.1 169.6 172.4 173.7 180.2 185.5 188.2 191 194 199.6 204.7 212.6 218.9 224.8 230.5 234.9 237.2 238.3 237.6 237 235.1 231.2 225.8 220.4 214.6 208.6 204.4 197.2 189.6 177.8 178.9 188.9 192.3 193 192.7 190.6 188.3 185.8 182.8 179.8 177.2 174.4 172.3 169.3 166.7 162.4 157.5 151.6 141.5 132.7 125.6 120.8 118.8 118.1 117 117.1 118.1 119.6 119.6 118.9 116
202.5 204.7 205.5 206.5 207.8 207.9 210.6 211.4 212.2 213.4 215.2 217 218.5 219.8 221 223.6 226.3 228.8 231.4 233.7 236.1 237.8 238.8 239.9 240.2 239.2 238.4 237.2 234.8 231.4 225.3 214.7 197.1 194.4 196.9 202.2 202.5 203.8 204.9 205 203.2 190.9 182.3 180.7 181.5 170.8 160 150.4 144.2 139.7 136.4 134.6 133.9 134 133.3 132.6 132 130.7 128.9 125.9 123.2 125 124.8 123.5 122.6 120.6 120.7 120.8 124.1 129.5 130 130.3 130.7 130.9 130.7 130.4 130.1 131.6 134.3 146.1 162.5 174 184.6 196 202.2 208.6 213.3 218.1 222.2 225.8 228 229.6 231.2 231.6 231.8 231.6 229.9 228.2 225 221 216.9 213.4 208.5 203.3 197.8 188.5 171.4 159.6 150.9 152.3 161.9 171.7 184.3 192.4 195.1 192 185.4 175.7 164.2 151.9 140.4 131.9 127 123.9 120.7 118.3 115.4 113.8 114.4 116.2 119.7 123 125.6 130.4 139.1 147.8 154.6 165.9 174.4 180.5 185.1 188.4 192.2 196.3 199.2 201.4 202.8 205.8 210.7 215.4 219.8 224.2 228 231.2 234.5 235.5 236.1 235.5 235.5 233.7 229.6 225.8 222 217.2 212.2 206.7 200.4 192.2 182.1 168.8 176.8 187.7 190.1 190.6 189.9 188.1 186.1 183.6 181.2 178.8 176.3 173.8 170.9 167.5 162.9 158 152.7 146.6 139.4 133.7 128.9 126.6 125.1 126 131.1 135.4 134.5 132.4 129.8 125.8
199.6 200.4 201.5 202.6 203.3 204.1 206.3 209 210.7 211.7 213.3 214.8 215.8 216.5 218.6 221 223.5 226.6 229.6 232.7 235 237.2 238.5 239.4 240.5 239.7 239 238.1 235.8 232.2 227.1 215.3 208.8 211 212.9 212.2 211.5 211.5 211.8 209.5 194.1 176.3 170.2 167.5 169.8 169.9 157.2 147.5 142.1 138.8 137.3 136.3 136.5 136.4 135.6 134 133 131.4 129.7 127.6 125.5 124.5 123.7 124 124.5 123.7 122.3 121.1 120.5 127.9 129.1 129.4 129.8 128.9 126.9 127.4 128.7 129.7 132.3 138.8 149.1 159 168.9 181.8 194.5 203.4 209.5 214.4 218.7 222.6 225.6 227.5 228.9 229.8 230.4 230.5 229.1 227.4 223.6 218.3 212.5 207.8 202.3 195.8 188.1 177.2 164.6 156 153 161.8 171.3 183.3 192.8 197.6 198.8 193.8 186.3 173.5 158.2 146.6 138.4 132.1 127.5 124.2 121.7 119 115.9 113.8 113.8 114.8 118.2 122.6 127.7 139.4 153.9 163.4 172.2 180.4 187 192.2 196.4 198.8 202.7 206.3 208.8 211 212.7 215.9 218.7 222.4 225.4 228.3 230.1 233.3 233.2 233.4 232.5 231.8 231.5 231.3 229.8 226.3 222.9 219.9 214.3 208 202.1 193.8 185.3 172.3 163 177.9 185.4 186.8 186.6 185.1 183.3 181.5 179.5 177.5 175.6 172.7 170.1 167 163.3 158 155.3 150.5 146.7 143.8 140.8 139.1 139.7 140 139.1 138.9 137.9 135.2 133.2 129.5
191.2 191.3 192.8 193.5 195.1 196.9 199.1 201.4 204 206.7 208.4 209.9 211 209.5 212.6 213.9 220.5 224.8 228.1 231.5 233.8 235.9 237.6 238.8 240 240 239.3 238.4 236.9 233.7 229.4 224.5 222.4 221.8 220.1 218.9 217.4 216.2 213.8 204.3 182 170.5 162.6 158.5 156.7 163.2 154.4 146.1 141.4 139.5 139.1 139.4 139.3 138.3 136.7 135.1 133.5 131.9 130.3 128.6 126.8 127 127.8 129.5 131 130.4 126.9 122.6 119.5 125.4 126.4 126.9 125.9 125.2 127.8 130.2 130.9 131.1 132 134.5 139.6 144.9 154.5 164.6 179.7 194 203.2 209.1 213.5 218.3 222 224.5 226.6 227.7 228.2 228.5 228 225.7 221.7 216 208.4 199.9 189.9 179 171.1 164.1 159.2 157.6 164.3 173.4 181.8 191.6 199 202.6 201.4 195.7 188 174.8 160.2 147.3 139 132.4 128.1 125.3 122.5 119.9 117.7 114.6 113.1 113.8 117.7 122.5 128.2 144.2 160.8 174 182.8 189.3 195.3 200.1 204 207.3 209.7 212.4 215.2 216.2 217.2 220.6 224 227 229.5 230.8 232.6 232 231.3 230.9 228.9 228.3 228.2 228.6 228.7 226.3 223.7 221.6 216.1 209.8 203 194.5 184.9 173.3 159.5 163.6 177.6 182.1 182 179.9 178.8 177 175.2 173.7 172.3 170.3 168 165.7 161.9 158.8 157 153.7 150.6 148.6 146.2 144 143 142 140.7 139.5 137.2 134.7 131.5 127.3
177.6 176.6 177.2 177.8 179.7 180.5 183.8 188 191.5 195.6 200.4 201.9 201.9 201.6 203.7 210.3 218.6 223.1 226.6 229.9 232.3 232.5 233.5 236 238.5 239.9 239.5 238.8 237.8 235.8 233.2 230.3 227.9 226.2 223.6 221 217.4 213.4 207.5 197.1 175.1 164.1 157.4 153.1 150.6 150.2 147.8 143.8 141.6 141.8 142.3 142.7 141.3 139 136.4 133.9 132 131.4 130 128.5 128.2 127.5 128.8 130.4 132.3 131.9 128.9 123.6 119.5 119.6 125.1 126.5 124.6 128.3 130.7 132.3 133 132.6 134.2 135.5 136.4 139.2 145.1 152.4 164.1 178.6 192.1 202.6 207.8 213.1 217.3 220.6 222.8 225.7 225.9 226.1 226.4 225.2 220.6 212.1 202.3 192.1 186.1 180.3 174.3 170.8 167.1 171.4 177.8 185 193 199.9 204.7 205.6 203.3 197.6 190.3 181.3 168.1 152.5 143.2 135.6 130 126.5 123.1 120.7 118.5 116.3 113.7 113.1 115.6 119.9 126.1 142.3 163.4 178.5 187.8 194.8 200.2 204.7 207.9 210.7 213.2 215.4 217.9 220.2 220.8 224.1 226.9 229.9 231.5 232.3 232.2 231 229.4 226.4 223.8 223.6 224.5 226.6 227.3 226.5 224.2 221.1 216.4 209.6 202.6 193.8 182.8 170.5 158.6 154.1 162.7 174.1 176.9 174 170.5 169.2 168.5 168 167.1 166 164.3 162.4 160.5 158.9 155.4 153.8 151.3 149.2 146.9 144.6 142.5 140.5 138.3 135.8 131.7 128.2 123.5 120.1
159.7 160.8 160.9 161 161.7 164.5 168.7 172.7 176.4 180.4 184.3 186.9 189.1 191.9 201.9 209.3 216.7 221.3 225 227.3 228.3 225.3 226.1 232.4 236.1 238.5 239.2 239.1 238.8 237.2 234.9 233 230.1 228 223.6 219.1 210.7 203.6 195.3 182.6 167.1 159.9 156.2 152.8 149.7 147 145.1 144 143.9 144.7 145.2 144.3 141.8 137.9 134.3 131.8 130.8 130 128.6 127.4 126.4 126.1 127.6 130.1 132.4 133.1 130.4 125.6 121 118.7 125.8 125.5 126.6 128.1 129.4 131.4 132.4 133.3 135.9 137.7 138.2 139.1 141 145.2 154.3 164.8 176.8 191.2 200.8 207.2 211.4 215.3 219.4 222.9 224.3 224.5 225.1 224.2 220.7 214.5 210.7 205.1 200.1 194 189.3 184.3 181.5 184.8 189.2 194.8 201.5 206.2 207.2 207.2 204.1 198.9 193.6 185.3 174.5 164 152.4 142.4 134.5 127.8 123.1 121 118.5 116.1 114.3 112.3 113.5 117.8 124 138.6 159.7 178.7 188.4 196.1 201.8 205.8 208.7 211.5 213.7 216.2 218.5 220.8 223.3 225.7 227.8 230.1 231.6 231.5 230.7 229 225.8 220.2 216.1 218 221 223.8 225.1 225.2 224.3 221.2 216.9 210.9 204.1 195.3 185.1 172.7 161.9 152.3 152 160.7 167.3 163.7 154.4 152.9 154.9 156.1 158.9 159.7 159 158.8 157.9 156.2 153.8 152.2 150.3 147.8 145.3 142.5 139 137.1 133.3 128.3 122.5 116.5 113.2 111.1
