ncols 200
nrows 87
xllcorner 210000
yllcorner 784900
cellsize 50
355.2 353.7 355 354.3 350.3 351.2 351.6 351.9 350.5 343.4 342.4 336.5 326.4 314.1 301.1 290.7 287.1 281 269 261.7 252.3 251.7 251.7 251.7 255 256.9 257.1 257.3 258.3 255.8 251.2 246.3 240 234.1 231.4 226 219.7 213.5 210.1 204.6 197.1 190.6 185.5 183.2 179.8 174.3 168.4 159.9 149.8 142.9 137.2 130.2 120.7 110.9 105.6 94 87.3 78.1 69.9 64.3 57.1 52.9 47.9 44.1 41.8 41.8 41.8 41.8 41.8 41.8 41.8 41.8 41.8 41.8 41.8 41.8 41.8 41.8 41.8 41.8 41.8 41.8 41.8 41.8 41.8 41.8 41.8 41.8 41.8 41.8 41.8 41.8 41.8 41.8 41.8 41.8 41.8 41.8 41.8 41.9 50.2 51.6 50.2 50.2 49 49.8 52 52.9 56.1 61.2 63.1 57.4 55 64.6 69.9 64.3 61.1 60.9 71.2 85.6 90.1 83.2 78.7 74.7 73.3 74.5 77.4 82.3 85 85 87.7 95.5 106.4 113.8 123 135.5 150 165 175.7 173.4 165.9 175.2 185.4 190.1 191.4 197.5 203.4 205 204.9 189.1 173.6 157.6 136.7 110.5 100.3 139.3 158.4 174.6 195.8 212.3 215.2 209.2 186.8 186.1 198.5 218.7 209 184.6 171.1 171.5 187.4 199.9 218.8 230.4 239.3 242.1 228.8 209.1 202.7 192.7 188.5 181.7 186 197.5 206.8 215.9 224.3 232.5 239 248.1 266.9 287.5 280.8 234.1 209.3 214.7 277.7 314 318.4 329.7
360.6 361.2 363.5 366.2 362.2 360 363.1 362.5 354.9 349.3 348.1 341.8 326.5 313.7 308.4 300.9 296.3 287.8 278.8 266.9 258 251.7 251.7 251.7 251.7 258.3 261 263 262.8 260.6 255.9 251.8 246.3 245.3 243.6 237.6 233.5 225.3 218.6 210.6 199.8 193.4 187.9 183.2 180.1 174.9 168 160.5 152 142.2 134 125.5 118.6 110.2 98.4 91.2 84.1 75.9 66.9 63.4 56 52.5 48.6 47.3 45.5 42.9 41.8 41.8 41.8 41.8 43.3 41.8 42 41.8 41.8 41.8 41.8 41.8 41.8 41.8 41.8 41.8 41.8 41.8 41.8 41.8 41.8 41.8 41.8 41.8 41.8 41.8 41.8 41.8 41.8 41.8 41.8 41.8 41.8 41.8 50 51.3 48.9 49.1 49.6 49.6 46.9 50 53.4 57.6 56.6 51.2 51.8 61.1 66.7 56.7 48.1 46.2 53.6 62.6 65.2 61.1 58.5 56.2 58.9 63.7 67.2 73.5 71.6 72.6 78.6 88.7 97.5 102.3 112.9 123.8 137 150.9 156.4 154.4 155.9 164.8 174.2 180.2 185.6 190.2 192.3 193.1 191 179.4 161.6 142.2 116.3 89.8 115.6 145.1 166.1 187 208.1 219.7 222.8 223.9 209.4 188.3 179.1 173.7 176.3 165.5 149.8 147.3 160.2 177.9 192.4 209.9 219.7 219.2 207.2 183 172.1 166.5 162.3 159 169.7 178 186.8 195.6 204.2 212.4 218.3 223.2 232.2 248.1 245.9 194.8 165.3 218.6 259.5 278 283.1 277.5
367.7 373.3 371.2 369.5 369.1 369.2 371.1 367.2 358.7 356.8 355 347.8 331.7 318.4 310.3 309.6 306.1 297.5 286.7 276.9 265.8 254.9 251.7 251.7 252.3 256.8 262 263.2 264.1 262 261 257.5 252.7 247.9 246.4 245.5 241 231.1 222 216.9 207.3 195.8 187.3 182.2 178 171.3 164.4 156.6 147.6 137.9 129 122.4 113.7 103.3 94.8 87.9 82.8 76.6 65.9 62.6 57.5 55.7 52.6 50.6 47.9 46.9 45.1 43.2 44.4 44.6 41.8 43.5 43 44.2 42.3 41.8 41.8 41.8 41.8 41.8 41.8 41.8 41.8 41.8 41.8 41.8 41.8 41.8 41.8 41.8 41.8 41.8 41.8 41.8 41.8 41.8 41.8 41.8 41.8 41.8 41.8 49.3 47.1 46.9 47.5 50 44.9 48.2 52.7 57.4 49.3 50.8 50.7 56.5 53.4 41.8 41.8 41.8 41.8 41.8 41.8 41.8 41.8 41.8 44.4 52.1 58.8 61.3 60.2 64.3 70.5 82.2 87.9 93.9 99.5 110.2 118.6 129.5 135.2 133.4 141.6 153.3 163.7 171.1 178.8 180 180.7 177.9 173.4 164.1 145.5 123.4 98.8 95.7 121.5 147.3 168.6 190.4 207.4 215.8 225.2 224 204.9 187.2 198.7 199.6 168.5 146.4 131.6 128.9 131.6 141.6 161 176.8 195.6 178.9 167.1 152.3 147 144.4 142.5 143.1 151.7 158.8 167.2 176.3 184.3 191.8 197.4 203.3 208.4 215.3 207.2 183.2 161.9 212.8 242.9 257.7 260.1 258.4
372.6 375.2 378 371.5 372.4 372.9 371 370.3 366.3 364.8 365.8 353.3 339.6 322.8 314.4 310.8 306.8 299.6 294.9 287.9 274.5 258.3 252.1 254.7 251.9 253.6 259.8 262.8 263.7 262 259.7 258.7 256 252.3 247.4 242.9 236.9 230.6 223.7 213.5 203 192.9 184.8 178.4 173.9 170.4 160.9 155.7 146.7 136.9 126.5 115.8 110 102.6 92.8 86.3 81.9 70.7 65.7 62.6 57.6 54.6 51.3 48 47.4 46.9 45.5 45.2 45.6 43.2 45.1 44.4 43.8 44.8 43.5 43 41.8 41.8 41.8 41.8 41.8 41.8 41.8 41.8 41.8 41.8 41.8 41.8 41.8 41.8 41.8 41.8 41.8 41.8 41.8 41.8 41.8 41.8 41.8 41.8 41.8 43.1 44.8 45.7 46.2 46.6 44 47.2 52.1 53.2 50.7 52.9 52.2 55 44.7 41.8 41.8 41.8 41.8 41.8 41.8 41.8 41.8 41.8 41.8 41.8 44.9 45.5 48.8 55.8 65.9 79.7 79.7 85.4 91.5 103.8 114.8 109.1 110.9 115.9 125.9 142.3 154.5 163.3 169.6 170.2 169.2 162.6 153.2 141.7 123.5 101.4 77.2 102.5 129.8 149.8 175.4 190.4 199.6 204.8 207.6 198.8 184.7 184.3 197.8 186.1 157.1 129.9 112.1 108.6 106.2 116.6 132.2 150.8 179.7 163.6 146.1 131.7 128.5 130 125.6 125.4 132 138 144.1 152.6 161.4 170.2 178.2 183.6 186 188.2 179.4 153.3 158.9 203.3 214.8 225.1 233 236.2
374.2 376.2 375.6 373.8 374.9 377.8 373.4 370.1 368.3 367.6 362.4 351.5 341 329.4 326 318.2 311.3 309.7 298.4 291.4 277.8 263 261.9 260.4 254.8 253.4 258.9 261.9 263.9 262 259.7 257.1 255.2 249.6 244 241.6 233.7 227.8 217.7 211.8 202.7 193.5 185.1 178.1 171.4 165.4 156.1 147.8 144.6 131.5 120.8 111.1 104.7 96.5 90.1 85.2 78.1 69.5 64.1 61.1 57.2 55 51.5 50.3 50.6 49.9 48.6 47.1 46.2 43.7 43.9 43.7 44.2 44.7 44 43.8 43.2 42.5 41.8 41.8 41.8 41.8 41.8 41.8 41.8 41.8 41.8 41.8 41.8 41.8 41.8 41.8 41.8 41.8 41.8 41.8 41.8 41.8 41.8 41.8 41.8 41.8 42.5 44.2 44.7 45.3 45.3 43.8 45.5 43.9 48 51.6 52.6 50.5 41.8 41.8 41.8 41.8 41.8 41.8 41.8 41.8 41.8 41.8 41.8 41.8 41.8 41.8 41.8 48 62.1 69.3 73.7 79.9 86.8 94.1 97.2 98 96.9 99.7 110.6 132 147.1 154.3 155.3 150.9 145.8 139.5 129.4 115.8 99.5 76.4 85.3 108 137.4 159.9 176.6 189 196.4 196.1 192.5 184.8 180.2 186.6 192.8 172 139.4 119 107.5 104 102.3 101.9 106.2 117.8 124.5 122.7 119.2 110 112.4 111 109.6 105.6 112.8 117.4 119 125.4 134 142.7 151.1 158.1 160.3 161.9 155.7 142.8 153.4 178.9 187.6 195.6 200.8 221.6
374.8 376.4 371.9 372.2 374.9 375.2 379 371.6 369.2 366.6 364.6 353.8 341.4 333.6 331.7 324.7 318.9 312.7 303.2 298.4 287.2 270.6 264.7 261 257.4 255.5 258.4 260.8 261 260.1 258.3 254.2 247.3 242.6 237.9 234.5 226.9 222 215.3 209.5 201.2 191.1 182.9 174.7 167.9 157.5 150.2 140 135.4 125.7 115.7 105 106.1 93.4 86.5 80.6 71.6 65.1 63.1 59.9 57 55.4 51.9 51.4 52.8 50.8 48.5 48 45.6 43.5 42.8 43 43.9 45.1 44.6 45.1 45.3 43.8 43.4 41.8 41.8 41.8 41.8 41.8 41.8 41.8 41.8 41.8 41.8 41.8 41.8 41.8 41.8 41.8 41.8 41.8 41.8 41.8 41.8 41.8 41.8 41.8 41.8 41.8 42.5 42.9 43.3 43 43 41.9 45.3 46.2 45.6 41.8 41.8 41.8 41.8 41.8 41.8 41.8 41.8 41.8 41.8 41.8 41.8 41.8 41.8 41.8 41.8 41.8 53.7 57.6 69.4 80.7 83.9 86.7 93.8 101.3 96.7 89.5 99.4 119.9 134.8 144.3 140.5 132.1 126.4 117.6 108.4 96 83.9 70.9 83.2 98.4 122.7 141.9 160.3 178.3 187.1 183.6 180.1 177.7 177.8 179.8 185.4 160.3 126.1 108.7 100.3 98.6 96.8 95.8 95.2 93.8 90.4 93.5 100.2 93.1 95.7 95 92.4 90.5 94.2 96.3 93.7 98.1 107.3 116.2 124.5 131.1 133.9 132.4 127 106.9 139.5 152.5 160.3 170.3 180.3 196.3
371.6 371 370.9 371.4 373.8 374.5 373.7 371.4 368.4 366.4 359.8 346.9 342.7 343.3 338.6 333.3 325.6 316.9 307.6 300.9 293.6 275.7 267.9 264.5 260.7 255.4 257.5 259.4 255.4 252.7 250.1 247.9 241.6 236 233.3 225.4 218.5 214 208.2 201.6 195.4 186.2 178.5 169.6 160.6 151.4 141.7 134.8 125.7 117.9 108.1 100 94.1 87.5 82.3 76.8 68.9 64.3 60.7 56.9 56 53.9 53.7 53.4 52.9 50.5 49.3 48.5 47 46.5 45.3 44.2 45.2 43.5 44.5 43.5 42.3 44 42 43 41.8 41.8 41.8 41.8 41.8 41.8 41.8 41.8 41.8 41.8 41.8 41.8 41.8 41.8 41.8 41.8 41.8 41.8 41.8 41.8 41.8 41.8 41.8 41.8 41.8 41.8 41.8 41.8 41.8 41.8 42.4 41.8 41.8 41.8 41.8 41.8 41.8 41.8 41.8 41.8 41.8 41.8 41.8 41.8 41.8 41.8 41.8 41.8 41.8 41.8 41.8 48.1 65.6 75.2 77.2 82 85.6 90.9 84.8 81.2 89.8 106.3 123.3 130.8 125.7 115.5 107.6 99.1 90.2 82.1 74.9 66 74 74.3 91.7 112.5 129.8 147.4 153.1 152.6 160.9 167.9 171.3 166.9 166.2 146.4 113.5 98.1 90.9 89.9 90 90.3 87.8 80.7 81.8 82.8 84.2 82.2 80.4 79.1 75.3 68.3 72.4 74.7 75.7 79.8 83.8 89.7 98 104.9 109.2 109.7 103.7 81.7 116.2 130.4 140.7 148.2 156.4 162.7
367.4 370.2 370.5 371.1 371.2 371.7 372.5 373.1 364.8 357 354 352.4 352 349.2 343.8 337.3 331.8 323.6 317.2 304.7 290.5 280.8 274.3 270.4 265.8 253.7 248.1 251.5 249.3 246.6 245.3 243.9 237.6 231 223.1 217.4 211.7 206.4 196.2 193 183.3 178.7 171.3 161.9 154 145.1 139.8 128.9 122.5 109.4 100 97.5 89.7 82.3 76.4 72.2 68.3 68.1 61.6 57.4 55.1 55.2 55.4 54 52.7 52 50.4 49.9 49.5 46.9 45.5 45.5 43.5 46.2 45.9 44.6 44.7 43.4 42.1 42.7 41.8 41.8 41.8 41.8 41.8 41.8 41.8 41.8 41.8 41.8 41.8 41.8 41.8 41.8 41.8 41.8 41.8 41.8 41.8 41.8 41.8 41.8 41.8 41.8 41.8 41.8 41.8 41.8 41.8 41.8 41.8 41.8 41.8 41.8 41.8 41.8 41.8 41.8 41.8 41.8 41.8 41.8 41.8 41.8 41.8 41.8 41.8 41.8 41.8 41.8 41.8 41.8 49.3 58.7 69.8 77.7 78.6 73.7 69.4 67.6 76.3 89.6 101.8 108.8 105.8 98 90.3 81.9 74.8 67.1 60.8 45.5 53.3 55.8 60 82.8 98.8 106.7 114.5 124.3 139.1 146.1 149.7 142.7 139.2 124.3 103.1 87.8 80.2 82 83.4 85.8 80.2 72.9 74.7 75.2 73.9 70.3 65.6 63.4 61.4 58.6 57.9 57.8 58.4 62.8 65.9 68.5 73.7 81.3 86.3 87.8 83.4 72.6 85.4 102.1 115.9 118.1 123.8 124
365.2 367.8 366.7 369.3 369.8 369.8 366.5 363.7 355.9 355.4 358 358.1 357.4 355.1 348.4 340.9 332.6 326 318.3 313.9 307.7 302.4 288.5 278.7 266.2 254.5 243.7 239.8 240.3 240.6 234.3 236 230.2 226.4 214 204.7 200.6 194.6 185.1 179.9 172.1 166.6 159.3 154.7 144.2 140.2 133.6 122.1 116.7 102 96 89.7 82.5 77.2 73.9 68.9 66.2 64.5 59.5 56.5 56.6 56 56 54.8 53.7 51.5 50 51.9 47.6 45.5 43.1 46.8 46 45.9 45 44 44 44.4 42.3 41.8 41.8 41.8 41.8 41.8 41.8 41.8 41.8 41.8 41.8 41.8 41.8 41.8 41.8 41.8 41.8 41.8 41.8 41.8 41.8 41.8 41.8 41.8 41.8 41.8 41.8 41.8 41.8 41.8 41.8 41.8 41.8 41.8 41.8 41.8 41.8 41.8 41.8 41.8 41.8 41.8 41.8 41.8 41.8 41.8 41.8 41.8 41.8 41.8 41.8 41.8 41.8 41.8 41.8 44.8 59.3 63.9 60.9 60.4 58 53.3 59.9 70.2 77.1 81.4 81.1 75.6 66.6 60.6 53.4 48.7 48.1 48.8 50 51.6 52.2 55.8 64 73.9 83.6 93.3 103.5 112.5 116.3 111.3 105.3 94.7 83.5 73.4 72.1 71.4 62.7 68.3 67.4 65.6 65.7 65.2 63.3 59.1 56.8 54.3 53.5 52.2 50.8 48.7 50.7 50.9 51.4 49.4 49 54.7 61 65.3 65.7 60 65.6 67.4 73.6 82.5 89.5 98.2
363 363.2 363 366.7 368.8 368.5 359.9 358.5 360.4 362.2 361.6 360.8 360.8 356.1 351 346.2 341.4 336.7 333.4 328 322.4 316.8 304.7 291.3 270.3 258.5 247.7 233.4 231.2 229.8 225.9 225.5 217.7 214.5 204.9 197.6 186.4 184.3 175 171 161.1 154 147.6 144.1 135.6 129.5 124 119.3 108.8 97.1 89.2 84.1 78.8 74.2 69.6 70.2 66.1 62.7 60.8 56.6 56.5 56.6 56.9 55.4 53.5 51.4 49.8 45.5 44.8 44.9 46.7 46.4 46.1 45.6 44.8 44.1 43.9 42.4 42.2 42.6 41.8 41.8 41.8 41.8 41.8 41.8 41.8 41.8 41.8 41.8 41.8 41.8 41.8 41.8 41.8 41.8 41.8 41.8 41.8 41.8 41.8 41.8 41.8 41.8 41.8 41.8 41.8 41.8 41.8 41.8 41.8 41.8 41.8 41.8 41.8 41.8 41.8 41.8 41.8 41.8 41.8 41.8 41.8 41.8 41.8 41.8 41.8 41.8 41.8 41.8 41.8 41.8 41.8 41.8 41.8 41.8 41.8 45.6 41.8 41.8 41.8 42.7 50.4 55.1 49.6 44.9 44.8 45.6 45.2 45.4 45.6 45.7 48.2 50.5 52.1 53.7 57.6 58.4 60.1 68 75.3 83.7 86.6 83.4 79 71.9 62.4 61 63.1 59.4 58.1 58.1 58 56.2 60.3 60.3 58.8 59.5 60.2 58.1 57.6 55 51.6 48.6 48.4 48.1 48 48.1 46.9 47.9 49.6 51.3 52.3 54.2 53.3 52.3 50.7 51.6 55.2 62.1
360.6 360.6 360 362 363.2 361.8 361.3 364.6 366.2 363.2 363.3 362.6 361.4 357.7 352.4 350.8 347.8 343.6 342 335 330.8 317.8 305.6 288.7 274.3 266.6 250.2 233.9 225.1 211.9 214.1 211.3 207.1 200.9 195.7 186.2 178.4 171.1 164.5 159.5 151.2 144.1 139.6 130.6 125.2 118.8 115.4 109.6 104 94.2 84.9 78.7 76.5 75.8 68.5 66.7 63.1 63.3 59.1 56.6 55.6 58.7 58 54.4 53.2 51 45.5 49.3 47.9 47.5 46.9 46.7 47.6 46 45.8 45.5 45.6 44.7 43 41.8 41.8 41.8 41.8 41.8 41.8 41.8 41.8 41.8 41.8 41.8 41.8 41.8 41.8 41.8 41.8 41.8 41.8 41.8 41.8 41.8 41.8 41.8 41.8 41.8 41.8 41.8 41.8 41.8 41.8 41.8 41.8 41.8 41.8 41.8 41.8 41.8 41.8 41.8 41.8 41.8 41.8 41.8 41.8 41.8 41.8 41.8 41.8 41.8 41.8 41.8 41.8 41.8 41.8 41.8 41.8 41.8 41.8 41.8 41.8 41.8 41.8 41.8 41.8 41.8 42.4 43.2 43.5 44.4 44.9 45.4 46.6 42.7 51.9 57 63.6 70.2 74.7 77.9 78.9 76.5 71 64.5 58.8 59.2 60.2 63.4 62.5 63 64 69.1 76.5 82.7 89.8 95.7 98 98.7 99.9 84.9 80 73.8 68.2 60.6 55.4 47.5 47.4 48 47.4 48 46.8 47.3 48.3 49.1 49.8 50 48.6 49.1 48.2 46.9 45.4 45
356.8 353.4 359.6 360.7 360.8 360.7 362.7 364 363.6 360.7 358.9 360.7 358.3 354.7 352.2 352.3 348.9 348.1 341.1 334.6 323.4 313.3 300.4 281.1 268.1 257.2 244.3 230.4 223.1 209 202.7 199.5 195.2 189.1 185.7 176.1 170.8 163.6 154.6 150.3 142.3 136.1 126.5 121 118.9 109.2 101.7 97.9 92.5 85.7 81 80.6 74.4 70.6 67.6 66.3 61.3 60.6 57.5 55.7 54.3 56.3 56.2 54.4 51.6 49.8 46.7 49.8 49.1 49.5 49.1 48.4 49.4 48.3 48.1 47.1 47.2 46.2 44.2 43.2 41.8 41.8 41.8 41.8 41.8 41.8 41.8 41.8 41.8 41.8 41.8 41.8 41.8 41.8 41.8 41.8 41.8 41.8 41.8 41.8 41.8 41.8 41.8 41.8 41.8 41.8 41.8 41.8 41.8 41.8 41.8 41.8 41.8 41.8 41.8 41.8 41.8 41.8 41.8 41.8 41.8 41.8 41.8 41.8 41.8 41.8 41.8 41.8 41.8 41.8 41.8 41.8 41.8 41.8 41.8 41.8 41.8 41.8 41.8 41.8 41.8 41.8 41.8 42.3 44.9 44.4 43.7 44.3 44.9 45.7 44.4 51 60.7 69.3 80 90.7 97.4 102.9 105.8 105.3 103.5 99.4 95.3 93.5 91.5 87.4 82.8 79.2 83 91.8 99.6 109.3 119.2 128.3 132.7 135.8 133.4 112.5 110.2 104.7 82.4 77.3 72.9 64.4 53.4 49.5 48.4 48.3 48 47 46.6 47 47.3 47.1 46.6 46.5 45.7 43.9 41.9 41.8
347.8 352 355.8 358 355.1 357.4 360.1 357.1 354.8 352.6 351.6 351.8 349.4 348.7 347.8 347.5 346.2 343.8 340.3 328 319.5 302.1 289.4 277 268.1 253.9 241.8 228.6 216.2 206.9 201.1 194.5 185.7 179.1 174.5 168.8 160.5 154.7 146.8 139.9 133.4 129.3 122.1 111.9 110.3 102.6 96.3 90.9 86.2 80.5 76.6 74.8 70 67.7 65.4 64.9 61 58 58 58.1 56.2 52.9 50.4 49.1 52 53.2 51.9 51.4 49.3 51.4 51.9 52 50.8 50 50 50.2 48.5 48.9 47.2 44.5 42.7 41.8 42.1 41.8 41.8 41.8 41.8 41.8 41.8 41.8 41.8 41.8 41.8 41.8 41.8 41.8 41.8 41.8 41.8 41.8 41.8 41.8 41.8 41.8 41.8 41.8 41.8 41.8 41.8 41.8 41.8 41.8 41.8 41.8 41.8 41.8 41.8 41.8 41.8 41.8 41.8 41.8 41.8 41.8 41.8 41.8 41.8 41.8 41.8 41.8 41.8 41.8 41.8 41.8 41.8 41.8 41.8 41.8 41.8 41.8 41.8 41.8 41.8 43.6 42.9 43.2 42.8 45 43.7 42.7 49.1 58.4 68.7 82.1 94.2 102.8 109.1 116.4 125.6 139.1 142.4 137.9 134.7 137.7 134.1 111.1 103.7 96.8 97.7 98.5 101.3 110.8 113.3 121 130.9 126.3 126.1 119.4 123.5 118.7 98.1 98.3 95.3 79.6 68.9 64 64.6 64.1 59.3 55.5 50.9 49.1 47.9 53.6 49.3 44.3 42.8 41.1 40.8 39.4
344.7 342.5 345.3 344 346.4 347.5 346.9 345 343.5 345.1 345 342.8 340.9 339.4 341.2 340.7 337.7 333.3 327.2 314.5 307 290.8 282 274.6 262.8 250 231.8 224.1 216.6 204.5 193 182.4 180.3 174.9 167.7 158.7 152.3 143.4 137.8 132 127.6 119.6 112.7 105.9 105.7 95.1 89.7 85.3 79.9 76.2 73 70.4 68.6 66.2 65 63.1 63.7 60.5 59.1 58.6 52.3 52.5 52.8 53.3 55 54.6 54.4 51.8 53.6 53.8 54.3 53.8 53.7 52.4 52.7 52 51 51.1 50.5 49.3 46.3 45.4 45.5 41.8 41.8 41.8 41.8 41.8 41.8 41.8 41.8 41.8 41.8 41.8 41.8 41.8 41.8 41.8 41.8 41.8 41.8 41.8 41.8 41.8 41.8 41.8 41.8 41.8 41.8 41.8 41.8 41.8 41.8 41.8 41.8 41.8 41.8 41.8 41.8 41.8 41.8 41.8 41.8 41.8 41.8 41.8 41.8 41.8 41.8 41.8 41.8 41.8 41.8 41.8 41.8 41.8 41.8 41.8 41.8 41.8 41.8 41.8 42.7 42.8 42.5 43.5 44.4 46.1 46.7 50.4 54.8 63.3 72.7 85.3 98.4 110.8 119.2 127.1 137.4 154.8 159.3 160.2 157.1 151.6 146.5 118.3 111.9 111 112.3 104.8 104.2 104.1 106.1 109.4 115 120.1 124 123.2 125.2 117 109.7 104.4 98.6 88.6 84.9 84.5 92.1 93.8 81.1 67.3 64.3 59.1 60.6 65.7 64.5 56.7 48.5 42.3 41.7 40.5
337.5 333.7 335.3 333.5 337.3 335.2 338.3 331.2 332.9 331.6 332.4 330.2 327.9 326.8 328.5 326.2 321.4 312.1 305.6 294.9 283.7 276 270.2 264.7 253.6 242.3 225.7 218.3 204 196.7 189.2 180.4 170.6 166.8 162.3 154.5 145.1 137.1 131.2 125.4 120.1 113.2 107.3 100.9 94.7 90.7 83.8 80.1 76.6 74.5 73.8 70.7 68.8 68 66.2 64.5 62.2 59.8 55 55.6 55.5 55.6 55.4 55.9 55.6 55.6 55.7 54 56.3 56.1 56.4 56.4 55.2 55.7 54.6 53.2 52.1 52.4 54.2 51 49 47.5 47.1 46 42.3 41.8 41.8 41.8 41.8 41.8 41.8 41.8 41.8 41.8 41.8 41.8 41.8 41.8 41.8 41.8 41.8 41.8 41.8 41.8 41.8 41.8 41.8 41.8 41.8 41.8 41.8 41.8 41.8 41.8 41.8 41.8 41.8 41.8 41.8 41.8 41.8 41.8 41.8 41.8 41.8 41.8 41.8 41.8 41.8 42.8 41.8 41.8 41.8 41.8 41.8 41.8 41.8 41.8 41.8 41.8 41.8 41.8 43 43.6 41.9 43.4 45.2 47.5 48.8 52.7 58.9 66 75 85 95.1 107.4 120.1 131.8 141.2 152.3 157.8 158.2 155.8 153.8 145 118.5 112.5 113.9 113.2 105.2 102.3 101.1 101.9 106.2 110.8 115.8 119.9 119.3 119.3 115.8 111.2 107.3 101 96 95.4 97.1 105.4 111 96.3 77.1 71.9 66.2 64.8 65.2 65.4 57.6 47.3 40.6 41.4 41.7
327.6 325.8 325.2 318.4 320.7 319.5 316.9 317.2 316.6 315 317.4 314.4 313.9 310.6 311.3 304.5 298.5 288.4 280.9 273.3 264.3 260.5 255.1 246.7 243 226.5 212.8 206.4 193.3 185.7 176.6 171.5 168.4 160.6 152.4 145.1 139.4 132.1 124 119.2 113.8 106.9 103.8 96.4 89.6 83.2 79.9 76.9 74.7 71.9 71.5 70.7 70.1 70.4 66 64.1 60 58.5 59.3 59.2 59.5 59.3 56.8 56.6 57.2 57.7 57.3 57.7 58.4 58.6 59.3 59.2 58.9 58.7 57 56 54.5 53.6 54.4 52.9 51.8 51.3 50 47.6 45 42.3 41.8 43 42.3 41.8 41.8 41.8 41.8 41.8 41.8 41.8 41.8 41.8 41.8 41.8 41.8 41.8 41.8 41.8 41.8 41.8 41.8 41.8 41.8 41.8 41.8 41.8 41.8 41.8 41.8 41.8 41.8 41.8 41.8 41.8 41.8 41.8 41.8 42.2 54.5 63.3 66.4 66.7 68.8 68.4 65.9 60.4 55.9 55.9 57 61 67.5 58.4 50.8 49.1 48.9 44.6 42.8 43.4 42.2 42.6 44.4 47 49.8 54.1 59.1 65.9 73.9 83.9 91.2 101.8 112.8 124.3 136.5 146.2 155.9 156.7 154.9 152.3 136.5 119.1 111.4 108.4 104.9 100.9 99.5 98.8 97.9 101.9 106.2 110.2 112.1 112.1 111 108.7 105.3 103.7 101.6 99.3 98.5 99.2 101.3 110.5 99.9 77.3 71 67.7 65.5 62.4 53.7 45.2 40.4 39.6 39.1 38
315.6 310.2 313 306.6 299.2 297.6 298.8 298.5 300.2 299.5 300.6 297.8 294.2 291.9 290.6 284.4 274.6 265.9 260.2 253.6 247.1 245 238.3 228.2 222.9 216.1 203.1 195.4 186.5 177.9 168.5 164.2 162.1 157 148 141.2 134.1 124.8 116.9 110.4 105.5 100.8 94.4 90.3 84.4 80 77.5 74.9 73.2 70.3 70.8 69.1 67.5 69.2 63.6 60.9 56.6 60.8 61.6 61.2 61 59.1 58.9 58.9 58.7 59.4 59.5 59.8 59.9 60.7 61.4 62.8 61.6 61 59.2 59 58.1 58.4 57.3 54.8 55.3 54.9 53.6 50.7 48.1 46.7 47 46.9 45 41.8 41.8 41.8 41.8 41.8 41.8 41.8 41.8 41.8 41.8 41.8 41.8 41.8 41.8 41.8 41.8 41.8 41.8 41.8 41.8 41.8 41.8 41.8 41.8 41.8 43.8 42.6 41.8 41.8 41.8 41.8 43.7 51.8 56.9 63.9 75.1 83.5 88.6 92.4 92 92.3 86.9 78.5 74.6 75.1 80.1 82.7 94.2 80.2 67.6 64.9 60 52.4 45.5 43.3 42.9 42.9 43.9 45.9 48 52.3 57 62.9 70.1 78.5 85.8 92.9 102.5 112.9 126.3 136.3 143.6 153.1 150.4 141.6 128.5 117.3 109.5 106.3 103.9 99.7 98.3 97.2 96.3 97.1 100.6 103.2 103 102.1 100.9 98.7 94.6 93.7 90.6 92.2 97.1 98.5 96.5 91.1 86.2 73.1 72.9 72.4 60.9 51.4 41.9 39.4 38.6 38.3 39.8 41.6
301.3 296.6 296 295.3 284.4 280.6 278.3 278.2 282.6 280.6 280.7 279.8 275.7 272.4 269.6 264.5 256.8 248.6 243.7 241.3 235 227.2 223.1 215.4 209.9 201 191.7 184.7 176.9 167.1 163.3 157.5 154.7 147.2 135.8 128.1 124 116 113.3 105.4 101.6 93.4 88.8 85.5 81.7 76.9 74 74 70 69.2 68 65.9 63.7 60.9 62.3 61 61.9 63 63.8 62.5 61.7 63 63 61.4 60 60.6 61.8 61.9 63.6 64.9 65.3 66 63.1 64.1 63.8 63.3 63.9 63.8 62.2 61.4 62.2 60.7 59.4 58.8 59.7 60 58.9 52.9 56.2 54.2 54.9 55.6 49.8 43.3 41.8 41.8 41.8 41.8 43.6 45.2 49.6 50.1 51.3 51.2 52.7 52.7 53.7 52.8 56.7 70.5 62.9 44.4 41.8 48.3 57.4 55.3 51.9 52.3 57.4 59.1 61.4 68.9 77.3 80 91.8 102.9 107.1 113.9 113.3 110.8 108.5 104.9 104 100 106.7 105.2 112.4 95.4 93.1 86.5 68.2 58.4 46.9 44 43.3 42.8 41.6 44.3 45.7 50 54.2 59.6 66 72.4 78.3 84.9 91.4 101.5 111.9 119.9 125.6 130.4 132.5 131.2 126.3 118.8 111.5 113.3 107.5 100.2 99 97.7 96.5 94 94.6 94.9 94 93.1 90.2 87.4 81.7 73.7 72.7 77.4 81.9 84.4 82.5 82.7 82.4 68.4 65.8 65.2 50.4 41.7 39.4 38.5 38.5 39.5 43 41.4
287.8 284.1 278.2 274.8 271.7 264.1 261.7 259.7 263.7 262.9 261.9 258 254.5 253.4 247.6 246.8 239.9 232 226.6 222.1 219.2 210.4 205.1 203.6 194.5 185.2 179.1 175.6 164.5 159.4 152.8 148.2 145.1 137.1 126.7 120.6 114.8 109.6 105.1 99.4 95 88 84.5 81.8 78.3 76 72.9 71 69.7 67.8 65.9 65 64.8 65.8 65.4 63.7 64.2 65.1 65.1 65.4 63.3 62.5 64.1 64.4 62.5 62.2 62.8 63.6 67.2 68 69.2 69.2 67.9 68.1 68.5 68.2 69.4 68.8 72 69.9 70 69.9 68.3 69 69.7 71.1 70.5 68 70.7 73.1 75.1 77 73.6 69.4 67 70.7 72.4 70.6 71.1 73 74.2 75.1 78.8 78 75.9 80.1 82.1 79.4 81 87 83.9 66.6 60.2 61.2 63.9 63 60 65.7 71.9 74.8 78.2 84.3 92.1 99.8 108.4 114.5 121.1 128.8 133.2 131.1 126.6 125.6 123.5 120 122.1 119.5 120.1 108 109.6 100 84.6 72.5 54.8 44.1 43.9 43.6 41.7 41.6 44.9 47.6 51.9 55.7 61.1 65.6 70.2 76 81.5 88.6 97.5 102.7 107.4 111.7 114.1 117.4 120.7 119.3 118.5 122.2 115.5 112.5 108.9 100 98.3 95 90.9 87.1 86.3 82.6 78.8 74.5 68 59.3 55.5 62.7 68 69.8 75.3 82.6 86.4 63.8 57 54.4 49.1 41.8 39.3 38.5 38.9 40.8 40 38.9
274.3 270.1 261.8 261.6 255.2 246 243.6 243.4 250.6 244.1 241.7 240.8 236.1 233.6 225.9 225.7 219.6 214.7 210.2 202.3 200.4 193.2 186.4 184.5 179.3 173.4 167.2 160.6 155.2 145.7 141 134.5 130.6 123.7 117.9 111 106.6 103.2 97.2 92.5 88.8 84.8 81.3 79.8 76.9 73.1 70.4 65 66.5 62.4 67.2 68.3 67.8 68.8 68.4 66.5 68 66.8 66.1 65.7 65 64.6 64.9 65.2 64.7 65.1 67.6 68.6 67.8 72.1 73.2 74.3 74 73.5 74.6 73.4 73.5 79.5 79.9 77.2 77.8 77.8 78.9 79.8 81.6 83.4 81.8 81.7 84.2 91.9 94.2 95.9 94.1 91.8 89 93.6 99.4 94.9 89.2 91.4 94.8 98.7 103.5 97.7 95.9 111.2 109.5 98.7 95.8 97.8 94.6 81.9 81.3 80.7 77.3 74.7 75.2 78.8 85.3 92.1 98.4 103 107.4 113.6 119.6 125.3 134.2 140.6 145.7 143.9 141.6 138.2 135.6 127.8 128.1 128.5 125.9 123 122 99.7 91.5 83.8 70.8 59.2 48 45.4 43.8 41.7 44 45.6 47.5 50.8 53.8 58.1 62.4 66.7 72.4 77.6 84.7 87.3 90.4 94.3 97.3 103.2 111.3 116 126.1 124.7 120.8 122.8 122.5 104.1 99.3 96.3 92.8 87.6 82 76.7 70.7 60.8 54.1 50.8 50.8 54.4 57.6 60.6 68 76.6 71.5 59.4 55.8 54.5 49.5 45.1 41 39.5 39 38.6 38.5 38.7
257.6 254.3 248.7 245 240.1 230.8 228.1 229.9 231.6 223.2 222.3 217.1 215.3 212.2 207.4 202.4 197.2 195.1 185.4 180.8 176.6 173.3 172.5 163.3 163.1 154.7 149.9 147.6 144.8 131.8 125.9 121.2 118.9 117.9 109.2 103.4 97.9 95.4 91.1 87.4 85.1 83.1 79.2 76.3 74.2 71.5 67.8 67 68.4 66.1 70.4 71.7 71.7 72 70.8 69.2 69.3 69.2 68.8 67.7 67.7 66.8 67.6 68.3 67.9 68.5 72.1 72.4 72.7 77.6 78.3 79.5 79.3 80.6 79.7 82 84.7 86.8 85.7 84.6 85.5 87.3 89.1 91.1 93.6 95.2 95.2 94.8 93.3 107.4 109.7 114.2 117.9 112.9 107.2 110.7 114.7 111.1 107.2 110.7 115.5 119.2 121.5 107.9 129.7 138.3 131.5 125.7 110.7 110.8 105.9 100.7 103 104.7 99.8 89.7 86.7 91.9 98.9 107.9 119.4 126.7 132 131.6 129.7 132.8 137.8 139.5 146.5 150.6 153.1 144.2 131.1 123.1 125.1 124.1 130.2 126.1 119.8 102.2 90.9 79.2 71.7 66 53.1 51.1 48 44.8 41.6 43.9 45.1 45.7 46.2 50.3 54.5 58.1 62.7 67.8 71.8 73 73.5 75.5 79 86.8 100.1 111.4 124.6 117.9 111.8 111.6 111 103.1 99.3 96.6 92.9 86 80.4 74 67.3 58.4 50.8 47.8 47.3 48.5 49.4 52.1 57.7 59.6 54 50.8 59.5 60.2 53.2 47.8 42.6 40.6 37.8 36.5 38.4 39.6
243.1 237.8 234.7 228.8 225.3 216.4 210 211.7 210.1 204.6 201.2 198.2 191.4 190.9 184.9 178.9 173.9 174.2 166.8 164.3 159.2 154 148.7 144.4 139.6 135.9 133 129.4 124.8 117.4 110.8 110.4 105.5 102 97.5 94.7 90.8 88.5 85.9 82.6 81.6 78.2 75 73.2 71.2 69.7 68 65 72 71.9 74.6 75.2 75.7 75.3 75.1 74.4 73.9 73.5 72.9 73.5 74 72 71.5 72.6 71.8 74.1 79.6 79.7 79.8 80.9 85.5 84.8 85.9 88.7 89.3 89.8 91.5 91.9 91.9 93.5 95.2 97.3 99.6 102.1 105.1 107.4 108.1 108.9 107.6 110.1 121.6 131.7 141.3 133.9 127.2 129.3 132.1 127.8 124.6 129.6 138.9 142.7 145.3 144.5 153.6 158.1 154.9 151 135 131.2 120.7 114.1 122.5 127.2 124 112.5 110.4 107.6 111.9 119.1 130.1 140.4 148.6 156 149.9 134.3 130.6 129.2 132.1 143.8 145 138.1 131.1 118.9 117 125.9 130.4 119.1 109 101.9 88 79.4 75.3 71.4 61.9 54.1 50.6 45.7 43.2 41.6 41 39.6 38.7 43 47.2 49.6 52.9 57 59.1 60.6 60.2 61.4 65.9 77 94.1 103.8 109.8 105.9 103 104.6 103.5 99.6 95.4 91.4 88.2 83.7 78.7 71.6 64.8 55.6 48.6 45.3 43.6 46.3 46.9 46.5 45.2 44.1 44.4 49.5 58.3 62.7 56 48.1 43.2 40.6 38.9 35.4 37.6 39.1
229.5 224.5 220.9 211 209.8 202.1 195 190.4 188.6 187.6 182.6 178.2 170.6 169.5 162.7 160.1 157.2 152.4 147.2 143.8 137.2 134.9 129.6 125.5 121.5 123 119.1 114.6 111.1 106.8 101.7 99.2 94.1 91.4 88.9 86.2 84.3 81.9 80.5 77.1 75.7 74.2 72.7 70.6 66.1 66.8 67 66.2 75.1 76.6 76 78 79.5 79.5 79.3 79.1 79.2 79.9 80.8 81.2 80.9 79.3 78.4 78 77.3 79.3 83.8 85.6 86.9 86.8 90.5 91.7 95.3 98.1 98.5 99.8 100.3 101.5 101.6 103.2 104.5 106 109.6 112.7 115.6 119.2 121.3 122.7 122.5 125.3 127.9 138 146.3 145.1 145.6 146.9 147 145 143.1 148.9 158.8 162.8 164.8 167.4 169.6 178.6 172.6 166.1 156.3 155.6 140.1 138.2 144.3 146.7 144.5 138.2 143.2 139.1 125.3 126.9 136.7 150 161.9 169.6 160.3 152.1 135.2 126.1 124.4 126.5 135.1 134.7 122.8 118.1 115 114.4 116.8 111.6 109 92.3 78.6 75.8 76.5 74.5 63.5 56.5 53.4 47.2 44.7 43.6 44 38 39.7 39.3 41.8 43.9 45.9 48 48.9 51.4 50.8 51.2 60.3 70.6 84.6 96 102.7 96.3 95.6 100 101.9 95.2 88.8 83.2 81.8 80.4 75.8 67.5 56.9 50 44.8 39.5 37.9 42.1 45.1 44.8 43.1 42.6 41.4 47.2 54.8 56.6 52.7 46.4 41.9 38.9 37.3 31.9 32.6 33.6
211.7 207.9 202.4 198.3 192.5 187.9 181.3 169.7 167.1 165.5 160.6 156.4 152 145.7 141.4 141.2 136.4 134.5 130.4 127.9 123.2 118 117.6 113.9 109.7 108.1 104.4 102 100.1 94.4 91.4 89.5 85.3 81.6 79.5 77.4 76.6 73.9 73.9 70.9 67.6 69.5 70.7 70.9 71.6 71.9 73.8 78 82.3 82.5 82.1 80.4 84.6 84.3 84.1 84.5 85.6 86.3 86.9 87.7 87.1 86.5 85.4 85.3 85.2 87.1 89 91 92.8 94.3 90.8 98.5 102.2 105 106.9 108.9 109.2 110.2 111.2 112.3 113.4 114.6 118.4 122.4 126.6 130.7 133.8 135.5 136.9 137.4 135.8 142.7 151.5 155.7 157.8 159.1 160.7 160.6 162.6 167 175.5 178 179.2 183.6 175.3 192.3 192.3 178.9 174 180.1 160.9 159.7 166.6 169.3 165.6 165.1 174.1 175.2 165 140.8 142.3 160.1 175.1 181.7 168.8 151 145.9 131.4 124.4 122.1 116.9 119.3 118.8 118.2 116.7 116.5 115.6 117.5 106.1 96.5 80.5 76.8 76.9 78.4 69.9 63.1 55.4 49.8 44.7 42.4 40.8 37.6 36.4 39.3 39.7 40.8 40.6 38.6 37.6 36.9 39.8 44.5 56.1 70.1 81.2 87.8 84.4 82.3 90.8 93.4 91.6 86.5 79.1 73.9 76.1 76.7 70.4 60.8 51.9 43.5 40.5 35.6 35.7 38.6 41.3 42.4 41.3 41.7 42.4 43.7 48.1 48.1 44.8 40.9 37.6 34.3 29.4 29.4 29.4 29.4
198.9 190.5 183.8 181 172.7 169.4 160.8 153.8 148.4 144.4 137.9 138.6 131.4 129.7 123.2 123.1 120.4 117.3 113.7 110.9 110.5 103.7 103.3 100 99.8 95.6 93.4 92.5 88.8 82.7 78.7 73.9 69.9 69.4 75.4 75.6 75 74.2 75.3 74.6 73.6 74.3 74.4 75.4 75.6 76.4 80.7 84.7 90.4 91.3 88.7 89 89.6 89.5 90 90.4 92 92.7 93.6 94.1 94.5 93.5 93 93.8 94.1 95.2 97.1 99.1 101 102.7 103.8 96.6 108.2 111.8 114.7 116.7 117.6 118.4 119.1 120 120.9 125.3 128.8 134.7 138.7 142.2 145.4 147.8 149.6 150.6 150.8 150.7 159.1 164.2 168.5 171 172.3 173.8 178.1 182.3 186 189.5 192 195.2 198.4 202.1 204.5 199.4 189.7 192.6 179.6 180.9 188.3 184.6 180.7 182 198.8 195.8 187.9 172.1 151 163.1 178.7 182 173.9 172.6 167.1 143 136 128.2 120 115.7 117 117.4 119.2 126.2 125.3 124.4 111.8 106.2 88 81.2 80.9 83.5 67.9 60.4 57.9 51.4 45.3 42.9 42.1 38.5 37.4 36.6 37.4 38 36.7 34.8 35.5 35.4 33.6 39.1 46.2 62.4 70.3 68.7 67 73.3 86.7 88.1 85.8 76.7 68.5 62.4 64.8 67.1 63.7 56.9 48.4 40.9 35.1 33.2 34 36.1 38.3 39.5 39.9 41.4 41.9 41.7 42 40.5 37.7 35.2 33.4 31 29.4 29.4 29.4 29.4
185.7 175.5 169.8 165 156 151.4 144 136 129 125.6 124.7 118.2 114.8 109.1 104.3 103 104.7 101.2 98.7 98.1 95.3 93.9 92.1 87.8 83.3 79.8 82.2 75.5 76.1 80.5 82.2 81.5 83.5 82 80.3 79 80.9 79.9 81.5 79.9 78.8 79.7 80 83.3 85.1 85.2 87.5 89.7 94.6 98.5 97.1 95.5 95.5 95.6 96 96.8 97.9 99.5 100.8 101.4 102.3 101.8 101.2 102 103 103.3 105.2 107.2 109.2 111 112.2 110 113.8 118.8 122.3 123.7 126 127.8 129.8 131.9 134.6 138.5 142.5 147 150.3 153.5 156.7 157.8 160.4 162.6 163.5 163.3 165.7 173 177.5 180.7 184.3 186.6 193 196.7 196.3 200.5 203.3 205.1 205 204.5 215.1 214.8 202.7 199 202.1 200.7 206.7 208.7 203.3 199.9 212.1 210.4 200.3 189.1 165.2 164.9 174.1 179.4 172.7 161.2 155.3 143.5 150.8 145 131.8 125.4 114.1 117 120.3 126.9 125.1 126.5 122 116.6 111.2 85.3 85.2 80.5 65.7 56.1 52.4 50.1 44.1 45.4 41.4 39.2 38.1 38.9 36.2 36.7 35.1 36.9 36.5 35.7 35.4 35.6 38.3 43.2 49.8 49.9 51.5 57.8 65 68.3 67.6 62.8 56.7 53.2 55.4 56.7 53.2 49.6 45.3 38.1 32.5 32.4 33.5 35.2 36.7 39.8 41 41.5 41.5 40 38 34.9 31.6 29.4 29.4 29.5 29.4 29.4 29.4 29.4
173.1 163.2 158.2 152.7 142.8 135.1 130.9 122.3 118.9 113.5 112.1 109.8 104.5 101.4 99.2 98.6 97.2 94.8 93.2 91.9 88.2 78.6 76 85.1 84.6 85.2 85.9 85.5 85.7 84.6 86.1 86.6 88.4 86.5 85.9 84.6 84.8 84.6 85.4 86.2 86.9 88.6 89.2 93.4 97.3 95.3 95 100 104 105.9 104.7 103.6 103.6 103.9 104.6 105 106.1 107.5 109.2 110.3 110.7 110.4 109.8 110.9 111.9 111.8 114 116.4 118.3 119.4 120.4 121 118.1 125.9 130.8 134.1 136.3 139.1 142.4 145.7 149.6 154.3 157.2 159.5 161.7 164.9 168.7 169.5 173 175.1 176.5 175.2 171.7 182.1 187.8 191.9 195.4 198.4 204.1 208 208.3 211.9 213.5 215 214 213.1 218.3 219.8 216.9 220.1 221.9 223.2 224.6 225.1 222.5 217 222.2 222.4 214.3 202.5 179.3 171.5 180.7 182.7 168.9 163.3 159.9 155 159.1 159.3 144.6 142.9 122.9 113.4 121.2 126.1 112.9 118.2 113.3 105.4 110.9 92.1 79.9 69 58.3 47.6 45.6 44.8 43.6 41.8 40.5 39.3 38.2 38 37.9 37.8 37.6 38.6 37.7 36.5 35.3 33.5 33.8 34 33.9 32.6 34.3 42 47.4 47.6 49.3 45.3 43.1 43.3 46.8 48 46.1 43.2 38.8 34.2 30.6 31.5 32.7 34.4 36.9 40.2 45.2 45.6 46.5 38 33.4 29.4 29.4 29.4 29.4 29.4 29.4 29.4 29.4 29.4
159 150.2 146 139.6 134.8 128 123.9 115 111.6 107.9 104.7 103.3 99.8 96.9 95.3 94.7 92.6 89.9 87.1 81.5 81.1 89.2 89.3 88.8 89.2 90.9 92.1 91 92.2 91 90.6 92.1 92.7 90.6 90 90.1 90 90.8 93.6 94.2 97.8 99.2 100.7 103.1 101.9 101 105.4 109.2 112.9 114.1 114.1 111.1 111.8 112.4 113.1 113.9 115.1 116.5 118.4 121.2 121.8 121.8 122.6 121.9 123 123.5 125.9 127.1 128.3 129.2 128.9 129.5 130.3 133.8 139.6 144.3 148 151.4 154.9 159.3 163.7 168.3 170.1 173.2 175.2 177.5 181.5 184.3 186.6 188.8 191.5 190.2 186.4 192.1 199.3 204 205.1 208.2 213.4 217.9 218.9 223.2 225.1 226.4 223 219.8 219.2 227.9 226 231.9 234.2 242.5 242.4 237 239.2 236.5 238.3 239.8 228.8 212.2 209.2 186.3 188.4 191.2 190.1 180.9 170.3 166.3 167.6 163.2 144.1 137.8 125.1 116.5 111.3 109.4 100 97.1 92.3 89.9 91 88 83.7 76.7 69.6 59.7 49.5 51.7 52.7 47.7 42.9 39.6 38 37.8 37.8 37.9 37.8 37.3 36.9 36.9 35.6 33.5 33.5 34 34.4 34.9 34.8 34.1 31.4 31.3 31.4 32.2 31.7 31.4 39.1 39.9 39.6 36.9 34.5 32.8 30.2 30.3 30 32.2 36.1 39.5 44.4 47.6 42.9 33 29.4 29.4 29.4 29.4 29.4 29.4 29.4 29.4 29.4 29.4
150.8 142.8 135.8 131.9 125.5 120.2 114.2 109.1 104.8 101.6 99.7 98.1 96 93.6 92.8 90.2 87.6 77.2 87.8 90.5 93.1 94.9 95.5 95.8 94.5 97.4 98.8 98.9 96.7 95.3 96.1 97.2 97.6 96.8 96.6 96.5 96.2 97.1 100.1 103.3 106.2 109.2 110.4 112.4 111.7 110.4 115.2 119.5 120 122.1 122.9 119.6 120.7 120.9 122.1 123.7 125.4 126.5 128.2 131.3 132.8 133.4 134.9 134.3 134.7 136.4 138.1 139.8 140.2 140.6 141.1 140.8 140 142.2 148.6 155.1 159.2 162.4 165.9 169.9 173.2 176.6 179.3 182.9 187.2 191.5 196.4 199.3 201.6 203.8 205.4 205.2 202.9 203.5 212.2 216.3 214.8 219 224 229.1 229.4 234.1 235.7 234 230 227 226.7 231.6 237 241.7 249.6 257.6 261.5 253.9 254.8 254.2 256.3 253.4 243 231.2 230.8 208.2 202.5 209.9 209.1 196.6 177.8 176.1 172.1 168.1 147.5 139.8 139 129.8 119.8 113.6 115.3 116.3 114.9 111 106.8 103.9 97.2 86.4 79.7 65.7 56.9 60.3 60.7 58.9 52.5 42.4 38.6 38 37.9 38 37.8 37.5 37 36.8 36.2 35.2 35 34.8 35.1 36 37.8 39.3 40.2 39 36.4 38.7 36.1 32.5 33.1 35.7 35.6 37.1 35.6 33.6 31.4 29.4 29.4 30.8 34.4 37.3 40.5 43.7 30.8 29.4 29.4 29.4 29.4 29.4 29.4 29.4 29.4 29.4 29.4 29.4
142.3 137.1 135.1 128 121.7 112.9 107.7 104.1 99.8 97.3 95.6 94.9 92.7 89.8 88.6 77.9 91.3 93.5 95.9 98.4 100.2 101.7 103.2 103 100.5 103.1 105.5 107.1 102.3 101.6 103.3 103.7 104.3 104.6 105.3 104.7 103.8 105.7 110.5 113.3 116.7 120.1 120.3 120.4 120.3 120.6 123.7 126.7 128.2 130.7 131.9 128.2 128.6 129.8 130.2 132.4 135 137.8 140.3 142.7 145.3 147.1 147.3 145.9 145.7 150 152.3 153.3 152.3 152.5 152.4 152.5 152.7 149 157.5 163.5 167.9 171.2 175.7 180.5 182.6 186.7 189.4 193.7 197.8 202.2 208.5 212.6 215.8 217.7 220 219.4 215.7 215.6 223.6 227.4 228.1 230.1 235.1 240.7 242.7 247.6 248.2 247.5 243.4 239.2 237.8 236 243.9 249.2 258.7 275.2 279.5 278.1 272.5 267 273.5 270.4 261.4 259.9 254.5 244 214.5 218.8 212.9 207 196.4 191.3 183.8 179.4 158.5 153.7 155.3 148.5 142.6 132.1 132.2 135.2 131.6 128.5 126 121.3 109.4 94.1 87.4 79.6 69.8 66.9 65.7 62.7 54.8 44.1 40 39.1 37.9 37.5 37.2 37.5 37.2 36.9 36.4 35.5 35 35.5 35.2 36.7 37.6 38.7 39.7 42.1 40.1 38.9 36.4 34.3 30.3 29.4 33.9 37.5 36.2 33.8 31.4 29.4 29.6 29.5 32.7 37.3 41.2 34 29.4 29.4 29.4 29.4 29.4 29.4 29.4 29.4 29.4 29.4 29.4 29.4
134 131.7 128.3 118.5 113.9 107.2 102.2 99.4 97.4 95.3 92.4 90.9 80.8 87.7 92.5 95.8 97.7 99.9 104.3 107.1 109.4 109.1 110.7 110.2 108.5 108 112 114.1 112.2 111.5 111.3 112.6 112.9 113.7 113.5 112.9 112.7 116.2 120.7 122.9 127 127.3 128.3 129.5 130.5 133.1 134.5 135.3 137.4 140.2 141.1 137.6 137.9 138.9 140.1 143.1 145.8 149 152.1 154.5 157.8 159.9 160 159.3 160.4 163.8 165.1 167.1 164.6 163 163.1 165.5 165.1 160.3 163.5 174.1 178.1 180.8 185.5 189.2 192.7 197.4 200.9 205.9 210 213.5 217.7 222.5 227.4 229.6 231.4 231.5 227.5 227.4 235 237.8 237.9 239.5 245.8 252.2 253.8 257.9 261.5 260.3 257.7 249.8 246.6 242.5 248.6 258.7 267.9 283.9 291.7 290.5 286.3 277.7 280.6 282.5 275.6 275.5 274.4 260.8 231.7 233.6 228.5 234.1 222.6 215.2 200.1 184 168.5 172.3 177.3 170 163.7 155.3 148.4 149.4 150.4 141.7 138.7 130.6 105.7 97 96.8 90.9 82.9 73 65.7 57.5 49.8 43.1 41.2 39.3 38 37 36.6 37.3 37.2 37 36.4 35.8 35.7 36.4 36.8 37.6 36.2 38.1 38.9 41.8 39.3 39 36.2 32.3 29.4 29.9 34.4 37.9 35.4 32.9 31.3 29.4 29.4 29.4 29.4 35.7 36.5 29.4 29.4 29.4 29.4 29.4 29.4 29.4 29.4 29.4 29.4 29.4 29.4 29.4
125.2 122 116.7 110.9 107 102 97.7 95.2 93.4 91.8 84.4 94.4 97.4 98.4 100.5 103.8 107.2 110 112.5 116 116.3 118.3 118.5 119.5 118.8 117.7 120.1 121.8 119.2 119.9 120.5 121.8 122.7 123.2 123.2 124.6 124.4 126.6 130.9 136 139 137.8 142.2 142 142 142.4 143.9 144.6 147.1 149.7 148.1 145 147.7 148.1 150.4 153.3 156.3 160 163.4 166.6 170.9 172.6 173.2 173.5 176.1 177 178 178.3 178.8 173.4 174 173.1 173.5 175.9 169 179.6 188.1 192.8 194.2 197.3 202.5 207.8 212.5 217.8 221.6 223.9 225.8 232.8 238.3 240.6 242.6 242.5 239.2 234.9 250.2 252.3 250.6 249.7 254.3 260.9 263.1 267.8 273.8 270.3 265.7 259.2 254.6 249.2 253.1 265.7 277.7 292.9 299.6 298.5 293.3 286.3 287.6 288.7 283.8 286.7 285.6 274.6 262.9 245.5 243.7 248.9 246.8 227.9 208.3 188.8 186.5 186.2 191.5 183.3 184.1 176.9 157.5 158.7 161.7 148.7 144.5 126.7 107.8 109 108.4 101 89.2 76.4 68.8 59.8 51.3 45.3 40.8 39.3 38 36.6 36.1 36.7 36.9 36.3 35.9 35.9 36 36.9 38.5 37.3 34.9 36.1 36.3 37.6 36.6 34.6 33.2 29.4 29.4 32.2 33.9 36 34.4 31.8 29.4 29.4 29.4 29.4 29.4 29.4 29.4 29.4 29.4 29.4 29.4 29.4 29.4 29.4 29.4 29.4 29.4 29.4 29.4 29.4
115.5 113.6 109 105.2 102.7 97 94.3 80.4 90.3 94.8 98.6 101.9 104.9 107.6 110.6 114.9 118.4 120.7 122.6 126.3 127.3 130.4 129.5 131 130 130.1 131.4 131.7 130.4 130.9 130.3 131.3 132.3 132.6 135.5 136.7 137.3 140.3 146.2 149.8 150.9 151 155.5 152.5 152.4 153.2 155 155 157.6 159.1 157.4 156.7 157.7 158.9 161 163.1 166.1 170.7 175.1 180.3 184.7 186.2 187.1 187.9 190.2 191.5 190.5 190.2 186.9 184.6 183.8 183.9 184.6 186.4 175.6 185.3 196.1 202.7 203.6 207.4 211.8 215.7 221.7 227.2 231 233.7 237.6 244 248.6 252 253.6 253.9 251.9 250.1 259.9 264.3 262.5 260.9 265.4 271.1 271.8 273.2 275.2 275.2 270.8 266 260.6 256.3 261.4 273.4 287.8 302.3 311.8 308.2 304 295.5 293.6 295 296.1 298.3 298.7 294.6 288.3 257.9 258.3 255.4 254.4 239.1 218.3 204.3 210.3 208.8 211 204.7 199.4 190.9 179.8 163.5 162.3 152.7 143.9 123.3 118.5 115.8 110.7 105.2 90.5 82 74 62.8 59.8 52.5 41.8 38.2 37.3 37.9 37.2 36.7 35.7 35.6 36.2 36.5 38.9 41 40.6 39.3 37 34.7 33 32.4 32 30.6 29.4 29.4 29.4 30.7 33.3 33.7 31.4 29.4 29.4 29.4 29.4 29.4 29.4 29.4 29.4 29.4 29.4 29.4 29.4 29.4 29.4 29.4 29.4 29.4 29.4 29.4 29.4 29.4
110.5 105.7 102.4 99.5 93.1 90.1 96.4 98.1 99.3 103.4 107.7 112.6 116.4 119.4 122.1 126.1 128.6 131.7 136.4 137.5 140.6 142.6 142.3 143.6 144.3 144.3 142.3 142.8 136.5 142 140.8 138.6 144 145.9 147.6 149 150.4 154.6 160.6 163.9 166.6 164.5 167.8 166.1 165.8 162.9 165.6 166.7 168.4 171.2 169.8 167.1 168.1 169.6 171.6 173.2 177.8 182.7 187.3 192.5 197.5 199.6 200.5 202.9 206.2 206.1 203 200.8 198.3 196.1 194.5 194.6 194.8 198.3 192.5 192 203.2 208.9 212 216 221.9 224.6 230.8 237.9 241.4 244.4 250.3 256.7 260.2 263.3 264.6 266 264.6 265.8 265.4 270.5 270.8 270.1 273.9 279.8 280.4 278 279.3 279.7 275.7 271.3 267.4 263.6 267.1 282.1 296 306.3 317.3 320.4 318.2 305.6 309.1 308.2 310.2 310.7 315.3 310.8 306.4 285.3 260.8 267.4 264.8 252.8 233.1 221 229.2 226.5 221 219.9 212.4 201.8 193.9 167 159.2 148.9 139.1 134 133.2 124.7 123.4 116.7 103 91.5 80.9 74.9 74 74.8 50.2 38.9 39 39.3 38.2 37.1 37 36.5 37 37.4 40.9 43.2 44 41.6 40.1 38.6 37 33.7 30.4 29.4 29.7 29.4 29.4 29.4 31.1 31.3 29.5 29.4 29.4 29.4 29.4 29.4 29.4 29.4 29.4 29.4 29.4 29.4 29.4 29.4 29.4 29.4 29.4 29.4 29.4 29.4 29.4 29.4
100.8 90.2 83.8 94.6 96.9 100.2 102.4 105.3 108.8 113.5 120.5 123.6 128.6 131.9 135 136.8 140.5 145.7 149.2 153 154.9 154.5 154.4 158.9 158.8 156.8 156.8 154.1 152 155.5 156.1 152 157.4 158.8 162.1 164.1 165.9 171 177.3 181.8 181.6 177.9 177.8 178.7 175.4 174 174.1 181.7 183.1 184.8 178.4 178.4 178.2 179.6 182.2 185.5 189.9 194.6 199.2 204 208.4 211.4 213.2 214.9 217.9 216.6 214.6 212.8 209.8 206.8 205 204.8 205.3 207.4 205.8 199.2 209.4 215.2 221.6 226.9 232.2 237.5 243.3 248.8 252.1 255.4 264.3 268.7 273.1 276.9 278.9 279.5 277.8 281.3 276.3 280.7 284 282.6 281.7 289.3 289.2 285.3 285.6 284.4 281.2 277.8 274.9 267.3 274 288.6 306.1 318.1 323.4 325.4 323.6 314.5 321.6 321.1 323.7 324.6 321.4 319.1 318.1 309.3 269.6 267.4 264.3 254.8 235.8 231.6 236 234.8 232 230.7 215.1 205.7 192.8 175.1 167.1 165.3 158.1 158.7 146.9 140.2 142.9 135.6 121.4 110.7 99.8 98 97.1 95.9 77.4 43.5 40.8 40.6 39.3 38.6 38.2 39.6 39 39.8 41.4 43.4 44 42.5 41 39.4 37.6 35 31.4 29.4 29.4 29.4 29.4 29.4 29.4 29.4 29.8 29.8 29.4 29.4 29.4 29.4 29.4 29.4 29.4 29.4 29.4 29.4 29.4 29.4 29.4 29.4 29.4 29.4 29.4 29.4 29.4 29.4
99.9 100 101 102.2 104.1 106.1 111.3 117.3 122.3 124.7 130.2 137.7 142.8 146.4 149.7 153.4 155.1 159.5 163.3 168.4 170.4 172.5 172.4 173.8 175.1 172.3 170 164.5 163.2 168.8 170.2 161.8 166.4 171.8 175.5 178.5 182.6 186.9 192.2 194.6 191.9 188.9 192.3 190.1 187.5 188.2 188.6 196.4 192.9 191 186.5 188.9 189.1 190.5 192.6 197.2 201.7 206.5 211.1 215.9 220.1 223.4 225.7 227.7 228.5 229.7 227.2 225.4 222.6 218.6 215.6 215.2 216 218.1 220.4 207.2 219.4 228.2 235.2 238.9 244.1 251.4 254.3 261.6 264.2 268 274.1 280.3 285.2 289.4 290.2 290.4 291.8 291.9 291.4 292.9 298.4 300.2 299.5 300.2 300.3 297 293.7 291.3 286.6 285.8 282.8 279.6 283.6 295.2 312.2 328.9 329.7 332 328.6 327 328.6 333.2 339.3 335.9 332.4 327.9 324.1 310.9 287.5 271.7 276.9 267.6 247 249.5 251.9 255.1 257.2 255.6 239.6 227.1 211.1 205.7 192.6 182.8 180.4 182.5 165.7 150.1 155.8 146.2 138.9 130.8 116.8 115.9 120.1 117.5 72 51.8 50.6 43.9 43 45.1 47.5 44.5 41.6 42.9 43.6 44 44.2 42.8 41.3 39.6 37.5 35.4 32.2 29.4 29.4 29.4 29.4 29.4 29.4 29.4 29.4 29.4 29.4 29.4 29.4 29.4 29.4 29.4 29.4 29.4 29.4 29.4 29.4 29.4 29.4 29.4 29.4 29.4 29.4 29.4 29.4 29.4
102.7 103.3 104.9 107.6 112.7 116.1 122 128.2 133.4 136.8 143.6 150.4 157 161.4 168.1 169.5 172.2 177.6 179.9 181.9 188.2 190.6 190 190.1 188.5 185.9 183.7 175.6 178.8 182.9 185.2 173.6 180.7 184.6 188.4 192.1 198.7 201.1 205.2 205.4 202.7 203.5 204.5 202.5 202.7 207.6 205.5 212 206.7 201.1 198.6 200.2 199.1 200.5 203.3 208 213.3 218.1 222.9 227.8 232 235.2 239 240.2 241.4 243.4 242.7 239.4 236 230.3 226.7 226 226.1 230.6 236.4 213.4 229.2 239.6 245.8 248.9 254.2 262.6 269.1 273 277.3 279.9 284.7 289.2 294 299.7 300.2 302 303.6 304.3 305 298.2 309.1 312.7 319.1 317.4 312 310.7 305.5 300.5 298 295.3 293.5 289.5 298.8 301 313.7 325.7 332.8 337.8 336.4 332.3 336.1 341.9 347.3 346 345.5 342.9 336.5 327.9 310.6 285.5 276.6 272.3 262 260.7 262.9 268.3 268 267.6 245.1 233.4 227.8 222.9 209.5 192.5 201.6 194.8 173.6 154.8 161.6 154.6 150 143.9 135.2 135.9 137.4 134.3 74.6 65.1 57.8 47.9 48.3 50.6 54.2 52.4 46.5 46.7 45.4 44.5 44.2 43.2 41.5 39.5 37.5 35.4 32.1 29.4 29.4 29.4 29.4 29.4 29.4 29.4 29.4 29.4 29.4 29.4 29.4 29.4 29.4 29.4 29.4 29.4 29.4 29.4 29.4 29.4 29.4 29.4 29.4 29.4 29.4 29.4 29.4 29.4
105.8 109.1 113 116.8 122.9 128.9 134 140 146.2 150.7 156.1 164.3 172.5 178.2 185 188.8 194.8 199.6 200 201.6 205.3 212.3 210.2 209.3 205.2 204.9 196.7 186.2 191.5 197.7 200.7 185 193.1 198.9 202.5 209.1 215.7 220.8 220.6 220.6 222.9 221.9 221.4 222.6 225.5 229.8 232.3 229.6 220 211.3 211.4 211.6 210.7 211.5 214.8 218.9 224.5 229.6 235.7 240.9 244.1 247.8 252.5 253 255.4 257.1 257.1 254.5 248.6 242.5 236.8 234.5 236.2 240.5 246.9 232 240.3 251 257.6 260.7 265.3 271.6 277.7 283.9 289.2 291 291 296.4 303.5 309.4 313.3 316 315.9 316.3 317.2 314 316.2 323.4 327.5 328.4 325.7 322.3 316.8 311.3 307.2 304.6 303.1 300.2 303.6 312.6 317.3 324.6 336.4 348 344 339.3 345.9 356.2 362.7 362.3 363.8 359.6 351.5 340.5 323.5 296.9 291.6 282.1 278.6 271.9 272.3 271 266.3 256 246.2 248.8 239.1 236 220.4 209.8 208.8 199.1 177.3 165.8 165.9 164.2 158.3 151.2 150.9 150.8 150 136.3 82.6 70.3 62.3 55.5 50.6 55.7 58.4 57 53.5 51.3 48.8 46.7 45.2 43.5 41.5 39.4 36.6 36.1 29.4 29.4 29.4 29.4 29.4 29.4 29.4 29.4 29.4 29.4 29.4 29.4 29.4 29.4 29.4 29.4 29.4 29.4 29.4 29.4 29.4 29.4 29.4 29.4 29.4 29.4 29.4 29.4 29.4 29.4
114.4 118 124.1 129.9 135.8 141.6 146.7 151.9 156.8 162.8 172.1 176.9 188.8 193.5 204.4 210.3 216 222.7 222 224.5 225.7 228.1 224.9 225.4 222.4 218.8 212.5 199.6 205.6 213.3 213.9 201.1 210.2 217.4 220.7 228.9 237.9 239.8 241 244.6 240 236.9 241.5 248 249.8 254.8 259.7 251.9 239.9 222.7 223.6 225.2 225.1 226.2 227.9 231.3 236.2 241 248 252.6 256.9 261.7 266.3 268.5 270.2 271.8 274.3 269.6 262.6 256.1 252 245.9 244.9 248.2 252.2 249.5 253.9 262.3 266.5 271.5 275.9 280.9 287.9 293.2 298.4 302.2 302.8 304.2 312.6 319.2 323.3 327.4 326.8 327.7 327.6 324.9 321 331.5 334.2 333.8 332 330.1 328.2 323.2 317.2 312 313.9 311.6 312.9 323.2 328.9 331 341.5 346.9 349.4 351.9 357.5 365.7 372.6 372 370.7 367.5 355.2 344.8 335 307.5 300.2 291.9 287.1 279.8 276.4 273.9 267.3 264.3 262.3 255.2 253.7 245.7 233.6 219.6 211.3 203 185.5 176.5 172.1 172 164.5 164.8 162.6 164.4 159.9 135.2 86.5 73 66.5 61.4 58.4 57.4 59.6 59.7 57.9 55.5 52.3 49 47.7 44.3 41.5 37.9 33.8 30.7 29.4 29.4 29.4 29.4 29.4 29.4 29.4 29.4 29.4 29.4 29.4 29.4 29.4 29.4 29.4 29.4 29.4 29.4 29.4 29.4 29.4 29.4 29.4 29.4 29.4 29.4 29.4 29.4 29.4 29.4
122.3 127.4 134.3 141.6 149.1 155.2 161 168.8 173.6 182.6 189.5 198.2 208 212.2 218.5 229.4 235.3 240.4 244.9 243.8 246.4 249.2 247.3 247.3 243.7 239 228.6 214.5 222 225.2 226.2 222.4 228.6 236.8 243.4 247.3 253.5 260.3 265.6 264.5 259.4 256.6 263.3 275.3 277.2 281 283.2 274.6 251.8 235.5 236.3 238.9 239.3 240.5 242.2 245.4 250.2 253.3 261.3 267.1 270.9 276.2 278.9 283.2 285.2 286.3 287 284.8 277.8 274.8 273.1 266 255.4 256.3 259.3 257.7 268.8 271.5 277 282.5 286.4 291.6 297.7 302 307.8 315.7 315 317.4 323.3 330.8 333.8 337.4 338.3 337.5 337.2 335.4 330.8 337.8 341.9 344.9 343.5 342 338.5 334.7 328.3 321.4 325 324.4 319.2 333.8 337.8 339.5 343.9 350.2 355.9 361 372.7 375.5 377.4 373.9 370.6 365.4 354.2 345.1 341.1 316.3 306.2 306.7 297.3 285.4 283 275 273.6 271.6 265.9 259.6 255 252.5 238.8 235.6 227.8 211.6 197.4 188.6 178.8 179.1 176.4 169.4 171 172.9 165.6 135.1 84.6 77.3 70.1 63.5 61.4 61.2 61.2 60.4 59.4 57.9 54.4 51.9 47.6 43.5 39.1 33.8 29.4 29.4 29.4 29.4 29.4 29.4 29.4 29.4 29.4 29.4 29.4 29.4 29.4 29.4 29.4 29.4 29.4 29.4 29.4 29.4 29.4 29.4 29.4 29.4 29.4 29.4 29.4 29.4 29.4 29.4 29.4 29.4
135.7 139.9 146.1 154.3 161.9 171 177.3 183.7 193.2 202.7 211.4 220.3 222.5 233.5 241.6 245 250.9 259.2 264.4 263.8 268.1 269.1 269.4 265.8 260.5 254.2 240.2 228.6 238.6 242.1 242.8 239.7 249.1 256.8 263.1 269.2 271.3 283.7 291.5 288 284.1 282.2 283.8 300.7 307.3 306.2 299.5 283.2 268.1 249.9 244.1 255.1 255.5 257.6 257.5 263.2 269.2 269.4 275.9 281.2 285.4 291.2 296.1 297.3 298.8 300.4 300.6 299.8 296.4 295.5 294.1 282.7 270.5 265.6 268.1 267.3 277.6 280.4 285.9 293.1 298.8 304.6 309.2 314.2 318.5 325.1 325.6 326.9 334.8 341.1 346.7 347.7 347.7 346.8 346.8 345.8 343.7 341.6 345.2 352.4 354.8 355.5 350.7 345.4 340 335.6 335.4 335.7 335.3 342 347 350 352.7 358 367.1 369.5 382.2 381.7 386.8 384.8 375.7 359.3 347.1 338.9 333.5 317.8 314.7 314.5 304.5 293.6 288.1 283.4 285.7 279.8 274.8 267.8 260.5 258 251.5 250.5 241.1 226.8 204.5 193.1 189.2 188.3 186.2 181.5 182.6 179.3 163.2 125.8 85 72.6 67.8 63.7 61.4 62.2 62.2 59.7 59.2 56.3 52.7 49 46 40.9 36.5 31.7 29.4 29.4 29.4 29.4 29.4 29.4 29.4 29.4 29.4 29.4 29.4 29.4 29.4 29.4 29.4 29.4 29.4 29.4 29.4 29.4 29.4 29.4 29.4 29.4 29.4 29.4 29.4 29.4 29.4 29.4 29.4 29.4
148.1 157 165.7 172.6 178.6 183.9 193.1 205.2 214.2 222.2 230.5 238.2 245.6 256 261.7 267.2 272.7 280.5 286 291.1 295.5 295.2 295.2 289.4 281.8 271.5 259.6 250.8 255.4 264.7 263.3 259.2 269.2 278.5 284 294.1 302.9 314.7 321.6 324.3 319.1 315.4 314.6 325.5 329.6 327.8 316.1 301 278.2 267.8 249.4 272.9 277.1 279.5 278.6 282.6 286.7 288.3 292.4 299.9 302.7 306.5 314.2 313.8 314.5 316.6 314.6 315.4 317.3 317.9 313.7 303.2 288 277 279.7 282.3 274.3 291.1 293.9 302.1 310.6 316.1 322.6 328 331.8 335.9 339 339.6 342.2 349.3 354.3 356.8 357.4 356.5 357.1 356.8 353.8 353.2 346.9 358.5 362.9 364.9 363.1 357.2 352.9 349.6 347.6 346.5 346.2 351.7 355.5 358.7 361.6 364.3 371.1 377.3 386.8 389.3 388.3 384.1 391.5 378.4 353.3 340.4 332.1 324 323.2 324.2 322.8 310.8 302.1 301 298.4 292.7 289.1 280.7 276.6 267.8 262.5 255 242.3 237.5 221 203.9 201.5 193.5 192.9 186.9 188.2 184.7 165 123 88.4 74.6 68.7 64.9 62.6 59.8 60.7 57 50.7 52.6 47.9 44.6 42.6 40.2 36 31.2 30 29.7 29.4 29.4 29.4 29.4 29.4 29.4 29.4 29.4 29.4 29.4 29.4 29.4 29.4 29.4 29.4 29.4 29.4 29.4 29.4 29.4 29.4 29.4 29.4 29.4 29.4 29.4 29.4 29.4 29.4 29.4
163.4 173.7 183.4 187.6 193.6 203.5 220.1 228.6 231.3 241.7 251.1 261.8 269.4 276.1 287.3 293.8 297.8 303.3 308.8 312.6 318.7 320.5 319.7 305.6 293.3 288 281.5 274.5 280.5 291.7 286.2 284.6 291.9 300.7 312.2 325.6 335.6 341.6 355.1 366.9 354.5 346.3 343.1 356 343.6 338.2 331.6 323.1 302.1 281.1 255.2 285.8 302.9 308.3 299 301 308.2 310.4 312 316.5 323.5 323.8 330 331.1 334.3 333.6 336.4 335.3 335.9 334.6 329.9 321.4 302.5 288.2 290.4 293.2 293.7 298.6 308.3 312.1 319.5 326.6 333.6 341.5 345.7 350.4 354.6 353.2 351 359.2 360.4 367.1 369.8 365.5 366.8 367.9 366.3 366.3 364 365.4 369.9 372.2 372.4 370.1 365.3 358.5 358.9 357.3 358.7 363.4 365.7 368.4 371.9 374.5 378.9 383.4 392.7 396.5 393.8 393.3 400.3 386.3 364.8 355.8 345.1 338.8 335.7 334.9 334.2 326.2 324.7 315.4 316.4 311.8 303.3 298.2 284 268.8 267.4 258.5 244.8 238.7 222.3 212.7 218.9 212.3 195.4 191.7 186.4 178.6 155.7 117 95.1 74 71.1 70.4 68.1 67.1 67.3 61.9 55.8 50.3 47.5 43.2 39.3 36.3 34.7 32.6 32 29.4 29.4 29.4 29.4 29.4 29.4 29.4 29.4 29.4 29.4 29.4 29.4 29.4 29.4 29.4 29.4 29.4 29.4 29.4 29.4 29.4 29.4 29.4 29.4 29.4 29.4 29.4 29.4 29.4 29.4 29.4
185.1 190.8 199.9 207.3 217.9 224.5 234.7 247.9 255.4 265.4 276.5 286.2 294.8 299.4 311.9 319.9 324.4 327.8 329.9 332.1 334.3 332.9 327.8 322.6 310.1 306.7 304.9 296.9 300.4 311.6 305.3 310.9 320.8 329.1 344 359.8 375.2 396.1 410 421.4 401.5 381.8 377.1 381.7 365.4 354.7 342.6 334.1 321.8 295.5 269.1 291.5 320.2 322.3 319 324.6 339.4 337.1 336.9 338.9 345.6 345 349.7 348.7 350.8 351.1 353.4 355.1 357.3 357.3 351.2 336.7 317.7 304.6 303.3 303.3 307.3 302.5 319 324.4 330.9 340.9 347.7 356.3 358.3 364.6 369.9 370.7 366.8 368.9 369.4 376.7 379.8 377.4 377.9 376.9 377.4 377.9 375.1 371.2 378.3 381 381.6 381.8 375.5 368.7 368.7 367.4 371.5 374.8 379.2 382.5 384.8 384.9 386.2 393.5 394 402.9 403.8 400.1 400.8 391.1 377.1 369.4 358.6 355.6 345 342.2 340 337.7 340 336.3 326.8 319.1 314.1 296.9 283.5 272.9 270.8 266.2 246.3 226.8 223 227 225.5 214.5 207.5 196.2 188.4 177.6 149.7 124.5 102.3 88.5 83.6 82.6 77.9 75.8 68.5 65.2 54.9 50 46.8 43.8 40.2 39.9 38.4 36.7 34.6 32.5 29.4 29.4 29.4 29.4 29.4 29.4 29.4 29.4 29.4 29.4 29.4 29.4 29.4 29.4 29.4 29.4 29.4 29.4 29.4 29.4 29.4 29.4 29.4 29.4 29.4 29.4 29.4 29.4 29.4 29.4
208.8 214.5 224.4 232.6 240.1 248 258.3 268.8 277.7 287.3 296.8 304.6 316.4 325.4 335.9 343.5 346.8 347.1 349.9 351.6 350.4 346.2 341.7 338.5 327.7 325.3 326.7 316.9 317.3 329.7 330.9 339.7 353.6 360.2 377.6 399.9 422.8 432.5 439.1 448.1 441.9 425.6 418.6 413.1 390.1 377.1 365.8 349.7 331.2 308.7 285.4 294.5 322.3 333.9 339.6 362.2 372.7 369.4 367.1 368.6 374.9 369.5 369.4 370.2 368.7 367.5 370.5 374.4 376.5 379.4 379.9 351.5 333.4 317.3 313.7 316.4 317.2 310.1 324.5 334.4 346.1 351.6 363.6 366.7 367.9 377 384.3 386.4 383.2 379.9 379.3 383.5 387.5 389.4 393.1 389.3 389 386.7 384.5 384.4 387.8 389.8 390.2 387.7 385.6 385.5 385.8 380.1 386.7 384.9 393.1 395.8 397.1 397.2 395.2 398.5 406.5 410 409.9 413.1 415 408.8 398.2 383.5 374.9 370.4 357.3 351.8 346.2 347.6 350.7 348.3 344.6 332.2 319.5 302.6 284.6 275.7 270.2 258 236.3 242.3 246.1 240.6 237.8 224.5 224.2 211.5 198.8 190 161.7 133.4 110.8 102.6 97 95.8 92.8 91.3 83.6 72.8 60.1 53.1 47.7 45.3 44.2 49.1 47.5 41.5 38.5 37 35.3 32.4 35.4 29.4 29.4 29.4 29.4 29.4 29.4 29.4 29.4 29.4 29.4 29.4 29.4 29.4 29.4 29.4 29.4 29.4 29.4 29.4 29.4 29.4 29.4 29.4 29.4 29.4 29.4 29.4
230.7 231.6 243.1 254 262.5 272.8 283.2 294.5 302.2 311.9 320.8 327.6 339.7 347.1 357.7 369.1 375.6 374.6 371.4 372.2 370.5 365.4 361.6 352.5 344.3 345.6 344 339 331.8 350.1 351.9 368.8 384.9 398.6 414.8 435.2 453.1 463.8 468.5 476.7 478.2 470.5 469.6 441.5 414.3 399.9 382 360.3 343.4 324.1 301.5 307.9 335.5 348.9 367.9 392 402.8 403.2 400.2 402.3 402.1 402.1 397.9 392.8 389.3 387.3 386.9 389.9 392.8 397 392.2 365.4 349.5 332.9 329.6 328.2 328.4 323.9 333.7 346.2 355.2 364.6 373.1 377.6 384.3 390.2 396.9 396.3 396.9 395.2 392.5 397.1 400 398.6 404.8 405.5 403.6 397.4 393.2 396.1 397.9 398.9 396.6 399.5 400.7 401.9 399.4 395.7 399.8 400.9 406.3 412.8 415.9 413.6 410.7 408.7 411.4 417.5 420.7 420.2 425.1 417.4 408.6 405.9 390.9 388.8 375.9 367.8 354.3 355.6 356.6 355.8 354 345.2 330 313 286.9 278.7 272 259.5 251.7 256.2 263.2 252.5 250.1 237.8 230.5 219.4 208.2 196 175.2 149.8 129.5 117.6 109.5 107.8 104.4 101.9 93 81.3 66.3 56.3 54.6 52.7 49.4 54.1 54.1 46.6 44.2 42.5 41.4 39.6 39.5 29.4 29.4 29.4 29.4 29.4 29.4 29.4 29.4 29.4 29.4 29.4 29.4 29.4 29.4 29.4 29.4 29.4 29.4 29.4 29.4 29.4 29.4 29.4 29.4 29.4 29.4 29.4
244.9 256.3 270.5 278.6 287.5 297 306.1 316.8 326.2 335.6 345.5 355.4 367 374.9 385.1 394.4 398.6 397.1 397.5 397.5 394.5 386.3 377.3 369.7 364.1 365.1 364.5 357.8 349.1 375 380 391.3 407.2 424.1 441 459.4 470.2 482.8 490.8 495.2 499.9 498.6 491.4 464.2 435.5 411.1 398.1 377.4 356.9 340.8 318.2 317.1 353.3 376.7 396.9 419 428.7 431.9 433.2 433.5 436.5 435.3 430.2 417.5 409.9 406.3 405.6 406.1 406.4 410 410.8 403 379.4 358.8 346 342.9 341.6 331.5 342.6 357.1 361.5 375.5 385.4 391.5 400.9 404.7 408.6 410.8 412.9 413.4 408.1 409.6 410.8 407.7 412.2 414.8 414.8 411.6 402.6 404.8 407.3 411.4 408 412.9 412 410.8 412.9 412.4 412 412.2 413.8 419.6 428.5 432.6 427.7 419.1 421.9 426.8 425.4 429.6 434.8 426.9 416.4 416.1 405.2 397.6 394.1 374.9 363.9 362.1 360.6 360.6 361.1 353.2 333.4 314.5 287.5 288.2 280.6 274.1 263.5 273.3 273 263 255.7 246.4 227.8 226.1 209 194.1 182 158.4 143.2 136.9 126 123.3 119.5 114.1 104.3 94.2 80 65.7 59.5 60.1 58.5 59.4 57.1 54.7 53.1 50 50.2 48.6 41.9 29.4 29.4 29.4 29.4 29.4 29.4 29.4 29.4 29.4 29.4 29.4 29.4 29.4 29.4 29.4 29.4 29.4 29.4 29.4 29.4 29.4 29.4 29.4 29.4 29.4 29.4 29.4
271.2 283.6 292.6 302.9 312.9 321.6 333.1 344.5 353.8 364.3 374.1 382.3 394.2 403.5 411.6 417.4 423.9 424 420.4 419.8 416 410 403.4 396.4 387.5 388.2 386.7 380.7 362.3 392.6 397.4 410.3 427.1 444 460.1 475.5 486.9 496.2 504.8 511.4 514.9 514.7 506.5 488.8 457.9 424.8 410.7 391.5 368.7 350 332.6 322.5 363.3 393.9 421.2 441.3 453.8 459.5 463.1 465.1 467 465.2 459.9 446.4 434 425.8 421.7 424.5 422.9 423.7 425.8 425.5 411.8 392.4 368.4 361.1 355 342.4 352.4 364 375.1 387.7 395.5 408.3 410 418 422.8 428.7 429.3 433.6 427.1 431.9 430 422 418.9 425 420.1 418.2 417.8 413.3 414.8 419 421.1 425.4 423.6 424.5 427.1 427.4 426 422.6 419 424.3 430.7 441.4 440.3 431.4 427.1 427.1 430.6 433.7 444.1 437.2 425.1 425.7 412.8 408 403.4 393.8 372.4 371.3 369.5 362.5 358.8 350.9 334.9 315.7 295.6 303.2 289.6 283.2 272.4 279 274.2 259.8 246 236.5 225.1 223.1 216.6 205.5 200.8 169.6 155.2 150.5 142.8 138.4 140.5 129.8 116 102 88 72 67 66.7 65.6 66.4 68.8 73.8 68.9 61.5 60.4 55.8 47.2 37.4 29.4 29.4 29.4 29.4 29.4 29.4 29.4 29.4 29.4 29.4 29.4 29.4 29.4 29.4 29.4 29.4 29.4 29.4 29.4 29.4 29.4 29.4 29.4 29.4 29.4 29.4
293.9 304.8 314.9 325.1 337.3 348 360.3 373.3 385.7 395 403.9 412.3 420.8 430.7 441 444.2 451.1 452.9 449.6 447.3 445.5 437.1 431.6 423.1 412.3 407.3 415.3 406.3 371.2 407.9 419.1 431.6 448.5 462.7 476.9 490 501.8 510.8 519.3 524.6 529.2 529.6 520.9 499.5 476.4 447.8 433.8 416.3 392.8 364.7 345 330.7 366.5 401.5 436.2 459.3 475.5 485.9 492.4 496.6 496.4 495 488.2 472 457.9 447.5 437.3 438.7 439.4 437.7 436.5 436.4 434.1 421.5 387.2 377 370 356.5 364.9 372.5 386.8 398.8 411.9 421.1 426.2 432.7 437.1 444.6 447.4 450.8 449.3 449.7 448.6 441 433.7 433.3 428.7 424.2 424.8 424.5 425.4 431.4 432.8 434.5 435 434.3 437.7 439.4 438 436.1 430.8 428.7 432.8 437.4 439 440.3 433.7 431.6 433.3 437.7 450.7 450.5 433 433 421.8 413.2 412 405.8 386.2 377.5 375 362.9 354.1 346 330.8 321.5 304.2 309.2 301.3 285.1 278.5 278.5 277.2 263 252.9 239.5 234 234 221.1 218.2 205.1 178.3 167.3 160.5 156 150 150.1 141.6 125 107.5 93.4 82.5 75.4 72.8 72.9 73.8 81.6 79.9 76.8 67.1 64.2 56.6 47.2 36.2 29.4 29.4 29.4 29.4 29.4 29.4 29.4 29.4 29.4 29.4 29.4 29.4 29.4 29.4 29.4 29.4 29.4 29.4 29.4 29.4 29.4 29.4 29.4 29.4 29.4 29.4
314 325 336.3 346.6 360.1 374.3 389.1 401.6 414.7 429.7 439.5 448.6 450.5 462.3 466 467 469.4 470.1 469.9 468.7 466.4 461.8 458.5 450 441.2 433.1 436.5 428.6 404.7 426.4 440.5 443.8 462.5 476.8 489.9 503.5 516.2 529.2 537.8 540 542.3 542.9 532.9 513.6 491.9 466.2 450.2 430.6 405.6 382.2 364 347.8 374.8 410.4 443.1 473 497.8 512.5 522.7 526.9 526.1 526.7 519.8 504.1 487.5 471.1 460 452.7 450.6 450.6 447.6 444.2 439 436 402.8 389.6 384.2 369.8 381 381.3 394.3 407.6 420.7 435.3 444.2 446.9 453.3 458.4 464.1 466.3 471.2 468.9 465.1 454.8 451.8 447.6 436.5 432.6 435.8 437.5 435.2 441.1 440.1 444.8 442.8 446.4 449.3 449.1 449.7 447.2 442.3 437.6 435.2 438 438.2 438.8 437.9 435.4 436.8 441.9 452.1 447.1 439.7 439 427.3 412.9 408.7 405 393.8 378.2 370 361.5 353.8 346 326.5 313.6 313.3 310 303.2 290 279.8 276.8 270.5 258.2 247.7 240.9 239 236.9 232.7 226 214.3 187.1 176.8 175.7 168.4 163.4 157.7 150.1 127.7 111.5 105.4 96.1 90 87.6 82.2 83.3 85.2 80.5 75.8 66.1 61.2 52.7 45.5 37 29.4 29.4 29.4 29.4 29.4 29.4 29.4 29.4 29.4 29.4 29.4 29.4 29.4 29.4 29.4 29.4 29.4 29.4 29.4 29.4 29.4 29.4 29.4 29.4 29.4 29.4
331.7 339 350.4 364.7 378.4 392.8 409.7 425.1 441.9 456 467.5 478.7 479.2 482.4 482.9 481.4 483.4 483.3 483 481.3 480.5 479 475.5 468.6 459 454.9 457.4 449.3 425.4 438.9 458.7 464.3 471.6 487.7 500.6 513.1 528.3 541.6 548.9 551.6 554.2 553.7 548.7 527.8 505.2 480.5 459.3 447.9 424.2 403.5 381.5 367.4 386.8 424.6 456 487.8 516.6 542 551.1 556.4 555.9 548.8 543.5 529.2 512.3 494.2 479.9 473.8 464.3 460.2 454.4 444.9 435.5 434.4 417.7 400.6 396.1 395.1 394.1 395.7 405.3 419.9 435.2 440.5 459.1 461.7 469.8 473.8 478.9 483 485.8 487 484.1 476.9 470.9 462.2 450.9 443 441.3 444 446.4 450.3 449.9 455.3 454.1 458.7 458.9 461 463.8 464.7 459.3 449.9 441.1 444.6 442.2 440.6 440.6 440.8 440.9 443.7 454.9 447.9 445.8 437.6 425.7 415.3 408.9 404 388.5 380.3 372.1 361 353.5 346.5 329.8 322.7 318 312.1 305.4 293.7 282.4 274 265.3 258.9 253.5 253.1 245.9 242.1 237.2 232.5 217.5 195.3 188.4 190.2 186.2 174.5 164.8 153 137.2 124.9 119.3 111.7 105.7 99.4 93.8 103.7 97.5 93.8 84.2 66.6 56.9 50.1 42.7 34.8 29.9 29.4 29.4 29.4 29.4 29.4 29.4 29.4 29.4 29.4 29.4 29.4 29.4 29.4 29.4 29.4 29.4 29.4 29.4 29.4 29.4 29.4 29.4 29.4 29.4 29.4
344.9 355.6 365.8 380.3 392.1 409.3 425.1 437.1 458.8 471.5 482.4 498.9 499.6 498.2 496.6 494.3 494.9 496.1 496.2 493.8 492.4 492.1 490.7 485.9 479.2 470.3 475.4 469.4 445 455.2 476.5 482.5 484 497.7 511 521.5 536.5 548.9 557.4 562.8 566.4 567.6 564.8 539.7 514.5 490.7 463.4 445.8 434.1 415.4 396.1 383 402 431 466.1 500.1 531.1 559 576.9 585.8 580.5 570.6 563.6 553.4 533.8 517.4 500.3 490.6 479.6 474.2 469.8 454.1 434 430 421.1 412.5 397.9 405.9 407 408 417.4 430.6 449.6 458.7 465.8 476.2 483.3 489.9 494.8 502.2 502.9 503.8 499.4 496.1 492 479.1 469.5 455.4 454.6 453.1 459.5 462.1 461 460.5 464.8 470.4 471.2 471.8 474.2 473.9 470.6 461.5 453.9 453.6 450.6 450.4 450.9 452.9 452.6 448.4 452.5 452.4 448.1 439.5 427.8 421.2 417.6 407.4 391.7 382.4 379.4 370.1 355.4 342 334 329.7 325.1 318.2 309 301.5 291.2 283.2 272.7 269 260.9 257.5 252.8 244.6 239.4 236.6 226.2 200.9 200.1 203 199.5 188.1 174.3 159.7 145.1 133.7 121.9 116.5 110.1 105.2 103.6 108 106.2 104 88.1 70 59.5 52.8 43.6 35.5 31.3 30.4 29.4 29.4 29.4 29.4 29.4 29.4 29.4 29.4 29.4 29.4 29.4 29.4 29.4 29.4 29.4 29.4 29.4 29.4 29.4 29.4 29.4 29.4 29.4 29.4
353.4 364.4 371.6 385.1 395.5 411.7 427.3 441.3 465.3 482.2 496.1 504 512.8 511.7 512.5 507.3 506.5 508 508.5 507.1 505.3 503.9 502.8 501.2 495.3 487.1 492.6 488.1 464.8 472.8 494.1 499.2 498.8 510.9 518.7 531.1 542.6 553.6 562.9 570.2 575.8 579.1 571.8 549.8 519.7 495.3 474 455.2 442.1 427.3 410.5 399.2 413.9 442.2 476.8 509.3 542.7 572.9 595.8 602.8 599.7 592.7 586 574.5 558.5 538.2 515.9 502.3 492.6 488.8 484.7 472.5 447.6 434 422.7 411.3 415.3 419.1 419.1 426.1 432.2 445.3 459.5 472.2 477.8 490.7 497.9 503.6 511.2 517.2 518.5 516.4 513.8 508.9 507 497.7 492.4 479.8 470.4 463.1 470.1 474.3 476.2 474.7 475.9 481.6 480.5 480.5 480.7 478 475 471.4 468.2 464.8 460.1 457.1 461.6 464.1 460.9 458.3 455.2 451.2 446.8 443.6 441.8 430.7 424.8 411.5 398.3 392.9 382.8 368.5 357.6 346 344.7 335.3 331.8 325.9 315.7 307.1 296 286.6 277.8 273.1 267.2 262.2 257.7 249.9 245.1 241.2 226.9 207.6 207.6 206.5 197.5 188.8 183.1 170.2 154.5 135.7 126.9 121.5 117 111.8 107 110.9 108.1 99.9 89.5 73.6 63.3 55.4 41.5 35 32.5 29.4 29.4 29.4 29.4 29.4 29.4 29.4 29.4 29.4 29.4 29.4 29.4 29.4 29.4 29.4 29.4 29.4 29.4 29.4 29.4 29.4 29.4 29.4 29.4 29.4
356.9 362.7 374.3 384 396.6 410.5 426.2 442.4 458.9 479.1 498.8 507.6 518.1 520.4 519.7 516.8 518.3 517.4 516.5 516.4 515.4 513.7 512.8 511.2 506.9 504 505.3 501.2 478.2 491.8 512.2 515.1 513.8 523.9 531.5 540.7 551.6 563.5 572.5 579.4 583.2 588.2 583.3 549.7 521.4 498.6 476.8 457.3 446.6 437.5 423.3 409 424.2 450.8 484.6 519 552.6 582.9 606.1 616.2 615.4 610.8 605.5 594.7 579.1 552.7 523.7 509.2 502.8 502.2 493.8 480.3 457.2 444 429.6 420.8 428 432.5 437.6 441.7 446.3 459.4 475.8 485.4 494.2 503.3 510.6 517.4 526.8 531.2 531.2 525.9 526.6 522.4 516.8 510.7 509.1 500.1 494.5 481.7 480.4 484.5 487.8 487.9 483.4 491.4 491.9 487.3 483.7 480.5 478.8 477.6 476 475.3 469.4 464 468.1 471 470.8 466.6 463.2 459.3 456.9 453 448.4 442 434 422.2 407 400.4 388.5 370.1 358.8 355 359.1 346.4 335.1 329.9 324.9 313.3 303 294.7 283 281.1 274.7 271 262.2 256 252 242.5 227.6 212.9 209.5 206.7 201 200.3 195.5 184.9 166.5 135.6 132.6 125.9 119.3 113 106.7 107.7 105.2 88.4 84.2 72.4 61.2 52.1 40.5 36.8 34.4 29.4 29.4 29.4 29.4 29.4 29.4 29.4 29.4 29.4 29.4 29.4 29.4 29.4 29.4 29.4 29.4 29.4 29.4 29.4 29.4 29.4 29.4 29.4 29.4 29.4
360.4 366.2 376.6 387.6 398.7 409.4 423.9 439.9 456.3 472.2 495.8 510.4 520.3 523.8 524.9 525.2 526.9 527.1 526.5 526.8 526 524.1 522.4 520.4 519.1 517.5 518.8 515.6 499.2 516.3 526.2 529.8 527.2 536.3 543.7 553.2 561.3 571.2 579.1 586 591.2 597.9 598.8 562.7 530.7 502.5 489.7 467.2 455.5 448.6 433.8 422.8 435 456.9 492.3 529.1 561.6 593.8 617.5 625.3 626.1 624 619.9 610.2 587.4 557.4 534.7 521.4 512.4 508.9 493.2 478.7 457.2 447.4 437.5 430.1 439.3 445.9 449.7 457.7 467.9 476.6 492.6 500.2 511.7 511.3 525.8 530.4 539.3 547.8 547.5 542 540.5 533.1 533.1 528.8 520.5 513.6 507.1 498.2 492.7 497.8 499.5 497.8 492.5 501.4 503.7 497.5 490.7 488.1 489.1 486.5 483 482.3 477.6 473.2 474.9 480 482 480.4 478.5 475.4 466 462.8 463.4 463.4 453.6 439.2 420 417.7 411.5 376.8 365.5 361.7 357.1 348.4 337.1 333.8 328.4 320.9 310.7 299.1 290.5 286.9 280 275.3 267.8 260.5 250.6 242.4 231.5 221.6 212.4 212.7 211.7 209.2 205.2 197 175.1 145.8 141.4 135.4 128 122.7 108.3 94.5 87.7 80.8 74.3 66.3 57.5 49.6 41.3 38.2 35.1 29.4 29.4 29.4 29.4 29.4 29.4 29.4 29.4 29.4 29.4 29.4 29.4 29.4 29.4 29.4 29.4 29.4 29.4 29.4 29.4 29.4 29.4 29.4 29.4 29.4
360.5 368.5 376.6 387.1 397.4 410.5 425.4 442.7 457.2 472.3 488.5 506.3 518.8 528.5 532.6 532.4 535 538.1 537.2 536.1 535.4 533.2 531.8 530.8 529.4 528.3 529.6 528.6 525.2 532.1 537.3 542.4 542.3 548.2 554.9 561.4 570 577.8 585.7 592.8 599.9 606.1 608.4 587.8 548.7 516.2 492.3 481.2 464.5 456.2 445.3 435.2 446 463.7 498.9 535.2 570.1 601.7 625 634.7 637.8 635.3 632 621.3 594.8 567.3 543 530.6 523.7 509.6 495.4 481.9 464 451.9 448.1 440.9 449.8 460.7 464.1 475.1 487 497.6 509.1 514.3 525.6 526.2 536.4 541.9 552.1 561.2 561.2 556.4 553 544.7 547.7 543.5 537.8 533.3 523.3 517.6 504.4 505.4 510.9 509.1 504 510.7 511.9 508.4 503.2 497.5 498.8 499 496.4 491.7 483.4 481.9 483.5 488.1 493.2 497 496.2 495.3 489.6 484.1 476.6 471.8 465.1 458.9 435.4 423.9 413.2 389.1 370.3 361.3 355.6 349.1 342 336.1 333.2 326.6 311.7 303.3 298.8 293.1 290.2 283.8 271.4 263 256.2 250.6 244.3 233.7 225.4 226.8 224.5 221.2 217.1 208.7 179.5 155.9 146.7 139.5 133 126.8 110.9 94.3 82.3 73.4 65.9 59.8 53.6 45.8 40.5 37.7 29.4 29.4 29.4 29.4 29.4 29.4 29.4 29.4 29.4 29.4 29.4 29.4 29.4 29.4 29.4 29.4 29.4 29.4 29.4 29.4 29.4 29.4 29.4 29.4 29.4 29.4
362.5 366.8 375.6 385.6 395.7 411.6 426.1 439.1 457.5 472.8 484.2 505.1 518.6 530.7 539.8 540.4 540.8 544.9 544.8 544.1 543.1 543.7 542.2 540.2 538.5 538.3 538.9 538.1 539.1 544.6 547.6 551.5 554.9 558.5 565 568.2 576.9 584.8 592.6 600 607 612.4 616.9 617.3 592.5 548.8 507.7 485.2 471.1 463.5 453.8 445.2 456.1 473.3 502 535.3 568.1 602.1 631.5 646.4 651.4 651.9 648.4 638.4 613.3 586.8 557.5 543.5 529 514 501.8 490.1 477.2 465.9 460.4 455.8 461.9 474 481.6 496.7 506.1 519.1 530.3 535.3 539.3 541.2 546.6 551.6 560 570.7 572.1 568.6 563.8 558.8 559.3 553.9 547.6 543.1 539 531.7 518.9 516 519.7 516.9 512.9 518.2 524.6 523.6 516.7 511.4 510.9 512.6 509.1 506.7 500.1 491.1 492.2 496.4 505.7 506.5 510.8 510.4 507.2 504.1 494.2 486.8 481.5 468.1 448.4 429.8 408.3 389.6 378.8 365.7 358.8 355.7 347.7 339.8 334.2 330.3 319.2 313.7 311 299.9 293.3 286.8 278.4 268.8 261.3 251.5 242.4 240 235.7 234.6 233.5 229.9 224.3 212.6 177.3 159.9 149.6 139.6 131.4 124.1 111.3 97.2 83.5 74 65.6 58.3 52.2 47.3 45.4 38.9 29.4 29.4 29.4 29.4 29.4 29.4 29.4 29.4 29.4 29.4 29.4 29.4 29.4 29.4 29.4 29.4 29.4 29.4 29.4 29.4 29.4 29.4 29.4 29.4 29.4 29.4
361.5 370.3 375.5 384.4 394.6 409.2 424.3 437.2 453.1 470.6 479.7 504.3 520.9 532.6 544 550.5 548.6 549.3 551.1 552.5 550.8 551.7 549.5 548.1 548.5 546.8 547.1 548.2 546.2 553.7 557.2 560.4 563.2 567.7 573.1 578.8 585 591.3 599.6 606.8 613.5 619.2 624.1 626.1 622.3 576.4 539.4 496 480.1 469.3 465 457.7 467.1 481.6 506.1 541.2 573 605 642.1 659.8 665.3 667.9 667 657.6 628.9 593.4 562.8 548 533.2 527.4 511.5 504 489.5 480.9 472.7 469.4 472.1 489.5 500.4 509.5 526 536.9 545.4 551 555.6 554.8 553.7 562 568.8 575.8 579.3 575.5 571.8 567.8 569 564.5 560.9 555.5 551.2 544.9 533.8 530.5 529.3 525.7 521.6 522.6 533.9 533.2 527.5 523.3 520.9 521 519.7 519.9 518 507.9 505.1 505.4 511.7 514.3 516.6 518.8 513.9 515.3 505.8 492.1 486.6 476.1 458.6 429.1 408.7 392 383.1 374.3 363.3 358.6 352.5 343.5 344 337.9 329.1 318.1 313 305.5 298.4 292.3 282.2 270.4 263.6 254.4 252.3 246.8 241.6 240.5 239.1 235.4 222.4 202.3 172.5 162.3 147.4 138 129.6 121 109.8 96.9 85.8 76.2 65.7 58.9 55.3 52.9 45.6 36.1 29.4 29.4 29.4 29.4 29.4 29.4 29.4 29.4 29.4 29.4 29.4 29.4 29.4 29.4 29.4 29.4 29.4 29.4 29.4 29.4 29.4 29.4 29.4 29.4 29.4 29.4
360.8 374.5 375.5 386.9 390.7 399.9 417.5 430.9 443.5 463.3 478.5 496.1 515.6 529.6 544.7 554 557.9 559.1 556.4 558.5 558.4 558.4 557.6 556.3 555.5 556.2 554.1 556.5 555.6 560.8 565.5 567.7 572.1 575.1 580.2 585.9 592 600.2 606.3 613.6 620.2 626.2 632 634.2 635.9 608.4 556.8 514.1 491 479.8 473.7 471.1 476.7 491.4 514 544.5 579.6 616.5 649.1 670 679.6 684.5 686 674.6 625.5 591.6 575.2 560 536.2 532.9 516.8 508.6 501.9 492.1 486.1 487.2 487.6 498.1 511.6 525.1 535.2 552.8 559.8 565.5 570.3 570.8 567.8 568.2 576.4 581.6 586.4 583.4 580 576.8 576.4 575.9 571 567.7 562.8 555.5 545.7 543.4 542.6 535 534 534.3 536.5 539.4 535.5 531.4 528.6 527.5 526.5 528.2 530.5 523.9 525.3 517.8 520 515.1 519.3 518 516.3 515.7 508.5 495.2 489.3 477 454.7 432.1 411.4 396.1 386.6 375.4 367.9 362.4 355.2 351.1 347.5 344.5 335.5 325.9 321 316.2 306.7 298.1 287.3 275.5 266.2 261 259.4 251.6 243.9 242 238.1 225.3 209.3 188 171.9 158.9 146.2 134.4 126.3 118.2 106.8 96.9 87.3 78.8 70.3 63.6 57.7 53.2 44.2 33.1 29.4 29.4 29.4 29.4 29.4 29.4 29.4 29.4 29.4 29.4 29.4 29.4 29.4 29.4 29.4 29.4 29.4 29.4 29.4 29.4 29.4 29.4 29.4 29.4 29.4 29.4
355.5 369.7 376.4 382.8 390.7 399.2 416.1 429.7 442.6 456.6 477.3 491.3 508.2 525.3 539.5 552.2 559.8 567.8 564.2 564.6 565.1 566.5 566.1 563.9 562.4 562.6 561.5 561.7 565.1 566 571.8 574.8 579.2 582.5 586 592.3 599 606 612.4 619.9 627.7 633.2 639.2 643.6 646.5 642.5 589.6 535.8 504.4 492.9 487.8 482.4 489.9 499.3 524.4 553.4 586.2 621.6 659.6 682.3 691.9 698.4 701.9 676 630.9 606.5 591.1 572.8 565 533.7 520.7 515.2 511.3 504.2 498.6 501.2 504.4 510.1 521 527 542.2 557.4 568.5 576.6 583.9 586 581.3 577.9 583.6 589.4 593.3 589.9 588.9 585.1 584.7 584.4 580.2 575.2 571.8 567.3 555.2 552 551.9 544.4 544.8 545.7 544 544.7 545.1 543.1 538.8 538.9 539.3 541.9 540.3 540.3 532.3 525.3 520.4 513.7 513.9 515.7 512.3 509.6 502.3 494.9 489.3 471.6 449.7 429.4 411.5 402 392.6 380.3 370.4 366.2 366 356.3 351.1 347.9 343.2 333.2 324.9 318.1 311.2 303.5 293.2 278.8 268.5 262.6 262.9 255 245.3 239.2 232.6 222.8 199.8 181.4 169.2 155.4 143.3 132.6 124.7 116.5 106.2 96.7 87.3 79.1 73.8 69.7 59.5 48.6 41.5 30.3 29.4 29.4 29.4 29.4 29.4 29.4 29.4 29.4 29.4 29.4 29.4 29.4 29.4 29.4 29.4 29.4 29.4 29.4 29.4 29.4 29.4 29.4 29.4 29.4 29.4 29.4
362 370 378.4 386.7 389.7 398.9 407.7 422.7 437.9 450.8 471.4 489.8 506.2 523.2 537.8 548 560.1 571.3 571.7 571.7 571.2 573.2 572.3 572.1 570.1 571.9 572.4 569.3 572.9 573.4 577.9 582.5 586 589.4 592.6 597.3 604.7 613.4 619.8 626.2 634.1 641.3 646.4 652.4 656.4 656.8 630 566.7 518.6 507.1 498.1 492.4 498.4 513 532.9 562.6 594.2 628.4 667.7 693.1 704 711.5 715.6 679.6 647.4 615.5 606.8 590.1 577.2 557.6 535.8 531.3 526.1 519.5 513.2 511.3 517.6 519.1 523.2 530.1 545.2 558.2 573.2 585.3 593.4 597.2 594 587.7 590 597 601.6 597.9 596.7 595.4 593.5 589.3 588 583.5 580.6 573.8 566.2 560.4 558.1 552.4 555.5 554.8 554.8 555.1 555.5 555.4 555.8 553 550 551.1 549.8 551.4 544.7 534.9 528.7 513.5 510.4 510.7 507.2 502.5 496.8 490.4 480.8 463.2 442.9 424.9 415 404.6 395 385.9 382.8 375.3 373 364.9 358.5 352.4 346.1 338.3 330.3 323 313.8 310.8 297.9 279.4 267.9 266.2 264.7 261.3 249.3 241.8 235 226.7 200.8 181.5 170.1 159.8 143.7 133.2 124 114.7 105.4 96.5 87.5 80.6 76.2 72.6 63.3 45.9 38.1 29.8 29.4 29.4 29.4 29.4 29.4 29.4 29.4 29.4 29.4 29.4 29.4 29.4 29.4 29.4 29.4 29.4 29.4 29.4 29.4 29.4 29.4 29.4 29.4 29.4 29.4 29.4
364.9 375 381 381.2 389.8 391.5 401.3 416.2 434.1 445.2 461.9 483.5 498.7 517.9 533.3 544.6 561.4 569.4 576.8 575.8 577.6 577 579 578.4 577.1 579.7 580.7 577.7 579.8 581.8 584.1 589.8 593 597.4 599.8 602.9 608.9 618.4 627.6 634.4 641.8 649.2 655.9 662.1 665.8 668.5 642.5 586.4 544.6 525.1 511.7 506.9 513.5 526.6 542.7 568.8 597.7 634.4 673.7 706.2 719 726 722.5 692 659.1 633.2 618 604.9 591.4 587.4 560.2 546.4 541 535 529.1 527 531.9 533.2 531.1 534.8 550.7 558 567.9 589.2 600.6 603.8 600.5 597.8 596.9 602.9 609.2 606.7 602.1 601.9 599.3 597.1 593.8 590.3 585.8 581 573.3 568.3 565.4 562.2 565.2 567 564.9 566.4 565.4 566.2 566.5 564.5 562.4 559.3 559.7 559 554.4 544.5 538.1 518.1 508.9 509.3 505.5 502 496.7 492.5 482.1 462.8 444.9 426.9 417.8 411.2 401.1 391.5 389.7 382.5 374.3 368.8 363.1 357.8 349.8 343.3 334 326.7 316 307 301.9 282.1 272.2 268.6 265.7 264.6 251.5 242 235.9 224.9 199.8 180.4 171.1 153.6 139 129.5 121.9 113.8 104.6 95.8 86.6 79.4 73.7 67.6 56.6 44.7 35.6 29.4 29.4 29.4 29.4 29.4 29.4 29.4 29.4 29.4 29.4 29.4 29.4 29.4 29.4 29.4 29.4 29.4 29.4 29.4 29.4 29.4 29.4 29.4 29.4 29.4 29.4 29.4
361.7 368.1 377.3 384 389 391.4 394.8 407.7 422.9 436.3 448.3 472.7 493.4 505.7 526.4 541.3 555.6 567.4 575.5 578.3 580.3 581.8 582.5 584.1 584.6 586.1 587.3 587.3 588.4 588.6 591.7 596.2 599.5 604.5 608 612.9 617.8 624.9 634.4 641.6 650.3 657.3 664 669.6 676 679.2 654 607.4 575.8 556 532.4 528.6 533.9 540.3 557.9 581.2 613.4 636.7 673.1 709.4 730.9 739 740.8 715 680.1 654.5 633.3 624.9 617.7 605 584.5 562.1 554.2 550.5 549.7 555.8 551.7 544.1 542.4 550.4 553.8 564.9 574.7 589.3 605.6 610.4 603.7 600.2 604.2 608.8 614.5 615.5 611.1 610.9 607.4 603.9 601.8 598 592.4 586.3 580.1 574.3 572.5 572 572.2 573.3 575.2 576.9 575.1 573.5 573.3 570.8 569 566.8 562.6 561 556.5 548.5 538 526 516.1 508.2 504.5 501.4 495.9 485.1 475.3 462.2 448.9 434.4 423.8 414.7 405.5 400.2 397.9 390.3 382.8 374.2 368.9 363 356.6 349.5 337.2 326.4 317 308.8 300.7 285.2 273.3 268.3 264.2 261 252.2 241.3 229.6 214.9 199.3 189.4 176.4 162.1 149.2 135 123.6 118.4 111.1 96.6 86 76.7 68.6 58.5 49.2 39.3 31.1 29.4 29.4 29.4 29.4 29.4 29.4 29.4 29.4 29.4 29.4 29.4 29.4 29.4 29.4 29.4 29.4 29.4 29.4 29.4 29.4 29.4 29.4 29.4 29.4 29.4 29.4 29.4
363.6 370.3 376.9 383.3 388.8 390 392.5 396.4 411.9 425.6 435.9 451.3 478.5 492.4 513.7 534.8 549.3 566.5 575.3 582.3 584.5 583.6 585.9 589.1 588.4 589.8 592.5 593.9 594.6 596.4 598 601.7 604.9 611.4 615.8 622.1 626.7 634.1 642.2 649.4 658.1 665.2 672.4 679.2 685.9 689.9 671.6 629.4 606.4 589.7 565.9 552.3 552.6 561 576.3 602.7 630.4 662.4 688.4 717.2 741.6 750.1 753.3 741.2 707.4 682.9 660.2 642 634 621 603.2 586.8 578.6 574.4 578 580 566 561 564.3 570.3 575.7 578.8 578.3 589.7 602.6 612.1 611.8 613.9 611.9 616.2 622.9 622.2 620.1 618.8 614.5 609.9 607.4 603.8 598.8 591.3 586 581.6 578.4 577.8 577.3 579.8 580.2 582.8 583.1 581 578.4 577.9 575.4 573.2 569.2 562.9 558.6 550.1 538.6 530.4 527 510.4 508.6 498.2 494.4 484.7 471.2 458.6 441.5 434.8 423.3 420 417.1 407.9 403 398.1 392.1 384 374.7 365.7 361.7 355.2 344.8 330.1 318.6 314.1 302.3 287.4 273.9 268.8 264 257.9 250.4 239.9 229.4 219 215.1 204 187.8 174.3 157.4 141.8 129.8 119.7 110.3 96.4 85.9 76 64.9 55.2 45 35.1 33.1 30.2 29.4 29.4 29.4 29.4 29.4 29.4 29.4 29.4 29.4 29.4 29.4 29.4 29.4 29.4 29.4 29.4 29.4 29.4 29.4 29.4 29.4 29.4 29.4 29.4 29.4 29.4
370.7 373.3 377.2 384.4 385.9 384 385.8 391 400.9 410.9 423.5 436.3 458.5 480.3 497.9 523.1 539.6 553.1 568 578.6 583.3 586.7 585.9 590.1 591.3 592.1 595.5 597 598.9 602.2 603.5 605.9 610.6 617 622.2 627.9 634.3 639.9 647.3 655.9 664.9 673.7 681.2 688.4 694.8 699.9 689.9 661.5 637.1 625.8 613.5 587.9 582.7 594.5 610.7 640.2 658.1 692.6 728.3 740.3 755.2 758.3 760.7 760.4 737.4 710.6 690.2 669.1 658.9 645.4 641.9 634.2 615.6 605.2 609.8 600.1 595.5 594.6 603.1 599.3 597.3 595.9 588.5 589.6 601.1 612.3 624.2 625.3 621.7 625.5 630.1 630.9 630.7 624.6 621.4 617.5 615.3 610.2 604.1 598.7 594.2 586.6 584.4 584.2 582.2 581.5 583.4 584.7 584.8 584.1 581.6 581.1 578.3 574.6 568.3 562.5 556.3 548.7 539.1 528.2 517.9 511.3 504.3 497.8 492.7 485.2 474.5 466.7 460.7 456.8 447.3 435.7 426.3 419.7 410.9 401.3 394.8 389.6 380.2 369.6 362 355.7 342.5 330 321.5 316.1 303.3 283.3 273.5 268.2 262.3 257.5 250.2 242.7 233.9 224.8 222.1 209.9 194.3 178.3 161.2 146 132.5 120.2 108.8 95.6 85.3 74.8 63.5 52.1 40.1 33.6 32.9 33.2 32 29.4 29.4 29.4 29.4 29.4 29.4 29.4 29.4 29.4 29.4 29.4 29.4 29.4 29.4 29.4 29.4 29.4 29.4 29.4 29.4 29.4 29.4 29.4 29.4 29.4
374.5 375.1 377.4 376.3 381.9 379.8 382.4 385.8 395.6 408.2 416.7 426.9 438.2 463.5 488.8 504.9 529.1 544.8 560.3 570.4 577.8 581.7 584 587 592 594.1 596.2 597.5 600.3 605 605.7 608.9 613.7 619.2 625.5 632.1 639.1 646.4 651.8 661.3 671.6 680 688.4 696.8 704.5 711 714.5 702.2 684.3 658.6 640.5 623.6 616.1 634.8 657.3 693.7 704.4 735.4 747.7 757.6 762.4 766.2 766.1 765.7 762.6 752.9 726.8 697.3 684.9 676.8 674.5 670.2 657.7 651 641.6 631.5 628.7 643.6 652.5 636.3 632.6 616.8 606.1 610.9 620.6 621.7 631.7 638 637.1 637.8 638.4 639 638.2 633.4 631 626.2 621.5 615.8 610.5 605.6 600.4 593.2 590.8 588.5 584.6 584.5 587 586.2 586 586.9 586.3 583.9 579.4 574.5 566.2 559.5 551.5 541.1 532.5 523.1 517.1 507.5 502.3 499.5 496 490.3 487.3 480.2 471 465.7 456.6 444.4 434.1 426 416.6 408.5 401.8 389.3 380.9 372.4 365 354.2 341.6 333.2 318.3 311.4 300.2 283.9 272.5 264.7 260.9 255.3 250.4 242.1 233.9 226 220.3 208 192.2 177.7 161.6 147.3 133.8 121.7 109.8 97 85.4 73.4 61.8 48.9 37.1 37 37.2 36.9 35 29.4 29.4 29.4 29.4 29.4 29.4 29.4 29.4 29.4 29.4 29.4 29.4 29.4 29.4 29.4 29.4 29.4 29.4 29.4 29.4 29.4 29.4 29.4 29.4 42.3
377.2 376.4 375.5 373.5 375 377.5 377.8 374.6 383.4 395 411.5 419 431.8 457.5 481.6 501.6 523.2 539.3 559.6 571.4 580.9 583.8 579.8 584.9 592.4 597.8 596.8 602 603.2 608.6 610.7 611.7 614.8 620.9 629.1 634.5 642.4 649.1 657.7 666.1 675 686 696.6 705.4 713.5 720.4 726.3 728.4 714.8 685.7 661.9 654.3 658 691.9 727.8 741.3 739.7 752.4 757 762.8 765.4 767.7 767 763.6 759.7 753.9 749.3 734.5 720 715.6 732.3 730.1 717.3 701 678.6 665.6 667.3 677.8 683.8 665.3 649 640.6 636.6 636.1 647.2 650.5 655.5 648 648.6 649.8 647.8 647 643.3 640.7 636.7 633.2 627.4 618 613.1 609.2 603.5 596.5 594 591.7 588.5 586.8 589.2 589.9 588.1 589.2 590.4 587.2 583.5 580.8 576.9 568.9 562.8 550 535.2 527.8 524.5 520.3 514.7 511.1 507.4 502 495.4 486 475.5 469.9 462.4 449.3 440 432.5 423.6 413.4 403.4 392.3 382.1 375.6 366.8 359.6 349.7 331.6 318.6 313.3 302.9 286 274.8 264.7 259.2 252.7 248.9 241.4 234.8 227.1 220.2 206.8 190.8 174.8 161.4 147.5 134.2 122.4 111.9 97.4 84.3 71.6 58.7 45.4 39.2 40.5 40.3 39.3 36.5 31.6 29.4 29.4 29.4 29.4 29.4 29.4 29.4 29.4 29.4 29.4 29.4 29.4 29.4 29.4 29.4 29.4 29.4 29.4 29.4 29.4 29.4 29.4 43.3 53.6
379.5 377.7 377.3 373.9 361.8 372.9 368.8 370 368.8 381.2 398.5 410.5 419.2 436.3 465.5 486.9 507.9 530.9 546.7 565.1 580.5 586.1 580.9 584.4 595.2 602 603.7 606.5 610.7 614.3 616.3 615.7 619.8 626.8 633.7 640.7 645.1 654.8 664.2 672.9 682.4 692.2 703.1 712.7 721.2 728.8 735.5 740.1 742.2 722.4 699 692 701 731.1 751.1 756.6 756.5 758.3 761.7 761.8 761.9 762.4 761.1 756.5 747.7 745.7 746.4 746.3 748.3 744.4 756.6 767.2 767 754.8 728.8 717.1 707.7 720.6 719.3 689.6 682.7 674.3 669.5 667.7 667.8 677.5 673.8 667.9 662.7 656.7 656.8 655.6 648.8 643.7 639.9 636.2 629.4 621.9 614.8 610.1 605.6 596.7 593.7 593 589.5 586 588.7 590.1 590.4 589.6 591.6 588.3 581.7 578.5 576.8 571.9 563 548.7 534.4 525.8 522 518 517.6 510.7 507.8 502.4 499.5 487.9 476.4 468.4 459 448.2 438.5 432.8 425.7 414.9 401.8 390.2 379.2 369.1 363.7 359.3 351.1 340.3 321.9 308.9 296.4 286.4 274.1 265.8 255.9 250.1 244.2 235.7 233.4 225.2 211.1 199 184 170 156.9 143.9 131.4 120.5 108.5 95.5 82.4 69.8 56.3 44.3 44.8 43.3 41.5 40.2 37.5 33.6 29.4 29.4 29.4 29.4 29.4 29.4 29.4 29.4 29.4 29.4 29.4 29.4 29.4 29.4 29.4 29.4 29.4 29.4 29.4 29.4 29.4 40.8 53.5 59.5
375.6 373.9 375.8 363.7 359.4 353.7 357.3 354.4 363 366.5 377.5 396.2 407.4 422.5 442.2 467.2 493.6 518.1 533.9 552.2 571.7 578.6 576.9 582.9 593 603.2 607 610 612.8 617.3 620.3 619.5 624 631.6 637.9 645.1 652.1 661.6 671.8 679.9 688.7 698.4 708.1 718.3 727.8 735.6 743.8 749 753.1 754.5 738.7 735.5 748.2 755.2 758 759 759.3 761.9 761.3 759.6 754.4 751 748.6 740 731.8 730.3 731 731.5 737.1 746.3 756.9 766.5 774.4 776.5 770.4 760.3 751.3 747.5 742.2 717 710.7 715.2 707.3 705.3 697.2 699.8 692.3 684.8 679.4 668.7 661.3 657.3 651.3 644.6 638.4 633.6 628.1 620.8 614.2 609.9 605.2 598.3 592.1 592.1 587.3 584.2 584.6 586 586.2 585.9 584.1 578.7 572.5 568.3 567.9 563.3 552.1 542.7 535.2 524.9 514.2 506.4 505.5 503.5 497.3 492.6 490.5 482 473.3 466.7 455.9 443.9 433.1 427.2 421.4 413 400.9 387.9 377.3 367.5 360 352.2 343.2 332.9 322 307.9 301.7 288.3 273 265.2 257.4 245.7 238.7 230.6 222.4 213.7 203.2 192.6 175.8 162 151.4 139.1 127.4 117.4 105.4 93 80.6 68.9 56.8 46.2 47.8 44.9 41.8 41.1 38.5 38.6 32.7 29.4 29.4 29.4 29.4 29.4 29.4 29.4 29.4 29.4 29.4 29.4 29.4 29.4 29.4 29.4 29.4 29.4 29.4 29.4 40.2 53.1 60.9 66.4
381.3 375.5 363.7 358.2 352.9 339.5 340.1 342.7 348.2 354.9 363.5 384 397.5 409 429.9 449.8 479.3 500.1 521.8 540.8 558.6 571.7 573 581.3 591.4 601.8 608.9 612.4 617.1 621.2 622.9 622.9 627.8 635.8 644.6 651.1 659.6 668.4 677.8 685.5 694.9 703.6 712.3 723.2 733.5 742.1 749.7 757.4 762 763.5 761.2 760.8 758.2 756.3 757.3 758.8 757.5 755.8 753.3 750.7 745.1 734.7 725.8 721.2 713.7 709.9 710.8 717.6 724.8 734.3 746.8 757.9 767.2 774.5 780 783.8 784.2 781.7 774.2 753.1 745.2 745 743.6 750.1 732.9 720.6 711.1 700.5 690.3 675.4 664.1 659.4 652.1 644.3 637.7 631.1 624.3 617.4 612.5 608.1 602.2 594.8 590.6 588 584.9 582.5 582.8 579.8 578.6 577.3 574 569.2 561.2 555.9 557.1 551.5 542.7 533.3 526.3 518.8 505.8 495.4 492.1 493.1 489.2 480.6 478.1 472.4 466.6 460.8 449.3 441 433.4 426.7 416.4 406 396.6 385 375.5 362.6 357.1 352.8 339.9 334.3 326.2 308.9 299.6 290.2 273.1 263.3 254.8 242.3 233.5 223.9 211.2 203.2 195.6 185.9 171.9 156.1 145.1 133.7 122.7 113.1 101.6 91.3 80.3 68.2 56.2 49.5 48 45.8 46.3 42.4 41.2 43 34.5 29.4 29.4 29.4 29.4 29.4 29.4 29.4 29.4 29.4 29.4 29.4 29.4 29.4 29.4 29.4 29.4 29.4 29.4 36.9 53.1 64.3 69.6 69.5
382.9 378 368.6 349.9 338.6 327 324.3 328.7 337 340.1 349.9 365 382.8 398.5 415.3 435 458.3 487.2 506.3 527.1 543.7 559.4 569.5 579 586.8 598.4 608.5 613.6 619.5 624.3 624.6 623 629.3 638 648.9 656 664.7 673.9 681.3 690.3 699.7 709.3 719 728.7 738.5 748.7 756.2 763.1 768 766.9 763.1 759.9 754.4 751.3 750.7 747.6 745.4 744.2 741.2 735 726.3 719.3 708.7 703.5 697.8 689.3 692.8 700.1 712.3 724.6 737 748.8 760.6 770.4 777.8 786.3 790.5 789.4 791.1 791.7 794.3 791.5 781.3 765.2 752.5 739.4 723.5 711.4 698.1 682.2 669.1 657.5 652.2 643.3 636.7 625.6 619.4 611.1 607.7 604 598.9 590.9 586.5 584.4 580.2 578.6 577.8 576.2 573.2 569.4 565 560.5 552.9 547.6 542.6 540.7 531.5 524.4 514.6 506.2 494.8 486.9 483.1 483.1 477.5 472.2 466.9 464.1 457 448.9 439.7 432.3 429 423.4 414 400.9 390.6 376.9 368.6 358.3 351.8 346.6 333.7 329 314.1 303.2 294.7 289.6 271.9 254.5 244.6 233.8 228.9 214.3 204.3 189.6 184 176.5 162.8 148.7 137.1 127.1 118.4 108.7 98.7 88.8 78.7 65.5 56.3 52.9 49.8 47.4 46.2 42.9 42.6 41.5 35.2 29.4 29.4 29.4 29.4 29.4 29.4 29.4 29.4 29.4 29.4 29.4 29.4 29.4 29.4 29.4 29.4 29.4 32.2 49 61.8 72.1 77.1 74.1
381.4 375.1 368.3 354.3 329 317.1 310.3 313 323.6 328.8 335.5 345.7 366.8 384 399.7 418.6 442.7 468.7 493.9 513.1 533.2 547.6 562.4 575.1 582.4 594.1 604.1 612.6 616.9 623.1 624.6 626.8 633.2 640.7 651.6 660.2 668.7 677.4 684.8 693.8 704.5 714.1 723.4 733.6 743.6 753.3 760.5 765.8 767.8 760.2 747.2 739.1 737 732.4 729.2 727.3 724.6 722.6 718.3 715.6 710 702.7 694.8 688.5 680.6 671.1 677.1 685 698.3 712.9 726.4 741.6 753.6 767.5 776.9 784.8 790.2 792.9 792.5 793.8 794.3 792.1 783.6 770.5 760.7 749.6 733.2 712.9 698 685 672.6 659.2 649.7 644.1 632.2 624.9 613.7 606.1 602.3 599.8 592.2 583.5 583.5 579.9 578.3 574.8 573.7 571.6 568.5 564.5 559.2 551.2 544 538.9 532.2 528.2 519.5 509.9 503.6 492.9 482.7 478.1 472.2 469.5 466.1 462.1 454.5 451.3 447.2 437.1 431.3 424.2 416.7 412.2 404 394.8 383.7 371.5 361.5 354.9 346.1 339.8 322.8 316.4 304.9 295.4 288.5 282.3 265.4 247.3 234.2 226.1 215.9 202.4 191.6 179.8 169.4 165.4 151.2 140.3 129.6 119.8 110.6 103.9 93 85.1 73.5 64.5 58.9 54.3 50.9 49 45.2 42.7 42.7 41.7 34.3 29.4 29.4 29.4 29.4 29.4 29.4 29.4 29.4 29.4 29.4 29.4 29.4 29.4 29.4 29.4 29.4 30 49.2 58.5 68.3 79.1 79.7 78.6
372 363.2 359.1 351.9 333.2 318.8 308.1 301.1 311.7 316.5 319.6 329.2 347.8 364.6 383.4 406.1 427.1 448.1 480.3 498.7 516.6 536.6 552 565.9 574.7 586.3 597.5 605.6 612 618.2 621.6 626.6 633.9 643 653.9 663.5 671.4 679.7 687.3 696.3 708.3 718.5 728.3 738.4 747.7 756.5 763.4 767.3 763.1 730.6 712.2 704.4 704.7 699 695.6 694.7 694.9 693.6 693.7 691.5 691.1 683.4 677 663.5 662.1 654 658.6 672.2 689.3 704 716.9 734.1 749 763.9 776.6 783.9 789.8 793.4 792.6 790.9 791.2 787.7 780.8 772.3 762.9 752.5 738.3 717.4 699.4 687 673 657.7 649.5 643.7 634 623 616.2 605.1 597.5 587.9 582.3 577.5 577.4 576.3 575.5 573.3 569.3 568.2 565.4 560.1 553.1 546.6 540.2 532.7 524.8 516.5 508.5 498.1 493.3 482.3 471.9 465.7 458.7 455.1 450 447.4 440.9 437.2 433.6 426.3 419.5 413.5 406.8 396.2 388.4 380.3 370.3 361.1 353.2 343.4 332.9 328.4 313.2 305.1 291.3 283.2 275 266 247.7 231.7 221 211 202 189.4 175.9 167.9 157.6 147.4 141.5 134.3 121.2 112.9 103 96.5 89 79.9 72.3 66.8 59.8 53.6 51.3 48.1 44 42.1 43.2 38.3 32.9 29.4 29.4 29.4 29.4 29.4 29.4 29.4 29.4 29.4 29.4 29.4 29.4 29.4 29.4 29.4 29.4 41.9 55.9 68.4 71.7 78.5 79.2 80.4
372.8 363.9 351.1 342.3 334.1 318.7 308.6 299.4 294.9 304.5 308.2 316.4 329.4 346.4 362.4 382.5 409.8 439.4 457.1 481.4 504.3 521.9 540.1 552.7 564.6 577.9 588.9 598.5 606.1 612.4 617.7 625.6 633.4 643.3 653.1 664.1 674.2 683.3 690 699.4 711.6 723.1 733.1 742.6 751.3 758 763.7 766 750.7 712.1 685.4 673.6 670.2 669 662.4 662.8 661.8 665.7 668.2 665.9 662.5 653.3 651.8 644.9 638.2 636.2 641.7 658.1 675 693.3 710.7 727.5 747.2 761.6 775.2 786.8 789.4 790.9 790.8 789.5 786.4 782.7 773.9 767.9 760.9 748.7 731.2 715.4 698.8 681.1 667.2 653.7 647.2 640.2 627.1 621.3 610.9 605 595.2 587.6 577.9 571.1 570.3 571.1 571.5 570.9 568 565.3 558.3 555.9 550.8 545.1 540.1 534.9 526 514.4 504.2 491.5 474.9 465 457.7 455.3 446.8 438.8 434 426.4 424.5 419.3 416.5 409.7 405.3 400.2 391 380.1 369.6 366.5 360.3 348.6 339.3 332.1 318.6 308.8 300.7 291.5 280 266.2 254.2 237.1 220.1 204.4 197 188.2 175.4 165.9 155.2 144.5 133.6 118 115.2 113.5 112.5 112.4 105.5 95.1 85.1 73.1 66.5 56.9 55.7 51.1 50.9 46.7 43.5 41.1 38.4 36.3 32.6 29.4 29.4 29.4 29.4 29.4 29.4 29.4 29.4 29.4 29.4 29.4 29.4 29.4 29.4 29.4 30.4 52.2 61.1 67 70.2 74.1 77.5 82.4
371.9 363.3 354.2 345.6 324.1 312.2 306 297 286.4 289.7 295.5 303.1 313.9 329.4 348.5 368.3 387.1 420.5 448.3 469.1 490.8 512 529.1 542.4 552.4 566.8 579 588.8 598.2 607.6 614 621.8 630.3 641.5 651.2 663.4 674.1 684.4 692.9 703.3 713.7 725.5 734.7 744.1 752.8 760.4 767.2 762.7 733.6 704.1 666.2 649.2 641 635.3 630.1 627.1 628.7 637.5 641.8 631.3 632 627.3 626 620.4 619.2 618.1 640.2 660.1 679.1 694.5 710.5 726.2 743 759.1 775.7 789.1 792.2 788.4 784.3 781 776.3 771.4 764.1 756.6 748.4 735.2 714 702.3 688.2 673.2 661.4 648.7 642.2 637.1 625.1 615 609 600.5 592.5 584.8 575.9 564.1 562.4 564.7 564.8 565.8 564.5 561.3 554.9 548.6 546 541 537.2 533.1 524.2 515.2 504.2 495.5 485.7 477.1 466.9 454.5 437 416.3 409.8 408.7 401.4 396.7 401.2 394.1 388.8 382.1 367.4 355.7 345.7 343.5 340.8 331.5 323.1 310.4 296.5 282.3 269.9 258.4 249.7 238.1 228.7 209.5 194.1 176.4 167.2 153.5 153 142.1 146.7 154.4 158.5 153.6 144.8 139.4 132.9 121.6 110.4 98.7 87.8 76.4 71.1 66.8 61.8 55.6 50.9 43.9 38.9 38.9 37.8 35.8 34 29.4 29.4 29.4 29.4 29.4 29.4 29.4 29.4 29.4 29.4 29.4 29.4 29.4 29.4 29.4 44.7 55.9 63.1 66.3 73.6 79.7 80.3 87
365 356.6 347 340.6 324.5 307.4 299 289.9 285.3 284.6 277.1 287.1 300.4 317.1 332.6 353.4 375.2 412.1 425.8 447.9 470.6 493.1 514.7 529.6 541.7 555.7 569 582.2 594 601.9 607.7 614.8 623.5 636.6 650.2 661.8 672.8 682.4 691.7 703.9 714.4 725.5 736.6 745.8 754.1 761.3 766.9 754.2 714.9 686.7 658.9 637.2 630.8 621.5 616.3 612.4 609.3 610.9 618.4 603.3 603.4 604 605.4 598.9 594.9 610.6 636.6 658 674.3 691.2 708.8 725.6 740.9 756.6 770.8 783.4 790.1 786.7 780.6 773.9 767.3 760.3 752.9 743.6 731.8 714 700 688.4 678.8 663.5 650.1 642.7 637.1 631.7 622.8 613 602.6 591.4 587.7 578.6 568.4 556.5 551.3 553.8 557.8 559.8 557.6 555.6 552.4 547.6 542.5 539.1 533.5 528.4 520.1 512.1 501.8 493.6 485.4 478 469.1 457.1 445.7 433.4 419.6 409 402.1 389 373 368.9 364.8 360.6 323.8 325.1 315.5 313 313 301 287.3 280.2 266.4 248.3 239.5 228.6 217.5 203.4 194.5 182.4 184.7 190.3 193.4 192.6 191.2 192.8 188.4 188.7 183.2 172 159.2 150.2 133.3 120.4 108.8 96.9 86.6 76.3 72.9 67.4 62.9 56.5 50.5 47 47.5 38.2 35.8 34.9 33.3 29.4 29.4 29.4 29.4 29.4 29.4 29.4 29.4 29.4 29.4 29.4 29.4 29.4 29.5 40.9 52.5 60.2 66.5 70.1 74.7 82 83.8 90.1
341 331.4 323.2 320.3 314.7 301.3 291.8 286 279.6 276.8 276.4 277.9 290.4 302.7 319 335.1 357.1 384.1 408.5 428.9 451.3 470.7 498 515.9 530.8 544.5 560 571.9 584.7 594 600 609.7 619.8 630.2 645.2 658.3 671.1 681.1 690.7 703.2 714.7 726.1 736.8 745.5 753.5 760.5 763.4 740.1 700.9 684.1 652 634.4 615.7 606.5 598.7 594.7 594.1 594 586.5 582.9 583.6 585.6 583.6 579.4 575.5 600.5 630.2 651.6 669.7 686.5 705.5 723.3 739.5 755 768.5 778.9 784.5 784.7 778.7 771.4 758.6 750.6 740.6 727.3 713.9 700.4 689.3 679.4 668.5 654.8 643.6 636.4 631.9 626.7 619.6 607.7 599.4 588.3 581.7 572.5 559.5 552.4 540.3 540.3 547.9 550.3 550.2 549.6 547.1 543.7 540.4 536.8 532.7 526.8 521.5 515.4 504.7 496 487.4 480.1 472.4 464.7 455 446.2 437 428 421.3 411.6 396.8 385.1 375.5 363.6 353.2 334.8 319.3 300.2 287.6 265.2 262.6 239.3 239.9 235.1 233.4 226.9 222.3 224.3 227.5 231.5 232.6 233.4 236.1 236.2 229.8 222.3 214.5 204.3 191 171.9 155.6 142.9 130.3 119.4 106.5 95.3 83.9 78.9 74.7 69.3 61.5 54.5 50 48.1 47.1 40.4 33.7 33.4 30.9 29.4 29.4 29.4 29.4 29.4 29.4 29.4 29.4 29.4 29.4 29.4 29.4 29.4 37.6 48.4 57.5 64.6 69.9 78 77.8 85.7 87.8 95.3
307 305.1 302 298.6 298.3 291.8 282.6 275.3 270.7 269 266.5 268 278.3 292.8 301.3 320.5 338.6 361.1 383.5 410.2 434.1 457.8 479.2 499.1 518.2 532.6 547.8 560.6 575.2 586.1 593.2 605.2 616.5 628.3 641.2 653.5 666.8 677.1 688.8 699 711.8 723.5 734.5 742.9 750.2 757.2 761 737.6 701.6 679.8 655.8 635.1 607.9 597.1 584.4 576.4 575.2 572.6 570.8 570.3 570.3 565.7 562 560.6 567.1 585.8 613.8 644.4 666.3 682.7 701.4 719.6 736.4 751.9 764.7 774.7 777.6 779.4 773.5 764.4 754 743 724.2 710.2 696.8 686.3 676.9 667.7 657 646 636.6 629.9 625.3 620.5 614.4 604.4 594.7 584.4 573.4 564.6 554.8 542.2 532.7 525.2 536.4 540.2 542.8 542.3 542.2 541.7 539 535.9 533.4 528.5 524.6 518.1 510.7 504.2 493.8 482.7 476.5 468.5 461.2 452.8 445 436.2 429.1 421 413.1 402.8 392.6 383.7 371.4 359.5 344.7 327.8 314.6 303.8 292.8 283.3 275.6 270.2 265.5 263 262.5 264.7 271.1 273.3 271.3 272.1 266 251.2 243.6 230.3 218.2 206.5 191 172.4 157.5 139.8 127 117.3 105.1 92.9 88 83.4 77.8 70.9 62.2 53.5 49.9 47.5 42.4 36.1 32.9 30.1 30.1 29.4 29.4 29.4 29.4 29.4 29.4 29.4 29.4 29.4 29.4 29.4 29.4 33.1 45 54.6 60 68.4 75.6 81.2 87.6 87.5 89.9 92.8
285.1 288.1 282.4 281.2 279.3 279.4 273.5 263.8 258.8 256.7 260.4 258.3 268.1 278.3 290.4 304.9 323 342.7 363.7 386.1 412.4 440.6 456.1 477.9 501 515.9 531.9 549.5 563.2 576.2 585.3 597.4 610.6 622.3 633.1 646.4 657.9 671.5 683.8 693.5 704.7 717.2 729.2 737.3 743.3 750.7 757.3 756.2 719.2 692.7 676.8 650.5 613.9 587.4 573.5 563.8 558.2 555.2 557.5 557 554.3 546.3 545.8 545.5 549.7 573 602.1 635.3 658.8 678.7 696.8 714.7 731.9 747.2 759 768.6 773 773.2 771.2 758.5 746.7 733.5 717.9 697.2 683 674.1 666.4 658.4 648.8 639.7 628.3 622.3 617.3 612 606.7 599.4 589.1 575.7 548.5 552 546 535.8 515 504.7 517.5 527.6 533 534.3 537.8 539.1 538.2 537.7 533 528 523.5 518.4 513 507.5 499.6 490.1 480.2 470 462.7 455.6 448.5 441.2 434.4 428.2 419.6 412.7 405.3 395.2 386.2 376.9 366.3 353 344.1 334 321.6 316.4 311.8 307.1 301 302.2 298.9 298.7 298.6 295.2 288.7 284.5 273.6 254.1 244.2 231 219.1 199.6 183.3 168.3 149.4 134.7 120.6 110.9 101.3 94.4 91.8 87 79.4 70.5 61.1 53.9 48.3 42.9 37 33.9 32.5 30.6 29.4 29.4 29.4 29.4 29.4 29.4 29.4 29.4 29.4 29.4 29.4 29.4 29.4 41.4 53 62.3 66.2 74.9 80.2 84.5 89.4 89.7 91.4 93.4
259.1 266.2 269.1 263.5 262.5 261.4 258.5 251.5 246.5 244 246 249 257.2 266.8 276.6 292 308.7 322.9 346.4 366.6 389.7 418.4 436.7 452.2 471.5 491.5 512.9 533 547.7 562.7 573.3 585.4 599.3 614.2 626.7 638.5 649.9 662.3 675.6 685.7 697.3 708.6 719.7 729.4 736.9 744.1 751.8 756.2 740.5 718.1 687.4 655 623.2 594.1 561.1 555.5 551.1 544.9 542.2 538.1 535.3 535.9 532.2 529.7 534.9 558.1 581.9 613.7 642.1 668.4 690.9 708.4 725.3 743.1 756.8 766.4 769 769.9 764.6 753.4 740.1 724.1 708.7 689.3 673.6 662.6 655.1 647.8 639.1 633.2 623.7 616.2 609.5 599.7 592.5 590 581.1 562.2 544.3 521.2 525.7 523.6 509.5 486.4 499.9 508.6 519.8 526 529 534 536.7 536.5 534.7 531.8 526.7 521.1 515.9 510.7 503 495.1 484.8 473.5 465.3 458.3 451 445 438.2 433.5 424.4 417.1 409.6 403 392.3 384.3 376.7 371.4 363.1 353.1 343.7 336 329.1 326.2 322.6 319 314.4 309.2 303.5 299 290.6 282.8 268.8 253 237.4 224.9 210.8 196.6 181 162.9 143.3 131.1 118.1 107.2 99.9 97.3 91.7 85.7 77.9 67.9 58.9 52.3 45.9 38.8 34.2 30.7 30.4 29.4 29.4 29.4 29.4 29.4 29.4 29.4 29.4 29.4 29.4 29.4 29.4 29.4 39.5 48.7 59.4 68 70.2 79.3 87.8 94.9 92.4 91.3 91 95.8
239.7 241.3 242.4 245.3 240.1 240.5 239.6 236.9 231 230.5 232 234.4 245.3 255.7 266 276.7 289.8 306.6 326.6 349.1 374.2 393 412.4 430.8 449.2 471.8 492.5 512.1 533.1 545.7 557.2 569.4 584.3 600.3 614.5 625.3 638.9 651.2 662.9 674.7 687.6 700.2 708.6 720.3 727.6 734.6 742.1 745.7 739.2 721.2 687.1 654.8 622.2 600.2 573 554.8 546.8 537.4 531.2 527.7 522 518.6 516.9 514.5 521.4 541 561.8 586.1 621 652.1 682.5 701.2 716.8 733.8 748.3 760.5 763.6 763 756.2 746.5 731.1 714 698.9 685.8 667.5 651.7 644.2 636.1 629.8 626.1 617.4 609.3 602.1 590 576.9 572.3 561 545.7 516.7 490.8 501.8 503.9 498.6 473.5 481.4 486.5 495.2 503 513.9 525.1 532.2 534.7 538.5 536.1 532.9 526.7 522 517 508.6 499.7 488.8 477.6 467.8 459.8 453.6 446 441.1 436.1 429.9 423.3 415.2 407.1 399.9 391.7 384.7 377.6 370.3 362.5 356 347.8 340.5 335.5 331.1 325.7 319 313.3 303.9 295.8 285.7 274 262.4 247.9 233.1 219.9 204 188.9 172.8 154.5 138.8 127.3 116.4 106.4 100.7 98.4 91.5 83.6 74.3 63.5 56.3 48.6 41.9 35 29.7 29.4 29.4 29.4 29.4 29.4 29.4 29.4 29.4 29.4 29.4 29.4 29.4 29.4 29.4 30.6 43.6 53.9 64.9 68.7 76.6 88.3 91.6 93.2 93.3 93 91.8 99.5
214.7 220.6 219.8 220 222.6 222.3 222.1 218.9 218.1 217.3 218.9 223.1 232.9 241.9 253 265.1 276.2 288.5 303.7 325.7 351 372.1 392.6 407.2 426.5 447.5 472.4 492.9 511.1 524.1 537.6 548.9 564.4 580.2 594.6 608 621.2 635.3 649.9 663.3 675 686.7 700.2 710 717.9 725.6 731.9 733.4 729.2 721.2 698.8 665.1 639.2 609.3 585.2 563.7 547.2 537 526.6 517.6 512.8 507.8 506.4 504.8 508.9 521.4 540.8 565.6 592.9 630.9 665.8 689.2 706.9 723 736.5 747.9 753.2 748.3 747.5 740.6 723.7 703.5 689.8 679.2 664.6 643.9 635.8 628.6 622.3 616.9 611.7 604.2 595.9 585.5 570.2 549.5 545 535.1 505.6 463.3 478.8 477 476.8 465.4 456.4 463.6 469.3 475.1 492.6 510.1 522.3 529.8 536.9 540.7 534.5 531.3 524.9 521.1 512.4 503.8 491.1 479.2 468.3 460.9 455.4 451 444.8 438 433.3 424 417.7 411.5 403.4 394.3 388.7 381.6 375 369.1 362.5 356.3 346.9 340.3 336 330.5 321.8 314.1 303 289.7 278.3 265.5 255.9 238.8 223.3 211.2 195 181.7 166.8 150.7 137.2 125.2 113.8 104.1 98.9 95.3 89 78.3 66.9 57.8 49.9 43.9 37.9 30.8 29.4 29.4 29.4 29.4 29.4 29.4 29.4 29.4 29.4 29.4 29.4 29.4 29.4 29.4 29.4 40.2 49.3 60.5 65.1 71.1 83.2 91.8 92.1 94.3 94.5 93.4 93.6 105.1
198.7 201.6 201.3 201.3 200.4 201 201.3 202.4 203.2 206 205 211.5 219.6 225.8 237.8 250.8 263.5 273.8 283.6 298.9 323.1 345.3 363.7 383.4 401 422.3 448.7 468.6 482.2 500 514.6 527.1 541.6 558.3 573.4 587.4 601 619.3 637.4 650.4 662.4 674.9 688.1 696.8 703.4 713.1 719.2 721 718.6 714.7 709.9 681.6 660 632.1 598.1 575.5 550 533.9 527.5 515.6 504.6 499.1 498.4 496.8 496.1 508 525.5 544.6 572.6 606.8 646.7 672.1 691.4 707.9 721.5 732.2 739.1 737.3 735.7 729.6 714.5 696 680.6 667.6 650.6 637.6 630.2 623.9 614.2 607.3 601.7 594.7 585.7 573.7 561.7 545.8 530.3 518 491 441.3 446.5 450.8 450.6 449.7 423 431.2 436.2 447.3 469.2 484.7 503.4 514.6 525 534.7 532 526.7 521.8 518.4 512.6 503.3 492.7 479.5 467.5 461.6 456.2 451.3 446.2 440.2 433.7 428.1 421.6 412.3 404.2 395.5 389.7 383.5 377.7 371.5 368.2 360.8 352.6 344.9 336.7 329.7 320.4 310.6 301.4 293.1 274.1 258.6 248 233.4 220 200.1 189 179.7 165 149 134 119.4 109.1 99.8 94 88.7 79 68.9 59.3 51.1 43.7 36.5 31.5 29.4 29.4 29.4 29.4 29.4 29.4 29.4 29.4 29.4 29.4 29.4 29.4 29.4 29.4 29.4 38.1 44.4 54 62 66.2 73.2 84.5 89.6 92.5 99.8 95 94.9 105 106.9
183.3 189.1 190.2 190.9 187.6 185.7 184.7 186.4 188.3 191.3 190.4 198.6 206.5 213.3 221 235.1 248.6 261.7 272.2 282.4 295.1 321.1 340.7 359.6 372.8 397.2 418.4 446.9 459.4 472.7 487.2 501.5 518 533.1 551.5 565.8 580.7 597.4 615.1 631.3 650.4 661.5 673.8 682.4 689 696.6 702.2 707.1 706.1 706 703.5 696.9 674.3 642.4 611.5 582.4 559.4 541.7 529.7 522.6 509.4 494.7 486.6 485.7 482.5 494.2 510.9 531.6 556 590 628.8 653 674 690.4 706 718.4 725.7 728 724.6 718 707.2 689.9 673.4 660.4 649 634.9 625.6 618.3 610.8 601.5 588.5 582 573.1 562.9 555 538.3 518.9 501.2 471.9 440.7 421.6 422.1 423.7 426.2 412.1 401.1 407.1 415.2 434.7 452.4 470.4 487 504.8 522.7 523.6 522 519.2 514.9 507.2 497.5 486.2 472.6 465.8 459.2 454.9 449.6 444.1 439 432.9 428.5 420.5 411 404.8 397.6 391 384.3 378.1 372.3 365.2 360.9 353 344.8 336.9 328.9 320 306.3 297.8 286.9 269.8 255.8 240.5 222.9 210.7 194 179.6 172.1 157.8 142.8 129.5 116.5 104.7 94.6 87.7 80 70.5 61.3 53.2 45.6 37.2 29.8 29.4 29.4 29.4 29.4 29.4 29.4 29.4 29.4 29.4 29.4 29.4 29.4 29.4 29.4 29.4 29.8 39.8 47.2 57.8 64.3 70.6 76.5 82.9 87.7 92.7 97.8 96.9 101.6 108.8 108.4
176.8 174.8 176.8 176.1 174.7 175.3 176 174.8 177.2 179.1 176.7 185.9 194.6 202.6 208.1 218.5 235.1 248 260.1 270.1 279.7 293.4 319.8 336.5 353.1 370.5 392.3 411.4 441.8 449.5 460.9 476.8 493.6 511.6 529 545.9 564.1 578.6 595.2 611 629.3 642.8 652.8 664.2 670.4 677 685.4 689.5 692.2 691.8 691.8 687.3 676.7 657 626.6 601.4 574.9 555.7 536.5 528.1 512.5 499.3 484.4 475.5 468.4 479.5 498 521.1 544 577.7 613.7 637.8 656.8 673.1 689.8 704.2 714.1 716.8 715.9 710 697.5 686.2 671.6 657.6 648.9 637 623.3 613.2 603.7 594.7 580.7 574.1 555 551.7 544 527.9 509.3 489.9 441.4 418.3 402.3 398.7 395.7 390.8 389.7 369.4 375.9 390.6 404.5 421.6 437.8 458.1 475.2 494.3 506 511.6 510.6 508.2 500.6 488.4 474.8 466 460 454.5 448.9 445.7 439.9 435.7 433.2 428.5 422 413 404.5 397.8 391.1 384.8 377.6 371.7 364.9 357.5 348.7 341.2 331.7 321.3 313 299.6 289.3 277.1 263.1 246.7 230 212.7 198.1 184.7 168.7 158.7 147.5 135.6 124.8 113.6 101 91.5 82.4 74.9 65.3 55.6 47.5 39.4 31 29.4 29.4 29.4 29.4 29.4 29.4 29.4 29.4 29.4 29.4 29.4 29.4 29.4 29.4 29.4 29.4 37.5 41.5 51.9 61.9 70.4 73.8 79 82.9 88.5 92.4 97.8 99.9 107 109.2 109
171.6 166.4 164.4 161.4 165.9 164.3 165.1 166.3 166.1 167.2 167.9 171.7 180.7 190.5 196.5 203.6 216.5 233.6 247.7 258.3 266.8 276.2 291.1 312.8 327.7 344.7 366.9 387 403.8 418.8 436.4 454.2 471.4 490.9 510.5 529.2 545 559.7 576.2 592.6 607.8 621.7 632.5 642.7 652.1 657.4 667.6 671.4 674.1 677 673.6 672.2 668.9 661.7 641.8 619.9 592 568.2 542.7 531.8 518.5 502.5 485.5 468.6 460.5 474.9 487.1 507.8 534.5 564.3 599.6 625.5 642.2 655.3 672.1 689.7 697.9 704.8 708.5 706 693.8 682.1 668.6 654 644.6 630.8 617.3 609.4 604.4 599.1 590.7 580.7 567.3 551.3 531.6 516.8 504.4 473.8 433 400.6 382.2 376.6 369.6 364.2 365 357 356.8 365.3 377 392.3 406 421.2 438.2 458.4 475.4 488.4 499.5 496.9 491.4 481 467.1 458.4 451.1 448 444 439.1 435.1 433.5 429.9 425.6 421.9 412.7 404 396.1 391.6 383.9 375.6 368.9 361.5 353.1 344.5 333.4 323.1 313.5 302.1 290.8 279.9 268.1 256.1 239.8 221.2 204.1 190 175.2 163.6 149.5 138.7 129.5 118.9 108.7 98.3 89.8 80.5 71.9 60.5 51.7 44.5 32.3 29.4 29.4 29.4 29.4 29.4 29.4 29.4 29.4 29.4 29.4 29.4 29.4 29.4 29.4 29.4 29.4 32.9 41.7 52.9 61.7 66.2 73.6 81.5 87.1 85 89.4 94 99.6 104.3 106.9 107.8 109.5
154.6 160.1 156.1 154.5 149.3 152.4 154.3 159.8 158.4 158.2 155.5 160 163.7 175 184.1 192.4 201.5 215 231.5 244.8 254.4 264.8 276.8 289.6 305.8 323.1 339.1 356.6 376.5 394.4 411.8 431.6 451.4 465.8 485.1 506.2 522.9 538.1 556.3 574.1 588.3 600.4 610.7 620.8 629.7 636.9 647.5 654.5 657.1 658.3 657.4 653.9 652.9 645.9 636.3 619.8 598.3 577.9 548.2 527.6 520.5 507.8 487.1 471.3 452.6 466.3 475.9 494.9 520.3 546 587 609 625.8 639.6 656.3 670.3 682.4 691 697.1 696.2 690.1 676.4 667.9 656.9 651 640.7 624.8 610.3 600.5 598.6 593.2 582.4 569.4 555.7 542.8 518.4 499.3 478.1 433.5 398.7 381 370.4 354.9 339.5 342.9 336.1 335.8 343.1 355.6 365.3 377.1 390.2 407.4 427.7 442.7 457.5 470.7 475.9 473.7 468.2 458.6 448.7 443.2 441 436.1 433.9 430.7 428.7 424.9 422.8 417.5 408.4 400.5 393.9 388.4 380.5 371.2 363.3 354.9 346.1 336.1 323.8 311.5 301 291.3 281.9 270.7 259.5 248.9 232.9 213.4 196.7 181.4 166.8 156 145.3 130.8 122.6 111.9 100.4 92.3 83.6 74.7 62.5 53.6 44.7 36.8 29.4 29.4 29.4 29.4 29.4 29.4 29.4 29.4 29.4 29.4 29.4 29.4 29.4 29.4 29.4 29.4 29.4 41 48.9 60.5 66.1 70.9 78 84.4 88.7 90 91.8 95.5 102.1 105 107.6 107.4 107.2
