ncols 200
nrows 88
xllcorner 160000
yllcorner 723600
cellsize 50
565 560 558.7 563.5 560.4 554.1 560.2 575.6 590.1 598.2 606.8 607.7 604.7 600.9 587.6 566.8 546.8 520.3 505.3 490.2 475.6 456.9 433.7 413.5 395.3 381.6 367.1 355.5 344.1 334.1 328.2 319.6 304.2 293.4 281.8 276.1 271 261 257.9 265.1 257.3 247 228.5 204.1 181.2 164.6 147.2 133.9 132.6 139.9 148.1 149.1 158.9 168.4 179.4 196.6 222 248.1 281 314.7 344.7 372.9 391.2 411 428.9 433.4 445.3 446.7 463.5 472 485.1 493.5 502.6 505.5 504 502.7 501.8 498.6 493.4 487.5 491.6 503.4 517.1 530.2 542.5 547.1 582.1 603.2 614.9 622.8 630.4 626.1 603.4 578.5 545.2 508.8 475.3 454.8 415.4 381 357.2 344.1 325.7 314.6 306.3 294.7 291.4 287.5 288.8 286.5 287.2 286.6 282.7 284 273.3 275.5 269.8 267.9 259.1 247.9 235.9 229.5 218.8 206.3 191.1 181.6 177.4 174.2 171.4 167.2 158.9 154.4 156 160.7 155.4 157.1 157.1 152 147.5 144.6 141.6 135.5 124.3 124.1 120.9 106.3 94.5 88.8 80.1 80 79.3 71.9 64.8 58 48.9 42.5 36.5 33.7 26.9 19.6 15.8 8.7 4.5 2.2 -1.4 -1.4 -1.4 -1.4 -1.4 -1.4 -1.4 -1.4 -1.4 -1.4 -1.4 -1.4 -1.4 -1.4 -1.4 -1.4 -1.4 -1.4 -1.4 -1.4 -1.4 -1.4 -1.4 -1.4 -1.4 -1.4 -1.4 -1.4 -1.4 -1.4 -1.4 -1.4 -1.4 -1.4 -1.4 -1.4
578 579.3 583.2 584.8 580.4 574.6 576.5 584.7 598.5 605.4 615.9 619.2 620.1 616.4 597.8 568.5 540.4 520.1 503.5 486.6 469.1 448.9 423.1 414.9 405.6 393.5 377.9 368.1 358.6 348.5 340.2 326.5 313 302.7 293.2 289.8 282.5 271.2 268.2 260.1 256.4 256.8 227.5 211.4 188.5 166.3 156.1 141.9 140.1 138.7 141.2 144.8 149.8 162.5 177.3 195.3 220 247.2 270.9 305.9 334.2 356.8 372.2 381.2 399.1 416 440.6 453.7 461 474 480.2 490.8 499.9 496.7 498.2 501.2 503.8 511 516.9 517 518.6 529.3 538.8 557 564.5 568.5 588.6 609.4 624 635.8 641.4 618.2 595.4 570.5 552.5 518.1 494.6 463.5 430.3 404.4 379.4 348.3 325.7 312.8 299.5 287.6 281.3 280.7 280.3 274.8 277.6 276.5 272.6 270.1 259.7 251.1 249.3 247.9 244.4 235.2 226.7 216.7 207.9 192.8 180.9 171 165.1 165.8 160.4 158 152.9 151.4 148.8 142.6 144.4 152.1 150.1 147 148.8 153.9 148.7 134.5 117.6 116.8 112.4 102.1 93.2 88 84 85.6 79.4 74.5 71.5 59.6 50 42.7 36.7 30.3 24.9 18.6 6.8 6.6 3.5 -1.4 -1.4 -1.4 -1.4 -1.4 -1.4 -1.4 -1.4 -1.4 -1.4 -1.4 -1.4 -1.4 -1.4 -1.4 -1.4 -1.4 -1.4 -1.4 -1.4 -1.4 -1.4 -1.4 -1.4 -1.4 -1.4 -1.4 -1.4 -1.4 -1.4 -1.4 -1.4 -1.4 -1.4 -1.4 -1.4 -1.4
587.5 592.3 598.9 603.8 606.3 607.3 600.5 601.7 613.4 622.8 628.7 629.9 631.5 626.3 608.1 582 548.4 525.7 511.2 495.2 474.7 460.6 447.1 431.8 417.2 402.8 391.7 380.4 368.6 359.6 345.5 330.1 320.3 310.7 301.1 292.5 287.7 274.5 261.7 257.6 252.2 241 228 213.8 194.3 179.1 163.8 152.5 140.5 138.5 140.5 143.3 148.4 161 175.5 194.6 215.3 238.4 266.5 292.4 317.5 341.4 352.2 379.7 396.8 413.7 431.8 444.9 457 474.2 478.2 484.6 490.4 493.4 497.5 503.6 510.6 521.3 526.4 543.3 558.2 565.6 570 582 589.3 598.4 606.7 627.7 638.4 647.6 646.8 606.9 569.5 548.8 534.9 518.9 497.4 464.4 442.3 411 383.2 354.5 345.1 314.1 290.6 279.7 270.7 268.4 266.7 263.3 262.8 262.8 261.4 258.6 249.5 241 235.1 230.4 228 224.8 217.2 209.6 195.7 183 170.1 162.1 159.3 158.3 152.5 149.6 148.1 144.4 142.6 139.7 132 140.4 138.7 139 142.2 152.3 151.5 136.7 117.2 107.2 102.7 100 94.5 90.8 88.6 82.6 81.9 74.9 68.5 60.1 52.1 43.1 30.1 24.9 19.8 16.3 9.1 3.7 1.7 -1.4 -1.4 -1.4 -1.4 -1.4 -1.4 -1.4 -1.4 -1.4 -1.4 -1.4 -1.4 -1.4 -1.4 -1.4 -1.4 -1.4 -1.4 -1.4 -1.4 -1.4 -1.4 -1.4 -1.4 -1.4 -1.4 -1.4 -1.4 -1.4 -1.4 -1.4 -1.4 -1.4 -1.4 -1.4 -1.4 -1.4
600.3 612.6 622.7 621.5 626.8 626.3 629.9 628.4 629.2 643.4 650.9 656.8 651.1 639.9 625 597.7 560.7 536.9 519.2 510.7 501.6 492.2 482 463.9 442.6 425.4 410 396.8 386.1 373.4 357.4 344 337.8 328.9 316.6 307 294.5 281.7 267.7 258.2 254.7 248.2 233.5 215.8 203.5 191.4 177.7 164.7 148 140.2 139.7 142.7 148.7 159 174.7 192.7 210.4 232.8 259.3 283.8 312.5 335.4 352.3 378.4 395.9 413.1 436.2 454.3 472.7 479.2 486.7 492.7 494.8 492.3 496.2 504.6 507.2 517.4 534.3 554 583.8 600.6 610.1 618.3 618.8 624 631.3 641.2 647.5 653.4 651.4 608.9 568.7 536 521 507.3 490 466.2 437.7 408.4 380.8 360.8 345.1 318.4 297.3 281.8 264.3 254.6 253.8 251.2 246.6 248.4 249.7 248 242.7 237.1 229.3 218.1 213.7 207.2 202.5 194.8 182.6 173.1 162.4 157.7 154.4 154.7 149.6 146.2 142.1 139.6 141.2 139.2 135.1 117.6 125.4 126.6 136.2 138.4 138.6 124 114.7 107 101.4 98.7 100 94.8 93.4 83.6 77.7 74.7 67.8 61.3 54.4 43.9 33.1 23.1 17.6 12.6 7.5 3.2 2.3 -1.4 -1.4 -1.4 -1.4 -1.4 -1.4 -1.4 -1.4 -1.4 -1.4 -1.4 -1.4 -1.4 -1.4 -1.4 -1.4 -1.4 -1.4 -1.4 -1.4 -1.4 -1.4 -1.4 -1.4 -1.4 -1.4 -1.4 -1.4 -1.4 -1.4 -1.4 -1.4 -1.4 -1.4 -1.4 -1.4 -1.4
602.6 614.8 632.8 644.7 651.6 656.2 658.6 662.6 655.6 655 666.8 669.9 672.6 663.4 655 639.2 614 566.8 547.9 537.9 515.2 505.8 492.5 473.2 455.9 440.8 427.2 410.8 403.5 397.2 378.3 355 342.2 335.7 333.3 330 316.1 303.7 283.5 268.4 262.3 253.1 244 229.9 219.5 207.4 193.5 181.1 161.2 143.1 139.9 142.7 149.3 159.8 178.2 196.4 212.5 234.6 259.9 282.2 306.6 324.1 352.6 371.9 392.3 405.7 421.9 445.3 465 480.9 489.2 493.2 494.1 486.5 497.8 504 506.1 522.2 546.9 567.3 587.8 607.7 623.8 640.3 648 655.9 649.6 646 651.8 657.3 663.9 621.7 587.1 549.1 522.1 493.4 473.1 461.2 433.5 401.9 379.3 355.6 340.8 323.4 298.5 279.9 266.1 257.5 244 237.7 237.2 239.6 240.6 239.6 237.7 231.7 219.4 212.9 202.4 194.6 183.8 181.3 170.7 162.7 155.7 152.4 149.6 148.1 146.7 146.2 145.3 138.5 135.7 135.3 128 116.4 110.6 118.8 121.8 124.7 125.6 121.8 114.3 108.1 105.3 109.1 107.9 100.8 94.7 87.4 76.8 74.3 65.9 63.5 56 49.6 38.4 27 17.9 11.2 6.1 2.8 -1.4 -1.4 -1.4 -1.4 -1.4 -1.4 -1.4 -1.4 -1.4 -1.4 -1.4 -1.4 -1.4 -1.4 -1.4 -1.4 -1.4 -1.4 -1.4 -1.4 -1.4 -1.4 -1.4 -1.4 -1.4 -1.4 -1.4 -1.4 -1.4 -1.4 -1.4 -1.4 -1.4 -1.4 -1.4 -1.4 -1.4 -1.4
593.8 614.3 625.3 637.6 661.2 668.7 677.4 678.2 679.4 677.9 671.7 670.4 670.2 670.4 665.9 653 631.9 600.1 584.5 567.7 542.4 516.2 499.9 485.8 469.5 452.2 435.4 421.7 404.7 388.5 375.8 362.5 353.9 350 344.1 336.1 326.2 312.3 293 277.3 265.4 258.8 251.5 246.6 232.4 219.1 201.6 190.9 171.2 146.3 140.6 143.4 148.6 160 181 200.9 218.9 233.8 251.6 275.7 300.7 320.6 349.9 374.6 388.7 406.6 421.4 435.5 453.9 463.9 479.3 486.9 476.3 487.7 498.4 506.5 513.3 529.6 552.7 576.2 599.2 615 632.5 647.9 661.1 672.7 674.9 674.8 671.8 664.5 670.9 643.6 611.7 579.8 534.3 496.6 465.7 448.9 425.8 402.3 380 358.3 339.9 325.7 302.1 279.7 268.3 256.6 246.2 234 225.4 230.5 233.2 232.8 230.7 223.7 213.7 205.9 199.8 187.9 178.5 167.7 163.9 157.5 152.6 148.8 146.3 144.8 144.1 143.5 143.8 138.5 133.5 127.4 126.1 123.5 112.2 95.7 105.2 106.3 111.6 114 113.2 110.9 111.2 115.4 116.5 108.9 94.4 89.8 78.9 72.7 66.3 61.3 51.9 48.3 38.3 27.2 16 9.4 5.4 2.9 -1.4 -1.4 -1.4 -1.4 -1.4 -1.4 -1.4 -1.4 -1.4 -1.4 -1.4 -1.4 -1.4 -1.4 -1.4 -1.4 -1.4 -1.4 -1.4 -1.4 -1.4 -1.4 -1.4 -1.4 -1.4 -1.4 -1.4 -1.4 -1.4 -1.4 -1.4 -1.4 -1.4 -1.4 -1.4 -1.4 -1.4 -1.4
593 603.5 620.2 631.8 649.1 673 685.5 688.5 692.4 695.9 693.7 681.9 676.3 674.7 672.3 663.1 646.8 620.3 598.4 576.6 561.4 544.4 533.6 511 490.6 466.4 451.1 435.4 415.1 385.8 368 353.2 346 344.6 357.8 357.7 335.5 309.6 305.1 295 280.5 277 270.7 254.2 240 227.1 220 202.9 183.1 153.5 142.7 143.5 145.5 160.8 176.8 187.6 206.2 222.7 241.1 260.9 280.4 309.3 339.8 386.2 393.6 410.3 424.5 428.9 438.2 444.7 455.1 469.8 477 488.6 497.7 504.7 520.4 530.3 556.2 583.8 597.3 621.6 646.3 662.8 679 687.2 687.4 687 685.8 674 674.7 664.6 646.3 599 557.6 511.1 475.6 447.8 423.5 409.5 386.3 364.9 344.9 320.5 302.1 281.6 266.6 258.4 247.1 238.5 228.6 213.1 223.7 226.4 222 215.2 210 205.6 192.8 184.7 177.5 168.9 158.7 147.8 148 146.2 144.7 142.1 138.6 139.5 138.7 137.8 134.8 130.6 133.1 121 111.7 103 89.1 97.5 98.5 102.6 105.2 105.5 112.8 116.7 114.2 111.5 100.4 85.7 79.1 74.8 71.4 58 48 41 34.1 21.4 15.3 10 6.6 3.2 -1.4 -1.4 -1.4 -1.4 -1.4 -1.4 -1.4 -1.4 -1.4 -1.4 -1.4 -1.4 -1.4 -1.4 -1.4 -1.4 -1.4 -1.4 -1.4 -1.4 -1.4 -1.4 -1.4 -1.4 -1.4 -1.4 -1.4 -1.4 -1.4 -1.4 -1.4 -1.4 -1.4 -1.4 -1.4 -1.4 -1.4 -1.4
597.6 608.1 620.2 629.3 640 655.7 684.8 689.1 694.1 704.3 697.4 692.1 680.1 668.6 669.8 663.4 646.8 618.9 604 573.9 557.8 536.4 521.1 498.4 469.3 454.7 444.9 429.7 399.5 372.6 354.7 338.4 333.4 332.1 336.3 342.6 335 326 311.7 303 296.9 278.3 265.8 254.4 244.1 235.7 217.9 208.9 186.6 162 144.4 145 147.7 156.8 165.7 179.9 194.4 214.8 239.2 264.2 302.5 325.1 351 372.3 399.8 417.2 419.9 434.6 452.6 454.2 465.1 473.1 483.1 488.4 501.8 513.4 522.2 529.7 558.2 580.5 611.8 643 662.5 679.5 690.8 696.6 690.6 688.5 691.8 680 670.3 662.6 648.5 621.3 571 538.5 491.4 461.7 427.3 406.4 390.5 372.9 353.6 330.5 312.4 288.7 272.7 261.2 250.7 242.5 235.3 226.8 213.8 211.3 210.1 206.9 205.4 201.2 192.8 185.4 177.5 166.3 153.1 135.6 123.6 138.9 137.5 137.2 132.5 134.7 136.4 134.7 127.2 124.8 128.6 124 113.7 110.9 96.2 84.4 89.1 88.1 93.7 102.6 107.5 107.4 109.7 110 103.1 91.2 80.2 74 69.6 52.4 44.8 39.4 32.1 24.2 17.2 13.2 7.8 4.2 -1.4 -1.4 -1.4 -1.4 -1.4 -1.4 -1.4 -1.4 -1.4 -1.4 -1.4 -1.4 -1.4 -1.4 -1.4 -1.4 -1.4 -1.4 -1.4 -1.4 -1.4 -1.4 -1.4 -1.4 -1.4 -1.4 -1.4 -1.4 -1.4 -1.4 -1.4 -1.4 -1.4 -1.4 -1.4 -1.4 -1.4 -1.4
596.1 609.8 621.7 631.5 641.6 651.3 667.8 684.6 695.9 701.7 702.7 693.2 679.6 637.4 630.8 621.5 607.5 592.6 578.2 561.6 539.6 515.1 482.9 455.9 434.1 420 414.2 406.7 391.2 370.6 351.4 337.5 334.5 332.2 332.1 339.2 338.3 333.7 323.9 309.2 292.6 282.5 276.4 266.5 253 241.3 228.1 217 190 173.1 151 146.2 147.9 154.2 161.5 177.9 190.1 209.9 229.7 256.6 285.1 319.1 358.3 381.8 416.8 433.3 445.5 446.7 464.1 471.9 467.2 473.6 479.4 486.8 506.2 519.4 528.5 539.1 559.6 584.9 624.5 661 675.5 687.2 694.3 692.6 689.4 691.7 690.9 684.1 674.1 649.6 624.4 613.5 589.8 551.8 514.4 486.1 439.7 411.4 387.8 375.9 361.8 339.8 327.1 297.4 285 270.2 259 247.5 241 229.1 218.6 209.3 199.1 199.8 198.9 196 191.7 187.1 180.3 169.9 158.9 148.9 137.5 120.8 128.2 127.5 126.6 130 127.8 123.3 120.5 122.3 126 119.3 117.9 115.2 105.6 89.5 78.7 81.7 86.7 92.9 101.8 101.5 102.1 99.2 95.1 89.9 80.5 64.6 52.4 45.1 39.3 34 28.9 22.6 17.1 13.3 9.2 3.4 -1.4 -1.4 -1.4 -1.4 -1.4 -1.4 -1.4 -1.4 -1.4 -1.4 -1.4 -1.4 -1.4 -1.4 -1.4 -1.4 -1.4 -1.4 -1.4 -1.4 -1.4 -1.4 -1.4 -1.4 -1.4 -1.4 -1.4 -1.4 -1.4 -1.4 -1.4 -1.4 -1.4 -1.4 -1.4 -1.4 -1.4 -1.4
599.3 608.2 618.3 639.3 645.9 654.5 668 679.3 694.6 709.5 708.5 687.8 639.5 603 597 589.8 574.3 558.5 539.8 527 502.7 478.5 456 438.9 419.7 407.5 395.5 388.9 380.2 370 349.3 335.3 333.1 334.1 330.8 329 341 348.9 336.2 321.2 303.8 293.6 265 269.6 254.6 246.2 221.2 205 181.2 165.3 150.1 144.3 146 150.7 155 166.5 181.7 197.1 220.3 253.6 285.3 333.4 370 391 410.8 424.8 443.1 453.5 458.4 464.9 471.4 475.4 478.6 484.8 508.6 528.2 538.5 549.4 576.9 606.9 629.6 664 680.2 688 690.3 683.9 681.2 684.2 687.3 679.8 668.1 648.5 607.3 571.1 576.1 548.8 521.7 494.1 456.5 416.6 391 372.8 364.9 354 335.6 314.6 296.8 281 265.8 254.5 243.1 233 221.5 213.7 203.9 195.2 194.1 191.7 186 181.3 179.5 166.8 161.6 155 140.6 130.1 122.9 105.1 121.8 122.9 115.9 115.1 117.4 122.3 115.4 117.3 119.9 118.3 113 101.1 85 80.1 82.8 88.3 94.2 96.9 93.6 91.8 86.2 80 67.9 57.8 46.5 33 27.5 26.1 21.1 20.5 17 12.4 8.5 3.9 -1.4 -1.4 -1.4 -1.4 -1.4 -1.4 -1.4 -1.4 -1.4 -1.4 -1.4 -1.4 -1.4 -1.4 -1.4 -1.4 -1.4 -1.4 -1.4 -1.4 -1.4 -1.4 -1.4 -1.4 -1.4 -1.4 -1.4 -1.4 -1.4 -1.4 -1.4 -1.4 -1.4 -1.4 -1.4 -1.4 -1.4 -1.4
598.7 609.5 623.4 632.9 643.9 659.4 668.1 676 685.9 698.3 701.1 652.9 603.6 573.1 565.2 563.1 552.6 540.1 522.7 506.6 486.2 461.5 442.8 422.8 405.2 394.3 381.2 382 374.2 362.5 344.2 327.2 331.1 339.4 325 318.3 314.1 319.3 332.4 323.4 310.9 288.8 264.8 257.6 250 237.5 216.2 194.6 177.5 163.5 150.8 145.3 143.2 145.9 151.4 161.1 177 190.3 215.1 249.3 281 318.5 379.9 401.1 417 433.4 449.4 460.5 464.7 468.2 463.3 471.1 482 499.5 514.9 530.7 539.5 558.2 592.1 629.8 652.2 658.8 676.4 682.6 669.4 656.9 656.3 659.4 677.7 672.2 661.6 637.1 602.5 556.1 535.9 534.1 512.6 489.4 460.7 426.9 406.7 385.6 365.7 357.4 347.3 334.5 312.9 294.3 277.5 263.7 249.2 236.7 224.7 215.2 206.3 201.7 199.3 193.8 190.5 185.8 180.8 171.1 164.5 156.6 147.7 139.2 128.2 118.5 106.5 105.5 107.4 109.2 108.8 110.8 111.9 109.5 114.1 117 117.8 108 94.9 74 79.9 82.8 85 87.9 85.5 80.6 78.5 70.4 60.4 51.3 39.2 30.5 24.4 17.6 16 15.9 13.8 10.4 7.8 2.3 -1.4 -1.4 -1.4 -1.4 -1.4 -1.4 -1.4 -1.4 -1.4 -1.4 -1.4 -1.4 -1.4 -1.4 -1.4 -1.4 -1.4 -1.4 -1.4 -1.4 -1.4 -1.4 -1.4 -1.4 -1.4 -1.4 -1.4 -1.4 -1.4 -1.4 -1.4 -1.4 -1.4 -1.4 -1.4 -1.4 -1.4 -1.4
605.4 614.6 621.3 631 640.9 652.4 664.7 673.3 680.1 682.1 670.3 635.3 592.5 556.2 536.6 534.1 524.8 514.3 501.6 480.6 468.5 451.4 433.6 418.9 400.5 387.1 367.8 355.4 348.4 341.8 333.3 321.8 320.4 324.7 320.1 314.4 307.9 299.3 298.6 301.8 290.1 278.7 269.9 250.4 245.6 240.1 212.3 190.3 179 164.1 148.7 143.9 142.3 143.8 145.7 160 171.7 185 207.1 233.1 268.9 307.6 349.3 380.8 410 435.8 444.3 452 468.5 465 457.7 466.8 486.7 506.5 522.3 531.3 539.1 564.9 599.3 645.9 665.3 673 663.3 643.1 635.8 630.2 638.1 635.2 645.1 645.8 641.1 616.9 575.3 541.8 504.8 495.7 489.2 470.6 449.6 423.1 403.1 398.1 384 374.5 355.9 343.4 322.5 302 289 272.9 256.6 240.9 231.1 224.9 217.2 211.3 208.8 202.8 197 189.5 186.6 177.4 165.9 156.8 150.1 143.9 134.2 124.6 116.8 105 89.4 94.2 99.4 101.8 104.1 104.6 107.2 114.7 119.9 116.3 101.8 85.8 68.1 79.5 81.6 81.2 79 75 69.3 61.3 53.1 43.7 35.2 28.1 22.9 18.3 14.4 10.8 7.9 6.3 4.8 3 -1.4 -1.4 -1.4 -1.4 -1.4 -1.4 -1.4 -1.4 -1.4 -1.4 -1.4 -1.4 -1.4 -1.4 -1.4 -1.4 -1.4 -1.4 -1.4 -1.4 -1.4 -1.4 -1.4 -1.4 -1.4 -1.4 -1.4 -1.4 -1.4 -1.4 -1.4 -1.4 -1.4 -1.4 -1.4 -1.4 -1.4 -1.4
611.8 621.5 627.8 633 642.2 652.7 666.2 674.5 682.6 682.4 665.3 629.3 595.9 555 529.1 511.9 506.5 488.5 478.3 472.8 462.2 446.3 422.4 402.9 394.5 374.6 358 349.5 335.6 327.4 320 315.8 311.8 307.9 305.6 299.9 301 295.5 286.7 281 276 273.1 247.4 238.4 220.2 211.3 214.4 187.2 168.1 154.8 151.6 144 141.8 142.8 145.1 155.5 164.8 188.5 209.4 232.9 260.5 297.1 326.4 358.5 388.8 417.5 437.5 443.8 447.9 449.2 459.7 473.6 481.7 511.1 526.4 539.5 555.2 575.5 609.2 648.5 668.3 667 649.1 622.6 601.6 592.1 590.5 599.8 615.8 617.1 604 585.4 557.1 521.3 483.6 455.1 449.1 453.5 434.2 414.1 399.4 397.4 385.6 378.8 363.4 341.1 326.6 306.8 301.1 287.6 266.2 246.8 239.6 234.5 229.5 223.8 222.4 217 208.6 195.9 190 184.6 174.8 165.3 157.2 150.8 143.2 131.7 124.3 114.1 102.6 86.3 90.6 95.2 95.9 98 101.7 110.3 115 118.2 111.2 96.2 76 65.8 76.7 76.9 75.1 69.9 62.7 55.3 47.9 37.2 28.2 23.9 19.4 15.6 13.8 10.5 5.1 1.8 2 2 -1.4 -1.4 -1.4 -1.4 -1.4 -1.4 -1.4 -1.4 -1.4 -1.4 -1.4 -1.4 -1.4 -1.4 -1.4 -1.4 -1.4 -1.4 -1.4 -1.4 -1.4 -1.4 -1.4 -1.4 -1.4 -1.4 -1.4 -1.4 -1.4 -1.4 -1.4 -1.4 -1.4 -1.4 -1.4 -1.4 -1.4 -1.4
620.9 626.2 634.3 644.2 651.3 660.3 669.7 680.2 690.2 693.1 685.6 646.7 602.3 566.7 531.6 499.3 485.4 475.5 462.3 455.3 447.8 437.3 410.2 385.3 373.7 366.8 352.2 337.9 327.5 322.1 319.1 312.8 305.5 299.8 297.3 294.2 291.4 285.8 272.4 262.3 253.4 241.7 223.7 212 206.4 189.3 180.1 168.3 150.6 144 145.6 149.8 141.1 142.6 145.4 154.4 164.9 186.1 207.6 238.9 260.1 298.2 322.6 354.3 388.6 408.7 429.6 437.3 434.7 445.8 463 477.5 490.2 502.5 522.4 538 570.4 596.7 621.1 644 658.9 648.2 618.2 600.1 583.4 560.7 553.6 551.9 559.6 569.2 561.3 549.7 529.5 499.6 473.3 439.3 422.6 416.9 412.1 400.1 394.2 393.6 388.4 377.4 358.3 340.4 330.4 312.1 303.4 294.9 274.9 258.6 246 240.1 239 234.4 235.2 231.9 223.9 208.3 203 193.8 184.7 176.5 166 160 148.8 138.5 129.8 120.1 110.6 100.7 83.1 85 91.7 91.7 97.5 104.3 108 108.3 101.8 90.5 81.5 67.5 57.2 69 68.5 61.1 56.1 50 38.4 29 24.7 21.5 17.3 13.6 12.4 9.5 4.2 -1.4 -1.4 -1.4 -1.4 -1.4 -1.4 -1.4 -1.4 -1.4 -1.4 -1.4 -1.4 -1.4 -1.4 -1.4 -1.4 -1.4 -1.4 -1.4 -1.4 -1.4 -1.4 -1.4 -1.4 -1.4 -1.4 -1.4 -1.4 -1.4 -1.4 -1.4 -1.4 -1.4 -1.4 -1.4 -1.4 -1.4 -1.4 3.8 4.4 5.1
634.3 639.9 644.6 647.9 657 667.5 673.9 688.5 692.8 698.9 692.5 649 604 567.8 525.2 490.8 468 462.1 443.5 435.9 425.1 408.7 384.7 368.8 358.3 350.6 345.1 339.8 331 326.4 325.3 317.3 311.3 304.8 302.1 291.8 286.6 276.5 257.6 239.7 232.1 221.3 205.1 194.7 182.7 170 161.3 154.4 145.5 141.1 148.1 142.2 141 143.2 147 160.6 182 197.4 211.9 228.7 256 288.3 314.8 344.2 376.1 400.5 418.7 424.8 439.3 456.1 473.6 491.3 497.2 511.6 524.3 541.5 582.4 614.6 635.1 646.6 653.4 614.5 593.6 580.2 568.9 541.5 524.3 515.1 513 515 519.6 515.3 491.6 469.6 449.5 428.7 408.8 393.4 387.3 379.2 380.2 385.5 385.2 364.1 351.2 337.9 324 313.8 298.1 290.8 277.1 265.2 253.6 249.5 247.2 244.5 241.7 245.2 232.9 217.5 213.5 204.8 195.2 186.9 176.9 169.8 157 145.5 136.8 128.4 119.7 111.4 98.5 76.3 81 87.6 96.6 101.7 103.1 103.9 102.9 87 73.7 59.4 58.1 55.2 59.7 53 49.7 40.4 33.1 26.1 20.6 17.9 15 11.5 9.9 7.5 3.2 -1.4 -1.4 -1.4 -1.4 -1.4 -1.4 -1.4 -1.4 -1.4 -1.4 -1.4 -1.4 -1.4 -1.4 -1.4 -1.4 -1.4 -1.4 -1.4 -1.4 -1.4 -1.4 -1.4 -1.4 -1.4 -1.4 -1.4 -1.4 -1.4 -1.4 -1.4 -1.4 -1.4 -1.4 -1.4 -1.4 3.5 5.9 9.3 10 13.5
626.2 651.3 661.1 665.8 668.9 673.4 680.1 686.6 694.8 698.2 680.7 641.1 596.7 555 513.8 480.3 450.9 439.5 429.6 419.5 405.4 389.9 377.3 365.7 358.6 354.1 346.9 342.1 335.9 330.9 330.1 328.2 318 316.2 303.6 293.1 278.9 263.5 236.4 223.1 212 196.4 186.2 177.1 169.9 160.6 147.9 142.4 138 137.4 140.6 137.8 142.6 145.7 150.7 159.9 179.7 206.1 219.7 228.8 253.3 271.5 302.6 331.5 374.4 396.9 412.4 424.4 439.9 458.7 475.7 491.4 505.1 522.6 538.2 557.8 587.5 610 633.3 648.2 637.8 599.8 570.9 557.2 541.1 519.5 503 490.5 480.7 479 481.3 469.5 461.8 445.2 426.3 418.8 409.8 390.9 370 361.1 368.6 367.4 358.9 349 339.6 329.5 318.2 306.3 296.7 285.1 275.4 268.8 257.6 256.7 255.3 251.1 246 249.8 241.3 224.4 217.7 218.8 210.4 193.5 179.3 171.7 163.8 153.1 143 133.3 125.7 115.5 108.3 95.3 71.2 66.7 89.9 97.3 96.7 94.4 91.8 77.3 62.4 55 52.4 43.8 47.3 44.7 37.1 28.6 24.4 21.8 17.9 13 9.2 7.8 6.4 4.4 -1.4 -1.4 -1.4 -1.4 -1.4 -1.4 -1.4 -1.4 -1.4 -1.4 -1.4 -1.4 -1.4 -1.4 -1.4 -1.4 -1.4 -1.4 -1.4 -1.4 -1.4 -1.4 -1.4 -1.4 -1.4 -1.4 -1.4 -1.4 -1.4 -1.4 -1.4 -1.4 -1.4 -1.4 2.3 2.7 4.9 8.9 15.3 18.2 19 22.9
608.5 626.5 656.9 677.6 683.1 689 689.9 689.7 690.4 690.4 671.8 636.5 602 550.7 508.2 473.5 442.6 423.9 412.7 400.9 389.3 382.2 373.1 365.1 357.9 353 349.2 350.1 345.9 340 339.2 343.8 334.8 315.6 302.5 294.2 271.5 244 224.2 202.3 196.9 177.6 168.5 162 148.7 142.2 138.3 136.1 135.3 135.8 136.4 146.4 140.6 144 154.5 161.1 176 198.3 219 227.7 249.1 276.3 296.6 317.9 352.2 375.2 399.5 418.3 439.3 461.1 474.7 491.7 506.2 531.8 547.9 569.7 595.7 613.1 634 640.4 628.9 598.4 561.1 534 517.2 503.7 492.1 475.9 460.6 453 448 440.6 430.9 418.3 405.5 404.5 396.6 389.9 373.3 351.1 345 341.8 334.9 329.2 323.1 309 300.6 298.2 293 283.6 271.9 267.6 264.7 264.2 257.9 254.1 251.2 250.3 244.9 229.3 221 221.7 214.5 196.3 184.3 172.2 165.1 160.3 148.5 142.2 127.6 116.6 111.9 102.6 88.6 69.5 65.7 82 88.7 81.7 71.8 61.1 54 50.8 47.2 42.1 29.2 31.1 27.6 21.9 20 17.4 13.9 9.2 6.2 3.1 -1.4 -1.4 -1.4 -1.4 -1.4 -1.4 -1.4 -1.4 -1.4 -1.4 -1.4 -1.4 -1.4 -1.4 -1.4 -1.4 -1.4 -1.4 -1.4 -1.4 -1.4 -1.4 -1.4 -1.4 -1.4 -1.4 -1.4 -1.4 -1.4 -1.4 -1.4 -1.4 -1.4 -1.4 2.6 4.7 6.2 8.1 9.9 17.4 19.8 20.3 23.9 31.5
596.6 611.4 632 658.5 683.3 695.8 703.9 707.6 702.6 695.4 649.2 609.9 571.3 534.6 499.9 469.7 443 424.7 409.1 395 385.5 379.7 375.4 368.8 362.4 357.3 353.6 354.9 354 350.4 344.4 346.2 330.8 311.5 284.6 263.6 250.3 229 200.3 183.6 168.8 162.1 144.2 144.9 136.2 135.7 134.7 134.5 134.6 136.8 137.5 138.9 139.4 140.9 144.4 159 183.8 198.3 212.9 224.4 238.7 260.2 287.5 308 344 366.7 396.2 420.8 441.7 464.3 485.4 497.9 518.1 535 554.3 583.2 605.5 626.2 635.5 642.4 625 583.5 554.6 528 506.2 493 475 458.2 452.6 442.9 428.6 423.8 410.4 392.5 386.2 392.5 386.1 378.1 366.9 360.6 329.5 320.8 310.3 313.9 309.3 298.3 292.9 281.6 282.5 273.1 265.9 268.5 266.8 265.7 265.2 257.7 248.9 242.2 240.9 222.6 218.2 217.7 212.6 201.3 194 182.4 167.2 157.6 150.7 144.9 128.8 116.8 112 99.7 87.4 78.2 62.6 59.6 67.3 65.6 55.2 49.1 45.4 42.7 40.3 38.5 32.2 18.7 20.2 17.8 18.2 13.8 9.6 6.6 4 -1.4 -1.4 -1.4 -1.4 -1.4 -1.4 -1.4 -1.4 -1.4 -1.4 -1.4 -1.4 -1.4 -1.4 -1.4 -1.4 -1.4 -1.4 -1.4 -1.4 -1.4 -1.4 -1.4 -1.4 -1.4 -1.4 -1.4 -1.4 -1.4 -1.4 -1.4 -1.4 -1.4 -1.4 3.9 7.5 12.2 11.2 14.1 13.7 20.2 27.6 30.5 36.6 48.5
576.7 600.7 618.3 641 662.5 682.8 700 712.1 716.1 701.8 656.7 622.3 569.6 536.1 504.2 473.6 444.1 420.5 407.6 396.2 386.4 382.7 377.4 376.3 371.5 370.5 365.9 359.2 357.1 356.9 347.1 339.9 324 307.8 262.6 235.4 226.9 209 181 167.5 151.2 138.9 130.6 133.7 136.9 135.9 133.2 134.2 139.7 141.9 143.7 139.8 140.9 147.4 150.3 157.3 176.9 189.8 204.8 223.6 241.2 262.1 282.2 309.2 335.4 363.9 396.1 426.2 446.1 468.3 485.6 501.3 518.7 537.1 559.7 586.6 606.9 620.4 632.3 631.5 612.6 584.4 545.8 519.3 502.2 484.1 465.4 452.9 448 431.8 408.2 397.2 389.1 380.2 376.4 375.3 376.4 369.2 360.1 351.5 329 305.4 296.2 290.8 292.8 289.9 284.8 276.2 268 262.7 261.7 264 270 269.7 261.6 254.7 249.4 234.9 226.8 221.4 219 220.7 213.4 198.2 196.3 187.1 171.1 160.6 150.9 138.6 127.5 121.1 112.2 101.3 91.1 80.1 70.6 57.5 46.5 50.8 47.7 44.2 41.9 38.6 33.8 31.7 28.4 21.3 15.7 13.7 12.6 12 7.9 4.7 2.4 -1.4 -1.4 -1.4 -1.4 -1.4 -1.4 -1.4 -1.4 -1.4 -1.4 -1.4 -1.4 -1.4 -1.4 -1.4 -1.4 -1.4 -1.4 -1.4 -1.4 -1.4 -1.4 -1.4 -1.4 -1.4 -1.4 -1.4 -1.4 -1.4 -1.4 -1.4 -1.4 -1.4 2.3 7.3 12.6 13.7 14.4 18.1 23.9 33.5 39 44.9 55.6 60.2
547.6 575.2 603.3 623.4 634.8 655.7 671.1 695.1 705.1 701.4 658.7 616.5 576.4 541.6 506.9 482.6 453.9 414.4 397.8 389.7 385.9 385 388.3 384.2 382.2 381.3 375.2 361.1 357.7 354.1 344.2 330.4 290.4 271 242 214 196.6 190.3 168.4 158.1 146.1 135.7 131 141.2 140.6 137 129.1 137.6 146.3 148.4 147.8 145.2 142.2 147.7 150.4 160 178.1 186.1 201 218.2 232.4 256.5 284.5 316.5 341.8 364.6 396.3 422.1 445 464.7 487.4 507.7 523.6 539.1 561.3 573.4 585.3 595.9 603.5 604.8 579.9 562.4 549.1 521.4 496.5 480.9 474.4 451.3 437.5 423.1 397.5 380 371.5 370.2 366.8 365.5 363.1 359.1 347.5 333.4 313.4 301.8 279.9 275.1 271.3 273.8 270.6 262.2 255.4 250.2 253 254.6 263.3 263.4 258.5 252.6 244.6 232.2 229.5 229.1 223.2 222.5 211 199.1 198.7 191.1 178.2 163.3 150.9 139.7 128.3 120.7 110.2 100.3 91.2 82.7 73.8 64.2 52.1 42.8 41.9 37.7 36.2 35 31.3 27.1 23.9 20.9 14.5 9.9 9.7 7.5 6.3 4.5 -1.4 -1.4 -1.4 -1.4 -1.4 -1.4 -1.4 -1.4 -1.4 -1.4 -1.4 -1.4 -1.4 -1.4 -1.4 -1.4 -1.4 -1.4 -1.4 -1.4 -1.4 -1.4 -1.4 -1.4 -1.4 -1.4 -1.4 -1.4 -1.4 -1.4 -1.4 -1.4 -1.4 -1.4 4 8.4 14.6 15 19.9 25.7 33 45.5 52.7 57.1 67.3 75.1
518.5 545.9 571.5 601.8 618 633 645.1 655.4 660.4 670.5 660.3 621.2 582.3 542.5 510.9 483 440.4 406.5 394.7 385.9 385.7 383.8 382.2 380.5 375.7 367.4 361.7 355 346.9 338.5 308.2 290 271.9 250.6 230.6 211.2 192.7 178.8 165.8 143.4 133.3 121.9 124.1 146.7 143.4 133.8 126 133.6 142.4 154.8 151 153.1 154.9 148.1 155.6 168.1 176.8 184.8 197.1 215.6 235.8 259.7 283.4 312.4 342.2 365.2 385.4 413.7 443.6 458.6 474.8 506.6 532.5 549.2 555.5 562.9 569.9 570.3 566.3 564.8 562.8 549.9 539.4 523.2 508.2 492.9 471.9 453.2 414.7 401.7 382.7 374.4 368.6 351.9 343.9 344.5 343.2 343.8 337 325.4 303.4 290.4 273.2 254.6 261.4 259.6 249.3 247.8 245.6 239.1 239.5 242.1 248.9 245 241.3 238.5 233.8 231.6 228.2 228.1 226.7 218.2 203.7 205 201.5 189.2 175.7 163 154.4 140.1 126.1 118.2 106.7 98.8 90.7 83.7 76.2 63.3 55.1 44.4 37.4 31.3 30.4 28.9 24.2 21.4 18.9 17.4 13.8 7.7 5.4 4.7 3.8 1.1 -1.4 -1.4 -1.4 -1.4 -1.4 -1.4 -1.4 -1.4 -1.4 -1.4 -1.4 -1.4 -1.4 -1.4 -1.4 -1.4 -1.4 -1.4 -1.4 -1.4 -1.4 -1.4 -1.4 -1.4 -1.4 -1.4 -1.4 -1.4 -1.4 -1.4 -1.4 -1.4 -1.4 3.6 6.3 12.6 20.2 20.9 29.8 36.6 46.2 53.6 59.6 69.3 79.5 87
493.6 528.2 558.7 581.6 598.6 605.8 617.9 623 624.9 620.2 613.1 588.2 561.1 532.9 507.1 484.6 439.2 411 391.5 377.6 383 386.8 384 383.5 377.6 372.8 359.8 349.9 335.1 315.7 304.1 294.3 276 254.1 237.5 202.6 178.5 150.2 136.2 121.6 112.9 110.9 97.3 127.5 130.1 122.3 113.3 122.7 136.3 150.5 158.2 156.9 155.7 157.3 153.7 165.4 172.6 188.1 195.5 212.6 235.4 258.3 286.9 308.7 330.6 361.8 392.6 408.6 441.5 464.4 480.6 505.4 526.2 532.3 537.2 546 552.7 551.1 560.5 556 554.6 541.6 533.6 521.5 504.3 492.2 472.4 438.3 415.3 385.1 377.9 374.3 364.4 358.8 345.6 319.6 337.9 331 324.5 316.7 291.2 282.9 270 260.7 235 246.2 237 226.6 226.2 220.4 218.9 219.7 223.7 222.7 219.7 219.8 225.5 224.7 219.4 216.8 213.7 206.2 201.9 211.2 207.1 190.2 174.9 161.1 151 142.4 126.6 113.9 101.8 93 84.8 77.7 69.3 62.5 52.7 44.5 37.2 31.7 25.1 22.9 22.1 20.4 18 10.9 6.7 5.5 5.5 4.3 2.6 -1.4 -1.4 -1.4 -1.4 -1.4 -1.4 -1.4 -1.4 -1.4 -1.4 -1.4 -1.4 -1.4 -1.4 -1.4 -1.4 -1.4 -1.4 -1.4 -1.4 -1.4 -1.4 -1.4 -1.4 -1.4 -1.4 -1.4 -1.4 -1.4 -1.4 -1.4 -1.4 2.7 3.4 7.4 13.6 23.8 28 36.7 41.9 50.2 57.1 60.8 66.8 81.6 90.3 97.8
480.2 511.5 541.3 565.2 578.9 586.8 592.1 593.5 590.1 583.9 571 555.7 536.1 512.1 490 475.9 447.3 410.2 383.6 366.8 348.9 362.2 366.4 363.8 363.2 376 371.7 351 335.8 321 295.4 278.1 243.4 221.8 184.4 174.3 141.7 120.8 110.4 102.2 98.4 88.9 89.4 89.4 98.4 108.7 113.3 125.6 144.4 159.1 166 168.7 165.7 165 165.2 164.9 172.1 183.1 198.2 213.3 231.8 260.6 295.8 313.6 343.7 383.7 409.7 428.3 444.8 460.4 477.7 495.9 510.5 522.6 535.9 535.9 539.8 545.4 547.3 542.1 540.9 534.1 526 511 497.6 476.4 464.1 443.3 415.1 388.4 375.6 366.8 361.5 357.1 338.1 317.7 307.4 311.6 303.5 304.6 290.6 280.2 271.7 262 252.3 213.7 221.6 217.9 211.7 198.6 197.3 198.9 203.8 204.6 205.3 206 209.9 210 208.3 207.2 207.9 207 205.4 210.3 200 190 169.5 157.4 140.9 135.4 121.8 111.5 113.1 87.4 79.9 71.6 62.9 55.1 51.5 43.8 38 30.8 25.3 18.9 16.3 17.5 15.4 9.1 3.8 2.3 2 1.6 -1.4 -1.4 -1.4 -1.4 -1.4 -1.4 -1.4 -1.4 -1.4 -1.4 -1.4 -1.4 -1.4 -1.4 -1.4 -1.4 -1.4 -1.4 -1.4 -1.4 -1.4 -1.4 -1.4 -1.4 -1.4 -1.4 -1.4 -1.4 -1.4 -1.4 -1.4 2.4 4.8 6.8 9.2 14.8 28.9 39.2 50.8 52.9 57.8 61.2 65.8 70.9 84.9 92 94.8 99.5
459.7 485.7 516 541.4 556.8 561.7 563.9 565.8 563.7 551.6 543.9 526.7 509.5 489.3 472 446.1 436.5 401.7 370.2 351 336.5 328.8 333.8 338.3 342.2 351 357.1 350.3 325.5 309.5 280.4 230.9 207.7 184.2 159.2 134.9 115.2 97.8 89.1 82.3 81.8 77.9 80.6 76.3 77 83.2 97.2 112.3 140.1 159.9 174.5 175.9 178.8 176.7 172.4 174 180.3 185.9 202.7 213 233.3 261.4 296.8 319.1 343.3 381.1 415.5 435.8 456.9 462.3 468.5 481.7 503 514.4 522 527.1 536 529.2 535.6 534.1 529.4 515.6 496.9 491.1 482.1 466.7 451.6 436.5 426.6 409.3 379.5 355.3 345.4 337.6 326.1 312.8 297.9 272.1 286.5 282.9 277.9 273.6 268.9 258 247 227.1 192.9 197.9 198.2 188.3 177.7 179.5 183.3 185.3 188.9 194.5 195.6 198.5 200.6 208.5 210.4 206.9 202.7 194.4 188.2 176.1 159.1 144.9 134.1 124.9 110.9 106.6 104.4 94.5 74.8 66.4 54.3 47 45.1 37.8 32.9 26.9 21.9 17.3 13.7 10.3 9.8 7.5 3.2 2 0 -1.4 -1.4 -1.4 -1.4 -1.4 -1.4 -1.4 -1.4 -1.4 -1.4 -1.4 -1.4 -1.4 -1.4 -1.4 -1.4 -1.4 -1.4 -1.4 -1.4 -1.4 -1.4 -1.4 -1.4 -1.4 -1.4 -1.4 -1.4 -1.4 -1.4 2.3 5.3 8.7 11 17.8 23 35.6 43.4 59 66.9 70.6 72.5 73.5 77.2 88.5 96.6 97.4 100.1 100.5
444.1 466.4 489.7 511.6 521.6 528 530.5 530 528.9 511.7 508.7 489.5 470.2 449.9 425.2 403.1 390 373.7 353.6 342.6 323.5 310.2 303.9 302.4 306.7 311.7 333.8 335.9 316.1 295.7 267.4 206.4 179.2 153.8 137.4 113.1 94.9 78.6 71.5 70.9 68.5 69.8 68.3 67.7 67.6 74.7 90.9 108.2 130.8 155.5 170.2 176.1 180.6 186.1 188 190.2 189 196.2 199.7 216 237.1 263.9 295.6 328.2 343.5 375.7 416.3 439 456.5 458.4 460.2 468.7 482.7 501.2 508.3 512.4 519.4 521.4 524.8 515.3 505.8 493 478.7 472.5 465.3 457.8 439.2 432.8 433.6 416.3 394.1 368 338.1 315.5 309.3 304.8 300.4 286.1 256.2 263.2 264.6 262.7 259.9 248.3 234.1 218.7 204 181.3 176.4 174.8 169.7 165.3 162.3 163.7 171.3 179.5 184.3 190 200.6 210.4 216.9 210.2 193.1 180.3 173.8 169.9 154.6 137.3 125.1 113.1 100 97.6 99.7 98.4 77.1 62.5 49.4 40.8 37.4 32.8 27.7 22.6 18.4 17.6 12.3 8.4 9.3 6 3.4 0.8 -1.4 -1.4 -1.4 -1.4 -1.4 -1.4 -1.4 -1.4 -1.4 -1.4 -1.4 -1.4 -1.4 -1.4 -1.4 -1.4 -1.4 -1.4 -1.4 -1.4 -1.4 -1.4 -1.4 -1.4 -1.4 -1.4 -1.4 -1.4 -1.4 -1.4 2.5 6.3 10.6 20.3 24.6 29.3 37.2 52.5 57.6 69.7 80 88.5 89.5 88.5 89 99.3 100.9 104.7 106.8 106.5
429.2 453.7 470.7 484 496 502.8 507 504.5 495.7 482.4 465 448.9 426.8 407.7 390.3 374.3 361.9 349 323.4 312.6 302.7 292 276.2 278.3 275.1 279.7 283.7 291.9 278.8 255.5 239.5 193.6 158.1 132.9 109.8 90.4 83.1 68.3 66.8 60.4 57.7 62.8 64.2 60.8 68.4 80.3 91.6 112.6 139.3 162.1 176.3 183.3 184.2 191.7 200.1 203.2 204 197.8 216.2 231.4 241.7 267.8 300.8 336.7 351.8 380 398.6 418 436.6 450.1 461.7 470 470.9 473 484.5 503.4 506.2 513.4 506.9 494.4 483.8 474.4 463.4 454.2 448.3 435 430.5 428.5 420.9 411.5 394.6 370.8 354.7 321.2 302.8 295.4 291.8 282.7 260.2 234.6 245.6 242.7 235.1 224.6 217.2 205.8 190.2 173.7 159.8 155.4 156.1 148.3 148.7 151.7 156.3 161.9 171.6 187.4 200.6 214.7 216 209.9 196.5 181.1 159.6 158.2 146.8 129.7 115.2 102.4 88.9 88.8 91.3 89.9 79.3 61.4 48.7 31.9 29 24.8 19 16.6 14.8 14.6 10.7 8.5 6 0.3 -1.4 0.2 -1.4 -1.4 -1.4 -1.4 -1.4 -1.4 -1.4 -1.4 -1.4 -1.4 -1.4 -1.4 -1.4 -1.4 -1.4 -1.4 -1.4 -1.4 -1.4 -1.4 -1.4 -1.4 -1.4 -1.4 -1.4 -1.4 -1.4 -1.4 -1.4 3.3 7.1 11.3 22.8 28.2 35.1 43.2 54.8 66.4 70.7 78.4 90.2 100.2 104.2 101.3 101 103.5 106.5 112.9 111.7 114.5
408.8 430.8 447.8 463.5 475.1 479.9 480.6 482.1 475.8 458.4 444.3 424.4 397.6 378.7 360.6 349.7 336.4 316.7 298 292.9 280.1 269.7 259.3 256.8 259.4 258.3 257.6 249.6 240.3 215.7 195.3 170.2 142.6 117.4 93.8 80.9 67.7 57.9 56.3 54.2 55.4 59 57.3 57.5 68.9 80.5 103.8 127.7 145.7 166 177 180.6 191.8 195.6 203.8 210.8 215.3 218.7 223.2 236.1 258.1 276.8 297.8 329.8 364.2 380.8 409.9 428.3 443.3 451.5 460.4 463.2 466.7 463.2 468.8 483.1 492.8 495.7 487.5 476.3 470.9 459.8 444.7 432.1 417.4 415 428.2 420.5 409.5 401.6 382 363.4 345.9 317.2 291.1 279.7 280 276 254.1 229.5 208 215.1 213.1 203.6 196.7 184.1 174.9 161.1 156.9 149.1 135.7 141.3 139.5 137 139 147.1 167.4 184.3 197.4 206 206.7 201.9 194.6 175.7 156.5 143.1 132.6 118.7 109.2 95.1 82.9 80 79.8 75.9 64.5 49.5 38.6 26.8 21.7 17.3 15.4 13.3 12.6 14.4 11.9 5.6 6.2 4.9 -1.4 -1.4 -1.4 -1.4 -1.4 -1.4 -1.4 -1.4 -1.4 -1.4 -1.4 -1.4 -1.4 -1.4 -1.4 -1.4 -1.4 -1.4 -1.4 -1.4 -1.4 -1.4 -1.4 -1.4 -1.4 -1.4 -1.4 -1.4 -1.4 -1.4 4.1 9.4 23 28.4 33.8 34.5 45.5 63.4 69.3 75.3 87.1 90.8 100.6 108.2 111.9 114.2 113.2 110.2 114.9 121 125.9 117.9
391.7 414.5 429.8 446.3 456.7 459 457.6 457.6 457.6 441.3 427.1 400.1 381.4 360 343.3 329.2 320.5 303.3 289.6 278.4 269.5 261.7 255.9 245.4 237.8 238.9 242.8 236.9 228.9 190.9 164.5 148.3 124.5 104.6 81.5 68.5 54.2 51.2 51.6 51.1 53.5 54 55.2 63.2 72.3 88 113 152.2 174.5 189.6 188.6 193.6 195.1 203.4 204.1 207.1 221 231.1 243.3 253 270.7 290.4 313.8 347.4 366.6 398.1 419.5 436.1 442.1 450.8 453.2 456.2 457.7 459.5 456.2 456.1 471.5 479.7 474.6 459.1 451.4 442.2 425.5 414.2 413.1 399.8 413.8 404.5 393 387.3 369.4 358.2 341.4 327.1 312 280.1 263.3 258.4 248.4 226.5 201.1 171.2 184.3 185.7 178.9 167.1 158.1 151 145.6 142 137 117.2 124.2 122.7 124.7 138.4 153.3 170.8 181 181.3 179.8 183.4 176.1 167.8 147.8 139.7 119.7 102.4 102 89.7 79.8 73.8 67.3 62.7 52.5 44.2 34.6 25 19.6 14.2 10.8 7.4 8.2 7.8 6 3.5 2.5 -1.4 -1.4 -1.4 -1.4 -1.4 -1.4 -1.4 -1.4 -1.4 -1.4 -1.4 -1.4 -1.4 -1.4 -1.4 -1.4 -1.4 -1.4 -1.4 -1.4 -1.4 -1.4 -1.4 -1.4 -1.4 -1.4 -1.4 -1.4 -1.4 -1.4 2.3 10.2 24.3 31.5 36.1 39.3 50.2 58.4 71.2 79.4 86.1 96.8 103.2 105.2 113.2 123.2 124.9 123.2 123.7 128.6 131.8 138.3 128.6
377 396.9 412.4 422.3 432.4 440.1 442.5 445.4 433.3 417.4 400.3 380.5 363.2 347.2 327.2 312.7 304.5 289.7 273.5 260.5 257.7 249.3 247.9 241.1 230 220.8 227 230.4 208.7 172.1 143.5 123 105.9 83.2 67.2 56.8 50.8 49.1 50.1 50.5 54 53.1 59.4 69.2 76.2 91.5 110.6 146.4 179.9 210.4 215.9 211.3 209.8 205 204.5 208.8 217.7 239.5 253.8 266.8 285.2 306.6 330.8 356.5 370.5 394.2 404 417 439 446.3 453.4 450.3 453 456.7 457.8 446.8 442.2 456.6 456.4 450.6 431.4 414.5 402.1 398.3 395.3 399.9 398.8 389.6 385.8 375.1 363.2 350.2 334.5 326.5 322 305 272.1 241.4 235.7 221.4 202.5 177.5 147.9 162.8 161.8 151.4 145.7 139.9 135 130.3 127 131.4 107 107.3 116.8 129.1 142.3 147.5 147.6 148.5 144.7 142.8 141.5 138 141.7 124.2 115.3 100.9 90.4 84.5 78.1 68.3 58.2 51.4 42.9 40.2 36.6 29.2 22.2 15.3 8.3 5.3 3.9 -1.4 -1.4 -1.4 -1.4 -1.4 -1.4 -1.4 -1.4 -1.4 -1.4 -1.4 -1.4 -1.4 -1.4 -1.4 -1.4 -1.4 -1.4 -1.4 -1.4 -1.4 -1.4 -1.4 -1.4 -1.4 -1.4 -1.4 -1.4 -1.4 -1.4 -1.4 -1.4 -1.4 3.4 8.2 23.5 29.5 37.3 45.7 61.1 65.6 75.9 80.4 88.2 98 108.1 112.4 117.1 126 133.9 134.7 135.2 146 149.5 150.3 145.9 137.3
364.1 382 393.8 398.9 408 414.5 413.9 413.1 403.4 395.6 384.1 362.3 343.9 332.3 314 299 287 274 263.8 248.5 243.9 232.7 229.8 222.6 209.2 198.7 205 198.9 179.5 157.2 128.6 104.9 84.5 71.6 63 49 48.8 48.3 49.7 50.4 50.4 51 55.2 62.4 72.7 93.9 119.6 131.7 158.7 200.5 237.6 234 222.1 218.2 211.9 210.6 225.1 235.2 255.8 278.1 302.2 331.9 345.8 362.2 380.1 395.9 396.6 415.3 434.6 447.1 449.8 455.3 452.2 448.1 440.9 444 438.7 431.8 439.3 431.6 417.9 400.1 393.7 398.1 396.9 390.9 389.3 380.4 366.7 355 342.7 334.7 333.2 334.4 327.7 308.3 288.2 267.5 236.5 212 197.6 179.5 151.3 126.8 141.4 135.6 135.2 128.5 123.9 115.6 117.2 119.9 106.4 89.7 103.7 116.4 124.3 125.9 122.1 116.9 114.7 110.2 107.1 108.2 111.6 108.6 99.1 93.4 81.4 69.7 67.6 62.4 52.9 44.1 36.1 36.9 40.3 29 22.3 11.1 5.2 -1.4 -1.4 -1.4 -1.4 -1.4 -1.4 -1.4 -1.4 -1.4 -1.4 -1.4 -1.4 -1.4 -1.4 -1.4 -1.4 -1.4 -1.4 -1.4 -1.4 -1.4 -1.4 -1.4 -1.4 -1.4 -1.4 -1.4 -1.4 -1.4 -1.4 -1.4 -1.4 -1.4 -1.4 5.3 7.8 12.9 29.4 39.1 47.7 60.6 77 83.9 87.8 92.6 101.8 117 117.9 125.8 142 140.1 137.8 145.6 151.2 156.2 169.6 167.4 152.4 149.8
345.7 360.4 375.2 383.5 389.4 392.9 392.9 382.1 378.6 373.3 361.5 344.8 327.7 314.7 301 286.7 276.3 265.8 253.8 238.2 228 214.7 206.1 201.4 195 182.7 178.2 171.3 160.2 145.2 115.6 89.1 68.2 56.9 53.2 46.5 46.6 46.6 48.9 49.7 49.9 50.3 53.8 65.1 80.1 94.9 115 133.6 159.1 188.3 236.2 241.9 231.6 229 227.9 223.5 229.5 245.9 262.5 289.6 315.6 337.6 354.9 371.9 381.7 393.4 397.4 407.6 425.3 438.7 447.2 446 442.9 439.2 441 440.2 437.7 433.1 417.1 417.8 402.8 388.8 387.6 394.7 389.7 383 374.2 364.8 355.8 342.6 332.7 332.6 335 337 322.8 305.5 293.3 272.5 239.1 217.4 201.8 173 159 125.7 101.6 112.7 115.9 111 108.5 103.7 106.6 102.4 98.5 83.8 90.7 100.7 105.7 105.1 98.1 93.7 92 85.6 86.7 83.8 81.6 79.1 81.4 78.7 72.5 60.3 51.2 48.9 43 34.1 29.2 35.6 25.6 16.6 7.4 -1.4 -1.4 -1.4 -1.4 -1.4 -1.4 -1.4 -1.4 -1.4 -1.4 -1.4 -1.4 -1.4 -1.4 -1.4 -1.4 -1.4 -1.4 -1.4 -1.4 -1.4 -1.4 -1.4 -1.4 -1.4 -1.4 -1.4 -1.4 -1.4 -1.4 -1.4 -1.4 -1.4 -1.4 -1.4 5.4 21 25.9 26.1 27.7 50.9 62.5 71.5 85.8 92 101.6 115 127.6 134.8 141.7 144.5 150.5 155.4 152.9 153.7 160.3 172.1 182.3 175.5 168 163.5
329.2 342.8 352.5 370.6 375 374.3 370.4 360.5 353.9 342.9 339.2 326.2 310 295.9 285.3 278.2 268.8 250.4 235.4 223.6 211.5 200.3 189 186.8 178.5 173.4 167.4 154.8 147.7 132.1 107.3 78.6 58.6 49.6 44.5 45 48.9 49.1 48.8 48.9 49.1 51.7 59.9 72.5 81 98.7 119.2 142.7 166.8 193.4 212.3 227 227.8 226.1 227.1 236 246.2 257.2 277.3 302.3 325 348.7 369.3 387.4 393.6 395.1 395.1 400.3 421.2 430.7 444.3 435.1 433.4 436.3 444 447.2 441.9 432.2 424.2 409.8 397.5 385.4 387.5 381 374.4 375.6 365.5 360.5 353 335.1 332.5 333.7 339.1 326.8 313.8 301.8 289.8 276 248.9 223.2 202.5 179.6 156.7 138 126.3 87.5 98.2 98.3 95 93 96.2 94.4 85.5 83.1 77.7 83.9 84.9 81 76.4 75.3 73.3 68.6 64.6 62.3 58.1 54.4 57.6 62 55.4 51.3 43.8 36.9 31.1 26.5 22.9 14.9 9.5 5.4 -1.4 -1.4 -1.4 -1.4 -1.4 -1.4 -1.4 -1.4 -1.4 -1.4 -1.4 -1.4 -1.4 -1.4 -1.4 -1.4 -1.4 -1.4 -1.4 -1.4 -1.4 -1.4 -1.4 -1.4 -1.4 -1.4 -1.4 -1.4 -1.4 -1.4 -1.4 -1.4 -1.4 -1.4 -1.4 3.8 12.3 28.9 38.3 47.9 53.4 54.9 73.8 83.8 99.9 109.7 110.6 133.2 142.1 152.4 159.1 159.4 160.2 167.8 165.8 161.9 171.9 184.8 185.9 186.3 177.8 178.9
312.1 322.8 337.3 347 354.1 355.3 348.9 346.2 333.9 324.8 318.6 310.5 297.8 283.8 275.5 264 258 237.4 223.2 214.1 203.1 186.1 174.5 166.5 161.2 156.3 151.5 151.5 141 124.6 99 75.9 53.7 45.3 43 47.2 54.5 53 53.4 54.4 54.7 60.4 71.8 87.6 95.7 113.8 137.2 160.9 175.5 191.8 204.1 216.4 219.9 224 233.8 246.9 265 281.1 294 316 335.4 358.9 374.4 391.3 400.2 404.6 406.9 414.1 419.1 425.1 423.3 432.5 437.2 434.6 439.9 443.8 445.4 437.1 424.3 409.9 382.8 383.3 375.3 365.9 368.2 363.5 357.9 353.1 346.6 326.5 322.9 330.5 332.2 316.1 296.4 292.7 281.9 276.8 257.1 230.2 204.1 180.6 160.1 136.5 118.2 107.8 77 81.5 79.3 79.6 80.3 79.7 76.3 75.7 73.7 65.1 54.8 61.4 60.4 60 58.8 53.8 48.8 43.4 42.1 37.3 40.4 41.1 41.5 41.1 35.4 24.3 19.7 13.1 6.6 4.3 3 -1.4 -1.4 -1.4 -1.4 -1.4 -1.4 -1.4 -1.4 -1.4 -1.4 -1.4 -1.4 -1.4 -1.4 -1.4 -1.4 -1.4 -1.4 -1.4 -1.4 -1.4 -1.4 -1.4 -1.4 -1.4 -1.4 -1.4 -1.4 -1.4 -1.4 -1.4 -1.4 -1.4 -1.4 -1.4 5.6 11.8 28.3 36.5 47.8 61.5 65.7 70.4 83.4 96.5 116.3 124.5 135.5 147.1 156.5 159.2 162.3 168.5 170.8 175.2 176.6 179.4 183.5 188 192.7 193.3 195.6 197
304 311.1 323 329 331.9 332.1 327.6 319.6 312.6 302.2 295.8 293.1 283.8 272.8 266.4 255 240.8 232 216.2 207 191.1 178.4 169.6 158.1 148.4 142.7 141.4 141.1 147.6 115.2 91.8 72.8 54 43.2 42.3 46.6 47.5 49.7 63 60.4 60.1 73.4 76 89.8 110.8 129.7 162.3 177.8 192.1 190.7 200.7 212 223.2 229.5 241.5 261.1 285.5 305.6 321.9 341.9 352.5 366.2 384.7 399.7 404.4 410.4 422.2 430 429.7 420.9 412.7 422.4 428.8 430.7 428.9 433.1 435.9 437.8 411.8 404.7 389.5 342.7 352.2 354.2 354.8 355.3 353.2 347.7 333.8 321.8 320.4 323.9 315.5 295.1 276.4 270.8 257.5 252.6 253.2 237.7 206.5 176.6 156.9 128.1 109.7 102 86.4 56.4 57.4 64.1 64.2 65.4 67.1 67.6 62.8 57.8 53.3 39.4 47.2 44.9 42.3 39.5 36.8 33.3 29.5 26.2 25.6 24.7 27.5 27.5 24.2 17.5 11.2 7 -1.4 -1.4 -1.4 -1.4 -1.4 -1.4 -1.4 -1.4 -1.4 -1.4 -1.4 -1.4 -1.4 -1.4 -1.4 -1.4 -1.4 -1.4 -1.4 -1.4 -1.4 -1.4 -1.4 -1.4 -1.4 -1.4 -1.4 -1.4 -1.4 -1.4 -1.4 -1.4 -1.4 -1.4 -1.4 -1.4 2.6 6.7 21 32.7 48.4 52.6 57.9 71.7 84.7 91.3 94.3 98.6 116.3 138.2 148.4 157.2 160.2 167.8 168 167.1 168.8 180.8 187.2 188.9 196.5 203.7 205.5 201.3 208.8 207.5
295.9 304.5 308.9 313.8 311.3 310.8 305.1 297.9 290.7 283.1 279.7 274.9 272.7 258.2 252.2 242.2 231.4 221.7 211.9 203.1 188 176 160.1 151.9 144.5 136.5 130.1 133.9 139.5 117 91.8 69.3 56.7 42.4 41 45.2 46.8 47.7 51.8 57.8 62.5 73 93.5 109 123.7 143.5 175 199.8 195.1 194.5 204.5 217.2 230.2 244.8 259 279.4 305.4 326.1 341.5 358.3 365.8 377.2 389.4 404.8 422.7 425.2 425.1 428 423.4 420.3 406.9 400.3 409.4 414 413.1 423.1 422.5 423.9 407.2 387.1 376.3 362.7 322.5 312.1 327.5 330.6 339.3 338.6 319.4 317.9 323.5 321.8 299.1 284.3 257.9 247.3 241.8 226.7 220.7 206.1 188.6 154.1 138.6 116.4 93.1 84.2 74.3 64.3 41.4 45.4 52.4 56.1 55 52.8 47.4 45.7 44.4 36.9 26.4 34.9 32.3 29.7 27.7 25.2 22.1 18.6 15.5 12.7 12.5 14.2 14.3 11.7 8.7 -1.4 -1.4 -1.4 -1.4 -1.4 -1.4 -1.4 -1.4 -1.4 -1.4 -1.4 -1.4 -1.4 -1.4 -1.4 -1.4 -1.4 -1.4 -1.4 -1.4 -1.4 -1.4 -1.4 -1.4 -1.4 -1.4 -1.4 -1.4 -1.4 -1.4 -1.4 -1.4 -1.4 -1.4 -1.4 2.6 6.5 8.1 21.1 33.5 43.2 54.7 65.3 74.7 79.9 96.1 100.7 111.7 117.4 118.9 145.3 163.1 169 165.8 165.2 165.5 172.1 182.7 189 193.4 195.1 199.6 212.6 219.5 218.7 220.6 213.9
280.1 294.3 298.5 298.5 298.2 297 291.9 284.6 279.3 275.1 269.1 258.6 256 249.3 238.3 231.6 222.9 214 202.4 187.7 176 166.7 156 148.3 137.8 126.9 119.6 119 116.8 105.7 86.3 63.1 55.5 44.2 40.3 45.1 45.5 47.7 53.7 65.5 76.9 88.7 104.8 122.1 148.8 165.1 184.5 198.9 195.5 198 214.2 232.6 248.3 259.5 272.8 292.4 317.9 334.3 346.6 366.3 377.2 390.3 400.8 412.9 434.2 433.4 428.9 428.6 425.8 419.4 410.2 400.5 399.8 392.1 389.6 395.7 407.7 408.7 391 373.8 364.7 356.2 344.8 329.5 286.7 303.5 313.7 316.8 309.4 310.6 313.9 301.7 278.8 258.6 235.7 227 227 216.4 191.9 168.9 149.5 133.1 116.2 99.3 79 60.1 59.3 49.3 34.5 34.2 38.4 41.2 38.7 37.5 34.4 33.7 34.3 34.1 27.2 24.1 26.9 21.2 24.7 21.7 20.4 17.5 10.8 10 9.7 9.4 9.2 5.9 -1.4 -1.4 -1.4 -1.4 -1.4 -1.4 -1.4 -1.4 -1.4 -1.4 -1.4 -1.4 -1.4 -1.4 -1.4 -1.4 -1.4 -1.4 -1.4 -1.4 -1.4 -1.4 -1.4 -1.4 -1.4 -1.4 -1.4 -1.4 -1.4 -1.4 -1.4 -1.4 -1.4 -1.4 -1.4 4.3 10.6 17.7 21.2 36.6 47.8 54.3 64.3 75.1 86.3 97 115.4 125.4 132.5 134.3 141.1 149.8 159.8 173.6 176.6 173.9 178.7 191.5 196.5 200.3 204.2 203.1 211.7 215.9 215.8 225.7 223.1 216.9
269 284.5 286.9 285.8 288.1 287.7 281.4 275.2 270.3 262.9 261.7 252.4 238 237.8 232.5 222.9 215.6 208.3 196.5 181.6 161.3 146.7 145.2 138.8 128 115.3 108.9 103.6 102.1 92.8 80.9 60.8 55.7 40.8 40.1 41.3 42.7 50.5 63.4 76.6 91 101.5 121.3 141.7 164.1 170.3 188.7 201.7 197.6 204.1 218.2 247.9 270.1 275.7 285.6 304.6 318.9 332.1 350.4 357.7 381.8 392.5 408.3 415.5 427.4 424.6 421.2 417.9 409.5 409.1 408.6 399.2 367.4 362.9 377.1 382.3 391.6 380.6 371.1 351.5 346.2 343 336 328.8 316.8 263.6 277.6 278.6 287.4 296.3 295.8 275.3 255 236.1 219.8 209.4 205.7 201.2 177.1 146.9 127.3 114.5 97 78.7 67.5 54.5 32.4 28.4 28.8 26.1 25.7 24.2 24.3 25.2 25.6 26.8 24.9 24.2 25.5 16.6 18.1 16.1 12.8 13.9 11.1 9.1 5.7 5.2 6.1 3.7 -1.4 -1.4 -1.4 -1.4 -1.4 -1.4 -1.4 -1.4 -1.4 -1.4 -1.4 -1.4 -1.4 -1.4 -1.4 -1.4 -1.4 -1.4 -1.4 -1.4 -1.4 -1.4 -1.4 -1.4 -1.4 -1.4 -1.4 -1.4 -1.4 -1.4 -1.4 -1.4 -1.4 -1.4 -1.4 -1.4 3.9 10.9 23.9 34 34.8 48.2 58.1 65 75.2 90.7 98.7 110.4 128 139.9 147.6 154.8 159.3 165.7 170.4 176.6 180 182.9 190.6 197.5 202.9 208.7 216.3 221.1 225.2 226.4 224.2 221.4 220.7 216.5
255.3 271.1 278.8 280.7 281.7 281 276.4 272.9 264.8 262.1 253.6 245.1 241.3 218.7 224.6 217.3 207.4 193 184 167 140.1 137.2 131.2 125.8 114.9 104.1 100.5 100.8 95 82 77.1 60.6 42.3 38.4 40.3 41.1 46.6 61.9 77.8 91.6 104.5 121.1 136.6 153.5 175.5 187.3 192.6 195.8 200.4 216.2 230.3 247.3 271.7 285.9 301 318 324.6 325.5 338.7 365.7 370.6 388.2 404.9 415.8 415.5 418 410.2 404.6 398.3 389.2 387 379.6 360 331.2 326 345.3 335.8 341.1 344.7 337.2 330 330.6 324.8 319.3 316.2 300.8 237.8 239.1 243.9 257.7 265.7 248.3 235.3 215.1 197.8 200.8 190.4 175.3 150.7 126.8 101.7 86.3 72 63.5 54.7 41.7 24.7 24.9 25.6 21.3 19.2 16.9 16.9 24.4 20.8 17.9 16.6 18 18.2 14.4 9.8 8.8 4.9 3.9 -1.4 -1.4 -1.4 -1.4 -1.4 -1.4 -1.4 -1.4 -1.4 -1.4 -1.4 -1.4 -1.4 -1.4 -1.4 -1.4 -1.4 -1.4 -1.4 -1.4 -1.4 -1.4 -1.4 -1.4 -1.4 -1.4 -1.4 -1.4 -1.4 -1.4 -1.4 -1.4 -1.4 -1.4 -1.4 -1.4 -1.4 -1.4 -1.4 -1.4 3.5 4.8 9.1 18.9 30.6 40.2 49.4 64 67.3 73.7 80.6 96.8 106.3 115 134.2 146.9 159.7 164.3 169.4 177.8 181.4 176.9 180.9 198.6 199.1 203.3 206.5 221.5 228.7 232.8 235.5 232.9 232.8 229.3 227.7 220.2
241.1 252.4 263.8 276.3 282.3 280.5 271.2 269.1 264.3 258.2 249.5 246.1 233.7 208.6 207.9 204.5 194.8 189.5 170.2 153.1 130 126.8 120.1 115.1 106.3 101.8 101.1 99 93 75.4 61.2 51.2 39.3 38.4 39.7 43.1 58.6 79.1 95.7 104.8 121.7 139.1 155.3 163.4 165.3 167.4 179.4 194.5 207.4 223.6 244.2 257.9 257.6 277.8 302.9 315.9 325.6 323.4 337.8 350.7 353.7 368 384.9 396.8 395.4 400.5 390.5 381.6 375.7 366 365.3 351.3 339.8 317.5 301.6 298.1 302.2 311.2 318.9 333.4 327 324.8 319.4 312.3 309.2 295.8 273.2 202.7 195.8 214.4 223.7 218 212.2 189.1 178.8 181.9 169.5 148.2 130.7 103.3 84.2 69.6 58.2 47.3 40.4 31.9 23.1 22.7 23.7 28.1 25.9 22 11.9 19.8 12.5 9.2 8.2 8.3 10 8.4 7.4 2.8 2.7 -1.4 -1.4 -1.4 -1.4 -1.4 -1.4 -1.4 -1.4 -1.4 -1.4 -1.4 -1.4 -1.4 -1.4 -1.4 -1.4 -1.4 -1.4 -1.4 -1.4 -1.4 -1.4 -1.4 -1.4 -1.4 -1.4 -1.4 -1.4 -1.4 -1.4 -1.4 -1.4 -1.4 -1.4 -1.4 2.3 4.5 4.3 3.9 3.1 5.4 7.9 10.5 17.7 25.3 33.8 45.4 60.5 68 74.4 84.4 101.6 110.5 111 129.9 141.5 152.3 175 177.9 181.8 189.3 181.7 191.4 195.7 202 203.4 209 219.1 230.5 235.8 237.3 242.2 241.6 243.6 238.7 228.4 219.4
238.3 239 248.7 256.8 267.4 271.9 269 255.7 246.7 243.8 236.2 228 219.6 205.4 186.8 189.3 184.8 174.2 158.6 131.9 116.4 108.7 103.4 101.9 99.6 99 105.5 107.6 89.8 80.7 59.7 41.8 36.2 38.8 43.4 54.8 66.9 93 99.2 109.4 136.4 152.7 142.4 143.6 139 150.7 172.1 185 198.5 217.2 242.1 253.5 260.5 276.1 298.8 307.6 321.7 326 327.7 330.6 340.6 349.4 356.6 364.2 360.5 359.7 350.5 344.4 343.2 342.9 337 330 321.4 315.5 275.4 272.3 279.1 266.8 290.6 311 311.6 308 300.7 295.2 288.8 272.7 258.7 233.2 181.9 169.9 179.9 189.8 181.3 171.2 166.3 163 151 134.9 109.5 89.4 71 57 50 42.2 38 27.4 20.2 22.6 29.9 28.3 21.7 19.1 12.9 9.9 7.2 5.2 4.1 2.8 3.8 4.1 4.9 3.3 1.5 -1.4 -1.4 -1.4 -1.4 -1.4 -1.4 -1.4 -1.4 -1.4 -1.4 -1.4 -1.4 -1.4 -1.4 -1.4 -1.4 -1.4 -1.4 -1.4 -1.4 -1.4 -1.4 -1.4 -1.4 -1.4 -1.4 -1.4 1.7 1.8 2.3 2.3 2.5 2.8 5.4 6.4 7.3 9.5 11.3 15.3 10.8 14.2 17.6 16.6 23.3 26.9 38.5 53.6 62.5 73 86.5 95.5 113.3 122.2 122.8 151.9 156 167.6 178.8 185.3 193.6 192.6 199.6 201.1 199.2 199.6 207.1 216.7 223.9 223.7 242.2 246.2 248 246.9 244.9 240.3 230.7 220.5
228.4 219.7 238.1 240.3 248.1 254.2 252.3 241.4 231.4 223.3 220.1 215.1 202.5 194.5 174.6 164.4 165.6 148.2 131.8 115.8 104.1 94.2 83.9 91.7 94.2 102.5 114 104.6 84.6 62.9 45.5 35.3 39.4 44.2 54.8 70.1 88.7 100.4 108.1 108.8 125.7 117.3 117.2 116.1 121.7 145.9 166.4 180.1 195.3 216 237.8 240.6 261.7 279 284.2 295.5 312.9 317.5 313.6 318.1 313.1 324 334.5 335.5 334.7 334.1 332.8 327.1 318.7 315.2 312.6 305.1 296.1 288.5 272.1 234.4 233.2 236.1 264 290 296.5 292.4 289.8 271.2 258 244.7 237 215.7 201.5 184.4 144.1 152.4 159.8 155.8 146.5 133.7 125.1 112.7 94.4 77.6 61.8 50.6 44 42.5 33.2 18.4 23.3 26.3 30.1 23.4 20.9 23.7 18 8.5 7.1 5.1 2.7 -1.4 -1.4 -1.4 -1.4 -1.4 -1.4 -1.4 -1.4 -1.4 -1.4 -1.4 -1.4 -1.4 -1.4 -1.4 -1.4 -1.4 -1.4 -1.4 -1.4 -1.4 -1.4 -1.4 -1.4 -1.4 -1.4 -1.4 -1.4 -1.4 -1.4 -1.4 5.2 9.1 8.1 7.1 10.4 7.3 7.9 11.5 18.1 19.4 19.2 18.9 21.2 26 27.4 29.7 28.6 23.1 28.5 37.5 45.2 58.8 69.4 84 99.5 114.1 126.8 133.6 146.7 161.4 168.4 176.4 184.1 199.3 200.8 206.5 209.5 212.7 213.3 208.8 215.5 219.7 225.9 238 242.1 243.3 243.2 241.3 238.6 235.3 225.7 218.6
218.2 216.7 220.2 230 235.8 240.8 240 236.4 230.2 214.9 205 190.9 190.4 182 169.2 137.8 139.4 128.2 116.2 105.7 90 78.6 78 82 91.6 102.8 112.3 108 68 48.6 32.2 29.8 40.8 53.9 68.5 85.5 103.8 121.6 120.2 99.8 98.7 94.9 102.4 106.7 121.1 138.8 151.9 163.7 181.4 195.5 210.4 220.4 243.6 268.6 273.9 278.7 275.6 287.3 287.9 283.1 288.7 293.2 304.8 298.1 302.3 304.6 302.2 299.1 297.1 291 283.1 277.5 269.3 261 244.6 228.9 209.4 214.5 233.5 257.5 267.3 268.7 258.4 243.6 223.2 213.4 202.8 189.8 188.1 184.2 157.6 123.7 120.4 125.6 118.5 108.4 98.8 90 75.1 67.1 55.3 38.4 33.7 34 25.3 17.4 22.9 27.8 24 22.4 22.9 21.7 14.1 7 5.4 4.6 2.8 -1.4 -1.4 -1.4 -1.4 -1.4 -1.4 -1.4 -1.4 -1.4 -1.4 -1.4 -1.4 -1.4 -1.4 -1.4 -1.4 -1.4 -1.4 -1.4 -1.4 -1.4 -1.4 -1.4 -1.4 -1.4 -1.4 -1.4 -1.4 -1.4 -1.4 5.6 13 25.5 23.4 25.8 22.7 17.1 18 21.8 25.7 29 28.7 29.9 34.5 38.5 39.6 43.7 44.2 35.6 37.7 45.5 55.1 66.3 75 90.9 110.3 126.4 134.3 147 156.8 164.9 171.4 187.6 198.9 202.9 207.1 211.4 218.9 223.9 230.5 227.5 224 234 237 243 242.4 240.4 239.1 235.6 233 227.8 220.6 217.8
202.5 205.8 199.1 211.6 217.6 225.6 227.1 221 213.4 194.9 185.1 183 171.9 162.3 151.1 137.1 122.7 116.9 108.4 95 79.7 66.7 61.8 74.3 83.1 94.5 98.5 67 51.9 34.9 27.8 26.3 37.4 53.5 66 80.8 98.8 94.4 97.8 82.6 77.7 85.6 95.6 101.2 126.8 140.8 148.7 150.6 161.2 173.6 183.6 195.7 221.9 232.7 252 255 251.5 250.8 259.3 253.8 256.4 269.8 273.8 271.8 272.3 270 270.8 277 272.4 265.6 262.2 246.8 236.5 224.9 223.6 212.2 193.6 191.8 208 224.5 227.6 222.6 217.4 199.5 190.6 184.1 176.7 175.1 174.9 163.9 143.4 133.3 103.9 98.6 98.4 87.5 77.8 74.3 61.4 49.9 40.6 43.4 26.3 22.4 17.8 16.6 23.3 23.9 22.8 23.1 20 15.9 9.1 5 3.3 2.8 1.9 -0.1 -1.4 -1.4 -1.4 -1.4 -1.4 -1.4 -1.4 -1.4 -1.4 -1.4 -1.4 -1.4 -1.4 -1.4 -1.4 -1.4 -1.4 -1.4 -1.4 -1.4 -1.4 -1.4 -1.4 -1.4 -1.4 -1.4 -1.4 4.1 13.3 27.7 31.8 32.6 31.4 35.3 35.4 28.1 25.4 30.6 36.2 37.3 39 40.4 44 47.7 52.6 59.5 59.9 56.7 48.3 56.6 66.6 75.8 83.7 95.1 117 132.4 140.3 156.9 165.8 172.2 179.4 199.2 206.2 208.2 214.4 216.8 231.1 234.4 243.3 238.9 233.5 243 245.2 245 242.6 240.3 239.7 236.3 233.8 226.4 221.4 220.1
200.8 196.8 191.4 194.7 196.3 201.9 205.7 198.1 183.7 174.2 167.6 165.7 159.8 149.5 140.3 130.9 119.1 109.2 103.1 82.1 66.3 57.7 60.2 65 68.9 69.1 60 46.6 31 23 22.2 22.3 29.6 51.5 61.1 75.5 79.4 75.5 64.5 66.1 68.4 65.7 74 90.2 113.8 130 143.4 143 141.9 153.8 166.7 200.4 213 216.8 221.4 228.1 227.8 213.5 219.9 219.3 228.1 230.6 229.2 231.7 239.7 234.8 230.4 239.1 235.1 230.2 226 217.2 206.6 206.9 194.3 185 184.4 176.1 180 191.9 184.9 177.4 178.8 173.2 168.2 164.3 164.9 162.8 154.5 142.3 128.2 119.2 109.5 79.4 83.5 73.5 68.5 58.7 43.8 36.8 31.2 19.2 16 18.8 16.8 19.4 21.8 23.4 22.6 20 17.1 12.8 8.2 3.7 2.8 2.3 2.3 0.3 -1.4 -1.4 -1.4 -1.4 -1.4 -1.4 -1.4 -1.4 -1.4 -1.4 -1.4 -1.4 -1.4 -1.4 -1.4 -1.4 -1.4 -1.4 -1.4 -1.4 -1.4 -1.4 -1.4 -1.4 -1.4 4.8 12.1 23.8 35.3 35.8 41.4 40.4 43.1 47.3 45.1 41.3 30.9 34.3 40.1 44.4 43.1 45.7 49.5 55.9 63 68.9 72.7 73.3 68.2 67.5 77.8 87.7 102.2 107 124.9 133.4 152.4 162.2 176.5 179.6 192.9 198.3 204.5 211.3 220.9 225.7 230.8 243.3 247.3 245.2 241.9 251.8 256 247.9 243 240.3 240.6 240.2 238.2 231.2 228.3 224.6
188.4 186.7 181.7 176.6 184.6 184.8 188.3 184 174.6 162 160 157.1 153.5 147.3 133.8 121 113.8 92.9 91 71.6 57.7 42.3 50.7 52.8 51.9 48.2 36.9 29.2 21.1 16.7 15.4 15.7 18.6 32.4 46.2 58.8 59.5 51.7 47.9 46.1 43.6 49.7 63.6 76.7 97.1 111.7 121.1 122.1 129.3 144.1 149.5 175.6 194.6 209.3 208.5 203.7 197.3 194.2 176.4 180.5 200.7 205.6 194.5 190.9 195.5 199.4 189.9 198.9 202 194.8 192.1 188 191.1 187.5 178.2 166.9 170 170.7 152.1 157.8 159.5 155.4 154.7 151.7 149.7 149.4 148.8 138.8 136.2 126.4 115.1 122 104.8 91.8 56.1 59.3 39.5 32 24.5 23.2 13.5 11.3 12.1 13.2 15.4 15.2 21.2 22.3 19.4 18.8 17.6 13 7.9 4.9 4.7 3 2.3 1.2 -1.4 -1.4 -1.4 -1.4 -1.4 -1.4 -1.4 -1.4 -1.4 -1.4 -1.4 -1.4 -1.4 -1.4 -1.4 -1.4 -1.4 -1.4 -1.4 -1.4 -1.4 -1.4 2.7 4.8 18.8 27.6 33.5 37.9 50.2 54.4 48.6 47.4 52.7 53.4 50.7 49.8 43.4 39.7 46.4 47.9 50.6 55.3 55.6 61.9 72.3 77.9 79.7 87.3 90.8 82.7 80.1 95.2 111.4 116.4 124.4 142.4 160.7 174.8 185.3 191.5 201 201.4 207 219.1 219.1 233.9 239 247.8 248.7 252.4 250.5 253.9 251.9 249.9 248.3 243.6 245.3 244.7 238.7 233.8 231.3 227.5
183.7 178.2 172.9 165.9 171.1 174.3 172.9 171.4 162.1 147.7 147 141.9 137.6 130.3 120.4 109 103.2 89.7 71.1 52.6 44.1 37.4 36.3 42.6 44.2 35.6 24.2 19.4 18.8 16.7 13.6 14.1 15.6 20.9 30.8 38 37.5 29.6 23.3 25.9 24.2 35 46.9 65.3 79 99.3 108.6 130.6 137.3 142.7 149.3 169.5 181.3 183.5 190.1 191 186.8 177.9 157.9 146.2 165.7 163.8 159.2 158.3 158.1 157.3 164.2 168.7 169.4 155.7 150.2 156.7 162.3 155 152.6 154 159 163.2 156.2 139.1 135.4 143.7 141.6 139.2 135.2 136.1 127.9 123.8 113.3 105.2 112.5 109.1 94.2 84.2 66.2 42.1 29.7 17.3 13 12.9 9.6 9.5 10.8 12.1 15.7 19.4 19.8 18.8 18.4 16.9 13.5 11.2 9.1 5.1 5.3 4.6 3.4 2.3 -1.4 -1.4 -1.4 -1.4 -1.4 -1.4 -1.4 -1.4 -1.4 -1.4 -1.4 -1.4 -1.4 -1.4 3.1 3.3 2.3 2 2.3 4 5.3 7.4 16.7 24.2 33.3 39.6 45.9 49.7 58.8 59.7 55.7 49.3 59.1 57.7 59 57.2 53.2 45.3 52.5 61.3 65.8 66.7 66.5 68.6 76.2 83.1 93.2 99.8 105.5 105.9 96.9 97.1 113.1 120 135.1 147.1 168.4 185.3 192.4 201.1 208 208 211.3 217.2 218 216.8 230.8 242.7 253.9 255.6 254.6 260.4 257.3 253.6 251.7 249.8 246.3 243 242.9 235.4 235.9 236.8
179.3 173.7 167.3 161.5 160.2 163.6 161.8 157.4 149.3 139.5 135.8 130.1 127.1 122.4 113.8 105.6 94.8 86.2 59.9 48.3 41.6 34.7 28.9 34 33.2 27.3 15.2 13.4 19 17 11.5 13 14 14.8 18.5 24.5 18.5 15.6 16.4 19.7 23.2 31.9 42.5 60 77.6 85.7 108.7 122.3 127.4 139.5 151.4 156 165.3 167.7 166.9 158.8 154.4 142 141.4 108.6 110.3 120.5 131.6 123.4 115.6 124.4 146.6 160.6 147.5 140.4 141.1 134.2 137.7 135.8 141.6 151.6 152.3 152.4 147.2 142.1 116.1 123.4 123.6 124.9 124.2 123 106.8 94.6 90.6 93.5 99.4 93.8 91.3 74.4 56.8 34.1 24.2 16.1 11.9 9.5 9.5 9.5 9.5 10.4 14.6 18.2 18.5 16.6 16.2 14.9 11.5 10.1 8.5 7.2 7 6.5 7.7 7.1 3.7 2.8 1.4 1.3 2.3 -1.4 -1.4 -1.4 -1.4 -1.4 -1.4 8.1 20.9 8.1 6.5 6.5 5.3 8.2 7.3 9.9 15.9 35.7 36 37.5 40.5 46.7 57 61 62.5 58.9 58.5 57.4 59.4 63.9 68.3 57.3 58.8 56.8 62.4 70.1 76.4 80.3 82.3 80.8 84.6 90.7 99.2 104.9 111.4 117.4 106.2 99.1 112.7 129.1 140.5 154.7 182.2 190.3 200.2 209.3 213.9 213.7 218 217.8 218.7 218.5 225.7 242.1 256.4 257.4 258.2 263.1 269 265 254.7 251.3 250.1 248.8 246 244.3 242 241.2
172.6 166.3 162.1 160.4 154.5 158.4 157.9 153.8 146.3 137.7 132.7 129.9 123.8 120.3 112.1 104.6 97 83.3 64.7 43.6 38.5 35.1 27.9 27.5 22 18.9 11.8 12.5 13.3 12.9 11.2 12.9 15.9 16.5 13.2 13.6 13.4 13.5 14.1 19.1 25.7 30.7 38.8 53.8 66.1 85.4 107.7 116.2 132.9 143.9 150.7 155.1 153.9 152.2 149.8 138.2 124.3 116.1 99.8 83.9 74.3 87.2 105.5 110.8 102.9 106 118.2 126.7 116.3 103.5 119.5 111.3 114 112.4 122.9 142 148.8 148.7 145.1 141 120.3 96.2 104.6 111.4 104.1 88.8 75.9 58.3 63.2 63.6 62.1 78.3 51 37.4 23.6 14.8 12.4 11.1 9.6 9.5 9.5 9.5 9.5 9.5 12.6 16.7 16.9 15 13.5 12.6 10.1 9 8.8 9.8 9.4 7.7 21.5 22.1 12.1 6.8 5.3 4.3 6.5 9.2 5.2 2.6 3.5 13.4 26.9 32.8 34.7 25.1 16 11.3 9.5 10.4 15.8 22.7 35.1 48.6 46 47.2 50.5 56.3 63.4 64.2 62 60.4 59.9 62 64.6 64 71.9 70.3 68.4 76.6 71.2 81.1 86.7 93.7 96.5 94.6 101.3 105.9 106.6 108.4 117.7 120.4 117.5 112 114.2 130.4 150.1 180.9 188.4 196.5 203 208.1 218.3 218.6 218.9 221 224.5 231.6 234 246.5 260 261.3 261.7 264.4 266.5 259 255.2 253.2 255.2 257.8 257.1 250.8 245.4 240.1
171.3 159.2 155.6 154.1 152.2 149.1 152.7 151.2 139.7 133.4 128.1 124.3 123.1 115.5 106.9 94.1 85.2 73.2 62.2 48.1 42.6 30.7 27.3 22.7 13 10.7 10.7 10.9 12.2 11.8 11.5 13.4 12.7 12.8 12.8 12.6 12.1 11.5 12.3 16 24.1 31.7 38 49.3 59.1 82.6 117.4 131.7 138.1 140.1 154.6 159.3 151.9 142.3 117.4 108.1 83.3 74 66.5 57.1 54.6 57.3 68.6 76 84.2 76.3 76.2 73.8 68.5 66.4 65.7 69.7 79.2 80.9 89.1 113.8 124 133.7 138.7 134.7 132.8 110.7 84.2 79.7 70.8 57.7 45.3 39.9 41.4 36.1 31.6 26.3 21.3 12.3 9.5 9.5 9.5 9.5 9.5 9.5 9.5 9.5 9.5 9.5 9.5 14.3 15 17.7 15.9 15.9 13.9 12.9 14.2 15.4 17 11.9 19.7 29.5 24.7 16.8 11.6 12.1 13.7 17.9 17.9 13.6 10 22.4 30.5 34.5 36.5 33.2 27.2 20.1 21 18.1 25.4 33.6 40.4 48.1 51.9 52.7 58.9 64.2 66.4 64.3 63.5 63.6 62.3 66.2 69.3 72.8 75.4 78.6 78.8 85.8 85.2 94 100.8 104.9 107.1 114.2 111 120 121.4 120.5 123 122.8 122 125.8 126.6 130.6 149.8 178.8 197.7 206.2 212.2 217.7 220.1 226.1 226.3 225.4 229.7 237.9 238.7 251.2 261.3 263.5 267.4 266.4 263.2 258.6 257.1 255.5 261.3 271 267.4 261.5 248.4 244.7
160.6 159.2 156.9 151.8 149.3 146 137.9 138.5 132.9 125 123.3 118 113.5 105.5 95.8 87.6 73.6 51.3 47.2 37.1 39.1 32.5 23.2 16 11.7 9.6 9.3 9.5 9.8 8.5 11.3 11.7 11.4 11.1 12 12.4 12.1 11.5 11.8 17 27.3 26.1 35.4 40.2 61.8 87.3 117 127.9 133.8 142 146.7 138.8 118.7 100.3 89.4 70.9 52.9 39.7 34.8 37.2 37.1 40.7 43.8 41.2 43.6 42.8 47.5 47.5 37.5 41 38.2 42.1 47.8 52.2 57.5 63.7 73.7 84 110.1 123.6 129.3 120.3 80.6 52.7 46.6 35.1 29.3 22 20.2 14.6 9.5 9.5 9.5 9.5 9.5 9.5 9.5 9.5 9.5 9.5 9.5 9.5 9.5 9.5 9.5 11.1 12.8 14.9 18.4 20 19.6 20.9 21.8 22.4 22.5 15.2 15.9 21.9 24 22.8 19.8 18.7 18 17 19.1 20.7 15.2 24.7 33.4 34.8 35.9 35 31.1 27.8 29.3 23.1 33.7 41.4 50 56.2 58.7 62.2 69.1 70.5 70.5 68.2 67 65.2 67.5 69.4 73.7 79.6 80.9 81.2 85.8 92.5 93 101.1 105 116.8 119.6 120.7 118.7 121.4 129 127.8 126.8 132.4 141.3 144.2 147.1 145.9 158.5 179.7 201 213 222.1 225.3 226.3 232.9 232.5 233.1 235.4 241.5 244.1 254 265.9 271.3 272.5 270 266.5 264.8 263.4 263.9 267 272.6 269.5 263 255.8 249.1
156.5 157 156 152.6 145.2 141.8 135.2 129.7 124.5 111.7 112.4 107.6 101.4 96.6 88.2 77.8 55.2 46.4 33 34.4 33.4 23.2 13.9 9.6 9 8 7.9 7.9 7.5 8.5 9.9 10.1 9.9 10.3 10.7 10.9 11.2 11.2 12 18 18.7 24.5 33.3 52.1 67.8 88.9 110.1 119.7 135.9 138.2 126.7 104.4 81.5 61.5 47.8 36.5 32.2 25 17 18.6 17.5 14.6 11.9 13.6 13 12.3 22.5 26 21 20.6 19.7 21.3 20.3 24.2 33.6 41.4 48.4 56.5 67.1 86.3 108.8 97.4 75 49.8 28.1 15.1 9.5 10.8 9.5 9.5 9.5 9.5 9.5 9.5 9.5 9.5 9.5 9.5 9.5 9.5 9.5 9.5 9.5 9.5 9.5 11.5 12.4 12.8 14.4 16.9 18.1 20.6 21.3 23.2 25.1 29.8 19.5 20.5 22.5 28.4 26.5 24.6 23.6 21.4 19.8 23.2 24.4 20.7 31.2 37.6 40.3 37.6 34 36.4 38.6 42.7 30.7 45.4 53.7 59.4 63.2 67 73.1 80 76.6 74.9 70.4 72.4 75.4 76.6 81.9 88.7 92.3 87.7 90.8 100 108.8 106.3 117.1 125.1 133.2 129.8 127.3 130.4 129.9 131.2 135.3 144.6 152.7 155.5 159.9 168.5 169.8 185.2 203.4 208.9 224.4 228.2 232 237.7 236 238.6 243.2 245.1 247.3 258 262.8 274.7 278.1 277 278.3 277.2 276.7 272.4 265.8 267.4 266.8 262.4 254.4 248
152.5 154.1 152.9 147.6 144.2 139.5 135.7 122.4 116.2 100.1 98.9 99.3 96.2 91.7 75.9 66 53 32.5 29.1 27.2 22.8 16.8 14 9.3 7.7 7.2 7 6.9 6.6 7.1 7.8 8.4 8.4 8.8 8.5 8.6 9.9 11.6 12.2 13.9 17.9 26.8 53.2 71.7 80.6 89.5 101 115.3 118.2 108.9 93.2 72.1 53.3 29.9 15.3 9.5 11.9 9.5 9.5 9.5 9.5 9.5 9.5 9.5 9.5 9.5 9.5 9.5 9.5 9.5 9.5 9.5 9.5 9.5 17.4 24.9 30.7 34.6 43.2 56.1 65 54.4 40.1 26.2 14.8 11.7 9.5 9.5 9.5 9.5 9.5 9.5 9.5 9.5 9.5 9.5 9.5 9.5 9.5 9.5 9.5 9.5 9.5 9.5 9.5 11.2 15.4 23.2 37.6 38.1 30.3 26.8 29.8 30.4 29.7 32.6 31 23.3 29.3 45.8 49.5 37.7 34 37.1 31 28.3 31.6 33.2 34.8 39.7 45.1 40.6 41.2 40.9 44.2 52.2 40.1 49.8 58.4 64.1 69.3 74.9 77.8 82.4 80.2 77.3 75.8 82.2 82.5 85.6 92.1 102.2 106.6 103.8 95.5 103.3 114.7 117.4 122.8 130.4 135.5 136.4 138.6 139.6 140.8 139.3 147.3 154.1 162.7 168.2 183.7 195.8 199.1 193.1 202.9 218 229 233 237 240.4 238.4 240.5 242.4 244.5 247.5 257.7 263.3 266.6 277.4 288.1 290.7 287.6 281.5 270.1 262.9 256.6 255.8 255.5 252.8 249.2
144.6 146.6 146.6 144.4 141.3 136.6 131.6 122.5 116.4 102.4 82 85.7 87.4 89.1 70.5 48.4 40.5 30.8 21.5 18.4 16.2 11.2 11.4 9 7.1 6.6 6.3 6 6.9 6.7 7.6 7.7 7.7 7.5 7.7 7.1 7.6 7.2 10.5 13.9 19.3 40.4 60.6 77.8 86.7 96.4 101.2 96.5 97 87.3 71.5 48.5 30.2 10.7 9.5 9.5 9.5 9.5 9.5 9.5 9.5 9.5 9.5 9.5 9.5 9.5 9.5 9.5 9.5 9.5 9.5 9.5 9.5 9.5 9.5 11.1 15.8 19.7 23.6 33 33.4 24.8 18.1 9.5 9.5 9.6 9.5 9.5 9.5 9.5 9.5 9.5 9.5 9.5 9.5 9.5 9.5 9.5 9.5 9.5 9.5 9.5 9.5 10.2 10.5 17.9 24 38.8 49.7 53.1 57.4 51.3 45.9 41.1 38.9 36.9 33.5 31.2 37.8 52.6 65.2 53.5 52.4 49.8 49.9 48.5 54.9 64.6 63.6 48.6 56.6 56.6 56.8 61 60 59.8 50.8 54.9 63 75.5 81.2 78.5 83.8 82.2 82.5 81.5 88.8 88.3 90.3 94.8 101.5 112 121 121.6 110.1 102.2 112.2 123.9 125.6 132.8 137 147.5 152.8 148.5 155.3 154.6 158.3 164.9 172.1 177.4 192.5 199.7 206.3 203.2 203.4 217.7 232.7 238.3 240.6 240 239.9 240.9 244.9 245.6 249.6 258.5 264.4 267.8 278.7 289.7 290.7 285.6 277.6 266.5 255.3 250.8 244.6 244.1 244.9 241.7
140.8 143.3 149 147.9 140.8 138.9 131.8 118.3 92.2 92.7 73 57 60.9 59.8 49.6 37.7 25 19.5 17.1 14.3 11.4 10.3 9.2 8.2 6.3 6.1 5.8 5.9 6.9 7.4 7.5 7.3 7.5 7.2 6.8 6.6 6.4 6.9 8.2 12.9 19.4 24.3 39.1 60.7 79.6 85.8 85.4 81.9 84.8 76.3 59.8 37.8 9.5 9.5 9.5 9.5 9.5 9.5 9.5 9.5 9.5 9.5 9.5 9.5 9.5 9.5 9.5 9.5 9.5 9.5 9.5 9.5 9.5 9.5 9.5 9.5 9.5 9.5 11.5 16.4 14.8 11 9.5 9.5 9.5 9.5 9.5 9.5 9.5 9.5 9.5 9.5 9.5 9.5 9.5 9.5 9.5 9.5 9.5 9.5 9.5 9.5 10.7 13.1 19 31.2 45.2 55.2 63.5 79.2 86.7 78.4 70.2 61.1 54.5 52.6 43.4 44.5 36.5 52 61.7 66.7 70.3 69.1 73.2 70 86.1 85.4 83.6 70.9 67.1 77.3 95.1 93 87.7 78.7 69.3 53.2 62.8 73.8 83.7 88 84.3 85.6 90.1 94.6 95.5 97.4 98.8 103.8 111 122.1 137.5 132.2 121.7 111.5 117.7 122.6 128.7 134.6 139.3 151 153.9 156.5 162.4 168 172.8 173.3 179.1 191.7 201.8 216.5 221.2 221.1 218 220.7 225.5 235 238.2 238.9 240.6 244 246 246.4 249.8 261.7 264.2 263.7 280.6 292.7 291.3 283.3 272.9 262 256 252.1 245 244.4 244.2 247.9
140.7 129.4 131.6 126.8 122.3 122.8 122.8 116.7 98 79.9 59.5 52.9 45 38.1 23.6 19.1 18.2 15.2 13.3 11.6 9.1 8.1 7.1 6.7 5.5 5.4 5.4 5.7 6.3 6.8 7.4 7.4 7 6.9 6.8 8.1 6.7 6.5 7.1 11.4 16.8 18.4 20.3 34.1 50.1 54.7 63 60.3 58.6 56.4 32.4 14.4 9.5 9.5 9.5 9.5 9.5 9.5 9.5 9.5 9.5 9.5 9.5 9.5 9.5 9.5 9.5 9.5 9.5 9.5 9.5 9.5 9.5 9.5 9.5 9.5 9.5 9.5 9.5 9.5 9.5 9.5 9.5 9.5 9.5 9.5 9.5 9.5 9.5 9.5 9.5 9.5 9.5 9.5 9.5 9.5 9.5 9.5 9.5 9.5 9.5 13.2 15.5 17.4 30.7 50.4 73.5 86.3 90.1 95.8 94.2 87.7 82 88.3 84.7 62.8 58.9 57.5 65.2 51.6 63.7 83 90.7 96.6 90.9 81.9 88.9 98.8 90.5 88.4 73 83.7 103.4 103.5 98.7 92 89.3 70.3 71.2 82.6 77.3 84 88.5 93.4 92.6 100.6 102.4 105.9 111.3 115.3 123.7 137.5 150.1 140.4 124.9 114.7 120.8 124.7 126.7 133.4 145.7 150.1 161.8 173.6 178 183.1 186.2 188.4 192 207.6 213.3 229.7 236.9 233.7 231.8 225.4 223.1 228.3 233.9 237.5 244.4 256.3 254.4 250.6 256.1 263.4 260 257.4 262.8 284 281.9 278.6 272.2 262.9 254.6 250 247.6 247 244 246.4
126.5 118.4 113.9 109.8 106 107.1 107.8 107.6 99.1 75.8 52.9 41.6 33.8 20.2 18.5 17.2 14.1 13.3 10.7 9.5 8.6 7.4 6.8 6.5 5 5.1 5.1 5.6 5.9 6.1 6.7 7.1 6.8 6.6 6.8 6.8 6 6.2 6.7 8 10.6 13.8 16 17.7 22.3 28.9 27.3 24.6 21.7 21.2 17.7 10.8 9.5 9.5 9.5 9.5 9.5 9.5 9.5 9.5 9.5 9.5 9.5 9.5 9.5 9.5 9.5 9.5 9.5 9.5 9.5 9.5 9.5 9.5 9.5 9.5 9.5 9.5 9.5 9.5 9.5 9.5 9.5 9.5 9.5 9.5 9.5 9.5 9.5 9.5 9.5 9.5 9.5 9.5 9.5 9.5 9.5 9.5 9.5 17.7 25.8 31.7 37.5 39.6 27.2 46.3 80.1 94.2 96.9 103.6 108 91.2 98.9 105.7 90.5 73.4 94.6 87.7 77.6 72.6 64.6 75.6 95.9 108.7 104.7 92.4 91.5 94.4 102.8 100.1 88.1 78.9 97.2 106.4 104.1 102.1 97.3 79.3 79.8 85.5 91.6 85.7 93.1 98.2 100.1 100.8 105.8 117.1 124.4 131.3 141.5 158.1 161.1 142.4 124 121.9 125.6 127.4 135.1 145.8 153.4 166.9 173.7 184 189 187.3 199.6 204.2 213.4 218.2 221.1 233.6 250 242.3 236.5 227.5 225.2 224.3 231.7 236.9 250.5 264.1 259 256.2 258.3 256.5 253.2 252.5 259.5 270.4 278.3 275.8 270.7 262.8 255.5 250.6 248.5 248.8 237.2 234.3
119.8 110.7 98.2 93.8 87 88.7 91.8 93.8 82.8 57 34.8 24.7 21 16.6 16.4 14.4 12.3 11.6 9 8.3 7.9 7.1 6.3 5.9 5.2 5.2 5.1 5 5.4 6 7 7 6.6 6.8 6.9 6.5 5.9 6.9 5.7 7.5 8.8 10.5 12.5 11.4 10.2 11.6 14.6 16.3 14.1 17 13.3 9.5 9.5 9.5 9.5 9.5 9.5 9.5 9.5 9.5 9.5 9.5 9.5 9.5 9.5 9.5 9.5 9.5 9.5 9.5 9.5 9.5 9.5 9.5 9.5 9.5 9.5 9.5 9.5 9.5 9.5 9.5 9.5 9.5 9.5 9.5 9.5 9.5 9.5 9.5 9.5 9.5 11 10.9 9.6 9.5 9.5 13.4 24.8 40.4 58 67 68.1 70.5 59.3 46.5 71 108.6 112.8 107.1 106.2 102.3 106.8 103.7 89.6 98.2 109.3 100.1 101.3 91.6 72.3 74.5 91.4 119.8 127.2 110.2 100.9 107.4 103.8 110.8 103.1 95.7 92.5 108 113.5 104.8 96.7 88.6 97.3 98.6 100.6 109.6 96.7 106.2 115.1 115.4 120.3 125.2 135 151.4 160.4 167.4 166.6 143.1 129.7 127.3 130.6 138.1 144 163.4 175.3 177.6 179.9 187 194.2 206.6 214.7 213.2 214.1 216.9 230.9 250.7 253.6 246.8 238.1 228.3 224.9 225.8 226.8 227.7 247.6 257.3 255.7 256.9 258.2 252.7 240.7 249.9 257.4 263.7 266 269.9 263.1 260.1 258.8 258.5 255.2 249.4 241.4 234.2
118.2 96.6 79.5 75.5 71.9 67.8 59.2 57.8 54 29.9 21.7 16.3 16 12.6 14.1 13 11.7 11.5 8.4 6.9 6.4 6.3 5.3 5.1 5.3 5.2 5 5.1 5.4 6 6.6 7 6.4 6.1 6.2 5.9 5.5 5.3 5.7 6.6 8.2 9.1 9.2 10.7 12.7 12.3 10.1 11.6 10.4 11.5 9.5 9.5 9.5 9.5 9.5 9.5 9.5 9.5 9.5 9.5 9.5 9.7 9.5 10.7 9.5 9.5 9.5 9.5 9.5 9.5 9.5 9.5 9.5 9.5 9.5 9.5 9.5 9.5 9.5 9.5 9.5 9.5 9.5 9.5 9.5 9.5 9.5 9.5 9.5 9.5 9.5 11.1 12.7 14.1 12.8 18.6 24.7 34 38.9 62.9 92.8 106.1 109 112 98.8 76.6 63.1 88.5 126.5 115.9 113.3 115.2 112 103.6 97.7 106.5 112.5 112.9 116.7 112.5 100.1 87.8 85.4 98.7 118.1 120.8 118.3 110.2 110.3 109.3 108.1 109.9 108.4 103.7 110.8 100.4 101.2 105.4 111 117.6 116.6 116.5 117.2 118.8 131.1 131.4 136.3 143.3 158.3 162.5 164.6 174.5 168.4 145.3 151.6 143.6 135.4 144.6 156.5 177.1 178.2 178.1 181.8 193 208.5 219.8 216.6 216.6 214 223.1 244.8 257.9 255.3 250 243.4 228.8 227.4 228.1 230.6 231.1 232.6 241.3 246.3 248.3 244.4 237.8 245.5 255.5 258.7 258 249.3 252 254.7 259.6 257.8 262.5 259.1 250.1 244.1 229.9
76.8 63.5 60.5 50.4 46.2 39.9 38.6 37.8 31.3 25.1 19.3 11.1 11.2 9.8 11 12.9 12.3 9.4 8.7 6.6 5 4.8 4.8 4.4 4.8 5.7 5.7 5.7 6 7.7 9.2 7.1 6.4 6.1 6.1 6.2 5.2 5.5 6.5 8 10.5 11.8 14.7 16.7 18.4 20.2 20.8 12.6 13 13.1 12.9 9.5 12.7 9.5 12.5 12.4 10.6 9.7 11.5 15.4 16.2 19.4 19.8 19.6 17.1 16.8 15.1 11.4 16.2 11.6 9.5 9.5 9.5 9.5 9.5 9.5 9.5 9.5 9.5 9.5 9.5 9.5 9.5 9.5 9.5 9.5 9.5 10.6 18.4 17.4 15.9 18.1 18.2 22.6 30.6 35 41.6 55 61.4 64 91.7 122.9 126.7 130.7 133.7 107.8 91.2 85.8 113 126.3 127.6 124 119.1 111.8 113.6 122.5 122.5 119.4 123.9 132.8 125.5 113.1 105.4 92.8 108.3 128.3 125.5 112.8 112.6 110.1 112 111.6 108.1 103.4 101.8 104.6 105.4 119.2 129.5 128 126.9 127.8 125.3 132.2 135.6 146 158.7 170.6 177.1 178.8 172 169.5 164.8 161.3 164.4 156.6 148.5 145 158.3 177 182 181.1 184.5 202.9 217.5 217.7 218.2 220.2 224.7 235.9 254.6 257.5 256.3 249.6 245.7 231.2 232.1 233.6 234 236.3 234.1 234.5 235.1 236.7 237 242.2 255.5 256.4 239.7 232.6 231.9 239.1 244.3 253.2 260.3 259.4 254.4 252.5 241.7 229.4
49.4 45.8 40 37 36.2 34.5 31 26.5 22.2 21.2 10.9 8.5 7.3 7.1 8.8 10.3 9.8 8.1 8 6.5 4.7 3.9 4.6 4.1 4.5 5.8 7.2 7.2 8.2 9.8 9.3 7 6.8 6.7 5.9 6 5.8 5.6 5.6 8.4 12.1 16.9 19.5 19.3 22.5 25.1 22.1 20 20.9 19.6 19.7 20.2 22.7 23.8 29.4 28.7 29.5 33 28.3 29.7 32.6 27.4 33.9 31.3 29.8 27.7 26.8 21.7 20.9 18.4 13.4 9.5 9.5 9.5 9.5 9.5 9.5 9.5 9.5 9.5 9.5 9.5 9.5 10.3 16.3 20 20 25.5 33.2 37 42.1 41.5 38.4 32 29.5 40.9 61 80.8 91 90.3 93.6 115.9 135.9 143.1 145.6 144.9 129 92 121.9 124.8 126.2 122.5 118.8 117.6 131.7 142.1 143.2 139.5 125.8 132 131.3 135 137.1 115.3 104.1 119.7 121.1 117.2 113.7 107.5 106.9 107.1 109.9 114 112.5 109.2 112.5 122.8 138.2 144.5 139.5 136.5 133.1 139.6 145.9 155.6 173.5 187.9 190.9 187.1 180.9 178.9 174.2 168.4 167.2 170.2 165.1 159 156.6 168.6 178.9 185.7 192.4 204.3 213.6 218.2 218.6 228.4 233.5 251.4 253.7 255.1 254.9 251.1 243.3 235.5 236 235.9 238.2 231.9 228.3 227.3 228.9 228.7 237.1 250.9 251.4 227.3 223.9 217.3 215.3 222.1 228.9 246.9 252.6 252.1 250.5 248.7 239.4 226.9
39.5 39.3 37.6 30.5 29.6 31.6 26.5 23.2 16 10.5 7.7 6 4.7 5.1 5.7 7.8 8.2 7.3 6.5 5.4 4.3 3.9 4.3 3.9 4.2 5.3 7.2 8.5 9.5 11.6 9.2 7.1 5.9 6.2 5.9 5.6 5.8 4.9 5.8 9.5 15.2 19.2 19.2 20.4 22.2 26.6 32.8 31.5 29.7 22.8 23.8 30 36.1 45.8 56.2 57.4 58.1 52 47.1 51 49.1 50.5 50.9 55.5 53 48.6 43 35.2 28.6 27.3 19.1 20.1 17.6 13.8 13.5 11.4 9.5 9.5 9.5 9.5 10 11 15.8 22.3 27.9 36.5 44 54.9 63.6 62.6 60.8 65.9 66.4 62 53.5 41.2 64.1 80.4 106.3 116.5 132.6 134.7 144.2 148.7 158.9 155.3 147.1 124 111.5 127 133.2 131.9 118.5 117.5 120.4 131.9 146.9 148.5 141.4 137.3 141.6 147.6 148.1 142.5 118.4 116.9 128.4 125.7 114.4 111.7 109 115.9 121 125.1 133 122 116.4 127.2 138.3 151.2 151 146.6 143 145 153.3 165.9 169.4 196.9 200.8 204.5 204.7 193.7 183.2 180.2 178.7 173.3 167.5 167.6 166.6 176.5 183.8 190.4 197.9 201.9 209.3 217.6 222.6 230.9 249.4 254.8 252.5 254.4 254.1 253.4 246.6 241.9 235.4 232.2 231.9 236.8 230.2 228.1 226.6 227.5 235.8 241.5 227.6 217.6 212 205.3 212.6 222.2 215.5 221.9 229.6 241.6 247.3 244.4 234.3 224.2
26.9 25.9 25.9 24.5 25.1 30.2 27.3 23.5 20.6 14.6 7.9 3 -1.4 2.6 2.3 2.6 5.2 5.2 5.7 5.1 4 3.9 3.8 3.5 4 5 6.3 7.9 8.9 9.9 9 7 6.3 5.7 6.3 6 5.6 4.6 5.1 6.3 10.3 15.1 19 23.3 28.5 34.1 39.4 39.4 36.1 33.2 30.7 39.3 52 77.4 88.3 90.8 86.7 83.8 89.4 80.2 81.7 77.9 69.4 85.3 82.4 74.2 62 49.8 44 43.5 40.9 32.5 29.1 25.6 21.6 15.7 14.2 9.5 9.5 11.7 12.8 17.8 23.7 34 45.3 60.4 80.8 91 98.4 95.7 93.7 96.9 101.4 97.6 87.2 74.6 52.4 73.9 94 129.5 149.3 146 142.2 152 158.9 159.5 151 155.7 142.6 122.1 134.4 136 135.8 129.8 128.9 127.5 131.4 136.9 145.4 149.2 145 145 152.4 150.5 130.4 126.6 138.5 132.3 127.9 124.7 119.7 126.4 124.5 134.8 141 143.7 128.8 123.6 134.5 152.7 154.1 150.5 156.6 151.1 162.3 172.4 185.5 198.7 207.4 205.5 201.4 197.1 197.6 199.1 185.9 181.3 178.6 180.6 172.5 173 182.6 194.4 202.8 203.7 206.5 217 223 236.4 246.4 251.7 251.4 256.6 256.8 257.8 252.1 246.2 236.6 231.8 232 233.8 231.5 229 227.3 226.9 229.7 231.8 222.9 209.2 200 200.6 208.3 213.6 211.6 216.8 221 233.1 237.2 237 230.3 217.8
24.6 18.2 19.4 25.1 29.8 31.1 29.4 29.1 26.9 12.2 6.2 2.9 -1.4 -1.4 0.6 0.6 1.4 2.3 4.9 5.2 3.4 4 3.9 3.2 3.6 4.4 5.2 5.9 6.8 6.8 6.3 6.1 5.4 5.2 5.6 4.2 4.9 4.2 4.6 5.4 7 9.3 13.9 21.5 31.5 35.4 36.3 41.6 39.9 35.4 35.9 47.3 65.1 85.9 99.3 104.3 105.2 105.9 103 101.3 100.7 97.6 96.3 84.4 98.9 97.1 88.7 78.1 69.7 65 60.5 54.7 43.6 35.6 35.8 33.5 35.2 31.5 22.3 20.7 18 21.2 31.6 41.7 62.2 85.8 111.7 144.7 156.3 151 139.8 134.2 145.2 132.2 126.2 112.3 98.8 78.5 84.6 115.4 141.6 155.1 154.8 150.6 152.9 156.8 163.4 174 172.2 146.2 133.3 137 145.5 161.7 159 141.7 139.3 142.8 151.7 159.7 151.3 144.1 154.1 151.9 145.9 135.1 137.5 155.1 146.5 138 145.1 135.7 131.7 140.1 148.6 151.9 145.2 125.3 128.5 145 147.5 157.9 165.1 160.9 169.7 176.9 191.2 200.2 207.6 208.4 210.1 210.1 209.1 206 199.2 194 190.8 190.7 195 194.7 189.3 191 201.5 205.4 211.4 216.6 221.2 231.5 242.3 248.6 249.4 252.6 263.7 262.5 254.9 247.2 235.9 232.2 233.5 235.3 232.8 231.3 233 229.1 220.2 221.3 219.7 210.2 198.7 192.4 200 202.7 208.4 216 226.6 231.9 234.6 229.4 211.8 203.9
12.8 16.5 23.8 28.8 30.6 31.9 27 6.6 6.4 5.4 3.5 2.3 1.7 -1.4 -1.4 -1.4 -0.1 0.8 1.5 3.5 2.8 3.5 3.2 3.1 3.2 3.8 3.8 4 4.4 4.5 5 5.4 5.2 3.9 3.8 3.8 4.2 4 4.3 5.3 6.6 8 8.6 14 28.2 31 31.3 34.3 36.2 37 41.7 47.2 58.7 78.1 101.2 113.4 117.4 117.5 119.2 121.4 120.5 121.4 117.1 113.4 106.2 114.3 110.1 104.7 98.7 87.7 81.8 78.1 65.1 44.7 54 61.1 61.9 60.8 50.2 44.9 40.8 35.7 24.4 37.5 54.3 82.5 103.1 128 166.3 172.1 178.7 183.7 178.5 169.7 162.1 163.9 138.4 117.3 97 104.2 124.7 143.6 158.2 158.5 152.2 151.9 162.3 176.5 189.3 182.5 149.8 136.6 137.2 140.9 158.7 157.7 148.7 151.9 163 168.1 156.4 159.2 153 158.6 165.1 160.4 141.4 159.5 165.3 157.2 157.9 155.1 141.1 148.1 159.5 170.1 155.1 145 135.9 139.5 149.1 162.1 172.1 172.3 175.9 184.4 189.8 197.9 203.3 215.8 219.2 221.9 219.9 214.3 207.5 202.3 202.2 206.7 211.4 216.4 202.7 201 199.4 201.3 214.7 221 226.3 240 243.6 248.7 252.8 265.1 271.8 274.6 264.9 252.2 237.7 236.3 238.3 235.7 234.1 242.2 239.6 222.8 209.7 208.7 210.5 203.7 195.5 189.4 185.7 194.4 203.2 220.6 227.4 229 221.2 209.9 201.7 194
6.2 9 24.2 29 34.1 9.7 4.9 4 2.8 -1.4 -1.4 -0.2 -1.4 -1.4 -1.4 -1.4 -1.4 -1.4 -0.2 0.9 1.9 2.3 2.3 3.9 2.5 2.6 2.5 3.4 3.4 3.1 3.3 2.9 -1.4 4.4 4.1 3.6 3.5 3.5 4.5 5.4 6.6 6.9 7.4 8.8 20 24.5 28.4 36.6 37.7 40.1 50.3 62.1 72.4 82.4 90.9 115.2 124.3 121.1 125.5 131.3 128.9 133 129.1 123 128.8 125.6 129.8 125.4 122.7 113.3 107.3 100.6 89.9 66.8 75.9 74.3 97.4 92.1 82 73.5 66.8 61.9 59.4 52.3 43.9 68 95.9 131.3 154.9 167.3 186.2 183.1 185.6 182.2 179.9 180.2 167.3 154.4 128.9 110.8 114.2 135.1 155.1 168.2 161.6 151.2 151 166 186.4 188.1 155.6 137.4 136.4 138 139.4 151.1 157.8 158.8 163.2 163.9 164.9 166.6 171.1 171.4 168.2 170.7 162.6 158.9 176.8 173.2 171.5 161.8 155.7 155.4 177.9 186.7 175.5 165 150.3 134.9 147.8 161.1 179.8 184.1 181.4 186.1 191.7 208.8 214 216.3 219.8 225.6 226.5 223.1 220.8 213 215.7 216.2 216.6 224 216.5 211.5 210.2 210.6 211.3 221.1 238.9 249.6 251.6 252.1 258.5 270.2 277.6 272.6 266.2 263.3 246.4 244.5 248 243.8 237.5 245.8 236 214 209.1 203.3 199.6 196.8 191.2 185.9 184.7 184.2 196.5 214.2 222.7 221.1 209.1 193.1 188.2 180.1
2.9 4.1 3.3 3.9 3.6 3.7 3.4 2.8 2.3 -1.4 -1.4 -1.4 -1.4 -1.4 -1.4 -1.4 -1.4 -1.4 -1.4 -1.4 0.1 0.5 0.2 -1.4 2.4 3.1 3.6 3.6 2.3 2.1 1.8 1 -1.4 3.2 3.4 3.2 3.6 4 5.1 4.9 5.4 6 6.6 7.7 9.1 13.8 23.5 33.8 43.1 52.1 62.1 78.4 90.5 98.2 104.4 104.2 117.1 127.2 133 137.9 142.5 144.7 149.4 150.2 148.6 146.5 137.7 144.7 142.5 141.6 126.5 113.1 97 105.1 101.2 99.4 101.7 112.4 107 103.3 97.1 84.6 86.4 83.9 71.7 59.5 86.5 118 161.4 173.6 179.7 184.1 183.9 190.1 194 197.6 186.7 178.4 169 150.3 127.6 125.1 141.2 153.3 171.8 163.5 162.1 156.9 162.3 163.2 153.7 138.9 136.9 136.4 137.9 139.6 150.8 154.6 159.3 171.4 177.6 183.6 184.8 182.3 181.3 179.4 181.1 167.5 168.7 183.1 187 180.7 176.9 170.7 174 197.7 186.3 184 164.4 154 153.3 170.8 193.8 191.3 189.8 194.8 203.8 216.1 219.7 224.9 223.7 224.6 227.8 231.5 230.4 224.3 225.6 233.2 231.6 232.2 223.9 228.1 223.2 228.1 233.2 235.5 247.5 259.4 258.2 261 267.5 271.1 275.5 270.5 269.8 271.5 255 254.2 250.4 245 243.1 233.8 223.3 213.8 206.7 205.3 202.3 187.4 185.4 180.8 179.6 181.2 191 208.2 213.3 198.5 186.5 186.8 183.8 172.4
0.5 1.5 2.1 2.5 2.3 2.6 2.8 2.8 1.4 -1.4 -1.4 -1.4 -1.4 -1.4 -1.4 -1.4 -1.4 -1.4 -1.4 -1.4 -1.4 -1.4 -1.4 -1.4 2.3 4.5 3.1 2.4 1.8 1.2 1 -0.1 -1.4 1.3 3.2 3.4 3 3.6 2.3 2.8 3.3 5.2 6.2 7.1 9.3 13.7 20.2 24 36.4 46.6 62.9 84.7 102.4 110.4 112.6 111.6 121.8 134.3 136.8 143 148.1 159.7 164.3 165.8 162.3 157.8 152.5 150.7 154 149.1 143.5 126.8 129.3 141.8 134.6 132.6 128 119 126.2 113.7 115.3 114 110.6 105.2 101.1 96 77 104.8 142.5 171.7 192.7 195.9 209.6 213.5 202 197.6 199.1 198 187.5 177.5 168.6 143.6 130.2 146.1 153.3 165.3 167.7 171.5 176 168.1 157.5 142.3 139.1 137.1 136.8 137.9 140.2 146.5 162.3 181.1 179.9 186.9 193.2 192.4 188.6 191.9 194.8 184 175.8 185.7 191.3 196.5 198.8 201.5 188.7 193.5 195.5 194.1 179.9 167 156.1 170 186.4 193 197 201.7 210.2 218.6 230.4 235.9 243 228.5 231.2 234.5 231.3 229.6 239.1 244.7 250.9 253.4 242.5 238.5 240 251.7 253.2 253.6 251.2 262.7 266.1 269.2 275 277.3 275.1 277.5 277.3 264.1 257.9 256.4 255.9 249.8 243.6 230.4 218.6 211.4 207.4 207.3 203.9 191.1 179 177 177.2 177.4 181.6 197.2 193.7 178.1 174.1 178.1 180.3 170.7
-1.4 -1.4 -1.4 -1.4 1.8 2.3 2.3 -1.4 -1.4 -1.4 -1.4 -1.4 -1.4 -1.4 -1.4 -1.4 -1.4 -1.4 -1.4 -1.4 -1.4 -0.6 -0.2 0.4 2.2 3.9 1.4 0.6 0.7 0.3 0.1 -1 -1.4 -1.4 -1.4 1.3 1.3 1 0.8 1 1.6 2.3 4.5 6.5 9.8 17.1 21.8 30.1 34.4 39.3 52.5 62.2 84.2 91.2 103.4 116.7 121.1 124.5 128.5 140.3 151.1 161.8 163.1 163 163.4 163.2 155.4 150.6 147.7 155.5 149.4 144.3 147.8 158.8 153 153.7 155.7 148.1 134.6 128 125.6 122.9 128.2 135.2 123.4 122.2 116.5 99.4 109.8 149.7 172.9 197.2 220.1 225.6 217.1 213.1 215.3 210.6 201.3 197.5 186.6 172 145.9 136 147 153.4 166.6 170.2 176 174.4 161.4 153.2 143.2 138.1 137.9 138.2 139.4 142.5 154 183.6 195.1 192.6 202.6 204.1 201.5 202.4 198.9 197.6 193.5 186 199.1 206.8 209 211.9 209.6 203.8 198.5 198.4 193.5 181.6 178.7 183.1 185.2 193.8 201 210.5 221.2 230.2 235.4 244.1 252.7 244.7 233.8 236.8 233.6 234.6 247.3 253.4 257.7 261.7 252 255.7 259.5 262.4 266.1 259.5 258.5 263.1 270.6 276.7 281.7 277.9 284.9 286.2 283.9 265.9 260.1 259.8 259.8 253.2 244.9 227.5 220.9 210.6 204.6 201.9 199.8 190.5 180.8 171.3 170.1 171 176.4 177.5 180 170.6 170.9 177.1 176.2 167.7
-1.4 -1.4 -1.4 -1.4 -1.2 -1.4 -1.4 -1.4 -1.4 -1.4 -1.4 -1.4 -1.4 -1.4 -1.4 -1.4 -1.4 -1.4 -1.4 -1.4 -0.3 0.6 1 1.6 2.8 3.3 0.3 -1.4 -1.4 -0.6 -0.7 -1.4 -1.4 -1.4 -1.4 -0.9 -0.1 -0.5 -1.4 -1.4 0.2 0.9 2.1 6.4 15.7 20.3 33.1 44.8 53 56.3 55.9 53.8 63.6 86.2 103.5 111.4 119.7 127.1 129.8 131.4 142.2 152.4 150.4 151.1 151.6 152.2 151.6 154.5 146.4 147.4 148.7 152.9 166 165.6 165.4 172.2 169.9 166.2 161.9 152.7 152.6 153 156.6 153 147.2 140.1 142.1 140.3 125.2 117.1 157.2 202.3 212.7 221.7 222.6 215.5 214.4 210 208.7 216.4 205.9 184.1 167 157.8 150.2 151.1 160.5 176.8 181.7 178.2 172 158.9 150.8 143.7 142.7 140.1 140.4 145 150.7 166.5 190.3 205.3 205.2 208.4 208.1 208.7 208.2 208.6 210.5 200.2 205.3 218 221.2 224.4 223 216.4 216.8 202.7 200.7 199.7 192.6 196.6 194.1 199.3 205.3 219.8 229.2 236.7 239.2 249.1 258.8 258.9 244.8 239.1 239.3 243.8 262.1 269.1 266.9 260.8 253.9 261.7 270.3 268.4 267.4 265.5 266.8 267.8 271.2 281.3 288.4 294.4 292.8 292.3 274.7 259.6 259.4 264.3 259.9 257.7 247 234.9 221.4 210.3 201 196.8 196 193.3 178.2 168.6 166.8 164.7 165.2 165.3 162.6 160 167.2 172.5 175.6 170.5
-1.4 -1.4 -1.4 -1.4 -1.4 -1.4 -1.4 -1.4 -1.4 -1.4 -1.4 -1.4 -1.4 -1.4 -1.4 -1.4 -1.4 -1.4 -1.4 -0.9 0.4 1.8 2.1 2.3 1.7 1.5 -1.4 -1.4 -1.4 -1.4 -1.4 -1.4 -1.4 -1.4 -1.4 -1.4 -1.4 -1.4 -1.4 -1.4 -1.4 0.2 1.6 7 18.5 29.9 43.7 54.9 65.8 65.8 71.1 74.5 81.2 77.4 85.7 90.8 103 111.3 120.7 136.2 144.9 156.9 156.3 153 153.4 153.4 152.1 156.4 148.8 145.5 146 155.7 164.1 175.2 182 177.8 175 172.7 172.5 166.6 162.5 159.1 165.1 173.7 168.7 164.7 167.2 173.8 165.5 155.8 138 174 209.2 230 224.9 225.9 226.2 220.7 213.7 216.3 209.4 209.6 183.9 163.9 162.6 163.7 173.8 175.2 188.6 199.9 195.7 178.1 166.5 158.8 147 143.5 144.6 145.3 150.7 158.5 170.3 185.1 208.4 212.1 214.4 215.4 218.9 216.8 217.6 221.6 215 227.8 237.1 239 237.5 232 225.7 218 211.6 210.5 202.4 202 206.5 203.4 215.8 224.1 228.9 234.8 242.3 248.5 261.9 268.9 253.8 250.2 251.6 266.4 275.1 278.9 270.2 266.3 262.1 269.7 280.6 271.2 268.6 268.1 270.8 275.7 278.2 289.1 295 301.5 301.9 286 266.6 265.8 256.9 255.8 255.8 253.7 243.2 227.4 212.4 205.6 196.9 195 192.1 190.6 181.3 166 154.1 148.1 145.6 144.3 146.8 148.4 159.3 167.4 166.1 162.3
-1.4 -1.4 -1.4 -1.4 -1.4 -1.4 -1.4 -1.4 -1.4 -1.4 -1.4 -1.4 -1.4 -1.4 -1.4 -1.4 -1.4 -1.4 -1.4 0.5 2.3 4.6 4 2.3 -1.4 -1.4 -1.4 -1.4 -1.4 -1.4 -1.4 -1.4 -1.4 -1.4 -1.4 -1.4 -1.4 -1.4 -1.4 -1.4 -1.4 -1.4 1 2.9 16.3 34.5 39.2 46.3 62 69 79.7 84.5 90.4 93.3 94.8 94.9 111.8 127.6 134.8 151.7 150.2 157 158.1 160.1 157.1 154.3 154.1 154.6 148.7 147.7 154.7 152.9 167.5 179.4 182.2 180.5 176.6 175.3 184.4 174.1 178.6 167.2 162.8 174.2 179.3 185.9 186.1 191.2 199.2 192 194 175.2 192.1 220.4 221.8 234 230.3 229.1 217.2 215.2 215.9 212.8 196.3 186.3 171.9 185.1 185.9 180.3 182.4 204 205.6 210.5 186.8 167.5 160.3 151.9 150.1 147.3 148.1 157.2 163.5 170.7 186.7 212.6 224.8 225.4 227 228.1 229.1 243.7 243.3 240.2 250.1 253.9 252.7 250.8 242.8 233.7 230.7 221.5 213.9 214.5 216.1 204 221.3 225 233.4 236.7 244.6 252.9 273.4 272 263.4 262 273 276.8 285 269.5 269.4 270.3 266.2 271.6 285.3 275.2 268.8 269.9 275.6 279.3 292 294.9 299.2 302.6 299.7 299.4 291.2 281.4 266.3 261.4 259 251.2 238.6 225.7 219.3 211.7 200.7 193.1 191.2 190.3 185.9 168.8 115.5 119.6 115.7 121.4 125.8 132.7 146 147.3 141.3 141.8
-1.4 -1.4 -1.4 -1.4 -1.4 -1.4 -1.4 -1.4 -1.4 -1.4 -1.4 -1.4 -1.4 -1.4 -1.4 -1.4 -1.4 -1.4 0.8 3.2 3.8 4.1 5.3 4.1 -1.4 -1.4 -1.4 -1.4 -1.4 -1.4 -1.4 -1.4 -1.4 -1.4 -1.4 -1.4 -1.4 -1.4 -1.4 -1.4 -1.4 -1.4 0.2 7.4 14.6 29.1 22.8 21 29.4 44.7 56.9 72.5 81.8 102.8 123.3 136.1 138.3 139.8 142.6 144 148.7 158.2 169.4 172.6 164.4 162.8 159.7 154.4 152.2 153.5 157.9 158 165 177 184.5 183.1 177.8 179 180.7 177.4 184.2 176.7 170.5 168.4 186.6 203.3 209.1 213.3 220.9 207.1 206.9 210.9 211.6 210.5 218.8 226.7 230.2 232 233.4 220.2 223.8 214.5 215.1 202.8 188.2 184.8 211 205.6 184.2 195.2 206.3 205.1 201.4 168.5 162.9 160.4 161.2 158.8 155.5 156.9 158.7 170 178.4 197.1 211.8 210.6 224.8 237.2 248 255.9 258 260.8 255.8 257.2 261.6 261 251.4 248 240.3 235.3 230 220.6 221.4 219.1 221.4 225.4 232.5 244.7 248.8 254.7 277 275.5 278.4 285.6 282.2 275.6 271.3 271 271.7 268.7 267.5 277.8 283.5 273.6 270.8 275.2 274.4 281 286.8 291 295.4 297.5 299.9 309.3 300.1 292.8 273.8 266.7 255.6 243 235.2 229.7 219.7 212.2 204.9 197.3 191.7 193.9 190.3 169.4 130 76.9 91.6 101.2 106 116.7 124.2 122.6 122.3 122.5
-1.4 -1.4 -1.4 -1.4 -1.4 -1.4 -1.4 -1.4 -1.4 -1.4 -1.4 -1.4 -1.4 -1.4 -1.4 -1.4 -1.4 0.2 2.2 3.1 4.1 4.3 4.1 3.9 0.7 -1.4 -1.4 -1.4 -1.4 -1.4 -1.4 -1.4 -1.4 -1.4 -1.4 -1.4 -1.4 -1.4 -1.4 -1.4 -1.4 -1.4 -1.4 0.3 1.4 1.9 2.3 3.3 5.8 7.3 24.8 43.3 64.2 99.3 136.5 151.3 156.8 149.6 144.1 143.5 143.7 148.2 160.5 159.4 165.1 170.4 166 163.8 174.1 171.4 165.5 164.8 163 160.8 172.6 182.6 190.9 193 188.5 188 194.7 185.3 183.9 184.9 181.6 200.5 214.3 222.4 229.2 215.8 214.8 219.6 220.2 223.7 220.4 224.9 227.6 242 246.4 240.1 233.7 228.2 222.2 222.8 200 185.1 198.6 202.2 198.5 181.9 183.7 185.3 179.3 169.4 174.9 170.1 167.1 167.4 165.1 170.2 177.1 178.9 180.8 185.7 191.6 197.1 205.6 236.9 256.4 265.6 266.6 266.9 264.3 260.6 268 269 258.4 254 244.8 237.8 236.9 232.9 231.4 230.6 229.3 234.7 233.3 244 256.6 261.4 272 280.7 290.5 291 278.5 275.4 272.8 271.3 270.6 269.6 268.3 273 277.1 279.3 280.9 288.5 291 289.7 295.7 294.1 293.6 295.9 303.5 312 308.9 297.7 281.6 267.5 255.9 247.9 245.3 237.8 220.1 210.7 204.9 199.8 189.1 186 185.7 176.1 139.2 98.4 50.3 78.8 89.2 99.6 104.5 106.2 110.9 107.2
-1.4 -1.4 -1.4 -1.4 -1.4 -1.4 -1.4 -1.4 -1.4 -1.4 -1.4 -1.4 -1.4 -1.4 -1.4 -1.4 -1.4 2.1 2.3 2.9 4.3 4.6 3.8 -1.4 -1.4 -1.4 -1.4 -1.4 -1.4 -1.4 -1.4 -1.4 -1.4 -1.4 -1.4 -1.4 -1.4 -1.4 -1.4 -1.4 -1.4 -1.4 -1.4 -1.4 0 0.9 2 2.4 3.9 6.6 8.3 21.2 41 77.3 109.8 146.6 152.9 150.5 147.1 145.4 146.5 146.6 150.9 159.2 172.9 178.7 182.6 191.4 179.2 173.1 168.1 167.7 171.5 171.8 176.6 188.3 190 186.9 194.6 202.1 206.7 198.9 194.7 195.3 196.6 193.9 208.9 222.1 235.5 222.8 221.9 223.5 228.1 230.4 231.8 222 227 233.4 240.6 248.6 244.9 236.7 233.8 227.4 211.8 189.5 190.3 204.3 204 193 181.7 177.7 171.2 177.1 182.1 179.3 175.4 170.6 170.7 176.9 181.6 189.1 184.7 184 189.1 193.3 197 226.9 250.5 269.4 282.4 279.7 274.5 265.4 268 276.3 266.5 261.3 248.3 249.6 249.9 247.9 246.9 249.2 243.5 243.6 233.2 245.7 270.8 268.9 270.1 277.9 292.4 288.6 282.8 280 282.7 273.5 273.1 271.4 270.9 270.5 272.8 280.1 296.2 297.4 293.5 296.5 300.6 300.7 302 296.4 303 310.1 308 298.9 284.7 267.6 253.6 249.5 249.5 241.5 235.9 219.7 204.4 195.4 183.1 177.9 177.9 168.4 140.8 111.7 80.1 34.9 51.6 65.2 74.4 82.9 76.7 74.1
-1.4 -1.4 -1.4 -1.4 -1.4 -1.4 -1.4 -1.4 -1.4 -1.4 -1.4 -1.4 -1.4 -1.4 -1.4 -1.4 -1.4 -1.4 2.5 2.4 2.3 -1.4 -1.4 -1.4 -1.4 -1.4 -1.4 -1.4 -1.4 -1.4 -1.4 -1.4 -1.4 -1.4 -1.4 -1.4 -1.4 -1.4 -1.4 -1.4 -1.4 -1.4 -1.4 -1.4 -1.4 0.4 1.6 2.5 3.8 4.2 5.6 7.3 18.3 50.2 78.3 127.3 144.7 148.1 151.8 161.4 158 150.5 151.2 157.1 167.4 177.8 192.7 192 186.6 177.4 172.7 168.6 170.8 174.1 175.5 184.3 202.6 212 215.8 215 226.7 220.3 210.1 203.3 206.6 207.3 213.2 223.8 231.9 226.7 226.6 230.6 233.9 241.8 245.4 241 222.9 226 228.5 238.2 255.1 253 247.2 236.7 222 207 196.2 213.2 210 203.6 190 187.4 174.9 179.3 187.5 190.1 187 184.5 179.3 183.1 185.3 186.7 188.4 188.8 188.3 191.5 195.2 215.2 239.2 272.5 291.2 291.8 287.8 281.3 272.5 279 277.5 269.2 265.5 266.3 261.5 257 254.6 255.6 257 247.9 245.2 243.7 263.8 269.9 274.5 278.1 285.8 292.2 291.6 283.2 285.7 280.6 273.9 272.6 272.3 271.4 271.9 281.9 293.9 297.7 300.5 305.6 309.2 311.7 312.4 309.2 307.6 308.4 308.6 301.8 280.8 271.5 255.1 247.4 243 243.9 240.3 227.8 212.2 192.6 182.4 171.2 163 148.4 129.3 114.1 89.2 58.1 18.8 26.3 40.8 32.2 31.9 16.4
-1.4 -1.4 -1.4 -1.4 -1.4 -1.4 -1.4 -1.4 -1.4 -1.4 -1.4 -1.4 -1.4 -1.4 -1.4 -1.4 -1.4 -1.4 -1.4 -1.4 -1.4 -1.4 -1.4 -1.4 -1.4 -1.4 -1.4 -1.4 -1.4 -1.4 -1.4 -1.4 -1.4 -1.4 -1.4 -1.4 -1.4 -1.4 -1.4 -1.4 -1.4 -1.4 -1.4 -1.4 -1.4 0 1.1 2.2 3.2 4 5.7 5.2 8.8 28.6 60.8 94.5 120.3 132.6 144.8 158.7 159.7 159.6 163.4 157.3 159 163.1 175.1 185.9 184.9 175.4 166.1 166.1 167.6 174.3 172.9 169.8 196.6 220.8 226 228.4 233.8 241.2 236.3 221.6 222.3 227 225.6 220.8 230.4 231.3 231.1 238.9 247.3 254.8 257.9 251.9 241.3 225.6 227.4 235 250.8 259.2 252.5 248 228.7 230.3 218.5 213.5 222.8 214 203 197.4 195.6 196.3 191.1 192.7 192.5 191.9 185.2 185.9 186.3 188.2 191.2 191.1 191.2 195.4 200.6 214.3 232.4 258.5 284.7 295.4 298.7 296.4 281.9 278.8 284.8 272.9 274.5 280.6 270.1 270.2 263.4 265 274.9 252.6 250.1 246.5 258 261.9 272.1 280.4 284.8 291.2 294.1 286.5 286.7 288.8 279.5 272 271.8 271.7 274.8 281.6 289.6 296.9 302.6 312 318.1 318.6 319.1 313.5 315.9 316.5 310 292.5 281 268 256.3 243.4 237.8 236.2 239.6 230.1 207.6 189.3 175.6 165 151.7 138.5 131.7 116.9 88.4 48.7 13.8 -1.4 -1.4 7.8 4.8 -1.4
-1.4 -1.4 -1.4 -1.4 -1.4 -1.4 -1.4 -1.4 -1.4 -1.4 -1.4 -1.4 -1.4 -1.4 -1.4 -1.4 -1.4 -1.4 -1.4 -1.4 -1.4 -1.4 -1.4 -1.4 -1.4 -1.4 -1.4 -1.4 -1.4 -1.4 -1.4 -1.4 -1.4 -1.4 -1.4 -1.4 -1.4 -1.4 -1.4 -1.4 -1.4 -1.4 -1.4 -1.4 -1.4 -0.4 0.8 1.9 2.5 3.8 5.3 5.7 8.3 11.2 33.9 67.4 92.8 113.9 130.2 150.1 154.6 150.4 157.7 156.4 158 151.6 162.9 168.6 169.9 166.8 166 168.5 170.5 169.5 170.2 170.6 176.8 197 213.9 232.5 241.4 248.7 241.5 238.5 231.2 234.1 238.4 238.8 236.4 234.5 242.9 256.2 265 269.5 263.9 256 251.1 242.2 232.2 231.9 250.5 259.7 252.2 250.9 248.7 245.5 240.1 224.2 227.5 229.4 218.9 211.4 209.5 214.5 209.2 193 194.4 192.9 192.8 186.8 185.9 188.5 192 194.3 200.5 200.8 199.6 207.6 227.2 249.4 264.9 286 298.6 299.5 290.3 283.8 282.8 284.6 277.9 284.8 281.9 280 275.9 277.4 270.1 254.2 251.2 253.9 255.5 265.4 270.5 286.5 291.2 290.2 292 289.9 285.4 280.5 273.6 272.4 271.8 273.1 276.1 284.2 289.4 296.6 310.9 321.2 323.7 324.1 321 322.2 320 315.9 297.5 286.6 280.5 273.9 258.3 251.4 244.1 232 228.4 217.2 200.4 187.1 171.2 159.3 146.9 139.5 120.6 108.2 90.2 45.3 12.5 -1.4 -1.4 -1.4 -1.4 -1.4
-1.4 -1.4 -1.4 -1.4 -1.4 -1.4 -1.4 -1.4 -1.4 -1.4 -1.4 -1.4 -1.4 -1.4 -1.4 -1.4 -1.4 -1.4 -1.4 -1.4 -1.4 -1.4 -1.4 -1.4 -1.4 -1.4 -1.4 -1.4 -1.4 -1.4 -1.4 -1.4 -1.4 -1.4 -1.4 -1.4 -1.4 -1.4 -1.4 -1.4 -1.4 -1.4 -1.4 -1.4 -1.4 -1.4 -0.4 0.7 3 5.4 4.9 6.2 7.7 8.2 17.2 44.8 77.1 100.2 111.4 125.5 130.6 132.8 133 137.4 147 151.5 142.5 151 168.2 161.6 162.7 168 175.5 164.3 166.7 171.8 178.7 183.6 195.8 213 240.5 246.4 242.4 229.2 226.8 236 245.1 248.2 247.1 244.9 248.6 274.2 282.9 285.9 281.9 273.4 266.2 255.6 247.5 250.8 244.9 262.5 265.5 264.7 265.5 262.1 253.7 237.5 237.5 247.8 231.4 224.4 218.4 216.4 210.7 207.8 194.3 193.1 191.4 186.2 183.5 184.8 189.3 202.7 203.4 203 201.8 203.8 232.9 247.9 259.1 288 304.2 306.3 295.9 290.3 288.4 292.5 290.2 288.7 294.6 290.5 283.6 273.2 265.6 257.1 255.8 260.8 263.9 267.1 272.5 283.9 292.8 290.8 291.3 296.6 289.9 281 276.7 275.3 276.3 276 282.2 288.8 290.9 297.8 315.4 328.3 329.1 331.3 326.7 323.2 317.4 305.8 291.8 285.4 279.7 274.2 267.4 255.1 244.2 232.2 222.1 211.1 193.3 183 164.7 159 140.5 133.2 117 99.5 94.2 68 -1.4 -1.4 -1.4 -1.4 -1.4 -1.4
-1.4 -1.4 -1.4 -1.4 -1.4 -1.4 -1.4 -1.4 -1.4 -1.4 -1.4 -1.4 -1.4 -1.4 -1.4 -1.4 -1.4 -1.4 -1.4 -1.4 -1.4 -1.4 -1.4 -1.4 -1.4 -1.4 -1.4 -1.4 -1.4 -1.4 -1.4 -1.4 -1.4 -1.4 -1.4 -1.4 -1.4 -1.4 -1.4 -1.4 -1.4 -1.4 -1.4 -1.4 -1.4 -1.4 -1.4 -1.3 1.9 4.7 4.1 7.6 7.8 8.6 9.7 35.8 59.4 77.5 88.8 96.8 108.9 111.8 109.7 113.7 122.7 130.5 133.7 135.3 132 134.1 146 155.6 157.3 155.3 164.7 171.4 183.3 190.1 189.6 199.6 210.1 215.5 214.5 218 225 238.8 251 255.5 251.4 251.4 257.8 282.2 294.7 302.8 298.7 286.4 274.3 267.4 264.1 270.7 276.9 269.8 273.9 279.9 278.5 279.2 264 252 240.1 253 242.5 232.9 225.7 225.9 207 206 203.3 194.8 186.6 183.1 181.4 181.9 182.5 197.3 200 201.7 201.8 202 218 250 257.9 277.2 307.2 312.8 301.6 299.1 294.7 290.9 290.2 290.3 292.1 293.4 278.3 274.8 269.9 267.5 265 268.1 272.2 273.7 273.5 283.1 288.7 288.1 287.2 298.4 292.4 284.9 282.9 285.3 283.3 282.9 286.4 289 291.1 303.3 318.4 332.2 332.4 332.2 326.4 318.9 309.1 297.1 290 286.5 286.9 282.5 274.1 261 249 232.5 216.9 206.6 186.5 173 168.8 163.1 149.5 138.8 118.3 105 41.1 -1.4 -1.4 -1.4 -1.4 -1.4 -1.4 -1.4
-1.4 -1.4 -1.4 -1.4 -1.4 -1.4 -1.4 -1.4 -1.4 -1.4 -1.4 -1.4 -1.4 -1.4 -1.4 -1.4 -1.4 -1.4 -1.4 -1.4 -1.4 -1.4 -1.4 -1.4 -1.4 -1.4 -1.4 -1.4 -1.4 -1.4 -1.4 -1.4 -1.4 -1.4 -1.4 -1.4 -1.4 -1.4 -1.4 -1.4 -1.4 -1.4 -1.4 -1.4 -1.4 -0.8 -0.2 0.7 2.4 2.7 3.2 8.6 7.3 9.3 9.1 32.9 48.6 62.8 68.8 78.5 92.2 102.4 95.6 97.4 105.3 115.1 131.2 131.2 121.8 96.6 103.2 130 147.7 148.1 161.6 164.7 165.3 176.7 182.6 187.4 195.8 198.8 207.7 214.4 221.3 236.1 245.1 257.3 255.7 263.1 273 277.2 280.9 293.1 296 289.6 283.6 278.2 275.9 292.7 292.6 284.5 283.5 287.1 290.8 283.6 281.9 267.1 247.9 248.6 247.7 240.9 227.5 224.9 217.6 203.7 201.4 195.3 186.3 178.6 174.8 177.8 180 182.7 187.4 197.1 203.6 204.8 208.5 236.7 261.8 276.1 294.6 310.6 305.1 304.4 299 295.4 290.1 289.4 288.5 284.4 281 278.2 280.2 277.5 273.2 272.5 278.4 282.6 279.9 283.3 286.8 288.8 285.8 291.9 293.4 290.6 290.3 289.8 289 290.4 289.7 289.9 293.3 301 319.5 325.7 332.7 329.6 322.5 310.9 300.2 294.6 289.7 292.8 295.3 286.7 272.7 261.9 251.5 235.3 223.5 205.2 186.9 171.9 168.9 169.1 158.4 133.1 120.8 32.4 -1.4 -1.4 -1.4 -1.4 -1.4 -1.4 -1.4 -1.4
-1.4 -1.4 -1.4 -1.4 -1.4 -1.4 -1.4 -1.4 -1.4 -1.4 -1.4 -1.4 -1.4 -1.4 -1.4 -1.4 -1.4 -1.4 -1.4 -1.4 -1.4 -1.4 -1.4 -1.4 -1.4 -1.4 -1.4 -1.4 -1.4 -1.4 -1.4 -1.4 -1.4 -1.4 -1.4 -1.4 -1.4 -1.4 -1.4 -1.4 -1.4 -1.4 -1.4 -1.4 -1.4 0.1 0.9 2 3.3 2.6 3.4 4.9 6.5 8 8 15.4 23 32.4 40 43.4 57.8 67.1 61.8 70.3 79.2 90 100.2 99.5 91.5 79.8 75.7 94.7 119.4 144.4 153.6 158.3 171.9 175 177.9 178.4 180.7 194.4 201.7 205.3 215.6 226.3 248.8 261 262.1 262.2 274.7 279.6 290.9 279.9 286.4 291.2 287.1 283.5 289.1 311.3 308.9 297.2 285.7 288.4 289.9 288.6 291 281.9 267 246.5 245.1 253.9 237.4 224.7 220 209.5 201.4 192.5 185.7 172.1 162 165.3 172.2 177.9 185.2 195.4 202 203 211.8 248.7 263.6 281.2 290.1 299.5 306.9 309.4 308.6 310.1 304.9 290.9 291.8 291.5 283.8 288.5 287.6 284.8 283.6 276.2 275.3 284.8 277.9 278.5 283.7 286.2 285.4 295 295.3 298.7 296.1 293.8 293.6 295.2 295 294.2 296.4 303.4 313.8 321.3 324.6 323.8 316.7 304 299.8 296.5 298.8 298 295.4 286.3 274.1 265 252.9 241 218.6 201.7 184.8 180.8 180.9 173 159.9 125 67.3 12.5 -1.4 -1.4 -1.4 -1.4 -1.4 -1.4 -1.4 -1.4
-1.4 -1.4 -1.4 -1.4 -1.4 -1.4 -1.4 -1.4 -1.4 -1.4 -1.4 -1.4 -1.4 -1.4 -1.4 -1.4 -1.4 -1.4 -1.4 -1.4 -1.4 -1.4 -1.4 -1.4 -1.4 -1.4 -1.4 -1.4 -1.4 -1.4 -1.4 -1.4 -1.4 -1.4 -1.4 -1.4 -1.4 -1.4 -1.4 -1.4 -1.4 -1.4 -1.4 -1.4 -0.6 1.2 1.9 2.3 3.1 6.2 4.7 5.8 7 7.8 9 11.8 14.1 14.7 18.2 21.3 32.1 36.1 47.2 49.6 56.7 59.9 71.2 73.3 66.1 81.8 98.5 94.2 99.3 154.9 158.8 163.9 171.4 180.8 182.1 179.4 182.6 186.1 191.2 197.7 204.7 225.4 245.4 262.6 267.3 272.5 273.5 282.1 296.3 304 298.3 297.8 298.1 294.3 295.8 308 319.2 305.4 293.2 286.6 289.4 287.2 285.7 286.3 276.4 261 243.1 244.2 241.2 231.8 217.3 209 201.6 194.9 179.9 163.9 156.5 161.4 171.7 175.8 188 195.6 208.4 219.4 245.3 253.1 265.3 284.3 304.7 302.9 305.1 308.7 310.8 312.3 308.3 295.4 291.7 292.1 288.8 288.7 293.8 293.5 286.8 282.4 274.2 275.2 270.7 272.2 280.5 284.3 283.6 293.4 298.4 299.9 298.4 296 298.1 302.3 307.1 303.5 299.1 308.8 320.8 333.8 333 326.5 314.5 305.2 302.8 307.7 301.8 299.4 295.1 284.7 275.3 267.2 254.4 240.1 222.9 202.9 200.4 198.3 191.5 180.1 147.6 116.5 31 -1.4 -1.4 -1.4 -1.4 -1.4 -1.4 -1.4 -1.4 -1.4
-1.4 -1.4 -1.4 -1.4 -1.4 -1.4 -1.4 -1.4 -1.4 -1.4 -1.4 -1.4 -1.4 -1.4 -1.4 -1.4 -1.4 -1.4 -1.4 -1.4 -1.4 -1.4 -1.4 -1.4 -1.4 -1.4 -1.4 -1.4 -1.4 -1.4 -1.4 -1.4 -1.4 -1.4 -1.4 -1.4 -1.4 -1.4 -1.4 -1.4 -1.4 -1.4 -1.4 -1.4 4.4 2.3 2.3 2.4 4.2 10.3 6 8.7 11 8.1 8.8 11.1 11.3 12.6 14.4 16.8 18.2 18.2 21.6 28.1 35.4 40.2 45.9 60.5 84.5 108.6 146.1 146.1 118 133.8 161.2 163.8 170.8 177.9 183.6 184.1 186.7 191.9 193.7 198.1 216.2 227.7 239.4 253.7 270.1 279.6 282.3 287.1 301.4 314.5 326 312.2 307.7 312.3 307.3 311.2 311.5 304.6 300.5 307.4 300.5 300.9 294 288 282.3 273.1 242.3 237.8 239.2 225.1 218.5 200.7 196.5 186 171.7 160.9 152.8 155.7 169.7 179.2 185.4 196.7 218.4 237.2 250.9 258.1 267.5 284.4 298.5 311 306.9 306.6 305.1 307.5 309 301.6 295.1 290.7 288.8 289.1 297.5 297 286.8 282.8 274.2 266.2 262.4 264.4 271.9 276.2 272.8 280.2 297.6 301.9 297.7 297.1 296.6 301.3 307.9 311.4 311.7 323.7 330.6 337.7 333.8 321.3 313.9 311.3 309.9 304.3 302.5 292.3 285.8 280.8 276.4 263.9 251.5 232.1 217.3 214.3 214.9 207.3 192 164.8 135.6 55 16.2 -1.4 -1.4 -1.4 -1.4 -1.4 -1.4 -1.4 -1.4 -1.4
-1.4 -1.4 -1.4 -1.4 -1.4 -1.4 -1.4 -1.4 -1.4 -1.4 -1.4 -1.4 -1.4 -1.4 -1.4 -1.4 -1.4 -1.4 -1.4 -1.4 -1.4 -1.4 -1.4 -1.4 -1.4 -1.4 -1.4 -1.4 -1.4 -1.4 -1.4 -1.4 -1.4 -1.4 -1.4 -1.4 -1.4 -1.4 -1.4 -1.4 -1.4 -1.4 -1.4 -1.4 -1.4 5.7 5.7 4.3 8.7 6.5 6.9 9 12 7.8 9.4 10.4 11.6 13.5 16.2 16.4 17.5 20.5 28.1 32.8 37.4 44 57.4 79.2 106.5 145.6 171.3 169.9 164.2 134.6 167.1 172.7 176.9 180 189.1 195.1 200.5 208 211 216.3 210.4 229.9 243.3 256.9 276.3 283.9 286.2 293.5 303.2 315.7 336.9 330.5 322 321.8 329 322 319.9 317.4 316.5 317 315 305.8 307.6 297.7 291.2 281.8 257.4 227.6 224.8 214.6 207 199.6 184.4 174 169 160.2 151.5 157.6 165.9 177.2 189.9 198.1 225.6 245.4 255.7 264.3 269.8 290.4 302.4 306.3 309.2 307.2 306.5 305.7 308 308.9 303.5 295.6 293.2 294.3 295.7 292 288 283.2 275.7 270.7 257.8 259.3 261 261.1 258.2 263.1 271.4 282.9 294.4 294.2 295.7 302.2 310.4 318.3 322.4 326.7 331.5 326.2 322.2 314.5 314.6 310.9 303 299.9 296.1 286.2 277.8 275.9 269.5 254.5 241.4 227.2 228.9 221 213.1 202.1 171 127.7 65.2 22.4 6.2 -1.4 -1.4 -1.4 -1.4 -1.4 -1.4 -1.4 -1.4 -1.4
-1.4 -1.4 -1.4 -1.4 -1.4 -1.4 -1.4 -1.4 -1.4 -1.4 -1.4 -1.4 -1.4 -1.4 -1.4 -1.4 -1.4 -1.4 -1.4 -1.4 -1.4 -1.4 -1.4 -1.4 -1.4 -1.4 -1.4 -1.4 -1.4 -1.4 -1.4 -1.4 -1.4 -1.4 -1.4 -1.4 -1.4 -1.4 -1.4 -1.4 -1.4 -1.4 -1.4 -1.4 -1.4 -1.4 4.6 3.4 4.8 4.1 6.4 8.8 11.5 9.2 9.4 10.8 12.7 15.4 17.6 18 21.2 24.2 28.1 32.9 39.8 64.3 79 100.3 136.3 174.5 184.3 179.9 180.7 182.5 170.8 176.2 186.4 188.3 194.4 209.5 218.6 231.1 240.4 240.8 239.9 239.2 261.6 276.4 292.1 300.8 309 311.9 313 309.6 317.8 334.6 336.1 330.9 330.3 324.6 323.3 326.6 335.3 337.9 332.4 317.1 298.5 297.6 297.1 288.7 265.9 232 206.7 201.3 196.6 185.6 180.6 176.5 168 154.3 149.9 152.7 162 174 185 197.1 211.4 236.5 260.3 266.6 278.2 295.4 304.2 304.6 303.9 307 305.3 307.1 307.6 314.6 311.9 303.9 306.1 300.9 296.3 291.2 289.6 289.8 283.9 272 263.4 251.6 249.5 248.7 251.4 253.7 262.1 265.7 280.8 297.1 301.4 303.7 313 326.1 331.1 329 326.3 316.3 309.6 309.1 308.1 307.7 300.3 288.1 284.3 277.5 262.4 257.2 249.6 239.7 231.9 232.2 231.8 221.5 206.4 187.3 117 61.6 26.8 6.5 -1.4 -1.4 -1.4 -1.4 -1.4 -1.4 -1.4 -1.4 -1.4 -1.4
-1.4 -1.4 -1.4 -1.4 -1.4 -1.4 -1.4 -1.4 -1.4 -1.4 -1.4 -1.4 -1.4 -1.4 -1.4 -1.4 -1.4 -1.4 -1.4 -1.4 -1.4 -1.4 -1.4 -1.4 -1.4 -1.4 -1.4 -1.4 -1.4 -1.4 -1.4 -1.4 -1.4 -1.4 -1.4 -1.4 -1.4 -1.4 -1.4 -1.4 -1.4 -1.4 -1.4 -1.4 -1.4 -1.4 1.4 2.3 2.3 3 5.3 8.4 11.5 9.7 9.5 10.8 11.9 14.6 17.7 21.3 24.2 25.6 29.3 33.9 49.8 77.1 101.9 128.5 157.4 187.8 193.8 195.5 192.8 204.1 191.8 180 182.8 198.4 200.3 207.3 228.8 245.6 256.7 256.4 255 256.4 253.8 276.8 287.8 306.4 314.2 323.5 320.2 311.7 312.8 315.8 329.8 338.2 335.4 326.3 337.7 329.8 329.4 333.9 338 326.2 301.9 291.3 289.3 288.8 265.9 247.6 210.7 188.2 182.1 178.7 170.9 165.5 159.4 147.7 148.3 152.1 155.9 165.8 183.1 198.7 211.1 219.9 252.5 266.4 281.8 294.3 301.3 302.5 304.9 304.1 306.5 301.1 299.9 310.5 308.4 302.6 306.9 306 297.4 289.8 290.3 293.6 292.8 284 278.4 257.5 249 241.4 240.6 242.3 246 253.3 268.2 289.7 300.5 307.3 323.9 329.7 330.5 327.8 318.7 314.1 307.6 298.6 296.9 298 290.6 279.8 271.8 260.3 246.1 240.6 234.5 234.7 234.1 227.1 198.5 201.2 161.3 122.6 61.1 35.6 10 5.1 -1.4 -1.4 -1.4 -1.4 -1.4 -1.4 -1.4 -1.4 -1.4 -1.4
-1.4 -1.4 -1.4 -1.4 -1.4 -1.4 -1.4 -1.4 -1.4 -1.4 -1.4 -1.4 -1.4 -1.4 -1.4 -1.4 -1.4 -1.4 -1.4 -1.4 -1.4 -1.4 -1.4 -1.4 -1.4 -1.4 -1.4 -1.4 -1.4 -1.4 -1.4 -1.4 -1.4 -1.4 -1.4 -1.4 -1.4 -1.4 -1.4 -1.4 -1.4 -1.4 -1.4 -1.4 -1.4 -1.4 1.5 2.3 2.3 4.4 5.3 8.3 11.7 10.5 13.2 14.1 13.6 13.6 22.3 27.7 29.7 30 33.3 35.4 59.6 95.1 124.5 151.5 169.1 204.1 212.7 207.8 203.8 207.9 200.7 197.4 196 193.5 200.4 207.9 216.9 244.9 258.6 263.6 265.4 264.9 264 266.6 280 289.5 301.4 312.3 323.6 316.6 315.2 318 328.8 340.9 343.2 339 340.7 333.7 329.2 329.2 338.5 332.6 310.8 288.6 283.8 288.1 279.6 251.9 215.6 181.8 169.9 165.2 156.8 150.9 145.3 142.2 141.5 141.6 150.6 162.3 169.8 199.6 211.4 222.4 243.7 263.7 270.3 278.3 292 300.4 303.4 304.3 304.4 302.5 299.8 305.4 303.8 293.1 296.1 311 295.5 288 289.4 295.2 292 287 273.1 264.6 251.6 241.6 232.1 234.7 238 245.5 261.6 282.7 302.4 312.3 318.9 324.1 324.3 318.9 313.9 309.7 303.8 291.9 286.1 286 276 261.6 251.8 245.7 236.5 234.3 233.5 232.5 214.9 200.3 141 99.2 77.4 53 25 8.3 4.5 -1.4 -1.4 -1.4 -1.4 -1.4 -1.4 -1.4 -1.4 -1.4 -1.4 -1.4
-1.4 -1.4 -1.4 -1.4 -1.4 -1.4 -1.4 -1.4 -1.4 -1.4 -1.4 -1.4 -1.4 -1.4 -1.4 -1.4 -1.4 -1.4 -1.4 -1.4 -1.4 -1.4 -1.4 -1.4 -1.4 -1.4 -1.4 -1.4 -1.4 -1.4 -1.4 -1.4 -1.4 -1.4 -1.4 -1.4 -1.4 -1.4 -1.4 -1.4 -1.4 -1.4 -1.4 -1.4 -1.4 -1.4 2.4 2.3 3.8 4.3 6.3 8.9 11 14.7 16.3 17.1 16.8 21.3 25.6 31.1 34.5 35.5 40.2 49.2 72.8 108.5 140.7 165.4 192.4 206.4 220 218 212 215.2 214.7 209.9 205 215.5 212 225.1 237.1 241.2 259.4 267 272.2 269.7 271.5 269.9 275.1 280.4 293.1 305.5 311.3 314.3 314 318.9 341 350.3 350 346.7 344.8 338.9 333.2 331.1 336 330.7 313.3 290.1 281.1 285.4 278.4 251 216 183.7 159.5 149.8 151 144.6 143.2 141.1 140.6 142.6 143.9 147.7 163.5 180.8 206.5 218.4 230.2 247.9 260.8 271.7 279.8 288.8 302.1 302.6 301.1 299.6 299.8 299.3 296.7 297.9 291.3 298.6 294.7 286.4 286 296.4 285.7 278.5 272 267.2 256.9 247 241.2 228.9 229.2 243.9 254.3 277.4 300.1 303.8 311.8 315.5 316.4 308.5 304.1 299.6 296.6 288.2 275.6 264.2 253.4 238.3 228.5 238.5 238.5 228.5 216.9 181.5 163.5 139.3 97.2 60.4 36.1 15.7 5.6 4.3 -1.4 -1.4 -1.4 -1.4 -1.4 -1.4 -1.4 -1.4 -1.4 -1.4 -1.4 -1.4
