ncols 200
nrows 85
xllcorner 180000
yllcorner 751100
cellsize 50
155 150.6 150.6 150.6 150.6 150.6 150.6 150.6 151.3 151.2 153.5 154.4 156.9 159.4 164.5 170.7 170.8 170 173 179.1 180.2 182.7 190.9 203 215.3 224.9 234 232.8 239.3 242.6 248.4 255.9 259.6 268.2 274.4 284.4 293.5 302.7 317.7 321 325 330.2 340.4 343 348.1 357.8 365.5 373.3 368.4 366.7 366.3 364.7 367.2 369.6 373.9 376.5 374.5 373.3 375.5 378.1 380 376.7 374.7 366.5 362.3 352.5 346.6 337.3 320.2 305.6 287.3 278.9 268.3 259 251.9 247 240.2 240.3 234.2 239.5 244.8 251.2 259.7 273.4 286.5 295 301.1 308.9 324 338.4 348.2 361.8 373.1 392 406.6 421.1 435.8 447.4 458 467.5 477.3 488.8 498.6 505.4 511.8 520.2 531.1 541.4 546.3 541.7 533.8 505.4 473.8 446.8 417.2 397.4 389 383.6 373.5 360.5 340.3 326.3 312.9 305.4 278.6 238.9 193.1 162.5 138.1 122.3 108.7 94.3 81.7 68.2 62.2 53.3 47.7 44.5 40.4 41.6 44 51 66.6 83.9 102.6 125.6 146.9 171.1 198.3 231 262.6 297.9 330.1 372 417.9 451.8 474 491.3 510.4 521 534.3 538.9 545.1 537 531.8 505.4 459.7 422.8 384 345 316.3 291.5 255.3 247.7 253.2 252.1 255.5 254.2 240.4 226.2 214.1 189.6 177 165.2 139.9 97.7 63.8 19.8 9.1 4.5 -1.3 -1.3 -1.3 -1.3 -1.3 -1.3 -1.3 -1.3 -1.3 -1.3
167.8 161.9 150.6 150.6 150.6 150.6 150.6 150.6 150.6 150.6 154.1 156.6 157.5 159.3 164.1 166.2 163.9 169.7 170.1 168.8 173.1 176.8 186 198.3 215.8 228.5 228.4 228.6 233.8 235.7 245.4 253.7 259.4 264.9 274.1 288.8 296.1 298.2 304.2 314.9 321.8 327.2 330.2 333.7 340.6 351.4 356.1 354 348.8 352.1 356.1 353.8 358.7 362.8 365.5 365 365.3 361.9 362.2 361.1 362.8 362.3 357.9 353.5 348.5 344.2 329.9 316.2 301.6 289.9 277.4 266.7 258 249.4 241.9 238.6 235 230.7 237.7 243.5 246.1 253.5 264.1 280 285.7 294.5 301.1 312.9 327.3 332.5 344.6 361.8 376.1 390.4 403.6 415.1 426.6 438 451.6 463 470.6 479.3 488.5 496.5 504.9 510.4 518.1 531.2 539.8 549.5 547.6 528.4 499 473.4 450.9 429.4 419.4 408.9 399.1 388.6 377.4 365.3 351.7 314.8 267.8 228.9 190.4 159.3 134.3 114.8 103.4 93.2 79.9 66.4 59.9 49.6 44 42.6 40.7 40.3 41.3 51.2 68.8 87.2 107.1 129.8 150 174 202.4 235.3 268.6 302.9 337.4 376.1 413.7 454.4 480.4 498.2 521.1 530.1 534.1 539.9 540.2 530.9 514.2 489.2 438.7 401.2 370.1 334.4 307.2 285.7 262.4 224.3 206.2 211.9 208 214.7 213.1 201.2 185 174.7 170.8 152.3 118.5 76.2 32.3 9.9 6.3 0.9 -1.3 -1.3 -1.3 -1.3 -1.3 -1.3 -1.3 -1.3 -1.3 -1.3
184.9 175 162.9 150.6 150.6 150.6 150.6 150.6 150.6 150.6 155.6 159.1 160.4 157.9 164.7 165.1 163 169.2 166.7 164.2 166.8 173.3 181.1 192.9 203.9 214.8 221.5 223.6 226.3 230.1 236.4 247.5 259.5 267.4 271.5 285.6 295.8 292.8 295.2 305.6 312.1 322.2 320.5 322 325.3 330.1 330.2 328.1 325.5 329.2 338.6 344.7 348.3 349.9 347.1 351 350.5 345.1 344.1 345.6 349.4 348 342.5 339.1 332.1 324.5 316.6 298.8 286.8 275.3 265.3 259.2 247.5 239.9 238 234.3 232.2 229 232.5 239.3 247.7 253.8 269.9 280.6 286.3 293.5 301.5 315.5 321.9 335.3 345.1 358.3 374.7 387.2 399.7 411.4 422.2 431.6 441.1 455.7 463.7 472.1 479.5 487.8 496.8 503.2 512.1 527.2 532.6 534.5 539.9 527.4 500.1 477.2 458.3 447.4 440.7 428 412.3 400.2 387 371.7 347.9 302.8 259 220.5 184.7 154.3 127.2 108.3 96.5 89.3 77.3 68.5 55.1 49.2 43.2 36.5 34.6 36.8 42.5 52.8 74 89.1 110.4 131.1 152.4 176.4 204.5 238.9 271.7 304.7 341.8 378.3 418.7 451.7 483.2 503.9 520.4 534.6 537.7 537 531.3 520.1 493.4 457.6 417.8 383.3 352.9 330.7 305.6 284.7 262.2 238.8 208.1 164.9 168.5 169.8 175 171.8 162.3 158.9 136.9 116.7 86.7 54.9 12.5 7.3 2.3 -1.3 -1.3 -1.3 -1.3 -1.3 -1.3 -1.3 -1.3 -1.3 -1.3 -1.3
205.7 196 175.9 162.4 150.7 150.6 150.6 150.6 150.6 150.6 151.3 154 154.9 155.3 158.3 163.7 157.5 159.9 164 161.3 161.2 170.2 168.9 182.5 197.8 207.2 210.6 210.2 213.3 221.1 231.1 240.6 250.3 256.5 258.6 271.3 281.6 286.7 284.2 291 298.1 304.3 308.2 309.9 307.6 306 309.7 307.5 313.8 319.6 318.7 326 330.1 333.9 330.8 331.9 333 330.6 331.5 334.2 333.9 332 327.6 321.8 313 305 290.7 281.8 270.9 260.6 254.4 246.1 237.8 230.3 231.5 229.7 226.8 227.4 231.3 240.8 249.9 257.5 272.1 279.5 285.2 290.3 299.6 315.2 327.1 338.7 348.6 358.4 372.2 384.7 397 405.2 413.7 424.1 431 440.9 451.7 462.2 471.7 484.6 493.1 499.5 508.9 516.4 521.7 524 522.8 494.8 465.4 437.3 419.1 411.9 405.9 397.9 393.4 381 372.4 344.5 320.6 287.6 246.7 213.8 180.3 151.3 123.3 105.3 90 85.3 73.1 63.4 53.8 45.2 39 34.2 35.4 39.1 45.9 56.2 73.9 90.5 110.3 130.9 154 178.6 207.4 239 270.5 303.3 338.5 374.7 416.8 452 480.1 502.6 518.6 527.6 531.4 531.5 518 498.7 473.5 444.1 405.1 372.9 347.2 323.1 306.4 285.7 264.1 242.6 220 178.6 135.9 130.2 136 139.7 135.4 120 106.8 86 62.2 21 8.3 5.2 1.3 -1.3 -1.3 -1.3 -1.3 -1.3 -1.3 -1.3 -1.3 -1.3 -1.3 -1.3
215 209.1 192.9 179.8 166.3 150.6 150.6 150.6 150.6 150.6 150.6 150.6 150.6 150.9 154.7 159.3 158 156.2 154.6 156 154.1 158.1 162.6 175.2 183.5 192.7 199.5 207.4 206.4 209.9 221.3 230.4 238.8 242.1 245.7 252.8 264.2 269.8 276 277 282.3 285.3 286.9 288.7 287.1 287.6 292.2 297.1 307.4 311.1 308.3 302.5 308.9 315.7 318.8 315.6 317.5 316.7 320.2 320.6 322.2 319.6 316.2 309.7 300.7 289.3 272.3 263.5 257 251.3 243.6 235.1 232.3 223.7 223.7 219.1 222.2 230.2 237.7 247.7 248.8 256.4 267 275.7 282.9 293.6 308.2 311.5 322.7 336.7 348.7 357.8 368 378.4 392.4 402.1 407.3 415.3 424.1 432.3 438 449.2 456.4 466.1 479.6 487.3 495.9 505.6 512.9 513.3 509.2 478.5 446.3 411.2 383.6 368.7 362.7 355.9 354.5 348 344.8 325.7 307.8 267.2 234.3 206.6 179.3 149.1 120.4 99.7 84.8 80.8 69.4 60.1 51.1 43 35.8 34 34.5 38.7 44.2 57.8 78.5 91.5 112.3 130.7 156.2 175.7 206.8 232.4 267.2 294.6 331.7 369.5 410.2 449.8 478 501.4 515 527.4 528.3 517.8 503.4 477.4 452 424.8 394.6 363.9 344.2 324.8 307.1 287.2 264.4 229.2 194.3 166.2 135.3 111.8 95 107 106.5 87.9 82.8 66.7 34.9 9.8 5.7 2.4 -1.3 -1.3 -1.3 -1.3 -1.3 -1.3 -1.3 -1.3 -1.3 -1.3 -1.3 -1.3
222 216.3 210.3 195.2 180.4 164.5 150.6 150.6 150.6 150.6 150.6 150.6 150.6 150.6 150.9 155.5 155.1 154.3 153.3 152.3 150.5 152.4 156.7 165.9 173.2 182 185.3 188.5 193.3 198.7 208.7 217.6 224.1 226.6 229.4 235.7 242.7 249.8 253.3 253.8 259.1 262.4 262 264.9 267.7 273 280.3 288.5 292.9 294.5 293.7 293.1 293.6 299.1 305.8 303.7 304.7 307.8 306.7 309.6 308.1 308 306.4 296.9 286 270.1 258.1 249 245.9 240.7 233.1 225.2 221.9 216 220.8 215.5 224.9 230.8 238.3 246.4 257.1 267.9 271.9 282.5 291.7 297.9 307 317.9 322.6 336.8 348.2 358.3 366.7 376.3 385.2 395.4 407.3 412.4 416.4 424.4 430.6 436.8 444.8 454.2 466.2 476.1 485.9 495.1 504.3 504.9 497.4 461.7 428.2 399.4 372.2 342.4 328.3 321 319.8 312.1 306.2 291 271.7 252.2 222.9 196.6 170.7 141.6 117.7 96 81.2 72.5 62.9 54.4 44.8 36.5 33.6 31.1 33.7 38.1 45.7 58.5 77.1 93.7 114.1 135.1 157 181.5 211.3 240.8 271.8 303.9 339.7 378.6 418 456.2 481 493.1 508.3 518.2 523.1 512.7 495.9 470.1 434.1 408.7 381.6 363.6 346.4 332.2 314.8 297.9 272.2 251.1 229.8 194.8 164.1 137 108.1 72.7 69.1 61 60 43.1 13.3 8.8 4.2 -1.3 -1.3 -1.3 -1.3 -1.3 -1.3 -1.3 -1.3 -1.3 -1.3 -1.3 -1.3 -1.3
230 220.2 216.3 206.8 193.6 177.6 162.1 150.6 150.6 150.6 150.6 150.6 150.6 150.6 150.6 150.6 150.6 153.8 154.8 157.7 154.5 146.9 145.7 150.8 162.8 172.4 175.7 177.4 180.1 187.5 197.1 206.7 210.8 214.5 213.6 213 224 229.6 232.6 231.5 234.9 236.6 243 249.8 254.4 258.1 266.4 273.8 274.7 273 275.2 275.4 277.7 284 286 291.8 292.9 300.9 298.8 299.6 299.1 297.1 288.7 277.6 269.6 257.8 246 238.1 230.8 230.2 221.6 215.9 212.8 209 209.5 214 223 232.9 241.9 251.2 262.8 273.8 281.3 290 296.6 307.1 315.8 325.8 335 344.9 353.9 361.8 371.2 378.4 384.4 388.6 396.8 406.3 412.1 417.7 426.7 432.2 436.1 444.8 456.6 468.2 476.9 482 486.8 486.7 475.6 439.4 411.2 377.8 354.2 331.5 314.8 301.4 292.3 286.2 276.5 263.8 248.2 229.8 213.2 189.2 161.9 141.6 118.6 94 77 64.8 57.4 46.3 39.1 33.2 30.8 30.4 33.3 38.4 46.7 60.4 77.6 93.2 112.5 132 155.3 183.4 212.2 241.1 274.9 310.3 352.8 390.3 426.6 456.7 480.4 494.5 503.9 513.7 516.6 508.7 491.2 468.3 437 404.7 383 365.6 343.3 331.7 316.1 306.5 301.8 284.9 249 224 191.3 157.3 121.4 89.1 64 41.1 35.2 21.6 11.8 5.7 2.1 -1.3 -1.3 -1.3 -1.3 -1.3 -1.3 -1.3 -1.3 -1.3 -1.3 -1.3 -1.3 -1.3
232.6 225.3 217.3 210.1 199.4 186.6 174.2 163.6 153.3 153.2 150.6 150.6 150.6 150.6 150.6 150.6 151.1 152.3 156 159.6 160.2 158.7 151.6 143.2 147.1 155.2 164 165 171.1 180.9 191.3 196.3 197.6 196.4 196.4 196.5 197.7 204.3 207.1 210.3 211.4 217.8 223.1 231.6 234.8 239.8 243.7 248.4 253.6 260.1 260.5 259.5 262 265.2 269.5 275.6 283.6 286.8 288.4 288.2 286.8 282.7 274.1 265.3 251.8 245.2 230.7 228.1 225.1 218.7 212.9 206.9 204.8 202.6 210.2 218.9 227.6 238.6 249.8 263.3 275 284.3 290.8 298.2 305.8 314.4 321.7 332.3 340.8 351.5 361 371.5 378.8 385.9 396.9 402.1 408.6 413.9 418.5 424.1 428.7 434.8 438.4 444.9 454.4 459.2 465.7 468.9 467.7 461.8 449.8 419.4 385.3 354.7 331 310.1 294.7 281.1 272.8 265.3 259.3 248.6 235.1 221.3 206.1 187.3 161.4 137.5 114.8 91.6 71.8 56.7 47.5 39.1 33.7 29.7 29.7 29.3 31.1 34.6 45 62.9 79.6 96.4 114.5 133.5 155.3 183.6 214 241.7 274.7 313 353 391.9 426 452.4 478 490.6 504.9 518.9 521.4 506.8 489.8 475.4 450.4 421.1 389.4 369 350.8 339.2 327.6 319.8 304.6 284.2 267.6 235.1 191.7 148.7 110.6 77.9 53.6 36.8 25.1 15.9 9.6 2.8 -1.3 -1.3 -1.3 -1.3 -1.3 -1.3 -1.3 -1.3 -1.3 -1.3 -1.3 -1.3 -1.3 -1.3
221.1 218.6 216.9 210.8 203.4 192.5 186.9 173.9 164.4 160.2 151.2 150.6 150.6 150.6 150.6 150.6 150.6 155.1 161.5 168.7 170.4 165.7 160.9 152.4 134.6 141.8 138.3 152.4 158.5 167.3 172 176.7 178.4 176.8 176.2 176.3 183.2 184.9 193 192.3 192.9 198.2 206.2 215.1 219.5 225.3 229.1 232.9 241.8 246.9 246.2 244.3 247.8 254.5 259.8 264.4 266.1 268.6 270.7 268.9 272.1 270.8 256.9 248.6 241.7 229.1 219 213.4 213.3 211.8 202.9 200.7 199.4 206.6 214.9 224 235.9 248.5 259.9 271.7 283.3 291.7 300.3 307.1 312.2 320.3 328.5 333.7 344.9 355.8 367.3 381.3 388.5 397.9 405.5 413.7 420.8 426.5 431.5 437.5 443 448.1 451.8 459.8 462.1 463.4 461.2 459 451.5 438.5 421.8 400 366.8 341.5 318 297.1 282.1 266.1 259.4 251.8 244.3 237.3 227.2 213.8 200.7 181 160.9 136.9 113.3 86.9 65.1 51.4 41.4 33.3 29.4 28.7 28.5 28.2 30.7 34.8 44.6 61.6 80.3 99.8 118.5 135.9 157 181.5 206.9 238.3 273.2 311.5 350.2 385.1 425.8 454.3 477.3 492.1 508.3 527 525.2 512.4 489.1 472.6 459.1 442.9 413.6 389.2 376.5 363.8 349.3 332.5 316.4 290.7 241.8 217.3 168.7 131.9 82.9 53.9 27.1 17.6 13.3 8 3.2 -1.3 -1.3 -1.3 -1.3 -1.3 -1.3 -1.3 -1.3 -1.3 -1.3 -1.3 -1.3 -1.3 -1.3 -1.3
220.7 220.3 218.1 212.2 207.7 206 195 185.9 175.8 167.2 166.3 156.8 150.6 150.6 150.6 150.6 150.6 152.3 154.4 167.8 174.5 170 161.8 153.7 145.8 130.8 132.5 142.7 151.7 153.5 155.5 153.9 160.9 161.4 162.3 166.3 172.7 171.1 170.7 174.6 180.5 184.6 192.9 200.1 205.1 210.5 215.5 220.5 222.1 230.7 231.5 231 238.5 241.7 247 251.2 253.6 251.9 252.6 254.1 252.7 250.7 240 233.7 225.9 214.8 211.7 204.8 202.1 198.2 196.4 193.5 199.1 207.5 219.4 230.4 244.6 254.5 267.2 280.9 290.4 298.4 304.8 313.5 319.8 324.2 332.8 340.6 350.9 363.2 376.3 387.4 397.7 407.1 415.1 423.6 431.9 438.8 446.6 454.1 462.4 470.8 475.3 485.8 485 477.6 469.4 463.8 449.1 431.2 409.7 390 365.3 347.4 322.1 299 280.6 264.5 247.7 242.1 232.6 227.6 221.5 211.7 195.9 179 158.8 137.8 109.1 83.7 64.3 48.5 36.1 27.6 27.2 27.5 26.4 26.8 29.5 37.8 48.7 63.2 83.5 100.8 118.5 136.6 157.4 178.5 207.6 236.1 268.4 303.7 343.5 381.3 422.9 453.1 475.3 491.5 513.4 532.4 530.5 513.3 492.9 476.2 468.1 455.5 435.8 412.1 389.9 377.1 363.1 334.4 308.8 281.4 237.5 185.5 157 111.6 65.4 26 11 8.6 5.8 2.3 -1.3 -1.3 -1.3 -1.3 -1.3 -1.3 -1.3 -1.3 -1.3 -1.3 -1.3 -1.3 -1.3 -1.3 -1.3 -1.3
222 220.6 219.6 219.6 219.5 216.5 206.3 195.5 187.6 178.5 179.9 181.4 170.7 150.6 150.6 150.6 150.6 150.6 153.8 159.1 168.9 165.5 157.7 153.2 145 135.2 123.5 132.7 135.9 139.5 139.7 142.9 144.6 151.5 151.7 150.5 154.3 155.4 156.9 163.6 168.2 170.1 174.5 179.1 187.3 191.2 196.9 201.1 206.4 214 214.9 217.5 221.4 223.9 228.3 230.2 239.6 235.9 236.4 234.9 232.3 230.7 221.6 217.2 212.9 207 197.7 194.8 191 191 190.3 187.3 198.1 211.2 222.4 237.3 248.6 260.1 271 283.8 294.1 301.3 308.3 316.2 322.1 329.5 336.7 347.5 354.6 371.2 391.3 403.3 408.4 417.7 423.8 432.5 441.6 451.8 460.8 468.9 479.5 494 497.1 506.9 506.6 501.4 488.9 470.5 450.6 435 422.8 403.5 381.5 364.1 346.7 300.8 279 258 243.6 227.8 221 219 211.5 204.1 191.9 173.9 156.2 134.6 106.7 80.3 58.7 46.1 33.3 26.3 25.5 25.8 25.3 26.3 32.3 41.3 50.1 63.1 81.6 101.3 117.9 137.9 158.8 179.8 207.5 238.9 265.3 298.3 336.4 374.3 418.5 451.8 479.7 492.4 509.8 527.3 529.5 513 496.7 479.9 467.7 457.5 440.6 424.6 402.9 391.9 364.8 334.8 281.2 239.5 198 149.5 140.4 87.2 44.4 9.9 5.2 2.4 -1.3 -1.3 -1.3 -1.3 -1.3 -1.3 -1.3 -1.3 -1.3 -1.3 -1.3 -1.3 -1.3 -1.3 -1.3 -1.3 -1.3 -1.3
225.7 226.8 228.5 228.7 224.4 220.4 214.2 207.9 201.4 197.9 203.1 208.3 195.7 177.4 157.8 150.6 150.6 150.6 150.6 152.9 157.2 154.4 153.8 146.7 137.3 132.6 123.2 119.4 123.8 126.9 132.6 132.1 131.5 132.8 132.6 132.8 137.2 141.3 146.9 147.2 153.4 156.7 164.5 171.6 176 176.9 184.4 187.9 194.2 203.3 201.2 203 203.7 202.9 210.6 215.3 220.4 222.3 225.4 217.6 218.6 208.6 206.7 202.8 204 197.2 189.2 185.1 183.7 183.7 178.9 189.6 201 217 226.8 242.5 249.9 261.2 273.7 285.4 294.1 301.7 309.2 316.2 326.3 334.7 341.6 351.3 361.4 373.4 395.3 416.8 420.4 426.9 436.3 443.5 450.6 463.5 475.3 484.8 495.3 511.4 521.8 524 520.6 521.2 508.5 486.8 462.9 435.2 410.7 397.5 379.6 362 345.8 309.5 278.8 256.9 245.2 230.9 222.7 209.4 190.5 168.3 164.7 152.8 143.3 119.9 97.8 74.2 53.2 40 32.4 24.9 24.1 24.5 24.6 26.5 31 37.2 48.7 63.5 80.5 101.6 119.1 135.6 154.6 176 199.7 230.4 261.4 294.6 329.6 369.5 410.3 448.3 477.8 490.9 504.9 520 519.6 503.8 492.2 482.3 468.4 452.2 432.8 430.4 406.4 375.3 347.6 307.3 277 239.7 192.6 120.9 102.5 71.7 18 6 2.1 -1.3 -1.3 -1.3 -1.3 -1.3 -1.3 -1.3 -1.3 -1.3 -1.3 -1.3 -1.3 -1.3 -1.3 -1.3 -1.3 -1.3 -1.3 -1.3
237.4 236.7 238.4 240.2 242.4 237.9 229.5 223.4 215.3 206.6 217.8 219.9 212.6 197.6 178.1 159.9 150.6 150.6 150.6 150.6 153.1 149.7 146.8 145.4 137.8 137 137.6 132 128 113.7 120.8 123.5 124 121.4 123 124.7 123.8 133.1 137.4 137.3 141.4 141.1 154.5 157 163.3 165.8 169.1 174.6 179.5 180.9 183.2 188 184.2 185.2 190.6 194.7 201.6 206.2 209.5 207.5 203.7 198.7 195.9 189.3 189.5 184.1 181.9 180.9 176.8 173.4 182.5 194.4 209.1 222.6 232.3 244.2 252.5 261.1 273.4 282.6 291.4 300.8 306.9 315.7 323.7 335 344 355.9 372.6 383.1 401 422.7 430.1 436.7 444.4 454.5 460.3 472.5 489.1 501.1 512.5 526.7 540.2 544.5 536.8 539.1 530 507.7 483.4 452.1 427.3 398.6 368.5 356.6 343.4 313.2 286.4 268.8 254.1 244.5 233.6 226.2 214.8 194.3 171.4 138.9 112.7 93.7 91.6 68.8 51.3 38.6 28.6 24.5 23.5 22.6 23.6 24.5 27.7 32.9 46.6 60.7 80.2 103.6 121 137.6 156.1 175.8 201.5 232.6 260 295.1 332 366.9 402.6 441.1 472.5 485.4 502.8 509.9 512 498.3 493.2 477.3 463.5 441.7 417.3 408.8 371.8 330.6 308.1 271.2 242.3 212.9 175.2 135.2 73.3 38.7 11.9 4 -1.3 -1.3 -1.3 -1.3 -1.3 -1.3 -1.3 -1.3 -1.3 -1.3 -1.3 -1.3 -1.3 -1.3 -1.3 -1.3 -1.3 -1.3 -1.3 -1.3
237.8 250.7 260.1 266.7 268.7 267.9 256.5 246.3 234.8 223.4 230.7 234.4 229.8 213.9 195.2 179.7 156.3 150.6 150.6 150.6 151.2 152.6 150.8 145.8 145.8 150.8 153 145.3 137.8 131 119.7 103.7 113.7 115.7 117.5 118 117.6 120 121.9 123.5 128.1 130 142.6 142.9 149.4 154.3 157 164 169.1 173.2 174.5 174.4 173.4 171.7 181.2 187.1 190 189.5 190.9 192.8 190.4 184.7 184.2 181.3 177.6 171.1 173.1 173.3 170.7 171.7 184.4 196.8 211.4 224.1 233.3 244 254.4 262.8 269.9 280.5 287.6 295.8 306.4 315.8 326.2 335.6 347.3 357 377.9 395.7 413.9 432.3 440.6 448.3 459.4 469.5 474.4 487.2 501.1 514.7 526.1 544.1 560 562.3 557.4 554.6 548.4 537.4 509.7 477.2 445.9 417.3 383.5 363 340.8 321 303.2 282.8 269.8 252.1 248.7 238.9 229.1 211.5 194.4 161.9 137.8 109.3 89.3 66.8 50.7 35.5 27.2 23.9 22.8 22.4 22.4 22.8 25.1 31.8 46.8 60.9 78.4 101.6 122.9 140.7 157.6 177.3 199 227.2 260.2 295.4 337.1 369 403.6 438.2 469.2 482.4 499 504.6 501.6 491.3 484.7 469.2 458.7 441.8 399.1 344.9 329.4 290.4 284.8 251.3 208.1 175 142.5 93.2 52.6 24 8.9 2.4 -1.3 -1.3 -1.3 -1.3 -1.3 -1.3 -1.3 -1.3 -1.3 -1.3 -1.3 -1.3 -1.3 -1.3 -1.3 -1.3 -1.3 -1.3 -1.3 -1.3
239.6 261.2 267.3 274 281.4 285.9 279.4 266.7 255 237.7 242 246.9 244.7 232.3 214.6 201.2 180.9 161.3 150.6 153.6 158.2 157.4 158.2 160.4 156.6 162.2 155.6 152.5 153.4 152.8 137 118.5 103.7 103.9 110.9 114.1 114.1 115.3 108.3 114.9 118.8 118.9 123 130.2 133.5 134.3 144.2 151.5 157.8 162.6 164.8 159.1 158.4 159 164.9 170.2 174.1 176.7 178.2 177.2 175.6 174 171.9 166.1 169.1 163.3 162.1 160.2 156.1 173 185 197.5 211.4 223 230.5 245.6 258.1 267.2 273.7 279.9 286.6 297.8 304.8 317.5 327.4 337.8 346.6 358.5 380.9 402.6 422.2 440.2 463.5 467.8 474.4 482.8 489.7 499 510.6 524 534.4 556.7 570.3 572.2 573.5 571.3 565.4 562.5 536.4 494.8 468.8 439.4 404.6 384.6 364.7 343.9 327.6 305.8 291.4 281.1 276.1 260.2 248 230.8 208.2 177.5 139.7 109.2 90.3 64.6 49.8 36.4 26.6 22.9 21.5 21.1 21.4 21.3 24.9 32.9 48.5 63 80.3 101.5 122.4 141.5 160.4 175.7 197.3 227.3 261.1 291.9 326.8 365.6 402.8 436.8 469.2 487.2 497.5 502 493.6 485.5 473.2 464.2 454.6 424.9 383.8 357.1 315.2 258.3 192.5 214.3 184.2 145.5 104.8 66.8 21.3 11.9 8.2 1.7 -1.3 -1.3 -1.3 -1.3 -1.3 -1.3 -1.3 -1.3 -1.3 -1.3 -1.3 -1.3 -1.3 -1.3 -1.3 -1.3 -1.3 -1.3 -1.3 -1.3
245.8 252.2 264.5 273.1 278.8 282.8 282.7 280.1 268 254.8 252.4 256.6 254.8 245 234.5 222.3 207.1 189.6 171.1 158.2 158.6 159.2 162.3 161.9 155 154.1 149.1 148.7 147.3 148 147.7 133.2 114.8 104.6 96 98.9 104.3 105.6 107.1 102.3 105.4 111.9 109.7 118.8 124.3 130.1 126.3 133.6 144.7 143.6 145.7 146.5 145.2 146.9 151.6 155.2 162.3 160.1 161.5 163 156.7 158 155.6 155.2 156.4 153.1 153.8 154.4 165 175 187.1 198.9 213 221.7 230.5 241.8 252.8 266.9 273.9 279.7 289.1 298.5 308.5 318 331.7 339.3 348.8 365 382 404.4 423.4 443.5 468.6 481.8 488 494.8 505.1 515.5 522.2 532.7 544.8 561.9 579 580.1 584.7 586 588.2 584.3 547.1 513.6 485.5 460.8 425.2 405.8 389.5 368.8 346 330.7 318.7 318.9 319.6 296.5 284.2 266.7 234 197.4 148.2 115 82.2 59.5 48.3 34.6 23.3 21.7 20.5 20.5 19.9 20.8 25 33.7 48.8 67.2 83.8 104.6 123.4 141.5 163.4 177.7 197.7 227.6 260.2 291 323.8 361.8 400.9 438.7 467.9 488.2 503.1 499.4 491.2 475 464.3 449.4 431.4 403.6 372.8 320 299.6 263.3 224.7 162 116.4 113.4 72 31.8 13.4 9.8 4.9 -1.3 -1.3 -1.3 -1.3 -1.3 -1.3 -1.3 -1.3 -1.3 -1.3 -1.3 -1.3 -1.3 -1.3 -1.3 -1.3 -1.3 -1.3 -1.3 -1.3 -1.3
257.5 266.2 274.1 280.8 285.2 288.7 291.7 283 277.1 267.7 267.6 271.1 267 258.9 248.6 237.7 223.5 206.8 192 175.2 160.6 154.2 152.8 151.6 147.1 141.4 138.2 136.7 135.4 140.3 137.1 133.4 121.9 110.9 99.2 89.9 92.4 94 95.1 95.5 92.5 96 101.4 107 111 113.8 113.3 116.5 123.8 130.1 132.7 131.8 133.2 138.4 142 142.6 143.4 144 146.1 147.9 146.5 146.8 145.4 145.2 143.8 137.3 149.1 155.2 163.8 174.8 189.3 200.3 211 220.4 230.8 239 249.6 259.8 269.5 278 290.8 298.8 308.1 320.9 330.6 336.3 349 366.3 384.8 403 426.4 451.4 471.5 488.4 498.5 508.8 518.6 530.5 538.1 546.3 557.9 571.4 581.1 591.5 591.6 593.5 602.3 602.8 565.6 531.8 499.7 479.9 456.7 436.3 414.2 400.6 379.9 352 337.3 335.8 339.3 320.3 296.6 274.5 256.3 219.8 157.8 115 83.5 58.7 42.2 32 22.5 20.4 19.7 19.4 20 20.9 26.3 36.9 49.7 66.4 87.5 106.1 125 141.3 163.2 181.9 198.5 221.5 251.5 283.6 319.9 354.1 388.4 427.7 459.8 479.9 496.6 499.3 481.3 467.8 448.3 432.1 406.2 383.5 340.6 305.8 264.6 215.8 197.7 165.8 125.3 86.6 43.5 22.3 9.7 4.9 1.3 -1.3 -1.3 -1.3 -1.3 -1.3 -1.3 -1.3 -1.3 -1.3 -1.3 -1.3 -1.3 -1.3 -1.3 -1.3 -1.3 -1.3 -1.3 -1.3 -1.3 -1.3
264.6 275 288.2 298.4 300.1 304.7 305.9 297.7 287.6 278.5 281.5 287.1 287.8 277.6 264.2 247.6 234.4 221.7 200.7 189 171.2 152.5 146.7 143.1 138.9 134.9 129.8 129.1 126.4 123.1 118.8 115.2 110.5 103 95 83.2 81.6 86 85.3 80.9 80.6 84.4 90.1 93.3 96.5 98.7 103.6 106.4 113.8 119.6 123.4 123.4 124.9 125.6 128.2 132 133.4 137.5 139 135.9 136.7 135.9 135.1 134 130.1 135.4 146.8 155 164.8 175.8 190.7 201.1 208.9 220.7 229.6 237.9 246.7 256.9 266.8 276 285.6 295.4 303.2 312.4 323 330.9 351.3 367.5 390.6 413.4 430.9 451 471.1 488.1 505.3 517.1 529.1 538.7 547.5 554.8 566.5 585.4 589.6 596.8 598.4 607.9 615.8 610.2 591.5 552.8 519.6 496.1 474.6 448.6 434.6 415 391.1 371.2 350.7 338 329.7 319.2 297.2 274.2 244.9 212.4 149.6 113.5 85.6 59.2 39 31 22.8 19.8 19.3 18.3 18.8 20.4 25.2 36.5 52.1 67.4 88.5 107.7 125 142.4 160.7 179.6 198.2 218.7 247.5 281 314.4 344.2 376.1 409.6 440.7 466.6 480.3 488.5 471.2 454.2 433.9 415.5 391.3 347.6 309 268.3 222.6 196.6 170.1 123.6 96.9 52.3 24.1 13.8 6.4 2.3 -1.3 -1.3 -1.3 -1.3 -1.3 -1.3 -1.3 -1.3 -1.3 -1.3 -1.3 -1.3 -1.3 -1.3 -1.3 -1.3 -1.3 -1.3 -1.3 -1.3 -1.3 -1.3
283.5 291.5 294.8 301.6 313.2 322 323.8 317.3 302.8 281.8 294 295.3 299.2 299.5 286.4 271.5 251.1 226.9 214.5 200.6 179.4 165.7 153.4 147.5 144.4 140.3 135.5 126.8 119.5 115.8 111.3 103.9 101.4 97.3 97.6 91.6 88.6 86.1 78.2 77.3 75.3 74.5 79.9 81.1 85.3 84 85 88.6 95.1 99.7 103.1 107.6 115.3 111.9 115 119.9 127.3 130.4 139.1 130.8 125.5 123.6 123.6 121.1 120 133.1 142.8 152.9 163.2 179.1 190.8 199.4 208.9 218.9 228.3 236.1 247.7 255.9 269.2 274.1 282.6 289.2 294.2 302.4 309.8 332.1 349.9 372 392.3 415 432.6 451.4 468 488.2 505 520.5 533.5 548 557.3 565.2 577.7 590.6 598.2 602.4 613 616.9 621.8 620.2 611.5 572.8 538.3 512.9 488.3 461.4 437 410.2 394.7 379 365 341.4 320.1 304.9 285.2 259.5 222.9 177.8 140.1 113.6 84.3 59.3 38.1 30.6 22.2 19 18.7 18.6 18.1 19.8 27 37.9 52.2 67.1 88.8 109.2 128.2 149.4 166.2 181.6 200.8 225.2 249 280.2 318.8 341.5 367.5 393 422.2 452.2 474.3 476.3 461.7 438.9 414.8 395.4 372.6 341.1 297 256.6 231.8 168.3 139.2 99.3 62.4 31.6 14.5 10.5 6.3 2.4 -1.3 -1.3 -1.3 -1.3 -1.3 -1.3 -1.3 -1.3 -1.3 -1.3 -1.3 -1.3 -1.3 -1.3 -1.3 -1.3 -1.3 -1.3 -1.3 -1.3 -1.3 -1.3
298.7 309.1 313 314 320.4 333.2 336.9 333 316.9 309.2 307.4 302 302.5 303.3 300.5 290.1 274.8 247.9 224.6 208.2 189.1 174.8 162.4 154.7 150.1 150.5 143.3 133.7 126.7 127.6 118.8 120.8 121.2 125.2 119.6 115.3 107.3 101 95.2 84.4 77.9 77 77.3 72.3 73.2 73.3 76 77.6 82.2 91.7 88.7 93.8 98.6 104.6 99.1 108.5 116 114.9 117.8 118.5 115.8 115.9 114.7 117.2 123.7 131.2 140.4 152.7 167.2 179.7 190.7 198.7 206.4 216.7 225.9 232.2 236.3 243 257.5 266 271.8 279.9 287.7 296.5 307.8 327.4 350.5 375 395.1 416.1 431.1 447.9 464.4 484.4 502.6 517.7 535.6 547.4 562.2 571.6 582.5 590.5 596.2 608.3 620 630.4 631.1 629.4 618.1 583.9 550.7 522.4 498.1 472.9 451.1 426.7 409.4 389.1 359.2 330.1 296.8 288.8 272.5 247 198.3 160.6 132.5 101.3 76.7 57.1 38.2 26.9 21.2 17.9 18.1 18.2 18.1 19.8 23.4 35.7 49.6 64.9 85.2 105.4 128.8 148.9 168.2 185.2 203.2 226.5 251.3 284.5 324.9 354.1 382.1 412.7 441.8 468.8 471.8 464.1 447.4 418.8 392.6 367.5 350.4 319.5 290.7 269.7 234.7 184.9 130.3 89.9 52.7 24.1 11.7 8 4.9 1.9 -1.3 -1.3 -1.3 -1.3 -1.3 -1.3 -1.3 -1.3 -1.3 -1.3 -1.3 -1.3 -1.3 -1.3 -1.3 -1.3 -1.3 -1.3 -1.3 -1.3 -1.3 -1.3
317.9 334.6 336.9 341.3 338.3 341.6 349 348.7 330 325.2 337.4 341.1 320.5 311.9 302.5 291.9 277.1 257.7 236.7 215.4 198.7 185.1 172.7 162.9 153.5 145.2 144.5 134.2 130.5 137 138.6 136.7 132.7 130.5 134.4 126.6 122.7 113.8 110.5 104.3 91.5 87.1 81.1 74.4 72.5 70.7 71 72.2 73.3 78.3 78.1 83.2 88.9 96.7 93.6 97.4 99.6 99 103.8 102.7 105.2 107.2 109 115.2 124.9 132 141.2 154.2 167.9 178.8 189.2 197.5 205.5 213.6 221.9 227.2 231.2 237.3 247 255 260.9 267.3 278.4 286 304.6 324.3 344.5 368.4 393.9 415.5 429.1 443.9 464.1 480.9 495 518.5 533.3 547.5 561.5 571.6 580.1 588 595.3 610.9 618.5 634.5 639.5 637.1 628.2 595.1 561.2 533.8 514.2 488.1 467.6 443.9 418.1 379.9 344.8 310.7 279.4 256 244.7 223.3 184 151.5 120.4 93.7 72.6 57.4 39.8 26 21.9 19.4 17 17.6 17.5 19.8 24.3 35.3 47.2 61.5 82 103.6 125.7 152.8 169.7 188 207.3 227.7 252.5 284.6 316.5 349.8 387.2 417.5 449.3 471 466.3 459.7 435 394 367.6 346.4 321 299.9 277.3 249.5 219.1 179.2 101.5 60.9 33.6 16.8 9.1 5.2 4 2.4 -1.3 -1.3 -1.3 -1.3 -1.3 -1.3 -1.3 -1.3 -1.3 -1.3 -1.3 -1.3 -1.3 -1.3 -1.3 -1.3 -1.3 -1.3 -1.3 -1.3 -1.3 -1.3
341.4 359.8 362.3 373 369 360.2 357.1 357.4 344.9 343 349.4 355.3 354.7 335.1 313.8 302 289 271.6 249.4 230.8 211 196.4 184.4 171.4 160.1 149.7 147.1 150.5 153.8 158.4 156.1 154.6 145.3 134.4 132.9 132.2 133.2 128.4 119.2 111.2 101.6 95.2 86.5 76.3 72.7 71.7 69.9 69.9 69.8 74.2 73.3 76.8 82 88 91.5 91.6 89.2 91 94.3 92 99 102.8 106 113 122.3 129.6 137.5 149 161.6 174.8 184.2 192.7 201.1 208.9 216.7 221.1 227.1 233.2 240.2 244.8 250.7 255 268 280.5 301.4 322.8 343.9 364.9 390.8 413.1 430.4 445.8 461.5 477.8 492 513.2 531.2 546.9 557.6 567.3 574 580.3 596.4 608.6 616.6 632.4 639.6 645.5 638.7 613.3 581.7 555.1 535.5 506.2 480.6 452.4 421 377.8 342.7 308.2 270.6 236.3 222.7 204 181.9 153.1 123.5 95.1 74.3 59 44.4 28.7 22.3 18.5 16.5 17.1 16.6 19.7 24.3 32.7 42.7 57.8 80.2 101.4 125.5 157.6 172.3 187.7 211.1 231 256.2 284.3 316.1 351.1 384.5 414.5 444.7 451.1 435.7 439.7 416.9 383.8 357.5 327.1 300.6 279.7 258.7 226.4 198.9 158.2 86.3 41.3 25.3 12.1 4.4 1.5 1.1 1 -1.3 -1.3 -1.3 -1.3 -1.3 -1.3 -1.3 -1.3 -1.3 -1.3 -1.3 -1.3 -1.3 -1.3 -1.3 -1.3 -1.3 -1.3 -1.3 -1.3 -1.3 -1.3
360.2 369.6 376.5 385.8 387.7 384.5 373.3 367.5 356.6 350.8 352.8 354.9 348.7 351.2 347.7 330.7 315.1 292.5 269.1 240.3 218.4 203.8 194.7 179.2 160.8 160.3 160.5 161.7 170.5 174.2 163 155.1 147.8 143.1 141 139.1 133.7 128.1 123 118.6 105 93.4 90 77 74.1 71.6 70.1 69.3 68.2 68.5 70.9 71.2 77.9 83.3 88.3 87.9 84.9 83.9 85.2 79.9 88.4 92.1 102.1 108.2 114.8 123.4 131.2 140.6 153.4 165.3 176.1 185.8 194.7 202.2 208.6 215.4 222.3 228.4 234 237.7 243.5 249 262 277.7 297.4 316 338.5 364 386.7 406.8 425.7 443.1 459.9 473.9 486.1 501.9 519.7 534 550 560.6 561.5 573.7 593 602.1 610 622.6 634.2 650.2 648.1 631.7 602.8 570.8 542.1 514.3 490.9 460.2 422.1 393.8 349.7 301.9 268 230.5 215.4 198.3 174.4 153.4 125.7 100.8 80.5 66.3 49.4 30 21.3 17.3 16 16.2 16.4 18 22.8 29.2 38.7 53.8 78.8 100.9 121.2 144.5 169.9 194.2 211.9 232.7 255.8 283.4 317.6 359 392.8 416.8 432.5 427.4 421.1 415.1 396.5 367.3 344.2 315.9 278.9 253.1 223.1 195.9 158.8 119.5 60.6 16.5 8.6 -1.3 -1.3 -1.3 -1.3 -1.3 -1.3 -1.3 -1.3 -1.3 -1.3 -1.3 -1.3 -1.3 -1.3 -1.3 -1.3 -1.3 -1.3 -1.3 -1.3 -1.3 -1.3 -1.3 -1.3 -1.3 -1.3 -1.3
372.6 379.4 388.4 392.5 400.5 393.8 386.4 376.2 365.1 362.5 366 369 367.7 368.9 365.2 353.8 334.9 307.7 276.9 253.3 231.8 213.9 200.3 181.6 182.7 183.4 180 178 179.6 182.4 183 163.1 153.1 154.2 155.1 142.8 135 128.5 116.1 109 109.4 105.5 98.5 89 84.7 84.5 80 74.7 70.3 67.8 67.9 70.5 74 76.6 88.7 83 81.1 76.4 76 81.5 85.4 90.9 98 100.8 104.5 111.8 119.3 128.4 141 153 167.8 180.1 193.2 200.9 205.3 211 217.9 223.1 229.3 231.6 235.7 245.9 257.9 271.6 290.4 307.9 329 353.3 378.6 400.3 418.3 435.6 453.4 465.1 479.6 490.8 507.4 522.5 531.8 543.1 551.9 560.9 577.1 591.2 599.7 613.3 624.8 631.9 640.3 638.3 612 577.4 546 514.9 483.2 457 436.5 388.3 352 315.4 273.5 249.3 226.3 201.2 177.5 155.3 130.4 109.2 88.8 68.6 56.3 35 21.3 16 16 16 20.6 17 22.2 26.7 34.8 49.9 72.4 99.1 119.1 140.5 164.2 190.2 213.3 232.9 257.3 286.8 324.2 353.5 385.3 409.4 419.1 416.8 414.2 408.7 390.9 363 334.1 300.8 257.9 224.4 209.4 177.7 135.3 73.8 32 5.4 -1.3 -1.3 -1.3 -1.3 -1.3 -1.3 -1.3 -1.3 -1.3 -1.3 -1.3 -1.3 -1.3 -1.3 -1.3 -1.3 -1.3 -1.3 -1.3 -1.3 -1.3 -1.3 -1.3 -1.3 -1.3 -1.3 -1.3 -1.3
398.7 403.8 410.5 418.9 417.2 409.5 404.8 389.8 379.1 388.8 384.8 383.1 381.2 382.3 372 360.3 344.4 319 285.2 255.8 235.4 218.3 202.1 196 194.5 190.6 188.6 186.1 185.2 184.2 183.5 170.9 159.3 151.4 148.4 139.7 135.4 135.5 133.5 138 132.4 122.5 116.8 109.3 105.3 100.7 92.5 87.3 81.7 77.5 72.6 67.5 66.3 66.5 71.3 74.5 77.7 72.9 71.5 77.9 81.1 86.8 90.8 92.5 95 99.8 107.5 118.5 130.7 142.3 157.2 172.4 180.4 194.4 203.1 207.3 213.3 218.8 223.8 226.6 229.4 239.3 253.3 267.9 287.7 303.9 321.1 341.8 363.8 387.6 408.2 426.2 443.8 457.3 472.4 484.3 494.9 507.5 518.1 528.9 537.7 547.7 559.5 574.5 588 600.3 610.2 618.9 626.6 631.2 613.4 584.7 557.8 518.4 481.8 457.8 418.6 392 350.6 317.5 301 282.2 253.3 218.6 190.3 171.7 141.8 116.9 91.2 74.9 59.2 36.9 22.6 16 16 17.7 19.7 19.4 21.4 23.4 30.6 45.5 70.2 91.4 121.2 139.5 168.3 194.7 213.2 234.4 257.6 287.6 322.8 360.6 377.3 391.4 404.7 404.3 405 402.9 381.4 353.1 320.3 279.4 243.9 198.9 183.8 157.9 112.4 53.1 16.5 -1.3 -1.3 -1.3 -1.3 -1.3 -1.3 -1.3 -1.3 -1.3 -1.3 -1.3 -1.3 -1.3 -1.3 -1.3 -1.3 -1.3 -1.3 -1.3 -1.3 -1.3 -1.3 -1.3 -1.3 -1.3 -1.3 -1.3 -1.3 -1.3
406.8 416.2 433.5 441.4 442.6 426.7 423.8 415.8 396.7 400 400.7 397.8 388.5 381.9 363.2 350 334.9 316.9 288.8 263.4 242.8 224.9 207.3 206.8 200 197.9 193.9 191.1 188.3 185.7 184.7 181.6 170.8 164.6 159.6 154.8 148.4 148.3 146.7 148.5 144.4 142.8 139.9 139.8 133.4 124.5 115.7 109.4 96.5 86.7 80.3 73.6 70.5 68.1 65.1 68.4 73.9 69.2 69 69.6 73.8 81 84.8 86.6 85 88.1 98.7 110.5 122.4 133.7 144.5 160.5 173.9 186.2 199.9 204.8 207.5 211.2 214.1 217.3 225.6 232.3 251.1 262.5 279.3 298.1 313.1 331.7 356.7 377.4 396.7 416.8 436 446.4 461.5 476.3 487.1 496.9 507.7 516.3 523.8 535.7 547.2 560.2 570.8 580.3 588.3 603.5 615 620.8 612.8 593.7 557.8 515.6 482.6 458.3 435.7 405 356.3 353.5 342.7 329.3 301.4 246.7 221.7 188.5 151.7 125 102.4 77.8 60.3 40.2 21.4 16 16 17.4 17.9 18.4 19.3 19.9 25.3 40.1 62.2 87.7 113.4 134.6 164.9 191.2 215.4 237.4 259.9 285.7 315.2 352.3 371.6 383.5 393.2 402.1 393.8 382.2 357.3 328.3 300 255.1 221.5 185.5 139.9 127.3 82.3 30.3 4.1 -1.3 -1.3 -1.3 -1.3 -1.3 -1.3 -1.3 -1.3 -1.3 -1.3 -1.3 -1.3 -1.3 -1.3 -1.3 -1.3 -1.3 -1.3 -1.3 -1.3 -1.3 -1.3 -1.3 -1.3 -1.3 -1.3 -1.3 -1.3 -1.3
429.7 437.4 450.6 451 453.5 445.1 434.7 426 412.5 413.2 409.8 396 386.1 372.6 360.2 348 335.2 318.7 298.1 272.5 251.3 234.3 225.9 222.9 213 210.1 205.5 199.4 195.5 193.2 190.7 187.8 182.7 177.2 172.2 170.8 168.6 171.3 167.1 169.4 166.7 162.6 161.2 160.6 156 150.8 139.8 133 122.3 108.5 98.9 89.2 79.3 71.3 64.9 64.6 67.9 67 66.7 66.8 68 74.3 82.9 79.3 75.2 78.8 88.8 100.3 111.5 121.7 131 144.8 160.5 174 188.6 196.6 200.3 203.5 206.6 210.9 215.3 231.5 244.6 258 270.2 286.3 306.7 325.2 350.5 370.7 388.4 405 423 438.1 449.7 463.3 477.7 488.1 496.6 504.1 513.5 523.1 533.1 546 557.9 565.8 573.3 584 593.8 610.6 611.6 597.8 561.2 536.1 507 484 458 407 399.5 390.6 387.6 368.5 346.4 281.7 244.1 208.8 163.9 135.9 111.7 86.6 62.6 41.9 25.3 14 13.2 16.6 17.4 15.4 16.8 18.9 22.9 37.9 58.8 82.5 111.7 136.9 169.9 194.6 219.4 242.5 264.4 289 315.9 343.2 372.6 379.3 387.8 392.1 381.5 366.3 341.7 303.6 284.4 245.8 204.9 166.8 117.1 86.3 46.6 12.8 -1.3 -1.3 -1.3 -1.3 -1.3 -1.3 -1.3 -1.3 -1.3 -1.3 -1.3 -1.3 -1.3 -1.3 -1.3 -1.3 -1.3 -1.3 -1.3 -1.3 -1.3 -1.3 -1.3 -1.3 -1.3 -1.3 -1.3 -1.3 -1.3 -1.3
454.8 461.1 467.1 480.7 475.4 462.9 447.8 433.9 421.7 421.9 416.6 395.9 382.4 371.4 356.4 343.6 331.6 319.1 298.2 276.7 258.1 246.8 243.4 237.3 229.7 225.2 217.5 214.2 210.3 203.8 203.5 201.5 193 189.6 184.4 189.4 189.8 195.3 190.9 190 186.6 185.6 183.5 185.9 179.7 173.3 165.9 157.6 146.6 134.9 125.5 112.2 101.1 87.8 73.8 69.1 65.6 60.3 59.5 58.1 54.1 61 69.4 71.4 66.3 70.5 79.9 88.4 98.7 107.3 116.8 127.1 143.4 156.8 168.4 184 191.7 195.2 196.4 198.8 213 226.9 239.9 250.9 264.3 279.1 296.2 312.9 336.8 354.1 374.4 390.9 406.8 424.3 438.7 454.4 466.4 476.2 484.3 494.2 502.2 508.8 520 530.6 540.7 552 561.3 573.3 583.3 586.3 586.7 589.4 582.6 552 527.7 489.6 454.8 431.5 423.2 423.7 413.3 403.1 369.4 320.4 280.6 217.2 177.2 149 122.4 91.8 66.3 44.7 26.8 13.4 12.8 15 15.8 15.4 13.1 17 21.9 33.3 53.1 79.4 106.5 136 167.5 203.7 226.6 248.8 273 299.7 323.1 352.7 371.8 375.4 385.7 385.3 371 349.9 323.3 288.2 250.4 225.8 185.8 155.2 109.9 52.6 17.1 -1.3 -1.3 -1.3 -1.3 -1.3 -1.3 -1.3 -1.3 -1.3 -1.3 -1.3 -1.3 -1.3 -1.3 -1.3 -1.3 -1.3 -1.3 -1.3 -1.3 -1.3 -1.3 -1.3 -1.3 -1.3 -1.3 -1.3 -1.3 -1.3 -1.3 -1.3
461.9 472.7 480.4 496.9 495 483.3 455.3 437.3 422.9 427.5 421.2 394.7 377.4 364.5 350.1 335.4 323.9 311.8 297.5 280.7 264.8 262.6 256.6 251.9 245.6 237 230.8 227.6 222.4 214.9 210.4 213.2 205.5 201.9 191.9 197.4 200.1 204.1 208.6 210.7 213.8 221.8 226.6 224.1 216.2 205.7 196.5 184.8 170.8 157.7 149 136.4 126.2 114.6 98.6 87.2 81.1 76.5 71.6 65.1 59.6 53.2 56.4 59.1 54.6 58 66.8 76.1 83.1 95.7 108.4 117.7 128.4 141.7 151.7 163.9 172.8 180.3 185.1 192.9 211.7 225.4 231.8 247 260.7 274 285.1 302.6 319.4 334.7 354.9 375.1 393.1 413.6 427.7 441.3 454.7 465.9 476.7 486.1 491.4 500.4 508.7 518.7 528.4 537.5 549.7 562.7 575.2 575.4 577.5 576.6 572.4 561 531.2 500.8 480.9 465.8 460.4 447.9 437.9 420.5 396.8 345 294.4 230.9 190.1 155.9 139.5 97.8 69.4 47.4 29.5 15.3 12.3 12.4 14.8 12.8 14.6 15.7 19.2 31.5 49.3 73 104.1 135.9 177.1 209.1 229.7 249.5 272 300.6 326.6 348.2 371.9 366 367.5 357.2 321.4 317.8 295.8 264.3 226.5 181.4 147.2 119.6 68.8 27.1 9.1 -1.3 -1.3 -1.3 -1.3 -1.3 -1.3 -1.3 -1.3 -1.3 -1.3 -1.3 -1.3 -1.3 -1.3 -1.3 -1.3 -1.3 -1.3 -1.3 -1.3 -1.3 -1.3 -1.3 -1.3 -1.3 -1.3 -1.3 -1.3 -1.3 -1.3 -1.3
470.8 481.4 492 508.9 508.4 492.7 456.2 436 425.2 423.5 408.8 385.6 368.7 354.5 341.9 328.8 316.7 305.3 293 276.3 272.8 270.6 268.3 268.7 261 254.3 249.9 246.4 239.6 229.9 228 222.5 217 208.4 209.9 210 213 216 216.4 222.9 232.9 232 233.6 237.4 236.1 236.5 222.2 206.7 197.7 190.3 179.3 164.3 148.4 131.1 119.2 108.7 100.5 90 85.2 78 70.9 59 48.7 46.8 43.6 50.4 55.9 64.4 72.2 83.3 96.2 109.1 118.6 130 138.8 145.8 154.1 164.8 168.9 173.4 195.8 218.6 226.5 242.1 254.1 268.8 279.7 292.8 307.1 322.9 338.1 359 377.1 394.6 413.5 429.5 443.5 456.2 466.2 475.1 481.6 489.3 498 507.7 516.4 526.1 536.9 550.3 561.5 564.9 568.9 569.9 567.8 564.3 547.2 530.9 521.1 506.4 494.3 484.6 466.5 437.9 403.8 361.2 289.4 247.9 211 165 131.3 102.6 72.6 48.8 30.5 14.3 12 13.4 13.4 12.5 14.2 14.5 17.7 29.8 49.2 74.3 106.4 136.7 172.2 208.3 232 251.5 273.9 301.4 324.9 349.3 371.3 356.6 349.8 324.8 273.9 266.7 252.4 230.4 193.6 131.9 115.1 79.4 34.4 6.1 1.4 -1.3 -1.3 -1.3 -1.3 -1.3 -1.3 -1.3 -1.3 -1.3 -1.3 -1.3 -1.3 -1.3 -1.3 -1.3 -1.3 -1.3 -1.3 -1.3 -1.3 -1.3 -1.3 -1.3 -1.3 -1.3 -1.3 -1.3 -1.3 -1.3 -1.3 -1.3
470.2 483.9 497.2 505.7 504.9 484.9 449.7 429.7 420.6 415.6 394.5 375.1 360 347.7 336.3 324.5 313.6 303 288.5 285.2 281.6 280.5 282.7 290.6 290.9 278 269.8 261.8 252.8 246.4 242.3 236.7 230 222.8 222.9 223.4 226.9 230.2 231.9 234.1 235.7 238.4 244.3 253.9 253.6 250.2 246.5 227.1 214.3 206.3 198.9 188.6 172.2 156.4 143.5 128.6 117.5 107.3 100 95.8 88 79.2 67.4 58.4 50.5 43.3 45.9 52.5 63.5 74.8 85.6 96.1 110.7 118.9 123.7 129 139.3 151.6 148.8 167.4 183.2 201.6 217.6 232.2 245.6 256.9 269 280.7 292.8 308.6 329.1 345.6 364.6 385.7 400 416.3 436.2 449.2 455.2 462.1 469 478.1 489 496.5 506.1 514.5 527.8 539.5 546.1 550.2 556.2 559.9 559.5 556.7 556.9 546.3 535.1 522.9 508.9 490.9 474.8 444.5 414.5 368.8 290.6 254.2 211.8 175.9 127.6 99.9 77 48.5 29.2 15.5 12.1 12.8 13.2 12.6 13.1 13.1 16.4 28.7 49.5 78.4 111.5 147.3 176.4 204.8 230.4 248.7 272.5 306.3 334.1 357 362.9 346.2 337.9 313.3 277.1 231.7 196.1 189.6 160.6 107 88.4 41.3 10.5 1.8 0.1 -1.3 -1.3 -1.3 -1.3 -1.3 -1.3 -1.3 -1.3 -1.3 -1.3 -1.3 -1.3 -1.3 -1.3 -1.3 -1.3 -1.3 -1.3 -1.3 -1.3 -1.3 -1.3 -1.3 -1.3 -1.3 -1.3 -1.3 -1.3 -1.3 -1.3 -1.3
474.3 485 488.8 496.2 485.2 461.6 436.5 420.3 412 402.6 385.7 367.8 353.3 341.9 330.9 320.9 308.3 301.9 298.1 294.1 291.7 293.4 302.4 310.2 316 310.4 306.5 296.3 284.4 273.4 265.2 263 255.5 245.9 240.7 238.8 236.4 240.6 241.2 241.1 243.9 247.9 248.7 252 257.5 255.9 253.2 245.2 233.7 226.6 206.6 193.5 181.4 173.5 164.3 151.6 134.8 125.5 114.1 107 99.9 94.3 84.4 76.5 63.6 50.6 41.9 47.8 56.5 67.3 78.4 86.7 99.1 104.1 108 113.2 124.3 136.5 145.3 157 170.9 189.8 212.2 227 241.4 253.5 261.7 273.8 281.5 296.8 315.1 332.1 350.8 369.6 387.3 404.4 423.3 433.2 442.5 444.2 458.1 467.8 477.4 486.7 494.8 503.6 514 524.5 535.7 540.5 542 543.8 544.5 547.7 548.2 539.7 533.2 524.5 513.9 494.3 469.9 442.5 414.7 366.9 302.1 267.7 215.9 178.7 146.5 98.3 70.1 47.1 27.3 15.6 10.8 11.8 12.1 11 12 12.9 17.9 30.8 54.2 78.9 108.8 143.1 176 195.3 222.7 247.4 274.6 308.6 341.6 366.9 347.7 330.7 316.9 287.3 249.2 222.8 178.8 130.2 107.9 74.8 42.4 16.5 6.8 1.5 -1.3 -1.3 -1.3 -1.3 -1.3 -1.3 -1.3 -1.3 -1.3 -1.3 -1.3 -1.3 -1.3 -1.3 -1.3 -1.3 -1.3 -1.3 -1.3 -1.3 -1.3 -1.3 -1.3 -1.3 -1.3 -1.3 -1.3 -1.3 -1.3 -1.3 -1.3 -1.3
473.8 477.3 476 473.2 462.7 439.9 423.8 409.8 401.8 392.4 377.5 361.2 348.2 337.1 328.8 317.9 314.5 311.5 307.4 306 306.1 314.6 323.4 336.7 341.4 337.8 330 320 307.7 301.4 297.3 297.1 296.5 280.4 263.6 258 254.7 254.1 253.1 253 256.1 255.8 263.9 265.2 265 260.8 257.7 248.5 243.6 235.5 221.1 210.2 196.9 184.7 172.4 161.8 152.4 139.7 125.3 114.3 105.8 98.2 94.3 87 70.2 57.3 45 45.1 54.1 63.1 72.1 80.1 86.9 92 97.2 104.4 111 113.4 132.4 149.6 162.4 180 200.3 217.9 231.4 245.5 253 260.4 270.1 283.4 300 317.7 336.8 351.2 370.9 389.7 406.3 418.2 425.7 433.7 444.1 457.4 468.7 475.9 482.5 492.1 500.2 507.7 518.5 527.3 531.2 532.5 533 532.9 533.4 529.2 522.5 510.8 498.5 487.8 466.4 450.5 417.8 368.6 313.5 265.1 217.7 181.5 139.9 97.2 68.9 44.7 25.4 12.8 11.1 11.2 10.9 11.4 9.7 12.2 16.8 33.1 61 82.6 109.8 139.1 171.7 200.3 221.8 252.1 282.2 312.3 336.1 357.1 342.4 313.7 281.7 245.1 222.2 195.2 157.2 118.6 84.2 45 18.5 8.5 2.5 0.5 -1.3 -1.3 -1.3 -1.3 -1.3 -1.3 -1.3 -1.3 -1.3 -1.3 -1.3 -1.3 -1.3 -1.3 -1.3 -1.3 -1.3 -1.3 -1.3 -1.3 -1.3 -1.3 -1.3 -1.3 -1.3 -1.3 -1.3 -1.3 -1.3 -1.3 -1.3 -1.3
481.7 474.8 465.2 456.6 444.1 428.3 411 400.5 392.8 383.6 370.8 358.3 345.6 336.1 325.5 325.1 325.3 321.4 318.6 318.6 323.9 330.3 343.7 367.2 375.7 380.5 376.2 362.2 347.9 329.1 324.5 319 315.2 313 299.3 283.4 270.7 268.9 267.1 262.2 262.1 265 271.9 281.9 280.4 276.8 269 254.6 242.6 232.9 226.4 215.1 209.4 195.2 186.5 174 160 142.3 131.7 121.6 104 97.1 91.3 86.9 72.9 59.2 50.1 36.8 46.4 57.5 65 72.2 77.8 83.1 86.4 96.2 89.1 115 125.7 142.6 156.5 169.5 187.1 200.8 215.6 227.8 237.7 244.4 255.4 268.2 289 307.2 316.9 329.9 345 366.5 386.4 393.6 399.6 411.4 423.8 438.9 453.8 463.4 470.3 479.2 487.5 493.4 501.1 505.7 512.1 524.9 527.6 526.2 521.7 518.3 511.4 502.8 490.8 477.4 457.8 442.6 411.1 363 293.4 248.2 206.4 170.4 132 95.1 68.6 43.4 22.2 11.8 10.4 10.4 10.4 10.4 11.2 11.4 18.6 36.2 61.5 87 114.1 146.7 175.2 203.8 227.5 259.1 291.9 328.3 354.6 338.3 318.3 298.4 262.8 239 203.6 164 122.1 84.5 54.8 24.2 10.5 5.9 2.5 -1.3 -1.3 -1.3 -1.3 -1.3 -1.3 -1.3 -1.3 -1.3 -1.3 -1.3 -1.3 -1.3 -1.3 -1.3 -1.3 -1.3 -1.3 -1.3 -1.3 -1.3 -1.3 -1.3 -1.3 -1.3 -1.3 -1.3 -1.3 -1.3 -1.3 -1.3 -1.3 -1.3
474.4 470.6 457.8 446.6 435.2 417.1 403.2 391.6 383.5 375.4 366.2 354.7 342.9 335.9 333 332.9 333.8 334.5 333.1 333.4 341 353.7 371.3 392.1 416.2 412.7 411 405.8 391.8 374.6 354 340.6 337.5 327.6 322.7 306.8 290.8 287.3 280.7 273.9 271.2 271 272.1 278.4 281.2 282.1 277.9 262.6 250.8 238.5 224.4 213.1 207.4 200.8 192 180.9 170.1 160.1 147.5 136.9 117.1 99.7 82.3 75.8 71.2 60.9 52.3 32.8 42.7 48.4 53.9 60.8 66.9 74 77.3 73.9 89.8 106.9 119.1 131.2 147.9 160.5 175.5 193 201.3 206.4 216.5 231.3 240.3 254.2 268.9 287.4 296.2 309.6 322 340.9 355.5 365.9 371.8 381.8 397.7 417.1 433.8 445 458.3 465.4 473.5 479.2 482.3 488.6 498.2 511.8 513.6 519.1 513 503.6 495.2 488.1 479.8 465.7 453 424.7 401.5 356.1 285.8 232.4 191.6 160.5 124.7 90.9 64.2 41.5 21.1 11.8 10.2 9.9 10.1 10.1 10.2 10.5 21.3 40.2 64.8 89.9 117 147 179.7 207.8 233.3 270.2 299.5 331.6 343.1 324.7 285.1 266.6 243.1 214.2 185.1 142.7 97.1 57.1 25.2 11.6 8.3 2.8 -1.3 -1.3 -1.3 -1.3 -1.3 -1.3 -1.3 -1.3 -1.3 -1.3 -1.3 -1.3 -1.3 -1.3 -1.3 -1.3 -1.3 -1.3 -1.3 -1.3 -1.3 -1.3 -1.3 -1.3 -1.3 -1.3 -1.3 -1.3 -1.3 -1.3 -1.3 -1.3 -1.3 -1.3
461.7 457.5 450.3 440.4 429.3 413.9 398.1 390.6 380.2 373.4 365.7 359.1 350.3 346.3 342.4 343.5 351 360.5 365 360.2 360.3 372.3 389.9 418.3 447.8 451.5 456.1 448.6 427 408.2 383.4 368.2 360.4 345.1 335 322.1 307.7 300.5 293.6 285.5 282.2 276.3 277.1 280.9 281.4 280.3 275.6 270.8 260.3 248.5 235.7 222.4 209.7 201.7 198.2 185.8 181.3 174.1 163.8 145.6 126.7 109.2 93.4 76.4 62.9 54.5 47.2 31.8 35.1 39.9 43.7 50.5 55.5 62.8 69.6 63.7 81.7 96.4 106.3 117.2 134.4 148.2 163.8 181.6 192.7 201.7 212.6 219.9 227.2 239.2 250 266 277.2 288.6 301.5 313.5 324.9 334.8 345.7 358.4 372 387.8 408.3 421.9 437.5 445.6 456.4 458.8 465.7 470 476.7 487.5 496 500.9 501.2 494.5 489.2 478.3 461.6 448.2 436.3 415.8 387.3 351.3 285.9 244.7 195.7 155.5 116.7 95.4 64.6 34.7 18.9 11.3 10 9.1 9.1 9.7 9.1 10.4 25.2 43.2 68.7 97.7 127.6 159.3 189 216.8 246.9 275.8 303.7 336.3 327.2 296.8 272.1 229.3 216 186.1 165.9 125.5 77.6 30.8 11.4 7.8 4.5 -1.3 -1.3 -1.3 -1.3 -1.3 -1.3 -1.3 -1.3 -1.3 -1.3 -1.3 -1.3 -1.3 -1.3 -1.3 -1.3 -1.3 -1.3 -1.3 -1.3 -1.3 -1.3 -1.3 -1.3 -1.3 -1.3 -1.3 -1.3 -1.3 -1.3 -1.3 -1.3 -1.3 -1.3 -1.3
465.4 456.2 448.7 437.8 428.8 416.1 411.2 400.4 394.3 392.6 380.4 370.2 367.1 365.9 364.8 363.6 366.4 376.2 387 380 381.2 390.8 413.2 437.9 462.8 469.3 484 486.1 480.2 443.9 424.9 413.8 401.6 390.9 375.4 351.8 325.4 313.3 304.7 297.4 291.2 288.2 280.7 281.5 285.5 282 274.4 266.1 263 254.4 247.8 236.1 214.3 204.2 198.8 192.8 187.7 179.2 165.1 150.4 138.8 115.3 98.7 80.8 67.5 56.4 46.7 38.4 28.1 33.1 38 41.5 47.8 53 56.6 57.5 75.1 85.4 95.3 103 119.9 134 149.5 161.6 175.2 189.3 201.9 208.4 218.3 225.5 233.7 246.9 258.3 267.3 275.1 285.2 293.6 306.1 320 333.7 343.3 356.5 373.6 394.9 414.8 422.4 429.2 439.9 448 454.8 457.3 466.6 477.9 479.9 478.5 474.8 471.8 462.8 454 437.8 424.4 408.9 371 335.2 286.1 225.4 179.1 129 98 78.2 57.5 28.4 13.1 10.4 9.5 8.9 9.3 8.8 9.1 12.5 30.7 46.6 71.8 101.7 134.1 166.3 196.3 223.1 260.1 286.4 309.2 322.9 307.4 269.3 244.9 218 171.8 142.8 128.6 95.6 54.9 10.1 6.6 3.6 -1.3 -1.3 -1.3 -1.3 -1.3 -1.3 -1.3 -1.3 -1.3 -1.3 -1.3 -1.3 -1.3 -1.3 -1.3 -1.3 -1.3 -1.3 -1.3 -1.3 -1.3 -1.3 -1.3 -1.3 -1.3 -1.3 -1.3 -1.3 -1.3 -1.3 -1.3 -1.3 -1.3 -1.3 -1.3 -1.3
461.4 456 451.4 445.9 436.9 429.5 424 412.4 407 407.5 408 385.2 379.7 377.6 378.4 378.4 380.5 389.1 394.7 398.7 404.3 410.6 423.9 449 468 482.1 497.9 510.8 506.1 498.7 479.3 453 442.1 421.1 412.4 393.7 354.4 337.8 332.1 318.1 305.6 297.9 283.1 278.8 272 272.3 271.5 266.4 261.4 251 243.7 239.5 226.5 205.1 197.7 192.7 184.4 181.1 168.7 159.6 146.5 127.9 108.3 88 74.1 61.7 50.1 41.5 20.3 29.1 29.9 33.5 38 43.5 44.3 54.3 66.2 76.5 85.7 93.2 107.4 118 130 144.2 156.9 167.2 174.7 181.7 189.5 201.4 209.3 224 242 246.3 248.5 256 265.4 281.6 294.2 304.7 315.6 328.4 343.1 357.7 371.6 386.9 404.5 417.4 425.3 432.6 437.7 449.7 463.6 463.2 461.3 456.4 453.5 447.5 441.9 428.4 411 396 308.3 290.9 236.4 192.1 157.5 118 79.9 63.6 42.1 29.1 10.8 9.2 8.6 8.4 7.9 8.5 8.9 17.8 38.1 55.5 79.8 104.2 140.1 175 205 230.7 262.2 293.1 316.1 316.1 283.8 241.2 227 199.3 175.9 136.3 80.7 72 23.2 7.5 3.7 -1.3 -1.3 -1.3 -1.3 -1.3 -1.3 -1.3 -1.3 -1.3 -1.3 -1.3 -1.3 -1.3 -1.3 -1.3 -1.3 -1.3 -1.3 -1.3 -1.3 -1.3 -1.3 -1.3 -1.3 -1.3 -1.3 -1.3 -1.3 -1.3 -1.3 -1.3 -1.3 -1.3 -1.3 -1.3 -1.3 -1.3
469 463.2 457.8 451.8 443.3 436.8 428.8 417.3 414.6 413.6 410.6 398.6 394.7 394.7 398.6 402.9 405.9 406.7 416.6 421.4 427 433.8 447.5 459.9 465.4 484.1 500.4 512.7 516.6 525.2 513.4 496.8 473.5 455.9 435.1 421.9 394.6 370.4 358.7 350.2 329.9 312.1 293.7 279.6 268 264.7 260.1 257.8 251.9 250.3 235.7 219.9 216.1 206.8 189.9 185.9 179.8 167.9 158 147.7 138.8 124 105.2 95.7 79.5 67.1 50.6 39.3 29.2 15.1 19.4 23.3 29.3 37.8 39.1 53.4 60.7 67.2 76.4 84.7 91.4 99.6 110.4 125.3 136 138.9 145.5 152.2 163.5 171.7 179.3 200.3 215.2 222.7 225.5 227.2 245.4 255.1 266.2 278.4 290.5 303.8 315.7 328.2 341.3 358.2 378.2 387.7 397.6 410.7 415.2 426.3 439 443.5 445.3 437.9 435.9 427.9 425 413.7 402.5 384.1 302.5 255.6 207.8 172.8 137.6 103.5 70.4 48.6 34.2 20.7 9.5 8.8 8.4 8.1 8.1 8.3 8.6 23.8 45.4 66.7 88.9 115.7 139.5 172.4 210.4 237.9 260.7 291.4 313.4 300.1 263.6 221.4 199.2 180.8 151.8 118.6 76.2 27.1 4.8 1.6 -1.3 -1.3 -1.3 -1.3 -1.3 -1.3 -1.3 -1.3 -1.3 -1.3 -1.3 -1.3 -1.3 -1.3 -1.3 -1.3 -1.3 -1.3 -1.3 -1.3 -1.3 -1.3 -1.3 -1.3 -1.3 -1.3 -1.3 -1.3 -1.3 -1.3 -1.3 -1.3 -1.3 -1.3 -1.3 -1.3 -1.3 -1.3
487.9 481.5 474 468.9 462.5 450.1 438 425.8 423.7 419.9 416.4 409.1 408.5 412.2 413.7 423.1 433 435.7 443.2 448.9 452.3 461.7 470.4 481.7 489.8 501.8 511.1 512.3 519.4 525.1 529.7 524.1 513.8 500 471.6 446.3 421.7 402.3 401.2 389.3 363.2 339.2 313.5 290.3 271 254.1 254.9 248.5 239.9 232.3 224.6 208.3 199.3 185.3 179.7 165.3 155.8 145.3 135 127.2 120.8 112.5 105.5 92.2 75.3 63.3 53.7 40.6 29.5 19.5 14.2 16.8 23.6 29.4 41.8 49.9 55.6 58.7 67.5 75 80.7 81.8 95.9 104.6 113.3 124.1 122.3 129.4 136.2 145.9 155 173.5 188.6 195.2 197.3 199.8 222.1 229.2 237 248.8 262.6 280.2 291.9 301.3 311.9 326 341.7 356.4 370.8 382.3 394 405.3 417.6 417.3 420.5 421.6 421.7 411.3 407.6 400.9 384.3 330 275.2 233.8 193.8 161 122.4 88.6 65.8 45.4 29.2 16.8 8.6 8.1 7.6 7.3 7.8 7.3 17.1 31.9 53.9 75.7 99.8 129.4 148.9 182.1 220.2 240.4 264.8 287.5 296 272.6 234.1 198.4 176.1 152.2 128.6 83.4 45 2.7 -1.3 -1.3 -1.3 -1.3 -1.3 -1.3 -1.3 -1.3 -1.3 -1.3 -1.3 -1.3 -1.3 -1.3 -1.3 -1.3 -1.3 -1.3 -1.3 -1.3 -1.3 -1.3 -1.3 -1.3 -1.3 -1.3 -1.3 -1.3 -1.3 -1.3 -1.3 -1.3 -1.3 -1.3 -1.3 -1.3 -1.3 -1.3 -1.3 -1.3
505.4 502.2 489.1 478.2 469.5 459.2 446.9 438.1 439.2 430.9 427.9 421.9 430.6 435 429.2 440.1 445.9 454 466 478.5 487.1 490.6 494.7 499.9 507.5 512.8 525.7 532.7 533.7 529 524.2 520.3 516.5 511 495.2 471.8 450.6 431.1 422.6 403.7 383.6 356.7 336.3 312.1 288.8 269.3 242.4 233.8 223.4 223.2 210.5 198.2 180.2 174.2 166.3 152.1 142.6 134.4 120.9 109 101.5 91.3 89.7 87.3 70.9 59.7 50.6 39.7 27.1 18.5 11.3 11.5 15.7 22.4 43.1 48.6 50.9 55.1 59.9 67.3 73.9 72.4 80.1 89.8 93.9 94.7 99.3 104.5 112.7 122.7 131.6 147.3 160.2 166.6 174 177.8 189.7 201.9 211.1 225.7 239.4 255.4 263.9 276.3 285 299.2 313.2 326.6 343.3 358.8 370.9 384.4 391.3 395.5 399.5 400.5 401.4 395.8 388.9 382.7 352 312.3 269.9 227.5 189.2 152 117.5 84.5 60 39 24.9 14.4 8.4 7.6 7 6.7 7.1 14.8 27.5 41.3 61 82 110.3 136.8 162.1 196.7 226.1 243.4 266.2 266.4 267 249.8 208 169 148.9 123.4 90.2 44.6 5.8 -1.3 -1.3 -1.3 -1.3 -1.3 -1.3 -1.3 -1.3 -1.3 -1.3 -1.3 -1.3 -1.3 -1.3 -1.3 -1.3 -1.3 -1.3 -1.3 -1.3 -1.3 -1.3 -1.3 -1.3 -1.3 -1.3 -1.3 -1.3 -1.3 -1.3 -1.3 -1.3 -1.3 -1.3 -1.3 -1.3 -1.3 -1.3 -1.3 -1.3 -1.3
515.5 516.9 500.7 490.4 477 466.4 458.8 448.2 455.5 446.2 439.7 438.3 446.1 458.4 452.3 458.7 465.9 470.3 477.5 489.3 502.1 509.2 509.5 516.6 514.6 514.2 520.8 526 529.2 528.9 525 512 504.1 497.1 491.8 482.5 465.6 451.5 433.7 408.1 377.6 348.8 324.7 303.5 286.2 270.7 250 229 205.7 198.9 191.4 181.3 168.8 156.4 152.1 139.1 128.5 111.6 107.6 92.9 79.5 74.1 72.5 70.1 66.9 60.1 48 36.5 27.4 19.8 15.3 10.1 10.7 22.3 39.6 51.8 57.3 53.5 54.3 56 62 62.9 66.3 70.3 74.6 78.2 82 87.6 91.1 96.1 106.8 118.8 131.6 142.6 149.5 155.1 160.1 174.1 190.3 202.8 219.1 228.5 239.1 251.3 261 270.7 282.6 297.9 313.7 331.7 345.6 355.9 363.4 373.1 379 385.2 386.4 377.5 369.5 363.2 343.1 304.3 269.9 222.1 183 152.9 116.9 78.1 52.9 34.2 20.6 12.3 9.1 7.6 6.4 7 7.1 18.9 35.1 49.4 68.2 90.5 119.7 148.5 170.3 204.3 231 241.1 252.7 260.3 242.6 223.1 177.5 142.2 124.6 100.3 71 12 -1.3 -1.3 -1.3 -1.3 -1.3 -1.3 -1.3 -1.3 -1.3 -1.3 -1.3 -1.3 -1.3 -1.3 -1.3 -1.3 -1.3 -1.3 -1.3 -1.3 -1.3 -1.3 -1.3 -1.3 -1.3 -1.3 -1.3 -1.3 -1.3 -1.3 -1.3 -1.3 -1.3 -1.3 -1.3 -1.3 -1.3 -1.3 -1.3 -1.3 -1.3 -1.3
520.6 518.9 509.9 498.9 490.7 479.5 472.7 466.3 466.9 463.3 458.8 456.5 459.4 467 470.5 475.8 480.1 485.1 494.8 497.8 511.4 526.3 529.1 531.9 526.9 519 519.9 525.6 526.8 525.1 523.1 509.9 488.9 478.9 467.4 458 452.9 446.7 427.5 402.1 378.9 351.5 320.6 297.2 284.9 258.7 241.3 222.6 204.8 184.9 163.4 152.6 144.3 132.6 126.7 119.3 115.2 104.2 86.1 81.3 67.9 58.4 57.7 56.1 54.5 50.5 42.8 31.9 25.4 18.9 13.4 9.6 10.6 16.9 30.5 41.5 50.7 52.1 50 50.3 51.5 51.4 57 59.8 59.6 61.1 63.9 68.4 75.4 80.1 87.6 100 108.6 114.1 123.3 126.9 139 158 173.6 187 195.5 202.7 213.4 221 230.8 241.1 254.2 270.1 285.9 297.5 313.2 326.9 339.4 348.8 361.4 366.5 365.3 362.7 351 336.7 318 287.7 249.4 205.7 173.9 139.9 103.1 73.3 49.9 32.3 20 12.8 9.5 7.6 6.1 5.6 12.1 26.1 45.6 64.5 79.4 103.4 126.8 158.9 187.5 209.6 226.6 229.8 238.8 239.9 224.5 175.4 137.5 123.3 107.2 82.5 31.5 -1.3 -1.3 -1.3 -1.3 -1.3 -1.3 -1.3 -1.3 -1.3 -1.3 -1.3 -1.3 -1.3 -1.3 -1.3 -1.3 -1.3 -1.3 -1.3 -1.3 -1.3 -1.3 -1.3 -1.3 -1.3 -1.3 -1.3 -1.3 -1.3 -1.3 -1.3 -1.3 -1.3 -1.3 -1.3 -1.3 -1.3 -1.3 -1.3 -1.3 -1.3 -1.3 -1.3
528 528.1 519 511.7 505.8 498.1 494.2 486 490.7 482.4 476.8 475.2 472.4 476.5 480.9 487.1 493.5 503.8 509.4 513.4 516 528.2 531.3 531.8 530.6 526.7 520.9 521.6 519.3 512.3 500.7 489 473.6 457.4 443 433.6 417.3 406.2 399.3 385.6 361.2 338.8 310.9 289.1 269.3 249.1 230.1 209.3 188 169 151.1 129 117.6 105.3 102.8 101.6 98.3 93.8 77.3 65.3 58.9 49.4 43.3 41.7 42.2 40 35.3 29.3 22.4 17 12.5 9 13 14.4 23.6 36.7 43.9 49.3 50 46.5 46.7 45.7 49.4 54.1 50.9 48.8 49.7 51.4 58.4 66.6 74 78.7 86.5 90.8 98 104.7 118.8 137.2 151.3 164.9 177.7 185.9 192.2 202.1 212.7 219.9 236.1 250.8 259.8 270.2 282.9 299.7 315.8 322.4 338.2 341.5 347.4 344.9 332.3 293.9 284.7 271.1 241.5 196.9 151.3 114.8 87.1 59.3 47.3 31.1 14 9.5 6.7 6.1 5.3 10.7 20.4 35 59.3 76.9 92 111.2 131.5 164 198.5 218.4 227 213 214 202.7 179.7 147.2 119 100.9 75.6 32.8 5.4 -1.3 -1.3 -1.3 -1.3 -1.3 -1.3 -1.3 -1.3 -1.3 -1.3 -1.3 -1.3 -1.3 -1.3 -1.3 -1.3 -1.3 -1.3 -1.3 -1.3 -1.3 -1.3 -1.3 -1.3 -1.3 -1.3 -1.3 -1.3 -1.3 -1.3 -1.3 -1.3 -1.3 -1.3 -1.3 -1.3 -1.3 -1.3 -1.3 -1.3 -1.3 -1.3 -1.3
540.6 546.9 534.7 528.4 521.4 511.3 502.3 498.7 511.3 507 497.9 490.7 481.9 481.7 485.6 491.8 496.7 506.6 513.1 520.3 528.4 530.6 532.1 529.5 526.5 524.6 515.1 507.3 498 484 469.8 458.8 445.4 437.4 414.5 404.1 391 375.6 360.5 350.1 331.4 311.3 290.3 270.9 249.8 229.7 214.2 194.6 176.9 151.9 131.9 111.8 97.2 90.2 80.9 79 76.9 72.8 64.4 49.3 43.2 38.7 33.7 31.7 30 32.9 29 25.6 18.8 14.8 9.6 7.6 14.4 13.6 14.4 26.4 37.9 41 45.2 40 40.8 40.2 37.1 40.2 41.6 41.1 40.6 40.2 47.7 51.2 60.7 65.1 63.8 68.4 75.2 84.6 97.2 114 127.3 140.3 152.8 164.3 169.4 178.2 188.4 199.5 214 230 241.6 247.7 259.7 271.3 282.8 293.6 305.5 317.3 325.1 325.6 315.8 285.3 234.3 226.9 200.3 163.4 131 94.9 66.2 43.8 31 14 10.9 6.8 5.6 9.3 10.6 11.6 30.7 42.9 73.3 91.2 106.1 124.1 139.2 164.1 189.9 209.6 215.7 188.1 185.2 161.7 143.6 114.6 96.8 73.2 32.4 3.2 -1.3 -1.3 -1.3 -1.3 -1.3 -1.3 -1.3 -1.3 -1.3 -1.3 -1.3 -1.3 -1.3 -1.3 -1.3 -1.3 -1.3 -1.3 -1.3 -1.3 -1.3 -1.3 -1.3 -1.3 -1.3 -1.3 -1.3 -1.3 -1.3 -1.3 -1.3 -1.3 -1.3 -1.3 -1.3 -1.3 -1.3 -1.3 -1.3 -1.3 -1.3 -1.3 -1.3 -1.3
546.7 553.7 556.1 552.8 546.8 538.2 524.4 512.1 521.1 520.1 514.4 502.3 497.8 494.1 487.8 494.1 500.8 512.3 520.6 523.4 526.2 520.9 514.3 510.3 512.4 506.7 494.6 480.1 465.4 451.1 436.5 423.7 409.1 404.1 388.5 372.7 363.2 353.6 334.5 314.4 299.3 283.6 268.9 252.5 232.9 213.6 190.5 173.3 150.7 131.5 109.1 94.9 78.6 71.4 62.9 53.3 48.6 42.5 39.2 34.6 27.9 28 25.1 24.2 22.1 21.6 23 20.2 15.8 11.4 7 7.6 10.4 11.5 12.2 15.9 23.2 26.6 30.7 31.8 34.3 37.8 35.7 34.1 31.3 34.3 36.9 34.5 30.4 34.6 41.4 45.2 47.2 52.7 57.9 66.3 78.4 91.6 103.8 118 128 140.6 153.6 163.7 174.2 176.8 187.7 201.1 213.2 222.8 233.5 242.5 254 262.6 275 292.3 298.9 297.4 297.7 281.7 246.9 186.8 166.9 138.1 103.8 75.1 52.3 32.5 18.2 9.1 8.7 6.5 7.3 8.8 10.5 15.2 31.7 48.7 73.9 102.4 121.8 135.1 151.8 180.8 196.4 201.7 200.7 167 158.1 129.8 109.6 93.1 64.6 16.6 -1.3 -1.3 -1.3 -1.3 -1.3 -1.3 -1.3 -1.3 -1.3 -1.3 -1.3 -1.3 -1.3 -1.3 -1.3 -1.3 -1.3 -1.3 -1.3 -1.3 -1.3 -1.3 -1.3 -1.3 -1.3 -1.3 -1.3 -1.3 -1.3 -1.3 -1.3 -1.3 -1.3 -1.3 -1.3 -1.3 -1.3 -1.3 -1.3 -1.3 -1.3 -1.3 -1.3 -1.3 -1.3 -1.3
548.8 548.9 550.9 554.2 551.3 550.8 540.8 525.9 527.2 523.7 521.8 511.8 511.1 503 496 498.2 494.3 496.6 503.3 504.9 499.1 486.2 478 477.1 479.8 473.7 462.8 449.8 432.4 415.8 402.7 392.6 377 367.2 359.5 347.4 332.6 326.1 309.8 291.1 270.4 257.7 243.5 230.6 212.8 194.8 176.5 153.6 134.6 118.3 93.3 75.4 61.7 51.9 43.8 36.7 30.3 25.9 21.8 19.3 16.8 18.1 17.9 16.1 14.3 14.4 16.5 12.5 11.5 8.1 5.3 6.9 7 7.2 8.6 10.1 13 19.4 20.7 25.9 29.6 33.7 39.1 38.7 37.8 30.6 27.5 26.4 23.7 24.3 28.4 30.7 34.2 42 42.5 51.8 59.9 67.1 75.2 87.4 101.3 113 131.5 147.2 148.7 154.2 159.8 171.2 183.6 198.3 210.8 219.9 228.7 239.5 247 257.4 267.4 272.2 272.8 266.2 240.1 190.1 148.6 111.5 86.3 59.5 38.1 25.3 13.6 8.6 7.2 4.5 6.8 7.9 8.8 17.5 34.6 56.2 76.2 99.7 121.9 141.7 165.5 190.3 191.6 193.5 184.5 148.8 128.7 109 84.1 53.1 13.6 -1.3 -1.3 -1.3 -1.3 -1.3 -1.3 -1.3 -1.3 -1.3 -1.3 -1.3 -1.3 -1.3 -1.3 -1.3 -1.3 -1.3 -1.3 -1.3 -1.3 -1.3 -1.3 -1.3 -1.3 -1.3 -1.3 -1.3 -1.3 -1.3 -1.3 -1.3 -1.3 -1.3 -1.3 -1.3 -1.3 -1.3 -1.3 -1.3 -1.3 -1.3 -1.3 -1.3 -1.3 -1.3 -1.3 -1.3
546.1 547.5 551.1 546.6 547.4 550.4 538.1 532.4 531.6 527.3 519.2 507.7 498.6 493.4 493.1 487.8 481.7 472.3 469.9 463.8 458.1 448 441.6 442.7 449.1 445.4 435.2 419.6 399.2 383.7 374.9 366.5 356.2 344.5 336.6 325 309.5 295.3 286.1 271.8 250.5 233.4 222.6 208.7 194.5 175 156.8 142.2 120.1 99 80.7 62.7 50.5 43.6 34.1 27.2 22.6 18 15.3 13.3 12.2 10.9 10.9 9.7 9.2 9.4 11.9 10.6 9.5 5.8 5.3 5.4 5.4 5.2 5 7.1 8.5 8.8 11 18.2 24.9 27.1 33.6 39.6 42.7 39.1 30.3 20.7 15 13.1 16 21.1 24.7 30.6 32.4 35.1 41.9 43.5 51.7 61.5 71.9 83.6 99.4 111.2 123.6 131 136.8 146.3 154.8 174.6 186.7 198.2 210.2 217.6 218.6 225.7 235.5 242.4 244.9 234.4 206.6 176.3 143.3 110.8 74.4 48.3 28.9 13.5 8.6 6.7 4.8 5.2 6.9 6.8 9.7 24.4 39.7 63.8 95.7 113.7 131.9 143.5 166.6 185.8 176.2 174.8 153.8 121.4 95 78.6 56.8 24.2 -1.3 -1.3 -1.3 -1.3 -1.3 -1.3 -1.3 -1.3 -1.3 -1.3 -1.3 -1.3 -1.3 -1.3 -1.3 -1.3 -1.3 -1.3 -1.3 -1.3 -1.3 -1.3 -1.3 -1.3 -1.3 -1.3 -1.3 -1.3 -1.3 -1.3 -1.3 -1.3 -1.3 -1.3 -1.3 -1.3 -1.3 -1.3 -1.3 -1.3 -1.3 -1.3 -1.3 -1.3 -1.3 -1.3 -1.3 -1.3
560 551.7 547.7 547 544.9 541.3 535.7 534.8 533.9 525.5 513.1 503 483.2 471.1 473.3 463.3 450.3 444 438.2 428.7 420.5 409.8 402.4 402 413.7 412.7 403.6 391 373.2 357 349.7 339.5 329.2 319.5 312.9 297.4 280.2 264.8 258.3 247.9 229.4 205.9 194.8 183.9 166.5 150 134.3 122 109 94.7 71.6 51.9 41.1 31.4 25.9 20.7 18.2 15.7 12.1 9.9 7.3 8.3 7.1 6.7 6.1 5.6 8.1 9.3 8.2 5.2 4.6 4.3 3.4 4.3 4.2 2.1 3.8 5.5 6.1 9.1 13.3 19.4 28.4 33.5 36 37.8 32 23.6 13.8 10.7 10.6 11.1 15.6 20.5 24.1 24.6 27.2 29.8 35.1 41.5 50.4 57.6 68.3 85.3 92.9 104.7 113.5 123.4 134.3 143.8 159.6 176.1 185.3 196.2 202.4 202.5 209.8 212 213.6 204 185.1 160.4 131.5 95.8 63.2 41.9 22.3 9.3 7.8 6.1 3.4 5.1 7.3 8.4 11.3 23.3 39.5 66.2 91.1 119 133.5 156.2 168.4 166.3 157.7 148.5 114.7 92.3 61.2 26.8 6.4 -1.3 -1.3 -1.3 -1.3 -1.3 -1.3 -1.3 -1.3 -1.3 -1.3 -1.3 -1.3 -1.3 -1.3 -1.3 -1.3 -1.3 -1.3 -1.3 -1.3 -1.3 -1.3 -1.3 -1.3 -1.3 -1.3 -1.3 -1.3 -1.3 -1.3 -1.3 -1.3 -1.3 -1.3 -1.3 -1.3 -1.3 -1.3 -1.3 -1.3 -1.3 -1.3 -1.3 -1.3 -1.3 -1.3 -1.3 -1.3 -1.3
576.7 569.8 558.2 552.6 551.5 543.3 535.9 523.6 521.9 508.9 496.1 483.4 461.4 449 442.6 430.5 423 415.8 410 405.3 395.9 384.1 371 366.1 373.5 373.5 367.4 365.1 345 328 315.7 305.9 296.4 285.2 274.7 262.3 249.5 235.2 225.8 217.2 204.3 187.2 166.3 156.4 141.4 123.9 110.2 95.1 80.3 64.9 51.9 36.7 28.6 22.9 16.6 15.3 13 10.1 9.3 8.5 8.2 7.7 7.1 6.5 6 5.5 6.1 7.1 7.3 4.8 6.2 5.5 4.7 4.3 3.4 2.9 2.4 -1.3 3 2.4 2.9 7.7 14.1 25.2 19.7 20.2 20.1 13.3 7.7 4.9 5.9 6.3 8.5 12.2 15.3 16.8 20.6 19.7 20.1 24.7 34 42.1 50.1 58.3 66.9 79.7 90.1 97 108.4 123.2 138.4 149.2 162 173.9 181.9 186.6 175.5 180.2 183.8 177.9 162.4 144.1 124.3 98.1 65.2 37.8 15.9 5.7 4.6 3.4 4.6 6.5 6.5 8.4 10.7 20.5 35.1 57.7 84.6 110.3 135.8 152.9 158.4 146.2 131.1 117.1 89.3 61.3 33.6 5.9 -1.3 -1.3 -1.3 -1.3 -1.3 -1.3 -1.3 -1.3 -1.3 -1.3 -1.3 -1.3 -1.3 -1.3 -1.3 -1.3 -1.3 -1.3 -1.3 -1.3 -1.3 -1.3 -1.3 -1.3 -1.3 -1.3 -1.3 -1.3 -1.3 -1.3 -1.3 -1.3 -1.3 -1.3 -1.3 -1.3 -1.3 -1.3 -1.3 -1.3 -1.3 -1.3 -1.3 -1.3 -1.3 -1.3 -1.3 -1.3 -1.3 -1.3
591.6 584.1 579.2 569.1 568.8 559.3 545.2 530.9 502.3 488.2 481.8 469.8 449.1 432.5 421.9 408.3 401 396 387.9 378 367.4 356.9 342.6 331.6 324 324.7 325 318.4 309 293.8 287.4 276.2 264 253.8 240.9 227.3 220.7 218.6 200.6 186.1 174 162.6 147.6 124.5 111.2 99.4 88.7 73.5 56.9 43.3 32.3 25.6 19.2 15.6 13.7 12.5 11.1 10.5 9.7 9.4 8.1 7.7 7.5 6.2 6.2 5.2 4.5 5.5 6.3 7.1 6.9 5.2 4.2 3.6 2.7 2.4 2.4 -1.3 -1.3 0.5 -1.3 -1.3 1.8 2.4 2.4 8.2 12.4 7.2 3 2.4 2 2.2 3.2 6.5 8.5 11.1 16.6 14.1 13.5 14.7 19.9 29.9 36.8 39.4 49.1 58.8 67.2 72.7 82.5 96.7 112.7 123.8 134.9 148.6 160.6 164.4 159.9 148.4 146.2 154.4 152.4 135.9 119 93.1 60 33.7 8.9 4.1 4 3.7 4.3 5.4 6.6 8.9 10.8 16.6 31.1 49.4 78.9 106.9 122.9 143.3 145.3 133 119.3 90 59.3 39.5 10 -1.3 -1.3 -1.3 -1.3 -1.3 -1.3 -1.3 -1.3 -1.3 -1.3 -1.3 -1.3 -1.3 -1.3 -1.3 -1.3 -1.3 -1.3 -1.3 -1.3 -1.3 -1.3 -1.3 -1.3 -1.3 -1.3 -1.3 -1.3 -1.3 -1.3 -1.3 -1.3 -1.3 -1.3 -1.3 -1.3 -1.3 -1.3 -1.3 -1.3 -1.3 -1.3 -1.3 -1.3 -1.3 -1.3 -1.3 -1.3 -1.3 -1.3 -1.3
600.9 597.6 591.2 576.4 564.3 553.5 543.7 522.5 496.2 462.9 458.7 452 423.6 411.6 400.2 391.4 379.5 376 367.8 357.1 342.4 326.9 311.3 300.4 290.2 285.9 283.8 287.6 279 268 261.2 252.3 241.9 228.6 216.4 202.2 195.4 188.9 174.3 162.2 144.6 131.9 114.7 103.4 87.5 74.7 66.2 54.2 39.9 30.3 21.9 15.9 14.7 14.4 13.1 11.9 11.4 11.2 10.6 10 9.1 8.3 7.6 6.9 5.7 5.6 5 5 4.7 4.2 5.2 3.4 3.5 2.6 2.4 2.4 1.4 0.1 -1.3 -1.3 -1.3 -1.3 -1.3 1.3 1.3 1.7 1.9 1.4 0.6 -1.3 -1.3 -1.3 -1.3 -1.3 3.7 5.4 8 9.1 7.9 8.4 10.2 16.2 20.6 28.4 35.9 44.3 48.8 53.3 63.6 76.7 89.9 105.4 116.8 131.9 139.5 142.4 140.8 132.2 122.1 127.9 131.1 128.1 110.8 82.8 54.1 26.3 6.7 3.1 2.9 3.4 3.4 4.2 6.5 10.7 14.6 16.2 34.7 51.3 72.2 101 119.3 124.6 120.7 113.7 91.6 68 42.1 8.2 -1.3 -1.3 -1.3 -1.3 -1.3 -1.3 -1.3 -1.3 -1.3 -1.3 -1.3 -1.3 -1.3 -1.3 -1.3 -1.3 -1.3 -1.3 -1.3 -1.3 -1.3 -1.3 -1.3 -1.3 -1.3 -1.3 -1.3 -1.3 -1.3 -1.3 -1.3 -1.3 -1.3 -1.3 -1.3 -1.3 -1.3 -1.3 -1.3 -1.3 -1.3 -1.3 -1.3 -1.3 -1.3 -1.3 -1.3 -1.3 -1.3 -1.3 -1.3 -1.3
602.7 598.5 591.9 573.7 554.5 534.8 516.7 494.4 465.4 439.7 427.1 409.3 393.2 383.6 376.4 365.5 357.5 350 340 327.1 313.4 300.5 287.3 276.7 261.4 252.9 249.5 249.2 245.3 241.3 236.6 228.7 219.8 206.8 196.7 183.6 172 158.6 146.5 132.1 117 103.5 89.6 77.5 67.2 55.7 47.2 40.2 29.2 22.4 17.3 16.1 15.3 14.8 13.7 12.6 12.1 10.9 10.6 9.3 9.1 8.2 7.7 7.4 6.6 5.5 4.5 3.7 3.6 3.9 2.8 2.4 -1.3 -1.3 2.4 1.4 1.1 -0.3 -1.3 -1.3 -1.3 -1.3 -1.3 -1.3 -1.3 -1.3 -1.3 -1.3 -1.3 -1.3 -1.3 -1.3 -1.3 -1.3 -1.3 -1.3 1.6 1.9 1.5 1.9 2.8 5.1 9.8 15.2 24.9 31 34.3 37.7 45.8 59.1 72.4 84.1 101.3 119.3 124.3 117.9 116.7 113.9 104 96 97.6 97.6 89.5 69.9 47.5 16.4 -1.3 2.4 2.4 2.5 3.4 2.4 5.6 11.8 16.7 19.3 32 48 66.1 92.1 111.8 114.5 109.1 95.1 75.7 50.9 19 -1.3 -1.3 -1.3 -1.3 -1.3 -1.3 -1.3 -1.3 -1.3 -1.3 -1.3 -1.3 -1.3 -1.3 -1.3 -1.3 -1.3 -1.3 -1.3 -1.3 -1.3 -1.3 -1.3 -1.3 -1.3 -1.3 -1.3 -1.3 -1.3 -1.3 -1.3 -1.3 -1.3 -1.3 -1.3 -1.3 -1.3 -1.3 -1.3 -1.3 -1.3 -1.3 -1.3 -1.3 -1.3 -1.3 -1.3 -1.3 -1.3 -1.3 -1.3 -1.3 -1.3
599.5 593.3 576.3 553.7 532.4 511.1 488.5 469.8 450.1 428.2 391.5 388.4 375.1 361 350.9 337.8 329 319.2 306.2 295.2 283.5 270.6 259.8 247.1 236.2 229 221.7 222 220.1 216 210.3 205.7 198.7 189.6 175.3 162 147.3 135.2 124.3 111.8 97.6 83.8 69.3 58.3 49.3 42 37.4 28.7 22.3 18 17.5 16.5 15.6 15.1 14.4 13.1 12.4 11.9 10.9 10.2 9.3 8.8 8.1 8.2 7.7 6.4 5.5 4.9 3.9 4.2 3.3 2.5 -1.3 -1.3 -1.3 0.2 0.7 -0.7 -1.3 -1.3 -1.3 -1.3 -1.3 -1.3 -1.3 -1.3 -1.3 -1.3 -1.3 -1.3 -1.3 -1.3 -1.3 -1.3 -1.3 -1.3 -1.3 -1.3 -1.3 -1.3 -1.3 -1.3 -1.3 5.2 13.8 17.2 20 21.8 29.8 40.2 52 62.7 77.3 104.5 109.9 105.2 98.7 95.1 89.9 80.8 74.9 70.1 62.2 50.9 30.2 9.1 -1.3 2.4 2.4 3.2 2.8 3.2 6.8 12.7 16.7 21 28.7 43.3 64.9 80.1 95.2 95.8 89.8 66 43.3 26.4 -1.3 -1.3 -1.3 -1.3 -1.3 -1.3 -1.3 -1.3 -1.3 -1.3 -1.3 -1.3 -1.3 -1.3 -1.3 -1.3 -1.3 -1.3 -1.3 -1.3 -1.3 -1.3 -1.3 -1.3 -1.3 -1.3 -1.3 -1.3 -1.3 -1.3 -1.3 -1.3 -1.3 -1.3 -1.3 -1.3 -1.3 -1.3 -1.3 -1.3 -1.3 -1.3 -1.3 -1.3 -1.3 -1.3 -1.3 -1.3 -1.3 -1.3 -1.3 -1.3 -1.3 -1.3
590.8 581.4 557.8 538.5 514.5 493.8 465.2 447.5 432.2 414.5 394.2 359.2 354.3 341.6 328.6 316.1 299.1 291.4 278.7 264.7 253 242.4 231.7 221.8 211.9 208.9 202.6 199.3 196.6 196.2 191.7 189.5 183.4 171.2 157.7 143.9 132 119.2 105.4 89.1 76.3 64.9 55.1 45.9 39.1 34.3 31.2 26.2 22.4 19.4 18 17.1 16.6 16 15 13.9 13 12.2 12.3 10.6 10.2 11.4 9 8.7 9 7 5.7 4.7 5 3.8 3.8 3.2 2.4 0.4 -1.3 -1.3 -0.4 -1.1 -1.3 -1.3 -1.3 -1.3 -1.3 -1.3 -1.3 -1.3 -1.3 -1.3 -1.3 -1.3 -1.3 -1.3 -1.3 -1.3 -1.3 -1.3 -1.3 -1.3 -1.3 -1.3 -1.3 -1.3 -1.3 -1.3 -1.3 -1.3 4.9 8.2 14.5 27.1 36.1 44.6 56.8 68.7 85.4 88.1 88.9 85.8 80.7 69.7 58.2 51.2 33.8 21.6 10.1 -1.3 -1.3 -1.3 -1.3 -1.3 2.1 7.2 7.2 12.6 16.3 19.4 26.6 48.4 72.1 85.8 89.4 74 67.4 42.1 17.7 4 -1.3 -1.3 -1.3 -1.3 -1.3 -1.3 -1.3 -1.3 -1.3 -1.3 -1.3 -1.3 -1.3 -1.3 -1.3 -1.3 -1.3 -1.3 -1.3 -1.3 -1.3 -1.3 -1.3 -1.3 -1.3 -1.3 -1.3 -1.3 -1.3 -1.3 -1.3 -1.3 -1.3 -1.3 -1.3 -1.3 -1.3 -1.3 -1.3 -1.3 -1.3 -1.3 -1.3 -1.3 -1.3 -1.3 -1.3 -1.3 -1.3 -1.3 -1.3 -1.3 -1.3 -1.3
577 550.3 527.5 512 492.1 470.3 449.5 433.4 418.4 401.4 382.1 359.9 339.4 315.9 305.1 292.5 276.8 265.4 252.5 240.1 226.2 215.2 205.1 195.7 188.8 184.4 182.5 179.1 175.7 173.2 170.5 168.3 161.2 151.6 140.5 130.2 117 104.9 91.2 78.2 66.1 57.6 48.4 42.2 38.2 33.8 28.7 24.2 21.7 20.7 19.7 18.3 17.5 16.5 15.6 13.7 13.2 13 11.7 10.5 10.9 12.4 9.8 7.1 6.6 6.7 6.6 5.1 5.4 4 4.2 3.5 2.9 1.4 0.2 -1.3 -1.3 -1.3 -1.3 -1.3 -1.3 -1.3 -1.3 -1.3 -1.3 -1.3 -1.3 -1.3 -1.3 -1.3 -1.3 -1.3 -1.3 -1.3 -1.3 -1.3 -1.3 -1.3 -1.3 -1.3 -1.3 -1.3 -1.3 -1.3 -1.3 -1.3 -1.3 -1.3 5.6 12.5 24.7 35.2 40.9 52 60.7 67.8 74.3 78.8 75.8 55.8 36.9 23.4 14.3 7.5 -1.3 -1.3 3.4 4.3 -1.3 3.7 3.5 5.5 9.5 10.9 15.6 15.6 22.1 34.8 63 83.6 82.8 57.2 45.9 26.5 8.6 -1.3 -1.3 -1.3 -1.3 -1.3 -1.3 -1.3 -1.3 -1.3 -1.3 -1.3 -1.3 -1.3 -1.3 -1.3 -1.3 -1.3 -1.3 -1.3 -1.3 -1.3 -1.3 -1.3 -1.3 -1.3 -1.3 -1.3 -1.3 -1.3 -1.3 -1.3 -1.3 -1.3 -1.3 -1.3 -1.3 -1.3 -1.3 -1.3 -1.3 -1.3 -1.3 -1.3 -1.3 -1.3 -1.3 -1.3 -1.3 -1.3 -1.3 -1.3 -1.3 -1.3 -1.3 -1.3
558.9 525.5 506.5 483.7 465.9 450.7 436.2 421.3 406.5 389.1 368 343.5 321.8 304.4 287.7 271.5 254.9 242.8 231.4 221 210 199.3 190.8 180.2 172.9 166.1 160.9 154.9 153 153.2 151.1 149.3 143.1 136.3 127.1 118.5 107.9 94.7 81.9 72.1 69.7 54.6 43.4 38.6 35.1 32.4 27.2 24.1 22.4 21.6 21 17.9 15.7 14.6 14.8 13.5 13 11.8 10.7 9.6 9.4 8.6 8.5 7 6.1 6.9 6.9 7.2 5.5 4.8 4.6 3.9 3.5 2.3 1.9 1.4 1.7 -1.3 0 0 -1.3 -1.3 -1.3 -1.3 -1.3 -1.3 -1.3 -1.3 -1.3 -1.3 -1.3 -1.3 -1.3 -1.3 -1.3 -1.3 -1.3 -1.3 -1.3 -1.3 -1.3 -1.3 -1.3 -1.3 -1.3 -1.3 -1.3 -1.3 -1.3 -1.3 9.9 26.3 29.9 37 44.3 52.9 60.7 68.2 66.4 50.7 22.7 9.8 5.6 -1.3 -1.3 0.7 2.2 2 1.6 1.1 0.8 1.3 7.9 11.1 10 10.4 14.5 25.9 41.6 64 62.7 36.3 26.9 10.9 6.5 -1.3 -1.3 -1.3 -1.3 -1.3 -1.3 -1.3 -1.3 -1.3 -1.3 -1.3 -1.3 -1.3 -1.3 -1.3 -1.3 -1.3 -1.3 -1.3 -1.3 -1.3 -1.3 -1.3 -1.3 -1.3 -1.3 -1.3 -1.3 -1.3 -1.3 -1.3 -1.3 -1.3 -1.3 -1.3 -1.3 -1.3 -1.3 -1.3 -1.3 -1.3 -1.3 -1.3 -1.3 -1.3 -1.3 -1.3 -1.3 -1.3 -1.3 -1.3 -1.3 -1.3 -1.3 -1.3
541 520.1 493.7 468.4 453.9 440.4 426.6 411.3 391.3 370.4 348.3 325.5 306 289.2 274.9 257.7 245.4 230.4 215.5 208.7 197.2 189.3 179.6 170.6 161.5 153.1 147.2 137 134 134.4 130.5 125.4 123.5 119 114.3 106.1 100.3 86.9 75.4 66 57 46.1 40.3 36.1 32.9 28.7 26.6 24.2 22.7 21.4 20.5 18.7 17.1 15.9 14.6 13.8 12.1 11.3 10.9 10.6 10 8.9 8.3 10.8 11.1 13 17.9 16.6 8.6 5.9 5 4.3 3.8 2.4 2.4 2.4 3.7 -1.3 1.7 1.5 0.7 -0.4 -1.3 -1.3 -1.3 -1.3 -1.3 -1.3 -1.3 -1.3 -1.3 -1.3 -1.3 -1.3 -1.3 -1.3 -1.3 -1.3 -1.3 -1.3 -1.3 -1.3 -1.3 -1.3 -1.3 -1.3 -1.3 -1.3 -1.3 -1.3 -1.3 7.2 16.8 24.2 31.7 38.7 45.6 51.4 51.7 38.8 15.5 6 1.7 -1.3 -1.3 0.3 1.3 0.6 0 -1.3 -1.3 -1.3 -1.3 3.3 2.4 3.8 7.2 18.3 30.2 43.3 38.6 10.5 9.2 6.7 1.7 -1.3 -1.3 -1.3 -1.3 -1.3 -1.3 -1.3 -1.3 -1.3 -1.3 -1.3 -1.3 -1.3 -1.3 -1.3 -1.3 -1.3 -1.3 -1.3 -1.3 -1.3 -1.3 -1.3 -1.3 -1.3 -1.3 -1.3 -1.3 -1.3 -1.3 -1.3 -1.3 -1.3 -1.3 -1.3 -1.3 -1.3 -1.3 -1.3 -1.3 -1.3 -1.3 -1.3 -1.3 -1.3 -1.3 -1.3 -1.3 -1.3 -1.3 -1.3 -1.3 -1.3 -1.3 -1.3
519.5 504.4 487.2 465.3 444.8 426.8 410.6 392.1 372.9 352.4 335.3 316 295.4 276.9 261.2 248.6 234.7 223.2 211.6 200.9 190.9 171.5 165.2 165.2 161.7 157 152.3 147.4 141.1 133.5 120.5 105.2 100.7 101.9 98 89.7 80.1 72 64.2 54 46.8 41.6 39.4 34.6 30.9 28.1 26.6 24.6 22.7 21.5 19.5 20 18.8 16.8 15.5 15.9 15.5 16.5 14.8 15.4 15.8 16 17.1 18.8 20.8 21.9 24.9 25.4 16.6 13.8 7.9 5.6 3.8 2.4 3 4.5 4.8 5.3 5.2 3.8 1.3 0.1 -1.3 -1.3 -1.3 -1.3 -1.3 -1.3 -1.3 -1.3 -1.3 -1.3 -1.3 -1.3 -1.3 -1.3 -1.3 -1.3 -1.3 -1.3 -1.3 -1.3 -1.3 -1.3 -1.3 -1.3 -1.3 -1.3 -1.3 -1.3 -1.3 -1.3 7.9 14.3 23.8 31.9 34.4 38.8 35.3 25.2 11.6 2.9 0.2 -1.3 -1.3 -0.7 0.4 -0.2 -1.3 -1.3 -1.3 -1.3 -1.3 -1.3 -1.3 -1.3 1.4 1.9 7.5 8.9 6.9 5.5 2.9 1.5 -1.3 -1.3 -1.3 -1.3 -1.3 -1.3 -1.3 -1.3 -1.3 -1.3 -1.3 -1.3 -1.3 -1.3 -1.3 -1.3 -1.3 -1.3 -1.3 -1.3 -1.3 -1.3 -1.3 -1.3 -1.3 -1.3 -1.3 -1.3 -1.3 -1.3 -1.3 -1.3 -1.3 -1.3 -1.3 -1.3 -1.3 -1.3 -1.3 -1.3 -1.3 -1.3 -1.3 -1.3 -1.3 -1.3 -1.3 -1.3 -1.3 -1.3 -1.3 -1.3 -1.3 -1.3 -1.3 -1.3
502.1 495.4 478.3 463.8 448.8 433.5 415.1 396.9 371.9 348.1 323.7 298.4 281.7 267.4 251.3 238.1 224.9 215.2 205.6 193.9 198.2 193 185.1 177.5 170.8 166.3 158.7 152.2 146.1 139.1 131.3 120.7 112.6 103 91.7 69.9 69.5 70.2 66 59.6 52.9 45.8 39.7 33.6 28.7 27.9 29.5 27.5 24.9 24.6 23.4 22.3 23.1 24.8 25.6 23.8 23.7 26.2 24.5 24.2 27 26.9 28.5 29.3 27.9 24.6 22.4 19.8 18.1 15.3 9.9 7.5 4.8 3.1 5.6 7.5 8.3 8.3 7.6 5.4 1.6 0 -1.3 -1.3 -1.3 -1.3 -1.3 -1.3 -1.3 -1.3 -1.3 -1.3 -1.3 -1.3 -1.3 -1.3 -1.3 -1.3 -1.3 -1.3 -1.3 -1.3 -1.3 -1.3 -1.3 -1.3 -1.3 -1.3 -1.3 -1.3 -1.3 -1.3 5.4 11.7 28.9 37.8 42.3 40 35 32.1 19 7.3 0.6 -1.3 -1.3 -1.3 -0.6 -1.3 -1.3 -1.3 -1.3 -1.3 -1.3 -1.3 -1.3 -1.3 -1.3 -1.3 0.5 0.9 0.8 0.6 0.3 -1.3 -1.3 -1.3 -1.3 -1.3 -1.3 -1.3 -1.3 -1.3 -1.3 -1.3 -1.3 -1.3 -1.3 -1.3 -1.3 -1.3 -1.3 -1.3 -1.3 -1.3 -1.3 -1.3 -1.3 -1.3 -1.3 -1.3 -1.3 -1.3 -1.3 -1.3 -1.3 -1.3 -1.3 -1.3 -1.3 -1.3 -1.3 -1.3 -1.3 -1.3 -1.3 -1.3 -1.3 -1.3 -1.3 -1.3 -1.3 -1.3 -1.3 -1.3 -1.3 -1.3 -1.3 -1.3 -1.3 -1.3
487.7 488.4 480.6 468.6 452.9 437.9 426.8 402 373.2 340.9 313.1 293.1 274.7 260.4 247.2 227.6 229.9 221.4 216.1 211.3 208.7 202.1 194.9 188.3 182.8 176.2 168.8 161.1 153.7 145.5 136.9 127.3 119.6 112.8 104.1 96.9 89.8 80.4 71.5 62.4 53.5 45.7 38.6 31.5 34.3 35 31.5 30.2 30.5 29.4 29.8 27.9 31 30 34.2 35.3 32.5 34 34.2 33.7 35.1 37.1 38.5 38.2 36.6 34.1 30.2 26.2 20.7 17.3 12.4 8.7 7.9 7.2 8.3 11 13.2 13.3 10.8 7.9 3.1 0.5 -1.3 -1.3 -1.3 -1.3 -1.3 -1.3 -1.3 -1.3 -1.3 -1.3 -1.3 -1.3 -1.3 -1.3 -1.3 -1.3 -1.3 -1.3 -1.3 -1.3 -1.3 -1.3 -1.3 -1.3 -1.3 -1.3 -1.3 -1.3 -1.3 -1.3 -1.3 15.4 32.3 51.6 68.3 62.9 45.8 46.3 37.7 16.4 3.9 -1.3 -1.3 -1.3 -1.3 -1.3 -1.3 -1.3 -1.3 -1.3 -1.3 -1.3 -1.3 -1.3 -1.3 -1.3 -1.3 -1.3 -1.3 -1.3 -1.3 -1.3 -1.3 -1.3 -1.3 -1.3 -1.3 -1.3 -1.3 -1.3 -1.3 -1.3 -1.3 -1.3 -1.3 -1.3 -1.3 -1.3 -1.3 -1.3 -1.3 -1.3 -1.3 -1.3 -1.3 -1.3 -1.3 -1.3 -1.3 -1.3 -1.3 -1.3 -1.3 -1.3 -1.3 -1.3 -1.3 -1.3 -1.3 -1.3 -1.3 -1.3 -1.3 -1.3 -1.3 -1.3 -1.3 -1.3 -1.3 -1.3 -1.3 -1.3 -1.3 -1.3 -1.3 -1.3 -1.3 -1.3
465.6 471.1 478 471.3 459.8 442.5 431.5 413.7 379 351.9 312.4 292.2 275.6 256.8 254.3 249.7 242.8 237.9 231.6 229.4 223 219.9 210.8 204.7 197.9 190.4 184.8 177 169.8 162 152.6 146.8 138.3 129.3 118 107.9 97 83.5 72.8 64.1 55 45.8 38.5 34.7 37.2 38 35 35.9 35.7 39.6 40.7 40.9 37.9 42.3 42.1 45.6 45.4 46.6 43.8 44.6 45.8 46.9 48.2 47.7 45.5 43.1 40.9 36.6 31.5 27.6 25.5 21.4 21 20.3 18.5 18 18.2 18.6 16.4 12 7 2.6 -1.3 -1.3 -1.3 -1.3 -1.3 -1.3 -1.3 -1.3 -1.3 -1.3 -1.3 -1.3 -1.3 -1.3 -1.3 -1.3 -1.3 -1.3 -1.3 -1.3 -1.3 -1.3 -1.3 -1.3 -1.3 -1.3 -1.3 -1.3 -1.3 -1.3 -1.3 -1.3 22.8 50.2 79.6 66.1 57.2 35 31.7 13.5 2 -1.3 -1.3 -1.3 -1.3 -1.3 -1.3 -1.3 -1.3 -1.3 -1.3 -1.3 -1.3 -1.3 -1.3 -1.3 -1.3 -1.3 -1.3 -1.3 -1.3 -1.3 -1.3 -1.3 -1.3 -1.3 -1.3 -1.3 -1.3 -1.3 -1.3 -1.3 -1.3 -1.3 -1.3 -1.3 -1.3 -1.3 -1.3 -1.3 -1.3 -1.3 -1.3 -1.3 -1.3 -1.3 -1.3 -1.3 -1.3 -1.3 -1.3 -1.3 -1.3 -1.3 -1.3 -1.3 -1.3 -1.3 -1.3 -1.3 -1.3 -1.3 -1.3 -1.3 -1.3 -1.3 -1.3 -1.3 -1.3 -1.3 -1.3 -1.3 -1.3 -1.3 -1.3 -1.3 -1.3 -1.3
446.4 448.2 452.7 452.3 449.3 430 414.4 392.9 368.5 337.7 313.2 292.3 277.4 275.1 270.7 264.2 259.3 255.5 251.6 248.1 243.8 238 229.6 224 219.8 212.6 209.7 206.3 197.3 188.7 179.4 165.3 153.5 142.8 130.5 117.1 101.3 84.9 74.1 65.4 52.4 45.4 37 38.6 39.5 37.5 40.5 44 48.1 49.8 49.7 52.2 52.2 52.7 57.1 60.5 61.3 60 60 63.4 61.7 62.5 63.1 63.4 60.3 57.1 53 49.6 43.6 41.8 41.3 39.8 37.2 34.1 31.4 29.2 27 25.5 21.3 16.1 12.8 7.2 4.6 0.8 -1.3 -1.3 -1.3 -1.3 -1.3 -1.3 -1.3 -1.3 -1.3 -1.3 -1.3 -1.3 -1.3 -1.3 -1.3 -1.3 -1.3 -1.3 -1.3 -1.3 -1.3 -1.3 -1.3 -1.3 -1.3 -1.3 -1.3 -1.3 -1.3 -1.3 2.4 26.3 57.3 63.1 59.2 43.7 16 -1.3 -1.3 -1.3 -1.3 -1.3 -1.3 -1.3 -1.3 -1.3 -1.3 -1.3 -1.3 -1.3 -1.3 -1.3 -1.3 -1.3 -1.3 -1.3 -1.3 -1.3 -1.3 -1.3 -1.3 -1.3 -1.3 -1.3 -1.3 -1.3 -1.3 -1.3 -1.3 -1.3 -1.3 -1.3 -1.3 -1.3 -1.3 -1.3 -1.3 -1.3 -1.3 -1.3 -1.3 -1.3 -1.3 -1.3 -1.3 -1.3 -1.3 -1.3 -1.3 -1.3 -1.3 -1.3 -1.3 -1.3 -1.3 -1.3 -1.3 -1.3 -1.3 -1.3 -1.3 -1.3 -1.3 -1.3 -1.3 -1.3 -1.3 -1.3 -1.3 -1.3 -1.3 -1.3 -1.3 -1.3 -1.3 -1.3
433.4 432.1 432.9 428.6 422.2 409 391.1 369.9 348.4 327.3 308.5 301.4 295.8 291.2 288.5 282.5 280.4 275.6 271.6 270.5 268.8 264.3 259.9 249.8 243.9 243.1 237.7 232.2 224.7 218 205.8 186.9 172.5 158.1 142.3 123.5 105.5 88.8 74.1 62.7 53.9 43.3 41.7 44.3 42 43 46.5 52.3 57.5 65.6 68.9 75 73.5 76.4 83.8 86.7 92.5 89.7 80.9 81.4 80.8 80.5 82 83.8 79.6 73.7 69.9 67 62.7 61.1 58 56.5 54.1 47.6 45.4 41 35.2 32.6 30.5 24.5 20 15.5 11.6 6.7 2.5 -1.3 -1.3 -1.3 -1 -1.3 -1.3 -1.3 -1.3 -1.3 -1.3 -1.3 -1.3 -1.3 -1.3 -1.3 -1.3 -1.3 -1.3 -1.3 -1.3 -1.3 -1.3 -1.3 -1.3 -1.3 -1.3 -1.3 -1.3 -1.3 -1.3 11.2 31.2 52.4 55.5 35.8 18.3 -1.3 -1.3 -1.3 -1.3 -1.3 -1.3 -1.3 -1.3 -1.3 -1.3 -1.3 -1.3 -1.3 -1.3 -1.3 -1.3 -1.3 -1.3 -1.3 -1.3 -1.3 -1.3 -1.3 -1.3 -1.3 -1.3 -1.3 -1.3 -1.3 -1.3 -1.3 -1.3 -1.3 -1.3 -1.3 -1.3 -1.3 -1.3 -1.3 -1.3 -1.3 -1.3 -1.3 -1.3 -1.3 -1.3 -1.3 -1.3 -1.3 -1.3 -1.3 -1.3 -1.3 -1.3 -1.3 -1.3 -1.3 -1.3 -1.3 -1.3 -1.3 -1.3 -1.3 -1.3 -1.3 -1.3 -1.3 -1.3 -1.3 -1.3 -1.3 -1.3 -1.3 -1.3 -1.3 -1.3 -1.3 -1.3 -1.3
424.4 423.3 420.1 416.3 406.2 393.6 378.5 358.3 343.6 327.3 324.7 318 314 314.7 312.7 308.5 306.4 302.9 297.3 299 294.3 289.4 286.1 279.7 274 277.2 272.9 274.2 266.7 259.4 237.4 212.6 195.9 174.7 157.6 136.8 110.1 91.4 74.1 60.8 57.9 47.1 45.7 47.1 48.9 55.9 59.1 63.6 70.5 78.6 85.7 93.8 100.2 109.7 111.9 120 129 129.3 112.7 112.7 107.5 106.8 105.5 105.4 107.1 101.8 96.6 92.4 91.1 88.6 78.9 73.4 66 62.6 56.2 49.7 44.3 41 38.4 35.6 31 28 23.8 19.2 11.9 7.5 -1.3 -1.3 2.3 -1.3 -1.3 -1.3 -1.3 -1.3 -1.3 -1.3 -1.3 -1.3 -1.3 -1.3 -1.3 -1.3 -1.3 -1.3 -1.3 -1.3 -1.3 -1.3 -1.3 -1.3 -1.3 -1.3 -1.3 -1.3 -1.3 -1.3 25.8 42.2 36.2 33.6 7.4 -1.3 -1.3 -1.3 -1.3 -1.3 -1.3 -1.3 -1.3 -1.3 -1.3 -1.3 -1.3 -1.3 -1.3 -1.3 -1.3 -1.3 -1.3 -1.3 -1.3 -1.3 -1.3 -1.3 -1.3 -1.3 -1.3 -1.3 -1.3 -1.3 -1.3 -1.3 -1.3 -1.3 -1.3 -1.3 -1.3 -1.3 -1.3 -1.3 -1.3 -1.3 -1.3 -1.3 -1.3 -1.3 -1.3 -1.3 -1.3 -1.3 -1.3 -1.3 -1.3 -1.3 -1.3 -1.3 -1.3 -1.3 -1.3 -1.3 -1.3 -1.3 -1.3 -1.3 -1.3 -1.3 -1.3 -1.3 -1.3 -1.3 -1.3 -1.3 -1.3 -1.3 -1.3 -1.3 -1.3 -1.3 -1.3 -1.3
421.8 410.9 403.9 404.3 396.9 386.5 370.2 350.5 343.8 344 339.5 338.7 342.2 342.3 352.7 347.7 335.8 331.5 330.9 331.2 332.8 318.9 318.4 312.6 307.8 309.7 309.6 317.7 312.4 299.5 276.4 247.4 228.7 204.7 174.2 144.4 115.2 92 74.7 63.1 57.6 51.9 57.1 60.6 62 66.2 71 83.1 89.9 92.8 104 115.4 128.6 142.9 142.7 151.3 159.3 165.1 157.7 144.7 146.5 139.3 132 133 135.7 135.5 129.1 123.5 120 119 109.5 97.7 90.7 83.4 70.4 57.1 55.3 52.6 52.5 50 50.3 46.7 44.8 41.7 35.5 25.5 17.2 14.6 8.4 8.5 7.4 -1.3 -1.3 -1.3 -1.3 -1.3 -1.3 -1.3 -1.3 -1.3 -1.3 -1.3 -1.3 -1.3 -1.3 -1.3 -1.3 -1.3 -1.3 -1.3 -1.3 -1.3 -1.3 -1.3 -1.3 -1.3 -1.3 36.7 40 31.9 6.4 -1.3 -1.3 -1.3 -1.3 -1.3 -1.3 -1.3 -1.3 -1.3 -1.3 -1.3 -1.3 -1.3 -1.3 -1.3 -1.3 -1.3 -1.3 -1.3 -1.3 -1.3 -1.3 -1.3 -1.3 -1.3 -1.3 -1.3 -1.3 -1.3 -1.3 -1.3 -1.3 -1.3 -1.3 -1.3 -1.3 -1.3 -1.3 -1.3 -1.3 -1.3 -1.3 -1.3 -1.3 -1.3 -1.3 -1.3 -1.3 -1.3 -1.3 -1.3 -1.3 -1.3 -1.3 -1.3 -1.3 -1.3 -1.3 -1.3 -1.3 -1.3 -1.3 -1.3 -1.3 -1.3 -1.3 -1.3 -1.3 -1.3 -1.3 -1.3 -1.3 -1.3 -1.3 -1.3 -1.3 -1.3 -1.3 -1.3
427.6 418.4 409.1 399.8 388.1 376.4 373.2 369.8 366.5 361.6 361.7 364.7 370.8 373.6 384 379.6 373.3 377.2 376.4 370.6 365.8 353 354.1 354.6 342 345.7 345.1 349 339.6 328.6 298.4 267.5 236.2 203.4 169.6 138.6 112.5 89.7 72.7 65.9 55.9 62.1 64 66.8 72.2 77.8 86.6 99.2 106.3 113.9 123.3 139.6 156.8 175.6 178 178.2 188.5 195.3 182.1 186.8 187.1 178.7 174.6 166 168.8 169.7 159.1 153.7 150.7 136.8 128 121.3 115 94.7 71.5 71.6 69.2 68.6 68.5 68.5 68.8 66 66 65.1 60.1 51.1 40.8 33.8 29.7 26.9 25.2 19.2 15.5 8.7 4 -1.3 -1.3 -1.3 -1.3 -1.3 -1.3 -1.3 -1.3 -1.3 -1.3 -1.3 -1.3 -1.3 -1.3 -1.3 -1.3 -1.3 -1.3 -1.3 -1.3 -1.3 -1.3 -1.3 11.5 37.5 25.2 -1.3 -1.3 -1.3 -1.3 -1.3 -1.3 -1.3 -1.3 -1.3 -1.3 -1.3 -1.3 -1.3 -1.3 -1.3 -1.3 -1.3 -1.3 -1.3 -1.3 -1.3 -1.3 -1.3 -1.3 -1.3 -1.3 -1.3 -1.3 -1.3 -1.3 -1.3 -1.3 -1.3 -1.3 -1.3 -1.3 -1.3 -1.3 -1.3 -1.3 -1.3 -1.3 -1.3 -1.3 -1.3 -1.3 -1.3 -1.3 -1.3 -1.3 -1.3 -1.3 -1.3 -1.3 -1.3 -1.3 -1.3 -1.3 -1.3 -1.3 -1.3 -1.3 -1.3 -1.3 -1.3 -1.3 -1.3 -1.3 -1.3 -1.3 -1.3 -1.3 -1.3 -1.3 -1.3 -1.3 -1.3 -1.3 -1.3
440.8 430.3 422.9 408.2 397.4 398.1 396.9 390.2 387.3 380.9 381.5 387 399.1 405.2 422 411.3 410.7 415.2 422 413.7 397.5 387.2 390.1 391.3 380.7 381.4 383.5 375.6 356.6 329.5 298 266.3 228.7 196.3 160.5 131 107.2 86.8 75.3 71.1 59.6 69.2 70 75.2 81.3 89.4 100.5 110 125.7 134.9 143.1 169.7 190 205 210.2 216.6 221.2 217.2 214.8 215.8 220 219.5 217.1 202.8 208.9 195.8 192 190.2 176.7 167.7 138 127.6 111.6 100.2 75.7 83.8 81.4 78.9 81.8 88 91.8 87 85.1 87.4 82.8 74.7 62.2 60.8 50 44.5 39.2 33.6 28.7 21.9 11.1 6.3 -1.3 -1.3 -1.3 -1.3 -1.3 -1.3 -1.3 -1.3 -1.3 -1.3 -1.3 -1.3 -1.3 -1.3 -1.3 -1.3 -1.3 -1.3 -1.3 -1.3 -1.3 -1.3 -1.3 -1.3 11.4 -1.3 -1.3 -1.3 -1.3 -1.3 -1.3 -1.3 -1.3 -1.3 -1.3 -1.3 -1.3 -1.3 -1.3 -1.3 -1.3 -1.3 -1.3 -1.3 -1.3 -1.3 -1.3 -1.3 -1.3 -1.3 -1.3 -1.3 -1.3 -1.3 -1.3 -1.3 -1.3 -1.3 -1.3 -1.3 -1.3 -1.3 -1.3 -1.3 -1.3 -1.3 -1.3 -1.3 -1.3 -1.3 -1.3 -1.3 -1.3 -1.3 -1.3 -1.3 -1.3 -1.3 -1.3 -1.3 -1.3 -1.3 -1.3 -1.3 -1.3 -1.3 -1.3 -1.3 -1.3 -1.3 -1.3 -1.3 -1.3 -1.3 -1.3 -1.3 -1.3 -1.3 -1.3 -1.3 -1.3 -1.3 -1.3 -1.3
455.3 447.1 442 425.3 423.7 424.5 422.7 415.1 415.4 415.7 409.7 415.7 429.1 440.8 450.3 449.4 444.5 448.9 455 448.5 431.9 422.9 423.6 424.1 421.7 417.5 410.1 393 362.9 331.2 295 262 225.7 192.6 156.8 127.9 104.3 86.9 77.5 70.2 67.9 75.7 77.8 84.2 91 102.1 115.9 127.1 139.4 149.5 167.1 185.5 211.6 226.8 237.5 241.7 240.9 243.8 240.9 243.6 246.8 246.5 246.1 232.5 235.3 237.1 220 217.5 205.9 184.9 156.1 135.8 117.6 94.2 91.2 92.9 93.1 91.3 94.8 98.6 102.4 101.6 106.4 111.9 110.9 99.5 92.5 84.7 71.3 66.1 58.9 51.1 40.2 28.6 21.6 12.4 6.4 -1.3 -1.3 -1.3 -1.3 -1.3 -1.3 -1.3 -1.3 -1.3 -1.3 -1.3 -1.3 -1.3 -1.3 -1.3 -1.3 -1.3 -1.3 -1.3 -1.3 -1.3 -1.3 -1.3 1.9 -1.3 -1.3 -1.3 -1.3 -1.3 -1.3 -1.3 -1.3 -1.3 -1.3 -1.3 -1.3 -1.3 -1.3 -1.3 -1.3 -1.3 -1.3 -1.3 -1.3 -1.3 -1.3 -1.3 -1.3 -1.3 -1.3 -1.3 -1.3 -1.3 -1.3 -1.3 -1.3 -1.3 -1.3 -1.3 -1.3 -1.3 -1.3 -1.3 -1.3 -1.3 -1.3 -1.3 -1.3 -1.3 -1.3 -1.3 -1.3 -1.3 -1.3 -1.3 -1.3 -1.3 -1.3 -1.3 -1.3 -1.3 -1.3 -1.3 -1.3 -1.3 -1.3 -1.3 -1.3 -1.3 -1.3 -1.3 -1.3 -1.3 -1.3 -1.3 -1.3 -1.3 -1.3 -1.3 -1.3 -1.3 -1.3 -1.3
470.2 464.4 462.6 465.3 468.3 453.1 464.6 451.1 443.8 445 446.5 452.2 460.8 471.1 478.5 482.5 483.7 488.6 491.7 480.2 465.2 460.7 451.4 454.3 451.9 445.1 428.1 402.6 369.3 339.9 303.2 260.5 229.6 189.1 153.6 126 106.4 92.3 83.4 75.5 68.9 80.6 87.2 92.1 101.2 114.8 129.2 141.1 153.7 170.8 181.3 202.4 225.3 244.5 259.6 256.6 257.7 265.4 272.2 279.2 275.1 279 273.5 271.1 263.3 251 243.9 226.5 208 180.6 157 129.7 96.6 102.2 108.3 107.7 108.5 108.4 115.2 114.8 122.6 124.6 125.7 133.5 139.9 134.6 128.1 116.2 102.9 92.2 83.6 72.8 59.9 47.5 31.8 17.9 9.6 4.8 2.2 -1.3 -1.3 -1.3 -1.3 -1.3 -1.3 -1.3 -1.3 -1.3 -1.3 -1.3 -1.3 -1.3 -1.3 -1.3 -1.3 -1.3 -1.3 -1.3 -1.3 -1.3 -1.3 -1.3 -1.3 -1.3 -1.3 -1.3 -1.3 -1.3 -1.3 -1.3 -1.3 -1.3 -1.3 -1.3 -1.3 -1.3 -1.3 -1.3 -1.3 -1.3 -1.3 -1.3 -1.3 -1.3 -1.3 -1.3 -1.3 -1.3 -1.3 -1.3 -1.3 -1.3 -1.3 -1.3 -1.3 -1.3 -1.3 -1.3 -1.3 -1.3 -1.3 -1.3 -1.3 -1.3 -1.3 -1.3 -1.3 -1.3 -1.3 -1.3 -1.3 -1.3 -1.3 -1.3 -1.3 -1.3 -1.3 -1.3 -1.3 -1.3 -1.3 -1.3 -1.3 -1.3 -1.3 -1.3 -1.3 -1.3 -1.3 -1.3 -1.3 -1.3 -1.3 -1.3 -1.3 -1.3 -1.3 -1.3 -1.3 -1.3
498.6 497.1 496.4 490 501.3 487.1 498.9 489 491.5 492.1 488.1 497.6 496 518.1 519.6 521.9 520.7 526.4 531.1 517 507.2 492.5 483.8 478 456 431.6 409.7 384.7 355 331.6 302 259.2 221.1 185.7 154.7 130.5 112.3 98.9 90.6 83.5 81.1 83.8 92.1 99.8 110.5 126.8 138.9 152.8 171.8 186 199.4 210 233.8 254.1 272.7 279.1 284.8 286.5 287.6 299.9 305.1 306 298.3 293.6 284.7 262.1 239 213.8 196 186.3 157.1 132.7 113.2 120.6 118.7 121.1 123 124.1 128.6 133.6 141.3 144.1 141 150.1 157 154.8 148.2 144.9 128.1 122.4 110.3 109.2 87.5 62.1 45.8 30.9 16.9 13.6 10 8.1 6.7 3.7 -1.3 -1.3 -1.3 -1.3 -1.3 -1.3 -1.3 -1.3 -1.3 -1.3 -1.3 -1.3 -1.3 -1.3 -1.3 -1.3 -1.3 -1.3 -1.3 -1.3 -1.3 -1.3 -1.3 -1.3 -1.3 -1.3 -1.3 -1.3 -1.3 -1.3 -1.3 -1.3 -1.3 -1.3 -1.3 -1.3 -1.3 -1.3 -1.3 -1.3 -1.3 -1.3 -1.3 -1.3 -1.3 -1.3 -1.3 -1.3 -1.3 -1.3 -1.3 -1.3 -1.3 -1.3 -1.3 -1.3 -1.3 -1.3 -1.3 -1.3 -1.3 -1.3 -1.3 -1.3 -1.3 -1.3 -1.3 -1.3 -1.3 -1.3 -1.3 -1.3 -1.3 -1.3 -1.3 -1.3 -1.3 -1.3 -1.3 -1.3 -1.3 -1.3 -1.3 -1.3 -1.3 -1.3 -1.3 -1.3 -1.3 -1.3 -1.3 -1.3 -1.3 -1.3 -1.3 -1.3 -1.3 -1.3
540.8 531.1 522 512.9 525.5 518.2 532.7 531.6 518.8 535.2 528.3 541.6 537.5 559.1 562.5 567.1 568.8 570.4 569.5 554.8 532 510.8 492.8 471.4 442.2 409.6 381.6 357.5 333.3 311.6 287.8 257.7 223.1 192.4 163.1 140.6 124.5 110.5 99.7 89.9 90.9 93.7 98.3 109.3 123.3 134.9 149.4 162.7 184.3 204.1 221.2 230.2 245.3 260.1 278 294.9 308.4 317.3 309.9 320.5 317.5 315.8 304 286.6 276.5 265.7 241.3 223.4 197.4 179.9 158.2 124 133.4 137.3 136.9 138.6 141.1 145.3 148.8 150.2 155.3 165 157.1 157.4 164.7 172 172.7 171 155.5 140.4 127.1 119 94.8 79.1 60.5 45.3 29.8 29.9 27.7 23.4 17.7 11.6 6.4 2.5 -1.3 -1.3 -1.3 -1.3 -1.3 -1.3 -1.3 -1.3 -1.3 -1.3 -1.3 -1.3 -1.3 -1.3 -1.3 -1.3 -1.3 -1.3 -1.3 -1.3 -1.3 -1.3 -1.3 -1.3 -1.3 -1.3 -1.3 -1.3 -1.3 -1.3 -1.3 -1.3 -1.3 -1.3 -1.3 -1.3 -1.3 -1.3 -1.3 -1.3 -1.3 -1.3 -1.3 -1.3 -1.3 -1.3 -1.3 -1.3 -1.3 -1.3 -1.3 -1.3 -1.3 -1.3 -1.3 -1.3 -1.3 -1.3 -1.3 -1.3 -1.3 -1.3 -1.3 -1.3 -1.3 -1.3 -1.3 -1.3 -1.3 -1.3 -1.3 -1.3 -1.3 -1.3 -1.3 -1.3 -1.3 -1.3 -1.3 -1.3 -1.3 -1.3 -1.3 -1.3 -1.3 -1.3 -1.3 -1.3 -1.3 -1.3 -1.3 -1.3 -1.3 -1.3 -1.3 -1.3
570.5 556.9 541.1 544.6 555.8 551 566.1 569.7 546.3 580.8 579.3 583.3 578.4 597.2 603.2 603.1 599.9 587.2 572 544.7 519.4 495.3 475.4 448.3 423.6 397 362.7 333.1 309.4 286.4 267.1 244.3 220.5 195.9 174.5 159.5 138.6 119.1 100.4 100.6 103.1 106.5 112 124.1 136.7 149.2 159.6 180.5 201 230.7 252.3 256.6 275.9 291.4 300.1 306.9 316 323.5 329.4 335.4 332.8 330.7 308.1 286.2 274.4 260.3 236 209.4 188 171.5 152.3 127.9 144.4 153 156.7 160.9 158.9 162.3 169.2 171.6 172.9 181.1 170.5 170.8 177.9 186.4 191.8 190.1 169.8 150.5 148.7 150.3 138.4 103.6 76 64.3 49.7 44.6 41.5 41.2 42.6 29.3 18.3 9.4 6.7 -1.3 -1.3 -1.3 -1.3 -1.3 -1.3 -1.3 -1.3 -1.3 -1.3 -1.3 -1.3 -1.3 -1.3 -1.3 -1.3 -1.3 -1.3 -1.3 -1.3 -1.3 -1.3 -1.3 -1.3 -1.3 -1.3 -1.3 -1.3 -1.3 -1.3 -1.3 -1.3 -1.3 -1.3 -1.3 -1.3 -1.3 -1.3 -1.3 -1.3 -1.3 -1.3 -1.3 -1.3 -1.3 -1.3 -1.3 -1.3 -1.3 -1.3 -1.3 -1.3 -1.3 -1.3 -1.3 -1.3 -1.3 -1.3 -1.3 -1.3 -1.3 -1.3 -1.3 -1.3 -1.3 -1.3 -1.3 -1.3 -1.3 -1.3 -1.3 -1.3 -1.3 -1.3 -1.3 -1.3 -1.3 -1.3 -1.3 -1.3 -1.3 -1.3 -1.3 -1.3 -1.3 -1.3 -1.3 -1.3 -1.3 -1.3 -1.3 -1.3 -1.3 -1.3 -1.3
610.6 584.8 569.1 572.1 586.5 596.1 612.7 609.3 586 616.6 626.1 626.9 622.6 625 615.7 605.4 592.1 568.7 550.2 520.3 487.9 466.6 442.4 417.4 397.8 385.7 353.4 324.1 290.5 272.6 252.8 231.1 212.9 196.5 176.7 158.8 138.4 119.2 110.4 119.1 116.5 119.7 128.4 143.3 155.8 164.9 177 192.4 218.6 245.2 274.4 288 295.4 322.8 329.4 335.7 339.6 342.2 349.3 351.8 342.8 327.6 308.6 286.8 261.8 241.6 221.4 201.1 185.5 160.8 136.6 144.4 161.7 168.9 176.7 184.1 185.7 193.4 186.5 187.6 193.1 197.6 203.2 196.9 209.4 211 213.5 204.6 188.9 167.8 167.3 169.7 162.6 137.8 115.4 84.4 72.6 66.9 60.7 56.2 52.2 50.4 37.3 28.6 17 8.3 3.8 -1.3 -1.3 -1.3 -1.3 -1.3 -1.3 -1.3 -1.3 -1.3 -1.3 -1.3 -1.3 -1.3 -1.3 -1.3 -1.3 -1.3 -1.3 -1.3 -1.3 -1.3 -1.3 -1.3 -1.3 -1.3 -1.3 -1.3 -1.3 -1.3 -1.3 -1.3 -1.3 -1.3 -1.3 -1.3 -1.3 -1.3 -1.3 -1.3 -1.3 -1.3 -1.3 -1.3 -1.3 -1.3 -1.3 -1.3 -1.3 -1.3 -1.3 -1.3 -1.3 -1.3 -1.3 -1.3 -1.3 -1.3 -1.3 -1.3 -1.3 -1.3 -1.3 -1.3 -1.3 -1.3 -1.3 -1.3 -1.3 -1.3 -1.3 -1.3 -1.3 -1.3 -1.3 -1.3 -1.3 -1.3 -1.3 -1.3 -1.3 -1.3 -1.3 -1.3 -1.3 -1.3 -1.3 -1.3 -1.3 -1.3 -1.3 -1.3 -1.3 -1.3
640 614.5 606.2 614 624.5 648.1 652.9 652 636.4 647.5 646.4 639.2 620.7 604.9 591.8 579.1 563 540.8 507.3 477.9 451.5 431.2 408.6 386.8 368.6 351.7 333 315.4 284.4 257.5 237.8 219.2 199.3 185.1 176 157 135.8 116.6 120.8 139.8 137.8 131.7 148.4 165.1 182.2 186.7 196.3 217.9 243.6 262.2 284.3 297.9 313.5 341.9 356.6 367.7 368.4 366 377 380.3 357.9 333.9 311.4 278.1 252.4 236.4 217.2 200.4 185.7 161.7 161.6 165.8 176.9 188.7 194.2 200.9 208.7 216.2 213.2 218.7 219.1 227.9 225.7 230.8 236.3 239.8 233.5 225.3 212.2 196 178.5 179 166 151.3 126.7 113.1 98.9 85.9 83 78.2 71.1 61 54.6 48.7 37.9 26.5 20.8 14 18.8 21.2 18.7 -1.3 -1.3 -1.3 -1.3 -1.3 -1.3 -1.3 -1.3 -1.3 -1.3 -1.3 -1.3 -1.3 -1.3 -1.3 -1.3 -1.3 -1.3 -1.3 -1.3 -1.3 -1.3 -1.3 -1.3 -1.3 -1.3 -1.3 -1.3 -1.3 -1.3 -1.3 -1.3 -1.3 -1.3 -1.3 -1.3 -1.3 -1.3 -1.3 -1.3 -1.3 -1.3 -1.3 -1.3 -1.3 -1.3 -1.3 -1.3 -1.3 -1.3 -1.3 -1.3 -1.3 -1.3 -1.3 -1.3 -1.3 -1.3 -1.3 -1.3 -1.3 -1.3 -1.3 -1.3 -1.3 -1.3 -1.3 -1.3 -1.3 -1.3 -1.3 -1.3 -1.3 -1.3 -1.3 -1.3 -1.3 -1.3 -1.3 -1.3 -1.3 -1.3 -1.3 -1.3 -1.3 -1.3 -1.3 -1.3 -1.3
663.8 646.2 647.3 661.2 673.3 677.8 671.4 662.7 652.7 644 630.8 611.7 593.9 580.3 565.9 551.4 531.7 506.4 474.5 451.6 423.1 400.5 382.4 363.2 346.2 330.3 313.7 295 267.6 247 225.1 210.8 201.8 191.9 163.3 136.2 142.2 136.8 123.4 145.4 149.2 149.3 164.9 183.4 199.3 206.8 220.6 239.4 261.3 277.5 296 315.7 331.2 355.7 372.3 385.4 386.9 380.9 380.1 376.8 361.5 344.7 319.1 284.5 258.1 232.3 213 197.4 184.5 185.8 184.8 186.2 191.5 199.9 208.6 221.5 234 240.1 248.1 242.4 242.7 247.4 255.1 252.5 245.7 251.5 254.8 253.5 234.5 227 203.8 185.5 167.8 156.2 144.8 133 120 107.9 107.6 103.1 91.9 84.7 75 63.8 57.9 41.2 35.8 32 34.3 38.9 25.1 16.7 11.2 15.6 -1.3 -1.3 -1.3 -1.3 -1.3 -1.3 -1.3 -1.3 -1.3 -1.3 -1.3 -1.3 -1.3 -1.3 -1.3 -1.3 -1.3 -1.3 -1.3 -1.3 -1.3 -1.3 -1.3 -1.3 -1.3 -1.3 -1.3 -1.3 -1.3 -1.3 -1.3 -1.3 -1.3 -1.3 -1.3 -1.3 -1.3 -1.3 -1.3 -1.3 -1.3 -1.3 -1.3 -1.3 -1.3 -1.3 -1.3 -1.3 -1.3 -1.3 -1.3 -1.3 -1.3 -1.3 -1.3 -1.3 -1.3 -1.3 -1.3 -1.3 -1.3 -1.3 -1.3 -1.3 -1.3 -1.3 -1.3 -1.3 -1.3 -1.3 -1.3 -1.3 -1.3 -1.3 -1.3 -1.3 -1.3 -1.3 -1.3 -1.3 -1.3 -1.3 -1.3 -1.3 -1.3 -1.3
699.4 690.3 678.2 682.9 673.8 661.3 653.5 646.6 634.4 623 609 587.8 561.7 541.5 529.1 518.8 498.9 477.8 450 429.8 399.2 373.3 357.3 344.8 332.9 317.1 296.5 274.3 253.6 230.9 222.1 215.6 221 216.4 196.6 174.3 161.4 152 127.4 153.7 160.1 164.6 176.8 195.4 210.6 221.9 238.8 257.5 274.5 292 308.4 330.8 347.3 368.3 387.1 395.5 395.4 383.4 376 364.2 352.8 337.5 316.9 285.1 257 231.5 211.8 198.8 196.4 201 205.9 208.3 209.2 213 218.1 230.3 244.1 259.7 267.9 265.3 271.3 274 271.4 270 265.5 257.2 260.3 266.1 256.5 238.4 224.7 205.9 199.2 179 159.3 147.5 140.3 126.7 120.8 121.2 116.2 108.3 88.9 77.9 72.2 61.4 51.1 43.1 38.7 36.1 30.3 30.1 21.9 18.4 15.8 -1.3 -1.3 -1.3 -1.3 -1.3 -1.3 -1.3 -1.3 -1.3 -1.3 -1.3 -1.3 -1.3 -1.3 -1.3 -1.3 -1.3 -1.3 -1.3 -1.3 -1.3 -1.3 -1.3 -1.3 -1.3 -1.3 -1.3 -1.3 -1.3 -1.3 -1.3 -1.3 -1.3 -1.3 -1.3 -1.3 -1.3 -1.3 -1.3 -1.3 -1.3 -1.3 -1.3 -1.3 -1.3 -1.3 -1.3 -1.3 -1.3 -1.3 -1.3 -1.3 -1.3 -1.3 -1.3 -1.3 -1.3 -1.3 -1.3 -1.3 -1.3 -1.3 -1.3 -1.3 -1.3 -1.3 -1.3 -1.3 -1.3 -1.3 -1.3 -1.3 -1.3 -1.3 -1.3 -1.3 -1.3 -1.3 -1.3 -1.3 -1.3 -1.3 -1.3 -1.3 -1.3
711.1 677.7 656.5 647.8 645.6 637.9 627.8 618.3 607.6 595.5 576.4 557.3 530.4 507.7 492.8 482.1 470.5 453.2 432.1 414.4 390.1 362.9 346.9 339.3 320.4 290.2 280.6 273.3 253.1 239.2 229.5 230.4 240.9 245.7 221.6 198 182.1 160.2 139.2 166.1 174.5 182.3 191.5 207.3 226.4 243.5 259.9 272.2 289.3 305.1 328.3 345.5 362.5 382.6 401.4 411.8 405.1 382.9 363.8 350.4 335.4 318 295.7 271.5 248 227.1 211.5 206.2 208.2 218.9 225.6 228.3 229.7 229.2 237.6 252.4 258.7 265.1 275.5 279 289.3 287.2 283.9 287.2 286.2 279.5 270.7 262.5 258.2 241.4 226.6 221.8 217.3 205.7 186.3 171.1 152.1 140.1 129.5 123 115.7 108.9 107.5 99.4 85.1 76 61.4 49.2 41.7 37.3 35.1 25.8 13.2 2.8 -1.3 -1.3 -1.3 -1.3 -1.3 -1.3 -1.3 -1.3 -1.3 -1.3 -1.3 -1.3 -1.3 -1.3 -1.3 -1.3 -1.3 -1.3 -1.3 -1.3 -1.3 -1.3 -1.3 -1.3 -1.3 -1.3 -1.3 -1.3 -1.3 -1.3 -1.3 -1.3 -1.3 -1.3 -1.3 -1.3 -1.3 -1.3 -1.3 -1.3 -1.3 -1.3 -1.3 -1.3 -1.3 -1.3 -1.3 -1.3 -1.3 -1.3 -1.3 -1.3 -1.3 -1.3 -1.3 -1.3 -1.3 -1.3 -1.3 -1.3 -1.3 -1.3 -1.3 -1.3 -1.3 -1.3 -1.3 -1.3 -1.3 -1.3 -1.3 -1.3 -1.3 -1.3 -1.3 -1.3 -1.3 -1.3 -1.3 -1.3 -1.3 -1.3 -1.3 -1.3 -1.3 -1.3
673.2 648.8 625.5 613 606.7 602.8 596.7 585.2 577 566 546.4 527.4 512.2 493.9 471.5 456 444 434.6 414.2 395.9 380.6 360.9 342 320.3 317.8 318.2 304.6 286.8 265.1 248.9 240.7 245.5 268.1 270.3 248.2 225.8 192 164.7 152.4 175.2 188.3 198.6 207.5 218.5 232.3 258 276.4 288.9 304.4 321.2 338.7 359.4 374.8 399.8 416 420.7 403.8 379.5 357.3 342.2 326.9 313.3 290.3 267.8 243.8 226 218.1 219.5 227 238 245.4 251.4 255.4 257.1 262.8 276.4 280.3 281.6 282.7 290 300.5 309.4 303.2 300.7 291.7 290.4 287 272.1 257.7 249.5 239.3 229.2 225.6 217.3 208.2 197.1 178.7 160 146.8 132.7 117.1 111 112.1 110.7 107.9 87.3 78.8 68.7 54.3 57.6 51.3 30.1 20.6 -1.3 -1.3 -1.3 -1.3 -1.3 -1.3 -1.3 -1.3 -1.3 -1.3 -1.3 -1.3 -1.3 -1.3 -1.3 -1.3 -1.3 -1.3 -1.3 -1.3 -1.3 -1.3 -1.3 -1.3 -1.3 -1.3 -1.3 -1.3 -1.3 -1.3 -1.3 -1.3 -1.3 -1.3 -1.3 -1.3 -1.3 -1.3 -1.3 -1.3 -1.3 -1.3 -1.3 -1.3 -1.3 -1.3 -1.3 -1.3 -1.3 -1.3 -1.3 -1.3 -1.3 -1.3 -1.3 -1.3 -1.3 -1.3 -1.3 -1.3 -1.3 -1.3 -1.3 -1.3 -1.3 -1.3 -1.3 -1.3 -1.3 -1.3 -1.3 -1.3 -1.3 -1.3 -1.3 -1.3 -1.3 -1.3 -1.3 -1.3 -1.3 -1.3 -1.3 -1.3 -1.3 -1.3 -1.3
650.6 626.8 601.4 589.8 580.7 571.6 566 554.4 551.8 544.2 526.6 514.2 500.7 487.3 467.9 438 419.8 408.2 400.9 389.9 376.1 358.7 333.9 320.9 336.7 326.5 309.1 295.6 273.2 260.9 259.1 264 278.8 270.3 251.8 220.5 195.2 173.8 159.4 187.7 202 217.8 227.6 230.8 246.4 270.8 290.8 311.9 329.2 352.2 364.9 384.4 404.6 413.3 421.8 425.3 399.9 373.1 355.8 340.3 320.3 302.2 282.1 261.3 240.6 230.2 231.9 234.9 245.6 258.3 268 276.2 292.7 287.9 284.7 300.1 308.8 301.9 294.9 302.7 308.7 318 311.2 305.2 299.4 291.2 283 271.9 260.4 252.6 239.6 235.6 224.5 219.9 212.8 205.1 193.8 184.6 168.3 155.6 142.4 122 111 109.4 101.1 101.9 92.7 76.4 71.1 58.9 42.7 20.2 -1.3 -1.3 -1.3 -1.3 -1.3 -1.3 -1.3 -1.3 -1.3 -1.3 -1.3 -1.3 -1.3 -1.3 -1.3 -1.3 -1.3 -1.3 -1.3 -1.3 -1.3 -1.3 -1.3 -1.3 -1.3 -1.3 -1.3 -1.3 -1.3 -1.3 -1.3 -1.3 -1.3 -1.3 -1.3 -1.3 -1.3 -1.3 -1.3 -1.3 -1.3 -1.3 -1.3 -1.3 -1.3 -1.3 -1.3 -1.3 -1.3 -1.3 -1.3 -1.3 -1.3 -1.3 -1.3 -1.3 -1.3 -1.3 -1.3 -1.3 -1.3 -1.3 -1.3 -1.3 -1.3 -1.3 -1.3 -1.3 -1.3 -1.3 -1.3 -1.3 -1.3 -1.3 -1.3 -1.3 -1.3 -1.3 -1.3 -1.3 -1.3 -1.3 -1.3 -1.3 -1.3 -1.3 -1.3 -1.3
629.8 610.6 597.4 573.1 564.5 562.7 555.2 541.8 534.4 525 518.2 508.8 496.8 475.8 460.4 437.5 413.1 397.4 390.8 382.1 371.9 355 341.8 343.7 345 340.9 326.2 310.5 304.8 291.9 288.9 286 283.6 268.3 244.1 220.3 198.5 187.5 178 198.6 219.4 235.8 247 243.7 259.8 280.8 302.5 323.2 344.2 371.1 395.8 415.2 434.2 440.7 436.4 423.5 398.6 376.5 354.6 340.4 319.3 298.1 280 261.8 246.1 247.9 251.9 257.9 265.1 283.1 302.3 304.6 314.4 314.1 313 324.3 328.7 324.2 314.2 317.4 319 324.9 324 310.9 298.7 295.4 287.9 277.2 266.6 258.3 245.8 229.9 219.7 214.6 205.9 202.3 199.8 197.9 192.1 176.2 158.1 139.4 120.8 104.2 96.4 93.7 82.9 69.8 65.9 50.9 27.3 13.1 -1.3 -1.3 -1.3 -1.3 -1.3 -1.3 -1.3 -1.3 -1.3 -1.3 -1.3 -1.3 -1.3 -1.3 -1.3 -1.3 -1.3 -1.3 -1.3 -1.3 -1.3 -1.3 -1.3 -1.3 -1.3 -1.3 -1.3 -1.3 -1.3 -1.3 -1.3 -1.3 -1.3 -1.3 -1.3 -1.3 -1.3 -1.3 -1.3 -1.3 -1.3 -1.3 -1.3 -1.3 -1.3 -1.3 -1.3 -1.3 -1.3 -1.3 -1.3 -1.3 -1.3 -1.3 -1.3 -1.3 -1.3 -1.3 -1.3 -1.3 -1.3 -1.3 -1.3 -1.3 -1.3 -1.3 -1.3 -1.3 -1.3 -1.3 -1.3 -1.3 -1.3 -1.3 -1.3 -1.3 -1.3 -1.3 -1.3 -1.3 -1.3 -1.3 -1.3 -1.3 -1.3 -1.3 -1.3 -1.3
623.4 597.7 582.4 560.7 550.9 549.4 541.5 527.4 513.9 503.2 491.1 477.4 470.7 458.4 447.4 430.5 410.6 392.7 380.9 375.8 367.1 372.6 360.9 358.9 377.5 378.2 359.9 344.7 327 309.6 301.3 297.5 285.3 264.5 247.6 226.5 208.4 197.4 192.6 205.6 227.7 240.7 247.6 252.6 269.7 289.8 310.3 334.4 366.1 398.9 428.7 452.9 461.7 459.8 449.9 424.7 394 372.4 351.5 333.9 316.8 297.2 276.2 261.6 252 261.8 268.3 277.1 289.8 309.4 319.5 326.7 329.8 330.2 337.8 337.9 341.4 334.9 326 326.9 325.8 328.7 323.3 314.7 306 288.5 283.8 281.9 268.9 256.5 252.1 237.5 225.8 212.9 203.4 198.1 194.6 197.8 191.2 183.1 173.2 156.6 136.8 118.2 105.2 94 77.2 64 56.3 36.4 19.6 10.1 -1.3 -1.3 -1.3 -1.3 -1.3 -1.3 -1.3 -1.3 -1.3 -1.3 -1.3 -1.3 -1.3 -1.3 -1.3 -1.3 -1.3 -1.3 -1.3 -1.3 -1.3 -1.3 -1.3 -1.3 -1.3 -1.3 -1.3 -1.3 -1.3 -1.3 -1.3 -1.3 -1.3 -1.3 -1.3 -1.3 -1.3 -1.3 -1.3 -1.3 -1.3 -1.3 -1.3 -1.3 -1.3 -1.3 -1.3 -1.3 -1.3 -1.3 -1.3 -1.3 -1.3 -1.3 -1.3 -1.3 -1.3 -1.3 -1.3 -1.3 -1.3 -1.3 -1.3 -1.3 -1.3 -1.3 -1.3 -1.3 -1.3 -1.3 -1.3 -1.3 -1.3 -1.3 -1.3 -1.3 -1.3 -1.3 -1.3 -1.3 -1.3 -1.3 -1.3 -1.3 -1.3 -1.3 -1.3 -1.3
609.3 602.2 581.3 552.4 535.2 534.4 534 514.7 502.7 481.9 470.4 461 448.1 438.5 426.7 413.5 401.7 387.8 378.3 381.7 382.6 381.7 372.7 373.7 390.8 401 391.8 381.3 358.3 323.4 302.2 288.2 282.2 267 250 234.7 219.3 209.1 201.7 220 233.1 242.8 252.9 261.3 278.8 298.3 320.1 343.7 371.2 405.1 441.5 467.2 472.7 465 446.1 415 388.4 364.8 345.4 333.3 316.2 294.9 279 261 266.8 276.5 283.7 292 306.9 322.2 329.6 335.1 340.7 350.1 351.3 359.5 363.2 356.9 345.7 321.5 321 327.1 319.4 312.8 303 285.8 274.2 264.4 259.8 254.7 243.3 231.3 225.2 218.3 204.3 195.9 189.4 183.8 178.2 182.5 180.7 164 140.8 130.5 119.3 100.4 74.1 56.3 44.8 21.3 7.8 1.7 -1.3 -1.3 -1.3 -1.3 -1.3 -1.3 -1.3 -1.3 -1.3 -1.3 -1.3 -1.3 -1.3 -1.3 -1.3 -1.3 -1.3 -1.3 -1.3 -1.3 -1.3 -1.3 -1.3 -1.3 -1.3 -1.3 -1.3 -1.3 -1.3 -1.3 -1.3 -1.3 -1.3 -1.3 -1.3 -1.3 -1.3 -1.3 -1.3 -1.3 -1.3 -1.3 -1.3 -1.3 -1.3 -1.3 -1.3 -1.3 -1.3 -1.3 -1.3 -1.3 -1.3 -1.3 -1.3 -1.3 -1.3 -1.3 -1.3 -1.3 -1.3 -1.3 -1.3 -1.3 -1.3 -1.3 -1.3 -1.3 -1.3 -1.3 -1.3 -1.3 -1.3 -1.3 -1.3 -1.3 -1.3 -1.3 -1.3 -1.3 -1.3 -1.3 -1.3 -1.3 -1.3 -1.3 -1.3 -1.3
598.2 579.2 565.5 549.5 526 518.9 520.6 510.8 497.5 482.2 467 453.9 439.4 427.3 412.6 399.5 394.2 384.7 392 398.5 394.5 385.6 377.3 373.1 376.3 395.7 394.7 385.4 364.6 335 313.3 293.9 275.2 268.5 255.4 235.8 221.8 216.5 206.6 225.6 238.5 252.4 267 266.2 283.5 302.4 328.1 351.7 381.3 419.1 456.9 475.8 476.8 463.9 436.2 409 383.8 359.1 342.2 329.1 313.1 298 279.4 276.2 285.9 291 301.7 310.3 320.1 337.2 347.3 351.7 360.3 375 384.3 377.7 373.6 364.3 348.5 324.2 312.6 310.7 314.3 313.8 304.2 289.6 269 259.1 254.2 252.8 245.9 232.2 225.4 216.8 208.3 196.1 180.9 178.4 170.9 171 173.3 155.3 151.8 136 118 110.8 88.6 74.2 46.8 18.7 6.2 1.7 -1.3 -1.3 -1.3 -1.3 -1.3 -1.3 -1.3 -1.3 -1.3 -1.3 -1.3 -1.3 -1.3 -1.3 -1.3 -1.3 -1.3 -1.3 -1.3 -1.3 -1.3 -1.3 -1.3 -1.3 -1.3 -1.3 -1.3 -1.3 -1.3 -1.3 -1.3 -1.3 -1.3 -1.3 -1.3 -1.3 -1.3 -1.3 -1.3 -1.3 -1.3 -1.3 -1.3 -1.3 -1.3 -1.3 -1.3 -1.3 -1.3 -1.3 -1.3 -1.3 -1.3 -1.3 -1.3 -1.3 -1.3 -1.3 -1.3 -1.3 -1.3 -1.3 -1.3 -1.3 -1.3 -1.3 -1.3 -1.3 -1.3 -1.3 -1.3 -1.3 -1.3 -1.3 -1.3 -1.3 -1.3 -1.3 -1.3 -1.3 -1.3 -1.3 -1.3 -1.3 -1.3 -1.3 -1.3 -1.3
596.3 575.7 552.5 538.7 520.2 513.7 512.8 503.9 490 475.3 462.3 448.8 440 430.2 419.6 414.4 410.4 409.7 408 405.1 401 399.8 388.7 373.9 373.3 385.2 387 370.8 348.1 325.9 311.4 290.5 275.3 259.3 245.2 228.9 220.7 209.8 213 227 242 260.1 277.6 280 292.9 312.1 336.1 359.6 388.6 423.4 463.4 483.4 484 463.5 434.7 409.6 388.5 358.9 341.4 326.6 312.4 296.1 282.3 292.3 300.7 309.3 317.5 325.8 333.5 343.3 358.6 377.4 386.9 384.1 382.6 379.6 370.2 359.7 344.1 322.3 307.9 302.1 305.6 305.5 300.9 280.3 269.9 263.5 253.2 245.2 240.5 240.4 234.9 222.4 213 200.1 185 165.7 163.4 156.7 144.1 136.4 136.8 130.8 114.8 98.9 88.9 72 41.1 15.9 5.5 -1.3 -1.3 -1.3 -1.3 -1.3 -1.3 -1.3 -1.3 -1.3 -1.3 -1.3 -1.3 -1.3 -1.3 -1.3 -1.3 -1.3 -1.3 -1.3 -1.3 -1.3 -1.3 -1.3 -1.3 -1.3 -1.3 -1.3 -1.3 -1.3 -1.3 -1.3 -1.3 -1.3 -1.3 -1.3 -1.3 -1.3 -1.3 -1.3 -1.3 -1.3 -1.3 -1.3 -1.3 -1.3 -1.3 -1.3 -1.3 -1.3 -1.3 -1.3 -1.3 -1.3 -1.3 -1.3 -1.3 -1.3 -1.3 -1.3 -1.3 -1.3 -1.3 -1.3 -1.3 -1.3 -1.3 -1.3 -1.3 -1.3 -1.3 -1.3 -1.3 -1.3 -1.3 -1.3 -1.3 -1.3 -1.3 -1.3 -1.3 -1.3 -1.3 -1.3 -1.3 -1.3 -1.3 -1.3 -1.3 -1.3
