ncols 200
nrows 82
xllcorner 320000
yllcorner 763350
cellsize 50
554.7 572.6 594 616.2 634.3 650.2 661.1 668.1 675.4 681.1 685.6 685.5 685.5 686.5 685.1 683 683.7 680.3 672.6 666.7 659.8 651 641.3 633.7 624 611.5 594 575.2 554.2 534.4 523.6 505.3 486.2 469.6 455.8 449 444.1 440.4 441.3 447.6 466.4 479.3 491.8 503.6 509.2 506.6 493.4 479.1 468.2 452.4 440 430.4 424.1 419.3 414.2 408.4 413.5 418.7 426.8 441.3 455.1 468 480.1 490.8 502.8 515.6 525.6 532.9 538 542.3 542.3 538.6 532.9 525.6 520.2 516.2 512.4 513 518.6 525 535.5 544.9 551.5 554.1 551.2 542.5 529.8 516.1 499.8 489.5 483.7 476.9 469.7 463.1 457.1 450.5 445.1 439.6 434.3 430.8 436.2 444.3 453.2 461.2 471.1 482 493.9 507 518.2 525.9 530.3 532.9 530.1 520.2 509.3 500 492.7 487 479.9 473.1 467.8 463.8 461 458.3 457.1 457.2 458.7 465.6 472 480.1 485.6 489.1 489.9 489 486 483.7 481.4 479.5 478.3 481.1 485.6 492.5 499.6 504.8 512.6 522.3 530.7 539.5 545.2 546.8 545.4 543.2 540.3 534.4 523.8 509.9 497.5 484.5 472.8 462.4 451.4 437.9 427.5 417.5 408.4 399 392 386.1 380.7 375.7 374.2 379.9 386.5 391 394 396.3 398.9 400.9 404 405 407 410 412.7 414.6 417.6 417.7 413.2 409 405.8 402.5 398.2 389.6 377.8 367.7 352.7 341.7 332.4 324.2 317.1 309.2
558.4 575.8 595.4 614.5 631.4 648.6 659.6 666.5 675.1 680.9 683.6 684.9 686 684 683.2 678.5 675 668.8 657.4 648.5 638.1 628.8 625.7 620.2 614.4 606 590.8 574.3 556 538.5 523.9 504.7 485.1 469.8 456.1 447.7 442 438.6 440.3 448.2 464.5 477.2 489 500 506.5 504.1 489.4 475.1 464.8 449.6 439.4 430.9 422.6 418.2 413.2 406.7 411.5 417.6 429.3 439.6 452.5 464.8 475.4 483.7 496.7 510.5 521.7 529.5 534.9 536.6 534.9 531 525.2 517.8 513.4 510.2 507.3 506.8 512.6 518.7 530.4 541.8 549.1 551.3 547.1 538.5 527.5 513.8 499 488.8 482.8 476 468.5 462.3 456 449.4 444.5 439.1 433.9 429.2 434.1 439.6 448.2 457.2 468.5 478.6 490.2 502.4 514.4 522.9 528.1 530.4 528.6 519.9 510.1 501.4 493.1 486.2 479.9 472.5 466.1 462.8 459.9 457.2 455.8 455.7 456.2 459.5 465.5 472.2 479.1 483 483.8 483.5 481.9 480 477.8 476.3 475.7 478.6 484 489.9 497.9 504.2 511 520 529.8 540.4 548.3 552.6 554.7 553.9 552.1 548 538.4 525 511.4 497.9 486.8 476.3 462.7 453.1 440.9 425.7 415.1 406.7 400.3 393.3 387.6 384.2 384.1 392.2 400.4 405.7 409.8 412.4 414.4 415.9 420.1 420.7 421.8 423.9 426.1 429.8 432.8 432.4 429.5 426 421.5 419 416.8 409.6 392.1 379.9 365.6 354.2 343.5 334.9 327.4 318.5
567.3 581.9 598.7 617.6 633.2 647.9 658.2 666.9 673.5 678.8 682.3 683 685 684.4 681.4 675.9 666.4 653.1 637.8 625.5 613 606.1 606.5 604.8 602.5 595.9 583.3 570.2 555.1 537.7 522.9 502.5 484.5 467.7 457.4 447.7 441.9 435.1 438.1 445 460.5 473.8 485.7 495.9 501.6 502.2 485.9 472.3 459.4 446.3 437.7 430.6 423.6 416.4 412.2 405.8 409.9 416.8 428.3 437.8 450 460.6 470.4 480.7 492.4 506.9 518 525.8 530.2 531 527.8 523.7 518.2 510.5 507.3 504 502.2 500.4 510 514.6 523.3 537.5 545.8 549.3 544.1 535 523.8 511.6 498.7 489.6 483.7 476.7 469.5 463.3 455.8 448.7 443.8 438.7 433.9 427.4 431.8 437.9 445.7 455.2 466.4 476.5 487.4 498.5 509.7 519.2 526.8 527.2 525.5 520 511.5 503.3 494.9 487.1 478.8 471.2 464.3 461.4 457.4 452.9 453.2 453.6 453.8 456.3 460.6 466.5 472.6 476.3 477.6 478.2 478.1 476.6 474.2 470.6 473.5 476.9 482.3 489 495.3 502.5 511.4 519.7 528.9 540 549.4 556.5 560.5 562.8 561.4 557.7 549.4 538.8 524.4 513 500.2 488.7 477.4 464.4 450.4 437.4 422.8 413.2 408.2 400.5 395.2 392.8 394.2 403.3 413.3 420 425.4 429.3 431.8 433.3 435.7 437.3 439.2 439.6 441.7 444.2 446.5 445.5 444.3 443 440.7 434.8 433.1 430.2 412.6 395 378.2 365.2 354.1 343 333.8 325.7
579.4 594.8 608 622.1 638.2 650.3 657.7 664.4 670.6 676 680.3 683.2 683.5 682.6 678.3 671.6 659.9 641.3 616.8 603.5 590.6 586.2 587 586.2 587.6 582.3 574.4 565.3 551.4 534.3 520 501.8 483.6 467.1 457.6 448 440.6 434.7 434.9 439.6 455.6 469.1 480.8 489.9 496.2 495.2 484.3 471.9 457.5 445.6 435.2 428.9 421.4 414.3 409.9 405.2 406.2 416.1 426.1 434.5 446.7 457.4 467.2 477.6 489.4 502.8 513.6 521.3 524.8 524.9 522.5 519 512.4 505.6 501.2 498.6 496.7 495.8 507 514.6 518.4 531.5 540.2 543.4 539.8 531.4 522 511.6 501.1 490.8 484.4 478.7 472.5 464.3 457.1 450.3 443.5 438.3 433 424.7 429.3 435 442 454 464.5 474.7 484.9 496.1 505.9 515.6 522.7 524.7 523.5 519.8 512.7 504.2 494.7 487.7 479.3 470.7 464.3 460.4 457.3 453.3 449.3 451 451.6 453.3 456.2 461.4 466.3 470.2 471.8 472.8 473.3 472.9 470.6 467.3 472.4 476 481 487.4 493.2 501.7 510 518.9 527.7 539.1 549.6 559.8 565.2 568 569.2 565.1 557.3 547.8 536.6 525.6 515.5 500.9 488.6 476.2 463.3 449.8 435 423.8 415.9 408.2 403.3 401.3 404.6 415 424.9 433.9 440.6 445.9 449 450.6 451.7 453.4 456.7 457.4 457.1 458.2 459.5 458.6 457.7 457.9 452.2 447.2 442.3 437.6 423.7 410.2 395.4 378.3 362.8 351.1 341.8 333.1
593.1 604.6 614.9 628.4 643 652.3 656.2 660.4 665.6 671.9 677.8 682.4 684.4 681.1 675.1 664.6 649 627.4 605.8 583.3 570.8 567.1 566.4 567.7 572.3 569.5 565.5 556.6 544.2 530.7 516.9 500.5 483.8 467.5 457.8 448.6 441.5 436 431.6 435.1 448.4 461.9 473.3 484.5 491.9 492 486 473.4 457.5 445.3 435.5 427 418.8 413.4 409 404 405.3 415 423.3 431.4 442.8 453.6 464.1 476.1 487.2 497.8 508.2 515.1 519.3 518.9 517.6 514.5 508.8 502.3 496.2 492.6 490.2 492.6 500.6 509 514 523.2 532.5 536.1 535.2 531 523.3 514.9 504.5 495.5 487.2 481.8 476.5 468.5 459.2 452.4 444.8 439.3 433.6 425.2 425.4 431.9 440.5 451.2 461.9 472.3 482.7 494 504.2 514.6 520.9 522.8 522.2 519.5 512.8 503.5 495 486.6 477 469.4 463.7 460.1 456.9 452.6 448.3 447.4 448.4 450 452.9 458.4 462.1 465.1 466.7 468.2 468.4 468.7 467.1 466 469.3 473.9 479.4 487.4 494.6 504.7 512.1 519.4 527.8 538.1 548.5 559 567.4 569.8 570.8 569.8 562.9 554 546.2 537.1 528.7 516.7 503.6 488.6 476 461.6 445.8 433.3 425.3 416.5 412.4 410.5 415 426 437.4 448 455.7 460.7 465 466.8 467.9 468.7 472.1 474.1 474.3 473.1 472.5 468.9 468.8 465.4 459.2 453.2 448.7 438.6 425.6 415.4 401.3 388.2 374.7 360.2 348.5 338.4
602 612.6 620.9 632.4 643.3 647.3 651.7 657.6 663.6 670 677.1 682.2 682.7 677.7 670.4 657.7 635 610.5 592 571.2 556.2 549.6 549 550.7 556.2 557.7 553 547.2 537 525.5 513.3 500 486.3 471.1 458.8 450.4 442.8 436.5 430.7 432.8 441 452.9 463.5 476.3 485 486.9 481.9 473.3 458.8 445.1 434.8 425.7 418.1 410 407.5 401.8 404.8 414 418.4 427.9 440.8 451.3 463.1 475.3 484.2 492.8 503.2 509.4 512.9 513.1 512 509.2 503.5 496.5 487.8 484.5 484.6 489.8 496.2 501.8 507.3 513.8 523.7 529 532.3 531.3 526.1 519 510.1 500.7 492.5 486.6 480.6 473.1 465.4 457.2 448.4 440.4 433.3 425.7 421.8 428.3 438 448.7 459.8 471 481.5 492.8 503.7 514.3 520.6 522.6 521.7 519.6 514.6 506.2 493.6 484 475.1 467.6 462 458.1 455.4 452 446.9 443.1 445.9 447 450 455.1 458.3 460.9 462.7 464.9 466 465.9 464.8 465.2 469.5 474.7 483.4 492 500.7 508 514.3 520.5 529.7 539.6 550.3 559.7 566.8 570.8 571.6 569.4 565.6 560.8 554.1 547.4 539.9 529.7 517 503.3 489.3 475.2 458.9 442.3 434.2 425.6 421.2 420.9 426 436.5 448.5 459.2 467.3 473.6 478.8 481.4 482.2 483.5 486.7 489.3 489.2 485 481.5 477.6 473.6 466.8 459.5 454.3 442.8 434.9 425.1 413.5 401.5 390.2 379.5 366.5 355.7 343.5
610.4 618.4 623.9 630.1 637.1 641 646.5 653.6 661.4 668.2 675.3 679.3 678.3 673 664.4 648.4 623.1 599.6 579.6 561.7 547.4 534.4 532.2 534.2 540 544.9 539.8 537 529 519.8 510 500.2 487.2 474.3 463.3 453.2 444.4 437.8 430.8 429.3 434.4 443.9 452.8 463.7 472.9 477.6 475 468.8 458.7 444.2 431.8 423.6 415.2 408.9 403.9 399.1 404 410.5 417 426.2 438.1 449.2 460.7 473.2 481.7 486.7 497.7 503.6 507.4 507 505.2 502.4 497.3 488.8 482.6 480 478 485.8 491.4 497.2 502.4 507.2 515.5 523.4 529.4 531.6 528.7 522.8 514.9 504.9 498.5 491.6 485.1 477.8 470.1 461.4 449.6 442.7 435.4 424.8 419.8 425 433.5 446.2 457.7 469 480.9 491.9 503.5 513.8 520.9 525.1 524.8 522.1 517.1 506.9 493.8 482.3 473.3 466.1 460.8 457.3 453.8 449.5 446.9 442.6 443 444.9 447.5 451.6 454.5 456.8 458.8 460.5 462.1 462 459.9 465.2 470.9 477.9 486.1 496.2 504.6 512.6 517.4 522.2 531.4 542.2 551.8 560.1 566.6 570.7 572 570.2 568.9 566.4 561.7 555.1 549.6 541.1 528.8 515.5 501.8 489.5 477.1 460.6 448.5 438.9 431.8 431.3 436.3 446.7 457.3 468.7 477.9 485.3 491 493.6 495.1 497.2 498.9 500 499.5 494 485.8 479.1 472.1 462.7 452.7 445.7 436.8 426.2 416.7 406.2 397.7 388.7 378.7 367.5 357.6 346.8
613.1 619.4 621.4 624.9 630.3 635.1 641.6 650.8 660.6 667.6 673.7 676 673.4 667.3 656.9 636.4 610.5 589.3 570.2 553.5 539.2 526.5 517.7 519.1 524.5 529.4 528.1 525 521.2 514.6 507.2 499.1 488.3 478.5 469.2 457.3 447.6 437.1 432 426.4 430.8 437.3 445.3 453.8 461.7 466.7 467.8 463.6 456.6 443.8 428.8 422.1 413.9 408.4 404 398.2 400.4 406.4 415 423.8 434.9 446.5 456 467.4 476.3 481.4 490.1 496.8 500.9 501 498.1 494.9 491.2 483.9 477.8 474 474.8 480.9 486.3 492 496.7 503.3 510.5 517.8 526.7 531.6 530.7 526.3 520.3 512.8 504.4 497.1 490.1 482.1 474.4 464.8 452.5 445.5 437.5 427.1 419.1 420.4 430.4 441.8 454.5 467.3 479.4 490.5 502.5 513.2 521.1 525.5 527 524.5 518.3 505.8 493.3 481.8 471.3 465 459.8 456.1 452.7 448.9 445.8 442.1 439.8 442.3 444.1 446.3 450.8 452.2 453.7 455.4 457.3 456.4 460.6 464.5 473.4 481.1 489 498.9 508.5 517.1 522.4 527 534.6 544.7 553.3 560.5 565.9 570.3 573 572.4 571.4 569.5 566.3 562 557.3 549.8 538.5 526.2 514 504.2 493 477.8 462.7 451.9 442.5 441.1 446.8 456.2 466.1 475.6 484.9 491.7 497.7 503.1 506.6 507.1 507 509.6 503.7 495.5 485.9 476.1 464.7 453.2 444.3 433.3 423.3 415 405.9 399.3 392.8 385.4 377.1 367.7 357.7 347.4
613.6 615.8 615.9 618.1 624.7 631.4 639.8 649.4 661.1 668.6 672.1 672.1 668.2 660.5 646.5 624.2 600.5 580.5 561.1 544.9 531.8 519.1 506.9 505.7 508.3 514.6 516.1 514.3 513.6 509.8 505.7 497 489.2 484 472.2 461.5 450.7 439.3 432.9 423.9 426.6 430.4 438.1 445.5 452.2 457.8 460.4 461.4 454.8 440.6 428.2 420.2 412.8 408.3 403.1 397 397.6 404.5 412 419.4 430.7 442.4 451.9 462.2 469.9 476.1 484.3 491.7 494.6 494.6 492 488.2 485.1 478.8 473.5 470.3 470.4 475.7 482 487.7 493.9 498.7 506.9 514 524.4 530.6 532.2 529.7 524.1 519.1 510 502.8 494.7 485.7 477.9 467.5 453.7 446.5 438.5 429.8 417.4 417.9 426.8 439 451.6 465 476.3 487.8 501.3 512.5 521.1 526.6 528.8 525.7 517.7 504 491.2 479.2 468.4 462.8 459.6 455.6 452.1 448.9 445.1 440.9 437.6 439.2 441 443.2 446.7 448.6 450 451.8 452.1 456.9 462.7 465.4 474.7 481.8 492 501.8 511.4 520.4 527.9 533.6 539.2 547.9 555 560.9 565.5 568.8 571.2 571.9 572 570.9 568.4 565.5 561.3 555.3 546.1 535.4 525.5 516.6 504.9 491.1 475.7 465.8 457.4 452.7 457.2 465.3 472.7 481.5 489.3 496.1 502 508.1 511.2 510.6 508.7 507.2 498.1 485 471.3 460 449.3 441.4 428.8 418.9 411.4 405.5 398.9 393.7 389.5 383.2 375.8 366.2 356.9 348.1
607.7 607.6 608.4 610.1 621.1 629.9 640.5 652.9 662.3 668.4 668.3 667.1 661.6 651.3 635.6 613.1 590.1 570.4 550.4 536.5 523.3 511.9 500.6 494.2 495.8 500.8 503.4 504.6 504.9 505.4 503.8 498 492.8 488.1 476.5 465.3 452.9 441.9 433.3 428.2 420.7 425.3 428.6 436.2 443.4 448.5 452.1 455.2 449.9 441.2 426.9 418.4 413.5 407.8 401.1 394.8 395 402.2 407.5 415.6 425.8 437.3 446.9 456.7 464.5 472.4 479.5 485.6 488.4 488.6 486.5 483.4 479.3 473.9 469.5 466.8 467 471.6 478.6 485 490.8 496 504.1 511.1 521.2 528.4 531.2 529.6 528 523.4 514.8 507.4 499.6 489.1 480 469 455.8 447.3 440.2 430.7 415.2 416.5 423.5 436 448.7 462.4 474.4 487.7 499.9 511.9 521.5 527.7 528.9 524.8 516.1 502.4 487.4 476 466.4 461.8 458.7 454.1 450.8 446.8 443.4 441 438.5 435.5 438.2 440.5 442.9 444.9 444 445.5 451 456 460.7 465.9 474.5 483.2 493.8 504.1 513.6 523.2 531.4 536.1 543.9 553 558.3 561.5 564.3 566.8 567.5 568 569.4 568.8 567.3 565.6 562.1 557 551 543.6 536.4 528.2 516.4 503.4 490.6 479.6 472.7 467 468.5 473.6 479.6 485.5 491.9 498.1 503.5 507.8 508.9 509.4 502.8 495.8 480.6 465.7 451.1 442.2 432.8 422.3 413.4 405.6 399.8 393.9 389.6 386.7 384.7 379.7 374.9 367.4 358.6 349
595.8 596 599.5 607 618.3 630.1 641.6 653.3 661.4 663.8 661.4 658.5 651.8 639.1 623.3 602.9 580 558.6 541.5 527.4 515.2 505 492.8 484 485.5 488.1 492.7 494.9 496.7 500.1 500.1 499 497 491 481.9 469.9 455.5 443.4 433.5 429 423.6 419.6 423 429.2 435.5 439.7 444.7 447.6 445.6 438.1 427.1 417.5 413.3 408.2 401.4 395.8 392.9 398.8 403.7 411 421.1 431.8 440.7 450.6 460.3 467.9 474.9 480 483.7 484.2 482.3 479.1 475.6 470.6 465.2 463.1 464.3 467.7 475.4 480.2 486.3 493.1 501.3 508.4 516.7 524 528.2 530 530 525.3 518 511 500.3 490.2 479.6 468 456.8 447.5 439.4 429.5 418.7 412.8 422 433.5 446 461.5 473.8 487.4 499.8 511.4 520.8 526.9 527.5 522.7 513.8 500.3 486.5 474.7 465.8 461.6 457.5 453.2 449.9 446.1 442.2 438.9 436.4 433.2 435.4 436.4 436.4 441.2 445.2 449.4 453.8 457.9 462.6 468.4 474.6 483.8 496.2 507 516.7 525.9 533.9 541 547.6 555.4 559.6 563.7 564.6 564.3 564.2 564.4 564.4 564.4 563.8 562.4 560.4 557.7 553.7 549.1 545.1 538.4 528.5 517.6 505.5 495.1 488 481 480.2 482.3 484.9 488.6 492.5 496.4 499.9 501.6 500.8 494 485.8 472.4 459.1 448.2 435.7 426.2 417.9 409.2 401.5 394.8 389.2 384.5 379.6 378.8 376.5 375 371.8 368.2 360.8 352.3
583.3 586.3 598.8 607.8 616.7 630.4 641 651.4 657.3 656.5 653 647.9 638.9 626.8 612.5 591.4 569.5 549.8 533 520.8 507.6 497.4 486.6 476.8 477.8 480.2 483.3 485.7 489 492.7 495.7 498.1 498.7 493.7 486.4 472.7 458.6 447.1 437 430.8 423.4 415 417.1 421.5 426.9 431.4 435.6 438.1 439.8 434 427.3 418.9 413.5 409.9 403.1 396.5 391.9 396.6 400.7 406.5 415.7 426.6 435.4 445.9 454.5 462.6 469.4 475.9 479.8 479.1 478.6 475 471.4 465.8 462.3 460.4 462 465.8 470.9 475.9 482.4 488.7 498.6 505 511.3 519 525.2 529.3 529.1 524.5 517.7 511.6 498.9 488.7 476.1 466 455.7 446.8 439.3 427.2 418 410.4 421 434.5 447.1 460.1 474 487.8 500.2 512.2 520.9 525.7 525.2 520.1 511.6 498 485.1 473.1 466.4 462.1 457.4 452.6 448 444.3 440.9 437.1 433 431.8 433.4 436.5 440.4 444.1 448 451.6 456.1 460.8 466.1 472.4 479.8 489.2 500.1 510.2 519.2 528.1 537.2 545.3 553 557.8 561.9 564.1 565 563.6 562.3 560.4 558.7 557.9 557.7 558.3 557.8 556.6 555.9 553.9 550.7 545.3 537.9 529.7 518.7 508.5 498.9 490.4 489.1 488.7 488.5 489 490.4 490.9 491.8 490.4 484.4 474 464.4 454.7 442.9 432.8 423.3 414.6 405.6 397.1 390.8 385.4 380.6 374.8 372 369.4 368 368.4 368.9 366.7 362.7 356
576.5 588.8 599.9 609.9 619.5 630.5 641.1 649.4 652.3 648.5 643.6 635.2 625.9 614.4 597.6 577.8 559.6 541.2 526.5 513.9 500.7 491 481.6 474.9 471.4 473.2 475.4 477.8 482 486.6 490.3 495.3 497.8 495.5 488.6 476.3 462.7 449.6 437.5 430.8 423.7 417.8 412.4 414.8 421.5 426.5 430.4 432.9 434.3 432.1 427.5 421.5 415.2 410.1 404.1 397.1 390.7 392.5 396.9 402.9 412.2 421.8 431.1 440.1 449.2 457.4 463.9 469.9 475.1 475.6 475.1 471.6 467.4 462.7 460.4 457.7 458.8 462.9 467.2 472.5 478.8 486.5 495.3 502 507.5 514.6 521.5 526.1 526.5 521.7 515.6 507 495.5 484.7 471.9 462.5 453.8 445.1 437.1 424.2 415.8 409.8 423.1 437.3 451.7 463.2 476.5 489.6 502.3 513.3 521.2 524.9 522.9 518.2 510.5 497.1 485.1 473.6 467.5 463.1 457.8 452.6 448.1 442.5 437.7 435.7 432.3 431.8 434.5 437.8 443.6 447.6 451.4 455.4 460.1 465.1 470.1 477.4 486.4 496 504.9 514.3 523.3 531.3 541.3 550 557.3 562.2 563.2 566.2 565.9 562.5 560.2 556.4 553.4 550.9 551 552.5 554.2 554.3 554.9 555.8 554.1 550.7 546.1 539.3 529.4 517.6 506.7 498.3 494.9 491.9 488.8 485.6 484.3 482.9 480.1 474.1 464.8 456.5 448.2 441.4 430.6 419.9 410.3 401.8 392.1 385.2 379.7 374.5 370.5 366.2 363.5 361.8 361.3 362.2 365 364.2 361.3 355.5
580 592.5 604.7 615.4 625 635 644.2 648 646.2 640 631.5 622.5 612.6 599.9 583.1 567 551.9 536.8 520.8 507.9 494.9 485.6 475.7 470.4 464.9 466.9 469.1 470.7 474.8 479.4 484.2 491.2 496 496.9 489.8 479.4 465.3 451.8 441.6 432.7 425.1 417.6 410.4 411.2 415.8 421.9 425.5 429.1 431.5 431 428.8 424 417.4 411.1 405.2 399 391.4 388 394.8 400.4 407 416.2 426.2 434.8 443 451.7 458.1 464.5 469.9 473 472.7 469.9 465.3 461.1 458.4 454.9 456.2 458.2 464.5 470.4 477.8 485.4 493.2 499.5 505 511.7 518.1 522 521.2 516 507.8 499.7 489.9 478.9 467.4 458.5 451.4 443.8 434.1 421.8 411.6 409.5 424.7 439.2 453.3 467.5 480.7 492.9 505.3 515.8 522.9 525.5 522.6 517.6 508.6 496.4 485.4 475.2 469.2 462.3 457.8 451.8 447 441.9 437.9 433.6 431 430.9 434.2 438.6 445.4 450.8 454.8 459.6 465 470.5 475.5 484.2 493.5 502.7 510.8 519.7 528.9 536.9 546.1 555.3 562.3 566.9 569.4 568.9 567.7 563.9 559.7 553.8 548.8 546 544.4 545.1 546.8 549.1 550.9 552.2 553.6 553.3 550.8 545.6 536.5 524.7 512.3 503.9 497.7 491.3 486.4 481.7 477.1 472.8 467.2 457.6 449.9 442 435.5 427.7 417.3 407.1 396.6 387.5 379.1 372.7 368.9 364.6 360.7 357.6 354.8 353.6 354.3 355.2 358.1 357.6 356.4 353.7
583.6 598.7 611.7 623 633.1 639.3 644.8 644.7 638.8 628.1 617.3 608.1 597.8 583.9 569.9 557.4 545.1 528.8 514.2 500.1 489 480.1 472.2 466.4 461.9 460.8 462.7 464.6 468.4 472.8 478.4 485.9 492.6 495.2 492.9 481.2 467.3 454.3 445 436.4 424.6 417.8 411.1 408.3 411.2 416.6 421.5 425.5 429.4 430.9 428.8 425.1 419.1 413 406.9 399.7 393.2 385.7 390.7 397.3 402.8 410.7 421.3 429.2 437.4 445.7 452.9 458.4 462.2 467.1 471 469.2 464.5 460.3 457.6 452.8 452.5 454.4 460.5 467.7 476.4 482.9 490.2 496.7 502.1 507.7 513.4 515.5 514.3 508 500.5 491.9 483.2 473.5 462.1 453.8 447.5 441.7 433.7 420.1 407.4 410.1 426.8 441 456.3 470.9 483.5 496.9 508.5 518.1 524 525 521.8 516 505.9 496 485.4 477.3 470.3 463.5 458.6 452.9 447.5 442.3 437.1 434 430.8 429.4 433 439.1 445.7 451.6 456.6 461.6 470.3 475.7 481.8 492.2 501.8 509.5 518.1 526.2 535.8 543.7 552.6 561.2 568 572.8 574.6 574.3 572.2 566.4 560.5 553.7 547.7 541.6 538.9 538.5 537.8 540.1 542.8 545.6 548.4 550.4 550.3 546.9 539.2 528.6 515.5 506.5 499.3 491.3 483.4 476.3 468.8 461.9 453.6 444.6 436.3 429.9 422.9 414.6 405.8 394.4 383.6 374.8 368.4 362.9 357.7 353.5 349.7 347.7 345.2 344.4 346.3 345.4 348.9 350 350.2 348.2
586.9 603.7 617.5 630.8 640.1 642.3 642.2 637.5 628.1 614.8 602.5 590.4 578.4 568.8 558.3 548.8 535.6 521.7 507.8 496.6 485.3 476.2 469.4 463.5 457.9 455.3 457.8 459.6 463.1 465.8 472.5 481 488.5 492.4 490.8 483.9 468.4 456.1 447.2 438.8 425.1 417.5 411 407.3 408.4 411.5 417.6 422.8 427.4 430.2 430 425.9 420.9 414.5 408.2 398.2 394 385.6 387.5 394.4 399 405.5 415.3 423.2 429.6 435.3 441.3 447.7 454.7 463.7 469.6 468.4 464.2 459.6 456.9 452.9 450.3 453.3 457.1 465.2 474.4 479.2 486.6 492.8 497.7 501.7 506.4 506.8 504.3 499.1 493.4 484.1 473.8 465.1 455.7 449.7 444.1 439 431.5 418.9 404.5 411.6 429.5 443.3 458 473.4 488.2 501 511.5 519.9 523.9 523.7 520.2 513.9 503.6 493.7 484.5 478.4 470.1 464 459.6 453.1 447.6 443 437.9 435 430.8 426.1 431 438.7 445.6 451.4 457.8 465 474.3 481.2 489.2 500.3 510 518.5 526.9 534.5 543.6 551.8 559.6 568.1 574.6 578.9 580 579.2 576.4 569 562.2 553.8 546.7 540 534.3 533.6 532.1 532.9 534.7 537.4 541 544.6 545.7 544.6 539.3 530.5 519.1 508.2 499.9 490.6 480.7 470 460.2 451.5 443.2 434.6 426.1 419.4 411.8 404.4 394.8 383.6 374.4 365.5 359 353 349.4 345.8 342.1 338.6 338.1 337.9 337.2 337.2 339.9 342.3 343.3 341.7
588.1 605.8 621.2 633.1 641.1 641.4 634.7 626.6 616 601.4 584.9 570.7 561.2 554.2 545.9 537.3 524.9 513.7 504.1 494.5 483.4 473 465.5 459.5 454.1 452 452.9 454.6 457.9 461.2 466.5 476.1 484.1 489.1 489.7 482.9 471 458.3 448.7 436.4 425.4 417.9 411.5 407.2 405.7 409.7 413.9 419.5 424.8 429.5 431.5 427.9 423.3 416.2 407.1 400.8 394.5 388.7 383.4 390.6 395.5 401.6 408.3 416 422.8 428.5 434.8 442.2 450.2 460.3 468.1 467.5 464.8 460.7 455.4 451.1 446.1 451 453.7 462 472.1 476.6 482.2 487.4 492.2 496.3 498 497.8 494.8 490.9 484 475.2 466.2 457.9 450 444.1 438.7 433.8 427.8 415.2 404.2 413.2 431.3 446.3 460.6 476.6 491.6 504.5 514.6 521.5 523.7 521 516.8 508.7 499.5 490.3 484.2 477.1 470.6 464.7 460.2 453.6 449.1 443.8 439 435.4 431 427.3 428.1 436.2 444.9 451 457.5 467.5 476.8 484.1 496.3 506.8 516.4 525.6 534.4 542.9 551.4 560.4 569 576 582.5 586 587.3 585 580.1 573 565 555.4 546.4 539.3 533.5 528.3 525.9 526.6 528 530.1 533.2 536.3 538.9 539.9 537.1 529.9 519.5 508.3 497.6 488.3 477.5 465.9 456.1 445.1 433.7 424.4 414.8 407.5 400.1 391.7 381.9 373.3 365.4 357.3 351.3 347 342.7 337.3 334.2 331.3 331.6 331.6 331.1 330.4 330.6 331.7 331.8 331.1
587.5 605.9 619.3 630 637.9 635.5 627.7 617.8 604.3 586 567.5 555.4 547.7 539.6 532.3 524.2 514.8 508.4 501.9 492.6 481.2 469.8 461.8 455.7 451 448.2 448.7 450.1 453.2 456.6 461.5 470.2 479.8 485.7 487.3 482.7 473.3 461.4 449.2 435.8 426.4 417.9 411.9 407 403.8 405.7 410.3 417.4 422.7 428.6 432 430.7 426.5 417.8 408.3 404 395.7 390.6 382.8 387 393 397 404.7 410.5 417.5 423.4 429.9 437.6 446.4 457.3 466.1 467.6 465.6 460.6 456.9 451.3 446.1 445.5 449.1 457.3 467.3 471.9 476.2 481.3 486.7 491.3 493.3 492.9 490.2 485.6 476.5 467.3 458.8 451.7 445 438.6 432.3 427.2 423.8 411.8 402 412.3 433 447.9 463 477.4 493.2 505.6 515.5 519.9 519.9 516.1 510.1 503.9 494.9 486.9 482.3 478.6 472.7 466.6 461 454.3 449.5 444.6 440.5 436 431.4 426.4 427.6 434.5 442.4 451.1 458.1 469.1 479.3 489.4 501.5 512.7 522.8 532.9 543.2 551.5 561.9 572.3 580.8 587 591.4 594.4 594.5 591.4 586.8 577.7 567.3 557 547.3 538.7 532.9 526.7 521.8 521 522 523.6 526.4 530.1 533.2 534.2 531.7 526 517.9 508.3 497.6 486.3 474.3 462.4 452.2 442.1 430.1 416.2 403.7 395.3 389 380.8 370.9 364.2 357.8 351 346 341.5 337.1 332 327.4 324.6 322.9 322.6 323.3 322.2 320.5 320.5 320.7 318.5
580.9 600.4 614.1 624.5 629.5 626.7 621.7 612.3 594 572.7 552.6 541.2 532.7 526.7 517.6 513.5 507.1 502.3 496.9 488.6 477.6 465.9 457.2 452.6 448.4 443.5 445.2 446.5 450.1 452.7 457 465.1 474.4 481.9 485.1 483.9 477.5 463.1 452.1 435.7 425.5 417.5 411.5 406.9 404.1 404 407.9 414.2 420.8 427.6 433.6 432.6 429 421.6 413.7 409.3 399.6 391.9 382.6 382.6 388.7 395.4 400.3 406.5 412.2 418.4 425.4 433.7 442.8 453 463.6 466.7 465.1 461.2 455.1 451.3 445.2 441.7 445.5 451.5 459.1 465.7 470.4 476.2 482.5 486.4 489.8 490.7 486.7 481.8 471.3 461.9 453.1 446.2 439.4 432.9 426.4 421.8 417.1 407.4 398 416.6 434.1 449.2 462.6 476.5 491.3 503.2 511.7 515 512.3 508.1 504.9 499.5 490.9 485.3 481.4 477.7 473.9 468.9 462.2 454.8 449.7 445.7 441.6 436.9 431.9 425.9 427 433.3 441.7 450.9 459.5 471 482.4 493.6 506.9 517.6 528.4 540.5 551.5 561.1 572.3 581.9 589.9 595.3 599.5 602.2 601 596.9 590.3 581.8 571.7 559.4 548.5 539.2 531.4 525.5 520.2 517.5 517.9 519.9 523 527.5 531 532.6 530.5 525.4 518.3 509 497.7 485.4 472.6 458.3 446.4 435.3 423.3 411.7 398 387.2 379 371.2 364.8 358.4 353.9 347.9 342.6 337.2 332.5 328.1 325.1 323.1 318.7 315.7 315.8 315.2 313.9 311.9 312.5 309.4
573.3 591.6 607.3 616.2 621.1 617.6 612 603.8 586.5 564.9 544.8 531.7 521.1 512.5 506.5 504.2 498.5 494 488.6 481.1 471.2 460.7 453.6 449.4 445.8 441.8 441.4 443.1 446.2 449 453.8 460.2 469.7 478.3 483.3 485 481.4 468.6 453 434.7 425.6 417.2 411.2 406.5 403.4 401.1 406.5 411.8 419.4 427.6 433.7 434.1 436.6 428.6 419.7 411.2 401.5 391.7 383.3 379.1 384.7 391.6 397 402.9 407.7 413.1 420.8 429.8 438.5 448.6 460.7 467.5 466.3 461.3 455.7 449.3 444.3 439.8 442.4 445.2 451.8 460.3 464.9 472 478.3 482.1 485.6 487.6 482.7 476.4 467.7 456 449 441 433.5 427.4 421.6 416.4 410.7 394.9 397.6 419.2 436 450 462.6 475.4 489 500.3 507.5 511.4 509.1 504.7 497.9 492.9 488 484.5 481 477.8 474.8 469.2 461.4 454.6 449.4 445.7 441.6 437.1 431.3 425.4 426.5 433.5 442.9 451.4 460.7 472.5 485.8 498.3 510.6 521.4 534.8 548.1 558.2 570 580.7 589.9 597.3 601.5 604.4 606.4 603.1 598.1 591.3 583.5 573.4 560.4 548.7 537.6 529.2 522.4 519.1 515.1 513.5 515.4 519.9 524.7 529.5 532 530.2 526.3 519.2 510.2 498.6 485.5 471.8 458.6 443.1 431.1 418 408.8 397.8 385.2 375.4 368.5 361.5 354.3 349.6 343.5 341 338.8 336 332.3 329.5 326.5 322.9 319.2 316 310.2 308.1 306.9 305.5 303.2
566.4 582.9 597.2 606.2 607.7 604.9 598.6 589.3 575.1 557.1 538.8 523.2 511 499.9 496.2 494.5 489.3 484.5 479.9 470.4 462.7 454.5 449.1 445 442.2 439.4 438.6 440.2 442.8 445.9 450.3 458.3 465.8 474.9 480.8 486.1 485.2 471.5 453 434.5 424.9 417 411 406.2 402.9 399.9 404.8 409.8 418.5 426.2 432.4 441 443.3 434.7 424.9 412.4 401.4 393.2 386.4 377.9 376.9 386.5 393.8 399.1 404.8 409.7 417.2 425.4 433.5 444 457.8 467.5 467.4 461.3 457 449.9 445.4 435.1 438.2 440.9 445.4 453 459.5 465.3 474.1 478.2 480.6 482.1 479.3 474.2 464.9 453.5 445.7 435.7 428.7 423.3 416.8 410.8 402.8 393.6 406.7 422.8 438 451.3 464.1 476.4 487.5 497.8 505.1 507.1 504.7 493.9 490.7 487 485.1 483.4 480.9 478.7 474.2 466.9 459.9 454.1 449 445.4 440.9 435.5 429.8 422.6 426 435.2 444.7 453.4 460.9 473.4 486.9 501.2 513 524.5 538.5 552.5 564.5 576.6 587.9 596.3 602.5 603.3 602.9 601.6 599.5 596.4 589.1 581.5 571.8 559.4 547.4 536.4 526.3 520.4 516.7 513.9 510.4 511.3 515.7 521.2 527.6 531.5 531.6 527.4 519.1 508.9 497.6 484.8 469.2 454.2 441.1 427.1 416.4 405.1 395.7 386.1 375.3 367.7 361.3 352.6 348.9 348.6 347.5 345.6 349.9 346.8 339.2 332.4 327.6 324.4 319.6 314.7 311.5 307.6 306.5 306.3
559.8 574.3 584.2 591.8 593.5 591 585 577 562.7 547 530.2 514.2 505.8 495.5 482.6 482.5 479.8 475.8 471.8 462.4 455 449.7 445.2 441.1 438.9 435.5 433.4 437.5 439.7 443.5 447.6 454.5 462.8 472 477.8 481.6 479.5 466.9 451.6 435.1 424.2 415.9 410.9 405.6 401.3 398.6 402.9 407.7 415.7 426.4 433.5 444.4 447.7 439.1 428.9 416.1 403.7 393.8 385.2 376.9 375.1 385 389.8 395 402.2 407.9 414.9 422.6 430.9 440.3 455.7 467.1 466 462.3 456.6 449.9 444.8 437.5 434.4 436.4 440.7 446.6 452.8 461.4 467.8 473.2 475.3 476.9 475.9 472.5 464.4 453.8 440.6 431.4 424.9 419.5 413.5 406.7 400.4 393.1 411.3 425.7 439.5 450.8 465.3 477.7 487.5 496.3 502.1 502.4 497.5 491 486.2 483.6 481.9 481.2 480.8 478.7 472.8 465 457.8 452.4 448.2 444.1 439.7 433.1 428.2 420.4 425.8 435.8 444.5 451.2 459.9 473.7 487.9 503.2 515.5 527 541.3 555.3 569.7 580.5 590.1 598.5 600.9 599.1 596.2 594.1 592.9 588.8 582.9 575.2 566.1 555.6 543.1 533.9 525.2 518.4 514.2 511.3 507.7 507.6 511.6 518.6 525.2 529.8 530.1 525.8 518.6 508.4 494.8 481.2 465.4 449.5 436.1 421 408.2 397.8 389.6 381.2 373.5 367.3 359.8 356 355.5 355.4 355.1 360.7 360.6 353.6 346.4 342 334.8 329.4 324.2 319.6 315.8 310.7 311.9 313.7
551.7 562.4 570.1 576.6 579.1 577.7 570.4 560.8 550.8 536.9 521.1 510.6 499.9 488.5 475.8 472.7 470.1 466.6 460 453.2 449.3 444.9 441 437.5 435 432.3 432.2 434.9 437.3 441.6 445.7 451.2 460 468.1 473.6 475.6 472.2 463.7 449.8 434.3 423.2 415.5 410 404.4 399.9 396.9 401.9 406.6 414.9 424.4 432.8 444.1 447.8 439.6 431.3 417 404.5 394.1 385 377.9 374.1 380.8 387.8 393.5 400.2 406.3 413.7 421 428.5 437.5 453.5 465.6 466.6 463.2 455.9 449.7 443.7 439.5 428.8 432 435.5 440.4 447.1 453.9 462 467.3 469.1 471.2 470.8 469.9 462.4 452.1 439.8 428.3 422.4 417.3 413.1 404.8 394.7 396.6 414 429.4 440.8 454 466.2 476.9 485.8 491.3 496.8 495.6 492 486.6 481.7 479.1 478.1 478.1 477.8 476.1 469.7 463.4 455.8 451.3 447 442.8 438.1 430.3 425.7 418.3 428.8 435.5 443.9 451.5 460.5 473 487.9 503.1 516.1 528.4 542.5 557.6 572.9 583.4 591.6 595.8 595.2 592.5 588.6 584.1 580.6 576.5 570.8 564.4 557.9 549.6 540.2 532 524.4 517.5 512.3 508.5 505.4 503.1 507.5 513.3 520.4 525.4 527.3 523.4 516.4 506.3 491.5 475.3 459.3 443.4 429.7 413.9 402 391.6 384.4 376.2 371.3 364 363.6 363 365.8 366.3 369.7 372.3 364.7 358.6 353.7 347.2 340.5 334.6 328.5 322.9 315 315.7 319.9 328.4
538 549.3 557.6 564.1 566.6 564.2 553.5 544.8 536.7 527.1 518.2 506.2 493.4 480.8 469.9 464 460.6 455.9 449 445.5 440.8 438.7 436.7 433.4 430.5 428.8 429.1 432.4 435.7 439.5 444.8 450.5 457.6 464 469.8 471.1 467.4 458.7 445.9 432.5 422.6 415.1 408.7 403 399.1 396.3 401 405.9 412.4 424.1 431 443.2 445.6 439.1 431.7 416.4 404.2 393.5 383.8 377.7 372.5 378.1 385.6 392.1 398.7 405.5 413.3 420.8 428.1 438.1 451.3 464.2 467 463.4 456.5 449.3 442.7 437.6 430.4 427.2 429.9 435.3 442.2 448.4 456.7 461.8 465.2 466.6 467 464.9 460.3 452.5 437.7 426.9 420.1 415.1 409.4 402.7 387.9 401.4 415.7 428.7 441.3 454 465.1 473.9 481.7 486 488.6 488.7 485.8 480.4 477.9 474.8 474.4 475.2 474.6 471.9 466.8 460.7 453.7 449.1 445.9 442.2 434.9 427.8 422.4 417.5 430.2 438.8 445.7 453 461 473.5 488.6 502.8 517.2 529.8 544 558.8 574.1 583.5 589.5 590.7 587.4 583.3 577.2 571.1 565.9 562.3 558.7 553.7 549.3 543.2 536.8 530.6 524.7 518.2 511.4 507.5 503.7 497.8 503.1 508.4 514.4 519.7 522.8 521.4 515.3 504.9 491.1 474.4 454.5 438.9 421.4 407.8 396.8 387 377.8 374.5 373.4 373.6 373.3 375.4 377.1 379.5 379.2 376.2 369.5 363.6 358.1 351.8 345.7 338.5 331.1 325.3 318 322 331.7 341.2
528.1 539.8 546.4 551.3 553.2 549.7 541.3 535.1 532.4 526.8 518 503.5 488.2 474.3 462.3 454 449.6 444.4 441.1 437.6 434.2 431.7 430.2 430.5 427 424.4 425.3 429.4 433.4 437.4 442.7 449.9 456.9 461.4 465.2 466 462.6 454.4 441.4 429.4 420.8 413.3 407.4 401.9 398.6 395.7 399.1 405 412.7 422.5 428.7 439.9 443.2 438 430.8 417 404 391.6 382.1 376.8 370.4 375.5 382.3 390 397.1 404.8 412.8 420.5 428.3 436.9 449 462.5 465.7 463.2 456.4 447.7 442.8 436.9 430.2 421.9 425.7 430.2 436.1 442.5 450.2 456.7 460.4 463.2 463.2 461.5 456.5 448.9 437.2 425.3 418.4 412.6 405.9 397.6 386.1 400.8 415.6 428 440.5 451.9 461.2 468.8 475.5 479.5 480.6 481.8 479.1 475.5 473.7 471.5 470.6 471.2 471.1 468 464 456.8 450.9 446.5 443 438.8 433.1 426.8 419.3 418.5 430.7 440.7 449.2 457.5 465 473.4 488.6 503.2 517.5 531.4 546.2 560.5 573.9 581.5 585.1 582.8 577.8 571.3 563.7 556.9 552.1 550.1 547.9 544.1 541.8 538.3 534.2 529.4 524.4 518.9 512.6 505.5 500.7 494.8 498.5 503 507.9 515.2 519.8 521.2 514.5 503.9 489.5 469.2 450.1 435 417.1 402.1 389.8 385.5 385.7 383.3 382.6 382.5 384.5 387 389.4 390 387.3 383 376.2 369.7 363.6 355.9 349.1 341.9 333.7 326.4 321.6 329.2 340.5 352.2
515.9 526.8 532.7 534.1 536.2 533.7 529.6 528.2 530 527.9 515.1 500.5 481.9 468 457.1 449 439.3 436.4 433.5 431.2 427.3 425.2 424.6 424.6 423.8 419.9 421.8 427.7 431.3 435.8 442.1 449 457 461.4 463.3 462.9 459.2 449.9 437 425.4 418.3 411.5 406.8 401.4 398.1 395.1 396.2 403.9 410.6 420.4 429 436.3 439.2 434.7 426.1 413.6 403 389.6 382 375 368.2 374.7 380.3 388.3 396.4 404 412.2 420 428 436.5 447.8 457.6 463.1 461.5 455.9 448.9 442.6 436.1 430.6 419.3 420.9 426 430.6 435.9 444.2 450.1 454.7 457.6 459.3 457.1 452.8 445.4 435.9 425.4 417.4 411.1 399.3 392.7 385.5 399.9 415.1 428.9 440.1 450.1 458.8 466.3 471.9 475.3 475.7 474.2 471.8 471 469.4 467.9 467.1 466.9 467.9 464.8 457.6 452.3 448.2 443.7 439.7 435.6 430.2 423.6 415.7 413.6 432.2 441.6 450.7 459.3 469.8 479.5 490.6 505 519.4 532.8 547.3 561.3 572.6 579.2 579.1 574.8 566.2 559.9 551 544.2 538.9 537.8 536 536.5 535.4 534 532.2 529.3 524.1 518.7 512.4 504.6 498.6 494.4 493.6 498.6 503.7 510.2 516 516.7 511.4 501.4 478.5 458.1 442.2 428.8 408.8 394.8 396 397.9 394.1 393.7 391.8 391.4 393.7 397.9 400 399.3 397.8 391.8 385 375.7 367.1 359.8 351 341.3 336.1 331.4 326.1 335.2 348.2 361.2
497.4 509.6 516.4 517.4 519.8 520.8 519.4 521.1 522.8 523.2 508.4 492 474.8 460.6 452.5 441.3 433.5 429.4 426.7 423.8 420.8 420.1 419.9 419.8 419.2 415.3 419.6 424.5 429.8 434.5 442.7 450 456.3 461.8 463.4 461 454 444.5 434.1 422.7 416.3 411.4 405.3 400.7 397.5 394.8 395 402.4 408.3 419.8 426.8 433 434 430.5 422.1 411.2 400 387.8 381.4 372.2 367.6 373.3 379.4 387 395.3 403.3 411.3 419.8 428.4 436.8 446.6 453.7 459.4 458.8 454.1 446.2 438.5 430.3 425.2 419.4 417 422 426.9 431 435.5 441.4 447.7 452.7 454.1 449 447.1 443.1 434 426.4 416.4 401.4 396.4 391.2 383.6 399.4 412.9 426 438.1 448.1 457.2 464 469.1 471.2 471.2 469.5 467.8 467.1 465.9 465.4 464 462.8 465.1 459.7 454 449 445.6 440.8 436.3 432.7 428 420.6 412.2 421.9 434.3 445.4 454.3 461.7 472.9 481.5 493.1 506.2 520.8 533.5 548.2 561.3 571.7 577 574 568.1 559.8 548.1 535.9 528.9 527.2 526.2 526.2 528.5 529.2 530.5 530.4 528.8 524.5 519 512.8 504.7 497.7 492.1 489.7 494.9 498.2 503.8 509.5 511.4 507.3 489.8 470.2 447.7 435.8 421.1 406.8 413.3 410.9 409.4 408.6 407.6 405.1 401.3 403 407.3 407.6 406.3 402.1 396 389.8 379.3 370 361.8 353.7 347.3 341.3 336.5 330 339.9 354.9 367.7
481.6 492 499.2 501.7 505 509.8 512.6 514.5 512.3 507.7 495.6 481.7 467.3 456 447.6 434.1 428.3 422 420.1 417.7 415.9 415 415.2 415.1 414.1 410.2 415.1 421.4 427.8 433.3 441.1 450.4 455.8 459.4 461.7 455.7 448.7 440.5 430.6 420.6 414.1 409.7 403 399.3 395.7 392.1 395.1 401.2 406.9 416.2 424.1 429.2 431.5 427 418.7 407.6 397 387.6 379.5 373.4 366.2 371.3 377 384.1 391.9 401.5 410.9 419.5 428.2 437.5 446 446.5 446.5 446.2 444.6 441.4 439.3 434.7 430.6 421.6 413.4 417.2 422.7 426.9 430.7 436.7 444.3 450.2 450.5 449.5 449.1 444.3 429.2 420.4 416.1 401.1 395.6 390 380.8 397 409.1 422.5 434.3 446.1 455.7 461.1 465.3 466.5 466.2 464.5 464.2 463.3 462.8 463.6 461.5 458 454.7 452 448.7 443.9 438.6 434.2 433 430.3 425.1 416.2 413.2 426.2 435.1 445.9 459.1 468.7 475.7 487.5 497.2 508.6 520.6 534.7 548.4 562.4 573.8 577.3 572.1 561.4 549 534.8 523 517.9 515 513.9 516.9 519.1 523.1 525.8 528.1 527.9 524.5 519 511.1 506.1 500.6 495.6 483.5 489.6 494.2 498.3 504.2 505.9 499.4 482.7 468 450.4 451.8 445.1 439.3 433.5 427.6 424.4 424.8 422.1 418.2 414.2 414.6 416 414.6 410.1 404.8 398.5 388.5 379.5 371.9 363.8 358.7 354.4 346.9 340.9 335 344.6 359.4 373.6
470.5 477.2 483.7 490.4 495.8 500.2 504.8 505.9 503.1 497.4 487.4 473.6 461.1 452.3 439.4 429.6 423.1 419.3 415.3 413.3 411.5 410.4 410.7 410.4 409.2 406.8 412 417.9 425.7 431.7 438.4 449.3 453.9 455.4 455 450.9 444.3 436 426.7 417.2 411.8 407 402.2 397.7 395.4 390.8 392.9 399.2 405.3 413.1 419.8 424.9 427.3 423.2 415.3 406 396.3 385.5 379.5 371.4 363.3 370.5 375.8 382.1 389.7 398.8 409 418.9 429.2 437.8 445.3 452.3 456.2 457.2 454.2 446.6 441.7 434 426.8 422.3 414.2 412.7 416.6 422.4 426.9 433.5 443.5 450.5 452.6 452.5 450.8 445.4 437.4 428.9 417.4 399.8 395.1 387.5 380.1 395 406.6 419.5 431.1 442.8 450 455.1 459.4 461.7 460.7 459.9 459.3 460.1 460.4 463 465.1 462.8 461.3 458.7 454.8 449.9 443.9 436.7 422.3 426.6 421.1 412.6 417.2 433.8 444.9 454 462.5 471.8 481 490.6 500.7 511.2 523 536.2 552.2 567 573.6 573.8 567.9 555.2 540.4 523.1 513.4 509.7 508.1 504.9 507.6 511.7 517 520.9 524.6 525.4 523.1 517.1 511.3 506.3 501.9 496.2 483.2 481.4 486.7 491 495.8 496.5 489.2 477.6 473.1 479.5 478.6 473.7 464.9 454.5 445.3 441 439.9 436.4 431.9 426.4 425.2 422 418.4 411.3 404 395.6 387.2 379.2 375.4 373 371 363.4 356 346.5 340.7 348.8 365.5 379.8
462.3 470.9 478.8 484.4 489.1 494.2 499.2 498.9 495.3 485.3 479.1 461.9 453.8 443.6 431.3 425.4 420.5 415.8 411.8 409.7 408 406.8 406.7 406.7 404.4 404.2 408 414.8 422.5 427.5 433.8 444.6 451 451.3 448.2 445.2 439.8 432.1 421.8 413.3 408.3 403.5 399.8 397.1 394.9 390.6 392.6 397.9 403.5 410.5 416.4 421 422.2 419.1 411.6 402.8 394 385.6 377.4 370.3 362.8 367.4 374.9 380.6 388.6 396.8 405.5 416.6 427.1 435.8 446.4 453.2 459.8 460.7 458.3 451.3 442.4 434.1 426.3 421.2 416.9 409.3 412.1 416.9 421.5 429.7 440.2 447.5 451.6 452.2 451.2 447 437.9 429.2 422.2 409.3 394.7 386.3 378 391.7 403.8 416.9 427.8 437.5 444.6 450.7 455 456.2 455.3 455.1 454.7 455.5 459.1 464.8 468.5 470 467.7 462.7 457.3 451.1 444.7 433.9 424 415.1 413.3 407.1 425.9 439.9 453.1 461.8 469.6 478 486.4 495.4 504.4 516.7 529.6 541.3 554.7 567.1 573.5 571.5 564.1 551.2 534.4 516.9 505.8 501.9 497.9 494.2 495.6 503 510.3 515.8 521.6 521.9 520 516.2 510.2 507 501.9 496.8 488.1 471.4 478.7 483.9 487.2 487.5 483.5 490.2 497.6 501.6 501.7 496.4 487.9 476.2 464.5 459.5 455.3 450.3 444.4 439.2 433.2 426.5 419.4 412.2 403.8 396.5 392.6 392.8 389.5 384.8 379 371.4 363.7 354.4 347.3 353.9 371 384.8
457.7 465.4 473.2 477.9 480.8 485.7 489.8 489.5 484.9 475.2 467.6 457.1 446.7 438 427.4 422.2 417.7 412.7 408.9 407.1 405.6 403.8 402.7 401.7 398.3 400.8 404.3 411.1 418 421.4 425.8 436.4 440.9 440.6 440.9 439.8 437.2 427.9 418.1 410.9 404.4 401 397.6 395.7 393.7 390.3 391.2 395.9 402 406.9 413.6 417.4 417 412.9 407.1 399.6 390.1 384.7 376.6 367.5 361.4 365 372.5 382 387.5 395.9 401.3 413.7 424.2 434.4 445.5 454.5 462.8 462.8 459.6 452.2 443.4 434.4 426.2 420.4 416.3 409.1 406.4 413.3 417.5 425.8 434.7 443.9 449.2 451.3 450.5 446.1 439 429.5 420.4 411.3 397 383.4 376.9 389.4 398.8 412.1 422.6 431.6 438 443.9 448.4 449.6 448.4 447.7 448.2 451.7 458.1 466.4 471.3 473.9 471.5 465.2 457.7 449.9 441.9 431.7 418.8 411.2 409.1 412.3 434.1 449.6 460.1 468.9 476.6 485.2 494.5 503 511.5 523.4 534.3 545.1 555.9 566.6 572.3 569.6 560.8 546.5 528.6 512.3 502.4 496.2 490.3 486.3 486.8 493.3 502 511.2 517.4 517.5 516.2 513.6 510.5 506.6 501.1 497.1 486.9 474.8 472.8 479 482.5 488.5 495.5 504.6 511.4 515.1 515.8 513.4 506.6 495.7 485.6 478 473.3 465.7 457.5 449 440.1 430.2 422.5 414.3 407.5 404.7 406.1 408.6 403.1 396.1 388.3 379.5 371.6 362.5 353.9 359.3 373.6 389.3
453.8 460.4 469.3 474.4 477.2 479.5 479.9 480.3 474.8 466.3 454.8 448.5 440.7 433.4 423.3 418.9 415.7 410.1 406.9 404.5 403.1 401.6 400 398.5 396.9 397.9 400.9 405.9 411.7 415.3 419.4 425.5 430.2 432.4 434.7 435.1 433 424.4 414.6 406.9 401.2 398.4 396 394.7 393.8 389 390.2 394.4 399.8 403.9 409.3 411.7 406.7 403.6 401.4 390 382.3 380.9 375.2 358.2 360 361.9 369.5 377.9 386 392.7 401.8 411.1 423.5 434.3 445.1 454.6 464.3 464.2 460.8 453.5 444.2 435.6 425.8 419.6 414.9 409.6 403.7 408.8 414.5 421 429 440.1 446.6 450 450.7 446.8 439.7 432 420.9 412.5 397.6 383.1 375 386.1 395.2 405.7 416.3 425.4 432.1 437.9 439.9 440.5 440 439 442.1 448 458.7 468.3 474.2 476.7 473.1 465.7 456.7 446 437.6 426.9 414.5 404.1 403.7 423.9 440 453.8 462.8 472.7 482.4 492.2 502.3 512.1 521.7 530.9 539.5 548.5 558 564.3 567.1 564 555.6 541.2 523.7 508 497.6 491.6 484.8 479 479.9 487.2 496.4 505.5 510.2 512.3 511.8 510.2 508.3 505.1 500.7 495.7 488.1 476 466.4 472.5 481.8 489.7 499 509.8 518.5 524 526.2 525 519.8 513.2 503.9 497.6 490.7 480.6 470.3 459.5 448.2 437.9 430 423.6 417.4 416.1 417.2 417.6 414.9 407 397.5 389.6 380.6 368.7 360.2 360.1 378.8 393.2
446.1 454.8 465 471.3 473.9 474 474 472.5 461.6 445 444.8 437.6 435 429.8 416.2 415.5 412.7 408.1 404.7 402.4 400 398 396.8 394.9 393 395.2 397.5 400.8 404.7 408.4 412.3 416.4 421.3 423.3 424.6 427.9 426.1 420.6 411.9 403.7 398.6 395.3 393.9 393.2 393.6 389.8 389.2 393.4 398 400.9 404.2 404 399 396.8 386.6 371.6 365.1 368.1 371.4 366.9 358 357.3 367.6 376.1 382.3 389.4 399.6 410.2 422.1 433.1 444.5 454.8 463.9 465.5 463.2 455 446.3 432.2 426.4 419.6 414.4 409.9 402.9 402.3 409.8 416.3 424.3 435.1 444.1 448.8 450.5 447.8 441.4 433 422.8 412.6 399 386.1 372.1 375.8 390 398.8 409.4 419.9 426.3 431.6 433.1 432.4 432.8 431.8 437 447.6 460.5 470 476.5 479 475.7 467.7 457.1 446 434.2 423.6 412.6 401.5 407.9 426.2 441.8 454.6 465.4 475.8 486.3 496.8 507.2 518.6 528.5 537.2 545.4 552.1 558.4 559.7 559.3 554.6 546.4 532.7 517.4 503.6 494.5 488.1 481.8 473.7 471.8 479.3 488.2 497 502.4 505.1 505.8 505 503.7 501.6 497.6 494.3 487.8 476.1 458.6 467.8 478.6 487.8 499 511 520.2 527.5 531.8 532.2 529.3 526.7 524.4 519.2 509.4 497 483.5 470.7 457.9 448.6 441 434.5 429.6 428 428.2 426.7 423.2 416 406.5 398.3 388.9 377.1 365.6 360.4 382.9 397.7
438.7 448 458.4 466.7 469.1 471 474.9 467.9 459.1 449.2 442.6 436.9 433.7 428.3 414 411.6 410.5 406.2 403.4 400.6 398.3 395.1 393.3 391.3 389.5 390.7 393.3 396.2 398.8 402.5 405.7 409 413.5 415.5 416.3 418 419.8 416.3 408.8 400.7 395.4 392.7 392 391.3 389.7 387.8 388.6 393.6 396.4 399.1 401.7 402.7 403 406.2 394.7 383.7 376.2 363.5 364.6 362 358.8 355.1 363.8 374.2 380.8 388.2 397.7 408.9 421.2 432 443.5 454.6 463.5 468 466.2 459.6 447.9 436.4 426.4 419.4 413.7 409.4 404.6 399.2 404.1 413.1 419.9 431.1 440.9 447.1 450.6 449 441 432.7 421.5 411.5 399.1 385 374.1 371.1 383.5 392 401.9 413.3 421.2 425.9 425.4 423.9 425.1 424.2 434.2 450.2 463.4 474.2 481.6 483.4 481.2 474.5 462.2 446.5 433.2 420.1 409.9 398.9 413.4 429.1 441.9 455.1 466.8 476.9 487.9 500.1 510.9 523.5 534.2 541.8 547.9 552.9 554.5 552.7 548.6 542.8 534.5 521.4 508.9 497.9 490.2 483.8 477 469.4 467 472.4 480.5 487.5 492.5 496.6 499 499.5 499.2 497.8 495.8 492.2 485.4 473.8 458.7 459.6 472.2 485.6 497 507.6 516.8 524.7 529.5 530.9 533.5 535.4 535.4 533.4 526.1 514.5 499.1 483.9 470.9 461.3 454.5 448.5 442.3 439.2 438.5 436.7 431.5 425.4 417 407.4 397.5 384.5 373 365.3 385.7 401.9
430.9 440.3 451.4 459.4 464.2 470.1 474.9 474.4 464.3 451.6 440.4 434 430.9 425 415.9 410 406.7 405.9 402.6 399.5 397.2 394.6 390.2 388.5 385.2 387.8 388.9 392.4 394.7 398.5 401.4 403.3 405.6 408.4 409.5 410.4 412.6 411.2 405.1 397.4 393.3 391.1 390.6 389.9 388.2 383.1 389.3 393.9 397.7 401.2 406 410.6 414.7 411.7 397.7 385.7 377.2 369.5 360.5 360.2 357.3 353.6 361.4 371.6 380 387.5 397.5 408.7 419.5 431 441.8 452.9 463.1 468.7 468.9 460.8 448.2 437 425 418.3 412.7 408.3 403.8 396.8 401.2 408.1 415.8 427.5 436.8 443.5 448.8 445.6 442 430.1 417.5 407 397.8 388 378.6 369 377.9 386.4 396.8 406.3 414.1 417.9 417.3 417.6 418.7 422.6 436.4 453 465.8 478.9 487.7 490.2 486.1 479.6 467.2 452.1 434.1 418.4 408.1 397.3 410.3 425.6 440.2 451.9 464.3 476.1 487.7 499.7 514.6 527.4 537.1 544.8 548.7 550.3 547.6 542.8 534.8 527.9 519.3 509.4 500 492.2 484.8 478.4 472.5 465.5 462.9 466 472.7 477.3 482.3 488.3 492.6 493.8 494.7 494.3 492.5 488.2 479.9 469.9 458.5 452.5 466.6 481.7 492.2 501 509.6 517 523.2 528.9 534.5 540.3 542.9 542.1 537.4 528.8 514.3 499.2 486.9 475.6 468.4 462.6 457.6 452.8 450 446.2 441.3 435.1 426.4 415.9 405.2 392.4 380.2 373.2 386.7 402.9
424.1 433.4 444.9 453.4 459.3 465.6 470.1 472.8 466.6 449.2 437.3 432.9 429.2 422 413.3 409 404.7 403.8 401.8 398.8 396.2 393.8 389.7 385.8 384.3 384.2 385.2 388.3 390.4 392.5 393.8 397 399.1 399.9 400.4 404 404.4 404.4 399.8 394.6 391.5 389.4 389 388.4 386.3 382.2 389.8 394.5 398.2 406.2 410.3 414 418.3 413.6 399.9 383.5 376.2 369.4 362.8 358.7 357.3 352.5 358.6 369.2 378.4 386.9 398.4 407.8 418.9 429.4 439.8 450.6 461.1 468.5 472.7 461.8 447.8 435.9 425 417 411.4 407.6 402.7 395.5 398.7 405 411.4 422.6 432.1 438.6 443.1 440.8 432.1 424.5 412.5 400.9 395.2 385.6 376.8 367.1 373.6 383.1 393.1 401.5 408.5 409.6 409.9 411.8 415 424 439.1 454.3 468 481.7 489.6 492.5 488.8 481.1 469.5 452.8 434.1 417.3 403.4 394.4 407.2 422.3 435.6 446.9 459.9 473.1 485.8 499.4 513.3 526.3 536.4 542.4 544.3 541.8 536.3 527.5 518.8 510.9 503.8 496.4 490.1 484.2 478.7 472.6 465.7 461.8 458.7 461.2 464.8 471.4 476.4 482.2 486.4 489.4 490.7 490.7 487.6 481.7 474.1 465.1 449.2 449.6 462.5 475 482.7 488.7 496.4 505.6 515.3 525.1 533.6 542.1 547.7 550.5 547.9 541.8 529.8 516.7 503.7 493.1 484.5 477.4 472.1 468 461.3 457 451.2 444.4 436.4 424.6 412.6 399.2 387.1 379 384.1 403.2
417.8 427.2 438.3 448.3 455.3 461 465.2 467.1 464.1 449.9 442.5 428.5 427.7 420.6 413.4 408.6 405 402.1 400.5 398.3 395.3 391.8 388.3 385.6 383.2 378.3 382 383.9 384.8 385.8 387.9 389.6 388.7 392.2 392.6 394.6 397.8 397.7 396.1 391 388.6 387.8 387.2 386.6 383.6 383.3 390 394.5 401.2 409.6 415.3 418.2 420.2 414.1 400.2 385.6 375.2 369.7 362.3 356 355.7 350.7 357.4 368.9 377.6 386 396.9 407.3 418.3 428 437.5 447.7 458.5 468 471.9 461 448.5 436.9 423.7 416 410.1 405.4 400.2 393.5 396.6 401.6 408.8 417.1 428.7 434.2 437.2 434.9 426.7 420.3 407.3 400 393.7 383.8 376 365.7 366.8 379.8 388.2 395.1 400.6 402.6 404.5 406.4 416 427.2 438 452.4 468.7 482 489.2 491.9 489 481.8 469.8 451.6 431.4 416.4 403.6 393.4 406.4 416.9 429.2 441.7 454.9 468.2 481.8 497.5 511.7 523 532.5 537.1 537.5 532.6 523.6 512.8 502.6 496.1 491.4 486.8 482.5 478.2 473.1 467.7 462.3 458.1 453.6 458.6 464.4 469 473.3 478.5 483.4 486.9 487 484.5 478.8 476.4 468.1 457.4 444.7 447.1 462 467.3 470.2 474.6 480.6 490.4 505.4 519.6 532.1 542.3 551.1 557.4 558.1 555 548 535.9 525.2 513 502.2 493.5 487.2 482.1 476.2 468.4 461 452.6 444 432.4 419.6 408.7 396.3 382.6 387.7 401.8
413.2 421.6 432 442.8 450.4 455.6 458.4 460 459.6 451.3 445.6 435.5 421.9 417.6 411 407.8 404.9 402.1 398.8 396.9 393.9 390 386.7 384.3 382.4 378.8 378 378.4 379.6 379.6 380.8 380.6 379.9 380.7 382.6 385.2 389.5 390.6 391.1 387 385.9 385.5 385.4 384.5 381.7 384.5 389.8 396 404.2 412.4 417.9 422.1 422.6 417.4 401 385 373.5 370.1 360.8 354.9 352.9 348.8 356.8 367 375.8 384.8 394.5 405.4 416 425.3 434.8 444.6 454.9 464.5 469.1 460.6 450.4 437.1 421.5 414.5 408.8 403.5 399.1 391 393.8 399.1 404.5 412.8 424.7 430.1 431.3 428.1 422.8 414.8 404.5 397.4 389.2 381.3 374.5 367.7 363.6 376.6 384.5 391.1 394.7 396.7 397.7 409 417.7 426.1 438.2 452.7 467.9 480.3 487.9 490.3 488.5 480.7 469.5 450.7 430 415.3 402.4 391.5 402.3 412.8 423.6 436.3 448.5 462 476.2 492.1 506.7 516.8 524.2 528.3 528.5 522.9 512.6 498.2 487.7 482.8 481.1 478.5 476 472.7 468.3 462.6 458.4 454.4 448.5 454.6 461.6 466.6 470.6 476.5 481.3 483.3 481.6 477.2 470.1 467.9 460.8 448.2 436.7 440.8 451.1 457.1 463.9 471.3 478.2 486.7 498.7 514.7 530.5 543.7 554.5 563 566.5 566.1 562.9 554.2 543.2 533.6 521.7 511 502.2 495.6 488.7 479.8 470.2 461.1 450.5 438.8 427.2 416.5 403.8 391.4 392.7 404.8
408 418.3 427.5 435.9 444.4 449.6 453.1 454.1 453.5 449.9 447.1 441.4 429.3 423.1 413.4 408 405.1 402.5 400 397.3 393 388.9 384.9 382.9 381.3 379 371.2 372.6 374.2 374.5 374.6 374.8 373.9 375.2 373.4 376.1 379.9 382 384.7 382.9 382.5 383 383 380.9 379 386.3 391.9 399.1 407.6 415.5 421.1 424.5 424.5 419.4 405.1 387.7 374.3 369 363.1 358.3 349.7 347.6 355.7 366.1 374.5 382.3 392 402.4 412 421.1 430.7 440.5 450.2 459.5 463.5 459.1 450.8 437.2 422.9 413.5 406.8 401.1 396.7 391.3 389.8 395.7 401.8 411.1 419.2 424.2 424.2 420.5 416.1 409.7 401.8 394.6 386 379.4 373.4 366.9 363.3 373.7 381.1 385.2 388.6 390.8 398.9 410.8 419.9 428.2 438.9 452.8 466.4 476.8 484.3 487.7 485.9 479.7 468.2 448.7 429.5 416.2 404.6 389.1 396.8 406.8 418.6 430.2 442.5 454.2 468.5 483.1 497.4 507.2 513.8 517.5 517.1 510.9 500.5 484.9 474.8 471.4 471 471.1 469.6 466.8 462.8 459.2 454.5 448.7 444.1 448.7 455.6 462.6 468.3 474.5 477.6 477.8 474 469.6 460.7 455.2 447.1 439.5 431.5 433.8 442.3 448.6 463.7 473.6 481.9 491.3 501.6 515.8 530.4 544.6 557.7 566.8 574 575.4 574.8 570.5 561.8 551.2 540.5 529.8 519.6 512.5 503.9 492.9 480.4 468.7 457.3 445.5 434.4 421.8 408.7 399.8 397.6 409.2
403.8 414 423.4 429.6 438.3 443.9 448.2 451.6 451.4 449.8 451.6 443.1 432.8 428.3 423.5 410.7 406.4 403.1 399.6 396.1 392.1 388.2 385.4 383.1 379.4 377 375.3 366.1 367.7 369.5 369.3 368.9 367.5 367.9 369.1 370 373.8 375.8 378.2 378 379.1 379.9 378.5 376.3 382.2 388 393.2 400.8 411.9 419.8 425.5 428.6 427.1 422.1 407.7 392 377.3 370.9 364.4 359.6 353.9 345.8 349.7 364.7 372.2 381 388.8 398.5 407.6 416.8 425.9 435.1 444.7 453.8 459.8 458.1 450.5 437.4 422.9 412 404.3 398.9 394.3 389.8 385.5 390.1 398.8 408.1 413.4 417.3 417.9 413.8 410.3 404 397.5 391 383.8 377.5 371.8 366.1 360.2 370.9 375.2 378 383.3 390.9 400.8 412.3 420.3 429.5 438.9 451.7 464.2 474.2 481.6 485.2 484.5 478.8 467.3 447 430 417.9 404.4 387.3 386.1 403.7 414 423.8 434.8 446.4 458.2 470.8 485.9 495.8 501.3 504.7 504.2 498.1 488.5 475.3 466 462.9 461.5 463.2 463.5 460.9 458.4 454.9 450.1 444.8 439.6 445.5 451.5 458.4 466 470.2 471.6 470 466.4 458.3 448.6 440.2 434.8 429.4 426.6 432.7 446.5 460.1 471.1 482.6 493.8 503.7 513.4 523.3 534.7 547.9 561.6 572.3 579.2 583.5 584.2 581.2 575.8 568.5 558.1 547.4 538.4 529.1 519.3 507 491.5 478.8 465.8 452.3 440.1 428 415.8 406.4 402.2 417
400.5 411.4 420.6 425.8 431.9 439.4 445.1 450.8 452.6 454.8 447.8 442.1 435.9 430.7 425.4 412.5 408.9 404.3 398.3 394 389.6 386.1 382.4 380.4 378.1 375.3 372.9 369.7 361.2 364.3 364 364.4 362.7 362.5 363.4 364.7 368.7 371.1 372.6 373.9 375.2 374.7 371.9 377.8 384 390 396.5 406.7 417.1 425.2 430.9 433.1 431.8 424.7 411.2 395.1 381.3 372.8 366.1 359.3 354 347.6 346.8 362.1 370.8 378.1 386.6 394.6 403.3 412.5 421.6 430.7 440.2 449.5 457.8 457.2 450.5 439.3 424.4 412.3 402.7 396.6 392 387.8 381.9 387 395.2 402.7 407.2 410 409.2 408.5 406.1 400.4 393.4 387.6 381.4 376.1 370.9 365.3 360.1 363.1 372.2 381.8 386.6 391.5 401.7 410.7 418.5 428 438 450.3 461.3 470.7 479.1 485.2 487 482.6 469.4 449.9 432.5 419.1 405.1 388 383.6 397.8 408.6 419.5 430 438.8 445.4 456.1 471.1 482.1 488.6 492.1 491.9 486.2 477.4 464.7 456.3 452.2 454.6 456.4 457.2 456.9 454.4 450.9 445.9 442.2 434.5 441.2 447.9 456.1 462.6 465.7 466.1 462.1 455.1 447.2 435.6 429.8 425.7 423.1 426.5 437.2 453.1 466.7 479.3 492.7 504.3 514.2 523.7 533.1 543.9 555.1 565.8 577.2 583.8 591.3 593.2 591.3 585.6 578.9 571.3 561.1 553 542.9 531 518.5 504.6 488.6 473.3 459.2 446.2 433.7 421.1 412.8 406.8 425.9
397.2 407.4 417.6 423.5 426.5 434 441 447.4 453.6 458.4 453.9 444.7 438.4 434.2 429 420.1 410.8 406.8 401.5 394.7 389.8 386.5 382.9 381.4 378.8 376.1 372.3 368.7 363 358.5 358.9 359.4 358.8 358.8 359.4 361.4 363.7 366.6 368.4 370.1 371.3 368.5 371.5 379.2 385.8 393.3 401.3 413.2 423 431.6 437.6 439.7 435.9 427.8 414.9 396.4 384 373.5 366.6 360 355.1 344.5 345.8 359.6 368.1 376.1 384.1 391.9 399.6 408.2 417.3 426.4 435.9 445.9 455.2 454 449.1 437.3 423.8 410.5 399.8 394.6 389.9 383.8 379.6 383.5 389.5 396.9 402.6 406.7 407.8 404.9 398.4 394.8 390.8 384.8 378.1 374.3 368.9 363.9 359.1 357.8 374.6 383.4 389.6 394.6 402 411.7 420 430.7 440.5 451.1 460.3 471.7 479.8 487.4 490.9 487.5 476.4 456 437.3 422.3 409.3 395.1 381 391.3 401.7 414.7 424.8 430.6 434.4 440.6 456.3 471.4 478.4 481.8 481.5 476.9 468.2 455.1 444.9 442.1 445.3 449.6 451.5 452.4 449.7 446.1 442.9 440.2 431.6 435.4 444.6 452.3 456.4 458.6 458.3 453.3 444.6 436.9 427.2 422.9 418.1 420.6 430 442.2 458.1 473.7 487.6 502 514.7 524.3 533.1 542.5 553.1 564.1 574.1 583.5 591.6 595.9 600.3 597.6 592.6 586.2 579.8 572.5 563.9 553.6 540.9 528.1 513 499.5 480.3 464 452.9 440 428.1 418.9 412.6 432.7
391 401.1 413.3 420 423 428.6 435.5 444 451.9 458.6 459.3 446.2 441.9 438.2 433.2 425.7 416.4 410.4 403.5 398 393.3 387.6 385.8 383.9 380.8 376.9 373.1 369 364.2 358.8 354.1 355.7 355.6 355.7 355.6 357.7 360.3 362.4 364.2 365.7 364.1 367.8 374.8 381.5 388.1 396.1 407 418.7 428.8 438.5 445.8 447 442 430.9 416.4 399.5 386.1 375.2 367.8 360.8 356 343.8 346.4 356.3 365.3 373.6 381.5 389.4 397.1 404.7 413.6 423.1 432.5 442.3 452.2 453.3 448 436.3 421.6 409.1 398.1 392.6 386.8 381.6 378 380.2 386.3 393.6 399.4 403 404.6 402.5 398.8 392 388.2 381.8 376 371.9 366.8 362.1 357.1 365.4 376.9 384.2 393.9 397.1 407.1 417.2 426.6 436.2 444.3 453.2 463.6 472.6 480.7 488.8 492.5 491.5 484.2 463.3 444.3 425.7 411.9 395.2 378.9 381.5 392.3 405 416.6 423 427.3 432.7 440.8 459.7 468.8 473.1 472.4 468.7 460.7 447.9 437.7 431.7 436.1 441.1 445.5 445.4 444.4 442.1 439.9 436.8 430.2 431 442.2 450 453.5 453.7 450.6 444 436.1 424.8 420.3 414.4 417.9 425.6 434.4 449.4 466.2 481.3 495.5 510.2 522.7 533.5 542.7 553.1 562.6 572.5 581.2 589.4 596.4 599.2 602.1 600.2 594.7 592.7 587.1 581 573.1 563.8 552.9 537.5 522.2 507.2 490 470.7 459.4 446.7 435.8 425.8 422.7 440
384.9 393.5 406.6 415.3 420.2 425.9 431.4 439.2 447.9 456.5 461.2 450 445.6 442.3 438.1 430.4 423.8 414.8 406.8 402.1 396 392 390.1 387.6 384 379.3 374.6 369.1 363.7 358.6 352.5 352 352.5 352.9 353.2 354.4 356.2 358.2 359.7 360.8 359.5 369.7 375.7 382.7 390.4 397.7 411.8 423.4 434.2 444.9 453.5 453.8 446.4 431.1 417.6 403.8 388.3 376.9 369.1 362.7 356.4 342.6 344.8 354.1 363.9 371.8 378.9 387 394.7 402 411.3 421 430.7 440.2 449.2 452.1 447.7 436.5 423.5 407.7 395.3 390.9 385.5 380.8 375.7 375.3 381.6 389.5 395.5 397.9 401.4 400.8 397.2 391.7 386.4 380 374.9 369.9 365 359.2 354.2 368.8 378 387.1 394.7 403.3 412.9 420.4 429.8 439.9 448.5 456.3 466.5 474.9 482.1 489.5 494.9 494.9 489.4 474.3 451.4 431.7 413.8 396.9 380.8 374.4 384.5 392.3 405.6 414.4 422 428.2 437.5 451.2 460.5 464.1 463.9 461.2 454.4 443.2 431.6 424.7 425.7 433.6 437.2 438.3 438.3 437.8 435.6 432 425.7 427.8 438.1 445.9 448.9 448.6 443.8 436.1 426.2 417.2 413.5 411.8 421.2 430.3 442.2 457.5 474.2 490 504.4 517.9 530.5 542 553 563.5 573 582.2 589.2 597.2 600.6 602.2 602.7 598.9 595.6 593.7 590 585 578 570.9 561.1 547.5 531.8 515.2 497.2 477.6 466 452.6 444.2 428.1 434.5 445
381.3 388.5 399.5 410.4 417.4 423.1 428.7 435.7 443.5 453.6 457.1 451.5 447.7 446.1 443.1 436.6 430.3 421.4 412.8 405.8 400.3 396.5 394.6 392.3 387.9 382.6 376 369.6 363.1 357.4 352.6 349.3 348.7 350.6 351.8 352.2 354.1 355.3 355.9 354.9 364.1 370.7 376.8 383.3 390.9 400.9 415 427.1 437.6 448.2 455.9 458 448.9 433.9 420.4 406.3 388.4 379.4 371.2 363.7 356.9 345.5 340.8 352.4 363 369.7 376.7 383.8 391.6 399.9 409.4 419.4 429.4 438.5 447.5 450.9 447.1 437.1 425.1 408.8 394.5 389.3 384.5 379.9 372.8 373.9 379.1 384.6 390.5 396.2 400 399.5 396.4 391.1 385.9 379.7 373.8 369.1 363.6 353.6 357.9 372.7 378.5 387 394.2 405.5 413.6 422.2 431.5 441.4 450.9 459.9 469.2 477.7 484.7 490.8 496.6 498.5 493.5 482.7 459.5 438.8 420 400.8 385.9 372.7 373.5 385 394.3 404.6 414 423.9 433.9 445.3 453.9 457 457.3 454.8 449.8 439.8 425.5 418.1 417.1 423.7 429.7 432.3 433.6 433.8 431.1 427.6 417.4 425 436.3 441.8 443 442.4 437.7 428.8 416.7 412.3 407.9 414.4 425.5 440 454.1 466.9 483.4 498 511.5 525.5 537.9 550.7 562.4 572.2 582.1 591.8 598.8 602.1 603 603.5 601.4 599.1 596.1 591.9 588.6 585.9 581.9 575.1 564.7 552.2 538.7 522.7 505 486.2 471.9 460.1 448.5 442.5 445 451
379.6 385.2 394.5 405.1 413.7 419.8 427.1 433.5 441.2 448.8 452.4 450 448.7 449.6 447 441.9 436.3 429 421.5 413.6 407.4 401.1 399 397.3 391.2 385 378.3 369.9 363.2 356.7 351.5 347.7 345.4 347.8 349.2 350.3 350.5 350.8 351 357.3 366.3 371.8 378.4 384.4 394.3 404.8 416.9 428.4 439.1 449.5 456.6 459.1 450.6 438.6 420.2 407.1 392 381.2 372.7 364.2 357.8 350.4 340 349.4 359.1 367 374.5 381.5 388.9 397 406.8 417.4 427.8 436.5 444.8 450.3 447.7 437.7 425 408.6 393.7 388.7 383.5 378.8 374.5 370.3 375.9 382.9 387.5 393.7 397.8 396.8 394.2 389.9 385.7 379.3 373 367.1 361.6 351.7 357.1 371.1 377.8 385.5 393.2 404.1 412.9 421.7 432.8 443 453 462.3 472.7 482 488 494.7 499.7 501.1 497.6 488.9 469.6 444.9 426.4 409.2 391.9 377.5 369.1 372.2 384.1 396 407.8 418.3 428.9 439.7 447.3 450.1 451 447.9 442.9 433.7 422.3 412.8 410.4 416.9 422.9 426.8 428.5 429 426.9 422.2 412.6 424.9 433.2 437.5 438.3 435.9 431.9 422.3 412 404.8 409.3 419.3 433.4 449.1 464.2 478.6 492.3 504.6 517.5 531.3 544 557.3 571.2 580.3 587.9 597.2 603.6 605.5 605.7 603.2 599.9 594.9 593.3 590.1 586.8 585.5 580.2 574.6 566.9 556.9 545 530.7 514.2 496.3 478.5 467.7 458.6 455.1 461.3 468.7
377.8 383.2 392.2 402.3 411.2 417.7 424.7 432.2 441.9 443.7 446.7 447.1 448 451 451 447.6 441.5 435 428.4 421 413.3 405.4 401.8 400 395 386.2 379.5 371.4 361.4 355 350.3 346.6 344.6 345 346.8 346.5 346.3 349.6 356.1 359.2 366.4 373.3 379.6 384.8 394.4 406.3 418.5 429.5 440 449.6 457.2 459.5 453.6 442 423.5 406.8 392.5 383.3 375.1 368.1 358.7 348.7 340.9 342.9 355.9 365.2 373.5 378.4 386.3 394.2 403.6 414.8 424.7 432.9 441 447.4 446.5 439.1 426.2 410.5 394 388.2 381.9 377.9 372.4 366.4 371.4 378 382.8 389.2 393.5 393.1 391.1 388.1 384.1 377.7 372 365.9 359.2 351.2 356.7 367.3 375.7 383.5 392.4 401.3 408.1 422.9 435.1 445.7 454.7 465.8 476.3 486 492.2 497.7 502.2 501.6 497.7 491.5 476.6 455.4 433.2 418.1 402.2 387.2 372.5 369 374.6 388.6 401.2 411.7 422.6 432.2 438.6 442.4 443 440.3 435.7 426.3 417.1 408.3 402.6 407.5 416.1 418.8 422.6 423.9 422.1 417.1 408.8 422.1 429.1 432.6 432.8 431.5 426.5 416.4 406.3 403 413.8 426.7 441.6 457.1 473.2 487.8 501.5 512.4 524 536.9 549.6 563.8 576.8 587.4 594.6 603.8 607.5 608.1 605.7 601.1 597.8 591.3 588.7 587.2 583.8 580.9 576 572.4 567.4 560.8 551.2 536.8 522 507.2 489.7 476.8 469.8 467.6 477.6 486.5
376.3 382 391.6 400.9 409 416.5 425.1 429.9 435.2 439.3 441.8 443.7 446.3 451.1 452.2 451.4 446.1 440.4 435.6 428.9 418.6 408.6 402.2 400 395.5 386.3 380.5 373.2 362.1 354.3 350 346.6 343.1 342.3 343.6 343.2 345.9 350.5 355.7 359.9 366.5 373.8 380.8 386.4 396.1 408.4 420 430.9 440.7 449.8 457.2 458.7 454.8 444.6 428.8 407.7 393.8 385.2 377.3 369.5 360.8 350.1 341 338.8 351 360.7 371.2 376.3 384.5 392.8 401.6 410.8 420.2 429 436.8 443.1 443.8 438.3 427 411.5 396.4 388 381.4 376.3 372 364.4 366 372.8 377.6 382.8 387.1 387.9 386.7 384.8 381.9 376.6 370.6 364.6 358.6 348.5 353.7 365.3 371.6 378.8 390.6 401.1 410.1 422.7 436.7 447.8 457.5 468.8 480.1 489.9 495.5 498 500.8 499.2 494.5 489.8 480.8 465.7 441.2 423 409.5 396.1 379.7 367.7 365.7 381.6 394.3 403.7 416 424.7 431.5 434.4 434.4 431.8 427.1 417.9 410.6 403.9 397.8 400.1 408.2 411.9 416.3 418.2 417.4 412.1 405.3 418.6 424.2 425.7 427.5 426.7 421.4 411.5 403.3 400.6 419.2 433.7 448.9 465.3 481.4 497.8 510.6 520.9 532.2 542.7 555.6 569.4 580.9 589.7 599 605.5 607.6 608.4 605.7 597.1 589.2 583 578.4 574.8 571.5 570.7 571 568 565.4 560.4 551.1 539.9 528.1 515.7 504.9 492.8 483.8 481 490.1 497.7
376 383.6 392.1 401.2 410 418.4 422.5 426.3 430.3 434.5 436.9 439.9 442.6 448.9 450.2 450.1 447.9 444.6 440.5 434.3 421.7 410.2 402 397.6 393.4 386.4 380.7 373 362.9 355.4 349.4 345.1 341.4 340.1 341.3 342.7 345 348.3 355.4 360 366.2 374.2 380.9 387.2 398.5 410.3 421.2 431.4 440.8 449.8 456.5 458.7 456.2 445.8 432.8 412 396 385.1 378.4 370.4 361.4 352.2 342.9 337.7 347.7 358.7 368.6 374.2 383 391 399.2 407.7 417 425 433.1 439.5 441.4 437.9 424.9 409.9 401.4 390.8 380.2 374.6 371.1 364.6 360.1 368.8 372.1 376.2 380.3 382.3 382.2 381.3 379.1 375.4 369.4 363.1 357.6 347.6 347 360.7 368.9 380 390.3 399.6 410 424.1 438.2 449.8 460.4 471.9 482.9 493 497.5 496.6 496.2 493.7 489.2 484.1 479.6 467.5 446.5 427.4 414.9 402.1 389.9 375.1 363.3 376.2 387.2 396.5 407.6 417.4 423.9 428.1 427.8 423.3 416.8 411 401.7 397.3 392.1 392.7 398.9 404.7 409.7 411.3 410.2 407.5 400.4 414.8 418.9 420.7 422.2 421.4 416.8 406.5 400 405.2 422.4 437.7 454 471.4 488.4 505.6 518.1 529 539.5 550.1 561.7 573.7 582.5 592.4 599.5 603.4 603.2 602.5 596.5 589.9 582.5 575.3 569.4 563.2 559.9 559.1 559 559.2 558.8 555.4 548.6 540.2 530.7 521.7 514 506.2 499.1 496.7 499.6 503.9
375.7 386.5 392.9 402.1 409.6 417.2 420 423.6 426.4 429.7 432.2 436.4 440.6 444 446.8 449.5 449.2 447.7 441.7 433.7 421.7 411.8 402.1 395.4 391.8 385.5 379.7 371.7 364.2 356.9 350.6 343.9 340.9 338.3 338.9 341.1 342.9 347.4 353.8 359.9 365.2 373.6 380.4 386.7 397.9 410.5 421.5 431.1 439.6 447.2 454.1 459.1 456 447.2 435.3 415.5 397.3 388.3 379.7 371.4 362 353.8 344.6 336.7 345.2 354.1 364.2 372 380.8 388.6 396.7 405.1 413.4 421.3 428.5 435.4 441.1 438 429.8 417.3 400 389.8 380.6 374.4 368.9 366.3 359.4 361 368.2 370.8 373.8 376.1 377.5 377.8 376.8 373.7 368.5 362.8 357.4 349 344.7 359 369.5 382.1 389.8 397.4 409.7 426.3 439 451.9 463.6 474.7 486.4 493.6 494.4 491.9 490.4 487 482.1 475.8 471.9 460.8 444.2 432 420 407 394.6 381.3 365.5 366.7 380 391.7 400 408.8 416.3 419.5 418.8 416.2 409.4 402.1 394.8 389.8 386.1 386.8 392.7 399.3 402.6 404.2 404.3 402.2 400.3 412.1 414.6 415.3 415.7 414.4 408.9 402.5 396 407.7 424.1 440.6 457.9 474.8 494.9 510.6 524.4 536.8 546.3 557.1 567.6 577 584.1 592 596.4 596.8 595.2 594.4 589.8 581.8 573.9 565.5 558.3 550.8 546.9 546 546.7 547.9 548.2 547.3 543.5 537.6 532.2 526.2 520.2 513.1 507.6 504.6 505.5 506.8
377.1 388.8 395.7 403.4 410.6 416.6 420 421.9 422.2 424.2 428.5 434.2 437 439.3 443.8 449.1 450.1 446 439.7 431.1 420.5 412.4 403.8 394.1 390 384.7 378.2 371.5 365.5 358.8 351.7 344.2 340.6 336.7 337.7 339.8 341.2 345.2 351.2 358.4 364.6 372.4 378.9 385.4 395.4 410.4 420 429.1 437.7 445.4 453.2 459.7 456.4 448.5 436.6 419.7 401.8 390.3 382.9 372.4 363.8 354.4 347.1 335 337.2 350.3 359.7 367.3 376.7 385.1 393.9 402.2 409.5 416.8 424.1 431.6 438.4 439.5 430.7 419.2 402.5 391.7 382.1 375.8 370.9 365.1 360 355.9 362.4 366.2 368.1 371 373 374.3 373.7 371 366.5 362 356.7 343.7 346.2 356.6 371.2 382 390.1 399 413.9 428.5 441.9 453.8 465.2 477.2 486.8 491.4 491.1 485.2 481.6 479.1 474.1 464.5 458.7 450.9 440.4 430.4 420.1 409.2 397 385 369.9 360.3 371.1 385.3 392.6 401.4 406.2 411.2 410.7 408.2 404 393.6 386.7 382.6 378.4 381.5 386.4 393.3 394.7 396.1 393.7 390 399.7 406.5 407.3 408.5 408.1 406.4 402.3 399.3 393.9 408.5 423.9 440.5 458.9 476.5 497.5 512.9 527.3 540.8 551.5 562.1 571 578.5 585.4 589.7 591.4 590.4 588 583.3 577.7 568.4 559.1 550.8 542.6 535.4 531.6 531.5 532.6 535.3 537.3 538 536.5 535.4 532.7 528.6 523.9 518.3 513.7 509.5 508.1 507
379.5 390.4 398.4 406.1 412.3 419 420.2 421.1 418.8 419.8 424 429 432.5 435.4 439.5 444.1 448.5 443.4 437.4 430.1 420 411.9 404.4 395.1 388.6 383.5 377.5 371.6 365.7 360.3 353.3 345.9 340.8 336 336.1 337.3 339.9 344.4 350.2 357.1 363.5 369.6 376.5 382 396.1 409.6 417.6 425.6 433.9 442.5 451 457.8 456.3 448.5 438.6 423.7 407.3 393.6 383.8 374.3 364.7 354 348.4 341.3 333.8 344.7 356.5 363 372 381.3 390.4 398.1 405.4 412.5 420 427.8 434.9 439.2 431.5 420.3 408.6 393.5 383.5 376.1 372.1 366.8 361.1 353.4 355.9 361.3 364 366.2 368.4 369.8 369.7 367.6 364.3 360.7 356.1 342.4 345.1 354.2 372.3 380.9 390.1 399.3 415 430.9 444.8 456.6 465.9 477.2 484.4 486.5 482.8 475.1 467.8 463.5 456.6 452.4 447.6 440.5 433.2 424.2 415.5 409 398.6 387.1 372.7 356.7 364.3 377.9 387.8 397.2 397.9 398.5 398.1 397.5 392.6 386 379.1 376.4 371.3 376.2 381.9 387.6 389.6 386.4 383.8 391.8 398.1 403 402.7 401.1 400.9 398.4 396.6 390.8 393.7 407.6 423.2 438.9 456.2 474.3 494.7 512.2 526.6 541 553.2 564 572.7 578.9 584.7 586.5 585.8 582.8 577.6 570.5 563.8 553.9 544.1 535.9 528.1 519.7 515.2 516 518.2 522 524.3 526.4 528.5 531.4 531.3 529.3 525.6 521.5 516.5 512.2 507.2 503.5
383.9 394.9 402.5 409.8 416.8 420.7 420.4 419.2 417.3 416.5 418.7 422.5 427.5 430.5 434.2 436.9 440.2 439.7 435.4 428.5 419.8 412.5 404.6 395.9 388.6 382.8 377.2 371.9 366.8 361.5 355 346.9 341.1 337.5 335.2 334.8 337.8 342.9 348.7 355.5 361.4 367.1 375.4 381.2 395.6 406.4 414 421.7 430.2 439.1 448 454.2 454.5 449.5 440 427.3 414.5 399.8 388.2 376.8 365.6 357.4 349.1 341.3 334 333.7 351.6 358.5 368.1 377.9 386.3 393.5 400.7 407.9 415.2 423.3 431.7 438.2 432.7 422.4 410.6 396.5 382.8 378.7 373.5 367.9 364.2 358.4 350.4 356.7 359.6 362 363.4 365.3 365.6 364.1 361.8 358.3 353.1 341.6 344.1 353.7 369.5 378.8 386.3 400.3 416.1 433.5 448 459.3 468.5 475.7 480 479 472.1 463 452.8 447.7 443 438.5 433.6 430 423.6 416 410.3 402.6 395.6 386.9 374.7 356.9 355.8 367.6 385.1 392.5 395.5 393.8 384.1 385.2 381.2 375.7 371.3 370.2 368.5 371.3 377.9 382.1 383 377 384.6 391 394.6 398.3 396.9 394.5 394 394.2 391.9 389.2 401.6 413 424.7 439.7 455.4 472.8 492.2 510.1 524.7 539.2 551.5 563.2 571.7 577.5 581.8 581.9 579.5 574.4 566.9 558.2 550.3 541.4 531.3 522.3 513 504.4 498.5 499 501.9 505.2 509.5 513.6 518.9 524.6 527.1 527.1 525.5 522.1 516.6 511 505 499.9
388.1 400.3 408.3 415.8 427.2 428.7 428.2 422.3 416.6 412.7 408 416.3 419.7 424.2 427.3 430.1 433.1 434.7 432.8 428.2 419.8 411.7 404.9 397.3 389.1 383.9 377.8 372.6 367.9 363.2 356.8 349.1 341.6 337.6 334.9 333.9 335.8 340.3 346.7 350.6 359.2 365.3 372 380.4 392.1 401.3 408.8 417.4 426.1 435.2 443.5 450.7 452.8 450.4 441.8 431.4 421.9 407.2 391.5 379.2 368.4 359.1 350.7 343.3 332.7 331.4 346.9 354.4 363.7 373.6 382.1 388.9 395.9 403 410 418.4 426.8 434.7 433.4 422.2 409.1 396.4 384 379.1 373.8 368.2 363.7 360.5 352.8 349.4 352 355.5 358.4 360.9 361.3 360.3 357.7 355.1 350 340.1 344.1 354.4 365.2 378 389.6 402.5 417.4 435.2 450.2 461.8 469.8 474.7 475.3 471.6 460.6 450.6 439.6 432.9 427.2 422.3 420.6 418.4 414.6 408.5 403.6 397.2 390.8 384 374.2 359.3 352.6 364.8 380.5 383.2 386.5 380.8 375.9 374 368.1 364.3 363.4 361.4 361.7 365 368.8 375 370.7 376.2 382.2 388.5 390.8 390.7 389.6 389.8 389.7 387.7 387.2 395.6 407.3 418.6 431.3 444.6 457.8 474 490.5 507.1 521.7 536.1 549 560.1 568.3 574.3 576.5 574.5 570.1 563.2 555 547.5 540.8 528.9 517.9 508.7 497 490.8 481.6 483.6 484.5 487.7 491 497 506.8 515.4 520.1 521.9 522.1 519.8 514.9 508 501.8 495.6
393 400.4 414.9 425 432.1 434.9 435.5 427.6 420.3 412.9 403.2 405 410.4 415.4 419.8 423.4 427 429 429.4 427.7 421.3 412.6 405.6 397.9 389.9 383.7 378 373.5 369.4 364.3 358.1 350.9 343.2 337.5 334.5 333.3 334 338.3 342.3 348.7 356.8 364.2 371.3 378.3 388.2 396.9 405.6 413.4 422.1 431 439.3 447.5 449.2 448 443.8 436.4 427.9 413.7 396.7 383 371.6 361.3 352.3 344.1 331.3 332.2 341.6 350 357.9 368.7 377.5 385.7 390.9 397.8 404.8 412.8 420.7 428.2 428 416.9 403.6 390.8 382.8 378.4 373.1 366.9 363 360.5 356.6 350.8 346.9 350.8 354.2 356.5 356.9 356.3 354.2 351.4 347.2 338.8 343 356 364.6 378.2 393.2 407.1 421.2 436.4 451.4 463.1 471 473.1 471.6 462.4 448.2 434.6 425.4 419.5 413.3 411.4 409.8 406.6 403.3 401.3 396.3 390.3 385.6 380.6 373.7 363.6 353.9 356.1 367.1 374.2 375.6 373.3 370.1 364.7 359.4 355.9 353.4 354.8 356.6 358.7 360.6 363.9 368.5 373 380.6 384.2 386.7 382.6 383.2 381 381.3 383.6 393 394.1 406.1 420.1 433 446.7 460.6 475.3 490.8 503.9 518.3 531.7 546.2 557.7 566 569.9 571 568.8 563.1 556 546.7 536.7 526.3 515.7 505.5 496.8 487.2 477.2 468.9 465 463.8 467.1 467.5 475.3 490.6 503.5 510.8 515.8 516.6 515.1 511.1 504.3 498.5 491.7
395.4 401.4 413.1 425.4 430.7 437.2 435.5 426.9 421 413.7 402.2 395.7 401.2 406.5 412.1 416.4 421.9 424.5 426.8 426.2 421.5 413.1 406.8 399.1 390.8 383.9 378.7 374.6 370.3 365.6 359.3 351.6 343.8 337.5 334.4 332.8 332.2 335.4 340.7 346.1 354.5 361.8 368.5 375.8 385.4 394 401.8 409.6 418.3 426.2 433.9 440.1 445.5 447.4 444.8 439.6 432.4 419.4 404 388.4 374.7 363.6 354 345.6 337.7 328.5 336.8 346.1 352.5 363.4 372.7 380.5 386 392.3 399.8 406.9 413.9 419.8 419.7 410.6 395.8 383.7 380.7 375.1 370.5 365.2 361.8 359.6 356.4 352.4 346.2 345.4 349.9 352.1 352.6 352.4 350.6 347.4 345 336.7 346.1 356.5 366.9 379.1 395.9 411.3 425.6 441.1 453.9 463.3 468.7 468.3 461.9 449.9 435.8 423.3 415.6 412 408.6 405.2 400.4 395.2 392.4 389.5 387.2 384.5 381.9 377.9 373.2 364.3 353.7 352 359.3 365.7 369.2 368.3 363.6 356.1 351.8 352.4 368.9 375.9 377 373.8 366.1 362.9 365.9 369.7 376.9 380.1 378.6 376.2 379.1 387.2 395.6 402.5 407.6 406.1 405.9 413.5 431 445.1 458.4 472.6 487.8 501.5 515.3 528.7 542.5 554.7 563.7 568.9 568.8 565.8 559.8 551.2 540.6 528.7 516.7 504.1 495.3 486 477 468.2 458.2 449.8 445.6 447.2 450.2 463.3 476.1 491.1 501.3 507.9 509.9 509.3 506.2 499.9 494.8 487.1
398.2 402.1 411.4 416.9 424.5 431.3 431 422.9 414.2 408.3 399.7 392 393.8 399.4 405.3 409.5 415.5 421.3 425.4 426.4 422.2 414.3 407.7 399.2 390.8 384.1 378.8 374.4 370.7 366.1 360.2 353 345.7 337.8 334.4 332.3 331.4 333.1 339.8 343.8 352.5 359.4 366.9 374.5 382.7 391.3 399 405.6 414.4 422.6 429.6 435.1 441.9 445.1 445.3 441.7 435.2 425.8 410.2 393.5 377.6 366.4 356.6 347.3 339.6 328.4 332.4 340.4 347 356.4 365.2 374.5 380.5 386.5 395.7 402 406.3 410.7 410.9 404.3 389.9 382.2 375.3 371.1 365.6 362.1 359.6 357.7 355.3 352.2 348.8 340.4 345.2 348.6 348.6 348.3 346.7 343.2 335 338.4 347.9 356.5 370.3 384.7 399.3 414 429.3 444.9 455.2 463.3 466.2 463.3 453 438.4 424.4 414.5 408.5 405.7 402 398.2 393.8 390.3 387.6 385.4 382.6 380.2 378 375.9 371.8 364.6 350.6 349.6 354 359.9 363.4 363.2 354.3 349.2 360.2 375.2 383.4 388.3 391.8 390.8 386.8 378.8 366.6 366.7 370.3 370.5 371.9 387.1 396 403 409 416.3 422.6 424.4 421.8 419.3 421.9 438.6 453.9 468.9 484.6 498.7 513.3 526.4 540.6 553 561.6 570 571.1 567.1 559.9 548.6 536 521.7 507.6 495.2 485.1 476.3 467 458.4 450.3 435.7 433 435.1 440.7 452.2 465 479.7 490.9 497.9 501.1 501 498.2 493.8 487.8 480.7
393.1 401 404.4 414.5 417.3 422.2 424.9 417.9 409.8 404.2 397.7 390.5 389.2 393.6 398.9 405.3 411.9 418.9 425.2 428.2 423.7 416.3 407.1 398.2 390.8 384.8 378.8 374.7 370.5 366.1 360.5 353.7 346.1 338.8 334.9 331.9 331.2 330.7 336.4 342.6 349.7 356.6 363.3 372.1 380.6 389 396.6 403.6 411.3 419.7 426.5 432.2 438.1 443.3 443.4 442 437.9 430.7 415.5 398.6 382.8 369.6 359.4 349.4 341.3 332.1 325 333.4 341.9 349.2 357.9 367.8 374.9 380.2 389.5 396.8 400.5 399.1 400.1 395.4 385.2 377 370.4 366.1 361.3 358.4 357.2 355.1 352.5 350.4 348.5 340.4 339.3 343.9 344.3 344.3 342.9 333.2 335.3 342.2 350.1 362.8 374.7 389.5 405.3 419.2 432.8 446.7 455.4 461.2 461.6 455.4 441.2 426 415.6 406.6 401.6 398.6 394.9 391.6 389.1 386.6 384.8 382.5 380.7 377.8 375.5 372.5 366.5 361.6 355 347.3 348 356.4 359.6 354.9 347.1 358.1 373.3 387.2 395.4 402.6 406.1 407.1 404 397.4 388.6 376.2 373.7 380.5 388.4 395.7 405.1 412.4 420.4 429.6 438.5 444 445.2 440 435 435.6 449.1 466.2 483.7 498.8 513.5 528.1 542 553.9 563.9 570.7 573.5 569.6 561 549.7 535.7 517.4 499.6 484.7 474.6 465.3 456.7 449.9 441 431.7 421.6 423.7 428.9 439.1 454.6 468.4 479.1 486.9 489.7 486.8 481.4 484.9 479.7 473.2
385.5 393.4 394.8 407.9 408.9 412.5 416.5 412 405.1 399.4 393.5 387.2 385.5 389.7 395.1 401.1 408.5 415.9 423 427.9 424.7 416 405.3 396.9 389 383.6 378.1 374.1 370.4 366.6 360.2 354.1 347.3 340.3 334.9 331.8 330.4 330.9 334.7 341.4 346.2 353.2 361.5 369.1 379 387 394.1 402.5 408.2 416.9 424.1 430.4 435.4 441.2 442.7 443.3 439.2 433.5 421.2 403.1 388.8 373.6 361.4 351 343.9 335.9 324.4 325.2 335.5 343 351.2 360.2 369.5 373.4 380 386.6 395 390.2 391.7 387 377.7 369.4 366.2 361.2 358.2 355.3 353.3 351.9 349.4 348.5 346.5 343.4 335.9 338.6 340.5 340.7 338.2 332.1 335.3 346.1 357 368.5 380.4 395.2 413.1 425.7 437.1 447.1 454.5 456.2 453.3 442.4 428 416.8 407 400 395.6 392.5 389.7 387.8 386.4 384.2 383.1 381.9 380.7 380.4 378.6 376.1 373.9 369.9 362.2 351.2 345.4 349.8 354.4 345.2 349.2 369.2 383.5 397.3 407.4 414.2 421 424.2 422.4 416.5 402.3 395.6 390.6 394.5 400 406.2 413.2 422.4 432.1 443 451.4 458.1 462.3 459.6 454.8 456 460.2 468.1 484.3 501.5 516.4 532.3 546.6 558.5 567.2 573.1 573.6 571 563.1 551.7 536.9 521.1 503.4 482.8 467.5 453.5 446.1 438.9 431.3 423.8 415.3 411.1 419.7 429.8 443.1 453.8 466.1 473.6 475.1 461 454.1 464.8 462 456.7
376.3 384.7 391.3 393.4 401.2 402.9 406.3 405.7 399.2 394.1 389.4 384 380.8 384 390.5 397.6 405.2 412.5 419.2 424.4 423 414.1 404.1 395.4 386.6 381.2 375.9 373.4 369.9 366.2 361.3 354.7 348.2 341.6 335.6 331.4 329.6 328.9 332.3 338.9 344.5 351.9 359.5 369 376.7 385.1 393.1 400.5 405.9 414.1 421.3 428.2 433.1 438.4 442.9 443.4 442 434.7 423.1 409.8 393.7 377.4 365.3 355.8 347.3 338.5 329.3 322.4 330.7 336.5 344.1 353.2 361.2 365.5 371.3 378.7 382.9 387.5 380.9 380.4 369.6 362 360.4 356.5 352.5 350.3 348.8 348.3 347.5 346.1 344.7 342.9 333.5 333.9 337 337 330 331.2 338 349.4 361.5 373 385.3 399.9 418.9 431.1 441.4 449.3 454.2 452 444 430.3 417.4 407.5 398.6 393.9 390.5 387.8 386.6 386 385.1 384.9 385.3 385.3 385 384.4 383.8 382.9 379.9 374.7 366.8 356.9 346.5 344.1 345 344.4 360.8 376.4 392.8 407.8 417.5 426.5 433.6 436.9 436.4 430.3 420.6 407.1 400.9 404.1 410.9 416.7 423.3 433.8 443 452 460.4 468.6 473.4 475.6 476.6 476.4 479.6 483.2 493.6 507.1 523.9 539.4 552.9 562.9 571.4 577 578.2 571.7 562.6 551 537.9 524.8 509.1 489.4 469.1 451.8 437.6 430.2 422.6 414.7 408 404.6 410.7 421.7 433.1 440.3 451.9 459.3 449.9 434.3 429.7 440 440.4 428.9
371.2 379.2 385.8 388.5 388.7 390.9 395.5 398 395.1 389.9 385 380.4 377.4 381.4 387.5 393.8 401.5 409.7 415.7 419.5 419.2 412.9 403.3 393.7 383.5 378.6 373.6 370.7 368.5 365.8 361.5 356.1 349.7 343.1 335.9 331.2 328.9 328.3 330.2 336.6 343.2 350.5 359 368.9 375.4 383 391.3 397.8 404.7 411.4 418.1 424.4 429.8 436.2 440.6 443.8 442.2 436.7 424.9 413.1 396.9 382.2 369.8 358.9 348.9 340.9 330.3 322.2 325.6 330.4 337.1 344.5 352.4 360 364.7 369.9 373 370.8 372.2 367.7 360.9 353.7 349.2 345.7 344 343.1 345 345.1 344.3 342.7 340.5 339.4 338.7 331.1 331.6 333.1 328.8 331.8 339.4 350.6 364.5 378.3 391.4 405.6 423.3 436.1 445.1 454.3 455.4 449.4 436.1 418.1 407 397.8 391.5 388 385.5 384.8 385.4 386.7 386.7 387.8 389.1 391.4 391.6 391.9 392 389.1 385.6 378.2 370.1 359 348.1 341.9 342.9 348 365.4 383.7 401.6 415.1 426.3 437.6 442.1 445.1 445.8 441.6 433.7 423.5 411.9 414.8 422.8 429.5 436.5 445.6 451.1 459.3 468.3 476.7 481.3 485 490.1 494.6 497.4 502.5 509.8 520.1 534.7 548 559.5 569.3 574.1 578.8 578.5 570.6 560.8 547.9 536.6 524 509.4 494.4 478.8 462.4 443.5 427.8 416.8 409.1 402.6 396.6 404.4 412.6 422.6 429.6 438.4 437.5 421.1 412.8 409.2 419.8 421.6 406.3
369.8 378.3 382.5 385.2 385.6 383.3 385.6 389.3 389.8 385.6 380.7 376.4 373.8 379 384.4 389.5 397.1 404.5 411.9 414.8 415 409.7 401.1 389.7 381.3 375.4 370.8 368.2 367.3 365.2 361.2 356.3 350.7 344.1 336.6 331.6 328.5 327.7 329.4 335.2 341.3 350.3 358.9 368.1 374.6 381.8 389.7 396.2 402.9 407.7 414.5 420.8 426.7 433.7 438.5 443.5 442.5 438.3 429.5 417.4 401.5 390.3 374.9 362.6 352 342.3 335.4 325.6 320.6 325.8 331.2 337.2 343.6 351 358.1 361.2 362.2 364.2 357.9 354.2 349.8 348 344.1 343.2 344.1 341.7 341.2 341.7 340.2 337.7 334.3 331.9 333.8 333.2 329.1 327.6 328.7 334.8 341 351.2 366.5 382.3 395.8 410.8 427.4 439.8 449.5 457.1 455.4 445 425.8 409.6 398.6 392.1 386.5 385 382.9 383.2 385.5 389 391.7 395.1 398.9 400.2 401.2 400.1 398.8 395.8 389.9 381.7 370.7 358.4 350.2 340.6 339.9 350.2 370 390.1 408.3 421.7 435.1 445.2 451 456 456.6 449.5 442.9 436.6 428.3 427.3 433.4 438.1 444.1 450.7 457.6 464.1 472.6 479.1 484.6 489.8 496.9 503.1 509.4 515.3 522.5 532.8 545.8 556.5 565.6 573.3 577.4 577.9 574.6 566.6 555.8 544.3 531.5 518.7 504.5 492.2 479.7 468 452.1 436.7 420.4 408.2 399.7 391.1 394.9 404.4 411.6 419.2 423.4 407.5 393.6 385.3 386.3 394.2 399.4 390.3
367.4 375.4 380.9 384.7 385.5 381 381 382.4 383 380.3 376.3 372.6 371.1 375.7 380.8 386 393.5 400.6 407.3 410 409.8 406.2 398.8 387.5 377.9 372.3 367.7 365.3 364.8 364.2 360.8 356 350.1 343.7 336.1 331.9 327.6 327 329.2 334.4 341.2 349.2 358.2 367 374.2 380.6 387.9 395 401.1 406.2 411.8 417.6 424.1 431.6 438.1 443.4 445.2 442.6 434 423.4 409.3 396.5 384.7 370.2 356.3 344.7 338.6 330.4 319.5 320.3 326.5 332 336.9 342.6 348.7 353.2 355.4 354.5 351.7 347.5 345.5 341.9 339.9 339.5 339.8 339.7 337.5 336.5 335.7 333.3 330.6 330.4 328.9 328.2 326.8 325.9 329.1 336 342.7 351.8 366.4 384.6 399.8 415.3 430.2 441.1 451.8 457.5 453.6 435.5 416.3 403.5 393.9 387 384.4 381.5 381.5 383.8 389.1 393.5 397.5 402.8 407.5 410.2 410.6 409.3 405.9 401.8 395.5 385.7 372.2 358.3 348.1 339 340.9 355.2 375 392.2 413.1 428.4 441.5 452.5 457.6 461.6 461.8 455.6 448.5 443.6 440.4 438.9 441.7 446.9 451.4 456.9 462.1 466.8 473.4 479.7 484.9 491.3 499 508 514.5 522.4 530.5 542.4 553.8 563.2 571.8 577.3 579.4 576.7 571 561.8 549.5 536.7 522.7 509 496.8 486.3 476.9 467.5 455.3 441.7 428.7 413.9 399.3 390.6 388.6 394.6 401.1 404.1 397.3 380.4 370.6 366.3 367 369.5 375.6 372.6
363.5 372.8 379.1 384.6 385.5 383.4 380.9 379.1 377.4 375.2 371.6 367.9 368.2 371.7 378.3 382.9 390 396.1 403.6 407.3 405.8 402.7 394 386.2 376.4 370 365.5 362.7 361.2 361 358.4 354.5 348.8 343.1 336.3 331.9 327.8 326.9 329.8 334.9 341.3 349 356.8 365.5 373.3 378.5 386.1 393.7 400.1 405.9 411.7 416.8 422.5 429.7 437.4 443.2 446.7 446.7 440.4 428.7 419.2 406.1 390.2 375.9 362.5 349.4 340.7 333.9 318.6 318 324.5 327.6 331.6 335.9 340.6 343.7 345.9 345 344.6 340.6 339.7 337.5 337.1 337.4 337.8 337.3 335.6 335.6 334.7 333.8 333.3 335.3 340.2 333.2 325.4 325.3 327.6 336.4 342.9 353.5 368.2 385.7 402.5 417 430.6 443.2 454 457.4 449.6 424.2 408.4 398.1 390.1 383.9 381.4 379.5 381.9 386.8 395.1 400 405 412.2 417.2 421 422 418.3 413.6 407.2 398.1 387.3 371.2 358.6 346.8 337.4 343.7 359.8 378.2 395.2 417.2 432.6 444.7 455.5 462.3 466.4 466 462.6 457.7 453.9 450.6 449.3 450 451.8 454.8 457.8 461.4 465.1 470.1 477.7 482.9 488.1 496.5 505.1 513.7 523.6 533.6 546.5 558.6 567.6 575.1 579.3 578.3 573.9 565.7 554.2 540.5 525.9 511.4 498.7 487.8 478.7 470.8 462 451.4 440.5 429.1 416.9 400.7 391.5 382.2 384.5 385.4 379.7 372.1 368.9 373.8 372 369 362.2 362.8 363.4
361.1 370.9 378.3 385.4 388.4 384.5 382.7 380.6 373.8 370.5 367.5 363.4 365.3 368.6 375.1 380.5 385.9 391.9 399.1 404.9 402.4 398.7 393 382 376.4 368.8 363.2 360.4 357.9 356.9 356.1 352.4 346.9 341.8 337.3 332.1 325.6 327.7 330.5 334.4 341.7 349.2 356.8 364.1 370.5 377.5 384.9 391.9 399.7 405.4 411.5 416.9 422.7 429.6 438.1 445 449.5 451.2 447.1 438.1 427.7 415.5 399.9 383.8 368.7 355.6 343.2 335.4 325.2 315.7 320.5 323.7 326.6 331 334.4 337 338.1 338.1 335.3 334.8 335 334.4 334.5 334.9 334.7 334 334.2 335.2 337 343 348 348.9 350.9 343.5 323.6 324.3 326.2 334 342.9 355.1 369.4 385.2 403.8 419.3 433.5 445.5 453.2 452.8 435.8 414.9 402.4 393.2 386.4 380.8 378 379.5 383.2 390.9 401 408 414.9 422.1 428.7 432.6 432.7 429 420.9 412 400.4 388.6 370.2 357 345.5 337.6 344.1 358.9 378.2 398 419.7 433.5 446.9 456.9 464.4 468.7 470.3 468.7 464 459.6 455.9 453.8 453.2 452.4 452.4 453.2 455.2 457.3 462.4 468.1 473 479.5 488.9 499 511.1 522.1 534.6 546.2 559 568.7 574 575.9 574 567.2 557 543.3 528 511.1 497.3 487 478.3 471.1 463.5 455.6 446.5 436.4 426 415.6 402.6 393.1 384.7 377.7 375.2 372.7 370.5 385.8 383.5 393.5 394.3 387.4 375.5 358.4
358.5 369.2 377.7 384.3 388 384.8 383.3 386.4 378.3 374.8 363.4 359.6 361.1 365.4 371.1 375.3 382.4 387.8 394.2 400.2 399.6 396.4 390.9 382.7 375 367.2 360.9 357.7 354.9 353.9 352.9 349.6 345.3 340.9 336.7 332 324.8 327.8 331.4 334.7 340.1 346.1 354.5 362.6 369.5 376.7 383.6 391.5 398.4 405 411.4 417.4 423.5 433.6 442.3 448.6 453.7 456.4 455.2 447 436.8 424.6 409.7 390.2 374 360 348.2 338 331.3 319.4 315.5 315.2 322.3 325.6 328.6 330.6 332.7 333.3 332.5 329.8 331 331.6 331.9 332.1 332 333.9 336.1 340.1 346.5 352.2 356.1 356.4 356.2 349.7 334.7 322.7 324.5 332.3 342.4 356.5 371.4 386.6 407.3 423.6 437.8 446.9 452.2 446 420.7 406.2 396.2 388.6 382.1 378 376.9 379.9 385.4 394.1 405.8 416.2 424.8 431.8 437.8 442.2 443.9 437.7 426.1 415 401.4 386.5 368.8 356 342.7 336.7 341.4 359.1 378.9 398.9 419.4 434.4 448.6 457.1 464.5 469.2 471.2 470.2 465.2 459.8 456.1 454.1 452 448.1 447.5 446.6 446.4 442.9 442.3 448.7 454.9 465.8 478.8 492.7 507.2 520.5 533.8 545.3 556.9 564.2 568.7 569.8 566.1 558.5 547 531.7 513.1 496 482.6 473.3 466.6 460.9 454.7 447.7 440.2 431.4 422.7 413.4 402.5 393.5 384.3 377.2 373.3 379.2 387 404.4 403.1 418 420 413.4 401.1 389.5
355.2 369.1 377.3 384.2 389.8 389.5 389 385.6 379.9 369.8 365.3 356.4 356.9 361.8 365.9 372.8 379.4 385.1 391 395.8 397 394.3 388.8 381 371.9 366.6 360.4 355.7 352 350.3 349.3 347.4 343.3 338.9 335.2 330.3 324.4 327.3 331.5 335.2 340.5 346 354.5 362.9 370.1 376.3 383.7 391.9 398.7 406.3 413.2 420.9 429.9 439.3 447.6 453.7 458.7 462.3 462 455.9 445.2 432.7 417.8 399.2 379.7 363.9 352.6 342.5 333.2 324.1 318.6 314.3 313.4 320.5 322.7 324.3 326.9 327.3 325.2 324.7 327.1 328.5 328.8 330.9 333.1 336.2 341.2 348.6 354.6 359.5 362.9 363 360.3 352.5 341.3 322.2 323 329.2 338.3 355.4 372.8 390.6 410.6 429.6 440.3 451.9 447.1 427.2 410.8 399.7 390.6 384.1 377.9 376 376.7 380.4 388.7 398.9 412 423.6 433.7 440.4 447 451.3 449.7 441 428.6 415.6 401.6 386.8 367.3 355.3 344.5 336.1 339.5 358.1 377.8 398 417.4 432.7 447.9 455.6 463.5 467.5 469.4 467.6 463.1 458.1 453.9 451.5 449.1 448.6 441.3 435.1 425.3 422.1 422.2 429.2 440.7 454.8 474.6 492.4 505.3 520 534.2 545.1 553 558.7 561.1 560.8 557.4 550.2 539 522.2 501.2 481.7 468.3 459.3 454.8 448.7 444 438.2 432 426.2 418.4 410.4 401.7 392 382.2 374 372 387.5 401.6 410.3 425.6 437.3 441.3 436.8 424.1 409.6
352 363.9 377.2 384.5 395.7 396.1 393 387.7 382.9 374.7 363.4 355.5 353.2 358.3 364 369.8 377.4 383.9 389.5 393.5 394.8 392.5 386.5 379 372 366.2 360.7 356.1 352 347.8 345.3 343.9 340.8 335.4 332.6 329.5 323.7 326.5 331.8 335.3 340.2 346.8 354.2 362.1 370.9 377.3 384.2 391.6 401.1 409.1 417.4 425.9 435.3 445.5 453.6 459.8 464.6 468.4 469 464.6 455 441.5 426 405 383.2 371.7 357.1 346.8 337.2 328.6 323.6 318.1 312.6 314 316.7 319.4 321.4 320.7 318.8 320.2 321.7 325.1 329 332.6 335.5 340.3 348.7 356.3 362 366.2 367.8 366 361 352.8 343.4 330 320.7 326.1 333 353.7 373.4 390.4 412.6 427.5 438.8 446.3 434.8 415.8 402.8 393.4 385.1 379.3 374.6 373.8 376.3 382.6 392.2 404.1 418.3 431.5 441.1 447.5 454.4 456.5 451.4 441.2 428.9 413.8 398.8 382.1 365.2 354.7 346 335.4 337.2 356.3 373.3 398.5 413.1 429.8 444.7 454.1 461 463.8 464.3 461.7 457.7 453.4 449.4 448.4 447.7 439.1 427.8 416.4 411.1 408.2 417.3 433.4 451.2 462.4 478 493.3 505.7 522.6 536.3 545.3 550.6 554.5 554.6 553.2 549.7 543.3 533.6 517.3 495.4 472.3 458.9 447.4 440.7 434.8 431.1 426.2 422.3 417.8 413.4 407.2 398.9 388.7 379.7 371 374.1 392.1 408.1 423.5 437.2 448.3 454.5 454.9 445.7 430.7
354.6 356.6 375.8 382.8 391 391.4 389.6 387.9 382.2 377.4 364.1 354.9 350.5 354 361.2 367.9 374.2 380.9 388.5 391.7 393.1 391.5 385.9 378.6 372.2 366.2 360.8 356.1 350.1 345.4 340.9 340.3 338 333.2 330.6 328.2 322.4 324.4 329.9 335 340 345.3 354.1 360.9 369.9 378.6 386.3 394.4 401.9 412.7 421.6 430.9 441.4 451.4 460.3 466.4 471.1 475.7 477.3 473.9 463.5 450.1 431.5 410.6 389.3 373.2 361.3 351.7 343.3 332.3 326.3 323.1 316.2 311.2 312 314.6 315.9 314.9 313.8 315.2 320.3 325.1 329.6 334.1 339.3 348.7 356.5 363 368.7 370.1 368.9 366.1 359.8 351.6 343 331.8 321.4 320.1 335.5 354.2 372.6 388.6 405.3 421.6 431.8 432 423 407.2 395.2 387.6 379.8 373.7 371.5 372.2 377.1 385.8 397.1 410.6 425.5 438.4 447.1 454.2 458 457.2 449.7 439.3 426.9 411.8 393.7 379.1 365.3 355.3 346 334.2 335.6 354 368.6 390.6 405.3 424.8 441.1 449.9 454.5 457 456 452.9 449.6 445.9 442 441.1 436.8 427.6 414.4 405.2 401.7 410 425.9 441.8 457.9 470.1 483.6 495.3 511.4 526.9 537.8 545.9 549.5 551.4 549.7 546.8 542.6 536.2 527 512.5 495 474 454.4 438.7 427.2 420.5 416.4 415.5 413.7 411 406.8 401.4 392.4 383 374.4 367.8 378.4 396.7 414.6 430.7 444.7 456 463.7 467 463.8 452.7
364.7 354.5 371.7 380.4 391.1 394.9 388.5 385.2 380.8 374 364.6 355.9 350.3 348.5 356 362.8 369.5 377.4 385.5 389.4 391.1 392.4 385.8 378.7 373.1 367.4 361.3 355.2 348.3 343.1 338.9 336.8 334.9 331.1 328.3 326 322.8 324.9 332.3 337.1 342.7 348.8 355.4 362 372.8 382.2 388.9 396.3 405.7 415.2 425.7 437.6 448.1 458.5 467.1 473.2 478.1 482 483.6 480.6 471.9 458.1 439 414.8 393 378 367.3 357.9 346.7 337.7 329.2 324.8 319.7 310.9 309.5 310 311.2 310.5 310.2 315.3 320 324.3 329.2 336.7 347.6 356.5 362.8 369.7 373.3 372.7 369.4 365.7 358 349.2 340.2 330.6 320.5 319.5 335.7 354.7 371.7 380.7 397.9 409.9 421.2 421 414.6 397.8 388.5 380.9 374.2 370.4 368.9 371.9 379 389.2 403.5 416.8 432.4 444.8 452.9 459.7 461.5 455.8 447.5 436.9 424.6 408.8 390.7 376.7 364.5 354.9 345 336.4 332.2 350.5 360.4 378 397.4 416.4 435.2 444 447.1 446.7 443.3 442.1 439.5 434.7 431.5 432 428.3 415 401.8 396.6 403.3 415.2 432.7 448.4 463 476.5 488.4 503 518.8 530.8 539.8 545.1 547.3 546.5 543 539.1 532.9 525 517.1 503.4 489.9 474.5 457.2 438.8 426.2 414 404.1 399.4 402.5 401.3 397.9 390.9 383 375 367.6 368.2 386.4 402.3 420.3 436.8 452.1 463.7 473 478.7 478.7 473.3
370.1 365.4 353.5 373.4 382.1 388.8 387.1 383.4 377.9 370.9 363.2 357.7 350.8 344.9 352.3 357 364.2 373.9 381.8 386.1 389.9 390 387 380.7 373.5 368.5 361.9 354.3 347.9 342.2 336.7 332.7 331.8 328.9 325.8 323.8 320 328.8 335.6 339.3 347.2 353.5 360 366.5 376.9 385.5 391.7 400.6 409.8 417.8 427.5 439.1 454.7 464.8 473.3 480.4 485.3 488.9 491 489.7 480 466.3 446.2 421.4 399.5 381.6 371.1 361.6 349.9 339.9 331.7 326.1 321.4 315.3 309.2 308 308.1 308.1 309 315.3 318.6 323.5 330.6 343.2 354.2 361.8 368.4 374.4 378 373.6 369.6 364.3 354 344.3 336.1 328.6 319.1 319.6 338.5 358.1 372.9 385.6 389.2 400.9 408.7 409.3 400.9 387.3 379.9 373.9 369 366.5 366.7 371.7 380.4 393.5 408.8 423.6 439.2 450.2 458.4 464.4 464.3 456.1 445.9 434.3 421.3 405.5 387.7 373.5 362.5 353.5 344.1 336.3 330.9 345.7 355.8 370.8 391 409 426.6 435.3 436.4 434.4 428.4 423.7 419.3 416.8 417.5 417.8 414.3 402.8 394.4 389.4 405.9 418 435.7 452.4 466.9 481.2 495.5 509.8 523 532.2 539.1 542.5 540.6 536.4 532.6 524.1 519 512.8 505.1 496.2 485.4 473.6 461 446.7 433.7 420.5 406.7 393 386.1 385.7 385.9 381.5 373.9 366.3 361.6 375.8 394.5 411.2 428.3 445 459.2 471.1 481.7 489.2 491.4 488.4
373.3 371.6 359 353.3 370.5 377.1 381 378.5 374.5 369 362.2 358.4 349.8 343.1 346.5 352.6 359.2 368.2 376.1 381.3 384.8 386.6 386.9 382.7 375.4 369.8 361.7 354 346.6 340.2 334.6 331.5 328.5 326.3 322.6 317.8 319.6 331.1 336.7 342.2 350.4 358.5 365 370.1 381.1 390 398.4 404.7 413.6 422 430.7 441.2 456.6 471 479.6 486.7 492.6 496.4 499 497.5 488.3 472.4 452.1 426.8 406.1 387.2 374 364.9 353.2 341.9 334.6 327.4 322.5 317.1 308.9 307.3 308.1 308.1 308.8 312.8 318.3 325.2 336.6 348.8 357.6 366.7 374.5 378.9 379.2 375.2 368.3 359.8 349.7 339.4 331.7 324.4 317.4 324.8 344.4 362.3 376.1 388.3 392.4 387 395.9 398.1 388.8 378.7 373 367.8 364.5 363.6 366.4 371.6 382.4 398.6 414.1 429.8 444.7 455.2 462.7 467.1 464 456.4 443.7 430.2 416.6 401.5 385 370.9 359.9 351.8 344.2 335.8 330.9 342.4 351.6 365.7 386 404.8 417.8 422.8 422.2 418.3 414.3 407.7 399.8 399.9 400.5 400.1 397.8 391.7 388.8 391.5 407.1 425 439.8 455.6 472.1 485.9 502.1 514.4 523.4 530.6 534.4 534.4 531.1 525.1 518.4 510.4 503.4 499.5 494 487.8 480.3 470.6 461.1 451.5 440.7 428.7 416.2 398.3 385.1 376.4 372.6 369.9 365.4 359.9 366.6 383.7 400.8 418.4 435.4 452.3 466.7 478.3 489.6 497.7 500.7 499.6
377 378.4 365.9 351.9 356.7 363.9 371.3 374.1 370.4 365.9 360.1 354.8 349 341.7 340.5 349.9 357.1 362.7 370 376 381.1 384.4 387.6 382.5 375.9 371 361.6 353.5 344.8 339.7 330.5 327.8 323.9 323.5 316.8 316.8 323.7 333 338.9 346.8 356.2 364.4 372.2 380.4 386.3 395.8 402.9 410.8 418.9 427 434.8 447.5 460.2 474.2 485.9 493 498.7 502.7 504.9 503 493.2 477 457.8 430.4 408.6 391.4 377.9 367.1 357.3 346.5 336.7 329.2 323.1 317.4 309.8 307 306.4 307.4 307.6 311.7 316.8 327.1 340.5 352.8 361.4 371.7 379.9 381.8 379.9 376.2 366.3 355.6 345.9 335.6 327.3 321.3 316.5 330.5 351.3 367.7 382.2 395.4 402.7 390.1 377.7 384.5 377.6 371.6 366.6 362.6 360.4 359.7 365.6 372.5 385.9 402.9 419.2 435.6 449 458.6 464.9 467.2 463.1 456.3 445 428.8 413 397.3 381.7 368.6 358.8 351.1 343.4 334.3 329.9 335.7 345.8 361 379.7 399.3 410 413.3 410.2 404 394.4 389.2 386 385.2 386.1 387.2 385.2 382.5 379.3 393.3 407.7 427.8 442.5 458.9 478.9 493 505.9 514.9 522.5 526.8 527.8 525.5 521.1 513.3 504 494.6 488 485.6 483.2 480.4 474.5 467 459.6 451.6 442.5 431.7 419.6 406 391.6 380.4 369.2 363.2 360.1 356.7 370.3 389 407.7 425.5 441.8 458.8 475.2 489.1 499 505.3 508 506.7
380.7 383.2 376.5 359.7 351.4 357.2 362.6 366.7 366.3 362.8 358 352.7 347.3 341.4 336.9 346.7 353.1 357.5 364 369.6 376.5 378.7 383 382.5 375.7 368.4 360.3 351.2 343 336.7 330.1 325.1 320.6 312.2 314.6 321.8 326.9 334.2 340.6 352.3 364 373.2 380.9 386.9 394.2 401.1 411 417.5 425.8 433.5 442.3 454.7 468.3 479.5 491.9 498.3 504.1 508.1 510.3 508.4 497.3 479.4 459.9 434.4 414.3 396 383.2 369.7 357.7 347.9 337.3 329.8 323.3 316 310.5 305.8 305.5 305.9 306.4 310.8 317.4 330.1 344.9 356.3 366.3 378.3 385 385.3 380.6 374.4 364.4 353 340.2 332.3 324.3 318.1 315.9 337.1 356.6 373.1 388.6 399.8 404 395.7 382.3 367.2 369.3 364.2 361.5 358.5 355.8 358.9 365.2 375.5 390.5 407.9 424.7 440.3 452.4 460.6 466.1 466.6 462.5 455.1 443.5 428 410.6 392.3 380.6 368.7 358.6 349.7 341.7 329.5 329.3 332.2 343.5 357 373.5 391.4 402.3 403.8 397 390.5 382.7 378.3 376 375.9 376.3 376.5 375.8 372.7 381.4 396.5 410.3 431.6 447 462.8 480.4 493.6 503.8 510.9 516.7 520.5 520.4 517.5 510.6 500.9 489.6 478.2 470.3 471.4 472.7 472.2 468.6 463 456.9 450.4 442 431.9 421.6 412.1 401.3 387.6 375.1 362.1 357.6 357.1 373 392.7 412.5 430.1 447.4 463 479 493.8 503 510.1 514.3 512.7
384.9 385.1 379.9 366 349.8 350.5 355.8 358.4 360.8 358.5 355.1 350.6 345.5 340.8 335.1 340.7 349 353.8 359.5 364.6 369.3 374.7 379 379.3 373.8 365.9 357 348.5 341.4 333.7 327.2 322.4 318.9 309.4 313.8 320.3 328.9 338 346 358.7 369.7 378.1 387.6 396.4 402.3 411.7 418.9 424.4 432.5 441 449.3 461.3 473.5 483.8 497.2 504.2 510.1 516.1 516.7 512.2 498.3 477.4 457.8 437.2 417.1 399.7 384.3 370.7 357.8 347.4 336.9 328.9 322.8 316.7 310.2 305.7 304.4 305 305.4 309.4 319.3 333.9 348.8 359.5 370.4 384.3 389 388.4 382.6 373.7 363 350.3 335.5 328.6 321.6 315.2 322 344 360.8 375.9 388.1 399.7 400.1 392 381.3 367.1 355 358.3 356.6 354.4 353.5 358.5 365 378.9 394.8 411.3 428.4 443.2 454.3 462.1 466.1 465.8 462.6 454.2 442 425.5 405.9 389.5 377.9 366.4 358.8 348 340 328.7 328.2 329.5 340.7 354.7 368.6 384.6 390.6 391.5 386.9 379.5 374.2 370.7 368 367.9 369 368.6 367.5 379.8 393.6 404.5 420.2 435.6 451.2 467.7 478.5 488.9 498.3 505.2 508.7 511.3 511.4 506.3 498.9 488.3 474.7 462.5 453.3 456.5 461.1 462.4 461.1 457.2 452.3 446.5 439.5 431.7 423.7 414 403.3 388.8 375.5 363.9 355.3 356.6 375.7 394.9 415 433.4 450.4 465.8 480.5 493.8 504.2 512.9 515.7 512.4
390.6 387.9 379.6 369.3 352.5 341.4 348.5 354 353 352.9 350.9 348 344.4 339.7 334.3 336.2 345.3 350.4 355 360.4 364.4 369.4 377.1 375.5 369 362.4 353.5 344.6 338.4 331.9 324 320.2 315.7 307.9 316.4 321.6 332.7 343.4 355.4 366.2 376.5 385.2 394.7 402.1 410.8 418.3 426.4 432.7 439.2 447.9 456.8 468.5 479.6 489.4 501.8 508.8 517.9 523.4 522.5 514 497.5 472.1 454.2 436.2 417.9 401.1 384.8 370.3 357.8 346.4 336.3 327.9 321.6 316.3 309.3 304.1 303.9 304 304.6 310.8 320.7 336.7 350.6 363.9 375 389 392.8 391.4 384.2 371.3 360.8 346.9 334.2 326.8 319.6 313.9 328 347.1 360.8 374.3 385.4 393.4 392.4 386.3 374.4 362.5 352.6 351.6 352.2 349.8 352.8 358.1 367.4 382.8 398.8 415.1 430.4 445.1 455.7 463.5 466.8 467.3 463.7 453.8 440.5 424.6 404.6 388.5 377.5 367.1 357 348.1 339.4 332.9 327.4 327 339.4 351.2 364 375.8 381.4 381.6 377.5 371.9 365.1 361.9 359 358.8 359.4 366.8 379.9 393.6 403.6 420.8 431.1 441.2 454.6 469.4 479.5 487.1 494.2 499.7 501.6 501.8 500.8 495.3 486.6 473.9 459.7 447.1 437.4 440.8 448.3 452.3 452.3 449.6 446 442.5 436.9 431.9 424.8 414.7 402.3 387.7 371.7 361.5 352.7 359.4 377.2 396.3 415.4 433.4 450.8 466.4 481.3 493.6 503.5 510.8 512.5 509.3
394.7 393.2 385.6 369.1 355.5 342.2 340.3 342.9 343.2 344.1 345.1 344.5 341.9 337.7 333.1 333 341.3 346.7 353.2 357.3 360.6 362.5 372.7 372.2 363.7 357 349.7 340.9 333.6 326.6 321.3 316.7 305.2 307.1 316.7 324.5 336.7 349.8 362.7 373.9 382.6 392.3 401.6 410.5 419.1 426.7 435.2 442 448.4 456.7 464.8 477 486.6 495.3 505.1 515 523.1 526.1 522.6 510.3 487.2 467.3 450.9 434.7 415.4 399.8 381.7 368.9 357.3 345 336.5 327.5 320.9 315.6 308.3 304 303.4 303.3 304.7 310.7 321.1 338.7 353.3 367.5 380.9 392.5 395.3 392 385 369.1 356.9 344.7 333.8 327.2 316.4 313.6 327.8 344.6 358.2 368.4 380.7 386.5 383.4 375.8 366.7 357.2 349.8 347.7 346.9 345.7 352 357.4 370.3 386.5 402.8 418.8 432.9 446.5 456.9 466.5 469.6 470.7 467.1 457.5 443.3 425.4 405.7 389.7 376.7 365.8 356.3 347.4 338.9 331.8 327.4 325.4 336.8 349.3 360.4 369.1 373.2 373.4 369.5 362.2 358.1 354.9 355 358.2 368.3 381.7 393.9 404.7 422.8 432.1 442 451.1 462 473.8 481.7 487.7 492.4 496 496.8 494.3 490.7 483.8 472.8 459.1 444.2 433.1 425.3 426 435.5 440.5 442.5 442.5 441.4 438.8 435.1 430.3 424.1 414.6 400.9 384 367.4 358.1 349.3 360.2 378 396.2 413.3 430.6 448.1 464.8 480.2 492.2 501.7 507 507.7 504.6
399.1 395.7 389.6 373.4 358.6 343.3 337.8 338.3 334.4 334 337.1 338.4 338 335.5 332.1 330.7 335.6 341.6 349 352.7 355.1 358 360.9 362.4 356.5 348.6 342.2 335.7 330.1 325.4 318.7 315.7 304.5 304.8 318.3 326.9 340 353.1 366.7 377.3 389.3 402 413 421.4 430.1 437.7 445.7 453.4 460.7 467.4 475.6 485.2 494.6 502.9 512.5 520.1 525.1 525.6 519.1 498.3 476.6 461.1 444.1 428.5 410.7 393.1 378.9 367 356.5 344.8 335.3 326.7 320.4 313.8 307.7 303.3 302.9 302.9 304.8 311.9 325.1 340.8 356.8 371.1 385.4 396.7 399 393.5 384.9 368.5 354 341.3 334.8 328.6 321.5 311.6 325.4 339.5 352.7 362.2 372.3 377 373.2 365.8 358.9 351.2 346.1 344.7 343.8 345.4 351.4 357.5 373 389.2 405.8 421.2 434.5 447.1 458.6 468.3 472.4 474.4 471.5 462.7 449.5 432.2 411.8 394 378.8 367.2 355.6 345.7 339.3 332.9 327.2 325.4 335.5 347.1 356.5 362.8 365.1 364.5 358.3 355.3 351.7 351 356.4 367.8 382.1 392.7 399.7 422.6 433.3 444.4 454.2 463 473.2 480 483.8 489.2 491.7 494.1 493.2 487.6 480.9 472.8 460.2 443.7 430 421 415.9 414 422 431.1 435.2 436.6 436.3 434.1 430.8 426.6 420 411.2 397.7 379.3 363.7 353.7 347.4 359 376.2 393.2 409 426.2 444 461.6 477.3 489.7 498.9 503.3 504.2 500.7
403.4 399.7 393.2 376.5 360.3 345.6 335.8 335.8 335.4 329.5 327.9 332.4 331.9 332.9 330 327.7 330.9 336.5 344.7 348.7 350.4 352.8 355.4 359.2 353.1 344.3 336.6 330 323.7 317.6 315.2 312.8 306.8 301.5 320.2 329.4 342.3 355.8 369.4 381.9 396.6 410.2 422.1 432.6 442.9 452.4 461.2 467.5 474.6 480.7 488.4 494.6 502.4 510.2 519.4 524.7 526.7 523.7 509.9 482.8 465.7 452.9 437.4 420.2 402.1 383.1 374 363.3 354 343.1 334.1 324.9 318.7 312.6 307.5 302.7 302 302.1 303.4 312.9 327.6 343.9 360.8 375.6 389.7 401.5 404 396.8 384.1 368.6 352.8 341.6 335.9 328.1 321.4 312 322.1 331.6 344.6 354.7 363.7 364.1 361.1 354.3 349.6 345.9 341.9 339.4 338.9 345.3 351.3 359.3 374.9 390.7 407.1 421.9 434.5 447.5 458.9 468.2 473.4 475.8 473.1 465.4 452.4 437.9 421.2 402.4 385.7 371.9 358.9 348.2 340.6 332.8 325.3 324.7 333.3 344.3 352.5 356.6 357.6 355.6 353.6 350.5 347.1 353.5 364.1 378.4 390 404.4 421.1 432.2 443.2 454.4 466 475.5 482 486.5 489 492.5 493.3 491.3 487 479.8 469.7 458.2 444.4 430 417.9 410.7 407 402.8 412 423.1 428.1 429.8 429.7 428.1 425.2 420.7 415 406.5 393 374.6 360.4 350.2 348.7 364.2 379.2 394.2 410.1 426 443.5 460.8 475.6 487.8 497.2 502.8 502.8 498.6
403.6 401.6 394.3 379 361.2 346.6 335.8 330.9 330.1 327.2 321.3 324 325.6 328.2 327.1 325 326 333.1 339.4 344.7 346.9 348.5 350.4 353.4 353.8 345 334.6 325.8 321.5 313.9 311.3 309.2 300.6 306.8 322 332.3 343.6 357.7 370.2 386.1 401 415.6 428.9 440.7 452.1 463.7 472.9 479.7 488 495.8 501.7 506.7 511 517.5 525.2 528.4 526.4 516 494.6 470.6 454.6 443.9 425.8 409.5 391.1 376.5 369.4 360.7 350.8 340 331.2 321.8 315.9 310.5 306 302 300.9 301.5 303.9 314.4 332.1 348.2 365.1 380.9 394.5 405.1 408 401 387.3 369.4 353.4 344.3 337 329 321.1 312.5 318.6 322.9 334.1 345.2 352.6 353.2 349.8 345 341.8 339.3 336.4 335.2 338.6 346 351.4 360.9 375.5 391.2 407.4 420.9 434.4 447.7 458.2 467.4 472.6 474.9 472 465.1 453.9 440.7 426.9 410.3 394.8 378.2 364 352.4 341 332.5 324.5 323.9 327.9 339.7 348.4 351 350.4 348.3 345.5 341.7 349.7 361.8 373.8 385.5 399.5 418.3 430.9 442.1 453.4 464.9 474.5 483.4 490.5 494.2 496.5 496.6 494 487.2 479.1 471 458.6 443.8 429.5 418.1 409.5 403.7 399.6 393 401.9 414.6 420.1 422.6 423 421.5 417.8 413.7 407.5 399.6 386.8 371.4 356.5 346.6 351.9 369 385.3 399.9 414.6 428.9 445.9 461.4 476.1 488.2 497.4 502.6 501.9 496.8
398.7 401.4 392.1 381 363 347.6 340 329.8 326.4 325.2 323.2 319.8 316.8 321.1 323.5 323 323.1 329.2 334.2 338.8 342.3 344 344.6 345.8 346.8 342.1 332.8 323.7 317.4 310.1 307.3 304.9 298 312.6 321.9 332.4 345.2 359.6 372.8 388.6 402.7 418.7 433.4 445.9 458.6 472.4 482.2 489.9 499.2 507.8 515.8 520.2 523.5 525.9 530.2 529 523 501.1 480.7 461.6 445.5 434 416.5 398.2 383.4 371.5 364.3 356 346.7 334.8 326.5 319.3 314.1 309.2 305.1 301.5 300.5 301 306.6 321.1 336.5 353.6 370.1 386.1 398.7 408.6 411.6 405.2 391.1 369.9 356.8 344.2 337.8 329.9 321.5 311.6 315.6 319.6 324.1 335.1 341.9 341.4 339.3 336.8 334.9 332.2 329.3 333.8 340.3 346 352 363.6 376.6 391.1 405.8 420.4 433.9 446.5 456.3 464.9 470.1 471.6 468.4 461.7 452.3 440.8 428.5 414.7 400.9 383.6 368.5 353.5 341.1 332.7 322 322.8 325.2 335.3 340.3 342.3 342.2 340.6 338.3 349 362.9 373.5 384.8 396.7 414.3 428.4 441.2 453.1 464.4 475.8 486.5 494.4 499.7 501.1 501.7 499.6 494 485.3 473.3 459 447.5 431.4 419.3 408.8 400.6 396.5 390.1 383.1 390.6 405.9 413.4 415.8 414.9 413 408.3 403.3 397.1 390.3 378.8 365.7 353.5 342.3 353.8 372.7 388.7 403.2 417.3 431.1 445.9 462.1 476 487.9 497.3 501.9 501.8 496.9
394.6 398.3 392.9 381.4 367.1 352.4 344.8 339.5 330.1 329.4 327.1 323.7 319.8 313.6 319.3 320.2 319.3 324.4 329.4 333.4 337.7 338.9 339.2 339.5 340.6 336.5 327.9 320.4 314.4 305.8 304 297.6 295.7 312.3 321.7 333.1 344.8 358.2 373.2 389.8 405.5 420.1 434.9 449 463.4 477.2 489.4 499.3 509.3 518.4 528.3 534.9 537.6 535.5 534.8 527.8 514.7 488.5 469.5 451.2 437.5 424.1 408.2 389.8 377.1 367.3 359.8 350.4 339.7 330.4 322.6 316.4 311.6 307.6 302.7 300.3 299.6 301.2 309.6 324.5 341.4 358.9 375.9 390.2 402.6 411.1 415.6 410.4 396.3 379.5 362.7 347.8 337.4 329.4 322.5 315.9 309.7 315.7 321 325.6 331.3 332.8 331.2 329.1 326.5 324.3 328.9 335.3 340.4 347.2 357.7 371.3 382.2 394.2 408.6 421.2 433.9 444.5 453.7 459.9 464.2 464.3 461.7 456.3 448.6 439.2 427.4 414.9 401.1 385.6 371 355.2 341.4 332.3 322.6 322.3 326.7 330.3 334.3 335.5 332.8 338.5 352 364.4 376.2 384.7 399.2 414.4 426.5 439.1 452.1 464 475.4 486.4 496.1 502 505.7 506.7 506.5 500.9 493.2 482.3 468.3 451.6 434.8 421.4 409.6 400.4 393.5 388.1 382.7 375.9 382.6 398.6 405.7 407.2 404.4 400.9 396.1 390.8 385.2 377.9 370.4 359.9 350.5 340.8 355.3 374.4 389.2 402.4 416.1 430.5 445.6 459.9 474.2 485.8 494.6 500.2 501.3 497.1
