ncols 200
nrows 82
xllcorner 400000
yllcorner 483300
cellsize 50
249.7 253.3 250.4 245.2 239.6 234.7 230.7 224.5 220 213.6 206.5 189.1 184.6 188.5 183.9 177.3 172.6 165.7 163.9 162.5 160.7 154.6 155.9 154.4 149.6 147.2 146.8 147.7 147.6 147.6 148.4 149.2 149.8 150.3 150.6 150.6 150.7 151.7 149.7 149.9 152.1 149.8 151.3 155.2 163.5 170.5 175.2 185.7 199.7 202.9 207.9 214.9 232.6 240.9 247.4 250.7 258.7 289.2 312.6 318.6 322.5 328.9 330 335.9 341.7 352.1 352.9 365.6 376.5 384.4 388.1 388.5 393.5 395.3 394.6 392.9 392.5 393.5 392.9 391.4 389.6 385.9 380.6 377 377.2 377 376.9 376.8 376.6 376.1 376.6 377.3 377.2 376.5 375.4 374.5 375 377.7 378.4 380.7 382.2 380.9 381.1 381.4 380.8 379.2 380.1 379.2 376.7 375.8 373.1 369.5 366.5 360.4 357.4 352.2 348.7 347.1 346.4 345.9 345.1 344.4 344.4 343.2 340.5 339.1 336.7 334 332.1 330.1 327.3 325.1 322.5 321 320.1 319.1 318.5 316.5 314.5 310.8 309.4 307.3 304.9 303.2 301.7 300.7 300 299.1 298.6 298.1 297.3 296.8 296.5 295.7 294.6 294.3 294.4 295.3 294.7 294.6 293 288.1 275.3 274.2 271 269 269.2 270.8 271.2 270.5 269.6 269.1 269.5 267.5 262.4 257.5 253.3 250.5 248.1 246.8 244.6 241 236.1 233.9 233.6 235.2 235.9 239.7 244.5 244.8 243.7 241.9 241.3 240.1 238.5 238.1 237.6 235.6 234.9 231
224.6 236.8 235.6 235.8 232.3 227 221.8 217.6 211.1 205 197 193 181.6 177.1 173 169.1 166.1 164.5 162.3 159.3 156.5 155.4 151.3 148.3 147.7 147.2 147.9 148.2 148.5 148.5 148.8 149.5 150.3 151 151.2 151.1 151.1 150.5 151.3 151.3 154.9 152.8 153.9 159.3 167.7 172.7 177 193.5 201.7 205.7 210.7 220.6 238.7 245.1 250.5 260.5 277.6 306.2 316.9 322.5 330.2 330.7 331.7 341.6 345.1 353.5 360.5 377.6 393 392.4 388.7 389.7 391.7 395 394.8 396.6 396.3 395.4 394.4 393.8 392.2 387.9 382.1 381.1 381.6 384.2 385.7 380.1 380.2 383.1 382.9 382.6 383.4 385.5 386.1 385.9 387.7 387.3 388.6 389 389 388.5 387.8 387 384.9 383.4 383.2 382.7 382.3 381.3 380 377.3 376.7 374.2 372 369.4 367.5 366.3 365.3 362.5 353.9 348.3 346.5 346.4 344.7 342.6 339.8 337.9 334.9 333 330.8 327.3 325.1 324 323.2 324 325.4 325.7 326.1 325.6 323.4 322.3 319.7 318 313.9 309.8 305.5 302.7 301.3 300.3 299 298.5 297.9 297.3 297 296.5 298 297.9 297.5 294.9 291.6 286.8 278.2 274.9 272.6 272.2 272.1 271.9 271 270.5 270 269.8 269.8 267.5 264.1 259.4 255.1 253.9 251.8 249 247.4 245.9 244.8 241.3 237.4 237 238.4 241.7 244.7 245.4 244.2 241.5 239.5 240 238.8 238.6 237.5 235.9 235.3 234.3
228.3 215.2 213.1 219.9 223.1 219 214.1 209.3 205.6 200 195.6 192 183.4 178.5 170.9 168.3 166.4 164.7 161.2 157.4 153.8 152.2 149.7 148 148 148.2 148.1 148.5 149.2 149.3 149.7 150.1 150.5 151.2 151.3 151.6 152 151.7 152 152.4 155.4 155.8 156.5 160.8 170.5 174.9 179.9 200.9 204.6 208.5 215.5 229.5 243.6 249.5 260.1 275.1 296.2 316.6 321.8 328.3 332.5 332.7 333.2 344 348.9 355.3 366.4 387.7 393.9 393.1 390.7 391.5 393.1 397.2 399.1 398.3 398.8 397.8 397.2 396.7 394 391.7 391.2 390.8 390.1 390.4 393.8 392.8 392.5 393.9 392.1 392.7 393.7 392.9 392.6 392.9 392.7 392 392.3 392.4 391.9 390.5 389.1 387.7 386.4 385.8 385.3 384.6 383.4 382.2 381.1 379.6 377.6 376.3 374.5 374.3 373.2 372.5 371.9 369 364.6 361.1 358.2 356.3 349.8 348 348.4 348.2 345.7 343.2 342.5 341 336.5 333.5 332 330.5 330.2 328.7 327.2 326.2 324.4 322.7 321.1 323.1 320.5 317.8 315.6 313.9 313.1 311.7 306.1 301.5 300.7 299.7 299.1 298.8 299.7 300.5 301.2 299.2 293.3 285.5 280.5 276.9 275.6 274.6 273.2 271.7 270.8 270.4 270.4 270 269.2 265.9 261.9 260.7 258.7 256.9 254.3 251.1 251.6 253.1 253.4 250.1 245 242 242.1 242.9 245.5 246.1 243.7 239.7 236.2 234.1 235.4 234.8 233.8 232.9 233.4 234.4
241.9 236.5 229.3 208.6 204.6 213.3 211.6 206.6 200 194.2 190.2 187.3 180.3 174.3 168.5 167.4 165.2 162.2 159.7 155.5 152.5 152.1 150 148.4 148.5 148.6 148.8 149.5 149.8 150.2 150.7 151.1 151.5 152 152.2 152.3 152 152.7 151.8 154.3 157.2 159.2 159.9 165 173.7 176.8 188.6 205.2 208.7 211.9 222.3 239.4 247 257.6 267 282.3 312.3 321.1 324.9 328.4 332.7 335.5 341.4 348.3 356.1 361.2 374.1 395 395.9 394.4 393.4 393.9 398.8 401.8 403.3 405.3 404.2 404.1 406.4 403.8 402.4 398.3 396.5 394.8 395.8 393.4 396 393.4 394.7 393.5 393.1 394 395 395.1 395.3 395.5 395.5 395.5 395.3 394.4 392.8 391.1 389.4 389.5 388.5 387.7 386.8 385.9 384.4 383.1 382 380.4 379.2 377.8 377 376.5 375.6 374.1 372.7 370.5 368.8 366.7 365 363.3 360.4 356.7 355.9 355.1 352.5 349.3 346.9 343.8 341 338.8 337.2 335.5 335.4 334.7 331.4 329.7 328.6 325.6 321.3 319.6 318.2 316.2 315.1 313.8 312.4 310.6 307.6 304.4 302.9 302.4 302.9 303 303.5 303.5 302.4 299.5 294.8 291.4 288.1 285.6 286 284.5 278.1 271.7 270.7 270.6 270.7 270.1 266.8 265 262.4 260.4 259 257.4 255.7 257.5 258.2 258.5 257.1 252.4 249.2 247.6 245.5 244.9 243.9 243.7 241.3 237.6 233.7 230.6 230.2 229.6 230.1 230.4 232 232.8
237.2 229.7 226.3 221.7 208.9 188.5 198 197.8 194.7 189.8 182.2 178.9 174.2 167.9 166.3 165.6 163.1 162.8 157.2 152.8 151.8 151 148.6 148.7 148.9 149 148.8 149.4 149.8 150.5 151.2 151.7 152.1 152.6 152.9 152.9 152.6 152.4 152.7 156.4 159.4 162.9 163.9 168.7 178.9 182.6 197.2 209.6 211.2 217.5 229.1 249.7 255 262.3 278.1 291.6 316.5 325.4 327.5 333.9 337.6 342.1 349.6 358.6 360.4 368.5 387.3 396 395.7 396 397.8 401.2 401.6 403.9 406.9 408.9 406.5 406.2 407.3 406.3 402.4 400 398.3 398.6 398.5 397.7 397 396.9 396 396.7 396.1 396 396.3 397.7 397.6 397.5 397.6 397.9 397.1 396.3 400.2 397.8 398.3 397.4 395.8 392.5 389.4 387.9 385.7 384.4 383.6 382.9 382.1 381.1 379.8 379.2 377.6 375.7 374.4 372.6 370.9 369.2 367.3 367 366.6 366 365.7 363.1 360.6 356.4 351.9 346.5 343.3 342.1 341.6 340.5 338.4 336.1 333.6 332.2 329.9 326.1 323 320.3 317.5 316.2 315.6 315 313.8 312.6 310 307.1 305 304.4 304.9 308.4 309.5 307.5 307.1 302.4 295.7 293.1 290.7 291.7 291.1 289.6 284.5 278.8 271.9 271.1 271.1 269.9 267.5 263.6 261.5 260.2 258.8 257.9 260.1 262.8 262.1 260.1 256.1 252.3 251 249.4 247.7 242 241.5 239.3 238.2 235.4 231.5 228.3 226.9 227.9 230.1 231.5 232.5 232.1
226.3 225.9 219.3 211.3 204.3 194 186 188.4 185.3 179.9 175.3 171.6 168.1 163.2 161.7 161.3 158.7 158.5 154.4 151.7 150 149.1 149.2 149.4 148.2 148.3 149.1 149.4 150.2 150.9 151.6 152 152.2 152.9 153.6 153.6 153.2 152.5 155.5 158.7 161.9 165.6 167 175 183 190 204 213.2 214.5 224.3 241.3 256.2 263.1 275.7 287.8 309.2 319.9 327.8 331.7 337.6 341.6 350.1 359.5 361.9 367.1 380.8 397 398.1 398.3 398.7 402.8 403.8 406.3 407.3 408.4 410.3 409.5 409 408.2 406.6 404.3 402.7 400.9 400 400 399.2 398.7 398.9 400.2 400.6 399.1 399.2 400.1 400.4 400.5 400.6 400.9 400.3 400.6 405.4 406.9 408.6 405.4 404 401.8 401.3 397.5 393.2 388.9 386.9 387.3 387.6 386.5 385.5 385 385 383.4 382.9 383.2 380.6 380 378.5 375.1 370.3 368.9 368.9 369.1 368.1 364.8 361.4 359.2 356.4 354.7 350.3 347.2 341.4 339.2 336.5 334.1 332 330.1 326.8 322.3 319.6 318.1 318.3 318.1 317.8 316.9 315.3 312 309.6 307.7 306.2 307.9 311.6 311.7 306.4 301.6 298.4 296.3 294.1 293.1 292.3 290.7 290.6 287.4 278.7 273.4 271 270.3 269 266.9 263.2 261.4 260.4 259.7 258 258.7 261.5 259.8 257.3 254 251.1 249.5 249.4 248.5 245.5 240.2 238.8 232.4 230.8 228.1 225.3 225.8 227.9 231.3 233 232.6 231.7
213.8 210 208.2 201.2 202.4 199.1 181.8 177 175.6 173.2 169.9 167.3 161.6 157.8 156.1 156.6 156.6 155.2 152.2 150.3 149.9 149.5 148.9 149.7 149.4 149.2 149.2 149.4 150.3 151 151.4 151.9 152.5 153.2 153.9 154.3 153.6 154.4 157 159.6 164.2 168.3 169.9 180.8 187.3 194.5 210 217.2 221.5 230.7 255.1 259.5 273.7 288.3 310.3 320.4 323.8 329.9 335.4 341.4 348.6 356 363.2 369.5 376.4 397.9 399 400.2 399.2 402.4 404.8 408.2 415.5 413 411.4 410.8 411.5 410.1 409.3 407.5 406.5 404.8 404.6 403.4 403.7 403.4 403.9 403.8 406.9 408.2 407.5 405.6 404.5 404.2 404.1 404.8 405.2 408.9 413.1 412.2 413.7 414.4 413.5 409.9 408.8 406.1 403.6 400.4 393.6 390.6 392.2 392.4 392.2 392.3 394.5 393.6 392.5 390.5 390.3 388.5 386.5 384.9 381.5 380.2 379.3 376.2 375 373.6 372.8 371.9 367.8 362.8 359.1 353.8 349.1 348 347 343.7 340.7 335 330.2 327.8 323.8 320.7 319.2 318.8 319 319.2 317.7 315.9 314.5 312.2 310 309.1 310.8 311.3 306.5 301.6 298.5 296.1 296 294 292.3 289.7 286.4 286.7 282.3 276.5 272.4 270 269.1 268.1 266.6 264.7 263.5 261.4 258.8 257.4 256.5 259.1 259.7 257.1 252.3 250.3 249.9 249.7 247.7 245.9 239.2 235.8 231.1 226.7 223.9 219.1 213.2 220 223.3 225.6 227.2 227.6
216.1 210.1 206.4 201 191.8 183 176.1 173.3 170.5 168.7 164.4 161.6 159.1 156.8 155.2 154.6 155.1 153.5 151.7 151 150.4 150.7 150.1 149.8 148.7 148.8 149.1 149.2 150.1 150.9 151.1 151.2 152.5 153.5 154.7 155.5 154.4 155.2 159.1 167.3 169.1 170.7 174.4 184.4 191.4 196.9 216.7 220.2 225.7 248.2 260.1 267.8 284.9 312.3 322.5 327 330.3 334.5 340.5 342.9 354.7 365.7 367.3 375.1 390.3 400.8 403.6 403.3 402.8 406.9 410.2 414.1 415.7 414.3 413.2 412.6 412.8 412 411 409.8 409.2 408.7 409.1 409.3 409.8 411 414.3 413.6 412.8 414.5 413.9 412.9 409.7 410.4 410.8 412.4 412.3 417.4 420.6 419.7 423.3 422.4 422.6 421.1 419.1 417.1 415.7 410.2 404.3 400.9 400.8 400.3 401.7 400.2 399.8 399.3 400.4 396.8 398.5 398.4 396 398.1 395 390.2 384.9 379.2 376.6 374.7 370.1 368.8 367.2 365.8 365.5 360.4 356.2 352.6 347.5 345.1 343.1 339.6 334.9 331.6 328.1 327.1 323.4 322.5 321.5 319.7 317.5 315.9 314.8 313.7 312.2 310.5 311.6 307.6 303.8 299.8 297.5 295.5 294 291.8 289.5 286.7 283.2 281.2 279.3 275.2 271.6 269.6 268.8 267.6 266.5 266.7 266.8 265.9 261.9 256.6 256.4 259.3 258 255.8 252 249.3 247.8 245.8 243.8 239.5 235.7 231.9 228.2 222.5 219 215.4 209.4 208.1 211 213.1 213.9 215.3
207.3 199.8 189.1 183.6 175.5 172.6 171.7 169.8 169.1 166.4 163.2 160.1 157.6 155.6 153.9 153.7 154 152.3 151 150.4 150.7 149.4 149.3 149.7 149.6 149 149.1 149.2 149.4 150.2 150.6 151.8 152.8 156.2 160.3 160.7 153.5 156.7 162.4 169.4 171.8 173.4 181.7 188.4 194.2 205 220.2 222.9 234.2 255.9 264.6 281.5 312.6 323.2 327.7 331 333.8 340.4 343 349.3 358 368.3 373.8 384.2 404.7 405 407.1 407.1 407.4 411.3 416.5 416.9 416.8 415.7 415.7 415.3 415.2 414.1 413.1 412.6 412.4 411.5 412.1 414.6 417.3 419.7 419.7 421.2 421.3 419.5 422 421.3 418 419.5 422 424.2 426.7 427.4 430 433.3 434.9 434.2 435.4 436 435.2 435.1 432.7 428.5 425.3 417.6 415.1 414.9 413.7 413.3 411.5 411 409.9 410 410.7 412.7 414.6 414.7 407.3 401.5 397.1 392.2 388.6 386.1 382.8 376.7 370.1 365.7 359.8 358 355.6 355.8 352.3 348.1 343.9 340.4 338.6 334.3 333.7 331.7 332.8 327.7 322 319.5 317.5 316 314.2 313.2 311.5 311.9 311.7 308.5 305.8 301.9 299.2 295.6 292.7 289.6 286.7 284.7 282.3 280.7 277.6 274.7 272 269.8 268.6 268.2 267.9 268.1 268.5 267.5 263.5 256.5 256 257.7 256.5 254.2 251.8 249.1 244.2 240.4 238 234.3 232.7 229.6 223.4 217.3 214.8 210.1 205.8 204.2 203.6 205.2 206.4 206.2
191.2 183 177.1 172.1 169.3 168.2 168.3 166.2 165.7 164.1 161.8 158.8 157 154.4 153.1 152.4 151.8 151.6 150.7 150.9 150.2 149.8 149.6 149.8 149.9 149.5 149.4 149.4 150 150.3 149.9 151.7 156 162.5 163.2 162.4 154 158.4 163.2 169.3 175.2 177.7 189.1 192.6 197.1 219.4 222.7 230.3 249 261.3 276.5 302.9 323 329.9 330.9 333.1 340.8 342.5 346.3 354.3 362.1 367.6 376.3 393.6 411.7 408.6 409.1 410.3 413.2 417.5 419.1 418.9 417.9 417.6 417.7 418.1 417.2 416.7 417.1 416.4 416.4 416.7 420 424.2 425.1 425.9 427.5 427.8 429.2 430.9 431.3 431.2 432.7 434.1 433.4 435.6 440.4 443.2 446 450.5 451.5 454.5 453 453.9 448.3 449.7 451.7 447.8 438 428.5 427.3 424.6 423.2 423.5 423.5 423.6 426.2 430.4 427.1 426 425.4 422.4 417.8 407.1 399.5 395 391.2 386.3 382 377 374.9 373.5 369.3 362.4 355.5 352.4 351.3 349.3 346.1 344.5 339.8 340.2 337.4 336 334.8 330.9 326.9 322.1 318.3 315.4 313.1 312.2 311.1 311.5 311.5 309.2 306.2 303.3 300.9 296.2 292.4 290.4 287.7 285.4 282.3 281.8 280.3 276 272.6 270.1 268.8 269.7 269.6 268.9 267.6 265.9 261.2 255.7 253.7 255.4 253.2 249.3 245.9 243.6 237.7 230 228 228.4 226.4 223 218.1 211.6 212 207.9 203 201 199.8 196.8 195.2 198.1
179.9 174.6 170.6 167.3 165.7 163.4 161.9 162.1 161.9 160.7 159 157.2 155 154.3 153 152.3 151.7 150.6 150.8 151.1 150.9 150.7 150.2 149.9 150.5 150.5 150.1 150.2 150.2 150.2 150.8 153.7 161.9 165.2 164.8 164 155.3 160.8 166.6 171.7 176.7 184 191.3 194.8 205.1 222.1 226.6 239.2 259.5 272.6 290.3 321.7 330.3 330.6 333.4 339.5 341.6 345 352 357.3 363.5 366.5 376.2 398.1 412.5 410.6 410.4 413.8 419 420.7 419.7 421 420.4 420.2 420.7 421.9 421.2 421.3 421.6 422 424.7 428.7 431.9 432 434.5 436.4 439.4 441.4 442.1 445.3 446.6 449.2 448 452.4 457.1 457.4 459.6 464 466.9 461.9 461 467.6 463.3 460.7 458.4 458.8 462.5 453.1 449.5 446.8 441.6 442.8 442.8 440.8 439.7 438.4 436.2 433.2 431 428.5 427.1 424.8 420.9 415.3 404.9 397.5 392.3 386.9 382.9 378.8 375 372.9 367.6 361.9 359.2 355.3 350.1 349.1 350.5 349.8 348 345.9 341.3 338.5 337.7 336.7 331.6 328.3 321.8 315.9 313 311.9 310.8 310.3 309.2 307.9 306 303.7 300.1 295.4 293.2 291.5 289.2 286.8 283.3 281.9 280 277.5 274.2 272.1 270.2 270.4 269.8 268.2 265.7 262.1 258.9 252 238.8 245.8 243.9 240.6 236 232.9 229.1 225.3 220.7 218.6 216.9 215.1 211.6 206.2 209.9 206.1 202.7 200.1 198.4 197.5 195.8 193.1
174.2 169.2 167.2 164.5 162.9 162.5 162.5 161.1 159.5 158 156.6 155.1 154.2 153.7 152.8 150.9 151.4 152 151.3 150.8 150.9 150.8 150.8 150.4 151.3 151.7 151.1 153.1 150.4 150.6 151.4 159.8 165.8 168.3 166.7 166.7 156.8 166.1 171.4 177.3 185.8 189.5 193.7 197.7 213.3 224.8 230.7 252 263.5 281.7 309.2 324.3 330 334.4 338.7 341.3 343.8 350.2 355.1 360.6 364.5 369.2 378 404.6 413.5 413.2 413.3 416.4 420 420.3 421.8 422 421.7 422.2 423.3 425.1 426.7 427.7 431.2 432.1 438.7 440.8 444.3 447 450.8 457 459.7 461.1 461.3 461.3 462.4 465.9 463 469 472.7 479.7 485.1 487.8 478 477.3 470.9 469.3 471.1 472.6 470.2 467.8 469 464.4 469.8 466.5 463.8 456.5 458.4 458 454 451.5 444.5 436.4 431.4 428.7 427 425.3 421.5 415.5 409.2 400.9 395.1 392.3 388 382.3 379.1 372.6 368.5 368.2 367.9 361.8 357.1 353.9 354.1 350.9 349.5 348.7 348.4 344.4 337.9 338.3 337.3 331.5 326.5 319.7 315.6 312.3 310.9 308.6 307.1 306.3 305 302.7 299.9 295.4 293.2 291.6 290.1 287.7 285 282.3 280 278 275.9 273 268.6 268 269.7 267.7 263.5 259.6 252.6 242.3 230.6 235.3 233 229.2 228.7 226.1 222.9 220.3 218 215.3 213.7 211.4 208.3 204.5 207.4 205 202.4 199.9 200.2 199.7 198.7 195.8
171.4 168.6 166.5 162.3 160.7 160.9 160.6 158.8 156.9 155.9 154.9 153.9 153.5 153.7 151.8 152.1 152.3 152.1 151.6 151.1 150.8 150.7 150.7 151.6 153.6 153.3 153.3 152.9 152.2 152 154.4 164 171.6 174.6 168.9 166.7 164.6 166 176.2 183.8 192.5 192 196 203 213.6 225.8 240 253.3 272.9 299.5 313.8 323 328.7 336.7 339.5 342.8 348.1 353.8 360.4 363.4 367.6 372.6 387.4 411.9 413.6 415.4 416.8 418.6 421.1 422.4 422.9 423.2 423.5 426 428.3 430.8 435 439.2 444 448.6 457 462.1 465.9 469.5 473 475.8 471.8 471.9 467.5 468.1 469.5 472.9 486 494.2 498.6 508.3 516 518.9 520.2 512.9 518.9 519.3 521.8 519.7 508.9 496.4 494.6 496.5 494.5 493.1 489.9 480 467.6 462 458.2 453.9 442.5 433.2 429.8 428.1 425.3 421.5 417.4 410.5 403.8 399.5 395.6 392.9 390.5 386.7 382.2 377.4 374.2 371.4 370 367.9 365.2 365 362.9 358.3 352.7 351.6 352.4 349.1 346.9 344.5 340.3 333.8 328.7 321.2 319.8 313.7 310.4 307.9 306.6 304.8 302.9 300.9 297.7 295 292.9 291.2 289.4 287.5 285.4 282.2 280.6 277.6 273.7 269.1 266.9 260.4 264.1 263.4 260.3 258.2 247.9 238.6 228.4 230.2 228.9 227.1 225 223.4 220.8 218.5 216.9 214.1 211.9 209.6 207 204.2 207 204.8 202.6 200.2 201.2 202.6 202 200.2
170.7 168.6 164.3 162.8 160 158.5 157.3 156.7 155.7 155 154.4 153.5 154.2 153.1 152.7 152.5 152.4 152.4 151.8 151.3 150.9 152 154.2 155.7 156.8 155.7 155.9 155 154.5 154.8 161.8 169.6 178 174.9 170.1 168.6 169.5 165 166.5 184.6 192 192.8 198.6 209.5 216.9 230.8 244.8 259.7 282.6 307.1 319 322.6 330 336.6 339.2 346.5 351.9 359 363 366.1 371.2 379.9 394.2 409.3 413.5 418.2 420.4 422.1 423.7 424.1 424.3 424.8 427.2 431 436.2 441.7 447.7 453.4 460.1 469 475.4 475 479.6 481.3 487.8 488.8 492.5 493.2 498.9 494.5 489.3 497.2 514.3 517.7 519.6 525.6 526.9 527 526.7 526.5 526.7 526.6 525 523.1 521.7 519.8 517.6 516.1 513.9 512.3 510 497.2 477.8 464.8 456.8 449.7 437.3 432 429.9 427.9 424.8 421.6 417.9 411.7 405.2 402.6 398.9 394.6 391.3 387.7 384.6 381.3 378.6 375 372.3 366.1 365.8 364.9 365 360.4 357.8 354.9 351.5 350.3 348 344.4 342.6 337.3 330 324.5 318.5 317.2 311 307.5 305.8 302.3 298.1 296 293.6 292.4 291.2 289.5 287 286.1 284 281.6 278 274.9 269.9 264.7 261.5 254.1 254.3 256 252.6 248.7 244.9 239.5 229.6 227.1 226.8 226.1 224.5 223.1 221.9 220.5 218.6 216.2 212.6 209.9 207.4 203.8 206.4 205.5 203 200.8 200.9 203 203.2 201.8
170.1 168.4 165.7 162.8 159.8 157.9 156.9 156.5 155.6 154.8 153.9 154.3 154.3 153.8 153.9 153.6 153.1 152.8 152.2 151.7 151.4 156.8 159.9 160.6 159.2 157.1 157.9 157.1 156.8 158.6 172.5 180.1 175.4 172.5 169.7 169.5 171.3 180 174.9 171.2 182.8 191.5 204.8 212.2 222.8 234.6 244.7 264.9 294.8 313.3 319.2 322.3 331.5 336 342.6 351.3 358.9 363.2 366.3 374 382.7 396.9 401 412.2 419.2 421.3 422.6 424.3 425 426.4 426.7 428.8 432.8 439.6 447.6 454.9 463.8 469.5 477.8 485.7 493.6 508.5 516.5 520.4 524 526.1 532.4 532.3 532.9 532.4 530 530.1 528.6 528.4 528.3 528.9 529.1 528.7 528.3 527.9 527.5 526.9 525.6 524.3 522.1 519.7 517.3 515.2 513.5 511.6 508.9 504.8 488.2 466.3 452.3 438 433.7 431.7 429.9 427.7 425.9 423.3 421 416.4 410.3 406.5 403.3 397.4 391.6 386.8 383.5 380.6 377.7 374 370.7 366.4 365.7 362.9 360.4 358 357.1 356.9 352.9 348.9 344.7 343 339.8 335.9 331.2 327 323.7 316.6 313.2 308 305.8 303.4 298.9 295.8 293.3 289.9 286.8 285.4 284.3 282.5 281 278.2 273.7 268 264.9 261.5 255.9 251.1 244.1 247.1 246 243.4 241.2 237.7 231.6 224.8 224.4 227.1 225.9 224.4 223.1 221.4 218.8 215.2 211.6 208 206.4 203 202.7 202.9 201.8 198.8 199.2 198.5 199 198
170.9 168.8 166.5 163.9 161 158.3 158.3 157.3 155.5 154.8 154.8 154.5 155 156.6 157 157 156.6 153.4 152.4 152.4 156 163.1 165.7 165.5 161.3 158.7 159.9 160.1 161 170.1 179.8 181.8 177.4 173.1 171.4 171.8 177.8 186.3 191.8 187.6 181.2 195.9 208 217.6 227.3 237.7 246.4 269.9 301.3 313.6 318 321.8 330.2 337.3 348.3 358.6 364.3 370 379.5 387.4 403.2 411.7 411.5 414.1 418.1 422.4 424.3 425.9 427.3 429.5 432 436.9 443.6 453 461.7 469.5 478.1 488 501.2 514.5 526.3 533.1 538.2 538.3 537.1 536.1 535.6 534.4 533.6 534.2 533.4 532.7 532.4 531.1 530.2 529.7 529.2 528.9 528.4 528.2 527.4 526.4 525.4 523.3 520.8 518.5 516.4 514.4 512.5 510.2 506.6 493.9 479.5 458 441 433.5 431.7 430.9 429.2 427.8 426.3 423.9 421.1 416.7 412.1 407.2 403.8 396.4 389.2 383.5 379.4 376.5 373.8 371 366.5 365.9 362 360.8 358.4 355.4 353.9 354.3 355.2 349.9 345.5 343.3 337.6 334.8 332.4 328.5 323.6 319.3 315.1 309.8 305.4 303.2 299.6 295.2 292.5 288.1 283.6 278.4 280.5 279.2 277.6 275.4 270.6 265.7 260.9 258.5 253.7 249.9 245.1 239.8 240.1 237.9 237.7 235.6 232.2 228.6 225.1 227.4 226.7 224.4 222.1 219.3 214.4 211.5 207.7 205.9 202.4 199.7 197.8 197.8 197.2 196.8 194.7 193.7 193.4 192.2
171.3 168.7 166.6 165.3 163.3 162.4 161.4 156.5 155.2 155.3 155.5 155.9 160.2 162.4 163.9 161.7 155.8 153.9 155.3 158.2 163.9 170.5 170.8 168.4 162.6 162.2 162.8 164 168.8 181.1 183.2 182.4 178.4 174.3 174.4 178 183.5 191.8 197.6 185.4 182.8 204.4 212.7 221.6 231.3 240.1 250.1 274.4 303.9 311.8 317.7 325.2 333.3 341.5 353.1 363.4 371.2 382.2 396.9 412.8 415.4 417.4 418.6 418.8 421.2 422.8 425.1 427.9 430.5 434.7 440.5 448.6 459.1 468.6 475.7 483.7 495.2 508.6 526.4 534.9 540.1 540.6 540.2 539.1 538.1 537.4 536.6 535.3 534.1 533.8 533.6 533.2 532.6 531.4 530.2 529.2 528.5 528.3 527.7 527.2 526.7 525.5 523.8 521.6 519.4 517.4 515.3 512.8 510.4 505.5 490.9 480.3 471.8 449.5 435.7 431.8 429.6 429.2 427.6 426 423.7 420.9 417.2 413 410 406.2 399.1 392 386.5 379.4 376 372.3 370.1 367.6 364.8 362.1 360.5 356.7 355 354.4 352.9 349.2 351.2 345 343 341.8 336.3 333.7 332.1 328.2 323.6 321.1 317.6 310.8 306.2 302.9 299.7 294.7 288.5 285.3 280.9 277.6 276 275.8 274.4 272.6 268.3 263.1 259.3 255.6 252.4 249 248.2 242.5 241.4 237.4 232.7 233.2 231.3 227.6 224.2 226.3 224.7 222.3 218.9 214.3 208.7 204.9 201.5 199 196.6 194.8 194.6 194.2 193.6 192.2 191.3 190.6 190.2 190.4
170.1 168.2 167.3 167.3 165.6 159.1 158 156.4 155.3 156.6 160.3 166.4 170.7 171 164.4 158 155.6 157.4 162.5 168.5 173.1 175.9 175.3 170.9 166.8 165.7 166.5 167.9 176.2 184.2 186.5 184.5 178.9 177.6 178.2 183.9 190.3 195.7 196 177.6 190.3 209.2 216.4 225 233.9 242.1 254.8 279.5 305 312.4 318 330.1 337.6 349.5 358.1 369.2 386.1 403.9 414.4 417.9 422.2 424.5 424.1 422.6 426.7 426.2 427 429.9 436.2 442.1 452.1 462.2 470.6 478.3 488.7 500.6 514.3 531.6 538.7 543.3 543.8 541.2 543.2 542.2 540.9 539.3 537.3 535.9 534.4 533.4 532.4 532.2 532 531 529.8 528.7 528 527.3 526.4 525.9 524.8 523.7 521.7 520 518 515.6 513.2 510.1 503.9 492.5 482.8 475.9 459.5 442.5 431.9 429.4 427.3 426.7 424.7 422.3 419.2 416.9 414 408.6 404.1 397.6 391.1 385.3 381.2 376.6 372.7 369.8 367.7 365.4 362.8 357.7 355.4 355.9 353.8 348.8 349.7 348.2 340.4 338.5 334.3 332.8 331.7 329.7 328.3 327.3 324.3 322 317.4 312.6 307.8 302.2 297.8 293.8 289.9 285.9 280.1 277.1 272.7 270.5 269.8 269.8 266.7 262 258.9 255.8 252.3 249.5 246.9 243.9 241.2 239.2 235.8 232 230.3 227.5 221.3 221.6 221.5 219.3 213.4 208 203.3 200.4 197.6 195 192.6 190 190.7 191.7 189.8 185.8 187.7 185.6 186 183.7
168.5 167.8 166.9 163.2 159.6 155.4 155.5 156.4 160.8 166.2 172.7 178.4 175.9 168.6 160.2 158 161.3 167.4 173.6 179.4 182.6 182.5 177 172.5 169.8 169.6 173.8 174.5 178.5 189.4 189.6 185.1 181.8 182.6 188.3 188.8 195.4 200.5 187.6 186 201.6 211.5 218.8 229.3 238.9 243.2 258.7 285.1 305.6 315 320.4 331.9 341.3 354.3 364.7 381.8 403.9 414.4 420 422.6 424.7 426.3 427.6 429.6 428.8 432.5 435.7 440.6 445.2 453.1 462.6 472 478.3 489.9 504.5 520.1 534.3 542.4 546.1 545.5 545.9 545.1 543.9 542.6 541.6 540.7 537.2 535.7 534.4 533.1 532.3 531.7 530.8 529.9 529.1 528.2 527 525.7 524.6 524 523 521.7 520.1 518.5 515.2 512.5 508.9 499.2 490.8 482.9 476.7 466 450.5 435 429.7 427.5 425.5 423.4 421.5 418.8 416.6 414.5 411.5 406.1 395 389.4 384.8 379.4 375.7 372.7 369.1 367.1 365.4 362.6 359.1 354.8 354.4 354 351.2 349.1 346.1 343.8 337.3 331 328.2 327.7 327.1 325.3 323.8 325.6 321.8 316.9 314.9 311.4 307.6 302.6 297.6 293 289.7 286.8 282.8 275.9 270.7 267.7 264.3 265.1 264.7 260.4 257.9 255.1 251.6 249.8 248 244.7 240.8 237.1 235.1 231.6 229.2 228.2 227.5 217.7 217.9 219.6 209.3 203.7 200.2 197.4 194.9 192.3 190 187.4 183.9 183.8 182.2 179.5 177.8 176.8 176.5 175.5
167 161.2 159.3 159.6 157.5 158.8 159.1 162.1 171.2 175.7 180 177.7 169.6 161.4 158.6 163 169.1 177.7 184.3 188.9 187.1 181.4 177.3 173.9 173.5 176.6 180.9 187.2 189 187.2 190.5 186.5 185.8 189.7 189.1 195.9 201.4 184.8 182 201.4 210.2 212 222.9 234.7 241.6 245.9 262.6 282.7 307 315.4 324 334.7 347.1 359.1 373 392.5 415.4 419.3 423.1 425.2 427.1 428.5 429.9 431 434.7 440.5 444.7 447.6 454.8 462.2 471.2 478.1 489.1 504.3 522.5 537 546.4 547 547.7 547.8 546.9 546 545 543.3 541.3 539.8 538 536.8 535.5 533.9 533.1 531.9 529.4 528.9 528.2 527.2 525.8 524.6 523.2 522.2 521.1 519.5 517.4 514.9 509.4 504.3 498.9 490.7 483.6 478.6 465.5 453.9 441.6 430.8 427.7 426.2 424 421.8 419.3 416.7 415.4 413.3 405.9 394.4 388.6 384.2 377.8 374.9 371.7 370.2 367 364.3 360.9 354.4 357.9 357.4 353.7 353.9 350.8 348.9 345.8 339.8 333.8 331.6 326.3 325.5 324.3 322.9 323.4 325.4 321.8 317.7 314.3 311.1 307.9 304.5 299.4 294.7 290.4 287.5 285.6 282.8 278.3 274.9 265.9 260.4 259 255.2 254 253.9 250.4 247.3 245.6 242.8 238.9 235.4 232.5 228.5 224.7 223.5 223.1 220.2 213.7 218.3 206.8 201.4 197.5 194.8 192.6 190 187.8 184.7 181.8 180.2 178.5 175.2 173.5 172.5 170.2 168
161.2 160.6 159.8 158.3 159.7 161.5 166.2 174.8 180.5 183.6 178.6 168.4 161.9 160 163.1 172.5 183.5 192.5 193.7 190.8 185.4 180.7 177.6 176.8 179 183.6 190 195.4 197.6 190.2 191.4 194.7 197.6 190.5 196 202.9 193.2 182.1 192.6 208 210.9 212.4 224.8 239.6 243.4 252 267 288.3 306.1 317.6 328 338.3 352 360.5 378.1 397.1 417.4 422.9 424.1 427.4 429.4 430.2 433 436 441.5 446 448.8 455 462.8 469.2 476.9 485.1 499.5 517.5 534 543.8 547.2 549.1 548.9 548.2 547.3 546.6 545.2 542.9 540.9 539.2 537.8 536.4 534.8 533.6 532.4 531.4 528.5 527.8 527.3 526.3 524.9 523.5 521.7 520.5 519.8 517.3 513.2 507.2 503.3 500.2 491.9 485.5 481.2 470.4 452.8 444.3 435.3 428.8 426.4 424.5 422.5 419.7 416.6 412.8 410.8 404.4 395.3 388.1 382.6 378.1 374.5 369.1 368.3 367.3 363.9 360.2 361.1 358.6 355.7 352 351.2 350.2 349.3 346.5 345.2 341.4 334 332.1 328.4 326.3 326 325.1 323.6 322.9 322.5 318.5 313.9 315.4 310.5 304.2 302.9 297.2 292 288.8 286.6 283.5 279.9 275.5 269.5 257.9 257.2 255.8 251 248.6 247.3 244.5 241.9 239.3 235.7 231.5 229.7 225.1 219.2 216.8 216.7 216.1 213.4 210.1 204.3 199 195.5 192.8 190.1 187.9 185.7 183.2 180.4 177.1 175 171.4 169.6 167.5 166.1 165.4
161.3 160.5 161.8 162.1 161.9 170.8 178.5 182 181.1 176.1 168 164 163.6 168.9 176.4 188.2 195.2 196.1 194.3 189 184 181 181.3 182.7 185.7 190.3 197.2 199 197.2 194.3 201.5 204.6 202.2 196.8 204.1 205.6 182.9 188.3 203.2 213.6 209.5 213.8 226 239.5 245.6 254.8 273.8 300.2 307.4 321.7 333.6 344.8 355.2 366.7 382.1 401.7 418.9 424 426.7 429.8 432.7 433.4 436.7 440.9 445.8 449.4 454 461.1 468.7 476.2 483.7 495.3 509.8 527.7 537.4 545.2 547.6 549.6 549.1 548.9 547.8 546.5 544.9 542.5 540.5 538.8 536.9 534.9 533.4 531.4 529.5 528.2 526.9 526.6 526.3 525.3 524.1 522.1 520.3 518.8 516.9 514.8 508 502.7 499.2 494.7 489.3 482.6 471 455.6 445.1 435.9 430.9 427.7 424.9 422.3 418.6 414 408.5 402.7 399.5 393.5 389.1 383.3 378.3 374.5 371.4 368.6 366.7 364.6 362 361.2 359.2 355.9 353.2 350.1 347.8 344.8 344.2 343.5 343.5 343.3 343.6 334.1 331.6 329.3 328.7 327.5 325.8 321.2 318.9 315.9 313.7 314.5 312.3 310.8 304 298.7 294.4 290.5 287 283.9 280 275.5 268.3 261.4 254.5 253.2 250.6 246.7 243.4 240.7 238 236 234.4 229.6 226.9 221.7 215.9 212.2 211.6 212.1 211.4 209.4 203.4 195.3 191.7 189.4 186.9 184.6 182.2 180.1 177.5 175.8 170.8 168.6 166.7 164.9 163.8 163.5
168.4 166.5 166.2 166.8 173.2 178.9 178.6 176.5 171.4 168 167 167.2 171.9 175.2 186.2 197.6 198.8 196.2 192 187.6 185.1 185.2 186.3 188.7 193.2 199.7 200.9 199.1 201.9 209.7 203.8 207.4 205.8 208.3 206.2 205 185.7 186.1 210 211.3 207.4 212.4 224.6 239.4 246.8 262.1 289.1 303.7 312.3 325.1 337.8 349.3 359.6 372.6 388.3 412.8 420.9 426 429 432.8 436 437.4 441.2 445.5 449 452.7 460.4 467.1 473.8 481.8 491.4 504.6 524.7 535.3 542.4 545.8 548 549.4 549.5 548.9 547.1 545.8 543.4 541 539.1 537.4 535.5 533.7 530.2 528.6 527.5 526.5 524.8 524.9 524.5 523.8 522.6 520.2 518.3 515.9 514.6 509.2 502.9 498.5 495.8 492.9 487.7 465.6 451.8 442.8 435.2 431.4 427.5 424.3 422.1 417.5 411.8 405.2 400.6 394.9 391.1 387.2 383.8 379.2 375.1 371.8 368.8 366.2 364.2 362.1 360.9 359.5 356.2 353.7 351.4 347.2 345 345.6 345 342.7 343 342.9 337.8 337.2 334.9 331.8 330.3 327.1 325.8 321.1 317.2 316.5 313.9 313.1 312.7 312.5 304.7 300.2 293.7 289.3 285.7 282.7 279.3 274.5 267.8 261.7 255.3 251.2 248 244.2 241.9 238.8 235.8 235.6 232.7 229.4 226.5 220.3 213.6 210.4 208.5 209 209.6 208 200.5 192.2 187.6 185.9 183.9 181.9 179.3 177 174.5 172 172.1 172.2 169.8 171.1 172.9 173.1
173.1 169.3 168.1 170.7 177.3 175 173.1 170.5 170 170.7 169.5 174.4 178.8 190.9 198.1 200.2 198.4 193.6 190 188.5 188.7 190.2 191.5 199.7 203.9 202.6 201.5 207 216.5 216.7 212.2 210 213.7 217.5 207.3 203.7 190.1 184.4 203.9 207.9 205.5 211.2 222.3 239.1 249 270.5 297.1 306 317.5 330.3 342.8 352.6 365.8 380 392.9 415.7 423.9 427.8 430.4 435 438.3 440.4 444.6 448.3 453.1 459.5 466.4 472.8 480.2 487.9 500.4 517.9 533.6 542.8 546 547.6 549 550.2 549.5 548.1 545.8 544.7 542.4 539.5 537.8 536 533.9 531.7 528.8 526.9 526.1 525.1 523.4 522.1 522.4 521.7 520.1 518.1 514 509.5 506.8 502.7 499.5 496.9 494.5 491.6 483.7 454.4 442.6 435.4 430.5 428 424.2 421.2 416.2 409.3 403.4 399.5 395.9 392.4 388.3 384.3 379.9 375.9 372.3 369.7 366.5 364 362.3 361.2 359.3 356.7 353.2 349.5 348.5 346 346.4 345.2 344.7 343.5 340.4 340.2 339 333.2 330.4 330.9 329.6 325.9 323.2 319.8 314.9 315.5 312.8 313.4 312.7 310.1 304.1 299.1 292.4 287 282.6 278.7 274.1 270.1 264.8 260 254.5 251.1 247.6 243.5 240.7 236.6 233.5 231.3 228.7 229.1 225.2 217.9 212.8 209.4 205.5 202.6 201.7 199.6 193.1 188.6 185.2 182.9 181.2 179.3 176.5 174.7 173.9 172.8 158.4 156.3 155.1 154.6 167.3 170.8
175.2 172.4 171.8 171.2 171.9 171.8 172.1 174 175.8 177.2 175.3 181 192.6 197.5 200.2 199.4 196.6 194 190.9 191.5 193.1 196.6 205.1 207.1 205.1 203.1 212 221.3 222 219.4 217.3 216.2 222.9 219.5 210.5 203.2 199.6 187.3 189.3 204 204.3 211.9 221.1 237.8 254.4 274.4 300.6 310.8 322.1 333.2 348.5 359.4 371.5 383.5 395.1 419.4 425.3 429.5 433.3 438 440.8 444.1 447.7 452.2 459.3 465.7 472.9 480 487.1 498.1 512.2 528.5 538.9 546.1 548.3 549.7 550.2 550 548.5 546.6 544.7 542.7 541 539 536.7 534.6 532.4 530.1 527.3 525.4 524.4 523 521.3 519.5 518.6 518.7 514.3 510.7 507.2 504.2 502.2 500.6 498.2 495.8 493.7 489.3 468.8 443.7 434.5 430.4 426.6 422 418.7 414 407.1 402.2 399.2 396.4 392.7 389.5 385.3 380.7 377.1 373.4 369.5 367.9 365.1 362.9 361.7 360.4 359.2 355.8 350.1 346.2 345.4 345.7 345.2 343.2 341.9 341 340.1 337.9 338.8 337.8 328.3 327.8 326.5 322.2 320.5 316.3 313.3 310 308.6 310.7 309.9 309.6 306.9 299.1 290.8 284.2 279 274.4 269.8 265.8 262 260.9 251.7 249.8 247.2 243.4 239.7 235.7 232 229.3 227.3 223.1 220.7 215 210.5 207.7 204.4 200.5 196.7 193.4 188.6 186.6 183.5 180.4 178.7 177.2 174.8 173 172.1 166 156.3 156.4 155.8 154.3 152.9 159.8
180 176.6 174.8 174.1 173.8 174.9 178.1 181 183 182 181.1 190.6 197.4 199.3 200.3 198.9 197.1 195.6 194.7 196.5 202 209 209.7 207.5 207.9 217.7 225.8 226.7 224.9 223.7 225.6 228.3 226.7 219.9 210.2 205 202.5 188 190.7 201.1 205.5 216 227.3 242.5 254.8 281.2 305.6 316.8 327 339.3 352.5 363.4 374.2 384.2 401.3 421.1 427.9 433 437 440.6 444.1 447.7 452 458.4 466.1 473.8 479.7 486 494.9 508.5 525.4 534.9 543.7 548.3 550.4 551.5 551 549.8 548 546.4 544.9 542.9 540.5 538 536 533.8 531.6 528.3 526.2 523.8 521.8 520.6 518.2 517.3 513.6 510.2 507.2 505.2 503.3 501.9 500.1 498.4 496.3 494.1 492.1 481.9 457.5 445.9 435.5 427.2 419.6 417.7 412.4 406.1 401.1 398.2 396.4 394.1 389.6 384.8 380.8 377.1 373.6 370.5 368.3 365.9 364.9 363.6 362.4 360.1 358.5 354.1 349.6 345.5 345.2 345.2 344.1 342.5 341.5 340.1 339.1 337.5 336.9 334.1 327 325.2 323.5 320.2 317.7 315.1 312.8 309.6 307.5 308.3 309.2 309.5 307.6 298.2 289.7 282.5 276.4 271.3 267.2 262.9 259.2 257.6 250.5 248.1 246.1 242.4 238.8 234.7 231.3 228.6 224.5 223.3 216.4 211.2 207.7 204.8 201.3 197.8 194.4 189.9 187.2 184.1 181 178.4 175.2 174 173.3 170.1 163.7 158.5 157.5 156.8 156 155.2 153.8 149.5
185.4 181.7 178 176.4 177.7 182.2 185.1 185 184.7 184.6 186.5 192.7 198.8 201.3 201.8 200.1 199.3 199.3 200.4 206.8 213.3 213 209.5 211.3 221.4 229.9 231.6 229.8 227.9 230.5 233.2 234.5 227.8 219.1 210.4 204.8 197.3 189.1 192.8 201.1 206.2 218.6 229.7 246.1 258.4 292.4 313.7 323.5 332.8 344.3 356.6 367.3 376.8 390 412.5 421.8 428.2 432.8 438.4 442.8 446.5 450.7 456.1 466 474.6 480.1 485.4 492.1 502.6 517.2 530.9 539 546.6 549.9 551.4 552.1 551.4 550 548.6 547.2 545.5 542.8 540.1 537.3 535.5 533.5 529.6 527.4 525.3 523.1 520.7 517.1 513.5 511.4 508.3 505.3 504 502.5 501.5 499.7 498.4 497.6 495.3 492.3 484.7 463.4 446.4 439.4 429.5 423.2 418.6 412.6 405.7 401.1 397.8 395.2 394.2 392.2 385.6 380.6 376.6 373.2 370.1 368.1 366 364.3 363.9 362.2 361.4 359.6 356.8 351.7 347.6 345.9 345.4 343.8 342.5 341.5 340.5 339.4 338.1 336 337 331.8 325.9 322.6 320.8 317.6 315.6 314.1 312.2 309.4 307.2 307.5 308.2 308 304.2 297.4 288.9 282.1 276.1 264.5 264.7 264.6 260.5 252.9 249.2 246.1 243.6 241.3 238.3 234.6 230.9 228.7 225.4 220.1 214 209.7 206.1 203.3 199.7 195.9 191.3 188 185.5 182.5 178.8 174.9 173.2 170 169.5 163.1 162.8 154.1 158.9 158.5 160.7 162 157.3 155
186.5 181.7 180.1 182.4 185.2 186.6 186.6 187.9 189.8 191.4 192.8 197.6 203 204.9 204.7 204.2 204 206.2 212.8 216.6 216.3 212.7 217 226.7 233.4 236.1 235.3 234.3 234.7 238.2 240.1 237.7 228 217.4 210.9 201.6 189.5 189.6 193.5 201.5 206.6 219.3 232.5 251.6 267.8 301.4 319.7 331.5 339.4 350.8 361.8 371.3 379.4 392.9 415.7 423.9 429 434.6 439 445 450.2 454.9 463.2 472.6 480.6 484.1 489.5 497.9 509.8 524 534.5 543.8 548.3 551.4 552.8 552.5 551.7 550.4 549 547.2 545.5 543 540.2 537.5 534.6 533 529.7 526.6 524.5 522.5 518.9 512.2 508.7 507.4 505.4 502.5 500.7 499 497.4 492.7 488.9 484.9 480.5 473.3 461.8 445.6 439.6 429.8 424.3 420.3 415 408.8 402.7 397.2 395 391.2 386.1 387.4 380.3 376.9 373 369.7 366.7 365 363.6 362.1 361.7 361.1 359.5 357.1 352.1 349 348.5 347 345.3 343.4 341.2 339.6 339.5 339 338.9 339.2 329.1 326.6 324.4 321.3 318.7 317 314.6 312.8 311.3 310 308.1 307.7 307.7 305.7 302.9 296.6 289.1 282.3 275.9 265.8 264.2 261.5 258.8 253 249.4 246.2 243.4 239.8 236.1 232.6 229.5 226.8 223.6 218.9 214.6 211.1 206.9 202.9 198 194.1 189.9 187 183.9 181.3 178 174.8 170.8 171.9 170.8 163.6 163.3 160.2 167.7 166.5 166 165.7 165 164.3
184.3 183.4 184.4 187.8 188.8 189.7 192.3 194.8 196.4 198.7 200.9 205.5 208.1 209.8 209.1 208.9 211.8 218.6 222.2 219.8 215.7 220.7 230.6 238.3 241 240.2 238.7 239.8 242.2 245.2 245.4 237.1 227 219.9 209.8 199.3 189.6 191.7 194.5 201.1 210.1 220.1 238.8 256.1 271.4 311.1 324.8 335.2 346.6 355.5 365.5 373.9 382.2 397.7 420.9 426.8 431.6 436.4 441.3 447.7 453.5 458.8 468.2 479.2 482.6 487.7 493.2 501.7 515.8 528.5 537.5 545.3 548.6 551.5 553 553 551.9 550.8 549 547.2 545.4 542.9 540.2 537.5 534.6 532.1 529.7 527.3 524.1 520.2 512.9 508.7 505.5 504.2 502.1 498 491.9 488.7 484.6 479.2 474.6 467.9 462 455.5 445.7 435.7 429.2 424.8 421.9 418.9 415.2 406.9 400.7 395.2 388.1 385.9 381.6 381.4 376.8 373.1 368.4 366.4 364.8 362.8 361.1 360.1 359.7 358.7 356.8 352.8 350 348.9 348.3 346.8 345.1 343.2 341.5 340.6 339.6 338.9 338.4 337.3 328.6 323.4 321.9 319.3 317 316.1 313.1 310.5 309.7 309.7 308.9 307 306.5 303.9 300.4 295.8 289 283.4 275.9 266 264.9 261.7 258.1 253.4 249.8 246.9 244.2 240.2 235.9 231.6 226.8 223.7 221 217.4 213.7 210 206.3 202.5 197.9 193.1 189.1 186.7 183.5 180.3 177.2 174.2 174.5 175 172 162.6 163.7 162.5 171.7 169 168 166.6 169.9 170.5
185.6 188 188.3 190.5 192.2 196 197.3 200.5 203.7 206.1 208.6 212.7 213.7 214.3 214.1 218.2 224.7 228.1 224.7 218.8 226.3 237.5 242.6 245.9 245.2 244.8 243.9 246.5 250.9 252.7 245.9 235.4 228.3 220.5 208.1 190.9 192.1 192.5 194.7 201.7 208.4 223.3 240.8 260.5 278.7 314.3 330.4 338.3 349.6 359.8 369.8 377.3 386 405.1 424.3 429.5 434.6 439.4 443.5 452 456.3 462.8 472.5 480.2 484.8 489.7 496.2 506 517.9 531.9 540.6 546.7 549.9 552 552.9 552.8 551.9 551 549.4 547.2 545.2 542.8 539.9 537.3 535.1 532.7 530.1 527.2 523.8 515.2 510.2 507.6 505 498.6 490.6 490.2 486.7 480.3 473.1 465.5 461.2 455.3 448.3 440.3 432.3 425.9 424.7 423 420.9 418.6 414 405.7 400.3 393.4 387.3 383.5 379.1 374.5 371 368.7 366 364.8 363.8 361.7 359.5 358.1 356.2 355.1 353.1 349.4 348.7 347.3 347 345.5 343.4 342.7 341.6 340.6 340.2 336.4 334.5 330.4 325.8 323.2 320.3 318.6 315 314.3 311 308.5 308.4 309.2 307.7 305.1 304.1 301 298.2 293.4 288.5 283.4 275.7 270.2 266.1 262.1 257.5 253.6 250.9 248.3 243.8 238.5 234.5 230.3 225.6 221.4 218.4 215.8 212.5 208.7 205.2 199.9 195.7 191.5 188.1 185.2 182.4 179.6 176.7 176.7 176.6 175.7 172.8 162.6 157.2 176 174.9 173 172 170.8 176.4 183.4
187.4 190 191.8 195 196 199.7 203.7 207.4 210.5 214.9 217.6 218.4 218.1 219.9 225.2 231.8 234.3 229.4 223.6 229.7 241.9 247.9 250.7 251.8 251.3 250.1 251.3 256.6 259.5 255 244.6 236.8 230.1 219.7 205.1 190.1 192.8 193.2 195.9 203.1 214.7 225.1 243.3 262.3 276.7 317.2 333.3 343 353.3 365.2 375.2 380.1 393 412.8 425.6 432.2 437.5 441.5 447 454.5 459.3 468 474.8 481.2 486.4 491.2 498.5 508.1 522.6 535.1 543.1 547.5 550.9 551.5 552.1 552.1 551.8 551.2 549.7 547.6 545 542.5 539.9 536.3 533.8 532.6 529.7 526.7 523.5 514.1 510.1 507.6 505 498.9 487.3 473.7 475 468.9 462.5 455.8 449.6 444.2 439.4 432 426.9 424.6 423.3 421.9 418.9 414.7 409.9 404.1 398.5 390.9 384.9 379.2 375.2 371.3 367.1 364.6 364.5 363.4 361.7 359.8 357.9 355.4 354.2 351.7 348.2 347.4 346.4 346 344.6 342.6 341.1 340.8 341.3 340.5 338.8 335.7 330.5 327 324.4 322.3 320.6 318.3 312.4 313.7 312.3 308.5 306.5 307.6 305.1 302.5 301.4 299.7 297.7 291.7 287.9 282.5 275.2 270 266.8 261.9 257.2 254.1 251 246.7 242.2 236.5 232.1 227.9 223.5 220.1 216.2 213.6 210.7 207.2 202.9 197.9 193.6 190.5 187.7 184.8 182 180.4 178.9 177.8 176.9 176.5 165.1 162.1 160.3 176.4 177.4 176.8 175.2 173.8 181.4 187.3
191.9 194.4 196.1 198.8 201.9 205.9 210.6 215.8 220.2 222.7 223 223 225.2 231.2 237.6 239.8 236.2 229.2 233 248.7 253.6 255.7 257.7 257.8 257.5 258.1 261.9 266.2 263.6 253.3 245.5 239.5 231 218 203.5 195.9 191.9 194.2 198 203.7 214.1 228.7 244 264.6 279.4 316.1 333.3 344.3 355.7 367.6 377.1 383.5 400.5 415.5 424.8 433.2 439.4 443.2 449.9 456 462.1 471.1 476.6 481.9 487.2 492.5 500.3 510.3 524.5 536.3 544.6 548.2 550.3 551 550.9 550.9 550.7 549.5 548 546.5 544.1 541.9 539.3 536.6 533.6 531.5 528.3 526 522.1 513.6 510.3 505.4 500.6 493.3 484.4 463.9 465.8 460.1 453.1 444.7 438.9 434.4 431 428.1 424.7 421.5 418.5 414.7 412.1 408.8 404.9 399.3 392.4 384.7 380.6 376.3 373.2 370 368.1 365.3 362.9 360.8 359 358 356.6 356 350.4 348.1 346.9 345.5 344.3 344.3 342.1 339.8 339.1 339.6 340.4 339.8 337.1 332.6 329 324.3 321.4 319.8 318.9 316.5 314 308.8 309.6 306.7 305 302.3 301.6 300.9 303.2 301.3 295.1 290 285.3 278.3 272.7 268.9 265.1 259.2 254.9 251.5 246.9 242.2 237.6 233.4 229.9 225.1 221.2 218.6 215 211.5 209.8 205 200.8 196.9 193.1 189.7 187.3 185.7 183.6 182.2 179.6 178 177 164.9 161.4 161 160.9 179.5 178.9 177.5 176.5 177.4 181.4 190.5
194.8 198 200 204.9 208.8 212.1 219.6 224.4 227.6 227.3 226.7 230.4 236.9 243.7 245.7 242.7 237 238.7 253.1 259 262 263.8 265.5 264.3 264.7 268.2 273 270.8 262.6 254.1 247.5 241 230.2 215.8 203 199.6 193.1 194.5 198.5 204 212.6 223.7 242 268.4 281.6 317.9 333.1 345.6 355.3 367.1 376.8 387.7 404.1 417.1 425.2 433.4 440.6 445.2 452.1 457.1 462.9 470.4 476.8 481.7 488.5 492.8 500.2 511.3 525 536.7 544.2 546.7 549.3 549.5 549.4 549.7 549.3 548.2 547.2 544.7 542.9 540.8 538.5 537 533.2 530 527.4 523.5 518.2 514.7 510.5 502.4 494.4 488.9 484.4 473.9 455 446.2 443 437.4 432.9 428 424.4 421.7 418.7 416 412.1 407.9 404.5 402.3 397.9 391 385.1 381.2 377.9 375.5 372 369.1 367.4 364.9 360.9 358.2 356 356.1 356.5 354.4 349.1 347 345.5 342.4 342.2 340.6 339.6 337.9 337.8 338.6 339.6 338.4 335.1 330.2 325.3 321.5 318.8 316.7 315.7 313.5 312.4 308.1 309.1 305.9 301.5 298.2 298.8 299.9 299.2 298 291.4 287.3 282.4 274.2 268.4 264.6 260.3 254.5 250.3 246.9 242.1 238.3 233.3 230.1 226.6 223.6 220.1 217 213.9 210.2 207.6 203 198.5 195.3 192.4 189.3 187.3 186.4 187 183.1 179.5 178.1 167.1 161.2 161.3 161 169.8 179.7 179.2 178.5 179.1 181.6 184.3 193.2
199.4 206.1 208.6 210.6 215.9 221.9 227.3 230.7 232.8 236.7 235.8 240.7 248.7 253.1 252 247 241.7 254.8 265.1 267.3 270.4 272.8 272 271.8 274.5 279.7 279 271.2 262.4 255.2 249.1 241.9 227.8 213.8 205.4 202.8 194.8 195 199.7 203.8 212.8 224.1 239.5 266.4 282.4 322.3 332.1 343.3 353.8 365.8 376.8 390.7 403.4 418.5 424.6 434.1 441.8 445.8 453.4 457.6 463.7 468.1 475.4 481.4 489.3 492.5 500.3 510.8 524 536.4 543.1 546.1 547.4 548.4 548.2 548.4 547.8 546.6 545.2 543.6 541.5 539.2 536.5 534 531.2 528.3 524.6 521.1 517 513.8 510.2 501.8 491.3 487.9 483.6 474.2 459 445.3 436.5 429.9 425.8 424.5 419.6 415.9 412.8 410.1 406.8 402.5 397.5 394.8 390.9 385.6 382.4 379.4 376.7 374.3 371.6 368.6 364.9 362.9 359.5 357.4 355.5 352.2 352.7 349.7 347.5 346.4 343.6 340.5 336.5 338.1 337.7 336.3 335.8 337.7 338.8 334.9 331.2 327.6 322.6 318.6 317 314.7 312.9 311.4 310.1 308.4 298.2 302.8 298.1 297.6 296.9 296.8 294.7 293.2 287.5 282.6 276.6 269 264.2 259.4 254.7 250.2 246.3 241.7 238.7 233.4 230.4 227.5 224.9 222.3 219.5 215.8 212.8 209.8 207 202.8 196.5 194.5 192.1 189.7 188 188.8 187.9 184.5 182.3 181.1 165.6 162.9 161.9 159.8 177.7 181 180.6 181.6 183.6 186.5 189.9 199.4
209.2 211.7 214.1 218.6 225.3 230.8 231.1 240.9 245 245.8 251.7 257.8 260.2 260.6 258.4 250.4 258.6 270.4 272.8 276.9 280.1 280.6 279.7 281 286 286.7 280.5 271.5 263.1 257.1 251.3 241.5 225.6 211.9 207.6 201.8 192.9 195.1 201.7 205.4 212.2 222.8 239.1 266 279.7 312.9 331.4 340.6 349.7 363 374.6 385.6 397.8 416 424.2 432.3 441.1 444.7 452.8 457.6 461.9 467.9 474.5 482 488.4 493.2 500.2 510.2 523.1 535.4 542.5 545.6 546.1 546.4 546.1 546.1 545.6 544.6 542.9 541.1 538.1 535.7 534.1 531.9 529.5 524.8 521.8 518.1 515.4 512.8 508.2 503.5 494.4 487.1 478.4 466 455.6 444.8 439.5 433.4 427.9 421.1 415.6 407.1 403.4 399.1 400.4 397.8 393.5 390.3 387.3 382.8 379.1 377.1 374.8 372.3 370.1 367.7 365.4 361.8 359.4 357.5 356.7 357.8 350.7 349 347.2 343.9 343.8 340 338.2 328.1 334.6 331.9 333.7 335 334.3 331.9 328.4 324.3 319.8 317.5 315.4 313.7 312.2 310.3 308.6 304.9 293.5 299.1 296.2 294 293.9 293.1 291.9 288.4 283.2 277.5 269.9 264.4 259.8 253.9 248.8 245.1 242.1 237.4 233.5 230.3 228.2 225.9 224 221.2 218.4 215.1 211.1 208 204.5 200.5 195.9 192.7 190.9 189.4 188.8 189.1 187.3 183.8 177.6 159.5 159.8 159.4 160.5 173.1 181 184.5 184.6 186 190.1 196.5 201.6 208
215.3 215.7 220.5 226 231.7 237 244.9 250 255.6 259.8 264.2 270.6 271.2 269.9 259.2 263.1 270.1 274.9 282.1 287.1 288.3 287.8 287.6 291.1 293.5 289.2 280.8 272 265.6 259.8 251.8 238.6 224.8 212.8 208 201.3 194.5 197.4 203.6 209 212.8 222.3 239 261.6 274.1 290.9 319.7 334.9 347.3 357.5 370.2 378.5 391 405 420.4 427.1 438.1 442.8 450.7 456.4 461 466.9 474.4 481.1 487 491.3 500 510.1 522 534.4 540.1 542.9 543.4 542.7 544 543.4 542.7 541.3 539.9 537.3 535.3 533.4 530.9 527.8 524.8 521.7 519.6 517.1 514.2 511 507.5 503.5 496.2 482.8 467.7 458.6 450.3 443 437.2 430.8 424.5 420.1 416.3 413.4 410 404.1 397.4 393.1 390.2 387.5 385.2 381.3 378.3 375.5 372.9 370.4 368.2 365.3 364.1 361.5 360.2 358.3 358.8 352.2 349.1 349.3 349.1 347.1 341.6 339.2 336.8 335.3 333.9 331.2 332 332.1 328.4 327.2 325.4 321.7 319.1 316.8 314.7 314.3 311.6 308.3 304.7 297.7 283.1 295.6 293.3 293 291.1 289.2 287.4 283.5 278.9 272.3 265.8 260.5 255.6 250.4 245.7 241.9 238.3 234.5 231.5 229.6 227.6 225.4 222.9 219.9 216.7 213.6 210.1 207.2 203.7 198.6 194 190.7 188.9 190.4 189.7 181.6 176.1 170.6 161.1 162.6 162.6 162.6 169.2 179.7 185.1 188.5 191.3 195.9 201.6 207.4 215.7 231.4
226.8 226.9 231.3 236.9 242.6 251.9 259.5 255.8 264.2 268.9 274.4 279 278.9 278.7 271.9 272.2 279.3 285.8 292.2 295.6 295.1 294.3 296.1 299 297.4 290.1 281.6 274.6 268.3 259.7 249 236.4 224.1 214.3 208.5 202.5 196.7 199.5 205.5 209.8 215.8 224.8 236.4 256.3 268.4 275 298.5 323.7 340.4 343.3 352.9 370.8 381.6 394.8 408.3 418.7 433.2 440.1 448.3 453.8 458.5 464.8 472.3 477.7 483.9 488.9 498.3 508.7 520.2 532.7 537 540.2 540.3 539.3 540.7 539.5 538.7 537.6 535.7 534 532.3 529.3 527.1 523.2 521.3 519.9 517.8 515.7 513.1 510.1 507.1 503.3 492.5 471.8 457.7 451.6 446.4 440.2 432.9 427.2 422.9 420 416.9 413.1 406.8 400.8 395.8 390.8 387.8 384.2 382.5 379.2 376.2 374.2 372.2 369.3 367.7 364.3 362.8 360.5 359.4 358.4 351.8 348.4 348 349 349.1 346.1 339.4 337.5 335.5 334.2 333 331.3 318.7 316.3 321.5 321.7 322.1 320.2 317.2 315.8 313.9 312.1 308 303.3 298.8 294.9 281 291 288.4 286.6 287.6 281 280.5 280.1 278.1 267.9 262.4 257 252.1 247.3 244.1 240.1 236.3 233.2 230.7 228.8 226.8 224.3 221.3 218.5 214.9 211 207.8 205.9 202.5 197.8 193.4 189 186.7 186.3 183.7 172.7 166.9 163.9 164.7 163.1 163.2 167 180 185.7 189.9 194.1 199.9 206.7 212.7 221.2 237.1 240.2
234.3 239.4 245.3 251 258.4 261.3 263.6 266.1 269.2 276.3 283.6 286.9 286.9 287.9 283.2 285.4 291 297.9 301.1 302.3 301.1 301.6 303.5 304.2 298.6 290.6 283.6 276.7 268.1 258.5 247.1 234.2 224.4 216.5 209.9 203.5 197.9 201 205.5 210.7 217.9 224.2 233.2 245.9 256.9 265.7 279.1 303.6 327.1 337.6 346.8 358.7 374 384.2 393.7 406.7 425.8 437.1 444.8 451.8 455.6 462.7 469.2 474.9 480.7 487.3 495.1 506.5 518.1 530.4 533.3 535.6 536.2 534.8 536 533.8 532.6 531.9 530.7 528.1 527.3 524.2 522.2 520.1 519.1 518.3 516.2 514.3 512 509.5 505.8 497.9 478.7 462.8 456.9 449.2 443 435.6 430.6 425.6 422.1 418.9 414.5 409.1 402.4 396.6 392.6 389.2 386.6 383.8 380.9 376.9 375 372.8 370.9 367.7 364.2 360.9 358.6 357.5 356.4 351.3 347.3 345.4 345.3 345.8 343.1 338.8 336.9 335.1 330.3 332.8 331.7 327.4 321 307 314.5 315.3 316.3 315.7 314.6 313 310.1 305.7 300.8 297.7 295.6 289 272.7 284 283.5 282.3 281.3 280 279.4 277.8 269.6 263.5 257.8 253.5 249.2 244.9 242.7 239.5 235.3 232.3 229.6 226.7 224.4 222.4 219 216.5 213.4 209.2 206 203.6 200.2 197.7 193.9 189.3 186.9 179.9 169.9 166.1 164.6 165.9 165.6 164 169.7 181.2 187.1 192.1 196.5 202.9 209.2 218.1 229.8 239.7 241.6 243.4
247.1 253.1 260.9 262.8 265.5 266.9 269.5 272.7 278.7 286.6 292.2 294 293.5 292.5 291.7 294.1 300.9 307.2 309.5 308.4 307.8 309.7 308.7 305.5 298.7 291.7 284.6 276.3 267.3 255.9 245.1 234.9 225.8 218 210.7 199.6 196.8 201.5 205 210.8 220.5 230.5 240.3 244.1 249.5 254.6 267.4 284.6 309 325.9 338.8 349.6 361.7 374.3 384.8 397 411.7 431.5 441.1 449.9 453.4 459.1 465.2 471.2 478.1 484.8 492.8 503.5 513.4 525.3 530.9 531.9 530.9 530 530.4 527.7 527.7 526.9 525.7 524.3 522.7 520.9 519.1 517.6 516.6 515.4 514.2 512.7 510.3 506.6 499.8 485.9 467.2 454.4 448.7 444.6 438.1 432.7 427.3 422.9 418.5 415 410 403.6 397.6 392.8 389.7 387.9 387 384.8 380.8 377 372.7 369 367.6 364.9 361.1 358.8 354.3 351.8 349.7 347.5 344.7 342.6 339.9 339.1 335.4 333.5 332.3 331.4 328.4 326.7 322 317.3 313.1 310.7 296 307.6 307.6 307.3 305.3 301.6 298.1 295.8 292 289.9 288.3 285.7 276.1 274.3 279.7 278 277.7 278.1 276.7 271.5 263.8 258.1 254.3 248.6 244.7 243.6 241.4 238.9 234.2 231 227.6 224.7 221.7 219.5 217.1 214.5 211.8 208.4 205.6 202.6 200.3 199.8 198.2 190.9 183.7 166.7 166.2 165.6 165.5 166.7 170.4 181.7 184.3 188 192.9 198.8 205.6 213 222.7 235.4 239.5 242.8 244.4 247.9
260.9 265.1 268.6 271.3 272.2 274.6 276.9 284.8 291.3 294.4 298.7 300.5 299.1 300.4 301.2 303.9 310.5 315 315.8 314.7 316.2 315.2 313.1 306.8 300.1 293.1 284.4 276.7 267 256.9 246.9 237.1 227.6 218.7 210 201 199.4 201.6 208.7 217.1 225.9 236 245.3 260.9 272 278.6 274.3 279 292.6 308.9 325.7 340.3 351 366.5 376.6 380 391.9 410.2 437.7 445.4 450.7 455.2 461.9 467.3 472.7 480.1 489.5 500.1 509.6 519.6 528.3 529.7 528.2 526.5 526.7 525.5 524.7 524.3 523.7 521.9 520 518.4 516.5 515.2 513.3 511.3 510.5 507.4 502.5 495.2 484.6 468.4 454.6 446.4 442.4 438.8 433.2 427.3 422.7 419.5 415.3 410.5 405 399.2 393.2 389.9 387.7 386.6 385.3 382.1 377.7 374.9 372.4 369.7 364.1 357.7 357.9 352.5 350.8 348.6 345.9 342.9 339.7 338.9 335 330.3 328 327 325.5 324.7 323.1 319.2 315.8 310.6 307.9 305.2 300.3 297.4 297.9 296.8 295.3 292.4 289.6 286.9 284.3 282.4 279.9 278.2 276.6 266.2 274 273.9 272.7 271.6 271.8 265.9 258.2 254.2 247.6 246.5 243.9 241 238.2 239.3 232.7 229.1 225.5 222.5 220 216 215.1 213.1 210.3 207.9 205.2 203.5 202.5 199.3 193.5 184.6 169 169 167.7 166.8 166.6 180 185.7 187.1 190.8 193 201 208.2 215.1 225.6 236.9 240.4 243.8 246.5 248.4 251.3
268.7 269.9 274 276.8 277 278.8 288.8 295 298.9 300.9 304.3 305.9 305.7 307.8 308.3 314.1 320.3 321.6 321.4 322.7 324 319.9 315 310.3 303.4 294.4 285.6 277.4 267.6 256.9 247.6 237 227.8 218.4 208.1 201.7 199.5 200.7 210.4 220.8 228.5 237.8 249.9 264.1 279.6 288.8 291.7 284.1 281.4 303.2 316.7 332.4 345 356.2 362.8 370.9 383 394 424 438.7 446.2 450.8 456.6 462 467.4 474.2 483.9 495.8 506 513.8 524.5 525.2 523.6 522.3 523 522.1 520.5 519.4 518.2 517 515.6 513.7 511.2 507.8 504.7 501.6 497.9 494.9 490.2 482.1 470.2 458.7 448.2 441.6 436.8 432.2 427.6 423.1 419.3 415.5 412 407.3 400.4 395.4 390.8 388.1 386.7 385.7 383.9 381.5 378.4 375 371.7 368.3 362.6 359.7 355.2 351.7 349.9 344.8 343.3 343.5 339.9 327.9 325.8 323.7 323.2 323.1 322.2 320.4 319.4 315 310.1 307.3 304.6 301.6 298.3 285.1 291.5 288.7 286.4 284.8 282.2 279.5 277.1 275.6 273.5 272.4 271.8 269.9 266.1 269.2 268.2 267.2 266.1 259.9 253.3 249.7 246.9 244.3 241.5 239 236.7 233.7 230.3 226.7 223.5 220.7 218.5 215.5 209.9 209.3 206 203.5 201.8 202.5 201.5 194.2 187.9 176.5 169 168 165 168 185 188.8 191.2 189.7 196.9 201.6 209.6 216.6 224 234.5 240.6 243.5 246.4 249.5 252.1 256.5
271.2 273.4 274.5 276.3 281.2 289 295.1 301.2 305.2 305.8 307.6 310.5 311 313.7 317.9 323.5 326.2 326.7 327.1 328.9 326.9 321.7 318 314 305.5 295.1 286.3 277.2 267.9 256.7 246.9 235.7 226.4 216.4 207.5 202.4 199.4 204.7 214.8 226 236.2 246 258.9 273.6 290.4 307.6 310.7 310.8 298.6 299.2 310.3 319.8 335.6 346.7 352.3 365.8 373 384.7 411.1 432 440.5 445.4 450.3 456.1 464.1 470.6 479.5 491.6 502 509.5 515.8 519.2 518.4 517.6 518.2 517.1 517.5 516.5 515.4 513.5 510.9 508.7 506.1 503.2 499.3 495.3 489.1 483.2 474.8 465.8 456.6 449.5 442 435.6 430.3 425.9 422.1 419.6 416.4 412.2 407.9 403.9 398.8 392.2 389.3 388.2 387.3 385.1 383.6 380.7 377.4 374.1 370.5 365.8 363.9 361.1 357.8 355.1 352.2 350.5 349.4 347.2 338.9 331.3 323.8 320.4 312.4 315.3 321.2 317.9 313 308.9 307.3 304.5 303.2 300.9 294.1 289.7 278.8 283.1 281.2 279.6 277.8 275.2 272.9 271.2 269.3 268.4 267.8 266.1 260.7 266.1 265.8 264.2 261.1 254.5 249.7 247 244.4 241.8 239.6 237.2 234.7 231.3 227.7 224.3 221.6 218.9 215.8 212.2 205.7 204.1 201.9 199.7 197.5 195.7 188.6 174.5 167 169.6 170.2 170.4 177.2 186.1 189.9 193.7 197.9 195.6 202.4 212.2 215.7 223.3 232.3 238.3 243.1 245.8 247.1 250.8 255.2 260.5
270.6 278 283.4 288 292.2 299.4 304.3 309.7 310.8 311.8 315.4 316.5 316.4 321.3 323.8 328.3 330.7 331 331.8 330.9 325.8 322.7 322.2 315.7 306.2 295.1 286.5 278.1 266.4 255.1 246.8 234.6 224.8 215.4 208.2 201.2 203.6 208.9 221.1 233.2 243.3 256.1 270.4 282.4 309 323.8 327.3 327.7 322.9 317.5 313.5 319.8 331.7 345 349.9 361.5 371 381.6 398.1 416.7 431.5 439.3 443.6 451.7 460.7 466.7 475.7 487.8 499.1 505.7 508.5 510.4 511.5 511.9 513.6 513.1 513.6 513.3 512.3 510.4 507.8 504.9 500.4 495.9 486.7 477.7 471.6 465.3 459.4 454.7 449.6 443.1 436 430.3 426 422.7 419.3 416.2 410.9 407.5 403.2 399 395.2 390.6 388.4 387.3 385.9 384.2 382.3 379.1 376.6 373.6 369.4 366.5 364.5 362.4 359.7 358 356.6 355.6 352.7 344.9 337.2 328.7 325.9 324 321.3 317.9 303.5 311.6 306.6 303.6 304.7 302.8 301.2 296.1 289.7 284.5 280.9 271.9 277.8 276.6 274.7 272.3 269.6 268 266.1 265.3 264.6 262.3 254.5 265.3 263.9 261.5 257.5 251.5 247.4 244.5 241.9 239.9 237.6 235.3 232.5 228.7 225.1 222 218.9 215.6 211.3 206.3 204.7 204.9 204.8 203.2 200.6 192.6 173.1 172.3 171.4 171.2 173.4 173.8 189.9 192.4 195.2 198.7 203.6 207 206.3 216.2 221.3 229.6 237.4 242.2 246.2 248.6 250.2 253.6 259.5 264.2
288.6 287.3 294.8 299.3 299.9 306.7 310.9 316.9 320 325.4 329.6 321.9 327.7 329.1 329.7 334.1 333.7 333.7 333 329.4 324.5 327.3 323.6 314.6 305.1 295.7 287.6 278.1 265.2 255.3 246.1 235.2 225.1 216.1 202.4 204.6 206.1 218.4 228 239.1 253 268.6 279.3 294.3 322.7 332.5 340.7 344.6 339.2 333.2 331.2 332.4 337.8 341.9 344.8 356.7 364.4 373 386.1 397.5 417.1 425.5 434.2 444.9 457.7 464.3 475 485.7 497.3 503 503.1 504 502.9 504.3 509.1 508.1 508.8 509.1 507.8 505.4 499.5 492.4 485.2 477.5 471.4 464.1 459.8 454.8 449.9 446.1 438.7 434.4 431 426.9 423.3 417.7 413.1 408.5 405.2 400.6 399.5 395.3 392.1 389.8 387.2 385.7 384.2 382.7 381 378.5 375.6 371.8 368.9 366.7 365.3 362.8 361 359.7 357.9 355 347.5 340 334.8 330.9 331.2 326.3 323.3 320.5 308.6 299.7 304.1 301 299.4 299.7 296.3 291.6 286.9 283 279.2 274.7 273.5 273.6 272.1 269 266.3 267 264.2 262.3 261.1 259 252.8 261 259.9 258.9 252.5 248 244.3 241.7 239.4 237.5 235.6 232.8 229.7 226.1 222.7 219.2 215 210.4 206.9 203.8 203.8 205.5 204.3 201.8 199.8 174.3 173.1 167.5 175 175.9 184 183.6 193.9 198.6 201.2 203.2 207.7 213.9 219.4 222.8 222.3 233.8 240.4 244.6 249 253 256.3 260.2 264.2 266.5
299.9 300.4 300.9 302.9 306.1 312.2 320.6 328.2 332.7 337.4 336.1 334.7 336 337.1 337.9 336.9 336 334.8 331.6 327.1 327.5 328.8 325.8 316.5 301.7 295.3 288.4 278 265.9 255.5 246.7 236.3 225.9 215.4 203 206.9 206.7 218.3 231.6 243.8 258.3 276.7 287.9 312.4 330.7 343.2 351 355.6 355.2 354 348.9 348.8 349.9 353 357.1 358.7 362.6 371.2 376.8 386 399.9 419.2 434.9 447.2 457.3 464.2 473.6 484.6 496.4 499.5 499.1 498.7 496.8 500 506 503.4 503.3 505.5 503 493.2 483.6 477.2 471.3 463.1 456.7 453.4 449.9 445 441.2 435.8 432.2 430.6 427.3 422.7 418.6 414.1 409.9 405.6 401.5 398.7 395 392.3 390 387.6 385.9 383.9 382.4 380.7 379.5 375.9 372.7 369.3 367.9 366.6 365.2 363.9 361 360.4 358.4 352.7 345.2 340 337.1 337.6 332.3 324.4 319.4 314.8 312.3 306.6 293.2 299.4 295.6 293.5 291.8 287.5 283.7 279.7 277.2 272.4 264.1 269.7 268.9 267.3 263.4 266.3 263.8 260.2 257.9 254.6 250 256.4 255.2 255.8 248.9 244.9 241.8 239.1 236.8 234.8 232.2 229.7 227.3 224.3 220 214.5 210 205.9 204.4 202.9 202.6 203.9 200.5 197.5 183.2 174 173.3 171.2 180.2 189.4 194.6 196.7 194.8 202.3 205.9 208.3 211.1 219 223.7 229.3 235.1 237.9 241.7 246.4 251.6 256.1 260.6 263.4 265.9 267.6
303.7 302.8 310.8 318.5 323.6 328 332 334.5 339.2 341.1 338.8 339.4 340.9 342.4 341.7 340.6 338.8 335.2 329.7 328.8 329.4 329.1 326 315.7 300.9 293.6 286.6 275.5 265.2 257.2 248.1 236.9 225.1 211.4 204.6 207 213.5 225 238.6 252.4 273.2 281.7 297.6 324.8 341.6 351.8 360 365.1 367.7 369.5 370.7 363 358.4 366.9 369.9 374.3 380.7 388.2 406.1 413 422.2 433.1 440.9 451 458.2 464.9 478.2 489.6 495.2 499.2 497.6 495.5 493.8 496.8 500.4 496.3 493.9 493.8 490.3 482.6 474.1 467.1 461.8 454.1 451.1 448.7 445.6 441.6 437.4 432.1 428.2 425.4 422.4 418.3 414.6 411.1 406.9 402.8 398.3 394.1 392.6 390.2 387.7 385.4 383.7 381.7 379.5 377.2 374.9 373.3 369.9 367.9 366.2 366 364.4 362.2 361.5 361.4 359 353.1 347.9 341.9 342.1 337.4 329 320.9 314 308.1 304.1 302.1 297.5 290.2 293.1 288.6 288.2 285 280 276.8 273.4 272 266 265 265.4 264.8 263.3 260.7 261.6 258.2 253.6 249 247.5 251.5 250.3 247.7 244.8 241.1 237.2 235.6 233.1 230.7 228.5 225.8 223.9 221.3 215.3 210.3 206 202.3 200.1 198.1 197.6 197.1 193 187.4 175.8 174.7 173.8 180.3 188.8 188.7 196.6 199.6 197.6 203.5 209.2 213 215.5 221.1 225.9 233.4 241.5 246.3 245.6 250.5 257.7 261.6 263.8 266.2 266.6 268.4
309.9 319.6 323.4 327 328.9 334.4 339.2 344.8 344.7 343.4 343.4 344.8 345.4 346.4 345.6 344.7 341 337.2 335.8 336.1 333.6 329.7 325.7 313.5 299.3 291.2 284.9 274 264.9 257.7 249.1 238.5 223.6 208.2 205.2 208.5 220.5 232 244 261.1 273.2 285.5 316.5 334.8 351.2 361.2 368.2 373.7 378.7 380.5 379 381.2 377.5 377.4 380.9 391.9 409.4 401.7 422.5 428.5 435.3 440.3 447.9 455.6 462 471.8 483.9 489 490.9 491.2 491.6 492 489.5 487.2 486.4 484.1 479.3 479.2 475.7 470.9 463.6 456.7 452.5 449.3 447.6 445 442.4 439.7 435.8 432.5 428.9 425.4 421 415.7 410.9 406.7 403 399 396 392.7 389.1 386.8 385.4 383.2 381.1 379 376.3 373.9 372.3 369.6 367 365.5 364.7 363.6 361.4 362.1 362.8 362.9 357.1 353.3 347.8 348.6 343.8 335 320.9 312.8 308.1 304.5 301.3 298.3 293.4 285.7 282.5 282 283.6 282 278.2 273.4 271.3 267.6 265.3 259.1 260.7 261.6 260.6 257.9 255.5 254.2 250.8 245.1 243.3 249.5 247.9 244.5 239.4 236.6 233.1 230.6 228.7 227.8 224.5 222.5 221.5 218.3 210.6 207.8 207.7 205 202.7 201.5 190.1 189.8 185.7 178 176 175.3 168.3 192.3 194.5 195.6 194.3 203.5 200.2 205.5 213.4 217.2 220.3 225.2 228.3 239.5 247.4 252.2 254 254.7 261.9 265.7 267.4 270 269.1 269.8
329.8 330.9 331.5 335.2 338 348 353.7 354.7 352.5 350.7 351.5 352.4 351.7 350.9 349.6 346.7 345 341.9 341.2 339.3 335.4 330.1 324.3 312.5 294.8 291.1 283.5 271.8 264.6 257.4 249.8 238.5 224.2 207.5 207.9 212.6 224.6 238.8 249.7 265.8 279 299.5 327.8 347.9 358.7 366.2 374.1 381.6 392.6 394.9 390.6 389.1 388 392.2 404.3 416.9 424.1 428.7 434.9 438.9 443.7 449.4 455.2 461.2 469.5 477.5 484.5 486.6 485.2 485 484.5 483.9 480.8 479.2 476.6 473.4 471.7 465 464.4 461.1 456.4 451.9 447.2 444.8 442.4 441.4 440 438.9 437.1 433.8 429.5 424 418.3 412.4 406.8 402.8 398.7 396 393.3 390.9 388.1 385.1 382.4 380.7 377.7 375.5 374.3 372.4 369.9 368 366.9 366.3 364.8 363.2 362.5 360.8 361.4 361.3 356.3 351.4 350.8 344.6 328 318.2 313.9 307.7 304.2 301.7 298.1 294.8 290.2 286.9 284.4 278.8 274.9 279.1 275.7 272.6 268.4 264.4 262 258.1 254.4 258.2 257.4 255.8 251.9 248 246.8 244 238.9 236.8 241.3 238.8 233.6 228.7 224.5 224.1 223.5 222.8 219.7 217.7 216.3 212.7 208.9 209.3 207.7 204.7 204.8 201.9 193.4 183.1 179.1 176.8 176.1 171.5 193 198.8 199.5 201 203.1 201.8 210 208.2 208.1 221.6 225.8 230.6 234.3 242.9 250.7 258.1 262.1 264.7 257.4 266.7 270.3 271.5 270.3 273
345.3 343.5 342.1 348.1 354.4 362.5 364.1 360.2 356.3 355.5 356.2 355.7 354.9 354.2 350.6 348.6 349.5 347.7 344.8 340.2 335 328.6 323.3 311.8 291.8 289.2 280.3 270.1 262.9 256.9 248.3 238.1 223.4 208.3 208.7 217.9 232.2 245.2 258.9 269.1 287.6 321.4 336.5 356.5 364.8 371.9 379.6 393.7 406.6 414.4 415 412.1 418.4 422.7 428 431.3 439 443.3 444.8 449 453.4 456.8 461.5 469.4 482.8 486.5 485.7 485.3 483.6 481.1 477.2 474.8 475 473 471.2 469.3 464.6 456.5 456.1 453.2 449 446.7 443.3 440.2 438.3 438.2 436.7 435.6 432.8 429.3 422.3 416.3 411.4 406.5 403.4 399.1 395.6 393.3 390.9 389 386.5 384 381.4 377.7 374.7 373.2 372 370 368.5 368 367.5 366.9 365.5 363.6 361.9 357.2 357.5 356.5 352.4 348.3 343.8 334.7 316.6 301.1 302.8 301.7 299.5 297.1 294.6 291.6 289 285.3 283 280.4 276.4 271.3 273.3 270.8 267 262.6 259.5 256.9 250.1 254.1 253.6 251.9 247 246 244.5 242 242.3 239.2 228.4 231.4 230.6 225.8 222.8 221.8 219.7 218.5 216.6 214.2 213.2 211.1 209 208.8 207.2 205 202.3 198.4 187.1 176.7 172.4 176.3 185.2 201.4 200.7 203.5 204.1 205.5 208.1 210.8 210.2 213.2 210 223.6 230.9 236.2 241.9 248.6 256.7 261.3 267 267.6 264.1 268.4 271.5 271.6 272 277.2
351.2 353.8 356.5 362.2 368.3 370.7 367 362.8 361 360.3 359.3 358.6 357.6 354.9 351.9 354.2 354.2 350.6 345.9 340 334.7 328.5 321.8 307.4 288.4 282.9 274.4 268.9 261.9 254.5 245.4 233.5 221 210.5 208.4 222.9 239.5 250.7 266.1 275.7 293.9 329.3 348.9 361.1 371.2 376.5 390.5 412.6 427.5 428.7 430.8 433.5 436.3 437.4 441.4 444.8 446 451.3 454.7 456.8 459.7 463.8 474.5 483.3 490.5 488.8 487.3 486.4 485.2 483.4 479.1 473.8 469.1 463.5 459.5 456 452.8 451 446.9 443.8 440.3 439.6 437.8 435.7 433.9 432.2 430.3 428.3 424.8 416.8 413 408.8 406 400.3 398.3 396.7 394.5 392.3 389.7 387.1 384.9 382.2 378.8 374.8 372.9 371.1 369.3 368 367.5 366.6 366.5 365.9 365 362.6 356 354.8 354.6 350.1 345.1 337.6 332.3 322.1 316 309.6 302.8 293.8 295.7 293.1 291 289.1 286.5 283.9 280.9 277.9 275.2 267.7 267.3 266 263.8 260.2 257.4 253.7 251.2 249.5 248.9 246.5 245 247.4 243.9 241.1 235.4 235.2 235.3 226.7 227.7 225.3 226.3 225.9 221.5 218.7 216.1 214.2 212.7 211.2 210.1 209.5 207.8 206 202.8 187 173.4 178.3 188.2 198.5 205.8 205.2 204.9 207.5 208.2 210.6 212.3 214.8 210.9 219.8 220.5 218.3 233.5 242.3 250.4 255.6 263 267.1 268 268.4 266.6 269.3 271.3 272 274.8 281.3
359.5 361.5 366.5 373.2 375.8 373.7 370.3 367.8 366.9 365.8 363.1 360.8 360.4 357.5 356.6 358.1 357 352.4 346.6 340.3 335.4 327.3 320.7 302.9 286.7 281.4 273.4 267.6 260.2 251.9 240.1 229.9 220.6 210.7 209.9 227.7 242.3 258.3 273.4 279.3 316.4 336.2 356.7 364.9 374.8 381.9 403.1 431.3 438.5 438.2 442.2 445.3 449.2 451 451.6 453.7 455.9 459.6 461.6 465.8 469.5 476.2 484.7 495.9 495.6 492.2 489.3 488 486.7 484.7 480.8 477 474.4 471.1 467.2 462.7 458 452.4 447.4 443.1 438.5 435.6 431.4 431.4 429.8 426.4 422.5 418.5 413.4 410.4 406.3 403.4 401.2 399.1 397.2 394.9 392.1 390.2 388 385.9 383.6 380.2 375.7 373.7 372 369.9 367.8 366 365.9 365.6 365.5 364.6 363 359.6 355.8 353.6 350.8 343.4 335.6 328 321.9 317.2 310.3 302.8 298.1 294.4 285.9 290.4 288.5 286.8 284.4 281.9 278.9 275.7 272.6 269.4 263.6 261.4 260 256.7 255.1 252.2 249.1 240.3 241.7 242.1 240.9 240.7 240.7 235.9 230.3 230.1 231.7 223.7 227.3 227.1 226.9 224.7 222.4 220.5 218 215.8 214.4 212.9 203.3 183.5 180.1 176.8 175.8 179.1 184.9 194.2 204 207.9 209.9 209.2 208.9 211.1 212.6 215.1 218 220 220.5 221.8 228.7 222.6 232.2 248.4 256.5 259.2 266.4 269.6 270 270.1 270.2 270.6 271.5 272.4 275.7 283.6
367.2 371 375.8 379.7 378.9 374.8 372.7 374.3 375.5 373.4 366.2 363.6 363.5 360.9 360.8 361.7 358 351.8 345.7 340.6 334 326.7 321 300.8 291.2 283.7 274.5 265.9 258.1 247.6 239.4 231.8 217 212.1 214.3 234.4 248.5 267.1 278.9 289.8 325.6 341.1 359.8 368.5 377.9 388.6 411.4 438.9 441.4 447.6 449.5 454.8 458.2 460.5 461.7 463 465.7 468.1 469.3 476.3 482.7 493.8 501.7 504.1 502.9 500.7 497.1 493.8 492.4 489.9 483.7 478.3 476.2 474.3 472.2 471 467.9 461.7 457.5 450.8 441.7 435.8 429.3 424.7 422.7 420 416.7 414.6 410.2 406.6 403.3 400.9 398.4 396.5 394.6 392.4 389.7 387.9 386 383.9 380.6 375.8 373.4 371.5 370.1 369.7 367.8 365.4 360.9 361.9 362.4 362.3 359.6 356.6 353.7 349.4 343.7 337.2 329.4 321 314.7 308 302 297.3 293.4 290.7 287.7 285 285.7 284.9 282.4 279.6 277 274.7 270.7 267.4 264.4 261.2 254.6 250.1 251.8 246.9 243.8 238.8 239.6 236.2 232.3 231.6 232.2 232.1 226.5 226.8 227.8 210.4 227.6 227.9 226.6 224.5 223.2 221.7 218.9 216.9 214.7 204.9 180 181.5 180.1 183.2 191.4 198.2 196.2 205 203.9 210.1 212.9 212.5 213.4 215.5 218.1 220.4 224.8 227.3 228.7 221.1 235.4 239.3 223.4 248.7 261.6 265.2 268 270.1 271.7 270.6 271.3 271.9 272.7 274 277.7 286.6
373.5 376.9 380.8 382.6 379.8 377.9 381.2 383.8 385 379.5 370.6 367.7 367.6 365 363.9 362.7 358.2 351.2 344.6 338.3 331.4 323.8 313.1 303.9 294.4 286.6 276.6 265.9 257.4 250.3 243.8 233.8 218.8 212 218 238.9 257 268.9 281.3 296.2 331.2 344.4 361.8 371.9 380.7 396 418.3 440 446.9 452.1 457 462 465.6 467.6 471.5 473.8 475 478.9 481.2 481.7 498.8 506.8 510.3 509.6 507.6 505.1 503.7 502 500 495.8 489.7 484 480 476.6 474.4 472.4 469.2 465 455.3 446.5 439.2 433 427.8 422.4 416.4 415.5 410.9 409.3 407.6 403.9 401.1 397.8 395.5 393.2 390.4 388.3 387 385.3 381.9 377.8 373.1 369.8 367.1 365.9 366.8 367.5 364.6 361.3 358.2 356.5 358.9 359.7 357.3 353.5 348.2 343 335.6 326.8 321.3 314.5 309.7 302.9 296.7 292.6 289.3 287.1 285.4 281.7 282.6 282.2 279.8 277.1 275.1 273 269.4 266.1 263 260.2 256.8 251.9 249.4 246.9 247.4 245.3 243.2 241.6 240.1 234.9 228.9 220.1 220.8 211.5 211 215.4 228.1 226.9 225.3 224.6 224.3 221.4 216.1 207.4 198.4 188.6 179 185.2 192.5 199.5 205.3 208.9 205.5 206.7 209.6 209.9 214.5 216.4 216.1 220.4 221.7 224.4 230.3 233.4 233.3 235.1 237 248.3 235 236.7 262.2 266.2 268.4 270.7 271.8 271.8 272.4 273 273.1 275.1 279.9 287.9
377.9 381.5 387.1 387.2 381.9 386.8 392.2 394.5 390.1 381.7 371.3 370.6 370.5 367.2 366 362 357.2 349.6 341.1 336.4 331.7 325.4 315.3 306.7 295.8 288.5 278.7 267.5 257.6 251 245 235.6 221.2 212.9 220.7 242.7 257.5 271.5 280.7 306.8 335.2 348.5 364.7 378.4 389.7 404.5 431.8 443.5 451.2 457.5 465.1 468.9 472.2 476.5 479.2 483.7 488.9 491.4 497.1 509.4 512.7 513.8 514.8 513.8 511.2 507.9 505.8 503.2 501.2 498.7 495 490.5 486.3 480.5 474.5 471.3 468 460.7 454.7 446.8 439.6 434.9 431 428 420.5 412.3 408.7 405.2 403.1 401.7 398.8 395.4 392.5 388.8 386.6 386 383.6 377.4 371.8 365.9 360.7 358.7 355.8 360.9 359.9 360.5 356.8 354.8 353.7 354.5 353.4 353.5 351.1 348 342 334.1 326.7 320.1 312.1 308.1 303.2 297.5 292.5 289.6 287 285 282.3 282.1 276.9 278.9 275.3 272 270.2 268 265.9 263.3 260.3 256.7 254.6 253.1 251.1 247.4 244.5 241.8 242.1 238.3 236.3 233.1 231.7 232.7 231.4 226.8 212.4 208.6 220.5 215.6 211 206.1 201.4 194.9 194 190.9 183.8 183.7 181.9 198.7 206.4 213.8 215.2 212.8 208.1 211.4 213.1 214.5 216.7 220.3 221.3 225.6 226.3 230.3 234.4 239.1 241.8 245.2 238.1 250.6 250.5 229.9 253.4 264.5 267 270.6 272 272.8 273.6 274.1 274.8 276.7 279.9 286.1
385.6 396.2 398.1 390.9 385.9 392 399.5 399.2 391.3 380.5 373.8 372 371.3 368.8 365.2 361 356.7 346.8 340.5 334.8 331.2 326.1 317.7 308.4 298.5 290.2 279.6 268.8 258.7 252.3 245.2 235 217.1 213.2 225.5 244.9 259.8 275.9 286.3 317.4 336.6 353.1 367.7 381 397.4 410.6 438.8 447.7 456.8 467.1 472.5 475.8 479.9 483.1 487.9 493.8 502.7 510.9 515.5 517.4 517.4 518 518.1 517.4 514.7 510.9 507.5 504.8 501.1 498.5 495.4 491.8 488.7 482.3 475.4 470.6 463.8 458.7 454.6 447.9 440.5 434.8 431.6 426.6 421.2 411.5 405.9 404.8 401.4 397.7 383.9 378.9 380.7 377.2 376.2 379.6 375.2 367 356.5 350.9 350.9 347.7 347.8 353 350.4 349.5 346 346.1 349.2 348.8 346.7 345 343.5 337.9 330.2 326.3 320.7 312.9 306.4 302.8 299.2 294.2 290.4 287.3 284.7 282.2 280.4 278.5 275.3 273.5 271.8 270.9 265.9 263.4 261.7 257.6 257.1 256 251.8 250.6 248.8 246.3 242.3 240.2 238.1 236.9 235.7 232.9 231.6 231.1 229.6 226.1 207.8 196.4 204.9 200 192.4 186.3 184.9 181.8 181.7 181.5 181 182.5 195.8 215.3 221.5 222.3 219.6 216 211.4 214.7 216.6 218.6 220.5 223.6 226.7 227 232.9 235.5 241.3 245 250.4 250.6 252.9 250.2 259.6 239.2 248.9 263.6 266.2 268.2 271.1 273.7 274.8 275.8 276.4 278.5 282.3 287.9
399.5 404.5 403.7 390.5 387.5 392.6 401.6 401.2 388.6 379.9 373.7 371.1 370.1 367.7 363.1 359 354 344.3 338.9 334 330.7 325.7 318.3 308.7 299.2 290.4 280 269.4 259.3 252.3 244 233.6 213.9 215.7 227.4 248.8 262.7 278.4 291.1 318.8 338.4 356.7 373.6 387.2 395.4 414.1 439.3 451.8 463.5 474.3 479.5 482.7 484.8 489.5 496.5 504.2 513.3 519.5 521.5 522 522 521.8 521.8 521.5 519.1 515.9 512.3 506.7 502 498.3 494.9 490.9 487.3 482.4 476.1 471.6 461 456.4 449.3 444.7 438.2 431.7 427.2 422.8 418.2 413.5 409.5 405.8 402.7 398.5 391.7 380.5 367 361 356.8 351.9 353.6 346.6 343.1 339 334 332.1 341.1 339.5 333.5 338.8 339.9 339.3 340.1 339.6 335.6 336.6 332.3 327.9 323.5 318.8 311.3 305.4 301.9 298.2 295.9 292.4 289.9 286.6 282.7 279.9 278.9 275.7 274 270.8 267.6 267.4 265.8 260.7 260.6 256.1 254 252.8 251.4 250.1 248 245.4 241.5 236.3 236.3 235 234 225.1 227.5 220.9 212.8 207.5 203.6 195.8 189.9 182.4 186.4 186.8 189.2 190.8 197.6 201.5 204.3 200.9 213.6 223.2 225.2 224.8 222.5 219.9 215.8 219.2 221.5 224 226.3 230.2 232.6 234.3 236.2 243.5 248.2 252.2 256.7 257.7 257.3 250.5 259.9 256.5 237.9 253.2 267.7 271.8 274.2 275.5 275.8 276.7 278.1 280.6 283.8 288.1
398 402.8 401.9 390.9 389.1 390.6 397.2 395.2 386.3 378.2 372.7 369 366.7 364.4 359 355.2 350 343.5 337.6 333.7 329 323.4 316.5 307.3 299 290 278.9 269.4 259 251.2 240.9 231.9 216.4 217.8 234.1 252.5 266.2 282 293.5 319.7 337.5 359 375 388.1 397.9 413.4 441 454.2 470.8 479.8 484.2 487.1 491.5 499.1 506 514 521.1 524.3 525.3 525.4 525.3 525.2 525.1 524.2 522.4 519.7 515.5 510.2 504.7 500.1 497 492.4 487 480.9 474.8 468.1 459.1 451.8 445.9 440.7 435.5 431.5 428.5 424.7 419.5 415.1 410.5 406.7 403.7 400.5 397.7 394.8 391.8 386.3 368.4 358.1 366.4 361.5 357.2 353.9 347.1 338.1 330 326.4 320.9 325.7 332.6 334.3 331.1 328.2 323.6 326.6 323.5 319.7 313.6 308 303.2 300 297.7 295.9 293.6 291.7 287.7 286.1 281.5 277.5 276.2 275.3 272.1 269.8 268 266.8 264.6 263.1 260.3 257.1 255 250.2 246.5 244.5 241.8 239.6 237.3 234.4 232.8 232.2 220.8 213.7 211.9 207 203.5 200.2 192.8 185.7 190.3 198.4 200.6 199.3 200 206.1 213.8 219.4 220 202.9 220.9 226.8 228.8 228.7 226.7 224.1 220.2 224.1 226.3 230.1 233.9 236.3 238.8 243.3 245.9 251.2 255.4 259.5 262.4 263.1 261 251.9 259.5 266.8 262 243.9 254.8 273.2 276.2 277 277.3 277.5 279 281.3 284.5 288.5
392.6 394.6 400.1 390.5 389.3 390.5 394.2 391.4 383.5 376.2 371.5 367.6 363.4 361.1 355.8 351.7 347.4 342.1 337.3 333.5 327.2 320.6 314.1 304.4 295.7 285.7 277.6 268 259 249.9 238.7 228.1 217.8 215.8 233.6 254.9 274.9 284.1 297.3 321.7 338.8 355.5 374.9 386.4 402.3 418.6 442.9 457.6 474.9 484.1 487.8 491.2 499.1 507.9 514.6 522.3 526.7 528.3 528.3 528.7 528.2 527.4 526.4 525.5 523.5 521.2 517.5 512.3 506.4 502.1 497.9 492.6 486.5 477.8 468.7 461.8 455.6 449.4 445.4 440.9 437.6 434.4 430.7 426.2 419.8 416.1 411.3 407.4 404.5 401.7 399.1 396.8 394.1 391.2 388.3 375.9 362.7 352.9 345.8 341.4 337 341.9 341.4 335.7 331.5 321.8 312.3 322.7 321 319 318.6 315.3 312.5 308.1 303.8 300.8 296.9 293.6 293.5 292.7 291.6 289.4 285.8 283.5 280.2 277 275.7 272.7 270.3 269.1 267.1 264.3 260.8 260.8 256.7 254.2 252.1 249.7 246.5 240.8 238.4 236.4 234.2 232.4 228.3 219.2 212.3 210.7 206.1 200.9 196.7 188.5 184.2 197.9 205 210.5 214.9 214.7 218.8 222.1 223.2 223.3 220.1 206.1 220.7 226.3 229.4 230.6 229.9 226.9 226.6 230.2 233 236.5 240.2 243.6 245.9 249.4 254.6 256.9 263.6 265.8 266.8 267.5 264.1 262.4 263 265 270 267.6 252.5 254.3 275.5 277.6 278.1 279 280.3 282.7 286 291
394.1 393.5 393.6 391.2 389.8 391 392.3 389 380.6 373.8 370.5 366.6 362.2 357.8 353.7 349.5 345.9 341.9 337.7 332.9 325.2 317.9 310.1 300.8 293.7 283.5 275.7 265.7 257.3 249 237.2 226.1 220.3 217.2 237.3 256.2 278 286.9 298.7 327.9 340.2 357 378 386 398.9 418.7 444.7 461.9 477.8 486.3 490.2 496 506.3 515.1 522.6 527.9 529.9 531.2 530.8 530.3 530 528.6 527.3 525.7 523.6 521.5 517.5 512.5 506.5 501.7 496.8 491.7 487.4 478.9 471.2 461.4 455 450.1 445.1 440.7 437.2 433.7 430.4 426.5 421.1 415.2 410.3 406.5 404.1 401.5 399.8 397.9 395.1 392.4 389.8 386.3 380.6 378 373.6 362.2 354.7 351.6 344.3 339.1 335 323.2 319.9 310.7 306.9 310.6 311.8 309.3 305.2 302.2 298 294.9 291.9 290.4 288.5 286.7 289.1 285.6 283.2 281.3 277.5 276.1 273.5 271.6 269.4 265.5 262 259.5 257.5 255.1 253.1 250.6 248.3 245 241.6 238.8 233.9 233.1 232.1 230.7 226.3 213.8 208.9 202.6 197.2 187.8 188.6 197.3 200.1 211.3 219.7 226 226.1 226.4 227.4 227.2 226.4 224.9 218.4 219.6 214.3 225.8 228 233.8 235.3 232 231.3 236.1 240.4 242.8 246.2 250 253.4 257.2 262.9 264.3 270.6 272 270.6 270.5 268.9 268.4 267 267.7 269.8 272.6 277.1 260.9 254.3 274.5 278.6 279.9 281.9 284.3 287.6 292.5
401.1 397.6 395.6 393.6 392.8 392.6 390.1 387.6 378.6 372.6 369.5 365.4 359.7 355.7 352.8 348.4 345.2 341.5 337.9 331.7 320 310.4 304.3 296.6 288.4 281.7 274 262.5 254.8 247.6 237.2 225.2 220.2 221 244.7 259 277.9 287.2 298.3 327.4 344.8 360.1 379.3 387.5 401.7 417.1 443.4 463.7 478.7 488 492.1 500.9 512.5 520.6 528.2 531.3 533 533.4 532.8 532.1 531.5 530.1 527.5 525.5 523.1 519.7 514.6 508.2 501.6 497.7 493.8 489.8 484.4 476 466.9 460.5 453.9 445.5 439.6 436.6 434.1 431.7 427.9 424.1 418.7 412.6 408.3 406 404 401.5 399.3 396.9 394.8 393 390.8 387.4 384 381 375.4 367.5 358.4 351.3 345.7 340.3 336.2 329.8 322.5 317.7 311.8 306.6 298.8 299.1 297 296.7 294.2 292.3 292.6 291.1 288.2 281.6 282.1 279.4 277.3 276 275.3 273.3 271.5 270.3 266.9 262.9 258.9 256.3 254.3 250.8 247.5 245.2 242.7 240.5 238.1 235.1 232 223.9 228.1 227.3 225.1 213.5 203.7 194.7 189.7 194.8 199.4 206.8 215.4 223.1 229.2 229.6 229.9 230.8 231.2 230.1 228.5 226.4 217.9 225.3 221.7 231.3 235.3 239.7 239.7 237.8 237.7 241.2 245.1 248.5 252.1 255.9 259.2 264.6 269.2 274.1 275.5 276.5 275.2 273.1 273.2 266.4 271.3 271.8 274.3 276.3 278.8 259 275.2 275.4 279.2 281.3 283.8 285.7 288.4 293.6
401.3 398.3 396.9 394.7 396.8 393.6 389.4 386.4 378 372.2 369.2 364.8 359.5 354.3 351.6 348 345.1 342.6 337.8 331.1 321.2 310.9 304.3 295.8 284.2 277.5 269.7 260.6 254.6 246.6 237.4 227.3 221.5 224 242.1 260 279.4 290.5 300.8 330.8 345.5 364.9 377.2 390.4 400 414.1 444.3 464.5 480.5 488.9 493.7 505 517.1 525.6 531.1 533.5 534.7 534.5 534 532.7 530.5 528.7 526.3 524.1 520.7 514.8 508 501 495.4 492.4 489.1 482.6 475.7 468.7 462.3 455.2 446.9 439.3 436.8 433.4 430.9 428.4 424.5 419.3 413.1 409.7 407.3 405.2 403.2 401 398.1 396.2 394.7 393.1 390.4 386.6 383.8 380.2 374.8 366.8 359.6 351.9 345.7 338.2 332.9 326.3 319.6 314.7 309.2 305.9 303.3 300.2 295.8 290.4 293.7 292.2 290.8 287.9 285 282.1 278.6 276.7 275.1 272.3 270.7 271.1 270 267.2 266.8 261.1 256.1 252 248.1 245.6 243.3 241 239.1 236.9 233.5 230.6 227.9 225.5 224.8 224.1 217.3 207.5 193.8 188.2 203.7 211.9 218.2 223.6 229.9 231.4 232.1 232.5 232.7 233.7 233.9 232.5 230 228.5 224.9 230.1 232 236.8 241.4 244.7 245.5 243.4 243.6 244.5 249.9 253.4 257.5 262.7 266.6 269.6 273.1 278.8 280 283 279.9 280.8 277.6 272.1 275.4 276.7 279 281.4 284 265.3 279 277.8 279.7 282.9 286.4 289.4 291.7 297
401.8 402.2 401.5 398.9 399.5 394.8 389.8 383.8 376.5 372.1 368.6 365.3 358.8 355.4 351.6 348 345.6 343.2 338.1 330.6 320.5 311.7 302.7 292.6 284.1 279.3 275.4 263.3 257.4 248.1 239.2 228.5 221.3 230.3 247.9 261 282.9 288 303.2 330 346 367.2 380.3 393.1 398.8 420.6 447.5 466.9 481 488.7 494.9 507.5 520.8 528.3 532.6 534.8 535.4 534.6 534 532.1 530.4 528.3 525.4 521.1 514.9 508.7 501.9 495.3 491 485.1 479.8 473.9 467.8 461.6 455.9 449.2 443.6 436.7 432.9 430.3 428 423.9 418.5 413.6 410.8 408.6 406.4 404.3 402 399.7 398 396.1 394.4 392.3 388.9 384.6 381.4 377.9 373.7 366.8 360.1 351.7 343.1 333.8 327.6 321.1 316.3 311.6 307.5 305.5 302.3 298.7 295 291.3 284.7 290 287.7 285 282 279.7 276.6 275.4 275 274.9 268.6 268.5 267.4 263.6 260.8 257.1 251.1 247 243.5 241.7 239.6 237.4 235.7 232.3 228.8 225.8 222.2 219.1 221.6 220.7 211.8 199.4 192 201.5 216.3 224 231.6 232.9 233.7 234.5 235 236.1 236.8 237.1 236.3 234.2 232.4 230.1 231.8 236.3 238.7 237.1 245.1 249.2 250.6 247.4 248.9 251.6 254.2 259.6 263.6 269.3 272.9 276.3 279 282 284.2 285 283.3 282.9 282.4 278.2 279.7 281.6 283.9 286.5 286.7 283.7 270.3 285.2 284.3 284.5 288.1 291 294.7 299.3
414.3 407.6 407.5 410 405.2 398.4 391.2 382.8 375.6 371.8 369 364.8 361.2 355.9 351.4 348.6 346.1 343.7 337.9 328.6 318.7 310.1 301.7 293.1 286.4 282.8 278.3 265.3 258.2 251 241.8 228.7 221.7 236.3 253.4 267.5 283.9 289.9 304.2 328.8 348.9 367 378.5 390.9 407.9 424.5 449.9 469.2 480.1 487.6 495 508.6 522.4 529.8 533.3 535.1 535.2 533.9 532.6 531.5 529.7 527.8 524.6 516.4 510 503.2 497.7 492.1 483.4 476.4 471.3 465.1 460.3 456.1 451.5 446.1 442.2 437.1 433.8 430.3 425.8 417.9 413.1 410.8 408.7 406.9 405.2 403.4 401.5 399.7 398.1 395.7 393 391 386.8 383.1 379.5 375.6 371.6 365.9 358.7 349.7 338 328.3 322.3 317.3 314.1 309.5 306.9 304 300.2 297.1 294.4 291.6 283.2 283.7 284.6 281.5 279.2 276.5 275.7 275.1 275.3 273.6 269.7 263.3 262.4 260.3 255.9 250.2 246.1 242 239 237.7 236.3 233.8 230.9 227 224.6 219.3 211.7 205.7 212.2 212.5 203.6 193.6 192.3 212.9 225 232.5 233.2 235.5 236.9 237.7 238.4 239.6 240.4 240.2 238.7 237.4 235.7 232.3 237.7 241.6 243.3 240.5 247.5 251.3 252.1 252.1 254.1 257 261 266.8 271.3 275.3 279.1 282.5 284.7 284.5 289.2 286.5 289 285.3 283.3 281.1 285.6 287.6 287.9 288 287.6 276.8 279.7 287.2 289.3 287.6 289.3 293.5 297.1 302.4
437.2 418.1 414.3 414 409.9 401.3 393.2 381.4 375.2 372.3 369.7 364.7 361.3 356.2 351.2 348.8 346.5 343.5 336 327 314.9 306.8 299 291.3 284.5 280.2 278.2 267.3 257.1 252.1 241.4 227.2 222.6 242.4 260 273 288.2 293.9 303.6 332.7 346.4 367.2 379.9 394.3 410.6 438.6 453.8 469.2 479.1 487.1 494.8 508.5 522.5 529.5 532.5 533.2 532.7 531.8 531.1 530.2 528.5 525.1 517.7 510.4 504.9 499.7 493.6 484.9 476.5 470.1 464.5 459.5 454.9 452.5 448.8 445.2 441.8 438.5 435 429.1 421.1 414.8 412 409.6 407.8 406.4 404.1 402.4 401.2 399.9 398.2 395.5 392.6 389 385.3 381.9 378.7 375.3 369.2 362 354.2 342 332.3 324.1 318.5 315 311.9 308.6 305.3 301.9 298.4 295.7 293.2 290.4 287.1 280.6 275.1 277.5 276.5 275.4 275.2 274.9 273.5 269.5 266.4 262.6 257.4 254.8 249 244.6 241.1 237.4 234.8 233.1 232.9 230 225.8 224.6 217.3 209.3 197.3 197.1 193.8 194.2 192.1 199.6 212.2 224.8 233 235.8 237.3 239 240.5 241.5 242.4 242.3 243.3 243.4 242.4 240.9 236.7 238.6 242.9 246 247.6 248.3 246.6 252 255 257.3 259.6 263.5 269 272.4 276.8 281 284.7 287.6 289.2 287.6 291.4 291.3 290.3 286.9 284.1 285.7 290.2 291.8 289.5 288.6 288.3 272.7 288.2 290.9 291.9 290 291.5 295.1 300.4 307
451.8 431 417.5 414.6 411 401.7 391.6 381 375.4 372.5 369.7 365.8 361.7 356 351.5 349.3 346.4 342.1 334.1 323.4 311.9 302.2 294.3 288.6 281.9 274.1 274.2 263.9 256 253 243.2 227.9 224.7 250.4 264.8 281.8 292.3 296.6 314.9 337.2 346.7 368.5 381.5 395.9 410.5 442.1 454.8 468.1 478.2 485.8 493.1 506.9 520.5 527.5 529.8 530.2 529.3 528.2 527.7 526.6 522.9 517.6 510.7 505.1 500.5 493.7 484.3 476.4 470.4 464.6 457.5 453.7 449.9 447.9 445.7 442.8 440.3 436.7 431.8 426.2 419.1 415.7 413.3 409.6 406.7 405.2 403.6 401.9 400.5 399.4 397.6 394.5 391.4 388.1 384.2 381.5 378.6 371.8 362.6 355.1 344.7 337.2 326.1 319.8 315.7 312.7 309.9 306.8 303.4 300.1 297.3 294.4 290.8 287.4 283.2 281.7 278.5 272.6 272.3 274.3 274.2 271.6 268.2 265.5 260.9 256.2 249.4 246.5 244.8 240.2 237.1 234.1 231.8 229.1 226.1 224.1 221.5 219 208.4 198.1 196 191.9 196.6 197.1 202.2 207.8 218.8 232.4 236.3 238.6 240.4 242 242.6 243.1 244 245.3 245.5 245.6 244.6 242 239.5 243.2 247.9 250.1 250.8 252 253.2 254.8 258.7 261.9 265.4 271 276 279 280.3 284.6 288.5 291.8 295.3 297.4 295.8 295.6 291.8 289.4 286.7 288.6 292 293.6 292.5 290.3 289.1 277.7 291.2 294 295.4 295 295.2 298.3 305.8 312.4
455.4 440.8 420.2 415.8 412.2 399.3 388.6 378.5 375.3 372.3 368.7 364.6 360.9 355.7 351.9 349 345 339.4 330.4 319.4 303.9 295.2 290.3 284.6 279.8 275.1 269.3 259.8 255.4 252.2 236.6 225.3 238.9 255.7 269.9 284.9 294.4 303.5 322.8 336.7 350.2 370.5 384.2 394.8 411.2 440.6 454 467.2 477.1 484.6 490.4 502.3 516.6 524.3 526 525.6 524 522.6 520.9 518.6 514.4 509.9 505.9 499.8 491.6 483.2 476.7 469.7 462.6 459 452.6 445.8 444.9 443.1 441.3 439 436.5 432.6 428 424.2 420.4 417.1 412.6 408.7 405.3 403.9 402.7 401.6 400.1 398.4 395.8 393.7 389.7 386.2 383.5 380.5 372.3 364.1 354 345.9 339.4 329.2 321.5 316.6 312.9 310.1 307.4 304.6 301.2 298.5 295.6 289.7 285 281.9 273 272.7 270.2 263.9 250.4 264.9 268 265.1 261.2 255.9 251 248.7 244.4 240.7 238.5 236.6 232.9 230.6 228 223.9 219 217.6 214.3 206.7 197.2 196.3 195 202.2 202.3 202.7 204.8 214.9 226.1 236.4 238.9 241 242.8 244.1 244.5 245.4 246.9 247.7 248 247.4 246.8 243.8 244.7 249.3 252.2 253 253.7 255.4 257.5 258.3 264 267.4 272.9 277.9 281.7 284.3 285.3 287.1 291.2 295 299.4 302.2 300.4 298.9 294.9 291.7 291.2 291.6 294 294.6 293.9 292.7 287.7 286.4 293.8 298.7 301 299.9 300.5 304.3 310.4 318.6
454.6 446.8 431.5 415.9 410.1 397.8 385.2 377.5 373.8 369.6 365.5 363.6 360 355.5 351 347.9 343.6 336.2 324.6 314.7 304.4 298.6 291.3 287.4 284.4 276.6 266.6 260.8 254.1 242 226.7 229.1 249.1 262.5 274.4 288.9 294.3 302.2 326.3 342.4 358.2 370.4 384.9 395 407.3 439.6 451 466.9 474.8 483.3 487.6 497.3 510.5 518.7 521.2 520.3 519.2 516.7 513.7 510.8 507.2 503.3 497.6 490.5 482.9 475.5 468 461.3 454.3 450.1 444.6 440.9 438.3 437.1 435.8 433.9 431.5 427.9 425.1 422.7 418.8 415.4 411.8 408 405.3 403.3 402.1 400.8 399.2 397.4 394.8 391.4 389.9 385.5 382.5 373.6 365.5 353.7 346.1 340.9 334 323.7 318.2 313.7 310.3 307.7 304.9 302.3 299.5 297 293.3 288.1 286.5 282.7 281.6 279 276.8 272.3 263.2 245.7 251.2 257.1 254.7 248.4 245.3 242.1 239.9 236.5 233.8 231.9 227.1 225.8 223.1 220 213.7 209 201.5 198 196.7 196.9 204.6 207.1 207.2 210.4 202.1 222.3 233.5 238.3 240.7 242.8 244.3 245.7 246.4 248.2 249.6 250.3 250 249.9 248.2 246.8 250.7 254.6 255 255.5 257.8 260.1 262.6 265.4 266.5 274.4 279.9 283.5 286.6 288.8 289.5 292.7 295.4 298.3 303.4 306.7 304.5 301 297.3 294.1 294.8 295.8 296.7 295.8 295.5 294.1 280.8 291.1 296.2 300.5 304.2 304.7 305 310.3 316.3 323.6
453 446.1 436.9 417.2 407.2 395.2 383.4 375.4 371.5 367 362.6 362 358.9 354 349.1 345.8 340.8 333.5 322.5 315.1 304.7 297.3 290.4 288.2 285.2 274.2 264.9 259.4 250.9 230.3 228.2 243.4 257.3 270.5 280 290.2 298.9 314.1 335 347.5 362.7 370.2 384.7 395.1 409.3 438.7 448.8 462.3 473.4 481.4 484.9 490.6 502.4 510.9 514 514.8 513.3 509.2 506 503 498.8 493.5 486.7 479.5 470.3 465.3 458.6 451.3 446.3 441.8 438.2 435.2 433.4 432.5 430.3 428.7 425.2 422.6 419.2 419.1 416.2 412.9 410.1 407.1 404.1 401.3 399.9 398.8 397.8 396 393.6 389.9 386.9 383.9 376.6 365.3 352.7 347 341.7 335.1 326 319.6 314.6 310.9 307.8 305.4 302.4 299.4 297 293.9 289.3 287.1 285.4 282.8 281.1 279 276.5 273.6 268.6 262.1 247.8 244.4 243.7 240.1 238.6 237.5 235.6 233.2 231.1 226.2 221.5 214.3 207.6 199 195.4 195.4 197.5 197 197.3 207.6 210.3 212.1 217.3 224.2 227.7 226.8 215.1 237 241.1 244.3 244.9 246 248.2 250.6 252.2 252.9 253 252.3 249.6 250.7 254.8 256.5 258.1 260 262.6 265.5 268.6 272.6 275.4 282.2 286.1 289.3 291.2 293.1 295.4 297.7 299.6 302.4 306.7 308.5 306.3 302.3 299.2 296.2 297.2 298 298 297.1 295.9 294.4 282.9 294 298.2 301.8 305.3 308.2 310.7 314.9 322.4 330.4
452.4 449.7 439.5 419.3 403.3 391.7 381.9 373.2 367.7 363.6 360.8 359.7 356.7 352.2 347.5 343.1 338 328.3 319.4 310.9 300.6 293.8 287.3 285.6 279.3 269.9 262.9 257 246.2 229.2 237.3 253.5 267.2 276.2 285.8 295.1 305.8 324.3 339.9 351.8 362.1 371.3 385.9 397.6 415.1 438.2 445.7 459.2 471.9 477.6 481.6 486.6 493.2 500.7 504.9 507 505.3 501.3 497.8 493.6 489 482.7 475.6 467.8 462.1 455.7 448.1 443 439.9 436 433.6 431.4 429.1 427.7 425.4 421.8 417.6 415.5 412.7 412.7 411 409.5 407.3 404.7 401.6 399.2 397.5 397.1 396.3 394.5 392 388 384.6 379.9 369.8 358.5 346.5 341.9 334.4 326.6 321.2 315.4 311.4 308.1 305.1 302 298.7 295.6 294.2 291.4 288.5 285.6 284 282 279.8 277.2 273.5 267.3 262.5 253.1 245.8 240.8 236.2 235.3 233.8 233.6 232.6 230.1 224.7 219.8 214.2 209.9 199.5 199.3 199.3 198.4 198.2 201 207.5 215.5 219.2 221.8 226.9 230.5 235.9 238.6 240.9 235.2 237.6 244.3 244.8 246 249.9 253.3 255.4 256.7 256.3 253.6 250.6 253.6 257.9 259.3 262.3 264.7 267.8 271 275 278.8 284.8 283.1 290.8 293.9 295.1 297.6 300.5 302.6 305.2 308.8 310.5 310.4 307.7 303 300.7 298.4 299.5 299.4 299.7 298.9 298.6 296.3 281.1 296.8 299.7 302.8 307.1 311 316.5 321 327.4 337.4
450.6 447 438.8 415.4 399.2 388.5 378.7 370.8 365.3 362.5 360.1 357.2 354.4 349.4 345 340.1 332.1 325.5 314.9 304.9 297.4 290.3 282.4 279.7 273.5 266.7 260.2 254.5 232.7 232.4 246.3 262.9 275.3 283 289.6 298.8 310.7 328.4 342.2 352.4 365.4 371.5 388.5 397.8 415.2 434.7 443 451.7 462.9 472.8 477.1 479.6 482.4 487.4 492.2 494.7 494.1 490 485.3 479.9 475.8 470.3 463.8 456.5 449.3 444 440.3 438.3 435.1 432.1 430.7 428.3 425.2 422.6 418.5 415.2 412.2 410.1 409.6 408.7 408 406.5 404.2 401.7 399.1 396.2 395.2 394.1 393.2 390.2 388.5 386.1 382.8 375.7 362.8 348.9 341.2 334.8 326.2 321 317 312 308.7 305.6 302.2 299 295.6 293.1 291.3 289.3 287.2 284.6 282.1 280.2 277.6 273.5 267.4 259.6 252.3 245.4 242.6 239.4 235.8 227.4 228.8 229.6 228.1 225.4 219.6 215.3 211.5 205.2 196.7 200.3 199.4 199.4 203.9 211.4 217.5 221.6 225.1 228.1 230.1 235.4 238.9 241.1 242.3 238.5 235.4 239.4 242.3 247.1 252.8 256.1 257.5 258.3 258.4 255.8 253.3 255.5 260.3 263.7 267 269.6 273.2 277 280.6 287.7 290.6 288.4 293.6 296.6 298.7 302.9 305.8 308.7 311.5 314.6 314.9 312.2 308.8 304.7 303.1 301.4 301 301 301.3 300.3 300.6 298.9 285.5 296.6 302.4 304.8 309.7 315.2 320.4 326.2 333.7 346.4
446 443.4 426.7 405.5 395.4 384 374.8 369.1 364.6 362.5 359.5 354.9 350.1 345.5 342.3 336.9 329.6 319.4 308.1 299.1 291.3 284.7 276.3 273.4 268.7 262.7 255.9 244.1 231.1 239.2 255.6 272.7 281.8 288.1 294.3 302.4 318.3 334.9 343.3 355.3 366.2 373.3 392.6 396 418 434.7 439.8 449.3 459.2 469.9 472.4 474.5 476.6 478 480.3 482 481.1 477.4 472.5 466.7 459.8 453.7 448.7 442.6 440.1 437.5 436.5 435.2 432.7 429.7 426.5 424 420 415.9 412.8 410.7 408.5 406.5 406.5 406.2 405.6 404.2 402.5 399.5 395.7 392.3 390.4 388.5 385.3 383.3 382.6 383.3 379.2 362.7 352.4 344.3 337.7 328.1 320.2 317 313.6 309.1 306.2 303.8 300.1 296.5 293.3 289.7 290.3 287 285.5 282.8 280.5 277.5 273.4 268.3 262.4 252.5 247.2 241.9 238.9 236.5 234.3 231.3 226.3 222.5 224.5 221 216 212.6 208.9 201.6 200.5 200.5 200 205.4 215.4 219.7 223.9 227.6 230.1 233.5 236.6 238.5 240.3 242.4 243.2 239.9 236.9 238.8 243.6 249.9 254.4 255.2 256.9 259.4 260.5 257.9 254.4 256.8 263 268.6 271.7 275.5 279.5 283.1 290.9 294 293.6 292.9 295.8 298.8 304.2 308.1 311.3 314.6 317.6 319.6 317.3 312 307.7 304.9 303.6 302.5 302.4 302.6 302.9 301.9 300.7 298.1 289.5 293.1 304.2 308.5 312.1 318.1 323.2 331.2 342 357.4
441.5 430.9 417.4 399.7 390.3 379 370.9 366.7 364 361.4 356.9 351.3 346.1 341.8 338.5 331.6 323.9 311.7 298.8 292.3 287.9 284 277.3 268 261.3 257.3 251 233 236.4 250 271.7 278.5 286.9 292.4 302 312.1 325.3 334.3 347.5 358.3 367.6 374.8 384.4 397.1 421.1 433.2 438.8 447.9 456.2 465.9 468.6 468 467.7 466.9 467.9 467.7 465.5 460.9 457.3 452.7 448.9 445 440.8 438 436.6 434.4 432.3 431.8 428.8 426.5 422 418.6 414 410.9 409 406.3 404.6 403.1 402.2 403.2 402.5 401 399.2 394.5 390.2 387.3 385.4 381.7 377.4 373.3 373.1 375.2 368.2 355.8 347.7 339.3 329.2 320.9 318 313.7 310.8 307.2 304.8 301.9 299.2 296.1 291.8 291.4 287.1 286.3 282.6 277.3 277.5 272.6 267.4 262.2 254.3 247.3 243 239.4 236.6 233.8 232 230 226.4 222.1 218.6 216.8 214.1 211.8 204 201.4 198.3 200.5 205.1 213.2 220.6 225.2 228.3 231.9 236 239.7 241.3 242.2 242 244 245.6 237.9 239.1 240.7 244.5 248.9 251.7 253.4 255.3 259.5 260.6 258.5 257.4 261 267.6 272.9 276.7 281.3 286.2 293.4 296.8 296.3 295.7 295 297.7 301.8 309.9 313.2 316.5 320.1 322.1 321.3 317.3 312.6 306.9 304.8 303.6 303.5 303.8 304.7 304.6 303.3 302.4 300.2 288.2 299.3 304.6 309.8 315.2 322.9 324.1 334.1 350.7 369.2
430.8 417.5 404.1 394.9 385.2 374.5 370.5 367.4 362.7 358.8 353.5 347.5 343.1 339.4 333 326.4 312.1 304.5 297.7 293.3 289.4 285.2 278.7 269.7 262.2 254.2 243.1 232.6 249.8 265.2 276 280.9 291.8 297.5 310.3 320.2 331 338.2 345.6 356.3 368.1 380.1 386.7 404.7 426.1 432.1 436.1 444 454.1 458.4 458.8 460.1 458.7 457.2 457.1 456.3 455 452.8 450 446.1 443.1 439.8 437.8 434.4 433.6 430.5 428.5 426.7 424.3 421 417.3 413.8 410.2 408 405.2 402.3 401.5 399.5 399.3 398.6 398.3 397 394.5 390.2 385.9 382.6 379.5 375.7 370.8 367.5 366.5 362.4 356.9 350.3 343.2 333.6 323.5 319.2 317 314.3 310 306.1 303.6 300.5 297.8 295.5 292.3 292.1 290.3 287.2 283.2 277.4 270.9 266.5 261.7 253.8 245.3 243.2 240.2 237.1 234.1 231.7 230.2 228.7 224.6 220.3 217.3 213.6 211.1 210.3 203.2 202 198.9 203.8 217 220.7 226 229.4 232.3 236.3 241.4 244 244.1 245.6 247 248.5 244.6 240.5 241.9 244.7 246.2 248.4 250.3 253.9 256.8 259.3 261.4 262.1 263.1 266.9 272.9 277.7 282.8 287 294.5 298.3 299.2 298.3 297.4 297.1 299.9 307 313.6 318.1 321.9 324.5 325 322 318.6 313.9 309.8 306.2 304.6 304 304.7 305.8 306 305.2 303.1 297.6 293.7 301.4 306.5 311.4 316.9 325 328.7 341.7 360.2 373.1
410.9 402.5 396.6 388.9 380.6 372.2 370.5 366.2 361 356.2 349.5 344.6 340 335.8 329.4 321.9 313.1 306 300.2 294.8 290.3 285.1 278.4 269.7 260.9 253.5 236.3 241.9 255.9 270.1 278.1 283.6 294.4 304.5 319.5 326.6 335 341 349.6 360.6 371.5 382 394.1 409.5 428.4 431.2 431 438.9 448 453.7 454.4 454.1 453 450.2 451.1 450.3 449.1 446.3 443.6 441.5 436.6 435.3 432.8 431.2 429.3 427.9 426 422.9 420.6 417.5 414.2 411.1 407.6 405.1 402 399.3 397.9 397.3 396.8 395.8 394.4 391.9 389.6 387 383.7 379.9 375.7 371.6 366.4 362.5 355.8 351.3 349.9 344 334.9 328.1 323.7 320.3 317.1 312.9 309.4 306 302.5 299.8 297.4 295.7 292.9 292.4 289.3 285.3 280.6 276.1 268.5 260.7 251.4 246.6 241.5 238.5 235.9 232.9 230.1 229.6 228.5 225.1 220.8 214.4 207.3 209.9 209 205.3 204 202.8 199.4 217 221 226.1 230 233.5 236.2 240.6 244.4 246.3 246.8 249.9 250.4 251.2 243.4 243.2 245.6 247.6 248.9 251.9 253.7 256.6 259.4 262.4 265.7 268.9 269.9 275 279.2 283.5 287.8 295.4 301.1 302.6 301 300.3 299.4 301.2 307 311.7 317.4 321.2 324.6 326.2 325.3 323.6 320.5 316.3 315.5 312.7 310.8 307.6 305.8 306.9 306.1 305.3 303.2 302.5 296.3 300.8 306.3 311.5 318.9 326.6 335.1 346.3 368.8 376.4
404.8 397.6 391 383.7 376.8 371.5 369.8 364.2 359.2 353 344.9 341.8 337.3 330.3 325.5 318.8 310.9 304.6 299.7 293.5 289 283.6 276.7 266.6 258.5 244.3 235 253.3 263.9 272.9 280.1 288.8 298.4 313.2 323.1 330.3 336.4 344 353.8 365.5 375 386 397.1 413.3 428.5 432.2 431.6 435.1 441.9 448 448.4 447 447.6 446.1 445.6 444.2 442.8 440.8 439.2 436.7 433.8 432.2 430.7 429.1 427.7 425.7 423.5 420.6 418 414.7 411.2 408.1 404.1 400.3 399.8 398 395.2 395.9 394.4 393.6 391 389.2 387.2 383.9 380.3 376 372 367.7 360.3 352.4 345.9 345.9 341.9 338.4 332.2 327.5 323.5 319.2 315.2 310.9 307.6 304.3 301.4 299.4 297 296.1 294.4 291.5 287.3 281.7 277 270.8 263.6 256.8 246.3 241.1 238.4 235.6 234.1 232.2 229.6 223.6 224.5 220.9 214.7 205.5 205.3 204.5 202.1 203.7 203.2 202.8 208.1 219.4 224.9 230.3 234.7 238 241.6 245 247.5 249.2 251 255.3 255 249.4 245.4 246.1 249 251.5 255.6 257.8 261.2 266.6 266.7 268.7 272.6 275.2 277.7 281 284.7 289.2 295.7 302.7 305.7 306.1 303.6 302.1 302.7 308.1 312.4 316.6 320.2 324.5 327.2 327.1 326.6 325.4 322.8 320.5 320.2 319 317.2 314 307.8 306.3 305.3 303.7 304.3 303.7 299.6 305 307.9 313.9 322.3 330.5 342.3 356.7 371.3 378.6
400.4 395 386.6 379.8 374.2 369.9 366.8 361.8 356.1 350.4 345 339.7 334 327.1 320.7 313.4 306.1 301.6 296.6 290.9 286 280.5 273.4 261.4 248.8 238.3 238.5 259.1 269.4 276.2 284.4 293 307.9 321 326.9 332.7 339.8 348.4 356.5 368.2 383 388.7 405.8 416.4 425.3 434.1 433.3 433.6 435.6 441.8 442.2 441.5 441.5 441.5 440.3 439.6 438.6 436.6 434.5 432.6 430.6 429 428.5 427.2 425.9 423.1 420.2 416.7 413.2 409.9 407.3 404.6 401 398.8 397.9 396.7 394.7 394.2 391.7 389.7 388.8 387.1 384.6 380.3 376.5 372.5 368.6 358.2 349 346.3 340 340.4 338.2 333.1 328 324 319.3 314.7 310.9 308 305 302.9 300.6 298.7 296.5 296.4 292.7 288.4 283.2 277.7 271.2 265.8 255.4 246.1 242.7 241.5 238.2 234.8 232.9 230.9 228.5 226.7 220.2 213.5 203.2 205.9 205.2 204.6 204.3 203.7 202.2 202.4 217.9 223.3 230.2 235.8 239 242.8 246.5 249.1 251.6 253.2 256 257.6 253.9 249.4 247.9 246.7 251 257.6 262.1 265.6 269 271.5 271 271.7 277.8 280.6 283.7 286.6 289.9 295.9 303.6 307.8 309.1 309.7 309.5 308.2 310.9 314.4 318 321.3 324.5 327.1 330 330.7 330.1 327.6 325.3 325.7 326.1 324 322.1 318.4 313.6 309.3 305.7 305.5 305.8 303.8 305.5 308.5 311.2 317.2 325.2 334.2 345.7 363.8 372.1 381.4
397 390.9 383.6 376.4 370.3 366.3 362.8 357.8 352.3 346.8 341.9 336.5 329.4 322.8 315.5 306 299.8 295.5 291.1 285.8 280.3 274.8 268.1 257.1 245 236.9 253.3 265.5 278.2 283.4 291.7 298.2 317.9 326.4 331 335.5 343.3 351.2 360.3 371.9 385.2 393.4 417.3 425.4 427 434.9 434.3 433.9 434.1 435.7 437.6 437.7 437.5 437.8 437.3 436.1 434.7 433 431.3 429.4 427.7 426.3 423.8 422.9 420.2 417.6 414.3 411.9 408.9 406 403.7 402.2 400.3 399 398.2 396.8 395.4 389.8 391.9 389.2 383.7 383.1 380 376.8 372.7 368 358.1 350.6 345.5 339.2 335.7 336 332.4 328.9 324.9 318.2 314.1 310.4 306.9 304.7 302.8 301.4 299.8 298.2 295.8 292.2 288.1 283.2 278.2 272.1 264.2 259.2 252.8 247.3 243.2 239.5 235.3 231.9 229 227.5 225.1 220 214.7 208.7 204.9 206 205.8 205.3 204.7 204.1 207.1 214 222 229.5 236.6 241.6 245.3 248.3 250.8 253.8 256.8 259.1 257.4 256.4 254.8 252.1 251.6 249.3 256.7 262.1 268.3 272 274.2 275.3 276 278.3 280.7 285 289 292.1 296 304 309.1 310.9 311.8 312.8 313.7 314.6 316.2 318.1 321.1 324.9 328.4 330.2 333.2 333.9 332.1 329.7 332.4 333.9 332.4 330.8 326.3 321 316.4 312.5 308.8 308.2 308 303.9 306.9 309.8 314.5 320.5 327.9 339.1 352.8 367.6 375.2 383.5
393.5 386.9 379.6 372.5 367.6 361.4 358 353.4 348 342.1 337.8 332 325 317.3 305.2 299.9 290.1 286 281.1 274.8 272 266.9 263.3 256.2 241.1 242.1 263 273 281.7 289.1 296.9 311.2 324 329.8 333.6 340.5 348.2 355 365 375.3 385.6 398.6 420.7 430.3 431.9 434.4 434 430.9 432.4 431.5 430.7 433 434.5 434.7 432.9 432.1 430 428.1 426.7 424.9 422.6 420.4 419 417.5 415.3 412.9 410.5 409.4 406.6 403.8 401.7 400.8 400.5 400.1 398.7 396.4 393.4 390.9 386.4 386.2 382.7 372.7 375.2 370.9 365.1 357 349.5 344 340.8 337.7 325.4 328.8 325 318.6 315.4 312.8 310 307.3 304.5 302.9 301.6 300.4 298.8 297.4 293.4 289.6 285 280.3 274.4 268.4 263.1 257.6 251.1 243.1 237.6 234.8 231.4 229.3 226.8 224 220.7 215.8 213 209.1 203.9 207.1 206.6 206 205.3 205.3 214.8 220.5 229 237.8 243 247.1 250 252.5 256.5 259.8 262.6 263.6 265.7 264.7 263.5 255 259.7 253.5 256.9 266.2 272.9 275.9 277.2 278.3 278.9 282.7 285.4 286.2 293 296.8 302.5 309.1 311.4 312.8 314.1 315.8 317.1 318.5 320.7 321.9 325.3 328.6 331.4 334.2 336.9 336.9 337 339.5 343.1 343.2 342.6 336.9 330.4 325.7 318.5 315.7 311.9 311.1 310.4 306.1 310.4 312.2 316.7 325.2 333.7 342.6 358.2 369.9 376.5 384.9
389 381.8 374.4 369.2 363.8 358.4 352.8 348.6 343.1 337.7 331.6 326.2 317.1 306.6 296.2 287.2 279.3 275.6 273.3 268.1 261.6 254.4 247.8 247.6 240.1 249.5 267.8 279.4 285.5 294.5 301.6 318 327.5 332.8 338 345.7 353 361.6 371.3 380.9 391.6 408.1 424.3 430.7 432.8 434.2 434.3 431.4 430.8 430.2 429.7 429.8 428.4 428.1 428.3 429.2 427 424.1 423.1 421.9 419.4 417.5 416.2 414.5 412.7 410.4 408.6 407.9 406 403.6 401.5 398.6 399.7 399 397.6 394.6 391.5 388.4 383.3 377.8 375.3 370.6 364.9 359.2 353 348.9 344.7 340 336.2 333.3 327.6 317.7 316.3 308.8 313.7 302.7 299.8 300.3 303 301.3 297.6 295 294.2 291.6 286.2 280.5 276.3 274 272.1 265.3 257.6 250.5 239.9 234 234.2 226.7 226.8 226.7 224.8 220.7 217.8 215.8 214.7 208.2 207.3 207.4 206.8 206.5 209.6 217.9 221.8 229.9 240 244.8 248.6 252.3 257 260.3 263.8 267.5 269 272.2 274 273 267.8 267.9 266.1 250.4 264.3 272.1 276.6 277.6 280 280.8 282.3 286.4 289.5 293.6 293.8 303 308.6 310.9 312.1 313.4 315.4 317.7 320 322.3 325.2 327.5 329.7 332.6 335.6 338.8 342.4 341.2 346.6 352 354.3 354.6 351.3 344 335.7 328.7 323.8 319.7 316.9 314.3 312.9 310.9 313.1 315.6 319.7 326.6 337.1 348.3 366.5 372.5 378 386.3
383.5 377.3 370.5 365.2 359.8 354.1 348.9 339.8 337.5 332.4 325.7 318.3 308.8 293.7 293.4 291.9 287.5 281.5 276.4 273.7 268.9 258.7 255.2 244.1 240.7 257.3 269.6 280.6 288.2 300.2 315.3 324.2 331 336.4 343 350.5 360.3 371 380.8 391.3 404.1 412.8 424.4 430.6 433.4 434 433.9 431.1 429.9 429.3 429.1 428 425.7 423.3 423.9 424.5 423.7 421.9 420.2 418.3 416.4 415.5 414.4 413.4 411.5 409.8 408 406.3 405.4 402.9 400 396.8 396.4 395.2 393.5 389.7 385.1 378.6 373.8 360.8 366.2 360.4 354.2 350.4 346.5 342.9 338.7 334.5 328.7 327.3 322.9 314.9 316.9 317.9 315.5 311.8 308.5 304 294.1 292.3 294.5 293.1 288.2 285.8 286.7 282.8 275.1 263.7 261.4 253.8 246.6 238.5 238.5 239.4 235.4 230.2 228 223.8 221.1 217.9 217.1 215.3 210.6 209.2 208.1 205.9 207.9 213.2 220.4 224.7 233.7 242.6 247.6 251.5 254.8 260 266.2 270.6 273.5 275.3 276.3 278.4 278.3 276.1 262.9 271.9 264 250.4 267.9 276.1 277.8 280.5 282.8 284.6 286.6 289.6 293.1 297.5 301.5 306.8 309.6 311.8 313.1 314.8 317.7 320.6 323 326.4 329.6 332.6 334.4 337.9 342.1 346.4 350 355.2 360.6 368.8 370.7 368.1 360.9 353.3 343.5 336.5 333.4 327.4 325.4 319.7 318.1 315.6 311.6 320.1 321.5 329.6 341 355.8 368.8 373.4 379.1 386.2
378.7 372.2 366.7 361.2 355.2 349.2 343.4 337.3 333.1 326.5 318.1 306.2 296.3 299.5 297.8 294.7 288.7 282.4 277.6 274.2 265.5 258.5 249.6 243 252.2 263.6 278.8 285.9 291.8 310.8 324.6 330.6 336 342.4 350 357.1 366.6 377.3 386 395.7 410.5 418 427.4 433.1 432.9 432.2 432.5 431.8 430.9 428.1 427.8 429.6 424.8 423.2 422.8 425 421.2 420.1 418.9 417.4 415.6 413.4 412.8 412 410.8 409.3 407 404.4 402.3 400.3 397.5 393.6 389.4 384.7 379.1 374.3 370.5 368.1 364.5 359.8 355.4 351.5 346.9 342.5 337.2 334.9 331.1 327.8 322.8 318.3 318.8 320.2 320 317.7 315 311.7 308.3 302 300.1 301.9 297.6 296.2 293.3 290.3 286.7 281.5 275.5 269.9 258.7 248.4 244.7 243.9 240.8 237 233 230 227.2 223.3 221.2 216.7 214 214.4 211.9 210.1 208.5 206.6 216.6 223.8 228.6 238.3 247.4 252.8 255 260 265.4 269.5 274.8 277.8 279.4 280.1 281.1 281 279.7 266.4 276.2 272.6 259.9 256 273.4 276.3 279.5 282.7 285 286.9 289.1 292.8 296.8 301.1 306.1 310.1 312 312.6 314.5 317.2 320.9 324.7 326.9 330.6 334.7 337.4 340.8 344.6 350.7 355.1 363 373.4 379.1 381.1 381.3 378.8 374.1 370.1 354.9 347.7 344.4 341.2 336.9 331.9 326 322.2 316.8 322.9 325.7 333.1 343.7 361.4 369.7 373.7 379.5 386.8
372.5 367.8 363.4 358.3 350.8 345 332.5 326.2 317.1 310.5 307.6 309.5 308.7 304.7 299.3 295.1 289.2 282.7 277 271.6 263.6 256.6 246.6 246.3 260.7 276.7 285 291 302.7 322.8 330.5 336.5 342.1 348.7 357.1 364.4 374.7 383.7 390.6 403.7 416.2 423.4 430.4 435.1 435.2 433.1 433.1 432.5 430 427.7 427.5 424.5 424.1 422.3 421.3 420.5 419.1 419 417 414.6 412.4 410.7 409.3 408.1 406.9 404.1 402.1 399.6 393.7 390.1 384.8 377.9 368.2 367.2 365.4 362.1 358.4 354.8 351.2 348.2 342.7 340.8 338.9 335.2 332.6 328.9 326.3 322.5 321.3 322.3 322.1 320.9 319.7 316.5 312.3 309.2 301.1 303.2 303.1 298.7 297 295 291.2 287.1 282.6 277.4 271.5 266.4 261.3 255.3 248.5 243.1 238.4 234.7 232.1 227.7 224.6 221.3 219.7 219.9 219 217.8 211.4 210.5 206.6 222.5 226.3 232.7 242.9 252.3 257.3 260.4 264.6 269.5 274.2 277.9 280.8 282.6 283.6 283.7 282.4 280.9 270.7 279.8 278.6 273.6 259.8 256.7 273.9 278.1 281.3 284.4 286.7 289.2 291.4 296 300.6 305.7 310.7 313.6 314.6 313.8 316.4 319.8 323.7 327.9 331.1 334.9 340.1 344.4 347.9 353.3 361.3 370.8 384.3 389.8 391.3 390.7 389.2 387.5 383.6 381.1 374.5 370.4 359.8 346.5 351.7 343.3 341.8 336.1 327 321.2 330.2 333 345.2 366 369.8 374.2 380.1 387.2
