ncols 200
nrows 90
xllcorner 280000
yllcorner 182100
cellsize 50
105.7 112 108.9 102.3 89.2 67.9 44.1 50.6 68.5 80.6 97.2 104.5 109.3 109 89.5 85.6 104 114.4 119.2 123 126.7 131.7 136.7 138 139.1 141.3 148.6 160.2 172.6 180.4 185 187.9 190.3 191 191.7 192.7 194.2 196.5 200.1 203.1 207 210.2 212.9 215.1 218.5 223.5 227.7 230.5 234.2 240.8 245.9 250 252.6 258.2 262.6 266.1 268.2 269 267.6 264.7 262.1 260.2 258.2 255.2 251.4 243.9 236.7 227.7 220.6 215.4 211.3 206.2 202.5 200.7 197.7 192 182.8 168.7 152.9 151.9 175.7 204.7 230.5 253.6 267.4 272.9 275.2 275.1 272 267.9 261.7 255.1 247 239 231.1 224 216 209.7 203.6 198.1 190.9 182.1 192.9 197.4 201.1 203.9 205.8 210.3 211.6 215.1 219.6 224.6 228.6 231.6 234.2 236.1 237.3 237 235.8 233.1 228.8 223 218.3 222.7 225.8 227.8 228.7 228.3 225.6 220.3 213.8 208.3 202.7 198 192 186.3 178.2 169.6 154.7 135.9 127.2 124.9 124.4 135 146.9 155.3 161.2 165.1 166.3 166.2 164.8 163 159.1 155.8 150.3 143.4 133.1 121.7 110.5 111.9 114.4 116.6 121.4 125.6 130.6 130.5 128 124.5 120.8 117.8 113 102.9 89.5 89.6 87.7 77.2 67.2 61 61.8 62 61.6 61.2 62.1 63.9 66.5 69.1 71.6 75.2 79 81 86.6 89.3 96.2 101.7 106.2 111.1 116.8 124.2 129 131.5
84.8 97.3 102.3 95.8 75.2 56.4 43.4 50.9 64.3 77.8 94 106.5 112.5 113.1 93.2 79.4 89.6 104.6 113.7 126.2 124.6 136.3 144.3 147.4 149.2 150.5 155.1 159.9 167.2 178 184.5 188.4 191.4 193.5 194.8 195.6 196.3 197.2 198.3 199.7 202.8 206 208.6 210.4 212.4 214.1 216.9 220.3 225 228.9 233.1 239.5 248.7 256.3 261 264 265.3 265.9 265 262.1 258.9 255.4 252.8 249.9 247 243.7 236.7 228.2 217.2 200.4 198.7 194.5 189.5 188.1 186.3 180.7 172.5 158.7 142 155.1 177.7 204.6 229.6 251.4 264.9 270.2 273.9 274.3 272 268.2 263.5 258.6 253.4 246.1 239.5 232.5 226.6 220 214.5 207.8 199.4 188.8 178.6 184.6 188.6 190.7 193.5 197.8 204 208.2 210.8 215.7 221.8 226.7 230.7 233.1 234.6 235.1 234.5 232.2 229.8 226.5 224 225.4 227.9 229.8 230.2 229 225.5 219.8 212.2 205.8 199.1 193.2 187.2 180.9 174 162.4 148.3 132.3 125.1 124.1 124 124.7 139.9 154.7 163 168.6 170.9 170.9 170.3 168.5 165.7 162.2 156.6 149.4 137.9 124.5 116.3 116.5 118.9 126 131.8 135.1 137.2 138.1 136.5 132.5 131.1 128.2 122.1 105.7 98.4 101.5 97.7 88.6 77.9 68.3 61.9 61.5 61.1 60.9 60.4 63.6 68.3 74.1 75 75.3 75.6 77.7 82.1 89.1 94 98.9 105.5 110.3 115.1 121 126.4 129.9
66.2 77.2 85.7 78.7 63.1 44.4 43.4 52.5 61.3 72.1 85.2 105 114.6 119.3 96.1 78.2 82.9 93.7 104.3 114.6 123.5 126.6 147.6 155.4 157.7 159.7 162 163.7 168.3 173.1 180.1 186.6 190.1 192.7 194 194.4 194.3 194.5 194.9 196 197.7 200 202.2 204.6 206.6 208.5 209.6 210.5 211.7 215.5 223.4 236.6 247.6 254.5 258.9 261.4 262.8 263.2 262.3 260.1 256.4 252.2 247.2 244.2 242.1 238.8 236 229.1 219.6 203.2 188.7 174.2 174.3 175.4 175.3 169.8 160.7 148.8 142.6 160.9 181.7 206.7 229.7 250.5 261.7 267.4 270.6 272.3 271.7 268.1 264.6 260.7 255.7 250 243.9 237.8 231.8 227.6 223.3 217.5 210 200.2 188 178.3 174.1 170.8 171.1 179.5 191.2 192 194.9 201.8 209.6 218.2 224.5 228.6 230.6 232.2 232.3 231 229 228 227 227.5 229.3 230.6 230.4 228.9 224.7 218.4 210.2 202.5 193 184.6 180 173.8 162.5 150.8 138.8 125.7 124.2 125 123.5 122.4 129.6 147.3 162.8 169.7 173.4 173.8 173.4 171.9 170.2 166.7 161.3 153.7 142.8 128.2 122 122.2 122.6 132.8 140.8 143.2 145.5 143.7 142.1 139.9 137.4 134.3 123.3 108.8 111.4 117.1 113.8 105.2 93.6 79.9 68.6 60.4 60.5 60.5 59.9 60.8 67.9 71 68.9 74.1 78.9 83.9 87.5 91.9 97.5 102 106.5 110.7 115.3 119.9 124.4 127.8
50.1 54.2 58 55.6 46 43.4 43.4 53.1 59.7 64.5 73.1 85.8 100.8 106.6 90.8 75.7 81 91.4 99.3 104.8 116.2 117.5 132.9 146.6 157.7 164.3 167.5 171 172.9 174.4 178 182.3 187.1 188.4 189.9 188.9 188 187.9 186.3 186.6 186.8 189.7 193.5 196.7 198.3 200.2 201.6 201.7 201 210.2 222.5 233.6 244.6 252.1 256.4 259 260.3 260.8 259.7 257 253.2 247.9 241.7 237.6 236.8 234.7 232.2 227.8 221 212.2 194.2 178.6 158.5 158.3 160.5 155.5 146.1 134.1 149.3 169.1 186.8 210.6 233.7 251.9 258.7 264.1 267.1 269.4 269.5 267.2 264 261 256.4 251.4 246 240.6 234.9 230.4 226.3 222.3 216.2 207.8 198.7 187 178.1 170.3 160.1 164.1 171.1 169.3 175.2 185 200.3 211.8 218.9 223.4 226.8 228.5 228.8 228.1 227.1 227.6 227.9 228.9 230.4 231.3 231 228.9 225 218 209.8 198.3 183.3 172.1 165.4 161 149.7 135.1 127 127.7 132.6 135.2 131.6 126.5 123.1 141.3 160.7 170.5 174.9 176.5 176.4 175.1 172.9 169.3 162.2 153.9 145.5 133.6 123.1 122.8 122.4 135.1 147.9 151.4 154.2 153.4 151 147.7 144.1 139.3 125.3 120.5 126.5 130.6 129.3 119.7 108.3 94.9 81.3 70 63.6 60.5 59.7 59 61.6 66.9 76.1 82.4 86.8 90.5 94.6 98 102.6 106.7 110.7 114.2 117.3 120.6 124.1 127.1
36.5 37.1 39.5 40.6 41.7 43.4 43.4 52.6 57 60.8 64 71.8 80.4 83.4 78.6 71.4 78.7 88.8 95.4 97.4 101.9 105.1 113.2 124.6 133 146.3 158 168.6 175.6 176.9 178.2 180.6 181.4 179.2 176.2 173.9 167.8 163.1 160.3 159.9 164.9 171.6 179.1 184.8 189.2 191.1 190.2 192.5 202.9 209.5 217.3 229.1 238.1 248.4 253.6 256.1 257.7 258 257.1 254.3 249.9 243.7 236.4 230.5 230.4 229.8 227.2 224.2 219.1 212.6 199.6 178.8 157.1 138.4 144.6 139.9 131.6 145.2 157 177.4 192.6 213.7 237.6 251 257.6 261.5 264.3 266.6 267.4 266.3 263.3 260.4 256.6 251.7 246.4 241.1 236.6 231.8 227.5 222.5 219.2 212.3 203.1 194.7 186.7 177.6 163.1 149.9 166.5 177.8 188.7 191.4 187.9 200.2 212.6 218.5 222.8 224.6 224.9 225 224.9 225.7 227 228.5 230.3 231.2 231 228.2 223.1 215.9 206.6 194.3 177.3 164 153.3 146.8 135.4 133.1 137.8 142.9 146.9 145.1 140.5 133 125.2 140.5 159.7 170.1 176.1 177.9 178.6 177.2 174.7 169.5 163 156.1 147.6 137.2 123.3 122.9 122.4 136 152.6 159.2 162.5 162.7 160.3 155.7 151.1 146.2 137.7 136.4 142.6 144.6 141.1 132.6 122.8 110 94.3 82.2 71 64.8 60.2 59.7 60.2 68.3 77.5 84.2 88.7 93.2 98.1 102.2 105.9 109.8 113.6 117 119.6 122.2 124 126.6
32.8 33.9 35.7 36.8 37.4 39.5 46.8 51.6 55.3 59.1 59.7 61.3 65.3 68.3 68.3 68 73.2 84.1 90.6 91.7 94.4 97.8 101.2 105.8 114.3 125.6 131.5 139.7 150.3 160.9 171.6 176.5 177.9 176.8 173 168 160.4 150.9 146.1 147.3 150.9 156.3 163 167.5 176.3 185.7 194.2 200.3 204.6 209.5 214.5 220.7 231.7 240.3 248.2 253.2 254.9 255.1 254.7 252.2 249.2 242.3 234 222.2 220.7 222.7 220.6 215.8 209.2 203.8 186.6 168.5 149.5 135.3 130.6 135.3 147.5 160.6 172.6 185.5 198.8 217.6 237.8 248.7 254.4 258.6 261.5 263.8 264.8 264.6 262.3 259.3 255.9 251.4 246.4 241 236.3 231.7 226.5 220.6 215.4 211.5 204.2 194.1 185.9 172.6 157.7 151.9 172.4 190.6 201.2 206.6 206.1 202.4 203.7 212.9 217.6 220.2 220 220.2 221.7 223.9 226.3 228.1 229.9 230.7 230.1 227.2 221.2 213.5 203.4 187.1 169.8 157.6 144.9 139.3 142.7 147.7 151.9 156.8 159.1 155.7 148.1 140.5 128.3 143.6 160.5 170.3 175.5 179.5 180.4 179.2 175.7 171.6 165.6 157.4 146.2 133.1 123.4 123.3 123.6 141.3 156.8 163.8 167.3 167.4 165.4 161.5 157.7 153.4 151.6 152.8 153.7 152.8 147.2 141.4 133.9 122.7 108 90.4 80.2 70.2 61.6 58.8 59.2 62.1 70.6 79.2 87.1 92.5 97.4 102 106.3 110.2 113.4 116.3 119 121.1 122.6 124.4
31.3 33 34.3 34.7 35.2 39.3 45.6 49.7 53.6 58.3 58.3 59 60.1 61.9 63.4 63.7 68.8 80 84.6 87.3 91.8 92.8 95.8 97.8 100.2 107.2 112.1 119.3 125.5 135.7 145.1 152.6 159.2 163.7 166.9 161.1 143.7 131.5 127.7 144.4 148.4 150.8 160.5 171.2 185.9 193.2 198.3 202.5 205.3 208.9 212.7 216.8 222.3 231.1 239.8 245.3 249.5 251.7 251.4 250.4 248.4 244 236.5 220.3 208.6 207.7 205.1 200 193.2 187.9 171.4 154.2 137.7 126.1 134.2 150.5 166 176.2 186.5 196.8 206.2 219.8 235.3 244.9 250.5 254.5 258 260.8 261.9 262.3 260.6 257.5 254.6 250.5 244.7 238.9 234.2 228 222.1 215.3 210.8 205.9 197.8 188.2 173.6 155.7 142.2 161.8 179.8 197.7 208.7 214.4 217 216.6 212.3 209.1 210.1 215.8 219.1 223.4 225 225.8 226.3 227.6 228.6 229.5 228.6 225.1 219.2 210.9 196.1 176.8 161.8 147.2 147.9 149.1 156.7 162.5 165.8 168.9 169.4 166.8 156.6 145.9 133 146.9 161.5 172.4 178.4 181.4 182.2 180.6 177.1 171.5 164.5 152.8 139 126.7 123 122.9 133.9 151 163.3 168.9 172.1 172.3 171 167.3 163.5 159.7 157.1 157.8 158.1 157.2 154.1 149.2 142.2 133 119.4 106.7 93.6 78.5 66.1 58.7 59 59.4 64.5 73.3 83.5 90.3 95.2 99.5 103.8 107.7 110.7 113.3 115.5 117.5 119 120.1
30.5 33 34.3 34.3 35.2 39.7 45.1 49 52.3 55.1 55.8 57.3 58.1 58.8 60.5 62 64.9 73.2 82.3 85 87.9 91.4 92.2 93.1 95 97.1 99 104.1 109.8 116.1 121.4 128.3 131 132.1 133.4 133 126.8 117.3 135.9 154.5 159.9 161.9 166.2 173.7 183.1 192.3 197.2 200.5 203.6 206.7 209.4 213.7 217.9 221.8 227.7 236.5 241.2 244.5 247.2 248.1 247.3 244.2 239.1 227 208 186 183.3 183.1 178.6 169.3 155.7 140.6 124.9 130.3 147.8 165.8 181.5 191.2 198 207.4 214.1 221.8 231.3 239.8 245.8 250.5 254 257 258.6 259.7 258.6 256.8 253.9 250.6 246.1 240.1 234.7 227.3 219.2 209.1 203 196.7 186.6 171.5 152.5 137.5 156.3 166.1 186.5 202.7 214.4 220.4 223.3 224.7 224.3 221.8 220.2 223 224.6 226.8 227.1 226 226.2 226.5 227 227.6 226.3 222.5 216.3 207.2 188 169.9 157.8 154.9 157.8 157.9 167 174.3 178.4 180.5 181 176.7 165.9 153.1 139.3 149.7 165.2 176.1 182.1 184.7 184.2 181.9 177.4 169.6 159.7 146.3 131.4 122.7 122.5 132.3 145.5 161.8 171.8 175.4 176.9 177.5 175.3 172.3 169.2 165.7 163.6 163.3 161.9 160.2 157.4 153.9 147.6 138.3 129 120.2 108.3 92.9 73.8 56.9 58.6 59.1 60.7 68.9 80.9 87.8 92.5 96.3 99.5 102.9 105.6 108.1 109.9 111.7 112.7 113.4
30 31.2 32.2 32.7 33.5 37.6 42.8 47.5 50.7 52.4 53.8 55.4 56.5 57 58.6 61.5 61.4 66.7 74.6 81.2 84.3 85.4 87.7 89.8 91.7 92.1 94.1 97.6 99.2 101.9 105.4 110.2 114.4 115.3 115.1 113.3 110.5 109.1 118.8 136.8 152 162 166.3 172.6 177 182.3 190.3 195.7 199.3 202.8 206 210 213.8 217.6 221.2 224.4 231.9 236.8 240.2 242.6 243.6 242.8 238.9 232.7 218.5 199.8 180 160.3 156.4 151.2 140.7 127.8 123.2 139.6 158.3 177.1 190.4 199.2 203.8 211.6 218.1 224.4 229.7 235.4 240.6 244.4 248 251.4 254.6 256.4 256.4 254.6 252 249.3 246.1 241.4 236.1 229.1 219 209.1 196.9 181.7 168.8 151.1 136.8 151.2 164.3 180 193.4 207.8 219.3 225.4 228.5 229.7 229.8 229.2 228.6 228.5 228.9 229.2 228.4 227 224.8 224.1 224.1 224.8 223.3 218.8 212.5 200.7 182 168.1 160.7 163 167.9 169.2 176.4 183.6 188 189.3 188.8 184.1 176 160.8 145.2 150.5 167.1 179.5 185.8 188 186.4 183.3 177.8 167.9 153.2 139.2 125 125.4 132.7 144.8 158.8 172.4 179.3 181.6 182.3 181.9 179.5 176.7 173.6 171.4 169.5 167.4 164.8 162.5 159.9 155.7 150.3 144 137.8 128.4 115.6 100.6 77.5 65.3 58 58.8 60 64.8 76.4 84.4 89.3 92.4 95.5 97.7 99.7 101 102.7 103.8 104.6 105.4
29.3 30.1 30.8 31.4 32 34.7 41 46.6 50.2 52 53.3 54.4 55.2 55.7 57.4 58.5 59.6 60.7 66.4 72.7 76 77.5 80.9 84.7 87.7 88.2 88.8 92.6 94.3 95.1 97.5 102.2 103.8 104.3 102.9 101.3 102.9 103.3 107.3 115.9 127.7 141.5 157.7 166.1 173.8 176.2 179.8 183.2 189.2 194.4 199.8 204.3 209.3 213.2 216.8 220.2 223.6 226.2 230.6 234.9 236.5 236.5 235.2 231.4 223.9 213 194.6 177.1 161.8 144.2 127.9 117.8 126.8 147.7 165.9 183.6 194.4 200.8 206.4 212.8 218.3 223.6 228.3 231.9 235.7 238 240.1 241.7 244.5 248.2 250 249.6 248.3 246.2 244 239.7 234.9 228.4 218.2 206.7 192.8 172 150.1 135.2 143.7 158.6 175.9 189.7 201.2 212.4 221.8 229.2 232.7 234.5 234.4 233.8 233.4 232.9 232.1 231 228.9 226.4 222.2 219.1 219.5 219.9 217.9 213.4 207 194.9 179.7 172.8 171.1 172.7 177.9 181.3 186.2 192.9 196.5 197.2 195.1 191.3 183.3 166 150 152.2 169.3 183.8 189.5 191.4 188.6 183.4 177.8 167.8 149.2 133.9 133.4 140.7 146.3 156.5 171.2 181.5 186.3 186.8 186.8 186 183.4 180.3 177.3 175 172.2 169.1 166.4 163.2 159.7 155.6 152.2 147 140.6 130.7 119.1 105.7 87.1 74 58.5 58 59.8 63.2 71.1 79.7 84.6 87.8 90.4 92.3 94 94.4 94.9 95.9 96.2 94.2
28.4 29.5 29.8 30.3 30.7 32.4 40.4 45.4 49.5 52.8 54.4 55.2 55.2 58.1 58.1 56.3 58.2 58.4 60.1 65.6 69.3 72.8 76.4 79.9 81.8 83.6 84.1 84.4 86.9 88.3 91 95.3 97.6 99 97.3 96.3 97.5 98.6 101.4 105.3 113.5 122.7 132.7 145.2 160.2 167.4 175.3 176.8 179.7 184.2 189.9 197.1 202.2 207.2 211.8 215.6 218.3 220.3 221.8 223.8 227.4 228.9 227.8 224 218.8 211.3 201.8 182.6 164.2 148 129.3 114.2 127.4 148.3 169.2 183.9 193.2 200.2 206.8 212.2 217.5 221.6 225.6 228.5 231.1 232.4 233.5 234.1 234.4 235.2 237.2 239.7 240.2 239.9 238.8 236.2 231.7 224.1 213 200.3 185.8 165.1 139.8 135.4 149.2 165.2 183 195.9 204 214 222.8 229.8 234.2 237.5 238.3 238.1 236.7 234.9 232.8 230.8 227.6 222.3 216.8 213.4 214.5 214.4 212.6 208.9 203.3 195 188.6 185.6 183.3 183.5 187.2 191 194.8 200.4 204 204.7 202.6 198.6 189.7 169.6 155.6 157.1 172.5 187.3 193.6 194.8 192.4 187.1 179.3 166 146.7 133.5 145 153.7 159.7 169.8 182.1 189.5 192.8 193 192 189.4 186.6 182.9 179.7 176.6 172.9 169.6 165.7 162.1 157.4 152.7 147.8 142.4 136.3 127.4 115.7 103.6 92.9 75.3 59.2 57.1 58 61.8 67.7 74.4 79.1 81.8 84.1 86.2 86.5 86.3 86.9 87.2 85.7 93.2
29.2 28.9 28.6 28.3 28.6 30.2 39.2 44.4 48.1 52 54.4 56.9 57.8 56.5 58.1 58.1 58.1 56.7 57.6 60.8 66.2 69.5 73 75.5 77.5 79.4 80.1 81.7 83.5 84.4 85 86.3 87.7 90.3 91.7 92.2 93.8 95.5 97.9 101.3 106.3 111.4 118.5 126.3 137.8 149.8 161.6 170 173.5 176.7 180.8 186.2 193.2 200 205.8 209.9 213.1 215.8 217.5 218.3 218 216.8 215.5 212.3 208.5 203.1 193 169.6 155.4 142 122.7 113.5 122.9 140.9 163.9 180 189.3 198.4 205.2 211.3 215 219.1 222.3 224.8 226.4 227.7 228.5 229.2 229.5 229.9 230.1 230.7 232 233.1 232.2 229.9 224.4 216.7 205.1 193.1 178.1 156.3 127.8 137.4 150.1 165.4 183.2 196.8 205 214.2 221.9 228.8 233.5 237.5 240 240.3 238.5 235.6 232.9 230.2 226.8 220.6 214.7 204.2 207.7 208.8 208 206 202.5 199.6 196.6 195.3 194 194.2 196 198.8 202.5 206.9 210.9 212.1 210.5 206.3 196.9 176.4 162 161 175.8 188.3 196.1 198.1 196.2 191 182.3 162.8 144.3 143.5 153.1 162.9 170 181.2 190.7 196.2 198.6 198.2 196.1 192.8 188 183.7 179.9 175.9 170.9 166.5 161.6 156.9 150.6 144.1 137.1 131.9 124.6 116.7 109.2 102.4 93.4 77.3 59 57.1 55.3 57.2 64 68.4 71.9 75.3 77 78.9 79.1 78.2 79 79.5 85.7 92.7
32.7 28.4 26.9 26.8 27.9 30.3 36.5 41.5 46.4 50.9 53 55.8 59 59.2 58.1 58.1 58.1 55.2 55.9 58 61.9 66.7 69.4 72.3 74 75.8 79.2 81.5 83.1 83.4 83.4 83.4 83 84.1 86.4 88.5 90.5 92.6 95.1 99.3 102.9 105.5 109.3 114.8 119.7 128.4 141.4 153.7 164.6 169.3 173.4 177.3 182.3 190.7 197.8 203.8 208.1 211.5 214.1 214.6 213.8 211.5 207.6 201.7 196 189.4 179.2 162.8 147.3 131.8 115.8 111.5 119.9 131.6 149.3 169.5 184.4 193.5 201.9 208.6 212.6 215.5 218.1 220 221.7 223 223.2 224.4 225.1 225.1 224.4 224.6 225.3 226 224.2 221.4 215.8 209 200 189.2 172.8 149.8 125.7 136.8 150 162.6 176.1 191.1 203.3 212.3 220.1 226.6 231.5 235.6 238.1 238.7 238.3 236.3 233.9 231.1 227.5 222.9 216.3 202.3 193.8 197.9 201.3 199.9 198.2 197.8 197.9 199.2 200.1 201.4 203.8 207 209.9 214.3 217.7 219 218.7 214.6 206.6 186.9 170.9 164.4 178.9 192 199 200.4 198.3 192.7 179.1 159.8 144.1 154.4 162.5 170 180 190.5 198 201.3 203 202.5 199.7 194.8 189.3 183.4 178.3 173.5 167.9 161.8 155.6 148.4 139.9 131.2 124 118.3 113 109.3 104.3 98.6 90.5 74.8 60.4 56.9 56.5 54.2 62.8 66.2 67.6 67 68.9 70 70 75.3 79.8 82.9 89 95
34.6 29.6 26.1 25.9 26.8 29.1 33.9 39.2 45.5 49.9 51.6 54.2 57 59 57.7 58.1 52.4 54.1 54.4 55.7 57.5 63.2 66.3 66.7 67.7 70.9 75.1 76.8 80.4 80.7 82.3 82.6 81.9 81 83.1 85.7 87.8 90.1 92.5 96.2 99.9 102 104.9 106.9 110.3 115.5 122.4 132 143.1 153.9 164 169.7 176.5 182 189.4 196.3 202 206.5 209.4 210.2 210.2 208.9 204.7 197.7 190.5 180.5 170.5 156 146 134.2 119.8 109.3 116.2 127.8 138.4 155.5 177.1 190 198.1 203.7 207.5 210.4 212.7 214.3 215.1 216.1 217.7 218.3 219.2 219.2 219 219.4 219.9 220.6 219.4 217.3 212.8 207.5 199.6 188.8 171.1 151.2 128.7 131.1 143.1 153.5 166.6 179.9 195.4 208.6 217.2 223.1 228.5 232.6 234.5 235.2 235.4 234.3 232.7 230 226.4 222 216.2 207 189.2 178 188.8 192.8 192.2 193 195.4 198.3 201.8 205.5 209.3 213.9 218.2 221.9 224.3 225.8 224.9 222.3 216.8 200.7 182.8 171.9 186.7 199.5 202.9 201.2 197 188.2 174.9 155.3 158.7 166.5 173.7 179.1 190.1 198.3 204.7 207.4 207.8 206.8 203.3 197.1 190.1 182.7 175.3 169.3 162.7 156.1 146 136.6 126.6 116.9 111 106.9 103.9 100.4 96.9 93.5 80.1 67 60.6 56.8 56.6 53.3 65.7 71.8 76.4 76.2 75.9 75.6 77.2 81.2 85 89.1 94 98.4
33.9 28.9 25.4 24.8 24.8 27.4 31.2 36.2 42.5 47.4 50 50.8 52.5 53.8 55.4 55.2 53.4 53.2 53.1 54.1 54.8 57.1 60.4 62.2 63.4 65.7 68.6 72.2 74.9 76.2 76.7 78.7 79.1 78.2 80.8 82.9 83.9 86.3 89.3 93.7 97 99.2 100.3 101.9 105.8 108.4 113.1 120.3 127.7 135.8 147.7 158.4 168.3 176.2 180.8 185.3 193.8 200.2 203.6 205.3 205.9 205.2 202.8 198.6 192.2 184.7 174.9 164.2 156.2 149 133 106.5 108.9 120.7 134 146.1 164.7 180.3 190.2 197.5 201.5 204.2 206.3 207.8 208.5 208.7 210.6 210.7 210.7 212.8 212.9 214.7 214.9 214.9 214.8 213.2 209.4 206.1 197.2 185.4 169.7 153.8 135.7 123.1 133.4 146 158.4 171.7 184.5 200.2 209.9 217.2 223.1 226.8 229.2 230.5 230.3 229.6 228.7 226.3 223.9 219.9 215 207.6 193 170.6 173.6 179.1 178 182.2 189.5 195.3 200.3 206.8 212 217.9 223.6 227.9 230.5 231.1 230.7 228.9 224 215.1 199.3 190.8 197.4 204.2 202 198.9 192.8 184.4 170.2 161.4 171.6 180.2 184.4 190.6 198.6 205 210.2 212.9 212.7 210.4 205.5 197.6 188.9 180 169.9 162.3 155 146.1 135.4 125.3 114.4 106 100.1 97 95.1 90.6 85.7 76.2 67.4 61.8 58.3 56.6 55.7 57.7 66.2 73.7 82.6 84.8 84.2 83.8 84.3 86.5 90.2 94.1 98 102.1
31.1 27.9 25.3 23.7 23.5 26 29 33.8 39 42.5 46.4 47.5 48.4 50.1 52.5 53.6 53 52.7 53.3 53.6 51.8 54.6 56.9 59.1 60.5 62 64.4 67.9 71.1 72.5 72.7 73.4 75 77.3 80 79.8 80.4 82.8 86.2 90.4 94.1 96.3 97.7 99 100.8 103.7 106.5 111.4 116.3 121.6 128.9 139.3 153 166.9 175.3 179.2 181.1 187.3 194.1 197.4 199.5 199.8 199.7 197.2 193.8 189.1 181.9 175.3 166.4 159.1 145.6 124.5 101.6 112.2 128.1 141.4 155 169.3 181.4 187.2 193.1 195.8 197.4 198.3 198.1 199.3 200.4 200.8 202.3 204.3 205.4 207.1 208.7 210.3 210.1 209.3 207.8 204 199.4 189.9 177.4 162.2 142.3 127.7 125.4 138.6 150 162.8 173.9 187.3 198.3 207.4 214.5 219.4 221.8 223 223.5 223.5 222.7 221 218.7 214.3 209.5 202 193.4 175.2 161.7 165.7 170.7 176.5 182.5 190.1 198.3 206.8 213.8 220.7 228.2 233.4 236.7 238.4 237.7 234.9 231.3 224.9 213.6 209.4 208.6 206.4 202.5 197.8 189 177.5 177 176.9 176.8 188.9 193.9 200 205.6 210.3 214.2 216.9 215.8 212 205.9 196.7 187.3 175.1 163.1 155 147 137.7 127.4 117.7 108 98.6 93.2 88.7 83.7 79.1 74.8 68.5 63.7 58.1 56.5 55.7 55.1 56.4 66.5 77.2 83.4 87.6 89.5 90.5 90.9 92.5 94.7 98 101.3 105
28.2 26.8 24.6 22.7 22.3 24.7 26.7 30 35.3 38.1 41.8 44.6 45.4 47.3 49.4 50.8 52 52.2 53.1 53.4 51.4 52.9 55.8 56.9 58.4 60.2 62.5 64.9 66.7 68.1 69.9 71.5 73.8 77.7 79.3 78.8 78.2 80.4 82.5 85.1 89.7 93.7 95.4 96.1 97.2 99 101.7 105.6 109.3 113.1 116.8 123.3 134.2 149.1 163.9 172 175.7 177.9 179.6 183.8 189.3 192 192.8 192.4 190.3 188.4 186.1 180.7 174.6 167.9 155 136.6 114.3 104.2 118.1 134.1 150.2 161.1 169 174.9 180.3 183.7 184.9 185.3 185.2 186.5 188.2 190.5 191.4 193.7 196.5 198.7 202 204 205.9 206.3 206.3 204.4 201.4 196.3 184.8 170 150 138.3 117.7 127.8 137.3 149.8 162.9 175.5 183.8 191.7 199.3 205.1 209.2 211.2 211.1 211.9 211.2 209 204.5 200.6 198.2 194.1 185.8 168.5 153.2 169.8 182.4 189.5 193.6 198.2 202.6 208.3 216.2 223.9 231.9 237.3 241.6 243.5 243.5 241.4 238.8 234.4 229.3 224.2 220.3 216 210.2 200.8 196.1 196.2 194.4 196.5 192.8 197.2 202.4 207.4 211.2 214.7 217.4 217.8 216.4 212.5 205.7 195.5 183 169.5 157 146.5 137.8 128.9 120.6 111.3 101.2 91.8 87.2 81.4 75.4 71.6 68.8 66.4 59.3 56.8 55.4 55.1 53 56.2 64.9 72.5 79.2 85.4 90.5 93.2 95.1 97 99.5 101.1 103.4 105
26.1 25.5 23.9 22.2 21.3 23.2 25.4 28.4 32.5 35.1 38.5 41.2 42.8 44.6 46.4 47.8 50.6 52.7 52.9 51.6 51.4 53.4 54.7 55.8 57.8 59.6 61.3 62.8 64.7 66.9 68.7 70.1 71.7 75.1 77.6 76.6 76.4 78.5 80.6 82.9 86 90.5 92.5 92.9 93.8 94.9 97.2 100.5 104.4 107 108.9 113.1 118.8 128.9 140.6 153.2 165.6 170 173 172.7 176.6 180 182.8 183.7 183.9 183.2 183.2 181.1 177.5 171.2 160.4 143.3 120.3 101 109.5 124.6 143.9 155.7 162.5 165.8 167.3 169.5 170.6 170.3 168.7 169 171.5 174.2 176.4 181.9 187.2 191.2 194.4 198.1 200.8 201.9 202.5 202.8 201.4 198.4 192.9 180 161.6 146.5 132 115.7 125 135.6 148.9 162.6 173.9 179.4 182.9 186.6 188.4 189.2 189.8 189.5 188.5 186.1 183.2 180.8 178.9 175 166.7 153.3 152.8 173 188.9 197.6 202.8 205.8 209.4 214.1 220.3 227.6 234.4 240 244.3 246.6 246.8 245.7 243.5 240.8 237.3 233.6 229.8 224.9 216.2 208.4 212 212.3 210.3 210.3 207.5 206.4 210.8 213.8 216.6 219.1 220.5 219.7 216.8 213 204.2 191.9 178 166.1 152 138.6 128.2 120.1 110 99.2 94.5 87.3 80.2 74.1 69.4 65 63.7 62.6 57.1 57.4 54.9 55 55.2 61.2 66.9 73.6 78 84.7 90.5 94.7 97.9 99.3 100.8 100.7 100.8 101.2
25 24.4 23.2 21.7 20.7 23.4 25.1 27.4 30.3 33.1 36.4 38.2 40.6 42 44.2 47.3 50.6 51.8 51.4 52.1 51.4 51.9 54.1 55.6 57.1 58.5 60.3 61.9 63.1 65.5 67 68.5 69.8 70.8 72.5 73 74.6 76.7 79 81.3 85 88.3 89.2 90.2 91.2 92.4 93.5 96 99.4 101.3 103.5 108.2 110.6 114.8 123.4 133.8 143.6 151.8 158.9 163.3 165.9 169 172.7 174.1 175 175.8 176.4 175.3 172.8 168 157.3 137.6 122.1 106 104.6 117 136.5 151.5 157.4 160 160.7 160.6 160.2 158.7 156.8 155.2 155.9 156.6 160.4 165.9 174.9 182.4 187.5 192.6 195.8 198 199.4 200.3 200.2 198.5 196.4 190.7 176.3 157.6 145.7 130.5 115.7 121.7 131.6 149.2 161.7 168.9 172.8 174.2 174.3 173.8 170.2 168.9 167.7 164.7 164.7 163.1 162.2 159 153.3 145.4 153.7 177.1 192.1 202.3 208.5 212.5 216.7 221 227.1 232.2 238.3 242.8 246.4 249 248.9 248.3 247.3 245 241.7 238.3 234.3 229 220.4 221.2 223.9 222.9 221.7 219.4 217 215.9 218.1 219.5 221.3 223 223.4 221.6 217.9 212.2 201.9 189.7 176.4 161.3 147.2 134.2 121.9 115.6 112 106.6 100.1 92.2 85 79.4 73.9 70 65.8 62.2 56.3 60 54.7 54.7 60.3 67.6 72.1 79.2 84.9 89.9 93.9 96.7 99.4 101 99.8 97.9 96.2 94.7
23.7 23.7 23.1 20.8 22.1 23.5 25.4 26.9 29.1 30.4 32.7 35.7 38.3 39.9 43 44.8 47.6 47.3 49 51.9 52.7 51.4 54 54.9 56.3 57.8 59.1 61 62.7 64.7 65.9 66.9 68.1 68.9 69.5 70.8 72.7 74.9 77.2 79.4 82.5 85.5 86.5 87.6 88.7 89.8 91 92.1 94.6 96.6 98.9 102.5 104.9 107.3 114.7 120.9 126.3 130.4 135 141.7 147.7 156.2 163.2 165.6 167.1 167.6 167.3 166.2 162.8 157.2 148.6 136.7 123.1 108.9 101.6 112.6 130.4 144.9 151.3 153.7 155.2 155 154.4 152.5 148.8 145.2 143.4 146.1 149.3 155.5 164.4 173.7 181.4 186.9 191 193.9 195.6 196.9 197.2 197.2 196.2 192.6 187.4 172.9 157.1 145.2 131.3 115.9 121.6 135.3 148.6 157.2 161 161.3 160.6 157.3 154.2 152.4 153 152.9 153.1 153.2 153.1 150.4 144.8 142 156.6 177.1 193.1 203.8 211.5 217.2 221.7 226.4 231.3 236.4 240.6 245 248.5 250.4 251.2 250.6 249.3 246.8 244 241.4 238.1 233.4 227.9 230.4 231.2 230.7 229 226.8 224.6 222.5 223.7 224.8 226.2 226.5 225.4 222.9 218.4 212.4 204.8 193.3 178.5 163.9 147.6 133.7 129.2 127.8 121.9 112.1 102.2 94.2 86.9 81.7 76.1 70.6 66.5 62.4 54.8 54.5 54.1 58.7 69.5 76.7 81.6 86.6 92 96 99.8 103 102.8 101.1 99.2 96.8 94 92
21.4 21.9 20.1 19.1 20.8 23.5 25.2 26.5 28 29.3 31.2 33.2 35.7 38.3 41 42 43.4 46.1 48.6 52 51.9 52.3 53.1 54.2 55.7 57.1 58.5 61.4 62.4 64.1 64.7 65.5 66.5 67 67.6 68.9 70.8 73 75.3 77.5 79.8 82.7 83.9 85 86.1 87.2 88.3 89.4 91 92.7 94.8 96.5 98.3 101.7 108.2 115.4 118.3 120 123.2 126.6 131 134.2 140.9 154.7 157.9 158.2 158.7 158.2 155.3 152 146.4 137.8 123.9 109 98.7 112.9 128.3 138.4 143.2 146.4 146.1 146.8 145.9 142.9 137.1 131.8 132.5 138.6 143.6 150.3 157.9 167.8 176.2 181.7 185.8 188.7 190.3 192.6 193.8 194.4 194.2 193.3 190.4 182.6 172.9 159 145.3 129.6 110 120.6 130.4 143 145.3 146.7 144.2 138 135.7 135.7 136.1 137.3 138 139.7 138.9 137.3 141.8 153 156.3 173.7 189.9 199.9 209 217.7 223.7 228.6 233.3 238.3 242 245.2 248.1 249.9 250.7 251.3 250.2 248.3 245.8 243.1 240.3 236.6 235.1 235.1 234.7 234.1 232.5 231.1 230 228.6 228.8 229.3 229.7 229 226.7 223.9 219.5 213.9 206.6 195.1 180.8 166.8 151.2 138.3 139.9 136 128 115 103.7 96.3 89.1 82.6 76.9 71 63.5 61.1 53.7 53.3 55.8 69.1 79.4 86.7 91.2 95 98.6 102.1 105.2 106.8 106.1 104.4 102.6 99.9 96.8 93.3
17.7 18.1 17.7 18.6 21.5 23.7 25.6 26.5 27.3 28.4 29.7 32 34.9 37.8 39.8 41.3 43 46 48.9 50.9 52.9 51.9 52.6 53.6 54.8 56.6 60 63.1 62.9 62.8 63.3 64.1 64.7 65.3 66.1 67.5 69.2 71.4 73.6 75.8 78.1 79.7 81.3 82.4 83.5 84.6 85.8 87.2 88.2 90.2 92.3 93.4 95.2 96.9 100.1 106.8 111.5 114.9 118.4 120.9 121.7 122.7 124.7 129.2 136.3 141.7 145.9 147.8 148.5 146.6 142.1 137.4 121.3 105.1 95.9 110.2 125.2 132.6 136.2 136.8 137 136.7 133.8 128.8 122.9 128.7 138.6 144.8 150.3 154.3 158.4 166.1 172.2 177.8 181.4 184 185.8 187.4 188.8 190.4 191.1 191 189.4 186 181 170.3 157.3 142 125.9 113.2 108.1 115.6 131.6 129.4 122.9 117.3 115.9 116.6 119.1 122.4 127 131.6 139.8 147.6 154.5 164.5 169.9 168.4 182.1 192.1 203.6 215.3 223.3 229 233.6 237.7 241.6 244.8 246.9 248.4 249.2 249.1 248.4 247.5 245.4 243.5 241 238.6 238.7 238.4 237.6 236.8 235.7 234.2 233.1 232.6 232.9 232.7 232.1 230.6 228.1 224.8 220.1 215.1 207 195.9 182.8 168.3 154.1 149 147.7 140.6 129.9 116.8 105.8 97.8 90.7 83.4 76.3 69.9 64.6 54.6 51.1 53.2 63 77.1 86.9 93.6 98.4 101.5 105.7 108.9 110.4 110.2 109.1 107.3 104.8 102.6 99.5 95.7
14.1 16 17.4 19.7 22.4 24.1 25.7 26.2 26.8 27.7 29.5 31.5 34 35.8 38.3 41.5 42.3 44.9 47.5 50.8 53.8 52.4 52.7 53 54.1 56.9 60.1 61.8 61.3 61.7 62 62.5 63.1 63.6 64.8 66.5 68.1 70.2 72.4 74.6 76.2 77.5 78.9 80 81.2 82.8 84.4 85.5 86.5 88.3 90.1 91.5 93.3 94.4 96.2 99.6 104.2 108.7 112.7 115.9 116.7 117.7 118.6 119.8 122.2 124.3 126.4 126.9 125.7 125.6 124.8 116.5 105.8 98.1 93.6 103.6 117.7 126.2 130.5 131.7 130.9 128.9 120.9 114.5 123.1 134 142.4 148.6 154 158.3 162.1 166.1 170 174.2 177.6 180.1 181.4 182 183.2 184.6 185.5 185.6 184.8 184.3 181.7 176.2 165.4 150.2 136.4 123.5 110.1 103.9 109.1 111 106.4 116.4 124 129 135.3 144.4 149.5 153.7 159.6 163.8 166.9 177.1 181.8 183.1 183.1 190 196.7 208.9 218.3 226.1 232.1 236.3 239.4 241.8 243.5 245.1 245.6 245.7 245.7 244.9 243.7 242.4 241.6 241.3 240.8 240.6 240.3 239.4 237.4 235.8 234.7 234.3 234.1 233.6 233 230.7 227.9 224.3 219.6 213.5 206.3 195.5 182.8 171.5 161.9 157.4 150.9 142.9 128.2 115.8 106.7 99.3 91.2 83.4 75.1 68.7 62.3 52.1 52.8 53.7 67.8 80.3 86.4 91.6 95.9 100.7 105.4 109.4 111.5 112.3 111.8 110.3 107.8 105.2 102.1 98.9
16.7 17.8 19.1 22.3 22.6 24.3 25.8 26.2 26.4 27.2 28.5 30.1 32.5 35.3 37.8 40.5 41.4 45 48.8 50.4 52.4 53.4 52.3 51.8 52.5 54.7 58.6 59.3 59.8 60 60.2 60.8 61.7 62.2 63.8 65.5 67.1 68.9 71.1 73.1 74.2 75.4 76.7 78.2 79.9 81.5 82.9 83.8 84.8 86.6 88.6 89.9 91 92.9 94.9 96.8 98.8 100.4 103.7 107.3 110.2 112 113.6 115.2 116.9 117.4 118.1 117.1 116.4 113.5 109 103.9 98.8 94.6 92 96.5 103.7 112.1 118.3 121 121.5 119.1 110.7 117.9 125.8 132.5 141.6 147.9 153.6 158.7 162.1 165.4 168 171.6 173.1 174.3 176 176.4 176.8 177.1 177.4 177.6 177.7 177.7 177.3 174.1 170.3 159.3 143.2 127.5 114.1 105.6 102.5 106 117.1 135 143.3 147 154.1 164.4 169.1 172.5 174.5 177.9 181.3 187.8 192.5 195.3 195.5 197.6 204.4 209.4 214.9 222 227.1 231.8 234.9 237.6 239.4 240.4 240.8 241 240.8 240.4 239.8 239.8 240.1 240.9 241.3 241.8 241.8 240.3 238.2 236.3 233.8 233.5 232.7 232.6 232.1 230.3 227.5 223.3 218.8 213.5 205.9 197 185.3 176.2 167.7 159 149.2 139.3 128 117.5 108.6 100 92 83.3 74.4 63.5 59 51.7 53.2 53.7 66.9 76.7 81.3 84.6 90.8 96.2 100.4 104.1 106.7 108.2 109.6 109.5 107.9 105.9 104.1 102.1
17 19.7 20.9 22.5 23.2 24.1 25.4 26.4 26.2 26.4 27.3 28.4 29.8 33.4 36.5 39.2 41.8 44.2 48.2 50.6 52.7 54.4 52.5 51.6 51.9 52.6 56.1 56.9 57.5 58 58.3 59.1 60 60.9 62.6 64.3 66.1 67.8 69.9 71.1 72.3 73.4 74.9 77 78.6 80.2 81.2 82.2 83.2 84.9 86.9 88.7 89.7 91.7 93.5 95.4 96.8 96.4 96.7 99.8 102.6 106.9 109.2 110.8 112.3 113.6 113.9 113.2 110.6 107 103.5 100.3 96.9 93.2 90.4 94 97.6 100.7 104 106.4 107.4 105.5 104.9 117 124.3 131 136.9 143.9 151.6 155.9 160.1 163.5 165.9 168.8 170.3 171.6 171.6 171.2 170.7 170.1 169.1 167.8 168.4 168.5 168.2 166.4 164.8 160.3 147.7 133.5 125.2 115.9 105.5 106.4 122.3 144.6 157.3 163.2 173.1 178.5 182.2 185.2 187.1 189.7 192.6 195.7 200.1 203.4 205.6 206.6 209.7 214.6 217.4 221.5 225 227.1 228 229.5 231.3 233.5 233.6 233.8 234 233.8 233.5 234.4 234.8 236 238 239 239.4 238.6 235.8 233.2 231 230.2 230.1 230.2 229.7 228.2 225.9 221.9 217.7 212.1 204.9 196.3 187.6 177.6 167.3 156.2 144.8 135.9 126.4 118 108.9 101.3 93.3 83.9 73.3 65.9 55.4 51.9 52.5 53.1 60.4 69.9 72.4 77.3 83.3 89.2 94.1 98 101 103.5 104.6 105.1 104.3 103.6 103.3 103.2
15.5 18.7 20.3 21.6 22.9 23.8 24.9 25.6 25.5 25.8 26.6 27.5 28.8 31.9 35.1 38.2 41.8 44.5 46.7 48.8 52.2 54.8 53.9 51.6 51.8 51.6 53.1 55.2 55.7 56.1 56.8 57.5 58.3 59.4 61.2 63 64.8 66.6 68.5 70 71.6 73 74 75.7 77.3 78.5 79.5 80.6 81.6 83.2 85.2 87.1 88.8 90.8 91.4 92.5 94.3 95.1 94.6 95.6 99.2 102.8 105.6 107.9 109.2 110.2 110.4 110.2 108.7 105.8 102.5 99.1 95.3 91.7 88.9 91 94.1 96.5 98.3 99.5 100 99.8 101.5 114.7 117.3 123.9 131.5 137 142.6 149.6 155.9 159.5 162.6 165.6 167.7 169.1 169 167.7 165.8 163.1 160.3 157.6 156.7 157 156 155.6 154.5 151.5 146.5 137.5 127.6 116.1 104.5 104.3 119.7 142.8 164.1 173.5 180.6 185.1 188.7 191.8 195.5 199.5 201.9 203 205 207.9 210.4 212.5 213.1 215.7 218.8 222 224.1 224.8 225.2 225.3 224.8 225 224.8 224.5 225.7 225.6 225.9 227.2 228.4 229.7 231.8 233.1 233.5 232.6 229.9 227 224.8 224.2 224.6 225.3 225.6 224.5 222.2 219.3 214.9 209.4 202.2 193.2 182.8 170.4 159.7 149.5 140.2 131.8 125.8 119.1 111.3 103.3 94.8 84.6 73.1 64.8 54.6 51.5 52.4 54.9 53.9 61.5 65.4 68.4 73.7 79.2 84.1 88.8 91.8 94.8 97.1 98.4 98.6 98.6 99.7 100.6
14.7 17.2 19.9 21.8 23.1 23.5 24.2 24.5 24.8 25.5 26.1 26.7 28.5 30.9 34 38.4 41.8 44.8 46.1 47.7 50.4 54.3 54.5 51.3 50.9 51.4 52.4 53.6 54.2 54.9 55.6 56.3 57 58.3 60.2 62.1 64.2 66.2 69.1 70.7 72.2 73.2 74.2 75.1 76.4 77.2 78.1 78.9 79.9 81.5 83.4 85.4 87.6 89.8 90.6 90.2 91.3 93.5 93.6 93.4 95.6 99.1 102.6 104.6 105.8 106 105.8 105.8 104.4 101.8 98.3 94.2 91.7 90.3 88.4 88.3 91.2 93.4 94.9 95.8 96 95.2 97.6 100.5 107.6 116.6 124.3 130.3 135.9 140.9 146.6 153.7 157.6 161.7 164.8 166.3 166.6 165 162.4 158.1 152.7 148.1 145 141.1 141 139.9 138.4 138.2 132.7 126.1 118.7 109.8 100.8 103.9 117.2 142.7 163.6 175.5 182.8 187.6 191.7 195.4 199.4 204.3 208.1 209.8 209.7 211.2 213.7 215.4 216.3 218.5 220.1 221 221.7 221.5 221.2 219.8 219.9 219.3 218.2 218.2 218.5 218.8 219.7 220.3 221 221.3 221.7 222.6 222.7 221.8 220.2 217.2 214.6 215.7 216 219.2 218.6 217.7 215.7 211.8 207.1 201.5 192.3 182.8 172.8 161.3 151.5 141 133.2 128.4 123.7 118.5 110.2 100.5 90.9 80.4 70 63.3 57.8 51.1 51.7 51.7 52.2 52.9 58 61.9 66.6 70.6 75.2 78.3 81.8 84.8 87.5 88.9 90.7 92.1 94.7 97.1
14.2 17.1 20 21.4 22.9 23.2 23.7 24.3 24.7 25.1 25.6 26.1 27.5 29.6 33.1 38 41.7 44.3 46.1 47.3 48.7 52 54.2 51.7 50.4 50.9 51.6 52.3 53 53.8 54.5 55.8 55.9 57.6 59.7 61.7 63.8 66.2 69.1 71.2 72.4 73.5 74.5 75.2 75.4 76 76.8 77.6 78.5 79.8 81.8 83.8 85.8 87.3 88.5 88.7 88.7 90.8 90.7 90.9 91.9 96 99 100.5 101.7 101.7 101.6 101.2 99 96.3 92.7 90.2 89.4 88.6 87.2 86.5 88.9 90.5 91.8 93 92.6 91.6 92.5 95 98.2 105.2 113.3 121.8 129.1 135.7 139.3 142.8 150.9 156.7 160 162 163 162.4 160.2 157.3 153.9 149.3 145.1 140.5 135.6 130.3 126.7 119.8 117.9 113.5 107.7 102.7 94.2 104.3 112.5 136.4 157.6 171.7 180.5 186.6 191 195.1 199.5 204.5 208.3 211.9 213.2 214.6 215.7 216.8 217.4 218.3 219.2 219.3 218.9 218.6 216.6 215.4 214.1 212.2 210.3 209.3 209.9 211.9 213.5 213.8 215.5 216.5 216.5 216.1 215.2 213.7 213.4 211.9 208.9 206.4 205.4 205.3 206.1 206.4 205.6 202.6 198 192.2 184.7 177 164.6 151.7 140.4 138.2 135 126.5 115.3 110.1 102.6 92.9 84.2 77.5 68.4 64.5 60.3 52.5 51.1 51.1 50.9 50.7 51.6 53.5 61.1 65.2 68.3 69.6 72.5 75.9 78.6 81.5 84.4 86.8 89.9 93.3
14.5 16.5 18.7 19.7 21.3 23 23.7 23.9 24.1 24.5 25 25.6 26.3 28.5 31.7 36.9 41.1 43.6 45 46.5 47.9 49.5 53 51.3 50 50.4 50.7 51.2 51.9 52.6 53.4 54.7 56.2 57.5 59.1 61.3 63.4 65.1 67.5 70.9 72.4 73.9 74.7 75.4 75.3 74.7 75.5 76.4 77.2 78.2 80 81.8 83.7 85.4 86.1 86.8 87.1 87.9 88.3 88.9 88.9 91 93.6 95.5 97.6 97.8 97.6 97 95.2 92.7 89.2 88 87.3 86.7 86.2 85.7 86 87.1 88.2 89.6 89.4 88.6 89.2 90.4 93.1 95.5 101.2 109.1 119.4 128.6 134.7 138 141.1 147.7 153 155.1 156.6 157.2 156.3 155.5 154.6 153 150.5 147.2 143.3 138.5 135.9 133 129.9 126 119.4 106.8 90.3 104.2 112.3 132.2 151.1 164.2 175 182.7 188.3 192.4 196.9 201.4 205.4 209.2 211.3 212.6 213.9 214.8 215.2 215.7 215.9 215.6 215.1 214 211.7 209.9 208.3 205.5 203.7 202.8 203.5 206 207.2 209 210.4 210.6 210.8 209.7 208.5 208.4 207.8 206.5 203.1 199.2 197.5 198.4 200.3 201.3 201.7 199.8 196 189.9 182.7 174.9 166.8 160.7 156 151.4 145.7 138.5 129.9 121 111.5 103.9 97 88.9 81.5 74 65.3 56.1 49.2 50.6 53.9 50.3 50 53.9 58.7 61.2 64 65.4 67.4 71.9 75.2 77.9 81 84.2 87.6 90.7
15.4 16.3 19.1 21.3 22.4 22.3 22.4 22.9 23.4 24 24.4 25 25.5 27.4 30.4 35.1 39.8 42.7 44.4 45.6 47 48.8 49.7 49.7 49.7 49.8 50 50.3 50.9 51.6 52.3 54.6 57.9 59.2 58.4 60.5 62.4 63.8 65.5 69.1 71.5 73.2 73.9 74.2 74.1 73.7 74.3 75.2 76 77 78.7 80.4 82.1 83.7 84.6 85.3 85.8 86.3 87 87.8 87.2 86.5 87 89.2 91 94.3 93.8 93.1 91.5 89.2 87.2 86.5 85.9 85.2 85.3 83.8 83.9 84.5 85.1 86.3 85.8 85.4 85.6 86.3 87.9 90.4 93.6 100.1 105.3 113.2 124.9 132.1 135.8 139 142.1 146.5 148.7 150.3 150.7 151.7 153.1 154.3 155.3 154.2 150.8 147.3 144.6 141.9 139.6 137.3 131.3 117.7 98 99.5 109.3 126.7 145.2 158.4 167.7 176 182.8 188.6 193.1 197.9 202.5 206.3 208.3 210.3 211.2 211.7 211.8 211 211 210.4 208.8 208.1 206.3 204.4 202.2 199 193.7 192.2 195.2 198.4 202.2 204.4 205.7 206.4 206.6 205.9 204.7 203.8 201.4 200.1 197.2 190.7 188.3 191.6 194.1 196.9 197.9 198.8 196.6 193.1 188.4 183 177.9 174.1 169.3 163.6 156.5 149.5 142.1 133.4 125 117 107.4 96.9 86.7 77.7 67.2 61.2 53 50.4 50.4 49.7 49.5 49.7 52.2 55.4 59.3 61 62.6 65.6 69.1 72.7 76.3 79.5 82.8 83.7
16.7 16.9 19.5 21.9 23.6 22.2 21.8 22 22.8 23.8 24 24.7 25.3 26.5 28.9 33.2 38.6 41.7 44 43 45.7 48.9 49.7 50.6 50 49.3 49.4 49.5 50 50.6 51.1 53.3 58 60.1 58.1 58.3 59.9 61.7 63.7 67.2 70.3 72 72.7 73 72.7 72.1 72.6 73.7 74.7 75.8 77.6 79.5 81.4 82.7 83.9 84.6 85.1 85.6 86.2 87.1 86.9 85.7 84.8 85.5 86.9 90.8 90.7 89.9 88.4 86.7 85.8 85.1 84.5 84.4 83.9 82.6 81.6 81.8 82.2 82.8 82.6 82.9 83 83.2 84.4 86 90.2 94.8 98.8 102.1 108.6 120.8 128.3 132.8 135.6 136.5 137.1 141.2 143.3 146.4 150 153.6 157.4 159 156.6 155.2 152.1 148.9 146.6 144 138.8 125.9 105.5 92.5 103.7 122.8 138.7 152.8 163.6 171 177.5 182.8 188.1 192.9 197.4 201.4 204.1 205.9 207.1 207.6 207.1 205.7 205.3 204.8 203.8 202.5 200.7 198.5 195.9 191.9 180.5 181.6 185.7 190.6 195.2 198.1 199.6 200.6 200.1 199.7 199.1 197.6 195.5 193.4 190.1 185.5 181 185.4 189.4 191.9 194.3 196.4 196.5 194.5 192.1 188.4 184.5 180.3 175.7 169.8 165 157.5 151.2 144 134.1 125.9 114.6 102.2 88.6 76.7 74.1 74 64.9 54.9 49 53 49.5 49.1 49.4 49.7 52.6 56 58.6 61.6 64.4 68.2 69.4 72.8 75.6 78.1
17 17.5 19.5 21.6 23.1 22.7 21.9 21.1 21.9 22.8 23.5 24.1 24.6 25.8 28.6 32.2 37.4 40.2 43.6 43.4 44.8 49.1 51.2 53 52.7 51.7 49.2 49 49.2 49.5 50 52.1 56.1 58.1 57.2 57.2 58.2 60 61.9 64.7 68.3 70.5 71.6 71.8 71.3 70.7 71.1 72.4 73.8 75.1 76.9 78.8 80.4 81.6 82.8 83.9 84.4 84.8 85.4 86.3 88.1 87.8 87.8 85.7 83.9 86.5 88.1 87.2 85.9 84.6 84.3 83.8 83.1 83 82.6 82.1 80.5 79.3 79.5 79.7 80.1 80.4 80.6 80.7 81.5 83.3 86.1 90.6 92.8 95.4 99.2 103.6 114 122.4 126.9 129.3 130.8 132 134.2 138.8 144.1 150.5 155.9 159.3 159.2 158 156 152.5 149.6 146.9 141.4 127.4 107.1 89.5 100.1 119.9 138.3 148.2 155.5 164.7 172.9 179.2 184 188.1 192.1 196.2 199.1 200.6 201.4 201.3 200.2 199.1 198.6 198.5 197.6 196.4 195.2 192.8 190 185.4 176.2 173.9 178.4 183 188.3 190.9 192.7 193.1 192.5 191.8 192.1 191.4 189.4 187 184.2 179.7 174.5 177.5 182.1 185.4 188.2 190.4 191.7 192.4 191.2 189.5 187 183.6 179.5 175.2 170 164 157.1 149 138 128.4 113.8 97.5 86.2 87.8 87 84.3 78 67 60.4 48.2 49.1 48.8 49.4 49.6 50.6 54.3 57 59 62.4 67.5 71.1 74.9 77.9 81
16.1 16.4 19.5 22.4 23.7 24 22.5 21.4 21.6 21.8 22.5 23.4 24.2 25.7 28.9 34.2 38.1 38.9 42.3 42.6 45 49 50.9 53.5 55.1 52.8 48.2 48.8 49.1 49 49.8 50.2 52.3 55 54.7 55.5 56.7 58.6 60.4 62.4 63.9 66.6 67.6 69 69.3 68.5 70.2 72 73.3 74.5 76.3 78.1 79.4 80.5 81.6 83.2 83.6 84.1 84.6 85.4 86.9 88.2 88.4 86.2 83.8 83.8 85.4 84.7 83.6 82.9 82.7 82.4 82 81.6 81.2 80.8 80.3 79.1 77.8 77.2 77.8 77.9 78.1 79 79.7 80.6 83.2 86.1 89 91.8 94.5 97.3 100.5 105.6 115.7 121 123.2 125.3 128.5 131.7 137.4 143.4 149 152.8 154 154.5 153.7 152.3 150.3 146.2 135.6 120 103.5 88 99.8 120.1 136.2 145.8 152.4 158.6 165.9 173.2 178.6 183.9 188.1 191.4 194 194.5 194.1 193.6 193 191.7 190.7 191 191.3 190.2 189.2 187.7 184.3 179.6 172.6 172.3 172.1 175.9 180.5 182.8 184 185.4 185.7 185 185.2 184.3 183 181.5 178.5 174.2 168.5 169.9 173.2 175.8 179.4 182.4 184.9 186.9 187.7 186.9 185.6 183.6 180 176.2 171.8 165.9 158.4 149.3 139.2 122.5 105.2 100.3 98.8 97.9 97.1 92.8 86.1 77.8 69.1 60.5 47.5 48.3 48.2 48.9 50.1 51 54.5 57.5 62.3 67.7 72.1 75.5 78.7 80.9
15.3 16 19.4 22.6 24.4 24.8 24.1 21.7 21.4 21.2 22 22.9 24 25.5 29 36.7 39.7 41.6 43.5 43.4 45 49 51.5 54.3 55.4 53.3 50.3 48.6 48.5 48.6 48.8 49 49.5 51.9 53.2 54.1 55.2 57.1 59 60.6 61.9 63.2 64.3 65.3 66.5 67 68.7 71.3 72.5 73.7 75.3 76.7 78.1 79.3 80.4 82.2 83 83.3 84.7 84.8 85.4 86.9 87 85.5 83.8 82.7 82.7 82.8 81.9 81.9 81.3 81 80.6 80.2 79.8 79.5 79 78.4 77.6 76 75.2 75.5 75.8 77 77.7 78.3 80.5 83.3 86.1 88.9 91.4 94.2 96.9 98.7 102.7 108.3 115.2 119.9 123.9 126.8 131 136.2 140.9 144.2 145.2 146.5 146.8 145.8 143.9 137.7 126.5 112.5 99.1 86.8 101.9 120.6 136.9 146.7 152.9 158.9 164 168.7 173.4 177.2 181.2 183.8 186.1 187.3 186.9 185.6 184.3 182.6 182.9 183 184.1 183.9 182.8 182.1 178.9 174.1 169.9 169.4 169 168.4 171.4 175.6 176.8 178.4 178.9 179.1 178.6 178.1 177.6 176.7 173.8 170.1 163.5 158.5 161.5 164.5 167.8 172.2 176.4 179.5 181.2 181.7 181.5 180.3 177.8 174.2 169.9 164.1 156.3 145 129.1 118.1 113.8 110.6 108.9 108 105.4 98.1 91.2 83.2 72.2 67.1 61.5 60.1 47.5 47.5 49.6 50.5 50.7 56.2 59.8 64.7 68.9 72.1 75.4 78.3
15.1 16.3 19 22.1 24.5 24.7 24.1 22.5 21.5 21.3 20.5 22.2 23.9 25.8 29.1 36.3 40.8 43.6 45.3 44.9 46.5 48.9 51.8 54 54.7 53.4 51.5 49.1 48.2 48.4 48.6 48.4 49.1 49.9 51.1 52.4 53.6 55.5 57.5 59.5 60.5 61.7 62.4 62.6 64.5 65.7 68 69.5 71.1 72.4 73.9 75.2 76.6 78 79.3 81.2 82.4 82.4 84.1 85.4 84.9 84.8 84.7 84.9 83.9 84.8 83.5 82.1 81.4 81.4 81.9 81.7 80.8 80.3 79.8 78.7 77.7 77.3 76.5 75.5 73.5 73.4 73.7 74.7 74.9 76.5 78.8 81.2 83.3 86.2 88.9 91.1 93.9 96 98.4 101.7 104.5 109.7 115.9 120.9 125.6 129.7 132.1 134.4 134.8 134.9 135.4 134 131.6 126.2 118.5 106.5 93.1 86.6 105.2 122 135.9 144.9 151.5 157.9 162.9 166.5 170.1 173.8 176.5 178.9 179.6 179.8 180.3 179.1 176.5 175.4 177 178.3 179.1 179.6 178.8 177.9 176 172.2 167.7 166.4 160.5 162.1 169.1 167.7 169 169.9 171 171.9 173.1 173.4 172.8 172.2 170.5 166 161.7 156.8 154.3 155.9 158.7 161.5 166.1 170.8 173.4 174.3 175.3 174.8 173 169.9 165.4 158.6 148.1 136.8 133 130.6 125.9 121.8 117.9 113.5 107.9 101.7 93.5 89.1 80.9 78.6 76 63.3 56.2 48.2 46 51 55.5 56 57.8 57.9 58.4 60.5 63.8 65.3
13 15.1 18.5 20.9 22.4 24.1 23.8 22.4 20.9 20.7 20.5 22.1 23.8 26 28.7 36 40.1 42.6 45.2 45.9 48.2 49.2 49.2 53.1 53.5 52.5 51.2 51.5 49.5 48.2 48.1 47.5 48.1 48.5 49.7 50.6 51.3 53.6 56.4 58.2 59.1 60.2 60.1 60.7 63.2 65.2 66.5 68 69.5 71 72.4 73.7 75.1 76.4 78 80.1 81.6 82 84 86.2 85.9 85.8 85.1 84 83.5 84.1 84.5 83.4 82.7 82.7 84.3 84.6 83.1 81.7 80.2 79 77.7 76.2 75.4 74.7 73.1 71.5 71.7 71.8 71.9 74.4 76.5 78.7 80.9 83.4 86.5 88.8 90.9 93.2 95.4 97.1 100 102.8 106.2 109.7 116 121.3 123.4 124.5 121.8 130.8 124.1 124.3 123.1 119.7 113.1 101 85.9 91.5 106 121.3 131.9 140.9 146.8 152.5 157.7 161.6 165 168.6 171.3 173.1 174.3 174.5 173.5 172 170.2 167.1 169.8 171.8 172.7 172.9 173.1 173.1 172.6 170.5 167.6 163.3 152 153 159.6 161.9 163.1 164.1 164.8 165.3 167.3 167.9 168.4 168.5 167.6 166.4 163.6 158.6 154.2 145 150.7 156.8 162.5 165.8 168.4 169.4 170.3 169.9 168.5 165.4 161.1 156.3 150.3 145.6 142.8 138.1 132.5 127.4 121.3 116.6 111.5 105.4 99.1 94.3 92.4 89.5 83.2 66.9 59.3 50.4 47.6 45.9 49.2 54.2 54.6 55.3 56.5 58.3 61.1 63.2
12 14.4 17.2 19.4 20.8 22.6 22.2 21.7 20.5 20.2 20 21.4 23.8 26.5 29.6 36.5 40.9 44.8 45.4 46.1 47.5 50 50.4 52.7 52 51.5 50.7 51.1 51.2 50.9 48.2 46.6 46.9 47.3 47.8 48.3 48.8 50.3 53 56 57 57.9 57.4 57.1 61.4 63.5 64.9 66.6 68.4 69.6 70.8 72.1 73.5 74.8 76.6 78.7 80.1 80.8 82.6 85.3 86.2 86.6 85.8 84 82.7 82.7 83.4 84.3 84 84.1 84.9 86 87.1 87 84.2 81.3 79.5 77.9 76.1 74.8 73.2 71.7 68.3 68.8 69 71.6 73.7 76.2 78.6 80.7 83.8 86.4 88.5 90.7 92 93.1 95.4 98.3 101.5 110.5 111.6 113.5 114.7 115.5 120.8 127.4 125.8 112.4 117 114.8 107.1 95.5 81.7 92.9 98.9 116.3 125.5 132.2 136.6 140.7 146.8 152.3 158 161.3 164.6 166.6 167.9 166.7 164.8 162.8 161.1 158.8 161.3 163.8 165.1 165.8 166.2 166.5 167.2 166.8 164.6 160.9 153 140.5 147.9 150 152.4 153.9 155.3 157 158.5 159.5 160.8 161.5 162.5 162.3 160.9 158.5 154.8 151.3 140.8 148.4 155.8 160.8 163.4 164.7 165.5 166.7 166.5 165.3 163.2 158.9 154.1 150.3 145.9 140.8 135.9 130.3 124.4 118.2 112.9 108.2 103.7 99.3 95.2 84 72.1 63.8 60.3 55 49.7 48 46.7 43.7 50.6 52.8 54 56.2 58.5 59.3
10.5 13.9 16 17.9 19.1 20.9 21.3 21.2 20.7 20.1 19.5 20.6 22.9 25.1 30.4 36 40.5 43.7 45.7 47 47.8 50.5 52.2 54.7 55.4 52.7 50.6 50.7 50.8 50.7 49.4 46.8 46.1 46.4 46.9 47.4 47.8 48.1 49.6 50.7 51.8 53.6 55.5 57.9 60.2 61.9 63.9 65.7 67.3 68.6 69.4 70.5 71.9 73.3 75.1 77 78.5 79.7 81.2 83.1 84.3 83.7 83.4 82.5 80.8 80.8 82.2 84.1 84.1 84.1 85 85.9 87 87.9 87.8 85.5 83.2 81.4 79.7 77.8 75.9 74.8 73.7 72.2 69.1 68.8 71 73.6 76.2 78.9 81.7 84.2 86 87.5 88.8 90.1 91.9 95 99 106.6 112 115.4 117.1 118.2 118.3 116 110.3 98.6 102.7 101.6 96.9 88 82.1 93.1 97.8 104 107.7 117.3 123.3 126.6 132 138.5 146 150.7 154.4 156.3 157 157.5 156.2 154.2 151.8 151.9 154.5 156.6 158.1 158.9 160.5 160.8 161 160.8 159 157.3 152.6 143.6 136.9 141.6 143.9 146.3 147.5 150.1 152 153.2 154.6 155.3 156.5 156.6 155.4 154 149.9 147.6 138 139.3 147.6 152.8 156 158.5 160.2 161.5 162 161.7 159.9 157.1 153.7 149.4 145.5 141.5 136.8 130.8 125.5 116.8 111.6 106.1 99.5 92.4 82.5 74.4 67.8 63.1 61.4 56 50.4 49.4 47.3 46 47.2 49.7 52 54.3 56.4 56.8
11.3 13 15.1 16.4 17.4 19 20 20 20 19.4 19.5 19.2 22.1 25 30.3 35.2 37.3 39.2 42.1 44.5 45.8 46.6 48.5 52.9 54.1 51.1 50.5 50.3 50.4 50.2 49.4 47.8 46.6 45.8 46.1 46.5 46.9 47.5 48.4 49.5 50.8 52.7 55.2 57.3 58.9 60.8 62.7 64.8 66.2 67.6 68.4 69.2 70.3 71.9 73.8 74.9 76.5 77.1 78.1 79.1 79.3 79.4 79.3 79.3 78.4 78.3 80.5 82.6 83.6 84.1 84.3 84.6 85.4 86.5 86.2 85.6 84.5 83.7 84.2 81 78 74.9 73.8 73.2 72.4 69.5 68 70.8 72.6 77.2 80 82.4 84.3 85.8 87.1 87.9 89.1 91.8 96.5 102.3 109.1 115.2 118.7 120.6 119.2 103.8 96.3 90 89.8 87.6 86.6 81.4 81.6 89.8 89.6 94.1 98.4 104.9 107.6 111.5 116.6 122.6 129.7 139.9 144 146.9 148.8 148.8 148.5 147.4 146.9 142.4 144.8 146.7 148.7 148.3 151.2 152.5 153.4 154.2 153.2 153 149.4 143.6 131.9 131.5 136.5 137.9 139.4 142.3 142.7 144.8 147.4 149.2 150.2 150.5 150.6 147.1 146.5 144.4 140.1 129 136.5 142.2 145.7 148.9 151.7 152 152 152.3 152.1 151.3 149.5 145.6 141.1 138.3 134 122 112.9 104.2 98.3 92.6 90 85.1 79.4 73.2 66.4 63.3 62.1 55.5 50.7 49.6 47.8 45.8 43.2 48 50.5 52.5 54.4 54.5
11 12.6 14.1 14.9 15.8 17.4 18 18.3 18.9 19.4 18.8 18.8 21.7 25.3 29.8 33.5 35 36.8 38.4 41.4 43 44.5 45.9 48.8 51.2 50 49.4 48.9 48.8 48.4 49 48.6 47.2 46.1 45.7 45.7 46.5 46.9 47.8 48.1 49.3 51.2 54.1 56.4 58.9 60.7 62.5 64.3 65.3 66.6 67.4 68.3 69.3 70.7 72.6 73.1 75.1 74.9 74.6 75.2 75.5 75.7 75.9 76 76.1 76.3 77.1 78.8 81.2 81.9 82.3 82.5 82.4 82.9 83.8 83.9 83.6 82.8 80.8 78.8 76.2 73.7 73.5 73.2 72.5 71.4 67.8 66.6 69.4 74.6 78.5 81.1 82.5 84.2 85 86.1 87.8 90.2 93.9 98.9 103.5 109.6 114.5 120.7 109.3 95.6 89.3 86.9 85.2 83.5 81.9 77.5 82.2 84.1 86.2 89.4 93.6 101.4 101.3 103.4 107.2 110.9 115.6 118.9 122.7 126.8 128.8 130 135.3 135.4 131.9 132.3 133.4 134.2 134.7 135.6 136.7 139.4 140.9 140.8 141.4 138.3 133.5 127.5 126.6 123.5 126.2 127.4 129.3 130.7 131.5 132.5 134.3 137.2 139.1 141.4 148.9 144.8 141.6 136.2 131.8 125.9 127.7 132.7 135.4 138.3 139.9 140.7 140 139.1 140.5 140.1 137.9 129.6 124.2 117.8 110.9 101.5 99 94.9 90.9 88.7 86.7 81.6 75.6 70.5 64.7 63.6 62.4 55.4 50.4 49.9 48.3 45.8 42.4 46.2 49.6 51 51.3 51.4
9.7 11.1 12.7 14.4 15.4 15.7 16.3 16.9 17.6 18.8 18.4 17.9 21.4 25.4 29.3 32.6 33.6 34.9 37 39.6 41.5 42.7 44.5 47.2 48.9 47.6 47 46.3 46.1 46.2 47.4 49.2 47.6 46.3 45.7 45.5 45.5 46.5 47 47.2 47.8 49.9 53.1 56.3 59.1 60.6 62 63.3 64.4 65.6 67 68 69 70.2 71.6 72.5 73.6 73.4 73.9 74.4 75 75.2 75.4 75.5 75.1 75.3 75.7 76.8 78.1 79.6 79.4 79.2 79 79 79.9 80.1 80.3 78.6 76.6 75.6 74.4 73.4 72.9 72.8 72.4 71.3 69.3 66.6 67.8 73.6 78.1 80.8 81.8 82.6 83.9 85.6 87 88.8 91.2 93.7 95.8 99.1 102.5 102.4 94.2 86.8 85.5 83.8 82.6 81 79.4 77.4 80.1 82 84.4 87.3 89.8 93.8 97.5 105 108.1 108.7 109.4 112.1 114.3 116.2 118 119.7 123.1 125.4 128.8 126 126.2 126.8 126.8 127.3 127.6 128.2 128.3 128.1 126.8 124.5 125.5 125.2 124.4 120.5 121.1 122.1 123.4 124.6 126.1 128.1 127.6 128.7 129.2 129.5 130.3 129.9 128.2 126.6 124.3 120.2 121.4 125.3 126.7 126.5 125.9 124.4 122.6 121.2 120.4 120 116.9 111.9 108.8 104.7 101.2 98.1 94.8 90.7 88.3 87.4 84.1 77.6 72.6 67.8 64.2 63.1 62.2 54.9 50.3 49.8 47.9 45.3 42.2 45.6 45.9 47.5 47.4 48
10.5 11.2 12.7 14.3 15.1 15.3 15.1 15.8 16.7 17.8 18.3 17.3 21.6 25.3 28.6 31.7 32.6 33.8 35.8 38.1 40.5 42 45.1 46.5 47.1 44.5 45.1 44.9 45 45.5 46.6 50.2 49.1 47 45.9 45.7 45.3 46 46.3 46.6 46.8 48.3 51.9 54.9 57.9 58.6 59.8 61.4 63.4 64.5 66.2 67.6 68.6 69.3 70.5 71.8 72.1 72 73.2 74 74.7 74.9 75.1 75.3 75.3 75.5 75.6 76 76.9 77.3 77.5 77.3 76.8 76.3 76.6 76.8 77.1 75.5 75 73.9 72.8 72.3 72.2 72 71.4 71 68.1 63.9 68.7 75.1 77.8 80.5 81.5 82.6 83.8 85.6 87 87.9 88.9 89.9 89.6 88 87.6 86.7 84.9 82.4 81.4 80.2 79.8 78.6 77.1 75.6 78.2 80.1 81.5 84.3 88.1 91.3 93.7 95.5 105.6 107.9 108.3 107.9 110.2 112.4 114 115.6 116.2 119.5 125 122.6 122 122.4 122.3 123 123.3 124 124 123.2 122 120.3 122.3 121.9 121.9 115.6 117.6 118.6 119.1 119.6 121.5 122.7 123.4 125 125.6 125.8 126.1 125.2 123.9 121.7 118.8 114.9 115.4 117.7 119.1 119.5 118.4 117.9 116.6 115.7 114.6 113.6 111.1 107 102.7 99.9 97.5 95.3 92 88.7 87.8 86.3 80.9 76 70.4 66.9 63.7 62.7 55.3 53 49.7 48.1 46.7 49.1 48.6 45.3 45.4 46.1 46.4 47
11.5 11 12.5 13.9 14.7 14.8 15.1 16.1 16.5 17.9 18.1 18.4 21.1 24.6 27.3 30.1 31.6 32.9 34.1 36.7 39.4 41.4 43.8 45.7 46.8 45.8 45.2 44.5 43.5 44.1 45.9 49.5 51.4 49.2 46.2 45.9 45.7 45.2 45.6 45.9 46.2 46.3 49.9 53.1 54.7 56 57.5 59.2 61.5 63.5 65.2 67 67.4 68.4 69.6 70 70.4 70.1 71.8 73.5 74.4 74.7 74.9 75.2 75.6 75.8 75.9 76.3 76.7 76.2 75.7 75.3 74.9 74.4 74 74 74 73.6 73 72.2 71.6 71.9 72 71.6 71 70.1 66.9 62.8 70.1 79.3 82.5 82.6 83.1 84.4 84.8 85.8 86.9 87.5 87.7 87.2 86 83.1 81.5 80.6 79.7 79.3 78.9 78 77.5 76.8 75.6 75 76.7 78.6 81.1 83.1 85.5 88.2 90.7 92.8 96.9 99.6 101.5 104.8 107.4 109.1 110.1 111.2 111.6 115.7 120.5 118.1 117.5 117.8 118.3 119.3 119.6 119.9 120 119.2 118.2 116.8 114.6 113.4 112.9 112.7 114 115.4 116.1 116.8 117.7 118.5 119.5 120.9 122 122.2 122.5 121.7 119.9 118 114.5 111.3 108.9 111.9 113.7 113.8 112.9 112.8 112.3 111.2 110 108.3 105.7 102.8 99.9 97.1 95.7 93.3 89.6 86.9 84.9 79.7 78.4 73.1 68 64.4 63.2 62.4 53.3 50.6 48.7 45.9 44.9 44.6 42.9 44.6 48 49 49.1 48.9
14.5 11.1 12.4 13.7 14.5 15.4 15.8 16.5 16.5 17.3 17.7 18.4 20.5 23.9 26.9 28.8 30.3 31.8 33.1 36.5 38.2 40.1 41.5 44.2 46.1 47.3 47.6 43.8 43.5 43.5 45.1 47.7 51.5 51.1 47 46.3 46.5 44.4 44.8 45.3 45.6 47.1 49 50.5 52 53.6 55.6 58 60.1 62.1 63.6 64.7 66.2 67.6 68.3 68.4 69.7 70.6 71.6 72.9 74.3 75.2 75.7 76.3 76.3 76.8 77.2 77 76.4 75.9 75.2 74.7 74.3 73.8 73.1 72.7 72.5 72.1 71.4 71 71.1 71.3 71.5 71.3 70.4 69.5 65.8 61.3 69.4 72.6 74.9 78.6 82 84.7 85.6 86.1 86.6 86.4 86.3 85.6 83.6 81.1 78.8 78.1 77.2 76.8 76.9 76.1 75.5 74.9 73.5 74.4 76.8 79 80.7 83 84.9 86.6 89 91.1 95.4 97.3 99.3 102.2 105 106.5 106.9 108 108.3 112 114.6 113.8 115.3 115.9 116.2 116 116.4 116.3 116.5 115.3 114.2 113.4 112.5 111.4 110.3 110.4 111.3 112.9 113.4 114.1 114.7 114.7 115.3 116.6 117.6 117.7 116.3 115.6 113.5 112.2 111.2 109 107.3 106.6 109.1 109 109.3 108.9 108.1 107.3 105.4 103.1 100.9 98.2 95 93.1 91.9 90.2 86.6 83.3 81.3 77.1 71.5 66.9 65.1 63.4 62.7 57.9 52.9 50.1 46.8 45.3 44.1 44.4 41.5 44.5 44.4 45.1 46.1 47.9
15 11.5 12.6 14.7 15.1 15.6 16.5 16.8 16.6 16.8 17 18.2 20.4 23.3 26.1 27.7 29.2 31.2 32.9 35 34.8 38.7 40 42 44 46.4 45.5 42.6 42.6 43.2 44.2 46.3 49.7 51 48 51 47 45 43.9 44.4 45.1 46 47.4 48.9 50.4 51.8 54 56.5 58.4 60.1 61.6 62.5 64.3 66.5 67.2 67.4 68.8 70.3 71.9 72.8 74.3 76 76.6 77.4 77.8 78.7 78.4 77.9 76.6 75.5 74.7 74.2 73.7 73.2 72.4 71.5 71.5 71.4 71.1 70.7 70.5 70.6 70.8 70.7 70.1 68.9 64.8 60.6 66.2 71.6 48.3 53 61.7 80.6 83.4 84.4 85.5 85.2 84.8 84 81.8 79 76.2 75.5 74.7 74.3 73.7 73.8 73.6 73.6 73.3 74.3 76.2 78.4 80.4 82.6 84 86.4 88.9 91.2 94.2 95.7 97.5 99.4 102.6 104.1 104.5 104.8 106.2 108.3 111 111.8 113.7 114.5 114.1 113.9 113.7 113.2 113.2 112.6 112 109.9 110.3 109.3 107.5 106.2 109.1 109.8 110.6 110.9 111.2 110.4 111.9 113.3 113.6 113.2 111.7 109.7 106.1 105.3 104.7 104.5 102.2 101.7 104 104.3 104.5 103.9 102.7 101.2 98.9 96.6 94.5 91.6 89 87.6 86.1 84.1 82.1 80.5 77.3 74.1 68.6 64.8 63.2 62.7 62.1 55.2 53.4 50 46.6 44.5 44 44.3 43.3 43.9 43.7 44.3 45.6 47.3
15.5 12.2 13.6 15.4 15.8 16.1 16.7 16.5 16.7 16.8 17 18.2 20.2 23 25.8 26.9 28.5 30.8 32.7 33.9 33.7 37.9 41.1 42.2 42.6 45.9 45.1 42.2 41.6 42 43 44.8 47.3 49.3 49.3 51.4 47.9 46.5 44.4 44 44.7 45 45.9 47.3 48.8 50 52.3 55.4 57.5 58.9 60 61 62.9 64.5 64.4 67.4 68.5 69.3 71.5 72.5 74.2 76 77.9 78.8 79.4 79.6 79.4 78.2 76.8 75.4 74.8 74.4 73.7 72.9 72.1 71.5 71.5 71.2 70.9 70.4 69.8 69.8 69.9 70 69.9 69.4 65.1 59.5 62.8 66.2 48.3 48.3 48.3 48.3 62.3 77.5 83.1 82.7 82.6 81.8 79.4 76.6 74.4 74.4 74.3 73.2 74.6 73.1 71.6 70.8 76.2 74 72.9 76.1 77.8 78.9 78.9 85.3 88 90.1 92.3 94.3 95.3 96.6 99.5 101.1 102.2 102.9 104.2 106 107.8 110 111.3 112 111.6 110.9 110.1 110.1 110.1 108.2 107.5 106.5 106.1 105.5 104.5 102.8 103.7 104.4 104.7 104.9 104.5 103.7 104 103.9 103.9 102.4 101.2 100.7 99.1 98.1 99.8 99.2 98 97.8 98.7 99.4 98.4 97.1 95.3 93.9 91.6 90.1 87.8 86.1 84.7 83.5 82 80 78.3 76.5 74.6 72.4 69.9 67 62.7 62 61.3 55.4 50.6 49.6 45.2 43.9 42.9 43.3 42.9 43.5 43.2 43.7 45.3 46.6
16 13.3 14.6 15.4 15.8 16.1 16.4 16.4 16.4 16.6 16.8 17.9 20.5 23.3 25 26.4 27.6 29.3 31.2 33.5 34.5 36.5 39.9 42.2 42.5 44.4 43.8 41.5 41 40.5 41.5 42.8 44.4 47.3 49.6 50.3 49.2 48.5 45.4 43.7 43.8 44.4 44.8 45.7 46.9 48.3 51.2 54.6 57.1 58.5 59 59.4 60.4 62.8 65.3 66.8 67.6 68.4 70.3 72.5 74.5 76.5 78.6 79.1 79.9 79.7 78.7 77.6 76.3 75.2 75.2 76.3 75.4 74.4 73.2 71.7 71.4 71.1 70.7 70.1 68.5 68.2 69.1 69.2 69.5 69.4 64.3 58.9 61.5 61.5 48.3 48.3 48.3 48.3 48.3 48.3 59.8 71.2 79 78.2 77.1 75.4 74.4 73.9 72.4 71 72.2 72.4 74.7 76.8 73.5 71.9 68.9 71.8 71.6 78.3 81.3 84.6 89.4 89.6 91.6 93 93.4 94.8 96.4 98.1 99.6 101.4 102.5 104.1 104.7 105.2 106 107 106.9 106.2 106 104.4 103 102.4 101.6 101.5 101.8 101.8 101.4 99.8 99.9 100.8 101.1 100.8 100.1 99.8 98.8 97.9 97.9 97.8 98.1 97.5 96.6 96.5 96.3 95.7 94.7 95 96.1 96.9 95.8 94.3 93 92.4 92.1 90.7 88.5 85.4 83 81.3 79.8 77.9 76 74 71.8 69.7 68.1 65.9 62.2 59.9 55.7 53.3 50.4 48.7 45.3 42.2 41.9 42 42.2 42.6 42.8 43.3 45.2 46
14.9 14.4 15.2 15.3 15.1 15 15.2 16.1 16.1 16.2 16.5 17.8 20.6 22.9 24.6 25.9 27.1 27.2 29.1 32.3 33.8 34.6 39.1 40.8 41.2 42.6 41.9 40.9 39.8 40 40.4 40.8 41.2 43 47.8 49.5 49.6 49.1 46.4 44.4 43.4 43.1 43.7 44.2 45 47 50.1 52.8 55.5 56.3 56.3 57.7 60.8 63 64.2 65.4 66.4 67.2 69.9 72.1 74.7 76.7 77.6 78.3 78.5 77.6 76.8 76 74.8 74.1 75.7 76.5 76.5 76.2 75 73.1 71.7 71.2 70.3 68.7 67.1 67.2 68.3 68.5 67.3 66.8 62.5 58.8 61.3 56.6 48.3 48.3 48.3 48.3 48.3 48.3 48.3 49.1 64.6 75.5 74.2 73.1 72.3 76.5 73.3 73.9 80 82.5 85.5 87.4 86.3 82.7 75.1 67.6 74.2 76.6 85.7 84.4 88.9 90.2 93.3 94.2 95.7 96.9 95 95.4 96.6 99.3 100.8 102.6 103.2 103.5 105.3 103.5 103.6 103.2 102.8 101.3 100.6 100.2 100 99.7 99.8 99.8 99 97 96 97.7 98.9 98.3 97.5 96 95.4 94.8 94.7 95.6 95.7 95.1 93.7 93.2 93.6 93.5 92.1 92.8 94.3 95.3 96.2 96.1 95.5 95.4 94.9 93.3 90.1 85.9 82.3 80 78.4 76.4 74.6 71.6 68.7 65.8 64.8 63.2 60.9 57.6 54.4 52.1 50.2 48.2 44.3 40.8 41.3 41.6 41.7 39.6 42.3 43.5 44.4 44.9
12.9 17.3 15.3 14.8 14.2 14.1 14.2 15.2 15.8 16 16.2 17.9 20.1 22.3 24.1 25.8 27.3 26.6 28.5 30.2 32 33.1 38.4 37.1 37.3 40.3 40.2 39.3 38.8 39.6 40 40.1 40.3 41.3 44 48.4 50.2 50 48.1 46.2 44.9 43.5 42.8 42.9 43.5 44.5 47.3 50.2 53 54.4 55.8 58.6 60.7 62.8 63.3 64 65 66 68.7 71.4 73.7 75.2 76 76.4 76 74.8 74 73.3 73.3 73.7 75.2 76.4 76.4 76.6 76 74.3 73.2 72.2 70.7 68.8 66.5 65.3 65.4 67.7 65.2 63.6 60.1 57.9 60.3 48.3 48.3 48.3 48.3 48.3 48.3 48.3 48.3 49.6 56.8 65.4 72.8 73.1 84 87.2 86.8 88.6 91.7 94.5 95.5 95.7 95.7 91.7 76.8 68.9 74.9 72.8 88.6 83 87 84.6 96.3 96.7 96.9 99.3 100.8 100.9 101.3 99.6 99.8 101.1 105.3 106.3 103.7 102.8 102.1 101.2 100.2 100 99.3 98.7 98.5 98.2 98 98.1 97.4 95.5 94.7 95.8 97.3 96.9 96.1 94 93 91.9 92.3 91 92.8 92.9 93 92.4 92.9 92.7 92 92.2 93.1 94.4 95.9 97.4 98.6 98.5 97.9 95.4 91.2 86.4 81.6 78.8 77 75.1 73.4 70.5 66.4 63.6 62 60.9 58.5 56.6 52.7 49.5 45.1 46.2 46.9 40.9 40.4 41.4 41.6 41.8 42.2 44 44.5 44.2
12.1 18.3 15.1 14.4 13.8 13.7 14.5 14.9 15.1 15.4 16 17.8 19.7 21.7 23.7 25.2 26.5 26 26.9 30.1 32.9 32.8 36 34.5 35.9 37.8 38.7 38.5 38.9 39.5 39.6 39.8 39.9 40.4 42.5 45.7 48.6 49.3 48.8 47.6 46.3 44.8 43.4 42.1 42.2 42.9 45.2 48.2 50.7 52.8 56 58.1 59.9 62.6 62 62.8 63.9 65.3 67.7 69.9 72.1 72.9 73.3 73.9 73.1 72 71.1 70.2 70.1 72.4 74 75.6 76.2 76.4 76.4 75.1 74.7 73.5 71.9 69.2 65.5 63.2 62.8 63.7 63.2 61.9 58.6 56.9 60.6 50.4 48.3 48.3 48.3 48.3 48.3 48.3 48.3 48.3 53.1 58.8 70.9 71.5 79.7 90.7 91.4 93.1 95.4 95.5 96.3 96.6 96.3 93.4 76.6 68.1 69.9 73.3 83 81.1 84.2 83.4 91.6 93.7 96.4 98.3 100.4 99.2 90 93.3 94.6 95.7 101.2 106.4 103.5 101.7 101.8 99.3 98.9 98.9 98.1 97.3 97 96.7 96.4 96.5 96.5 94.8 94.4 95.6 96.5 95.1 94 94 94 94 93.9 94.1 94.1 94 93.9 93.8 93.5 93.2 92.4 91.5 92 93.9 95.7 97.5 99.4 100.7 99.8 96.8 92 86.2 80.3 77.6 75.7 74 72.2 69.3 65.8 54.9 55.3 58.2 54.2 53 51.7 47.7 46.7 46.3 46.5 41.9 40.7 41.2 41.6 41.5 43 44.3 44.1 43.6
12.4 19.1 15.5 14.9 13.9 13.8 14.4 14.5 14.6 15.1 15.7 17.5 19.3 21.3 23 24 25.1 25.4 25.6 28.3 32.1 31.8 34.6 34.8 34.5 35.7 36.9 38 38.8 39.2 39.2 39.4 39.6 40.6 41.9 44.4 47.3 48.6 49.8 48.8 47.6 46.2 44.7 42.6 41.3 42.3 44.3 47.2 51.2 54.2 55.9 57.8 58.6 59.1 60.6 61.8 63.2 64.7 65.9 67.8 69.1 69.9 70.5 70.7 69.7 68.6 67.4 67.1 67 68.6 70.4 72.8 74.2 74.4 75 75.3 75 74.2 72.2 68.8 64.5 61.7 60.6 61.6 61.7 60.2 56.4 56.4 59.8 48.3 48.3 48.3 48.3 48.3 48.3 48.3 48.3 48.3 50.9 55.7 69.5 70.1 76.6 89.8 92.1 94 96.1 95.2 96.3 96 95.1 90.5 74.1 65.5 69.1 73.1 74.3 76.9 80.7 83.5 86.4 92.1 93.6 95.9 97.9 97.4 95.5 92.1 93 95.6 100.2 101.3 98.9 95.8 100.5 98.1 97.9 97.7 97.1 96.6 96.3 96 95.7 95.5 95.3 94.9 94.1 95.3 96.3 95.8 93.9 93.9 92.4 93.7 94.3 94.3 94.3 94.2 93.9 94 93.8 93.3 92.7 91.6 91.6 93.6 95.6 97.5 99.4 101.1 100.1 96.7 91.9 85.7 78.9 75.7 74.2 72.4 70.5 68.1 65.1 60.1 56.4 56.5 52.4 51.3 51.5 47.1 46.8 46.7 46.3 40.7 40.6 40.7 40.8 40.3 42.6 43.7 44.2 43.5
13.3 19.1 16.4 15 14.4 14.2 14 14.1 14.2 13.4 15.2 17 18.8 21.4 22.5 23.4 24.4 25 25.1 28.3 30.7 32 35 35.8 35.4 35.3 37 38 38.3 38.8 38.9 39.1 39.5 40.5 42.2 44.5 47.1 48.2 49.2 48.8 48.8 47.8 46.6 43.8 41 41.9 43.4 45.9 50.3 53.9 54.8 55.9 57 58.6 60.2 61.7 63.1 63.7 63.7 65.3 65.8 67.3 68.1 66.8 65.4 64.3 63.3 63 63.6 64.7 66.4 69 71.2 72.5 73.2 73.4 72.5 71.9 69.3 64.3 61.4 59.7 58.6 60.2 60.7 57.8 53.8 55.4 57.5 48.3 48.3 48.3 48.3 48.3 48.3 48.3 48.3 48.3 50 55.1 68.8 69.4 75 89.9 92.8 94.8 97.3 96.5 96.3 96.7 95.3 88.3 74 65.7 69.3 73.2 87.5 93.7 100 100.1 97.9 97 95.4 95 100.1 105.4 101.2 91.4 93.1 95.4 97.1 99.1 101 97.3 96.6 97.1 97.5 97.4 96.8 96.6 96.4 96.1 95.9 95.7 95.5 94.7 94.5 95.9 97 97.1 96.1 95.4 94.7 95.1 95 94.8 94.4 94.2 94 94 93.8 93.2 92.7 91 90.3 92.5 94.6 96.5 98.7 100.1 98.9 96.4 91.2 84.7 77.9 73.8 72.5 69.9 68 66.3 63.1 56.7 56.1 54.9 53.2 48 46.8 45.6 42.7 43.3 46.5 41.6 39.8 39.8 40 42 42.9 43.6 43.8 43.2
13.8 17.3 18.2 15.2 14.9 14.8 14.6 14.4 14.4 14.9 15.1 16.5 18.6 21 22 23 23.9 24.7 25.5 27.5 29.1 30.8 31.8 34.7 34.8 34.6 37.4 38.8 38.3 38.4 39 39.3 39.4 40.6 42.6 45.2 47.5 48.7 48.7 48.8 49.4 49.4 49.2 46.8 43 40.7 41.3 43.6 47.5 50.4 51.9 53.5 56.2 58 59.8 61.1 62.2 62.8 61.9 61.9 62.6 64.3 65.1 63.9 62.5 61.4 60.6 59.5 60.6 61.6 63.2 65.6 66.9 68.5 71.1 70.9 69.3 66.2 62.7 58.9 57.3 56.7 57.7 59.3 59.4 57.4 50.7 53.7 55.5 48.3 48.3 48.3 48.3 48.3 48.3 48.3 48.3 48.3 49 60.6 67.2 67.9 74.9 85.3 89.1 93.5 96 97 95.9 96 94.1 86.7 71.5 65.6 69.9 88.3 101.2 109 109.6 110.5 111.7 112 110.8 108.6 105.7 106.1 103.2 97 96.5 102.2 110.9 113.4 113.3 99.9 95.5 97.3 97.6 97.2 97 96.8 96.6 96.3 95.9 95.3 94.8 94.3 94.7 95.9 97.1 97.8 97 96.9 97.1 96.4 96.1 96.4 95.8 94.9 94 93.3 92.2 90.7 89 87.6 88.2 90.7 92.7 94.4 96.7 98.1 97.1 94.1 89.7 83.2 76.7 71 69 67.5 66 64 61.7 59.2 55.5 53.4 53.5 52.4 46 44.6 42.9 41.4 41 44.4 39.5 39.5 37.9 42.1 42.5 43 42.8 41.3
14.3 15.8 19.5 14.7 14.7 15.1 15.5 15.4 14.8 15.2 15.8 17.4 18.7 20.6 21.6 22.5 23.4 24.2 25.4 27.1 28.6 29.4 30.3 33 33.6 34.4 36.5 38.9 38.5 39.3 40.1 41.5 41.3 41.8 44.5 47.2 48.7 49.3 49.6 50.3 51.1 51.9 51.3 50.4 45.1 39.8 40.2 41.9 45.7 48.4 50.2 52.6 55.3 57.3 59.2 60.8 62.3 61.4 59.5 59.2 59.4 61.2 62.1 61 59.9 59.2 58.5 57.6 58.2 59.1 60.6 61.6 62.1 63.7 65.1 64.3 62.9 59.7 56.9 55.4 54.9 56.6 58.4 58.9 58.1 55.2 50.9 53.2 48.9 48.3 48.3 48.3 48.3 48.3 48.3 48.3 48.3 48.3 50.1 65.1 66.1 66.8 79.6 84.9 86.3 87.5 90.5 92.7 95.3 95.3 93.7 82.6 67 65 69.3 90.1 108.4 109.3 110.2 113.4 113.7 112.9 111 111.5 109.2 106.6 114.4 116.6 119.8 119.7 122.2 121.1 114.4 102.1 95.1 97 97.5 97.2 97 96.7 96.2 95.9 95.2 94.5 93.8 93.2 93.8 95.4 96.6 97.2 97.6 97.3 97.4 97.4 97.1 97.3 96.6 95.2 93.8 91.2 89.2 87.2 85.3 84.8 84.7 88.6 90.5 92.3 94 95.2 94.4 91 86.8 81.3 75 68.8 66.6 65.4 64.2 61.5 59 56.5 54.3 53.3 52.4 48.8 46.8 43.9 41.2 40.8 40.3 40.7 39.2 39.2 39.3 42.8 42.5 40.1 40.7 40.9
14.6 15.6 20 15 14.6 15 15.4 15.4 14.4 14.9 16 17.1 18.7 20 20.9 22 23 24.5 25.4 27.3 28.6 28.6 29.7 31.2 32.6 34 36.2 36.8 36.6 38.1 39.6 42.1 45.1 47 48.1 49.9 51 51.7 51.7 51.8 52.6 53.7 53.9 51.6 49.5 41.5 38.9 40.8 44.1 45.8 49.2 52.1 54.8 56.6 58.6 60.2 61.4 59.1 57 56.4 56.4 56.7 57.8 59 58.5 57.8 57.1 56.6 56.9 57.2 57 57.2 57.7 58.8 58.6 57.3 55.7 54.6 53.4 53.1 54.6 56.7 57.8 57.5 55.9 54 50.2 52.6 48.3 48.3 48.3 48.3 48.3 48.3 48.3 48.3 48.3 48.3 55.4 64.5 65.5 66.1 82.9 84.9 86.2 88.6 90.6 91.7 93.5 93.5 88.7 77.2 64.2 61.6 83.5 96.8 109.5 109.6 114.4 116.2 116.9 117.1 115.9 115.8 122.1 122 121.3 120.2 127.2 127.8 128.6 123.3 113.2 100.1 95.1 96.7 97.2 97 96.7 96.2 95.4 94.6 94 93.3 92.6 92.6 93.1 93.3 94.9 96.1 97.4 97.4 97.5 97.6 97.6 97.2 95.8 94.1 91.7 89.1 86.8 82.9 82 81.6 80.5 85.5 87.7 89 90.1 91.5 90 87.4 83.5 79.1 73 67.6 64.2 63.1 61.8 59.4 56.9 55.3 54 53.3 52.2 47.6 46.3 42.4 41.2 40.8 40.6 39.6 43.5 39 38.6 39.2 39.1 39.4 40 40.5
14.9 15.2 20.5 15 14.5 14.8 15 15.2 13.2 14.4 15.2 16.8 18.4 19.2 20.2 21.5 22.2 23.3 24.9 26.5 27.3 28 29.1 30.2 31.7 33.2 33.1 33.3 34.6 36.6 38.7 41.8 45.4 48.3 50.8 53 54.6 55.1 55.3 56.2 56.3 56.1 55.5 53.5 49.9 43.7 37.6 39.5 42.5 44 48.2 51.3 54.4 56.2 57.9 58.5 57.6 55.9 54.6 54.1 54.2 54.4 55.2 56.1 56.8 56.4 55.8 54.9 54.4 54.3 54.6 53.8 53.6 53.4 53.2 53.1 52.7 52.2 51.5 52.2 55.3 56.6 56.5 55.8 54.5 51 49.3 53.2 48.3 48.3 48.3 48.3 48.3 48.3 48.3 48.3 48.3 48.5 63.2 64.3 64.6 64.9 83.8 85.2 86.8 88.7 90.5 91.2 91.6 85.8 79.9 69.4 64.4 72.8 89.8 106 108.9 110.5 115.6 116.3 117.3 121.2 121.7 121.9 122 122.2 122.3 127.3 127.5 127.8 129.2 120.1 109.6 95.9 94.9 95.9 96.5 96.7 96 95.1 94.3 93.5 92.8 92.1 91.1 90.2 91.2 92.2 95.3 95.4 97 97.4 97.6 97.6 97.2 96.3 94.6 91.5 88.7 87 84.5 80.6 78.8 78.8 76.4 81.5 84.6 85.6 86.1 86.8 85 82.5 79.6 75.4 70.6 66.2 61.8 60.6 59.1 56.9 56.1 55.1 53.9 52.7 48.5 47.1 45.9 41 40.8 40.6 40.2 39.1 39.6 39.2 38.9 38.9 38.8 39.3 39.6 40
14.3 14.7 18.5 18.9 14.5 14.6 14.7 14.9 14.3 14.4 15.2 16.6 18.1 18.5 19.7 20.9 21.7 22.1 23.5 25 25.6 26.9 28.3 29.4 31.1 32.4 32.7 32.8 33.4 35.4 37.8 40.4 44.1 47.7 51.2 53.7 56.2 57.3 57.3 56.4 54 53.1 50.7 49.4 48.7 43.5 37 38.5 40.6 42.4 47.1 50.3 53.4 55.9 56.5 56.4 55 53.5 52 51.4 51.4 51.5 51.9 52.6 53.2 53.4 53.2 52.4 51.3 51.3 51.4 50.5 50.3 50.4 50.6 51 50.8 50.2 50.2 52.1 54.4 54.7 54.3 54.5 50.1 48.9 52.3 53.6 48.3 48.3 48.3 48.3 48.3 48.3 48.3 48.3 48.3 57.7 62.5 60.4 59.7 73.1 84 85.6 85.8 83.1 80.1 77.6 75.9 72 70 63.1 66.9 81 87.4 97.6 109.5 111.2 115.8 118 118.2 121.7 121.4 123.2 124 122.2 122.8 129 129.4 128.4 128 116.9 106.3 91.3 94 95 95 94.9 94.5 93.9 92.8 91.9 91.6 90.5 88.9 88.3 90.3 92.5 93 95.9 96.7 97.1 97.4 97.3 96.3 95.3 92.8 89.1 86 84.1 81.9 78.4 76.1 76.1 72.5 77.6 80.2 82 82.4 81.7 80.1 77.5 75 71.9 67.9 63.8 60.2 58.2 57.1 56.3 55.5 54.3 52.3 51.9 47.7 46.2 45.2 40.3 39.8 39.4 38.9 38.4 38.7 42.7 38.6 38.6 38.4 39.2 39.4 37.7
12.8 14 14.8 21.5 14.9 14.9 15 15.6 14.5 13.3 14.1 16.4 17.4 17.9 19.1 20.4 21.3 21.7 22.1 23.1 24 25.5 27.2 27.4 30.5 31 31.7 32 32.3 34.2 36.9 39.1 42.7 46.7 49.5 52.2 54.6 56.9 57.2 55.5 53.3 50.9 49.1 48.2 48 44 36.3 37.6 39.3 40.9 44.9 49.4 52.4 54.2 54.3 53.8 52.3 50.8 49.4 48.3 48.1 48.2 48.4 48.6 48.6 48.9 49.1 47.9 48.2 48.6 47.8 47.4 47.6 48 48.3 48.9 48.7 48.6 49.7 51.4 52.4 52 51.5 48.9 47.8 52 57.3 51.8 48.3 48.3 48.3 48.3 48.3 48.3 48.3 48.3 57.3 59.4 57.2 58 59.7 80.9 80.8 73.5 66.4 62.6 62.3 60.6 61.2 61.7 62 67.1 83.9 86.9 89.8 92.6 108.3 111 116.1 118.4 119.7 121.4 120 120.3 119.2 118.1 120.4 126.9 128.9 129.1 125.4 114 100.1 90.6 93.1 93.6 93.5 93.1 92 90.9 90.1 89.3 88.9 87.9 86.1 87.1 89.5 91.9 93.6 94.5 95.3 96.1 96.1 96 95.4 93.3 90 86.5 83.4 81.4 79 76 73.5 73.3 68.5 73 74.5 75.8 76.5 75.6 74.7 73.1 70.1 67.3 64.3 60.7 57.9 57.1 56.2 55.3 53.7 53.1 52.4 50.1 47.5 46 42.9 39.1 39.2 38.4 38.3 38 38.2 37.5 38.1 38.2 38.1 37.3 39.5 40.8
12.3 15.4 15.4 19.6 15.1 15.4 15.1 14.3 12.5 12.5 13 16.1 17.2 17.5 18.9 19.9 20.9 21 21.8 22.6 23.5 24.4 25.9 25.6 30.1 30.6 30.7 30.5 30.1 32 34.5 37.7 40.8 44.4 47.1 49.3 52.3 55.6 56.3 55 52.8 50.5 47.9 47.4 47.4 44.5 35.8 37.4 39.2 40 43.1 48.6 51.2 51.6 51.8 51.1 48.4 47.4 46.7 45.7 45.3 45.3 44.7 44.9 44.5 44.4 44.5 43.6 44.2 44.8 44.8 44.4 45 45.6 46.3 47 47.7 48 48.8 50.4 50.8 50.1 48.4 46.6 49.6 48.1 48.7 49.4 48.9 48.9 48.3 48.3 48.3 49 49.2 48.3 51.7 55.5 56.7 55.6 55.9 55.2 56.3 59.4 61 61.9 62.7 61.2 62.3 65.5 71.1 74.9 81.4 86.3 83.6 89.3 97.1 111.3 117 119.1 119.1 118.7 118.3 115.7 115.7 116.1 116.6 121.6 126.5 124.3 118.4 108.1 91.9 89.9 91 90.8 90.4 89.7 88.7 87.6 87.3 86.7 85.9 84.6 83.2 85.6 87.6 89.6 91.2 92.4 93.5 94.6 94.7 94.3 92.8 90.3 87 83.4 80.6 78.9 76.5 74 71.5 71.7 67.5 67.2 66.8 68.2 70.7 70.7 70 67.7 64.9 61.9 59.8 57.3 56.3 55.3 54.1 53.4 52.8 52.5 51.4 49.6 47.1 44.8 40.2 38.9 38.3 37.6 37.6 37.6 38.8 35.6 42.6 36.5 38.5 40.2 41.1 41.8
12.4 12.6 14.1 21.7 16.5 15.7 15.2 14.7 16.5 13.2 13.4 14.1 15.5 16.2 18.7 20 20.4 20.7 21.5 22.2 22.9 23.9 25 26.1 26.9 29.3 29.9 28.5 28.1 29.6 32.9 36 39.1 42.2 44.6 46.8 50.2 55.6 55.3 53.8 52.5 50.3 47.3 45.4 46.3 44.1 35.4 36.2 38.5 39.1 42.2 46.9 48.7 49.3 49.6 50.1 46.7 45.4 44.2 42.5 42.5 42.9 43 43.3 42.8 42 41.7 41.5 41.3 41.4 41.6 41.7 42.3 43.2 44.8 45.2 45.6 46.5 48.1 49.2 49.7 49.9 49.6 51.4 50 51.4 51.5 53.7 55 60.6 61.9 59.3 60 56.9 56.6 60.5 61.5 62.1 61.8 62.4 63.3 61.7 60.8 61.8 60.4 60.1 60.1 60.3 65.5 64.2 69 70.9 77.3 82.4 86.9 89.8 98.5 107.6 116.6 118.2 117.6 117.3 116.3 115.2 115 114.8 114.8 114.8 114.2 111.8 108.9 97.3 85.9 87.6 88.1 87.5 87 86.4 85.3 84.3 84 83 81.8 80.6 81.4 83.6 85.9 87.6 88.3 88.9 89.5 90.6 91.3 90.7 89.3 86.9 84 80.4 77.8 76.1 74 71.7 69.8 69.5 67.2 63 59.2 60.9 65.7 65.9 65.3 61.9 59.2 56.6 55.2 53.3 53.3 52.7 51.7 50.8 51.7 51.4 50.7 49.2 47.2 44.7 39 37.9 37.1 37 37.1 37.2 38 35.1 37.5 38.3 39.8 44.8 45.9 46.8
12.3 12.6 12.2 18 20.2 15.7 15.8 15.7 14.9 13.6 13 17.1 15.5 17.3 18.7 19.9 20.7 20.9 21.5 22.3 23.6 25.8 27.1 29.2 31.5 29.3 28.2 28.3 27.7 28.3 31.3 34.5 37.6 40.3 42.9 44.6 48.1 55.9 57.9 53 51.6 50.3 47.6 45.4 44.8 44.1 36.3 35.9 37.9 38.6 39.4 42.4 45.3 47.3 49.3 48.7 48.3 45.7 44.6 41.3 41.6 41.3 41.4 41.6 41 40.1 40 39.6 39.6 39.9 40 40 40.5 42.1 43.6 43.4 43.6 47.9 47.8 48.1 49.1 48.6 47 46.1 46.2 47.8 51.9 51.7 52.6 54.4 55.7 56.6 64.8 56.9 56.7 59.5 60.9 61.9 62.1 61.2 61.5 60.4 59.4 58.9 58.4 59.3 59.3 59.5 61.3 66.5 67 70.6 72.2 72.6 81.2 88.4 94.5 101.2 110.9 113.2 111.9 105 102.9 101.8 100.2 100.4 101.2 102.8 99 91 91.9 87.6 82.3 84.1 85 84.1 83.5 83 81.9 80.2 79.6 78.2 77.5 76.9 78.6 81.5 83.5 84.7 84.6 84.9 85.5 86.4 86.6 85.9 85.1 83.2 80.4 77.9 75.3 73.3 71.3 69.4 68.1 66.8 62.8 60.9 58.9 59.6 61.6 60.1 58.1 55.5 53.1 52.3 51.3 49.9 49.2 49.5 48.1 48.3 49.6 49.5 48 45.6 43.6 40.9 38.6 37 36.5 36.6 36.6 36.8 38.3 35.4 44.4 41.7 48.2 48.9 49.7 50.3
12.1 12 12.3 15.9 22.3 15.9 15.9 15 14 12.5 12.2 14.5 16.3 17.5 18.8 20.4 21.5 22.3 22.6 23.1 24.7 27.4 30.1 35 36 34.3 30.2 30.2 30.1 27.8 29.7 32.9 35.7 38.4 41.1 43.1 46.9 54.9 58.8 55.1 52.6 51.2 49.6 46.3 45.4 41.8 33.9 34.3 37.3 37.8 38.6 40 46.1 50.3 49.8 48.3 47.4 48.8 45.1 40.6 40 39.7 39.5 38.8 39 38.5 38.4 38.1 38.4 38.8 39.3 39.6 40.5 42.1 42.1 43 47.7 47.9 48.4 48.8 49.7 48.4 48.3 49 49.9 49.8 47.3 47.3 47.8 48.2 49.7 51.9 53.5 54.9 56.1 57.2 58.3 58.5 58.1 59 59.1 58.2 58.6 59.4 58.1 58.5 58.4 60.1 61 62.6 64.3 67.7 69.1 71.3 76.6 83 90.2 96.9 100.8 100.5 100.4 97.7 93.5 90.5 88.5 88.8 88.4 87.2 87.2 85.5 84.8 83.1 80.4 80.9 81.6 80.7 80.1 78.5 76.7 75.2 74.6 74.2 73.4 73.6 75.6 78.2 80.3 81 81.1 81.1 81.5 82.1 82 81.2 80.4 78.9 77.7 75.2 72.3 70.7 68 65.8 64.1 62.4 60 57.6 57 56.4 54.8 53.7 52.4 52.2 51.3 49.9 48.3 46.7 47 46.2 45.8 45.6 46.2 45.6 43.9 41.8 40 39.6 38 36.9 36.2 36.1 36.2 36.3 36.7 44 46.6 45.1 50.1 51.1 52.5 53.3
11.9 12.2 15.8 15 22.6 16.1 15.4 14.7 13.8 12.5 12.9 15 16.1 17.4 18.6 19.5 22.7 24.2 24.3 24.9 26.5 30.6 33.6 34.9 35.3 35.4 32.5 31 31.2 28.4 27.4 31.2 33.9 36.6 39.2 41.3 44.4 50.2 54.6 56 54.3 54 52.2 46.8 45.5 45.2 33.7 36.2 37.1 37.1 38.2 39.2 42.8 49.5 50.9 49.8 48.2 48.4 44.4 39.7 38.1 37.2 36.9 36.8 37.1 37.5 37.7 38.4 38.8 38.8 38.3 40.6 42.2 43.3 46.1 47.9 48.9 49.4 49.9 50.6 51.5 51.5 52.7 53.4 56.1 57.3 56 54.2 53.1 51.8 52.2 52.2 52.5 55.5 57.1 57.4 57.9 57.9 58.2 58.6 58.8 57.1 56.4 58.5 61.4 63 63.5 63.3 62.8 63.7 64.5 65.2 66.4 66.3 70.1 74.7 82.5 88.9 93.3 93 90 85.2 80.4 76.9 75.8 75.9 77.1 78.7 79.6 79.7 80 78.5 77.6 78.7 77.4 75.3 74.5 73.1 71.6 70.3 69.3 68.7 69.5 70.1 72 75.4 76.8 77.1 77.3 77.4 77.7 77.9 76.7 76.4 75.7 74.4 73.1 72.2 68.3 66.4 63.9 61.7 59.6 57.8 56.1 54.3 52.8 52.6 51.5 53.1 52.9 52.7 52.7 51.5 49.7 47 45.8 45.5 44.9 44.4 43.8 42.8 41.5 40.6 37.4 38.9 37.9 38.7 37.6 36.1 34.6 36.7 37.9 43.1 45.7 47.5 43.8 51.2 53.2 53.7
11.5 11.7 14.3 14.7 22.3 18.3 13.8 14.3 12.3 12.1 14.1 15.4 15.8 17.2 18.7 20 21.2 22.2 22.3 24.6 26.2 30.5 32.6 34 34.5 34.7 32.7 31.7 30.2 27.8 26.3 29.3 32.2 34.5 36.4 38.1 40.1 44.6 48.8 51.6 52.9 58.2 55.9 53.5 46.5 45.6 33.9 35.1 37 37.3 37.5 38 39 43.9 47.7 49.3 45.9 44.9 42.4 38.8 34.1 34.7 35.1 35.2 36.4 35.9 40 42.7 44.6 44.9 45.6 47.1 47.7 48.1 49.1 50.1 50.9 51.6 52.3 53.7 55 56 57.4 57.4 59 58.9 58.4 58.4 58.9 59 59.7 59.8 60.1 60.7 61.5 62.2 63.5 62.7 61.3 60.1 60.8 64.4 66.6 67.3 67.7 69 69.1 67.6 66.3 66 66.5 67.6 68.4 68.5 69.3 70.4 73.2 78.7 81 80.3 77.7 74.8 79 80.8 82 81.7 81 78.8 77.4 75.5 74.7 74.8 74.4 73.8 72.4 71.9 70.9 70.4 70.3 68.9 67.8 67.5 67.4 67.3 67.6 70.2 71.8 72.8 73 72.2 71.9 71.4 69.9 67.8 68.6 67.7 66.7 65.1 62.5 60.1 58.6 56 56.7 57.1 56.9 57 57 56.6 56.8 57.1 56.8 56.7 57.2 56.1 54.6 51.8 48.8 46.6 46.5 47 46.8 48.1 48 51.9 52.3 49.4 51.3 44.5 41.4 36.2 36.4 36.4 36.6 38.9 41.4 45.1 44.8 50.5 53.1 54.2
11.5 11.6 11.9 14.9 17 17 13.9 13.9 10.1 12.2 14.3 15.5 16.3 17.6 19 20.1 20.8 21.7 22.4 22.4 22.6 27.5 31.3 32.4 33.9 34.5 33.5 31.8 28.6 26.1 26.3 28.7 31.2 33 34.8 36.5 38 41.1 43.8 45.9 48.3 53.8 56.2 54.3 47.8 45.5 36.5 32.9 36.1 37.3 37.9 36.6 37.3 38.8 42.7 45 44.7 43.2 41.9 37.8 34.3 35.3 35.8 37.2 39.1 41.2 44.1 46.1 47.1 48.7 50.7 52.2 52.5 51.4 52.4 53.3 53.9 54.2 55.5 57 58.3 59.5 60.2 60.9 60.3 60.7 60.8 60.8 62 62.8 63.3 63.2 63.7 64.2 64.8 64.8 64.8 64.1 64 63.1 65.4 67.5 69.4 70.8 73 74.1 74 72.7 70.8 69.2 69.5 70.3 70.4 70.6 71.1 72 73.2 74.1 74.7 75.9 79 81.2 85.2 87.4 90.4 90.1 83.3 82.5 81 79 79.8 81.7 73.5 72.8 72.2 72.8 72.7 74.1 75.3 74.8 74.1 73.2 72.3 70.2 65.9 64.8 65.5 65.5 65.3 64.9 65 65 64 62.7 61.8 61.3 60.3 59.1 58.4 58.6 58.6 58.7 60.2 61 61.2 61.5 61.4 61.2 61.3 61.3 60.8 61.5 62.4 61.5 61.1 59.5 55.9 54.6 54.2 54.7 57.8 58.8 60.2 58.4 65 63.2 57.5 50.1 42.5 36 40.6 36.6 36.4 37.5 38.4 42.5 45.3 44.9 50.3 49.9
11.3 11.4 11.7 11.5 12.3 23.2 14.5 13 10.3 13.3 14.4 15.6 16.8 18 18.6 19.2 20.2 21.8 23.2 23.6 23.6 23.7 23.1 29.3 31.7 32.6 32.3 29.2 25.6 26.5 29.9 31.9 33.4 34.6 36.4 36.9 36.9 37.7 39.8 42.4 45.2 49.7 54.3 53.8 49 44.4 43.2 30.7 34.3 36.6 36.6 35.7 35.9 36.8 38.7 41.6 43.7 44 40.4 35.6 34.3 35.4 37.2 39.8 42.2 44.2 46.4 48.8 50.9 52.9 54.6 55.2 55 56.8 57.3 58 58 58.5 59.7 60.5 61.6 61.9 62.7 63.6 64.1 64 63.8 64.3 65.1 65.4 66.8 67.2 67 65.6 66.4 67.3 67.4 67 67 66.5 68.2 69.6 71.6 73.9 76.1 78 78.5 78.6 76.6 72.8 73.4 74 72.6 72.7 73.1 74.4 75.4 77 79.2 82.1 86.1 90.4 93.6 95.9 95.4 95.8 95.4 95.2 94.2 92.7 89.3 87.2 82.4 76.6 75.7 75.6 76.4 78.7 79.1 79.7 79.5 79 78.3 75.9 71.5 68.1 65.5 64.6 64 63.1 62.1 62.4 61.5 60.5 60.5 60.5 60.2 60 59.1 61.3 62.3 62.2 63.6 64.8 65.3 66 65.9 66.4 66.1 66.4 67.4 67.4 67.2 67.9 68.9 69.8 69 69.5 70.4 71.3 72.1 73.4 75.1 75 74.1 71.1 62.1 50 44.5 34.9 35.4 39.3 36.6 37.7 38.3 38.1 38.2 41.1 39.5 40.9
11.2 11.3 11.1 11.2 12 24.2 17.7 12.2 10.3 13.4 14.6 15.8 16.6 17.3 17.7 18.3 19.6 21.7 22.9 22.7 22.6 23 23.3 24.2 22.9 27.8 26.7 23.2 24.2 28.5 31.7 35 35.9 36.9 36.8 36.3 35.4 35.5 36.5 39.4 42.8 47.9 52 52.3 48.7 44.6 43.8 36.5 32.5 35.5 35.6 35.7 35.3 35.5 36.5 38.4 41 41.9 37.2 34.2 34.8 35.7 38 41.8 44.8 46.8 49.6 52.4 54.3 56 57.4 57.3 57.3 58 60.4 60.6 61.3 61.9 62.9 64 64.6 65.4 66.1 67 67.8 68.4 69.4 69.7 70 70.4 71.1 71.3 71.1 70.7 71.2 72.6 72.1 70.4 69.8 69.9 70.6 72.4 73.6 75.3 77.6 79.3 80 80.2 80 78.3 78.6 78.6 76.7 75.8 75.1 76.3 77.6 80 83 85.2 88.6 93.9 98.1 99.3 98.6 98 97.7 96.5 95.5 92.9 92.7 92.2 89 82.6 80.1 78.9 80.9 83.2 83.6 83.6 83.3 82.2 79.4 78.3 75 72 69.4 67.7 66.2 64.7 65.4 64.2 63.2 64.7 63.9 64.1 64.5 64.3 63.4 65.4 66.4 66.4 67.4 68.6 69.4 70.3 71.3 72 71.7 72.7 75.2 76.2 79 80.8 81.5 82.2 82.5 83.4 84.3 84.2 84.9 85.1 85 83.2 79.7 73.7 64.3 53.9 47.4 39.2 33.7 35.1 36.1 37.8 38 38.9 37.7 37.3 38.8 41.5
11.2 11.2 11.2 11.1 11.3 20.4 22.8 10.7 10.2 13.5 14.4 15.3 16.1 16.9 17.1 17.6 18.7 20.5 21.8 21.4 21.7 22.1 21.7 22.1 25.7 23.8 22.2 21.8 25.3 29.4 31.9 35.1 37.2 36.8 36 35.1 34.1 33.3 34.3 37.9 41.5 47.5 50.6 49.7 48.6 45.1 44 43.6 30.3 34.6 34.9 34.6 33.9 34.2 34.7 35.8 37.7 36.4 33.5 34.6 35.4 36.3 40.4 44 46.4 49.8 52.9 55.7 59.2 60.3 60.7 61 61.4 62.3 63.5 65.2 67.5 68.6 69.1 68.6 69 69.8 70.6 71.1 72 73.5 74 74.6 74.8 75.3 76.1 76.7 76.5 76.5 76.9 76.8 75.9 74.5 74.4 74.3 74.8 76 76.1 77.3 79.3 81.1 82.3 83.1 83.4 82.6 81.7 80.9 79.2 77.7 77.3 78.7 80.1 81.7 83.2 87.4 91.2 95.2 99.1 101 100.7 100.2 100 98.9 97.4 95.9 94.6 93.2 90.5 85.2 82.3 84.3 86.5 87.7 87.2 86.2 83.8 81.3 79.3 79.9 78.4 75.6 74 71.9 69.5 69.4 70.1 68 66.5 68.7 68.1 68.9 69 68.8 68 69.8 70.5 70.8 71.6 72.5 74.1 76.2 78 78.5 80.4 82.7 85.3 87.9 89.5 91.7 93.5 94.8 95 93.7 92.6 92.7 93.8 94 91.4 86.9 80.8 74.1 65.6 58.7 47.4 36.5 35.7 34.4 35 38 35.2 35.3 39.1 36.6 42 42.3
11.1 11.2 11.2 11.1 10.9 13.4 23.4 9.5 11 13.7 14.2 14.8 15.7 16.6 17 17.1 18 19.6 20.6 20.8 19.7 21.3 21.3 21.1 22.3 18 17.5 20.8 23.2 29 32 34 35.9 36.2 35.1 34.1 33.2 32.1 33.7 38.2 41.5 46 48 47.1 48.4 44.8 41.2 42.4 29.6 33 33.7 31.6 31.4 31.2 32.1 33.2 33.4 33 33.7 35 35.9 37 41.3 45.4 47.8 52.2 56.5 61.5 64.8 64.7 64.2 63.6 63.6 64.5 66.6 69.3 73.1 76.8 79.3 79.7 80.7 80.3 77.3 77.6 78.1 78.5 78.8 79.2 79.6 79.6 80.6 81 80.4 80.6 80.9 81 80.8 79.6 79 77.9 78.3 78.5 78.9 80.1 81.4 83.2 84.4 85.6 86.1 85.3 84 82.8 81.1 79.6 79.7 80.7 81.9 83.1 84.5 86.2 91.4 96.4 100.3 102.4 102.5 102.3 102 101.3 100 99.1 96.1 93.9 91.4 86.9 89.1 90.3 90.2 89.9 89.2 87.5 85 82.6 83 83.2 81.7 79.9 77.8 75.5 73.9 73.9 73.4 71.3 71.4 72.6 72.4 72.8 73.3 73.9 73.6 74.7 75.9 78.5 79.6 80 83.1 85.5 86.9 89 90.9 93.4 96.3 98.7 100.6 101 101.3 101.8 101.6 101.6 100.7 100.5 99.6 98.2 95.4 92.4 80.2 71.2 63.8 56.7 48.6 37.2 35.3 33.9 34.5 38 34.5 34.7 38.6 36.6 37.2 39.1
11 11.5 10.9 10.6 10.6 11.6 11.9 7.9 11.9 13.4 14 14.2 15.2 16.3 16.7 16.8 17.4 18.4 19.1 19 18.1 18.8 17.8 16 14.4 12.7 15.2 17.9 20.6 24.3 24.4 29.5 31.1 31.7 31.9 31.8 31.3 30.6 32.2 36.5 39.1 41.7 44.1 49.9 48.4 44.9 43.2 43.2 36.8 30.2 29.4 29.3 30.4 30.6 30.6 31.3 31.8 32.6 34.3 37.1 38.4 44.5 42.3 45.4 48.4 53 58.9 66.7 71.9 72.4 69.4 66.9 66.5 67.2 68.5 71.6 77.6 81.3 84.3 86.8 90.6 91.5 91.8 90.7 88 86.8 86.7 85.5 85.6 84.5 84.7 84.8 84.1 83.9 83.8 83.6 83.3 83.1 82.1 80.9 80.8 81.3 82.3 83.5 84.7 85.6 86.6 87.6 88.1 88.2 86.5 85.2 84.2 83.2 82.7 83.2 84.2 85.1 86.5 88 89.5 93.2 97.4 100.4 102.6 104.3 103.8 103.2 102.4 100.2 97.9 95.4 92.9 93.3 93.8 93.4 92.5 92.2 90.8 88.5 87 87.7 87.3 85.8 84.3 82.8 80.8 79.3 78.5 77.4 76.7 76.3 76.7 77.6 78 79.1 79.3 80.3 82.1 85.1 86.2 87.9 89.1 91 92.8 94.7 97.7 100.3 102 104 106.4 106.9 107.3 107.4 107.9 108.5 109.2 109 108.2 105.7 101.8 97.9 93.2 86.4 77.1 68.6 60.7 53.9 49 46.5 35.6 32.4 34.4 37.9 34.4 34.6 34.8 40.8 37 41.1
10.7 10.7 10.3 10.5 10.6 10.3 8.7 10 11.4 12.1 13 13.8 14.6 15.5 15.1 15 14.5 13.4 13.6 14.5 13.8 12.8 10.8 8.7 11 10.6 11.8 14.7 15.9 17.7 18.7 21.3 24 26.2 28.7 29.1 28.9 29 30.8 33.3 34.7 42.1 50.8 50.7 48.7 45.5 44.6 44.9 34.3 29.4 33.4 35.3 36.3 36.5 32 32.2 31.7 37.4 39.1 43.9 42.5 42.9 43.2 46.4 49.2 52.6 57.8 64.5 71 73.9 71.1 70.1 68.6 69.8 70.5 75.2 80.2 83.3 86.7 90 92.3 97.2 98.6 99.7 100.4 99.6 98.1 95.8 93.2 91.9 91 89.7 88.6 87.6 87.1 87.5 86.8 85.7 84.9 83.9 83.9 84.7 85.7 86.6 87.3 88.6 89.5 90.9 91.5 91.7 90.3 89.1 87.7 86.6 86 86.8 87.2 87.8 89.2 90.7 92.3 94.4 96.8 99 101.3 103.3 103.3 103.5 102.7 100.9 99.1 97.8 97.7 97.3 96.4 96 95.2 93.5 91.4 89.8 89.9 89.9 89.5 88.4 86.8 85.6 83.9 83.2 82.8 81.4 81.7 82.5 83.6 85.2 86.2 88.2 89.9 91.1 92.4 95.2 95.7 97.8 99.5 101.4 103.3 107.2 109 111.1 111.6 112.1 113.1 113.8 114.2 113.9 114.4 115.2 115.4 112.4 108.2 103.7 99.7 95.1 90.9 84.2 76.5 69.2 60.4 53.7 49.8 46.7 37.9 34.9 33.7 37.7 33.9 34.4 34.7 35.2 39.2 37.2
10.9 11.2 9.9 10 10.2 10.3 8.1 8.8 9.6 12.1 13.3 13.9 13.7 13.4 11.5 9.5 7.8 9.3 9.3 8.7 8.9 10.5 11 14.1 14.3 12.8 10.7 10.8 11.2 11.5 12.2 13.2 18.6 21 22.6 24.4 25.5 28.8 29.8 32.5 36.6 41.1 45.5 50.2 46.4 45.4 45.3 45 28.5 34.9 35.8 36.7 37.2 37.1 37.5 39.8 40.5 43.7 44.5 44.5 45.2 45.6 46.2 47.6 49.6 52.6 57.3 62.2 67.7 70.1 70.7 70.4 69.8 70.5 72.1 77.6 81.8 85.2 88.1 90.9 93.7 97.4 100.7 104.6 106.1 106.8 106.5 105.4 103.6 102.2 100.9 99.2 95.9 94 92.7 92.1 91.3 89.4 87.7 87.5 87.9 88.4 89.8 90.8 91.3 92.2 93.4 94.7 96 95.9 95.1 93.3 91.7 91.2 90.4 90.6 91 91.1 92.1 93.5 95.2 96.3 98.4 99.7 101.5 103.3 105.4 106.1 105.3 103.7 102.7 101.3 100.8 100 99.3 98.5 96.9 95.3 94 93.3 93.2 93 92 90.6 89.8 89.2 88.6 88.2 87.6 87.5 84.3 88.5 93.2 95.2 96.5 99 100.9 103.3 105.2 106.1 108.5 109.3 109.6 110.7 112.6 115.5 117.7 118.1 118.4 118.9 119.7 120.6 119.6 119 118.9 117 113 109 104.9 100.6 96.5 91.8 87.4 82.4 75.4 67.3 58.9 53.9 49.3 45 37.7 35 33.2 37.5 33.5 34 34.3 34.2 36.7 44.7
11.7 12 10.7 9.3 9.6 11.6 8.4 8.6 8.6 10.3 11.9 12.3 9.7 9.7 8 10.1 11.6 14.7 14.6 12.9 13.1 13.9 15.5 19.5 21.2 20.1 17.6 13.4 11.1 12.3 12.6 12.2 14 17.2 19.4 20.9 22.8 26.1 28.6 29.9 31.6 33.5 33.9 39.6 41 40.9 37 32.3 28.2 34.8 38.6 36.7 36.2 36.5 38.4 42.1 44.3 45.9 45.5 45.6 46.1 47.8 49.4 50.4 51.3 54.8 57.3 62.2 65.5 67.9 69.2 69.8 69.9 70.7 72.4 76.5 81.2 85.7 89 91.5 94 95.6 100.1 104.7 109 111.6 113.2 112.2 112.4 111.5 110.1 108 104.6 101.8 98.9 97.7 95.6 93.9 92.6 92.3 92.8 93.6 94.8 95.7 96.3 96.9 98 99.2 100.3 100.9 101.3 100.9 99.9 99.9 96.9 95.2 95 95 95.9 96.6 98.7 100.4 100.8 102.2 103.9 105.5 106.9 107.6 108 107 105.9 104.6 103.3 102.6 101.8 100.9 99.8 98.4 97.7 97.5 97 96.5 95.4 94.2 94.6 94.1 93.9 93.6 95.1 94.9 90.5 98 103.5 105.6 107.3 109.9 112.4 115.5 115.9 116.7 117.6 117.5 119.3 117.1 118.8 121.7 123.5 123.8 124.5 125.1 124.5 123.6 121.6 119.1 115.7 112.3 108.6 104.4 100.6 97.1 92.3 86 80.6 74.4 65.9 60.7 57.3 52.2 48.2 47.7 46.4 43 31.7 33.5 33.2 33.6 33.7 33.8 34 35
8.5 8.7 11.4 12.9 9.7 8.1 8.1 8.2 6.8 9 9.4 9.2 9.5 8.8 10.1 13.1 15.6 17.4 19.1 19.6 18.2 18.1 19.6 23.5 27.1 29 29.8 28.2 20.2 16.8 13.6 12.5 13.7 16.2 18.1 20.2 22.8 24.7 26.8 28.9 31.4 33.6 35.2 36.2 37.1 34.3 34.4 33.2 29.1 33.5 35.3 35.7 36.2 37.1 40.7 43.9 45.9 47 46.4 46.3 47 48.4 51.2 52.9 54.9 57.2 58.9 62 64.3 66.3 67.6 69.2 69.8 70.3 71.8 73.9 78.7 84.6 90 93.5 94.9 96.8 100 104.5 108.7 112.8 116.9 118.5 119.6 119.3 117.9 116.3 113.5 110.6 107.8 105.5 103.9 103.6 102.4 101 99.8 99.8 100.4 102.4 102.4 102.3 103.9 105.4 105.3 106.7 110 110.1 108.6 110.1 105.7 101.8 101 101 100.5 101.4 102.1 102.9 104.4 105.3 106.7 107.9 109.1 109.5 110 109.5 108.4 107.4 106.3 105.3 104.3 103.3 102.5 102 101.4 100.7 100.3 100.8 100.2 99.6 99.8 100.5 101.3 99 97.1 101.5 102.8 108.3 111.9 113.8 115 117.8 118.8 120.7 122.1 123 124.2 125.9 126.1 124.9 125 126.3 128.5 127.8 127.6 126.3 125.2 123.2 119.7 115.1 111.2 106.5 102.3 96.7 91.1 86.8 80.4 75.2 71.4 67.4 63.4 59.9 55.5 54.4 52.6 51 49.4 47.3 44.3 36.9 33.4 33.5 33.6 33.7 33.6 34.6
9.2 8.3 7.5 8.2 10.3 16.1 13.3 11.7 10.2 9.1 9.3 10.1 10.5 10.5 14.7 17.7 18.4 20.4 21.9 22.8 23.2 26.7 23.4 25.7 29.4 31.4 32.2 31.8 29.8 17.9 12.6 12.6 15.5 18.1 20.2 22.2 24.2 25.9 27 29.4 31.9 33.9 35.7 37 37.5 36.9 28.6 27.3 27.6 31 35.4 35.9 36.5 38.4 40.9 48.1 49.2 49.2 48.5 48.1 47.8 48.3 51.3 53.6 55.7 57.4 58.7 61.2 63.3 65.2 66.7 68 69.1 69.6 70.5 72.2 74.9 83.5 92.3 97.7 99 99.9 101.7 104.9 108.3 112.8 116.4 119.9 122.9 124.2 124.6 123.7 121.5 119.5 116.2 114.6 114.2 113 112.7 112.4 112.6 111.5 110.3 111.5 111.9 113 115.4 115.4 114.4 116.8 118.6 119.2 118.4 118 115.8 111.3 109.9 110.5 111 110.1 109.2 108.2 108.5 109.7 110.7 111.1 112.1 112.8 112 112.1 112.1 110.9 109.8 108.8 107.9 106.8 105.9 105.9 106.2 105.9 105.5 105.3 105.8 105.4 106.9 107.8 107.2 109.3 111 112.5 114.4 117.3 119 120.6 121.9 123.1 124.2 125.7 127.4 126.9 129.1 128.5 127.6 126.6 127.5 128.9 129.6 128.6 127.2 126.1 124.9 122.4 116.9 111.2 106.4 98.6 90.5 85.4 82.1 78 74.6 71.8 68.2 64.9 62.1 58.8 58.6 57.6 55.4 54.1 52.5 49.6 45.1 39.6 33.8 32.8 33.5 33.4 33.1 33.3
13.8 11.1 8.5 7.9 11.9 14.1 15.2 16.5 17.3 16.2 15.3 15.5 15 14.9 16.3 18.9 21 22.9 25.1 25.5 24.5 34.8 25.8 27.3 29.9 31.6 33 32.4 25.6 14 12.6 13.3 14.7 20.4 23.2 25.1 26.9 28.5 29.5 31 33.1 35.8 36.9 37.9 38.6 38.8 34.2 26.6 27.3 28.7 33.4 36.2 37.8 39.9 41.3 52.1 52.4 51.9 52.7 52.4 49.9 48.8 51.2 53.2 55.3 56.7 58.1 60.4 62.4 64.3 65.7 67 68.2 68.9 69.1 69.1 73 77.4 87.7 99.6 105.1 107.9 109.3 109.3 110.2 112.4 115.9 119.5 122.7 125.1 126.9 127.1 126.3 125.6 124.4 123.8 123.1 122 121.3 120.8 120.7 120.1 119.7 119.7 120 120.4 121.8 122 119.6 122.5 123 124.2 124.1 123.1 121.6 120.3 119.6 119.4 120 119.9 118.5 117.3 117.7 117.1 116.9 117.3 117.3 117.3 116.6 116.5 116.2 115.3 113.7 112.5 111.6 110.7 110.4 111.5 112.7 112.8 112.5 112.4 113.1 114.5 116.4 117.6 118.8 119.5 120.1 120.6 121.3 122.6 124.4 126.4 126.4 127.1 128.3 129.1 131.7 129.7 127.4 126.9 125.4 124.5 125.5 126.9 128.4 127.6 127.4 126.7 125.4 121.4 112.7 103.6 98.8 92.1 85.9 82.2 79 75.5 75.5 74.6 73.5 72.5 70.9 68.9 66.7 64.5 62.5 60.5 58.6 56.7 54.8 43.2 38.1 33.2 30.4 32.2 32.8 33.4
13.6 13.9 14.3 14.7 12.6 14.4 15.2 15.9 16.7 17.7 18.3 18.5 18.4 18.7 18.3 19.8 22.1 23.7 24.5 25.6 24.9 27.5 29.4 28.2 31.1 32.3 32.9 31.7 20.6 12.5 12.9 13 17 23.6 27.1 28.8 30.4 32.2 33.3 34.9 36.5 37.6 38.3 38.9 39.6 40.4 40.5 25 27.3 28 30.3 36.1 42.8 50.7 52.1 51.8 52.4 52.3 54.6 55.3 53.3 50.2 51.6 52.7 54.7 56.1 57.7 59.9 62.2 63.4 64.8 66 67.1 67.5 68.7 69.7 71.6 75.8 81.7 91.5 104.2 111.1 113.8 114.6 114.8 116.3 118.5 120.4 122.7 124.3 125.8 127.1 127.8 128.1 128.3 129.1 129.5 128 127.6 126.8 125.8 125.4 125.3 125.3 124.8 125.1 125.1 126.1 125.1 125.4 126.7 127.5 127.4 126.5 125 124.5 124.4 124.7 125.3 125.8 125.8 125.6 126.4 125.9 125.9 126 125.2 124.8 123.6 120.7 120.5 120.5 121.3 120.3 119.7 117.8 117 118.1 118.3 117.8 117.9 119.2 121.1 123 124.8 125.1 125.8 125.4 125.6 125.5 125.3 126.8 127.5 127.9 129.4 130.6 130.4 131.1 130.7 129.5 128.1 126.2 124.1 122.5 123.6 124.8 126.1 127.1 128.3 122.4 114.4 107.4 100.2 94.5 91.3 89.5 87.8 86.1 84.2 82 79.5 76.9 73.7 70.5 68.5 66.2 64.5 60 60.2 60.2 58.9 57.2 52.8 46.2 43.7 40.1 35.8 33.1 29.7 32
7.5 9.3 14.1 14.6 14.9 15.2 15.6 15.4 16.5 22.5 19.3 19.7 17.6 18.5 21 20.9 23.1 23.8 21 23.1 25.4 25.9 26.7 31.1 34.5 33.9 33.8 31 19.4 13.7 13.6 13.3 19.4 26.6 29.8 31.1 33.3 36.1 38.6 39.6 40.3 40.3 39.2 40.1 40.9 40.4 39.1 26.4 25 26.2 30.3 36.3 43.8 48.5 49.7 49.9 50.4 51.8 53.4 53.8 52.1 48.8 51.7 53 54.2 55.9 57.9 60.1 61.9 62.6 63.8 65.1 65.4 65.8 67.2 69.7 71.8 74.5 79.2 84.9 94.6 110.9 117 118.8 126.3 126.4 125.6 124.8 124.5 124.5 125.8 125.4 125.8 126.4 127.3 127.8 128.4 128.4 128.3 128.2 128.1 127.7 127.3 127.3 127.4 126.7 126.5 126.7 127.3 127.4 127.8 128.3 127.9 127.7 126.6 126.4 126.1 126.9 127.9 128.6 129.7 129.9 130.2 130.7 130.7 130.2 129.1 128.4 127.3 126.1 125.5 125.4 125.5 125.6 124.7 123.4 123.1 122.8 122.9 122.6 123.1 125.4 127.4 128.9 129.4 129.3 128.9 128 127.6 127.2 126.7 126.4 126.6 127.2 128.4 129.1 129.2 129.1 128.5 127.4 125.9 124.3 122.2 121.1 121.3 123 118.3 110.3 104 100.9 98.8 97.1 95.5 93.3 91.1 88.6 86.9 85.4 84.4 80.6 77.7 75.7 73.2 70.6 68.7 66.9 65.2 61.7 62.7 62.2 61.5 58.5 54.8 50.3 47.5 46 42.9 38 32.7 30.8
7.6 12.6 13.3 11.8 11 10.8 12.9 13.9 15.9 27.2 24.9 19.8 18.5 20.5 20.2 21.1 23.2 23.5 24.7 25.5 27.2 21.6 25.7 34 34.3 33.8 33.9 29.5 18.7 13.4 13.7 16.6 22.1 27.5 30.6 33.1 35.6 38.2 40.1 41.5 42.4 41.5 39.5 40.5 40.9 39.8 37.5 24.8 28.1 32.3 35.6 36.3 42.5 45.8 46.9 46.9 47.3 48.4 48.8 48.7 48.1 48.4 51.8 53.1 54.7 56.7 58.4 60.4 61.3 62.1 62.9 63.5 63.7 64 66.3 69.5 71.3 74 77.5 82.2 90 100.8 112.7 122.2 126.7 127.7 127.4 126.4 125.7 124.9 125.2 124.4 124.5 124.3 124.8 125.2 125.4 125.4 125.5 125.9 126.2 126 125.8 125.9 126.4 126.5 126.7 126.8 126.9 126.5 126.7 126.7 127.6 126.4 125.5 125.1 125.4 125.4 126.4 127.8 128.9 130.4 131.1 131.5 131.4 130.8 130.1 129.6 128.5 127.3 127.1 127.2 127.6 127.1 126.2 126.7 126.9 126.5 127.7 127.6 128.4 129.7 130.9 130.7 129.9 128.8 127.5 126.7 126.1 124.8 123.9 122.8 122.1 121.8 123.8 125.6 126.5 126.5 125.5 124.5 122.9 120.8 118.9 115.8 108.9 107.1 106.1 105.3 107.1 105 100.8 98.4 96.2 93.6 91.1 89 87.6 87.3 83.9 78.8 77 76 73.5 71.4 69.9 68.4 66.9 65.2 66.5 65 63.4 60.4 57.9 53.9 51.7 46.9 44.3 39.2 33.3 31.5
9.9 10.9 12.8 11.9 12.6 10.9 12.4 14.9 15.7 21.1 27.7 21.1 19.8 20.9 21.3 23 23 23.6 25.6 25.7 28.7 27.6 32.1 25 25.1 32.6 33.7 24.9 14.9 14 15.6 19.8 24.7 28.3 31.6 34 35.9 38 39.6 41.1 41.6 40.6 39.2 38.4 38.7 36.7 25.1 28.2 38.5 40.2 37.3 36.6 41.8 43.5 44.2 44.1 44 44.2 45 46.8 47.7 49.5 52.1 53.8 55.4 57.2 59 59.6 60.1 60.8 61.1 61.4 61.8 62.8 65 66.6 70.2 72.8 76.2 80.2 86 93.7 101 107.3 113 117.3 120.2 121.5 122.8 123.9 124.1 123.7 123.1 122.2 122.2 121.9 122.4 122.5 122.7 123.1 123.5 123.6 123.3 123.4 123.9 124.1 124.1 124.5 124.5 123.5 123.6 123.4 124.4 123.1 123.5 122.8 123 123.4 124.4 125.2 126.3 127.8 128.1 129.2 128.2 128.3 127.2 126.9 126.7 125.2 125.2 125.9 126 126.1 126.1 125.6 126.4 127.2 127.3 127.4 127.9 128 128.2 127.6 127.1 125.3 123.4 122.5 121.4 120.4 120 120.3 118.2 119.5 120.5 122.9 122.7 122.2 121.1 119.7 116.9 111.2 110.5 109.6 115.2 115.4 115 115.3 112.2 107.5 102.5 99.5 97.2 95.4 93.8 90.8 88.5 84.1 80 77.1 76.5 75.4 74 72.5 71.8 70.7 69.6 68.6 69 67.4 64.4 62.7 60.5 57.1 53.2 48.9 44.6 40.2 35.1 30.7
10.3 11.2 12 11.3 12.3 11.7 14.8 16.1 18.4 20.5 27.8 23.1 20.7 21.1 22.6 23.9 24.5 24.5 25.6 27.1 33.2 33.3 33.7 37.5 33.9 26.1 24 19.9 14.3 14.4 17.7 22.1 27 30.4 32.9 34.3 35.9 37.9 39.3 40.7 40.7 39.6 38.4 36.8 36.4 24.9 23.2 35.9 41.7 40.1 36.8 36.7 41 42.9 42.6 43.1 43.3 44.5 46.3 47.5 49 50.9 52.6 54.3 55.9 57.5 58 58.3 58.7 58.9 58.9 59.1 59.4 60.8 63.4 65.7 68.6 71.2 73.9 77 83.9 89.8 97.1 104.2 107.8 110.6 112.1 115.3 116.9 118.6 120.4 120.4 120.3 119.1 118.2 118.5 119.1 119.5 119.9 120.3 120.8 120.9 120.7 121.1 121.8 122 121.7 121.1 120.8 120.4 120.4 119.9 119.4 120.1 120.7 120.5 120.6 121.2 122.1 122.9 123.2 123 123.5 123.3 123.2 122.8 122.8 122.8 122.9 122.6 122.8 122.5 122.5 122.7 122.8 122.9 123.4 123.8 123.8 123.9 124 124.2 124.2 123.3 122.3 120.9 119.8 119.2 118.6 118.8 118 117.5 117.4 117.6 118.5 118.9 117.6 117.1 113.1 112.9 113.9 116.4 115.5 114.4 113.7 115.5 113.9 113.7 111.9 107.3 102.6 100.1 98.4 97.7 94.1 89.3 84.5 80.1 78 77.4 77.1 76.2 75.7 74.8 74.3 73.5 72.8 72 71.4 69.4 67.4 63.7 60.7 56.9 52.7 50.4 46.5 42 38 34.2
17.5 15.3 11.9 16 13.4 13.1 15.5 17.8 20.3 23.2 24.8 28 22.4 22.1 22.5 24.5 25.9 25.9 26.5 27.9 30.8 34.8 34.8 32.6 35.3 33 27.6 19.5 23.2 14.6 19.1 25.4 30.4 31.7 33 34.3 36 37.6 38.9 40.3 39.7 38.7 37.6 36.1 24.7 24.9 33.9 40.4 41.1 37.3 36.2 36.4 38.9 41.8 40.4 40.9 41.5 43.6 45.8 47.4 49.3 51.1 52.7 53.8 55 55.8 56.5 56.6 56.6 56.4 56.5 56.7 57 58.3 61 64.6 67 68.8 71.1 74.6 79.4 85.4 89.3 98.5 102.5 104.4 105.3 108.5 111 112.6 114.7 115.2 114.9 114.7 114.3 114.9 115.5 116.6 117.2 117.6 118 118.2 118.4 118.9 119.6 119.8 119.6 119.2 118.6 117.9 117.3 117.4 117.4 117.6 118 117.9 117.8 118.5 119.5 120.3 120.4 120.6 120.5 120.4 119.8 119.2 119 119.1 119.2 119.1 119.2 119.1 118.7 118.9 119.2 119 118.8 119.4 119.3 119.1 119.2 118.5 119.1 118.4 118.3 118.5 118.2 117.8 117.4 117.5 116.3 111.5 115.6 115.9 115.2 112.8 113 114.1 114.8 114.5 114.9 114.8 113.8 112.6 111.4 110.1 109.3 109.2 109.1 106.8 103.4 100.3 97.2 93.8 89.8 84.3 80.1 79.2 79.3 79.7 80 79.6 78.8 77.5 77.1 76.8 75.8 75.4 72.3 69.9 67.1 63.3 60.3 57.3 54.8 52.4 49.6 45.3 41.9 37.6
17.2 15 11 11.7 12.4 14.7 17.5 18.6 20.5 23.5 23.5 28.3 23.8 23.5 23.6 26 32.9 28.1 28.1 29.1 35.1 39.9 40 37.3 35.1 30.9 26.3 14.8 15.2 19.8 24.6 27.6 31.3 32.2 33 34.1 35.3 37.2 39.3 39.7 39.2 37.9 36.2 25.5 21.2 32.3 37.2 41 38.2 36.8 35.7 36.4 37.4 38.9 39.4 40.9 42.1 44.8 46.4 47.9 49.3 50.9 51.7 52.5 53.2 53.9 54.4 54.3 54.1 53.8 53.6 53.4 53.8 55.5 58.1 61.3 63.7 65.8 68.7 70.9 77.7 82.6 87.6 91.9 95.2 98.3 100.4 102.4 104.6 106.7 108.6 109 109.5 109.4 109.8 110.8 112.2 113.5 114.8 115.1 115.6 116.1 116.3 116.9 117.5 117.5 117.4 117.2 116.6 115.6 114.9 115.2 115.6 115.2 114.7 115.3 115.5 116.3 117 117.6 118.1 118 117.9 117.8 117.3 116.8 116.4 116.2 116.4 116.6 116.9 116.6 116.2 115.6 115.7 115.3 115.3 115.3 115.3 115.3 116 115.9 115.9 116.2 116.2 116.4 116.4 116.2 115.2 114.6 114 106.3 113.1 111.8 112.3 112.9 112.5 112.7 112.4 111.6 111.2 111.2 110.6 109.5 107.8 105 104.3 103 102.6 102.4 101.6 99.2 94.7 89.6 86.5 82.4 81 81.6 81.8 83.1 83.7 83.7 84.9 84.7 86.8 82.1 79.2 76.7 73.5 70.6 68.2 65.6 63.1 60.3 57.7 55.1 54.1 49.7 45.4 41.1
11.3 11.8 12.3 11.5 13.1 18.9 18.5 18.6 19.3 20.5 23.9 27.4 28.9 26.1 24.5 25.5 25.7 31.1 33.6 32.2 36.2 36.1 34.7 33.5 31.3 29.7 25.1 15.6 15.2 15.7 16.9 25.6 26.1 32 32.7 32.9 33.7 35.7 37.2 37.8 38.1 37 23.4 21 29.2 36.9 41.1 38.9 36.3 35.7 35.4 36.1 37 38.3 39.6 41 44.2 45.7 47.3 48.3 49.1 49.8 50.3 50.5 51.2 51.8 52.2 52.3 51.8 51.1 50.8 50.9 51.1 52.5 54.7 57.1 60 61.9 63.9 68.3 70.4 76.6 83.3 87.5 91.4 94.1 95.1 96.8 98.7 100.4 101.5 102 102 102.5 103.6 105.7 107.9 109.7 111.4 112.8 113.3 113.8 114.2 114.8 115.4 115.4 115.5 115.3 114.2 113.2 112.1 113.1 113.2 113 112.8 112.9 113.3 114 114.6 115.3 115.5 115.4 115.3 115.2 114.9 114.4 114 113.6 113.5 113.7 113.9 114.1 113.5 112.7 112 112 112 112.1 112.1 112.3 112.8 113.2 113.5 113.9 113.7 114.5 113.9 113.2 112.3 111.9 110.6 105.3 109.4 109.5 110.1 109.9 109.3 108.9 108 107 106.2 105.7 105.5 104.5 102.9 100.7 99.1 97.6 97.3 97.9 97.7 95.2 93.8 90.7 85.1 83.2 82.9 83.7 85.6 88.2 92.1 91.9 88.4 86.8 85.1 82.2 80.3 78 75.2 73.3 71.3 69 66 63.6 61.6 59.5 58 54 46.5 41.2
12.2 12 11.6 11.5 14.1 17 17.6 18.5 19.7 21.2 21.7 23.2 29.2 27.4 25 25.8 29.8 31.3 34.1 37.3 36.5 33.9 32.1 29.7 30.2 26.7 23.6 17.1 15.4 16 16.4 20.7 29.2 28.8 26.1 26.4 22.8 24.6 28.1 28 26.2 21.1 21.8 27.7 36.5 38.6 37.6 36.8 36.1 35.5 35.2 35.8 37 38.3 39.7 41 43.4 46.1 47.2 47.4 48 48.2 47.7 48.4 49 49.5 49.9 50.6 49.9 49.5 48.9 48.7 49 49.7 51.1 53.1 55.2 57 59.1 63.8 68.1 72.6 78.4 83.5 87.4 89.9 89.1 89.6 90.6 91.3 91.8 92.5 92.2 93.7 97 100.8 103.5 105.2 106.7 107.8 108.8 109.9 110.9 111.3 111.6 111.9 112 111.7 111.1 110.7 109.9 110.8 110.8 110.5 110.2 110.6 110.9 111.5 112.1 112.6 112.8 112.7 112.7 112.6 112.4 112 111.7 111.2 110.7 110.6 110.5 110 109.5 108.3 108.3 108.3 107.7 108.6 109 109.2 109.7 110.4 110.5 110.8 111 110.7 110.1 109.5 107 107.5 106.8 105.3 106.3 106.2 107.3 106.6 105.4 104.4 103.4 102.1 100.5 99.6 98.5 98 96.8 95.1 95.5 93.4 92.1 93.5 91.9 89.6 88.2 86.1 83.4 82.3 82.7 84.3 85.9 89.7 91.1 89.5 86.4 84.7 82.5 82 80.7 79.9 79.1 77.5 76.7 75.5 72.2 70.2 66.4 62.4 59.3 53.8 45.7 40.1
15 13.8 11.7 12.2 13.4 15.4 18 18.4 19.2 25.3 26.1 23.2 29.3 29.2 26.5 27.4 30.1 32.3 35.8 37.3 34.1 30.5 28.2 26.2 24.9 22.6 19.5 16.7 15.5 16.2 16.4 18.1 19.9 19.6 17.2 18.2 27.7 19.3 20.1 20.3 19.9 23.3 34.3 35.3 36.1 37.7 36.8 36 35.5 35 35 35.7 37 38.4 39.8 40.8 41.4 44.6 46.2 45.4 45.3 44.6 44.5 44.7 46.1 46.8 47.7 47.9 48 47.8 47.2 46.6 47.5 48.5 49.2 50.1 52.2 54.2 56.4 60.3 64.6 68.2 73.6 78.3 82.4 84.6 83.1 80.7 80.7 81.5 83.5 83.7 84.4 88.3 91.8 94.6 97.6 99.5 101 102.6 104 105.1 106 106.4 106.4 106.5 106.9 107.8 107.4 107 106.8 107.9 108.3 107.9 107.8 107.5 108.8 109.4 109.5 109.9 110.1 110.1 110.1 110 109.9 109.6 109.3 108.5 108 107.1 107.1 105.8 104.8 104.5 104.5 103.9 103.7 104.3 103.6 104.7 105.8 105.9 106.9 107.2 107.2 105.7 103.8 104.8 104.7 104.6 104.4 104.3 103.8 103.5 103 101.9 100.7 99.7 98.6 97.2 95.3 92.5 91.5 91.1 90.1 88.4 89.8 89.7 88.6 87.3 86.8 85.6 83.9 83 82.2 81.2 81.3 82.7 86.3 89.4 89.1 86.2 84 81.9 80.7 81 81.9 82.4 82.8 85 81.6 78 75 71.6 67.2 62.9 58 49.3 41.9 37.4
12 11.8 11.2 12.7 14 17 19.7 20.9 21.9 26 26.9 24.1 24 29.7 27.3 29.6 34.5 38.7 40.4 37 32.9 29.5 25.9 25 22.9 19.7 16.1 20.4 22 16.1 16.5 16.7 16.9 17.7 18.5 20.1 25.7 26.9 28.4 26.8 32.4 33.6 33.9 34.4 35.2 36 36.8 35.2 34.8 34.4 34.6 35.9 37.2 38.1 39.3 40.1 40.7 41.4 42.2 42.4 42.6 42.4 42.4 42.7 42.8 42.8 42.9 43.3 43.2 44 43.7 44.2 45.5 46.8 47.3 47.9 49.1 52.3 54.7 57.6 61.8 65.9 69.4 73.3 77.4 79.4 79.9 75.5 74.1 73.3 74.2 75.1 77.1 81.3 84.3 86.6 90 92.3 94.1 96.6 98.6 100 100 100.1 100.2 100.4 101.2 102.3 103.3 103.2 103.3 105 105.7 105.5 103.9 104.6 105.8 106 106 106.3 106.8 107.3 107.4 107.3 107.3 107.1 106.4 105.7 104.8 103.8 102.4 101.2 100.2 100.5 99.8 99.4 99.3 99.4 99.3 100.2 101.9 102.6 103.3 103.9 101.1 101.2 102 101.9 101.3 101.1 101.1 101.3 100.6 99.9 98.7 98.2 97.2 95.6 94 92.6 89.9 87.2 84.8 85.2 84.7 83.4 83.8 84.8 85.8 85.3 84.1 83.1 82.3 81.4 80.7 80.3 80 82.7 86.8 89.8 86.6 83.2 81.3 79.4 77.9 78.3 81.5 83.2 86 85.2 82.9 79.7 76.7 72 64.6 59.5 54.5 49.2 42.7 33.7
10.8 10.9 11.7 13 22.8 20.5 20.7 23.1 27 25.6 23.1 22.1 24.8 30.2 30.5 35.8 41.4 42.3 39.1 34.9 30.7 26.5 25 24.5 21.3 17.9 19.7 20.5 23.3 20.6 18.9 18 17.8 20 22.1 27 30.6 31.4 31.5 34.2 29.3 33.1 32.7 32.7 33.9 35.8 36.1 34 34.2 33.8 34.8 36.2 36.9 37.4 38.7 39.5 40.1 40.5 40.8 41.2 41.1 40.6 40.5 40.7 40.8 40.8 41 41.8 42 42 41.8 42.3 42.8 43.5 43.8 46.4 47.8 50.8 53.6 56.5 60 64.7 67 69.3 73.6 75.4 75 72 69.8 69.4 69.7 70.7 71.6 73.9 76.1 78.7 82.5 84.9 87.6 90.3 93 93.5 93.5 93.8 93.9 93.9 94.7 95.6 96.7 98.4 99.5 101.2 101.1 101.6 99.5 101.1 102.3 102.6 102.6 102.8 103.5 104.1 104.3 104.4 103.8 103.1 103.2 101.8 99.9 99.8 96.5 95.7 94.9 94.6 94.4 93.2 93.1 94.2 95.7 95.8 97.6 99.2 98.8 97.1 98.5 98.9 98.7 98.5 98 97.6 97.9 97.9 97.6 96.3 95.2 94.7 92.9 91 89.4 87.7 85.4 83 80.5 81 81 78.1 77.1 82.2 83.2 83 82.9 83.1 82 80.9 80 79 78.3 79.7 83 83.5 81.9 80.1 78.2 76 73.7 74.8 77.2 78.8 81.1 81.3 80.7 77.1 72.2 67.8 64.6 60.4 54.9 50.3 39.5 30.5
11 11.4 12.2 14.1 16.9 24.7 26.4 26.8 24.1 22.7 23.2 24.8 28.7 32.9 30.7 39.2 42.2 39 36.1 32.2 27.3 26.9 25.4 22.1 19.7 18.3 20.9 22.4 24.8 25.6 24.1 20.8 20.6 24.1 26.8 30.4 31.2 31 30.7 30.9 30.1 30.9 31.5 32.9 33.7 34.9 33.9 32.9 33.1 33.4 35 36 36.6 36.8 37.8 38.9 39.5 39.9 40.1 40.3 40.1 39.5 38.9 38.9 39.1 39 39.1 40.4 40.5 40.6 40.4 41.6 42.3 42.9 43.6 45.4 47.8 49.3 51.1 55.6 59.1 62.3 65 67.3 68.9 70 70.1 68.8 67.5 67.9 68.2 68 68.1 69 70.9 72.4 75.2 78.1 81 83.8 85.9 86.2 87.1 87.8 88.3 88.7 88.8 91 92.1 93.5 96.1 97.5 98.7 98.8 95.8 97.2 98.9 98.7 98.1 99 100.1 101 101.7 101.9 102.1 101.5 101.6 100.6 97.8 94.3 93.7 90.1 89.6 89.1 87.9 87.3 87.5 89.2 91.5 92.1 94.1 92.4 94.2 95.2 95.7 95.7 95.6 95.5 95.2 94.7 95 95.4 94.6 92.9 91.7 90.5 88.2 86.7 85.6 84.5 82.8 80.4 77.1 76.8 77.1 73.4 74.5 79.7 80.2 82.1 85.5 85.4 83.6 83 82.1 80.4 76.3 74.6 76.6 78.2 77.7 75.2 73.3 70.3 68.6 69.4 71.7 74.7 76.7 77.5 76.9 73.3 70 66.8 65.3 62.3 55.9 47.1 33.3 30.3
13 12 13.4 15.3 17.3 21.8 27.5 26.2 23.9 24.3 27.5 30 32.8 34.8 35.3 31.4 39.6 35.6 32 30.8 29.8 28 25.3 22.8 21.2 18.4 19.4 22.3 23.3 25.8 27.5 27.7 28 27.5 29.1 31.2 30.8 30.2 29.6 27.1 28.5 27.4 29.9 31.1 32.1 33.5 32.6 32.6 33.2 33.4 35.2 36.2 36.4 36.3 36.6 37.7 38.8 39.2 39.5 39.3 39.1 38.6 38.4 37.9 37.8 37.7 37.7 38.9 38.9 39.2 39.4 40.4 41.3 42 42.6 43.6 48 49.1 51 54 56.5 59.4 62.6 64.7 66.4 66.6 65.9 65.3 65.4 66.7 67.3 66.8 66.2 66.9 67.5 67.7 68.5 72.6 75.5 77.2 78.5 78.7 80 81.1 81.9 82.4 83.4 84.9 88.1 90.4 92.5 93.8 94.7 94.7 92.1 93.4 95 94.7 94.9 96 97 98.1 99 99.6 99.8 99.9 99.4 97.6 95.4 89.8 91.5 88.5 86.2 83.9 82.9 81.3 81.2 83.4 85.4 88.1 89.7 91.5 91.8 91.7 91.8 92.4 92.6 92.5 92.3 91.9 92.3 92.4 91.7 89.9 88.1 86.1 84.4 83.3 82.5 81.7 79.9 77 73.1 72.2 70.8 67.9 70.9 75.8 77.2 81.3 84.5 85.8 85.8 85.2 83.2 80.1 74.9 69.8 67.8 69.3 70.2 68.1 66.1 63.9 63.4 63.5 67.7 68.9 73.8 76.6 76.1 72.2 69 66.6 64.4 61.1 53.8 40.1 30.7 30.4
