ncols 200
nrows 82
xllcorner 320000
yllcorner 272800
cellsize 50
413.9 408 400.9 388.7 371.9 354.3 348.1 360.1 374 375.2 375.4 375 374.6 373.6 368.6 360.6 352.6 344 336.3 329.7 322.4 313.3 293.7 281.4 265.1 251.8 242.5 236 230.5 236.5 245 260.2 267.9 272.2 283.3 284.8 283 274.1 263.4 249 242.9 235.1 227.4 225.3 224.1 224 223.5 222.4 212.4 212.2 214.1 214 213.1 212.2 212.6 212.5 211.9 211.5 211 210.6 209.1 209.6 210.5 210.2 210 209.6 209.1 217.1 222.3 223.7 224.2 222.6 220.8 217.4 225.2 241.9 266.4 290.6 302.7 306 307.9 300.7 296.9 290 284 277.9 269.1 256.4 240.5 228 224.8 225.6 226.6 231 236.5 243 254.3 261.3 266.5 273.8 284.8 297.7 308.4 320.2 326.8 326.1 320.7 313.3 308.9 303.2 293.9 282.6 280.1 289.9 296.3 299.5 302.6 309.4 312.5 307 304.9 301.1 296.7 291.5 287.4 282.6 279.2 278.3 274.2 274.4 275.1 285.3 293.2 306.3 318.4 329.8 333.7 324.8 307.9 297.7 298.6 299.9 298.8 296.4 292.2 288.8 280.9 272.5 265.6 262.8 259.9 257.5 257 255 252.1 249.8 248.4 249.9 250 249.2 247.1 244.4 242.8 241.3 239.3 237.6 236.3 235.2 235 234.4 234.5 233.9 233.2 232.5 231.3 231.7 229.8 230.8 229.9 228.9 230.3 231.3 231.2 233.8 236.4 238.7 240.9 244.5 245 248.6 249.7 253.7 253.7 248.6 238.5 222.1 220.9 228.7 246.9 247.4
406.8 400.2 390.9 374.3 357.3 344.4 336.4 352.7 369.3 371.8 370.3 370 368.5 364 358.1 349.4 339.4 333.1 326.1 320.1 310.7 299 285.1 267 252.3 244.3 234.6 231.6 236.6 244.5 258.3 275.1 281.5 294.6 300.6 298.7 293 282.5 277.8 266.2 262.1 253.4 240.5 229.2 228.8 226.9 224.3 223.1 221.9 221 215.1 214.3 213.5 213.5 213.3 212.5 212.4 212.1 211.6 211.2 210.2 208.1 208.8 209 208.5 209.1 208.5 208.5 214 219.9 221.2 221.1 219.4 214.8 219.5 243.7 274 289 297.8 297.8 294.4 292.2 287.8 284.8 280.6 275.5 268.4 261 250.2 232.4 223.7 222.9 224.2 230.8 246.5 260.8 273.6 281.2 287.5 297.5 305.6 316.5 323.9 328.3 328.8 324.4 317.3 310.5 306.2 300.2 290.1 279.5 276.2 282.3 287.6 297.5 306 311.4 310.5 310.5 309.3 304.3 300 295.7 292.5 287.4 283.3 280.6 275 269.4 281.5 290.6 300.9 313.7 323.7 325.8 318 303.9 299.5 302.2 310.2 319.4 317.4 311.6 305.7 301.1 293.5 287.5 281.7 276.3 269.7 265 263.1 259.8 255.8 252.1 251.8 252.4 252.6 252.5 249 246.7 245.3 244.6 242.2 240.1 237.5 236.4 234.5 234.3 233.2 233.4 232.5 232 230.8 231.2 230.7 230.6 229.9 228.3 228.5 229.3 228.5 228.7 231.9 232.7 236.5 238.2 237.5 241.5 241.2 243.6 246.4 242.3 235.4 220.7 218.8 229.2 217 219.5
398.9 389.9 375 358.9 343.1 333.6 330.7 337.1 356.9 359.4 361.5 362.1 358.4 353.4 343.3 333.3 326.9 320.4 315.5 308.8 297.5 286.2 269.6 253 243.9 236.4 233.9 238.6 245.9 256.9 273 288.4 301.4 311.7 310.5 305.8 297.6 295.5 288.9 282.8 279.1 272 257.9 244.7 237.5 235.7 234.1 228.6 224.9 223.1 221.2 220.4 219.9 215.3 214 213.7 213.3 213 212.5 211.9 211.1 210.5 213.4 215.9 215.2 210.3 209.3 208.6 207.4 208.3 211.6 218.9 217.1 211.9 216.8 239 271.2 288.7 293.9 291.2 287.4 284.1 281.4 279.9 277.4 272.8 266.1 258.5 246.8 235.5 227 220.8 223.1 241.9 262.7 279.3 292.8 300 309.5 318.9 325.9 330.5 332 330.3 326.8 318.6 311.7 306.2 302.3 295.3 283.6 275.4 275.9 282.3 292.1 300.6 306.7 311.7 318.8 318.9 313.2 308.4 302.9 297.4 292 286.9 283.5 279 274.3 268.1 284.2 293.4 304.2 316.5 316 306.2 295.4 294.8 300.6 309.1 324.2 334.6 332.9 329.3 322.6 314.5 308.5 302.6 293.6 281.7 276.8 273 270.1 266.1 262.3 256.8 254.7 255.4 255.7 254 251.2 250.5 252.4 252.2 249.8 246.1 242.4 239.9 237.8 236.1 234.1 232.9 232.3 231.1 230.9 230.8 230.3 230.1 229.3 228.6 228.3 227.3 227.4 226.7 228.5 230.7 234.3 227.8 226.8 223.8 223.9 230 231.9 231.6 225.1 219.5 220 234.9 237.4 228.1
382.5 372.4 359 345.1 330.4 320.9 318.8 320.1 334 342.9 344.5 343.2 338.4 330.6 325.4 318.7 313.5 309.9 300.9 291.5 281.3 266 252.6 243.2 236.9 235 239.9 246 256.3 269.9 285.1 308.3 321.4 322.5 317.6 311.4 306.7 303.6 297.4 292.6 287 277.7 265.6 254.1 250.7 250 250.7 248.9 242.9 233.2 229.3 225.9 221.9 220.6 219.5 215.7 215.6 214.3 216.6 217.2 215 217.6 217.5 217.4 216.9 216.5 208.9 208.5 207.8 207.4 207.6 207.8 212.2 211.4 216.8 229.6 260.1 284.3 285.6 283.3 278.8 273.2 274.9 275.3 272.6 268.7 262.3 254.1 243.1 234.6 227 220.1 228 254.7 278 297.4 312.8 317.4 327.4 330.7 331.5 334.9 333.4 327.4 319.8 313.5 308.8 303 297.4 287.8 275.8 271.9 279.6 285 298 309.1 311.9 318.4 321.2 315.8 312 309 307.7 303.9 299.1 291.6 285 279.4 272.5 265.7 282.1 295.2 306.1 304.2 299.1 287.8 283.3 289.8 299 309.2 336.2 352.5 346.2 343.5 338.6 333.7 326.7 318.7 304.2 295.3 290 281.5 278 273.6 270.1 267.5 263 259.2 259.3 258.3 259.1 262.9 263.4 261.1 258 254.2 249.3 245 241 240.1 238.1 236.1 234.3 232.7 232.2 231.4 228.8 229.2 228.9 228.3 227.9 227.7 227.1 226.7 225.9 225.4 224.8 224.6 224.6 223.8 222.2 222.1 221.9 221.4 220.1 220.7 226.5 230.2 230 224.4
365.8 355.8 345.2 334.3 318.4 312.2 309 307.8 307.6 312.9 317.6 318.9 316.6 311.5 308.9 304.6 298.4 291.5 282 271.5 258.9 250.1 240.2 236.1 236.2 241.3 247.3 256.4 269.3 282.7 304.1 324.1 333.4 331.8 325 317.7 315.2 311.3 306.2 299.4 289.5 280.2 271.8 267.1 265.5 263.8 262.4 258.5 252.2 245.9 245 236.3 230.9 224.1 220.8 218.2 217.8 218 218.2 218 217.8 217.6 217.4 217.1 216.6 216.5 209.1 208.4 207.6 206.9 207.6 207.3 207.8 213.5 218.2 220.2 245.5 272.4 271.8 267.1 264.9 267 269.6 269.5 267 263.5 258.5 250.5 237.7 230.3 223.2 218.3 237 265.1 292.5 312.1 326.3 330.8 335.6 334.2 334.5 331.6 327.6 320.9 314.5 309.9 305.7 298.9 291.8 278.9 268.6 277.1 284.7 293.7 302.5 308.8 316.3 319.6 319.8 317.2 317.4 317.1 314.4 311.1 306.1 297.3 288.3 280.2 272.3 263.8 277.1 294.7 291.9 282.7 279.8 273.1 279.2 287.4 297.9 317.6 349.3 357.6 353.4 350.3 346.5 343.2 338.2 328.9 313.2 304.7 296.2 291.8 286.8 282.3 279.5 275.9 272.8 263 264.1 266 267.2 269 270.6 268.3 264.6 260.9 256.9 252.1 249.4 244.9 244.1 242.1 240.4 237.9 234.5 235.1 234.1 231.7 228.3 227.5 227.6 227.4 227 226.5 225.7 224.9 224.9 227.1 226.1 226.8 233.4 236.2 232.2 224.9 227.2 224.9 226.1 224.7 221.4 220.2
356.4 349.6 340.6 329.5 319.7 304.1 292.9 289.7 291.6 290.3 292.8 296.1 294 294.7 293.1 288.3 281 271 260.1 253.3 246.2 238.9 238.7 239.1 244.3 248 256.8 269.6 282.5 297.5 319.9 335.1 341.7 339.2 327.2 324.3 322.2 317.1 309.2 300.9 291.9 284.2 280.1 278.4 274.1 269.4 264.6 258.5 253.4 250.8 247.9 240 234.8 228.7 222.7 218.1 219.8 219.5 218.8 218.3 217.4 216.8 216.6 216.5 216.3 215.5 214.2 208.4 207.6 205.9 207.4 207.2 206.9 210.1 217.3 219.5 223.4 241.9 250.3 254.9 258.3 261.7 264.1 263.8 262.3 259.7 256.1 245.9 232.3 223.9 220 216 244.8 274.2 302.4 321.4 331.7 337.2 338.7 334.5 328.9 324.1 319.5 314.9 310.3 305.6 300.4 294.6 285.1 275.5 270.8 281.9 292.3 307.6 305.7 312.6 311.6 316 320.3 319.9 319.6 318.7 317 312.9 308.1 302.4 292.4 282.1 273.1 261.7 264.8 273.9 270.1 267.5 266.3 270.3 278.5 289.2 303.2 328.3 356.1 361.1 358.6 355.8 352.4 348.4 342.2 335.4 319.4 310.7 303.9 299.2 292.5 289.8 289.8 287.8 282.1 269.1 273.1 274.5 275.7 276.8 277 274.8 270.9 267.7 264 258.7 254.3 251 249.8 248.6 245.9 242.6 239.4 238.4 237 234.7 233.1 233.1 231.5 228.6 227.2 226.6 226.3 229.1 233.4 233.5 240.4 230.1 234.3 241.5 241 239.3 235.2 226.6 230.1 228.9 222.5 220.4
351.3 344.9 339 331.4 314.4 312.4 305.7 296.6 285 276.5 273.6 280.9 279.7 276.3 275.4 268.3 261.3 255 249.7 243.9 240 240 242.8 246.7 252.2 258.7 268.8 286.6 299.8 315.3 332.3 343.2 345 335 330 328.5 322.9 316.7 309 301.8 295 290.8 288.4 281.2 275.5 268 261.1 254.9 250.2 246.4 239.9 234.9 230.9 225.4 219.7 222.1 221.6 220.7 219.8 218.8 218.1 217.4 217 216.6 216.2 215.6 214 209 207.3 206.8 208 206.1 204.2 206.2 214.6 216.9 219.2 223.4 236.4 246.4 251.8 255.9 258.2 258.5 257.8 255.3 252.6 242.5 225.5 219.1 214.3 222.1 250 280.3 302.7 322.6 327.1 332.6 328.5 325.3 320.2 316.4 313.7 310.9 306.6 303.3 298.5 290.9 280.7 273.3 270.4 283.4 299.6 303.6 306.2 305.8 308.9 313.3 315.3 317.9 316.6 317.2 313.7 310.5 309.1 305.4 296.2 283.2 270.5 264.2 260.1 258.8 257.5 258.1 263.8 271.3 283 295.7 312.6 338.5 361.5 365 364.3 360.7 355.7 350.2 343.3 335.9 325.8 317 312.3 306.2 300.5 297.6 298.7 294.6 285.3 283.9 283.7 282.6 282.6 283.1 283.7 281.4 279.1 275.4 272 266.2 261.7 258.4 257 253.4 250 245.6 243.5 242.8 241.3 239.5 238.3 236.9 234.9 232.1 231.7 236.2 240.4 237.6 238 242.3 243.9 236.3 232.8 242.8 243.1 242 236.4 233 234.1 232.5 224.2 221.9
351.8 345.2 340.1 334.7 328.7 321.6 313.7 305.5 299.2 294.2 283.7 263.9 266.6 265 260.2 256.5 250.9 247.4 243.7 241.1 241.9 246.8 251 255.3 262.5 270.1 284.5 302.1 315.5 330.8 342.4 345.6 339 334.2 333 327 321 315.6 309.2 302.9 297 292.5 285.9 278.2 269.7 261.9 254.4 245.8 239.7 234 226.6 226.8 222.8 225.3 225.1 224.1 223.2 222.4 220.8 219.7 218.7 218 218.2 217.5 216.6 216 215.8 208.6 207.5 206.4 205.5 205.4 205 205.3 213.6 215.2 216.6 220 226.5 234.7 244.4 250.3 252.4 253.1 253.1 251.3 248.7 239.1 221 214.6 216.4 224.9 250 279.1 297.4 307.9 311.4 313.6 316.1 313.9 312.4 311.2 309.8 306.7 303.8 300.7 295.3 288.3 278.6 272.2 263.7 280.4 293.7 298.1 292.6 295.3 304.2 307.2 307.4 307.4 308.4 309.8 307 305.4 307.3 306.8 295.2 280.5 272.6 273.4 271.4 257.8 254.8 257.3 265.9 276.6 288.2 301.2 319.9 346.9 363.9 368.7 368.4 363.6 356.5 349.8 343.5 339.1 330.4 322.5 316.7 311.5 306.7 303.4 301.3 295.4 281 293.1 294.2 293 292.2 291.8 291.4 289.8 287.8 284.2 277.8 273.3 269.1 265.1 260.3 258.1 254.1 251.4 248.2 248.6 247.4 245.5 242.4 241.3 240.3 239.2 239.3 241.6 244.3 243.9 242.8 245.4 245.3 239.8 233.8 239.2 242.9 243.2 242.5 240.6 240 234.8 229.9 226.5
353.6 350 345.9 340.2 332.8 326.5 318.8 309.3 303.4 298.3 286 274.4 258.8 256.5 254.1 251 247.2 243.6 244.7 248.4 252.8 258.1 262.3 268.6 279.1 288.8 303.8 316.2 329.9 339.6 344.5 339.2 336.3 334 330.7 324.7 319.1 313.8 307.2 299.8 293.8 287.5 279.3 270.1 260 251.6 242.4 235.9 229.8 234.2 231.7 232.3 231.3 230.1 228.4 227 227.1 227.1 225.2 225 225.6 222.9 226.8 229.7 220.6 217.6 216.4 216 207.5 207.4 206 205.7 206.3 205.8 206.5 213.1 214.2 216.7 221.3 227.8 238.5 246.1 247.3 248.2 248.5 247.7 244.8 236.1 219.1 213.1 219.2 226.2 247.2 274.8 289.7 296.3 298.7 300.3 301.1 302.4 304.1 305.1 305.3 303 303.2 300 291.7 283.2 274.2 269.3 263.6 278.1 284.7 286.5 281.7 284.5 290.1 291.5 292.6 293.2 295.4 296.1 296.9 300.1 306.6 300.4 287.3 282.2 278 275.3 273.1 259.5 250.4 260.2 269.9 281.4 292.2 305.6 325.3 353.1 371 371.5 368 364.4 356.2 351.4 348.4 340 330.8 323.3 317.2 312.6 308.8 304.1 297.1 287.8 297.2 301 302.8 303.5 303.4 303.4 301.3 300.2 297.4 291.8 287.8 282.9 278.2 273.5 268.7 264.6 260.4 257 256 255.3 253.8 252.4 247 247.8 247.9 247.5 247.8 248.3 248.5 247.9 247.2 248 248.1 243.4 238.1 242.3 247.8 247.4 247.9 247 244.6 240.5 240.3 239.4
350.4 346.3 338.6 330.8 322.7 320 314 306.2 296.7 287 276.9 268.4 259.3 254 251.3 248.2 245.7 247.2 252.3 258.3 264.8 274.1 278.6 285.3 298.1 309.5 321.2 330.6 339.5 343.7 337.7 335.8 333.2 328.7 323.9 318.7 314.5 308.5 300.7 293.5 285.6 276.8 269.7 260.4 250.5 241.7 233.6 242.1 241.8 239.1 233.5 236 235.5 234.8 233.9 236.4 239 237.5 236.9 236.8 239.5 244.5 246.1 240.7 228.7 221.5 218.2 216.7 216.2 207.5 206.7 206.7 206.2 205.7 203.1 205.3 209.3 214.4 216.9 221.7 230.1 238 242.5 242.4 242.2 241.2 240.5 235.1 217.6 210.5 221.2 229.7 244.8 268.2 278 284.1 286.1 288.9 291.2 294.2 295.9 299 302 302.7 305.8 300.8 291.4 281.4 272.4 268.2 258.8 272.2 278.8 274.5 269.6 271.5 275.6 279.1 280.8 282.9 285.6 289.9 295.8 306.3 306.1 295.3 286.6 282.1 277.7 274.7 266.6 256.4 252.6 264.3 274.3 285.9 296 309.1 331.7 362 377.5 373.9 369.8 363.3 357.8 355.3 350.6 341.7 330.6 324 318.1 313.2 308.7 303.7 295.4 301.5 305 308.7 310.6 312.7 314.4 314.2 312.6 308.8 305.4 300.6 296.3 290.7 284.8 280.4 276 271.3 267.4 263.7 262.3 261.1 259.6 257.7 252.4 258.1 257.5 255.8 255.4 255.3 254.4 253.3 253.1 252.1 251.1 244.5 242.8 249.8 254 252.2 252.4 253.9 250.1 249.7 252.6 252.8
328.3 323.4 318.5 313.4 308.3 304.2 299.2 288.9 279.2 270.9 263.9 258 251.9 250.9 249.1 246.7 247.6 257.9 263.9 274 283.2 290 298.1 306.1 315.5 325.8 333.9 340.3 342.6 335.3 333.2 331.8 328.6 322.1 315.6 310.5 306.4 298 289.9 283 274.7 265.8 257.1 247.8 240.1 243.8 248.7 251.2 247.3 242.5 242.4 242.6 242.3 246.3 249.4 252.1 250.5 249 253.3 254.3 256.2 261.6 262.2 248.1 234.3 226 221.6 219.7 217.9 215.5 206.8 206.3 206.4 205.9 205.4 202.5 204.2 210.1 213 215.3 221.3 228.9 236.2 239.5 236.9 234.6 235.4 233.4 219.5 209.7 219.2 231.1 241.3 256.1 265.4 269.5 272.6 276.8 280.6 285.6 290.1 294.9 298.5 302.6 306.3 298.9 287.1 281 272.9 264.4 258.4 265.4 265.1 264.2 261.7 261.5 265.4 270.4 274 280.2 286.9 295.3 303.5 307.1 303.2 293.5 284.4 280.5 275.9 272.8 266.9 252.8 257.5 265.9 275.9 285.5 293.7 309.8 333.8 363 377.2 375.9 369.2 366.9 362 357.6 351.9 341.7 331 323.8 318.9 314.9 312.2 305.5 306.2 311.6 314.6 317.3 319.7 322.2 323.3 322.5 320.1 317.1 313.2 309.9 304 297.6 291.4 285.8 281.5 276.5 271.7 269.8 268 266.6 265.6 263.3 259.7 265.3 264.4 263.2 262.4 261.7 261.8 261.2 259.1 257.7 254.2 242.8 251.2 254.2 258.8 257.5 258 258.7 259.2 265.2 268 265.9
310.8 306.4 301 294.8 288.3 282 275.3 270.1 264.9 258.9 253.4 250.8 249.3 248.6 247.6 257.1 262.4 270.6 283.6 292.5 299 306.2 313.8 320.5 329.5 336.4 339.8 336.4 332.1 329.6 327.2 324.4 321.1 313.5 304.9 299.2 291.3 284.8 278.8 268.8 261.5 254.1 244.7 240.8 255 258.1 258.9 255.5 250.9 246.7 250.2 251.7 256.4 260.5 263.7 265.6 265 265.1 268.1 270.9 274.9 275.9 273.2 261.2 240.8 231.8 226 222.9 219.9 217 215.4 209.9 206.4 205.7 205.3 204.7 204.8 203.5 210.8 212.1 215.2 219.7 225.7 232.2 230.5 227.3 228.5 228.1 219 210.3 214.5 225.2 238.5 245.1 251.2 255.6 260.5 267 270 274.7 281.5 289.1 295.6 302.3 305 289.6 281.3 278.3 272.1 261.7 255.3 261.1 259.1 256.5 255.9 256.8 260.2 265.9 274.4 285.5 294.5 302.9 305.5 305.9 301.5 295.7 286.9 279.7 270.7 266.4 261.3 250.6 256.1 263.7 272.6 279.2 290.5 309 334.5 361.3 375.9 375.9 370.5 366.5 362.8 357.8 351.2 339.9 329.8 321.9 317.2 312 307.8 309.9 316.6 321.1 323.6 327.6 330.1 331.8 331.7 330.6 328.2 324.2 321.8 317.3 310.5 303.9 297.9 292.5 287.6 280.8 278.2 275.9 274.8 272.6 270.6 268.5 266.4 270.3 269.8 268.6 268.8 269.2 269.6 267.8 265.1 261 247.1 254.6 259.1 259.3 264.4 264.8 265 265.9 268.3 276.3 277.7 273.4
291 285.7 280.9 275.5 270.7 266.1 262 256.6 254 252.6 251.5 252.9 256.6 260.6 265.1 269.4 275.6 287.1 297.8 307.2 315.4 322.7 328.5 335.9 338.5 337 333.2 327.8 325.4 321.8 317.6 313.6 308 298.5 291.1 284.5 277 270.4 261.2 253.7 246.2 248.6 255 260.4 265.3 268.6 264.7 261.6 258.1 256.4 264.1 269.7 272.5 275.8 277.3 279.2 278.6 280.2 283.5 287.5 289 287.4 280.9 266.5 249.8 238.3 230.9 226.5 223.3 219.4 216.9 214.7 210.9 205.7 205.4 205.1 204.8 204.3 202.6 206.9 211.7 212.8 216.7 220.4 221.6 219 220.8 222.1 219 211.3 209 218.5 229.7 234.3 239.4 244.8 251.3 257.8 260.9 266 274 286.7 293.4 302.7 296.5 285.8 277.8 275.1 270.3 261.3 255.1 253.7 254.5 253 253.1 255 261.6 270.4 280.7 293.2 301.5 303.3 305 302.6 300.6 295.5 288.1 279.6 268.5 258.9 253.3 247.5 252.7 259.6 267.2 276.1 293.1 316.5 342.8 365.7 377.3 375.9 372.9 368.2 363.6 356.5 347 336.8 326.9 320 316.1 316.8 316 320.8 327.2 331.4 335 337.4 339.4 339.7 339.9 337.9 334.4 330 327.8 322.5 316.2 309.9 303.2 298 291.1 288.5 285.7 283.1 280.4 277.6 275.7 272.9 272.8 275.4 274.9 274.9 274.8 274.4 273.9 271.1 267 260.3 256 262.5 261 259.2 267.1 273.1 271.9 275.1 276.9 283.2 284.3 280.3
274.7 270.2 266.2 262.2 259.6 256.7 256 256.6 255.6 258.1 258.6 261.4 265.5 270.8 276.7 284.2 290.7 304 315.1 323.8 331.7 337.6 340.5 340 335.7 328.7 321.1 317.7 314.8 306.1 301.6 295.7 291.3 283.6 276 269.1 262.3 255.9 250.4 253.5 257.4 262.7 268.7 273.2 278 278 274.8 269.9 263.5 268.7 278.3 292.6 292.5 293 293.9 297.3 294.5 295.9 300.5 302.2 301.6 298.6 289.8 274 259.8 244.1 239.6 235.2 228.6 223.5 219.1 215.6 213.4 207.7 205.4 205.1 204.7 204.2 203.9 201.4 202.8 200.8 211.2 212.8 214.9 214.8 214.5 214.8 214 212.4 205.2 212.5 222.6 228.4 232.7 239.4 245.5 251.4 255.7 261.6 274.5 285.8 293.8 297 290.1 282.2 274.9 272.3 271.7 267.5 256.6 249.9 249 251.2 251.2 257 264.9 277.4 290.3 300 304.6 300.1 300.8 300 298.5 294.9 286.4 275.3 265.2 252.6 246.6 242.7 250.7 257.7 267.2 279.3 300.7 326 354.6 369.3 376.8 376 374.4 368.4 362.8 354.4 344.7 335.6 327.3 323.1 321.7 323.3 326.7 332.8 338.3 342.1 344.9 346.5 347 346.1 345.2 342.8 339.6 336.4 332.9 328.3 321.9 314.1 306.6 300.3 299.9 297.4 293.8 290 286.5 283.3 280.6 277.1 275.5 279.4 280.4 280.3 279.4 278.6 275.9 271.7 265.2 258.3 268 270.2 268.4 264.8 271 279.4 281.1 281.3 285.6 288.9 290.1 289
264.1 262.5 260.5 259.8 259 261.4 263.1 258.7 259.6 264.7 267.5 272.2 277.7 283.7 292.8 301 310.7 323.3 331.7 338 340.5 341.4 339.3 333.1 325.4 315.5 309.1 303.7 297.4 291.3 286.6 280.6 275.2 269.2 263.9 257.4 254.8 257.1 263.2 265.3 272.7 279.2 285.5 291 291.6 289.4 284.9 277.7 270.1 277.6 292.4 307.4 308.7 308.3 311.9 314.2 309.9 310.4 313.6 313.5 309.3 301.9 291.8 273.8 266.1 258.3 251.9 240.5 232.5 226.1 221.5 216.6 214 210.6 207.1 205 204.4 204 203.8 203.4 203.4 203.1 202.3 202.4 205.1 212.3 212.1 212.2 212 211.1 206 205.9 217 220.9 225.5 232.4 238.4 243.6 253.6 260.8 275.6 285.4 290.5 289.4 287.8 285.7 276 271.6 269.1 265.5 256.4 250.3 246.8 247.1 249.8 258.4 271.6 285.5 295.3 301.9 302.2 297.6 298.2 297.2 294.6 289.6 277.3 266.4 253.3 245.1 242.3 243.9 251.3 259.7 269.6 286.9 309.5 336.1 361.1 369.5 374.8 377 374.5 369 365.9 357.1 347.4 339.2 333.3 331.3 333.8 336.6 339.1 346.9 351.5 353.4 353.9 353.6 353.5 353 352.5 349 345.3 343.2 339.5 332.5 324.1 314.9 308.4 308.9 309.6 305.6 302.5 297.3 293.2 288.9 284.6 280.2 280.1 283.4 283.7 282.2 279.9 276.3 269.8 260.3 264.6 270.3 274.1 276.5 277.3 267.1 273.5 282.5 285.6 290.2 291.8 294.7 296.5 296.3
263.4 264.8 266.1 266.9 269.1 268.6 265.6 262.9 268.5 274.1 279.2 286.8 294.7 301.7 309.1 316.8 327.9 337.9 341.4 344 342.7 337.8 331 322.3 314.2 305.8 298 291.2 285.7 280.5 276.3 271.1 265.5 260.1 260.4 266.7 268.9 272.2 276.5 282.3 292.9 296 300.2 304.1 303.9 300.4 295.7 286.8 282.5 279.5 304.6 317.7 321.5 322.3 328.3 327.1 322.1 321 321.2 317.4 310.2 305.2 298 290.7 278.3 266.5 255.5 248.9 237.7 231.1 225.5 218.2 215.3 214 212.3 205.7 204.1 203.7 203.5 203.4 203.3 202.8 202.2 200.5 201.8 201.3 199.6 200.1 199.9 207.4 205.3 204.9 212.6 214.9 217.5 222.5 230.4 244.3 251.7 261.5 269.9 281.2 288.8 293.7 293.8 290 279.4 269.6 263.5 259.6 256.6 251.1 246.7 243.7 251.7 264.8 279.1 291.9 301.3 299.3 297.9 296.3 295.4 294 287.3 276.3 264.9 254 246.2 240.8 238.2 245.4 253.7 262.9 275.6 295.1 318.8 346.8 365.9 373.3 377.3 379.5 375.1 370.9 369.6 361.7 352.2 342.8 342 343.5 347 349.6 354 359.3 362.3 363.3 362.7 361.2 361.6 361.6 358.8 354.5 351.6 349.1 343.1 335 326.7 318.5 317.4 317.3 315.1 312.3 310 304.9 298.7 292.8 287.6 281.9 282.4 285.5 284.7 282.3 277.3 270 262.7 270.9 274.4 279.7 285.3 287.5 288.1 275.2 279 285 290.9 295.7 298.4 299.4 300.9 302.5
271.9 272 274.9 275.7 274.1 270.7 266.6 277.3 281.3 287.4 296.3 305.2 312.1 320.1 326.7 335.4 342.5 347.1 347.6 346 341.6 333.1 323.7 313.2 305 297.5 289.8 280 274.9 269.3 266 266.5 267.6 269.8 275.3 279.1 282.6 287.4 292.3 301.3 305.8 309.8 312.5 313.6 311.8 311.3 305.2 297.6 293.8 286.9 305.8 322.4 329.5 332.1 340 335.4 337.9 329.3 325 322.9 317.6 312.8 309.1 299.6 287.5 276.4 267.3 256.2 250.1 244.1 239.7 236.5 224 219.3 215.4 213.3 206.7 205.1 203.3 203.2 202.9 202.6 202 200.3 201.1 199.8 199.6 198.7 198.3 199.5 201.2 201 209.6 209.4 210.8 214.2 222.8 234.4 244.9 253.8 261.1 273.4 284.2 293 294.7 292.5 280.6 271.5 265.1 259.5 255.7 251.8 245.8 242.2 255.9 269.9 282.4 292.1 297 293.8 294.2 292.4 290.3 285.7 275.8 265.2 254.7 248.3 244 238 241.5 250.1 258.1 267.4 282.8 302.2 327.8 354.5 368 378.1 380 380.9 376.2 374 370.8 364.5 354.8 352.7 353.8 358.4 361.3 364.8 367.6 369.9 371.5 372.5 370.7 368.4 369 367.7 364.8 361 358.4 353.8 347.2 339.2 330.5 326.4 325.9 323.1 319.2 315.8 312.1 307.8 301.4 295.4 289 284.8 285.6 286.2 283.8 280.3 273.5 268.9 272.9 278 282.1 289.3 291.6 295.8 295.3 286.2 279.7 289.8 297 300.1 302.1 304.2 307 308
280.4 286.5 289.6 282.2 274.5 271.2 280.6 286.2 296.5 304.1 311.4 320.4 328.5 335.5 342.4 348.3 350.8 351.3 348.8 344.5 336.4 326.4 313.8 304.3 294.8 287.8 276.5 274.2 275.5 275.2 275.5 276 278.8 282.9 286.4 290 294.2 301.2 309.7 316 321.2 324.4 323.8 323 322.3 319.1 313.5 307.9 301.4 297.2 296.9 309.6 321.9 332.7 342.3 342.6 340 335 330.2 329.1 326.9 323.5 318.4 308.6 300 291.2 280.7 273.6 266.8 263.2 260.5 255.7 239.3 236.6 225.9 216.2 213.7 211.2 205.2 203 203.5 202.6 202.3 202.3 201.3 200.8 201.7 201.4 200.4 199.9 198.8 199.6 199.6 199.5 198.5 202.6 211.6 223.5 232.3 242.1 253.8 269.3 282.5 293.4 297.4 292.4 281.6 273.5 267.8 261.6 255.6 256 249.7 242.8 257 270.6 281.1 289.5 288.9 288.2 286.5 283.2 281.4 273.3 262.8 254.4 247.6 243.1 240.4 236.2 245 253.7 263.2 276.2 290 302.7 323.9 351.6 366.8 379.7 380.2 380.9 378 375.7 371.9 366.5 363.2 363.7 367.3 370.3 373.4 375.9 377.9 379 379.5 379 377.1 376.2 377.7 375.4 370.6 367.3 364.4 358.4 351.8 343.9 337.7 336.2 332.5 331 327.1 321.4 315.2 309.4 303.7 296.1 289.9 287.6 287.2 284.1 278.4 274 273.3 275.9 277 283.6 289.4 296.4 299.1 302 300.7 296.9 280.9 294.5 303.1 306.4 309.2 311.1 312.4 311.8
294.5 296.1 287.7 279.3 275.9 284.5 293.2 305.4 315 322.1 329 336.8 344.4 349.7 353.7 355.4 355 352.4 346.7 338.8 329.5 317.1 305.5 295.7 285.5 280.7 286.9 283.5 278 283.1 284.8 290 294.3 296.8 298.7 301.9 307.2 316.4 326.1 335.6 336.5 332.3 332.6 332.3 330 328.1 321.5 316.5 313.4 306.3 298.3 308.1 316.4 324.8 334.2 343.4 342.2 339.9 338.2 339.9 337.6 334.2 328.8 321.9 314.1 304.8 297.2 290.6 285.6 280.8 276.3 268.4 252.3 242.4 232.8 221.8 217.9 214.8 212.7 207.4 204.8 204.2 203.2 202.6 200.3 202.2 202 201.6 200.8 201 200.3 198.2 199.3 198.8 198.9 197.9 198.2 211.7 222.6 234.3 250 267.8 279.8 292.9 296 291.5 282.8 273.7 266 264.9 261.6 252 247.3 242.1 254.6 264.8 275.5 280 281.7 283.2 278.9 275.2 270.9 260 250.2 245.8 242.5 236.6 233.7 242.4 250.6 259.6 270.6 285.8 302.9 322.7 342.1 355.8 366.3 378 381.4 381.7 377.8 376.6 374.9 373.6 372.9 376.2 378.8 381.3 383.4 384.4 385.1 385.1 384.5 383.3 383.3 383.2 384 380.6 376.2 373 368.7 363.6 358.1 352.2 346 343.9 340.4 336.1 331.3 324.8 317.9 309.7 302.6 294.3 290.2 288.6 287.5 278.8 282.5 277.4 280.6 281.2 279.9 285.9 293.3 300.1 305.7 306.1 306.4 302.6 286.7 300.6 310 313.2 315.6 317.5 318.2 319.3
300.6 291.5 282.6 284 290.2 297.1 306.4 322.2 330.6 338.1 346.7 353.3 357.9 359.5 359 358 355.2 349.6 341.4 333.9 324.1 311.8 301.3 291 284.5 293.4 293.1 287.8 284.1 290.9 297.8 304.7 307 312.6 316.9 318.5 322.6 333.1 342.9 348.6 346.2 342.2 342 341.3 339.1 337 328.2 324.1 321.2 316 302.8 308.8 316.7 324.3 331.4 343.2 345.3 346.9 349 349.5 349 344.9 340.9 335.5 328.1 319.3 310.5 303.1 296.9 290.9 281 264.8 250.7 239.3 237 233.5 230.2 229.1 229.7 226 221.4 214.1 204.6 203.5 202.7 202.2 201.9 201.6 201.2 200.5 200.1 199.6 198.1 198.3 198.7 198.1 197.5 197.5 215.5 232.6 247.8 264.6 278.3 290.1 295.7 294.5 278.3 266.5 265.8 268.7 268.2 255.5 245 236.2 249.1 257.5 266.8 270.4 272 275.6 271.9 266.3 253.3 245.4 239.7 238.1 235.6 231.8 241.1 248.3 256.4 267 279.2 295.1 312 332.2 351 362.6 373 380.9 381.7 380.3 379 380.4 381.2 381.6 383.1 386.4 389.4 390.6 390.2 389.9 390.1 388.5 387.5 387.7 387.8 387.5 388 384.3 379.8 376.7 372.9 368.1 362.7 356.8 351.7 349.7 344.9 339.9 333.7 326 317.2 307.2 300.3 295.5 291.3 289.8 287 286.8 285 283.6 287.9 288.7 287.1 285.9 293.4 299.3 303.9 306.5 307.7 305.7 290.7 308.5 316.2 319.3 321.8 323.6 325.1 325.8
293.2 286.1 287.3 295.3 300.1 311.5 326.7 339 343.1 350.6 359 361.7 363.2 362.1 360 356.1 351.6 344.5 333.8 326.6 317.5 308.5 296.4 286.9 300.8 303 298.4 291.7 293.8 303.3 309.5 313.2 318.4 326.3 332.4 333.7 339.3 350.4 357.1 356.9 356.3 352.7 351.6 350 348.4 342.5 337.8 332.2 328.8 326.5 314.7 320.3 324.8 331.2 339.4 348 352.3 358.8 360.5 361.1 358.7 355.4 351.3 345.3 337.7 328.9 321.1 308.2 299.1 290.2 275.6 259.6 262.8 259.3 255 251.7 255.6 255.2 251.6 249.1 246.2 237.2 218.7 209.3 207.6 203.8 201.9 201.7 201.1 201.1 202.2 199.3 199 198.8 198.4 198.2 197.7 195.1 203.9 225.8 239.6 257.8 271.9 283.1 292.7 278.8 264.1 263.2 265.8 268 267.1 260.9 247.7 237.5 240.8 245.5 253.2 259.1 264.2 273.6 265.1 253.1 243.9 235.4 233.9 231.7 231.9 238.5 246.1 254.3 263.2 274.4 288 301.8 320 341.6 358 366.3 378.3 381.6 381.9 381.4 383.6 386 387.4 389.5 393.4 394.3 394.6 392.7 392 394.1 393.7 391.7 391.1 389.7 389.8 389.2 389.6 386.2 382.5 378.7 375.1 371.1 366 362.1 358.2 352.8 347 340.7 333.9 325.9 317.2 309.4 303.1 298.6 293.2 291.2 283.7 292.1 289.1 289.7 293.5 293.2 292.8 292 294.6 296.9 300 304.3 306.1 306.9 293.8 313.6 320.6 324.8 327.4 329.1 329.9 330.1
293.7 299.5 304.2 309.3 319.5 331.8 344.7 350.1 355.4 363.6 365.7 365.9 364.2 360.8 356.2 350.4 341.2 332.3 324.4 317.3 309.7 295.1 295.4 307.1 311.3 310.4 305 294.7 307.2 318.2 320.1 323.8 329.3 337.5 344.7 346.8 355.5 366.2 366.9 367.4 364.3 361.8 361.2 359.3 356.1 348.6 344.2 342.1 340.7 342.5 339.8 342.2 346.3 354.2 358.1 363.1 364.8 368.6 368.8 369.1 366.8 363.2 357.3 350.7 342.8 332.9 320.7 309 298 286.1 269.9 278.7 277.7 279.5 281.2 279.3 281.7 280.2 278 275.7 273.8 258.5 236.6 228.3 226.1 222.3 221.7 221.5 231.6 233.8 216 205.6 198.5 198.6 197.9 197.8 197.8 196.8 196.9 216.6 230.5 245.3 264.9 278.2 282.3 260.6 260.3 264.3 266.5 267.1 263.7 261.2 250.9 239.6 233.1 234.3 245.7 254.7 267.3 259.3 246.2 242.1 234.1 230.9 229.4 227.7 235.3 244.1 253.1 262.1 271.3 282 294.8 308.7 329.3 349.3 363.2 374.4 383.6 383.8 383.4 385.8 389.6 391.3 393.2 395.4 397.2 396.8 392.9 391.1 391.3 392.2 391.9 390.6 390.6 389.9 388.9 387.4 386.2 384.5 382.4 379.2 375.6 371.3 367.5 364.6 360.5 354.7 348.3 342 334.5 326.9 320 312.8 305.4 300.4 296.9 294.6 286.7 295.2 295.8 297.3 298.2 297.8 296.6 297.2 299.8 299.4 299.9 300.8 305.2 306.5 305.2 307.8 322.8 328.2 332.7 334.8 335.5 336
309.5 315.4 320.9 332.5 343.9 353.1 357.7 361.2 366 368.5 368.1 366.1 362.6 356.6 350.1 340.3 332.6 321.9 311.3 306.4 298.9 303.5 313.2 320.9 324.6 321.5 308.5 305.9 324.8 333.1 334.5 337.5 341.4 347 354.9 361.1 373.6 378.3 376.6 374.5 371.7 372.4 369.9 368.3 365.6 360.4 358.4 360.2 363.7 366 362.1 361.2 366.7 372.6 371.8 373.1 373.3 373.8 375.5 374.6 372 367.4 360.4 353.8 344.6 333.7 323.1 312 293 286.5 292 298.9 303 306.8 306.9 307.6 309.5 310 306 306 301 278.2 260.4 253.8 248.8 247 251 258.9 259.3 232.2 213.6 207.5 205.6 198.1 197.5 197 196.9 196.4 196.8 211.2 227.1 246.2 264.2 273.9 269.8 257.6 258.7 264.6 268.4 265.5 256.7 253.1 248.5 243.1 241.9 227.5 243.5 258.9 271.5 264.4 242.7 233.8 229.9 227 226.9 232.9 239.7 248.5 258.5 268.6 277.6 287.5 301 317.9 338 355.6 369.2 382.3 384.4 385.4 386.4 391.9 394.9 397.1 400.1 400.3 396.8 392.4 390.5 389.6 390.7 391.5 390.8 389.5 388.4 387.3 386.1 384.4 382.7 381.1 379.6 377.2 374 369.8 365.7 362.3 359.8 355.3 349.4 342.5 335.4 327.5 318.4 311.5 307.1 303.1 300.5 298.7 295.5 298.1 300.7 302.4 302.9 302.7 302.2 302.7 305.9 308.6 305.3 304.4 305.9 309 310.2 313.5 317 327.5 335.6 339.9 341.1 341.5
328.2 334.8 344.4 353.8 361.1 363.8 367.3 369.1 370.6 370.4 368.4 364.6 359.6 352.5 344.1 336.2 325.1 315.7 304.5 311 316.5 321.6 329.8 334.7 334.2 328.9 314.4 312.1 332.2 344.5 347.8 353.1 353.4 359 367.1 378.1 384.7 386.2 383.9 379.4 379.3 380 377.1 375.5 374 372.4 373.5 376.1 377.2 376.5 374.9 375.9 378.1 380.4 381.4 381 377.8 377.3 378.8 377.2 373.6 368.5 362.2 355.3 345.6 336.1 323.5 315.8 305.9 307.5 314.1 323.1 324.9 326.7 328.8 331.9 332.8 333.2 332.1 328 306.1 293.5 281.4 277.6 275.9 270.5 269 261.6 244.3 222 210.6 206.3 204.8 202.6 200.2 197.8 196.7 196.3 196.4 206.6 228.4 244.4 260.5 257.7 258.9 257.3 261.7 267.9 264.1 256.4 250.8 247.6 244.7 239 232.6 228.6 250.4 268.7 276.9 275.1 259.9 238.2 228.2 224.1 227.2 233.5 241.7 254.9 265.1 273.1 281.9 293.5 309.2 328.6 349.3 363.9 374.9 381.6 385.4 388.3 393.8 397.9 399.7 403 402.9 397.1 391.8 388.7 389.3 390.4 391.4 391.1 389.8 387.9 385.3 383.7 381.6 379.4 377.5 376.2 374.7 372.6 369.8 366.4 362.3 358 353.4 348.9 343.3 336.9 329.1 322.4 315.6 311.5 308.2 305.4 304.4 302.1 299.8 302 304.1 305.4 306.3 307.6 307.9 307.7 310.5 314 312.4 313.1 313.3 314.5 314.9 319.4 315.5 323 332.8 341.1 347.1 347.5
343.9 351.9 360 365.7 368.8 371.3 372.7 372.4 372 369.8 366.4 358.6 354.5 347.3 338.3 327.1 316.5 310 317.5 323.5 330.9 336.1 343.1 344.3 343.8 338.2 321.2 314.1 333.6 348 354.8 358.7 363.5 372.4 379.1 386.4 389.5 389.3 386.1 384.1 385.1 385 383.4 382.4 382.1 382.6 383.4 383.4 382.9 381.6 381.5 381.8 383.1 384.9 385.9 385.1 380.5 379.3 380.2 377.8 374.2 368.7 362.4 355.9 348.4 341.6 333.9 325.5 322 325.5 335 340.3 341.2 339.9 342.8 343.3 343.3 341.4 335 324.3 313.8 303.1 291.5 285.5 281.2 275.3 269.1 251 234.9 215.4 206.3 203 202.5 203.5 200.4 197.4 196.4 195.9 195.6 205.6 223.5 229.7 235.9 244.7 255.6 261.1 256.3 254.2 251.9 248.1 245.8 238.3 226.5 220.8 231.8 240.5 261.9 281.3 286.7 284 265.3 239.5 227.3 221.8 226.8 232.4 249.9 262.4 268.5 275.7 285.5 299.8 317.5 340.3 360.9 376.4 384.4 388 389 392.4 398.4 401.4 404 400.4 397.4 390.6 387 385.3 386.4 389 390 389.5 387.6 385.2 381.8 378.8 376.9 374 371.9 369.5 367.2 365.4 363.7 360.1 355.7 350.1 343.4 338.1 331.9 326.7 321.3 316.3 312.9 309.7 307.2 306.1 306.3 297.7 304.8 306.7 308.5 310 310.5 311.3 312.1 312.5 315.2 315.9 317.1 318.1 319.2 321.8 321.6 321.6 324.1 319.6 324.8 333.3 342.1 349.9
359.7 365.7 369.7 373.8 375.7 375.9 375.4 373.6 370.6 367.7 362.2 354.8 346.3 338 332.9 314 317.6 326.4 330.8 338 345.3 349.5 352.6 352.2 351 342.1 325.6 317 333.9 347.3 357.7 365.3 372.5 379.9 384.1 388 392.1 392.2 390 388.5 388.6 388.6 388.2 387.7 387.7 388.3 389.1 387.8 386.2 384.8 383.7 384.1 384.5 386 387.1 384.7 380.7 379.7 379.9 377.9 374.6 370 364.1 357.6 354.1 349.1 345 338.1 338.2 344.2 350.5 353.2 352.8 353.8 352.4 352.2 350.9 345 336.6 328.3 315.2 302.8 289.7 284 278.1 271.9 259.5 243.9 225.1 210.4 202.7 199.4 201.1 204.1 201.5 198 196.7 195.7 195.1 201.2 211.6 218.3 226.8 242 254.6 254.4 248 244.5 243.4 241.4 228.2 216.5 231 235.2 241.9 253.1 273.5 290.1 289 284 263.6 239 225.7 221.6 226.2 232.6 257.2 266.7 271.7 278.6 289.3 306.1 327 353.3 372.5 386.9 386.1 385.5 384.2 391.2 401.4 404.7 402.9 399.1 390.8 387.1 386.3 384 384.6 386.2 386.3 384.2 381 377.9 375.9 372.4 369.6 365.9 363 359 356.6 355 353.5 349.9 345.7 340.2 333.3 326.9 321.6 317 313.6 311 308.3 306.8 305.7 304.2 300.3 306 307.2 311.2 314.2 315.6 315.2 316.3 316.5 317.3 316.7 317.4 318.6 323 325.1 327.9 328.8 329.2 328.9 327.6 326.4 326.9 334.9 343.2
371.1 374.9 378.3 379.4 379.1 378.1 376.3 372.9 369 364.5 358.4 351.3 342.6 334.4 319.3 325.7 327.1 336.2 344 353.9 358.6 360.4 359.6 359 355.5 347.6 329.7 318.7 332.6 343.8 352.9 363 372.5 380.2 385.4 389.3 392.3 392.4 391.7 391.2 391.7 391.5 391 390.7 390.6 390.5 389.9 388.4 386.2 384.9 384.2 384.1 383.8 384.4 384.1 381.4 378.1 378.1 378.1 377.4 375.5 372.4 370.5 365 360.2 356.4 353.2 349.8 351.9 356.7 360.8 361.9 362.1 359.8 358.4 357.8 351.9 345 331.1 322.7 308.6 297.8 284.7 275.5 267 257.6 245.2 230.2 216.6 207.1 200.9 198.7 198.2 200.8 199.8 198 197 195.5 195.9 194.8 205.8 213.5 226.2 237.8 244 240.4 235.4 236.1 236.2 229.3 213.6 235 241.7 243.3 248.8 265.3 286.9 290.2 287.1 278.7 256.6 235.9 226.2 219.5 225.6 238.1 258.7 267.9 273.2 280.1 293.9 313.2 337.8 362.7 377 381.9 376.2 375.3 380.4 394.3 400.9 403.6 402.8 393.7 386.8 382.9 381.6 381.2 381.4 383.3 384.1 381.9 378.3 374 369.3 365.1 360.5 357.5 354.7 350.7 347.6 345.3 343.6 343 339 333.4 327.8 322.3 317.7 313.1 310.9 308.5 306.8 305.5 303.4 305 306.4 308.3 309.6 318.5 321.5 322.4 322 321.4 321.4 321 319.9 321.2 323.3 328 332 333.7 335.1 335.2 334.1 333.6 332 328.8 328.9 334.6
381.4 382.5 382.9 382.5 380.4 378.6 375.9 371.5 366.7 358 350.7 345.8 332.8 329.3 334.2 337.9 335.6 347.6 356.6 364.7 365.7 365 363.9 362.7 358.3 348.9 335.7 327.9 337.6 345.5 351.7 359.9 369.5 379.7 385.6 389.6 393 393.1 392.7 392.7 392.6 391.8 391.1 389.7 389.8 388.2 386.9 385.3 383.8 382.8 381.3 380.7 380.4 379.9 378.5 376 374.8 374.2 374 373.7 374.8 375.4 372.6 368.4 363.8 362 361.2 359.9 362 365.2 368.4 367.6 365.7 362.9 361.6 356.7 346.6 333.4 323.8 314.1 301.6 289.6 275.9 266.9 250.8 238.3 227 218.8 213.1 207.2 201.8 200.3 198.3 197.8 198.2 197.6 196.9 196.2 195 194 196.7 210.7 222.8 227.8 230.4 228.2 223.7 224.8 227.1 217.8 219.5 234.8 241.1 246.7 259.4 280.5 291.1 288.1 283.8 274.5 252.8 231.4 224.9 217.6 225.2 241.2 258.6 267.7 273.5 282.1 297 319.6 346.4 362.5 366.8 365.7 358.2 358.1 380.2 391.6 402 407.2 400.1 387.6 382.5 379.5 376.1 372.7 379.6 383.1 382.5 379.8 377.5 373.6 369 362 355.9 348.9 347.8 345.2 340.9 338 335.2 333 331.3 328.4 323.6 319.2 314.7 312.4 310.4 308.3 307.7 307.3 306.7 307.6 308.9 311.6 316.3 323.6 327.2 328.9 328.9 329 329 325.6 324.5 327.5 330 334.8 337.9 340.5 341.3 340.4 338.6 337.7 334.4 331.2 332.1 332.5
387.5 386.7 385.9 384.2 381 376.8 371.4 365 357.6 350 346 335.5 335.5 341.1 346.2 347.5 340.5 357.7 366.2 369 368.1 367 365.9 364.2 359 348.4 338.5 329.2 340.7 348.8 357.4 365.3 375.6 381.4 387 391.6 393.4 393.6 393.6 392.9 391.5 390.4 388.6 387.9 386.5 385 383 380.3 378.5 376.9 374.9 374.1 373.2 373.6 373.5 370.9 370.1 369.6 368.9 368.2 369.7 371.3 370.6 368.6 366.5 367.2 366 365.3 368.3 370.8 371.5 370 366.1 361.6 357.2 351.5 331.5 318.7 312.8 303.3 293.2 277.8 265 251.9 235.2 225.7 219.8 214.8 211.5 207.7 204.3 201.4 199.1 197.4 197.3 196.8 197 196 194.9 194.2 194.2 204.6 213.4 217.3 216.5 215.4 214.8 217.1 215.8 209.6 225.5 235.4 243.5 254.7 274.7 290.2 288.8 285.7 281.2 269.9 248.4 229.5 222.9 217.2 225.9 244.7 257.6 265.2 271.8 282.8 300.3 324.4 340.8 348.1 346 339.6 336.6 348.5 374.7 395.5 406.8 400.5 386.3 380.2 375.8 370.2 362.5 365.2 379.6 381.5 379.8 378.5 376.7 373.6 369.2 366.3 358.3 349.5 342.2 337.5 335.3 331 327.8 324.8 323.7 321.5 319 316.6 312.9 311.5 309.9 308.7 309 309.2 308.9 309.8 311.8 314.4 319.9 326.4 330.5 332.8 335.3 336.6 337.9 338.4 338.6 340.9 343.8 345.6 347.3 347.7 347.2 345.4 342.3 338.7 337.4 336 335.8 336.9
391.3 390.4 388.1 384 378.2 370 364.4 359.9 354.3 348.4 338.4 340.3 346.6 352.7 353.5 356.4 358.8 355.6 372 371.7 369.9 368.9 367.9 365.4 359.2 348.9 341.1 339.7 345.7 353.5 362.9 371.2 378.4 383.4 388.7 391.8 393.2 392.8 391.4 389.8 387.9 386 384.2 382.2 381.3 379 375.6 371.5 368.5 368 365.9 363.3 364.3 366.4 365.5 363.1 362.8 363.6 363 362.5 363.6 364.5 364.2 364.3 363.9 365.5 364.9 364.9 368.6 370.8 370.9 364.9 360.6 355.8 350.1 340.3 316.7 306.9 301.6 291.8 280.2 264.2 251.5 234.4 227.7 221.9 218.2 215.1 212.6 208.7 205.3 201.9 198.6 196.9 196.5 196.1 196.4 195.8 194.8 194.4 194.1 197.1 208.6 208.8 208 207.9 209.7 212.9 208 217.3 228.6 237.9 248.3 268.5 286.8 288.8 287.6 283.5 276.4 265.6 242.5 229.3 222.7 215.3 223.8 240.6 250.9 259.6 268.8 282 302.1 319.8 329.2 331.5 326.9 320 327.6 353.7 382.6 397.2 397 386.1 369.2 356.7 352.7 346 338.4 355.6 376.8 381.6 380.1 378 375.6 374.2 371.9 367.9 360.4 352.1 346.6 341.3 336.6 330.8 326.2 322.3 318.5 314.5 312.7 311.8 309.8 309.9 310 309.9 311 311.3 311.2 312.1 314.6 316 319.4 325.1 329.6 333.2 335.5 337.8 340.9 346.2 351.2 358.9 362.4 359.6 357.8 355.8 354.1 350.3 345.3 344.9 343.1 341.4 341.3 343.2
395.7 391.5 387.4 381.7 374.4 368.4 362 354.7 348 344 348.4 351.5 356.7 360.8 361.8 365.2 371.2 367.9 376.3 375.5 374 373 370.4 366.2 358.1 350.6 345.7 347.3 352.5 359 366.6 374.3 380.2 384.7 388 390.4 390.8 388.8 386.8 384.7 382.4 379.7 377.7 375.2 373.1 370.7 366.1 360.4 355.1 355 353.9 351.1 352.4 356.3 354.1 354.3 357.1 356.6 357.3 358 357.8 357.2 355.5 353.5 356.9 355.6 356.3 359.3 363.2 364.4 360.7 357.1 351.5 346.1 331.7 312 298.4 292.8 284.4 276.8 269.9 258.6 238 232 229 227.4 225.9 221.9 217.2 209.7 206 204.8 199.4 196.9 196.1 195.9 195.6 195 194.5 194.4 194.6 192.4 200.2 203.5 203.5 204.9 206.4 205.5 209.1 220.2 230.6 241.2 260.7 278.2 285.9 286.9 285.5 279.4 273.1 258 242.7 229.5 222.9 214.2 219.8 231.1 239.5 253.2 262.8 276.3 294.3 302.9 309.2 307.9 303.3 301.2 331.5 359.6 383.8 389.6 381.9 368.2 354.1 342.4 333.7 326 316.7 349.6 377.4 381.6 378 376.5 375.7 375.7 373.6 368.2 362.3 356 351 347.3 342.4 337.4 332.6 325.8 320.7 317.7 315.2 314.8 311.1 303.9 307.4 309.1 310 311.6 312.1 313.7 315.6 317.5 320.1 323.6 327.6 330.5 332.9 335.9 339.6 344.5 351.2 358.2 364.8 368.6 367.9 365.6 361.8 356.6 352.5 350 348.5 347.7 348.1 349.2
395.5 390.4 385.5 379.1 373.6 367.9 357.5 352.9 355.1 356.5 361.3 363 368.2 369.5 371.5 374.7 377.1 376.6 381.5 381.5 377.4 374.6 371.2 365.1 357.8 354.1 355.1 356.7 362.1 368.1 373 376.3 381.3 385.4 387.1 388 387.9 385.5 382.2 378.7 376.3 373.9 372 370.4 368.3 363.7 356.2 348.6 343.2 344.9 346.7 344.8 342.2 343.1 342.3 345.8 349.4 349 352.5 352.2 346.1 346.5 345.6 339.9 344 343.3 347.6 352.7 357.4 354.1 349.7 343.9 338.5 332.7 308.5 290.3 283.7 279.5 275.9 272.6 264 247.1 242 248.2 241.6 235.8 234.7 230.4 224.6 214.7 210.3 205.3 201.3 199.5 196.1 195.3 195 194.8 194.4 194.2 194.5 193 193.5 200.5 201.2 201.3 201.7 203.3 212.8 221.9 232.6 250.3 272 279.4 282.4 284.9 281.3 276.4 270.9 256.8 241.7 230.4 223.3 217.5 215.1 220.2 226.4 240.8 248.9 259 274.6 283.6 287.8 285.8 282.1 301.8 333.4 363.1 374.8 371.3 361 349.3 332.8 325.6 317.8 308.4 314.1 346.5 369.3 372.8 373 376 378 376.8 373.9 369.7 366.2 359.6 354.7 349.9 343.9 338.6 332.9 325.4 319.4 316.3 315.5 314.8 311.2 307.9 298.8 304.5 303.6 307 310.8 314.4 316.5 317.2 318 322.4 325.5 327.8 329.6 332.6 337.3 341.7 343.8 348.8 355.5 363.4 368 367.7 364.5 361 357.4 355 353.1 352.8 352.8 352.8
393.8 388.9 382.7 377 369.9 362.1 364 364.9 366.2 372.8 373.8 375.3 376.7 377.5 378.8 381.5 374.7 380.9 386.4 384.5 379.8 374.4 370.3 365.1 364 364.5 366.7 369.3 373.3 376.7 378.5 381.2 384.7 386.3 385.9 385 383.6 380.6 377.8 374.4 371.1 368.7 365.8 365.2 363.7 359.7 352.3 342.6 332.9 335.1 341.6 340 333.5 332.1 332 333.2 338.6 340.7 341.2 335.8 333.7 336.6 333.5 326.7 326.3 328.8 336.1 345.6 350.4 345.4 338.9 331.2 321.4 302.9 285.6 276.2 274.8 274.1 275.1 274.7 270.1 271.1 270.3 272.4 253.9 245.8 241.7 238 229.8 221.3 213.1 207 204.5 200.9 196.7 194.9 194.8 194.6 194.5 194.3 194.2 192.7 193.9 195.4 196.7 199 202.7 206.7 213.4 225.2 238.8 259.9 268.9 275.8 277.1 276.6 275.5 273.5 269.2 258.7 243.9 234.7 226.6 219.5 211.4 213.2 216.9 222.3 231 244.5 254.7 262.5 267.4 269.3 276.7 304.4 335.3 351.7 355.2 348.8 338.4 325.1 313.8 308.5 302.1 295.4 310.2 332.1 349.7 363.2 373.9 376.5 378.2 377.5 375.8 371.2 367.1 360.9 355 348.9 343.1 337.4 330 323 317.3 312.7 311.5 309.1 306.6 303.7 299.8 294.3 298.2 303.4 309.3 311.5 312.1 310 312.7 317 321.7 324.3 326.5 329.2 333.8 338.5 340.7 343.3 347.6 355 359.7 362.5 364.3 365.4 362 359.4 358 356.2 353.8 352.3
389.2 384.8 377.7 374.5 374.6 373.7 372.9 374.6 379.4 383.3 384.2 385.2 383 384 383.1 380.2 377 383.3 389.2 387.6 382.7 376.2 372.5 369.8 371.4 374.6 379.3 380.5 382.4 383.3 384.6 386.9 388.1 387.4 385.5 383 380.2 376.9 374.3 371.6 368.2 364.2 361.8 359.9 357.5 354.3 348.1 339.1 328.7 328.3 336.6 344.2 334.7 325.3 322.7 323.8 324.6 325.4 324.9 323.7 321.5 320.2 317.3 314.6 313.5 318.2 326.6 338.8 342 336.3 330.3 318.5 297.8 281.2 271.5 269.3 270.1 274.1 278.4 283.8 287.8 289.9 290.1 283.1 261.2 254.3 249.7 245.9 236 225.1 213.4 208.3 206 201.9 198.3 194.8 194.7 194.5 194.5 194.5 194.3 192.7 192.7 192 196.5 198.7 201.8 206.5 221 229.2 240.9 248.8 261.8 268.1 269.6 270.2 270.4 271.5 268.8 259.7 246.1 237.9 230.2 220.8 215.1 209.6 211.7 216.8 222.9 231.1 241.1 248.5 253.8 260.1 281.8 311 319.7 326.9 322.6 318.8 311.5 303.2 297.7 294.5 291.8 286.3 309.4 331.8 352.3 366.2 372.6 375.6 376.8 377.1 375.5 370.9 368 360.1 354.5 348.8 344.5 338.3 329.7 320.6 314.5 310.2 307.1 304.2 302 299.5 295.1 292.1 292.3 295.9 301 303.7 303.7 305.5 307.6 312.3 317.1 321.8 324.8 327.1 330.9 334.5 337.7 338.5 341.5 345.4 352.7 357.1 360.6 363.9 364.5 361.6 356.9 352.3 349.8 347.7
393 387 385.6 381 381.8 381.5 385 389.4 392.3 392.7 393.7 393.1 388.7 386.5 380.4 378.8 378.6 385.3 389.9 391.3 388.2 381.7 377.2 375.9 380.3 384.6 387.4 389.3 389.7 389.6 390.7 391.8 391 388.1 384.6 380.7 377.4 373.6 370.6 368.5 365.6 362.6 358.6 352 351.4 348.1 343.1 333.4 323.9 322.1 331.6 340.8 338.1 327.5 317.8 313.9 313.7 313.8 311.9 310.7 309.5 308.8 307.3 306.4 306.4 309.1 315.7 327.1 329.7 325.6 318.6 302.9 283.7 270.2 264.2 263.4 268 273.6 279.8 291.1 297.2 294.6 296.6 285.5 268.3 261.4 257.5 249.3 238.2 226.4 216.1 212.5 208.9 203.5 198.8 195.3 194.6 194.6 194.3 194.2 193.9 193 191.5 191 190.7 191.7 199 213.7 223.8 223 233.1 234.1 250.3 260.1 264 266.3 267 268.6 268.1 263.4 251.2 239.6 231.6 222.4 216.9 211.7 207.7 212.2 218.4 224.8 232.8 239.9 246.3 261.3 281.5 289.5 292 293.8 295.9 294.3 290 286.7 285.6 284.6 280.5 286.6 313.7 344.3 362.3 369.8 373.7 377.6 376.2 372.9 372.9 369.9 367.1 359.3 355 349.9 345.2 333.6 328 322.5 319.1 315.4 311.8 309.9 307.9 303.6 298.8 293.9 290.1 289.5 292.6 294.8 295.7 300.3 306.5 310 312.2 315.7 319.4 323.2 329.3 333.1 335.7 336.3 338.1 341 345.9 348.6 351.7 354 354.6 353.3 352 348.8 346.4 343
397.4 393.9 390.1 391.3 392.3 394 396.5 401.6 402.2 401.4 400.4 398.3 395.5 390.4 384.9 379.8 380 385.2 391.5 395.6 394.1 388.1 383 382.4 386.8 392.1 396.2 396.6 395.5 395.1 395 393.9 391.5 387.4 383.1 379.1 374 369.4 366.2 362.9 360.7 358.6 355.9 350.3 343.3 340.2 334.5 326.8 319.2 315.8 323.6 339.3 342.4 333.8 321.2 311.6 305.7 302.5 300.3 301.8 302.1 301.4 300.2 299.1 298.9 300.7 301.9 307.2 315.6 313.8 305.4 287.8 272.7 263.3 259 260.2 266.1 272.7 285.7 294.8 298.8 300.2 298.8 285 273.4 266.7 261.5 255.3 241.5 231.1 224.4 219.3 214.5 207.5 200.6 196.6 194.8 193.8 193.5 193.5 193.8 192.1 192.1 192.5 191.6 190.4 195.5 209.7 213.2 214.1 224.1 227.1 239.7 247.5 253.1 258 262 267 268.2 264.1 256.3 243.1 234.2 224.5 219 212.2 208.2 211.1 216.1 221.6 228.1 234.6 241.5 249.7 257.3 263.2 268 271.8 272.7 273.8 273.1 274.9 275.7 272.8 267.9 291.9 320.7 351.3 364.4 370.9 375 376.9 375.8 372.8 369 366.5 363.5 356.5 355.6 354.2 350.7 344.7 341.7 338.9 334 326.6 321.1 315.1 310 304.5 298.5 292.5 288.7 285.6 287 288.4 290.6 297 302.5 305.9 306.7 307.4 311.9 319.5 327.1 330.2 332.6 333.8 335.2 339.6 340.3 342.3 344.8 346.7 348 348.6 348.2 345.8 342.9 338.8
403.7 402.2 402 404.7 405.9 406.9 408 412 409.5 408.1 405.8 403.7 399 394.4 388.5 381.9 381.3 385.2 393.1 396.6 398.7 395.4 390.5 391.5 395.7 401.1 403 402.1 399.9 398.3 396.4 393.4 390.5 385.7 380.8 376.1 370.9 365.8 361.5 356.1 352.6 349.9 349.1 346 341.6 331.6 326 319.5 312.4 310.9 316.4 333.6 339.4 338.8 331.2 316.9 313 309.2 302.2 298.9 290.8 294 293.2 291 287.3 292.4 293 292.9 294.5 301.6 295.6 277.1 265.1 255.9 250.8 257.9 263.6 270.5 289.1 296.8 300.7 298.9 294.9 284.1 276.9 271.4 268.1 257.3 247.4 241.2 232.7 228.3 221.4 211.4 203.8 200.7 195.7 193.3 193.2 193.4 193.6 191.9 192.9 192.4 190.9 190.7 190.6 199.2 203 207.9 219.3 220.5 226.3 239.1 243.5 249.7 258.5 266 264.2 261.4 258.9 252.7 242.1 229.1 219.6 213.5 207.2 210.2 214.7 219.2 223 228 232.4 238.8 243.8 247.2 250.3 252.7 255.1 258.9 261.4 263.3 263.3 261.2 278.7 303.4 329.6 350.7 361.8 369.1 376.1 376.6 373.6 370.3 367.3 364.8 363.5 362.3 360 358.6 356.4 354.3 350.8 346.3 340.7 333.9 325.7 318 310.3 303.6 296.9 292.9 290 285.7 282.4 283.5 286.6 294.1 298.1 299.8 300 301.2 306.3 313.6 319.9 324.7 327.9 328.9 332.8 337 339 339.6 341.3 343.4 345.3 347.1 347.1 347.1 345.9 343
414.6 414.7 415.4 418.2 419.6 418.3 418.2 419 415.6 414.4 410.6 408 403.9 399 390.4 385.2 385 389.4 397.2 401.4 403.7 401.6 398.6 399.4 404 407.9 407.7 405.1 402.4 399.1 395.3 392.9 389 383.6 378.5 373 367.1 362.4 358.1 352.2 345.4 339.8 340 338.1 334.3 328.7 315.9 309.4 304.9 305.5 312.2 326.7 338 337.7 330.3 325.9 322.3 314.2 306.1 303.1 298.6 289.7 283.4 279.7 273.1 278 280.9 281.5 280.7 283 281.9 272.7 259 250.5 248.4 255.6 262 272.5 288.8 296.8 296.3 295 286.6 278.4 274 272.7 277.4 272.3 260.4 249.3 241.4 238.2 233.8 221.4 209.3 201 195.5 193.4 193.1 193.3 193.2 191.8 192.6 192.9 190.6 190.6 189.8 189.4 199.2 202 208.5 209.2 216.5 222.5 227.4 241.5 252.9 256.7 258.9 257.5 257 256 244.6 232.4 222.6 213.1 206.4 207.7 211.3 214.3 217.9 221.2 225.4 231.7 236.8 238.9 240.9 243.3 245.7 247.9 249 245.3 260.6 274.1 291.4 312.5 327.8 343.2 358.3 368.9 376.7 377.3 372.6 371.6 369.9 369.6 369.8 367.9 365.3 362.6 361.1 358.2 353.8 349.2 342.8 334.7 326.8 319.2 313.2 307.7 302.9 298.5 293.5 290.8 283.5 281 285.3 290.6 295 296.8 293.5 295.7 301.1 304.8 314.2 318.3 330.6 335.9 340.8 342.1 345.1 346.1 346.5 347.4 349.2 350.6 350.8 351 348.9 350.2
425.7 427.7 428.6 428.9 429.1 428.5 427 424.6 419.5 418.5 416 407.9 406.4 398 394 393.2 397.6 401 406.3 409.9 409.6 406.1 404.8 407 409.3 410.6 409.3 406.8 403.9 400.1 396.9 393.2 387.1 382.2 376.7 369.6 361.9 356.8 350.8 347.8 342.6 331.2 327.9 325.8 324 319.6 310.5 301.4 292.4 299.3 306.9 322.7 336.3 336.1 335.6 333.3 326.5 318.6 314.7 315.8 306 299.2 294.5 289.3 285.5 263.5 266.9 267.3 267.9 269.4 268.8 263.5 254 243.9 246.4 254.2 259.9 271.6 285.5 288.7 288.9 285.7 276.8 268.5 262.8 270.7 282.3 276.1 265.3 256.4 250.4 248.5 249.9 240.5 228.3 201.3 196.2 193.6 193.1 192.9 192.9 192.9 191.5 191.1 192.2 191.7 191.2 189.7 194.2 199.2 200.8 203.2 205.9 210.6 215.2 225.2 241.1 247.5 252.3 254.1 253.3 252.5 245 234.1 224.1 215.7 209.6 204.4 206.6 208.9 212.7 215.5 218.9 224.1 229.9 232.5 234.1 235.1 236.3 235.2 245.2 257.1 269.1 282.8 297.1 312.1 325.6 341.8 357 368.5 371.8 370.6 371.9 372.2 373.8 373.1 372 368.4 366.6 364.2 362.1 359 354 348.6 342.5 335.7 328.9 322.4 317.2 311.9 306.8 303.6 302 297.4 288 278 282.8 288.2 289.6 290.9 288 295.1 303.5 312.3 319 328.6 338.5 345 350.2 353.2 355.4 356.1 355.8 355.9 356.8 357.2 356.8 355.9 357.5 357.3
436.5 438.7 441.4 438.8 437.8 437 433.6 429.6 423 416.8 414.7 407.1 405.2 401.8 401.8 409.2 410.8 410.5 411.9 413.6 412.5 411.5 411.5 413.5 413.8 411.9 409.9 406.8 402 399.5 396.5 391.3 385.9 381.1 372.5 367.7 360.1 346.7 344.2 339.1 334.4 328.2 311.1 315.9 312.6 308.1 302.1 297.9 290 292.9 298.1 315.4 329.2 332.5 336.4 333.3 328.4 329.8 330.1 325.5 320.6 308.4 306 296.6 286.8 270 263.7 243.8 254.4 259.1 258 253.9 247 236.3 240.7 247.6 253.9 265.8 275.1 277.9 278.8 270.9 260.9 251.7 252.3 269.3 282 279.5 269.9 260.4 258 260.5 262.1 260.4 226.9 206.1 201.3 194.7 193.3 192.8 192.2 192.7 192.3 191.1 192 191.6 190.6 190.8 188.3 194.7 198.9 200 202.3 205.5 208.9 215.1 227.6 241.3 245.7 247.9 248.1 249.5 245.7 236.6 226.8 216.7 212 206.5 202.1 201.9 204.7 208.3 212.8 217.7 222.2 224.2 222.6 230.3 237.3 247.8 257.6 265 275.7 288.3 302.1 313.7 323.8 341 353 360.9 363.3 366.6 369.5 371.4 372.8 371.6 369.2 367.4 365.7 364.4 361.6 357.9 352.1 346.6 341 335.7 330.7 325.2 320.4 315.9 310.9 308.2 306.7 302 292 279.9 278.8 284.6 283.6 283.6 289.9 300.9 310.1 318.4 325.4 333.2 342.3 350.1 356.4 359.6 362.4 363.7 364.5 364.1 365 366.2 366.1 364.3 364.6 364.4
443.6 446.8 448.3 445.3 443.7 441.4 438.1 432.7 427 419.3 412.2 412.3 413 413.1 414.4 418.3 418 416 416.2 415 414 413.2 413.9 414.2 413.4 411.3 408.9 404.6 399.8 396 392.3 388.2 383.3 377.3 371.5 364.6 355.7 346.1 336.2 332.3 325.7 317.7 310 303.5 301.4 297.3 293.4 288.5 279.1 286.1 288.4 305 313.7 321 326.7 326.1 327.1 332.2 335.3 331.9 319.6 318.6 310.6 300 280.6 269.3 263 256.6 241.5 242.3 247.9 243.1 238.6 235.4 237 238.8 240.6 245.2 253.8 257.1 257.5 250.1 245.8 241.5 246.2 264.9 278.7 280.7 271.7 267.6 272.1 273.4 271.8 272.1 235.6 216.8 206.7 198.6 193.5 193.8 192.6 191.8 191.8 191.7 191.7 191 190.9 188.5 191.9 192.1 196.7 198.6 200 201.6 206.5 206.9 212.8 229.1 235.2 238.8 243 245.2 244.2 238.5 230.7 219 212.2 210.1 209 206 199.1 203.1 206.5 209.3 213.1 220.6 230.2 239.6 251.7 265.6 271.6 276.1 282.7 289.5 303.3 318.9 332 339.8 342.4 356.3 361.6 365.6 368.2 369.9 369.9 368.5 368.3 366.2 364.5 361.5 359.5 354.1 348.4 343.5 339.1 333.7 329.8 325.7 320.9 317.3 313.8 310.3 307.5 304.2 299.6 287 276.6 275.6 275.9 282.5 298.3 310.5 318.8 325.1 330.2 337.1 344.1 350.4 355.2 358.8 362 365.7 367 368.6 371.2 373 372.8 372.5 372.2 372.8
448.9 451.5 448.7 445.7 443 441.8 439.4 434.1 428.5 425.4 420.7 422.7 422.8 422.2 423.6 423 421.1 420 418.8 414.3 412.2 413.3 413.3 412.5 410.5 409.2 405.5 401 395.7 390.7 387 383.2 377.9 371.4 365.4 357.4 349.2 340.4 332.1 323.2 308.7 305.5 299.8 293 289.3 286.7 284.3 279.8 268.6 275.6 278.6 291.4 297.1 304.6 310.5 313.4 319.9 328.3 333.9 328.8 321 315.7 304.8 286 274.2 263.3 258.8 254.4 245.2 231 233.9 231.1 225.9 223 222.9 224.3 227.6 231.3 232.2 231.1 230.9 233.5 230.4 233 238.7 254.6 271.7 278.4 277.1 278.8 280.8 281.2 283.1 265.1 247.6 234.4 221.3 204.8 198.2 193.6 192.3 191.2 191.4 191.4 191.4 190.7 189.5 189.4 191.1 191.1 191.3 193.7 197.7 198.9 200.9 202.6 204.5 212.9 220.9 228 233.9 239.3 242.3 237.8 233.7 220.8 212.8 210.8 210.2 209.2 201.1 199.8 208 213.3 219.2 231 244.5 256.4 263.9 270.8 272.9 275.7 280.9 289.3 300.8 314.2 327 325.2 344.9 357.9 360.4 363.1 364.9 366.3 366.9 368.2 367.8 366.4 364.1 360.7 358.3 353.8 347.7 341.2 336.6 333.5 329.6 324.4 320.5 317.5 314.9 310.9 306.8 302.9 299 293.8 284.5 276.4 273 286.9 299.1 309.6 316.4 322.7 328.4 334.2 340.9 347.8 353.9 359 363 367.2 369.3 372.1 375.2 377.8 378.7 379.3 380.6 381
449.9 446.7 444 441.4 439.6 438.6 436.3 433.9 433.2 430.7 427.8 428.6 428 427.1 426.5 424.9 422.2 420.4 417 412.9 413.3 413.6 412.3 409.9 407.8 404.2 399.5 393.4 386 382 379.9 374.6 369 361.9 352.3 344.2 338.4 330 321.9 314 304.2 293.9 288.5 282 276.3 277 272.6 266.7 257.7 264.8 262.6 271.1 276.1 283.3 289.3 295.3 304.2 313.1 315.5 312.7 304.2 298.9 293.4 276.4 263.9 255.1 247.4 245.9 237.9 229.9 227.1 226.4 221.7 219.5 218.4 217.3 217.3 218.6 220.4 221.1 220.5 220 221.6 224.8 228.3 238.3 255.6 273.9 279.2 280.9 284.4 287.2 281.1 270.8 255.4 243.3 228.5 213 203 199.3 193.5 191.8 191.4 191.3 191 190.9 190.4 188.4 189.6 190.6 190.2 190.5 192 196.9 198 199.4 200 202.9 206.9 212.1 217.3 229.6 231.7 231.1 229.7 220.1 211.5 209.8 210 209.7 201.7 199.9 213.4 219.7 228.4 239.5 251.4 260.6 264.2 269.7 269.4 272.8 276.8 281 292.2 301 307.5 319.4 345.2 355.1 359.1 361 362.7 364 365.6 368.1 367.2 366.2 363.9 361 357.4 352.2 346.1 341.3 336 331.8 328.3 323.4 318.8 314.8 310.9 305.9 300 294 288.8 286.7 284.7 271.7 267.6 278.4 289.4 301.1 309.2 318.1 327.8 340.4 347.2 352.8 357.6 362.9 367.3 369.9 372.8 376.3 379.6 382.5 384 385.3 387.2 386.9
445.3 442.7 440.1 437.9 436.1 436.1 436.1 435.3 434.4 432.8 431 431.5 430.7 429.6 426.3 423.2 419.4 415.8 413 410.2 410.6 410.3 408.5 405 400.5 395.3 388.4 379.4 374 369 363.9 357.9 352.4 343.5 336.2 329.9 323.6 316 308 302.2 292 285.7 269.6 269.5 265.9 259.3 254 250.8 250.6 252.8 253.7 253 254.9 259.5 265.1 271.8 281.5 291.3 291.5 292.6 287.6 278.7 271.3 261 249.9 243.7 233.8 228 225.6 225.1 225.1 222.3 220 217.4 216.1 214.5 212.8 212.1 212.1 214.1 215.7 216.6 217.6 219.6 220.7 226.9 237.8 256.9 270.2 276.9 281.9 278.8 274.7 267.5 256.7 245.8 239.6 229.1 216.5 212.2 209.4 204.6 196.9 190.9 190.5 190.5 190.4 187.9 186.5 189.8 189.7 190 190 191.6 195.3 197 197.2 198.9 200.2 201.8 204 209 219.8 223.5 229.8 223.4 209.8 207.4 208 208.2 196 209.7 214.4 224.9 236.5 243.6 253.3 259.6 260 262.8 266 269.5 267.4 268.1 273.6 282.7 299.1 317.4 340.4 350.4 356.1 360.1 362.6 363.9 365.7 368.3 367.7 365.4 362.6 356.5 351.6 346.4 343.1 339.7 335 330.9 326.1 320.4 314.2 307 300.1 292.1 284.8 278.2 272.8 269.5 268.5 260.6 279.2 289.6 297.7 308.6 317.4 330.1 340.6 346.9 352.1 357.2 361.9 369 371.3 373.5 376.8 380.4 383.8 387.3 388.9 390.2 391.2 391
442 439.3 436.3 435 434 434.9 435 434.5 434.1 432.6 431 431.5 429.4 427.1 423.1 419.5 415.9 411.8 410.2 409.2 409.1 405.7 401.8 395.7 388.6 382.3 376.3 366.6 354.3 345.6 339.6 333.4 327.8 323.1 317.8 313.1 306.9 299.6 291.8 284.3 277.6 269.8 262.7 256.8 253.6 248.9 243.8 242.3 243.9 243.9 246 245 246.8 247.1 246.4 250.6 256.7 261.7 268.3 271 261.1 254.6 250.2 244.3 232 227.2 224 221.1 220.4 221.8 221.2 219.8 218.1 215.5 214.1 213.3 212.5 211.5 211.2 210.4 210.1 212.9 214.5 215.5 215.9 216.3 220.1 235.4 247.7 264.4 270.4 267.9 269 261.1 256.6 256.4 256.8 251.5 240.7 240.7 238.9 226.1 219.6 215.5 190 190 189.8 188.9 188.5 189 189.3 189.8 189.7 189.6 189.5 191.8 193.3 195.7 197.2 198 198.9 201.8 207.7 214 223.9 222.6 206.5 203.4 204.4 202.8 194 207.8 217.4 229.8 233.9 239.1 248.2 250.5 251.2 251.9 258.6 261.4 254.6 258.4 265.9 276.5 289.9 312.1 326.8 338.2 351 357.1 361.8 362.9 366.3 368.2 367.8 365.7 362.2 354.9 349.1 343.8 340.1 338.1 336.2 327.5 325.3 322 317.1 308.8 304.8 301.1 296.5 289.9 279.8 265.5 254.4 272.2 289.5 304 313.9 322.8 333.7 340.5 346.4 351.5 355.9 362.3 366.1 371 373.7 376.3 379.7 383.2 386.9 390.3 392.5 393.4 394.4 395.1
437.9 434.8 432.9 431.5 431.8 432 431.8 431.8 431.2 429.3 427.9 426.6 425.2 422.9 419.2 414.8 409.9 407.7 406.3 403.7 400.9 397.3 392 384 376.7 369.3 358.8 342.2 328.8 321 315.3 308.4 301.8 300.6 299.6 295.2 289.4 281.4 274 270.7 261 257.5 253.7 250.7 248.4 244 239.6 238.2 239.4 238.3 237.2 237 236.9 237 237.6 238.8 240.5 243.3 244.5 243.2 237.6 234 232.2 227.6 223.5 220.9 219.6 218.8 218.4 218.6 218.7 217.6 215.8 214.6 214 212.7 212.6 212.4 211.9 210.8 210.1 209.2 209.9 211 211.7 212.9 213.8 216.8 226.5 240.4 250.6 257.9 256.9 250.6 249.9 250.3 253.6 260.4 266.4 274.9 261.5 252.8 242.6 226.2 191.9 189.5 189.7 188.5 187.2 187.8 188.7 188.4 188.8 188.7 188.3 188.3 188.7 189 192.3 194.1 193.1 195.4 200.9 203.9 211.7 214.4 201.3 198.7 198.7 199.8 192.5 204.8 211 216.1 220.8 228.5 234.7 239.2 242.3 241.3 244.1 247 247.1 257.2 268.7 288.1 300 309.3 325.2 340.7 352.2 358.4 361.8 364.8 367 368.2 367.5 366.4 362.8 356.1 349.5 344 339.4 338.2 338.9 336.6 332.5 329.3 325.5 321.8 320.8 315.8 309.2 300.6 279.8 262.6 257.8 280.3 299.4 312.9 322.8 331.2 338.3 344.4 349 354.1 359.4 364.9 369.4 373.1 375.4 378.1 382 385.4 389 392.4 394.9 396.3 397.3 399.2
431.8 429.8 428.1 427.8 427.9 426.7 426.1 426 425.1 423.8 421.8 420.3 418.6 416.4 413.3 407.8 402.5 399.9 397.2 392.9 390.1 385.4 377.5 365.7 358.2 348.1 332.7 316 307 302.5 297.4 293.1 290.3 286.7 283.2 280.6 275.4 269.3 263.5 258.7 252.9 249.5 247 246 244.2 241.7 239.1 241.2 239 234.4 234.1 234.2 233.2 231.5 231.1 231.9 232.6 233.1 232.9 230.9 226.5 225 223.3 221.9 220.7 219.9 219.3 218.6 217.5 217.5 217.1 216.1 215 214.3 215.6 217.7 217.9 213.9 212.1 216.4 212.6 209.5 208.3 207.7 207.4 208.9 210 209.8 213.3 218.3 226.3 239.4 238.8 237.7 239.2 243.9 253.4 265.8 280.1 289 282.3 274.5 250.1 227.4 194.1 189.3 189.7 189.4 188.3 185.9 188.1 188.1 188.4 188.2 187.9 187.7 187.4 187.1 187.1 187.3 187.2 187.1 195.1 197.5 198.3 198.1 196.9 196.8 196 195.3 190.9 199.2 204.3 207.6 212.7 219.2 225.3 228.5 231.1 233 235.1 230.7 248.8 263.8 284.9 306 318.8 326.4 336.7 345.1 354 360.3 364.5 366.6 368.3 369 368.1 366.4 363.6 358.4 352.5 347.6 345 345.8 346 343.4 340.1 336.4 334 332.5 329.6 323.8 316.2 302.4 279.3 259.3 261.8 286.6 308.2 319.5 327.6 334.2 339.6 345 350.3 355.2 360.4 365.8 370.5 373.7 376.7 379.2 382.5 386 390.7 394.5 396.9 398.7 400.5 402.7
427.4 424.4 422.4 421.2 419.7 418.8 417.9 417.6 417.3 415.9 414.4 412.5 410.6 407.8 403.4 398.3 394 391 388.1 385.1 379 366.4 355.1 345.3 333.8 320.4 309 299.8 293.2 289.8 286.6 284.9 282.9 277.4 274.3 270.3 264.5 258.5 255.1 251.4 247 245.5 244.2 242.9 243.8 247.3 248.8 247.4 240 236.5 233.8 232.6 232.2 230.6 229.2 228.2 227.3 226.8 225.6 224.7 224 222.9 222.4 221.4 220.5 219.7 218.9 218.6 217.2 217.1 215.9 219.2 225.8 229.3 231.4 230.2 224.8 216.7 214.1 215.8 215.4 211.7 209.8 208.2 207.5 206.7 205.7 204 205.6 210.2 213 216.6 223.6 224.1 230.6 241.2 254.8 269.2 283.8 289.9 283.3 276.6 256.2 225 199.8 189.7 188.9 189.3 189 187.3 187.2 187.3 187.5 187.8 187.7 187.6 187.3 187 187 187 186.9 186.8 186.8 195 195.4 196.1 195.8 195 194.7 194.4 190.5 194.6 198.2 201.4 205.8 208.8 210.6 215.1 221.2 225.6 219.8 237.3 253.1 279 296.4 312.4 320.2 328.9 340 346.4 354.2 362.3 365.9 367.1 368.4 369 370.4 369.1 364.9 361.6 356.3 354.5 353.8 352.3 351.6 349 346.2 344.7 340.9 338.4 334.6 323.4 309.9 294.9 276.4 255.4 263.1 289.2 311.8 321.9 329.3 335.7 340.9 345.4 350.1 355.7 360.7 365.8 369.5 372.3 376 378.8 383.1 387.3 391.9 395.8 398.6 400.9 403.6 406.1
421.9 418.5 415.7 414.1 411.4 410.6 409.3 407.9 408.1 407.1 405.4 402.3 399.2 395.6 391.1 386.3 382.7 381.3 375.9 372.1 351.6 341.7 331.2 320.2 309.9 301.8 294.2 287.2 281.8 278.4 277 278.6 277.7 273.8 266.1 261.3 257.1 252.1 250.1 248.1 246.7 245.4 248.5 256.8 262 269.3 279.1 254.4 243.3 236.8 234.3 231.3 230.4 229 228.5 227.6 226.9 225.4 225.3 224.5 223.6 222.9 222.2 221.3 220.5 219.4 218.6 218.5 218.5 225 232.4 242.1 249.3 255.9 251.7 244.9 234.2 222.8 220.3 218.3 216.5 214.5 213.3 211.5 209.1 207.8 207.3 205.9 203.9 203.9 206.5 210.1 211.7 214.7 222.3 239.4 252.7 264 274.9 275.5 275.2 266.9 250.6 224.1 202.5 193.8 189.8 189 188.7 188.1 187.8 185.8 186.7 187.2 187.6 187.5 187.2 187 187 186.7 186.5 186.2 186.1 186 188.8 194.7 194.7 194 193.4 192.8 188.7 190.5 195 195.7 197.2 198.7 201.9 205.5 209.8 214.4 224.9 238.1 262 276.1 289.3 307.5 319 329.3 338.8 346.8 352.2 361.4 364.1 365 366.1 367.7 370.1 370.2 367.4 362.9 360 360 359 356.6 355.4 352.9 351 350.3 346.7 342.7 333.7 319.8 302.5 288 270.3 247.1 264.4 290.4 312.1 322 329.6 336.3 341.2 345.4 349.5 355.7 360 363.7 367.9 371.1 374.6 378.5 383.6 388.3 392.7 396.2 399.3 402.2 405.1 407.8
414.9 412.4 409.4 408.4 405 401.9 400.5 399.1 397.5 396.3 393.7 390.7 387 383.6 379 375.6 372 368.1 360.4 346 330.2 318.9 309.7 303.3 295.8 288.9 281.3 281 278.1 276.3 275.5 264.5 268.3 265 259.5 256.4 253.9 251.5 249.5 248.9 249.5 254 265.1 274.9 284.3 299.4 297.1 278.2 250.6 237.6 234.4 231.9 230.5 229.7 228.7 228.7 227.8 226.2 225.4 224.3 222.4 222.4 221.4 220.9 220.5 219.7 219.7 221.9 232 244.6 258 267.6 276.7 283 273.3 265.6 242.6 227.1 222.9 220.3 217.4 215.9 215.1 213.8 211.4 209.6 208.8 207.5 206.2 202.7 202.5 203.3 206.4 207.5 211.8 219.6 224.4 245.6 252 255.9 255.2 248.5 241 216.4 202.8 197.7 191.4 190.4 188.9 187.9 187.5 186.6 186.6 186.2 186.9 187.4 186.9 186.8 186.5 186.2 186.1 185.8 185.5 185.2 184.9 185 186.3 188.1 192.7 191.8 188.1 188.2 192.8 193.3 193.6 194.4 197.4 201.8 205.3 209.9 220 230.5 249.7 267.6 281.8 293.4 311.8 325.7 336.4 346.9 350.2 354.7 358.1 359.9 361.5 364.2 368.2 370.1 369 366.8 363.5 363.6 361.3 358.5 358 356.4 353.7 351 347.2 341.1 333.2 318.1 298.4 282.6 264 243.2 265.3 291.6 311.4 321.3 328.4 334.9 339.5 342.8 347 352.1 356.3 360.6 364.1 366.9 371.3 376.4 382.4 387.7 392.4 395.9 399.1 402.3 405.6 407.4
407.3 406.1 403.7 401.4 399.5 396.7 392 389.9 387.1 384.1 381.6 378.8 374.5 371.1 369.4 364.5 358 351.6 334.7 322 312.3 302.7 296 289.6 284.3 282.4 282.5 288.2 292.2 289.7 283.5 275.8 265.2 262.9 259.1 255.3 254.4 252.7 252.2 252.5 256.9 268.1 280.9 293.8 311.5 315.5 309.2 288.4 259.8 240.9 236.4 235.6 232.4 231.3 231.2 230.3 229.2 227.8 226.3 224.7 223.5 223.3 222.8 222.2 223.7 226.4 229.8 240.4 256.8 270.9 286.5 296.3 295.7 290.8 283 271.9 244.4 232.8 226.5 222.2 219.2 217.4 215.8 213.6 212.9 212 211 210.6 207.4 206.3 204.7 201.6 200.7 200.5 202.3 207.4 210.9 216.2 222.8 224.8 229.4 230.8 219.4 208.8 202.3 197.5 196 191.5 190.1 188.3 190.1 187.5 186.6 186.6 185.5 186.5 186.5 186.4 186 185.7 185.6 185.7 185.2 185.1 184.8 184.1 183.8 183.7 183.9 185.1 187 186.7 190.4 191.9 191.6 192.5 195.3 197.8 200 204.9 213.2 221.3 231.3 249.9 270.9 287.4 298.1 312.5 327.1 334.9 341.9 341.6 341.3 348.1 357.4 363.7 368 370 369.5 368.5 366.8 363.2 363.6 359.9 358.2 356.3 353 348.3 342.9 336.5 326.7 310.5 291.9 278 259.3 241 267.9 293.6 311.5 320.4 325.7 329.8 333.2 336.4 339.1 343.8 346.9 354.8 356.2 361.4 367.6 373.8 380.6 386.7 391.1 395.1 399.2 402 404.8 405.6
400 398.9 397.3 396 393.9 391.2 387.5 380.8 377.4 373.6 371.6 369.9 365.8 363.4 355.8 349.8 342.2 330.1 318.9 308.5 299.4 291.9 286.4 290.3 291.9 295.8 301 309.2 310.3 305.1 296.4 285.6 273.2 266.8 264.4 263.2 258.4 255.8 255.6 258 268.9 281.6 295.3 313 324.6 312.5 302.9 286.6 265 246.4 240.4 240.3 234.5 233.7 232.7 231.8 230.8 232.1 232.1 230.2 228 228.9 229.6 232.5 237 241.9 251.3 268.8 283.8 296.5 307.9 311.2 303.6 296.6 287.1 266.6 249.9 239.1 229.3 222.6 219.7 217.9 216.4 216.7 216.7 215.1 213.7 212.5 211.2 210 209.6 208.5 207.4 203.5 199.3 199 202.2 205.6 212.4 207.2 206 206.4 203.6 201.7 197 195.7 192.7 190.6 192.5 193.6 192.6 189.6 186.6 186.5 185.5 185.9 186 185.8 185.8 185.3 185.8 185.5 184.9 184.9 184.7 184.3 184.1 183.9 183.6 184 184.3 184.9 188.2 189.8 190.2 190.7 192.6 194.6 195.7 197.7 204.5 210.6 219.3 230.2 246.1 260 275.9 291.8 300.5 309.4 313.5 314.8 318.9 330.9 350.5 361 366.7 368.2 369.1 367.1 365.1 362.6 360.7 359.7 355.4 352.1 347.5 343 336.6 328.5 313.3 293.5 278.7 270.3 253.1 244.4 272.1 296.3 308.7 316.1 319.9 321.5 318.1 316.2 315.9 319.5 328.3 340.2 350.1 356.5 362.9 371.1 378.8 384.6 389.9 394 397.8 400.5 401.9 401.5
399.2 392.4 391.7 391.2 388.3 385.6 380.7 376.6 371.6 368.7 363.5 362.9 358.5 353.4 345 337.5 323.7 316.8 308.4 299.7 291 294.5 300.6 305.2 311.9 320.6 328.1 333.1 332.2 325 314.8 304.7 285.2 271.7 268.5 265.7 262.7 258.4 262.1 271.4 283.1 294.6 309.2 319.3 313.7 302 289.2 274.1 258.8 248.5 245.4 244 235.1 234.9 235.8 236.7 242 245.9 243.9 242.3 242.6 241.5 247.6 253.1 257.7 264.4 274.8 291.4 305.5 316.3 321 316 308 301.3 288.5 269.2 253.6 241 230.1 224.3 220.8 218.4 220.3 221.6 222.1 221.6 218.1 216.7 215.6 213.4 213.3 212.6 210.6 209.6 206.2 202.7 199.3 197.7 196.7 197 195.6 196.8 195 194.3 193 192.2 192.5 194.9 195.9 195.1 193.9 193 192.5 186.4 185.9 185.2 185.2 185.1 185.2 185.1 185.4 185.3 184.8 184.7 184.6 184.3 184.1 183.8 183.6 183.7 184.1 183.7 185.8 187.1 188.1 188.6 190 191.1 190.4 191.7 196.4 200.8 208.6 217 225 237 247.6 260.3 272.1 281.3 286.6 291.8 300.8 311.8 333.4 355.7 360 362.3 368.8 365.6 361.6 358.5 356.4 356.3 353.9 349.7 344.6 338.1 329.1 310.8 292.2 275.9 265.3 259.2 246.4 247.3 273.9 292.1 300.6 304.2 301.6 298.4 297.5 295.9 300.1 310.1 320.6 331.9 343.1 356.7 365.7 373.4 379.6 384.3 389.5 393.5 396 397.4 396.8 394.7
400.5 395.3 391.7 384.1 384.3 380.5 375.6 371.8 368.3 360.3 355 351.7 348.9 342.2 334.6 325.4 314.3 308.1 300.6 289.9 299.5 308 315.6 325.3 339.8 349.8 354.4 359.9 353.8 346.1 338 328.1 298.9 283.7 277.2 270.6 265.2 263.4 270 280.3 291.6 306.2 312.6 312.7 302.9 283 274.6 264.7 256.3 251.4 249.7 242.2 238.5 241.4 246.2 252.8 261.2 267.4 267.4 261.8 262.5 263 266.8 270.3 278.2 283.9 298.2 311.6 321.7 323.5 320.6 315.5 308.1 300.1 285.6 268.8 251.8 238.2 228.8 224.6 221.1 223.6 227.2 236.2 238.8 238.2 234.7 223.1 222.5 227.3 227.7 224.1 224 216.5 209.9 206.2 203.6 201.7 199.3 201.6 201.4 198.8 197.4 197.7 197.1 197 197.6 197.2 196.6 196 195.5 194.4 193.5 193 186.7 185.9 184.8 183.1 185.3 184.8 184.5 184.5 184.8 184.8 184.6 184.3 184 183.8 183.5 183.7 183.9 184.1 184.3 185.9 186.4 186.4 187.3 186.9 187 187.4 190.2 193.5 198.6 205.6 213.8 221.3 229.4 239.4 249.2 259.8 266.9 275.3 291 307.9 334.4 355.5 357.1 358.3 361 364.3 362.4 357.8 353.9 351.9 350.8 348.7 345 340.4 330.4 317.8 298.4 274.1 255.2 247 235.9 247.2 269 282.1 282 281.4 279.5 278.9 277 296.2 314.5 330.3 341.9 351.9 358.6 365.2 370.7 377 381.6 385.7 389.3 392.3 393.1 391.4 388.9 386.1
407.1 400.4 393 384.6 381.1 377.2 371.2 368.3 362.4 355.8 353.2 342.9 339.2 336.1 319.4 315.4 305.3 296.3 297.5 301 312.9 324.5 337.7 355.1 368.7 371 373.9 377.2 371 369 364.1 338.6 311.7 295.7 287.9 275.4 269.2 271.1 279 288.4 302.4 309.7 309.9 295.8 286.2 274.6 267.2 261.9 257.1 252.6 244.8 239 245.6 246.5 255.2 265.4 276.2 284.4 283.7 279.8 281.4 280.5 280.1 284 293 306 317.3 323.2 324.5 321.7 317.7 311.6 303.8 293.7 280 264.8 247.3 232.8 228 223.6 227.9 238.5 250.2 258.6 261.9 265.2 247.8 240.6 243.3 245.7 244.5 245 242.8 225.2 212.7 208.7 206.7 202.5 201.1 203.4 202.4 205.5 200.1 199.3 199.1 198.4 198.3 198.1 198.6 200.2 199.2 198.4 198.6 197.5 194.9 192.8 185.5 184.7 185 184.3 184.1 184.1 183.9 183.8 184.6 184.1 183.9 183.7 183.5 183.2 183.4 183.5 182.5 184.1 183.9 184.6 184.7 184.3 183.8 184.2 185.8 187.9 190.6 195.9 202.8 211 217.8 225.2 234.2 242.4 248.1 266.1 290.6 319.6 342.6 350.7 349.7 350.8 355.5 360 361.8 358.6 354.6 353.9 354.5 353.4 349.1 344.3 340.5 328.8 307 278.8 257.2 245.2 235.5 237 247.6 253.9 262.7 264.6 260.1 278.3 298.2 315.2 333.6 343.8 351.2 359.1 364.9 369.8 375 380 383.4 386.9 389 388.8 386.6 383.8 380.8 375.5
408.6 400.2 398.2 389.8 385.4 380.2 378.5 374.7 371 367 355.2 344.6 335.1 330.2 318.3 310.4 292.4 301.5 304.5 316.3 330.7 345.8 362.5 376.2 379.8 378 380.9 380.5 377.6 376.1 372.7 348.4 326.4 308.9 300.1 287.6 278.4 283.1 281.7 291.8 305.5 306.1 297 289.4 281.7 271.2 264.6 258.1 251.3 244.6 246.7 249.6 253.6 255.5 264.4 277.5 288.9 293.2 293.8 291.5 292 289.8 293.8 301.7 312.1 320.4 322.8 324.1 320.6 317.6 313.4 307.4 298.5 284.7 270 255.7 240 231.1 227.4 229.5 241.2 257.3 271.2 278.6 282.7 274.3 266.9 264.8 266.4 265.2 262.3 258.5 252.3 234 217.7 211.2 207.9 202.7 204.2 205.2 203.5 203.8 212.8 202 201 201.2 201.5 201.6 203.1 204.6 205.2 205 204.4 202.9 199.7 195.8 192.1 187.8 185.2 184 184.2 184.2 183.7 183.4 183.1 183.7 183.9 183.7 183.4 183.1 182.9 182.7 181.7 182 182.4 180.9 182.2 182.3 181.8 181.6 182.1 183.4 185.4 189 193.8 200.5 208.3 214.6 222.4 230.2 246.9 272.9 301.7 325.4 337 339.8 339.9 341.9 349.3 356.9 361.9 359.1 357.1 357.6 356.9 355.7 353.2 352.6 352 338.5 311.5 283.2 259.5 244.8 234.6 229.4 236.4 241 247.6 254.7 277.4 297.2 316.7 335.8 344.4 351.3 357.7 363.4 368.9 374.4 378.9 382.3 384.4 386.8 386.9 384.8 381.7 377.6 372.1 363.4
408.7 404.7 401.4 398 395.2 390.9 385 380.1 374 366.7 358.1 349.3 339.8 327.3 314.1 308.7 306 307.6 318.5 339.8 350.5 363.8 376.5 381 378.9 377.7 380.2 379.7 377.2 375.7 371.7 353.8 336.3 323 315.9 293.2 289.8 289.5 287.8 295 303.5 298.4 292.8 289.8 280 267 258.8 250.3 247.1 251.2 256.4 260.3 264.5 268.1 264.5 284.6 300 300.1 301.9 304.2 303 302.4 310.4 318.3 323.7 326.4 326.1 322.4 317.3 315.2 310.6 301.7 289.4 276.2 263.9 249.7 238.3 229.8 229.9 242.4 256.8 274.9 287.6 298.4 295.9 289.4 286.2 286.4 289 284.7 277.8 273.2 261.4 247.3 228.2 214.1 209.3 204.2 206.6 206.6 207 205.9 206.1 205.1 205.5 209.6 208.8 208.5 210.2 216.1 224.2 235.2 223.9 218 208.7 201.6 194.3 189.6 185.6 184.3 184.2 183.7 183.5 182.5 183.4 182.9 183.6 183.6 183.1 182.4 182.1 181.1 180.6 180.9 180.5 179.7 180.8 179.2 180.8 180.6 180.5 180.5 181.6 185.1 188.1 193.1 200.4 207.5 216.9 230 251.7 278.1 295.6 305.6 317 318.7 318.6 327.7 344.8 357 360.2 358.5 357.7 356.4 356.8 357.5 355.8 355.2 354.9 349 319.9 288.6 264 243.4 232 226.8 232 235.6 247.4 265.9 286.8 311.4 333 344.1 350.8 356.7 363.1 368.7 373.6 377.6 381.8 384.5 386.6 386.2 384.1 381.7 377.9 372.8 365.7 353.6
407.8 402.9 399.8 398.6 395.1 390.9 385.9 380.5 371.3 364.8 359.6 350.7 334.9 324.7 315.4 313.7 314.5 320.1 337.7 354.2 363.8 374 378 378.4 378.9 377.4 377.7 375.3 374.7 372.3 368.6 359.6 346.1 335 315.9 301.4 295.2 291.6 292.2 299.1 300.1 294.8 291.5 284.6 271.8 257.7 251.2 253.5 256 261.7 268.4 272.1 275.4 279.1 280.7 277.2 295.9 303.4 307.3 308.5 309.5 314.7 322.2 327.2 328.6 329.7 323.7 318.8 316 315.1 310.3 300 290.5 273.3 257.7 245.5 235.6 234.6 244.7 257.9 276.3 291.9 304.3 308.1 308.1 307.2 310.7 310.2 310.1 296.5 283 276 269 251.6 228.4 215.1 206.7 207.8 208.3 208.8 210.2 210.3 209.7 208.2 208.7 214.4 219.9 227.8 232.8 238.9 250 254 245.7 232.3 223.4 213.3 207.4 202.8 198.9 191.5 183.9 183.4 183.5 183.4 182.9 183.4 182.1 183 182.4 182.1 181.6 181.4 180.9 180.9 180.6 180.6 180.2 179.1 178.7 179.8 179.1 179 178.3 178.2 185.5 189.7 194.5 201.1 213 227.6 246.2 265.2 278.3 284.9 287.1 294.3 302.4 316.4 340.8 350.1 352.7 354.8 354.9 354.5 355.3 357 358.8 360.9 363.7 356.5 327.5 292.7 268.2 246.1 232.8 224.6 227.2 230.3 237.5 256.5 289.2 312.2 337.2 349.4 355.7 361.5 367.7 373.2 376.5 380.4 384.3 386.5 387.1 384.9 382.2 379.7 376 371 363.7 354.2
402.4 397.2 395.7 391.8 389.4 387.7 382.9 377.2 369.7 365.7 357.4 345.9 336.6 326.4 323.1 319.1 327.6 333.6 348 360.8 369.7 373.3 375.4 374.8 374 372.3 370.7 369.5 368.2 365.6 359.9 352.6 338.9 325.8 312 301.2 294.9 292.1 296.9 301.7 298.5 292.8 286.8 278 266.8 255.2 251.9 260.2 263.9 269.4 274.9 281.7 285.7 288.8 290.5 289.6 287.8 298.4 301.8 303 307.4 318.2 328.2 331.5 334 328.3 323.1 318.3 315.3 310.2 305.6 293.2 278.5 263.3 250.2 240.3 236.6 245.3 259.2 275.7 294.1 311.2 318 321.7 324.3 321.8 321.7 318.9 309.8 296.9 278.4 270.2 260 240.5 222.8 212.5 209.8 211.4 211.7 212 213.4 213.8 214 214.4 220.1 230.6 237.3 244.1 249.6 262.4 269.6 270.5 265.6 250 240.8 234.8 230.4 228.1 224.7 214.3 201.1 195.2 190.4 182.9 183.1 183 182.7 182 181.7 181.7 181.6 181.7 181.2 181.2 180.4 180.8 180.5 179.1 179.6 179.6 179.3 177.5 177.6 177.8 178.2 184.1 188.9 191.8 205.5 222.2 232.8 251.3 264 266.3 271.3 275.7 293.7 313.6 333.3 343.3 348.4 348.2 348.5 350.9 353.6 358.3 363.9 368.3 369.3 361.7 331.3 297 271.7 247.5 233.1 227 222.5 224.9 228.6 240.1 262.1 289.7 321.3 348.5 358.5 366 371.9 377.3 381 384.5 386.7 387.4 386.5 383.8 381.3 378.4 374.5 370.7 363.6 355.5
390.9 391 387.9 385.7 386.5 385.1 380.2 375.3 371.9 363.4 354.3 343.6 334.3 328.1 326 327.3 335.4 338.7 350.8 361.4 365.8 367.4 368 367.5 366.8 366.1 364.1 361.7 358.2 352.7 344.6 335.1 322.1 310.7 304.6 297.1 294.6 298.6 302.7 304.5 299.5 286.8 280.6 273.2 264.5 255.7 255 263 269 276.8 286.9 294.9 299.4 301.1 301.5 300.7 300.7 301.1 299.4 298.1 301.3 313.1 326.1 333.1 330.3 326.4 321.3 317.4 312.7 304.4 292.7 280.9 265.9 254 244 237.3 244.7 251.3 275.5 293.5 313.1 325.4 331.9 331.1 327.7 325.5 320.7 314.5 299.1 282.5 273.9 264.6 248 230 218 209.3 214.3 214.7 218.3 217.2 217.9 219.2 221.5 225 236.4 244.5 251.6 259.9 270.8 279.8 284.2 284.3 277.1 265.2 264.8 263.3 262.8 260.5 254.4 250.3 237.1 219.2 205.3 204.9 203.1 199 191.5 182.6 181.9 182 181.6 181.6 181.3 181 180.6 180.7 180.3 179.2 178.6 179.1 179 177.7 178 177.8 178.5 177.7 180.5 186.5 190.8 204.9 219.7 230 241.9 251.3 253.5 267.7 286.6 313.9 325 330.1 333.5 336.9 339.5 349.2 356.5 362.3 368.6 372.5 371.6 363.6 335.8 299.5 272.7 249 234.5 224.4 220 219.1 221.5 227.8 242.1 267.3 301.3 322.1 348.7 365.8 371.6 378 383.5 385.3 388.1 388.9 386.5 382.7 380.6 377.7 375 371.3 365.8 358
384.5 382.1 382.5 382 378.5 376.9 377.9 373.9 366.4 358.9 350.3 340.9 332.7 329.3 326.8 331.1 338.7 340.6 347.8 354 356.3 358.6 359.7 360.5 360.3 359.1 356.9 352 344.9 337.5 328.3 319.6 309 303.8 299.9 298.1 300.1 305.3 305.7 305.3 297.9 284.3 277.8 272 263.5 258.1 262.8 269.7 278.1 290.3 301.6 309.3 313.1 312.3 311.2 311.2 310.4 308 305 300.3 299.8 305.6 321.8 326.9 328 326.8 320.4 312.8 305.5 291 276.8 265.6 257.1 247.5 240.1 245.6 254 272 290.4 310.1 326.9 337.1 337.3 333.3 328.7 322.3 310.9 296.1 285.4 277.7 268.7 255.1 236.2 223.9 214.7 214.1 218.8 229.7 237 232.8 228.3 225.3 230.4 238.5 251.6 258.4 266.2 276.3 286.6 293.1 295.4 293.3 287 284.6 285.6 287.8 290.1 294.4 291.2 283.6 267.1 241.1 233.5 229.2 223.3 217.3 212.1 203.1 196.7 188.5 182 181.9 181.8 181.4 181 180.9 179.4 179.1 178.9 178.5 178.4 178.4 178.4 178.2 177.7 177.9 177 181.9 187.8 193.7 207.1 216.6 225.3 232.9 244.4 262.8 287.3 302.6 310.7 314.6 318.8 329.2 338.6 349.6 357.5 362.8 367.7 370 368.6 363.1 335 302 274.6 251.9 236 225.6 219.8 216.6 216.4 220.1 228.1 247.4 275.3 301.5 323.9 349.2 371 373.9 378 382 383.3 383.4 381.8 378.5 378.2 377.3 374.9 371.5 366.2 360.1
372 374.3 373.9 372.2 370.2 372.2 373 367.5 359.1 351.6 344.6 337.2 332.4 331 331.3 330.5 333.3 332.4 337.9 343.4 347.3 350.9 353.4 354.6 355.8 354.1 350.1 344.3 336.4 326.7 320.3 313.6 306.2 301.8 299.1 303.4 307.4 306.6 303.1 300.2 291.5 284.7 277.1 269.5 263.8 261.4 270.4 279.1 291.1 305.8 317.9 325.2 323.4 319.1 320.5 320.1 317.4 314.3 311.1 304.2 301.9 307 318 325.7 326.9 325.1 315.8 308.3 294.9 282.4 271.3 261.9 252 245 246.7 258.2 273.3 289.4 306.8 325.7 334.2 338.4 337.8 329.7 322.7 308.9 296.9 288.1 280.5 272 260.1 243.3 230.1 219 214.1 221.6 233.5 245 248.2 241.8 241.5 237.5 237.1 247.9 262.7 269.5 279.1 290.5 299.6 302.8 304.4 304.7 304.1 301.6 302.9 304.9 312.9 318.6 318.3 302.8 282.3 265.7 252.7 247.5 244.8 236.8 232.1 227.1 220.9 212 199.4 196.4 186.2 182.5 181.3 181 180.8 180.6 180.4 180.3 178.1 179.1 178.7 178.1 177.5 177.6 177.6 177.2 181.1 185.5 195.3 204.7 213.7 223.8 241 260.6 278.1 287.3 294.7 301.4 309.4 323.7 337.1 347.7 354.8 360.6 365.8 366.4 361.7 352 326.7 306.2 282 254.6 237.3 228.4 220.8 217.2 214 215.1 219.3 230.3 250.9 272.6 295.6 318.5 341.7 358.5 365.7 367.5 366 366.3 367 369.2 371.3 373.3 373.4 370.4 366.3 361.2
359.3 365.1 363.2 363.4 364.1 365.2 361 354.9 350.6 344.5 336.8 330.1 326.4 327.8 328.3 325.9 327.4 328.7 330.7 336.5 340.9 344.5 348.1 352 352.8 352.9 350 341.2 335.2 325.6 319 313.6 307.3 302.4 303.8 313.3 309.6 300.7 299.4 296.8 288.2 283.6 276.6 274.4 270.6 269.5 280.7 292.7 309.1 323 333.3 337.2 333 328.4 328 326.3 324 321.4 316.7 310 306.5 312.8 320.9 326 327 324.2 315.6 306.5 289.4 278.8 269.2 256.2 247.2 250.6 254.9 271.6 289.2 309.1 324.9 333.6 338.2 341.4 327.1 316.6 307.7 298.6 290.2 282.9 272.4 259.5 249.2 235.7 224.2 216.3 221.7 235.6 251.6 259.9 257.8 254.5 250.5 245.4 240.1 249.5 259.7 274.1 288.1 302.1 312.2 315.6 315.5 323.1 320.4 319.1 319 326.6 332.4 333.8 332.2 316 304.3 296 282.4 264.6 258.3 262.7 263.9 257.2 247.8 240.6 235 223.8 216 208.2 201.6 188.7 180.7 180.6 180.4 180.1 179.7 178.5 177.6 177.9 177.5 177.4 177.1 176.4 176.1 179.8 190.2 198.3 206.6 216.9 229 246 257.9 266.6 274.4 281.1 300.8 317 327.6 337.7 344.8 351.1 354 354.6 350.2 340.2 320.8 302.1 280.9 271.4 252.9 233.2 225.5 221.8 212.3 211.5 213 219.1 231.2 244.4 264.6 286.7 308.8 328.2 336 339.8 343 345.4 349 360 362.2 364.5 366.9 366.7 365.3 362.4
351.2 350.7 352.2 350.8 353.6 350.4 346.8 340.6 335.7 330.9 327.9 324.1 321.6 322.4 324.4 321.8 319.9 321.6 325.9 331.1 333.6 339.2 346.1 351.4 355.7 357.8 350.2 346 341.2 336.4 328.2 315.8 308.2 307.4 310.5 311.9 306 300.2 300.2 297.4 288.9 283.2 279.9 278.9 269.5 280 293.7 307.7 323.4 334.5 343.3 344.6 341 336.9 334 332 329.8 327.3 323.7 319.2 316.4 322.6 326.1 326.8 325.5 321.5 312 298.9 286.9 278.1 259.2 255.1 258.5 258.2 265.9 285.8 305 322.6 332.1 338.4 330.7 320.1 310.7 304.1 296.8 288.2 280.7 272.8 260.7 248.1 238.6 229.5 221.2 218.8 231.5 250.7 266.7 267.1 266.5 264.6 261.8 253.6 249.4 254.5 260 269.4 280.9 297.8 311.3 322 329.4 332.1 331.4 331.4 336.9 339.6 342.6 346.3 341.2 334.6 331.1 325.9 315.8 302.4 304.8 303.7 298.4 293.2 287.6 275.4 265 257.1 248.7 238.5 227 215.5 202.8 187 180.2 180 179.6 178.9 178.2 177.7 177.7 177.4 177.1 176.4 175.9 175.6 182.7 190.5 199.3 209.2 218.7 228 236.8 243.5 264.1 288.8 306.1 318.4 330 337.7 343.6 348 346.5 344.4 339.6 331.1 319.2 305.7 291.1 275.3 257.8 239.8 228.8 221.3 214.2 209.8 209.4 211.9 217.9 228.1 241.5 260.8 281.5 306 322 325.4 329.4 333.1 338.9 352.5 353.3 353.5 355.5 357.5 359.3 359.8
347.2 339 340.4 340 339.9 336.6 331.2 328 326.2 324.6 322.9 321.4 318.9 317.8 316.9 317.2 316.8 318 320.8 326 331.5 338.4 346.8 352.9 357.8 356.7 352.6 350.7 351.8 348.4 330.7 320.9 316.8 313.7 310.4 306.4 304.7 305.7 301.4 297.7 288.9 285.2 288.4 278.4 276.3 291.3 306.9 319.9 331.2 342 350.4 350.2 346.7 342 339.5 338 336.9 338.3 339.5 336.4 329.7 328 327.4 328.1 326.8 320.3 306.8 294.7 286.2 275.8 257.5 269.4 269.1 266.7 282.1 300.6 318.3 329.4 329 314.9 304.9 298.9 294.2 288.3 282.3 275.5 266.8 257 244.7 237.1 230.8 224.9 222.5 221.7 243.9 264.6 274.4 278.1 278.4 276.3 271.6 264.8 258.8 262.7 268.2 273.9 280.5 292.8 311.1 326 337.2 338.6 338.8 345.3 348.2 349.2 353.7 353.1 351.8 347.2 343.6 340.9 336.9 332.3 334.4 332 325.1 325.3 319.6 308.7 294.7 283 271.8 260.4 248.6 234.3 218 204.7 192.9 180 179.8 179.6 178.8 178.7 178.2 177.7 177 176.4 176.1 175 175.1 185.8 193.9 201.7 213.6 222.1 241.1 257.9 272.7 296.7 314 323 331.9 339.2 343.9 345.3 344.3 341.7 336.8 331.3 322.1 310.9 299.8 284.2 265.4 250.5 234.4 224.2 217.3 212.5 205.8 207 210.2 215.7 225.7 238.6 258 279.9 306.7 318.3 318.4 317.9 327.9 347.5 347.7 347.2 347.4 350.9 356.1 358.9
336.7 332.3 331.7 329.1 326 322.7 320.5 319.3 318.7 317.8 322.1 321.3 316.5 314.4 313.2 313.4 314.4 314.6 315.8 323.1 329.9 338.7 347.2 354.3 358.3 355.6 356.6 358.6 359 350.4 335.5 328 322.8 315.3 308.2 306.2 310.2 306.8 301.1 296.6 296 293.3 297.2 279.4 284.9 300.5 314.2 326.1 337 346.7 351.5 354.5 352.6 346.9 344.5 345.4 351.7 354.6 353 344.1 335.2 330.1 328.5 327 325.4 319.3 304.6 295 285.7 262.6 276.7 275.6 272.6 282 298.2 316.6 329.5 320.4 304.9 293.9 289.5 281.7 276 271.4 264.8 257.6 249.1 240.2 233.5 229.3 228.7 227.1 226.8 229.5 256.3 273.2 284.2 286.1 287 285.9 279.5 277.6 274.7 273.5 278.5 285 289.7 301.5 320 333.3 342 342.5 347.8 356.1 355.9 360.4 360.3 360.4 358.7 356.9 355.1 352.1 347.3 343.1 342 340.2 338.5 334.8 329.6 322.3 308.6 296.6 283.9 272.6 260.4 248.9 233.8 218 202.3 190.4 179.9 179.8 179.4 178.8 178.3 177.7 177.2 176.8 176.4 176.4 174.9 176.3 186.2 204.4 217.3 233.8 252.5 271 286.9 299.7 311.3 322.2 332.1 337.4 339.3 340.2 338.6 336.1 332.7 328.5 321.9 310.4 301.3 294.4 282.6 264.8 248.3 230.9 220.4 213.5 208.8 203.2 204.6 207.5 214.3 224.4 235.9 255.9 281.8 305.2 305 304.2 316 334.2 341.7 343.5 343.1 347 355.3 364.2
330.6 328.5 322.5 317.8 313.7 312.2 310.2 309.6 309.7 307.6 314.2 313 308.6 306.7 310.2 307.7 310.5 310.4 312.4 320 327 337 343.5 350 355.8 359.9 363.9 363.7 360.7 354.2 341.4 334.3 323.5 314.1 310.5 313.3 313.9 307.7 304 306.3 306.4 307.1 303.8 288.3 289.5 303.3 317.8 327.8 340.4 349.8 358.9 357.9 354.8 350.9 352.2 359.7 364.7 365 358.7 350.9 339.9 332 327.6 324 320.9 316.1 309.1 295.7 269.8 286.2 283.2 280.5 286.4 299.5 316.2 330.5 320.7 305.3 292.3 283 273.7 265.3 258.7 252.2 244.2 239.5 242.8 241.3 239.7 236 233.1 232.3 233.4 227.6 251.7 270.6 279.9 284.3 288.5 289.5 290.8 298.8 296.9 294.8 296.6 301.3 308.6 319 331 340.3 345.8 353.3 359.3 359.8 361.8 362.6 361.6 361.9 364.5 363.6 361.4 357.3 352.4 348.7 347.1 345.6 343.2 338.4 332.8 325.9 315.9 305 293.1 282.1 270.7 258 244.9 228.9 210.9 195.8 191.4 179.9 179.1 178.6 178.1 177.7 177.3 176.9 176.2 175.9 175.8 176.1 173.9 191.2 208 229.3 250.6 263.3 281.3 301.5 311 316.3 319.9 324.3 333.5 334.2 335 332.9 328.1 322.1 314.2 306.2 300.2 297.4 294.4 278.4 259 236.1 223.8 216.1 211.4 205.1 200.9 202.2 206.3 213.5 222.7 234.5 257.2 288.5 293.5 292.4 304.1 317 319.1 319.9 326.7 344.9 349.8 351.7
323.5 321.4 317.8 325.6 322.4 322.9 323.2 322.7 321.5 318.7 307.5 307.8 303.7 300.4 298.5 299 298.8 307.7 307.3 316.6 324 333.1 338.7 349.8 359.1 365.1 366.5 365.2 362.2 359.4 346.1 336.3 324.1 318 317.8 317 313.8 312.9 314.4 317.7 318.5 316.7 314.5 305.3 284.7 300.8 314.9 325.7 339.2 348.7 355.7 357.3 357.9 359 367.9 372.7 373.8 370.6 361.8 354.9 342 333.7 328.3 324.5 318.8 312.2 303.5 294.3 293.1 291.9 290.4 294 304 319.1 330.1 329.3 307.6 292.9 280.3 269.2 261.4 255.2 249.9 252.7 252.3 251.8 251.7 251.2 249.1 245.5 242.3 240.5 242.9 236.5 234.8 257.1 268.1 271 276.5 282.6 297.9 305.5 310.7 312.7 314.8 317.9 326.6 334.4 338.1 344 350.8 356.8 359.8 360.4 361.3 363.6 362.8 361.8 363.5 363.2 362.2 359.5 354.8 352.3 349.9 347.9 344.9 339.4 334.1 326.3 317.6 307.6 299 289 276.8 265.4 252.5 236.5 217.1 201.3 191.6 182.5 178.9 178.4 178 177.6 177 176.4 176.4 176.2 176 175.6 175.4 177.1 194.1 212.3 230.9 245.3 264.4 288.7 300.2 307.8 312.5 314.7 315.2 314.6 317.3 320.3 317.3 314.7 311 305.9 300.7 297.6 291 278.8 262.7 241.5 228.5 218.7 213.2 208.2 200.4 200 200.2 204.4 212 220.1 235.5 265.9 284.5 281.3 287.5 297 298 296.5 314.7 329.6 334.7 336.6
328.3 327.7 330.2 329.4 328.7 331.5 331.2 329.2 326.1 323.5 319.8 316.4 312.7 312.9 309.8 298.6 292.5 295.4 304 313.3 321.6 329.9 339.7 351.5 359.5 366 367.4 366.4 362.5 357.8 344.3 337 327.4 324.7 328.2 320 321.2 323 324.3 326.8 325.8 325.3 322.5 312.1 294.3 300.2 314.5 323.6 332.4 344.7 352.8 360.5 364.2 373.7 380.3 381.4 381 372.8 364.3 356.5 345 335.9 330.9 327.8 326.7 316.7 300 302.3 300.5 299.7 302.9 311 325.6 333.1 332.3 306.5 291.7 279.8 266.7 266.3 265.9 265.3 265 265.6 266.4 265.2 265.1 265.7 265.8 265.6 261.2 256.7 254.9 250.6 240.9 236.1 252.9 260.1 270.6 290.1 307 315.8 318.7 321.6 324.2 333.4 340.3 342 342.9 346.5 353 355.3 357.1 358.6 358.5 358.8 357.1 356.2 357.5 358.9 358.5 357.7 355.3 353.7 350.5 347.2 344.4 338.7 332.8 325.2 317.3 308 299.4 287.1 277.8 268.8 255.2 241.2 223.8 204.4 200.2 187 179 178.8 178.3 177.6 176.5 176.5 176.1 175.7 175.6 176 175.5 175.2 178.6 195 205.2 219.9 239.8 261.7 282 298.1 302.4 301.6 305.6 306.3 303.9 301.8 303 309.4 309.1 306.5 303.1 299.8 295.4 286.9 275.6 255 236.6 223.9 214.4 209 203.6 198.1 197.2 198.2 203.2 209.7 217.6 233.8 260.5 272.5 267.9 277 273.5 290.4 307 314.5 320 322.6
335.3 336.5 335.9 334.2 334.4 334.9 333.3 331.1 328.4 324.2 323.6 321.5 323.8 324.2 318.5 310.2 298.6 291.3 295 309.7 316.9 328.1 341.8 354.8 363.4 366.1 365.9 366.4 361.2 347.9 340.5 333.1 333.1 339 332.3 329 331.7 331.4 332.1 331.7 330.1 324.6 320.9 314.8 296.1 297.2 308.9 325.3 334.6 344.5 354.8 365.9 373.8 383.1 387.2 388.8 383.5 374.9 365.5 358.3 348.9 338.3 333.6 330.6 323.8 312.5 310.9 308.6 313.5 316 321.5 334.9 340.2 335.4 314.3 294.4 282.8 273.1 275.9 276.3 277.7 278.3 281.8 284.2 284.8 282.7 281.1 282.3 285.6 284.1 280.3 273.9 272.5 270.3 258 244 245.7 264.1 283.9 302.6 314.9 319.7 324 326.7 333.6 344.7 347.9 347.3 347.2 350.8 354.5 354.7 355.4 354.3 351.6 351.4 351.3 352 354.7 356.7 356.4 355.4 353.6 352.2 349.7 346.3 343 338.9 331.8 324.6 315.9 306.4 297 286.9 277.8 269 255.2 243.4 225.5 213.4 204 194.9 184 178.6 178.5 177.6 176.3 175.8 175.7 175.7 175.6 175.9 175.5 175.4 174.9 186.4 194.5 202.3 215.8 236.2 258 277.9 286.8 284.9 288.2 291.1 290.3 292.7 293.6 305.9 311.3 311.4 308.6 303.6 299 294.5 285.6 270.2 249.5 230.9 219 211.8 206.2 200.3 195.1 194.8 195.7 200.8 206.7 212.9 227.8 245.1 241.2 258.3 258.4 284.8 298.3 303.7 307.9 311.2
343.6 345 342.8 339.7 337.8 336.2 335.3 333.6 331.5 330.5 331.3 332.5 332.3 330.2 324.5 316.5 307.4 298 290.1 302.4 311.9 329.7 348 360.4 366.6 372.6 366.9 365.7 352.1 343.6 340.3 340.1 345.9 345 339.1 339 338.3 338.3 338.1 332.2 328.6 325.2 318.6 311.1 296 306.2 318.9 330 340.1 349.1 363.4 371.5 383.1 389 392 391 384.7 374.7 366.3 359.1 351.5 341.4 336.5 329.4 317.1 319.9 324.8 329.8 334.2 337.4 346.2 348.3 343.3 320.9 303 288.1 281.9 283.9 287.2 291.2 294.8 298.9 301.3 304.1 303.5 299.8 297.9 298.4 299.1 294.4 289.9 286.7 276 270.2 262.9 249.1 252.5 263.8 281.9 301.3 316.1 322.5 328.5 336.2 342.9 345.9 347.2 348.5 350.8 353.9 353.7 352.9 352.3 349.9 348.3 347.3 346.8 348.2 351.3 353.9 354.3 353.4 351.6 350.2 348 345.2 341.6 337.3 331.3 322.4 312.4 303 294.3 286.2 278.9 268.9 259.8 249.1 235.6 223.2 209.2 198.3 190.8 178.1 178 177.7 177 176.7 176.1 175.7 175.6 175.6 175.6 175.5 175.4 174.6 185.5 193.6 198.8 211.8 230.8 249.5 264.1 266.4 269.5 270.5 270.9 273.2 280.6 303.1 315.7 318.1 317 313.4 308.8 302.1 294.1 280.5 260.2 238.5 225.8 216.9 210.2 203.7 198.5 191.9 192.4 194 198.2 203.9 210.1 218.7 228.1 238.1 247.4 273.2 285.6 290.4 293.8 296.7
355.1 352.2 348.2 344.9 341.2 338.7 338.5 338.5 338 339 340.2 340.7 338.4 334.7 325.4 316.6 308 298.5 286.8 295.5 306.2 326.1 347.5 365.7 372 368.6 363.2 355.5 346.8 344.8 344.6 348.1 351.6 349.8 345.3 342.1 340.7 339.5 334.2 330.6 327.3 318.1 309.2 300 306.4 316.7 328.7 338.6 350 360.6 372.7 383 389.9 393 394.4 392.2 382.1 372.8 365.6 358.7 350.4 341.2 333.3 334.8 333.7 337.5 341.7 350.1 355.8 359 357.9 356.2 337 315.3 297.2 290.2 295.4 301.1 305.8 313.2 317.4 319.5 322.4 320.8 317.2 315.2 313.8 311.5 309.7 304.9 297.7 288.3 274.3 268.2 262.7 250 262.3 278.2 285.6 304.1 319.6 326.2 334.4 342 347.8 349.4 349 350.5 351.9 352.6 351.2 350.4 349.2 345.6 344.3 342.9 343.1 344.1 345.7 348.2 349.3 349.6 348.6 347.6 345.7 343.6 340.3 335.9 331 323.9 316.2 308.5 301.6 294.4 287.4 280.4 273.5 261 249.2 234.1 217.6 201.9 193.6 178.6 177.6 177.5 176.9 176.4 176.4 176 175.8 175.3 175.3 175.2 175.2 174.7 172.7 176.9 190.5 195.4 206.7 220.6 235 244.6 252 256 257.6 262.3 273.3 301.1 316.5 319 319.3 317.8 315.2 311.9 305.8 292.5 270.8 248.8 234 223.7 215.3 207.9 201.9 196.5 191.9 189.8 191.9 195.6 201.4 207.4 211.5 218.1 232.4 248 263.4 274.5 278.9 281.1
361.2 357.2 354.9 350.6 347.4 346.9 347.8 346.6 346.1 347.4 350.4 348.3 344 336.4 329.6 325.3 315.6 305.1 296.7 285.7 299 316.1 341.5 361.2 367.3 364.1 353.4 343.2 342.9 342.1 344.9 349.6 349.9 347.8 342.4 340.1 336.1 331.4 327.9 326.5 320 308.9 304.4 312.3 319.1 328.3 341.7 354.2 366.6 375.4 383.8 389.4 394.3 395.6 396.2 395.1 381.4 372 364.9 356.3 348.4 343.2 346.4 349.9 351 358.1 359.8 368.3 371.2 370.5 368.9 357.2 331.7 310.2 297.8 306.2 314.7 320.6 329 335.5 338.4 339.1 340 339.1 336 330.3 327.1 323.8 317.8 309.9 303.6 289.6 277.9 273.5 260.3 267.5 276.6 287.7 297.7 314.1 323.3 332 339.9 350.6 354.1 352.5 350.4 350.1 350.1 349.2 346.2 346.3 341.4 340.5 340.8 339.4 338.6 339.4 340.2 342 343.5 345 345.3 344.7 343.2 341.5 338.1 334.4 329.4 323.8 316.9 309.7 303.5 298.1 292 286.4 279.8 270.9 258.9 245.3 227.5 210.4 198.6 189.1 178.8 177.9 177.3 176.2 176.2 176.5 175.6 175.9 174.9 174.8 174.9 174.7 173.9 174.4 174.7 186.8 192.6 200.9 211.5 224.2 234.4 240.3 243.8 251.4 270.7 300.6 318.7 319.4 318.5 317.8 317.9 316.9 312.4 302.6 286.7 263 243.6 230.8 221.3 213.5 206.4 200 194.3 189.8 188.6 189.6 193.8 198.2 202.6 205.9 210.6 220.6 233 242.8 248.6 251.8
364.2 361.4 360 357.7 358.3 357.7 354.6 354.8 356.4 360.1 360.4 355 346.3 342.2 337 330.1 318.7 307.7 300.1 285.6 284.9 304.8 329.2 349.6 355.6 349.8 336.6 336.4 338.3 341.3 347.6 345.1 346.3 342 337.8 333.1 328 324.7 323.1 317.1 309.8 312.1 319.8 330.6 336.2 345.6 358.2 373.4 378.8 385.7 390.5 395.1 396.2 397.1 396.6 389.8 380.9 372.3 363.6 360.8 357 351.1 361 360.9 365.5 372.2 375.7 378.8 380.4 377.7 371.7 353.2 326.6 303.9 313.6 325.9 336.5 343 350.3 353.5 355.3 354.5 355.1 354 350.9 344 336.8 330.9 322 314.8 307.7 291.9 276.1 266.3 272.3 286.3 288.4 295.5 308.7 324.9 334.2 339.7 349.6 354.7 355.1 351.8 349.1 347.5 345.7 341.1 337.7 335.1 333.3 333.6 335 336.8 336.3 334.8 335.2 336.4 338.2 340.1 340.7 340.5 339.6 337.6 335.1 331.4 327 322.2 316.6 309.9 304.7 299.9 295.1 289.7 283.9 275.9 266.8 253.3 238 222.2 206.8 193.7 183.8 180.3 178.3 175.8 175.5 175.4 175.4 175.8 175.7 174.7 174.8 174.5 174 173.3 173.8 173.9 175.4 186.3 193.8 206 218.2 223.3 232.5 243.1 271.4 299.2 315.7 318.8 319 320.7 322.6 322.9 317.9 309.7 297.3 280.1 261.4 245.2 232.5 220.3 211.9 205.3 198.8 193 188 186 187.4 190.8 193.8 195.3 195.8 200.3 206 208.7 214.4 216.8
367.9 366.1 365.1 367 367.2 364.1 366.2 369.7 372.5 371.6 366.8 358.1 353.3 348.9 339.8 332.6 318.8 309.9 302.8 291.1 282 294.7 317 335 336.4 328.9 330 331.2 335.1 341.8 343.4 340.9 340 334.2 331 326.5 324.3 322.2 322.1 318.4 320.9 325.4 335.8 345.5 355 365.5 375.5 381.6 389 394.9 396.2 396.9 397.5 399.1 395.8 390.2 381.2 371.5 369.1 371 361.7 362.8 370.4 370.7 377.8 382.1 383.4 384.5 383.1 379.9 367.1 346.9 322.6 319.5 330.5 346 358.2 364.2 365.6 365.7 365.3 365.2 364.6 363.4 358.8 351.6 344.2 334.7 327.3 321.1 314.8 298.2 277 273.5 287.2 295.2 299.7 307.5 321.6 334.2 342.7 347.5 353.8 354.8 353.4 351.5 349.5 346.4 339 335.6 332.1 328.7 326 326.5 327.8 329.4 332 331.5 329.6 329.3 330.3 332 333.8 334.7 333.5 331.4 329.5 326 322.5 317.4 314.1 310.1 305.8 301 295.6 290.1 284.2 276.7 268.4 256.5 241.8 228.2 214.4 202.5 188.9 184 178.6 175.6 175.4 175.2 175.1 175.2 175.3 174.6 174.5 174.1 173.8 173.7 173.1 172.8 172.7 174.7 185.4 192.5 203.4 212.6 223.3 236.3 260.3 287.1 306.6 316.1 319.7 323 328.4 329.8 325.5 314.2 304 292.9 279.6 266.6 252.4 235.4 222.6 212.6 205.2 198.8 193 188.4 183.7 185 187 187.3 186.4 187.4 188.9 190.2 191.2 191.9
372.3 372.7 372 372.4 371.5 373.5 377.9 380.7 380.2 377.2 372.1 364.5 360.5 351 340.4 331.8 317.7 308.5 302.5 295.4 291.3 282.9 307.2 326 320 321.2 322.2 327.5 333.3 338.8 338.2 335.9 334.1 334.1 332.1 327.3 326.8 330.3 331.4 327.6 331.5 338.5 345.2 356.7 369.5 378.7 383.3 388.5 395.5 397 396.8 397.1 400.5 400.1 396 388.2 380.7 379.2 377.5 373.9 372.5 368.1 377 378.6 383.1 386.1 388.9 387.2 384.3 374.7 361.9 339.5 319 333.4 347.5 363.8 373.2 375.2 373.9 373.5 372.6 372.5 371.8 368.7 362.8 356 348 339.6 333.2 327.5 319.4 303.6 277.1 293.5 299.6 306.9 316.5 328.1 334.5 342 350.7 354.5 356.5 356.7 355.8 354.6 352.7 349.3 345 341 334.2 332.7 329.5 326.6 320.2 321.4 323 324.7 322.7 321 321.1 319.7 318.9 320.7 319.4 320.7 318.9 316.9 314.2 311.3 308.1 304.1 302.4 298.5 293.8 288.2 281.6 273.8 264.6 253 240.6 226.8 209.9 205.9 198.9 186.7 179.7 176.5 175.2 175 174.9 174.9 174.5 174.4 174.5 174.3 173.7 173.4 172.8 173.1 173.1 172.1 171.8 184.1 193.8 204.9 215.7 230.1 246.5 270.3 299.6 318 320.2 327.8 335.6 333.5 327.2 315.3 307.8 299.6 294.6 287.1 274.6 259.1 243.9 229.7 216.7 207.2 199.8 193.4 188 182.3 180.7 181.5 180.3 180.1 180 181 181.8 182.5
375.7 373.3 372.7 374.7 377.7 381.2 383.4 384.2 385.5 379.6 374.8 370.1 360.1 349.1 334.9 330.7 322.2 309.4 301.5 297.1 295.8 282.4 297.3 305.1 305.4 307 312.2 320.9 329.6 331.8 334.3 335.1 336.6 335.8 332 334.5 335.8 337.1 340 341.4 347.7 351.1 356.1 366.9 378.6 384.7 389.5 394.5 398.8 397.7 396.4 399.9 401.5 395.3 388.6 383.9 383 381.9 378.6 376.1 375 374.1 378.7 383.4 387 390.3 390.6 389 381 370.2 352.3 331.5 339.7 348.1 363.4 377.7 380.8 382.9 381.7 379.6 378.2 377.7 375.4 371.7 365.9 359.9 352.3 345.2 338.9 327.7 307.6 297.4 307.3 311.9 317.4 328.4 334.9 339.5 346.3 353.3 358.2 360.4 360.9 361.6 361.1 359.6 357.3 354.8 350.4 345.2 342.1 337.9 333.8 330.3 325.2 318.4 315.7 316.3 314.6 311.8 310.3 306.8 304.3 304 302.9 307.4 308.5 305.2 302.1 301.9 301.1 299.8 297.1 294.2 289.7 284.5 278.1 270.2 260.4 250.8 240.3 237 232.3 225.1 210.8 199.8 192.9 181.4 175.9 174.8 174.7 174.7 174.5 174.4 174.2 173.8 173.3 173.4 173.4 172.9 172.8 172.7 169.7 175.1 186.6 197.9 217.5 238.8 261.3 280.9 305.5 317.9 322.6 332.5 331.4 327.9 320.2 311.9 307.3 305.9 303.2 299.5 293.4 283.1 268.6 253.6 236.5 223.6 212.9 203.1 197.3 192.3 187 179.9 177.6 177.1 176.2 175.3 175.1 176.5
371.7 371.9 372.9 377.1 380.3 383.7 385.7 387.3 386.6 380 373.9 365.6 353.8 351.8 349.4 344.1 330.5 314.2 300.1 295 294.7 287.4 281.2 290.9 291.2 295.8 308.7 316 323.7 326 332 333 335.2 336.3 339.1 340.7 341.3 345.9 354.1 359.1 366.9 364 367.8 378.3 384.2 389.9 394.4 396.7 399.5 398.3 397.6 399 393.4 390.4 388.3 386.1 382.3 379.2 378.8 377 375.9 375.1 377 385.4 390.1 392.7 392.9 387 380.4 368.8 350.4 352.2 359.7 368.7 379.5 384.2 387.9 388.5 387 384.8 383.6 381.4 378.2 374.6 369.2 362.8 355.6 348.5 341.8 332.9 313.2 326.7 328 331.9 336.9 344 348.6 354.8 360.6 364.2 364.2 365.2 366.5 366.7 366.3 365.5 363.8 361 356.1 352.3 348.3 342.3 339 334.5 330.3 326.4 319.6 306.3 304.2 298.3 297.3 296 294.3 292.7 291.9 293.7 296.6 295.9 294.8 294.6 294.7 293.3 291.7 289 284.4 280.2 275 267.8 262.1 255.7 251.1 254.2 257.2 248.6 237.2 223.5 208.7 196.5 186.3 175 174.4 174.4 174.3 174.1 173.8 173.5 173.4 173.1 172.8 172.5 172.3 171.8 172 172.4 176.7 183.7 199.8 223.4 253.2 273.8 286.2 303.7 321.1 326.7 329.1 327.7 319 313.3 312.7 311.9 308.7 305.1 301.3 294.3 287.5 276.1 261.1 248.9 236.8 226.5 218.3 212.1 204.9 197.4 190.1 183.3 178.7 173.7 172.6 171.8
370.2 371.2 373.6 377.1 380 382.8 385.2 386.5 381.7 377 367.4 363.3 362.8 358.4 353.9 347.2 330.9 314.9 302.9 297.1 291.6 288.3 272.9 275.7 282.1 294.5 305.5 310.1 314.5 319.4 323.7 328.1 334 340.1 345.1 346.3 351.5 359 366.2 373.3 379 380.4 382.9 387 387.1 393.3 396.7 399 400.8 399.6 397.2 394.3 390 387.8 387.9 381.6 376.9 376.6 374.2 373.7 373.2 372.2 379.1 384.9 389.8 392.7 391 388 382.2 372.4 359.5 366.1 378.6 383.2 386.8 392.5 393.7 392.5 390.1 389 387 385 382.4 379 371 363.5 355 348.3 341.7 332.6 334.7 336.5 341.9 349.1 355.9 358.4 362.5 367.3 369.8 370.8 370.7 371.7 372.3 373.2 372.7 371.9 370 366.8 362.8 358.9 353 349.4 344 339.6 333.8 330.3 326.3 321.6 316.2 308.7 300.8 294.3 286.6 281.2 280.8 279.7 281.2 283.9 285.7 287.1 287.8 287.8 287 284.4 280.5 276.1 270.9 266.8 262.8 261.6 260.5 264.5 270.1 278 262.2 246 233.9 219.3 202.8 188.9 174.8 174.2 174 174 173.9 173.7 173.4 173.1 172.8 172.8 172.6 172.2 172.2 169.7 172.6 174.1 181.6 201 225 256.3 272.2 279.5 291.9 304 311.9 314 307.6 306.7 309.6 315.7 317 313.5 310.1 309.5 304.3 295.8 286.9 275.8 263.9 253.5 245.2 237.5 228.5 218.9 207.3 200.2 191.8 185.5 179.6 174.4
364.5 368.8 370.3 373.4 376.9 380.2 381.5 381 377.3 370.7 367.3 369.6 367 358.5 351.5 343.5 331.2 319.3 308.4 300.9 293.3 288.5 281.7 275.9 276.9 296.1 301.2 304.3 309.6 314.7 319.5 325.2 332.3 338.7 347.3 357.3 363.7 370.5 372.1 376.7 384.4 389.5 389.7 390.6 391.3 395.1 400.8 400.3 397.9 396.3 393.5 391 387.4 386 380.9 377.2 371.9 371.4 371.9 372.6 372.2 374 379.5 385.2 389.5 390.9 391.6 389.4 384.9 378.9 367.6 376.3 387.4 390.4 394.6 397.3 396.9 395.6 393.5 391.9 390.6 389 385.1 379.4 368.6 361.3 356.7 351.5 345.5 329.3 343.2 353.3 358.6 365.6 369.2 370.8 373.4 375.7 377.5 378.1 377.7 378.7 378.5 379 378.7 377 374.5 371.5 368.5 364.5 360.9 357.9 352.1 346.6 339.3 332.9 329.7 326 322.1 317 312.7 308.7 301.9 293.2 284.1 281.7 272.5 270.1 276.2 279.1 280.5 281.5 281.2 279.9 277.5 274 271.3 270.2 270.3 269.6 269.4 276.6 286.4 294.3 286.1 272.3 258.4 240.7 222 204.5 187.2 174.4 173.8 173.8 173.7 173.5 173.1 172.9 172.8 172.7 172.1 171.5 171.5 169.7 172.1 171.4 172.8 179.8 198.7 221.2 239.1 254 273.4 285.6 294.6 296.7 295.2 296.1 299.5 308.5 313.2 312.2 310.4 313 314.8 310.5 306.7 299.7 294.4 285.9 277 265.6 255.5 243.9 230.9 219.1 208.3 201 192.5 181.3
356.7 362 363.5 369.4 375.7 375.5 374.3 372.9 372 372.1 372.9 371.4 363 357.4 350.1 342.2 333.4 323.4 316.7 303.7 292.8 283.8 278.9 273.5 271.7 290.1 294.2 299.9 306.1 311.8 317.2 322.1 329.2 342.2 355.1 364.7 371.5 376.8 375.7 380.2 383.2 387.8 390.9 389.3 389.8 392.5 394.7 393.4 392.3 390.9 389.8 386.7 383.1 381.3 377.7 371.7 365.9 366.1 365.5 365.4 367.8 373 378.3 384.6 389.1 391.7 392.3 390.1 388.8 381.9 370.2 381.7 390.7 395.2 399.1 399.4 398.3 396.9 394.9 393.1 390.9 387.7 383.7 375.1 367.5 362.4 356.9 350.5 341 344 356.4 364.1 370.1 375.1 377.1 377.9 380.1 381.8 383.2 384.4 384.9 385 385.3 385.2 383.5 380.8 377.9 374.6 371.7 369.3 367.4 364.9 359.9 355 348.4 340.3 332.7 326.3 322 319.5 311 309.9 308.5 302.7 292.3 284.5 279.3 271.5 260.3 267.8 271.5 274.4 274.4 274.1 273.7 272.5 272.9 273.7 275.2 276.3 278.2 287.9 303 308.6 304.9 296.9 283.1 264 243.6 225.9 209.6 194.6 181.8 173.2 173.4 173.2 172.9 172.9 172.7 172.6 172 171 171.4 169.7 171.1 170.7 171.6 170.8 173.7 193.5 207.3 223.1 241.5 255.3 265.5 273.2 279.7 286.2 288.5 296.6 306.4 308.8 309.4 310.3 313.1 315.7 315.6 313.7 311.5 308.5 303.7 294.3 281.8 269 256.5 240.3 223.1 203.8 188.3 178.5
350.3 352.5 359.2 364.8 373.9 372.8 367.6 366.9 368 371.9 370.6 364.5 359 354 348.6 340.1 335.6 327.2 311.5 300.9 295.1 289.3 281 274.3 269.1 285.1 293.2 299.7 307.3 315 318.2 321.9 334.3 346.1 355.1 363.4 371.7 374.9 374.8 376.7 381.8 386 387.3 385.5 385.2 387.6 390.2 390.4 389.5 389.9 388.6 382.6 378.7 376.4 374.8 364.4 361.6 360.1 358.3 360.7 367.8 374.7 379.6 385.4 390 392.8 391.9 389.1 385.8 381.4 378.3 384.7 393.1 398.4 399.5 399.1 398.4 396.2 394.3 391.6 388.3 385.3 379.3 372.5 367.2 360.2 355.4 355.7 354.1 362.8 367.7 371.7 375 378 380.5 381.7 383.4 385.7 390.3 390 389.9 390.5 391 390.6 387.9 383.7 381.1 378.1 375.4 374.2 373.5 371 366.8 362.5 356.9 349.7 341.5 335.4 331.2 326.2 321.7 317.3 311.5 304.1 292.7 278.3 277 266.9 267.1 253.9 255.7 262.8 265.8 266.5 267.4 268.5 271.5 274.7 278.4 281.4 288.8 302.3 316.9 320.7 317.7 318.5 311.4 291.8 271.3 252.3 235.4 218.7 203.8 188.2 174 172.9 173 172.8 172.6 172.3 171.9 171.6 171 169.6 171 170.3 170.2 170.3 171.2 171.5 187.3 197.3 210.4 226.2 238.3 251.1 261.6 269.9 274.6 281.2 294.8 303.4 305.9 307.8 310.9 314.1 314.8 314.6 314.3 310.3 305.4 298.2 291.9 283.7 273 245.8 215.2 192.7 182.9 174.6
