ncols 200
nrows 82
xllcorner 230000
yllcorner 732750
cellsize 50
347.6 336.7 329.7 324.6 309.7 296.4 285.3 279.5 268.2 254.8 241.5 227.9 216.7 209.6 201.1 194.5 189.5 183.7 186 187.6 190.5 190.2 191.5 192.1 193.9 196.9 197.2 200 203.6 208.3 212.8 217.9 226.9 235.7 244.5 256.9 268 280.3 295.9 312.2 331.3 352.3 371 390 417.9 442.7 471.2 507.4 515.3 569.7 598.6 621.4 634.9 647.1 643.7 631.6 610.6 590.4 570.4 546.7 517.7 490.5 459.9 431.6 404.9 383.7 361.9 343.2 321.9 302 283 267.6 255.6 248.8 244.5 239.1 232.8 232.8 247.3 257.6 273 297.2 327.9 355.3 386 415.4 445.8 490.4 567.8 618.1 652.4 708.8 753 761.5 763.7 758.7 752.6 747.9 741.1 732.9 720.3 713.6 709 700.1 693.1 680.4 659.6 631.3 613.9 596.8 582.7 562.5 547.7 532.3 521.2 507.4 493.6 483.9 478.2 466.8 454.6 446.8 430.9 422.5 417 415.9 415.4 413.7 414.6 409.7 403.6 396.8 391.4 387.6 389.1 386.9 378.2 376.5 377.9 375.7 377.9 379.9 381.6 383.5 383.4 385.8 391.3 391.4 399.8 406 422.2 432.3 449 468.9 488.9 511.7 536.8 558.5 580.7 593.9 607.5 631.8 652.5 670.4 691.1 712.1 734 756.7 775.9 796.4 808.8 815.5 819.6 810.3 806.3 803.3 804.9 798.8 792.5 780.4 772.5 761.9 750.6 740.6 733.2 729.2 720.1 711.2 698.2 686.1 675.2 666 657.5 651.2 648.4 648.3 653.8 667.5 674.3 682.4
363.6 353.1 345.3 335.4 320.4 307.2 302.6 293.8 281.7 264.3 249.7 236.8 226.9 215 207.2 200.8 193.8 187.8 185 187 185.9 188.2 189.3 190.1 191.7 192.9 194.8 196.9 199 202.2 205.6 212.6 220.7 226.4 234 246.4 256.3 267.1 280.3 292.7 313 330.2 344.6 370.6 391.2 415.7 444.1 471.3 498.8 539.9 556.7 581.2 602 622 629 617.1 595.6 580.8 555.9 530.4 499.9 469.2 440.8 414.3 391 368.2 350.5 328 313.2 293 273.9 259.6 249.3 241.7 238.6 233.7 232.6 235.9 251.1 263.2 280.6 312.7 341.4 370.5 404.6 433.4 469.2 530.8 622.2 653.7 691.9 730.8 772.2 779.2 780.1 773.1 765.9 759.4 751.3 744.4 733.8 723.4 716.7 710.9 704.8 687.9 661.5 631.3 610.6 593.3 579.8 558.5 544.4 531.2 515.5 504.2 492.2 484.2 472.6 463.1 452.5 435.6 421.4 416.3 407.2 405.6 402.9 403.3 402.4 400.3 393.3 389.7 389.3 385.1 383.4 383.7 377.2 378.6 380.8 381.8 379.5 382.9 393.6 392.9 387.4 395.5 398.4 396.3 406.6 413 425.9 436.7 455 470.5 495.7 519.7 544.4 564.3 584.2 603.4 624.6 642.7 662.3 683.7 699.6 718.3 741 762.9 781.4 802.2 814.1 820.6 820.8 815.2 811.8 810 808.1 797.8 792 783.2 774.9 767 760 749.2 742.7 739.2 731 721.7 711.4 695 680.8 666.9 657.6 650.9 651.7 651.2 655.9 659.1 657.6 661.5
376 366.7 359.9 348.8 333.4 325.4 315.1 305.5 290.3 277.6 263.7 248.8 235.7 225.9 214.2 206.2 199.6 192.5 188.9 186.2 187 186.8 185.6 187.6 188.8 191.2 192.9 194 195.9 199 201.7 206.6 212.8 218.6 224 232.6 242.9 252.7 262 278.3 294.4 310.1 329 346.9 367.2 387.6 413.8 427.8 461.2 494.8 518 537 567.1 589.2 605.9 594.8 578.7 563 539.8 509.6 478.4 447.9 421.1 396.4 374.4 356.9 334.6 317.4 300.5 279.6 262.6 251.4 244 238.6 235.7 230.4 233.7 242.6 253 267.7 291.9 327.7 354.6 384.6 420.7 453 489.9 566.5 646.7 675 713.4 757.1 794.4 798.2 796.2 787.8 780.2 772.3 763.2 755.8 744.6 735.9 726.3 722 708.1 686.7 666.6 630.2 612.8 592.6 575.7 556.9 540.7 528.7 514.8 503.9 491.7 478.6 467.7 458.2 447.6 434.8 420.9 408.6 403.9 403.8 400.9 395.3 389.2 387.1 392.2 385.6 383.5 381 378.1 377.5 379.2 380 382.5 382.5 384.7 388.3 392.3 397.2 397.4 400.8 403.9 404.2 409.9 420.9 434.1 446.5 458 478.6 503.4 523.5 546.4 569.8 590.8 612 632.4 650.3 671.6 690.7 708.2 725.3 745.6 768.7 789.3 807 821.2 829.1 829.8 824.4 821.5 816.6 816 806.1 796.8 788 780 770.2 765.6 762.4 757.5 750.9 742.1 735.2 726.4 713 693.6 673.3 664 655.5 657.8 653.5 653.1 651.9 648.6 648.8
390.8 382.9 373.7 359.8 350.8 340.2 327.3 318.7 304.2 287.1 275.5 261.9 247.2 233.9 221.7 214.3 205.8 199.3 194.2 189.9 187.3 187.8 185.6 187.5 187.4 188.9 190.5 192 193.6 195.7 198 202.7 206.5 211.5 217.1 225.3 232.8 240.8 251.1 262.2 277.7 292.6 310.2 326.8 343.7 361.8 381.1 406.4 428.5 456.9 482.5 495.3 531.6 550.5 564.8 568.8 563.5 542 515.9 485.6 456.2 427.2 401.8 379.9 360.3 340.2 322.6 305.5 288.2 268.9 254.8 245.5 238.2 233.5 228.9 235.7 239.2 246.3 259.8 280.5 314.9 342.5 369.2 398.3 435.2 469.8 511.5 596.7 663 697.9 735.7 773.4 809.5 815.6 813.4 805.5 797.6 786.5 775.3 765.7 756.1 747.2 738.6 730.8 716 690.7 658.3 629.5 607.1 589.8 573.9 555 537.6 523.9 510.1 493.8 485.6 472.7 459.7 445.5 431.7 420.5 411.7 407.1 398.9 400.4 396.7 392.3 388.4 389.3 387.1 386.4 383 385.7 385 382.7 385.9 390.2 387.4 388.7 384.9 391.7 395.9 401.7 404 404 408.4 412.4 415.2 425.3 440 453.1 469.4 484.2 507.7 525.8 553.9 574.5 593.5 617.5 637.4 659.9 680.3 700.3 717 733.9 753.4 774.9 795.1 813.2 827.4 834.4 839.7 839 829 826.7 822.1 809.1 797.5 789.2 787.7 782.1 780.5 774.5 770.6 762.9 756.9 748.2 739.4 721.1 692 681.7 672.3 660.9 655.7 654.1 653 647.7 644.6 643.7
406.9 396.9 384.8 374.8 363.7 351.8 341.7 333 318.2 301.6 285.6 272 260.3 245.7 233.2 224.3 214.3 205.1 198.9 193.4 188.1 187.2 187.1 187.6 187.6 188.5 189.5 190.2 191.3 192.7 195.5 200.1 201.1 205.2 211.3 217.1 225.8 232.1 239.7 250.8 264.9 278.2 293.3 304 321.9 342.2 359.1 377.2 398.9 422.3 442.4 457.9 483.7 510.8 515.6 538.8 537.1 518.2 488.8 460.6 433.6 404 383.4 361.7 344.4 325.6 309 290.1 273.1 259.1 247.8 240.3 232.9 228 232 238.7 245.9 254.6 269.5 295.5 326.3 354.5 381.1 416.3 448 491.5 543.3 628.5 684.2 723.5 757 791.7 826.1 831.3 825.8 822.1 813.3 801.1 789.1 778.1 768.9 760.1 749.2 733.1 712.5 686.4 648.7 631.4 605.1 587.2 571.8 550.6 533.8 519.2 507 492 477.1 465.7 452.8 436.4 423.3 415 409.7 400.9 399.1 396 395.2 398.8 400.1 395.6 394.3 396.7 392.4 392.3 391.1 388.5 388.7 390 393.2 394.2 391 392.7 402.2 406.3 408 410.9 414.4 415 420.7 431.4 448.7 461 475.6 492 514.8 537.9 562.2 583.5 599.7 619.9 632.7 664.2 687.5 707.4 725.2 743 762.3 781.4 803.1 819.2 835.6 845.2 849.4 850.1 842.9 837.2 833.6 818.6 813.5 801.3 791.4 791.8 790.4 784.2 780.6 777.4 771.5 762.6 742.6 724 701.8 686.8 677.1 665.4 658.8 654.1 651.6 651.1 647.5 642
420.9 408.2 397.5 386.6 375.9 368.5 357.5 345.8 331.6 312.9 297.8 284.3 269.5 259.5 248.1 231.6 220.6 212.3 204.4 198.4 193.7 188.2 187 186.9 188 188.6 189.1 188.9 189.6 191.1 193.6 195.5 198.8 204.5 206.5 211.4 216.3 223.1 229.8 240.4 251.2 264 273 289.5 306.9 320.4 335.7 352.4 370.6 388.7 408.1 425.9 449.1 468.5 478.3 510.4 507.8 488.6 458.4 432.6 403 381 364.2 345.3 325.5 311 292 277.6 264.4 252.5 242.4 234.8 230 227.9 233 241 251.7 265.3 282.1 308.5 338.6 363.6 387.4 431.8 466.5 514.1 572.2 639.2 682 732.9 773.6 808.3 839.1 846.1 841.2 834.9 825.5 815.5 804.3 793 781.1 769.7 754.4 732.6 713.7 683.6 640.8 626.8 607.4 587.3 567.3 547.4 531 518.2 503.6 490 475.9 456.8 440.9 430.3 415.9 408.6 403.5 397.1 398.6 400.1 403.4 411.5 407.8 408.2 413.8 410.2 404.1 404.7 402.1 398.7 396.7 398.1 401.3 402.1 399.2 395.7 406.7 412.2 410.5 416.7 418 422 427.7 436.5 453.9 467.2 482.3 497.4 523.6 546.4 569.1 591.4 612 629.4 639.8 669.1 689.5 712.9 731.4 751.5 771 790.8 812.3 828 841.5 853 858.8 859.7 856.8 853.5 848.5 835.3 827 816.4 802.7 800.5 795.6 792.1 789.5 787.3 784.1 776.3 755 733.1 713.3 692.3 682.6 666.7 661.8 656.9 649.9 646.9 645.1 636.2
433.9 420.8 412.9 401.4 390.3 385 369.3 354.7 342.4 326 313.3 299.4 285.6 268.6 257.4 241.5 229.4 219.4 210.2 202.6 197.3 192.3 187 187.4 188.4 188.4 188.7 188.4 189.1 190.1 191.3 193.6 195.9 200.5 203.1 206.2 209.4 215.7 222.3 229.9 240.5 253.3 263.1 276.8 285.9 298.2 309.3 329.2 344 362.8 378 392.8 413.9 429.4 439.9 463.2 468.8 451.3 420.9 400.2 377.1 359.5 344.7 329.2 310.9 294.6 281.4 265.7 254.8 243.5 237.2 233.1 227.7 228.2 235 244.6 256.8 275.1 297.4 323.2 350.1 374.8 403.6 442.5 478.7 524.4 607.1 652 696.2 746.6 782.3 814.8 849.5 860.1 856.6 850.3 841 828.8 818.1 805.4 793.9 779.2 758.5 734.7 707.2 683 642.4 621.7 603.8 584.3 561.5 546.6 528.1 516.9 500.1 484.2 471 455.5 438.4 422.4 411.9 406.4 398.7 401.4 407.3 406.4 411.2 420.8 426.1 430 435.1 431 428.3 425.7 420.8 413.7 407.5 407.2 403 403.7 407.1 402.9 401 415.9 415 418.9 426.4 429.8 435 442.5 460 473.8 489.3 505.7 528.6 552.9 578.3 600.1 622.1 641 660.2 679.6 699.3 719.4 739.9 762 777.9 795.4 820.8 835.8 847.6 857.9 866.3 872.1 867.6 866 868.6 852.5 843.2 833.6 818.6 812.1 808.1 805.5 798.4 797 794.9 791.4 786.1 762.5 731.2 706.9 687.6 670.9 659.6 655.7 649.3 641.8 638.1 633
442.5 434.9 426.1 414.6 404.9 393.7 378.4 364.9 353.2 338.8 326.5 312.8 298.7 281.7 264.8 253.7 240.8 225.8 212.4 209.7 202 196.6 192.7 186.3 187.5 188.6 188.7 188.3 189.3 189.2 189.7 190.8 192.3 192.7 194.4 200.4 203.8 208.7 215.3 221.8 229.9 240.5 248.6 260.6 270.6 281.5 292.3 306.3 321 337 349.5 362.7 380 392.6 406.3 420.2 427.4 409 388 370.9 355.5 341.6 326.4 311.2 297.5 282 267.4 257.5 247.3 238.5 232.2 230.7 222.7 228.7 235.3 246.7 261.5 283.6 304.4 332 361.9 377.8 417.6 456.1 491.6 540.5 622.5 663.3 704.1 729.6 766.6 809.2 850.1 874 869 860.7 853.4 842 833.1 820 804.7 787.6 755.4 727.8 709.6 677.6 645.7 618.8 599 580.5 557.2 541.7 526 512.9 498.1 482.6 469.6 450.9 430.8 418 408.2 402.3 400 404.4 412.3 413.6 422.3 437.6 440.1 451.8 455.2 452.1 454.6 448.8 443.2 436.9 427.4 419 414.1 411.3 409.2 410.4 406.6 415.2 420.6 422.3 430.4 433.6 442.2 451.3 465.4 480.8 495 512.6 533.3 559.6 582.9 605.9 629.3 651.5 671.9 691.9 711.1 728.2 751.9 771.2 786.6 803.3 825.8 838.3 852.6 865.1 875.6 883.1 884.8 879.5 878.5 868.8 851.9 841.5 831 826.2 815.7 811.8 808.3 807 808.8 818.2 802.4 784 758 715.4 694 679.4 667.6 653.9 651.3 639.1 633.9 630.1
459.8 449.1 441 429.1 414.8 404.2 388.6 376.2 364.8 354.1 341.2 320.5 305.5 292.3 278 265 248.9 238.5 226.4 217.2 207.5 201 198.3 196.3 186.8 186.7 188.8 189.3 189.4 189.3 190.3 190.9 191.7 191.1 192.8 196.2 198 201.5 207 214.1 221 229.1 238.2 247.2 255.3 266.1 278 288.3 299.8 311.2 322.6 334.8 348.5 361 368.4 375.2 379.9 375.9 360.5 347 334.4 318.4 304.3 290 277.5 267 256.3 247.5 240.1 232.7 228.6 226.8 222 228.5 238.7 249.6 268.1 294.4 314.6 340.9 371.6 398.4 431.2 473.2 505.9 564 605.5 639.8 704.7 738 787.7 836 848.4 877.6 881.3 873.3 865.8 855.2 844.9 831.3 812.4 786.7 752 727.7 711.2 682.2 650.1 626.1 598 578.3 560.7 541.3 520.9 508.5 491.1 482.2 466.9 448.2 425.7 413.6 406.1 401.8 402.8 410 418.1 426.5 440.2 453.5 459.2 468.6 471.2 471.5 472.3 471.6 464.6 453.8 445.1 437.4 429.1 421.7 417.4 416.7 408.9 419.3 424.1 426.4 432.7 441.8 445.2 458.6 470.8 487.9 502.5 520.4 542.9 565.5 587.8 613.7 636.5 661.4 684.6 705 723.1 742.8 762.6 780.4 798.4 815 832.3 846 858.5 871.4 885.3 896.2 898.4 895.7 889.9 873.3 863.8 853.7 846.3 844.3 850.8 848.2 836.3 837.2 840.4 834.2 815.7 786.3 758.9 736.4 707.3 683.5 675.3 666.1 653.3 641.5 632.6 627.5
475.4 464.2 454.7 442.1 425.9 415.1 401.1 389.5 377.6 364.6 349.9 330.9 319 302.7 287.8 273.6 265 247.1 232.1 223.5 214.8 208.8 202.8 196.7 192.5 189 189.1 189 187.9 188.5 191.3 192.4 191.2 190.4 191.7 193.1 193.9 197.8 204 208.9 213.2 220.7 229.2 235.5 243.6 253.3 264.2 270.7 282.5 291.8 299.1 308.2 320.3 329.2 335.7 343.3 342.1 333.8 327.7 318.7 307.9 297.5 283.5 275 263.2 253.9 245.2 240.4 234.5 228.5 226.1 221.1 224.4 231.9 243.7 257 276.1 302.2 326.1 350.7 380 410.7 447.3 482.4 515.2 568.4 617.8 677.6 737.9 775.3 812.4 818.7 812.3 859.2 881.6 879.3 877 869.7 857.5 842.1 812.3 782.9 758.1 734.9 714.2 685.5 652.3 628.3 601.1 576.9 557.3 537.8 521.8 504.8 486.5 462.9 460.8 447.5 430.1 415.8 406.7 402.2 404.7 415.4 425.9 438.9 455.8 469.5 476.8 484.8 488.4 490 486.5 485.5 483.5 475.7 465.9 457.1 446.9 433.1 425.7 421.3 415.2 416.6 426.4 431.1 434 442.4 449.8 463.7 478 492.7 506.3 525.5 548.1 570.9 593.1 617.3 642.1 667.2 691.6 713.2 734.2 753.7 773.1 792.6 805.4 824.8 841.3 855 867.3 882.5 894.4 903.8 911.3 910 906.6 893.6 879.9 870.1 870 877.3 879.2 875.7 871.7 862.6 858.1 841.5 820.6 792.5 772.7 751.1 714.7 691.6 682.8 672.9 665.9 654.3 636.7 628.4
487.7 478.1 467.1 453.7 438.9 429.7 416.2 402.8 390.3 378.7 357.5 344.5 331.3 313.9 297.7 287.6 274.8 258.2 246.5 233.2 223.4 213.9 207.8 204.3 200.1 193.7 188 189.1 189.1 188.2 188.3 190.1 190.1 190.5 191.3 191.6 191.8 192.9 199.2 203.1 208.9 214.1 218.2 226.1 231.2 238.3 246.1 255.6 264.9 275 283.4 288.7 296.9 303.2 307.1 312.4 311.1 308.2 303.4 295.5 287 277.2 266.9 259.1 250.6 243.7 239 233.7 229.4 225.1 219.3 222.2 226.4 238.1 247.3 262.1 286.5 304.7 331.4 355.2 383.6 420.6 459.2 490.4 538.6 583 620.3 669.5 726.1 758.3 774.3 770.5 775.5 826.2 848 857.1 870.1 874.4 863.8 842.8 812.1 787 763.2 737.2 712.4 687.7 654.9 629.7 604.5 580.8 557.1 539.8 528.8 510.7 492.8 470.4 444.9 437.8 423.9 415.2 408.8 403.8 409.6 419.1 433.4 450.5 467.6 478.6 488.7 503.7 510.2 511.4 511 504.8 501.6 489.3 483.9 470.3 458.7 444.9 435.3 427.5 422.2 421.1 430.1 434.8 440.4 447.1 457.8 467.8 482.6 499.6 513.8 531.2 552.4 568.5 596.8 621.4 646.1 674.5 698.8 721.1 741.5 762 783.3 801 816.8 831.3 849.7 865.2 876.1 893.7 903.6 914.4 922.5 929.1 928.8 911.1 896.5 898.3 898.6 914.3 917.2 912.5 911.9 897 875 851.8 830.3 803.4 779.7 763.1 744.6 706.7 688.1 680.4 675.7 662.4 649 637.7
503.9 491.2 479.2 464.8 455.2 443.3 428.5 415 400.5 385.9 370.5 359.8 340.7 326.3 312.8 300.3 283.3 270.9 256.4 245.9 232.2 221.7 215.7 208.3 202.6 199.5 195.4 192.5 189.8 189.9 190.2 189.2 189.9 191 191.4 191.2 191.4 194 195.4 198.2 203.8 207.2 211.5 216.9 223.5 229.5 234.1 241.8 252.1 257.5 263.8 270.7 278.5 282 286.2 290.2 289.5 288.8 284.9 277.1 267.8 259.2 253.2 246.5 240 235.3 232.1 229.4 225.1 221.7 218.9 221.9 230.5 238.1 252.7 274 295.3 316.6 340.6 359.4 387 424 459.1 494.7 534.1 575 611.5 650.2 703.2 727.6 726.6 724.5 752.6 799.9 802.5 814.4 835.2 863.1 866.9 843.9 815.7 790.8 764.5 741.9 710.6 683.1 655 631.5 606.7 583.1 563.2 541.3 522.8 511.5 494.6 474.7 450.1 435.7 423.8 419.3 409.6 404.6 413.4 423.9 444.5 463.8 478.3 491.3 502.9 516.1 535.6 533.6 532.2 527.8 520.4 507.5 496.4 487.4 469.7 458.8 445.2 435.6 434 421.1 433.9 437.9 445 454.4 461.4 470.7 485.7 501.6 516.7 537.2 556.8 579.8 600 620.4 649.8 677.4 699.1 725.6 747.4 767.5 788.7 806.6 823.1 837.3 856.5 870.2 889.1 903.8 916.5 925.2 936.1 943.3 952.5 939.1 952 928.2 948.2 972.7 969.1 967.9 943.2 923.7 892.5 859.4 843.8 822.6 796.9 782.6 750.4 719.8 697.8 690.4 676.9 670.1 660.8 648.3
518 502.5 488 478.8 466.7 453.7 441.6 426.3 412.6 395.1 380 366.8 347.5 338.3 322.8 308.9 293.9 279.5 268.8 255.8 243.9 229.6 221.1 214.2 208.4 204 198.3 194.9 191 189.7 190.5 189.7 189.8 190.3 190.9 191.1 191.3 191.7 192.7 196 198.3 200.9 205 210.6 216.5 218.8 224.5 231.7 236.5 242.5 248.5 253.7 260.8 263.1 265.4 272 271.9 267.6 264.7 259.1 250.8 245.7 239.5 236.6 231.2 228.4 225.2 222.7 220.4 216.1 219.6 228.6 234 243.3 259.6 278.6 297.4 317.5 341.2 361 388.1 424.7 460.7 491.2 525.9 566.7 597.2 631 662.3 689 681.6 690.5 728.6 747.6 762 781.8 809.3 841.9 861.5 838.3 815.8 797.7 768.8 746.5 725.8 693.7 662.6 634.1 609 585.4 563.7 543.3 521.7 507.9 487.7 464.8 454.4 435 424.6 418.3 409.5 406.2 417.2 430.7 450.5 465.8 485.7 501.8 514.5 530.7 549.5 550.3 550.5 549.4 537.9 523.5 513.2 501.9 487.6 468.4 457.9 446.7 440.1 431.7 434.8 443.3 449.9 456 465.1 474.5 488.6 504.2 520.6 537.7 558.3 581.9 605.8 627.7 653.8 678.1 708.4 731.1 753.7 772 793 811.2 829.4 844.7 863.4 879.7 897.2 907.9 923.5 934.7 943.7 954.8 967.9 979.6 981.2 989 1011.8 1015.7 1012.1 1000.3 967.3 934.7 901 874.9 858.6 830.4 819.3 793.6 764.4 726.3 703.6 699.6 688 676.4 672 662.7
530 514.4 501.9 492.3 478.2 464.9 452.5 436.2 419.7 404.4 390.9 372.3 359.4 347.1 334.9 322.1 306.1 292.9 278.1 266.4 252.4 241 228.6 221.2 214.7 206.3 202.9 197.6 194 192.5 190.8 189.1 190.9 191.1 191.3 192 192.1 192.2 192.7 193 194.7 195.9 199.7 202.2 207 211.5 215.2 219.2 226.6 233 237.3 242.3 245.3 247.2 249 252.3 254.8 250.8 247.9 242.1 237.8 233.6 231.6 227.4 223.7 221.2 220.5 218.5 214 219.1 223.3 228.9 242.9 246.4 259.3 277.6 297.4 317.6 339.8 362.5 387.2 419 449.6 480.5 512.4 548.2 579.2 605.1 629.4 637.2 639.5 665.9 690.4 710.9 730.6 760.9 796.3 833.2 856.9 836 818.4 799.5 773.5 753.3 732.8 704.7 675.3 639.5 611.7 588.1 564.5 545.4 527.9 508.8 486.8 468.6 451.7 431.8 425.8 415.7 409.9 408 416.2 436.7 454.2 472.1 492.7 509.8 526.1 542.9 559.1 570.5 568.2 562 555.8 545.4 534.1 520.1 503.3 487.4 469.5 458.5 448.2 440.2 433.6 446.2 454 460.9 468.2 477.8 492.7 508.6 525.7 542.7 562.8 584.6 610.2 631.3 656.6 682.3 712.2 735.4 758 775.6 794.9 814.9 831.5 851.2 866.1 882.9 896.8 912.9 929.3 941.9 952.1 963.8 976.5 989.6 1009.8 1020.6 1023.3 1032.9 1035.1 1012.3 985.9 961.6 915 885.3 861.8 844.5 828.8 807.4 782.5 751.1 724.9 708.2 696.6 686.5 678.6 670.4
541 527.7 514.4 500.3 488.2 474.6 461.9 444.7 430.4 412.7 398.9 383.9 367.9 358.9 345 332.1 315.7 301.4 283.1 275.3 263.2 251.4 237.9 228.7 221.7 214.5 209.1 202.5 198 195 192.4 191.1 190.2 191.3 191.3 191.9 192.3 192 192.6 192.8 192.8 193.5 195 196.7 201.7 205.1 208.7 210.4 216.9 223.9 226.7 231.3 234.7 235.8 236.3 236.1 238.7 237.5 236.3 232.3 229.6 224.2 221.6 219.9 218.4 217.3 217.2 215.5 217 222.4 225.4 229.6 236.8 245.9 260.4 274.1 299.3 318.9 339.5 360 382.2 408.4 439.6 466.7 495.3 523.4 557.1 579.7 593.4 599.5 616.5 635.5 660.6 684.9 720.6 759.3 797.3 833.4 852.4 833.9 817.8 797.3 771.9 754.2 726.7 711.2 679.2 644.8 615.4 588.5 566.1 548.6 527.6 510.2 486.9 468.3 448.5 435.1 421.5 418.3 412.1 407.4 417.7 441.5 458.9 476.5 498.5 514.7 534 550.3 565.9 581.4 583.4 578.7 571.2 567.5 553.5 534.7 517.8 501.7 483.8 469.8 457.6 450.1 439.8 449 456.8 463.2 472.2 481.1 495.4 512.2 530.9 545.3 564.7 588.9 612.2 634.9 656.5 685 717.7 741.3 762.6 782.9 803.1 823.4 838.4 855.1 868.9 884.8 899.3 918.7 933.4 948.2 963.9 974.9 984.9 999.9 1016.1 1022.1 1032.6 1039.4 1043 1035.8 1003.1 976.9 944.3 905.4 880.1 866 845.1 816 789.9 761.6 739.8 720.4 709.6 698.4 692.1 686.5
552.8 540.3 526.9 512.4 499.4 485 467.4 453.7 438 425.5 406.7 393 381.3 368.8 354.7 340.7 325.5 308.4 297.5 285.4 273.2 255.9 246.4 236.1 224.8 222 213.7 207.5 202.5 198.4 195.6 193.9 192.5 191 190.4 190.6 191.3 192.1 193.8 192.8 193.7 192.5 192.9 194.3 195.1 201.2 204.9 206.7 212.2 212.9 218.4 221.4 224.9 225.9 226.5 228 228.3 227 225.8 223.2 218.9 216.8 215.7 213.7 213.5 214.3 213.4 211.7 217.3 225.5 225.6 229.1 236.5 245.2 263.2 273.5 293.6 310.9 332.5 354.5 374.8 399.8 425.6 449.7 474 499.8 525.3 545.8 547.4 565.1 585.4 624.7 663.4 695.5 729.4 761.9 794.2 832.1 844.8 829.4 814.7 794.8 770.1 750 729 709.5 677.1 644 617.6 594 570.4 548.2 524.3 504.5 486.1 467.2 450.9 438.9 426.8 421.2 415 408.9 418.2 438.8 459 479.3 503.2 522.2 539.2 555.7 571.4 591 597.4 593 588.3 585.4 565.4 549.8 528.3 511.3 494.5 481.9 469.2 459.8 449.6 444.9 456.8 464.7 473.9 483.4 496.1 513.3 531.9 548.7 569.2 590.6 614.4 636.1 658.3 689.5 714.1 744.9 768.3 789.2 811.2 833 846.7 860.7 874.4 888.9 903.4 921 935.3 952.8 967.2 978.5 990.4 1005.5 1013.6 1025.3 1028.7 1033.6 1039.9 1036.4 1029.4 1017.6 980.9 936.5 906.4 882.7 869.1 836.7 817.1 788.7 758.8 743.2 731 716.3 708 698.5
566.1 550.1 536.6 523.7 508 491.5 476.5 461.4 446.3 435.8 417.4 405.3 392 379.3 364.1 347.4 334.9 322.8 307 290 279.7 269.7 253.5 243.6 235.7 226.5 217.6 212.8 206.9 201.8 198.2 196 195.3 193.7 192.3 192 191.3 191.6 192.2 191.9 192.5 194.3 194 194.6 195.2 196.7 202.1 202.1 206.9 209.4 214.8 217.4 219.1 218.4 221.1 224.9 223.8 219.7 218.1 217.6 215 212.3 211.3 210.5 210.5 211.4 209.8 216.7 217.6 222 226 229.5 242.2 247.9 262.1 276.8 287.9 301.7 324.2 342.4 366.9 386.4 407.7 430.2 453.2 475.4 494.6 501 510.5 555 582.2 612.8 642.2 675.5 697.8 744.9 790.1 818.5 831.6 821.4 806.5 788.7 768.5 749 729.3 702.2 673.8 648.5 622.1 596.6 572.2 550.2 524.7 498.9 481.3 464.7 450.4 440.3 431.3 423.5 417.3 410 420.8 436.4 458.6 483.6 502.9 523.9 541.6 560.1 578.2 598.3 604.2 602.5 599.4 593.7 575.9 560.2 536.3 521.3 509.6 493.2 479.6 469.1 459.1 452.3 450.6 464.8 474.4 484.4 497.5 518.4 532.1 550 569.2 592 616.3 635.9 658.3 689.9 714.7 742.4 772.7 792 814.4 834.5 848.7 866.8 880.3 892.7 909.4 923.7 939.2 957 973.8 981.4 991.7 1008.4 1009.5 1016 1019 1018.3 1017.7 1015.4 1014 1007.6 994.3 985.9 955.7 921.3 890.1 865 838.2 810.9 787.5 763.1 745.8 739.5 723.4 708
577.2 560.3 545.1 530.1 513.6 500 488 470.6 457.2 443.9 428.7 416.5 402.2 388.5 371 360.6 343.7 330.8 318.5 300.3 287 273.6 260.6 249.6 242.1 232.9 223 217 212.6 205.5 202.5 199.1 197 196.2 194.6 193.4 192.2 192.8 192.4 193.4 193.4 194.7 195.2 194.9 194.1 194.2 198.2 198.8 199.6 205.1 209.1 212.7 216.9 214.8 215 215.4 214 213.4 213.2 211.6 210.5 208.3 209.2 209.2 209 210 216.1 217.8 220.7 222.2 225 230.6 238.8 245.9 258.3 272.1 286.1 297.1 312.4 333 355.9 370.5 390.7 412.1 430.9 448.4 464.5 470 507.2 533 558.9 585.7 620.7 640.6 684.2 720.6 763.9 800.5 821.7 811.3 797.1 783.5 766.4 747.4 726.1 701.2 674.9 651.4 625.5 599.8 577 552.3 522.3 498.2 481.8 464.8 451.5 440.3 432.1 424.4 416.1 410.9 419.6 434 458.3 477.7 504.7 525.2 544.4 563.3 581 600.7 606.8 607.4 605.8 592.1 581.7 567.5 548.1 528.9 516.1 503.1 489.2 478.1 468.8 461.4 451.8 467.5 476 484.6 495.9 518.2 535.1 550.1 571.6 592 613.6 636.2 657.3 680.4 716.5 748 771.6 795.4 820.5 837 853.4 871 884.1 898.6 911.8 929.3 942.9 962.9 977 983.9 995.1 1007.5 1011.8 1016.3 1014.2 1008.5 1004.2 995.9 996.2 986.1 972.6 965.8 963.1 959.9 934.9 890.3 860.2 835.5 804.6 775.6 761.7 751.6 742.2 728.6
588.5 569.2 552.5 539.9 522.2 508.3 494.4 483.7 469.5 453.6 439.2 425.8 411.5 396.3 381.5 366.7 353 340.6 327.3 311.7 295.2 282.5 271 258.4 248.3 238.6 231.7 224.4 217.6 210.7 206.1 202.2 199.9 197.9 196.8 194.8 193.3 193.7 193.5 193.9 194.6 195 195.3 194.9 195.8 195.9 195.9 194.7 197.1 199 205.3 207.9 208.8 209.9 210.7 209.2 210.5 208.5 208.6 206.8 206.6 207 208 205.3 212.5 213.5 216.9 217.6 220.9 222.4 223.3 230.2 236 249.8 259.1 268.9 281.3 297.1 309.4 324.6 340.8 355.1 370.8 391.4 407.6 424 434.7 460.3 482.2 504.8 530.8 558.3 585.7 635.5 661.9 719.8 757.7 793.8 809.7 804.4 791 775.3 763.2 746.5 725 702.8 679.9 655.9 625.3 601.8 581.7 551.9 523 502.3 480.5 467.5 453.6 439.5 429.9 422.7 417.4 413.8 417.5 433.8 457.4 483.4 503.8 523.9 543.2 563.8 579.6 599.4 613.7 617.4 608.9 600.8 586 573 560.7 538.2 523 512.7 498.6 488 476.8 467 463.2 460.6 478.3 483.7 495.8 517.7 535.3 552.4 571.4 592 615.4 636.4 658.3 678.3 708.3 738.1 771.5 798.9 824.7 842.4 858.9 871.8 888.5 901.3 916.2 928 940.3 960.3 974 975 994.9 1006.1 1006.4 1002.2 992.9 982.6 975.2 970.9 962.7 950.7 945.6 944.6 937.5 930.4 935.1 914.3 880.4 856.7 821 793.2 777.6 770.1 768.3 762.3
595.5 577.5 562.4 549.1 533 520.1 506.8 493.1 481.5 463.4 449.8 432.8 419.9 404.8 391.3 376.5 361.8 348.6 332.3 321.4 305.7 290.5 280.8 268.6 258.3 246.9 235.8 229.6 222.6 215.1 209.1 205.4 203.2 201.1 199.8 197.4 194.3 193.8 194.3 194.6 194.6 195.2 195.7 195.2 196.1 196.2 196.6 197.5 195.7 198.2 203.7 203.2 205.4 204.9 205.2 204.3 206 206.6 205 205.4 205.6 203.6 206.2 208.3 208.8 214.9 217.5 220.4 222 222.3 224.5 228.9 236 248.8 255.9 264.9 279.8 291.9 302.7 314 327.5 345 361.5 372.8 388.8 405.2 420.2 436.9 457.4 478.6 504.6 529 569.7 602.7 641.9 687.6 733.4 768 798 798.8 789.5 772.8 760.8 744.2 724.1 703.6 680.6 654.9 631.5 609.6 582.3 551.1 526.2 505.8 485.7 466.8 452.6 441.3 433.3 426.1 418.9 414.7 416.7 432.5 457.1 480.2 496 515.4 541.1 558.4 576.4 595.4 615.9 617.7 614.6 611.3 594.3 582.3 565.9 554.1 535.7 520.7 505.3 495.4 486.1 475.8 471.9 464 475.7 482.2 493.9 513.1 532 550.3 571.5 595.5 616.7 635.8 654.5 678.4 699.4 728.9 764.3 800.2 826.9 846.3 864.2 876.8 892 900.7 917.6 920.3 922.9 937.1 941.5 945.7 965.1 975.1 980.9 970.3 970 964 956.1 947.9 935.6 921 917.5 916.2 904.7 895.6 899.5 909.5 910.7 885.2 854.7 818.8 800.8 794.8 786.8 783.4
605.2 588.9 574.2 557.2 543.5 530.6 515.7 504.8 490.5 473 456.7 440.7 426.3 414.6 400.6 386.7 368.5 354.5 342.3 330.2 317.2 306.4 291.1 277 264.8 253.4 241.1 233.9 225.3 220.8 215.2 210.7 208.4 205 202.5 198.3 195.6 196 195.3 195.2 195.6 195.9 196.1 196.3 196.4 196.6 197 197.2 198.3 196.5 199.4 201.4 202.4 201.3 202.3 206.9 207.7 204.1 204.1 202.1 206.7 208.8 211.5 212.9 211.9 217 219.1 222.1 222.5 223.7 228.2 233 238.5 248.2 256.2 263.9 274.9 288.6 299.8 308.5 320 333.7 347.4 363.1 373.1 387 400.9 417.8 432.1 454.7 478 507.1 535.9 568.9 603.5 641.4 693.9 732.2 769.6 785.6 782.9 771 759 743.8 725.6 702.4 681.5 655.8 635 610.6 580.9 548.2 520.4 505.6 487.7 471.5 457.4 446.5 436.8 427.1 419.2 413.7 420 431.2 448.4 471.2 493.1 518.6 543.4 559 578.3 597 612.7 617.3 622.9 619.9 609.4 595.6 577.3 558.4 545.7 531 517.1 505.7 496.5 487 481.1 470.9 470.9 482 498 511.3 531.3 549.9 571 596.2 615.9 629.8 652.9 675.8 698.5 724.2 755 795.1 824.9 850.2 864.7 878.2 895 902.2 908.9 901.2 895.1 906.8 905.2 911 925.1 940.3 935.3 935.3 930.3 929.5 931.4 918.4 909.3 899.1 873.8 871.3 866.8 862.7 865.5 870.8 878.5 884.1 876.6 863.3 834.4 822 809.8 799.6
615.6 597.9 582.4 566.5 553.8 539.9 527.1 513 499.6 481.8 464.4 450.3 437.1 424.7 409.1 393.6 376 365.7 348.4 339 328.8 315.8 304.3 288.7 274 260.8 248 237.7 233.3 226.5 219.7 216.1 211.8 209.5 206.5 202.3 199.1 197.4 195.8 196.2 196.4 196.9 197.1 197.2 197.4 197.6 198.1 197.6 198.1 197.3 196.8 199.3 199.2 200.7 201.3 203 200.9 201.2 205 205.2 208.4 208.9 211.2 216.1 217.5 215.1 220.7 222.3 223.6 228.8 232 236.3 241.2 248 254.5 261.4 271 286.5 298.6 304 312.1 323 333.7 345.5 359.1 368.9 383.1 399.7 416.9 434.7 457.3 481.1 505.9 539.8 572.1 610 659.6 694.7 728.6 762.9 775.6 769.8 758.5 743.2 725.1 702.3 679.4 658 637.6 610.7 580.3 550.1 525.8 504.1 490.3 475.1 462.5 448.3 438.9 428.9 420.1 415.9 416.5 426 449.5 464.8 487.4 515 539.5 557.6 578.2 600.4 614.8 623.7 627.4 622.8 616.4 604.2 584.5 568.9 555.3 548.1 530.2 517 505.4 495.6 488 484 475.8 486.7 498.7 514.4 532.2 550.2 569 592.8 614.4 628.2 651.7 675.1 696.1 721.6 749.4 787.6 822.1 845.6 870.7 880.3 894.6 889.5 885.3 885.6 880.6 879.4 880.9 884.4 892 904.2 906.6 912.9 903.6 905.2 904.4 890 870.6 844.1 832.6 823.6 824.8 822.9 831.2 830 845.2 859.9 860.9 874.4 856.8 846.1 831.8 814.4
625.3 605.7 591.1 575.8 562.3 548.8 535.8 522.1 507.7 489.2 473.7 457.6 444.1 428.3 412.9 401.6 384.1 374.2 365.1 350.5 335.6 324.4 311.6 298.2 284.7 271.5 258.1 246.3 240 234.4 225.8 221.9 216.6 213.6 210.2 205.5 199.9 199.3 197.7 196.8 197.5 197.7 197.7 197.8 198.3 198.6 199.1 198.1 198.3 198.4 199.3 199.8 200.1 201.2 202.7 202 202.4 203.4 204.4 206.4 207.9 210.2 214.9 219.1 221.6 221.3 219.8 225.8 226.8 231.1 233.8 241.1 246 251.6 258.4 263.8 267.5 279.1 291.2 299.1 305.3 312 323.3 332.8 343.6 353.9 369 382.1 393.2 416 435.5 454.1 480.8 512.8 542.8 580.6 627.1 663.9 702.8 731.2 756.2 767.2 755.1 741.9 723.8 706.1 682 658.9 637.7 610.8 580 551.7 531.2 512.3 494 478.4 462 450.1 438.4 429.7 421.2 418.3 416.1 426.6 440.5 457.4 483.6 510.1 529.7 556.7 580.5 601.8 619.3 633.2 633.3 632.9 622.7 608.9 594.1 582.3 569.6 556.1 544.3 529 516.9 506.1 497.5 492.1 484.3 492.5 501 516.9 535 553.6 571.5 588.1 609.1 630.7 651.4 673.9 694.6 719.2 746.1 777.4 812.6 843.8 867.4 881.5 886 884 865.1 859.5 865.4 857.4 862.5 862 864.9 881.1 875.3 881.2 880.7 886.8 875.5 835.8 808.5 783.9 778.4 780.1 785.3 784 787.7 798.7 816.2 829.4 847.4 849.1 846.5 845.2 835.2 825.4
636 617.7 601 584.6 571.6 556 541.1 528.2 514.6 499.3 483.5 466.6 450.2 439.5 426.8 408.7 400.8 386.2 369.7 357.1 348.6 335 321.5 306.3 292.7 277.7 264.8 255.1 246 238.3 234 228.7 222.2 218.5 213 208.6 203.4 203.8 199.1 198.8 198.1 197.9 197.7 198.3 198.8 200.1 199.9 199.8 199.5 200 200.1 199.5 200.2 203.7 204.6 205.7 206.3 203.8 205.3 206.7 208.5 212 217.2 220.5 222.7 223.4 222.7 223.8 228.3 233 238.5 241.3 249.2 255.2 262.1 265.1 268.6 271.7 283.3 290.8 294.8 303.1 311.1 319.6 329.8 339 351.9 365.4 379.4 397.8 413.9 433.7 458.3 483.4 519.4 553.6 588.2 623.8 668 701 740.8 759.3 756.8 742.3 724.1 704.5 684.7 663.1 639.4 614.1 580.8 556 532.4 514.1 496.5 481.5 467.1 455.9 444.5 432 425.8 420.9 415.4 422.9 438.2 454.9 477.5 500.9 526.1 552.1 578.7 602.8 625.6 644.4 647.9 644.1 629.3 618.8 605.9 596 580.7 566.6 553.5 544.6 529.6 517.4 509.4 502.7 494.5 492.2 503.9 521.3 541.1 557.7 572.2 591.3 607 627.1 648.5 671 695.9 715.9 742 771.4 804.2 838.9 872.2 881.3 888.8 874.9 848.5 842.8 842.7 844 840 849 840.6 842.1 844.7 844.8 843.7 813.8 808.6 782.7 761 743 730.3 733.6 743.4 750.8 756 768.8 782.4 799.7 814.9 821.3 819.4 833.5 828 820.1
646.1 630.6 609.3 590.4 575 562 547.1 536 521.5 504.7 488.9 474.1 461.1 448.3 433.3 423.1 408.7 390.6 380.6 366.2 356.7 343.4 328.8 314.4 302.1 289.9 271.7 264.5 251.4 244.7 239.2 234.6 228.3 222.3 216.2 211 209 204.4 202.7 200.6 199.9 199 199 199.3 200 200.6 200.9 200.7 200.7 200.7 200.6 201.7 202.3 202.8 205.5 208.1 206.8 207 207 208.8 211.5 213.7 217.9 220.9 224.6 226.3 226.3 221.6 226.8 234 235.8 242.8 247.1 254.9 258.7 261 261.3 264.8 269.8 277.3 285.1 293.1 300.9 307.4 316.3 325.1 336.4 348 364 377.5 392.8 415.9 435.7 457.4 486.5 520.9 553.3 590.3 631.9 682.5 715.6 744.5 753.8 738.9 724.4 705.4 687.2 666.1 641.2 609.2 581.5 558.3 533.3 513 497.7 482.9 465.9 455.3 446.3 432.3 425.4 420.9 416.8 422.8 436.6 449 471.2 495.9 518.1 546 574.3 603.6 626.6 638.7 650 649.5 639.8 632 620.6 609.1 594.4 581.6 567.6 556.5 542.6 530.4 520.9 513.8 509.6 500.8 512.3 524.2 545.2 562.7 575.7 591.1 609.7 630.7 646.7 669.1 692 714.4 738.8 765.4 803.4 837.7 871.3 887.8 891.4 875.4 851.2 843.6 834.4 834.9 826.1 826.1 824 820.8 819.4 803.8 789.1 778.1 761.4 739.8 728.2 716.2 704.5 702.6 711.2 723.7 738.7 745.6 750.4 765.1 777.9 785.9 798.3 807.8 821.2 810.9
658.2 637 617 596.3 581.8 566.3 553 540.7 527.4 512.1 496.5 481.4 468.6 452.4 443.4 430 416 403.4 390.1 379.2 365.5 350.8 336.2 322.9 311.7 297.7 283.4 270.7 261.1 251.6 245.5 238.8 235.3 227.1 221.1 216.4 214.3 207.6 205.6 202.4 201.4 199.4 199.9 200.2 201.6 201.6 201.5 201.3 201.1 201.1 201.9 202.8 203.4 201.5 205.9 206.7 207.8 210 210.1 212.4 216.1 220 221.6 224.3 227 230.3 231.1 226.4 227.8 231.3 228.1 231.1 233 241.2 245.8 245.7 253.6 259.5 262.6 270.4 278.1 284.8 287.8 299.7 304.2 313.2 324.5 332.6 347.1 359.5 378.2 395.4 412.6 432.4 456.3 487.1 518.7 557.4 591.8 634.9 683.1 713.9 729.9 736.7 720.7 704.4 687.2 668.4 642.1 610.9 583.3 555.4 539.1 519.8 492.3 488.8 477.8 464.8 449.4 435.4 424.9 419.8 416.8 422.2 433.1 448.1 461.5 485.7 510.4 538 567.5 598.6 628.2 643.9 654.3 652.8 653.6 650.5 639.7 622.4 609.5 596.6 582.5 572 563.6 548.6 538.4 531 523 510.7 519.3 532.4 548.7 565.3 577.3 594.3 615.3 629.4 646.7 669.1 688.6 709.4 736.3 759.1 799.2 837.6 872.7 889.5 892.9 868.5 847 840.2 831.9 827.3 819.4 821.6 820.7 808.3 791.3 778.1 762.2 754.1 734.8 717.6 700.7 687.1 680.9 676.4 684.1 695.9 705.2 715 723.7 739.6 749.7 766 778.8 788.7 791.5 796.5
668.2 646.7 622.4 603.2 585.1 573 561 548 532.9 518.3 504.7 488.6 474.1 464.7 452.3 440.3 427.1 412.2 400.3 386.6 368.1 358.3 345.1 331 320 308 293.5 280 271.5 260.5 251.1 245.9 240.1 231.5 226.2 222.8 218.5 212.6 208.7 205.4 206.3 200.7 199.9 200.7 202.3 202.3 202.1 202.5 202.1 202 202.7 203.7 204 203.2 204.1 207 210.3 212.3 213.8 218.3 221.7 224.4 226.5 228.7 232.3 233.8 237 238.4 239 240.1 239.5 239.7 240 240.6 240.7 241.3 243.7 250.4 256.9 264.2 270.8 269.4 283.2 289.4 296 302.9 310.6 319.4 331.4 343 357.7 371.9 392 410.2 432.8 458.3 494.8 522.9 555.9 592.6 640.6 683.5 700 719 716.7 701.2 680.3 665.6 644 613.1 586.2 568.5 547.3 527.5 505.9 495.7 482.9 469.4 454 442.1 427.7 418.9 416.9 420.6 431.6 444.2 462.8 479.9 501.3 531.9 560.6 590.7 622.3 648.6 655.3 659.8 661.1 658 653.4 638.3 622 607.4 595.9 586.3 577.2 566 555.4 544.8 535 526.7 526.4 537.9 552.7 568.3 582.7 597.3 613.9 627.8 647.6 668.3 688 707.2 733 758.6 799.6 835 872 892.4 892.4 873.9 846.2 842.2 837.3 823.1 819.4 818 821.6 797.9 779.8 769.2 747.4 732.5 715.7 699.6 681.1 667.3 661.1 659.4 664.2 670.7 682.9 687.2 704.9 718.2 730 744.7 760.1 768.7 772.8 784.7
680.4 656.3 630.1 609.7 592.1 581.1 568.3 555.1 539.7 522.4 508.3 497.6 485 474.7 462.5 448.7 437.3 422.4 407.3 391.9 381.3 367.5 353.2 340.4 329.1 314.1 301.2 289.6 279 269 259.3 253.2 246 237.6 230.4 225.8 220.2 214.7 210.7 209.1 210.8 202.1 201.5 201.6 202.8 203 203.2 203.9 204 203.9 204.1 204.1 205.5 204.6 205.7 210 212.2 215.1 218.8 224.7 228.1 230.3 234.7 238 238.8 241.3 244.7 245.9 248.7 248.5 249.6 251 249.7 251.7 250.7 250.7 249 244 247.6 248 253.3 263 264.6 280.4 288.4 292 297.5 307.1 316.4 325.2 338.3 354.1 371.2 389.8 409.3 431.1 470.1 494.9 524.1 554.9 590.6 638.3 670 680.4 686.2 690.7 668.7 658.7 642.8 615.8 599.3 580.8 557.9 532.1 515.4 500.9 487.9 474.8 461.4 447.1 433.1 420 417 419.9 427.2 441.8 458.1 477.5 500.5 525.9 556.1 583 615.4 638.6 658.9 665.5 665.5 667.1 662 648.4 634.8 622.8 608.4 598.4 590.3 583.4 569.5 558.3 547.2 542 534.3 544.6 557.4 573 587.6 600.9 613.5 629 650.5 669.1 688.3 707.5 727.6 759.1 800.5 837.9 873.1 889.1 893.5 876.8 866.6 855.6 838.3 822.9 820.1 814.9 809.8 791.7 777 759.6 742.1 726.6 709.3 679.7 660.4 654 650.8 647.2 650.4 656.6 664.2 676.5 684 693.3 708.3 722.5 735.7 744.1 757.1 770.3
690.1 661.8 635.9 617.6 600.3 586.3 573.9 559.1 544.7 530.8 518.8 507.2 494.9 482.9 471.3 457.9 442.1 430.6 414.9 404.3 390.6 376.5 363.3 350.4 337.5 322.3 311.2 299.2 287.9 277.6 268.4 258.2 249.9 244 235.8 229.3 223.3 215.7 213.5 215.1 209.9 210.4 203.3 202.6 203.3 204.7 204.5 204.7 205.2 205.5 206.3 206.1 206.5 204.7 207.3 211.2 217.3 220.7 224.7 235.7 238 239.5 244.3 247.1 248.7 250 253.4 255.7 258.1 256.6 257.6 262.5 262.2 264.5 263.4 263.6 262.3 259.9 258.3 253.5 252.7 250.1 255.9 272.6 277.8 283 286.2 293.6 300.7 313.2 319 333.1 354.8 368.8 388.3 410.2 435.9 467.9 493.1 524.2 550.5 585.4 634.1 650.5 654.1 661.7 657.5 650.6 637 629.8 608.7 587.9 564.4 546.2 528.5 509.1 493.8 481.8 465.2 449 436.5 424.6 417.7 418.1 422.5 436.2 453.8 475.6 497.9 522.2 548.5 578.9 607.4 633.9 660.9 669.2 675.9 677.2 674.6 663.6 651.3 640.9 623.9 612.6 605.1 596.1 576.3 570.5 557.8 555.2 551.8 550.5 564.4 577.1 590.9 603.1 615.4 628.8 649.9 667.4 687.5 708.7 727.9 758.3 798.3 834.8 870.1 878.3 887.4 881.4 874.6 872.9 856.8 839.7 830.3 827.6 811 785.2 771.5 751.6 733.7 718.7 692.9 664.8 657.5 645.7 642.5 641.6 641.1 647.3 649.6 661.4 666.3 676.3 686.7 699.3 716.6 730 740.2 753.8
694.9 670 641.9 622.8 606.6 592.1 579.9 566.5 554.3 541.1 527.1 514.4 505 492.3 479.2 467 452.7 437.3 425.6 412.5 398.3 386 372.3 359.2 346.6 332.4 321.5 308.4 296.8 286.4 276.4 265.4 254.5 247.9 240.6 234.8 225.5 222.3 218.9 216.6 214.5 207.4 204.6 203.2 204 205 205.4 205.5 206.7 206.6 207.2 207.5 207.9 207 211.2 214.1 222 227.3 234.1 246.7 247.3 249.2 255.2 257.6 260.2 262 265.1 267.6 269.8 271.9 274.5 276.5 276.9 279.1 279.4 279.1 279.1 276.5 273.1 270.3 267.6 263.1 257.4 254.2 254.9 261.5 273.8 282.8 287.8 293.2 306.6 323.1 333.5 351.1 370.3 390.5 413 440.5 468 494.6 521.8 547.4 588.2 617.9 628.3 638.3 640.4 635.6 629.1 630.4 612.9 591.5 574.8 562.6 543.3 518 501 486.4 467.1 454.1 438.4 425.5 417.6 418.1 420.3 435 451.6 467.4 485.6 513.1 540.5 573.6 601.1 631.4 657.9 672.5 684.1 683.4 685.7 675.6 661.9 648.9 635.6 624.4 616.5 600.7 590.3 585.9 577.5 570.2 565.6 562.9 568.5 581.9 595.3 603.9 616.9 629.9 647.9 666.2 688.5 707.6 727.6 758.3 803.4 828.5 862.5 878 878.2 891 885.5 890.8 879.8 865.4 853.9 840.8 815.6 796.7 769 751.2 731.2 710.6 695.5 660.3 648.8 642 638.6 637.1 636.6 640.9 640.5 647.3 654.5 664.3 669.2 681.4 698.1 710.9 725.7 738
702.5 673.7 647.6 629.7 614.3 601.9 588.4 576.1 563.1 549.2 536.9 525.6 512.2 497.6 486.8 474.6 461.8 450.1 434 419.3 407.3 395.7 383.1 366.1 355 341.9 331 322 305.8 293.9 283.5 273.4 262.1 252.2 246.2 236.3 233 227 222.9 218.6 212.9 211.3 209.5 203.7 204.8 206.2 206.3 206.3 207.1 207.3 208.3 208.6 207.3 213.8 216.4 221.8 227.4 236.8 240.4 250.9 258 260.9 267 270.6 274.1 276.6 279.4 283.1 284.6 289.5 290.5 294.3 296 298 298.4 298.9 299.5 295.9 295.8 289.8 285.3 278.7 270.4 266.4 262.2 262.6 262 265.1 281.3 286.5 298.8 305.9 317.2 332.9 353.2 373.7 393.4 417.4 442.6 466.1 492.5 519.6 546.6 581.3 605.1 618 623.3 615.6 615.7 621.6 615.7 595 583.7 570.8 551.8 528.4 506.4 487.4 473.5 458.5 440.8 429 419.5 418.1 422.1 432.2 446.3 461.2 481.2 506 532.9 566.4 596 626.1 653 676.4 686.4 693.4 695.4 694.2 677.8 660.2 646.6 636.8 621.1 611.6 609.6 600.5 594.1 586.9 582.8 577.2 575.3 585.4 595.9 610.3 618.9 632.9 647 667.9 689.9 708 731.7 756.2 790.8 820.7 855.5 874.1 878.4 888.3 893.2 904.1 906.8 904.2 886.6 858.7 830.6 802.2 775.6 752 733.8 703.5 683.7 661.4 651.4 644.3 640.2 633.1 633.3 636.4 638.7 637.9 644 650.6 656.9 671.5 679.1 689.8 706.1 722.2
709.3 678.7 655.6 636.7 622.8 608.8 597.5 584.6 571.9 558.2 543.4 531.9 517 505.7 493.3 482.9 469.1 457 442.6 428.8 417.1 405.6 390.3 376 363.7 350.2 338.1 326.2 313.9 300.7 289.8 278.8 267.6 257.9 252.2 245 237 233.2 225.4 222.6 220.5 213.2 212.5 205 204.9 207.6 207.4 207.4 208.4 209 209.8 209.9 215 221.2 227.3 231.8 237.3 243.7 252.4 261.1 268.3 272.2 278.5 285.3 288.1 291 297.7 299.9 303.2 310.2 315.4 317.4 321.6 321.7 323 322 322.6 320.1 319.2 312.1 304.8 299.1 287.2 281.4 280.4 274 268.2 266.4 265.6 282.6 285.5 296.2 309.6 322.3 336.7 358.4 375.1 397.4 419.5 444.3 467.5 491.9 514.8 548.3 576.6 586.2 592.1 587.1 602 607.9 606.3 599.9 591.8 573 552.9 531.4 511.4 493.3 479.5 462.1 444.9 431.6 420.1 418.1 421.1 428.3 439.8 455 479 497.1 530.2 560.5 592.5 623.1 651 683.8 691 700.8 706.7 710.5 700.6 679.8 662.2 644.6 629.2 630.8 624 615.3 609.4 603.4 598.2 591.3 589 585.9 598.4 609.5 619.7 632.1 647.9 671.5 690 709 730.7 757.9 793.9 820.5 850.6 861.2 874.2 884.6 893 902.9 917.1 936.1 916 868.9 839.4 810.5 784.7 761.5 732.7 699.7 672.7 662.1 653 638.5 632.8 630.7 631.9 632.2 629.3 632.1 637.7 643.7 654.7 656.7 664.7 674.5 686.4 703.6
716.9 687 662 645.6 631 617.9 604.9 591.2 577 564.4 549.3 541.1 526 511.5 501.2 489.5 478.1 464.7 452 438.6 422.9 413.2 399.2 385.7 370.8 357.5 346.6 334.4 321.9 308.6 296 285 273.3 262.8 256.1 249.2 242.3 239.2 232.1 227.6 222.9 218.7 215.7 208.1 206.9 212.3 208.6 208.7 209.2 209.5 210.8 211.1 216.1 229.4 236.9 243.9 247.8 256.5 266.4 274.6 279.7 285.8 292 301.6 304.2 310 314.5 319.3 322.1 332.7 340.9 339.6 345 350.5 350.7 351.6 351.9 349.3 346.3 337.2 329.2 317.2 308.4 299.1 293.7 286.8 278.5 278.2 275.3 267.7 269.4 291 299.6 309.7 322.1 341.3 358.2 378.3 400.7 420.1 442.2 466.5 491.9 513.2 544.8 559 564.6 565.1 585.9 597.6 600.6 602.2 595.9 576.9 553.3 532.6 518.9 497.8 482 466.1 448.5 432.3 420.3 418.3 420.8 429.8 442.5 456.6 481.8 501 523.8 556.9 587.2 623.1 652.3 682.6 696.5 709.5 716.4 725.9 720.7 701.2 682.5 666.4 652.2 646.5 637.1 630.2 622.6 617.6 612.5 606.2 601.8 602.4 604.3 613.7 622.5 638 653.8 669.1 688.3 711.2 734.4 764 789.1 823.9 839.5 852.2 863.4 875.4 886.2 900.4 915.9 944.3 931.3 891.1 851 825 799.9 771.3 739.2 716.2 680.3 663.1 650.7 637.6 632.9 629.2 629.7 629.2 627 625 625.3 635.8 639.2 640.4 649.6 659.7 671.2 683.6
725.3 698.1 669.6 652 638.4 624 610.8 598.4 584.1 571.4 558.4 546.8 534 521.1 509.1 495.3 484.7 473.2 460.4 445.9 433 420.9 406.1 395.2 379 365.9 354.6 342.6 329.8 315.2 302.8 291 277 270.4 263.6 256.6 250.3 244.7 237.4 231.7 226.6 222.7 218.6 213 208 210.5 209.3 209.9 210.6 211.1 211.9 212.3 226.5 236.9 245.9 254.2 262.8 270.2 278.9 287.8 296 297.8 307.7 315.1 319.9 331.9 335.2 342.4 346.7 354.4 362.1 364.4 368.8 377.7 381.1 382.4 383 381.3 377 369.8 357.5 345.6 330.5 320.1 309.2 299.8 286.7 293.8 287.1 272 270.3 272.7 288.1 297.9 309.4 326.1 343 362.3 378.8 398.2 420.4 440.2 463.9 490.7 518.3 537.1 539.9 547.4 566.7 583.1 592 595.5 590 572.9 547.7 539.2 525 499.5 483.1 466.9 447.3 428.9 419.7 418.6 421.3 431.2 442.4 458.6 479 494 521.3 552.6 583.9 619 648.7 680.7 697.9 711.8 724.7 737 730.3 715.3 697.4 679.8 670.9 661.1 651.6 643.4 636.5 632 624.7 621.6 614.1 610.8 607 617.4 630.9 642.6 656.1 672 691 711.7 737 766.1 785.5 813.3 834.2 844.6 857.1 864.4 881.8 896.9 920 949 952.7 923.3 882.9 853.6 814.2 783.8 745 714.5 686.6 671.1 655.2 643.6 634 630.2 626.3 629.6 623.6 622.6 618.9 625.1 629.3 627.1 639.2 651.6 653.8 665
732.9 703.5 677 658.7 644.6 630.2 617.8 603.9 591.4 577.8 564 551.6 540.3 527.2 515.4 503.8 492.4 478.6 466.3 453.4 440.5 426.9 416.5 403.9 388.6 374.9 362.6 347.8 334.3 322.5 311.9 297.2 286.8 278.4 270.5 261.8 256 249.2 241.8 235.7 230.8 227.8 223.8 216.2 212.8 209 211.4 213.4 211.7 212.3 213.3 218.1 230.2 239.7 251.2 260.9 271.3 282.1 292.6 302 311.1 315.3 325.1 331 338 345.9 356.8 364.3 372 378.4 387.2 393.3 398.7 404.7 411.5 416.6 418.6 424.9 413.4 400.4 389.1 376.2 359.5 342.4 326.8 316.5 301.5 303.5 295 285.5 276.3 272.5 284.2 295.6 304.6 315.3 327.3 343.3 362.1 383.1 399 419.8 439.8 470.8 494.7 512.3 516.3 527.3 546.9 563.9 576.6 584.3 580.8 565.1 546.7 537.8 520 499.5 484.4 465.3 446.5 429.1 419.4 419.3 422.2 432.6 444.2 459 475.3 494.7 522.6 552.8 583.6 618 647.9 679.4 696.7 717.4 732.8 744.3 738.8 729.9 709.9 695.8 685.8 673.7 664.7 654.9 651 643.3 639.3 635 629.3 624.7 621.6 632.9 641 650.1 663 674.3 693.2 715.7 738.7 761.6 781.5 805.5 825.2 835.4 847.8 862.3 879.8 889.7 914.9 934.8 945.9 943.5 929 892.4 840.5 798.8 761.1 729.1 699.2 677.7 658.8 644.2 634.6 627.2 623.3 624 621.3 613.9 611.2 612.7 618.4 621.1 631.2 635.8 641.5 649.6
739.6 712.8 687.2 667 652.6 637.2 625.7 610.7 597.2 583.4 572 557.2 545.8 533.3 522.4 510.8 498.2 486 473.8 460.9 447.9 436.7 422.7 410.6 395.5 383.4 369 354.4 343 327.1 317.1 305.6 292.5 284.5 276.5 270.1 262.4 254.6 246.2 240.5 233.6 231.2 223.9 219.4 215.9 210.6 217.9 213.8 212.4 214 214.1 222.9 233.1 241.4 253.6 266.4 280 291.9 302.3 314.7 324.9 334.4 338.8 352.2 361.5 372.8 378.6 386.2 396.7 403.7 411.1 418 430.9 433.9 436 449.4 456.5 460.8 448.4 433.3 423.1 413 395.2 370.2 347.4 331.7 320.1 316.9 305.8 294.4 286.5 273.6 280.5 290 302.5 307.9 317.3 330.4 345.6 365.3 381.2 399.2 418.7 442.6 468.4 486.8 495.6 509.6 525.1 538.6 550.3 558.3 571.9 566 544.7 533.4 515.4 499.1 480.6 460.7 444 426.2 417.8 420.4 424.2 432.8 446.8 462.5 479.1 499.7 522.7 552.3 584.3 618.7 648.2 678 696 723.1 738.2 745.7 744.4 746.5 729.5 719.1 704.4 692 687.1 681.3 673.9 669.1 661.7 651.6 654 643.9 642.4 640.6 649.3 657.1 667.9 679.4 697.8 715.4 738.5 756 774.2 792.4 809.6 824.7 836.5 860.8 871.1 881.7 913.8 922.4 935.7 942.7 940.5 926.7 885.8 823.2 784.5 751.5 710.9 690 669.2 653.8 641 633.7 625.6 618.5 616.4 611.4 613.5 609.9 608.6 616.2 617.1 625.1 627.6 635.1
747.2 723.9 699.9 677 659.9 645.4 634.2 618.6 603.9 593.2 581.2 564 552.1 540.6 529.2 515.8 503.2 494.8 479.5 468.3 454.2 439.6 429.7 416.3 400.9 386.3 371.5 358.5 343 336.7 328.9 314.5 303.1 293.2 287.4 275.9 268.6 258.9 250.9 243.7 237.9 231.3 228.9 223 218.4 214.3 217.9 215.4 213.9 215 214.1 230.1 237.8 249.3 260.3 273 284.7 299.5 312.9 324.1 338 351 359 374.4 387.4 398.6 409.3 415 421.6 430.5 439.6 450.4 458.5 463.2 474.8 481 488.2 485 473.4 455.3 442 430.5 416 392.7 372.4 351.8 344.2 331.5 317.4 304 292.7 287.6 278.2 281.7 291.1 299.8 308.8 320.5 334.7 349.1 369 383.5 401 424.6 443.3 463.3 476.2 489.9 503 515.1 537.1 540.7 554.6 561.4 541 529.8 509.6 489.5 473.4 457.5 437.7 422.5 416.8 421.3 426.3 435 448.4 463.1 481.6 502.3 527.7 552.5 583.6 618.6 647.5 677.1 699.7 725.4 735.4 750.5 752.4 756.3 756.3 746.8 740.2 742.4 727.3 717.4 702.9 701.1 695.8 679.6 672.5 667.7 658.4 651.5 655.1 662.8 672.7 687.9 701.3 717.1 737 749.8 771 780.7 796.9 810.3 828.8 848.1 860 873.9 905.9 907.6 919.2 931.5 937.3 939.1 888.3 847.7 810.2 767.1 737.6 708.6 689 669 656.4 644.1 631.8 624.2 618 616.5 606.1 598 597.8 601.5 607.7 610.7 616.3 624.7
754.6 735.2 714.1 692 675.5 652.8 639.7 624.9 610.7 599.6 587.1 572 558.4 547.7 535.5 524.9 511.3 499.8 487.2 474.3 459.5 446.4 434.5 420.2 408.4 393.1 377.8 367.3 356.7 347.2 336.4 324.6 313.1 302.9 293.1 282 273.6 266 256.8 247.6 241 235.1 232.4 227.4 222.6 217.6 215.1 215 215.1 216.8 215.8 234.7 244.8 256.6 265.8 278.4 290.8 307.9 322.2 336.6 349.6 366.9 379.9 396.4 411.7 423.1 435.6 442.1 450.5 460.2 469 478.1 486.8 501.8 509 518.5 517.7 503.6 490.8 476.5 460.4 445.8 431.1 411.8 392.1 373.9 363.7 345.2 330.5 315.9 297.1 297.8 285.9 281 286.8 295.7 303.7 314.2 326.4 340.3 353.6 369.3 384.8 403.2 422.9 439.8 458.1 470.8 479.2 496.6 511.6 525.1 532.1 548.3 539.6 518.4 497.9 481.5 467.5 448.9 431.8 416.9 416.1 421.3 427.6 437 451.1 468.4 481.7 502.2 520.7 557.2 583.6 621.6 649.8 675.7 707.9 722.8 737.3 746.5 757.1 759.3 773.5 776.4 784.1 779.3 774.5 759.2 747.6 740.1 721.1 708.1 700.2 699.2 667.9 662.1 666.8 664.5 677.9 691.6 701.8 720.3 737.1 745.8 764.5 774.5 784.7 804.1 817.6 833.7 841.7 858.7 885.3 891.2 894.1 908.2 923.5 944.5 922.5 886.9 830.1 804.1 772.6 745.3 710 685.5 665.5 650.9 645.4 630 620.4 612.8 604.8 602.7 592.8 593.8 599 606 608.9 614.8
761.4 745.3 726 706.5 689.1 662.9 646.7 633.2 621.6 607.9 594.4 578.9 564.3 552.8 543.2 530.3 517.3 505.8 492.8 481.3 465.1 454.2 439.2 427.8 412.4 399.7 389.4 381.2 365.7 356 342.1 334.2 324.9 312.7 301 288.8 278.9 271.2 261.5 253.1 245.2 238.4 233.9 229 224.5 220.9 215.7 216.5 217.4 218.5 216 228.8 248.8 259.1 272.1 286.3 298.1 313.6 331.9 346.1 367.7 380.6 400.9 417.5 434.1 447.7 457.9 469.7 479.2 488 493.8 508.7 519 533.6 540.2 537.7 540.8 527.2 505.9 492.7 475.4 462 445.8 427.5 408 400.4 380.5 362.1 343 331.7 313.8 304.9 296.9 291.4 283 289.8 299.9 309.3 321.8 332.7 345.7 360.1 370.9 391.7 406 426.2 439.2 444.3 467.9 478.7 490.9 501.7 510.9 520.3 524.1 503.1 484.8 470.4 457 439.5 423.3 409.7 413.6 419.5 428.9 438 450.2 466.8 483.6 503.4 531.2 559.6 591 623.5 651.7 679.9 709.1 726.6 742.9 748.2 758.5 766 779.9 791.1 800.6 796.2 803.1 799.1 796.9 784.6 756.4 730.8 714.3 696.7 686.5 674.6 671.5 671.5 681 691.5 700.2 716.5 729.1 737.4 750.9 765.3 781.5 795.3 809 822.9 832.3 837.5 858.2 870.2 875.5 881.7 910.7 921.4 916.8 897 885.5 859.6 804.1 778.3 753.2 718.3 679.6 659.3 643.8 635.9 619.1 608.9 603 603.5 590 584.8 589.2 596.7 601.1 607
770 754.9 738.9 719.7 700 674.6 654.2 639.5 627.8 614.7 598.4 585.9 570.9 559.7 548.5 536.3 522.4 512.5 498.7 486 473.9 461.6 447.7 432.7 420.2 410.9 398.9 388.4 376 363.2 353.3 346.8 335.8 321.3 308.7 296.6 285.6 273.8 268.3 259.4 247.5 242.6 237.7 234.6 229.5 226.1 218.1 217.2 218.5 219.5 217.9 235.9 249.2 263.8 276.8 292.3 307.6 324.1 338.8 355 379.9 396.4 419.9 438.4 457.2 470.3 485.4 497.8 508.7 517.2 525.9 540.2 557.1 566.9 573.1 565.4 554.2 547.1 524.5 506.8 490.6 474.9 459.3 445.5 429.4 419.8 398 376.6 359.9 337.1 329.8 316.2 308.5 301 298.7 292.3 292.7 293.1 303.3 320 337.8 348.6 362.9 374.9 393.4 408.8 422.5 436.9 449 459.4 469.6 480.2 489.1 494.4 493 488.6 478.1 459.4 447.1 429.9 414.8 408.3 412.9 418.8 432.8 447.4 457 470.2 488.5 510 537.4 560.5 592.9 625.2 654.6 682.8 709.3 731.8 744 753.8 760 772.5 787 797.2 809.6 813.1 823.1 828.2 841.5 830.3 779.7 756.2 735.1 706.4 688.5 684.2 681.8 683.2 685.6 693.5 698.5 714.5 725.4 735.4 751.1 766.6 769.9 786.3 802.9 812.9 820.2 826.1 839.2 853.4 861.6 868.3 879.1 892.9 887.2 883.4 875.3 871.4 843.3 804.5 775.3 738.1 698.2 676.4 653.8 640.5 630.2 611.8 597.9 591 582.8 581.1 585.7 587.2 592.4 597.2
779.1 762.9 748.2 727 706.3 682.5 662.5 649.3 633.3 621 605.1 591.6 577.1 567.7 554.5 541.9 528.4 517.2 500.3 493.1 480.1 468.4 458.2 434.6 435.4 420.5 409.8 399.7 385.7 371.6 363.2 353.3 343.1 331.5 318.4 305.8 290.9 281.1 273.6 261.2 252.4 246.7 240.4 239 233.6 232.2 223.1 220.3 219.9 220.8 219.9 232.7 252.2 263.6 281.5 296.2 314.9 331.4 354.6 369.2 393.1 412.7 436.2 460.2 478 494.7 511.3 524.6 536.3 546.7 559 575 589.8 598.7 596 587.1 570 552.9 539.1 519.8 504 488.5 474.8 462.4 451.4 434.5 409.8 391.5 367.4 361.3 341.2 326.7 318.6 311.1 309.6 306.4 305.3 301.2 304.2 305.2 320.1 333.9 348 364.1 381 397.7 407.5 417.2 428.8 441.7 455.1 466.2 475.4 480.2 480.7 474.6 461 447.1 433.7 419.8 408.5 407 412 420.9 432.5 447 464.1 484.5 501 519.2 547.5 578.2 604 631 663.7 689.2 711.5 734.1 745.4 754.8 761.3 771.1 797.8 802.3 811.8 825.6 835.8 847.8 850.7 849.4 811.8 784.6 760.9 728.3 705.6 696.2 694.7 694.6 695 695 700.6 710.8 715.9 730.2 747.8 759.8 766 779.7 796.3 805.4 813.1 817.4 825.7 843.3 847.5 859.8 861.2 864.5 862.5 862.7 862 861.5 855.6 843 798.7 764.4 726.8 703.1 672.5 657.9 642.7 616.1 599 586.9 581.3 577.1 578.1 577.1 582.9 586.3
785.8 772.3 757.1 737.7 715.1 689.5 669.4 654.7 639.5 626.3 612.7 596.3 584.5 572.2 560.8 547.8 534.3 522 510.2 496.4 486.6 477.1 460.5 455.9 445.3 433.4 421.8 409.7 392.7 382.5 374.3 364.3 354.5 340.1 325.4 313.8 301.1 287.2 279.5 269.3 259.2 250.9 245.7 241.7 238.6 232.4 226.1 220.7 221.7 222.7 221.2 234.4 256.5 268.2 283 301.1 319.6 338.6 360.8 378.2 401.4 430.1 450.6 477.8 501.6 518.2 537.4 551.6 565.1 579.1 596.6 610.2 620.7 619.7 614.2 601.7 582.1 565 549.6 533.4 519.7 507.5 491.7 478.8 469 445.5 422.9 400.6 391.9 368.6 358.2 345.2 331.5 323.9 321.4 317.6 314.1 308.7 311.2 313.4 317.6 328.3 342.1 354.1 369.9 382.8 395.9 405.6 414.4 427.9 441.3 453.7 462.2 467.6 469.6 461.5 445.4 435.2 421.9 410.6 402.3 405.9 415.2 425 438.6 459.8 475.5 495.3 515.9 540.4 566.9 591.5 615 651.5 673.3 699.3 718.7 734.2 743.2 752.7 761.7 780.4 798.1 804.9 816.1 835.4 845.7 850.6 852.3 855.3 847.2 819.5 776.8 749.1 726.8 714 708.8 703.8 700.4 699 700.2 705.9 713.8 724.4 745.3 753.2 757.1 772.5 791.1 802.3 807.5 809.9 820.8 823.2 830.6 846.9 843.4 838.9 842.1 846.6 848.1 852.5 856.8 851.5 831.4 778.8 749.6 721.2 694.9 675.4 653.3 632.7 617.4 594.5 584.9 578.7 571.6 569.2 572.6 576
790.7 782 766.4 748.1 722.1 695 673.9 662 642.7 629.4 616.1 604.3 589.4 576.7 563.9 553.3 539.7 524.7 514.9 504.6 491 484.6 473 462.2 454.8 442.9 427.8 416.4 405.1 392.9 384.1 373.6 360 348 335.5 323.4 310.1 294.8 285.2 271.7 264.4 256.4 249.4 245.9 239.6 234 228.2 222.2 222.9 224 223.2 237.4 254.7 272.6 284.2 302.2 320.9 341.7 365.6 390.5 412.8 437.7 467.8 491.7 518.6 541.5 561.9 580.8 597.8 615.5 634 645.3 644.7 639.6 631.4 616.5 594.7 576.6 562.5 548.1 535.6 521.7 511.6 498.8 478.6 458.1 435 422.9 401.2 388.6 375.8 358.5 348.3 340.3 333.3 331.3 329.4 319.7 321.5 324.1 325.9 328.3 339.3 349.1 358.9 370 383.2 392.1 401.8 415 427.9 439 445.8 450.7 449.9 445.7 432.4 420.8 411.6 403.7 401.2 407.6 417.2 434.9 451.7 471.3 492.6 511.2 533.2 561.1 584.1 606.1 631.3 661.4 685.2 709.2 722.6 737.2 745.6 756.1 764.7 782 793.4 802.6 820.7 832.1 850.8 851.7 851.2 863.4 868.5 835.3 803.1 772.8 751.6 734.8 722.8 712.8 707.1 703.7 704.7 708.3 712.9 720.1 739.7 749.8 753.7 770.1 786.4 794.5 798.7 800.3 814.1 818.6 819.6 831.3 827.4 825.7 822.1 828.1 831.3 838.3 853.5 857.2 852.5 832.7 796.2 761.1 725.9 719.5 696 664.1 639.2 613.2 593.8 585.4 577.7 568.4 565.4 567.3
792.3 788.2 777.3 760 729.8 697.3 676.2 665.2 647 633.6 621.2 607.8 595.8 582 569.7 557.9 548.5 535 522.3 507.6 500.7 490.3 480.6 468.1 460.1 447.9 439 427.7 415.5 406.1 391.2 379.9 366.1 353.6 340.5 330.1 314.1 300.6 288.7 279.7 271.3 262.1 254 249.9 241.7 236.4 231.7 224.9 224.6 224.9 225.4 238.4 256.1 271.4 287.7 305.9 326.9 347.5 371.9 399.8 424 452 481.4 507 537.1 561.9 586.5 608.2 631.8 652.5 666.9 667.5 664.6 657 646.4 631.4 610.3 588.4 576.6 564.3 553.7 538.1 524.1 514.6 490.1 471.6 459.5 439 422.8 407.3 388.9 377.1 362.1 358 347 340.4 337.3 334.6 330.5 334.1 334.2 335.9 331.6 341 355.5 368.7 377.6 382.1 390.6 400.5 412.5 422.4 429.6 432 431.1 429.3 419.1 411.3 405.6 396 403.8 417.5 432 446.5 469 487.5 506.7 527.5 550.3 578 601.5 621.6 652.6 675.9 696.7 711.2 725.7 737.4 748.4 759.5 772.5 783.5 790.5 801.2 815.2 828.3 847.4 842.7 855.8 866.4 874.8 878.2 842.1 811.4 781.5 762.2 738.7 724.2 712 708.1 706.7 707.9 710.2 722.2 735.4 743.8 751 767.6 774.2 785.6 787.5 790.9 801.9 801.4 817 819 812 810.5 809.1 814.4 820.9 830.7 839 844 847.3 836.1 827.8 815.1 768.7 755.7 729.8 706.7 676.6 651.8 614.7 589.6 581.1 569.1 561.1 558.1
795.5 794 783.8 767.3 734.2 704.3 681.7 665.6 652.3 636.7 626.1 614 599.8 587.1 575.3 564.4 552.3 540.9 528.2 520.6 510.6 497.3 486 476.5 464.5 461.5 449.8 437 425.3 414.4 399.8 385.8 374.4 360.8 347.3 335 321.9 309.3 292.6 286.4 275.9 266.5 257.8 251.3 244.9 240.5 234.3 226.6 226.2 226.7 227.1 235.9 251.9 272.3 289.9 307 327 351.2 377.4 405.7 432.9 464.3 493.3 523.9 556.8 581 609.4 633 654.3 674.9 686.3 688.2 682.6 674.2 661.8 640.6 622.2 603.2 590 578 565.8 551.5 539.2 524 505.9 491.8 476.6 458.1 440.2 427.7 411.4 394.6 382.4 370.7 364.7 352.9 352.1 347.9 352.1 353.9 349.3 343.1 340.6 340.6 343.2 361.8 371.7 381.7 386.7 391.4 394.6 401.6 409.5 414.4 416.9 415.4 409.1 405.7 397.5 401.1 412.4 426.5 444.9 462.2 483.8 501.7 524.1 544 570.2 599.6 617.4 634.9 668.5 686.2 701.8 714.1 726.4 737.9 751.1 762.4 771 780.8 786.5 799.8 807 826 833.1 844.4 853.8 857.6 872.5 875.8 867.4 849.2 821.7 799.6 756.1 741.2 721.7 717 711.7 712 715.7 727.1 727.2 739.5 746.9 757 762.9 772.3 771.3 780.1 786.7 796.8 814.7 803.7 797.5 799.5 801.3 804.2 810.2 820.6 823.5 828.1 830.9 826 821.5 820.6 808.7 789.3 766.4 747.4 720.6 684.7 646.6 610 598.8 575.9 562.6 556.9
796.1 792 786.1 771.6 742.3 715.6 691.7 670.6 658.6 644.7 632.5 617.3 603.7 592.7 580.9 572.3 558.8 547.2 539.2 527.2 515.9 505.1 494.4 481.8 473.2 467.3 456 448.4 435 422.9 409 395.7 384.6 369.4 354.6 342.6 328.1 315 301.3 291.6 280.8 270.8 261.8 254 247 241.2 235.3 230.1 227.9 228.2 228.6 229.6 251.3 273.9 291.3 308.6 329.1 354.1 382.4 412.6 443.1 476.2 507.2 536.4 569.7 595.9 620.5 642.9 670.2 692 699.7 703.8 699 688.6 672.5 653.2 632 614.7 601 586.8 574.4 564 551.4 526.6 526.6 513.5 498.3 482.6 464.1 449.4 430.4 413.2 399.4 386.9 378.7 370.9 369 372.2 378.4 375.6 363.4 353.6 351.3 349.8 344.2 363.7 373.2 377.6 380.6 383.5 387.8 392.5 396.9 401.3 402.5 402.3 403.6 398.7 394 406.6 421.7 439.8 460.2 479.5 497.1 518.8 543.2 569.2 594.6 612.2 631.7 655.8 681.1 695 707 718.1 729.9 742.8 756.6 764.9 773.9 779.1 783.8 793.6 803 817.1 827.8 841.9 851.7 853.3 866 873.9 877.5 859.7 851.6 807.5 777.4 760.7 739.7 728.2 722.8 719.8 719 720.1 723.5 735.8 744.6 752.6 752.6 760.6 760.7 764.8 777.2 789.9 801 789.6 788.7 797.7 801.6 800.2 799.5 806.2 812.6 818.2 819.3 819.3 813 813 811.7 818 808.9 784.5 752.6 704.4 669.8 633.6 615.5 595.4 566.4 556.4
795.7 792.6 788.5 774.5 750.9 725.7 700.7 676.4 661 648.1 637.3 622 611.5 598.6 586.7 577.5 566.3 556.4 547.7 535 520.8 511.3 502.4 492.2 482.4 474.2 466.8 457.7 443.4 430.2 418.1 402.9 392.8 378.7 361.4 348.3 335 320.1 307.7 296.4 286.5 274.2 269 258.1 249.7 244.1 239.1 232.5 230.1 230.4 230.4 230.3 254.3 272.7 289.9 310.8 329.5 352.2 385.1 418.9 453.7 483.9 518.1 546.4 575.1 601.1 624 650.7 676.1 701.7 711.3 712.8 710.1 702.3 685.3 660.6 641.4 626.5 611.3 597.3 586.4 575.9 561.2 555.6 546.7 535.9 521.2 505.4 485.4 466.8 453.1 438.9 422.9 407.8 396 391.4 392.7 393.4 395.6 389.1 377.9 370.8 361.3 356.2 349.5 363.1 369.5 372.5 374.2 374.2 369.4 377.1 382.6 387.1 388.3 392.9 388.3 389.1 403.2 414.7 432.5 454.8 474.6 494.2 516.9 541.1 567.3 590.1 608.4 628.4 649.4 675.9 691.2 704.8 712 724 738 748.1 764.3 768.5 773.9 778.2 783.8 793.5 805.1 814.2 826 839.8 848.6 849.3 858.4 874 870.3 868.3 866.5 836.5 799.4 776.8 757.6 746.2 731.4 728 726 724.7 726.1 726.7 732 745.8 735.8 738.3 741.4 746 762.9 777.3 775.9 780.3 781.4 784.6 790.7 793.5 790.1 793.3 801.2 802.3 808.2 805.8 804.2 805.3 810.7 821.6 825.2 810.1 777.1 721.8 677.7 651.4 616.2 601.2 568.7 561.4
793.7 794.9 789.6 778.7 760.4 735.5 708.7 684.1 666.6 653.4 641.4 629.7 617.9 604.9 595.3 583.3 575.9 566.5 555.7 543.8 529.3 520.6 510.9 500.3 494 483.1 475.8 465.8 454 441.8 427.3 411.7 399.5 386 369.3 353.9 340.4 327.4 314.6 302.2 290 279.6 272.5 261.7 253.6 247 241.5 235.6 233.6 233 232.3 231.8 249.9 270.1 289.7 310.7 330.5 354.6 384.4 417.7 452.6 493 526.7 551.7 573.3 601.9 630.9 658.4 684.2 705.6 721.5 723.9 719.1 711.4 696 667.1 651.1 635.7 619 610.1 597.8 583.7 569.1 573.5 568.3 558.3 545 527.1 508.6 488.7 475.6 461.4 447.3 434.1 420.7 416.9 417.4 409.9 403 397 390.3 380.2 366.9 357.1 352.3 354.1 365.2 369.6 362.7 369.8 383 379.5 372.8 376.1 384.5 384 389.3 400.5 414.9 428.7 448.4 472.3 488.8 511 535.6 565 589.7 608.5 625.5 644.5 666.5 687.6 699.2 708.6 725 727.8 741.9 750.4 763.4 769.2 774.9 781.8 785.8 797.4 800.7 815.8 824.8 835.4 844.5 846.9 858.7 869.8 869.7 867.3 865.1 854.8 826.6 796.7 775.7 759.4 747.3 736 728.6 733.1 728.5 721.6 718.7 722.4 718.9 723.2 727.6 736 750.2 766.6 766.2 770.1 772.9 774.7 783.8 782 777.9 784.3 787 789.2 794.3 793.9 798.6 800 810.8 816.4 813.9 810.8 768.5 713.8 679.4 651.7 620.9 588.7 571.9 566.9
790.1 791.9 788.6 783.7 769.1 743.8 713.6 691.5 671.9 660.8 647.4 634.4 624.5 612.9 602.1 588.3 583.3 574.5 561 551.1 537 527.9 519.2 509.1 502.3 493.7 487.2 475 466 451.8 435.7 423.3 409.4 395.1 378.7 361.6 346.9 333.6 317.5 306.7 295.6 285.9 276.9 264.2 253.9 252 246.2 238.8 235.6 234.8 235.1 233.3 248.1 269.2 288.2 306.9 332.3 352.6 383.3 412.8 451.7 489 521.1 552.9 580.1 608.6 639.5 669.9 689.9 712.4 729.6 734.5 731.4 723.5 701.3 678.1 662.7 647.4 636.3 622.1 606.2 590.8 584.8 589.5 588.5 586.6 576 559.6 538.8 516.7 500.1 488.9 476.1 463 449.7 449.7 436.9 423.6 410.9 404 395.7 384.7 372.1 362.3 356.6 354.1 356.5 359.7 371.6 376.4 382.3 389.7 391.1 385.4 401.6 403.6 400.6 410 426.4 446.7 467.1 487.7 506.6 532.4 558.9 587 619.7 626.1 640.8 664.6 683.6 697.4 702.3 711.5 727.4 733.9 741.3 751.9 764.1 766.9 775 782.6 789.5 794.9 804.3 814.3 821.8 833.9 835.1 849 858.8 866.6 862.8 860.6 864.4 868.4 849.2 815.8 798.6 780.7 761.4 746.9 742.2 740.1 728.3 718.6 714.6 711.4 712.2 713.4 716.6 726.6 739.3 749.8 755.5 760 763.4 765.3 769 767.2 773.4 774.5 775.1 777.2 776.6 783.1 785.8 792 801.7 802.4 803.9 798.5 767.3 714 678.1 651.8 620.1 598.6 579.8 569.8
791.4 791.2 791.7 786.6 773.9 748.4 723 691.4 677.3 666.2 652.4 642.7 630.6 617.4 607.2 599.9 591.8 581.9 571.5 558.5 548.3 538.9 526.9 520.3 510.5 502.8 490.2 485.3 474.7 461.4 445.5 431.4 416.9 403.6 387.5 368.4 353.4 342.2 325.5 311.9 299.2 289.4 278.2 271.5 264.7 260.8 246.7 238.7 237.8 237.7 237.1 234.3 250.5 275 294.1 309.4 332.9 358.5 385.3 415.6 448.7 484.8 521 555.5 587.1 615.6 646.1 676.6 696.2 720 738.6 746.1 745.9 730.6 707 685.5 672.3 656.3 647.9 632.6 617 601.2 597 604.5 616.9 623.2 612.4 593.9 570.3 550.3 531.3 528.7 515.2 498.1 476.6 464.4 448.3 435.6 423.4 411 397.6 387.9 377.3 366.5 362.9 362.1 356.4 367.5 374.2 377.4 386.9 392 398.4 400.8 400.8 407.6 411.9 422.3 439.3 459.8 482.6 505.2 530.7 551.8 585.7 613 625 634.9 651.1 671.2 691 702.9 701.5 709.7 719.7 730.5 738.1 753.8 762.1 764 779.8 786.2 794.1 796.7 800.5 809 819.3 826.6 835.5 850.7 854 851.5 852.6 856.5 867.7 878.4 862.7 833 813 793 779 762.4 746.1 734.5 726.5 715.1 707.5 705.3 705.6 705.2 705.8 710.8 727 730.5 743.5 750.8 754.5 744.6 754.3 755.1 759.2 760.2 757.1 759.8 764.8 772 776.6 786.4 786.5 788 788.4 789.3 783.6 725.1 671.8 647.3 617.6 606.3 584.6 570.6
788.9 793.8 792.7 788 778.6 753.2 722.6 698.6 683.6 670.1 659.4 648.3 635.9 624.5 612.2 605.6 597.9 588.2 577.5 567 557.7 546.7 536.5 528.6 518.4 510.5 500.3 494.1 480 471.4 454.3 440.5 423.6 407.3 393.1 375.6 360 346 332.8 316.9 306.2 293.6 281.3 273 273.9 261.2 249.5 241.7 242.3 239.9 239.8 237.2 247.6 273.5 296.2 315.9 336 363 387.9 418.4 451.8 490.2 527.1 558.5 592.7 622.6 652.9 681.8 706.1 729.6 747.7 758.9 757.2 737.3 715 692.1 683 672.1 657.7 642.7 633.9 631.2 623.2 627.4 653.2 667.9 666.4 652.1 622.8 600.1 567.9 546.4 537.4 512.4 495.6 472.6 456 443.2 428 413 401.4 389.5 378.7 372.4 369.4 362.7 358.4 364.8 371.8 379.5 384.7 393.8 399.3 403.9 407 413.6 420.7 432.2 456.6 475 501 525 547.8 576.7 602.8 627.2 629.7 643.3 658.5 668.8 685.4 694.8 700.5 708.3 713.3 723.1 732.7 749.5 759.8 762 780.1 791.1 796.6 797.8 796.7 802.6 809.2 825 835.6 846.8 847.2 845.1 844.4 852.1 865.2 869.1 867.3 867.3 838.7 807.2 778.8 764.6 746.7 729.7 718.7 710.2 704.1 702.1 698.5 696 699.9 701.6 711.5 716.1 728 731.9 736.9 724.7 734.2 733.6 736 736.5 740.4 736.8 748.6 762.3 764.6 774.2 773.7 773.4 770.6 771.2 763.3 725.4 671.3 636.6 617.5 603.6 594.6 588.9
787.2 791.4 792.5 788.8 780.3 760.8 732.1 707.7 688.6 677.9 664.3 654 640.8 630.7 620.7 612.7 604 594.3 581.3 571.9 562.7 554.6 544.8 535.3 526.4 520.9 508.8 499.1 491.9 480.4 463 448.6 430.8 412.7 397.7 380.8 365.8 352.1 336.7 324.6 309.2 297.4 287.1 281.8 275.1 261 249.9 249.2 244.1 241.9 242.2 239.7 245.7 274.3 297.7 320.4 344.4 366.4 388.6 419.7 452.9 488.7 527 563.4 597.2 629.2 658.7 685.5 716.6 739.1 756.2 771.6 767.1 741.1 723.7 704.5 695 682.9 667.3 649.1 650 660.1 660.6 661.4 679.9 699.2 694.5 673.4 640.1 615.3 585.5 555.9 542.5 527.7 505.9 477 459.3 443.3 433.2 418.4 409.3 397.4 384.7 375.6 370.7 368.4 360 367.2 371.1 377 385.3 396.3 401.7 410 415.4 424.9 433.5 451.8 473.3 493.5 518.6 543.5 570.6 592.9 617.1 629.1 636.7 651.1 666.4 666.1 677 682.1 694.1 698.1 700.4 711.7 721.6 738.4 743.3 748.8 771.3 782.7 791.7 790.4 796 794.3 805 820.9 830.5 837.8 839 834.6 833.5 845 851.5 856 870.5 875 850.7 814 786 767.4 743.1 726.5 718.4 707.1 699.4 696.8 697.5 692.8 692.6 694.7 701.5 706.8 712.1 718.1 713.6 712.4 716.6 717.8 721.1 721.9 721.5 724.2 725 733.4 746.5 760.6 754.1 752.1 762.2 766.4 751.3 695.4 661.4 631 619.2 609.3 602.3 598.8
783.3 787.7 793.7 789 785.7 769.5 744.2 718.5 696.3 680.3 667.9 661.2 648.3 635.2 628.2 620.7 612 599 591.3 578.9 572 561.8 553.9 545 534.9 526.1 516.8 506.3 499.5 482.5 468.2 449.1 433.5 413.7 400.6 386.4 370 355.2 343.8 330.6 320.3 307.6 296 290.2 276 260.7 252.1 250.5 246 245 243.3 242.1 240.8 274.7 298.9 323.6 350.1 368.9 392.8 421.6 455.1 490.5 530 568.1 601.9 635.6 666 694.9 724.5 749.1 767 781.8 776.7 750.3 734.6 720.1 708.1 694.5 685.9 675.1 672.1 683.2 693.6 702.3 711.4 709.8 697.8 669.3 638.9 615.5 588.8 563.9 546.6 530 506 480.5 467.8 453.8 440.8 425.8 409.9 398.2 391.1 381.9 375.7 369.8 367.1 367.9 373.7 379.5 389.3 398.2 408.1 416.8 423.4 435.5 449.8 469.4 490.8 513.2 537.9 564.8 588.3 606.5 623.3 633.6 642.6 656 661 660.2 669 672.1 679.9 686 688.8 698.5 710.8 719.9 728.6 739.3 756.5 759.5 773.5 775.5 792.2 786.9 797.1 816.9 818.8 831.9 823.4 823.9 824.2 836.3 840.1 850.5 866.9 870.9 851.2 821.2 795.1 770 748.4 729.7 715.4 707.5 701.8 693 692.2 692 691.8 692.7 696 697.7 700.7 707.2 699.4 698.9 696.7 694.5 702.2 707.6 710.9 706.7 709.4 711.7 726.8 740.9 735.7 735.4 738 732.5 714.2 690.7 671.9 634.2 624.3 615.3 601.5 592.1
780.5 787.6 792.8 794.8 787.8 775.2 751 729.2 706.8 687 672.3 663.4 654.2 646.4 639.3 629.8 620.9 606.7 600.1 584.4 579.5 569.2 563.7 554.9 544 532.2 521.8 510.3 499.9 483 467 446.2 434.2 417.1 404 391.2 375.6 362.5 349.8 337 328.2 316 304.5 291.8 278.2 262.7 255.5 251.7 248.9 247.8 246.3 244 241.5 271.1 299.4 326.3 349.1 368.9 393.9 424.4 456.3 491.4 529.7 570.3 605.8 639.6 673.5 703.7 732.7 759.6 779.6 789.4 791.3 770.1 750.6 740.8 729.3 715.8 710.4 706.5 707.8 716.9 728.6 737.2 722.2 703.6 689 671.7 647.6 619.8 597.4 568 557.1 530.4 505.3 488.7 471.7 451.6 429.1 423.8 416.4 408.3 400.1 386.1 378.1 372 371.6 371.4 378.5 384.1 394.3 405.3 416.8 425.7 440.4 454.1 468.4 485.9 506.5 532 556.6 583.7 600.2 622 635.2 638.5 651.5 655.2 653.4 654.9 656.2 661 668.8 671.9 673.3 691.1 697.2 712.7 719.2 723.3 738.4 748 758.1 767.2 768.8 767.8 777.5 797.6 806 812.8 808.8 806.3 813.5 821.8 833.1 845.7 859 866.6 862.3 835.7 802.8 779.8 755 732.3 721.6 713.1 704.8 696.5 695.1 696.8 694.4 692.4 687.6 686.3 689.7 685.3 685.6 685.6 684.4 681.6 685.8 686.3 683.5 674.1 677 692.2 700.7 712.5 709.4 719.7 718.4 703.4 675 670.2 655.7 630.8 612.8 605 598.8 583.2
778.9 783 791.8 793.6 790.5 781.9 761 740.7 716.5 694.8 681.1 669 659.2 654.1 647.9 638.9 625.9 618.7 608.7 595.9 586 578.2 573.3 562.9 549.5 538.9 522.1 510.4 497.2 480.6 463.6 448.1 438.1 422.2 408 394.6 380.4 367.7 356 346.3 335.5 323.5 309.4 294.5 282.5 269.3 258.6 254.9 251.9 250.7 248.5 246.1 243 270.8 296.7 325.3 346.7 367.6 393.5 426.4 456.6 490.1 527.8 568.5 605.7 642.4 675.7 709.7 737.4 766.2 789.1 801.1 808.8 797.8 777.4 762.4 753 743.2 742.9 741.3 747.4 752.2 756.2 746.7 725.5 711.9 687.8 672.7 649.3 622 599.8 581.1 564.5 527.3 507.9 490.8 468.7 452.8 444.2 430.6 420.8 413.3 409 397.3 381.8 373.7 376.4 376.6 383.1 390 400.9 415 425.4 438.9 452.5 469.4 486.5 504.8 526.1 548.6 574.1 595.7 612.1 627.4 634.9 645.7 649.5 652.2 646.5 648 647.5 649 650.9 651.1 654.5 676.1 681.3 691.5 700.3 704.1 714.7 730.7 740.4 751.1 749 746.5 752.5 770.4 778.8 787.9 797.7 790.8 800.9 813.7 828.5 839.8 853.1 863.4 862.7 853 830.6 798 767.6 743.4 732.8 723.4 711.9 705.3 708.7 704.6 700.6 697.8 689.9 680.3 677.8 676.2 673 673.3 671.4 662.5 665.8 662.4 656.7 653.3 658.5 664.4 667.9 666.5 676.8 687.9 683.9 660.9 650.4 635.6 631.4 616.2 608.3 598.5 585.7 573.7
776 786.1 792.5 793 792.4 786.1 772.3 750.6 726 706.5 691.5 679.3 670.3 661.9 657.7 650.6 639.4 629.3 616.2 605.9 594.3 585.6 578.2 566.4 553.5 540.3 525.1 510 492.7 481.4 468 452.6 438.6 424.5 410.2 397.8 386 373.8 362.5 352.6 340.8 329.3 315.1 300.4 286.6 271.4 260.7 256.8 254.5 252.3 251.5 247.6 245.4 266.4 291.4 319.5 340 359.5 391.5 424.5 455.7 492.2 530.1 566 603.3 641.6 675.7 711 740.3 769.8 793.9 811.2 823.8 826.8 805.6 789.3 779.6 776.5 778.6 785.7 774.9 769 762.2 743.7 729 708.8 686.6 662.6 638.4 615.9 601.9 584.8 562.6 530.3 508 484.8 479.8 468.8 452.4 437 423.5 415.2 414.4 406.5 388.9 377.2 383.6 384.5 389.2 397.9 413.6 424.3 438.1 456.4 470.3 482 499.1 522.9 546.3 572.1 590.9 605 623.7 629.5 637 644.6 646.3 644.6 636.9 634.3 634.4 640 631.9 632.6 639.5 658.1 664.8 670.9 679.8 686.2 698.6 708.5 727.8 734.5 730.7 734 734.2 750.2 754.9 768.5 778.5 775.5 783.4 803.6 824.1 830.3 840 857.7 861.5 864.3 849.6 817.4 784.3 759.5 741.8 730.6 724.7 716.1 714.2 712.6 706.5 700.2 692.9 684.9 675.4 668.8 666.4 663.5 656.8 651.3 645.8 641.7 641.1 642.3 642.2 643.1 640.7 642.6 641.3 643.7 646.1 629.4 621.7 616.5 607.5 600.7 593.6 577.4 566.1 554.3
775.4 786 792.6 795.4 795.4 788.6 781.9 764 739.5 717.6 700.3 688 677.5 673.9 668.5 656.1 648.1 639.6 625.3 612.4 601.1 593.3 583.5 568.2 555.1 542.6 527.1 510.2 495.6 479.4 467.2 454.5 441.5 429.9 412.5 400.5 389.7 377.6 365.9 356.4 345.2 332.2 317.6 303.1 289.5 273.2 264 259 257.4 255.5 253.1 249.5 247.3 260.6 283.5 308.8 338.4 359.6 389.4 422.1 452.6 491.3 527.8 566.7 604.1 639.5 675.2 710.1 743.1 772.3 798.2 819.5 837 856.6 856 828.7 840.3 831.3 818.3 801.7 786.7 776 766.6 747 724.9 707.9 680.8 652.7 633.4 618 603.9 583 556.4 522.2 518.6 504.5 488.4 472.4 461.3 450.3 429.1 416.9 411 402.1 388.1 380.5 385.6 392.2 395.9 407.3 424.8 441.5 451.5 470.8 486 502.6 518.6 546.6 567.2 585.2 603.3 618 625 636.8 639.3 643.2 638.8 636.1 631.5 629.2 629.3 633.7 620.7 620.2 622.1 639.9 651.9 659.9 663.3 665.9 677.1 688.3 702.3 707.7 718 718 717.8 726.5 735.3 749.1 757.7 756.2 774.7 793.5 811.7 818.8 829.5 836.9 851.5 860.8 858.5 851.1 818.6 781.7 759 742.8 730.7 729.8 725.3 718.1 712.8 710.4 704.5 689.6 678.8 673.5 664.1 655.1 649.4 642.1 633.2 630.8 633.4 627.9 627 625.9 622.3 621.6 620.8 618.4 613.3 612.8 608.4 603.6 591.7 584.1 578.2 563.5 548.6 535.6
775.7 784.1 790.1 794.7 798.9 795.6 788.3 773.5 753.9 735 713.2 699.7 689.7 680.2 672 667 660.4 648.7 635.9 618.9 605.1 590.4 585.5 569.1 560 540.5 529.5 509.9 493.6 481.5 468.3 455 444.4 430.5 414.4 401.7 391.9 381.3 368.8 356.4 344.2 329.3 316.9 303.7 288.3 272.9 263.6 262 260.6 258.3 254.6 251.6 249.4 256.7 276.2 301.8 329.7 356.3 388.4 417.4 453.3 491.3 526.8 565.2 602.8 638.3 672.9 706.5 742 771.5 798.1 823.5 847.7 874.8 880.6 879.8 867.7 850.4 837.3 815.9 796.7 783.4 768.6 748.3 721.4 697.4 670.7 651.2 635.1 617.6 603.4 568.1 552.2 549.3 530 509.8 494.9 482.7 468.2 455.8 439.6 423 409.9 396.2 382.1 383.8 393.4 401.1 408.7 427.6 442.1 452.8 474.2 483.8 500.3 517.4 541 564.8 584.1 599.9 612.9 622.9 634.3 641.4 638.8 637.5 633.4 631.4 628 625.5 623.5 622.4 618.7 615.3 609 621.2 630 642.3 643.1 645.3 658 665 678.9 685.6 691.6 699.5 700.6 711.1 715.1 724.9 729.5 750.7 765.4 782.1 802.5 805.9 814.6 825.6 838.7 847.6 852.7 870.2 851.2 808.1 778.9 760.1 748.9 744.2 732.5 725.8 722.1 717.8 714.5 695.4 684.1 673.9 664.5 659.2 649.7 638.5 624.9 626.6 624.2 617.2 618.1 614.3 608.7 606.2 603 600.4 594.5 590.3 587.9 582.8 572.2 566.9 558 550.3 533.8 519.7
775.1 780.4 788.1 794.9 797.9 801.3 795.1 782.7 768.9 750.1 732 713.2 702.4 695 681.1 674.2 667.8 656 637.4 621 606.7 593.8 578.8 569.9 560.7 539.8 527.8 508 491.9 479.4 466.7 454.7 441 428 413.5 402.6 391.9 380.2 368.8 354.9 341.2 325.3 311.6 300.7 284.9 272.6 267.2 265.8 263.1 258.8 254.7 253 250.5 260.1 274 294.3 323.3 351.4 383 412.6 448.7 488.7 522.6 561.1 598.8 635.3 670.5 701.8 736.9 766 797.2 824.1 849 877 896.8 894.9 880.3 863.7 851.2 825.4 805.8 790.3 768.4 741.5 714.7 685.7 663.4 653.6 632.2 620.4 613.3 592.1 580.5 558.3 538.3 514.7 499.8 485.9 472.7 460.3 448.8 426.2 408.5 393.2 385.3 392 402.7 413.6 426 440 460.4 474.7 489.6 502.1 516.4 536.5 560.9 584 595.8 611.6 625.6 634.2 638.2 642.9 641.1 636.7 633.7 629.6 624.2 621.7 620.1 620.2 619.4 610.8 597.3 603.8 609.8 616.9 620.9 626.6 633.4 639.8 650.3 660.1 666.2 678.3 686.2 693.8 700.7 710.4 722.9 733.8 751.3 772.2 785.8 792.8 803.3 817.9 826.2 837.5 849.8 860.9 864.9 844.4 814 787.8 774.6 764.1 747.7 737 730.8 721.9 713.2 697.3 688.9 679.6 668 657.7 646.1 638.1 630.4 625.5 608.9 608 604.8 601.8 597.4 591.8 586.1 581.5 578.2 571.1 569.3 559.8 557.7 554.1 547.2 538 522.5 507.4
773.7 779.7 784 792.4 796.5 799.5 797.4 790.2 777.5 762.3 745.1 725.3 716 705.9 689.5 681.2 671.5 656 636.9 620.1 606.5 592.7 578.1 566 549.8 531.8 516.4 502.6 491.9 479.7 466.9 450.1 436.5 423.2 411.3 404 392.6 379.8 368.4 354.4 339.2 326.4 311.7 296 280.5 272.7 270.3 265.9 261.3 258.3 256.2 254.5 252.3 258.2 271.4 291.5 317.1 343.5 375 408.5 440.8 482.3 519.2 554.7 594.6 630.8 666.8 699.6 733.2 764.3 793 819.8 844 874 898.3 895 882 865.3 852.9 834.5 815.4 798 773.9 747.6 718.2 692.7 670 659.1 641.1 636 625.8 613 594.3 570.5 548.4 525.5 501.8 485.2 471.1 459 458.3 428.8 413.6 392.4 390.6 399.2 412.6 428.5 451 454 475 493.7 506.1 522.1 536.1 557.2 574.4 590.2 606 620.5 640.7 644.3 648.8 645.2 643 641.2 634.1 626.4 622.4 617.4 616.8 619 616.5 604.2 590.7 590 594.5 600.7 599.8 601.8 603.9 612.2 625.8 635 648.5 654.7 661.5 672 688.4 694.8 708.2 719.5 740.1 765 767.3 779.2 795.2 806.3 818.4 832.7 847.8 858.6 863.7 865.7 848.8 827.1 813 800.8 770.6 754.3 741 724.9 714.3 708.8 701.8 692.2 678.5 672.3 658.9 640.5 634.9 627.2 616 600.1 596.3 591.7 585.3 578.8 572.6 566.9 562.5 557.1 553.8 546.2 541.1 539.1 536.3 526.3 514.8 500.5
771.9 781.1 781.2 789.6 794.4 793.8 794 789.7 782.6 769.8 756.1 737.5 727.7 714.1 699.9 689 673.6 649.9 632.1 618.9 605.2 591.8 576.9 562.1 545.9 529.9 513.3 500.3 488.8 477.1 460.6 443.4 428 416.1 406.5 398.6 387.8 378.1 367.1 355.6 341.7 325.2 308.5 292.5 282.3 274.7 275.8 274.9 270.3 261.6 257.4 255.3 252.9 259.2 271.3 289.8 311.2 337.3 371.7 406.7 439.7 479 513.8 549.1 591.4 627.3 662.3 695.2 730.1 759.1 784.4 809.5 835.4 867.3 889.3 894.1 885.6 870.9 851.8 835.3 820 798.9 770.3 745.1 720.7 701.2 682.1 667.9 659.1 649.1 643.2 626.6 606.1 580.1 557.6 535.4 512.6 491.3 471.9 460 437.9 428 413.6 390.7 396.6 412.2 429.8 452.5 464.5 479.8 495.5 507 522.9 540.8 553.6 575.3 588.8 600.6 616.9 633.4 649 650.4 651.7 650.5 646.4 642 633.5 623.8 619.3 614.4 613 613.4 607.3 598.3 581.1 578.5 586.4 585.7 583.1 586.2 588.4 593.1 601.1 609.6 619.8 638.4 649 656.7 672 682.9 694.1 706.7 725.5 745.6 753.9 773.1 784.3 795 810 825.6 841.4 855.9 862.4 867.8 868.1 862.9 846.4 839.4 799.5 783.8 758.6 743.2 731.7 719.4 713.8 706.4 691.5 682.3 660.9 649 640.9 628.4 613.8 598.9 583.6 576.3 575.4 567 560.3 554.6 549.4 545.5 539.1 533.6 529.5 524.7 520.7 511.6 502.4 494.8
769.6 779.9 783.6 788.6 792.5 792.7 788.8 785.4 781.1 773.6 764.2 747.6 732.9 718.5 707.9 693.6 671.3 645.3 629.9 617.6 603.1 587.5 569.4 553.8 537.6 523.6 509.8 497 481.6 461.7 451.9 435.3 422.6 410.1 400.8 391.6 382.3 374.3 364.8 349.2 340.3 321.4 305.4 290.3 289.4 282.9 284.2 280.1 276.2 267.9 265.9 263.4 255.5 259.3 272.3 287.4 308.9 334.1 365.9 399.3 436.1 473.9 509.3 545.8 584.9 621 655.8 688.3 726.4 753.7 777 799.7 827.2 848.3 874.4 884.9 883.6 873.7 852.6 833.3 813.5 795.2 772.6 749.6 727 703.4 696.8 691.3 675.8 670.9 660.7 644.6 618.1 594.3 569.2 544.2 518.5 496.8 471.1 449.1 435.3 421.5 403 393.6 405.7 424.4 444.7 467.1 486 502.3 518.9 527.4 537.2 553.8 575.8 592.3 604 616.2 632.9 650.6 653.6 656.6 655.3 652.8 646.3 644.4 634.6 626.1 617.1 613.2 611.3 603.7 596.5 584.8 570.4 570.7 571.5 571.7 569.4 566 572.6 583.2 585.4 595.9 612.1 622 635.4 645.3 660 673.7 684.5 698 714.3 729.8 743.7 760.8 773.6 788.2 802 818 835.3 852.5 864.4 868.5 872.4 871.2 871.3 862.8 837.9 814 795.9 770.8 751.1 739.7 727.3 715.2 700.2 696.3 677.8 656.5 648.8 634.9 610.4 595 584.6 569.8 553.7 556.9 550.4 543.5 536 532.4 525.6 520.2 515.4 511.5 505.4 499.9 488.1 484.8
767.3 778.2 783.4 790.7 789.9 790.4 788.1 778.5 770.8 769.7 764.5 752.9 732.4 723.4 711.5 689.3 659.4 640.7 627.1 614.4 600.1 582.4 564.5 549 530.9 517.3 505.1 489.1 473.2 458 442.8 420.3 408 405.2 396.8 387 379.4 371.5 359.5 346 330 314.2 300.1 288.4 289.7 292.3 291.2 285.9 281.8 277.3 275.7 274.6 260.1 258.5 276.2 289.4 307.3 334.1 362.7 394.5 431.8 467.4 502.6 540.3 578.2 615 650.4 680.8 720 747 769 791 810.4 832.9 855.1 867.8 874.5 867.1 849.4 825.3 810.5 795.9 775.3 758.3 743.4 728.6 720.8 711.3 702.6 688.1 673.5 653.3 629.3 603.7 578.1 547.6 518.9 493.1 468.7 447.9 428.2 414.4 401.2 402.3 418.8 444.4 468.4 487.1 508.1 527.7 543 549 563 573.7 589.7 607.2 619.6 634.4 654.7 669 664.2 663.6 664.6 653.1 645.5 640.3 633.9 624.6 614.5 613.3 604.3 592.3 581.7 575 560.8 562.8 561.9 560.9 560.2 557.4 560.9 569.5 574.8 583.3 593.8 606.3 621.1 628.3 650.9 660.4 675 689.3 702.9 715.3 732.6 746.7 764 781.2 796.6 812.3 831.3 844.3 860.5 862.6 872.3 873.8 872.6 868.9 873 869.5 822.4 819.9 779.9 768.7 760.4 737.3 709.4 700.2 694.2 661.4 657.9 631.9 609.6 594 577.6 565.3 551 538.7 536.8 528.3 524 520.7 513 506.7 500.5 496.7 492.2 485.2 476.9 472.2
759.4 772.5 781.6 789.2 790.1 789.3 786.1 777.3 771.7 764.4 751.8 745.2 731.1 727 706.1 675.2 653.4 638.4 623.6 610.2 593.8 576.1 559.4 543 526.6 512 495.5 483 468 453.9 441 427.9 403.9 384.2 393.5 382.9 375.9 367.1 352.5 332.2 319.9 306.5 296.1 301.7 304.1 301.3 302 295.6 291.4 286.6 289.2 284 271.9 260 276.9 292.6 307.5 330.9 357.5 391.3 427.2 467.9 501 535.5 572.4 607.4 642.2 672.7 707.8 738.3 762.4 781.1 793.7 814.6 835.5 847 854.1 850.8 837.8 817.3 808.7 789.4 775.9 769.9 756.3 748.6 742 721.4 712.6 697.4 676.5 658.3 635.8 603.3 579.3 550.3 527.9 495 469.3 451.8 432.9 415.7 403.3 419.1 440 467.4 486.7 515 538.9 557.1 569.9 568.6 584.7 594.7 608.7 624.4 638.8 656.4 669.1 674.3 673 671 667.2 657.7 649.4 642.3 631.5 619.8 613.2 605.2 593.4 581.8 572.4 561.6 554.3 557.1 556.8 551.7 547.3 543.4 552.3 559.9 566.3 570.6 582.5 595.9 606.7 620.6 635.4 651.1 666.1 678.6 689.8 705.5 724.5 741.2 758.2 774.1 792.5 808 829.1 841.4 854.2 867.9 876.2 870.8 870.9 862.4 867.7 865 856.8 841.3 798.4 771.4 767.6 731.7 714.7 704.1 694.7 678.8 647.9 622.1 601.4 588 573.4 565.9 551.4 538.1 524.3 518.4 512.3 505.9 503.7 496.5 490.6 487.4 478.5 471 465.1 457.5
757.2 770 777.3 786.1 786.5 782.4 781.1 776.4 768.5 754.7 745.5 736.2 731.1 720.1 690.1 670 653.8 636.1 620.3 605.2 589 569.9 554.9 535.8 519.1 504.2 493.2 473.7 451 434.6 435.5 422.7 408.2 391.8 365.4 362.2 363.7 353.7 339.5 327.9 308.6 301.9 312.9 318.9 316.5 317.9 317.2 309.9 304.5 299.6 296 286.1 275.3 261.3 283.1 293.6 306.1 326.8 353.4 385.6 423.6 464.9 500.1 531.3 568.2 600.8 633.5 664.5 695.8 727.8 755.6 774.1 785.9 798.9 813.5 826.3 834 828.7 819.9 806.6 793.4 788.4 783.7 776.9 767.1 757.4 755.3 726.5 716.6 689.6 672.5 653.4 638.4 598.2 572.2 560.4 531.9 497.5 475.6 452.9 431.6 414.9 411.2 439.8 460.5 481.7 505.8 525.2 557.5 579 591.1 594.1 602.3 613.4 631.9 644.4 659.4 673.6 683.9 685.5 683.4 680.7 676.4 666.2 653.5 642.6 631.7 620.8 612.3 595.7 586 571.9 563.7 557.4 550.5 549.8 550.4 544.3 537.8 534.1 541.7 545.7 550.3 560.5 570.9 585.5 592.5 611.4 627.3 640.8 654 667.6 681.5 697.5 714.8 733 750.2 770.5 788.4 804.8 820.7 840.7 857.2 872 873.9 866.9 864.7 855.2 861.1 859.1 852 816.6 786.7 757.5 745.4 721.3 716.2 712.3 693.1 691.6 649.2 624.9 597.1 579.6 577.3 566.5 556.7 542.2 530.9 520.8 506.9 494.3 493.2 486 482.3 473.7 467.9 465.3 456.2 450.2
749.7 762.2 774.7 778.8 780.7 775.8 769.8 768.3 756.5 751.8 738.1 732.1 725.2 703.9 682.3 668 651.4 634 615.2 600.5 583.8 565 546.9 532 513 497.6 483.8 468.5 457.6 442 424.1 407.8 394.9 379.7 374.1 355.9 339.1 335 321.8 306 306.9 318.8 327 333.3 333.1 334.6 331.6 322.6 317.8 312.6 301.8 290.5 285.8 264 284.3 299.8 305.4 318.5 344.9 380.7 423.2 459.2 492.1 522.7 559.9 592.9 623.5 653.9 682.4 721.5 751.9 769.3 780.4 787.5 798.5 804.7 810.1 805.6 801.4 785.6 789.9 790.8 787 776.5 766.9 764.5 753.2 730.1 707.5 692.9 662.3 646.2 628.1 599.3 581.3 560.3 539.3 513.9 482.2 457.9 442.9 415.1 424.9 449.1 469.1 492.6 508.8 533.9 569.4 597 606.5 612.6 619.2 639.5 651.5 664.3 685.4 698.7 704.3 703.7 693.8 686.7 683.5 668.8 658 644.5 634.2 624.2 610.3 599.7 588 574.8 564.5 554.8 547.5 540.1 543.2 532.1 528.8 529.3 529.1 539 542.8 551.4 561.6 573.3 581 600.1 614.8 630 644.9 660.2 672.4 690 705.5 724.2 742.9 762.8 781.1 799.5 820.2 838.3 858.2 865.4 864.2 855.9 853.2 840.8 839.9 836.4 828.2 790.6 764.1 740.3 733.7 715.7 710.4 706.1 696.9 690.4 662.8 639.2 593.4 575.3 572.9 560.7 555.1 545.2 534.2 522.4 508.1 496.1 480.3 474.8 467.9 465.3 457.7 450 447.3 439.1
741.7 754.3 768 774.3 770.2 769.3 765.5 760.1 744 740.5 732.4 718.6 711.8 686.6 675.4 661.4 644.7 624.7 610.8 595.6 572.6 553.7 536.6 525.1 508.8 497.6 485.2 469.7 450.3 435.2 417.8 402.1 387.9 373.9 363.4 352.1 340.9 326.6 314.6 317.2 328.7 340.3 348.1 349.4 352.3 353.1 344.1 338.1 327.8 321.5 307.4 299 289.9 267.6 279.6 292.9 305.1 320.5 339 368.8 418.3 451.4 481.3 512.2 550.7 585.6 619.2 653.3 688.2 723.1 753.2 769.3 778.1 780.2 787.5 789.6 780.3 776.3 783.4 767.7 782.9 780.5 786.1 769.8 759.9 757.3 744.3 727.3 703.5 687.7 665.7 635.7 614.6 598 578.6 562.8 540 517.1 487.9 465.7 445.1 422 434.7 453.6 480.5 502.9 516.6 550.4 586.4 612.9 622 635.3 641.5 655.4 672.7 687.1 710.2 721.6 722.6 720.4 710.6 696.5 684.4 669.2 657.5 647.4 634.4 622.8 610.4 598.4 584.7 571.4 559 550.2 543 531.7 528.6 522.9 524 519.9 519.5 526.8 532 543.5 549.9 562.6 575.7 589.3 601.5 621.1 637.2 649.7 663.5 679 694.5 712.7 732.6 754.5 774.6 798.7 818.4 821.2 831.5 831 831.7 832.3 821 812.4 802 801 778.2 757.8 742.3 726.3 713.9 700.8 697.2 693.2 690.1 687.1 676 634.4 601.1 580 570.5 558.1 546.8 542.7 534 519.4 507.8 495.4 491.3 480.5 464.5 455.4 448.4 446.7 437.6 431.5
729 742 753.2 757.1 760.1 762.5 757.7 748.6 734.7 726.4 725 711.9 693.9 678.2 663.2 647.3 630.7 617.1 602.4 589.8 562.3 543.4 531.2 520.1 506.5 496.6 480.3 469.6 449.8 435.7 427.3 411.7 396.1 390.9 383.6 351.6 329.3 320.6 326.8 338.1 352.7 363.4 370.2 375.6 378 372.1 363.1 352.2 343.3 332.5 314.7 307.8 297.8 279.6 273.4 289.7 303.5 321.1 340.4 365.2 405.9 443.8 481.1 510.5 544.1 581.8 618.1 656.7 693.5 727.6 753.8 766.8 773.5 778.2 778.5 768.2 762.7 750.3 750.1 742.9 755.6 767.3 769.7 763.5 750.5 748 730.6 719.6 697.1 678.2 656.9 632.3 610.8 597.9 575.5 550.1 531.9 505.1 484.5 459.1 442.8 425.1 433.6 460.1 483.3 512.5 530.1 564.9 603.4 622.3 636.9 652.9 664.8 675.5 691.3 716.4 725.4 734 733 735.9 719.7 706.1 690 674.2 665.3 650.2 636.2 622.4 611.2 599.3 586.1 571 557.3 550.1 537.5 530.2 521.3 518.8 518.1 512.2 513.6 514.7 525.4 533.7 541.9 555.3 567.1 579.6 591.2 608 626.1 639 653.9 665.9 683 700.1 723.9 744 770 787.4 790.8 785.8 790.5 789.2 789.6 794.2 784.6 779 766 775.4 749.9 729.4 723.8 712.7 688.1 681.6 679 670.8 666.1 661.5 645.5 620.5 603.2 587.6 573.1 566.1 556.7 542.6 526.3 511.3 499.6 494.3 487 473.4 463.7 452.4 445 441.5 430.9 423.2
721.4 728.6 738.9 748 752 749.8 743.6 729.5 716.8 712.2 708.4 698.2 688.3 677.5 660.6 645.7 630.9 614.7 599.3 583.6 566.7 547.3 525.1 511.5 502.3 484.7 471.3 460.3 444.7 435.7 427.8 419.1 403.8 387.7 365.9 342.4 328.2 335.8 347.7 361 377.9 389.1 397.3 402.1 402.5 390.7 380.4 366.4 351.1 336.3 322.9 316.1 307 298.3 274.6 287.7 307.1 321.1 342.6 364.9 402.4 443.6 475.9 505.3 540.2 579.2 616.5 654.2 691.1 728 751.7 762.9 765.4 769.6 767.5 757 741.7 730.2 723.9 725.9 737.6 757.7 749.2 751.3 743.5 731.6 717.8 711.3 694.9 669 648.9 627.1 612.9 596 573.3 550.6 530.7 509.7 482.2 467 448.1 425 436.9 463 492 521.6 548.7 575.4 611.7 631.8 651.6 669.2 685.9 700.8 714.1 730.3 739 743.5 747.4 747.7 734 707.4 690.4 680.4 667.1 650.6 640.3 627.9 613.9 600.9 581.7 570.4 556.2 546.8 536.6 527.2 518.7 508.8 509.6 505.4 506.1 508.5 517.1 523.3 530.1 543.3 552.7 565.9 581.4 596.3 610.8 628 635.2 652.3 670.5 687.3 709.6 734.9 751.6 755.6 759 758.8 755.1 753.5 754.1 748.4 743.9 737.8 726.5 734.1 719.2 698.9 694.6 685.7 671.4 666.4 661.1 650.6 639.3 631.4 617.5 606.1 595.1 581.4 570.5 564.6 552.2 536.8 521.9 508.2 493 483.5 478.9 470.2 463.2 450.5 443.3 431.7 427.5 420.8
705.3 716.6 732.1 738.1 740.2 737.5 728.6 723.1 712.3 704.2 697.3 686.3 677.9 667.5 652.5 637.4 625.9 611.1 595.6 575.2 555.9 536.3 522.5 504.1 487.9 481.3 467.4 454.8 445.7 437.3 429.5 418.3 391.4 365.7 349.5 335.6 340.1 353.2 367.1 384.8 402.6 421.2 432.7 428.6 424.2 413.6 397.9 381.4 362 343.6 332.9 325.6 316.9 308.6 288.9 292.9 308.1 324.4 341 369.7 403.6 448.7 473.5 503.1 534.4 573.2 610.7 647.7 682.8 721.7 743 753.9 758.1 756.7 750.3 738.5 727.8 712.6 707.1 702.1 724.1 738.1 733.5 739.2 734.1 721.6 713 708.6 692.3 670.5 642.8 627.8 616.4 596.9 573.2 552.6 530.5 506.9 481.6 463.7 445.1 431.5 446.8 476.7 501.2 529.2 559.7 586.6 619.1 643.2 666.1 682.6 699.7 714.5 727.7 739.4 750.1 755.6 760 757.5 745.2 708.6 688.6 678.4 663.6 655.8 641.9 631.3 611.8 598.5 583.5 567.4 554 542.6 533 522.9 516.1 511 499.2 501.7 500.4 502.2 508.2 512.9 522.2 533.2 545.8 558.2 572 585.3 598.1 612.7 625.1 638.3 655.3 669.8 692.6 712.5 717.8 719.1 725 725.4 731.9 721.7 727.4 722.7 709 704.3 697.8 698.1 687.1 675 671.8 666.8 657.9 651.5 644.1 634.7 625.2 611.7 604.4 595.6 583.6 572.4 562.2 554 541.2 527.7 511 499.1 486.9 479.2 473.2 464.1 457.4 448.1 438.5 430.2 424 416.1
689.8 709.1 724 733.1 728.1 721.7 712.4 705.8 700.6 690.2 684.6 679.4 674.8 666.7 646.9 630.4 614.3 598.9 583.8 564.7 545.1 524.8 511 503.6 489.9 472.9 458.4 446.7 425.7 416.1 410.6 389.9 379.3 361.9 342 351.3 361 369.6 383.5 412.1 441.4 451.6 455 448.1 437.1 432.5 418.5 395.2 371.5 356.7 343.7 336.1 325.2 313.9 304.4 292.3 312 328.4 339.3 364 396.7 437.8 467.2 498.3 528.4 564.1 602.1 638.2 674.6 706.1 727.7 740 745.6 744.8 731.7 717.2 698.9 693 686.9 687.3 715.8 717 716.9 721.2 717.9 715.9 712.2 699.2 687 669.2 655.3 631.8 615 593.9 570.6 549.2 527.7 500.6 476.3 461.4 444.8 437.2 453.4 479.5 507.4 533.4 560.1 595.1 625 650 674.2 691.1 704.5 721.7 737.4 747.7 759.3 771.3 764.6 763.9 743.2 712.4 695.4 677.8 659.4 654.9 643.8 627.5 614.7 603.8 585.9 566.3 550.8 536 525.6 517.4 510.5 506.1 499.4 492 494 494.7 500.1 507.8 514.4 523.8 532.6 545.3 558.6 572.1 583.6 600.6 610.8 623.9 640.1 654.2 671.1 677 684.3 686.6 697.4 694.1 696.3 698.6 699.5 688.5 680.3 674.4 670.3 666.8 660.8 655.8 651 645.4 639.4 632.6 624.9 615.1 606.3 594.3 586.2 577.9 567.4 555.4 543.1 535.9 523.5 513.9 502 489.4 478.7 468.6 463.8 458.8 452.6 444.7 431.8 429.1 428.6 426.4
677.5 696.6 708.8 717.7 714.2 710.3 700.6 693.9 687.7 682.3 675.2 670.6 661.1 648.7 636.6 624.2 607.3 590.6 572.5 553.9 537.4 521.2 504.3 491.9 488 474.8 460.2 440.7 425.2 408.6 386 379.3 357.4 351.4 361.7 370.8 379.2 393 412.6 437.9 464.4 474.9 473.2 467.2 458.3 454.4 431.8 405.7 391 374.2 359.7 348.4 333 321.7 313.5 304.9 307.2 326.3 336.9 357.5 384.8 421.8 458.1 490.6 523.6 559 599 629.1 660.7 691.5 713.5 726.9 732.5 730.3 716.6 698 677 668.6 662.4 675.3 693.6 697.2 702.8 706.2 704.7 712.8 707.6 696.1 692 679.6 657.5 632.9 610.1 590.3 565.5 544.8 524.1 499.7 475.7 457.6 444.7 441.5 463 491.4 518.9 541.5 566.1 601 630.6 656.5 677.8 693.1 708.7 726.7 744.3 759.2 769.3 781 773.2 768 748.1 714.6 688.8 672.5 664 651.4 642.4 627 617.5 602.5 584.7 566.3 547.7 532.7 522.1 513.4 504.8 500.1 494.7 490 487.6 489.8 493.8 500.5 504.1 515.1 527.6 535.1 547.7 561.3 575.5 589.2 596.6 609.4 625.9 635.1 644.9 653.7 656.4 660.5 666.9 671.5 668.6 671.5 669.1 660.8 657.2 650.4 648.9 644.1 638.6 634.2 630.2 622.3 615.7 610 602.6 595.3 584 575.1 569.2 559.7 549.1 539 527.6 516.4 507 496.6 489.1 485.7 471.9 467.2 460 452.8 447.1 436.2 437.2 434 429.8 425.5
657.4 668.3 683.4 694.3 696.5 688.6 679.4 672.5 668.8 668.4 663.4 658.8 648.6 635.9 623.5 611.6 597.7 582.2 566.5 552.1 531.5 516.5 506.3 482.7 473 459.5 447.7 436 422.8 404.1 383 364.9 364.6 373.1 378 393.2 401.8 418.8 455.2 479.6 486.6 494.4 493.7 484.5 490.5 473.1 446.5 427.5 406.7 386.5 368.7 354.5 343.8 330.8 321.3 313.3 309 319 334.4 354.3 377.7 409.8 445.2 482.8 515 550.3 590.6 621.7 652.2 675.7 698.6 717.1 722.6 713.2 697.8 677.5 660.1 645 642.9 661.5 676.8 681.1 686.7 688.1 687.1 701.2 696 693.7 698.1 684.4 654.9 626.2 606.6 588.3 563 541.4 519.4 493.3 470.8 455.2 443.6 447.7 474.4 504 526 550.7 573.4 600.4 625.4 648.2 679.5 692 711.4 733.9 752.3 768.1 778 783.3 781.3 776.6 748.9 716.6 687.9 672.6 657.5 647 641 630.5 618 602.7 581.7 566.1 547.5 529.9 519.4 507.6 500.5 494.2 487.7 484.1 479.2 481.8 486.4 491.7 494.4 504.9 515.8 521.1 537.8 552 565.1 578.2 584.5 597.2 608 618.3 631.3 632.5 641.4 639.6 645.3 647 644.2 644.6 643.4 636.9 631.2 628.1 622.7 619.8 615.2 610.7 606.6 601.1 592.7 586.1 582 573.9 565 557.7 548.9 540.2 532.9 524.2 517.1 508.7 502.3 493.4 483.9 474.4 467.3 461.2 454.5 447.9 442.4 437.9 434.8 429.5 417.6 409.1
639 648.3 657.1 662.9 664 665.4 662 660.7 657.7 656.5 652.1 643 639.9 631.7 619 603.2 583.8 572.9 556.2 542.2 522.6 509 489.1 483.8 463.3 444.2 422.4 408 394.6 382.8 379.4 382.3 386.9 395.2 405.9 417 431 464.7 485.2 500.5 505.4 510.7 505.8 504.7 505 484.6 466.3 452.3 426.4 399.9 377.3 362.7 349 339 330.5 322.4 310.5 314.6 327.5 346.2 371.4 404 438.3 473.9 503.3 540.8 580 612.8 640.5 664.1 684.1 702.2 702.4 691.7 678.5 656.3 639.7 628 628.8 649.9 661.3 665 666.9 670 673.7 683.2 688.5 690 690.5 672.2 648.5 624.2 600.7 580.3 555.2 539.2 516.4 490.7 471.9 449.1 443.8 451.5 483.8 510.5 527.1 550.4 574.9 604.7 624.3 650.2 680.4 695 717.4 735 758.1 775.8 783.4 784.7 790.3 780.3 752.8 720.3 696.6 673.6 665.8 653.2 638.2 628.3 611.1 598.4 581.3 567.5 549.4 528.5 514.8 504.5 498.1 491.5 485.6 478 478.2 479 479.3 482.8 486.6 497.2 504.6 517 531 541.2 559.9 567.1 576.1 585.9 594.5 605.1 610.1 613.9 619.3 622.2 624.8 623.2 623.3 620.2 616.4 613.4 608.7 604.1 600.3 597.1 594.5 590.6 584.2 576.4 571.3 563.8 556.9 551.7 543.5 539.1 528.4 523 518.7 512.3 506.1 496.3 488 479.9 473.2 467.6 460.2 453.8 442.3 437.3 431.6 428.9 428.7 427 425.7 425.3
625.4 632.4 639.1 643.9 644.3 647.7 645.5 645.5 644.2 646.1 640.3 636.3 626.9 618.3 607.6 595.5 577.7 557 547.6 532.9 519.2 506 490.3 467.1 448.2 449.3 427.6 399.1 403 399.8 399.2 405.9 409.2 423.4 431.4 443.2 464 490.7 504.1 514.7 515.6 516.4 525.9 529.5 513.6 504.3 492.7 462.4 435.8 411.8 385 369.3 357.3 343.1 337.3 327.3 315.4 309.2 322.9 340.3 365.6 398.8 429.7 462.2 495.2 530.2 567.5 602.1 629.7 648.6 672.7 688.1 680 670.2 655.9 636.7 623.2 612 614.8 628.9 645.8 644.5 643.2 649.6 656.2 675.1 684.3 683.5 680.2 662.6 640.3 621.6 597.7 577.9 552.5 533 511.3 486.1 468.7 449.1 443.1 452.2 483.2 516.6 535.4 559.1 580.6 607.3 624 652.4 682.5 698.2 718.4 739.8 761.8 779.5 787.9 795.2 792.9 785 755.8 721.8 700.7 679.3 669.5 650.1 641.5 630 619.7 601.4 581.3 575.6 553 527.4 511.5 501.8 493.8 486.9 481.4 472.9 475.5 472.1 475.2 479.1 482.4 486.7 496.6 509.7 523.8 534.5 546.6 559.5 568.6 572.7 585.6 588.2 592.2 596.6 597.2 599 601.6 599 598.9 595.4 594.2 589.8 584.8 580.5 578.5 573 568.6 568.6 561.5 554.2 548.3 541.9 537.2 529.1 522.3 521.5 516.9 509.8 500.9 497.7 494.2 485.9 478.6 466.6 462.3 457.9 455.5 452.6 449.3 447.6 448.9 445.2 442.6 444.3 448.3 448
605.9 611.1 619.7 629.8 627.9 633.1 635.1 634.4 628.1 626.1 625.7 624.3 618.1 605.9 596.4 585 569.8 551.7 527.3 525.8 495 485 474.5 454.7 442.2 426.9 412.9 414.5 423.7 432 424 434.2 445.5 453.7 468.6 477 500.4 512.6 524.5 524.5 522.8 535.2 550.1 538.2 531.8 515 500.1 475.1 442.1 414.8 395.2 374.5 364.4 353.6 344.1 332.6 324.5 316.3 318.7 334.8 358.4 394.9 423.9 455.6 483.7 518 553.3 588.7 617.9 637 659.2 661.3 660.6 651.9 634.1 620.4 606 592.7 602.1 612.3 625.3 613.1 619.3 623.4 639 666 676.2 680 671.3 652 633.6 617.6 594.2 571.8 551.6 530.2 506.6 482.7 466.7 447.9 442 455.5 488.3 520.2 540.5 562.5 581.7 604.7 631.2 662.1 682.9 704 723.6 747.9 767.4 786.2 796.9 802.5 793.3 781 751.6 727.6 706.9 683.9 667.2 644.6 634.7 629 614.2 601.1 580.9 569.7 547.1 522.4 508.8 499.7 491.4 483.8 476.7 467.7 472.1 471.3 467.9 471.1 476.5 479.8 490.7 501.1 511.5 523.7 535.9 550.3 556.2 565 575.1 579.8 584.1 584.8 583.7 581.7 583.8 577.5 577.1 573.2 570.7 566.9 565.9 564.1 558.4 558.3 552.3 547.4 540.5 536 530.2 523.9 519.4 514.6 511.6 508 504 498.9 492.4 488.5 483.4 480.4 478.6 477.1 474.2 470.9 469.2 467.9 466.6 468.1 461.5 462.7 468.4 465.6 468.2 471.6
590.1 590.9 597 604.8 604.8 612.6 613.9 620.4 622.2 619.5 616.6 611.1 606.8 599.3 589 576.9 567.5 548.6 532.9 506.5 492.1 471.4 455.6 443.3 437.2 437.1 432.4 438.5 453.8 452.7 453 470.1 476.5 492.8 501.9 513.7 519.9 533.5 537.1 535.9 535.8 551.8 549 532 517 510.2 489.5 485.1 459.6 424 402.6 379.7 370.6 360.1 347.8 338 325.1 316.3 316.7 329.7 353.8 383.8 417 450.6 476.5 508.3 542 575.1 604.9 624.6 636.4 637.8 634.6 626.8 615.1 605.5 591.3 569.7 584.9 595.7 606 597.9 590.6 611.5 638 659.6 668.4 671.9 661.9 646.4 631.1 609.4 589.4 568.7 544.8 525.6 502.9 475.7 460.5 445.4 441.8 456.7 486.3 520.1 542.7 566.2 583.6 607.5 639.8 667.5 686 708.5 730.9 749.1 773.9 791.8 804 806.5 796.5 781 756.1 728.7 709 688.1 665.4 644.2 632.5 619.6 608.2 593.5 581.1 564.8 539.4 521 507.1 498.9 492 483.3 476.6 465.9 469.6 468.2 460.7 463.5 470.7 473.2 482.1 493.4 503.6 516.7 531.1 540 553.4 564.9 568.7 574.7 575.7 575.4 571.8 568.9 565.1 564.9 559.5 556.8 554 552.9 550.6 548.8 548.2 544.4 541.4 537 528 524.2 520.5 519.3 514.3 511 508.3 510.5 508.9 509.4 502.6 498.7 495.2 493.9 495.4 488.6 487.3 486.3 484.7 483.6 484.5 484.1 482.7 486.6 488.2 490.6 491.1 494
576.2 576.3 581 583.7 586.8 589.5 590.4 601.1 606.1 606.5 603.6 598.3 593.8 587.2 583.1 573.9 561.1 545.4 530.6 515.7 493.2 491.6 477.8 464.3 467.3 452.9 454.3 468.1 475.4 480.5 487.5 494.5 514.1 522.9 531.3 532.8 540.3 546.6 547.7 549.1 554.4 552.8 544.7 532.4 514.4 497.9 486.7 469.2 447.7 427.3 410.6 394.9 378.8 361.3 350.4 340.5 328.2 315.9 313.3 325.2 346.7 378.8 409.6 438.8 466.2 498.6 529.9 560 592.1 609.2 613.9 620.6 614.2 607 595.5 590.3 574.9 557.8 562.3 580.2 583 577.8 584.6 610.8 630.3 649.5 659.8 662.9 655.1 641.6 626.1 607.8 582.7 561.4 541 518.7 490.2 472.1 454.8 442.6 442.7 460.6 481.9 518.2 546.5 566 584.2 613.5 646.4 666.9 691.7 715.9 730.5 754.4 782.1 796.1 810.3 809 801.3 786.5 764.2 736.7 711.1 689.2 668.6 640 625.2 611.9 600.3 587.4 586 558.2 537.5 523.3 509 496.4 490.5 482.5 474 466.2 462.3 464 460.9 458.9 465.1 467.3 474.8 486.1 499.3 510.7 523.9 537.1 547.9 559 567.1 571.8 578.8 583.5 578.7 575.4 570.2 564.7 557 551.3 546.6 544.7 542.4 540.5 540.2 537.1 534.5 530.8 523.5 524.3 520.7 519.7 518.7 517.6 520.3 520.4 521.1 518 517.6 517.2 513.1 512.8 509.4 507.7 504.6 501.2 500.9 501.7 503.5 506.1 505 510.1 513.4 516.4 515.3 516.5
556.8 558.3 560 566.1 567.6 570.9 576.2 581.1 586.3 589.3 589.4 587.6 586.1 581 574.3 569.7 559.2 546.3 533.7 522.9 515.9 496.9 487.9 479.9 475.7 475.7 482 493.9 505.5 514.5 517.5 524.8 542.5 545.6 548.7 551.7 555 556.7 561.3 570.5 571.3 558.2 540.9 533.5 516.8 500.7 477.6 462.8 442.7 431.5 416 400.8 383.3 367 355.9 341.9 331.6 318.8 312.4 319.6 341.3 372.6 411.2 431.8 458.7 486.6 518.1 548.6 578.2 586.2 594.7 595.4 593.9 582.3 582.1 575.7 564.7 544.1 545.7 563.6 559.1 564.3 585.9 603.8 619.9 640.2 653.3 656.2 648.5 638.9 626.5 604.5 581.4 557.2 533.3 510.4 486.1 463.7 451.4 440.5 442.1 456.7 492.5 520.4 542.2 566.8 586.8 624 648.3 672.2 693.4 718.9 736.9 758.2 778.5 794.4 810.2 811.2 804.7 791.2 769.7 739.2 710 687.4 666 644.7 620 609.9 596.4 582.5 574.5 553.3 535.6 521.9 508.6 501.8 493 486.5 476.7 468.8 462.9 460.6 457 455.3 456.6 464.7 472.8 482.6 493.6 506.6 518.9 533.5 544.5 555.7 565 577.9 594.2 605.2 596.5 592 593.1 583 573.3 561.1 552.6 546.3 542.1 540.4 540.2 538.3 536.3 535.9 533.1 531.3 533.3 532 532.7 536.2 538.7 538.6 537.9 537.9 536.7 533.4 530 527.8 517.2 519.5 519.1 520.8 522.9 525.9 525.3 528 529 534.3 542.9 540.2 543.7 547.6
534.9 538.7 539.9 543.2 553.7 557.9 563.6 567 567.7 569.8 572.3 574.3 574.1 573.1 572.9 567.1 559.4 549.5 543.5 532.1 519.7 513.7 505.1 495.9 496.6 503.6 516.6 527.3 540 553.2 557.1 552.9 559.8 563.5 563.4 568.7 566.7 567.9 583 583.2 574.5 559.9 549.7 531.4 521.1 505.4 489 464.7 447.1 435.1 424.5 411.8 393.2 372.5 359.8 348 333.5 321.3 313.5 315.4 333.7 369 400.9 424 449.3 477 505.9 537.1 559.6 566.2 577.4 579.4 571.4 568.8 569.9 559.6 547.7 528.8 526.1 548.2 534.5 554 577.7 588.2 611.9 632.3 646.2 649.5 643.7 638.2 617.4 599.5 572.7 552.4 530.6 509.1 485.1 463.2 446.5 438.9 439.7 460.3 496.4 517.7 543.1 565 597.9 624.6 649.2 673.7 694 722.4 743.5 763.8 776.4 792.7 812.4 816.3 807.9 793 773 742.6 720.7 691.4 660.5 632.9 616.7 608.1 591.5 574.7 565.1 551.1 531.9 518.9 506.5 498.6 491.4 483.4 475.8 470.2 461.2 458.1 453.5 451.7 454.5 461.9 466.9 479 491.3 506.2 516.3 530.8 543.8 555.1 569.4 586.4 605.2 618.4 623.2 619.6 624.7 609.6 590.8 576.6 567.2 552.5 547.3 544.9 548 547.6 551 549.4 548.1 548.1 549.1 550 551.4 557.8 558.1 559.2 556.8 554.1 551.7 552.3 551.4 540.9 538.6 533.3 532.9 538.8 541.8 543.8 547.8 549.9 550.8 555.5 561.9 566.1 574.2 577.2
521 520.7 522.8 528.2 536.2 542.9 548.6 552 554.6 556.3 557.8 559.6 564.3 569 568.4 567.1 561.4 555.9 549.7 540.7 533.1 527.1 517.4 515.5 523 535.7 547.2 565.9 578.4 579.6 576.8 573.7 578.4 573.7 578 576.3 578.4 588 592.3 582.9 574.5 561.6 548.5 534.2 524.4 508.8 486 466.1 449.7 440.5 430.3 416.7 398.8 379.4 361.2 352.3 337.6 323.7 312.5 314 331.8 362.2 391.1 414.8 442.2 468.3 495.8 527.4 538.4 550.1 559.2 557.9 552.9 549.3 548.9 548.5 535.2 515.2 513.4 529.7 519 532.1 558.2 585.6 604.2 625 638.3 643.3 638.4 624.1 610.1 587.8 569.3 545.2 522.7 502.9 481 461.3 445.5 434.5 437.4 463 493.3 518.4 543.8 567.7 597.8 623.9 644 671 698 724.4 746.2 765.6 776 793.4 812.5 817.9 813.9 798.7 781.5 756 719 689.7 663.9 632.1 612.5 601.1 585.1 573.9 558.5 543.2 525.9 514.1 504.7 493.7 488.1 475.5 471.1 462.4 454.8 453.9 445.6 447.2 455 459.1 463.1 477.8 491.6 502.4 513.4 526.6 541.3 558.3 575 600.7 616.9 633.5 655.4 648.4 644.8 634.8 613.4 600.8 590.8 575 565 565.2 562 564.6 570.8 567.7 566.7 570 571.9 576.8 580.9 586.1 586.4 585 583.4 577.6 570.1 569.8 565.4 556 560.8 556.9 552.5 556 560.3 562 568.3 570.6 571.9 580.8 587.5 594.3 596.8 597.9
500.8 504.1 509.3 512.9 518.6 528.5 533.1 539.1 540.6 541.6 540.9 548.7 560.3 567 568.5 570.7 568.2 562.7 558.4 556.2 551.4 541 535.2 549.3 553.8 567.6 578.1 593.1 592.4 592.6 593.4 589.1 589.9 590.6 587.4 588 595.1 605 592.4 585.4 575.6 568.8 557.7 546.7 533.4 502.2 482.2 463.4 452.9 443.2 429.9 415.6 397.2 378.8 363.5 353 340.5 325.7 316.5 312.4 325.5 353.7 384 406.9 434.7 460.1 489.2 510.7 524.8 533.9 538.3 538.1 536.3 527.6 527.5 530.2 529.3 494.5 509 499.1 522.5 532.6 554.6 578 600.7 617.8 631.5 635.4 631.8 623.3 596.1 581.6 562.6 541.9 521.1 498.1 475.6 457 443.7 432.7 438 464 485.1 517.1 543.3 575.1 595.9 622.1 642.5 671.7 700.9 722 746.9 765.7 777.4 788.8 807.1 812.8 815.9 802.5 783.9 762.4 729.2 691.3 665.1 639 615 600.2 588.1 577.3 562 543.6 528 518.6 511 503.5 490.3 477.5 467.4 457.3 454.6 446.7 445.8 440 447 449.7 459.3 473.7 488.5 498.5 512.9 526.1 543.1 560.1 583.9 609 626.7 642.3 665.4 673.4 676.7 660.2 647 640 635.1 617.5 590.2 587.3 584.5 585.8 591.3 591.4 589.9 594.3 597.7 601.9 605.1 608.1 610.6 614.1 610.1 606 597.3 586.8 580.9 576.6 585.1 574.2 572.8 574.3 579.6 583.9 590.7 591.7 593.7 604.5 609.5 618.7 623.7 623.2
