ncols 200
nrows 82
xllcorner 380000
yllcorner 462750
cellsize 50
303.8 306.6 310.4 314.1 320.1 327.5 330.3 332.3 330.6 328.6 315.2 290.1 276 269.2 271.9 282.8 292.6 294.3 291 292.8 290.2 271.3 259.8 248.9 240 234.2 228.6 221.6 212.9 207.7 204.3 199 189 178.1 170.5 176.9 179.4 182.7 186.5 191.3 197.6 199.3 199.5 198.6 203.2 209.1 209.7 215.8 227.4 253.9 282.1 294.3 298.2 301.6 311.3 311.5 311.5 312.5 315.6 319.6 321.9 325.4 326.8 327.2 327.3 327.1 331.3 333 331.1 331.8 333.1 335.1 335.4 333.4 329.8 325.2 320.3 314 309 312.8 315.6 316.8 317.9 318.4 318.4 317.5 316.4 317.7 319.9 321.1 321.5 323 325.8 328 331 329.8 335.3 344.8 344.8 337.7 337.5 352.6 358.8 362.2 363.2 362.5 363.2 365.2 367.5 369.3 367.7 369 376.3 378.7 382.1 385.9 391.3 397.4 404.1 410.3 415.4 419.9 424.2 428.6 433 438.6 442.9 444.6 444.5 442.2 443.4 448.7 448.6 444.8 437.4 425.1 415 408.7 407.8 407.1 406.8 406.4 407.7 410 414.7 416.3 410.7 406.5 405.6 403.6 402.9 403.2 401.4 400.7 397.2 393.6 389.9 388.3 385.9 383.3 379.9 379.7 382.4 380.9 377.6 377.7 378 378.5 378.9 379.2 379.5 378.7 378.3 378.9 379.7 380.1 380.3 379.9 379.1 376.6 374.3 374.3 374.3 374.3 374.3 374.3 374.3 374.3 374.3 374.3 374.3 374.3 374.3 374.3 374.3 375.4 375.4 376.2 379.3 401.7
300.8 306.1 306.6 311.7 315.5 316.9 325.4 327.1 328.8 326.7 317.8 305.4 278 268.6 266.6 276.2 286 282.2 284.7 284.2 275.1 266.8 257 249.2 241.9 235.6 229.2 222.2 213.8 206.6 202.2 198.4 184.7 173.9 170 176.1 178.6 182.4 186.4 191.6 195.5 195.9 197.3 193.7 189.4 201.9 207.3 213.5 225.1 248.5 281.4 292.7 299 302.5 305.4 312.1 312.4 314.8 319 324.1 323.4 324.1 326.5 328.5 331 332 331.4 331.2 333.1 334.4 337.7 338.1 340.4 340.9 339.1 335.5 332.1 325.5 315.1 309.7 311.3 311.9 313 313.9 314.6 315 315.3 315.5 317.4 319.2 320.3 321.4 322.8 323.4 324.1 328.5 340.4 347.8 353.3 354.3 346.9 348.2 357.7 360.3 360.7 360.1 360.1 362 364.2 364 366.6 370.8 372.7 375.8 381 384.2 390.2 397.9 404 409.9 414.9 419.5 424.7 429.3 433.4 437.2 444.1 446.6 445.9 443.1 437.2 438.6 438.6 434.4 427.5 417.2 412.3 410.2 406.8 405.6 404.8 404.9 405.1 405.5 406.6 411.9 410.7 407 408.6 407.9 406.8 407.1 405 400.1 398.8 396.6 392.4 389.5 386.6 383.2 380.7 380.3 382.3 380.6 377.7 376.9 377.3 377.9 378.9 379.5 379.8 379.6 379.3 379.6 380 380.3 380.3 379.8 377.4 374.3 374.3 374.3 374.3 374.3 374.3 374.3 374.3 374.3 374.3 374.3 374.3 374.3 374.3 374.3 375.1 376 376.1 376.1 377.3 383.1
299 304.5 304.7 306.9 307.4 312.3 311.2 311.5 322.7 315.3 313.9 311.4 289.2 268.2 266.1 270.2 275.1 277.1 279.7 277.5 267.4 260.4 254.3 248.1 243 237.1 230.1 223.6 215.7 208 200.8 196.7 183.4 171.1 172.5 175.2 179 183 184.7 186.6 189.7 190.6 191.4 191.1 196.7 201.1 206 211.1 223.2 245 273.2 295.3 300.1 304.5 306.5 307.4 312 314.2 315.7 320.8 322.5 325.2 327 330.4 334.2 335.3 336.5 337.8 338.3 338.1 338.3 343.7 345.4 346.9 344.8 345 345.7 341.5 327.1 319.1 314 311.1 311.8 313.3 313.9 314.6 315.1 316 316.4 317.4 317 320.1 323 331.4 333.9 342.1 344.1 347.3 353.4 356.4 356.9 343.1 352.6 357.5 357.9 356.8 356.6 359.6 359.4 362.7 365 366.2 368.5 373.3 378.6 383 389.2 397.1 403.9 409.5 414.3 418.8 424.2 428 432 436.7 441.7 446.2 446.9 444.5 439.1 430.5 427.2 424.2 420.1 416.8 413.8 411.7 407.7 406.3 405.5 404.9 405 405.5 405.8 407.4 407.3 407.8 409 411.6 410.1 409.1 408.8 404.3 400.4 399.6 396.1 392.1 389.3 386.6 384.1 382.2 381.8 380.5 378.7 376.6 376.8 377.4 378.4 379.1 379.4 379.6 379.8 380.1 380.3 380.2 379.9 379.6 375.1 374.3 374.3 374.3 374.3 374.3 374.3 374.3 374.3 374.3 374.3 374.3 374.3 374.3 374.3 374.3 375.1 376.6 376.3 376.4 378 378.1
298.3 302.1 301 297.6 297.8 301.9 302.3 303.2 302.1 310 310.8 310.6 303.1 271.3 265.1 266.9 268.7 268.9 271 265.4 263.8 257.6 254 247.9 245.3 238.3 232.9 225 217.3 208.7 202.4 194.5 182.7 169.2 172.2 174.1 173.2 180 182.1 183.8 184.4 185.3 187.5 189.4 193.8 197.1 204.7 210.1 217.9 244.2 269.8 295 302.6 307.4 307.5 309.1 311.1 312.9 317 321.7 324.3 325.6 327.3 329.1 331.8 337.7 339.7 339.9 342 342.3 343.3 348.1 349.1 350.5 351.8 352.8 352.9 350.6 344.6 329.3 324 323.1 318.2 314.6 313.2 315 315.6 316.2 316.1 318.5 320.1 323.4 330.7 337.7 345 349.3 353.1 354.3 355.3 356.9 358.3 356.7 350.9 348.8 350.3 351.4 353.6 356 355.5 360 362.2 362.7 367.1 372 377.2 382.8 388.9 396.9 403.6 408.9 413.6 418.8 423.6 426.7 430.5 435.9 440.2 444.7 446.1 444.1 440.8 434.7 424.5 420.5 417.6 416.2 413.9 411.4 408.6 406.7 406.2 405.3 404.4 404.8 405.9 406.7 408.3 410.1 410.8 411.1 411.3 409.8 408.2 403.3 401.6 400.6 401 395 392.1 389.5 387.6 384.6 381.2 380 377.6 376.5 376.8 377 377.6 378.3 379.1 379.7 380.1 380.2 380.5 379.9 379.1 376.3 374.3 374.3 374.3 374.3 374.3 374.3 374.3 374.3 374.3 374.3 374.3 374.3 374.3 374.3 374.3 374.3 375.4 377.3 376.9 376.9 378 377.8
300.7 295.8 291.2 292.2 293.9 296.6 298.2 297.7 298.8 299 305.6 311 304.5 292.2 269.1 266.6 264.3 263.2 263.5 262.1 261.5 255.6 252.7 250.3 244.1 238.3 232.1 226.6 219.2 210.8 200.6 191.8 179.4 168.9 174.8 174.5 173.9 173 176.3 182.2 182.6 183.6 186 187.6 192.7 188.3 203.6 207.4 213.3 235.8 263.3 294.5 302.4 307.2 310.1 311.4 313.6 316 320.2 322.2 323.3 323.7 325.4 327.9 330.9 333.9 336.3 338.2 341.6 344.1 346.1 347.2 351.4 355 356.6 358.4 357.4 354.9 351.6 348.9 346.2 336.2 330.2 325.5 322.7 320.9 318 317.8 318.6 320.3 323.7 329.8 340.2 347 351.4 355.4 359.1 359.8 359.4 358.4 359.3 358.1 353.4 354.9 354.8 355 354.6 355.2 356.8 357.3 360.4 364.4 368.3 373.2 378.8 384.3 390.6 397.4 403.1 408.7 413.9 418.8 422.9 426 428.8 432.9 437.8 442.2 444.6 442.9 439.2 434.3 426.3 421.3 416.6 413.7 412.4 410.6 408.9 408 407.1 405.8 404.1 403.2 404.2 405.4 406.9 407.5 407.9 406.7 410.3 409.9 405.9 402.1 403.6 400.7 397.7 394.2 399.1 394.7 390.6 384.6 382.8 380.1 378.6 378.4 377.1 377.2 377.9 378.3 379 380 380.8 384.6 383.4 379.3 375 374.3 374.3 374.3 374.3 374.3 374.3 374.3 374.3 374.3 374.3 374.3 374.3 374.3 374.3 374.3 374.3 374.3 378 378.4 377.6 377.4 377.9 377.8
295.9 292.2 290.4 290.8 292.2 294.5 295.1 295.2 296.2 297 298.1 299.4 299.2 297.3 285.8 270 264.2 260.3 258.2 257.7 258.4 257.5 254.7 249.4 244.2 236.6 228.5 223.2 216.3 210.8 203.4 199.8 180.5 167.9 174.4 174.5 174 172.9 173 182.1 181.4 182.2 183.8 187 192.3 198.4 201.9 204.8 204.9 232.1 259 297.6 303.7 304.5 306.8 311.7 315.3 317.1 319.9 322.7 323.5 324.3 325.7 328.1 330.8 333.6 336.1 338.2 342.5 345.3 347 349.8 351.9 355.9 358.4 360.4 361.3 358.5 356.8 358 355.3 349.1 340.1 334.6 330.7 324.9 322.9 322.5 323.4 329.3 335.5 340.8 345.6 352 356.1 360.2 363.5 365.2 362.4 361.1 360.3 356.3 359.6 359.7 359.4 360 360.8 361.2 361.5 359.7 362.6 365 369.7 375.2 380.3 385.6 391 396.7 402.4 408.4 413.4 417.8 421.6 424.7 426.6 429.7 433.6 438 440.8 439.3 434.2 429.7 423.9 416.1 413.7 412.5 411.4 410.1 409.1 408.1 407 406.3 404.2 402.3 402.4 403.3 403.8 403.6 402 402.2 403.3 404.2 402.6 404.4 404.7 404 402.5 396.5 398.8 399.6 395 388.1 386 383 381.7 380.5 378 377.2 378.2 378.7 379.6 380.5 381.2 381.6 381.8 379.5 375.9 374.3 374.3 374.3 374.3 374.3 374.3 374.3 374.3 374.3 374.3 374.3 374.3 374.3 374.3 374.3 374.3 375.2 378.9 380.1 378.5 377.9 377.9 377.8
292.1 294.6 292.9 291.8 291.5 291.8 291.9 292 293.1 293.9 295.4 295.6 292.9 292.4 295.9 275.2 264.4 260.3 255.7 253.9 252.7 257 251 249.9 245.2 239.7 235.3 227.4 221.4 213 207.2 202.2 186.3 166.7 170.2 173.8 173.2 172.5 171.7 176.2 180.5 180.8 182.2 186.5 190.1 196.3 199.1 202.9 201.9 227.5 258.4 302.6 306.5 302.9 305 307.5 316.4 317.1 319.4 321.1 323.2 325 326.8 328.3 333.8 334.7 339.1 342.6 345.1 348.3 350.8 352.5 354.5 358.4 356.1 360.9 363.1 360.6 363 363.2 360.2 355.9 350.7 345.9 339.7 333.4 327.9 330.4 323.5 337 345 349.4 351.9 356.4 360 364.6 368.2 368.9 366.9 364.1 362.5 360.8 362.8 363.8 365.7 366 365.7 366.7 366.3 366.4 361 366.4 372.2 377.6 382.1 386.7 390.6 395.8 401.2 407.5 412 416.1 420 423.7 425.3 427.6 429.1 433.1 434.3 429.7 423.4 419.5 417.5 419.7 419.4 416.2 414.5 411.8 410.6 408.8 407.4 405.2 404.2 403.2 401.6 401.1 401 400.8 400.7 401.2 402 401.1 399.2 399.6 402.7 402.3 403 399.8 396.1 394.7 390.8 388 387.2 385.2 382.8 381.7 379.9 378.5 377.1 378.9 380.1 380.9 381.6 381.7 381.2 379 378.6 378 376 374.3 374.3 374.3 374.3 374.3 374.3 374.3 374.3 374.3 374.3 374.3 374.3 374.3 374.3 376.6 380.3 381.2 379.4 378.5 378.2 377.9
289.2 293.3 292.9 291.7 290.8 292.3 290.8 289.7 291.1 292.3 291.6 292.3 292.9 291.3 282.9 273.7 264 259.3 254.4 253.6 252.5 256.2 261.3 258.9 250 243.5 235 228.7 221.7 214.1 208.3 203.4 194.3 179.3 165.3 167.2 170.2 171.1 171.2 172.6 178.2 179.1 180.4 185.7 188.9 190.6 187.9 199.1 206.1 219.5 258.5 303.1 305.9 302.3 303.6 306.6 309.6 315.1 318 320.8 324.3 326.4 327.9 328.8 333.5 338.1 341.9 345.6 348.6 350.8 352.9 358.3 359.2 360.4 361.3 363.3 363.3 363.5 365 366.7 364.3 361.2 358.7 355.2 350.7 342.1 335.3 337.8 332.7 343.8 349.7 354.3 357.9 360.5 364.3 369.1 372.4 373 371.3 368.3 366.1 364.5 365.5 367.6 370.4 372.7 373 372.9 372.9 372.6 370.1 365.6 373.1 379 383.1 386.2 389.5 393.7 399.5 404.6 408.6 414.1 418.8 422.6 424.1 424.9 424.6 427.6 431.4 433.4 433.2 432.2 429.9 427.5 425.1 421.3 418 415 412.5 410.5 408.5 407.9 405.4 403.7 402.3 401.1 400.1 399.6 399.2 398.7 400.7 401.5 400.1 398.6 399.6 400.3 401.2 400.9 399.3 395.1 392.9 389.8 386 384 382.8 382.8 383.9 382.9 381.5 379.6 380.4 381.2 381.9 382.2 381.9 381.4 379.6 380.5 380.7 376.4 374.3 374.3 374.3 374.3 374.3 374.3 374.3 374.3 374.3 374.3 374.3 374.3 374.3 379.2 381.6 380.8 380 379 378.5 378
286.6 290.5 291.7 293.2 291 289.7 291 290.5 290.9 289.9 290.7 291.3 291.6 291.4 288.7 273.8 263.4 258.5 255.4 253.4 251.3 258.8 265.1 263 255.3 244.9 236.1 228.2 220.9 213.9 208.9 203.4 195.8 189.1 184.6 174.8 164.6 168.7 170.7 171.6 175.8 177 178.8 183.7 186 189.9 185.4 194.4 212.3 232.8 218.4 304.2 307.4 300.4 303.3 304.5 308.2 311.7 314.2 319.8 323.1 326.6 329.1 330.3 335.9 342 344.3 348.5 351.9 353.3 357.5 361 362.6 362.7 363.1 364.7 366.6 367 367.2 369.7 368.3 366.8 364.7 360.2 355.4 344.9 345.4 344.9 336.4 348.2 352.9 356.5 361 364.1 366.8 372.3 375.9 376.6 376.3 373.6 370 368 369.5 372.7 374.9 377.5 379 379.5 379.3 378.1 376.7 370.6 371.7 378.2 381.4 383.9 386.4 390 393.5 401.1 405.5 412 417.2 422.6 426.9 431.2 433.7 439.4 441.6 439.8 439.7 438.5 435.9 433.1 429.4 425.9 422 418.9 415.5 412.6 410.6 409.6 408.8 406.1 403.1 401.8 400.7 399.9 398.9 397.2 396.9 398 399.1 398 400.5 402.3 402 400.7 400.6 397.4 392.4 389.2 386.9 384.7 383.3 383.8 384.8 385.1 386.9 384.7 381.3 381.6 382.2 382.3 382.5 382.3 381.3 380.7 381 381.3 376.2 374.3 374.3 374.3 374.3 374.3 374.3 374.3 374.3 374.3 374.3 374.3 378.2 380.4 382.5 382.2 381.1 380.5 379 379
285.8 285.8 287.2 292.2 294.5 295.2 291.4 292.1 291.9 291.6 293.7 293.8 295.4 295.3 292 282.8 262.6 257.9 258.2 256 255.3 254.8 265 265.9 258.3 247.3 236.8 228.6 220.5 213.4 209.5 203.9 197.1 191.5 188.2 187.1 185.5 168.1 164.3 170.9 171.4 174.7 177.1 183.3 183.8 187.3 185.3 190.1 205.6 207.7 212.1 301.3 309.8 301.3 295.6 300.8 304.3 305.8 310.3 314.2 323.9 326.6 330.4 335.5 339.4 344.7 347.4 350.9 354.3 356.9 361.8 363.3 364.9 366.1 367 365.5 367.4 368.7 369.2 370.3 370.9 370.1 368 365.3 357 358.9 358.6 354.1 348.1 340.9 352.7 355.5 360.4 367 369.3 373.2 377.8 379.7 379.5 378.6 375.6 372.1 370.1 377.3 380.2 382.3 383.7 384.5 384.4 383.1 380.8 378.2 368.6 372.3 377.7 380.6 384.3 386.6 390.6 397 402.9 408.9 416 422.9 429.2 433.8 438.2 443.6 445.9 445 445 444.5 441.6 438.1 433.9 429.2 426 422.9 419.5 416.7 413.1 410.2 409.1 406.7 404.3 402.5 401.5 400.8 400.6 401.8 397.3 395.4 395.9 396.7 398.7 399.6 399.1 397.9 395.7 393.2 391.8 387.9 385.5 383.7 384.4 384.7 385.1 386.1 388 387 384.7 383.6 384.4 382.9 382.3 382.3 381.6 380.6 380 379.4 378.4 378.3 375.8 375.7 374.3 374.3 374.3 374.3 374.3 374.3 374.3 376 379.9 381.8 383.7 382.5 381.9 382 381.1 381.1
283.5 285.6 287.6 288 295.6 299.5 299.9 294.8 294.2 292.5 293.2 295.8 295.6 292 291 282.1 262.4 254.4 262.4 265.1 260.5 257.7 261.7 268.7 258.2 248.2 236.2 227.1 219.2 212.6 209.5 204.3 198 193.6 191.6 189.4 187.5 184.3 173.5 163.9 169.6 170.7 175.6 178.5 182.3 187.2 184.5 190.1 188.8 191.2 209.9 264 302.8 300.4 292.2 297.3 301.8 299.8 304.3 313 316.6 325.6 331.1 338.3 344.2 347 350.9 352.1 356.2 360.7 364.1 364.7 367.9 369 367.1 368.1 370.5 371.1 371.6 372.8 374.6 374.2 372 368.5 362.9 366.2 366.2 367 366.5 364.7 351.6 350.5 356.5 364.7 370.5 373.7 378 380.8 382.1 382.6 381.1 378.8 374.7 377.7 383.2 386.4 387.9 388.5 388.4 387.1 384.2 381.7 379.3 373 377.3 383 386.9 390.5 394.2 399.9 404.9 411 418.8 427.4 435.5 440.5 445.3 448.8 450.3 452.2 453.2 451.1 448.6 444.8 438.4 432.8 427.2 424.4 421 418 414.9 411 408.3 405 403.6 402.7 401.2 399.7 400.2 402.2 399.5 394.4 393.4 394.5 395.8 394.7 394.9 395.1 392.5 391.7 388.5 386.5 385.1 384.7 385.9 386.2 386.2 386.8 386.9 387.7 388.4 386.8 386.4 384.6 382.8 382.1 381.5 381.2 380.3 379.8 381.2 383.6 380.5 378.8 376.2 374.3 374.3 374.3 374.3 374.3 377.2 380.4 382 382.6 384 383.3 383.1 383.1 382.1 382.3
284.5 288.3 289.8 290.5 289.6 300.2 303 300.3 296.4 295.4 294.3 292.8 296 292.9 287.7 281.8 267 253.3 260.7 267.6 268 268.5 263.2 264.5 256.1 246.6 234 224.8 218.3 212.6 210.2 205.1 201.4 197.3 194.9 191 187.4 184.8 182.2 171.8 164.4 166.7 172 175.4 179.5 183.6 184.3 187.2 188.9 196.4 206.5 223.3 291.7 292.8 289.8 294.2 297 295.6 302.1 307.6 312.3 317 329.8 341.1 343 347.4 350.6 354.1 358.8 364.2 365.5 367.7 369.1 370.5 371.3 372.1 374 373.9 373.9 374.3 377.4 377.8 374.8 372.6 370.2 371.9 372.9 373.5 372.4 370.2 370.8 359.1 357.3 358.7 367.1 372 376.7 380.4 383.6 385.5 385.3 384.2 382 378.5 383.2 387.3 390.1 391.3 392 390.6 387.4 384.2 381.9 379.6 377 383.6 388.9 394.1 399.2 402.8 407.4 413.7 421.3 429.5 436.9 439.9 444.4 449.1 452.2 456.7 461.9 461.7 460.6 455 448.8 438.2 430.2 424.8 419.2 415.1 413.2 409.8 405.2 402.6 401 400.1 399.2 397.8 397.8 399.5 400 399.5 392.9 392.1 398.3 397.3 393.1 389.4 388.8 388 387 385.9 385.2 386.5 387.5 387.5 386.8 385.3 384.8 384.8 388.2 386.2 387.2 386.7 384.5 383.2 382.3 381.8 380.6 379.9 379.8 381 382.1 381 378 374.6 374.3 374.3 374.3 375.8 379.6 381.6 383.3 383.9 383.4 383.4 384.2 386.7 385.9 387.5
284.5 287.5 290.4 292.6 294.5 299.5 302.8 303.4 299.4 296.2 295.9 295.2 292.2 290.9 286.2 278 269.1 257.7 261.2 268.1 270.8 272.8 271.5 266 253.8 243 231 223.5 218.5 214 211.8 207.4 204.1 201.4 197.6 191.7 187.7 184.7 182.7 180.5 170.4 165.3 165.9 173.4 175.1 181 183.3 184.7 189.2 205.3 209.1 215.2 244.3 269.1 274.9 280.7 293.3 291.5 299 302 313.5 317.8 330.5 336.3 344.2 346.7 352.9 357.7 360.8 363.6 369.2 371.5 362.9 373.5 374.8 375.7 377.2 376.7 376.3 377.5 378.8 379.3 377.5 376 375 377.1 378.6 379 377 377.2 375.4 374.2 370.2 363.9 361.2 366.5 371 376.7 381.8 386.2 387 387 385.9 383 380.8 385.9 389.4 392.4 394.1 393.1 389.7 386.1 383.8 381 375.8 385.2 390.8 395.7 400.5 404.9 410.1 416.2 421.9 428.5 433.4 437.2 439.6 446 453.4 460.7 466.6 467.7 466.7 461.1 456.3 449.4 438.4 428.7 421.4 412.8 408.5 405.2 400.8 399.2 399.7 399.1 398.1 397.1 396.6 396.1 396.8 397.4 394.8 390.4 393.7 395.9 392.7 388.8 386.4 384.7 384.7 385.1 385.3 385 385 385.3 385.1 382.8 381.8 381.8 384.4 384.3 384.5 385.1 384.9 384.7 383.7 382.7 381.7 379.8 378.8 378 380.6 380.7 378.8 376.7 374.3 374.3 374.3 378.5 380.8 381.9 383.4 385.1 386.9 385.7 385.1 387 387.2 390
286.1 289.4 291.4 293.1 296.6 299.6 302.6 303.1 301.1 299.7 297.1 289.8 292.6 290.3 288.4 279.9 273.3 265.4 258.2 266.6 268.8 273.9 273.3 273.3 261.1 238.4 228.2 221.7 219.5 215.7 213.1 208.8 205.8 203 198.5 191 186.3 183.9 182.6 180.9 177.4 169.2 162.2 167.6 173 178.1 182.6 184.8 202.9 209.8 215 216.6 219.7 250.9 257.6 269.5 284.1 289 293.8 301.4 311.6 315 323.3 332 335.9 346.5 348.5 355.4 358.7 361.8 371.9 359.2 373.9 378.7 378.1 378.4 379.4 379.1 379.3 379.6 379.4 379.6 380.6 379 379.8 381.9 383 383 381.2 381.7 379.4 381.2 384.7 377.6 368.6 367.3 366.6 371.2 376.9 383.4 385.6 386.3 386.2 384.1 380.9 384.1 387.8 391.3 392.6 392.2 389.6 387.1 385.3 383.3 378.3 386 391.1 395.7 400.5 405.6 409.9 414.6 421 426.2 431 434.5 438.2 442.8 451.2 458.4 460.9 464.5 466.2 461.2 457.1 453.8 444.7 436 426.1 414.5 412.2 407.6 404 403 402.1 400.8 399.3 397.9 397.7 397.9 396.8 394.5 392.9 391 389.1 389.5 388.4 386.4 383.8 383.8 383.6 384.1 383.6 385.2 383.3 382 380.9 380.6 379.8 379.8 378.9 379.9 381 381.8 383.3 384.5 384.9 384.7 383.5 381.7 378.7 377.4 378.8 379.2 377.7 376.1 374.7 373.7 374.9 380.1 382 383.5 384.6 387.7 387.8 386 385.5 385.8 387.5 388.6
287.2 290.5 292 294.6 298.1 302 303.1 305 306.5 302.8 301.2 286.8 289 290.9 287 280.7 275 267.8 259.3 258 265.9 272.8 274.3 274.6 265.1 235.6 222.2 219.6 219 217.6 214.8 210.9 207.2 203 197.1 189.9 184.2 182.9 181.8 180.7 181.1 176.4 166.9 164.6 168.6 172.9 182.6 185.3 206.6 212.6 212.4 212.5 209.6 211 242.5 254.3 272.4 282.8 291.8 301.4 306.9 313.5 323.2 324.9 330.2 341.1 344.5 348.2 356.4 363.4 359.6 361.8 375.3 376.8 378.7 379.3 380.3 381.8 382.1 381.8 380.8 380 383.3 381.8 383.2 384.8 386.3 385.7 384 384.5 383.1 386 389.2 387.8 381.7 376.2 373.4 372.6 376.8 379 382.5 383.5 384.6 383.5 384.1 385.4 386 389.2 389.7 390.3 388.6 387.6 386.5 385.1 380.5 385.6 389.3 394.1 398.7 404.1 408.1 413.1 418.4 423.6 429.5 433.2 437.7 441.5 445.7 450.5 453.6 458.5 461.3 457.4 454.3 452 445.8 436.8 430.5 426.8 418.9 415.6 408.8 406.3 403.4 402.3 401.2 400.4 400.3 400.6 399.6 397.8 396.5 394.3 390.7 387.3 386.6 385.2 383.9 384.3 383.9 384.2 384.1 387.6 386.4 384 381.5 380.7 380 379.3 377.4 377.6 378.3 379.3 380.3 383.2 384.7 384.7 384.4 382.2 379.7 377.4 376.1 376 375.8 374.6 373.1 374.7 377.9 380 380.2 382.6 384.9 386.2 386.3 386 385.1 385.1 386.8 388.1
288.3 290.8 291.8 296.8 299.8 303 303.7 304.6 308.9 308.3 306 299.9 287.9 293.9 293.3 286.1 276.9 271.4 260.6 255.1 260.8 267.8 272.2 272 238.9 227.4 217.6 216.4 217.3 218.5 215.7 211.9 208.5 202.4 194 185.6 181.7 181.1 181.3 181.2 182.6 183.9 167.9 160.1 168.7 171.8 182.2 183.8 195.6 204.1 209 213.3 217 220.4 231.2 245.3 262.6 278.4 289.6 297.7 307.2 313.3 320.9 323.2 327 332.2 341.6 346.6 355.8 358.1 356.9 365.8 372.1 376.7 379.3 380.5 381.4 384.2 384.2 383.6 382.4 383.1 382 383.9 386 387.2 388.1 387.8 386.7 387.4 387.2 391.2 392.7 391.2 389.2 385.3 382.9 376.4 384.8 387.2 386.4 385.7 385.4 384.6 387.2 389.1 388.5 388.5 389 390.6 391.8 391.5 389.7 386.2 381.1 384.3 387 391.6 396.2 398.1 404.6 408.9 414.9 420.4 426.1 430.5 435.2 439 440.8 442.9 445.7 449.5 452.5 453 451.2 448.3 441.7 439.8 442.1 440.3 434.5 425.6 415.7 410.7 407.1 405.4 406 405.6 405.8 406.8 406.9 411.1 406.1 399.8 397.8 391.9 390.6 388.3 384.2 383.5 383.3 383.7 384.7 386.4 385.1 380.8 379.2 380.9 380.2 379 378.3 376.8 376.2 378.9 381.8 386.4 389.7 390 387.1 383 378.9 378.7 377 376 374.7 373.6 374.3 376.6 377.7 377.4 378.2 380.2 383.3 384 384.8 384.5 384 385.4 386.7 388.8
285.5 290.7 294.9 297.5 301.1 303.9 305.2 307.3 308.6 310.7 308.5 307.7 304.1 298.7 299.2 288.2 276.1 268.5 262.4 254.7 256.9 261.6 268.9 255.2 234.7 220.3 215.7 216.6 217.1 217.7 215.1 211.5 206.7 200.3 188.5 181 178.2 179.5 181.9 182.8 183.4 184.3 177.6 159.3 167.1 171.1 181.3 188.5 191.1 195.3 198 201.3 206.5 214.3 224.8 233.1 258.2 281.4 293.9 301.4 309.1 316 320.6 323.1 330.2 332.9 339 348.9 357.8 357.4 364.1 374.6 377.7 379.7 381.8 383.5 383.7 385.5 386.1 385.9 385.7 385.5 384.7 386.2 387.9 389 389.6 389.4 390.4 390.4 389.8 395 395.5 393.7 392.3 390.8 389.7 385.6 386.4 392.1 393.2 392.1 390.2 386.7 392 393.2 391.5 390.4 391.5 393.9 396.4 395.6 393 387.5 383 384.5 386.7 388.9 392.7 397.1 399.6 405.3 409.6 415.3 420.7 425.8 429.7 433.7 435.2 437.2 439.6 442.4 445.7 448 447.5 443.9 440.4 442.1 445.8 444.2 440.6 435 428.4 422.3 416.7 413.2 415.8 417.8 418 417.1 419.3 418.6 415.8 409.7 407.9 396 394.3 392.6 388.7 383.1 383 383.2 383.9 382.3 380.2 385 387.2 384.6 380.5 377.4 377.5 377.5 375.7 375.3 374.8 379.5 383.6 383.4 378.9 378.3 378.2 377.7 377.6 380.9 381.8 374.5 373.6 377 377.5 377.3 377.8 379.8 381.9 383 384.1 383.6 383.9 385.5 387.4 389.2
286.2 287.7 294.1 296.1 299.7 301.3 303.8 307.7 306.1 310.4 312.1 310.9 309.7 309.2 306.8 296.2 277.2 266.2 256.9 253.5 253 253.7 256.1 247.7 232 217.4 216.5 218 218.4 216.9 213.1 209.8 204.7 194.6 182.3 174.8 173.1 178.8 183.2 182.7 182.5 181.3 174 161 164.2 171.4 181 195.8 201.1 194.4 191.5 194 201.9 209.3 217.9 230.7 250.3 280.5 296.6 305.2 313.6 320.1 323 324.6 333.6 333.7 337.7 348.9 352 358.8 371.1 378 382.6 383.7 385.6 385.7 386.1 388.3 388.5 388.7 387.7 388 387.9 389.6 388.9 389.3 391 391.5 393 392.9 393.3 398.3 398.7 397.7 396 394.4 395 393.2 386.4 395.8 397.1 395.8 394 390.4 393.4 394.7 393.6 393.4 394.6 397.4 400 399 395.5 389.5 385.1 386.4 388.2 389.7 392.3 394.2 396.1 398 403.9 409.5 414.8 420 425.4 428.9 430.9 433 436 438.1 441.2 442.4 442.1 439.1 436.5 440.5 445.3 444.3 442.2 436.2 433.6 431.4 424.6 424.8 425.7 425.7 423.5 420.6 421.2 420.7 418.4 411.5 405.4 396.9 393.8 394.4 389.7 384.2 382.6 382.5 382.4 382.9 386 387.9 388.5 386.4 384.1 381.7 379.3 375.8 375.4 374.8 374.6 373.1 373.6 373.3 375.1 376.4 378.6 377.5 377.9 377.9 379.3 377.9 372.8 373.6 376.6 377.4 377.9 379.9 382 383.1 383.4 383 383.7 385.9 388 389.1
286 283.9 288.4 293.7 295.6 300.8 303.1 307 309.3 312.3 312 310.9 312.1 309.7 306 295.2 279.5 265.8 258 251.5 248.1 248.2 247.9 240.3 227.1 217.7 217.9 219.5 220.2 216.2 209.1 206.3 199.8 185.2 174.1 170.6 170.4 176.4 183.4 183.3 182.9 179.3 168.8 162.8 166.5 174.5 188.6 198.9 201.2 192.8 189.6 193.3 197.5 205.9 216.6 229.9 247.4 267.6 294.8 303.5 311 319.5 325.1 326.5 335.4 340.4 339.3 346.7 355.7 367.4 376 383.7 387.7 388.7 389 388.5 388.9 390.2 391.1 391.3 390.9 392.5 393 393.1 390.4 391.9 392.4 393.5 396 395.5 395.8 400.4 401.1 400.3 398.5 396.7 397.7 396.6 391.5 396.6 397.8 397 396 392.5 394.2 395.8 397 397.2 398.9 399.7 399.6 398.7 396.3 390 388.2 389.1 389.2 391.3 395.1 397.6 400.8 402.9 405.1 403 410.3 414.2 419.3 423.7 426 428.9 432.4 434.4 435.8 436.3 436.5 434.5 430.4 433 435.5 442.5 444.6 444 437.8 434.4 430.1 431.3 431 428.8 426.7 422.6 420.3 419.7 418.8 412.8 406.1 397.3 394.5 388.9 389.3 385.6 383.7 383.2 383.3 386 386.9 386.8 386.2 384.9 383.8 382.4 380.2 378.5 376.8 375.8 373.2 373.3 373.8 373.4 373.3 374.8 375.4 375.9 375.7 378 374.5 373.4 372.8 373.6 374.5 376.1 378.7 380.8 381.4 382.4 383.1 383.1 383.7 385.3 386.6 387.3
280.6 282.3 287.8 290.5 292.4 297.6 303.8 308.3 311.6 313.3 314.6 313.3 312.3 309.2 300.9 290.7 271.2 267.3 256.3 248.9 244.6 241.6 236.8 233 223.9 217.6 218.2 220.6 215.6 209.4 206 202.7 183.2 172.8 168.7 168 169 174.5 182.6 184.1 183.3 170.4 162.8 158.7 167.1 180.9 193.9 201.5 195.6 191.9 189.8 192.2 197 209.2 222.1 233.5 248.3 267.6 283 300.3 310.3 320.2 327 331.7 336.3 344.2 345.6 348.1 354.5 368.6 380.1 386 390.6 392.8 392.3 392.5 394 394.6 395.7 394.6 395.3 397.7 397.3 397.2 395.3 394.6 394 395.7 396.5 397.3 397.9 404 403.4 402.8 401.2 399.6 399.7 399.9 397.4 396 397.1 396.5 395.3 393.8 398.9 400.3 401.3 401.1 401.1 399.4 397.9 396.9 394.6 389.8 395.4 394.4 393.8 395.8 398.1 401 405.7 407.9 411.1 409.9 406.5 410.4 414.5 418.2 420.6 423.2 427.6 430.4 430.6 430.6 430.8 431.4 429.1 428.3 431.8 441.8 449 449.3 443.2 438 436 433.3 431.1 429.2 427 425.3 420.1 420.4 418.6 416.1 409.1 399.7 393.3 389.9 388.3 385.9 384.4 384 383.9 386.5 389.1 386.9 385.2 383.9 383.4 381.6 381.2 380.8 379.2 377.3 375.9 375.2 374.3 373.7 373.1 373.4 374 373.6 373.6 374.4 375.1 372.9 371.4 372.4 373.1 374.5 375.4 378.8 380.3 380.1 382.4 382.9 383.5 384.4 384.9 385.1
271.8 279.7 287.3 290.4 294 298.2 304.5 306.7 311.6 314.4 315.1 314.5 311.7 310 305.1 297.1 272.7 266 256.3 249.5 242.6 236.5 232.4 227.7 222.5 217.2 215.4 213.9 210.3 205.3 200.6 181.1 172.1 167.2 165.2 165.6 167.4 172.6 179.6 181.8 166.2 160.4 161.7 164.1 168.5 183.9 202.3 204.1 196.2 190.6 191 194.8 202.5 217.3 229.5 239.6 249.9 272 284.4 294.5 308.6 318.4 329.4 331.8 336.5 344.1 348 353 353.1 359.7 383.1 388.4 392.3 396.5 396.2 396.1 398.6 399.7 401 400.3 401.5 403.1 401.9 400.3 399 398.5 397.9 399 399.1 399.1 399.9 406.6 406.2 405.2 403.6 402 403.7 403.8 400.5 397.1 398.4 397.8 396.9 396.4 403.9 406.5 406.2 405.1 403 399.7 396.3 396.2 394.1 393.1 399.2 399.4 396.9 397.6 399.9 403.6 408.4 412.6 414.2 413.4 412.1 410.6 414 415.7 417 417.4 423 426.7 426.7 428.2 429.6 430.2 430.3 428.6 427.8 439.5 452.2 454.3 452.5 441.4 440.3 437.3 435.9 431.1 429.1 426.7 421.2 419.1 419.9 417.3 412.7 401.4 395.6 391.3 389.1 387.3 385.2 384.8 384.7 386.1 387.7 388.8 388 386.1 384.6 383.4 382.7 382.6 382 380.5 378.6 377.3 376.5 376.3 375.7 375.4 374.3 373.8 372.5 372.3 373.6 373.7 371.4 371.7 372.6 373 373 372.6 375.6 380 381.9 383.2 383.3 383.6 384.3 383.4
254.7 260.7 268.4 287 292.8 298.1 303.4 306.3 307.7 310.8 312.5 312.3 311.5 313.4 311.8 305.4 290.5 269.1 258.9 253.1 243.1 236.8 232.2 225.6 220.4 216.2 213.5 209.6 204.2 196.5 178.2 172.7 166.7 164.4 163.6 163.9 166.1 170 175.2 163.9 158.2 161.5 163.5 166.2 177.6 190.1 202.3 201 195.5 193.4 197.4 202.9 210.1 225.2 236.6 245.4 255.3 274.8 286.2 296.3 303.4 318.7 328 333.7 338.7 342.9 351.4 355.2 353.9 360.1 383.7 391.1 395.5 397.3 400.2 401.7 403.9 405.2 405.3 404 406.5 406.9 405.9 404.5 403.2 403.7 403.7 402.7 402.3 401.9 403 403.7 408.9 407.6 406.2 405.4 406.3 405.4 398.5 402.6 402 400.1 396.9 400.2 407.2 410.2 409.4 407.5 403.3 399.5 397.1 400.2 395.9 393.2 399.9 399.9 398.8 399 403.7 407.1 410.7 415.3 415.1 415 414.3 413.8 417.4 420.5 422.5 423.9 424.1 418.7 425.2 429.7 430.7 431 430.6 430.1 429.9 430.1 445.6 456.2 457.3 444.4 443.5 441.9 439.2 435.6 431.2 429.3 426.7 419.2 416.9 417.7 414.4 402.5 398.9 395.4 391 389.5 386.1 385.5 386 386.5 390.1 392.3 391.7 389 386.5 384.9 383.5 384 384 383.2 381 380.2 380 380.2 380 379.7 378.7 378.1 377 375.4 372.3 372 371.6 370.7 371.4 371.6 371.5 373.4 376 378.7 380.3 380.8 380.9 380.3 380.6 382.6
228.3 242.2 259.8 268.7 279.5 291.1 298.4 301.4 303.4 305.5 309.7 310.6 310.2 315.6 314.7 308.9 299.7 278.4 266.1 254.8 247.5 236.5 231.3 226.6 222.4 213.1 208.9 204.4 190.9 181.8 172.9 168 163.9 163 163 163.6 165.7 166.3 163.4 157.9 161.2 162.6 165.3 175 178.4 192.3 204.4 203.2 197.9 198.9 203.7 209.4 219.2 230.6 241.8 253 260.9 273.5 287.1 294.6 303.5 313.3 329.4 337.4 341.1 345.8 351.8 360 356.7 364 372.9 387.7 397.6 397.9 404.6 405.7 408.3 409.6 410.3 406.9 412.6 412 410.7 408.8 407.4 406.7 407.7 407.4 406.2 405.4 406.7 405.9 409.3 411.1 410.2 408.9 408.5 404.1 401.6 407.9 406.9 402 400.7 405.5 407.8 409.7 408.5 407 402 398.9 399.8 401.7 402.5 395.5 396.8 399.1 399.7 401.9 407.3 411.8 415.3 418.2 419.4 419.7 416.5 416.9 418.3 420.9 423.4 425.4 427.5 427.3 426.8 430.1 431.5 431.4 431.1 430.8 430.9 430.7 434.5 448.8 458.6 455.8 445.8 444.4 443.2 438.2 435.6 433.1 430.4 425.8 418.6 417 415 407.2 402.4 399.9 395.7 393.5 389.2 387.1 387.1 387.3 392.6 394.8 394.7 392.7 390.3 386.9 384.8 383.9 383.9 384.4 381.7 380.8 382.1 382.6 382.8 383.3 382.6 382.2 381.4 379.5 376.9 373.1 371 370.7 370.4 370.6 374.3 376.5 378.3 377.8 379.4 379.8 378.6 378.1 378.8 381
211.1 215.3 226.1 259 269.9 275.4 279.1 279.1 304.2 306.9 310.6 312.6 314.3 316.5 314.9 309.4 304.2 295.1 274.6 264.3 252.4 241.7 231.1 229.2 220.5 206.3 198.7 188.9 180.7 173.2 169.6 165.7 162.7 162.6 163.2 163.4 164.9 161 159.1 160.4 161.5 163.9 170.5 180.1 188.3 196.9 202.8 206.4 206.2 206.6 210.5 216.8 227.9 236.4 243.9 255.4 267 277.8 289.5 295.4 306 309 326.1 337.3 344 348.3 352.5 364.8 364.7 367.7 376 386.3 390.8 405.4 406.8 409.8 413.4 414.4 415.5 413.8 414.5 415.5 414.9 412.6 411.3 410.1 412 410.4 409.1 408.3 410.9 409.4 412 414.9 414.4 412.4 410.3 403.5 407.8 411.3 411.9 405.6 409.7 411.7 410.3 408.4 406.3 403.3 401.3 401.2 401.7 403.9 406.5 399.9 396.2 398.6 400.7 405.9 410.6 414.8 419.2 422.2 424.8 426.4 421.9 421 422.4 426.4 426.1 427.7 429.3 429.9 429 429.7 432.6 432.6 432 434.1 433.8 434.1 433.1 440.5 451.6 460.4 454.3 448.8 448.4 445 440.8 435.1 435.4 431 424.7 418.9 416.8 414.4 406 403.2 399.7 395.7 392.3 390.1 388.9 387.8 387.9 398 397.8 397 394.6 390 386.5 384 384.6 385.8 383 381.7 382.8 384.4 385.4 385.3 386.5 387.1 386.2 385.6 382.8 377.2 372.8 370.1 369.8 370.2 375.1 379.7 382.1 382 381 380.9 380.5 379.5 380 382.5
196.9 203.1 205.1 224.3 248.9 262.8 275.2 284 290.4 308.9 312.6 317.1 314.3 312.6 311.7 309.3 302.6 301 291.4 273.5 260.4 248.7 233.4 226.2 219.4 202.4 188.4 180.3 172.6 167.9 165.6 163.8 162 162.6 163.2 162.9 161.5 157.5 159.5 160.6 161.8 169.2 177.1 177.5 191.5 199.9 209.2 214.3 210.6 210.3 213.1 225.2 235.1 243.5 250.4 258.2 270.6 279.7 291 299.6 306.7 314.2 327.6 336.1 346.7 353.7 361.1 365.4 372 369.8 378.7 381.5 388.4 404.7 410.3 413.9 416.8 419.1 419.4 415.9 411.7 419.5 418.7 418.4 414.7 412.5 414.4 414.6 414.4 411.3 415.3 414.5 413 413.5 414.3 411.9 408.1 408 413.1 416.7 418.4 413.8 416.7 418.7 420 414 408.4 406.3 405.1 402.7 405 405.8 406.6 401.8 398.4 397.5 401.5 409.6 414.9 418.6 422.3 426.1 429.9 431.6 431.2 426.2 428.1 431.3 432.9 433 432.7 433.8 434.1 433.6 434.9 436.4 437.1 437.2 436.5 436.8 439.8 437.4 444.3 452.2 459.6 455.9 453.3 451.5 444.7 438.1 435.1 435.7 430.9 423.9 421.2 418.6 415.3 408.8 402.4 399.3 396.3 392.3 392.2 390.2 389.3 397 400.9 401.7 399.1 392.8 389 385.5 383.4 385.3 385.5 381.6 383.3 387.2 389.3 389.6 388.9 389.3 388.7 388 387 384.1 376.5 370.7 369.2 369.3 375.8 381.2 384.2 385.8 385.9 386 385.6 385 385.4 387.1
188.7 188.8 195.2 199.5 218.2 235.3 261.6 282.3 286.8 292.2 307.5 308.5 305.2 309 307.5 305 302.3 299.1 294.9 284.6 262.3 255.7 241 226.2 217.4 195.3 183.1 173.3 168.1 165.8 163.8 161.7 161 161.3 160.8 159.4 157.1 159.2 159.8 164.2 174.3 178.2 179.8 184.7 192.5 204.9 216 216.8 214.5 211.8 216.9 232.7 240.7 248 257.6 266 273.6 283.8 292.6 300.6 310.5 318.8 326.6 339.4 347.5 355.3 364.6 368.1 374.7 378.6 376.1 380.2 388.8 412.2 413.2 418.3 419.9 421.3 419.4 415.9 419 421.5 422.5 422.3 419.4 417.5 422.3 420 418.5 415.5 415.4 417.6 417.3 417.3 415 414.5 414.3 411.1 419.2 422.8 424.1 423.2 425.2 422.5 427.4 420.7 419.4 412.4 408.8 408.4 409.5 410.1 408.1 400 404.1 408.9 404.6 408.9 416.4 420.6 423.9 429.1 435.1 437.4 438.5 433.2 433.1 435.6 436.9 438.3 438.7 439.5 440.5 443.6 442.7 441.8 440.1 438.9 439.6 440.2 440 441 439.7 447.3 453.4 460.3 458.8 457.1 452.1 442.9 440.6 436.4 437 431.1 426.6 424.5 423 416.1 407.7 403.5 400.4 394.4 396.7 393 391.3 391.1 404.1 404 403.5 399.5 392.4 389.3 384.9 382.7 384.3 381.2 383.5 390.7 391.4 390.9 391.2 390.4 388.9 388 388 386 380.6 374.4 369.3 369.3 376.7 381.4 385.1 388 390.6 392.4 392.8 392.1 390.4 391.6
183.8 181.8 181.4 188.8 193.2 207.9 228.2 255.5 273.3 288.8 289.4 295.4 293.4 302 303.1 300.4 300.6 293.4 294.6 291.2 274 258.5 248 232.3 217.4 192.6 176.5 168.3 167.5 165 162.8 160.6 159.4 158.8 158.4 158.3 157.7 158.8 165.9 172.7 178 180 176.4 190.5 196.7 207.5 212.3 213.2 212.4 213.3 219.6 231.9 242.1 250.1 259 267.6 278.5 289.9 296.5 304.1 312.3 321.6 330.6 338.3 347.5 357.1 365.6 370.4 374.4 378.2 380.2 379.9 392 411.4 407.6 422.5 422.7 420.1 425.4 426.8 428.9 428.2 426.9 426.5 423.3 423.8 425.9 424.9 422.1 421.4 417.9 419.1 422.5 420.4 420.7 419.5 418.9 417.4 424.3 429.3 430.6 430.1 433 430.7 433.1 429.3 428.5 417.8 415.9 415.6 415.3 420.5 415.9 411.6 409.9 416.3 418 411.6 416.2 420.1 424.3 432.1 438.8 442.3 442.8 440.5 438.5 441.1 444.1 446.1 446.1 445.3 447.4 450.2 450.5 448.4 446.3 445.2 445.7 444.5 443.1 443.1 444.1 444.2 450.2 455.8 463.4 462.5 451.2 447.5 447 444.3 440.6 438.8 433.2 429.5 427.6 424.7 414.5 405.5 400.7 402.1 399.9 398.5 395.7 393.4 399.1 406.5 405.5 403.6 399.1 393.3 390 385.1 383.1 381 380.8 392.1 393.4 392.2 391.9 391.8 387.7 386.5 387.3 386.5 380.3 375.6 368.7 377 378.3 381.8 385.4 389.3 391.8 394 395.7 396.1 395.8 395.3
184.1 178.3 176.4 177.8 180.9 183.6 198.2 221.9 252.1 261.6 281.6 285 286.7 285.4 292.1 294.6 289.4 289.7 290.8 285.2 274.3 258.5 248.9 233.1 214.1 190.8 174.5 168.3 166.1 163.4 161 159 158 158.9 157.9 157 157.8 161.1 168.4 176 178.2 180.9 185.1 192.9 200.1 209.5 210.7 209.9 210.3 213.8 220 228.1 238.8 248.2 259.3 271.3 278.9 291 298.3 310.2 314.6 321.7 330.7 338.5 346.2 358.7 366 372.4 376.9 378.3 382 383 387.2 398.5 404 423.1 425.9 429.9 433.9 434.6 436.9 435.6 434.1 432.9 430.7 429.3 429.9 428.1 431.3 427.3 424.8 423 428 424 426.2 423.5 423.2 423.5 429.1 435.2 437.8 435.8 438.4 436.6 436.8 435.9 433.7 427 424 425.4 423.3 429.1 428.8 423.1 418.9 424.1 425.6 425.9 422.9 422.3 425.2 434.4 441.9 446.1 446.5 445.7 444 443.9 449.5 452 452.7 452.8 452.7 454.8 456.5 454.8 453.5 452.2 452.3 450 444.6 445.8 446.5 445.1 445.6 454.2 457.1 459 452.3 451.5 453.2 452.1 447.7 443.7 437.6 435.8 432.5 430.2 425 411.5 402 398.4 402.8 402.6 400.6 397.4 393.9 402.3 408.6 406.7 405.1 400.5 394.3 388.4 385.8 384.3 381.5 384.6 392.9 390.9 390.2 390 386.7 386.2 384.4 383.7 378.1 369.4 368.9 378.6 381.4 383.1 385.8 389.2 392 393.6 395.1 396.3 397 397.4
185 180.4 175.6 173.6 172.3 170.7 178.6 194.1 216.2 253 261.4 273.6 274.3 277.4 283.3 287.1 286.4 287.1 285.5 279.8 274.7 264.2 250 231.4 209 191.2 176 167.4 164.7 164.7 161.1 158.1 157.3 157.4 155.1 156.7 160 166.2 170.9 175.8 178.7 178.2 187.5 195.9 201.3 209.6 209.7 208.4 208.5 214.3 226.3 234.2 239.3 247.2 255.5 267.8 278.9 295 301.8 310.1 318.1 323 330.3 339 346 354 362.9 369.9 374 378.5 382 384.4 386.3 394 408.1 428.3 434.9 437.1 439.5 440.2 442.7 443 441.3 439.7 436.6 435.7 437.3 436.9 434.9 431.7 429.5 427.1 427.7 427.7 432.3 430.9 429.3 431.1 431.6 438.6 440.9 440.6 440.7 440.7 440.3 439.2 436 433.3 430.3 433.7 433.9 431.9 435.7 433.3 430.7 429.1 432.8 432.2 432.8 429.3 427.6 434.1 444 449.3 450.6 450.9 450.5 450.2 453.3 456.7 459.1 461.2 460.9 460.1 461.3 460.7 459.9 459.6 459.9 457 451.4 449.8 450.8 449.8 447.4 449 453.5 459.3 457 455.6 457.9 457.8 453.6 448.8 445.7 439.5 438.2 434.3 431.2 422.8 408.4 398.5 398.6 404.9 405.2 403 399.4 395.5 406.8 410.9 409.1 405.5 401.5 391.1 387 386.2 384.6 381.5 390.2 392 388.1 386.4 384.9 384.6 381.6 378.9 369.8 368.7 373.6 377.3 381 382.4 387.5 389.4 391.6 393.8 395.1 395.1 395.5 396.4
185.1 182.2 175.5 173.1 171.1 170 169.6 178.4 193.5 218 256.6 265.4 271.4 274.7 279 282.1 282.1 282.9 280.3 279.1 273.5 266.9 247.8 227.7 210 192.5 175.8 165.5 164.2 164.9 160.5 157 156.1 154.6 156.7 155.4 163.2 166.7 170 174.8 181.4 183.9 192 198 203.2 207.3 207.5 205.6 206.7 217.6 228.8 235.5 244.4 254.6 263.4 267.2 278.5 292.2 301.7 310.7 319.5 325.1 331.9 339.7 345.4 353.8 361.5 366.8 370.6 384.5 382.6 383.6 385.2 391.4 420.9 437 440.6 441 442.5 444.1 445.9 448.2 447.7 445.3 442.5 441.3 441.6 440.1 438.9 436.2 436.8 431.9 434 432 435.1 435.7 435.2 434.1 436.2 437.6 439.4 441.3 443.4 443.9 443.1 441.9 442.2 439.5 437.9 439.9 438.9 437.6 438.9 441.7 438.5 434.5 439.2 438.9 439.6 437.9 435.9 435.3 443.8 451.5 455.1 458.7 457.6 456.2 456.3 459.2 462.7 467.8 469 467.8 467.7 466.6 466.6 465.2 465.9 464 458.6 456 455 455 454.4 451.6 449.5 454.4 457.9 459.3 460.1 461.7 461.9 455.6 450 445 443 440 435.5 430 418.7 404.3 398.3 399.3 405.1 407.4 405.1 399.8 398.8 413.9 412.1 410.5 405.9 400.8 389.7 387.6 385.4 381.3 382.4 384.4 384.5 382.6 382.4 381.7 378.5 371.8 367.2 375.8 379.1 375.5 379.1 381 386.6 391.9 392.5 393.7 395 394.5 396 397.6
189.6 187.4 177.3 172.9 171 169.6 169 171.8 179.6 193.3 212.7 249.7 263.3 277.3 279.3 277.9 279.2 280.7 278 277.8 271.9 265.3 247.9 227.3 211.3 194.9 177.8 165.4 164.3 165.2 155.9 152.4 155.8 156.2 155.4 157.8 169.6 168.1 171.6 174.3 181.5 186.3 193.4 200 204.1 204.6 202.6 202.8 206.3 217.2 229.1 236.3 246 255.5 266.9 273.9 286.7 298.8 301.8 311.8 319.4 328.2 333.9 342 350.3 357.1 361.4 365.7 371.5 374.8 379.7 382.6 384.2 389.7 409.1 434.9 441.7 443.5 447.1 446.2 448.2 452.9 452.3 449.7 448.2 446.6 446.6 446.7 445.2 443.9 440.4 440.6 439.8 437.7 439.8 441.2 442 441.7 441.8 447.1 450.7 448.9 447 447.9 447.6 445.7 448.5 446.9 444.6 444.7 444.1 442.6 440.5 445.9 444.2 441 445.2 443.7 442.9 444.3 442.2 440.2 445 452.4 460.3 464.7 464.6 462.1 461.2 462.5 468.8 474.1 475.8 474.8 474.8 473.2 474.3 471 470.1 469.3 465.5 461 459.4 460.1 459.3 458.7 454.4 451.1 453.9 459.8 462.3 465 466.5 462.6 455.6 448.8 445.9 442.7 438.2 434.5 425.9 415 403.1 399.4 400.1 402.7 405.6 404 395.2 410.3 415 412.8 410.3 405.8 394.7 389.1 386.7 383.7 381.1 381.5 383.1 380.2 379.5 378.3 374.5 365.4 368 376.1 379 379.3 377.2 379 382.1 385.3 389.1 393.4 395.6 392.3 395.3 397.4
190.8 187.1 179 175.1 175.7 171 167.1 173.9 177.7 179.3 191.8 209.1 248.6 270.7 276.1 275.4 275.4 279.4 275.8 241.9 265.9 261.1 243.6 223.1 209.8 196.3 181 167.4 164.8 166.4 153 155.3 155.6 155.1 155.4 167.4 165.4 167.3 170.7 176.1 174 188.4 194 198.9 201.1 201.4 201.6 200.2 206.4 218.9 229.5 235.9 246.8 262.1 270.5 279.8 293 303.9 313.7 315 321.1 329.4 336.7 344.8 352.4 359.4 361.8 364.5 368 370.3 375.1 380.7 385.3 391.1 416.5 426.2 438.7 444.9 450.7 450.8 451.2 455.7 454.7 453.2 453.6 451.5 451.6 452.5 449.8 447.6 448.5 445.5 444.2 442.9 444.8 448.2 448 450.1 449.8 454.7 456.5 453.6 453.1 453.8 454.3 453.1 452.9 452.5 452.1 453 451.3 446.4 446.1 447.7 446.8 446.7 449.3 449.9 448 447.6 447.5 446.4 447.9 456.8 464.2 469.9 472.2 467.7 466.5 465.4 472.6 478.4 481.4 480.8 479.9 480.5 480.1 477.9 474 472.1 469.3 466.3 464.6 465 464.8 463 462.1 456.2 455.5 456.3 461.5 464.8 465.8 466.1 459.3 453.4 449.7 445.6 442.1 438.6 431.7 424.2 412.5 401.3 400.9 402.3 405.5 404.3 399.7 393.2 411.6 416.6 413.2 405.4 398.2 391.2 389.4 387.7 383.1 379.9 380.8 379.5 376.9 376 370.6 365 375.1 377.9 378.5 378.5 377.1 377.5 378.4 380.3 383.4 389.9 390.9 390.9 395.4 399.4
192.1 188.2 182.8 181.7 180.2 175.1 166.2 168.7 177.3 176.8 179.7 191.1 210.7 248.9 272.8 274.6 275.9 269.1 218.8 200.7 266.7 257.1 236.5 221.4 209.5 194.7 181.3 170.2 164.7 164.7 153.7 154.8 154.7 155.4 164.2 162.8 164.3 167.4 172 179.4 184.6 189.8 194.5 197.6 199 200.2 199 199.8 204.7 217.7 226.7 233.7 248.6 266 273.8 283.9 297.6 309.2 318.2 322.2 326.2 329.9 337.3 345 354.7 359.8 362.1 363.8 365.5 367 380 382.5 387.2 396.9 414.5 426.6 438.2 444.6 450.4 452.5 454.7 459.9 460.1 457.3 457.4 456.5 454.3 455.4 456.1 454.1 452.6 450.7 448.8 446 449.1 453.8 454.5 455.9 453.9 455.6 458 457.5 459.1 459.8 460.2 459.3 459 457.1 458.6 458.7 456.2 450.8 451.1 452.1 449.8 450.4 454.8 454.8 454.8 452.5 453.8 452.2 450.8 457.3 465.3 471.4 474.4 473.4 471.8 472.3 476 482.7 484.6 484 484.4 485.6 484.6 482.9 478.3 475.6 472.1 471.3 468.5 469.9 469.8 468.1 466.3 462.1 459.1 459.7 459.6 462.3 464.2 464.3 460.3 455.1 452.3 448 444.9 441.1 437.3 428.5 414.8 408.2 402.8 403.6 404.6 406 404 395.8 391.8 398.3 414.3 408.4 401.9 391.2 395.7 390.7 388.3 381.4 378.5 376.9 374.8 374.5 364.4 370.5 378.9 381.8 380.6 378.3 377.7 377.5 377.8 379 381 384.5 386.9 389.4 392.6 395.8
193 190.5 187.2 185.7 183.3 179.2 171.4 165.3 169.5 176.4 174.7 176.8 186.8 213.5 254.1 274.8 266 216.1 196.5 196.6 221.3 252 234.1 218.2 208.4 192 180.8 171 165.1 161.6 152.6 154 153.7 164.6 164.1 162.6 163.8 166.8 172.4 177.1 185.5 191.1 194.5 197 197.5 197.3 197.5 200.5 206.9 215.9 225.1 234.4 253.6 270 277.4 288.1 303.5 315.5 322.9 330.8 335.9 340 340.7 341 347.9 357.6 359.8 363 364.9 365.5 375.8 385.4 389.5 391.1 420.2 435.6 444.2 448.4 452.9 455.8 457 460.9 464 461.7 460.4 458.9 457.1 457 454.8 454.1 456.6 455.9 454.1 453.2 454.5 460.4 460.9 460.7 458.6 460.5 463 462.4 464.4 465.6 465.8 465.1 464.7 463.9 465.9 466.5 461 454.4 456.5 458.8 457.7 456.3 460.4 463.2 462.3 460.8 465.3 463.1 457.8 457.4 465 471.6 476.6 476.8 476.8 477.8 479.7 486 487.7 487.6 489.3 489.7 488.4 486.8 484.6 480.2 477.4 474.9 473 473.3 473.5 470.7 468.1 466.1 464 462.9 462.5 462 462.6 462 459.4 455.8 452.6 449.6 445.9 442.6 438.9 432.8 425.5 412.4 412 407.5 406.3 406.4 405.1 397.8 393.1 391.1 393.4 410.2 403.8 387.8 397.9 396.7 392 382.4 380.6 378.1 370.7 369.8 364.9 378 382.2 384.4 383.8 380.7 377.8 378 378.2 379 381 383.8 386.2 388.8 391.5 394.1
198.2 195.7 190.5 188.7 187.2 183.7 175.4 164.1 168.8 176.9 173.8 171.9 171.4 189.6 226.8 262.1 265.1 236 196.6 196.3 195.8 247.9 231.9 214.3 205.2 191.4 180.6 171 165 157.2 152.6 152.9 153.6 158.5 160.3 160.6 163.5 166.9 171.6 172.5 183.9 191 193.9 197.2 197.4 195.7 195.8 201.5 209.5 219 229.4 239.4 255.8 271.4 283.4 296.4 308.3 319.8 329.2 336.4 341.3 344.9 347.2 348.7 348.1 351.3 355.8 361.3 366.7 367.3 369.9 381.2 388.5 391.1 406.1 435.6 447.3 453.7 456.3 459.2 459.2 461.1 463.8 464 463.7 463.9 460.5 454.6 448 454.4 459.9 460.4 459.4 458.3 460.5 465.5 465.2 465.5 464 464.1 468.3 468.2 470.5 471.4 471.7 470.5 471.6 470.4 470.7 470.7 468.7 461.7 457.2 462.5 464.1 464.8 466.7 469.6 471.4 472 471.1 469.5 464.6 465.8 462.1 470.4 476.3 478.6 481.7 485.7 485.2 489.2 493.5 494.8 493.5 494 492.3 490.4 487.1 483.6 481.8 478.6 475.7 475.1 475.2 474.3 471.9 469.6 468.3 467.1 465.6 462.9 458.3 457 456.3 455.8 453.8 451.3 446.9 443.8 441.5 437 428 423.8 415.4 412.7 410.2 407.7 405.4 401.8 395 393.2 391 391.9 393.9 384.6 384.6 396.9 396.3 383.5 380.4 381.9 376.5 367.1 370.7 378.8 381.3 386.2 385.2 383.2 380.6 378.6 378.3 379.5 383.1 386.2 387.7 389.4 391.6 394.7
203.6 203.2 195.8 191.7 190.6 186.5 179.1 166.8 163 170.7 169.7 170.5 168.9 173.7 198.9 238.9 263.7 269.1 196.8 196.5 196 241 227.2 210.6 203.7 190.5 181.3 171.6 166.2 156.9 153.5 153.4 155.4 157.1 159.9 159.4 161.7 166.7 172.7 176.7 182.2 188.1 191.4 193.6 194.1 193.6 196.4 201.4 212.1 222.9 231.3 240.4 258.5 274.2 288 300.5 311.8 323 333.3 341 345.3 349.5 353 355 355.8 353.4 354.1 356.6 362.1 365.7 365.6 370.3 383.4 386.4 391.2 411.8 449.1 456.8 460.6 464.8 463.4 462.8 463.7 465.2 463.8 466.3 463.7 452.9 452.7 458.9 462.6 465.1 465.2 463.6 462.1 468.1 469.5 470.3 468.7 467.1 473.2 474.5 475.7 476.2 476.8 475.9 476.4 476.2 475.5 475.6 475.2 469.2 461.2 462.2 465.9 469.6 474.7 478.8 477.7 476.7 473.2 473 468.5 471.5 468.6 467 474.3 477.9 485 492.1 493.7 495.1 498.6 500.3 499.3 497.8 496 492.2 487.3 486.2 485.4 482.5 478.9 477.6 477.1 476.2 474.8 473.3 472.3 471 469 466.7 463.9 453.7 450.4 450.1 449.9 450.3 447.6 445.6 442.9 438.5 431.7 427.7 422.1 416.6 414.2 412.4 407.8 405.3 398.6 394.3 393.7 390 388.1 382.9 379.1 385.5 398.2 389.7 379.2 381.9 381.9 357.7 368.9 378.2 383.1 386.9 387.8 385.6 385.7 383.1 379.9 380.2 383.6 388.5 390.3 391.7 392.9 395.7
209.1 208.5 202.3 195.6 193.8 191 184.6 170.5 161.1 161.4 164.7 168.8 168.3 166.6 175.5 222 253.9 263 237.2 212.5 196.6 239.5 219.8 208.6 201.8 190.2 180.8 173 167.7 155.5 151.3 152.2 152.8 154.7 156 159 159.1 166.6 174 176.3 181.2 189.3 191.5 191.8 190.3 192 197.1 205.6 215.5 228.7 238.1 247.2 263.5 279.6 291.9 302.4 313.2 320.6 327.5 339.9 347.7 353.1 354.8 358.5 359.8 360.6 354.9 355.3 358.2 362.5 363.9 366.8 372.7 377.3 383.3 395.8 414.1 460.4 466.3 466.2 467.3 466.2 466.7 467.1 467 468.6 468 455.9 453.2 462.4 464.7 468.1 470.7 468.7 466.8 468.5 471.2 473.3 474.5 473.5 480.7 482.2 481.8 481.2 481.4 481 480.3 482 482.1 479.6 479.5 473.1 464.5 464 466.2 470.6 478.2 484.2 482.5 480 478.1 477.4 474.2 476.1 475.7 473.1 472.3 477.7 487 496.7 500.5 501.1 501.4 503.3 503.1 501.7 500.5 498.1 492.3 490.7 489.6 488 484.2 481.6 480.1 479.7 477.9 476.8 475.9 474.6 472.2 471.2 469.7 463.1 452.8 451 445.8 444.7 449 446.9 444 441.2 434.7 429 425.4 419.6 418.8 416.7 411.2 408 401 395.4 394 390.8 387 382.3 377.3 377 379.8 383.7 378.8 375.3 381.1 376 363.1 378.4 383.1 384.1 389.8 388.9 389.6 388.7 383.3 380.6 381.9 386.5 391.2 393.2 394.7 396.5
212 211.6 205.3 198.4 196.3 194.6 189.9 178.8 164.3 160.3 160.1 162.7 164.7 166.4 167.9 194.3 230.3 253.6 249 207.1 201.4 218.9 226 204 196.5 188.7 179.7 174 168.4 161.4 150.6 151.7 151.6 154.7 155.4 157.4 159.5 166.5 169.2 173.9 182.7 188.9 189.8 188.3 188 192.3 199.3 209.6 222.6 231.3 243.9 252.9 268.6 285 303.3 308.2 317.2 321.7 326.6 338.2 349.2 353.6 356.9 359.3 362.3 363.4 362.7 360.8 359.2 361.4 366.6 366.8 369.5 371.9 377.3 385.6 409.2 458.4 468.7 469.1 468.2 469.5 469.5 470 470.3 469.7 472.4 465.7 467.9 467.1 468.8 472.5 473.6 472.9 469.6 469.8 472.7 474.9 479.1 478.6 488.4 490.6 489.3 487.3 486 486.2 485.4 485.1 485.2 484.1 482.6 474.1 469.6 474.6 472.7 471.5 479.6 485.8 487 482.8 482.3 480.6 480.2 479.9 480.5 478.5 475.2 477.4 484.3 498 505.4 506.3 506.6 506.4 506.5 505.6 504.9 501.4 500.5 496.5 494.8 492.1 488.5 485.6 483.5 482.1 481.3 481 479.7 478 476 474.6 473.4 470.5 457.4 455.8 453 445.9 441.3 441.1 441.3 441 435.4 433.4 428.4 424.1 419.4 417.8 414 409.7 404 398.2 396.1 392.9 388.6 385.4 380.5 374.2 371.4 370.5 367 363.8 376.3 378.1 355.9 379.3 379.4 383 387 390.7 391.3 393.3 391.3 382.7 382.3 386.4 390.9 393.1 395.3 398.5
212.5 212.6 207.4 201 198.6 197.3 195 187.7 167.7 159.5 159.8 159.2 165.7 164.3 166.7 177.3 193 199.2 198.2 195.4 195.2 212.9 230.7 206.9 201.3 194.1 181.9 171.9 167.6 166.2 158.9 147.7 151.2 152.4 153.1 157.4 158.6 162.6 169 173.6 181 186.1 186.4 185.7 186.8 195.2 202.4 215.7 229.1 241.1 246.6 255.5 270.5 286.5 304.3 310.9 320.8 327.6 332.2 336.7 350.9 357.7 358.6 361.5 364.1 365.7 368.1 370.6 364.7 361.7 371.2 371.7 366.4 371 374.4 382.4 403.2 450.9 469.1 471 470.5 471.8 473.4 472.5 473.2 471.4 474.7 473.5 474 470.9 471.6 474.3 477.4 475.5 474.2 474.9 476.3 477.4 481.7 482.9 493.5 495.6 494.6 492.8 491.9 491.5 491.8 490.6 488.8 487.5 486.8 479.4 476 483.6 481.5 481.4 483.6 487.5 486.9 487.2 486.3 483.8 484 484 484 482.9 478.7 477.9 483.8 498.2 504.6 512 512 511.6 510.2 509.4 508.7 506 504 503.8 501.5 499 493.4 491.5 487.2 486.9 485.9 485.1 483.5 481.4 479.5 478.1 477.3 475.4 466.4 459.9 457.7 454.3 444.8 441.3 438.9 437.2 436.2 434.8 430.7 426.4 422.1 416.8 414.5 410.8 406.8 401.3 397.9 395 390.8 386 381.2 376.4 372 368.7 364.6 361.6 367.2 384.5 361.6 380.4 378.4 380 385 388.1 390.9 393 391.3 385.8 382.8 385.2 391.5 393.2 396.1 400
211.2 212.7 207.9 202.6 200.1 200.8 198.9 194.3 174.5 161.2 159.4 159.4 159 160.6 168.7 169.2 185.6 194.2 194.9 195.4 195.3 203.8 231 219.8 216.5 210.5 199.9 177 167.1 167 166.4 151.5 147.6 151.3 152.3 153.3 158.2 162.2 167.6 174 178.5 182.4 181.6 181.2 187.9 196.1 207.5 220.8 234.9 246.3 256.2 259.1 269.6 282.5 304.2 312.8 320.8 331 340.9 346.8 345.5 348.9 362.3 365.8 367.5 370.8 375.4 382.1 380 373.5 373.4 378.6 368.9 367.7 369.3 379.2 393.9 425.4 461.8 472.7 471.6 475.9 474.2 476.7 476.1 476 475.7 476.3 476.4 479 477.5 478 479.5 479.2 479.7 479.6 481.5 483 482.4 485.3 491.4 498.7 498.8 497.9 497 496.9 498.1 496.3 494.2 492.1 490.1 483.5 481.2 489.3 488.3 487.9 487.1 488.9 491.4 490.2 489.8 487.6 489 489.3 488.9 485.4 481.5 476.7 485.6 495.8 505.6 511.6 517.7 517.3 515.2 514 513.2 511.3 507 508.1 508.6 506.8 502.3 497.2 494.4 491.5 489.9 488.8 487.1 485 483.2 481.7 481 479 473.6 465 461.8 458.9 450.2 445.6 442 440.3 438.5 435.3 429.6 428 424.8 421.3 418.3 415.6 410 404.3 400.1 398.1 393.4 388.4 382.9 378.2 374.1 370.7 368.5 364.5 355.4 361.5 354.8 380.6 379.2 378.9 381.9 382.9 387.8 391.8 394.3 387.7 383.9 385.9 389.7 393.6 396.4 400
208.9 210.6 208 202.7 201.7 202.5 201.3 197.3 180.8 163.1 159.1 159.3 158.2 157.8 159.4 167.4 175.7 191.5 193.6 196.7 195.2 214.5 232 230.4 229.1 223.8 207.8 180.3 168.5 167.2 164.9 159 149.6 149.9 151.2 152 157.2 160.9 166 173.7 180.7 179.8 178.4 180.4 191.7 198.8 212.6 226.8 238.5 251.6 262.4 269.3 276.4 286.1 305 314.7 321.1 328.5 344.9 351.1 353 349.4 352.9 362.9 371.3 372.9 378 381.5 382.4 382.7 381.1 374 372 368.1 368.9 376.5 389.3 415.7 455.6 465.6 469.1 479 477.3 479.1 478.2 478.7 479.4 479.1 477.4 483.5 478.9 482.5 483.1 482.7 483.6 481.2 483.7 487.4 487.3 487.4 489.4 493.9 502.3 503.6 504.1 504.4 504 502.5 500.4 498 493.3 487 488.8 493.1 492.5 493.2 494.3 494.6 494.8 493.9 493.3 492.9 494.8 495.4 493.3 489.2 485.5 479.5 483.6 493.1 507.3 513.8 518.4 519.9 519.6 518 517.2 517.6 512.8 512.1 512 510.6 508.7 505.3 497.9 496.9 494.1 492.2 490.5 489.2 487.2 485.8 484.4 482.1 477.3 469.1 465.2 463 452.7 449.7 445.1 443.5 440.6 437.5 433.4 429.9 422.3 419.5 419.6 417.9 415.1 408.8 402.6 398.4 395 389.9 385.1 380.5 376.7 372.3 369.3 366 362.4 342.9 325.8 372.8 371.8 370.1 377.9 381.4 386.3 389.1 393.5 388.6 382.5 385.8 387.4 391.2 395.6 401.4
206.4 208.7 206.9 204.1 204 204.1 202.4 198 186.2 166.3 158.5 158.2 157.8 157.4 157.7 167.8 169.4 175.8 189.1 191.2 191.5 232.5 236.7 235.8 233 226.2 209.4 183.4 172.6 165.6 161.9 158.5 149.6 146.9 150.8 150.9 156.9 160.2 166.4 175.9 177.9 175.9 178.6 185 193.9 203.3 217.6 231.8 242 255.8 267.4 275.9 284.3 289.9 304.8 314.9 325.6 330.4 346.2 356.8 360.7 363.1 355.2 356.9 363.8 373.6 376.8 384.2 385.2 386.4 386.1 382.2 372.6 379.2 377.2 376.6 385.8 400.4 439.3 465.2 470.5 478.3 482.5 479.1 475.8 478.7 480.4 479.4 476.7 482.6 480.6 484.9 486.3 487.5 488.3 486.3 489.6 490 493.3 491.8 494.1 494 501.9 509.7 510.2 510.6 509.1 508.3 506 504.1 494.1 492.1 496.9 498.6 497.1 499.3 500.3 501.4 499.9 500 499.4 498.4 500.7 500.3 499.9 495.1 488.8 483 481.6 486.6 505.9 518.8 522.4 524.9 523.9 522.4 521.1 520.5 517.6 513.5 513.6 513.2 512.7 509.5 503.5 502.8 498.5 496.1 493.8 492.6 491 489.4 487.3 483.9 477.6 471.7 468.6 466.5 457.8 453 450.5 447.6 444.1 439.9 436.4 432.8 429 422.3 417.5 414.2 412.2 408.9 405.8 402.9 399.6 394.8 387.9 383.9 379.2 373.6 370.2 367.9 362.6 355.7 336 324.6 342.9 362.6 358 368 374.9 385.5 389.6 390.5 382.7 384.8 387.7 387.7 391.9 398.8
204.5 206.2 205.8 203.8 204.4 204.1 202.5 198.2 188.7 172.9 158.7 157.8 157.5 157.2 157.2 160.6 165.1 177.6 186 210 227.4 235.5 238.7 237.3 235 228.1 210.2 189 171.5 164.3 159.4 156 150.2 148.9 149.5 150.8 155 158.7 164.9 171 172.4 173.9 179.3 189.3 197.2 208.5 220.8 234.5 246.6 257.5 271.3 280.9 289 297.5 305.6 314.4 326.7 335.2 348 359.4 364.8 370.8 370.5 360.6 359.5 364.3 372.1 385 387.7 390.5 389.3 386.9 384.2 373.7 380.1 379.3 380.2 399.5 424.6 457.8 471.4 474 478.3 477.3 474.2 480.3 481 479.2 477.1 482.8 482.4 483.2 488.1 490.9 492.6 492 494.1 495.5 497.8 498.5 499.2 496.9 501.8 512.1 514.3 515.1 514.8 513.4 512.1 507.3 497.1 498.7 504.1 504.3 506.5 505.8 504.4 506.8 504.8 505.1 505.2 505.1 504.8 504.5 502.9 499.8 494.4 484.9 482.3 483.9 496.2 525 526.5 529.6 529 526.7 524.7 522.7 518.9 518.6 517 514.7 513.8 511 509.3 507 502.4 500.5 498.4 496.8 493.7 488.4 486 481.5 477.1 472.9 470.9 467.4 461.2 456.9 454.7 450.7 446.8 443.5 441.1 435.8 434.1 427.5 421.9 418.7 411.5 408.7 410 407.3 404.6 399.9 392.5 385.4 381.2 376.6 369.2 368.3 362.7 357.4 351.7 339.5 320.2 336.7 349 357.6 366.7 375.4 384.1 387.5 384.5 379.9 384.9 384.9 386.5 393.2
204.1 204.3 204.4 203.5 203.7 203.9 203 198.1 191.1 180.2 158.6 157.3 157.1 156.8 157 161.5 162.2 162 168.4 194.7 217.2 230.7 237.6 237.4 233.9 227.3 209.8 189.2 171.6 162.2 157.8 154.2 149.5 148.7 149.8 150.1 151.9 157.5 160.9 164.5 168.9 174.6 181.2 189.6 197.4 211.9 223.6 238.3 249.1 257.5 272.7 282.9 292.2 307.3 316.4 314.9 334.8 339.4 343.9 360.6 368 376.8 377.6 373.5 365.9 366.5 372 376.7 389.5 393.5 389.3 390.3 392.3 382 378.3 378.8 377.6 394.8 415.2 442.4 465.2 474.5 476 475.2 475.2 478.1 482.8 482.5 480.7 483.2 485.1 486.5 489.8 491.1 492.9 493.5 493.5 498.6 500.6 502.1 504.3 504 502.8 506 508.3 513.7 519.5 518.6 517.3 503.1 496.6 501.7 507.9 512.4 513.5 512.6 506.6 510.3 511.4 510.7 510.7 509.5 508.9 507.2 505.1 502.5 500.5 489.8 484.8 482 493.1 518.7 530 533.2 533.6 531.8 529.8 523.4 520.6 520 520 517.7 516 514 510.2 508 507.5 505.2 503.9 500.3 490.1 482.2 478.2 478.1 474.8 472.2 469.1 466.2 462.4 461.2 459.3 454.6 449.6 445.4 445.2 439.3 436.7 432 428.4 423.2 417.9 410.1 406.4 406.2 405.7 402.8 398.1 389.1 384.2 378.6 372.1 367.2 362.2 357.9 354.6 351 338.1 317.2 327.5 349.6 359.8 363.9 364.8 371.5 381.8 374.3 377.4 380.9 383.2 390.7
204 203.2 203.6 202.8 202.7 203.1 203.1 199.2 191.5 184.6 158.1 157.5 157.2 157 157.2 161.7 159.3 158.2 161.1 172.8 196.7 218.9 232 234.4 231.5 222.7 204.6 188.1 171.9 161.8 156.4 149.8 148.8 148.2 147.5 149.2 151.9 158.5 160.2 165.3 174.9 178.2 183.7 189.5 200.8 212.8 228.3 239.8 250.5 258 270.1 289.6 299.7 310.6 321.4 324.3 340.9 345.3 346.7 360.1 370.1 379.1 382.6 388.3 376.4 373.3 376.8 379.4 391.8 396.7 392.3 392.5 395.3 391.6 384.6 384.6 379.7 385.6 410.1 429.2 448.5 470.6 477.3 475.6 474.2 477.9 486.5 484.1 484.2 484.9 489.2 489 489 490 490.9 492.5 490.3 496.1 499.3 506.7 508.6 511.1 509.7 508.8 507.8 507.9 514.8 518.9 518.7 507 503.3 503.2 506.2 516 517.8 518.8 512.8 513.6 519.3 518.3 515.2 513.5 512.3 509.9 508.1 505.9 504.8 498.3 494.4 485.5 490.5 508.8 532.6 534.9 535.5 533.6 530.1 525.2 522.9 522.2 521.8 520.2 516.4 517.2 513.7 510.5 510 508.8 506.1 503.1 488.4 482.6 475.8 472.9 471.1 469.1 469 467.7 466 464.7 463.3 459 454.8 448.5 448.2 444.7 439.2 434.9 431.8 424.1 419.2 414.7 407.2 405.2 401.2 398.4 399.7 393.4 387.8 379.4 374.5 369 362.7 362.3 356 349.4 343.7 331.5 316 327 351.6 358.4 355.8 359.5 367.6 364.5 371.8 377 381.2 386.5
204.1 202.4 202.7 202.1 201.7 202 201.7 198.2 191.2 179.5 160 158.1 157.7 157.5 157.9 157.5 151.8 153.2 154 161.8 180.7 199.2 211.8 223.5 223.4 213.2 198.8 184.6 171.4 161.8 153.2 148.4 148.4 148 147.1 148.6 150.3 155.7 158.7 166.7 175.3 179.2 183.6 188.9 203 215.8 232 241.9 249.4 257.9 269.9 291.3 302.6 313 325.3 332.7 340.9 351.5 355.1 358.7 373.4 381 391.1 396.9 396 381.9 384.2 386.2 387 397.5 394.6 401 398.9 401.4 389 384.6 381.4 383.5 397.7 422.8 446.4 449.4 470.7 475.6 475.8 478.7 482.2 486.1 484.5 485.4 489.5 494.1 483.7 486.8 481.5 488 491.5 495.5 497.8 504.1 512.7 514.7 515.5 514.8 513.2 513.4 511.7 513.8 512.6 511 510.2 508.8 508 509.5 511.1 511.4 514.9 516.6 525.7 525.8 521 518 515.8 514.8 511.7 509.1 508.6 503.7 498.7 494.1 490.1 504.2 527.9 538.1 537.1 534.5 532.4 529.7 526.1 524.4 523.6 522.7 520.5 517.2 516.5 515.7 513.1 510.3 507.2 506.7 493.7 482.3 479.8 477.6 474.4 472.7 474.1 471.1 470.6 468.8 466.4 464.2 459.6 451.6 448.7 448 444.8 437.8 432.4 429 422.6 417.9 408.2 407.6 405 401.2 394.2 393.4 387.6 384.4 376.6 373.7 365.3 358.9 356.4 353.8 350.2 343.4 337.2 315.9 325.5 343.1 348 354.3 357.5 360 368.9 375.5 379 384.8
204.6 202.3 202.5 202.9 203 201.2 200 196.8 190.9 174.2 162.4 159.6 158.2 157.8 162.9 160.3 159.8 152.1 148.7 156.7 170.8 191.5 200.1 207.8 208.8 202.2 194.9 181.2 170.9 160 153.4 148.1 148.4 148.4 147.5 148 149.5 155.4 162.1 165.2 172.3 178.2 182.5 188.8 201.4 218.7 234.5 245.1 252.6 259.5 274 294.7 309.2 318.5 327 334.4 344 353 363 362.7 372 385.5 393.6 402.1 405.3 398.8 393.5 393.8 395.3 399.7 406.3 402.7 400.4 408.3 399.4 388.6 381.7 381.8 397.5 432 442.2 447.1 448.5 462.7 476.5 482.2 479.6 486.1 487.4 486.1 488.7 491.2 477.1 477.2 467.9 486.7 495.9 494.9 497.8 503.9 509.6 512.9 515.5 515.4 513.7 515.2 510.1 507.3 512.4 516 514.4 513.9 511.6 510.8 512.7 512.2 512.5 513.1 524.7 529.9 527.4 520.4 521.6 519.5 516.5 513.9 511.4 508.7 503.6 500.2 496.2 497.7 517.8 540.1 540.7 537.6 536.1 532.7 529.3 527.5 525.5 525.2 523 520.9 519.5 518.4 515 511 509.9 508.8 501.4 488.3 485 482.1 479.1 477.8 476.6 475.6 475.2 472.6 470.7 466.3 462.5 457.1 452 449.8 448.6 443.3 438.3 427.7 428.3 422.8 410.7 408.8 406.7 403.1 396.2 392.6 391.9 390.1 383.8 373.8 369.1 359.9 354.7 354.7 352.2 350.8 343.3 337.9 316 322.8 336.2 345.2 352.4 355.3 362.4 372.7 375 380.7
206.4 202.4 202.6 203.4 203.9 201.9 198.6 194.1 187.5 171.5 171.1 165.3 166.4 163.4 162.3 160.7 163.3 156.4 145.7 151.3 161.3 178.9 190.9 196.6 199.9 193.5 186.2 177.7 168.3 158.9 148.9 147.4 148.2 147.8 146.9 147.3 148.2 155.2 157.8 162.5 169 176.6 182.3 190.4 205.8 221.5 236.5 247.2 255.6 259.8 273.8 297.3 312.3 326.5 334.1 342.6 349.1 356.9 365.9 367.7 369.6 389.6 398.6 406 411.9 412.9 410.3 405.3 407.2 413 404.4 401.4 403.5 412.1 400.2 384.9 379.9 379.9 396.5 432 442.4 444.3 440.3 447.1 468.4 477.4 479.2 479.8 475.5 478.7 481.9 479.8 466.6 461.7 461.4 481.2 491.4 494.1 497.6 500.5 507.6 508.7 508.8 508.6 506 504.7 502.5 502.3 516.3 518.7 517.5 517.7 515.7 515.3 514.8 513.7 512.7 511.1 510.1 532.1 531.8 529.3 527.8 526 522.8 518.4 515.9 512.9 508.2 504.6 502.1 503 516.4 539.8 544 541.5 537.9 535.3 533.8 531.3 528.5 526.8 525.4 524.6 523 520.6 516.6 514.6 512.4 511.6 502.9 490.8 488.1 486.5 483.8 480.5 478.4 478.6 477.4 475.4 473.2 468.2 464.9 460.1 456.7 454 452.8 448.2 443.1 436.7 432.1 424.7 417.1 406.8 404.8 404.6 400.4 398.9 393.2 392 386.2 374.4 371.2 363 354.6 352.3 352.3 351.6 346.3 343.3 337.3 314.3 321.2 336.5 345.1 351.6 355.7 365.6 373.8 376.9
207.4 202.8 202.9 203.6 204.5 200.4 197.2 193.3 183.1 177.5 171.1 172.1 172 168.8 162.3 158.3 162.5 155.8 147.5 146.2 153.8 168.5 182 188.3 193.1 188.1 181.2 174 168.5 158.6 148 147.3 147.8 148.2 146.2 146.7 146.6 153.7 155 161.6 169 177.4 181.9 191.6 204.3 222.7 237.9 248.9 258.1 265 276 305.5 321.2 335 340.3 349.2 357.3 365.3 369.8 373.8 374.3 393.5 406.2 412.5 416.8 419.7 420.2 420.3 413 406.7 401.9 400.5 407.6 407.1 406.5 383.4 379.7 379.3 395.1 430.8 447.6 445.4 437.1 445.1 451.7 471 476.1 472 467.4 459.2 461.2 464 459.4 454.3 456.7 472.1 490 488.2 496.9 501.4 510.7 511.7 508.3 508.1 499.6 494.7 500.6 502.2 512.1 520.8 517.4 519.5 517.6 517.6 518.2 518.3 515.2 514.4 506.3 521.6 529.9 532.9 533.1 529.8 528.1 524.3 520.2 511.1 512.3 509.6 505 511 516.8 530.2 545.6 545.7 542.6 539.9 537.7 532.9 531.7 530.6 529.6 528.9 527 523.8 520.7 517.7 515.5 514.9 504.6 493.3 491 489.3 486.8 482.8 480.6 480.9 479.5 476.9 473.8 470.7 467.8 464.4 461.1 458.7 456.3 451.3 446.4 441.6 428.7 429.5 423 415 407.8 404.3 403.9 399.9 395.6 392.8 386.6 377.4 367.7 361.5 354.7 350.2 348 347.6 346.2 344.7 340.3 325.3 313.7 322.8 336 346.5 354 361.2 366.9 372.9
207.8 203.9 204.1 204 205.2 200.4 196.8 193.7 184.3 179.5 173.2 177.7 174 174.5 174.4 163.9 159.5 156.3 149.9 147.3 146.3 160 172.1 182 188.7 181.3 176.6 169.2 163.3 156.3 147.1 146.9 147.3 147.7 144 146 147.5 150.8 154.8 161.9 168 176.2 179.1 192.5 206.2 223.7 237.8 250.5 262.8 274.5 283.1 296.9 331 342.3 353.7 344.9 362.7 368.5 378.9 379.5 377.8 384 411.9 419.4 422.5 425.7 428.6 427.6 424.1 405.5 399 395.3 397.1 415.7 408 381.1 378.1 380 388.4 423.1 445.4 448 442 444.3 449.9 448.8 460 450 455.3 450.7 449.4 453 450.3 450.9 453.2 461.4 481.8 489.4 498.4 504.1 508.4 509.3 501.9 504.3 492.9 503.8 504.8 499 509 512.7 513.5 518.1 516.5 519.6 522.8 520.3 519.2 516.3 505.6 516.4 521.2 522.4 521.8 520.6 526 528.8 515.4 501.2 516.1 513.4 507.5 513.1 516.1 523.6 542.1 549.9 546.1 545 542.9 536.9 534.7 534.2 533.6 532.3 529.8 526.7 524.6 522.4 520.4 516.7 505 495.6 491.3 489.5 487.6 484.1 482.7 483.5 481.8 479.9 477.5 475 472.4 469 465.2 462.5 458.4 454.4 449.8 445.5 435.8 432.5 427.8 420.4 412.1 405.7 402.7 401.4 399.4 394.7 385.9 378 365.5 360.4 356.4 351.5 348.5 346 344.6 341.4 338.9 328.4 313.1 314.9 329.9 341.2 346.8 350.6 361.3 362.9
209 205 205.1 205.8 205.2 200.7 195.3 191.8 184.7 177.7 176.9 179.4 179.6 179.9 179.3 170.3 156 157.5 151.1 144.2 143.5 148.4 163.2 173.4 179.5 176.1 173.3 167.2 161.9 154.8 146.2 146.4 146.8 147.2 147 145.8 145.5 148.6 155.8 162 165.5 172.4 178.1 193.4 204.2 221.9 237.4 253.2 267.2 283.5 290.5 295.6 328.7 349.6 357.2 345.7 360.9 368 377.2 391.4 382.8 381 398.2 422.4 427.5 430 434.5 436.8 429.8 422.2 394.7 385.7 389.3 403.7 397.3 378.6 376.3 373.9 383.7 422 440.2 443.8 445.7 437.6 436.9 440.3 437.7 435.9 443.5 438.2 437.6 445.9 440.2 445.1 455.8 461.4 482.6 487.8 493.5 501 499.2 495.4 494.3 493.8 490.9 508.3 500.7 500.5 509.3 508 507.7 509.4 509.1 516.1 522.8 522.9 521.6 518.9 505.4 502.6 519 519.3 517 515.5 515.7 516.3 516.7 498.8 508.9 516.9 512.2 511.7 516.9 522.3 534.1 549.7 549.8 547.7 545.2 540.1 537.7 537.3 535.9 533.7 531.8 529.3 526.6 523.8 521 516.6 505.3 496.6 492.8 489 487.3 485.8 485.6 486.7 485.3 483.6 480.4 477.3 474.9 472.4 468.4 465.5 461.7 456.4 452.7 448.3 439.5 435.5 432.3 426.9 417.3 405.3 402.6 399 398 397 390.5 377.7 368.4 363.2 359.2 354.4 349.5 349.5 349.4 342.8 339.7 332.9 319.5 311.9 324.9 333.2 339.6 345.2 349.4 355.7
209.3 205.3 206.1 207 204.9 199.7 194.4 191.3 185.4 179.4 180.7 178.5 177.6 180.4 182.4 175.7 157.3 154.3 151.9 143.3 143 143.3 150.9 164.8 171.4 170.6 168.7 165 157.8 152.6 145.7 145.8 146.3 146.7 145.1 146 146.1 148.2 154.6 162.3 165 171.1 179.4 194.1 207.4 224.4 237.5 250 270.7 287.2 290.9 294.4 325.8 345.3 352.7 341.9 357.1 363.7 373.7 389.1 394.3 379.1 385.5 415.8 429.4 432.4 436.9 439.7 426.4 418.5 389.1 380.1 382.6 401.3 394.2 374.9 376.5 366 369.7 408 429.8 434.3 443.1 441.9 418.9 431 425.4 424.9 428.7 427.6 433.8 434 431.1 443.5 453.2 462.6 473.7 482.7 487.9 492.7 488.1 486.4 490.7 486.8 490.3 502.8 501.1 500.2 506.4 500.6 504 508.4 509.7 512.4 516.2 517.6 512.3 516.3 507.9 496.6 513.4 521.2 521.2 514.7 514.9 514.5 512.9 501.4 500.3 517.7 515.2 509.1 514.1 518.5 532.3 541.3 551.8 548.1 545.7 543.7 540.3 537.5 536.4 533.9 532.9 529.5 525.7 523.4 520.3 513.5 505.3 500.3 495.5 489 490.5 491.1 489.5 489.4 488.1 486 482.8 479.7 477 474.2 470.9 467.5 464.2 458.4 453.4 449.6 443.7 437.1 435.5 428.7 418.7 406.2 403.2 398.4 398.7 396.8 392.2 379.7 372.5 363.1 359.4 352.9 353.4 354.5 351.9 347 341.9 320.8 316.1 310.5 315.6 323.9 333.5 339.2 342.4 349
208.1 204.9 206.8 207.3 202.3 198.5 194.1 193.3 190.1 184.6 184.5 178.5 176.9 181.4 180.5 179 159.7 154.4 147.8 142.7 142.5 142.5 143.5 152 161.5 165.9 166 162.6 156.9 147.9 145.6 145.6 145.8 145.8 145.4 145.8 146.8 150.8 155.3 158.3 165.4 172.4 182.2 195.9 209.2 222.9 235.1 251.8 270.2 282.5 290 295.3 306.7 324.8 342.6 336.7 352.3 360.4 370.2 374.2 387.3 377.8 379.6 392.5 419.2 424 431.3 440.2 420.2 387.6 372 352.7 359.8 367.3 360.3 364.1 373.9 367 352.1 368.8 384.3 399.4 432.4 440.5 413.7 408.5 409.9 420.8 415 416.2 427.9 428.4 429.8 436.4 449 454.4 466.5 474.3 479.6 481.2 478.5 484.7 487.7 483.4 486.7 495 498.8 499.4 489.7 493.1 499.6 503.8 508.1 510.4 512.4 510.9 500.5 508.6 507.5 494.2 495.8 517.7 521.7 519.1 516.9 516.4 515.6 505.6 494.9 512 518.1 507.1 509.8 515.5 527.4 538.4 547.6 548.5 544.9 541.6 537.2 537 535.5 533.3 530.7 529.2 525.9 521.4 517.4 512 508.2 503.6 498.2 489.3 490.7 492.4 491.6 491.6 490.2 487.1 485.2 482 478.5 475.7 473.4 469.6 466.4 461.5 456.5 451.9 445 434.9 431.9 428.5 419.5 408.3 401.2 398.1 400.1 391.5 387.7 378.1 374.3 363.7 357.4 351.5 345.4 350.2 349.6 344.8 324.2 318.4 317.5 317.9 310.2 318.4 329.3 334.3 337.4 341
206 203.8 205.8 205.5 200.5 196.5 194.3 195.3 193.2 189.9 187.1 181 177.6 180.8 183.7 180.7 158.7 151.3 148.3 141.9 141.7 142 143.1 144.6 152.2 162.5 164.2 161.8 154.2 145.7 145.6 145.8 145 144.6 144.4 143.3 148.1 152.5 155.2 159.6 165.7 173.3 182.7 193.5 207.5 220.3 234.6 250.4 267.5 279.9 289.4 297 305.2 314.8 322.2 331.3 339.7 351.7 362.2 367.7 371.1 367.3 369.7 374.2 385 403.6 412.4 423.3 390 364.5 353.1 339 336.5 337.6 338.4 335.5 359.8 358.6 340.3 343.3 353.1 364.6 384.3 424.2 408.8 403.4 395.5 403.2 406.1 396.8 409.7 413 422.5 434.1 444.9 456.9 461.8 467.5 472.1 472.4 472.1 481.7 480.8 479.3 477.5 485.9 491.7 491.6 475.6 478.7 488.7 494.3 497.5 500.2 504.8 504.5 492 498.7 502.4 494.7 491.7 506.7 516.9 518.3 509.8 517.6 517 512.9 496 503 510.3 505.8 507.1 511.5 518 529.4 539.8 547.4 544 543.1 541.4 536.3 534 531.1 527.5 525.8 524 521.2 518 514.2 511.5 507.1 502.2 494.7 482.5 494.1 492.6 491.6 490.6 488.6 487.1 483.8 480.3 477.4 474.8 471 467 462.2 458 452.5 445.9 441.2 435.6 431.3 427.7 416.8 405 396.3 399.7 393.8 384 377.4 371.2 361.2 358.4 350.8 341.3 334.2 341.6 334.4 324.2 315.9 315.4 318.9 309.8 314.7 324.8 331.1 334 336
202.9 200.9 202.9 200 197.2 195.7 195.3 196.8 194.9 193.2 189.9 178.2 172.7 179.8 183.8 178.5 156.5 151.1 147.8 142.9 141.4 141.9 143.3 144.3 149.7 156.1 159.2 157.6 150.3 146 145.8 145 144.7 143.6 141.5 146 149 150.8 153.7 157 166.1 173.3 185 195.3 207 219.4 232.4 250.3 271.1 284.4 292.7 304.3 311.2 321.4 330.4 337.1 342.8 346 349.6 351 355.2 360.3 362.3 361.8 366.9 373.6 374.9 383.6 381.2 358.2 348.7 342.2 334.1 328.1 328.6 325.8 326.5 327.4 330.3 331.2 338.5 348.4 358.1 375.5 393.8 384.1 385.3 382.9 385.3 379.1 384.9 398.8 414.9 427.9 442.2 454.1 458 461.9 464.6 465.6 469.2 474.1 476.6 476.1 469.7 475 478.4 473.6 464.1 465.4 473.7 479.1 483.2 487.4 490.5 491.7 487.1 484 492.4 489.7 486.6 494.9 508.4 510 504 512.2 515.7 516 498.4 497 504.7 505.4 508.2 507.8 506 519.2 536 546.7 542.8 544 540.1 536.5 533.3 530.3 527.5 523.7 521.5 519.7 516.9 513.7 509.6 505.5 501.7 499.7 485.5 489.5 494.5 490.9 489.3 486.1 487.7 483.4 480.9 476.8 474.5 471.2 468.2 464.7 458 451.1 446.1 441.7 435.5 430.9 427.5 417.9 409.7 397.4 394.1 389.4 382.6 377.6 368.4 357.7 355.4 352.8 340.9 327.4 326.1 320.5 317.7 312.2 311.7 312.7 310.9 306.4 321.9 326.5 330.2 331.7
199.6 196.5 197.6 194.1 194.2 196.1 196.4 197.7 195.9 194.3 188.2 176.1 170.6 170.7 176.4 176.5 156 149.7 148.9 142.5 141.2 141.8 142.7 143.3 146 153.7 155.3 153 148.8 144.7 142.3 142.7 140.5 145.1 145.7 148.4 150 150.7 159.4 157.8 163.1 172.9 183.8 191.7 205.5 216 229.6 255.5 283.3 292.9 301.4 312.6 317.5 332.3 340.6 346.1 351 353.4 355.7 354.6 353.2 355.9 358.2 356.5 355.8 356.1 356.6 361.5 360.3 366.4 345.7 342.1 336.5 330.8 325.3 322.9 322.3 323.5 324.1 325.6 333.7 339.6 344.8 353.2 360.3 346.9 363 364.7 363.9 363 367.5 380.2 397.2 416.5 434.3 448.3 452.3 456 458.1 457.2 463.6 466.1 471.3 471.4 461.8 459.8 453 453.2 449.2 446.2 456.4 462.7 462.5 463.1 475.2 478.6 476.4 471.4 478.4 481.3 480.4 485.6 498.9 504.9 505 503 506.3 508.1 500.1 491.9 499.4 504.6 508.4 507.2 507 511.7 528.1 534.5 534.8 541.4 540.6 537.7 534.9 530.7 525.7 523.6 520.9 517 513.3 511.5 507.6 501.6 497.7 493.4 486.8 483.1 486.2 485.6 483.8 481.9 480.3 478.4 477.5 475.3 472.5 469.7 466.2 462.2 455 444.8 440 435.2 428.5 422 420.2 416.8 409.9 395.6 390.7 385.7 377.8 372.6 365.4 354.9 353 350.9 340.8 324.6 314.6 309.8 304.3 293.8 288.1 280.1 237.8 229.8 273.2 323.6 328.2 327.5
197.3 192.9 193 190.1 191.8 195.5 197.1 197.2 194.6 193.6 187.9 172.9 170 169.6 169.5 171 156.9 151.5 144.7 142 141.4 141.6 141.3 141.7 143 148.3 155.5 152.1 144 142.3 140.7 140.3 145.2 146.9 147.6 149.5 150.3 150.6 161.1 156.7 161.3 169.5 181 192.8 205.8 215.9 225.7 251.8 282.8 296 308.1 316.2 319.9 335.4 339.4 346.5 353.6 361.3 364.1 363.2 359.1 359.8 360.7 361.6 360.7 357 356.6 355.5 351.8 347.4 345.4 346.2 341.4 334.1 325.4 323.3 322.3 322 322.2 322.3 326.8 330.9 333.5 338 339 335.8 344.7 350 352.9 354.2 360 369.1 377.6 392.2 414.5 437.5 444.9 448.4 449.2 451.5 456.5 458.2 463 461.6 445.7 437.8 426.6 424.4 424.8 423.4 438.1 439.7 439.6 451.5 462.9 461.5 461.1 462.9 464.5 475.1 474.9 479.8 487.2 498.2 499.5 492.2 497.5 500.3 497 490 492.3 495.9 503 505.5 506.5 510.3 515.1 528.5 525.9 535.3 538.4 538.9 537.6 532 528.3 526.1 524.1 521 518.2 515 510.6 506.6 501.2 494 489.7 484.2 483.2 481.7 481.2 478.9 475.7 474 472.4 472.2 469.7 466.4 462.2 457.4 452 445.8 435.9 431 422.6 416.9 415.9 412.9 404.4 398.5 393.4 388.7 379.7 370.1 359.1 350.5 344.5 341.5 335.3 322.5 311.3 303.2 293.1 276.8 262 243.4 226.4 229.8 258.6 314.4 322.9 320.3
194.7 190.9 188.4 184.9 185.6 190.4 193.2 194.2 192.7 192.7 187.2 170.4 169.6 168.8 169.1 168.4 159.7 154.3 149.3 143.7 141.8 141.7 140.6 140.9 143.1 146 154.9 152.2 141.8 138.7 143.8 143.8 145.4 146.3 148.8 148.7 149.7 149.7 150.8 154.2 158.5 166.6 178.7 189.6 204 216 226 244.9 273.2 291.3 308.2 316.3 321.5 326.8 338.1 342.2 351.1 361.1 366.1 367.4 366.6 365.9 367 362.9 366.8 365.2 361 357.1 358 353.1 347.2 349.2 343.8 332.2 327.1 324.9 322.4 321.5 321.5 320.9 321.7 323.2 326.2 330.1 331.6 330.5 335.5 340.9 347 351.7 355.5 363.1 368.9 377.6 394.4 424.3 434.9 437.3 436.4 441.8 443.9 441 443.7 439.1 431.9 419.8 410.4 403.1 402.8 405.5 412.4 413.6 416.1 429.7 442 447.1 450.3 455.6 452.9 466.2 470.3 472.1 481.6 488 491.9 484.7 487.6 498 489.3 488.2 487.7 490.2 494.9 502.8 504.6 508.7 508.1 520.5 525.3 527.1 533.8 535.2 533.3 529.4 526.7 525.6 523.6 521.4 519.5 516.2 511.3 506.6 504.2 497.5 492.8 487.5 485.6 484.6 482.5 478.7 475.9 472.8 469.3 468 465.5 461.7 456.8 450.1 442.8 438.4 430.4 425.4 422.2 420 414.4 413.1 406 402.2 394 385.4 376.1 365.2 359.3 350.2 340.4 338.3 326.4 318.7 308.3 292.6 278.4 267.2 242.8 228.8 222.5 226.2 254.3 294.9 317 316.7
197.1 192.5 188.8 182.2 182.5 187 188.5 189.9 190.4 190.5 185.2 175.9 176.7 176.6 175.7 169.6 168.3 162.9 154.8 143.7 142.5 141 141 140.3 140.6 145.4 150.4 148 138.6 143 142.9 143.3 145 146 148.5 147.8 148.6 156.4 149.8 151.6 156.6 166.4 175.8 186.5 201.4 215.6 228.6 244.5 266.8 283 300.3 315.9 320.8 322.8 333.7 340.5 348.8 356 369.7 374.5 375.6 373.4 373.9 370.4 370.6 373.1 367.3 361.7 363.9 357.9 349.9 344.9 341.1 337.2 333.6 329.4 324.8 321.4 320.9 320.6 320.6 320.7 322 324.6 325.9 326.1 329.9 334.3 344.1 350.8 355.8 361 367.5 373.9 383.4 409.1 421.1 421.8 421.7 426.2 427 421.5 421 416.4 412 408.8 399.6 394.3 392.3 393 394 397.4 401.2 409.6 421.9 427.4 430.3 435 438.9 451.4 458.9 460.4 469.5 476.6 483.3 482.8 473.7 484.8 479.9 484.4 483.1 487.7 491 495.5 502.8 506.1 505.9 508.4 523.6 524 528 530.3 528.7 525.4 523.3 522.3 520.2 517.5 516.2 513.1 509.8 506.8 503.7 499.7 493.9 490.3 485.6 483.5 483.1 480 477.4 475.1 471.6 468 466.6 462.3 456.6 453.4 447.5 440.4 430.8 418.3 421.1 412.4 405.6 404.2 401.6 397.2 390.4 376.2 371.9 362.6 356 347.1 337.2 329 322.7 312.5 303.9 286.6 269.4 252.1 237.8 226.8 222.9 227.6 253.8 296.7 309.1 312.7
197.9 192.4 188.5 183.8 178.7 180.4 182.8 184.4 185.6 186.9 182.5 176.4 175.3 175.6 175 170.7 170.8 165.9 156.6 144.6 142.3 141.3 140.7 140.2 140.7 143 146.5 140.6 141.7 142.5 142.5 143.3 144.2 146.1 148 148.1 149.5 148.9 150 151.7 159 166.8 173.8 185.7 200.5 214.9 230 248.6 267.2 277.2 293.8 313.7 323.2 322.9 329.4 340.3 349.4 358 368.1 377.5 379.8 379.9 377.2 379.1 376.9 382.6 374.7 368.3 365.7 361.5 354.8 346.8 341.2 341 338 341.8 337.6 323.3 320.6 320.3 320.2 320.1 320.6 322.1 323.3 324 326.9 329.9 340.2 349.4 355.1 361.5 366.9 371.7 378.3 400.9 401.4 402.6 401.1 401.7 401.7 399.1 398.3 395.7 395.3 396 395.6 391.2 386.3 385.4 385.9 386.6 389.6 397.1 405.2 408.4 410.3 414.3 422.5 427.3 439.5 449 451.8 460.2 458 456.8 454.6 460.1 464.8 477.7 469.3 478.9 483.8 493.1 500.3 502.7 503 502.1 507.7 519.7 521.1 521.8 522.1 520.9 519.7 518.4 516 512.8 512.1 509.9 507.8 505 502.8 503.2 497.5 493.5 487.8 482 482.5 481.1 476 473.1 470.1 467.4 468.2 464.8 460 455.5 447.3 435.3 430.1 414.1 415.1 405.7 401.4 397.7 397.3 391 385.1 377.9 368.9 360.5 351.5 343.5 330.5 321.9 317.3 308.8 298.9 285.2 266.4 245.3 233.1 225 221.6 226 253.2 288.5 291.3 297.1
196.6 191.2 186.7 181.5 176.3 177.1 177.2 178.4 180 181.9 176.5 170.7 170.4 174.9 172.4 170.9 172.1 167.1 155.7 145.8 142.3 140.2 140.5 140.4 140.5 142.8 143.4 136.8 141.6 141.6 141.9 142.3 144.1 146.9 147.2 147.5 148.3 148.2 149.5 152.5 157.5 166.5 173.7 188.7 201.4 215.1 233.4 252.8 270.6 276.8 288.6 304.3 325.6 324.9 325.6 337.1 348.9 359.4 366.3 376.9 382.7 382.8 381.5 381.2 381 385.4 380.8 375.2 369.7 364.7 357.4 348.6 344.3 342.8 343 346.3 344.7 324.1 320 320 319.9 319.8 319.8 320.7 321.4 323 325.4 327.8 335.3 345.7 353.6 360 364.9 369.3 372.2 383 383.9 384.4 382.6 381.7 381.1 379.3 379.5 382 381.6 383.4 389.5 393.7 383.1 382.1 381.9 381.9 384.6 390.1 392.7 397.5 400.5 404.6 408.8 416.2 422.8 428.6 433.2 437.6 439.8 444 449.4 452.5 449.7 452.9 458.1 461.8 477.1 491.4 497.4 499.9 501.3 499.8 497.9 504.9 514.6 514.1 515.4 515.2 516.6 513.6 512.8 506.2 512.3 508.8 508.5 505.7 504.1 505.9 502.9 496.6 491.7 485.3 481.3 481.9 474 470.1 466.9 461.2 468.7 466 462.2 455.4 446.6 435.9 420.9 411.7 405.2 401.5 395.8 390.2 386.5 383.9 374.6 371.6 363.5 358.2 348.6 337.7 326.2 315 313.2 309.2 297 281.2 268.2 242.3 229.3 224.4 219.5 229.8 256.9 273.7 281.6 287.8
194.6 189.1 182.8 178.6 174.6 174.3 173.9 172.4 173.2 175 170.4 166.1 166.7 169.2 169.1 169.5 173 166.3 155.2 144.6 141.5 140.7 141.1 140.5 140.5 142.2 142.1 136.8 141.8 141.8 141.7 141.2 143.4 146.7 147 147.3 158.6 148.8 150.5 152.2 156.5 164.9 173.1 195.2 206.8 219.5 238.8 260.6 272.4 279.9 283.9 294.9 320.8 329.3 315.9 331.4 344.1 357.8 367.7 377 381.7 385.6 381.7 381.3 382 385.8 389 377.5 371 367.5 362.3 351 342.4 348.4 348 350.4 350.2 328.1 319.9 319.5 319.6 319.4 319.6 320.1 321 322.9 325.7 329.9 335.9 342.2 350.6 357.4 362.4 366.9 366.7 368.4 373.4 373.4 371 370.3 368 366.5 367.1 367.2 367.7 373.6 379.2 384 381.9 381.3 380.3 381 383.5 386.7 389 391.6 395.1 399.4 405.2 408.6 413.3 418.2 425.1 431.4 437.5 440.7 439.4 448.3 454.6 459.6 465.4 473.3 466.1 481.7 487.1 489.2 494.8 502.3 500.4 493.3 504.3 510.7 513 515.1 514.3 514 515.7 517.4 517.5 513.9 514.5 512.6 509.7 507.2 506.8 498.5 491.9 484.1 477 475.6 462.7 452.6 453.4 449.7 461.6 464.6 461.9 455.4 440.5 430.6 417 410.8 389.7 398.1 385.5 380.3 372.6 371 371.2 364.9 360.1 351.7 346.8 329.1 320.2 310.2 309.6 305.1 295.6 278.8 263.4 243.1 229.4 223.8 219.6 232.4 244.5 260.8 272.5 278.4
192.8 185.6 179.4 175.3 172.3 172.5 173.9 167.8 166.9 167.7 162.7 159.6 159.7 165.1 165.1 169.3 172.7 164.7 154.3 145 140.4 140.3 139.9 140.3 140.9 141.5 141.4 138.9 141.3 140.4 140.4 141.1 143.8 146.8 148.1 149.2 152.4 150.8 152.5 153.1 155.3 164.6 176 200.3 211.4 221.4 241.8 260.7 271.3 281.1 282.6 288.3 300.5 314.8 309.5 322.8 337.5 350.3 364.4 371.6 380.6 383.7 382.9 381 382.5 388.9 389.9 383.6 376.8 370.7 362.3 353.9 340 348.1 358.8 350.8 349.1 330.8 320.2 319.4 319.4 319.3 319.5 319.8 320.8 322.6 326.1 331.4 336.2 343.5 348.4 354.7 359.8 365.6 366.1 365.3 365.4 366.3 362.9 360.6 357.8 356.2 355.1 354.5 357.6 364 371.3 377.9 380.9 381 382.4 383.7 386.3 389.1 395.8 402.5 409.1 411.7 411.5 419.2 426.6 423.6 431.9 435.2 433.8 438 446.6 456.7 465.4 472.8 480.2 485.4 480.4 478.4 487.9 494.4 498.3 500.3 498.6 487.2 498.5 509.4 513.6 516.6 516.8 523.1 524.6 525.8 525.6 523 521.8 521.1 517.5 512.3 508.4 498.3 489.5 479.4 468.2 458.4 451.3 438.9 439.6 439.5 453.7 459.2 456.9 452 436.8 425.6 410.6 402 392.1 375.7 373.7 367.2 359.4 357.6 360.7 353.3 348.9 342.3 328.4 317.4 311 300.7 301.5 297.5 289.6 275.3 261.3 243.1 229.5 223.9 219.1 231.9 237.1 251.8 263.3 269.4
188.5 183.3 176.3 171.9 170.9 171.9 172.2 171 162.4 161.3 156.5 153.5 154.4 155.3 166.1 170.8 171.9 161.1 154.1 144.6 140.2 139.7 139.5 140.2 140.8 141.2 140.5 138.6 138.5 139.3 140.5 140.6 146.2 147.6 148.8 149.7 151.1 152 154.3 154.8 158.5 162.4 178.1 213.5 213.9 224 244.3 260.6 272 282.9 282.5 283.1 285.7 287.4 294.4 307 324.4 340.4 351 366.2 376.4 383.2 384.9 383.9 386.3 392.6 396.4 393.8 382.5 368.1 359.8 352.6 341.8 341.6 358.9 353.4 343.5 333.3 320.5 319.4 319.3 319.2 319.4 319.7 320.8 323.5 327.5 333.8 341.2 346.9 348.4 351.4 356.6 362.7 364.7 363.6 362.8 362.6 358.6 354.3 350.9 348.9 348.1 347.8 350.7 355.7 363.8 371.3 372.8 378.1 379.9 381.2 383.4 388.5 395.6 403.5 411.1 414.2 417.4 424 425.2 424.1 425.7 427.5 439.4 451.4 460.8 468.8 475.6 481.1 487.8 495.8 495.7 484 497.4 502.1 503.1 503.8 500.6 496.1 501.2 508.2 514.7 523.1 528.1 530.7 533.5 535 535.5 532.7 529.7 527.5 513.7 508.5 500.2 490.3 485.5 471.3 454.8 444.6 435.5 431.9 425.3 424.7 437.5 442.5 444.3 441 434.3 419.4 403.6 392.7 387.3 376.4 360.2 353.6 346.7 343.6 342.1 338.3 331.6 328.3 316.9 309.2 304.1 294.5 288.8 285.1 278.9 272.8 262.8 244.8 229.9 222.6 217.2 222.6 235.4 244.8 254.9 261.3
184.4 179.9 173.8 170 170.1 170.6 170.5 170 164.1 156.7 153.6 151.4 150.5 149.6 168.2 171.5 170.4 159.5 153.2 141.8 138.9 138.8 139.3 140.2 140.8 140.7 140.2 138 138.5 139.1 139.9 139.9 146.4 147 149.5 157.4 152.9 154.3 155.5 155.3 156.9 160.6 182.4 214.9 212.1 228 241.9 254.3 272.8 280.8 283.2 276.5 275.7 276.5 282.6 292.5 309.2 323 342.9 368.8 378.3 384.4 385 384.1 389 391.5 394.5 391.7 385.1 374.8 362.3 352.3 343.1 338.1 343 346.8 341.3 330.1 322.2 320.4 319.2 319.2 319.3 319.4 320.9 324.6 329.4 336.5 344.2 349.1 349.1 348.8 351.6 358.7 361.6 361.9 361.3 359.8 356.4 349.3 345.6 345 344.5 345.8 347.7 350.7 356.2 363.2 369.9 375.4 378.1 379.4 381.4 384.5 389.6 396.1 401.6 406.4 410.7 415.6 414.5 409.7 428.4 437.7 450.2 459.7 467.5 477.4 487.5 492.7 498.3 503.1 499.5 491.8 504.1 505.3 509.4 511.2 508.6 505.9 508.7 512.7 519.6 531.1 536 538.6 540.8 540.3 541.3 538.9 534 523.9 512.9 513.2 497.8 488.8 488 470.8 458.2 441.8 432.2 425.7 417.3 409.5 407.9 416.8 423.7 426.2 428.9 419.1 402.6 386.3 378 369.8 357.3 340 335.7 332.5 334.3 333.8 327.3 319.3 311.3 302.5 298.6 292.2 284.6 278.8 274.6 273.8 265.9 253.1 232.1 221.9 218.4 218 234.7 238.8 247.7 248
175.5 177.1 171.2 168 168.6 167.9 167.4 167.8 169.5 161.8 154.8 151.3 149 151.2 164.6 170.3 168.6 158.9 152 139.3 139.6 139.6 139.7 140.1 140.4 140.3 140 137 138.4 138.6 139.5 140.2 146.3 147.6 149.7 152.1 154.3 154.6 154.4 154.8 155.8 158.5 174.7 193.3 206.5 232.3 242.1 240.6 257.8 269 262 261.8 264.1 266.6 272.4 281.7 288.1 312.9 335 361.1 378 390.9 389.3 387.2 389.5 389.8 389.7 389.9 382.1 382.5 368.8 357.9 343 336.6 336.8 339.9 334.7 329.1 324.1 321.7 319.9 319.2 319 319.5 321.2 325.7 331.4 338.2 346.1 351.4 352.4 348.1 346.7 353.8 357.9 360.5 360 358.4 352.6 343.9 342.5 342.1 343.1 344.6 346.4 348.5 353.8 359.2 368.1 373.5 375.2 377.8 380.2 383.6 386.8 392 396.7 400.9 406.1 401 411.4 426.1 433.7 444.6 455.2 466.3 480.3 494.5 502.6 511.7 509.1 505.4 497.8 502 509.7 511.3 515.2 519.8 520.7 520.1 518.5 520.4 525.5 533.5 539.4 540.7 543.1 542.9 543.3 538.8 533.2 515.6 506.5 510 498.6 490.8 486 464.2 457.9 445.8 431.4 422.7 417.6 411.6 404.2 394.1 398.5 403.7 405.3 409.3 397 382.8 376.1 368.8 354.8 340.5 328.1 320.7 327.3 332.8 325.6 314.3 304.9 296.6 293.4 289.9 282.5 274.4 269.9 270.9 269.7 252.5 236.8 221.8 218.4 216.1 235.9 234.3 238.7 241.9
168.8 171.2 166.5 164 169.4 166 164.6 165.7 167.1 166.9 161.1 154.6 149.7 147.8 158 167.8 166.6 156.3 149.8 138.8 138.1 138.8 139 139.3 139.4 139.7 139.7 134 138.8 138.7 139.1 139.8 145.7 147.1 150.1 152.4 154.2 155.2 154.8 154.3 154.4 156.9 169.2 196 216.2 225.3 239.9 236.7 236.5 242.8 245.2 249.9 254.4 259.3 264.2 273 278.2 289.7 324.5 353.3 364 378 387.1 392 393.3 393.7 389 390.3 385.1 376.8 369.7 358.1 343.7 335.8 335.2 336.1 335.6 332.6 328 323.7 321.6 319.4 318.7 319.5 321.2 326.7 331.9 338.8 348.1 353.5 354.8 350.2 343.6 348.6 355.4 361.1 360.4 356.3 347.9 340.4 341 342 342.3 343.9 347.4 348.8 353.1 355.3 361.3 366.1 374.3 378.6 380.8 383.9 386.7 389.2 394.1 396.1 402.6 411.1 421.1 428.2 437 447.7 459 473.9 494 504.7 520.2 520.6 513.4 505 498 499.8 506.3 510.6 508.8 524 527.4 528.4 527.4 527.3 528.8 530.9 535.6 537 544.6 545.2 543.9 537.1 530.2 515 502.9 509.3 501.3 489.9 484.6 463 450 446.5 435.2 426.2 412 411.1 405.9 393 383.2 380.6 375.8 375.3 368.8 365.8 360.2 352.7 341.1 331.6 324.1 314.2 312.2 316.1 312.4 306.3 294.9 289.8 286.4 284 276 273.5 265.5 264 260.9 249.9 238.4 225.7 216.3 214.3 224.9 228.8 231.3 234.8
161.8 167.9 164 161.5 164.8 164.8 163.6 162 166.3 167.7 166.6 160.3 153.1 146.3 151.2 163.8 163.3 153.8 145.4 137.8 138.5 138.3 138.8 138.9 139.3 139.7 138.9 137.9 138.2 138.2 138.5 139.2 145.4 147.3 156.3 156.2 160.5 157.3 154.4 152.9 152.4 154.2 167 182.7 194.9 216 234.1 233.1 227.3 228 231.6 238.9 246.2 254.4 261.1 268.8 273.7 276.6 294.6 322.4 351.7 350.9 372.2 392.1 393.7 394.1 392 389.4 391 385.9 374.1 362.9 344.7 334.1 335.7 344.7 343.8 340.8 333.6 327.1 323 320.7 318.8 319.7 321.2 325.2 331.6 339.8 348.2 353.3 354.1 350.8 345.4 343.9 351.3 364.5 359.7 353.8 348.2 339.4 343.3 349.3 350.7 353.4 354.5 357.2 358.4 363.5 366.8 372.2 378.3 382 384 387 390.6 393.8 397.1 401.8 408.7 415.8 422.7 431.4 440.4 451.6 463.8 478.8 499.2 514.5 524.6 520.7 514.4 507.3 499.3 498.9 503.4 506.6 507.8 517.2 525.2 528.9 528.7 528 530 530.3 530.3 532.6 543 543.9 544.3 537.6 524.4 516.3 501.1 500.5 499.7 488.7 483.3 463.5 450.6 443 438 422 413.5 406.3 402 393.3 381.6 374.3 356 349.3 341.9 333.8 330.9 328 323.2 316 310.2 303.8 288.9 295.1 291.1 287 285.3 281.6 276.6 273.8 271.7 267.1 263.1 257.6 252.1 246.2 239.8 229.3 215.8 220.5 222 223.1 224.2 227.5
157.6 163.9 164.4 160.2 162.4 165.4 165.4 158.7 161.2 161.8 166.4 161.1 157.8 149.3 148.1 161.2 159.7 152.3 143.6 138.2 138.1 138.5 138.7 138.7 138.9 139.2 137.9 137.9 138.5 138.2 138.2 139 145 147.7 156 162.9 161.5 156.5 154.6 151.4 150.4 152.6 163.4 174.3 184.8 202 222.3 228.3 217.8 217.1 221.2 226.7 236.8 249.6 258.3 265.7 270.3 273.4 276.2 297.4 322.7 329.9 347.3 361.1 371.1 387.8 385 377.3 388.3 386 386.4 377.5 356.2 339.6 337.3 348.7 352.9 347.7 341 331 322.7 320.9 318.8 320.1 322.1 323.7 330.7 339.8 347.4 350.6 349.7 347.3 343.3 340.4 343.1 347.1 348.6 348.5 344 341.6 351.7 355.1 360.6 361.8 362.7 365.1 366.8 369.6 373.9 376.4 382.8 387.9 392 395.6 398.3 400.7 401.9 406.1 412.7 418.6 426.9 435.6 446.7 456.1 469 483.8 503.7 519.4 528 526.7 519.3 510.2 500.8 500.8 505.1 504 502.3 506.5 516.1 522.4 524.5 525.5 528.2 530.2 528.1 526.6 533.4 536.3 536.6 536.4 520.1 513.5 503.7 499.7 490.6 483.4 482.2 465 452.4 445.9 441.8 431.3 414.1 404.6 399.1 389.6 379.7 366.5 359.9 342.8 330 321.2 317.3 308.4 305.5 301.5 298.8 294 280.7 284.1 281.3 278.4 276.6 273.9 271 269.3 266.5 262.4 259.6 255.9 251.1 243.8 236.1 228.9 219 217.7 218.8 217.6 217.2 219.5
154.5 160.5 161.3 159.1 160.9 164.3 163.8 156 157.7 157.7 158.6 158.4 154.8 149.9 145.7 155.7 153.8 147.8 140.7 138.7 138.1 138.5 138.8 138.6 138.6 137.9 137.1 135.1 138.2 138.6 138.4 141.1 144.9 154.8 159.1 164.1 161 155.9 153.5 150.4 150.8 152.8 164.2 167.9 176.5 188.2 207.3 212.1 209.8 209.3 214.4 221.8 234.7 246 254.4 262.4 268.1 273.1 276.3 279.3 297.6 307.8 328.2 340.4 348.1 371.4 369.9 364.3 364.4 370.4 380.7 374.2 363 341.7 334.8 348.9 353.6 351.7 347.1 332.5 322 320.3 318.7 322.4 323 322.1 328.5 337.6 344.7 344.9 343.3 341.8 339 336.5 336.7 335.7 334.4 335.4 342.1 354.7 361 364 368.1 365 372.4 373.8 376 372.9 381.4 386.9 392.5 398 404.3 408.4 408.6 410.5 409.5 413.7 418 424.7 432.7 442.5 452.2 463 474 487.5 505.5 533.9 539.6 533.7 523.3 509.4 503.3 503.3 506.9 505.3 501.1 502.1 508 510.8 512.7 517.4 520.4 524.5 522.5 517.2 520.2 523.8 524.7 522.9 516.1 506.7 504.9 495.1 489.1 484.6 480.5 474.8 457 448.7 439.1 431.9 417.2 405.3 401.5 386.3 373.7 361.6 358.5 343.8 330.5 318.1 307.6 297.6 289.9 286.8 284.4 281.6 273.5 270.4 269.9 268.4 268.1 266 264.8 264.3 264.6 262.5 259.3 257.4 254.6 250.3 244.1 235.4 229.1 216.9 210.1 205.6 210 213.4
150.3 155.1 157.1 157.9 161.7 161.2 160 155 154.7 153.2 152.5 149.6 147.1 142.8 145.1 150.1 146.6 140.4 138.2 137.6 137.3 137.6 138 138.3 137.4 136.9 136.7 136.9 136.8 138.3 138.1 141.5 144.8 154.6 162.3 163.6 159.4 154.4 151 149.8 149.8 152.8 162.6 165.3 172.6 178.4 185.5 194.2 203.6 201.5 207.5 218.4 235 250.2 260.9 268.5 274.8 278 281.2 280.5 281.2 290 304.7 316.2 327 341.3 345.4 347.8 346.6 354.7 360.8 357.4 349.2 337.5 332 344.1 352.8 348.6 340.4 329.3 320.9 319.9 318.1 321.7 323.3 322.4 324.1 334.4 339.9 338.2 336.2 335 333.2 331.6 330.9 335 345.3 354.8 359.3 361.2 369.3 373 374.6 377.9 380.2 382.3 384.3 385 388.6 395.9 405.6 409.5 412.5 416.8 419.6 420.5 419.1 420.5 425.7 430.1 438.5 445.8 457.1 467.9 478.3 491.1 506.8 528.7 545.7 534.7 521.8 510.7 508.4 509.7 508.1 505.4 502.4 499.9 501.8 502.8 502.3 502.5 503.3 507.8 507.6 504.8 504 508.6 509.5 510.7 507.1 500.5 499.6 498.7 484.9 476.2 482.1 479.8 465 452.4 439.7 428.9 417.7 405.2 390.9 377.6 367.9 358.6 348.4 345.2 336.8 323.2 314 302.4 292.9 282 273.4 270 267 264 262.3 262 260 258.2 258.5 259.5 259.5 259.3 260.4 263.7 262.6 259.3 251.4 244.2 232.1 223.8 216.3 205.4 202.9 207.1
148.2 153.5 156.7 157.7 162.3 159.9 158 154.1 152.8 149.7 146.1 143.4 141.1 137.7 139 144 141 137.1 137.2 136.9 136.7 136.9 137.2 137.4 136.9 136.6 136.7 136.6 135.4 136.8 137.4 143.6 151.7 154.8 161 161.8 155 152.5 149.2 149.1 149.7 151.8 158.9 163 167.7 170.5 176.7 183.2 190.2 193.6 202.1 215.8 239.6 260.6 268.4 273.3 279.2 284.8 285.2 285 285.2 285.2 284.3 294.5 305.8 309.1 317.1 324.9 327.4 332.4 333.1 339.9 338.6 326.9 325.9 335.6 345.1 342.7 336.1 326.5 320.8 319.7 317.4 319.7 322.7 321.7 322.9 330.3 333.8 331.4 329.5 328.1 327.1 329.2 337.9 345.9 357.6 361.6 368.6 369.7 376.7 383.3 384.3 386.4 387.5 390.7 393.6 394.7 397.3 405.2 414.8 421.1 426.2 429.2 433.1 431.1 431.5 430.6 432.6 434.8 442.8 449.3 460.2 470.4 478.8 491.3 506.2 524.7 541.2 530 518.4 512.8 511.2 511.7 509.4 505.6 502.8 499.3 497.6 497.3 495.9 494.9 492.8 493.9 495.1 494.6 491.8 494.4 497.3 499.3 498.9 495.2 492 490.9 488.3 480.4 471.4 475.5 460.2 448.7 439.1 428.9 416.6 402.3 386.7 374.3 365.1 357.9 350.8 343.8 331.7 324.6 316.4 305 292.4 276.4 270.3 268.9 267.5 264.3 262.4 259.8 256.6 253.4 253.4 255.5 257.1 258.2 260.4 263 261.7 256.9 253 246.5 236.2 226.6 217.7 208.7 203.4 202.9
144.7 149.3 154.8 157.7 161.8 161.3 157.3 155.5 152.6 147.6 142.8 140.5 138.8 137.3 137.8 137.5 136.4 136.6 136.6 136.5 136.2 136.2 136.5 135.6 135.6 136.1 136.3 136.4 135.2 136.5 137.3 145.3 154.2 156.2 160.2 155.4 152.7 149.5 148.9 149 149.6 152 155 159.5 160.5 162 165.3 172.4 185.1 191.3 200.4 219.9 248.6 264.6 269.4 276.9 281.2 287.6 287.4 288.6 285.9 285.5 285.3 283.5 288.1 289.4 292 299.1 307.4 310.1 312.3 325 323.8 317.2 317 325.5 336.2 336.1 331.3 325.4 321.5 319.6 317.1 317.3 320.6 320.5 320.3 327.1 328.3 325.3 324.1 325.4 329.3 336.9 347.6 357 366.7 371.6 376.2 382 385.6 393.1 395.7 394.9 389.7 395.3 401.9 405.8 408.5 411.9 423.9 435.1 440.3 445 449 447.5 442.6 446.8 444.6 444.4 446.1 452.6 460.2 471.4 480 492 506.2 522.7 526 525.7 520.6 512.3 510 509.2 508.2 504.1 499.9 497.2 493.2 493.1 490.8 487.7 484.7 483.5 483.8 485.3 482.8 483.1 488 490.9 491.3 490 487.1 483.1 479.5 474.1 470.7 464.6 455.5 446.3 437.1 425.3 409.7 395.4 387.3 376.1 365.8 358.4 354.1 343.7 332.3 324.7 314.3 299.7 297.9 290.1 278 274.1 271.2 268.7 266.1 263.1 259.2 255.7 252.3 253.3 257.9 259.5 260.9 264.1 263.5 258.8 252.1 247.7 238.6 228.6 219 209.2 204 200.8
143 145.7 149.3 154.4 158.6 160.5 157.2 155.8 151.4 144.3 140.7 139.5 137.8 135.8 135.2 135.2 135.9 136 136.1 136.1 136 136.2 136.2 135.5 135.2 135 134.5 131.6 133 140.9 147 146.8 153.3 156.3 157.6 152.2 150.8 149.1 148.9 150.1 151.5 151.9 153.3 154.7 154.2 155.6 159.2 169.1 183.7 190.1 201.7 223.9 249.3 262 270.1 275.5 279.4 285.4 286 287.3 288.3 285.7 287.1 285.3 282.4 284.6 289 293 293.8 295.5 298 305 311 309.9 315.5 320.7 328.2 330.2 328.1 324.2 322.4 327.4 325.6 314.3 315.9 316.4 318.1 322.5 319.8 321.1 326.7 335 344.1 352 352.1 368.3 377 385.5 389.8 394.7 398.6 402.9 406.8 406.2 405.1 409.3 411.4 416.4 419.7 426.5 434.8 443.6 450.7 458.2 459.5 461.8 458.9 453.7 457.1 460.5 459.9 456.9 462.7 471.2 479 493.3 507.4 515.5 523.6 523.6 523.3 513.2 506.3 506 504.6 503 497.4 493.7 487.1 487 485.2 482 477.6 474.7 475 475.8 476.2 474.4 477.4 481.3 484.3 484 482.2 476.5 470.6 465.2 461.1 456.9 449.6 442.7 435.4 417.6 405 393 384.8 378.9 369.7 361.2 354.3 342.8 335.9 321.9 313.5 307.4 300.8 292.8 286.3 277.3 274.5 272.1 268.9 264.9 260.6 257.4 253.5 252.4 258.2 260.5 259.9 261.7 262.7 260.6 253.2 246.5 237.4 225.8 216.7 211.1 209.2 201.8
141.4 143.2 145.6 149.6 153.6 156.8 154.9 155.3 149.8 142 139 138 135.5 134.5 134.3 134.8 135.6 135.7 135.7 135.7 135.8 135.7 135.7 136.1 134.3 132.2 135.3 148.6 153.8 152.3 149 152.3 150.5 154.1 155.4 151.2 149.7 148.6 149.4 151.6 152.3 151.3 150.9 150.7 151.2 153.2 156.7 165 178.2 190.5 207.2 229.4 246.3 262.9 267.6 271.1 275.8 281 281.6 284.2 287.8 289.1 285 287.3 285 285.3 287.8 290.1 291.4 292.4 298.4 294 302 304.7 313.2 319.1 321.8 325.3 325 323.9 326.3 329.9 325.6 320 316.1 318.9 318.7 317.8 324.1 328.5 337.6 349.1 356.9 365.9 374.5 377.3 390.9 399.2 405.7 408.8 412.5 415.3 419.9 421.7 424.6 426.8 418.4 426.7 430.8 437.9 438.7 439.9 450 463 467.6 467.8 465.9 459.3 463.5 468 471.6 468.7 469.2 480.3 489.9 498.8 507.2 512.4 524.2 517.8 521.7 512.3 503.9 502.2 501.4 499.6 494.5 489.1 485.5 479 479.6 476.5 472.3 467.8 467.4 467.6 468.8 467.8 468.8 471.3 473.7 476.5 477.8 473.3 466.2 457.3 452.3 449.1 444 437 429.7 416.1 404 390.9 384 378.6 369.7 361.4 354.2 344 336.2 321.9 315.6 309.8 303.7 297.1 289.7 282.7 278.4 274.7 272.7 267.7 261.8 257.3 253.9 246.6 255.5 258.9 258.4 260.1 261.2 259.2 254.3 247.5 237.8 226.4 218 213.9 212 204.8
140.4 140.6 142 143.4 147.3 151.3 152.2 153 147.2 139.5 137.3 135.6 133.9 133.6 133.8 134.5 135 135.2 134.5 135 135.1 135.1 135.2 134.4 131 134.1 147.8 156.4 158.5 154.8 150.2 152.5 149.7 151.6 151.3 149.2 147.4 147.4 149.2 152.5 153 149.9 149.1 149.1 150.8 153.5 157.7 165.3 176.1 194.3 214.6 227.7 242.5 263.2 265.4 267.5 272.7 275.6 276.6 279.3 283.1 287.1 285.9 283.3 283.4 283.1 283.7 287.2 288.6 292.4 295.2 292.9 298.1 299.6 307.3 316.8 318.2 320.1 320.2 328.4 331.7 332.5 321.7 318.1 325.5 323.2 327.3 329 331.3 336.9 347.5 358.9 369 379.5 393.2 395.3 400.5 413 421.1 425.1 428.5 431.8 438.3 439.6 440.8 443.6 432.2 439.1 439.8 443 446.8 442.9 447.3 457.3 470 472 467.4 464 468.8 469.9 471.1 473 475.4 483.6 490.1 494.5 502.4 509.3 514.6 511.7 508.2 508.2 502.2 498.8 497.8 495.3 491.1 483.8 479 473.9 472.1 470.3 467.4 463.5 459.8 460.2 461.3 461.8 460.8 461.6 465 467.4 469.9 470.7 461.9 451.1 442.1 439.2 435.5 429.3 422.4 414.7 400.4 389.9 381.5 375.8 368.4 359.6 353.3 342.9 335.9 322 316.2 311.6 305.6 299 293.2 285.3 279.8 277.6 274.2 268.9 262.4 256.9 251.7 241.9 252 255.8 255.7 256.3 257.8 257.9 253.3 247.4 237.3 226.1 220.8 215.9 211.7 206.6
140 139.4 139.9 141.6 141.8 144.6 146.2 147.6 143.5 138 134.8 133.8 133.3 133.6 133.9 134.8 134.9 134.2 134.1 133.7 134.1 134.3 134 133.5 132.3 138.1 150.9 162.1 164 158.4 151 147.9 149 148.9 149.4 145.5 145.4 145.4 147.7 151.2 150.7 148.6 148.4 149.2 152.8 156.2 161.5 169 183.4 202.2 217.2 227.8 237.1 255.4 264.1 265.5 269.2 270.8 272.3 273.4 276 280.1 282.6 280.7 280.3 283.3 282.3 284.6 287.4 289.6 293.9 295.1 296.1 295.3 301.3 311.7 314.4 314.9 318.8 336.6 336.1 333.1 324.6 321.8 327.1 326.9 330.4 332.8 334.3 343.1 352.9 367.1 376 386.9 405 411 405.6 418.7 432.1 439.7 442.7 445.1 451 457.1 453.9 450.1 444.6 443.3 451.2 459.3 452.9 453.5 453.9 456.8 471.2 471.7 465.7 464.3 465.3 465.3 468.9 473.6 479.1 483.6 488.2 490.3 496 503.3 508.9 506.8 502.4 501.6 499.8 494.5 493 490.1 485.8 479.2 472.2 466.5 461.9 462.7 460.7 458 453.6 453.2 454.3 456.1 453.1 452.9 453.5 454.4 456.4 457.2 455.4 445.6 434.5 428.8 425.6 421.8 415.4 408.9 400.3 389.2 381.3 373.3 365.8 355.4 348.6 343.4 328 320.6 316.1 312 307.3 302.5 297.3 288.7 280 275.7 272 265.5 259.4 255.4 249.7 239.3 247.3 252.6 252.2 251.7 254.2 252.5 249.3 246.9 236.2 226.4 220.4 215.5 210.6 205.9
140.2 139.9 139.1 138.5 141.2 139 143.1 144.3 140.1 136.6 133.6 133.2 133.4 133.8 134.2 134.2 133.8 133 132.9 133.2 133.1 133.9 133.7 131.5 133.9 144.4 156.3 165.9 167.4 158.3 152.2 147.2 147.1 147.1 146 144.3 144 143.3 146.7 148.9 148.6 147.2 148.2 153.2 159.3 163.8 169.4 180 189.8 211 220 231.6 240.8 251.9 264.4 265.1 272.7 270.5 271.2 273.1 272.7 274.2 276.7 277.1 278.2 281.1 282.8 281.1 286.8 288.7 290.9 294.3 296.1 294.3 296.1 304.3 309.4 311.7 318.9 327 334 332.9 326.3 309.5 324.8 327.3 334.3 335.9 337 345.9 356.6 371.9 381.5 394 405.2 413.4 409.8 415.5 431.3 444.8 449.1 451.8 457.2 462.5 463 458.9 455.3 451 455.4 466.3 460.8 466.8 462.5 467.1 467.8 469.8 467.3 465.2 465 469.1 472.5 477.4 485.2 486.6 487.9 488.7 491.3 497 502.3 504 500.6 496.6 495.7 491.7 487.7 484.9 479.2 471.5 462.3 457.3 454.9 453.7 453.5 451.6 449.5 445.6 447.7 449.5 449.2 446.7 445.3 444.3 443.9 444.1 443 437.2 426.8 417.3 414.7 412.5 407.7 402.8 396.2 388.2 379.1 369.3 359.5 350.3 343.5 336 327.1 320.1 315 311.9 307.7 303.6 297.9 290.4 280.1 273.6 273.1 267.5 263.1 255.9 248.9 240.5 240.8 248.4 248.6 246.5 247.7 246.4 244.6 240.5 236.3 227.1 220.5 215.5 210.5 204.3
141.2 139.9 139.4 137.8 136.4 141 137.4 138.5 138.5 135.9 133.2 132.9 133.2 133.6 133.4 133.3 132.7 132.1 132.7 133.2 133.4 133.6 133.2 129.9 135.2 150.3 160.2 169.9 167.5 154 148.7 145.3 145.7 144.9 143 142.4 142 143.6 144.5 145.7 145.9 146.6 150.2 159.3 166.9 170.8 181.9 190.1 205.6 212.3 222.3 231.9 242.1 252.1 262.8 266.2 279.4 283.7 276.2 276.4 273.6 271.8 271.4 274 274.1 279.1 280.7 279.3 280 286.7 287.7 288.7 291.9 292.2 292.8 297.7 303.8 309.8 317.8 324.5 327.1 327.8 323.4 308.8 322.5 326.6 334.7 338.1 340.5 347.6 360.2 375.8 387.7 396 401.1 409.5 410.4 411.6 424.9 438.8 449.8 451.4 458.1 465.8 466.2 464.7 463.8 460 462.9 468.6 464.5 474.5 474.5 478.9 477.4 474.5 472.6 470.1 469.9 473.5 476.9 481.3 485.9 488.1 487.6 487.3 488.4 491.9 495.8 500 498 494 491.1 488.5 482.8 479 473.4 463.3 457.4 451.5 449.8 447.4 445.7 445.3 443.4 442.2 441.5 443.4 444.3 441.4 438.4 436.3 433.7 431.9 430.9 427 419.4 410.5 405.9 403.8 400.8 397 391 383.6 375.5 365.9 356.9 346.9 339.4 333.4 326.6 319.8 314.7 310.5 306.1 301.8 296 288.5 280.3 279.6 276.4 270.7 265.8 257.6 249 239.8 230.8 240.4 242.3 239.8 240.4 237.9 236.3 234.2 233.5 226.5 219.9 214.6 210.7 201.1
142.2 140.3 139.7 138.6 137.9 136.2 137.5 135.8 133.6 135.4 133 132.8 133 133.3 133.2 132.7 132.2 131.8 132.4 132.8 132.8 132.8 131.9 133.1 139 154.7 165.3 168.3 163.3 150.8 145.1 143.8 142.3 142 141.3 141.2 141 142 143.2 143.8 145 147.7 153.5 163.1 171.4 183.3 194.1 201.5 211.9 217.9 225.6 233.8 243.3 251.4 259.5 266.6 277.3 289.6 287.9 283.2 284 278.8 272.2 272.3 271.4 276.4 277.9 277.5 276.9 282.1 286.3 290.9 291.5 290.6 290.3 294.2 300.6 306.9 311.7 322.8 322.4 321.9 320.8 313.5 328.2 326.6 332.5 338 342.9 350 365.3 379.2 388.4 396.3 397.8 405 409.2 409.2 415.8 428.8 443.5 449.9 456.3 464.3 470.9 467 467.8 468.8 469.6 473.5 476.5 471.9 480.2 483 482.2 480.4 476.9 473.8 473.7 474.4 476.4 479.7 485.3 486.6 486.9 486.3 485.8 486.8 490.4 494.7 496.4 493.8 487.1 483.8 478.8 471.1 466 457 452.8 448.2 442.3 442 439.7 439.6 438.9 437.1 436.2 437.6 438.8 437.5 433.6 428 425.5 423.1 421.1 418.4 412 405.4 399.8 396.4 393.9 390.7 385.5 378.8 371.4 363 354.5 345.6 337 330.9 325.2 318.1 313 308 303.5 298 291.3 285.2 280.5 281.8 276.4 271.2 266.3 258.3 248.1 238.8 228.2 231.3 233.5 232.8 232.1 229.9 227.7 227.7 229.5 224.8 218.2 213.2 209.9 203
141 140.4 141 141.6 140.1 137.3 133.3 133.4 133.8 133.5 133 132.8 132.8 133.1 132.9 132.3 131.9 131.5 132.3 132.4 132.2 131.5 131.7 133.1 143.9 157.7 164.3 161.9 155.7 144.1 142.3 141 140.7 140.8 140.9 141 141 141.8 142.9 144.1 145.7 148.6 157.6 167.4 175.4 191 207.2 215 221.5 227.8 232.2 240.4 248 255.4 259.9 265.4 273.8 284.5 296.1 291.9 287.7 285.5 281.7 275.8 271.8 272.8 274.6 274.5 275 277.1 281.8 287.8 290.9 289.1 289 290.1 297.8 304.4 307.1 313.9 319.5 317.1 316.3 306.7 319.5 324.3 330.1 336.8 343.7 353.1 364.8 378.5 388.8 395 396.3 400.8 408.4 407.6 412.5 424.5 434.2 446.5 454 461.3 467.2 469.8 468.8 471.2 472.7 474.3 479.2 479.1 478.6 482.5 481.4 477.3 475.2 472.3 470.4 471.1 472.5 476.8 482.4 485 484.8 485 483.4 483.2 485.6 489 492.5 493.3 487.5 479.6 474.8 468.1 457.3 453.4 449.7 445 439.8 437.6 435.5 434.6 432.8 432.1 428.5 432.7 433.4 432.7 430.3 424.4 418.4 415.5 413.8 411.2 406.4 400.2 393.4 389.8 387.1 384.2 379.3 373.5 366.5 358.7 351.2 344.1 334.7 328.4 322.5 316 310.1 305.5 301 294.7 288.9 285.7 285.2 284.5 280.3 276 268.9 259.7 246.1 236.6 227.8 223.7 227.7 227.2 224.2 223.4 220.5 220.9 225.7 222.4 215.7 209.9 207.5 202.1
140.6 139.5 140.2 143.3 142.5 138.8 134.9 135.7 133.1 133.1 132.6 132.7 132.9 133 132.5 132 131.8 131.2 131.9 132.1 131.3 131.5 132.7 132.7 150.5 158.3 158.9 154.4 144 141.7 140.1 140 140.2 140.5 140.7 140.9 141 141.4 142.4 144 146.5 151.6 163.3 173.5 182.6 196.7 212.8 227.4 237.5 243.3 242.6 245.3 253.7 260.7 265.4 268.2 275.4 280.5 288.9 297.2 289.3 283.4 285.5 282.7 277.2 274.7 271 273 274.4 276.4 277.1 281.6 289.8 288.8 288.5 288.9 294.1 300.9 303.4 307.7 310.4 312.4 308.8 305.6 315.7 320 327.6 337.9 345.2 354.9 364.5 379.8 389.1 392.6 394.2 397.7 403.9 405.6 411.5 424.3 430.2 440.5 453.7 460.9 464.3 466.8 467.7 469.2 472.5 475 477.7 481.8 479 481.8 481.5 475.3 471.3 469.1 466.2 466.6 467.1 471.5 476.9 482.2 482.7 482 480.6 479.9 480.7 483.7 486.3 489.7 490.7 478 471 461.2 452.8 449.6 445.6 441.5 436.8 431.7 430.4 428.2 427 427.1 425 425.2 427.6 427.1 425 420.7 415.7 409.1 407.4 404.8 401 395.2 389 384 379.6 377.8 373.8 368.4 361.9 354.7 347.8 341.5 332.9 323.4 318.1 311.9 306.7 302.9 299 293.2 288.8 286.6 287.6 286.2 282 276.8 268.9 259.8 249.4 233.9 223.2 218.7 219.6 221.8 218 215.1 215.4 215.6 220.5 218.6 212.2 206 203.6 199.1
