ncols 200
nrows 85
xllcorner 270000
yllcorner 552100
cellsize 50
102.5 105 99.8 94.2 89.8 79.9 82.1 81.9 82.2 77.6 65.6 55.8 51.9 52.6 50.2 44.8 42.7 34.9 35 43 49.9 50.9 49.1 45.4 45.3 46 46.5 51.9 54.9 62.9 68.1 73.8 80.8 85.1 90.5 92.6 93.9 92.4 96.8 95.8 97.4 103.7 105.6 118.7 127.9 132 131.1 126.4 121.3 117.3 117.3 117.1 115.6 112.5 112.3 110.7 110.1 111.9 113.4 113.3 113.2 114 116.2 129 140.6 143.4 145 145 143.6 143.6 145.5 148.3 147 146.4 150.1 153 158 157.8 153.5 141.7 133.8 124.9 120.3 120.8 119.5 114.5 107.5 103.4 98.3 95.3 95.5 96.4 99.1 99.9 99.2 97.5 96 98.8 98 98.3 96.1 99.4 101.2 101.1 101.6 103.3 106.2 110.8 115.7 121.3 120.7 123.6 129.1 135.1 140.3 145.3 150.4 153.9 155.1 155.6 154.8 154.7 157.3 160 159.8 160.5 164.8 168.6 172.5 175.4 177 177.8 182.2 182.8 183.4 183.9 186.6 187 189.4 188.9 187.4 186.5 189.1 193.3 196.6 198.2 205.3 206.2 205.8 199 193.2 196.2 189.3 186 180.9 178.5 176.7 175.4 169.7 159.6 142.5 130 114.7 109.3 101.1 96.5 94.5 93.2 89.9 85 83.7 81.6 78.8 78.2 77.4 78.1 75.7 73.6 74 84.4 96.7 113.7 135.5 146.8 147.5 136.7 130 133.2 133 130.5 135.2 135.8 139 137.8 132.2 118.5 92.2 62.9 27.6 13.6
99.3 103.6 100.7 94.1 88.7 79.3 85.1 80.6 77.6 70 59.8 53.7 50.9 51.5 48.9 42.9 34.9 35 39.3 43.5 51.5 48.2 45.6 45.4 46.8 47.9 50.1 54.7 58.8 64.6 73.7 80.2 84.5 89.7 94.2 94.7 96 96.2 99.5 99.8 101.3 104.7 109.4 120.3 129.6 132.1 130.3 124.3 120 120.7 119.4 118.6 117 115.8 113.9 116 113.3 114.2 114.5 114.5 114.1 113.7 115.4 128.1 141.2 142.1 143.1 143.6 143.6 143.6 149 152.9 148.5 147.6 159.7 159.9 162.4 164.5 161.2 150.4 140.1 131.7 128 126.6 123.8 116.6 110.2 105.9 101.4 96 97.3 98.3 99.2 99.4 98.9 97.5 97.4 99.4 102.7 98.3 97 101.3 101.2 102 103.1 103.5 108 112.4 116.9 121.2 119.9 124.9 131.9 137.7 142.5 147.7 152.9 155.7 156.8 156.7 156.6 157.4 159.9 162.5 164.4 166 169.8 173 175.9 178.5 180.9 182.9 183.5 185 186.5 188.7 190.4 189.7 194 192.2 191.7 189.3 192.7 194.6 200.3 201.7 209.3 210.9 208.4 203.5 191.7 189.2 190 184.5 182 180.6 177.2 175.7 175.5 167.9 159 143.3 125.3 125 117.5 108.5 100.4 100.8 97.9 91.8 87.2 85 81.6 78.8 78.1 77.5 76.7 73.7 75.5 80.7 89.7 98.1 105.9 122.2 129.8 128.1 123.3 119.8 124.2 131.6 129 133.8 143.5 143.3 135 111.8 68.7 43.2 18.1 12.9
97.5 99.9 96 91.4 82.5 75.2 80.5 77.8 66.4 61.8 58.6 53.6 50.5 51.4 45.9 41.3 35 35 42.4 43.9 47.8 48.9 46.6 47 48.3 49.1 53.1 57.2 66.7 73.2 81.6 87.2 94 92.8 94.1 97.2 98.4 99.9 101.3 102.3 103.2 110.2 112.3 124 132.3 134.8 129.9 124.1 121.7 123.9 120.9 118.9 116.1 118.2 115.7 116.1 114.9 115.6 115.9 115.1 116 114.9 115.3 130.2 136.9 139.9 143.7 143.6 144.8 146.6 151.3 155.8 151.4 150 162.4 165.1 165.5 172 168.4 159 150.4 139.7 133.3 131.8 125.3 116.5 111.4 107.3 103.5 98.5 98.1 98.3 99.3 99.1 98.6 97 98.7 101.7 99.7 97.8 98.7 101.3 101.4 102.4 105.4 107 105.8 112.6 116.6 120.4 120.9 127.6 134.2 139.4 144.3 149.6 153.4 155.7 157.6 158 157.8 159.3 161.8 165.4 168.1 170.9 175.6 177.6 179.7 181.4 183.3 183.8 186.2 187.5 188.6 191.7 196.5 193.9 200.2 199.1 196 194 195.2 199.8 200.9 204.8 209.4 208.5 207.8 206.5 194.2 190.4 184.9 182.4 181 179.4 178 176.4 176.5 173.8 166.7 156.4 134.6 135 128.1 123.9 105.7 105.9 102.5 99.1 94.3 91.2 85.6 81 79.2 77.3 76.2 72.4 75.3 79.8 85.5 93.5 101.1 104.1 107.2 111.5 110.8 110.9 111.4 127 122.9 127 136.3 140.8 129.4 110.2 63.1 35.9 15.5 12.9
97.1 97.4 91.6 89.3 76.3 75.2 78.8 77.6 63.1 60.9 57.8 51.8 46.1 46.5 42.5 35.1 35 40.1 46.6 46.5 47.5 49.3 48.2 48.1 49.5 50.7 55.4 62.7 67.7 81.6 90.7 94.3 96.9 98.3 98.5 99.7 99.6 103.4 106.7 105.3 104.4 112.4 114.2 127 134.7 135.8 130.6 123.3 121.1 124.5 125 122.8 118.4 120.9 120.3 120.7 118 120.1 117.6 117 116.2 115.5 115.8 121.6 137.3 141.9 143.7 144.4 146.2 147.7 152.2 156.6 152.7 150.5 155.7 162.4 166.3 168.7 172.7 165.7 151.8 145.5 136.6 132.7 125.6 117.7 110.9 106.9 103.5 99.8 98.6 99.3 99.5 98.8 98.7 98.1 100.6 104.9 99.5 98.7 100.3 101.6 101.5 103.1 106.4 110.7 110.9 111.1 117 118.6 122 130.1 135.4 140.4 144.4 148.4 151.5 153.9 156.3 158 158.8 160.5 163.3 167.4 172 175 179.2 181.8 182.9 185.8 188.1 191.2 191.2 191.3 192.3 193.8 198 198.9 203.6 206.5 205.9 206.6 203 204.6 206.3 207.3 209.3 205.6 203.2 199.9 194.8 189.4 186.8 180.7 180.4 178.7 176.6 175.4 174.5 172.3 167.6 160.4 155.1 147.1 132.7 126.6 116.3 109.4 102.4 100.5 98.8 99.4 90.3 84.6 80.6 78.5 76.7 72.3 74.5 80.4 85 90.4 100.8 111.2 115.3 111.2 110 108.5 107.5 108.2 115.9 123.3 132.5 127.5 121.1 109.9 77.3 42.6 16.4 12.9
93.8 94.7 89.5 82 74.3 78.5 73.1 68.6 61.1 57 54.8 49.3 47.1 44.4 41.5 35 37.4 45.1 49.5 49.8 51.8 49.7 49.6 48.8 49.9 51.6 59.9 68.5 75.8 82.6 95.2 95.9 98.7 101.2 102.8 104.4 103.3 107.1 113.7 110.8 108.9 114.9 115 128.1 135.2 136.1 130.3 123.2 123.8 124.1 126 125.1 122.5 121.3 121.2 120.4 120.6 121.4 123.2 120.9 118.2 116.5 117.7 117.4 130.2 139.9 141.1 142.2 145.1 147.6 151.4 154.2 151.2 155.1 158.6 158 164.1 168.4 166.2 159.8 150.3 141.9 134.7 129.6 126.6 121.3 106.9 105.3 104.2 101.1 100.6 100 99.1 99.9 101.2 100 103.5 105.2 102.7 99.9 101.5 102.2 103.3 103.7 108.2 111.8 113.8 114.9 118.3 117.5 124.1 133.3 136.3 140.2 144.1 147 149.7 152.9 155.5 156.7 158.9 161.2 165 169.6 174 178.1 181.6 184.4 186.7 190.9 193.2 195.8 196.9 198.6 198.5 200 200.6 203.9 211.2 213.3 214.6 213.3 208.1 204.8 209.1 212 207.1 202.9 202.2 195.3 190.6 186.4 184 182.6 180.3 178.2 176.2 176.5 174.6 172.2 170 162.8 163.7 161.6 145.9 133.8 124.9 114.9 103.8 98.8 102 100.6 97.4 85.5 81.2 80.1 77 72.7 72 75.7 82.8 86.7 94.2 110 121.7 123.7 116.1 115.6 112.9 110.3 112.5 124 138.9 140 131.7 110.3 76.9 44.9 25.2 12.8
90.4 91.1 87.1 75.7 76.4 76.5 72.7 63.3 60.9 56.5 46.7 43.3 44.4 43.8 39.5 35 43.6 47.4 52 52.6 53.8 51.3 50.2 49.2 51 54.2 65.6 76.2 84.9 84.5 96.5 98.7 102.5 104.2 106.2 107.7 106.6 111.5 116.8 114.8 113.3 117.4 116.3 130.1 136.2 135.2 130.1 124.1 120.2 125.5 127 127.8 123.4 122.8 123.8 124.1 123.8 123.3 124.2 125.4 127.4 129.2 131.1 128.3 120.1 134.1 140.1 141.1 146.7 144.9 148.9 150 148.1 152 154.4 153.9 157.9 164.2 161.3 152.3 144.7 136.7 132.3 128.1 122.9 118.7 114 107.9 104.3 105.4 104 100.1 98.6 99.6 103.4 101 103.2 102 102.1 100 101.5 102.6 103.6 104.7 109.9 111.6 115 116.7 118.5 117.9 125 133 136.4 139.2 144.8 148.7 150.5 152.4 155 155.7 158 162.4 166.4 171.5 175.5 178.3 182.7 186.1 189.1 193.4 194.5 196 199 202.3 204.5 205.6 205.4 206.2 208.4 217.1 220.8 224.1 217.4 211.3 206.9 210.8 208.1 202.8 201.8 200.2 195.1 189.6 188.7 183.2 181.6 178.6 178.2 177.6 176.4 175.1 170.7 171 174.1 171.8 160 143.3 132.3 127.2 116.1 106.2 96.6 94.2 91.7 86.3 81.8 78.1 74.9 72 70.3 74 81.1 85.6 88.6 101.4 117.4 124.9 124.9 123.5 121.8 118.7 117.1 120.9 130.4 139.2 133.3 114 73.6 45.9 30 14.1
90.3 88.4 81.3 74.4 75.6 72.6 66.9 66.1 63 57.7 47.2 42 46 41.9 34.9 34.6 44.1 49 54.3 54.6 54.5 51.9 50 50.8 52.6 62.2 71.7 81.4 86.9 94.7 98.5 101.3 104.9 107 109.2 110.8 111.1 113.2 119.6 113.8 116.7 117.9 125.5 132.3 135.7 134.2 129 125.3 122.3 123.7 127.1 128.1 124.3 125.2 124.7 124.8 125.2 125.2 127.3 131.1 133.3 136 137.2 137.7 131.6 128.3 131.7 140.2 143.5 143.6 145.5 147.3 150.3 148.5 151.6 150.8 149.5 153.9 151 145.9 138.5 132.5 130.5 131.5 125.2 118.7 113.2 107.9 104.4 102.7 101.3 99.2 101 99.8 104.3 100.8 102.7 103.2 103.1 100.8 101.5 102.5 104.4 109 110.9 111.7 116.3 119.1 118.9 121.4 126.4 130.9 135.3 137.9 144.8 147.2 149.5 151.3 152.2 155.2 158.8 163.6 167.7 172.5 176.6 180.7 185.4 189.3 191.8 194.8 197.4 200.5 203.9 208.2 211.9 211 209.8 212 209.1 215.9 225.5 230 225.6 214.3 204.1 204.1 204.2 204.1 202 200.9 197.6 190.2 187.7 188.5 182.8 182.3 182.2 179.7 179.1 177.7 173.5 176.1 180.7 176.7 170.1 156.4 152.4 136.3 126.9 110.9 102.1 98.6 91.8 90.2 88.1 79.4 75.6 71.3 69.2 69 76.2 80.9 85.7 94.3 106.4 121.6 127.3 132.4 131.3 127.3 127.4 128.9 126.6 130 126.9 122.9 83.6 49.4 32.1 16
89.1 82 79 73.5 67 67.8 65.6 61.7 57.9 53.6 49.3 40.1 42.9 36.1 34.8 41.2 46.7 50.7 54.6 54.5 54 52.5 50.8 52.6 55 66.9 76.1 85.3 91.8 97 99.6 103.3 107 109.3 111.4 114.4 115.2 115.9 117.5 115.5 117.2 120.5 133.7 133.4 134.1 133.2 128.5 124.9 122.7 126.9 128.6 128 125.3 125.6 125.2 125.1 126 126.2 128.4 133.6 138.1 140.3 139.5 139.6 136 134.5 138.4 137.7 139.3 140.6 145.1 146.6 147.2 146.4 147.1 148.4 146.1 150.4 144.8 139.5 133.1 129.2 128.9 130.9 131.5 121 112.7 108 104.8 104.5 100.9 100.1 100.1 100 102.4 101.9 104.7 105 102.1 102.2 101.9 102.4 105.5 109.6 110.1 112.6 115.8 117.3 119.1 126.2 131.3 133.1 133.7 138.5 141.8 144.7 148.6 149.6 151 152.6 158.8 164.7 169.1 172.7 176.7 183.9 187.9 192 195.9 199.9 203.6 206.8 210.1 214.8 221.6 215.3 215.5 218.6 217.6 215.2 226.1 232.7 227.2 215.7 208.7 204.1 204.1 204.1 202.6 201.7 199.6 192.1 189.8 193.3 189.1 189.5 188.9 188.6 184.1 183 178.8 175.8 177.9 180 178.9 168.6 165.3 157 133 118.9 109.8 98.9 93.2 92.5 91.9 80.9 77.3 71.1 69.6 69.5 71.6 75.6 83.5 88.4 103 115.7 128.8 137.7 144.4 138.9 139.9 139.2 127.5 123.7 118.9 118 98.7 53.2 32.7 15.3
87.3 77.8 78.1 72 63.8 63.9 64.6 55.8 57.9 62.5 49.3 40.4 41.2 34.8 38.3 46.1 49.9 54.9 55.4 60.3 54.6 53.5 52.3 53.4 57.6 70.7 79.2 87.1 92.5 98.5 102.5 104.2 107.6 110.1 113.3 117.7 118.6 121.7 117.6 118.2 118.2 123 133.8 134.1 133.6 131.8 128 126.2 125.9 127.2 128.9 127.5 125.2 125.6 125.4 125.8 127.3 126.8 129.7 136.7 140.7 140.7 139.3 138.8 135 135 139.7 140.4 140.7 140.1 144 144.6 145.1 145.1 144.1 144.5 144.5 143.4 140.2 134.8 127.8 129.7 125.4 126.7 126.8 122.3 112 107.3 104.2 104.3 101.8 102 100.1 100.1 100.9 102 104.4 103.6 101.7 102 102.1 102.6 105.3 110.6 112.9 115.2 118.6 115.9 122.9 132.8 140.9 136.4 137.1 139.6 142.4 144.1 146.3 147.4 149.7 153.9 158.2 164.9 169.9 176.5 182.2 187.2 189.3 195 199.6 206.6 210.9 215.6 220.3 224.7 225.6 223.2 219.9 220.3 222.2 222.5 229.1 235.4 232.7 223.1 212.5 208 203.3 204.1 207.7 205.8 202.3 195.5 193.6 198.9 194 198.8 194.7 197.7 193.7 191.2 187.9 186.4 184.4 185.9 182.9 178.5 174.7 165.2 148.7 129.2 122.4 113.9 99 89.7 93.4 82.3 79.2 76.2 71.3 68.4 67.8 71.5 76.4 86 96 116.8 129.4 144 150.5 151.1 152.7 150.7 149.1 145.2 135.8 104.7 72.4 56 32.4 12.9
83.7 74.9 75.3 68.3 61.9 62.3 61.3 55.3 66.8 65.8 47.6 39.8 41.8 34.8 42.1 47.6 51.3 54.1 58.4 57.7 55.9 54.5 55.2 55.2 58.8 76.1 84.3 92.2 97.5 99.2 102.5 104.9 108.6 110.4 117 118.9 122 124 121.8 120.8 124.2 126.1 134.9 136.4 132.4 130.1 126 125.8 126.5 127.5 129.2 129.3 128.2 127.3 129.5 130.7 130.4 130.3 131.1 136.9 142.1 141.5 140 139 134.1 130 139 140.9 143.5 141.7 142.1 141.4 142.8 143.6 142 141.5 142.3 137.9 134.8 130 125.8 125.8 122.4 122.7 123.5 117.8 111.8 106.8 103.9 104 102.5 103.3 101.4 101.2 100.9 102 104 102.8 101.5 101.4 102.3 103.4 107 113 115.9 118.8 118.1 120.4 127.5 133.5 141.3 139.5 137.9 139.4 142.9 145.8 148.1 149.6 153.7 154.5 160.5 162.4 173.2 179.6 185.1 189.5 193.2 198.4 205.2 213.2 220.9 225.4 228.2 229.3 231.9 234.8 237.3 232.2 229.8 233.6 237.2 231.4 230.4 227 219.7 212.1 207.6 204.8 208 208.6 206.8 199.9 198 203.2 202.8 201.8 202.1 203.8 202.7 197.4 199.1 199.9 198 189.9 190.4 186.5 183.7 173.3 165.3 142.4 130.5 122.4 109.2 97.2 86.7 84.4 85.4 77.4 74.3 70.2 66.7 65.6 67.1 74.8 88 112.2 135.6 146.2 156.6 160.8 161.1 159.9 159.1 159.8 144.4 105.5 67.4 40.7 18.5 12.3
79.8 72.8 70.6 67.3 64.6 59.9 58.4 62.4 68.7 58 44.2 39.9 38.3 34.8 46.7 50 56.5 62.9 62.2 59.4 57.8 55.6 58 61.5 62.5 80 88.1 93.9 96.5 99 102.3 106 109.6 112.4 117.5 119.2 125.3 128.9 125.3 117.3 125.1 129.1 135 134.1 132 129.1 127.4 128.7 129.3 127.3 129.2 130.8 130.4 131.3 134 136.5 134.8 134.8 144.7 144.3 144 141.5 139.9 138.8 131.8 129.2 139.9 145.2 144.6 142.4 141.9 140.4 141.3 144.1 143.9 141 139.8 135.7 130.6 125.2 121.4 122.9 121.3 121.5 120.2 114.5 109.3 106.1 103.7 104.2 106.4 106.6 103.9 102.9 101.8 103.6 103.2 101.8 101.6 101.6 102.3 104.4 109.2 115.7 118.1 121.5 116.9 124.9 129.7 134.7 141.1 142.9 138.6 141.8 143.1 147 150.6 151.5 153.6 159.8 164.4 167.2 174 179.4 187.3 191.9 197.4 202.1 208.9 218.9 227.1 235.9 242.2 235.4 238.5 240.3 240.4 238.8 242 245.7 247.8 238.8 233.7 230.6 224 216.1 211.9 209.5 209.8 209.1 210.3 206.4 203.4 204.7 207.4 209.2 208.4 207.3 206.6 206.1 205.5 208.5 206.6 202.9 197.9 197.4 189.3 182.7 176.1 158 144.9 129.2 115.3 106.9 96.6 89.5 83.6 80 80 73.2 65.9 62.1 62.1 67.1 74.4 93 118.4 148.3 157.5 163.5 163.6 165.7 165.5 162.4 153.6 103.3 65.7 39.5 20 12.8
76.3 69.1 68 64.8 59.3 60.3 58.4 62.5 62 53.9 40 34.7 34.8 35.5 47.7 54.2 63 61.1 64.7 63.9 56.9 58.1 60.6 65.3 74.4 84.3 90 97.1 98.2 100.4 103.4 104.4 110.7 113.1 116.9 120.6 131 134 127.5 120.2 126.4 130.9 134.9 133.8 131.9 131 132.6 133.1 131.8 128.7 129.6 130.6 132.3 133.2 136.6 137.8 140.3 141.6 145.3 150 147.5 145 142.9 140.1 132.8 129.7 141.5 147.9 145.9 143.4 141.7 141 141.2 141.1 143 145.7 143.2 135 128.8 123.6 121.7 121.2 120.5 119.9 118.2 114.6 110.6 106.8 105.7 106.7 108.7 106.6 105.4 104 102 102.8 104.5 102.3 101.8 101.7 103.9 108.1 112.5 117.9 121.9 121 122 126.9 132.7 137 142.5 143.5 140.1 143.6 145.2 147.8 153.6 152.7 160.6 162.4 166 171.9 181.3 187 188.6 188.1 200.7 204.7 216.2 225.2 236.4 249.8 258.1 248.8 242.6 244.8 243.9 249.5 256.5 257.2 259.7 250.1 239.5 233.6 225.9 220.8 217.1 214.1 212 210.6 210.8 211 211.3 209 216.8 218.4 219.9 221.4 219.5 222.9 223.2 222.2 221.6 216.9 214.2 208.2 196.2 194.4 182.7 170.1 157.5 140.3 129.1 115.3 102.8 94.5 88.2 81.5 77.2 74.2 65.4 61.9 59.5 60.9 66.4 77.3 99.5 122.4 148.1 159.4 154.2 160.3 167 161.7 142.8 97.8 62.7 42.4 26.1 16.9
74 67.2 66 63.9 57.2 58.3 55.7 53.8 49.9 48.2 41.5 34.6 34.7 40.8 49.1 56 61.5 63 66.5 63.5 58.3 61.6 63 69.6 80.6 89.1 91.5 100.5 103 101.5 104.8 107.8 109 112.7 117.3 124.8 135.5 136.5 128.2 120.9 125.1 128.9 133 133 132.9 132.8 135.2 136.9 134.5 131.5 129.7 130.5 132.4 134.3 138 140.1 141.7 144.2 144.9 147.7 146.8 145.9 143.6 141.3 132.7 129 141 147.6 144.5 143.9 142.2 140.6 142.2 141.6 141.7 145.2 150.2 131.3 130.6 126.1 122.2 120.7 121.1 121.2 117.8 114.8 110.5 106.7 108.9 110.8 109.4 107 104.8 104.7 103.5 103.2 103.9 103.8 103.5 102.4 105.1 110.4 116.5 121.6 122 119.8 125.7 129.5 133.2 139.1 141.8 141.5 144.4 147.2 149.1 148.7 153.8 157.8 166.4 172.4 171.5 179.5 184 190 200.1 197.3 195.9 203.6 216.5 228.4 248 260.7 265.4 258.9 249.1 246.9 251.6 259.3 270.8 272.1 264.7 260.2 248.5 238.3 229.9 223.1 221.1 218.2 216.8 215.1 212.8 215.1 220.6 220.1 226.9 232.6 235.2 235.5 237 237.4 237.1 237.8 236.7 231.8 228.3 224.7 219.1 210.8 196.6 183.7 169.1 151.7 137.1 119.6 111.2 104.2 96.9 85.6 75.2 69.7 64.4 61.6 58 56.7 60.9 65.3 76.5 97.6 114.6 125.1 132.3 135.5 132 133.9 111.1 82.7 56.3 40.6 30.2 25
72.3 64.3 62.4 60.5 56.3 58.1 55.6 55.6 54.6 46.8 34.6 34.6 34.7 43.5 48.3 56 60.1 63.6 66.2 60.5 60 63.2 69.9 75.8 86 94.4 97.3 105.6 109 105.6 104.6 107.1 108.9 113 117.7 126.6 139.2 133.9 127.9 124.5 123.4 125.6 132.7 133.2 132.6 133.7 137.6 141.6 140 135.5 132.8 131.3 131.8 132 138.5 141.7 144.4 145.3 147.7 147.7 145.9 144.4 143 138.7 131.8 129.5 141.1 146.6 144.7 143.4 141.6 141.4 142.4 142.8 142.5 143 140.1 134.5 136.7 130.8 124.6 121.1 121.8 122.7 120.8 116 111.4 112.3 116.2 116.8 111.9 107.2 105.4 106.8 104.9 102 103.8 102.9 102.7 103.1 108.2 115.1 121 124.4 120.1 124.9 126.5 131.2 135.6 139.9 141.2 143.7 144.9 149.8 150.1 152.8 156 161 167.5 174 176.5 184 188.4 194.6 199.7 202.8 202.1 200 216.1 234.7 252 265.3 267.9 262.6 255.3 252.7 258.7 270 279.4 282 272.7 266.8 255.6 246.5 236.4 228.9 223.1 222.4 222.3 223.5 222.1 223.7 230.3 231 232.5 243.9 248.2 249.8 254.7 254.2 255.7 257.1 254.3 248.5 239.2 238.4 231 223.1 214 205.8 186.1 166.3 149.7 134.6 124.6 113.8 106.2 95.3 79.7 69.2 66 61.1 57.2 56.2 57 62.9 63.1 71.3 84.2 100 107.7 106.3 107.6 100.3 85 70.1 57.1 40.4 36.8 31.8
71.4 66.5 62.5 57.7 54.4 56 58 61.5 52.4 39.2 34.6 34.7 36.9 43.3 48.8 58.8 61.6 64 64.5 62.8 61.8 65.3 77.8 82.2 91.8 98.1 102.4 108.3 111.6 107.8 105.5 106.1 109.3 110.4 119.9 127.7 138.4 128.2 128.5 126.3 127.3 124.5 130.4 130.7 131.3 134.5 139 144.2 144.5 139.2 136.6 137.5 141.7 140.8 140.5 143.4 145.9 146.9 148.7 149.7 146 145.2 143.6 140.6 129.4 126.6 139 144.3 144.7 142.3 139.7 141.7 142.8 143.1 143.2 143.2 142.5 141.1 141.1 134.7 128.1 124.1 128.3 126.2 123.3 120.1 115.3 121.5 127.5 126.2 114 107.6 105.6 105.5 104.9 103.6 103.3 102.2 102 103 111.5 119.2 126.7 122 121.1 129.8 129.8 132.7 136.9 138 142.5 143.2 145.3 149.5 156.1 156.3 159.8 161.5 169.7 175.5 180.7 186.9 193 199.1 206 207.2 210.1 212.6 208 231.4 252.2 265.6 267.2 262.6 258.4 254.8 264.2 278 285 289.5 283.8 273.9 264.6 257.9 249.1 239.1 231.2 225.8 229.1 230.8 231 233.7 238 240.3 245.9 252.8 261.9 266.2 271.8 273.7 274 273.3 269.1 268.1 260.5 250.2 243.1 232.2 228.1 218.1 204.8 185.7 163.8 149.9 138 126 111.8 102.7 91.7 74.9 68.8 64.4 57.6 55.2 53.9 54.9 55.2 64 70.7 79.2 88.5 85.9 89.2 82.1 72.1 61.8 50.3 43.2 41.5 39.9
67.2 61.8 61.1 57.1 55.2 52.4 55.7 57.4 47.7 34.6 34.9 35 38.9 45.9 53.4 60.2 62.7 63.7 65.3 62.5 60.5 70.1 80.7 84.3 92.8 100 105.5 109.3 110.1 107 105.7 108.9 110 114.7 120.2 130.3 136.6 132.1 130 126.4 124.3 124.4 126.5 128.1 130.8 135.6 140.9 143.9 142.1 139.6 139.4 140.7 143.3 146.2 144.9 145.8 147.4 147.7 148.8 150 147.3 144.1 143 139.6 130.3 126 139.1 143.1 143.5 140.3 139.9 141.8 142.6 143.3 143.9 143.9 143.2 144.1 143.4 136.7 130 128.7 129.6 129.9 128.5 122.6 119.8 124.6 134.2 130.7 117.5 108 106.2 105.4 104.3 104.2 102.3 101.9 103.1 104.7 110.9 120.2 126 123.7 131 135.5 133 134.8 136.3 142 143.2 146.8 146.7 148.3 154.9 158.2 160.3 163.7 171.6 177.9 184.8 194.2 199.5 208 217.9 214.4 217 215.5 213.5 221.1 243.8 257 261.4 261.5 259.6 258.8 265.2 280.6 287.5 296.6 296.1 279 275.7 270.5 265.5 255.3 242.2 233.9 234.4 239.4 238.4 242.5 248 253.5 258.1 261.9 271 282.9 293.6 296.6 287.6 288.1 282 283.2 277.2 269.9 262.3 249.6 242.6 228.4 216 201.7 184.5 171.2 158.5 143.1 126.5 111.2 99 86.6 73.7 66.3 60.9 56.3 54 53.7 52 55 59.7 67.2 74.9 78.4 77.7 71.3 61.3 54.8 47.6 43.6 46.8 46.1
65.7 60.9 60.2 56.4 55.7 52.2 53.9 53.1 41.7 34.6 34.9 36.2 43.1 45.4 55.1 61 63.4 64 64.8 63.6 61.5 73.4 77.8 85.8 93.3 101.8 105.6 109.4 110.4 107.7 106.5 109.5 109.9 114.4 122.6 130.1 132.5 132.6 129.7 124.9 123.9 124 125.1 127.1 130.7 136.2 141.6 145.2 149.5 145.4 143.3 142.5 144.5 150.3 149.8 149.1 148.3 147.7 148.6 149.1 146.3 145.5 142.1 136 128.9 127 136.1 141 141.2 138.4 138 139.9 140.9 142.4 143.8 143.9 144.4 145.5 145.2 138.4 131.5 128.7 131.2 130.9 133 129.4 126.3 131.9 142 130 115.8 110.2 106.9 107.6 104.1 103.8 103.3 103.4 103.7 105.4 113 121.3 125.5 125.4 132.7 136.7 138.8 136.7 138 141 144.6 145.2 148.1 147.6 153.9 160.1 161.2 164.8 173.7 177.4 193.1 200.1 205.7 216.9 226.6 229 225.9 222 219.7 217.6 232.1 248.8 254.9 259.1 263.2 262.2 269.4 280.2 290.8 305.4 308.5 294.8 291.5 285 277.3 271.4 262.1 247.4 241.9 245.3 246.4 248.3 256.4 264.9 270.9 275 279.6 296.4 310.1 315.1 305.4 298.9 297.5 299.2 294 286.7 273.6 263.1 255.4 242.2 230.3 215.2 202.9 188.4 176.6 162.8 144.5 126.4 108.8 97.7 83.6 72.6 65.4 57.7 54.8 54.6 53.2 49.7 52 57.5 59.3 61.8 62.1 58.2 52.5 48.2 45.8 45.2 49.3 49.8
62.7 61.4 58 54.6 53.5 52.6 47.1 46.6 38 38.1 34.9 36.5 45.2 50.5 53.5 59.1 62.5 66.3 65.8 64.5 62.6 78.5 75.4 87.8 95.2 101.3 104.1 109.6 110.6 107.1 106.7 111.1 113.2 115.7 123.1 134.7 131.3 131.7 129 125 124.2 124.1 125.4 127.9 130.8 135.2 139.6 145 145.7 146.2 147.2 148.5 150 154.5 153.7 151.8 149.8 147.2 147.4 148.1 146.8 149.2 142.5 136.2 129.6 127.4 132 139.2 138.8 136.6 136.2 138.1 137.9 141 142.8 143.8 143.9 143.9 144 139.7 139 138.1 132.4 130 130.7 128.7 128.2 137.6 145.4 128.4 114.5 108.8 107.7 107.6 106 103.1 102.7 102.8 104 106.3 114.4 118.3 127.7 126.5 130.5 135.2 136.8 139.4 140.1 143.1 144.3 145.9 147.6 146.5 156.2 160.6 161.2 164.2 175.1 186.5 196.8 197.8 207.4 220.5 231.6 236.8 239.2 237.1 231 221.5 228.9 237 247.8 255.8 261.4 268.4 271.9 277.5 291.8 308.9 315.5 306.6 296.7 298.7 289 280.8 273.8 266.3 261.3 254.3 253.1 252.7 258.9 268.9 275.9 282.6 287 298.9 317.7 324.2 320.7 310.9 309.2 310.6 308.4 298.9 285.8 277.1 267.9 254.7 236.8 226.1 216.2 203.3 190 175.5 161.5 132.5 121.9 103.1 96 85.5 72.3 63.9 56.1 54.4 53.2 51.2 49.2 51.1 53.4 52.4 50.8 45.7 43.8 46 42.8 43.9 46 45.8
60.6 59 54.5 49.7 51.9 53 50.7 44 34.7 35.1 35.4 40.1 45.6 50.8 58.1 56.7 63.5 65.2 65.5 64.5 68.5 76.3 77.2 92.4 97.6 103.1 103.6 110.8 110.1 105.4 108.4 111.4 116.2 120.9 124.9 134.3 133.6 133 128.2 125.5 125 124.5 126.1 128.1 130.1 133.4 139.7 144.2 144.3 145.4 146.6 148.4 152.3 155.6 154.5 152.8 151.6 149.4 147.6 147.6 146.7 151.1 146.3 137.2 130.4 128.3 128.7 138.2 137.4 136.3 134.5 134.4 137.4 140 141.5 142.8 143.6 142.7 142.1 145.8 143.6 143.5 135.1 129.6 128.6 126.5 126.2 134.3 137.9 126.2 114.1 108.9 108 107.6 105.4 104.1 103.7 103.4 105.2 107.2 112.7 120.5 126.9 129.2 130.7 136.3 135.3 139.8 142.2 143.9 144.5 145.5 145.3 147.9 156.2 161.7 162.8 168.8 177.1 190.3 201.3 210.7 213.4 219.7 230.8 237.6 241.5 243.4 238.8 234.8 230.4 233 242 252.1 262.7 267.5 270.3 273.2 293.4 306.8 321.3 319.1 313.5 310.7 299.7 291.1 283.2 280.6 280 278.1 272.2 266 262.8 270.3 281 290.7 298.7 307.9 322.4 326.8 325.9 320.4 321.3 318.2 319.3 311.8 297.7 286.7 274.9 261.5 248.8 240.6 232.7 224.6 204.7 186 171.5 148.9 125.7 113.4 105.8 98.2 86.2 72.8 62.3 55.1 54.5 51.1 49.3 49.9 50.7 49.2 42.3 42.2 40.3 50.4 52 40.1 38.4 35.5
59 56.3 50.9 51.1 47.7 47.4 49.4 38 35 35.4 37.1 41.5 47.1 53.3 59 60.2 67.5 65.7 67.1 65.1 65.9 70.1 78.6 93.1 100.4 104.9 108.2 108.7 107.4 106.7 110.1 114 117.5 124.4 132.6 134.5 133.2 133.1 129.7 125.5 125.3 125.3 126.6 128.6 130.2 131.9 138.5 141.1 141.8 142.8 144.8 147 147.5 153 153.7 153.2 151.6 150.6 149.4 148.9 149.2 149.3 141 133.7 136.9 136.1 128.4 137.9 137.4 136.6 135.9 135 134.3 137.9 140.6 142.4 143.4 143.4 143.6 145.8 145.9 141.9 134.2 129.9 127.8 126.7 126.6 127.5 130.6 125.7 115.4 109.2 109.4 107.5 106.3 104.8 107.3 104 104.1 107.3 117.6 124 127.8 132.1 134.3 138.6 141.4 139.2 144.1 143.8 145.8 145.5 145.8 151 156.9 162.9 165.3 171.8 183.2 196.1 208.4 211.4 219.7 224.2 233.4 239.6 241.2 243.5 245.4 244.3 243.8 240.2 237.6 244.4 253.9 263.2 266.6 268.8 290.3 306.7 320.5 323.2 323.7 311 312.1 304.2 296.6 295.7 296.3 295.2 290.2 285.3 283.5 278.5 285.3 296 309.2 318.1 333.3 335.1 326.2 326.1 328.8 334.7 328.5 319.5 312.8 295.3 287.8 279.7 271.9 259.7 250.4 242.9 232.1 198 180.6 165.5 135.3 122.5 114.6 106.8 93.5 82.5 75.3 64.8 58.2 54.3 51.5 49.4 47.6 46 40.8 34.8 32.1 34.5 38.6 33.2 32.3 30
58.3 53.6 48.9 46.8 48.6 47.4 39 34.6 35.1 35.7 39.3 43.1 48.4 53.3 60.3 62.3 65.2 67.2 66.4 66.4 67.8 77.7 85.9 96.8 102.7 106.3 108.8 111.7 109.1 107.7 111.5 118.3 124.1 128.9 134.4 135 135 132.6 130.9 126.4 126.7 126.9 127.1 128.5 131.4 132.4 134.7 139.2 140.8 141 142.8 143.7 148.6 152.7 151.8 151.3 150.6 150.4 149.8 148.9 150.6 150 136.5 143.9 143.3 139.9 128.9 137.2 137.7 137.2 136.5 136.5 136.1 135.6 138.8 141.6 142.8 145.2 148.9 149 147.1 144.1 132.6 129.1 127.4 126.5 127.2 128.1 130.4 124.5 114.1 111.7 109.4 107.8 106.6 106.1 107.3 105 105.3 112.6 119.2 123.9 131.5 133.4 136.4 139.2 141.6 142.1 141.2 144.1 145.5 146.5 148.9 151.3 158 164 168.8 176.9 188.8 203.3 213.5 226.4 230.1 230.4 237 243.6 248.9 254.5 252.5 250.6 249.2 245.9 243.4 245.4 245.2 250.3 259.2 266.9 280.1 293 306.4 317.7 324.2 304.6 314.4 307.5 312 313.9 315 311 306.9 302.2 301 297.5 288.1 289.4 300 321.1 336.1 338 331.7 328.6 328.1 336 333.2 325.8 321 306.8 305.1 303.9 296 283.9 269.5 251.6 241.2 221 194.1 174.8 158 132.8 121.4 112 102 89.9 80.4 73.2 67 64.4 57.4 52.1 48.7 43.3 36.4 32.4 28.1 24.5 25.3 24.9 24 22.6
55.2 49.2 47.4 46.5 49 46.9 34.6 37.9 34.9 36.9 41.9 47 50.5 54.9 59.4 61.8 67.2 67.6 72 69.9 77.8 85.5 85.5 95.3 102 105.3 108.9 111.2 112.2 111.6 116.9 124 127.1 131.8 136.7 135.8 134.9 135.9 131.5 126 126.9 128.1 127.9 129 131.4 133.5 132.6 136.2 139.8 141.4 144.9 149.8 150.5 152.2 150.7 149.7 149.1 149.6 149.2 149 148.6 147 144.4 150.3 146 139.6 128.1 136.7 137.7 137.5 136.8 136.6 136.5 135.6 137.4 139.6 142.9 147.9 147.5 148.8 148.3 140.7 134.8 131.5 127.3 126.5 127.3 127.4 125.2 119.7 114.2 111.7 108.4 107.9 107.3 105.9 107.2 109.4 108.2 109.6 120 122.7 128.6 133.2 138.5 142 145 144.9 147.2 145.8 145.6 149.7 150.6 154.1 160 166.8 174.5 182.7 199.3 211 215.7 236.9 244.6 240.4 242.8 251.6 261.6 262.8 265.5 260.9 259.9 253.1 251.6 248.6 251.2 252.5 256.2 259.4 267.1 277.8 280.9 293.2 307.3 303.1 298.4 306.1 308.6 318.5 322.8 323.8 321.3 315.2 310.9 307.5 304.6 298.4 296.5 304.7 332.5 337.6 329.9 328.2 323.9 323.1 326.9 329.4 331.8 323.3 324.4 323.8 320 313.7 295.5 281.2 251.9 233.9 208.9 185.1 166.6 147.7 128.4 119.2 109.6 97.6 85.9 77.3 71.6 69.8 65.5 58.1 53 49.8 43 35.7 28.8 22.9 21.1 19.9 18.3 19
59.3 47.4 46.6 46 48.6 42.4 34.6 34.6 35.3 37.2 42.6 50.3 53.6 59 60.7 64 66.3 69.4 67.6 73.3 83.9 90.4 87.2 98.4 100.3 104.6 108.7 112.4 112.7 115.1 121.2 128.3 133.6 136.9 136.2 132.1 134.8 139.7 133.3 127.2 128.3 128.3 129.7 131.5 132.7 133.3 132.7 134.9 138.9 141.5 147.3 150.1 151.6 151.9 150.2 149.5 148 147.3 146.5 147 147.3 139.7 147.2 147.2 145.2 141.1 128.6 134.6 137 137.5 136.9 136.8 135.5 134.3 135.9 137.9 141.2 144.6 146.9 146.7 145.5 143.6 140 135.8 129.7 126.5 127.4 128.9 126.3 121.3 114.7 110.5 108.4 107.3 108.7 110 108.6 109.2 110.4 110.9 117.7 125.1 127.5 131.8 141.6 142.8 146.1 147 147.7 148.7 148.2 152.1 156.1 157.3 165.3 168.9 178 190 202.3 216.8 234.8 244.1 254.6 261.6 253.6 262.7 270.9 275.4 279.4 278.6 276.8 269.5 266.5 262.5 262 264 270.7 274.1 270.2 268.7 274.4 279.1 284.3 286.6 285 289.9 299 307.7 314.9 323.4 328 324.2 319.9 315.6 311.4 303.5 297.9 300.7 301 301.2 301.4 304 300 299.1 303.5 313.1 322.1 327.5 332.5 336.1 336 335.6 324.8 304 276.7 246.1 225.9 196.7 177 160.7 143.7 128.5 117.7 108.2 94.6 83.6 74 71.2 69 63.3 55.6 50.7 44.9 38.4 30.5 23.7 20 17.8 16.6 15.5
57.3 48.6 50.3 45.4 45.9 37 34.6 35.1 35.7 37.4 42.1 50.1 55.3 58.1 62.2 66.4 65 70.5 68.9 80.9 89.3 89.2 87 96.5 103.3 107.4 110.3 110.8 112.9 118.1 124.7 132.6 136 137.6 139.4 135 136.5 142.7 135.6 127.5 128.6 128.7 130.4 132.1 132.8 133.5 133.3 135.2 137.5 141 146.6 150 151.7 151.2 149.6 148.3 146.9 146.8 145.3 143.8 143.1 143.6 147 146.9 144.2 140.3 129.2 135.3 136.1 136.6 136.6 136.1 135 133.2 134 134.7 138.1 139.6 142.8 144.1 144.2 143.5 143.7 140.4 136 129.8 127.6 128.5 127.5 120.2 113.7 111.7 109.3 109.6 108.4 113.5 112.5 113 112.1 114.7 119.5 123 127.3 133.4 142.6 149.7 154.5 151.7 151.5 150.5 153.1 158.1 159.8 159.3 165.9 175 179.3 192 207.8 225.3 244.8 252.6 262.9 266.3 261.1 274.3 279.8 283.5 284.9 288.6 292.1 289.7 280 279.3 271.4 276.5 281.9 290.1 291 281.4 277.6 292.3 291.8 284.1 284.8 290.1 295 300.9 307.1 317 322.4 317.5 317.7 311.9 304.3 299.5 297.1 294.7 290.8 284.2 270.4 270.1 272.4 280.3 280.3 286.6 294 304.9 325.6 332.7 340.9 338.4 333.3 313.8 293 262.2 232.5 211.8 190.7 175.5 156.4 142 127.1 116.5 107 94.4 84.9 75 71.8 70 61.3 50.5 47.7 44.2 35.2 26.4 20.9 18.5 18 16.8
54.1 51.1 47.6 45.1 39.7 38.9 34.8 35.5 35.7 37.2 42.2 51.7 54.7 59.2 61.9 64.4 66 66.4 70 81.1 88.3 86.5 88.1 95.2 103.1 107.6 111.8 114.7 115.1 117.2 128.2 135.7 138.6 139.3 137.5 138.3 137.9 145.3 137.4 128.8 128.7 129.3 131 132.2 133.2 132.9 133 135.6 137.7 141.6 147.7 151.3 151.9 149.4 148.6 146.6 146.1 145.2 143.4 142.8 142.4 145.5 147.8 146.7 143.1 138.9 131.1 133.1 136 135.4 137.1 138.7 131.1 131.6 132.5 134.4 136.8 138.4 138.5 141 140.7 142.1 144.9 145.3 141.6 135 129.9 131.5 130.2 122.3 116.5 113.6 112.1 115.5 113.3 112.9 114.4 114.3 114.8 117.2 123.3 122.8 129.8 135.3 138.8 150.5 155.6 157.8 156.8 159.4 163.5 164.9 163 164.1 170.7 175.4 180.1 192 212.6 232.4 249.6 260.8 267.6 274.2 265.4 264.9 283.2 284.5 288.9 295.9 299.2 302.6 297.7 287.8 287.8 287.7 295.3 298.2 307.5 303.6 288.4 294.2 303.6 302.8 293.9 300.6 309 314.8 317.2 321.1 321.2 323.6 319.5 312.3 308.6 305.9 306.3 296.8 289 284.8 270 260 258 255.3 255.7 252.4 259.9 278.6 296.1 313.3 318.7 324.2 323.4 317 294.2 271.5 238 216 200.3 183.7 167.7 154.1 135.2 125.5 116.5 106.6 98 85.1 76.9 73.7 69.3 60.2 47.3 45.6 42.2 34.2 26.1 18.7 17 16.2
53.6 50.2 52.2 44.9 43.6 42.6 34.6 34.8 35.1 38.5 44.3 52.3 55.5 60.6 63.8 68.3 70.5 68.6 75.4 82.2 86 87.5 89.9 93.7 102.1 106.1 111.2 114.3 115.8 122.3 130.4 137.4 139.6 140.5 142 143.5 142.4 145.8 140.4 130 130.8 131.6 132.6 133.5 133.6 133.1 133.4 135.3 139.9 145.3 150.3 151.9 151.8 150.7 147.5 146.2 144.5 142.6 142.4 142.3 143.7 144.7 148.1 145.1 143 137.8 132.6 128.3 137.7 140 137.9 136.6 130.8 130.5 130.1 132.5 137.6 140 138 136.5 136 135.9 137.2 137.6 141.6 139.9 130.2 133.7 133.1 125.2 117.1 113.4 115.7 114.4 118.2 117.2 113.7 115.6 118.7 119.1 125.6 125.5 130.5 139.3 140.5 150 159.2 162 164 168.4 171.8 173.1 173.9 170.7 172.2 178.9 184.2 194 219.8 232.5 250.8 267.5 269.7 277.4 268.7 264.5 272.1 280.4 283.1 294.3 298.8 304.4 307.2 303.1 294.3 298.5 307 312 312.8 318.2 313.3 300.4 297.1 311.7 312.4 306.9 314.6 320.4 319.8 328.5 329.1 336.2 331.1 324.7 323.9 321.1 318.8 305.5 298.1 287.8 279 274 257.1 245.8 246.6 242.5 245.7 255.9 263.2 278.7 292.2 293.2 293.5 293.8 290 279.4 252.8 229.5 210.3 193.3 177.8 165.5 152.9 138.7 125.7 117.1 105 96.7 84.6 77.5 74.1 67.7 52.6 43.6 40.9 38.8 30.5 19.4 16.5 15.3
56 53.8 48 48.2 44.2 39.5 34.6 34.7 36.8 39.5 41.6 49.5 58.5 63 64.3 68.2 71.6 74.4 77.6 86.3 88.9 93.9 95.5 99.5 103.8 108.4 114.4 114.2 115.1 121.2 127.8 132.9 136.5 138.2 141.8 144.5 143.4 144.1 140.7 131.1 132.7 133.4 134.6 134.6 134.5 134.4 134.7 135.2 140.1 149.6 152.4 152.6 152.1 150.3 147.5 146 143.9 142.8 142.5 142.6 143 143.2 144.1 144.6 144.2 137.3 133.4 127.6 134.2 146.9 142.9 136.9 133.3 130 129.9 129.2 133.2 136.6 137.4 134.8 133.7 134.5 135.6 135.4 135.3 134.5 131.4 133 139.6 131.8 123.2 118.6 116.3 116 117.9 117.4 114.6 114.7 117.3 120.3 124.4 126.9 138.7 144.7 144 151.2 162 166.8 172.4 176.6 178.8 178.9 179.6 176.5 176.3 180.4 184.5 198.4 222.4 235.5 248.2 264.3 269.9 271.7 266.1 259.3 269.6 272.5 280 286.8 296.4 301.3 303.5 310.5 316.1 310.3 312.1 320.3 323.8 320 321.5 316.8 304.5 300.7 308.5 316.9 316.1 316.7 315.2 319.9 327.3 339.1 337.9 334.4 330.2 330.6 321.8 316.8 306.6 296.7 291 284.5 272.2 260 243.9 232.2 231.2 239.1 248.2 248.9 254.7 269.8 277.5 273.4 267 269.3 249.4 234.5 221 201.1 183.4 171.4 157.6 145.9 131.1 120.1 113.4 102.4 91.5 84.2 80.3 72.4 64.3 50.8 41.5 39.6 35.9 25.2 16.1 14.7
60.2 51.8 48.7 46.4 44.3 34.6 34.6 34.7 37.6 42.2 44.6 45.4 56.2 62.5 66.2 70 68.3 72.1 80.4 89.3 91.3 96.2 96.8 103.4 105.8 111.6 115.7 118.2 115.8 125.6 131.9 137.6 138.4 142.9 149.1 146.5 144 143.7 138.9 132.6 133.5 134.4 136.1 137.4 137.1 136.9 136.9 136 140.3 148.4 155.4 156.4 154.2 150.7 147.9 145.9 144.3 143.1 143.3 143.9 144.2 143.8 142.8 143.1 139.8 136.8 134.5 127.9 125.3 143.5 142.7 139.6 134.5 132 130.1 129.4 132.2 133.4 133.5 132.1 131.6 132.6 133.6 134.2 134.2 132.8 130.6 131 137 133.6 128.9 123.7 121.6 117.1 120.8 120.8 116.5 115.9 119.2 122.4 128.1 132 134.9 145.2 154.9 158.6 162.2 174.9 181.2 185.6 187.8 187.5 184.1 179 178 181.4 185.3 199.9 214.4 228.1 248 258.6 260.8 263.2 263.9 251.8 267.7 270.7 270.4 281.1 285.9 298 303.4 308.9 317.8 329.8 326 317.9 330.1 327.2 324.8 322.2 316.8 310.3 306.9 301.1 316.6 314.5 315 296.4 310.1 320.5 337.5 335.9 330.2 326.4 321.1 317.1 314.2 303.6 292.2 284.6 275.9 269.3 256.8 242.7 233.7 221.9 222 222.2 224.4 226.6 237 244.9 247 243.5 238.2 227.3 214.4 199.2 182.9 171 161.8 147.1 135.3 124.3 114.9 108.1 99.8 90 85.1 77 68.9 63 53.7 44.4 33.5 27.4 19.3 14.5
60.3 51.7 48.5 45.7 40.4 34.6 34.6 36.8 41 45.6 47.4 49.1 52.3 59 65 69 68.5 76.4 85 90.4 91.1 92.4 96.7 102.3 106.7 112.5 115.6 118.9 119 126.4 133.8 138.2 143.6 149.6 150.3 155.7 148 141.6 138.7 136 135.5 137.3 139.4 140.7 140.1 139.7 139.2 139.4 141.7 146.5 159.2 162.9 158.8 154.4 151.4 148.2 145.2 143.5 145 145.5 145.2 144.3 145.3 142.3 139 136.3 133.5 129.1 123.6 132.3 142 138.9 135.4 132.6 131.2 130.2 129.5 131 131.2 130.4 130.1 133.1 132.5 132.5 133.1 132.2 130.3 130.5 134.6 131.6 132.2 128.1 123.5 119.5 120.8 122.7 121.9 121.2 121.6 121.4 128.4 135.4 135.5 145.6 148.8 162.6 169 175.3 186.9 192.5 194.8 193.2 192.5 188 180.5 182.2 187.4 198.4 211.8 227.5 235.9 251.5 256.4 258 262.1 241.4 253.9 264.6 262.6 266.2 277.7 284.1 296.2 303.1 313.4 324.9 332.8 330.2 323.3 333.9 328.8 329.5 325.5 320.5 307.2 307.8 294.6 304.2 293.2 290.9 285.8 295.9 320.1 326.2 328.5 323.9 320.5 315.1 312.5 305 289.6 279.2 267.4 267.9 261.4 254.6 253.2 242.5 226.4 208.1 208.7 203.6 210.2 213.9 220.7 224.6 226.1 221.5 215.4 199.5 185.5 170.7 161.1 149.6 138.7 129 121 112.5 104.1 94.3 85.9 80.6 74.4 65.7 59.9 54.1 43.2 32.2 19.9 15.5
61.7 56.7 49.6 45.2 39.8 34.6 34.6 34.6 40.4 44.6 49.4 54.7 57.1 58.9 63.4 68.9 69.3 81.4 88 94.5 96 95.3 100.2 103.3 108.9 113.6 117.1 119.1 120.9 127.2 131.3 138.1 142.7 148.4 152.3 155 145.7 138.3 139.6 137.5 137.7 140 142.4 142.5 142.3 142.2 142.3 142.3 146 150.6 158.4 169.9 164.6 158.6 154 151.1 147.3 144 147.9 148.5 145.7 144.3 144.5 141.1 140.6 139.2 136.1 131.6 126.3 123.7 133.4 135 134 134.8 132.3 131.1 129.7 129.7 129.1 129.2 130.1 132.1 131.9 131.7 132.2 131.2 130.7 130.5 131.9 130.7 129.6 128.2 125.1 125.7 122.2 123.6 123.1 121.5 122.1 122.9 130.5 133.5 135.7 146.4 154.5 163.4 175.5 179.1 188.1 195.4 202.4 202.6 201.3 195.6 189 184.4 187.7 196.2 207.5 221 232.6 240.6 244.7 247 249.7 230.9 243.1 255.4 253.8 255.8 261.5 275.4 286.3 298.3 312 320.5 326.3 331.7 326.2 325.2 327.1 332.4 330.5 327.7 322.3 306.4 297.6 286.8 279 273.5 284.7 294.9 308 311.7 318.3 317.9 307.9 308.5 302.5 297 285.5 274 266.2 263.5 259.6 265.8 267.3 257.9 244.2 225.7 206.3 195 199.6 198.8 202.1 208 208.7 210.3 209.7 197.1 186.1 183.2 169.4 153.6 145.7 137.9 127 114 105.7 96.9 86 84 79.8 72.2 63.3 56.2 50.4 35.7 24.3 17.1
65 59.1 52.4 40.6 38.7 34.6 34.6 34.6 40.5 45.3 50 56.3 59.7 63.6 64.4 71.1 73.1 84.3 88.9 95 94.9 96.9 101.5 106.2 110.8 112 115.7 117.8 118.4 124 130.3 139.2 141.9 147.3 152.9 151.1 144.7 143.4 139.8 139 140 141.7 142.8 143.3 143.8 144.3 145.1 146.3 148 152.1 156.8 162.7 162 162.4 155.6 151.2 145.9 144.6 155.1 155.2 150.5 148.5 148.3 148.1 146.5 145.4 143.4 136.6 130.3 123.3 123.9 129.5 128.9 131.9 132.6 131.1 129.8 128.8 128.6 130.4 131.8 132 131.9 131.3 131.6 131.2 130.7 130.3 131.1 132.3 130.1 128.5 126.7 124.9 126.4 124.5 122.9 123.6 127.5 125.7 130.9 135.9 140 150.5 160.3 168.1 178.2 186.5 193.5 202.2 208.2 209.9 204.8 198.8 198.1 189 188.9 195.3 205.8 215.8 226.9 231.7 234.4 236 233.6 217.1 225.6 238.7 237.7 243.3 258.3 267.6 278 289.7 303.3 317.5 323 324.7 331.4 331.7 337.5 339.8 342.4 339.2 335.4 327.8 307.1 300.9 289.4 270 264.9 273.4 286.7 296.9 301.9 303.9 301.7 302.7 302.5 293.3 282.6 272.7 265 259.5 257.8 254.1 260.7 262.9 249.7 236.5 220.2 200.7 187.8 190.3 191.8 189 191.6 192.4 190.2 187.3 180.9 176.5 168.8 161.6 153.7 143.1 133.4 123.4 112.3 100.1 87.9 80.3 78.4 72.5 64.8 56.2 51.4 41.1 33.4 21.4
63.5 58.4 49.4 39.9 35.4 34.6 34.6 34.6 36.7 44 51.4 59.1 59.6 65.6 68.1 72.3 78 83.6 89.7 89.7 90.2 95.6 99.3 105 110.8 112.6 118.4 117.4 120.5 130.9 134.5 135 142.8 145.8 149 146.6 146.1 143.2 139.5 139.4 140.7 142.2 143.1 143.7 144.3 145.2 146.3 147.5 149.1 149.1 155.6 157.2 157.6 156.3 153.3 148 142.9 145 154 161.4 157.2 151.3 147.7 146.5 145.2 146.8 144.1 141.7 135.1 129.3 124.1 123.7 125.5 128.5 131.2 130.2 129 129.8 128.2 132.5 133.4 134.1 132.5 131.8 131.7 131 130.4 130.5 131.5 133.5 130.9 128.5 126.6 126.5 125.9 124.7 125.1 130.4 130.3 129.1 133.4 138.6 142.7 148.5 163 175.5 185.7 191.9 201.8 207.8 212.1 211.4 204.8 199.9 196.5 190.9 187.7 193.9 201.1 213.4 225.7 230.8 227.8 220.4 217.8 209.5 209.5 220.8 231.4 238.2 251.2 264 272.4 283.6 294.9 305.7 318.4 327.9 338.1 345.6 346.8 353.7 354.7 351.2 340.9 328.3 319.3 301.9 292.8 287.2 271.6 249.8 250.8 255.2 262.9 274.7 286.1 283.1 288.6 284.9 276 266.7 260.6 254.5 249.5 246.1 251 256.8 250.8 239.9 222.6 205 190.3 180.3 180.3 180.4 180.1 175.3 174.4 174.8 179.3 174 166.4 156 150.1 138.3 131.1 125 118.7 104.9 89 74.9 72.8 70.6 66.2 58.9 47.9 38.6 31.7 21.6
58.9 49.7 39.4 39.4 34.6 34.6 34.6 34.8 41.3 46.7 53.2 55.2 56.8 62.6 65.3 75.1 80.2 86.2 91.5 95.8 97.4 99.5 103.9 107.2 113.7 118.1 121.5 120.7 126.6 130.6 133.9 139.1 139.4 139 143.8 143.5 142.8 141.9 138.4 139.7 141.5 142.4 143.3 144.2 144.9 145.7 146.6 147.4 148 148.7 151.7 153.9 153.3 151.5 148 143.1 141.5 142.6 150.1 156.3 162.3 162.6 153.3 145.4 145.8 146.6 143.9 141.3 138.6 131.8 128.3 123.3 124.1 126.2 127.9 128.7 128.1 127.6 128.4 131.4 130.6 132.1 134.8 133.1 132.8 131.8 131.2 131.1 131.4 132.9 128.9 127.2 126.8 128.9 128.2 127.6 130.3 128.7 129.3 131.6 135 138.2 144.9 151.2 162.4 180.1 192.5 201.4 208.4 212.8 217.9 216 205.4 201.7 197.5 193.4 189.5 191.9 201.2 205.4 214.8 215.7 218.6 209 204.8 195.7 196.9 209.8 220.3 231.2 245.5 260.5 275.6 289.4 297 310.8 322.6 338.5 350.6 351.5 351.9 360.1 364.8 356.6 348 334.6 322.6 304.9 290.9 271.1 275.4 263.1 243.6 228.6 232.4 242 255.5 260 262.2 267.2 266.4 260.8 253.8 246.5 241.7 237.2 235 247.4 243.1 232.3 222.5 204.5 187.6 180.7 174.5 169.3 168.7 167.2 161.7 155.5 158.3 161.7 160.6 154.1 143.5 131 129.6 125.1 116.3 106.3 94 79.7 68.3 64.4 63.1 57.3 48 39.9 32.8 24.7
54.6 45.8 42.5 34.6 34.6 34.6 35 36.5 45.6 48.3 54.7 58.4 64 68.9 73.5 80.1 86.1 90.5 94.5 98.1 100.2 101.4 106.1 110.7 116.3 121.3 126.7 130.5 126.3 132.4 136.2 138.9 140.9 140.1 138.5 138.8 140.5 138.4 137.5 139.6 141.6 142.6 144.6 149.3 149.6 148.4 147.6 148.3 148.6 146.5 146.4 148.2 149.4 147.1 142.7 139.1 138.1 138.6 145.1 152 161.5 167.8 158.3 148.3 145.2 145.4 142.7 140.9 137.8 135.2 126.8 124.9 123.2 124.7 126.2 127 127.6 126.8 127.6 128.8 128.8 132 136.2 135.1 134.7 133.1 131.9 131.8 131.5 131.9 129.8 127.2 126.9 128.8 128.4 131.6 131.5 130.7 130 132.9 132.1 139.1 147.8 156.2 164.7 188.3 198.9 210.4 215.3 217 222.2 221 219.7 208.8 204.5 197.4 194 190.5 193.1 199.4 202 201.3 194.6 193.6 192.2 186.9 189.5 208 222.3 233.3 247.2 261.4 274.8 292.7 306.4 316.8 327.4 343.5 354.3 363.9 358.8 358.9 360.2 357.8 349.8 339.5 326.5 303.7 291.8 271.8 252.3 248.3 244.5 231.3 214 213 219 226.1 232.3 242.7 250.3 251.7 243.3 236.2 231.9 228.4 221.9 226.5 228.6 221.3 215.8 205.4 189 177.8 174.1 169 158.8 160.8 156.2 150 144.8 142.8 142.1 139.6 133.6 126.1 124.8 122.4 115.1 104.3 96.7 82.9 71 60 59.5 54.1 46.5 40.9 36.4 27.7
55.9 49.6 39.9 34.6 34.6 34.6 35.3 36.6 47.4 50 55.4 59.5 63.3 67.8 75.6 81.4 87.7 91.2 96.7 98.1 102 104.2 108.4 115.6 120.6 126.8 132.7 132.9 131.3 134.4 138.6 142.7 146.1 146.8 143.7 142.6 139.7 136.3 137.1 140.2 142.2 143.1 145.3 151.1 152.6 152.1 148.5 150.4 148.9 141.3 140.6 140.9 143.7 142.2 137.9 138.2 139.2 137.5 141.4 147.1 156.5 164.7 155.5 147.5 147.9 143.5 140.6 140.3 136 132.6 127 123.7 122.3 123.6 124.9 125.9 126.6 125.6 128.5 127.6 128.6 132.3 135.5 136.4 134.8 133.9 132.6 132.7 132.2 131.7 130.1 127.7 127 128.2 131.5 135 134.6 132.7 130.5 132.8 132.1 141.3 147.1 160.1 168 186.8 201.4 213.6 221.4 223.4 226.2 231.7 229.4 221.3 210.8 202.9 195 197 188.9 190.2 190.6 191.4 189.4 181.6 176.9 180.8 183.6 193.2 210.7 225.5 244.2 259.9 274.4 287 300.9 319.3 333 342.1 353.5 370.7 367.9 365.4 364.8 354.4 347.7 338.8 324.3 298.3 281 271.7 251.8 237.2 228.6 222.1 212.8 196.9 197.3 200.9 210.8 222.4 231.5 236.7 236.3 229 220.1 213.8 211 208.7 212.1 211 207.5 201.6 191.7 180.1 171.8 166.4 163.8 151.3 146.1 142.8 139.4 137.5 130.9 123.2 118.6 117.1 117.2 114.7 109.5 101.7 93.1 84.7 74 60 58.2 53.6 46.9 43.9 43.8 32.3
54.3 45.5 38.4 16.8 34.6 34.6 34.6 39.2 45 50.1 53.9 62.2 65.7 68.1 74.2 80.8 87.9 93.9 97 101.2 103.4 106.5 111.3 116.2 123.1 128.5 134 138.1 132 137 142.7 147.1 147.3 145.9 142.4 141.8 140.3 136.3 137.1 141.7 147.1 148 145.8 160.3 154.2 154.3 146.9 146.1 143.6 140.4 139.6 139.1 138.7 136.6 136.4 139.5 140.9 135 137.4 142.5 150.9 156 150.8 145.7 151.7 150.2 144.4 141.9 134.1 127.8 128.2 122.5 122 123.1 124.2 124.6 125.5 125.4 129.3 135.7 132.1 133.4 136.8 137.3 135.6 134 133 132.7 133.2 131.7 130.3 129.4 128.5 127.4 130.6 134 132.3 133.9 134.1 133 131.9 139.2 145.6 155.4 165 179 193.8 209.9 222.1 230.3 230.2 234.3 237.6 232.2 224.1 214.8 205.8 199.4 194.7 183.5 180.8 180.2 181.1 180.1 171.7 176.7 181.5 177.9 204.9 223.2 237.7 256.1 270.3 281 293.4 312.5 331.4 340.6 354.7 371 377.3 380.5 371.5 355.8 342.4 336.9 320.6 298.8 279.7 261 247.8 235.4 225.4 215.2 205 199.9 189.7 188 189 204.7 213.4 218.3 217.3 214.7 208.1 200.3 197.5 198.6 199.6 201 199.2 194.7 188.5 181.8 169.6 165.2 162.1 152.3 138.1 133.7 130.4 127.2 120.9 114.1 108 102 98.8 97.7 93.5 87.4 83.4 79.6 71.4 64.2 62.6 55.1 50.6 48.1 45.4 34.4
48.4 43.4 31.9 19.6 34.6 35.7 42.6 44.8 45.9 53.4 57.6 59.3 67.3 72.6 77.7 84.2 89.3 94.5 98.6 100.3 107.6 110.6 115.1 120.2 126.9 132.1 137.3 139.9 135.1 140.2 141.5 147.8 147.1 146.6 144.8 141.1 138.6 136 137.9 147.4 149.4 153.7 150.7 154.2 151.6 147.2 144 142.3 139.8 138.1 138.3 137.6 136.2 133 134.3 137.9 140.1 135.6 132.9 137.3 145.3 150.3 142.3 140.3 148 157.9 154.2 146.7 138.8 129 125.7 123 121.9 122.3 123.3 123.8 123.8 125.6 130.9 138.7 140.6 138.7 138.1 138 136.4 134.5 133.5 132.9 133.1 131.1 131 131 131.7 127.1 131.8 134.1 135 134.4 134.6 130.9 131.5 140.1 143.5 150.4 161.6 171.3 186.3 200.5 216.2 227.8 235.7 237.4 239.2 238.7 230.4 225 218.9 211.3 203.5 192.4 179.7 169.6 169.6 166.6 165.2 168.9 178.5 170.4 195.2 217.3 236.4 250.1 263.9 273.6 285.9 308.5 324.9 342.6 353.4 371.8 384.4 388.5 377.1 361.6 341.9 323.1 315.3 298.2 278.4 260.9 245.1 234.7 223.5 216.9 204.5 195.8 191.8 186 175.8 178.3 190.1 198.8 203.1 201.2 199.5 194.8 191.9 190.5 191.1 190.9 189.8 188.3 184.7 181.5 176 169.6 164.2 156.1 146.4 129.3 126.3 122.6 115.3 105.7 99.7 95.4 94.3 92.2 84.1 78.2 74.9 72.5 71.3 67.8 60.1 55.8 53.2 53.4 40.6 30
39.4 39.3 17.1 30.4 32.6 33 42.3 44.5 43.9 52.2 58.8 61.8 65.5 71.5 77.9 83.6 89.1 94.3 99.2 102 109.5 114.9 123.2 126.2 129.1 136 141.2 144.8 137.4 143 146.1 146.9 148.5 147.3 144 140.9 137.7 136 140.4 150.5 154.8 157 155.7 151 147.9 145.3 141.5 139.2 138.8 137.2 137 135.3 133.5 132.8 131.2 134.2 136.9 134.2 132.2 135.2 140.6 142.1 137.3 134.5 143.2 150.9 158 145.8 137.1 129.9 123.6 122.2 123.6 121.4 122.2 123.1 124.6 127.7 130.8 139.5 141.1 146.2 143.4 141.7 137.7 135.2 135.5 135.7 136.8 133.6 130.8 129.7 130 127.3 134.1 133.2 135.6 136.3 136.5 135.6 132.1 137.9 144.9 149 157.3 169.7 179.2 193 207.2 220.7 232.7 240.5 241.7 239.5 234 228.8 226 220.7 213.7 202.2 188.3 169.7 162.5 161.7 161.3 163.2 171.9 167.9 178.2 197.6 222.5 243.3 257.4 269.4 283.8 299.2 321 340.1 350.8 368.8 384.4 380.9 373.5 362.7 340.5 325 310.5 290.4 277 254.9 243.3 235 224.8 215.3 203.9 197.2 191.1 185.9 180.1 171.2 167.2 175.5 181.6 180.2 184 185.9 186.6 183.9 184.1 179.6 181.2 180.4 176.8 176 173.9 169.5 162.6 155.1 150.4 135.1 124.3 121 116 108.1 101.5 96.6 92.2 87.7 84.4 80.9 74 72.9 73.6 69.3 58.5 57.3 52.4 48.9 39.8 36.3
32.4 27.2 26 21.7 23 28 37.6 42.5 42.9 49.5 58.2 62.7 66.9 74.2 78.4 83.7 90.4 93.6 98.5 101.4 107.4 119.8 124.7 132 136.4 139.7 142.1 145.6 139.8 142.9 144.4 148.3 150 146.9 143.5 140.4 137.3 136 142.9 152 156.6 159.4 154.1 147.9 144.7 143.2 139.6 137.1 136.2 136.5 135.2 132.5 131.6 133.6 129.1 129.6 132.6 134.8 133.6 134.8 138.2 136.3 132.8 133.5 137.4 148 148.5 141.5 133 128.9 125.5 121.7 122.7 122 121.8 122.3 124.2 128.2 130.9 137.8 142 146.1 149.6 146.2 140 139.4 140.6 141 138.2 136.4 136.7 130.5 130.9 128 128.8 128.5 131.6 136.5 134.7 135.6 133.7 135.7 142.5 146.5 154 159.7 166.9 186.7 200 212.1 223.2 235.5 245.7 244.6 240.8 236.6 232.4 229.4 224.3 218.7 206.7 192.1 173.5 160.6 155.5 156.4 162.1 161 161.8 185.4 202.6 224.2 243.7 270.8 282.1 296.8 310.3 333.7 344.8 358.9 369.2 373.4 368.4 351.5 329.3 318.5 303.1 282.8 267.3 254.3 242.1 226.6 221.5 213.3 204.6 196.3 189.2 185.7 183.3 171.5 165.8 162.6 166.2 165 170.7 174 176.5 175.5 170.7 168.9 169.2 173.9 171.3 174.8 176.4 176.6 169.4 161.9 153.6 145.4 130.7 117.9 113.8 108 103.5 100.9 92.5 90 87.5 85.3 79 73.8 72.1 70.6 64.9 54.6 52 46.5 43.3 39.4
31.6 24.2 25.3 16.7 15.4 33.1 39.9 46 46 51.9 58.3 64.4 69.8 74.8 81.6 87.8 93.1 97.1 101.1 107.8 109.5 117.6 123.7 130 135.8 139.9 143.5 143.6 139.4 141.8 143.1 145.5 145.7 143.4 141.1 139.8 137.2 136.5 143.7 151.9 156.1 157.1 149.1 144 141 140.7 139.3 137.3 135.3 135.2 132.5 129.2 130.1 133.7 126.5 125.3 130.2 135.1 133.6 133.5 135.8 133.4 131.7 132.9 135.7 140.6 145 133.9 129.1 125.8 122.9 121.8 121.7 121.6 121.6 122.3 123.8 126.4 130.7 138.1 141.4 147 151.8 150 146.8 146.1 147.8 147.5 143.5 140.6 141.6 137.7 135.5 132.8 130.3 132.3 132.5 131.6 131.7 135.4 138.3 137.6 140.9 147 152.3 161.1 167.8 181.2 193.2 205.7 218.7 232 244.4 249.5 248.1 245.7 243.5 237.8 231.9 225.1 212.7 199.1 182.6 169.9 153.7 149.4 148.6 155 157.5 170 193.9 222.3 243.5 264.2 278.5 293.1 307.5 320.4 337.3 349.2 354.7 358.1 362.7 344 308.4 293.7 288.5 271.4 256.1 244.3 230.3 222.4 220.6 210.6 204 198.3 189.5 184 180 172.8 168.3 164.4 147.5 152.5 159.4 163.1 162.6 161.5 161.7 162.2 158 162.4 165.1 169.4 175.1 177.4 174 166.6 157.3 148.8 134.5 119.7 114.8 116.4 113.9 106.6 97 91.1 88.9 88.7 87.3 79.3 69.2 71.8 65.9 56.5 56.3 51.7 48.7 37.4
27.9 26.1 26 15.4 18.3 33.8 39.1 46.2 41.6 49.9 55.9 64.9 70.2 77.9 84.1 91.7 94.3 99.7 104.5 107.2 111.3 117.9 126.6 131.2 134.8 138.7 141.8 144 139 141.1 142.2 142.7 144.4 139.9 138.8 139.7 136.6 138.3 144.3 150.9 155.2 158.5 157.3 145.1 138.3 142.2 136.7 135.4 135.2 133.4 129.6 128.2 131 134.3 127.1 123.3 128 133.5 133.1 130.1 132.5 130.5 133.3 133.8 134.7 138.7 135.3 130.4 124.4 122.7 122.3 121.6 121.5 121.6 121.7 122.8 124.2 127.1 131.4 138.7 142 144.7 150.2 151.7 152.4 152.4 150.5 149.6 148.9 148.5 146.3 141.3 140.7 134.7 134.9 138.5 135.3 131.8 132.2 137 141.3 144 140.9 144.4 151.3 160.5 167.5 174.6 189 203 218.7 228.4 240.9 245.6 250.9 251.9 252.6 244.1 241.9 235 219.4 209.8 193.5 173.5 158.3 148.4 145.8 144.3 148.8 161.2 183.9 208 227.3 250.5 265.8 290 301.8 308 317.9 336.2 346.4 349.1 350.2 330.9 296.1 277.7 265.1 264.7 257.5 240.9 231.6 223.6 214 208.4 204.7 195.6 189.4 183 179.6 175.8 171.2 167.6 161.6 152.3 134 153.5 152.4 153.9 155.2 153.3 153.4 155.6 156.1 160.1 166.1 169.6 171.5 167.1 158.3 145.2 136.2 122.3 115.5 113.9 117.4 115.3 99.6 94 90.2 88.3 86.4 81.5 76 69.5 63.4 58.1 56.8 56.3 50.5 39.8
25.3 17.5 15.1 21.7 32.1 34.7 39.6 37.5 44.1 53.7 56 56.3 62.1 72.6 78.9 88 92.9 100.2 101.7 108.5 113.6 115.9 123.9 128.7 132.4 138.9 141.5 144 138.1 143.4 142.6 142.3 137.7 139.7 137.4 137.3 135.9 139.2 145.6 150.8 154.8 164.5 164.3 156.8 137 140.3 135.7 133.2 132.8 131.9 127.2 127.3 133.8 137.1 132 125.5 124.6 131.2 130.4 128 129.5 126.3 131 133.9 131 138 133.2 124.7 119.9 120.3 120.1 121.3 122.3 124.3 123.5 121.8 127.3 129.3 132 136 140.2 143.4 148.3 151.1 154.5 155 151.5 152.7 153.4 155.8 151.3 146.6 145.5 136.3 136.6 137.5 139.9 136.9 134.1 134.3 141 143.3 143 142 145 157.1 163.9 170 179.5 197.9 216.1 226.7 231.5 239.4 243.5 255 263 257.6 253.2 241.2 224.3 219 200.5 180.7 163.7 156.1 145.8 141.6 143 148.8 173.3 195.6 215.2 237.3 250.9 270.5 288.9 304 308.2 318.7 331.5 335.6 330.3 317.4 281.6 269 259.4 256.9 253.3 244.6 237.3 226.5 216.9 204.1 199.3 192.9 187.3 183.2 178.7 175.4 173 169.8 165.2 159.6 150.6 135.1 137.8 147.1 147.8 145.7 143.7 144.8 150.5 153.8 156.7 161.7 164.5 162.7 155 144.6 134.3 124.2 116 114.8 111.2 108.9 102.4 98.6 97.9 90.7 88.7 83.8 79 73.3 66.7 57.9 59.1 58.4 56.7 49.2
14.9 15.5 21.1 24.5 35.2 37.5 37.8 39.5 46.9 58.7 61.5 67.7 72.9 76.2 79.8 82.6 91 95.8 99.6 107.4 113.1 121.5 121.7 127.1 131.2 136.4 142.2 140.6 138.6 140.1 139.6 141.4 140.4 135.8 135.1 135.3 135.8 140.7 147.5 148.1 150.9 161.5 162.2 154.4 135.8 134.4 137.8 131.2 130.5 128.9 127.7 127.5 132.7 136.8 131.2 126.6 124.3 128 127.4 124.9 125.5 124.9 132.5 130.1 127 132.1 130.1 122.1 118.5 118.3 119 120.8 124.7 130 126.4 123.3 124.3 130.9 134.9 135.7 139.7 143.3 145.8 148.7 152.7 154.5 150.4 153.4 159.6 161.8 157.5 151.5 146 139.3 142 142.2 140.9 139.6 137.6 134.2 136.2 142.5 143.4 145.2 146.4 148.4 156.5 163.9 171.2 187.9 205.8 221.3 226.8 233.3 243.4 257.4 271.1 269.7 260.2 247.5 231.7 226.1 209.4 191.3 172.2 159.5 145.5 140.8 140.2 142.6 157.3 170.9 201.9 224.3 238.3 255.8 275.2 289.9 297.6 305 312.2 321.5 320.6 300.5 279.7 273.1 261.1 256.9 254.1 248.5 239.5 229.1 217.2 206 200.3 193.4 187.5 186.4 182.2 178.6 174.5 169.9 164.1 159.6 154.2 145.9 135.5 124.3 141.9 137.3 133.5 134.1 140.2 144.5 148.4 150.6 151.8 153.5 149 143.3 132.2 125.1 117 113.6 109.9 106.6 102.4 101.7 106.7 94.1 90.6 87.7 84.4 77.6 72.2 64.5 61.1 63.3 60 56.4
14.4 20.5 23.9 26.2 29.8 40.1 43.3 44.2 50.3 55.2 60.4 67.6 75.1 81.5 87.5 94.3 99.5 103.2 105.7 104.2 108.5 118.4 123.1 126.6 131.1 132.8 137.7 139.4 134.1 138 137.1 138.1 137.4 136 134.7 134.4 136.4 143.4 148 145.7 147.8 155.5 156.7 147.5 132.4 130.2 128.9 126.3 128.7 127.1 125.4 124.9 131.9 135.6 128.2 125.4 124 125.5 123.8 122 122.2 122.6 128.5 127.2 125.2 126.6 126.7 121.8 118.1 118.2 118.4 119.1 121.2 128.2 127.8 124.3 122.5 127.9 134.5 135.1 140.7 144.9 145.8 147.5 150.1 151.7 150.8 152.1 164.3 171 167.6 154.7 145.6 143.4 145.3 143.7 142.2 140.6 142.2 140 137.9 138.9 141.3 146.5 149.8 152.8 153.6 156.9 167.2 178.1 192.6 207.5 223.3 238.1 252.3 256.5 266.8 271 262.8 252.9 233.5 227.3 213 196.9 180.6 162.2 144.1 139.6 140.8 146.8 151.8 162.9 182.6 210 228.7 239.8 255.4 272.9 279.8 292.9 296.8 319.3 320.1 305.3 284.9 278.7 266.9 263.3 262 262.8 250 239.1 231.2 220.7 206 194.2 192.1 190.2 186.2 181.1 177.3 171.4 166.8 160.7 155.2 150.8 141.4 132.1 120.2 125.5 127.7 127.8 128.1 130.8 132.7 137.9 140.6 144.2 145.9 141.6 135.9 126 118.2 111.3 108 106.1 103.5 103.9 111.8 100.7 92.2 89.7 88.2 81.8 76.3 67.4 62.7 63.1 57.5 50.9
14 23 25.2 27.2 30 35.8 39.2 45.8 55 59.6 63.8 71.4 77.1 80.4 85.6 91.8 100.3 104.4 111.6 113.4 115.1 114.2 119.5 124.2 126.4 130.3 135.6 135.5 131.8 135 135.6 134.4 134.7 133.6 132.5 135.4 142.5 144.2 148.4 143.8 145.5 150.8 151 142 130.5 131 124.7 124.6 126.2 122.2 122 125 131.1 134.5 124.8 125.1 123.7 122.6 121.2 119.4 119.5 121.6 125.5 126.6 126.1 121.7 122 119.3 118.1 118.2 118.6 121.2 124.4 126.9 127.1 128 123.4 125.8 132.1 135.8 141.9 147.3 147.9 146.9 147.5 148.6 149.9 152 160.3 166 172.2 166.1 153.6 147.2 147.7 146.6 147.9 145.7 142.7 140.4 140.9 139.9 141.8 148.4 151.6 157.5 158.2 160 168.3 177.2 185.3 201.1 219.8 241.4 254.7 259.8 266.5 266.8 265.1 251.8 232.9 225.9 214.3 199 180.5 165.5 152.6 138.8 138.3 147.9 151.4 158.7 170.2 189.4 209.4 222.7 241.4 253.1 269 289.3 297.1 312.9 319.1 303.5 288.8 290.1 281.4 276.6 271.5 268.9 259 250.1 242.7 235 224.1 205.1 197.4 193.9 189.7 184.2 178.9 174.6 170.2 165 157.7 151.7 146.7 138.7 130 114.5 113.1 121 120.8 119.5 122.8 125.8 127.9 132 138.3 138.3 135.4 126.8 118.2 110.8 104.7 103.7 102.9 103 107.5 97.5 93.2 93.1 90 85.6 80.2 72.6 61.7 56.3 50.9 45.7
12.3 23.6 26.1 30.6 36.6 34.6 38.9 43.2 52.5 60.7 65.1 72.1 77.8 81.2 87 89.6 98.1 105.1 110.1 112.8 116.4 116.9 119.1 122.8 126.2 126.2 131.4 130.2 131.2 130.9 129.6 129.6 131 131.6 132.3 141 142 144.3 146 142.2 142.2 147.8 144.9 137.2 130.2 128 123.5 121 122.6 118.5 119.3 123.7 132.9 129.3 123.4 124.5 120.6 118.5 117.6 117.2 120 123.3 122.9 122.8 122.4 118.2 118.6 119.3 118 118.3 119.4 123 126.5 132 126.9 124.9 124.9 126.9 132.2 136.4 141.9 146.2 149.3 147.3 144.5 144.6 147.6 149.8 155.9 164.1 168.4 169.5 161.6 152.2 151.9 151.3 152.4 150 145.3 143.1 142.3 146.1 145.7 150.2 153.1 160.9 163.9 166.5 168.7 174.9 180.9 196.4 215.4 237.2 258.5 264.5 270.1 268.9 258.6 248.3 231.9 222.7 214.3 198.7 178.1 164.6 152.6 142.9 137.1 143.5 148.7 154.3 164 179.3 191.8 207.8 229 241.3 256.9 280 299.6 309.2 313.2 304 297.1 297 289.9 283.7 275.5 272.5 268.1 258.9 254.1 245 232.6 218.9 210.1 199.9 192.6 185.9 180.6 175.4 172.2 166.9 160.5 154.2 149 143.2 136.1 130.3 121.8 107.2 113.7 113.7 110.7 113 117.7 117.2 123.9 127.2 128 122.2 115.4 109.3 103.8 99.7 99.3 99.5 99.8 96.5 94.9 95.8 96.2 91.7 84.4 74.7 62.8 49.3 47.2 43.1
21 23.5 28 35.3 36.5 37.1 39.2 42 51.4 59.2 65.2 71.6 79 81.6 88.5 91.2 96.5 104.7 109.7 116 118.9 119.7 120.9 121.1 122.6 125.5 132.8 129.3 129.5 130.3 129.4 129.9 129.4 130.3 133.4 139 139.2 143.3 143.7 139.7 138.5 142.5 139.4 134 128.2 128 121.3 119.6 121.6 118.5 121.6 124.2 133.6 122.7 123.9 124 118.2 119.4 116.7 115.9 121 122.8 120.3 118.9 118.7 116.8 115.7 118.2 118.7 119.4 118.5 122.7 126.3 129.5 128.4 126.1 125.1 126.6 128.8 134.8 141 146.3 148.5 146.6 142.7 143.4 145.3 149.1 153.9 160 165.2 167.9 168.3 160 148.7 152.5 153.8 151.7 151.2 147.6 144.8 149.9 151.5 152.2 156.4 162.1 168.5 171.6 173.9 175.3 179.6 187.9 211.4 233.5 247 260.3 267.4 263.9 255.8 243.2 228.4 219.8 212.1 196.2 179.7 164.9 150.8 145.1 135.7 143 144.9 151.7 153.3 167.6 182.8 199 217.4 232.9 245.7 262.8 283.8 293.9 304.7 310.2 299.9 301.6 296.9 288.5 281.8 279.7 277 265.3 257.5 251.7 240.1 227.5 211.6 204.9 196.3 188.7 183.6 176.8 174.9 167.4 164.7 157.8 151 146.9 138.9 135.8 128.9 119.7 107.9 101.6 106.3 106.2 108.3 108.8 112.2 118.4 120.1 118.3 113 107.2 99.5 94.9 93.6 95.2 97.4 98.8 98.5 100.1 104.1 99.9 89.6 77.9 63.6 46.2 41 38.2
22.7 26.1 31.3 32.7 41 43.1 47.3 51.9 54.7 60.3 65.8 71 78.8 80.5 86.2 92.9 97.1 103.9 108.7 116.1 120.5 119.4 122.9 124.5 127.3 130.3 130.5 130.3 128.4 128.4 128.9 129.2 129.2 129.6 134.5 137.8 135.9 141.4 141.9 137.2 134.8 137.7 135.5 130.4 125.9 126.7 119.5 119.8 121.9 117.6 120.9 124.7 131.7 121.9 125.4 122.5 118.5 117.8 114.7 115.5 119.5 121.8 117.2 117.1 117.3 116.1 116 117.2 119.3 121.4 120.7 122.1 124.9 127.8 127.5 124.5 126.4 128.5 129.2 131.7 138.2 143.7 145.1 143.6 141.5 142.5 144.3 146.8 152.2 158.2 160.6 163.9 165.3 159.4 153.4 151.2 152.3 151.7 150.7 149.2 147.9 153.9 154.5 155.7 158.3 167.1 172.4 175.9 182.3 184.1 183.3 186.9 196.6 224.6 240.9 248.9 253.8 254.9 251.4 239.5 226.1 215.8 209.7 193.1 174.8 156.7 146.7 142.1 136 138.5 143.1 150.7 151.2 160.5 172.6 184.4 204 221.9 241 250.6 268.1 279.3 286 294 302.4 306.3 297.7 292 288.7 285.2 275.6 267.8 256.3 248.1 239.6 230.1 219.2 206.7 198.4 189.7 183.7 180.1 176.1 171.5 168 162.2 152.4 145.6 142.9 138.8 133.7 127.4 119.6 110.2 103.5 100.6 102.2 102.9 105.6 110.7 113.5 112.1 108.7 104.3 98.1 91.8 89.8 92.6 96.7 101.5 102 101.5 107.7 105.8 95.4 81.7 64.7 48 34.3 39.3
23.6 32.4 32.7 38.3 45.7 49.3 51.3 58 61.5 58.9 69.4 73.8 78.4 83.1 86.9 91.4 95.7 102.4 109.2 115.9 118.7 121.9 123.7 123.8 125.5 129.4 128.6 128.3 127.8 127.6 128.2 128.3 129 128.3 135.3 133.8 134.8 140.9 141.7 136.7 131.6 131.1 134.9 126.2 124.2 125.1 119.6 120.9 116.6 120.1 119.7 125.9 126.3 121.9 125.6 120.7 118.1 115 114.7 117.6 118.5 118.8 112.4 114.5 119.1 117.8 114.4 115.1 118.3 121.5 123 122.3 124.7 128.3 125.1 126.2 125.3 129.9 132.3 132.4 134.5 139.3 140.1 139.3 141.8 141.9 143.7 146.5 151 153.8 158 159.1 161 158.6 153.2 154.2 157.5 152.8 151.2 149.7 149.9 153.7 157.8 159.3 162.2 171 179.3 177.6 187.1 193.5 192.4 190.3 193.6 207.1 227.3 246.4 249.2 242.8 235.8 235 223.7 210.3 205.3 187.9 171.7 154.7 144.3 134.6 133 135.6 143.5 148.8 148.8 157.1 167.9 173.9 182.7 204.2 227.6 245.8 253.4 261.6 273.1 283.8 301 305.3 298 288.9 282.2 276.8 272.7 268.4 257.7 249.5 241 233.1 222.4 213.6 199.8 192.5 186.6 181.6 176.6 173.3 171.5 166.1 161.2 152.1 148 142.9 137.4 133.4 124.4 117.6 110.3 103 93.7 96.1 102.3 105.8 108.2 107 104.6 101.4 96.5 88.8 86.6 87.7 90.7 93.9 95.7 95.6 103.3 104.3 98.6 86.7 68.9 52.6 35.7 31.8
30 31.6 38.5 42.5 42 47.3 58.8 63.3 65.9 61.6 74 77 80.6 84.3 87.5 89.9 96.8 109.9 114.7 114 120.4 124.1 126 123.5 128.6 129.3 129 126.8 126.3 127 128.2 127.8 128.3 128.1 134.5 129.9 135.8 139.9 139.8 136.3 131.5 131.5 129.9 124.5 121.6 123.1 119.9 119.7 116.6 117.8 120.7 123.6 120.7 121.9 122.6 119.7 117 117.1 114.5 114.1 115.1 115.7 112.6 110.2 116.3 116.6 113 113.8 115.1 121.6 123.2 125.3 126.1 128.7 125.4 126.9 126.7 129.7 133 134 137.1 134.8 136.5 140.6 142.5 142 142.9 145.9 149.4 151.3 155 157.5 158.2 154.9 155.5 156.9 155.8 156.4 152.8 150.1 149.2 153.4 157.8 160.8 167.1 168.9 177.5 185.4 187.8 192.1 197 200 202.7 199.3 207.7 228.2 246.7 248.4 234.3 223.3 217.4 201.5 192.7 184.6 166.8 153.2 141.8 134 130.2 134.1 141.6 144.6 149.6 159.6 165.9 171.9 173.2 181.1 202.5 229.9 241.4 253.8 267.1 279.4 290.8 303 295.2 282.8 282 278.2 276.9 270 261.6 252.7 240.9 234.4 227.1 219.4 205.8 194.7 188 184 179 174.4 174.4 169.7 165.1 157.6 151.8 145.1 138.6 134.6 125.6 120.4 116.3 110.3 100.9 93.9 94.3 100 103 102.4 100.4 96.2 92.4 87.1 83.9 83.3 83.5 85.5 86.3 87.6 91.7 97.2 95.9 85.2 69.9 52 36.8 24.1
26.7 35.9 39.3 42.6 46.9 58.5 62.4 67.9 72.4 69.4 71.5 73.8 81.1 86.1 87.9 94.1 98.2 110.2 119.7 120.8 126.4 132.4 126.9 124.6 128.4 130.1 126.3 126.3 126.3 126.4 126.7 127.2 127.6 128.5 133.6 129.9 135 139 137.6 134.6 130.6 130.8 126.6 120.7 123.4 123.9 122.5 116.6 116.1 117 119.2 121.8 119.7 121.5 119 115.7 113.9 115.8 113.6 111.6 112.5 112.4 111.3 110.6 114.7 116.2 112.2 113.1 114.2 118.2 121.6 126.7 126.6 126.6 127.3 126.4 128.5 130.3 133.6 136 137.9 139.7 136.3 142.2 142.6 141.8 143.1 146 148.5 150.9 153.3 155.6 157.2 153.4 157.5 158.6 159.7 158 159.6 154.7 152.3 153.5 157.6 160.2 167.6 174.5 173 180.4 190.9 197.6 200.2 203.5 210.1 210.4 204.8 211.9 229.9 235.4 233 216.4 205.6 196.9 186.1 173.1 164.4 146 134.8 132.1 130.2 133 137.9 143.2 153.3 157.8 164.8 170.5 176 175.5 189.3 213.8 233.5 246.4 256.9 266.2 281.2 289.7 294.2 281.7 285.8 285.7 282.9 282.1 272.5 263 254.9 242.5 235.4 217.5 207.9 197.7 189.9 184.8 179.8 177.6 172.8 172.5 169.1 163.8 153.5 147.8 139.8 136 130.3 128.6 120.9 115.1 111 105 96.8 88.2 94.2 95.8 96.3 91.8 86.4 82.1 79.7 78.6 78.9 78.2 76.9 79.6 78.2 85.9 88.8 79.3 66 50.8 37.3 22
31.9 39.2 42.7 47.2 53.7 60.7 66.5 70.5 75.4 78.2 77.1 80.3 83.9 85.2 91.1 91.9 99.6 107.9 115.1 121.3 124.7 133 129.5 128.2 130.6 128.5 126.3 126.3 126.3 126.3 126.4 126.5 127 130 129 129.8 133.8 137.1 135 132.4 130 127.1 126.6 120.7 124.2 128.9 118.4 116.6 116.2 117.6 118.4 118 121 118.7 114.4 114.9 116.8 115.4 110.2 111 110.6 110.4 108.8 112.2 114.8 114 111.9 112.1 114.1 115.5 119.4 125.3 126.6 125.5 126.5 125.7 129.2 130.1 134.4 140.1 140.2 142 139.7 141.8 142.8 142.3 143.2 146.2 150.1 150.8 152 154.1 154.6 156.3 159.3 165 166.6 166.5 161.5 158.3 156.6 154.5 157.6 160.2 165 169.7 174.1 172.9 185.9 198.6 199 204.2 213 221.4 221.5 209.4 213.7 217.9 218 206.6 196.6 190.1 182.4 169 159.1 140.5 132.2 127.9 124.3 131.4 137.2 142.6 155.9 158.4 163.9 167 173.4 178.9 180.8 192.3 212.3 233.6 242.9 252.7 273.6 274.2 281.4 275.8 283.5 290.2 286.2 275.4 270.6 268.7 257.2 251.6 240.2 224.5 208.5 201.8 193.8 186.6 181 176.6 174.4 171.8 172 168.5 162.4 152.2 145.5 138.6 130.5 130.3 126.2 118.6 116.7 111.3 101.4 93 86 86.9 88.8 87.4 84.1 80.4 77.9 74.8 73.4 71.6 71.5 72.7 73.4 76.3 80.6 74.2 64.1 51.5 34.3 23.4
36.7 40.8 46.4 51.3 58.8 65.3 70.8 73.1 78.4 80 80.7 82 80.6 84.6 87.6 94.9 100.2 107.5 116.7 119.7 124.6 132.2 132.3 133.5 130.9 126.3 126.3 126.3 126.6 126.3 126.3 125.6 125.4 129.6 124.8 128.9 132.3 134.9 132.3 130.3 127.4 127.5 127.1 120.7 120.7 128.3 116.6 116.6 116.4 113.5 116.2 117 118.7 117.5 113.5 115.8 115.9 112.1 108 108.7 108.4 108.7 108.5 111 115.3 113.7 111.7 111.4 112.5 115.6 118 123.9 127.6 125.4 125.7 126 128.8 135 141 140.9 147 143 142.3 139.2 143.8 142.5 143 146.4 150.1 151.7 152.1 152.9 155.8 158.6 164.1 171.7 173.5 175.4 169.9 163.1 158.8 156.5 157.5 159.3 160.5 165.9 171.3 173.3 169.3 184.7 197.1 205.3 212.6 218.9 223.6 217.7 199.1 200.3 200.5 190.7 184.1 181.6 179.4 165.5 148.2 135.6 125.9 123.6 126.4 128.9 134.6 141.5 149.5 157.7 160.5 167.8 170.6 177.5 179.7 182.2 188.8 209.9 226.5 230.8 252.3 265.1 264.9 263.8 275.8 285.3 281.8 276.1 266 261.5 254 248.6 240.4 228.5 215.8 202.2 194.2 187.8 182.1 178.7 177.4 173.3 171.8 170.9 166.6 159 147.7 143.2 137.2 129.1 127 127.2 119.7 115 108.9 99.9 91.4 83.9 82.5 83.8 82.3 78.9 75.3 71.9 69 67.3 65.8 66.1 68.6 69 70.7 68.3 60.4 49 32.3 23.5
35.4 43.9 50.5 58.3 66.5 69.6 73.4 76.9 83.5 83.8 81.7 83.1 82.5 82.6 84.7 94.7 100.1 108.8 111.5 118.9 124.8 132.1 133 136.8 137.6 127.4 126.3 126.3 128.5 127.1 126.3 126.5 122.2 123.6 126 127.2 129.8 132 129.6 127.4 125.4 127.4 125.6 120.7 122.4 123.2 116.6 116.7 117.2 116 114.2 115.1 116 115.9 111.7 115.5 111.8 108.9 106.7 107.2 106 106.8 106.8 110 115.6 112.1 111.7 110.7 111.6 116.2 117.5 120.8 125.6 125.8 126.3 126.2 132.1 138.2 144.5 141.8 146 146.1 142.5 142.7 142.3 142.2 142.5 144.7 148.7 152 153 154 156.7 160.2 164.7 175.5 182 185.7 180.9 175.5 168.2 161.7 157.9 158.5 158.4 160.9 165.2 167.9 164.6 170.2 182 198.9 211.8 221.3 223 209.6 203.6 188.1 182.7 177.8 173.2 168 162.7 153.3 143.8 130.2 122.2 119.5 124.1 129.7 133.2 139.6 151.9 158 159.8 166.3 169.1 177 186.1 186.1 185.6 194 202.1 217 232.1 245.1 251.7 255.2 268.2 276.8 277.3 269.5 261.2 255.3 247.8 244.3 232.8 221.6 211.2 200.9 195.7 190.5 185.8 181.8 178.5 175 172.8 169.9 167.8 159.7 147.9 142.2 139.1 135.9 133.1 129.8 121.8 121.2 114.1 104.2 96 90 83.1 76.8 78.4 76 72.3 68.5 66.3 63.9 61.5 61.2 64.1 64.9 64.6 63.1 55 46.2 37.7 30.2
43.5 49.2 53.4 58.2 64.7 72.3 76.5 84.4 87.4 86.3 84.6 86.2 85.7 85.7 93.7 96.3 96.7 103.7 111.9 115.6 124.9 131.4 134.1 135.9 136.6 131 126.3 126.9 128.6 128.9 127.5 125.3 124.7 119.1 125.7 124.8 126.7 127.7 125.4 124.3 123.7 126 125.2 122.5 127.7 117.9 120.4 118.2 116.4 116.2 108 110.8 112.3 113.1 112 111.4 109.8 110.5 105.6 105.1 106.1 106.2 105.7 110 114.3 111.5 111.8 110.6 111.2 112.4 115.4 118.8 122.4 125.4 126.8 126.4 136.8 140.8 143.3 144.3 147.4 147.7 143.6 143.7 142.3 142.1 144.4 145.6 150.4 155.2 153.7 154.1 157.3 162.6 169.3 176.5 186.7 188 191.7 188.8 176.5 173 167.2 163.2 162.3 160 159.6 162.3 162.1 161.6 172.9 190 203.6 219.1 231.5 227.2 220.1 199.2 175.7 167.2 162.4 158.2 156.1 148.3 134.5 127.7 118.8 117 119.9 126.1 132.7 134.7 147.7 153.3 159.1 164.8 167.6 173.3 182.7 187.5 189.9 191.1 193.3 198 213.4 225.1 241 247.6 258 266.8 267.1 267.4 259.6 252.2 247.4 238.6 226.2 215.7 208.1 204.2 203.1 195.8 188.8 184.9 180.7 176.2 172.8 170.8 167.2 157.3 146.8 143.5 140 143.9 140.9 134.5 128.1 122.8 117.3 110.4 101.9 94.5 87.5 80.7 73.1 71.4 68.1 65.5 64.9 63 61.2 59.7 59.5 59.6 60.5 57.8 53.7 48 40.1 32.1
45.4 50.9 52.9 60.9 68.9 73.4 81.7 84.6 87.7 88 87.5 87.4 89.1 90.1 98.2 97.9 101.2 107.3 111.1 116.4 124.3 127.6 130.4 133.2 132.9 134.2 134 128.2 128.8 128.9 128 126.5 121.7 121.8 124.7 122.5 121.6 122.8 121.2 124.7 123.5 123.3 121.8 123.2 123.7 117.1 118.5 115.7 117.5 105.5 107 111 108.5 110.5 111.5 109.2 107.7 107.3 105.4 104.9 105 105.7 106.7 111.1 112.8 111 110.4 110.8 113.4 112.8 117 121.2 122.7 125.3 131 126.5 139.3 141.6 142.9 144.9 148.6 148 145.1 144.3 142.8 143.5 144.2 147.7 149.3 152.8 154 154.6 158.3 163.9 172.7 179.7 188.2 191.1 191.8 192.5 183.2 178.2 177.5 172.9 169.3 166.4 162.3 157.6 158.3 160.1 169.6 179.1 192.7 210.4 221.3 231.9 222.7 211.2 190.7 166 151.7 149.8 145.1 140.9 133.4 125.3 119.1 112.7 118.9 121.7 129.8 132 140.5 151 155.3 161.3 165.6 171.3 177.8 184.9 189.6 193.2 193.2 195.2 196.4 206.4 220.5 235.9 250.9 255.1 258.5 259.3 257.2 253.7 246.2 239.1 228.2 216.5 208.5 202.5 202 193.7 188.5 187.9 181.1 176.9 174.5 170.6 166 158.3 152.5 150.5 147.4 146.9 144.1 139.4 134.9 125.9 122.7 116 105.9 99 90 85.1 78.4 68.1 66.4 64.9 64.1 62.6 60.9 59.6 58.4 57.4 56.7 55.4 53.8 48.4 40.9 31.2
50.3 52.4 58.6 66.7 73.6 78.6 83 89.4 89.7 89.5 89.6 91.5 91.4 95.3 98.9 99.1 102.7 111.1 117.4 123.3 129.3 127.8 130.6 132.3 131.8 133.6 131.3 128.4 129.7 127.8 125.7 123.1 117.9 121.9 123.2 121.3 120.2 120.2 121 123 122.9 122.1 118.6 120.5 122.4 118.4 118.6 115.8 115.4 105.9 104.6 104.6 103.6 107.6 108.1 107.8 103.9 105.7 103.3 103.6 104.8 103.5 107.4 108.7 112.2 110.5 110 111.5 113.8 115.7 115.8 120.1 125.5 129 134.3 129.8 140.3 140.6 142.2 145.3 146.7 148.5 144.8 144.4 142.7 143.7 146.1 147.5 150.1 151.1 151.4 154.9 158.2 163.9 170.4 182.3 187.9 192.8 192.1 192.3 187 184.2 182.2 180 177.9 173.4 168.5 161.6 156.1 155.6 159.7 169.9 183.1 198.3 208.8 216.8 214.4 199.1 189 168.6 156.3 145 138.2 136.1 136.3 124.7 117.4 114.1 114 117.2 124.1 129.5 136.7 148.6 157.5 162.9 168.1 169.8 171.4 182.1 190.2 194.9 194.9 194.9 193.7 194.2 206 218.3 235.7 247.2 246 238.9 242.3 240.1 241.4 237.1 228.4 214.2 208.6 203.2 195.1 191.8 183.4 183.2 179.7 175.2 171.6 170.4 169.3 167.3 163 158.4 152.6 152.6 145.9 141.3 138.6 133.6 126.6 119.6 114.3 103.5 94.1 87.4 84 74.7 67.1 66.2 64.7 63.4 61.9 60.1 59 58.1 56.8 53.8 52.3 46.5 39.1 38.4
49.9 52.8 64 68.2 75.2 82.2 86.2 91.8 91.8 92.4 94.4 93.3 91.4 99.4 100.2 102 105.7 111.6 117.2 121.7 129.1 134.4 128.7 129.7 130.1 131 132.3 130.7 129.5 128.2 124.5 118.5 117.2 121.1 122.4 122 119.7 119.9 122.9 122.3 123.7 119.2 116.2 120 115.8 119.8 119 114.5 106 110.4 105 104.3 107.3 104.6 103.2 105.3 102.2 103.7 101.9 101.9 102.7 105.8 109.2 110.7 112.5 110.8 109.9 110.6 112.3 116 115.8 121.3 127.8 133.7 134.5 131.7 141.3 143.1 143.6 144.2 144.6 147.6 144.6 142.7 142.3 145 149.7 150.3 150.4 151.8 150.8 153.4 157.4 164.7 175.4 181.9 187.3 190.3 191.1 192.3 192.3 188 186.8 186.1 183.5 181 174.5 166.8 161 155.8 155.2 161.5 175.8 189.3 197.5 201.1 195.5 188 177 162.6 156.5 144.6 138.1 126.7 126.1 120.7 115.7 110.4 110.7 111.7 118.5 125.7 132.6 148.6 157 164.4 172.8 172.3 173.5 174.8 183.7 195.4 197.5 198.5 198.3 193.9 191.6 202.2 209.9 229.9 238.8 231.7 223.8 221.6 226.9 225.3 220.2 214.2 214.4 205.3 196.1 187.5 179.9 175.8 176.1 171.7 167.4 167.5 171.7 170.9 169.5 165.7 160 154.7 151.4 145.5 140.5 135.7 128 124.4 117.9 109.7 98 90.1 86.4 81.6 70.4 65.9 64.5 63.7 64.9 65.5 61 60.2 57.4 54.8 52 48.6 45.4 42.9
54.7 60.6 66.2 70.7 77.5 84.1 89 90.4 91.7 93.8 93.7 96.9 97.6 101.3 101.2 104 106.8 116.6 117.9 121.2 129.1 131.6 129.6 132.4 129.9 131.1 130.1 132.1 128.5 126.2 123 115.4 119.1 123 121.4 120.3 121.1 119.3 120.6 120.2 121 116.6 114 117.8 116.6 118 116.8 111 106.5 109.1 104.2 107.6 104.8 103.4 104.3 104.1 103.6 102.9 103.5 104.2 102.7 103.2 108.1 111.1 112 110.4 109.8 109.5 111.3 114.7 117.5 124.1 130.7 133.6 137 133.5 140.1 140.8 142.1 142.5 144.2 145.7 146.2 142.6 142.9 147.9 149.8 154.9 154.1 150.9 149.9 149.5 157.1 166.8 174.6 182.5 186.5 190.3 191.5 195.3 194.8 194.9 193.5 193.6 192.8 189.3 184.3 172.7 165.8 158.7 154.5 159.1 165.4 178.4 186.3 189.7 191.1 178.6 168.9 160.3 150.8 143 136.3 128.2 122.4 115.9 112.7 109.9 107.3 107.3 114.3 124.1 128.6 140.6 153.1 161.5 172.1 175.6 173.7 173.6 177.8 184 192.3 192.9 196.4 195.7 187.9 188.3 194.9 206.8 217 216.6 214.8 210.3 210.9 213.4 209.9 207.4 203.7 198.6 195 185.6 175.8 171.7 168.3 166.1 164.9 167.1 170.5 172.2 171 168.7 163.4 156.4 151.3 150.9 143.3 138.1 131.2 125.9 119.5 113.7 102.6 95.5 90.3 85.8 79.5 71.5 64.2 62.3 62.9 70.1 66.9 64 59.7 54.6 52.1 50.7 48.1 46.3
55.4 62.7 68.7 72.2 79.1 85.5 89.1 88.8 92 92 91.6 97.4 96.5 102.5 104.6 110 115.9 116.8 121.2 119.7 127.9 127.8 127.5 132.1 134.6 131.9 130.4 128.3 127.3 123.8 120.8 114.4 120.3 123.3 121.6 121.3 122.7 124.2 119.9 122.7 122.6 118.1 114.7 111.5 116.4 116.5 114.8 106.4 112.1 107.6 103 105 102.9 102.6 103.1 103.3 101.3 103.7 106.5 106.6 106.1 104.7 106.2 109.6 113.1 110 109.5 109.2 112.1 114.4 118.5 127.2 131 136.3 142.7 130.6 134.4 136.4 139.5 142.9 142.1 143.3 144.8 141.8 145.1 148.5 149.8 151.7 155.2 150.7 147.3 147 156.3 166.3 178 185.1 192 192.4 195.6 199 198.6 198.7 197.3 198.4 199.1 195.2 190.8 189.2 168.8 162.2 152.9 157.2 162.1 169.7 176.6 180.7 178.8 172.3 162.8 151.6 145.3 142.4 132.2 129.7 127.5 119.6 113.7 108.6 106.7 105.3 106 114.2 120.7 126.1 147.8 159.7 168.2 177.4 178.3 177.9 177.1 178.1 181.7 185.5 191.1 194.7 186.4 188.6 189.1 191.9 198.4 206.9 207.6 206.3 203.3 203.9 198.5 192.8 190.8 186.9 182.4 175.2 167.2 164.3 162.2 162 160.8 162 165.7 170 172.1 170.6 165.5 160 154.1 149.1 142.7 137.6 132 126.1 119.4 113.5 108.9 100.5 95.2 89.9 83.9 80.9 71.8 64.4 59.7 62.3 66.1 69 63.1 57.4 53 52.9 51.3 50.8
58.2 65.2 68.9 77.1 81.6 85.1 86.9 89.9 90.8 90.6 94.4 94.6 98.6 102.6 106.5 111.7 111.3 117.6 121.2 121.3 125.8 126.7 126.3 129.4 132.9 129.7 129.4 127.5 125.2 121.1 121.5 114.3 122.1 122.7 120.4 120.8 121.6 123.7 120.4 118 120.5 119 117 112 113.5 114 107.5 108.1 109.8 104.1 100.6 102.9 101.1 101.2 102.2 101 100 101.7 107.2 107.9 108.3 109.1 109 111.8 112 109.1 108.9 110.2 113.4 116.3 120.1 128 135 139.4 142.6 128.5 132.8 133.7 141.9 140.7 140 141.3 141.3 140.9 145 148.3 152.2 153.3 153.5 151.5 147.3 146.6 154.3 169.1 179.8 185.8 190.5 195.2 203.7 207.9 211.8 210.2 211.3 208.6 203 200.8 198.5 194.6 184.3 165.8 153 152.2 156.8 162 165.7 167.6 168.6 158.3 152.9 148.4 141.7 135.3 130.4 127.6 131.5 128.4 118.6 110.9 106 103.6 103.7 108.5 112.1 117.8 137.9 151.9 163.3 169.4 178.9 182.8 178.4 176.5 178.8 179.5 185.5 193.5 189.9 180.6 186.4 183.5 192 204 206.8 201.6 196.3 192.6 190.4 183.7 181.6 174.5 169.5 163.7 156.4 156 155.6 157.3 157.7 159.7 163.5 167.5 170.8 170.8 166.8 162.5 157.6 150.1 144 136.2 132 128 118.7 113.7 110.8 103.3 100.2 98.4 88.1 83 80.4 73.3 64.7 56.1 57.4 65.6 62.1 58.8 58.9 57.2 51.8 52.5
62.9 69.5 71.6 79.6 83.4 84.5 87.9 90.5 89.2 92.6 92 94.7 98.5 103.1 113.5 109.2 116.8 116.3 117.8 119.7 123.9 125.6 128.2 128.4 128.4 128.7 126.5 125.5 120 118.2 114.7 114.1 120.1 120.4 120.7 121 122.8 123.6 120.9 120.7 118 116.5 116.1 109.8 112.8 112.4 107.1 109.9 105.5 103 102 100 99.9 100.4 101.2 99.7 102.5 102.8 107.4 108.4 109.2 109.4 106.4 109.9 110.9 109.5 108.5 111.9 115.8 119.3 123.2 127.8 135.2 139.2 144.1 127.8 130.5 137.3 141.9 140 140.5 140.7 140.5 141.7 141.7 147.9 153.3 154.3 155.5 150.7 146.9 146.2 150.9 165.6 183 190.6 199 200.7 205.9 213.3 217.5 220.9 225.1 226.3 213.4 207.4 203.8 197.6 189 176.7 158.8 146.4 146.3 153.3 154.6 155.5 153.9 149.2 146 143 139.3 134.6 127.5 123.1 128.4 131 124.6 113.9 106.8 102.4 102.5 103.6 105.6 109.4 118.2 141.8 157.2 163.5 169.2 178.4 181.6 178.7 176.3 179.5 184.2 186.3 186.3 177.9 178.2 188.5 186.8 194.4 208.8 203.7 194.6 183.2 176.7 171.8 169.6 167.8 162.9 162.9 159 154.7 154 152.3 152.3 155.8 160.1 164.9 168 170.4 167.2 164 160.6 154.8 147.1 139.3 131.5 126.7 118 113.9 111.4 110.4 105.1 100.3 96 87.7 83.2 79 71.4 65 52.9 53 57.1 56.9 60.6 64.6 60.3 53.2
65.5 68.7 74.7 79.5 83.4 85.9 88.2 89.2 89.4 88.6 91.7 96.6 99.9 110.9 110.7 112.1 118.1 115.8 116.5 118.8 121.1 124.7 125.6 124.9 124 125.9 126.3 123.4 122.8 121.3 113.6 114.7 118.1 117.9 118.8 121 123.7 124.2 121.6 120.5 117.7 108 109.7 109.4 109.7 107.1 107.6 107.8 102.6 103.1 99.4 97.3 99 100.2 99.9 99.3 102.6 101.9 107.9 107.8 109.1 108.4 109.2 108.3 110.8 108.6 110.3 112.6 116.9 120.7 124.3 130.2 135.2 138.2 136.4 127.1 131.8 139 140.1 139.8 139.1 141.2 138 138.8 141.4 147.8 152 156.5 155.3 150.4 146.6 146.6 150.5 161 172.2 187.6 199.6 206.6 213.2 218.8 224.2 224.6 232.4 242.2 233.6 216 208.6 201.1 190.6 182.5 167.7 157.4 143.1 143.7 144.8 145.3 144.7 142.9 140.4 137.7 133.9 129.7 126.5 120.6 119.9 124.5 123.4 114.2 105.9 101.8 101.6 102.6 103.1 104.6 109.6 117.8 135.2 154.6 165.4 172.3 174 174.7 176.5 174 179 182.9 176.6 176.5 177.2 187.1 191.3 190.3 192.7 198.7 191.5 182.3 167.5 159.1 160.3 157.7 157.1 158.6 158.6 156.1 152.6 150.7 150.5 151.8 157.9 162.6 166.5 169 168.1 165.2 161.8 157.2 149 141.4 134.1 126.3 120.4 116.8 114.6 113.6 112.1 106.9 97.4 93.6 86.6 84.5 80.3 71.6 63.6 50.1 49.4 52.6 57.7 68.3 67.1 58.1
66 70.9 76.2 79.9 81.4 86.5 87.3 89.1 89 89.3 91.6 94.7 103.4 105.7 109 119.6 114 110.1 118.2 116.1 121.6 125.5 121.3 121.5 123.4 121.9 124.2 122.7 122.8 120 113.5 119.3 118.4 117.7 117.5 119 122.8 121.8 121.6 119.7 117.8 105.4 109.8 107.3 105.9 107.1 106.7 103.8 104.2 101 100 97.6 97.8 99.5 99.7 98.2 101.9 103.6 106.7 108.5 108.4 109.6 109.2 108.6 109 108.2 110.8 113.3 118.1 120.4 127.1 134.3 135.5 139.7 124.9 129.6 133.3 137.7 138.8 138.7 141.3 140.3 138.5 137 141.7 147.9 150.1 151.5 152.5 150 145.6 146.2 147.5 160.9 173.6 182.1 192.3 199.5 210.1 215.6 226 225.3 232 247.1 244 229.5 221.1 210.6 195.5 184.6 174.6 162 151.3 142.8 140.4 139.3 137.1 135.1 132.9 131.2 128 122.9 119.5 115.9 112.5 116 120.6 113.9 105.9 101.6 99.2 100.9 102.1 100.9 102.1 108.1 123 134.2 142.8 159.1 174.2 174.2 172.5 168.5 169.7 176.1 173.1 170.7 171.6 179.9 190.3 187.6 179.5 182.2 186.5 178.3 162.2 150.7 146.3 148.1 151.4 153.7 155.2 151.9 149.3 150.2 147.7 151.7 157.1 160.6 164.5 167.2 167.6 166.3 162.7 156.9 150.5 143.6 136.8 125.4 121.7 117.4 117.8 114.4 112.3 112.1 104.3 100.1 91 87.6 85.4 77.2 70.6 60.5 48.9 47.3 53.5 64 68.2 59.2
66.7 70.5 73.8 78.9 82.1 85.6 86.6 88.3 86.5 88.5 91.3 96.6 101.4 106.3 112.5 110.9 107 115.6 112.2 115.3 121.8 118.4 120 121.8 120.3 123.7 121.2 121.3 121.4 116.3 115.1 119.4 119.4 119.9 118.4 119.6 120.6 122.7 120.2 117.4 107.7 103.7 106.8 104.5 104.8 104.4 103.7 103.8 102.6 100.6 97.4 98.9 96.6 98.6 98.8 98.5 100.2 101.2 106.5 108.5 108.9 110.3 110.3 108 107.5 108.9 111.6 115.4 118.8 122.5 130.2 132.4 136.4 130.6 127.5 135.1 131.2 136.9 137.2 137.9 144.2 138.6 138.8 136.8 139.1 146 148.1 150 150.7 149.9 146.3 145.1 150.9 161.1 166.6 176.4 186.6 187.6 199.2 210.7 220.8 227.6 231.3 241.6 248.4 242.4 236.6 223.4 211 201 182 172.9 159.9 152.6 146.9 141 138.6 136.3 133.8 130.9 127.2 125.8 122.6 114.8 110.3 108.1 110.1 112.1 106.9 103.2 100.3 97.2 99.6 99 97.9 101.2 109.8 122.3 130.9 140.8 154.3 166 170.8 168 165 162.6 163.6 162.3 162.2 167.4 178.8 182.6 180.5 166.6 166.8 167.4 156.1 145.6 137.2 135.3 144.2 145.2 145.8 145 143.1 143.6 145 147.1 152.8 156.5 159.5 163.4 167.4 167.4 161.9 158 152.3 145.2 139.7 133.4 124.2 120.4 121.2 121.4 115.1 110.8 107.6 103.5 94.9 91 87.7 80.1 73.7 64.8 54.6 44.3 45.6 48.5 63.3 55.4
65 71.5 71.7 75.4 78.9 81.6 85.4 84.2 85.3 89 92 97.5 100.6 107.8 109 109.3 107.5 112 113.9 120.5 118.5 118.2 119.4 119.9 121.6 120.2 119.8 121.1 121.3 113 116.8 119.3 118.9 120.6 119.5 118.3 121.5 121.6 120.4 115.3 102.4 102.3 103.9 103.5 104.9 104.3 103.4 102.9 101.6 98.9 97.8 97.8 96.8 99 97.7 97.6 98.6 102.4 106.5 108.9 107.2 110.2 109.7 109.5 108 108.9 112.4 116 119.5 124.6 129.5 128.2 130 123.1 135.2 138.1 131.5 134 138.6 137.4 136.7 137.1 138.3 137.3 140.3 144.1 146.8 148.5 148.8 150.3 150 145.1 147.6 160.2 165.6 172.9 181.4 182.9 187.9 197.8 210.2 225.9 231.4 233.4 242.7 247.9 256.5 242.8 222.5 214.7 199 179.4 169.9 157.5 153.7 144.6 144.2 141.6 139.6 136.2 133.3 131.3 128.4 121.3 115.8 110.5 107.8 106.8 105.4 101.6 99.2 96.5 95.7 95.6 94.9 95.4 99.3 107 119.1 131.7 145.5 157.1 164.9 161 156.3 156.7 152.9 153.2 154.6 155.6 159.3 167 171.6 164.1 155.1 152.3 148 141.9 132.6 127.8 124.8 132.9 134.5 135.3 133.6 132.5 134.6 140.8 144 151.3 153.4 156.6 158.7 161.3 161 158 153.4 148.1 141.5 137.8 129.6 126.8 124.5 127.4 127.9 113.6 111.6 108.3 100.3 94.8 89.9 83.9 76 67.5 58.7 47.4 45.8 40.8 49.2 45.4
65.1 68.7 72.1 78 81.1 82.2 82 81.8 83.3 87.1 89.8 92.8 98.1 106.7 103.2 101.1 105.2 110.1 114.4 118 116.8 118.7 118.4 118.8 119.9 118.3 118.9 120.2 117.7 117.9 117.9 118.9 117.4 119 119.6 120.6 121.4 120.2 119.1 104.9 101.4 101 101.3 106 107.3 104 104.5 101.7 101.6 97.7 97.8 95.9 96.8 96.8 96.8 97.5 98.7 102.4 105.1 105.9 106.8 107.3 110.2 109.9 108.2 109.1 111.9 114.5 120.4 124.7 128.5 125.9 122 130.6 140.5 139.8 134.4 133.1 137.7 138.6 135.8 135.5 135.8 140.8 143.2 143.9 147 149.7 148.1 150.7 147 146.4 145.7 155.2 164.3 169.4 173.8 184.3 188 193.7 202.9 220.3 228.6 233.5 236.6 250.9 258.6 258 242.8 220.1 206.9 189.9 174.9 165.5 160.8 155.6 152.6 146.8 145.2 141.2 138.5 135.2 131.2 126.7 121.1 115.3 110.5 106.9 101.6 100 97.9 96.6 94.8 93.6 90.7 89.4 93.2 98.1 108.4 117.8 128.3 143.3 157.3 160 151.1 147.6 147.7 146.8 143.6 149.7 151 150.6 154.9 157 153 147.4 139.7 136 127.7 122.5 118.8 118.9 120.8 123.6 123.3 122.7 124.7 129.7 136.1 143.4 144.3 147.6 151.2 157 159.2 156.7 152.5 148.8 144.4 139.8 135.3 128.9 128.2 129.4 137.4 123.6 105.4 109.3 102.3 94.8 89.8 84.8 77.1 70.8 61.4 51.7 38 38 40.3 45.2
68.2 72.8 75.9 78.9 79.7 80.3 82.1 81.9 85.1 87.2 89.7 94.1 100.8 102.5 103.5 105.5 108 107.5 110.2 114.6 113.8 114.8 117.7 116.9 116.4 116.7 116.5 117.9 112.3 117.7 117.2 118.8 116.2 118.2 118.9 119.9 121 119.6 119.1 104.4 102.4 100.3 101.2 108.5 107 104 103.1 102.3 99.8 97.4 96.7 96.3 97.7 97.5 96.5 97.2 97.2 97.2 104.9 104.7 104.7 106.7 107.3 109.6 109.6 111.6 113 116 120.3 123.7 126.3 119.1 123.5 131.6 139.4 141.5 136 132.1 136.8 138.4 136.9 136 137.8 142.1 143.3 144.2 146.2 147.2 148.9 148 146.6 146.2 147.2 149.4 156.6 164.2 171.9 179.6 190 199.5 210.8 216.7 222.8 233.2 237.7 247.4 256.7 258.7 249.9 227.8 208.9 196.2 184.5 170.1 167.3 167.1 161.3 152.7 150.3 147.2 142.7 139 134.5 129.3 123.4 118.4 113.6 109.5 103.8 103.7 101 98.5 95.5 94 95 92.5 83.9 91.6 98.1 104.1 112.2 123.1 133.9 145.1 146.9 145.4 136.8 138.7 134.5 136.7 137.1 140 143.5 145.2 147.3 146.8 139.9 132.9 127.2 120.5 116.8 115.2 114.2 113.6 112.6 112 115.9 120.5 125.8 132.2 137.7 140.6 144.9 149.7 154.8 153.2 152.5 148.7 146.8 142.4 139.9 134.9 130.6 125.7 135.6 128.2 109.8 100.4 105.2 98.6 90.6 85.3 79.2 70.9 63 54.4 44.8 37.3 35.4 40.2
72.9 73.8 76.8 79.2 79.7 79 82.6 84.4 85.8 88 93.2 97.2 97 102.1 102.1 104.1 105.4 104.4 110.9 114.3 117.2 118.1 118.6 117.9 117.5 118.4 116.3 115.4 114 115.4 115.7 115.2 116.7 116.6 116.7 118.2 119.5 118.7 110.8 107.8 106.6 99.9 102.6 106.1 105.2 103.3 102.5 102.2 97.6 96.5 95.2 98.1 99 98.6 96.3 97.5 98.1 100.3 103.1 104 104.1 104.7 105.6 106.6 111.8 111.9 114 115.9 119.5 121.3 119.1 117.9 131.2 133.1 139.2 138.9 137.9 131.1 133 136.1 135.2 137.9 141.5 140.6 143.7 144.7 145 146.9 148.2 146.4 146.8 146.4 147.1 149.8 152.8 160.1 168.6 178.5 193.7 200.7 214.9 230.4 230 235.9 239.7 246.9 255.8 259.8 248.3 230.4 214.9 200.5 189.4 177.9 175.1 177 173.4 165.6 155.9 151.1 147.9 143.1 137.5 132.4 127.3 122.4 117.6 113.7 107 105.4 105.7 104.9 97.5 95.2 95.9 98.2 97.6 83.5 87.7 92.3 98.9 109.2 119.3 122.7 125.2 132.3 132.5 130.4 127.3 128.5 129.7 131 132.7 134.4 139.7 145.4 142.7 132.3 124.8 119.7 116.2 112.5 108.3 107.5 105 105.3 108.4 113.4 119 124.8 131.3 135.8 139 141.5 145.6 147.1 149 148.4 147.7 146.2 143.4 138.8 124.9 123.6 123.5 125.3 109.2 96.5 100.8 95 91.1 86.8 78.3 73.2 65.8 56.4 50.4 45.4 35.5 31.4
74.3 78.2 80.9 78.7 78.4 79.8 81.8 84.5 88.2 88.7 94.7 97.6 96.3 100.8 100.4 101.8 103.9 102.5 109.9 114 115.3 117.4 118.2 118.8 117.9 117.7 115.5 114 113.9 115.3 115.5 117.9 116.7 117.1 113.6 113.8 113.7 115.6 104.2 105.1 100.9 99.7 102.3 104.6 103 102.3 100.3 100.2 96.6 94.8 95.9 99.2 99 96.4 96.2 96.3 99.3 102.9 101.3 102.4 102.3 103.7 105.6 106.6 109.9 112.5 114.5 117.9 119.9 118.7 114.7 124.6 131.5 133.3 137.5 137.7 134.2 130.1 132.2 133.2 135.6 137.4 139.5 139.8 142 143.8 145.1 147.7 149.9 147.6 145.6 145.5 146.1 148.3 154.6 159.7 168.8 178.3 195.9 205.3 216.1 232.2 246.3 242 240 241.9 255.9 257.4 249.5 235.2 224.7 204.6 199.1 185.6 183.3 183 179.9 174.7 167 159.5 152.9 145.9 140.5 135.7 131.8 127.1 122.3 117.5 111.5 109.6 109.6 111.1 103.2 98.9 97.6 101.2 101.2 97.1 85.6 83 89.7 96.8 104 105.3 107.3 115.3 120.3 122.1 118.6 121.2 121.7 120 127.5 128.9 134.4 139.9 141.6 137.7 126.2 118.5 115.1 111.7 104.1 99.3 97.9 97.1 99.4 104.3 110.9 116.6 125.9 130.8 133.1 136.4 138.8 141.9 144.9 147.6 148.1 146.5 144.7 141.6 131.1 117.1 116.6 116.5 105.5 91 87.9 86.8 84.2 81.6 78.1 74.6 71.2 60.3 52.6 48.9 40.9 29.6
78.6 82.7 80.3 77.6 79.6 81.1 84.6 86.4 88.2 91.9 94.8 97.5 96.7 101.1 99 100.8 98.7 101.8 108.2 112.7 114.1 116.7 116.3 116.9 117.6 114.9 115.4 112.4 114 115.3 116.7 119 118.6 117.7 115 115 115.4 106 104.2 103.9 100.6 101.7 100.9 102.9 99.7 99.8 100 97.6 96.1 94.1 97.5 97.5 98.5 96.7 96.4 96.6 99.5 100.8 99.7 100.6 101.4 103.1 104.5 107.1 110.1 111.8 111.1 116.9 118.7 113.5 118.8 129.3 132.9 135.6 135.2 135.2 130 130.7 131.7 132.9 134.6 136.2 139.2 138.9 139.4 142.7 143.4 145.6 146.1 146.2 146.7 145.9 145.7 146.4 153.4 157.7 166 177.9 194.3 209.9 213.2 224.1 246.9 254.9 250.2 243.2 244.6 253.7 248 242.4 224.6 214.5 206.6 190.9 192 191.2 192.7 184.5 178.7 166.6 158.5 150.2 144.9 139.4 135.7 131.2 126.3 120.6 115.8 112.5 112.7 113.8 108.8 106.5 102.3 102.8 102.8 100 94.2 83.9 84.6 88.2 90.9 96.3 97.9 98.6 102.4 105.7 105.4 108.9 111.7 112 116.6 120.6 125.4 132.9 135.7 136.1 129.2 117.1 110.5 110.9 104.7 91.6 90.7 90.6 92.6 91.4 101.8 110.8 116.8 123.8 126.3 129.8 133 135.7 139.1 145.5 147.4 146.2 144.3 141.2 133.7 120.2 106.3 106 101.8 85.7 75.2 78 75.9 73.9 73 70.1 72.6 62.6 53.2 47.9 41.8 33.5
82.5 83.8 78.4 76.3 80 82 84.4 85.2 89.5 91.9 93.3 93 97.2 97 96 98.8 95.9 103.3 108.8 112 113.7 116.5 116.9 118.5 117 113.6 112.3 113.2 113.6 114.5 116.1 118 118 115.6 114.8 114.5 110.7 104.4 108.5 102.6 102.5 104.2 103.5 98 96.8 98 98 96.5 95.9 93.6 96.9 97.5 97.8 95.8 97.2 98 97.7 99 98.8 100.1 99.7 102.9 104.8 108 110.1 111.4 113.2 116.2 112.9 115.2 123.9 129.2 132.6 133 133.5 132.6 128.6 130.4 131.1 132.6 135.4 136.2 137.4 137.9 140.8 145.1 141.3 143.5 143.3 145.3 148.1 146.7 145.5 145.3 150.5 159.9 163.9 175.1 188.2 204 214.2 221.1 232.1 251.2 255.4 265.9 253.4 250.8 248.2 239.2 231.9 224 214.8 202.1 205.7 199.3 207.2 202.2 191.4 180.5 172 164.6 154 144.2 139 135.6 127.3 122.7 117.7 117.3 117 117 114.4 112.6 109.6 105 105.1 104.6 99.1 91.4 79.9 85.6 87.1 87.2 89.9 91.1 93.6 94.9 98 100.2 103.8 107.9 112.7 115.2 115.4 121 129.7 130.8 129.9 118.7 106.4 101.4 98.5 84.5 83 83.5 86.7 86.8 89.3 98.8 105.7 112.6 116.7 120 124.1 127 129.4 134.2 138.5 139.5 139.4 136.7 131.3 121.2 103.9 94.9 91 79.9 67.9 68.4 68.4 67.2 66.2 65.2 65.2 61.7 53 46.6 40.9 32.5
82.7 81.1 75.7 79.5 79.3 81.2 83.1 85.2 89.1 91.7 92.8 94.1 94.6 95.2 94.7 96.4 98.1 103.1 103.2 110.3 114.4 117.6 118.6 115.4 113.6 108.8 110.3 113.4 113.2 114 115 116.7 116.8 114.8 113.9 113 109.4 110.9 105.5 100.2 103.6 104.7 102.6 99 96.5 96.4 96.6 95.1 95.5 93.1 95.7 97 96.7 95.5 97.2 99.5 96.8 96.7 97.6 99.9 100.5 102.4 104.3 108.9 110.3 111.1 115.1 114.1 111.3 118.1 124.6 130 133 132 132.2 130.5 131.9 129.9 131.8 132.4 133 136.7 137.6 138.4 141.8 146.2 143.6 140.6 142.7 147.4 151.3 148.9 145.9 145.6 148.6 156.6 166.4 170.1 186.2 198.2 211.1 220.1 224.9 237.7 249.6 263.1 269.5 254.5 250.9 248.1 237.8 230 221.2 209.7 210.9 210.4 217.8 216.6 202.7 193.3 183.2 176 164.2 154.5 145.2 140.2 135.5 130.6 124.9 121.6 122.3 121.7 120.6 118.8 116.3 109.9 106.3 102.8 102.6 97.6 84.9 79.7 82.2 82.4 83.7 87.5 89.2 90.2 91.7 92.1 95.7 100.4 102.2 108.1 112.8 111 114.3 118.7 117.4 114.4 104.2 93.3 86.4 79.4 74.1 76.5 78.8 81.4 84.5 88.8 96.5 102.6 106.9 110.1 115.2 118.1 121.2 125.9 128.5 131.9 131.8 128.1 123.6 116.3 102.1 86.9 79.5 71.5 61.9 58.4 60.5 60.7 59.5 58.5 57.2 56.7 49.9 44.3 39 33.1
80.1 78 75.6 76.7 78.5 81 82.9 85.8 89.7 89.5 90.6 91.9 94.4 91 90.7 93.2 96.4 100 101.2 109.2 113.3 117.7 117.4 113.3 112.3 107.4 113.2 111.6 113.1 113.1 114.7 115.6 114.1 113.4 112.3 111 109.6 108.2 101.2 102 103.1 103.1 100.1 97.5 94.8 95.7 93.6 91.8 91.8 91.5 95.1 96.3 95.8 95.4 96.8 97.6 97.5 97.3 96.7 97.1 100 102 104.7 109.7 110 112.7 115.1 111.5 111.7 121.3 126.9 128.9 131.4 131.7 130.2 131.2 131.1 130.5 132.2 132.3 133.4 135.2 136.3 139 142.3 147 144.2 139.4 143.5 147.8 152.8 151.4 146.9 145.6 147.4 155.7 165.6 167.3 179.1 198.4 204.8 216.4 222.5 231.3 242 249.9 259.9 260.2 255.8 255.7 249.5 246.7 242.3 221.9 218.6 217.7 224.6 224 215.1 201.9 195 187 176.2 164.8 157.5 147 140.5 137.3 133.1 129.7 129.9 128.1 125.9 123.9 118.7 111.4 108.4 105 101.5 97.3 95.1 84.8 77.4 77.5 76.4 80 83 87.5 87.1 86.7 87.7 89.7 91.1 93.9 100.7 102.8 103.5 105.9 105.6 106.8 100.9 89.7 80.7 76.8 71.7 68.4 71.9 75.7 78.3 81.2 88 93.7 97 100.7 104 106.6 108.5 113.6 117 119.4 122.1 120.1 114.6 108.5 98.2 85.3 73 64.2 56.6 49.9 51.2 52.5 51.9 52.1 52.7 49.8 44.6 39.5 34.7 31.3
75.9 76.9 75.6 77.6 80.5 81.2 81.9 81.5 87.6 88.4 88.2 90 90.6 91.3 92.6 93.6 96.3 99.7 104.2 110.9 114.6 115 115.9 113 106 110.5 111.4 110.8 111.7 113.1 114.9 116.2 113 111.4 109.3 108.3 107.6 103.4 102.9 102.2 102.6 100.3 97.2 95.3 96 94.9 92.1 92.8 91 92 93.8 95.4 95.6 93.8 96.8 98.2 98.9 97.4 97.8 100.7 100.4 103 105.3 109.5 108.8 111.5 113.5 110.1 114.4 123.8 126.6 129.2 128.7 129.2 127.1 131.4 130.4 129.5 132.8 131.8 135.4 134.3 135.5 138.6 141.9 145.8 143.6 138.5 143.5 147.3 152.2 154.7 148.4 146.2 147.6 153.6 158.8 168.3 169.2 183.6 200.9 210.9 219.5 221.2 232.6 239.5 250.9 259.9 258.5 254.5 252.8 255.1 254.2 237.3 229.1 231.2 233.5 228.6 220.6 210.2 203.9 194.8 186.6 175.5 164.9 159.8 148.8 143.7 139.5 136.8 135.6 133.4 131.3 128.8 122.9 121.1 113.4 109.7 103.4 100.8 97.6 89.1 80.7 77.1 75.2 75.1 78.6 81.2 81.4 82.2 82.5 82.2 83.4 85.9 90.7 93.8 96.5 94.6 95.3 100.2 98.5 90 79.7 75.5 71.7 62.6 64.8 69.5 70.7 74.1 78.1 83.9 87.4 90.1 93.7 95.2 97.8 101 105.8 109 109.1 110 106.9 102.1 93.6 84.4 71.2 60.2 51.5 46.8 42.2 43.6 44.8 45.8 49.7 46.8 38.7 32.8 28.7 21.4
75.9 76.7 76.1 80.1 81.3 81.6 81.4 84.8 83.2 85.5 83.8 87.5 87.3 86.4 88.5 88.6 90.4 98.8 106.8 109.9 111.7 113.7 113.8 112.3 109 109.5 109 110 111.1 113 114.1 114.1 112.1 108.4 108.1 103.1 104.3 105.4 103.2 102.7 102.9 101 96.3 96.5 96.7 93.8 91.8 91.2 91.5 91.8 93.8 94.3 94.7 95.2 95.5 98.2 98.7 97.6 99.5 101.3 101.8 104.3 106.3 108.5 108.7 111.9 110.6 110 117.1 119.9 128 128.9 130.6 130.9 126.7 130.7 128.8 130.9 129.1 132.3 137.3 136 137.3 138 139.2 143.2 141.1 137.4 142.1 145.9 150.7 154.1 150.1 145.6 146 146.3 156.4 161 166 177.1 189.9 199.7 208.3 216.7 215.3 227 247.2 256.4 263.3 252.7 247.9 258.5 259.5 248.7 238.7 237.4 244.9 238.8 226.2 220.4 212.9 202.9 192.5 183.2 174.1 167 161.1 152 145.6 143.6 141.1 138.8 135.8 130.1 129.9 125.4 121.2 115.9 109.6 103.6 100.3 95.7 89.8 83.9 77.9 73.8 72.7 73.2 76.9 77.3 77 77 78.6 78.5 81.9 84.5 84.7 87.7 89 93.6 93.7 88.2 79.2 73.8 70 64.2 59.4 58 63 67.1 69.8 74.4 77.3 79.1 82 86.1 89 89.7 94.2 98.1 104.3 105.2 100.9 96.8 90.3 78.2 68.1 60.2 49.7 43.5 38 36.7 37.6 40 40.4 39.3 32.7 25.7 19.5 16.6
76.8 74.7 76.3 79 79.3 79.9 80.8 84.7 86.7 86.8 84.2 86.5 85.9 87.9 87.7 92.2 93.7 98.3 100.7 105.2 108.6 112.3 112.5 105.5 109.4 109.1 107.5 109.4 111.2 112.8 112.9 111.4 109.2 106.3 104.5 101.4 104.9 105.7 101.8 101 99.4 98.1 96.4 96.6 95.9 93.6 91.2 89 89.9 92.1 93.4 93.5 92.5 94.5 96.7 98.2 97.9 98.4 101.1 101.9 102.7 105 106.5 107.6 108.5 111.2 108.7 114 117.4 123 125.5 128.9 132.8 130.2 130.4 128.4 132.1 131.8 133.2 132.1 136.3 137.5 136.5 137.3 138.6 138.9 137.6 136.8 141.1 144 146.5 148.7 147.5 145.2 146.5 148 151.6 157 163.2 173.6 184.4 188.1 199 204.2 209.5 212.7 229.7 252.9 258.5 253.6 247.8 255.2 263.6 258.4 255.4 248.4 255.1 247.9 234.2 227.9 220 212.2 201.6 189.5 180.1 172.3 165.4 159.6 154.1 148.8 145.5 142.4 140.1 136.6 134.3 131.4 127 121 115.8 112.4 105.9 102.1 99 94.6 87.2 80.3 73.8 71.2 70.7 70.5 73.7 73.5 73.6 76.1 77.7 77.3 78.1 79.8 80.9 85.8 88.6 84.6 77.8 72.1 67.2 64.2 59.7 57 55.3 56 60.7 64.5 68 70.9 74.1 76 80.3 82.4 86.2 90.7 92.6 96.1 95.1 91.8 86.9 74.8 64.8 58.1 50.4 42 39.2 34.8 31.6 32.9 32.8 32.7 28.6 22.7 16.9 14.7
75.1 72.9 75.5 77.5 78.4 79.3 82.3 85.9 88.9 89 87.4 85.7 88.7 89.9 93.3 90.8 95.1 98.9 99.6 103.9 107.9 109 105 106.8 107.5 107.1 107.3 109.7 110.8 111.4 110.2 107.5 106.6 104 100.9 104.8 104 102.5 100 98.2 97.5 96.3 95.9 95.6 94.9 91.9 89.4 88.5 89.6 92 92.9 90.1 92.8 95.2 97.4 97.4 100.5 100.2 102.9 101.9 102.9 105.3 106.9 107.9 109 109.2 108.6 114.8 119.1 121.7 126 126.6 127.5 125.5 128.9 129.5 131.9 132.9 135.7 136 136.1 137.9 138.1 137.1 136 136.9 136.1 136.5 140.1 140 142.6 142.8 145.3 146 146 146.8 149.4 154 158.7 160.1 166.8 181.7 190 197.9 204 211.3 217.3 233.6 251.2 247.4 247.7 251.8 262.8 262.4 263.6 254.1 258.1 253 248.4 237.8 228 215.1 205.9 196.1 186.5 177.9 171.3 167.3 161.9 156.6 150.3 148.9 146.5 142.7 139 135.8 132.4 129.1 122.5 117.7 113.5 109.1 103.6 97.2 95.4 90.5 85.2 79.6 74 70.8 69.2 68.5 69.9 70.3 71.7 72.8 73.2 74.3 74.3 79 87.2 85.2 77.7 71.5 67.3 63 59.1 55.4 54 52.4 52.4 55.7 59.6 64.9 66.5 68.7 71.1 74.5 77.7 81.6 86.4 90.4 90.1 88.5 82.6 72.1 64.7 57.1 48.9 43.3 39.9 35.7 31.6 29.3 29.5 29.4 26 21.4 16.1 12.7
72.3 72.3 75 75 77.3 80.5 82.2 87.8 85.5 88.8 87.7 92.4 89.7 95.3 93.8 91.8 94.7 98.8 101.8 106.8 108.6 109.5 102.3 106.4 105.1 106.2 107.3 108.2 109.6 110.2 109 109 108.7 100.5 103.2 104.5 101.8 98.7 96 97.6 95.6 94.5 93.7 93.7 93 90.4 87.4 87.5 90.5 91 89.5 92 93.5 95.4 96.9 98.6 103.2 103 103.9 103.5 104.1 105.2 106.9 108.1 109 108.3 109.1 114.6 120.3 123.4 124.5 125.9 126.3 125 127.1 127.2 132.4 135.4 135.5 137.6 137.6 136.1 137.8 136.1 135.1 135.3 135.4 139 138.8 140.3 142.4 143.5 144.8 146 147.9 147.8 149.5 147.1 152.7 156.5 166.1 180.6 188 197.4 199.6 208 217.7 218 240.7 244.9 256 256.9 254.7 261.5 264.3 258 262 269.1 263.4 246.6 236.6 220.1 211.6 204.2 192.9 184.4 178.5 172.3 169.9 165.6 159.3 153.5 150.3 147.7 144.5 141 136.9 133.8 129.1 125.5 120.7 116.1 111.9 106.6 101.2 97.4 93.9 90.2 83.9 79.1 74.2 71.7 68.8 65.9 65.4 67.5 68.8 68.4 72.2 75.3 80.5 83.7 77.2 71.1 65.9 61.6 58.9 56.9 52.8 51.6 51.4 51.1 56 57.3 58.9 62.5 63.8 68.4 71 74.8 79.2 84.7 87 84.3 80.5 74.6 63.6 56.7 48.3 43.4 40.2 36.2 31.4 28.9 26.7 26.2 24.8 22.2 17.7 13.4
69 70.4 70.8 74.3 74.4 78.6 82.6 85.4 89.5 88.9 92.1 92.1 94 93.1 92.5 95.2 97.2 99.7 106.2 107.7 107.7 102.7 104.7 103.5 106.8 108.6 108.3 107.8 108.7 109 109.7 109.6 101.1 105 105.8 105 101.7 99.4 96.8 95.3 94.3 93.1 92.7 92.5 90.4 87.6 86 85.4 88.3 89 91.8 93 94.4 95.7 97.9 102 104.1 103.5 101.8 105.4 105.3 105.7 107 108 108.7 108.3 111.3 115.6 118.2 123.2 123.1 125.3 127.2 128.2 125.5 130.7 133 135.4 137.6 135.2 137.3 135.3 136.2 135.5 135.2 135.1 135.4 135.8 140.1 140.2 142.6 144.6 145 146.4 146.8 148.2 147 147.4 147.8 155.9 163.3 177.9 186.9 195.1 196.8 199.8 209.7 217.6 224.6 237.6 247.7 261.7 266.2 257.8 263.7 264.2 258.5 274.5 270.5 261.6 237 231.7 226.9 205.9 195.1 188 183.2 177.8 174.4 170.1 167.8 163.6 156.4 152.6 149.7 145.9 142.4 138.1 134.5 131.7 126.7 122.8 118.6 115.2 110.7 104.7 101.9 100.8 93.4 88.3 81.1 77.8 73.9 70.2 64.8 64.7 64.9 66.1 68.3 74.7 74.6 79.9 76.8 72.1 65.9 61.2 59.5 56.8 52.8 50.6 50.5 48.8 51.9 53.3 52.4 55.7 58.7 60.3 64.5 69.4 74.2 79.2 82.1 81.3 78.2 72.2 62.3 55.9 48 42.9 38.9 38.4 33.1 28.1 26.4 26.3 24 21 18.6 16.8
68.9 68.2 69.8 75.5 78.5 79.4 83.1 88.7 88.4 90.1 91.7 95.2 95.6 95.1 96.8 98.9 98.3 104.5 107.2 105.4 107.6 99.6 104.6 105.8 108.7 108.6 109.5 108.9 108.6 110 110.3 103.7 103.9 107.4 107.1 105.3 101.4 98.4 95.9 94.3 92.4 91.1 91.8 91.2 88.4 85.5 82.9 89.2 89.6 91 94.8 94.7 95.5 97 99.1 102.6 103.7 103.2 105.1 105.8 105.7 106 107.1 108.2 108.2 108.2 112.6 115.9 118.4 122.5 122.3 122.9 127.4 127 130.1 127.9 132.4 135.4 137.2 135.8 134.2 135.4 135.7 135.2 135.3 135.1 135.2 135.5 138 140.3 145.1 148.9 145.9 146.7 147.1 146.7 146.8 147.1 147 151.3 160.2 166.8 178.9 185.6 192.4 198.8 208.9 217.4 226 233.5 241.6 254.4 262.8 258 263.4 265 259.3 272.7 273.1 262.6 246.6 229.7 227.4 216.3 204.8 191.3 187.6 181.3 177.9 176 173.9 169.3 164.5 157.3 153.9 150.1 146.2 142.3 139.4 136.3 132 127.3 123.3 119.2 115.4 110 105.3 103 99.5 95 88.2 80.7 75.7 72.5 68.5 62.9 62.5 62.6 63.7 68.8 71.6 74.7 74.5 71.7 66.8 60.9 58.1 56.9 54.4 51.1 49.6 49 48.4 50 50.8 50.7 52 54.7 57.5 62.9 68.1 73.2 76.1 75.7 73.3 69.5 60.4 54.8 47.7 43.1 38.5 35.8 35.2 33.8 29.6 27.8 26.2 21.3 19 16.5
63.1 65 70.7 73.7 76.9 79.9 84.9 87.2 89.2 90.9 92 95.9 94.2 98 96.1 97.3 100.8 104.8 106.4 102.3 99.5 101.5 106.3 108 109.3 109.2 110.6 110.5 109.3 109.6 102.8 102.5 108.3 108.9 109.7 106.1 101.2 96.9 95.5 94.5 92.8 91.4 90.4 89 85.4 83.1 86.1 89.5 90.5 94.8 94.7 95.4 96.3 98.5 102.4 103.9 103.5 102.8 106.2 106.3 105.7 107.2 107.1 108.6 107 109.8 112.8 115 117.9 122 122.1 123.8 126.9 125.3 130.3 129.7 130.9 130.6 136.3 135.8 136.4 133.9 135.8 137.2 135.9 135 135.2 136.7 137.7 140.1 145.8 150.3 147.6 146.7 147.9 147.4 146.2 151 149.6 151.2 154.4 160.1 168.6 179.2 189 198.7 201.4 212.9 220.7 233.8 243 249.2 259.3 260.2 263.9 267.1 262.3 265.6 274 265.6 256 244.4 234.1 223.2 213.4 197.2 196.5 187.9 180.7 177.6 178.5 175.2 170.6 164.5 157.5 154.2 150.2 146.6 143.2 140.7 136.8 131.3 126 122.1 119 114.3 109 105.9 104.3 96.6 91.9 86.6 81.9 75.4 71.2 67.1 63.3 60.5 60.8 64.6 68.9 71 71.8 70.2 67.2 60.3 56.7 56 54.2 52.2 51 51 48.9 46.6 46.6 48.1 47.6 47.7 51 55.9 62.3 71.1 71.2 70.7 68.6 66.4 58.9 52 47.8 43 38.7 36.8 33.5 31.6 28 28.1 29.2 22.3 19.7 17.5
67.8 68.7 70.5 74.2 78.3 80.3 85.8 86.6 91.6 90.8 94.1 95.9 97 97.5 97.7 98.7 102.7 105.7 102.7 99.4 103.4 106.2 108.6 110 110.7 110.5 111.5 110.6 108.3 103.9 107.8 107 108.3 109.3 110.2 105.9 99.2 97.2 95.1 94.8 91.6 91.6 89 86.2 81.4 82.2 85.8 88.7 91.6 94.6 95.2 96 99.4 102 107 106.9 104.1 105.7 106.1 105.9 106.1 107.2 108.8 106.9 105.9 110.6 112.3 114.9 118.5 121.5 124.5 123.5 125.4 126.6 128.5 128.7 131.3 130.4 130.6 132.7 136.9 139.9 135.7 136.4 138.7 137.1 135.4 137.6 138.6 138.7 144.6 149.3 148.2 147 147.7 147.4 146.5 148.5 149.4 146.2 149.6 154.4 162.3 172.2 188.4 191.8 196.8 207.2 218.9 230.8 242.4 250.6 255.1 259.4 259.7 262 264.2 258.7 273.6 269.6 260.5 249.7 248 230.9 223.1 212.8 199.7 196.5 188.4 180.3 179.5 180.3 180.1 171.5 163 157.3 153.2 149.2 146.2 144.1 140.7 136.1 131.6 125.7 121.1 115.8 111.1 108 104.8 99.9 93.3 88.9 83 78.2 73.5 69.2 66.2 63.6 59.9 59.7 64.9 67.2 67.9 67.7 64.5 60.5 56.8 56.5 54.4 52.3 52 51.7 50.8 47.5 46.1 46.1 46.1 46.1 46.1 51 60.1 72.5 75.1 70.2 65.5 62 57.1 51.9 48.1 42.6 39 37.4 33.4 30.1 29.5 28.4 26.3 23.7 19.1 17.7
68.7 69.1 72.4 74.8 75.7 84.2 84.8 88.3 90.1 93.2 95.1 95.3 97.8 98.1 97.6 103.3 105.3 103.6 99.9 102.2 105.3 108.1 111 111.7 110.1 110.1 111 110.5 106.5 107.7 109.9 108.3 107.8 108.4 108.7 103.1 99.3 97.4 95 94.8 93.8 89.9 86.8 83.5 79.9 84.5 87.6 88.5 92.5 95.3 95.9 99.4 103.2 106.6 109.9 105.2 105.5 105.1 106.1 106 106.3 107.4 110 105.9 108.1 110 111.5 113.2 117.6 122.7 123.8 123.4 124.9 128.4 127.9 128.8 130.8 132.6 130.6 130.6 133.2 138.8 138.9 139.3 137.4 137.6 137 136 136.9 139.5 141.7 146.6 146.4 145.8 147.3 147.5 147 145.8 146.4 146.8 146.2 150.1 158 168.2 180.1 186.5 192.9 204.6 217.1 236.4 246.5 252.5 254.7 254.9 253.1 251.4 251 256.6 275.6 275.1 262 251.9 248.3 242.4 229.9 215.9 203.3 197.3 190.8 187.5 184 181.8 179.8 174.2 167.1 158.6 154.1 150.5 147.8 146.3 143.7 140.1 135.1 129.9 125.6 119.9 114 108.6 105 102.5 98.8 90.4 84.8 80.3 74.6 71.8 69.6 66.9 63.2 58.7 58.5 62.1 62.7 63.9 63.9 59.5 56.5 54.4 54.5 53 50.8 51.3 51.2 49.8 47.4 46.1 46.1 46.1 46.1 47.4 58.7 71.4 74.8 70.8 63.1 59 55.6 50.5 47.7 43.2 40.1 37 33.8 30.7 29.3 28.6 23.7 20.1 18.6 17
67.1 71.6 72.9 73.9 80.7 81.9 87.9 89.8 93.9 95 96.2 96.2 95.6 97.4 102 103.6 104.6 100.7 96.9 106.2 106.2 109.2 110.7 111.4 109.5 109 110 108.5 107.1 108.4 107.9 108.7 108.7 108.7 107.6 101.3 101.7 97.2 97.1 95.8 92.2 88.4 85.2 78.9 82.6 85.3 87.7 90.5 95 95.9 98.4 102.7 106.4 108.7 107.5 107.2 105.1 105.6 105.6 106.3 110.3 110.7 105.7 106.2 108 112 113.8 113.1 117 123.1 123.9 122.2 125.6 126.2 125.1 125.8 130 131.2 136.6 136.5 136.5 138.4 137.8 141.3 137.6 136.9 138.3 137.5 137.2 139.4 139.6 141.8 142.1 144.2 146.5 146.8 146.6 145.2 144.4 144.1 144.5 145.9 150.9 164 173.3 178.5 189.5 204.1 215.1 227 241.8 247.3 252.4 251.2 246.5 242.6 242.4 252.2 273.6 281 273.5 265.3 245.9 239.4 230.5 215.5 209 199.2 195.1 191 188.2 185.6 183.2 176.5 169.2 161.1 155 150 147.8 146.9 145.6 143.3 139.9 135 128.3 123 118.8 110.6 105 100.7 97.9 94.4 85.5 82.7 78 74.6 70.3 64 61.5 62.1 59.7 57.1 55.7 55.1 58.1 58.2 55 52.1 53 53.2 50.7 47.8 50.5 49 46.6 46 46.1 46.1 48.3 50.9 58.2 68.6 73.2 70.7 64.4 56.9 52.6 50.3 47.1 43.5 40.7 38.7 34.8 29.8 27.6 27.9 25.9 20 17.9 16.8
