ncols 200
nrows 82
xllcorner 310000
yllcorner 753400
cellsize 50
302.9 307.3 310.3 313.9 313.9 314.5 314.2 315.4 314.5 313.2 313.3 314.4 315.3 315.9 316.5 317.7 319.1 321 324.5 326.7 333.8 353.3 361.1 363.8 367.8 375.2 380.7 379.1 391 391.7 398.2 409.3 416.7 422.4 428.7 423.3 411.9 386.9 366.2 350 335.4 324.4 319.8 312.4 304.9 302.4 297.7 294.6 301.1 301.3 301.8 301.1 296 293.3 290.9 290.8 292.7 290.3 290 289.2 287.8 287.5 285.4 281.8 274.5 267 262.3 255.2 245.1 237.4 235.8 235.5 235 234.2 233.4 232 235.9 238.9 237.7 242.9 249.9 249 243.7 247.3 257 266 273.2 279.3 284.1 288 296.7 301 310.3 316.5 324.3 327.8 334.7 343.8 353.1 356.8 351.6 347.4 342.4 333.9 327.8 326.8 327 327.1 324.8 323.3 323.5 322.6 322.5 323.4 324.4 325.4 326.7 330.3 336 341.4 345 349.4 354.4 357.4 358.5 359.1 360.3 362.6 365.4 368.3 371.6 375.2 377.3 377.8 377.5 375.7 373.8 371.9 370 368.4 366.8 363.6 362.8 367 370.5 373.8 379 382.9 386.6 389.4 391.9 392.4 394.6 395.1 393.6 392.2 390.6 389.1 387.1 387.8 390.7 394.4 399 401.8 404.1 404.6 406.1 407.5 407 407.5 407.9 406.9 405.9 405.5 405.8 405.8 405.5 405.3 405.2 405.1 405 404.5 404.2 404.8 405.4 405.6 405.7 405.2 404.2 404.1 404.6 406.2 406.9 409.2 411.7 414.1 415.9 417 417.5 418.2
299.7 304.2 310.9 315 314.9 315.2 315.6 316.9 315.2 313.4 313.3 314.2 315.1 316.7 317.5 318.1 320.2 322.9 326.6 330 333.2 349 370.7 373.7 373.6 376.1 382.4 385.4 387.1 394.3 395.6 401.6 410.7 418.1 423.6 422.3 414.8 386.3 364.7 348.2 334.7 324.2 318.2 308.7 300.7 299.6 300.2 298.4 300.3 299.4 298.2 296.9 296 291.9 289.9 289.5 289.4 290.3 289.2 288.3 289.5 289.4 289.2 284.7 277.4 269.3 259.5 257.9 252.4 242.3 235.1 234.4 233.9 233.4 232.8 231.1 235.1 236.6 237.4 245.2 245.3 241.9 243.1 248.7 259.6 271.6 278.7 282.2 285.9 288.7 296.8 300.6 312.6 319.5 326.1 332 335.4 335.1 341.2 348.7 350.3 346 340.8 335.2 329.1 326.1 325.6 324.2 323.4 322.5 323.3 322.9 323.3 324 324.8 325.8 326.8 329.9 334.6 340.5 343.9 347.3 351.7 354.6 356.4 357.3 358.9 361 363.2 365.7 369 372.4 375.1 376.9 377 374.7 372.7 370.4 367.7 366.1 364.1 362.7 362.7 364.6 369.1 371.5 374.3 377.6 381.4 384 384.6 388.8 390.9 391.8 392.7 392.4 391.5 390.3 388.5 385.8 389.4 392.5 393.1 395.6 398.2 400 401.8 403.7 404.2 404.8 405.2 404.2 404.3 404.8 404.9 405.1 404.9 404.8 404.7 404.7 404.3 403.8 403.3 403.4 403.8 404.2 404.3 403.7 402.4 404.2 405.5 406.6 407.7 409.6 411.4 412.9 414.6 416 415.4 415.9
296 300.3 307.9 313.7 316 316.1 315.6 316.1 315.9 314.1 313.3 314.2 315.1 315.7 317.9 318.6 320.7 324 327.7 333.3 336.5 343 363.4 377.9 379.4 379.7 389.2 390.9 391.5 391.8 393.1 393.6 399.7 407.4 413 417.3 405.9 382 363.1 346.8 331.2 323.7 315.4 305.2 300.1 300.4 304.5 306.5 305.8 299.9 299 295.7 293.7 290.5 289.3 290.8 287.4 287.2 288 288.9 289.5 289.5 289.3 286.7 282.2 273.6 263.2 256.5 253.5 247.9 239.3 233.9 233.4 233 232.2 231.4 234.7 235.7 239.2 244 239.8 241.3 246.6 250.7 263.8 273.3 280.1 284.1 286.5 293.3 297.8 305.6 315.2 322.5 329 334.3 338.4 339.6 335.7 338.3 342.6 344.8 339.5 333.7 331.7 326.1 323.6 323.2 322.9 322.5 323.2 323.7 324.5 324.9 324.9 326.1 327.4 330.1 333.1 338.6 342.8 346.1 348.9 351.8 353.6 355.9 358.3 360.7 362.9 365 367.4 370.8 373.1 374.7 374.9 373.4 370.9 368 365.3 364 363.3 362.6 362.4 363.9 366.6 369.3 371.2 374.4 377.4 379.4 381 384.8 387.7 388.6 389.3 391.2 391.2 390.6 389.3 386.2 385.4 388.7 390 391.1 392.9 395.1 395.1 398.2 400.7 402.1 402.5 402.7 403.9 404.1 404.2 404.7 404.5 404.4 404.4 404.3 403.7 403.2 402.7 402.5 402.5 402.5 402.9 402.3 401.1 403.6 404.6 405.6 406.7 408.9 410.4 410.8 413.1 414.3 413.3 413.4
294.4 297.6 301 309.1 314.6 315.8 315.1 313.6 314.1 314.5 313.6 313.4 314.1 314.7 317.4 319 321.5 324.1 329.7 336.1 340.7 344.9 354.1 375.2 382.3 383.7 392.6 399.4 398.6 394.1 387.1 390.2 392.4 396.4 401.8 403.6 390.1 371.6 358.1 343.5 329.3 321.7 315.4 307.3 304.1 310.9 312.2 310 307.5 302.3 297.9 294.6 293.4 289.6 288.9 287.3 287.1 283.4 284.9 288.8 287.2 288.1 287.8 285.9 287.7 278.9 271.5 262.3 254.1 249.9 243.6 236 233.4 232.8 231.8 229.3 235 235.9 239.6 237.4 239.9 248.5 248.3 252.6 267.4 274.8 280.4 285.5 293.7 299.7 305.3 309.5 315.3 322.8 330.3 336.1 341.9 343.1 340 337.3 335.2 337.2 337.3 336.8 330.8 328.2 325.1 323.3 322.9 322.4 323.6 323.9 324.9 325.6 325.6 326.7 328.1 330.1 332 336.8 339.1 343.3 346.7 350.8 353.8 357 359.9 361.5 363.2 365.1 367.1 370 372.1 372.8 373 370.7 369.1 366.1 364.5 363.8 363.1 362.5 362.5 363.4 365.2 367.7 369.3 371 373.7 376.4 378.5 380.8 384.5 385 385.8 388.2 389.3 388.6 388.1 386.6 383.3 385 387.1 387.4 388.6 390.4 391.5 394.2 398.1 400 400.8 402.2 403.3 403.1 403.3 404.5 404.3 404.1 404 403.9 403.4 402.5 401.6 401.9 401.7 401.4 401.3 401 400.9 401.2 402.4 403.6 404.6 407.1 407.4 408.9 411.5 412.9 412.4 412.2
290.7 295.4 298.6 303 309.5 313.1 313.6 312.1 311.8 313 312.6 313.4 313.6 313.7 316.2 319.2 323.5 326.8 329.9 336.8 343.9 349.9 353.5 364.6 378.6 386.1 389.8 393.2 400.6 395.5 385.5 385.9 386.5 388.5 388 384.6 373.4 360 350.2 338.8 327.7 320.2 313.7 311.1 313.3 316.6 313.2 310.5 309.3 303 297.6 295.7 296.5 293.3 291.4 290.2 285.8 284.7 280.7 280.3 281.5 280.9 285.7 283.3 281.3 277.9 273.2 265.6 257.4 251.7 247.3 240.9 233.4 231.9 230.4 230.4 234.4 235.6 236.7 237.4 246.8 249.9 245.5 254.6 266.4 273.9 281 285.7 295.9 301.8 308.7 314.8 318.8 324.2 328.4 337.1 341.9 344.2 342.6 340.5 336.8 335.5 331.7 333 331.4 329.9 326.8 323.8 323 322.5 322.5 323.5 325.4 326 326.5 328.1 330.1 330.9 332.5 335.4 342.3 345.6 349 353.1 357 359.5 362.1 364.3 366.3 368.4 368.9 370.6 372.3 373.2 372.8 369.6 366.7 365.1 364.1 363.7 363 362.6 362.6 363.3 365.3 367.3 368.7 370.4 372 373.6 376.1 378.5 379.9 380.9 382.7 384.7 386.1 386.4 385.9 384.5 382.3 385.7 385.4 386.1 387.2 387.8 388.7 391.2 394.1 397.7 399.9 400.8 401.7 401.8 403 404.2 404.1 403.9 403.7 403.6 402.6 400.1 399.7 399.7 399.1 399.2 399.3 399.4 398.6 399.1 399.8 401 402.3 403.4 404.6 407.1 409.7 411.6 411.5 411.3
289.4 293.7 297.4 299.8 303.9 308.1 311.6 311.1 310.7 310.5 311 313.1 313.5 314 316.2 318.9 322.8 330.8 336 338.3 346.2 351.1 356.8 362.8 376.5 381.1 391.2 392.1 394.9 396.8 397.6 379.5 372.9 371.9 373.6 369.3 361.7 350.5 342.2 335.7 327 320.5 314.1 312.9 316.8 313.9 311.3 310.8 307.2 300.4 296.9 296.4 297.7 295.6 292.5 290.3 286.2 284.2 280.4 276.3 277.4 277 276.8 279.1 276.6 275.2 271 267.4 260.4 253.7 247.7 240.3 235 232.4 229.8 231.2 232.2 234.8 236.1 238.3 251.1 246.4 246.9 257.9 266 276.3 283 284.6 295.8 303.3 311.8 317.9 326.5 329.8 331.5 332.4 336.3 341.5 342.7 341.8 336.8 333.7 329.1 327.7 329 328.4 327.8 325.4 323.1 322.7 322.7 324.1 325 325.6 326.9 329 331 332.5 334 335.3 342.6 347.7 351.4 356.5 360.9 364.1 367.1 369.2 370.8 372.7 374.1 375.3 377 379.6 381.7 377.5 368.2 364.9 363.7 363.6 362.9 362.6 362.7 363.4 364.5 366.9 368.2 370.2 372.2 373.2 374.2 376.3 376.9 378.1 379.5 381.3 382.7 383 382.9 383.6 381.6 382.4 384 384.7 385.2 385.7 386.9 389 391.4 395 396.6 398.1 399.1 401.6 402.8 404 403.8 403.7 403.5 403.3 403 400.3 397.8 397.8 397.6 396.9 396.5 396.4 397 397.5 397 398.3 400.2 401 402.2 404.7 407.3 409.2 409.4 409.5
289 290.8 295.3 297.6 299.4 302.4 306.5 310.2 311 309.9 309.4 310.3 312 314.5 317.4 321.8 325.5 331.5 338.1 345.4 348.6 351.4 357.3 363.1 372.8 380.4 383.5 388.7 392.4 390.1 392.1 383.7 370.3 363.2 360.8 358.1 355.9 349.3 337.1 327.1 323.9 320.1 317.1 316.8 314.8 312.1 308.3 307 301.4 297.4 297 297.3 297.5 298.9 299.5 298 289.8 287.7 282.8 277 277.7 276.5 276.4 276.4 277.7 274.6 268.7 263.9 260 253.7 247.7 240.6 236.4 237.2 229.2 231.2 232.6 235.1 236.2 240.7 253.5 245.9 247.8 258.5 268 277.8 281.6 284 297 300.1 311.4 317.7 326.2 335.3 339 336.4 332.8 335.4 338.6 338.6 336.4 333.1 328.7 327.5 326.2 325.4 324.9 324.6 322.5 323 323 324.1 324.6 325.2 326.4 329 330.5 331.9 333.5 335.8 338.9 347.4 353.3 359.9 364.7 369 372.2 374.4 376.3 378.1 379.5 381.8 385.9 386.5 386 381.2 375.7 369.5 364.5 363.4 363 362.7 362.7 363.7 364.6 365.5 368.8 370.8 371.7 372.6 374.2 375.5 376.1 377.2 378.4 379.5 380.7 381.4 380.8 381.6 380.3 380.7 382 382.6 382.9 384.2 385.5 388.6 390.2 392.7 394.7 396.2 397.6 400.4 402.1 403.8 403.6 403.4 403.2 403 402.8 401.6 399.5 396.9 396.5 395.3 394.8 394.3 396.3 396.1 394.7 395.4 396.4 397.6 399.5 401.6 404.1 405.7 406.4 407.1
287.9 290.4 292.8 294.8 297.4 298.6 301.4 305.8 308.9 309.4 308.7 308.3 309.9 312.4 316.4 324.8 329.4 337.1 341.9 350.1 355.5 359.2 358 362.6 370.1 375.5 383 386.5 387.3 385.4 379.9 374.8 369.9 361.7 356.5 353.2 348.7 343.6 330.9 327.4 325.5 319.6 317.3 315.6 314.1 311 306.8 304.7 303.3 305.4 306.6 308 306.1 301.4 303.6 301.7 297.8 294.7 287 285.2 281.5 276.9 276.7 277.1 278.6 274.7 268.9 264.4 259.6 251 250.4 244 238.2 233.3 230.4 231 232.5 234.6 234.6 245.4 255 245.7 248 256.4 267.1 277.8 278.9 286.3 296.4 297.9 308.3 314 324.2 335.5 340 340.2 337.3 332.5 334 334 332.8 331.9 329.2 327.8 325.2 322.8 322.2 321.8 324.2 323.4 323.2 323.7 324.2 324.9 326 329 329.9 331.7 333.8 335.9 338.2 345.6 354.6 361.3 368.4 373.5 377.3 380.1 382.5 384.5 385.8 389.5 393.2 398.2 393.5 384 379.5 374.2 370.1 364.9 363.3 363 363 363.4 364.1 365 368.7 370 371.4 373 374.6 375.8 376.4 376.8 377.8 378.9 379.6 380.2 379.5 379 379.2 379.4 379.7 379.5 380.9 383.5 384.6 386.4 388.2 390.5 392.7 394.4 396.3 399.6 402.4 403.1 403.4 403.2 403 402.8 402.6 401.5 400.1 398.7 395.4 393.7 393.2 392.3 393.7 395.2 393.7 394.3 394.8 394.8 395.5 396.8 399.4 401.6 402.6 403.3
285.2 290 291 293.2 294.7 296.8 298.3 301.2 304.4 307.4 308 307.2 308 310.3 314.1 320 331.7 338.5 346 353.8 358.3 360.3 358.5 359.3 368.6 374.6 377.4 381.5 380.1 380.4 374.1 365.9 360.1 357.2 355 349.7 346.1 336.3 331.9 331.9 323.8 320 321.9 317.4 318.5 316.7 313.9 313.7 315.3 316 316 313 313.5 311.8 304.6 305.4 304.4 299.8 294.8 287.1 287.5 279.2 277.9 278.2 280.3 277.3 273.1 263.3 260.5 254.2 247.6 242.4 237.1 233 230.9 228.3 232.3 234.1 239.8 248.8 253.1 244.4 248 256.1 264.2 272.9 278.8 286.5 291.7 296.8 307.4 315.8 321.6 331 335.8 340.4 339.4 334.8 331 330.1 328.2 328.5 329.3 327.9 325.2 322.3 320.9 321.8 325.1 325.7 324.6 323.4 323.8 324.6 325.8 328.5 331.1 332.2 333.8 335.7 338.2 346.8 355.4 361.7 368 376.4 381.2 384.3 387.4 389.6 392.7 394.8 396.2 396.1 397.5 393.7 385.1 379.2 372.6 368.7 366.4 364.5 363.6 363.9 364.1 365.6 367.7 370.1 371.9 373.5 375.1 375.7 376.4 377 377.6 377.9 378.4 379 378.4 377.2 376.4 377.3 377 377.1 379.6 382.2 383.3 384.2 385.7 389.1 391.2 393.1 395.6 398.9 401 402.1 402.8 403.2 403 402.7 402.5 401.5 400.4 399 396.8 393.6 391.7 390.8 390.6 391.7 392.9 392 391.7 392.3 393.3 394.5 395.8 398.1 398.8 399.3
283.2 286.7 289 289.8 291.3 293.6 296 297.9 300.2 303.3 306.2 307 307 308.7 311.6 316.7 325.6 336 342.3 353 359.1 363 362.3 359 365.9 371 374.6 378.2 383.9 376.9 368.3 362 357.5 349.7 350.1 348.1 341.5 339.6 337 328.4 324.5 320.5 323.2 320.3 319.9 321.4 322.1 324 322.6 323.5 318.6 316.7 316.5 314 310.3 308.6 310 307.3 301.9 298.6 289 284 277.7 274 279.6 278.1 272.4 264.4 260.4 254 246.9 241 238.7 234.9 232.7 228.1 231.4 233.1 244.3 250.5 252 243.1 247.5 255.4 263.3 271 278.7 287.5 290.9 297.6 304 311 319.3 328.3 332.1 335.3 337.5 336.1 332.7 328.7 326 326.8 327.8 327.9 325.9 323.7 319.3 318.4 322.4 325.7 326.8 325.2 324 324.6 326.5 328.5 330.6 333.1 334.7 336.5 339.8 348.8 354.6 360.4 369.1 377.8 383.5 387 388.8 393.1 396.9 400.8 402.1 399.3 395.5 394.3 390.6 383.7 376.8 372.8 370.5 368.5 365.8 364 364 364.7 366.4 368.8 371.2 373.7 375.1 375.7 376.4 377 377.7 378 377.8 377.8 377 375.8 375.2 376.2 376.9 376.4 379 380.2 381.2 382.3 385 388.5 390.5 391.9 394.2 396.4 397.8 399.3 400.7 402.2 402.9 402.6 402.4 401.4 400.3 399 396.9 394.8 392.9 391.2 389.7 388.7 390.5 389.4 389.2 390.4 391.6 392.8 393.9 395 396.2 396.5
278.8 283.3 286.4 288.8 289.4 290.3 292.8 295.1 296.9 300.2 304.3 305.3 307.2 308.1 312 314.9 321.9 333.6 342.1 347.2 356.6 362.2 365.3 361.1 360.1 368.1 373.5 369.7 368.2 372.8 367.6 353.4 347 341.3 342.4 343.7 341.8 339.2 336.2 328.6 324.6 322.3 324.9 326.4 329.1 323.4 326.4 329 326 323.7 322.9 322.3 321.5 318.9 320.3 312.4 311.1 309.6 306.8 304.1 298.6 290 279.8 276.5 274.4 274.5 268.4 263.6 260.4 255 249.3 241.3 239.5 236.7 231.5 229.5 230.1 232.5 244 250 252.7 243.3 244.6 253.6 261.5 268.6 277.3 287.5 291.5 295.1 301.3 306.7 310.9 319.7 328.6 328.3 331.6 333.9 331.4 329.1 325.3 325.1 325.6 326 325.7 324 322.5 321.2 319.7 324.1 326.7 327.2 326 325.4 324.9 326.7 330.2 332.5 334.5 338.4 344.5 349.7 357.8 362.8 369.2 376.2 382.9 387.7 391 393.6 395 399.2 402.4 402.8 397.1 393.4 388.4 384.8 381 378.6 374.7 370.8 368.7 365.8 365.2 364.4 365.1 367.4 369.8 373 375.2 375.8 376.4 377 377.7 378 377.9 377.9 377.4 375.6 372.6 374.4 375 376.2 377.2 377.9 379.1 380.7 384.7 387.9 390.2 391.5 393 395.1 396.2 397.8 399.4 400.9 401.7 401.4 401.3 399.8 399.2 398.2 396.3 394.2 392.9 391.2 390 388.1 387.4 386.8 387.9 389.1 390.3 391.3 392.4 394 395.3 396.6
277.3 280.8 283.4 285.9 288 288.7 289.7 292.4 294.7 297.7 300 303.9 307.1 309.5 311.2 314.4 318.4 328.1 338 345.9 350.4 358.8 363 363.2 360.9 365.3 371.9 372.1 366.2 359.1 358.3 353.8 339.5 339.5 339.5 342.8 342.6 341.1 336.6 328 329 326.9 324.7 330.3 331.4 332.3 328.1 328 326.4 325 324.7 326.3 329.4 327.8 320.7 319.1 316.9 317.6 315.3 310.9 305.2 297 288.6 279.7 272.9 269.3 266.8 262.5 259.6 255.9 250.2 246.7 236.5 232.7 231.5 231.4 225.2 233.1 241.4 248.4 253.8 248.9 241.3 251 258.4 265.4 276.2 282.9 289.3 294 298.5 300.1 305.5 311.8 317 325.7 326.4 328.4 327.6 327.7 326.5 324.1 322.7 323.1 322.9 323.4 323 317.2 321.4 323.9 325.3 327.9 328.1 328.1 328.9 327.1 328.8 333.5 334.6 342.7 346.6 352.6 357.8 365.9 369.2 374.1 380.2 385.5 389.5 392.8 391.3 393 395.2 395.1 394.1 392.9 389.2 386.6 383.9 381.2 379.9 376 370.7 368.7 368.1 366 365.1 365.9 369.6 372.3 374.6 375.9 376.5 377.1 377.7 378 378 378 378 377.5 372.4 371.8 374.4 375.8 376.9 376.5 377.2 380.2 384.1 387.2 390 391 392.2 394.8 396 397.1 398.3 399.7 400.5 400.4 400.3 399.3 398 397 395.7 393.6 392.4 391.2 389.4 387.6 385.8 384.7 386.6 387.8 388.9 389.5 389.8 392.7 394.2 396.3
275 278.2 280.8 283.4 285.9 287.6 288.5 289.8 292.3 294.5 298.1 300.9 304.7 309 312.3 314 319.2 323.6 333 341.5 349.1 352.9 359.3 362.6 361.3 361.5 366.1 367 366.6 360.6 351.2 349.3 348 339.5 339.5 339.5 343 342.2 336.1 334.4 334.3 332 330.2 328.8 331.5 332 330.3 328.8 328.8 326.8 326 327.6 333.7 334.6 329.9 328.1 325.9 322.4 323 317 309.8 303.3 294.4 283.8 274.6 271.2 264.9 260.8 257 252.8 248.7 244.9 237.4 230.8 230.3 231.1 228.5 226.6 236.6 247.3 252.9 252.5 236.7 247.4 254 262 275.5 280.4 286.9 291.2 295 298.2 301.9 305.1 309.9 313.8 321.1 323.9 323.2 324.9 325.7 324.3 321.9 320.1 311.9 313.1 317.1 322.5 323.9 324.2 325.5 326.7 332.7 333.1 333.5 333.7 329.4 336.8 336.3 343.3 348.4 353.4 358.3 365.8 369.9 373.6 378.1 381.6 385.8 388.3 387.5 389.4 389.8 387.7 388.5 388.4 389.9 388.4 385.7 382.7 381.8 378.7 376.3 372.2 371.9 371 369.3 367.8 370.3 371.6 373.8 376.1 376.7 377.3 377.9 378.2 378.3 378.4 378.5 377.9 373.2 370.2 374.7 375.8 376.4 375.2 375.8 379.3 383.9 387.6 390.5 392.4 393.2 394 395.7 396.9 398.1 398.2 399 399.2 399.1 398 396.9 395.9 394.9 393 391.8 390.4 389.3 388.8 387.8 384.2 386.3 386.5 387.3 388.6 390 392.2 394.3 396.6
271.3 275 277.8 280.7 284 285.7 286.9 288.5 290.5 293.1 295.4 298.4 301.9 305.8 310.8 314.2 318.9 325.4 328.7 337 346.2 351.6 355.1 359.9 361.9 362.1 362.4 363.9 365.8 363.4 355.5 347.8 343.2 341.4 339.5 339.5 339.5 339.5 342 342.1 340.2 336.7 335.4 332.9 331.6 333.9 338.3 335.5 333.2 329.4 327.2 328.3 333.5 338.3 340.4 340.4 336.6 330.2 328.7 321.4 314.1 306.3 295.8 284.9 282.5 276 274.3 262.1 256.2 251.5 248.5 242.9 238.3 232.2 229.5 230.3 227.9 223.1 232.7 244.4 251.2 254.4 239 243.5 251.5 262.2 274 279.2 284.4 288.5 292.8 297 299.8 300.9 304.9 307.2 311.4 315.3 318.6 320.2 322.5 322.1 321.2 311.9 312.1 317 322.8 324.5 325.3 325.6 326.2 327.4 330.9 339.2 338.2 334.9 332.2 335.2 336.6 340.2 347.2 352.1 358.1 363.8 369.9 372.8 374.8 377.4 378.7 380.2 382.7 384.1 384.1 383.7 383.2 385.1 387 388.1 387 384 382.8 381.7 381.1 378.7 376.3 375.4 372 370.9 372.1 373.3 374.5 375.7 376.9 377.5 378.1 378.5 378.5 378.6 378.6 377.4 374.3 368.1 375 375.8 375.9 374.6 374.7 377.5 382.5 386.9 390.5 393.9 394.4 394.9 395 394.3 394.5 395.3 396.2 397.3 397.6 396.8 395.8 394.8 393.8 392.5 391.1 389.5 388 387.2 386.2 383.5 386.8 387.2 388.2 389.6 390.9 392.7 394.8 397
268.4 270.7 273.7 280.3 282.1 285.6 286.4 288.7 290 291 293.7 296.7 299.8 303.4 308.6 314.9 320.2 325 330.2 335.6 343.7 349.4 353.2 356.8 361.3 362.5 363 362.7 362.1 362.7 360.3 356.3 346.9 341 346.3 342.3 339.5 339.6 343.8 343.6 342.4 341.3 339.3 339.9 338.7 334 334.4 337 333 332.4 329.9 330.4 337.1 345.5 352 351 347.2 342.2 337.3 327.9 318.8 309.6 299.7 288.4 281.1 272.1 273.4 263.6 253.8 250.9 247.9 242.2 239.2 231.7 227.5 229.7 225.4 224.6 224.9 239.9 248.6 254.1 243.7 240.1 248.5 264.5 272.5 279.1 284.6 287.8 291.7 296.1 298.1 301.2 302.5 302.4 304.4 309 312.6 315.3 316.9 318.1 319.8 316.2 310.8 316.7 321.6 323.8 325.9 327 327.8 329.5 332.7 337 343.8 341.2 335.7 335.1 336.2 338.7 343.7 351.5 355.7 361.2 366.6 371 374.1 373.2 375.3 376.6 376.7 376.2 377.6 378.7 379.5 381.5 383.5 384.6 384.7 385.8 384.8 383.3 383.4 382.3 381.3 378.7 376.2 375 374 375.3 376.4 377.2 378.1 378.2 378.4 378.7 378.8 378.8 378.4 376.6 372 369.1 373.5 375.2 375.5 374.7 374.7 378.2 382.4 387.1 391.3 394.5 395.1 396.1 395.8 394.4 391.7 391 391.7 392.9 393.8 394.7 394.2 393.4 392.6 391.7 390.2 388.7 387.1 385.5 382.9 383.7 387.5 387.9 388.9 389.8 391.6 394.9 397 399.2
266.3 268.2 271.2 274.5 280.3 284.3 286.6 288.1 289.2 290.5 292 295 298.2 302.2 306.5 313.2 319.4 327.1 332.6 337.7 345.4 350.5 354.3 357.7 362.3 362.3 363 366 367.3 369.6 367.1 363 355.4 349.2 343.9 340 339.8 341.2 344.6 344.4 344.2 344.8 341.9 341.4 341 339.6 336.7 336.2 338.2 340.3 339.9 341.2 347.6 352.6 356.9 360.7 358.8 353.4 344.5 332.8 323.4 314.8 305.1 296 285.2 272.5 267.4 264.3 256.7 252.5 248.5 242.4 239.2 232.4 225.7 228.2 223.9 221.6 227.4 235.9 245.4 252 246.7 238.5 250.1 264.6 273.6 280.9 284.8 288.1 290.6 293.8 297.2 299.3 300.1 300 299.9 302.7 306.8 311 313.5 315.3 317.1 316.2 307.3 316.4 321.2 323.3 325.3 327.7 329.1 330.7 332.7 335.3 339.4 342.6 340.3 337.7 335.8 338 341.6 348.3 352.4 356.5 361.6 365.3 366.3 367.8 369.4 371 371.6 371.9 372.5 374.7 376.7 379.4 381.5 382 382 383.9 385.4 386 385.6 384.7 383.7 382.6 381.4 379.4 376 377.1 377.7 378.4 379.1 379.8 379.4 381.6 380.4 379.8 378.1 376.5 373.2 366.2 370.7 374.5 375.4 376.5 376.6 380.7 384.9 388.7 392.7 395.2 396.4 397.4 396.6 394.6 391.8 388.7 387.6 387.9 388.8 389.7 390.6 390.3 389.9 389.8 389.4 388.3 387 385.4 381.9 385.7 387 387.6 388.6 390.4 393.5 396.8 397.9 401.1
265 266 268.5 272.7 277.3 282.1 284.8 287.2 288.7 290.1 291.4 293.3 297 301.1 305.8 312.2 319.5 328.4 334.6 341.9 349 354.4 357.5 359.9 363.3 362.5 364.6 367.7 370.1 375.4 373.5 371.1 366.3 361.3 357.2 352 346.5 344.5 346.3 347.3 347.8 348.4 348.4 348.2 346.8 344.6 342.2 341.2 345 349.5 353.1 356.2 357.5 360.1 362.6 365.3 367 363.3 354 340.4 330.5 320 310.6 301.2 289.2 278.2 266.6 262.2 259.6 253.7 248.9 243.6 236.3 234.8 226.5 224.3 220.5 219.6 226 231.3 238.6 248.7 252.1 239.7 247.5 265.9 274.2 282.4 284.8 286.6 290.2 292.7 296.1 297.4 297.7 297.8 298.2 298.2 300.8 304.5 307.7 310.6 314.6 311 306 317 320.8 322.8 324.5 327.1 329.7 331.4 333 334.6 336.2 339.1 341.9 342.6 339.5 337.4 341 347.7 350 352.1 355.9 359.8 361.3 362.1 363.6 366.6 368.1 368.5 370.2 372.4 374.1 376.8 379.5 379.6 379.6 382.2 384.8 386.9 387.3 387.2 386.2 385 383.8 383.2 381 379.1 379.7 379.9 379.7 380.9 382.6 382.1 382.6 382.4 379.8 378.3 376.5 369.6 366.5 371.3 373.9 374.9 379 383.2 387.2 390.7 394.2 396.3 397.6 398.7 397 394.8 391.8 388.6 385.5 384.8 384.7 385.6 386.5 387.5 388.1 388 387.6 387.2 386 384.1 380.2 384 386.5 387.1 387.9 390.7 393.8 397.5 399.2 403.2
264.2 265.5 266.5 269.5 273.7 279 283.3 285.3 287.5 289 290.5 292.1 294.9 299.4 305.3 312.3 321 328.8 336.9 345.9 353.8 358.9 362 364.5 365.6 366.2 366.5 370 373.6 378.4 381.4 379.5 375.1 372.3 370.5 367.2 362 356.5 349.6 350.7 354.3 357.5 357 356 354.3 352 349.9 351.6 356.1 360.6 363.5 365 366.5 366.9 368.5 365.8 367.3 371.1 361.9 351.9 341.1 328.3 315.5 301.2 290.4 281.3 271.5 261.1 255.6 250.5 247.7 244.1 235.6 234 230.3 225.4 220.5 220.6 224.3 228.3 231.3 243.9 244.2 236.1 249.9 268.8 276.5 281 281.3 283.6 285.6 292.1 290.3 295.4 297 297.3 296.9 297.2 297.7 299.7 302.1 307.2 310.1 304 309.6 319.1 320.8 322 323.9 326.5 329.2 331.8 333.7 335.4 337 337.8 339.8 344.6 344.6 343 338.1 344.7 347 347.4 350.6 354.1 356 357.4 358.1 362 364.7 365.9 367.8 370.1 371.8 373.2 375.1 376.4 377.6 380.2 382.8 385.4 388.1 388.8 388.6 387.5 387 386.3 385.4 383.9 381.1 380 380.1 380.5 382.4 384.1 384.3 383.9 381.9 380.5 378.8 374 364.1 368.4 372.7 374.5 380.9 384.8 388.6 392.5 395.5 397.4 398.5 398.4 397 394.7 391.6 388.4 385.2 383.4 383.1 383 382.9 383.9 384.8 385.5 385.8 385.4 384.8 382.4 379.7 382.8 384.7 386.2 386.9 389.8 393.9 398 400.1 405.6
263.9 264.9 265.9 267.7 270.6 275.1 280 283.4 286.4 287.9 289.5 291.3 294.3 298.1 305.2 313.9 322.2 330.6 339.1 346.8 356.6 363.3 366.7 369 370.9 372.3 372.8 373.4 376 382.6 385.7 385.8 384.6 383.2 382.8 380 375.3 367.1 357.8 354.5 358.5 362.1 363.9 363.8 362.8 360.7 359.5 362.1 365.7 368.5 371.6 372.9 373.9 374.3 374.3 372.7 366.2 363.2 365.8 363.5 351.8 334.5 316.1 301.9 291.7 283.7 274.8 262.2 254 250.6 246.1 242.4 235.4 232.9 229.7 226 222.2 221.3 222.5 225.4 228.7 230.5 233.5 235.2 243.2 261.8 274.8 277.4 274.9 285.8 292.6 297 297.2 296.6 296.9 295.7 296.5 296.8 297 297.8 298.9 302 301.5 304.2 308.1 314.4 320.8 322.9 324.6 326.5 329.3 331.6 334.6 336.2 337.6 338.4 339 341.4 343.9 343.9 341.7 339.6 340.9 343 345.1 349 354.1 357.1 355.4 356.5 359.3 362.2 364.8 367.4 369.8 369.8 371.7 374.1 375.6 378.2 381 384.3 387.2 388.7 390.2 390.1 389.2 388.4 387.4 386.3 385.2 382.8 380.5 380.7 380.9 382.1 382.8 383 382.8 381.8 379.9 376.8 363.1 366.4 369.2 371.6 379.1 383.9 387.6 391.3 394.3 396.3 397.8 397.5 396.1 393.8 391 388 384.8 383.1 381.8 381.7 381.8 381.8 381.6 382 382.6 383.5 383.2 381.7 378.4 381.7 383 384.3 386.2 389.1 392.7 396.8 400.3 407.2
262.9 264.3 265.3 267.1 268.8 271.7 276.2 280.5 284.5 286.8 288.8 290.7 293.5 297.1 305.1 313.4 323.8 332.8 339.9 347.3 357 365.1 370.8 373.5 375.3 377.8 379.5 379.3 380.7 383.5 390.1 392.7 393.5 394.7 393.6 390.9 384.5 376.2 367.2 360.3 364 365.2 369.2 370.7 369.1 370.2 369.7 370.5 372.4 374.9 377.7 379.6 379.7 379.4 378.9 378.9 378.6 367.2 364 358 356.6 340.3 321.2 306.6 295.5 285.2 276.1 261.8 253.4 248.7 244.6 241.4 237.3 234.1 229.5 224.9 226.4 219.8 221.4 223.9 226.3 229.6 232.8 238.3 244.3 253 260.9 269.5 284.4 290.4 294.2 296.7 299.2 298.4 296.6 295.9 296.3 296.6 296.9 298.3 299.6 299.6 302 303.8 308.2 313.7 318.7 322 325.2 327.5 329.3 331.5 334.1 337 338.2 339.2 339.5 339.7 340.9 341.6 343.5 344.7 341.4 340.6 341.9 345.5 350.3 353 352.9 353.9 356.7 360.8 362.1 364 366.3 367.9 370 371.8 373.6 376.7 380.1 383.4 386.2 388.3 390.4 391.7 391.4 390.5 389.4 388.4 387.1 385.6 383.1 381.1 381.5 381.7 381.5 383 380.9 379.8 380.1 378 365.6 364.6 364.4 369.4 376.3 382.5 386.3 389.2 391.6 394.3 396.7 396.5 395 392.7 390.2 387.2 384.2 382.9 381.7 381.4 381.1 381.1 380.8 380.6 380.7 380.7 381.4 380.2 377.5 380.9 381.7 382.7 384.5 386.6 390.8 395.3 400.4 407.8
260.5 262.9 264.8 266.4 268 269.6 272.6 276.6 281 285.4 288.2 290.2 292.8 296.2 302.9 312.9 323.4 333.9 340.4 347.6 356.8 364.9 371.5 377.2 380.3 380.3 383.4 385.4 386.9 387.9 389.8 397.2 402.1 402.2 401.4 399.6 391.6 382.4 376.5 371 369.5 373.3 372.6 375.1 376.9 379.3 379.9 380.9 382.1 383.4 383.3 385.8 387 384 383.1 383.1 383.2 370.2 367.7 361.8 351 340.9 325.5 312.5 300.2 287.2 275.2 264.5 253 248 243.4 241.2 238 235.9 232.6 227.2 224 218.7 221.3 225.2 228.7 231.8 234.3 241.3 245.9 255.7 266.8 278.3 285.8 290.1 294.8 297.1 299.5 300.4 298 296.6 296.3 296.6 296.9 298.3 299.4 300.4 301.4 303.2 306.9 312.2 316.2 320 325.5 326.7 329.6 331.5 333.5 337.4 339 340 340 340.2 341.1 341.7 343.6 345.1 343.7 342.6 341.3 342.7 344.8 348.6 353.4 354.7 355.4 358.1 360.4 361.9 364.3 366.4 369.2 370.8 372.5 375.3 378.3 381.7 384.8 387.3 389.5 390.8 391.9 391.9 391.5 390.2 388.8 387 384.4 383.3 383.3 381.4 380.2 379.6 378.2 378 377.8 377.8 371.3 358.6 358.4 367.1 373.6 378.5 382.8 386.5 388.9 392 394.7 395.3 393.7 391.3 388.9 386.4 383.5 382.8 381.6 381.3 381.1 380.9 380.5 380.2 379.4 379.4 379.4 378.8 375.9 379.3 380.9 382.6 383.6 385.3 387.9 392.2 397.8 407.6
258.6 260.8 263.3 265.2 266.8 268.4 270.2 273.5 278 282.4 286.8 289.7 292.2 295.1 300.7 312 322.9 333.6 340 347.9 355.5 365.9 373.8 379.6 384.3 386.8 390.5 392.7 392.9 393.4 394 397 404.3 408.2 406.3 405.4 400.3 391.1 385.1 382.1 378.2 378.8 383.2 387.3 382.3 383.9 392.2 394.5 392.1 392 390.7 391.8 394.2 390.6 387.6 387.3 386.5 381 363.1 363.2 346.1 333.4 326.4 318.1 305.8 288.9 276 266 255.5 247.1 242.6 241.4 238.6 234.4 231.2 228.9 223.9 218.7 220.9 224.4 227.7 231 233.6 241.5 249.4 262.5 271.5 278.7 282.1 287.6 294.1 298.1 299.4 300.2 298.5 297.8 296.7 296.7 296.9 298 299 300 301.1 303.2 304.9 310 314 317.9 322.2 326.6 329.8 332.1 333.8 336.1 338.4 341.4 343.1 343.6 342.4 342.3 343.4 344.3 344.8 343.6 342.2 342.1 342.5 346.2 350.7 351.7 354.9 355.5 357.9 361.7 363 365 368.1 369.8 371.5 374.5 377.2 379.8 382.8 385.7 388.2 389.6 390.8 392.3 392.2 391.5 390.4 388.8 386 385.3 385.6 383 380.1 377.7 376.4 374.2 374.1 372.6 373 364.5 355.9 363.8 369.2 373.7 378.7 383.1 386.1 389.1 392.2 393.3 392.3 389.9 387.7 385.4 383.2 382.5 381.6 381.3 381.4 381.2 380.5 380 379.2 378.1 378.1 375.9 375.2 376.9 378.3 381 383.2 384.2 386 389.5 393.3 399.1
256.9 259.2 261.4 263.5 265.2 266.8 269 271.3 274.6 279.1 283.6 288.1 291.1 293.9 298 307.9 321.7 332.5 340.7 348.4 357.7 364.7 375.1 383.5 387.6 391.9 395.7 398.6 399.5 398.7 398.7 399 403.7 410.9 413.4 410.5 409.7 400.8 393.9 390.9 389.2 384.2 384.4 391 393.3 384.8 389.9 398.9 398.4 398.3 397.7 398.3 402.7 393 392.7 395.8 391.4 386.4 365.6 356.7 345.5 333.7 321.2 317.8 307.8 295.4 279 268.2 257.1 248 242.2 239.7 236.3 234.2 230.1 227.4 223.9 220.7 219.8 222.3 227.5 229.9 231.7 239.5 253.6 265.1 270.4 271.6 282.4 288.3 293.1 296.2 299.2 298.3 299.3 299.7 298.5 296.8 297 297.7 298.7 299.7 301.1 303.1 305.1 307.7 311.9 315.7 320.1 324.5 328.7 332.6 333.7 336.7 339.7 342.7 344.4 346 346.7 345.5 345.6 345.2 344.3 345.5 343.3 343.3 342.6 342.9 345.3 350.9 354.2 355.3 357.4 360.4 361.8 363.6 366.7 368.7 370.5 373.7 376.2 378.5 381.2 384 386.8 388.6 390 391.6 392.4 392 391.3 390.1 387.6 386.1 385 384 380.5 378.1 374.5 371.8 369.9 368.8 368.8 369.8 359.4 356.6 365.2 369.4 374.8 380.6 382.8 386.4 389.4 391 390.7 388.5 386.2 384 383.1 382.4 381.5 381.5 381.6 381.5 380.8 380 379.1 378.1 376.4 374.4 372.8 375.5 376.6 377.3 378.4 379.7 382.2 383.7 385.3 389.7
255.2 257.3 259.4 261.6 263.6 265.5 267.8 270.1 272.5 275.6 280.1 284.6 288.9 292.5 296.6 303.6 318.6 331.3 341.5 349.3 358.5 367.1 376 385.3 392.2 396.7 400.7 406.9 409.9 405.2 403.2 403.5 404.2 406.8 414.6 419.7 413.6 405.2 401.8 401.1 403.5 403.1 393.7 386.8 394.2 398.9 395.3 388.3 399.8 403.8 401.5 399.7 402.7 395.7 399.7 398.3 394.4 390.8 375.4 352.4 338.6 329.7 320.4 312.5 305.6 297 282.8 274.1 261 249.5 242.9 241.2 237.6 233.9 231.6 229.2 224.9 223.4 217.8 220.4 223.4 229 229.9 239.8 252.7 261.7 269.4 271.1 280.8 287 290.6 293.3 296.3 297.8 298.9 300.1 299.4 297.5 297.3 297.5 298.3 299.3 301.1 303.3 306.2 308.1 310.3 313.9 318.5 323.1 327.1 331.5 334.3 337.3 340.3 342.8 346.6 349 349.8 349.6 348.6 349.9 349.4 346.3 345.2 344.5 343.5 342.7 343.4 347.3 349.9 355.8 356.9 359.4 360.4 363.1 365.8 367.5 369.5 372.9 375.2 378.2 380.8 383.1 386.2 388 389.2 390.8 392.2 392.4 391.7 390.8 388.5 386.2 384.4 382.9 380.3 378.2 373.9 369.4 366 363.9 362.5 365.5 358.7 352.2 360.8 365.2 370.3 374.5 378.8 381.3 386.8 388.5 388.4 386.3 384.2 383.7 383.4 382.7 381.7 381.7 381.7 381.7 381.1 380.4 379.5 378.5 376.6 372.7 371.4 374.6 375.2 375.1 374.8 375.7 376.2 377.1 378.5 381.2
253.6 255.6 257.7 259.8 261.7 264 266.6 268.9 271.3 273.6 276.6 281 286.3 290.5 293.9 300.6 315.8 327.5 340.2 350.2 358.6 368.5 378.1 387.6 394.9 401.3 408.7 416.8 423.5 423.2 412 408 407.8 408.7 411.2 417.3 418.3 410.9 408.3 413.4 418.1 419 410.7 397.6 388.5 396.9 407.9 400.1 391.8 396.4 398.1 399.2 403 397.4 391.1 398.8 392.9 383.3 373.7 351.7 340.4 325.3 322.3 313.8 302.9 296 287.9 277.3 268.1 256 249.5 240.3 235.6 233.3 232.6 230.7 226.8 223.9 218.6 219 227.8 228.6 229.3 238.1 247.7 256.9 265.4 271.7 278 285.1 288.6 291.1 293.6 296.2 296.8 299 299 298.3 297.5 297.5 298.1 299 301.7 304.6 307.6 309.4 310.7 313.6 317.9 322.2 326.4 330.9 334.7 337.9 340.7 344.2 347.4 350.5 351.8 352.3 354.1 356.9 357.4 351.2 346.3 346.3 345.1 344.2 343.8 344.3 345.8 352 356.9 358.4 359.2 361.5 365 367.1 369 371.4 374.4 378 381 383.8 385.8 387.5 388.6 390 391.9 392.5 392 391.6 389.8 387.6 384.9 382.1 379.7 377.5 374.8 371.7 366.9 364.1 362.7 356.7 354.2 351.2 354.6 359.6 364.5 369.6 373.5 377.5 381.3 384.7 385 384.5 383.6 382.9 382.3 382.2 381.8 381.7 381.7 381.6 381.4 380.7 380 378.9 376.5 373.8 370.8 372 373.2 372.8 372.7 371.9 372.3 372.5 373.3 373.5
251.4 253.4 255.4 257.3 259.4 261.5 263.7 265.9 268.5 271.1 273.6 278.9 282.6 286.8 291.2 297.3 308.3 325.3 337.6 349.4 358.3 368.3 378 389 400.2 409.4 418 425.4 430.5 434.1 423.4 420.9 411.7 409.8 409.5 410.8 412.6 409.3 408.5 421.4 428.4 434.4 431.8 416.3 398.4 397.1 405.7 409.6 405.9 401.4 396 392.2 394.7 393.7 390.5 387.4 387.8 378.6 369.4 354.7 337.7 328.7 321 318.5 306.5 298.7 293.4 281.6 271.8 261.5 248.9 244.1 239.5 234.9 232.9 231.1 228.3 224.7 220 216.7 225.2 228.3 228.9 236.9 246.9 255.5 262.6 269.9 275.6 280.5 284.4 288.4 292.5 294.5 296.1 297.7 298.5 297.6 297.5 297.6 298.1 299 301.1 304 307.5 311.3 313.7 316.6 319.2 322.3 326.8 330.3 334.6 337.7 341.4 344.7 347.9 351.1 353.7 354.2 356.5 359.1 362.1 358 354 350.2 347.3 345.5 344.7 344 344.8 347.7 352.3 355.4 357.5 361.6 364.5 367 369.2 372.3 375.6 378 381.8 383.9 386.7 387.9 388.5 390.4 392.8 393.4 394.2 395.2 394.3 393.3 392.9 387.8 381.2 377 375 372.9 368.2 363.3 361.4 355.8 351.1 349.8 350.5 351.9 358.9 362.8 366.4 372.3 376.3 379.1 381.2 382.1 382.4 381.7 381.2 381.1 381.2 381.5 381.7 381.6 381.6 381 380.4 379.2 376.5 374.5 369.9 368.6 367.9 370.1 370 365.9 368.9 369.2 368.7 367.7
248.9 251 253 255 257 259.1 261.3 263.5 265.6 267.8 270.9 274.6 278.6 283.6 288.6 295.4 300.9 315 328.8 342.9 355.3 368.1 374.9 385.8 405 416.8 423 431.1 437.7 437.2 436.2 427.2 424.3 408.2 406.7 405.6 405.9 404.9 405.2 418.7 433.1 436.4 439.9 433.9 419.2 403.3 408 414.8 415.1 409.6 401.4 391.3 388.6 380.4 380.3 379.7 378 375 363.9 353.6 340.3 329.6 318.3 312.8 307.7 300.5 295.8 289.1 275.5 262 251.3 247.5 242.3 237.4 233.1 231 230.3 225.3 220 215.6 227.7 227.2 229.7 236.8 245.7 251.6 258.5 268.1 275.9 278.8 283.1 287 291.6 293.9 296.4 297 297.4 297.1 297.4 297.6 298.5 299.4 300.3 303.6 307.3 312.1 316.3 320.3 323.1 324.2 327.1 329.4 334.1 336.8 341.6 345.2 348.5 351.7 354.9 356.3 358.6 361 363.3 364.5 359.4 355.9 352.4 349.3 346.6 346.7 345.1 346 348.8 354 356.9 359.6 362.7 366 370.1 373.8 377 379.5 382.6 385.5 388.4 390.6 391.9 393.9 396.5 398.3 399.7 401.1 399.7 397.8 394.7 390.4 384.7 380.2 375 370.1 366.8 364.8 360.7 355.2 352.5 347.8 347.7 348.3 350.7 355.8 360.8 365.2 368.8 372.9 377.8 379.3 380.3 380.6 380.1 380.1 380.3 380.6 381 381.4 381.5 381.4 380.7 379.2 377.7 376.5 373.8 371.3 368.5 365.3 361.3 366.8 358.7 362.2 363.9 363.6
246.1 248.7 250.7 252.7 254.8 256.9 259.1 261.3 263.5 265.8 268.7 272 275.5 280.7 286.2 291 297 306.1 321.4 334 344.4 360.3 369.9 378.6 397.8 419.5 429.6 433.8 441.1 443.4 437.8 431.5 423 415.9 401.8 399.6 399.2 398.7 399.6 412.7 423.2 435.6 439.1 437.4 433.8 418.2 402.4 415.6 419.6 412.4 404.8 389.7 390.2 384.1 375.1 368.6 368.8 363.5 361.7 350.4 341.5 330.6 316.5 312.6 312.2 305.9 295.3 288.8 277 263.3 254.4 247.7 242.2 236.7 234 231.3 229.4 227.3 221.6 215.1 227.5 225.2 228.1 237.7 245.1 250.5 261 268.4 274.6 279.2 283.1 287.2 291.3 292.8 293.3 294.3 295.7 296.4 297 298 299 299.9 300.9 303.5 307.4 312 316.2 321.9 325.4 327.8 330 331.8 333.7 336.3 341.4 345.1 348.9 352.4 355.7 358.9 361.7 364.5 366.5 366 362.5 361 359.6 357.2 352.7 350.7 350.2 346.2 347.1 349 354.1 356.7 359.9 365.5 369.5 373.3 378 382.1 385.4 388.7 390.7 393.4 395.3 397.9 400.7 402.9 403.8 404.5 402.5 400.6 396.1 392 388.5 384 378.5 372.5 368 361.8 360.2 357.7 353 350.1 347 346.2 347 348.6 352.9 357.6 362.6 365.6 370.6 375.1 377.5 378.5 379.1 379.2 379.4 379.7 380.1 380.5 380.9 381.3 381.3 380.8 379.3 378.2 376 374.3 371.9 369.3 367.3 367.2 365.8 361.4 354.5 359.4
243.6 246.8 249.4 252 254 255.3 257.3 259.5 261.7 264.4 267.1 270 273.1 277.6 282.1 287.7 293.9 301.9 316.5 327.3 338.8 348.7 358.8 370.8 384.2 403.7 419.5 430 435.9 439.9 439.3 431.2 423.1 413.6 402.7 393.7 393.2 391.8 393.7 404.3 417.2 421.7 435.1 438.8 442 435.2 419.9 400.5 409.6 414 401.3 389.1 391.6 388.9 378.9 366.8 359.2 356.4 350.3 346.8 343.9 333.9 320.3 307.6 309 307.6 296.7 288.2 278.2 266.7 256.8 248.5 241.9 235.9 233.2 231.4 229.1 229.7 226.6 215.2 222 224.9 226.1 232.1 241.9 248.2 261.9 267.9 274.3 280.2 284.8 287.8 291.3 291.6 292.9 293.5 294.6 295.3 296.4 298.2 299.8 301.1 302 303.9 306.8 311.1 316 322.4 326.8 329.7 333.3 335.2 337.2 339.1 341.1 344.5 349 353.3 357.5 361.1 364.6 367.3 369.6 368.1 365.3 364.9 364.1 362.4 357.4 353.9 352.9 351.5 348.4 353 354.8 355.2 358.9 364.3 369 373.6 378.7 383.3 387 390.1 392.7 395.7 398.7 401.5 403 405.6 406.8 408.1 405.6 402.5 399.8 395.8 391.5 386.8 382.4 376.5 369.3 364.3 359.8 354.7 351.5 350.9 348.3 345.6 345.6 346 347.6 350.1 354.4 359.2 364.1 369.1 372.9 375.6 377.3 378.3 378.6 378.8 379.2 379.6 380.4 381.2 382 381.9 380.6 380 378.3 376.6 374.9 372.6 369.6 368.5 366.7 363.2 357.8 352.7
241.6 244.9 247.5 250 252.7 254.3 255.6 257.7 260.3 262.9 265.4 268 270.9 275.8 279.9 284.8 291.1 302.5 310.7 324.2 333.3 342.7 351.7 364.3 376 384.6 400.4 415.6 425.8 431.3 433.2 430.6 421 412 402.9 395 386.5 384.3 388.1 397 410.9 419.6 423.5 432.2 440.2 440.4 430.7 414.2 402 395.1 399.6 388.7 392.9 390.1 379.7 367.3 357.6 350.9 347.9 340 334.3 329.8 321.3 307.5 304.1 303.4 295.5 285.8 277.1 269.1 262.5 250.2 242.4 238.5 234.6 232.6 232.7 234.6 229.5 216.3 217 227.6 226.8 227.6 236.4 247.8 262.7 271 275.9 281.5 285.2 288.5 290.7 291.9 293.1 292.9 293.6 294.3 295.9 297.8 299.5 301.2 302.8 305.5 307.7 310.8 316.6 322.5 326.6 330.9 335.9 339 341.4 343.7 346 348.4 348.9 353.5 358.3 362.6 366.7 369.8 371.3 371.6 370 367.4 365.4 363.8 360.2 355.1 355.2 354 353 355.1 356.1 356 356 360.9 367.4 373.1 377.7 382.9 387.4 391.3 394.6 397.5 400.2 403.5 405.4 406.5 409.7 409.4 409.8 407.4 403.6 398.6 393.8 389.6 385.2 379.7 373.3 365.7 361.5 357.8 352.6 348.9 346.4 346.1 346.2 344.4 341.9 344.3 349 353.8 358.5 362.8 366.8 370.9 373.9 375.2 376.5 377.7 378.7 379.5 380.4 381.2 382 382.6 382.1 381.8 380.5 378.7 376.9 374.6 371.4 368.4 367.2 364.7 359.9 356.2
240.6 242.5 244.6 247.1 250.7 253.7 254.8 255.8 258.2 260.7 263.2 265.9 268.5 272.7 277.4 283.3 289.7 296.6 304.8 316.5 327.1 335.9 344.4 353.5 365.9 378.3 389.1 399.4 411.8 421.3 425.8 425.6 418.6 411.8 402.9 394.5 386.8 379.9 381.3 393.3 402.4 414.4 416.3 426.8 429.9 433.9 434.4 419.3 411.2 404.1 385.6 385.2 391.7 386.8 379 365.9 352.9 345.7 344.4 336 328.4 320.6 316.4 311.2 299.3 295.9 294.4 286.5 278.5 270.3 262.6 253.9 245.6 239.2 236.5 233.5 233.8 232.4 229.8 217.9 215.8 225.7 225.5 227.2 233.7 244.3 257.2 267 276.2 280.2 285 288 289.7 291.5 292.9 292 292.7 293.9 295.5 297.4 299.2 300.8 303 306.6 309.6 311.8 317.6 322.6 327.1 332 337.3 341.4 344.3 346.9 349.6 352.2 353.7 355.6 359 364.2 368.6 371.8 374.9 377.2 376 372.3 368.8 365.5 360.8 356.1 355.2 355.2 354.9 355.3 355.8 356.3 356.3 356.9 363.1 370.1 375.7 381 386.8 391 394.9 397.9 400.6 402.9 404.2 406.7 409.3 409.9 410.7 410.5 407.5 403.2 399.4 392.8 385.9 382.3 376.5 370.8 365.2 359.1 354.8 349.9 347.5 345.1 344.6 343 341.4 341.2 344.3 347.2 351.5 356.4 360.5 365.1 368.6 371.1 373 375.2 377.2 378.9 380.2 381.2 382 382.6 383.1 382.6 382.1 380.8 378.9 376.3 372.8 369.3 366.9 365.5 360.4 356
237.7 239.7 241.7 244.3 248.2 252 252.9 254 256 258.5 261.1 263.7 266.3 269.8 274.3 280.3 286.9 294 300.5 310.1 320.7 329.3 336.9 348.1 361.5 368.4 378.5 391.7 399.3 404.6 414.5 415.3 414.6 411.4 404.2 396.2 387.6 379.9 377 384.5 393.6 401.6 410.3 414 423.9 431.9 429.1 418.9 415.7 410.2 398.1 379.9 377.8 377.5 375.8 362.8 351.2 342.8 333.5 330.3 322.2 316 309.7 306 302.4 291.7 288.6 286.6 278.6 270.6 264.2 257.5 249.1 242.3 238.3 234.4 232.7 232.7 230.4 223.1 214.3 218.5 224.5 226.7 233.7 244.4 253.3 260.5 270.8 279.5 284.8 288.2 290.5 291.6 291 291 292.5 293.9 294.7 296.7 298.5 299.2 304 307.3 310.6 313.9 317.1 322.8 328.1 331.9 335.9 341.4 346.4 349.4 352.1 355 357.9 360.2 362.6 365.7 370.3 373.5 376.7 379 379.9 376.2 371.8 367.3 361.6 356.9 356.1 356 355.3 355.4 355.8 356.2 356 354.9 359.4 366.4 373 379 385.1 389.9 393.9 397 399.7 401 401.7 406 408.3 410.2 411.3 411.6 408.8 407.5 402.7 396.7 391.7 384.7 377 372 366.4 362.1 358.5 352.7 349.3 346.5 344.8 343.2 341.6 340.1 341.3 342.8 345 350.4 355.5 360.4 363.5 366 369.4 372.8 374.9 376.9 378.8 380.1 381.4 382.5 383.3 383.5 383.2 382.2 380.6 377.9 374.5 371 367.3 366.3 360.3 355.2
234.4 236.9 239.3 242 245.8 249.3 251.2 252.5 254.2 256.3 258.9 261.5 264.5 267.8 271.6 277.3 285.4 292.2 298.2 304.5 314.2 323.6 332 342.3 349.5 359.3 365.7 375.5 387.1 396 400.4 400.6 403.3 407.1 403.2 397.9 389.3 381.3 375.8 376.8 383.8 393.4 401.8 410.7 423.7 424.7 418.9 413.6 412.9 411.6 402.5 387.6 367 371.9 363.2 356.4 348.4 340 328 325.1 323.7 318.2 307.3 301.4 300.1 295.1 290 281.6 277.9 273.1 266.8 259.2 251.7 244.3 237.7 235.1 233.1 233.7 231.4 228.6 217.1 214.8 221.5 226.4 235.8 244 251.9 258.6 266.4 275.9 282.1 287.2 290.4 289.1 287.9 291 292.7 294 294.4 295.2 296.4 300.9 304.6 307.9 311.4 314.9 318.1 323.2 328.8 332.9 336.7 341.4 346.9 350.6 353.7 357 360.1 363.1 366.4 369.4 371.9 375 378.1 380 378.8 377.3 373.2 368.5 362 357.3 357 356.6 355.9 355.5 355.9 356.3 355.2 354.2 358.1 362 368.9 374.9 382.2 387.7 391.9 395.4 397.5 398 399.3 404.6 407.1 409.2 410.2 410.9 410 405.3 402.7 399.5 394.1 387.7 381.3 373.4 368.3 363.6 360 357.1 353 348.9 346.4 344.7 342.9 340.1 339.1 340.4 342.4 344.6 348.9 353.8 357.9 361.2 364.5 367.9 372 374.3 376.4 378.5 380 381.2 382 382.3 382.5 382.6 381.1 379.4 376.1 372.7 369.6 366.3 360.7 355.1
227.2 232.1 236.4 240.3 244.4 246.2 249.6 251.1 252.7 255.9 257.7 260.2 263.4 266.1 270.6 275.1 282.7 290.7 297.1 304.4 310.4 319.2 326.7 335 341.5 348.5 354 360.7 368.9 380.5 390.8 390.3 391.3 398.5 401.4 398.7 391.5 384.2 378.3 374.5 375 377.9 389.2 399.2 415.6 413.9 407 406.1 407.5 413.6 400.8 386.6 374.7 355.4 354.8 352.1 350.4 339.1 327.6 328.4 326.2 316.7 307.1 298.8 296.4 296.8 288.1 281.8 276.7 273.1 267.9 261.2 253.6 247.1 241.7 235.2 235.4 233.3 232.3 229.8 226.4 213.2 217.1 225.1 235.1 244.9 252.5 258.3 264.3 272.8 279.6 285.1 287.9 286.6 287.7 291.8 293.4 294 293.7 296.3 299.8 302.5 305 308.5 312.4 316.6 320.3 324.1 329.1 333.8 337.7 341.5 346.8 350.3 353.6 357.4 360.9 364.8 367.9 370.8 373.4 376.5 379.5 378.6 376.7 374.7 373.8 369.9 364.9 359.8 357.8 357.2 356.5 355.8 356 355.9 354.4 353.2 353.3 357.8 364.1 371.4 378.6 383.7 388.8 393.8 395.9 397.1 398.5 401.5 405.7 407.9 409.4 410.6 408.6 407.5 404 399.3 394 389.3 383.4 379.7 373.2 367.4 363.4 358.6 354.8 351 348.7 347 344.5 341.3 338.2 338 339.8 342.1 344.5 349.1 353.1 356.3 359.5 363.6 367.9 371.4 373.5 375.7 378.3 379.8 380.7 381 381.3 381.6 381.3 380 378.8 375.5 372.2 368.2 363.2 357.7
223.5 227.1 235.2 240.1 243.1 244.1 245.7 248.9 251.7 255.7 257.7 260.1 262.4 265 269.5 274.3 279.5 288.2 294.7 301.3 306.9 314.7 320.5 327.3 334.8 340.7 346.2 351.8 358.1 365.3 371 375.5 381.8 388.5 393.4 396.3 393.8 387.3 382.6 378.2 373.7 375.4 382.1 389.3 396.3 394.8 394.9 393.7 397.2 392.3 383.5 379.3 372.3 360.6 344.8 341.3 344.6 337.1 328.7 324.9 324 314.2 303.1 300.1 293.8 290.5 287.7 283 277.4 272.5 271.4 263.6 255.7 248.8 242.9 236.6 234.4 232.3 231.3 230.3 229.1 219.1 213.1 219.9 233.3 243.5 252.2 258.3 263.6 268.4 276 282.4 284.1 282.6 289.3 292.3 292.7 293.1 296.7 299.6 302 304.7 307.5 310.5 313.3 317.1 322 325.9 330 333.8 337.6 342 346.1 349.7 353.3 356.6 359.6 363.6 367.8 370.5 373 375.6 376.5 375.7 373.7 372.5 370.4 366.1 365.2 361.6 357.9 357.6 357.1 356.5 356 355.3 354.8 353.5 351.3 353.6 360.3 367.7 374.5 380 386.3 391.6 394.4 396.1 397.1 398.2 401.7 405.5 406.6 408.1 408.5 407 405.5 400.5 396.5 390.6 386.8 382.7 377.9 372.4 367 361.1 357.8 353.9 350.9 348.2 344.3 341.5 338.5 337.2 337.7 339.3 341.7 344.3 348.3 351.8 355.6 359.5 363.8 367.6 370.6 373.1 375.6 378.1 379.4 379.7 380 380.3 380.9 381.3 382.5 378.1 373.2 369.6 365.9 360.5
218 223.3 231.2 236.8 241.3 242.6 243.8 246.6 250.3 255 256.6 258.5 260.9 264 268.8 273.7 278.1 284.8 292.5 298.9 304.4 311.2 316.1 323.1 330.2 335.8 339.5 344.8 348.9 354.5 361.9 367.7 372.2 376.6 382.1 387.7 389.2 389.6 385.1 379.8 375 373.8 375.2 386.3 384.6 383.4 387.3 381.2 377.9 374.5 369.5 366.4 361.2 357.9 349.2 334.9 329.4 325.8 321.7 319.9 314.1 310.6 305.2 307.2 303 291.2 289.8 289.4 281.2 274.1 268.7 264.9 257.8 250.5 243.8 239.3 233.9 232 232.7 231.1 230.5 229.7 217.3 213.5 227.2 243.1 252.7 256.3 260.1 263.9 270.3 275.6 278.6 286.9 290.9 290.7 291.9 295.5 299.4 302.7 305.1 307.8 310.8 313.9 317.1 320.5 324.9 328.2 332.2 336.1 339.9 343.6 346.9 350.3 352.7 355.8 358.5 361.5 365.7 369.4 370.8 371.1 370.9 371.8 371.1 370.5 366.6 362.2 360.7 359 357.7 357.5 357.1 356.4 355.8 355.2 354.3 352.6 350 351.3 355.4 361.8 369.6 376.6 382.2 386.9 392.2 395 398 399.9 399.9 402.9 406.4 408 408.2 408.7 404.8 402.8 398.8 394 389.7 385.3 380.4 375.1 371 364.5 361.4 357.4 353.5 348.9 344.9 341.7 339 337.1 336.1 336.6 338.8 341.4 344.7 348.6 352.2 355.8 359.8 363.6 367.5 370.1 372.7 375.3 377.9 378.3 378.7 379 379.3 382.2 382.6 378.5 373.6 370.2 367.3 362.1
215.4 220.7 228.4 235.2 238.9 240.6 241.8 244.7 248.4 253 254.9 257 259.4 262.7 267 271.4 276.4 282.1 289.4 296.5 302.3 308.9 313.7 318.7 325 330.1 333.9 338.1 342.4 348.5 353.6 359 363.3 366.9 372.4 379.2 384.1 387.1 386.3 382.2 378.1 373.8 373.3 376 381.9 383.1 392.2 379.5 384.4 382 375 370.3 362 351.6 343.4 338.8 325.2 316.2 318.4 315.7 309 306 308.2 305.7 302.9 294.2 288.9 286.1 284.4 280.4 271.5 264.2 259.7 251.9 245.8 242.1 237.2 232.7 232 231.6 232.1 233.9 225.3 212.9 220.3 238.1 250.8 253.1 256 265 270.4 273.6 282 289.7 291.8 291.4 296.1 298.5 302.2 306.5 309.5 312.3 315.4 318.4 322.2 326.1 329.5 332.3 335 338.7 342.4 345.6 348.7 350.9 353.4 355.6 357.9 360.4 363.2 365 367.4 368 367.6 367.8 365.2 364.5 362.6 360.8 360.4 358.7 358.2 358 357.4 355 355.2 354.7 353.2 350.3 349.1 350.4 352.1 356.4 363.6 369.7 378.4 384.2 389.9 393.4 397.1 399.1 399.5 401.3 405.3 408.9 410.5 411 410.6 407.1 401.9 397 392.3 387.9 383 377.8 373.8 369.1 365 360.8 356.9 351.9 347.1 343.8 340.3 337.9 336.2 334.6 336.6 338.9 341.6 345.2 348.8 352.3 356.5 360.9 364 367.3 370.4 373.9 375.7 376.5 377 377.3 377.3 379.8 380.7 378.1 373.7 370.3 366.9 360.7
212.2 219.7 227.4 232.9 236 237.9 239.9 242.8 246.5 250.2 253.3 255.2 257.8 261 264.7 269.7 274.7 279.9 286.7 293.1 299.8 305.9 311 316.2 321.5 325.5 329.7 334.1 337.5 343.7 346.6 348.8 355.8 361.4 365 370.7 376.2 381.1 383.5 384 381.3 376.3 371.6 372.2 380.1 380.4 380.8 388 390.7 389 385.5 376.9 365.8 351.4 340.4 332.7 326.1 315.9 312.2 312.1 306.8 300.4 299.4 303.3 301.8 295.2 289 287.7 287.3 281.1 276.9 268.3 263.5 255.6 249.2 242.9 238.1 234.5 232.2 231.9 234 234.5 235.3 219.3 213.9 229.4 243.2 248.8 255.5 265.6 272.6 278.8 284.1 289.2 290 294.4 299.6 302.7 305.1 309.3 313.8 316.7 319.8 322.9 326.8 330.7 334.1 337.2 339.7 341.7 344.6 347.5 350.4 352.9 355.5 357.8 359.2 361.2 361 362 362.9 362.9 362 362.6 360.9 360.3 358.7 359.3 358.9 359 358.5 357.7 356 353.2 352.5 351.6 352 349.9 348.1 349.9 351.8 353.6 358.2 364.7 373.3 382 387.8 392.1 395.8 397.5 399.1 402.1 406.5 409.4 413 414.5 413.8 411 406.7 401.1 396.4 391.4 386.9 381.3 376.6 372.7 368.6 364.4 360.3 355.6 351 347 343.1 339.8 336.8 334.3 335.3 337.8 341.7 343.6 345.2 348.8 353.1 357.9 361.7 365.4 369 372.8 373.6 374.3 375.1 375.3 375.1 377 377.3 375 371.5 367.8 364.1 359.8
210.1 216.2 227.5 233.9 232.9 233.4 236.7 239.8 242.8 246.2 250.4 253.5 256.5 259.6 263 267.6 272.7 277.6 284.2 289.5 296.4 302.9 308.3 313.8 318.7 322.6 326.3 330.1 334.1 335.5 340.1 342.5 349.4 354.1 359.3 363.4 369.5 374.6 377.8 379.9 381.1 378.9 374.5 369.9 369.3 375.4 379.3 385.9 384.4 383.8 385.1 374.5 364.6 353.1 344.8 335.9 324.3 317.8 308 303.4 301.2 299.6 298 297.1 300.1 295.7 291.9 285.8 286.5 280.7 280.8 271.4 265.7 257.5 251.3 245.9 243 239.7 233.2 233.1 232.1 232 231.9 225.4 213.2 218.6 228.6 243.2 253.2 264.4 273.7 280.5 285.8 288 288.6 298.1 301.5 304.6 308.2 312.2 316.8 319.3 322.7 327.6 331.4 334.9 338.4 341.8 344.3 346.9 348.7 350.5 352.8 355 357.5 359.8 360.5 361.4 360.4 358.8 357.8 357.5 357 356.5 356.9 357.2 356 355.9 356.3 356.8 355.2 353.6 353.1 352.8 352.4 351.2 348.5 348.8 349 349.7 351.1 352.6 354.8 360.7 368.2 376.9 385.9 391.2 394.6 397 400.1 403.9 408.2 411 413.8 415.7 414.8 414.2 411.3 408.1 401.7 396 392.1 385.5 380.3 375.9 371.6 367.3 362.9 358.3 353.8 350.3 346.5 342.6 338.7 335.1 334.1 338.1 342 344 346 347.3 350.1 355.1 359.1 363.6 367.8 370.6 371.5 373.1 374 373.9 372.8 372.1 372.1 369.3 366.1 362.4 359 356.3
204.9 213.1 223.9 230.1 227.6 230.6 234 237.5 240.3 243.7 247.2 251.1 254.9 258.1 261.5 265.7 270.3 275.2 280.5 286.8 292.5 299.1 304.9 311.3 315.9 319.7 323.4 326.6 329.9 333.7 336.7 339.1 342.4 346.5 350.5 354.1 359.5 366.4 374.3 373.6 375.8 376.8 375.5 371.5 365.9 365.2 368.5 379.1 378.3 384.2 378.3 372.2 363 353.1 341 331.5 322.4 314.4 308.6 301.1 293.5 291.7 292.9 291.2 290.6 291.5 289.7 289.8 281.8 280.6 279.8 275.2 268.7 261.3 252.7 246.4 243.2 239.9 233.8 232.1 231.6 231.7 234 234.2 218.9 211.8 225.7 239.4 255.2 266 274.9 281.3 283.9 287 295.4 300.9 303.8 307.1 311.7 314.4 316.7 321.1 328.1 331.2 335.7 339 342.4 345.3 348 350.6 352.7 354 355.3 357.3 359.7 361.1 361.8 361 359.8 357.8 356.2 352.2 352.4 352.4 352.9 352.2 352.4 350.9 351.3 352.6 352.7 351.7 351.7 351.6 351.4 347.1 347.9 351.6 351.2 351.4 352.1 352.3 354.2 358 362.8 373.6 382.2 389.4 392.6 398.5 402 406.2 411.3 414.7 416.6 417.5 416.9 416 414.3 411.7 407.2 401.9 397.3 390.8 385.6 380 375.2 370.6 365.8 360.9 356.5 352.9 349.1 345.6 341.8 337.9 333.3 337.7 342.2 344.6 346.5 348.5 350 353 357.6 361.9 366.4 370.1 371.6 372.6 372.9 372.6 370.6 368.5 366.3 363.4 360.1 357 354.3 351.5
201.5 209 213.4 220.1 223.5 229.2 233 235.6 238.3 241.8 245.4 248.9 252.4 256 259.9 263.9 267.9 273 278.6 283.9 290.1 296 301 307.4 312.7 316.7 320.3 323.9 327.3 330.5 333 336.2 338.9 342.9 346.8 349.9 353.9 358.8 361.2 366.8 368.5 370.4 372.2 371.5 371.2 361.2 361.6 363.5 367.9 374.3 375.1 368.6 362.4 352.4 339.9 328.1 321.2 314.9 309.4 303.2 296.1 289 286.6 286.2 285.3 285.7 287.2 288.7 285.1 279.3 278.6 277 269.5 263.6 256.7 248.9 244.2 240.7 235.9 233.5 232.1 234 232.3 233.2 225.6 211.5 220.6 237.1 253.2 264.7 273.4 279.8 281.8 291.2 299.2 304.7 308.4 309.5 312.7 316 321.3 325.1 328.8 332.5 339.8 343.1 346.1 348.9 351.5 354.2 356.6 358.1 359.6 360.9 361.4 362 365.3 363.5 359.6 357.3 354.6 350.7 346.6 346.6 346.2 346.6 346.6 345.6 346.9 349.1 349.8 349.9 350.8 350 345.7 346.4 351.8 353.4 353.8 354 354.5 355.2 355.9 358.5 361.4 367.8 379.4 386.8 392.9 399.6 404.6 409.5 414.4 417.7 419.7 420.5 419.4 417.7 416.6 414.1 410.4 407.7 402 396.3 391.2 385.5 379.8 374.6 369.9 364.6 359.1 354.9 351 347.4 344.4 340.9 333.3 335 340.6 345 346.5 348.5 352.4 353.9 356 361 366.3 371.5 371.8 372.1 372.5 370.5 368.4 365.8 362.2 358.6 355.5 352.3 349.5 346.4
194.9 202 207.9 216.1 221.3 227.4 232 233.6 236.9 240.7 243.9 247.3 250.5 254.2 258.6 262.1 265.5 271 276 280.3 286.4 292.6 298.1 304.5 309.1 314 317.8 321.4 324.7 328.1 331.1 333 335.4 339.1 342.9 346.6 350.3 355.2 356.4 358.7 362.7 364.4 366.1 366.4 366.4 367.2 357.6 351.4 367.1 364.4 367.6 366.1 359.9 353.3 343.2 330.7 321.2 312.4 308.1 303 297.1 290.8 283.9 282.7 280.9 279 284.1 286 283 279.4 281.3 276.6 269.8 264.9 259.6 254.6 247.2 239.7 235.7 236.6 236.6 234.8 233.2 233.1 229.2 214.1 218.1 234.6 248.9 260.8 270.7 278.2 283.8 294.9 301.3 307.1 312.1 311.5 316.9 320.2 323.8 329.1 333.7 337.6 343.5 346.5 349.2 352.3 355 357.7 360.5 362.9 364.7 364.9 363.6 362.5 363.6 365 360.6 357.3 351.7 347.8 345.2 343.2 342 342.3 343.3 343 343.5 346.3 347.8 347 348.1 344.8 344.8 350.5 352.3 353.7 355.1 356.5 357.4 358.1 358.9 360.1 362.6 366.8 375.4 385.3 393.5 400.8 405.4 411.3 415.2 417.7 420.1 421.7 421.6 420.2 418.5 416.3 412.9 410.2 406.7 401.9 396.8 390.9 386.3 381.9 375.8 369.2 362.8 357.9 353 349.1 346.1 343.7 337.6 333.3 341.3 344.4 346.4 348.4 352.1 355 357 360.4 365.6 369.9 372.4 373.4 371.9 370 367.1 363.1 359.2 356 353 349.6 344.2 341.7
195 201.2 203.2 214.2 219.2 224.8 229.3 231.8 235.7 239.5 242.4 244.8 248.6 252.6 256.1 259.2 262.4 267.5 271.9 276.9 283.2 288.9 294.7 299.7 305.3 310.4 315.1 318.8 322.2 325.6 329 331 332.6 334.6 337.8 341.6 346.6 352.3 354 354.8 355.6 359.2 361.6 364.8 364.7 362 359.7 349.1 342.4 360.9 361.4 361 359.1 351 339.5 327.9 321.1 316.1 313.9 303.4 293.5 292.5 285.7 279.3 276.8 274.4 272.8 276.9 280.8 276.8 276.4 273.4 269.7 266.6 261 258.2 250.8 243 238.2 238.6 238 235.3 233.1 231.9 233.6 218.7 211.7 228.4 241.8 256 263.5 274.9 285 293.6 301.7 307.5 312 312.4 319.9 323.1 328.7 333.2 337.8 342.5 347 349.6 352.2 354.9 358.4 361.1 364.5 367.7 370.4 370.8 366.2 363 360 358.5 358.4 356.5 350.4 346.4 344.2 341.7 339.7 339.5 338.3 339 340.7 343.1 344.6 344.7 345.8 341.2 348 351.3 353 354.4 355.9 357.4 359.8 361.4 362.3 363.5 365 367.7 373.6 383.2 392.2 399.5 406.2 409.7 413.6 417 418.7 420.3 421.3 421.4 420.2 418.2 415.6 412.6 409.6 406 399.9 398.2 393.4 389.3 382.8 376.1 369.4 362.7 357.6 352.1 348.9 346 341.7 334.9 342.2 344 346 348.3 351.4 355.2 358.5 361.6 362.9 367.1 370.7 371.8 369.7 366 362.8 359.6 356.4 353.4 350.3 347.3 340.3 337.8
191.5 195.4 202 212 216.4 220 225.9 230.4 234.2 237.1 239.5 242.1 246.1 251.4 254.3 257.3 260.4 264.3 269.1 274.1 280.1 287.5 291.5 296.2 301.3 305.8 311 316.1 319.7 323.1 326.4 329.3 330.5 331.3 332.7 336.2 342.6 347.5 351.2 352.1 352.9 352.2 353.8 355.1 358.5 357.5 355.2 352 341.8 333.5 349.8 354.7 354 349.3 338.4 328.1 325.6 322.7 317.9 306.2 301.8 297.8 289.9 282.2 277.2 281.7 272 274.1 274.3 273.9 274.6 271.6 268.4 265.6 264.4 261.6 253.1 246.6 241.1 238.7 238.7 236.3 234.2 233.6 233.6 223.6 210.1 221.1 225.7 243.2 264.7 272.2 284.1 292.6 300.2 307.3 308.7 315.6 320.4 327.2 334.2 337.5 341.3 345.8 350 352.6 355.3 357.9 361.1 364.5 368.5 371.8 374.3 376.5 372.7 367 360.3 356 353.2 352.5 350.3 346.4 343 340.6 338.5 336.7 336.5 337.1 337.6 338.5 340.3 341.3 342.1 341 347.5 350.6 353.2 355.3 356.8 358.3 360.6 363.2 365.2 366.7 368.2 369.3 372.2 382.1 390.8 397.5 404 409.8 411.6 414.4 416.3 417.4 419.8 420.6 421 419.7 417.8 415 412.4 408.5 404.9 401.3 399.3 395.3 389.3 382.7 376 369 363.5 356.1 351.5 348 344.6 335.4 333.4 341.5 345.9 348.6 352 355.1 358.9 362.8 363.9 360.4 358.6 359.8 356.8 353.1 356.4 354.1 349.1 345.2 342.2 341.9 337.1 335.1
188 189.3 195.3 205.7 215.9 217.4 221.3 227.1 231.7 234.6 237.3 240.2 243.8 247.2 250.8 254.5 258.5 262 266.4 271.1 276.5 282.4 288.4 292.9 297.6 303.1 307.5 312.6 317 320.4 323.7 325.8 328.5 329 329.3 330.7 332.7 340.1 345.9 347.3 346.8 346.2 347.9 349.6 350.6 352.6 350.4 348.3 342.6 333.7 328.4 337.6 346 345.6 336.3 331.5 330.8 319.9 313.5 310.1 304.2 297.6 294.1 286.9 280.6 274.2 272.6 268.9 268 269 273 270.1 266.9 264.8 263.4 264.4 255.7 251.4 245.2 239.9 238.7 237.4 235.1 235.3 234.9 230.3 213.1 214.5 231.1 245 249.6 267.2 279.3 290.2 299.5 303.3 310 317.3 323.7 331.7 337.8 342.1 344.6 348.9 353 355.8 358.4 361 363.7 367.9 372.4 375.6 376.9 378.1 376.2 372 365 357.6 353.3 348.3 346.3 344.3 343.3 340.1 338 336.1 335.4 335.5 335.6 335.3 336.4 338.9 337.1 341.8 346.2 350 352.5 355.1 357.7 359.1 361.5 363.4 367 369.3 371.2 372.3 372.6 382 389.4 396.2 402.1 406.2 409 411.3 413.7 414.9 416.4 418.7 420.6 420.3 419.8 417.8 415.2 411.6 408.7 405.6 402 398 395.1 388.6 380.8 375.2 367.6 360.4 355.4 350.9 347.7 344.2 330.1 331.2 342.3 349.9 353.3 357.1 360.7 363.8 364.2 363 363.4 360.5 356.1 349.4 344.2 342.1 333.1 332.5 333.7 334.6 332.4 330.3
183.8 186.1 193.6 202.1 211.1 212.1 215.2 221.9 228.3 232.8 235.7 238.7 241.3 244.8 248.5 252.3 257 259.6 263.5 267.9 273 278.9 284.2 289.5 294.5 299.4 304.3 309.1 313.7 317.2 320.3 323 325 326.7 327.4 327.2 327.7 328 334.4 339.4 338.7 338.8 340.2 341.7 345.5 349.7 348.2 344.4 338.5 333.4 327.2 321.9 324.2 336.5 334.1 327.2 324.8 322 314.8 311.4 304.5 296.2 291.8 287.7 281.5 276 269 268 267.4 259.8 266 265.5 264.6 261.4 260.5 259.8 257.2 252.1 248.1 240.8 238.4 237.8 239 237 235.2 234.3 220.4 209.1 223.9 231.3 247 264.1 279.5 290.3 292.9 296.3 306.4 317.1 325.9 332.5 338.7 344.6 348.8 352.1 356 358.9 361.4 364.1 367.7 371.3 375.7 379.3 380.3 379.1 376.1 372.3 367.6 360.9 355.5 347.5 342.6 341 340.9 340.5 339.1 337.5 335.8 333.9 333.7 333.7 334.3 335 336.9 341.1 344.9 348.8 351.9 354.5 357 359.6 361.7 363.6 366.7 371 374 375.2 376 380.3 387.9 394.5 400.2 404.8 408.6 410.1 411.6 413.3 415.5 418.3 419.5 420.1 420 418.9 417.4 414.7 411.3 407.4 403.1 398 394.2 389 384.3 378 371.1 365.2 359.5 354.2 350.9 347.9 336.2 328.1 337.4 349.7 356.4 360.9 363.6 365.9 368.1 368.9 370.2 369.5 367.3 358.9 350.6 342.5 339.7 335.2 328.1 324.9 324.7 324.7
180.5 184.1 191.9 197.6 201.8 205.5 210.3 217.5 225.1 230.2 234.2 237.2 239.7 242.7 246.1 250.9 255.2 257.8 261.3 265.3 269.5 274.8 280.2 285.5 290.6 295.5 300.4 304.7 309.5 314.1 317.4 319.9 321.5 323.4 324.7 325.1 324.4 323.8 323.5 327.3 331.5 331.1 331.4 332.7 336.4 339.4 342.9 340.7 334.6 327.5 323.3 318.6 315.1 310.7 317.3 322.4 316.2 312.8 310.4 305.8 299.3 294 290.2 285 280 275.1 271.1 266.2 262.9 260 254.2 253.6 256.3 255.5 254.2 256.2 254.1 251.6 251.3 243.5 239.1 239.6 239.8 239.1 236.6 235.8 228.9 211.4 211.9 231.6 247.4 265.2 279.4 287.6 287.9 299.1 309.4 317.8 325.2 332.6 339 345.7 350.6 355.4 359 362 364.3 368.2 371.9 375.5 379.6 384.7 384.8 382 375.9 371.5 366.8 361.8 355.7 349 343.7 339.3 338 338 337.6 338 336 334 332.8 333 333.6 334.4 335.6 339.3 343.4 347.5 351.2 353.8 356.4 359.5 362.6 365.2 366.4 371.4 375.2 377.6 378.6 380 385.7 393.6 398.1 404.6 407.6 409.4 411.5 412.9 415.3 418.2 419.2 419.9 419.9 419.6 418.5 416.4 413.1 408.9 403.6 397.7 391.2 385.4 380.2 375.8 370.8 366.2 361.8 357.9 354.5 350.9 336.8 325.9 335 347.6 358.2 363.1 366.4 368.5 370.5 372.9 374.9 374.4 370.3 361.9 355.4 350.1 345.4 340.3 333.2 326.5 321 319.3
180.3 182.3 187.8 195 195.8 202.6 208 215 220.6 226.6 231.5 235.3 238.1 241 244.6 249.5 253.7 256.5 259.2 262.6 267.1 270.9 276.3 281.5 286.6 291.5 296.1 300.2 304.9 309.6 314.3 317.9 319.5 321.6 321.9 322.5 322 320.6 319.4 319.1 320 322.1 323.5 324.1 324.7 328 330.1 335.6 333.6 323.7 318.7 314.7 309.6 304 302.7 304.4 306 308.2 304 299.1 296 290.5 288.3 282.1 276.5 272.6 270.1 265.8 261.5 258.8 254.7 254.4 255.8 256.5 254.9 254.7 257 250.4 247.2 245.2 240.8 238.4 237.6 236.7 234.9 236.3 230.6 214.8 210 230.3 247.9 266 277.6 283.8 291 302.6 311.1 317.8 324.4 330.5 337.6 344.7 351.3 356.4 361.1 364.3 366.7 371.4 376.2 379.9 384.2 387.4 386.9 383.1 378.6 372.4 364.8 360.2 355.3 351 345.9 340.3 337.2 336.4 336.6 336.4 335.3 333.7 333 332.3 333.1 333.9 334.8 337.7 341.4 345.7 350.1 353.2 356.3 359.4 362.5 365.2 367.6 371.2 374.6 377.4 379.7 381.1 383.2 391.9 398.7 402.7 407.4 409.4 411.7 413.1 414.6 416.4 418.1 418.7 419 418.6 417.7 416.2 413 408.8 403.4 397 390.9 383.5 377.1 371.8 366.4 363.1 360.5 357.9 355.6 351.4 338.3 326.1 331.8 346.8 358.3 364.2 368.3 369.3 371.3 373.6 376.1 376.1 371.8 365.6 360.5 355.1 349.4 344.2 338.2 333 327.3 322.5
178.7 181 184.1 187.3 195.6 202.3 209.7 212.4 216 222.1 228.4 233.1 237.4 239.9 243.2 246.5 250.7 254 257.4 260.9 264.8 268 272.4 277.5 282.5 287.6 291.9 296.1 300.3 304.7 309.3 314 318.5 320.5 320.8 320.3 319.8 318.4 317 315.7 313.9 313.5 314.4 315.4 318.4 320.4 325.3 322.3 323.8 321 314.7 310.4 305.4 300.5 295.6 293.8 294.2 296.8 295.1 292.3 288.6 287.3 283.5 278.4 274 270.7 267.4 263.6 259.4 255.7 254.4 254.4 258.4 262.8 261 259.3 252.8 251.2 245.4 244.8 241.4 238.7 237.8 236.4 233.7 232.5 223.1 211.9 209 230.1 245.1 263.4 273.5 282.1 293.5 303 309.3 317.5 323.9 330.7 335.9 343.1 350.2 356 361.4 364.4 368.8 374 379.3 385.3 386.1 385.6 383.8 381.5 377.7 372.7 366 360.8 355.4 351.2 346.2 342.5 339 335.3 334.8 334.6 334.2 333 332.4 332 332.7 333.4 334.6 336.5 339.7 344 348.3 352.7 355.8 358.9 362.1 365.2 368.2 370.2 372.6 375 377.8 380.5 382 389 396 399.8 404.7 408.8 411.8 413.3 414.3 415.4 416.7 416.8 417.2 416.5 415.1 413.3 411.5 407.2 402.3 393.2 390 383.4 375.4 369 362.5 358.6 356.3 354.2 348.2 338.4 331.3 325.8 336 349.2 357.8 366.4 370 371.1 371.9 374.2 375.4 374.4 369.5 366.3 362.3 357.2 353.3 347.4 342.2 339.5 334.2 327.9
176.5 178 180.6 185.4 194.7 201.1 203.7 206.4 211.6 217.6 223.8 230.6 236.7 239.9 242 243.4 247.5 252.4 255.8 259.1 262.8 265.3 269.3 274.7 279.2 283.8 288.4 292.4 296.6 300.8 305 308.9 314 319.3 320.1 319.3 318.4 317 315.6 314.2 312.2 309.7 308.4 309.2 308.8 309.5 310.4 313.9 313 312.4 311 307.9 302.4 296.8 292.9 288.6 285 285.2 287.2 286.3 283.3 280.3 278.1 276 273.5 269.1 264.3 261.2 257.1 254.4 254.4 257.1 262.8 266.5 265 265.7 258.9 252.5 247.4 247 243.3 240.3 239.2 239.2 236.9 223.6 214.9 210.9 210.5 226.2 242.1 258.5 270.1 279 291 300.8 306.9 315.7 323.4 328.5 333.5 340.5 346.4 353.2 359.8 364.6 369.6 372.9 377 383.9 384.6 383.7 382.7 379.5 375.3 370.7 366.4 362 356.7 351.5 347.6 344.6 341.2 337.1 335.4 333.6 333.1 332.8 332.4 332 332.3 333.1 334 335.8 338.6 342.4 346.7 351.6 355 358.1 361.3 364.4 367.3 369.5 371.7 373.5 375.1 376.5 380.1 384.6 392.4 396.9 402.6 407.2 410.4 412.5 413.1 414.5 414.7 414.8 415 415.1 413.4 410.2 407.6 403.7 399.2 393.5 387.3 380.6 373.9 367.7 361.7 356.3 353 350.9 345.1 333.1 324.5 328.8 340.7 350.8 363 369.5 371.8 373.1 374 373.5 374.2 372.7 367.3 363.8 360.1 356.6 352.5 348.3 343.2 339.5 335.2 330.6
180.1 176.8 178.9 182.2 191 197.2 199.3 203.4 207.9 213.8 218.6 227 233.4 238.1 240.8 241.7 245.1 249.4 253.1 257.3 260.5 262.8 266.1 270.7 275.2 280 284.3 288.6 292.8 296.8 300.4 304 307.8 312.7 318.3 318.9 318.4 317.1 315.7 313.7 311.6 308.4 305.2 303.3 303.4 302.9 302.5 302.2 303 304 304 302.7 299.7 294 288.6 285.7 282.3 279.4 276.9 278.6 279.6 276.7 273.8 271.7 269.4 265.9 262.6 258.7 254.6 254.4 254.4 261.8 265.7 270.4 269.2 268.2 261.6 256.3 249.2 245.7 242.1 242.8 240.4 238.7 235 218.4 213.7 210.1 209.1 228.1 244.8 257 267.1 277.1 288.1 298.6 307.5 314.7 322.1 327.6 332.5 337.4 342.2 350 356.9 363.7 369.1 372.2 373.8 376.8 379.7 381.5 379.7 376.8 373.7 367.6 365 361.2 357.1 352.7 348.4 345.1 341.8 337.4 335.7 334 333.4 332.9 332.4 332 331.9 332.7 333.8 335.9 338.4 341.7 345.3 350.2 354.2 357.3 360.4 363.2 365.9 367.9 369.7 371.7 373.2 374.6 377 381.3 387.1 392.9 399.1 404.6 406 410.3 412.2 412.5 413 413.5 414 413.7 412 408.4 404.4 399.2 394.1 390 384 377.4 370.7 364.9 359.8 354.6 351.7 348.7 343.9 336.2 322.5 332.9 342.5 355.4 368.2 372.4 374.3 376.3 375.4 374.3 372.5 369.5 365.7 362.3 358.8 355.3 351.8 348 344 339.7 336.1 332.5
186.6 178 174.8 179 184.7 189.9 196.6 201 205.3 210 215.5 221.8 228.1 235.7 240.5 242.6 243.2 246.7 251.6 255.8 258.3 261.2 263.5 267.1 271.1 275.4 279.5 284.2 288.4 292 295.7 299.5 303.3 307.3 312.1 315.1 318 317.2 315.2 313.3 311.3 308.3 305.7 301.9 299.2 297.3 296.5 294.9 293.7 295.3 297.1 297.1 296.1 292.4 287.1 282.4 278.5 275.6 272.4 271.4 272.3 273.2 270.3 267.5 266 263.6 258.3 257.5 254.1 254.4 254.7 260 262.5 270.8 266.2 265.2 263.6 261 254.1 245.6 242.5 240.7 239.1 238.8 233.1 219.3 212.7 205.6 213.8 228.7 244.8 257 265.6 275 285.5 294 301.9 311 319.7 326.3 331.8 337.3 342.4 348.2 354.7 361.8 365.9 368.2 370.4 372.8 373.4 373.9 375 373 369.6 365.9 363.1 360.5 357.3 353.3 348.8 346 342.3 337.9 336 334.3 333.4 332.7 332.4 331.9 331.5 332.6 334.5 336.6 338.6 340.9 344.4 351 354.7 356 358.9 361.8 364.5 366 367.9 369.7 371.4 372.3 374.1 377.4 381.6 389.1 396.4 401.3 404.3 407 410.4 411.6 412.1 412.6 413.1 412.3 411 408.7 405.3 399.9 393.2 385.6 380.6 373.9 367.4 363.2 358.3 353.5 350.6 347.7 345.4 337.8 320.4 333.2 345.1 358.3 366.5 373.2 376.7 378.2 376.7 374.6 371.4 367.8 364.5 362.1 359.4 355.9 352.8 349.2 344.2 340 336.2 332.6
172.5 172.5 173.4 173 180 184.4 189.2 200 204.1 208.2 213 217 223.5 232 238.8 241.8 243 245.3 249.6 253.8 257 259.6 261.8 264.9 269 273.3 276.4 280.1 284.1 288.4 292.6 296.4 299.5 303.1 307.1 311.4 315.7 317.9 316.8 314.7 312.2 309.6 307 302.8 299.2 295.8 291.8 289.6 288.2 287.8 289.4 290.6 291.2 289.3 284.4 279.7 274.7 271.6 268.3 268.4 267.3 267.5 265.4 265.9 264.6 262.6 258.6 257.7 256.4 254.4 254.7 256 256.6 259 261.3 265.1 263.4 259.4 254.9 246.7 244.8 241 238.7 237 233.5 216.1 210.8 207.1 216.7 230.8 244.5 255.5 262 271.3 281.9 289.8 297.4 306.7 315.1 323.2 329.5 335.5 340.9 347.1 353.2 359.7 362.1 363.2 364.8 367.2 367.7 368 368.6 367.5 366.5 363.9 361.4 359.1 355.9 352.2 349.2 346.8 342.9 338.4 336.3 334.7 333.6 332.5 332 331.7 331.4 332.2 334 336.8 338.9 341.1 343.6 349.1 355.2 355 357 360 362.8 364.3 366.6 367.9 368.7 371 372.7 374.8 379.3 385.9 393.3 396.1 400.3 404 407.7 409.4 410.7 411.7 411.9 411.4 409.3 407 405.2 401.1 394.1 386.8 379.1 370.9 365.5 360.4 356.5 352.5 349.5 346.6 343.8 334.6 319.6 334.3 345.3 356.2 363.5 370.3 377.3 380.1 377.9 374.2 370.4 367.2 363.2 360.6 358.2 355.8 352.9 349.2 344.7 340.5 336.4 333
172.6 172.9 174.3 172.1 171.1 178.7 185.8 194.1 200 207.6 214.4 215.7 220.2 228 236.4 240.3 242.2 244.3 247.5 251.2 255.8 257.9 260.3 263.3 267.1 270.5 273.8 277 281.1 285.2 289.1 292.6 296 299.8 303.2 307.5 311.1 314 316.7 316.5 313.9 311.4 308.8 304.8 301.3 297.5 295.3 289 283.3 282.4 281.7 282.3 284.1 284.9 283.6 280.1 274.7 268.7 265.1 264.7 263.5 262.9 264.1 265.1 263.5 262 258.3 256.5 256.6 252.2 250.8 252.4 252.7 252.1 255.3 261.1 267.4 263.8 257.9 252.1 246.5 243.2 239.1 237.3 234.5 221.4 211.3 204.7 215.6 227.1 239.1 248.9 256.5 266.3 278.2 286 293.7 300.5 309.6 318.7 325.9 332.1 336.6 342.9 349.1 353.6 359.8 357.8 359.5 361.5 362.6 362.8 363 361 360.8 360.8 359.2 356.9 354.2 351.5 349.3 347 343.5 339.2 336.6 335.3 334.4 332.7 331.7 331.4 331 331.3 332.8 335.6 338.4 341.2 343.7 348.4 351.7 354 356.9 360.3 363.5 363.5 365.2 367 367.1 368.7 372.1 375.1 379.7 385 390.7 394.3 398.2 400.9 404.8 407.1 408.4 409.8 410.5 409.7 407.6 405.4 403 400.5 395.3 387.6 379.8 371.8 365.2 358.7 353.7 350.2 347.3 345.1 341.5 330.4 318.2 332.4 344.7 353.9 361 368.5 377.3 381.1 378.4 374.4 370.2 366.2 362.5 359.4 357 354.4 351.4 348 345.2 340.7 336.3 333.7
171.6 172.8 172.8 172.7 172.8 172.8 182.5 187.1 197.5 207.9 214.2 214.4 217.8 223 231.2 237.6 240.1 243.3 246.2 248.8 253 256.9 259.9 263.2 265.7 268.5 271.3 274.7 278.3 282.2 286.3 290.3 294.6 297.7 300.1 303.8 307.8 311.9 314.4 316.7 316.5 314.2 311.6 307.2 303.6 299.8 295.6 291.4 287.8 282.6 279.9 275.8 276.2 278.4 278.9 279.5 275.1 269.4 263.8 259.4 259.3 259.8 260.5 261.7 262.4 261.9 259.1 255.3 252.2 250.8 248.8 244.9 246.2 248.8 251.1 257.1 263.2 261.5 257.2 251 246.7 244.1 240.5 238.1 236.8 229.1 211.4 204.4 210.7 217.1 225.6 238.5 252.3 260.7 272.1 282.2 289.8 296.2 303.9 312.2 320.1 326.3 331.5 338 343 347.1 351.6 352.7 354.6 356.5 357.8 358 358.2 357.1 356.4 356 354.8 353.5 352.1 350.5 348.8 346.6 343.1 339.9 337.4 335.5 334.4 332.3 331.6 331 330.7 330.9 331.5 334.2 337.2 340.4 343.4 345.9 349.3 355 357.9 359.1 361.7 362.3 364.5 366.5 368.5 371.5 374.8 377.7 378.4 382.2 388.8 393.2 395.9 399.3 401.6 404.9 406.4 407.8 408.6 407.4 405.2 402.1 398.6 395.1 391.5 385.9 379.6 372.7 367.2 360.6 354.5 349 345.6 343.2 341.1 335.3 317.1 326.3 339.8 352.5 360.5 368.3 376.6 380.7 378.7 374.7 370.5 366.2 362.2 359 355.9 353 350.1 347.4 344.6 341.7 338.4 335
172.6 172.7 172.7 172.7 172.6 171.9 176.5 182.9 191.2 199.6 209 211.3 213.9 217 223.6 229.1 235.2 239.8 243.8 247.2 251.8 255.9 259.4 262.4 265.1 268.1 271.4 274.6 277.8 281 284.9 288.9 293.1 295.7 299.8 302.6 305.4 309.4 312 314.7 315.7 315.4 314.4 311.4 308.2 304.5 300.7 295.9 290.5 285.7 280.9 276.3 272.8 271.8 273.9 276.2 275.5 270.1 264.2 258.1 256.1 256.7 257.2 257.6 258 259.6 258.5 254.7 251.2 249.4 247 244.4 242.1 243.3 248.4 252 254.9 254.6 253 248.9 246.5 244.6 241.2 237.1 235.4 232.6 217.4 204.2 207.5 206.8 213.6 226.5 239.1 251.3 264.6 277.9 285.7 293.2 299.4 305 312.6 318.4 326.3 332.5 337 341 345.1 348 348.4 350 352.2 353.1 353.3 353.4 352.3 352.2 350.8 349.6 348.8 349.4 347.7 346.1 343.5 340.9 338.2 336 334.3 332.6 331.9 331.4 330.7 331.5 332.2 332.8 335.8 338.8 341.8 344.3 348.4 354 355.7 356.9 359.2 361.6 365.7 367.2 369.3 372.4 374.5 378 379.2 382.6 388.2 392.8 395.1 397 399.4 402.4 404 404.7 404.6 405.1 403.4 399.7 393.1 392.8 385.8 380.7 377 372.2 366.9 360.5 354.2 349.4 347.4 343.4 339.1 327.6 317.8 319.5 335.4 349.4 360.2 368.5 376 379.5 378.8 375 370.7 365.9 362 358.9 355.7 352.8 350.1 347.7 344.9 342 339.2 336.2
172.5 172.7 172.6 172.6 172.5 170.7 172.7 180 182 188.3 198.7 209.9 212.5 214 217.9 222.9 229.7 235.6 242.2 245.7 250.9 254.8 258.6 264.1 266.3 268.5 271.8 275.1 278.5 281.9 284.6 287.6 291.2 295.4 299.2 302 304.8 307.6 310.7 313.4 314.3 314.8 316.4 314.8 312.1 308.4 304.7 300.5 295.1 290 285.2 280 274.8 271.9 268.3 270.2 272 271.3 265.4 259.1 253.9 252.6 253.3 254.6 255.1 255.6 256.5 254.9 251.3 249.7 247.5 244.3 241.4 237.8 241.3 247 247.4 248.6 249.3 247.9 245.6 243 241.6 238.2 236.7 235.7 223.1 202.6 205.6 207.2 206.1 211.1 228.3 243.6 257 272.2 281.4 289.2 294.4 299.8 304.1 310.5 317.4 326.2 332.2 336.8 340.8 342.1 342.7 344.4 346.1 345.8 346.5 347 346.6 346.8 346.5 345.6 345.6 346.1 347.1 345 342.9 341.3 337.9 336.6 335 333.4 331.9 331.6 331.3 331.8 333 333.8 334.7 336.7 339.5 343.1 347.5 351.8 353.3 356.6 359.4 362 366.1 366.8 368.3 372 375.8 377.7 378.6 383.5 387.9 391.4 394.1 396.2 398 399.9 401.1 400.8 401.1 400 399.5 397.2 393.3 387.5 381.8 375.6 372.1 367.8 364.6 358.6 352.3 350.8 349 345.1 340.7 335.4 318.6 315 332.2 346.3 357.6 366.6 371.8 375.2 376.7 373.9 370.2 365.4 361.9 358.7 355.6 352.6 350.1 348 345.2 342.3 339.4 337.5
173.5 172.6 172.5 172.5 172.4 172.5 171.8 173.5 177.3 181.2 192.1 205.6 213 215.3 216.4 219.4 224.8 230.8 237.5 244.8 250 254 259 263.8 266.6 269.4 272.7 276 279.3 282.8 285.9 288.2 291.2 295.2 298.6 301.4 304.2 308 311.8 312.9 314 315.3 316.6 317.2 315.4 312.3 309 305.1 299.9 294.7 289.6 284.5 279.1 274 269.8 265 266 268.4 267.4 261.6 254.4 250.1 249.3 250.7 252.4 253 253.2 253.4 252.3 249.2 244.4 241 237.7 236.5 236.6 240.5 242 243.9 244.4 245.7 245.1 241.4 242.9 239.5 236.3 236.5 232.9 203.9 204 205 204.5 206.7 222.1 239.1 251.5 265.5 279 285.8 291.6 296.4 300.2 304 308.4 317.2 325.3 331.9 334.4 335.4 336.7 338.8 338.2 337.3 338.8 340.1 341 341.3 341.1 341.1 341.7 342.1 342.7 343.9 342 339.6 337.3 336 334.9 334 332.7 331.6 330.8 331 332.4 333.6 334.7 335.8 337.7 341.1 345.8 350.4 352.5 355.8 358.4 360.9 362.2 364.1 366.8 369.7 373.1 374.6 377.1 380.7 385.3 389.8 392.9 395.1 397 398.4 398.8 399.5 397.4 395.4 394.1 391.8 388.5 384.1 379.3 374.8 368.8 364.6 361.8 356.7 353.1 350.1 348.3 346.7 342.5 337.5 320.3 311.9 329.5 342.3 352.2 360.2 365.7 369.1 372.8 372.1 368.4 364.9 361.7 358.6 355.4 352.4 350.1 348 345.5 342.6 339.7 338.7
181.6 172.7 172.4 172.3 172.2 172.3 172.3 172.1 175.9 179.6 184.5 196.6 208.3 215.6 217.1 217.8 220.7 226.9 234.5 241.8 248.6 253.2 258 262.8 266.8 270.4 273.6 276.9 280.3 283.8 287.2 289.5 292.5 295.4 299 302.8 306.6 310.5 314.3 317 318.1 318.1 317.6 316.9 317.2 316.3 313.1 309.3 304.9 299.8 294.7 289.2 283.9 278.7 271.9 266.6 262.2 263.3 264.5 263.5 256.8 250 246.9 246.8 248.5 250.5 251 251.1 250 248.5 243.9 240.2 237.5 234.8 233.6 234.2 236.4 238.8 239.7 240.8 242.4 240 239.7 236.6 235.8 235.8 236.5 214.7 200.9 201.8 203.1 203.6 209.8 234.8 252.1 263.5 277.2 283 289.1 292.4 296.2 300.1 302.3 304.1 312.8 322.3 325.4 326.6 330.2 331 329.5 327.4 328.1 329.6 333 336.2 337.2 338.1 339 339.8 340.7 340.9 340 338.5 336.7 335.4 334.2 333.3 332.3 331.6 331.2 329.5 331.1 332.5 333.6 334.9 337 339.2 343.2 347.8 350.4 354.5 357.3 358.3 359.5 362.2 365 367.9 370.7 372.3 375.8 378.1 382.7 387.5 391.1 394 395.9 397.7 398.4 397.2 395.4 391.4 388.5 386.9 383.8 379.8 375.9 372 367.5 362.7 359.3 355.7 351.9 349.2 347.3 345.4 343.1 339.6 327.7 310.1 321.7 335.6 345.8 353.4 357.7 362.2 365.2 366.7 365.4 362 360.1 357.8 354.7 351.9 350.2 348.1 345.8 342.9 340.5 339.9
186.9 177.2 172.2 171.9 171.8 171.7 172.2 171.9 171.9 173.3 179.8 186.7 199.8 209.9 217.8 220.5 220.8 224.2 233.9 238.7 246.5 251.7 256.8 262 266.2 270.9 274.5 277.8 281.3 284.8 288.3 291.3 295.1 298 301.2 305 308.9 312.7 316.5 320.3 322.6 323.6 323.2 319.8 319.4 318.6 316.7 312.8 308.9 304.7 299.4 293.9 288.6 283.2 277 270.8 264.6 261.5 258.9 260.1 257 249.7 246 243.7 244.6 246.7 248.8 250.3 249 247.4 244.4 240.4 237.1 234.3 231.8 230.3 230.3 232.8 235.7 237 237 235.1 239.3 239.3 229.4 231.3 235.2 231.9 222.6 208.7 199.9 200.8 206.2 230 254.6 264.2 274.1 280.7 287.6 290.9 293.4 295.7 297.3 298.9 300.8 304.8 311.2 315 318.2 319.3 316.7 322.5 326.4 324.3 325.3 329.9 332.9 334.3 333.5 335.8 338.6 337.4 336.1 336.8 334.9 334.7 333.6 332.6 331.9 331.6 331.3 329.7 331 331.4 332.7 334.2 336 337 340.6 345.7 348.1 351.6 354.9 355.7 357.5 360.4 362.9 365.3 367.7 370.2 373.6 376.5 380.4 385.3 388.9 391.9 394.6 396.3 397.1 396.5 394.6 390.1 385.6 381.9 378.7 375.8 372.3 368.3 364.5 361.2 358.3 355.3 352.2 348.6 345.5 343.5 340.5 337.7 327.3 309.7 311.9 326.1 337.2 345.1 351.2 354.8 357.2 359.5 359.4 358.7 357.6 355.7 353 350.5 349 347.6 345.9 343.6 341.6 340.6
181.8 174.3 172.2 172.1 172.1 171.9 170.3 171.7 171.6 171.6 173.1 180.4 190.3 203.2 212.3 220.6 223.2 225.5 228.9 232.9 242.1 249.9 255.8 261.1 265.7 270.3 274.9 278.7 282.2 285.7 289.2 293.6 297.6 300.7 303.8 307 310.7 314.3 318 321.4 324.8 327.3 328.4 327.2 324.9 321.8 320.1 316.5 312.8 308.5 303.9 298.5 293.2 287.7 282.2 274.8 268.8 264.2 259.3 257.2 257.8 256 249.9 243.5 241.7 243.6 245.6 247.7 249.1 247.2 245.2 241.9 238.4 235 231.4 228.3 227.1 227.9 231.3 232.7 233.8 235 236.8 238.5 232.7 227.7 237.1 227 212.2 204.3 199.3 207.2 226.9 238.5 246.8 258.3 269.7 278.5 285.7 289.4 291.9 293.9 294.8 296.2 297.1 296.7 297.7 299.8 303.5 308 309.9 315.1 322.5 324.6 319.9 321.4 323.9 328.2 331.1 331.7 333.5 335.3 334.9 334.8 333.5 334.1 332.9 332.1 331.8 331.5 330.9 329.3 331.1 331.2 332.1 333.4 334.6 336.5 339.8 343.2 345.4 350.1 351.9 353 354.9 357.4 359.8 362.2 364.6 367.5 371 373.7 376.4 381.3 385.1 388.3 390.6 392.8 394.6 395.3 394.3 389.8 384.4 380 375.3 370.5 368.4 364.6 360.4 357.6 355.1 352.5 349.9 348.1 345.9 343.1 340.2 336.3 332.1 320.6 306.4 320.3 330.7 337.8 343.6 348.3 350.6 352.3 353.2 354.6 354 352.3 350.7 349.4 348.3 347.3 346.1 344.6 343.3 341.9
178.8 173.9 172.3 172.2 172.2 172.2 170.4 171.7 171.7 171.7 171.7 173.3 180.9 191.1 206.6 216.7 221.2 226.5 227.9 232.9 239.3 245.7 253.1 259.7 264.8 269.4 274 279.4 283.1 286.7 290.7 295.2 299.7 303 305.8 308.7 312 315.6 319.3 322.4 325.6 329.1 330.6 330.7 329.4 328.2 324.5 320.9 317 313.1 308.5 303.1 297.7 292.4 286.7 279.2 273.2 268.1 262.3 257.3 255.8 256.2 253.2 246.3 241 240.7 243 245.5 247.5 247.1 246 242.8 240 237.3 232.7 227.8 226.3 225.8 227.7 229.3 230.8 232.1 234 235.3 235.6 229.8 227.4 217.1 202.9 194.9 210.8 223.1 235.4 249.7 258.4 266 273.9 281.8 284.6 287.9 289.3 294 293.4 293.8 294 294 294.6 294.6 294.5 296.1 300.8 307.6 316.1 315 311.9 314 316.7 321.7 323.3 325.5 328.2 330.1 332.2 332.6 331.8 332 332.3 331.8 331.2 330.6 329.5 327 330.4 330.4 330.6 332.3 332.8 332.9 336.2 340.4 342.9 347 349.3 349.3 351.6 354.1 356.6 359 361.5 364.3 366.5 368.8 372.1 375.8 380.7 384 385.7 388.5 392.4 394.8 393.1 388.4 383.5 379.8 375.4 370.2 364.9 360.2 356.5 354 351.4 349.1 347.7 345.8 343.9 342.1 339.9 337.1 333.8 327.2 310.7 309.7 323.4 331 336.9 342 344.5 347.1 347.9 348.6 349 348.5 347.1 346.9 346.3 345.7 345 344.5 342.6 340.8
182.8 179.2 173.5 172.2 171.9 171.5 172.1 171.8 171.8 171.8 171.8 171.8 174.5 183.6 197.8 207.6 217 222.6 230.8 233.9 238.7 246.1 253.1 257.9 263.7 268.4 273 279 283.6 287.7 292.4 296.9 301.2 304.4 307.5 310.6 313.5 317 320.2 323.4 326.2 328.3 330.8 331.8 331.7 330.4 329.9 327.2 323.2 318.8 313.7 308.3 303 297.5 291.5 285.9 279.3 272.7 265.9 260.2 256.4 253.2 252.8 250.6 243.8 239.1 240.9 243.3 245.3 246.9 247.6 244.8 242.7 239.9 235.1 229.9 225.9 224.3 226 226.2 227.7 229.2 230.5 231.7 233.6 234.8 224.5 203.9 194.8 206.4 217.4 228.5 240.7 252.1 256.3 264.1 272.8 280 286.1 291.1 295.8 296.6 296.1 294.7 293.2 292.9 293.1 293.9 294 294.3 294.7 297.9 306.4 301.2 303.8 309.8 310.5 312.3 312 316 322.6 326.6 330.1 328.4 330 329.5 329.8 329.7 329.6 329.5 328.5 326.7 329.2 329.4 328.4 330.5 330.7 330.6 332.6 336.9 340 344.5 346 346.8 348.5 351 353.4 355.8 357.9 360.1 361.8 363.8 367.8 369.4 375.4 378.6 380.5 384.2 388.6 392.2 391 387.7 382.6 379.4 375.1 369.5 364 358.9 353.9 350.4 348.3 346.6 344.9 342.6 340.8 339.9 337.9 335.4 333.5 329.2 318 303.4 310.1 323.8 329.3 335.1 339.1 342.2 343.3 344.1 344 343.8 344 343.9 343.7 343 342.4 341.6 341.4 341.5
185.3 183.2 184 175.1 171.9 171.3 172.3 170.9 171.7 171.7 171.7 171.7 171.6 178.3 191.2 201 213 218.6 227.3 236 239.2 246.5 251.2 256.1 261.7 267.4 272 278.6 283.6 288.5 293.2 297.9 302.4 305.6 308.7 311.8 315 317.7 320.4 323.1 324.8 326.9 329.2 331.2 331.9 333.1 333.1 331.9 329.8 325.3 320 314.4 308.4 302.9 297.3 291.2 284.8 278.2 271.3 264.4 258.2 253.3 252.2 249 246.5 239.7 238.2 240.9 243.2 244.8 246.4 247 245.1 242 238.7 233.8 229.7 228 224.4 223.3 225 225.5 226.5 228 230.3 229.2 206.8 194.2 204.8 215.1 225 233.4 244.3 250.5 253.8 266.7 275.5 283.2 289.6 297 301.5 302.4 301.8 299 295.4 295.2 295.2 295.1 294.8 294.9 294.8 294.7 295.9 298.2 300.5 303.5 305.3 309 312.4 311.7 313.5 316.7 322.4 326.3 326.7 326.8 326.8 326.7 326.9 327.1 327.2 325.7 327.5 328.1 327.4 327.4 329.1 329 330 332 337.5 341.3 342.7 344 345.5 347.9 350 351.9 354 356.6 358.7 360.4 361.9 364 366.4 372.7 375.4 378.7 381.7 383.8 384.8 383.4 381.8 378.5 373.7 368.2 362.9 358.2 353.8 349.8 346.4 343.2 339.7 337.7 338.3 336.1 335 332.8 329.5 328.2 323 308.8 302.1 313.5 322.8 327.5 330.9 335.1 338.1 339.3 339.6 340.2 340.8 340.6 340.7 340.4 339.7 338.9 338.2 338.4
188.2 185.1 184.2 182.9 180.2 184.6 179.1 170 171.6 171.6 171.6 171.6 171 173.8 183.7 196.1 204.7 214.4 224.5 232.8 239.8 244.7 249.4 254.3 259.6 266.1 270.9 278.1 282.6 287.9 292.8 297.5 302.2 306.7 309.9 313 316.1 318.1 320.1 321.8 323.4 325.3 327 329.3 330.9 333.7 334.6 334.3 333 330 326.9 320.3 313.8 308.4 302.9 296.5 289.9 283 276.2 269.1 261.7 255.3 251 248 244.2 240.4 237.6 238.1 240.1 242.9 244.4 246.1 246.3 243.5 241 239.2 236.2 231.8 227.3 221.7 220.5 220.6 221.6 223.7 225.9 207.2 192.8 199.8 209.6 219.4 232.6 244.7 243.4 247.8 255.4 266.4 275.9 285.3 291.1 297.6 303 307 309.1 308.8 307.4 304.8 301.1 300.7 299.2 298.7 297.8 296.1 295.6 296.5 297.3 301 300.5 301.7 308.7 311.5 311.1 311.5 311.5 319.4 322.4 325.1 326.5 325.4 324.7 324.9 325.6 322.9 325.6 326.3 326.4 326.4 326.4 327.3 328.4 329.6 333.7 336.3 338.5 340.4 342.2 344.2 346.3 348.3 350.4 352.8 355.2 356.7 358 359.4 362.7 365.7 370.9 374.2 375.9 378.2 377.1 376.9 377.1 375 371.1 367 362.2 357.4 351.9 348.5 346.2 343.6 340.8 337.2 332.8 330.1 331.6 328.7 325.9 326.5 324.4 317.9 300.7 303.2 313.4 320.1 323 325.6 328.9 332.5 334.8 335.9 338.9 339.2 338.5 337.8 337 336.2 335.3 335.1
188.4 186.5 183.8 183.9 184.9 190.8 188.4 180.2 170.2 171.2 171.4 171.6 171 170.7 176.8 189.6 196.7 206.2 217.6 226.8 236 242.8 247.6 252.5 257.6 264.5 269.9 275.6 281.6 286.9 292.3 297.1 301.8 306.5 311 314.1 316.7 318.4 319.9 321 322.3 323.2 325 327.3 329.6 332.1 334.2 335 334.3 332.4 329.3 324.7 319.3 313.9 308.2 301.5 295 288.5 281.9 274.7 267.2 258.5 251.8 248 244.4 240.2 237.4 234.8 236.7 239.9 242.3 244 245.8 245.1 242.9 240.8 238.5 234.2 229.7 223.6 219.6 218.6 219.4 220.6 213.9 192.7 198.7 200.1 212.6 224.2 237.7 252 251.5 253.4 259.9 267.4 279.4 289.2 296.1 302.2 306.2 310.9 314.8 316.5 315.9 314.3 312.3 311.9 310.1 308.5 309.3 305.7 301.2 299.7 302 300.3 300.7 301 301.9 305.9 310.2 311.2 310.2 311.2 316 319.4 322.3 323.9 324.4 322.6 322.8 320.4 323.2 325.7 327.2 324.8 324.5 325.2 326.4 327.6 329.3 330.8 333.2 335.1 338.5 341.2 343.3 345.3 347.3 349.4 351.2 352.6 353.9 355.8 357.5 360.9 364.8 368.1 369.2 370.2 369.7 368.8 368.7 367.7 366.4 363.5 358.4 355.1 351.8 349.5 347.1 344.3 339.7 337 333.3 327.7 324.1 321.4 320.1 322.5 321.2 320.2 313 297.9 299.5 304.9 310 314.1 320.7 324.2 327.2 329.4 335 337.6 338.1 337.7 336.8 335.4 334 332.5
189.1 187.7 185.1 184.3 182.6 185.9 190 187.3 176.6 170.2 171.2 171.8 171.3 171.1 174.4 181.8 190.7 196.6 207.3 219.5 229.2 237.5 247.1 252.1 257.2 262.4 268.2 273.8 279.9 286.7 291.4 296.1 301 305.7 310.4 313.7 316.7 318.4 319.7 321.1 321.6 322 322.9 324.9 326.9 329.2 331.3 333.1 333.8 333.3 330.5 327.8 324.1 319.2 313.6 307.4 300.9 294.4 287.5 280.2 272.9 264.6 254.9 250 246.3 241.4 236.3 234.6 234.1 236.6 239.3 241.7 243.6 245.6 244.7 242.6 239.8 236.3 232.3 226.4 221.4 218.6 214.4 218.7 202.9 194.7 198.3 199.3 210.1 224.3 239.1 252.5 255.3 259.7 268 271.2 281.2 291.4 300.9 306.1 311.4 316.2 319.3 323 324.3 324.5 323.5 321.3 318.3 316.1 315.3 312.1 309.6 306.5 305.2 302.1 301.5 302.7 302.9 303.7 304.3 306.3 308.7 308.3 308 312.3 316.4 320.1 320.7 321 320.1 317.1 321.8 323.3 324.1 323.5 322.9 323.2 323.5 324.7 325.4 326 327.8 330.4 333.8 337.1 339.5 341.7 343.6 345.7 347.1 348.5 349.7 350.3 350.7 353.6 357.3 360.9 362.9 362.9 362.7 362.5 361.1 359.4 358.1 357.4 354.6 351.4 348.2 346.6 344.4 341.8 337.5 335.1 335.1 333.2 330.5 327.1 319.3 313.8 313.6 316.8 316 310.8 303.1 299.4 293.7 291.9 305.6 314 320.7 321.7 328.4 331.7 335.5 336.9 337.2 336.2 335.3 333.9
190.4 187.7 186.4 185.2 183.6 181.7 181.6 184.1 180.3 171.1 170.8 170.4 170.1 172 173.6 177.4 185.9 189.9 193.5 208.3 220.2 231.6 241.6 249.7 255.2 260.6 266.5 272.4 278.3 285.1 290.2 294.8 299.7 304.7 309.4 312.8 316.2 318.4 320.3 321.3 321.8 321.8 322 322.9 324 325.8 328 330.1 331.8 332.6 331.7 329 326.4 322.8 318.6 313.2 306.9 300.1 293 285.7 278.4 270.6 260.7 253.2 248.9 244.7 236.7 233.7 232 233.5 235.9 238.4 241.3 243.6 245.5 244.1 242.1 238.9 234.2 230 225 221.8 217.5 218.8 202.6 194.6 197.5 198 209.7 223 235.2 250.6 257.9 263.2 269.5 275.5 282.3 292.3 303.7 310.3 314.9 320.1 323.8 327.6 331 331.2 330.3 329.1 327.1 325.5 323.4 319.5 317.2 313.6 311.3 309.6 306.7 303.9 303.8 304.6 305.5 306 305.4 306.3 307.6 308.3 309.9 313.8 317.5 320.4 319.8 315 318.9 320 321.2 320.6 320.6 321.1 320.7 321.2 321.5 322.2 323.3 325.2 328.4 331.4 334.2 336.5 339.4 341.3 342.8 344.3 345 346 345.4 346.7 350.4 354 356.1 355.8 355.7 355.7 354.5 353 351.6 350.6 347.8 345.5 345.2 345.1 342.4 341.5 340.8 339.7 337.2 333.6 330.5 326.9 323.1 318.9 314.3 308.8 311.2 312 311.6 310.6 308.1 305.4 289.8 300.6 313 317.6 320.7 325.1 330.3 335.2 336.4 336.3 336 334.9
197 186.6 187 185.9 184.3 183.1 179.1 176.2 176.9 172.5 170.8 171.1 170.3 170.6 170.8 175.3 181.5 189.5 189.2 197.6 209.7 224.8 234.9 244.6 252.3 258.6 264.9 270.9 276.3 282.1 288.4 293.5 298.2 303.2 308.2 312 315.3 318.8 320.7 321.4 321.6 321.5 321.5 322.1 322.8 323.9 325.1 327.1 329.8 331.8 331.6 330.2 328.3 325.2 321.8 318 312.7 305.9 298.9 291.7 284.6 276.9 267.1 257.9 253.6 247.6 238.5 233.8 231.7 230.9 233 234.1 238 240.9 244.1 244.6 243.6 241.3 237.4 233.4 228.3 225 220.5 213.5 205.8 188.9 196.7 197 201.8 215.6 231.1 247 257.8 266.1 272.8 279.1 286 294.9 305 313.4 317.6 324.4 329 332.8 335.9 336.4 337.2 337.5 336.3 334.6 331.7 328.7 325.2 319.9 318.4 315 311.8 308.3 306.5 305.6 306.6 307.3 307.8 307.5 306.5 307 307.6 308.8 311.2 316.1 317.5 312.2 315.7 316.1 318 317.6 317.8 317.8 318.4 319.1 318.2 320.2 319.2 319.6 322.6 325.5 328.4 331.1 334.2 337.8 338.5 339.5 340.8 342 340.3 340.9 343.7 346.9 348.8 348.9 348.8 349 348.2 346.7 345.1 342.8 342.2 340.2 339.2 339.9 341.5 341.4 340.8 339.3 336.4 331.7 329 323.4 319 314.9 311.6 305.5 301.7 303.2 308 308.4 307.8 306.7 298.4 288.9 307.5 314.6 320.4 320.9 323.9 328.8 332 333.8 334.9 334.8
206.8 194.9 186.1 185.8 185.2 185.3 182.1 178.3 178.9 176.4 171.2 171 169.2 170.1 170.2 173.8 180.3 186.6 186.3 188.8 203 216.6 228.8 237.4 247.2 255.1 261.8 268.6 274.3 280.1 286.4 291.7 296.9 301.7 306.5 310.7 314.1 317.5 320 321.1 321.4 321.4 321.4 321.5 322.2 322.9 323.8 325.6 327.8 329.8 330.7 331 329.5 327.5 324.1 320.9 317 311.7 305.7 298.7 291.1 283 273.2 262.5 255.6 250.7 244.4 237.5 232.4 230.2 228.7 232.4 235 239.3 242.8 243.4 242.9 242 240 236.3 231.7 228.3 223.4 218.3 215 197.3 194.7 195.9 196.8 212.9 225.7 240.8 255.4 267.5 275.8 281.4 290.2 298.7 307.8 315.3 321.2 328.7 334.2 338.5 340.9 342.9 344.3 344.8 343.2 340.9 338.2 335.4 330.8 326.5 324.6 320.9 317.9 313.5 310.6 308.9 307.8 308.2 308.3 307.8 306.1 305.8 306.1 306.4 306.8 308.8 310.2 313.4 315.9 313.6 314.1 314.8 314.8 315.7 316.5 317.3 316.8 314.2 316.8 315.7 316.6 319.6 322.6 324.6 327.7 331 333.3 334.8 336.7 338.3 337.7 335.8 336.5 339.6 341.5 341.1 341.9 342.1 341.6 340.2 337.8 336.5 335 335 335.6 335.5 335.5 337.4 337.4 336.7 331.2 324.3 321.8 318.1 313.8 310.8 310.6 309.5 307.7 298.6 299.9 301.8 303.4 303.7 297.6 287 306.6 309.7 313.1 317.3 319 320.7 324.1 326.6 329.2 330.5
218.9 204.7 191.7 185.8 185 185.6 184 181.8 179.4 178.5 173.1 168.5 170.8 170.4 169.9 172.7 180.1 184.4 185.1 186 200.5 209.7 221.1 233.4 242.7 250.5 258.9 265.8 272.3 278.1 284.3 289.6 294.9 300.1 304.9 310.2 313.1 317.6 320.2 320.9 321.3 321.3 321.4 321.5 321.5 322.4 324.6 326.5 328.4 330.4 331 331.1 330.8 329.6 326.6 323.4 319.7 315.6 309.9 304.7 297.8 289.8 279 270.8 261.2 255.2 249.6 241.4 235 231.5 229.6 228.8 232.6 236.8 239.2 242.1 242 241.9 239.9 238 235.3 230.9 226 221.2 217.4 207.1 189.2 194 195.2 198 222.2 236.7 252.1 265.7 277.2 284.5 292.8 301.3 311.2 320 325 333.2 340.9 345.6 348.3 350.2 351.4 351.7 349.6 347.2 344.5 341.9 339.4 333.8 329.1 325.4 322.6 319.9 314 311.8 309.7 307.6 307.1 305.8 304.8 304.8 305.2 305.7 306 306.6 307.6 309.7 311.3 312.5 310.7 310.6 312.3 311.9 312.5 313.7 314.3 313.1 312.6 313.2 313.9 314.7 316.1 318.1 321.2 324.3 326.8 329.3 331 332.6 334.8 333 331.2 334.3 334.1 334.5 334.9 335 335 333.5 333.1 332.1 330.7 330.5 331 332.1 332.6 332.6 332.1 329.7 328.1 327.1 328.6 326 321.9 317.7 315.4 311.9 308.2 303.4 300.8 296.2 296.8 298.4 297.3 294 301.8 304.7 307.3 310.2 315.9 319.2 317.1 318 320.7 322.9
238.7 221.3 205.4 196 187.1 184.9 184.8 183.3 181.1 180 173.1 169 170.7 170.6 170.4 171 179.4 181.5 184.3 184.5 195.4 205.2 214.4 228.1 238.2 246.2 254.7 262.7 269.7 276.1 282 287.3 292.2 297.3 302.7 309.5 316.7 318.4 319.4 320.6 321 321 321.1 321.1 321.5 322.6 325.2 327.5 329.6 330.9 331.7 332.3 332.5 331.6 329 325.7 322.2 318.4 313.9 308.9 302.9 295 286.1 277 268.6 262.5 256.3 248.3 238.4 232.8 229.5 225 229.9 233.3 236.2 238.8 240.6 241 240.5 239.3 237.3 233.8 229.2 224.6 220.1 214.5 191.9 188.5 192.4 194.8 216.1 232.9 248.4 262.6 276.6 286.1 294.1 304 314.8 324.3 331.2 338.5 346.7 352 354.5 356.2 357.5 357.7 355.7 353.5 351.2 348.8 344.4 339.7 333.2 329.1 325.7 322.6 316.7 314.5 311.4 307.6 307.1 306 304.5 304.6 304.7 305.1 305.3 305.4 306.1 306.1 307.9 308.8 308.7 308.9 309.5 309.5 309.1 309.8 311.2 311.2 309.5 309.6 310.3 312 314 312.3 314.9 317.9 320.6 323.1 324.9 326.6 328.3 328.1 327 329 328.3 327.4 328.6 329.1 329.4 329.7 329.2 328.5 327.8 327.9 328.4 328 327.9 329.8 330.2 329.4 330.8 330 328.2 326.1 322.7 318.2 315.7 312.2 308.6 305.2 301.8 298.7 293.7 291 292.3 292.7 296.3 299.6 302.1 305.2 309.3 313.7 314.5 317 317.6 318.8
254.7 235.6 218.1 206.6 196.4 187.8 184.2 183.5 182.6 182 176.4 170.3 170.6 168.4 170.4 170.3 176.3 179.9 181.9 182.1 190.2 198.1 209.4 221.5 232.8 242 250.5 258.9 266.3 273 279.8 285.1 289.8 295 300.7 308.4 313.3 319.1 319.4 320 320.4 320.5 320.9 321.4 322.2 323.4 324.6 327.2 329.9 332.2 333.2 333.6 334.2 333.3 331.1 327.7 324.3 321 316.5 311.5 306.4 300.4 291.5 283.4 274.5 268.5 261.8 253.6 244 235.5 231.6 227.2 228.5 229.6 232.1 234.8 237.6 239.6 239.8 239.1 237.5 235.3 232 228.1 222.1 213.3 201.8 187.6 190.4 192.8 218.2 233.4 247.8 263.1 275.3 287.2 298 311.4 321.5 330.8 338.4 344.6 351.7 357 359.2 361.1 362.7 362.9 361.2 359 356.7 354.4 349.9 344.9 339.3 331.7 325.9 322 318.5 316.1 310.6 308.4 307.1 305.9 304.3 304.9 304.2 304.7 305.4 305 304.9 305.4 306.3 306.7 306 307.4 308.3 307.4 306.4 306.9 308.2 309.3 308.3 306.4 306.5 308.4 309 309.5 309.1 311.1 313.8 315.9 318.2 320.1 321.3 321.4 321.4 321.7 321.8 321.8 321.9 324.1 325.1 325.5 326.2 325.6 325.2 325.3 325.8 326.3 326.2 326.9 328.3 328.9 328.3 327.3 326.1 323.7 321.6 318.9 316 312.6 309.4 306.2 303 299.9 296.2 287.8 283.6 287.2 290.8 294.4 297.6 301.4 305.1 307.6 310.5 316.4 319.6 321.1
266.1 249.1 230.4 217.3 204.3 195.6 187.5 183.3 183.4 183.1 182.7 174.6 173.3 174.1 170.3 170.3 174.7 178.5 180.9 181.8 186 193.1 204.5 215.1 227 236.6 244.4 253.8 262.2 269.5 277.4 282.6 288.2 293.8 298.5 302.8 310.7 315.4 317.3 319.2 320.2 320.7 321.2 321.8 322.9 324.1 325.3 326.5 329.7 332.8 334.7 335.2 335.6 335.6 333.8 331.1 328.3 325.3 320.3 314.8 309.3 302.9 296 288.9 280.7 272.7 265.4 257.7 249.5 240.7 232.5 229.3 222.7 225.7 227.7 230.5 233.9 238 238.9 238.3 237.3 235 232.8 230.3 225.9 219.9 205.8 189.2 189.7 192.2 222 237.1 252.6 267.2 279.3 289.8 301.4 318 328.5 337.5 346.3 353.2 358.8 363 363.9 364.9 366.6 366.7 365.7 364.4 362.2 358.5 353.3 348.4 343.6 338.7 331.1 322.8 318.6 315.2 312.6 309.7 306.7 305.4 304.1 304.1 303.7 304.3 305.2 304.5 304.5 304.8 304.8 304.7 304.2 304.3 305.7 306.1 304.8 303.6 304.8 306.3 306.2 305.1 305.6 304.6 306.3 307.6 305 305.1 306.4 308.6 311.3 312.9 314.5 314.9 315.9 316.1 316.2 316.4 316.5 318.6 319.4 320.9 322 324 323.9 322.9 323.4 323.9 324.7 325 326.2 326.6 325.9 324.6 322.5 320.2 317.8 317.6 313.9 313.3 311.3 308.5 304.7 301 298 291.8 280.9 280.4 283 287.8 292.3 296 300.6 302.4 305.1 309.3 314.7 317.1
280.6 261.7 242.3 226.2 210.8 200.5 194 187.7 183 183.2 183.2 177.8 175.4 175.2 170.9 169.2 173.1 178.1 181.1 181.4 181.9 190.4 198.6 207.4 219.9 231 238.8 248.2 257.1 265.4 273.1 280.6 285.5 290.3 294.2 299.1 304.3 310.1 314.2 317.5 320.3 321.1 321.7 322.5 323.7 324.9 325.4 326.5 327.7 331.9 335.3 337.1 337.4 337.3 336.8 335.1 332.8 329.1 324.9 318.8 312.7 306.5 299.5 292.7 285.4 276.8 268.5 260.6 253 245.8 236.7 230.5 215.6 220.7 223.3 226.5 230 233.2 236.5 237.5 237 235.2 233.6 230.3 223 215.7 205.4 188.5 186.5 204.5 225.9 238.9 252.9 269.6 282.5 296.1 307.6 321.4 334.1 343.5 352.6 360.7 367.5 370.2 370.7 370.8 369.2 368.5 368.3 368 366.2 362.4 357 352.5 345.6 342.1 335.8 328.5 322.5 316.1 311.7 309.6 307 304.8 303.3 302.5 303.3 303.4 304 304.1 303.1 304.4 304.3 303.9 303.1 302.3 303 303.6 302.4 302.2 301.1 302 303.3 303 306.4 303.8 301.5 304.1 305.9 303.2 301.2 302.3 305.4 306.1 307.2 308.5 310.4 310.5 310.7 310.8 311.3 312.2 313.5 316.1 318.3 320.2 322.3 322.4 321 321.6 322.3 323.1 323.7 323.9 323.1 321.4 319.3 317.8 316.9 315.7 314.1 312 310.1 307.8 305.5 303.2 300.8 296.8 284.8 279.4 278.7 281.4 285.3 289.8 294.3 298 301 303.3 307.7 311.7
289.9 274.1 253.8 236.8 215.3 207.4 199.5 193.6 187.2 183.6 183 180 177.6 176.4 173.2 169.7 172.2 177 181 181.2 181.7 185 193.7 201.7 214.6 224.6 234.5 243.1 251.7 259.8 267 274.2 283.7 288.7 293.3 298.8 303.6 308.6 312.9 316.1 319.4 321.5 322.2 323.3 323.8 324.3 325.4 326.5 327.6 329.5 334.6 337.9 339.2 339 338.7 337.5 335.8 332.8 328.5 322.9 316.4 309.9 302.9 296.3 289.4 280.6 273 263.8 255.8 247.5 238.9 232.9 224.5 208.7 213.3 221.8 225.2 228.4 231.8 236.1 237.2 235.6 232.3 221.3 210.4 203.6 198.1 186.5 187.9 213.6 231.3 244.4 258.5 274.7 290 303.1 313.4 325 337.8 348.3 357.1 366.3 372.9 378.4 379.3 379.1 374 370.5 370.9 371.2 369.6 364.8 359.4 355 347.4 342 337.5 331.5 327 321.8 316.9 308.6 306.6 304.1 302.6 301.5 302 302.5 303.2 304 302.5 304.9 305.1 302.9 301.9 300.9 300.5 301.2 301 300.9 300.9 297.9 301.2 300.7 303.7 302.2 299.4 300.8 301.8 302.4 300.4 297.8 298.5 300.4 302.3 303.4 305 306.4 306.5 306.6 306.8 307.5 308.1 310.2 312.3 314.8 315.6 318.4 320.6 319.5 320.1 320.3 320.6 320.5 319.7 319.4 318.6 317.2 315.4 313.7 312 310.5 308.9 306.9 304.4 304 303 298.6 294.4 287.6 279.2 276.9 278.1 280.5 286.5 290.9 295.8 299.6 301.2 303.5
299.9 282.1 261.1 245.1 229.2 216.5 208.9 203 195.1 189.4 185.5 182.1 178.9 175.9 172.8 170.8 170.6 174.6 177.1 179.9 180.7 180.6 191.6 199.5 208.1 219 229.2 238.6 247.4 252.9 261.5 270.2 279.6 285.9 288.8 294.2 301.1 308.1 311.8 314.7 317.6 319.6 322.1 322.7 323.2 324.3 325.1 326.2 327.7 329.2 333.7 337.5 339.6 340.8 340.4 339.7 338.2 335.7 331.9 327 320.1 313.9 306.6 300 292.7 284.5 276.9 269.2 259.7 251 244.1 236.1 226.9 217.7 204.4 216.2 219.4 223.8 227.7 233.1 236.4 232.7 223.7 211.8 201.2 197.2 195.7 185.2 195.2 219.8 236 249.8 264 281.3 298.1 309.7 318.6 329.8 340.1 351.3 360.7 368.5 375.5 380.9 384.8 385.3 381.7 373 370.2 371 371.4 367.6 362.5 356.9 351.4 344.3 338.8 333.8 328.5 323.6 319.4 310.8 306.5 303.7 302 300.4 300.2 300.9 302.5 303.5 302.2 303.4 303.9 303.2 302.3 301.1 298.9 299.3 299.2 299 299.2 297.5 296.7 296.8 300 297.4 297.9 297.4 298.5 299.6 301.8 298.9 295.1 296.4 298.5 298.9 300.1 302.9 302.9 303 303.8 305.2 305.3 304.9 306.6 308.5 309.6 311.6 316 315.8 319.3 318.6 318.9 318.3 317.2 316.3 315.4 314.6 313.4 311.7 310.4 309.2 306.7 305.5 303.4 303.3 302.9 300 297.1 293.2 285.6 277.8 275.5 275 278.9 285.3 289.8 294 297.1 298.1
307.1 289.4 269.4 252 237 223.8 214.2 206.6 201.9 196.3 189.7 189.1 183.9 179.3 174.9 172.8 167.7 172.5 173.8 175.2 178.4 179.6 183.1 196.8 201.6 212.2 222.6 233.2 239.7 251 259.5 267.7 274.2 280.5 289.3 296.3 302.7 308.5 312.4 314.3 315.7 317.7 320.7 322.1 323 323.6 324.7 326.2 327.8 329.2 333.3 336.4 338.7 341.1 342.3 341.6 340.1 337.6 334.5 330.5 325.2 317.8 310.5 303.5 295.8 288.1 280.4 272.7 264.4 255.1 247.8 238.6 229.3 221.1 210.1 199.7 212.6 216.8 222.6 227.5 229.4 220.3 212.7 202.7 195.2 187.3 184.4 182.1 209.2 225.9 241.2 255.5 270.1 290 303.2 314.7 325.6 333.7 341 351.3 360.3 368.8 374.3 378.5 383.6 388.4 383.7 378 369.4 366.3 368 367 363.4 357.9 351.9 346.4 340.4 334.8 329 323.6 319.5 314.6 309.4 305 301.8 300 298.4 299.3 300 300.5 301.1 302.5 302.9 302.6 301.7 300.7 298.6 296.9 297 297 297.2 296.5 295.6 293.6 293.9 294.2 294.6 295.4 293.6 295.7 298.7 297.4 295.5 291.7 292.7 297.7 296.8 297.8 300.3 301.2 300.8 302.3 303.3 303.9 303.5 302.8 304.4 306.2 309.5 311.3 311.9 314.4 317.1 316.7 315.6 315.1 313 311.1 310.2 309.6 309 307.8 306.1 304.3 302.5 301.3 299.7 297.6 295.5 292.7 289.6 282.5 276.4 273.4 272.9 275.8 283.2 288.7 290.8 293.5
308.1 293.7 277.4 256.6 242.2 233.2 220.9 211.3 205.3 198.9 197.5 195 185.4 178.6 176.6 174.3 169.2 170 172.2 177.7 180.5 179.9 180.4 191 198.6 204.7 215.2 223.5 232.7 244.9 250.7 261.4 271.6 279.1 286.8 294 300 308.3 314.1 317.1 317.6 316.9 318.8 321.5 322.2 323.3 324.8 326.3 327.8 329.1 332.8 335.3 337.7 340.2 342.6 343.5 342.1 339.3 336.1 332.8 328.8 322.9 315.7 307.9 298.8 290.5 282.2 274.7 266.7 259.2 250.6 241.2 231.8 225 218.7 200.6 195.4 204.3 207.6 208.1 216.2 209.1 201.6 191.1 183.1 181.6 183.5 201 217.2 232.3 247.4 263.6 279.6 293.7 307 319.1 328.7 337 344.1 349.6 358.4 366.2 371.2 375.9 378.6 380.4 380.9 378.6 371.7 364.5 361.5 363.5 362.9 358.2 352.7 346.7 341.3 336.1 330.9 325.2 320.2 317.1 313.4 306.9 303.3 301 298.7 297.3 297.3 299.4 300.5 301.3 301.6 301.4 300.6 299.4 298.4 296 294.9 294.8 294.7 294.2 293.2 291.9 292.3 292.6 293.5 293.7 293.1 293.1 292.6 293 292.7 293.9 290.4 290.1 294.3 294.3 295.9 296.6 297.6 298.1 298.8 300.9 302.5 302.7 301.4 301.4 302.9 304.6 305.9 306.6 309.9 311.8 314.3 313.3 312.8 310.5 308.4 306.6 305.4 305.3 305 303.2 300.9 299.2 297.4 295.2 293.6 291.9 291.5 287.9 280.9 274.8 271.8 269.5 275.4 280.3 287.6 288.8
299.9 293.2 280.3 262.6 247.3 240.6 229.9 216.9 208.7 204.6 200.6 197.7 188.9 184.4 179.7 175.3 172.4 169 170.9 171.5 179.4 178.9 179.9 183.2 198.1 199 207.9 216.9 231.7 244.8 253.5 262.6 269.3 276.2 282.9 290.6 296 306.2 314.3 320.4 322.9 319 318.9 320.6 321.7 323.3 324.8 326.3 327.7 329.1 331.8 334.4 337.1 340.1 343.1 344.5 344.1 340.9 337.9 334.9 331.8 327 320.6 312.1 302.2 294.1 285.6 276.5 267.6 261.1 253.8 244.9 235.6 228.3 221.6 215.3 203.4 191.2 190.3 188.3 188.9 197.9 186.7 182.7 180.5 183.8 188 207.7 224 240.8 255 269.6 284.4 297.8 309.6 320.4 330.3 338.9 345.4 350.5 356.6 361.7 367.5 371.2 373.5 374.8 375.4 373.8 371.6 365.4 359.7 355.5 355.3 355 351.8 346.3 341.4 336.2 331.8 326.7 321.8 317.7 313.6 308.6 304.8 302.5 300.5 297.7 296.7 297.5 298.7 299.5 299.8 300 299.4 298.1 297.1 295.7 293.7 292.2 292.2 291 289.7 289.8 290.9 292.2 295.2 291 291.3 289.8 287.8 289.1 288.8 289.9 289.9 288.3 287.3 292.1 291.5 291.7 293.6 294 294.4 295.3 297.7 300.2 302 301.7 298.7 299.8 302 301.7 302 302.6 308.8 310.5 309.7 309.6 307.7 305.7 304.2 302.6 302 301.6 299.2 297.7 296 293.7 292.2 291.6 288.7 287.4 281.4 276.2 272.2 268.9 269.5 273.4 277.9 282.1
299 289.8 283 267.8 252 240.3 232.9 222.4 214.2 207 203.2 193.3 187 185.9 181 177.9 177.4 170.2 168.8 170.9 174.5 177.4 179.4 181.5 187 192.9 203 214.6 227.5 239.9 249.9 257.8 267.2 274.9 281.6 287.8 295.8 305.8 313.9 321.4 323.7 324.4 321.3 321.2 321.2 321.9 323.9 326.1 327.8 329.1 331.5 335.4 338.2 341.3 343.9 344.9 345.1 343.2 340.2 337.9 334.3 330 324.7 316 307.1 296.7 288.1 279.1 269.9 262.6 255.1 246.4 237 230.5 223.5 216.4 196.8 188.7 187.4 185.8 185.2 185.1 185.6 179.9 182.1 188.8 205 222.6 233.5 244.7 256.9 268.5 281 297.4 312.2 324.1 329.2 338 346.1 351 354.8 357.7 361.5 365.7 367.8 369.2 369.9 369.1 367 364.6 358.6 352.5 349.5 346.8 346.1 345.5 341.9 337.6 333.2 328.9 324.6 319.9 316 311 306.3 304.4 302.5 299.7 296.3 295.3 296.6 297.6 297.7 297.7 297.3 296.7 295.7 294.8 292.9 291 290.1 288.4 287.2 288.1 289.7 292.5 294.2 291.3 287.4 286.9 289.1 286.2 286.2 285.6 285 285.5 284.7 288.9 288.6 288.8 291.8 292.1 292.4 292.5 292.5 295 297.5 299.8 300 297.3 298 299.5 300.1 297.1 300.4 302.4 303 303.8 301.8 302.8 302.6 301.1 300.3 299.5 297.6 296.2 294.6 292.5 290.9 291.4 290.2 287.7 277.9 273.9 271 269 266.8 268.2 270.8 276.1
298.7 284.1 275.3 265.8 252.4 247.4 239.2 230.9 222 210.7 205.7 194.2 189.6 187.1 182.1 179.2 177.5 173.5 168 169.5 173.1 177.2 178 179.5 183.8 192.9 199.5 209.8 220 230.7 244.5 256.1 267.3 275.5 282.2 288.6 294.2 300.5 310.5 317 323.3 324.6 323.9 321.2 321.2 321.2 322.2 325.3 327.9 329.3 331.7 336.3 339.9 342.7 344.3 345.2 345.4 344.3 342.2 339.4 336.1 332.4 327.4 320.9 312.5 302.2 291.4 281.7 272 264.6 256.3 247.7 238.4 233.1 224.3 201.3 187.9 186.1 185.3 184.3 183.9 184.3 181.9 178.8 183.4 203 226.6 229.6 234 241.8 252.6 263.6 276.9 295.4 310.9 323.2 329.5 334.9 342.1 348.2 351.6 353.4 355.8 358.4 360.6 363.1 364.5 364.8 363.4 359.9 356.5 352.2 347.5 342.5 339.2 338.5 338.5 337.4 333.8 329.1 325.1 321.1 317.1 312.5 307.5 305.2 303.6 301.2 298.5 293.4 295.7 295.6 295.6 295.5 295.4 294.1 295.1 294.4 292.6 290.6 289 287.4 285.6 287.4 287.3 293.2 290.3 288.2 287.1 286.9 288.1 284.3 285.1 284.2 283.5 283.6 283.1 283.5 286 285.9 287.3 288.9 289.1 288.7 289.1 289.5 290.9 293.4 295.5 297 296.4 294.7 296.7 295.7 293.5 293.2 295.5 294.1 292.1 293.8 296.7 297.9 298.1 297.5 296.3 294.6 293.2 291.2 290 291 291.6 287.9 282.3 272.1 270.1 269.5 266.5 264.9 265.5 268.4
