ncols 200
nrows 82
xllcorner 270000
yllcorner 241100
cellsize 50
405.8 403 395.4 381.7 354.2 322 295.2 268.4 241.6 218.8 194.3 187.9 186.6 189.3 194.7 207.8 225.4 246.7 274.1 297.3 314.1 330.5 349.5 366.5 378.7 389.3 395.1 400.5 404.8 408.7 412.4 415.9 421.2 425.6 428.5 431.3 434.1 436.7 439 441.5 443 442.4 441 440.4 439.4 439.9 441.4 442.2 442.3 443.2 446.2 445.9 444.5 441 435 429.6 427.8 427.1 427.1 428.7 432.5 436.2 440.3 440.2 440.4 438.5 434.5 430.6 424.3 419.3 416 414.1 412.6 413.3 412.5 411.7 414.7 417.9 419.2 416.4 412.9 409.4 406.5 402.8 394.9 387.6 369.5 342.6 332 328.5 337.6 354 355.4 349.8 343.3 331.9 306.8 275.6 241.3 215.3 223 235.8 249.2 265.1 281.9 303.4 329 353.7 358.7 358.7 357 352.7 343.1 332.6 326.6 303.6 275.3 253.5 231.8 213.7 195.8 175.2 159.2 147.4 142.3 132.2 124.6 127.5 130.6 125.5 115.5 123.2 124.5 124.2 124.2 123.6 123.8 130.2 156.5 187.5 215.5 241.6 272.5 292.2 302 310.8 319.1 324.5 325.9 331.3 333.3 336.5 330.9 312.9 280.1 250.7 234.7 227.7 247.8 267.9 291.7 315.1 332.3 344.2 351.5 358.6 364.8 365.9 370.2 372.3 355.9 331 310.5 293.5 281 270.7 265.4 265.6 276.2 283.7 291.3 301 313.3 327.7 342.7 358.8 372.3 385.5 399.1 412.1 425.5 435.7 443.7 453.2 460.3 468.2 463.2 459.9 453.5 442.7
402.6 394.8 377.7 353.9 326.2 299.4 272.1 246.8 225 204.4 185.8 187.8 188.3 187 203.8 220.8 241.3 265.9 290.1 308.5 322.2 340.4 358 371.2 382.5 392.4 400 405.2 409.4 412.2 415 418.8 422.9 425.9 428.2 430.6 432.8 434.5 436.4 438.9 439.2 439 438.6 438.5 438.1 439.8 440.6 440.9 441.4 442.5 444.9 445.5 443.8 440.9 436.5 432.3 431.2 430.6 430.7 432.9 436.1 439 441.4 440.5 439.9 437.3 433.5 429.4 425.5 422.1 420.5 419.9 419.4 419.4 416.8 416.4 420 423.8 422.7 419 415.7 411.6 408.3 402.6 393.6 377.3 359 339.9 338.9 344.2 359.2 369.7 362.3 353.5 343.4 326.8 293.2 262.9 235.9 235.8 245.6 258.3 275.5 291.3 306.3 332.4 358.4 367.7 369.5 369.3 370.1 367.5 365.7 360.8 358.8 328.8 309.8 286.5 253.7 232.7 212.9 194.3 173.2 157.5 146.1 141.1 127.9 123 122.2 120.8 118.9 120.8 123.6 123.2 123.9 122.6 123.1 132.3 159.9 191.1 220.1 249.3 275.7 286.4 297 307.4 314.6 318.7 321.7 325 326 318.2 305.5 286.4 259.2 229.7 214 224.9 245 266 293.7 315 329.7 334.6 342.4 351.6 356.3 360.7 366.8 363.6 331.2 309.3 289.3 276.1 265.8 261.3 256.4 265.1 274.4 282.7 291.1 302.5 315.7 331.2 346.7 361.9 377.4 393.2 406.2 420.3 432 438.1 447 455.1 461.4 462.7 461 457.5 449.1 439.9
391.7 373.1 349.6 325.8 300.8 274.9 250.3 229.7 208.6 186.3 186.4 187.1 191.4 200.7 215.7 236.4 258.6 282 302.9 316.8 331.3 346.9 361.8 374.2 386.6 396.9 402.3 407.8 412.3 416 418.4 420.8 423.1 424.9 426.9 429.6 431.5 433.2 434.8 435.5 436.5 435.6 436.5 436.9 437 438.2 439.2 439.6 441.2 442.9 445 446.7 445.4 443.8 439.2 435.7 434.7 434.2 435.1 437.3 439.7 442.6 441 440.1 438 435 432.4 429 427.1 426 426.7 425.6 424.2 423.3 422.9 422.5 425.7 427.5 424.6 421.6 419 414.6 410.9 405.3 397.9 386 362.8 348.6 349.4 364.7 375.8 374.8 364.3 354.4 339.3 310.4 281.1 254.1 251.5 259.9 269.6 283.4 302.8 318 338.3 366.1 374.7 376.4 378.4 379.2 379 377.6 377.7 370 368.4 354.1 338.1 314.6 285.4 255.4 234 217.5 193.4 174 157.3 146.6 139 126.2 123.1 121.3 118.5 119.7 121.8 122.4 122.9 122.3 123.1 135 162.3 197.1 225.8 246.9 264 279.2 296 305 310.2 315 315.6 312.4 300.1 287.9 276.9 263.8 241.3 211.4 203.4 221.5 242.6 265.7 288.9 305 310.8 315.4 324.2 333.1 341.8 355.5 367.1 341.6 312.6 289.9 271.1 259.6 254.5 253.7 253.9 265.1 273.5 282.1 292.2 305.4 318.9 334.2 350.2 366.9 385.6 400.9 414.4 426.5 438.3 442.9 450.1 455.8 461.8 460.3 458.5 452.8 446.5 433.2
370.1 348.5 322.3 297.6 274.5 251.9 231.5 211 189.3 186.4 188 190.9 197.8 211.1 229.8 249.2 270.9 292.2 308.8 324.1 340.5 356.5 368.6 379.6 388.9 396.9 403.9 409.6 414.6 418 419 420.2 421.7 423 425.3 428 429.7 431.7 433.1 432.8 432.1 433 434.4 434.7 435.3 436.3 437.5 439.3 441.8 444.5 447.2 448.2 448.2 445.2 442.4 440.2 439.2 438.9 439 439.6 442.5 442.9 440.3 438 434.8 433 430.8 430.1 430.1 430.1 430.9 430.4 429.1 428.7 428.5 428.1 430.7 430.5 426.4 424.1 421.5 417.2 413 408.3 399.1 385.1 357.8 358.2 365.9 381.6 383.8 374 361.8 348.9 324.4 296.9 271 268 276.7 286.8 295.9 310.2 326 348.9 371.6 380.2 382.1 383.4 385.2 386 385.8 386.6 383.3 374.6 370.4 367.3 356.9 344.7 316.3 279.1 258.9 239.4 217.6 192.4 173.3 156.5 145.8 140.3 137.4 132.1 118.5 119.3 121.3 121.4 123.3 123.2 123 133.8 159.4 185.2 212.4 232.2 256.7 281 297.6 303.7 307.8 308.7 297.7 284.5 271.2 260.8 253.5 244.6 223.6 193.2 201.4 219 241.7 260 272.5 281.4 287 296 307.8 315.1 331.4 342.6 342.9 316.2 292.2 272.5 255.8 246.6 247 247.6 252.4 264.4 273 282.5 295.6 308.5 323.3 337.8 356.5 375.9 393.5 409.5 419.8 435.3 440.7 446.3 455.1 457.5 458.8 458.1 455.6 448.7 441.8 437.9
344 320.3 293.9 269.2 250.9 234.3 214.5 194.1 185.3 187.7 191.9 196.6 207.8 223.3 241.5 260.3 278.2 294 312.4 330.4 347.3 361.3 373.2 381.3 390.2 398.9 406.1 411.9 415.5 417 417.8 418.4 419.2 420.6 423.4 426 427.6 429.4 430.1 429.8 429.5 430 431.3 432.5 433.9 435.5 437.5 440.2 444.6 448.3 449.9 449.8 447.8 445.7 444.6 443.5 442.9 442.3 441.3 441.2 442.2 440.5 438.2 434.3 431.4 430.2 430.3 431.6 431.7 432.5 432.9 433.5 433.8 433.8 433.7 435 435 432.1 428.3 426 422.4 418.1 414.6 408.1 393.4 375.4 368.3 375.1 380.5 387.7 383.8 369.1 355 335.4 311.5 292.6 288.3 299.9 307.3 314.6 327.2 342.6 359 380.2 385.3 387.6 388.9 391.3 391.9 391.2 391 390.3 385.2 377 373.7 368 364.9 356.2 336 312.5 288.6 261.8 239.1 215.4 190.6 171.8 155.4 145 141.1 136.6 114.8 119.3 120.6 121.1 121.5 123.1 123 130.4 152 177.2 203.7 229.5 254.6 276.2 292.3 295.9 291.9 283.1 266.9 253.9 246.2 239.5 232.9 223.6 210.5 183.8 198.4 216.9 232.7 244.2 251.6 257.7 264.5 275.2 280.6 294 306.8 312.8 308.9 286.7 268.7 254.2 241.7 237.3 237.7 242.8 255.7 264.5 273.7 285.2 299.3 313.7 328.9 346.8 366.8 384.1 401.6 414.6 426.8 437.2 442 450.1 454.8 456.5 457 455.9 449.6 446 444.3 439.6
312.5 288 266.1 249.2 233.1 216.8 199.5 182.8 186.2 190.2 196.9 203.7 217.5 234.8 251.8 266.2 279.2 294.2 308.6 327.5 345.4 359.2 370.9 382.2 392.4 401.4 408.1 412.2 414.5 415 414.7 415.3 416 418.4 420.8 423.4 424.3 424.8 423.7 424.9 425.8 428.8 430.5 432.5 434.5 436.3 438.4 441.7 447.6 450.3 450.7 449.1 446.8 445.4 445.3 444.6 443.8 442.9 442.2 441.8 439.4 437.6 434.2 429.8 428.5 427.8 430.2 432.1 433.4 434.6 436.2 435.6 436 437.4 439.2 440.7 437.7 434.1 430.1 426.3 422.5 420 418.8 410.1 398.8 381.5 389.5 391.5 389.8 386.2 375.7 361.8 345.8 322.7 310.7 310.8 323.1 339 347.7 352.5 364.9 378.7 386.5 389.7 391.9 393.5 394.9 395.2 395.6 397 396.6 392.5 387.5 380.8 375.3 371.8 370 358.7 348 345 326.5 293.9 264.1 239.2 215 187.6 167.1 150.4 142.4 137.9 116.8 117.8 120.1 120.2 120.7 121.9 122.7 126.4 147.6 168.7 189.9 213.7 234.3 251.9 265.2 263.3 253 241.5 233.1 232 224.7 217.4 207.6 201.7 191.3 177.1 193.9 209.9 218 225.3 232.1 237.2 243.2 251.5 259.5 276.5 287.7 292.3 283.3 262.3 246.2 234.9 229 226.8 233.3 244.7 255.3 265.1 276.7 289 303.3 320.7 338.2 358.6 375.6 391.7 410.8 419.6 432 436.7 444.4 451 451.7 456.6 455.9 451.9 446.9 445 441.5 437.3
280.2 261.2 246.1 231.2 215.5 198.1 187 185.6 190 195.4 203.1 213.5 228.3 243.8 256.3 267.4 279.6 291.3 305.2 320.6 340.4 357.1 370.1 381.9 392.8 400.5 405 409.1 411.8 410 409.6 409.5 411.6 414.5 416.4 414.8 413.4 413.7 416.9 421.5 425.8 430.3 433 434.9 436.4 437.7 438.9 442.9 447.3 449.8 449.6 446.4 444.8 444.5 445 444.8 443.2 441.9 440.9 438.7 435.8 433.6 429.4 424.8 425.6 427.1 430.9 433.9 434.4 435.3 437 438.2 441.2 441.6 443.4 442.7 438.9 435.5 431.4 426.3 422.3 420.5 417.3 412.9 400.3 400.2 399.2 397.6 394.4 385.6 373.2 356.8 337.5 331.9 338.6 347.2 359.2 368 375.8 379.6 385 390.1 393.1 394.7 396 397.8 398 398.4 399.7 400.2 397.6 391 387.8 381.1 375.5 374.4 368 358.2 355.2 354.1 338.3 303.9 275.7 246.6 218.5 188.3 167.9 154.2 146.3 141.4 132.7 113.2 118.4 119.7 120.1 120.1 120.8 123.7 136.5 150.1 166.5 186.5 208.2 216.9 222 220.7 215.1 209.7 207.4 206.8 206 194.1 185.7 183.3 176.7 172 187.8 197.6 203.7 209.7 214.8 219.6 225 227.5 246.5 259.5 268.7 272.6 258.7 238.8 227 223 219.6 224.9 234.5 245 255.8 267.4 279.4 292.6 308 325.3 346.6 368 384.2 403.9 416.6 423.3 431.5 437.6 446.3 449 454 455.4 454.1 449.5 445.3 441.9 438.3 432.8
255.5 241.7 227.1 212.4 197.9 186 185.1 187.2 193.4 200.2 210.3 223.9 237.8 248.6 258.9 269.8 279.5 289.7 304.4 320.1 335.2 351 364.2 376.8 385 390.6 394.8 398.8 400.8 400.5 400.9 403.5 404.8 406.3 401.4 395.7 405.4 415.6 421.4 426.2 432.7 435.1 436 437.2 438.3 437.7 438.6 442.9 445.6 447 446.2 443.8 443.1 443.3 444.1 444.4 442.4 439.9 437.5 434.1 430.7 428.3 422.5 422.3 424.9 427.2 431.7 434.5 436.7 439.5 439.9 443.4 445 444.8 446 442.6 438.2 434.6 430.7 426.2 422.2 420.8 417.8 412.2 407.9 403.9 400.4 400 395.6 384.6 368.2 353.2 353.9 358.8 367.6 372.3 375.4 380.1 384.3 387.7 391.8 394.9 396.1 397.4 399.6 401.1 402.3 403.6 404.2 401.3 395.8 390.8 386.6 379.4 377.6 377.6 367.6 361.3 358.4 353.7 335.8 297.4 263.3 232.5 207.2 186.5 173.8 166.6 158.4 150.1 142.1 131.4 112.2 117.9 119.1 119.3 119.6 120.3 128.4 138.4 149.8 164.4 175.7 184.2 190.3 193.7 189.5 184.5 183.7 184.9 180.6 173.4 170.1 168.4 163 164.9 175.8 182.2 187.1 192.5 197.4 200.8 205.5 214.1 229.9 242.2 252 253.7 233.5 219 215.9 215.6 216.9 227 236.1 246.6 256.4 267.7 281.5 295 311.2 330.1 355.4 377 394.7 410.8 418.8 426.1 431.3 438.5 444.8 448.8 453.2 453.5 451.2 445.9 442.7 438.7 433.7 427.2
233.4 223.3 209.1 193.6 183 183.8 187.5 193 199.5 207.2 218.5 231.4 240.9 251.4 262 270.8 279.2 288.2 302.3 318.2 332.5 344.5 355.8 367.4 374.2 378.4 381.9 385.9 387.3 387.7 393.1 392.3 391.3 385.1 380.4 398.1 410.6 419.5 427.6 432.9 436.3 437.9 438.9 439 438 437.1 437.6 440.5 442.4 443.9 443.2 441.2 441.4 442.3 443.1 442.8 440.7 437 432.7 428.5 424.7 421.1 418.5 420.8 424.5 428.7 432.4 434.4 437.5 440.7 443.7 445.1 445.9 444.8 444.3 440.7 437.6 434.4 430.6 425.3 422.6 420.5 415.6 411.8 407.4 403.1 401.8 401.3 393.7 378.6 370.6 370.6 375.4 379.9 381.8 382.5 383.9 386.7 389.8 393 395 396.6 398.3 400.2 401.6 402.9 405.2 407.7 404.7 400.8 394.3 391.2 385.9 380.2 380.2 378.4 368.6 364.4 359.6 349.8 331.8 303.6 265.9 238.7 221.7 206.1 194.3 184.8 176.1 166.8 157.6 145.8 129.7 112 117.5 118.9 118.8 118.7 120.7 127.6 136.3 146.1 155.8 163.8 170.6 172.7 166.3 164.4 164.6 165.7 162 159.1 158.7 157.9 153 156.4 162.3 166.3 170.1 174.6 178.2 182 188.8 201 213.1 224.6 231.6 231.1 213 208.2 209.2 209.4 220.6 227.7 238.1 247.1 255.9 267.7 281.3 298.8 317.2 340.4 365.1 384.5 401.4 414.2 420.6 425.3 432 438.8 445.6 450.4 452.3 450.4 447.2 442.5 437.9 433.9 429.9 422.8
215.3 204.7 191.9 183 185.5 188.9 194.1 199.9 207.3 216.2 226.5 236.2 244.8 254.6 264.6 272.8 281.9 290.3 300.1 315.3 330 341.3 349.1 356.7 362.7 364.5 367 369 370.4 374.1 376.5 378.1 372.1 371.5 389.5 405.7 416.2 425.6 432.8 436.6 439.4 441.3 441.7 440.4 438.1 435.8 435.4 437.6 439 439.5 438.7 438.7 440.5 441.9 442.3 440.5 438.5 434.2 428.1 421.6 416.8 415.1 416.1 420.1 426.5 432 435 437 440.2 442.6 443.4 446.6 444.2 443.9 442.4 439 435.9 432.6 427.6 423.8 421.3 416 411.2 409.7 405.2 402.7 403.1 400.6 390.7 384.7 385.8 388.8 390.4 388.6 387.8 387.6 388.6 390.9 393.5 394.8 395.9 398.2 400.1 401.7 403.1 404.8 406.6 405.6 403 399.7 396 391.2 386.3 382.3 382.3 375.3 371.4 364.7 359 352 338.5 314.7 287 263.8 243.3 226.9 215.8 205.8 197.1 189.3 178 163.1 146.4 129.7 112.7 116.6 117.8 118 117.3 118.4 124.3 131.3 139.6 145.6 148.4 148.5 148.3 149.5 149.8 149.9 149.8 149.6 149.9 148.1 146.3 148.2 150.2 152.6 156.3 160.2 164.1 169.1 175.8 184.9 194.2 204.3 211.3 208.4 200.3 201.4 205.9 217.7 223.6 230.5 238 245.4 255.6 268.4 283.4 302.5 323.4 353 374.3 390.4 410 417.8 420.6 425.9 432.3 440.6 448 450.4 449.5 446.8 442.8 438.7 434.6 430.5 425 417.7
198.9 187.7 181.4 185.8 190.2 195.8 201.4 207.4 216.3 225.6 234.2 242.6 252.8 262.8 272.5 282.9 293.6 304.4 313.5 321.3 331.2 338 342.8 346.2 349 350.3 351.2 352.5 352.3 358.7 363 362.2 365.9 384.5 399.3 410.4 420.9 431.5 435.9 438.7 442.2 444.2 442.7 440.6 437.8 434.7 433.8 433.3 433.8 434.3 435 437.7 440.8 441.6 441.6 438.8 435.1 428.8 421.7 415.6 412 412.8 415.6 421.5 429.5 434.1 436.4 437.6 438.5 440.5 444.3 442.4 441 441 439 436.2 433.5 429.2 423.8 421.6 415.6 409.5 407.9 406.1 403.4 402.4 403.1 400.1 396.6 396.1 397.6 398.1 395.9 391.8 390.7 390.6 391.7 393.2 394.7 395.6 396.6 398.9 400.8 402.8 405.8 407.8 406.8 404.1 401.9 398.9 396.9 392 389.6 384.6 380.3 375 371.5 365.5 364.8 357.1 348.5 334.4 309.8 287.6 272.7 260.1 246.3 235.5 225.6 207.6 198.1 187 167.1 148.8 130 118.6 112.8 116.1 116.7 116.5 116.3 121.2 127.3 132.1 135.7 137.2 138.9 140.6 142.2 142.8 142.4 143.2 142.1 141.7 146.7 150.6 155.1 160.7 163.6 166.5 166.8 168.6 170.6 173.9 178.5 184.7 193.4 193.4 193.8 202.9 216.4 222.5 227.3 232 238 245.5 256.7 271 288.4 313.5 337.5 362.1 378.4 402.7 411.6 416.3 419.3 424.2 433 442 447.1 447.9 445.1 441.1 437.3 436.8 431.5 425.7 419 409
182.3 181.1 185.6 191.1 197.8 204.4 211.9 220.5 229.4 240.1 249 256.7 267.1 277.6 288.4 298.8 307.9 316.3 324.3 328 332.5 334 336.3 337 337.1 336.8 337.5 339.1 341.1 346.2 348.5 359.1 375 391.7 402.1 414.7 426.9 432.2 435.7 440.5 443.2 443 441.6 439.8 437.2 433.8 431.2 429.8 429.1 429.8 434.6 437.9 440.5 441.7 440.7 437.3 430.7 424.1 417.3 411.3 410.1 411.6 415.1 424.8 431.7 434.8 436.9 438.5 438.5 439.6 439.4 438.6 437.2 436.1 434.9 432.8 428.9 424.4 418.7 413.8 409.3 405 403.8 402.1 400.5 402.8 402.3 400 399.4 399.1 399.5 397.9 394.8 393 392.7 393.1 393.7 393.9 394.3 395.5 397.3 399.1 401 403.3 405.2 406.1 403.8 402.6 399.5 396.4 394.8 392.3 391.1 386.9 383.9 381 373.9 370 365.8 360.4 355 350.1 336.5 312.7 296.9 286.5 277.2 260.7 239.6 214.7 207.4 197.2 185.1 165.9 146.8 128.3 120.1 114.2 111.8 114.8 115.2 115.6 119.5 123.8 128.5 130.8 133.8 136 137.4 138.2 139.4 138.4 140.5 147.1 152.5 159.2 167.6 175.9 181.5 185.9 187.8 188.8 186.1 185.6 185.4 184.6 185.8 189.1 196 204.6 213.9 222 228.2 234.3 241.4 247.4 257.5 274.7 301 324.2 341.9 355.1 382 404.9 412.9 412.5 415.7 423.6 434.4 442.4 444.3 442 438.5 434.6 433.4 430.1 425.2 417.5 406.1 395.9
181.2 185.1 192.4 199.4 208.2 217.1 226 235.8 246.8 259.1 269.9 277.3 286.8 295.2 303.2 309.4 316.2 321.1 324.4 326.2 326.2 325.9 325.6 324.8 324.3 324.6 325.8 325.7 329.4 335.9 348.9 364.1 381.5 393.5 406 417.7 425.2 431.3 437.3 440.5 441.6 441.4 440 438.6 436.2 432.3 428.9 426.1 426.6 430.8 436 438.8 440.5 441.2 438.8 434.4 427.7 419.8 413.1 409 408.2 410.8 415.2 423.7 430.6 433.6 435.2 436.4 438.3 438.1 437.4 436.5 435.3 433.7 431.4 428.9 424.8 418.5 412.9 409.2 404.5 400.9 397 395.7 395.5 398.4 399.9 398.3 396.7 397.7 396.3 394.6 392.9 392.3 392.5 393.2 393.2 392.3 393.4 394.6 396.6 398.8 400.8 402.7 403.1 403.1 401.1 399.8 396.1 394.3 393 391.1 390.2 387.3 385.2 383.5 379.9 376.1 372.2 366.5 361.1 354.5 348.8 340.5 325.5 313.2 296 270.6 242.1 217.9 200.1 189 173.7 160.9 148.3 133.2 126.5 121.5 118.5 118.4 117.5 116.2 111.8 117.8 121.2 123.6 127.4 130.5 134.1 135.3 135.1 134.4 145.6 151.9 161.3 171.3 182.4 194.7 205.1 211.1 212.8 211.5 208.4 207.4 204.8 198 196.1 198.6 205.9 215.5 224 229.7 232.2 238.6 245.2 254 262.4 283.8 307.2 326.7 345.2 362.6 394.3 406.4 407.9 407.4 414.7 425.4 434.8 440.2 438.1 435.4 431.8 429.5 427.5 423.2 417.9 405.3 392.8 391.1
187 193.8 202 210 219 228.2 239.5 251.6 263.2 276 287.1 294.9 300.9 306.4 310.9 314.1 316.3 317.6 317.9 316.1 314.9 313.9 313.3 313.2 313.7 313.8 313.8 317.3 325.7 338.9 357.2 373.5 387.6 399.6 408.8 415.3 424.2 432.6 435.7 438.1 439.4 439.2 438.4 437.3 434.5 430.1 425.8 423 425.8 431.3 436 438.3 439.2 438.8 434.8 429.6 423.9 416.9 408.9 406.3 407.3 410.6 415.7 424.6 431.1 433 434.6 437.3 437.8 437.3 437.1 436.2 434.3 431.6 429.1 425.9 421 415.9 412.4 408 401.8 397.4 394.1 391.6 390.4 392.1 393.5 391.9 391.8 393.8 390.1 389.5 390.5 390.1 390.2 390.2 389.8 390.3 391.5 393.8 395.9 398.1 400 400.8 400.5 399.2 399.1 397.1 395 394 392 390.4 389.4 389.4 389.9 388.2 384.4 380.3 376.3 370.8 364.8 358.1 353.6 351.6 346.8 328.8 302.8 271.4 238.5 212.6 191.7 172.4 157.5 148 139.4 132.2 128.2 122.3 120.1 118.3 118.1 117.3 115.1 115.7 117.3 117.8 119.7 124.9 128.7 128.8 128.9 138.3 148.1 159.4 171.7 184.8 198.7 211.1 225.6 237.1 239.5 237.1 233.8 231.5 228.7 222 216.6 215.8 219.7 227.2 235.3 240.8 242.8 245.4 251.7 260.7 276.6 297.8 315.7 339.1 353.7 374.6 401.8 405.6 399.7 405.4 415.5 426 434.4 435.2 431.2 428.9 426 421.5 418.1 414 405.8 388.2 381 389.4
195.1 202.7 212.4 221.3 230.5 240.9 252.4 264 276.8 287.9 296.1 301.8 305.7 309.2 310.7 311.4 311 309.1 306.5 304.7 303.5 304 304.3 303.9 305.1 308.9 320.3 331.2 342.5 352.8 363.9 380 392.8 402.5 409.7 415.9 424.3 428.7 433 436.2 437.7 438.1 437.8 435.9 432.7 427.1 422.4 419.7 425.2 431.2 434.4 436.3 437 434 428.8 423.9 417.5 409.4 404.8 404.6 408.5 412.3 419.7 428.1 431.3 435 436.5 437.6 438.2 438.1 437.1 434.7 432.1 429.3 426.3 423 418.8 415.3 412.3 408.3 404.4 400.5 396.6 393.2 389.6 386.3 386.7 386.5 387.9 385.5 384.6 384.2 384.4 384.3 384.9 385.3 385.5 386.9 389.9 393.4 395.8 397.2 398.6 398.3 397.1 396.7 395.8 394.5 392.5 391.8 389.4 388 388 389.9 390.6 388.6 385.4 381.3 377.6 372.1 367.3 362.3 356.7 353.9 349.2 331.5 300.2 266 233.2 207.8 185.2 167.4 158.3 149.7 142.2 135.4 130.2 122.8 120.2 119 118.3 118.7 115.6 111.8 116.1 117.3 117.8 119.6 123.2 125.2 132.3 141.3 150.9 165.5 181.1 196.6 210.7 223.4 238.6 254.5 265.2 269.5 266.2 261.4 257.3 250.2 243.8 241.4 244.4 248.9 254.4 259.7 263.3 260.6 261.4 269.8 287 304 324.6 343.2 359.7 390.3 400.1 392.2 394.6 404.9 416.3 425.8 430.3 428.4 424.3 421.9 418.7 414.3 408.9 404 390.6 376.4 379.4 389.5
203.7 212.8 223.5 233.1 243 253.7 264.4 275.2 285 293.1 298.7 302.6 305.2 307.1 307.4 305.7 302.2 297.9 294.9 293.5 293.2 293.7 298.7 306.9 313.8 323.9 336.3 347 357 366.1 377.1 391.6 398.9 402.8 409.3 418.9 421 424.5 428.7 434.5 437.8 438.1 437.2 434.4 429.2 423.3 419.6 416.9 423.5 428.3 431.1 432.8 430.8 426.7 422 417.6 411.9 404.6 402.6 407.4 410.6 415.5 423.3 429.1 432.6 434.6 436.3 437.3 437.9 437.3 435.5 432.7 430 427.1 423.9 420.6 417.1 414.7 413 409.6 405.6 401.6 397.6 394.6 391.3 387 383 382.4 380.1 378.5 377.8 378 377.6 377.7 378.8 379.8 381.1 384.2 388.1 392.7 395.3 396.4 395.8 395.3 393.9 393.8 392.8 391.2 389.8 388.2 386.8 384.8 385.9 388.2 387.3 385.9 383.7 380.9 376.5 371.8 366.2 361.5 357.5 351.2 343.1 328.1 296.2 258.6 227.4 202.9 183.2 176 162.9 151.7 144.7 138.7 131.5 123.8 120 119.5 119.6 119.8 116.7 112 115 117 118 119.7 121.7 125.3 132 141.4 153 170.4 188.6 205 220 233 247.3 265.6 281.7 292.9 296.3 292.5 285.3 279.4 272 267.4 270 275.7 280.1 282.6 283.7 279.3 276.5 284.6 295.8 311.8 333 347.2 371.1 396.1 389.9 386.4 394.5 406.1 417 423.8 425.4 420.5 417.2 414.3 409.6 403.8 398 389.9 377.5 373.6 380.8 390.8
213.6 222.8 232.6 242.3 252.3 262.2 271.7 280.5 287.6 292.5 296 299 301.3 303.7 303.2 298.4 290.5 285 285.1 289.2 294.7 301.9 309.2 318.2 328.6 340.4 353.3 365.8 377.8 386.1 392.7 397 399.5 404.1 413.9 414.5 417.6 421.4 430.6 436.3 438.8 437 435.7 430 423.9 421.4 419.5 413.6 418.1 423.6 426.1 425.2 422.6 419 414.3 409.6 401.5 399.9 405.1 410.6 414.4 418.2 424.6 429.5 434 434.8 435.3 435.9 435.6 435.5 433.4 430.7 427.7 424.7 421.4 418.4 416.4 414.4 413.2 410.3 406.1 402.6 398.4 394.9 391.5 387.9 384.8 383 381.7 380.8 377.3 371.5 370.8 371.9 373 374.5 377.1 380.6 385.6 390.1 392.7 393.2 392.3 391.5 391 390.8 390 387.9 386.5 384.4 382.7 380.6 382.5 385.6 386.5 384.1 381.4 380 376.8 372.1 366.1 358.9 354.4 345.1 333.7 320.6 289.3 250.2 221.1 200 193 183.8 167.4 153.2 144.3 139.1 133.9 126.4 120.1 119.1 119.5 119.9 118.1 111.2 114.6 116.8 117.8 118.7 120.1 123.7 127.8 140.3 153.6 172.9 191.3 208.5 224.8 238.1 254 271.7 291.4 304.6 310.2 308 301.3 295.9 293.4 290.8 293.1 297.9 302.7 303.3 299.9 293.5 292.5 297.9 303.9 316.1 336 353.8 381.8 385.8 378 383.6 394.8 407.5 416.7 421 417.4 413 410.6 406.8 400.8 393.4 384.6 375 370.5 373 383 391.8
219.9 228.8 237.8 246.2 255.2 263.9 271.8 278.6 283.4 287.2 291.3 294.9 298.1 301 298.1 288.1 279.9 281.5 289.6 299 307.5 317.7 326 336.9 349 360.9 375.3 386.5 394.9 396.8 398.2 399.1 401.4 409.3 410.1 411.2 414.5 421.3 429.8 435.2 435.8 434.7 429.6 424.4 422.4 420.8 417.7 411.9 409.6 417.2 417.6 416.3 413.5 409.9 405.8 400 395.9 402.7 407.2 413 416.6 420.2 425.3 432.3 434.8 434.6 434.5 433.3 432.7 432.5 430.2 427.3 424.9 421.9 418.7 416.4 415 414 413.2 409.8 406.2 402.8 398.8 395.5 392.9 390.3 387 384.1 381.9 378.9 375.7 371.5 368.2 367.8 368.4 368.9 371.5 377 381.2 385 389.4 390.5 388.9 388.5 388.5 388.3 387.3 384.6 381.9 379.7 377 377.1 379 380.6 382.4 381.1 379.1 376 373.6 369.7 365.4 357.1 346.1 326.6 303 285.7 268.8 240.1 216.4 210.8 208.4 192.9 172.3 155.9 144 138.4 135.2 131.9 122.5 119.2 119.5 119.4 118.3 112.8 114 115.8 116.7 117.5 119 122.2 128.7 139.3 151.9 171.1 189 207 224.4 242.6 261.8 278.7 295 308.3 310.3 306.3 297.6 296.4 300.8 307.1 309.8 313.6 315 312 304.1 297.8 298.3 302.2 308.8 320.2 336.6 357.3 376 369.4 371.9 382.3 395 406.9 413.4 413.1 409.1 406.5 402.5 398.1 391.9 379.2 372.6 368.5 368.1 374.6 384.4 390.8
221.6 229.3 237.6 246.5 254.1 260.6 266.4 271.6 276.8 281.4 286.9 293 298.2 298 290.6 278 278.3 288.8 300.1 312.7 324.8 335.8 346.4 355.9 365.4 378.9 390.1 397.3 399.6 399.9 400.6 401.8 405.9 407.1 406.9 408.8 412.5 419.9 426.6 430.3 431.2 428.1 423.1 422 422 419.4 414.1 408.8 400.8 407.9 406.5 405.2 401.7 399.8 393 392.4 400.1 405.1 408.9 414.1 417.8 421.8 427.8 432.6 433.4 433.1 432.3 430.1 429.3 428.6 426.2 423.6 421.5 418.6 416.1 414 413.1 412.8 412 408.8 406 402.3 400.2 398.5 396.2 392.7 388.2 383.8 380.2 377.2 375.5 373 370.9 367.1 365.4 364.3 367.6 373.4 376.1 380.3 384.6 386.1 385.4 385.6 385.9 385.7 384.2 381.3 378.6 374.4 372.7 374 375.2 376.6 377.6 377.2 376.4 373.4 370.6 366.6 361.7 355.1 341.4 310.6 281.7 258.8 243.5 230.6 223.2 224.4 216.7 197.8 179.5 163.9 149.3 140.5 136.2 132.7 125.6 119 119.2 118.9 118.1 113.8 113.3 115.1 115.8 116.4 117.5 121.4 127.9 135.9 148.6 165.6 183.8 203.1 218.9 238.5 257 276 292 298.3 296.5 289.9 285.5 289.2 294.5 300.2 306.2 312.4 312.4 306.5 298 293.1 295.5 300.7 308.3 319.7 334 356.1 353.9 357.7 367.8 380.9 395 404.7 407.7 405 402.5 399.1 394.2 388 379.3 371 367.2 365.1 366.4 375.3 384 389.3
219.4 226.6 234.1 242.1 248.1 253.2 258.3 263.9 269.6 278.2 285.5 291.5 294.9 291.7 281.2 272.7 282.3 297.6 312.7 327.6 340.8 353.2 363.5 372.3 380.2 390.4 396.7 400.1 400.7 401.2 402.2 403.7 404.8 405.2 405.4 406.9 411.1 416 419.1 425.6 423.2 419.4 419.6 421.2 420.8 416.1 410.4 404.3 394.6 398.3 397.6 393.2 389 386.3 387.3 395 401.9 405.6 409.2 413.1 416.9 423.3 428.9 431.2 432 431.4 429.2 427.1 425.1 423.6 421.4 419.1 417 414.4 412.6 412.4 412.9 412.7 411.9 409.3 406.9 404.7 403 401.4 398.7 394.8 389.4 385.1 384.2 383.3 381.3 379.4 379.1 376.6 370.7 366.5 362.4 366.6 369.8 373.9 378.8 379.9 381.8 383.1 384.2 383.2 381.2 378.6 376.1 371.4 368.3 370.4 371.8 373.2 374.2 374 373.3 371.6 369.4 366.2 360.1 354.6 346.7 328.4 304.8 284 263 246.7 242.6 240.1 233.4 217.2 199.8 182.9 163.3 147.6 138.3 133.4 128 121.1 119 118.7 118.3 117.1 114.1 113.7 116.1 116 116.6 119.1 122.7 129.2 140.6 155.8 175 193.5 209.8 226.5 244.1 264 276.3 277 273.2 267.8 264.5 268.5 274.5 281.9 291.4 297.2 298.2 294.3 289.8 284.6 289.5 295.6 304.8 313.9 325 332.2 339.6 349 364.9 379.9 394.5 402.6 402.2 399.4 395.9 391.6 385.2 378.3 370.3 365.7 363.6 362.1 366.9 376.3 383.5 385.4
215.7 221.5 227.2 233.7 239.3 245.4 251.6 258.8 267.6 276.8 283.4 288.1 290 285.4 272.8 272.9 288.5 305.6 323 340 354.6 366.2 375.2 384.2 391 396.1 400.2 401.7 402.5 404.1 405 404.8 405.1 405 404.8 405.2 407.6 409.7 412.7 414.7 413.3 416.1 418.5 420 418.6 412.6 407 397 390 388.9 387.2 383 379.5 384.5 390.4 396.1 401.2 405.4 408.7 411.8 415.4 423.5 427.9 430.1 430.5 429.3 427.4 424.9 421.4 419.2 416.9 413.8 412.1 410.6 411.3 411.9 412.7 413.7 413 410.9 409.3 407.8 406.1 404 400.6 394.4 390.8 391.5 392.1 391.8 389.6 389.2 388 384.2 382.7 378.2 364.7 359.4 362.1 367.6 371.7 373.7 377 379.7 382.1 379.7 378.3 376.3 373.8 369 364.7 367.3 370.7 374.7 376.6 374.7 373.7 372.8 369.3 364.1 358.7 353.7 346.5 337.8 324.8 310.4 292.6 276.8 270.2 267.3 257.8 241.1 221.6 201.8 180.7 161.6 144.6 136.1 130.5 122.9 119 118.5 118.2 118 114.1 113.2 114.8 115.4 115.7 116.4 116.5 121.4 130.8 146 163.7 181.3 197.9 212.7 227.9 242.8 249.7 249.5 245.8 237.8 237.8 244.2 250.7 258.9 267.8 278.4 281.9 282.5 280.1 273 279 288.1 297.5 307.5 311.5 317.2 328.5 345.6 361.9 379.6 395.4 399.1 399.1 396.3 392.6 386.9 378.4 368.9 364.4 361.7 360.2 358.9 366.8 375.1 380.2 378.5
212 216.9 222.2 228.1 233.8 241 249.3 258 267 274.6 280.8 285.8 284.9 276.6 266.9 276.7 294.3 314.8 331.8 349.1 364 374.5 382.8 391.1 397.1 399.3 401 402.5 404.5 408.7 408.1 406.1 405.4 405.1 404.3 403.7 402.7 403.6 403.6 405.3 410.8 416 416.6 415.2 414.6 410.1 402.2 390.9 385.7 375.6 377.9 376 381.8 387 392 396.3 400.8 404.5 406.7 409 415 422.2 425.8 428.5 428.8 427.4 425.7 422.3 417.9 414.9 411.2 407.7 407.7 409.2 410.8 412.4 414.5 415.6 414.8 413.4 412.6 411.1 408.7 404.8 399.5 397.5 398.2 399 399.1 398.7 398.3 397 393.2 391.6 390.2 382.6 371.7 357.4 352.8 360.7 364.5 366.8 370.4 374.3 376.5 376.7 374.4 372.9 371.3 366.4 360.3 365 369.8 373.8 375.2 375.2 374 372.9 368.7 361.5 358.8 355.7 348 341.7 331.7 322.1 313.8 305.5 298.5 286.5 278.7 265.9 246.2 222.8 201.9 179.2 160.4 146.7 136.3 128.1 121.5 120.8 119.9 118.6 114.2 112.9 112.5 114.6 115.1 115.5 115 116.7 123.6 136.9 153.6 169.1 181.6 196.2 209.6 219.7 223.2 220.3 214.9 209.1 212 219 225.8 235.8 247 261.4 270.2 270.8 266.9 261.6 270.1 279.1 284.2 287 296.3 303.2 322 340.9 360.8 379.3 390.2 395.7 397.4 397 392.6 385.7 375.1 363.2 360.7 358.4 356.5 356.6 364.7 370.6 373.6 371.2
210.1 214.5 219.9 225.5 232.4 240.6 248.7 257.5 265.6 272.3 278.4 280.6 276.1 265.9 266.7 281.8 300.6 322.6 339.1 354.9 368.8 378.9 387.7 395.6 399 400.6 402.9 405.4 408.4 410.3 409.2 407.4 406.6 405.7 405 403.4 400.2 398.6 398.4 402.1 406.2 411.9 413.4 412.4 410.1 404.1 395.7 384.5 377.9 367.4 372.1 379.1 384.1 389 393.5 397.2 400.4 403.2 404.4 407 414 419 423.3 426 426.3 425.4 423.7 419.6 412.4 405 403.2 405.4 408.2 410.8 412.9 414.8 416.9 417.2 416.4 415.9 415.2 413.4 410.9 406.7 404.9 405.3 405 405.7 405.9 405.7 405.6 402.9 402.1 398.5 392.4 384.1 375.1 365.7 353.7 351.3 356.6 359.4 362.3 365.8 369.8 372.4 372 370.1 368.5 363.7 351.9 362.3 368.4 373 373.6 372.8 372.4 370.8 364.1 357.5 357.5 353.9 344.9 338.8 329.2 323.1 320.9 318.8 307.2 293.2 285.4 276.3 263.1 240.3 222.9 204.5 181.6 165.1 150 135.9 128.1 126 121.7 120.2 117.5 112.3 111.2 113.8 114.7 115.1 114.7 115.4 117.6 126.5 144 158 169.1 181.1 190.9 197.4 199.7 195.4 188.5 183.8 188.3 195.9 204.8 216 230.8 249.4 256.3 256.2 251.9 250.4 259.5 264.7 268 276.5 282.7 295.4 316.7 338.8 361.3 377.8 388 393.9 398 398.8 394.4 389.4 374 361.5 358.2 355.8 353 353 359 363.1 365.8 365.1
207.8 212.3 217.8 224.2 232.4 240.6 248.7 255.8 262.4 268.3 272.8 271.9 266.3 260.2 270.9 287.2 308.1 328.9 344.1 358.8 371.8 382.1 391.2 397.4 400.7 402.9 405.3 407.7 410.2 411.2 411.8 412.3 411.8 407.9 406 403.1 399 395.8 395.2 398.4 403.7 408.3 408.8 407.4 403.5 397.6 388.9 377.4 362.2 371 377.4 382 385.8 390.8 393.5 396.3 399 400.9 402.8 407.7 413.1 416.8 422 424.7 424.4 423 421.2 415.9 400 401.9 406.7 410.9 413.9 415.2 415.6 417.4 418.8 419 418.7 418.4 417.9 416.3 413.9 412.9 413.1 412 411.4 412.1 412.2 411.8 410.3 409.4 405.9 400.3 393.9 385.7 378.8 370.4 360.3 347.3 346.3 351.2 355.1 357.8 361.4 365.4 366.4 365.7 363.2 354.8 341.9 360.5 369.1 372.3 371.4 369.2 368.5 363.7 357.2 352.6 354.3 348.6 341.9 334.7 326.6 322.8 321 317.5 306.6 295.2 286.8 278.9 268.3 248.4 243.1 228.2 206.2 183.3 165.4 146.6 133 127.9 126.8 123.7 118.6 112.3 111.5 114.1 114.2 114.4 114.3 115.5 116.1 121.7 135.2 146.6 157.4 164.3 171.1 176.4 177.8 171.6 164.4 162 168.5 175.5 186.4 200.2 219.8 233.6 240.4 240.9 235.4 238.6 244.8 248.7 251.9 261.9 271.6 291.2 316.1 339.9 360.6 377.8 385.9 391.8 397.1 398.5 397.6 395.8 379.4 363 356.9 351.7 348.7 350.5 351.3 354.3 357.8 360.1
206.8 210.1 215.3 221.3 229.3 238 245.3 252.2 257.4 260.6 262.6 261.8 257.3 261.5 276.7 293.2 316.5 334.5 348.7 361.4 373.5 383.3 391.4 397.9 402 405.7 408.9 411.1 411.3 412.2 414.2 415.1 413 409.3 405.9 401.7 397.7 394.1 391.5 395.5 401 402.4 403.3 399.9 395.9 390.2 381.9 372.1 365.2 375.5 379.9 383.6 387.4 391 393.3 395 397.1 398.6 402.1 406.9 412.4 417.7 421.8 423.4 422.2 419.5 416.5 404.3 395.7 405.3 410.3 414.4 416.9 417.2 418.2 420 420.6 421.1 420.9 420.6 420.3 419 418.7 418.3 417.8 417.2 417.5 418.5 417.6 415.5 414.7 413 407.2 401.5 394.8 387.6 379.3 369.6 358.3 346.4 339 343.9 348.5 350.3 351.9 356.2 358.8 358.8 356.2 338.9 344.1 362.7 369.4 370.8 367.9 365.4 362.8 357.5 350.4 347.8 348.1 339.2 333.6 325.7 320.2 318.6 318.2 314.4 303.8 293.6 286.2 279.6 270.7 256.9 259.8 244.9 219.5 196 175.2 155.7 139.1 130.9 130.1 129 121.8 111.3 111.5 113.4 113.3 113.3 113.8 115.6 114.2 116.2 125.1 135.5 140.8 146 150.3 153.9 152.8 146 144.7 149.3 155 161.6 172.4 189.6 206.8 217.9 224 225.4 222.1 225.4 230.6 234.6 235.9 249.4 267.7 288.4 314.8 339.9 360.3 374.5 381.7 390.2 396.3 397.2 396.1 393.9 385.1 369.4 358.2 351.3 345.1 348.1 347.6 346.7 347.8 353.1
209.3 211.4 213.6 217.2 224 233.7 242.1 246.8 249.1 252.2 253.2 250.3 253.1 266.5 283.2 302.5 324.4 339.4 352 363 373.3 383.1 391 398 403.8 410.6 414 413.1 412.7 414.9 417 415.9 412.9 408.7 404.8 400.9 396.4 392.3 387 389.6 393.6 395 394.1 391.1 387 382.2 375.1 364.8 366.9 378.1 383.1 387.3 390.4 391.9 392.5 393.3 394.6 397.8 403.8 409 412.9 417.5 420.3 420.7 419.2 417.5 406.3 388.6 398 408.1 415.1 417 417.9 418.1 419.7 421.4 422.2 422.7 422.8 422.5 422.5 422.7 422.7 422.5 422.3 422.4 422.5 422.1 421.3 419.7 418.2 413.5 408.1 401.3 394.7 388.8 381.1 371.3 358.3 345.9 339.2 334.8 336.8 339 343.5 347.6 348.6 349.7 344.3 328.8 344.7 362.1 367.2 368.2 364 362.1 354.9 349.1 341.4 341.1 336.9 329 323.2 316.9 313.6 313.8 314 310.8 300.2 291.6 285.2 279.7 271.7 264.7 262.4 247.6 223.4 199.6 181.5 162 143.6 135.2 133 131.5 128.8 116.6 111.3 112.5 112.5 112.6 113.8 113.7 113.3 113.2 118.7 125.9 129 132.2 134.5 134.4 132.3 133.3 135.6 139.5 146 152.1 162.4 180.1 193.7 204.3 209.4 213.1 212.2 213.9 218.6 221.7 228.6 246.8 266 287.9 316.2 340.5 359.1 369.1 379.3 389.5 393.6 395.2 394.3 392 386.8 376 367 351.9 343.4 345.6 344.6 343.2 343.1 348.7
219.9 222 221.2 219 219.7 226.5 234.9 238.5 239.7 242 243.9 246.8 257.9 273.8 291.8 312.9 331.3 343.2 354.2 363.8 373.1 382.2 390.1 397.9 405.8 413.1 412.8 411.8 413.8 416.3 416 414.4 410.5 407.5 404.8 400.8 395.7 390.9 385.5 383.6 384.9 385.6 383.8 381.6 379.9 376.6 365.9 356.8 373 380 387.1 391.3 393.4 391.7 390.5 390 392.6 398.4 403.2 408.2 411.7 414.4 416.3 415.6 415.4 409.6 389.8 385 399.7 411.3 416.4 418.3 418.8 419.1 420.6 421.9 423.1 423.9 424.2 424.1 424.5 424.8 425 425.1 426.3 426.9 426.8 426.3 424.1 422.2 418.4 414.3 409.2 402.1 394.5 386.9 379.4 365.9 360.8 357.6 352.3 344.9 334.9 327.9 328.1 334.5 337.7 335.5 328.9 326.6 342.4 356.3 360 359.8 352.7 348.6 342.4 333.8 331.8 329.7 323.6 318.9 314.3 308.7 306.2 306.7 308.3 303.8 295.1 289.7 283.8 277.6 270.1 265.3 256.9 237.4 216.8 195.5 180.4 161.4 146 139.8 135.6 131.9 129.4 125.3 118 112.4 112.2 112.1 113.5 113.6 113.3 113.2 113.2 117.4 122.2 124.2 125.9 126.7 127.4 128.8 131.1 134.5 139.7 145.4 154.7 168.9 181.6 192 196.6 200.6 202.7 204 207.4 212.6 228.1 245.9 264.9 288.4 316.4 339.8 354.2 365.2 376.7 386.1 388.9 390.5 390.3 390 387.3 379.3 371.8 355.8 342.8 342.3 341.1 339.3 339.3 345
241.7 243.9 241.9 236.6 229.2 226.7 229.4 234.2 239 241.8 245.9 251.2 264.1 280.5 299.2 319.5 334.3 345.1 355.1 363.8 372.4 381.1 389.7 397.4 404.9 408.6 408.7 410.4 412.8 413.2 412.7 410.6 407.4 405.7 404.2 400.9 395.8 390 384.8 379.7 375.4 376.7 376.4 374.1 372.9 366.5 352.5 363 376.7 384.7 392.8 395.5 394.4 390.7 387.3 387.1 390.3 396.4 401 405.1 406.9 409.4 409.6 411 408.2 390.6 372 390.2 402.1 410.4 417 419.4 418.4 418.8 420 421.3 422.6 423.8 424.5 425 425.9 426.6 428.6 430.4 430.7 430.6 430.7 428.9 426.6 422.9 419.5 415.8 409.4 401.8 395.2 385.9 377.5 373.2 371.4 368.9 364.5 358.4 350.7 342.3 333.4 321.1 321.6 323.5 319.3 325.1 333.2 340.6 340.4 329.2 317.6 312.3 309.4 309 314.5 312.2 309.1 308.2 303.4 297.4 295.3 298.4 299.9 296.5 291.3 287.4 280.7 274.6 267.8 263 252.7 223.3 199.2 183.5 172.5 158.8 148 144.3 139.5 134 131 129.1 125.2 120.9 117.6 115.6 112.3 113.2 113.1 112.9 113 112.9 116.3 118.5 121.7 123 123.6 125.8 128.1 130.2 135.4 139.8 148.1 161.3 173.4 181.9 187 190 193.4 197.1 203.1 212.8 229.4 247 265.7 291.9 317.1 336.8 348.9 361.4 373.9 380.1 382.4 382.7 383.2 384.1 385.5 379.7 371 357.2 343.7 336.5 337.2 335.9 334.2 343.7
265.4 266.8 263.4 257.7 249.9 242.3 239.5 242.7 247.5 250.9 255.3 259.2 265.9 279.4 296.6 314.6 331.9 343.9 354.2 363.6 372.5 381 389.3 396.7 401.6 404.4 407.1 409.3 409.8 409.3 408.3 406.6 405.4 404 402.9 400.1 395.8 389.9 384.1 379.2 371.2 368.6 369.2 366.8 363.1 351 358.7 372 380.7 390.9 396.7 395.6 392 387.6 383.9 382.3 386.6 390.9 396 398.6 400 403 407.5 407 391.3 368.9 379.4 395 403.2 411.3 419.2 418 416.4 417.1 418.4 420.2 421.7 422.9 424.2 425.9 428.5 431.4 435.1 435.3 433.3 432.5 431.6 429.3 426.6 423.8 420.5 415.8 407.8 400.7 394.2 389.8 386.3 383.6 382.1 376.6 372.5 368.3 362.3 354 343.8 331.9 325.7 317.3 312.3 317.4 320.7 315.1 297.2 282.3 275.5 271.7 270.6 270.2 277.3 284.2 290 292.2 287.2 281.4 283.7 288.5 291.7 291.4 288.7 285.4 279.3 273.4 266.3 263.9 255.6 229.1 193.7 175.5 167.3 160.3 154.7 149.9 145.4 143 142.3 137.1 131.1 127.3 124.7 119.1 114.7 113.2 112.1 112.5 112.5 112.4 112.5 112.4 112.7 117.5 121.4 122.3 124.8 126.6 130.5 136 142.7 153.5 165.1 172.4 177.8 182.4 187.9 194.7 202.1 214.2 232.6 250.5 271.9 299.1 317.8 331.3 343.2 356.4 369.2 372.8 375.7 376.2 377.8 379.1 377.4 374.8 364.8 356.1 345.5 332.6 331.4 329.2 327.9 342.2
281.1 281.9 280.6 276.6 269.9 263.3 259.2 259.8 260.8 265.3 271.9 275.5 277.5 280.2 287.8 304.4 324.3 341.7 352.9 363.4 372.7 381 389.1 395.5 399.6 403.4 406.9 407.6 406.6 405.2 404.1 403.7 402.9 401.7 400.6 398.4 394.8 389.4 382.8 375.9 369 359.8 357.9 358.2 351 356.9 367.8 375.5 386.3 394.6 396.1 393.1 388.7 385.5 379.4 376.7 380.7 384.8 388.8 391.2 394.3 401.3 404.5 397.6 372.3 367.7 383.8 395.7 404.5 418.1 418.7 414.9 413.3 413.9 415.5 417.6 420.3 422.4 424.9 428.1 431.5 435.4 436.9 435.8 433.7 432.4 430.9 428.7 426.5 424.2 420.6 416.6 410.3 404.3 400.5 397.6 394.2 391.1 388.3 383.2 378 374.4 369 361.7 350 344 337.6 327.8 317.6 304.7 290 273.6 256.6 247.8 242.3 239.3 240.3 242.3 248.3 255.6 266.8 270.8 267 264.7 272 281.6 287.3 286.8 283.9 280.7 277 271.1 265.8 264 257.5 237.8 209.1 186.6 173.4 166.2 160.5 155.9 154.5 157.3 157.6 154.5 149.4 138.3 129.9 125.7 120.8 115.5 112.5 111.5 112.1 112.8 112.4 112.1 111.8 114.4 120.8 121.4 122.6 124.9 128 131.9 138.3 148.1 158.1 165.6 170.9 178 185.6 193 201.2 218.2 238.5 257.8 281.5 302.5 308.9 315.5 329 346.3 359.1 362.8 368.9 371.9 374.5 376.6 373.4 367.5 357.8 351.3 341.1 330 323.6 322 322.9 334.5
285.3 286.6 287.3 287.1 286.5 284.8 281.8 280.7 280.9 286.5 293.1 296.5 298.1 298.3 295.6 299.5 315.3 333.8 349 361.1 371.5 379.6 388.1 394.5 399.5 404 405.7 404.2 402.5 400.9 400.2 400.1 399.1 398.5 396.8 395.7 392.5 387.6 381.5 374.3 367.2 361.9 351.1 346.6 353.3 363.3 370.7 379 390.1 393.6 394.3 391.4 386.9 383.8 375.4 370.4 374.4 378.4 382.4 387 392.1 398.5 398.6 384.1 357.2 370.7 385.1 394.4 408.9 414.5 414.2 410.4 408.9 409.5 412.8 416.3 419.8 423.6 427.3 431.6 432.8 434.6 435.2 433.3 431.4 430.3 429 428.2 426.8 424.7 421.4 417.8 413.7 409.8 406.3 402.6 398.6 394.8 391.6 386.5 382.5 377.5 372 364.8 357.5 352.2 347 338.2 329.7 316.8 273.7 237.5 228.8 219.4 213.9 213.8 216.1 219 223.8 231.6 242.6 246.9 247.5 256.7 267.9 276.5 282.3 282.4 279.5 276.9 273.4 268 264.8 263.8 260.8 251.4 228.6 206.4 191.7 181.6 173.2 168.8 168.7 170.9 171.9 171.3 169.9 159.8 147 134.9 126.1 120 117 113.6 111.2 112.4 112.6 112.1 111.6 111.9 118.3 120.5 122.2 124.7 128.2 132.5 137.8 143.8 151.5 158.8 167.8 176.2 184.1 192.4 204.2 222.6 244.8 264.9 280.7 286.1 289.6 298.1 312.7 332.1 345 352.4 362.2 368.4 370 370.2 365.1 356.9 348.7 340.8 329.1 323.8 320.6 316.6 318.3 323.6
285 288.7 291.4 293.7 296 297.7 298.8 301.1 304.6 309.7 314.2 317.8 319.9 322 321.1 319.2 321.8 330.5 345.6 358.1 368.5 378 387.6 395.7 401.6 403.5 402.1 400.1 398.1 396.7 396.2 396.3 396 395.3 394.2 392.9 389.8 384.6 379 372 365 359.9 351.3 345.6 359.8 365.7 373.7 383.9 389.6 391.7 391.1 389.6 385.3 381.6 372.7 365.1 369.4 374.8 379.4 383.9 390.6 393.3 393.1 377.2 348.5 370.5 381.4 390.8 401.8 406.3 406.1 403.2 403.4 407.2 411.4 415.8 421.2 424.6 428.6 430.2 430.4 430.1 428.9 428.1 428.3 428 428.3 427.9 427.1 425.4 422.2 419.3 415 413.1 411.3 406.8 400.6 396.9 394.2 390.1 385.6 380 374 368.4 364.2 358.7 353.1 347.8 338.7 325.4 284.9 234.7 209.6 194.5 189.3 191.1 194.1 197.9 203.7 210.3 218.5 223 235.1 253.9 266.8 273.9 277.7 278 276.7 274 268.1 263.4 263.6 263.7 263.4 261.5 249.9 230.2 216.2 205.5 195.9 189.9 188.2 187.1 188 189 189.1 182.8 168.8 152.7 136.8 125.8 118.8 115.4 112.2 111.1 112 112 111.8 111.9 115.5 120.3 122.7 125.2 128.1 132.7 137.1 142.5 148.9 156.6 165.1 172 182 193.4 206.8 225.3 246.2 261.3 264.5 264.4 271.6 283.6 299.1 317.6 332 348 361.2 365.6 365.1 360.8 352.8 342.5 335.6 325.2 319.8 318.2 315.9 311.7 312.4 314.2
285 289.7 293.7 297.7 302.5 305.7 308.6 314 320.3 325.6 328.2 332.1 336.3 339.5 343.8 345 346 348.9 356.6 364.8 372.4 379.8 389.6 398.1 401.4 400.2 398.2 396.1 393.8 392.7 392.3 392.8 392.9 392.1 390.7 389.7 384.6 379.6 374 367.9 362.1 357.3 345.6 344.5 359.9 366.5 373.4 382.6 386.5 385.8 386.7 384.3 380.5 376.6 369 360.8 365.6 373 379 386.9 390.6 392.1 389.6 374 345.8 365.5 376.4 384.7 390.7 393.1 392.8 394.9 401.7 407.7 413.7 419.3 422.7 426.2 428 427.7 426.7 425.4 425.9 425.7 426.1 426.9 427.5 427.5 427.3 426 423.3 419.8 415.8 414 411.4 406.2 401.8 398.5 395.4 391.4 387.2 382.2 376.1 370.5 366 364 358.4 352.9 345.8 338.8 317.4 262.7 224.1 200.1 182.5 176.1 177.6 183.2 190.4 192.9 197 204.5 227.3 250.5 264.5 269.7 272.7 274.3 272.8 268 260.9 258.2 262.8 263.6 264.7 264.9 260.5 245.6 229.8 218.7 211.3 205.8 202.6 200.5 200.2 205.7 206.7 201.1 188.2 170.7 152.8 136 122.5 117.1 114.1 111.8 110.6 111.4 111.4 111.5 113.3 121.2 122.6 125 128.3 131.7 136.4 142 147.6 153.3 160.3 170.2 181.6 194.9 209.7 227.1 244.1 251.7 248.6 254.9 271.5 289.7 308 326.4 341.4 357 363.4 361.9 356.4 349.4 339.2 330.6 324.1 319.3 316.3 313.8 311.5 307.7 307.3 306.9
283.6 287.9 292.8 297.6 303 307.8 313.8 319.9 325.5 327.7 330.4 334.5 339.8 347 353.8 359.3 365.5 370.2 373.7 377.7 382.3 387.8 394.2 398.6 398.4 396.5 394.6 392.3 390.8 390.5 389.8 389.3 388.9 387.9 384.9 380.9 377.3 373 367.9 363.2 358.7 354 343.3 348.3 356.8 364.6 370.5 376.5 378.2 378.3 377.4 374.4 372.6 368 362 356.9 362.2 374.6 385.8 386.7 389 387.8 383.5 364.9 338.9 357.9 367.4 374.4 377.9 380.4 388.9 397.5 405.4 411.6 416.6 420.2 422.8 425.2 425.3 423.3 421.3 421.9 421.4 422 423.9 425.6 426.5 427.4 427.4 426.2 423.8 419.4 416.5 414 410.3 405.8 401.8 398.5 394.9 391.2 387 381.6 376.7 372.2 366.7 364.1 362.2 355 352.8 348 336.8 293.9 245.2 213.7 191.8 176.8 172.6 174.5 179.4 181.9 184.9 195.5 219.8 244.2 256.6 261.9 266.1 268.9 266.3 258.2 249.6 254.2 260.2 265 266.3 265.8 262 248.5 234.6 224.6 219.3 213.9 209.1 205.3 205.7 212.6 217 214.7 200.1 182.8 159.9 140.3 125.7 116.2 114.8 113 111.1 110.5 111 111.2 111.9 119 121.5 123.5 126.5 130.1 135.2 139 143.8 148.7 156.7 170.7 183.6 197.9 212.4 226.3 235.1 236.3 242.8 262 284.7 305 322.4 336.7 351.1 359.6 361.2 359.6 354.7 343.4 331.9 327.2 321.2 317.4 314 310.2 307.4 304.8 301 302.3
280.3 284.8 289.2 294.7 299.3 305.8 312.5 315.9 317.8 318.7 320.7 325.3 334.7 345.7 357.1 367.8 375.8 380.5 382.3 384 386.9 391.4 394.9 395.9 394.8 393.3 391.9 390.7 389.3 388.6 388 386.9 386.4 384.1 379.5 374.3 369.4 365.1 361 357.9 353.9 349.3 342.7 345.4 353.4 359.5 362.1 363.5 365.4 365.3 365.1 364.1 360.8 356.6 354.5 351.5 359.2 370.3 377.2 383.4 384.8 381.1 365.8 345 329.4 342.5 355.6 363.3 375.8 387.1 396.6 405 409.9 412.7 416.7 419.9 422 422.1 418.7 416.6 415.7 415.7 417.2 420.4 422.9 424.7 426.6 427.7 427.7 426.6 423.8 419.7 416.8 413.2 409.4 405.6 401.7 396.9 393.3 390.4 386.1 380.7 376.6 372.1 366.5 363.1 360.7 356.6 357.7 354 346.4 317.5 266.4 229.6 201.9 182.9 172.1 168.9 169.9 173.1 177.9 187.6 209.5 232.6 245.3 253.2 260 264.1 255.7 241.3 241.3 251.8 260.2 264.8 264.7 263.4 256 243.6 232.8 225 219.4 212.4 206.7 204.6 206.6 210.4 215.1 211.9 194.1 175.8 156.9 140.2 125 115.9 114.8 113.2 111.9 110.4 110.4 111 111.1 115.3 116 121.1 124 129.7 133.4 137 140.4 145.9 156.6 170.8 185.9 199.9 212.1 220.1 223.1 228.2 247.5 268.7 290.3 309.2 326.4 340.2 352.9 358.6 360 361.6 360.5 352.1 345.3 339.4 333.6 328 316.6 305.8 303.6 301.8 297.8 297.9
273.2 277.3 282.4 286.6 292.1 298.3 301.5 302.6 303.8 305.5 314.5 327.1 342.8 354.4 364.1 371.6 379.4 382.5 385.1 387.3 389.5 391.8 392.5 392.2 391.7 390.9 390.2 389.7 387.8 387.1 386.3 385.3 382.6 378.7 374.4 370.1 365.4 357.6 351.1 344.5 342.8 341.8 338.9 339.8 344.7 346.7 347 348.1 349.7 352.7 350.6 348.5 347.4 347 346.7 347.9 354.7 364 370.9 375 377.2 368.7 345.6 323.6 335.3 351.1 364.1 376.2 390.8 401.9 405.7 408.7 410.4 412.5 415.3 417.9 417.7 413.6 410.8 409.1 409.7 412.1 414.9 419.2 421.7 424.6 426.6 428.8 428.9 428.3 423.8 420.1 416.6 411.9 408.3 404.5 399.9 395.6 391.5 387.6 383.6 378.8 375.2 371 366.3 362.5 360.2 357.9 358.4 356.2 354.4 339.8 301.2 249.9 214.7 191.4 176.8 168.6 164.4 165.4 172.1 181.2 198.4 216.8 233.9 246.4 256 255.8 241.1 226.9 236.4 251.3 260.5 263.5 263 261.6 253.6 237 219 215.2 210.7 205.2 201.2 199.4 200.2 199.6 199 192 176.9 163 148.2 134.9 120.4 115.7 114.9 113.1 111.6 110.6 110.2 110.3 110.6 112.5 112 116.6 121.6 124.7 131 134.9 138.6 145.3 156.4 170.5 186.2 198.5 206.6 210.7 214.3 230.3 250.3 271.1 291 310.7 327.8 342.2 353.5 357.3 359.7 362.2 360.5 355.5 350.6 344.4 337 326.2 312.9 306.4 301 297.3 294.4 293.4
263.5 267.2 272.1 277.2 282.1 285.5 287.1 291.2 297 307.3 323.2 338.6 351.4 362.3 372.3 379.4 381.3 383.9 386.7 389.1 390.5 390.4 390.3 390 389.6 389.6 389.4 388.1 386.9 386.1 384.9 383.3 378.9 373.5 368.5 363.3 358.4 351 345.1 345.1 343.2 341.8 338.8 333 331.3 330.3 332.8 333.4 333.4 332 330.9 333.4 335.6 338.6 337.8 341.6 346.9 356.3 365.1 366.3 363.7 348.2 327 322.2 340.9 357.1 371.3 384.3 398 403.8 406.1 407 408.9 410.9 412.1 413 411.1 406 403.3 403.3 407.3 411.4 414.9 418.3 421 424.9 426.6 428.7 429.2 427.7 423.7 419.3 414.5 410.3 406.3 401.9 397.2 392.4 387.9 384.3 380 375.3 372 368.6 366.8 363 360.3 357.8 359.5 357.4 356.4 346.4 323.6 273.8 232.5 207.1 186.7 172.9 164.5 161.2 166.8 175.3 187.7 206.4 224.5 241 251.7 241.7 226.1 219.3 234 250.5 259 261.7 261.9 262 254.3 236.5 215.4 201.6 197.8 194.9 192.6 190.1 188.3 186 181.7 172.3 159.8 148.7 137.7 128.4 117.8 116.3 115.5 113.9 111.7 110.7 110 109.2 110.1 110.9 110.6 114.6 120.2 122.1 127.8 134 137.7 144.4 155.2 167.9 182.8 193.3 198.8 199.9 210.7 228.6 248.3 269.8 291.1 312.9 327.6 343.4 351.8 356.5 359.3 360.4 358.8 354.8 349.8 342.1 333.7 327.3 323.5 320.9 302.2 290.7 291.1 288.6
256.7 261.8 266.4 269.3 273.1 278.5 283.9 292 302.2 312.8 325 344.2 361.7 372.4 379.3 381.9 383.3 386.2 388.7 389.8 389.8 389.8 389.3 389.1 388.7 388.8 387.9 387.3 386.2 385.4 383.7 377.7 373.5 370.7 366.4 353.9 350.3 350.3 352.5 352.4 352.3 351.9 350.2 346.1 341.8 335.9 330.3 326.7 324.8 322.9 322.7 320.9 321.6 325.4 326.5 331.8 337.2 344.5 351.8 350.1 343.7 327.6 305.8 329.4 347.7 361.8 376.3 386.7 396 401 403.1 404.5 405.8 407.1 406.7 405.2 400.6 396.6 398.9 404.4 408.8 412.5 415.9 418.8 421 423.2 425.1 427.5 426.9 423.4 421.5 416.1 411.4 406.7 401.9 396.9 392.7 387.9 383.2 379.4 376.4 371.9 368.6 367 365.4 360.7 357.7 356.5 357.6 357.3 355.5 347.1 330.7 299.7 258.2 228.6 202.4 183.6 168.2 160.5 161.2 168.6 178.9 196.8 215.5 233.6 239.4 224.5 212.9 216.1 234.7 249.9 256.4 258.8 261.2 259.2 248.2 233.1 217.5 201 190.1 185.3 182.5 180.3 177.1 174 168.1 157 145.8 137.8 131.5 125 121.2 121.1 120.8 117.7 115.5 112.5 110.7 108.5 108 109.9 111.8 115.7 118.9 118.7 125.9 133.7 137.6 144.3 154 164.5 176.4 186.1 189.6 195.7 208.8 227.2 247.9 270.5 293.8 315.1 331.5 343.1 350.7 356.5 362.3 362.1 360 357.6 353.7 347.9 340 332.9 326.7 309.4 302.3 286.9 287.8 285.9
269.5 274.6 277.7 279.9 282.4 288.4 296.1 305.4 319 333.1 346 358.6 374.2 382.7 385.7 387.6 390.4 391.6 391.6 390.5 390 389 388.2 387.9 387.8 387.3 387.2 386.6 384.8 384.8 385.4 378.3 371.1 365.7 357.2 358.8 361.6 365.3 368.1 369.5 371.1 372.4 370.9 366.8 362.2 356.3 350 344.5 338.7 336.7 335.6 332.6 327.1 318.7 315.7 319.4 324.2 328.6 332.2 332.4 325.2 305.3 317.4 336.1 352.4 366.1 376.5 387 392.4 397.5 399.9 400.5 401 401.2 399.9 395.5 388.1 393.6 399.9 405.1 409.6 413.1 416.5 419.4 421.3 422.7 424.2 424.1 422.3 419.4 415.1 410.1 405.2 400.7 395.9 391.3 386.7 381.2 378.2 374.6 371.8 368.1 365.4 364.4 362.5 357.8 356 355.3 355.6 355 353.3 343.7 323.6 296.8 262.8 236.1 212.7 189.4 171.1 161.6 158.3 162.5 171.3 187.5 207.2 223.5 221.4 210.1 207 214.6 233.8 247.2 252.1 256.2 258 251.4 239.7 228.2 214.4 200.1 189.6 181.8 175.1 171.3 166 161.3 155.6 143.4 136.1 131.6 128.1 125.4 128.4 138 144.4 131.3 117.9 116 112.7 109.3 107.4 108.6 111.9 115.4 115.4 116.1 120.5 131.9 138 143.5 150.4 160.1 170.6 178.1 185.3 195.8 209.9 231.1 252.1 274.7 297.6 318 331.4 343.4 350.9 361.7 367.3 366.4 364.6 361.9 357.8 346.7 334.2 327.5 321.7 319.9 317.8 288.6 283.4 283.2
289.5 296.6 300.3 302.5 304.6 310.3 319.7 328.4 340.3 353.6 367.8 380 387 390.5 393.3 395.8 397.2 395.9 393.3 391.3 390.3 387.5 387.1 386.7 386.5 386.1 386.8 385.7 383.8 385.1 384.6 377.1 367.4 365.4 370.1 372.9 377.4 381.6 385 386.6 389.5 390.4 390.5 388.3 385.4 380.5 373.3 364.6 356.7 352.2 349.7 346.8 342.4 334.4 323.4 309.8 297.9 307.3 311.4 314.3 297.9 304 325.7 343.2 355 367.4 375.5 382.9 389.7 394 396.5 396.9 396.8 395 392.1 382.3 388.3 395.1 401.5 407.2 411.4 414.5 417.2 420.2 422 422.5 422.6 420.7 418.8 415.2 409 403.6 397.8 393.1 388.7 383.9 378.4 375.7 372.7 368.8 365.3 362.3 361.5 360.4 358.1 354.2 352.2 351.3 353.1 352 348.9 336.8 309.8 279.2 251.3 228.2 207.9 185 169.6 162.2 159.2 159.8 166.6 180.9 201.5 216 207.5 202.4 203.1 212 227.5 237.3 244.2 251 249.6 243.1 234.2 222.3 210.4 199.4 187.3 178.1 170 164.4 157.1 150.9 144.2 137.7 132.3 129.5 127.7 130.6 138.5 150.4 162.2 158.7 132.7 116.5 114.6 109.6 108.2 107.8 110.5 114.1 114.6 115.5 118.1 128.8 136.8 142.5 149.8 160.1 170.4 177.7 185 194.6 208.8 232.4 254.2 275.9 296.6 314.1 329.4 341 352.8 363.7 369.7 370.1 368.7 365.3 357.9 346.4 333.4 326.1 322.4 324.2 320 295.1 277.7 278
310.4 322.1 326.5 330 333.4 338.4 346.4 353.4 364.5 376.7 387.8 394 396 398 399.7 400.8 400.1 397.7 395 392 388.6 385.9 385.5 385.1 385.1 385.5 386.5 387.1 384.5 382 378.6 368.9 372.2 377.8 381.4 384.9 388.5 395.3 400 402.5 403.9 404.6 403.9 402.1 400.4 396.6 392.8 387 380.3 373.4 368.2 363.2 358.7 350.4 340.6 327.9 313.2 286.3 289.9 291.3 286.3 310.1 330 344.3 355.7 365.6 373.9 381 387.3 390.9 393.2 393.3 392.8 389.6 379.7 380.2 389.7 398.1 405.5 410.7 413.2 415.7 418.3 420.5 422.2 422.7 421 418.2 414.5 410 403.7 397.2 390.9 385.6 381 375.7 372.5 369.1 365.9 362.1 357.7 355.9 356.3 354.1 351 349.8 348 348.4 350.6 347.3 343.6 322.7 291 264.2 239.4 218 199.5 179 167.7 162 159.4 158.6 164.9 177.9 196.5 204.4 196.7 197.3 200.4 213 228.1 237.9 244.5 249.1 244.7 237.1 226.2 214.8 204.1 193.5 180.9 172.4 164.7 157.9 151.2 145.3 140.4 136.1 132.4 129.3 130.9 138.6 147.8 159.8 172.2 168.7 153.3 125.3 115.2 110.6 108.3 107.6 109.2 112.4 113.8 114.5 115.3 123.1 134.4 139.8 147.3 155.7 165.1 174.7 182.7 191.6 204.5 227.4 249.6 271.9 293.3 311.2 326.2 338.5 352.7 363.9 368.8 371.1 371.2 368.5 364 356.5 341.7 327.8 320.3 321 314.8 297.8 273 271.7
332.9 341.4 346.4 352.3 357.8 364.2 371.7 378.8 387.3 395.9 401.6 402.2 402.9 402.9 403.2 402.4 400.3 398.6 396.1 391.6 387.2 385.3 384.4 383.5 382.8 383 384.1 385 382.8 377.1 372.3 377.5 382.7 385.6 389.2 393.3 399.2 406.5 408.7 412.3 412.7 411.7 411 411.2 410 407.2 403.6 398.9 395.1 392.6 389.7 384.7 378.3 369.8 358 345.5 331.1 313.3 285.7 271.2 289.5 302.8 319.8 338.9 354.1 363.7 373.1 380.1 385.4 388.6 390 389.9 388.2 378.1 366.2 384.1 393.5 403.3 409.2 412.4 414.6 416.7 418.4 419.8 421 421.1 418.4 414.4 410.6 404.9 398.7 391.2 382.5 376.3 371.8 367.6 365 362.2 358.2 351.1 348.1 347.6 348.3 346.3 345.1 345 343.1 345.9 347.1 344 338 309.7 277.7 252.3 228.7 207.7 190.4 174.8 166.1 161.5 159.1 158.2 164.2 175.1 189.4 190.5 189.1 192.8 200.8 218.7 235.6 241.8 243.9 241.3 233.8 225.4 215.3 205.6 195.3 184.8 173.4 166.4 159.3 152.4 146.2 141.7 137.7 134.5 131 130.2 134.7 141.9 151.6 158.7 160.7 163.9 167.7 141.4 117.7 112.3 108.3 107.6 108.8 109.2 112.8 113.3 113 119.5 131.7 136.5 142.9 151 159.7 169.2 177.7 188.3 202.4 226.2 247.5 272.9 292.4 309.5 324.8 340.5 354.6 366 374 376.8 374.7 370.5 367.5 362.2 347.8 329.4 316.8 314.3 309.9 298.7 270.7 269.4
345.3 351.3 357.4 363.8 370.3 377.1 384.6 391.9 399.6 405.8 406.1 406.9 407.3 405.6 403.6 401.7 399.9 397.8 394.5 390.4 386.1 384.9 384 383.3 382.5 381.3 380 378.5 377.4 377.2 381.4 385.7 389.3 392.4 396.3 404.2 409 411.5 414.4 416.4 417.6 417.7 418.1 418.1 416.8 414 409.9 405.5 403.2 402.6 400.6 394.4 389.4 382.1 373.4 363.3 349.1 332.5 311 289.4 266.1 281.6 306.1 331.1 349.3 360.9 371.6 379.3 383.8 385.7 385.8 385.4 375.6 358.4 374.1 387.9 398.8 406.7 410.8 413.7 415.6 417.1 418.6 419.6 420.3 419.4 415.6 411.2 405.9 398.8 391.3 381.2 368 365.3 361.5 358.4 357.1 354 348.3 338.2 335.9 338.8 338 338.7 339.8 340.1 338.3 343.1 344.2 340.9 333 302.4 269.8 245.3 223.3 200.8 183.2 171.8 165 160.7 158.3 157.3 163.4 173.3 183.9 184.2 185.6 192 205.1 223.6 237.4 240.6 237.2 228.8 220.6 211.7 202.8 194.6 186.4 176.7 167.3 160.2 153.5 146.9 141.6 138.1 134.6 131.5 129.2 130.8 134.8 141.1 143.6 144.6 144.8 146.2 143.6 139 122.2 113.6 108.4 108 109 109 111.2 112.2 112.1 118.2 130.5 135.8 140.8 147.9 155.6 163.2 172.7 186.4 206.2 231.7 254.1 273.9 292.4 309.3 326.4 346 366.3 374.2 376.5 375.7 372.2 368.1 363.5 359.3 347.1 331 315 305.4 304 295.9 271.7 266.6
352.4 358.5 365.4 371.6 378.2 385.1 392.4 399.3 404.7 406.8 408.3 409.3 408.5 405.4 402.7 400.6 397.9 395 392.4 388.6 385.9 384.6 383.9 383.5 383 382.6 381.4 382.5 383.1 385.8 389.7 392.2 396.2 400.1 406.1 412.4 415.1 415.9 419.1 421.5 422.1 422 422.6 422.5 420.3 417.8 414.4 410.4 407.9 407.4 404 398.8 392.8 387.5 380.5 373.2 364.6 351.2 331.7 309.3 281.4 263 293.2 323.2 344.7 358.2 370.3 377.7 380.9 381.3 380.8 373.8 354.5 357.4 376.4 391.7 403.2 408.7 411.9 414.2 415.9 417.3 419.6 420.5 419.8 418 413.8 408.4 401.4 393 379.9 367.3 351.5 349.7 348.5 347.5 347.7 344.9 339.5 331.9 324.4 328.8 329.6 330.9 333 335.1 335.2 339.4 340.4 337.6 331.7 304.7 269.7 244.8 226.2 203.4 184.7 172.4 164 159.6 157.2 156.3 161.9 170.6 178 179.5 184.5 194.7 210.6 227.3 235.2 235 226 216.4 208.4 200.3 192.2 184.9 176.8 168.2 159.9 153.6 147.7 142.2 137.8 134.6 130.9 128.1 127.3 129.3 131.6 131.5 130.8 129.2 128.6 127.7 127.1 125.8 121.8 114.9 108.5 107.7 108.4 108.4 110.4 111.9 112 117.7 130.2 136.3 140.4 146.4 153.3 159.6 169.6 185.7 207.1 231.2 252.4 273.2 292.2 311.1 332 357.2 369.2 372.8 373.6 371.5 366.3 357.8 355.1 350.4 343 328.7 315.1 301.9 296.5 288.9 272.8 263.1
356.6 363.8 370.6 377.2 384.2 391.1 397.9 402.9 405.3 407.4 408.7 409 406.8 404.1 401.3 398.3 395.3 392.9 390.3 388.8 386.4 385.2 385 384.9 385.3 386.8 387.3 389.1 391.2 395.7 400.3 405.7 409.1 411.2 414.9 417.7 420.4 421.4 422.3 423.6 424.1 425.3 425.6 423.9 421.8 419.5 416.7 413 410.5 408.4 405.6 400.8 395.1 390.1 383.3 378.1 370.3 361.9 344.6 312.7 278.3 260.2 295.2 325.1 346.1 360.6 373.2 377.1 376.8 375 365.5 350.7 335.4 360.6 379 397.4 405.5 409.4 411.9 414.4 416.1 418.4 420.7 419.9 419.9 417.5 412.2 405.5 397.4 384.8 366.5 351.2 342 335.1 329.4 335.2 337.4 334 328.7 322.7 314.6 317.1 319.5 322.6 326 327.6 332.1 337.6 338 336.6 330.1 311.5 280.1 253.2 233.2 214.2 194.5 174.8 163.3 158.6 156.2 155 159.3 165.1 171.4 175.7 185.6 202.2 216.2 226.2 231.1 225 215.4 206.3 198.3 190.2 182 175.1 168 160.2 153.1 148.5 142 137.9 134.2 131 127.5 125.4 124.9 125.1 124.1 121.4 120.5 120.5 120 119.5 119 119.3 119.2 115.9 108.6 107.4 107.7 107.8 108.6 111.4 111.5 114.2 129.8 136.1 140.2 144.7 151.9 157.5 166.7 183 204.4 227.5 249.3 270.9 291.4 313.4 336.2 356.2 363.2 363.2 361 358 352.9 351.8 347.8 342.8 335.8 324.4 311.5 300.3 291.9 284.3 271.1 260.2
359.7 366.9 373.9 380.7 388.5 395.8 401.1 402.9 405.2 406.9 407.4 406.8 405 402.6 399.6 395.8 393.4 391.1 389.1 387.8 386.5 386.1 386.1 387.2 389.1 390.8 392.1 395.6 400.4 405.9 410.7 416.2 418.6 420.2 421 422.6 424.6 425.4 425.3 425.2 426.7 427.5 426.4 424.8 423 420.6 417.7 414.4 411 408.1 404.6 400.7 395.9 391.1 386.1 381.8 374.2 362 343.5 305.8 272.6 253.2 295.5 329.2 349.9 364.7 376.5 376.9 373.9 357.4 340.4 326.6 344.6 367.3 387.9 402.1 406.6 409.4 412 414.5 415.9 417.7 419.3 419.5 419.3 416.2 410.6 403.6 391.9 379.1 361.5 353 347.8 341.7 334.8 323.7 318.6 315.1 309.3 304.6 295.5 298 302.6 309.2 315.6 324.2 331 336.4 337.6 334.7 329.4 313.2 288.1 260.6 239.1 219.5 197.4 175.5 162.4 157.9 154 152.5 156.2 163 170.8 180.4 197.8 210.3 218.6 223.9 223.5 212.7 204.2 196.2 187.7 180 172.9 166.1 159.3 152.1 147.6 142.8 138 134.4 130.9 127.4 124.2 122.3 120.6 119.2 118.4 118 117.9 117.9 117.9 117.7 117.9 118.4 118.1 114.5 108.2 107.2 107.1 108 108.8 110.8 111.1 111.4 119.7 133.7 140.6 145.9 151.1 156.3 164.4 179.5 198.7 222.1 244 266 287.8 311.7 333.4 350.5 351.5 349.4 347.1 346.2 345.8 342.5 339.8 334 326.8 317.3 306.7 296.8 293.3 288.2 274.9 259.4
362.4 369 376.4 384 391.5 398 400.2 402.6 404.4 405.7 405.1 404 402.5 400.1 396.6 393.9 392.2 390.1 388.4 387.1 386.9 386.9 388.4 391.3 393.5 395.5 399.6 403.7 408.4 414.3 419.9 424.7 425.8 425.7 425.9 426.5 427.3 426.9 427 427.2 428.2 427.7 426.6 425.1 423 420.8 417.7 414.9 410.6 407.3 403.1 399 395.2 391.3 388.5 384.4 375.5 359 329 290.5 255.6 267.9 302.4 332.4 353.5 370.1 377.5 374.6 364.6 337.8 315.3 332.6 353.7 375.2 395.1 403.2 406.8 409.6 412.1 413.9 415.3 416.4 417.6 418 417.2 414.2 407.7 399.5 389.7 377.3 366.8 361.1 355.3 349.8 342.8 333.7 322.8 322.1 318.5 315.1 309.5 289.1 268.5 287.6 306.1 318.3 331.3 338.1 339.9 337.6 328.7 311.3 286.9 260.5 237.4 217.5 196.3 175.3 162 157.2 152.9 151.6 157.5 170.9 183.3 198 207.3 211.3 215.2 217.5 211.6 199.5 193.2 184.5 175.3 169.9 163.2 156.6 150.6 145.2 140.8 137.7 135.6 131.3 126.7 122.9 120.9 119.6 118.7 117.8 117.2 117.2 117 116.8 117 117.1 117.3 115.8 113.9 110.9 107.2 106.6 107.2 108.3 108.3 109.7 111 110.8 112.8 129.1 140 146.2 151.3 156.1 162.2 175.9 194.1 216.5 238.6 261.4 285.8 309.1 327 338.5 340.5 340.8 340.4 338.5 336.3 334.4 330.7 326.1 318.3 310.4 301.5 294 293.3 287.8 270.6 256.5
363 370.4 378.3 386.4 391.9 395.8 399.3 401.9 403.6 403 402.8 401.1 399 396.2 393.5 391.9 390.7 389.2 387.6 387.2 386.8 387.8 391.5 394.6 397.4 400.8 406.9 412.3 417.3 421.6 426.8 429.8 429.8 429 428.4 428.2 428.1 428.1 427.9 427.5 427.2 426.9 426.1 424.2 421.6 419.5 416.8 413.1 409.1 405.1 401.4 397.1 392.9 389.8 388.7 386.1 374.7 350.2 316.6 278 243.4 276.7 310.2 337.1 355.6 372.4 375.6 369.4 345 318.8 317.1 340.6 362.5 383.7 398.4 403.8 406.9 409.8 412.2 413.6 413.7 414.5 415.7 415.9 415 411.3 404.6 397.3 389.3 381.1 375 369.2 363.5 357.6 350 341 330.1 331.1 327.2 322.3 315.6 293.4 247.4 266.2 283.3 305.2 329.4 338.1 339.1 336.7 322.7 304 278.7 253.8 231.4 213.5 194.1 174.3 161.5 156.3 151.5 152.4 159.7 173.9 193.3 203 207 207.2 209 206.5 200.1 191.8 184.9 175.6 165.6 160.3 153.2 148.9 144.2 138.7 135 133.2 131.6 126.1 121.1 118.6 117.5 117.4 117.3 116.6 116.3 115.9 115.8 115.9 116 115.2 114.6 113.5 112.7 108.2 107 106.4 107.3 107.9 108 110.1 110.5 110.4 111.8 128.5 140.2 145.4 150.5 155.1 160.2 172.4 190.7 212.2 235.2 259 283.9 304.3 321.7 330.7 335.4 335.2 332 328.3 327.6 325.5 322.7 317.5 311.2 303.7 293.1 291.5 291.5 285.4 265.1 253.1
364.9 373.1 381 387.9 391 394.9 398.8 400.7 400.5 400.4 400.5 398.7 395.5 392.6 390.9 390.2 389.2 388 386.9 386.8 387.4 390.3 393.7 397.7 401.5 406.2 413.6 417.9 422.9 427 431.2 432.2 431.7 430.7 429.4 428.9 428.8 428.5 427.6 426.7 425.8 425 424.2 422.2 420.1 418.3 415.9 411.3 407.2 403.7 399.6 395.7 388.9 386 386.4 379.3 360.4 327.8 300.4 264.9 242.7 281.5 316.8 341.4 360.9 375.5 371.2 353.6 324.4 300.2 323.3 347.4 369.2 387.8 397.7 402.4 405.4 409.3 411 410.7 408.4 410.6 413.1 414.3 413.3 409.2 404.8 397.9 392.3 386.9 381.6 376 370 362.4 354.9 344.5 339.8 338.1 331.2 324.2 313.9 280.7 233.8 231.8 263.1 284.6 318 331 334.8 330.9 316.8 295.5 268.9 245.2 224.7 208.7 191 172.4 160.7 155 150.5 153.7 162.6 176.4 192.3 197.6 198.5 199.3 199.7 196.4 190.6 184.2 180 175.4 162.9 153.1 147.6 144.1 139.8 134.8 130.8 128.1 125.6 119.8 115.8 114.5 114.9 115.3 115.8 115.2 114 112.3 110.5 110.2 112.4 112.9 112.7 112.3 111.8 106.6 106.7 106.5 107.2 107.5 107.5 109.1 108.9 109.2 118.5 133.4 140.8 146 150.7 155.4 160.2 172 190 211.9 234 257.1 280.5 299.9 316.8 329.4 332.3 329.5 324.3 319.9 318.2 316.2 314.2 309.1 303 293.6 287.9 289.3 288.1 280.4 259.3 249.2
365.6 374.1 381.2 385.7 391.1 396.4 397.9 397.9 398 398.7 398.3 395.5 392.2 389.9 388.7 387.8 386.8 386.5 385.8 386.6 388.6 391.8 396.3 399.6 404.3 411.3 417.4 422.5 427.6 430.2 431.9 432.8 432.7 431.2 429.3 429 428.5 427.7 426.2 424.9 423.8 422.3 421.1 418.8 417.4 416.3 413.7 409.2 406.5 402.8 397.2 393.6 386.8 376.7 371.4 358.9 349.9 307.8 270.9 245.2 253.1 288.1 322.1 343.8 366.3 369.4 363.8 339.5 307.4 296.4 322.2 346.7 369.6 386.3 394.1 398.1 402.2 404.5 404.2 401.8 401 406.3 409.5 411 410.3 409.8 406.2 399.7 395.3 390.7 385.5 379.4 372 365.3 357.7 348.3 344.7 340.6 332.2 324.6 306.1 263.8 220.3 216.3 246.3 262.3 290.7 319 327.6 323 309.4 282.7 255.8 235 218.5 204.9 188.4 171.4 160.3 153.5 149.9 155.1 164.8 176.8 185.2 187.2 188.1 189.1 188.7 185 181.3 178.4 174.1 168.5 156.7 147.6 143.3 140 136.7 131.4 126.3 123.7 113.8 103.2 101.2 101.5 102.1 105.8 113 113.4 112.4 110.3 109.5 109.4 110.2 110.8 111.5 111.6 110.2 106.5 106.7 106.7 106.8 107.3 107.4 108.1 111 123.9 131.8 136.7 140.2 145.1 151.2 156.9 161.8 173 189.6 210.4 232.3 257 278 298.2 314.8 324.8 325.6 321.4 315.6 311.2 309.8 307.4 304.9 300.6 294.3 284.9 285.3 285.7 281.2 273 255.4 245.8
364.8 372.6 378.7 385.4 392.2 395.2 395.5 396.1 396.5 397.2 395.5 392.7 389.6 387.5 386.3 385.4 384.5 384.4 385.4 387.3 390.1 394.8 398.6 402.4 408.4 415.3 421 426.5 430.1 431.3 432.1 433.1 433 431.3 429.2 428.1 427.5 426.1 424.6 423.2 421.6 419.9 417.7 415.9 415.1 413.9 411.1 407.4 405.8 401.5 396 392.5 386.1 375.9 344.6 330 325.5 287.8 247.1 243.4 272.5 302.1 328 340.2 348.3 353 353.9 330 299.2 277.7 303.8 331.9 361.9 381.9 387.9 391.7 394.2 394.5 393 388.9 396 401.5 404.6 407.2 410.2 410.3 406.8 401.5 397.9 393.5 387.8 380.5 373.8 366.9 360 353 347.4 340.7 332.7 322.4 293.1 247.6 209 198.3 217.5 238.1 266.5 292.5 307.6 306.4 292.3 265.1 243.4 228.3 215.4 203.3 188.5 173.3 160.7 152.4 149.5 155 163.1 171.3 175.1 176.6 178.2 179.2 179.5 178.1 176.7 174.5 168.6 159.8 149.4 141.7 138.5 136.1 131.8 123.4 122.4 119.7 100.9 101.4 101.2 101.7 102.4 102.2 108 111.1 110.7 109.6 109.5 108.7 108.2 108.8 108.9 109.4 108.9 106.3 106.6 106.1 106.6 107 107.5 113.1 123.9 130.1 134.5 137.7 141 144.4 150.1 156.7 162.4 172.8 190.1 210.4 233.3 255.7 278.5 297.5 310.3 318.9 318.7 316.9 313.2 306.8 302.2 300.4 296.8 292.9 286.8 280.3 281.1 278.9 272.2 263.6 248.4 243.1
362 369.2 377.3 385.3 390.3 392 393.6 394.5 395.3 394.6 392.2 389.7 387 384.5 382.6 382 383.2 384.9 386.4 388.3 391.7 395.5 400.6 405.7 412.7 418.3 425.7 429.5 431.1 431.6 431.5 432 432 430.3 428.3 427.1 426.2 424.6 422.9 421.4 419.4 417.2 414.4 412.5 411.8 410.3 408.4 404 402 400.5 396.2 391.9 387.6 375.4 348.4 315.2 293.1 266.6 225.7 258.1 285.5 300.9 312 324.2 331.7 333.5 332.1 323.9 290.3 255.2 289.2 321.7 349.6 363.9 370.4 372.7 374.9 376.1 374.9 381.4 390.2 396 400.1 404.4 408.5 408.9 405.2 400.6 399 393 386.5 381 374.7 368.4 362.2 355.6 349.6 341.8 331.7 317.8 276.2 235.3 196.8 179 194.2 213.7 237.8 257.5 277.2 288.6 271 250.2 232.8 222.1 212.1 202.1 189.4 176.9 162.8 152.2 147.8 150.2 155 161.3 166.7 169.1 170.7 172.6 173.5 173.2 172.1 168.9 161.3 151.1 141.7 137.4 133.9 127.8 112.2 106.7 104.5 115.4 101.2 101.4 101.2 102 102.7 103 102.3 110.3 109.9 108.6 106.8 106.5 106.5 107.4 107.6 107.5 107.1 105.5 104.6 105.5 106.9 108.3 117.6 122.2 126.3 131.1 135.4 138.5 141.6 144.8 150.2 156.9 162.9 174.3 190.8 211.7 236 262.2 284.4 298.5 308.3 313.3 314 312 307.8 303.1 298.4 295.3 291.2 287.2 280.8 278.8 276.3 269.5 261.9 252.6 242.8 241.3
358.5 367.2 375.3 382.9 386.5 388.5 390.4 392 392.2 390.6 388.5 387 381.9 379.4 382.2 383.2 384.8 386.9 388.8 391.6 393.9 397.4 405.8 411.8 418.2 422.5 428.7 430.6 430.7 430.9 431 431 429.9 428.6 426.2 425.1 424.3 422.8 421.1 419.2 416.6 414 411.3 408.8 407.5 406.5 404.2 401.4 401.1 399.8 395 392.1 384.4 376.3 359.8 319.4 278.6 245.4 226.3 252.9 264 275.2 287.8 299.5 308.6 313.8 319.2 313.8 274.9 246 278.2 307.1 331 337.7 341.7 344.4 347.8 353.5 359.4 373.6 383.7 391.1 396.8 401.3 403.3 401.6 399 394.6 390.1 386.1 383 378.7 375.1 369.7 363.4 356.6 349.4 340.4 329.5 310.6 266.1 223.9 190.1 169.1 181.6 197.2 218.3 237.5 252.7 262.5 250.4 238.3 226.9 216.5 208.8 200.8 191.4 180.1 166.8 155.4 147.7 144.7 148.2 153.8 159.8 164.3 166.5 168.9 169.1 168.3 165.6 160.6 151.8 142.8 135.4 132.9 127.6 114.1 108 106.3 104.7 101.9 98.5 99.8 100.5 101.2 102.3 102.4 102.5 103.5 109.8 108.3 106.4 105.7 105.7 106.3 106 104.9 104.4 103.7 105 111.3 119.4 123.5 125 127.4 131 135.2 137.2 139.3 142.3 146.5 151.6 157.2 163.9 175.5 191.8 214 241.7 268.2 286.5 297.7 303.8 305.8 306 304.8 302.4 298.8 295 290.5 284.9 279.1 274.6 271.4 266.1 257.6 250.7 243.3 240.5 239.9
351.8 362.7 372.9 379.1 382.6 384.9 386.1 387.9 386.6 384 383.5 383.5 377.4 383.4 385.7 386.6 388.1 391.9 394.8 398.6 400.9 404.1 409.7 417.7 421.9 425.8 428.5 429.5 429.3 428.9 428.2 427.9 426.4 425 424.1 423 421.8 420.5 418.9 416.7 414.1 411.2 408.3 405.6 403.4 402.2 400.8 400.3 400.7 398.3 393.8 388.9 382.3 377.7 365.2 336.8 290.9 259.4 222.7 211.2 227.6 248.6 263.8 275.4 287.9 299.5 311.4 296.3 264.9 234.4 264.1 290.4 302.5 307.9 312.7 318.6 326.5 333.3 351.2 367.8 375.3 382.3 387.5 389.4 389.3 385.8 382 377.6 376.2 377.7 380.3 382.1 379.7 371.5 364.3 356.7 347.5 338.5 324.8 296.4 254.5 211.9 185.7 169.7 172.1 186.2 201 217.5 231.1 241 234.6 227.3 219.1 212.4 205.4 199.4 191.6 182.1 172.3 162.1 152 143.2 142.3 145.6 151.6 158.7 163.3 166.3 165.6 163.3 159 151.7 142.3 135.5 131.6 128.7 120.7 110.3 105.6 104.6 103.6 101.5 100.3 100.9 98 98.8 99.2 99.2 99.5 100.2 106.4 110.8 106.7 105.6 105 103.7 103.8 104 104.4 107.2 112.1 120.7 125.8 127.6 129.8 133.1 136 138.4 139.6 141 143 146.4 151.3 157.2 163.6 175.7 194.7 218.4 248.5 271.4 284.8 290.6 293.9 295.8 296.3 295.8 294.9 291.8 288.4 284 277.9 271.6 266.5 259.9 252.9 247.2 243.1 240.3 238.6 238.6
333 349.4 363.3 371.3 376.1 377.9 380.1 379.4 376.5 372.7 376.8 383.1 388.7 389.9 390.2 393.6 397.6 401 403.2 405.4 408 411.5 416.2 421.1 425.3 427 427.6 427.6 427.2 426.2 425.4 425 423.3 421.4 420.7 419.3 418.4 417.7 416.2 413.6 411.2 408.3 405.1 402 398.3 397.1 396.3 396.6 397.5 395.1 391.7 387.8 383.8 378.5 370.5 352.4 309.4 283.7 249.3 221.3 197.8 222.2 241.6 255 265.9 276.9 281.7 270 247.8 219.5 256.5 279 275.2 277.6 286.6 298.4 307.6 323.6 344.2 353.9 355.2 359.6 363.3 363.2 360 358.8 359.7 360.5 361.7 372.6 380.9 383.7 381.5 375 364.9 356.4 346.5 334.8 320.3 287.4 243 205.9 182.4 170.6 164.6 178 191.7 205 215.7 222.7 222.2 217.5 212.1 207 202.8 197.6 191.6 186.2 179.7 169.8 159 147.1 138.4 139 145.1 153.4 159.5 163.5 162.3 159.3 153.1 145.1 136.6 131.2 128.8 126.4 119.3 108.7 104.6 103.9 102.6 99.5 102.7 104.8 105 104.8 105 105.1 105 104.6 102.3 106.2 111.5 104.6 103.1 105 106.5 107.4 110.2 115.6 122.1 126.8 130.3 131.2 132 135.7 139 141 142.3 143.2 144.5 146.1 149.8 156.6 164.2 176.5 197.5 223.5 249.4 268.5 278.9 283.5 285.8 287.7 287.8 287.8 287.2 284.4 281.1 277 272.5 263.9 254.1 250.7 243.8 241.7 239.5 237.9 237.4 237.5
313.2 333 349.8 359.7 360 362.3 368.5 371.7 375.4 382.9 388.7 392 394.7 396.6 400.2 405.4 407.7 410.1 409.8 410.9 414.4 417.4 420.9 424.1 425.5 426.3 425.7 426.3 425.4 424.2 423.3 421.8 419.7 418.4 417.2 416.7 416.1 414.3 412.2 410.4 407.5 404.9 401.9 397.8 393.1 387.7 386.6 390.9 392.2 391.2 390.5 388 384.4 379.2 376.1 365.3 331.2 303.1 265 232.2 201.8 202.3 222.4 236.7 244.1 253 254.6 239.5 219.5 217.2 255.5 257.7 246.1 249.7 265.9 280 292.9 308 324.7 329.9 332.3 335.4 335.8 331.8 330.4 332.2 333.3 341.6 362.4 376.4 383.1 385.5 383.2 375.2 363.3 353.8 342.4 327.3 308.6 282.2 241 204.5 178.2 168.3 161.7 171.7 184.4 195.2 205.6 213.8 214.2 211.4 206.9 202.7 199.2 195.4 192 187.7 181.6 174.2 163.3 150.6 138.7 134 142.4 151.1 157.8 160.8 159.1 155.1 149.4 140.9 133 127.9 125.1 123.9 117.8 107.5 104.3 102.9 99.2 95.8 104.7 106 106.8 107.6 108.4 108.7 109.7 111.1 112.4 119 119.4 122.2 120.1 118.6 117.1 119.8 123.5 127 130.1 134.2 136.1 135.1 134.2 136.6 140.9 144.1 144.9 146 146.9 146.9 149 154.1 164 183.3 205.3 227.4 248.6 265.2 272.8 276.4 278.7 280.3 280.6 280.2 279.2 276 271.7 267.4 261 251 249.1 243.8 238.6 237.8 236.5 235.7 235.8 236.9
340.1 320.9 327.9 346.1 359 373 379.5 383.4 387 391.1 395.3 399.8 402.9 406.2 411.3 413.9 416 416.1 415.5 416.3 420 422 423.7 425.7 425.8 424.6 424.1 424 423.3 422.2 420.5 418.6 416.8 415.8 415 414.2 412.6 411 409.2 406.9 404.2 401.8 397.6 393.2 382.5 368.2 371.9 384.2 387.6 389.7 389.4 388.6 386.9 383.4 378.8 370.7 347.8 312.5 273.5 242.2 215.4 189.6 201.8 216.4 223.9 228.3 222.1 210.8 192.8 200.2 221.4 219.8 216.7 225.6 243.9 257.6 271.5 287 300.1 306.6 309.8 310.9 307.5 298.1 295.8 300 314.8 344.2 371.9 382.5 385.5 387.6 380.9 370.4 359.7 348.7 335.1 318.7 298.5 272.4 237 202.3 175.7 167.3 158.9 166.7 177.1 186.2 196.2 204 205.4 203.8 200.5 197.9 195 192.1 189.3 184.9 178.4 170.5 160.4 149.8 138.6 131.7 141.7 151 157.5 159.4 156.9 151.6 145.4 137.1 129.1 124.4 121.9 120.6 113.8 105.8 104.2 101.1 93 104.1 105.6 106.9 108.1 108.5 108.6 108.5 110.3 116.9 128.7 142.5 155.2 155.2 148.1 143.4 140.7 135.1 135.1 135.5 138.3 141.2 140.3 140 139.4 140 144.2 147.2 148.3 148.9 149.6 150.3 151.8 156.6 169.4 191.4 211.5 229.3 247.9 260.8 266.4 270.1 272.5 274 273.9 273.1 270.2 266.1 260.1 253.1 246.3 241.9 240.4 234.9 234.3 234 233.9 234.4 235.6 237.2
367.5 346.6 351 370.3 379.1 384.4 388.2 391.5 394.6 399.1 404.6 408 411.4 415.1 418.3 420.8 421.4 420.9 420.4 421.7 424.3 425.8 426.3 425.6 424.7 423.4 422.9 422.6 421.9 419.8 418.4 416.9 414.3 412.9 412 410.3 408.9 408 405.5 403.4 400.5 396.2 391.2 388.5 379.1 349.6 362.8 376.5 383.6 388.4 389.1 389.3 389.3 386.3 382.2 376.5 364.7 326.9 287.6 257 232.5 210 189.5 190.9 197.4 202.1 197.2 182.8 174.8 178.2 183.2 182.5 187.4 201.9 219 234.3 247.8 264.6 278.3 283.3 285.3 284.7 279.3 265.4 265.1 286.1 315.5 345.4 374.5 384.2 386.9 384.2 376.8 365.5 354.8 342.4 328.4 312.8 292.9 264.6 232.6 201.5 177.1 167.8 157.7 160 169 178.5 187.2 194.2 196.3 195.3 193.7 191.9 190.3 188.2 185.4 181.4 173.3 164.4 156.3 146.3 136.6 129.9 140.7 150.6 156.9 157.4 153 146.1 139.9 132 125.2 121.2 119.5 117.6 110.6 105.8 104.1 93.2 102.3 104.8 106.2 107.7 107.7 107.8 107.9 107.9 112.7 128.6 141.9 157.5 175 183 179 174 168.5 160.5 150.9 147.5 146.1 145.5 144 143.8 143.6 145 147 150.3 151.6 152.4 153.1 155.1 158.5 167 178.4 192.8 213.2 231.3 246.8 254.4 260.1 265 268.6 270 268.7 266 261.2 254 245.6 239 234.3 232.2 230 230 231.1 232.6 234.5 235.5 237 239.4
382.2 365.6 353.9 377.4 386.5 390.4 394.1 397.7 402 406.3 410.6 414.5 418.3 421.8 424.5 425.6 425.3 425.3 425.5 427.2 428.3 429 428.1 426.3 423.6 422.3 421.2 420.7 420 418.6 417.1 413.7 411.4 410 408.7 406.9 405.7 404.3 401.7 398.9 395.3 390.3 387.5 383.8 370.1 342.5 348.7 367.5 380.8 386.3 389.5 390.5 389.8 388.3 385.2 381.9 375.5 343.8 308.3 275.7 252.1 230.4 212.8 199.5 190.8 185 182.3 195.2 199.4 193.3 187.4 179.2 167.8 177.5 195 209.5 226.9 243.7 251.9 255.7 258.8 259.3 244.8 235.3 258.6 286.9 315.2 345.3 373.2 383.3 385.1 382.4 372.8 359.6 348.3 335.7 320.5 308.2 290 262.2 230.4 200.8 177.7 167.9 160.6 154.4 162 171.2 180.1 186.6 188.5 188 186.6 185.2 184.2 182.6 180.8 177 168.7 160.5 151.4 142.6 132.5 128.2 139.8 149.5 154 152.7 146.9 139 133.2 127.3 122.1 119.7 117.9 114.7 108.5 105.5 104.2 93 103.6 105 106.8 106.7 106.6 107.1 107.1 108.8 120.2 134.5 148.9 165.5 182.1 193.8 202.8 204.1 198.8 188.9 176.9 166.7 160.6 154.9 149.1 147.6 147.7 148.5 149.8 151.9 153.8 155.7 157.1 159.8 169.8 183.5 194.1 199.8 209.3 224.6 238.9 247.5 254.9 260.8 266.4 268.5 264.6 256.9 248.2 238.7 232 228.3 227.1 227.1 227.9 229.8 232.4 234.8 236.6 237.7 239.1 242.1
388.6 381.6 363.6 379.5 391.2 395.5 399.3 403.4 407.9 412.2 416.3 420.9 424.8 428.3 429.5 429.3 429 429.4 429.9 430.4 430.9 430 428.5 425.8 422.9 421.1 419.9 418.5 417.9 416.4 413 410.1 407.7 405.6 404.2 402.8 402.3 400.5 398.2 395.5 391.5 387.7 382.2 367.7 350 334.5 335.1 358.4 376.6 385.3 389.8 390.9 392.1 390.7 387.4 383.5 378.7 365.2 330.2 298.7 273.9 253.2 238.3 227.4 221.2 217.7 218.7 227.7 228.4 224 218.7 203.7 183.4 165.6 170.6 187.8 207.6 218.7 226.1 230.9 233.2 229.6 213.3 225.6 255.8 284.5 312.7 344.4 371.5 382 384.2 379.2 365.1 350.7 338 325.4 312.1 301.4 288 265.2 232.5 199.6 177.8 169.4 165.1 156.5 154.9 164.4 173.4 178.6 181 180.7 179.6 178.5 177.4 176 174.5 171.5 163.1 154.6 145.7 137.7 128.5 129.7 140.4 147.5 150.2 147.3 141.4 135 129.1 124 120.9 119.8 116.6 113 107.9 106 104.6 93 102.9 105.3 106.9 106.6 106.4 106.8 107.9 109.5 120.2 134.7 149.4 165.3 182.6 199.1 212.4 218.6 213.5 206.3 192.3 181.2 173.5 167.7 160.9 159.3 158.3 157.7 156.5 154.6 155.5 158.3 161 171.6 185.8 200.6 213.1 222.1 225.7 233.3 241.7 250.2 258.1 263.8 267.2 266.6 256 242 235.8 229.5 225.3 224.6 225.7 227.6 229.7 231.5 234.6 236.9 238.7 240.2 242 248.2
392.1 390.4 380.2 373.4 393.8 398.9 402.8 407.8 412.7 417.1 422.3 427 430.8 432.4 432.5 431.9 431.7 431.5 431.7 431.9 431.7 430 427.7 424.5 422.4 420.3 418.6 416.5 414.4 411.8 409.3 405.4 402.6 400.5 398.7 397.5 397.3 396.8 396.2 393.5 390.6 387.4 379.2 367.5 350.9 329.9 323.3 346.7 369.7 384.4 389.9 393.8 393.7 391.1 387.4 382.4 377.2 368.6 352.4 322.9 299.7 279.9 265.7 255.7 250.9 250.1 251.1 259.3 257.6 256.8 248.5 227.6 204.5 180.7 161.9 172.2 186.2 194.3 200.9 206 205.4 201.3 195.8 223.9 254.4 282.1 308.8 339.4 366.9 379.9 378.6 366.1 351.4 337.6 324.9 313.2 301.4 291.2 281.9 266.7 237.5 201.5 179.2 170.2 165.9 160.2 150.4 157.8 167.2 172 173.6 173.3 172.1 170.9 170 168.5 166.3 161.2 155 147.9 139.3 133.5 127 131.4 139 144.6 145.4 143.2 138.6 132.7 126.4 122.6 120.6 119.7 115.1 110.7 107.4 106.4 104.5 93.4 101.6 103.7 105.6 106.4 106.6 107.2 108.9 109 119 133.6 150.2 167.3 185.2 198 208.9 211.4 210.6 205.9 194.3 186.9 184.1 180.2 176.9 177.2 176 174.7 172.6 167.5 164.6 165.6 171.5 184.7 201.6 215.4 227.1 235.7 241.5 243.9 250.8 260.4 262.8 263.5 264.9 260.1 240.8 235.2 232.1 225.9 223 223.6 227.2 229.5 232.3 235.1 237.1 239.5 241.6 243.3 245.9 252.7
392.5 393.3 388.4 380.9 394.2 402 406.7 411.6 417.1 422.7 428.1 432.5 434.9 435.6 434.9 433.9 433.3 433 432.5 432.2 430.9 428.6 425.7 422.6 420.4 418.9 417.3 414.5 410.8 407.5 405.1 401.8 398.2 394.8 393.9 393.3 393.5 393.7 394 392.1 390 387.1 382.2 375.4 356.2 329.8 306.6 334.6 359.6 378.9 389 392.5 391.3 389 384.3 377.6 365.7 354.9 344.5 336.7 326.5 309.7 294.8 285.7 282 283.1 284 291.2 289.1 290.1 274.3 247.7 222.5 195.5 170.1 159.2 164.1 172.9 179.8 184.9 184.9 181.9 197.9 223.9 252.1 277.7 301.6 326.9 353.5 363.4 357.7 347.5 334.7 322.5 310.5 298.9 287.5 278 271.4 259 234.4 201.8 180.2 171.1 165.6 159.2 151.1 151.4 161.3 165.3 165.6 165.4 163.9 163 161.6 159.9 156.6 152 146.7 137.7 134.1 130.6 125.4 131.4 137.4 140 140.8 139.2 135.3 130.2 126 123.2 121.1 117.4 112.4 108.7 106.9 106.5 104.3 99 100.6 103.6 104.2 104.7 105 105.7 107.6 114.1 125.1 141.3 155.9 169.3 181.8 194.2 203.7 203.9 201.4 196.2 188.3 186.9 186.6 188.3 194.4 195.7 191.7 191.4 189.2 187.2 185.3 183.1 184.7 198.4 214.6 227.4 236.2 242.4 247.1 250.5 256.5 259.8 259.8 261.1 260.9 250 233.6 230.8 227.9 223 222 224.9 231.1 234.7 239.4 242.1 246.4 246.7 247 247.5 251.2 256
390.8 392.3 393 392.5 397.1 404.3 409.9 415.4 421.5 427.3 432.6 436.6 437.9 437.2 436.1 435 434.1 433.6 432.9 431.7 429.8 427.1 423.6 421.2 418.6 416.4 414.5 411.2 408.1 402.5 398.7 396.1 392.2 390 389.7 390.1 390.1 391.8 392.1 390.5 388.3 385.2 380.7 374 350.5 318.2 293.2 326.2 353.6 377.5 386 387.4 385.1 379.8 368.2 351.7 338.6 331.7 329.2 329.1 328.3 323.4 319.3 318.2 319.3 321.2 318.1 313 314.9 314 292.2 264.5 237.6 209.7 186.2 166.6 157.8 155.5 159.2 166.7 166.7 176.1 198.8 220.2 245.9 269.9 292.5 314.1 332.4 339.3 336.8 329 319.7 308.7 296.2 284.5 272.6 262.8 253.1 239.3 220.8 197.6 179.7 171.6 165.6 158.6 150.8 147.1 155.4 158.9 158.4 158 156.7 155.3 153.7 150.6 146.8 144.8 138.7 132.8 131.9 128.3 124.2 130.4 134.2 135.4 136 136 133.5 128.3 123.9 121.4 118 114.1 110.2 107.6 106.3 106.9 105.2 100.6 92.9 102.2 103.9 103.9 104.4 106.2 111.4 122.2 134 146.1 157.7 169.5 182.1 190.4 194.6 192.7 188.7 184.3 181.6 183.8 186.2 193.3 203.4 210.3 212.1 212 211.6 207.5 203.5 203 205.1 212.9 225.2 235.4 240.8 246.5 249.5 251.6 254.4 255.6 255.2 254.9 253.6 239.2 228.7 226.6 223.9 221.8 221.6 226.7 236.9 245.5 254.6 258.7 257.8 254.9 252 252.2 255.1 256.9
388.7 390.7 392.3 395 399.4 406 412.1 418.9 425.1 431.3 436.6 438.9 439.1 438.1 437.1 436.1 435.1 434.4 433.1 431.1 428.7 425.2 421.7 419.4 416.1 412.8 410.2 407.2 403.5 398.6 391 388.9 385.5 383.5 384.6 386.6 386 388.7 389.3 389.9 387.2 381.8 376.6 363.3 342.1 308 298.3 325.5 352.5 375 380.7 377.4 369.4 354.3 338.1 325 316.2 310.8 308.3 307.1 310 314.6 316 321.6 322 324 335 335.2 327.6 327.1 305.9 280.4 251.9 225.2 202.1 184.7 170.9 158.6 153.3 151.8 153.2 166.8 188.6 211.3 236.4 261.3 282 300.1 313.5 318.5 317.9 313.6 305.7 294.6 283.1 271.7 258.3 240.2 226.4 215.5 204.5 190.1 177.7 171.4 165.7 158.2 150.4 145.1 150.3 154.4 153.5 151.5 149.7 148.1 146.1 143.5 140.9 138.5 133 130.7 130.7 128.7 122.4 127.2 131 133.4 135.1 134.3 130.6 126.2 120.4 117.5 114.7 111.8 109.5 106.9 106.3 107 104.4 100.3 97.5 99.2 103.1 103.5 104.9 107.4 114.4 125.5 136 147.5 161.6 169 177.9 182.4 183.6 180.2 176.4 175.5 177.2 180.7 186 196.7 207.6 214.8 219.5 222.1 223.9 222.7 219.7 217.5 221.3 228 234.9 240.2 243.5 245.7 247 247.5 249 248.9 247.2 245.9 244.9 233.7 225.4 223.6 221.8 220.6 221.4 228.5 241.3 252.1 260.7 262.8 260.7 257.8 255.3 253.7 255.2 256.6
386.2 388.8 391.2 394.3 399.5 406.6 414.1 421.2 428.4 434.7 438.5 439.7 439.5 438.7 437.8 436.9 436.4 435.6 434.3 430.9 427.7 423.8 420 415.9 412.9 409.1 405.8 402.3 398.5 393.1 387.1 374.2 374.6 376.5 380.3 380.9 379.2 382.2 385.3 384.7 380.6 374.5 358.8 340.4 326 306 288.9 320.4 348.9 363.2 364 353.9 340.6 325.9 313.1 301.9 293.6 287.9 285.2 286.5 290 290.1 284.1 283.2 287.8 294 312.3 317 315.2 310.3 313.1 294 266.8 241.8 222.8 208.3 195 179.2 162.9 153.9 149.7 152 175.5 199 225.3 250.8 271.2 287.7 298.1 303.1 302.8 299.2 292.3 281.9 271.4 260 241.2 216.7 202.4 196.8 191 182.6 175.6 170.6 164.9 157.8 151 145.1 143.5 147.9 148.8 146.8 145 143 140.8 138.6 136.8 134.2 131.1 129.4 129.5 129.8 127 121.6 128.3 132.6 134 130.5 127.2 123.1 117.9 115 112.5 110.2 109.3 105.4 105.4 106.1 102.8 99.8 98.6 95 102.6 104.1 107.6 109.1 118.2 129.7 139.2 151.7 161.6 166.9 171.2 173.7 171.3 168.2 168.1 170.2 173.5 176.3 184 194.2 203.6 210 214.1 218 221.4 223.9 224.6 226.2 232.6 239.3 242.5 241.7 241.2 240.9 240.8 240.4 241 240.4 237.8 235.3 236.3 227.4 222.5 221 220.3 219.8 222 230 243.7 254.3 262.1 265.7 261.3 257.3 255.1 253.4 253.7 254.7
382.2 386.4 390.8 394.9 400.2 407.4 415.7 423.3 430.7 436.2 438.9 440 439.5 439 438.4 437.8 437.7 437.2 436.3 432.6 427.8 423.6 419.2 414.2 408.8 405.8 402.7 398.6 393.2 388.3 385.3 373.5 356.3 371.6 374.4 372.8 372.3 377.4 377.6 375.4 368.7 351.3 331.8 318.5 309.2 302.8 277.7 312.1 333.7 341.8 336.8 324.3 313 302.3 291.1 279.6 270.4 264.7 261.2 260.6 260.2 255.1 249.4 246.6 253.6 265.4 276 281.7 286.6 289.8 292.6 290 277.8 259.2 244 232.6 219 201.2 181 162.1 150.9 148 163.9 187.5 212.7 237.5 258.3 275 285.1 288.4 288.3 284.7 279.7 271.4 260.9 245.2 219.5 198.8 188.7 183.7 181.4 177.6 173.1 168.2 162.9 156.8 151.2 145.8 141.2 140.6 142.6 142.6 140.9 139.6 137.4 135.3 133.2 131.1 129.6 127.9 127.4 128.5 127.9 120.1 123 126.3 124.6 121 118.9 115.9 112.9 111 109 106.4 104.6 104.2 103.1 102.9 100.4 98.6 92.4 101 103 106.7 110.4 114.5 124.9 135.8 143.9 153.9 158.7 162.3 163.8 162.8 160.6 161.3 163.5 165.7 168.2 171 179.3 187.2 194.7 200 203.8 210.6 217.9 223.1 227.6 231.5 236.9 239.5 239.6 239.1 238.6 236.4 234.8 233.3 233 231.6 228.7 228.4 226.7 220.9 219.7 219.3 218.9 220.2 223.5 231.5 244.6 255.6 262.9 264.2 261.2 252.8 252.2 251.5 251.7 251.9
377.8 384.4 391.1 396 400.9 408.5 416.9 424.9 432 436 438.1 439.4 439.7 439.3 439.1 438.9 438.9 438.6 437.5 433.7 428.4 423.9 418.4 412.2 407 402.9 399.3 394.5 389.7 387.4 383.2 371.5 356.9 349 359.1 354.3 350.9 357.9 359.3 356.4 343.7 324.4 309.3 296.4 285.6 281 271.8 294.9 308.1 311.2 305.4 297.3 289.2 281.7 270.1 256.6 250.2 250.1 251.6 249.8 247.7 246 243 224.8 220.8 237.7 241.2 250.5 258.3 264.8 271.6 276.7 277.6 273.8 265.6 255.4 239.6 217.2 193.8 169.7 153.5 147.5 153.4 177.8 201.6 225 245.1 262.1 271.7 275.4 275.9 273.7 269.9 263.3 248.4 225.6 203.2 191.1 184.5 180.2 176.3 172.8 169.5 165.5 160.4 155.6 150.3 145.4 141.8 138.6 137.9 137.8 137.9 136.9 134.7 132.5 130 127.7 126.4 124.5 123.5 122.7 122.1 123.1 117.7 116 115.9 114.4 114 115.4 114.5 111.6 109.3 105.9 101.6 102.3 102.3 102.1 99.2 92.1 100.8 102.1 106.5 110.7 115.1 119 130.2 139.4 143.8 150.4 155.1 156.9 156.9 155.5 155.4 157.6 160.4 162 164.2 168.9 174.8 181.1 185.6 190.1 199.1 209.3 218.4 223.8 228 231.5 234.1 235.3 236.5 237.5 236.8 235 232.8 229.9 227.9 226.2 226.4 224.5 222 217.3 217.2 217.7 219.5 221.9 225.4 233.4 245 255.9 260.6 260.2 252.7 246.1 248.8 249.8 248.9 247.3
374.3 381.6 390 396.3 402.4 410 417.5 425.3 431.5 435.3 437.5 438.6 439.2 439.1 439.2 439.5 439.3 438.8 437.6 434.4 429.1 423.8 417.7 411.1 405.5 402.1 398.8 397.5 396.8 395.6 392.5 386.2 373.5 353.9 337 330.7 326.3 329.5 333.7 330 317.4 299.6 300.7 305.8 308.6 313.1 285.8 268.1 282.9 283.3 279 274.1 269.3 262.7 253.9 256.9 264.5 267.2 274.9 278.5 274.1 272.1 261.6 250.7 220 198.4 207.7 221 233 242.4 250.9 258.7 265.7 271.3 272.2 266.7 252.4 227.7 201 175.5 157.7 149.3 146.9 166.9 189.9 212.4 232.7 249.6 259.4 264.6 266.1 265.2 262.8 256.5 240.7 221.2 207.7 199.9 193.9 182.7 175.8 169.8 164.2 161.2 157.1 153.5 148.4 144.4 141.6 139.8 138.1 136.1 134.2 132.7 131 129.8 129 127.6 126 125 123.8 126.6 131.5 136.8 135.2 129.7 125.3 122.1 122.1 121.5 117.9 114.3 109 100.8 100.5 101.1 101.5 99.5 91.3 99.5 101.2 102.9 109.8 116 117.5 122.2 132 138.4 142.7 147.3 150.1 150.9 150.6 151.4 152.4 154.8 157.5 160.5 164.1 166.9 170.5 176.4 182.2 192.3 201.8 212.1 218.8 223.6 226.5 229.6 231.6 233.3 234.5 235.4 235.3 232.7 229 227.1 225.4 223.7 222.5 221.4 219.5 217 216.7 218.9 221.7 224.2 227.6 235.2 246.5 255.1 258.3 254.9 244.5 241.9 245.4 246.7 244.4 241
370.1 378.8 388.8 396.5 405.5 413.8 420.9 427.4 433.6 436.4 436.8 437 437.7 438.6 439 439.4 439.5 438.6 437.4 434.5 428.9 422.1 416.3 409.8 405.8 403.4 402.5 402.9 402.7 400.8 396.7 392.6 384.5 375.1 365.7 358.2 349.1 334.9 323.5 316.7 311 317.6 323.8 327 337 337 308.3 285.5 270.8 264.5 262.8 260 258 258.6 266.7 276.4 280.9 287.3 301.9 308.8 306.3 296.9 285.3 276.1 242 210.6 188.6 194.3 209.1 220.1 229.4 240.6 252.2 257.3 257.8 255.2 246.3 227.1 202.7 179.6 161.2 150.6 144.5 154.2 176.9 198.2 217.8 235.4 247.1 253.7 257.2 258.6 259.3 255.1 246.8 238.3 227.8 216.7 203.9 188.9 176.7 168.1 160.5 157.1 154 150.8 146.4 143.6 141.3 139.4 138 136.6 134.9 133.6 132.5 131.5 130.4 128.8 127.6 128 131.9 139.5 145.5 146.6 144.1 136.3 129.5 126.4 124.9 122 118.7 113.6 102.9 99.5 100.5 100.7 99 93.8 98.4 100 101.8 106 114.8 117.7 119.4 122.5 130.6 135.6 137.9 141.1 142.6 144.4 145.6 147.4 149.6 152 155 159.3 162.2 164.5 167.8 173.8 184.3 196.4 206.6 215.3 220.5 223.7 226.1 228.3 229.8 231.2 232.2 231.7 230.1 226.5 223.6 223.3 222.4 221 220 219 217.6 215.7 216.8 220.2 223.2 226.5 230.6 238.4 247.4 255 257.3 251.5 241.2 238.4 240.8 241.9 237.8 232.4
364.1 374.9 387.5 396.9 407.4 416 422.6 428.5 434.2 435.8 435.4 435.7 436 436.6 437.4 438.2 438.7 438.6 437.2 434 428.8 422.6 416.7 412.5 410.1 412 411.8 413.4 412.9 410.7 407.6 403.9 399.1 395.2 392.1 386.3 377.5 363.9 350.5 347 340.8 341.4 346.6 351.9 358.1 358.5 337.6 311.2 295.1 283.7 277 269.9 270.1 277.6 286.2 292.8 299.5 310.3 332.2 334.7 333.2 324.4 311.4 298.7 260 227.4 199.6 180.7 184.8 196.3 208.6 222.8 237.7 243.8 244.3 241.7 233 219.2 198.6 179.1 166 155 144.2 143.9 163.5 183.8 202.2 219.5 233.3 242.1 248.9 253.7 255.1 253.5 250.9 246.3 239.6 232.3 220.8 199.8 184.9 170 159.1 155.5 151.6 148.3 146 143.5 141 138.8 137.2 135.9 134.8 133.4 132.3 131.3 130.1 129.7 132.7 136.8 144.9 153.9 159.2 153.1 144.5 135.7 130 127.3 124.5 121.7 118.9 110.7 99.4 98.6 98.5 98.2 95.1 97.5 100.2 102.3 105.7 107.1 113.5 115.7 117.5 120 124.6 129.4 132.3 135.1 138.1 140.7 142.4 144.4 146.7 149 151.8 156.1 160.1 163.9 168.3 176.7 190 203.1 212.8 218.8 222.4 224.8 226.3 226.4 226.9 227.8 227.3 225.7 223.4 219.6 219.6 219.9 219.3 218.6 217.7 217.3 215.9 214.6 217.1 221.5 225 228.5 233.2 240.9 249 254.4 255.5 249.3 239.2 235.4 235.8 235.8 230 222.8
360.6 372.8 385.2 395.2 405.2 414.6 421.5 427.4 432.7 433.9 433.4 433.5 433.4 434.6 435.8 437.2 437.4 437.5 436.4 434 430 425.5 421 418.2 417.2 419.7 418.7 418.4 418.4 417.3 416.5 413.7 412 409.6 406.4 401.3 394.5 385.3 376 373.8 366.1 365.4 375.1 376.6 375.2 376.2 367 339.6 317.6 302.4 287.7 276 284.8 294.4 304.5 309.8 318.5 334.1 351.2 352.4 348.4 341.6 331.5 306.7 270.8 238.4 210.1 189 171.5 175.5 188.5 205.3 221.4 226.5 227 225 217.8 205.6 191 180.4 173 162.2 146.8 141.2 151.5 171.4 188.2 204 217.7 229.4 236.8 242 245.5 249.1 251.5 246.6 239.9 232.6 218.7 199.5 185.2 170.1 158.8 155.6 149 146 144.9 142.7 140.5 138.3 136.6 135.3 134.4 133.3 132.2 131.1 130.1 132.5 140.3 146.7 154.8 160.8 160.1 151.5 142 135.6 131.7 128.3 124.9 121 118.5 103.9 98 98.1 97.6 92 97.6 98.7 100.1 105.4 106.3 107.4 111.1 112.9 114.1 116.4 119.9 124.7 127.2 130.6 135.5 138 139.7 142.1 144.2 146.5 149.5 153.5 158.7 164.8 173.3 183.5 197.2 208.6 216.4 220.4 223.3 225 224.7 223.2 222.3 221.6 221 220.1 217.3 216.3 217.2 217.6 217 216.3 216 215.6 214.2 215.4 219.4 222.9 226.1 229.7 236.4 243 249.9 254 254 248.9 240.5 232.8 230.2 228 222.4 217.4
361.4 372.3 382.6 392.5 402.6 411.7 419.7 425.6 429.6 430.2 429.9 429.9 430.6 431.7 433.7 435.5 436.4 436.4 435.6 433.8 431.2 427.1 424.7 423.8 422.4 421.8 420.3 420.8 421.4 421.4 421.6 421.5 419.9 416.4 411.8 407.1 402.3 395.9 390.8 386.6 385.8 386.6 389 387.1 384.4 383.8 377.6 359.3 333.7 309.2 293.6 295.2 301.3 310.8 320.8 327.5 334.7 350.1 362.2 363.2 357.8 350.9 341.1 310.9 276.5 245.6 221.6 200.3 179.4 166.4 171.7 187.1 202.1 207 208.3 206 200.8 191.4 180.4 174.2 174.9 168.5 152.1 140.9 140.8 158.5 175 189.9 203.5 214.3 222.1 228.6 233.9 241.4 243.6 241.2 232.4 219 204.8 192.1 180.1 168.1 158.4 150.3 146.3 144 143 141.7 139.8 137.6 135.9 134.5 133.8 132.8 131.8 130.9 131.6 140 148.9 153.2 159.2 163.3 157.8 149.7 141.9 136.3 132.6 129.3 125.2 120.6 113.7 100.2 97.1 96.7 90.8 99.4 98.7 99 101.4 105.4 106.5 107.6 109.7 111.5 112.8 114 118.9 124.1 127.5 131 134.4 136.7 138.6 141 143.7 146 149 153.6 159.9 170.1 181 191.7 201.7 211.2 217.2 220.2 221 218.9 217.9 219 218.3 218.3 217.2 214.9 213.8 214.7 215.8 215.5 215 214.5 214.4 213.6 212.8 217.1 220.5 223.5 226.8 230.9 237.4 244.4 250.8 253.8 252.6 248.6 242.9 232.7 226.6 222.8 219.8 215.5
361 369.3 378.8 388.6 398.8 408.2 417.2 422.1 424.6 425.8 426.3 426.8 427.3 427.9 429.6 432.1 434.3 435.1 434.8 433.3 431.2 428.8 427.2 427 427.7 424.2 423.4 423.6 424.1 424.2 424.9 424.6 422.4 418.5 413.3 408.7 405 401.4 397.6 396.4 397.4 397.2 393.9 390 386.5 384.6 376.1 356.3 329.6 307.2 301.4 311.5 318.9 328.8 337.2 343.2 351.4 360.2 369.9 369.8 366.5 360.5 348.8 313.7 281.4 258.7 237.8 214.2 192.6 172.2 162.1 169.7 182.9 187.7 189.1 187.5 183 176.6 169.4 163.8 161 157.5 152 143.2 138.7 142.8 162.1 176.9 189.3 199 206.9 213.5 219.8 227 227.2 224.3 213.4 203.1 193.3 183.7 173.6 163.4 155.8 148.6 143.4 141.1 140.7 140.4 138.8 136.8 135.2 133.7 133 132.1 131.3 130.7 136.4 146.8 153.8 157.7 162.2 161.1 154.6 148.1 141.3 136.1 133 129.8 126.1 118 109.5 97.4 94.4 91.8 99 99.2 99.6 100.4 104.3 105.6 106.5 107.1 108.4 110.6 111.6 113.2 119.3 124.2 127.9 131.4 133.8 136 137.9 140.3 144 146.9 151.2 157 166 177.8 186.3 195.2 203.5 208.6 212.3 214.3 212.7 210.2 210.4 213.1 215.1 215.6 214.7 213.3 212.8 213.6 214.1 213.4 213.1 212.6 212.1 210.4 212.8 217.8 221.2 224.3 227.5 232 238.9 245.5 251.2 253.2 250.1 245.8 240.5 232.5 223.7 219.3 216.7 213.4
355.8 363.7 373.4 383.9 394.9 404.5 413.6 418.7 420.6 422.2 423.4 423.7 424.3 424.6 425.8 426.8 429.3 431.5 433 432.6 430.4 428.9 427.6 427.1 425.8 424.2 424.6 425.2 426.6 425.9 426.4 425.4 422.2 416.8 411.1 406.1 403.5 401.5 402.3 403.1 402.9 401 397.9 393 387.6 381.2 366 343.1 320.1 315.7 321.6 329.1 337.2 343.5 352.5 360.7 369.6 378.5 384.6 379.3 373.6 369 355.8 324.1 299.7 278.5 254.1 230.2 209 188.3 170.9 160.9 165 169.9 172.6 172.2 169.5 165.2 159.7 154 150.8 146.9 144.1 141.3 137.9 137.1 146.9 162.7 175.7 185.1 192.4 198.9 203 207 207.6 203.8 197.9 191.5 183.9 175.7 166.7 159.1 153.1 146.7 140.5 138.6 138.5 138 137.3 136 134.5 132.9 132.2 131.8 131 132.2 141.4 150.8 156 159.2 161.4 156.5 150.1 145.4 139.2 135.5 132.4 129.4 125 116 101.9 90.4 97.3 97.9 98.6 99.3 101 103.7 104.7 105.3 106.1 106.6 107.5 109.5 110.5 113.8 118.2 122.6 126.1 129.6 132.9 134.9 137 140.7 146.6 152.9 159.4 166.7 172.9 182.3 189.1 194.8 199.1 202.5 204.7 205 205.5 205.3 207.2 212 212.9 213.1 212.6 211.7 212 212.7 212.2 211.3 211.2 210.3 208.6 210.6 214.6 218.7 222 225 227.9 233.4 240.1 245.6 250.6 250.6 246.9 242 237.1 231.5 222.8 216.2 212.8 210.7
350.4 356.5 367.6 379.6 390.8 400.7 409.8 415.5 418 419.7 421.3 421.3 421.3 421.1 421.5 421.7 422.4 424.4 426.4 427.2 427.7 426.8 425.8 424.8 423.7 421.8 423.6 426 426.6 426.7 426.2 423.1 417.7 411.1 403 399.6 399.9 403.6 406.2 406.6 404.8 402.2 399.2 394.2 386.2 374.4 353.5 336.2 332 335.2 343.2 348 352.5 360.4 368.2 377.6 388.3 398.3 394.9 390.2 384.7 377.2 366.6 342.6 324.4 301.2 275.4 249.7 226.6 205.1 187.1 171.7 162.5 158.1 158.2 158.8 156.8 153.4 150 148.7 150.5 151.8 150.4 147.8 140 136.4 136.6 146.4 161.9 172.3 179.4 185.4 187.8 191.3 191.4 189.8 186.5 182.2 175.9 168.7 160.7 154.9 149.6 143.5 137.8 136.4 136.2 136.1 135.4 134.6 133.3 131.9 131.2 130.8 130.6 133.5 143.2 151.8 155.9 158.7 159 155.7 150.5 141.9 137.5 134.7 131.9 128.1 122.2 114.2 90.4 97 99.2 100.8 100.5 102 103.5 104.4 104.7 105.3 105.9 106.6 107.3 108.7 113.2 116.8 119.1 121.4 123.9 127.5 130.4 133.7 136.5 142.5 151 158 165.2 171.1 177.5 183.4 189.1 192.6 196.4 198.6 198.7 203.2 202.9 204.5 206.6 209.8 210.4 210.4 210.3 209.8 209.8 209.3 207.9 208.1 208.1 207.1 208.4 211.8 215.4 219.3 222.5 225.2 228 233.5 239.7 245.7 249.2 247.1 241.6 235.8 233.8 229.8 221.1 213.2 208.9 207.8
341.1 348.7 360.6 375.5 387.4 397.4 406.2 412.4 415 417.3 418.7 418.7 418.6 417.8 417.1 416.8 416.1 416.5 417.7 418.7 419.4 419.9 420.2 419.5 419 418.2 421.7 424.3 425.6 426.1 423 415.9 405.2 394.1 387.2 395 401.9 404.9 406.7 406.4 404.3 402.3 399.1 394.3 385.9 372.6 361.1 352.4 352.3 356.7 362.4 366.8 372.4 378.7 386.3 394.1 405.9 406 401.8 396.7 391.7 384.7 376.2 364.4 349.5 325.7 301.6 270.5 246.1 225.1 205.4 190.5 179.5 170.9 163.6 158.5 159.4 158.5 159.7 162.4 165.2 166.5 162.3 156.7 149.4 137.3 134.9 135.9 143.2 155 165.7 173.5 177.3 179.7 180.5 179.7 177.7 174.1 168.6 162.2 155.5 149.9 145.2 139.3 135.2 134.5 134.4 134.2 133.7 133 132.1 131.2 130.1 129.8 129.8 133.6 142.1 149.4 154.1 156.1 159.1 160.2 157 143 136.7 134.1 131.4 128 122 113.3 90.4 98.3 100.2 100.8 101.4 102.8 104.1 104.4 104.7 105.3 106 106.7 107.4 109 114.5 117.7 120.4 122.4 124.5 127 129.7 133.5 137.4 142.5 152.7 159.1 165.4 171.3 178.5 184.1 188.6 191.3 195.7 195.6 200.7 202 201.2 202.5 202.6 204.8 206.3 204.9 204.6 205.6 205.3 205.1 203.8 204.7 205.6 206.9 209.3 212.3 215.5 218.9 222 224.3 227.4 233.1 239.7 245.8 247.5 241.9 234.8 228.2 227.5 223.6 216.3 208.9 205.5 204.8
333.3 339.6 352.5 372 387.1 397.8 406.2 410.7 413.1 414.8 416.5 416.2 415.1 414.2 413.2 411.3 409.1 408.4 408.8 409.7 411 412.2 413.2 413.6 413.6 414.7 418.4 421.7 422.6 421.3 413.5 397.1 381.5 370.5 382 395.3 400.2 402.3 404.4 404.9 403.8 401.8 399 394.4 388 383.8 377.7 371.9 371.6 373.7 376.6 383 390.2 394.9 398.2 407.5 411.3 408.1 403.5 398.6 393.8 389.3 383.1 374.9 368.6 355.6 322.2 293.6 270.4 247.7 226.5 211.5 200 192.1 183.3 176.8 178 179.8 180.9 182.6 183.4 181.8 176.8 168.2 160.3 150.8 137.6 134.5 135.3 139.7 149 157.7 165.4 170.5 170.1 170.7 169.3 166.7 162.2 156.5 150.4 145.5 140.5 135.9 132.8 132.8 133.1 133.2 132.3 131.3 130.5 129.6 128.8 128.4 129.5 132.9 138.4 144.7 151.2 158 165.5 165.9 159.1 147.7 138.4 134 131 127.8 121.6 111.8 90.4 98.5 100.3 100.9 101.8 103.1 104.1 104.3 104.7 105.3 106 106.6 107.2 108.4 112.8 117 120.2 122.3 125.3 128.1 131.1 134.8 138.6 144.7 156.5 165.8 168.1 174.1 179.8 185.3 188.7 189.9 189.2 192.9 198.2 198.3 199.1 198.8 199 199.2 200.4 200.9 202.2 202.3 201.5 201.3 202.4 203.9 205.7 207.3 209.4 212.2 215.4 218.6 221.2 223.6 227.1 233.1 240.2 246.6 245.1 236 227.3 221.2 220.8 216.3 210.1 204.5 202.7 202.1
327.9 339.5 356.4 374.1 389.5 399.6 405.9 410 412.4 413.9 414.5 413.3 411.8 410.7 408.1 403.2 400.6 399.6 399.6 400.9 402.7 405 406 406.5 407 409 412.8 414.9 414.9 406.7 390.3 373.3 360.5 366.9 383.1 390.8 394.4 397.2 400.8 402.2 401.8 400 397.2 394.1 392.3 391.1 387.7 384.3 384.7 385 387.9 392.8 396.6 399.2 402.6 411.3 411.4 407.7 402.3 398 395.1 390.9 384.8 379.1 378.5 374.6 346.1 320.1 296 271.9 253.6 239.2 225.9 214.7 203.7 198.8 200 202.4 202.8 202.2 202.2 200 193.6 183.6 173.6 164.2 152.7 139.1 133.9 133.2 136 142.9 150 156 159 161.4 161.4 159.8 156.1 151.5 145.6 140.9 136.5 132.8 131.2 131.4 132.5 132.4 130.6 129.5 128.7 128.1 127.4 127.6 129.5 133.6 140.5 145.9 155.4 166.2 171.5 169.2 160.7 149.5 138.6 133.8 130.8 127.6 121.3 108.6 90.4 98.2 100.4 101 102.2 103.4 104 104.3 104.8 105.4 106 106.4 106.8 107.5 111.3 116.4 119.5 123.8 127.9 130 132.9 136.2 139.7 143.3 157.5 165.7 163.9 164.3 171.1 181 183.3 184 189 194.9 198.2 200.9 199.7 197.5 196.5 196.6 197.1 197.7 199.2 200.3 199.4 199.7 202.6 204.1 205.2 206.5 208.9 212 215.1 218.1 220.8 223.1 227.2 233.7 241.7 246 240.7 229.5 220.3 215.8 214.6 210.2 205.2 201.3 200.1 199.4
330.3 345.5 362.2 378.1 392.6 400.9 405.5 409 411.7 412.2 411.4 409.7 407.7 405 400.1 393.7 391.2 389.3 390 392 394.7 397.7 398.7 398.9 399.4 402 405.2 403.6 393.6 377.6 361.4 346.2 349.6 366.9 377.4 383.5 388.7 393.2 396.9 398.2 397.8 395.7 393 392.1 392 390.9 391.2 391.1 390.8 392.3 393.2 395.5 400.6 402.7 404.9 409.6 409.7 405.5 400.3 397.5 394.7 389.9 383.1 379.7 378.8 375 364.4 342.4 319 296.8 284.5 271.2 255.1 240.3 227.8 221.2 220 221 221.3 221.6 221 218.6 211.5 200.6 188.1 177.3 167.5 155.6 141.4 133.6 130.8 132 136.6 142.4 146.9 152.6 154.2 153.9 150.8 146.5 141.3 136.5 133.3 130.3 129.7 130.4 130.8 129.8 128.5 127.5 126.9 126.6 126.1 127 129.2 136 143 155.4 168 176.2 177.6 173 164.1 150.5 138 133.6 130.6 127.7 120.9 108.6 91 98.6 100.4 101.1 102.7 103.4 103.9 104.2 104.8 105.3 105.9 106.3 106.7 107.1 108.4 112.4 122.7 135.4 138.5 136.5 136.8 138.9 142.4 144.5 153 157.4 163.3 176.1 179.1 180.1 188.8 195 198 202.8 207.9 207.4 202.4 199.2 196.5 195.9 195.9 195.7 196.3 197.4 197.6 199.5 202.6 203.5 204.4 205.9 208.7 211.7 214.6 217.5 220.3 222.8 227.5 235.3 243 242.7 234.1 222.2 213.2 210.8 209.5 205.9 201.1 198.4 197 196.5
334.1 350.5 366.5 381.9 394.1 400.6 405.4 408.6 409.6 408.4 405.6 402.6 399.1 395.8 391.4 383.8 380.2 378.8 380.5 383.9 387.5 390.5 391 391.3 391.5 392.5 391.3 379.8 364.4 349.2 334.5 331 347 362.8 371.4 377.4 382.5 386.9 390.1 390.5 389.5 388.9 389.4 389.8 389 390.3 391.4 392 393.2 395 396.3 399.6 401.4 401.6 403.4 406.1 405.3 401.8 398.1 396.1 391.7 383.7 378.1 376 372.2 360.8 346.9 333.1 323.9 315.3 312 301.4 287.3 271 256.6 246.2 245.1 243.9 242.5 243.2 238.4 233.6 225.6 214.5 200.9 189.9 180.2 169.6 156.3 143.6 133.6 129.9 129.3 133.1 138.9 145.8 149.4 148.6 146.4 141.9 137 133.3 130.7 128.7 128.3 128.3 128.5 127.7 126.5 126.2 126 125.8 125.6 127.1 130.3 136.3 149 167 179.5 183.3 183.9 178.8 168.6 153.9 140.5 134.3 130.8 127.7 121.6 108.6 92.3 98.9 100.2 101.2 102.9 103.3 103.8 104.2 104.7 105.3 105.8 106.2 106.6 107 110 122.6 137.8 150.5 145.7 140.6 141 145 148.6 151 154 161.1 174 182.1 186.6 190.6 194.3 198.8 206 209.3 211.1 209.3 203.9 200.8 198.1 196.6 197.3 196.6 195.4 195.5 196.5 199 201.6 202.4 203.6 205.6 208.2 211 213.9 216.8 219.7 223 228.1 236.5 240.9 237.9 229 214.5 207.5 206.2 204.5 201.2 197.7 195.6 193.6 193.5
337.1 353.7 370.1 384.1 394.9 401.4 405.6 407.7 406.6 403.4 397.1 392.6 388.8 384.5 379.2 367.7 359.5 361.9 370.8 376.6 380.5 383.5 383.8 383.1 382.6 380.4 370.8 353.9 336.7 322.6 315.3 327.6 342.9 354.4 363.6 369.6 374.5 378.2 380.8 381.3 382.5 384.1 385.5 384.8 386.2 388 389.6 391.3 394.2 397.9 399.4 399.4 398.1 397.7 398.6 398.8 398.5 396.2 394.3 389.2 380.8 374 370.4 361.4 349.5 340.1 329.2 322.4 316.7 321.3 328 328.2 317 303.1 289.2 277.3 273.3 270 265.7 262.3 255.5 247.7 237 225.5 214.2 203.7 194.7 184.3 171.9 159.5 147.4 135.3 129.6 128.2 130.7 139.7 143.6 142.9 140.8 137 132.8 131 129.2 128 127.1 126.5 126 125.8 125 124.8 125 125.2 125.7 127.6 131.4 139.5 159.5 176.3 183.9 189 189.3 182.9 172.2 159.7 146.3 136.2 131.3 126.8 121.5 109.6 93.2 98.8 100 101.4 103.1 103.4 103.8 104.2 104.6 105.2 105.7 106.2 106.7 108.3 119.6 136.4 154.9 160.7 149.5 143.3 142.8 146.1 150.4 156.4 164.3 170.6 178.9 182.9 187 191.7 197.5 204.8 209.3 211.5 211.9 209 204.8 202.1 199.6 198.7 199.2 198.3 196.1 195 196 197.9 199.9 201 202.5 204.9 207.6 210.3 213.2 216.2 220.1 224.1 229.8 236.2 238.4 232.3 223 210.1 203.9 201.3 199.3 196.9 194.4 192.1 190.3 190.7
335.8 354 370 382.7 393.4 401.6 404.8 406.1 404.1 397.1 386 377.5 370.2 362.8 355.3 344.7 336.8 342.2 356.1 367.9 375.2 378.1 376.8 375.3 372.9 365.8 347.1 325.7 309.4 301.1 308 323 337.3 346.5 354.5 360.2 365.3 369 371.5 374 377.2 379 378.9 381.2 384.9 386.9 391.1 394.9 398.6 398.7 398.2 396.4 392.7 390.1 388.9 388.5 390 389.7 385.6 378.2 370.7 364.5 354.5 337.4 326.4 318.7 312.6 308.7 311.2 322 331.3 336.7 334.8 323.1 309 296.8 289.7 282.2 275.6 268.7 261.5 254.9 246.3 237.1 228 219.2 211.2 201.9 189.8 177.5 165.5 153.7 140.3 130.9 127.4 130.2 135.3 137.5 135.9 132.9 130.8 129.5 128.4 127.3 126.4 125.8 125.4 124.7 124.2 124 124.2 124.5 126.3 129 134.2 147 164.3 177.1 185.4 190.1 189.1 182.7 172.8 160.6 150.7 139.8 132.5 126.1 120 108.3 93.2 97.8 99.5 101.3 102.9 103.3 103.6 104.1 104.5 105 105.6 106.4 109 116.5 131.8 148 165.2 167.5 153.2 145.4 144.8 146.7 151.9 159.7 167.2 173.8 179.6 185.1 188.4 194.9 203.2 208.2 210.8 212 210.6 208.6 205.7 203.7 202 201.4 200.9 198.5 196.5 195.7 196.4 197.4 198.6 200 201.9 204.3 207.1 209.9 212.5 215.7 220.3 225 230.6 235.5 233.8 225.8 217 208.3 202.9 197.7 194.8 193.3 191.5 189.3 187.3 188.2
