ncols 200
nrows 82
xllcorner 220000
yllcorner 870700
cellsize 50
501.4 478.3 465.2 459.6 455.2 444.5 442.3 449 449 447.2 445.7 438.3 437.7 439.1 440.1 440.2 443.2 446.7 447.5 446.2 447.9 448.4 452.5 453.4 452.7 453.3 456.7 455 461.2 461.7 462.8 461.4 460.3 459.9 456.7 454.9 455.5 454.2 451.9 452.1 448.9 445.4 439.6 435.4 433.7 427.5 422.5 415.5 411.5 405.6 399.7 395 390.4 383.2 379.6 372.3 366.2 359.2 355.4 349.4 343.3 342.1 342.9 339.8 333.3 334.5 342.2 342.8 347.4 347.9 344.7 348.4 347.1 347.2 347.1 347.7 345.1 343.9 337.7 334.7 334.8 333.6 334.2 332.6 332.7 331.1 331.6 329.8 328 326.6 324 321.9 317.6 318.7 318.7 321.6 322.3 322.8 324.3 324.7 323.3 324.8 325.3 326.4 324.9 325.8 326.6 328.5 334.8 336.1 335.7 335.2 332.7 330.5 321.2 311.6 304.7 295.1 290.6 285.8 283.7 281.9 277.9 276.6 276 275.1 273.3 270.9 270 270 270 270 270 270.1 270 270 270 274.7 278.7 282.1 284.2 289.5 291.8 293.5 297.8 299.4 302.8 304.6 306.4 302.4 304.5 305.2 305.3 302.1 301.9 302.5 296.6 298.6 296.6 291.5 284.3 275.6 270.1 266.9 264 261.6 259.5 259.7 258.8 256.1 255.2 255 253.9 252.5 252.5 252.7 254.2 253.9 251.5 249.8 250.3 250.1 253.1 257.9 260.7 262.5 263.4 261.7 271.1 278.5 283.3 287 292.9 297.7 302 305 311.2 317.2 324.8 331.8
498.1 478.9 472.1 463.4 457.9 444 439.9 440.6 440.6 439 439.4 434.5 435.6 437.7 435 432.7 434.4 436.9 434.4 436.7 439.7 438.6 437.6 442.8 442.5 445.5 447.2 444.5 447.3 447.2 448.2 447.7 446.8 446.5 444.6 441.5 441.1 439.7 437.6 435.5 435.2 430 426.3 423.8 418.8 414.9 411.9 405.5 402.9 397.2 394 387.5 383.3 376.9 370.6 364 356.5 352.6 347.7 346.3 345.9 346.6 344.5 344.4 345.9 349.6 351.4 352 354.6 355.7 359 358.4 357.7 358.9 358.9 357.3 355.5 354.3 352.4 346.7 344.6 341.7 338.9 339.5 338.8 340.4 340.9 339.4 339.8 338.3 335.1 333.2 330.7 326.2 327.3 327.4 326.8 329.8 329.7 330.4 329.9 330.9 331.3 334 333.8 336.6 341.1 344 345.8 346.8 350.8 352.8 353.8 344.3 335.2 323 312.6 301.8 293.7 291.6 287.3 283.4 280.2 278.3 277.1 275.7 273.9 271.5 269.6 270 270 270 270 270 270 270 270 272.3 275 277.9 280.5 283.7 288.2 289.5 292.1 293.8 295.6 297.4 297.5 299.1 298.7 300.7 297.9 296.9 298.8 298.1 294.5 294.5 293.5 290 284.9 277.9 270.6 267.5 263.6 261.3 259.4 258.5 257.4 256.2 255.1 255.2 253.6 252.4 250.5 251 251.5 250.7 249.8 249.2 249.1 248.2 247.2 254.7 259.1 258.8 260.1 260.3 259.4 266 274.1 278.9 285.6 286.5 290.2 295.5 302.3 307.3 312.7 320.1
497.3 484.4 481.8 471.7 457.6 446.9 440 439 439.4 438.6 432.2 430.7 428.3 427.4 425.6 424.8 430.1 431.6 433.5 432.6 427.9 426 431 433 432 432.8 435 433.4 433.3 432.3 433 434 434.5 434.4 431.6 428.7 429 427 427.4 422.1 423 419.1 415.8 413.8 410.2 405.6 402.8 397.7 393.8 389.5 385.3 379.2 373.6 367.7 361.8 353 351.1 350.9 354.4 353.9 354.5 349.1 349 350.9 357.8 359.9 355.8 358.4 361.2 365.9 367.6 367.1 367.4 370.9 370.4 367 366.9 363.2 361 358.9 356.8 354.5 354.7 353.6 348.4 350.3 352 350.4 350.5 347.1 345.9 343.7 342 341 336.6 333.9 333.7 334.7 336.5 337.9 338.5 337.6 340.4 342.9 345.7 350.6 350.4 351.9 353.8 361.3 367.4 375.6 370 355.2 343.8 332.1 320 308.8 301.8 294.4 289.8 286.7 283.8 279.7 278.7 276.4 275.2 273.6 271.6 270.2 270 270.6 270.5 270 269.1 270 270 270.4 271.7 272.9 275.5 279.2 283.2 286.4 287.8 288.2 289.6 291.3 292.7 293.7 294.1 295.5 292.3 293 291.4 292 290.8 290.4 289.5 287.2 281.8 275.9 273.5 268.4 264.2 260.8 260 258.9 256.8 255.9 254.9 254.6 253.4 252.5 251.4 249.1 249.5 248.9 247.7 248 248.5 247.7 246.9 250.4 254.4 256.4 255.9 257.6 257.4 256.6 261.1 269.3 276.6 280 281.8 283.7 292.1 297.9 302.6 308.7
501.2 494.4 486.6 469.5 460.1 449 442.8 443.7 441.6 438.7 429.3 428.4 424.3 422.3 419.5 418.9 423.6 421.9 420.4 419.2 422.1 422 421.8 423.5 424.3 426.5 427.5 426.1 423.7 422.8 422.5 423.6 425 420.8 417 420.2 416.9 414.4 413.8 408.2 409.5 408.3 405.9 403.4 399.4 396.9 394 390.4 385.7 379.7 375.3 371 365.7 360.8 353.3 357.4 356.5 356.5 358 359.1 355.7 356.6 361.8 364.3 367.9 368.1 364.9 365.2 368.5 375.6 378 378.9 378.5 380.6 380.7 378.4 376.5 375 374.4 371.7 368.7 368.7 367.3 364.5 363.5 362.2 361 362.5 360.1 358.1 356.9 354.2 353.2 353 349.9 344.1 342.5 343.8 343.4 344.1 346.5 346.3 350 354.2 360.3 358.2 358.2 359.3 367.1 368.6 372.5 379.8 368.9 359.2 353.1 341.3 329.1 317.6 307.6 298.1 293.3 289.1 286.3 281.5 279.9 277.2 275.8 274.6 273 272.1 272 271.7 270.8 270 270 270 270.7 270.7 270 270.9 272.4 275.6 278.4 280.8 282.6 283.6 287.1 287.8 287.7 290.9 290.8 291.1 289.5 289.5 287 286.7 287.1 285.7 285 282.9 280.5 276.8 273.5 267.9 263.9 259.8 257.6 256.8 256.1 255.3 254.3 254.2 253.4 252.6 251.7 250.6 248 248.3 247 247.1 247.2 248.2 248 247.8 251.1 252 253.6 253.6 253.8 254.2 253.4 257.5 263.7 268.8 272.4 277.9 281.2 285.6 292.9 298.4
524 507.2 484.2 471.6 458.5 447.4 447.4 446.1 441 434.1 428.4 425.1 423.3 421.2 421.9 421 420.5 417.4 417.4 418.1 422.3 420.7 419.5 418.2 416.7 416.6 413.9 414.5 413.1 411.8 410.3 412.2 411.9 410.4 409.2 412.3 407.7 407.4 401.6 400.2 399.5 398.1 397.6 392.6 389.7 388 386 382.5 378.1 371.4 364.9 366.3 364.8 364.1 361.6 362.9 362.4 365.7 363.7 364.1 368.5 370.5 374.3 375.7 377 377.4 375.9 378.2 379.8 381.9 386.3 387.2 387.8 391.9 391.8 390.2 389.8 387.7 386.6 384 384.1 382.4 379.5 379.2 378.4 378.5 376.9 376.3 369.9 367.9 368.3 365.9 364.4 366 363.6 356.5 352.6 355.4 354.3 352.3 352.6 356.1 360.5 366.9 368.9 368.8 369.3 370.5 372.7 375.1 379.3 375.6 363.8 357.3 354.1 344.4 333 323.7 311.1 300.9 295.7 290.8 289.8 282.2 279.3 277.5 275.8 274.5 274.3 274.1 273.8 273 271.7 270.8 270 270 269.8 270.1 270.5 270.7 270.3 272.3 275.2 276.5 277.9 280.2 283.9 285.3 285 286.9 286 286.8 286 285.7 284.5 284.8 285.8 282.5 281.4 279.6 278.2 275.7 272.8 268.1 263.5 260.1 258.2 258 256.4 255.2 254.4 252.9 252.3 252.3 251.2 250.6 249.6 247.9 248.1 248.2 246 244.6 244.6 244.6 244.6 246 248.3 249.1 250.7 250.8 249.7 249.2 254.8 259.4 265.1 269.9 273.3 276.3 281.3 287.2
545.9 513.8 486.3 477.9 459.8 453.8 451.7 444.3 438.9 432.3 429.9 430.5 428 426.6 426.9 418.2 417.5 417.3 417.6 418.4 417.7 415.4 414.7 415.1 411.6 409.6 407.5 405.4 405 406.5 411 413.8 408.7 406.2 407 405.4 401.9 399.7 397.7 396.2 389.3 392.2 389.5 388.4 383.8 380.1 373.4 373.5 373.1 373 374.2 372.2 371.4 367.5 368.5 370.4 371 367.9 368.4 374.9 378.6 379.7 380.7 382.6 384.9 387.1 387.1 393.5 395 399 398.3 400.3 406.2 408.6 406 406.2 403.2 400.6 398.7 397.8 396.5 394.8 396.7 395.6 396.6 396 392.3 389.7 386 382.6 380.2 378.7 377.2 381.2 374.2 369.5 368 366.6 363.8 364 364.3 367.7 377.4 380.4 380.4 379 379 379.8 377 381.2 379.4 370.7 359 356.1 351.5 346.6 337.3 324.7 313.9 307.6 299.8 294.1 290.2 283.1 280.5 278.3 277.3 276.5 276.4 275.6 274.5 273.5 272.6 271.6 270.8 270.8 270.8 271.4 270.9 271.3 271.4 271.8 272 273.3 274.8 276 277.7 278.8 281.3 282.4 283.1 283.1 281.9 283.7 282.5 281.8 281.8 281.5 279.3 276.9 275.3 273.7 271 267.5 264.4 260.8 259.1 259.6 257.1 255.5 254.4 253.2 252 250.8 249.8 249.4 249.2 246.6 244.6 244.6 244.6 244.6 244.6 244.6 244.6 244.6 244.6 244.6 244.6 244.6 244.6 244.6 247.7 251.6 253.8 261.4 264.9 267.7 272.7 279
554 520.5 496.3 486.3 465.4 452.1 447 442 436.5 432.9 432.1 429.1 430.7 425.3 420 418.4 417.5 417.8 416.3 419.5 419.3 416 410.7 409.9 407.6 404.9 401.6 399.8 405.6 406.5 407.5 405 400.5 398.1 399.7 394.4 391 393.4 393.5 389.3 387.9 389.5 385.4 382.6 380 377.1 379.2 380.5 380.3 380.7 380.2 379.4 379 378.5 376.8 373.9 370.7 375.7 380.2 383.6 387.3 387.5 387.8 392.3 395 396.6 399.8 405.2 409.4 412.2 415.1 419 423 423.3 419 418.8 418.3 413.7 411.4 411.8 411 410.5 410.3 411.2 412.3 406.5 407.7 404.9 400.8 400.1 396.2 394.1 394.4 391.8 386 381.7 380.6 380.8 379.5 376.1 378.6 382.6 388.1 394.6 393.2 389.1 386.1 383.4 381.4 379.5 375.4 367.8 360.7 355.6 351.4 342.9 337.4 323.9 319.5 311.5 302.2 296.6 291.9 284.8 282.6 282 279.2 278.3 278.6 276.1 275.1 274.5 273.8 272.5 271.6 271.4 271.2 271.5 271.9 272 272.5 272.6 272.3 273.3 273 273.9 274.9 274.6 274.7 277.9 279.2 278 277.6 279.9 278.8 280.2 280.1 277.7 274.8 272.2 271.7 271.4 269.4 266.6 264.6 262 259.1 256.3 254.9 254.4 253.8 252.4 251.5 250.3 248.2 246.8 245.5 244.6 244.6 244.6 244.6 244.6 244.6 244.6 244.6 244.6 244.6 244.6 244.6 244.6 244.6 244.6 244.6 244.6 244.6 246.5 252.7 254.9 263.9 271.4
564.5 531.4 510.1 495.7 473.1 456.4 449.6 445 439.9 435.5 431 426.8 424.4 421.1 419.3 417.9 418.3 420.2 417.9 417.6 419.3 414 408.8 408 405.4 402.5 399.6 397.6 393.6 399.4 395.8 391.3 388.2 386.6 386.4 384.5 384.6 384 382.7 383.2 382.5 382.2 378.9 380.8 384.3 382.5 384.7 388.3 387.8 387.3 386.3 387.1 386.6 384.5 381.9 386.2 382.1 384.2 386.7 390.3 392.7 394.4 396.9 402.9 406.7 410.4 415.4 419.6 425.1 427.3 432.1 434.4 439 435.1 434.9 434 431.7 432.3 428 428.9 428.2 430.3 427.8 429.4 430.7 430.4 426.7 420.1 416.4 413.8 410.4 408.4 407.9 403.3 397.9 394.1 396.9 392.5 398 399.3 399.5 397.3 397.4 403.5 401.1 396.3 392.3 386.5 383 379.2 375.5 368.4 360.3 353 348.9 343.8 335.7 327 320.6 313 305.8 300.8 292.8 289.6 287.1 287.4 281 280.4 279.7 278.9 276.6 275.1 275.4 273.6 272.5 272 271.8 271.7 272.5 272.6 273.5 274 273.8 273.7 274.7 274.9 273.6 273.6 274.1 274 275.5 274.4 275 275.8 274.5 274.3 275.1 273.3 271.5 269.9 268.9 267.9 267.7 265.3 263 260.9 258.1 254.8 254.1 253.5 252.7 251.8 251 250.1 247.6 244.9 244.6 244.6 244.6 244.6 244.6 244.6 244.6 244.6 244.6 244.6 244.6 244.6 244.6 244.6 244.6 244.6 244.6 244.6 244.6 244.6 244.6 244.6 247.2 262.2
584 572.8 546.9 517.9 488.5 469.2 456.4 446.7 443.3 442.7 434.9 428.7 425 422.1 419.6 418.5 418.5 423.6 416.3 419.2 417.4 410.5 414.3 413.9 405.4 401.2 401.3 401.6 399.4 391.1 390.1 389.1 387.8 385.5 385.3 384.3 383.9 382.4 380.4 382.6 382.7 382.7 382.1 383.4 387.9 387.3 393.1 396 394.6 394.3 393.4 392.6 389.9 393.2 391.7 394.4 393.1 390.6 392.6 395.5 399.4 402.5 407.3 411.7 417.8 423 428.2 434.2 439.4 441.9 445.4 449.3 454.7 450.1 451.1 452.7 447.8 449.1 448.1 449.2 450.2 452 449.2 453.8 455.1 451.2 442.7 434.8 430.6 427.3 424.9 422.9 420.8 416.1 412.3 410.7 408.6 412.8 414.7 417.8 416.1 414 415.1 412.3 406.1 402 397.2 391.7 386.5 381.5 378.7 370.3 364.6 352.5 347.1 340.1 330.3 328.3 321.6 314.1 308.1 301.4 294.2 292.7 288.7 288.1 283.5 282.4 283.4 282.1 278.7 277 277.6 275.5 273.7 273.1 272.6 272.3 272.5 272.8 273.4 275.1 275.1 275.7 276 275.6 274.3 273.4 272.1 273.1 273.6 272.5 272.4 272.7 271.1 270.4 270.4 269.5 268.2 266.7 265.2 265.3 264 263.1 260.8 259.1 257.1 254.8 253.4 252.6 252 251.1 250.4 249 248.3 245.8 244.6 244.6 244.6 244.6 244.6 244.6 244.6 244.6 244.6 244.6 244.6 244.6 244.6 244.6 244.6 244.6 244.6 244.6 244.6 244.6 244.6 244.6 244.6 250.5
599.1 586.2 572 533.2 502.7 482 465.1 454.3 453.4 451.7 444.7 436.9 429.9 427.4 425.8 421.7 422 424.5 420.4 416.8 418.1 416.2 411.2 406.9 406.7 404.9 406.1 401.3 394.3 391.2 389.3 389 387.1 386.2 384.9 384.5 383 385.7 386.1 386.2 388.5 389.1 388.6 390.9 391.4 394 396 400.4 399.4 400.3 399.4 401.5 400.8 402.8 403.3 405.8 405.4 401.8 399.8 404.1 408.1 411.9 416.3 421.2 427.5 433.9 439.6 444.6 452 455.7 461.2 466.2 469.9 467.1 468.3 468.5 467 465.6 468.3 470.5 473.3 471.3 474.7 476.5 473.6 470.9 464.7 454.7 451.2 444.7 441 438.8 435.9 431.2 425.6 422.5 421.8 428.8 429.8 429.7 428.5 428.3 432.3 427.3 416.4 409.1 401.6 396.2 389.3 386.1 380.5 372 365.8 352.2 344.4 339.5 332.2 326.2 319.8 312.5 307.1 302.3 295.7 292 293 289.6 288.7 285.7 288 286.9 284.8 281.3 280.9 279.5 276.1 275 274.2 274 273.3 274.1 274.7 276 276.2 276.4 276.2 275.7 274.7 274.6 273.2 272.2 271.5 270.5 269.6 269.9 268.2 267.6 266.8 265.9 265.4 265.8 263.6 261.1 260 259 258.1 257.5 255.7 254.3 253.4 252.5 251.5 250.8 249.4 248.5 248.5 246 244.6 244.6 244.6 244.6 244.6 244.6 244.6 244.6 244.6 244.6 244.6 244.6 244.6 244.6 244.6 244.6 244.6 244.6 244.6 244.6 244.6 244.6 244.6 244.6
610.4 600.8 591.3 570.8 546.2 504.8 481.3 468.6 466.9 461 453.3 447.1 440 435.8 431.9 427.8 424.7 424.9 417.3 417 414.1 412.7 411.6 411.3 410 414 405.9 400.2 394.9 390.7 388.4 388 387.3 386.6 385.3 385.8 389.8 391.8 389.6 390.8 392.5 393.4 395.9 397.2 401 404.3 405.5 406.6 407.6 410.6 410.6 408.3 413.9 413.7 416.1 417.5 417.4 415.4 413.7 412.7 412.7 420.4 427.1 432.2 440.2 446.8 450.6 459.2 463.8 471.4 476.7 483.3 483.6 482.1 486.4 484.8 484.5 484.3 484.8 489 492.7 494.9 500.1 499.3 496.5 491.5 483.7 476.7 471.8 465.1 461.2 458.2 453 448 437.6 434.4 438.6 443 441 438.8 436.4 437.3 440.4 434.5 425.5 416.9 408.5 399.9 392.5 387 381.5 373.3 365.2 354.6 346.3 338.2 333.7 326.2 319.4 314.9 307.1 300.7 295.5 294.3 294.5 292.5 290.9 290.5 288.8 290.2 289.5 287.8 284.4 280.9 279.1 278.1 276.4 275.2 274.9 276 275.5 277.2 277.7 277.2 276.6 275.4 274.4 273.8 272.7 271.4 270.1 269 268.6 266.9 266.3 265.9 264.7 263.9 263.9 262.8 260.4 259.3 258.1 257.3 256.7 255.9 255.1 254 253 252.2 251.3 251 250.3 249.7 249.1 245.4 244.6 244.6 244.6 244.6 244.6 244.6 244.6 244.6 244.6 244.6 244.6 244.6 244.6 244.6 244.6 244.6 244.6 244.6 244.6 244.6 244.6 244.6 244.6 244.6
613.2 606.3 594.5 588.2 570.2 537.8 501.1 485.8 478.1 466.2 455.3 453 447.5 443.4 437.1 431.3 431.2 428.9 420.4 416 417.8 419.9 413.3 416.5 415.8 419.2 414.5 408.2 404.6 393.5 390 391 390 388 386.2 389.4 390.6 390 391 394.4 393.1 396.6 400.7 404 410.8 411.5 410.5 417.1 421 424.2 424 426.8 426.7 430 431.3 433 431 428.5 428.5 424.3 426.9 429.5 432.6 440.5 448.7 456 461.1 470.9 479.9 484.4 492.9 498.4 498.9 496.7 501.5 503 504.6 502.4 501.7 506.1 513.4 515.4 521.7 521.9 523.7 515 505.9 498.1 490.9 484.4 480.3 476.8 472.5 461.5 453.6 448.7 451.1 451 448.6 445.2 443.3 443.5 444.3 441.3 431 423.1 414.8 404.3 395.5 387.6 381.3 373.5 365.8 361.2 348.4 342 331.1 325.7 319.1 316 308.2 300.4 296 296.5 295.4 293.6 294.2 291.4 292.6 293 293 290.1 286.4 285.8 286.8 284.8 281 279.2 278.4 278.5 277.7 277 277.5 276.8 275.7 271.9 270.9 272.3 270.4 269.4 266.8 267 265 265.6 264.9 264.2 263.3 261.9 261.1 260.3 258.9 258.4 257.3 256.6 255.6 254.9 254.1 253.2 252.3 251.6 251 251 250.5 249.5 248.5 248.5 244.6 244.6 244.6 244.6 244.6 244.6 244.6 244.6 244.6 244.6 244.6 244.6 244.6 244.6 244.6 244.6 244.6 244.6 244.6 244.6 244.6 244.6 244.6 244.6
614.1 606.8 597.6 593.2 579 554.8 531.3 511.6 493.2 472.6 464.7 460 459 454.4 444.3 436.8 438.2 430.3 422 423.2 425.9 420.3 417.2 422 421.4 418.9 417 421.6 417.7 407 398.8 396.1 394.9 393.1 391 392.5 396.7 395.1 394.9 400.3 399.2 400.9 404.8 412.3 418.3 418 421 430.7 433.2 436.1 442.7 444.8 447.2 450.2 450.2 449.8 446.7 442.5 440.7 440.2 436.8 440.7 444.1 445.3 454.4 462.4 472.4 482.9 490.7 498 504.4 512.4 513.6 515.1 518.2 518.5 517.8 515.7 514 516.6 535.4 539.2 544.4 545.5 546.4 539.7 531 521.1 508.7 503.2 496.3 492.6 483.9 471.4 470.1 464.7 461.1 459.3 456.1 451.3 447.4 446.3 446.2 440.2 429.3 423 414.7 406.9 399.4 389.1 381.2 376.8 371.6 363.9 354 345.1 333.7 325.5 320.8 318.5 310.1 303.4 298.8 297.6 296.9 295.4 295 293.5 298.1 296.2 293.5 292.6 292.4 292.4 291.3 288.6 287.4 283.8 281.8 280.6 279.4 278.4 278.4 277.8 274 273.3 272.4 270.3 269.8 269.1 270.2 270.5 268.4 267.2 265.9 264 263.1 264.3 260.5 258.1 258.2 257.6 256.5 255.9 254.8 253.9 253.1 252.2 251.3 250.6 249.9 250.3 250.5 248.9 248.5 248.4 245.3 244.6 244.6 244.6 244.6 244.6 244.6 244.6 244.6 244.6 244.6 244.6 244.6 244.6 244.6 244.6 244.6 244.6 244.6 244.6 244.6 244.6 244.6 244.6
612.1 605.4 598.3 591.4 583.9 573.9 551.2 528 507.8 485.9 475.9 471.1 469 463.9 450.3 444.9 444.8 435.9 430.4 432.2 426.3 423.9 425 426.5 426.8 423.1 423 424.1 426 420.4 408.1 401.5 401.7 400.7 401.1 403.2 402.9 400.8 408.1 412.1 408.5 415.5 422.7 428.1 428.6 431.7 436.9 440.9 445.4 451.4 458.4 460.9 463.4 468.1 468.7 467.9 463.5 458 455.6 452.3 448.2 450.1 456.3 457.5 455.4 467.6 481.1 493.2 505.1 512.5 521.5 523.1 526.7 529.2 529.6 530.5 528.6 527.5 527.1 533.8 548.8 556.3 561.5 564.8 566 563 554 546.4 533.7 522.7 515.2 506.6 498.5 487.7 483.5 477.6 472.1 464.4 460.5 454.8 450.1 448 445.6 439.3 430.4 423.4 415.7 409.1 399.8 393.5 386.9 381.1 375.7 370 362.2 349.4 340.2 329.3 325.3 319.9 312.3 304.9 301.6 300.5 298.9 296.5 296.8 296.8 297.6 297.9 294.4 292.8 293 293.2 293 291.5 289.3 287.9 284.5 283.7 283.5 282.9 281.4 279.8 272.9 274.4 273.7 272.6 273.1 271.8 271.5 270.7 269.8 268.1 266.3 264.7 264 263.4 262.9 258.9 258.6 257.4 256.9 253.9 252.8 252.5 252.3 251.1 249.8 249.5 248.8 248.5 244.6 244.6 244.6 244.6 244.6 244.6 244.6 244.6 244.6 244.6 244.6 244.6 244.6 244.6 244.6 244.6 244.6 244.6 244.6 244.6 244.6 244.6 244.6 244.6 244.6 244.6 244.6 244.6
609.7 603.7 596.9 590.6 582.4 574.7 558.5 538.1 526.1 509.9 492.8 478.4 472.8 463.8 457.2 451.8 446.9 443.6 441.5 437.2 427.3 429.2 429.7 431.5 424.8 426.9 429.9 424.1 418.6 415.9 410.1 408.8 406.9 403.4 408 409.8 410.3 411 416.9 414.4 418.6 426.5 437.8 442.1 445.1 447.9 452.7 455.6 460.2 464.5 468.6 473.8 476.1 479.6 482.2 481.5 480.6 476.7 474 467.9 462.2 461.2 465.8 468.5 469.8 473 485.2 502.2 513.8 521.3 531.9 533.5 540.3 542.6 542.2 539.9 538.1 537.1 539 547 561 568.1 575.2 580.3 582 580.9 574.8 567 553.9 541.7 532.3 524.4 517.8 505.4 503.3 493.9 481.8 470.4 465.7 460.8 456.2 450.5 447.5 442.1 434.7 427.3 419.8 410.6 404.3 401.1 395.4 385.2 380.2 377.4 370 360.3 346.7 338.6 328.2 322.5 317 308.7 304.9 302.9 300.5 298.9 297 297.1 298.5 298.6 295.9 293 293.2 293.7 293.3 292.1 290.9 289.9 289 286.1 285.1 284.5 283.9 279.3 275.1 276.8 277.1 276.2 273.4 271.8 271.9 271.2 270.2 269 268.5 267.4 265.4 264 262.9 262 261.4 261.9 261 259.1 256 254.5 253.4 251.9 251.1 250.4 249.4 248.9 248.5 244.6 244.6 244.6 244.6 244.6 244.6 244.6 244.6 244.6 244.6 244.6 244.6 244.6 244.6 244.6 244.6 244.6 244.6 244.6 244.6 244.6 244.6 244.6 244.6 244.6 244.6 244.6
606.8 600.4 594.5 588.4 583 571.8 560.1 545.2 540.6 528.2 503.6 489.4 475.3 468.5 465.7 458.8 450.8 447.8 440.6 437.7 435.1 433.5 437.3 434.9 428.7 432.5 432.4 429.9 424.3 420.2 422.8 419.8 416.5 413.1 414 415.6 423.1 422 424.1 426.2 431.9 440.5 447.4 453.3 459.7 460.3 467.4 471.2 477 482.8 487 487.6 489.9 493.2 494.7 493.3 491.1 491.3 488.1 483 477.9 473 472.9 477.5 480.4 483.2 490.9 501.2 514.1 524.3 534.3 541 549.3 552.4 553.1 550 548.8 547 550 561 573.3 583.7 588.3 594.2 597 597.1 591.6 583.5 573.7 561.8 551 543.2 535.1 527.5 518.4 509.3 498.3 484.7 475.7 472.5 467.1 457 450.9 446.5 438 430.1 422.6 413.3 409.9 407.2 402.2 394.4 386.3 381.8 376 365.5 356.1 341.8 334.4 327.3 320.6 313.3 312.1 308.1 306.2 302.3 298.6 299.3 299.6 299.6 298.1 294.5 295.5 294.9 294.1 292.8 291.2 290.4 288.6 288.1 286.8 284.8 282.2 279 279.7 280 278.7 277.1 273.9 273.8 273.9 274 272.1 272.3 273.2 273.1 268.8 266.3 263.8 263.4 262.8 262.8 261.4 260.8 257.9 256.6 255.3 254.5 253.6 252.6 250.8 249.3 247.7 244.6 244.6 244.6 244.6 244.6 244.6 244.6 244.6 244.6 244.6 244.6 244.6 244.6 244.6 244.6 244.6 244.6 244.6 244.6 244.6 244.6 244.6 244.6 244.6 244.6 244.6 244.6
603.1 596.9 590.4 586.2 579.3 570.6 559.9 553.6 544 530.1 507.7 497.2 480.6 473.6 467.9 464.3 457.2 448.9 446.3 444.8 440.6 442.4 441.3 436.1 432.9 433.4 433.3 432.7 429.8 424.8 426.5 426.6 425.1 422.6 421.1 422.1 428.1 427.9 433.8 438.9 444.3 449.9 456 466.3 470.7 476 482.2 486.2 494.8 502.5 504.1 501.6 503.6 507 507.7 502.1 501.6 500 499.2 493.5 489 485.3 482.7 482.6 487.1 491.6 496.8 503.8 514.2 525.6 537.4 546.3 554.2 559.1 562 560.4 559.6 559.2 562.4 573.6 582.5 592.6 599.8 604.4 610.1 612.1 607.3 598.9 591.5 581.3 570.9 562.7 554.5 545 535.4 534.5 526.4 514.5 490.5 482.2 473.6 462.8 457.1 452 443.6 435.8 428.7 425.1 419 412.9 410.4 400.3 393.7 386.7 380.1 373.3 360.5 348 340.8 331.9 324.3 320 315 310.9 308.1 307.1 300.5 300.3 299.7 298.7 296.9 297.3 297 296.5 295.7 293.6 291.6 289.6 286.7 285.9 284.6 285.2 281.8 279.5 278.6 281.5 281.4 277.4 276.5 276.4 275.8 275.5 274.9 274.4 274.7 272 270.5 267.5 267.3 265.4 264.7 263.6 262.9 261.6 260.4 258.3 257.6 256.9 256.5 254.7 253.2 252 250.1 247.5 244.6 244.6 244.6 244.6 244.6 244.6 244.6 244.6 244.6 244.6 244.6 244.6 244.6 244.6 244.6 244.6 244.6 244.6 244.6 244.6 244.6 244.6 244.6 244.6 244.6 244.6
595.5 588.1 585.2 580.6 573.8 567.1 559 552.8 542.3 526.1 508.1 496.8 485.8 475.9 471.7 466.7 460.3 450.3 452.5 450.7 446.3 447.2 444.3 438.8 435.9 439.1 442.1 433.5 435.2 432.5 432.5 432.6 427.8 428.7 430.8 430 432.1 438.7 444.9 448.6 452.7 459.7 464.2 475.3 480.8 490.7 498.9 507.6 515.9 522.9 523.7 517.7 518.3 519 518.4 517.1 515 511.5 507.5 502.1 497.8 494.8 494.5 494.3 495.5 500.8 509.6 517.4 527.4 532.6 539.2 548.3 557.2 564 568 569.3 567.9 569.2 571.6 584.7 591.4 598.3 606.2 613.6 619.3 622.3 620 613.8 606.4 597.4 588.9 581.2 572.4 563.3 555.4 552.7 544.7 529.4 508.7 492 483.9 473 464.7 459 450 444.1 440.1 435.3 429.7 426.7 416.9 408.4 404.5 397.8 393.4 383.6 368.1 354.8 345.6 337.1 327.8 322.3 316.3 313.6 310.5 309.3 302.3 301.4 300.2 298.4 297.9 297.8 296.9 295.7 294.9 292.6 290.8 289.4 288.2 287.7 287.3 286.2 283 281 279.6 281.6 282.5 282.7 280.6 278.1 278.8 277.7 277.8 276.8 276.3 274.1 271.8 272.3 271 269.8 268.7 268.3 266.6 265.3 263.5 261.6 260 259.4 258.9 256.8 254.8 253.4 253.1 251.5 246.4 244.6 244.6 244.6 244.6 244.6 244.6 244.6 244.6 244.6 244.6 244.6 244.6 244.6 244.6 244.6 244.6 244.6 244.6 244.6 244.6 244.6 244.6 244.6 244.6 244.6
587.7 583.3 579.5 575.3 570 565 557.7 551.1 539.5 524.2 509.4 498.1 489.2 480.5 476.9 470.4 462.5 459.2 457.4 455.1 452 449.6 446.7 442.4 444.4 445.4 441.5 444 439.3 439.6 439.6 438 436.7 437.2 443.6 443.7 448.4 452.6 458.2 465.1 472 473.8 477.1 482.9 493.4 503.7 512.5 523.8 536.8 537.7 536.7 534.8 532.8 531.7 527 526.8 527.1 522.1 515.2 509.7 507.7 504.4 503.6 505 508.5 513.1 522.4 534.7 542.9 547.2 548.8 551.3 559.4 566.3 571.1 572.7 572.4 574.2 580.1 593.4 602.1 606.4 613.9 623.5 629.8 631.5 630.9 626.3 620.3 613.4 605.8 598.1 590.6 585.2 577.5 569.4 560.1 545.8 519.1 505.4 493.9 482.5 472.4 464.9 458 453 448.9 447 440.4 431.2 427.6 418.1 414.2 405.2 395.2 386 373.6 360.3 347.8 339.5 332.3 324.7 317.8 315.6 313.9 309 304.9 302.5 300.4 298.4 298.5 297.9 296.2 294.9 293.5 292 290.8 290.9 291 290.7 290.4 287.7 283.6 280.5 282.1 282.7 284.4 285.1 285 285.3 283.6 282.3 279.2 279 278.2 276.6 275.8 275.4 276.5 276.2 277.2 275.3 272.6 272 268.2 266.7 265.2 264.3 262 258.9 257.7 256.3 254.1 252.2 248.5 244.6 244.6 244.6 244.6 244.6 244.6 244.6 244.6 244.6 244.6 244.6 244.6 244.6 244.6 244.6 244.6 244.6 244.6 244.6 244.6 244.6 244.6 244.6 244.6 244.6
583.6 576.9 576.9 572 568.4 563 556.9 550.3 539.3 524.6 511.2 501.5 493.4 485.8 480.3 472.9 466.5 465.2 461.3 458.9 456.7 452.8 449.3 448.9 448.4 446.3 447.2 447 444.1 445.5 448.2 447 442.2 449.9 451.6 459.6 463.2 471.8 477.3 484.5 494.8 502.7 506.7 505.4 509.9 519 526.1 535 547.4 550.6 550.4 550.6 545.8 545.7 540.9 538.6 536.4 529.9 523.9 518.2 516.5 514.7 513.1 512.7 516.4 522.9 529.9 536.7 550.2 558.1 561.3 565.1 565.7 572.2 574.5 577.4 578.5 577.9 582.5 595.5 608.3 613.7 624.6 632.9 638.3 639.3 639.5 637.1 632.6 627.8 622.1 614.3 607.6 603.3 596.8 587.8 574.7 559.1 533.1 514.6 502.2 491.4 483.1 475 468.1 462.3 458.9 455.1 446.5 442.5 432.4 424.9 421.1 412.4 401.8 390.6 378.1 372.3 355 346 335.9 329.4 320.5 318.2 318.1 312.7 308.4 304.2 302.3 300.6 297.8 296.7 296.1 294.7 293.4 292.6 293.6 292.9 293 293.7 292 288.2 281.8 283.7 285.3 285.2 285 286.6 286.5 286.6 285.8 285.8 283.3 282.5 282.1 280.8 281.1 280.8 281.8 282.4 281.5 280.5 277.5 276.3 273.3 272.3 271.5 268.1 266.2 263.3 261.7 260 256.1 253.9 251.5 247.9 244.6 244.6 244.6 244.6 244.6 244.6 244.6 244.6 244.6 244.6 244.6 244.6 244.6 244.6 244.6 244.6 244.6 244.6 244.6 244.6 244.6 244.6 244.6 244.6
577.3 575.1 572.7 570.2 566.9 562.5 556.3 549.1 538.9 525.2 513.5 504.3 496.8 489.4 479 475.3 473.7 471.2 466.8 464.5 460.7 457.3 450.3 453.7 453.7 448.9 451.1 451.6 447.3 452.7 454.5 455.2 455 457.4 467.7 471.5 477.4 486 496.3 506.9 515.9 524.2 528.7 532.7 537.3 542.3 546.3 551 556.3 558.5 563.5 564.1 560.9 555.6 553.6 549.4 545.9 538.4 531.8 526.3 522.7 520.8 519.5 519.1 523.7 529.4 533.7 541.3 552.7 559.4 566.1 572.8 571.8 577.4 580.6 580.3 581.9 584 595.8 608.5 613.6 620.8 634.6 640.3 644 649 649.7 647.1 643.9 639.9 635.3 628.3 622.2 619.3 613.3 605 593 569.5 545.8 528.7 512.3 502.2 495.2 489.1 482.6 476.8 471.8 463.9 456 451.2 444.6 434.6 428.4 420.6 409 396.3 384 374.6 362.1 354.5 343.8 335.1 328 324.5 320 314.5 307.3 304.7 304.5 300 297.1 296.6 296.1 294.5 293.8 293.9 293.1 289.7 288.2 287.6 290.3 286.3 286 286.8 289 289.8 288.5 288 288.4 289.5 289 287.3 287 289.8 286.3 285.5 287.8 286.8 285.2 285.4 285.9 284 282.2 280.2 278 276.4 274.1 271.4 268.6 266.6 265.9 263.1 259.1 255.6 253 250.7 246.1 244.6 244.6 244.6 244.6 244.6 244.6 244.6 244.6 244.6 244.6 244.6 244.6 244.6 244.6 244.6 244.6 244.6 244.6 244.6 244.6 244.6 244.6 244.6
570.2 570.2 568.6 567.1 565.4 561.7 555.7 548.3 538.9 526.6 515 504.9 494.3 486.1 483.8 482.7 480.5 476.5 474.1 470.1 467 460 458.2 461 454.3 450.7 453.9 453.4 453.9 460.7 463.1 461.4 463 470.5 478.8 484.7 495.1 506.8 513.5 523 533.2 543.1 553.2 556.1 560.3 565.8 569.9 576.2 582.4 582.8 577.6 573.5 569.6 564.2 562 559.3 552.4 544.2 536.9 532.6 528.8 526.9 524.9 524.9 529.5 534.4 537.3 542.9 550.6 557.2 570.2 579.1 579.5 582.4 585.1 584 584.2 589.8 602.5 608.3 613.7 624.9 642.2 649.3 651.8 657.5 658.5 657.3 654.7 649.4 645.1 640.8 636.2 632.5 629.7 621 608.1 589.7 566.5 546 528 515.3 507.7 502.7 495.4 488.6 479.3 471.3 466.2 462.3 452.3 443.2 434.7 425.5 415.1 406.2 389.8 377.7 367.5 361.8 354.8 345.1 337.1 329 325.2 317.1 311.1 306.4 303.4 297.5 294.7 294.9 295.3 292.5 292.3 291 289.9 288.6 289.2 288.3 287.4 290 291.1 291 290.9 293.5 293.1 292 290.8 292.3 293.9 293.2 291 292.3 292.1 289.3 291.3 291.5 290.8 289.1 288.3 287.1 286.5 284.4 282.2 279.7 276.7 274.7 271.5 269.5 269.4 266.5 264.3 259.8 256.7 253.3 248.6 244.6 244.6 244.6 244.6 244.6 244.6 244.6 244.6 244.6 244.6 244.6 244.6 244.6 244.6 244.6 244.6 244.6 244.6 244.6 244.6 244.6 244.6 244.6
564.8 565.2 562.1 564.7 562.7 559.9 555.2 548.3 539.2 527.5 513.7 503.6 500 494.4 491.2 488.1 483.6 481.3 479.8 475.2 469.8 465.8 467.4 462.1 456.7 456.6 454.9 457.8 460.9 469.3 472.2 470.7 480.4 488.8 497.2 510 525 532.2 535.5 540.3 553 565.7 573 576.6 582.6 589.3 595.1 601.7 603.5 603.7 599.7 591.8 578.5 571.6 564.5 557.5 552.3 546.5 542.7 537.1 533.3 531.4 529.1 530.6 533.6 538 539.4 542 547.3 554 564.4 572.8 577.4 582.6 584.7 586.1 589.9 595.3 601.9 606.9 613.6 631.5 645.9 652.8 658.5 660.8 660.4 662.5 660 656 652.5 649.6 646 642.6 639.4 637 625.9 609.1 583.7 565.3 545.3 533 523.6 516.8 507.8 499.7 487 478.5 474.5 467.2 458.6 451.4 442.9 433.7 425.4 420.1 390.7 379.8 371.8 367.7 360.2 350.9 343.4 337 328.9 319.9 313.9 308.2 304.1 297.6 293.7 292.9 292.6 292.3 291.7 291 290.3 289.9 292.7 292.6 293.1 293.6 294 294 294 295.4 295.7 296 295.4 296.8 296.9 297 296.7 296.6 294.5 294.8 294.5 294.4 292.8 291.4 291.2 290.2 288.8 287.3 285.6 282.6 279.7 278.7 275.7 272.7 272.3 269.5 266.3 263 260.1 256.7 252 247.9 244.6 244.6 244.6 244.6 244.6 244.6 244.6 244.6 244.6 244.6 244.6 244.6 244.6 244.6 244.6 244.6 244.6 244.6 244.6 244.6 244.6 244.6
558.7 559.7 560.5 559.8 559.8 557.9 554.2 547 538.5 519.9 516.2 510.7 504.2 499.6 496.4 492.4 487.8 486.9 482.6 478.4 474 470.6 466.7 462.8 460.6 460.2 461.9 466.3 475.8 478.7 483.4 490.1 501.1 509.9 523.3 536.7 548.2 552.4 558.4 564.8 577.9 586.9 594.1 603.4 607.7 610.6 622.2 627.6 627.9 621.8 618.4 611.6 602.2 593.7 570.1 563.8 554.3 544.5 542.1 541.4 538.3 537 535.8 536.8 537 537.8 540.8 542.5 544.9 549.4 554.8 562.6 569.4 576.2 581.2 590.4 596.8 597.3 601.1 609.3 621.1 634.9 645 653.3 657.4 660.1 660.1 662.5 662.6 659.5 656.9 654.2 653 652.3 648.2 642.9 635.8 624.5 605.5 581.7 565.1 551.5 541.1 528.6 518.2 505.7 499.1 488.5 479.2 471.8 464.3 457.9 449.6 441.6 432.5 420.5 393.9 382 376.9 373 363.6 356 345.6 341.2 332.1 329.6 321.4 313.5 305.7 301 295.1 294.7 294.7 293.4 292.8 292.3 289.7 293.8 294.1 293.9 294.7 295.1 295.3 295.2 296.4 298.1 299.5 300.8 302.1 303.8 302.7 302.3 301.3 301.3 301.5 301.2 300.8 298.9 298.6 296.2 295 293.6 292.5 291.8 289.6 285.7 283.7 282.2 278.4 275.8 273.6 271.6 269.2 265.6 262.3 259.8 256.1 251.5 248.6 244.6 244.6 244.6 244.6 244.6 244.6 244.6 244.6 244.6 244.6 244.6 244.6 244.6 244.6 244.6 244.6 244.6 244.6 244.6 244.6 244.6
559.7 559.9 559.7 559 558.4 555.8 552.1 538 539.1 532.6 524.2 516 510.6 505.2 502.1 497.1 494.2 489.9 487.4 483.3 478 476.2 471.6 469.3 465 468.4 472.9 478.1 485.5 493.1 501.5 513.7 526.2 538.7 550.2 555.1 560.8 569.8 578.9 591.2 596.9 605.2 610.6 620.5 628.1 632.3 640.3 645.6 648.5 654.8 653.2 638.4 610.6 598.8 578 564.3 552.8 544.5 540.1 539.4 537.2 536.6 537.8 538.6 539.2 539.8 541.6 542.6 543.4 545.9 550.5 554.9 561 569 578.4 588.6 593.4 593.9 602.9 614 628.3 638.9 642.1 648.5 652.4 655.6 658.1 660.9 659.3 658.5 655.8 654.7 654.9 655.3 652.2 646.8 639.2 628.6 617.4 598 578.2 564.8 551.7 539.3 525.1 513.6 503.3 493.2 483.6 474.9 468.5 461.4 453.2 448.9 431.7 417 399 383.6 379.4 373.5 366 356 350.8 344.8 337 333.6 324.4 316.5 309.1 305 303 301.3 299.2 297.5 293.9 293.1 292.9 295.7 295.8 296 296.5 297.4 298.5 299.7 301.9 303 305.1 306.1 308.3 307.6 307.7 306.5 307.3 306.9 306.9 307.1 306.2 305.3 304.1 302.7 301.7 300.5 299.9 297.9 296 290.7 288.9 286.4 283.8 281.3 278.8 276.6 272.6 268.7 265.2 262.2 257.7 255.7 251.2 248 244.6 244.6 244.6 244.6 244.6 244.6 244.6 244.6 244.6 244.6 244.6 244.6 244.6 244.6 244.6 244.6 244.6 244.6 244.6 244.6
561.3 561.4 559.8 559.7 556 554.8 553.7 549.4 544.9 538.5 529.4 523.6 518.4 512.5 508 503.2 499.9 495.8 491.1 487.2 484.8 478.9 477.8 473.9 471.2 475.8 483.7 488.6 495.4 506.8 525.8 539.9 552.4 562.2 566.6 570.5 578.2 588.4 599 606.2 613.7 617.9 630.9 638.2 646.6 653.9 662.4 667.6 677.1 684.5 678.9 650.1 618.7 600.9 588.2 569.3 552 544.2 539.9 536.1 532.9 534.3 535.2 535.6 538.9 539.6 541.5 542.3 541.6 543.5 544.8 548.9 553.8 564.5 573.8 580.7 585.5 586.4 597.2 614.2 627 635 634.7 639.2 643.6 646.7 650.2 652 651.9 651.4 651.4 650.6 651.8 653.8 652.8 647 641.2 630.9 619.7 606.7 587.6 573.3 560.4 546.5 534.7 519.2 509 498.9 486.9 477.9 467.3 462.4 454.6 443.9 428.5 413.2 395.7 384 381.2 371.4 366.7 362.1 354.3 350.7 340.1 335.9 324.5 319.1 313.2 307.5 306.6 304.4 302.2 299.1 296.6 293.7 297.4 300.9 301 301.5 301.7 303.8 305.8 306.1 307 308.2 308.7 313.6 314.2 314.6 313.2 315.6 316.1 312.5 314.6 314.8 314 311.3 311.3 311.9 310.3 309 307.2 304.7 302.1 298.3 296.7 292.9 289.1 286.4 282.4 279.7 277.3 272.8 270.3 266 262.5 258.9 256.3 253.3 250.8 244.6 244.6 244.6 244.6 244.6 244.6 244.6 244.6 244.6 244.6 244.6 244.6 244.6 244.6 244.6 244.6 244.6 244.6 244.6
562.2 563 561.3 558.6 558 558.2 557.2 553.8 548.8 543.6 537.4 531.9 525.7 519.3 514.1 509.2 505.8 500.5 494.1 492.2 488.2 486.2 482.7 479.3 479.9 484.5 492.1 500 510.9 527.6 543.5 561.1 572.4 578.3 583.9 590.6 601.1 610 619.2 630.5 636.7 643.6 650.2 658.8 663.5 668.7 676.2 685.3 695.3 703.7 698 659.8 627.2 606.4 588.1 573 552.7 540.8 531.9 528.5 524.9 525.1 526.3 530.6 535.2 534.5 537.9 538.3 536.6 539 540.7 543.5 547 557.4 563.7 568.9 574.4 583.2 593.6 607.2 621.3 625.2 626.5 626.9 630.2 632.8 636.6 637.9 638.1 638 640.6 643.2 644.8 646 646.4 642.9 637.9 630.4 619.2 605.5 591.8 577.2 564.6 551.2 538.9 524.1 513.4 501.7 490 480.9 467.2 458.5 451.4 439 422.4 409.8 396.7 384.9 385.2 374.8 363.4 359.9 357.4 351.7 342.1 334.1 329.6 323.4 318 309.9 308.3 307.7 304 302 297.5 296.7 303 306.2 307 307.4 307.7 309.5 311 313.2 315.2 317.4 318.6 321.1 320.5 320.1 320.7 322 321 321.9 322.7 322.3 324.1 321.7 318.1 317.6 316.7 315.8 313.7 312.1 308.4 306.4 304.6 301.6 300 295.8 291.9 287.7 282.5 278 273.6 269.9 268.3 263.8 260.8 257.5 255.9 252 250.2 249.7 244.6 244.6 244.6 244.6 244.6 244.6 244.6 244.6 244.6 244.6 244.6 244.6 244.6 244.6 244.6 244.6
558.8 561.6 562.1 561.3 560.1 559.6 558.9 557 552.8 550 545.1 539 532.8 527 520.2 514.9 511 507.1 503.6 497 493.1 490.4 488.5 486.4 488.6 496 503.3 512.8 525.6 545.6 562.9 578.4 586.6 592.9 601.2 614.8 625.9 638.2 645.7 657.7 664.5 668.7 674.1 679.5 683.6 688.5 698 706.7 718.1 729.2 729.5 691.1 651.1 616.9 595.6 578.1 561.5 549.4 537.4 528.4 519.9 520.5 520.5 521.2 525.7 530.5 538.4 535.2 534.9 533.3 537.1 537.2 542.5 547.3 554.3 559.4 565 574.4 590.8 600.7 609.5 611.9 613.1 611.8 614.1 616.9 620.2 621.2 621.8 623.2 626.6 630.8 633.3 635.5 635.7 635.3 630.9 623.9 614.1 601.5 590.1 577.6 564 550.2 538.5 526.7 515.7 502.3 491.1 482.3 466.7 455.5 444.2 432.5 417.3 408.2 395.1 383.2 385.5 374.1 359.4 357.9 353.5 348.2 341.5 334.8 328.7 324 318.6 312.6 310.9 309.5 307.4 304.9 298.9 301.8 307.3 308.9 309.5 310.7 313.5 315.5 316.9 318.5 322 324.9 326.9 327.2 327.5 327.1 327.4 329.5 328.6 328.5 329.3 330.2 329.8 327.6 324.8 322.9 323.1 321.8 321.6 317.2 314 314.3 311.7 309.9 309 306.1 301.6 295.6 291.8 285.6 282.1 278.7 273.8 270.2 266.6 263 259.7 257.8 255 251.8 250.2 246.4 244.6 244.6 244.6 244.6 244.6 244.6 244.6 244.6 244.6 244.6 244.6 244.6 244.6 244.6
559.7 560.3 562.3 561.4 561.7 561 561 559.7 557 555.2 550.5 545.4 540 534.6 528.9 521.2 516.5 513.5 510.3 503.1 498.4 495.5 494.4 495.5 497.3 505.8 514.2 526.3 540.7 558.7 579.8 594.2 602.8 609.7 620.8 635.8 649.7 663.3 676.8 686.1 693.8 697.8 701 708.5 712.6 718.8 725 730.1 744.7 755.8 757.7 711.9 685.1 650.9 615.9 586 576.9 572.4 550.8 531.7 520.5 520.5 520.5 520.5 520.5 527.6 525.9 530.7 530.9 529 529.6 534.8 539.5 539.9 545.5 551.9 557.7 564.4 578.6 586 593 594.9 594.7 594.4 596.3 600 602.7 604.8 606.5 609 609.9 614.5 618.2 621.8 623.1 623.1 620.9 615.1 606.3 595.2 585.2 574.2 561.7 547.6 536.7 526.4 515.9 502.3 490.7 476.8 464.7 452.7 439 426.2 413.6 403 390.7 382.4 377.9 370 358.3 356.1 352.2 342.7 339 338 331.7 326.5 319.8 313.3 311.2 309.8 308.9 306.5 298.8 306.8 310.4 312 314 318.1 321.4 322.7 323.3 324.8 327.5 331.2 332.8 334.5 335 334.4 334.7 335.7 338.1 337.5 338.3 334.8 335.2 337.7 335 332.3 330.6 327.1 324.4 322.9 322.8 321.7 322.6 319.3 316.2 310.9 305.9 302.2 297.7 292.7 290.4 286.7 280.4 276.3 272.6 269.3 265.6 263.1 258.9 257.8 254.7 252.5 247.4 244.6 244.6 244.6 244.6 244.6 244.6 244.6 244.6 244.6 244.6 244.6 244.6 244.6
559.7 559.7 558.6 560.9 560.9 561 562.5 563.1 562.1 560.4 557.2 553.6 548 542.1 534.7 527.7 524.7 521.8 517.6 512.4 508 504.7 506.3 509.1 508.4 515.9 524.2 538.1 553.3 571.9 594.8 609.6 619.7 629.3 640.2 654.8 672.4 691.6 700.7 711 718.9 722.7 724.3 731.3 740.5 748.2 752.2 752.7 763.8 774.5 778.7 735.3 703.3 674.2 632.7 592.8 576.9 570.7 554 536 523.2 520.5 520.5 520.5 520.5 520.5 520.5 523.3 525.8 526.3 524.5 530.6 533.9 534.9 537.1 545.6 549.3 555.8 565.5 572.3 576.4 577.9 577.4 577.5 578.9 582.5 586.7 588.6 590.7 592.4 595.3 598.8 601.4 605 607.9 609.4 608.2 603.4 595.6 586.5 576.2 567.5 557.2 544.9 533.4 523.3 511.8 498.6 485.8 472 459.1 449.6 435.8 422.3 410.8 400.3 387.9 380.6 375.9 369.5 358.8 355 350.2 341.2 339.9 336.4 330.9 325.5 322.7 314.4 311.1 310 308.7 305.6 301.7 309.7 313.3 316 321 326.3 330.3 332.2 330.7 332.1 335 337.4 338.4 340.1 340.5 340.4 341.4 341.7 341.1 343 346.1 345.3 341.6 345.2 342.6 338.5 339.3 336 333.6 332.5 333.2 332.3 330 327 324.3 322.7 317.4 312.6 307.1 303.2 298.4 293.3 287 283.9 279.6 276.9 274.1 270.2 266.8 266.3 260.5 256 253.1 248.1 244.6 244.6 244.6 244.6 244.6 244.6 244.6 244.6 244.6 244.6 246.4 246
559.7 559.7 559.7 559.7 559.7 562.4 564.8 566.8 566.9 565 564 560.9 555 549.4 543.5 535.9 533.4 530.3 527.4 525.5 521.2 517.3 517.4 517.6 518.7 524.8 534.7 550.8 562.8 584.6 606.4 622.4 632.9 647.1 660.9 678.5 698 712.6 723.8 734.3 741 744 749.6 755.3 762.5 770.6 776.7 781.5 789.6 796.7 800 749.4 715.6 687.1 650.3 607.4 583.7 569 557.6 543 531.5 520.5 520.5 520.5 520.5 520.5 520.5 520.5 520.6 520.7 522.1 523.2 525.8 529.9 534 536.4 540.5 546.9 554.5 559.7 563.2 564.1 562.9 562.2 562.4 564.9 568.2 570.8 574.5 576.8 579.7 584.2 586.9 589.9 592.5 594.8 595 591.3 585.6 576.7 568 558.5 550.4 539.5 527.5 516 508.5 495.4 478.9 466 454.9 445.6 432.7 420 409 398.6 384.2 381.9 375.6 364.8 357.4 354.4 348.1 340.5 337.4 333.1 330.7 325.2 321.5 313 310.7 309 308.9 306.2 307.6 313.8 316.6 321.1 326.3 334.4 338.5 339.4 339.3 340.4 341.3 342.5 343.6 345.7 345.8 346.6 346.4 346.6 345.3 344.6 351.1 351.3 350.6 351.3 348.7 347.9 345.7 345.4 345.6 342.1 341.8 341.8 340.9 336.3 333.5 331 329.1 322.6 319.5 313.6 307.9 301.8 296.3 291.6 287.8 285.6 280.7 277.7 273.8 270.7 264.8 261.2 258 254 251.1 251.7 251.6 250.4 249.7 249.5 253 255.2 252 252.9 254.2 253.4
559.7 559.7 559.7 559.7 559.7 562.1 567.7 569.2 570.5 570.7 570.4 568.6 562.4 557.9 552.7 550.2 546.8 543.8 539.8 539.5 539.2 536.2 530 526.8 527.3 531.8 544.7 560.1 576.8 595.9 618 631.5 645.9 662.3 682.4 702.4 719.6 734.2 746.2 755.3 763.8 768 771.7 777.8 782.8 791.2 796.8 807 812.5 816 815.3 761.4 726 699.6 666.6 618.1 591.2 575.3 556.6 548.7 536 520.5 520.5 520.5 520.5 520.5 520.5 520.1 520.5 520.5 520.2 520.7 520.5 521.3 530.3 529.4 533.7 539.5 544 550.1 554 553.5 551.9 550.4 549.9 549.6 550.2 553.5 556.9 559.5 564.2 568.7 573.1 577 578.8 581 579.7 578.3 574.4 568.4 559.2 550.4 541.7 531.1 520 512 502 491.1 475.1 462 451.3 441.2 429.6 418.1 406.9 395.8 384.3 382.3 375.7 368.6 359.4 350.7 343 339.7 334.3 331.2 326.8 323.9 318.1 312.8 312 307.1 305.3 308.1 313.7 318.3 322.2 329.2 335.4 341.3 344.2 344.7 345.9 347.2 348.3 349.7 350.3 351.2 350.3 351.2 350.6 349.3 350.4 352.7 354.1 357.4 357 357.8 354.4 353.9 353.6 353.8 351.7 348.6 351.8 351.6 350.7 350.1 347.8 342.9 338 335.3 330.4 326.4 320.2 312.8 305.6 299.9 295.5 291.3 288.8 284.1 280.4 275.9 269.7 264.9 262.2 257.8 259.1 257.8 257.3 256.2 256.5 260.2 260.8 260.5 260.4 258.8 259.9 259.4
559.7 559.7 559.7 559.7 559.7 562.7 567.5 573 573.9 576.2 578 575.4 569.6 565.8 563.2 562.5 560 556.9 557.8 557.4 556.9 549.1 541.8 537.1 536.7 542.1 553.2 566.2 587.1 605.2 627.6 640.9 658.3 680.9 702.6 725.6 743.4 756.8 769.6 777.9 785.6 792.8 797.3 801.2 806.4 811.3 814.7 820.1 823.7 826.3 821.8 782.8 738.5 709 677.6 637 603.7 583.2 565.7 548.5 536.3 525.8 520.7 520.8 521 520.5 520.7 520 520.1 520.5 520.5 520.5 520.5 520.3 522.7 525.2 526.4 528.8 535.3 538.4 541.5 541.9 540.8 538.8 536.9 535.6 535.5 537.2 540.9 543.1 547.7 552.6 556.5 561.8 565.9 567 567.5 566.2 563.3 559.6 551 542.8 533.8 524.4 513.6 505.3 495.6 485.1 473.5 461.2 447.9 437.8 427 415.3 404.6 392.7 386.6 381.8 373.5 365.4 358.7 349 343.4 337 332.3 329.2 326.6 322.3 317.4 313.1 311.4 306.7 310 311.6 317.6 322.4 327.4 335.6 342.5 345.7 349.1 349.8 352.4 354.4 354.8 356.1 358 358.8 358.4 357.6 355.2 354.7 354.9 356.8 356.4 359.1 362.3 363.6 363.5 362.9 362.7 361 358.4 356.3 360.8 362.3 361.7 361.3 360 357.8 355.6 351.2 345.3 341 335.3 328.5 319.6 311.8 306.4 300.3 295 289.5 286.4 280.1 275.5 270.1 268.2 266.2 263.3 261.3 259.5 259.3 261.4 266 266.4 259.8 259.9 259.2 260.6 258.5
559.7 559.7 559.7 559.7 559.7 561.4 566.6 574.7 580 582.9 585.6 582.6 578.4 576.5 571.7 571.2 572.4 573.4 574.1 571.6 568.1 560.5 552.2 549.1 547.6 548.2 559.2 570.6 589.6 612.9 633.1 650.3 673.1 701.7 727.4 752.2 769.5 781 794.9 803.2 809.5 813.8 816.3 820.2 823 824.4 827.5 831.1 832.2 829.1 819.9 799.3 751.6 715.2 682.3 642.6 615.3 591.3 573.9 554.4 539.5 533 531.6 532.5 529.8 524.9 529.1 525.7 522.4 521.1 520.5 520.5 520.5 520.5 520.5 520.1 522.5 524.4 528.7 528.5 528.5 527.6 528.5 525.8 523.8 521.7 522 523.9 526.5 530 533.7 538 542.9 547.1 550.8 553.1 554 553.3 551.3 549.2 542.7 534.3 524.7 516.4 509.6 502 493.4 482.2 471.5 460.3 445.1 433.4 422.3 412.8 400.5 389.5 384.6 383.1 375.3 366.5 356 348.2 341.8 337.1 330.3 325.8 324.3 321.1 317.1 313.1 310.6 307.2 310.3 315.4 319.9 325.7 333.5 342.4 348.7 352.6 356.4 358.7 360.1 360.4 362.8 365.1 366.4 367 366.7 365.5 363.7 361.6 361.6 360.5 362.2 364.2 367.7 369.5 370.3 371.4 370.5 368.4 366.1 365.1 368.4 371.2 372.8 374 373 373 371 366.2 361.7 356.3 350.7 343.4 335 326.3 317.7 309.7 302.4 296.1 291 285.2 280.7 277 274 270.6 267.8 265.8 262.8 267.1 264.3 267.7 263.7 260.2 261.8 259.9 260.1 258.9
559.7 559.7 559.7 559.7 559.7 559.7 567.7 578.1 587.3 590.4 591.9 592.9 591.6 586.5 584 582.9 590.6 590.6 587 583.2 578.7 572.3 564.5 561.5 559.2 557.4 563.1 579.6 597.3 620.2 639.2 658.1 685.6 723.9 751.3 775.8 794.6 806.4 817.1 825.6 830 833.2 835.2 835.5 833.7 832 833.5 832.2 829.1 823.6 811.8 794.5 764 718 682.2 650.5 620.6 596.8 579.2 571 546.7 542.6 541 550.1 539.3 537.3 534.3 529.7 525.9 522.1 520.5 520.5 520.5 520.8 519.6 520.5 520.6 521.4 522.6 521.6 522.8 521 517.8 514.7 512.5 509.4 508.3 509.6 514.1 517.2 520.9 524.8 528.8 534 538.5 539.8 539.6 540.4 539.7 538.1 533.2 525.4 516.2 510.5 502.9 494.3 485.9 478.3 467.9 457.2 442.7 429.2 421.4 412 398.3 387.9 381.2 377.8 373 366.4 354.3 346.4 339.7 335.2 329.2 324.7 320.5 318.5 315.7 312.2 311.1 307.7 311.7 319.3 323.9 330.7 338.7 349.1 356.5 360.5 364.3 366.3 366.4 367.4 369.8 373.7 374.1 374.9 374.4 373.6 372.3 370 368.2 366.5 368.5 369.3 371.5 374 376.5 378.2 377.9 375.9 373.2 372.7 376.4 378.6 381.2 384.9 386.5 386.3 385.9 382.5 380.6 377.4 369.7 360.6 353.1 342.8 331.7 322.2 313.3 305 298.4 292.6 287.4 283.4 279.1 275.8 272 268.4 268.5 268.8 266.8 270.1 265.5 261.9 260.6 261.6 261.7 260.3
559.7 559.7 559.7 559.7 559.7 559.7 573.6 585.5 592.7 598.9 603.5 610.8 609.8 608.7 608 605.6 600.1 597.5 595.9 591.9 588.1 582.5 575.5 571.3 566.8 564.1 571.1 587.1 600.2 622.3 644.6 662.7 694 732.7 772.3 800.3 817.6 826.4 837.2 844.7 847.1 847.1 847.2 843.7 839.5 835.5 831.1 825.9 820.5 813.6 800.2 782.7 758 719.4 686.6 658.3 631.9 601.8 591.1 577.7 563.2 558.2 550.7 555.7 548.8 547.3 542.9 537.4 531 528.1 524.4 521.4 520.5 520.1 520.5 520.5 520.1 519.8 521 518.6 518.3 517.8 512.8 507.1 505.5 501.9 498.6 498.2 500.9 503.8 509 513.3 516.3 519.4 525 529.3 529.3 528.6 528.5 527.8 523.2 518.8 510.8 501.5 494.1 487.6 481.8 474 464.2 453.5 441.1 428 420.8 410.2 397.4 387.2 379.6 372.3 369.2 366.2 353.1 343.1 338.2 334.6 331.7 327.2 322.6 318.6 313.8 310.4 311.4 308.3 313.6 320.9 327.6 334.9 344.1 355.3 362.5 368.2 373.4 374.5 375.5 376.3 377.8 381.3 382.2 383.1 382.1 380.5 378.4 375.1 372.2 371.4 372.4 373.3 373.2 377.2 380.5 382.8 384.7 383.1 380.7 382 383.9 386.9 390.5 394 397.2 398.5 399.3 400.3 400.3 395.2 391.7 384.2 372.2 361.6 349.9 339.7 330.7 320.2 307.7 301.1 296 290.6 284.1 277.1 275.3 272.8 271.4 271 269.3 272.1 269 263.5 261.8 263.5 262.6 261.7
559.7 559.7 559.7 559.7 559.7 570.8 586.9 597.9 604.2 606.7 619.9 630 632.9 631.7 627.2 616.3 606.5 604.4 603.9 599.9 595.9 590.7 584.6 579.6 574.9 571.9 579.3 591.2 602.8 625.4 647.3 667.2 703.3 742.6 782.2 812.1 829.9 841.4 853.8 859.2 860.3 856.6 850.6 845.2 837.8 830.9 822.5 815.7 809.8 802.5 788.5 769.3 741.2 713.2 685.1 661.3 639.2 612.2 596.5 587.4 578.8 576.3 565.8 564.9 557.7 555 550.1 546 541 535.4 529.9 526.4 523.6 520.5 520.5 520.5 519.8 521.1 520.4 517.4 515.7 512.6 507.7 503.1 500.4 497.1 494.4 492.6 491.4 493.6 498.5 500.8 504.3 507.1 510.4 515.9 518.8 519.6 518.5 516.5 514 510.5 503.8 495.5 486.8 481.4 475.9 468.4 459 449.2 437.6 426.9 418.4 408.1 398.1 385.7 382.8 372.4 364.8 361.2 354.3 341.4 338 335 332.3 326.8 323.4 319.1 315 312.1 315.9 309.1 315 327 332 339.1 349.2 362.4 369.5 374.4 379.2 381.8 384.2 384.7 386.5 387.7 388.5 388.4 387.9 387 384.9 379.6 377.6 378.3 375.7 376.7 378.6 381 383.2 386.2 388.3 388.9 387.6 390.6 392.9 396 399.4 403.9 408.2 411.4 413.2 415.8 418.4 420 416.5 408.8 397.2 385.3 371.9 358.6 347 336.3 325.4 315.5 305.7 297.1 289 283.4 280.2 277.1 275.3 273.5 272 271.6 270.4 266.2 264 264.3 264.5 264
559.7 559.7 559.7 559.7 572.7 583.7 599.7 606.9 623.2 628.9 634.1 640 644.6 643.7 636.6 627.5 616.4 609.9 609.2 605.3 601.8 596.3 592 587.7 582.5 578.2 585.7 595.5 612.3 627.2 649.2 671.8 708 747.9 791.2 818.5 836.5 850.6 862.4 869 866.2 859.7 851.5 842.8 833.2 820.6 811.9 806.2 798 790.1 773.9 752 725.9 701.3 683.4 661.6 640.2 616.4 604.6 600.2 591 584.4 576.8 569 568.7 570.9 564.2 552.6 545 540.7 537.5 531.4 531.6 524.4 520.1 518.5 518.9 517.6 517.8 517.5 514.8 511.5 509.3 501.6 495.5 492.1 488.7 484 483.6 485.1 484.6 488.2 493.6 494.7 498.8 501.7 506 507.6 507.3 505.1 503.6 501.7 496.3 490.1 481.4 475.9 471.3 464 454.6 443.6 434.4 424.9 415.6 407.1 397.6 387.4 379.9 375.7 365.1 359.8 347.3 339.9 335.5 331.7 329.3 327 324.3 319.8 314.9 313.3 313.2 309.7 319.6 329.2 336.1 343.8 355.2 367.3 375.4 381.8 387.8 390.7 392.5 392.7 393.8 394 393.9 394.5 393.5 391.2 390.2 388 383.3 383.4 382 384.5 385 386.7 387.1 389.1 392.2 393.6 393.6 396.2 399.2 403.1 407.8 413.4 417.8 421.5 426.4 431.4 436.6 441.3 442.2 435.4 428 420.5 404.2 383 365.5 348.9 337.7 328 317.5 307 297.4 290.6 284.4 280.5 277.1 276.1 274.8 274.1 271.1 268.4 266.3 266.1 265.8 265.2
575.9 577.2 580.8 587.4 590.4 591.9 609.7 630.4 642.6 649.6 650.1 650.4 653.1 654.4 651.5 639.3 625.9 618.4 615.4 611 607.9 601.5 596.4 593.1 587.8 584.5 591 599.1 614.3 629.4 648.6 677.8 712.6 752.5 794 819.8 839.4 853.8 866.9 871.2 867.8 860.5 849.8 840.3 827.3 812 804.2 794 786.3 777.4 758.5 736.7 715.2 692.2 676.8 661.9 646.5 627.9 616.1 605.4 601.6 591.1 583.5 578 581.4 587.9 580.3 575.3 560.7 551.7 548.8 539 535.7 531.5 525.2 521.9 521.2 519.7 518.5 517.2 514.8 509.3 509.5 503.9 496.3 489.8 488.8 485.2 481.5 477.4 478.1 479.1 482 484.2 486.8 489.2 492.7 494.4 494.8 496.6 493.9 492.2 489 483.7 477.4 472.1 466.1 460.2 451.6 439.5 433 423.4 413.1 408.4 397.2 387 378.9 374.7 365.6 355.1 346.6 340.8 335.5 330.9 326.7 323.9 322.7 318.9 313.9 313.8 313.5 310.8 322.9 331.9 339.4 348.6 360.1 373.1 382.4 388.8 394.6 399.6 400.6 399.9 399.3 400.3 400.1 398.8 396.8 395.4 394 392.4 389.8 391.1 388.5 389.8 388.8 388.7 390.5 393.7 397 397.9 397.9 400.9 404.7 409.9 415 420.6 426.2 431.3 436.2 442.3 449.4 456.6 461.2 463.6 462.7 451.5 435.4 419.8 394.5 375.3 353.1 342.5 329.5 318 308.8 298.9 292.2 284.7 279.9 278.1 277.4 274.3 271.2 269.1 268.6 267.2 266.9 266.9
603.2 607.2 608.2 615.1 616.2 629.1 634.1 644.2 657.2 662.8 670.1 674.1 670.7 669.1 666.2 652.1 640.7 628.8 622.1 616.5 616.4 607.3 601 596.9 591.6 588.3 594.2 602.8 615.5 628.4 646.6 679.4 716.7 755.6 794.9 820.5 840.9 855.6 866.1 871.4 868 860.3 847.5 835 818.5 809 798.3 786.7 777.4 763.6 741.3 725.4 708.8 687.5 677.8 666.2 656.4 634.8 618.7 612 608.9 603.5 595 592.6 598.7 593.5 589.7 587.5 575.9 564.8 551.1 548.2 537.5 535.8 528.8 526 526.2 524.1 521.4 517.3 515.7 510.1 502.5 497.8 495.1 488.9 486.4 483.8 477.1 472.9 470.2 471.8 473.9 475.7 477.7 480.6 481.9 484.8 484.9 488.6 485.8 482.9 480.2 477.3 473.4 468.3 462.6 455.6 449.2 440.2 430.5 419.6 413.1 406.1 396.9 386.4 381.3 373.2 362.8 354.1 347.1 339.7 337 332.5 328.6 323.7 321.4 319.4 314.8 312.9 313.4 313.9 325.8 333.3 342.7 352.4 365.5 378.8 387.9 395.9 403.5 405.9 406.7 405.7 405.2 407.1 406.5 406.6 406 403.8 401.1 397.2 393.6 392.8 392.3 391.1 390.8 391.4 394.6 397.3 399.8 402.1 402.7 404.3 408.5 414.5 419.8 426 432.4 438.8 444.4 451.3 460.5 469.9 479.2 486.1 488 479.9 461.1 450.7 429.8 398.6 376.6 358.8 344.4 331.9 317.7 308.5 301 291.9 286.6 282.6 279.5 277.1 272.9 272.1 271 269.1 268.6 268.8
629.9 636.9 644.4 647 638.2 644 654.9 663.2 678.1 674.3 681.6 687 687.7 682.5 676.6 672.1 654.3 636.5 626.1 622.3 616.5 609.9 604.5 600.7 596.7 591.1 595.1 603.1 614.2 628.1 647.4 680.6 715.1 755.9 794.7 821.6 843.5 859.2 869.5 873 868.5 861.4 848.2 832.2 819.5 809.3 794.2 781.8 769 755.3 738.6 725.4 711.4 688.5 682.4 672.7 662.4 641 629.5 618.5 617.2 617.9 618.1 617.6 614.9 609 598.1 591.4 586.8 578.8 560.1 556.2 547.6 540.9 536.6 532.5 532.1 532 527.7 520.5 516.6 512 504.2 496.7 492.1 489.5 486.8 483.7 477.9 471.4 468.6 466.4 467 469.1 471.3 471.5 471.5 474.8 475.7 477.9 477.3 474.8 473 470.3 466.5 462.8 458.7 452.2 447.7 439.5 430.5 418.9 410.4 404.9 399 387.1 383.1 369.7 360.6 355.7 347.9 339.1 337.3 334.1 332.8 328.8 324.4 320.3 315.6 314.6 314 318.4 325.7 337.1 345.4 356.4 369.2 383.1 393.1 401.7 408.5 411.7 412.1 410.8 412.3 413.4 413.9 415.2 412.6 408.3 403.9 401.1 398.3 397 397.4 397.1 396.9 398.1 400.2 400.9 403.2 407.2 408 408.9 412.9 418.5 424.7 430.6 436.7 443.6 451 459.7 469.3 480.9 489.2 497.3 498.5 494.3 479.4 464.1 445.8 422.6 404.5 387.2 362.7 347 330.9 317 306.4 299.6 291.7 288.3 283.5 279.5 276.2 275 273.1 271.6 271 270.9
639.6 644.2 653 662.5 663.2 666.1 680.2 690.5 693.7 697.4 701.1 699.8 695.2 692.9 686.8 679.2 674.5 657.7 641 628.7 616 613.1 606 601.6 601.3 594.8 596.4 603 612 627.7 648.3 688.3 716.3 760 802 832.9 850 863.8 872.7 875.9 873 864.4 850.8 836.5 825.6 813.4 792.8 779 770.5 758.7 746.3 732.6 719.7 702.7 692.7 680 671.7 660.1 636.3 627.1 627.2 630.1 633 627.2 623.9 616.7 608.8 600.2 594.3 590.2 573.6 561.4 554.5 548.8 545.6 539.2 537.9 537.6 536.4 530.5 521.9 514 508.3 500.7 492.3 489.5 488.4 482.1 479.2 473.3 466.7 463.6 461.4 463.9 465.4 465.9 465.6 466.7 467.6 468.7 469 468.6 465.7 463.5 460 457.6 453.9 449.2 445.2 440.8 429.4 418 411 403.2 393.3 385.9 380 369.7 359.7 353 345.3 339.7 336.9 335.9 333.4 329.5 326.2 320.6 316 315.8 315.2 318.4 327.8 338.6 349.2 361.1 374.6 386.7 397.5 407.6 415.1 418.6 419.6 421.1 420.5 422.9 424.7 424.2 421.7 416.8 410.3 405.3 400.1 396.4 398.9 399.3 400.5 402.6 406.3 407.1 408.5 410.5 412.1 413 416.2 422.8 428.8 434.3 440.4 447.8 456.2 465.7 476.1 486.4 495.3 507.2 509.1 500.8 488.1 477.1 461.4 444.2 427.5 409.4 386.3 360.9 346.1 328.6 312.7 304.3 297.2 291.8 287 282.8 279 277.7 275.3 274.1 273.2 272.4
657 649.4 655.3 662.2 663.9 670.1 694.8 709.9 712.4 713.8 719.5 720.9 711.3 702.6 695.5 690.2 685.5 671.8 654.4 640 626.4 619.3 610 606.3 604.8 599.5 598.2 603.9 613.6 627.7 651.9 690.3 720.4 761.4 808.8 842.5 858.2 870.4 878.4 880.6 877.1 870.4 856.3 845.6 837.3 825.1 807.2 786 772.9 756.6 753 743.6 730.5 713 705 696.8 689 667.6 648.1 636.2 640 640.2 640.1 635.5 629.2 624.8 620.8 611.5 604.8 599.2 583.4 572.5 562.4 558.5 550.9 550.2 547.7 546 544.9 541.8 536.1 529.8 518.6 508.4 501.4 493.3 487.4 482 478.2 476 468 462.9 459.3 456.5 459.1 460.3 460.2 460.6 461.2 461.3 461.7 462.1 459 457.4 454.6 452.3 449.1 446 442.6 438.6 428.3 417.5 407.9 403.9 391.8 384.3 378.3 371 356.9 350.2 344.9 340.6 336.9 334.7 332.8 330.3 325.1 319.9 316.7 316.7 317.2 319.4 333.8 344.2 354 365.4 379 390.6 402.6 411.9 420.4 424.6 430 431.3 430.4 434.2 435.7 435.2 432.6 429.3 421.9 414.8 408.2 400.5 399.3 400.4 402.7 405.2 407.8 411.9 412.9 412.9 414.9 416.5 420.5 426.1 431.7 437.2 442.8 450.8 459.6 468.4 478.6 491.3 500.1 513 520.5 515 497.5 486.9 470.9 455.8 436.2 420.6 397.9 373.9 356 335.2 319.8 309.2 302.2 295.9 291.7 286.9 283.2 279.3 277.5 276.4 275.5 276.6
681.8 664.4 659.7 661.3 666.6 679 711 724.7 732.2 734.5 733.4 736.5 725.1 718.4 707.3 699 695.4 687.2 679.8 655.6 636.8 626.3 618.9 609.4 607.3 604.2 600.5 605.3 614.4 627.2 655.1 693.9 721.7 766 811 845.6 864.5 876.2 884.1 887.2 886.1 878.1 867.7 859 849.6 842.7 834.5 813 793.6 782.5 771.5 763.2 752 742.1 735.1 730.2 720.4 702.8 671.4 647.6 649.9 651.2 649.6 644.7 634.8 632.7 628.8 620.8 612.5 604.7 594.3 580.5 571 567.3 564.1 558.5 558.9 558.5 556.6 555.6 547.6 541.7 531.3 520.6 512.4 505 492.9 485.6 481 474.7 470.4 463.2 459.8 456.6 453.5 454.6 456.1 456.5 457.1 457.2 456.3 455.4 453.4 451.2 449.4 446.5 443.8 442.1 437.9 433.9 429.7 418.7 405 398 390.8 384.6 380.5 365.5 353 348.3 344.4 339.1 334.5 332.6 330.3 327.3 323 319.9 316.1 317.6 319.4 325.7 337.3 348.1 358.2 370 382.2 395.3 407.2 416.6 424.5 430.6 436.7 438.2 440.8 444.1 444.1 442.6 439.6 436.1 430.4 423.1 416.4 412.7 410 408.4 408.8 411.3 412.4 415.5 413.8 413.7 416.2 420.2 424.7 429.9 434.4 439.3 445.6 453.4 460.8 469.9 480.2 493.4 503.8 515.8 524.1 519 504.9 494.7 480.9 461.5 444 421.7 400.4 379.5 359 341.6 326.7 315.3 309.2 302.2 296.2 292.7 288.3 284.4 281.4 279.7 278.8 280.7
705.3 683.1 671.6 667.3 674.6 692 721.6 735.6 743.2 749.5 752.9 749.6 741.1 733.6 718.3 709.6 699.3 702.2 690.8 674 652.3 635.2 623.3 614.5 611.4 609 604.7 606.5 615.8 629.4 656.9 694.4 722 763.1 811.9 852.5 875.1 887.8 891.8 895.5 896.1 893 886.5 877.6 868.9 865.6 860.4 848.7 832.3 820.4 808.6 795.3 784.4 774.2 763.8 753.4 743.1 723.8 688.5 663.3 658.4 658.2 654.3 645.7 642.1 637.1 632.1 626.9 616.4 607.9 597.2 586.4 582 580.6 577.6 572.4 572.4 571.1 570.4 570.5 563.8 555.4 543.8 534.3 526.4 515.1 506.5 494.4 485.4 478.9 471.4 463.7 460.7 458.9 453.9 452.2 449.5 452.1 453.8 453.4 453.5 452.8 451 446.8 444.2 441.2 438.7 435.5 432.6 429.9 424.4 418.4 405.8 394.6 385.6 382.8 376.6 362.8 348.4 344.9 343 337 332.7 330.8 328.1 324.5 322 319.1 318.7 318.9 321.1 328 340.4 351 362.6 373.6 387.1 400.4 412.4 422.7 432 440.5 446.6 450.8 454 456 455.8 456 455.7 443.5 432.2 427.7 420.7 419.2 418.2 417.7 417.8 420.7 420.2 418.5 416.6 416.9 418.9 421.2 426.2 430.4 436.6 442.6 450.1 456.3 462.7 470.1 479.1 492.7 504.8 516.3 525 523.6 513.8 501.9 481.5 466.6 450.9 429.2 406.8 384.6 365.6 346.1 329.3 320.3 314.5 307.2 299.5 295.8 290.6 287.7 286 284.3 282.2 284.6
732.8 703 688.2 683.8 692.9 702 724.5 735.4 745.3 756.3 764.2 765.4 760.8 759.7 738.3 722.7 707.9 704.2 698.4 689.8 659.2 643.2 637.5 624.1 616.6 612.1 607.5 611.3 620.9 634.3 661.7 695.2 726.1 766.3 821.9 863.1 891.6 903.3 909.9 918.6 916.6 912.4 906.3 901.5 895 884.8 877.6 872.6 861.5 849.2 842.2 825.8 808.1 792.9 779.6 769.5 758.3 737.8 711.6 685 669.2 661.6 653.9 647.2 642.9 637.6 631.9 627.5 619 609.4 599.1 593.5 594.2 593.4 591.7 589.3 587.4 587.5 586.4 585.2 580.7 576.8 562.7 549 536.9 527.4 515.5 505.2 495 485.7 477.1 466.5 462.4 461.6 456.2 451.5 449.3 449.5 450.7 451.2 451.2 449.3 448.9 445.9 441.3 436.6 433.1 430.3 427.6 424.3 419 413.4 404.8 393 381.4 377.6 374.5 358 346.5 342.6 340 336.6 331.8 329.1 326.6 325.3 322.9 318.6 320.5 321.5 321.8 333 342.5 352.8 364.9 377.8 392.5 406.3 418.9 430.2 441.1 448.6 455.3 461.1 464.5 467.3 467 466.3 463.1 449.5 440.1 432.6 427.4 423.9 424.1 424.1 427.1 428.2 428.2 423.9 420.1 419.6 422.6 424.5 428.4 433.8 439.3 445.8 453.2 457.6 463.8 472 479.9 491.3 502.8 509.9 520.8 522.5 516.8 506.7 493 476.3 455.2 431.8 409.7 390.2 367.4 348.2 334.7 329.1 323.5 314.1 303.5 299.1 296.1 292 288.3 288.6 286.5 287.8
754.6 728.7 703.9 700.5 700.4 711.7 723.9 735.2 747 759.8 772.3 779.6 783 777.8 770.9 753.8 739.5 721.8 707.9 701.7 675.5 655.6 642.6 630.7 624 617.7 611.6 617.9 626.1 642.6 671.2 699.4 733.2 773.8 836.1 875.8 901.7 918.1 935 937.6 933 928.3 926.6 923 917.7 911.1 900.4 892.9 881.8 870.3 859.8 851.2 837 820.3 801.2 780.5 756.2 734.5 707.6 685.3 671.7 661.4 654.6 647.5 641.2 634.6 629.8 623.4 616.8 608.1 602.5 603.7 604.8 605.3 605.2 606.3 605.8 602.7 600.5 600.6 597 590.2 579.7 567.8 553.3 540.6 529.4 516.6 505 495 487.2 474.8 465.2 462.4 460.6 452.8 448.5 446.9 447.8 448.2 449.4 447.6 443.7 443 439 434.8 431.9 427.3 423.7 420.3 416 410.4 401.6 390.7 377.5 373 367.4 354.1 346.4 342.3 337 335 334.6 329.5 328.4 325.8 323.2 319.7 323.2 322.4 325.4 336.3 347.2 357.2 370.3 382.8 398.5 411.5 425.7 438 449 457.5 463.2 468.9 473.7 476 475 471.3 465.2 454.9 449.2 440.4 433.6 431.1 431.1 431.7 431.1 431.4 433.5 433.6 428 426.6 427 428 430.3 435.9 440.3 447.6 453.5 457.7 464.5 472.8 481.7 490.3 498.6 506.6 516.1 520.1 517.8 511.8 504.6 496.2 477.7 450.8 425.1 393.8 371.1 355.9 344.9 335.1 326.6 313.6 307.5 302.9 301.1 298 293.5 291.9 290.4 290.4
787.5 765.3 727.5 715.8 716.3 719 723.4 737.3 750.3 764.2 776.5 790.1 798.1 793.9 786.5 779.2 764 751.8 741.5 720 698.6 675.6 650.9 635.8 628.6 621.1 617 625.8 638.1 661.4 679.4 705.3 748.2 797.8 853.5 879.3 907.7 932.1 946.5 949.5 944.2 941.4 938.3 937.3 932.1 927 917.7 907.8 894.8 880.5 866.3 857 844.3 826.7 799.1 775.9 746.6 724.8 698.9 681.1 666.5 658.4 651.8 644.3 636.8 631.8 625.6 621.1 614.9 612.3 611 611.2 613.3 613.7 615.1 619.8 621.7 622.4 619 618.2 615.1 605.6 597 587.8 573.3 557.4 544 531.6 518 506.4 498.2 486.9 472.5 466.9 463.1 456.1 450.4 448.3 448 447.2 446.3 446.1 440.4 441.6 436.8 431.6 430.1 426.4 420.8 414.2 410.4 405.1 395.2 385.4 374.5 369.4 359.5 351 346 341.9 339 336.2 332 329.7 327.3 325.4 323.2 322.5 324.9 323.9 326.8 339.1 351.9 363.5 375.1 390.2 405.1 419 432.3 445.7 457.3 464.8 471.9 477.5 482.4 484.8 483.5 481 475.8 469.1 463 450.5 443 442.8 441 439.9 437.6 436.3 436.2 438.3 436.6 433.8 431.7 433 435.8 437.5 443.2 449.9 452.2 456.5 462.9 473.9 481 491 498.7 506.3 514.7 518.7 517.6 515.3 512.9 508.9 489.4 462.3 429.6 394.5 378.6 363.5 348.2 335.6 323.4 315.2 311.6 308.3 306.6 301.1 298.5 297.5 295.5 294.1
804.2 786.3 778.5 746.6 738.6 734 735.9 745.2 755.2 770.9 783.2 802.4 812.9 806.3 799.5 790.5 778.5 764.4 756.4 741.2 721.4 686.5 658 645.1 633.1 630.2 629.2 638.4 658.3 672.5 696.4 727.9 773 825.9 858.7 879.1 908.6 934.1 946.8 948.9 944.1 941.6 941.1 941 939.5 934.1 924.7 914.5 900.2 883.9 868 856.6 842 816.7 790.1 767.5 738.6 715.5 691.7 674.4 662.5 653.6 645 638.1 633 628.6 623.1 622.5 621.1 619.6 621.3 620.4 622 623.7 625.5 629.8 631.8 635 636.2 638.5 632.5 625.1 617.6 604.4 592.4 576.6 562.2 551.4 535.5 520.7 509.7 497.6 483.4 475.8 470.2 463.1 457.9 453.9 450.9 449 444.2 442.5 437.4 435.1 436.6 429.6 426.9 423.7 419 410.5 402.5 396.2 388.7 379.9 373.5 368.9 360.9 350.5 344.9 337.4 334.7 333.2 330.3 328.2 326.8 325.7 325.1 323 326.7 326.4 331.5 344.9 356.3 369.6 381.8 397.8 411.6 426.2 441.2 454 464.3 473.5 481.9 488.7 492.9 494.2 494.5 492.1 486.4 480.6 471.2 461.3 457.9 452.6 450.8 448.9 446 444.2 443.3 443 442.9 441.8 440.2 439.6 440.7 444.2 448 450 451.3 456.8 462.9 473.8 481.4 490.8 498.7 507.4 514.6 518.6 518.1 516.8 513 505.6 491.6 459.3 423.3 399.2 381.2 365.4 350.3 337 326.1 319.3 315 310.7 306.5 303 302.1 300.9 299.7 299.3
824.8 806.4 805.9 804.4 796.1 766.5 762.9 768.5 772.8 784 794.5 812.5 817.8 811.4 810.2 793.7 783.8 769.8 760.9 753.7 731 699.7 671.6 660.3 647.1 640 641.9 657.7 676.3 688 720.2 764.8 809.5 855 864.6 880.4 912.6 927.5 934 935.9 934.2 933.7 934.2 935.6 937.1 933.2 925.4 914.4 901.1 883.5 865.3 849.8 830.8 804.2 781.2 758.7 732.5 710.9 690.4 671.5 657.5 647.6 639.3 634.1 629.8 626.1 626.3 626.3 626.9 628.5 628 631.2 633.8 636.4 640.7 646.4 649.1 650 648.9 647 642.3 635.4 631.3 622.6 609.4 592.1 579.4 567 556.2 540.6 527.2 510.2 497.6 487.2 482.8 476.1 464.5 460.2 458.4 453.2 447 442.5 438 431.7 428 429 425.4 422 413.8 405.3 398.8 390.6 383.8 376.8 370.9 364 358.8 351.5 342.6 336.8 336.7 334.6 332.5 330.8 329 327 326.3 325.3 327.1 329.9 335.1 347.9 360.9 375.3 388.6 404.4 418.6 436 449.5 464.3 476.2 485.4 494.7 500.5 503.7 504.9 504 500.9 497 490.1 482.3 474.5 471.3 462.7 460 457.8 456.7 454.6 453.8 452.1 450.6 449.1 448 446.6 449.1 450.7 452.3 452.2 455.8 460.4 466.6 473.9 484.5 493.5 501.4 509.1 515 518.7 519 518.3 515.8 511.8 492.6 453 419.8 390.7 374.1 360.8 349.5 338.2 328.6 320.9 316.1 313 310.3 307.1 306.6 305 303.5 304.2
839 824.5 825.5 827.4 830.4 831 822.3 805.6 807.6 809.9 813.2 818.9 817.8 814.4 811.1 787.5 779.1 766.1 757.7 751 734.8 711.6 679.6 666.2 661.5 657.4 661 683 699.2 725.2 761.6 801.3 840.3 852.5 862.5 884.2 907.7 916.5 921.2 923.6 922.7 921.7 923.2 926.2 928.9 928 923.4 912.8 899.2 881.6 858.1 835.3 816 794.6 774 752.5 727.7 704.7 689.4 669.2 658.7 650.5 643.7 635.1 630.8 630.9 631.4 634.1 635.9 637.5 640 643 649.1 654.1 659.3 664.2 667.4 669.4 665.2 661 654.5 644.7 635.6 627.9 620.1 608.1 591.8 577.1 565.3 553.4 538.8 527.9 516.4 503.7 498.8 491.2 477.7 466.2 461.9 460.8 453.5 447.5 442.7 435.4 426 424.3 424.6 420.1 409.8 401.7 394.1 387.6 380.7 373.5 366.1 360.2 353.9 348.3 344.8 342.4 340.7 336.6 333.3 332.3 330.4 328.9 326.8 326.2 327.5 333.8 340.2 351.7 365.1 380.7 395.3 412.7 429.1 446.2 461.7 475.8 488.8 498.3 504.2 509.3 512.2 513.3 512.6 510 505.6 500.9 493.2 485.8 480.3 475 471 469.1 466.3 465.8 465 460.9 459 455.5 454.9 455.5 457.2 459.2 457.4 458.2 462 466.3 468.1 477 484.6 494.2 503.6 511.2 517.9 521.2 522.2 523 522 517.1 491.3 456.2 415.7 389.6 368 359.6 349.5 340.2 332.9 325.2 320.2 316.1 313.7 311.1 309.5 308.1 307 308.2
873.3 861.3 850.3 852.7 862.2 869.9 872 867 851.6 843.8 834.1 824.3 822.6 816 799.2 784.3 771.1 762.9 760 756.4 746.8 726.7 699.7 686.5 684.7 687.2 700.2 710.2 736.8 765.7 804.5 845 846.3 845.6 854.6 883.6 894.5 900.9 905.1 907.5 907.5 905.9 908.8 913.6 918.1 920.6 917.8 908.6 893.9 876.2 848.9 824.8 807.2 786.3 768.8 746.6 725 703.4 686 672.9 663 653.4 643.1 638.4 636.7 637 639.6 642.4 645.8 648.7 654.2 661.3 665.4 672.9 679.4 686.7 689.2 688.9 681.2 672.8 664.9 654.4 645 634.1 624 616 602 584.6 572.2 564.8 552.5 542.1 533.8 523.1 524.6 513.3 490.5 474.5 468.3 466.7 463.2 450.8 444.8 440.1 427.5 423.3 422.1 418.1 406.3 399 392.1 383.9 378.3 371.8 366.7 362.6 356.8 355.4 349.3 344.3 341.5 338.7 335.9 334 330.9 329.7 328.5 327.6 328.8 334.8 344.5 356.3 368.3 383.9 403.1 422.2 439.7 460.1 475.3 488.3 500.2 508.9 513.8 517.7 519.9 520.6 520 517.4 512.3 506.7 501.4 493.6 484.8 483.9 481.4 479.4 475.7 475.3 475.7 473.3 470 466 463 462.3 464 466.3 468.3 468.2 467.7 469.8 473 479.2 487 496.3 504.3 513.3 520.7 525.2 526.8 527 526.5 518.8 492.6 456 422.6 390.5 369.2 360.4 353.9 346 337.1 330.7 325.1 322.1 319.6 317.1 314.9 312.8 311.4 311.3
904.9 895.5 889.1 889.3 896.4 903.9 911.2 914.4 904.9 881.4 847.1 826.5 819.4 811.8 788.6 781 767.9 764.7 761.1 760 752.1 739.9 728.4 721.3 733 738.5 743.1 767.8 785.9 804.7 840.3 849.9 842.9 839.2 848.9 869.6 877 881.9 886.4 888.1 889.3 891.3 894.3 899.1 904.4 909.1 909.1 902.1 891.1 875.9 848 821.4 802.6 781.5 761.7 741.6 721.5 700.6 687.7 676.4 664.8 653.9 647.6 646.1 644.1 644.9 647.7 652.2 656.4 662.7 668.9 677.9 685.1 692.1 699.2 703.8 703.3 700.4 693.7 684.9 673.5 663.2 652.9 640.2 631.5 612 604 596.6 586.8 573.6 563.7 552 544 536.1 532.2 525.6 502.8 485.5 477.8 473.4 467.7 459.6 449.8 441 434.3 428 420.7 411.2 404.9 395.1 392.6 386.6 378.7 373.4 367.5 363.1 358.5 357.1 352 347.4 343.5 340.5 337.9 335.7 332.9 331.2 329.8 329.8 332.1 337.3 347.6 360.7 376.4 393.7 412.4 430.3 448.2 469.6 485.7 498.8 510.4 518.7 522 525.5 527.3 527 525.2 522.3 517.1 510.1 505.7 499.6 494.4 492.7 490.8 489.3 487.1 485.9 486.4 486.1 485 480.1 475.3 474.9 475.2 476.5 476.6 475.3 475.6 474.1 475.9 480.9 488.3 495.5 503.1 512 519.8 526 528.8 530 526.6 514.9 487.5 454.6 422.4 392.6 375.4 366.3 359.1 351.5 342.6 335.9 330.2 327.9 325.6 323.1 320.5 318.1 316.7 315.9
923.3 927.6 920.9 917.8 922.9 931.6 942.1 950.9 948.4 905.6 863.3 827.3 812.1 804.2 786.7 784.1 771.9 766.5 766.2 766.8 760.4 755.6 747.2 748.2 764.7 778.6 795.3 809 821.8 844.6 856.7 847.7 836.4 828.4 841.6 853.4 859 863.4 868.2 871 873.4 876 879.3 881.9 888.9 895.3 897.7 895.3 887.6 875.3 853.8 823.1 803.1 779.5 760.1 740.6 723 702 689.7 677.6 666 657.7 654.3 652.4 651.7 655.7 658.7 664.3 672 680.1 690.1 700.5 708.8 714.7 717.9 717.9 716.2 709.5 701.1 690.8 680.6 668.2 656.6 646.7 634.4 614.8 598.9 595.6 589 579.1 572.4 562.2 555.9 545.8 540.2 533.8 513.1 499.3 490.3 482 476.8 466.9 453 444.1 438.4 431.5 423.3 416.6 409.3 401.7 396.2 388 379.5 373.4 369 363.5 359.9 356.3 352.4 348 345.4 343 340.3 338 335.8 333 331.1 331.8 334.9 339.6 352.2 367.8 382.9 399.8 418.7 437.7 458.3 480.2 496.1 508.1 516.2 523.2 527.1 530.5 531.9 531.6 529 525.7 520.4 513.7 510 505.4 503 502 501.3 500.4 498.3 497.6 496.9 497 496.5 498.3 492.7 488.8 487.6 486 484.3 483.3 483.6 482.5 482.2 486.3 488.5 494.9 502.6 509 515.4 522.6 528.4 531.9 524.9 505.2 479.1 451.7 422.9 398.8 382.5 374.5 364.4 355.7 347.7 340.3 336.7 333.6 330.5 328.1 326.3 324.1 324.3 323.1
930.6 947.3 942.6 942.4 950 960.9 968 976.2 957.6 911.9 861.1 822.6 807.8 794.4 785.2 781 771.7 767 767 772.3 777.8 772.5 771.6 776 789.2 804.2 824.2 839.2 860.1 862.6 854.4 842.4 829.1 818.6 828.6 834.5 840 845.2 849.8 852.1 853.9 857.1 861.8 865.9 870.6 877.5 883.9 885.1 881.8 874.4 858.8 829 802.3 780.9 761.5 742.6 724.4 706 693.1 681.4 672.2 666.1 662.7 662.6 666.2 669.8 676.8 685 693.9 705.4 716.5 725.7 731.9 734.9 734.9 730.9 725.7 716 702.4 689.7 678 666.2 660.4 645.8 632.4 611.4 594.7 587 583.6 580.4 574.7 568.5 561.2 552.6 544.7 536 523.2 510.7 498.9 492.2 484.3 468.9 456.6 449 440.9 434.1 425.5 416.3 411 405.7 398.4 389.9 382.1 376.4 371.3 366.9 361.8 357.9 353.4 349.6 346.8 344.5 342 339.2 337.2 334.5 333.7 332.1 335 342.5 355 370.7 389.8 406.3 428.3 446.6 468.8 487.1 502 511.8 519.1 524.7 528.7 531.9 533.2 533 531.8 527.2 522.2 516.9 512.7 509.7 509.1 508.7 509.8 510.1 508.4 508.1 508.7 509.1 511.2 513.5 512.7 508.3 502.6 498.6 493.8 491 488.2 488.4 487.9 490.1 490.7 493.4 499.4 505.2 511.5 517.7 521.6 524.9 516.4 497.9 478.2 452.7 428.5 410 396.2 381.5 369.4 360.3 351.6 345.5 343.3 340 337 336.6 334.5 333.1 334.4 333
939.7 969.5 979.6 977.1 983.1 991.2 995.4 994.1 963.2 913.6 846.1 818 808.6 801.1 783.2 784.1 773.6 770.8 775.6 786.1 794.6 799.3 797 817.2 830.6 847.9 869.8 883.6 872.6 860.2 849.2 835 820.1 810.7 811.8 812.6 816.3 822.1 824.9 826.4 828.8 834.3 839.9 848.2 853.2 858.2 866.5 871.1 873 869.9 859.7 841.7 810.3 783.9 765.5 747.5 730.5 712.1 699 688.2 682.5 678.2 675.4 676.1 680.6 686.5 694.9 706.3 718.4 728.2 736.6 743.4 746.4 744.2 740.5 734.8 730.1 718.8 698.2 679.9 669.6 661.1 649.8 640 626.6 608.9 587.2 578.8 574.9 574.5 573.8 568.8 563 556.3 547.3 538.9 527.6 516.1 506.1 495.9 487.4 473.5 459.2 452.6 447.1 438.1 429.8 420.5 413 407.8 400.9 391.4 383.3 378.1 372.4 368.3 363.2 358.1 353.7 351.2 348.5 346 344.1 340.6 338.9 336 334.9 336.1 337.8 345.5 359.8 377.9 396.7 415.5 435.2 455.3 475.9 491.6 503.2 513.3 519.7 525.6 529.3 532.4 533.5 533.9 532.4 528.5 523.7 519.6 516.3 514.4 514.2 514.9 517 518.5 518.7 521.3 524 526.3 528 529.8 531.6 531.7 526 518.3 511.2 505.2 501.3 500.9 497.6 493.9 495.1 495.5 499.3 501.3 505.9 511.2 514.9 509.1 496.7 490.4 473.5 452.5 441 425.1 402.6 387.3 374.4 367.3 358.2 357 351.1 348.3 349 346.7 344.1 343.7 345 343.1
946.9 980 1006.7 1015.6 1017.9 1023.9 1027.3 1015 964.1 917.5 845.7 817.7 814.4 808.4 788.5 794.3 787 778.4 781.1 798.5 814.4 824.1 842.2 861.9 882.5 898.6 897.8 886.6 872.3 855.3 840.6 822.6 809.3 798.7 791.8 789.4 792.1 793.5 793.6 798.1 797.9 805.2 810.1 823.3 833.7 842 848.9 856.7 861.4 862.1 855.9 840.8 819.1 798.2 772.5 752.1 738 723.8 707.3 698.5 693.1 690.7 691.8 692.6 697.9 706 714.8 725 733 741 745.6 749.5 749.2 744.6 738.1 733.7 725.2 713.3 690.1 667.9 652.4 644.5 636.7 626.7 613.5 596.8 575.8 571.6 570.2 568.9 569.3 567.9 562.7 556.2 549.4 541.3 532.5 521.4 509.5 498.1 489.7 481.3 464.6 455.1 451.1 442.2 433.4 428.9 414.9 408.7 401.5 391 382.6 379.3 375.3 371 364.4 359.3 355.2 352.4 349.9 349 346.9 342.5 340.2 338.2 338.7 339.5 344.8 352.7 370.2 387.9 405.2 422.8 442.7 460.1 476.6 491.3 502.7 511.9 518.7 524.1 527.9 531.3 533.7 534.2 533.7 529.4 526.9 525.3 521.8 520.4 520.8 524.3 526 529.8 533.3 537.3 541.3 543.5 546.2 550.2 551.9 552.9 550.9 544 536.3 530.3 524.2 519.1 510.8 502.4 500.8 499.6 502.7 500.5 500.1 502.9 503.6 495.7 484.3 474.9 462.6 451.3 439.4 424 408 393.5 383.9 376.3 372.2 365.4 361 362.4 362.2 355 353.2 354.6 358 355.6
947.2 979.8 1011.7 1036.9 1050.5 1059 1062.9 1024.8 956.6 913.1 862.9 829.8 819.6 810 802 802.7 803.4 805.4 811.2 823.7 830 842.9 864.8 890.9 917.1 910.9 898.7 884.9 870.1 848.5 830 811 797.6 784.9 776.8 771.9 768.1 768.1 770.1 768.5 772.9 780.8 785.4 797.7 811.9 824.9 834.7 842.2 848.3 852.8 849.8 842.3 823.7 806.4 787.2 763.3 747.3 733.2 721.3 711.9 706.7 705.3 706.1 709 715.9 723.9 730.6 737.3 745.3 750.1 754 754.8 749.1 739.3 731.6 724.6 714.9 702.1 678.1 651.5 638.6 629.7 618.1 608 597.6 585.7 568.5 563.1 564.2 564.9 564.7 564.3 561.1 556.6 550.2 543.5 535.1 523.4 510.8 499 489.5 480.3 468.7 456.1 448.5 442.5 434.1 428.3 416.1 406.8 399.3 391.9 384.4 379.4 375.6 371 366.3 363.5 358.9 353.9 351.4 349.6 348.3 344.4 339.8 341.7 342.1 341.7 349.4 359.8 376.4 396.5 410.6 428.2 445.6 461.1 475 489.8 500.6 509.3 516 521.5 525.6 528.9 532.2 533.9 534.8 534.2 534.6 534.2 531.7 530.8 531.9 537.3 541.8 546.6 550.1 554.4 559 564 567.3 569 572.4 573.6 572.1 568.5 561 552.9 546.5 538.2 528.4 517.9 512.5 509.2 508.4 503.8 494.7 489 486.9 480.9 475.8 469.2 454.2 445.1 434.5 424 413.5 402.6 391.1 388.3 381.2 378.3 376.9 375.6 370.1 365.3 362.3 365.5 364.1 359.6
942.4 974.9 1008.2 1039.7 1068.2 1085.4 1090.6 1027.5 963.2 916.7 866.1 834.3 815.6 812 815.4 828.3 840 839.6 851.6 860 871.1 888.3 907.4 921.8 918.9 909.5 894.2 879.4 864.8 839.8 819.8 803.9 787.2 774.5 761.1 751.2 748.3 747.6 745.7 744.9 745.5 756.9 764.2 772 788.2 804 817 826.9 834.9 839.5 839.3 835.3 822.4 806.3 793.8 774.3 756.3 744.3 733.3 726.2 721.4 719.8 722.1 725.2 729.5 734.3 740.2 746.4 751 755.6 755.6 751.4 745.5 730.3 721.2 711.2 699.8 683.4 658.6 634.3 619.7 611.7 597.6 583.6 578.4 570 562.1 559.8 559.3 559.3 559.5 560.2 558.3 555 548.9 542.2 533.7 523 509.6 496.7 487.2 476.8 466.2 456 444.3 438 431.6 424.5 414.5 404.1 397.1 392.5 386.3 380.6 375.2 372.4 369.4 364.8 361.4 355.1 353.7 349.3 346.6 342.3 345 344.2 344.6 346.9 353.5 364.4 381.3 399.2 415.6 432.3 447.6 461.2 474 486.5 497.4 505.7 513.1 518.6 522.5 526.4 530.5 534.3 537.1 539.9 545.3 547.8 547.7 546.1 546.9 550.7 556.2 560.9 566.7 572.5 577.7 582 584.6 587.5 590.9 591 592.3 589.5 583.8 575.2 566.7 555.5 542.8 535.6 529.6 523.7 515.5 506.9 495.6 484.5 476.4 469.2 467.5 461.1 450.1 440.8 432.1 424.5 417.3 408 403.6 398 394 391.7 389.8 385.9 379.1 377.7 376.7 373.7 370.8 367.1
933.1 967.6 1004 1037.7 1071.4 1096.3 1105.3 1037.4 973.3 932.4 869.7 837.1 817.1 817 832.3 844.8 854.1 865 882.5 900.5 922.8 937.8 942.8 930.7 921.5 906.2 890.8 877.2 858.9 832.5 814.9 801.8 781.5 769.5 756 741.9 737.1 734.1 729.4 728.1 726.2 727.3 737.3 753.3 763.9 782.8 795.4 808.5 817.1 822.9 826.4 824 815.6 801.9 792.8 777.2 762.3 750.7 742.3 737.4 735.5 734.6 733.7 734.5 738.5 741.7 747 750.1 751.8 751.1 748.8 743.9 735.4 713.9 705.7 694.6 680.4 654.1 633.1 611.8 602.6 597.2 580.4 568.8 565.5 559 555.9 556.3 554 553.8 554.4 552.9 551.9 549.3 545.2 538.4 529.4 520.3 507.1 493.5 483.6 472.1 464.5 454.1 440.4 433 428.5 421 412.9 401.9 396.1 391.7 386 380.7 375.5 373.8 370.2 365.7 362.2 357.2 353.6 349.5 345.2 346.8 347.4 347.3 349 350.7 358 369.5 386.3 404.9 419.4 435.3 449 461.1 472.6 484 494.2 502.7 509.7 514.8 519.9 524.7 530 535.4 541 548.4 554.9 561.1 564.4 567.1 569.4 573 576.8 582 587.6 592.9 596.5 599.8 602.4 604.1 606.7 607.3 607.7 606.9 604.1 595 583.5 576.2 563.1 551.6 544.1 536.5 527.4 513.1 496.5 483.8 474.6 467.6 461.1 454.1 446 439.1 433.3 428.1 422 418.4 414.3 411.1 408 405.1 401.4 397.2 393.6 390.9 386.6 383.1 382 378.7
928.7 965.7 1000.5 1034.4 1065.9 1090.9 1102.2 1047.7 988.3 944.9 907.2 857.5 835.5 840.9 871 884 892.4 904.2 927.5 942.5 946 944.6 941.8 930.4 920.7 909.3 893.9 878.3 852.4 832.4 817.3 803.3 787.1 768.1 754 739.3 732.8 724 716 709.3 706.4 706.8 711.9 722.7 736.4 753.9 771.3 785.2 795.9 803.8 807.5 807.8 802.7 792.3 785.7 774 762.2 750.8 744.8 741.3 739 737.8 736.7 736.6 739.4 741.2 745.3 747.4 747.6 743.7 738.1 728.9 715 696.5 688.6 677.1 657 622.9 607.9 587.5 580.3 579 565 555.3 554.2 554 550.7 551.7 550.3 548.9 547.2 546.3 545.2 542.7 538.6 531.5 524.2 512.9 500.9 488.8 478.6 467.9 459.9 448.8 437.2 429.6 425.4 417.5 407.3 402.3 395.4 389.6 387.1 385.1 379.6 376.2 370.7 365.3 361 356.7 352.9 348.3 348.9 350.5 349.4 349.7 352.6 356.5 367.3 376.3 392.9 406.4 419.7 434.5 449.8 461 471.2 481.9 491.3 499.7 506.8 513.1 519.9 524.3 531.1 537.6 545.2 553.1 562.3 570.1 575.7 581.3 586.5 593.5 598.2 603.2 607.9 612.5 618.3 622.9 625.2 627.1 626.4 624.8 625 623.6 621 614.2 601.6 588.6 576.3 564.2 553.4 544.3 533.1 516.2 501.9 484.5 473.4 469.2 461.6 455.2 448.6 443.2 438.2 435 433 432.2 428.8 426.5 424.2 420 414.3 411.1 407.9 403.4 397.9 392.6 388.5 386.4
921.5 962.2 997.7 1028.2 1055.6 1076.9 1087.2 1073.8 1004.6 970.1 942.4 918.3 888.4 887.5 896.3 904.1 912.7 925.3 939.4 938.9 937.9 937.1 934.2 926.2 919 908.1 895.4 878.4 855.1 839.5 824.7 808.8 792.7 775.4 755.4 742.3 730.7 718.7 704.6 694.3 689.2 685.8 680.6 690 707.1 713.1 727.3 755.8 764.7 775 780.6 782.9 780.2 773.6 769.1 760.7 753.1 744.6 739.6 737.4 735.4 733.4 733.6 733.6 735.3 736.2 737.7 737.1 734.5 727.1 717.2 706.4 691.8 679.7 668.4 653 614.8 596.5 582.9 570.7 559.7 561.9 556.2 550.7 548.9 547.4 546.7 546.1 543.7 541.5 539.9 538.8 537.7 534 529.7 523.6 515.9 505.5 495 484.3 474.1 461.8 453.6 444.9 434.3 426.7 423.3 413.1 402.5 399.8 393.3 388.5 386 385.4 381.9 374.3 369.9 367.3 361.7 356.3 352.8 351.1 353 352.4 351 353.4 357 358.5 370 380.9 395.5 408.8 419.9 433 448.3 460.7 470.9 481.4 490.9 500.4 507 513.8 521.6 526.8 532.8 540.3 548.7 558.4 568.5 577.1 585.5 592.1 599.4 607 614.4 620.3 627 632.4 637.9 644.2 644.8 644.7 645 642.9 642.2 638.2 635 628.5 616.4 603.3 590.8 580 565.6 553.3 541 523.9 510.4 495.7 488.1 474.7 465.9 459.7 457.3 451.7 446.1 445.5 444.6 443.8 442.3 440.7 438.9 436.6 431.6 430.1 425.8 418.8 411.1 404.6 399.2 394.3
917.4 952.6 986.8 1018.2 1041.3 1060.1 1070.8 1070.6 1058.4 1027.5 991.4 969.1 951.7 922.5 927.9 940.8 940.1 935 930.6 927 925 923.9 920.8 918.5 913.7 904.3 893.4 881.1 867.1 856.9 837.9 817.2 797.5 783.4 766.2 750.3 730.9 713.6 696.4 680 673 663.1 644.2 654.1 664 676 689.8 718.5 735.2 742.2 753.8 755.7 753.2 751.2 747 742 736.4 732.6 728.3 728.4 726.9 724.6 722.6 724.6 726.9 727.3 724.1 720.3 714.6 704.5 693.1 682 663.5 658.3 643.4 619.1 585.1 568.6 563.2 564.3 550.6 548.2 545.5 545.7 546.9 544.3 542.3 539.8 537.6 533.9 532.7 530 528.3 525.1 521.1 514.9 509.8 499.7 489.5 477 466.1 456.3 447.9 439.9 430.2 423.7 417.5 408.6 399.5 396 393.1 388.2 384.5 383.1 380.1 373.1 369.1 363.4 359.1 356.9 352.5 354.2 354.8 354.6 354.4 358.6 362 371.1 371.9 382.7 397.4 409.3 420.2 433.1 446.8 460.7 472 482 491.3 500.6 508.6 516.2 523.7 530.2 537.6 545.4 553.5 562.7 572.6 582.6 592.3 601.5 611.3 619.7 629.9 639 646.8 653.9 658.9 663.1 664.5 663.9 664.3 663.1 659.3 655.2 648.9 641 630.7 618.1 602.9 591.8 580.5 568.5 552.7 535 521.3 510.2 496.3 484.1 476.7 469.7 467 461 457.4 454.3 451.5 451.6 451.4 451.6 450.7 449.2 446.9 444.3 440.2 435.1 426.5 418.4 408.5 399
912.3 942 974.2 1004.5 1026 1042.9 1054.2 1055.8 1048.6 1034.7 1010.7 990.6 976.8 965.8 954.6 945.6 934.1 921.8 914.1 908 907.6 908.6 909 908.1 905.3 898.2 888.3 885.2 879.7 866.7 852.7 833 811.7 794 777.6 763.6 738.7 708.2 690.6 664.4 636.5 619.2 611.6 621.9 631.8 652.4 663.6 688.2 697 707.9 720.3 729.3 726.7 725.4 726.6 721.2 718 716.2 713.5 714.6 713.6 711 708.4 710.2 711.8 710 706.3 699.9 694.6 679.9 665.4 647.7 638.3 627.4 614.3 593 565.1 551.6 547.9 546.6 541.2 536.4 537.8 538.2 538 537.2 535.4 531 530.2 527 525.4 521.1 519 516.5 511.3 507 500.8 493.5 481.4 471.9 459.8 451.1 444.4 435.6 426.3 417.3 410.6 404.9 397.3 395.2 390.8 385 382.4 378.6 373.2 368.4 361.7 361.9 358.6 354.5 356.6 357.4 358.5 362.8 363.8 366.6 372.7 376.1 378.7 384.3 401.7 410.8 419.4 429.9 445.1 460.1 472.2 482.2 491.8 501.2 509.8 517.5 524.3 532.1 540.8 547.9 556.5 565.9 577.5 588.5 599.5 609.4 620.4 633.2 645.8 656.9 666.7 673.6 678.9 682.5 683 682.4 681.2 678.4 674.4 670.9 665.9 656.8 645.7 634.4 622.6 608.1 594.3 581.6 565.3 549.7 536.5 523.3 510.9 497.8 490.6 484.4 477.4 467.8 467.5 467.5 463.6 462.9 462.2 462.7 461.7 460.8 459.5 455.7 450 445.8 438.7 428.3 417.2 406.9
907.3 937.1 964.2 988.7 1010.1 1025.4 1037.1 1041.7 1035.7 1022.6 999.4 981.3 965.5 949.6 934.8 924.2 913 897.4 887.5 882.8 884.7 889 891.6 893.8 893.5 889.2 884.7 884.2 881.2 873.7 859.9 845.7 831 814.3 796.5 780.3 748.1 701.1 676.6 643.9 613.8 599 593.7 600.8 613.2 631.1 638.9 661.3 673.7 686.4 695.2 699.6 703.7 701.3 703.7 703.5 703.2 702.9 699.9 700.1 699.1 695.2 692.1 694.9 694.5 691.1 686.7 676.2 663.2 650.3 632.3 617.8 602.9 594.1 585.3 565.1 547.4 537.8 531 530.5 530 530.4 534.6 533.2 531.5 528.2 526.7 524.6 522.1 516.9 513.1 511.7 511 506.9 502.5 498.2 492.4 485.2 473.8 465.3 456.3 447 438.8 430.5 423.4 412.7 404.1 399.4 395.1 391.2 385.4 380.5 375.6 372.8 369 364.9 363.2 362 362.1 364.3 363.6 364.4 367 372.4 374.4 379.5 385.7 389 389.3 385.4 399 409.5 417.7 427.6 441.7 459 470.5 480.7 489.9 500.7 509.6 518.5 526 534.3 542.8 552.2 563.3 572.7 583.5 594.8 606.3 617.3 630.3 643.4 657.2 671.7 684.8 692 699.7 704.1 705.7 701.3 697.2 693.7 689.1 681.7 674.4 666.4 656.7 646.7 637.3 625.4 612.3 599.7 584.4 565.9 550.7 534.7 523 512.2 504.2 493.5 485 482.4 479.2 476.9 476.2 477.4 478.6 477.2 474.1 470.8 468.2 465 461 454.3 447.3 438.7 430 419
900.6 927.7 952.1 973.9 993.4 1009.7 1022.9 1029.7 1023.6 1005.8 979.4 960.6 936.8 918.3 901.1 896.5 889.9 867.1 851 847.6 855.1 861.7 867 873.3 877 876 875.3 878.7 877.3 871.7 863.7 853 841.3 828.4 811.8 788.4 745.2 692.3 656.5 625.5 602.8 592.5 587.4 592.5 601.8 614.6 627.7 645.7 655.6 667.8 674.9 675.7 682.6 681.2 689.2 688.9 690 689.1 686.3 684.7 684.7 682.3 679.1 678.7 673.4 668.7 658.7 642.7 630.3 611.7 603.2 585.1 568.8 566.8 563.1 547 535.5 530.9 524.6 525.1 525.7 525.2 525.1 525.4 522.9 519.5 517.8 516.5 514.3 501.2 499.5 499.6 498.8 496.8 494.7 488.8 482.6 477.9 462.3 454.9 447.7 441.4 434.5 427.3 415.5 408 400.8 395.1 391.9 386.2 380.7 375.9 372 370 369.2 368.1 367.9 370.4 371.2 372.3 374.6 374 378 380 386.3 387.9 391.5 393.6 396.6 398.3 394.6 406.8 418.6 426.7 437.5 455.3 468.4 479.1 489.9 501 510 519 528 536 546.6 557.5 567.6 577.9 588.9 601.1 611.7 625.7 640.8 654.8 670.4 686 702.5 713.7 722.7 724.2 721.1 718.8 714.5 709.9 702.6 692.4 682.2 674.4 666.5 657 647.1 637.1 626.9 615.5 598.4 578.6 562.1 549.5 536 521.9 510.9 499.9 496.1 493.3 489.9 488.1 489 490.4 490.9 490.3 487 483 480 475.8 468.9 463.6 458.6 449.9 441.3 428.2
891.3 917.3 940.2 962.5 981.5 997.5 1010.8 1018.1 1011.7 985.3 964.3 944 910.3 887.8 886.2 879.2 859.6 843.6 828.6 827.1 832.4 838.4 842.9 847.3 852.5 853.6 857.4 863.4 865.5 863.5 858 852.5 842.6 830.2 822.9 803.9 742.3 704.2 650.4 619.5 602 589.7 585.5 587.9 594.9 602.4 615.8 633.5 637.5 649.1 655.6 658.2 668 671.5 677.4 676.8 677.7 675.5 673.1 670.5 670.3 668 665.4 661.6 651.9 641.6 632.8 609.9 593.4 584.4 575.6 560.8 555.6 550.1 546.8 536.8 525.1 516.1 511.2 514.9 514.5 517.6 519 519.1 517.4 513.5 510.1 509.1 505.4 490.8 488.8 487.3 486.2 486.1 484.8 481.4 471.8 469.3 455.2 449.9 442.2 435.8 428 422.5 409.7 401.5 395.5 388.6 384.5 379.7 377.1 374 372.6 373.2 373.5 376.6 376.6 379.4 381.6 381 382.7 389.9 389.7 394.4 398 399.2 401.6 403.5 403.3 406.3 407.6 410.1 417.6 425.6 435.2 450.9 465.5 477.1 488.7 500.4 509.7 519.2 529 537.6 548.3 558.7 568.7 578.7 590.5 603.4 615.1 631 646.3 660.6 680.4 700.9 717.2 731.2 742.2 745.8 741.7 739.1 733.6 724.8 714.4 702 688.8 680 672.4 662.9 652.7 643.6 635.3 622.4 603.8 586.6 574.1 559.1 547 529 515.5 508.7 505.9 502.8 501.7 502.2 503.9 504.9 505.7 504.7 502.3 498.4 492.8 486.2 478.9 471.3 465.4 457.8 446.1 430.7
882 907.5 930.4 952.2 970.7 987.5 1001.5 1008.4 1000.8 974.5 952 928.3 887.1 871.5 866.3 862.5 840.7 822 816.4 813.6 813.1 820.3 823.3 827.4 832.2 833.3 831.8 840.3 847.2 849 846.5 841.6 833.9 825.5 819 808.7 785.9 705.8 651.5 617.1 599.6 589.8 585.3 586 590.4 597.7 607.3 620 630.2 639 645.5 652.8 657.4 660.9 662.7 663.7 663.7 661.1 656.5 654.9 653.3 649.2 642.4 632 620.1 608.2 598.4 587.9 566.1 564.3 544.5 538.4 539.9 536.3 531.2 523.8 514 506.7 508 506.9 506.4 507.6 507.7 509.2 512.4 508.7 503.5 502.6 492.8 482.5 478.7 476.7 476.9 477.5 476.6 473.9 465.9 455.8 449.1 444.7 437.8 427.7 421.3 416.5 405.7 395.8 389.4 385.2 381.6 378.3 375.7 378.7 378.7 380.8 382.7 386.8 393.5 394.8 397.6 392.8 395 398.4 402.7 406.8 408.3 410.9 410.6 409.9 411.7 411.6 412.4 413.8 418.3 425.7 434.2 449.4 464.3 476.4 487.3 497.7 508.7 518.3 527.6 537.2 546.9 556.7 566.9 577.7 588.2 600.5 614.5 631.4 647 664 685.1 704.9 722.6 739.4 753.2 756.8 756 750.8 746.3 738.6 726.5 706.9 694.4 684.6 675.8 666.6 656.4 647.3 636.6 623.1 608.5 592.2 580.3 565 552.8 533.2 524.6 519.2 515.1 514 516.1 518 518.4 520.2 519.9 519.8 518.2 513.6 506.9 501.1 494.3 484.6 469.4 456.9 443.4 432.5
871.5 897.5 921.4 941.7 962.2 979.6 993.9 999.7 992.1 970.3 938.6 903.4 875.3 863.2 853.1 837.7 822.8 812.5 810.7 809.5 810 807.4 809.2 814.3 817.8 817.5 816.7 821.9 825.3 827.6 826.1 826 819.4 814.4 809.7 802.4 780.6 698.2 661 626.9 603.6 589.8 584.4 585.3 587.4 591.8 598.3 608.4 617.8 626.4 634.5 640.3 642.1 644.7 646.5 647 646.6 642.2 636.3 636.4 630.6 625.9 614 603.3 597.6 582.2 572.4 557.5 542.5 538.5 529.8 522.6 523.2 517.9 516.7 512 507.6 501.2 503.4 503.6 503.9 504.3 505 504.9 505.8 500.9 500.4 488.4 478.7 475.9 470.5 468.4 468.1 466.9 468.2 465.2 455.6 447.7 441.3 437.7 428.3 419 411.1 405.1 397.2 392.3 387.5 382.7 378.1 379.8 381 385.6 388.4 392.3 398.4 406.8 410.7 411.6 409.9 408.5 409.8 411 414.3 417.8 416.7 416.9 417.3 417 417.7 417.5 418 416 419.3 425 434.5 447 461.3 473.7 484.5 495.3 505.3 516 525 534.6 545.6 556.4 566.1 576.8 587.6 598.8 611.6 627.3 645.8 662 681.9 699.6 718.4 737.2 751.6 759.6 764 759.9 754.5 747.9 736.9 722 704.2 689.1 679.3 669.9 658.4 648.8 637.6 626.1 612 597.8 586.7 569.5 552.6 539.8 532.6 528.4 525.7 528 529.5 530.4 531.8 535.4 536.5 536.5 533.3 524.6 515.9 507.8 501.1 492.4 478.6 459.4 439.4 435.1
861.2 890.7 914.5 935.3 954.5 971.9 984.1 988.4 982.9 971.4 942.9 910.1 877.1 861.8 844.7 826.2 813.2 804.2 800.4 802.7 803 802 799.3 801.2 803.6 803.1 800.5 804.2 800.4 805.4 807.9 805.3 800.4 795.5 794.5 788 776 731.2 661.8 633.8 609.2 597.8 585.7 582.6 583.2 584.2 591.7 598.8 603.7 613 619.9 623.5 626.1 627.3 630.8 629.3 626.5 623.1 616.6 612.8 609.5 600.1 590 583.6 577.1 569.4 553.5 537.8 527.2 521.4 508.8 505.7 503.1 503.7 503.6 501.5 499 495.5 497.9 500.1 504.5 507.2 500.6 498.3 497.3 498.7 490.6 474.2 470.4 466.4 463.7 462.8 461.6 458.5 456.9 454.1 448.2 438.1 434.9 425.1 417.5 407.8 400.3 397.2 393.7 389.4 385.4 383.4 384.6 385.7 388.2 392.9 395.8 406.4 415.4 422.1 425 422.4 423 425.8 423.8 427 429.8 430.4 430.6 427.9 425.4 423.6 422.3 421.1 422.6 421.9 422 425.4 433.1 443 456.3 469.5 479.8 491.4 503.1 513.6 523.1 532.2 543.6 554.3 564.2 574.8 585.2 595.8 607.7 623.1 640.8 655.2 670.9 689.6 709.8 727.6 744.3 755.3 762.6 765.7 760.6 753.7 744.1 730.4 713.5 698.5 683.8 672.2 659.8 648.5 638.9 627.2 612.9 602 589.1 569.9 557.3 549.6 543.7 539.7 539.9 539.6 542.1 546.2 549 553.1 554 552.9 544.6 533.7 521.5 513 504.5 492.8 478.5 461 443.4 432.2
854.1 884.4 907.6 927.1 946.1 962 972.1 976.1 972.6 965.6 951.6 911.8 886 872.9 854.5 825.6 809.4 794.7 789.9 790.4 791.8 793.2 794.6 793.4 793.1 791.5 787.1 784.6 786.5 786.6 789.3 784.4 782 774.6 776.6 769.2 760 741.2 700 647.4 620.6 600.3 585.4 574.2 573.6 573.3 582.2 584.4 587.7 596.7 601 602.6 604.8 608.6 611.2 610.6 607.9 601.8 596.3 594.1 588.9 580.9 571.8 562.4 559.2 549 539.8 523.2 510.6 506 496.9 495.4 492.7 494.4 495.5 493.2 493.9 494.3 496.3 499 501 500.8 498.7 493.2 491.9 492.4 480.6 469.7 468.8 465.7 463.2 458.9 451.8 447.3 449.1 442.1 434.4 430.2 425.1 420.3 410.1 404 399.2 395 391.2 389.9 389.9 390.7 392.2 394.4 400.6 404 411.3 421.3 427.3 432.8 437.6 439.5 441.1 441.4 442.8 444.3 444.9 442.2 442 439.6 435.7 433.7 428.5 427.9 427 425.5 426 425 430.7 440.6 450.6 462.6 475.5 488 499.9 510.5 521.5 532.1 541.3 550.6 560 569.5 579.1 588.9 600.4 615.7 633.3 645.1 658.1 677.6 698.2 716.1 733.6 747.2 757.5 763.6 761.9 758.1 749.9 738.5 720.2 704.9 688.8 672.4 660.6 651 640.8 629.2 617.1 602.3 589.3 576.6 567.4 560 554.1 552.9 552.4 553.4 557.6 561.4 564.2 566.5 567.1 563 551.2 539.8 528.3 518.3 508.4 493.1 475.9 457.9 443.4 427.8
844.3 876 900.5 919.5 936.6 950.2 959.2 964.1 963.2 959.2 953 929.2 904.1 879.9 860.5 837.5 808.4 794.7 787 779 781.6 782.4 784.1 785.2 782.6 780.6 776.4 773.2 769.4 767.3 765.5 761.6 761.4 757.1 754.6 748 738.9 728.3 716.6 693.1 643.6 610.8 589.6 573.6 563.9 561.5 564.9 567 570.2 577.6 582.2 586.2 585.1 587.2 594.6 587.3 587.6 582.2 577.2 577.6 573.6 567.9 557 545 536.7 526.6 522.8 505 499.6 495.8 489 479.8 480.2 483.7 487.9 490.9 493.2 495.9 495.2 495 495.6 493.6 492.6 490.5 489.8 484.7 467.9 464.8 463.4 463.7 458.5 453.6 448.8 445.3 437 432.3 428 425.6 419.4 412.7 405.9 400.8 393.6 394.9 392.5 398.5 396.7 398.8 404.1 409.5 412.6 421.4 430.6 437.2 445.9 451.7 455.1 459 461.9 463.9 462.7 459.5 457.1 455.6 452.2 447.4 445.1 440.5 439.4 436.3 431.6 430.6 430.2 427.6 432.1 440.2 449 459.6 472.1 484.3 495.6 506.3 517.3 526.8 538.3 546.9 554.6 563.2 573.1 582.5 592.2 604.1 618 632 645.1 664.8 685.3 702.7 721.2 737.5 749.5 758.9 761.3 759.3 754.8 742.1 726.6 710.1 692.4 678.6 663.9 654.3 644.3 633 622.2 606.5 596 584.5 575 569.7 566.1 566.4 566.4 570.5 573.5 575.2 576 574.5 571.1 565.3 555.1 544 534.8 522.9 510.5 492.7 476.3 458.3 441 426.9
836.4 868.8 893.4 910.9 926 937 945.3 950.5 952.5 951.6 950.2 942.5 918.3 888.8 866.9 852.5 836.9 809.8 795.1 777.3 775.2 772.4 773.1 775.2 773.2 768.4 763.8 757.9 753.7 749.6 748.1 744 740.8 736.9 736.1 729 722.3 715 713.1 703.6 689.8 632.3 598.7 577.2 560.1 552 551.5 551.8 556.4 562.1 564.4 568.9 570.5 571.4 566.2 569.3 572.1 566.5 566.2 565.8 561.3 560.8 544.8 533.5 526.8 513.6 511.5 492.1 488.4 486.5 478 471.9 473.2 478.5 483.6 486.9 490.6 493.5 493.5 491.7 489.4 489.1 486.1 486.8 481 472.8 460.8 459 457.5 454.3 449.1 445.8 442.1 438.2 432.2 429.7 423.9 420 414.4 408.8 402.3 398.6 399.9 399.1 401.1 402.9 406.3 409.7 415.6 420 427.9 438.9 445.2 454.3 461.6 466.7 470.6 475.9 477.5 476.7 473.9 470.2 467.1 465.2 459.2 454.3 450.8 446.6 442.6 438.2 437 433.3 432.6 428.7 432.1 438 447.6 456.7 466.3 479.3 491.3 501.7 513.1 522 532.2 543.2 550.8 558.1 566.3 575.6 585.3 595.9 606.4 618.6 630.7 648.6 669.3 687.9 707.1 726.5 740.1 750.7 758.9 761.7 758.9 749 736.4 723.5 706.1 689.6 673.6 660.6 647.2 636.6 626.7 615.5 604.2 592.8 585.8 582.4 580.9 581.2 583.9 584.7 586.2 585.9 581.4 574.6 568.2 557.3 548 541.2 529.7 515.7 505.5 491.5 474.2 455.5 439.2 425.2
830 861.3 885.8 902.1 912.7 922 929.7 936.5 939.2 942.4 944.6 946 943.9 915 883.7 866.6 855.5 834.8 800.8 782.3 773.2 763.3 755.6 761.1 758.6 754.6 749.9 745.1 739 736.3 732.7 729.6 728.1 726.8 724.1 717.2 711.2 709.6 707.7 705.8 694.5 685.5 637.5 589.1 563.6 549.3 539.3 539.4 541.9 544.9 547.6 552.2 552.8 554.4 557.1 559.4 560.3 558.6 555.8 553.1 550.8 543.8 532.3 519.6 517 504 497.2 483.3 479.6 480.5 471.9 469.8 472 477.7 483.9 486.7 486.5 488.6 488.1 488.7 486.9 483.1 480.9 481 470.5 463 457.2 455.8 454.7 452.6 449.5 439.5 437 435.6 427.9 425.6 419.2 415.5 410.6 404.4 409.1 407.4 406.4 403.3 408.1 416.9 415.7 420.3 428.6 434.3 442.2 454 460 465 472.4 478.6 483.6 487.3 487.2 484.7 482.8 478.4 476.2 474.5 467.5 463.7 458.6 452.9 448.7 444.4 443.4 439.6 436 433 434.4 438.1 445.3 454.5 463.9 474 485.1 496.1 508.9 518.8 527.7 536.6 545.7 552.2 559.6 569.1 578.6 588.1 595.4 607.2 618.5 633.5 653.1 671.2 688.8 710.9 726.8 738.6 749.9 756 755.6 751.1 745.6 733.5 718 702.3 688 675 660.2 644.7 633.9 624.9 613.6 603.8 597.8 594.8 595.1 599.5 602.2 599.5 597 590.3 582.6 573.1 563.3 552.6 539.9 529.3 522.3 515.3 504.7 486.3 464.8 445.8 433.7 423.3
820.2 852.6 878.9 891.7 899.5 906.8 914.8 922.2 928.4 933.3 938.8 945.2 949.1 935.9 913.7 886.2 859.1 841 811.8 788.6 767.6 751.4 735.8 738.4 739 735.8 734 731.7 727.9 724.2 720.4 721.8 720.1 715.2 714.7 714.2 708.6 704.3 699.7 699.1 693 688.4 676.9 649.2 586.6 554.1 538 524 524.7 530 532.8 535.8 541.6 543.6 544.3 545.3 548.6 545.1 542.8 539.7 534.6 527.8 517.5 507.7 506.2 496.9 486.7 476.2 472.5 474.1 470.5 470.6 474.2 479.2 482.9 484.7 485.8 485.3 483.9 482.1 480.1 479.6 477.5 467 460.5 456.4 455.6 452.8 448.4 443.9 441.9 437.7 433.4 429.7 423.6 417.6 414.7 412.5 410.8 416 414.6 412.9 414.1 414.9 417.5 425 430.8 433.5 438.4 444.9 452.6 462.1 470 474.7 481.4 487.3 493 495.5 494.6 494.4 493.2 491.4 489.4 484.4 477.4 471.8 468.7 464.8 458.2 454.5 449.4 444.8 441.6 438.6 439.2 439.7 447.2 452.6 460.3 473.1 480.7 491.3 504.3 515.4 523.1 530.8 538.7 546.5 553.5 560.8 569.8 579.3 586.9 595 605.9 619.6 635.1 652.4 671.8 692.5 710 723.9 736.2 744.3 747.5 748.6 752.4 747.5 729.9 718.8 706.7 691.8 677 661.1 649.3 639.4 628.6 624.2 618.7 617.2 617.2 616.5 615.7 611.6 605.6 595.5 584.7 574 558 546.3 534.5 524 515.1 502.4 488.3 474.1 455.1 439.6 428.5 420.6
816.2 847.4 868 879.2 884.5 890.2 899.1 907.8 915.1 924.3 934.1 944.5 953.4 958.3 944.3 917.1 882.9 849.6 819.5 791.4 762.1 738 726.7 714.7 717.7 718.5 718.7 718.7 716.1 711.5 707.5 709 710.1 708.5 709.2 699.2 694.8 695.2 689.5 687.6 683.3 678.3 672.2 661 620 569 546.7 522.7 517.5 518.5 518.6 521 527.9 530.2 531.1 533.7 534.8 532.8 531.1 525.7 520 514.2 501.2 494.2 494.5 484.2 475.2 470 471.5 470.4 469.2 468.3 471.9 477.9 478.2 476.5 477.4 475.1 473.2 473.4 471.4 469.8 466.5 458.7 454.2 450.2 445.8 444.8 441.7 436.5 436.1 428.1 421.6 420.1 416.7 415.1 416.8 416 419.5 419.9 421.9 422.8 422.7 428.9 430.5 432.5 437.6 444.8 450 459.6 465.5 474.2 478.1 482.7 488.9 493.9 500 502.9 503 504 502.1 499 495.1 491 486.5 480.2 476.2 474.3 472.2 468.7 465.1 461 454.3 449.8 445.6 443.2 444.4 449.6 459.7 471 479 486.7 497.3 509.5 518 526.1 533.1 540.3 547.1 554.8 562.4 570.5 579.1 587.4 596.6 607.5 620.9 635.5 655.2 673 690.8 706 720.4 729.1 734.2 740 752.2 748.7 741.4 731.3 720.8 709.1 695.9 682.8 669.4 658.9 648.8 642 639.8 636.5 632.6 629.8 625.6 620.2 609.8 596.8 585.6 570 554.9 541.8 528.9 518.6 507.5 493.5 479.2 463.4 449.9 436.5 429.2 423.6
809.3 840.1 855.4 864.5 867.6 870.8 880.4 892.8 904.7 917.1 930.3 943 956.5 964.8 966.4 940 904.8 868 845.3 796.1 751.4 724.4 706.6 701.7 699.4 703.4 704.8 706 704.6 701.3 699.5 696.9 697.3 697.5 692.7 688.6 687 683 678.2 673.9 667.7 661.9 653.9 643.7 633.1 578.8 545.5 526.3 512.1 511.9 513 511.8 514.3 517 519.5 519.7 521.8 522.9 520.3 508.6 503.8 498.7 491.6 485.1 483.3 473.5 466.7 464.7 466.3 463 463.9 462.5 463.2 466.1 466.4 467 465 463.2 463.3 463.6 462.5 458.4 455.1 448.1 442.9 439.9 437.8 436.2 437.7 428.5 425.2 424.6 420.9 424.6 424.4 425.6 420.3 425.2 429.3 430.1 431 430.7 432.7 438.5 443.3 446.5 449.1 455.1 463.2 470 473.7 480.7 486.1 490.4 496.1 502.2 507.7 509 508.1 508.7 509.2 505.7 503.2 497.7 494.7 489.7 485.9 485.4 484.7 483.6 482.3 476 469.5 463.5 457.9 450.2 447 452.5 457.5 466.8 475.3 481.6 491 502.2 513.6 522.1 529.7 535.9 540.8 549 557.4 565.2 573.7 581.6 589.2 599.9 611.9 623 636 654.2 668.2 684.5 698.3 711.1 718.9 725.4 735.5 739.5 739.4 737.4 728.7 721.8 712.6 702.4 689 678.6 671.6 664.7 656.4 648.8 644.4 638.4 632.1 624.6 611.9 598 581.5 567 552.7 537.6 524.9 512.1 498.5 483.3 472.7 459.3 450.3 441.1 433.9 425.7
800 826.2 839.2 845.8 842.9 847.5 861.7 876.9 892 908.4 924.6 939.7 955.2 966.3 973 956 921.6 887.3 854.3 800.9 753.3 718.6 701.4 692.5 690.5 690.9 691.8 696.5 695.7 692.2 690.9 691.2 694.6 690.7 687 681.4 676.6 670.6 665.4 659.2 651.8 639.8 630.2 613.9 595.6 566.3 536.7 514.2 518.4 506 510.9 510.2 510.9 512.9 513.5 511.4 513 514.2 513.5 498.2 493.8 488.5 481.9 477.7 475.9 468.6 462.1 459.2 458.4 457.8 458 457.3 457.4 454.1 455 453 450.6 448.2 449.7 446 445 443.7 443.2 439.7 435.5 434.1 433.6 434.5 433 430.4 428.6 427 429.5 428.1 426.8 423.4 428.5 431.5 436.6 436.5 438.9 440.7 444 447.5 451.1 454.8 461.5 464.5 471 478.5 482.9 488.9 494.1 498.2 502.8 508.6 512 513.5 513.1 511.9 510.5 508.6 506 502.6 499.7 496.1 494.2 494.8 494.4 495 494.8 493.1 487.1 481.3 471.7 462.8 454.6 454.7 456.3 460.1 468.3 474.6 484 494.5 508.4 518 525.2 532.2 537.3 543.9 552.4 559 568.1 575.8 583 593.6 603.9 614.5 624.9 637.9 650 662.9 677.6 691 702.4 706 711.8 720.5 727.9 735 732.7 728.8 727.1 719.3 709.7 703.1 693.1 684.5 676.2 665.6 653.5 645.3 636.4 625.6 612.3 595.8 578.9 564 548.8 533.3 519.3 508.1 493.4 480 468 458.5 449.5 442.6 433.8 427.3
782.2 807.8 819.1 824.3 818.3 823.9 841.8 862.2 880.1 897.6 916.2 933.3 949.2 961.6 971.1 961.6 925.8 892.3 839 793.4 757.3 716.4 696.7 687.9 687.9 687.9 687.9 689.6 687.9 689.9 690.1 688.5 688.6 685.7 680.4 675.2 668.6 660 651.7 642.9 633 616.1 587.2 577.1 550.6 526.2 512.2 501.5 499.8 502.7 502.8 506.3 505.7 506.7 511.3 513.5 508.6 508.2 507 493.1 489.6 486.9 479.8 474 470.6 462.4 460.3 459 456.8 456.2 457.2 456.5 457.3 460.5 458.1 451.3 446.2 446.3 446.7 442.2 443.2 442.9 440.4 439.7 437.8 436.9 435.9 435.7 431.3 438.8 433.3 434.1 434.5 432.8 427.2 434.4 436.6 439.7 444.1 446.2 449.6 453.5 454.8 455.3 461.7 465.2 471.2 474.6 481.1 484.2 490.3 496.4 501.8 506.2 506.7 510.5 513 514.8 513.9 512.6 510.4 508.5 507.1 504.4 502.4 501.2 500.8 500.9 502.5 502.8 503.6 501.8 499.1 495.6 489.6 480.1 471.1 461.8 458.1 459.8 465.5 473.8 481.4 488.7 500.6 512.8 520 528.2 534.4 539.9 546.6 552.8 560.1 568.7 578.1 585.6 594.6 603.4 616.2 628.5 641.2 648.8 662.4 673.9 684.4 686.8 693.1 703.8 711.2 722.8 728.5 730.7 732.6 730.7 723.5 715.3 707.9 698.9 689.7 678.1 662 650.4 640.3 625.1 610.9 596 581.7 562.8 545.2 531.7 519.6 505.7 491.8 476.9 465.3 457.2 448.8 439.9 434.1 429.1
750.8 787.4 795.2 796.1 799.8 805.3 819.9 845.8 868 887.4 906.7 924.5 941.3 955 964.7 966.1 929.3 897.9 854.3 787.3 753.4 724.2 702.3 688 687.9 687.9 687.9 687.9 687.9 688.6 689.2 691.7 691.2 688.4 683.9 677.6 668 656.7 644.3 622.4 605.3 592.8 572.4 539.3 526.4 511.1 500.6 496.9 496.9 496.9 496.9 496.9 496.9 496.9 502.2 504.1 508.3 508.1 505.4 491.2 487.1 485.1 477.8 470 465.8 462.2 460.7 459.2 458.5 458.1 457.6 458.6 459.4 461.3 460.2 455.7 451.1 451.2 452.1 452.4 451.3 448.5 445.3 444.8 444.4 441.9 440.5 444.1 441.4 444 439.3 438.5 437.7 438.3 438.9 451.5 454.8 451.7 451.9 457.9 460.3 462.8 461.4 463.5 469.3 472 476.3 479.1 485.6 492.8 498.5 501.9 506.9 511.5 509.9 512.5 515.1 515.4 514.5 511.7 508.6 508.6 509 506.4 504.7 503.8 503.2 506 507.6 508 508.1 507.8 506.5 504.6 501.2 494.9 486.8 473.2 465.7 462 464 469.4 478.4 484.9 493.3 504.9 515.8 523.7 530.8 536.8 541.6 549 557.3 566.7 574.3 581.6 587.5 595.7 607.3 617.5 629.8 637.8 645.7 658.4 668.1 671.1 675 685.6 697.2 711.5 722.6 730.2 733.8 731.5 728.5 721 714 705.4 695.9 682.8 668.8 656.7 643.2 627.4 609.4 595.6 580.4 561.8 544.5 529.7 517.6 505.1 490.6 473.8 464.1 455.7 448.5 440.9 437.2 431.7
738.3 759.9 766.8 773.7 784.2 793.9 802.7 825.3 854.2 875.7 896.6 915.1 932.8 947.5 957.9 962.1 942.7 906.3 873.6 793.9 760 730.8 700.2 687.9 687.9 687.9 687.9 687.9 687.9 690.7 693.7 695.1 695 691.1 687.3 683.6 675.9 663.8 649.7 630.5 606.6 564 543.8 524.4 515 505.1 496.9 496.9 496.9 496.9 496.9 496.9 496.9 496.9 496.9 506.1 502.8 505.8 501.5 492.6 486.8 478.2 471 465.4 464.7 464.3 462.8 461.4 460.9 460.3 460 460.4 461.6 464.1 464.8 463.1 457.5 457.9 454.7 454.7 456.4 455.6 454.3 449.8 453.3 449.8 448.9 451 448.9 454 450.7 449 446.7 445.1 450.6 458.1 464.1 465.5 465.7 469.9 470.7 475.1 473.6 473.7 476 478.3 482.2 485.4 491.3 494.7 499.7 505.3 510.5 511.3 512.1 510.7 512.4 513.1 511.3 507.1 505.4 504.2 503.6 502.4 502.2 502.7 504.8 507.6 509 510.8 512.5 511.9 511.9 511.6 508.2 504.2 498.6 491.8 481.6 471.7 468 468.4 476.9 482.7 489.3 499.1 509.9 519.6 526.4 533.3 540.3 547.1 556.6 564.8 571.4 578.5 583.7 590.9 597.1 607.4 616.8 627.8 634.9 643.7 649.7 653.5 659 670.4 684.4 699.4 712.8 723.1 732.3 731.4 732.9 729.2 722 713.9 703.4 690.6 678.5 664.6 647.7 629.6 609.7 592.8 577 560.2 543.3 529.5 520 507.5 490.8 474.5 465.2 455.9 449.2 445.2 441.1 438.6
720.8 740 752.7 759.6 770.5 782.9 795 813.3 840 865.4 886.8 907.2 925.3 940.3 950.8 956.9 951.1 919.1 885.7 820.9 794.5 758 728 695.1 688.3 692.1 690.2 694.3 696 700.8 703.3 701.4 700.3 695.6 692.9 690.3 684.1 664.6 644.7 625.7 594.1 559.7 535.2 521.7 513.5 506.1 500.5 496.9 496.9 496.9 496.9 496.9 496.9 496.9 496.9 506 502.3 496 490.2 485.9 479.5 480.2 476.7 474 471.1 469.9 468.5 469 469.7 469.1 469.7 468.3 468.4 468 467.8 468.1 467.4 466.2 465.7 462.8 463.7 463.3 463.3 458.8 459.4 458.4 455.7 458.6 463.9 457.6 462.1 459.9 456.7 461.9 470.9 470.1 474 478.1 477.6 479.1 480.6 480.6 483.7 482.1 484.8 484.2 484 488 493 495.8 501.3 507 511 510.5 509.7 508.1 507.1 505.6 504.1 502.4 499.8 498.2 496.6 496.8 497.9 500.9 503.6 507.7 510.3 512.3 514.5 515.7 516.9 516.1 513.3 510.2 506 500.5 494.2 483.2 473.3 471 472.2 479.8 486.7 494.5 504 514.5 523 529.4 537.3 545.2 553.2 562.5 569.9 575.4 581.5 586.1 590.5 597.4 602.1 610.9 619.4 627.1 631.8 635.5 642.8 657.2 673.5 690.6 702.3 710 722.1 725.3 726.5 724 718.8 714.2 705.4 695.2 685.5 673.5 655.1 632.8 610.9 593.6 575 559.3 542.9 530.3 518.6 505.3 491.7 478.1 466.8 459.7 456.5 450.7 444.3 442.7
