ncols 200
nrows 88
xllcorner 240000
yllcorner 851600
cellsize 50
32.9 33.6 34.8 33.2 32.1 33.9 33.1 32.4 32.3 32.2 28.7 32.5 32.1 31.2 30.8 30.6 30.4 30.2 31.2 32 32.7 32.1 31 30.7 36.4 38.1 51.8 37.5 32.3 34.5 31.2 32.8 36.5 38 38 39.6 41 41.8 41.5 41.2 42.1 42.4 41.3 39 36.5 36.1 36.9 37.7 40 40.1 41.6 44.9 50.8 60.7 67.9 74.9 80.9 86 89.1 91.9 93.8 95.3 96.9 98.6 105.7 114.5 121.2 125.3 125 125.3 125.8 125.1 124.5 124.7 125.2 125.5 125.3 124.1 122.1 120 117.2 118.6 119.6 121.5 122.4 119.3 114.1 113.1 110.1 107.6 106.8 102.6 97.3 88.3 85.2 78 69.9 61 48.1 35 27.7 23.6 21.8 21.6 21.2 20.4 20.8 20.9 21.2 21.4 18.4 18.6 18.9 18.4 18.7 20.4 26.1 29.7 33.6 36.5 41.3 44.3 44.7 46.5 48.3 49.5 50.6 51.9 54.4 55.6 59.1 62.5 64.9 69.2 70.1 69.2 69.5 71.7 75.3 74.2 74.2 71.3 72.2 67.6 64.1 61.6 59.4 57.3 56.1 55.7 55.8 54.4 53.6 52.2 49.9 50.9 52.1 51.3 63.2 70.4 75.9 81.3 86.4 91.1 95.7 100.4 105 109.9 114.4 120.9 130.3 139.7 144.9 151.2 154.7 159.2 160.9 162.7 164.7 167.6 171.7 173.7 175.8 176.4 176.1 174.9 171.5 168.4 164.2 159.9 155.1 154.2 156.5 157.4 156.7 155.9 154.1 154.1 153 151.1
33.2 32.3 33 33 32.2 33.2 33.9 33 31.9 31.9 28.8 34.1 32.1 31.4 30.8 30.6 30.4 30.2 31 30.9 30.7 30.7 30.7 30.7 30.7 30.6 30.2 30.3 33.1 30.8 30.8 31.5 34 35.6 36.9 41.8 43.8 43.4 41.4 42.7 41.9 42.3 40.4 37.5 36.5 36 37.2 39.4 41.5 41.8 42.4 44.7 51.6 64.4 73.6 80.9 86.3 90.6 93.9 95.7 96.9 98.9 104.9 112.2 118.2 123.1 127.6 128.9 127.9 128.6 130.4 127.6 126.5 126.7 126.9 126.5 125.1 123.2 124.2 125.4 127.3 128.8 129.1 127.1 127.1 125.9 124.5 124.6 122.4 120.4 118.5 115 110.4 103.3 99.3 90.2 80.4 70.3 55.8 41.4 33.5 27.8 24.2 22.2 21.3 20.4 20.8 20.9 20.5 21 18.2 19.4 19.4 18.7 18.3 19.9 24.6 27.7 33.1 34.3 39.7 43.5 44.4 45.1 46.9 49.3 50.5 51.6 52.7 55.9 58.8 61.4 63.9 65.6 67 66.4 66.4 69 69.9 70.5 67.8 67.4 64.8 62.3 58.9 55.5 53.8 52.2 51.4 51.8 50.7 49.5 49.6 47.9 46 46.9 46.2 51.6 62.5 69 74.7 79.9 84.4 89.9 93.2 98.3 103 107.6 112.4 119.1 127.5 137.7 147.3 158.3 165.8 168.3 169.5 170.2 170.3 170.7 174.8 178.3 178.3 178.4 176.6 176 172.5 168.3 161.6 158.7 158.9 161.9 165.6 163.5 161 157.9 155.3 155.1 154.1 152.6
33.3 32.2 32.2 33.7 32.4 31.9 32.4 32.1 31.5 31.7 32.1 30.5 32.1 31.5 30.8 30.6 30.4 30.8 30.9 30.7 30.6 30.8 30.8 30.8 30.8 30.6 30.4 29.9 30.6 30.8 31 33 37.9 47.4 45.1 53.6 54.3 49.1 42.7 42.9 41.5 39 37.2 36.3 35.8 35.6 38 39.2 39.8 39.8 40.1 45.8 56.4 66.8 75.8 82.3 87.1 90.8 93.7 96.9 98 106 113.6 119.4 125.9 130.3 129.4 132.3 131.8 134.5 137.4 138.5 132.4 130.1 127.2 126.3 125.2 124.9 128.6 131.3 134.9 137.6 138.8 136.1 137.7 139.6 139.4 138 136.3 133.6 133.1 131.4 126.4 119 110.6 100.2 87.5 77.6 67 57.4 48.4 38 31.8 22.6 20.4 20.5 20.7 20.2 19.7 20.4 18.9 20.2 19.6 19 19.3 18.9 23 26.3 30.7 33.3 39.5 42.8 43.6 44.5 45.7 49.3 52.6 54.4 54.9 57.1 59.9 58.9 61.5 60.2 63.6 66.1 66.8 64.6 64.5 63.7 62.8 62 59.6 56.6 53 50.9 49 47.4 46.4 46.1 44.8 43.4 41.5 41.1 41.5 42 48.5 56.5 62.3 65.5 73.4 78.2 83.7 88.6 92.6 97.7 102.7 108 113.3 119.3 125.4 134.5 145.9 156 169.9 177.3 177.8 175.6 174.6 174.4 175.8 176.9 175.2 173.7 174.6 178.4 172.4 165.4 163.6 162.3 165 169.6 172.7 172 165.4 160.9 157.1 155.9 154.8 153.5
34.9 33.9 33.1 33.7 33.5 32.3 32.6 32.8 32.4 32.4 31.6 28.7 32.3 31.6 30.8 30.6 30.4 30.8 30.7 30.6 30.5 30.8 30.9 30.9 30.7 30.5 30.4 29.8 30 31 32.6 38.5 52.2 54 59.3 66.5 63.9 51.4 44.4 39.4 37.4 36.4 35.9 35.3 34.9 35.4 37.3 36.7 35.6 36.9 44.2 51.2 61 68.4 74.4 79.1 83.7 88.2 91.4 97 103.2 111 118.6 124.8 129.6 129.9 132 135.9 135.9 136.8 143.3 145.8 142.4 129 125.3 126.2 125.8 127.4 131.9 136.4 140.4 144.5 147.9 149.5 150.9 151.1 151.4 149.3 144.7 141.3 145.8 147.3 139 129.8 120 108 96 85.5 78.5 69.8 56.6 49.2 39.2 24.7 20.5 20.4 20.5 19.7 19.7 18.8 18.2 19.4 18.8 18.9 19.2 19.1 22.2 25.1 28 32.9 38 41.2 43 43.9 44.9 48.5 50.7 53.1 53.9 54.7 55.8 57 58.5 59.4 61.5 62 63.1 61.5 63.3 58.9 58.8 56.3 53.6 50.8 48.1 46.2 44.3 43 42.1 40.7 39.3 37.9 36.4 37 39.5 45.1 51.5 56.8 63.9 68.5 73.3 78.2 83.3 86.7 91.9 97.5 102 107.1 112.6 119.5 125.9 133.1 142 152.6 161.8 171.1 174.8 176.2 175.1 176.1 176.1 176.4 174.5 172.7 172.4 172 170 167.7 167.9 168.5 168.7 171.7 174.3 171 164.1 163.1 158.2 156.6 155.6 155
39.9 36.1 34 33.2 32.5 32.5 31.9 33.7 31.6 32.8 30.9 28.7 33.5 31.7 30.8 30.6 30.5 30.6 30.5 30.4 30.4 30.7 31 30.9 30.7 30.5 30.1 30 31.5 32.5 35.6 41.2 54 54.8 61.5 65 52.8 43 37.5 36.6 36.4 36.4 35.8 34.7 34.3 35.3 34.7 33.8 35.8 37.6 43.5 54.9 61.8 66.6 69.4 71.6 77.2 82.3 91.8 98.4 105.4 113.7 120.3 127.8 131.2 132.6 135.6 139.5 140.1 139 145.5 146.9 136.6 130.5 126 125.6 128.8 130.7 134 139.4 143.7 148.6 153.8 159.1 161.8 161.6 161.2 158 152 148.8 150.9 149.7 142.9 135.2 126.1 118.5 109 98.3 88 78 66.2 59.5 46.9 33.6 22.2 20.3 20 19 20.1 19.7 18.6 18.2 18.5 18.8 19.2 19.1 19.4 22.9 27.3 31.9 35.3 38.1 39.8 41.8 44.3 45.9 48.2 50.6 52.2 53.2 54 55.7 57.6 58.9 59.3 58 58.7 58.8 58.1 55.2 53.9 51.7 48.9 46.1 43.4 41.4 39.4 38.3 37.4 35.3 34.3 32.8 33.8 34.9 42.8 47 52.6 58.2 64.6 69.3 73.3 77.2 82.1 86.2 90.7 96.6 102.3 107 113.6 120.5 126.2 132.6 139.2 148.8 156.1 162.2 167.8 172.2 175 176.8 176.6 175.9 173.8 172.4 170.7 169.9 172.4 182.9 184.8 182.9 177.4 173 171 165.5 162.8 161.5 158.5 157.4 156.8 154.8
43.6 38.6 35.7 35.8 33.1 32.7 32.2 32.7 32.4 32.8 33 30.4 31.3 34.5 31 30.7 30.6 30.5 30.4 30.4 30.2 30.5 30.9 30.9 30.6 30.4 30.2 30.2 31.9 32.1 35.3 39.8 44.7 48.4 54.9 48.2 36.9 35.4 36.4 36.4 36.3 35.9 35.5 34.7 33.2 32.9 33.1 34.2 35.6 40.3 47.2 55.9 60.3 61.7 64.1 68.6 73.3 77.9 89.4 98.6 107.1 113.6 120.5 128.4 131.2 137.1 142 143 144.3 142.1 136.5 131.6 134.3 127.2 122.5 125.1 129.7 132.6 137 142.5 148.3 152.8 159.7 165.8 169.5 170.1 168.1 163.2 156.3 154.1 152.2 147.1 141.9 135.3 132.1 125.7 117.8 108.5 97 87.5 76.4 63.8 49.7 35.3 23 20.9 18.9 19.5 19.5 19.4 19.8 18.3 18.4 18.4 18.4 18.5 18.8 21 23.8 27.4 30.4 33.7 36.2 38.5 41 42.4 43.7 45.6 48 49.6 49.7 52.3 54.5 55.2 53.9 54.2 55.3 55.6 52.5 50.6 49.2 46.9 44.1 41.4 38.8 36.7 34.7 33.4 32.2 29.9 29.2 30.2 32.5 36.8 43.6 48.5 54.4 60.2 65.1 69 72.9 76.8 80.6 84.6 89.6 95.5 101.4 107.2 113 119.3 125.6 131.6 137.5 143.6 150 156 161.9 169.6 175.4 175.7 176.1 175.1 173 171.6 170.3 170.2 175.6 185.5 193.4 193.3 185.4 179.4 174.5 171.8 168.2 166.7 161.3 161.6 158.1 153.5
45.2 39.7 38.3 38.2 36.9 36.2 35.1 34.2 33.8 34 33.7 31.2 28.7 31 33.4 30.8 30.8 31.5 30.6 30.3 30.1 30.1 30.9 31 30.6 30.5 30.4 32.6 31.6 30.9 31.7 33.2 36.8 36.3 36.3 33.9 31.5 31.8 33 33.8 34.5 34.6 34.9 32.5 30.8 31.5 31.4 32.3 33.7 43 50.3 55.2 55.6 56.3 58.2 63.4 70.1 75.7 86 95.9 105.2 114.2 123 132 138.6 144.4 146.7 144.3 142.5 137.6 134.4 129.2 126.9 120.4 113.6 114.9 124 129.5 137.8 147.5 153.6 161 167.6 171.9 175 174.7 171 165.3 159 156.4 152.9 147.2 143.1 140.1 137 131.9 125 116.1 106.4 96.9 83.6 66.9 48.1 32.7 25.7 21.2 19 19.2 19 18.8 18.9 18.2 18.1 17.7 17.6 17.9 17.9 18.3 20.9 24.9 28.6 32.6 34.9 36.9 39.2 40.2 41.5 43.4 45.2 45.2 45.5 47.4 49.6 50.7 51.3 52.7 52.5 50.3 48.4 46.1 44.9 42 39.2 37.3 35.3 32.6 30.3 28.1 26.4 26.4 27.9 30.8 34.2 39.4 44.6 50.3 56.1 60.5 64.6 68.6 72.5 75.9 79.9 83.2 88.3 93.6 98.5 104.6 110.8 117.1 123.1 128.4 133.6 138.1 145.3 151.5 157.7 166.1 172.7 173.7 175.3 175.3 172.2 171 170.3 170.2 174.4 182.1 191.2 193.4 189.8 183.2 177.7 172.8 169.5 165.6 160.7 160.1 154.3 153.6
50.4 47.1 46.5 45.7 46.2 47.2 49.3 50.1 49.9 50.7 49.4 44.7 39.2 35.6 30.5 28.7 29.4 31 31 30.9 30.5 30.2 30.3 30.6 31 32.3 28.9 28.7 28.7 28.7 28.7 28.7 29 30.6 29.7 29.7 30.6 30.6 31.7 33.6 34.6 36.5 35.3 33.7 32.1 30.4 30.8 31.9 36.1 43.3 48.9 52.3 52.1 50.2 48.8 55.1 64.5 70.1 79.8 89.3 99.7 110.3 124.3 133.2 137.3 143.9 142.6 135.9 134.6 132.9 129.5 126.6 121.9 112.7 112.4 113.1 127 136.3 142.7 152.1 159.5 167.7 173.8 177.2 178.6 176.1 172.1 164.1 160.3 157.6 153.2 147 144.8 142.4 139.6 133.8 127.7 119.8 110.6 99.5 85.7 66.3 44.8 31.8 27.5 21.5 19.1 19 18.8 18.6 18.3 18.8 18.3 19.1 18.6 17.4 17.5 17.9 19.4 24.8 27 30.1 34.4 35.7 35.8 37.1 38.8 39.6 40.9 41.2 41.7 43 45.3 46 48.3 47.6 45.8 44.4 43.7 42.3 40.2 37.5 35.6 34 31.9 29.1 26.6 24.4 24 26.4 28.3 32.5 36.7 42.2 47.8 52.7 57.7 60.3 64 67.7 70.2 74 77.7 79.9 84.9 89.9 95.9 101.9 108.1 114.2 118.9 124.4 131 136.1 141.4 147.6 153.8 160 167.1 171.4 174.7 175.7 171.8 170.5 170.5 172.1 174.6 177.3 184.3 187.8 185.5 182.2 173 168.6 166.5 162.4 162.1 163.2 161.2 161.1
56.3 51.9 54.5 56.9 59.7 61.4 64.2 65.8 66.1 65.5 66 59.9 52.4 47.8 42.3 38.3 35.6 30.9 28.7 28.7 30.4 29.5 29.5 29.3 29.9 32.3 32.1 28.7 28.7 31.6 31.8 31.5 29.6 28.7 28.7 28.7 28.7 30 28.7 28.7 30.1 33 32.6 32.7 31.3 30.6 30.7 31.9 35.1 41 46 48.8 48.3 46.2 43.6 48.9 56.6 64.5 72.7 79.9 91.9 103.4 114.3 121.8 125.9 129.3 131.3 127.6 126.7 124.6 122 119.1 116.1 111.6 110.8 116.2 132.3 143.8 152.2 160 166 172.1 176.9 180.5 178.9 175.1 170.9 168.7 165.4 161.1 156.2 152.3 148.5 144.2 140.2 135.7 131.1 123.7 114.7 103.6 88.2 69.1 48.2 31.2 27 21.7 19.9 18.9 18.7 18.4 18.2 18 18.8 18.2 18.8 17.9 17.6 17.5 18.1 20.2 26.5 28.3 31.1 31.9 32 33.1 35.3 36.1 36.6 37.1 38.1 39.4 41.5 42.6 44 43.9 40.3 39.4 37.6 36.1 34.7 33.4 31.4 30 28.5 25.5 23.1 21.1 23 26.4 29 34.2 39.3 44.8 50.3 54.3 57.7 60.2 63.4 66.3 69 71.5 75.1 77 80 87.3 93.5 99.5 104.4 108.6 114.5 121.8 127.3 132 137.5 143.7 149.9 156 162.3 169.2 174.9 176.4 176.5 172.1 172.1 176.4 176.9 178.9 180.5 182 178.6 173.9 177.7 173.2 165 173.6 173 172.1 172 172.5
57.9 55.1 60.8 65.7 68.5 70.9 76.7 83.2 88 86.9 78.5 66.3 59.7 53 47.8 43.5 38.3 36 32.3 31.7 33.5 39.5 38.8 35.7 37 37.4 36.6 30.8 29.6 31.9 35.7 34.6 37.4 35.3 35.1 34.7 38.4 36.9 36 33.3 28.9 28.7 28.9 30.8 31.2 31.7 31.4 32 31.9 35.1 39.3 42.3 42 42.6 40.6 41.9 46.6 58.5 66.9 74.3 84.9 94.8 102.9 109.6 113.9 116.8 115 114.4 113.8 110.4 109.7 111.6 111.6 113.6 118.9 127.4 137.3 147.5 155.4 163.6 170.3 174.5 181.3 184.3 178.4 174 172.3 170.2 169.4 167.8 164.8 161 155.9 148.8 143.3 140.5 137.2 131.4 121.6 108.4 92.5 72.8 48.5 29.3 23.5 19.7 19.4 18.9 18.5 18.3 18 17.7 19.8 18.1 18.9 18.2 18 18.6 18.7 18.5 21.8 26.8 27.5 28.4 28.4 29.5 31.8 32.9 33.1 33.7 34.5 36.4 37.2 38 39.7 38 35.7 34.6 32.9 30.8 29.5 28.4 27.9 26.6 25.1 22.8 19.7 19.8 22.9 26.1 31.4 36.8 41.9 47 52.2 55 57.8 60.4 62.7 65.4 67.7 69.6 72.6 74.4 76.7 81 88.6 97.1 102.1 104.9 110.6 115.8 121.7 128.2 133.6 139.8 145.9 152 158.2 166.2 175.9 177.1 177.9 177.3 178.1 178.6 177.7 180.2 179 176.2 180.8 183.9 191.5 191 192.4 192.9 191.5 189.7 186.4 183.8
61.2 58.4 65.5 71.7 74.1 76.7 80.3 82.1 82.6 83.1 77.8 70.5 62.1 54.3 49.6 42 37.5 36.6 35.9 37.9 45.6 49.9 50.1 46.8 43.8 41.5 38.7 37.4 40 43.3 45.4 45.7 45 44.5 43.8 41.7 41.6 39.9 38.6 36.2 34.3 32.1 30.1 28.7 28.7 28.7 28.7 28.7 29.2 30.7 33.3 33.6 35.5 37 37.7 38.9 42 53.1 61 67.7 75.7 84.8 92.2 97.6 100.8 103 102.1 100.9 100.1 100.6 101.5 105.4 112.5 118.5 124.2 131.7 139.5 146.9 155.6 164.3 172.7 178.5 186.6 187.5 180.6 176.2 175.2 170.6 171.7 172.4 170.8 165.7 161.2 155.9 150.8 147.8 143.9 138.9 129 115.8 100.1 79.8 55.6 36.2 22.1 18.7 19.8 19 18.4 18.1 17.8 17.4 17.6 19.2 18.1 18.6 18.2 18 19 19.4 19.2 23 25.8 25.8 26 26.7 27.5 28.6 29.8 30.4 31.2 33 34 34.1 34.1 32.8 30.8 29.4 28.1 26.4 24.9 25.3 24.9 23.4 22 20.9 19 18.5 22.3 27.6 33.9 39.3 44.5 49.6 53.8 56.5 58.9 61.2 63.1 64.6 66.5 68.4 70.1 71.9 73.8 76.3 83.3 92.8 97.2 99.5 104.8 109.9 115.2 120.6 129.7 135.8 142 148 154.9 164.1 173.7 178.8 179.3 179.4 180 181.3 181.9 180.7 180.2 183.1 187.8 190.5 194.1 196.8 195.9 195.4 194.6 192.4 190.2 189.3
78.6 74.2 73.3 78.9 79.1 76.6 77.5 78.1 79.2 77.9 70.8 65 57.4 50 42.9 38.5 36.6 43.8 47.6 51.4 56.2 58.9 60.7 58.2 54.3 49.8 43.8 42 45.5 48.2 50.4 50.8 50.9 50.3 49 45.9 43.5 41.3 39.5 36.9 35 34.9 34.8 34.8 40.3 42.3 36.6 32.9 30.3 28.7 28.7 28.7 31.4 34.7 36.2 39.5 42.5 47.6 54.3 60.2 66.4 73.5 80 83.6 85.3 87.2 86.7 82.8 86.9 92.4 94.4 102.3 111.7 119 124.9 130.7 135.6 144.7 153.9 162.5 172.3 181.2 186.7 186.2 179 177.7 176.8 176.7 176.5 175.4 171.9 168.2 167 162.8 159.3 153.5 153.4 149.7 139.3 124.2 108.2 89.3 72 52.6 37.6 24.4 20.1 19 18.3 18 17.6 17.3 17.2 18.2 18.2 18.7 18.4 18 18.4 20.2 17.5 19.2 22 21 25.9 25.7 25.1 25.7 26.9 27.1 27.6 29.1 28.6 29.3 28.3 27.6 26.7 25.5 24.8 24.2 22.9 22.8 22.5 21.6 20.5 19.4 17.1 19 23.3 29.1 35.1 39.9 44.9 49.6 53.7 56.3 58.8 60.8 61.3 63.6 65 66.8 68.4 70.5 71.3 73.2 77.2 85.6 94.4 96.2 99 104 108.9 114.3 121.5 127.9 135.1 144.5 153.1 162 170.3 175.5 181.3 181.3 181.7 181.9 181.5 180.7 184.5 187.2 189.8 192.9 199.6 201.8 200.2 198.1 197.7 195.2 193.2 189.8
91.5 88.1 86 82.5 78.2 75.1 74.5 73.9 70.8 68.3 62.1 56.4 49.3 42.1 36.7 40.1 47.1 54.3 58.5 62.7 65.1 72.8 73.6 66.2 60.8 56.1 51.6 50.4 51.5 51.7 52 52.8 53 52.8 49.8 46.7 43.7 41 39.8 39.3 41.2 36.4 38.4 39.7 42.4 43.5 43.3 42.7 38.3 33.2 31.4 29.3 28.8 28.8 33 37.5 41 45.6 50.2 54.3 58.6 63.9 67.9 70.6 70.7 71 72.5 69.3 77.1 83.3 89.9 97.5 106.5 115.5 122.3 127.6 131 138.8 146.9 156.7 167.7 179.2 182.5 180.6 177.9 178 177.6 178.4 178.2 175.9 171 172.2 174.6 172.3 170.9 168.2 166.3 161.8 152 138.9 122.8 106.7 88.4 71.3 54.3 39.3 28.7 22.9 19.1 17.8 17.5 17.3 17.1 17.3 17.7 18.2 18.5 18.1 18.6 19.2 18.1 17 19.3 18.7 19.5 20 24.7 24.8 24.9 25.2 25.4 25.1 25.5 26.3 25.4 24.8 24.4 23.8 23.2 22.4 21.7 21.6 21.5 19.8 18.4 17.9 16.2 18.4 23.5 28.3 33.4 38.7 44.1 49 51.9 54.4 57.1 58.2 59.8 61.8 64.1 65.7 70.3 69.6 69.3 69.1 71.8 76.9 88.3 93.3 97.4 101.3 104.7 108.9 113.8 121.3 128.8 138.6 149.3 157.2 164.7 171 177.1 178.7 179.2 180.2 180.2 180.5 186.1 188.5 190.9 200.5 207 206.8 204.5 201.9 200.8 197.7 192 187.7
100.9 94.8 91.8 87.3 81.3 74.9 70.7 67.7 64.5 59.1 53.1 49.1 42.2 39.9 45.9 51 57.9 63.6 67.9 71.6 76.3 83.5 85.7 72.3 65.9 60.4 58.3 55.2 53.5 53.5 53 53.9 52.7 52.1 47.8 48.4 46.9 50.7 55.7 57.3 65.4 65.1 56 56.7 52 51 47 44.1 41.6 36.8 33.5 32.4 29.3 29.3 29.3 30.9 37.2 39.7 42.9 46.6 48.8 54.5 57.4 56.5 60 61.8 61.9 61.3 65.1 72.9 78.3 82.9 98.3 108 114.5 120.5 124.8 128.5 129.2 144 157.3 168.8 175.2 175.9 176.7 177.8 177.7 176.7 176.6 178 180.8 183 182.9 182.3 181.8 181.3 179.4 174.5 165.6 155.3 150.1 131.7 103.9 80.3 64.1 47.6 35.1 27.4 21.9 17.7 17.4 17.2 17 16.8 16.8 17.8 18.2 18.2 18.2 16.9 16.7 16.9 16.1 18.2 17.9 18.5 24.1 24.2 24.2 24.4 24.5 23.7 23.9 24.5 24 23.5 23 22.5 22 21.3 21 21.1 20.9 19.3 18.3 16.6 15.6 18.1 23.2 27.3 32.4 36.6 41.6 46.4 49.6 52.4 55.1 55.7 58.9 59.5 60.8 62.5 65.7 68.8 67 67 69.4 71.2 78.2 89.1 92.4 95.3 99.3 102.1 106.8 116.9 123.6 133.3 143.3 152.1 159.4 167.1 173.3 174.6 174.6 175.9 177 177.4 181 184.6 189 196.1 206.8 210.1 208.8 205.8 199.8 195.5 190.4 188.6
108.1 100.8 94 85.9 77.5 66.9 62.5 61.2 56.6 51.4 48.4 45.4 44.8 53.2 59 62.9 68 71.3 73.9 76.7 80.4 86 84.5 77.2 78.6 68.1 64.1 61.6 58.7 55.8 54.1 54.3 53.7 57.9 62.1 65 67.1 70 72.3 69.5 67.8 66.6 63.4 60.4 57.8 56.2 50.4 50.3 47.4 42.1 39.2 37.4 31.6 29.3 29.3 29.3 29.3 34.5 38.9 40.8 42.9 45.5 48.4 46 49.9 49.9 50.2 51.6 55.7 63.1 70 77.3 90.4 98.7 103.7 109.1 114.5 117.9 121.2 131.6 144.7 156.3 163.8 169.3 173 175.8 176.3 177.6 183.2 188.1 192.4 193.1 190.2 188.5 189.1 188.1 189.7 186.4 183.6 184 176.3 147.5 108.7 81.9 62.9 44.6 31.1 27 26.3 21 17.3 17 16.8 16.6 16.8 17.9 17.3 15.9 16.6 16.4 15.9 15.7 15.3 18.1 17.3 17.5 18.5 23.7 23.1 23.2 23.1 22.1 21.5 22.7 22.7 22.2 21.7 21.2 21.1 20.2 21 20.9 20.7 20.8 20.2 18.5 16.4 16.7 21.1 23.4 27.1 32.7 38 42.4 45.9 49 51.5 53.7 55.7 57.5 58.8 59.4 61.5 64 62.5 64 66.9 68.6 70.3 73.3 81.7 86.2 90.9 93.9 102.5 112.2 118.7 130.4 138 143.8 150.5 160.1 165.6 169.4 171.3 172.4 173.5 174.4 176.5 181.2 185 187.8 196.4 198.1 200 196.5 194 191.2 186.6 185.7
109.4 100.9 89.3 78.6 70 58.8 57.5 55.4 52 51.5 50.8 49.5 57 64.3 68.9 72.2 73.4 74.9 77.6 80.1 79.9 79.9 90 79.6 73.1 69.7 67.4 65.2 63.1 64.1 65.7 66.5 70.1 73.4 76.6 79.6 80.4 85.9 86.2 79.4 74.2 67.6 61.8 57.2 54 51.1 49.6 48 46.8 42 38.8 45.4 42.3 37.9 35.5 29.3 29.3 29.3 35.8 38 37.8 38.2 40 38.4 38 37.8 37.3 39.8 46.3 55.3 63.3 73.2 82.8 90.4 94.9 98.1 102.5 103.8 107.1 115.1 128.6 141.1 151.4 159.1 165.7 171 176.5 188.7 198 201.5 200.2 197.5 191.8 192.5 198.5 202.9 205.7 203.6 208.8 202.9 181 141.7 101.1 74.4 55.3 35.4 25.5 25.4 25.2 24.5 16.6 17 16.5 16.6 16.8 17.6 16.4 15.8 16.3 16.4 15.8 15.5 15.2 17.4 18.1 17.4 16.3 18.5 17.2 18.9 20.3 20 17.6 17.8 17.4 19.7 21.5 20.5 20.5 18.6 19.8 20.9 18.8 20.6 20 19.8 18.4 15.8 15 19.6 23.4 27.1 33.2 37.3 41.4 44.7 47.4 49.9 51.8 53.7 55.2 56.6 58 59.2 58.5 59.7 62.9 64 65.1 67.5 71.8 77.5 82.7 90.2 96.8 102.7 112.8 119.9 127.5 132.3 142.4 155.8 164.9 166.7 166.5 168.2 168.6 170 173.4 177 176.9 181.3 186.7 191 190.6 188.3 186.1 185.2 182.5 178.5
107.8 97.1 83.5 72.5 61.1 58.6 60.6 61.4 60.7 59.5 56.9 59.6 67.6 73.7 76.1 78.5 79.6 80.6 81.6 81.4 78.8 78.1 76.8 75.8 78.4 78.9 81.5 82.3 84.2 84.4 83.9 84.6 85.3 85.9 87.8 92 90 86.1 86.1 82.6 80.8 82.6 83.8 79.3 67.9 59.7 49.5 50.1 44.5 40.4 40.7 38.8 39.1 36.6 32.8 29.3 29.3 29.3 31.7 31.6 29.3 29.3 29.3 29.3 29.3 29.3 29.3 29.3 28.8 41.6 51.7 59 70.9 78.1 82.7 86.2 88.4 88.9 93.4 98.7 109.3 121.5 133.5 144.2 154.5 164.9 178.7 193.9 202.7 204.4 203.2 201.5 200.1 206.6 214.8 220.8 222.8 220.9 218.2 191.7 153.3 120 93.3 64 43.4 27.7 25.1 24.9 24.6 24.2 18.3 17.5 16.5 16.7 16.9 16.6 15.5 15.8 16.2 16.3 15.5 16 14.9 16.2 15.9 15.4 15 14.8 14.7 14 13.8 15.3 13.8 13 12.6 11.8 14.1 20.6 20.1 13.9 12.2 11.4 12.6 12.4 14.9 15 16.3 14.9 14.2 15.9 20.4 24.3 28.6 33.3 37.2 39.9 43.8 46.2 48.1 49.4 50.8 52.3 53.1 53.7 53.7 55.5 57.6 58.6 61.3 63.9 66.1 70.7 75.1 81.9 90.1 95.2 99.7 107.8 115.2 120.4 130.1 147.7 164.6 168.3 168.1 167.9 169.9 170.2 168.5 173 177 177.5 178.5 183.9 183.1 180.8 178.6 178.3 176.5 173.5
104.2 90.8 77.7 68.1 61.8 61.9 68 69.7 69.3 69.2 66.4 71.3 77.5 81.8 82.7 83.3 84.1 84.6 84.4 81.3 78.4 79.4 81.1 86.1 90.9 93.6 97.2 102.3 105.4 101.4 96.9 95.6 96.3 93.1 95.1 93.5 90.1 87.7 86.8 90.7 96.6 97.4 95.1 86.2 77 70.7 63 58.1 50.7 42.9 39.8 38.6 35.8 29.4 28.4 29.3 29.3 29.3 35.1 29.3 29.3 29.3 29.3 29.3 29.3 29.3 29.3 29.3 29.3 29.3 42.9 45.8 51.2 60.2 60.7 68.9 72.8 75.7 80.2 85.5 93.2 99.6 111.8 123.7 136.6 152.1 168.6 192.4 196 199.2 203.2 208.6 218.9 231.2 240.5 244.6 232 231.5 210.2 157.3 130.2 106 80.4 54.3 33.2 26.2 25.2 24.4 24.7 25.1 19.4 18.2 16.8 15.9 16.7 16 15.8 16.2 16.5 15.5 15.7 15.6 14.8 14.9 15.9 14.8 14.5 14.2 14 13.5 13 13.2 13.2 12.6 12.9 12.3 12.4 14.7 16.1 13.9 13 11.7 11.6 11.4 11.7 11.4 12.2 14.2 14.3 14.4 18.8 22.1 24.6 29.2 33 35.7 39.6 42.2 44.2 44.7 46.3 46.1 48.2 48.9 48.9 51.3 52.4 54.5 57.2 58.8 61 63.2 69.1 74.3 79 84.9 90.1 97.2 101.1 109.5 116.7 130.6 150.3 160.8 162.8 161.6 164.4 165.4 163.6 166.3 174.4 175.8 174.9 174.4 174.6 175 174.3 174.7 175.9 175.4
98.2 85.1 70.5 71.3 70.2 72.4 75.8 76.4 76.5 78.3 79.7 80.9 83.4 87.1 87.1 87.4 86.7 86.1 86.4 84.4 86 89.3 94.7 99.6 104.8 106.6 108.9 113.3 117.2 111.1 106.6 102.8 100.1 98.8 94.4 93.7 94 94.1 96.5 99.9 106.5 103.6 98 89.1 82.5 77.2 68.8 62.1 56.4 45.3 40.4 29.3 30.6 38.7 37 34.3 30.8 34.2 30.8 29.3 29.3 29.3 29.3 29.3 29.3 29.3 29.3 29.3 29.3 29.3 29.3 38.6 44.8 44.4 46.1 49.1 52.2 55.2 61.3 68.5 74.9 81.2 84.2 94.6 112.3 131 149.3 168 182.9 189.3 200.2 213.9 231.6 242.3 252.1 254.7 241.4 235 173.5 137.9 113.2 87.9 65 41.6 27.7 26.5 26 25.5 25.6 25.6 19.8 18.1 17.4 16.6 16.5 16.4 16.2 16.1 15.8 15 14.9 15.1 14.5 14.5 14.3 14.6 14.3 14 13.7 13.6 13.6 13.4 13.3 13.7 13.8 12.8 12.1 12.1 12.1 12.1 10.8 10.8 10.8 10.8 10.8 10.1 10.2 11.7 13.6 15.1 18.9 21.2 23.1 25.2 28.3 31.5 35 37.8 39.7 40.9 41.1 42.5 43.1 43.9 44.8 45.6 47.2 49.4 50.9 52.6 55 56.3 59.5 63.3 68.3 75.2 80.3 84.4 90.6 99.3 105.4 114.4 126.4 138.7 145.5 151 155.3 159.5 159.1 161.9 167.9 171.1 172.4 171.4 170.3 169.3 169.8 161.8 156.7 150.9
91 81.8 80.2 78 81.7 82.2 80.4 80.6 82.1 85.8 87.7 90.6 94.9 94 89.4 86.8 86.4 86.9 90.5 94.6 98 99.7 104.2 116.1 126 123.8 121.5 116.9 115.4 111.5 110.5 110.2 100.1 97.8 101.6 100.5 104.7 103.2 102.7 105.1 104 95.2 88.3 87 87 77.6 73.4 58.9 47.7 43.7 43 49.2 45.8 46.1 40.9 35.1 34 36.8 39 34.8 30 29.3 29.3 29.3 29.3 29.3 29.3 29.3 29.3 29.3 29.3 29.3 37 37.3 37.1 36.4 35.6 37.6 39.5 46.9 51.8 56.5 63.5 72.2 84.9 104.8 124.3 143.3 159.4 173.9 188.9 207.9 226 234.7 235.9 236 233.6 192.9 156.3 123.8 94.3 70.1 48.6 33.5 26.2 25.9 25.7 25.5 25.9 26 20.2 18.4 17.9 17.4 16.1 15.6 15.2 15.1 15 14.6 14.5 14.4 15.3 13.9 15.4 14.9 14.6 14.2 13.9 13.6 13.5 14 14.5 14.6 13 12.1 12.1 13.3 13.4 13.2 11.7 12.5 11.1 10.9 11.3 10.9 10.5 10.4 10.2 12.6 13.9 16.3 21.6 22.2 24.7 27 30.3 33.3 34.3 36.1 36.7 37.9 39.2 40.6 41.3 42.5 44.4 46.1 47.9 48.8 49.6 50.9 51.5 53.8 58.7 65.4 70.1 75.2 79.6 86.7 93.3 100.5 108.6 117.4 125.8 135.2 148.5 158.2 168.9 170.1 169.1 169.3 170 168.5 167.7 154 149.6 142.2 133.9 129.1
95 95.1 91.2 90.9 91.8 89.2 84 84.7 89.4 93.6 97.5 101.9 97.8 96.5 92.4 90.7 93.5 97.6 101.1 105 110.9 112.9 114 125.9 126.5 126.7 122.4 120.3 115.9 116.2 109.8 103.2 100.2 100.3 102.1 106.4 103.5 105.2 111.6 101.3 96.1 92.3 87.4 84.5 77.4 80.1 69.5 65.3 59 54.9 58 55 48.9 45 42 45.6 43 41.6 38.2 35.3 29.3 29.3 29.3 29.3 29.3 29.3 29.3 29.3 29.3 29.3 29.3 29.3 29.3 29.3 29.3 29.3 29.3 29.3 29.3 29.3 29.3 32.3 43.6 54 66 78.7 94.9 115.3 135.1 151.7 167.3 184 207.5 219.6 219 211.7 201.6 173.4 140.6 109.4 77.5 55.7 40.6 32.4 26.2 25.9 25.2 24.9 25.4 25.4 18.8 17.7 17.4 17.1 15.8 15.9 15.4 15.7 15.4 15.2 14.8 14.6 14.1 13.9 14 15.1 14.8 14.4 14 13.8 13.6 13.4 13.9 14 12.1 12.3 12.2 12 11.8 12.4 11.9 11.4 11.2 11.1 10.9 10.7 10.5 10.6 10.6 10.2 10.2 16.3 16.1 18.6 21.9 23.7 26.4 28.9 29.7 31.3 32.3 33.3 34.4 36.2 36.7 38.3 40.5 42.5 44.5 45.5 45.5 47 47.8 48.6 50.5 54.8 62.2 64.3 69 74.7 81.1 87.8 94.7 102.3 109.9 118.4 128.3 137.5 155.5 159.2 162 163.2 161.8 144.9 137.2 132.8 126.4 119 116.1 112
110.3 107.8 104.2 102 100.3 98 93.9 94.4 96 101.3 104.7 102.4 101.4 98.8 99.1 102.5 105.4 107.6 110.9 118.5 123.8 126.5 123 123.6 122.8 121.7 123.3 121.1 119.1 120 111.8 102.8 106 106.2 102.7 102.7 101.5 100.9 99.1 97.8 93.5 95.4 83.6 86.8 86.5 84.9 76.2 79.9 75.4 73.3 70.5 62.6 50.7 50.7 51.7 53.6 45.7 40.7 36.5 35.3 29.3 29.3 29.3 29.3 29.3 29.3 29.3 29.3 29.3 29.3 29.3 29.3 29.3 29.3 29.3 29.3 29.3 29.3 29.3 29.3 29.3 29.3 29.3 36 47.2 61 75.4 88 107.8 125.3 140 151.6 174.3 192.2 201.8 190.9 175.2 147.3 121.1 92.9 65.5 53.6 42.3 34.7 25.7 25.6 24.6 24.3 24.8 23.8 18.4 17.9 17.4 16.6 15.6 15.7 15.2 15.2 15.5 15.4 14.4 14.8 14 14 13.9 15 14.5 14.6 14.3 14 13.8 13.6 13.4 12.1 13.4 12.8 12.8 13 12.3 12.2 12 11.8 11.6 11.5 11.1 11.1 10.9 10.5 10.5 10.4 10.8 10.2 11.7 15.4 17.5 20.4 23.8 24.1 25.9 27.5 27.8 28.7 29.7 31 31.2 32.7 35.7 38 40 41.5 42.3 41.5 42.6 44 46.1 47.8 50.7 55.8 58.5 64.1 68.1 75.3 80.5 84.2 91.4 97.2 99.9 104.7 104.4 114.5 110 109.2 112.2 112.4 109.6 107.1 103.4 100.4 99.7 98.5
123 118.6 113.9 110.5 108.5 109.3 104.9 102.6 102.8 106.5 109.6 112 110.9 112.7 113.6 114.4 119.8 121.8 120.9 125.2 128.4 126.4 125 123.8 123.1 120.3 119.5 121.2 120.5 118.2 109 104 106 105.5 106 103.3 102.5 101.7 98.2 89.6 87.4 88.8 93.2 90.3 85.8 82.2 81.6 81.7 75.8 73.8 69.9 63.6 54.5 55.4 50.9 45.3 44.6 44.3 39 32.9 29.3 29.3 29.3 29.3 29.3 29.3 29.3 29.3 29.3 29.3 29.3 29.3 29.3 29.3 29.3 29.3 29.3 29.3 29.3 29.3 29.3 29.3 29.3 29.3 29.1 41.1 56.8 70.4 80.4 97.4 112.2 123.3 145 161.3 172.6 164.6 152 119.1 95.7 73.7 61.3 53.5 42.4 31 24.8 24.7 24.1 24.2 24.5 23.7 18.4 17.8 17.2 16.4 15.9 15.3 15.1 15.5 14.8 15.2 14.2 14.6 14.7 13.7 13.9 15 14.4 14.9 14.1 14.2 14 13.9 12.7 13.1 12.8 12.3 13.4 13.6 12 12.2 12.3 12.2 12.1 11.7 11.3 11.5 11.3 10.6 10.4 10.4 11.3 10.5 10.3 12.2 11.9 16.3 17.9 20.3 22.2 23.9 23.7 24.5 25.7 26.7 26.2 27.6 29.8 32.9 34.5 35 35.6 36.6 37.2 39 40.7 42.6 44.3 46.2 48.1 51.7 54.3 59.2 62.8 66.6 69.6 72.9 74.6 75 75.6 79 79.8 77.2 79.4 81.3 80.2 81.2 83.2 84.3 86.1 87.7
127.9 124 119 113.9 111.7 110.6 109.7 108.8 112.2 115.5 119 123.6 122.4 125.2 128.3 131.3 130.4 128.5 126.3 126.1 127.2 127 127.2 124.7 123.3 124.8 122.7 119 119.2 120.5 118.6 113.6 109.4 109 105.2 103.3 101.7 98.3 92.7 90.3 94.6 95.6 95.8 92.7 89.2 88.9 82.3 75.9 69.3 62.7 58.2 54.3 51.4 50.4 46.3 41.5 37.6 39.1 31.8 29.3 29.3 29.3 29.3 29.3 29.3 29.3 29.3 29.3 29.3 29.3 29.3 29.3 29.3 29.3 29.3 29.3 29.3 29.3 29.3 29.3 29.3 29.3 29.3 29.3 29.3 29.3 38.4 47.8 57.2 70 85 97.5 115.9 129.4 145.1 143 116.8 91.1 73.7 63.3 54.4 45.7 35.9 26.6 24.4 24.2 23.9 23.6 24.4 22.1 18.2 17.5 16.8 16.2 16.2 15.3 15 15.3 14.4 15.3 14.6 14.7 13.8 14 14.6 14.3 15.4 13.8 13.4 13.1 13.9 12.5 13 13.4 13.9 14.1 13.6 12 11.1 11.6 10.4 11.5 12 10.8 11.9 12 11.6 11.8 11 11.6 11.3 12.1 10.3 10.2 10.2 10.2 10.2 15 18.6 20.5 20.5 21.2 22.5 22.7 23.3 24.3 25.3 26.7 27.9 28.4 30.5 30.4 31.3 32.8 33.6 33.5 36.3 38.3 40.9 44.2 47.9 50.1 51.3 53.7 55.9 57.8 57.9 59.2 60.4 61.7 62.2 63 64.7 66.8 68.6 69.9 72.9 75.1 79.3 80.9
129.8 132.1 127.4 113.7 112.1 110.5 110.9 115.1 119.7 124.2 126.2 127.9 131.9 138.2 139.2 135.9 136.6 130.4 133.7 134.8 132.2 129.6 126.5 126.4 123.1 123.3 124.8 124.1 124.5 121.6 123.7 119.3 115.9 110.8 105.2 98.3 95.5 93.8 97 100.2 101.9 100 96.7 91.7 85.8 81.1 75.1 69.6 61.6 54.2 54.9 55.3 52.6 43.8 35.9 37.6 39.4 34.9 40.6 35.8 41.7 42.6 38.2 32.5 29.3 29.3 29.3 29.3 29.3 29.3 29.3 29.3 29.3 29.3 29.3 29.3 29.3 29.3 29.3 29.3 29.3 29.3 29.3 29.3 29.3 29.3 29.3 29.3 32.8 45.1 60.1 74.4 87.8 100.4 116.6 116.1 83.2 76.9 69.9 62.3 51.7 42 30.8 24.9 24.6 24.3 24 23.9 23.9 24.5 18.1 16.8 16.6 16.3 15.7 14.8 15.3 15.5 15.5 14.4 14.4 14.7 14.3 14 13.9 12.7 15.6 13.7 13.1 13.1 13.3 12.5 13.7 13 14 13.8 13.1 11.6 11.4 11.9 11.6 11.1 10.6 11 11.2 10.7 11.3 11.8 11.3 11.8 11.4 11.9 11 10.2 12.4 11.2 10.3 10.2 10.7 15.7 16.3 15.9 16.5 17.9 20.3 19.3 19.5 22 22.8 21.4 20.3 22 22.9 24.1 25.3 25.6 26.6 29.2 31.7 34.8 38.8 42.4 42.5 45.4 48.5 49.8 50.9 53.3 53.3 53.2 53.6 54.6 56.6 58.2 60.9 64.5 66.7 69.4 71.2 73.4
140.3 140.2 143.1 129.1 120.7 117.1 114.9 121.3 126.5 134.8 139.8 139.8 142.1 143.3 143.2 141.4 135.8 136.8 139.4 134.8 131.9 130.6 128.2 128.5 130.4 135.4 132.8 127.9 128.7 130.5 123 120.5 123.3 113.6 105.7 100.4 103.4 104.6 106.4 112.9 107.8 101.8 92.1 86.1 86.9 82.8 74.7 68.8 65.1 62.1 66.2 61.7 58.4 53.2 40.7 46.4 48.6 49 50 49.3 52.1 47.2 45 37.9 29.3 29.3 29.3 29.3 29.3 29.3 29.3 29.3 29.3 29.3 29.3 29.3 29.3 29.3 29.3 29.3 29.3 29.3 29.3 29.3 29.3 29.3 29.3 29.3 29.3 29.3 35.8 53.3 66.2 80 91.8 86.5 63.8 59.4 58 53.8 47.6 36.8 27.9 24.5 24.6 24.3 24.1 23.9 24 24.6 18.3 16.9 16.1 16.2 15.6 14.8 15 15.2 15.3 15.6 14 14.4 14.2 14 13.7 13.4 12.9 15.5 14.7 14.6 13.1 12.7 13.1 12.4 12.7 12.9 12.4 12 12.1 11 11.2 11.4 11.3 11 11.6 11.2 11.9 11.5 11.3 11.3 10.8 10.6 9.5 9 13.1 12.3 12.2 11.4 10.3 10.5 10.3 10.2 10.1 11.1 12.4 13.8 14.2 15.3 15.1 13.2 12.4 12.6 13.5 15 16.3 17.6 18.7 21.9 25.7 27.5 29.6 32.6 33.5 38.1 39.3 40.8 42.9 46 46.2 46.6 46.7 48.5 50.2 52.8 55.9 58.8 61.3 63.6 64.8 67.5
155 153.4 149.3 137.2 127.1 122.2 124.4 130.5 137.6 145.7 150.2 151.2 149.9 149.1 150 151 150.5 143.5 141.7 138.1 139.7 140.6 141.2 140.3 138.4 137.9 133.4 131.5 127.1 124.8 122.9 123.8 119.5 111.4 111.6 114.1 116.6 110.7 109.8 108.3 107.8 100.8 100 95.9 94.3 82.4 80.2 74.4 69.6 69.4 70.2 69.1 61.5 54.2 54.8 57.7 58.5 57.9 57.7 57.3 54.2 48.5 42.2 39.6 32 29.3 29.3 33.2 38.6 36.7 33.5 29.3 29.3 29.3 29.3 29.3 29.3 29.3 29.3 29.3 29.3 29.3 29.3 29.3 29.3 29.3 29.3 29.3 29.3 29.3 29.3 29.5 47.4 59.9 68.8 66.5 52.2 44.2 43.2 38.6 35.1 30.3 25.2 24 24.3 24.4 24.1 23.8 24.5 23.5 18.1 16.3 15.9 16 15.9 14.8 15 15.2 15.3 15.3 14.8 13.3 13.6 13.5 13.4 13.6 13.4 13.2 12.7 12.7 14.4 13 13.1 12.4 12 12 12.2 11.4 11.2 11 11.8 12.9 12.7 12 11.1 11.9 11.7 11.4 11.3 11.6 12.2 10.5 9.5 9 13 13.1 13.1 12.8 11.2 11.6 11 10.3 9.6 9.6 9.5 9.2 9.6 10.7 10.3 12.4 12.1 11.4 10.5 10.6 10.4 10.3 12.4 14.1 18.5 21.5 23.5 25.6 26.2 29.2 30.2 31.2 33.5 35.1 36.4 37.5 39.7 41.8 43 46.4 49.5 52.8 55.9 57.8 59.3 61.9
158.7 152.6 147.3 140 137.6 138.7 136.6 141.4 150.3 151.6 156.3 157.2 159 159.2 158.1 155.1 148.5 146.8 145.7 144.8 147 150.4 149.7 145.4 143.1 138.4 136.6 132.3 130.4 128.3 126.7 121.1 120.2 124.5 121.2 118.1 110.5 109.8 110.5 107.2 102.7 101.5 102.8 93.9 89.9 79.3 76.6 77.7 78 76.1 79 68.4 63.1 67.3 66.5 67.6 66.2 64.9 63.3 60.2 55.1 52.2 48.4 38 39.9 42.5 42.7 42.3 41.1 39.3 36 29.3 29.3 29.3 29.3 29.3 29.3 29.3 29.3 29.3 29.3 29.3 29.3 29.3 29.3 29.3 29.3 29.3 29.3 29.3 29.3 29.3 29.3 41.3 52.1 54.8 42.1 33.8 31.4 29 28.2 25.7 23.6 23.9 23.8 24.1 24.1 24 24.8 20.3 18.1 15.7 15.7 15.7 15.8 14.8 15 15.2 15.3 14.9 14.9 14.7 14.1 13.1 13.1 13.7 13.8 13.4 12.9 13.1 13.1 12.4 12.3 12.1 12.8 12.2 12.1 11.9 11.4 11.5 12.3 12.9 13.1 12.9 11.6 12.2 11.9 11.5 11.3 11.5 12.2 12.4 10.3 9 12.5 12.9 12.6 12 11.4 11.7 11.6 11.4 10.8 11.8 10.1 9.7 9.6 9.6 9.7 9.6 10.2 12.1 12.6 11.8 11.5 11.6 11.5 10.6 12.4 14.4 16 18.3 20.6 21.3 22.9 23.4 24.7 23.7 24.6 25.2 27.4 31.6 36.2 39.3 42.5 46.2 49.5 51.8 53.2 55.7
162.2 159.1 160.6 159.8 155.5 155.3 143.3 150.1 156.3 162.4 167.2 164.9 167.1 166 162.8 157.3 153.3 151.4 151.7 151.7 151.7 152.8 149 145.8 144.1 141.9 142 140.5 136.4 126.7 128.5 129.8 130.4 124.9 116.9 112.8 111.6 110.3 113.4 111.8 109.4 102.6 96.2 92.7 90.4 87.4 80.8 84.6 86.6 79 78.2 79.8 77.7 79.6 77.6 74.9 72.1 69.2 70.2 67.6 68 63.3 54.1 46.1 50 51.2 49.4 45.5 42 39.9 36.3 34.7 28.9 36.1 42.8 41.6 38.2 35.3 30.1 31.9 29.3 29.3 29.3 29.3 29.3 29.3 29.3 29.3 29.3 29.3 29.3 29.3 29.3 20.2 33.8 40.6 35.6 27.1 27.7 27.3 25.5 24.2 24.9 26.2 24.8 24.7 24.4 23.6 24.4 21.6 17.9 15.6 15.5 15.5 15.5 15 15 15.2 14.9 15.1 15 14.8 14.1 14.3 13.8 13.3 13.3 12.7 13.3 13.4 13.4 12.4 12.1 12.9 12.8 12.7 12 11.7 11.4 11.6 12.6 12.8 12.7 12.3 12.3 12.5 12.5 12 11.4 11.5 12 12.4 10.7 9 11.4 12.7 11.9 10.9 10.8 10.7 10.6 10.4 10.8 12.7 12.2 11.9 11.4 9.9 9.7 10 9.3 9 10.1 11.9 12.4 11.6 11.2 9.6 9.9 11.5 12.3 12.9 12.6 14.1 14.5 14.6 16.9 17 15.4 18.5 21.5 24.9 28 30.4 33.7 38.3 42.6 44.9 46.2 47.4
182.4 178.8 175.7 169.8 165.6 162.4 151.9 160.6 167.5 173.4 175.9 169.9 169.2 164.4 162.2 162 160.6 156.2 155.2 155 154.1 152.3 151.5 150.8 146 145.3 143.5 135.6 138.1 134.9 131.3 128.5 124 118.7 115.1 112.8 111 110.3 115 112.4 105 97.2 93.7 94.5 94.3 95.1 90.4 90.4 86.3 92.8 95 95.7 94.7 89 86.2 84.1 83.9 85.5 83.4 83.2 81.3 74.3 64.9 58.8 59.6 58.1 54.9 48.3 44.1 40.8 44.4 44.4 45.9 45.2 46.8 46.1 44.7 41.5 38.1 38.6 37.9 35.2 31.3 29.3 29.3 29.3 29.3 29.3 29.3 29.3 29.3 29.3 13.8 13.8 13.8 22.1 23.1 20.8 20.2 23.5 24.7 26.8 27.1 27 26.4 25.8 25.2 24.1 24.1 21.1 17.5 16.4 15.8 15.2 15.3 15.3 15 14.9 15.2 15.2 15 14.8 14.6 14.4 14.2 13.9 13.4 12.6 13.2 13.3 13.4 13.2 12.5 12.8 12.8 12.6 11.5 11.3 11.2 11.6 12.3 12 11.7 12 12.8 12.4 13 12.4 11.6 12 12.2 13.2 9 10 12.2 11.3 10.5 10.6 10.7 10.7 10.5 10.4 10.9 12.3 11.2 10.2 10.8 10.7 11.7 12.6 12 9.3 9 10.7 12 10.9 9.6 9.5 9 9 8.7 8.8 9.6 11 10.8 11 12.1 12.7 12.9 13.2 15 18.8 21.4 23.2 26.3 28.1 33.9 37.6 38.9 38.5
197.3 190.6 182.8 174.6 174.4 175.4 162.7 170.6 178.6 184.3 180.6 176.8 175.4 170.1 169.6 168.7 165.9 164.3 162.4 158.9 157.3 157.6 156.3 153.1 143.9 144.3 145.6 144.1 141.1 136.2 129.1 126.5 126 120 115.7 112.6 109.5 109.9 108.5 105.5 101.2 99.4 97.1 96.9 98.7 95.1 92.8 94.9 96.7 99.9 100.7 98.5 99 101.3 101.2 98.7 101.4 104 102.7 99.5 92.6 84 71.5 69.2 64.9 64.4 61.3 58.3 57.8 57.4 57.8 57.5 55.7 53.5 50.7 50 49.2 48.4 45.8 44.1 44.3 41.7 38.3 29.3 29.3 29.3 29.3 29.3 29.3 29.3 29.3 29.3 22.3 23 20.7 13.9 13.9 13.9 13.9 18.2 21.1 21.2 20.6 20.1 20 20.1 20.6 24 24.5 20.4 18 17.1 16.6 16 15.4 15 15 15.2 15.4 15.2 15.1 14.5 14.3 14.6 14.3 13.8 13.1 13.1 12.5 12.9 13.2 12.6 11.9 12 12 12.2 11 11.5 11.5 11.1 10.9 11 11 11.1 12.6 12.6 13 12.5 11.9 11.7 10.5 9.2 9 11.7 11 10.9 10.7 10.5 10.4 10.5 10.5 10.4 11.2 12.4 10.8 10.2 10.2 10.9 12 12.9 13 11.7 9.5 9 9 10.1 10.5 9 9.3 11.5 12.2 10.2 9.6 9.6 9.6 9.6 9.5 10.1 10.8 11.3 11.7 12.8 13.6 18.2 21.8 23.5 25.3 26.8 30 30.7
211.9 206 199.3 188.8 181.9 180.1 171.2 180.8 187 187 182.3 183.4 184.5 182.7 178.3 175.5 171.8 168.8 167.2 165 161.1 155.3 150.4 151.8 154.5 155.1 149.6 145.9 139.7 134.6 131.3 128.9 128.6 121 119.6 114.8 111.1 108.2 106.8 107.8 108.6 106.4 102.4 101.4 100.2 99.5 101.7 103.2 104.3 106.5 105.9 106.8 113.1 112 110.8 115.8 119.3 120.3 118.5 111.2 101.5 91.2 83 78.8 77.1 70.5 74.9 74.6 76.1 74.8 75.7 75.8 71.9 66.2 61 55.9 55.3 55.5 54 52.3 50.8 48.1 41.4 32.3 29.3 29.3 29.3 29.3 29.3 35 36.3 33.6 32.6 37.9 31.8 25.3 19.8 15.2 13.9 13.9 13.3 17.7 19.8 19.9 20.2 20.5 19.7 19 20.5 18.4 18.6 17.9 17.3 16.8 16.2 15.5 15.4 15.4 15.5 14.8 14.2 14.1 14.2 14.7 14 13.3 13.8 12.7 12.7 12.9 12.5 11.9 12.3 11.7 11.9 11.1 11.1 12.1 11.7 11.1 10.7 10.7 10.8 11.2 11.6 13 12.6 12.2 11.8 13 9.1 9.2 12.8 11.6 11.6 11.6 11.3 11.1 10.9 10.7 10.5 10.3 11.3 12.4 10.1 10.2 10.2 10.7 11.8 13.1 12.4 12 12 9.9 9 9 9 10.7 11.2 12.1 11.9 11.6 12.6 9.6 10.6 10 9.5 9.1 9.2 9.5 9.7 10 9.4 9.1 12.5 17.8 18 20.1 23.7 24.2
229.5 222 214.4 204.7 189.7 178.3 182.6 189.3 192.6 192.6 190.7 190.4 189.2 187.8 184.1 179 175.3 175.4 176.3 171 160.4 162.6 167.1 167.1 165.5 161.6 156.6 152.4 145.9 143.2 142.5 136.2 135.5 129 119.5 114.2 111.3 111.2 112.1 114.5 114.3 106.5 103.9 105.5 106.3 109.2 111.7 112.8 113.5 116.9 119.1 120.7 116.9 119.5 124.5 126.4 130.3 129.8 127.8 120.6 108.5 102.5 99.9 98.1 94.9 92.9 96.8 100.4 103.1 102.5 101.7 96.7 90.8 85.8 81 71.9 69.8 64.6 58.9 57.3 55 50.2 44.7 37.9 31.1 29.3 29.3 29.3 29.3 29.3 36.7 37.4 37.4 38.4 38.9 33.2 28.3 23.6 20.5 19 13.8 13 13 17.3 19.2 19.4 18.7 17.9 18.5 17 17.7 18.5 17.8 17.2 16.5 16.5 16.2 15.9 15.6 14.9 14.9 15 14.9 14.9 14.3 14.4 14.1 14 13.2 12.5 12.8 12.7 12.6 11.5 11.3 11.3 11.5 12.2 11.7 11.1 10.9 10.7 10.9 11.3 11.7 12.1 11.8 11.9 12.8 9 9.4 12.7 12.1 12 12.1 12 11.7 11.4 11.1 10.8 10.5 10.2 11.2 12.3 10.2 10.2 10.3 11 12.4 12.7 12.3 10.4 10.8 10.8 10.5 10.9 10.7 10.6 11.1 11.6 12.1 11.6 11.2 11 9.4 10.4 9.9 9.2 10.5 10.2 9.7 9 9 9 9 9 9 12.8 16.3 17.8
242.5 236.2 228.7 216.4 202 186.6 191 202.6 203.9 200.7 199.4 199.1 194.1 191.6 190.9 186.4 182.1 177.1 169.8 172.6 174.8 177.8 176.6 175.7 172.3 163.9 157 152.6 151.3 150 148.9 141.7 133.9 122.5 121.3 121 121.6 120.5 120.3 118.6 116.7 113.4 118 117.8 119 122.4 123.9 125.6 127.1 128.9 129.3 130.3 132.3 135.3 136.1 136.2 133.5 132.8 129.8 125.9 125.6 124.2 125.3 124.6 124.8 125.7 129 131.4 131.6 129.9 124.5 120.9 117.8 112.3 104.2 93.4 85 76.6 69.1 65.5 61.2 55 47.6 42.6 39.9 34.6 31.2 29.3 29.3 29.2 39.2 41.1 41.4 45.4 44 38.1 32.6 29.1 28.1 25.5 22.8 20 16.8 13 13 13 14.6 16.2 16.3 15.4 16.2 16.4 16.9 17.5 17.2 16.8 16.6 16.4 16.2 15.2 15.2 14.5 15.3 15.4 15 14.6 14.4 14 14.1 12.2 12.2 12.1 11.9 11.5 11.5 11.8 11.7 12.3 12.2 12.1 11.5 11.6 11.4 11.6 12.1 13 10.7 9 9 11.8 12.1 12.2 12.2 12.1 11.9 11.7 11.5 11.2 10.9 10.6 10.3 10.2 10.7 12.2 11.6 11 10.4 10.3 12.2 11.9 11.4 10.9 10.1 10.6 9.9 10.4 10 10.7 10.9 11.6 11.7 11.3 10.9 10.9 9.6 10.6 11.3 11.4 11 10.5 11 9 9 10.8 10.9 11.8 9 9 9 10.5
255.6 249.3 238.4 229.3 219.2 200.8 202.5 211.2 212.5 207 203.8 203.7 201.2 200.5 198.2 192.9 179.2 182.6 185.9 184.3 184.1 189 185.3 180.1 170.1 156.5 153.9 151.1 148.5 146.8 141.5 134.6 126.3 123.4 125.1 125.3 127.7 127.5 123.9 122.8 125.5 128.2 128 127.3 129.4 133.7 136.1 138.8 139.1 141.8 138.8 143.1 143.1 144.4 144.6 144.8 143.8 147.2 147.6 148.8 149 151.7 153.6 156.5 158.2 156.6 158.2 159 156.8 155.2 152.7 149.3 144.6 137.2 126.4 112.1 101.4 89.1 78.2 69.9 63 57 52.6 50.7 43.4 38.1 30.5 29.3 29.3 29.3 29.9 31.9 42 47.5 45.8 37.7 36.2 35.3 33.3 31 26.8 25.3 23.8 21.5 18.6 15.5 13 13 13 12.6 12 14.8 14.7 15.1 15.7 16.3 16.1 15.8 15.5 15.6 15.2 15 15.2 15 15.1 14.9 14.6 14.2 14 12.6 12.8 13.7 13 11.3 11.1 11.8 12.5 12.1 11.8 11.3 11.3 11.6 11.9 12.6 11.7 9 9 10.1 13.6 12.8 11.8 11.9 11.9 11.8 11.6 11.4 11.3 11 10.8 10.5 10.2 10.1 10.3 11.1 10.8 10.3 10.3 10.2 10.6 11.3 10.8 10.2 10.5 11 10.3 9.6 10.5 10.8 11.3 12 13.2 11 10.8 10.7 9.6 10 11.2 11.2 9.9 9.3 8.7 9.2 10.4 10.7 11.3 10.8 10.6 11.3 9 9
275.9 268.1 257.7 248.4 234.3 212.4 215.6 222.4 222.5 216.8 213.3 211.4 209.5 204.6 202.7 192.3 194.6 193 193.4 192.6 191.7 190.5 183.5 176.5 164.8 158.2 154.7 147.4 144.2 139.8 135.9 132.7 132.4 129.9 131.2 131.2 131.1 131.7 135 139.6 139.8 139.1 140.6 141.8 142.5 145.2 148.6 150.2 150.9 152.1 151.4 154.9 154.9 156.6 156.3 159.6 161.2 165.4 170.4 173.2 177.7 183.1 191 193.1 189.3 185.7 184.9 182.9 178 175.1 176.9 174.9 169 160 148 133.5 118.6 103.9 89.2 78.6 72 64.5 57.8 53.5 48.7 42.2 34.1 29.3 29.3 29.3 29.3 29.3 39.9 45 45.2 41.7 45 47.5 42.6 36.5 30.8 27.8 26.6 25.2 23.5 20.1 18.4 18.6 16.5 13.6 12.2 12.1 12 14.5 14 13.9 14.2 14.5 14.6 14.9 14.5 13.6 14.5 14 13.5 14 13.5 13.1 13.6 12.9 12.1 13.1 12.5 12.2 11.6 12.3 12.7 11.8 12.6 12.6 12.8 11.6 9 9 9 11.7 14 13.1 12.1 11.7 11.4 11.4 11.5 11.5 11.3 11.2 11 10.8 10.5 10.3 10 10.2 10.9 9.5 10.3 10.2 10.1 10.1 10.2 10.6 10.2 10.5 10.8 11.1 10 9.8 10.9 11.5 12.1 12.7 12.2 11.2 11.2 11.2 12.6 9.6 9.5 9.6 9.7 8.5 11.1 11 10.2 10.8 11.2 11.1 9.9 10 11 11.4
289.7 282 272.1 261 246 224.5 228 231.6 229.3 223.5 219.2 216.4 213.6 207.6 201.6 205.3 201.2 198.4 197.2 195.8 190.5 182.8 178.9 172.5 162.9 161.7 152.5 146.2 140.9 139 140 137.5 139.4 139.1 140.3 140.7 142.1 143.6 145.5 147.3 149.6 151.1 151.3 154.3 154.6 155.6 160 160.2 162.2 164.3 161.6 165 160.2 166.7 172.1 174.5 180.9 186 193.6 202.4 214.5 230.3 239.7 238.7 225 210 203.9 196.3 197 195.1 197.4 195.6 189.2 180.1 168 150.5 136.4 121.9 105.2 91.4 80.3 70.8 61.8 57.9 52.1 45.5 38.4 30.9 29.3 29.3 29.3 29.3 38.5 41.3 41.8 43.2 50.1 52.3 48.9 42 35.5 32.6 30.3 28.9 26.2 24.6 23.1 22.3 20.2 18 16.5 14.6 12 12 12 12 13.6 13.6 13.8 14.1 13.7 12.6 13.5 12.7 13.5 13.2 13.6 12.4 13.2 12.6 12 12.3 12.3 12.9 12.3 12.9 12 9 9 9 9 9 12 10.3 13.6 13 12.5 12 11.8 11.6 11.4 11.2 11.1 11.2 11 10.9 10.7 10.5 10.3 10 9.9 9.8 10.4 10.1 10 9.9 9.9 10 10 10.1 10.2 10.4 10.6 10.6 9.9 10.2 10.2 10.9 11.8 12.3 11.5 11.6 11.5 11.5 12.4 12.2 12.4 10.9 10.8 10.6 11.3 11.3 10.2 11 10.4 9.5 9.2 8.9 9.5 11.4
307.3 297.9 288 274.4 260.9 240.8 234 234.7 231.9 232.1 227.1 222.8 213.8 213.3 208.2 205 203.2 199.7 195.3 189.4 183 178.5 178.3 173.4 167 160.9 153.3 144.4 140.7 142.2 143.6 145.4 148.6 148.1 148.5 149.1 152.1 154.5 156.2 159 160.2 161.2 161.4 163.6 165.1 166.2 167.4 170.7 172.9 174.8 172.6 177.2 168.4 169.5 187 191 197.1 206.8 223.2 241.3 259.4 265.4 268.9 259.8 235.5 221.7 211.7 215.1 220 219.4 208.4 201.4 199.1 196.5 184.6 168.9 155.7 139.3 121 103.4 90.3 80 67.9 63.3 59 51.5 42.5 37.6 33.7 31.9 29.3 29.3 35.3 38.5 40.7 42.3 44.5 46.5 46.3 39.7 35.7 34.9 31.1 30.5 29.2 26.4 24.8 24 23.9 21.3 21.5 20.4 17.6 16 16.1 13 12 12 12.1 12.1 10.2 10.2 10.2 10.2 9.8 9.6 9.6 10.2 11.9 12.2 10.2 9.7 9.7 9.7 9.7 9.7 9.7 9 10.1 13.2 10.9 11.5 13.2 12.3 13.2 12.7 12.1 11.9 11.8 11.6 11.3 11.1 10.9 10.8 10.7 10.6 10.4 10.2 10.1 9.9 9.8 9.6 9.6 10.2 9.8 9.7 9.8 9.8 9.8 9.8 10.3 10.3 10.3 10.3 9.8 10.2 9.8 9.7 10.8 11.9 12 12 11.8 12 11.3 10.7 10.4 11.9 11.7 11.4 11.3 11.1 9.9 9.3 9.5 9.6 9.1 9.2 10.4 11.3
325.4 315.4 302.8 289.2 265.8 249.8 242.9 241.4 233.5 227.8 217.3 218.7 215.5 212.4 207.8 205.8 201.8 199.5 195.3 189.6 182.8 175.6 172.5 168.9 163.1 158.8 154.3 146.8 145.7 148.7 149.9 152.1 153.7 154.2 156.8 158.1 161.6 164.1 167 167.6 168.8 168.8 170.1 172.4 174.7 174.8 178.2 181.2 182.2 183.3 181.7 188 189.2 191.7 202.3 208.4 220 234.7 255.5 273.8 283.1 288 287.4 272.7 255.8 233.2 229.7 237.9 242.6 238.3 219.8 221.9 225.2 219.3 205.8 191.6 173.4 151.2 131.3 114.7 106 90.3 80.2 70.6 63.4 57.4 49.8 42 39.4 36.6 34.5 33.8 32.7 35 37.9 41.2 45.7 44 41.1 37 32.8 31.6 28.9 29.9 27.4 26.2 25.4 25.1 24.7 24.5 24.7 24.3 22.8 21.7 21 19.3 18.2 17.8 14.7 14.7 15.1 17 17.1 16.6 15 12 11.3 10.9 12.9 12.1 10 12.8 11.2 12.6 13.4 11.8 12 13.5 13.3 13.9 14.1 13.6 12.4 12.4 12.7 12.3 11.8 11.8 11.7 11.6 11.3 11 10.8 10.6 10.4 10.3 10.2 10.1 10 9.8 9.6 9.4 10.1 9.2 9.5 9.6 9.6 9.6 9.6 9.8 10.3 10.5 10.7 10 10 9.1 9.7 10.4 11.2 11.7 11.3 11.2 11.1 11.5 10.6 10 10.7 11.8 12.6 11.6 10.3 9.5 9.3 9 8.9 8.8 8.7 9.9 9.9 11.2
338.8 327.9 312.6 287 277.5 254.7 254 244 231.4 229 227.4 224.9 220 214.7 214.5 209.7 207.4 200.7 196.6 187.1 180.5 173.7 167.6 165.2 163 163.6 157.1 151.2 150.7 152.7 156.4 156.8 159.7 161.2 163.7 166.6 169.2 171.8 174.4 175.8 175.4 176.6 178.7 180.8 183.1 184 188.1 189.8 190.9 192.8 188.1 198.5 205.4 209.7 216.3 228 242.2 257.5 270.1 281.9 291.9 296.7 292.6 290.8 264.2 251.5 259.2 263.9 262 245.4 249.3 248.2 246.5 240.2 231.9 214.7 189 164.9 143.2 135.1 122 106 90.1 76.5 67.5 60.6 54.9 50.4 45.5 40.7 37.8 36.3 35.1 36.1 37 38.6 39.2 38.5 37.6 35.8 33.8 29.9 27 27.7 27.3 26.2 27.2 26.9 26.6 27.2 26.9 25.7 24.4 22.9 23.2 23.1 23 22.5 22.3 23.3 23.6 23.4 23.8 23.6 22.2 20.3 21.4 22.2 22.3 19.5 19.7 18.9 17.6 18.2 15.4 15.2 14.9 14.8 13.7 15 15.5 13.6 12.6 12.2 12.2 11.9 11.7 11.7 11.6 11.5 11.2 11 10.7 10.6 10.7 10.2 10.1 10 9.8 9.6 9.3 9.2 9.8 9.4 9.4 9.7 9.5 9.3 9.3 9.7 10.2 10.6 10.9 10.3 10.3 10.3 10.2 10.5 11 10.4 10.1 10 10.7 11.6 10.8 10 10.7 11.9 12 10.7 9.5 9.2 9.1 8.9 8.8 9 8.9 9 9 9.8
355.6 340.4 314.7 283.9 265 261.1 258.4 250.4 242 238.8 236 232.1 225.6 223.5 218.1 211.7 206.8 197.6 189.9 182.1 178 174.3 171.4 169.6 167.8 166.4 164.1 156.7 160.1 161.6 163.4 166.7 166.6 169.1 170.7 173.1 175.1 178.8 181 182 182.6 184.7 186.8 188.2 190.2 190.6 196.1 196.8 198.9 201.8 200.9 209.2 217.5 225 236.4 247 251.5 267 275.7 284 293.6 300 297.8 290.8 277.2 277.3 276.1 272.1 263.7 272.4 276.5 271.8 261.7 264.8 251.2 234.1 199.9 177.6 166.3 153.1 136 117.5 95.7 82.1 74.1 66.4 59.7 53.3 47.5 42.4 38.5 37.3 38.7 37.2 35.4 35.4 36.6 36.1 35.5 35.4 34.5 30.8 28.3 26.2 27.3 26.9 28.6 28.6 28.5 28 27.6 26.4 25.1 23.9 24.6 24.9 25.1 25.5 25.7 26.2 26.3 26.5 27.2 27.5 27.5 24.6 26.1 27.5 26.5 24 24.6 24.4 22.2 22.9 21.2 20.8 19.9 18.8 18.1 18 16.5 14.8 14 13.8 13.7 14.6 12.7 12.2 11.6 11.5 11.2 10.9 11.1 11.9 11.1 10.5 10 10.1 10.4 10 9.9 9.6 9 9.3 9.3 9.8 9.9 9.7 9.3 9.7 9.6 10.3 9.7 10.5 10.4 10.3 10.2 10 10.3 10.3 10.2 9.6 10.7 11.5 10.8 10.1 10.7 12 11 9.7 9.3 9.1 8.9 8.7 8.9 9.1 9.4 9.4 8.7 8.7
365.7 339.1 314.4 287.2 269.6 268.2 263.4 252.4 244.5 244.4 239.4 236.1 231 223.8 216.3 212.7 205.3 197.3 194.1 189.6 185.6 182.6 177.6 174.4 167.6 166.9 168.9 170.7 170.7 172.1 172.7 175.5 174.2 178.7 180.9 181.1 183.4 185.6 187.3 188.2 188.9 190.3 191.9 194.1 196.7 201.3 202 204.1 207.1 210.9 216.6 218.6 225.9 239.2 249.8 254.6 261.1 274.2 282.1 290.9 294 296.6 292 290.7 299.3 289.4 278.7 281.2 292.7 298.3 295.6 291.2 290.6 289.2 276.6 239.6 208.4 200.7 188.4 170.6 148.4 125.9 104.9 92.6 83.1 75.1 70.3 63.8 54.2 45.6 40.6 38.2 38.3 37.3 34.7 33.3 33.5 34.4 32.8 31.2 29.9 27.8 26.6 26.9 26 26.5 28.1 27.9 27.9 26.9 26.8 26.6 25.3 26.5 27.5 29.8 30.8 32.6 32.8 31.1 30.6 29.9 31 34.7 33.7 31.3 31.6 33 30.2 29.5 28.5 29 26.4 26.3 25.5 25 25 23.9 24.1 24.2 23.7 20.5 20.3 19.6 20.5 21.8 16.7 14.7 14 13.9 13.3 13.3 14.3 13.2 12.4 13.7 14.7 14.1 13.3 13.6 10.5 10.4 10.5 9 9.3 9.6 10.4 10.1 9.3 9.4 10.1 9.8 9.8 10.4 10.4 10.3 10.2 10 9.9 10.2 10.4 10 10.1 10.6 10.6 9.8 10.8 11.1 10 9.4 9.2 8.9 8.7 8.8 9 9 8.8 8.5 8.5 8.5
353.7 332.3 312.7 292.2 275 269.9 263.4 256.1 250.7 250.2 243.5 235.7 229.7 222.4 217.9 214.7 208.5 202.4 200.4 195.6 189.9 186.2 180.7 176.6 176.9 177.4 177.5 178.7 181 181.4 180.2 186 185.1 186.4 188.9 188.7 189.4 191.6 192.9 193.9 195.5 195.8 198.3 200.7 203.2 206.4 202.8 211.3 214.9 217.2 220.9 219.9 228.6 236.8 247 258.4 262.5 275.9 283.8 285.4 299.5 305.3 295.2 297.5 302.7 289.4 297.4 307 310.2 309.7 304.6 306.9 304.8 301.5 286.7 247.7 244.5 236.9 210.9 186.2 157.9 131.7 113.8 102.3 92.1 85.4 76.7 73.4 61.6 54.1 46.5 39.5 39.1 37.4 34.6 33.3 32.3 31.8 31.1 29.9 30.3 29.8 30.4 28.5 26.7 27.1 27.7 27.8 28 28.2 26.4 26 26.4 28.6 29.9 34.5 36.9 38.6 38.8 37.9 36.4 36.7 37.5 37 35.4 34 33.4 34 33.1 32.8 33 33.6 31.3 30.6 30.3 29.5 28.1 27 26.7 28.2 27.2 24.8 23.8 23.1 23.4 23.1 21.4 21.2 21.1 20.6 18.2 18.4 17.1 17 16.9 14.9 15 15.1 15 14.2 14 12.4 9.9 9.8 9.5 9.6 10.5 10.2 9.3 9.3 9.9 9.8 10.4 10.4 10.4 10.3 10.2 10 9.9 10.2 10.3 9.6 10 9.7 10.2 9.6 10.4 9.7 9.5 9.3 9.1 8.8 9.3 10.1 10.8 10 9.5 9.4 7.9 8
342.5 321.8 310.5 293.2 281.1 275.4 266.9 258.6 256.7 252.2 245.4 236.8 231.7 229.7 223.9 217 210.6 207.2 204 199.4 196.3 189.8 184.6 185.3 185.9 187.7 188 186.3 188.8 188.6 190.7 193.1 191.3 194.7 196.3 196.6 196.8 197.6 198.7 199.2 200.3 201.8 203.7 207 209.7 211.4 213.4 217.5 221.2 223.8 225 223.5 231.7 240.6 245.2 253.1 258.1 263.4 276.8 284.1 296.7 305.1 300 301.2 298.1 311.5 324.3 324.2 320.8 318.8 315.8 311.5 309.7 300.9 279.2 274.7 275.4 254.5 237.2 197.8 165.6 144.8 131.3 120 107.6 92.8 83.9 75.2 68 59.6 53.3 46 43 41 38.4 35.9 34.7 34.7 31.2 29.7 32.5 30.5 29.2 27 29.1 27.9 27.6 27.9 28.1 28.2 26.4 26.2 27.1 31.4 32.9 36.7 40.8 43.2 43.4 42.4 42.8 41.1 40.8 41 41.1 40.6 38.5 38.6 39 38.1 38 35.4 36.6 35.7 35.3 33 32.3 32.4 32.8 32.7 31.6 29.3 27.7 27.2 26.7 26.4 26 25.3 25.6 24.4 24.9 23.7 22.7 20.6 21.8 19.4 18.9 17.9 17.4 16.8 15.3 14.7 14.6 14.2 11.9 11.2 12.9 13.1 9.8 10.1 8.9 10 9.3 10.5 10.3 10.3 10.2 10 9.4 10.1 10.2 9.3 9.8 10.2 9.7 9.7 9.3 9.1 9 9.3 9 9.5 10.8 15.5 14.7 11.9 10.3 9.6 8.5 8.5
322.5 313.6 304.9 295.7 282.6 276.8 273.3 264.4 257.8 250.9 246.5 243.2 238.8 233.1 227.5 222.2 216.5 212.5 206.5 199.2 193.7 195.3 194.7 195.8 196.5 197.6 197.5 195.5 197.6 197.3 198.3 199.1 200.2 200.8 203.7 203.9 204.3 204.6 204.6 205.1 205.9 208.2 209.8 212.1 214.4 218.4 219.2 222.4 226.5 229.2 231 231.8 235.2 240.2 246.4 253.6 257.6 261.8 270.7 279.2 287.2 294.1 300.7 303.9 318.7 335.2 338.4 339.1 336 332.7 322.3 315.4 310.4 304.6 301.1 293.4 279.4 248.6 224 195.6 179.6 160.9 149.3 137.5 123.8 107.1 91.6 82.4 74.7 65.6 58.9 53 46.9 42.5 39.8 38 35.6 34.5 32.8 30.5 31.6 30.6 28.1 27.5 25.9 25.9 26.9 27.4 27.1 26.9 26.9 26.3 27.7 33.6 36.1 40.5 44.3 46.7 46.5 44.6 47.4 47.9 47.1 48.9 49.2 47.5 45.2 42.7 44.3 44.7 40.3 39.2 40.2 39.9 39.7 38.3 38.2 38.5 38.3 36.5 35.4 34.8 32.8 32.4 32.4 31.6 31.4 31.5 31.3 30.2 28.8 28.6 27.2 24.6 25.1 24.8 24.6 24 22.4 20.1 20.8 19.3 18.5 16.5 14.4 15.2 15.7 15.8 11.2 10.4 9.7 9.8 10.4 10 9.2 9.9 9.4 10 9.8 9.6 9.9 8.9 9.5 10.1 10.2 9.7 8.9 8.9 8.5 9.4 9.1 9.7 11.1 19.7 19.1 15.6 11.5 10.5 8.7 9.9
312.8 308.6 303.5 288.1 278.2 280.1 272.4 264.9 255.9 251.1 249.3 248 244.1 239.6 235.7 228.6 222.4 214.9 206.8 198.1 203 206.3 205.6 206.8 207.3 207.1 206 204.1 205.3 204.3 207 205.9 207.8 209.4 210.8 211.1 211.4 211.7 210.5 211.1 211.8 215 215.8 219.6 222.4 224.9 222.5 226.4 230.4 232.8 236.8 239.5 241.6 245.9 254.5 257 256.7 261.1 264.2 270.9 280.7 294.5 304.5 311.8 316.2 332.2 345.6 352.2 347.2 338.4 324.2 317.4 314.5 321.9 312.9 298.9 269.6 243.5 222.4 216.6 194.3 175.8 165.1 152.5 136.4 119.9 104.3 91.4 81.2 71.8 63.8 57.8 49.5 44.2 42.5 39.3 36.1 34.2 32.5 30.5 29.4 28.7 28.3 26.1 26.8 25.3 25.7 25.9 27.1 27.4 27.3 27.9 32 37.9 41.8 45.3 46.4 49.2 48.3 44.9 50.5 51.7 48.7 51 52 51.7 47.9 48.6 49.5 48.5 46 46.1 44.4 43.7 43 43.2 43.2 43 42.6 39.5 38.3 39.2 37.8 37.9 37.9 37.6 37.1 36.6 36 34.8 34.1 33.7 31.1 29.6 29.3 28.5 27.3 26.8 26.3 25.8 24.4 24 22.4 20.8 18.8 17.8 18.2 16.2 15.7 14.3 12.9 10.8 10.7 10 9.8 10 9.8 10.1 10 9.4 9.3 8.8 8.8 9.7 9.8 9.7 8.5 8.9 9.3 8.7 8.7 9.1 10.8 18.2 19.5 16.7 14.6 14.3 12.9 10.9
303.5 299.3 291.1 281.8 281.7 282.4 275.7 265.8 259.2 255.1 254.2 253.6 250 243 238.1 230.6 219 211.5 205.7 208.7 211.6 212 212.7 213.8 214.2 214.1 213.1 212.7 212.7 212.1 214 212.2 215.3 216.9 217.9 217.8 217.6 217.6 219 218.6 219.8 222.4 222.7 227.5 228.4 228.6 227.4 231.5 237.4 240.6 243.3 245.9 248.4 255.2 259.3 257.7 258.2 261.3 265.4 271.9 283.3 295.1 303.7 308 316.2 328.7 342.7 353.8 355.4 339.6 338.4 335.6 335 331.4 318.4 296.3 264.6 255.5 248.2 237.4 209.7 186.5 173.9 162 145.1 128 112.1 98.8 88.1 79.3 70.7 63.5 54.3 49.4 45 41 38.8 35.7 33.5 32.4 31 30.4 28.1 26.7 26.5 25.6 26.5 26.5 29.2 29.9 30.5 33.5 41.8 47.1 48.7 50.9 52 50.7 48.2 49.3 53.9 52.6 52.3 53.8 53.9 52.1 52.7 54.4 54.2 53 53.2 51.9 49.4 49.3 48.7 47.9 47 44.9 43.1 43.2 42.9 42.1 42.5 42.5 42.3 40.7 40.3 40 39.4 38.2 37 36.3 34 33.2 31.8 31.6 31.1 29.6 27.4 27.1 26.3 25.4 25.8 24.5 23.7 23.3 22.4 22.1 21.3 17.5 15.8 16 15.2 11.1 10.6 10.6 10.3 10.5 11.1 10.2 9.4 9.3 9.2 9 8.9 8.8 9.2 9.4 9.5 9.6 9.6 9.5 10.6 14.2 18.3 17.3 16.1 15.1 14.8 11.6
304 300.2 287.9 286.5 284.6 276.7 274.2 272.2 270.8 267.7 262.5 256.1 245.8 241.2 242.6 234.9 227.5 218.3 211.1 209.8 215.6 217.7 219.4 220.4 220.6 220.4 220.1 219.4 219.8 220.4 221.9 220.1 224.5 223.7 224.1 223.8 225.7 226.3 226.9 227.3 229.4 231.1 231.4 236.3 237.8 237.4 238.1 236.2 245.2 247.5 247.7 252.3 259.8 261.9 260.9 259.8 260.1 262.6 268.6 271.4 276.9 288 294.9 308.9 319.8 329.3 342.4 349.8 352.6 353.2 349.5 348 342 334.1 317.4 286.9 278.8 265 255.8 249.5 223 199.9 187.5 171.2 153.4 134.5 120.7 107.4 96.5 88.9 80.5 71.2 62.6 56.6 52 46.7 42.1 38.5 36.3 35.4 32.8 32.2 30 27.2 26.4 26.3 27.1 29.9 33 34.7 37.2 38.9 44.2 48 50.8 53.8 54.3 53.2 52.2 55 57.5 55.9 56.9 57.7 56.3 55.7 57.1 56.8 56.5 55.8 55.7 55.3 54.6 53.1 52.7 52.7 51.3 49 48.7 47.7 46.5 46.2 46.1 46.4 46.5 44.7 43.4 43.8 42.7 41.6 40.5 39.2 38.1 37.3 35.2 34.3 33 31.4 30.3 31 29.6 28.9 29.1 28.8 26.1 25.4 27.1 25.9 23.5 23.5 21.8 20.3 19 18.2 16.8 13.8 13.1 12.1 15.9 15.2 15.5 11.7 9.6 9.7 12.9 10.2 10 10.1 10.3 10.4 10.5 10.8 12.1 12.1 15.9 17.6 16.6 16 15 14
294.7 289.1 289.9 288.5 283.6 282.1 282.7 282.1 275.6 267.8 256.2 248.6 252.7 250.9 248.2 244.9 240.7 233.5 218 216.2 219.4 224.6 224.9 226.3 226.6 226 225.9 226.1 226.3 227.3 230.7 229.2 231.5 229.8 230.3 231.8 233.3 233.2 236.1 236.7 239.3 241.4 244.5 248.8 247.6 245.5 246.6 245.4 249.6 254.5 253.5 257.7 263 263.5 262.4 264.1 265.9 267.3 269.2 273.3 282 288.8 298.3 312.3 320.2 328.7 341.5 355.5 358.8 356.3 352.7 341.8 333.9 320.2 311.8 308.6 296.9 267.1 252.8 240.2 231.4 212.2 196.3 180 162.8 142.7 127 117 106.6 96.8 86.9 77.9 69.6 65.4 59.3 52.6 49.1 42.9 39.4 37.8 35.6 32.6 32.6 29.9 27.5 28.2 32.8 37.5 41.6 41.9 44.4 48.7 48.1 51.8 55.1 56.4 56.6 56.9 60.6 62.6 60.2 61.5 62.5 61.2 60.9 61.5 61.8 61.1 60.5 60 59.6 59.6 59.3 58 57 57.3 57 54.9 54.8 52.6 50.8 51.4 49.9 48.6 48.8 47.4 46.8 47.3 46.2 45.3 44.2 42.8 42.5 40.1 39.1 37.9 35.4 34.3 34 33.8 33.9 32.6 33 32.4 31.3 31.4 30.4 29.4 26.8 26.4 24.9 24.2 24.1 23.7 21.5 20.5 17.6 19 16.3 16.9 16.9 16.6 14.8 15.8 17.6 17.4 14.9 12.4 11.6 13.6 15.2 12.3 15.1 15 14 17.6 17.2 17.2 17.4 17.8
291.7 294.9 295.4 294 293.7 293.4 290.1 281.4 271.9 262.1 257.7 260.4 259.7 255.4 252.1 251 243.7 237.7 234.2 231.8 233.3 234.9 235 234.1 234.4 234.5 234.2 233.5 234.9 235.5 237.8 236.6 237.2 240.8 239.6 241.2 242 244.4 244.7 246.7 248.1 254.9 253.9 254.2 253.9 253.9 255.7 262.7 258.4 257.9 259.5 264.4 263.9 264.1 269.4 270.9 274.2 273.1 274.2 276.6 287.7 293.4 296.4 313.2 324.1 337.1 348.4 353.8 346.7 343.9 340.8 332.5 331.4 330.7 328.7 318.7 301.2 278.1 250 234.9 225.9 214.4 201.2 187.1 171.1 152.7 137.6 124.2 113.4 103.2 93.6 84.8 77.3 72.8 65.6 59.7 53.8 49.7 46.5 46.1 46.2 41.4 38.1 36.2 33.1 34.1 40.1 46.3 50 49 49.7 51.2 53 59.3 60.8 63 61.4 64.3 68.7 67.3 63.7 66.2 67.7 66.3 65.6 66.4 67.2 66.9 66.4 65.9 65.3 65.1 64.1 63.3 63 63.1 62 60.6 59.9 59.3 56.6 55 55.6 54.8 53.3 52.9 51.8 50.8 50.4 48.7 47.3 45.9 46.1 45.3 44.4 43.2 41.4 41.4 40.2 39.9 38.5 37.1 35.1 34.8 35.1 34.2 33.5 32.9 32.3 30.3 29.6 28.5 27.9 26.2 24.3 23.8 23.5 22.3 19.6 18.4 17.3 16.7 16.4 16.8 17.2 17.5 15.4 12.8 18.4 18.5 18 17.9 18 17.1 13.9 16.7 18.5 18.5 18.5 18.3
294 301.6 297.2 299.7 302.2 298.7 290.8 283.7 272.7 269 270.9 270.1 267 264.4 261.6 258.7 253.9 252 250.9 246.6 249.8 248.3 248 246.6 246.2 245.8 243.7 244.9 245 245.6 245.9 245.3 246.1 246.4 247.1 248.6 249.4 251.4 250.8 254.8 254.8 259.8 262 261.7 261.9 260.3 263.3 266.6 266.4 266.8 267.8 269.9 268.4 270.7 278.5 282.7 280.7 277.4 282.1 287 289 293 299.2 312.7 325.1 334.7 342.9 347.1 346.3 344.1 347.6 344.4 344.4 335.6 329.2 321.6 298.5 281.4 257 238.2 230 214 202.4 190.9 176.3 160.8 146.2 132.6 123 112.3 101 93.4 86.5 80.8 74 67.4 60.1 54.9 52.9 53.8 52.8 48.2 45.1 43.4 42.9 41.3 46.9 53.7 55.4 56.4 55.3 56.9 58.1 63 66.6 69.5 66.9 69.6 72.8 72.1 70.6 71.9 73.1 71.8 70.9 71.9 72.4 72.6 72.3 71.8 71.4 71.7 70.9 70.6 69.3 68.9 67.7 66.1 65.2 65.5 62.8 61.7 61.5 60.5 58.8 58.9 57.6 56.3 54.9 53 51 52.7 52.5 51.5 50.6 49.5 48.6 47.1 45.8 44.6 43.6 42 39.9 40.5 39.8 37.8 36.7 35.6 35 33.7 33.5 32.4 31 29.7 28.1 27.3 25.5 24.7 21.3 19.7 19 18.3 17.5 18.2 16.5 15.6 14.1 13.6 16.2 17.9 17.8 17.2 17.4 17.4 15.1 17.6 18.8 19.4 19.4 18.4
302.6 302.9 307.1 305 301.9 289.8 283.3 281.2 277.1 279.5 278.2 276.7 273.9 271.4 268.7 263.2 263.4 263.7 263.1 261.3 260.8 258.1 255.8 256.1 255.4 255 254 254 253.4 254 254.8 255.3 255.3 256.1 256.3 256.7 259 259.6 259.2 260.7 263.9 269.5 272.7 272.1 276.6 271.1 272.8 273.6 276.1 277.2 276.1 280.4 281.9 283.2 289 291.6 283.1 284.3 286.8 290.9 291.4 295 305.4 313.8 324.9 334 342.8 349.1 358.3 369 366.6 361.1 355 342.9 333.7 320.5 305.2 287.2 266.7 251.1 236.8 220.3 204.8 192.8 179.5 167.5 153.7 140.9 131.3 121.5 111.8 100.2 94.3 89.7 84.1 76.9 68.1 60.8 59.2 60.9 61.2 58.9 57.3 56.7 56.1 55.1 53.3 57.4 59.1 59.4 61.5 62.9 67 71.2 75.5 74.4 72.1 74.7 77.1 77.5 77.4 78.2 78.7 77.9 78.9 79.5 78.4 78.2 78.1 77.8 77.9 78.2 78 77.2 75.7 74.8 73.2 71.7 70.2 70.4 69.6 67.7 66.9 66.4 64.7 64.3 63 61.5 61 59.3 57.8 58.3 57 55.7 55.4 55.4 54.4 52.8 50.4 49.3 48.1 45.7 44.8 45 42.1 41.7 41 39.4 37.8 37.3 36.9 36.2 34.6 32.5 31.7 30.9 29.5 26.8 23.6 22.7 22.3 20.7 20.1 20.1 19.9 18 17 17.9 16.5 18.2 17.7 16.8 16.5 15.9 17.6 18.8 19.4 20 19.5 17.3
305.1 303.7 300.1 296.3 290.1 287.3 288.2 284.6 285 289.4 284.2 280.8 281.1 279.5 278.3 269.9 272 272.5 271.9 268 268.7 267.5 265.2 263.8 264.9 264.1 262.9 258.9 263.2 263.2 265.8 264.8 264.8 263.9 265.7 265.6 266.9 267.9 267.7 271.6 274.2 278.5 276.3 279.2 281.2 279.4 282.3 281.2 281.3 285.4 288.2 292.2 294.6 292.4 297.5 298.3 298.1 294.9 295.7 297.8 301.1 306.4 313.5 323.5 331.7 341.6 350.8 356.5 366.8 376.6 374.4 375.1 368.4 356.7 342 323.4 306 289.4 271.5 255.2 244.7 230.2 204.1 195.4 183.7 171.7 159 147.2 137.3 128.9 119.8 109.1 103.1 98.6 93.3 86.7 77.4 73.2 70.4 72 71.7 69.2 67.9 67.9 68.8 69.8 70.1 69 66.3 67 68.2 71.5 76.5 81.3 84.2 83.5 83.1 83.8 84.7 85.9 86.6 86.6 85.4 85.5 86.9 87.3 86.3 86 86.2 85.9 84.2 84.5 83.7 82.7 81.3 80.9 79.8 77.7 76.2 77 75.5 73.9 72.5 71.7 70.6 69.3 68.1 67.4 67.1 65.5 65 63.9 62.6 61.3 61.5 61.3 60 58.6 56.6 54.7 52.8 51.3 49.7 47.7 46.1 46.6 45.1 43.2 41.9 40.6 39.3 38.8 37.2 35.5 35.7 34.2 32 29.1 26.3 25.2 24.3 23.9 23.2 22.3 21.9 20.3 19.7 18.2 17.1 18.6 19.3 17.1 17 18.7 19.9 20.1 20.7 20.7 20.1 16.6
309.8 304.8 298 292 290.5 292.1 294.8 290.8 292.8 294.3 287.3 286.6 287.5 287.6 280.8 280.8 282.7 282.4 279.4 277 278.7 277.2 275.1 274.7 274 272.4 271.1 269.2 269.4 269.5 272.7 272.4 272.9 272.5 273.6 274.4 278.1 275 276.1 281.7 282.6 283.9 284.8 286.1 286.6 285.9 289.5 289.1 294 296.9 298.1 301 302.7 301 302.9 302.3 304.3 305 310.8 314.2 318.2 319.4 326.2 331.2 337.6 345.5 354.2 360.9 369.5 379.6 385 385.9 378.8 362.8 345.2 329.5 306.9 285.4 270.7 259 252.9 241.4 226.1 210.6 194.9 172.7 164 153.9 143.5 134.8 128.2 120.7 112.5 107.3 101.9 96.9 89.1 87.6 85.6 85.1 84.7 83.5 82.6 81.2 80.7 81.6 83 82.7 78.9 78.6 78.6 81.1 85.4 89.7 92.1 92.9 92.6 93.8 94.6 96.5 96.2 93.9 93.5 93.9 95.2 94.6 94 93 92.9 92 90.9 90.6 89.8 88.5 87.7 86.8 85.1 84.7 83.5 83.2 81.6 80.2 78.8 77.4 76.3 74.1 73.2 73.4 73.2 71.7 70.9 69.5 68.2 67.1 67.6 67.4 66.1 64.2 62.8 60.9 59.1 57.4 54.2 52.3 51.1 51.6 49.6 47.4 46.2 44.8 43.5 42.3 41.2 40.2 38.5 36.4 33.5 31 30.4 28.3 27.4 26.5 25.4 24.5 24 22.9 22.4 21.2 21.1 20.9 20.4 18.8 17.7 18.3 21.1 21.3 21.4 20.8 20.2 18.5
304.8 298.6 296.6 295.7 296.7 297.9 296.3 296.2 298.1 294.4 289.6 291.9 292.5 291.1 285.9 288.4 287 287 285.1 284.3 284.6 283 282 281.2 280.7 279.6 279.4 279.2 276.3 275.5 276.9 278.6 276.7 278.7 281 280.9 281.9 282.2 285.5 289.5 291.2 292.9 292.2 295.4 296.1 299.5 301.4 303 303.1 303.4 307.7 311.5 312.5 314.1 314.1 315.2 316.8 320.8 325.7 332.7 334.4 333.8 333.9 339.9 345 351.2 355.8 362 372.2 386.8 393.6 390.6 381.7 367.6 343.9 327 303.2 285.9 278.9 273.5 263.7 250.9 239.4 226.2 208.8 187.2 170.2 160.3 152.2 144.1 138.3 130.7 124 118.3 113.3 106.6 101 100.1 99.7 98.8 99.4 98.3 96.4 95.4 94.9 94.1 94.3 93.4 91.1 89.3 88.9 89.5 93.7 97.2 97.1 97.1 99 100.9 102.5 103.5 103.6 102.5 103 102.3 101.4 101.1 101.2 100.3 99.5 98 97.3 97 96 94.6 93.6 92.8 91.6 90.7 89.3 89.3 87.8 86.3 84.3 82.1 81.1 80.7 79.7 79.4 78.9 77.7 76.8 75.6 74.3 73.3 73.8 73.3 71.9 69.5 68.1 66.6 64.9 63.1 61 57.7 56.3 56.6 57 54.8 51.3 49 47.7 46.5 45.1 43.1 40.6 38.6 37.2 35.5 34 32 30.5 29.4 28.4 28.6 27.6 26.3 25.4 24.2 22.9 22.8 22.7 21.6 20.3 20.3 21.2 21.9 21.9 21.2 20.5 17.4
304.4 302.1 300.2 298.5 300 303.6 299.9 301.1 299.6 296.3 295.7 297.1 297.1 289.8 292.1 292.9 292.9 291.7 290.3 290.3 289.4 288.3 286.6 286.6 286.3 286 286.6 285.4 282.8 282.4 280.7 281.2 285.6 286.3 289.1 290.6 291 292 297.1 298.8 301.2 302.6 302.4 305.2 309.5 310.2 310.8 311.9 311 315.6 318.5 320.6 322.9 326.1 327.8 329.1 332.3 337.6 344.7 349.8 346.8 341.6 339 342.7 348.9 355.1 361.3 369.1 380.2 388.1 392.6 394.3 386.4 365.8 347.7 328.4 302.3 293.2 289.7 283.1 272.1 258.6 250.3 239 221.5 204.8 185.7 171.3 163.5 155.6 149.5 142.1 136 130.7 125.2 117.4 111.8 109.5 110.6 111.3 111.3 111.3 108.4 106 104.2 102.9 100.7 98.6 98.7 98.5 98.4 100.1 102.9 103.8 105 106 106.3 107.9 109.3 109.8 110.1 109.4 109.3 108.3 107.7 107.6 107.8 107.4 107.4 105.8 104.8 103.6 102 100.6 99.5 99.4 97.9 96 95.2 95.3 93.8 92.3 90.5 88 88 87.3 85.6 84.6 84.1 83.1 82.2 81.3 80.4 79.6 79.6 79 77.1 74.9 73.3 71.6 69.6 67.5 64.9 62 61.6 61.7 61.5 61.3 59.4 56 52.1 49.9 48.3 45.7 43.2 41.1 38.7 39.2 37.6 36.1 34.7 33.2 33 32 30.6 28.9 26.7 26.4 25.5 24.2 24.1 23 22.5 22.2 21.5 22.1 22.7 21 19.3 16.6
309.5 306.3 305.6 304.8 305.2 306.7 305.9 307.5 301.7 300.9 301.6 302.2 297.4 297 298 297.8 297.3 296.5 295.2 295.4 295.9 294 292.6 291.3 292.1 291.2 290.4 290.1 288 284.6 287.8 286.9 294.8 295.6 298.8 300.2 300.4 302 309.2 309.2 311.4 311.3 313 315.7 317.5 317.5 320 322 323.7 327.9 329.6 332.6 336.1 339.7 344.8 350.2 354.2 356.9 361 362.8 358.5 350.1 345.1 345.1 350.8 357.9 368.3 374.4 384.7 389.4 390.6 387.8 379.2 369.7 356.3 329.8 309.1 299 294.9 290.1 280 271 261.4 251.7 235.6 220.8 204.7 189 178.7 167 158.1 149.6 143.7 139.4 134 127.6 123 118.8 119.7 119.5 119.4 122 120.2 116.4 112.7 110.8 108.6 107.4 107.6 105 104.6 107.7 110.7 112.7 113.8 114.6 115 115.5 116.9 117 117.4 118.2 115.2 114.9 116.5 115.2 114.8 114.6 114.9 112.8 112.1 111.2 109.3 107.3 106.2 105.4 102.8 102.7 101.1 101.3 99.7 98.2 96.8 93.4 94.2 92.7 91 90.1 89.4 88.4 87.6 86.2 84.7 84 83.7 82.3 81.4 80 77.8 75.5 72.9 70.4 68.3 66.3 64.1 62.7 63 64.4 63.7 61 57.5 53.5 50.3 48.1 45.8 44.1 43.2 42.4 40.6 39.5 38.4 37.2 35.1 33.6 32.2 30.8 29.2 28.6 27.6 26.5 25.5 24.9 24.4 24 22.6 22.8 22.5 22.3 20.1 17.7
308.4 310.8 313 309.4 310.6 312.1 311.7 308.2 305.3 304.2 304.8 301.1 301 301.8 302.3 302.2 302.2 300.8 301.2 300.9 299.7 298.5 298.2 298.1 297.6 296.3 295.5 295.4 293.3 293.1 296.2 295 300 303.7 305.5 307.1 305.2 312.4 315.7 317.7 320.5 322.1 322.3 324 325.7 326.4 322.3 327.2 331.1 336.6 340.9 346.4 350.6 356 362.4 370.1 372.6 371 372.7 369.6 369 365 355 350.9 354.6 358.1 363.2 370.3 383.2 394.3 395.2 386.5 372.4 359.1 345.8 331.2 322.4 315.7 310.6 307.9 300.6 290.9 280.4 266.8 250.2 237.1 220.9 205.1 189.1 175.1 165.1 155.1 151.9 146.6 140.7 135.5 131.2 127.5 127.4 127.8 127 128.9 129.6 125 121.3 117.8 116.4 114.3 111.1 110.4 110 112.1 116.8 120.6 120.3 120.3 122.7 124.3 126.3 127 127.8 127.1 125.2 123.8 123.5 123 122.8 122.2 120.7 120.6 119.3 117.9 116 114.4 113.9 110.9 110 108.3 107 106.3 104.1 102.9 100.9 97.8 98.4 97.2 96 95.2 94.5 93.1 91.7 90.2 88.8 88.5 87.5 85.5 84.5 83.5 81.3 78.4 76.6 74.5 72.7 70.7 67.1 65.7 64.5 65 66 63.9 58.4 55.6 53.4 50.8 48.7 46.9 46.1 44 43.1 42.2 41.1 40 37.3 34.9 33.5 32.6 31.8 31 30.6 29.5 27.2 26.9 26.6 25.8 23.8 22.6 22.4 22.2 22.2 22.1
312.9 314.1 313.7 311.1 312.5 314 313.6 307.8 306.9 305.3 307.2 301.5 305.2 305.8 305.3 305.4 305 303.4 305 305.2 303.4 303.4 303.7 302.9 303 302.4 301.7 302.3 302.7 302.9 302.5 303.5 305.9 310.8 313.4 315.4 311.1 320.7 324 326.3 328.7 331.3 333.2 332.5 335.6 334.1 329.9 336.4 342.3 345.7 351.1 357.8 364.6 372.1 384.8 387.9 388.2 385.6 382.5 379.1 376.2 370.9 364 357.1 362.2 365.7 369.3 365.6 372.2 384 394.3 385.7 364.2 351.6 343 337.7 335.5 329.2 324.8 322.6 318.8 312.2 300.5 286.2 269.8 254.4 236.8 217 199.4 184.8 174.7 166.9 161.2 154.3 147.3 141.5 139 136.3 135.8 135.2 134.3 132.5 131 129.7 126.3 124.5 122.4 120.3 117.5 115.8 115.3 118 121.4 122.9 124.6 128.2 129.9 130.9 133.2 134.5 133 130.1 129 130.2 130.4 131 127.4 126.4 127.1 125.8 125.9 124.5 122.6 121 118.7 115.8 116.3 114 112.4 111.1 108.3 107.4 105.4 103.7 103 101.9 100.7 99.7 98.5 96.9 95.8 94.3 93.4 92.9 91.1 89.1 87.5 86.6 84.1 81.8 80.8 78.4 76.5 74.2 70.8 67.9 66.7 66 67.6 65.5 60.9 57.5 55.8 53.2 51 49.6 48.1 47.3 46.1 44.8 42.9 41.4 39.6 36.3 35.9 35.4 34.1 34.2 32.5 31.8 30.3 30.4 30.5 28.5 26.3 25 23.5 22.2 22.5 20.1
316.8 318.2 315.4 313.9 312.5 315.5 312.4 309.2 309 306 306.8 306.3 307.3 307 307.3 308.4 308.4 306.3 307.4 308.1 307.1 307.7 307.2 307.2 307.6 308.2 307.8 308 308.8 310.2 309.6 312.1 309.4 317.1 321 321.6 321.5 329.1 332.4 335.1 337.6 338.1 339.9 340.5 340.4 340 342.6 345.7 350.2 355.5 361.5 368.5 377.5 389.3 396 400.3 402.7 402.4 397 389.9 384.2 377.1 368.8 362.2 370.5 376.9 378.2 365.9 364.1 369.8 374.6 369.9 363.1 354.8 349.3 349.3 346 341.6 340.3 337 331.9 327.2 315.6 304.4 295.2 275 247.9 228.4 211.5 197.1 184.7 176.1 168.4 160.9 153.8 147.2 145.1 144 142.2 140.4 138.8 137.4 136.3 133.7 131.3 129.6 126.5 124.2 121.5 119.7 122.1 122.4 127 128.7 131.2 134.6 136.2 136.6 138.8 140.5 135.3 134.6 136.1 136.1 136.4 136.8 133.2 131.5 132.9 129.6 130.6 127 124 126.1 122 121.7 121.4 118.6 116.7 116.1 112.4 110.6 109.2 108.3 107.1 106.1 105.1 103.9 102.4 100.6 99.3 98.2 97.8 96.8 94.7 92.6 91 89.7 86.9 85.6 84.3 82.2 79.3 77 74.3 70.4 68.3 67.5 68.9 67.8 64.1 59.7 58.7 56.1 53.4 52 51 49.3 48.2 46.2 44 42.8 41.1 40.1 39.5 38.1 36.7 37.1 36.2 34.5 33.3 33.3 31.3 30.5 28.7 26.4 25.9 23.5 20.9 20.3
321.2 317.9 316 315.2 317.1 317 312.4 313.7 311.8 308.8 308.3 310.4 311.3 311 310.4 310.6 310.6 309.9 310.7 311.3 311 310.8 311.2 311.9 312.5 313 313 313.1 314.1 315.6 317.1 314.6 319.4 321.2 327 328.2 332.7 337.1 340.4 342.7 344 344.7 346 348.6 350.5 349.6 347.7 353.7 358.5 365.5 372.1 380.4 391.6 403.2 413.9 418.9 421.1 417.4 410.6 402.6 393.7 380.6 369.4 364.2 371.5 381.1 376.6 365.8 361.4 361 362 360 357.7 352.3 352.4 352 350.9 349.2 349.1 349.3 343.8 337.7 331 325.3 317 287 260.1 234.6 217.6 203.1 191.5 181.8 172.6 165.2 159.4 155.4 151.8 147.9 146.1 144.3 142.5 141.5 140.8 139.7 136.8 133.5 130.2 127.8 125.4 122.5 123.7 128.6 131.9 137.3 137.4 140.1 140.9 141 142.1 143 140.7 141.4 143.1 143.1 143.4 139.7 135.4 137.2 134.3 132 133 130.2 128.6 130.2 125.4 126.4 125 121.7 120.9 119.2 116 115.2 113.7 112.3 110.9 109.7 108.3 106.9 105.4 104.1 102.8 101.9 100.9 100.2 98.3 96.3 94.6 93 90.7 88.1 86.1 84.8 81.5 79.6 77.6 74.5 71.4 70 69.9 69.8 67.6 63.4 62.2 59.2 56.4 55.1 53.6 51.3 49.7 47.9 46.3 45.5 45.2 43.6 42.4 40.8 40 40.1 38.6 36.5 35.8 33.6 33 33.1 30.6 27.4 25 23.5 22 20.3
326.4 322.7 320.5 323.8 324.5 321 317.8 313 312.1 314.1 314.3 313.1 315.6 315.4 314.2 314.2 314.4 315.3 314.1 315.2 315.4 315.5 315.7 317.4 317.6 317.5 317.3 318.3 319.4 320.4 322 320.7 321.8 327.6 332.2 335.6 340.6 344.3 347.8 349.7 352.9 354.3 356.9 358.6 359.1 357.7 355.5 362.4 369.3 374.7 381.5 390.8 401.4 415.5 422 426.9 426.2 417.8 414 411.3 396.2 378.8 367.6 364.9 367.9 373.1 370.7 368.7 360.7 359.7 359.4 355.9 352.2 350.5 349.9 350.1 351.1 352 357 359.6 354.6 348.1 339.4 333.7 313.5 285.8 268.4 238.4 219.6 206.6 196.3 188.8 178.7 169.5 163.6 159.6 156.9 151.7 149.1 147.2 145 141.9 143.3 144.1 142 136 132 129.8 127.7 125.9 124.7 130.7 135 139.5 142 144.9 145.5 145.6 146.6 148.3 147.7 147.3 147.2 145.7 143.6 139.7 138.4 141.7 137 139.6 138 135.5 133.1 133 129.1 129 126.9 124.6 124.6 122.4 120.9 119.6 117.7 116.2 114.8 113.3 110.8 109.6 108.3 107 105.7 104.4 103.5 102.9 101.9 99.9 98.1 95.8 93.3 90.9 88.7 87.1 85.1 82.8 80.7 77.2 74.3 72.6 72 72 69.5 66.2 64.2 62 59.3 56.7 55.7 54.2 51.5 50.4 48.7 47.6 46.1 44.7 43.8 43.1 41.6 39.6 39.6 38.3 35.8 35.2 32.3 31.5 28.5 26.3 25.2 24.9 23.5 20.5
327.4 322.8 323.3 330.3 326.1 323.4 316.7 316.3 317.7 316.1 314.7 316 317.6 317.9 317.5 319.3 319.8 319.5 319.6 319.2 319 319.3 321 322.2 322 321.7 322.6 323.6 324.7 325.7 326.7 326.5 325.6 334.2 337.9 342.2 347 351.6 355.4 358 361.2 363.8 365.4 366.4 367.7 366.7 364.6 369.4 375.5 381.8 388.3 397.2 406.8 417.3 425.4 427.6 421 413.9 413 403.4 389.5 376.4 366.6 365.8 367.2 366 365.4 363.2 361.4 359.2 356.7 353.3 351 349.8 348.9 349.4 349.8 351 355 360.7 358 348.7 336.6 317.5 296.8 279.2 260.4 243.9 225.8 213.2 202.3 192.2 182.9 178.3 171 164.1 160.3 156 151.8 149.6 147.2 143.8 145.7 146 143.7 138.1 133.8 131.3 129.3 127.8 124.7 130.1 134.6 140.2 144.7 148.5 150.4 150.4 150.6 151.2 151.4 150.5 150.4 148.4 146.3 145.2 143.8 143.3 143.3 143.1 142.1 137 135.7 135.2 133.3 132.4 131.8 128.2 127.5 124.9 124.7 122.1 121.2 119.9 118.6 115.7 113.4 112.1 110.5 109.8 108.8 107 106.2 105.6 104.9 103.2 100.9 98.4 95.9 93.7 91.4 89.7 87.7 85.8 82.5 79.2 75.9 74.3 74.4 74.4 71.4 67.6 65.7 63.5 61.1 58.8 57.3 55.6 52.9 51.5 50.7 48.6 47.3 45.8 43.8 43.4 41.7 40.8 39.7 37.2 37.4 35.5 32.6 28.9 25.5 26 25.5 25.4 23.3 21
329.2 324.9 331.7 335.7 326.3 324.1 317.8 322.5 322.5 319.8 317.7 319.1 321.1 321.4 322.6 323.4 324.4 324.5 324.9 322.6 323.4 324.1 324.3 326.4 326.8 327.2 327.9 329.7 330.8 331.8 332.2 333.9 335.4 338.1 344.7 348.5 353.4 358.4 363 366.2 369.4 371.7 372.8 373.7 374.9 373.7 375.3 377.3 381.1 386.6 393.6 399.9 408.5 414.6 416.2 415.1 412.4 410.5 406.2 396.2 383.7 372.7 366.2 367.1 367.7 367.6 367 362.9 361.5 358.6 356.4 354.9 352.6 350.4 349 345.2 344.5 342.6 346.4 348.8 345.9 338.5 323.2 303.5 284 271.9 258 244.5 231.2 219.2 207.8 195.9 188 183.6 175.6 167.7 163.1 158.9 155.1 151.3 148 146.9 146.6 146.3 144.6 139.3 134 132 128.5 127.9 124.3 126.5 133.5 140.9 147.1 151.1 152.7 153.7 153.6 154.2 155.1 155.4 153.7 151.9 150.9 149.8 148.1 148.7 149 146.9 142.3 138.6 139.7 141.5 136.6 132.6 132.9 133.6 131.9 130.5 127.6 124.6 123.7 122.5 120.7 118.5 117.3 115 111.9 111.8 111.6 109.4 108.6 107.9 106.9 105.5 102.7 99.8 98.2 96 93.9 91 88.8 86.5 83.1 80 78.3 76 76.6 74.4 71.7 70 67.3 65 62.7 60.7 58.8 56.9 54.5 52.3 51 49.7 48.4 46.8 44.6 43.2 42.3 41.4 40.2 38.1 37.4 35.6 32.4 28.4 27.2 26.3 26 25.9 24.3 21.3
332.6 333.4 338.4 336.8 333.9 325.6 321.4 324.4 324.2 326.9 323.6 323.9 324.3 325 327.1 327.6 327.4 329.5 328.7 328.5 328.8 328.6 329.9 331.5 332.1 332.6 333 334.7 336.5 337.9 339.9 341.7 341.3 341.4 349.7 356.3 360.4 364.4 368.4 372.9 376.4 379.1 381 383.3 383.7 383.1 382.3 383.2 387 391.6 396.9 403.2 410.1 413.8 414 411.3 409.5 408.9 402.1 387 380.7 377 369.6 371.8 372.3 372.1 372.1 369 365.3 362.6 358.8 356.1 356.6 354.3 352.7 350.4 346.1 339.8 338.7 338.4 333.8 324 309.3 292.7 276.8 268.1 257.1 243.7 230.7 219.1 209.3 198.1 190.7 183.6 175.6 169.3 164.3 160.6 156.5 152.5 148.4 146.6 145.9 145 144 139.9 134.9 132.1 130.5 127.7 124.4 122.7 129.7 136.5 145.7 148.3 150.7 154.5 155.9 156.7 157.6 157.8 155.1 153.1 152.2 151.1 150.3 150.2 150.1 147.5 143.9 143 144.6 142.2 136.2 135.9 138.7 138.6 136.4 133.5 129.7 129 126.9 124.9 123.3 123.1 120.6 118.1 115.1 114.7 112.4 110.9 109.9 109 108.1 107 104.6 101.7 99.5 97.4 94.6 91.9 89.8 86.2 83 80.7 78.5 77.7 78.8 76.8 74.2 71 66.7 64.6 63.3 61.9 60 57 55.2 53.6 52.3 51 49.1 47.6 45.4 43.3 42.4 41.5 40.6 39.5 37 35.3 32.5 29.2 28.6 26.9 26.4 26.3 24.5 21.7
336.7 340.8 340.2 336.6 333.7 327.4 324.5 326.7 333 333 329 326.5 326.6 328.7 331.2 332.4 332.7 333.1 333.1 331.8 332.5 333.4 334.4 336.4 336.6 337.8 339 340.4 342.9 345.3 347.4 349.7 352.1 351.9 353.6 361.3 364.6 368.8 374.4 378.4 382.3 384.9 386.8 388.2 388.4 388.9 388.1 390.4 393.7 397.6 402.6 408.1 412.7 414.8 414.9 413.3 410.5 408.6 400.3 391.3 384.6 380.8 377.7 383.4 384.3 385.2 383.5 383.7 379.1 372 364.7 363.7 363.8 360.4 357.9 355.8 352.4 346.8 336.7 323.3 320.3 312.3 298.7 284.6 275.6 265.1 250.9 240.4 228.7 217.2 209.1 199.4 190.6 183.6 177.5 172.2 165.2 161.2 155.8 151.9 148.1 144.3 143.7 143.3 141.1 138.5 134.7 131.5 130.9 126.8 125.2 124 122.2 126.9 134.3 138.8 139.8 148.1 154.4 154.7 153.6 155.4 154.7 154.4 154 152.3 152.8 151.5 150.2 149.5 146.3 146.7 146.1 140.3 141 142.2 140.5 140.9 139.1 136.1 132.3 131.2 129.6 127.9 126.2 124.9 122.9 119.7 117 115.8 114.7 113 111.2 110.1 109.2 108.1 106 103.2 100.4 97.9 94.5 92.1 90.5 87.2 84.9 81.8 79.1 78.2 79.8 77.6 74.3 70.2 66.2 64.1 62.8 61.3 60.1 58.3 56.5 54.6 52.4 50.3 48.6 46.7 45.2 44 43.1 42.1 41.2 39.8 37.1 33.7 32.9 30.4 28.6 28.6 26.7 27 23.9 21.1
339.4 342.1 339.3 339.5 333.1 333.5 330.8 332.8 335.3 332.5 323.6 328.8 331.4 331.6 333.5 336.5 336.7 336.8 334.9 335 336.3 337 339.2 341.1 343.2 345 345.9 346.7 349.6 351.5 353.8 356.1 358 359.9 362.1 364.8 368.9 374.4 379.1 383.4 386.5 389.1 391.6 393 394.4 394.6 394.8 396.9 400.1 404.2 409.8 415 419.2 420.9 420.8 419.8 416.4 408.9 402.9 394.8 387.6 385.8 388.2 390.2 392.9 396 394.8 390.9 386.4 379.4 373.5 370.8 371.6 369.9 366.5 364.7 362.3 351.9 339.6 326.8 313.2 300.1 293.8 283.9 272.5 257.8 247.1 236.2 226 216.7 206.6 198.6 191.7 185.6 179.6 173.4 166.8 159.9 153.9 150 146.9 143.1 140.3 140.9 138.2 135.1 133.2 130.3 127.2 123.7 123.2 121.5 119.9 119.3 120.9 125.3 130.8 139.9 149.1 149.7 150.8 152.7 152.4 151.3 149.8 149.5 152.3 152.3 150.2 150.1 150.6 150.8 149.5 146.1 144.4 146.2 143.1 142.4 141.6 138.4 134.8 133.2 131.7 130.2 128.7 127.2 125 121.9 118.8 117.7 115.9 114.3 113 111.7 110.3 109.1 105.8 102.8 100.8 98.4 94.6 92.7 89.5 87.4 85.3 82.3 80.1 79.5 79.3 76.2 72.1 68.4 65.8 63.3 62.2 61 59.8 58.4 56.3 53.6 51.5 49.3 48.5 47.8 46.2 44.8 43.8 42.8 41.6 40.1 38.1 35.3 32.7 30.5 29.9 29.1 26.8 27.4 23.5 21.5
343.7 339.8 342.2 338.9 335.7 339.4 331.7 334.5 333.6 329.6 336.4 334.9 335.7 337.2 339.9 339.9 339.5 339 338.8 340.1 340.7 341.3 343.2 347.1 347.6 349.3 350.8 352 354 356.3 358.8 361 363 364.7 367.4 368.3 374.1 378.4 383 387.5 390.5 393.2 395.9 397.1 398.3 398.7 400 401.6 403.8 405.8 411.6 417.2 422.2 424.7 426.6 427.5 425.7 417.8 407.6 399.3 394.4 390.8 392.1 395.4 399.1 402.8 403 398.2 392.6 385.4 381.7 378.8 375.5 375.7 377.8 378.4 377.4 359.4 343 328.6 316.5 304.8 293.3 285.1 272.5 259.3 247.5 236.6 225.4 214.8 204.9 196.4 188.8 184.7 178.6 169.3 164.3 158.2 152.5 149.5 145.8 142 137.5 137.1 135.2 131.9 128.9 125.4 122.4 120.2 118.6 118.2 116.7 115.7 115.9 116.9 120 126.3 133.5 137.3 141.7 144.4 145.1 145.1 145.1 143.1 146.6 152.7 152.9 153 153.5 152.8 150.6 147.9 148 148.4 145.8 144.5 144.1 141.1 137.4 135 133.4 131.9 130.4 128.1 126.3 123.8 120.8 119.8 117.1 115 113.9 112.6 111 108 105.7 103.7 100.1 97.4 95.6 93.3 89.7 87.1 85 82.4 80.3 79.1 77.8 74 69.9 67.2 65.7 63 61.2 59.7 58.3 57.2 55.2 52.5 51.2 50.2 49 47.8 46.4 44.3 43 42.5 41.1 39.6 38.3 34.8 32.2 30.2 28.7 27.1 27.9 28 25.9 22
345 344.5 342.9 340.8 342 339.1 331.7 334.5 334.6 334.9 337.1 338.3 339.6 340.8 341.6 341.7 341.3 341 341.4 343.2 344.3 345.2 347.2 349.6 351.5 353.4 354.7 356.2 357.5 360.1 362.3 364.3 366.2 368 371.5 374.6 377.9 382.4 386.8 391.1 394.2 396.7 398.4 400 401.2 402.6 402.3 402.7 405 407.5 413.1 418 424.3 428.8 434.1 436.1 432.5 424.8 417.7 408.5 399.2 395 393.9 397 397.9 400.8 402.2 397.7 395.8 395.5 392.9 385.5 380.9 383.8 390.4 387.7 378.9 359.1 343.1 330.1 316.5 304.3 292.4 282 270.7 256.6 246 236.1 224.9 214.2 203.5 194.4 186.4 181 176.5 167.4 161.4 156 151.7 148 144.7 140.5 136.1 132.5 129.1 125.8 123.2 119.8 117.6 116.7 116.1 115.6 114.6 113.4 112 111.9 109.5 109 113 115.1 122.2 127.4 131.9 136.6 139.3 137.4 144.4 150.9 153 154.7 155.4 154.4 152.4 152.8 151.5 150.2 148.6 146.9 146.3 143.3 139.9 136.7 135.2 133.3 131 129 126.8 124.5 123.1 121 118.1 115.5 114.8 113.2 111.3 107.4 106.1 104.1 100.6 97.5 95.5 93 89.9 87.3 85 82.6 80.5 78.9 75.1 72 69.9 67.9 65 62.5 60.5 59 57.1 55.3 53.4 51.6 50.5 49.7 48.3 47.4 46.4 44 42.2 42.4 41 38.7 37.7 34.8 32 30.5 29.1 30 29.3 28.9 25.7 21.8
343.7 340.5 341 343.6 340.9 339.1 332.9 337 336.2 334.7 337.9 338.8 339.8 341.6 342.9 343.6 343.4 343.1 344 345.8 347.6 348.8 351.6 354.3 355.8 356.7 358.1 359.8 361.2 363.3 364.5 367.1 369.2 371.1 375 378.4 380.8 385.3 389.9 392.3 396.8 399 400.7 402.4 404.1 405 404.8 405.2 406.7 409 413.8 418.7 424.9 431.5 438.7 442.5 438.9 433.6 425.6 416.3 407.3 399.1 396.7 398.2 398.4 399.4 397.4 396.6 397 401.5 399.8 389.7 384.1 387.4 398 394.4 377.5 360.5 344.8 332 315.2 303.9 290.4 279 267 254.9 243.8 234.1 224.3 213.5 202.3 192.5 184.8 177.4 172.3 167 161.1 155.8 150.7 146.1 140.6 134.6 130.3 124.1 121 118.7 117.1 116.6 116.2 115.6 115.2 114.5 111.1 110.2 109.1 107.8 105.1 104 103.8 104.5 104.7 108.1 114.3 126.3 133.1 136.6 145.1 150.3 152.9 154.6 155.4 153.9 154.9 156.2 154.8 153.1 151.6 149.3 148.1 144.5 141.2 138.7 136.5 134.5 132.5 130.5 128.5 126.7 124.3 121.3 117.8 117 115.4 111.8 109.8 107.5 106.6 103.4 100.8 98.1 95.4 92.7 90.1 87.6 85 82.8 80.6 77.5 74.2 71.8 69.4 66.6 64 62.8 60.4 58.8 57.1 54.4 52.3 51.3 50.4 48.9 47.6 46.7 45.7 44.1 43.1 42.6 41.2 39.6 38.8 36.9 33.8 32.2 32.2 32.8 31 29.6 24.9 23.5
346.2 348.9 343.8 342.3 341.1 340.9 334.9 338.8 338.3 336.4 336.6 337.5 339 341.7 342.8 343.6 345.1 345.3 346.6 348.4 349.7 351.9 354.4 357.1 358.7 359.8 361.2 362.9 364 364.8 367.6 369.9 372.1 374.1 377.9 381.6 384.7 388 391.9 396.2 398.9 401 402.7 404.4 406 407.3 407.8 407.3 409.5 409.5 414.2 420.7 424.3 431.8 438.3 440.7 439.6 436.8 430 421.6 413.7 409.1 402 400.2 400.1 399.7 397.7 394.9 394.6 395 392.4 384.7 385 388.7 396.3 392.2 374.9 358 346.5 332.9 318 301.2 288.1 276.6 265.1 253.6 242.9 231.6 222.5 211.5 199.2 190.1 181.9 173.2 167 163 157.6 151.4 145.9 139.6 133.5 125.3 122.7 119.7 116.9 116.9 114.5 114.6 113.7 113.3 113.1 111 109.9 109.2 106.4 107.2 106.8 105.5 104.1 101.4 101.7 102 102.8 117.3 126.6 134.2 142.2 148.4 152.5 154.5 155.1 155.4 155.8 156.5 154.9 153 154.7 150.2 148.4 145.4 143 140.3 137.3 134.6 132.7 130.8 128.6 125.5 123.6 120.9 118.5 117.4 114.9 111.7 109.4 106.3 104.1 101.7 99.5 97.5 93.8 91 88.5 86.6 84.4 81.7 79.7 77 74.1 71.5 69.5 67.6 65.8 63.8 60.7 58.8 56.4 54.9 54.3 52.5 51.3 49.7 49.4 47.5 46.1 44.7 44.4 44.2 43.5 43.2 42.9 41.3 37.7 36.6 37.2 35.6 32.5 29.6 24.9 24.5
350.9 348.2 343.5 345 341 339.4 336.3 339.3 339.7 337.3 337.4 337.5 338.6 340.4 340.6 342.6 344 344.9 348.1 349.1 350.7 353.7 356.4 359 361.7 363 363.8 364.6 365.3 366.2 369 371.6 374.2 376.8 380.3 384.2 387.4 391.1 395.6 399.3 401.7 405 406.6 408.3 409.9 410.2 410.6 411.8 411 413.2 413.9 419.4 424.6 431.7 437.9 441.5 440.4 437.9 434.2 429 422.7 421.9 415.1 405.2 397.8 396.5 396 391.6 391.3 388.7 385.3 377.6 378.7 384.7 388.9 380.6 366.2 352.7 343.2 330.6 314 298.8 289.1 274.2 263.9 250.8 241.7 229.2 217.8 206.8 193.1 183 175.7 168.2 161.4 156.4 151.7 145.4 139.2 133 126.3 123.1 121.7 118.6 118.5 118.2 116.8 116.7 113.9 113 112.5 111.4 110.4 108.2 107.8 108.5 108.6 109.1 107 104.1 101.2 99.5 99.7 107.9 118.7 126.9 136.3 143.9 149.2 152.7 154 153.3 152.3 153.7 153.6 150.6 149.7 149.6 148.6 145.7 143.5 141 138.3 135.8 132.8 130.8 128.6 124.8 122 120.3 118.6 115.9 114.1 111.5 109.2 106.5 104.1 102 99.6 96.9 95.1 91.9 89.2 86.7 83.3 80.7 78.7 76.6 74.8 72.7 70.9 69 67.1 64.5 62.1 59.4 56.9 57.7 56.5 54.7 53.5 52.3 52.1 51.2 49.9 48.6 48.4 48.3 47 46.8 46.7 43.4 41 41.1 40.2 36.2 32.7 32 27 26.3
349.6 346.4 345 344.4 344.2 342.6 343 340.4 338.9 338 340.7 341.1 342.5 343.2 343 344.1 344.4 345.3 347.3 348.4 351 354.8 357.9 360.4 363.3 363.9 364.7 365.8 366.6 367.6 370.3 372.9 375.5 378.4 382.2 385.4 389.7 393.5 397.9 403.1 405.6 409.3 411.6 413.8 415 416.5 415.6 416.1 415.6 416.9 418.2 421.9 427.5 435.4 441.8 443.1 441.5 438.9 436.7 437.3 437.3 432.1 430.8 414.6 397.5 395.5 392.2 388.2 383.6 379.4 374.4 368 370.3 375.2 373.9 368 357.1 345.4 337.9 328.3 311.4 307.2 294.9 275.9 261.8 249.2 239.6 227.3 215.2 201.4 188.3 176 168.3 161.4 154.8 148.2 141.9 136.4 132.1 126.9 124.2 122.9 121.6 119.2 119.7 117.6 117.5 116.3 114.7 114 112.8 110.4 109.4 109.1 109.8 110.9 112.7 112 108.9 106.8 104.2 102.5 100.4 99.6 106.4 117.8 127.5 137 144.1 147.4 150.2 149.3 149.4 148.5 150.6 148.3 148 146.2 145.6 144 142.3 140 137.8 135.2 132.6 129.4 126.6 123.4 120.8 119.2 117.2 114.4 113 109.8 106.8 104.7 102.5 101.1 100 96.4 93.4 92 88.3 86 82.4 79.8 77.2 75.8 71.5 70 69.4 67.3 65.8 65 63 60.9 58.7 58.9 59.1 57.1 56.6 55.2 55.3 54.8 53.6 53.1 53.2 53.2 51.5 50.7 50.4 47.7 43.5 43.3 42.3 38 33.8 31.9 27.5 26.5
351.9 353.1 349.2 350.7 348.9 344.8 345.1 341.5 339.6 339.5 341.4 344 345.1 346.3 347.8 347.7 346.7 346.5 345.1 348.8 353.2 355.8 358.6 361.5 363 364.6 365.7 366.9 367.9 369.1 371.6 374.3 377.2 380.1 384 386.9 391.1 396.6 401.8 406.9 410.8 414.4 418.8 422.1 424.4 425.7 422.8 421 420 424.6 424.9 426.1 430.5 434.1 440.7 443.9 444.9 442.9 440.6 442.1 443.9 442.5 443.6 428.8 409 398.4 393.6 387.6 379.9 371.1 363.8 356.2 359.8 362.4 358.2 354.3 346.3 337.7 328.6 322.2 319.7 312.8 295.2 268.5 257.9 248.5 237.1 224.9 211.4 197.5 182.5 169.1 159.9 152.1 142.9 133.2 127.3 125.6 123.7 122.5 122.9 121.6 120.1 123.4 124.4 121.5 117.2 115.6 115.2 114.1 112.9 113.2 113.2 113.7 115.8 120.5 123.4 120.3 113.9 109.6 107.2 105.1 102.2 99.1 97.5 102.9 115.3 127.4 136.4 142.1 145.5 146.4 145.8 143.6 145.9 146.5 146 144 143.4 143 140.7 138.1 135.3 133.8 130.3 127.9 124.7 122.4 120 118.8 116.3 113.6 110.5 107.1 105 103 101.3 99.7 96.2 93.4 93.3 90.3 86.6 85.2 82.2 79.6 76.8 75.7 72.3 70.8 69.4 67.9 67 66.3 64.7 62.6 60.3 60.6 60.8 60.2 59.6 58.1 58.3 58 57 57 56.9 57 56.1 55.2 54.1 52.1 48 45.8 44.4 38.4 36 32.5 26.8 25.8
353.7 353.4 352.1 349.9 348.1 346.6 343.9 340.9 339.8 341.3 343.5 346.3 347.4 349.5 349.4 348.7 347.8 348.5 348.7 348.8 353.4 356.9 359.2 361.9 363.1 365.8 367 368.1 369.1 370.6 373.1 376 378.9 381.8 384.3 388 395 400.6 405.7 410.8 415.9 422.8 423.4 421.8 431.1 432.5 432.1 429 430.1 432.6 431.7 432.3 432.9 435.4 442.5 445.5 448 445.8 445 446.5 449.4 449.4 448.7 433.7 417.9 402.8 392.7 381 375.2 364.8 354 346.1 347.7 348.9 344.5 338.8 332.1 327.5 326.5 322.7 317.8 309.1 280.7 260.9 253.9 244.8 232.8 218.5 204.6 190.3 174.4 158.2 148.3 139 129.2 127.2 127.7 127.1 127.5 126.9 125.6 125 126.2 125.5 125.3 123.9 122.7 121.6 122.9 126.1 128.5 130.6 129.9 131 132.9 136.7 137.1 132.8 125.5 119.3 115.1 111.3 109.3 103.9 99.4 95.7 101.6 114.8 127 134.9 140.1 142.1 140.3 141.6 144.1 145.1 144.1 142.7 143 142.7 139 136.6 134.4 131.8 129.3 125.5 124 121.7 119.7 116.6 113.7 110.7 107.6 105.5 103.7 101.8 100.2 97.8 93.6 92.6 91.6 87.9 86.4 83.4 81.7 78.7 76.5 75.2 73.9 71.4 69.7 68.5 68.3 65.7 63.8 62.6 62.7 62.3 62.6 62.6 61.9 61.2 60 59.7 60.1 60.2 59.3 59 58.1 57 55.9 53.7 52.2 50.7 43.8 40 33.1 32 25.3 24.5
355.8 354 351.3 349.6 348.3 345.7 342.7 344.3 345.2 347.4 348.3 349.7 350.9 350.7 350.7 349.9 349 350.5 349.9 349.5 352.8 357.4 360.4 363 365.4 366.7 368 369.4 370.7 371.8 373.3 376 378.8 381.4 384.1 390.4 398.4 404.5 409.7 413.7 417.3 420.2 420.7 422.6 432 434.9 435.3 437.1 436 437.2 437.9 437.9 435.9 435.2 447.3 449.5 444.4 440.9 439.6 445.9 450.6 453.7 453.6 443.7 426 408.9 391.8 376.5 365.3 355.7 346 338.7 336 335.2 332.1 327.6 326.4 324.6 320.4 319.1 313 298.2 270.1 254.3 248.9 240.6 225.5 209.7 194.7 181.1 163.3 151.1 139.9 134.4 128 130 131.5 133.2 134 132 131.7 131.9 132.3 131.2 127.7 130.3 135.3 138 140.1 141.5 144.4 145.5 147.4 149.4 150.7 150.9 150.6 147.3 140.4 135.8 130.3 124.2 119.9 115.2 108.4 98.2 95.9 101.7 115.9 127.6 133.7 135.8 136.1 137.9 141.7 143.6 143.5 142.9 143.3 140.9 137.6 135.9 133.8 131.4 129.2 125.7 123.1 120 117.1 114.6 111.6 109.7 107.5 104.9 102.5 100.5 98.2 95.9 92.1 91.2 89.6 86 83.7 81.4 79.7 77.4 75.4 74.4 73 71 70.4 69.7 66.2 64.4 63.8 63.8 64.9 64.6 64.1 63.5 62.8 62.8 62.9 62.5 61.9 61.1 60.4 59.4 58.4 56.2 55.2 54.2 52.5 49.3 45.8 42.1 33.5 32 25.7 23.7
355.7 353.9 350.4 348.9 347 346.3 347.4 349.8 353.1 353.3 351.4 353.8 354.1 353.9 353.5 352.1 349.2 351 352 351.8 355.3 359.2 361.6 364.8 366 367.4 368.7 370 370.4 372.4 373.4 375.7 377.9 380.3 387.5 392.8 401.2 407.3 411.5 414.9 418.7 419.4 423.6 426.3 430.6 435.9 440.4 441.8 442.8 442.1 443.4 443.1 436 433.9 439 438.1 436.3 436.2 434.4 440.5 446.1 451.8 453.4 448.9 436.6 411.7 390.3 372.3 357.9 347.9 338.4 330.8 328.3 326 324.3 325.5 325.3 319.7 312.2 313.5 307.8 286.6 258.6 256.3 247.6 234.3 217.4 200.7 185.7 172.6 155.8 144.4 135.8 132.1 129.8 136.3 139.8 141.5 140.1 139.3 139.8 140.9 142 141.8 141.3 143 147.3 150.7 153.3 156.2 158.3 160 163.1 164.3 163.2 162.6 162.2 159.7 157 153.7 149.3 143.6 136.8 128.3 116.5 105.1 94.1 95 103.6 119 126.6 129.5 134.1 136.3 139 141.5 142.5 142.2 142.3 139.5 135.7 134 132.8 130.9 127.4 124 122.4 119.3 114.8 113.4 111.9 109.3 105.4 102.5 100 97.8 95.8 93.8 91 88.9 87.7 84.5 83.5 81.8 79.4 77 74.5 72.9 72.2 71 70.3 68.6 66.4 67.1 64 63.1 65.1 65.4 64.1 63.5 63.3 63.3 63.2 62.4 61.6 60.7 60 59.4 57.8 55.7 54.3 53.8 51.5 49 47.1 41.9 35 30.8 26.3 23.8
357.4 353.9 350.8 349.4 350.4 351.7 354.4 358 359.2 359 358.6 357.7 357.2 356.8 355.9 355.9 355.1 353.1 352.9 353.7 358.4 360.3 362.5 363.5 365.7 366.6 368.9 370.4 370.9 372.4 374.5 376.4 378.2 381.5 387.2 393.8 400.6 406 410.1 414.7 415.9 419.3 422.2 424.7 430.1 434.7 437.4 442.1 443.5 444.5 446.7 445 436 429.9 430.5 426.8 427.5 429.1 427.7 434.4 438.8 442 445.3 441.2 426.4 405 380.6 365.3 351 343.8 329.6 323.7 322.3 322.8 321.6 317.4 311.9 306.9 304.9 301.7 297.3 274.2 248.3 254.3 235.8 220.4 204.6 190.3 181.2 167.6 153.8 142.7 136.7 130.4 138.7 146.2 150.6 151.8 151.3 151.6 151.7 153.2 154.2 153.8 153.7 153.6 158.8 164 167.9 171.6 175.4 178.3 180.9 178.7 180.9 180.5 177.1 175.3 170.7 168.8 164 158.2 151.6 144 130.2 114.7 97 93.1 96.7 111.7 119.9 125.3 130.3 133.7 137.6 140.4 140.6 140.8 139.8 138 135.3 131.6 129.9 128.4 125.5 123.2 120.7 117.6 113 110.7 108.9 106.7 103.6 99.5 96.7 94.9 92.7 90.7 89.1 87.1 85.9 84.2 82.2 80.1 77.7 75.7 73.6 72.7 71.5 69.6 69.3 68.5 66.9 65.5 63.6 65.3 67.2 66.1 65 64 63.3 63.2 62.8 62.4 61.3 60.4 59.7 59.2 57.4 55.6 55.3 53.9 52.5 50.9 47.9 42.5 37.4 33.2 27.1 24.9
357.1 354.3 352.9 353.8 354.8 357 359.8 362.2 363.9 364.4 362.2 360.9 360.4 359.5 358.3 357.5 357.6 357.8 358.9 357.9 360.4 361.7 363.2 363.5 364.6 366.4 369.1 370.8 371.7 373.4 374.5 376.3 378.7 381.6 386.7 392.9 399.5 404 407.6 411.4 414.2 417.7 421 424.7 429.4 432.8 435.1 436.9 439.3 441.6 442.4 440.9 434.1 423.8 421.7 418.3 417.2 418 417.9 424.6 428.7 432.3 433 431.7 427.8 400.5 372.9 359.4 347 335.5 321 319.5 318.6 315.5 303.5 296.8 297.6 294.9 291.7 293.4 275 249.5 235.5 238.7 226.5 207.9 194.4 185 176 163 151.8 136.6 133.5 141.6 150.3 157.6 160.8 161.6 163.5 164.3 163.3 165.9 166.1 166.3 163 165.3 171.1 177.1 181.7 186.8 191.8 195.7 198.5 200.2 200.7 199.9 196.8 192.2 186.9 179.3 174.2 169.4 164.3 159.8 143.5 122.2 98.9 94.6 95 105.9 112.7 118.1 126.1 131.6 135.4 138.4 138.6 137.6 136.8 135.4 132.4 128.6 126.7 125.8 123.4 122.7 118.1 114.7 111.3 108.1 105.7 102.1 99.6 97.2 94.9 93.3 90.8 88.7 86.9 85.6 84.6 83.3 80.9 78.6 76.6 76.2 74.3 74.3 71.2 70.7 70.4 69.2 66.7 66.1 65.5 67.1 67.6 67.4 65.1 64.7 63.9 63.3 62.4 62.7 61.1 60.5 59.5 58.8 56.9 56.5 56.5 55.7 54.2 51.5 47.7 42 38.9 28.5 27.7 26.3
359.3 358.5 358.4 360 361.2 363.4 365.9 368.1 369.1 368 365.9 364 362.7 361.6 360.3 358.5 357.8 357 356.4 356.5 356.9 359.2 360.4 363.2 365.6 368 368.9 371.2 372.5 373.4 374.4 375.9 378.6 381 386.3 392.2 398.3 402.7 406.3 409.4 412.5 414.8 416.6 420.3 425.8 430.5 433 434.6 436.1 437.9 438 438.3 429.4 417.5 411.8 409.5 406.9 404.8 407.3 413.5 421.2 419.2 414.5 416.6 418.9 381.5 360.1 351 337 322.1 314.3 311.8 304.7 298.1 282 281 284.4 277.9 280 274.5 244.3 225 221.4 222.1 214.2 197.2 187.7 183.7 173.1 160.1 147.5 135.9 143.6 153.5 163.1 169 172.1 173.8 175.8 176.1 177.9 179 181.4 177.7 175.4 179.2 184.5 190.7 194.6 200 205.2 209.4 213.3 215.9 217.2 215.9 212.3 206.5 199.1 189.6 184.1 179 174.1 168 154.7 128.4 106.3 93.8 92.7 99.7 105.9 113.8 122.7 128.7 133 135 134.6 133.5 132.5 131.1 126.9 125 123.6 121.6 119.4 118.6 116.6 114.6 109.5 106.1 104.5 101.7 98.8 96.9 94.1 91.8 89 86.8 85.6 85.9 84.5 82.5 80.6 79.5 78.1 76.5 75.1 73.6 71.7 72 71.2 69.5 68 66.5 66.9 67.9 66.9 66.5 64.6 64.8 64.8 65.1 63.8 63.4 62.2 60.6 59.7 58.9 58.5 58 57.7 57.4 54.9 49.5 46.2 43.5 34 28.5 27.8 27.2
363.7 364 365.7 367.7 369.2 370.9 373 373.8 372.5 370.7 367.4 366.2 365.9 364.7 362 359.1 358.4 357.3 354.8 354.6 353.9 355.7 356.7 360 362.9 365.1 366.4 367.7 370 370.4 372.2 375.5 377.7 380.8 384.9 390 395.4 400.3 404 406.6 409.6 413.5 415.6 417.8 420.1 425.8 429.2 433.4 434.3 434.8 436.8 436.9 429.1 414.8 406.6 402.7 401.4 398.7 400 408.7 411.5 405.9 400.8 401 395.1 363 347 339 328.5 319.6 310.6 298.1 287.6 281.9 268.7 272.3 266.2 264.5 262.2 250.4 227.1 213 211.1 208.9 200.1 189.3 184.6 182.1 167.8 155.5 143.2 137.2 148.2 163.3 174.3 181.2 183.7 187.1 187.7 188.6 190.4 195.7 200 195.5 194.3 195.7 198.9 203.3 207.2 209.9 214.4 218.5 223.9 227.5 229.6 228.8 223.1 216.1 209.8 201.5 193.6 187.4 180.5 173.2 162.9 140.7 115.8 95.1 92.3 94.4 100.5 107.4 117.2 124.9 129.4 131.1 130.6 129.6 128.2 127.4 122.7 120.5 120.3 118.6 117.4 114.3 110.7 111.4 105 106 104 98.6 97.8 94.9 90.8 90.2 87.9 85.7 87.3 85.8 83.4 81.6 80.9 79.1 77.6 75.9 74.4 72.5 72 70.6 70.7 69.2 68.3 67.8 67.8 66.9 66.3 67.2 65.6 64.8 65.2 65.5 64.2 64.1 62.4 62 62 60.4 59.4 59.1 58.7 57.2 54.5 49.4 46.2 44.2 35 28.4 27.4 26.8
368.9 370 371.7 374.3 377.2 378.3 377.4 375.8 373.5 372.4 370 367.2 365.7 363.9 361.1 357.2 357.1 354.6 352.5 351.2 350.4 350.9 350.3 353.9 355.8 356.2 358.7 361.1 363.8 364.7 368.5 371.6 373.9 377.2 381.9 386.9 391.6 396.3 400.9 406.2 410.4 412.6 415.2 417 418.8 421.2 427.5 431.6 433 431.9 430.3 431.9 423 408.2 400 397.6 398.3 393 392.3 397.6 398.8 392.8 388.1 387.9 372.3 346 336.2 329.9 322.4 307 285.7 281.2 271.9 267.3 256.6 252.9 246.2 244.4 240.7 230.4 210.5 204.2 205.1 204.6 191.8 187 180.2 173.8 162.2 151.4 139.9 138.7 150.7 170.8 185.2 193.6 197.2 200.7 206.6 207.4 207.9 216 219 218.3 218.1 216.6 214.9 213.7 214.8 215.3 216.2 221.8 229.4 231.3 238.1 236.7 225.3 216 213.2 206.3 199.6 193.3 184.8 176.9 168.4 151.8 128.3 99.1 90.4 93.2 96.2 103.6 110.2 118.2 123.3 125.3 125.3 124.4 123.2 121.5 119.7 115.2 113.8 112.7 112.9 111.1 109.2 103.8 103.5 103.3 98.8 97.3 94.2 91.6 89.8 87.8 87 87.2 86.8 83.3 81.5 79.3 79.1 77.6 77.6 75.7 74.5 72.6 72.6 72 70.4 70.5 70.2 69.2 67.6 67.7 67.7 67.2 66.2 65 65.1 65.1 62.6 62.7 62.7 61.6 62 62.1 60.9 60 58.2 55.9 52 48.3 45.8 44.7 38.8 27.9 28.5 28.1
374.9 376.7 378.4 381 381.8 380.6 379.6 377.8 375.2 371.5 369.3 365.7 364 360.1 355.3 352.3 351.4 351.8 348.5 348.3 345.6 342.4 342 342.5 348.1 346.1 348.4 349.2 354.5 359.1 361.5 365.6 369.4 372.6 378.1 382.8 387.9 393.4 400.6 405.7 409.9 412.7 414.8 416.1 417.9 421.1 424.3 427.3 432 429.7 424.3 423.8 413.1 398.4 394.3 391.7 393.1 387.5 387.8 386.9 390.3 383.6 376.6 373.1 351.5 329.3 326.9 323.2 313.7 285.8 272 263.5 252.3 247.9 244.8 238.4 232.1 226.1 218.5 206.9 197.1 205.4 198.5 191.9 187.4 179.2 173 167 156.4 149.6 141.8 140.3 155.6 179.1 196.4 205.4 211.5 220.6 228 231.7 234.8 234.5 236.3 238.8 237.1 237.7 234.3 221.5 219.5 220 216.9 214.1 218.7 220.6 221.8 212.1 200.1 189.8 187.7 187.4 186.6 182.6 176.3 170.3 164.6 159.3 140.5 113.6 94 89.7 92.7 97.1 102.7 108.5 113.2 116.9 117.3 115.8 115 115.9 113.7 110.1 111.3 108.4 106.6 105.1 103.9 100.5 101.4 97.1 97.1 94 92.5 89.1 87.7 90.8 86.3 85.8 81.9 81.3 79.9 78.6 77.9 76.6 76.9 76.1 74.8 74.1 73.8 73.4 70.2 70.1 70.2 69.7 68.9 68.5 66.1 65.5 66.1 64.8 65.1 64.4 62.4 60.8 60.9 61.3 61.8 62 61 59.1 56.6 54.5 51.1 47.4 44.3 41.9 32.2 29.2 30.3 29.7
381.9 383.6 384.7 384.8 383.5 381.3 380.1 378.3 374.7 372.1 367.1 362.8 359.6 355.5 350.5 350.2 349 345.8 344.2 345.1 343.6 336.1 331.1 332.7 333.2 332.2 338.1 344.7 350.6 352.9 355.4 359.4 364.9 370.3 374.5 380.2 384.9 389.4 394.4 398.9 403.9 410.4 415.5 418.4 418.2 419.3 424.3 430.1 431.5 429.2 420.7 412.9 401.3 391.6 387.1 384.3 384.9 377.4 379.5 374.7 374.6 371.4 364.2 356.9 336.4 323.1 320.6 315.2 299.7 274.6 257.7 248.8 241.4 238.1 235 231.1 218.3 208.1 206 198.9 191.6 184.4 180.8 181.8 177.3 171.1 164.8 159.9 154 147.3 144.3 140.4 164.8 189.4 206.4 218.2 228.9 241.5 254.4 268.3 272.5 261.4 263.3 264 268.2 269.6 259.1 237.9 227.5 225 220.4 211 201.8 205.5 200.5 192.8 180.2 171.8 167.6 162.9 162.3 157.9 152.2 149 151.7 146.8 140 126.6 108.7 93.1 88.2 92.4 93.7 94.5 100.4 104.5 105.9 104.1 102.2 103.3 106 105.3 104.2 103.5 102.1 98.4 92.2 93.2 96.7 93.4 92.4 91.3 88.3 88.1 87.8 85.8 84 81.6 80.2 79.8 78.4 77.2 76.5 76.7 76 75.1 74.3 73.5 72.8 72.6 69.8 68.5 67.8 67.9 68.4 67.3 65 65 65.1 65.3 65.2 63.5 62.3 60.5 59.6 59.1 59.5 59.8 59.2 57.5 54.9 52.2 49.1 46.6 44.2 39.3 28.5 28.9 29.6 30.1
387 388.2 387.9 386.8 384.8 382.3 381.2 379.5 374.7 368.1 364.5 360.9 356.4 352.2 347.6 344.8 342.7 339.5 338.5 338.5 335.4 326.8 324.8 320.2 321.7 324.3 330.4 333.5 342.4 345.5 349.1 354.7 361.9 368.1 371.1 376.9 380 382.4 386.8 392.8 397.7 405.7 411.1 416.8 416.8 416.6 423.7 429.4 431.2 428.6 417.5 409.2 397.8 383.2 378.3 375.7 373 367.4 366.2 363.2 365.3 356.7 349.6 339 327.6 316.8 308.4 298.3 276.9 257.8 244.6 237.8 234.7 231.8 230.4 222.8 213.2 202.1 190.5 185.5 177.7 180.7 173.9 169.7 167.7 163.8 160 156.4 152.7 146.6 142.2 151.9 176.4 199.2 218.5 229.4 244.5 260.8 286.2 306.5 307.1 290.8 283.9 287.7 291.8 294.2 289 266.7 242.6 228.2 220.1 208.3 194 185.1 188.1 181.9 172.3 163.7 155.8 148.5 143.9 141 138.3 133.1 132.1 126.2 124 125.4 118.7 109.5 99.3 89.7 86.6 92 90.7 90.3 92 92 89 88.1 88.6 87.8 89.5 98.8 90.6 84.1 79.5 76.1 75.9 74.4 75.9 81.2 85.4 87.3 79.2 72.2 68.1 71.2 75 75.7 76 75.3 75.2 74.7 75 74 72.7 71.4 70.8 70.5 69.5 68.8 68.1 67.6 67.3 66.2 64.8 65.1 65.6 65.4 64.1 62.3 61.3 61.3 60 58.1 57.3 57.7 56.1 52.7 51.5 49.6 48.1 46 42.4 35.5 28.7 28.1 28.7 29.4
389.1 388.6 388.4 387.1 385.5 384.4 381 375.6 371.8 367.2 363.2 359.9 360.4 355.8 351.2 342.8 340.5 336.3 333.9 330.2 325.8 323.9 317.1 315.3 315.2 314 313.7 321.6 330.6 336.8 346 350.5 355.3 360.4 365.7 370.4 373.3 376.3 377.8 382.8 389.1 399.8 408.1 411 411.6 413.2 420.2 423.5 429.1 425.6 413.5 404.5 390.5 376.1 369.4 365.5 359.5 358.1 348.3 350 352 348 340.7 337.7 327.9 310.1 297.6 279.3 262 245.9 237.6 231.3 229.7 227 224.8 209.5 188.7 170.8 162.2 159.4 160 157.7 159.6 162.4 161.6 159.7 157.1 156.5 153.3 144.3 153.5 170.2 187.5 208.1 226.4 240.5 255.7 276.5 312.4 335.7 334.8 316.7 308.7 311 319.8 321.7 323.5 309.4 265.6 237 221.3 209.1 194.7 181.8 174.3 169.6 165 155.8 148.4 141.7 137.3 134.1 130.6 124.4 121.2 118.4 116.8 117.8 120.1 120.6 109.1 103.4 94.8 85.4 84.3 84.5 84.4 83.7 81.8 79.7 77.7 77.3 76.3 77.5 76.8 74.5 71.3 70.4 69.1 68.6 67.1 66.3 71.2 72.2 68.8 67.6 66 66.2 66.5 69.6 70.4 69.3 69.4 70.4 70.9 70.6 69.8 69.9 70.2 69.8 68.8 67.6 67.5 65.1 65.6 64.6 64.4 64.8 64.7 64.4 63.2 61 61.1 60.9 59.6 56.8 56.1 56.4 53.7 50.6 49.3 48.9 47.7 43.1 37.6 32.4 29.1 28.5 29.2 30.1
389 389.3 388.5 390.4 387.2 383.6 379.1 376.1 372.2 371.5 367.6 363.6 359.2 355.8 349.3 341 335.6 333.3 329.2 325.8 322.3 319 311.4 308.5 303.2 302.2 306.7 312.2 321.6 330.6 334.4 338.2 346 351.1 357 360.4 364.8 372.2 371 376.2 382.2 392.4 399.5 403.5 407.3 409.4 419.5 422.9 427.9 427.5 415.2 400.6 384.3 372.6 362.4 356 347.4 341.8 332.5 341.3 344.8 338.8 342.1 339.9 313.5 294.7 286.8 270.7 253.8 239.6 234 228 225.4 225.4 216.3 191.7 161.8 161.1 163.2 156.3 154.9 154.4 152.9 152.6 152.5 152.4 150 148.5 145.9 156.3 168.8 182.1 197.9 217.5 235.2 250.6 263.5 286.2 311.7 350.5 360.8 349.1 338.9 336.6 340.6 346.2 338.7 316 282.6 252.5 226 209.1 193.2 178.9 170.1 162.7 156 147.7 142.4 138.8 134.7 129.8 125.8 123 120.7 118.4 116.7 115.6 121.4 124.3 121.9 113.4 105.8 98 91.7 87 84.9 82.4 76.8 75.1 73.4 73 71.6 71.7 70.4 69.8 71.2 71.4 70.8 69.2 68.6 67.4 65.3 68.7 67.8 67.5 66.9 66.8 64.8 64.7 62.4 61.5 61.7 62.4 63.5 63.8 62.3 63.2 64.9 66.6 66.4 67.5 64.6 60.2 58.9 58.7 58.9 59.4 60.2 61 60.9 58.1 59.8 60.1 59.4 58 56.6 54.7 51.5 49.7 48.8 48.8 45.4 40.4 33.7 31.4 29.2 29.9 30.8 31
397.2 399.2 395.2 394.4 393.2 390.4 382.6 376.1 370.1 370.8 365 361.8 358.4 352.2 347.8 340.5 336.4 329.3 321.5 320.2 315.5 310.6 304.4 301.2 298.1 302.7 305 304.9 314.6 320.5 328.7 334.4 337.8 346.8 351.3 357.5 361.6 364.7 371.1 373.2 381.8 384.8 392.1 396.2 401.9 409.2 418.4 422.3 427.9 425.7 415.1 398.9 376.4 363.7 350.6 344.8 335.4 329.2 328.3 331.5 334 339.4 341.1 335.7 292.7 283.6 271.8 257.6 244.5 236.6 231.5 225.2 224.6 225.9 211.1 182 159.8 164 167.6 173 170.6 166.7 169.7 172.4 163.6 149.8 148.6 149.3 162.6 173.7 185.5 195.1 210.2 227.8 242.8 259.1 275.8 291.6 311.9 352.4 374.7 374.3 365.9 360.7 358.3 350.1 331.3 297.4 269.6 245.4 227.5 208.5 191.4 179.9 170.6 162.9 157.8 151.7 149.3 147.2 143.1 133.6 127.9 126.6 125.4 124.2 120.1 117 115.3 115.4 116.9 113.8 112 104.1 98.3 92.3 89.7 87.8 85.1 80.9 79.4 79.9 79.1 75.4 74.7 73.3 73.6 73.2 72.1 70.5 69 66.9 64.7 64 63.7 59.4 59.9 58.5 60.6 63.3 62.5 60.9 60.7 57.4 56.8 61.4 61.1 60.8 60.4 59.5 59.5 60.2 54.4 53 51.3 50.4 50 50.2 52.1 53.5 54 54.6 56.5 57.6 58.1 58.9 57.6 51.9 49.9 48.9 47.1 44.1 41 34.1 32.6 30.2 31.4 31.4 31.5 31.6
