ncols 200
nrows 82
xllcorner 270000
yllcorner 635900
cellsize 50
309.7 313.8 317.5 321.1 323.1 324.9 323.9 323.2 328.4 330.3 332.3 334.1 336.2 338.6 340.3 341.5 342.3 343.2 344 344.5 344.7 345.5 346.6 347.9 349.4 350.7 351.3 351.3 350.7 350.2 349.5 348.9 347.9 346.5 344.3 341.2 337.3 333 329.6 326.6 324.1 320.7 319 316.5 313.8 311.7 309.4 307.7 306 306.4 305.3 304.5 303 301.9 300.1 299.2 298.5 296.4 293.4 290.5 287.8 286.8 285.7 284.2 284.4 283 281 278.3 275.6 277.7 277.7 277.4 273.9 268.5 267.1 262.1 261.6 260 259.5 260.7 255.9 258.3 255.9 252.5 250.5 246.7 241.6 239.4 238.8 245.5 252.6 255.7 258.4 261.7 264.3 265.4 266.3 267.1 267.5 267.7 268.4 268.7 268.5 269.2 269.6 269 267.9 269.7 269.8 270.6 273 275.7 276.9 278 279.2 280 281 281 281 281.2 281.3 281.1 280.8 280.7 280.5 280.4 281.2 282.6 285.5 287.8 289.7 290.6 290.9 291.3 291.3 290.6 289.6 288.4 286.7 284.8 283 280.9 279.9 280.3 280.5 280.3 280.4 280.4 280.3 280.6 280.6 280.7 280.6 280.4 280 279.6 279.2 278.9 278 274.8 271.8 269.8 267.6 264.1 260.4 256.1 252.4 252.7 256.6 261.6 266.2 267.5 269 271.3 272.5 273.2 273 272.1 270.6 268.6 267.7 266.4 265.5 266 265.5 265.8 266.2 269.5 273.4 275.7 276.4 275.4 274.8 273.5 271 269.2 267 264.6 262.4 259.7
309.4 313.7 317.1 320.7 322.4 323.3 322.8 323.2 326.6 329.8 332.2 334.1 336.2 337.9 339.4 340.4 341.2 341.8 342.7 343.6 343.8 344.5 345.4 346.8 348.5 350.3 351 351.5 350.7 351.1 351.3 350.9 349.7 347.7 344.4 340.7 337.1 333.3 329.7 326 322.9 320.7 318.7 315.7 312.9 310.8 308.2 306.8 305.2 304.8 303.1 302.4 301.1 300.6 300.1 299 297.5 294.4 292.5 296.5 294.9 292 289.6 286.8 287.4 285.2 283.5 283 283.1 280.8 281.4 279.6 278.2 276.7 276 274.6 270.4 269.5 262.6 253.5 251.4 252.8 252.5 249.9 247.8 242.4 242.7 243.9 249.2 254.2 257.6 260.6 263.6 265.9 267.8 268.5 269 269.5 270.3 270.5 270.6 270.5 270.8 271.2 271.8 271.7 270.2 273.1 273.7 274.1 271.8 274.4 275.7 276.3 277.9 279.9 280.6 280.7 280.7 281 281.2 281 280.7 280.6 279.8 280 280.8 284.3 287.7 290.7 292.3 292.2 293.4 294.7 295 294.6 292.6 290.4 288.9 287.2 284.8 282.6 281.8 282.3 282.4 282.1 282.2 281.8 281.4 281.4 281.1 280.9 280.8 280.8 280.5 279.7 278.8 278.8 278.2 275.5 272.8 270.1 267.6 263.2 258.3 254.6 252.2 256 259.8 263.9 267.6 268.9 271.8 274.6 276.5 277.3 277.2 276.4 275.1 273.6 272.2 270 269.1 268.5 267.9 268.1 269.3 273 276.4 277.9 279.3 278.9 277.7 276.1 273.5 271.3 268.9 266.6 264.7 261.2
309.7 313.7 316.9 320.7 321.9 323.4 321.7 323 325.9 328.7 331 333.2 335.1 336.6 337.6 338.7 339.6 339.9 340.7 341.8 342.8 343.7 345.8 345.9 347.1 348.4 349.6 350.4 350.8 351.2 351.8 351.2 349.5 347.2 345 341.5 337.3 334 329.7 325.9 323.3 320.7 318.2 315.2 312.2 309 307.8 306.8 305.4 303.6 302.7 302.6 300.9 301.5 299.9 297.7 298.1 298.3 298.6 297.1 295.8 293.7 291.9 290.4 288.5 287.2 286.4 285.5 285.3 284.8 283.9 282.3 280.4 278.5 276.9 274.7 272.3 269 265.4 262.1 257.9 254.8 246.2 248.3 245.9 242.9 247.5 252.2 255.6 257.9 261.2 264.3 267.4 269.3 270 271.3 271.9 272.3 272.7 273.2 273.4 273.1 272.5 272.6 273.5 273.5 270.9 273.9 274.1 274.3 274.5 274 274.8 275.7 277.5 279.5 280.3 280.8 280.8 280.7 280.9 280.9 280.6 280 279.2 279.2 280.5 284.3 288.4 292 294.3 295.1 296.1 297.3 297.9 297.6 295.7 293.9 292 289.6 287.4 285.8 284.7 284.4 284.2 283.9 283.8 283.4 282.9 281.9 281.2 281 281.4 282.4 282 280.6 278.8 278.1 277.4 274.5 272.3 271 267.2 261.7 258.3 253.7 254.7 259.6 263.6 268.2 270.5 272.3 276.5 279.5 281.1 281.5 281.3 280.4 279.4 277.9 276 273.4 272.1 271.7 271.2 272.5 274.4 276.6 279.5 280.3 281.4 280.5 279.1 278.1 275.7 273.3 271.4 267.9 266.5 263.5
310.5 314.1 317.3 320.1 321.2 321.7 320.7 323.6 325.8 327.9 329.9 331.6 332.8 334.1 335.3 336.2 337 337.8 338.7 339.8 340.9 342.1 343.9 344.4 345.2 346.6 348.5 349.9 350.8 351.6 351.9 351.1 349.8 347.4 345.8 342 337.8 334.1 329.7 326.1 322.9 320.1 317.7 314.9 311.9 309.7 307.5 306.2 305.8 305.9 305.4 303.1 304.1 302.8 301.4 302 301.6 300.9 300 298.9 297.5 295.8 294.2 292.7 291.4 290 288.7 287.3 286.8 286.5 285.4 284.3 281.7 278.4 277.6 275.2 272.3 268.5 265.3 261.9 258.4 255 245.7 244.9 244.1 243.1 252.4 257.1 259.3 261.7 264.8 268.2 270.7 272.5 273.2 273.8 274.3 274.8 275.4 275.8 275.9 275.2 274.5 273.9 274.1 274 273.7 274.3 275.1 275.2 275.7 274.8 274.8 276.8 278.4 279.9 280.9 281.3 281.2 281.1 280.9 280.8 280.5 279.2 278 278.1 280.2 283.9 288.6 292.4 295.7 297.1 298 298.4 298.7 298.7 298 296.5 294.9 293 291.2 289.9 288.9 288.4 286.6 285.7 285.3 284.9 284.3 282.8 282 281.6 282.4 282.8 282.3 280.2 278.7 277.4 275.8 273.4 271.1 269.5 265.7 260.7 256.6 253 258.9 263.7 269 272.8 276.3 279.6 282.2 284.4 285.7 286.7 286.5 285.7 283.7 282.1 280.2 277.9 275.7 274.9 274.2 276.7 278.6 280.4 282.6 283.3 283.6 283.2 282.1 279.3 278.4 276.8 274.3 271.8 269 264.1
310.1 313.5 315.6 318.6 319.7 321.5 322.5 323.7 325.2 326 327.4 328.1 329.9 330.9 331.8 332.7 333.5 334.4 335.8 337.1 338.5 339.9 341.6 341.6 344.3 346.4 348.2 350 351.6 352.7 353.3 351.5 349.9 349.3 347.1 343.2 338.9 334.9 330.7 326.5 324.1 319.6 316.4 314.3 311.8 308.4 307.7 307.6 307.4 307.5 306.1 304.7 305.8 304.8 304.4 304.5 302.5 302.1 301.4 300.2 298.8 297.3 295.9 294.5 292.8 292.1 291.1 289.8 288.2 288.1 287.3 286.2 283.6 280 278 275.1 272.3 268.8 265.2 261.6 257.9 254.8 245.6 245.4 244.6 253.5 257.1 260.9 263.3 266.1 268.9 272.4 274.4 275.8 276.3 276.5 276.4 276.9 277.3 277.6 277.4 277.1 276.2 275.4 275.3 274.3 275.5 276.9 277 277.7 278.2 277 276 277.1 278.6 279.8 281.3 281.8 281.8 281.3 280.7 280.4 280.1 278.8 277.2 277.1 279.8 283.6 288.1 292.3 295.3 297.5 298.5 299.2 299.5 299.9 299.8 298.9 298.2 296.7 295.5 294.2 293.1 291.8 290.1 288.4 287.2 286.3 285.3 283.8 282.7 282.2 282.8 283.1 282.5 279.9 278.6 276.9 275.4 273.4 271.4 268.5 263.1 259.8 255.3 257.2 263.6 267.9 273.8 278.1 281.4 283.9 287.2 289.3 291 292.2 291.3 290.1 288.7 287 285 282.4 280 279.2 279.5 280.1 281.8 283.9 285.6 286.2 286.1 285.5 285 282.8 281.6 279.9 277.7 274 270.2 267.5
309.3 311.8 313.9 316.9 318.5 319.9 319.8 321.6 323 322.8 324.3 325.7 327.5 327.9 329 329.8 330.8 331.8 334 335 336.4 338.4 339.9 341.5 344.2 346.2 348.8 351 352.8 354 354.8 353.1 352.9 351.2 348 344.1 339.4 334.5 329.8 325.6 323.5 319.7 317.3 315 312.2 310.8 309.9 308.7 309.5 309.7 309.4 309 308.7 307.4 306.5 305.9 304.6 304.3 303.1 301.7 300.2 298.9 297.6 296.3 295.5 294.2 292.4 290.7 291.3 291.1 290 288.2 285.6 282.6 279.7 276.7 272.5 269.4 265.4 262 258.3 246.8 246.8 247 249.3 257.5 261.3 264.4 267 270.2 273.1 275.2 276.8 277.7 278.3 278.7 278.4 278.9 279.5 279.7 279.3 278.3 277.1 276.1 276.2 277.3 277.5 278.6 278.9 279.1 279.3 279.1 278.2 277.2 279.1 280 281.4 282.5 282 281.5 281.2 280.1 279.3 278.5 277.2 275.7 276.1 280.9 286.1 290.4 292.7 297.1 298.8 299.7 300.8 301.9 302.3 301.5 300.9 300 299.1 297.7 296.4 294.6 292.9 291 289.4 288.2 286.7 284.8 283.1 282.3 282.1 282.5 281.9 279.6 277.8 276.3 274.8 273.3 271.3 268 264.6 258 255.7 263 267.6 272 277.9 284.8 287.8 291.1 293.5 294.6 296.2 296.6 296.4 295.1 293.5 292 290 287 284.3 283.3 283.2 283.6 285 286.9 288.4 289.1 289.2 288.7 287.6 286 285 282.1 280.6 277.1 273.1 269.3
307.7 310.3 312.5 314.6 316.9 317.8 318.4 319.4 320.3 320.9 322.3 324 325.9 326.2 326.7 328.1 329.4 330.8 332.4 334.1 335.8 338.6 341.7 342.4 344.5 346.9 349.5 352 354.3 356.3 357 355.3 355.2 353 349.9 346.3 341.5 335.9 330.9 327.1 322.7 320.4 318 315.4 314 313.2 312.5 312.3 312.7 311.3 312.5 311.2 310.8 309.7 308.9 308.5 306.9 305.7 304.7 303.2 301.8 300.8 299.9 298.9 297.3 296 294.9 293.8 292.8 292.3 291.2 289.6 286.5 284 280.2 277.4 273.1 269.2 265.3 262.6 257.4 247 247.5 248.5 253.2 259.9 265.4 268 271.7 274.2 276.4 278 278.9 279.5 280.3 281 280.6 280.7 281.1 280.8 279.3 278.7 278 277.4 277.5 279.4 279.7 280.3 280.6 280.8 280.9 281 280.9 279.3 280.6 281.8 283.1 284.6 284.5 284.4 284 282.9 281.5 278.9 278.1 275.2 274.2 273.6 281.1 286.9 290.4 294.4 297.5 299.3 301.8 304.3 304.9 304.1 303.8 303 302 300.5 298.7 296.8 295 293.4 291.8 290.1 287.7 285.4 283.4 282.5 281.3 281.1 280 279.3 277.1 275.2 274 272.8 270.5 267.7 263.4 257.2 258.6 267 270.7 274.4 282.7 289.4 294.5 298.8 302.3 302.9 303.4 302.7 302.4 300.7 298.8 297.2 295 292.1 289.9 288.2 286.1 286.3 288.2 290 291.1 291.9 291.8 290.5 289.5 288.6 287.8 285.3 281.7 278.9 275 270.9
304.1 307.7 310.9 312.8 313.9 315.7 316.3 317.6 317.8 318.7 320.3 321.9 322.8 324 326.1 327.8 329.7 331.2 332.5 334.2 336.7 339.6 342.5 345.4 347.6 349.7 351.8 353.1 355.2 357.7 358.6 358.1 356.8 354.3 350.8 347.3 343 337.7 332.8 327.8 324.6 322.5 320.4 317.9 314.7 314 312.6 314.4 315.3 314.7 314.4 313.5 313 312.5 311.9 311 309.6 308.3 307 305.8 304.5 303.3 302.3 300.6 299 297.9 297 295.6 294.4 293.1 291.7 289.7 287.9 285.5 281.4 277.8 273.2 268.7 265 261.8 257.1 249.6 248.5 250.3 256.2 263.6 269 272.4 275.4 277.6 279.4 280.3 281.1 282 282.8 283.5 283.3 282.9 282.5 281.6 280.2 279.5 278.9 279 279.8 281.1 281.6 282 282.2 282.4 282.5 282.5 282.6 283.2 283.7 285 286.2 287.5 288 287.8 287.5 286.1 284.7 280 279.3 276.6 274.9 273.2 273.7 280.7 287 292.1 296.1 298.7 301.9 305.1 306.7 306.6 306.6 305.5 304.8 302.8 301.2 299.2 296.8 295.1 293.4 291.4 288.9 286.3 283.9 282.7 281.4 280.1 279.6 279 276.3 274.1 273 271.3 268.8 262.9 257.6 257.7 263.7 269 272.7 276.9 286.3 293.8 300.8 304.6 308.8 309.7 311.3 309.3 308.3 307.6 304.6 302 299.5 296.6 295 293.3 290.8 288.9 290.9 292.8 293.7 294 293.5 293.2 292.9 291.7 290.2 287 283.9 280 275.9 271.4
301 303.9 307.6 310.8 312.8 313.6 314.9 315 315.4 316.3 317.9 318.4 322.6 324.9 326.8 328.5 330.2 332.1 334.2 337 339.7 342.3 345.1 347.6 349.7 351.9 354.1 356.9 358.5 358.7 358.3 357.9 356.8 354.6 348.1 348.8 344.5 339.6 333.9 329.9 326.6 324.5 322 321.4 318.8 316.1 318.6 318.1 316.1 316.1 315.6 315.4 316.2 315.6 315 313.9 312.5 311.3 310.2 308.8 307.3 304.7 304.3 302.2 301.6 300.1 298.5 297.1 295 294.7 292.8 289.7 287.6 285.2 281.9 278.2 273.7 269.1 264.7 260.9 255.8 249.4 250.2 255 261.3 268.4 272.7 276.5 278.5 280.6 282 282.5 283.4 284.4 285.4 285.4 285 284 282.9 281.2 280.9 280.7 280.6 280.6 281.5 282.8 283.4 284 284.3 284.5 284.8 285 285.7 286.8 287.8 289.5 291.1 291.9 292.6 292.2 291.7 290.5 288.8 286.1 283.1 279.3 275.3 272.6 271.4 276.5 281.2 288.7 293.6 296.5 300.6 304.6 307.1 307 308.1 307.1 306.2 305 303.7 301.4 299 296.6 294.8 292.8 290 287.2 284.6 282.7 281.4 280.1 279.2 278.4 275.8 273.6 271.3 268.7 264.1 258.3 257.1 261.1 267.8 272.9 275 281 290 299.6 305 309.1 313 314.9 316.7 314.3 316.2 315.1 310.7 306.8 303.9 301.1 298.9 296.9 295.3 293.7 294.3 295.3 296.7 297.1 296.5 295.7 295.2 294 292.6 288.9 284.8 281.2 277 272.3
298 300.7 303.8 305.8 308.9 310 308.6 310.3 311.4 315.7 317.8 320.9 323.9 326.6 329 331 332.9 334.8 336.8 339.6 342.6 344.9 347.3 349.8 352 354 357 358.4 360.2 359 359.8 357.9 357.5 354 351.8 348.7 343.8 340.2 335.5 333.6 328.8 325.9 324.3 322.6 319.7 318.5 317.7 317.9 318.5 319.6 317.4 318.1 318.9 318.9 318.1 318.2 316.6 315.4 313.9 312.7 309.7 307.3 305.6 305.5 304 302 300.4 299 297.8 295.7 293.9 292 289 285.9 283 278.5 274 268.9 264.3 259.9 256.7 250.8 251.2 259.5 265.8 272.3 276.5 280 281.6 282.3 283.7 284.7 285.7 286.9 286.9 287.1 286.7 285.8 284.8 282.4 282.6 282.5 282.4 282.6 283.3 284.7 285.4 286.2 286.7 287.6 288.1 288.9 289.7 290.7 291.9 292.3 295.1 296.5 297.2 296.6 295.8 294.2 292 289.4 285.3 280.5 275.9 273 270.9 273.2 277.4 282.5 289.2 293.4 298.4 302.6 305.5 307.4 308.5 308.1 307.1 306.1 305.1 303 300.7 298.3 295.8 294.7 292.1 288.4 285.6 283 281.5 280.3 279 277.8 275.3 273.1 270.8 266.8 260.9 258.4 259.2 263.5 271.5 276.4 278.6 282.5 291.7 303.1 308.6 313.4 317.1 319.6 319.7 319.6 322.9 320.4 315.7 311.9 308.7 306.4 304.3 301.1 298.8 297.2 297.9 298.6 299.3 300 299.5 299.2 298.9 296.7 294.7 290.9 286.3 281.4 277.1 272.8
292.6 293.4 294.2 296.5 296.7 306.4 311.5 313.8 314.9 316.8 319.5 322.7 325.9 328.6 331 333 335.1 337.4 339.4 341.9 344.5 347.5 349.8 352 354.3 356.2 357.7 359.5 361 361 359.9 358.9 357.3 354.2 351.8 348.4 344.9 339.7 336.4 332.9 330.6 328.9 326.2 324.1 322.3 320.9 320.7 321 320.2 319.6 322.3 322 321.7 321.9 321.6 321.6 321.1 318.8 318.1 316 313.5 311.3 309.9 308.1 305.9 304.5 302.6 300.7 298.9 297.3 295 292.1 289.2 286.8 283.1 278.4 273.5 269.1 264.7 260.2 261.3 253.4 252.8 261.2 272.6 276.5 280 283.2 284.6 285.1 285.8 288.1 288.6 289 288.6 288.5 287.7 286.5 285.4 283.8 284.3 284.2 284.2 284.7 285.3 287.1 288.3 289.5 290 291.7 292.6 293.2 294 294.9 296.2 298 300.5 302.2 302.3 301.5 299.4 297.7 295 291 286.1 281.1 276.8 272.7 270.5 270.6 274.2 278 284.5 290.3 295.4 299.7 303.3 305.7 307.2 307.2 306.9 306 305.4 304.2 302 299.9 298.2 296.3 293.4 289.8 286.8 284 282.4 281.1 279.5 277.3 275 272.4 268.6 264 260.2 258.1 260.5 266.9 274.4 279.3 281.6 285.4 294.6 304.8 310.8 316.7 320.8 323.2 324.4 324.2 327.5 325.1 320.9 315.8 313.3 311.4 307.6 304.1 302 300.7 301.1 301.8 302.5 302.4 302 301.8 300 297.5 295.4 291.9 286.6 281.9 276.8 272.3
286.2 293.8 303.1 307.3 310.1 311.9 313.5 314.7 316.1 318.2 321.1 324.3 328.9 330.7 332.5 334.7 336.9 339.2 341.5 344 346.3 349.6 352.5 354.7 355.9 356.9 357.4 357.7 358.4 358.4 359.1 357.8 356.3 353.9 351.8 348.1 346.3 341.4 338.1 335.6 332.8 330.9 327.7 325.7 324.1 323.1 323.1 323.2 323 323.5 324.9 324.8 326.9 325.7 324.6 324.4 323.2 321.7 318.9 317.2 315.3 314.3 311.5 310.6 308.5 306.7 303.8 302.4 298.9 298.5 296.2 292.8 289.8 287.4 283 278.2 273.5 269.4 265.5 262.2 262.2 252.5 253.6 264.8 274.6 279.7 282.7 285.6 286.3 287 290.6 290.1 290.2 291 291.1 290 289.4 288.5 287.4 286.4 286.1 285.9 286.5 287.3 288.5 290.3 292.1 293.5 294.3 296.2 297.5 297.9 298.5 299.3 301.1 302.9 305.6 308.4 308 306.7 304.3 300.8 296.4 291.3 285.7 280.4 275.8 271.5 269.6 269.8 271.6 275.9 281.1 286.5 291.1 296.1 300 303.2 304.8 305.2 305.3 305 304.3 303.6 302.9 301.4 299.4 297.3 295 291.4 288.3 285.5 283.8 281.9 279.7 277.6 274.4 270.6 265.6 261.9 259.8 259.2 264.8 273.4 277.3 281.8 284.8 289.1 295.8 304.9 311.9 317.8 323.4 326.5 328.6 330.6 333 330.5 325.2 319.2 316.7 313.6 310 307.1 304.9 303.9 304.4 305.2 305.4 304.9 304.5 303.8 302.9 300.1 295.7 292.3 288.5 281.5 277.5 272
292.4 296.3 302.2 307.9 311.1 313.4 314.1 315 316.9 319.1 321.8 325.2 328.2 330.9 333.4 335.6 337.7 340 342.4 345 348 351.3 353.8 355 356.1 356.5 356.4 356.4 356.8 357.2 357.6 357.1 355.3 353.4 351.1 349.2 347.1 343.8 339.8 337.3 334.9 332.5 330 327.5 326.2 325.9 327 326.5 325.3 323.2 328.2 327.5 327.7 328.1 327 327.2 325.6 323.9 322.1 321.2 314.5 316.3 314.1 311 310.6 307.9 306 303.9 301.8 299.8 297.5 294.5 290.8 287.2 283.3 278.3 273.5 269.5 266.4 264.6 263.8 253.2 256.1 273.1 277.6 281.8 285 287 288.3 289.4 291.2 292.9 295.4 295.1 294.8 292.4 291.7 290.5 288.4 288.8 288.3 288.1 289.1 290.6 292.2 293.7 295.6 297.3 298.5 299.6 301.1 301.9 303.4 304 305.9 308 312 314 313.5 311.7 308.8 304.8 298.1 291.7 285.8 280.2 274.8 271 269.3 269.2 269.4 273.7 278 283.4 288 292.4 296.2 299.3 301.7 302.4 303.1 303.1 302.7 302.3 302 301.5 300 298.5 295.7 292.7 289.5 286.9 284.9 282.8 280.3 277.6 274.3 269.2 263.2 261.4 259.9 260.5 270.6 276.3 280.6 283.9 287.2 291.3 297.9 305.3 312.2 318.5 325.3 330.4 331.7 334.5 336.8 333.7 327.4 322.2 320.9 316.9 313.2 310.2 307.1 306.9 308.3 308.7 308.5 308.1 307.1 306.4 305.1 304.5 295.9 290.9 287 280.5 276.7 271.4
290.3 295.8 300.7 307.2 310.7 313.1 314.4 315.1 315.9 318.6 321.5 325.4 328.6 331.2 333.8 336.1 338.3 338.8 342.4 344.7 347.8 350.6 352.3 353.5 354.6 355.1 355.4 355.3 355.5 355.4 355.4 355.5 354.6 353.2 351.2 350.7 347.9 345.2 342.2 339.1 336.5 334 331.2 329.1 327.3 328.5 328.9 329.5 326.9 326.5 330.1 330.7 330.3 330.2 330.6 330.7 328.6 326.4 325.1 323.7 320.6 318.6 315.9 313.9 311.3 309.2 307.3 305.9 303.8 302 298 295.1 292 288.7 283.8 278.6 274 270.5 269.4 266.7 262.8 255.4 258 274 279.7 283.6 287.2 288.6 290.1 292.4 295.3 296.3 296.5 296.4 296 294.8 294.3 292.6 289.6 290.7 290.5 291.1 292.1 294 295.4 297.3 299 300.8 302.6 303.5 304.5 306.9 307.9 308.7 310.8 314.1 317.2 317.8 317 315 312.1 306.5 298.9 291 285.9 279.7 274 270.7 268.4 268.3 268.4 270.8 275.9 280.9 286 289.2 293 295.5 297.9 299.4 300.3 301.1 300.7 300.4 300.4 300.2 300.1 299.5 296.7 293.6 290.4 288.1 285.4 283.2 280.9 277.9 274.2 266.4 262.6 261.1 259.9 265.2 273.8 279 282.8 286.2 289.6 293.3 299.8 306.3 312.3 319.5 327.1 332.7 335.2 336.8 337.3 336.5 330.8 325.9 322.9 319.3 316.4 313.9 311 310.7 311.9 312.7 311.5 311.1 309.5 309.1 306.7 303.8 298.6 293.1 284.5 280.6 276 271.1
287.4 293.8 299 305.4 309.5 311.9 313.3 314.5 315.2 316.9 319.8 324.5 328.2 331 333.6 336.2 338.3 339.8 341.9 343.9 346.8 349 350.8 351.9 353 353.8 354.1 354.2 353.9 353.4 353.7 353.6 354.1 353.4 352.2 351 348.4 346.2 343.3 340.7 338.1 335.6 333.3 332.2 330.8 330.1 331.4 330.4 329.1 330.1 330.6 331.5 330.2 330.8 332.5 332 329.3 328 327.3 325.2 321.8 319.4 316.9 315.1 312.9 310.2 308 306.3 304.5 302.2 298.9 295.5 292.4 289.6 284.9 279.3 275.2 271.9 271.1 269.3 264.3 254 265.3 276.3 281.6 285.1 288 290.4 292.5 295.1 297 297.8 298.7 297.9 297.4 296.7 296.1 294 290.8 293 293.6 294.4 295.4 297.5 298.4 300.5 302.4 304.4 305.9 308.8 309.5 310.9 312 313.7 316.6 320 321.9 321.8 320.8 317.5 313.6 307.8 300.4 292.9 286.5 280.5 274.4 270.1 267.4 266.6 267.2 269.6 273 278 284.1 287.1 290 292.6 294.6 296.3 297.5 298.7 298.6 298.5 298.5 298.8 299.4 299.7 297.6 294.5 291.5 288.1 285.6 283.4 280.9 278.1 273.1 264.7 262.4 260.9 261.8 269.6 276.2 281.9 284.9 288.4 291.9 296.4 301.2 306.6 312 319 326.2 332.2 335 336.7 337.5 337.3 332.3 328.4 325.3 321.5 319.3 316.1 313.9 313.6 314.9 315.3 314.8 313.4 311.8 311.6 308.4 304.6 299 292.6 286.5 279.4 275.3 271.2
286.1 291.2 296.9 300.6 305.9 309.3 311.7 312.9 313.9 315.3 318.8 323.5 327.5 330.8 333.4 335.8 337.9 339.6 340.1 342.7 344.8 347.3 349.7 351.3 352 352.4 352.6 353 352.7 353.2 353.2 352.5 347.3 345.4 345.7 348.2 348.5 346 343.8 341.3 338.8 336.9 335.1 332.8 332.3 332.2 333 332.4 331.3 331.6 332.4 333.5 328.2 329.3 330.7 331.6 329.9 329.2 328.5 325.8 322.7 320.4 319.2 316.3 313.6 310.8 308.8 306.7 304.7 302.2 298.6 295.6 292 289.7 284.3 279.5 274.7 272.5 271.4 269.7 261.5 258.5 271.7 279.2 283.3 286.4 290.1 293.3 296.3 298 299.7 300.1 300.8 299.6 299.1 297.7 297.4 295.2 294.4 295.9 296.5 297.8 299.3 300.9 302.1 303.3 306.3 308.6 310.4 312.1 313.9 315.3 316.4 318.2 322 325.2 326.7 325.6 323.7 320 315.2 307.9 301.1 293.3 287 280.1 273.6 270.1 266.6 265.4 266.3 268.2 271.5 276.4 281.9 285.8 288.8 291.5 292.9 294 294.9 295.9 296.5 296.3 296.2 297.1 297.9 298.5 297.2 295.4 292 288.2 285.3 282.9 280.2 277.4 271.3 263.1 261.3 261.6 265.3 272.4 278.4 282.7 286.6 289.9 293.4 298.3 301.9 306.4 312.2 318.6 324.6 330.1 333 335.6 336.8 337.3 333.3 329.5 326.1 323 320.4 318.1 316.5 316.1 317.5 318.1 317.3 315.5 313.7 313.6 309.3 304.5 299.8 292.3 286.1 279.8 275.3 271.3
286.9 291.7 294.7 298.8 304 306.7 309.7 311.2 313.4 314.9 317.8 322.9 326.5 329.6 332.3 334.3 336.2 337.1 336.8 340.3 343.1 344.5 347.2 348.9 350 350.8 351.1 351.7 352.7 353.1 353 350.8 349 348 347.7 347.7 348.3 345.9 343.8 341.9 339.5 337.3 335.8 333.9 334.1 334.5 333.7 333.1 332.5 332.7 333.6 333.6 327.7 328.9 330.2 331.1 331.6 329.9 328.9 325.9 324.1 321.7 319.6 318 314.2 311.6 309.6 307.7 305.1 302 298.2 295.7 292.6 289 283.5 278.7 275.4 273.2 272.4 269.5 258.8 261 275.6 280.4 284.4 288.2 292.1 296 298.7 299.8 300.6 301.5 301.2 301.3 300.4 299.4 298.2 296.3 297.1 298.4 299.7 301.3 302.8 304.4 306 307.7 310.9 314.6 316.6 316.6 317.6 319.6 321 322.9 327.1 330.3 330.9 329.5 326.1 321 315.7 309.2 299.6 293.4 286.8 280.6 274.8 270.6 267.2 265.3 264.9 267.3 270.3 275.2 279.8 284.4 287.3 290.6 292.2 293.1 293.5 293.8 294.1 294.2 294.1 294.8 296.5 295.9 295.4 294.8 292.3 288.5 284.7 281.9 279 275.4 269.2 262.2 261.2 263.9 267.8 273.8 279 283.8 288.3 291.2 294 299 302 306.1 311.1 317.4 322.5 328.7 333.2 334.8 335.3 334.3 332.6 330.6 327.3 324.5 322.4 320.5 319.1 319 320.5 320.9 320.2 317.7 315.4 315.2 309.1 304.8 299.9 292.7 285.9 280.4 276.9 271.9
285.8 291.9 294.9 298.7 301.5 305.8 308.2 310.3 312.4 314.6 318.1 321.9 325 327.6 330 331.6 333.1 333.9 334.2 335.9 339.6 339.2 342.3 344.8 346.7 348.1 349.3 350.3 351.5 352.5 353 352.5 352.1 350.7 350 350.3 348.4 345.4 343.4 341.6 339.7 337.7 336.9 335.4 334.8 333.7 333.3 332.9 332.6 332.3 333.2 333.3 327.6 327.8 330.2 331.7 331.3 329.9 328.1 325.9 323.8 321.9 320 318.3 314.7 311.8 309.2 307.4 304.6 301.4 299 294.8 292.5 288.4 282.8 278.6 276.4 274.5 266.9 263.1 260.5 266.2 279.3 282.4 285.3 289.7 293.6 297.9 300.3 301.5 302.5 302.7 302.4 302.2 301.7 300.4 300 298.3 299.6 300.8 302.3 304.1 305.5 307.2 309 311.1 315.1 319.9 320.1 321.1 322.2 323.5 324.8 328.4 332.4 333.9 334 332.6 328.3 323 316.7 309.4 301.8 293.1 287.6 281.6 275.8 271.9 268.8 267.1 264.8 265.1 268.5 275 279.4 283.2 286.6 288.9 291.4 292.2 292.9 293.5 293.4 293.1 292.5 292.6 294.4 294 292.8 292.6 291 288.6 284.7 281.3 277.5 272.9 266.3 262.1 262.4 265.5 269.1 274.9 279.8 284.2 288 292.3 295.9 299.7 301.9 305.7 310.2 314.8 321.2 326.3 330.4 332.9 332.1 331.2 330 329.4 328.2 325.7 324 323 322.2 321.8 323.1 323.3 322.9 320.3 317.2 314.9 310.1 304.6 299.3 291.5 286.2 282 278.1 273.6
284.1 289.2 293.7 296.4 297 302.9 307.8 309.7 311.9 314 317.1 320.8 323.4 325.5 327.3 328.5 329.7 330.3 331.1 331.2 334.6 336.1 337.1 340.4 342.2 344.2 346.4 347.9 349.3 350.7 351.8 352.4 352.3 351.3 350.6 349.1 347.6 345.8 344.1 342.2 340 338.2 336.6 335.2 334.8 333.9 333.3 331.9 331.4 332.9 331.8 332.3 331.8 332.9 332.6 331.1 329.8 328 326.4 324.4 322.6 320.7 318.3 316.4 313.7 310.6 308.1 305.7 303.6 299.8 297.7 293.8 290.9 287.1 282.6 278.5 276.4 271.1 271.4 263.8 260.6 272 280.5 284.4 287.6 290.7 294.6 298.9 301.1 302.3 303.2 303.4 303.2 302.4 301.8 301.5 300.9 300.4 301.7 302.8 304.6 306.2 308.2 310.1 311.8 313.9 319.3 323.5 323.8 324.8 326.5 327.7 329.7 332.9 336.5 337.4 336.8 334.7 330.2 324.6 317.8 310.6 302.4 295.1 286.4 281.3 277.1 273.4 271.1 269.4 268.2 264.5 266.7 274.7 279.4 283.5 286.1 288.7 291.1 292.4 293.5 293.5 292.9 292.5 292.1 291.7 292.6 291.3 290.3 289.5 288.2 286.7 283.6 280.1 275.9 269.2 263.9 263.1 263.2 266.7 271.5 275.5 280.6 284.2 288.8 292.9 296.6 299.5 301.7 304.8 308.8 313.1 317.6 322.5 326.5 329.8 330.6 328.9 327.5 327.4 327.2 327.3 325.8 324.4 324.3 324.4 325.4 325.4 324.2 321.9 317.8 314 309.9 305.5 299.4 290.9 286.7 282.4 277.9 275
277.3 280.8 282.9 290.2 293.3 300 305.6 309.6 311.7 313 316.1 319.5 322 324 325.4 325.9 326.7 327.7 328.6 329.5 331.1 332.6 334.5 335.9 339 341 343.6 344.1 345.8 348 348.7 350.1 351 350.4 350.2 349.2 348.4 347.2 345.7 344 342.1 339.4 336.7 335.4 334.5 334.2 334 331.4 331.5 331 330.1 330.4 328.5 328.5 328 327.4 326.3 325 323.4 321.4 319.9 317.5 316 314.2 311.4 309.2 307.3 303.9 301.6 298.2 294.7 292.4 289.1 285.5 281.3 277.7 275.7 267.3 278 259.7 265.4 273.2 280.1 285.8 288.7 291.6 295.2 298.7 301.1 302.1 302.7 303.4 302.5 301.4 301.9 301.9 301.8 301.9 303 305 307 308.4 310.1 312 314 316.3 322.1 324.9 326 328.2 330.6 332.1 334.5 337.5 339.7 339.3 339.1 336.5 331.9 326 319.1 311.7 303.3 295.3 287 281.9 278.6 274.8 272.7 271 269.7 266.8 265.3 274.6 279.2 283.3 286.7 289.6 291.5 293.1 293.8 293.7 292.2 291.6 290.6 290.5 290.3 288.9 287.9 286.9 286 284.7 282 278.5 273.8 266.2 264.6 263.8 264.4 268.3 272 276.2 281.2 285.4 288.6 292.3 296 298.6 301 303.8 306.7 310.1 314.8 318.5 321 324.8 327 325.6 325.3 325.5 326.4 327 326.8 325.9 326.2 326.7 327 327.4 326 322.6 317.8 312.6 309.9 304.7 298.8 291.5 287.2 283.1 279 274.1
275.8 279.5 280.6 283.7 290.1 297.8 302.9 308.2 311.3 313.2 315.4 318 320.6 322.3 323.4 323.8 324.4 325.3 326.5 327.6 328.8 330.4 332.4 334.3 336.4 337.5 340.5 342.2 343.6 345.6 346.9 348.2 349.6 349.8 350.4 350.3 350.1 349.1 348 346.5 344.1 341.3 338.4 335.8 334.7 333.7 332.8 331.7 329.8 329.8 327.6 328.1 326.3 325.2 324.3 323 322 320.7 319.1 317.7 316.5 314.3 314.1 311.5 309.3 306.9 304.6 302.1 299.2 296.1 292.1 289.9 287.5 283.7 280.7 278.7 274.5 268.5 281.3 261.2 273.7 279.4 282.1 286.9 289.7 292.5 295.2 297.8 299.5 300.3 301.1 301.6 301.4 300.9 301.5 301.8 302.7 303.1 304.1 306.6 308.9 310.6 312.1 313.9 315.9 318.6 321.2 325.3 327.8 331.4 333.8 336.4 338 340.3 341.7 341.9 340.4 337.4 332.7 327.2 320 312.3 304.5 296.7 288.4 283.7 279.6 276.2 274.1 272.1 270.7 268.5 264.6 274.9 278.9 283.8 287.7 290.3 291 292.6 294 293.8 291.5 290.6 289.6 288.9 288.3 286.8 285.1 284.1 283.3 282.5 280.3 276.3 269.8 266.2 265.2 264.4 265.4 270.2 274.1 278.4 281.8 285.2 288.7 291.5 294.6 297.2 299.8 302 303.9 307.2 311 315.4 316.8 319.6 321.8 322.6 322.7 323.4 325.3 326.1 326.6 327.7 328.4 328.9 328.7 328.4 327 323.9 317.5 313.9 308 303.1 298.4 292 286.3 283.7 281 277.7
278.2 283.2 287.9 289.7 286.9 294.6 301.5 306.8 310.2 313.1 315.2 317.2 319.5 320.5 320.9 321.6 322.4 324.6 326.1 326.9 328 329.4 331.1 332.9 334.7 336.5 338.4 340.2 342.3 344 345.8 347.8 348.9 350.3 350.7 350.6 351.3 350.7 349.7 347.8 345.4 342.6 339.5 336.6 334.5 333.6 332.6 330.3 330.7 327.5 325.7 324.6 322.7 321.4 320.2 318.5 316.8 315.7 314.4 313.1 312.2 311 309.8 308.3 306.8 304.8 302.9 300.6 297.7 294.6 291 288.7 285.9 282.6 280.4 278.3 270.3 276.7 280.8 265.7 280.2 284.5 284.6 287.1 289.6 292.1 294.6 296.4 297.4 298.2 299.6 299.9 300.1 300.7 301.5 302.1 302.7 304.2 306.2 308.7 310.6 312 314.2 315.5 318.5 320.6 324.3 326.5 329.6 333.6 335.1 337.7 341.4 342.7 343.3 343.5 341.7 338.6 333.1 328.2 321.6 313.4 306.1 297.6 290.1 284.8 281.1 278.6 275.9 274 272.7 269.2 261.4 273.4 278.2 283.1 287.2 290.1 290.3 292.7 294 292.8 290.6 289.4 288.5 287.6 286.6 284.7 282.7 281.3 280.4 279.8 277.2 273.2 268.4 266.4 266 265.1 266.6 270.5 274.6 278.7 282.4 285.6 288 290.1 292.4 295.1 297.2 298.9 301.9 303.5 306.6 310.3 313.1 315.9 317 317.6 318.5 320.9 323.1 325.7 326.5 329.4 330.5 331 329.6 328.5 327.2 324.6 319.1 314.4 309.1 303.8 297 292.2 288.1 284.9 281.5 278.9
282.2 287 291.2 294.1 295.2 289.2 293.8 302.8 308 311.8 314.3 315.8 314 314.3 319.8 320.9 321.8 323.6 325.5 326.4 327.8 329 330.7 332.5 334.5 336.7 338.7 340.3 340.9 344 345.9 347.4 348.7 350.4 351.6 352.2 351.8 350.9 348.8 348 345.5 342 339.1 336.6 334.1 332.3 330.7 330 328.6 327 324.6 322.6 321.2 319 316.9 315.6 314.2 312 309.6 309.2 308.4 307.9 307 305 303.7 301.5 300.1 297 295.3 292 288.1 286.2 283.7 281.6 278.7 276.2 272.3 280.5 277.1 265.3 278 286 287.1 288.2 289.7 291.5 294.2 295.4 295.9 297 298.6 299.4 299.8 300.5 301.5 302.5 303.7 305.3 307.4 309.8 312.4 314.1 316.6 318.8 320.5 323 325.9 329.1 332.3 334.5 337.2 340.4 343.2 344.2 344.7 344.5 342.2 338.1 334.3 329.2 322 314 306.7 299.5 292.1 287 283.5 281.1 278 274.6 273.3 271 261.7 265.1 273.1 280.1 285.6 288.7 290.5 292.1 292.4 291.3 289.5 288.2 286.7 285.8 284.3 282.3 280.4 278.7 277.2 275.8 272.8 269.6 268.4 267.8 266.8 266.2 267.5 270.7 275.2 278.7 281.9 284.6 286.7 288.6 290.4 293.2 295 296.6 298.4 300.4 302.3 305.2 308.1 310.9 312.9 313.8 314.4 317.9 321 324.3 326.3 330.3 332.5 331.9 330 328.3 326.2 323.1 320 315.1 310 303.8 297.3 293.5 289.5 285.5 282.5 279.8
286.6 292.3 294.3 297.1 297.7 295.1 299.7 298.1 302.2 305.5 309 312.4 316.8 319.9 322.2 323.2 324.3 325.7 326.8 326.4 328.1 329.4 331.1 333 334.9 337.4 339.6 340.5 342.7 343.8 346.1 346.9 348.1 350 351.5 352.3 351.9 351.2 349.3 347.9 344.7 341.6 338.6 335.6 333.4 331.2 329 327.3 326.5 324.3 322.4 321.3 320.7 318.3 316.3 309.8 309.2 307.9 305.8 303.5 304.7 302.2 299.4 297.2 296.2 293.3 292.3 289.8 288.5 287 284 283.8 281.7 278.8 275.9 275.4 279.1 280.3 273.9 268 281 287.8 288.8 289.7 290.4 291.9 293.1 294.3 295.2 296.2 297.8 298.6 299.5 300.5 301.6 302.9 304.9 306.5 309.3 312 314.2 316.8 318.9 320.8 323 325.7 328.4 331.4 334.2 337.5 339.8 343.8 345.3 345.6 345.4 344.5 341.9 339 333 329 321.6 314.5 307.5 300.7 294.5 290.2 287.2 284.1 281.3 277.6 275 273.9 269.6 260.8 267.3 273.7 279.6 286.8 288.8 290.8 290.8 289.5 287.7 285.9 284.3 283.2 282 279.9 277.8 275 273.2 271.2 270 269.2 268.9 268.7 268.1 267 267.7 270.4 274.7 278.3 280.8 282.9 284.7 286.6 288.7 291.1 292.8 294 295.6 296.9 298.8 301.6 303.7 306.4 308.1 309 310.5 314.4 318.2 321.8 324.9 328.5 331.2 331.8 330.6 328.6 326 322.5 319.3 315.2 311.8 306 301.7 296.4 291.2 286.9 284 281.2
290.6 296.1 296.6 299.1 300.6 300.7 295.6 305.1 309.5 310.9 313.5 316.8 319.5 321.8 323.9 324.3 325.5 327.4 327.9 328.4 330 329.6 331.5 333.4 335.3 337.4 339.3 341.3 343.2 344.4 346.6 347.5 348.2 349 350.4 351.1 351.2 350.9 349.3 347.1 343.6 340.5 338.1 335.1 332.2 329.7 328.1 326.9 324.8 322.7 321.3 319.5 319.4 315.9 313 312.6 311.5 311.3 310.9 308.6 304 302.1 301.6 301.2 301.6 299.4 296.9 293.8 294.1 291.5 289.3 284.4 281.6 279.6 277.5 277.1 282.2 278.8 268.6 271.4 286.1 288.8 290.1 290.7 291.2 291.3 292.5 293.1 295.1 296.2 297.7 299.1 300 300.8 302 304.2 306.2 307.9 310.9 313.8 316.7 319.5 321.4 323.5 326.8 328.3 330.5 334.1 336.7 340.7 344 345.9 346.3 345.6 344.5 342.5 340 337 333.6 325.3 320.5 315 308.3 302.2 296.8 292.9 290.2 286.9 284.3 281.1 277.4 275.5 272.9 265.3 261.9 267.7 270.8 280.9 285.5 288 287.8 287.1 284.8 282.4 281 280.3 279.7 277.7 274.8 272.1 269.9 268.9 269.2 269.2 269.1 269.3 268.2 268.4 268.2 270.7 274 276.4 279.1 280.8 282.7 285.2 287.4 289.2 290.4 291.6 293 294.5 295.8 298 300.3 302 303.6 305.3 306.6 309.7 314.2 317.7 321.4 325.4 327.7 329.3 330 329 326.8 322.3 320.3 317.9 314.9 308.3 304 298.3 291.5 288 285.8 283.4
287.4 298.1 299.8 301.1 303.2 303.9 296.7 303.7 309.5 313.8 315.8 318.7 321.3 323.2 324.9 325.7 326.8 326.6 329.7 329.7 331 331.7 333.3 334.1 335.8 337.6 339.3 341.1 343 344.7 346.7 347.6 348.5 349 349.3 349.4 349.4 348.8 347.2 344.5 341.8 339.6 336.7 334.5 331.5 329.5 328 326.7 324.6 324.8 322.4 322.1 318.4 318.1 317.8 315.1 314.9 312.7 310.9 310 305.6 303.2 301.2 302.7 302.4 302.4 299.1 298.4 296.7 295.2 287.9 286.3 283.3 282.6 279.5 280.2 283.5 269.4 270.8 279.7 288 289.8 290.4 291.1 291.5 291.7 293 294.4 295.4 296.5 298 299.6 300.5 301.4 302.7 305.1 306.5 309.2 312.1 315 318.3 321.4 323.9 327 329.4 331 333.7 335.3 339.6 343.6 346.1 346.8 346.2 344.7 342.4 340.4 339.4 331.7 326.5 324.3 318.8 314.7 308.5 303.5 299.3 295.4 293.1 290 287.3 284.6 280.9 278.4 274.7 272.7 266.4 258.3 263.2 275.5 280.8 283.7 284.6 283.7 281 279 277.9 277.4 277.2 275.5 272.8 269.7 268.5 267.7 268.5 268.9 269 268.9 269.2 269.6 268.5 271.2 273.4 275.4 277.1 279.5 282.2 284.2 286.1 287.6 288.3 289.5 291 292.3 292.9 294.3 295.9 297.4 299.7 300.7 303 306.6 310.1 313.3 317.1 320.3 323.9 326.4 328.4 328 324.8 324.2 322.6 320.3 316.5 311.1 303.2 298.9 294.3 291 287.7 285.1
296.8 301.2 302 303 305.1 307 305.8 303.3 308.2 313.4 317.2 319.2 322.1 323.8 324.9 325.8 327.1 328.1 329.6 330.9 332.2 333.2 334 336.5 337.3 338.3 339.5 340.9 342.4 344 345.9 347.7 348.9 349.3 348.7 347.9 347 346.5 344.8 342.5 339.9 338.3 335.7 333.3 331.1 329.6 329.7 327.6 327.2 325.1 324.4 323.4 322.1 319.5 317.4 316.6 315.3 316 315.1 311.8 307.3 304.4 301.6 303.9 304.5 303.4 299.9 298.9 296.6 291.7 286.9 286.4 286.4 286.4 286.4 286.4 283.4 272.8 272.8 284.8 288.7 289.7 290.2 290.5 290.9 291.5 293 294.5 296 296.9 298.2 299.1 300.9 301.7 303.4 305.1 307.1 310.4 313.3 316.3 319.7 323 327 328.7 331.9 333 336 338.6 341.7 345.5 346.6 345.6 344 342.8 340.9 338.2 335.3 331.2 326.3 319.6 316 313.2 309.6 304.9 302.2 298.4 296.5 293.2 289.2 287.1 283.2 278.6 275.7 272.1 269 263.6 257.8 270.1 275.6 278.9 280.3 280.1 277.6 276.3 275.1 275.1 274.8 273.7 271.1 267.7 266.8 267.1 268.1 268.9 269.6 270.6 271.5 270.6 269.7 271.5 272.3 274 275.7 278.7 281.1 283 284.8 286.1 286.9 287.6 288.2 289 289.7 291.1 292.6 293.9 295.5 297.2 299.2 302.2 305.3 308.2 312.1 315.8 319.6 323 325.4 327.5 327 327.2 323.8 320.3 315.8 310.8 305.4 300 295.7 292.2 289.3 287.5
293.4 303.2 304.1 305.3 307.3 309.2 306.8 305.4 312.9 317.6 318.3 320.8 322.9 324.1 324.9 325.8 327.4 328.1 329.8 331.3 333 334.2 334.8 336.3 338.5 338.5 340.2 341.6 342.6 344.4 345.8 347 348.7 348.7 348.3 347.5 346.2 344.7 342.7 340.7 338.7 336 335.5 332.7 331.3 330.5 329.3 329.3 328.1 325.8 324.6 322.9 322.6 321.2 323.7 321.2 319.3 317 314.9 313.7 309.6 306.2 303.1 304.4 305.7 303.1 299.9 298 293.2 288.7 286.9 286.4 286.4 286.4 286.4 286.4 286.4 282.5 274.6 283.8 288.4 288.8 288 290 291.8 292.4 293.7 295.1 296.2 297.5 299.2 299.9 301.2 302.3 304.1 306.3 308.9 311.1 314 317.5 321.4 326.1 329.6 331.1 333.1 335.3 336.9 339 342.8 345.3 345.3 344.3 342.3 339.2 337.3 334.1 330 328.2 324.2 320.6 314.1 313.8 309 306.6 303.9 301.9 299.8 296.8 294.3 290 285.7 281.9 277.5 272.1 266.9 263.2 257.2 264.5 269.7 273.3 274.6 274.8 274.1 273.6 272.5 272.3 272.3 271.7 268.8 265.9 266 267 268.7 270.1 271.4 272.8 274.1 272.5 270.7 269.9 270.9 272.6 274.3 276.4 279.6 281.8 283.5 284.9 285.5 285.9 285.7 285.9 286.4 287.7 289.3 290.5 292.2 294 296 298.4 301.1 303.5 306.8 311.3 315.1 318.3 321.4 325.7 327.3 329.2 324.8 320 316.4 312.8 307.4 301.7 296.9 294 291.9 289.8
296.2 305.3 305.9 307.4 309.4 310.5 306.2 307.7 314.6 318.4 319.6 321 322.5 323.9 325.4 326.1 327.1 328.6 330.3 332.1 333.9 334.9 336.1 337.2 339.3 339.8 339.8 342.8 345.1 345.3 346.6 349 349.1 349.9 349.2 348.5 347.4 345.2 342.6 340.2 337.1 336.3 335.1 333.7 332.7 331.7 330.4 330.1 328.4 329.3 327.9 327 324.9 325.8 323.8 323.8 322.6 320 317.2 315.5 312.2 308.5 305.9 304.7 304.7 302.9 300.2 295.3 293.3 289.7 286.4 286.4 286.4 286.4 286.4 286.4 286.4 286.4 285 282.9 284.9 286.1 287.9 290.1 292.3 293.4 294.5 295.5 296.3 297.3 298.1 299.2 300.9 302.9 305.2 307.5 310.4 312.6 314.7 318.3 322.7 329 332.7 333 334.5 336.5 337.5 339.5 342.2 344.2 343.1 341.5 338.9 336.9 334.1 332.1 329.5 325.2 322.7 319.9 318.4 317.3 313 310.2 308.1 306.8 304.3 300.9 297.6 293 288 283.8 279 272.9 266.7 261.9 256.6 257.7 262.4 266 267.9 269 269.6 269.7 269.3 268.7 269.2 269.2 265.2 265 266.7 268.7 270.5 271.5 273.2 275.5 276.1 273.7 271.5 271.1 271.3 272 273.1 274.3 277.7 280.3 282.3 283.4 284 284.5 283.6 283.5 283.9 284.8 285.9 287.4 289.3 291.2 293.2 295.4 297.8 300 302.5 305.7 308.7 314 317.6 322.6 325.3 326.1 323.4 321.2 316.4 313.4 309.1 302.7 298.7 296.6 294.5 292.2
297.9 307.7 308.4 309.3 311 310.9 308.5 312.6 315.4 319.1 320.6 322.2 323.2 324.2 325.3 327.3 327.6 329.8 331.3 333.1 333.8 333.6 334.6 337.6 339.4 339.9 342.3 343 345 346.5 347.9 349.4 350.5 351.1 350.9 350.6 349.2 346.7 344.1 341.9 338.8 337.7 336.8 335.2 334.1 332.5 333.5 333.3 333.2 332.8 330.9 330.2 329.8 328.3 326.3 325.6 324.8 324.9 319.1 316.7 314.9 311.7 308.4 305.5 304.7 304.6 300.2 294.8 292.5 291 286.4 286.4 286.4 286.4 286.4 286.4 286.4 286.6 287.5 286.1 285.2 289.6 290.3 291.3 292.8 293.3 294.1 295.9 296.6 297.2 298.4 299.1 300.9 303.6 306.4 310 312 314.5 316.4 318.6 323.3 332.2 334.6 335.9 337.4 337.7 338.2 339.2 339.8 339.9 339.4 337 334.7 333.9 330.4 328.9 326.9 324.7 322 319.9 318.5 316.7 315 313.1 311.7 311.3 309.1 305.2 301.2 295 290.4 285.1 279.5 272.6 267.4 262.5 256.2 256.4 256.8 259 262.2 264.4 265.5 265.4 265 265.1 265.2 264.1 263.5 266.4 268.8 270.4 271.6 272.8 274.9 276.3 276.6 274.7 272.8 272 272 272 272.6 273.5 275.8 278.5 281.2 282.2 282.9 282.8 282 281.1 280 282.5 283 284.5 286.5 288.6 290.9 293.3 295.4 297.6 299 301.1 304.9 309.1 313.9 317.9 320.7 321.5 321.3 320.7 317.5 313.7 311.7 305.9 301.4 299.2 297 294.3
300.3 309.6 311.1 312.4 312.9 311.7 311.7 314 316.3 318.7 320.6 322.4 322.9 323.9 325.8 328 328.6 330.1 332.4 333.5 334.6 336.4 338 337.9 339.5 341.5 342.6 344.3 346 348.7 350.1 351.8 352.7 353.2 353.4 353.1 351.4 348.7 345.9 343.3 340.7 339 337.9 336.7 336.2 335.2 334.7 334.6 334.3 333.9 333.2 332.1 331.5 330.7 328.9 328.3 326.7 326.3 325.4 319.3 315.8 313.9 309.8 307.8 307.3 304.5 299.5 294.5 292.9 288.7 286.4 286.4 286.4 286.4 286.4 286.4 286.8 287.6 285.4 285.5 288.6 291.2 291.9 293.2 294.4 295.1 294.8 296.3 296.8 297.3 297.6 300 301.9 304.8 307.8 311 312.6 315.1 317.2 319.6 323.3 330.5 334.6 337.6 337.2 337.3 335.2 337.7 337.4 336.2 334.6 333.3 331.2 329.2 326.6 325.1 323 321.5 319 317.3 317.2 317.3 316.8 314.9 313.3 313 312.2 308.3 303.9 298 292.8 285.3 279.2 273.7 269 263.8 259.7 256.9 255.3 255 255.4 259.5 260.7 260.3 259.9 259.1 257.8 263.4 267.4 270.5 272.2 272 272.2 274 276.1 276.8 277.7 276.8 275.4 274 272.7 272.1 272.6 273.4 274.6 276.8 279.4 281.6 281.3 281.3 281.2 280.3 278.1 278.5 280.4 281.5 283.8 285.7 288 290.3 292.3 294.7 295.9 297.2 299.5 305.4 308.8 313.2 316.8 317.1 317.3 317.2 315.9 313.5 309.3 306.8 304.6 302 299.5 296.2
300.8 313.7 314.4 314.7 314.4 313.2 312.9 315 316 319.1 320.9 323 324.3 325.6 326.8 328.6 330.4 331.2 332.8 334.2 335.5 337.4 338.7 339.9 341.3 343.3 344.5 346.4 348.4 351.4 353.6 355.5 356.9 356.2 355.8 354.8 352.5 350.3 347.5 345.6 342.5 341.6 339.7 338.7 337.1 336.8 335.2 335 334.5 334 332.8 332.6 331.2 331.2 329.5 329.4 327.6 327.3 326.2 323.2 316.1 314.2 311.9 310.4 308.4 304.2 299.3 294.1 292.1 286.5 286.4 286.4 286.4 286.4 286.4 286 288.8 288 287 286.4 289.7 291.3 293.3 294.4 295.3 295.2 296.3 296.7 297.1 297.4 297.7 297.9 301.7 306.3 309.3 311.9 314.2 315.7 318.2 319.8 322.5 328.5 333.7 336.7 338.4 337.3 335 335.1 333.1 331.9 330.6 329.5 327.2 325.2 322.7 321.6 319.9 317 315.3 313.9 315.1 316.2 317.5 316.1 314.2 313.8 313.3 309.4 305.7 299.7 294.8 287.1 278.4 272.6 267.7 265.1 261.5 260.1 257.2 255 253.9 253.6 255.1 255.6 255.6 257.8 261.2 267.2 270.7 272.8 273.9 272.9 273.5 275.3 276.7 277.5 278.5 278.7 277.3 275.7 274 273.2 273.6 274 275.2 276.6 278.1 280.4 281.7 280.3 279.4 278.8 276.8 275.1 277.4 279 281.1 283.2 285.3 288.5 289.9 291.9 292.8 295 297.7 301.9 306 311.2 314.8 314.9 314.2 314.3 314.4 312.7 310.1 308.6 306.8 304.1 301.2 297.6
309.9 315.5 316.5 316.9 316.3 314.1 311.4 317.3 316.4 318 321.5 323.2 324.7 326.6 328.2 329.6 332 332.3 333.4 333.9 336.6 338.4 340.2 341.7 343.3 345.3 347.5 349.5 352.2 355.9 356.8 358.6 359.5 359.7 358.8 356.9 354.9 352.8 349.5 347.6 345.4 343.9 342.5 340.8 339.5 337.2 336.4 335.7 335 333.9 333.8 331.6 332.5 331.9 330.2 328.6 329.6 327.5 325.4 321.5 316.1 314.1 312.4 311.2 307.8 302.4 297.6 293 289.3 286.4 286.4 286.4 286.4 286.4 289.3 289.3 288.4 289 289.3 288.2 289.6 291.5 293.3 294.9 295.8 296.2 296.7 297.1 297.4 297.1 297.4 297.6 300.6 302.8 306.8 309.2 313.3 314.7 317.6 318.3 320.9 323.6 331.2 333.9 336.5 335.8 333.2 330.6 329.1 327.9 327.3 325.8 323.6 321 318.2 317.3 315.4 313 311.9 311.3 312.4 314.1 316.1 317.2 316.2 316 314.7 310.6 306.3 301.1 295.6 288 277.8 271.1 267.7 266.6 264.5 262 260.1 257.3 254.3 252.5 253.2 255 255.8 259.7 264.3 269.1 271.6 273.7 273.8 273.9 274.7 276 277.2 278.2 279.5 280.1 279.1 277.2 275.3 274.7 274.5 274.6 275.8 277.3 278.9 280.5 282.3 281.5 279.5 277.5 275.5 273.7 274 276.8 278.9 280.8 283.1 286.3 288.5 289.6 289.5 291.8 294.1 297.9 304.2 309.6 313.6 314.2 313.7 313.8 315.3 314.4 312.9 311.2 309 306.5 303.1 298.8
312.7 317.4 318.5 317.7 317 315.9 315.6 314.9 319.3 318.6 323.1 323.4 325.6 327.6 329.5 331.3 333 333.5 333.8 335.5 338 340.5 342.1 344 345.6 347.7 349.9 352.2 355 357 359.7 361.1 361.6 361.6 361.3 359.4 357.1 355.4 351.6 350.6 348.9 347.4 345.6 343.6 344.2 340.8 338.5 336.5 335.6 333.8 333.7 332.2 331.8 332.7 331.1 329.8 326.9 325 323.1 319.5 316.2 314.9 312.9 309.9 306 299.2 294.2 289.1 286.4 286.4 286.4 286.5 287.5 290.1 289.4 289.4 288.4 289.9 289.4 290 290.8 291.1 293.2 294.8 295.8 296.6 297.1 297.3 297 296.8 296.8 297 298.8 300.6 303.7 305.9 309.9 312.6 314.6 314.6 316.4 319.5 324.5 328.3 331.3 329.8 329.3 327.8 326.1 325.5 323.3 321.6 319.5 317.8 314.6 312.3 311 309 306.9 306.9 307.8 310.5 311.9 313.6 315.9 317.6 315.3 311.4 306.2 300 292.7 288 280.4 274.4 269.5 268.8 267.1 263.9 261.5 260.3 256.9 253.8 252.6 252.5 255 262.4 266.3 268.7 271.1 272.8 274.1 275.4 276.2 277 278 278.7 280 281.2 280.4 278 276.8 276.3 276.4 276.5 276.8 278.2 279.4 280.8 282.8 282.5 281.1 278.6 275.1 273.5 272.1 272.7 275.9 278.3 281.2 284.1 286.1 286.6 286.4 288.3 291.5 295.8 302.3 308.5 312.3 313.9 314.7 316.1 317.5 316.9 315.4 313.2 310.6 308.5 305.9 300.6
316.2 319.1 319.8 319.4 318.3 318 318.2 315.3 316.5 319.5 322.7 325.7 326.3 328.5 330.4 332.2 333.6 334.9 335.4 336.4 339.8 342.1 344 345.9 348 350.2 352.3 354.8 357.5 359.7 361.6 363.3 363.7 363.9 363.1 362.2 359.7 357.5 355.7 354.8 352.1 350.6 350 348.3 344.8 343.4 341.1 338.2 336.9 335.6 334.8 332.9 333.6 331.8 331.2 330.1 329 327.4 325.5 321.9 317 316 312.3 307.7 302.8 297.6 293.6 286.4 286.4 286.4 288.8 291.7 295.1 296.4 296.3 294.7 293.5 292.4 291.9 292.3 292.6 292.4 294.2 295.7 296.6 297.8 297.5 296.5 296.3 296 294.3 294.5 294.8 296.9 298.6 301.4 303 306.9 307.9 309.9 310.9 313.9 317.1 319.5 320.8 322.6 322.7 323.2 322.3 321.3 320.1 318 315.3 312.2 310.8 307.8 306 303.7 301.5 301.9 302.4 305.3 308.4 309.2 310.7 312.9 310 309 304.3 298.2 293 286.7 279.9 274.5 270.5 269.1 268.1 265.4 262.3 262 258.2 255.1 252.8 251.1 254.8 262.9 267.2 269.9 270.8 273.5 275.7 276.8 277.5 278.3 278.6 279.2 280.8 282.3 281.8 279.6 278.7 278.5 278.4 278.5 278.7 279 280.2 282.1 283.8 283.1 280.6 278 275.7 273.2 271.5 270.4 272.8 276.5 280.3 282.3 284 284.2 285.1 287.7 290 294.5 301.3 308.3 312.9 313.9 315.8 318.3 319.7 319.2 317.6 315.5 312.8 309.9 306.4 301.5
319.7 320.7 321.6 320.8 319.1 320.8 320 318.1 315.7 318.6 323 325.6 328.1 329.5 331.3 333.1 334.4 335.7 336.8 337.6 341 343.8 346.2 348.4 350 352.6 354.6 356.6 358.9 361.6 363.2 365.1 365.7 364.9 365.2 363.9 361.8 360 358.5 356.3 355.9 353.9 352.9 351.2 348.5 346.9 344.4 341.8 340 337.3 334.7 334.6 333.7 332.4 331.7 330.4 329.2 327.4 325.6 322.9 318.8 314.8 308.8 305.3 300.5 296 292.4 286.4 287.8 294.1 297.2 297 300.3 300.2 299.9 298.9 297.3 296.5 295.8 294.4 294 293.7 295.8 296.6 297.2 297.6 297.5 296 296 294.9 293.2 291.8 292.1 293.4 294.9 295.5 297.4 299.4 301.4 302.4 304.8 307.3 308.3 310.4 311.1 313.5 315.9 313.5 316.1 316.8 315.8 313.6 312.3 309.2 304.2 302.5 302.5 299.7 298.2 296.7 295.8 297.8 298.9 298.9 303.2 305.5 307.2 305.7 297.4 294.1 289.8 283.8 278.7 273.7 269.5 268.6 267.5 265 262.7 261.2 258.4 254.8 256.2 250.8 252.6 262.4 267.2 269.6 272.2 274.6 276.5 277.9 278.5 278.8 279 280.4 281.9 283.3 282.9 281.6 281.1 280.9 280.7 280.6 280.2 280.3 281.7 283.8 284.6 283.5 280.5 276.7 274.7 273.2 271.2 269.3 269.9 273.5 277.5 281 282.2 282.3 284.2 287 289.9 295 302.3 308.8 314.3 317.2 319.4 321 322.2 321.6 319.6 317.5 315.1 311.7 308.2 302.7
321.4 320.9 322 321.9 321.5 321.9 321.1 319.7 318.3 318.2 323.8 327.5 328.8 329.9 332.3 333.5 335.1 335.5 337.1 339 341.8 345.1 347.3 348.4 351 353.9 356.1 357.9 359.8 362.1 364.6 366.6 367.5 367.5 367.1 367.4 364.3 361.8 360 359.6 358.9 357.8 355.7 353.8 351.9 349.5 346.9 343.9 341.8 339 336.8 334.8 333.8 333.1 332.2 330.4 328.6 326.9 324.7 321.5 318.4 312.2 306.6 302.6 297.7 295.1 286.5 286.4 295.5 296.6 299.9 299.8 301.3 301.4 302.7 302.4 301.1 300.5 299 297.9 298.1 297.8 298.1 298.9 298.9 298.8 298.7 298.6 297.5 297.1 296.6 296 294 292.1 291.8 291.5 292 291.1 294.2 297.1 300.2 301.4 301.5 302.8 304.3 304.2 304.5 306.7 307.7 308.7 307.5 307.2 305.3 300 297.3 298 295.7 293.5 292.2 290 290.4 291 292.2 293.1 294.1 294.6 295 295.2 292.9 288.1 285.5 281.5 276.4 272.1 268.3 267 266.5 264.8 261.6 260.1 256.5 253.2 252.2 250.8 250.3 261.6 265.2 269.6 272.4 273.9 275.5 278 279 279.2 279.8 281.3 282.7 283.7 283.8 283.5 283.4 283.3 283.4 283.4 282.2 281.8 283.6 285.3 285.6 283.6 279.5 276.9 275.6 274.1 271.8 269 268 270.4 273.3 278.8 279 282.4 284.8 287.9 291.5 296.7 304.7 310.5 317.1 321.8 324.2 325.1 324.4 322.9 321.1 319 316.8 312.9 309.1 303.4
321.5 322.2 322.8 323.3 322.7 322.9 322.4 321.8 321 318 323.5 327.1 329.5 330.5 333.4 333.8 335.2 336.2 337.7 340.9 342.6 344.9 347 349.3 352.1 354.1 355.4 357.8 360.1 362.2 364 366.1 368 368.5 367.5 366.8 365.5 364.3 362.5 361.6 360.3 358.9 357.3 355.3 353 350.4 347 344.3 342.4 341.1 338.7 336.4 334.6 333.1 331.9 329.3 328 326.3 322.9 319.8 315.2 309.2 304.3 299.9 294.5 290.1 286.4 294.6 297.6 300.9 304.2 304.6 306 305.9 305.4 305.4 305.2 304.5 303.4 301.8 302 301.3 301.6 301 301 301.4 301.5 300.8 300.5 301.5 301.7 302 300.4 298.8 296.6 293.7 292 290.3 288.6 289.3 289.5 289.8 291.1 292.2 292.5 294.2 293.4 297.9 299.6 301.1 299.6 298.9 296 293.7 290 288.7 286.9 285.7 284.3 284.1 283.2 285.2 287.7 288.5 288.7 289.6 288.1 286.8 285.7 283.7 281.5 278.6 274.7 271 267.8 266 265.5 262.9 258.5 256.1 254.8 252.2 251.3 250.4 249.5 259 263.3 267.6 271.2 273.6 277.8 278.7 279 279.7 281.1 282.1 283 284 284.3 284.7 285.5 286.5 286.9 285.8 284.1 283.8 285.4 286.6 286.6 284.4 279.8 277.3 276.3 275.6 271.8 269.7 267.7 267.4 269.3 274.3 279.3 282.5 286.2 290.4 293.7 299.7 307.2 313.7 320.2 326.4 330.1 329.6 327.6 324.6 322.1 319.9 317.3 313.8 309.7 304.1
323.4 324.1 324.5 324.2 323.8 324 323.2 322.5 322.4 318.8 322.9 327.2 329.3 331 333.1 333.8 335 336.6 337.6 340.7 344.6 345.2 347.4 350.9 352.2 353.3 354.8 356.7 359.4 362.2 363.6 365.5 366.6 367.4 367.2 366.9 366.5 365.6 364.2 362.7 361.9 360.5 358.8 356.9 354.5 352 348.8 346.1 344.1 342.5 340 337.4 334.7 333.1 330.8 328.1 326.9 324.9 322.3 319.5 314.5 307.9 302.5 297.9 294.8 286.9 286.5 299.2 302.7 305.5 308.7 310 312.2 312.7 312.1 311.5 310.8 310 308.5 307.3 307.4 305.5 304.6 304.1 303 304.4 303.7 304.9 304.6 306.3 306 306.5 306.1 303.8 300.9 298.2 296.3 294.4 292.8 291.1 289.9 289 288 288.2 286.2 285.7 283.1 289 290.3 290.8 290.7 289.6 287.8 286.4 284.9 282.3 280.8 280 280.2 280.1 279.5 280.4 283 285.1 284.7 284.6 284.1 283.4 282 280.2 279 276.6 273.7 270.6 267.4 265.3 258.7 256.3 255.9 253.4 250.4 251.1 250.7 250.3 250 249 257.6 264.2 269.6 275.9 278.8 279.9 279.5 279.2 280.5 282.3 283.7 284.7 286.5 287.4 288.2 289.2 289.2 288.1 286.1 285.7 286.2 287.5 286.3 284.3 281 278.2 277.2 277.1 274.8 271.3 267.2 268 267.8 273.7 279.1 283.8 287.8 293.2 298 304.4 312.4 318.7 324.4 329.7 333.2 332.5 329.5 326.4 322.8 320.7 317.5 313.9 310 304.3
325.2 325.3 324.8 324.8 325 324.8 324.7 324.6 323.3 320.1 321.6 324.8 326.5 329.6 331.2 332.9 333.9 336 337.6 339.8 338.3 341.4 347.3 349.8 351.1 352.7 354.2 356.1 358.4 361.2 362.9 364.1 365 365.6 365.9 366.2 366.1 365.4 364.9 362.9 362.4 361.3 359.7 357.8 355.3 352.7 350.3 348.1 345.8 343.9 340.8 337.5 334.3 331 328.4 325.6 323.2 322.1 321 317.4 312.2 305.9 299.8 295 288.7 292 302.8 307.1 311.4 313.1 314.9 316.9 318.1 318.4 318.2 316.8 316.2 315.2 314.9 314.3 311.2 310.6 310.4 306.9 306.5 308.3 308.9 309.8 310.8 310.2 310.7 309.7 308.2 306.9 305.6 302.6 301 299.3 298.3 298 299.1 297.5 296.1 293.5 293.3 291 290.4 282.8 280.8 280.6 281.5 281.1 278.7 277.1 277.6 278.6 277.3 276.6 276.7 276.8 277.2 277.2 278.6 279.5 280.4 281.1 280.9 280.6 281 277.9 275.8 275.5 274.6 270.1 264.6 253.8 258.7 258.2 257.7 257.6 257.3 251.7 251.2 250.4 249.5 248.9 248.1 263.3 269.5 274.6 278.2 279.8 279.9 280.1 281 282.7 284.2 285.9 288.2 290 290.8 291.1 291.5 290.8 288.2 287.2 286.4 286.3 284.7 283.3 281.4 279.2 278.6 277.4 274.1 271.2 268.8 266.5 266.1 272 278.3 285 290.9 295.8 301.1 307.1 314.4 322.4 328.8 332.6 335.7 335 331.7 327.2 323.4 319.7 316.8 313.6 309.7 303.6
325 326.5 326 326.3 326.2 325.8 325.5 325.4 324.6 321.6 321.8 322.5 323.1 328.8 331.3 331.6 332.2 335.2 336.7 339.1 341.8 344.8 345.7 348.2 349.7 351.5 353.6 355.3 357.3 359 361.5 361.7 362.3 362.7 363.5 364 364.5 364.6 364.3 361.4 362.4 361.2 359.6 357.7 355.2 353.1 350.6 348.9 346.6 344.1 340.6 336.5 333.1 329.2 325.4 323.5 320.9 316.2 312.1 309.4 306.5 301.1 293.8 288.8 295.1 303.7 309.3 314.5 314.9 314.9 315.9 317.7 318.3 319.8 320.8 321.4 320.9 319.7 319.6 319.7 315.2 313.6 312.2 311.9 311.3 311.2 311.3 312.5 312.3 312.2 312.8 312.9 312.5 311.7 310.1 308 306.4 305.3 304.2 304.1 304.2 303.4 302.6 301.3 299.7 298 297 293.9 291.2 290.9 287.8 284.8 283.4 282.7 281.4 277.7 275.6 274.2 273 272.8 274.7 273.3 274.4 275.6 276.3 277.3 278 278.8 277 272.7 263 260.1 268.8 258.1 254.8 264.2 263.1 262.1 260.3 258.7 256.5 253.7 251.6 250.5 249.3 248.6 247.7 260 267.6 272.2 276.3 278.9 280 281.1 282 283.5 284.9 286.5 289.2 292.2 292.7 293.1 293.4 292.5 290.9 290.1 289.2 288.3 287.3 284.6 282.7 282 280.3 278.2 276.7 273.3 268.3 267.7 262.1 270.1 278.3 286.1 292.5 297.7 302.7 308 316 324 329.5 334.1 336.7 334.8 329.7 325.8 321.7 318.1 315 312.1 308.4 303.1
326.5 326.8 326.9 327.1 327.7 327.3 327.6 327.4 326.4 323.6 323.2 323 322.7 324.8 327.9 330.4 329 334.3 335.6 338 341.6 343.2 344.4 346.6 348 349.7 351.6 353.1 355.1 356.6 359.1 359.8 359.3 359.7 360.4 360.9 361.9 361.9 362.2 360.1 360 359.4 357.7 356.2 353.7 352 350.1 348.5 345.4 342.7 338 334.3 330.5 326.5 322.2 319.7 311.5 304.6 300.9 298.8 294.8 291.7 292.3 301.9 308.8 308.9 312.9 315.1 316.2 316.4 319 321.1 322.2 323.7 323 322.7 324.7 325.1 324 322.9 319.8 318 316.8 316 314.5 313.6 314.1 313.9 314 315.8 317.2 317.2 316.8 315.8 314.5 312.5 311.6 310.5 309.6 309.8 308.7 307.7 306.8 305.6 303.8 302 300.2 299.1 298.1 295.7 293 290 287.7 285.4 284 283.1 281.4 279.3 277.1 275.3 273.6 272.3 271.8 268.8 271.8 273.5 274.6 274.9 265.8 260.8 261.2 265.7 270.8 272.6 270 266.7 263.1 261.9 261.4 259 254.6 254.4 252.1 250.6 249.3 248.6 247.8 249.6 262.6 267.8 272.2 276.4 278.7 281.7 282.5 284.1 285.5 287.6 290.2 294.4 294.7 295 295.4 294.2 292.7 291.9 291.1 290 289 287.5 285.2 283.4 281.7 279.1 275.4 274.1 272.5 267 261.7 270.4 279.1 286.7 294.2 299.6 303.5 307.9 314.8 322.9 329.7 333.2 337.2 334.2 325.7 322.1 317.8 315.9 312.8 309.6 306.1 301.3
327.1 328.9 328.2 328.4 327.9 328.1 328.8 328.5 327.5 326.8 323.1 323.8 323.5 323.6 325.2 327 327.7 331.8 335.1 337.7 341 340.9 342.2 344.5 345.9 348.1 349.2 349.2 351.3 353 355.1 355.6 355.9 355.6 356.7 357.7 358.4 358.2 357.9 356.6 355.5 354.8 353.8 353 351.7 350.3 348.9 346.7 342.3 339.1 334.4 330.2 326.4 321.9 317.2 309.5 302.1 297.9 295.9 293.4 292.4 299.5 304.1 309.9 312.8 313.7 315.3 317 320.9 324.8 325.9 326.3 327.3 328.1 327.5 328.1 328.1 328 327.3 326.7 323.8 322.1 320.8 318.6 318.3 315.3 316 315.2 316.8 319.6 320.7 321 320.7 319.7 318.7 317.6 316.6 315.8 315.1 313.1 311.6 310.6 309.8 308.6 306.8 304.6 303.4 303.4 302.2 299.8 296.8 293.7 290.2 286.5 285.2 284.2 282.2 279.8 277.8 276.8 274.9 275.2 275.4 272.6 268.8 269.2 268.4 263.7 264.9 271.8 273.2 278.5 280.3 275.9 271.6 268.3 263.2 261.2 259.9 257.7 258.5 258.9 259.4 256.3 252.8 249.1 247.7 245.7 251 259.8 266.2 272 276.1 280.1 282.2 284.6 286.4 289.3 291.8 295.4 297.7 297.5 297.4 295.6 294.3 293.6 292.9 291.6 290.9 289.6 287.9 285.7 283.1 280 277.3 274.8 271.6 267.5 257.7 271.5 278.2 283.8 294.7 299.3 304.1 308.3 313.6 320.3 326 328.8 330.6 329 322 315.9 314 312.6 309.6 306.6 303.6 298.4
329 329.3 331 330.3 328.6 329.3 329.2 328.8 327.5 326.4 326 324.7 323.6 324 324.4 326.5 326.6 327.7 334.2 337.3 338.7 339.3 339.9 341.4 343.7 344.8 345.7 347.6 346 349.1 350.4 350.8 351.2 351.8 351.2 352.8 353 353 352.1 351.4 351 350.3 349.7 349.6 348.6 347.6 345.1 341.8 337.9 333.2 328.3 324.2 319.2 314.8 308.7 302.1 297.2 294.3 293.1 300.5 304.1 306.7 310.4 312.7 315.4 317.1 316.9 319.6 323.8 326.7 328.9 330.3 330.9 331.9 332.7 332.7 333 331.9 330.9 328.9 326.9 325.1 324.2 321.1 319.4 318.1 317.7 317.7 319.4 322.6 323.3 323.9 323.9 323.7 323.2 322.4 321.4 320.2 318.9 317.7 314.7 313.2 312.4 311.4 309.9 307.8 306.8 306.6 305.3 302.4 300.6 297.3 290.8 286.3 284.3 283.1 280.8 278.3 277.6 276.7 275.2 276.1 275.7 272.4 268.9 273.9 273.7 274.5 261 275.4 280 284.4 283.7 278 274.1 268.9 265.3 262.3 260.4 259.6 262.4 263.2 261.4 259.3 253.9 250.8 249.9 246.3 246.5 249.8 256.7 266.3 271.1 278.7 284.2 286.4 286.5 288.5 292.4 295.4 300.1 299.9 298.8 296.6 295.6 295 294.2 293.4 292 291.1 290.3 288 285.4 280.9 277.3 275.7 270.8 267.3 256.1 269.9 277.1 283.8 294.6 299.4 304 309 313.1 317.1 319.7 321.8 320.2 319.1 315.9 311.6 310 308.6 306.1 303.6 300.7 295.4
330.5 331.5 331.4 329.4 330.4 329.8 329.1 328.4 328.7 327.8 326.7 325.8 325.3 324.6 324.7 326.2 325.7 327 330.4 334.6 336.6 337.1 338.4 337.9 340.8 342.3 343.1 346.5 344.9 345.1 345.7 345.7 346 345.7 346.3 346.6 348.6 348.5 346.6 346.6 346.2 345.3 346.2 346 345.1 343.1 339.3 335.3 331.9 327.2 322.1 316.7 311.2 305.5 301 298.5 294.4 300.5 306 307.9 309.9 312.9 315.2 316.6 317.8 319 320.7 322.6 327.3 328.3 331 333.1 335 336.6 337.4 337.5 336.8 336.2 334.8 332.5 330.7 326.7 325.6 324.7 322.8 321.5 320.1 319.7 321.9 323.2 324.2 325.3 326.5 326.8 326.4 325.7 324.9 324.2 322.5 319.7 317.6 315.8 314.7 313.2 311.4 309.6 308 307.4 305.8 304.1 301.1 296.7 292.4 285.5 281.8 280 278.3 276.5 276.4 273.6 270.9 269 268.1 266.5 265.4 263.6 264.3 267.6 267 277.8 280.8 282.8 283 280.3 275.3 270.6 267.8 265.4 265 262.3 265.2 264.6 262.9 260 256.3 252.4 251.1 246.2 245.9 245.6 248.7 258.9 266.8 275.9 281.7 286.6 286.5 287.6 291.1 296 301.5 301.4 299.3 297 296.3 296.2 295.4 295 293.8 292.7 291.9 290.3 287.1 283.5 279 274.7 272.1 267.4 254.7 268.2 276 282.5 293.1 299 304 309.6 312.2 313.8 314.5 314.1 311.4 310.3 307.3 305.7 305.3 301 300.8 299.1 295.6 290.3
331.5 332.4 331.9 330.8 331.7 331 330.5 329.6 329.3 328.5 327.5 327.2 325.5 325.2 325.2 325.7 325.8 326.8 328.3 331.5 333.8 334.5 334.1 335.4 338 340.1 339.7 340.3 340.1 339.7 340.3 340.6 340.8 340.6 340.3 340.7 341.2 341.5 341.2 341.1 340.5 340.3 340.9 341.1 339.5 336 332.4 328.8 324.3 318.9 314.2 309.1 300.2 296.7 297.8 295.2 304.7 308.6 310.9 313.3 315.5 318.2 319.4 320.3 320.5 322 322.6 325.5 327.5 331.4 334.6 336.7 338.7 340.3 340.3 340.5 339.2 337.6 335.7 334.3 331.9 328.4 327.9 326.2 324.9 324.6 322.3 321.4 322.6 324 325.8 327.7 329.3 329.3 329.2 328.6 326.9 326.9 324.3 321.2 319.9 318.5 316.1 314.6 313.2 311.9 310.3 308.3 306.8 305 301.6 297.1 291.7 286.2 280.7 278.9 277.1 275.4 272.3 269.3 268.8 273.8 271.5 267 269.1 273.1 264.3 262.3 267.1 276.6 278.8 278.5 280 276.5 274.8 272.3 268.4 266.8 266.3 263.5 265.9 264.8 265.7 263.6 258.8 256.8 253.4 251.2 245.8 245.7 244.9 248.3 258.9 268.3 279.2 283.2 285.5 286.1 289.1 294.8 301.7 301.7 299 297.5 296.1 296.4 296.3 295.8 295.5 294.7 293.1 291.4 288.9 285.2 277.7 274.7 271.6 268.5 252 266.5 272.9 281.3 291.1 297.5 302.8 307.1 309.4 309.7 309.4 306.7 305.1 302.6 301.5 299.7 297.4 293.9 293.9 294 287.7 282.8
333.5 333.5 332.4 331.4 331.7 331.4 330.9 330.4 329.7 328.9 328.3 327.3 326.5 326.3 325.6 325.7 326.1 326.4 326.8 327.9 329.7 330.9 331.4 332.1 334 334.4 336.4 335.9 336.2 335.3 335.2 335.3 336 335.4 334.3 333.3 334.2 333.8 334.5 335.2 334.8 334.5 334.9 333.8 331.7 328.7 325.5 321.6 316.6 310.8 301.7 298.9 298.9 300.8 302.8 308.3 310.8 313.2 315.5 318.1 319.8 322.2 323.7 324.3 325.4 326.3 325.1 326 328.6 333.4 337.8 339 340.5 340.6 340.5 341.4 340.9 338.8 337 334.6 332.2 330.6 328.9 327 325.7 324.4 322.9 322.7 323.4 325.3 326.8 328.8 330.9 330.7 330.5 329.6 328.3 327.4 325.7 323 322.3 321.5 319.8 317.8 316.4 314.8 312.7 310.3 307.6 305 302.1 298.1 292.8 286.9 280.7 279 277.9 270.9 270.6 276.2 279.6 282.3 282.5 284.4 282.3 282.7 282.1 278.1 276.7 276 274.6 273 272.5 271.9 271.6 271.5 269.5 267.5 266.5 265.8 266.7 267.3 267.2 265.6 264.1 262.1 258.7 256.6 245.2 244.7 244.7 244.2 246.9 257.6 271.8 279.3 283.1 284.6 286.9 290.8 298.2 300.1 298.2 296.3 295.2 295.6 296.1 295.9 295.6 295 293.6 291.5 289.9 285.2 279.5 274.9 270.9 267.4 250.2 264.2 272.5 282.5 288.7 294.4 301 304.1 305.6 304.4 302.4 300.9 299.1 297.4 294.7 294.3 292.5 289.5 286.7 284.3 278.3 273.9
334.6 333.2 333.3 333.4 332.7 331.1 331.9 331.1 331.1 329.9 329.2 328.2 327.4 327.1 326.9 326.5 326.2 326.3 326.4 326.4 326.3 327.1 327.7 328.2 329.1 330.9 331.2 333.1 332.1 330.9 330.6 330.5 329.3 329.1 328 327.1 326.4 325.7 326.7 326.5 327.4 327.5 326.3 325.5 323.8 321.3 317.6 313.9 304.4 301.4 301.3 302.5 306.6 307.7 311.2 313.8 316.2 318.6 320.9 323.7 324.9 327.1 329 330.4 332 331.4 331.2 328.8 328 329.5 336.3 339.1 341.3 342.4 342.4 341.8 340.3 339.4 337 334.8 331.6 330.3 328.7 326.5 326.1 323.8 322.6 321.9 324.1 326.1 327.6 329.4 330.8 330.7 330.5 329.7 328.7 328.5 326.1 324.4 324.2 323.6 322.6 320.5 318.9 317.4 314.1 311.7 308.8 304.4 301.9 297.5 292.8 285.4 281.2 279.8 274.5 272.2 278.5 284.6 287.7 290.3 290.5 286.4 281.2 279.5 278.2 276.2 275.4 274.6 273.5 272.4 272.2 271.3 271.5 272 270.8 269.5 267.1 266.8 268.1 269.4 269.2 267.7 266.6 266.1 264.9 262.8 257.5 252.6 244.9 242.6 242.9 245.2 258.6 278.8 281.7 283.5 284.2 286.3 292.7 298.2 296.9 295 293.6 293.2 293.9 294.5 294 293.7 293.3 290.4 287.4 284.9 279.6 275.5 270.4 265.5 249.9 259.8 270 281.2 287.8 292.4 298 300.4 301.1 298.8 296.5 294.9 292.6 290.7 288.6 285.4 284.5 281.8 279.6 275.2 268.3 264.6
335.2 334.5 333.8 333.2 332.4 332.5 332.9 332.2 331.5 330.7 329.7 328.9 328.1 327 326.5 326.4 326.2 325.8 325.8 326.3 326.5 325.5 326.9 325.7 324.4 324.7 326.4 327.1 327.3 325.5 325.7 325.3 324.2 322.8 322.1 320.9 320.6 319.3 317.5 316.5 316 315.9 315.6 314.8 313.3 312.1 304.5 302.8 301.7 302.1 308.7 311 313.4 314.8 319.6 321.2 323.5 326.1 327.3 328.7 330.7 332.3 334 335.1 335.5 335.4 335.9 334.2 330.2 327.8 327.6 336 340.2 341.3 340.9 339.8 338.6 337.2 335.9 334.1 331.6 328.6 327.5 325.9 323.7 321.9 321.4 320.6 322.9 325.1 327.2 328.6 330.3 330.7 330.1 329.1 328.7 327.3 325.9 324.9 324.5 324.1 323.2 321.6 320.5 318.7 315.7 312.5 308.7 305.3 302.2 297.5 291.4 283.4 280.6 276.4 272.2 280.8 285.3 288.7 291.5 291.8 288.5 286.4 288.3 287.8 285.8 283.4 277.6 275.8 275 272.8 271.8 271 270.6 270.2 269.2 268.4 267.7 268.5 270.3 271.3 271 270.2 270.1 270.7 269.9 267.7 265.9 260.6 256.9 247.6 243.1 241.6 244.3 271.2 279.8 281.9 282.7 283.2 287.1 294.4 295.9 294.1 291.9 290.6 290.8 291.4 292 291.8 291.6 290.8 287.8 283.3 278.6 274.3 270.3 265.6 250.1 255.2 266.3 276.7 285.3 291.3 294.1 295.1 294.9 292.8 290 287.5 285.3 282.9 280.7 278.3 275.9 271.7 272.3 266 261 256.5
333.7 333.8 333.8 333.8 332.6 333.2 333.6 332.8 332.6 331.9 330.8 329.5 328.6 327.5 326.3 326 326.1 325.6 325.7 325.7 327.3 325.7 323.6 322.3 321.4 321.9 322.4 321.8 320.9 321.3 320.3 319.9 318.1 317 316.2 315.3 313.8 312.2 310.8 309.8 308.6 308.1 307.3 306.5 306.8 305.4 308.4 311.5 312.9 315.4 317.3 321 322.2 325.1 327.4 328.8 329.6 331.9 333.1 335 337 338.4 338.7 338.9 339 339.4 339.4 338.8 335.2 328.5 326 328.6 335.5 337.8 337.5 336.4 335.1 334.5 332.4 331.4 329.8 327.3 325.7 325.5 322.8 320.3 319.4 318.4 320.3 323.2 325.3 327.2 328.8 329.1 328.1 327 326.3 325.9 325.5 324.1 323.4 323.1 322.6 322.1 319.7 317.9 315.6 311.7 308 304.3 300.7 295.4 288.5 280.8 277.5 273.5 272.2 284.8 289.5 291.5 291 291.1 294.6 296 295.4 292 290.6 287.9 283.3 278.9 276.7 273.4 271.8 270.9 269.9 270.1 269.9 270.1 270.5 270.6 272.2 272.9 272.4 272.4 272.3 272.5 272.6 271 268.1 264.9 261.1 254.2 246.8 242.6 242.6 257.1 276.3 279.3 280.9 281.4 282.2 289.9 292.8 292 289.6 288.3 288 287.9 288.6 289.4 288.9 288.4 285.8 280.5 276.7 272 267.7 264.1 251 249.5 261.8 272.1 279.9 288.2 289.9 288.7 288.4 285.9 282.9 280.2 278.4 275.6 272.7 270.3 267.3 262.6 261.8 257.7 254.2 251.3
334 334.6 334.5 333.4 335 334.7 334 333.1 332.8 333.3 331.9 330.6 329.2 328 327.3 326.1 325.4 325.6 326.1 326.1 326.7 326.6 326.5 326.9 324.4 320.5 319.6 318.1 318.7 317.7 317.2 315.9 314.6 313.8 313.3 311.3 312.3 313.9 314.3 315 315.1 314.9 312.3 308.1 309.9 316 318.2 320.5 322.2 325.5 326.2 329 330.6 332.2 333.7 335.1 337.3 339 339.8 340.2 341.3 342.3 342.3 342.5 342.1 341.9 341.6 340 337.1 331.8 324.3 323.5 326.5 331.3 332.6 332 330.6 329.7 329.6 327.4 326.3 325.2 324.3 322.3 319.9 318.6 317.5 316.4 317.1 320.6 322.5 324.3 325.4 326 325.5 324.7 324.6 324.1 323.2 323 322.2 321.1 320.6 319.8 317.5 316.1 313.5 309.9 305.4 301 296.9 290.9 283.1 275.6 273.2 273.9 279.5 290.4 292.7 292.2 297.2 299.4 299.3 298.7 297.9 295.3 293 289.3 284.7 280 277 274.8 272.3 271.3 271.3 270.7 271.2 272.5 272 272 273.6 274.3 274.2 273.7 273.8 274.1 272.7 271.2 268.3 265.8 261.1 253.8 253 245.2 242.1 242.1 267.5 273.5 277.2 279.6 280 284.1 288.9 289.3 286.8 285 284.5 284.3 283.8 284.6 285.1 284.5 283.2 279.7 274.8 270.6 265.6 260 253.1 246.1 258.3 266.5 272.7 281.2 286.4 284.4 281.7 279.5 277.2 274.1 271.8 269.3 266.5 263.4 258.7 254.5 253.3 251.4 248.1 245.9
335 335.3 334.7 335.4 336.2 336.2 335.7 334 334.3 333.3 332.7 331.2 329.9 329.2 328.1 326.8 326 325 324.6 325.9 325.4 324.1 324.6 324.6 324.4 324.4 317.5 318.2 316.6 315.1 314 314.1 314.4 315.6 315.9 316.9 317.9 316.2 317.5 317.2 317.2 318.2 310.2 315.4 318.5 322.3 324.8 326.5 328.9 331.9 334 336.7 337.6 339.1 340.8 342.3 344.1 344.8 345.1 345.5 346 346.2 346.1 345.4 344.6 342.7 341.5 339.8 337.6 332 325.5 321.4 320.5 322.1 324.1 325.5 325 323.9 323.1 322.4 322.7 322.1 320.8 318.6 317.8 316.4 315.6 314.3 315.1 315.7 317.8 319.3 320.2 321.3 321 322.5 322.9 322.3 321.1 321 319.4 318.8 318.3 317.2 315.1 313 310.1 306.4 301.5 296.5 290.6 284.1 274.5 278 279.8 286.1 290.5 293.5 295.6 300.2 302.7 303.3 303.3 302.4 300.7 298.2 295.5 291.5 286.6 281.9 278.5 276.6 273.5 272.7 271.9 271.5 273.1 272.8 272.7 272.2 273.5 275 275.5 275 274.9 274.6 272.2 270.6 268.4 266.1 262 254.8 250.3 246.1 242.7 241.5 258.3 268 273.4 277.1 278 278.8 283.5 284.7 282.6 280.7 280.1 279.7 278.5 278.7 278.7 279.5 279.9 277.2 272.2 268.1 261.6 257.2 250.2 242.4 252.9 260.8 268.6 274.5 278.9 279.8 277.8 274.8 271.2 268.6 265 263.2 260.1 255.5 250.8 248.1 247.3 246 243.7 239.9
336.2 336.2 336.1 336.3 336.7 337.1 336.5 335.8 335.1 334.6 332.9 332.4 330.5 329.2 327.8 326.7 325.4 325.5 323.7 323.7 321.5 321.9 319.4 318.8 318 317.9 317.4 315.8 319.7 320.6 322 321.1 320 320.6 320.6 320.4 320.9 319.7 319.6 320.6 321.2 319.3 312.3 321.1 324.2 327.4 330.3 332.9 335.7 338.5 340.6 343.2 343.6 345.2 346.6 348.1 349.8 350.6 350.7 350.8 350.2 349.6 349.1 348 346.4 344.5 342 339.7 337 333.6 329.4 321.8 320.8 319.6 318.4 317.5 319.3 320.4 320.4 319.1 318 317.2 315.8 315.2 315.3 314.8 314.3 313.6 312.9 312.1 312.8 314 314.9 316.2 317 318.9 319.8 319.4 318.5 316.8 315.5 315.2 315.1 313.8 311.6 309.6 306.5 302 297.1 290 283.1 275.5 282.1 289.4 293.9 294.3 296.5 301.5 303.6 305 305.7 306.6 306.6 305.1 302.9 299.6 296.5 292.2 288.1 283.8 280.7 278.4 275.2 274.1 273.1 274.2 275.3 275 273.6 272.8 273 274.5 275.8 275.7 275.3 274.3 273.2 270.2 266 259.9 258.1 248 248.9 244.6 243.6 240.7 247.4 261.8 271.7 275.9 276.1 274.9 276.2 278.2 276.7 274.7 273.1 272.4 270.5 269.7 269.5 272.1 273.3 270.2 268 263.2 257.9 253.3 250.6 239.8 246.4 255.4 263.5 269.4 272.3 272.8 273.2 270.4 265.5 260.4 260.3 257.6 254.2 249.2 245.5 242.6 241.2 240.8 240.5 238.5
337.7 337.8 337.3 337.2 338 338.2 337.4 337.3 336 335.2 333.2 332.3 330.2 329.1 327.8 326.2 324.3 322.9 323 322.9 323.9 324.7 324.2 324.4 323.4 323.6 324.3 324.6 325.1 325 324.6 324.4 323.3 322.9 321.4 323.7 323.4 323.2 322.8 323 321.4 314.9 318.4 322.5 327.8 331.7 335.6 338.4 341.1 343.7 345.5 347.4 349.2 351.4 353.4 354.8 355.8 356.1 355.4 355 353.8 352.7 351.8 350.4 347.9 345.1 342.4 340.2 337.7 333.2 329.8 324.8 321.7 320.2 319.8 318.1 316.5 318.1 319.6 317.6 315.4 313.5 313.3 312.8 310.8 310.8 310.8 310.8 310.8 310.8 310.8 310.8 310.8 310.8 313.7 314.7 315.2 315.2 314.5 313.1 310.8 310.8 311.1 310.4 308.5 306.5 302.8 297.4 291.1 281.2 275.8 282.5 289.9 293.1 295.7 300.7 305.3 306.4 307.9 308.8 309.7 309.8 308.9 308 305.7 302.2 298.3 294 289.5 286 282.7 278.5 277.5 275.9 275.4 275.9 277 277.1 276.3 274.2 272.7 273.6 274.9 275.6 274.6 273.3 272.1 264.9 252.9 261.3 263.1 261.9 258.4 252.8 247.7 242.7 241.1 247.7 261.1 270.5 272 268.5 267.3 266.3 264.9 263.1 261.2 259 259.2 258.3 258.5 262 264.8 264.1 261.5 258 253.8 250.4 248.1 245 238.5 249.4 255.2 262.4 265.7 266.1 266.4 263.9 261.3 258.8 254 253 249 244.1 239.5 238.6 238.2 237.3 236.5 233
340.1 339.8 338.9 339.6 339.4 339.4 339.4 338.9 337.4 336.3 334.3 333 331.2 329.5 327.4 325.6 325 323.7 323.8 324.7 325.3 326.1 326.1 326.6 326.1 326.8 327 327 327.2 327.2 327.4 325.9 326.1 325.9 324.3 324.6 324.9 325 325.4 323.6 321.5 312.3 321.2 327 332.4 336.1 339.8 343.5 346.5 349.3 351.4 353.9 356.2 358.1 359.5 360.9 361.5 360.6 360 358.3 357.5 355.9 354.2 351.9 348.8 346 342.9 340.4 337.8 334.1 330.3 325.5 323 323.1 322.5 322.7 317.2 315 314.4 316.2 316.7 316.2 316.4 314.5 312.2 311.9 310.8 310.8 310.8 310.8 310.8 310.8 310.8 310.8 310.8 310.8 311.1 310.5 309 306.8 306.8 306.5 305.8 306.1 305.1 302.9 298.5 294.7 283.2 278.6 285.8 291.7 294.6 297 302.5 308 308.5 309.4 311.2 311.9 312.2 312 311.3 309.7 307.6 303.8 300.2 295.5 291 287.8 283.2 281.9 280 277.9 277.7 277.6 277.9 279 278.9 276.9 273 269.5 273.4 273.9 272.7 264.9 259.4 256.6 265.6 266.2 266.6 264.7 258.8 254.7 252.3 248.1 240.6 240.2 241.2 253.1 259.9 257 254.8 253 251.6 250.5 249.6 248.6 246.8 246.5 245.7 249.7 255.6 256.9 256 253.4 250.1 248.7 247.3 244.6 237.7 242.4 247.1 251.2 257.4 258.5 257.5 256.9 255.6 252.5 251 247.9 243.9 239.5 236 235.8 236 235 232.8 229.8
342.3 342.6 342.2 341.2 340.8 340.5 340 339.5 338.3 337.2 334.8 333.8 331.6 329.2 327 325.8 326.3 324.1 322.8 325.8 327 328.4 328.1 329.1 328.9 329.4 328.9 329.3 329.5 329.3 329.1 328.3 328.8 328.4 326.8 325.8 325.8 325.7 325.7 323.8 318.4 317.7 325.5 331.7 337.9 341.6 344.8 348.2 350.9 354.4 357.1 359.6 362.5 363.8 365.1 366.2 366.9 365.3 364 362.3 361.1 358.9 356.2 352.8 349.7 346.4 343.6 340.8 337.8 333.7 329.4 327.3 328.4 327.1 328.4 329.1 328 328.2 328.9 329.7 328.9 327.2 326.5 325.6 323.8 321.6 319.1 317.4 316.3 313.4 313.2 310.8 310.8 310.8 310.8 308 304.7 304.7 302.7 302.8 302.3 301.8 301.3 301.6 301.4 298.1 294 286 279.9 293.8 293.7 295.7 299 304 308 310.8 311.4 312.4 313.1 313.7 314.1 313.7 313.4 311.6 308.4 305 300.5 296.4 292.7 286.8 286.2 284.1 282.1 279.7 279.7 279.8 280.1 280.1 280 278.5 275.9 270.2 268.9 265.4 264.1 267.5 260.5 268 269.4 269.6 268.3 265.9 262.2 258.1 255.8 252.8 249.9 240.8 239.8 240.1 243.4 246.9 246.7 245.1 244.9 244.4 242.9 240.7 239 238.1 237.8 240.3 246.8 248 249.3 248.4 247 246.9 247.2 245.4 240.8 233.2 237.8 238.1 243.2 247.2 247 247.8 248.3 246.2 243.5 240.1 236.5 235.4 232.7 230.5 229.7 229.2 220.7 220.3
344.4 344.9 344.6 343.8 342.9 341.9 341.3 339.4 338.9 337.4 335.3 333.5 330.9 329 326.7 327.2 327.1 325.3 325.6 327.2 329.7 330.7 331.4 331.6 331.9 331.6 332 332.1 332.2 332.5 331.4 330.1 331.9 332 330.6 327.9 326.6 325.9 324.6 322.8 316.3 323 328.7 335.8 341.7 346 349.4 352.5 355.6 359.6 362.4 364.6 367.6 369.1 370.6 371.4 371.1 370 368.5 366.6 364.2 361.5 358.4 354.7 350.1 346.3 343.7 341.3 338 333.9 329.6 331.7 331.8 331.8 331.5 330.9 331.4 332.1 332 332.1 331.5 330.1 328.2 327 326.4 325.3 323.7 321.7 320.7 319.4 317.3 317.5 316.8 315.2 311.2 304.7 304.7 304.7 296.8 296.5 296.7 296.8 294.5 296.6 295.5 294.7 286.1 278.8 288.9 297 298.6 301 304.7 308.3 310.8 312.9 314.7 315.5 315.9 316.3 316.5 315.8 315.4 313.9 310.8 305.5 300.6 298.4 294.5 290.9 289.2 286.5 284 282.1 281.4 281.2 281.4 280.9 280.2 278.8 277.4 275.6 275.4 274.9 274.3 273.2 263 271.5 270.8 271 270.3 268 264.5 262.4 260 257.2 253.8 248.5 241 238.8 239.3 241.1 243.5 244 241 239.3 238.3 237.4 236.8 236.2 235.8 235.6 238.2 245.4 246.2 246.4 246.4 247.2 248.1 246 242.8 233.8 231.3 230.9 230.1 230.4 226.3 229 228 237.3 239.2 236.7 233.7 231.2 228.3 224.9 223 225.2 225.3 217.4
348 348.6 348.3 346.8 345.1 342.4 341.4 340.8 339.6 337.7 335.1 332.2 330.9 328.9 329.2 328.5 327.7 325.8 327 328.6 329.9 332.4 333.4 333.9 335.3 334.4 334.4 334.7 334.8 334.7 334.7 334.3 334.3 333.6 331.5 330.3 328 325.5 323.9 321.9 316 326 331.7 339.1 344.9 348.3 352.7 355.8 359.9 364.2 367.2 369.7 372.7 374.5 375.8 376.8 376.1 374.7 372.4 370.2 367.3 364 360.3 356 351.2 347.4 344.7 340.8 336.4 334.5 334.7 335 335 334.6 333.9 333.8 332.6 333 333 332.7 332.3 331 329.4 327.7 326.6 325.5 324 323 322.1 320.6 318.4 319 318.6 317.2 314.7 311.5 304.7 304.7 297.3 290.6 288.2 290.3 287.5 290.2 287.6 284.1 280.1 282.7 298.3 301.5 303.6 306.7 309.2 311.4 313.3 315.1 317 318.9 319.5 319.6 319.7 318.6 316.7 313.9 310.1 305.8 302.3 299.7 294.8 294.5 292.1 289.5 286.9 285.5 284.5 283.5 282.4 281.6 280.6 279.2 277.2 276.3 274.5 274.5 272.2 269.7 271.4 272.8 272.1 272 271.5 268.8 266.4 263.9 261.8 259.9 257.1 253.4 247.1 241 238.8 238.9 240.3 240.8 239.1 238.5 237.6 237.2 237 236.6 236 235.4 235.3 240.5 245.2 245.9 246.6 247.3 246.5 245.9 243.5 238.7 230.6 228.6 226.8 224.4 223 222 219.9 220.4 219.2 218.6 221.2 229.3 225.9 223.5 227 227.7 221.2 209.1
351.2 351.5 351.3 349.6 347.1 344.2 343.5 342.5 340.4 338.3 334.2 333.5 332.6 331.4 330.8 329.7 328.6 327.5 329 330.5 331.6 334 334.9 335.6 336.8 337.3 337.3 338.1 338.3 337.4 336.4 335.9 335.4 333.9 333.1 332.6 328.7 325.5 323.4 317.4 323.2 328.5 334 342.4 347.7 351.5 355.8 359.8 363.8 367.6 371.1 374.6 377.5 379.3 380.7 380.7 379.9 378.4 375.9 372.8 369.3 365.7 361.9 357.3 352.8 349.1 344.3 342.9 341.5 340 338.8 338.4 337.7 337 336.2 335.3 334.3 333.6 333.1 332 332.2 331.3 329.8 327.9 326.7 325.6 324.6 323.6 322.5 321.4 320.1 319.6 318.7 317.4 316 314.3 311.4 306.2 303.3 299.2 297.2 292.3 290.2 282.8 280.5 282.3 288.8 298.6 302.9 305.8 308.2 309.8 312.2 314.1 315.5 317.6 319.4 320.6 321.6 322.2 321.6 319.8 317.3 314.1 307.5 305.1 301.7 300 300 298.5 296 293.4 291 289.6 287.7 286.7 283.8 282.3 281.1 279.6 277.2 275.4 273.5 272.8 271.3 273.6 274.8 274.2 272.9 272.3 271 269.6 267.2 264.7 262.3 260.1 257.9 254.9 252.1 246.8 239.9 238 238.2 238.3 238 237.8 237.2 236.9 236.8 236.4 235.5 234.2 233.1 232.6 237.3 239.1 240.9 240.4 239.4 238.7 238.4 238.4 229.6 228.6 223.4 219.1 221.9 222.7 221.4 220.2 219.1 218.3 215 218.5 219 219.5 220.2 220.8 210.6 209.1
356.2 356 354.4 351.7 349.7 348.1 345.4 343.8 341.4 337.4 337.2 335.7 334.5 333.1 332.2 330.1 328.6 328.1 329.3 333.2 334.4 335.4 337.2 338.7 338.6 340.4 339.7 340.5 339.8 339.8 338.9 336.9 336.2 335.8 334.5 333.3 329.2 325.3 320.9 319.1 326.3 330.1 336 344.9 350.1 354.2 358.4 363 367.2 370.9 374.5 378 381.2 383.5 385 384.5 383.3 380.7 377.7 374.6 371.1 367.3 363 358.9 355.3 350.8 347.9 347.1 345.7 343.9 342.1 341.8 340.5 338.7 337.3 335.9 334.9 334.4 334 333.1 331.3 330.3 329.9 328.1 326.8 325.7 325 324 322.8 321.7 320.2 319.2 318.4 317.3 315.9 313.9 309.4 305.6 303.1 300.1 297.5 293.8 286.4 282.8 282.2 288.9 298.7 302.2 305.5 308.6 310.9 312.9 314.9 316.7 318.8 320 321.1 322.2 322.7 322.7 321.6 319.7 316.6 311.8 307.2 304.2 304.1 303.1 303.2 302.2 300.4 295.8 293.8 292.5 291.1 288.8 285.9 283.5 281 279.4 278.3 278.3 276.9 275.3 275.2 276.3 276.4 275.6 274.1 273 271.8 270.7 268.4 265.8 264 262.3 260.4 258.1 254.3 250.9 246.9 243.8 239.5 237.6 236.6 236.8 236.4 235.4 232.5 234.5 233.4 233.9 234.8 234.7 234.2 232.7 232.1 229.2 227.9 231.8 230.8 229.2 226.8 227.7 232.1 231.2 230.8 223.6 229.7 223.6 219.6 217.8 216 215.1 217.5 217.1 216.1 211.5 211 209.9
359.2 358.9 357.5 355.9 352.6 350.4 346.6 344.2 343.5 340.9 339.5 338.8 336 335.5 333.7 331 330.5 331.2 331 334.6 336.1 338.2 339.3 341 342.1 342.1 341.8 341.9 341.9 341.4 340.5 338.7 337.8 336.2 335.3 332.6 328.8 325.5 319.8 323.9 328.2 331.9 338.8 346.6 351.5 355.8 360.6 365.4 370.3 374.2 377.7 381.3 384.3 386.9 387.6 386.5 384.5 381.3 378.5 374.2 372.3 368 364.1 360.3 356.5 354.4 352 350.3 348.7 347.7 346.4 344.8 343.4 341.4 339.5 337.4 335.7 335.1 334.2 333.1 331.8 330.1 328.9 328 326.9 325.5 324.2 321.9 320.6 318.2 318.6 316.1 315.8 315.9 311.9 310.9 306.1 302.8 299.6 296.9 296.5 288.4 283.9 281.9 293.5 299.3 302.3 306.3 309.6 311.1 312.6 314.3 316 318.8 320.7 321.4 322.3 323.7 324.1 322.8 320.9 318.5 314.8 311 307.5 305.8 306.4 305.8 305.9 305.4 302 298.1 296.4 295 293.7 291.4 288.3 285.5 283.2 281 280.3 280.8 280.4 279.2 278 277.9 278.2 276.7 276.1 275 274 272.2 269.6 267.7 265.5 263.4 261.8 258.5 256.6 254.2 250.7 249.8 247.2 242.9 240.6 247.2 246.7 244.7 245.3 245.6 245.3 242.8 237.7 237.4 236.8 235 234.1 232.6 230.9 229.2 228.1 230.7 232.7 232.8 233.4 233.4 233.2 231.1 229.7 228.3 225.2 218.4 215.7 214 214.3 214.9 213.2 211.9 211 209.9
362.9 361.8 360.3 358.8 354.8 352.6 350 347 346.2 344.9 342.2 342.2 339.5 337.2 334.4 333.3 333.7 333.4 331.4 336.4 338.2 340 341.4 342.8 343.7 344.3 344 344 343.3 342.9 341.8 340.8 339.7 336.9 334.6 332.4 329.2 326.3 321.3 326 330.7 333.9 340.1 347 353.1 358 363.1 367.7 372.7 377 380.6 384.4 387.8 389.4 389.3 387.9 385.1 382.4 379.6 376.4 372.5 368 364.7 362.1 358.8 356.2 355.2 354.4 353.2 351.1 349.5 347.3 346 343.9 341.4 339.4 337.5 335.5 333.5 331.9 330.7 329.4 327.7 327.5 326.8 326.3 325 324.2 323 321.4 320 318.1 315.9 312.7 312.3 310.2 308.2 304.7 299.4 296.6 288.5 283.9 283.6 293.5 294.9 301.9 305.6 309.4 312.3 313.5 314.6 316.3 318 320.1 321.9 323.1 324.3 324.8 324.6 322.7 320.1 317.2 313.6 310.1 307.8 307.3 308.4 308.2 308.2 306.8 303.9 301.8 300.3 298.4 296.8 294.5 291.4 287.6 284.9 281.6 283.2 283.4 283.1 282.2 281.8 281.2 280.2 279.3 278.7 277.5 275.8 273.4 270.4 268.2 265.2 263.3 261.5 259.2 257.7 256.2 254.7 252.3 249.5 246.2 245.4 250.2 251.3 253.3 255.7 255.5 250.9 244.2 241.5 244.3 244.7 242.6 237.4 236.3 239.4 237.7 238.5 238.9 237.9 238.6 238.8 237.8 237.1 234 233.4 231.2 228.7 217.7 215.3 213.6 214 213.9 213.2 212.6 207.3 209.6
367.6 365.7 363.4 360.4 357.2 355.6 351.5 350.7 350 349.3 346.7 344.7 341.9 338 336.8 334.6 335.4 335 334.7 338.1 340 341.8 343.3 344.6 346.4 346.7 346.8 346.1 345.9 344.4 343.3 343.1 340.8 338.4 335.1 332.1 329.4 326 322.4 327.5 331.7 336.3 340.7 347.2 353.3 358.7 364.6 369.6 374.4 378.9 382.8 386.6 389.8 391.3 391 389.9 388.1 384.9 382 378.6 374.5 369.9 366.8 364.7 362.1 360.1 359.1 358.7 357.9 355.8 353.3 350.5 348.3 346.1 344.1 341.4 339.4 337.3 335.4 333.1 331.8 330.7 330.2 328.6 328 326.9 325.8 324.8 322.6 320.9 319.4 317.1 314.1 311.5 309.3 308.3 304.6 296.1 285.1 287.8 288.7 292.9 299.9 298.9 300.3 302.9 307 310.1 313.3 315.5 316.3 317.6 319.3 321.3 323.1 324.5 324.9 325.3 324.4 322.4 319.6 315.9 311.7 309.6 307.7 308.3 309.4 310.2 310.5 308.6 307 305.2 303.6 302.2 299.9 296.7 294 289.8 286.7 285.9 286.2 286.2 286 285.5 285.1 284.1 283 281.9 280.8 279.3 277.1 274.7 271.3 267.6 265 263.5 261.4 260.4 260.4 258.8 255.8 252 249.6 244.1 249.3 252.7 255.6 258.3 260.5 256.9 251.1 244.7 248.3 252.1 252.7 250.6 244.6 245 246.2 244 240.6 239.5 238.9 239.2 238.4 237.2 235.3 235.5 234.9 234.7 229.9 221.6 215.9 211.9 213.2 212.8 212.4 212.8 210.8 221.9
370.8 369.7 366.6 363.4 361.1 358 355.5 355.2 354.8 352.7 349.9 347.3 343.8 341.4 339 336.2 337.5 336.9 337 339.7 341.6 343 345.5 346.9 348.2 348.3 348.5 349.8 349.5 346.7 344.4 342.6 340.1 337.2 334.6 331.8 326 326.4 326.1 325.1 332 336.5 340.6 346.6 353.5 359.2 364.6 371.2 376.6 380.7 383.9 387.5 390.7 392.1 392.6 391.9 390.3 388 384.8 380.9 378.3 374.2 371.1 368.2 365.4 364.3 363.1 361 360.4 358.6 356.4 353 350.1 348.5 345.9 343.5 341.2 338.9 336.6 334.7 333.4 332.3 331.5 328.8 328.5 327.3 326 324.4 322.3 320.5 318.5 315.3 312.7 310.1 307.4 305 296.3 286.2 301.7 301.3 297.4 302 302.9 302.8 302.9 306.7 309.2 311.9 314.8 316.8 318.1 319.2 320.5 322 323.9 325.6 325.9 325.7 324.5 322 318.5 314.6 310.9 308.8 308 308.9 310.8 312.2 312.6 310.9 309.7 308.7 307.8 306.4 304 300 297.2 293.2 290.2 289.1 289.5 289.4 288.9 288.7 287.5 286.5 285.5 284.5 282.8 280.6 278.3 276 272.4 269.5 267.5 264.3 261.6 261.4 261.3 258.7 255 252.7 250.1 244.8 247.6 254.1 259.7 262.5 260.2 253.6 246.8 248.9 255.6 259 259.3 256.7 253.5 249.1 249 247 243.6 240.8 240.3 238.8 237 235.6 234.6 234.8 233.4 233 229.7 222.3 211.6 214.8 214.4 213.8 213.6 214.6 230.8 233.6
374.6 371.6 370 367.4 367.7 360.7 360.5 359.7 358.2 355.7 353.2 349.5 347.3 344.8 341.8 338.7 339.9 338.7 339.1 341.6 343.1 344.7 347.1 349 349.7 350.5 351.2 351.9 351.1 349.4 346.6 342.6 339.8 336.8 334.2 329.4 330 329 329.8 327.4 328.2 335.6 340.5 346.8 353 359 365.6 372 377.3 381 384.6 388.1 390.8 392.5 393.2 393.2 392.1 389.6 387.8 385.3 382.5 378.3 376.3 373.1 370.9 369.4 366.9 364.4 361.7 359.8 358.6 355.9 353 350.2 347.5 344.8 341.5 339.1 337.2 335.9 334.8 333.6 331.8 330.9 329.1 328 325.5 323.7 322 319.7 316.2 314 310.3 306.9 303.5 295.2 289.4 299.4 305.2 305.8 301.7 305.7 305.7 305.3 301.7 309 311.2 313.4 315.6 317.4 319.1 320.2 321 321.8 324 326.1 326.6 325.5 323.9 321.3 317.7 313.6 311.5 309.7 310 310.6 312.4 314.2 314.8 314.1 312.9 312 311.8 310.4 308.6 303.9 300.9 296.6 294 292.3 291.6 291.7 291.1 290.3 289.5 288.4 287.4 286.3 284.3 281.6 279.7 277.6 275.4 273.1 270.3 266.4 263.3 263.1 262.1 259.7 257.1 253.9 251.8 246 244 249.7 260.6 258.7 253.9 248.1 254.2 259.6 262.6 264.1 263.8 260.8 254.8 251.9 250.6 250 249.6 246.4 242.6 240.2 237.9 236 235.3 234.3 233.3 232.8 228.2 218.1 211.9 215.5 219.6 222.7 228.9 220.3 233.2 235.7
379.2 377.1 373.2 372.7 371.7 368.5 365.2 364.3 362.3 359.9 358 354.9 351.2 347.6 344.9 341.8 342 340.7 341.3 343.6 345.3 346.7 348.8 351.1 352.3 353.2 353.1 353.2 351.8 350 347.1 343.3 340.2 337.4 331.2 331.8 332.1 332.3 333.1 332.6 330.1 332.9 339.6 346.4 352.7 359.1 366.6 371.7 376.9 380.8 384.4 387.9 390.5 392.2 393.5 393.7 393.3 392.4 391.2 388.7 386.1 383.8 381.1 378.4 375.1 372.8 370.4 367.3 364 362.6 360 357.4 354.5 351.8 348.7 345.4 341.9 339.4 338.2 337 335.2 333.6 332.4 331.3 330.4 328.2 325.9 323.7 320.4 315.9 311.7 309.5 304.9 296.1 291.5 291.1 304.6 307.8 308.5 308.5 306.7 308.4 308.4 308.3 307.7 307.2 312 314.2 316.1 317.6 319.5 320.7 321.4 322 323.8 326 326.2 324.8 323.1 320.6 317.2 313.7 312.4 311.2 311.7 312.4 314.2 316 317.2 316.6 316.2 315.4 315.4 314 311.1 308 304.2 300.2 296.7 294.8 293.9 293.7 292.7 291.8 291.1 290.3 289 287.7 285.2 282.4 280.2 278.5 275.6 273.5 271 267.5 264.5 264 263.1 259.8 256.2 254 255.5 245.6 245.5 246.4 248.5 250.1 250.3 259.4 265.3 266.4 264.4 265.3 263.5 262.6 262.6 261.1 257.4 254 251.6 247.1 244.7 239.9 238.1 236.7 235.6 234.7 232.6 228.8 220.8 214.9 215.9 216.4 230.1 229.8 226.6 223.3 233.8 236.5
386.3 382.4 378.9 377 374.3 373.9 371.4 369.8 368.2 363.6 361.7 356.8 354.1 350.5 347.5 345.5 344.1 342.1 343.4 344.9 347.8 349.4 351.2 352.5 353.6 354.4 355.3 353.9 352.7 350.2 347.5 344 340.3 336.4 335.5 336.1 335.7 335.9 335.8 335.7 334.5 331 337.5 344.2 351.6 359.2 365.6 370.9 375.5 380.4 384.1 387.3 389.6 391.5 392.9 394.1 394.6 394.9 394.6 392.5 390 388.3 385.5 382.3 379.2 376.9 373.6 369.9 367 363.9 360.6 357.8 355 352 349.6 346.1 342.3 340.4 338.9 337.3 335.8 335 333.6 332.5 331.4 329.2 326.3 323.4 319.8 316.8 310.5 306.3 297.2 295.5 307.2 308.6 310.1 311 311.5 311.3 310.7 311.1 311.1 311 311.3 310.6 310.8 314.6 316.9 317.8 318.7 320.1 321.4 322.4 323.5 324.8 325 323.9 322.3 319.5 316.5 314.7 313.3 312.7 313.2 314.3 316.1 317.9 319.3 320.2 320 319.6 318.9 316.9 313.9 310.7 306.7 302.8 299.5 297.3 295.8 294.9 293.7 293.3 292.5 291.1 289.6 287 285.5 283.4 280.9 278.9 276.2 274 271.7 268.1 265 263.1 262.5 259.1 258.2 254.7 247.8 245.6 255.8 257.8 258 258.1 261.6 269.5 271.1 272.6 272.4 273.3 272.8 270.1 267.6 263.6 259.9 255.4 251 247.3 244.5 240.5 237.7 236.9 235.2 234 231.9 228 215.1 216.7 216.5 217.6 230.9 229.8 225 227.2 233.7 235.2
391.3 387.4 382.5 378.6 377.8 378.1 377.5 373.4 372.1 369.1 365.9 363 358.4 352.9 350.8 347.8 346 342.5 345 346.5 350 351.8 353.6 354.7 356.5 356.8 356.7 356.6 353.6 350.4 347.7 345 340.8 336.6 339.9 339.3 338.8 338.3 338 337.9 337.4 333.8 332.1 341.1 350.1 356.9 364 369.4 374.8 379.7 383.5 386.5 388.6 390.5 392.3 394.2 395.9 396.8 396.7 396.1 394.8 392 388.4 385 382.7 379.6 376.4 372.4 369.2 365.3 362.1 358 355.7 352.6 348.1 345.8 342.5 340.3 339.2 337.8 336.2 335.4 334.3 332.9 331.7 328.9 325.3 323.2 320.8 318 314.5 309.6 300.2 294 304.2 309.7 312.8 313.4 313.4 312.2 311.9 312.7 313.4 313.5 313.6 314.1 313.7 314.6 317.2 319.1 319.5 318.7 320.2 321.8 322.9 323.4 323.4 322.9 321 319 316.5 315.1 314.1 314.2 314.9 316 317.9 319.8 321.6 322.9 324.1 323.6 322.3 320.2 317.2 313.6 309.4 305.4 302 299.4 297.9 296.6 295.2 293.8 293.1 291.8 290 287.2 286.1 284.5 282 279.7 277.3 274.7 271.6 268.9 265.3 262 260.7 259.6 256.8 247.7 247.7 252.9 261.5 266.3 269.6 271.8 271.7 272.7 274.5 278.5 279.6 279.1 276.5 273.7 269.3 265 260.9 255.7 250.3 247 245.1 240.4 237.6 235.7 234.7 233.4 229.8 223.7 218 217.4 217.4 216.6 231.4 230.2 229.7 231.1 232.9 233.3
398.8 392.3 386.3 381.3 382.2 381.9 380.2 379.5 376.1 373 365.4 356 362.2 356 352.6 350.7 348.6 342.5 347.4 350.2 352.3 354.5 356.4 357.9 359 358.2 358.9 357.4 355.1 350.9 348.1 345.4 340 342.3 342.8 342.4 341.7 341 340.6 340.4 338 339.9 339.3 334.7 345.9 355.4 361.8 367.8 373.5 377.9 381.7 384.8 386.9 388.2 391.8 394.1 395.9 397.7 398.6 398.6 397.3 394.2 390.9 387.5 384.5 381.3 377.6 374.2 370.1 366.1 362.3 358.6 355.9 352.6 349 345.2 342.4 340.8 339.5 337 337 335.6 334.2 333.4 332 329.9 326.9 324.8 322.1 318.7 316 312.5 304.5 294.6 302.3 310.9 314.7 315.2 313.8 313.4 313.8 314.6 315.3 315.5 315.2 316 316.2 316.5 317.8 318.7 319.2 320.1 321 321 322.1 322.8 322.4 321.3 319.9 318.2 316.8 315.5 315 315.6 316.2 317.3 319.8 321.7 323.6 325.8 327.5 326.4 325.2 323.6 320.7 316.8 313 308.4 304.4 301 299.1 297.2 296.3 295 293.6 291.6 288.9 288 286.7 286 283.9 282.8 278.6 273.9 271.7 268.8 265.9 261.7 260.5 253.2 248.5 248.4 258.5 260.1 265 270.9 275.7 278.1 278.1 278.5 280.6 283.4 283.6 282.3 278.9 275.6 271.3 266.4 262.1 257 251.9 246.7 242.8 239 237.5 235.5 234.9 233.1 224.2 215.4 217.9 218.5 218.4 227.2 231 230.7 229.1 231.5 232.7 233.6
403.1 396.2 389.9 385.3 386.9 386.3 385.1 384.2 381.8 377.8 373.2 364.2 362.9 357.8 354.4 353.2 350.1 345.5 349.4 352.5 354.1 356.2 357.6 359.7 360.5 360.9 360.3 358.8 355.4 352.1 349 346.4 346.2 345.5 345.7 345.3 344.2 343.7 343.4 343.3 343.4 343.3 343.9 339.3 340.7 352.9 359.7 366 371.1 374.9 379.8 382.5 384.4 388 390.7 393.6 396.3 398.1 399.3 399.7 398.3 395.8 392.8 388.5 385 382.4 378.9 374.8 370.1 365.5 361.9 358.4 355.9 352.2 348.2 344.8 342.9 341.3 339 338.6 337.2 335.8 334.7 333.5 332.8 330.1 328 324.8 322 319.6 317.5 315.6 307.6 296.7 298.3 313 316.7 316.5 315.5 316.1 316.9 317.4 317.1 316.9 317.1 317.5 317.3 318 318.5 318.9 319.8 320.6 321.4 321.4 321.9 321.7 321.6 320.8 319.8 318.6 317.2 316.1 315.7 316.3 317.3 318.3 320.2 322.5 325.2 328.2 328.9 328.9 327.7 325.9 323.7 320.5 315.4 309.7 305.1 301.6 299.3 297.6 296.5 294.9 292.9 290.6 288 287.5 286.9 287 285.4 282.4 278.6 273.4 270.8 268 264.7 258.4 250.6 248.2 253.7 259.1 260.7 264.1 270 275.2 278.3 281 282 283 284.9 286.6 286.8 284.8 281.5 278.1 273.2 267.6 262.1 256.9 251.8 245.2 240.2 237.4 236.5 235.8 236.5 229.9 215.6 219.4 219.2 219 219.7 231.2 231.5 231.6 229.4 232.5 234.3 234.1
407.4 401.3 396.4 394.2 395.7 394.1 391.7 390.5 386.5 382.1 376.3 370.5 364.4 359.6 357 354 351.5 346 351.2 354 356.5 358.2 359.3 360.9 362.7 362.5 361.6 359.5 357 354 351.5 342.6 348 348.9 348.4 348.1 348 347.1 346.3 346.3 345.6 345.6 345.1 343.6 338.4 350.6 356.7 363.3 367.7 372.2 377.1 380.1 382.1 386.2 389.8 393.1 396.1 398.3 399.5 399.7 398.7 396.3 393.6 389.8 386.3 382.7 379.4 375.3 369.5 365.2 361 357.5 355.2 351.2 348 345.1 342.6 341 339.8 339 337.5 336 334.7 333.2 331.2 330.6 329 326.4 322.9 320.9 318.7 316.9 303.8 296.5 308 315.8 318 317.4 317.2 317.9 319.7 319.9 319.2 318.7 318.9 319.3 319.4 319.1 319.7 319.8 320.3 321.2 321.8 321.7 321.2 321.3 321 320.4 319.5 318.3 317.5 316.7 316.5 316.5 317.3 317.9 320.4 322.9 326.6 329.1 330 330.6 330.4 328.1 324.8 320.7 315.2 309.7 305.1 302 299.6 297.5 295.6 294.3 291.5 288.8 287.2 286.4 285.1 285.6 283.1 278.1 273.3 272 268.3 263.3 254 250.6 250.4 260 262.7 262.8 265.7 269.9 273.6 276.5 279.7 282.8 285.2 287.1 288.9 291.4 290.4 288.5 285 280.4 276.1 269.5 262.5 257 250.5 243.6 239.6 237.2 236.1 235.8 233.7 222.7 217.5 220.3 220.9 219.9 226.7 232 232.1 232.3 229.9 233 234.6 234.2
412.7 408.3 401.9 402.9 401.9 401 397.7 395.9 391.9 387.3 380.8 373.1 367.7 362.6 359.2 354.8 351.7 351.6 352.5 355.8 358.5 359.5 361.2 362.9 364.9 363.4 361.3 360.8 357.9 355.6 352.5 351.3 351.1 351.3 351.4 350.7 350.6 349.1 349.1 348.9 347.5 347.5 347.1 346.1 339.1 347.1 354.5 360.8 366 369.9 373.3 377.4 380.6 384.8 388.8 392.4 395.5 398 398.9 398.9 398 396.2 393.9 390.5 386.7 382.9 378.6 374 368.8 364.5 361.5 358 354 350.9 347.9 345.2 342.9 341.3 339.9 338.9 337.6 336 334.7 333.4 331.7 329.1 328.9 327 324.9 321.5 319.6 316.5 298.9 301.3 313.6 318.8 319 318.5 318.5 320.2 321 322.1 321.3 320.5 320.6 320.5 320.6 320.5 320.2 320.7 321.2 321.7 322.2 321.9 321.1 320.9 320.3 319.8 319.2 318.4 317.5 316.7 316.2 315.6 316.2 317.2 319.5 322.2 326.5 329.4 330.9 332 331.7 329 325.6 321.1 315.4 310 305 302.1 299.8 296.9 294.5 292.3 289.9 287.1 285.8 283.6 281.4 279.2 275.6 272.7 267.7 264.4 258.6 252.3 251.4 256.5 260.8 261.6 263.7 267.4 270 273.3 276.4 279.5 282.5 285.4 288.1 290.6 292.8 293.6 293.1 291.8 287.7 282.3 276.9 270.5 264.1 257.2 249.7 243.2 239.3 236.8 235.9 235.2 229.7 222.3 216.6 221.4 221.3 233.8 232.9 234.3 232.7 232.5 232.2 233.3 234 235.3
417.5 412.5 408.7 407.9 407.6 405.9 404.4 401.5 396.8 390.6 383.3 375.4 370.7 365.2 360.2 356.1 353.1 354.7 354.7 357.3 360 361.2 363.6 365.1 365 362.8 363.1 361.2 358.9 356.3 347.5 354.3 353.7 354.9 354.1 353.7 353.3 352.2 351.6 351 348.6 349.1 348.6 346.1 342 345.3 351.8 357 362.8 366.3 370.6 374.9 377.8 383.4 387.6 391.5 394.6 396.8 397.7 397.9 397.1 396.1 393.6 389.9 385.8 381.7 377.1 372.6 368.1 363.5 359.9 356.9 353.5 350.4 347.4 343.9 342.4 340.7 339.6 338.6 337.4 335.8 334.4 333.1 331.5 330 329.2 327.5 325.1 323.6 322.1 313.5 298.4 308.6 318.5 320.4 320.3 320.2 322.3 322.2 322.5 322.8 322.5 322.3 322.2 321.7 321.5 321.4 321.3 321.5 321.8 321.8 322.2 321.6 320.9 320.3 319.8 319 318.5 317.8 317 316.3 315.6 314.9 314.5 315.7 317.1 320.5 323.6 327.5 330.3 331.6 331.6 329.3 326.4 322 315.4 310.1 304.8 301.6 298.6 295.7 292.5 289.5 287 284.5 282.1 279.1 275.9 270 266.5 260.6 254.3 253.6 252.8 254.5 261.3 266.2 269 269.1 267.6 270 272.8 275.6 278.4 281.6 285 288.1 291 293.4 294.8 295 294.4 292 287.9 283.4 277.8 270 263.8 256.4 247.6 243.3 239.2 236.8 235.2 233.3 222.5 218.7 222.1 222.6 233.5 233.8 234.1 235 233.6 233.4 232.6 233.4 233.3 234.7
419.6 415 415.5 412.4 412.2 414 409.3 405.5 401.5 394.7 386.5 379 372.9 367.4 362.5 359 356.9 357.5 358.6 359 362.2 364.9 365.7 365.8 365.4 365 363.7 362.3 360.3 356.6 355.7 356.4 355.6 356.8 357.1 357 356.1 355 353.6 353 351.2 350.6 350.3 349.7 348.1 343.1 348.2 354 358.3 363.4 367.6 371 375.8 381.5 386.1 389.9 392.9 395.1 395.7 396 395.7 394.2 392.2 388.9 384.5 380.2 375.5 370.9 366.1 362.1 358.4 355.5 351.7 347.9 344.8 343 341.5 340.3 339.5 338.4 336.6 335.4 334.1 332.8 331.1 329.5 328.6 327.5 325.5 323.5 319.4 300.2 299.1 315.1 320.8 322 322.5 324 324.7 322.9 323.8 324 323.9 323.7 323.6 323.7 322.6 322.4 322.2 322.1 322.1 322.1 322.5 320.9 321.4 320.6 319.3 318.5 318 317.4 316.6 315.9 315.4 314.5 313.5 313.2 313.7 317.3 320.3 323.9 326.4 328.5 330 329.6 326.3 320.7 313.3 307.8 302.6 298.6 295 291.7 288.7 285.5 282.5 279.2 275.5 272.6 264.5 257.4 257 255.3 257.3 260.5 263.7 269.8 271.5 271.9 272.8 274 272.5 270.4 273.7 277.2 280.6 283.5 287.1 291 292.3 295.1 295.8 296.3 294.9 291.9 287.5 282 276.3 268.2 261.8 253.3 246.6 243.1 239.1 237 234.9 226.9 221.1 223 223 235 235.6 235.7 236.8 236.5 234.8 233.2 232.3 231.6 232 233.3
422.7 420.5 419.1 419.5 419.6 420.3 412.7 408.8 405.3 398.6 391.4 383.2 377 371.4 365.4 360.6 361.2 360.9 361 361.5 364.2 366.8 367.4 367.1 367.2 365.9 365 362.9 360.6 357.2 358.9 358.1 358.9 359.2 359.7 360.4 359.6 358.1 356.5 355.2 353.6 352.1 352 351.7 348.4 344.6 346.8 354.1 357.7 360.9 365.6 370.2 374.2 379 384.4 388.2 391.2 392.8 393.3 393.5 393.4 391.8 390.1 386.8 382.5 378.1 374 369.4 364.4 360.6 357.1 353.5 349.2 346.5 344.2 342.1 341.1 338.5 338.7 338.1 336.1 334.3 333.6 331.9 329.3 328.7 326.7 326.7 325.2 322.4 312.6 300 302.2 321 322.5 323.8 325.3 325.9 325.5 324.3 323.7 324.6 324.5 324.5 324.3 323.6 323.8 323.5 323.1 323.4 323.1 323.3 321.5 321.2 321.5 320.5 319.3 318.6 318 317.9 316.9 315.5 314 314.2 313.3 311.4 311.2 313.4 316.3 319.1 321.1 323.3 325.7 326.2 324.5 319.3 310.5 303.9 298.6 294.1 290.3 287.1 284.2 280.4 268.9 262.9 260.4 258.7 258.1 265.1 270.8 265.6 264.6 273.9 272.2 275.3 276.3 277.8 277.1 277.7 276.7 272.4 274 278.1 281.5 284.6 289.8 292.7 296 296.1 296.3 296.6 295.2 291 286.6 281.3 274.7 267.1 258.8 250.5 247.3 242.6 239 236.6 233 222.3 222.7 224.7 234 237.4 237.8 237.9 238 237.1 235.7 233.4 232.1 230.7 231.9 232.7
428.1 427 425.3 425.1 424.2 421.1 417.1 412.9 409 402.9 395.3 387.7 381.8 375.5 370.3 367.6 366.5 364.7 364.4 366.3 366.4 368.2 368.9 368.3 369.1 367.5 365.5 363.1 360 360.5 361 361 362.1 361.8 362.2 362.9 361.9 360.5 358.5 356.7 355.3 354 354.3 353.4 348.7 351.1 346 349.4 355.6 359.4 364 369.2 373 377.1 382.4 386.4 389.4 390.4 390.7 390.9 390.9 389.5 387.9 384.6 380.4 375.9 371.4 366.9 362.8 359.1 354.6 350.6 348 345.8 344 342.9 341.5 340.1 337.4 335.9 335 333 332.7 331.7 330 329.3 327.5 326.3 325.2 324.4 325.5 307.8 301.8 323.4 325.3 326.5 326.3 326.1 325.9 325.1 325 325.2 324.8 324.7 324.5 324.1 323.4 322.6 323.1 323.6 322.2 322.4 322 321.1 320.9 319.6 318.1 318.1 318.9 318.2 317.3 316.8 314.7 314.6 313.7 311.3 308.4 307.9 309.9 313.2 315.6 317.7 320.4 320.4 318 313.6 306.1 299.6 293.6 289.6 285.5 283.1 278.4 262.2 261.7 269.6 273.1 271.8 273.3 273.3 271.2 267.8 273.5 273.8 276.4 278.5 279.5 280 280.5 281.7 279.8 277.2 275.7 278.8 282.4 287.3 291.8 294.4 296.4 296.9 297.2 296.9 294.9 290.1 285.6 279.8 273.3 265 256.7 252.1 247.4 242.3 238.7 235.5 228.1 221.3 225.3 230.2 238 239.3 239.2 239.9 238.4 234.9 232.8 232.7 231 230.7 232.3 232.5
432.9 431.8 431.8 430.6 427.7 424.9 422.2 418.1 412.2 405.6 398 391.8 387.6 380.4 378.4 375.9 372.2 368.7 370.1 368.2 369.4 367.9 368.5 370.9 370.9 369.9 367.3 362.3 364.5 363.5 364.3 364.6 364.8 365.1 365.6 365.5 364.4 362.9 360.5 359 356.3 357.1 356.3 355.5 351.1 355.1 354.3 348.7 351.3 356.6 362 366.5 370.8 376.2 380.7 384.6 387.3 388.2 389.1 388.9 388.2 386.7 384.9 382.1 378.9 374.8 370.3 366 362.2 357.9 352.4 349.6 347.7 346.1 344.3 343 341.6 340.3 338.5 337 335.2 333 329 329 327.1 327.9 327.8 327 324.7 320.1 307.4 305.9 303.2 324 326.5 327.1 326.6 326.3 326.3 326.2 326.1 325.2 324.5 324.4 324.2 323.9 322.7 323.1 323 323.7 323 322.6 321.7 320.7 320.4 319.1 317.5 316.8 318.6 317.8 316.6 315.1 313.7 313 312.2 310.1 308.5 305.9 306.5 307.7 308.5 310.6 313 312.7 310.2 306.6 301.5 294.3 289.8 287.3 283.5 280.8 272.2 263.9 278.2 278.9 277.3 275.8 278.2 276.9 272.2 272.4 275.5 276.2 279.2 281.2 283.2 282.8 283.1 282.8 281.7 280.2 278.1 278.9 282.4 287.3 291.8 294.5 296.6 297 297.3 297.4 295 289.6 284 278.4 272 264.1 256.3 250.8 247.2 241.5 237.8 233.7 221.2 225.3 226.6 238.3 239.5 240.8 241.2 239.9 236.8 233.7 232.7 232.2 231.9 233.6 232.5 232.7
437.3 437.1 437.2 435.8 434.1 430.7 427.3 423.4 417.1 410.3 403.8 398 393.7 387.9 385.3 383.1 379.1 375.8 373.5 371.5 370.6 370.7 371.1 371.5 371.4 370.2 368.6 364.3 367.3 367.7 367.8 367.3 367.1 368.7 369.4 368 366.9 365.1 362.7 361.6 357.8 360.5 360.7 359.3 352.9 356.8 354 350.3 355.3 354.7 360.8 365.5 370.3 375.1 378.9 382.7 385.4 386.7 388 387.9 386.3 384.8 382.2 379.4 376.4 373.1 368.5 364.4 360.6 356.3 353 350 347.8 346.3 344.8 343.2 341.8 340.4 338.2 336.7 334.5 331.6 327.4 325.1 325.1 325.1 325.1 325.1 325.1 318.5 309.9 312.1 321.8 326.6 327.6 327.7 327.7 327.4 327.1 327 326.7 325.7 324.7 324.1 323.2 323.3 322.4 322.9 323.1 323 323 322.5 319.5 316.8 317.6 316.2 317.2 315 318.5 317.4 315.2 314.5 313.4 311.5 310.1 309 307.1 304.1 300 301.6 301.5 301.9 304.1 304.4 301.8 298.7 295.5 290.1 287.2 284.9 282.6 280.2 271 266.2 282.3 282 278.6 277.3 276.7 275.4 274.8 277.4 279.5 277.8 282.6 284.6 284.8 285.4 286.6 286.2 284.4 282.1 280 279.8 283.6 288.4 291.8 294.3 296.5 297 297.4 295.8 292.5 287.4 282.1 275.8 268.9 262.4 255.2 249 245.3 241.7 235.3 230.1 225.5 223.8 227.4 241.6 242.7 243.1 241.6 238.8 237.2 238.4 235.6 230.9 231.6 232.9 232.6 232.8
442.8 441.5 441.8 439.9 437.1 433.6 429.7 423 418.1 414.7 410.2 405.7 401 396.8 392.4 389.6 387 383.3 379.2 375.6 374.7 372.8 373.2 373.1 372.1 371.5 370.1 370.5 371.6 371 371.3 370.1 370.4 370.4 371.2 370.7 369.1 367.1 364.9 363.3 363.8 365.2 365 364.4 361.1 357 355.9 356.8 359.7 359 358.9 364.7 369.1 373.4 376.3 381.3 384.6 386 386.7 387 385.7 383.8 381.6 378.6 375.5 371.9 368.1 364.2 360.1 357.2 354.3 351.4 348.3 346.3 345.1 342.9 341.5 339.6 337 335.8 332.9 329.8 324.7 325.1 325.1 325.1 325.1 325.1 325.1 325.1 318 325.2 328.6 328 328.3 329.6 329.2 328.7 328.3 328.2 327.6 326.8 325.5 324.8 322.8 322.1 320.5 321.1 321.1 320.2 318.1 317.2 319.9 320.2 314 312.8 315.8 313.3 319.3 318.5 315 313.3 312 310.6 309.6 308.3 305.8 300.5 300.4 284.4 287.2 284.6 285.4 290.7 291.8 284.3 278.1 273.9 282.1 282 279.8 273.4 265.4 273.4 285 287.4 287 286.6 283.1 280.7 282.4 282.5 280.9 281.5 284.1 286.4 287.3 289 289.3 289 287.4 283.8 281.3 280.4 283.7 288.7 291.5 293.9 295.4 295.7 295.8 293.7 290.6 285.7 280.1 273 267 261.7 255.1 248.3 243.8 241.6 235.3 230 226.9 224.9 238.6 244.6 245.1 244.4 239.4 237.8 243.7 243.7 239.8 235.1 236.7 235.8 233.5 233
445.6 444.9 444.2 442.2 439.4 434.5 434.1 430 425.2 421.9 417.2 413.4 409.8 406 401.9 396.9 393 389.5 386.1 382.9 380 376.6 375.7 375.6 374.3 371.5 372.3 370.7 374.7 373 373.4 372.7 372 371.2 369.9 370.1 369.1 367.2 365.8 365.1 366.8 365.1 366.2 366.4 363.7 362 362.3 357.5 362.7 363 360.1 363.6 368.5 372.5 376.5 381 383 385.7 386.3 386.1 384.9 382.9 380.7 377.8 373.8 370.6 366.7 363.9 360.1 356.7 353.6 351.1 348.9 346.8 345.1 343.5 341.3 339.3 335.7 332.1 329.5 325 325.1 325.1 325.1 325.1 325.1 325.1 325.1 325.1 328.3 329.9 329.9 330.3 331.1 331.7 331.3 330.8 330 328.9 328.6 328.3 327.2 327.5 327.9 324.1 325.3 323.7 324 325.3 326.5 327 327.8 325.5 322.1 317.3 312 309 306.6 308.9 310.4 311.7 311.1 309.6 308.7 306.5 304.7 298.2 291.3 282.8 289.3 289.1 283.4 275.6 274.5 274.1 273.7 270.9 271.8 269.7 268.1 272.9 278 285.6 287.6 287.8 287.5 287.2 286.8 286.7 285.3 284.8 284.9 284.9 286.2 288.4 289.9 291.3 291.8 291.1 288.8 285.6 281.9 281 282.9 288 290.9 292.8 294.6 294.2 293.1 291 286.9 282.7 276.9 270.6 264.7 259.7 252.7 246.1 242.8 238.6 227 227.6 225.8 225.8 247 247.2 245.4 239 239.8 244.6 246.2 244.1 242 237.6 235.8 235.8 236 236.4
448.1 446.7 446.5 445.5 439.6 438 436.9 433.9 431.9 429 426 422.5 419.2 415.1 410.8 406.1 401.9 397.6 394.2 390.2 387.3 383.2 381.8 377.7 376.3 374.3 376.5 375.6 371.7 374 376.9 376.4 374.2 376.4 376 374.2 371.5 370 368 368.8 368.3 367.9 368.1 367.6 366.2 366.4 364.4 361.6 364 363.5 362.3 363.2 367.4 372.3 376.4 380.8 384.2 386 386.4 385.6 383.6 381.6 378.8 376.4 372.9 369.7 365.4 363.3 358.9 355.4 353 351 349.1 347.3 345 343.3 341 338.5 334.3 329.9 326.2 325.1 325.1 325.1 325.1 325.1 325.1 325.1 325.1 327.3 330.6 331.8 333.1 334.7 334.7 335 334.9 335.3 336 336.6 336.8 335.3 335.6 333.7 331.4 327 331.4 332 332.4 332.3 332.3 331.1 329.9 328.4 325 324 323.8 322.2 322.6 319.6 308.9 306.6 310.8 308.7 305.8 302.7 292.9 286.4 296.8 300.3 301.1 299.1 295.7 288 286.2 287.8 282.7 288.5 285.4 286.6 284.7 285.7 288 288.4 290 290 290.3 289.9 289.6 289 288.4 286.4 287.2 283.5 288.8 291.1 290.7 290.4 289.9 290.2 287.4 286.1 282 282.4 283.7 287.1 288.8 292.3 292.8 292.5 291.1 288 284 279.4 274.1 268.6 262.7 257.6 250.9 245.7 240.5 236.1 230.9 245.3 247.1 248 247.7 242.5 240.8 243.3 247.3 249.4 247.4 245.2 243.3 240.9 238.1 237.9 238 238.4
449.2 448.7 447.9 445.6 440.7 441.7 441 440.8 438.9 433.8 433 430.6 428.6 424.4 419.5 414.4 408.7 402.9 399 395 391.3 386.9 384.4 381.2 378.5 378 379.1 379.7 374.7 378.1 379.2 378.1 377.5 378.9 378.7 374.3 372.1 370.4 368.5 369.6 369.9 370.1 371.3 372.8 365.7 367.7 365 365.2 365.3 365.1 363.6 363.7 367.1 371.9 376.4 380.8 384.2 385.9 386 384.5 382.5 380.2 377.7 374.7 370.2 367.9 364.9 360.4 357.4 355.2 353.4 351.5 349.6 347.3 345.2 342.5 339.8 337.4 332.9 329.1 325.9 325.1 325.1 325.1 325.1 325.1 325.1 325.1 326 332.8 333.8 335.7 337.6 339 340.6 340.4 341.1 341 341 341 340.5 339.8 337.6 335.1 332.6 331.2 335 336.4 336.6 336.7 336.2 333.8 332.2 330.2 328 327.6 326.1 325.2 323.8 321 318.2 311.8 309 293.3 290.7 292 301.6 305.1 304.1 303.5 302.5 302 300.4 284.1 297.6 295.3 292.4 295.5 293.1 292.9 289.2 290.2 290.8 292.3 293.6 293.9 293.2 293.1 293 292.1 291.1 290.2 289.5 288.8 288.8 290.2 291.1 293.4 294.8 294.9 294.6 291.9 283 285.2 283.8 284.8 287 289.6 290.1 290 288.1 284.8 280.8 276.4 270.5 265.1 259.7 253.8 248.4 242.8 236.4 228.3 230.7 247.5 248.9 247.1 242.2 242 247 251.4 251.9 251.9 250.2 247.7 244.9 243.5 241 241.3 241 240.9
