ncols 200
nrows 82
xllcorner 380000
yllcorner 412900
cellsize 50
181.3 196.1 199.7 200.2 200.6 200.7 201.8 203.5 203.8 205.5 213.9 226.3 265.3 266.7 267.5 269.4 268.7 264.7 247.3 236.6 234.4 250 256.9 261.4 265.3 269.6 270.8 271.6 272.7 274.5 275.2 275.1 277.6 282.1 288.2 295 298 297.1 295.4 294 293.1 292.4 291.7 291 291.3 290.9 290.7 290 289.3 286.2 296.4 301.3 303.7 306 310.1 316.8 324.5 336.7 348.6 357.1 359.6 360.1 361.5 366.8 378.1 384.9 385.5 383.6 384.5 384 383.7 387.4 390.5 393.1 393.9 393.7 392.7 391.1 389.4 387.8 387 390 392.8 395.3 394.9 391.5 384.7 378.8 378.3 376.9 375.5 374.3 372.7 370.7 367.3 361.3 349.4 334.4 316.6 300.7 287.7 277.9 265.9 252.6 243.6 240.5 240.5 258.1 266.2 269.6 273.9 279.5 285.8 300.9 304.7 314.2 326.2 336.3 339.4 363.7 373.3 375 374.5 373.9 372.8 370.8 368.7 367.7 367.3 365.3 363.7 361.6 351.2 341.4 334.2 326.1 317.6 309.9 300.5 292.1 286.3 280.1 269.9 262.5 248.9 236.7 236.7 236.7 236.8 236.8 235.6 231.6 225.1 221.6 222.1 221 216.5 213.7 216.8 215.8 207.3 203 201.1 215 226.9 236.7 242.8 244.1 243.6 243.6 250.8 254.4 259.7 263.6 267.6 273.5 280.4 289.8 297.1 302.6 305.2 306.3 306.8 305.3 302.9 298.1 290.9 283.7 280 274 267.5 259.5 255.8 252.1 250.1 248.4 246.2 242.9 228.8 234.3
181 195.9 199.8 200.4 201.1 201.8 202.5 205.2 208.9 207.4 208.8 215 245.1 264 266.9 274 274.1 272.1 265.1 250.3 243.3 235.3 253.9 260.5 265.8 269 271.2 273.2 274.6 275.8 275.7 275.7 277.9 281.9 287.3 292.7 295.7 295.6 294.3 293.6 292.5 291.9 290.5 289.5 289.7 289.3 288.7 287.9 286.2 298.2 300.9 302.5 305 307.8 312.5 323.4 339.2 351.3 355.2 356.6 357.1 357.6 358.1 364.5 377 382.2 381.5 379.3 380.6 380.1 380.8 384.3 386.8 389.9 390.4 390.3 389.6 387.8 386 384.8 384.6 390.6 397.9 402.9 403 397.7 391.2 378 375.5 374.3 372.2 370.7 369.5 368.7 366.6 360.7 350 337.7 324.7 313.5 304.5 291.5 271.2 256.9 246.9 240.5 240.5 240.5 254 261.2 264.5 271.5 283.8 299.4 304.6 307.6 325.7 331 334.9 350.5 369.7 372.5 373.7 374.1 372.8 369 366.4 361.4 360.2 360.9 360.2 358.4 352.8 349.3 336.6 327.9 318.5 310.1 299.8 290.1 284.8 276.3 268.2 260.8 242.9 236.7 236.8 235.1 229.3 225.4 222.2 219.3 218.2 217.9 216.3 212.3 211.9 210.1 209 204.2 199.9 201.4 206.8 220.9 225.1 236 240.5 241.5 242.4 246 251 255.1 260.3 264.9 270 276.4 285.7 293 299.8 304.1 307.7 308.1 307.1 305.6 303.2 298 291.5 284.2 278.7 274.4 268 260.8 255.4 251.4 248.7 246.6 243.8 243 235 224.3
179 191.3 200.4 200.4 201 201.9 202.2 207.1 215.2 208.4 205.7 211.8 231.6 257.7 277.7 277.4 278.1 277.6 275 270.7 266.6 254.7 239.8 254.5 261.7 266.7 270.9 273.4 275.7 277.7 276.5 277 278.5 281.8 285.8 289.6 291.9 294.3 293.8 293.2 292.2 290.8 289.3 288.1 288.1 287.7 286.3 285.9 284 299 301.6 303.6 306.3 308.3 313.1 324 337.7 352.5 353.5 353.6 353.7 353.5 353.8 359.8 371.3 375.9 378.2 375.6 376.4 376.8 378.7 381.2 383.7 386 386.7 386.8 386.1 384.5 382.7 380.9 381.9 392.2 401.2 412.8 415.4 406.9 398.1 390.5 376.6 371.3 370 368 366.7 365.7 364.3 362.2 359.8 351.8 338.5 324.3 314.2 301.2 279.8 261.9 250.9 240.5 240.5 240.5 247 255.3 258.3 268.4 277.4 294.2 300.7 307 320.5 324.9 331.4 347.1 365.1 367.8 369.9 371.7 372.2 371.2 367.6 362.5 354.7 354.7 355.2 353.8 352.5 350.3 340.2 331.2 320.3 311 301.6 290.1 281.7 273.6 265.6 258.9 252.1 238.2 233.1 227.9 221.3 218.3 215.3 211.9 212.8 211.2 206.9 204.9 202.8 203 202.5 201.8 202.3 199.8 210.2 219.9 226.9 233 235.8 238.9 242.2 246.3 250.3 255.5 262.1 267 273.7 282 289.5 296.7 304.2 308.6 310.4 309.2 306.9 304.3 301.2 296.7 291.1 284.1 276.4 271.5 265 259.5 254 250 247.2 242.9 235.2 226.9 222.9 221.2
179.2 191.6 198.8 200.1 201 201.7 208.1 206.3 209.3 215.8 208 208.5 225.9 255.2 273 280.9 282 281.5 279.9 278.7 277.2 273.4 263.6 248.1 252 261.2 267.3 271.2 275.5 276.8 277.6 278.1 278.7 281.2 284.7 287.7 291 293 293.7 292.9 291.8 290.5 289.3 287.9 285.2 285.3 284.4 279.4 295.8 300.5 303.2 304.9 305.7 307.3 310.3 319.3 332.6 347.8 350.5 349.8 349.3 348.5 348.6 352.1 361.5 367.9 372.3 372.1 372.4 370.9 376.4 378.9 380.4 382.2 382.9 382.9 382.4 381.1 379.6 378 378.7 390.4 402.5 416 416.3 413.1 399.4 390.8 382.5 375.8 365.6 365.3 363.5 362.4 361.3 359.3 357.9 356.9 355.3 349 328.6 313.1 295 269.1 254.9 240.5 240.5 240.5 243.1 250.1 255.5 263 271.6 283.9 292.8 299.9 317.3 320.9 324.9 352.1 359.7 362.2 364.4 366.2 367 367.6 366.4 363.3 356.6 348.6 349.1 347.9 346.6 345.4 342.5 332.6 321.6 311 301.9 291.8 281 272.1 265.9 259.6 253.4 244.4 235.9 230.3 224.1 221.1 218.9 214.3 212.2 211.6 214.6 214.2 211.6 214.4 213.1 210.3 201.2 200.4 207.5 218.2 222.9 228.3 231.9 239.6 244 248.1 253 258.7 265.1 271.5 280 287.7 294.1 301.3 306.4 309.2 309.3 307.8 305.2 301.4 298.1 294.2 289 282.2 273.7 268 261.1 257.3 252.6 246.9 240.4 235.2 225.1 225 231.6 225.1
179.7 189.8 200.8 200.7 201.4 201.8 214.4 209.4 209 213.3 211.3 212.2 214.5 245.4 272.5 284.4 285 284.7 283.2 282 281.9 281.2 279 274 264.6 255.3 256.4 260 270.2 274.8 277.9 279 279.7 280.5 283.5 286.6 291 294.3 294 293 291.9 290.2 289.1 286.9 284.6 283.4 280 293.2 299.1 301.7 303.7 304.2 304.9 305.5 307.5 313.4 324.3 337.3 344.7 346.2 345.2 343.9 343.4 344.9 349.2 359 363 366.7 367 367 373.5 375.7 377.4 378.4 378.6 378.5 378.3 377.6 375.9 374.1 375.4 386.4 395.9 408.9 411.9 408.7 395.2 385.4 378.3 373.8 364.4 361 360.3 358.1 357.8 356.4 355.2 353.6 352.9 352.1 349.1 334.6 311.8 282.7 255.4 243.1 240.5 240.5 240.5 245.2 250.8 259.9 267.5 280 289.3 295 312 315.8 325.5 350.3 354.3 356.8 358.6 360.4 361.2 361.6 361 359.3 355.3 346.5 342.8 341.5 340.7 340.4 339.4 332.6 321.7 309.9 303.9 293.1 283.3 273.8 266.4 261.1 255 246.8 241.8 234.8 232 226.3 222.9 222.9 224.2 220.9 223.3 222.6 220.9 222.5 223.2 214.5 200 199.3 203.2 217.7 222.3 227 233.8 240.9 247.9 252.6 258 264 271.5 279.6 285.4 293.8 300.7 304.9 310.3 312.6 310.5 307.8 303.5 298 295.2 291.2 286.9 280.8 271 264.5 260 255.2 250.1 244.5 232 225.4 232.1 240.8 240.5 235.3
178.9 190.2 200.6 201.4 208.7 205.9 213.1 213.4 212.4 212.2 214.5 216.3 217 247.8 274.9 284.8 287.4 287.6 286.8 285.9 285.3 284.7 284.3 282.8 279.7 275.3 270.6 267.4 264.2 261.9 272.6 278.6 281.1 281.9 282.9 284.7 289.9 296 295 293.5 292 290.4 288.7 286.9 284.7 279.4 281.6 296.1 300.1 302.1 302.9 303.4 303.3 303.4 304.6 307.9 315.6 324 336.9 340.6 340.3 339.8 339.3 339.7 340.6 345.6 355.1 353.5 357.7 365.7 369.9 371.3 371.7 373.6 374.1 374.1 374 373.4 371.6 369.8 371.4 381.3 387 391.1 394.1 392.7 385.4 378.6 372.6 369.1 361.1 358.9 355.5 354.2 354.2 353.4 352.3 350.9 349.9 349.2 348.3 344.8 331.6 303.2 265.4 252.5 240.5 240.5 240.5 240.5 248.9 254.1 260.7 271.4 280.7 289.8 302.1 307.5 335.7 344.3 349 351.5 352.7 354.6 355.2 355.2 354.4 353 348.1 341.8 338.6 337.7 336.2 335.1 333 331.9 321.7 314.2 302.9 295 285.4 276.8 267.6 261.2 257.3 256.1 252.2 245.4 239.3 233 229.9 229.1 228.4 229.5 231.3 230.6 228.4 226.9 223.8 211.7 204.8 197.7 199.1 218.2 222.9 228.8 239.9 248.5 255.7 263 268.2 272.6 279.9 285.8 294.4 301 309.4 315.4 316.7 316.3 314.8 310.7 304.4 298.4 292.7 289.1 282.6 278 270.2 264.1 258.6 254.1 245.8 235.3 229 231.2 242.5 241.9 238.9 234.6
177.8 189.8 200.7 201 209.6 213.3 222.7 236.3 236.1 224.5 227.5 240 247.7 263.9 279.8 285.9 289 290.1 289.5 289.3 288.5 287.8 287.4 286.3 285.8 283.9 280.4 276.1 273.3 271.9 265 273.8 278.2 281.2 282.6 283.9 288.8 294.8 295.4 293.4 291.9 290.6 288.8 286.8 282.3 275.9 290 297.4 300.3 302 302.2 302.1 302 301.9 302.3 304.1 307.9 314.7 327.6 332.1 334.4 335.2 335.1 335.3 335.6 336.7 335.9 339.7 346.8 362.6 365.7 366.8 367.4 368.4 369.9 369.9 369.6 368.7 367.1 365.7 365.6 372.7 380.1 385.6 388.4 387.1 382 372.5 366.9 363.7 357.6 355.6 352.8 351.2 350 349.6 349.3 348.1 346.9 345.9 345.1 343.5 337.9 317.1 292.2 261.9 240.5 240.5 240.5 240.5 241.2 253.1 257.4 263 270 280 293.2 310.8 332.5 338.4 342.8 345.3 346.5 348 348.6 348.2 347.5 345.9 343.3 338.4 335.7 334.1 333.2 331.6 329.1 325.8 321.8 314.9 305.9 296.1 287.9 279.2 271.4 263.4 257.5 254.9 252.2 251.1 245.5 244.9 236.9 234.7 231.9 230.7 230.7 228.1 226.3 225.2 222.2 206.4 207.8 197.3 196.9 217.5 226.1 237.7 247.2 256.4 266.5 274.9 279.7 284.5 291.3 299.2 301.6 306.3 310.9 314.6 315.7 315.6 314.7 313.4 309.3 300.1 292.4 286.9 281.6 275.9 267.6 261.6 257 252.7 243.6 232.7 239 241 240.7 239.8 236.6 235.9
177.3 182.5 200.7 201.3 210.8 217.9 235 256.6 263.3 260.6 262.6 258.4 270.4 275.6 283.8 286.1 290.3 292.3 293 292.4 291.3 290 289.1 287.8 286.3 286.1 284.5 281.9 278.5 277.5 275.2 268.9 269.8 278.2 282 283.8 286.8 292.5 295.5 292.7 291 289.8 287.9 285.5 281.8 276 290.6 296.3 298.9 300.9 301.1 300.9 300.7 300.3 300.6 301.1 304.4 310.1 315.1 322.5 327 329.4 330.8 330.8 330.8 330.3 334.8 340.2 349.4 358.9 361.5 362.6 363 363.3 365 365.4 365 363.9 362.3 360.9 359.7 362.7 371.1 374.5 375.7 375.7 372.6 369.5 362.5 356.3 353.3 351.4 350 347.6 346.5 346.5 346.1 344.9 343.6 342.5 341.6 340.7 337.8 331.1 302.1 266.4 241 240.5 240.5 240.5 240.5 248.8 256.8 259.3 266 275.4 285.5 309.7 327.3 332.9 337.3 339.4 340.1 340.8 340.6 339.9 340 339.2 337.6 335.6 333.7 331.4 329.6 326.8 325.5 324 322.5 318 307.2 298.1 289.2 280.9 272.1 263.7 257 253.2 251.1 251.2 251.2 247.6 243.3 239.3 234.9 231.1 229 226.5 224.2 222.4 217.4 201.7 205.4 195.6 194.2 219.5 231.4 242.2 250.9 264.2 277.1 285.4 287 290.3 295.1 297.5 300.2 303.9 308.1 310.9 312.5 313.2 312.7 311.8 309.1 304.7 294.8 285.4 280.2 273.3 266.9 260 254.9 244.8 239.7 234.2 239 240.6 240.9 240 236.9 238
174.7 180.8 191.3 200.7 211.6 223.9 236.8 248 259 268.9 272.4 274.1 272.6 273.9 280.8 285.1 290.8 293.5 294.6 294.6 293.9 292.5 290.7 289.1 287 286.1 285.7 284.3 282.7 281.6 281 278.3 276.9 270 278.9 279.5 281.4 285.7 289.4 288.3 288.3 287.9 286.6 284 280.3 277.8 287.7 294.9 295.8 297.5 299.6 299.9 299.5 298.8 298.4 299.1 301 304.6 308.9 312.2 318.5 322.3 325.3 326.9 325 324.4 330.9 337.5 347.7 354.7 357.7 359.4 358.5 358.5 358.6 360.7 360.5 358.9 357.2 355.8 353.7 354.6 360.2 366.8 368.2 368.6 367.3 364.5 358.4 352.8 348.5 347.5 346.8 345.3 343.6 343 342.5 341.9 340.5 339.7 338.6 337.6 335.7 330.6 308.9 280.7 247.8 240.5 240.5 243 241.8 245.2 252.1 254.9 257.3 267.2 282.7 303.6 321.6 328.1 332.2 333.9 334.6 335.4 335.4 334.7 335.4 335.3 334.3 333 331.3 326.1 323.4 322.5 320.7 319.3 317.9 314.3 305.4 297.5 291 283.3 273 262.7 257 250.7 251.5 247.1 246.6 244.6 242.3 238.9 233.2 231.2 227.4 225 222.1 218.8 210.9 197 192.4 193.5 194.9 220.5 236.3 244.6 258.3 264.1 280.3 281.9 284.2 285.9 288 292.5 295 297 302.5 306.4 308.5 309.8 309.7 309.2 307.3 303 294.5 285.9 278.9 271.5 265.2 254.1 250.5 241.5 239 236.3 239.9 240.5 240.4 241.3 239.2 239.8
174.2 180.3 190.6 193 200.4 209.5 223.7 237.8 246.2 256.5 268.3 274.1 274.7 275.6 277.8 284.5 288.3 293.4 295.1 296.2 295.8 294.7 292.7 290.7 288.1 287 285.9 285 284.6 283.7 282.7 281.7 282 280.1 277.3 279.9 276.2 276.1 278.4 279.4 280.8 282.8 283.3 282 278.8 272.8 283.9 289.9 292.5 294.7 295.9 297.8 297.7 297.2 295.4 296.3 299.4 302 305.3 308.1 311.9 317.8 322.5 322.7 321.2 321.6 328.3 334.8 345.1 351.3 353.8 355.7 355.1 354 353.4 354.9 355.1 353.7 351.8 350.7 349.4 348.4 351.1 358.3 359.7 358.6 358.2 354.9 352.7 348.4 344.2 343.8 343.7 342.1 340.6 339.5 339.4 338.9 338.1 336.5 335.4 334 332.5 329.9 318.6 287.2 262.1 242 237.7 233.9 232 238.5 245.6 250.2 250.1 260.9 282.5 301.5 317 323.1 326.4 327.8 328.4 328.8 329.3 329.7 330.1 329.7 329.9 329.2 326.7 322.7 319.3 317.6 316.1 314.1 312.8 310.9 304.9 296.8 290.4 282.3 274.2 264.4 257.3 251.9 249.1 242.3 239.8 240.7 238.8 236.4 232.6 229.9 226.1 225.1 220.8 217.1 203.1 192.6 194.8 208.1 216.9 224.9 236.3 250.1 267.8 274.9 276.7 277.8 279.7 281 282.7 285 288.6 291 295.2 299.5 303.6 305.8 306.2 306 303.6 297.8 291.7 285.9 278.5 271.6 263.1 253.6 243.8 241.1 236.9 238.3 241.3 240.6 240.3 240.8 238.4 244.6
172.6 177.5 183.9 190.7 196.6 203.6 211.3 220.5 227 239.6 250.7 260.7 267.3 269 272.9 280.5 286 290.9 294.8 296.4 297 296.1 294.6 292.6 289.6 287.9 287.1 286.2 285.5 284.7 283.5 284.2 284.3 284.9 285.2 283.4 280.6 280.3 285.3 290.4 286 281.6 281.1 281.2 276.6 276.5 283.5 286.7 288.5 291.4 293.3 295.3 295.8 295.5 293.4 295.7 297.9 300 302.1 305 308.8 314.2 318.2 318.9 315.9 322 327 332.9 343.8 348 349.6 351.3 351 349.4 348.6 349.9 350.3 348.8 346.8 345.6 344.6 343.4 344.8 348.9 351.3 353 351.7 349.8 346.7 342.4 341.2 340.4 340.5 339.3 337.7 335.1 336.2 336.2 336.7 333.2 331.9 330.2 329 327.7 324 301.5 274.4 249.3 228.6 220 226.6 232.2 238.9 244.8 242.9 249.5 274.2 297.8 310.5 316 319.1 321 322.7 323.3 324.2 324.7 324.8 324.9 325.2 324.7 322.8 317 316.4 314.3 311.9 309.3 308.1 305.7 302 293.9 289 282.4 274 265.3 256.6 252.3 248 242.2 233.3 235 237 233.7 229.4 226.9 224.9 224.8 217.6 211.8 205 195.4 194.9 209.6 217.9 225.1 238.1 253.5 263.6 270.4 272.3 274.1 275.1 275.9 277.6 279.8 282.1 285.3 288.9 292.8 296.6 300.3 302.3 302.3 300.6 295.3 289.5 285.4 278.7 270 264.2 252.4 241 236.7 241.8 241.8 239.2 237.5 237.3 237 235.1 242.3
172 176.7 182.6 188.7 195.9 203.7 210.4 217.6 227 235.7 240.4 246.5 254.4 261.8 268.6 277.8 282.5 287.1 291.5 295.3 296 295.5 294.4 293.1 290.6 288.4 287.2 286.4 284.9 284.2 283.5 285.8 286.7 287.4 288.2 289 285.6 280.3 282.5 284.4 290.3 288.8 286.2 283.7 280.8 270.7 274.5 280.4 285.5 288.4 290.9 292.1 294.3 294.1 292 294.9 296.3 298 300.3 303.7 306.5 310 313.7 314.8 312 321.1 326.6 335 341.5 345.3 346.8 347.1 345.7 344.5 343.1 344.7 345.1 343.6 342.1 340.4 340.2 338.4 339.7 340.4 343.4 343.9 343.1 340.8 338.6 338.2 338.3 337.3 337.4 336.2 335 333.2 332.5 332.1 331.5 329.9 328.3 326.7 325.3 324.3 322.8 316.7 287.9 261 233.4 220.1 220.1 224.8 232.8 236.8 236.3 240.2 256.8 273.9 305.4 307.7 310.3 314.3 316.6 318.2 319.4 320 320.2 320.3 320 319.3 317.9 314.6 312.8 310.5 307.8 305.7 302.7 300.1 296.3 291.8 286.9 280.1 272.9 265 256.8 252 246.6 239 233.6 225.3 229.8 230.2 222.9 216.2 212.5 211 209.9 205.6 201.3 195.7 189.9 207.5 218.8 226.5 238.5 251.3 262.9 266 267.5 268.9 269.2 270.8 273.1 275.4 277.4 279.2 281.6 286.7 289.3 293.6 296.3 297.1 296.5 293.8 289.5 283.3 277.6 267.6 258.6 248.7 237.5 240.2 241.8 241.8 241.8 233.6 232.7 230.6 231.6 237.3
171 176.9 182.3 188.6 195.1 203.3 210.3 217 225 233.9 239.8 244 249.2 257.2 264.8 270.3 278.8 283 286.7 290.3 293.2 293.9 293.1 291.9 290.4 288.3 287 285.2 284.2 283.3 282.8 284.6 286.3 286.8 288.6 289.4 288.8 285.7 285.4 283.2 281.2 287.7 286 284.4 283.4 278.3 270.9 272.1 278.3 283.8 286.1 288 292.1 291.9 289.5 292.4 293.9 296 298.8 302 304.7 307.2 309.8 310.9 311.7 320.6 327 334.9 337.8 342 342.5 341.7 340.1 338.6 338.7 339.5 339.2 337.8 336.5 335.6 334.8 334.2 335.5 337.4 337.8 338.2 337.2 336.2 335 334.3 334.4 333.5 333.4 332.6 331.6 330.3 327.4 328.7 328.3 326.4 324.7 323.4 321.8 320.8 319.3 316.8 303.2 273.5 236.3 228.9 220.1 220.1 224.8 225.8 230.6 236.1 246.4 263 297 301.5 300.9 302.6 308.6 310.7 310.3 315.2 315.9 316.1 315.9 315.1 313 304.2 306.5 307.7 305.1 303 300.5 297.1 293.8 289.5 283.7 278 270.9 264.5 257.2 252.7 246.5 240.2 231.5 232.8 233.7 229.6 224.6 219.7 218 218.1 216 214.2 203.5 195.4 191.6 203.4 209.9 223.2 237.9 248.8 256.6 259.4 260.4 261.4 262.9 265.3 266.8 270.1 272.1 273.1 275.4 278.2 282.9 285 287.7 288.9 291.1 290.2 288.1 281.3 274.7 268.6 253.7 242.2 234.9 241.8 241.8 241.7 233.7 229.5 228.6 227.9 228.6 228.1
170.8 177.7 185.8 190 196 203.6 211.5 217.3 226 236.7 240.1 243.8 247.7 253.2 259.3 266.1 273.2 279.2 282.6 285.7 288.2 290.2 290.4 289.7 288.8 287.7 286.1 284.3 283.7 283.4 282.9 283.6 284.1 285 286.2 288 288.4 286.7 286 283.2 278.5 285.7 283.3 281.4 278.4 276.2 273 268.8 277.6 279.4 281.2 281.9 285.8 288.9 287.8 288.1 293.4 296.2 298.1 299.8 300.9 300.2 307.2 307.8 314.6 319.9 326.8 333.5 335.7 339 339.9 338 335.8 334.2 334.2 334.7 333.5 332.4 332 331.1 330.3 330.2 331.7 332.8 333 333.3 333.6 333.8 330.9 330.3 330.5 329.3 329.4 329.1 327.9 326.4 324.3 324.3 323.8 322.7 320.9 319.1 317.9 317.1 314.9 312.7 308.9 292.4 266.2 234.4 220.1 220.1 220.1 220.1 228.8 232.3 239.7 264.5 289.1 294.8 293.4 294.7 297.5 301.6 305.7 306.9 311.5 312 312.9 309.5 308.8 308.7 301.1 300.2 302 298.3 296.8 293.9 290.3 286.9 282.6 278.8 266 260.4 257.4 253.3 248.5 240.7 235.4 234.3 232.4 231.2 227.9 227 227.2 224.2 219.8 215.6 211.6 196 189.8 199.8 211.4 220.2 231.7 245.6 253 248.5 254.7 255.5 257.1 259.7 262.2 262.5 263.8 264.4 265.9 268.3 271.8 276.4 279.2 282.1 282.8 282.9 282.8 280.3 272.3 258.7 246.1 236.2 235.2 236.5 240.9 231.5 227.3 226.4 225.5 225.3 225.1 224.7
169.3 177.1 184.2 191.8 199 205.4 210.7 217.5 228.1 243.7 244.4 247.1 248.2 251.7 256.4 260.9 265.1 274.2 279.1 281.7 283.6 285.2 286.6 287 286.4 285.8 285.4 283.9 283.6 283.2 283.2 283.6 283.7 283.8 283.8 283.8 284.6 285.8 285.2 283.9 277.5 281.8 280.9 275.3 274.7 276.4 277.2 270.9 267.5 277.7 280.5 278.8 278.3 277.3 285.1 289.2 292 292.9 294 292.8 300.5 305.1 308.6 311.2 315.5 319.8 329.3 331.2 333.4 335.9 336 333.5 331.3 329.6 329.1 328.4 328.1 327.6 327.1 326.6 325.9 325.8 327.6 327.9 328.4 328.5 327.8 328 326.8 326.5 326.1 325.6 325.4 324.4 323.4 322.4 320.4 320.1 319.4 318.3 316.9 314.9 313.7 312.7 310.9 308.9 307.1 302.1 280.3 240.4 230.4 220.1 220.1 220.1 221.5 229 235.8 252.5 271.5 287.9 288.2 288.1 290.8 292.9 295.3 300.3 304.8 306.4 306.4 305.8 304.3 302.6 300.6 299.3 298 292.6 285 289.4 285.8 283.5 279.9 275.8 269.6 263.4 258.4 254.3 247.5 241 238.4 233.7 231.4 229.8 230.5 230.4 229.4 227.3 214.9 215.5 212.3 196.7 194.4 202.1 212.1 215.2 223.4 239.1 249.3 250.8 250.3 251.6 252.4 254.8 255.1 255.6 252.8 250.8 257.2 259.4 264.2 265.1 269 272.7 274.8 275.6 276.1 273.8 266.8 252.1 241.2 240.9 233.7 228.7 228.8 225.4 220.4 216.3 222.3 221.1 221.7 222.4
163.9 170.4 179.1 187.5 197.4 206.1 212.2 220.2 229.6 242.8 243.8 245 248.9 252.2 255 259.1 261.2 264.7 274.4 278.1 280.6 281.5 282.2 282.7 282.7 282.7 282.5 282.3 283.1 283.5 283.3 283.1 283.2 283.2 283.2 283.2 283.4 283.5 283 282.1 277.3 275.5 275.2 275.6 277.1 279.1 275.9 271.8 265.6 274.9 269.2 272.1 269.2 274.3 282.3 287.3 288.8 290 291 297.5 301.4 305.9 308.5 311.9 315.5 323.3 328.6 329.1 330.9 332.8 331.5 329.5 326.3 323.8 325.1 324.4 323.6 322.3 322 321.9 321.7 320.4 322.9 323.4 323.8 323.1 322.9 323 321.8 322.2 321.8 321.1 321.5 320.9 319.9 317.8 316.7 314.4 315.3 314.5 312.8 311 309.5 308.3 306.8 305.6 304.1 301.3 291.6 258.3 229.9 220.1 220.1 214.9 220.5 223.3 229.4 242.1 270 282.2 283.6 283.1 285.4 288.1 291.3 293.7 297.6 300.4 300.6 299.6 298.5 297 295.3 293.7 292 289.8 287.6 279.4 278 278.9 275.8 272.1 267.8 260.7 256 252.7 247.9 242.1 237.9 233.6 230.3 228.8 232.5 229.2 228.2 224.8 219.6 213.3 215 202.3 201.4 203.2 208.4 213.8 218.4 226.3 241.6 246.4 247.1 247.8 248.7 248.9 249.7 247.6 242.2 243.6 242.2 241.9 248.5 255.2 260.5 264.1 265.7 266.1 265 263.6 251.9 245.8 233.8 229.7 224.4 221.7 224.4 213.3 210.9 211.7 210 216.3 213 214.7
172.6 176.7 178.9 180.4 187.8 199.1 207.7 215.6 229.9 238.6 240.4 248 252 255.5 258.1 260.7 263 262.1 268.2 273.6 276.1 278.3 278.9 279.1 279.1 279.5 279.2 279.2 280.9 281.9 283 282.9 282.8 282.7 282.1 282.1 282.6 282.8 281.6 281.6 278.5 275.9 275.9 279.3 278.8 277.7 275.4 269.5 264.6 265 271.6 275.7 277.1 277.8 279.2 287.6 287.6 292.1 295.4 298.1 301.2 306.2 309.2 312.4 316.9 325.7 326.3 325.9 327.9 328.5 327.5 325.1 322.2 319.5 320.6 320.3 319.2 317.6 316.5 316.8 317.4 317.6 318.9 319.4 319.7 319 318.1 318.4 317.5 318.1 317.9 317.7 317.2 316.9 315.4 313.3 312.2 310.4 310.6 310.5 309 307.3 305.7 303.5 303.1 302.3 300.8 298.9 292.6 270.7 235.5 224.5 211.7 211.7 211.7 218 224.7 232.1 260.9 276.6 279.3 278.3 281.3 283.1 286.6 291.2 298.6 299.9 301 296.3 291.8 290.8 290.3 289.2 287.7 285.5 283.4 280.3 277.9 272.2 269.7 264.9 263.4 256.9 255 249.6 245.6 240.7 237.8 233.2 228.8 227.9 228.9 228.1 225.4 217.4 217.8 212.3 210.1 204.2 196.2 187.9 207.1 211.5 212.7 216.6 234.8 241 242.5 242.4 244 245.9 242.6 241.2 247.4 250.3 252.9 248.4 243 240.3 242.2 246.5 251.2 248.4 250.5 248 241.1 231.5 227.4 220.5 216.7 219.9 222 206.9 204.6 213.3 203.6 207.7 193.9 187.1
173.3 179.7 184.8 189.1 206.3 212.9 223.9 228.4 222.5 233.8 237.4 247.4 252.6 256 258.9 261 262.7 263.1 261.8 267.4 271 271.6 274.8 275.3 275.6 276.5 276.2 276.6 278.5 280.5 282.8 282.8 282.7 282.4 281.5 281.7 280.8 281.4 280.3 280 278.5 279.3 275.6 277.5 277.3 276.4 276 274.1 257.7 270.5 273.1 274.1 279.5 284.1 284.9 288.5 290.8 293 295.8 298.5 301.2 304.2 308.2 312.8 319.8 323.7 323 323.1 324.2 324.2 323.3 320.7 318.1 315.5 316.4 315.9 314.7 313.4 311.8 311.4 310.7 312.9 315 315 315.4 314.8 313.6 314.2 314.1 314 313.8 313.4 313.2 312.8 311.2 309.3 307.5 306 305.6 305.7 303.9 303.3 301.4 298.5 298.7 298.4 297.7 295.8 289.3 276.9 242.1 226.6 220.7 211.7 211.7 211.7 218.2 231.2 259.6 275.9 276.1 275.5 277.7 279.7 283.5 292.4 296.2 295.4 298.4 300.1 290.7 283.3 284.6 284.5 282.9 280.5 278.4 276.6 271.2 269.4 264.7 263.6 256.7 255.7 250.9 247.4 244.2 239.4 236.2 230.9 226.4 222.3 223.9 223.9 219.9 215.7 214.7 212.5 211.2 203.7 193.6 199.4 179.1 197.1 207.8 214.2 232 236.6 238.5 239.6 240.9 240.5 239.8 243.3 243.1 246.1 247.8 250.1 251.8 249.1 239.9 239.6 239.2 237.1 233.9 233.9 228.8 225.1 221.5 219.5 217.2 222.1 220.8 211.5 202.8 199.2 196.9 190.4 186.2 184
174.8 182.9 194.5 207.8 212 219.3 230 236.8 235.7 235 235 238.8 247.8 253.8 258.4 260.5 261.9 263.3 262.5 260.2 262.6 263.8 264.6 269 270.9 271.9 271.3 273 275.9 279.2 281.7 282.5 283.3 283.7 283.4 283 282.7 282.1 279.5 276.7 272.8 270.2 268.3 268.9 272.2 270.4 268.1 255.9 265.8 273 274.1 274.8 282 281.7 285.3 288.1 288.3 291.1 296 298.8 302 302.8 304.2 312.9 320.2 320.5 319.5 318.5 320 320.7 319.1 316.5 313.6 311.8 312.4 310.6 310 308.9 307.4 306.2 306.7 308.2 309.8 310.9 310.7 310.2 310.1 310.5 310.5 310.4 309.5 308.6 308.6 308.5 307.5 305.1 303.2 301.5 300 301.3 299.8 297.9 296.4 293.6 293.7 294.4 293.9 292 286.5 273.2 248.8 231.2 218.5 212 211.7 211.7 212 229.8 256.1 271.4 271.9 272.1 273.2 274.2 281.3 286.7 290.8 290.6 291.2 292.2 285.5 280.8 276.8 277.7 276.4 274.7 272.4 269.9 266.6 264.8 262 257.6 255.9 250.7 247.3 244.9 241.5 237.3 234.1 230.4 222.6 220.8 214.7 217.9 215.9 214 212.8 212.1 211.6 205.2 192.9 196.4 192.2 181.5 195.7 210.8 226.1 232.6 231.6 236.4 237.5 238.2 239.7 240.9 240.6 241.4 242.3 243.6 245.8 246.4 247 251.8 243 238.6 234.5 233.4 232.9 231.7 228.7 226.9 229.4 231.1 217 206 205.1 206.2 200.8 185.7 185.3 203.6
178.7 188.3 206 212.4 218.3 226.4 236 240.5 241.5 241 240.5 239.4 240.9 242.4 243.7 247.3 252.5 259.5 260.9 260.1 258.5 256.7 257 256.1 257.2 266.3 266.5 270 272.7 276.1 278.7 280.5 281.2 282.4 283.7 283.7 283.3 283.1 281.5 278.4 272.9 269.5 266.5 264.4 262.4 262.2 259.8 251.9 272.7 273.4 275.7 276.7 278.3 280.2 280.2 285.9 287.8 288.3 293.6 297.5 300.5 300.8 302 310.8 318.4 317.3 315.5 314.1 314.7 316.6 315.4 313.2 310.3 308.4 306.9 305.3 304.6 303.6 302.3 301.8 302.6 303.2 304.5 305.2 305.6 305.5 305.2 305.9 305.7 305.8 304.9 304.3 304.1 304 303 301.5 300 297.8 296.1 296.2 294.4 292.1 291.3 287 287.6 289.1 288 287.3 282.3 271.5 249.4 233.9 218.3 211.7 211.7 211.7 211.7 224.9 255 266.5 267.1 268 269.3 271.7 276.9 282.5 285.3 288.7 294.8 301 301.1 294.9 279.9 274.8 274.6 269.9 267.2 266.5 262.8 259.8 257.7 254 251.3 248.4 244.2 241.6 237.3 234.4 231.4 227.2 220.7 214.8 211.5 205.7 213.2 214.7 212.7 207.4 212.2 202.8 189.1 181.9 175.4 171.9 186.7 205.4 222 226.7 226.6 230.5 233.1 234.2 235.6 236.5 237.3 238.4 238.6 239.4 240.4 234.9 229.8 230.4 233.5 234.5 232.7 232.3 232.7 237.3 236.2 233 231.9 225.5 214 207.7 213.1 208.9 200.3 185.1 195.9 204.8
182.6 191 210.9 217.6 225.5 235 240.5 245.2 245.2 244.8 245.6 243.7 244.1 245.4 249.4 250 246 245 249.8 254.1 252.7 250.3 250.9 252.2 257.9 255.8 258.8 265.5 268.9 271.2 275.2 277.2 279.1 281 282.4 283.2 283.3 283 281.2 276.8 272.4 269.3 267.6 264.6 262.3 253.5 249.7 244.9 271.6 275.3 274.2 277.9 283.6 280.2 280.2 280.2 280.2 283.4 287.2 292.9 297.8 298.7 300.2 309.9 315.6 314.1 311.9 310 311.2 312.6 312.1 310.2 307.1 304.7 303.1 300.7 299.3 298 298 296.2 297.5 297.6 299.4 299.9 300.4 300.1 300 300.6 300.5 300.4 300.5 300.5 300.1 299.5 298.6 297.2 294.1 293.4 287.1 291 290.5 286.9 285.3 280.2 281.3 281.2 283.3 282.8 277.4 266.9 250 235.2 217.8 211.7 211.7 211.7 211.7 226.7 253.6 261.8 263.3 265.2 263.1 268.4 274.2 277.9 280.5 290.5 306.6 318.7 313.5 304.7 295 285.3 276.7 268.8 261.5 257.7 258.1 257 253.5 250.1 249.4 243.8 243 236.8 233.6 229.3 226.1 222.3 220 222.5 221.6 197.7 208.6 211.3 210.6 195.6 192.6 185.2 168.1 165.9 184 184 186.9 206.6 215.4 219.1 225.6 227.9 228.6 228.5 230.8 231.6 232.1 232.4 233.4 234.6 233.8 226.6 228.2 230.2 230.5 222.4 216.6 216.8 216.9 218.2 218.7 222 224.4 214.4 208 206.3 210.8 204.7 198.5 193.2 187.3 202.6
186.2 195.3 213.7 221.5 229.7 242.2 248 248.4 247.7 247 246.7 247.8 246.6 249.1 255.6 259.1 261.4 255.3 245.7 245.6 245.5 246.3 245.5 243.8 247.3 251.6 252.9 255.2 261.5 266.8 269.1 273.7 277.4 279.6 281 281.9 282.4 281.9 279 277.6 274 268.9 267 264.3 259.9 257.9 244.9 245.3 274.1 278.1 276.8 278.2 280.2 280.2 280.2 280.2 280.2 280.2 280.2 287.2 295.5 297.3 298.9 307.7 312.3 310.1 308.1 306.4 307.4 309.4 309.3 307.4 304.3 301.7 299.9 298.9 298.2 295.4 292.5 290.2 292.8 294.7 293.8 293.7 295.3 294.5 295 295 295.2 295.4 295.8 295.6 295.2 294.6 293.6 292.2 290.4 287.4 285.2 284.4 283.9 282.2 279.9 277 275.4 275.3 275.8 276 272.9 259.9 248.3 234.2 216.9 211.7 211.7 211.7 211.7 231.8 254.7 257.3 255.2 258.8 258.4 258.7 264 271.8 278.7 292.9 310.8 315.8 314.9 309.1 299.8 290.7 282.5 275.6 267.4 258.1 252.2 251.4 250.1 247.6 243.5 239.7 238.9 234.7 231.3 227.9 223.8 226.8 227.7 223.8 217.9 209.2 187.6 206.1 200.7 183.5 176.9 170.1 160 186.3 202 208.1 207.5 207.9 208.9 208.5 208.9 213.2 215.8 213 214.8 218.8 223.4 225.9 225 226.7 225.2 222.8 223.7 227 229.9 229.7 222.2 211.4 209.9 209.5 207.1 207 209 205.1 204.4 203.5 205.4 200.3 196.8 191.2 186 202.2
185.4 194.6 210.3 223.8 230.8 243.1 251.5 251 249.8 249 248.5 249 249.2 246.1 245 251.3 256 259.1 259 251.3 253.6 258.2 256.8 251.1 241.3 240.3 246.7 253 251.7 259.1 264 268.3 273.5 277.8 279.5 280.7 280.7 280.5 280 278.1 274.7 269.5 267.3 264.8 261.4 255.4 241.8 254.3 270.2 276.2 277.6 284.4 280.2 280.2 280.2 280.2 280.2 280.2 280.2 280.2 290.4 294.1 296.3 299.6 304 305.9 304.3 303.1 304.2 307.2 307.1 305 302.1 299.3 297.5 296.9 295.5 294.2 289.7 286.4 286.8 287.4 288.3 287.7 288 289 288.6 289 289.7 289.6 289.6 289.5 287.4 289.6 288.5 287.8 286 282.2 279.1 278 277.9 275.9 274.2 271.9 269.9 271.4 270.7 269.9 264.8 251.9 243.2 226.1 213.8 211.7 211.7 211.7 212 237.6 252 253.8 252.6 252.3 251.7 253 256 259.7 271.9 290.6 307.4 310.6 311 309.4 304.7 295.5 287.7 279.5 269.3 262.8 255.5 249.7 245.8 244.4 242.6 236.2 233.7 231.5 231.5 223 205.8 209.6 208.1 201.1 202.1 206.5 181.7 196.9 188.1 172.9 155.3 158.1 176.6 193.7 212 218 224.3 222.4 217.8 220.1 216.2 210.2 208 206.8 206.1 207.4 213.4 220.9 220 218.6 218.7 218.8 220.2 222 224.5 227.7 226.8 223.4 217.5 214.9 210.4 204.3 199.5 199.4 199.2 200.2 197.4 197.4 191.6 186.9 191.1 197.9
183.9 193.1 202.9 218.9 231.7 240.7 251.6 253.1 251.8 250.8 248.5 246.8 250.5 253.5 244 242.5 245.8 250.6 254 256.3 257.9 258.5 258.5 256.8 252 242.9 235.6 238.7 241 248.6 256.8 261.4 267.8 274.8 277.5 278.3 278.6 278.1 277.7 276.4 274.5 270.9 269.5 267.8 260.6 255 240.7 246.5 266.5 273.4 274.9 276.8 280.2 280.2 280.2 280.2 280.2 280.2 280.2 280.2 280.2 290.8 293.2 295.4 298.6 301.2 300 299.4 301.2 304.6 304.8 302.2 298.9 297.2 296.2 294.7 293 291.7 289 282.8 280.3 281.9 283.5 281.9 282.4 283.1 283.6 283.7 283.7 283 283.9 284.5 282.9 284.7 284.2 283.6 281.3 278.7 276.7 273.8 273.2 272 270.5 268.6 265.3 265.5 265.3 262.7 256.4 243.9 236.8 222 211.7 211.7 211.7 211.7 216.8 243.3 249.7 249.1 247.7 248.9 245.4 255.1 255.3 253.4 261.5 285.2 301.5 305 306.5 307.5 306.6 302.3 292.9 285.4 277.4 268.4 262.3 254.1 247.9 243.1 239.1 235.7 233.8 234.5 233.3 229.8 218.2 200.7 196.5 187.8 189.1 187 172.8 183.3 176.7 157.2 165.6 176.4 179.7 191.7 212.6 218.4 229.8 236 237.6 238 234.1 228.4 220 216.3 217.7 204.7 205 207.4 210.9 211.2 212.2 213.6 215.1 216.6 218 221.4 220.8 219.6 216.4 211 206.3 202.1 199.1 193 190.7 191.4 189.5 188.7 187.6 184.2 189.9 190.1
181 191.8 199.9 211.9 225.6 236 242.1 248.5 250.9 248.4 243 239.5 241.2 243.1 242.6 241.7 240.7 242.8 245.5 249.1 251.9 255.5 257.2 257.9 254.6 251.3 245.8 232.5 229.7 235.9 249.1 251.9 255 267.8 271.7 275.1 275.4 274.5 272.9 271.5 269.7 264.7 262.6 260.5 255.3 252.7 238.7 247.7 261.4 266.3 271.2 276.4 282.5 280.2 280.2 280.2 280.2 280.2 280.2 280.2 280.2 288.4 290.4 292.3 297.6 296.3 296.6 297 299.2 302.4 302 298.9 297 296.1 295.6 291.9 290.5 288 286.2 283.6 276.7 273.7 277.1 277.1 277.3 277.3 278.4 277.2 277.8 276.2 277.2 278.8 277.1 280.9 280.4 279.8 278.3 276.9 273.5 268.6 267.2 268 267.2 264.4 261.9 260 258.5 256.2 250.5 239.5 228.5 216.9 211.7 211.7 211.7 211.7 224.8 244.8 245.7 244.4 243.5 241.7 245 248.1 250.9 249.8 263.1 282 296.6 299.6 302 303.9 305.5 303.5 298.2 291.3 281.7 273.3 267 257.6 249 243.9 238.4 235.5 231.9 227.8 227.1 221.4 214.8 203.1 201.1 201.5 192.4 178.9 166.6 158.7 156.7 159.7 162.4 170 179.2 188 211.4 217.4 230.8 235.5 235.3 234.5 231.5 229.7 223.5 218.6 217.2 214.9 207.4 203 202.8 202.4 204.4 206.5 207.2 207.3 211.6 214.8 215.1 214.2 211.7 207.1 202 196.5 191.7 195.2 195.5 194.3 192.9 196.2 191.1 188.7 186.5 185.5
182.1 189.3 197.7 206.4 217.5 231.1 235.9 238.2 239.4 238 236.6 236.3 236.7 237.5 238.8 240.1 240.1 240.7 240.4 240.8 243.7 247.6 254.4 258.6 255.1 253 249.1 234.9 226.5 230.5 244.8 255.8 257.5 255.4 260.2 263.2 265.7 266.6 266.5 265.4 262.8 259.7 258.4 256 255.1 253 240 240.9 260.5 263.6 269.1 275.8 281.2 280.2 280.2 280.2 280.2 280.2 280.2 280.2 280.2 282.6 285.7 290.1 293 292.9 293.5 294.3 296.4 298.2 298.4 295.9 294.7 294.6 294.2 290.3 287 283.2 281.7 279.8 276 272.2 271.6 272.5 272.6 272.7 272.9 271.8 272.3 269.8 269.8 272.4 273.6 276.7 275.9 274.8 273.6 272.6 271.6 265.4 264.2 263.4 263.7 261.7 255.3 254.5 254 251 223.9 230.2 220.4 211.7 211.7 211.7 211.7 211.7 230.2 243.3 244 242.1 239.5 239.1 241.3 242.2 242 246.8 260.6 276.5 290.4 297.8 299.5 299.4 300.5 300.3 298.1 293.1 285.7 275.3 267.3 258.4 247.6 242.3 239.4 234.4 229.4 226.7 230.1 229.6 220.8 214.5 212.1 212.2 202.2 189 171.2 162.9 151.7 158.1 160 163.7 173.1 185.5 202.4 213.6 226.3 231.3 232.9 231 226.6 223.8 221.1 219.1 217 214.4 207.5 202.9 201.8 201.4 201.4 200.8 202.5 203.4 203.8 205.6 207.7 205.6 205.9 202.6 198.8 192.8 200.2 205.2 203.9 199 194.4 194.1 189.1 187.9 186.8 178.6
182.4 187.4 195.2 202.1 209.2 221.9 230.3 233.4 234.7 233.7 232.9 233.6 234.1 235.4 236.3 237.1 239.8 242.5 243.3 240.5 240 241.4 246.2 250.7 254.6 254.6 247.8 228.3 225.4 227.5 238.7 255.3 259.4 259.6 252.6 255 258.3 260 260.4 259.4 257.6 256.7 256.7 256 256 243.7 237.9 246.4 259.7 262.9 265.2 272.7 276.9 280.5 280.2 280.2 280.2 280.2 280.2 280.2 280.2 280.2 280.2 287.9 291.1 290.1 290.4 291.9 293.6 295.9 294.6 293 292.4 293 292.3 290.1 286.2 282.8 278.8 276.2 273.9 271.3 269.3 268.8 268.5 268.1 267.5 267.2 265.8 262.4 261.7 263.4 269.1 270.9 271 270.2 269.4 269.3 266 265.7 259.3 258.3 259.7 255.9 252.2 249.6 248.1 229.8 221.9 224.9 213.6 211.7 211.7 211.7 211.7 215.9 230.4 240.5 241.8 237.8 238 235.7 236.1 240.5 244.3 243.9 249.9 263.1 286.6 294.5 295.9 295.9 295.9 296.6 295.8 291.6 285.5 276.1 265.8 256.8 247.2 244.2 241.1 233.8 230.1 232 231.1 229.2 224.4 218.2 209.9 203.3 202.9 194.7 176.3 161.7 155.2 148.8 155.5 160 165.9 181.4 198.5 212.8 222.7 228.3 230.5 227.2 221.8 219.3 217.6 217 216.3 214.4 211.8 208.1 205.8 201.2 200.2 199.7 199.9 198.8 200 197.9 200.4 202.1 201.6 199.3 195.1 202.3 204 206.1 204.3 201.5 200.3 191 188.3 187.1 182.4 172.5
182.4 186 191.2 197.7 203.7 209.4 218.4 223.5 225.7 226.6 228.9 230.8 231.4 232.5 232.6 232.8 234 239 241.4 242.6 242.4 240.4 239.5 242.6 246.2 245.8 233.5 224.4 223.2 226 239.7 254.1 256.2 256.6 255.9 252.7 252.2 254.5 256.4 255.7 255.3 253.5 252.1 251.8 247.8 235.3 236.9 243.1 248.9 262.8 264.3 267.7 271.8 276.5 282 280.2 280.2 280.2 280.2 280.2 280.2 280.2 280.2 280.2 284.6 286.6 286.2 287.9 290.5 290.1 290.9 290.9 290.9 290.2 289.6 288.5 285.9 281 279.3 274.3 272.1 269 268.2 264.8 265.3 264.3 263.4 261.8 261 256.3 256.2 255.2 262.3 262 264.6 266.2 265.3 264.7 263.8 262.4 255.4 254.1 255.3 253.4 250 246.6 237.2 238.3 212.6 217.6 211.7 211.7 211.7 211.7 211.7 227.8 239.3 238.7 238.1 236.2 237.4 234.2 239.7 244.5 251.2 250.1 246.4 253.6 277.8 290.2 291.4 291.1 291.1 291 291.1 288.3 281.8 275.6 266.3 255.1 247.1 243.7 238.6 233.8 233.7 231.8 228.8 227.5 223 217.1 211 208.6 207.1 205.4 185.3 167.4 159.9 155.3 150.6 160.1 165.5 180.4 195.8 212.1 219.5 225.7 226.2 224.8 219.9 216.9 215 214.4 213.8 212.6 211.9 209.3 205.6 205.6 200.8 200.2 198.8 199.1 202 203 202.8 200.5 198.8 196 201.5 202.9 204.6 204.7 203.8 198.7 195.8 194.8 187.5 186.8 185.9 184.8
182.8 185.5 188.1 192.6 198.3 202.7 206.6 211.2 215 217.2 220.2 224.3 224.6 225.9 226.4 226.7 228.9 231.9 235.2 241.2 244.5 243.8 240.3 235 238.7 236 225.4 222.3 222.7 229.9 245.1 248.8 249.8 251.4 253.4 255.2 252.5 249.7 250.9 251.5 251.1 249.4 248.9 249.6 244.4 234.2 239.8 253.1 247.1 252.9 262.6 264.5 267.6 273.4 278.6 280.2 280.2 280.2 280.2 280.2 280.2 280.2 280.2 280.2 281.1 281.7 282.3 283.6 287.3 289 288.4 287.9 288.4 288.2 287.4 288.4 286.7 285.2 283.2 277.3 271.2 268.4 266.3 264.4 262.9 261.4 257.7 255.5 253.4 254.6 250.5 247.5 252.3 248.7 247.3 248.6 259.2 260.8 261.5 253.9 243.3 241.8 243.5 248.2 246.9 245.9 226.6 240.1 211.7 211.7 211.7 211.7 211.7 211.7 212.3 233.8 238.2 239 235.7 236.5 235.2 232.2 239.7 247.4 252.2 253.9 246.1 251.4 275.7 284.1 285.7 286.1 285.8 285.1 282.9 279.6 276 272.1 267.7 260.5 246.3 242.4 235.6 235.6 232.3 228.1 225.6 223.2 218.3 213 210.1 205 204.3 203.2 190.5 171.2 155.9 155.4 148.8 150.7 164.7 178.8 197.2 210.5 215.2 222.5 224.2 221.5 218.2 214.9 212.5 211.8 210.7 210.5 209.6 207.5 205.4 205.2 203.7 200.5 203 209.6 214.2 213.7 211.9 207.5 200.7 202.4 202.2 202.6 202.8 201.6 200.4 197 194 190.3 187.3 185.6 184.7 184.3
182.7 185.1 186.4 188.5 193.1 197.6 200.6 203.9 206.6 208.3 211.1 213.3 214.7 216.7 216.6 219.3 223.7 229.4 230.4 234.7 236.9 236.4 234.1 229.4 234.6 226.4 221.4 220.2 221 223.7 233.1 237 240.2 244.8 247.2 251.3 256.3 255.1 250.2 248.4 246.8 245.1 244.2 237.8 233.1 235.4 254 258.5 259.4 249.2 251.2 259 264.6 268.8 272.1 284.1 280.2 280.2 280.2 280.2 280.2 280.2 280.2 280.2 282.6 279.9 279.2 279.1 281.2 286.6 286.7 286.1 286.4 286.6 286.7 287.9 288.4 288.9 288.8 282.6 274.4 269.8 268 266 264 261.8 263.9 262.8 261.1 259.5 258.4 251.6 248.6 253.4 255.8 243.1 244.4 252.9 255.2 248 254.5 255.4 252.5 239.6 232 242.1 232.1 211.7 211.7 211.7 211.7 211.7 211.7 211.7 226.8 233 235.9 237.9 233.5 235.9 231.6 233 240.6 245.4 249.5 252.8 246.6 248.5 262.3 273.3 279.7 281.9 279.7 278.9 277 274.1 271 268.9 264.1 256 246 240.4 235.6 235.8 230.3 224.5 222.9 217.7 215 214.1 210.2 206.6 196.4 196.6 183.3 171.7 159.3 152.5 148.5 158.7 163 183.2 200.6 209.4 211.3 214.7 218.1 218.1 214.5 210 208 208.8 206.3 204.7 203.3 204.4 203.7 201.8 201.6 200.7 200.4 206 211.1 213.3 210.5 209.1 207.4 203.5 201 200.5 200.2 199.3 198.1 196.5 192.9 190.1 188.6 184.5 183.2 182.3
183.1 184.8 186 187 190.2 192.9 195.3 199 201.5 202.7 204.2 205.7 206.9 208.9 209.6 215.1 219.5 225.1 228.1 230.9 231.5 229.3 226.5 224.4 223.6 220.7 219.3 218.8 219 219.5 220.6 223.1 225.4 231.8 239.5 242.5 248.4 255.1 251.6 247 244.1 240.3 241 232.2 232.9 250.3 252.7 255.2 256.6 254.4 249.9 254.5 262.8 266.3 270.6 276.4 280.2 280.2 280.2 280.2 280.2 280.2 280.2 280.2 279.1 277.5 276.8 277.7 275.2 285.8 286.6 285 281.8 284.9 287.1 289.5 294.5 292.7 290.8 288.2 284.5 276.4 269.2 266.8 267 267.1 265.4 262.4 260.5 259.4 258.8 256.3 256.1 262 268.1 268.3 252.9 240.8 241.6 241.6 241.7 245.2 247.1 240.3 231.2 226.2 230.4 211.7 211.7 211.7 211.7 211.7 211.7 211.7 227.9 231.2 234 235.3 232.1 232.4 232.2 232.9 238.3 242.1 245.8 250 254.9 248.8 250 258.5 271.4 273.8 271.3 270.4 270.3 268.4 264.8 261.2 254.8 248.8 243.8 237.4 238 239.1 231.1 225.1 217.9 214.4 214.6 212.5 211.2 205 200.3 184.7 178 177.4 168.7 154.1 148.9 151.4 168.3 184.5 201.9 207.6 207.5 208.5 209.4 207.9 208.7 205.7 204.5 204.2 202.3 200.5 200.7 201 200.2 198.7 199.6 199.4 196.7 199.9 204.5 208.9 207.4 206.2 204.7 203.8 200.5 198.9 198.3 196.3 195.7 194.7 192.5 189.4 187 182.7 182 181.5
170.4 181.9 184.6 185.6 187.4 189.5 192 193.6 196.3 198 199.4 200.6 202.3 203.1 206.4 210.6 216.3 224.3 228.2 237.5 237.7 233 228.8 226 223.8 220.5 218.2 217.6 218.3 219 220.3 232.2 228 226.2 226.1 227 229.4 240 241.8 237.9 235.3 233.6 231.7 232 242.4 244.2 247.6 250.4 253.8 253.7 251.8 254.9 258.8 260.4 269.2 272.4 282.3 281.7 280.2 280.2 280.2 280.2 280.2 284.4 272.9 274.3 274 274.4 271.4 278.4 280.3 278.7 279.1 284.7 289 296.2 296.9 293.9 291.8 289.4 286.1 282.2 277.3 271.6 267.7 266.5 262.6 262.9 259.3 257.2 256.4 255.2 254.4 261.7 267.9 269 267 260.3 248.8 248.2 247.6 242.9 238 238.3 236.5 227.3 211.8 211.7 211.7 211.7 211.7 211.7 211.7 214.7 225.7 229.2 231.1 231.2 229.7 228.2 225.9 232.7 234.9 237.5 242.3 248.8 256.2 260.1 255.4 250 253.2 257.2 252.7 252.5 253.8 253 250.6 248.7 246.8 243.4 240.4 237.5 241.7 238.4 231.7 225 219.8 213.4 214.7 210.3 206.6 200.4 196.7 199.3 199.9 195.3 176.4 164.2 147.1 156.1 178.2 186.6 201.6 204.7 204.9 203.2 202.6 203.1 202.7 201.9 199.4 199.6 197.5 197.1 196.1 194.4 194.1 194.6 193.4 194.3 193.1 194.2 197.3 202.1 203.6 201.5 200.9 200.3 198.8 197.7 196.8 195.2 193.5 192.3 191 189.3 186.5 182.4 181.8 176.1
168.7 172.9 180.6 183.6 186.4 187.2 189.5 190.5 191.8 193.7 195.6 197.5 197.2 200.2 202.8 207.3 215 223 229.3 235 239.1 234.8 231 227.2 226.2 221.8 217.5 217.1 218.2 219.1 221.2 233.9 237.8 236.7 232.3 228.3 225.4 226.6 228.3 228.8 230.2 231.9 231 231 237.5 241.9 245.4 248.6 252.4 252.3 251.2 256.3 262.1 265.7 261.8 269.6 269.5 272.6 275.7 280.5 284.1 280.2 283.5 279 270.6 265 270.8 271.2 268.9 273.6 273.2 274.3 278.5 286.4 295.3 298.9 296.7 294.3 292 288.6 285.2 281.5 277.4 275.3 270.5 268.4 263.7 264.5 262 260.1 257.6 254.4 248.3 255.6 265.8 268 267.8 266.6 264.8 261 252.1 247 245.5 238.8 234.4 232.6 211.7 215.3 211.7 211.7 211.7 211.7 211.7 214.5 222.6 226.5 229 229.1 227.5 225.9 223.3 228.8 231.3 230.8 238.3 245.9 255.6 264.2 265.9 259.8 249.3 249.4 248.8 245.7 244.6 242.5 240.8 239.3 236.8 233.6 236.7 238.1 236.2 232.8 229.1 222 220.6 210 206.5 206.4 205.4 203.5 200.9 199.9 199 195.9 176.1 160.2 148.5 157.1 186.4 187.4 203.4 202.8 201.3 200.2 198.8 197.9 197.5 196.9 195.9 194.4 194.4 193.8 193.6 193.2 192.7 190.3 189.5 188.5 188.4 190.8 191.2 194.4 196.7 196 196 197.5 196.4 195.3 192.7 191.1 190.9 190.8 190 187.4 186.9 183.6 181.9 180.3
163.9 169.8 174.8 182.7 184.4 186.4 187.2 188.7 190 191.4 192.9 194.8 194.1 197.2 200.9 206.3 213.2 220.6 227.1 232.5 237.9 235.8 231.4 226.8 225.2 221.1 216.9 216.7 217.9 220.1 225.1 233.1 237.9 238 241 241.7 237.4 227.2 226.8 226.8 228.6 230.3 230.8 230.8 232.2 236.5 245.7 248.7 252.3 253.7 250.6 254.2 261 265.1 268.2 263.9 267.8 271.2 273.1 276.2 278.3 280.1 283.7 280.9 276.8 266.3 263.5 268 267.3 269.4 268.5 273 279.3 288 295.3 295.8 294.2 292.2 289 285.5 281.5 278.5 274 271.6 269.2 265.3 264.2 263.1 261.9 260 255.1 252.4 246.8 249.5 262.4 265.2 266.2 266.1 266 264.3 260.5 254.6 246.8 242.1 235.8 232.2 217.1 211.7 211.7 211.7 211.7 211.7 211.7 214.6 220.8 224.7 227.3 226.8 226.1 223.1 220 225.4 227.2 227.2 234.5 245.5 261.7 271.4 272.8 271.6 267.5 260.6 257.3 259.9 258.3 253.6 248.7 248.3 242.8 236.4 232.5 227.2 224.7 222.2 221.3 216.8 216.5 208.4 204.2 202.3 203.4 202.7 201.7 199.9 198.6 191.6 174.6 165 156.8 145 176 180.5 193.8 198.6 199.5 198.7 195.6 193 192.1 192.3 192.2 191.7 190.9 188.6 188.7 188.4 187.2 187.3 186.7 185.1 184 180.9 187.9 188 188.8 192.8 193.8 194.3 192.3 191.7 188.5 187.3 188.2 189.2 188.1 186.9 185.4 183.9 182.1 181.4
161.8 167.5 170.4 175.5 180.8 183.7 184.7 186 188 189.2 191 192.4 191.3 195.3 198.8 205.6 212.2 219.3 223.9 229 237 237.3 232.3 226.4 224.5 219.4 216.2 217.5 220.8 223.7 226 230.7 231.6 236.5 239.2 240.9 240.6 237.4 227.4 223.3 226.9 230.3 230.8 228.4 226.4 227.3 234.4 245.7 249.1 250.6 250.2 253.7 259.1 263.8 268.1 268.7 267.9 272.1 274.2 276.5 278.6 280.8 283.7 281.1 276.7 272.3 265.6 260.1 263.4 265.9 266.3 271.1 274.9 283.7 291.2 291.1 290 287.9 284.6 280.8 277.5 274.9 272 267.7 266.6 263.9 262.6 259.2 257.7 256.1 255.3 250.9 246.1 247.1 257.2 261.8 263.3 263.8 263.1 262.3 261.1 257.4 249.5 242.2 233.9 230.4 223.7 211.8 211.7 211.7 211.7 211.7 211.7 212.7 218.4 221.7 224 224.9 223.8 222.2 215.4 221.6 222.8 219.7 228.5 240.6 256.6 260.5 267.9 268.7 267.2 265.3 264.8 265.3 264 260.1 255.7 251.4 248.5 245.5 241.2 237.4 233.2 225.9 219.9 209.5 203.9 202.8 201.8 199.4 200.9 201.9 200.8 201.4 201.4 197.3 187 173.7 160.8 142.6 162.5 182.8 191.8 194.5 195.2 194.6 192 189.3 187 187.2 188.7 188.8 186.6 182.3 182 181.1 181.1 181.6 182.7 181.9 179.5 179 179 183.8 184.9 187 187.2 192.4 188.8 185.9 184.9 185 185.7 186.8 187.2 187.8 185 182 180.8 180.9
155.9 166.8 173.8 170.5 174.2 178 183.1 183.8 186.1 187.5 188.6 189.1 189.6 193 196.7 203.9 212 216.6 221.4 226.2 229.6 235.2 233.4 227.1 223 219.4 215.9 218.2 220.8 224.1 224.7 226.1 228.2 232.5 236.1 238.2 237.6 231.4 223.1 221.7 225.5 228.8 230.5 231.5 224.4 225.8 226.3 233.1 242.9 247.4 251.1 249.5 258 262.9 266 269.1 269.1 269.6 271.9 276.4 279.5 281.9 284.9 281 276.7 273.1 268.4 265 258.7 261.6 263.7 267.5 270.4 276.6 284.1 285.7 284.1 282.3 279.8 276.8 273.4 270.4 268.1 265.9 264.1 261.1 259.1 255 254.9 254 253.3 251.5 241.8 241.7 252.7 257.2 258.2 259 258.6 258.9 257.9 251.5 247.1 240 234.8 227.8 222.3 215.9 206.3 205.7 204.7 202.9 203.1 213.3 216.2 217.1 219 219.7 220.8 219.7 212.1 218.1 218.4 216.7 217.2 227.9 241.1 245 253.2 261.3 261.9 259.7 259.1 259.4 259.1 256.4 253.1 248.6 245.3 242.8 240.4 238.7 235.2 226.9 221.2 214.3 206.1 201.7 197.5 194.6 199.1 200.7 200.1 200.8 201 197.8 195 180 162.1 143.3 151.1 174 183.4 189.9 190.6 192 189.7 186.7 183.3 183.5 184.5 184.6 181.7 177.7 176.7 176.1 176.6 175.7 175.4 174.9 175.4 175.1 176.9 177.9 178 182.4 187.2 188.3 186.5 183.2 182.1 183.2 183.4 183.7 183.9 183.7 182.5 180.4 179.1 178.5
160.9 164.4 165.1 176.3 170.8 174.6 181 182 184.4 185.3 185.6 185 187.4 190.5 194.4 204.4 211.9 215.6 218.7 224.6 232 228 232.9 227.8 223.3 219.6 215.9 216.6 219.5 222.6 222.6 223.2 224.6 227.2 232.4 234 230.8 222.5 219.3 222 224.4 227.2 228.4 227.6 222.9 224.6 223.9 224 232.9 246.6 249 246.8 257.2 263.2 266 268.7 268.6 271.2 271.8 275.9 280 283.2 285.3 282.3 278.4 273.6 270 267.2 262.6 257.6 260.2 263.4 265.5 269.2 275.3 279.1 278.9 277.3 275.1 272.2 268.9 267 264.3 262.3 259.3 257.8 254.6 252.9 252 251 251.5 247.9 239.2 233.8 247.8 251.5 252.7 253.5 254.4 253.3 251 247.6 241.2 236.2 229.5 225 220.4 216 195.3 193.9 194.6 194.4 200.7 210.8 212.2 212.8 213.6 213.2 214.9 214.9 210.2 215.6 215.4 213.2 208.1 216.7 225.4 232 238.2 244.5 253.4 253.8 252.3 252.7 251.8 250.8 248.5 245.5 241.6 238.3 233.5 231.6 230.4 225.2 217.1 211.6 205.7 203.5 202.7 199.2 189.7 197.9 196 196.8 197.4 194.3 193.5 191.5 174.6 146.8 145.7 159.6 173.1 182.7 185.9 187.2 186.3 183.4 182.1 174.3 173.9 178.6 176 174.4 174 172.5 172.8 172.7 172.1 172.4 171.2 172.4 171.8 171.8 174.5 179.4 179.6 182.4 180.2 179.8 179 181 180.3 179.2 181.6 179 178.1 177.2 177.2 177.3
163.2 167 172.8 176.2 177.2 171 173.8 180.9 181.7 182.4 182.7 182.6 184.6 188 189.9 195.9 206 214.3 216.5 221.7 233 232.8 225.5 228.2 223.4 219.4 215.9 215.4 218.7 219.9 221.3 221.3 221.6 224.8 227.7 229.3 222.4 217.6 219.8 222.4 223.5 225.4 226.7 222.4 222.4 222.4 222.6 222 225.2 238.7 247.9 247.7 255.8 263.5 266.7 268 271.8 269.3 271.9 278.6 280.8 285.5 286.7 283.8 279.7 275.3 272.5 269.4 266.2 260.2 254.9 257.2 259.8 263.2 268.1 272.9 272.8 272.4 271.1 267.9 265.4 263.9 260.8 258.4 256 255.4 252.7 251.3 251.3 249.3 246.5 245.4 237.4 230.7 243 243.6 244.1 247.3 247.6 246.9 243.5 238.3 234.2 231.3 226.1 223.2 220 215.8 200.6 182.5 185.9 189.4 202.2 206.6 208.6 209.7 208.1 208.5 210.7 211 207.7 211.8 212 208.9 205.2 206.2 212.8 219.7 225.7 232.7 239.3 244.5 245.5 244.1 242.3 241.7 240.1 238.9 236 231.5 228.8 228.1 226.3 221.5 213.7 210.5 206.8 202.7 201.6 198.2 195.5 186.3 194.4 192.5 192 192.2 192.2 189.1 172.1 149.8 143.3 147.3 163 172.1 180.9 182.1 182.6 180.9 178.8 177.8 175 170.8 170.7 170.4 169.4 169.2 169.3 169.9 169.8 170.3 169.7 170 169.1 167.5 171 171.6 175.7 176.8 177.5 176.6 178.8 178.2 175.9 173.9 173.2 172.5 173.1 173.7 174.4 174.9
147.1 153.9 159.8 166.9 172.9 177.2 170.6 172.2 179.2 179.8 180 179.5 182.9 184.5 187.7 192.8 202 212.2 214.3 217.9 227.9 229.3 228.6 223.1 222.2 219.8 216.1 214.3 216.6 219.7 220.4 219.7 219.2 222.4 224.8 223.3 217.6 214.8 219.7 221 221.6 224.5 224.9 225.5 224.7 225.9 221.2 223.2 221.7 229.2 244.6 246.2 255.2 263.5 265.1 265.9 267.5 269.3 276.3 279.7 282.1 286.4 288.3 286.1 283.8 281.8 279.4 275.4 271.3 266.3 259.1 255.4 255.1 257.5 262 266.2 267.5 267.4 266.3 264.5 262.4 260.5 257.1 254.4 252.2 253.3 251.6 249.3 247.7 246.9 242.7 241.9 235 229.6 234.6 235.2 235.2 235.4 235.4 236 233.4 228.1 227.2 225.6 222.2 220.3 218.5 214.5 204.7 176.8 178 185.8 197 201.1 203.8 205.6 204.5 205.5 206.3 202.6 207.2 207.9 208.8 205.7 202.4 199.6 202.6 206.8 214.3 220.4 224.3 228.2 233.2 235.5 234.9 233.5 231 229.1 228.9 226.5 224.7 221.9 217.8 216 218 214.4 208 203.8 199.6 197.8 195 190.1 187.7 189.1 187.9 189.4 189.4 185.4 181.2 160.9 145.9 142.7 151.1 162.4 173.5 175.3 177.1 177.8 175.7 174.3 172.8 170.3 165.3 168.2 163.3 168.1 164.5 166.1 166.3 167 166.1 166 166.7 165.9 166.2 165.9 165.6 169.7 174.7 174.7 173.6 173.8 173.2 170.9 170.7 169.2 169.6 171 172.6 172.3
164.8 164.4 165.7 170.2 172.6 175.8 176.8 170.2 174.1 177.6 177.4 175.5 180.5 180.2 185.3 191.6 197.9 209.8 212.3 215.9 223 227.4 225.4 223.1 221 219 215.3 212.6 215.8 216.7 217.2 216.4 216.4 218.3 219.8 220.7 218.3 213.1 217.6 222.2 223.2 222.4 222.4 223.5 229.4 229.2 225.2 223.8 221.1 226.3 236.5 241.6 250.9 260.2 265.7 269.4 270.7 270.3 277.9 283 285 288.7 291.4 291.3 293.3 294 292.3 288.6 282.6 274.3 266.4 257.5 251.9 253.9 256.8 261.2 263.5 263.2 262.7 261.5 259.4 255.1 253 251.7 248.3 248.2 245 243.4 242.9 240.9 239.1 235.5 232.5 225.1 228 231.1 233 232.5 233.5 230.5 223 221.2 222.3 218.5 218.4 217.5 216.6 209.5 204.7 182.8 177.4 177.6 194.9 198.7 201.9 201.8 201.1 202.5 202.7 198.9 204.3 205 205.2 204.5 200.6 195 195.8 198.9 203.6 208.3 212.3 216.4 220.3 225.5 225.9 223.9 220.4 219.5 220 220 217.4 215.1 212.8 214.7 214.7 211.1 206.9 200.2 197 196.4 194 192.5 184.5 185.4 184.6 185.6 185.8 182.6 180.2 170.8 157.2 149.2 141 150.4 158.8 175.4 174.9 174.8 174.6 173.7 169.9 169.8 169.1 163.5 163.1 162.6 163.7 164.2 163.1 162.7 163.5 163.7 163.2 164.7 165.3 165.1 164.1 164.5 172.7 172.5 171.1 169.5 167.4 164 163.6 166.4 166.7 168.8 170.9 170.4
170.7 171.9 172.9 173.2 172.6 174 174.8 174.9 169.8 175.8 175.7 172.2 175.3 179.2 183 191.8 194.3 207.9 211.4 214.6 219.9 223.9 222.8 221 219.2 217.7 214.2 213.3 216.9 217 215.1 213.5 214.6 214 213.3 215.9 214.6 215.9 222.9 225.6 226.9 226.4 226.4 231.4 230.5 220.6 223.8 223.8 223.2 224.3 228.9 237.6 247.9 260.6 269 273.8 273.5 274.9 278.2 282.4 286.5 290.3 294.5 296.4 302.3 302.7 300.8 296.3 290.2 283.6 276 267.8 257.9 252 253 257.7 259.1 259.9 260 257 254.1 251.7 250.2 249.1 242.1 240.5 239.4 238.5 238.2 236 231.8 230.9 228.3 224.1 223.8 223.9 226 228.2 228.4 225.1 220.5 218.6 216.8 213.6 214 214.1 209.1 205.7 202.8 191.1 177.6 177.6 182.7 196.6 198.4 197.6 197.2 198.8 199 200.6 201.4 201.5 200.3 200.6 198 193.4 188 190.3 193.3 195.3 201.4 206.7 211.2 216 217.6 216.4 215.4 213.2 212.8 212.1 212 210.6 210 209.1 206 203.3 201.3 199.4 195.9 192.7 192.4 189 186.9 176.4 181.8 180.2 181.1 179.6 176.6 175.2 163.1 155.2 145.7 142.9 151.6 161.3 174.7 173.8 172.1 170.7 170 168.3 166.8 164.8 163.3 162.8 162.1 162.4 160.5 158.6 160.9 160.4 159.5 160.6 160.1 160.3 161.2 160.2 160.4 170.8 160 162 162.5 161.9 162 162.8 162.3 164.8 168.8 168.5
169.6 171.4 172.4 172.7 172.9 172.4 172.7 172.1 171 169.2 174.2 172.2 175 176.8 180.6 188.2 196.9 205 208 214.1 217.7 219.9 219 218.2 216.9 215.2 212.9 214.7 216.9 216.5 215.6 213.2 206.1 211.6 209.3 212.1 209.6 219.6 224.4 227.1 228.8 230.2 230.9 232.5 231.6 220.4 223.8 223.8 233.1 241.8 240 249.4 254.7 265.5 273.7 277.2 278.2 275.5 278.5 283.3 287.5 292.3 300.4 301.1 303.2 303.7 300.9 296.4 291.4 285.7 279.6 273.8 266.6 258.1 250.9 247.5 250.7 254.4 254.4 252.9 249.9 246.2 245.2 242.6 236.4 236.2 236.1 236 233.8 232.2 228.3 226.1 225.3 222.2 218.3 219.9 221.2 223.2 224.1 221.8 220.2 219.1 214.9 211.3 210 211.1 208.8 204.5 203.2 194.6 181.3 177.6 178.6 186.8 195 195.2 194.4 194.5 192.6 196.7 197.5 198.7 196.1 193.6 191.4 188.9 182.7 183.5 184.4 185.7 189.8 195.8 202.5 208.6 212.3 211.3 208.4 207.1 207.3 208.2 207.3 205.7 204.1 202.5 200.1 198 198 195.7 190.1 189.8 188.5 186.8 183.3 180 174.4 177.2 178 176.4 174.6 173.7 172.9 157.1 143.9 139.9 145.7 156 171.1 172.6 172.4 168.1 168.4 168.1 167.6 165 163.2 157.6 160.7 159.9 158.1 157 157.3 157.1 157.7 158.2 159 159.9 160.6 161.5 162.1 168 169 165.9 162 161.4 160.5 157.3 160.2 161.4 163.8 167.1
167.2 170.1 170.9 171.6 171.9 170.8 169.7 168.8 169 171.3 168.6 170.3 174.2 177.4 182.2 186.3 196.2 202.7 206.9 213.4 216.1 216.2 215.4 214.9 214.9 213.7 210.9 214 215.1 217 214.1 212.3 207.3 207.6 208 206.3 214.7 220.7 224.6 227.8 230.5 231.2 232.3 233.3 231.9 218.4 219.2 232.4 243.8 256.9 244.4 249.1 262.1 271.7 277.5 280.9 280.5 279.2 276.9 282.7 288 294.4 294.9 298.5 302.1 301.8 297.1 293.5 289.2 283.8 278.2 273.6 268.3 263.7 259.4 254.1 249.9 240.2 249.7 249.1 247.7 239.6 237.4 234.3 232.6 232.9 233.7 233.9 232.3 229.9 225.5 223.5 223.6 223.5 221.5 212.6 216.4 217.8 219.3 220.2 218.4 217.7 214.9 210 207.8 206.6 204.2 200.8 199.7 191.3 185.8 186.1 178 180.1 192.2 193.3 193 191.8 189.3 191.6 194.7 195.1 192.9 190 187.9 184.9 181.3 176.1 178.6 178.4 181.3 185.8 193.7 199.5 204 204 202.3 200.8 201.2 200.7 201.2 199.5 197.8 196 194.4 193 191.7 190.4 187.5 186 185.3 184.1 180.8 175.8 169.2 173.3 175.3 174.5 171.8 172.5 172.2 161.7 152.1 141.5 139.9 151.4 163.1 169.2 171.1 167 167.1 167.9 165.5 164.8 160.9 156.6 155.7 156.3 155.9 154.1 155.5 159.2 158.8 159.8 160.1 160.7 161 161.4 162.7 165.3 168.9 167.1 163.2 161.6 160.7 158.6 155.6 157.7 159.7 162.2
165.1 169.8 170.6 171.1 170.6 170 168.5 167.4 167.1 168.9 167.6 169.9 175 182 186.3 187.5 196.7 200.7 205.8 212.5 214.8 213.9 212.3 212.2 211.5 210.4 209.4 210.9 211.1 210.7 209.3 207.4 206.1 205.2 206.3 208.3 215.9 220.3 224.4 228 230.3 231.7 232.8 234.4 221.1 215.7 216.5 236.1 253.2 260.7 249 247 260.1 273.7 279.8 283.4 282.6 281.1 276.6 279 283.3 287.7 291.9 296.9 301 300.6 295.4 290 284.8 280.2 275.9 271.8 268.1 264.3 261.3 258 254.9 252.4 248.1 234.5 245.1 237.2 232.8 231.4 229.6 229.4 229.3 227.1 228.5 227.3 224.6 222.1 223 222.9 220.5 214.6 209.5 210.1 210 209.9 212.7 214.3 212.6 207.5 205.9 200.8 200.8 198.3 197.3 194.7 189.6 185.8 171.6 169.6 183.5 188.9 190.9 190.3 188.6 190.6 189.9 191.6 189.4 187.4 185 182.8 179.9 177.3 175.1 173.3 175.7 177.8 182.3 190.7 194.9 196.7 195.6 194.7 196.3 195.5 194.1 193.3 192 190.3 189.5 187 185.2 183.7 181.9 181.4 181 180.1 177.3 172.7 171.8 171.1 173.6 174.2 169.2 170.1 169.5 168.7 157.1 143.9 140.7 148.4 155.3 165.9 166.2 164.8 162.8 162.1 160.7 160.3 158.9 154.9 151.3 152 152.1 152.9 158.2 162.3 163.8 164.9 161.1 161.5 162.1 163 163.3 168.1 172.7 168.6 164.6 162.5 160.9 156.3 155.4 154.2 156.9 159.6
164.1 169.1 170.2 170.8 170.3 169.2 167.8 167.5 164.5 165.7 165.8 167.9 168.5 179.5 187.4 192.8 195.8 198.4 203.1 209 211.8 211.7 210 209.3 208.2 205.8 207 205.9 206.1 199.7 198.9 201.1 204 204.8 203.5 209.3 215.6 219.9 224.1 227.8 228.9 231.3 233.9 237.9 235.6 215.5 217.7 235.3 255.6 264.5 261.8 253.4 255.1 271.6 280 283.6 281.9 273.9 275 273.2 269.2 286.5 292.5 300.2 302 298.7 293.4 287.4 282.5 277.6 274.3 271.1 268.4 265.1 261.7 257.1 254.1 251.5 249.1 236.9 242.9 235.3 233.9 228.1 226.1 224.9 225.5 225.5 224.8 224.2 223.1 220.9 221.1 221 218.4 213.3 209.4 206.9 206.5 207.5 208.9 209.7 208.7 205.7 204.1 203 202.1 200.6 199.3 197.4 188.1 186.5 170.3 167 173.6 180.1 186.1 185.5 189.5 189.2 188.6 186.5 186.6 183.4 182.1 180 177.9 175.8 173.3 169 171.5 172.3 176.5 183.2 186.5 188.2 187.8 188.2 188.6 189.2 187.6 186.8 186.3 185.4 184.2 182.8 181.5 180.3 177.5 177.5 177.5 175.4 174.7 171.3 168.9 168.2 171.4 169 167.4 166 166.2 164 154.1 144.7 139.7 145.1 150.4 153.5 155.9 158.9 161.6 159.5 158.7 159 157.6 154.5 151.5 150.7 151.6 153.3 161.4 165.9 169.9 176.9 183.9 163.4 162.6 165.2 168.3 175.5 176.3 172.7 167.1 164.1 163.5 155.6 155 154 155 156.7
162.7 168.1 168.3 169.7 169.2 167.9 166.8 164.9 164.4 164.8 162.7 167.8 169 170.4 183.2 189 192.7 195.9 201.4 209.3 209 208.8 207.8 206.8 206.3 200.1 204 198.1 190.9 191.3 192.5 189 201.2 202.4 203.6 210.4 216.8 221.1 225.3 229.3 231.2 233.7 237 240.5 244.3 221.5 213.6 224 243.2 256.7 257.2 253.7 250 269.2 280.4 279.8 275.1 269.9 267.4 266 263.8 284.3 295.2 303.9 304.2 298.5 291.6 285.8 280.1 276.9 273.9 270 268 265.7 262.4 256.8 251 247.4 245.6 229.1 236.5 232.8 230.9 226.9 224.5 223.8 222 224.1 224.7 224.2 222.2 219.5 218.6 218.1 217.1 211 208.6 206.8 204.9 205.8 207.3 208.3 206.9 205.8 204.1 202.6 201.6 199.6 198.3 197 192.9 182.1 168 164.9 163.7 163.3 173.6 176.4 186.1 186.9 186.1 184.7 182.7 181.1 178.2 175.4 174 171.7 171.3 169.6 167.7 169.3 172.1 176.3 179.5 180.7 181.4 183.5 184.5 184.4 182.9 182.2 182.4 182.1 180.8 178.8 178.2 177.4 174.4 173.5 173.7 172.4 171.8 169.3 166.6 163.9 167.9 165.2 162.1 160.6 160.6 159.4 151.8 142.2 139.7 141.1 144.2 146.5 145.5 159 160.5 158.7 158.4 158.4 158 153.4 148.1 147.9 151.3 156.8 162.8 169 180.6 187.8 187.4 173.9 169.8 176 184.9 182.2 178.2 175.2 169.7 165.6 162.5 160.4 154.9 153.9 153.4 155.1
161.2 166.1 168.6 168.2 168.3 167.2 164.9 164 163.3 162.6 160.3 156.8 169.4 165.4 177.5 182 188.3 193.1 200.3 207.4 206 204.9 202.8 201.2 200.2 194.7 192.8 183 185.4 186.4 185.3 194.6 200.9 204.4 207.6 211.7 217.2 222.3 225.8 229.4 232 235.3 239.5 243.4 248 230.2 218.6 215.2 223 235.2 244.5 249 246.6 267.8 277.1 273.1 266.3 266.3 263.7 261.5 261.3 274.7 297 303.5 304.2 298.6 293 287.5 282.1 279 274.3 269.6 265.8 263 260.7 257.5 254 252.2 246 234.6 229.2 223.7 226.9 226.5 224 222.6 221.5 223 223 222.3 219.5 216.7 218.1 215.9 214 211.1 208.6 206.7 205.4 205 207.5 207.7 209 206.7 204.5 203.6 201.3 199.3 196.4 193.7 191 188.1 175.9 166.6 164.7 165.2 161 178.2 181.5 184 183.8 182.5 179.5 175.9 173.1 171.5 168.5 167 167.3 167.1 165.3 165.5 169 172.4 175.9 176.9 179.2 182 181.5 181.3 180.2 179.5 179.1 178.8 177.7 175.8 174.3 173.5 172.6 171.5 170.6 169.4 168.7 167.2 165.5 161.6 159.4 159 158.7 157.5 156 155.5 153 143.6 136.4 137.9 139 143.2 144.8 155.6 158.1 156.8 158 158.2 158 148.8 144.1 146.7 151.3 159 167.8 176.8 186.1 189.3 188.9 186.1 186 186.4 185.6 183.5 180.2 176.8 170 169 165.1 161.7 156.8 154.3 153.6 154.3
157.8 162 167.2 166.9 166.7 166.1 164 163.2 162.5 161.2 158.3 158.5 161.8 170.6 173.7 177.7 186.3 190 198.5 203.8 202.1 199.3 198.4 196.7 194.2 188.9 179 177.7 178.4 176.5 186.6 196.4 203.1 206.3 208.5 211.1 215.7 221 226.3 230.1 233.5 237.8 241.7 245.4 248.4 236.5 218.7 218.6 216.4 218.3 234.9 241.6 241 258.9 266.5 263.2 260.6 262.3 261 260.9 260.4 271.8 294.9 303.4 304.6 298.7 294 289.6 282.9 278.2 275 270.9 267 262.3 258.8 255.4 254.7 252.6 247 235.4 234.2 229.4 220 225 223.6 221.4 220.7 219.6 219.2 217.2 216.3 214.2 215.1 214.3 213.3 211.4 209.6 208 202.5 205.4 207 206.4 205.3 205.2 205.9 204.8 202.1 199.1 196.1 193 187.2 184.9 183 181.3 175.5 169.9 156.5 161.8 174 179.4 180.5 179.1 177.3 173.1 169.3 169.3 167.7 166.5 164.8 164.5 163.8 163.3 164.4 166.6 169.8 174.7 177.8 180.1 179.7 178.1 178.5 176.9 176.9 176.3 174.6 172.7 171.4 171.2 165.9 168 167.8 166.3 165.6 165.9 163.9 157.2 156.3 155.2 156.3 154.6 153.2 152.7 149.6 140.7 138.1 135.6 135.1 143.1 144.3 143.2 146.1 145.8 151.8 154.1 151 143 142.8 146.2 149.5 161.6 173.2 182.6 187 188 184.8 183.5 184.3 184.9 184.2 182.4 180.7 177.3 175.1 170.8 164.4 162 158.8 154.7 154.7 153.3
154.9 158.1 163.4 166.5 165.6 164.5 161.9 161.7 161 159.7 155.8 154.6 160.5 166.8 171.5 174.6 184.3 188.6 193.8 199.2 198 195.8 193.8 192.6 188.1 177.3 173.3 171.3 173.6 182.1 196.4 200.9 202.7 205.8 207.7 209.5 212.8 219.6 225.4 230.3 234.6 239 242.6 245.1 242.2 234.9 231.1 218.6 218 211.5 224.9 232.5 239.4 246.7 261.3 257.6 256.9 258.3 257.9 258.7 259 269.5 290 299.9 303.6 300.1 293.9 288.6 283.9 278.9 274.6 271.7 266.4 262.3 260.2 258.1 254.2 248.5 244.6 235.2 230.1 226.9 219 226.7 222.9 220.1 218.2 217.1 216.5 214.6 213.3 211.8 212.1 213.1 213.3 212.3 210 208.9 203.4 205 205.5 204.3 203.2 203.9 204.2 203 201.4 197.9 194.5 187.9 183.5 178 178.6 175.7 175 172 166.2 158.6 167.9 173.8 174.5 173.4 169.2 168.5 168.7 169.5 169 167.6 166.5 164.8 162.6 161.9 162.2 165.3 167.7 169.4 175.6 176.6 177.5 175.7 175.2 173.5 173.4 173.8 172.9 168.9 168.7 167.2 164.8 165.8 165.5 163.6 164 157.5 157 153 152.8 151.5 151.1 152.2 150.8 150.1 149.1 139.9 138.3 135.4 134.9 138.1 139.5 139.5 139.5 139.9 147.9 150.6 146.5 138.3 141.8 146.7 159 167.1 176.5 183 185.6 184.6 183.5 181 181.5 181.9 181.6 178.9 177.6 174.5 170.9 168.5 165.9 162.3 158.8 156.6 154.2 151.9
153.2 154.9 158.4 164.7 164.5 162.8 159.9 159.4 159.2 157.6 154.2 153.6 158.8 163.1 171.1 174 183 187.7 191.8 194.7 193.6 192 190.4 188.3 182.6 167.7 167.6 173.5 179.9 193.3 198.8 200.8 202.2 204 205.6 207.9 210.7 216 222.8 228.4 233.8 238.2 239.3 237.5 235 233.1 231.4 230.1 215.2 210.5 215.3 221.9 236.5 240.6 256.8 254.1 253.2 252.5 253.9 257.4 257.9 266.7 284.6 295.1 299 296.3 292.1 287.2 284.1 279.3 274.1 270.5 265.6 266.4 264.1 260.4 257.5 245.6 240.1 239.9 232.8 226.9 221.8 218.8 217 219.4 213.4 207.1 202 204.7 209.4 210.3 210.7 211 211.8 211.4 210.2 208 201.2 202.6 203.8 202.6 201.7 201.2 200.1 195.6 195.3 190.7 186.9 184.4 179 173.3 171.4 172.2 172.1 172 164.7 158.8 167.8 168.3 168.7 168.5 168 168.2 168.5 169.3 168.3 167.3 166.1 165.3 163.1 161.9 161.2 162 165.6 168.2 168.9 173 173.8 173.4 171.1 170.1 169.7 173.7 172.5 168.8 165.5 163 161.8 162.5 165.4 163.2 157.3 156.9 157.1 156.4 152.5 148.2 150.7 150.7 148.5 148.7 148.8 140.7 138.5 134.7 135.1 135.1 139 139 139.1 140.7 143.6 148.9 146.2 133.9 142.5 152 161.3 169.8 177.4 181.5 182.8 180.9 180.1 177 179.3 178.6 177.1 176.2 172 169.9 168.4 163.8 161.7 160.6 157.9 155.2 153.6 150.5
151.5 153.2 155.1 160.1 162.5 160.2 157.6 156.4 156.6 155.3 153 152.5 158.1 162.8 168.7 172.4 180.5 187.5 190 190.3 188.6 186.4 184.8 182.3 176.8 165.2 166.9 180.3 189.1 194.7 197.6 198.9 200.6 202.3 203.6 205.6 209.1 213.1 219.6 224.6 229.1 231.5 230.4 230.8 227.2 226.3 227 228.2 227.4 207.8 207.5 208.6 220.8 236 241.6 244.1 249.2 249.2 249.5 255.7 256.2 261.5 279.1 293.8 292.5 290.5 288.3 283.8 280.9 277.7 273.4 267.6 268.4 266.6 264.5 261 251.2 240.3 249.2 247.5 239 226.5 225.1 222.4 217.5 211.3 208.2 217.1 216.1 207.8 203.4 208.7 211.9 211.8 211.1 209.9 209.3 207.4 199 198.4 200.9 199.8 198.3 195.6 194.2 191 190 187 183.6 180.2 175.4 171 167.8 169 166.8 160.9 154.3 157.7 167.2 167.7 168.2 167.9 167.7 168 167.8 167.6 167 167.3 166.8 166.1 163.5 162.7 160.9 160.6 160.8 162.3 167 169.1 170.8 169.2 168.9 169.9 171.1 173.5 170.1 165.6 161.3 158.9 158.4 155.4 164 162.5 157.3 156.6 156.2 149.5 147.4 145.8 143.7 148.8 147.2 148.6 148.6 142.6 135.4 134.2 134.8 132.9 133.7 133.8 133.9 137 142.5 144.6 145.1 135.3 148.3 159.4 164.1 172.1 175.7 179.5 178.3 176.1 175.5 174 176.1 174.3 173.5 170.5 168.7 166.5 164.3 161.9 160.2 159.4 157.7 156.6 153.4 150.1
149.9 151.8 153.9 156 157.6 156.4 154.8 153.6 153.7 153 149 152 156.8 162.8 169.8 174.3 172.6 183.2 189.2 187 183.8 180.8 178.4 176.3 170.5 161.8 171.7 183.6 188.7 191.9 195.2 196.7 198.7 200.8 201.1 202.1 206.5 210.1 215.6 221.4 225.4 226.4 225.8 222.4 221 221.6 223.9 225.9 230.5 221.4 205.6 206 207.3 215.4 224.6 231.7 240.8 242.9 245.6 252.6 252.3 257.1 274 284.3 281.3 284.3 281.9 279.3 274.3 271.2 270.5 268.5 266.3 263.5 261 256.8 243.5 241.1 246.1 244.3 239.3 230.6 224.7 221.5 222.3 220.2 217.9 218.8 215.1 207.9 198.7 208.7 209.5 210.9 210.1 209.3 207.7 202.2 197.3 190.9 194.2 193.1 191.4 190 189.3 187.5 184.5 181.6 178.9 174.8 170.4 167.8 165.4 163.7 160.6 155.5 154.8 158.7 167.6 168.2 168.1 168.4 168.4 168.8 170.4 172.6 174.7 175.4 167.8 167.8 163.9 163 160.6 160 159.5 159.6 160.5 160.9 165 165.5 165.5 168.7 170.6 169.9 165.9 161.9 159.4 156.2 154.3 152.8 154 151.6 152.4 154.6 154.4 152.1 153 152.5 150.3 151.7 149.9 149.1 149.2 148.6 146.3 140.3 135.6 132.2 132.7 132.9 132.6 134.9 129.9 134.5 145.1 131.1 156.9 161.8 167.1 171.1 173.9 175.8 173.6 172.7 170.7 171 172.5 172.2 171.1 169.6 167.7 165.6 162.8 160.4 159.4 156.7 156.8 153.9 153.4 150.2
148.4 152.4 154.3 154.5 153.8 152.5 151.3 151.8 152.2 152.6 150.5 150.9 155.5 163 168.7 172.1 180.3 172.6 184.3 183.4 180.3 176.5 173.4 169.9 164.5 162.7 173.4 180.5 185.2 190 192.1 194.5 197.3 199.3 200.7 202.3 205.5 208.1 212.2 219.4 222.4 222.8 220.1 220.4 220.6 221.6 222.8 223.7 227.8 229.8 225.5 212.5 204.1 204.2 212.1 221.4 231 235.5 243.8 235.6 251.7 256.7 260.4 258.6 261.4 266.2 260.7 256.6 260.7 268.5 267.2 266.5 263.9 259.7 254 249.4 247.2 237.9 232.2 231.4 232.4 226.6 221 224.8 225.6 223 221.3 218.3 211.3 204.2 199.3 205.1 204.2 203.8 205.3 206.1 204.3 198.3 193.8 181.1 187.7 187.3 186.8 186.2 186.2 185 181.7 178 175.5 172 167.3 164.9 162.8 159.8 154.5 153.8 160.8 165.4 170.7 170.3 172.7 174.1 179.2 184.2 184.9 188.6 184.4 180.2 182.1 180.7 167.7 163.5 160.4 160.5 159 157.9 157.6 159 159.8 160.3 161.7 165.5 167.4 165.9 162.7 160 157.8 155.7 154.7 163.7 163.6 164.3 165.5 163.6 164.5 161.3 158.8 155.5 153.6 151.6 150.8 149.8 149.5 148.7 147.5 145.1 144.1 141.9 134.4 132.5 131.8 131.8 131.8 130.5 131.8 143.2 158.1 162.2 166.7 168.8 169.4 170 169.3 168.2 168.3 169.6 171.3 171.3 170.2 168.7 166.1 164.8 161.2 159.1 157.7 156.8 155.4 153.3 152.4 149.9
149.9 152.8 154.3 154.6 151.4 149.2 149 149.4 150.7 151.4 150.8 149.2 153.8 163.3 166.3 169.6 177.9 179.2 172.3 179.9 177.3 172.5 169.5 165.3 158.9 165.2 170.9 175.9 180.6 185.7 188.8 193.6 195.1 196.8 199 200.5 202.7 204.4 209.8 217 219.3 218.6 217.8 219.5 220.7 221.8 222.3 223.1 224.3 227.4 229.7 232.3 222.5 204.3 204.8 208.2 217.3 232.8 227.5 239.7 250.7 258.3 260.1 269.7 277.7 264.9 255.7 261.4 257.5 251.8 259.5 262.4 260.8 253.9 251.3 248.4 246.4 242.7 233.4 226.8 227.3 230.2 229.1 221.2 215.9 216.5 216.1 212.7 208.8 199.8 196.8 200.2 200.2 198.9 198.1 198.1 197.6 192.6 189.3 182.9 183 181.7 181.4 181.5 179.7 178.2 177.2 175.4 174.6 171.8 166.3 161.9 153.5 152.3 153 153.9 171.5 175.4 179.5 181.1 183.1 183.9 185.5 182.5 183.2 191.6 190.9 189.5 177.6 179.8 173.1 169.5 162.7 161.9 159.8 158.2 157.7 156.5 156.9 158.4 158.4 160.7 162.3 161.3 159.6 157.3 156.7 155.4 157.7 162.5 164.3 166.1 167 166.4 164.7 161.3 157.9 154.7 153 151.3 150.1 149 148.4 148.2 147 144.9 145.2 143.9 144.6 139.7 136.1 134.8 134.6 126.9 128.8 151.6 160.1 162.8 165.3 166.8 168.9 169.5 167.7 166.7 168.7 170.2 170.7 171 169.3 167.7 166.1 163.5 160.6 158 156.5 155.8 154.1 152.5 150.4 149
150.3 154.4 155.8 152.4 148.4 146.3 146.9 147.7 148.1 149.7 150.6 147.2 151.4 160.4 163.7 166.6 174.1 170.5 175.2 171.6 171.3 170.2 167.1 159.8 156.7 165.2 167.6 171.1 175.8 181.3 185.7 189.6 189.3 192.4 196.2 198.3 199.7 201.2 207.7 213.9 212.1 213.3 216.2 218.2 219.6 220.6 221.9 222.2 222.5 225.6 228.7 233 232.2 218.9 205.9 201.9 203 216 222.8 241.6 251.6 260 268.5 276.8 279 276.8 274.3 269.2 264.2 262.8 248.6 244.6 253.2 252.2 250.8 247.5 240.3 229.9 226.9 226.1 224.5 225.5 226.8 223.2 220.6 215.5 210.6 203.9 203.3 199.6 191.9 197.3 198.4 196.6 194.8 194.6 193.2 190.4 187.4 185.1 179.6 178.6 175.8 177.3 174.4 173.6 172.8 171.7 172.7 171.6 167.6 160.7 152.8 152.2 155.3 174.7 182.9 186.9 187.7 187.6 186 187 188.1 189.4 189.8 190.9 191.1 190 187.4 184.9 181.6 178.5 171.3 163.9 161.2 159.6 157.5 156.1 156.4 156.5 157.3 158.1 157.5 157.1 156.3 155.8 154.8 156.8 157.5 160.1 164.4 166.4 165.9 164.4 163.2 156 153.9 154.3 152.5 149.8 148.5 147.8 147.4 145.7 145.4 144.5 144.4 144.5 145.5 147.4 147.6 145.4 129.1 135.9 152.4 154.2 160 161 163.4 164.7 166.7 164.8 163.5 164.4 167.8 169.9 170.2 168.4 167.6 166.5 164.2 162 159.2 156.7 155.4 154.2 152.1 151.1 149.6 148.2
149.8 153.9 155.8 149.5 145 143.8 145.3 146.6 146 150.5 151.7 146.3 149.1 156.9 158.7 160.8 163.8 169.3 168.6 166.2 170.8 165.5 161.1 155.8 157 164 165.3 167.7 172.3 177.3 180.3 183.4 184.7 187.5 190.6 195 197.1 198.5 205.6 205.8 214.4 216 216.4 218.2 219 220.2 221.2 221.8 223.3 225.8 228.1 232.2 235.5 234.7 226.4 206.7 201.4 204 217.9 232.4 251.9 261.9 269.8 277.4 276 273.7 271.5 268.5 264.5 260.8 254.8 246.9 241 248.8 248.4 240.5 229.3 229.1 237.6 234.4 231.3 225.1 218.3 219.1 218.8 214.3 211.9 206.1 202.7 198.7 190.3 191 195.9 194.8 193.5 192.1 190.1 189.1 186.8 184.6 181.7 175.4 177.2 169.3 159.9 159.7 162.3 168.2 165.5 162.4 164.2 158.9 145.2 169.9 179.6 185.6 186.8 189.3 189.3 188.6 187.2 187 187.6 188.7 189.9 191.6 192.4 193.2 191.9 192.4 189.3 185.3 173.8 172.3 166.5 161.9 160.5 158.4 156.6 156.4 156.8 156.8 156.2 154.4 154.8 154.1 156 156.5 157.7 160.2 164.8 165.2 163.7 162.3 156.5 154.6 153.2 152.1 151.2 149 147.7 147.3 146.1 144.7 144.2 144.8 144.8 145 145.6 147.4 147.6 131.2 132.3 139.7 152.6 156 158.7 160.5 161.3 162 161.6 159.8 159.6 163.9 166 167.1 166.6 164.8 163.9 163.5 162 160.4 157.9 155.6 154 152.1 151.3 150.4 148.4 147.4
148.4 149.9 149.2 144.8 141.9 141.2 143.2 144.9 146.5 151 152.8 151.2 144.8 151.6 153.5 155.1 158.9 159.5 162.3 162.2 162.4 168.3 161.5 154.7 160.1 162 162.8 166.9 169.8 173.8 175.9 178.7 180.5 183.4 186.6 195 195 197.9 203.2 209.2 214.8 216.5 217.9 217.2 219.8 220.8 221.1 221.3 222.8 226.2 228.7 232.1 237 237.2 231.6 222.9 203.9 200.9 212.1 224.6 250.5 264.4 272.6 274.7 272.2 269.3 267.5 265.9 262.6 258.8 253.7 254.4 246.9 239.2 239.4 233.6 231 232.5 236.4 234.3 230 226.3 220.6 216.3 213.9 212.1 210 207.2 200.9 200.8 200 195 185.2 179.8 185.8 181.6 183.6 182.6 180.2 181.5 180.5 179 177.8 176.3 173.2 172.8 169.2 163.2 151.2 151 152.7 144.7 160.7 180.8 185.4 187.7 189.8 190.6 190.3 189.4 187.8 187.3 187.9 188.8 190.8 192.3 194.7 197.6 198.4 199.2 196.4 193.7 189.3 179.2 172.3 165.6 163.2 161.1 158.8 156.8 156.8 155.7 155.7 155.9 155.2 155.5 156.2 157.2 158.6 162.5 163.4 163.3 162.2 155.9 155.3 153.7 152 151.6 149.7 148 146.9 146.7 146.4 144.1 143.9 144.3 144.6 144.8 145.4 147.2 147 126.1 130.4 148.9 151.7 153.4 155.9 158.1 159.6 160.4 158.9 158.3 159.4 160.8 162.6 163 164.3 164 162.2 161.3 160.7 157.9 155 153.1 151.7 150.5 149.1 149 143.5 145.6
146.1 146.1 143 140.4 139.4 137.2 141.5 143.2 146.7 150.2 150.9 150.7 148.5 145.9 149.9 151.5 153.7 154.6 156.5 159.3 159.9 159.7 167.9 163.8 158.2 156.4 156.3 158.8 163.7 165.9 171.2 174.7 172.8 175.9 182.1 187.5 191.7 196.7 202.9 208.6 215.2 217.3 218.3 219.4 220.1 221.5 222.5 222.2 223.3 225.4 227.1 231.8 236.1 233.6 229.3 219.1 208.5 200 208.6 227.4 244 269 271.6 270.6 268.2 265.5 264.1 262.2 258.2 255.7 254.2 253.9 251.7 241.6 235.3 232.3 230.7 238.4 235.7 233.1 230.6 227.2 223.2 217.5 213 211.5 209.9 202.2 202.5 208.9 209.8 207.6 205.7 202.6 200.4 198.8 186.6 183.2 175.2 170.8 165.9 168 162 168.6 169.9 162.2 156.9 160.4 166.6 172.6 165.6 145.7 166.5 181.1 185.6 187.8 190.1 191.5 190.9 189.8 187.9 187.8 188.5 189.3 190.7 193.9 197.2 201 203.6 203.3 201.4 198 195.3 185.5 178.9 168.5 165.7 164.6 161.5 159.3 158.7 156.5 156.7 156.5 156.2 156.8 157.3 158.9 159.9 162.4 162.2 161.2 157.2 155.3 154.1 153.2 151.8 150.9 148.6 147.2 146.4 145.7 145.4 144.2 144 144.1 144.2 144.3 144.9 145.7 145.5 138.8 125.2 147.2 150 152.1 153.8 156.4 157.8 157.4 156.5 156.1 157.9 160.3 159.7 159.8 162.8 162.8 160 158.2 157.1 155.6 153.1 151.1 148 148.5 148 146.7 143.9 143.7
138.5 138.9 138.7 138 136.9 137.2 139.7 141.2 141.6 145.3 141.1 142 141.2 143.8 146.9 148 150.7 151.7 153.9 156.9 157.4 149.7 157 166 158.3 156.9 163.2 165.7 167.9 170 164.3 167.7 175.3 177.3 180.6 184.8 186.7 195.7 203.4 206.8 211.5 216.5 219.5 221.4 221.1 222 223.7 226 226.7 227.4 229.4 230.2 229.1 225.2 219.9 208.8 203.5 198.1 206.6 223.3 243.6 265.1 265.4 266 264.3 262 260.5 256.3 254 253.2 251.8 250.1 250.2 247.7 235.6 232.7 231 237.9 234.7 231.3 228.8 225.7 222.9 220.3 218.4 213.1 204.9 200.8 208.4 214.1 214.3 212.5 210.1 208.1 204.9 203 199.7 196.8 188.9 186.8 186.1 183.3 182.9 182.3 181.4 177.6 174.1 174.8 173.9 171.2 166.3 144.4 171.5 181.8 185.2 186.8 188.9 190.7 190.3 188.8 188.8 188.4 188.7 189 190.9 195 198.6 201.2 202.1 201.7 200.3 198.7 194.8 190.4 183.5 171.7 168.8 166.7 164.5 161.8 161 157.5 157.6 157.4 156.8 158.7 158.9 160.5 161.9 160.9 160 158.5 155.9 155 152.8 151.5 150.5 149.4 147.7 147.7 146.8 146 144.4 143.4 144.1 143.7 143.6 143.1 143 143.3 143.6 139.9 126.3 146.8 147.9 150.5 151.8 154 154.8 154.3 153.5 154.4 155.7 157.3 157.4 156.7 156.9 155.8 155 152.7 153.2 153.6 151.3 148.4 147.7 146.8 146.1 144.7 143.8 142.6
134.6 135.7 136.3 135.6 132.3 135.8 138.3 139.3 139.5 139.6 138.2 136.6 139.4 142.3 144.8 146.7 148.8 150.2 152.4 154.1 154.5 151.1 156.1 156.3 164.5 159 164 167 168.2 169.7 171.3 172.6 175.1 177.1 180.1 183.3 190.9 200.1 207.2 212.7 215.4 218.1 221.1 221.4 222.2 223 225.2 227.1 227 228 229 229.7 228.6 227.4 217.3 213.1 205.7 198.8 205.2 220 247.4 259 260.2 261.1 260.8 258.3 256.2 253 251.7 249.7 246.6 245.9 247.3 247.5 241.9 233.8 237.2 236.2 232.1 228.6 225.3 221.7 219.7 217.4 214.4 210.3 199.9 201 212.8 217.3 218.6 217.3 215.1 211.7 208.1 206.3 203.4 200.3 198.2 197.1 193.7 191.9 189.1 184.9 184.9 182.9 179 177 175 172.5 163 146.8 174.1 181.3 182.7 182.9 184.7 184.5 185.3 186 187 187.5 188 188.4 190.7 195.1 197.3 199.3 198.3 196.4 196.3 193.7 191.7 189.9 186.2 181.7 173.6 169.8 166.7 165.4 162.5 160.2 163.2 160.9 161.8 161.5 161.3 161.4 161.6 161 159.2 154.4 154.1 153.3 151.5 150 148.5 148.2 147.6 147.7 147.3 146.4 145.1 145 145.8 145.5 144.6 142.9 141.3 140.3 138.6 131.6 129.4 142.9 145.2 150.2 150.7 151.7 151.7 151.5 152 154.3 152.8 153.9 153.6 153.7 154 153.2 150.9 151.2 151.1 149.8 148.5 146.9 145.8 143.3 144.1 142.7 140.8 142.2
131.7 132.9 133.3 133 126.8 134.8 136.6 137.2 137.6 137.1 136.2 135.9 139 140.7 143.3 145.5 146.3 148.2 148.6 150.9 151.6 148.5 154.7 155 152.9 162.6 164.3 166.8 168 169.3 170.7 172.5 174.7 177.3 180.3 184.4 192 201.4 208.4 213.9 218.3 218.1 221.3 221.9 222.9 223.6 225.6 225.2 225.3 226.8 230.6 233.9 232.2 230.3 229.9 217.4 206.5 198 204.9 223.3 250.6 250.1 251.1 253.4 257.3 255 252.5 250.5 248.1 247.3 243.9 243.4 243.6 242.7 238 233.3 235.1 232 228.7 225.3 221.2 217.2 215.8 213.1 210.1 202 198.8 204.6 215 219.3 221.4 219.9 217.2 214.4 211.9 209.7 207.2 204.4 203 200.8 199.1 198.9 198 194.9 191 187 181.5 178.7 176.5 170.9 160.5 142.2 173.2 181 181.9 182.1 182.9 183.4 184.2 187.4 184.7 185.5 186 188 190.5 191.9 194.6 194.6 195 193 191.8 190.1 189.5 188.2 185.8 182.2 177.3 172.9 167.6 165.7 165.3 164.9 165.9 165.3 165.3 164.6 162.4 161.5 160.1 159.1 157 153.8 154 153.3 149.7 147.8 146.5 147.4 147.5 147.7 147.4 147.1 146.3 146.4 146.5 146.6 146.7 141.1 138.3 136.8 134.6 129.8 130 142.2 145.5 149.3 149.5 150.1 150.6 149.1 150.2 150.1 151.4 150.4 150.8 151.1 150.9 149.5 151.2 148.3 148 147.4 146.6 145.1 144 143.1 142.8 141.4 141 141.7
128.6 129 129.1 128.8 129.7 132.8 134.1 135 135.3 134.5 133 134.5 137.7 139.4 141.9 144.2 144.6 145.5 148.8 148.8 148.5 151.4 152.9 152.1 145.8 156.3 161.8 166 167.1 169.8 171.2 170.8 174.6 177.3 180.5 185.2 190.7 199.1 208.2 213.7 218.5 222.9 223.8 224 224.1 224.4 225.2 225.8 225.8 226 228.4 232.3 233.4 233.2 235.3 215.7 204.1 197.5 205.4 226.4 250.5 238.2 238.3 240.4 250.8 250.4 248.5 246.7 245.2 243.8 242.7 241.3 238.6 236.1 234.2 230.2 229.3 227.7 225.3 221.9 217.4 214.1 211.6 208.5 205.6 197 201.7 208.6 215.9 219.8 220 218.9 217.4 216 214.4 212.9 210.7 209.2 207.3 205.2 204.3 203.8 202.3 198.8 194.6 190.2 183.4 181.7 178.4 172.2 158.5 147.1 168.9 176.6 181 181.6 182.1 182.5 183.3 183.4 183.6 184.2 185 186.7 189.1 191.5 192 191.3 190.1 189.2 188.3 187.8 185.7 185.3 181 178.8 175.4 172.7 170.3 168.7 167.4 166.8 165.8 164 164.8 164.4 160.8 159.2 157.3 155.7 154.2 153.4 150.8 150.3 148.1 147 146 146.4 146.7 147.2 147.3 147.4 146.4 146.6 148.3 148.8 147.5 143.5 137.4 135.9 131.1 128.8 129.8 141.7 144.3 145.4 145.8 146.9 145.4 147 148.6 148.1 148.2 148.3 147.7 148.7 148 147.5 145.9 145.7 146 145.2 144.2 143.3 142.9 142.2 141.1 140.3 139.6 141.4
124.4 123.4 123.4 121.1 128.4 131 131.2 133.1 133.3 132.9 131.9 134 136.1 137.7 139.9 141.9 144.7 143.5 147.4 148.5 148.5 150.1 151 145.6 151.2 156.9 161.1 163.7 166 169.3 167.1 172.3 174.4 177.7 181 184.5 189.1 197.3 208.3 213.5 219 224.2 226.3 226.2 227 227.9 228.6 227.6 227.3 226.5 227.6 230.4 232.6 235.4 237.2 220.1 205.7 196.1 200.7 221.5 230.3 222.7 223.5 225.4 230.7 244.8 241.4 241.7 241.7 241.9 241.5 238.4 235.9 231.9 228 226.1 224.6 223.2 222 219.4 216.5 212.3 209 202.9 200 200.8 205.4 209.6 216.5 219.3 220.2 219.8 218.8 217.3 215.7 214 212.7 212 208.9 207.9 205.3 204 201.5 198.9 195.9 190.9 183.3 180.8 179.7 172.1 155.8 154.8 170.4 176.9 180.6 180.7 181.5 182 182.6 182.7 182.3 182.9 183.6 185.7 187.4 188.7 188.7 188 186.9 185 184.3 184.1 182.6 179.8 177.9 175.5 173.8 172 170.4 169.3 167.9 166.2 165 163.7 162.9 161.2 156.9 155 153.8 153.2 152.7 152.3 150.9 149.3 147.6 145.8 144.3 143.6 144.5 145.2 145.1 145.9 146.2 147.1 147.1 148.5 148.8 146.6 141.1 132.5 129.5 126.8 128.5 140.9 141.8 143.1 144 144.5 145.3 145.7 147.1 147.3 147.9 147.6 146.9 146.2 145.4 145.2 144.1 144.7 144.9 143.3 142.5 142.8 142.2 140.1 139.7 139.8 139.4 141.5
114.6 114.3 115.4 116.4 117.2 120.5 126.7 130.9 130.5 129.9 131.4 133.2 134.3 135.9 137.6 138.7 144.2 150 147 142.1 139.2 149.4 149.8 145.6 151.9 156.2 158.4 161.2 163.2 160.1 168.2 169 171.9 176.9 180.3 183.3 187.7 195.9 207.5 211.9 218.5 226.2 231.7 232.3 231.2 232.6 231.9 229.8 229.4 229.4 229 231.6 232.6 230.8 230.2 223.7 212.6 197.5 194.9 194.9 199.5 198.4 207.4 210.8 217.3 227.4 232.5 233.1 237.4 236.5 230.9 231.5 229 226.9 224.6 222.1 220.6 220 219.6 218.3 216 209.5 205.5 201.2 196.6 205.3 207.5 211.5 216.5 219.6 220.8 219.7 218.3 216.2 214.5 213.2 212.6 211.7 208.8 205.7 202.4 200.1 197.1 195.1 191.4 187.2 182.9 181.8 178.4 171.4 151.4 153.5 169.2 175.8 180.2 180.5 181 184.9 181.4 181 181 181.3 181.5 182.8 184.6 185.4 185.7 183.9 182.5 181 180.6 180.4 178.7 177.2 175.9 174.6 172.2 171.3 169.4 168.2 166.3 165.7 162.9 160.7 158.6 155.5 154 152.6 152.4 152.4 152.6 152.6 151.9 150 148.2 146.3 144 142.7 142.8 146 146 146.4 145.9 147.5 147.6 149.1 149.1 147.5 140.7 131.1 128 126.7 126.5 136.7 137.3 139.9 141.4 143.3 143.9 144 145.9 146.8 146.8 146.3 145.8 145 144.8 145.1 143.5 142.6 142.3 142 142.4 141.4 139.8 138.4 138.5 139.6 140.5 140.7
121 122.6 123.9 126 127.1 127.9 129.3 130.6 131.3 131.2 131.1 131.8 132.9 134.3 136 136.2 136.8 143.6 140.6 141.2 145.4 148.2 146.5 141.6 149.9 152.1 154.5 153.6 161.7 164.7 169.6 173.9 177.2 179.1 181.2 184.3 189.7 197.9 206.5 211.7 219.5 227.8 235.5 239.7 237.4 236.4 235.7 234 233.5 234.1 233.6 234 235.2 234.2 231.5 231 229.4 216.9 210.3 208.7 202.5 195.2 193.2 193.7 203 208.7 221.8 226.3 230.3 231.4 227.9 227.6 226.5 224.5 223.2 219.7 219 216.9 216.2 216.3 215.3 209.2 203.1 197.5 197.9 206.3 208.8 211.4 216.2 219.8 219.7 217.4 215.6 214 212.2 209.8 208.2 205.5 203.2 200.7 198.5 195.5 192.8 189.6 186.2 184.3 183.8 181.1 175.7 165.7 149.1 155 172.7 176.4 181.1 181.6 182.3 183.5 181.3 179.1 178.6 179.4 179.7 180.2 180 181.3 181.2 180.5 178.8 178.4 177.7 177.4 176.5 176.3 175.3 173.8 171.8 168.4 167.7 166 164.6 162.3 160.9 157.9 155.9 153.8 153.3 152.6 152.1 151.7 152.1 153.4 152.6 150 148.2 146.2 144.4 142.1 143.4 145 145.6 145.7 146.4 147.6 148.2 148.9 148.7 147.3 139.2 132.2 126.9 125.9 123.5 127.2 131.8 134.5 137 138.3 141 143.1 145.1 146.2 145.8 145.6 144.8 143.8 143.1 142.8 143.4 142.5 141.4 140.1 138.7 138.4 137.3 138.1 137.8 139.4 139.7 140.1
119.5 122.5 123.8 126.5 126.9 127.8 129.1 130 131 131.1 130.4 131.3 132.3 133.6 133.5 134.1 135.7 137 138 139.1 145.1 146.2 145 138.1 145.7 144.1 151.7 162.5 161.9 169 173.7 179.3 184.4 186.3 184.6 187.5 192.2 199.4 206.9 211.8 218.2 227.6 235.7 242.9 245.7 245.5 243.4 241.7 240 241.5 244 244.7 244.9 245.4 242.4 244.2 247.7 248.8 243.9 239.4 228.5 213.7 204.1 195.9 192 198.5 213.4 222.2 222.4 223 225.2 226.3 229.3 219.6 223.3 214.4 212.3 218.2 216.9 216.7 212.4 204.8 202.9 195.4 196.9 205.9 208.5 211.6 217.1 218.5 216.3 213.9 211.4 208.3 206.6 204 201.6 198.8 196.6 195.2 194.3 192 189.3 187.2 186.4 185.8 182.8 178.6 171.3 163.6 137.7 161.2 171.8 176.9 180.1 180.6 181 179.7 178.6 175 175.3 175.6 175.9 176.1 176.2 176.5 177.6 176.2 176 175.7 175.7 176 176.3 175.6 175.3 174 171.7 168.8 166.5 164.8 162.7 160.4 158.6 156.8 155.3 153.6 153 151.9 151.3 151 151.5 153.2 152.8 150.5 148.5 146 144.1 143.4 143.3 144.7 145.5 145.8 146.3 146.9 147.1 148.3 148 146.3 137.1 131 127.2 125.4 119 126.4 127.7 133 135.1 137.1 141.8 144.6 145.1 145.8 145.6 145.2 143.9 142.9 142.7 142.8 142.9 142.5 141.4 140.9 138 136 136.1 136.6 137.8 138.6 138.7 138.5
122.2 121.1 122.3 126.4 125.9 127.5 128.5 129.5 129.9 130.1 129.8 130.5 131.5 132.1 130.7 133.6 136.5 139.5 139.6 143.1 144 142 141.8 132.7 138.3 149.9 161.2 164 166.4 163.2 174.5 182.9 188.1 190.6 190.6 192.3 195.5 204 207.1 211.4 217.2 225.5 235.2 242.6 248.3 254.5 255.3 252.9 250.3 249.6 251.2 252.4 254.5 253.7 252.7 254.5 259.2 267.7 267.7 254.5 233.9 222.2 229.1 217 193.7 189.3 197.5 206.4 207.2 210.9 206.6 208.7 214.1 211.1 207.1 209.1 208.9 207.5 208.2 211.7 206.6 202.2 199.8 196.2 191.7 203.4 207.5 211.4 215.4 214.7 211.1 208.7 205.4 201.9 200.1 197.4 194.6 192 189.2 190.5 191.1 188.4 186.7 186 185.4 184.8 181.1 174.1 165 148.5 159.6 168.1 171.2 175.1 177.3 178.8 179.7 176.2 175.8 172.8 172.8 172.6 172.4 172.8 172.7 172.5 173.3 173.3 173.6 174 175.3 175.3 174.9 174.4 173.1 171.2 169.8 168 166.6 164.7 162.5 160.3 158.3 156 154.4 153.7 152.2 151 149.8 150.5 151.4 152.1 151.9 148.5 147.9 144.7 145.3 143.8 142.4 144.7 145 144.7 145.9 146.5 146.7 147.7 146.9 145.9 140.4 133.1 129 124.8 123.7 119 127.1 131.5 133.7 136.6 142.7 145.5 145.2 145 144.5 144 143.6 143 142.7 142.1 139 138.9 140.2 138.9 136.6 134.2 134 135.6 136.6 137.7 138.1 135.5
121.8 122.4 122.8 123.3 124.3 125.1 126.1 127.2 127.9 128.2 128.9 129.6 130.8 130 123.9 135.3 137.4 138.9 140.3 140.7 140.3 138.7 137.1 132.8 141.6 155 161.6 164.7 166.9 163.8 173.1 182.4 188.1 190.9 193.2 196 199.8 205.3 208 211.7 216.5 224.7 234.1 241.6 247.8 254.9 260.7 264.2 266.7 265.4 265.2 269.1 275.8 273.9 268.3 267.8 271.3 279.4 272.6 258.1 249.1 243.1 237.9 219.4 198.2 189.9 191.5 191.2 191.3 193.8 192.6 197.3 198.2 198.9 200.4 200.4 198.8 198.1 197.5 206.6 203.6 199.8 193.9 193.2 173.7 196.6 205.8 209.9 211.2 209.4 205.9 203 199.4 195.4 193.2 189.4 186.9 185.1 182.1 184.2 184.3 183 181.6 180.1 179.2 175.2 171.5 166.1 157.5 136.1 163.4 167.9 170.7 172.7 174.8 175.3 175.9 174.2 171.3 170.7 169.5 169.9 170.2 170.1 170 169.4 170.3 171.1 171.3 173.6 173.8 173.5 173 170.6 169.7 169.2 168.4 167.1 165.9 163.6 161.1 158.7 155.3 155 153.6 153 151.9 151.7 150.9 147.5 149.6 150.6 149.6 147.9 147.6 145.2 146.2 142 142.5 143.5 142.9 144.1 145.4 146.2 146.8 147.1 146.4 146 145.2 137 130.7 124.2 123 123.2 128.6 129.5 134.7 142.1 144.4 145.3 145.4 144.2 143.6 142.4 142.7 142.9 142 140.6 137.8 133.4 135 135.3 135.4 132.9 132.4 134.4 133.6 133.6 130 128.9
123.3 123.6 124.1 124.5 124.3 124.4 124.9 124.6 125.3 127.1 128 129 129.1 117.3 130.9 133.9 135.7 137.7 137.6 138.5 136.6 131.6 129.6 134.1 150.5 157.1 161.4 164.6 167.4 166.7 169.4 180.2 186.4 189 193.2 197 200.5 205.6 209 212 216.1 223.6 232.9 240.5 246.2 253.8 259.4 264 267.5 270.6 273 274.3 275.3 277 277.9 280.6 283.4 281.7 272.9 265.7 259.6 253.9 246.3 225.1 203.6 190.2 185.5 183.6 182.9 181.4 179.7 180.7 184.1 188.4 189.4 185.1 192.9 191.9 190.3 191.3 195.8 190.3 184.6 184.3 173.9 195 199.9 205.3 206.2 203.2 200.7 197.3 193.2 190.2 188.2 184.3 181.8 180.8 180.2 178.7 179.1 177.3 174.4 172 169.5 167 165.4 158 144 159.7 167.2 167.7 168.9 170.2 171.9 172.6 172 170.4 168.3 167.8 167.4 166.8 167.4 166.8 167.7 168.4 169.2 169.9 169.3 170.7 171.9 171.3 171 169.4 169 167.8 165.6 163.8 163.1 160.8 158.3 155.5 154.5 154.3 155.5 153.2 152.5 152 151.8 150.7 148.4 145.7 146.3 144.4 144.1 142.2 141.2 140.5 143.7 144 140.5 140.7 145 145.3 145.6 145 145.2 145.9 145.2 138.6 132.1 122.8 122.4 121.7 122.1 126 134.4 142.2 143.5 143.5 143.3 142.2 140 141 141.9 142.3 141 139.4 133.7 131.8 132.3 130.6 130 128.7 131.4 124.2 124.3 126 124.8 125.8
122.6 122.9 123.6 124.2 124.6 124.3 124 124.2 124.9 126 127.9 127.4 127.8 117 126 131.7 133 134.9 135.5 133.3 128.8 127.9 135.8 145.6 153.1 157.3 160.1 164.2 166.2 169 165.7 177.7 183.3 185.1 191.3 196 199.8 204.7 209.2 212.1 215.1 222.8 230.9 238 244.3 252.3 257.4 261.8 265.2 267.7 269.4 270.7 272.8 276.6 281.6 285.5 286 281.4 272.1 267.2 264 259.4 257.4 247.7 231.2 206.5 199 201 202.8 196 188 184 175 181.4 180.6 173.1 176.9 186.8 179.5 175.1 175.6 174.2 176.7 174.1 166 179.8 190.8 196.6 197.6 196 194.4 192 188 188.4 184.2 180.4 180 179.5 178.8 174.6 172.3 170.1 168.6 167.3 167 166 165 160.2 137.7 148.3 166.2 168.2 168.7 167.6 165 167.5 167.3 166.2 164.1 163.6 164.1 164.8 166.5 165.1 163.9 166.9 166.9 167.5 167.5 168.2 169.9 168.5 170.2 169.1 168.5 165.5 163.3 159.7 157.7 157 156.1 156.7 156.4 154.7 154.2 153.4 152.9 152.2 151.5 149.9 148.3 142.7 143.7 143.7 143.3 142.2 142.5 140.4 140 142.3 140.2 138.8 139.9 143.4 143.7 145.4 145.8 145.8 143.6 132.6 132.3 131.9 122.1 120.9 121.8 122.2 123.8 135.3 139 140.3 139.5 139.6 131.4 132.1 133.5 134.3 134.2 132.2 132 125.4 125 125.2 126.2 127.2 121.6 121.8 122.3 121 121.9 121.9
121.6 121.6 122.1 122.2 123 123.1 123 123.1 123.9 125.5 127.6 126.4 127.2 112.8 123.2 129.2 130.3 131.4 129.6 128.8 129 135.2 140.3 146.1 152.5 154.7 158.3 162.6 166.7 169.5 166 175.5 179.8 181 189.3 195 198.5 204.1 208.7 211.7 214.4 221.2 229.7 236 243.2 250.1 254.8 259.2 261.8 263.7 264.8 266.5 268.9 273.7 278.3 281.8 282.9 279.4 271.3 268.5 264.6 261.6 258 257 250.5 245.1 235 233.2 228.7 211.9 205.3 199.4 184.5 186.5 186.5 187.8 179.8 169 168.7 171.6 168.8 164.2 160.7 157.8 166.2 154.4 171.9 177.1 185 183.7 180.7 181.3 181.4 180.2 177.2 174.5 174.7 173.3 170.8 168.9 167.7 165.3 163.3 164.8 162.2 154.3 152.4 151.6 139.5 138.3 158.9 165.2 163.9 161.8 159.5 160.8 161.2 161 160.8 160.6 162 164 165.2 164.5 163.4 161.9 162.1 162.5 162.4 164.1 165 163.9 163 165.8 165.7 163.3 160.6 158.7 158.5 157 159.2 159.6 157.8 155.6 155.3 153.3 152.8 152.7 147.6 146 145.4 144.3 143.7 143.4 143.8 142.5 143.2 141.9 138.8 138.4 137.6 137.9 137.4 138.4 141 144.3 145.1 144.2 136 132.2 131.5 129.9 121.2 121.4 120.5 118.9 121.3 122.6 129.3 133 133.5 128.7 128.3 127.1 126.3 126.3 126.1 125.8 125.3 123 123.1 123.2 122.9 122.3 119.7 121.1 121.4 120.2 121 120.5
120.1 119.3 120.4 120.7 121.4 122.1 122.1 123 123.6 124.5 126.2 126.2 118.4 113.9 124.7 127.2 127.2 126.2 128.8 128.8 134.5 142.1 147.8 153 152.7 157.8 157.6 161.7 167.3 169.9 166.2 174.5 178 181.1 186.7 192.8 198.4 203.5 208 211.7 214.4 220.3 226.8 233.6 240.4 246.2 251 254.7 257.3 258.9 260.2 261.4 264.4 269.3 273.8 277.8 280.1 278.5 273.2 268.2 261.6 258.2 254 251.8 246.4 241.2 240.1 239.2 239.4 239.1 236.4 233.4 222.7 224.5 221.5 219.4 211 207.1 203.6 195 182.4 175.3 173.9 161.4 156.9 156.3 152.9 157.5 167.5 173.1 175.8 176.7 183.4 180.8 177.8 172.5 170.4 169.3 167.9 167 166.5 166 166 165.9 162.3 146.3 141.3 139 137.3 130.9 163.4 163.9 162.6 161.9 159.7 159.2 159.1 158.7 158.8 159.2 159.7 161.1 162.7 159.4 160.3 161.1 160.6 160.7 160.5 160.9 160.9 161.4 162 162.3 160.7 161 162 163.8 160 159.8 160.2 159.6 158.5 157.6 154.6 153.5 153 151.8 146.6 146.1 145.2 144.3 144 145 144.6 144.4 146.6 143 141.2 138.6 136.9 136.7 136.2 136.6 138.7 139.3 139.3 135.2 132.3 130.2 129.4 128.4 129.5 120.4 120.8 116.3 117.6 120.7 121.7 123.2 125.6 124.9 122.9 120.3 119.5 119.6 120.3 120.5 121.8 121.3 120.7 120.8 119.7 118.9 119.4 119.7 119.9 117.9 120.1 120.8
119.5 119.6 119.8 120.5 121.3 120.8 121 122.5 122.7 123.6 124.2 120.8 113.2 113.2 122.7 123.5 122.7 123.4 129.4 133.7 142.4 146.2 152 155.7 156.5 159.6 160.6 160 164.7 169.1 169 170.7 178.2 181.6 186.5 190.6 198.1 202.7 207.3 211.4 214.6 218.6 223.4 231.4 237.7 242.2 245.6 250.2 252.2 253.5 254.7 255.7 258.9 263.4 268.1 273.2 275.9 275.8 272.6 265.7 256.3 253.5 250.5 244.7 241.9 236.8 234.3 233.5 233.1 232.8 232.4 233.1 234.1 233.9 231.4 223.3 221.5 217.3 211.4 205.4 196.1 184.3 181.8 181.5 177.8 174.2 176.8 170.8 148.7 157.5 165.4 171.4 181.7 178.9 172 169.7 168.7 167.7 166.6 166.8 167.3 166.2 166.6 166.9 148.7 143.2 131.6 131.3 125.9 136.7 169.4 165.2 162.3 163.2 162.8 163.3 159.7 157.4 156.7 157.2 157.3 158.3 159.6 158.4 158.3 158.6 159.4 158.3 158.3 160.2 159.5 158.5 160.7 160.4 160.8 160.7 161.5 161.2 158.7 159.7 159.7 158.7 158.1 157.4 154.3 153.5 152.8 151.6 148.4 145.5 144.5 143.8 143.2 144.8 146.3 144.3 143.6 142.7 141.6 139.6 136.8 135.4 134.4 135.1 136 136.8 137.3 134 132 130.9 129 128.6 129.2 136.7 119.8 120.1 119.7 117 120 121 119.7 114.6 117.3 118.6 115 119.6 118.5 120.4 120.6 119.9 120.5 120.1 115.9 119.4 119.1 120.8 120.1 121.3 120 120.8
119.1 118.8 118.9 119.8 120.9 120.3 120.4 122.1 122.2 122.5 122.4 120.9 117.8 113 117.1 123.5 125.7 131.7 135.8 140 145.1 148.9 156.7 161.6 163.7 164.4 164.8 164 162.3 167.5 171.1 168.1 177.7 181.7 184.8 189.3 195 202 208.4 213.6 215 215.7 222 227.9 234 237.6 241.9 244.8 246.7 248.2 249.5 250.5 253 257.6 262.1 268.4 270.9 272.1 270.2 263.2 251.7 244.7 245.5 238.6 236.7 233.1 230.7 228.4 227.7 227.4 227.3 228 228.7 229.1 228.5 227 225.3 220.9 212.4 206.2 199.9 192.5 186.1 184.5 179 171.9 170.9 174.3 171.6 151.6 149.1 152.9 165.2 170.4 168.6 167.6 167.3 167.1 167.5 167.3 167 166.2 166.1 165 143.4 137.5 121.9 124.6 132 168.2 174.6 172.8 172 168.9 167.7 166.6 164.5 161.4 157.6 156.3 156.3 156.4 157 157.6 157.2 157 156.3 156.7 157.7 158.9 161.1 160.2 159.7 159.1 159.4 159.4 159.3 158.4 156.8 159.1 158.8 158.5 157.1 156.1 154 153 152.9 151.3 147 143.8 141.6 140.1 138.9 138.5 144.6 144.7 144.6 143.6 142.4 141.2 136.3 135.9 135.2 135.2 136.7 137.2 137.4 133.3 131.8 130.4 129 128.5 129 137.1 128.5 119.8 119.8 116.5 117.8 117.5 120.2 117.3 117.5 117.2 117 116.3 120.2 120.4 121 120.7 120.4 120.2 120.3 119.5 120.2 122.9 124.5 122.3 118 118
117.8 117.7 117.5 119.1 119.8 119.4 119.5 121.2 121.5 121.4 120.2 118.9 118.2 121.3 124.5 126.5 129.2 133.2 137.5 141.4 145.2 150.6 162 163.8 165.9 167.1 168.1 170.3 166.1 162.4 170.2 166.9 177.4 180.5 184.2 186.9 194.4 205.4 208.7 215 216.7 216.7 220.7 225 230 234.1 237.3 241.2 242.9 243.6 244.7 245.7 247.3 250.3 255.1 263.2 265.9 268.4 267.6 261.2 247.8 241.2 237.8 234.6 231.8 228.2 226.5 225.5 224.1 222.8 222.6 222.1 222.7 223.2 223.1 222.5 220.4 217.1 211.1 203.2 196.8 191.3 188.9 184.2 177.2 173.8 171.7 171.3 169.3 169.1 164.2 148.7 146.1 166.3 170.7 168.9 167.3 167.2 167.4 167.1 166.8 166.3 163.1 153.2 139.7 131.4 121.6 130.3 164.4 176.3 176.2 175.2 172.7 169.9 168.4 166.9 165 162.8 159.6 158.2 157.2 156.3 155 157 156.2 155.8 154.9 155 155.7 156.6 157.8 159.7 159.5 159.4 159.5 160.1 160 158.5 155.7 155.7 155.4 154.2 153.6 154.3 154 153.2 152.8 152.6 150.1 145.7 142.7 141.4 139.8 138.3 137 136.2 135.1 135.3 136.4 136.4 135.2 135.2 135.6 135.2 135.1 136.8 136 133.5 131.9 129 128.7 128.3 128.7 127.4 130.5 125.2 120.2 118.6 117.8 117.5 119.3 114.4 118.4 118.1 118.2 118.6 120.6 123.4 123 120.2 120.2 120.9 120.7 120.3 124.8 128.1 127.2 127 125.9 126.1
115.7 116.5 116.4 118.6 118.8 117.2 118.5 120.5 120.2 119.3 117.7 112.8 106.2 120.8 125.2 128.6 131.3 134.3 137.2 140.5 145.2 151.5 158 161.2 168 168.4 171.6 172.9 172.4 170.5 165.3 166.7 176.5 181.1 183.6 186.6 191.3 202.1 208 216 219 214.8 217.6 220.7 226.4 230.9 233.8 237.1 239.3 240.8 241.7 241.9 241.9 242.3 248.7 257.9 261 262.7 262.8 257.3 245.8 236.3 232.6 229.7 227.7 225.1 223.1 221.5 220.2 218.8 218 216.8 217.1 216.8 216.2 215.1 212.8 209.3 205.1 200.7 193.4 190.8 190.2 184 172.4 173.6 170.8 169.4 168.6 169.1 163.8 152.1 142.3 170.8 179.9 177 169.2 167.5 166.4 166.2 158.1 153.2 149 145.7 134.1 128.5 119.5 148.4 173.9 176.7 175.5 173.7 172.7 168.5 166.1 165.1 163.2 160.9 160 157.6 157.1 156.4 155.3 155 154.9 154.4 154.1 154 154.3 154.2 154.6 155.3 156.5 157.6 159.6 160 160.3 159 156.2 154.6 155.3 154.9 156.1 155.3 154.7 153.3 152.3 152.5 152.1 150.3 144.4 142.3 141.9 143.4 145.3 144.8 144.2 144.8 142 138.5 136.5 135 134.8 133.1 135.1 135.8 135.1 133.2 131.4 129.1 128.7 127.6 127 127.5 127.5 127.2 119.2 118.6 118.3 117.6 114.4 115.9 118.1 118.2 118.4 118.9 117.7 123.2 120.8 121.6 122.4 121 121.6 123.3 129.8 132.7 130.5 129.3 131.1 136.4
114.5 113 114.8 117.4 118 116.5 117 118.7 118.3 116.5 111.5 110.1 110.1 119.3 126 128.6 131.6 133.6 137 140 144.7 151.9 154.9 155.9 168.7 169.5 172.8 174.6 173.2 172.4 169.8 166.4 176.1 183.4 188.1 190.5 188.4 196.5 206.4 214.7 219.1 216.4 213.5 217.2 221.5 228 231.4 233.3 234.8 235.5 236.7 237 237.8 239.4 243.1 252.6 256 258.1 256.9 251.9 242.1 231.9 228.2 223.5 222.7 219.7 219.3 217.3 216.2 214.7 214.5 213.1 211.4 210.5 210.2 208.6 206.3 204 198.9 193.6 187.3 187.6 185.1 180.7 176.3 171.4 171.9 170.7 166.3 162.6 155.8 144.1 144.9 181.8 185.3 179.7 174.1 169.2 161.6 158.8 160.8 146.6 143.4 137.7 117.6 122.4 135.9 160.5 176 174.6 172.9 170.6 168.2 166.3 164.2 161.8 159.7 159.7 159.5 158.7 157.9 157.7 156.2 155.7 155 154.1 153.6 153.5 153.4 153 152.9 153 153.5 153.9 156.1 157.8 159 158.1 155.5 153.5 155.4 157 156.4 155.5 154.4 152.6 151.7 151.5 151.3 149.9 148.2 143.9 141.3 144 146.1 147.1 145.7 144.5 143.1 141.4 138.4 134.7 133.9 131 136.2 135.6 134.4 133 131.6 129.2 126.9 129.9 128.4 127.6 124.7 120.2 117.2 116.9 116.1 116.7 118.4 117.8 118.9 118.7 119 119.5 124 123.5 123.1 132.5 139.3 135.4 128.7 140.2 138.6 138.4 136.6 133.1 132.1 137.5
112.2 111 113.3 115.5 116.5 112.5 116.6 117 115.2 105.1 103.8 114.5 121.4 122.1 126.2 127.4 130.7 132.9 136.3 139.4 144.8 151.3 153.9 154.7 162.8 169.6 172.2 174.2 173.5 172.4 171.3 166.2 175 186.5 193.8 193.9 187.5 194 203.7 211.7 215.6 206.4 208.6 211.8 216.9 222.5 226.5 229.4 229.7 230.8 232.7 233 233 234.7 236.6 245.5 250.3 252.4 251.1 247.1 237.4 227.2 222.3 219.1 217.3 215.2 213.5 213 212 210.8 209.5 208.7 207.4 207 205 201.7 199.8 197.3 193.5 188.5 185.5 182.8 178.3 178.3 175.3 167.4 172 173.4 160.4 150.7 143 140.7 148.1 186.8 184.5 178.9 174.8 170 162.6 159.9 161.6 144.8 136.5 131.2 116.5 123.1 148.1 175.5 174.5 172.2 170.9 168.3 165.7 164.2 162.6 160.2 158.3 158.8 159.1 158.8 157.5 155.7 155 155.5 155.3 154.3 153.1 152.4 152.3 152.3 152.6 152.4 152.6 152.5 154.2 155.3 157.3 156.5 154.8 153.2 155.3 155.8 155.4 153.4 152.2 151 150.6 150.1 149.6 148.4 145.7 145 143.5 138.4 140 144.6 146.5 144.4 144.7 139.6 134.3 134.1 132.7 137.2 136.7 135.4 133.9 132.5 131.5 129.8 128.6 127.5 126.2 122.2 117.6 116.7 113.5 116.4 116.2 116.3 118.5 118.5 118.9 120.3 122.4 124.7 125.6 129.5 136.8 136.8 138.7 138.9 141.2 142.5 141.2 141.5 140.8 138.8 135.5 135.2
109 104.8 111.7 110.8 107.3 116.7 116.7 114.9 108.4 102.7 113.8 119.1 122.2 123.8 126.4 128.4 130 132.6 135.8 138.4 141.8 149.6 153 153.2 155.9 169.3 171.7 173.6 173.7 172.5 170.4 165.9 173.1 187.1 195.5 197 190.3 189.8 199.5 208.4 209.5 200.4 205.2 208.8 211.9 215.9 221 225.5 227 227.8 228.4 229.1 229.1 230.5 231.8 237.5 243.9 246.4 246.1 241.8 234.5 222.4 217.3 214.4 212.9 211.1 209.7 209.1 208.7 207.2 206.5 205.3 203.3 201.4 199.7 199.2 199.2 199.6 200.5 196.3 187.4 182.4 176.9 171.6 171.7 168.2 165.8 162.4 150.9 141.7 138.3 147.6 178.9 180.9 178.9 176.6 172.3 169.1 166.7 165.9 160.4 150.8 132 127.4 117 140 169.4 174.5 172.6 171.8 170.2 168.1 164.7 163.1 161.1 159.3 156.8 158.2 158.9 158.4 158 154.8 154.4 154.5 155.2 154.4 153.1 151.9 151.1 151.7 151.6 151.5 152.6 153.1 153.5 154.1 153.9 153.9 153.1 152.6 154 153.5 152.9 151.1 150.3 149.8 149.7 149.2 148.1 147.2 144.3 142.1 139.9 137 138.1 139.3 145.4 146.5 144.8 137.3 135.3 138 138.1 137.4 136.7 134.8 133.2 132.1 130.8 130.2 132.2 131.4 124.3 119 114.8 114.7 115.7 116.5 116.4 116.3 117 117.8 117.2 117.4 122.7 127.2 127.3 135.1 137.6 139.5 139.7 141.5 142.5 142.6 143.5 142.6 141.7 139.6 138.2 137.4
103 98.6 99.1 97.5 106.6 116.6 115.8 114.3 102 105 115.5 120.2 122.3 123.2 125.3 127.5 129.1 132.2 135.5 138.2 141.4 148.4 152.4 152.6 150.5 167.2 169.6 172.6 173.3 172.5 170.2 165.5 170.7 183.7 192.6 196.3 192.6 187.1 194.9 204 207.8 202.3 202.6 205.6 208.2 213.3 216.1 219.5 222.1 223.4 224.7 225.3 226.6 227.7 227.8 230.3 238 240 240.9 238.5 231.6 221.2 214.8 211 209.2 207.7 206.5 205.8 205 203.7 203.3 202.7 201.5 199 199.6 199.5 198.9 199.2 197.7 192.5 183.3 177 172.8 168.6 169.4 163.9 157.7 155.3 143.8 137.1 142.9 163.8 171.6 172.6 173.1 172.5 171 169.9 168.1 166.7 153.9 141.6 129.7 115.4 148.1 172.1 173.2 172.6 171.7 171.1 169.6 166.6 163.8 161.7 159.5 157.9 155.3 154.8 154.9 153.4 151.5 150.9 149.9 150.1 151.9 151.5 151.8 150.9 150.4 151.4 151.4 151.8 151.5 152.2 152 153.1 152.6 152.4 151.9 150.6 151.6 151 151 150.6 150.6 150.5 149.9 148.7 146.4 144.2 141.7 140.1 139.2 136.5 136.6 138.2 142.8 143.6 143.1 140.6 136.1 136.6 138.3 137.3 136 134.6 131.4 130.8 131.3 131.8 133.7 133 120.5 119.2 113.1 114.3 115 115 114.9 116.1 116.7 117.4 117.4 117.3 122.8 128.1 130.4 136.6 142.2 143.2 142.4 143.1 143.3 143.2 143.9 143.3 141.7 140.5 139.3 138.8
93 93.8 93.1 93.8 100.3 115.9 114.6 109.5 98.6 111.5 115.9 118 120.4 122.8 123.4 125.4 128.4 131.3 134.3 136.7 140.7 146.5 152.2 159.1 149.1 163.1 167.2 171.1 172.6 172 170 164.3 167.1 178.9 187.8 192.7 190.5 186.5 191 197.2 200.9 200.8 195.6 200.9 204.2 208 212.1 213.9 215.6 217.3 219.2 220.1 220.6 223.2 224.8 224 229.4 232.9 234.8 233.6 228.2 222.1 213.1 208.3 205.4 204.5 203.3 202.8 202.4 201.4 201.5 200.5 199.4 196.8 197 195.7 194.7 191.9 189.2 184 176.3 175.7 178.7 176.8 173.4 169.5 164.2 146.2 138.7 135.2 137 160.2 166.2 167.3 169.1 171 170.2 170.1 168.6 167.2 166.1 139.7 122.7 134.4 164.8 168 170.1 170.5 169.6 168.4 166.9 164.2 161.7 159.9 157.8 156.1 153.3 152.3 151.2 149.6 149.3 148.9 148.5 148.8 149 149.3 148.8 149.4 149.1 150.7 150.9 151.3 151.6 150.2 150.4 150.4 150.7 150.8 149.9 149.1 150.1 150.1 150.1 150.5 150.6 150.3 149.6 147.1 144.3 142.1 140.2 138.9 136.9 136 135.5 136.8 138.1 140.1 139.5 138.9 138.5 138.3 139 138.1 136.8 132.3 132.9 132.1 136 137 136.4 135.3 119.3 112.5 113.9 114.9 115.4 115.1 117.4 117.6 116.8 117.3 117.5 116.8 123.4 129.6 135.8 139.3 141.8 143.2 143.3 143.8 143.3 143.3 143.5 143.4 142.4 140.3 139.4 139.3
91.8 91.8 91.6 91.6 93.4 105.4 111.7 102.7 97.2 109 115.9 118.3 118.5 121.4 122.9 124.9 128.2 130.6 133 135.4 138.3 142.1 148.5 154.6 154.6 160.3 162.6 168.5 171.6 170.7 169 162.8 162.8 176.1 180.4 186.6 189.5 186.2 184.7 188.5 191.3 193.5 192.6 195.3 198.4 202.2 206.5 209.4 211.7 214.7 217.2 216.7 217.2 217.7 221.4 220.6 220.6 226.8 228.3 228.4 223.8 217.5 209.5 206 203.2 201.4 200.6 200.3 200.3 197.5 195.8 192.5 191.1 190.6 189.8 188.1 186 184.2 182.8 178.9 175.8 179.7 179.3 178.4 174.6 169.8 165 160.1 157.6 140.5 133.2 150.7 159 160.1 160.9 166.7 167.8 165.5 166.1 165.8 164.9 152.1 120.5 133.5 160.9 164 167 166.8 167.3 166.9 165.5 163.2 160.5 157.9 155.7 153.7 152.2 150.9 149.9 148.9 148.8 148.2 147.5 147.7 147.3 147.6 145 145.8 149.5 148.3 149.8 151.7 151.1 150 149.5 148.2 148.4 148 148.9 147.1 149.4 149.2 149.3 149.2 149 148.7 147.3 145 142.7 139.2 137.9 137.6 136.3 134.7 135.3 136.6 137.5 139.5 140.1 139.1 135.7 141.5 141.1 139.7 138.4 137.8 136.7 134.2 136.3 133.7 130.5 132.6 120.1 111.6 114.2 114.4 115.4 117.4 119 119.4 118.2 117 116.1 118.9 130.8 132.6 139.5 141.6 142.7 144.5 144.3 144.1 144 143.3 143.9 143.2 141.1 140.5 139.7 139.8
