ncols 200
nrows 86
xllcorner 320000
yllcorner 243950
cellsize 50
287.5 290.5 291.9 293.5 294.7 295.7 294 290.5 289.2 289.3 293 296.8 305.1 315.5 321.6 326.4 331 333.9 330.9 322.4 316.3 309.7 305.4 304.1 303.7 302.1 300.6 304.4 308.1 312.7 317.1 317.6 312.5 308.1 303.7 301 299.9 299.3 298.7 297.6 297.3 296.1 298.2 300.2 302 303.8 304.1 303.8 301.9 299.3 297.4 296.4 295 292.7 289.6 287.1 285.1 282.2 275.7 272.8 270.3 265.5 262.7 260.6 258.4 257 255.9 257.9 260.5 258.6 257.5 256.2 255.4 254.7 254.6 253.6 251.2 251.7 253 252.7 249.1 244.6 240.6 235.3 229.1 223.6 217.7 212.8 209.2 207.1 205.6 204.5 204.5 203.9 202.5 201.1 199.1 196.8 195.4 194.4 192.2 190 186.3 182.1 177.2 171.8 168.2 167.2 166.8 167.6 169 169.9 169.6 167 164.6 161.4 159.1 156.9 156.5 156 157.2 159.1 161 162.9 164.7 164.4 161.9 160.2 158.6 156.1 154.1 152.7 151.3 150.3 148.6 147.5 146.3 146 144.5 143.1 141.1 138 134.1 129.5 124.8 119.9 114.4 110 106.7 104.3 101.9 101.1 100.6 99.8 92.8 92.7 99.6 99.1 97.2 98.1 97.4 96.5 95.4 94.3 93.1 91.6 90.4 89.4 88.5 88.4 87.8 87.7 88.3 87.8 87.2 86.9 86.9 87.2 87.1 87.3 87.4 87.6 86.7 85.6 84.4 83.7 82.7 81.6 80.9 80.4 80.1 79.3 78.8 78.7 78.3 78.2 78.3 77.8 77.7 77.1
293.8 297.7 298.9 300.1 300.7 299.2 295.8 292.1 292.5 293.2 294.7 299.7 308 318.1 325.1 331.1 337 339.3 336.2 330.1 322.7 316.4 311.7 309.3 307.4 305.1 305.7 307.1 311.1 316.3 320.7 323.1 321.1 314.8 309 305.9 303.8 302.8 301.1 298.7 297.2 295 294.8 297.1 298.2 298.9 298.2 297 295.1 292.1 292 289.6 287.5 285.1 281.1 274 272.3 267.2 265 262.4 261 258.6 257.2 256.3 256.2 255.7 256.4 257.5 257.3 255.3 254.4 253.6 253.1 251 249.1 247.5 245.8 246.7 248 249.3 248.8 245.6 240.3 233.8 224 216.2 209.9 205 203.1 201.9 200 200.4 200.4 199.1 197.6 195.9 193.9 191.3 189.6 187.5 184 180.9 176.8 172.2 166.9 162.4 159.6 159 159 159.1 161.5 162.9 163.7 163.2 162 160 156.9 153.8 153.7 157.4 161.3 163.9 165.9 166.6 165.1 161.6 159.5 157.8 155.3 154.3 153 151.6 148.8 147.1 145.3 144.5 143.7 142.3 139.9 137.9 136.4 132.4 127.5 122.5 118 113.4 109.3 105.3 102.6 100.1 98.9 98 97.5 97 93.2 90.9 95.4 96.6 95.4 96.3 95.6 93.8 92.7 91.5 90.8 89.7 88.6 87.7 86.9 86.5 86.3 86 86.6 86.1 86.1 85.9 86.1 86.3 86.5 86.6 86.7 86.6 86.1 85.3 84.3 83.3 82.5 81.4 80.6 79.4 79.2 78.6 77.9 77.1 76.6 76.1 74.8 74.6 75.9 75.8
297.9 304.3 305.8 306 305.2 301.1 297.2 295.9 296.4 297.9 297.8 302.5 309.6 318.7 326.4 333.3 341.6 343.8 339.6 332.8 326.9 320.1 314.8 311.7 308.5 305.2 306.3 309.3 313.4 319.4 324.3 326.7 326.6 322 319.5 317 312.5 308.4 303.7 299.1 296.9 294 292 293.1 292.3 291.9 290.7 289.3 286.7 283.3 282.1 281.2 280.4 276.9 272.5 269.3 266.7 261.1 258.2 257.7 256.5 256.7 256.5 256.1 255.5 254.7 255.4 256.1 255.3 252.9 251.5 249.5 248.3 246 243.1 241.7 241.1 241.7 242.9 244.8 246.9 243.5 237.3 228.8 218.6 209.6 203.9 200.6 198.3 196.9 196.4 196.4 195.6 194.2 192.3 190.5 188.6 185.8 183.7 179.8 175.9 171.4 166.8 162.5 158.3 155.4 152.6 150.5 151.4 151.3 153.5 156 157.9 159.1 160.7 157.9 155.3 153.6 154.5 160.8 165.6 168.8 168.9 167.7 163.8 159.7 156.4 153.9 152.9 151.8 150.7 149.3 147.3 144.8 142.6 141.2 138.7 135.2 132.7 130.4 129.1 126.4 119.3 115.6 110.6 106.7 103.5 100.7 98.4 97 95.8 94.9 94.5 94 91.6 90.8 93 93.8 94 93.3 92.5 91.8 90.8 89.8 88.9 88.1 87.7 86.8 85.8 84.7 85 84.6 84.7 84.9 84.9 85.1 85.4 85.6 85.8 85.9 85.7 85.3 84.8 84.3 83.5 82.2 81.5 81.1 80.3 79.9 79.2 78.4 78.2 79.2 77.7 77.5 76.7 75.3 73.9 73
298 308.1 312.6 311.4 307.1 303.4 300.3 300.5 302.8 304.5 303.3 304.6 311.7 320.5 327.9 336.3 345.4 346.6 341.4 335.3 329.8 323.3 316.8 312.2 308.7 307.5 309.1 312.3 316.8 321.8 326.3 329.1 330.2 330.1 327.7 323.4 318.2 312 304.6 299.1 295.9 292.7 289.1 288.2 287.7 286.3 285.3 283.6 274.2 273.7 273.4 276.1 274.1 269.9 266.5 264.9 261.8 256.9 254.8 256.3 256.2 257 256.7 255.3 253.7 252.3 252.7 253.9 253.8 251.3 245.7 243.7 242.3 240.4 238.4 237 236 236.5 237.6 239.7 239.6 236.2 231.2 223.6 214.1 206.5 200.4 196.6 194.2 192.3 193.5 193.1 191.5 188.9 187 185.1 183.1 179.7 176.2 172.3 168.4 163.2 158.9 154.9 151.6 148.8 146.3 145 142.8 143.9 145.3 148.1 149.9 154.4 157.3 155.5 153.2 156.2 160 164.4 167.2 168.1 167.7 164.4 159.7 155.4 151.9 149.3 148.3 145.8 146 146.4 143.4 141.2 136.8 134.6 130.2 126.2 123.3 120.9 118.7 116 113.1 109.3 105.1 101.2 98.4 96.3 94.3 93.3 92.7 92.2 91.7 92 88.8 87.3 91.4 91.8 91.9 92 90.8 89.6 88.8 88.9 88.1 87.5 86.8 85.9 84.6 84 83.7 83.2 83.4 83.8 84.1 84.4 84.7 84.9 85 85 84.7 84.2 83.8 83.4 82.6 81.5 80.6 80.3 81.1 81.7 81 79.9 79.5 79.8 79 78.1 77 75.9 74.3 72.5
294.6 304.7 312 310.7 307.3 304.8 305.9 310.8 309.9 309.8 309.2 307.7 316 323.3 331.3 339.1 345.3 348 344.3 337.5 331.4 324.3 318.3 313.7 312.8 310.5 312 315.3 318.6 323.3 327.3 330.9 334 335.1 332.5 327.1 320.6 314 306.1 299.3 294.3 290.3 287.2 282.6 283.7 283.3 282.7 282.3 274.8 271.7 271.4 271.6 267.8 264.5 262.2 259.2 257 254.8 254.8 256.2 257.6 256.6 254.2 252.2 250.9 249.9 247.7 249.9 249.8 246.4 242.5 240.2 238.2 235.9 234.1 232.8 231.4 230.9 231.7 232.8 232.3 229.5 225.6 219.4 211.5 204.2 197 193.4 190 188.5 188.1 187.6 185.9 183.6 181.5 178.9 175.6 172.1 165.7 163.4 159.4 155.4 152 148.6 145 141.9 139 135.5 135.7 135.6 136.5 139.7 141.4 147.3 151.3 148.7 154.5 160.1 163.4 164.3 163.2 162.1 160.3 158.3 154.5 151 147.3 144.5 142.2 140.6 139.9 140.9 138.2 136 131.3 126.7 122.4 115.8 114.5 112.6 109.9 108 104.7 102.1 98.6 96.4 93.7 91.7 90.8 90.2 89.5 89.3 89.2 88.9 85.1 87 89.1 89.8 89.8 90.4 88 89 87.9 88 87 86 85 84.2 83.4 82.2 82.2 82.3 82.6 83 83.4 83.8 84 84.2 84.2 84.1 83.8 83.4 83 82.8 82.1 81.4 81.8 80.8 82.3 83.3 82.8 81.5 80.6 79.8 78.7 77.6 76.3 75.2 73.6 71.9
287.2 293.7 300.8 307.4 305.7 308 314.9 316 315.9 315.7 315 313.4 316.6 324.3 332.7 340.8 345.8 349.4 346 339.2 332 325.3 319.7 315.8 314.6 313 314.2 316.7 320.2 324.4 328.2 331.9 335.6 336.1 333.8 327.8 320.6 313.1 304.7 297 291.6 287 284.2 281.5 280.8 281.4 277.7 275.4 274 269.7 268.7 268.1 264.2 260.6 259.3 258.3 258.2 256.2 257.8 258 257.6 255 252 249.3 247.9 247.8 247.3 245.8 245.3 242.1 238.9 236.3 233.7 231.4 229.7 227.3 224.8 224.8 225.1 226.9 225.8 223.9 221.6 216.7 209.8 203 196.6 189.1 184.9 183.1 182.3 181 179.3 177 174.4 171.7 168.9 165.8 161.7 159 154.8 150.1 146.1 142.5 138.3 135.2 132.5 123.5 125.7 127.5 128.9 130.9 135.6 139.4 142.9 144.8 152.3 157.3 159.9 159 154.8 152.6 152.8 151.3 148.7 145.4 140.6 136.4 133 130.7 130.9 133.3 133 131 127.7 122.6 117 107.7 106.6 107.3 103.9 100.4 97.7 94.7 92 90.3 89.1 88.8 88.4 87.6 86.5 86.3 86.2 83.6 82.7 87.1 88.7 88.2 87.1 88.8 87.7 87.6 87 87.1 86.2 85.3 84 83.1 82.1 81.5 81.5 81.7 82 82.3 82.7 83.1 83.3 83.4 83.4 83.1 82.8 82.2 81.9 81.4 81.1 80.9 80.8 81.4 81.7 83.3 83.1 81.9 80.6 79.6 78.2 76.7 75.3 73.6 72.2 70.9
281 287.7 293.8 300.6 306.1 308 313.8 320.9 323.8 322.1 319.9 317.4 316.9 324.1 331.5 339.9 346 350.5 348 342 335.2 328.1 321.7 318.1 315.5 312.7 315.3 318.1 321.4 325.3 329.2 332.7 334.2 333.8 331.7 327.4 320.5 313.1 303.3 294.9 289.5 285.8 283.7 280 279.1 280.8 275.8 271.8 270.4 267.9 266.6 264.2 261.3 259.1 257.7 256.4 258.1 255.2 251.7 254.5 253 251.6 251.5 250.4 245.2 245.2 245.4 243.5 240.1 237.4 234.1 231.1 227.9 226.1 224 222.1 221.4 219.3 219.5 218.6 220 219.4 217.9 214.6 208.9 202.2 193.7 186.2 180.4 175.5 175.5 174.7 172.9 170.1 166.6 166.2 163.8 160.9 157.7 155.1 151.4 146.1 140.6 136.3 131.5 129.3 126 117.8 116.8 119.2 121.8 123.6 128.1 133.6 133.3 140.2 146.2 150.5 152.7 152.8 148.6 145 144.2 144.1 140.8 138.6 134.7 128.9 126.3 124.2 125.1 128.5 127.5 125.8 123.3 118 114.7 107.7 98.4 99 96.1 92.9 91.4 89.7 88.5 87.2 86.6 85.4 85.5 84.5 83.5 83.5 83.4 81.3 84.1 85.1 85.4 85.4 86.1 85.8 86.5 86 86 86 85.6 84.5 83 82 81.3 80.8 80.7 81 81.3 81.6 81.9 82.2 82.5 82.5 82.4 82.1 81.7 81.1 80.7 80.1 79.5 78.9 78.9 79.7 80.5 81.5 81.5 81.5 80.7 79.2 77.5 75.6 73.9 72 70.4 69.7
284.5 285.7 292.2 297.8 302.6 304.3 312.7 323.7 328.6 326.5 323.7 321 318.9 324.8 330.7 338.8 346.8 353.7 352.5 347 339.7 331.9 324.6 320.3 317.3 314.7 316.8 319.6 322.9 326.6 330.2 333.4 333.3 331.7 329 325.7 320.3 313.2 303.6 295 289.3 285.8 283.2 283 280.4 279.4 274.3 270.8 269.6 266.3 264.5 261.1 261.9 260.8 259.3 259.2 259.1 255.9 248.9 245.1 246 248 249.6 249 245.2 242.8 241.8 237.8 234.7 231.8 228.9 225.5 221.5 220.5 218.5 216.3 213.5 211.2 213.7 213.7 214.9 215.3 214.1 211.8 207.1 199.3 190.5 182.8 176.4 167.7 170 169 167.4 164.7 162.1 160.8 159.4 157.5 154.7 152.9 147.9 143 134.4 129.5 127 121.8 118 114.2 106.4 107.3 113 118.3 120.4 124 136.3 140.7 144.2 146.3 147 144.3 141.2 139.2 137.6 136.8 134.1 131 127.3 123.8 121.5 119.7 121 123 123.5 122.5 118.7 113 108.5 103.5 97.7 92.8 90.7 89.5 88.4 86.8 85.4 84 82.8 81.7 81.4 81.5 81.5 82.2 82.3 79.3 83.4 83.9 84.1 84.2 84.1 84.1 84.8 84.9 84.9 84.7 84.3 83.2 81.8 81.1 80.4 80 79.8 79.9 80.3 80.8 81 81.2 81.2 81.3 80.9 80.7 80.2 79.7 79.2 78.9 78.3 77.6 77.2 77.7 78.4 78.5 79.2 79.2 78.8 77.9 76.5 74.5 72.6 70.6 69 68.3
288.3 285.5 289.7 294 299.3 303.1 309.4 322.6 331 329.7 326.8 324.9 324.3 328 333.4 339.1 348.3 358.5 357.5 351.9 344.5 336.7 330.1 324.8 320.4 318.3 319.1 321.4 324.6 327.7 331.8 332.9 331 329.4 326.5 323.5 318.6 311.9 303.7 295.4 289.6 286 284.3 284.3 281.6 275.2 274.2 270.3 269.3 265.9 265 265.4 264.6 263.3 262.2 261.1 256.7 253.8 249.1 243.5 239.2 241.5 242.9 245.9 239.5 238.1 237.1 235.1 229.5 227.1 223.6 220.7 216.7 214.9 212.9 210.6 209 203 207.7 209.2 210.2 210.8 210.3 208.5 204.3 196.7 187.2 179.6 173.1 167.2 162.7 163.4 162.1 159.8 157.5 156.3 154.9 153.5 150.7 150 147 138.8 134.9 127.1 121.7 112.9 108.2 106.4 101.5 100.4 106.8 107.7 118.3 126.9 136.3 140.3 140.6 140 138.8 136.9 135 133.5 131.3 131.7 129.1 125 122.4 119.6 116.2 115.2 116.8 118.6 121 118.7 114.5 110.8 105.4 99.7 96.6 92.8 89.4 85.6 84.9 83.1 81.3 79.9 79.4 78.9 79.5 80 80.1 81 80.4 80.4 82.4 82.6 82.8 82.9 82.7 82.7 82.7 82.7 82.9 82.7 82.1 81.4 80.7 79.9 79.2 79.1 79.8 79.7 79.5 79.7 79.9 79.9 79.7 79.5 78.8 78.6 78.1 77.7 77.4 77 76.1 75.4 74.9 75.4 75.6 75.2 75.8 75.7 75.6 74.6 72.3 70.8 70.3 69.2 68.3 67.6
290.4 288.9 291 295.4 299.1 303.4 308.2 321.4 330.3 331.3 330.9 330.7 332.7 333.7 337.1 342.5 351.8 361 358.7 353.5 347.4 340.3 335 331.6 328.2 325.1 323.1 323.5 326.9 329.7 333.3 331.2 330.6 327.3 323.6 320.7 316.8 309.3 301.8 294 289.4 286 286 285.6 283.8 280.6 276.6 273.4 271.4 269.6 269.4 268.8 266.4 263.8 260.2 255.3 251.6 249.9 246.5 243.7 238.8 236.8 237.1 236.3 234.3 232 229.8 227.9 225.7 218.4 218.6 215.7 212.6 205.1 204.3 205.3 204.1 198.5 203.2 204.8 206.1 206.1 205.7 204.5 200.9 193 183.8 176.4 170.1 164.9 158.6 158 156.6 154.7 152.8 151.2 149.7 148.5 145.6 144.5 141.4 135.3 128 118.3 111.8 102.7 98.9 95.5 92.6 94.1 98.5 105.6 115.8 124.7 131.3 135 135.3 134.5 132.4 129.3 128.4 126.8 125.9 126.7 124.2 121.5 118.9 116.1 112 110.5 112.1 115.9 117.6 118.1 115.2 109.9 104.5 99.2 94.3 89.7 85.7 82.6 80.2 79.2 78.2 77.4 77.1 77.4 77.6 78.3 78.7 78.1 77.7 79.5 81 81.4 81.5 81.6 81.5 81.2 81.1 81 80.9 80.8 80.4 80.2 79.6 78.7 78.5 78.7 79.4 79.5 79.3 79 78.6 78.4 78.2 76.9 77.2 76.8 76.2 75.5 75.7 75 73.9 73.2 72.4 72.3 72.4 71.8 71.7 71 70.5 70.1 69.3 68.7 67.6 67.6 67.5 67.2
292.2 290.2 293.5 297.5 301.1 305.3 310.4 319.5 327.6 333.4 337 337.6 337.4 335.2 339.8 346.6 352.9 359.6 358.1 354.1 348.7 343 340 338.5 333.6 328.9 324.8 324.9 327.6 330.9 330.8 328.9 328.1 324.3 321.2 318.1 312.3 306.7 299.6 292.7 288.8 287.3 286.8 286.9 286.6 283.8 279.2 277.6 276.1 273.9 272 268.7 262.3 257.1 253.6 249.8 246.6 244.6 242.6 239.9 237.2 233.5 231.8 231.3 230.3 228.2 225.2 222.2 220.3 218.1 212 211.2 208.4 205.8 192.6 198.1 198.8 198.6 195.6 199.1 199.3 199.8 200.1 199.2 195.5 188 179.4 172.8 167.1 162.6 157.7 154.3 152.4 149.8 146.8 144.2 141.9 140.1 137.5 134.6 130.7 125.4 115.6 107.1 96 92.1 87.4 84.6 83.6 86.2 86.3 100.3 107.9 114.2 119 124.8 127.9 126.7 124.1 121.3 118.2 117.3 119.2 118.9 117.2 116 114.8 113 109.2 106.6 106.2 110.6 113.3 117.3 113.5 108.3 103.1 96.6 90.5 84.2 80.5 77.9 76.5 75.8 75.3 75.3 75.2 75.3 75.3 76.3 75.3 76.2 78.4 79.1 79.7 80.2 80.3 80.3 80 80.1 80.4 80.1 79.7 79.6 79.3 79.2 78.1 78.2 78.4 78.7 79 79.1 79.2 78.4 77.5 77.1 76.6 76 75.5 74.9 74.3 73.4 73.5 72.7 71.6 70.7 70 69.4 69 68.8 68.4 68.2 68.1 67.8 68 67.4 67.7 67.6 67.4 67
294.2 294.7 295 299.7 302.9 307.9 312.4 319 327.5 335.8 343.4 344.2 342.1 339.5 345.7 349.7 352.6 356.5 356.7 354.6 350 346.4 343.2 339.3 334.3 329.6 325.7 326.1 327.2 328.3 328.5 325 321.6 320 318.6 315.7 309 303.1 297.5 293.1 289.9 289.5 288.5 288.5 287.9 285.1 282.4 279.6 277 273 268.8 263.1 254.5 249.9 247.9 246.7 244.2 241.7 239.5 237.1 234.9 233.3 229.3 222.4 223.1 223.4 220.7 216.8 214.1 210.5 204.3 196.3 194.4 194.3 189.1 184.2 192.9 192.9 187.3 190.6 191.3 191.4 192.1 191.1 187 180.8 174.3 168.4 163.5 160.1 154.8 151.3 147.8 143.3 138.8 134.7 131.6 128.2 124.4 120.2 117.1 111.2 101.9 94.5 83.9 82.8 77.1 75.4 73.9 75 81.1 89.8 97.4 103.7 108.1 112.5 116.3 118.3 116.3 111.8 106.5 105.3 105.1 105.3 105.9 106.5 105.3 104.2 101.6 98.3 100.2 100.3 102.9 105.4 105 101.1 95.7 87.6 81.8 78.7 75.6 74.7 73.7 73.3 73.1 73.2 73.3 73.5 73.9 74.3 73.3 75.7 77.3 78.1 78.6 79 79 79.1 78.4 79 79.7 79.7 79.6 79.6 79.3 78.3 77.7 78.1 78.4 78.7 78.9 78.7 78.4 77.6 76.6 75.9 75.2 74.6 73.8 72.9 72.2 71.6 71.4 70.5 69.4 68.8 68.7 68.7 68.5 68.5 68.5 67.9 67.7 67.8 67.6 67.3 67.4 67.2 66.9 66.7
299.3 299.2 298.9 298.9 305.2 309.4 314 321.3 332.2 342.7 350.5 352.7 351.3 346.7 346.9 348.1 349.9 354.5 354.8 352.9 351.8 349.1 345.5 339.9 334 329.4 326.9 324.7 323.7 324.8 325.7 321.6 318.2 315.8 315.1 310 304.5 299.1 295.3 292.3 290 288.5 287.9 287.8 286.1 283.5 280.6 276.6 273.2 269 262 254.8 249.4 245.8 244.8 244.3 242.7 239.9 237.6 235.8 234.6 233.5 231.4 228.5 224.9 220 215.6 212.8 210.2 208.4 208.2 206.8 203.2 191 174.8 171.5 182.3 183.9 181.1 182.1 181.6 181.4 180.7 178.8 176 171.6 166.7 161.7 157.4 154.5 148.8 144 142 132.2 127.2 121.9 117.7 112.9 107.3 103.3 99.8 93.8 85 77.9 72.7 69.8 68.8 68.8 69.1 68.7 73.5 76.3 82 91.7 95.4 100.3 105.5 105.3 103.4 99.5 92.9 91.3 89.5 91.4 91.8 90.8 91.2 92.2 88.6 87.8 85 90 91 92 91.4 86.7 83.6 79.7 76.5 73.1 72.6 72.4 72.4 72.1 71.8 71.6 72.1 72.5 72.7 71.9 73.9 75 76.3 76.7 77 77.2 77.9 77.8 77.7 77.6 78.4 79.2 79.5 79.3 78.9 77.7 77 78.9 79.1 79.2 79.1 78.7 77.8 76.4 75.5 74.7 73.9 73.1 72.2 71.3 70.3 69.8 69.4 69 68.7 68.5 68.5 68.4 68.2 68.2 68.3 67.8 67.1 67.4 67.5 67.4 67 66.9 67 67.1
305.3 304 303.9 305.2 307.8 311.6 316.8 325.8 336.1 346.6 354 359.3 357.5 350.2 347.6 348 350.1 352.8 353 353.3 353.4 351.4 348.2 341.2 333.6 328.5 325.7 323.1 321.7 321 320.6 318.6 315.3 311.8 308.8 303.2 298.6 296 293.2 289.8 287 285.4 285.3 283.5 281.4 277.9 274.5 271.8 267.6 260.3 253.9 249.4 246.1 242.3 243 242.4 240.6 238.5 237 235.7 234.2 232.6 230.5 228.2 225 220.7 219.3 216.6 214.9 213.2 211.4 208.9 207.6 203.6 191.9 172.3 166.1 168.2 168.8 167.9 169.4 168.2 166.8 165.1 163.6 160.9 157.4 153.4 149.2 145.1 137.8 132.5 126.1 119.7 114.5 106.7 103.2 98 91.5 86.7 82.4 74.6 69.6 69.4 69.4 64.9 64.9 64.9 64.9 64.9 64.9 64.9 73.8 78 78.8 80.2 85.1 84.8 86.1 85.5 84.5 82.2 80.3 77.8 77.6 82.2 78.9 78.8 79.4 80.3 80.3 79.4 79.5 79 77.3 75.3 73.8 72.7 71.4 71.1 70.6 70.9 71.1 70.9 70.1 69.3 70 70.5 71.9 72.4 73.5 74.2 74.6 75 75.3 75.4 75.9 76.4 76.2 76.4 77.6 78.9 79.3 79 78.7 77.3 77.9 79.8 79.9 79.9 79.7 78.7 76.6 74.7 73.8 73 72.3 71.4 70.6 69.7 69.5 69.3 68.9 68.6 68.2 68.1 68.1 68.1 68 68 68 67.7 67.6 67.7 67.3 67.4 67.2 66.9 67 67.1
308.6 308 307.3 309.8 312.4 315.9 320.4 326.1 336.2 346.3 352.4 357.7 357.7 351 347.6 350 352.3 353.8 355.5 356 355.5 354.7 352 344.6 336.1 329.7 325.6 322 319.1 317.9 316.2 313.9 310.9 307.2 302.8 298.7 295.5 292.6 290.1 287.1 283.8 282.2 280 277.8 274.5 270.8 268.4 266.5 261.6 254.1 249 246.1 242.8 240.9 238.7 237.8 236.6 236.1 236 235.4 232.8 229.3 227 226.3 223.8 221.3 219.2 217.5 215.6 213.3 211.1 209 206.4 201.1 194.4 182.7 165.6 153.6 155.8 155.5 158.1 155.3 153.3 151.9 149.9 148.7 146.1 142.1 136.6 130.8 124.1 117.1 110.2 104.1 98.9 93.3 88.8 83.6 72.9 66.6 64.9 64.9 64.9 64.9 64.9 64.9 69.3 69 68.9 69.5 69.5 68.7 64.9 64.9 70.3 72.1 70.9 71.7 72.6 72 72.1 72.8 74.2 74.3 73.2 71.7 72.2 72.9 72.8 73.1 72.3 72.5 71.8 70.9 70.9 70.4 69.9 69.7 69.5 68.8 69.2 69.5 69.5 69.2 69.4 69.9 70.4 70.5 71 71.9 72.9 72.8 73.1 73.1 73.9 73.7 73.6 73.9 74.1 75.8 77.8 79.4 79 78.8 78.4 76.1 78 79.4 79.7 79.6 78.8 76.9 75.1 73.2 72.2 71.4 70.6 69.8 69.5 69.4 69.1 68.8 68.6 68.1 67.7 67.4 67.6 67.8 67.8 67.8 67.8 67.7 67.5 67.2 67.2 67.4 67.3 67.1 67.1 67
313.8 315.2 314.6 315.7 317 320.3 325.4 328.4 335.2 343 348.7 354.7 357 351.9 350.3 353.4 354.5 356.6 357.6 356.5 356.1 355.9 353.5 345.5 337.7 330.3 324.1 319.3 316.4 314.1 311 307.6 305.5 303.3 299.7 296.7 293.5 290.2 287 283.6 280 277.1 274.7 272.6 269.1 266.1 263.9 262.6 256 249.9 245 242.7 241.7 239.2 231.4 230 231.3 234.2 235 231.8 231.2 226.9 224 223.7 222 219.8 218.2 216.5 214.7 212.5 209.7 206.6 202.4 196.9 190.2 183.4 174.1 158.1 143.3 145.3 146.5 144.3 140.7 138.7 136 134.3 131.1 126.3 119.6 114.9 108.1 100.8 93.6 90.3 85.8 79 65.6 64.9 64.9 66.8 69.1 69.5 69.3 68.7 68.8 69.3 69.3 69.1 69.2 69.1 69.1 69.2 69.2 68.5 64.9 64.9 64.9 69.3 70.1 70.5 70.2 69.5 69.1 69.2 67.3 64.8 67.4 64.8 64.9 64.6 64.7 64.7 65.3 69.5 69.5 69.3 69.2 69.1 69.4 69 67.5 68.5 68.8 69.2 69.5 69.7 70 70.2 70.3 71.3 71.9 71.8 71.7 71.4 71.2 71.3 70.9 71.3 72.5 74.4 76.1 77.6 76.6 77.8 76.8 74.4 76.1 77.1 77 77.1 75.9 74.2 72.7 71.4 70.5 69.7 69.2 69.2 69.3 69.1 68.8 68.7 68.3 67.9 67.8 67.8 67.8 67.2 67.4 67.9 67.7 67.5 67.3 67.1 67.2 68.2 67.6 68 67.7 67.5
326.7 327.4 326.8 325.5 328.2 330.1 332.3 335.1 338.4 342.1 348.6 355.1 357.5 353.2 352.6 353.9 355.7 357.4 357 355.9 356 354.9 351.1 343.9 337.1 330.5 325.3 318.9 312.7 306 306.9 302.8 302.9 300.8 297.6 294.6 291.3 286.6 282 278.8 275.4 272.5 270.1 268.7 266.7 263.8 262.2 259.9 254.2 249.6 244.9 241.9 240.3 235.1 236.6 233.7 226.2 225.6 227.4 229 227.2 225.2 219.9 220 219 218.2 216.7 214.5 212.4 209.6 206.8 202.6 197.9 192.3 186.3 180.1 174.2 167.5 159.2 147.2 133.6 126.7 126.5 123.8 122 120.2 114.8 108.2 106.6 100.3 94.2 89.5 84.9 74 69.8 64.9 67.3 69.9 70.1 70.1 69.7 69.5 69.4 69.2 68.7 69 69.1 69.1 68.8 68.7 68.8 69 69 68.8 70.6 69.3 64.9 64.9 64.9 64.9 67.5 67.1 65.6 65.6 65.9 65 65 67.5 68 68 67.9 67.3 65.2 65.7 69.4 69.4 68.9 68.8 68.3 68.5 68.9 68.9 69 69.1 69.3 69.5 69.7 69.6 69.7 70.5 71 71 70.9 70.9 70.4 70.2 70.1 70.6 70.8 71 70.6 71.8 73.2 73.6 73.6 72.6 72.1 72.9 72.6 72.6 71.5 71.1 70.7 70.2 69.3 69.4 69.4 69.2 68.9 68.8 68.9 68.5 68.2 67.8 67.8 67.8 67.6 67 67.1 67.6 67.7 67.8 67.8 68 69.1 69.4 69.6 69.7 69.6 68.9
342 342.3 341.7 339.8 339.5 338.5 338.6 340.2 342.3 346.8 350.4 357.2 357.4 356.1 355.2 353.8 355.4 356.9 356 354.2 353.1 350.4 346.1 342.8 338.3 332.6 326.3 318.5 311.9 306.4 302.1 298.1 300.3 298.1 295.1 292.2 288.8 284.6 279 273.9 271.2 269.3 269.2 267.4 264.9 262.2 260 258.6 254.9 253.1 248.8 244.4 241.6 241.4 239.7 236.5 233.4 227.1 213.5 214.8 222.9 221.5 219.9 217.3 215.7 214.7 213.3 211.6 208.6 205.4 201.4 197.2 193.1 188.4 182.7 177.7 172.1 166.2 157.9 148.6 138 130.2 115 107.3 107.9 106.6 103.8 98.3 94.9 90.9 87.1 82.7 71.1 69.2 64.9 69.9 70.2 70.1 69.7 69.5 69.4 69.3 69.1 69 68.9 68.8 68.7 68.6 68.5 68.6 68.7 68.9 71.6 68.9 68.9 68.9 69.3 71 68.9 64.9 65.6 65.6 65.6 66 68.7 68.8 68.8 68.4 68.6 68.4 68.6 68.3 68 66 64.6 69.3 69.1 69.4 69.4 69 69.2 69.3 69 69.2 69 69.1 69.2 69.2 69.2 69.8 70.3 70.2 70.3 70.3 69.7 69.5 69.6 69.8 70 69.9 70 70.3 70.8 70.9 71.1 71.2 71.1 71.3 70.8 70.8 70.7 70.3 69.8 69.7 69.3 69.4 69.5 69.5 69.3 69.1 68.8 68.5 68.2 67.8 67.6 67.8 67.9 67.5 67.5 67.5 67.9 68.4 68.9 69.7 70.4 71.1 71.7 72.4 71.8 71.2
355.9 356.3 352.7 348.8 345.4 343.4 343.8 345 348.1 352 357.1 362 360.2 359.4 355.4 353.2 354.9 356.4 354.7 352.1 349.2 346 342.8 339.4 335.5 333.5 327.7 319.4 310.4 304.8 300.6 297 296.7 295.1 292.2 289.4 286.2 282.1 276.9 273.2 270.1 268.3 268.4 267.6 263.1 262.6 259.6 256.2 253.7 253.5 246.5 248.9 245.1 244.2 241.1 238.8 234.6 229.3 222.9 208.7 212.9 218.5 217.8 216.6 212.8 209.7 206.8 205.1 202.5 199.3 195.5 192.1 188.3 184.8 180.3 175.7 171.1 165.1 156.7 147.5 138.3 130.4 122 113.6 102.1 99.2 97 94.8 91.3 87.4 81.9 71.5 70.3 65.1 69.1 69.7 70.2 70.1 69.8 69.5 69.4 69.3 69.2 69 68.9 68.8 68.7 68.8 68.7 68.5 68.6 70.8 68.6 68.8 69 68.9 68.8 69.4 69 69.2 68.9 68.8 68.9 68.4 68.3 68.6 69 68.8 68.8 68.5 68.6 68.6 68.7 68.6 65.8 64.6 69.2 69.7 69.7 69.5 69.6 69.4 68.8 69.4 69 68.6 68.8 69 69.1 69.6 69.4 69.1 69.7 69.6 69.3 69.3 69.1 69.2 69.3 69.3 69.5 69.7 70 69.9 70 70.2 70.8 70.7 70.4 70.1 69.9 69.4 69.4 69.6 69.2 69.4 69.4 69.5 69.4 68.9 67.9 68 68.1 67.7 67.6 67.8 68 67.8 67.7 67.7 68.2 68.6 68.9 69.9 71 72.6 73.3 73.8 73.8 72.9
362.3 362.4 358.3 353.7 351.3 350.1 350.6 352.3 355.4 361.9 368.2 365.9 362.4 359.1 355 353 354.1 354.8 352.3 347.8 341 339.7 336.6 334.2 331.5 331.3 326.6 318.5 308.5 302.3 298.3 295.6 293.5 292.7 290.1 287.1 284 279.4 276.9 274.9 271.9 269.9 266.3 265.7 263.2 261.5 258.2 257.3 255.4 253.3 250.7 250.2 246.7 244.3 241.2 237 232.1 226.2 221.1 212.6 205.3 215.6 213.5 211.3 208.3 202.7 199.7 196.1 193.6 191.9 189.4 186.8 183.6 180.2 177.3 174.3 169.7 165 157.2 148.1 136.6 131.5 123 117.2 111.6 104.5 92.1 93.3 88.7 84.9 77.8 70.6 65.3 68.7 70.3 70.2 70.1 70 69.9 69.6 69.5 69.4 69.2 69.1 69 68.9 68.7 68.5 68.9 68.7 70 68.3 68.3 68.6 68.7 68.9 69 69.2 69.1 68.9 68.6 68.6 68.4 68.4 68.4 68.1 68.2 68 68.1 68.4 68.9 68.4 68 68.4 68.3 67.1 64.6 69.1 69.5 69.4 69.5 70 69.2 69.4 68.8 68.8 68.7 68.9 69 69 68.8 68.5 68.7 68.7 68.8 69 68.9 68.8 68.9 69.1 69.1 69.4 69.8 69.5 69.3 69.8 70.5 70.2 69.9 69.5 69.3 69.3 69.1 69.3 69.2 69.3 69.3 69.4 69.2 68.8 68 68.2 68 67.4 67.6 67.9 68 68 67.8 68 68.2 68.3 68.7 69.7 71.7 73.3 74.8 74.2 74.6 74.2
367.3 367.3 364.1 360.5 360.3 358.4 358 359.8 365.8 375.3 374.1 368.5 364.6 360.5 356.6 352.6 351.6 350.8 347.6 342.7 336.7 332.6 331.3 331.1 329.2 328.3 323.9 316.5 306.6 300.2 296.3 293.6 292 290.4 288.2 285.7 281.9 281.7 280.1 277.3 272.9 270.9 267.9 265 263.3 262 260.1 259.7 259 257.7 253.9 252.1 248 244.3 240.5 235.6 229.5 223.8 218.9 213.6 198.8 210.7 207.3 203.7 200.6 197.2 193.7 190.9 188.4 184.4 181.6 180.6 178.6 175.8 175.1 172.5 166.7 163.8 157.9 148.4 141.1 133.5 125.9 118.7 111.4 104 95.3 88 86.8 83.7 70.1 65.3 65.3 69.7 70 70 70 69.9 69.8 69.7 69.6 69.4 69.3 69.2 69.1 68.9 68.7 68.5 68.4 70.2 68 68.2 68.2 68.3 68.5 68.6 68.8 69 69 68.5 68.6 68.3 68.4 68.7 68.5 68 68.4 68.1 67.6 67.2 67.7 67.7 67.4 67.8 68.3 68.5 66.1 64.6 68.9 69.3 69.6 69.5 69.5 69.9 68.7 68.7 68.7 68.6 68.7 68.7 68.4 67.9 67.8 67.7 68.3 68.4 68.5 68.6 68.7 68.9 68.8 69 69.7 69.2 69.2 70 70 69.9 69.5 69.2 69.2 69.2 69 69.1 69.1 69.2 69.1 68.9 68.7 68.9 68.2 68.5 68.1 67.7 67.5 67.8 67.9 68 67.9 67.7 67.9 68.2 68.7 69.7 71.4 73 74.2 73.3 73.4 73.6
364.8 368.1 367.5 367.3 365.2 365.1 364.5 368.2 378.5 382.5 377.9 372.8 367.8 368.2 361.8 354.8 347.5 344.6 341.1 333.7 329.9 328.3 328.1 327.6 326.6 324.2 320.5 313.7 304.3 298.7 295.2 293.2 291.8 290.3 288.3 285.5 284.4 283.3 281.4 278.4 274.6 272.1 268.9 267 265.5 263.5 261 262.3 261.1 257.3 255.3 252.2 249.6 246 240 234.1 228.1 222.5 215.6 211.9 198.6 195.6 198.9 194.7 192.3 189.8 186.8 184.8 182.2 178.9 176.5 175.1 173.7 172.3 170.8 169.7 166.6 162.9 157.8 151 143.5 135.4 127.8 120 110.6 100.2 90.2 83.3 83.1 70.6 65.3 65.3 69.6 69.6 69.7 69.7 69.7 69.6 69.6 69.7 69.6 69.5 69.4 69.3 69.2 69 68.8 68.6 70.3 67.9 68 68 68.1 68.1 68.2 68.5 68.7 68.7 68.4 68.7 68.8 68.2 68.1 68.3 68.5 68.1 68 68.3 68.5 68.2 68.2 67.8 68.5 68.2 68.2 68.2 68 66.6 64.6 65.3 68.9 68.7 68.9 68.7 68.5 68.3 68.3 68.2 68.4 68.5 68.7 67.4 67.6 68.3 68 68.1 68.1 68.4 68.4 68.7 68.6 68.6 69.7 69.4 69.5 69.2 69.5 69.8 69.5 69.2 68.8 68.8 68.7 68.8 69 68.7 68.5 68.3 68.2 68.4 68.5 68.2 68.4 68.2 68 67.8 67.6 67.2 67.2 67.4 67.8 68.7 68.8 69.5 70.7 72.2 72.7 71.4 73.5 73.2
360 365.2 368.8 370 370.5 369.6 368.1 374 385.1 384.9 381.4 376.5 377.3 372.7 365.9 358.3 350.6 343.4 336.6 332.7 329.7 326.5 325 324.6 324 321.9 318.7 311.8 303.5 297.6 294.6 292.9 291.7 290.5 289 286.8 284.8 282.4 282.1 281.9 277.7 274.3 272.3 270.2 267.6 266 264.8 264.1 261.3 258.8 257.2 253.8 251.1 245.6 239 232.9 227.3 219.1 215.3 207.1 202.4 189.1 182 184.6 184.3 182.3 180.3 178.5 176 173.3 171.3 169.8 168.7 168.2 167.6 166 163.9 160.6 156.9 151.9 145.1 137.5 129.3 118.4 106.1 96.1 86.8 72.2 71.9 65.3 65.3 69.4 69.3 69.4 69.5 69.5 69.5 69.1 69.1 69.3 69.3 69.2 69.1 69.1 69 68.9 68.5 70.6 68.1 68.2 68.1 68.2 68.3 68.2 68.2 68.2 68.3 68.5 68.6 68.8 68.7 68.2 68.3 68.3 68.5 68.3 68.4 68.7 68.3 68.1 68.3 68.4 68.3 68.3 68 67.6 68.1 66.9 67.6 64.5 64.4 68.7 68.7 68.7 68.6 68.3 67.9 67.8 68.1 68.1 68.1 68.5 67.8 67.5 67.4 67.4 67.5 67.5 67.6 66.1 66 65.5 66.5 68.9 68.8 68.9 69 69.3 69.5 69.2 68.5 68.5 68.6 68.7 68.6 68.2 68.2 68.1 68.6 68.7 68.6 68 68.2 68.5 68.2 67.8 67 66.7 67.3 67.8 67.9 68.6 68.7 68.6 69.6 70.2 70.8 69.9 72.6 72.4
352.1 361 365.7 370.8 370.1 369.6 369 376.7 385.9 385.3 383.2 382.5 380.4 373.7 366.5 360.1 353.6 346.2 338.1 333.1 329.9 327.3 325.4 324.6 321.6 319.6 315.4 308.9 302.5 297.3 294.2 292.7 291.4 289.9 288.3 286.4 284.8 285.2 285.3 285.5 281.7 281.3 277.4 273.5 269.7 268.6 268.7 264.4 261.2 259.7 257.7 255.1 250.2 244.5 237.6 233.2 228 220.2 212.6 206 198.2 191.3 180 169.7 176.3 177.4 174 171.9 169.5 167.2 165.1 164.3 163.8 162.8 161.6 160.5 160.9 157.9 154.8 151.2 143.5 136.5 125.7 111.5 99.4 91.3 85.1 75.3 65.3 65.3 69.5 69.5 69.5 69.3 69.3 69.3 69.1 68.7 68.6 68.9 69 68.9 68.9 68.7 68.7 68.5 70.7 68.2 68.5 68.3 68.1 68.3 68.4 68.4 68.2 68.2 66.5 67.4 68.4 68.6 68.5 68.3 68.1 68.5 68.2 68.5 68.5 68.5 68.5 68.3 68 67.8 68.1 67.9 67.6 67.7 67.9 68 67.2 66.7 66.7 64.1 68.3 68.9 68.5 68.2 68.1 68 67.8 67.8 67.7 67.5 67.5 67.5 67 67.3 66.6 66.7 66.6 66.6 66.9 67.1 65.4 67.8 68.5 68.6 68.7 69 69.2 69 68.4 68.3 68.4 68.6 68.5 68.2 68.5 68.4 68.7 68.6 67.8 67.9 68.1 68 67.9 67.5 67 66.7 67.4 67.5 67.7 68.5 68.7 68.3 68.4 68.4 69.2 68.4 70.3 70.4
342 353.5 359.5 365.1 367.9 367.8 367.9 373.2 381.6 385.1 383.6 384.3 381.2 374.5 366.6 360.8 354.8 346.9 340.2 334.1 330.3 327.5 324.8 322.6 319.5 315.4 311.2 306.2 301.9 297.2 294 292.3 290.9 289.8 288.6 286.5 286.5 287.8 288.5 286.9 286.9 284.4 279.4 275 272.4 269.6 267.3 264.4 261 259.2 256.7 253.4 248.4 243.6 239.4 236 228.8 220.9 213.1 204.4 195.5 188.4 182.6 174.8 157.9 168.8 170.1 167.4 164.7 162.3 160 159.4 158.8 157.7 153.2 157.4 157.1 154.9 151.9 148.5 140.2 130.8 116.8 104.7 94.2 87.3 80 65.3 68.2 69.7 69.7 69.7 69.7 69.6 69.3 69.1 68.9 68.7 68.7 68.6 68.7 68.6 68.4 68.7 68.4 70.8 68.3 68.4 68.5 68.3 68.2 68.4 68.5 68.6 68.3 67.7 67 66.8 67.9 68.3 68.2 68.1 68.1 68.3 68.3 68.4 68.3 68 68 67.7 67.7 67.7 67.9 67.8 67.6 67.8 67.7 67.8 68 68.3 67.2 66.6 64.9 64.4 68.3 68.3 68.4 67.9 67.5 67.9 67.5 67.2 67.3 67.1 66.5 66.6 66.1 66 65.8 66.1 66.4 66.8 66 66 67.3 67.5 68.2 68.9 68.6 68.5 68.2 68.2 68.3 68.4 68.3 68 67.8 67.4 67.6 67.1 67.8 67.9 67.7 67.5 67.5 67.4 67 66.8 67.5 66.9 67.2 66.9 66.7 66.7 67.4 67 67.2 67 67.3 68.2
332.7 345.3 351.5 358.2 362.4 363.4 364.4 367.8 375.7 382 382 383.2 380.4 372.5 365.1 359.4 353.7 347.8 341.4 335.7 330.9 326.9 323.3 320.9 317.2 312.2 303.2 303.9 300.5 296.6 293.3 291.1 290.1 289.4 288.8 289.3 289.2 288.8 289.1 289.7 287.4 283.6 279.4 275.2 270.5 266.8 265 262.9 260.3 256.9 254.3 252 248.5 244.7 240.9 235.9 229.2 221.3 211.6 203 194.8 187.1 180.5 174.9 169.6 153.8 156.1 162.5 159.2 158.7 156.7 153.3 151.7 151.9 148.3 149.9 150.6 149 146 141.2 132 120.4 109.4 98.6 88.1 84.3 65.3 66.6 69.6 69.9 69.8 69.7 69.8 69.4 69.1 69 69 69 68.8 69.3 69 68.3 68.3 68.4 70.9 68.3 68.4 68.4 68.5 68.3 68.4 68.6 68.6 68.7 68.6 68.1 67.5 67.3 67.1 68.4 68.3 67.9 68.2 68.7 69.2 68.2 68 67.7 67.4 67.4 67.5 67.5 67.5 67.5 67.6 67.5 67.7 67.9 68.2 69 68.5 66.1 65.9 66 64.1 68.1 68.4 68.4 67.9 68.1 67.9 67.3 66.8 66.5 66.2 66.1 66.5 66.1 66.1 66.2 66.5 66.7 66.2 65.7 66.3 66.9 67.5 67.9 68.1 68 67.8 67.9 68.1 68.2 68 67.7 67 66 65.4 65.4 67.4 67.4 67.4 67.4 67.5 67.4 67.8 67.3 67.4 67.3 67.4 67 67.7 66.3 66.4 66.6 67 67.3 67 67.5
326.8 334.9 344.5 351.9 358.3 358.6 359.7 364.5 370.1 376.9 379.8 381.1 378.4 370 363.4 357.8 352.1 347.5 342.6 337.1 330.8 324.4 319.1 315.6 311.2 308 302.9 298.1 298 294.1 291.6 289.2 288 287.9 289 288.9 290 290.5 289.5 287.6 284.8 281.4 277.2 273.3 269.8 265.4 263.6 261.1 257.6 254.5 252.2 250.7 247.8 244.5 240.5 235.2 228.6 221.6 211.8 203.7 196.2 187.1 179.7 173.6 168.2 162.7 143.9 148.3 155.5 155 152.1 147.3 142.4 142.4 139.6 139.6 141.1 140.6 137.5 130.2 120.8 111.3 100.8 91 83.8 65.3 65.3 70.1 70 70 69.9 69.8 69.7 69.2 68.8 68.8 68.8 68.9 69 69.3 69.6 69.4 68.1 71 68.3 68.4 68.4 68.5 68.6 68.8 68.8 68.7 68.5 68.6 68.5 68.5 67.6 67.3 67.3 67.4 67.6 67.5 67.9 68.9 68.1 67.6 67.5 67.4 67.3 67.4 67.1 67.4 67.6 67.7 67.7 67.4 67.7 68 68.2 68.2 68.4 68.3 66.6 66.2 65.9 64.1 68.6 68.5 68.4 68.2 67.9 67.4 66.8 66.6 66.3 66.3 66.8 66.4 66.2 66.6 66.8 66.6 66.1 65.8 65.7 66.3 67.1 67.2 67.5 67.6 67.5 67.2 67.5 67.8 67.2 66.7 66.5 66.2 66 66 65.9 67.5 67.2 67.2 67.6 67.4 67.5 67.9 67.8 67.5 67.2 66 65.7 64.3 64.6 65.4 64.6 65.2 66.3 66.8
322.7 331.7 335.6 345.4 353.4 354.5 355.5 360.3 365.6 372.7 377.3 376.7 373.6 367 361.7 356.1 350.7 345.9 341.9 336 329.1 322.2 315.6 310.1 306.3 303.7 300.1 296.7 293 290.6 287.6 287.3 285.5 286.5 288.1 289.4 289.5 287.9 286 283.1 280.5 277.1 273.8 270.2 267.2 264.2 261 257.7 254.7 252.3 250.9 249.3 246.7 244 239.5 234.8 229 222.2 214.9 206.9 197.6 188.2 179.9 173 167.7 161.2 153.5 135.1 143.4 150 148.3 144.8 141.1 135.1 131.9 129 129.5 130 126.5 118.7 110.3 100.7 94.1 85.5 72.8 65.3 70.3 70.5 70.5 70.1 69.9 69.8 69.5 69.1 68.7 69.2 69.4 69.5 69.3 68.9 68.6 68.4 71.2 68.4 68.4 68.5 68.5 68.6 68.7 68.6 68.5 68.6 68.6 68.5 68.4 68.4 68.2 67.3 67.4 67.5 67.6 67.7 67.7 67.7 68.2 67.7 68 67.3 67.1 67.2 66.4 67.5 67.7 67.7 67.6 67.4 67.6 67.9 68.1 67.9 68 68.3 68.3 68.4 66.1 65.9 64.1 68.4 68.3 68.3 67.9 67.4 67.1 66.8 66.3 66.6 67 66.3 66.2 66.4 66.6 66.6 66.3 66 65.6 65.8 67.1 67 67 67.2 67.1 66.8 66.8 67.1 66.7 66.7 66.5 66.2 65.8 65.7 65.6 66.9 67.6 67.4 67.1 66.9 66.7 67.3 67.9 67.5 66.9 65.5 65 64.6 65.6 65.2 64.5 65 64.1 64.9
324.4 330.2 336 342.7 348.3 351.1 351.5 354.1 359.5 367.8 373.1 374.4 368.3 363.9 359.2 353.2 348.1 343.8 339.7 334.3 327.4 320.5 314.4 308.8 303.7 300.1 297.8 294.4 291.2 289.2 287.2 285.7 283.6 280.9 287 286.9 284.9 282.9 280.7 277.7 275 272.6 270.4 267.8 265 261.5 257.9 254.9 252.6 251.2 249.7 247.3 244.9 241.7 238 234.1 229.8 224.3 218.1 209.3 199.9 190.4 181.9 174.5 167.6 161.9 156.6 150.8 133.7 135.9 142.9 141.2 137.8 131.5 127.6 122.9 120 120.2 114.6 108.1 100.8 93.4 85.7 77.6 65.6 70 70.4 70.6 70.1 69.7 69.5 69.3 69.2 68.9 69.3 69.9 70 69.8 69.6 69.3 69.6 70.9 67.7 68.1 68.5 68.6 68.6 68.8 68.7 68.6 68.4 68.3 68.4 68.5 68.4 68.4 68.5 68.6 68.2 67.7 66.7 66.9 66.8 67.7 67.5 67.3 67.2 66.8 67 67.8 66.6 67.2 67.6 67.7 67.6 67.5 67.5 67.4 67.4 67.7 67.6 67.9 68.1 68.4 68.5 68.4 65.6 65.7 68.2 68.3 68.1 67.8 67.8 67.3 66.6 66.3 66.4 66.2 66.4 66.4 66.4 66.5 66.4 66.1 65.7 65.4 66.9 66.8 66.8 66.7 66.7 66.5 66.5 66.6 66.6 66.5 66.5 66.1 65.8 65.4 65.5 65.8 67.1 67 66.8 66.4 67.2 67.6 67.5 67.6 67.7 66.9 65.2 65.1 64.3 64.9 65.3 65.5 64.6 64.2
327 332.8 338.2 343 346.4 348.1 347.9 350.6 355.6 362.4 370 371.6 366.7 358.7 353.5 348.9 345.5 341.3 336.8 332 325.4 319.4 313.4 307.8 302.6 299.5 296.9 293.6 290.9 288.9 287.5 286.4 286.1 277.5 282 282.1 280 277.8 275.3 272.5 270.8 268.8 266.4 263.6 260.9 258 255.4 253.1 250.6 248.3 246.4 244.3 241.8 238.9 235.5 232 228.2 223.7 218.2 211.1 202.6 193.9 185.4 176.7 168.8 161.8 155.6 150.8 146 132.5 127.2 131.8 132.2 128.6 124 120.3 115.8 112.5 106.5 100.4 93.5 86.1 76.6 70.1 65.7 69.9 70.1 70.6 70.3 69.8 69.4 68.9 69.1 69.1 69.6 70.1 70.3 70.1 69.9 69.7 71.2 69.3 68.7 68.3 68.3 68.7 68.7 68.8 68.7 68.5 68.4 68.3 68.4 68.7 68.6 68.5 68.5 68.6 68.5 67.9 66.8 67.1 66.8 65.4 66.8 67.3 67.1 67.2 67.1 67.2 67 67.2 67.5 67.9 67.8 67.7 67.5 67.2 67.9 67.8 67.6 67.7 67.9 68.1 68.2 68.1 68.1 64.1 68.2 68.1 68.1 68.3 68.3 67.2 67.3 66.9 66.4 66.6 66.7 66.7 66.6 66.3 65.9 65.6 65.3 66.8 66.9 66.9 66.8 66.7 66.4 66.4 66.6 66.6 66.5 66.5 66.4 66.4 66 65.5 65.4 65.6 66.1 66.7 66.8 66.4 65.8 66.4 66.7 66.6 67 67.2 65.3 64.9 65.3 65.7 65.8 65.7 65.2 65
328.5 335.7 341.8 347.2 348.3 347.4 345.9 348.3 353.9 359.4 366.2 368.1 363.7 356.7 349.5 345.7 342.3 338.3 333.8 329.3 322.9 317.3 312.2 306.6 302.1 298.7 295.8 292.7 290.1 289.1 288.1 287.3 285.2 280.5 272.1 274.6 274.7 272.4 269.8 267.9 266.4 264 261.3 258.5 256.6 254 251.8 249.4 246.9 244.5 242.1 240.5 237.7 235.3 232.4 227.8 225.2 220.9 216.7 211.9 205.4 197.2 188.6 179.3 170.3 163 157 152.1 147.5 142.4 134.9 121 123.9 123.2 120.8 117 111.9 107.8 100 94.6 86.9 79.9 70.8 70.5 65.9 70.1 70.7 70.6 70.4 70.1 69.9 69.9 69.9 69.6 70.1 70.3 70.3 70.2 69.9 71.5 69.9 69.6 68.9 68.5 68.2 68.6 68.8 68.8 68.6 68.4 68.3 68.3 68.6 68.7 68.6 68.5 68.5 69 69.3 69.7 68.5 68.7 68.4 67.1 66.4 66.6 66.9 67 67 67.2 67.2 67.4 67.6 67.8 68 67.9 67.8 67.8 67.6 67.8 67.6 67.6 67.8 67.8 67.6 67.6 67.7 64.1 68.7 68.6 68.2 68.1 68.3 67.2 66.8 67 66.7 66.8 66.9 66.7 66.6 65.4 65.4 66 66.6 66.8 67.3 67.1 66.8 66.7 66.6 66.5 66.7 66.5 66.5 66.4 66.4 67.1 66.5 66.9 66.7 64.3 65.8 65.8 65.7 64.6 65.7 65.5 65.9 66.1 65.3 65.7 65.2 65.4 65.6 65.7 65.6 65.5 65.6 65.6
333.3 338.2 344 349.8 350 344.8 343.5 346.2 352 357.8 360.9 362.3 359.5 352.6 346.5 342.6 338.9 334.6 330.2 325.5 320.4 314.8 310.2 305 301.8 298.3 294.5 291.7 290.1 289.2 287.9 284.9 282 278.5 275.6 266.4 267.3 267.7 266.1 264.3 262.7 259.9 258.4 255.4 252.3 249.9 247.1 243.8 241.8 238.9 237 235.3 232.5 230.1 226.8 224.1 221.1 218.2 215.5 211.6 207 199.4 190.4 181.4 172.8 165.3 158.7 153.7 149.3 144 137.1 130 109.9 114.5 114.7 110.5 103.7 99.9 94.5 86.8 85.7 73.8 70.6 70.4 66.1 70 70.7 70.6 70.4 70.2 70.3 70.4 70.5 70.2 70.1 70.2 70.2 70.2 71.6 70.2 70.2 70.1 69.6 68.4 68.4 68.4 68.5 68.6 68.4 68.3 68.3 68.5 69.1 68.7 68.6 68.5 68.4 68.8 69 69.1 68.7 68.4 66.9 66.5 66.3 66.4 66.7 67.1 67.1 67.2 67 66.9 67.2 67.7 67.9 67.6 67.3 67.6 67.9 67.9 67.6 67.5 67.7 67.8 67.7 67.6 68 64.1 69.2 69.6 69.6 69.7 68 67.2 66.8 67 66.9 66.6 66.8 66.9 66 65.7 66.1 66.5 66.7 67 67.3 67.5 67.2 66.9 66.9 66.8 66.6 66.5 66.4 66.4 66.4 67.2 67.1 66.6 66.7 66.1 66.1 66.6 66 65.5 65.6 65.5 65.8 65.5 65.8 64.9 65.4 65.3 65.3 65.2 65.2 65.5 65.7 65.5
337 340.9 345.7 351.5 349.8 343 340.1 343.5 349.2 354.7 356.7 358 354.4 348.6 343.7 339.6 335.1 330.5 326.1 321.5 315.6 311.3 306.8 303.2 300.2 297.6 294.5 292 290.1 288 284.4 281.8 278.6 275.2 271.9 267.9 259.3 262 262.4 260.7 259.6 255.6 253.2 250.9 247.9 244.6 241.5 237.9 234.8 233.5 231.7 230.5 228 225.7 222.8 220.8 218 216 213.4 210.7 206.2 200.2 192.4 183.8 175.9 168.1 160.7 155.4 150.8 144.5 137.8 131.5 125.8 109.9 102 103.4 97.9 92.7 88 85.2 83.3 74.6 70.6 70.3 66.3 66.1 70.7 70.4 70.1 70.1 70.2 70.3 70.6 70.7 70.5 70.4 70.6 72.6 70.6 70.1 70.4 70.6 68.6 68.5 68.5 68.4 68.2 68.2 68.2 68.2 68.4 68.8 68.9 68.4 68.3 68.3 68.3 68.4 69 68 67.5 66.1 66.9 67.2 67.3 67.2 67.1 66.9 67.4 67.5 67.4 67 67.2 67.5 67.6 67.1 66.9 67.3 67.7 67.6 67.6 67.6 67.8 67.6 67.5 67.5 65.6 68.4 68.3 69.4 69.8 67.8 67.7 67.6 67.1 67 66.6 66.5 66.6 66.8 66.4 65.6 66.2 66.7 66.6 66.8 67.1 67.4 67.3 67.1 67 66.8 66.6 66.5 66.4 66.4 66.4 67.2 67.6 67 66.3 66.3 66.1 65.9 66 65.4 65.2 65.5 65.7 65.2 65.2 64.9 65.5 65.6 65.6 65.5 65.4 65.3 65.3 65.3
344.1 348.4 350.5 349.3 346.7 342 337.7 341.1 344.7 349.9 351.7 351.9 349.6 344 339.5 335.6 330.8 326 322.2 315.5 311.2 306.8 303.7 300.9 298.2 295.6 293 290.1 287.3 283.6 280.6 278.5 275.3 271.9 268.7 265.7 262.8 253.4 254.2 254.8 250.6 251.4 248.3 245.4 242.2 238.8 235.5 231.7 228.3 227 226.2 225.6 223.8 221.5 219.1 217 215.1 213.5 210.5 207.1 204.2 199.3 192.5 186 179.4 171.5 162.8 157.1 152.5 147.1 141.3 134.4 125.7 117.9 105.5 95.8 95 88.8 86.4 82.6 80.8 72 70.9 70 69.3 66.1 70.4 70.4 70.3 70.2 70.4 70.4 70.8 70.9 70.9 70.7 71 70.3 70.5 70.2 70.4 70.3 68.7 68.5 68.5 68.4 68.2 68.3 68.3 68.2 68.5 68.9 68.3 68.3 68.3 68.4 68.4 67.8 67.3 67.4 65.8 66.8 66.7 67 67.3 67.2 67.1 67.6 67.3 67.4 67.5 66.8 67.4 67.5 67.3 67 67 67.5 67.3 67.2 67.2 67.5 67.6 67.3 67.2 67.3 64.1 68.1 67.5 67.8 67.7 67.7 67.6 67.4 67.2 66.8 66.7 66.9 66.7 66.7 66.1 65.7 66 66.7 66.5 66.4 66.6 67 67.4 67.2 67 66.9 66.8 66.7 66.5 66.4 65.6 67 67.4 66.8 66.3 66.1 65.7 65.5 65.3 65.2 65.4 65.5 65.5 65.6 65.5 65 65.4 65.8 65.9 65.8 65.8 65.7 65.7 65.6
353.1 356.3 350.5 346 342.5 341.1 339.4 336.2 339.8 341.9 344.6 344.4 341.3 339.2 334.8 330.4 325.5 319.6 315.4 311.2 307 303.9 300.8 297.7 295.5 293 289.5 285.9 283.4 280.2 277.4 274.8 272 269 265.9 262.2 259.5 256.9 244.4 242.8 245.6 245.8 242.6 239.4 234.9 231.5 229.4 225.7 223.2 221.8 220.8 219.2 217.7 216.4 214.8 212.6 210.9 209.1 206.4 203.1 200.4 197.2 192.1 186.3 180.4 173.7 165.9 160.3 156.3 150.5 143.8 135.7 125.6 116.5 107.4 97 88.4 87.2 85.6 81.7 76.7 74.8 71.2 70.9 70.3 66.1 70.1 70.5 70.5 70.2 70.4 70.8 70.9 70.9 70.8 71.3 70.6 70.3 70.4 70.3 70.3 70 69.2 68.6 68.5 68.4 68.3 68.5 68.6 68.1 68.4 68.6 68.3 68.3 68.4 68.4 68.3 67.7 67.5 67.1 66.7 66.9 66.8 66.6 66.8 66.8 66.9 66.9 66.9 67.6 67.3 66.8 67.2 67.4 67.3 67 67.1 67.2 66.4 65.6 66.3 66.6 66.9 67.4 67.9 67.1 64.1 68 67.8 67.6 67.7 67.7 67.6 67.4 67.2 67 66.7 66.7 66.6 66.4 66.2 65.9 65.7 66.5 66.4 66.3 66.2 66.5 66.9 67 67 66.9 66.4 66 66.2 65.2 65.5 65.7 64.8 65.8 67.1 66.3 65.4 65.4 65.5 65.5 65.5 65.6 65.6 65.6 65.9 65.4 65.2 65.5 65.7 65.7 65.7 65.7 65.6 65.4
361 355.4 348 343.9 340 336.8 334.9 330.7 333.3 334.9 336.1 336.5 333.9 330.6 327.1 322.3 318.6 314.2 310.8 306.6 304.1 300.9 297.8 294.6 290.9 285.5 283.5 281.3 278.5 276 273.7 271 268.3 265.7 263 259.4 255.9 252.2 248.1 237.5 236.2 238 236 232.9 229.3 225.7 223.4 220.7 218 216 214.4 212.4 211.8 211.2 209.2 207 205 203.2 201.5 199 196.2 193.3 190.1 185.3 179.5 173.4 166.8 162.7 157.5 151.6 143.5 134.6 123.7 114.7 98.4 92.8 88.4 83.7 83.7 80.9 79.1 74.2 72.6 71.1 70.3 66.1 69.8 70.8 70.4 70.3 70.4 70.7 70.9 70.8 71.7 70.7 71.5 70.9 71 70.8 71.2 71 69.9 68.6 68.5 68.4 68.5 68.6 68.1 68 68.2 68.4 68.4 68.4 68.4 68.4 68.1 67.8 67.6 67.1 66.4 66.7 66.6 66.5 66.6 66.6 66.8 66.7 67.2 67.6 67.3 66 66.8 67.2 67.3 67 64.1 64.1 64.1 64.1 64.1 64.1 64.1 64.1 64.1 64.1 64.1 67.6 67.8 67.8 67.8 67.7 67.5 67.2 67.1 67 66.7 66.7 66.7 66.5 66.2 66 66 65.8 66.2 66.1 66.1 66.1 66.3 66.6 66.4 66.3 66 64.7 64.8 65.6 65.4 65.6 65.1 64.5 66.6 66.8 65.7 65.9 65.9 66 65.6 65.7 65.7 65.8 65.9 65.4 65.2 65.2 65.5 65.5 65.5 65.4 65.3 65.1
359.8 353.1 348 342.8 338.2 335.3 331.5 328.8 328.6 330 330.8 329.6 327.4 323.4 320.1 316.8 312.6 309.3 307 304.9 301.5 298 294.6 290.4 285.1 282.2 279.2 276.3 273.5 271.8 269.7 267.2 264.6 261.9 259.3 255.9 252.2 248 244.5 239.3 228.5 228.7 228.8 226.3 223.9 221 217.8 214.9 211.6 209.2 207.4 206.2 206 205.1 203.2 201.1 198.9 196.6 194.9 193.2 191.2 189 185.7 181.7 178.1 172.8 167.3 163.1 156.8 150.2 141.6 132.5 120.6 107.9 97.2 88.8 85.3 84 81.2 79 76.3 74 72.2 70.9 70 69.3 66.5 70.4 70.3 70.6 71 71.2 71 71.9 71 71.2 72.7 80.8 72 71.6 72.1 70.9 70.1 68.9 68.4 68.4 68.4 68.5 68.3 67.7 67.9 68.2 68.3 68.4 68.4 68.4 68.1 67.7 67.4 67.1 66.4 66.5 66.5 66.6 66.6 66.6 66.5 66.5 67.1 67.1 67.2 67 66.4 66.8 67.1 63.9 65.1 66.8 67.3 67.5 67.1 67.5 67.8 67.5 67.4 67.9 68 67.8 67.9 67.9 67.8 67.6 67.3 67.1 66.9 67 66.9 66.8 66.8 66.5 66.3 66 66 66 66 66 66 65.9 66 66.1 66.2 65.7 65.7 65.8 65.9 66 65.8 65.7 65.8 64.7 66.9 67.3 66.4 66.2 66.3 66.4 66.2 65.7 65.8 65.8 65.8 65.4 65.2 65.2 65.2 65.4 65.3 65.1 65 64.9
358 352.1 348.3 343.5 338.6 334.2 329.6 326.8 323.6 326 325.6 324.2 320.6 316.8 313.4 310.6 307.1 303.8 302.7 301 297.6 293.7 288.6 285.1 282.1 278.7 275.3 271.3 268.6 266.9 265.2 263.1 260.4 257.8 254.8 250.7 246.7 242.9 239.4 235.9 229.6 219.2 220.2 220.7 217.6 214.9 212.2 208 204.8 202.6 201.7 199.9 199.1 199 196.9 195.1 192.9 190.6 188.9 187.4 185.4 184 182.6 179.6 175.8 171.7 166.6 160.8 152.1 145 136.2 125.6 114.1 97.8 92.6 86.2 85 84 83.8 82.8 80 72.4 71.7 70.7 70.3 70.4 66.1 70.2 70.6 71.1 71.5 72 71.6 71.5 75.5 81.6 82.1 82.5 82.4 76.5 73.3 71.4 70.2 69.2 68.6 68.7 68.7 68.2 68.1 67.8 67.8 67.9 67.9 68 67.8 67.7 68.1 67.7 67.2 66.8 66.7 66.7 66.2 66.4 66.4 66.5 66.4 67 66.5 66.9 67 66 67 67.1 63.8 64.6 66.9 67.3 67.3 67.4 67.1 66.5 67.5 67.8 67.6 67.7 67.7 67.8 67.7 67.6 67.5 67.2 67 66.8 66.9 67 67 67 66.8 66.5 66.2 66 65.9 65.9 65.8 65.9 65.8 65.7 66 66.3 66.3 66.2 66.1 66 66.5 66.5 65.5 65.9 65.4 64.3 66.6 66.4 66.4 66.4 66.3 66.3 66.1 65.7 65.8 65.6 65.3 65.3 65.3 65.3 65.4 65.5 65.4 65.3 65.2 65.1
356.6 350.6 346.8 342.3 337.6 332.7 328.4 324.5 322 323.1 321.6 318.6 315.4 312 308.9 306.1 303.4 300.3 298 296.1 292.6 289 286 280.9 277.9 274.3 271 267.7 265 262.6 260.3 257.6 255.2 252.1 249.2 245.7 240.7 237.5 233.8 230.4 226 222.7 216.5 203.6 208.9 209.6 206.5 203 199.6 197 194.8 191.9 189.6 188.4 187.1 186.3 187.9 187.5 183.9 181.4 180 179.1 178.1 175.7 170.9 166.8 161.6 154.2 145.9 137.7 127.5 117.3 105.6 95.4 89.5 87 85.6 84.5 84.3 83.7 80.1 71.4 71.8 71.3 70.8 70.5 66.1 69.7 70.9 71.3 72 73.1 76.6 83 82.7 81.1 82.9 82.8 82.8 82.6 76.9 75.6 73.5 71.4 71.4 70.3 69.9 69.8 70 69.4 68.7 67.7 67.9 68.6 68.4 68.3 67.6 67.9 68.2 68.9 69.6 70.8 72.2 72.2 71.5 70.3 68.6 67.6 67.6 67.5 67.2 67.3 67 67.2 65.1 63.8 66.5 67.3 67.3 66.6 66.8 66.8 67.4 67.6 67.3 67.5 67.3 67.5 67.4 67.3 67.2 67.1 66.8 66.9 67.3 66.9 67.1 66.8 66.6 66.5 66.2 66 65.9 65.9 66.1 66.3 66.1 66.1 66.2 66.5 66.6 66.4 66.2 65.8 66.4 66.2 65.6 65.9 65.9 65.9 65.8 66.1 66.3 66.3 66.3 66.1 66 65.7 65.7 65.5 65.3 65.5 65.6 65.7 65.8 65.7 65.6 65.6 65.2 64.5
356.3 349.9 345.5 340.7 335 330.2 325.5 321.7 319.9 321.7 320.2 316.3 313.6 309.9 306 303.3 298.9 291.6 289.3 290.6 287.6 284 280.8 269.1 268.9 270.3 266.7 264.7 261.9 258.7 255.4 252.5 249.4 246.1 243.1 240.2 234.5 232.3 229.2 224.8 221 217.9 214.9 211 195.3 201.5 200.6 198.2 193.9 187.9 183.1 179.1 175.3 172.3 170.4 171.1 177.1 179.4 178.2 175.9 174.4 172.2 169.6 167.1 163.5 158.2 151.9 143.9 136.1 128.2 119.1 109 97.4 91.5 87.9 86.4 85.1 84.4 84.2 83.6 75.6 70.4 70.6 70.9 71.1 70.7 66.1 68.3 71.2 72.1 81.2 79 83.1 84.2 84.2 83.5 83.4 83.2 83.5 80.5 82.7 82.7 82.7 82.4 80.2 78 78.8 79.9 81.5 81.2 78.4 78.7 74.6 73.3 71.7 73.1 75.4 80.5 81.3 81.1 81.1 79.6 82.2 80.9 77.9 76.6 75.8 75.6 76.1 75.2 75.4 74.3 73.3 71.7 70.1 63.8 63.9 65.8 66.9 66 66 67 66.7 67.3 67.1 67.1 67.5 67.3 67.2 67.1 67 66.8 66.6 66.6 66.7 67.2 66.9 66.8 66.5 66.2 66.1 66.1 66.1 66.1 66 66.8 66.1 66.6 66.6 66.5 66.1 66.2 66.3 66 66 66.4 66.2 65.8 62.1 62 63.1 62.5 62.4 63.5 66.7 65.9 65.6 65.6 65.7 65.6 65.6 65.3 65.5 65.7 65.3 65.3 65.3 65.5 65.1 64.6
355.5 350.6 346.2 340.9 333.2 325 321.8 319.7 317.8 319.9 319.2 316.2 312.3 308 302.6 296.6 294.2 294.9 290.4 288.9 284.4 281 277.7 268 263 260.3 255 250.7 248.5 246.3 244.2 243.1 241.1 237.5 236 234.1 233 227.5 224.3 218 205.4 201.6 200.9 195.2 189.3 187.3 184 182.7 178.2 173.8 168.6 162.2 157.9 157.2 158.4 158.4 160.6 166.1 168.9 168.3 166.1 163.6 161 158.1 154.5 149 141.8 134.1 126.7 118.7 110.7 99.9 94.8 89.2 87.6 85.8 85.1 84.5 83.7 76.4 71.3 70.5 70.6 70.9 71 70.8 68.9 66.1 71 76.9 84.6 79.3 84.2 84.6 84.4 84.2 83.9 83.6 83.6 84.2 83.6 83.6 83.9 84.1 83.6 84.8 85 84.2 83.9 83.7 83.3 82.7 82.7 83.1 82.8 83.7 83.7 85 85.7 85.1 85.7 88.1 88.3 86.5 86.2 84.7 84.3 84.6 85.6 85.9 85.9 84.3 81.5 79.3 75.9 74.1 68.9 63.8 63.8 63.8 66.5 65.3 67.3 67.2 66.9 66.8 66.9 67 67 66.9 66.9 66.9 66.8 66.9 66.9 66 66.7 66.8 66.5 66.7 66.2 63.5 63 63.1 63.1 63.1 63.1 63.1 66.2 66.6 66.3 66.5 66.5 66.2 65.9 66.3 65.1 63 63.1 64.6 66.3 66.2 66 62.4 63.1 65.8 65.5 65.5 65.6 65.6 65.5 65.1 64.7 64.7 64.8 64.9 65.1 65.3 64.9 65.2
357.1 351.1 347.5 340.3 332.1 325 321 317.5 315.9 317.2 315.8 311.2 307.4 303.8 307.8 307.5 303.5 299.6 295.4 292.1 287.9 283.6 279.5 275 270.7 265.9 260.8 258.5 254.2 249.8 247 244.7 243.2 239.5 235.4 231.9 225.5 220.1 217.8 217.8 220.7 215.2 206.7 203.1 198.5 192.6 189.7 196.9 192.5 187.7 183.3 180.4 172.6 157.5 146.4 146.4 148.6 151.2 155.6 158.3 156.2 156.2 153.7 149.9 145.3 139.4 132.9 126.1 118.5 109.6 102.1 95.1 89.9 87.8 86.9 85.5 85.3 82.4 73.5 70 71.4 71 70.8 70.9 71 71 70.1 66.3 70.1 71.4 83.6 82.2 84.7 84.7 84.5 84.3 84.2 84.1 82.7 84.9 84.6 84.7 85.4 87.5 88.7 88.3 89.6 87.9 87 87.9 87.6 86.9 87.2 88.5 87.3 91 94.3 93.9 93.3 93.3 91.6 93.7 94.9 95.4 95 94.9 94.9 94 93.9 93.4 92.3 90.9 88.1 85.3 83.1 80.7 77.9 73.6 67.9 67 63.8 63.8 63.8 67.2 67.1 66.6 66.7 66.7 66.8 66.8 67 67 67 66.8 66.2 65.7 65.8 66 65.2 63.8 63.5 63.2 65.9 65.8 66.2 65.6 65.3 64.6 63.4 63.2 66.4 66.4 65.9 66.1 65.8 64 64.3 63.3 65.3 66.5 66.4 66.4 66.2 66.2 62.4 63.9 66.3 65.8 65.6 65.3 65.4 65.1 65.1 64.9 64.8 64.7 64.9 65.1 64.9 64.5
357.8 352.4 347.7 340.6 332.9 326.4 320.5 317.5 315.6 310.4 310.3 311.5 312.6 312.2 311.9 309.9 306.7 301.4 296.4 292.8 288.8 284 279.9 276.2 271.7 266.7 264.5 260.8 257.8 254.1 251.3 249.7 248.3 245 240.7 237 231.7 228.9 229.3 226.8 224.2 222.6 220.4 215.6 212.1 211 208.5 206.3 201.4 194.6 189.6 184.6 180.5 172.7 162.2 150.4 139.5 135.5 139.6 143.7 146.7 144.5 144.6 141.1 135.6 131.5 125.4 118.4 111.1 101.3 97 88.7 87.1 85.9 85.8 82.5 78.3 73.6 69.7 70.4 71.3 71 70.9 71 70.9 70.8 69.9 66.7 66.8 70.8 80.9 84 84.8 84.8 84.7 84.4 84.2 83.5 85.4 86.2 85.9 87.4 90.1 93.4 96.1 92.7 94.9 93 93.4 93.7 93.8 93.8 93.9 96.5 97.2 100.8 105 104.8 101.4 102.4 102.3 104 104.5 105.2 106.2 106.5 105.2 103.6 101.5 100.6 99.6 98.4 95.9 92.1 88.8 86 82.5 77.6 78 70.4 66 66.7 63.8 63.8 67.4 67.3 67.1 66.7 66.3 67 66.9 66.8 66.5 66.1 66.7 66.8 65.9 64.9 64.3 63.7 66.6 66.9 66.7 66.6 66.3 65.8 65.9 65.3 65.1 63.6 63.3 66.1 65.4 64.9 64.2 63.8 63 64.2 66.1 66.4 66.3 66.2 66 65.8 65.8 62.4 66.4 65.9 65.7 65.5 65.3 65.4 65.5 65.2 64.9 64.7 64.5 64.5 64.4 64.4
358 353.4 349.2 341.5 334.4 327.7 322.7 317.9 316.3 316 316 315.5 316.2 315.9 314.8 312.4 308.5 302.6 296.3 293.4 289.8 285.2 281.1 277.4 272.9 268.9 265.2 261.7 259.2 256 253.9 252.3 250.8 247.9 244.6 240.7 237.7 236.8 235.6 232.2 230.2 228.5 225.5 220.4 217.6 217.9 216.9 214.3 210.7 205.3 198.2 191.1 184.5 177.1 170.2 163.4 156.3 142.4 129.9 122.1 124.8 128.8 129.7 128.1 126.1 123.5 119.3 111.6 104 97.4 89 86.2 85.4 84.6 79 74.9 71.5 70 70 70.6 71.3 71 71.3 71.2 71.1 70.8 70.5 69.6 67.1 70.1 78.7 84.6 85.1 85.1 84.9 84.8 84.8 85.6 86.8 87.4 89.8 93.2 97 101.6 101.5 101.4 100.6 99.3 100.2 101.2 102 103.9 104.1 105.5 108.6 111.5 114.3 116 115.4 114 114.6 114.9 116.8 119 120.4 119.1 116.7 113.1 111.4 110.3 108.5 105.6 101.9 97.3 94.2 91.6 87.3 82.3 84.4 82.3 78.5 72.1 67.5 63.8 63.8 63.8 63.8 65 67 67.3 66.9 67 66.8 66.4 66.8 66.7 64.7 63.9 63.7 66.9 66.9 66.9 66.8 66.6 66.4 66.6 66.2 66.3 66.5 65.5 64.3 63 63.3 63.5 63.7 63.2 64.1 65.7 65.9 65.9 66 65.6 65.3 65.3 66.6 62.4 66 65.8 65.7 65.5 65.3 65.5 65.5 65.3 65 64.6 64.6 64.4 64.5 64.6
357.2 355.4 351.4 343.2 334.8 327 322.6 318.8 317.1 316.5 317.2 317.5 317.4 317.1 315.9 313.3 308.8 302.4 297 293.6 290.2 286.7 282.7 278.6 273.6 269.4 265.9 262.7 260.7 257.6 256 254.6 253 250.5 247.2 243.9 241.8 240.7 238.1 235.5 232.9 230.9 227.8 223.9 223.4 222.3 221 219.2 216.4 212.3 205.3 198.6 191.6 180.7 173.2 166.5 160.1 153.6 143.8 130.7 121.1 111.6 105.6 103.3 101.4 105.4 106.3 99.8 97.5 91 87.2 86.5 85.5 81.9 75.6 73.1 72.1 71.5 71.2 71.4 71.4 71.2 71.6 71.5 71.3 71 70.7 70.2 67.8 67.5 76.6 85.1 85.7 85.5 85.2 84.8 85.5 86.8 88.5 91.6 96 100.3 104.3 106.1 104.9 104.2 104 105.2 106.1 108.2 111.4 113.2 114.5 118.4 120.6 121.5 123.6 125.2 125.3 126.8 128.3 130.3 130.7 131 130 128.4 126.1 123.3 121 118.5 115 110.8 106.7 101.8 98.2 94.2 87.8 89.3 89.3 88.1 87.1 85.3 82.4 78.8 75.4 71 63.8 63.8 63.8 63.8 63.8 63.8 63.8 63.8 63.8 63.8 63.8 67.4 66.9 66.8 66.8 66.7 66.7 66.5 66.3 66.3 66.3 66.7 66.3 66.6 66.1 66.1 66.4 66.6 66 64.3 65.9 66 65.8 65.7 65.6 65.5 65.3 65.4 66.1 62.4 65.8 65.8 65.6 65.5 65.3 65.4 65.5 65.5 64.8 64.5 64.4 65.4 65.3 65.2
354.6 355.5 352 345.1 337.3 329 324.4 320.6 317.3 317.1 317.4 317.8 318.1 317.9 315.4 312.3 307.5 301.8 296.5 293.4 290.3 287 283.9 280 275.1 270.2 266.7 263.7 261.7 259.6 258.1 256.7 254.5 252 249.1 246.2 244.1 241.4 238 235.8 233.5 230.5 228 227.6 226.7 225.5 224.1 222.8 220 215.5 209.8 203.4 197.1 188.6 178.9 172.1 163.1 159.3 154.5 149.9 139 134.2 128.3 125.4 119.5 105.5 96.1 97.3 90.9 87.4 85.8 84.6 82.7 79.8 74 72.4 72.1 72.1 72 71.9 71.3 71.3 71.2 71.2 71.2 71 70.8 70.5 68.9 67.5 78.1 84.8 86 85.9 85.6 85.2 86.4 89.5 92.7 97.5 101.7 105.7 108.2 108 107.8 107.4 107.1 109.4 111.5 114 118.5 122.4 125.9 128.5 129.1 130.1 131.5 133.9 137.7 140.6 141.6 140.7 140.2 139.4 138.3 136.6 133.4 130.9 126.7 122.9 118.9 114.8 110.6 103.1 96.2 95.9 95.9 97 98 98.9 97.3 97.2 97.2 94.9 93.3 90.3 87.7 82.2 78.7 74.5 70.6 67.5 63.8 63.8 65.8 67 67.3 67.7 67.2 66.7 66.6 66.6 66.6 66.5 66.3 66.2 66.1 66.1 66.4 66.5 66.3 66.1 66.1 66.3 66.2 65.7 65.7 65.9 66 65.9 66 65.8 65.6 65.6 62.4 66.6 65.4 65.9 65.7 65.5 65.3 65.2 65 64.9 65.1 65.1 65.4 65.4 65.4 65.5
352.4 353.8 350.8 344 336.9 331.1 325.8 321.9 317.9 316.4 317.3 318 318 316.9 314.2 311.2 306.4 301.2 296 292.6 290.4 287.5 285 281.2 276.5 271.6 267.2 264.4 262.7 261 259.3 257.3 254.9 252.2 249.3 246.6 243.5 241 238 235.4 232.8 230.4 229.4 228.3 226.7 225.5 225.7 224.2 221.2 216.5 212.4 206.5 198.9 192.4 185.7 176.4 172.1 168.9 160.4 157.9 153 146.8 139.9 132.4 120.9 107.6 98.4 89.8 89.5 88.5 85.7 80 80.3 78.2 73.7 72 72.2 72.3 72.2 72.1 71.4 71.7 71.4 71.4 71.2 71.1 71 70.8 67.5 67.5 84.5 85.8 86 86.3 86.5 86.8 88.1 92.3 97.3 101.9 105.5 108.4 109.6 109.8 110.5 110.7 110.4 113.4 116.4 120.6 125.9 131.4 135.5 136.4 136.6 137.7 139.5 144 149.6 150.3 149.2 147.9 146.5 145.6 143.8 140.7 137.1 133.4 129 124.2 119.5 109.8 100.7 100.8 103.4 106.8 105.6 107.3 110.6 113.5 114.5 117 117.5 115.4 114.3 110.5 106.2 102.5 97 92.2 85 79.2 71 67.8 66.2 66.1 66.8 67.5 67.2 66.6 66.6 66.7 66.7 66.8 66.6 66.2 66.3 66.3 66.1 66 65.9 65.8 65.9 65.9 65.8 65.8 65.7 65.8 65.8 65.8 65.8 65.8 65.8 66.1 62.4 65.9 65.2 65.6 65.8 65.5 65.1 65.2 65.1 65 65.4 65.9 65.5 65 65.1 65.4
349.1 351.2 348.6 341.7 335.2 329.7 324.7 321.3 317.6 316.3 315.4 315.4 315.5 314.8 313.7 310.4 305.5 300.5 295.4 292.2 290.1 287.7 285.1 281.2 277.1 271.9 267.4 264.8 262.7 260.7 259.2 257.1 254.3 251.3 248.4 245.8 242.1 238.8 236.1 234 231.6 230.2 229.3 227.4 225.3 224.5 224.6 223.4 220.1 216.4 212.1 206.6 198.7 192.2 186.7 180.8 178.5 174.5 168.2 163.6 157.1 148.9 140.5 129.6 116.2 102.7 91.7 87.7 84.8 85.4 81.4 75.3 75.3 76.3 72.3 72.2 72.5 72.6 72.4 72.1 71.7 71.8 71.6 71.5 71.3 71.2 71.1 70.6 67.5 74.3 86.6 86.2 86.5 86.7 87.3 87.3 91.4 95.3 100.3 103.9 106.9 109.1 110.5 111.3 111.7 112.6 113.5 116.8 120.8 126.7 133.1 139 142 142.5 143.2 144.6 148.7 151.9 154.6 155.6 154.8 152.8 150.2 148 145.4 141.8 138.3 133.7 129.5 119.8 108.5 108 109.7 113.3 114.7 116.6 117.8 121.2 124.1 130.2 134.9 140.3 143.9 142 136.3 130.3 122.7 117.1 113 107.3 99.7 92.5 85 75.6 66.1 66.1 67.1 67.2 67.2 66.6 66.8 66.9 67 66.7 66.3 66.2 66.2 66.4 66 65.7 65.4 65.4 65.5 65.7 65.8 65.7 65.7 65.8 65.6 65.2 65.6 62.8 62.5 62.4 66.1 65.7 65.5 65.7 62.6 65.4 65 65.1 65.2 65.3 65.7 65.5 65.2 64.8 65 65.3
347.6 347.8 343.8 337.7 331.3 325.5 321.2 318.9 316.5 314.3 313.6 313.1 312.7 311.8 310.3 307.8 303.1 298.6 294.1 291 287.6 285.2 282.9 280.3 276.2 271.5 267.6 265.1 262.8 260.5 257.8 255.5 252.5 249.4 246.2 242.8 239.2 236 234.4 232.3 229.8 227.9 227 225 223.3 222 220.9 219.5 217.5 214.4 209.9 201.9 198.3 192.8 189.7 185.9 183.1 178.2 173.5 166.1 157.3 147.1 134.6 120.8 106.6 95.4 88.1 84.5 83.7 82.1 77.1 74.1 73.3 72.5 72.4 72.6 72.2 72.7 72.4 72.1 71.7 71.5 71.9 71.5 71.4 71.3 71.1 67.5 67.5 84.4 86.6 86.8 86.8 87.1 87.7 90.5 95 98.6 100.4 102.8 106.8 107.3 109.5 111.7 113 115.2 116.9 120 125.6 131.4 137.9 143.5 147.1 147.5 148.2 150.1 154.4 156.1 156.2 157.4 156.2 153.2 149.9 147.6 144.4 140.8 137.2 131.6 123.5 115.8 118.3 119.5 120.7 121.1 122.7 125 128.8 132.9 138.1 144.4 152.4 160.3 160.3 154.7 149.4 143.7 137.5 131.5 124.1 117 111.1 105.5 99.3 94 83.7 71.1 66.1 65.9 65.4 66.7 66.9 67.1 66.9 66.4 66.4 66.4 66.3 66.1 65.6 65.4 65.3 65.3 65.5 65.7 65.8 65.5 62.5 62.2 62.2 62.2 62.4 65.5 64.8 65.9 66 65.6 65.3 65.3 62.6 65.6 65.2 65.2 65.2 65.4 65.7 65.6 65.3 64.9 64.9 65.2
344.2 344.2 339.7 333.5 327.4 321.7 319.5 317.6 315.4 313.9 312.8 312.1 310 308 306.2 303.4 300.5 295.4 292 288.3 284.3 281.4 278.6 276.1 272.8 268.3 265.6 263.4 261 258.4 255.4 252.3 249.2 246.1 243 239.8 237.7 235.2 233 230.8 226.8 224 222 220.9 219 217.4 216.4 214.8 213 209.9 206 201.6 198.3 194 191.6 188.7 183.7 177.6 170.5 162.9 152.7 138.8 123.2 109.1 98.7 86.8 80.5 80.9 80.7 72.1 77.2 73.1 72.2 72 72.1 72.1 71.1 71.7 71.9 71 70.8 71.3 71.4 71.2 70.4 70 67.5 67.5 76.5 85.6 86.7 86.8 87.4 87.2 90.1 92.9 96.4 98.3 100.4 102.2 104.4 108.3 110.4 112.5 114.9 118.1 120.7 122.6 130.2 135.2 140.1 144.4 148.4 151.3 151.2 152.9 156.8 157.3 156.5 155.4 153.9 151.8 149.4 147 142.8 138.3 133 131.5 125.7 125.3 126.1 127.3 127.3 127.8 130.4 133 136.9 141.4 146.6 155 162.3 167.1 165.8 159.5 151.7 147 141.9 136.8 131.7 127 122.3 115.1 111.4 106.2 99.5 91.2 82.9 74.9 69.3 68.2 68.5 67.8 67.6 67.3 67 67 66.5 65.8 65.2 65.2 65.4 65.5 65.6 65.4 62.1 62.5 62.1 62.2 65.8 65.9 65.9 65.6 65.7 65.7 65.8 65.5 65.4 65.3 65.7 65.6 65.4 65.3 65.3 65.4 65.6 65.6 65.4 65.1 64.9 65.1
339.9 340.6 336.4 330.2 324.1 319.3 316.2 313.9 313.8 312.1 311.6 309.6 307.8 304.6 301.7 300.1 295.7 292.5 288.4 284.1 280.5 277.5 274.5 272.6 268.7 265.2 262.6 259.7 256.7 254.2 251.5 248.8 245.7 242.9 240.6 238.5 236.6 234.6 231.9 229.2 225.4 221.5 217.9 215.7 214.7 213.8 212.4 210.4 208.5 206.5 203.6 200.5 196.8 192.3 189 181.2 176.4 171.5 164.6 156.6 144.2 127.4 111.9 99.2 89 79.7 77.9 70.7 67.8 69.2 70.1 71.9 71.8 68.8 67.8 67.8 67.8 67.8 67.5 67.5 67.5 67.5 67.5 67.5 67.5 67.5 67.5 76.1 86.6 87.5 86.8 86.6 87.1 88.7 91 93.2 95.7 97.4 99.8 102.7 105.5 108.6 112.5 114.3 117.9 121.2 125.2 126 133.4 137.3 140.8 144 149.1 152.4 152.4 153.1 155.7 156.4 154.5 153 151.7 150.1 146.7 144.1 140.2 140.6 139.4 135 129.6 133 132 132.6 133.4 134.2 136.2 139.9 144.8 150.1 155.4 161.7 166 168.1 166.5 158.4 151.6 148.2 144.6 139.7 135.9 132.2 128 121.9 117.7 111.8 106 99.2 91.1 87 84.3 80.3 77.7 74.9 72 69.4 74.4 74.4 72.3 66.8 65 65 65.3 65.4 65.4 62.1 62.1 65.6 65.5 65.5 65.5 65.4 65.4 65.4 65.5 65.5 65.6 65.6 65.5 65.3 65.6 65.4 65 65.1 65.3 65.4 65.5 65.5 65.5 65.2 65 64.9
332.4 335 331.9 326.1 320.4 316.1 312.1 309.8 309.1 309.2 308.9 306.6 304.2 301.3 297.3 295.4 291.7 288.4 284.6 280.2 276.4 273.1 270.4 268.5 264.1 261.5 258.4 255.3 252.8 250.3 247.7 244.6 242.4 240.9 238.9 236.9 234.2 232.1 228.8 225.9 222.8 219.1 215.7 213.5 212 210.8 203.7 206.7 205.2 203.6 201.5 197.9 191.3 185.1 181.1 176.2 169.6 164.4 157.7 148.3 134.5 117 102.3 91.8 79.1 67.8 67.7 69 71.2 67.8 67.8 67.8 67.8 67.8 67.8 67.8 71.6 71.1 71.5 71.5 71 71.3 70.8 70.3 67.4 71.1 81.8 92.9 86.5 86.8 85.2 86.6 88.5 89.8 91.6 93.6 95.9 98.2 100.8 104.4 108 111.5 114.3 116.7 121.7 125.1 129.1 132.5 136.3 139 141.5 144.3 149.2 152.5 153.1 152.5 154.2 154 152.2 151.2 149.3 147.1 147.4 147 145.6 143.9 140.3 134.5 137.3 137.9 137.1 137.4 137.7 139.6 142.8 147.1 152.1 157 160.7 162.9 162.7 160.5 157.8 152.5 149.5 147 144.6 140.6 136.9 133.7 129.6 124.8 120.4 114.8 108.7 103.6 98 94.4 92 88.9 84.1 81.2 78.6 76.5 70.7 76.7 76.5 74.8 65.8 65.1 65.3 65.4 65.2 62.1 62.5 65.3 65.4 65.3 65.3 65.4 65.1 65 65 65.3 65.5 65.6 65.6 65.4 65.4 65.1 64.8 64.9 65.2 65.3 65.4 65.3 65.3 65.1 64.8 64.6
324.3 326.4 323.6 319.1 315.9 311.4 307.5 305.4 303.6 304.1 303.4 302 298.8 295.7 292.3 290 286.1 283.4 280.4 275 271.5 268.3 265.6 263.3 260.1 256.6 253.8 251.4 248.9 246.5 244.1 242.6 240.7 239.4 237.4 235.2 232 229.7 227.5 224.4 220.9 217.6 214.1 211.9 210.9 208.4 195.2 192.3 196.2 201.1 198.7 192.7 185.8 180.2 175.7 171.6 164.9 157 148 137 122.7 106.6 94.3 81.6 67.8 68.4 73.2 73.2 73.3 72.6 67.8 67.8 71.8 71.3 70.8 71.5 71.3 70.7 71.5 71.7 71.4 72.2 71.7 71.1 75.5 76 74.1 75.4 79.2 81.7 85.8 88 89.2 91.1 93.1 95 97.2 100.2 103.6 107.5 111.5 114.7 117.5 120.9 125.4 128.2 132.6 136.3 138.8 140.3 142.7 146.2 149.4 152.6 154.3 154.2 153.3 152.8 152.1 151.2 151.4 151.7 152.2 151.3 148.9 144.7 142.4 143.4 142.9 142.2 141.5 142.1 143.5 146 149.9 153.8 157.1 159.8 160 159.7 158.2 155.3 152.4 149.5 147.1 144.8 142.5 139.3 136.2 133.1 130.1 125.7 121.6 116.4 111.1 107.4 103 99.4 96.1 92.8 89 85.4 82.1 80 77.7 75.9 75.7 77.1 75.2 70.7 69.7 68.3 67 64.3 62.1 62 64.6 64.8 65 65.3 65.3 65.2 64.8 64.9 65.2 64.9 65 65.4 65.2 64.9 65 64.8 65 65.2 65.4 64.9 64.9 64.8 64.1 61.8
315 318.2 316.6 313.9 310.4 305.9 302.1 299.1 297.9 297.9 295.7 293 291 288.5 286 281.7 279.7 277.4 273.7 269.4 266.4 263.5 260.9 258 255.3 252.4 250.4 248 245.8 243.9 242.6 241.3 239.7 237.9 235.7 233.5 230.1 227.2 224.7 222 219 215.3 212.1 211.9 207.9 206.5 194.9 189.7 186.6 191.6 194.6 189.8 182.6 176.7 170.7 165.3 158.7 148.6 136.5 124.7 110.5 95.6 85.7 67.8 67.8 72.9 72.5 72.4 72.8 72.1 72.5 72.3 71.5 71.4 70.4 70.3 71.3 71.4 71.5 72.1 80 77 84.5 84.7 83.2 79.1 75.8 74.4 80 84.3 88.4 88.7 90.3 92.5 94.8 96.7 99.8 103.5 107.5 111.5 115.1 118.3 122.3 126.1 129.5 132.4 135.2 139.4 141.9 143.6 145.2 147.7 150.7 153.7 156.8 155.8 154.8 153.2 152.7 153.7 155.2 155.8 155.1 152.8 150.3 149.8 148.8 147.9 146.9 146 146.2 147.6 150.5 152.9 155.6 157.6 158.9 158.9 157.5 155.6 153.8 152.4 149.7 147 144.8 142.8 140.5 137.8 135 132.3 129.6 126.1 122.3 117.9 113.7 111 107 102.7 98.9 94.5 90.6 87.2 84.6 82.3 75.7 78.4 79.3 79.5 78.6 76.9 77.6 76.3 74.4 73.6 72.6 70.3 67.6 66.2 61.8 61.8 61.8 61.8 61.8 61.8 61.6 61.4 61.4 61.3 61.2 61.2 61.2 61.2 62.2 63 65.1 63.8 61.1 61 60.9 60.9
309.9 311.3 310.2 307.7 304.1 300.3 297.3 295.2 293.5 291.7 289.5 287.1 284.2 281.7 278.6 276.3 274.2 271.5 268.7 265.3 261.6 258.6 256.5 254.1 251.2 249.2 247.4 245.8 244.6 243.8 242.6 241.1 239.7 236.9 234.5 231.6 227.7 225.4 223.3 220.7 217.9 215.4 215.7 214.4 212.5 211 208.6 205.6 190.2 181.4 185.5 184.3 179.8 172.7 165.2 158.3 150.4 137.7 123.2 112.4 99.2 88.5 72.5 72.6 67.8 72.5 72.5 72.3 72 71.9 72.2 72 71.3 71.2 71.3 71.8 72.3 72.7 73 72.5 77.6 85.6 86.5 86.7 86.2 85 81.6 80.3 83.6 87.3 89.4 90.5 92.3 94.2 96.8 100.1 103.9 108.1 112.2 115.9 119 122.3 127.2 131.3 134.9 138.1 140.7 143.4 145.9 148.1 147.8 149.1 152.1 155.4 159.3 157.4 155 154.3 155.1 154.9 156.6 157.3 154.4 152.4 153.5 152.6 152.2 152.2 151.3 151.4 153 154.5 156.4 157.6 158.1 158.2 157.3 155.8 154.4 152.3 150.2 149 146.8 145.3 142.7 140.8 138.8 136.5 133.7 131.2 128.9 126.1 122.5 119.6 114 110.8 108.1 104.4 100.6 96.3 92.1 88.9 86.3 83.1 77.6 79.2 82.4 82.5 82 82.6 83.7 84.6 84.7 83.4 80.7 80.2 79.6 78.9 77.4 75 68.7 64.3 65.4 64.5 64.8 65.4 65.6 65.5 64.9 64.4 64.9 64.4 61.2 61.2 61.2 61.6 68.7 73.2 80.1 84.3
305.4 305.9 304.2 301.4 297.7 295.2 293.2 290.9 288.9 287.1 284.7 281.8 279 276.4 274 271.4 269.4 266.8 264.5 260.2 257.6 255.1 253.2 250.3 248.9 246.7 245.1 245.4 244.7 244 242.9 241.4 238.7 235.4 232.7 230 226.6 224.4 222.6 220.2 220.1 219.1 217.3 215.5 213.4 210.8 207.2 202.7 196.9 184 173.5 178.8 173.4 166.4 156.2 147.5 136.4 123.6 109.9 102.6 93.2 72.9 72.3 69.3 67.8 72.5 72.5 72.2 72.2 72.1 72 72 71.9 72.2 72.5 72.7 72.8 73.1 74.5 78.8 84.7 86.6 86.5 86.5 87.6 87.8 86.3 85 85 88.5 89.4 92.5 94.6 97.2 101.6 105.6 109.1 113.2 117.2 120.9 124.5 128.2 132.5 137.3 140.2 143.4 146.3 148.9 151.1 151 149.9 150.8 154.1 161 160.3 158.4 156.9 157.6 158.3 157.1 158 156.5 157.7 157.6 157.2 156.4 155.8 156.1 156.9 158.4 158.9 159.2 160.1 160.1 158.9 157.2 155.5 154 151.4 149.1 146.9 145.6 144.3 142.4 140.5 139 137.4 135.2 133.1 130.8 128.6 125.7 123.1 119.7 115.6 111.8 108 104.6 101.3 97.5 94.6 91.1 87.3 83.5 80.7 82.9 84.7 85.6 86.1 87.9 91.1 92.6 92.3 89.3 85 83 81.1 80 78.5 76.8 69.6 67.1 68 68.7 67.6 66.1 65.5 66.7 68.6 71.1 70.7 70.2 74.4 78.5 78.3 76.2 84.3 87 89.4 86.7
301.3 301.4 299 296.3 293.4 291.6 289.5 287.4 285.2 283.2 280.9 278.3 274.7 272.1 270.4 266.9 265.6 264.2 263.2 261.4 259.8 255.7 253.9 250.7 247.7 245.6 245 240.3 243.1 243.4 242 239.9 236.7 233.3 230.7 228.1 225 223.4 222.8 222.3 221.6 219.7 217.5 215.2 212.6 208.3 203.7 198.6 192.9 185.6 175.1 164.6 161.6 150.9 140.4 131.4 122.9 112.8 103.4 96 81.9 70.9 72.9 72.1 67.8 72.4 72.4 72.6 72.6 72.4 72.1 72.3 72.6 72.8 72.9 72.9 73.1 73.5 78.9 85.5 87.7 88 87.2 86.2 87.4 87.5 86 85 88.2 90.1 91.9 94.9 98.3 102 107.5 111.6 114.7 118.2 122.2 125.9 129.7 133.4 138 142.9 146.5 149.8 152.8 154.5 153.8 155.7 152.9 152.8 159.5 164 161.3 161.1 161.6 161.6 160.7 159.4 158.9 159.8 160.3 160.5 159.8 159.9 161 162.3 163.3 163.1 162.9 162.6 161.8 160 158.4 156.2 153.9 151.3 148.7 146.6 144.5 142.8 141.3 140 138.8 137.5 136.3 134.6 133.2 130.7 128.2 125.8 123.4 119.8 116.1 111.6 107.7 104.3 101.2 99.9 96.7 91.1 85.7 81 82.5 86.2 88.4 90.5 92.3 94 98.3 98.3 95.8 91.7 87.3 84.4 82.6 80.6 79.2 75.5 70.9 67 75.8 76.9 77.7 78.8 79.6 80.6 81.9 81.3 80.4 79.9 81.7 85.5 86.4 88.4 89.7 94.8 98.2 97.5
299 299 295.9 292.9 291 289 286.8 285.5 282.7 280.2 278.6 274.6 273.6 272.8 272.8 272 270 267.3 266 263.1 259.5 255.5 253.5 251.2 249.2 248.1 245.8 243.2 238.1 240.2 239.3 236.4 233.1 229.7 227.1 224.5 222.8 222.5 222.7 222.9 220.2 217.5 214.9 211.8 208 203.1 197.2 191.7 184.7 177.4 164.5 147.8 140 133 125.2 114.8 111.9 104.1 96.8 85.3 71.8 72.2 72.4 72.2 67.8 72.5 73.1 73 72.7 72.4 72.5 72.6 72.8 73 73.1 73 73.2 75.4 81.3 84.5 87.6 89.5 87.1 83.9 86.7 86.6 85.7 87.2 89.5 91 94.2 98.9 104.6 106.7 112.5 116.5 119.6 123.8 127.3 131.1 135 138.7 144.8 148.8 153 156.2 158.1 159.2 159.1 158.1 158.1 158.7 162.3 165.3 164.3 165.4 165.2 164.4 162.8 161.3 160.5 161.7 162.5 163 164 165.9 167.2 167.1 167 166.6 164.4 163.2 161.3 158.9 156.8 154.4 151.2 148 146 143.8 141.7 140.5 139 137.8 136.9 136.1 135.2 134.1 132.8 130.8 128.3 125.7 123.4 120.9 117.6 113 108.5 103.9 100.3 97.1 88.9 84.5 85.2 86.3 87.9 90.7 93.2 95.1 97.7 99.6 101.1 99.9 96.3 92.1 88.3 85.6 83 80.9 77.1 71.3 72.7 75.1 78.4 81.3 82.7 84.5 86.8 87.1 85.8 85 84.8 86 87.6 90.3 93.1 95.3 94.4 100.7 104.5 106.4
298.2 296.6 293.5 290.4 288.4 287.5 285.7 284.2 280.3 278 277.6 277.4 276.2 276.1 276.2 274.8 272.4 269.7 265.9 262.3 259.1 256 253.7 251.7 249.7 247.1 244.6 241.6 235.4 233.9 234.9 232.5 229.3 226.5 223.8 221.5 220.7 221 221.4 221.5 218.3 213.6 208.4 205 201 195.4 189.1 181.8 173.7 163.4 151 140.2 124.5 118.1 113.6 107.2 102.6 97.4 92.9 73.5 70.7 71.7 72.4 72.6 67.8 73.2 73.5 73 72.7 72.9 72.9 72.8 73 73.3 73.2 73 73.2 78.7 81.2 83.2 86.6 88.9 87.1 84.5 85.4 86.4 86.7 89.5 91.6 94.5 98.8 104.7 110.8 112.3 115.9 121.3 124.3 128.3 132.4 137.6 141.4 146.3 150.9 155.6 159.7 162 163 163 161.9 164.3 165.5 165 165.6 166.1 167.8 169.4 167.7 166.5 164.7 164 163.8 164.4 165.4 167.1 169 170 170.3 169.8 169.4 166.9 164.9 162.3 159.7 157.2 154.6 151.7 148.7 145.5 143.3 140.9 139.4 138.3 136.9 136.1 135.5 134.8 134.2 133.3 132.3 130.3 128.1 126.1 123.6 121.1 118.1 113.8 108.6 103.4 98.3 91.6 89.9 90.3 91.4 91.3 93.7 95.6 97.8 99.3 101 102 101 99.6 95.9 92.6 89.3 86.1 83.3 79.8 70.2 76.2 80 82 82.7 84.4 88 90 91.1 90.8 88.6 87.3 89.5 90.8 93 95.5 98 100.1 102 105.4 110 112.8
298.3 295 291.7 288.1 286.6 285.2 285.4 284.3 283.4 282.1 281.2 280 278.7 278.3 276.9 275.4 272.1 268.1 264.2 260.9 258.1 256.3 254 251.4 247.6 245 241.6 238.5 235.2 218.2 226.5 227.4 224.7 222.6 220.3 219 218.5 218.8 219.3 217.1 214.2 208.7 202.8 195.5 190.8 185 178 169.4 160.4 150.4 140.4 131.2 121.3 109.5 105.8 101.8 98 93.1 82.8 71 71.4 72 72.7 72.7 67.8 72.8 72.7 73 73.1 73.3 73.3 73.1 73.2 73.3 73.3 73.4 76.6 79.6 79.8 81.6 83.1 86.7 88.3 85.8 86.4 86.8 90 92.1 94.2 98.5 105.4 111.8 117.4 117.7 121.9 125.2 128.6 132.2 137.1 142.2 147.5 152.2 156.2 160.7 164.5 165.5 166.1 166.6 168.4 169.9 168.3 169.5 168.9 169.3 170.9 171.8 170.4 169.2 167.5 166.5 167 168 169.6 170.3 171.1 170.9 171.7 170.8 168.5 165.6 162.9 160.2 157.3 154.8 152.3 149.8 146.7 143.5 141.4 139.5 138.1 136.7 135.3 134.8 134.5 133.9 133 132.1 130.8 128.9 127.2 125.1 122.4 119.6 116.8 113.2 102.4 98.3 93.5 95.6 97.1 98.4 98 96.8 98 99.3 100.6 101.9 102.3 101.5 100.6 98.2 95 91.6 87.9 85.1 80.4 74.5 80.8 82.6 83.5 85.9 87.4 89.9 92.1 93.3 94 93.3 90.4 90.9 93.3 95.7 97.9 99.8 102.1 104.9 106.9 112 115.2 118.6
298.4 294.6 290.4 286.4 284.7 284.6 284.5 284.7 285.3 284.5 283.6 281.6 279.4 277.7 275.8 273.2 269.6 265.7 261.8 259 257.3 255.6 253.4 249.4 245.8 241.9 237.5 233.4 230.5 219.9 221 220.1 219.6 217.6 216.5 216.6 216.2 215.8 214.8 213.2 209.7 203.3 196.8 188.8 180 173.7 165.5 155.8 146.6 137.4 127.7 121.9 115.2 108.3 102.3 97.6 91.4 86.5 77.2 70.9 71.4 72.3 73 72.9 67.8 72.8 73.3 73.4 73.5 73.7 73.7 73.4 73.3 73.4 73.5 74 78.1 79.1 77.3 76.8 77.5 79.2 87.9 85.3 86.3 88.6 91.5 93.3 97.3 103.9 110.3 116 120.9 123.7 126.4 129.1 132 135.8 140.3 145.9 151.6 156.3 160.5 164.1 167.8 168.5 169 171.6 173.7 173.6 173 172.3 171.4 172.4 173.8 174.7 173.8 172.6 170.5 170.5 171.6 171.7 172.5 172.4 172 170.3 170.7 168.3 165.7 162.9 160.2 157.5 155.1 152.7 150.3 147.9 145.1 142.4 140.2 138.4 136.8 135.2 133.9 133.7 133.5 132.7 131.5 130.3 128.8 127.1 125.1 122.1 120 116.9 108 103.9 106.5 106.5 106.7 105.6 105 103.8 101.1 100.5 100.7 101.5 102.7 102.5 102.4 100.9 99.1 96.2 93.6 89.7 85.5 79.7 74.7 82.9 83.5 84.7 86.9 89.6 91.8 93.7 94.7 95.2 95.4 94.2 92.9 94.7 97 99.3 101.5 103.9 106.5 109.6 112.6 116.8 120.8 122.4
298.5 294.5 289.5 284.4 281.3 281.5 282.2 283.6 284.6 284.5 283.6 281.2 278.3 276.5 273.4 270.2 266.8 263.1 259.3 256.7 254.7 252.6 250.8 246.6 241.8 237 231.4 226.8 223.7 219.2 198.6 215.1 213.6 212.4 211.5 212.1 212.9 212.6 208.9 207.6 204.3 197.8 190.6 183.3 171.8 163.5 153.8 143.3 134.3 125.6 121.9 115.3 108.7 104.3 99.1 94.5 87.2 82.2 77 73.2 71.4 72.6 73.5 73 67.8 73.5 73.9 73.9 74.1 74.1 74.2 73.8 73.8 73.8 73.9 76.3 78.9 75.7 75.4 75.4 75.9 79.9 81.8 84.1 86.7 89.6 92 95.4 100.4 106.9 114.4 119.8 124.7 126.2 129.6 131.7 134 138 143.1 149 153.6 159.3 162.8 166.1 168.8 169.7 171.8 173.4 174.9 175 173.4 173.5 174.1 174.4 175.7 178.1 175.6 173.6 173.1 173.4 172.7 172.6 172.5 171.8 170.9 168.4 167.2 165.1 162.7 160.2 157.9 155.7 153.5 151 148.5 146.2 143.9 141.7 139.3 137.5 135.7 134.1 132.5 129.6 131.4 130.5 129.4 127.2 125.7 124.5 122.2 117.9 112.7 112.3 115.3 114.7 113 111 109.9 108.4 106.7 105 103.9 103.4 102.9 103.2 102.7 102.3 101.3 99.5 96.8 94.5 91.7 87.5 82.2 80.4 85.1 85 85.2 87.5 90.3 93 94.6 96 96 96 96.2 95.8 95.7 98.1 100.5 102.9 105.6 109.8 111.1 114.1 117.9 119.7 124.9 128.1
297.4 292.6 287 280.8 277.1 276.5 278.2 280.2 281.5 282.5 282.1 279.7 277.3 274.3 270.9 267.3 263.8 260.2 257 254.5 251.9 250.4 246.8 242.2 236.5 230.5 224.7 219.8 215.7 212.2 203.2 196.2 205.6 205.4 205.2 206.1 207.8 208.2 206.1 202.9 197.7 192.9 184.6 174.7 164.6 154.1 143.4 134.2 125.3 119.6 114.3 109.5 105.1 99.6 94.7 89.3 83.9 78.4 74.4 71.5 72.2 73.4 73.8 73.2 67.8 72 73.9 74.8 75.1 74.9 74.7 74.4 74.2 74.4 74.7 75.9 75.4 75.4 75.4 75.4 75.1 79.5 81.9 85.8 88.4 90.9 94.6 98 102.8 111.5 116.1 122.5 126.1 128.5 130.2 132.5 135.4 139.6 144.6 150.8 155 160.6 162.7 164.8 167.2 168.2 170.4 171.1 171.5 171.9 171.4 171.9 173.2 173.2 176.5 179.5 176.9 175.6 175.4 174.1 173.4 172.7 171.8 170.4 168.3 166.4 164 162.1 160.1 157.7 155.8 153.8 151.9 149.4 146.7 144.6 142.5 141.2 139 137.2 135.6 134.2 133.1 130.4 129.4 128.6 127 124.2 120.6 113.9 118 117 119.2 119.9 119.6 118 116 114 112 110.1 108.3 107 105.7 104.9 104.1 103.6 103 101.3 99.4 97.8 95.7 92.6 89.2 86.2 82.1 86.9 87.3 87.9 88.9 90.7 93.8 96 97.4 97.6 97.4 97.1 97.3 97.9 99 101.9 103.8 106.4 109.6 113.2 116.9 120.1 122.5 126.3 130.7 135.8
294.2 288.7 283 276.9 274 272.8 274.3 276.5 278.5 280.5 280.6 278.2 275.5 271.8 268.2 264.5 260.8 257.4 254.7 252.3 249.2 245.4 241.7 236.3 230.1 224 217.7 212.1 207.6 204 199.2 184 196.3 196.9 198.1 199.9 201.6 201.6 200.9 195.9 189.9 187 177.6 166.4 156.2 146.9 134.1 126.4 118.5 113.1 107.7 103.6 99.6 92.5 87.2 84.2 79.3 74.7 72.6 72.2 73.2 73.9 73.8 73.3 67.8 68.1 73.6 74.6 75.7 75.3 75 74.9 74.6 74.8 75.4 75.5 75.4 75.4 75.4 75.4 77.1 82.3 85.4 87.2 89.3 93.9 99.7 105.5 111.3 112.7 119.5 124.2 128.2 130.2 131.6 133.1 135.5 139.1 144.5 151.1 156.4 160.8 163.3 164.1 164.4 165.6 166.7 166.9 167 167.1 166.1 167.2 169.1 170.3 173.6 178.9 178.8 177.7 175.7 174 172.5 172.1 170.7 168.3 166.6 164.4 161.6 159.2 157.5 155.2 152.7 151.5 149.5 147.2 145.2 143.2 141.5 140 139.2 136.8 135.1 133.4 131.8 129.6 126.6 124.5 120.3 115.9 120.1 121.7 124 124.3 124.2 122.8 121.1 119.1 117.1 115.4 113.6 112.1 110.2 108.5 106.9 105.2 104.1 103.4 101.8 100.1 98.2 96.5 93.9 91 88.2 84.8 87.1 88.9 89.9 90.4 92.4 94.8 97.1 98.9 99.1 98.7 98.3 98.6 99.3 100.2 102.4 105.5 108.4 111.3 114.7 118.3 122.6 126.7 129.6 132.8 137.4 144.4
289.7 285 279.5 274.5 270.7 268.6 270.6 273.6 276.4 278.5 278.5 276.4 273.1 269.3 265.4 261.5 257.9 254.8 252.1 249.4 246 240.8 235.3 230.2 224 216.3 209 203.7 199.2 195.9 192.5 182 190 191 192.1 195.3 195.3 194.1 194.1 190.7 184.7 179.4 171.8 159.9 148.2 139.7 131.2 122.3 114.2 107 101.4 98 91.5 85.1 81.8 81.2 75.6 72.7 72.5 73.1 73.8 73.8 73.8 73.4 72.6 67.8 73.7 74.8 75.2 75.1 74.7 75 75.1 76.9 76.4 76 75.7 75.4 75.4 76.9 81.7 86.4 87.4 89 90.9 97.6 103.6 110 117.3 121.8 124.6 126.1 129.9 131.2 132.4 134.5 136.4 139.7 145.3 149.8 154.5 157.9 158.2 159.3 159.7 160.9 161.4 162.1 162 162.4 163.2 163.7 164.3 166 169.8 175 178.6 176.5 174.2 172.4 170 170 168.4 166.6 164.8 162.6 159.8 157.2 155.5 153.4 149.8 148.2 146.2 144.9 143.7 141.8 140.3 138.9 137.8 136.1 134.5 131.6 128.5 126.3 123.8 119.5 121.1 125.8 127.5 127.9 127.7 127.4 125.9 123.8 121.9 120.6 119 117.1 114.9 113.4 110.8 108.5 106.9 105.1 103.6 102.2 100.6 98.9 96.9 94.6 92.1 89.6 86.7 83.4 89 90.6 91.3 92.6 95.2 97.8 99.7 100.4 100.6 99.9 99 100.1 100.9 103.4 105.5 109.1 113 116.4 120 123.6 128.7 133.3 137.9 141.7 145.6 154.9
284.5 280.5 276.3 271.8 268.1 263.5 267.7 270.2 273.2 274.4 274.2 272.5 269 264.9 260.8 257 254.1 251.1 248.2 244.6 239.8 234.7 229.2 223.3 216 208.2 201.8 196.6 192 189.2 185.9 178.8 183.4 185.2 186.9 189.1 189.4 188.8 186.5 183.8 178.7 166.2 164.8 153.9 142.4 131.1 125.5 118.8 110.7 102.1 96.4 90.6 85.1 77.1 75.4 75.1 73.3 73.5 72.8 73 73.2 73.5 73.8 73.6 72.5 67.8 73.8 74.4 74.7 74.6 74.4 74.8 75.2 77.2 77.2 76.9 76.5 76.8 79.7 81.8 85.7 87.8 89 91 92.7 99 106.5 114.2 121.1 125.6 128.5 129.3 130.2 131.5 132.3 133.8 136.1 139.4 142.6 145.9 149.4 150.3 152 154.1 155 155.5 156 156.7 157 157.6 159.4 160.3 160.9 163.6 166.1 170.7 173.5 172.3 170.7 168.8 167.2 165.9 164.6 162.8 161.3 159.6 157.7 155.7 153.3 151.3 148.5 144.3 143.1 141.8 141.3 140.3 138.5 136.7 135.8 134.6 132.4 128.5 124.8 123.5 126 128.4 130.4 131.2 131.4 131 130 129.1 128 126.1 124.2 122.9 120.8 118.4 116.1 113.5 111 108.7 106.7 104.6 102.8 101.7 99.9 97.8 95.9 94.1 92.4 90.7 89.1 84.1 90.7 91.8 92.7 95.1 97.6 100.4 101.7 102.2 102.3 101 100.3 101.5 102.8 105.1 108.7 113.1 117.5 122.3 126.1 130.6 137.2 143.4 148.9 157.2 161.5 165.8
279.5 276.1 272.3 268.3 265 259.4 263.3 265.3 267.7 267.3 266.7 264.7 262 259 255.4 252.2 248.9 245.6 242.4 238.7 233.5 228.3 223.1 214.9 208 201 195.6 190.9 187.4 184 181.3 167.5 177.7 179.7 181.8 183.5 183.9 184.6 183.9 180.8 175.8 168.3 156.9 146.9 135.2 128.1 119.8 113.7 101.9 94.8 90.6 88.4 84.9 80.4 73.8 72.6 73.6 72.9 72.9 72.8 73.1 73.6 73 72.3 72.5 67.8 73.6 74.4 74.5 74.4 74.3 75.1 77.4 76.6 77.1 77.2 77.2 78.5 81.6 84.7 87.9 89.3 90.5 92.4 95.3 100.7 107.9 118.3 124.5 128.6 131.2 132 130.9 130.8 131.7 133 134 136.1 138.5 141.2 144.8 146.4 148.4 148.7 149.1 149.6 150.6 151.5 152.2 153.5 155.4 156.6 157.5 161 164.5 167.8 168.2 167.1 166.3 165.3 163.5 161.8 160.8 159.2 157.8 156.6 155.1 153.3 151.3 150 146.9 144.3 141.3 138.4 138 137.2 136.4 135.4 132.9 129.9 124.4 126.3 129.3 131.8 133.3 134.6 134.8 133.9 133.6 133.2 132.1 131.1 130.2 127.8 125.1 123.7 121.5 118.8 115.9 113.1 111.3 109.1 107.1 105.1 103.2 101.9 100.4 99 97 95 92.9 90.9 88.8 87.4 87.2 91.7 93.8 96.7 99.6 101.8 103 103.7 102.9 102.1 102.1 103 105.4 108 112.6 117.1 121.9 128.6 133.4 139.4 148 157.3 164.7 173.1 184 193.8
275.8 271.4 267.8 263.9 260.2 253.4 257.5 258.4 258.1 257.4 256.4 255 252.7 250.2 247.1 244.5 242.1 239.1 235.2 231 225.9 220.7 214.9 208.8 202.1 196.9 192 187.1 182.8 179.8 174.7 160.2 170.3 174.4 176.5 178.8 179.6 178.2 176.8 173.4 169.5 162.6 153.5 143 129.7 119.6 116.8 102.5 92.7 89.6 87.2 85.5 83 83.2 80.6 73.3 73 72.7 73 73.4 73.5 72.9 72.7 72.7 73.1 67.8 73.6 74.3 74.3 74.3 74.3 75.3 77.6 77.3 77.3 77.9 79.2 80.2 85.7 86.8 89.2 90.6 92 93.8 96.7 102.6 112.1 121.6 127.7 130.9 133 132.6 131.1 130.4 130.5 131.8 131.9 132.5 133.3 134.7 138.8 139.1 140.9 141.4 142.9 144.4 145.2 146.3 147.7 149.6 151.4 152.9 155.8 159.7 162.6 164.4 164.5 164.3 163.2 161.4 160 158.2 156.9 155.9 154.9 154 152 151.1 150.2 148.6 146.1 143.6 141.1 139.1 135.4 134 132.7 130.9 127.2 128.6 130.8 133.3 136 137.8 138.4 138.1 137.9 137 136.2 135.3 134.1 133 131.1 128.2 128.1 123.7 120.8 118.4 116 113.9 111.6 109.5 107.5 105.6 103.7 102.2 100.4 98.7 96.8 95 92.7 91.2 90.2 89.2 86.7 89.8 93.9 96.9 98.6 101.4 103.8 104.2 103.8 103.3 104.1 105.3 107.7 111.3 116.3 121.1 126.8 133.8 140 148 163.7 178.1 190.1 197.2 203.9 211.3
272.7 267.9 263.1 259.5 255.3 248.9 249.9 248.3 247.5 246.6 245.8 244.7 242.9 241.1 238.8 237.1 233.9 230.5 225.6 223 217.8 213.1 208.4 202.7 197.6 193.9 188.5 183.5 179.5 176 167.7 159.3 159.6 161.5 168.9 172.1 173 170.9 168.9 164.3 160 154.4 147.5 136.1 123.2 109.4 103.3 92.1 87.8 88.3 85.6 82.7 79.3 81.6 76.2 72.8 72.4 72.2 72.9 73.6 73 72.4 72.7 72.7 72.7 67.8 73.6 74.1 74.1 74.1 74.3 77.1 77.2 77.7 77.7 80.4 82.4 84.1 88.6 89.7 90.7 91.9 93.5 94.5 97.9 106.3 114.7 123.1 129.7 132.7 133.3 132.3 130.2 129.1 129 128.1 127.6 127.7 128.1 128.5 130 131.1 133.9 136.1 137.7 139.1 140.3 142.1 143.8 145 148.7 151.4 155.3 159.3 161.9 161.2 161.3 161.6 161.2 159.8 158.3 155.5 153.3 152.5 151.2 150.5 149.7 149.3 148.9 147.4 144.9 142.1 139.3 136.4 134.8 132.6 130.5 131.4 131.7 133.9 136.7 139.4 140.4 141.6 141.7 141.2 141 140.1 138.9 136.6 135.1 133.6 132.3 129 126.7 124.2 121.3 119.1 116.8 114.7 112.5 110.2 108.2 106.3 104.2 102.5 100.5 98.5 96.7 94.8 93 92.1 92.1 91.4 88.8 85.9 94.3 95.7 97.3 100.3 103.1 103.2 103.2 104 105 107.1 110.1 114.5 119.3 125.8 132.9 139.8 148 159.5 172.4 193.1 204.1 211.3 216.3 224.3
269.9 264.1 258.3 253 248.6 244.2 239.7 239.8 237.8 236.6 235.5 235.1 233.2 231.9 230.7 229.5 226.5 222.6 218.8 213.8 210.7 206.5 202.6 198.5 193.7 190.8 185.1 180.5 176.6 171.4 167.2 166.2 152.3 153 157.9 162.4 163.6 162.9 159.3 156.4 152.4 145.3 138.3 128.8 114.3 99.8 90.9 85.4 83.4 85.9 87.1 84.2 82.3 81.8 72.9 73.2 73 72.7 72.8 73.3 72.6 72.1 72.7 72.8 72.7 68.2 73.6 74.2 74.2 74.1 74.1 77.5 78 78.2 80.4 82.3 84.3 88.2 90.1 90.8 92 93.8 95.8 99.2 99.8 109 118.9 124.4 130.6 133.1 132.5 129.9 128.3 126.8 126.2 125.2 124.3 123.8 123.9 124.4 124.8 126.4 128.4 130.8 132.4 133.8 135.5 137.9 140.1 140.7 147.1 150.7 157.1 161.5 160.9 159.3 158.9 159 159.1 158.1 155.7 152.9 150.6 149.2 148.3 146.8 146.9 147 147 146.3 143.6 140.8 137.7 135.8 136 135.4 135.1 134.8 134.9 138.1 140.6 143 144.9 145.4 145.5 144.8 144.2 142.4 140.9 138.1 135.9 134.9 132.8 130.7 128.8 125.9 123 120.5 118 115.7 113.5 111.4 109.4 107.4 105.2 102.8 100.7 98.5 97 95.1 93.9 93.6 93.5 93.2 91.7 87.3 92.5 93.9 96.1 98.8 101.3 101.9 101.8 104.3 106.7 109.5 112.6 117.7 123.3 130.4 139.4 148.8 160.8 175.7 194.8 205 214.4 219.1 226.1 235.4
263.2 257.6 252.6 248 243 237.7 232.7 231.6 229.6 228.5 227.2 226.7 225 223.8 222.5 220.3 216.7 212.9 210.2 206.9 203.9 200.8 197.8 194.4 190.6 187 182.6 178.1 174 168.9 167.1 164.9 161.3 156.4 149.4 149.4 157 156.2 152.6 148 142.9 137.1 129.5 118.8 104.5 95.1 86 80.8 79.7 80.9 85.5 84.9 81.7 81.3 73.2 73.1 72.8 72.5 73.2 73.5 73.3 72.8 73 72.9 73.1 68.2 72.9 74.4 74.4 74.2 74.2 78.4 79.8 80.8 82.5 84.1 86.7 90 91.7 92.3 93.8 95.7 99.3 103.6 102.4 112.3 121.5 125.2 130 131.3 129.9 127.4 126.1 124.7 124 123.2 122.6 121.9 121.6 120.9 121.2 122.4 123.3 125.2 126.3 128.1 130.6 133.5 135.6 139.8 144.2 150.3 157.1 161.1 159.2 157.6 156.5 156.5 156.8 156.1 153.4 150.7 148.1 145.2 144.8 143.9 143.7 143.8 144.4 144.7 141.9 139.8 139.2 138.7 139 138.6 137.9 137.6 138.3 141.7 144.5 147.3 150 150.6 150.3 148.9 147 144.9 142.7 139.4 138.8 137.6 135.6 133.5 130.4 128.6 125.6 122.7 120.4 118.1 115.9 113.5 110.7 107.9 105.7 104.1 101.5 99.1 97.6 96.7 95.3 95 94.6 94.3 93.4 89.6 91.1 94.4 96 98.2 99.7 101.6 102.4 104.9 108.4 111.7 115 120.2 126.8 135.4 146.6 159.9 176.3 196 206.1 213.7 218 221.8 234 247.3
254.5 251.4 247.1 241.8 236.4 231.9 228.7 224.6 224.9 222.9 220.6 219.6 218.6 216.3 214.8 211.6 208.1 205.2 203.4 201.6 199.2 196.8 194.7 192.4 188 183.8 179.8 175.3 173.9 171.7 169.9 165.2 158.9 153.5 149.4 139.7 143.6 146.2 145.1 139.7 135 129.7 121.2 108.1 97.2 87.1 81.3 78.7 77.3 77.7 78.7 77.5 76.6 78.3 74.3 73.5 72.7 73.1 73.4 73.7 73.5 73.3 72.9 73 73.2 68.2 72.9 74.5 74.5 74.6 76.3 81 83.6 83.5 84 86.4 89.2 91.3 92.8 94.5 96.2 98.7 103.1 108.4 110 111.5 120.1 124.3 127.2 128.6 127.3 125.3 123.5 122.5 121.7 122.1 122.5 121.4 120.7 120 119.9 118.3 117.6 119.3 119.9 121.9 123.3 127.1 130.7 135.7 140.5 146.4 153.4 157.7 156.5 155.9 155.1 155.7 155.8 154.4 151.6 148.8 145.8 142.9 141.5 141.3 141.3 141.9 142.4 142.9 142.6 142.5 141.4 141.3 141.8 141.7 141.2 141.7 143.9 146.9 150.3 153.6 155.6 156.6 155 152.4 149.3 146.4 145.3 144.1 142.4 140.2 138.4 136.2 134.2 131.6 128.4 125.6 123.5 121.2 118.3 114 112.2 112.2 107.7 105.5 102.9 101.3 99.9 98.9 96.9 96.7 96.3 95.2 92.8 86.9 90.6 94.6 96.1 97.4 98.8 101.1 103.5 106.3 110.1 113.8 117.4 123.2 130.2 140.1 151.8 172 191.2 208.7 212 217.2 217.7 221.1 235.7 255.4
251.5 246.5 242.1 237 232.3 228.5 226.1 219.8 220.6 218 215.7 214.1 212.1 209.9 207.8 205.4 203 201.1 199.2 197.8 195.9 194.3 193.2 191.2 188.7 184.6 180.2 181.6 177.5 173.4 168.6 164.1 158.8 151.9 144.3 137.5 128.7 134.3 136 131.9 126.8 121.1 113.2 96.8 90.6 85.7 79.3 77.3 75.7 75.3 75.2 74.8 74.8 74.4 73 73 72.3 73.6 73.8 73.6 73.2 73 73.2 75.1 74.4 68.2 72.6 74.5 74.6 74.7 77.6 81.7 84.4 86.6 87.7 89.1 91.6 93.1 94.5 96.4 99.3 102 105.5 111.6 114.5 114 118.2 121.1 123.9 124.5 124.4 122.7 121.1 119.7 118.7 119 119.3 119.8 120.1 120.3 119.4 117.8 115 112.3 113.6 115.2 114.6 120.6 125.4 129.6 135.4 140.7 146.1 150.9 153.1 153.1 154 154.9 155.6 152.9 149.7 146.7 143.6 141.4 139.8 138.7 139.1 139.4 141 142.6 143.7 143.4 143 143.8 144.3 144.6 145.4 146.8 149.2 152.9 157 160.3 162.8 162.5 159.3 155.8 154 152 150.2 148.8 146.6 143.7 141.2 139 137.3 135.4 133 130.5 127.6 124.5 120.5 115.8 113.1 111.5 109.5 107.3 105 104.3 103.6 101.3 98.9 98.6 97.1 95.9 93.3 87.8 93.1 95.2 94.3 97 99.4 101.5 104.3 107.3 110.9 114.7 118.6 125.6 132.3 142.8 155.3 178.7 198.3 207.1 208.1 211.3 212.3 216.8 230.3 246
246.5 241.4 236.2 233.1 229 225.7 224.2 220 216.1 214.3 211.4 210.2 206.7 205.8 203.4 201.9 200.1 199 195.5 193.6 192.4 191.8 190.8 188.1 186.4 184 184.7 182.1 178.4 174.1 168.8 164.9 160 150 141.7 134.9 129.7 119.1 125.3 121.7 118.8 111.9 104.1 90.7 90.8 86.8 78.7 75.8 74.8 74.7 74.6 74.5 74.5 73.6 72.6 72.4 73.8 73.8 74 73.2 72.9 73.6 74.6 75.2 74.9 68.2 72.2 74.5 74.7 75 79.4 83.2 85.5 88 89.5 90.8 93.1 94.8 96 98.6 101.5 105.1 109.2 113 114.3 115.6 118 121 124.4 125.9 124.4 122.8 120.8 117.9 115.8 115.9 116.2 116.4 116.9 117.4 118.3 119.1 116.9 112 110.3 110.5 113.7 116.2 118.9 123.1 128.3 133.7 139 143.5 147.6 149.7 153.5 155.9 155.5 152.3 148.9 146.1 142.6 139.5 137.5 137 137.4 137.8 139 141.4 143.1 144 144.4 145.8 146.8 146.6 148.2 150.1 154.2 157.7 161.3 167.3 168 166.8 164.8 163.1 160.4 157.9 154.8 152.2 149.5 146.6 144 142.7 141.7 139.9 137.4 134.3 130.4 127.1 122.9 118.4 116.1 113.7 111.9 109.1 107.7 107.4 106.3 104.6 102.3 100.8 99 95.8 94.4 91.3 94 96.5 96.2 97.4 100 102.1 104.8 107.6 111.5 115.1 120.2 126.6 134.1 144.4 156.6 180.8 201.1 202.2 202.1 203.2 205.3 210.1 219.2 226.8
239.2 236.6 233.3 230 224.9 222.2 218.2 213.5 212.5 211.7 209.2 206 205 204.4 202.2 200.9 199.4 198.6 196.9 192.4 191.5 191.2 188.7 189.1 188.8 188.7 186.3 183.1 180 175.1 168.9 161.5 155.8 146.3 139.5 134 127.7 118.7 114.1 111.4 109.5 104.5 96.4 91.5 88.7 80.3 74.5 75.3 74.7 74.7 74.5 74.3 73.8 73.3 73.4 74.1 74.5 74.6 74.2 74.2 74.3 74.4 74.7 74.8 74.6 72 68.4 73.5 74.6 75.3 81.2 85 86.9 89.2 90.8 92.5 95.2 96.8 98.7 101.1 104.1 108 111.9 115.3 116.8 118.9 121.4 124.2 128 126.4 124.4 122.5 120.4 118 116.1 114.9 114.2 114.2 114.3 114.6 115.5 116.2 116 111.8 108.2 109.1 110.6 112.2 113.9 116.8 121.7 127 132.3 136.7 139.7 145.2 149.7 155.2 155 151.9 148.4 145.1 141.7 138 135.6 135.3 135.9 137 138.5 140.9 143.6 144.8 146 146.5 147 147.5 149.2 152.3 156.7 160.3 164.9 170 170.5 169.9 169 168 164.2 160.4 157.2 154.5 152 149.5 146.9 145.6 143.4 141.3 139.3 135.4 132.3 128.6 124.6 121 118.4 116.3 114 112.2 111.1 110 108.4 106.8 105.3 103.6 101.5 98.8 93.6 95.7 94.3 97.7 98.5 98.6 100.1 102.8 104.9 107.8 111.5 115.6 121.8 128.2 135.8 146.6 159.8 183.7 201.7 199.3 195.8 196 198.8 203.6 208.4 214.3
232.8 231.2 227.7 224.8 219.3 217.7 215.5 212.2 210 207.6 207.5 205.4 202.9 201.7 202.3 202.3 201.4 199.5 196.7 194.5 193.1 191.5 190.8 190.7 190.4 189.4 188 184.2 179.9 174.7 166.2 157.2 151.8 143.7 139 131.9 124.8 119.1 114.1 106.7 96.6 96.8 92.5 90.1 85.9 79.8 74.5 74.5 74.7 75.1 74.3 73.5 73.7 74.1 74.1 74.2 74.5 74.7 74.4 74.7 75 75.1 74.7 74.4 74.2 73.5 68.4 73.7 74.5 76.1 83.3 86.8 88.3 90 91.6 93.7 96.5 99 100.5 103.5 106.5 110.4 114.2 117.7 120 122.2 124.6 127 128.3 126.5 123.5 121.4 119.8 118.7 117.1 115.7 114.8 114.3 113.1 112.6 112.6 112.8 106.8 106.2 105.8 106.6 107.4 108.5 109.3 112 115.4 120.4 125.6 129.9 132.5 138.6 143 147.3 151.2 150 146.6 144.1 140.9 137.1 133.5 135.8 136 137.1 138.5 140.5 143 144.5 145.4 145.8 146.1 146 149 152.4 156.5 160.8 166.7 170.8 171.8 170.7 168.5 166.7 164.1 161.1 157.3 154.9 152.9 150.5 147.9 145.8 143.7 141.5 139.1 135.5 132.5 129.1 125.9 122.4 120.2 118.1 115.9 114.3 113.1 111.8 110.1 108.6 106.8 104.8 102.9 99.3 96 95.7 92.8 97.2 99.4 100.4 100.6 102.4 105.1 107.4 110.7 115.8 122.6 129.2 136.8 147.2 162.9 185.2 198.4 195.4 190.7 189.6 191.8 195.1 198.5 201.8
225.6 222.9 221.6 219.8 215.6 214.3 212.5 210.3 208.9 205.8 203.5 203 200.5 197.4 197.1 197.7 197.6 197 195.5 193.3 192.3 191.3 190.9 191.1 191.3 191.1 188.6 184.3 179.6 172.5 163.3 156 148.7 142.9 136.7 128.3 122.4 116.3 108.4 102.9 96.7 90.7 89 86.7 82.7 79 75.6 74.9 74.7 74.6 74.3 73.9 73.3 74.3 74.2 74.3 74.5 74.4 74.4 74.7 74.9 74.9 74.7 74.4 74.3 73.8 68.6 72.6 74.6 76.9 85 88.5 89.5 90.8 92.5 95 97.7 100.3 102.2 104.4 108.8 112.3 116.4 120.5 123.1 125.5 127.8 128.3 127.8 125.9 122.7 120.3 119.7 118.8 117.6 116.9 116.5 115.3 113 109.9 106 105.5 104.8 105.7 106.2 106.5 106.9 107.3 108.6 108.9 110.8 115.4 119.2 123 126.9 132.3 136.3 140.1 143.5 144.1 144.7 143.4 140.9 138 137.6 138 137.7 137.9 139.5 141.1 143 143.1 143 143.3 143.7 145.1 147.5 151.6 156.3 160.1 166.6 171.6 171.2 169.5 167.1 164.5 161.7 159 155.9 153.5 151 148.7 146.6 144.5 142.5 140.4 137.2 134.3 131.3 128.3 126.1 123.6 121.6 119.9 118.1 116.5 115.1 113.6 111.9 110.1 108 105.9 103.1 99.7 96.3 96.5 95 100.5 100.4 101.3 101.7 104 106.3 107.8 110.8 115.9 122.9 129.6 137.3 147.8 163.3 184.1 194.8 189.6 185.2 180.5 185.4 188.5 191.5 197
219.2 216.9 214.4 214.8 211.6 209.3 205.5 205.2 202.6 194.9 196.7 196 194.6 192 188.2 190.5 191.4 192.2 192.9 192.1 190.8 189.5 189.6 190.4 190.1 189.1 186.4 181.2 176.3 170.1 161.6 155.2 146.3 139.7 134.1 127.8 121.3 114.1 104 98.7 92.1 86.9 85.6 84.2 80.1 77.3 74.7 74.8 74.6 75 74.5 74.1 73.4 74 74.4 74.4 74.4 74.3 74.5 74.2 74.3 74.1 74.3 74.4 74.7 74.4 70.3 68.6 73.9 79.1 86.1 88.8 90 91.4 93.8 96.3 98.9 101.4 103.9 106.9 112 114.7 119.4 123.7 126.4 127.6 128 126.5 125 122.1 119.7 118.4 117.1 116.5 116.2 117.4 116.9 113.1 108.5 105 101.3 106.3 114.3 114.2 109.5 107.7 107.9 106.6 107.1 108.9 110.1 112.4 115.8 118.3 122.3 126.5 130.4 134.2 136.6 138.5 140.4 140.1 140.3 131.4 140.3 139.9 139.3 139.7 140.5 142 142.3 141.9 141.6 141.7 142.2 143.5 146 149.8 154.1 158.3 165.5 169.8 169 166.9 164.4 161.7 159.1 156.5 153.6 150.9 147.9 146.1 143 142.3 140.1 137.3 135.1 132.2 129.4 126.7 124.3 123.4 121.7 120.2 119.3 118 116.5 114.4 112.9 111 108.8 105.5 102.1 98.5 99.5 97 99.8 101.7 103.4 103.3 104 102.2 107 108.2 111.3 116.2 123 130.3 138.3 147.6 161.7 179.1 186.7 185.3 180.6 177.7 178.9 182.2 188.4 190.5
210.8 209.9 207.7 205.6 203.4 199.6 197.2 196.2 193.9 186 188.5 188.1 186.9 184.3 179.4 177.8 179.7 183.2 184.6 186 187.3 187.2 187.3 186.5 185.6 184.5 181.3 176 172 167.3 158.6 154.3 144.8 139.3 135.2 127.9 119.5 106.7 100.2 95.6 91.2 85.9 82.1 80.3 77.1 75.1 74.2 74.4 74.6 75.4 74.9 74.1 73.4 75 75.8 77.5 78.5 78.4 76.4 75.1 74.3 74.6 74.5 74.4 74.5 74.2 70.7 68.6 74.2 81.1 87 89 90.4 92.9 95.4 97.5 100.2 102.9 105.5 109.5 114.3 116.5 121.7 126.7 127.7 126.2 124.6 122.4 119.7 117.4 116.5 115.6 114.8 113.8 114.5 115.8 114.3 107.8 101.3 106.2 109.7 114.4 117.7 120 116.4 111.7 110.6 110.2 109.9 110.4 109.1 110.9 112.1 115.4 118.8 123.6 127.4 130.7 132.6 134.5 136.2 136.7 136.1 137.8 140.5 140.3 140.9 141.2 141.5 142.2 141.7 140.8 140.6 140.3 141.1 141.9 144.6 148.1 151.7 155.7 162.3 167.6 166.3 164 161.5 159.3 156.6 154.6 152.3 149.6 148.1 146.6 144.6 138 137.6 135.3 133.8 130 127.4 124.6 123.5 122.6 121.4 120.2 119.2 118 116.2 114.2 112.1 109.5 106.1 102.1 100 102 100 98.1 102.2 104.1 104.9 105.4 106.3 106.8 106.5 108.6 112.4 116.9 123.2 129.6 136.8 145 157.2 171.1 181.3 182 177.9 173.9 173.6 177.2 182.5 180.1
201 198.7 197 196.1 193.5 189.6 186.6 185.1 182 174.6 177.3 176.6 175.9 174 172.5 170.4 166.7 170.5 174.8 178.8 181.7 183.2 183.5 182.9 182.4 180.8 178.5 175.2 172.4 167.7 159.7 153.7 143 138.1 132.8 124.8 114.5 100.9 96.7 93.3 89.8 83.5 81.3 78.1 76.4 75.5 74.6 74.4 74.7 74 74.9 73.9 74.5 77.8 80.6 84.5 86 85 83.3 75.2 74.2 74.4 74.3 74.2 74.5 74.7 72 68.6 72.7 81.6 88.2 89.4 91 93.9 96.9 98.9 101.6 104.2 107.1 111.6 116.4 119.4 123.1 127 124.7 121.4 119.1 116.6 114 112.4 111.8 111.6 111.2 111.3 113 113.8 110.7 103.5 99.2 112.8 112.7 115.4 117.5 119.4 119.4 114.6 113.1 113.2 112 112.1 113.1 113.3 112.5 112.8 115.9 121.9 125.7 128.4 130 131.1 132.8 133.6 130.3 137.1 138.3 139.4 141.3 143.1 142.5 141.8 140.5 139.8 139.4 139.2 139.9 141.3 143.3 146.6 150.2 153.1 158.8 165.1 163.4 161 159.2 157.5 155.7 154 152.4 150.3 147.5 145.3 142.9 140 136.4 133.2 129.3 127.8 124.7 123.3 120.7 120.4 120.5 119.2 117.3 115.5 113.9 111.9 109.5 107.3 104.7 104.4 104.1 103.1 99 101.4 104.4 105.6 106.8 107.2 107.3 108 109 109.6 112.7 117.6 122.7 128.8 135.9 143.7 153.1 163.6 175.6 177.8 176.2 170.8 170.1 172.1 175.9 186.3
190.1 189.5 188.1 185.7 181.7 179.6 176 172.6 170.3 166.8 167.3 165.7 164.1 164.7 165.3 163.4 159.2 158.7 162.5 169 174.1 176 177.7 178.2 177.5 176.4 174 171.4 168.3 163.9 156.8 150.9 142 133.1 127.3 117.3 104.2 95.7 92.1 87.6 83.3 79.9 78.9 76.7 76.3 76.6 74.8 75.9 74.8 75.7 75.3 78.6 81.9 83.2 84.4 85.6 86.1 85.3 83 78.7 74.7 74.2 74.1 74.3 74.6 74.4 72.4 68.6 72.7 82 88.6 89.7 91.8 94.8 97.8 99.9 102.3 105 109.2 114.1 117.3 119.8 122.6 122.1 118.9 115.6 112.7 109.7 104.9 102.1 103.1 104.3 105.4 108.2 111.5 111.7 106.2 99.8 106.2 115.5 114.1 115.5 117.4 119.7 122.3 117.1 115.1 116.7 117.1 117.3 116.7 116.4 116.7 117.5 116.3 115.3 124.7 126.5 127.8 129 129.8 125.3 132.3 137.3 137.3 138.1 140.4 141.8 141.7 140.4 139.4 138.8 138.5 138.4 139.6 140.9 142.6 145.5 148.5 151.7 156.3 161.8 160.9 159 156.4 155.9 154.5 151.6 150.1 148.2 145.8 143.3 141.1 138.4 135.7 133.1 129.5 126.3 123.1 122.1 120.5 117.2 117.1 115 113.5 111.8 110.3 109.3 108.3 110.2 109.7 108 106.1 103.1 103.2 105.2 107.1 108.2 109.2 109.6 109.5 110.2 110.8 111.3 111.7 116.5 121.9 128.4 134.4 141.9 150 159.2 167.5 171.5 171.5 168.5 165 166.3 173.8 181.1
179.3 176 173.3 171.8 168.3 165.8 163.4 161.5 158.3 157.4 157.7 155.2 154.9 154.2 151.8 152.1 148.3 146.4 148 157.2 164.3 167.2 170.5 172.2 172 171.5 170.7 168.7 163.2 159.1 153.6 146.3 137.9 126.2 113.8 105 95.5 90.7 85.8 82.3 78.7 78 76.7 76.4 76.2 76.1 75.9 75.9 76.1 74.8 81.7 85.6 86.5 86.1 84.8 85.1 82.5 81.1 80.1 78.4 75.5 74.3 74.4 74.5 74.6 74.6 73.7 70 68.6 81.9 88.2 89.3 91.8 95.1 98.4 100.6 102.9 105.8 109.6 115.1 117.1 118.9 118.6 116.8 113.3 109.7 105.6 99.1 90.7 91.2 90.1 93.5 94.3 95.7 99.5 103.1 97.8 101.7 114.3 116.3 115.7 115.9 117.9 120.8 122.8 119.2 119 121.4 122.7 122.8 122 120 120.2 120.7 119.9 117.6 118.1 124.8 126.8 127.5 125.3 126.1 132.7 136.6 134.4 136.2 138.2 139 139.7 138.8 137.9 137.6 137.9 138.3 139.5 140.8 142.1 144.9 148.2 151.6 155.4 158.8 158.1 156 153.5 153.2 151.8 150 148 145.6 142.7 140.3 138.5 136.3 133.5 130.7 128 125.7 123.8 120.1 118.4 113.9 114.8 113.7 112.4 112.5 113.6 114.4 113.7 111.9 109.8 107.1 104.3 105.2 106.4 108.2 110.1 111.6 113 113.1 113.2 113.3 113.2 113.8 114.3 114.3 120.3 125.5 132.2 138.8 145.3 151.9 159.4 164.4 166.2 163.2 157.1 165.3 170 176.9
168.3 164.3 162.1 161.5 159.5 158.3 156.1 154.9 153.4 152.3 152 151.5 150.3 147.9 147 140.5 133.9 126.7 128.7 135.4 151.3 155.1 160.1 165.5 168.6 166 165.3 159.2 157.7 152.1 145.9 137 126.3 115.3 103.9 97.3 91.1 85.4 81.2 79.1 78.7 77.7 76.5 76.2 76.1 74.9 76.1 78 76 74.4 79.9 86.2 86.8 85.5 84.8 84 82.6 81.9 82.9 80.8 77.7 74.6 74.6 74.7 74.7 74.7 74.6 72.8 68.6 82.1 87.6 89 91.6 94.9 98.2 101.1 103.6 106.5 110.7 112.6 114 114.8 113.9 111.3 107.7 103 97 88.8 96.7 97.3 96.9 96.2 99.2 100.1 100 96.5 104.6 111.6 115.9 117.2 117.1 118.2 120.4 123.8 123.6 122 125 127.4 127.4 129.3 127.1 124.5 124.2 123.9 124.3 125.1 119.4 117.7 119.6 123.3 121.9 125.5 128.8 130.8 132.9 135 137.4 138.3 138.2 139 137.3 137.4 137.9 138.5 139.6 141.2 142.7 145.1 147.9 151.7 155.4 156.8 155.4 153.1 151.3 150.6 149.3 147.2 145.6 143 140.5 137.5 135 132.4 129.3 126.6 124.1 120.2 118.2 117.6 118.3 118.7 117.8 117.6 117 116.3 115.5 114.5 113.3 111.2 108 105.9 108.3 110.4 111.7 113.4 114.8 115.6 116.9 117.4 116.8 116.9 116.1 116.3 116.8 116.4 116.7 121.3 128.6 134.5 140.8 146.7 153 158.3 160.2 154.9 157.2 162.4 168.7 178
158.2 158.9 157.9 156.8 155 152.6 151.4 150.4 149.7 148.7 149.3 149.1 147.6 144.3 140.2 131.5 141.9 141.2 126.5 120.4 127.1 137.5 145.4 152.3 156 155.5 154 152.6 148.1 141.6 130.7 125.8 112.4 102.2 96.3 92.2 86.2 82.7 80.6 80.1 78.6 77.8 76.7 76.4 76.5 78.9 79 79.8 79.4 76.7 76.8 80.7 85.1 84.7 84.9 85.7 84 84.6 85.9 82.2 78.5 76.8 74.8 74.9 74.8 74.8 75 74 68.6 80.1 87 88.8 91.3 94.5 97.9 101 103.8 106.6 108.2 109.4 109.1 109.1 108.8 106.2 102.1 95.6 90.1 95.2 104.4 104.6 102.9 101.7 102.7 104.5 104 98.6 110.2 116.5 118.8 119.3 119.8 122 124.6 126.8 126.2 126.7 128.8 131.4 131.9 131.9 130.5 128.7 128.4 127.6 126.3 124.4 121.3 120.1 119.7 119.7 119.5 122.2 124.9 127.7 130.6 133.1 134.4 136 136.7 137.3 137 137.9 138.4 139.6 140.9 142.3 143.8 146.7 149.4 153.3 155.1 154.4 152.8 151.5 149.9 148.5 146.1 142.8 139.9 138.9 136.6 133.9 131 128 124.2 123.2 122.5 123.3 123.5 123.5 122.8 121.3 119.5 118.2 117.3 116.3 114.4 112.5 109.8 110 109.6 110 112.1 114.7 117.1 118.6 119.1 119.5 120.6 121 120.5 121.7 120 119.1 119.2 117.3 119.2 119.1 123.9 129.8 136.3 142.3 147.6 151.4 145.4 149.8 157.6 164.7 171.3 180.8
159.9 153.9 152.2 148.6 147.6 145.3 141.2 140 138 137.5 136.4 134.8 132.1 141 145.6 144.6 143.5 143.2 136.1 127.5 114.1 118.5 127 136.3 140 139.6 140.4 139 134.3 127 116.7 106.1 100.4 96 90.9 87.9 85.8 83.1 81.4 81.5 79.9 77.7 76.9 75.4 77.3 80.6 79.2 83.2 85.7 86.6 84 83.9 84.8 85 85.2 85.6 85.8 85.9 83.8 81 78.8 77.6 75.4 75 74.9 75 75.2 74.9 68.6 78 87.3 89.1 91.3 94.1 97.4 100.4 103.3 104.5 105.6 105.9 106.6 105.8 104.1 101.1 95.3 86.8 94.5 104.2 106.3 104.7 104 104.6 105.8 106.7 107.8 103.5 109.9 119.5 121.1 120.9 123 126.2 128 129.8 130.7 130.9 131.6 133.1 133.1 133.1 132.4 131 130.4 129.1 127.1 125.3 124.5 123.5 122.2 122.1 121.6 118.9 120.4 124.8 127.2 129.6 131.2 131.9 133.5 134.8 137.4 138.7 139.4 140.7 142.1 143.5 145 148 151.5 154.3 154.2 152.9 150.5 148 143.6 141.8 139.8 137.5 135.4 133.3 132.5 128.2 128.4 128.1 128.6 127.5 126.4 126.4 126.5 124.9 123.3 121.4 119.2 117.5 116.3 115.5 113.8 113.1 113.5 113.2 114 115.7 118.1 119.8 121.6 122.8 122.8 123.4 124.4 125.6 126.3 125.1 124 122.3 121.9 121.7 121.5 121.3 121.7 126.6 131.6 135.5 136.6 137.9 144.6 152.9 159.8 166.4 174 185.1
159.3 158.7 156.5 155.9 156.9 153.2 154.1 152 150.5 150.1 149.1 148.7 148.8 150.4 149.9 148.8 147 140.8 138.5 131.9 123.3 118.9 114 116.7 124.2 126.3 126.9 124.6 120.2 113.4 104.9 99.7 95.6 92.3 89.5 87.2 85 83 83.3 82 79 76.2 77.1 76.1 76.5 77.8 79.3 86 89 90.3 88.8 85.5 83.1 85.7 85.8 86.7 86.9 86.2 85.3 83.2 80.6 78.1 76.8 74.8 74.9 75 75.1 75.1 68.6 76.4 87 88.5 90.7 93.3 96.9 99.4 101.5 102.9 104.5 104.6 103.1 101.4 97.1 94.1 88.3 91.8 98.4 101.4 103.2 104.4 105.6 106.5 107.8 108.6 109.5 109.6 108.8 119.3 122.4 122.6 125.9 129.5 131.3 132.9 134.4 134.1 133.2 134.2 134.3 134.3 133.7 132.8 131.8 130.2 129.3 128.7 128 127 125.8 124.1 123.7 123.9 123.8 122.8 124.2 126.5 128 128.8 132.6 135.5 137.2 139.3 140.3 141.1 142.6 144.7 146.2 149.1 153 154.5 154.2 153.1 151.2 149.7 146.7 145 142.8 141.3 138.1 134.5 130.9 132.9 133 132.6 130.8 129.6 129.6 128.7 127.1 124.8 122.6 121.4 119.4 118.1 115.4 116.1 116.3 116.1 116.3 117.4 119.7 122.3 124.7 125.2 125.9 126.9 127.6 129.2 130.1 130.5 130.6 130.2 128.7 127.5 126.2 125.8 126.1 125.7 125.5 125.4 126.8 134.4 139.5 144.6 149.8 154.3 162.4 169.3 179.4 195.4
