ncols 200
nrows 85
xllcorner 210000
yllcorner 695200
cellsize 50
35.8 33.3 32.3 31.6 31.5 30 31.8 31 30.8 30.5 30.9 33.9 36.8 44.7 55.8 65.5 78.7 92.9 105.8 118.8 131.4 148.9 168.6 185 202.8 223.5 240.6 256 270.4 293.6 318.5 344.9 362.7 377.5 396.4 414.2 428.8 440.5 449.1 455.1 446 429.5 436.1 442.7 445 442.1 422.6 404.5 372.8 334.5 305.7 274.5 247.7 223.2 212.8 234.7 254 260.9 277.1 289.4 308.8 327.9 346.3 362.7 374.4 394.1 408.6 412.7 427.6 457.1 482 502 522.4 543.3 551.1 564.4 571.1 576.9 582 581.2 544.9 545.2 514.8 500.4 494.1 495.2 492.8 486.9 464.5 436 431.1 427.9 421.9 421.8 424.9 428 433.2 436.9 439.3 439.7 442.2 444.2 444.5 443.4 439.5 437.4 429.4 427.9 428.5 428.4 425.1 424.7 420.9 418.9 417.2 411.4 405.9 407.3 407.2 405.3 400.2 389.6 389.4 383.1 356.8 338.8 334.6 333.6 325.4 294.3 278 255.2 229.9 204.4 196.1 197.3 194.1 188.9 184.4 182.6 178 192.2 195.2 203.3 205.7 218.2 220.1 227 231.5 242.2 240.4 246.8 250.7 255.7 257.9 259.5 258.3 258 254.4 253.6 261.9 262.2 261.4 251.1 251.5 248.6 259.6 266 261.6 259.8 248.7 245.1 246.6 237.7 208.8 183.5 172.5 163 146.1 128.5 116.3 107.2 95.3 81.6 67.3 54.2 49.6 38.1 24.2 13.3 1.3 -1.4 -1.4 -1.4 -1.4 -1.4 -1.4 -1.4 -1.4 -1.4
37.9 33.2 32.5 31.6 31.5 31.6 30.8 30.4 30.2 30 29.8 30.3 31.8 39 43.9 55.9 71.4 84.9 98.9 112.8 125.8 143.6 162.2 179.3 195 213.2 230.1 245.8 263 287.5 312.8 334.4 352.7 369.3 393.5 411.9 427.5 434.2 443.6 444.1 423.8 419.7 429.1 442.2 449.9 443.2 417.4 407.4 376.9 342.8 306.4 273.8 245.2 218.4 210.3 227.1 245.7 262.2 281.3 293.7 306.7 325.2 348.3 369.5 385.9 405.8 418.7 427.1 431.9 444.9 484.6 503.4 521.1 551.9 564.1 575.9 585.7 595.8 602.3 592.4 572.9 567.6 542.7 526.7 518.1 513.4 511.7 508 485.3 450.8 443.7 439.9 432.3 430 433.2 435.3 440.2 445.9 449.8 451 453.6 458.1 460.1 461.2 455.8 459.2 447.9 445.7 436.8 436.7 439.1 435.7 437.7 433.8 430.3 422 417.6 416.2 417.4 419.7 415.7 402.1 402.3 398.6 376.3 347.8 350.2 348.8 339.6 290.2 268.7 246.2 231.7 207.7 202.3 199.3 194.1 187.8 187.3 183.2 180.7 192.4 199.7 207.9 215.2 218.9 224.3 233.9 239.4 250.7 251.6 256.4 261.1 265.6 271.6 275.4 273.2 270.5 267.9 276.2 282.8 285 278.9 271.1 268 265.2 284.3 291.5 283 274.4 268.6 280.6 278.6 251.8 232.9 204.2 192 185.9 173.8 147.2 125.4 115 100.9 84.7 66.6 68.6 58.7 52.1 39 16.9 5.7 -1.4 -1.4 -1.4 -1.4 -1.4 -1.4 -1.4 -1.4 -1.4
36.8 35.4 33.2 31.7 31.4 31.1 30.8 30.5 30.3 30.1 29.7 30.1 29.5 34.9 40.2 51.4 64.4 78.1 91.5 104.9 120.4 135.5 152.9 170.3 185.4 203 216.9 237.3 256.6 279.6 305.1 328.3 346.7 366.4 389.4 409.5 416.9 422.5 432.4 423.7 407.8 414.5 428.7 443.9 451.2 434.1 427.1 415.5 376.5 339.3 303.6 269.6 241.2 218.7 204.2 223.5 239.5 262.2 277.7 297.5 312.4 325.5 353.3 374.4 392.4 411.8 419.8 427.6 437.7 447 463.7 508.7 532.7 560.2 577.4 588.8 600.1 610.3 616.6 604 603.1 580.9 569.3 551.3 539 538.9 538.9 525.2 493 469.1 461.9 462.3 456.2 442 441.8 444.8 446.4 454.8 459 461.4 465.3 472 475.1 479 476.9 474.5 481.2 461.9 450.7 447.3 448.7 445 451.8 450.2 445.5 434.8 431.7 429.1 429.6 433.4 428.7 419.1 414.6 408.7 388.5 359.1 357.3 354.5 339 297.7 259.2 240.4 219.7 208.2 203.4 198.1 192.9 190.9 186.5 180.9 184.9 193.8 202.4 213.8 217.8 224.7 232.3 235.4 245.7 253.9 260.7 265.3 274.5 280.7 287.1 288.9 288.4 286.9 298 297.3 299.6 305 301.1 288.5 288.5 288.9 301.1 310.2 306.2 298.1 292.2 308.2 308.9 272.5 245.9 222.4 209 208.1 193.7 159.6 143.3 124.4 104 87.9 83.3 77.7 67.4 68.6 48.2 26.9 8.2 -1.4 -1.4 -1.4 -1.4 -1.4 -1.4 -1.4 -1.4 -1.4
43.7 39.6 34.6 32.8 31.6 31.3 30.9 30.6 30.3 30.2 29 29.9 29.6 31 36.5 45.8 58.5 72 85.3 98.4 110.4 125.7 143.4 159.6 173.5 190.7 208.2 223.1 245.1 265.4 290.5 314.5 333.4 354.3 373.3 393.9 407.7 415.8 411.7 397.6 401.8 410.4 433 444.1 444.6 432 439.1 415.6 375.9 334.7 299.7 262.4 237.1 210.6 203.6 217.8 237.9 261.4 285.5 303.2 318.9 332.8 356.3 373.7 395.1 412.5 425.2 439.4 451.5 462.9 472.9 518.1 547 568.8 592.2 603.7 612.4 619.4 617.9 612.8 620.2 610.6 590.3 571.3 564.8 560.2 558.3 542.9 505.2 481.6 476.3 478 474.1 454.4 450.9 452.3 457.2 463.6 467.7 470.9 477.8 484 491.7 497 506.3 501 488.4 475.8 466.3 461.3 461.3 461.9 465.9 466.3 460.8 453.9 449.5 443.2 443.2 442.6 439.3 428.3 422.5 411.7 387.2 371.9 366.5 351.2 319.9 290.4 255 240.6 215.8 207.1 201.8 197.3 193.6 191.3 186.3 186.9 194 201.5 209.8 220.2 225.6 235.6 240.1 248 255.2 263.8 273.6 277.3 286.9 293.7 297.3 302.9 304.8 313.9 317.9 319.9 320.4 321.9 321.8 313 307.6 306.3 309.1 318.9 325.2 318.8 312.8 324.4 324.2 288.8 252.2 229.5 219.7 220.4 204.9 180.4 149 139.3 105.7 88.8 88.9 87.4 76.3 70.8 53.3 33.8 16.1 2.5 -1.4 -1.4 -1.4 -1.4 -1.4 -1.4 -1.4 -1.4
46.2 42 37.1 34.3 33.5 31.5 31.1 30.7 30.4 29.6 30.1 29.7 29.8 29.3 28.8 38.7 51 64.8 79.2 90.9 101.5 116.7 135.8 149.8 161.9 177 192.9 210.6 230.2 251.2 275.2 299 321.9 346.8 370.4 387.8 393 398.4 383.2 371.9 384.3 403.7 431.9 434.9 430.7 439 437.5 407.7 367.1 331.4 293.9 255.3 228.3 205.9 203.2 216.7 233.5 263.4 285.2 303.4 323.3 338.6 356.4 376.2 396.4 415.1 429.7 443.1 464.1 477.2 493.1 519.4 560.2 583.4 602.1 615.7 622.2 625.6 610.6 615.9 623.9 628.6 616.2 589.4 585.2 581.8 570.1 554.1 512.9 493.8 492.5 490.6 481 468 457.1 460.5 468.6 474 479.6 481.9 491.8 498.8 509.5 515.2 529.4 528.8 503.7 484.7 477.9 477.8 479.5 476.4 480.2 481.7 478.7 480.9 471.9 469.3 459.7 451.8 447.8 443.7 436.8 423 410.4 386.5 378.5 354.9 325 279.4 255 238.5 216.9 208.2 201.9 198 195.7 189.2 187.7 191.8 202.9 213 221.1 227.9 236 244.7 252.3 259.3 267.8 276 282.9 289.4 300.5 305.7 311.2 315.4 326.3 335 348.4 348.8 355.9 348.6 339.5 337.4 327.6 326.5 329.1 333.2 345.5 348.9 336 338.5 333.4 303.5 258.7 236.1 232.9 228.3 218.2 198 160.8 137.5 113.4 100 93 88.8 81.3 70.5 55.3 36.5 25.2 12.8 -1.4 -1.4 -1.4 -1.4 -1.4 -1.4 -1.4 -1.4
51.3 47.8 46.5 36 34.6 31.8 31.4 30.8 30.7 30.3 30 29.7 29.5 29.5 29.2 35.2 43.2 57 69.7 79.7 90 106.5 124.6 139.6 148.8 156.4 174.9 200.6 222.1 239.2 260.8 284 311.7 337.7 357.3 375 379.1 368.2 355.6 348.6 372.5 395.3 416.2 421.3 426 436.2 423.3 399.3 354.1 321 286.4 249.5 220.9 198 202.1 214.3 234.8 259.3 280.5 305.2 324.3 340.4 358.7 375.6 397.3 420.4 436.3 445.6 466.2 486.4 510.7 531.3 545.6 585.6 609.5 619.1 613.1 599.9 602.4 610.7 625.3 619.6 607.4 593.5 587.7 586 584.2 570.7 546.3 519.7 512.5 503.3 506 503.1 495.6 479.1 482.2 487.4 491.3 495.9 505.1 514.8 524.2 530.7 548.3 547.2 519.2 503.1 495.1 493.1 492.4 492 495.4 497.5 499.6 506.2 499.6 498 495.3 499.7 463.5 458.5 448.9 438.1 415.3 404.9 388.2 356.6 321.4 277.5 259.2 235.1 217.8 210.4 202.6 199.2 195.5 196.2 187.8 199.1 210.5 222 228.6 236.9 246 254.9 262.3 270.9 279.1 284.5 294.1 302.6 311.8 316.9 325.6 335.9 346.7 359.3 366.8 371.9 368 369 365.2 353.7 347.5 346.4 345.7 346.2 355.7 366.6 350.2 354.9 344.7 300.6 263.2 245.8 239.3 220.4 211.4 198.1 166 132.4 111.5 111.3 100.8 90.6 88.1 74.5 55.5 44.3 30.9 17.1 -1.4 -1.4 -1.4 -1.4 -1.4 -1.4 -1.4 -1.4
59.3 49.7 44.1 39.7 40 34.2 31.7 30.6 31.1 30.6 30.3 30.1 29.9 27.7 29.3 29.2 36.1 47.5 59.3 69.1 79.7 91 106.7 119.4 130.3 141.2 159.6 187.9 207.9 223 245.2 269.7 295.7 318.9 338.6 350.9 354.6 342.7 332.4 340.8 362.7 385.7 403.2 411.3 422.9 427.2 405.6 384.8 338.7 313 277.6 242.8 216.6 197.8 191.2 210.9 234.3 257.9 282.8 302.3 322.4 341.6 359.6 375.6 396.4 421.8 442 454.9 470.2 495.2 518.2 537.1 553.2 565.1 593.1 593 586.7 585.6 594.6 606 606.5 604.9 596.3 593.3 591.5 579.8 585.3 581.6 557.3 543.6 535.6 523.3 530 522.3 522.4 499.1 497.8 503.8 510.4 512 523.6 529.8 539.6 548.4 564.7 578.3 537.6 518.9 511.8 508.3 506.4 506.6 508.8 510.4 517.1 519.4 522.1 523.9 517.1 518 484.9 482.7 461.4 447.4 421.5 414.7 395.1 339 310.6 283.3 263.7 233.6 219.9 214.2 206.1 198.1 199.1 199.9 198.9 208.9 218.6 231.5 240.6 247.2 253.9 261.9 273.7 283 292 298.8 303.4 315.6 326.5 334 348.1 358.6 372.2 381 384.1 395.7 397.4 392.8 379.8 384 377.1 366.8 360.1 360.9 371.4 381.3 363.5 365.3 342.9 301.4 274.1 258 244.9 226.1 201.9 183.9 159.2 132.5 115 115.5 105.8 94.2 92.7 77.4 62.6 52.6 36.3 16.5 5.9 -1.4 -1.4 -1.4 -1.4 -1.4 -1.4 -1.4
67.6 58.1 53.6 45.5 42.8 43 35.3 34.3 31.8 31 30.7 30.5 30.4 29.8 29.4 28.9 30.6 38.2 48.6 58.7 69.2 79.5 88.6 100.1 114.7 131.8 149.4 172 195.8 212.3 230.8 255.8 279.7 298.8 317.2 328.4 329.8 318.7 307.3 328.7 353.4 375.5 391.8 407.9 414.3 410.5 388.7 355.6 325 303.1 263.7 234.4 207.2 192.4 187.6 211.1 230.6 255.7 278.9 298.4 319.6 336 352.2 372.1 397.9 426 447.1 463.1 476.6 498.6 523.4 548.5 561.5 582.1 573.5 575.9 571.7 572 578.4 585.3 587.5 583.4 583.2 586.2 578.7 571.7 574.2 582.2 559.7 552 549.1 556.6 551.4 545.6 544.3 521.5 515.7 517.9 523.2 530.7 534.1 543.9 557.3 568 584.5 593.9 553.9 528.8 525.6 523.8 520.9 522.8 525.2 528.1 534.1 540.5 546.8 539 528.4 521.1 501 504.5 490.6 458.3 431.9 422 392.7 335.9 308.5 282.1 256.1 234.9 221.3 216.7 208.6 199.6 202.9 200.4 207.8 217.9 229.2 242.4 248.3 257.6 265.9 269.1 282.9 296.4 303.3 311.8 324.8 328.7 342.2 357.2 370.7 382 398.6 404 413.4 424.8 431.2 421.7 401.1 401.3 393.1 391.4 376.1 375 378.9 375.6 374.3 371.7 346.5 319.3 286 270.6 249.6 233.1 201.3 168.9 152.8 132 124 120.7 105.9 96.7 90.4 80.3 70.6 54.5 42.1 26 12.1 2.3 -1.4 -1.4 -1.4 -1.4 -1.4 -1.4
77 72.5 60.2 54.1 50.8 48.8 40.8 37 34.1 33.9 32.6 32.1 31.1 30.3 29.5 29.3 29.2 33.8 38.6 47.3 58 68.4 75.6 82.9 100 121.4 138 158.2 178.5 199.7 217.6 238.4 261.7 281.5 296.9 311 302.3 291.8 295.4 321.6 344.9 365.4 383.7 399.5 397.6 396.4 376.2 330.3 307.7 287.9 250.5 223.7 197.9 182.9 189.6 209.7 230.1 251.1 273.3 294 311.5 331.2 349.4 367.5 391.3 420 451.2 470.9 489.6 504.2 522.1 540.4 551.2 561.6 546.7 545.8 546.2 549 553.6 561.4 564.6 568 570.6 577.9 567.4 560.6 564.9 561.9 559.8 552.3 551.4 569.4 561.4 574.3 558.7 541.9 535.6 540.3 553.4 551.7 551.4 572.8 589.5 595 599 597 567 542.6 536 535.7 534.4 535.4 539.4 542.5 551.9 563.9 569.8 571.1 543.3 527.6 516.2 517.2 499.4 459.4 437.8 414.1 376.5 343.8 303.3 274.8 254.6 236.2 222.1 215.8 208.1 207.4 203.2 211.3 217.7 228.2 241 249.4 262.1 271 278.4 283.2 293.7 307.4 317.5 329.5 339.1 347.6 360.8 390.8 406.7 411.5 422.9 428.2 440.5 443.2 453.7 440 423.1 422.9 421.2 423.4 388.6 386.7 385.4 379.9 380.1 374.6 341 306.1 294 285.3 254.2 234.7 202.7 170.9 158.5 129.3 126.5 118.3 110.6 101.6 100.6 85.1 73.3 70.1 49.7 32.3 22 11.8 3.3 -1.4 -1.4 -1.4 -1.4 -1.4
89.7 80.7 71 64 56.2 54.3 49.6 44.8 45.7 38.5 36.2 34.2 32.4 31 29.5 29.3 29.1 31 34.2 37.1 46.7 57.1 62.1 73.1 90 112.1 126.5 143.7 163.2 183.6 202.6 222.2 239.2 259.6 275.2 283.4 275.9 264.1 288.1 314 335.2 349.9 366.7 378.5 380.7 368.6 350.3 314.5 292 264.5 237.2 210.6 191.9 176.7 184.4 206.1 224.7 245.9 264.9 287.1 305.8 323.5 341.8 364.1 386.1 410.1 440 469.1 487.6 505.1 522.4 533.6 540.3 545.8 523.3 524.4 529.3 535.2 540.1 545.9 550.5 552.8 554.7 552.2 547.6 548.1 552.6 555.9 555.2 550.7 559.1 575.5 565.2 576.1 562.6 567.7 569.2 575.5 579.1 580.2 573.7 589.8 609.2 622 627.7 617.3 585.2 572.5 556.3 549.3 546.9 551.2 553.4 557.8 569.3 577 583.8 581.5 560.4 541 530.8 518.4 493.2 458 432.1 411.3 368.3 342.8 300.7 268.8 256.7 236.3 223.9 214.6 210.3 215.6 212 217.4 227.9 239.8 251.6 261.9 272.2 281.7 291.2 299 306.7 317.6 328.8 342 352.5 365.7 387.3 411.3 427.6 435.3 441.6 447.1 457.5 467.8 462.3 440.1 437.6 436.5 432.2 429.9 402.3 402.8 383.6 377.3 380.9 362.9 326.5 305.7 299.6 289.5 261.2 233.8 201.6 180.2 153.3 131.7 128 119.8 111.8 103.2 99.4 93.4 86.2 67.9 53.2 37.8 29.5 20.9 10.8 5.6 -1.4 -1.4 -1.4 -1.4
101.5 89.4 87.3 76.2 71.3 63.9 56.1 55.6 57.8 45.8 46.3 36.9 33.8 31.7 30.2 28.9 26.8 30.3 32.1 36.8 41.3 48.7 58.5 69.6 84.8 101.9 118 131.3 150.7 169.8 188.5 204.5 219.4 235.1 249.3 254 250 258.7 282.8 306 323.4 337 352.1 362.2 359.5 349.6 325.8 295 271.3 245.8 223.1 202.9 186.1 167.6 180.8 200.8 214.6 240.1 265.1 283.6 302.1 317 337.7 360.8 381.7 403.8 424.1 446.9 465.8 482.3 498.5 504.7 516 504.7 502.4 505.9 510.8 517.8 523.8 529.5 530.5 529.9 533 531.8 537.8 540.3 547 555.2 550.4 551.9 569 569.4 567.5 565.9 571 581.8 596.3 602.7 605 613 613.1 622.5 650.1 675.6 656.8 635 616.5 608.4 593.4 569.3 565.8 567.6 568.7 572.8 583.1 589.8 587 562.8 549.9 538.2 531.4 510.3 488.8 461.5 427.5 399.6 363.8 338.7 293.4 268.1 255.1 233.9 223.7 213.5 217.7 212 219.7 225.8 238.8 251.7 263.7 274.1 282.6 292.2 301.7 310.3 321.5 332.2 339.9 352.7 367.6 383.5 410.9 421.3 436.9 450.3 457.6 461 472.2 482.1 465.9 450.5 448 450.2 442.8 435.5 413.8 403.6 388.3 370.9 357.9 345.5 320.6 312.1 311.1 289.7 262.4 237.8 197 183 152.3 145.4 137.5 126.7 111.9 104.6 99.9 95.4 91.6 67.1 53.8 40.6 35 31 24.5 11.5 -1.4 -1.4 -1.4 -1.4
112.9 102.5 102.1 89 83.8 76.2 67.1 64.5 54.4 53.3 50.7 48.6 39.2 34.8 31.6 30.4 28.8 26.8 30.9 34.5 38.1 44.8 54.1 64.9 76.8 93 108.7 122.5 139 156.9 174.1 188.7 201.1 214.7 223.7 227.8 234.8 255.6 275.2 293.9 312.6 325 336 346.3 337 324 301.2 276.1 251.1 228.2 209.5 196.5 177.5 159.7 171 195.9 216.3 238.9 258.1 278.4 293.9 311.6 328.8 350.4 370.6 389.8 411.3 431 443.8 454.3 463.4 473.2 477.3 478 480.8 487.5 494.9 499.1 503.1 508.1 511.5 513.6 514.3 519 524.9 534.4 543.2 548.1 547.1 550.3 558.9 564.4 564.8 567.9 577.7 585.3 602.1 605.2 617.1 628 638.7 647.7 672.7 689.6 696.7 665.7 651.9 646.9 633.1 614.1 588 585.3 584.8 586.1 588.1 594.6 569.6 554.4 547.4 540.6 529.2 505.9 477.7 457.9 417.1 382.1 361.2 324.4 292.7 268.8 249.9 233.4 224.3 222.5 221.1 221.6 226.4 236.9 250.7 264 274.7 286.2 293.9 303.2 313.2 324 335.7 346.8 354 363.2 378.6 412.1 426.3 441.9 444.1 456.7 466.4 474.7 484.4 489.1 473.8 463.9 467.8 476.1 458.9 443.7 415.5 396.9 384.6 370.4 349 336.8 322.5 312.2 308.9 286 256.6 227.8 204 178.5 152.6 147.5 139.6 126.2 113 111.4 105.7 97.6 85.4 71.1 56.3 49.3 43.7 38.1 30.6 17.1 1.4 -1.4 -1.4 -1.4
124.8 112.8 107.8 96.8 93.8 85.3 83.1 73.3 68.2 61 56.2 52.2 51.7 42 36 33.5 32.5 31 27.4 30.4 34.7 39.2 48.8 58.4 64.8 81.2 98.1 113.8 130.6 144.7 157.6 170.5 186.3 196.1 201.5 211.6 230.5 248 264.6 279.8 299.1 312.3 322.6 323.8 318.8 300.5 277 250.3 230.4 212.3 197.2 183.9 167.2 150.4 171.6 192.5 209.5 231.4 251.6 269.1 286 302.7 323.6 342.4 360.8 377.4 393.1 408.1 420.6 434.8 442 449.4 453.2 455.3 460.2 470.8 477.3 485 491.1 494.5 497.5 496.9 503.2 510.1 517.4 525.8 533.8 538.8 542.3 550.3 555.9 559.6 564 573.3 581.3 587.9 597.6 608.9 624.6 634.1 655.6 668 680.9 690.8 712 714.8 690.8 673.2 668.2 646.1 621.3 600.4 599 590.7 583.2 568 560.3 553.2 544.9 541.1 522.9 493.3 466.3 429.7 403.5 380.7 352.8 316.9 285.9 268.6 247.3 232.5 224.9 226.9 217.1 228 235.5 250.5 264.1 276.4 288.4 298.6 306.6 316.5 327 339 350 364.4 375.5 387.2 390.4 420.9 446.5 449.3 455 469.4 485.6 489.6 494 498 479.7 475.6 482.9 495.2 469.6 440.4 416 394 381.4 362.8 345.2 335.7 320.1 306.2 298.3 275.4 245.3 224.7 204 183.4 162 152.1 140.1 125.8 115.7 115.8 110.6 100.3 85.9 75.3 67.4 57 47.8 40.4 36 16.6 8.8 -1.4 -1.4 -1.4
138.4 129 122.3 111.4 107.1 101 92.9 85.5 78.7 72.9 66.1 67.7 58 52.1 45.8 41 44.9 37 28.7 28.5 31.3 35.2 40.1 49.6 59 69.8 85.6 103.9 119.9 137.9 147.8 156.9 171.3 178 179.6 204.4 221.8 237.9 252.8 266.7 283.7 297.5 307 307.4 302.9 281.9 257.1 231 213.1 196.7 183.6 171.6 161.2 144.4 170.3 184.8 203.9 220.5 240.1 258.6 277.2 295.4 313.7 330.4 349.5 364.8 379.4 390.9 401.9 412.1 418.7 423 429.1 435.2 440.2 448.3 459.6 462.3 469.8 473.8 480.3 486.7 495.2 502.5 509.2 516.5 525.1 532.6 539.5 548.6 554.3 557.3 566.7 575.9 584.5 590.7 599.4 611.3 624.1 639.5 658 674.7 690.8 703.9 715.7 730.7 716.4 696.2 687.9 680.4 649.3 616 612.3 590.3 567.7 556.3 552.1 551.4 539.8 530.8 499.9 472.9 452.7 419.6 395.7 380.3 350.7 308 289 268.7 247.9 235.5 230.8 222.5 228.9 235.4 246.6 262.5 277.1 289.6 301.4 312.1 321.8 332.5 343.7 353.6 365.7 384 399.9 408.4 422 433.3 447.1 463.1 474.2 477.6 492.1 505.7 508.6 500.8 490.8 491.7 494.5 497.7 479.3 449.3 417.9 402.2 378.6 362.5 347.5 334.8 320.6 306.1 299.8 278.5 249.9 236.4 206.3 181.1 167.1 152.1 137.6 124.8 122.8 120.2 112.6 103.6 91.5 85.2 75.3 63.2 48.5 44.5 32.9 15.7 10.9 1.6 -1.4 -1.4
155.1 141.9 133.5 125.3 117.9 110.5 102.4 94.9 90.8 86.2 75.7 70.7 66.5 60.9 54.5 50.6 40 36.4 32.9 25 29.1 32.1 34.5 41 50 60.6 77.1 93.1 106.5 126 137.4 146 156.8 154.1 177.7 190.9 209.3 225 238.9 253.4 267.7 282.3 287.4 288.5 291.2 264.5 235.3 216.6 195.4 178.4 172.1 161.9 152.5 144.4 164.5 177.6 195.2 213.4 229.1 248.9 267.8 284.2 299.6 318.7 337.6 350.3 365 375.8 386 395.8 400.2 402 407.5 412.1 420.5 428.7 439.2 446.2 454.6 463.1 469.8 477.1 486.4 493.4 501.9 511.7 522 529.6 535.6 543.5 549.4 556.4 565.3 574.3 584.1 594.9 602.9 613.5 623.4 638.5 651.3 672.5 696.3 710.4 720.1 728.3 733.5 723.3 695.3 704.4 671.2 631.1 624.9 587.4 561.6 552.9 540.9 527.8 525.5 508.4 475.2 459.9 432.7 407 376.9 346 320.8 297.9 277.9 261.7 250 237 234.5 224.7 236.5 243.5 261.4 276.6 290.7 304 316.4 327 338.9 352.5 360.1 371.9 388.9 413.8 425.6 431.7 436.7 436.3 444.4 460.7 480.6 492.9 495.1 498.7 505.1 512.1 508.8 507.6 509.5 506.4 497.2 447.8 415.5 402.4 378.9 366.6 353.4 336.9 322.8 304.8 290.4 273.4 254.3 234.8 205.9 180.7 165.5 156.5 138.3 131.5 127.7 123.5 117.5 109.2 100.7 91.4 80.6 67.9 50 41.6 33.6 39.4 33.8 16.2 -1.4 -1.4
171.9 156.5 146 137.5 133.3 126.1 115.7 108.5 101.4 92.1 86.6 81.3 77.9 70 63 55.7 52.6 46.4 36.2 35.3 25.3 29.1 32.2 34.6 44.7 54.8 65.5 79.7 93.1 107.3 124 132.8 137.6 142.9 160 178.1 193.4 208.5 225.3 238.4 251.6 262.4 269.5 266.6 258.6 230 207.8 198.8 179.7 167.6 160.2 153.6 144 142.3 158.6 168.8 186.2 202.1 215.5 236.5 252.8 270 287.6 302.2 319.3 335.8 348.9 361.2 372.8 376.8 381.9 384.3 386.3 394 405.9 416.7 423.9 434.5 442.6 450.4 458.1 467.5 476.9 484.3 494.4 505 514.1 522.3 528.8 536.8 542.4 552.3 562.9 572.9 582.6 591.2 601.1 612.4 623.3 636.2 650.3 668 692.8 708 722.7 733.7 732.9 727 704.8 693.7 681 639.5 633.1 588.5 558.8 551.8 533.7 514 504.8 486.9 465.2 437.7 410.8 385.9 377.1 370.7 325.7 303.1 280.2 263.4 246.9 239.1 234.9 230 244.3 255.4 272.1 287.9 303.4 316.3 328.5 338.4 351 363 371.4 391.1 418.3 430.8 440.8 461.7 464 454.5 452.1 469.4 487.8 499.8 504.2 514.9 512.8 526.4 522.3 516.7 515.3 508.8 482.2 444 427.4 401.3 401.4 380.1 362.9 341 318.5 305.2 286.6 268.6 250.2 225.7 206.8 200.8 187.1 170.2 151 134 129.8 125.3 122.6 116.3 105.9 97.6 87.9 74.1 55.6 41.5 40.1 39.4 32.3 25 -1.4 -1.4
194.6 178.6 162.5 154 148 140 130 121.7 111.9 108.7 99.6 90.1 88 85.4 77.6 69.3 60.6 55.2 48.3 42.9 32.8 27.4 28.7 31.4 35 45.4 56.5 67.1 78.6 91 109.7 118.4 117 133.2 150.2 163.9 178.6 194.9 211 222.7 237.2 245 250.1 245.6 230.7 205.1 186.2 175.4 161.4 150.7 146.5 142.8 136 139.1 149.2 161.5 170.3 182.5 205.9 225.9 240.6 259.1 274.6 290.4 306.4 319.6 332.6 342.2 351.9 357.3 360.2 368 369.2 377.3 388.7 400.4 408.1 417.7 426.9 437.7 447.6 458.1 467.3 474.2 485.2 495.1 504.5 512.7 521.2 526.5 537.7 549.2 558 568.6 578.6 591.1 600.6 611.4 622.9 637.8 650.7 665.3 683.7 697.5 709.5 721.4 731.2 731.6 714.6 697.1 680.6 644.3 642 593.1 557 547 526.8 501.6 479.6 465.6 451.4 441.5 429.7 421.5 417 379.5 316.7 295.2 276.6 261.3 249.1 240.8 241.2 237.6 251.6 266.9 282.6 299.8 314.3 326.1 338.5 351.6 359 372.7 395.3 414.8 439.1 442.5 454.4 473.7 480.5 475.5 466.2 480.3 492.6 503 508.1 508.2 513.6 531.8 532.4 524.8 515.9 516.6 483 456.1 431.5 426.2 411.8 395 374.9 346.5 324.4 308.8 291.3 275.2 260.9 241.3 233.6 224.4 206.1 183.9 164.5 146 135 132.8 129.4 123.2 114.1 106.1 96.1 79.5 60.1 55.4 43.7 35.6 28.1 19.9 6.4 -1.4
211.3 200.7 180 172.1 163.8 155.6 147.2 136.6 126.2 122.4 112.9 103.6 95.2 91.3 83.3 81.2 77.4 69.3 53.6 45 37.5 34.7 27.9 28.4 30.6 37 50.6 54.6 62.8 78.9 93.4 99.7 112.8 123.1 134.1 146.9 163.7 181.4 196.3 209.3 223.5 230 230.6 223.1 205.8 186.5 166.8 153.4 143.6 136.4 133 129 127 131.6 141.5 143.2 146.2 162.8 188.9 210.6 229.7 246.5 260.8 276.8 289.2 302.8 313 322.3 330.3 337.4 342.5 347 353.8 363.9 372.4 382.4 392.5 402.1 411.8 424.2 434.9 446 455.7 465.9 475.4 486.4 495.3 504.2 511.1 522.7 533.7 543.2 554 565 576.6 587.1 597.9 608.7 622.4 634.2 647.3 665.1 679.7 691.2 705.2 716.6 726.4 728 719.6 705.7 680.8 649.2 626.5 585.8 571.5 558.6 536.1 522.4 481.7 465.3 460.1 458.4 445.8 439.6 425.5 347 311.4 295.8 277.4 265.3 251.5 245.6 240.1 245.7 258.1 276.4 294 310.1 324 340.4 354.9 364.9 374.7 392 413.8 426.5 446.9 451.4 456.9 480.7 491.9 492.8 479.1 492.9 505.3 496.3 498.2 500.2 513.6 522.6 534.2 533.1 528 512.3 491.1 459.9 455.1 438.6 432.7 427.7 399.3 367.1 350.2 337 324.8 301.1 284.9 256.1 258.8 246.4 220.8 194.8 172.1 157.6 141.7 143.2 136.9 127.9 120.7 115 103 81.7 67.1 64.4 54.2 32 27.2 18.2 -1.4 -1.4
226.7 210.7 196.7 191.1 182.9 172.7 164.2 153 143.6 136.4 124.7 114.1 108.3 100.1 100.2 95.4 86 79 67.5 56.2 46 36.9 31 27.7 28.9 38.2 48.5 53.2 58 70.1 79.5 87.3 100.9 109.7 117.6 133.5 153.1 171.1 181.2 193.5 205.5 211.3 210.6 201.8 185 168 153.3 133.3 126.5 121.2 120.2 120.4 114 129.2 128.4 141.7 158.1 170.5 172.1 204.9 215.7 233 249.2 262.1 270.8 286.1 296.5 307 313.2 318.3 324.2 325.9 340 348.2 359.4 369.5 380.3 388.6 401.3 412.8 423.6 432.7 444.8 456.1 467.8 477.7 486 493.2 505.9 516.9 528.9 538.3 550 561.2 570.5 580.5 592.1 606 615.9 629.7 646.3 660.2 677.1 691.3 704.1 717.3 727.1 732.3 728.1 717 684.2 666.3 637.5 608.4 563.9 549.8 533.6 509.9 487.4 481.9 472 464.9 452.4 443.8 412.1 331.6 310.8 292.5 278.6 266.3 254 251 241 253.5 263.5 283.4 303.6 319.7 337.7 351.6 364.1 376.4 394.1 418.4 432.6 449.5 455.5 461.1 475.5 473.1 488.9 499.4 481.4 485.5 509.9 496.7 497.1 498.3 513.9 519.8 528.6 537.6 539.4 521.7 508 501.1 497.4 475.2 465.2 451.3 416.3 389.2 374.6 355 333.7 315.2 295.7 278.2 276.7 263.4 237.8 208.2 180.1 164.8 150.5 152.1 146.3 129.9 124.7 117.2 101.4 86.7 75.4 67.2 55.9 42.5 25.8 10.6 -1.4 -1.4
243.7 227.5 213 209.9 203.1 193.5 181.8 175 163.8 151.6 142.9 129.6 118.1 110.8 103.9 103.6 98.9 95.8 82.2 68.7 54.6 44 38.4 30 25.3 34.2 44.8 51 60.5 65.3 66.1 75.7 87.2 93.7 110.7 124.8 141.6 159.4 167.7 178.3 186.3 189.9 187.7 182.5 165.3 154.7 138.1 125.2 113.1 111.2 110.5 106.9 121.7 137.3 145.8 158.8 172.1 186.4 200 207.2 212 218 237.8 246.1 256.4 266.6 279.2 287.7 293 296.2 299.5 313.5 323.3 333.7 351.1 362 373.7 381.7 390.3 401.5 411.6 423.4 434 445.8 458.4 468.4 477.7 487.5 499.9 510 520.9 531.4 544.3 555.3 565.1 574.5 588.7 603.2 616.3 628.7 644 658 675.8 690.8 705.5 719.1 733.3 743.6 744.9 738.4 725.4 693.1 668.6 620.4 575.7 538.4 529 517.1 508 498.8 479.5 465.8 456.2 443 383.3 334.3 314.9 291.8 278.5 267.7 260.1 251.3 250.2 260.3 275.1 294.7 310.9 328.2 349.8 362.6 373.7 391.1 420.9 443.2 451.8 459.7 469 483.6 494.5 490.8 488.8 487.4 482.4 484.5 496.5 497.3 497.6 500.8 508.6 516.9 525.4 534 533.2 521.6 530.9 531.8 514.9 501.7 492.2 470.7 425.2 404.3 392.6 369.6 352.7 326.9 309.9 304.5 295.6 278.4 253.9 213.4 190.7 169.6 156.9 154.7 146.2 133.1 122.5 110.6 96.6 88.1 79.4 63.5 55.9 45.1 29.9 9.7 -1.4 -1.4
265.5 250.4 232.5 227.9 220.7 210.4 202.5 195.3 182.2 169.4 159.1 148 132.5 120.8 112.3 109.6 110.4 103.6 94.6 78.5 69.6 55.7 42.9 33.3 27.1 32.1 41.2 49.6 58.2 59.3 58.9 68.2 77.9 85.2 106.5 115.6 129.6 145.3 156.9 162.3 167 165.2 163.5 155.4 145.5 136.5 124.3 110.5 103.4 96.4 109 120.2 129.4 140 151.8 167.8 181.1 198.7 209.8 222.4 229.6 245.6 248.2 257.1 266 272.5 280.8 290 298 303.1 310.6 316 317.3 325.2 341.8 355.7 365 372.4 385.5 393.9 405.6 417 427.5 439 448.6 459.7 470 480.5 493.1 504.3 514.8 525.1 536.9 548.6 560.9 571.2 587.4 599.9 616.3 628.7 644 660 675.2 692.5 707.2 724.1 740.7 754 759.1 759 753 703.9 674.4 640.7 581.5 540.2 532.8 527.6 522.3 516.5 486.1 465.3 463.2 432.9 373.4 332.8 314.2 295.1 282.9 273.3 264.2 252.5 260 270.3 287.4 304.4 324.9 340.5 360.1 371.4 391.6 415.2 440.4 458.4 467.7 476.5 487.8 504.9 513.8 511.1 500.3 500.5 495.2 494.5 503.7 502.5 503.8 508.3 513.8 523.2 530 537.2 537.6 526.3 541.5 542.6 531.5 508.4 506.4 477.6 431.4 422.1 409.7 385 360.1 348.3 332.9 330.1 317.1 276.4 259.1 228.1 202.4 182.5 165 157.4 148.8 134.2 121.4 105.6 100.5 89.3 77 66.6 51.6 40.7 28.1 4.4 -1.4 -1.4
286.1 270.8 247.1 247.3 239.6 229.1 215.4 214 201.8 187.6 175.8 163.5 149.2 133.4 118.8 113 114.4 113.6 105 93.1 86.8 70 48.8 39.4 31.1 28.6 39.1 46.6 49.4 50.2 55.9 62 73.3 81.8 101.4 113.9 117.5 129.2 139.2 145.5 147.8 147.6 144.9 135.6 124.4 114.1 105.6 94 91.4 109.9 116.4 121.2 132.7 146.9 161.1 175.5 191 200.7 214 227.6 243.7 253.4 260.8 270.7 278.4 281 292.7 299.5 309.4 312.5 322 329 337 343.5 337.5 342.7 351.8 370.3 379.8 391.1 398.4 409.7 420.4 431.5 442.6 454 464.7 475.1 486.3 496.4 506.8 516 530.6 543.7 559 569.7 584.4 598.2 610.5 626 643.4 660.1 675.4 692.3 711.5 726.5 745.6 759.4 767.5 773.7 767.3 709.2 670.6 647.5 607.4 550.7 546 542.3 530.9 511.1 487 470 463.1 422.5 357 335.3 314.3 298.2 285.4 275.2 265.1 260.2 270.6 284.1 299.9 317.1 336.9 353.5 370.2 387.6 410.5 444.7 454.3 470.6 485.2 496 511 529 534.3 525.7 516.5 514.4 514.2 504.8 505.3 512.6 518.7 525.4 534.7 539.9 536.8 533.2 530.4 530.4 545.9 557.2 557.3 554.6 540 486.6 440.5 435.6 422.1 395.4 365.5 353.2 351 341.1 312.3 291.5 247.6 230.3 208.8 188.2 168.9 160.6 148.9 137.3 125.3 121 106.9 91 75 64.2 44.1 34 19.4 1.4 -1.4 -1.4
302.3 283.8 266.3 262.2 257.5 248.1 235.5 231.3 222.6 206.6 192 179.5 164.4 149.7 131.9 117.3 113.7 114.9 108.3 104.9 101.5 85.5 60.4 44.6 36.7 24.1 36.6 40.7 41.9 44.5 50.9 57.9 66.1 77.4 91 103 111.8 110.7 121.2 127.3 128.9 128.8 122.5 110.8 105.2 100 77.2 87.7 98.1 108.2 117.1 126.9 139.5 152 165.5 179.7 195.6 208.7 225.7 238.6 249.2 256.8 265 274.7 285 289.9 300.9 311.8 315.6 320.8 327.2 336.9 344.2 351.7 357.7 360.7 361.4 359.6 367.3 380.2 390.9 402.8 414 425 435.8 446 456.3 467.4 477.5 488.2 500.3 512.5 526 538.9 553.9 567.6 581 594 606.8 621.7 640.7 661.2 678 697.1 711 726.7 745 759.8 769.5 778.7 767.5 699.8 664.6 642.6 583.4 562.8 559.7 557.6 534.8 500.5 485.5 464.6 437.1 387.4 355.8 332.2 314.2 298 287.3 272.3 261.4 271.3 280.5 295.3 314.9 339.2 354.6 367.9 386.2 414 433.2 458.2 476.3 478.7 492.8 507.4 522.3 539.7 545.6 550.3 531.8 536 522 510.8 513.1 510.8 527.9 532.1 543.1 560.6 559.2 554 537.3 534.8 548.1 554.7 558.1 559.8 551.4 481.3 449.7 430.4 413.3 387.7 371.2 371.5 355.9 334.9 307.9 284.9 253.5 231.7 210.9 190.7 176 166.5 152.5 138.9 143.3 133.2 113.2 95.3 78.4 63.7 41.9 23.2 17.8 1.5 -1.4 -1.4
314.2 289.3 281.1 276.7 270.9 263.7 252.8 250.5 240.5 224.4 209.2 198.6 183.3 164.4 148.5 126.2 118.9 108.7 108.4 114.3 114 97.9 66.2 47 35.7 24.6 34.1 34.8 39.4 44.5 51.2 57.5 64.7 74.8 81.7 90.8 98.4 104.4 106.9 111.5 106.1 104.6 104.3 95.8 93.1 79.9 82.3 93.3 96.3 108.2 120.7 132.5 145.5 158.2 171.2 185.9 203 221.3 234.1 245.6 254.8 263.3 270.7 280.1 289.7 296.7 315.7 323.6 323 335.5 337.9 347.7 357.6 363.3 367 371.2 373.7 371 371.9 383.8 395.8 405.8 413.1 421 430.4 440.4 450.7 461.9 471.5 483.8 495.1 507.2 520.6 534.1 548.3 562.7 578.2 591 604.3 616.2 638.9 661.9 680.6 696.1 709.1 724 741.8 758.7 770.8 778 749.7 695.3 657.8 636.4 588.6 576.6 572.6 559.2 530.5 494.3 464.9 432.4 399.2 379.5 344.9 325.2 306.8 295.8 283.6 273.7 272.7 277.3 290.4 307.3 334.4 358.3 369.9 382.1 406.5 429.7 455.4 474.7 484.4 489.6 505.7 516.2 530.3 547.9 554.2 558.7 549.7 537.1 526.3 518.5 514 507.4 513.6 521.9 539.8 562.4 562.3 564 547.5 547.3 567.5 565.6 560.4 548.9 521.2 485.8 465.5 432.9 410.6 391.7 382.1 377.9 370.8 358.2 309.9 290.3 258.2 239.6 217.2 197.1 180.7 170.8 156.8 158.4 155.9 139.6 113.6 95.4 79.9 64.8 46.6 23.1 10 -1.4 -1.4 -1.4
325.1 302.7 294.6 291.3 287.5 279 271.7 271.4 258.3 242.8 226.4 219.4 200.1 181.3 165.8 140.8 119.8 109.4 105.5 115.2 122.4 109 76.3 44.5 33.5 24.5 30.1 31.7 37.2 43 47.6 55.9 63.2 71.3 78.5 82.8 84 90.7 98.6 98.9 90 85.6 91.1 78.2 72.9 72 87.4 89.5 100.9 113.5 124.7 137.2 151.5 164.2 176 190.5 207.9 224.3 241.1 252 261.8 269.3 278.5 285 298.2 307.9 327.2 327.8 340.1 350 355.9 361.6 369.5 375.2 379.8 382 383.7 382.8 381.5 381.6 384.7 390.4 405.9 417.1 421.2 435.8 447.7 457.9 469.5 481.7 493 505 516.9 530.2 544 558.2 571.3 588.8 602 614.7 633.8 656.1 681.2 697.7 710.1 725 742.5 761.1 771.8 763.6 715.5 694.4 648.7 629.9 605.7 586 577.7 547.1 520.5 499.8 488.2 458.8 418.3 370.8 339.7 323.8 307.1 296.5 281.1 278.3 275.5 284.6 300.7 319.2 346.1 364 377.2 392.7 425.7 445.1 461.9 484 497.2 497.4 513.7 533.6 540.4 549.3 556 559.6 551.4 529.4 530.8 505.9 500.5 497.7 511.6 502.7 513.6 541.5 547.8 556.3 551.5 550.8 577.6 585.7 581.2 561.8 521.8 491.2 469.4 439.8 418.3 399.9 394.3 379.1 359.4 350.7 305.7 283.4 260.6 241 222.3 200.8 183.8 172.8 159.2 157.8 152.7 136.7 115.1 94.2 76.6 57.7 46.9 27.6 12.9 -1.4 -1.4 -1.4
339.6 315 311.2 309.2 303.1 292.1 286.5 286.4 273.9 259.3 247.8 236.4 221 197.1 176.6 152.3 127.5 112.2 99.8 104.1 118.4 110.5 71.5 46.7 33 22.7 27.6 30.6 35.4 40.3 45.5 51.2 61.3 67.5 73.8 78.4 78 78.4 81.1 83.2 74.4 61.6 61.1 67.9 76.7 81.2 82.5 96.1 109.4 116.6 128.9 142.6 155 168 180.3 196 210.9 231.3 247.9 259.3 269.4 278.7 287.1 297.5 307.5 317 333.9 340.8 351.2 357.9 364 375.7 380.7 387.1 394.6 394.7 393.7 392.8 391.9 393.6 395.7 400.9 407.4 415.6 421.1 433.2 440.7 455.6 469 481.3 492.9 504.3 514.7 528.1 541 554.5 569.5 582.1 598.8 615 630.9 651.1 669.3 689.1 712.1 726.2 739 758.8 768.5 731.1 703.6 672.7 641.5 621.3 610.3 605.2 582.5 569.2 539.5 525 502.6 463.2 416.8 374.5 345.7 327.7 310.5 298.3 286.6 282.7 283.1 291.8 309 329.7 353.1 369.6 383.3 403.9 430.3 453.7 467.7 479 500.2 507.3 519.1 542.9 547.3 550.1 553.5 553.7 543.1 512.6 496.5 491.9 485.8 476.8 491.9 493.1 488.7 514.9 524.6 542.4 540.4 540.8 584.4 597.5 589.4 572.9 538.6 509.6 478.1 456.4 434.5 415.6 399.2 377 365.7 346.4 304.2 277.4 259.4 239.1 222.4 201.2 186.1 182.3 171.5 162.4 151.9 135.7 115.2 95.7 74.2 51.7 43.4 26.9 11.7 -1.4 -1.4 -1.4
348.4 326.8 326.1 326.2 319.9 302.8 300.7 296.1 287.2 275.7 268.6 259.3 249.2 220.6 195 168.4 144.5 114 97.5 94.6 105.2 97.1 67.5 44.8 34.9 25.8 26.6 29.4 33.7 37.8 43.6 48.4 55.6 64 70 73.7 74.9 74 71.8 68.7 55.1 46.7 57.9 69.3 76.8 85.3 91.5 98.6 108.4 121.8 131.6 144 158.8 171.8 185.6 200.8 217 237.1 252.5 266 277.4 286.3 297.1 308.3 317.5 326.5 342.3 348.4 354 368.3 375.1 380.6 390.3 400 405.9 407.1 406.3 405.6 398.9 403.3 405.4 408.4 413.9 425.5 432.9 440.7 450.2 461.2 472 481.1 493.1 504.6 515.5 526.9 540.7 555.2 568.7 580.5 595.1 612.7 629.2 646.8 665.7 682.4 705.7 722.7 739.7 754.6 753.4 715.5 692.6 651.2 636.9 623.6 612 609 588.9 573.5 574.7 552.5 519.2 469.9 416.7 377.2 354.3 343.6 336.9 310.5 296.9 286.6 289.4 298.2 316.9 335.5 359.6 375.3 390.5 415.4 438.9 454.8 469.4 486.1 505.3 511.2 528.7 542.7 547.8 547.3 531.7 527.9 515.3 489.6 481.3 478.1 475.1 462.4 470.9 471.9 462 476.1 485.5 525.4 528.6 525.4 566.9 595.9 590 565.3 550.4 517.9 501.1 471.1 444.1 432.5 416.2 385.7 361.4 338.8 304.5 279.4 261.1 239 222.1 199 189.3 197.1 191.5 167.1 157.6 138.2 118.1 97.1 73.1 48.4 32 13.5 -1.4 -1.4 -1.4 -1.4
358.7 337.3 339.6 339 330.6 314.6 311.9 305.5 300.7 291.2 285.4 277.5 271.8 249.1 222.3 188.5 160.9 122.4 96.1 76.7 94 87.2 56.9 43.1 36.9 28.5 22.5 27.6 31.6 35.9 41.7 45.7 51.1 59.2 65.7 70.4 71.7 70.7 66.5 58.5 44.5 52.7 66.8 83.8 86.2 86.5 93.9 98 110.6 122.2 133.4 146.6 159.8 172.4 188 205 223.5 243.4 259.6 274.2 284.8 296.3 307.1 319.5 328.3 340.5 351.7 362.3 371.8 379.4 389.7 398.1 405.6 413 420.6 421.2 418 416.1 413.9 415.5 417.1 419.8 424.8 434.4 441.8 449.7 458.6 466.3 476.5 485.7 495.6 505.5 516.1 526.4 538.4 553.4 568.6 579.8 591.7 611.6 630.2 644.7 664.2 680.3 699.2 720.7 740.5 750.8 741.4 703.9 675.9 655.1 639 627.2 623.6 613.8 598.9 595.4 588.4 561 534.4 473.2 433.6 389.8 368.7 362.9 363.9 342.8 320.9 301.4 292.2 306.2 323.7 341.7 363.4 380.3 399.8 415.3 439.1 461.7 475.3 495.9 510.3 515.3 533.1 543.1 547.3 523.7 510.2 483.2 491.9 475.7 461.7 469.7 460.3 447.7 451.3 455.1 449.5 460 466.1 478.1 510.4 502.3 522.6 555.8 564.6 553 545 536.5 511.5 476.4 455.7 440.4 422.5 402.7 369.7 339.5 319.3 284.4 264.1 240.7 223.7 206.1 202.6 206.1 194.8 172.6 157.5 138.5 120.5 99.2 73.4 45.6 21.8 6.1 -1.4 -1.4 -1.4 -1.4
365.3 347.1 349.9 348.2 336.2 325.8 323.2 321.7 321.1 303.6 299.9 296.6 287.6 282.6 245.1 226.9 176.7 130.7 103.3 73 60.9 62.9 39.1 38.1 31.5 27.1 25.7 27 29.3 33 37.2 41.2 46.7 52.4 61.4 65.8 69.3 66.8 58.7 48.2 39.8 58.9 67.2 78.4 84.6 88.8 93.7 101.4 111.7 121.5 134.6 148.6 158.7 174 192.3 211.6 229.3 247.3 265.6 281.9 293.4 306.1 319.6 328.8 339.8 351.7 363.6 374.9 392.1 394.3 400.6 410.8 419 426.6 434.1 435.6 431.5 427.3 425.3 427.6 430.6 435.8 440.1 445.7 452 460.2 468.9 476.2 483.9 493 501.5 510.1 517.9 527.4 539.4 557.4 571.6 580.6 595.3 606.1 630.1 649.8 663.1 679 694.9 710.7 723.6 742.3 737.5 702 686.3 667.7 662.8 635.4 633.9 629.5 621.2 623.5 597.8 566.3 541.9 479.6 449.9 405.8 389.2 381.4 376.9 364.2 340.4 313.5 306.5 309.4 329.9 347.3 366.4 382.1 400.4 414.6 433.7 454.6 480.1 497.1 506.7 515.6 535 540.8 539.9 507.8 469.8 468.5 476.9 468.4 448.3 444.6 439.6 440.5 444.2 442.4 434.8 435.2 444.6 448.4 465.8 472.6 485.6 511.1 528.5 538.5 552.1 536.7 508.2 474.3 460.7 444.9 422.2 405.3 379.7 356.2 315.8 294.1 266.4 245.7 226.8 213.2 201.3 209 194.5 176.7 158 134.9 112.2 95.7 74.2 47.5 22.9 8.3 0.8 -1.4 -1.4 -1.4
361.3 354.5 357.3 355.7 347.2 337.6 332.6 334 327.1 315.5 312.5 310.9 304 295.8 264.1 247 189.6 137.8 110.7 80.9 55 42.9 37.3 33.2 27.6 25.8 25 25.2 27.8 30.1 32.9 36.7 43.1 50 57.1 62.3 63.8 60.4 53.6 40.1 53.6 58.1 65.3 71.4 82.2 87.4 93.6 102.8 113.3 126.3 136.7 149.5 159.4 178.5 198.7 217 236.1 253.4 272.1 290.2 309 320.7 333.2 343.5 353.7 366.4 376.9 391.7 402.1 408.4 417.4 426.9 431.1 439.2 447 449.6 444.7 438 437.8 441 444.7 450.3 454.2 456.1 463.6 473.2 481.1 487.5 493.7 501.9 507 512 521.5 532.7 541.4 555 568.8 590 602.1 611.5 629.5 644.4 660.7 678.8 694.7 709.1 719.9 730.7 733.7 711.1 692.5 684.9 670.9 653.9 645.4 640 641.2 645.1 615.5 564.2 542.8 481.3 446.9 422.2 403.7 398.9 386.7 370.9 352.6 321.7 317.1 323.5 337.9 354 370.3 382.5 399.1 411.2 423.1 437.2 464.4 494.6 501.1 507.3 530 515.5 512.9 484.9 467.1 457.3 462.9 452.9 446 436.9 435.9 433.9 439.4 439 428.9 421.3 426.8 432.7 438.4 451.9 456.4 476.2 501.6 524.7 546.8 527.5 492.7 481.1 463.6 441 429.6 399.1 380.4 349.7 325.1 291.3 269.6 251 236 221 210.3 208.9 194.1 175.3 165.5 134.6 108 91.7 73.7 58.7 38.7 11.4 3.8 -1.4 -1.4 -1.4
359.1 360.9 362.8 363.9 353.1 345.2 342.2 342.4 332.1 325.9 323.7 322.4 316.8 302.8 279.8 258.4 193.7 142.8 114.5 85.5 57.8 41.1 34.1 30.5 27.4 26 25.2 23.2 25.8 27.7 29.4 32.1 38.6 45.5 51.1 53.6 55.2 52.5 44.3 38.2 48.5 55.1 61 72.1 81.4 89 93.7 104.2 114.5 127.9 139.5 151.4 163.7 181 200.5 222.5 241.8 261.1 279 304.2 319 330.5 348.4 355.3 368.9 382.2 391.1 403.3 416.7 426 432 441.7 444 452 459.5 463.7 460.1 449.2 449.7 453.5 457 462.5 466.2 469.2 475.6 485 491.1 495.8 503.3 510.2 515.2 521.9 524.7 533.4 543.6 558 572.4 600.1 612.3 620.2 638.8 651.3 663.2 680.4 700.6 713.3 722.4 731.8 738.3 725.8 703.3 690.6 684.3 675.9 663.7 655.7 657.5 651.7 606.8 560.6 523.6 482.3 458.8 429.1 411.6 404.9 389.8 378.6 353.6 329.5 325.1 334.7 351.4 366.9 376.1 384.8 400.1 410.7 414.3 411.9 435.6 448.3 465.6 468.3 475.4 479.7 478.6 484 455.9 448.8 450.2 444.7 439.3 431.9 430.9 424.9 426 419 410.7 397.2 410.8 419 420.3 429.5 436.4 455.3 474.3 506 519.6 516.3 484.2 482.6 465.8 439.7 428.7 398.2 377.8 342.7 314.8 289 273.9 259.2 244.9 227.6 211.6 206.4 192 172.2 167.2 140.1 109.8 88.4 66.4 53.1 38 17.4 7.8 -1.4 -1.4 -1.4
361.8 364.9 366.4 361 358.1 345 344.8 350.8 335.7 334.8 331.4 326.4 320.2 296.6 288.4 249.2 181.5 142.3 114.1 90.4 62.2 40.8 32.8 29.3 27.1 26.3 25.1 23.7 24.8 26.4 28.3 29 33.1 40.4 46.4 46.5 47.2 46.5 39.7 32.5 46.9 50.6 59.7 73.2 82.4 88.2 92.6 102.1 114.7 125.1 137.3 150.5 165.7 181.4 198.3 219 242.2 268 283.5 305.1 328.2 336.5 350.7 368.8 381.1 398.5 407.2 419.2 439.5 446.5 449.7 456 460.7 469.8 474.6 476.2 473 459.3 461.6 464.3 468 473.2 478.6 479.8 485.3 492.6 500.8 506.5 514.4 520.6 526.1 531.9 534.2 540.2 547.4 557.6 576.8 595.4 615.6 627.6 634.8 652.1 667 685.9 700.6 716 727 742 744.7 743.9 714.7 703.2 699.5 698.1 679.6 683.1 670.6 641.2 584.4 554.1 517.8 498.6 456.8 433.1 415.4 411.6 401.7 387.3 354.8 339.1 324.9 345.6 361.4 377.3 388.7 390.5 401.9 408.1 407.6 407.2 416 430.4 443.5 456.4 465.7 467.8 471.4 463.9 455.9 443 439.2 434.4 433.8 434.2 413 405.2 404.6 412.5 386.9 377.7 403.5 415.1 407.8 413.4 420.4 438.8 456.9 487.6 494.5 487.4 480.5 468.9 446.2 434.2 408.2 382.1 357.7 337.2 314.3 297.9 284.6 268.5 252.3 234 211.8 202.8 188.3 170.3 170.9 142.6 113.2 87 62.7 45 35 15.9 11.1 5.2 -1.4 -1.4
366.5 368.5 363.5 363.1 361.4 342.9 344.9 346.9 337.5 337.2 332.8 323.1 305.3 292.8 282.3 220.8 166.5 141.1 122.5 94.2 66.8 40.9 31.8 27.9 26.5 26.4 24.6 24.2 23.6 22.8 22 27 28.5 34.9 39.9 41.4 43 41.3 35.1 31.3 39.5 48.5 53.7 69.6 81.7 85.5 88.9 99.6 111.8 124.2 135.5 149.8 164.6 180.8 196.7 216.8 241.4 268.2 282.6 302.4 323.5 342.7 359.4 375.9 393.7 410.8 417.5 430.5 458.4 467.3 469.8 468.9 470.1 477.7 484.4 488 490.1 470.1 472.1 472 477.2 484.6 489.1 491.5 497 500.8 508.9 517.3 524.3 530.8 536.3 541.3 541.8 544.1 552.6 560.4 579 604 619.1 627.7 635.1 646.6 661.4 679.5 700.9 722.2 734.7 744.9 751.6 756.4 737.4 728 721.2 715.2 719 693.7 653.4 614.8 573.7 544.5 514.6 488.9 458.2 435.5 422.8 415.6 408.1 384.1 355.4 344.4 339.8 355.6 372.7 387 402 392 394 402.4 400.4 402.1 413.1 428.9 433.1 449.6 460.9 466.5 461.2 462 456.2 434.2 430.9 430.6 432.7 424.2 397.4 382.2 387.3 384.7 364.4 357.7 370.3 376.5 379.4 391 399.2 414.4 433.5 448.1 469.9 466.8 472 466 435.2 414.4 394.4 373.9 362.5 351.3 323.5 306.7 294.7 274.8 256.5 234.7 211.1 199.9 184.6 165.2 165.1 143.1 113.5 87 66.5 44.5 31 18.5 13.5 1.5 -1.4 -1.4
363.8 364.8 356.1 362.2 358 341.9 340.7 339.5 337.4 333.2 327.2 315.1 295.9 283.6 236.4 199 166 139.5 115.5 88.7 62.5 44 32.7 27.5 25.8 24.8 23.3 21.7 22.5 23.9 23.9 23.4 24.6 29 32.3 35.7 36.8 32.2 30.7 30.4 34.4 46.6 56.1 72 78.4 79.2 84.2 98.4 109.9 122.2 134.2 148.7 164.3 179.7 194.5 212.2 236.6 265.1 284.3 310.2 324.2 336.8 356.2 375.7 395.9 405.7 422.8 440.5 451.7 477.9 473.5 471.2 473.2 480.2 487.8 499.3 496.7 477 480.5 482.8 488.2 500.8 502.6 505.5 506.9 514.5 520.9 530.7 532.1 541.1 549.6 558.3 546.8 548.9 554.6 565.7 582.3 600 618.4 628.8 635.4 647.2 660.3 671.7 698.5 716.8 741.8 751.6 756.2 763.8 758.7 749.4 734.8 738.9 743.6 693.4 653.3 598.3 569.9 537.4 506.8 483.7 463.3 444 432.3 417.2 403.4 380.4 358.8 341.5 351.5 365.8 380.5 395 415.6 406.7 398 398 398 398 405.9 412.4 423.5 438.9 456.8 463.1 454.8 454.7 451.8 429.3 426.7 428.6 423.4 414.1 380.7 365.1 354.6 353.8 341.1 333.2 340.3 351.2 356.4 358.7 383.8 393.8 419.6 430.1 437.5 440 443.6 438.7 426.5 410.4 397.6 391.7 380.5 356.6 332.9 316.8 306.6 282.8 258.2 234.7 204 197.8 180.3 160.5 152.4 137.2 107.4 82.7 69 44.1 31.1 23.6 12.1 -1.4 -1.4 -1.4
362.5 357.2 354.5 356.6 344.6 335.3 330.3 333.5 331.2 327.7 321.4 305.7 293.7 277.1 230.7 194.9 164.2 139 115.4 87.4 59.8 43.1 30.6 26.5 25.3 24.2 23.4 23.4 24.5 23.8 23.8 24 23.3 25.6 26.8 27.1 28.6 27.9 28.2 28.6 29.8 40.5 49.5 64.2 69.5 68.3 82.1 97.1 108.8 120.7 133.8 147.1 159 176.6 190.4 206.5 232.6 258.3 283.1 306.5 322.2 333.2 358.9 378.7 391.1 405.6 419.7 440.9 455.7 470.2 471.2 472.5 479 482.7 498 506.9 492.3 484.4 491.3 492.4 499.5 515.4 513.8 515.1 515.2 520.7 531.4 539.6 543.9 557.7 563.6 560.6 552.5 553.2 554.8 568.7 593.5 602.1 597 599.2 615.5 635.1 668.8 679.1 688.2 700.5 724.3 739.4 743.6 754.6 763.5 755.4 746.6 751.6 751.4 707.9 664 600.8 570 538.3 510.8 490 471.8 453.2 437.9 422 402.4 379.9 360.8 345.8 358.2 371.5 386 398.3 406.6 406.7 398 398 398 398 398.1 405.7 416.7 429.2 449.6 458.1 449 441 433.1 426.1 421.6 427.7 410.2 400 367.3 349.3 337.4 335.6 321.5 317.6 317.1 324.8 331.1 336.2 351.8 366.3 379.3 398.1 414.2 424.3 436.2 424.6 423.4 423 417.7 405 398.4 372.7 344.1 324.9 316.3 293.1 254.7 228.9 197.6 195 175.2 151.1 138.5 125.3 97.7 75.9 60.6 38.5 32.9 22.8 10.1 -1.4 -1.4 -1.4
358.6 351.9 351.4 352.5 342.1 334.8 326.1 330.9 326.6 323.3 317.5 303 295 267.5 219.1 189 161.2 137 111.6 84.4 60 43.8 27.6 26.7 24.6 23.2 22 22.4 23.9 23.9 23.6 23.5 23.2 21.7 23.1 25 25.2 26.6 27.8 29.8 25.7 36.8 44.8 53.7 60.2 64.4 76.3 88.3 102 116.3 132.2 147.5 157.9 173.3 188.7 204.3 230.6 251.8 274.5 292.3 302.6 319.5 352.3 373.5 386.7 407.4 427.2 443.4 450.9 458.5 468.1 478.2 483.4 489.1 500.4 507.7 500.2 491.1 499 501.7 512.1 522.6 524 524.6 527.5 534.2 544.4 550.1 556.7 566.8 581.5 569 556.8 555.7 558.2 563.5 570.8 581.4 578.7 591.9 608.7 628.1 662 678.1 685.8 694.7 700.5 710.5 720.6 748 752.9 745.6 751.4 760.6 740.8 703.6 666.2 604 556.1 538.4 506.3 494.8 478.9 462.4 445.9 426 407.6 386.9 366.5 364.4 368 376.8 387.1 396.6 402.2 400.5 398.2 398 398 398 398 398 403.7 415.3 431.7 454.8 447.3 420.9 412 407.7 408.8 409.9 383.6 369.1 352.7 335.8 330.1 315.2 309.7 304.7 300 298.9 303.2 318.2 330.2 345.5 357.4 379.4 393 412.8 420.9 410.7 407.3 413.7 419.4 403.3 379.1 373.5 338.7 318.8 298.4 272 249.6 221 191.9 191.5 174.7 148.6 124.6 114.9 91.4 70.5 51.8 37.5 30.2 12.4 10.1 -1.4 -1.4 -1.4
350.4 345.7 344.8 340.2 330 327.2 318.1 320.8 317.2 315.9 311.9 300.3 290.6 247.3 212.9 185.5 155.2 132.6 103.2 80.1 60.4 43.5 30.2 26 25.1 23 21.4 24.2 23.9 23.7 23.4 23.6 23.8 24 23.4 24.3 24.8 25.2 25.1 25.8 28.8 32.8 46 42 51.1 61.5 70.6 82.5 97.1 111.4 133 144.5 160.3 174.5 187.7 201.6 223.2 244.8 263.3 276.3 295 315.8 332.1 348.2 365.5 387.3 414.4 433.5 441 458.3 473 484.7 493.6 497.2 499.3 502.8 501.5 497.7 506.6 510.5 518.9 528 533.3 538 543.5 553.6 558.5 561.8 570.6 580.6 582.9 565.7 556.7 557.4 562.1 564.6 564.2 565.2 576.3 590.3 612.8 630.7 656.8 666.6 675 685.5 684.9 701 711.7 727 736.6 741.3 755.9 757.9 719.7 694.8 673.8 589.3 550.9 533.8 507.6 497 483.5 467.4 451.6 433 416.2 393.5 381.7 388.1 383.6 390 391.2 395.8 400.9 400.7 398 398 398 398 398 398 398 408.1 409.7 416.2 419.9 414.6 411.1 397 391.4 381.3 372.4 357.6 346.3 336.6 316.3 304.5 296.4 290.3 285.5 277.5 282.7 296.1 313.6 329.4 330 342.3 361.3 391.3 416.3 401.1 386.8 396.6 394.7 386.4 370.4 358.6 334.5 314.3 301.1 263.2 238 210.4 185.1 189.1 165.2 141 114.9 102.7 80.6 61.7 40.6 40.1 22.5 8.8 1.3 -1.4 -1.4 -1.4
341 333.5 331.5 322.4 315.8 313.2 308.4 309.8 307.4 304.1 293.7 293.7 284.8 236 208 180.6 146.4 118.2 89 73.7 59.2 39.6 28 25.4 25.5 25.2 26.1 24.6 24 23.7 23.4 23.5 23.8 24.1 23.6 23.6 23.9 24.4 23.9 25 25 27.9 38.8 41 39.3 52.3 60.6 70 88.7 108.4 127.9 147.8 160.7 172.5 187 200.3 217.4 236.5 253.7 271.3 285.3 307.1 319.4 336.6 353.5 375.3 396.1 416.6 436.3 456.3 473.8 489.9 504.7 507.6 500.5 509.3 503 511.6 515.8 523.2 532.1 547.7 556.5 557.9 561.6 568.4 571.3 574.9 578.8 584.3 579.9 565 559.2 559.7 559.4 560.9 559.5 566.9 575.7 590 605.2 621.3 636.1 645.1 646.7 667.2 684.1 693.6 702.3 713.2 715.5 734.8 746.4 728.9 699.5 681 642.6 581.3 550.8 529.3 510.1 498.2 487.2 475 461.5 441.7 423.6 399.7 405.9 399.8 403.7 405.4 401.6 397.5 397.3 398 398 398 398 398 398 398 398 398 398.7 401.7 405.1 407.5 402.4 394.2 385.9 376.1 366.5 349.6 333.2 323.1 303.6 291.5 280.8 266.9 262.8 255.3 259.5 270.6 286.5 302.3 304.2 310.1 345.9 376 383.8 384.2 364.9 367.9 387.9 386.6 376.9 355.7 324.9 300.8 288.9 258.3 224.5 195.3 180.3 173.2 147.1 127.6 105.4 94.3 65.4 50.6 36.2 34 17.6 8.8 -1.4 -1.4 -1.4 -1.4
327 321 314.2 305.8 302.1 299.4 294.8 289.8 287.8 286.7 283.6 282.7 259 223 195.7 165.4 135.6 105.9 80.9 65 49.1 34.4 25.4 28.2 25.7 25.3 25.5 25 24.4 23.9 23.3 23.3 23.4 23.6 23.8 23.5 23.5 23.1 24.1 24.1 24.1 24.1 27.8 34.7 35.4 38.7 49.9 58.5 82.4 106 124 145.3 158.7 173.9 181.5 195.1 210.8 233.8 249.9 267.2 288.2 315.9 327.5 341.3 355.7 369.6 391 409.9 432.3 452.4 472.9 491.7 505.7 510.7 504.2 515.5 509.6 516.6 528.7 536.2 556.7 568.8 575 580.3 582.5 589.4 599.4 605.1 602.8 585.3 571.4 561.8 560.4 564.1 559.2 558.8 558.4 563 575.3 589.2 595.4 607.8 615.4 624 633.9 642.6 664.3 689.9 694.5 691.9 703 711.6 704.8 696.5 686.9 645.9 610.8 583.2 549.6 529.7 509.3 496.6 489.8 481.9 467.9 453.6 442.4 428.3 426.4 425.6 418.9 419.3 412.2 405.3 398.7 398.3 398 398 398 398 398 398 398 398 398 401 402.1 402 398.3 394.3 392.6 385.4 375.4 351.5 334.2 309.4 298.1 286.8 270.3 256.9 246 234.7 236.1 244.8 263.5 277.6 275.8 285.1 312.7 340 348.8 357.4 343.7 342.6 354.6 368.8 363.3 342.1 302.9 279.2 269.3 238.7 212.2 186.6 174.5 162 134 115.3 93.3 81.7 61.9 52.7 33.9 35.1 21.5 4.6 -1.4 -1.4 -1.4 -1.4
312.2 308.1 298.2 290.9 290.6 288.8 280.6 275.3 273.1 274.6 274.3 263.7 237.4 206.7 177.5 150 122.1 92.2 70.3 54.7 40.1 27.9 26.5 26.7 26.5 25.9 26 25.5 24.9 24.3 24.6 23.2 23.3 23.4 23.8 21 21.7 22.9 23.5 23.5 23.5 23.5 24.8 30.6 33.4 37.5 40.4 51.1 76.2 100.6 121.5 134.3 151.5 166.2 179.3 192.8 206.1 228.4 240.3 260.9 285.1 315.7 335 344 360.4 374 388.1 405.8 425.1 449.9 477.3 496.2 506.8 509.1 508.1 508.4 514.7 520.2 529.6 555.1 571.8 583.6 593.4 597.2 595.5 605.8 619.9 632.2 625.1 601.1 576.3 560 557.7 562.1 559.9 562.6 559.8 566.3 574.6 581.7 590.8 597 605.3 613.7 624.1 626.7 639.7 650 662.6 673.6 682.1 695.6 681 677.1 668.6 641.1 599.7 578.7 561.5 536.7 513.8 502 494.7 483.6 475.3 464.1 447.8 451 445.2 445.9 443.4 438.6 428.9 416.5 405.4 403.2 402.5 398 398 398 398 398 398 398 397.1 400.8 402 402 400.4 398.6 396.8 393.7 383.8 363.8 338.6 319 301 277.8 261.5 246.5 236.2 224.7 222.1 224.1 233 245.7 250.7 259.1 281.3 307.6 321.7 329.8 321.7 318.8 331 335.6 334.7 325.2 297.2 271.7 250.4 231.2 200.1 177.1 166.5 152 127.7 103.1 80.5 67.4 60 48.6 32.3 32.8 23.9 5.4 -1.4 -1.4 -1.4 -1.4
299.3 293.6 286.7 280.3 279.8 278 266.1 262.9 256.4 256.5 257.2 244.5 222.9 194 168.7 136.3 108.3 79.1 57.1 43.5 31.3 28 27.1 27.6 27.7 26.7 26.6 26 25.4 25.1 25 23.7 23 23.2 23.1 22.8 23.6 23.3 22.9 22.9 22.9 23.5 24.5 34.8 39.6 37.6 34.8 40.4 58.6 81.9 102.7 128 143.2 157.8 177.6 187.7 193.6 211.8 231.6 255.6 273.8 307.4 326.2 344.6 356.2 373.9 389.2 395.9 425.8 448.3 472.9 487.9 485.1 489.4 498.5 507.6 516.9 523.6 536.8 561.9 575.9 587.2 599.3 606.5 611.8 620.3 632 641.2 625.1 605.6 580 555.5 560.4 559.3 549.9 555.7 560.2 568 573.4 581.9 589.3 592.7 598.2 607.9 613.7 620.7 629.7 636.3 646.4 654.6 664.2 665.4 662.9 654.7 645.6 619.3 595 581.4 562.9 537.3 522.7 515.5 499.2 488.8 483 477.4 471.5 468.8 470.5 462.3 461.6 456.6 447.8 436.1 431.7 414.6 409.9 408.8 405.6 398 398 398 398 398 399.2 401.1 402.5 407.2 402.6 399.8 399.7 394.5 393 372.3 350 327.3 300.8 280.4 257.2 242.5 231.8 218.1 216.5 216.6 218.1 218.7 228.2 237.4 250 278.4 291.2 300 298.5 298 312.2 326.4 318.6 312.5 291.2 269.3 247.5 224.5 190.1 165.4 152.2 140.6 117 91 74.4 63.6 58.6 42.5 28.9 28.7 20.2 7.3 -1.4 -1.4 -1.4 -1.4
292.1 284.9 276.5 268.7 268.8 264.3 251 245.1 240.8 241.7 237.5 225.8 204.6 176.8 150.1 122.2 91.7 67.3 48.5 36.4 30.2 28.5 26.1 29 29.6 28.4 29 28.9 29.4 26.6 25.3 24.7 22.9 22.9 22.6 23.1 22.9 22.6 21.3 21 22.5 22.7 24.3 39.8 44.7 45.9 34 35.1 48 72.4 89.7 107.5 124.4 139.6 153 165.2 184.6 203.9 226.3 243.1 265.8 285.3 305.7 325.4 336.5 362.1 366.1 376.3 414.9 445.2 460.4 472.2 471.3 479.3 496.7 506.2 517.3 529.3 544.6 563.9 578.2 590.9 605.2 611 619 632.4 641.7 642 627.6 597.6 570 549.4 545.4 545.9 548.5 550.9 553.8 560.6 565 573.3 581.5 586 595.4 601.7 607.7 617.9 625.4 630.3 636.9 644.7 647.9 646.2 636.7 626.3 618.9 608.8 597.2 585.5 567.4 543.2 538.6 532.9 507.9 498.5 491.8 488.2 486.3 488 484.5 485.6 482.7 472.2 466.3 458.9 450.3 428.6 416.9 412.6 407.6 397.6 398 398 398 397.5 401 400.5 400.7 402.3 401.1 399 398.6 400.7 397.6 371.4 357 325.1 300.8 282.8 258.2 240.1 228.1 215.2 208.7 208.2 209.3 209.6 214.9 223.6 230.7 242.4 258.2 274.4 276.4 280.2 291.3 309.2 298 293.8 281.9 268.2 237 212.2 178.9 157.2 145.1 131.9 112.1 83.4 71.6 60.3 51 28.3 23.7 21.6 11.1 -1.4 -1.4 -1.4 -1.4 -1.4
280.8 269 264.7 253.8 244.8 243.6 239.1 227.1 223.2 222.6 217.1 201.6 183.3 157.5 133.1 112.7 81.1 56.8 41.9 34.3 30.6 29.1 28.5 29.9 33.4 35.6 36 35.1 35.1 29.6 27.2 25.9 25.3 22.6 22.9 23.2 23.4 22.8 22.7 22.6 23.2 21.1 23.8 38.2 44.3 41.8 30.3 31.7 39.7 58.5 81.1 96 108.4 123.5 135.6 154.6 172.2 194.4 219.1 241.8 256.4 269.7 293.6 306.6 319.3 329 343.2 366.7 391.8 409.1 419.6 428.2 446.2 472.3 488.3 500.1 515.7 524.7 546.9 566.1 576.4 588.3 603.6 611.9 624.3 639.4 642.1 635.1 612.5 578 550.5 540 537.5 534.9 540 544.8 545.8 551.7 555.6 561.1 571.5 579.9 586.6 594.4 602.5 610.6 617.7 622.7 629.4 646.6 639.9 634.8 620.3 611.1 607.9 604.9 600.7 588.3 568.4 554.2 543.7 532.9 514.9 507.7 503.5 498.9 504.5 507.2 505 503.6 501.1 489.6 486.5 476.7 458.9 442 437.9 416.7 411.2 404 398.9 398.6 398 398.4 402.5 401.4 399.1 398.3 398.4 397.2 396.4 396.6 391.6 372.4 355.9 333 306.1 286.8 262.9 238.4 224.9 213 200.7 199.5 199.7 199.9 203.5 211.1 217.5 222.3 227.2 245.4 256.6 264.2 273.2 279.6 271.5 264.9 268.1 240 210.4 192.2 163.8 146.7 133.3 122.2 92.8 71.5 66.8 49.1 32.4 20.3 17.2 12.7 5.1 -1.4 -1.4 -1.4 -1.4 -1.4
264.7 252.6 241.4 234.8 224.4 219.6 211.1 206.6 205.1 202 195.5 181.6 162.3 141.3 119 95.8 66.4 50.3 38.9 34.8 28 27.7 29.6 33.2 37.2 37.7 41.5 43.1 42.1 38.1 33.5 30.9 28.9 25.8 22.9 23.1 23.1 22.6 22.6 22.6 22.6 24.8 23.6 34.2 40.4 33.8 25.5 28.1 33.5 47.2 67.9 86.4 97.9 109.8 127.5 141.3 161 183.6 204 232.2 253.6 265.2 277.8 287.4 298.8 310.4 323.7 346.2 369.4 390.1 397.1 411.1 436.2 457.5 475.9 493 505.7 525.9 546 565.7 576.2 588.5 600.7 616.8 630.1 640.5 646.2 620.1 596.1 547.8 536.9 526.4 525 527.9 531.8 531.7 541.4 535.4 543.5 550 559.7 571.2 576.7 585.3 592 598.2 605.2 611.7 616.5 618 619.1 611.6 604.1 599.6 596.9 595.6 591.1 582.8 572 564.1 550.4 539 525.3 520.7 514.1 513.9 520.2 520 521.5 521.3 523.3 508.1 498 488 472.9 459.9 441.2 424.3 418.8 415.8 404.7 402.5 400 398.7 406.4 402.8 398.5 397.3 396.9 394.7 391.6 394.7 388.8 378.9 372.8 341.5 305.7 294 265.5 240.5 222.7 207.9 196.4 190.8 190.8 190.1 193.3 198.1 203 208.3 212.4 219.8 227.4 242.7 255.1 261.5 257.9 239.2 233.6 211.3 190.7 169.8 151 137.1 126.9 109.4 83.6 68.1 52.5 36.1 24.3 15.5 13.1 11.6 5.1 -1.4 -1.4 -1.4 -1.4 -1.4
250.6 237.5 224.9 218.2 205.6 196.9 193.1 190.1 184.5 181.2 178.2 167.2 146 126.3 108 80.6 61.6 44.3 38.5 29.5 30.5 33.8 34.5 37.1 41.2 45.1 51.5 53.1 53.5 54.7 49.2 42.4 37.5 34.4 29.5 23.9 23.1 22.7 22.5 22.5 23.1 23.5 23.2 23.4 26.3 23 24.7 24.7 28.8 36.3 53.3 69.9 85.4 95.3 111.7 130.6 152 175.2 192.5 208.9 228.5 244.6 256.9 271.8 281 292.8 308.7 325 341.4 358.7 382.7 404.2 427.2 446.2 459.7 478.4 508.7 529.5 542.8 565.1 570.3 584.2 597.2 616 630.9 642.1 627.5 608 561.7 542.1 519.7 519.3 513.9 519.2 517 514.6 524.1 526.5 533.1 540.2 548 556.1 565 572.3 579 588.2 594.1 596.2 597.8 600 597.6 592 589.7 587.4 585 585.1 580.9 574.9 571.3 563.8 557.5 547.9 534.8 526 522.8 529.5 533 535.8 536.1 539.1 540.6 533.5 517.5 494 484 469.6 447.3 438.1 428.1 415.5 412.3 414 417.7 404.7 404.7 409.4 406.5 396.3 394.5 392.5 388.1 378.3 378.3 381.3 367.2 337.5 311.5 294.9 267.9 240.8 222 206.6 193.5 188.4 183.9 183.5 184.5 187.4 192 196.8 202.1 203.6 206.7 210.7 220.5 233.3 234.3 215.8 206.6 191.1 177.4 154 139.2 130 121.6 105.8 79.4 67.4 44.5 28.9 26.5 13.1 9.4 9.7 9.1 -1.4 -1.4 -1.4 -1.4 -1.4
235.2 221.9 211.7 198.8 189.4 180.1 177.5 175 168 164.9 161 149.1 132.3 117.4 93.9 71.8 54.5 42.1 39.5 29.9 33.3 38.8 40.2 41.2 48.9 55.1 59.4 63.7 64.8 65.4 62.7 57.6 51.8 43.8 40.9 33.6 25.6 23.6 22.7 22.4 22.7 22.9 21.1 22.8 22.8 22.2 22.2 22.4 25.7 28.8 38.9 53 68.3 85.3 100.5 123.4 140.8 166.2 186.6 196.8 216.6 234.4 253 258 260 269.7 285.4 306.3 319.2 347.2 373.9 392.4 413 424.4 451.3 469.5 495.6 517.2 533.2 555.1 571.6 589.3 604.5 624.6 637 631 608.3 585.7 546.7 530.1 508.9 511.9 508 507.6 502.1 502.3 509.3 514 521.7 525.6 530.8 543.4 549.4 556.6 565.3 575 580.2 581.3 584.8 581.3 579.6 576.9 578.8 576.8 572 567.7 569.5 567.8 566.6 564.1 558 551 543.9 534.8 534 536.9 540.4 544.1 550.9 554.1 552.2 548.6 541.3 523.1 497 476.8 462.3 456.2 453.8 421.1 420.8 422.7 422 414.2 409.8 406.2 402.2 399.1 393.7 390.1 391.6 377.9 369.5 380 354.1 342 319.2 291.4 265.3 240.7 222.6 206.6 192.1 185.5 181.8 178.5 180.2 183.1 184.2 183.7 186.5 186.8 187.9 193.6 194.8 199.9 196.1 191 182.4 174 162.8 144.7 129.4 122.1 112.9 99.6 81.6 59.3 38.3 28.1 23.7 10.6 10.9 5.1 3.1 -1.4 -1.4 -1.4 -1.4 -1.4
215.9 207.5 195.9 184 176.8 166.4 159.8 159.1 155.1 147.3 142.6 131.6 122.7 105.5 83.8 66.6 54.5 43.5 36.6 34 40.7 43.6 46.1 49.2 59.2 63.7 68.4 77.2 81.3 86.6 80.9 73.5 72.1 68.6 61.5 49.8 38.1 27.6 25.5 23.3 22.4 22.5 22.9 21.1 22.5 22.2 22.1 22.1 22.9 25.4 27.1 42.6 56.6 65.8 88.6 114.6 129.2 145.9 167.2 178.1 197.9 218.3 243 238.1 241.8 256 272.8 287.2 314.8 338.1 361.9 383.3 400.8 416.9 432.2 471.1 498 516.7 535.2 554.5 572 590.6 604.4 620.7 631.8 595.6 593.7 571.5 535.5 515.2 501 504 498.6 497.6 495.3 499.4 503.6 511.6 516.2 515.9 523.1 531.2 539.8 548.9 554.2 560.2 567.2 569.1 568.9 567.7 567.2 567.5 568.6 565.5 562.6 558.4 557.7 559.6 561.8 560.5 559.3 554.6 548.4 546.3 544.7 545.3 548.6 554.5 559.3 560.1 559 560.6 548 536.5 519.4 496.2 482.2 465.5 452.6 433.6 431.9 426.1 421.2 418.7 417.3 407.1 401.4 396.9 394.5 385.7 380.7 378.1 374.4 353.2 342 333.9 309.8 284.9 260.6 239.2 223.2 207.4 192.3 183.4 177.3 176 177.2 178.6 182.2 182.5 179.6 175.5 174.1 177.2 182 186.2 181.6 174.5 163.6 156.9 142.1 130.9 121.7 112 102.9 94.9 82.3 49.5 27.7 26.3 20 9.8 7.2 -1.4 -1.4 -1.4 -1.4 -1.4 -1.4 -1.4
202 192.2 183.3 174.3 159.5 150.2 141.3 140 141.6 134.7 127.2 117.5 109.4 92.2 73.9 61.8 47.5 41.3 32.5 42.1 45.3 47.2 53.6 59.9 67.8 73.6 79 83.6 91.5 100.4 99.5 86.8 89.9 91 85.8 73.8 58.7 44.9 30.4 24.9 22.9 22.3 23.4 22.5 22.4 21.6 22.8 22.5 21.1 22.9 24.5 29.9 42.1 53.3 77 96.6 114.7 129.3 147.8 162.4 177.3 196.8 214.3 208.3 227.4 238.2 261.3 285.7 308.9 328.9 350 376 395 409.1 414.4 443.9 474.2 495.2 520.9 542.5 566.7 583.1 602.8 608.6 594.8 566.1 564.4 537 526.6 513.7 492.6 496.4 494.3 489.6 491 494.4 498.1 503.1 505.6 509.1 514.9 521.9 530.3 536.8 540.2 548.2 551.7 553.3 557.6 556.1 557.8 557.3 557.1 555.6 553.1 551.8 549.2 552 553.8 555.3 554 554.2 551.2 552.1 553.2 553.9 556.5 561.5 564.4 564.7 564.1 561 552.5 547 529.5 502.2 491.4 469.7 452.8 444.4 435.7 431.4 427.7 425.5 422.6 418.6 405.8 397.3 395.5 387 384.9 381.6 374.8 354.3 334.7 321 304.8 277.7 256.3 235.7 218.8 204.8 189.3 179.3 174.2 173.9 172.9 173.5 174.8 176.1 175.4 170.5 167.2 163.6 168.5 172.6 168.6 161.7 149.9 139 127.1 121.8 115.8 107.2 94 84.5 67.3 36.6 26.1 19.2 11.8 3.1 -1.4 -1.4 -1.4 -1.4 -1.4 -1.4 -1.4 -1.4
193.2 178.2 167.2 156.1 146.7 135.5 126 113.9 119.8 119.6 113.3 106.4 97.1 81.9 70.9 58.3 42.9 35.5 36.5 46.9 49.2 54.5 60.5 68.6 75.8 82.1 87.6 96.1 102.4 106.6 106.9 101.6 103.4 106.1 101.6 95 76 51 51.7 43.7 31.9 23.3 22.5 22.4 23.1 22.6 23.3 23 23.6 21.4 22.9 24 28.5 45.6 64.7 83.8 97.1 113.6 135 145.9 157.1 173.7 189.8 191.8 214 235.6 257.7 276.2 296.7 318.9 341 358.9 369.9 379.6 399.8 426.9 450.4 473.8 492.4 505.9 531.5 556.3 586.8 575.5 559.7 552.1 538.2 529.8 516.6 498.8 484.6 489.7 491 486.6 485.3 489.1 494.2 494.5 494.3 498 504.9 511.6 519.9 525.1 529.4 533.1 537.1 540.8 544.3 544.7 546.6 544.6 545.2 544.8 540.5 539.6 542.2 545 547.6 548.4 552.3 553 552.7 554.8 557.4 560.1 561.5 564.7 566.9 566.6 569.3 566.2 562.4 560.6 537.1 516.6 503.5 485.3 465.7 458.2 450.5 443.7 440.8 435.5 429.7 425.9 415.2 405.8 391.7 387.9 387.1 379.6 373.2 348.6 337.1 323.6 293.3 273 261.6 236.2 222.8 199.9 182 175.9 171.3 170.8 169.1 168.6 167.2 167.3 167.1 165.6 158.7 153.2 153.3 163.2 159.1 152.7 137.9 126.1 116.9 114.8 108.3 100.5 87.5 73.3 54.8 24.7 21.3 17.4 5.3 -1.4 -1.4 -1.4 -1.4 -1.4 -1.4 -1.4 -1.4 -1.4
172.3 160.1 149.8 134.7 125.6 115 82.8 72.1 95.9 107.7 103.6 95.6 87.2 75.3 68.6 53.5 39.7 34.1 44.7 53.7 58.5 59.9 67.1 77.4 82.7 91.3 97.2 103.4 109.2 115.2 118.9 121.8 127.1 127.8 120.5 105.1 86.9 73.2 72.7 63.8 52.1 34.6 22.2 22.4 22.6 21.1 22.5 21.1 23 21.1 22.5 23.4 27.2 41.8 63.6 77.6 90.6 102.4 118.6 133.5 147 156.9 173.6 189.3 207.4 227.4 246.1 264.1 281.3 299.3 316.4 337.7 349.6 366.8 389.4 412.3 432.4 450.4 470.7 491.3 506.4 532.2 540.1 543 537.3 530.3 520.9 513.7 502.3 485.8 476.5 483.1 488.5 483.5 477.9 481.9 484 485.4 484.8 487.9 493.5 500.8 508.4 512.6 516.9 520.9 525.8 528.4 530.8 532.4 533.3 535 532.7 531.3 529.7 530 535.7 539.3 540.1 542.1 545.3 549.2 553.1 556.2 558.8 561.7 564.9 567.3 569.4 569.8 570.2 568.9 568 562.9 539.4 521 507.1 491.8 474.2 469.3 464.6 459.3 455.3 452.8 428.3 421.2 416 408.3 392.7 389.1 389.1 377.9 364 348.9 335.7 325.2 306.2 290.4 266.6 253.2 223.8 201.2 185.9 178.3 173.7 171.6 170.9 166.4 163.2 159.6 158.8 157.1 150.8 145 143 151.6 151 143.7 128.8 115.2 107.1 103.6 98.7 89.8 77.2 59.8 45 15.2 15.8 10.2 -1.4 -1.4 -1.4 -1.4 -1.4 -1.4 -1.4 -1.4 -1.4 -1.4
155.9 144.3 129.8 105.9 103.8 87.8 100.4 87.4 65.2 92.9 93.2 87.1 78.3 70.6 62.2 48 36.5 43.9 50.8 60.4 64.9 65.9 73 82.9 90 98.7 105.6 111.7 117.1 125 131.2 140.6 143.1 144 139.2 118.2 96.2 92.4 90.4 78 72.4 58 33.8 22.3 22.1 22.9 22.7 21.8 22.2 22 21.6 23.1 27 42.9 61.8 74.9 84.1 98.9 113.4 124.8 136.6 151.3 166.2 182.3 198.7 214.7 229.5 247.8 262.9 283.7 303.5 318.6 339.1 355.7 378.9 396.4 412.1 438.6 461.7 487.1 504.2 515.1 522.4 529.3 531.2 513.1 514.3 501.7 499.3 479.8 461.1 472.7 478.5 475.6 469.1 470.1 473.9 472.6 472.2 478.4 485.1 492 496.5 500.1 503.3 510.2 514 513.6 517.1 519 520.4 520.7 521.3 521.8 521.3 527.2 529.5 533.1 535.9 538.9 542.7 547.7 551.9 555.3 558.5 561.7 565.1 568.5 571.5 574 574.8 574.5 571.8 563.5 538.3 523 515.8 501.7 487.3 484.3 480.5 482.9 464.1 455.5 433.2 424.6 425.8 413.1 398 393.6 389.2 381.5 368.1 357.1 338.5 329.1 313.6 305.4 284.1 262.2 223.2 203.4 192.1 181.2 183.4 182.1 177.9 172.5 168.4 161.8 151.9 150 143.6 139.7 137.6 138 138.1 133.9 122.5 110 101.1 91.6 86.5 78.8 65.2 50.5 28.4 11.2 6.3 -1.4 -1.4 -1.4 -1.4 -1.4 -1.4 -1.4 -1.4 -1.4 -1.4 -1.4
141.4 126.4 107.9 118.9 112.9 108.4 103.6 96.5 84.9 65.2 80.7 77.5 70.5 63.6 53.1 42.9 39.2 43.9 57.4 66 69.4 72.6 78.1 88.5 99.1 107 114.6 120.7 129.6 138 149.4 152.4 156.3 158 150.8 135.5 108.6 108 108.7 96.1 97.9 82.9 58.6 29.2 22.6 22.4 21.8 21.3 21.1 21.1 22.8 22.1 24.2 30.6 45.3 52.9 69.2 89.8 105.3 113.8 127.5 144.5 159.5 173.4 188.2 202.3 220 235.5 251.9 268 285.2 304.9 330.5 345.8 372.4 385.9 399.2 421.2 441.2 466.1 490.9 501.6 509.8 515.8 523.7 500.7 494.6 494.7 489.9 470.9 447.4 463.3 471.7 458.5 446.6 454 457.4 459.7 463.5 470.2 475.3 480.5 483.2 485.6 491.7 497.1 499.2 502.7 505.1 507.9 510.2 510 513.3 514 517.7 521.1 522.9 527.8 531.1 532.9 538.9 544.1 548.6 552.3 556.3 561.1 564.7 568 572.9 577.6 577.3 576.8 575.9 566.2 545.5 530.8 519.8 514.4 501.3 496.2 490.1 487.1 475.1 465.2 457.3 434.8 428.8 417.2 413.4 405 396.7 386.6 376 359.3 346.5 332.6 329.4 318.7 292.4 263.5 242.1 215.2 198.4 191.9 192 188.9 184.8 177.7 171.3 161.8 156.3 145.3 138.8 133.7 127.1 130.1 127.7 123.1 117.8 109.3 99.2 82.8 75.5 69.2 55.8 40.6 15.5 6 1 -1.4 -1.4 -1.4 -1.4 -1.4 -1.4 -1.4 -1.4 -1.4 -1.4 -1.4
124.4 123 131.2 131.1 124 113.2 104.6 96.1 85.5 71.8 69.8 67.4 64.1 58.1 50.1 41 47.2 54.6 66 71.8 77.1 80.5 83.4 97 107.3 114.9 122.9 132.8 139.3 149.1 160.9 176.2 185 184.3 165.3 143.9 124.2 123 126.2 121.3 118.8 106.1 77.7 45.2 25.7 23.2 21.9 21.6 21.2 22.1 22.5 22.5 21.8 24.5 34.7 43.9 59.2 73.4 95.1 105 119.9 136.7 145.1 156.2 171.8 186.3 202.5 220.6 236 256.6 270.4 295.5 317.7 339.5 357.1 371.5 388.8 398.9 420.1 445.9 473.3 482.9 491.1 491.5 501.6 488.3 485.1 476.9 470 452.4 437.8 448.2 446.3 442.6 437.1 439.5 443.9 447.4 452.4 458.3 463.6 466.4 469.4 475.8 481.1 484.6 488.4 491.3 494.6 496.5 498.4 501.2 503.4 502.3 511.3 514.4 518.4 521.1 525.6 529.7 534.3 539 544.2 549.3 553.7 558.1 562.5 566.8 571 576.5 579.5 580.8 578.7 567.7 554.3 540.9 527.9 520.2 510.6 501.7 497 490.1 488.1 482.9 470.9 445.3 440.3 432.6 425.6 421.9 402.9 400.5 387.2 368.6 352.4 341 335.3 320.4 302.7 298.9 275.9 240.8 209.5 202.5 197.9 195 190.1 182.8 176.7 168 157.3 146.4 139.2 130.6 124.7 121.9 118.8 118.4 114.3 104.7 94.8 84.4 68.8 59.1 45.7 24.6 8.5 1.5 -1.4 -1.4 -1.4 -1.4 -1.4 -1.4 -1.4 -1.4 -1.4 -1.4 -1.4 -1.4
134.6 142.5 147.3 144.4 136.4 123.9 111.9 101.4 91.1 80.7 57.3 59.2 57.3 53.8 45.1 36.8 52.2 61.8 72.5 79 82.2 86.2 92.4 105.2 115.2 122.3 130.4 138.7 148.5 163.1 175.5 190.6 201.4 203.3 196.2 161.6 139.9 134.1 139.5 140 137.3 114.3 87.1 59.6 36.7 26.5 23.2 22.6 21.4 22.2 21.5 22.9 22.5 22.1 30.4 39.2 49.7 61.8 85.4 93.4 105.2 110.6 122.4 141.2 159.4 170.8 185.5 198.2 217.2 235.6 253.6 283 302.1 320.7 337.3 351.2 368.6 384.7 404.3 434.7 450.6 466.3 478.5 482.7 478.6 474.1 469.9 458.7 451.1 436.6 424.1 429.2 426.6 427.4 422.8 427.8 430.9 435.5 441.5 447.6 452.7 455.3 461.3 466.7 471 475.9 478.6 482.7 484.4 487 491.3 492 494 500.2 505.1 507.9 513 516.6 520.3 525.6 530.8 535.9 541.3 546.5 551 555.9 561.6 564.9 569.1 573.8 579 583.5 584.5 579.3 573.4 558.4 541.4 532 527.7 511.5 505.7 494.5 492.4 486.1 476.3 458.1 454.4 444.2 433.8 426.8 419.4 407.4 393.1 373.2 366.8 352.7 342 326.9 313 304.2 286.4 247 220.1 212.9 212.2 203.5 196.8 190 180.5 171.2 157.2 147 138.7 134.8 129 119.4 113.3 108.4 107.7 99.8 91.4 79.4 63.4 48.2 31.9 16.2 6.4 1.2 -1.4 -1.4 -1.4 -1.4 -1.4 -1.4 -1.4 -1.4 -1.4 -1.4 -1.4 -1.4
153.5 155 157.4 157.3 147.1 131.5 118.7 105.6 95.1 82.2 62.4 53.4 52.6 48.3 35.9 48.8 57.3 72.4 80.1 85.5 88.5 95 102.8 112.5 120.5 129.6 140.7 147.5 158.7 172.7 187.4 202.3 213.4 216.8 209.4 178.7 160.4 150.9 154.4 154.5 152.8 127.5 98.3 72.8 45 32.4 30.4 22.1 21.7 22.2 21.7 21.3 21.6 21.1 27.1 34.5 42.9 52.6 66.9 80.3 92.7 103 108.6 127.1 144.3 155.5 171.1 184.7 202.8 218 235.9 265.6 290.4 308.4 326 340.2 353.6 369.6 390 414.5 431.2 455.6 471.5 472.2 461.9 464.1 459.6 446 434.3 419.9 405.1 411.6 413.4 415.5 411.2 413.9 416.1 425.3 431.5 435.9 442.8 445.3 452.5 457.1 461.3 465.8 470.8 474.3 476.7 479.9 483 484.5 487.8 494.8 499.5 503.5 508.8 512.6 516.7 522.1 527.4 532.8 538.1 543.7 548.1 553.7 559 563.8 567.3 572.8 579.7 586.8 593 599.8 587.4 576.8 562.2 545.8 534.7 529.2 516.1 502 496.2 489.5 487.4 468.9 458.5 448.7 444.4 439.3 433.1 420.3 403.2 391 379.1 363.9 352.1 338.9 319.8 302.3 285.6 257.1 232.6 222.3 220.1 214.7 207.2 197.5 187.1 177.8 166.6 157 147.1 140.3 133.3 126.1 116.9 111.9 101.8 92.3 87.6 71 53.1 34.7 22.9 9.9 -1.4 -1.4 -1.4 -1.4 -1.4 -1.4 -1.4 -1.4 -1.4 -1.4 -1.4 -1.4 -1.4 -1.4
163.8 164.4 165.7 157.4 148.3 135 122.2 108.3 95 81.5 63.5 50.6 47.8 44.6 43.4 55.4 66.6 75.9 85.9 93.7 94.7 99.5 109.8 121.3 129.9 137.1 146.5 156.6 167.8 181.2 196.1 210.1 219 218.8 208.1 192.2 177.1 166.4 171.1 172 170.5 132.7 98.5 82.8 65.6 46.2 31.4 22.3 21.9 21.8 21.8 21.9 21.5 22.4 26.4 29.3 37.7 47.5 59.4 72.2 84.7 93.8 96.9 107.8 121.1 132.5 149.8 169 185.8 200.3 220.8 247.6 265.6 282.8 319.5 336.6 347.6 358.1 374.4 390 406.4 427.3 444.8 447.9 446.6 451.3 447.5 430.4 415.2 403.6 398.1 401 401 402.8 397.1 402 407.1 414.8 422.1 426.8 432.4 436.5 443 447.7 451 458.3 462.6 465.8 469.7 472.9 476.5 477.4 485.1 490.1 493.7 499.4 502.9 508.4 513.8 518.7 524.4 530.2 536.2 541.3 546 551.4 557 563.1 566.2 570.8 579.7 584.9 594.6 598.6 595 588.3 574.3 563 551.5 551 531 520.9 501.5 495.2 485.9 476.2 469.4 459.9 452.9 452.5 451.5 448.3 425.7 410.8 387 377 364.7 352.8 330.4 318 282.9 262.7 242 238.2 231.2 224.9 218.2 207.7 193.1 182.9 169.6 159.8 153.8 146.3 137.8 130.5 120.6 115.7 103 92.9 88.9 70 51.2 32.8 15.2 8.1 -1.4 -1.4 -1.4 -1.4 -1.4 -1.4 -1.4 -1.4 -1.4 -1.4 -1.4 -1.4 -1.4 -1.4
172.2 172.5 168.2 157.7 147.1 135.6 122.3 108.4 92.7 73.6 61.8 52.4 39 43.2 51.2 60.8 75.2 80.6 90.5 96 102.7 107.7 115.6 126.4 137.5 143.4 155.3 165.5 176.1 189.5 203 214.7 221.3 222.6 216.4 202.5 194.8 188.6 190.2 190.6 184.3 146.9 116.6 98.6 85.8 67.4 34 22.5 21.9 21.9 22 21.1 22.3 22.4 24 26.5 33.2 42.7 54.5 64.2 72.7 76.5 83.8 91 101.9 114.5 129.5 149.2 166.7 186.1 205.5 224 244.2 269.5 287 313.1 331.3 345.1 361.3 379.5 395 409 413.7 422.7 436.9 437.8 437.8 413.9 400.1 391.3 386.2 390.7 391.3 390.7 387.1 391.3 398.6 406 411.2 416.4 423 428.2 433.7 439.5 445.1 450.1 453.8 458.2 462.2 465.7 467.9 474.1 479.8 484.2 489.7 493.3 499.3 504.7 508.8 516.6 520.1 528.3 535.7 542 546.8 551.8 556.5 562.3 566.3 570.7 574.8 582.4 587.3 591.8 596.4 589.2 585.9 583.4 574.4 562.5 555.3 541.2 517.3 504.5 495 487.2 481.9 473.6 462.6 457.7 452.3 441.8 432.5 418.6 398.5 396.8 382.3 360.9 340.4 335.7 306.6 274.5 256.2 251.6 242.8 240.5 232.2 213.9 197.2 189.7 180.3 167.2 154.2 147.1 141.4 132.9 125.5 121.6 108.4 101.9 95.6 76.2 51.6 33.1 17.1 7.7 1.4 -1.4 -1.4 -1.4 -1.4 -1.4 -1.4 -1.4 -1.4 -1.4 -1.4 -1.4 -1.4 -1.4
180.1 177.6 169.3 160.6 149 138.2 121.6 106 88.9 70.1 59.3 52.2 45.6 38.9 56.1 70.7 82 89.5 98.6 102.6 108.6 111.8 119.6 132.1 142.8 154.1 165.6 175.1 184.1 199.2 208.9 216.7 225 229.3 222.7 217.2 208.3 204 208.1 204.5 193.7 163 140.7 125.3 110.4 82.9 55.5 24.4 21.8 21.5 21.1 23.2 22.1 22 22.7 23.4 25.9 37.3 49.2 58.5 63.7 72 73.6 78.3 84.6 99 113.6 132.9 147.7 167.1 186.7 207 226 247.1 270.6 291.5 312.3 331.6 341.9 355.8 388.9 385.2 388.1 402.4 415.5 410.4 409.9 396.1 387.9 381.4 379.3 380.1 382.8 380.8 379 380.1 389 395 401.6 406.6 412.1 419.6 424.6 430.4 435.2 440 444 448.9 451.9 455.3 462.7 467.8 473.2 479.5 484 484.1 495.3 500 510.9 518 523.7 530.6 537.4 544.9 550 555.3 561.2 565.9 568.6 572.1 573.4 579.2 583 585.1 585.1 587.6 585.7 588 588.7 589 564.3 548.5 544.4 522.5 509.4 496.5 488.6 479.5 470.9 470.5 455.4 446.6 437.3 424.3 411.7 408 410.7 381.6 348.5 328.3 305.4 285.4 271.6 263.4 257.2 247 235.7 219.6 211.7 198.7 184.4 174.5 164.1 154.7 145.1 137.5 132.8 121.7 111 104.3 96 76.2 49.3 32.7 17 7.4 1.3 -1.4 -1.4 -1.4 -1.4 -1.4 -1.4 -1.4 -1.4 -1.4 -1.4 -1.4 -1.4 -1.4
186.2 182.8 176.3 163.4 150.2 136.8 119.9 99.5 83.2 64.5 54.4 48.1 40 46.4 62.9 77.6 89.2 96.6 104.5 109.5 114 119.2 127.7 135.8 149.5 162.6 173.5 183.5 193.9 207.3 215.8 225.4 232.5 234.7 234.1 227.8 224.7 216.4 224.3 221.2 205.9 188.3 166.7 152.8 139.5 106.1 77.4 36.1 21.9 21.5 21.1 22.8 22.2 22.1 21.7 21.5 22 26.8 41.7 51.2 57 60.2 63.9 68.6 74.5 83.3 97 114.5 133.1 148.6 166.1 187.7 207 227.8 247.7 271.7 291.9 311.6 324.7 336.9 347.8 360.4 371.1 385.2 391.9 391.3 387.9 382.3 377.4 370.6 367.6 368.6 372 370.8 360.4 373.4 381.7 386.3 394.1 399 405.7 410.6 416 420.3 425.7 430.4 436.7 440.7 443.4 450.5 454.9 461.7 467.7 470.9 480.8 489.2 496.4 503.2 511.2 517.8 524.9 532.1 539.7 547.8 553.3 558.8 565.8 570.8 574.4 575.4 574.6 574.9 577.6 581.5 580.9 577.2 580.1 586.3 594.6 590.7 588.3 552.6 546.8 536.6 532.5 515.7 506.5 491.3 484.3 475.7 466.8 457.2 449.7 435.9 428.1 414.3 409.3 384.4 352.8 324.1 308.8 289.2 281.2 274.7 267 254.6 239.6 230.8 217.5 205.4 193.9 181 170 161.9 151.1 146.7 137.3 130.4 117.5 105.7 93.6 74.1 49.8 32 15.6 6.3 -1.4 -1.4 -1.4 -1.4 -1.4 -1.4 -1.4 -1.4 -1.4 -1.4 -1.4 -1.4 -1.4 -1.4
187.5 184.5 180.2 164 147.9 133.1 114.1 96.9 75.7 60.8 52.7 42.4 46.2 52.2 69.7 83.1 94.4 103.8 109.8 115.6 119.9 130.6 138.5 142 153 168.6 181.2 190.9 203.5 216.7 227.4 236.4 240.9 244.1 244.6 239.9 231.3 237.9 244.9 245.9 222.8 204.3 192.4 179.8 170.2 134.1 89 58.3 25.4 21.6 21.8 21.9 22.1 21.6 21.4 22 22 23.8 29 41.7 46.6 47.6 50.8 57.6 64.2 72 82 96.1 115.1 133.1 151.3 172.9 190.9 208.5 229.5 244.6 269 285.7 308.5 324.8 330.8 339.2 352.9 366.9 380.4 376.5 368.5 366.6 363.8 355.7 355.9 357.7 361.3 359 337.5 342.5 364.7 372.5 374.5 391.1 395.3 399.9 404.7 411.5 412.1 421.6 428 430.1 440.1 445.2 453 457.2 458.8 472.5 480.9 487.9 495.1 502.2 510.3 518.7 528.4 536.3 544.6 552.5 558.4 564.6 571.1 575.8 580.6 585.4 579.6 573.9 574.2 572.2 571.9 570 571.9 573.1 580.2 584.7 581.5 557.9 546.6 542.4 540.1 535.1 518.9 504.4 493 485.3 478.4 467.4 463.7 448.7 440.3 427.5 411.1 383.5 354.8 332.5 311.1 299 292.2 284.7 276 260.8 248.8 235.5 225.2 213.8 200.2 188.3 174.5 164.3 156.8 153.6 143.4 132.4 119.5 106.5 89.7 73.1 51.9 32.4 16.7 6.6 -1.4 -1.4 -1.4 -1.4 -1.4 -1.4 -1.4 -1.4 -1.4 -1.4 -1.4 -1.4 -1.4 -1.4
187.1 186 175.8 162.2 145.2 129.3 111.3 89.4 67.6 58 45.8 48 51.1 59.3 75.8 91.3 100.2 107.4 115.7 121 128 141.2 152.7 155.2 157 174.3 187.9 201.2 215.7 227.5 235.7 244.7 248.9 258.3 259.9 251.3 246.8 258.3 267.7 269.6 244.1 248.7 225.7 219 201.2 160.5 104.1 70.1 36.3 22.7 21.1 22.1 21.5 21.2 21.6 21.6 22 22.5 22.2 29 40 42.5 42 47.5 53.3 59 68 78.6 96.2 117.4 135.5 154.9 171.8 193.9 212.7 231.5 249.7 266.5 286.8 297.9 310.5 319.2 329.8 338.8 347.1 353.8 354.2 353.1 351.4 349.1 342.4 348.9 345.8 330.5 328 342.6 355.2 366.8 376.4 382.8 388.1 391.6 392.2 397.5 409.6 415.7 422.3 429.2 436.2 443.3 444.2 456.5 464.1 472 479.5 486.3 493.9 503.8 514 524.3 533.2 543.5 551.4 558.1 564.4 571.6 577.5 582.1 589.4 588.4 581 570.3 565.7 563.8 563 561 557.8 557.8 558.4 558.8 561.5 553.9 548.6 544.2 543 536.4 528.6 513.8 503.5 497.1 488.1 478.5 469.4 460.3 452 443.1 430.9 390.2 360.1 332.4 320.2 309.2 298.3 293.9 281.7 266 255.5 244.5 233.8 219.5 208.2 196.3 177.9 165.1 162.4 161 148.6 135.6 120.3 104.2 84.1 69.8 51.3 34.6 21 6 -1.4 -1.4 -1.4 -1.4 -1.4 -1.4 -1.4 -1.4 -1.4 -1.4 -1.4 -1.4 -1.4 -1.4
186.7 179 171.6 161 142.6 126.3 106.7 84 67.5 54.3 47.9 51.5 57.5 67.7 84.7 97.7 105.9 112.6 120 128.6 136.7 149.6 160.8 167.2 165 179.2 194.5 207.8 222.3 232.7 244.8 252.9 260.8 270.7 273.8 262.5 265.8 276.7 285.5 289.6 269.4 280.8 257.1 247 225 172.4 103.6 74.6 50.4 29.4 26.3 21.5 21.1 21.1 21 20.8 21.8 22.1 25 21.2 25.4 41.2 44.3 40.8 41.3 44.5 50.9 62.3 78.3 97.1 117.4 135.7 153.1 167.8 198.2 213 229.9 248.2 259.7 275.5 291.1 303.4 314 322.7 328.8 334.6 338.5 337.5 339.6 334.7 329.3 333.4 313.6 316.8 338.3 354.1 366.8 378.2 386.9 394.3 399.7 402.8 402.8 400.1 405.6 410.6 416.9 424.6 430.8 431.2 444.3 454.1 462.9 469.4 477.8 486.4 496.2 506.7 517.2 528.1 540.6 550.4 561.4 567.2 573.5 587.2 592.5 596.2 595 588.5 576.9 567.9 557.7 553 556.6 554 544.8 540.9 542.3 545.6 545.4 546.8 543.7 539 540.6 538.5 533.2 525.1 519.1 515.9 499.4 490 484.3 483.1 462.7 451.5 427.3 392.5 362.6 340.7 325.1 315.4 307.8 301.8 288.8 279.9 269.1 248.6 235.4 221.5 210.9 193.8 180.6 169 168.7 168.9 151.6 132.8 120.2 99.7 79.6 66.8 53.3 36.6 26.6 9.4 -1.4 -1.4 -1.4 -1.4 -1.4 -1.4 -1.4 -1.4 -1.4 -1.4 -1.4 -1.4 -1.4 -1.4
189.5 180.1 169.1 154.6 138.3 123.7 100.4 79.5 62.8 46.4 51.7 56.9 63.9 75.4 89.7 101.3 109.8 118.4 127.8 136.2 146.5 158.4 167.8 176.9 181.7 186 200.3 216.2 227.2 241.5 251.3 258.9 270.5 279.1 283.8 273.9 286.1 294.7 301.4 302 293.2 303.3 283.3 272.3 230.9 172.7 118.4 87.2 65.3 46.7 33.3 23.3 21.6 21.1 21.2 21.9 24.9 21.1 22 22 22 21.7 24.9 24.4 37.8 33.4 33.3 46.8 62.7 80.1 99.2 118.1 136.4 152 167.9 192.3 213.9 232.8 241 256 275.9 288.3 299.1 309.9 314.9 317.6 321.1 320.5 319.4 322.3 308.6 308.6 315.2 332.7 347.8 362.4 372.5 382.4 392.5 401.2 409.4 411.3 411.2 409.5 415.6 417.2 422.3 428 434.5 436.4 445 455.4 463 471 480 489.3 498.2 510.2 523 533.9 546 556.2 566.2 572.9 585 597.3 601.1 604.6 595.3 583.4 574.9 562.2 551.2 533 540.2 539.8 526.8 515.8 511.7 516 531.3 529.6 527 529.8 538 537.7 535.8 534.1 532 532.4 508 496.5 492.6 485.5 473.5 451.9 421.2 391.8 364.6 341.5 334.1 323.7 314.1 307.6 300.9 295.6 288.7 262.5 236 223.7 205.7 189.9 178.9 174.3 168.3 172.1 151.1 136.6 121.7 98.4 77.4 70 60.5 37.6 28.2 14.6 -1.4 -1.4 -1.4 -1.4 -1.4 -1.4 -1.4 -1.4 -1.4 -1.4 -1.4 -1.4 -1.4 -1.4
187.2 183.3 171.3 158.1 135 116.6 93.8 75 54.3 51.1 54.2 59.4 70.7 83.3 94.3 105.1 115.1 124.4 132.6 143.1 154.8 166.2 176.3 185.5 193 195.9 201.4 221.6 236.1 247.3 256.1 266.7 277.3 286.6 291.9 287.6 304.9 314.6 315 310.8 312.2 321.6 298.3 290.8 235.5 166 132.2 98.8 75.3 65.2 41.2 25.5 22.8 21.2 21.1 21.1 23.7 21.9 22 22 22 22 22 22 22 22 23.6 33.1 52.5 73 84.8 103.3 121.7 137.4 150.9 170 187.9 209.7 226.4 242.4 259 274.4 286.6 297 299 301 303.1 303.4 303.4 288.2 290.9 309.6 326.4 345.1 356.9 368.5 381.3 391.1 403.9 413 422.9 424.3 420.8 419.6 423.9 425.3 430.5 434.2 439.1 445 451.4 456.6 465.5 473.3 481.5 490.9 501.5 515.7 528.2 540.2 552 562.5 572.2 581.6 591 600 605.7 604.8 597 580.4 568.2 558.8 553.2 533.2 513.1 511.8 510.7 501.9 495.8 495.8 505.9 510.1 510.8 514.5 523.6 531.2 534.2 537.8 535.8 536.2 512.2 502.5 496.8 485.8 471.5 449.8 432.6 390 369.3 350.8 341 335.6 326.1 326.6 317.2 305.9 296.2 281.8 244.1 220.8 202.7 187.5 183.2 176.5 166.9 163.6 145.6 137.8 124.3 100 76.2 63.9 49.4 37.6 27.7 12.5 -1.4 -1.4 -1.4 -1.4 -1.4 -1.4 -1.4 -1.4 -1.4 -1.4 -1.4 -1.4 -1.4 -1.4
197.9 191 176 157.5 135 113.5 91.1 70.2 56.8 45.3 54.5 62.9 76.5 87.9 98.7 109.5 119.2 127.9 138.3 150 161.6 172.7 184.9 195.2 204.8 212.7 219.2 221.4 244.6 255 264.2 271.5 281.7 290.1 294.3 298.5 313.2 321.9 328.8 321.8 326.7 333.8 302.2 275.7 224.7 173.3 137 118.6 99.3 78.1 60.3 37.5 25.7 21.1 22 21.1 22 22 22 22 22 22 22 22 22 22 21.3 26.7 41.7 59 76.1 93 110.7 124.6 141.5 160.3 178 198 221.6 233.6 247.3 261.3 272.7 279.7 283.2 285.7 286.5 282.4 279.6 289 308.8 324.7 339.4 349.5 362.6 375.2 387.7 405.7 418.3 426.5 436.1 440.3 430.3 428.3 432.2 436.9 439.5 443.1 448.6 453.9 458.8 464.6 470.1 476.5 485.6 494.5 508.5 521.7 535.7 546.4 558.9 570.7 579.1 588.2 599.7 611.2 613 605.7 590.1 575 561.5 554.8 548.2 527.8 509.2 494.1 492.2 487.6 478.1 477.5 480.9 482.5 485.1 493.5 503.7 524.3 532 533.9 528.6 518.4 511.1 502.7 493.7 485.3 473.8 453.8 423.4 395.3 375.4 365.2 353.3 347.9 344.5 343.8 337.2 318.7 303.3 289.8 260.3 228.5 204 190.7 182.5 172.9 164 156.6 143.7 134.4 118.6 94.2 75.3 59.6 46.8 35.3 23.5 10.2 -1.4 -1.4 -1.4 -1.4 -1.4 -1.4 -1.4 -1.4 -1.4 -1.4 -1.4 -1.4 -1.4 -1.4
212.9 196.4 180.8 162.9 136.6 112.1 89.9 72.6 60.9 54.2 55.4 67.7 80.1 90.6 100.5 112.7 123.2 133 144.8 156.2 168.8 180.6 192.7 204.7 215.1 224.1 233.3 235.6 248.9 257.8 268.3 278.8 285.9 292.4 298.3 308.8 319 326.7 331.3 334.2 338.6 327.1 306.7 267.4 229.4 188.7 160.4 139.6 120.3 97.4 72.6 58.4 40.8 30.1 22 22 22 22 22 22 22 22 22 22 22 22 22 25.5 40.4 54.7 67 88.2 102.3 117.5 131.3 150.3 169.1 187.3 207 223.6 237.8 249 258.6 264 260.9 263.4 261 274.2 289.8 304.8 321.7 334.6 343.2 355.5 369.5 382.3 397.2 413 427.2 442.2 448 449.6 437.4 434.8 440.5 444.2 449.9 455.8 459.4 463.9 468.9 471.9 477.3 481.6 490.9 499.6 513.2 527.6 540.2 553.7 565 573.9 584.5 595.4 606.1 611.9 611.2 597.3 582.7 567.1 556.4 549.2 543.5 526.3 506.1 490 480.9 471.9 466.9 460.6 462.1 467.3 468.6 480.4 484.1 503.1 519.5 516 509.1 506.9 504.6 498.9 493.3 487.5 479.1 462.4 432.6 408.6 392.7 381 376.1 367.4 355.8 362 353.3 326.7 307.9 290 264.8 232.7 209.5 193.2 181.2 169.9 156.3 150.7 139.2 126.3 106.9 89.2 72.4 58 45.7 30.6 18.1 6.8 -1.4 -1.4 -1.4 -1.4 -1.4 -1.4 -1.4 -1.4 -1.4 -1.4 -1.4 -1.4 -1.4 -1.4
218.5 201.2 195.6 166.1 136.5 111.2 87.2 74.2 64.8 49.4 59.6 70.9 84.3 93.8 103.8 116.9 127.6 137.8 148.8 162.6 174.7 187.5 199.6 211.1 222.5 232.9 243.5 251.1 252.6 263.4 273.8 282.8 294.3 300.5 304.6 320.2 327.5 335.5 343.5 349.7 356.6 338.2 332.3 289.4 255.9 234.2 180.9 160.1 140.1 115.5 97.8 74.1 51.3 41.7 22.8 22 22 22 22 22 22 22 22 22 22 22 22 23.6 32.9 52 66.7 81.9 95 110.8 125.2 140.7 159 176.7 191.6 209.5 227 239 248.1 250.1 240 264.9 282 290.1 301.7 313.6 327.3 338 347.5 362.1 374 391.7 407.1 419.2 433.9 449.6 456.1 451.5 442.1 439.9 447 451.8 458.8 464.3 467.6 471.6 477.1 481.5 486.6 491.8 495.5 509.1 519.7 533.2 543.3 555.1 568.8 581.3 591.2 605 613.2 616.7 608.3 592.6 578 558.2 552.6 544.4 534.6 519.5 498.3 491.7 476.5 450.7 451.5 447.8 445.9 446.6 455.6 457.3 462.6 474.2 493.9 493.2 496.2 498.1 497.4 492.2 489.9 488.6 480.3 461.8 443 431.1 411.7 404.6 398.3 381 368.5 366 359.3 333.6 317.7 295 269.7 246.6 213 196.6 180.3 163.3 148.1 147.4 136.4 118.3 96.5 83.2 67.6 53.8 37.9 23.2 11.9 -1.4 -1.4 -1.4 -1.4 -1.4 -1.4 -1.4 -1.4 -1.4 -1.4 -1.4 -1.4 -1.4 -1.4 -1.4
228.7 218 199.8 165.6 135.3 111.4 85.2 73 63.6 61.8 63.3 74.2 87.1 96.4 109 120.9 134.7 143.8 153.5 168.2 179.7 192.3 204.3 217.5 228 239.9 253.1 262.6 265.2 266.6 274.6 286.9 294 300.8 314.5 325.2 337.7 343.2 350.1 363.9 369.5 361.3 344.4 324.5 286.4 276.2 202.2 189.8 159 137.2 109.2 90.8 68.3 47.4 32.3 23.9 22 22 22 22 22 22 22 22 22 22 22 22 26.1 38.9 58.1 73.2 87.6 103 116.1 130.8 148.6 164.2 178.7 193 209.8 225.2 231.5 223.1 247.4 268.9 282.9 294.1 306.5 317.1 328 338.7 352 364.5 377.5 393.6 412.3 424.5 434.7 446.2 456.6 452.7 444.6 446.6 452.9 459 463.3 471.1 474.5 480.2 485.8 489.8 495.7 500.8 505.7 515.2 525.8 538.6 550 565.2 579 590 599.4 613.2 625.1 614.6 600.8 590.2 568.4 551.1 548.9 541.1 529 510.7 496.4 492.7 476.4 450.4 433.8 437 435.3 438 432.3 437 445.2 451.5 466.5 472.7 479.9 485.2 490.9 487.6 490 484.9 477.7 461.8 451.6 442.2 425.4 412.9 406.2 394.3 379.3 364.8 353.2 340.3 323.1 297.5 273.6 244.2 214.9 198.5 182 161.7 143.3 143.7 127.7 107.4 91.3 79.9 63.3 49.1 29.9 16.5 7.9 -1.4 -1.4 -1.4 -1.4 -1.4 -1.4 -1.4 -1.4 -1.4 -1.4 -1.4 -1.4 -1.4 -1.4 -1.4
232.2 223.8 204.4 165 134.1 110.4 83.5 72.6 64.8 64.4 66.5 76.8 88.9 102.8 113.4 124.6 138.3 149.5 159 171.4 182.8 195.8 211.3 225.3 236.8 247.3 261.3 270.4 275.3 280 287.1 292.1 294.4 304.6 319.3 326.4 339.2 347.5 358 367.1 376.2 374.6 376.2 350.7 315.8 297 235.2 215 185.7 162.5 135.4 106.6 88.2 60.3 48.4 32.3 22 22 22 22 22 22 22 22 22 22 22 22 22 27.5 45.2 62.6 78.9 92.4 107.2 120.6 137 152.2 162.8 171.4 196 198.9 202.8 231.6 249.9 265.6 279.5 292.1 306.1 317.1 326.8 339 351.2 367.6 378.9 400.2 420.7 434.5 438.2 440.3 448.6 453.2 448.7 454.3 458 463.9 469.8 477.5 483.2 487.7 493.1 500 506.5 512.2 519.6 526.1 535.4 546.8 560.9 575.2 594.3 607.7 617.9 622.6 619.4 610.2 598.4 581.7 557.8 548.8 544.4 536.9 520.8 500.8 489 488.4 456 442.9 428.9 422.3 420.9 425.6 423.2 421.5 422.9 431.2 443.9 467.7 464.4 467.9 471.2 473.3 473.4 476.9 475.5 454.2 452.7 451.2 435.9 418.6 413 402.2 383.1 373.8 361.7 349.8 328.3 315.3 266.8 241.6 217.7 197.3 177.5 155.7 138.7 127.1 118.2 104.5 92 73.5 59.7 41.4 25.7 9.2 -1.4 -1.4 -1.4 -1.4 -1.4 -1.4 -1.4 -1.4 -1.4 -1.4 -1.4 -1.4 -1.4 -1.4 -1.4 -1.4
241.4 227 205.5 164.2 133.2 109.3 85.7 75.9 72.3 67 70.7 76.5 91.8 104.7 115.8 127.8 142.5 153.1 164.5 176.6 184.8 201.9 218.1 229.8 241.6 254.1 268.8 280.5 283.2 287.4 291.2 296.2 293.7 305 319 332.3 340.6 352.2 363 374.2 377.3 392.2 400.2 369.7 341.9 309.4 263.2 236.6 207.7 184.3 160.9 125.3 105.1 81.4 63.3 50.7 35.1 24.3 22 22 22 22 22 22 22 22 22 22 22 24.1 32 46.7 63.3 77.9 99.8 111.5 124.6 140.3 151.3 136.7 173.6 194.7 212 227.9 245.5 262.4 274.5 289.4 303.3 318.8 332.1 340.1 353.6 365.2 378.7 396.8 420.3 434.9 437.8 441.7 452.2 449.1 449.8 454.2 461.8 467.8 474.9 481.8 488.9 497 503 512.9 518.5 525.1 533.6 540.3 548.1 558.1 571.5 584.8 601.6 620.8 638.6 630.3 610.5 603.1 590.7 571.4 553.3 547 542.4 536.5 519.5 493.7 481.5 462.8 441.2 432.5 418.4 417 407.3 410.1 411.8 410.7 412.6 418.3 424.3 440.9 449.7 456.2 455 451.9 455.2 455 465.1 445.8 448 450.7 435.5 428.8 417.2 401.3 386.8 376.8 366.9 352.1 332.4 314.2 269.4 232.8 211.7 193.1 170.4 152.9 134.1 119.1 113.5 99.2 88 68.6 55.8 40 24.9 2.5 -1.4 -1.4 -1.4 -1.4 -1.4 -1.4 -1.4 -1.4 -1.4 -1.4 -1.4 -1.4 -1.4 -1.4 -1.4 -1.4
254 235 210.5 165.1 131.4 110 89.7 78.2 74.9 69.3 73.2 81 93.7 103.9 116.1 129.8 143.6 157.7 168.2 178.5 189.9 208.2 222.9 233.1 243.8 258 274 283.4 289.2 297.1 304.8 303.8 302.5 306.1 326.3 342 351.6 358 364.2 370.7 378.1 399.8 412.7 395.6 370.2 321.5 291.6 271 227.8 204.2 171.8 142 116.3 100.2 85.4 70.7 53.5 42 24.7 22 22 22 22 22 22 22 22 22 22 22 24.7 35.8 49.4 65.5 83.2 101.7 112.2 128.6 139.8 137.9 164.8 187.1 205.7 222.6 240.5 257.3 271 286.6 301 318 336 345.6 353 363.9 374.7 396.7 412.1 432 436.1 439.1 441.8 442.2 447.5 456.4 465.9 472.5 480.2 488.4 497.3 503.6 511.4 522.1 527.6 536.2 545.5 554.9 562.4 571.2 581.9 596 615.3 637.1 646 636.9 611.3 600.6 589.9 563.9 550 543.9 541.3 533.1 515.5 484 470.7 464.6 441.5 426.5 413.6 404.4 405.9 397.5 400.3 401.7 400.2 410.2 412.1 415.7 418 436.7 438.9 434.9 435 440 439 440.2 437.9 441.5 440.2 437.5 415.9 407.8 394 373.2 356.1 345.2 335 316.3 257.5 223.4 205.5 183.4 162.6 150.6 132.1 116.7 104.9 99.1 78.1 60.4 47.2 33.7 18.1 -1.4 -1.4 -1.4 -1.4 -1.4 -1.4 -1.4 -1.4 -1.4 -1.4 -1.4 -1.4 -1.4 -1.4 -1.4 -1.4 -1.4
257.3 223.3 194.8 165.2 131.6 109.1 93.9 80.5 74 67.2 73.6 81.9 94.6 105 117.6 131 144 157.7 170.8 182.1 195 211.3 226 240.2 254.5 264.3 277.7 285.8 297.2 308 312.1 313.4 311.9 326.8 331.6 346.3 353.6 363.2 371.9 375.7 379.7 399.5 412.2 418.1 398.6 345.3 318.3 315.3 279.9 231.1 185.6 154.1 136.8 124.4 104.4 92.7 75.7 57.4 45 23.9 22 22 22 22 22 22 22 22 22 22 21.2 23.6 34.8 55.1 71.2 82.8 98.4 117.6 125.6 124.8 154.9 174.6 194.4 213.5 231.3 250.1 265.2 281 298.6 313.8 332.8 347.8 355.4 362.6 377 387.4 411.5 420.9 430.2 429.2 431.2 438.7 448.9 459.1 469.1 476.9 484.1 492.4 501.3 510.5 520.2 529.5 538.5 548.5 563.8 570.4 578.7 585.5 596.4 606.8 621.8 638.9 643.5 623.5 606.9 596.8 579.8 558.7 553.6 546.3 539.6 530.5 509.6 489.9 475.8 460 449.7 426.2 415.6 407.8 392.9 392.4 391.6 394.4 384.4 395.3 400.7 405.4 401.8 403.8 405.3 414.9 414.4 422.7 426.5 424 428.1 432.9 428.6 435.9 424.2 412.7 400.6 388.1 354.7 335.2 318.5 294.8 245.6 215.1 195.4 174.7 159.8 147 131.9 112.2 96.1 89.1 68.2 52.6 39.6 25.6 9.6 -1.4 -1.4 -1.4 -1.4 -1.4 -1.4 -1.4 -1.4 -1.4 -1.4 -1.4 -1.4 -1.4 -1.4 -1.4 -1.4 -1.4
265.6 223.2 199.9 166.3 136.3 116.9 97.7 83.3 73 72.9 76.7 83.7 94.8 106.7 119.4 131.2 144.2 157.8 171.3 184.7 197.5 212.4 228.1 240.7 255.4 269.8 281.6 293.3 305.9 316.1 321.3 319.7 330.1 334.7 342.1 352.2 362.9 369.9 377.3 382.3 387.5 400.7 412.8 424 419.3 367.8 357.1 345.7 321.9 257.6 200.7 171.3 157.4 137 125.6 112.5 96.8 78.8 58 42.3 21.2 22 22 22 22 22 22 22 22 22 21.9 21.9 27.4 32.7 46.2 58.6 73.1 86.3 95.3 124.9 145.6 162.8 182.6 203.4 223.3 241.6 256.3 275.1 293.7 309.7 328 340.5 354 361 370.1 392 391.8 413.2 423.1 422.1 430.6 439.9 453.1 464.3 473.8 482.4 490.7 498.4 504.6 518 527.5 539.6 547.9 561.2 571 588.2 599 600.7 611.7 619.8 631.5 642.8 639.8 623.3 604.7 591.1 571.1 560.5 559.7 551.1 538 523.8 510.9 496.3 478.9 467.3 458.3 442.7 428 415.7 399.8 388 378.4 375.8 368.7 379.3 390.4 401.5 397.9 391 389.5 389.7 386.6 390.1 401.2 404.6 409.9 419.9 419.1 425.2 427.6 414.9 402.2 382 360.3 332.8 311.7 273.1 245.9 219.6 199.3 175.3 158.5 144.7 127.2 109 90.9 76.5 58.3 45.3 36 19.9 5.9 -1.4 -1.4 -1.4 -1.4 -1.4 -1.4 -1.4 -1.4 -1.4 -1.4 -1.4 -1.4 -1.4 -1.4 -1.4 -1.4 -1.4
257 226.2 195.1 166 140.6 122.8 105.3 88.9 77.1 72.3 76.5 86.9 97.6 107 118.3 130.6 145.1 159.3 173 184.7 197.4 212.5 228.4 242.9 256.3 271.4 283.7 301.8 312.6 323 328 334.6 343.2 332.4 350.4 350.1 362.8 372.7 382.3 387.9 394 395.3 414.7 427 416.5 394.9 386 377 358.4 274.2 218.3 190.8 171.9 154.9 145.7 131 115.2 99.3 78.9 57.2 36 22 22 22 22 22 22 22 22 22 21.1 22.2 23.4 30.9 40.3 48.6 62.3 80.1 99.8 119.4 135.5 152.5 178.2 196.1 215.4 232 248.7 268.8 285.4 302.5 323.8 335.7 345.2 356.6 366.5 377.5 388.6 396.7 409.8 420.2 432.8 444.7 457 466.2 476.1 486.4 494.9 503.4 513.6 522.9 537 545.8 559.6 573.9 588.5 600.4 613.1 616.6 622.4 631.7 642.4 649 644.9 633.2 607.9 588.3 567.6 560.8 557.5 548.3 535.1 524.2 517 500.7 486.4 472.5 465.8 453.5 440 426.3 412.8 398.9 387.3 368.5 354.1 357.8 370 390.2 387.9 380.5 370.3 367.1 369 374.6 379.7 385.4 392 402.3 409.4 416.9 413.8 406.3 399.7 390.2 355.3 338.9 301.7 270.5 241.6 221.2 212.8 184.9 156.9 143 122.7 106.6 90.6 70.5 53.2 38.8 28.7 13.5 5.4 -1.4 -1.4 -1.4 -1.4 -1.4 -1.4 -1.4 -1.4 -1.4 -1.4 -1.4 -1.4 -1.4 -1.4 -1.4 -1.4 -1.4
249.4 217.4 196.3 159.9 141.7 128 112.2 95.3 84.2 79.8 77.1 86.9 98.1 107 117.2 129.8 143.6 157.1 171.5 183.9 197.2 213.7 231.5 243.3 256.4 270.3 284.9 307.2 317.7 326.6 332.5 343.8 350.8 349.7 354 362.9 365.3 375.4 381.3 385.4 390.4 397.1 400.8 413 416 412.8 415.6 392.4 375.1 282.1 236.4 211.1 197.2 180.9 167.1 154.3 133.6 118.4 96.7 72.4 50.9 34.7 21.1 22 22 22 22 22 22 22 21.7 24.2 24.5 30.5 39.7 49.5 60 78.7 93.5 108.7 125.9 150.4 171.9 187.2 200.5 220.9 237 259.8 270.9 287.9 309.1 329.7 339.3 352 363.6 374.4 384 393.6 405.9 417.6 434.2 446.8 460.7 469.6 479.9 492.6 501.8 508.7 521.8 532.3 545.7 554.2 565.7 583.2 602.2 611.7 620.3 635.5 637.9 649.6 653.9 647.8 650.1 634.8 609.7 588.1 569.7 560.7 553.4 546.9 537.8 530.8 520.6 507 492.8 490 481.7 461.3 449.8 438.1 428.9 414.1 399.8 386.6 371.3 350.3 343.1 361.9 366.9 365.6 359.7 353.7 353.5 354.3 356 363.2 370.2 383.1 393 397.2 397 394 392.7 374.8 356.3 339.7 304.1 270.6 242.7 222.8 210.3 182.2 157.6 142.2 126.9 115.9 90.5 71.3 58.2 41.8 24.2 12 1.7 -1.4 -1.4 -1.4 -1.4 -1.4 -1.4 -1.4 -1.4 -1.4 -1.4 -1.4 -1.4 -1.4 -1.4 -1.4 -1.4 -1.4
248.2 215.6 192.8 162.9 149 130.9 115.4 102.1 89.7 83.5 75.6 84.1 96.9 106.7 116.6 129.3 142.6 157.5 170 183.1 197.3 214.4 230.4 243.1 257 269.9 288.6 309.2 322.1 333.7 338.3 350.7 356.5 358.4 361.3 363.9 368.1 375.1 381.4 392.8 401.2 403.7 406.7 407 418.5 425.8 430 416.6 379.3 316.4 259.8 236.3 227.1 204.2 184.7 174 158.2 137.5 113.1 89.5 69.5 50.9 32.5 22 22 22 22 22 22 22 21.4 22.9 24 27.7 34.1 41.8 56.1 71.7 89.9 110.2 127.8 149.1 169.2 188.4 205.3 224.7 245.1 264.7 283 303.1 323.8 338.6 347.6 359.1 365.4 372 386.4 396.6 407 420.2 422.7 448.1 463.8 473.2 484.2 494.9 502.9 512.2 523.6 541.2 551.2 560.3 573.7 584.2 605.5 621.7 635.9 645.3 656 654 648.3 646.8 645.7 632.8 609.4 587 570.1 562.1 556.4 548.9 545.8 538.2 523.5 515.8 507.6 500.2 480.6 470.4 462.4 451.8 444.9 439.7 416.3 399.3 387.2 365.5 327.6 344.7 366.9 363.2 359.9 348.6 338.1 330 327.3 330.9 348.1 358.9 368.4 379.4 379.2 378.4 377.3 368.4 355.4 335.3 307.5 276.3 250.3 223.1 200.9 180.7 159.9 140.4 127.5 109.1 89.9 74 56.6 45.4 27.4 10.7 1.2 -1.4 -1.4 -1.4 -1.4 -1.4 -1.4 -1.4 -1.4 -1.4 -1.4 -1.4 -1.4 -1.4 -1.4 -1.4 -1.4 -1.4
251 220.1 193.7 170 152.8 134.2 117.6 103.6 92.9 85.8 80.8 86 96.4 107.3 117.8 129.8 141.1 153.6 168.4 181.4 196.3 212.8 227.9 241.4 254.3 269.1 287.8 308 324.4 333.8 344.8 357.7 370.5 374.6 370.1 370.3 377.7 380.3 384.3 399.6 403.9 409.1 416 415.3 421.8 437.3 432.5 420.4 374.4 314.6 282.9 266.3 262.3 224.3 202.6 187.3 177.1 156.4 130.1 109.1 89.4 68.2 46.6 23.9 22 22 22 22 22 22 22 21.5 22.2 25 29.5 37.1 54.4 71.9 87.5 107.6 126.2 148.6 168.6 187.1 206.8 225.5 247 268.2 285.5 308.8 333.6 345.7 351.5 361.2 368.1 371 387.2 398.9 410.8 427.2 439.2 455 457.1 478.7 486.6 494.4 504.2 514.9 530.6 542.9 552.5 567.2 583 593.2 604.4 631.6 645.1 656.7 653.4 643.9 642.1 648.9 645 628.1 609.7 588.4 578.6 565.1 556.8 558 546.7 536.7 526.8 521.5 522.5 516.2 484.1 471.3 464 457.4 450.7 442.3 425.9 406.1 397.5 379.5 333.5 313.9 338.8 358.5 346.2 341.9 324.2 325.4 296.8 308.6 321.7 333.9 343.3 354.3 363.9 361.3 361 356.7 348.7 344 311.9 275.4 254.1 225.9 188.7 168.5 152.6 135.8 120.7 99.8 83.6 66.9 56.2 47.1 24.9 7.9 -1.4 -1.4 -1.4 -1.4 -1.4 -1.4 -1.4 -1.4 -1.4 -1.4 -1.4 -1.4 -1.4 -1.4 -1.4 -1.4 -1.4 -1.4
252.2 223.7 197.1 176.4 157.7 135.3 122.1 108.9 98.1 89.6 77.3 87.3 94.4 105.5 117.5 128.2 139.3 151 164.7 177.9 193.9 211.3 225.1 238.9 252.6 267.6 284.9 302.5 320.9 331 346.6 363.6 378 384 387.2 377.2 377.3 385.2 394.6 398.5 402.5 410.3 417.9 419.3 421 431.4 429.6 409.4 366 322.5 298.9 297.7 284.5 249.3 219.7 203.2 189.1 173.2 146.7 126.7 104.4 83 61 42.6 22 22 22 22 22 22 22 22 22 23.1 25.8 33.6 49.4 71.7 89.7 108.8 125.1 144 165.6 185.4 204.7 224.7 246.5 265.5 283.1 305.8 335.9 351.7 354.9 359.6 362.3 367.1 380.7 397 412.9 428.5 442.5 457.9 471.7 473.8 483.2 494.4 507.1 518.7 537.3 549.1 553.9 564.4 582.6 600.5 604.8 613.2 620.1 640.7 643.4 632.8 640.9 647.3 636.2 628.5 603.9 599.5 586.3 573.2 568.9 561.1 553.6 538.7 533.3 527.7 525.7 526.8 488.4 475.5 468.4 457 448.2 441.4 423 412.8 402.6 372.3 338.1 297.2 302.7 329.6 329.8 312.8 294.1 295.8 272.4 281.8 294.7 309.2 325.4 321.5 338.1 337.8 337.5 336 331.7 323.3 294.4 263.7 248.6 220.7 186.9 163.2 144.1 128.8 108.8 91.6 76.3 57.1 47.1 35.2 17 6.8 -1.4 -1.4 -1.4 -1.4 -1.4 -1.4 -1.4 -1.4 -1.4 -1.4 -1.4 -1.4 -1.4 -1.4 -1.4 -1.4 -1.4 -1.4
243.4 218.4 202.5 181.9 163.3 151.1 127.7 114.5 101 91.4 78.1 86.9 90.7 104.7 116.7 127.3 137.8 147.6 160.3 177 190.1 205.2 221.8 236.5 251.2 263.1 279.3 293.4 310.5 329.1 348.5 367.1 379.7 392 396.3 391.7 386.3 389.6 398.1 402.1 404.8 418.8 422.5 422 430.6 432.6 433.3 416.8 364.2 332.5 323.4 324.1 300.7 281.7 250.4 225 208 187.9 163.3 141.9 119.1 96.8 74.8 62.6 33.4 22 22 22 22 22 22 22 22 22 23 28.9 45.8 66.9 90.2 107.3 122.4 141.6 159.3 178 195 217.7 240.5 259.7 277.8 295.5 318.9 346.1 354.3 355.9 356.7 364.9 377.3 395.8 417.7 433.1 446 466.2 475 482.4 486.9 495.3 508.5 512.2 536.7 549.6 555.8 564.3 576 590.1 605.2 613.3 617.5 613.4 619.1 621.4 623.4 629.4 628.9 613 604.5 596.5 584.4 577.6 567.1 561.9 553.2 544.3 537.2 534.5 529 522.5 503.9 481.1 469.9 458.9 449.2 439.5 415.4 412 397.7 368.6 339.5 291.7 263.2 284.9 288.2 278.2 251.9 260.1 236 244.8 256.7 277.2 296.5 302.3 308.4 311.9 313.6 310.6 303 293.1 271.3 257 238.7 215.5 187.3 154 135.4 118.8 97.7 81.9 64.6 44.2 34.4 24.5 13.7 7.6 -1.4 -1.4 -1.4 -1.4 -1.4 -1.4 -1.4 -1.4 -1.4 -1.4 -1.4 -1.4 -1.4 -1.4 -1.4 -1.4 -1.4 -1.4
255 237.3 221.7 193.4 173.3 155.4 132.5 119.9 104 92 82 86.2 89.9 100.8 112.9 124.3 135.3 146.9 157.5 171.8 187 199.4 216.8 233.5 247.3 259.5 271.8 290.5 313.1 335 352.4 366.9 377.6 400.2 402 401.1 394.4 394.6 400 405.3 412.1 415.8 423.4 428.8 435.1 437.5 434.6 427.2 372.8 347.2 343.5 338 318.9 292.8 276.4 235.6 221.4 199.9 176.2 151.1 129 104.1 82.3 66.1 44.8 22 22 22 22 22 22 22 22 22 22 23.6 41.5 61.6 83.3 104.2 118.1 137.6 155 171.6 187.9 211.4 233 252.6 278.1 294.4 308.7 327.7 352 353.3 351.1 360.7 374.1 392 421.8 434.5 447.8 468.8 476.5 480.4 487.6 504.4 517.2 532.2 539.9 544 553.3 563.1 572.9 583.7 600.1 606 603.4 605.5 615.3 623.2 621.8 620.6 616.5 611.8 610.3 598.6 591 576.2 568.7 565.8 558.4 550.1 545.1 546.5 541.6 526.1 506.8 481.9 468.8 457.5 448.3 434.1 411 394.1 390.3 362.9 335.8 280.5 245.5 230.5 228.1 213.6 204 203.3 207.4 219.2 230.5 247.3 260 270.8 281.4 287.1 288.9 286.7 282 271.8 260.5 247.4 231.4 208 175.2 149.2 126 107 86.9 65.9 53.8 36.6 24.9 14.8 11.6 7 1.3 -1.4 -1.4 -1.4 -1.4 -1.4 -1.4 -1.4 -1.4 -1.4 -1.4 -1.4 -1.4 -1.4 -1.4 -1.4 -1.4 -1.4
268 261.4 249.5 208.7 186.1 167 141.1 126.4 108.9 94.8 87.2 83.4 89.5 98.2 110.9 120.8 133.1 143.6 154.9 167.9 186.1 196.4 212.9 230.5 245 257.3 269 286.8 311.4 337 352.4 362.4 382.5 400.6 410.6 405.2 397.5 403.1 403.3 409.1 415.2 421.5 428 436.5 434.9 440.1 427.5 423.1 385.7 361.5 357.3 354.8 331.8 304.4 294.6 248.2 228.8 208.3 184 159.7 132 104.7 83.7 69.9 59.4 30.5 22.1 22 22 22 22 22 22 22 22 22 36.9 56.2 76.3 96.8 113.2 130 149.9 166.9 181.7 202.6 223.4 243.7 267.2 284.6 297.1 314 329.2 345.7 344.8 356 369.9 384.3 411.1 432.9 447.9 459.6 480.3 475.4 487 504 518 531.6 539.4 547.7 557.3 569.8 571.6 579.2 584 590 596.6 607.3 616.5 621.2 621.6 615.3 608.2 607.5 604.5 601.6 592.5 578.9 575.7 569.6 562 552.8 550.3 551 546.5 532.1 517.3 483.1 470.4 459.3 444.9 429.1 410.6 387.2 373.2 345.5 308.6 276.2 241.6 212.7 201.9 191.2 184.7 181.7 187.7 197.2 212.5 224.4 236.2 242.3 254.8 263.7 263.7 264.3 259.7 253.6 242.3 229.6 218.1 198.4 167.4 138.2 117.2 96.4 76.9 58.7 40.9 28.9 21.3 12.5 9.8 7 2.1 -1.4 -1.4 -1.4 -1.4 -1.4 -1.4 -1.4 -1.4 -1.4 -1.4 -1.4 -1.4 -1.4 -1.4 -1.4 -1.4 -1.4
279.5 279.4 267.7 226.4 202.1 176.4 153.1 133.3 115.5 100.6 91.1 83.8 89.3 97.7 107.4 118.4 129.2 139.1 150.9 163.9 180.1 194.3 206.8 223.5 239.2 253.7 268.8 283.3 306 327.5 345.4 356.4 370.3 385.2 404.2 396.6 400.5 409.9 407 413.3 422.2 428.7 430.3 433 434.1 433.4 430.5 413.4 400.5 387.8 384.2 385.4 355 322.1 294.5 258.1 234.7 215.6 187.5 155.6 130.3 103.5 79.6 67.2 52.5 37.9 26.7 22 22 22 22 22 22 22 22 22 30.6 52.2 67.8 88.1 102.4 121.7 138.7 158.9 173.3 192.9 216.1 244 264.2 277.2 292.8 308 318.7 331.9 334.7 349.7 364.4 377.1 402.8 420.4 437.1 449.4 454.2 464.2 485.3 504.2 514 527 540.1 547.8 556.4 571.3 576 580.7 584.5 589.9 597.3 612.2 616.2 615.6 613.4 610.3 604.6 602.1 601.1 595 585.8 577 575.3 569.8 563.7 557.6 558.8 554.1 547.6 538.6 522 501.3 485.4 461.1 449.1 436.6 407.6 386.9 379.1 348.6 319.3 281.8 229.2 205.6 188.8 169.6 168.7 165.2 168.3 180.2 193.6 204.1 212.6 220.8 226.1 233.9 240 237.6 238.3 234.1 224.1 212.6 198.8 183.1 161.9 128.8 109.8 89.3 70.5 51.7 36.8 25.2 17.2 13.1 8.8 5.8 3 0.8 -1.4 -1.4 -1.4 -1.4 -1.4 -1.4 -1.4 -1.4 -1.4 -1.4 -1.4 -1.4 -1.4 -1.4 -1.4 -1.4
301.1 293.2 283.7 252.1 218.8 188.1 164.4 143.5 123.6 107.1 93.5 86.6 89.3 95.2 104.7 116.7 126.9 135.8 147.5 160.4 175.2 189.4 201.6 217.4 233.7 249.1 264.5 282.6 299.9 316.9 331.6 344.2 356.4 363.7 379.5 389.9 401.7 407.1 413.3 414.2 421.1 431.3 436.3 439.9 444 435.7 428 422.5 415.4 409.8 404.7 398.5 353.1 332.9 291.5 261.5 241.2 213.2 181.8 151.8 133.3 111.2 93.8 75.5 60.7 45.3 32 22 22 22 22 22 22 22 22 22 25.5 52.3 62.2 75.9 95.6 115.1 131 150 167.6 186.9 213.8 243.6 268.2 281.6 293.1 306.6 316.5 317.7 326.9 343.4 359.1 372.2 385.7 407.3 425 437.5 441.7 457.1 476.6 498.2 509.6 524.9 537.9 543.8 549.9 566 570.5 581.8 585 597.2 593.6 596.1 609.1 609.3 606.6 606.7 601.3 599.3 594.3 589.1 582.8 576.3 571.8 566.3 561.9 563.6 562.1 558.1 552.4 550.5 535.4 517.1 500.7 471.7 450.9 441.5 401.4 385 370.6 351.5 320.6 260.2 220.8 194.8 178.7 165.3 156.1 152.7 154.5 164.7 175.9 185.5 191.3 201 207.3 209.4 213.6 214.5 213.4 210.1 207.4 198.2 186.4 167.8 147.6 124.2 106.1 86.1 64.3 49.8 36.6 25.1 16.9 12.5 9.3 5.8 3.1 1.5 0.6 -1.4 -1.4 -1.4 -1.4 -1.4 -1.4 -1.4 -1.4 -1.4 -1.4 -1.4 -1.4 -1.4 -1.4 -1.4
319.6 308.6 292.8 270.6 237.3 200.7 175.3 152 129 113.5 98.8 89.7 89.4 93.7 102 114.7 124.9 134 144.7 157.2 169.4 183.8 197.5 212.9 228.7 243.1 259 276.7 292.1 309.8 330.9 345.2 357.4 371.8 379.7 394 407 414.5 421.1 421.1 429.4 435.1 443 444.9 445.5 441.5 438.7 434.5 428.1 420.7 404.3 369.2 339.7 308.7 283.8 258.1 223.4 198.5 183 168 147.8 127.9 108.9 90.6 72.2 57.2 34.9 22 22 22 22 22 22 22 22 22 21.3 37.1 49.7 63 85.8 107.8 126 139.2 164.3 181.7 207.2 241.7 268.7 284.6 278.1 290 313.2 307.4 319.1 337 354.1 367.9 381.3 396.4 410.8 420.5 432.9 450.4 477.2 493.4 508 524.9 529.6 534.9 541.6 549.6 560.8 575.2 582 583.5 597.5 596.4 589.8 595.2 598.4 596.8 599 598.9 589.9 582.5 575.3 571.6 567.5 564.2 561.5 559.7 558.7 556.7 555.2 553.6 536.9 520.4 493.5 467 446.6 425.5 398.3 380 358.8 344.4 307.9 248.5 210.7 187.1 173.3 163.6 153.2 143.2 146.5 151.3 159.1 166.3 172.8 180.6 185.7 191.2 195.4 195.5 196.3 192 184.7 185.6 173.4 158.3 137.1 118.6 100.2 80.6 62 49.9 36.7 24.9 19 14.9 10.8 5.4 3.2 -1.4 1.5 0 -1.4 -1.4 -1.4 -1.4 -1.4 -1.4 -1.4 -1.4 -1.4 -1.4 -1.4 -1.4 -1.4 -1.4
330.4 319.2 297.9 287.8 253.8 210 184.4 158.9 136.7 118.6 105.5 94.7 87.7 93.4 100.8 110.5 120.9 130 139.7 151.4 163.7 177.8 189 203.9 222.4 237.4 255.6 274.1 286.9 305.1 327 347.2 355.6 366.7 382.7 400.5 419.1 431.7 433.8 435.7 435.8 443 452.6 460.7 468.7 457.8 459.1 458.9 458.3 445.5 429.3 403.6 370.7 351.8 326.2 291.2 245.2 222.1 203.2 186.1 163.8 142.9 122.1 102.4 84.5 68.8 46.3 22 22 22 22 22 22 22 22 22 22 27.3 36.8 49.4 67.5 94.2 113.8 131.5 148.6 171.4 198.3 227.9 264.7 253.8 266.6 280.1 294.3 297.1 310.1 328.8 346.2 362.7 374.7 383.9 396.9 411.1 432.8 447.8 472.4 486.7 503 522.2 524.7 527.2 532.8 540.9 552.1 562.1 575 579 582.5 593.3 587.6 585.6 587 591.5 593.6 591 582.9 572.9 568.3 567.6 563.5 559.7 557 557.4 552.1 551.2 549.6 547.6 536.3 514.4 491.6 457.8 441.5 425 389.1 371.8 355.9 326.6 297.3 252 209.7 182.8 166.1 157.1 148.8 142.5 137.1 139 146.7 151.7 156.6 161.3 167.5 169.9 175 177.3 179.3 175.5 171.2 169.3 159.5 146.6 132.7 110.7 94.8 74.5 58.8 46.6 30.8 22.7 19.1 15.3 12.5 7 3.9 -1.4 -1.4 -0.4 -1.4 -1.4 -1.4 -1.4 -1.4 -1.4 -1.4 -1.4 -1.4 -1.4 -1.4 -1.4 -1.4 -1.4
