ncols 200
nrows 107
xllcorner 290000
yllcorner 682650
cellsize 50
1.8 1.9 2.7 2 2.2 1.9 2 2 2 1.9 1.8 1.7 1.1 1.2 2.7 1.7 0.9 0.2 -0.5 -1 -2.3 -2.3 -2.3 -2.3 -2.3 -2.3 -2.3 -2.3 -2.3 -2.3 -2.3 -2.3 -2.3 -2.3 -2.3 -2.3 -2.3 -2.3 -2.3 -2.3 -2.3 -2.3 -2.3 -2.3 -2.3 -2.3 -2.3 -2.3 1.1 2 2 2.2 2.2 2.1 2.1 2.9 5 4.6 4.3 4.1 5.3 5.7 6.3 8.8 10.1 11.7 12.6 16.2 21.5 24.9 27.7 29.8 32.7 35.4 39 41.8 42.9 42.7 41.9 43.5 46.8 48.8 45.5 42.7 43.4 44.1 44.8 45.2 45.2 47 47.5 47.5 46.9 46.8 47.7 47.6 47.3 48.8 48.6 48.5 48.7 50.7 52.7 53.6 55.7 57.5 58.2 58.8 59.3 59.7 60.6 61.5 62.6 63.4 62.8 62.9 63.5 62.9 62.3 62.9 63.7 64.1 64.6 66.1 65.6 65 65.9 66.4 67.5 67.6 67.4 67 66.7 67.5 69.4 72.3 73.3 75.9 76.1 76.5 77.7 79.1 81.1 84.1 86.7 88.8 90.3 91.7 92.5 93 92.4 92.6 92.5 91.4 89.3 90.6 90.9 90.3 87.2 85 84.7 84.8 84.2 81.4 81.1 80.5 80.2 79.2 78.3 76.6 74.4 72.3 70.2 67.6 67.9 67.3 66.2 63.6 59.8 55.6 52 49.6 44.8 39.7 34.9 34.1 33.8 30.6 25 22.2 24.8 25.6 24.3 23.3 22.8 22.7 22.7 21.9 19.7 20.5
1.9 2.7 2 2.1 2.3 2.2 2.2 2.2 2.1 2 1.9 1.8 1.7 1.4 1.2 4.3 2.2 1.4 0.8 0.2 -0.5 -1 -1.5 -2.3 -2.3 -2.3 -2.3 -2.3 -2.3 -2.3 -2.3 -2.3 -2.3 -2.3 -2.3 -2.3 -2.3 -2.3 -2.3 -2.3 -2.3 -2.3 -2.3 -2.3 -2.3 -2.3 -2.3 -2.3 3.4 1.7 2.1 2.2 2.2 2.3 1.4 1.5 2.3 3.4 3.6 4.8 5.2 5.3 5.5 9.3 10.2 10.3 12.4 15.6 20.5 22.1 23.9 26.1 31.6 34.5 36.9 39.4 40.8 43.4 43.2 41.4 47.7 51.8 43.5 42.4 43.1 43.8 44.4 44.9 45.2 46.4 47.3 47.6 47.6 48.4 48 49.3 48.1 48 50 51 49.8 49.7 51.5 52.2 53.7 54.9 55.9 57 57.4 57.7 58.4 59.4 60.5 61.4 62.3 63.7 64 63.1 63.2 63.9 65 64.9 65.2 65.3 65 65.7 66.2 67.4 67.4 67.6 67.5 67.1 66.5 66.1 68.1 71.5 72.8 73.5 74.8 75.5 75.5 76.6 78.2 81.5 84.7 87.4 89.1 90.5 91.5 92.1 91.7 91.4 91 90.8 89.4 90.7 90.1 89.5 87.1 85.6 86.5 84.4 84.6 82 81.7 81.5 81.6 81 79.8 78.7 76 74.5 71.9 71.2 70.5 69.3 68.1 65.6 62.8 59.1 56.1 53.6 49.3 44.3 39.5 34.7 31.5 28.3 26.1 23.5 24.3 24.3 22.5 21.8 21.2 20.9 21.1 21 20.3 21.4
2.5 3.3 2.2 2.2 2.5 2.5 2.4 2.3 2.2 2.1 2 1.9 1.7 1.6 1.5 1.6 1.6 2.6 1.9 1.2 0.6 0.1 -0.4 -0.9 -1.3 -1.7 -2.3 -2.3 -2.3 -2.3 -2.3 -2.3 -2.3 -2.3 -2.3 -2.3 -2.3 -2.3 -2.3 -2.3 -2.3 -2.3 -2.3 -2.3 -2.3 -2.3 -2.3 -2.3 -2.3 2.9 1.8 1.9 1.5 1.2 1.4 1.8 2.2 4.4 3.7 4.4 5.6 5.4 6 7.7 11 12.3 13.7 14.4 21 22.1 24 25.1 28.7 32.1 33 35 37.9 39.6 40.6 40.4 47.9 49.4 44.1 42.5 42.8 43.5 43.9 43.8 44.9 46.1 45.6 48.1 47.1 49.3 50.3 50.5 49.8 51 50.1 50.5 49.9 50.3 51.2 50.6 51.7 52.3 53.1 54.4 55.2 55.7 56.3 57.3 58.4 59.2 59.9 61.7 63.4 62.7 63.3 63.9 64.3 65.4 65.9 65.9 65.4 65.4 65.4 65.3 66.7 67.3 67.5 67 65.6 65.3 67.5 69.5 71.9 72.2 73.6 73.9 74.1 74.3 76.2 78.7 81.2 84.9 87.1 88.2 89.5 90.5 90.6 90.8 90.7 90 89.1 89.4 88 88.1 87.1 85.1 86.4 85.7 84 83.3 82.1 81.8 81.1 80.4 80.6 79.3 77.9 75.9 74.7 72.9 72.4 71.7 70.4 68.8 65.5 62.2 59.8 57.4 53.6 48.4 42.8 37.7 34.6 31.3 28.6 25.5 23.3 22.4 22.2 21.6 21.7 21 20.7 20.3 21.2 21.8
5.1 3.1 2.9 2.3 2.7 2.6 2.5 2.4 2.3 2.2 2 1.9 1.8 1.6 1.7 1.7 1.6 1.1 3.8 2.3 1.7 1.1 0.5 0 -0.3 -0.8 -1.3 -2.3 -2.3 -2.3 -2.3 -2.3 -2.3 -2.3 -2.3 -2.3 -2.3 -2.3 -2.3 -2.3 -2.3 -2.3 -2.3 -2.3 -2.3 -2.3 -2.3 -2.3 -2.3 -2.3 3.5 1.6 1.8 2.1 1.5 1.8 2.2 3 4.2 4.8 5 5.3 5.6 5.8 8.9 11.1 13.6 17.6 19.2 23.3 24.6 26.9 26.2 27 28.1 29.7 32 33.7 36.1 38.2 42.6 47.6 44.1 41.1 41.2 42.9 42.1 42.9 44.4 45.3 45.5 46.6 48.7 49.9 50.2 50.4 51.9 51.7 51.2 51.8 52.2 52.8 52.6 52.1 52.4 52.2 52.9 53.7 53.8 54 54.5 55.4 56.4 57 57.4 58.8 59.8 61.5 62 62.5 63.2 63.7 63.9 64 64 64.3 65 64.6 64.6 66.3 66.2 65.7 64.7 64.4 65.7 67.8 69.8 71.7 72.2 73 73.4 73.8 73.8 76 78.1 80.4 82.2 83.9 85.1 86.4 87 88.4 88.9 89.4 89.1 88.6 87.6 87.8 86.3 85.9 86 85.1 83.9 83.7 82.8 82.1 81.6 81.8 81.1 80 78.6 77.2 75.6 73.5 72.8 72.8 71.7 70.7 67.4 64.8 62.7 60.5 57.5 52.6 47 42 36.6 35 32.7 30.7 29.2 27.3 25.9 24.4 24.2 22.7 21.1 20.7 21.2 21.6
4.3 4 4.2 3 2.8 2.7 2.6 2.5 2.3 2.2 2.1 2 1.9 1.8 1.7 1.7 1.6 1.5 1.5 1.6 2.7 2.1 1.5 1 0.5 0 -0.5 -1 -1.7 -2.3 -2.3 -2.3 -2.3 -2.3 -2.3 -2.3 -2.3 -2.3 -2.3 -2.3 -2.3 -2.3 -2.3 -2.3 -2.3 -2.3 -2.3 -2.3 -2.3 -2.3 1.3 4.5 5.8 1.6 1.8 1.6 1.9 3 4.2 4.6 5.2 5.3 5.3 5.7 7.1 11 12.6 17 20 25.5 28.5 31.3 29.9 31.2 34.5 35.7 35.1 34.5 33.5 34 33.7 35.9 38.2 38.6 40.5 41.4 42.5 42.5 43.8 44.5 44.9 46.6 48 48.8 48.8 51.8 51.8 52 52.8 53.5 54.1 53.5 53.5 53.6 53.5 54.3 54 54.3 54.2 54.3 54.2 54.2 54.7 55.3 56.2 56.9 57.8 59.3 59.9 59.9 60.7 61.4 61.8 61.8 61.8 62.2 63.3 62.9 63.2 63.8 64.6 65.2 64 64.5 65 67.5 69.4 70.9 72.3 72.9 73.4 73.5 73.2 73.1 74.6 76.7 76.8 78.5 80.5 83.3 84.5 85.6 86.3 87.2 87.8 88.3 88.7 87.1 87.3 85.8 86.5 86 85.2 84.6 84.2 83.2 82.9 82.3 81.6 80.5 79.4 77.8 76.4 74.3 72.9 72.7 72.4 71.6 69.2 66.3 64.4 62.9 60.3 57.2 51.8 45.5 41.4 37.9 35.4 34.4 32.9 31.9 30.8 29.9 29.6 26.3 23.6 20 20.9 21.3
4.6 3.9 3 3.5 2.6 2.8 2.7 2.5 2.4 2.3 2.2 2.1 2 1.9 1.8 1.7 1.6 1.7 1.8 1.8 1.7 3.8 2.4 1.9 1.4 0.8 0.3 -0.3 -1.4 -2.3 -2.3 -2.3 -2.3 -2.3 -2.3 -2.3 -2.3 -2.3 -2.3 -2.3 -2.3 -2.3 -2.3 -2.3 -2.3 -2.3 -2.3 -2.3 -2.3 -2.3 -2.3 2 5.3 1.9 1.4 1.5 1.8 3 4.6 5.7 4.9 5.3 5.4 5.3 5.9 9.6 11.1 15.1 17.3 25.7 28.5 31.4 32 32.9 37.9 40.7 40.9 41.4 41.2 41.6 44.1 45.4 44.7 43.4 42.5 40.8 42 42.8 43.1 42.6 43.4 45.2 47.1 48.5 49 50.7 52.2 52.3 52.8 54.3 54.3 53.9 54.3 55.2 55.7 55 54.7 55.1 55.1 55.3 55.1 54.9 55.1 55.2 55.1 56 56.5 57.2 57.7 57.9 58.4 58.9 59.6 59.6 59.9 60.7 61.2 61.4 61.7 62 62.8 62.9 63.1 63.8 63.6 66.4 68.9 70.4 71.6 72.3 73 72.8 72 71.8 72.5 73.1 73.6 73.4 75.9 77.1 79.5 82 83.7 85.1 85.9 86.7 86.8 86.5 86.8 86 86.2 87.4 86.7 85.5 84.8 84.4 83.8 83.2 82.3 81.2 80 78.1 76.8 74.7 72.8 72.2 72.9 72.4 71 67.4 66 64.4 61.9 59.7 56 50.5 46.1 41.6 38.8 37.3 35.8 34.1 33.5 31.8 31 29.9 27.3 21.7 21.8 20.2
4.3 3.6 3.9 2.5 2.6 2.8 2.7 2.6 2.5 2.4 2.3 2.2 2.1 2 2 1.9 1.8 1.9 2 1.9 1.8 1.8 1.4 2.7 2.1 1.6 1 0 -1.1 -2.3 -2.3 -2.3 -2.3 -2.3 -2.3 -2.3 -2.3 -2.3 -2.3 -2.3 -2.3 -2.3 -2.3 -2.3 -2.3 -2.3 -2.3 -2.3 -2.3 -2.3 -2.3 0.5 2.5 2.8 1.6 1.5 1.8 3.4 5.6 4.9 5.3 5.6 5.5 5.5 7.1 9.5 11.7 13.9 16.3 22.4 28.2 30.1 31.4 32.8 37.9 43.4 45.3 47 48.9 48.6 50.1 51.5 50 46.9 46 42.3 42.9 43.9 42.8 43 44 44.8 46.1 47.7 49.8 51.4 53.4 52.8 52.7 55.7 55.4 55.9 56 57 56.9 56.3 56.2 56.1 56 56.2 56 55.7 56.1 56 55.5 55.7 56 56.2 56.8 57.4 57.4 57.4 57.5 57.4 58 59.6 59.8 60.1 60.7 60.7 61.3 61.8 62.2 62.8 62.4 64.1 67.1 69.2 70.7 71.5 72.2 72.2 71.1 71.3 71.7 72 71.7 72.4 72.3 73 73.6 76.5 78.8 80.6 81.7 83.2 83.7 83.5 84.5 84.2 85.1 85.6 85 85.8 86.7 85.9 85.2 84.1 83 82.1 80.5 78.2 76.5 74.7 73.5 72.6 72.9 72.1 71.6 68.7 67 65.7 63.8 61.6 59.4 54.2 48.8 45.1 42.8 40.6 38.6 36.7 35.3 32.8 31.5 30.1 28 26.3 24.6 22.3
7.1 4.7 3.5 2.8 3 2.7 2.8 2.7 2.6 2.5 2.4 2.3 2.2 2.2 2.2 2.1 2 2.1 2.1 2 1.9 1.9 2 1.8 2.9 2.4 1.3 0.3 -0.9 -2.3 -2.3 -2.3 -2.3 -2.3 -1.2 -2.3 -2.3 -2.3 -2.3 -2.3 -2.3 -2.3 -2.3 -2.3 -2.3 -2.3 -2.3 -2.3 -2.3 -2.3 -2.3 -2.3 0.9 2.6 3.4 2 1.7 4.5 5.2 5.1 4.8 5.6 6.7 6.6 9 11.2 11.9 13.7 15.5 20.5 25.6 29.8 32.2 32.1 37.1 40.1 47.1 48.6 50.4 51.6 51.1 51.6 51.2 50.5 50 47 42.8 43.4 45.4 45.3 45.1 46.6 48 47.4 48.2 50.9 53 52 52.6 55.9 57.6 58.3 58.9 59.1 59.1 59.4 59.3 58.8 57.7 57.2 56.9 56.6 56.6 56.7 56.8 56.8 57.2 57.1 57.2 57.4 57.4 57.4 57.4 57.4 57.4 57.4 57.9 58.9 59.8 59.5 60.1 60.9 61.3 61.8 62 62.4 63.7 65.9 67.6 68.6 69.6 70.1 70.1 70.9 71.3 71.5 71 71.4 70.9 71.4 70.4 72.2 72.9 74.5 76.5 78.7 79.5 79.8 81.1 81.2 82.3 83.3 83.7 84.5 85.4 86.3 85.9 84.9 83.8 82.3 80.8 78.5 76.9 75.4 75.1 74.1 74 72.9 72 69.4 67.5 66.3 64.9 63.5 61.5 58.4 53.3 50.3 45.4 42.9 40 38.7 37.1 33.8 32.2 31.1 30.4 29.9 29.5 27.4
6.2 5.9 5 4.7 4.2 2.9 2.7 2.8 2.7 2.6 2.5 2.5 2.4 2.4 2.3 2.3 2.2 2.2 2.2 2.1 2 2 2.1 2.1 1.9 3.6 2.1 0.9 0 -2.3 -2.3 -2.3 -2.3 -2.3 0.6 -1 -2.3 -2.3 -2.3 -2.3 -2.3 -2.3 -2.3 -2.3 -2.3 -2.3 -2.3 -2.3 -2.3 -2.3 -2.3 -2.3 -0.6 1.1 2.4 4.2 2.6 5.7 5.4 5.5 6 5.9 6.8 6.9 7.4 9.1 12.2 13.6 16.8 19.8 21.1 25.7 30.1 32.2 32.6 37.9 43.8 48.4 49.1 50.1 50.4 51.1 51.2 50.7 51.6 50.8 47.9 45.5 42.9 43.2 43.7 44.5 47.3 48.6 49.6 50 52.5 50.8 53.2 56.3 59 60.7 61.5 60.1 62.3 63.2 62.6 62.2 61.2 60.3 59.6 59.5 57.9 58 58 58 58.1 58.4 58.3 58.1 59.1 59.1 58.2 57.9 58.3 57.6 57.9 58.6 59.2 59.2 59.3 59.6 60 60.2 60.8 61.3 61.9 64.2 65.1 66.2 67.2 67.3 65.4 67.6 69.3 70.4 71 70.8 70.7 70.7 70 70.5 71 72 74 75.9 75.2 75.6 77.5 78.9 80.3 81.7 82.5 83 83.8 83.2 83.4 84 83.2 82.5 80.7 79.3 78.4 76.8 75.6 76 75.1 73.7 72.8 70.8 68.2 67.1 65.7 64.6 63.7 62.2 58.1 53.7 48.7 44.9 41.4 39.5 37.5 34.7 33.3 31.7 30.8 30.3 29.7 28.9
6.6 6.4 6 6.3 5.8 3.9 3.3 3.1 2.9 2.8 2.7 2.6 2.6 2.6 2.5 2.5 2.4 2.3 2.2 2.2 2.1 2.1 2.2 2.2 2.2 2.1 3 2.5 2.1 2.5 3 -2.3 -2.3 -2.3 1.6 0.1 -2.3 -2.3 -2.3 -2.3 -2.3 -2.3 -2.3 -2.3 -2.3 -2.3 -2.3 -2.3 -2.3 -2.3 -2.3 -2.3 -2.3 -0.1 1.7 3.4 4.6 5.9 7.7 6.3 5.7 6 6.6 6.4 6.2 6.4 9.8 13.1 16.6 19.1 19.5 20.1 24.7 29.2 31.1 33.1 37.2 42.2 45 47.6 49.1 49.4 49.6 48.7 49.9 51.3 50.9 49.2 47.2 44 41.8 41.8 45.5 47.2 48.3 49 49.2 51.9 54.9 57.5 59.6 60.9 61.5 62.5 63.1 63.2 63.6 64 64.2 63.3 62.8 62.4 60.9 60.8 60.5 60.8 60.2 59.7 59.7 59.7 59.5 59.4 59 58.6 58.5 58.7 58.9 59.7 60.4 59.7 60.1 60.2 60 59.8 60 60.3 60.6 62.9 64 64.8 65.7 65.6 65.2 65.3 65.6 71.2 68.2 68.2 68.7 68.6 68.8 69.5 70.7 71.5 72.2 73.7 73.9 74 75.4 77.2 78.6 80 80.9 81.6 81.2 81.5 82.1 82.3 81.2 81 79.4 79.4 78.3 76.7 75.8 77 76.8 76.1 73.9 71.4 69.1 67.9 66.5 66.1 65.8 64.2 62.5 57.8 53.5 49 45.2 41.3 37.7 37.5 35.2 32.5 31.2 30.7 30.1 29.7
6.7 6.3 5.8 6.1 5.7 4.9 4.8 4.7 4.5 4.4 4.2 4.1 3.9 3.7 3.4 3.6 3.8 4.4 3.9 3.6 3.2 2.6 2.5 3.1 3.5 4.4 5.1 3.9 4.4 5 4.9 5 1.9 -2.3 2.8 1.6 0.2 -2.3 -2.3 -2.3 -2.3 -2.3 -2.3 -2.3 -2.3 -2.3 -2.3 -2.3 -2.3 -2.3 -2.3 -2.3 -2.3 -0.3 1.7 3.5 4.8 5.3 6.6 5.4 6.7 5.3 5.8 5.9 5.7 6 6 10.7 13.9 16.2 17.4 17.4 20.6 22.1 27 30.4 32.7 36.1 38.8 41.4 43.8 45.9 47.8 48 47 47.9 48.6 48.8 48 46.4 44.4 42.1 42.8 44.7 45.4 46.5 46.3 51.6 55.6 56.9 58.7 60.2 61.2 63.6 65.1 63.1 62.8 63.5 64.8 64.5 63.6 63.8 63.8 63.4 63.5 64 63.4 62.6 62.3 61.9 62.1 61.3 60.2 59.9 59.9 59.8 59.9 60.8 61.3 60.6 60.7 60.7 60.5 60.7 61.2 61.3 60.8 61.6 62.5 63.2 63.9 64.9 64.9 65.1 65.3 71.3 66.9 67.3 67.2 66.9 68.3 69 69.6 70.8 72.9 74.6 74.4 74.2 75.2 76.5 77 78.4 79.3 80.3 80.4 80.6 80.3 79.8 79.8 79.4 78.2 78.3 78 78.2 77.1 76.7 77.6 76.6 74.9 71.6 70.3 68.7 67.4 67.5 67.6 66.6 64.1 61.2 56 50.4 47 44.4 42.7 39.6 37.1 34.5 31.8 31.2 30.7 29.5
7.1 6.8 6.1 6 5.7 5.4 5.7 6 6 5.9 5.7 5.6 5.4 5.3 5.2 5 5.5 5.5 5.3 5 4.6 5 5 5.1 5.6 5.2 4.8 5.3 4.8 3.9 -2.3 4.5 2.8 -2.3 3.5 3 1.7 0.5 -0.7 -2.3 -2.3 -2.3 -2.3 -2.3 -2.3 -2.3 -2.3 -2.3 -2.3 -2.3 -2.3 -2.3 -2.3 -2.3 -2.3 4.2 5.2 8.1 6.9 6.1 6.2 5.5 6.1 5.8 5.4 5.8 6 7 9 13.2 14.8 15.9 17.2 18.6 21.4 24.9 29.1 31.8 33.7 35.7 38.6 40.5 42.1 44.6 46.5 46.6 47 47.3 47.3 46.4 44.8 43.3 41.1 43.1 45.4 45.3 45.7 50.5 54.3 55.9 57.4 59.2 61 63.5 64.8 65.1 63.1 63.5 63.8 64 64.1 64.2 64.2 64.6 64.6 64.2 63.8 63.2 63 63.4 63.2 62.8 61.7 61.4 61.4 61 61 61.5 61.5 61.2 61.3 61.3 61.3 61.8 62.3 62.5 61.3 62.3 62.9 63.6 64.4 64.2 64.5 65 65.2 64.8 64.4 65.4 65.5 65.8 66.9 68.4 69 70.3 73.4 74.7 75.5 75.5 75.5 76.6 77.1 77.5 78.8 80.1 80.1 80.1 78.7 79.9 79.7 78.4 78 78.2 79.6 79.1 77.9 77.3 76.8 74.5 73 71.7 70 69.8 68.8 68.8 68.8 67.9 64.8 62 56.2 52.4 49.2 45.8 43.1 40 38 36 32.9 31.3 30.1 28.6
6.8 6.4 6.5 6.6 6.4 5.6 5.7 6 6 5.9 5.7 5.6 5.4 5.3 5.5 5.6 5.3 5.2 5.2 4.9 4.6 4.8 5.2 5.3 5.1 5.2 5.1 5.4 -2.3 -2.3 -2.3 -2.3 -2.3 -2.3 3.9 3.2 3 2 0.9 1.4 -2.3 -2.3 -2.3 -2.3 -2.3 -2.3 -2.3 -2.3 -2.3 -2.3 -2.3 -2.3 -2.3 -2.3 -2.3 2.2 5.9 5.8 6.1 6.6 5.4 6.4 5.6 5.1 5.4 5.5 5.5 5.4 6.2 6.3 10.4 14.7 15 16.6 17.1 19.2 22.9 27.1 28.8 30.5 33.4 35.4 37.2 39 41.9 43.5 45.9 46.8 47 46 44.2 43.2 41 40.9 43.1 43.4 44.8 50.9 53.4 55.8 56.1 58.1 61 62.9 63 64.1 64.6 63 62.9 63.3 64 63.9 63.7 64.8 65.1 64.9 64 64.1 63.5 63.3 63.6 63.5 63.2 62.7 62.1 61.7 62.2 62.6 62.4 61.9 61.9 61.8 62.4 62.9 63.5 64 63.2 63.8 64.4 64.7 65.4 63.8 62.8 63.9 64.7 63.7 63.2 63.8 64.6 65.3 65.5 66.8 67.7 68.6 71.4 73.6 75.2 77 76.7 76.4 76.6 77.7 78.6 79.8 79.8 79.8 80.2 79.8 79.5 79 78.6 78.2 77.5 78 78 77.2 75.6 73.3 71.8 71.6 70.5 69.5 68.2 67.9 68.7 68.4 62.2 61.3 62.3 58 53.2 48.7 45.1 42.7 40.4 38.5 34.5 31.8 31.3 30
7.5 6.7 6.3 6.4 6.4 5.6 5.8 5.9 5.7 5.9 5.8 5.6 5.5 5.4 5.6 5.8 6 5.7 5 4.7 4.6 4.6 5 5 4.7 4.7 4.8 4.6 -2.3 -2.3 -2.3 3.3 3.1 4.4 4.1 3.7 4.6 3.2 2.8 2.5 2.3 -2.3 -2.3 -2.3 -2.3 -2.3 -2.3 -2.3 -2.3 -2.3 -2.3 -2.3 -2.3 -2.3 -2.3 1.5 5.2 7.5 6 7.4 6.8 6 5.2 5.4 5 4.8 4.9 5.2 4.9 6.2 7.7 9.7 12 14.6 15.5 16.3 18.5 21.6 23.4 25.5 27.5 29.8 32.3 34.5 35.6 37.7 41.1 44 47.2 47 45.3 43.1 41.2 40.1 41.3 42.2 44.5 48.3 54.2 55.8 56 57.9 60.1 61.3 62.1 63.2 63.5 63 62.4 63 62.7 62.4 63.4 64.9 65.1 65 64.1 63.7 63.4 63.5 64 63.8 63.5 63.6 62.8 62.7 63.3 63.8 63.3 62.8 62.5 62.9 63.4 63.8 64.1 64.6 64.7 65.5 65.7 65.9 65.5 64.6 64.3 63.3 64.1 64 63.3 63.5 64.1 64.1 64.6 65.5 66.6 67.5 69.3 71.2 72.7 74.5 75.8 75.8 76.9 77.9 78.8 79.6 79.4 79.3 79.2 79.8 79.5 78.6 78.5 78 78.3 79.4 78 76.4 75.1 73.4 72 71.2 70.3 69.3 68.6 68.3 65.5 66.3 67.4 66.6 64.8 61.2 56.6 52.6 48.9 45.5 42.9 40.6 38.1 34.6 32.7 30.8
8.2 6.1 6.8 6.1 6.5 5.7 5.8 5.7 5.5 5.8 5.8 5.7 5.5 5.4 5.6 5.9 5.7 5.6 5.6 4.9 4.8 4.3 4.4 4.4 4.3 4.3 4.3 4.4 4.5 4.7 -2.3 3.6 3.5 4.4 4.3 2.7 3 2.8 3.3 2.8 2.6 0.1 -2.3 -2.3 -2.3 -2.3 -2.3 -2.3 -2.3 -2.3 -2.3 -2.3 -2.3 -2.3 -2.3 -2.3 4.9 5.5 8.7 5.5 5.9 4.9 4.4 5.1 5.7 5.8 4.7 5 5.1 4.7 6.5 7.8 9.8 12 13.3 15 15.9 17.6 18.2 20.1 23 23.9 27.5 28.4 29.9 32.1 34.6 39 41.1 44.6 47.3 45 42.4 41.9 40.1 41.3 43.2 46.6 52 55.7 57 59.2 61.6 61.7 63 64 65.6 64.9 64.7 64.4 63.1 61.4 62 63 64.5 64.7 65.3 64.4 63.7 63.7 63.7 63.3 63 63.4 63.4 63.6 64 64.3 64.2 63.6 63.5 63.6 63.9 64.3 64.7 65.2 65.5 65.9 66.2 66.1 65.7 65.5 65.4 65 64.3 64 64.4 64.8 65.1 64.8 64.2 65 65.6 66.7 68 70.2 71.4 73 75.8 75.6 76.3 77 77.9 77.9 77.6 77.6 77.9 78.8 78.3 78.1 78.5 77.9 78.3 78.8 77.1 76.2 75.7 74.7 73.2 72.7 70.5 69.6 69.2 68.5 67.1 67.4 68.4 68 65.4 62.5 58.3 54.9 51.6 47.8 44.4 41.7 39.6 37.7 35.2 31.8
8 7.3 6.6 6.8 6.6 6.1 5.8 5.5 5.3 5.5 5.8 5.7 5.6 5.4 5.1 4.9 5 5 5.6 5.6 5.4 5.1 5.4 5.4 5.2 4.5 4.5 4.5 4.7 5.1 -2.3 -2.3 3.7 3.8 2.6 3.5 3.2 2.9 4 2.9 2.9 2 0.5 -2.3 -2.3 -2.3 -2.3 -2.3 -2.3 -2.3 -2.3 -2.3 -2.3 -2.3 -2.3 -2.3 -2.3 4.8 3 6.6 2.9 4.6 4.4 4.9 5.4 5.3 5.1 4.8 4.8 4.7 4.7 5.3 7.9 11.6 12.7 13.7 13.6 13.6 15.2 15.3 18.7 21.5 22.9 24 26.3 27.8 30.3 33.9 37.6 39.6 42.8 45.1 44.9 43.7 40.5 39.9 41.6 45.4 48.1 53.1 55.8 58.6 61.8 63.1 64.9 65.7 66.5 67 68.4 67.6 66.3 64 61.7 62.1 63.1 64.1 64.7 64.8 64.1 63.9 63.3 62.8 63.1 62.8 63.3 63.6 63.9 64.2 64.9 64.6 64.6 64.6 64.7 64.8 65.2 65.6 66.2 66.6 66.9 66.8 66.5 66 66 66.2 65.7 64.7 65.3 66 66.1 65.9 65.1 65.6 66.5 68 68.4 69.6 70.7 72.4 74 75 75.7 76 76.7 76.6 76.1 77.4 77 78.1 77.6 77.5 78.2 78.5 79.2 78.5 78.3 77.1 76.1 75.4 74.7 73.8 72.3 70 69.5 68.4 66.9 68.5 68.6 69.1 66.9 63.6 59.9 56.2 51.9 48.9 45.7 43.1 40.8 39.5 38.2 34
7.3 6.7 6.5 7 7 6.9 5.7 5.6 5.1 5.4 5.6 5.4 5 4.9 4.7 4.8 4.9 4.9 5.5 5.3 5.1 4.6 5.3 5.1 4.8 5 4.7 4.8 4.8 5.2 4.1 -2.3 -2.3 2.9 4 3.6 3.4 4.4 3.9 3.8 8.7 3.1 1.6 0.1 -2.3 -2.3 -2.3 -2.3 -2.3 -2.3 -2.3 -2.3 -2.3 -2.3 -2.3 -2.3 -2.3 1.2 3.1 2 5.2 2.5 1.8 2.5 4.2 4.6 4.5 4.5 5.3 5.7 4.5 5.2 5.9 8.7 11.9 10.4 9.6 10 10.5 9.7 11.3 15.8 20.8 22.9 24.1 25.1 26.7 29.9 32.2 34.7 37.4 40.1 41.8 42.7 42.4 40.5 39.8 43.3 47 50.5 52.9 54.7 58.7 60.4 63.2 64.1 65.8 66.6 68.1 68.5 68.6 65.8 64.3 62.2 60.5 63 65.2 64.3 65 63.9 63.2 62.5 62.4 62.2 62.6 62.9 63.2 63.8 65.1 65.4 65 65.9 65.9 65.8 66 66.3 67 67.3 67.7 67.6 67.2 66.8 66.9 66.5 66.5 65.4 64.7 66.3 67.2 66.4 66.2 66.3 66.9 68.5 69.3 69.8 70.4 71.5 72.8 74.7 76.3 76.3 75.3 77.5 77.2 77.4 78.5 80.5 77.9 77.6 77.9 78.6 79.1 78.7 79.2 78.2 77.3 76 75.3 74.6 73.6 71.1 69.8 68.8 67.7 69.1 70.1 69.7 68.5 65.9 62 57.5 53.5 48.6 46.3 43.8 41.9 40.8 39.8 37.8
7.6 6.9 7.5 5.6 6.6 6.9 6.4 5.5 5.1 5.3 5 5.3 5.5 5.3 5.2 5 4.8 4.8 5.7 5.2 4.9 4.1 5.3 4.8 4.5 4.5 4.8 4.6 5 5.3 5 -2.3 -2.3 3.2 3.7 3.3 3.2 4.8 4.9 4.6 6.9 3.3 2.8 1.7 0 -2.3 -2.3 -2.3 -2.3 -2.3 -2.3 -2.3 -2.3 -2.3 -2.3 -2.3 -2.3 -2.3 1.8 2.1 2 3.4 3.1 1.7 2.3 4 4 4.7 5.3 4.4 4.5 5 5.5 5.9 7.2 6.7 6.3 6.2 6.7 6.6 7.4 9.7 13.8 18.2 19.2 23 25.4 28.2 28.9 30.7 31.7 32.8 35.2 37.7 40.9 41 39.1 41.2 45.5 48 52 54.5 56.6 58.1 60.3 61.5 63.2 64.8 66.4 66.6 66.9 68 66.5 64.7 59.3 61 64.1 65.8 64.5 64.1 62.9 61.6 61.7 62.2 62.9 63.2 63.2 63.7 64.6 64.9 65.4 66.1 66.8 67.3 67.9 67.9 67.9 67.9 67.9 67.9 67.9 67.6 67.3 66.8 66.5 66.1 66.4 66.9 67.2 67.2 67.1 67.4 67 69.1 69.6 70 71.1 71.9 73.1 74.2 76.4 76.7 77.1 78.2 79 79.6 80.2 80.6 80.1 79.9 79.6 79.8 78.9 78.2 78.1 77.6 77 76.7 76.4 75.3 74.1 73.1 71.3 70 70.1 69.8 69.9 69.9 68.9 67 64 60.5 55.2 51.2 47.1 43.9 42.5 41.8 41.2 40.4
16 7.8 7.5 6.9 6.4 7.3 7 6 5.3 5.2 5.4 5.6 5.5 5.5 5.4 5.3 5.2 4.7 5.2 4.3 4.2 3.9 4.1 4.6 4.2 -2.3 -2.3 -2.3 4.8 5 5.1 -2.3 -2.3 4 2.4 3.8 5.1 5.2 5.1 4.5 5.1 3.2 2.9 2.8 1.8 0.1 -2.3 -2.3 -2.3 -2.3 -2.3 -2.3 -2.3 -2.3 -2.3 -2.3 -2.3 -2.3 -2.3 2.5 2.2 1.7 1.4 3.5 2.7 2.6 3.9 4.1 4.2 4.1 4.3 4.6 4.9 5.3 5.4 5.2 5.1 5.2 5.5 5.6 5.8 6.9 9.3 16.3 16.4 20.5 22.9 24.4 25.9 27.7 29.4 30.6 32 34.3 36.5 38.5 38.7 38.7 42.3 47.3 51.2 54.2 55.8 57 58.7 59.2 60.7 62.3 64.1 64.1 64.7 65.5 65.5 65 61.4 59 60.8 63.3 64.6 64.1 62.5 61.8 61.7 62 62.2 62.9 63.6 63.9 65.1 65.2 65.4 65.8 65.8 65.9 66 66.4 66.8 67.2 67.5 67 66.8 66.9 66.4 65.4 66.6 65.9 66 65.9 67.4 67.8 67.8 67.5 67.3 68.7 69.8 70.1 70.9 71.8 73 74.1 75.5 76.6 76.3 77.2 77 77.9 80.5 81.7 79.6 79.4 79.4 81.2 81.4 80.5 80.2 79.1 78.2 77.9 77.6 76.8 75.7 74.7 74 72.7 69.5 68.7 70 69.8 69.3 67.6 65.6 61.6 57.1 52.6 48.9 45.7 43 41.7 40.9 40
28.9 8.6 6.9 6.1 6.4 7 6.1 5.9 6.1 5.5 5.3 5.4 5.4 5.3 5.2 5.2 5.2 5.3 5.2 4.2 5 4.7 4.5 4.4 5.1 -2.3 3 -2.3 4.4 4.7 4.6 4.4 -2.3 -2.3 4.8 4.8 4.9 5.1 5.3 4.6 4 2.9 2.9 2.8 2.5 2.2 -2.3 -2.3 -2.3 -2.3 -2.3 -2.3 -2.3 -2.3 -2.3 -2.3 -2.3 -2.3 -2.3 0.6 3 1.4 1.7 1.6 2.3 3.4 5 3.9 3.7 3.8 4 4.3 4.6 3.5 4.4 4.2 4.3 4.4 4.8 5 5.2 5.8 6.8 14.7 17.4 17.4 18.4 19.4 21.6 24.4 26.7 28.6 29.1 30.6 32.3 34.9 37.8 36.6 41.1 44.6 47.9 50.3 53.3 56.1 57 58.5 59.2 60.3 60.9 61.6 62.3 63.2 63.1 62.9 62.2 57.4 57.6 58.7 62 64.4 62.1 62 62 62.3 62.3 62.5 63.5 63.4 63.9 63.7 63.7 64.6 64.1 65.9 65.6 65.2 66.2 66.9 66.5 66.2 66 65.7 65.4 65.3 65.4 65.5 64.8 65.6 66.8 67.7 67.6 66.4 66.6 68.3 69.5 69.6 70.3 71.3 72.3 73.5 74.4 75.6 75.7 76.6 75.9 77.5 79.3 80.9 79.2 78.7 79.2 81.5 81.5 82.6 82.1 80.6 79.9 79.5 79.6 79.3 78.3 77.1 75.6 73.9 72.8 72.1 70.7 66.2 63.8 69 66.4 62 57.9 53.2 48.9 46.1 43.2 41.7 40.5 39.9
27.4 12.9 7.5 6.6 6 5.4 5.6 5.9 6 5.6 5.4 5.2 5.2 5.1 5.2 5.3 5.3 5 5.1 4.9 4.7 4.6 4.8 4.2 5 -2.3 -2.3 -2.3 -2.3 4.6 4.4 4.1 3.5 -2.3 3.6 5 4.8 4.9 5.4 6.3 3.1 2.9 2.9 2.7 2.4 0.9 -0.7 -2.3 -2.3 -2.3 -2.3 -2.3 -2.3 -2.3 -2.3 -2.3 -2.3 -2.3 -2.3 -2.3 1 3.4 1.1 1.4 1.6 1.3 3.6 4.8 4.4 4 3.8 4 4.3 4 3.8 4.3 4.1 4.5 4.2 5 6.4 11.9 14.4 15 16.5 14.1 15.8 18.6 21.8 23.5 25.4 26.5 27.5 28.9 30.4 32.3 35.4 34.5 38.9 41.3 44.8 48.3 50.9 53.5 55.5 57.4 58.3 59.1 59.2 60.3 61.4 60.8 61.1 61.1 60.7 57.2 56.5 56.8 58.9 61.2 61.5 62 62.1 62 61.6 61.7 62.4 62.1 62.7 62.4 63.1 63.8 64.3 64.6 64.5 64.8 65 65.1 65.7 66.2 65.9 65.6 66 64.7 64.8 65 63.1 64.3 65.2 65.2 66.6 66.1 65.9 68 69.2 69.7 69.9 70.8 71.7 72.7 73.6 74.8 75.4 76 76.1 77.3 79.2 80.1 80.1 79.7 80 82.1 81.9 82.7 82.2 81.3 81.5 81.2 81.2 81.3 80.9 79.9 78.8 77.7 75.9 74.2 72.5 71.1 70 68.9 63.6 58 58 54 49.5 46.4 43.5 41.9 40.8 39.4
20.3 13.1 6.3 6.1 6 5 5.5 6 5.5 6.3 6.2 6.2 5.2 5.2 5.3 5.3 5 5.1 4.9 4.6 4.4 4.5 4.7 4.8 4.5 4 -2.3 -2.3 -2.3 -2.3 3.8 3.2 -2.3 -2.3 4.7 4.9 5 5.5 6.2 6.3 3.3 5 4.3 2.3 1.3 0.3 -0.8 -2.3 -2.3 -2.3 -2.3 -2.3 -2.3 -2.3 -2.3 -2.3 -2.3 -2.3 -2.3 -2.3 -2.3 1.5 1.9 1 1 1.4 1.3 1.6 3.8 5 4.7 4 3.7 4.1 4.5 5.3 6.8 7.3 7.1 6.3 6.9 7.4 7.8 9.9 15 8.2 10.6 15.2 20.7 22.8 24 25.7 26.3 27.3 28.4 29.7 31.1 32.4 37.7 39.4 42.6 45.1 47.9 50.9 52.5 54.7 56 57.5 57.7 59 60 59.4 60 60.3 60.5 58.4 57 57.1 57.7 58.9 60.2 61.5 61.6 60.7 61.1 60.5 61.1 61.4 61.9 61.3 61.7 62.6 63 63.5 63.4 64.4 64.1 64.1 64.3 65.4 65.9 65.9 65.4 64.2 63.1 63.4 63.3 62.1 64 63 64.4 64.4 64.4 66.3 68.3 69 69.3 69.7 70.5 71.6 72.8 73.8 75.6 76.7 77.1 78.6 79.5 80.3 80.3 80.3 81.2 81.8 82.5 82.4 82.4 82.4 82.5 82.9 83.2 83 82.5 81.9 80.9 78.9 77.8 76.6 75.3 73.7 72.6 70.6 68.3 65.4 58.8 54.1 52.3 50.1 45.2 42.9 41.1 39.6
25.6 14.4 6.8 6.2 5.5 5.1 5.6 6.1 5 5.1 6.3 5.9 5.9 5.1 5.3 5.3 4.5 4.7 5 4.4 4.3 4.6 5.1 4.7 -2.3 -2.3 4.4 4.2 -2.3 3.5 -2.3 -2.3 4.5 4.7 4.5 4.8 5.9 5.7 6.1 6.3 5.2 3.1 2.9 2.2 1.2 0.1 -0.6 -1.3 -2.3 -2.3 -2.3 -2.3 -2.3 -2.3 -2.3 -2.3 -2.3 -2.3 -2.3 -2.3 -2.3 -2.3 2.1 1.5 0.9 1.3 1.1 1.2 1.2 3.6 4.5 5.1 5.5 5.5 5.6 4.6 4.2 4 4 4 4.1 4.4 4.6 4.9 14.5 5.9 7.2 10.8 17.5 21.1 22.6 24.9 25.1 26.5 27.5 28 29.1 31.7 35.8 38.4 39.4 42.1 44.4 47.4 49.9 52.1 53.4 53.8 55 55.7 57.4 58.4 58.3 59.7 59.3 58 56.7 59.2 56.7 56.2 57.7 58.1 57.5 58.3 59.7 60.3 58.9 61.1 60.2 60.6 61.1 61.7 61.7 62 62.6 63.3 63.6 63.6 63.6 63.7 64.5 65.2 64.7 63.1 62.1 62.4 61.9 60.7 60.8 61.5 63.3 63.3 63.1 65.4 65.9 67.9 66.7 67.7 68.1 69.4 70.5 72.5 74.9 76.9 78.3 79.2 79.6 80.6 81.2 81.7 82.3 82.8 83.6 83.7 84.1 84 84.9 84.8 84.6 84.4 84.1 83.4 82 79.5 78.4 77.3 76.9 75.9 75.9 73.8 71.6 67.8 62.8 56.5 52 48.7 47.4 45.2 45.6 42.2
20.7 8.1 6.5 6.1 5.3 5.3 5.2 5.6 5.2 4.4 5.7 5.8 5.5 4.8 4.8 5.2 5.2 5.7 3.7 3.7 4.9 5.2 4.4 3.5 -2.3 -2.3 -2.3 -2.3 -2.3 3.9 3.5 3.8 4.9 4.6 4.6 4.9 5.5 5.6 5.6 6 3.4 3.1 2.9 2 1.3 0.6 -0.1 -0.9 -1.6 -2.3 -2.3 -2.3 -2.3 -2.3 -2.3 -2.3 -2.3 -2.3 -2.3 -2.3 -2.3 -2.3 0.1 2.7 1.2 1 1 1.1 1.2 1.7 2.9 5 4.8 4 4.1 4.1 4 4.2 3.9 3.9 4.1 4.3 4.6 4.6 13.1 5.1 5.9 7.7 12.7 19.5 21.1 23.2 24.7 25.9 25.4 27.1 28.9 29.9 32.7 36.8 38.5 40 41.9 43.6 46 48.5 50.9 51.3 51.5 51.8 52.7 54.3 56 57.2 57 56.5 55.8 57.1 56.1 54.4 55.2 54.5 55.3 55.7 56.4 57.5 56.1 59.1 58.9 59.5 60.3 60.8 61.7 60.7 60.8 61.5 61.7 62.1 62.6 62.2 63 63.3 62.8 62.5 61.4 61.3 62.1 61.3 60 60.6 61.1 60.2 61.4 62.9 63.4 65.3 64.2 65.4 65.8 67.1 68.1 70.9 72.6 75.6 77.9 79.6 80.8 81.2 82.1 82.7 83.1 83.4 84.5 85.8 86.1 86.6 86.8 86.6 86.4 85.9 85 84.2 82.1 80.4 79 78.1 77.6 76.9 76.6 75.6 72.9 68.5 63.2 58.4 53.7 51.6 48.6 46.7 44.8 43.5
7.2 6.1 5.8 6.4 5.2 5.8 5.7 5.3 3.5 4.9 5.2 5.7 5.1 5.3 5.6 5.1 5.3 5.3 5.1 4.4 4.5 4.7 4.7 4.8 -2.3 -2.3 4.2 4.9 5 4.6 3.8 4.4 5.1 4.9 5.1 5.4 5.5 4.4 3.4 5.5 3.4 3.1 2.9 2.2 1.5 0.7 0 -0.7 -1.3 -2.3 -2.3 -2.3 -2.3 -2.3 -2.3 -2.3 -2.3 -2.3 -2.3 -2.3 -2.3 -2.3 -2.3 0.6 3.2 0.9 0.9 1.1 1.2 1.1 1.2 1.6 2.3 4.2 3.9 4.5 3.9 4.4 3.9 3.8 4 4.3 4.6 4.2 5.4 4.4 5.3 6.3 8.3 16.6 18.6 21.9 23.8 23.6 24.6 27.2 28.9 29.9 31 33.6 37.2 38.8 39.9 41.6 44 45.6 47.7 49.1 49.2 49.9 50.2 50.2 50.9 52.7 53.7 54.6 54.5 54.3 53.9 52.8 52.7 53.8 53.7 54.2 54.8 54.9 54.2 56 55.8 57.6 58.4 60.1 60.3 59.6 59.7 59.9 60.3 60.6 60.5 60.5 61.4 62.1 62 61.7 61.2 60.1 60 58.2 57.5 58.4 59.1 59.1 58.3 59 59.8 62.5 63.4 63.1 63 64 65.4 66.3 68.7 71.3 74.3 77.6 80.1 81.3 82.3 83.2 84.1 84.9 86.4 87.4 88 88.9 88.5 88.3 87.7 86.8 85.9 84.5 82.6 81.2 79.5 78.6 77.7 76.8 76.8 75.3 72.9 68.5 62.5 58.6 55.4 53.7 51.4 49.7 47.9 46.4
6.1 4.8 5.4 5.5 5 5.4 6.1 4.7 3.8 4.3 4.4 5 5.1 5.3 5.4 5.1 4.8 4.8 4.4 4.5 5 4.7 4.8 4.6 -2.3 -2.3 4.5 4.3 4.3 4.1 4.3 4.7 5.3 5.5 5.5 3.9 4.3 3.3 3.3 4.6 4 3.4 2.9 2.2 1.5 0.9 0.2 -0.4 -1 -1.7 -2.3 -2.3 -2.3 -2.3 -2.3 -2.3 -2.3 -2.3 -2.3 -2.3 -2.3 -2.3 -2.3 -2.3 1 3.4 1.2 1.2 0.9 1 1.1 1.2 1.3 1.5 1.6 2 1.6 1.7 1.9 3.9 4.1 4.5 4.2 5.8 5 5 5.1 5.7 7.2 12.1 18.1 20 22 23.9 26 27.2 28.1 29.5 30.4 31.3 33.4 37.4 38.2 39.7 41.5 44.1 46.5 48.6 49.4 49.6 49.3 48.8 47.9 47.9 48.8 50.2 50.1 51.3 50.9 51.1 50.1 50.7 51.1 52.5 52.9 52.9 53.4 53.7 53.7 56.2 57.7 58.7 59 59 59.3 59.5 59.7 60.2 59.5 59.3 59.3 60.2 60.2 60.6 60.3 60 59.8 59.3 58.8 56.9 57.3 57.5 56.8 57.9 58.8 61.1 61.3 60.8 61.3 61.2 62.2 62.8 65.1 67.1 70.3 73 75.8 78.8 81.4 83.2 84 85.5 86.9 87.7 88.1 88.3 88.5 88 87.5 86.7 85.8 84.1 82.4 80.8 79.5 79.1 78.1 77 76.6 75.1 71.8 67.4 62.2 58.5 56.8 54.4 53 51.2 50.9 49.7
6.1 4.6 4.1 5.2 5.9 5.7 5.9 5.7 4.7 5 5.2 4.1 4.6 5.5 5.4 5.2 5 4.5 4.7 4.7 4.8 4.7 4.8 4.7 -2.3 4.4 4.8 4.7 4.4 4.6 4.9 5.8 5.5 5.5 4.3 4.8 5.2 3.6 3.4 4.1 3.1 3 2.9 2.4 1.7 1 0.4 -0.2 -0.9 -1.5 -2.3 -2.3 -2.3 -2.3 -2.3 -2.3 -2.3 -2.3 -2.3 -2.3 -2.3 -2.3 -2.3 -2.3 -2.3 1.7 1.2 0.9 0.8 1 1.2 1.1 1.2 1.4 1.4 1.9 1.5 1.6 2 3 3.6 4.4 4.4 5.8 4.4 4.7 4.8 5.3 5.9 8.9 18.8 20.6 23.1 24.2 25.4 26.3 27.2 28.6 29.6 29.7 30.8 33 35.9 38.3 39.7 40.8 42.7 46.1 48.7 50 50.7 49.5 48.8 47.2 46.1 46.1 46.5 47.2 47.6 48.6 46.8 47 47.6 49.7 49.2 48.1 52 53.2 53 55.8 56.9 57.7 58.2 58.4 58.1 58.3 58.7 58.4 58.8 58.3 58.2 58.1 58.3 58.4 58.7 58 57.7 57.6 57.6 56.3 56.5 56 55.3 55.1 55.7 58.5 59.1 58.8 59.1 58.4 59.1 58.9 60.4 63.4 65.1 67.6 70.5 73.9 77.5 80.6 82.7 84.2 84.7 85.3 85.7 86.3 85.9 85.5 85.5 85.3 84.1 82.9 81.4 80.4 79.3 79 78.8 78.1 77.2 75.6 71.6 66 60.5 57.9 56.1 56.4 55.4 54.9 53.9 52
5.7 5 4.1 5.4 5.5 5.6 5.7 5.8 5.2 5.5 6.1 5.5 3.9 4.9 5.3 5.2 5.1 4.9 5 4.9 4.9 4.8 -2.3 -2.3 -2.3 4.8 4.8 4.9 4.7 4.8 5.7 5.5 4.3 4.5 4.5 5 5.1 4.9 3.7 3.4 3.3 3.1 3 2.5 1.8 1.2 0.6 -0.1 -0.7 -1.3 -1.9 -2.3 -2.3 -2.3 -2.3 -2.3 -2.3 -2.3 -2.3 -2.3 -2.3 -2.3 -2.3 -2.3 -2.3 -2.3 2.3 1.1 1.1 1.2 0.8 1 1.1 1.2 1.3 1.3 1.4 1.5 1.6 2.6 3.2 3.7 4.1 5.6 5 4.3 4.3 4.9 5.5 6.5 16.2 19.6 21.2 23.2 24.8 25.6 26.5 27.7 28.7 29.5 30.2 30.7 31.8 35.2 38.8 39.5 40 42 44.3 46 48.5 49.8 50.4 49.5 48.1 46.2 45 44.8 45 45.1 44.9 43.4 43.6 45.3 44.1 45.8 48.4 49.2 51.4 54.6 56.1 56.7 57.5 58.6 59.3 58.8 59 58.6 58.4 57.9 57.2 57 56.9 56.7 56.4 56 55.7 56 56.1 55.2 54.2 54.8 54.2 54.1 53.7 54.4 55.9 56.4 56.3 56 56.4 57.1 57.8 60.1 61.8 63.6 66.3 69 72.7 76.2 78.5 80.3 80.6 82.1 82.8 83.1 83.3 83 82.9 82.8 82.1 81.1 79.7 78.9 78.4 78.7 78.6 78.4 77.8 75.5 71.2 64.3 60 56.5 55.9 56.4 56.1 56.9 55.1 52.5
5.6 4.8 5.3 5 5.2 5.4 5.6 5.6 5.5 6.2 7 6.1 8 5 5.1 5.2 5 5.1 5.1 5 4.9 4.8 -2.3 4.9 4.5 5.1 4.9 4.7 4.9 5.4 5.5 4.8 4.7 4.4 4.6 5 5 4.9 4.6 4 3.7 3.3 3 2.6 1.9 1.3 0.7 0.1 -0.5 -1 -1.6 -2.3 -2.3 -2.3 -2.3 -2.3 -2.3 -2.3 -2.3 -2.3 -2.3 -2.3 -2.3 -2.3 -2.3 -2.3 0.2 3 1.2 0.8 0.7 0.9 1 1.1 1.1 1.2 1.2 1.5 2 2.2 3.3 3.5 3.2 3.5 4.7 5.1 5 5.5 7 7.9 12.3 19.7 21.6 23.1 23.8 24.6 25.7 26.8 27.9 29.3 29.5 29.9 30.5 31.5 35 38.3 39.1 39.1 40.3 41.6 43.5 44.9 45.9 47 48.6 48.6 46.7 44.6 42.5 42.7 42.9 42.3 42.1 42.9 41.2 42.6 44.3 45.3 48.1 49.9 52.2 54.1 54.6 56.5 57.2 57.9 58.5 58.3 58.1 57.6 56.8 56.8 56.5 55.7 55.5 55.1 54 54 54.1 54.1 53 52.9 52.5 52.3 52 52.6 52.6 52.8 53.7 53.1 54 54.3 54.8 58 58.9 59.8 61.2 63.3 66.9 70.3 72 73.6 75.1 77.3 78.3 79.3 79.4 79.7 79.6 79.5 79.3 79.1 77.9 77.6 77.1 77.8 77.7 76.2 75.9 73.6 69 63.5 59.3 56.5 55.3 55.2 56.2 57.5 56.9 55.3
3.7 6.8 6.3 5.2 5.1 5.3 5.4 5.3 5.8 6.6 6.6 6.4 5.5 4.9 4.9 4.9 4.9 4.8 4.4 4.2 5.2 4.9 -2.3 4.7 5.1 5.1 5 5.1 5.5 4.4 5 5.1 4.6 4.5 4.7 4.9 4.9 4.9 4.6 3.9 3.5 3.3 3.1 2.7 2.1 1.5 0.9 0.3 -0.3 -0.9 -1.5 -2.3 -2.3 -2.3 -2.3 -2.3 -2.3 -2.3 -2.3 -2.3 -2.3 -2.3 -2.3 -2.3 -2.3 -2.3 -2.3 0.9 3.4 0.5 0.6 0.8 0.9 0.9 1 1 1.1 1.3 1.8 2.1 1.8 3.3 3.6 3.5 4.3 3.9 4.8 4.8 5.1 5.9 9.2 18.5 21 21.9 23.6 24.3 25.1 26.7 27.4 28.6 29.3 29.8 30.2 30.5 31.8 33.7 36.5 39.1 39.1 38.6 39.2 40 41 42.1 43.7 44.6 45.5 45.8 44.4 42.5 39.5 41.4 41.4 41.5 40.9 40.3 41.9 42.2 44.5 46.1 47.1 50.1 50.5 52.7 53.8 55.4 55.9 56.5 57.1 57.1 56.8 56.6 56.4 55.8 55.3 54.8 54.4 52.9 53 52 51.6 52 52 51.6 50.7 51.1 51.2 50.1 51.1 50.4 50.1 51.2 53.8 55.2 56.2 57 58 59.1 60.9 62.7 64.6 67.2 69.1 70.7 72.8 74.9 74.1 74.8 75.6 75.8 75.4 75.2 74.4 74 74.8 75.2 75.1 74.2 72.6 69.9 66.3 61.7 58.4 55.7 54.6 53.4 54.5 55.3 55.2 55
7.2 7.1 6.9 6.4 5.5 5.2 5.2 5.3 5.6 6.9 6 5.8 5.9 3 4.5 4.7 4.7 3.9 3.5 3.4 5 -2.3 -2.3 4.5 6.6 4.9 4.9 5.5 3.7 5.1 5 5.2 4.8 4.7 4.8 4.8 4.8 4.8 4.5 3.5 3.4 3.2 3 2.7 2.1 1.6 1 0.4 -0.2 -0.7 -1.3 -1.9 -2.3 -2.3 -2.3 -2.3 -2.3 -2.3 -2.3 -2.3 -2.3 -2.3 -2.3 -2.3 -2.3 -2.3 -2.3 -2.3 1.6 0.5 0.5 0.7 0.7 0.8 0.8 0.9 1.4 1.3 1.2 1.4 1.8 2.5 3.3 3.3 3.6 4.8 4.3 5.2 5.2 6.1 8.5 17.6 20.3 22 23.6 23.7 24.9 25.4 27.5 29.1 29.6 29.8 30.2 30.9 30.6 31.5 32 34.5 37.2 38.1 38.2 38 37.5 37.7 39 39.2 39.4 39.7 41 40.5 38.1 41.1 41 40.9 40.6 38.3 39.7 40 40.8 41.8 42.7 44.6 45.9 48.2 49.1 50.4 52.8 53.5 54.1 54 54.6 55 55.4 55.4 55.1 54.6 53.9 53.3 52.6 52.2 51.3 50.3 50 49.7 49.4 51 51.3 49.6 48.3 50.2 50.3 49.7 49.9 50.3 52.6 54.6 55.5 56.6 56.7 57.3 59.2 62.1 64.4 67.5 69 70.6 69.6 69.3 69.9 69.8 70.8 70.5 70.1 70.5 71.5 71.8 72 71.4 70.3 66.6 62.9 59.1 57 54.2 53.4 51.3 52.5 54.1 52.4 54.2
6.8 6.8 6.6 6.2 5.8 5.8 5.6 5.9 5.7 6.1 6.2 6 5.8 4.7 5 4.4 4.7 5.2 4.9 4.7 4.7 -2.3 5.1 5.2 5.1 10.5 5.5 4.9 5 4.6 5.2 5.3 5.1 4.8 4.8 4.6 4.5 4.6 4.6 3.9 3.4 3.3 3.2 2.8 2.2 1.6 1.1 0.5 -0.1 -0.6 -1.2 -1.7 -2.3 -2.3 -2.3 -2.3 -2.3 -2.3 -2.3 -2.3 -2.3 -2.3 -2.3 -2.3 -2.3 -2.3 -2.3 -2.3 -0.3 2.3 0.8 0.5 0.6 0.7 0.7 0.9 1.5 1.4 1.2 2.4 2.1 2.6 3.7 3.8 3.9 5.4 5.1 5.6 6.8 12.7 17.7 21.2 22.2 23.9 24.8 25.8 26.5 26.8 28.6 28.5 28.9 30.7 31.4 30.7 30.6 30.9 30.8 31.6 32 33.9 34.6 36.7 36.5 36.8 37.7 37.7 37.9 37.4 37.3 35.9 36.8 38 38.4 37.9 37.5 36.9 37.6 38.9 38.6 39.1 39.9 40.6 41.8 43.4 44.8 46.1 47.3 48.7 49.8 50.9 51.2 51.7 52.6 53.3 53.2 53 52.6 52.3 51.9 51.8 51.1 50 48.8 47.5 47.2 49.7 49.8 50.4 48.2 48 50.8 51.4 51.4 50.9 48.4 52.1 53.8 53.9 54.2 54.2 55.3 57.1 60.1 64.6 65.6 67.3 66.8 66 65.2 66.1 66.5 66.4 66.4 66.5 67.4 68.1 68.7 68.1 66.8 64.2 59.7 57 52.4 50.2 50 42.5 40 44.3 46.1 48.3
6.7 6.6 6.6 6.2 6.1 6.3 5.8 5.7 6.2 6 6.3 6.1 5.7 5.2 5 5.1 5.1 5.3 5.4 5.1 4.6 3.9 5.3 5.3 4.3 5.4 8.1 4.8 5 5.2 5.3 5.4 4.9 4.7 4.8 4.7 4.5 4.4 4.2 3.6 3.7 3.4 3.1 2.8 2.3 1.7 1.1 0.6 0 -0.5 -1.1 -1.6 -2.3 -2.3 -2.3 -2.3 -2.3 -2.3 -2.3 -2.3 -2.3 -2.3 -2.3 -2.3 -2.3 -2.3 -2.3 -2.3 -2.3 0.3 2.9 0.7 0.7 0.9 1.1 1.3 1.4 1.6 1.5 0.6 1.8 2.6 2.9 4.5 4.6 5.5 6.3 15.7 17.8 19.6 20.1 20.6 22.3 23.7 24.9 24.9 24.8 25.1 25.4 25.9 25.9 29.2 29.8 30.2 30.3 30.5 30.4 30.4 30.7 30.9 31.7 32.5 33.1 34.2 34.8 34.2 34 34.8 35.4 31 34.7 35.3 35.8 35.9 35.8 35.4 35 36.7 36 36.7 37.3 37.8 39.2 40.2 41.1 42.2 43.7 44.6 45.5 45.5 47 48 49.5 50.2 50.8 51.2 50.8 50.6 50.3 50 49.3 48.6 47.7 47.4 45.4 49.3 49.3 50 49.1 45.9 50 51.9 53 50.9 48 51.4 52.7 52.2 51.4 52 53.4 54.2 56.6 61.4 62.9 63.9 63.2 61.9 62.5 63.1 62.9 62.9 62.8 62.5 63.3 64 64.8 64.2 62.9 60.4 55.6 41.3 34.7 27.8 28.3 27.2 26 27.1 27.9 25.1
6.5 6.4 6.3 6.1 5.4 5.6 5.5 5.8 6.1 6 6.4 6.3 6.2 6.1 5.9 5.6 5.3 5.5 5.4 5.3 4.9 4 5 4.2 5.6 8.5 5 5.1 5.2 5.3 5.4 5.2 4.7 4.7 4.9 4.7 4.6 4.4 4.4 3 3 3 3 2.8 2.3 1.7 1.2 0.7 0.1 -0.4 -1 -1.5 -2.1 -2.3 -2.3 -2.3 -2.3 -2.3 -2.3 -2.3 -2.3 -2.3 -2.3 -2.3 -2.3 -2.3 -2.3 -2.3 -2.3 -2.3 0.9 3.4 0.5 0.7 1.2 0.8 0.8 1.1 1.8 1.7 2 2.5 2.9 3.9 5.5 5.3 6.9 8.2 9.4 18.1 18 17.5 20.2 21.4 21 21.5 23 23.7 24.1 23.9 24 24.8 25.1 27.1 28.2 29.1 28.9 29.3 28.9 29.8 29.6 30.2 29.7 29.9 30.3 30.6 30.4 30.7 30.4 30.6 33.5 33.7 33.9 33.9 34.2 32.4 35.2 35.3 35 35.1 34.8 35 35.9 37 38.8 39.9 41.2 41.9 42.9 44 45.7 46.7 48.6 48.9 49.2 49.4 49.3 49.1 48.7 48.2 47.4 46.4 45.2 44.6 43.5 46.3 47.2 47.5 48.3 44.1 47.8 50.9 51.6 51.9 46.6 51.3 52.3 51.9 50.5 50.8 50.5 50.8 52.8 57 60.2 59.5 59.5 58.7 59.1 58.9 58.9 59.5 60 59.6 59.7 60.1 60.8 60.4 58.8 53.6 40.6 23.1 16.5 12.9 12.7 10 9.9 11 10.3 9.4
6.3 6.2 6.1 6.1 6.3 5.9 5.7 5.9 6.2 6.2 6 6.2 6.4 6.2 6 5.9 5.6 5.6 5.5 5.4 5.2 4.4 5.3 5.6 5.4 4.8 5.2 5.2 5.3 5.4 5.4 5 4.5 4.8 4.9 4.8 4.7 4.7 4.8 3.6 3 3 3 2.9 2.4 1.8 1.3 0.7 0.1 -0.4 -1 -1.6 -2.2 -2.3 -2.3 -2.3 -2.3 -2.3 -2.3 -2.3 -2.3 -2.3 -2.3 -2.3 -2.3 -2.3 -2.3 -2.3 -2.3 -2.3 -2.3 1.6 2.6 0.8 1.3 1 1.7 4.4 5.3 5.5 4.7 3.5 4.6 5.6 5.1 5.5 7 6.4 6.8 7.8 12.9 14.7 17.2 18.2 18.5 18.7 21.2 21.9 22.6 23.2 22.5 21.9 22.4 22.7 23.7 25.8 25.8 27.6 27.5 27.4 26.7 26.4 24.6 23.2 24.3 24.8 25.9 26.2 24.6 28 29 29.8 30.2 31.5 29.3 32.1 34.3 34.7 34.6 34.5 34.2 33.9 33.9 34 35.6 36.1 38.8 39.7 41.2 42.4 43.6 44.5 45.7 46.4 46.7 47.2 47.2 47.2 47 46.2 45.3 44.2 43 41.8 41.4 43 42.3 42.9 44.5 40.8 44.4 46.7 48.2 48.8 45.2 48.7 49.8 49.6 49 47.9 46.8 46.2 47.8 52 55.9 55 54.9 54.9 52.1 52.6 54 54.8 54.8 55.4 55.7 55.8 56.3 52.6 46.5 38 25.1 12.6 7.5 5.6 5.1 4.3 4.3 4.6 4.8 4.3
6 6 6.1 6.4 6.4 6.1 5.8 5.9 6 6.9 6.7 6.6 6.5 6.3 6.2 6 5.8 5.8 5.7 5.6 5.3 5.5 5.2 4.9 5.1 5.3 5.3 5.3 5.4 5.5 5.2 4.7 4.7 4.8 5 4.9 4.8 4.7 4.5 3.8 3 3 3 3.8 2.4 1.8 1.2 0.7 0.1 -0.5 -1.1 -1.6 -2.2 -2.3 -2.3 -2.3 -2.3 -2.3 -2.3 -2.3 -2.3 -2.3 -2.3 -2.3 -2.3 -2.3 -2.3 -2.3 -2.3 -2.3 -2.3 -0.2 2.2 2.8 1.4 4.9 5.3 5.6 5.8 5.6 4.7 3.2 2.8 2.7 3.3 6.4 7 5.7 6.2 6.3 7.4 12 14.5 15 14.3 16.9 18.4 20.3 21.4 22.1 21.9 20.4 20 20 20.7 20.4 21.5 22.6 21.9 21.5 22.4 21.3 18.4 15.4 16.9 18.2 19.7 20.6 18.9 22.7 24.4 25.6 26.2 26.8 25.8 30.2 32.1 32.5 32.8 33.4 33.4 33.2 34 33.6 33.2 34.5 35.6 37.9 38.8 40 40.9 42 42.5 42 40.8 41.2 41.5 41.5 43.2 42.8 42.1 41.3 40.8 39.7 39.4 39.8 39.9 39.1 38.5 36.5 40.3 41.7 43.7 43.7 42.8 43 44.6 44.6 44.5 44.2 43.4 41.6 41.9 46 49.7 50.2 48.1 50.3 48.8 49.3 49.2 50.3 50.7 50.3 50.9 51.5 46.6 41.1 24.3 16.3 7.7 4.9 4.7 4.8 5.4 5.3 5.2 5.7 5.1 6
6.1 6.3 6.4 6.7 6.5 6.2 6.1 6 6.1 6.8 6.7 6.6 6.5 6.3 6.2 6 6 5.9 5.7 5.8 6.2 5.6 5.1 4.9 5 4.8 5.2 5.5 5.5 5.4 5.1 4.8 4.9 5.2 5.1 4.9 4.8 4.6 4.5 3.3 3 3 3 3 2.6 2 1.4 0.7 0.1 -0.5 -1.1 -1.7 -2.3 -2.3 -2.3 -2.3 -2.3 -2.3 -2.3 -2.3 -2.3 -2.3 -2.3 -2.3 -2.3 -2.3 -2.3 -2.3 -2.3 -2.3 -2.3 -2.3 0.3 2.5 1.8 5.5 2.3 5.4 5.7 4 3.8 1.8 1.8 1.8 2.6 6.7 4.8 3.9 3.8 6.1 6.2 6.4 10.9 11.1 11.3 14.9 16.8 18.4 18.8 20.2 21.1 20 17.8 16.5 16 16.4 16.8 17.1 14.7 13.6 13.2 13.3 14.1 13.9 13.5 15.2 16.9 16.9 16 16.3 18.1 20.6 22.6 23.4 23.1 26.3 28.4 29.9 30.7 31.5 31.2 31.5 32.8 33.1 33.1 32.9 34.1 34.9 35.8 36.4 37.1 36.9 36.8 36.2 35.3 35.1 35.6 36.6 38.3 38.1 38.2 39.1 39.4 38.9 37.4 36.7 38.8 38.5 36.9 32.5 36.3 38.8 39.6 40 38.8 38 39.2 39.1 39.3 40.3 39.3 37.8 36.7 38.9 42.1 42.9 41.9 39.2 40 38.9 37 31.3 38.2 44.7 42.2 40.2 37 30.6 12.8 6.3 5 5.1 5.4 5 4.8 5 5.3 5.6 5.3 5.7
6.3 6.6 6.8 6.9 6.7 6.7 6.6 6.2 6.4 6.7 6.7 6.5 6.5 6.3 6.2 6 6.2 5.8 5.9 6.8 5.9 4.6 4.8 5.1 4.8 4.4 4.8 5.1 5.5 5.5 5.4 4.9 5.3 5.2 5.1 5 4.9 4.7 4.7 3.4 3 3 3 3 2.6 1.8 1.2 0.6 0 -0.6 -1.2 -2.3 -2.3 -2.3 -2.3 -2.3 -2.3 -2.3 -2.3 -2.3 -2.3 -2.3 -2.3 -2.3 -2.3 -2.3 -2.3 -2.3 -2.3 -2.3 -2.3 -2.3 -2.3 0.6 2.6 3.1 1.3 5.1 4 4.9 1.6 1.4 1.4 1.6 1.9 2.8 3.5 3.1 3.5 3.5 3.4 6 6.2 9.2 8.2 11.3 13.9 15.1 16.7 17.3 18 17.7 16.4 14.8 13.3 13.5 13.2 11.8 12.6 10.2 9.4 8.7 9.1 10.3 10.9 14.4 15.4 16.2 15.5 12.7 13.4 15.6 17.6 19.1 21.8 23.9 24.9 26.8 28.7 29.8 30.1 30.4 31.2 31.1 31.8 31.8 32.2 33.4 32.7 31.6 31.8 32.7 31.7 32.8 32.7 33.1 33.6 33.5 33.9 33.9 34.3 35 35.9 36.5 35.6 35.8 37.2 37.3 35.5 31.1 34.2 35.2 36.1 35 35.2 34 34.9 35.8 36.4 35.9 35.3 34.7 33.5 34.2 34.8 34.5 32.6 30.4 28.5 23.6 18.6 14.4 15 24.6 29.9 25.5 19.4 5.8 5 5 5.3 4.9 5 4.6 4.9 5 5.2 5.6 5.5 5.1
6.2 6.6 6.9 7.2 7.1 7.1 7 6.4 5.8 6.5 6.4 6 5.8 6.2 6.2 6 6.2 4.5 7.3 5.9 5.1 4.7 4.9 5.2 4.7 4.2 4.5 4.9 5.3 5.3 5.2 5.1 5 5 5 5 5 4.7 4.2 3.8 3.3 3 3 3 2.9 1.7 0.8 0.1 -0.5 -1.1 -1.7 -2.3 -2.3 -2.3 -2.3 -2.3 -2.3 -2.3 -2.3 -2.3 -2.3 -2.3 -2.3 -2.3 -2.3 -2.3 -2.3 -2.3 -2.3 -2.3 -2.3 -2.3 -2.3 -2.3 0.7 2.6 1 1.7 1.5 3.2 2 1.1 1.1 1.7 2 1.8 2 2.4 3.5 3.9 4 4.1 5.2 6.4 6.8 8.5 10.9 13.7 14.8 15.1 15.4 16.1 14.3 13 12.7 12.8 12 9.9 7.2 5.5 4.5 4.4 5.5 5.6 7.3 13.5 10.7 12.1 13.5 13 9.8 10.4 12.8 16.3 19.1 21.1 23.1 24.4 25.6 27.3 28.4 29.4 29.6 30.4 31.2 31.5 31.1 30.9 30.9 30.8 30.3 30.4 30.2 30.8 31.8 32.2 32.5 32 31.4 31.5 31.9 32 33.3 34 33.2 33.6 35.4 35.3 35.4 33.9 28.1 32.6 32.9 32.2 31 31.4 31.8 32.3 32.8 33 33 31.8 31.1 29.8 28.9 27.8 24.3 20.8 16.3 12.4 7.1 4.4 5.2 6.3 10.3 8.4 5.1 4.7 5.7 5.2 5.2 4.7 4.5 4.6 4.9 5.1 5.1 5.6 5.8 5.6
6.5 6.4 6.8 6.9 6.6 6.2 6.5 6 6.3 6.6 6.2 6.1 6.1 5.8 5.4 6 7.5 9.1 5.9 5.4 5.1 4.8 4.9 5.3 5.1 5.2 4.9 4.8 4.5 4.8 5 4.1 4.2 5.2 5.2 5.1 4.7 4.8 4.3 4.2 3.7 3 3 3 3 1.8 0.6 -0.5 -1.1 -1.6 -2.3 -2.3 -2.3 -2.3 -2.3 -2.3 -2.3 -2.3 -2.3 -2.3 -2.3 -2.3 -2.3 -2.3 -2.3 -2.3 -2.3 -2.3 -2.3 -2.3 -2.3 -2.3 -2.3 -2.3 -2.3 0.6 2.5 1.4 2.3 3.4 1.6 1.1 0.9 1.5 1.7 2 2.1 3.5 3 3 3.5 4.2 4.4 5.6 6.4 7.1 8.5 10.3 11.3 12.2 13.5 14.1 14 13.1 12.7 13.2 11.2 6.3 4.2 3.9 3.8 3.8 3.5 3.6 4.1 8 5.7 8.2 9.4 10.2 5.7 6.2 9.3 11.2 14.8 18.2 18.9 22 24.1 17.3 19.9 25.6 28.6 29.2 30.4 30.7 30.5 30.6 30.1 30 29.8 30 29.8 30.3 31.2 31.5 31.6 31.2 30.7 30.3 30 29.9 31.6 31.1 31 31.7 32.5 32.8 31.7 31 19.7 29.8 30 29.5 27.6 29.4 30 28.6 28 26.8 28.2 27.6 28 27.6 22.5 21.8 15.9 10.7 8 4.2 4.3 4.6 4 4 4.8 3.9 3.9 5.1 4.7 4.8 5.2 4.9 4.5 4.7 4.9 5.2 4.7 5.3 5.6 6.4
6.5 6.5 6.7 6.9 6.5 6 6.4 6.4 6.4 7.2 7 7.1 5.8 6.2 5.8 10.8 11 6.3 5.1 5.5 5.2 5 4.8 5.1 5.2 4.7 4.5 5 3.8 4.9 5 5 5.2 5.2 5.2 5.1 4.6 4.6 4 4.2 4.2 3 3 3 3 1.9 0.1 -2.3 -2.3 -2.3 -2.3 -2.3 -2.3 -2.3 -2.3 -2.3 -2.3 -2.3 -2.3 -2.3 -2.3 -2.3 -2.3 -2.3 -2.3 -2.3 -2.3 -2.3 -2.3 -2.3 -2.3 -2.3 -2.3 -2.3 -2.3 -2.3 0.5 2.4 1.6 2.6 1.6 0.9 0.9 1.2 1.3 1.7 1.3 2.7 3.1 2.9 2.9 3.1 3.6 4 5.5 6.8 6.1 7.4 9.9 10.8 11.6 12.2 13 12.9 13.1 11.4 8.2 4.8 4.3 3.6 3.4 3.2 3 2.9 3.5 4 5.9 8 8.3 8.6 4.3 4.9 5.8 8.6 9.9 11.5 14.5 18.4 17.8 16.4 16 15.9 20.3 29.1 29.3 29.9 29.5 30.2 30 29.3 28.9 29.2 29.6 30.3 30.5 30.7 30.7 30.6 30.1 29.8 29.5 28.8 27.6 27.3 28.1 29.8 30.3 31.4 30.6 18.3 10 11.1 18.9 20.9 18 26.4 26 19.9 19.1 18.2 9 11.2 12.2 13.4 14.2 9.7 6.5 4.7 4.2 4.1 3.9 4.4 3 3 4.4 4.4 4.7 4.6 5.4 5 4.7 4.9 5 4.6 5.4 4.9 5.1 7 10.6 13.1
6.7 6.6 6.5 6.6 5.9 6.2 6.5 6.6 6.2 6.8 6.8 7 6.3 9 12.2 11.4 6.5 6 5.4 5.1 5.3 5 4.9 4.9 4.6 6.1 5.2 5.1 4.9 4.9 5 5.1 4.9 5.1 5.3 4.8 4.8 5.2 4.5 3.6 3.9 3 3 3 3 -2.3 -2.3 -2.3 -1.3 -1.4 -1.7 -2 -2.3 -2.3 -2.3 -2.3 -2.3 -2.3 -2.3 -2.3 -2.3 -2.3 -2.3 -2.3 -2.3 -2.3 -2.3 -2.3 -2.3 -2.3 -2.3 -2.3 -2.3 -2.3 -2.3 -2.3 -2.3 0.4 2.3 3.4 1 0.9 0.9 0.9 1.6 1.8 2 2.1 2.6 2.9 3.1 3 3.3 3.9 5.1 5.5 5.6 6.7 8.7 9.8 10.8 12.4 12.7 12.8 12.1 8.6 6.5 4.6 4.4 3.4 3.2 2.9 2.8 2.7 2.7 2.8 4.6 7.4 6.6 7.2 6 3.9 5.4 5.8 6.2 6.9 10.8 13.9 15.5 15.3 14.7 15.1 26.3 26.7 28.5 29 29.8 29.6 29.8 28.5 28.8 29 29.2 29.5 29.7 30 29.7 29.4 29.3 29.2 28.5 26.6 21.5 20.3 25.5 28.3 28.4 28.5 27.5 9.3 5.3 5.9 6 7.3 8.2 13.6 12.7 5.3 4.7 4.6 4.8 4.8 5.9 8.2 5.4 4.5 4.2 4.2 4.5 4.4 4.2 2.9 2.9 3.3 4.1 2.9 2.9 2.9 2.9 2.9 4.9 4.9 4.4 5.1 5.1 6.1 10.7 13.2 14.5 15.3
6.9 6.8 6.1 6.1 6.1 6.3 6.6 6.8 6.1 7.2 7.2 7.2 14.2 14.2 10.5 6.4 5.6 6.1 5.6 4.9 5.1 4.8 4.9 5.3 5.2 5.3 4.8 5.2 5.1 4.9 4.9 4.4 4.8 4.8 4.6 4.5 4.6 4.5 4.1 3.2 4.4 3 3 4.4 -2.3 4.9 0.4 0.1 -0.4 -0.7 -1 -1.3 -1.6 -1.9 -2.2 -2.3 -2.3 -2.3 -2.3 -2.3 -2.3 -2.3 -2.3 -2.3 -2.3 -2.3 -2.3 -2.3 -2.3 -2.3 -2.3 -2.3 -2.3 -2.3 -2.3 -2.3 -2.3 -2.3 0.4 2 3.3 0.8 0.9 1.8 1.9 1.9 1.3 1.9 2.5 2.6 2.9 3.2 3.2 3.5 4.2 6.5 5.6 6.3 8.6 9.8 10.9 12.9 12.8 12.5 9.5 6.5 5 4.5 4.1 3.2 3 2.7 2.5 2.5 2.4 3 4.4 6.1 4.8 3.9 3.9 3.5 3.4 3.7 4.8 4.2 8.8 10.8 11.9 14.2 14.3 14.4 24.9 26.2 26.8 27.8 29.8 29.6 28.2 27.8 28.4 29.1 28.5 28.8 28.8 29 28.3 25.1 21.1 20 23.9 18.7 15.2 24.8 28.3 12.5 12.5 9.4 7.5 5.4 4.6 4.7 4.6 4.7 5.3 4.9 5.4 4.7 4.7 4.7 4.7 4.7 4.8 4.7 5.1 4.9 4.7 4.4 4.5 4.7 3.8 2.9 2.8 2.7 2.9 2.9 2.9 2.9 2.9 2.9 2.9 4.7 4.3 4.6 8.3 12.5 14.4 15.6 16.2 16.2
6.4 6.5 6.6 6.1 6.7 6.6 6.7 6.9 7.4 8.3 15.2 15.5 14.2 10.1 6.5 5.4 5.4 6.3 6.2 5.8 4.9 5.1 4.9 4.8 5 4.6 5.1 5.2 5.1 5 4.8 4.6 4.6 4.6 4.8 4.6 5 5 4.4 2.7 3.5 3.6 1.9 2.4 2.3 3.4 1.8 0.8 0.4 0.1 -0.2 -0.5 -0.8 -1.1 -1.4 -1.9 -2.3 -2.3 -2.3 -2.3 -2.3 -2.3 -2.3 -2.3 -2.3 -2.3 -2.3 -2.3 -2.3 -2.3 -2.3 -2.3 -2.3 -2.3 -2.3 -2.3 -2.3 -2.3 -2.3 0.2 1.6 3 2.4 0.9 1.2 1.9 1.7 1.8 2.2 2.2 2.6 2.9 3.2 4.3 5.2 6.2 6.1 8.1 9 10.3 11.2 12.9 12.3 12.1 8.7 5.7 4.6 3.9 3.7 3 2.7 2.5 2.4 2.4 2.3 3.8 4.9 4.1 4.4 3.5 3.2 2.9 3.1 3.6 4.3 4.2 6.4 9.1 8.6 14.2 13.9 14.5 22.2 24.2 24.9 26.6 27.3 28.2 26.2 26 26.6 26.1 25.7 26.1 25.7 25.7 19 11.4 8.5 9.9 12.4 7 6.5 14.3 13.3 6.3 4.9 3.8 4.6 2.9 2.9 2.8 2.7 2.7 2.7 2.7 2.7 2.7 2.8 2.8 2.9 4.2 4.9 5.2 4.5 4.7 3.6 2.9 2.8 2.7 2.6 2.5 2.5 2.4 2.6 2.8 2.9 2.9 2.9 2.9 2.9 2.9 4.4 8.6 12.3 14.4 16.2 16.2 16.2 16.2
6.8 7.5 6.5 6.9 8.2 10.4 10.9 13.9 14.8 15.1 10.6 10.8 9.4 6.6 6.5 6.4 5.9 5.7 5.3 5.3 5.2 5.1 5 4.9 4.8 4.5 5.2 5.3 5.2 5 4.6 4.9 4.8 4.5 4.6 4.8 4.8 5.1 4.7 3.6 2.9 2.7 2.2 2.2 2.2 2.8 2.5 1.4 1.1 0.8 0.5 0.2 -0.2 -0.7 -1.2 -1.7 -2.3 -2.3 -2.3 -2.3 -2.3 -2.3 -2.3 -2.3 -2.3 -2.3 -2.3 -2.3 -2.3 -2.3 -2.3 -2.3 -2.3 -2.3 -2.3 -2.3 -2.3 -2.3 -2.3 -2.3 -0.3 1.1 2.4 3.3 1.2 1.5 2.2 1.8 1.9 1.9 2.2 2.5 3.8 4.5 6.1 6 7.7 10.9 12.4 13.6 13.6 12.6 13.2 12.5 10.3 7 4.5 4.1 3.4 2.7 2.4 2.3 2.8 2.9 4.2 2.4 0.1 0.1 0.1 1.7 3.7 4.1 3.1 3.4 3.3 4.6 7.7 9 11.2 12.3 11.8 13.2 18.6 21.2 23.2 24.6 24.7 24.5 21.8 24.1 22.3 22.2 19.7 19 19.5 13.8 5.3 4.5 4.6 6.3 4.5 4.2 4.4 4.7 5.2 4.6 2.8 2.7 2.6 2.6 2.5 2.4 2.4 2.4 2.4 2.3 2.3 2.3 2.4 2.4 2.5 2.6 2.7 2.7 2.7 2.6 2.6 2.5 2.4 2.3 2.2 2.2 2.1 2 2.3 2.5 2.7 2.9 2.9 2.9 2.9 2.9 5.2 9.8 13.5 15.5 16.2 16.2 16.2 16.2
7.9 9.3 11.5 12 12.8 13.1 13.7 13 11.9 11 7.6 8.2 7.2 6.2 6 6 6 5.9 5.6 5.4 5.3 5.2 5.2 5.1 5 5 4.8 5.3 5.2 4.9 4.5 5.1 4.7 4.9 4.6 5.4 5.6 5.3 4.5 3.7 3.4 2.9 2.2 2.1 2.1 2.1 3.3 2.2 1.9 1.4 1 0.5 0 -0.5 -1 -1.6 -2.3 -2.3 -2.3 -2.3 -2.3 -2.3 -2.3 -2.3 -2.3 -2.3 -2.3 -2.3 -2.3 -2.3 -2.3 -2.3 -2.3 -2.3 -2.3 -2.3 -2.3 -2.3 -2.3 -2.3 -2.3 -0.8 0.6 1.9 3 2.8 1.7 1.8 1.6 1.6 1.9 3.2 4.1 4.7 6.1 6.1 11.2 10.9 13 13.6 15.3 15.3 14.6 13.6 11.6 9.6 5.4 3.8 3.2 2.9 3.2 2.7 4.6 0.3 0.1 5.6 5.7 5.7 5.7 4.9 2.8 0.1 0.1 2.6 3.4 5.5 5.9 5.7 7.4 9.1 9.1 10.3 13.8 18.2 20.4 21.9 15.6 9 4.5 4.2 4.8 7.7 11.8 13.2 11.9 5.4 4.1 2.7 3.9 4.2 4.5 4.6 2.9 2.8 2.6 2.5 2.4 2.3 2.3 2.2 2.1 2 2 2 2 1.9 1.9 1.9 2 2 2.1 2.2 2.2 2.3 2.3 2.2 2.1 2.1 2 1.9 1.9 1.8 1.7 1.7 1.9 2.2 2.4 2.6 2.9 2.9 2.9 2.9 2.9 8.1 13.5 15.7 16.2 16.2 16.2 16.2
9.3 9.7 9.2 6.5 6.9 7 6.7 6.9 6.8 7.7 8 7 6.3 6 6.1 6.1 6.1 6.1 5.8 5.5 5.6 5.6 5.5 5.4 5.4 5.4 4.3 5.3 5.3 4.5 4.3 4.8 5 4.9 4.9 4.7 5 4.2 4.1 3.9 3.3 2.9 2.5 2.1 2.1 2.1 2.4 2.6 2.1 1.6 1.1 0.6 0 -0.6 -1.1 -1.7 -2.3 -2.3 -2.3 -2.3 -2.3 -2.3 -2.3 -2.3 -2.3 -2.3 -2.3 -2.3 -2.3 -2.3 -2.3 -2.3 -2.3 -2.3 -2.3 -2.3 -2.3 -2.3 -2.3 -2.3 -2.3 -2.3 -2.3 0.1 1.3 2.5 3.5 2.4 2 1.8 1.8 2.8 4.1 4.7 5.1 6.7 10.3 10.1 10.5 13.7 16 16.9 15.2 13.6 11.6 6.6 3.9 3.2 4.1 3.3 3.9 0.1 0.1 5.3 5.6 7.3 7.4 7 7.4 7 8.8 6.2 5.2 2.5 0.1 1.9 4.3 4.7 7.2 6.7 6.5 6.4 6.5 9.5 17.7 11.8 3.9 3.5 3.2 3.5 3.7 4.5 7.8 8 5.7 4.8 3.9 4.3 3.8 2.8 2.7 2.4 2.3 2.2 2.1 2.1 2 1.9 1.9 1.9 1.7 1.7 1.6 1.6 1.6 1.5 1.5 1.5 1.6 1.6 1.7 1.8 1.8 1.8 1.8 1.8 1.7 1.7 1.6 1.5 1.5 1.5 1.4 1.4 1.6 1.8 2.1 2.3 2.5 2.8 2.9 2.9 2.9 6 13.3 15.8 16.2 16.2 16.2 16.2
7.3 7.1 7.1 7 7 6.7 6.5 6.8 6.7 6.5 7.2 6.5 6.2 6 6 6.1 6.1 6.2 5.9 5.4 5.9 5.9 5.9 5.8 5.5 5.2 5.3 5.4 4.6 4.7 5 4.7 4.9 4.3 4.2 4.3 4.9 4.6 4.3 3.3 3 2.9 2.8 2.2 2.2 2.3 1.9 2.8 2.3 1.7 1.1 0.5 -0.1 -0.7 -1.3 -1.9 -2.3 -2.3 -2.3 -2.3 -2.3 -2.3 -2.3 -2.3 -2.3 -2.3 -2.3 -2.3 -2.3 -2.3 -2.3 -2.3 -2.3 -2.3 -2.3 -2.3 -2.3 -2.3 -2.3 -2.3 -2.3 -2.3 -2.3 -2.3 -0.4 0.8 2 3.1 2.2 2.8 2.8 3 2.6 4 4.8 5.3 10.3 9.3 8.9 9.6 15.8 15.5 14.1 13.4 9.9 4.6 4.9 3.6 4.7 0.1 0.1 5.5 5.5 5.3 7.6 7.6 8.4 7.1 8 8 8 8 7.9 5.4 5.6 0.1 3.4 4.6 8.2 5.4 5.1 4.9 5.4 6.7 6.5 3.3 4.6 2 2.7 3.2 3.6 2.8 -2.3 -2.3 2.7 2.4 2.6 2.3 2.2 2 2 1.8 1.7 1.6 1.6 1.6 1.6 1.6 1.5 1.5 1.4 1.3 1.2 1.2 1.2 1.1 1.1 1.1 1.2 1.2 1.3 1.4 1.4 1.4 1.4 1.4 1.3 1.3 1.2 1.1 1.1 1.1 1 1 1.3 1.5 1.8 2 2.2 2.5 2.7 2.9 2.9 5.2 12.6 15.6 16.2 16.2 16.2 16.2
7.3 7.1 7.1 7.1 6.9 6.7 6.5 6.5 6.5 6.4 6.7 6.4 6.2 6 5.9 6 6 6.2 6 5.7 5.9 6.1 5.8 5.7 5.3 5 4.7 5.3 5.1 4.9 5.2 4.7 5 4.9 4.7 4.8 4.8 4.1 4.3 3.2 3 2.9 2.8 2.4 2.3 2.3 1.9 2.9 2.2 1.6 1 0.4 -0.2 -0.8 -1.4 -2 -2.3 -2.3 -2.3 -2.3 -2.3 -2.3 -2.3 -2.3 -2.3 -2.3 -2.3 -2.3 -2.3 -2.3 -2.3 -2.3 -2.3 -2.3 -2.3 -2.3 -2.3 -2.3 -2.3 -2.3 -2.3 -2.3 -2.3 -2.3 -2.3 -0.9 0.2 1.4 2.6 1.7 3.2 2.2 2.1 3 4.4 4.6 7.5 6.7 6.2 7.5 8.8 8.1 6.9 5.4 3.8 4.1 4.4 4.7 4.7 4.5 5.6 5.5 5.2 5.1 7.9 8.3 8.6 8 8 8 8 8 8 8 7.5 6 0.1 3 7.6 4.6 4.4 4.4 4.3 4.6 2.5 4.7 0.1 0.1 0.1 0.1 -2.3 4.4 2.1 -2.3 -0.4 0.9 1.5 1.3 1.3 1.2 1.4 1.2 1.1 1.1 1.1 1.1 1.2 1.2 1.1 1.1 1 0.9 0.8 0.8 0.8 0.8 0.7 0.7 0.8 0.8 0.9 0.9 1 1 1 0.9 0.9 0.9 0.8 0.8 0.8 0.7 0.7 0.7 1 1.2 1.4 1.7 1.9 2.1 2.4 2.6 2.8 4.7 11.8 15.2 16.2 16.2 16.2 16.2
7.3 7.2 7.1 6.8 6.8 6.7 6.6 6.4 6.4 6.4 7.1 7.1 6.8 6.1 5.9 5.8 6.3 6.1 6 5.8 5.3 6 5.9 5.6 5.3 5 4.9 5.4 5.3 5 4.8 5 5 4.7 4.3 4.7 4.7 4.2 3.6 3.2 3.4 3.1 2.9 2.6 2.4 2.1 1.9 3.5 2.4 1.7 1 0.4 -0.3 -0.9 -1.5 -2.3 -2.3 -2.3 -2.3 -2.3 -2.3 -2.3 -2.3 -2.3 -2.3 -2.3 -2.3 -2.3 -2.3 -2.3 -2.3 -2.3 -2.3 -2.3 -2.3 -2.3 -2.3 -2.3 -2.3 -2.3 -2.3 -2.3 -2.3 -2.3 -2.3 -2.3 -2.3 -0.4 0.7 1.8 3.1 1.7 1.7 3.7 3.4 4.2 4.7 4.6 4.6 4.5 4.4 4.3 4.3 4.3 4.9 4.8 4.7 4.6 4.7 4.7 4.8 5.7 5.5 4.9 8.2 8.3 6.7 8 8 8 8 8 8 8 8 7.8 6.1 5 0.1 0.1 3.6 3.7 3.8 1.6 0.1 0.1 4.7 5.2 5.1 5.9 -2.3 -2.3 -0.5 -2.3 -1.8 -0.2 0.4 0.4 0.5 0.4 0.7 0.5 0.6 0.6 0.7 0.7 0.8 0.8 0.7 0.7 0.7 0.6 0.5 0.4 0.4 0.4 0.3 0.3 0.4 0.4 0.5 0.5 0.5 0.6 0.5 0.5 0.5 0.5 0.4 0.4 0.4 0.4 0.3 0.4 0.6 0.9 1.1 1.3 1.6 1.8 2 2.3 2.6 4.2 11.3 15 16.2 16.2 16.2 16.2
7.3 7.1 6.8 6.5 6.4 6.4 6.4 6.4 6.3 6.5 6.8 6.5 6.7 6.3 6 6.4 6.2 6 5.8 5.8 5.4 5.9 5.9 5.2 5.3 5.1 5.4 5.1 4.5 4.8 4.9 5.1 5 5 4.3 4.6 4.6 4.3 3.6 3.1 3.6 2.6 2.8 2.2 2.2 2.1 2 1.7 2.6 1.9 1.2 0.5 -0.2 -0.9 -1.6 -2.3 -2.3 -2.3 -2.3 -2.3 -2.3 -2.3 -2.3 -2.3 -2.3 -2.3 -2.3 -2.3 -2.3 -2.3 -2.3 -2.3 -2.3 -2.3 -2.3 -2.3 -2.3 -2.3 -2.3 -2.3 -2.3 -2.3 -2.3 -2.3 -2.3 -2.3 -2.3 -2.3 -2.3 -0.1 1.1 2.2 4.1 4.5 4.4 4.7 5.3 5.4 5 4.9 4.5 4.5 5.1 5.3 4.8 4.9 4.9 4.9 4.9 4.9 4.4 4.5 5.1 7.2 8.1 8.4 6.3 8 8 8 8 8 8 8 8 8 7.5 8.3 5.1 4.7 4.7 4.6 4.7 5.9 5.9 7.8 4.8 10.6 11 4.8 1.5 -2.3 -2.3 -2.3 -2.3 -1.4 -0.8 -0.6 -0.3 -0.3 0 -0.1 0 0.1 0.2 0.2 0.3 0.4 0.3 0.3 0.3 0.2 0.1 0 0 0 -0.1 -0.1 0 0 0.1 0.1 0.1 0.1 0.1 0.1 0.1 0.1 0 0 0 0 0 0.1 0.3 0.5 0.8 1 1.2 1.5 1.7 2.1 2.5 4.2 10.4 14.9 16.2 16.2 16.2 16.2
7.2 6.9 6.3 6.1 6.1 6.1 6.2 6.2 5.8 6.2 6.7 6.7 6.3 5.9 6 5.9 5.8 5.9 6 6 5.2 5.8 5.3 4.8 5.4 5.3 4.8 5.1 4.2 4.8 4.9 5.2 5 4.9 4.5 4.5 4.7 4.5 3.9 3.1 3 3.4 2.8 2.4 2.2 2 2 1.9 2.8 2.1 1.3 0.5 -0.3 -1 -1.8 -2.3 -2.3 -2.3 -2.3 -2.3 -2.3 -2.3 -2.3 -2.3 -2.3 -2.3 -2.3 -2.3 -2.3 -2.3 -2.3 -2.3 -2.3 -2.3 -2.3 -2.3 -2.3 -2.3 -2.3 -2.3 -2.3 -2.3 -2.3 -2.3 -2.3 -2.3 -2.3 -2.3 -2.3 -2.3 -2.3 0.5 2.1 2.8 4.6 4.7 5 7.4 5.5 5.4 5 4.3 4.8 5.1 4.7 4.8 4.9 4.9 5 5 4.7 4.6 5.7 7.7 8.1 8.4 6.1 7.1 8 8 8 8 8 8 8 7 7.8 7.9 8.1 7.8 7.5 7.7 6.9 7.4 6.8 8.1 6.2 7.8 2.9 1.9 0.8 -0.2 -1.3 -2.3 -2.3 -2.3 -2.3 -1.5 -1.2 -1 -0.7 -0.7 -0.6 -0.3 -0.3 -0.2 -0.1 0 0 0 0 -0.1 -0.3 -0.3 -0.4 -0.4 -0.5 -0.5 -0.4 -0.4 -0.4 -0.3 -0.3 -0.3 -0.3 -0.3 -0.4 -0.3 -0.4 -0.4 -0.3 -0.4 -0.4 -0.3 0 0.2 0.4 0.7 0.9 1.2 1.5 2 2.5 2.9 9.1 14.4 16.2 16.2 16.2 16.2
7 6.7 6.5 6.1 6.2 6.3 6.3 6.4 6 5.8 6.9 7 5.8 5.8 5.8 6 6.1 6.2 6.1 5.4 5.2 5.3 5.5 5.5 5.5 5.3 5.4 5.1 5.8 4.8 5 5.3 5.2 4.9 4.9 4.6 4.5 4.1 4.9 3.7 3.4 3.6 2.9 2.4 2.1 2 2 1.9 4.3 2.1 1.2 0.3 -0.5 -1.3 -2.3 -2.3 -2.3 -2.3 -2.3 -2.3 -2.3 -2.3 -2.3 -2.3 -2.3 -2.3 -2.3 -2.3 -2.3 -2.3 -2.3 -2.3 -2.3 -2.3 -2.3 -2.3 -2.3 -2.3 -2.3 -2.3 -2.3 -2.3 -2.3 -2.3 -2.3 -2.3 -2.3 -2.3 -2.3 -2.3 -2.3 -2.3 0 0.8 2 4.1 4.6 5 5.1 5.3 4.4 4.2 4.6 5 4.7 4.8 4.9 4.9 5 5 5.2 4.6 4.7 7.9 7.9 7.4 7.5 7.5 7.7 8 8 8 8 8 7.3 7.1 7.5 7.6 7.5 8.3 6.7 6.4 6.6 7.1 7.9 7.7 4.7 2.9 2.4 1.5 0.5 -0.5 -1.4 -2.3 -2.3 -2.3 -2.3 -2.3 -2.3 -1.7 -1.4 -1.2 -1.1 -0.8 -0.8 -0.7 -0.5 -0.4 -0.4 -0.4 -0.4 -0.5 -0.6 -0.7 -0.8 -0.8 -0.9 -0.9 -0.8 -0.8 -0.8 -0.7 -0.7 -0.7 -0.7 -0.8 -0.8 -0.8 -0.8 -0.8 -0.7 -0.7 -0.7 -0.6 -0.3 -0.1 0.1 0.4 0.6 1 1.4 1.9 2.4 2.9 8.3 13.9 16.2 14.8 13.3 13.3
6.9 6.7 6.7 6.3 6 6.3 6.5 6.4 6.2 6.1 6 6.8 5.7 5.7 6.1 6.4 6.4 6.4 6.1 5.3 5 5.2 5.4 5.6 5.7 5.6 5.6 5.4 5.7 5.1 5 5.3 5.4 5 4.5 4 4.9 4.8 4.3 3.7 3.3 3.8 3.2 2.5 2 1.9 2 2.1 2.3 2.3 1.4 0.5 -0.4 -1.5 -2.3 -2.3 -2.3 -2.3 -2.3 -2.3 -2.3 -2.3 -2.3 -2.3 -2.3 -2.3 -2.3 -2.3 -2.3 -2.3 -2.3 -2.3 -2.3 -2.3 -2.3 -2.3 -2.3 -2.3 -2.3 -2.3 -2.3 -2.3 -2.3 -2.3 -2.3 -2.3 -2.3 -2.3 -2.3 -2.3 -2.3 -2.3 -2.3 -2.3 0 1.2 2.4 5.1 4.5 4.8 4.6 4.5 4.5 4.8 4.7 4.8 4.8 4.9 4.9 5 6.4 4.6 5.7 5.7 7.4 7.8 8 8.2 8.2 7.1 7.5 8 8 8.1 7.7 7.3 7.3 7.3 7 7.7 6.6 6.5 6.7 7.7 5.9 4.3 2.8 2.4 2 1.4 0.4 -0.6 -1.5 -2.3 -2.3 -2.3 -2.3 -2.3 -2.3 -2.3 -2.3 -1.8 -1.6 -1.3 -1.2 -1.1 -0.9 -0.8 -0.8 -0.8 -0.8 -0.9 -1 -1.1 -1.2 -1.2 -1.3 -1.3 -1.2 -1.2 -1.2 -1.2 -1.2 -1.2 -1.2 -1.2 -1.2 -1.2 -1.2 -1.2 -1.1 -1.1 -1.1 -0.9 -0.7 -0.4 -0.2 0.1 0.5 0.9 1.3 1.8 2.3 2.8 6.5 13.4 14.3 13.3 13.3 13.3
6.9 6.8 6.8 6.5 6 6.1 6.3 6.6 6.5 6.4 6.3 7.2 5.7 6.1 6.4 6.7 6.6 6.4 6.1 5.8 5.2 5 5.3 5.5 5.8 5.7 5.7 5.4 5.5 5.2 5.3 4.9 5 4.5 4.9 4.7 4.7 4.9 4.4 3.9 3.1 4 3.1 2.3 2 2 2.3 2.6 2.7 1.7 0.6 -0.6 -1.7 -2.3 -2.3 -2.3 -2.3 -2.3 -2.3 -2.3 -2.3 -2.3 -2.3 -2.3 -2.3 -2.3 -2.3 -2.3 -2.3 -2.3 -2.3 -2.3 -2.3 -2.3 -2.3 -2.3 -2.3 -2.3 -2.3 -2.3 -2.3 -2.3 -2.3 -2.3 -2.3 -2.3 -2.3 -2.3 -2.3 -2.3 -2.3 -2.3 -2.3 -2.3 -2.3 -0.8 0.4 1.6 3.4 4.7 4.6 4.6 4.4 4.6 4.6 4.7 4.8 4.9 4.9 5 5.5 5.5 5.1 5.4 5.9 6.7 6.9 5.5 7.5 7.9 7.5 7.3 7.4 7.9 7.3 7.4 7.3 7.3 7.1 6.8 6.5 6.6 8 5.1 4.2 2.7 2.3 1.9 1.5 1.2 0.3 -0.7 -1.6 -2.3 -2.3 -2.3 -2.3 -2.3 -2.3 -2.3 -2.3 -2.3 -2.3 -1.8 -1.6 -1.5 -1.3 -1.2 -1.2 -1.2 -1.2 -1.2 -1.3 -1.4 -1.5 -1.6 -1.7 -1.7 -1.6 -1.6 -1.6 -1.6 -1.6 -1.6 -1.6 -1.6 -1.6 -1.6 -1.6 -1.5 -1.5 -1.4 -1.4 -1.2 -1 -0.8 -0.5 -0.1 0.3 0.8 1.2 1.7 2.1 2.6 5 12.4 13.1 13.3 13.3 13.3
7 7 7 6.7 6.2 5.8 6.4 6.7 6.6 6.6 6.6 7.2 5.9 6.5 6.8 6.9 6.6 6.3 6 5.7 5.4 5.5 5.3 5.5 5.7 5.7 5.2 5 4.9 5.4 5.4 5.6 5.3 4.7 4.8 4.8 5 5.1 4.6 4 3.4 3.2 2.7 2.4 2.1 1.9 2 2.3 1.4 2.8 -0.8 -1.9 -2.3 -2.3 -2.3 -2.3 -2.3 -2.3 -2.3 -2.3 -2.3 -2.3 -2.3 -2.3 -2.3 -2.3 -2.3 -2.3 -2.3 -2.3 -2.3 -2.3 -2.3 -2.3 -2.3 -2.3 -2.3 -2.3 -2.3 -2.3 -2.3 -2.3 -2.3 -2.3 -2.3 -2.3 -2.3 -2.3 -2.3 -2.3 -2.3 -2.3 -2.3 -2.3 -2.3 -2.3 -2.3 -2.3 0.1 1.7 5.9 4.9 4.7 4.5 4.6 4.7 4.8 4.8 4.4 6.4 4.6 4.7 4.7 4.9 4.4 4.7 6.8 7.5 6.1 5.3 7.7 6 9.1 8.2 7.6 7.3 7.3 7.3 7.1 6.6 7.3 7 4.4 4.6 2.6 2.1 1.8 1.4 1 0.7 0.2 -0.8 -1.7 -2.3 -2.3 -2.3 -2.3 -2.3 -2.3 -2.3 -2.3 -2.3 -2.3 -2.3 -2.3 -1.9 -1.7 -1.6 -1.6 -1.6 -1.6 -1.6 -1.7 -1.8 -1.9 -2 -2.3 -2.3 -2.1 -2 -2 -2 -2 -2 -2.3 -2.3 -2.3 -2 -2 -1.9 -1.8 -1.8 -1.7 -1.6 -1.3 -1 -0.7 -0.3 0.2 0.6 0.9 1.2 1.4 2.4 4.1 10.2 13.2 13.8 13.3 13.3
7.2 7.2 7.1 6.9 6.4 6.2 6.5 6.7 6.7 6.7 6.7 7 5.9 6 7.1 6.8 6.5 6.2 5.7 5.6 5.2 5.3 5.4 5.5 5.7 5.3 5.3 5.3 5.2 5.3 5.2 5.4 5.5 5 4.9 5 5.1 5.1 4.6 4.1 3.6 3.3 3.2 2.4 2.1 1.8 1.8 1.7 1.6 -2.3 -2 -1.8 -2.3 -2.3 -2.3 -2.3 -2.3 -2.3 -2.3 -2.3 -2.3 -2.3 -2.3 -2.3 -2.3 -2.3 -2.3 -2.3 -2.3 -2.3 -2.3 -2.3 -2.3 -2.3 -2.3 -2.3 -2.3 -2.3 -2.3 -2.3 -2.3 -2.3 -2.3 -2.3 -2.3 -2.3 -2.3 -2.3 -2.3 -2.3 -2.3 -2.3 -2.3 -2.3 -2.3 -2.3 -2.3 -2.3 -2.3 -2.3 -2.3 1.9 4.5 4.6 4.6 4.8 4.1 3.4 4.7 4.4 4.5 5.2 5.3 5.1 4.5 4.1 7.9 9.7 7.2 6.6 6.2 8.9 11.8 8.9 7.3 7.3 7.3 7.3 7.2 7.4 6.1 3.6 2.8 2.4 2 1.6 1.2 0.9 0.5 0.2 -0.1 -0.9 -1.8 -2.3 -2.3 -2.3 -2.3 -2.3 -2.3 -2.3 -2.3 -2.3 -2.3 -2.3 -2.3 -2.3 -2.3 -2 -1.9 -2 -1.9 -1.9 -2 -2.1 -2.3 -2.3 -2.3 -2.3 -2.3 -2.3 -2.3 -2.3 -2.3 -2.3 -2.3 -2.3 -2.3 -2.3 -2.3 -2.3 -2.3 -2.3 -2.3 -1.9 -1.6 -1.3 -0.9 -0.5 -0.2 0 0.3 0.5 1.3 1.9 4.4 8.7 13 14.2 13.3 13.3
7.3 7.3 7.3 7.1 6.5 6.7 6.8 6.7 6.8 6.8 6.8 6.9 6.1 6.5 6.6 6.6 6 5.9 5.8 5.7 4.9 5 5.2 5.4 5.5 5.7 5.6 5.5 5.4 5.2 4.8 5.2 5.4 5.1 5 4.9 5 5.1 4.7 4.3 3.8 3.4 3.3 3.2 2.1 1.8 -2.3 -2.3 -2.3 2.7 0.8 0 -0.7 -2.3 -2.3 -2.2 -2.3 -2.3 -2.3 -2.3 -2.3 -2.3 -2.3 -2.3 -2.3 -2.3 -2.3 -2.3 -2.3 -2.3 -2.3 -2.3 -2.3 -2.3 -2.3 -2.3 -2.3 -2.3 -2.3 -2.3 -2.3 -2.3 -2.3 -2.3 -2.3 -2.3 -2.3 -2.3 -2.3 -2.3 -2.3 -2.3 -2.3 -2.3 -2.3 -2.3 -2.3 -2.3 -2.3 -2.3 -2.3 -2.3 0.2 1.2 2.2 2.6 4.9 4.8 4.6 5.4 5.1 5.3 5.5 4.5 4 4 8.4 10 9.3 7.4 5 5.7 7.9 7.3 7.3 7.3 7.3 7.3 5.6 3.6 3.8 2.5 1.9 1.7 1.4 1 0.6 0.3 0 -0.3 -0.6 -1 -1.9 -2.3 -2.3 -2.3 -2.3 -2.3 -2.3 -2.3 -2.3 -2.3 -2.3 -2.3 -2.3 -2.3 -2.3 -2.3 -2.3 -2.3 -2.3 -2.3 -2.3 -2.3 -2.3 -2.3 -2.3 -2.3 -2.3 -2.3 -2.3 -2.3 -2.3 -2.3 -2.3 -2.3 -2.3 -2.3 -2.3 -2.3 -2.3 -2.3 -2.3 -2.3 -2.3 -1.6 -1.3 -1.1 -0.9 -0.6 -0.4 0.2 0.6 1.1 2.5 5.4 11 11.8 13.3 13.3
6.6 6.6 6.7 7.7 7.1 6.9 6.7 6.5 6.6 6.7 6.7 6.8 6.6 6.2 6.5 6.2 6 5.9 5.8 5.3 4.8 4.9 5.3 5.2 5.4 6.1 5.7 5.6 5.4 5.2 5.3 5.3 5.4 5.2 4.7 4.9 4.9 5 4.9 4.7 4 3.3 3.3 -2.3 -2.3 -2.3 -2.3 3 3.1 3 2.1 0.6 -0.8 -1.5 -1.6 -1.7 -1.8 -2 -2.1 -2.2 -2.3 -2.3 -2.3 -2.3 -2.3 -2.3 -2.3 -2.3 -2.3 -2.3 -2.3 -2.3 -2.3 -2.3 -2.3 -2.3 -2.3 -2.3 -2.3 -2.3 -2.3 -2.3 -2.3 -2.3 -2.3 -2.3 -2.3 -2.3 -2.3 -2.3 -2.3 -2.3 -2.3 -2.3 -2.3 -2.3 -2.3 -2.3 -2.3 -2.3 -2.3 -2.3 -2.3 -2.3 -2.3 0.2 1.2 1.9 2.6 3.5 5.4 5.1 5.5 5.3 3.3 4 8.6 7.7 8.4 8.4 5.9 4.4 4.3 7.3 7.4 6.6 5.4 3.7 3.3 2.4 2 1.4 0.9 0.9 0.7 0.4 0 -0.2 -0.6 -0.9 -1.2 -1.4 -2 -2.3 -2.3 -2.3 -2.3 -2.3 -2.3 -2.3 -2.3 -2.3 -2.3 -2.3 -2.3 -2.3 -2.3 -2.3 -2.3 -2.3 -2.3 -2.3 -2.3 -2.3 -2.3 -2.3 -2.3 -2.3 -2.3 -2.3 -2.3 -2.3 -2.3 -2.3 -2.3 -2.3 -2.3 -2.3 -2.3 -2.3 -2.3 -2.3 -2.3 -2.3 -2.3 -2.2 -2 -1.8 -1.5 -1.3 -1 -0.6 -0.6 0.2 1.6 4.6 9 11.8 14 13.3
6.4 6.5 6.5 6.9 7.2 7.1 6.5 6.2 6.3 6.3 6.2 6.5 6.4 6.5 6.4 6.3 6 6 5.5 5.1 4.9 5.3 5.4 5.5 5.7 6.2 5.9 5.6 5.4 5.1 5.2 5.3 5.3 5.4 5 4.4 4.2 4.4 4.8 4.7 3.4 3.8 2 -2.3 2.9 2.7 1.8 2.8 2.9 2.9 1.6 0.2 -0.6 -1 -1.1 -1.2 -1.3 -1.4 -1.6 -1.7 -1.8 -1.9 -2 -2.2 -2.3 -2.3 -2.3 -2.3 -2.3 -2.3 -2.3 -2.3 -2.3 -2.3 -2.3 -2.3 -2.3 -2.3 -2.3 -2.3 -2.3 -2.3 -2.3 -2.3 -2.3 -2.3 -2.3 -2.3 -2.3 -2.3 -2.3 -2.3 -2.3 -2.3 -2.3 -2.3 -2.3 -2.3 -2.3 -2.3 -2.3 -2.3 -2.3 -2.3 -2.3 -2.3 -2.3 -0.6 0 0.4 1.1 1.8 2.7 4.5 4.2 3.5 6.6 6.2 7.1 7 5.3 4.9 4 5.2 4.5 4 2.5 1.9 1.4 1 0.7 0.4 -0.1 -0.1 -0.1 -0.3 -0.6 -0.9 -1.2 -1.4 -1.7 -2 -2.2 -2.3 -2.3 -2.3 -2.3 -2.3 -2.3 -2.3 -2.3 -2.3 -2.3 -2.3 -2.3 -2.3 -2.3 -2.3 -2.3 -2.3 -2.3 -2.3 -2.3 -2.3 -2.3 -2.3 -2.3 -2.3 -2.3 -2.3 -2.3 -2.3 -2.3 -2.3 -2.3 -2.3 -2.3 -2.3 -2.3 -2.3 -2.3 -2.3 -2.3 -2.3 -2.3 -2.3 -2.3 -2.3 -2.3 -2.3 -1.9 -2.3 -2.3 -2.3 0.1 2.8 5.7 11.2 14.3 14.2
6.5 6.3 6.6 6.8 7 7 6.5 6 5.9 5.7 5.7 6 6.5 6.4 6.3 6.2 6 5.8 5.4 5.1 5.1 5.6 5.8 5.6 5.6 6.2 5.5 5.6 4.7 4.8 5.1 5.1 5.2 4.8 4.7 4.6 4.4 4.3 4.5 3.4 3.7 3.3 3.3 2.9 2.5 2.3 3.4 3.4 2.9 2.6 1.3 0.4 -0.3 -0.5 -0.6 -0.7 -0.8 -0.9 -1.1 -1.2 -1.3 -1.4 -1.5 -1.8 -2.3 -2.3 -2.3 -2.3 -2.3 -2.3 -2.3 -2.3 -2.3 -2.3 -2.3 -2.3 -2.3 -2.3 -2.3 -2.3 -2.3 -2.3 -2.3 -2.3 -2.3 -2.3 -2.3 -2.3 -2.3 -2.3 -2.3 -2.3 -2.3 -2.3 -2.3 -2.3 -2.3 -2.3 -2.3 -2.3 -2.3 -2.3 -2.3 -2.3 -2.3 -2.3 -2.3 -2.3 -2.3 -2.3 -2.3 -2.3 -2.3 0 0.6 1.2 1.4 1.8 2.3 2.4 2.3 2.1 1.8 1.4 1 0.6 0.3 0 -0.3 -0.5 -0.6 -0.7 -1.1 -1.1 -0.9 -1 -1.2 -1.5 -1.8 -2.3 -2.3 -2.3 -2.3 -2.3 -2.3 -2.3 -2.3 -2.3 -2.3 -2.3 -2.3 -2.3 -2.3 -2.3 -2.3 -2.3 -2.3 -2.3 -2.3 -2.3 -2.3 -2.3 -2.3 -2.3 -2.3 -2.3 -2.3 -2.3 -2.3 -2.3 -2.3 -2.3 -2.3 -2.3 -2.3 -2.3 -2.3 -2.3 -2.3 -2.3 -2.3 -2.3 -2.3 -2.3 -2.3 -2.3 -2.3 -2.3 -2.3 -2.3 -2.3 -2.3 -2.3 -2.3 -2.3 -2.3 4.6 8 13.1 14.7
6.7 6.2 6.5 6.7 6.7 6.6 6 5.9 6 5.8 6.3 6.1 6.6 5.8 5.9 5.9 5.8 5.7 5.4 5 5.3 5.6 5.3 5.3 5.4 5.5 5.7 5.5 5.2 4.7 4.7 4.7 4.6 5.3 5.2 4.8 4.5 4.1 4.2 3.6 4 3.3 3.5 3.1 2.7 2.3 1.9 4.1 3.1 2.3 1.4 0.5 0.2 0.1 -0.1 -0.2 -0.3 -0.4 -0.5 -0.7 -0.8 -1.1 -1.4 -1.6 -1.9 -2.3 -2.3 -2.3 -2.3 -2.3 -2.3 -2.3 -2.3 -2.3 -2.3 -2.3 -2.3 -2.3 -2.3 -2.3 -2.3 -2.3 -2.3 -2.3 -2.3 -2.3 -2.3 -2.3 -2.3 -2.3 -2.3 -2.3 -2.3 -2.3 -2.3 -2.3 -2.3 -2.3 -2.3 -2.3 -2.3 -2.3 -2.3 -2.3 -2.3 -2.3 -2.3 -2.3 -2.3 -2.3 -2.3 -2.3 -2.3 -2.3 -2.3 -2.3 -2.3 -2.3 -2.3 -2.3 -2.3 -2.3 -2.3 -2.3 -2.3 -2.3 -2.3 -2.3 -2.3 -2.3 -2.3 -2.3 -2.3 -2 -1.8 -1.8 -2.3 -2.3 -2.3 -2.3 -2.3 -2.3 -2.3 -2.3 -2.3 -2.3 -2.3 -2.3 -2.3 -2.3 -2.3 -2.3 -2.3 -2.3 -2.3 -2.3 -2.3 -2.3 -2.3 -2.3 -2.3 -2.3 -2.3 -2.3 -2.3 -2.3 -2.3 -2.3 -2.3 -2.3 -2.3 -2.3 -2.3 -2.3 -2.3 -2.3 -2.3 -2.3 -2.3 -2.3 -2.3 -2.3 -2.3 -2.3 -2.3 -2.3 -2.3 -2.3 -2.3 -2.3 -2.3 -2.3 -2.3 -2.3 -2.3 -2.3 -2.3 5.2 8.9 13.2
6.3 6 6.4 6.5 6.4 6.2 5.6 5.7 5.9 5.8 6.4 5.8 5.9 5.8 5.8 5.7 5.6 5.4 5.2 5 5.1 5 5.2 5.3 5.4 5.4 5.6 5.5 5.1 4.5 4.9 4.8 4.5 4.8 4.5 4.5 4 3.8 3.9 4.5 3.9 3.3 3.8 3.4 3 2.6 2.2 1.7 3.1 2.4 1.6 0.8 0.7 0.6 0.4 0.3 0.2 0.1 -0.1 -0.4 -0.7 -1 -1.3 -1.5 -1.7 -1.9 -2.3 -2.3 -2.3 -2.3 -2.3 -2.3 -2.3 -2.3 -2.3 -2.3 -2.3 -2.3 -2.3 -2.3 -2.3 -2.3 -2.3 -2.3 -2.3 -2.3 -2.3 -2.3 -2.3 -2.3 -2.3 -2.3 -2.3 -2.3 -2.3 -2.3 -2.3 -2.3 -2.3 -2.3 -2.3 -2.3 -2.3 -2.3 -2.3 -2.3 -2.3 -2.3 -2.3 -2.3 -2.3 -2.3 -2.3 -2.3 -2.3 -2.3 -2.3 -2.3 -2.3 -2.3 -2.3 -2.3 -2.3 -2.3 -2.3 -2.3 -2.3 -2.3 -2.3 -2.3 -2.3 -2.3 -2.3 -2.3 -2.3 -2.3 -2.3 -2.3 -2.3 -2.3 -2.3 -2.3 -2.3 -2.3 -2.3 -2.3 -2.3 -2.3 -2.3 -2.3 -2.3 -2.3 -2.3 -2.3 -2.3 -2.3 -2.3 -2.3 -2.3 -2.3 -2.3 -2.3 -2.3 -2.3 -2.3 -2.3 -2.3 -2.3 -2.3 -2.3 -2.3 -2.3 -2.3 -2.3 -2.3 -2.3 -2.3 -2.3 -2.3 -2.3 -2.3 -2.3 -2.3 -2.3 -2.3 -2.3 -2.3 -2.3 -2.3 -2.3 -2.3 -2.3 -2.3 -2.3 -2.3 -2.3 -2.3 -2.3 -2.3 7
5.9 6.2 6.3 5.9 6.1 5.8 5.3 5.3 5.4 5.5 6.9 6.7 5.9 6.6 5.6 5.5 5.4 5.2 5.1 5 5.3 5.3 5.2 5.3 5.4 5.3 5.4 5.4 5.2 4 4.8 4.9 4.5 4.3 4.4 4.4 4.2 4.6 4.5 4.5 4.7 3.2 4 3.6 3.2 2.7 2.3 1.9 3.7 2.5 1.6 1.3 1.2 1.1 1 0.8 0.6 0.3 0 -0.3 -0.6 -0.8 -1.1 -1.3 -1.5 -1.7 -2 -2.3 -2.3 -2.3 -2.3 -2.3 -2.3 -2.3 -2.3 -2.3 -2.3 -2.3 -2.3 -2.3 -2.3 -2.3 -2.3 -2.3 -2.3 -2.3 -2.3 -2.3 -2.3 -2.3 -2.3 -2.3 -2.3 -2.3 -2.3 -2.3 -2.3 -2.3 -2.3 -2.3 -2.3 -2.3 -2.3 -2.3 -2.3 -2.3 -2.3 -2.3 -2.3 -2.3 -2.3 -2.3 -2.3 -2.3 -2.3 -2.3 -2.3 -2.3 -2.3 -2.3 -2.3 -2.3 -2.3 -2.3 -2.3 -2.3 -2.3 -2.3 -2.3 -2.3 -2.3 -2.3 -2.3 -2.3 -2.3 -2.3 -2.3 -2.3 -2.3 -2.3 -2.3 -2.3 -2.3 -2.3 -2.3 -2.3 -2.3 -2.3 -2.3 -2.3 -2.3 -2.3 -2.3 -2.3 -2.3 -2.3 -2.3 -2.3 -2.3 -2.3 -2.3 -2.3 -2.3 -2.3 -2.3 -2.3 -2.3 -2.3 -2.3 -2.3 -2.3 -2.3 -2.3 -2.3 -2.3 -2.3 -2.3 -2.3 -2.3 -2.3 -2.3 -2.3 -2.3 -2.3 -2.3 -2.3 -2.3 -2.3 -2.3 -2.3 -2.3 -2.3 -2.3 -2.3 -2.3 -2.3 -2.3 -2.3 -2.3 -2.3
6.3 6.8 6.4 6.2 6.4 6.1 5.8 5.5 5.2 5.3 5.8 6.2 5.8 5.8 5.8 5.6 5.2 5.1 5 4.9 5.2 5.1 5.3 5.3 5.4 5.3 5.3 5.3 4.1 4.9 4.7 5 4.6 4.5 4.3 3.9 4.7 4.9 4.6 5.2 5.2 3.9 4.3 3.7 3.2 2.9 2.6 2.2 4 2.7 1.9 1.8 1.7 1.5 1.3 1 0.7 0.4 0.1 -0.2 -0.4 -0.7 -0.9 -1.1 -1.3 -1.6 -1.8 -2 -2.3 -2.3 -2.3 -2.3 -2.3 -2.3 -2.3 -2.3 -2.3 -2.3 -2.3 -2.3 -2.3 -2.3 -2.3 -2.3 -2.3 -2.3 -2.3 -2.3 -2.3 -2.3 -2.3 -2.3 -2.3 -2.3 -2.3 -2.3 -2.3 -2.3 -2.3 -2.3 -2.3 -2.3 -2.3 -2.3 -2.3 -2.3 -2.3 -2.3 -2.3 -2.3 -2.3 -2.3 -2.3 -2.3 -2.3 -2.3 -2.3 -2.3 -2.3 -2.3 -2.3 -2.3 -2.3 -2.3 -2.3 -2.3 -2.3 -2.3 -2.3 -2.3 -2.3 -2.3 -2.3 -2.3 -2.3 -2.3 -2.3 -2.3 -2.3 -2.3 -2.3 -2.3 -2.3 -2.3 -2.3 -2.3 -2.3 -2.3 -2.3 -2.3 -2.3 -2.3 -2.3 -2.3 -2.3 -2.3 -2.3 -2.3 -2.3 -2.3 -2.3 -2.3 -2.3 -2.3 -2.3 -2.3 -2.3 -2.3 -2.3 -2.3 -2.3 -2.3 -2.3 -2.3 -2.3 -2.3 -2.3 -2.3 -2.3 -2.3 -2.3 -2.3 -2.3 -2.3 -2.3 -2.3 -2.3 -2.3 -2.3 -2.3 -2.3 -2.3 -2.3 -2.3 -2.3 -2.3 -2.3 -2.3 -2.3 -2.3
6.4 6.8 6.4 6.1 6.5 5.5 6 5.3 5 5.8 5.9 5.9 5.9 6.4 6.4 5.3 5.1 5 4.9 4.9 5.3 5 5 5.5 5.1 4.7 5.3 5 5 4.7 4.6 5.1 4.8 4.7 4.6 4.2 4.6 4.8 4.8 4.6 4.3 4.4 3.5 3.7 3.4 3.1 2.8 2.4 3.3 2.7 2.5 2.2 1.9 1.6 1.3 1 0.7 0.4 0.2 0 -0.3 -0.5 -0.7 -0.9 -1.1 -1.4 -1.6 -1.8 -2 -2.3 -2.3 -2.3 -2.3 -2.3 -2.3 -2.3 -2.3 -2.3 -2.3 -2.3 -2.3 -2.3 -2.3 -2.3 -2.3 -2.3 -2.3 -2.3 -2.3 -2.3 -2.3 -2.3 -2.3 -2.3 -2.3 -2.3 -2.3 -2.3 -2.3 -2.3 -2.3 -2.3 -2.3 -2.3 -2.3 -2.3 -2.3 -2.3 -2.3 -2.3 -2.3 -2.3 -2.3 -2.3 -2.3 -2.3 -2.3 -2.3 -2.3 -2.3 -2.3 -2.3 -2.3 -2.3 -2.3 -2.3 -2.3 -2.3 -2.3 -2.3 -2.3 -2.3 -2.3 -2.3 -2.3 -2.3 -2.3 -2.3 -2.3 -2.3 -2.3 -2.3 -2.3 -2.3 -2.3 -2.3 -2.3 -2.3 -2.3 -2.3 -2.3 -2.3 -2.3 -2.3 -2.3 -2.3 -2.3 -2.3 -2.3 -2.3 -2.3 -2.3 -2.3 -2.3 -2.3 -2.3 -2.3 -2.3 -2.3 -2.3 -2.3 -2.3 -2.3 -2.3 -2.3 -2.3 -2.3 -2.3 -2.3 -2.3 -2.3 -2.3 -2.3 -2.3 -2.3 -2.3 -2.3 -2.3 -2.3 -2.3 -2.3 -2.3 -2.3 -2.3 -2.3 -2.3 -2.3 -2.3 -2.3 -2.3
6.2 6.8 5.9 5.9 6.3 5.9 5.6 5.8 6.1 5.7 5.9 6.7 6 6.5 5.4 5.4 5.7 4.9 4.9 5.1 5 4.9 5 5.3 4.7 4.9 5 5.2 5 4.7 5 5.2 5 5 5 4.3 4.5 4.7 4.9 4.8 4.5 4.6 4 3.5 3.3 3.1 2.8 2.4 4.6 2.9 2.6 2.3 2 1.7 1.4 1.1 0.8 0.6 0.4 0.2 -0.1 -0.3 -0.5 -0.7 -0.9 -1.2 -1.4 -1.6 -1.9 -2.1 -2.3 -2.3 -2.3 -2.3 -2.3 -2.3 -2.3 -2.3 -2.3 -2.3 -2.3 -2.3 -2.3 -2.3 -2.3 -2.3 -2.3 -2.3 -2.3 -2.3 -2.3 -2.3 -2.3 -2.3 -2.3 -2.3 -2.3 -2.3 -2.3 -2.3 -2.3 -2.3 -2.3 -2.3 -2.3 -2.3 -2.3 -2.3 -2.3 -2.3 -2.3 -2.3 -2.3 -2.3 -2.3 -2.3 -2.3 -2.3 -2.3 -2.3 -2.3 -2.3 -2.3 -2.3 -2.3 -2.3 -2.3 -2.3 -2.3 -2.3 -2.3 -2.3 -2.3 -2.3 -2.3 -2.3 -2.3 -2.3 -2.3 -2.3 -2.3 -2.3 -2.3 -2.3 -2.3 -2.3 -2.3 -2.3 -2.3 -2.3 -2.3 -2.3 -2.3 -2.3 -2.3 -2.3 -2.3 -2.3 -2.3 -2.3 -2.3 -2.3 -2.3 -2.3 -2.3 -2.3 -2.3 -2.3 -2.3 -2.3 -2.3 -2.3 -2.3 -2.3 -2.3 -2.3 -2.3 -2.3 -2.3 -2.3 -2.3 -2.3 -2.3 -2.3 -2.3 -2.3 -2.3 -2.3 -2.3 -2.3 -2.3 -2.3 -2.3 -2.3 -2.3 -2.3 -2.3 -2.3 -2.3 -2.3
6.9 6.4 6.5 5.9 6.1 5.2 5.6 5.9 5.5 5.3 5.3 5.8 5.8 5.9 5.7 5.7 5.6 5.5 5.1 5.4 5.2 5 5.3 5.2 4.7 4.9 5.1 5.3 5.1 4.8 4.8 5.2 5.2 5.1 5.3 4.7 4.4 4.6 4.9 4.9 4.9 4.6 4.4 3.3 3.1 2.9 2.6 2.4 3.8 2.9 2.7 2.4 2 1.7 1.5 1.2 1 0.8 0.6 0.3 0.1 -0.1 -0.3 -0.6 -0.9 -1.1 -1.3 -1.5 -1.8 -1.9 -2.1 -2.3 -2.3 -2.3 -2.3 -2.3 -2.3 -2.3 -2.3 -2.3 -2.3 -2.3 -2.3 -2.3 -2.3 -2.3 -2.3 -2.3 -2.3 -2.3 -2.3 -2.3 -2.3 -2.3 -2.3 -2.3 -2.3 -2.3 -2.3 -2.3 -2.3 -2.3 -2.3 -2.3 -2.3 -2.3 -2.3 -2.3 -2.3 -2.3 -2.3 -2.3 -2.3 -2.3 -2.3 -2.3 -2.3 -2.3 -2.3 -2.3 -2.3 -2.3 -2.3 -2.3 -2.3 -2.3 -2.3 -2.3 -2.3 -2.3 -2.3 -2.3 -2.3 -2.3 -2.3 -2.3 -2.3 -2.3 -2.3 -2.3 -2.3 -2.3 -2.3 -2.3 -2.3 -2.3 -2.3 -2.3 -2.3 -2.3 -2.3 -2.3 -2.3 -2.3 -2.3 -2.3 -2.3 -2.3 -2.3 -2.3 -2.3 -2.3 -2.3 -2.3 -2.3 -2.3 -2.3 -2.3 -2.3 -2.3 -2.3 -2.3 -2.3 -2.3 -2.3 -2.3 -2.3 -2.3 -2.3 -2.3 -2.3 -2.3 -2.3 -2.3 -2.3 -2.3 -2.3 -2.3 -2.3 -2.3 -2.3 -2.3 -2.3 -2.3 -2.3 -2.3 -2.3 -2.3 -2.3 -2.3
6.5 6.1 5.9 6.1 6.1 5.3 5.6 5.5 5.8 5.8 5.5 5.5 5.5 5.5 5.7 5.2 5.6 5.4 5 5.3 5.4 5.2 5.3 5.1 4.6 4.8 5.1 5.3 5 4.8 4.6 4.8 5.1 5.1 5.1 5.4 4.4 4.9 5 4.8 4.8 4.7 4.4 3.2 3 2.8 2.6 2.4 2.5 3 2.7 2.4 2.1 1.9 1.6 1.4 1.2 1 0.7 0.5 0.2 -0.1 -0.3 -0.6 -0.8 -1 -1.2 -1.4 -1.6 -1.7 -1.9 -2.1 -2.3 -2.3 -2.3 -2.3 -2.3 -2.3 -2.3 -2.3 -2.3 -2.3 -2.3 -2.3 -2.3 -2.3 -2.3 -2.3 -2.3 -2.3 -2.3 -2.3 -2.3 -2.3 -2.3 -2.3 -2.3 -2.3 -2.3 -2.3 -2.3 -2.3 -2.3 -2.3 -2.3 -2.3 -2.3 -2.3 -2.3 -2.3 -2.3 -2.3 -2.3 -2.3 -2.3 -2.3 -2.3 -2.3 -2.3 -2.3 -2.3 -2.3 -2.3 -2.3 -2.3 -2.3 -2.3 -2.3 -2.3 -2.3 -2.3 -2.3 -2.3 -2.3 -2.3 -2.3 -2.3 -2.3 -2.3 -2.3 -2.3 -2.3 -2.3 -2.3 -2.3 -2.3 -2.3 -2.3 -2.3 -2.3 -2.3 -2.3 -2.3 -2.3 -2.3 -2.3 -2.3 -2.3 -2.3 -2.3 -2.3 -2.3 -2.3 -2.3 -2.3 -2.3 -2.3 -2.3 -2.3 -2.3 -2.3 -2.3 -2.3 -2.3 -2.3 -2.3 -2.3 -2.3 -2.3 -2.3 -2.3 -2.3 -2.3 -2.3 -2.3 -2.3 -2.3 -2.3 -2.3 -2.3 -2.3 -2.3 -2.3 -2.3 -2.3 -2.3 -2.3 -2.3 -2.3 -2.3
6.7 6 5.4 5.5 5.8 5.4 5.3 5.1 5.2 5.4 5.4 5.5 5.4 6.2 5 5.3 5.5 5.5 5 5.1 5.3 5.3 5.3 5.1 4.7 4.8 5.1 5.2 5 4.8 4.7 4.5 4.9 5 4.7 4.6 4.9 5.2 4.9 4.7 4.7 4.7 4.8 3.9 3.2 3 2.8 2.6 2.5 3 2.8 2.5 2.3 2 1.8 1.5 1.3 1 0.7 0.4 0.2 -0.1 -0.3 -0.5 -0.7 -0.9 -1.1 -1.2 -1.4 -1.6 -1.8 -1.9 -2.1 -2.3 -2.3 -2.3 -2.3 -2.3 -2.3 -2.3 -2.3 -2.3 -2.3 -2.3 -2.3 -2.3 -2.3 -2.3 -2.3 -2.3 -2.3 -2.3 -2.3 -2.3 -2.3 -2.3 -2.3 -2.3 -2.3 -2.3 -2.3 -2.3 -2.3 -2.3 -2.3 -2.3 -2.3 -2.3 -2.3 -2.3 -2.3 -2.3 -2.3 -2.3 -2.3 -2.3 -2.3 -2.3 -2.3 -2.3 -2.3 -2.3 -2.3 -2.3 -2.3 -2.3 -2.3 -2.3 -2.3 -2.3 -2.3 -2.3 -2.3 -2.3 -2.3 -2.3 -2.3 -2.3 -2.3 -2.3 -2.3 -2.3 -2.3 -2.3 -2.3 -2.3 -2.3 -2.3 -2.3 -2.3 -2.3 -2.3 -2.3 -2.3 -2.3 -2.3 -2.3 -2.3 -2.3 -2.3 -2.3 -2.3 -2.3 -2.3 -2.3 -2.3 -2.3 -2.3 -2.3 -2.3 -2.3 -2.3 -2.3 -2.3 -2.3 -2.3 -2.3 -2.3 -2.3 -2.3 -2.3 -2.3 -2.3 -2.3 -2.3 -2.3 -2.3 -2.3 -2.3 -2.3 -2.3 -2.3 -2.3 -2.3 -2.3 -2.3 -2.3 -2.3 -2.3 -2.3
6.7 6.3 5.5 5 5.4 5 4.9 4.9 5 5.6 5.7 5.7 5.3 5.5 5.6 5 5.5 5.5 5.3 4.9 5.2 5.4 5.2 5 4.8 4.7 5.4 5.1 5 4.8 4.7 4.6 4.6 4.7 4.5 4.9 5.2 5.1 4.8 4.6 4.6 4.7 4.9 4.6 3.8 3.1 2.9 2.8 2.5 3.1 2.9 2.6 2.3 2 1.8 1.5 1.2 0.9 0.7 0.5 0.2 0 -0.2 -0.4 -0.6 -0.8 -0.9 -1.1 -1.3 -1.4 -1.6 -1.7 -1.9 -2 -2.3 -2.3 -2.3 -2.3 -2.3 -2.3 -2.3 -2.3 -2.3 -2.3 -2.3 -2.3 -2.3 -2.3 -2.3 -2.3 -2.3 -2.3 -2.3 -2.3 -2.3 -2.3 -2.3 -2.3 -2.3 -2.3 -2.3 -2.3 -2.3 -2.3 -2.3 -2.3 -2.3 -2.3 -2.3 -2.3 -2.3 -2.3 -2.3 -2.3 -2.3 -2.3 -2.3 -2.3 -2.3 -2.3 -2.3 -2.3 -2.3 -2.3 -2.3 -2.3 -2.3 -2.3 -2.3 -2.3 -2.3 -2.3 -2.3 -2.3 -2.3 -2.3 -2.3 -2.3 -2.3 -2.3 -2.3 -2.3 -2.3 -2.3 -2.3 -2.3 -2.3 -2.3 -2.3 -2.3 -2.3 -2.3 -2.3 -2.3 -2.3 -2.3 -2.3 -2.3 -2.3 -2.3 -2.3 -2.3 -2.3 -2.3 -2.3 -2.3 -2.3 -2.3 -2.3 -2.3 -2.3 -2.3 -2.3 -2.3 -2.3 -2.3 -2.3 -2.3 -2.3 -2.3 -2.3 -2.3 -2.3 -2.3 -2.3 -2.3 -2.3 -2.3 -2.3 -2.3 -2.3 -2.3 -2.3 -2.3 -2.3 -2.3 -2.3 -2.3 -2.3 -2.3
6.5 6.5 5.9 5.2 4.9 5 5.2 4.8 4.7 5.1 5.3 5.1 5.2 5.8 5.5 5 5.1 5.4 5.4 5.2 5 5.3 5.2 4.9 4.7 4.9 5.3 5.2 5 4.9 4.8 4.7 4.6 4.7 4.7 5 5.2 4.9 4.7 4.5 4.7 4.9 4.9 4.9 4.8 3.5 3 2.8 4.6 3 2.8 2.6 2.3 2 1.7 1.5 1.2 1 0.8 0.5 0.3 0.1 -0.1 -0.3 -0.4 -0.7 -0.8 -1 -1.1 -1.3 -1.4 -1.5 -1.7 -1.8 -2 -2.1 -2.3 -2.3 -2.3 -2.3 -2.3 -2.3 -2.3 -2.3 -2.3 -2.3 -2.3 -2.3 -2.3 -2.3 -2.3 -2.3 -2.3 -2.3 -2.3 -2.3 -2.3 -2.3 -2.3 -2.3 -2.3 -2.3 -2.3 -2.3 -2.3 -2.3 -2.3 -2.3 -2.3 -2.3 -2.3 -2.3 -2.3 -2.3 -2.3 -2.3 -2.3 -2.3 -2.3 -2.3 -2.3 -2.3 -2.3 -2.3 -2.3 -2.3 -2.3 -2.3 -2.3 -2.3 -2.3 -2.3 -2.3 -2.3 -2.3 -2.3 -2.3 -2.3 -2.3 -2.3 -2.3 -2.3 -2.3 -2.3 -2.3 -2.3 -2.3 -2.3 -2.3 -2.3 -2.3 -2.3 -2.3 -2.3 -2.3 -2.3 -2.3 -2.3 -2.3 -2.3 -2.3 -2.3 -2.3 -2.3 -2.3 -2.3 -2.3 -2.3 -2.3 -2.3 -2.3 -2.3 -2.3 -2.3 -2.3 -2.3 -2.3 -2.3 -2.3 -2.3 -2.3 -2.3 -2.3 -2.3 -2.3 -2.3 -2.3 -2.3 -2.3 -2.3 -2.3 -2.3 -2.3 -2.3 -2.3 -2.3 -2.3 -2.3 -2.3 -2.3
17.6 17.8 13.4 6.2 5.6 5.4 5.1 4.8 4.6 5.2 5.2 4.9 5.1 5.5 4.8 5.2 5.4 5.2 5.1 5.1 5.3 5.2 5.1 5 4.8 4.9 5.3 5.2 5.2 5.1 4.9 4.8 4.7 4.7 4.9 5.2 5 4.8 4.6 4.6 4.8 4.9 4.9 4.8 4.7 4.1 3.4 3 3.6 2.9 2.8 2.5 2.2 2 1.7 1.5 1.3 1 0.8 0.6 0.4 0.2 0 -0.2 -0.4 -0.5 -0.7 -0.8 -1 -1.1 -1.2 -1.4 -1.5 -1.7 -1.9 -2 -2.3 -2.3 -2.3 -2.3 -2.3 -2.3 -2.3 -2.3 -2.3 -2.3 -2.3 -2.3 -2.3 -2.3 -2.3 -2.3 -2.3 -2.3 -2.3 -2.3 -2.3 -2.3 -2.3 -2.3 -2.3 -2.3 -2.3 -2.3 -2.3 -2.3 -2.3 -2.3 -2.3 -2.3 -2.3 -2.3 -2.3 -2.3 -2.3 -2.3 -2.3 -2.3 -2.3 -2.3 -2.3 -2.3 -2.3 -2.3 -2.3 -2.3 -2.3 -2.3 -2.3 -2.3 -2.3 -2.3 -2.3 -2.3 -2.3 -2.3 -2.3 -2.3 -2.3 -2.3 -2.3 -2.3 -2.3 -2.3 -2.3 -2.3 -2.3 -2.3 -2.3 -2.3 -2.3 -2.3 -2.3 -2.3 -2.3 -2.3 -2.3 -2.3 -2.3 -2.3 -2.3 -2.3 -2.3 -2.3 -2.3 -2.3 -2.3 -2.3 -2.3 -2.3 -2.3 -2.3 -2.3 -2.3 -2.3 -2.3 -2.3 -2.3 -2.3 -2.3 -2.3 -2.3 -2.3 -2.3 -2.3 -2.3 -2.3 -2.3 -2.3 -2.3 -2.3 -2.3 -2.3 -2.3 -2.3 -2.3 -2.3 -2.3 -2.3 -2.3
17.3 17.7 9.3 6.3 5.9 5.6 5.3 4.9 4.8 4.6 4.7 4.7 5.1 5.5 4.9 5.1 5.3 5.1 4.7 5 5.2 5.1 5 4.9 4.8 4.9 5.3 5.2 5.2 5.1 5 4.9 4.8 4.9 5 4.8 4.7 4.6 4.4 4.8 5 4.9 4.8 4.7 4.6 4.4 3.8 2.8 3.5 3 2.8 2.5 2.2 2 1.8 1.5 1.3 1.1 0.9 0.7 0.5 0.3 0.1 -0.1 -0.2 -0.4 -0.5 -0.6 -0.8 -0.9 -1.1 -1.3 -1.5 -1.7 -1.8 -2.1 -2.3 -2.3 -2.3 -2.3 -2.3 -2.3 -2.3 -2.3 -2.3 -2.3 -2.3 -2.3 -2.3 -2.3 -2.3 -2.3 -2.3 -2.3 -2.3 -2.3 -2.3 -2.3 -2.3 -2.3 -2.3 -2.3 -2.3 -2.3 -2.3 -2.3 -2.3 -2.3 -2.3 -2.3 -2.3 -2.3 -2.3 -2.3 -2.3 -2.3 -2.3 -2.3 -2.3 -2.3 -2.3 -2.3 -2.3 -2.3 -2.3 -2.3 -2.3 -2.3 -2.3 -2.3 -2.3 -2.3 -2.3 -2.3 -2.3 -2.3 -2.3 -2.3 -2.3 -2.3 -2.3 -2.3 -2.3 -2.3 -2.3 -2.3 -2.3 -2.3 -2.3 -2.3 -2.3 -2.3 -2.3 -2.3 -2.3 -2.3 -2.3 -2.3 -2.3 -2.3 -2.3 -2.3 -2.3 -2.3 -2.3 -2.3 -2.3 -2.3 -2.3 -2.3 -2.3 -2.3 -2.3 -2.3 -2.3 -2.3 -2.3 -2.3 -2.3 -2.3 -2.3 -2.3 -2.3 -2.3 -2.3 -2.3 -2.3 -2.3 -2.3 -2.3 -2.3 -2.3 -2.3 -2.3 -2.3 -2.3 -2.3 -2.3 -2.3 -2.3
15.6 16.4 6.3 5.8 5.4 5.3 5.1 5.1 5.3 4.5 4.7 5.2 5.2 5.5 5.5 5.1 5.2 5 4.8 4.9 5.2 5.1 5 4.9 4.8 5 5.3 5.2 5.2 5.1 4.9 4.8 4.8 4.8 4.6 4.3 4.2 4.2 4.5 4.9 4.9 4.8 4.7 4.6 4.5 4.1 3.7 3.2 3.3 3 2.8 2.5 2.3 2 1.8 1.6 1.4 1.2 1 0.7 0.5 0.4 0.2 0.1 0 -0.2 -0.4 -0.5 -0.7 -0.9 -1.1 -1.3 -1.5 -1.6 -1.8 -2.2 -2.3 -2.3 -2.3 -2.3 -2.3 -2.3 -2.3 -2.3 -2.3 -2.3 -2.3 -2.3 -2.3 -2.3 -2.3 -2.3 -2.3 -2.3 -2.3 -2.3 -2.3 -2.3 -2.3 -2.3 -2.3 -2.3 -2.3 -2.3 -2.3 -2.3 -2.3 -2.3 -2.3 -2.3 -2.3 -2.3 -2.3 -2.3 -2.3 -2.3 -2.3 -2.3 -2.3 -2.3 -2.3 -2.3 -2.3 -2.3 -2.3 -2.3 -2.3 -2.3 -2.3 -2.3 -2.3 -2.3 -2.3 -2.3 -2.3 -2.3 -2.3 -2.3 -2.3 -2.3 -2.3 -2.3 -2.3 -2.3 -2.3 -2.3 -2.3 -2.3 -2.3 -2.3 -2.3 -2.3 -2.3 -2.3 -2.3 -2.3 -2.3 -2.3 -2.3 -2.3 -2.3 -2.3 -2.3 -2.3 -2.3 -2.3 -2.3 -2.3 -2.3 -2.3 -2.3 -2.3 -2.3 -2.3 -2.3 -2.3 -2.3 -2.3 -2.3 -2.3 -2.3 -2.3 -2.3 -2.3 -2.3 -2.3 -2.3 -2.3 -2.3 -2.3 -2.3 -2.3 -2.3 -2.3 -2.3 -2.3 -2.3 -2.3 -2.3 -2.3
14.5 15.3 5.9 5.3 4.9 4.8 4.7 4.6 4.3 3.9 4 4.2 4.7 4.7 5.2 5.1 5 5.1 5.1 4.9 5 5.1 5 4.9 5.1 4.8 4.8 4.7 4.6 4.5 4.3 4.6 3.9 4.2 3.8 3.8 3.7 4.7 4.3 3.6 4.3 4.3 4.3 4.3 4.4 4.1 3.8 3.5 3.2 2.9 2.8 2.5 2.3 2 1.9 1.7 1.4 1.2 1 0.8 0.7 0.6 0.4 0.2 0.1 -0.1 -0.3 -0.5 -0.7 -0.9 -1.1 -1.2 -1.3 -1.6 -2 -2.3 -2.3 -2.3 -2.3 -2.3 -2.3 -2.3 -2.3 -2.3 -2.3 -2.3 -2.3 -2.3 -2.3 -2.3 -2.3 -2.3 -2.3 -2.3 -2.3 -2.3 -2.3 -2.3 -2.3 -2.3 -2.3 -2.3 -2.3 -2.3 -2.3 -2.3 -2.3 -2.3 -2.3 -2.3 -2.3 -2.3 -2.3 -2.3 -2.3 -2.3 -2.3 -2.3 -2.3 -2.3 -2.3 -2.3 -2.3 -2.3 -2.3 -2.3 -2.3 -2.3 -2.3 -2.3 -2.3 -2.3 -2.3 -2.3 -2.3 -2.3 -2.3 -2.3 -2.3 -2.3 -2.3 -2.3 -2.3 -2.3 -2.3 -2.3 -2.3 -2.3 -2.3 -2.3 -2.3 -2.3 -2.3 -2.3 -2.3 -2.3 -2.3 -2.3 -2.3 -2.3 -2.3 -2.3 -2.3 -2.3 -2.3 -2.3 -2.3 -2.3 -2.3 -2.3 -2.3 -2.3 -2.3 -2.3 -2.3 -2.3 -2.3 -2.3 -2.3 -2.3 -2.3 -2.3 -2.3 -2.3 -2.3 -2.3 -2.3 -2.3 -2.3 -2.3 -2.3 -2.3 -2.3 -2.3 -2.3 -2.3 -2.3 -2.3 -2.3 -2.3
10.6 10.8 5.3 4.8 4.4 4.3 4.2 3.9 3.4 3.6 4.1 4 4.1 4.1 4.7 4.6 4.7 4.6 4.6 4.3 4.1 4.4 4.7 4.4 4.1 4.2 4.2 4.1 4 4.2 4.5 3.8 3.2 3.5 3.1 2.5 2.6 4.4 3 3 3.5 3.6 3.8 4.1 4.3 4.1 3.8 3.5 3.2 3.8 2.8 2.5 2.4 2.1 1.9 1.7 1.5 1.3 1.1 1 0.8 0.7 0.5 0.3 0.1 -0.1 -0.3 -0.5 -0.7 -0.9 -1 -1.1 -1.3 -1.7 -2.1 -2.3 -2.3 -2.3 -2.3 -2.3 -2.3 -2.3 -2.3 -2.3 -2.3 -2.3 -2.3 -2.3 -2.3 -2.3 -2.3 -2.3 -2.3 -2.3 -2.3 -2.3 -2.3 -2.3 -2.3 -2.3 -2.3 -2.3 -2.3 -2.3 -2.3 -2.3 -2.3 -2.3 -2.3 -2.3 -2.3 -2.3 -2.3 -2.3 -2.3 -2.3 -2.3 -2.3 -2.3 -2.3 -2.3 -2.3 -2.3 -2.3 -2.3 -2.3 -2.3 -2.3 -2.3 -2.3 -2.3 -2.3 -2.3 -2.3 -2.3 -2.3 -2.3 -2.3 -2.3 -2.3 -2.3 -2.3 -2.3 -2.3 -2.3 -2.3 -2.3 -2.3 -2.3 -2.3 -2.3 -2.3 -2.3 -2.3 -2.3 -2.3 -2.3 -2.3 -2.3 -2.3 -2.3 -2.3 -2.3 -2.3 -2.3 -2.3 -2.3 -2.3 -2.3 -2.3 -2.3 -2.3 -2.3 -2.3 -2.3 -2.3 -2.3 -2.3 -2.3 -2.3 -2.3 -2.3 -2.3 -2.3 -2.3 -2.3 -2.3 -2.3 -2.3 -2.3 -2.3 -2.3 -2.3 -2.3 -2.3 -2.3 -2.3 -2.3 -2.3 -2.3
6.2 6.1 4.1 4.3 4.3 4 4.5 3.9 3.9 4.3 4.3 4.2 4.1 4.1 4.4 4.1 4.4 4.3 4 3.9 3.9 4.3 4.5 4.2 4.1 4.1 3.9 4.5 4.5 4.3 3.9 3.3 3 2.8 2.6 2.5 3.6 3 3.1 3.7 4 3.5 3.8 4 4.2 4 3.8 3.5 3.3 5 2.8 2.6 2.4 2.1 1.9 1.7 1.6 1.4 1.3 1.1 0.9 0.7 0.5 0.3 0.1 -0.1 -0.3 -0.4 -0.6 -0.8 -0.9 -1 -1.4 -1.8 -2.2 -2.3 -2.3 -2.3 -2.3 -2.3 -2.3 -2.3 -2.3 -2.3 -2.3 -2.3 -2.3 -2.3 -2.3 -2.3 -2.3 -2.3 -2.3 -2.3 -2.3 -2.3 -2.3 -2.3 -2.3 -2.3 -2.3 -2.3 -2.3 -2.3 -2.3 -2.3 -2.3 -2.3 -2.3 -2.3 -2.3 -2.3 -2.3 -2.3 -2.3 -2.3 -2.3 -2.3 -2.3 -2.3 -2.3 -2.3 -2.3 -2.3 -2.3 -2.3 -2.3 -2.3 -2.3 -2.3 -2.3 -2.3 -2.3 -2.3 -2.3 -2.3 -2.3 -2.3 -2.3 -2.3 -2.3 -2.3 -2.3 -2.3 -2.3 -2.3 -2.3 -2.3 -2.3 -2.3 -2.3 -2.3 -2.3 -2.3 -2.3 -2.3 -2.3 -2.3 -2.3 -2.3 -2.3 -2.3 -2.3 -2.3 -2.3 -2.3 -2.3 -2.3 -2.3 -2.3 -2.3 -2.3 -2.3 -2.3 -2.3 -2.3 -2.3 -2.3 -2.3 -2.3 -2.3 -2.3 -2.3 -2.3 -2.3 -2.3 -2.3 -2.3 -2.3 -2.3 -2.3 -2.3 -2.3 -2.3 -2.3 -2.3 -2.3 -2.3 -2.3 -2.3
5.9 5.2 4.4 4.5 4.8 4.4 4.3 4.1 4.2 4.3 4.4 4.4 4.3 4.2 4.1 3.7 4.2 4.3 4.3 4 4 4.2 4.2 4.1 4.1 3.5 3.4 3.5 3.8 4.3 4.1 3.3 3 2.8 2.8 3.1 3.5 3.6 3.3 4 4.3 3.9 3.7 4 4.1 3.9 3.7 3.7 3.6 4.8 2.8 2.6 2.4 2.2 2 1.9 1.7 1.5 1.3 1.1 0.9 0.7 0.5 0.3 0.2 0 -0.2 -0.4 -0.6 -0.7 -0.8 -1.1 -1.5 -1.9 -2.3 -2.3 -2.3 -2.3 -2.3 -2.3 -2.3 -2.3 -2.3 -2.3 -2.3 -2.3 -2.3 -2.3 -2.3 -2.3 -2.3 -2.3 -2.3 -2.3 -2.3 -2.3 -2.3 -2.3 -2.3 -2.3 -2.3 -2.3 -2.3 -2.3 -2.3 -2.3 -2.3 -2.3 -2.3 -2.3 -2.3 -2.3 -2.3 -2.3 -2.3 -2.3 -2.3 -2.3 -2.3 -2.3 -2.3 -2.3 -2.3 -2.3 -2.3 -2.3 -2.3 -2.3 -2.3 -2.3 -2.3 -2.3 -2.3 -2.3 -2.3 -2.3 -2.3 -2.3 -2.3 -2.3 -2.3 -2.3 -2.3 -2.3 -2.3 -2.3 -2.3 -2.3 -2.3 -2.3 -2.3 -2.3 -2.3 -2.3 -2.3 -2.3 -2.3 -2.3 -2.3 -2.3 -2.3 -2.3 -2.3 -2.3 -2.3 -2.3 -2.3 -2.3 -2.3 -2.3 -2.3 -2.3 -2.3 -2.3 -2.3 -2.3 -2.3 -2.3 -2.3 -2.3 -2.3 -2.3 -2.3 -2.3 -2.3 -2.3 -2.3 -2.3 -2.3 -2.3 -2.3 -2.3 -2.3 -2.3 -2.3 -2.3 -2.3 -2.3 -2.3 -2.3
5.6 4.8 4.8 5 4.8 4.5 4.1 3.9 3.7 3.8 3.9 4 4.1 4.3 4.7 4.2 5 5.4 4.8 4.4 4.3 4.2 4.4 4.3 4.3 3.7 3.2 3.3 3.8 4.3 4.3 3.6 3 2.9 3 3.3 3.5 3.8 3.3 4.6 4.7 4.3 3.7 3.9 3.7 3.6 4.1 4 3.9 3.7 2.8 2.6 2.5 2.3 2.1 1.9 1.7 1.5 1.3 1.1 0.9 0.8 0.6 0.4 0.2 0 -0.2 -0.3 -0.5 -0.6 -0.8 -1.2 -1.7 -2.1 -2.3 -2.3 -2.3 -2.3 -2.3 -2.3 -2.3 -2.3 -2.3 -2.3 -2.3 -2.3 -2.3 -2.3 -2.3 -2.3 -2.3 -2.3 -2.3 -2.2 -2.3 -2.3 -2.3 -2.3 -2.3 -2.3 -2.3 -2.3 -2.3 -2.3 -2.3 -2.3 -2.3 -2.3 -2.3 -2.3 -2.3 -2.3 -2.3 -2.3 -2.3 -2.3 -2.3 -2.3 -2.3 -2.3 -2.3 -2.3 -2.3 -2.3 -2.3 -2.3 -2.3 -2.3 -2.3 -2.3 -2.3 -2.3 -2.3 -2.3 -2.3 -2.3 -2.3 -2.3 -2.3 -2.3 -2.3 -2.3 -2.3 -2.3 -2.3 -2.3 -2.3 -2.3 -2.3 -2.3 -2.3 -2.3 -2.3 -2.3 -2.3 -2.3 -2.3 -2.3 -2.3 -2.3 -2.3 -2.3 -2.3 -2.3 -2.3 -2.3 -2.3 -2.3 -2.3 -2.3 -2.3 -2.3 -2.3 -2.3 -2.3 -2.3 -2.3 -2.3 -2.3 -2.3 -2.3 -2.3 -2.3 -2.3 -2.3 -2.3 -2.3 -2.3 -2.3 -2.3 -2.3 -2.3 -2.3 -2.3 -2.3 -2.3 -2.3 -2.3 -2.3 -2.3
5 4.9 5.4 5.2 4.9 4.5 4.1 4.3 3.8 3.7 3.8 4 4.3 4.5 5.3 4.4 4.5 4.8 5.4 4.8 4.1 4.4 4.7 4.8 5 4.4 3.9 3.8 3.9 4.2 4.5 3.9 3.3 3 3.2 3.4 3.6 3.8 4.1 4.8 4.4 4.3 4.2 4.1 3.8 4.2 4.4 4.1 3.9 3.6 2.9 2.7 2.5 2.3 2.1 1.9 1.7 1.5 1.4 1.2 1 0.8 0.6 0.4 0.2 0 -0.1 -0.2 -0.4 -0.6 -1 -1.4 -1.8 -2.2 -2.3 -2.3 -2.3 -2.3 -2.3 -2.3 -2.3 -2.3 -2.3 -2.3 -2.3 -2.3 -2.3 -2.3 -2.3 -2.3 -2.3 -2.3 -0.7 0.3 0.4 -2.3 -2.3 -2.3 -2.3 -2.3 -2.3 -2.3 -2.3 -2.3 -2.3 -2.3 -2.3 -2.3 -2.3 -2.3 -2.3 -2.3 -2.3 -2.3 -2.3 -2.3 -2.3 -2.3 -2.3 -2.3 -2.3 -2.3 -2.3 -2.3 -2.3 -2.3 -2.3 -2.3 -2.3 -2.3 -2.3 -2.3 -2.3 -2.3 -2.3 -2.3 -2.3 -2.3 -2.3 -2.3 -2.3 -2.3 -2.3 -2.3 -2.3 -2.3 -2.3 -2.3 -2.3 -2.3 -2.3 -2.3 -2.3 -2.3 -2.3 -2.3 -2.3 -2.3 -2.3 -2.3 -2.3 -2.3 -2.3 -2.3 -2.3 -2.3 -2.3 -2.3 -2.3 -2.3 -2.3 -2.3 -2.3 -2.3 -2.3 -2.3 -2.3 -2.3 -2.3 -2.3 -2.3 -2.3 -2.3 -2.3 -2.3 -2.3 -2.3 -2.3 -2.3 -2.3 -2.3 -2.3 -2.3 -2.3 -2.3 -2.3 -2.3 -2.3 -2.3 -2.3
5.1 5 5.2 5.4 4.8 4.4 4.1 4.1 3.8 3.7 4 4.2 4.5 4.7 5.2 5 4.7 4.3 4.7 4.4 4.1 4.1 4 3.9 3.8 3 2.8 2.7 3.5 3.7 3.6 3.2 3.2 3.6 3.3 3.7 3.6 3.6 3.7 4.4 4.2 4 4.1 4 4.2 4.4 4.1 4.3 4.2 3.4 2.9 2.7 2.5 2.3 2.1 2 1.8 1.6 1.4 1.2 1 0.8 0.6 0.4 0.3 0.1 0 -0.1 -0.3 -0.7 -1.1 -1.5 -1.9 -2.3 -2.3 -2.3 -2.3 -2.3 -2.3 -2.3 -2.3 -2.3 -2.3 -2.3 -2.3 -2.3 -2.3 -2.3 -2.3 -2.3 -2.3 -0.4 1 2.2 5.4 4.2 4.9 5.1 3.6 -2.3 -2.3 -2.3 -2.3 -2.3 -2.3 -2.3 -2.3 -2.3 -2.3 -2.3 -2.3 -2.3 -2.3 -2.3 -2.3 -2.3 -2.3 -2.3 -2.3 -2.3 -2.3 -2.3 -2.3 -2.3 -2.3 -2.3 -2.3 -2.3 -2.3 -2.3 -2.3 -2.3 -2.3 -2.3 -2.3 -2.3 -2.3 -2.3 -2.3 -2.3 -2.3 -2.3 -2.3 -2.3 -2.3 -2.3 -2.3 -2.3 -2.3 -2.3 -2.3 -2.3 -2.3 -2.3 -2.3 -2.3 -2.3 -2.3 -2.3 -2.3 -2.3 -2.3 -2.3 -2.3 -2.3 -2.3 -2.3 -2.3 -2.3 -2.3 -2.3 -2.3 -2.3 -2.3 -2.3 -2.3 -2.3 -2.3 -2.3 -2.3 -2.3 -2.3 -2.3 -2.3 -2.3 -2.3 -2.3 -2.3 -2.3 -2.3 -2.3 -2.3 -2.3 -2.3 -2.3 -2.3 -2.3 -2.3 -2.3 -2.3
5.2 5.2 5.2 5.7 5.1 4.4 4.4 4.8 4.8 4.7 4.5 4.7 5 5.2 4.8 5.5 5.5 4.6 4.1 4.1 4 3.9 4.1 4.3 3.5 3.2 2.8 2.6 3 3.2 3.2 3.3 3.4 3.5 3.6 3.6 4.3 4 4.2 4.1 4.1 4.3 4.1 3.7 3.3 3.2 3.1 3.5 4 2.9 2.9 2.7 2.6 2.4 2.2 2 1.8 1.6 1.4 1.2 1 0.9 0.7 0.5 0.3 0.2 0.1 0 -0.4 -0.8 -1.2 -1.6 -2 -2.3 -2.3 -2.3 -2.3 -2.3 -2.3 -2.3 -2.3 -2.3 -2.3 -2.3 -2.3 -2.3 -2.3 -2.3 -2.3 -2.3 0.2 1.4 2.8 4.3 4.3 4.3 4.2 5.4 4.9 -2.3 -2.3 3.5 -2.3 -2.3 -2.3 -2.3 -2.3 -2.3 -2.3 -2.3 -2.3 -2.3 -2.3 -2.3 -2.3 -2.3 -2.3 -2.3 -2.3 -2.3 -2.3 -2.3 -2.3 -2.3 -2.3 -2.3 -2.3 -2.3 -2.3 -2.3 -2.3 -2.3 -2.3 -2.3 -2.3 -2.3 -2.3 -2.3 -2.3 -2.3 -2.3 -2.3 -2.3 -2.3 -2.3 -2.3 -2.3 -2.3 -2.3 -2.3 -2.3 -2.3 -2.3 -2.3 -2.3 -2.3 -2.3 -2.3 -2.3 -2.3 -2.3 -2.3 -2.3 -2.3 -2.3 -2.3 -2.3 -2.3 -2.3 -2.3 -2.3 -2.3 -2.3 -2.3 -2.3 -2.3 -2.3 -2.3 -2.3 -2.3 -2.3 -2.3 -2.3 -2.3 -2.3 -2.3 -2.3 -2.3 -2.3 -2.3 -2.3 -2.3 -2.3 -2.3 -2.3 -2.3 -2.3 -2.3 -2.3 -2.3
5.7 5.1 5.6 6 5.5 5.2 5.4 5.5 5.7 5.5 5.1 5.4 5.7 5 5.6 6 6 4.8 4.1 4.4 4.3 4.4 4.7 4.3 4.2 4 3.9 3.1 3.4 3.6 3.1 4 4.4 4.2 3.8 4.5 3.8 3.3 3.9 3.8 3.6 3.5 2.6 2.2 2.2 2.2 2.4 3 2.9 2.9 2.9 2.8 2.6 2.4 2.2 2 1.8 1.6 1.5 1.3 1.1 0.9 0.7 0.5 0.4 0.3 0.2 -0.1 -0.5 -0.9 -1.3 -1.7 -2.1 -2.3 -2.3 -2.3 -2.3 -2.3 -2.3 -2.3 -2.3 -2.3 -2.3 -2.3 -2.3 -2.3 -2.3 -2.3 -2.3 1.4 3.1 5.5 3.9 4.3 4.7 4.5 4.2 5.1 3.9 3.3 4.3 4.3 3.3 4 -2.3 -2.3 -2.3 -2.3 -2.3 -2.3 -2.3 -2.3 -2.3 -2.3 -2.3 -2.3 -2.3 -2.3 -2.3 -2.3 -2.3 -2.3 -2.3 -2.3 -2.3 -2.3 -2.3 -2.3 -2.3 -2.3 -2.3 -2.3 -2.3 -2.3 -2.3 -2.3 -2.3 -2.3 -2.3 -2.3 -2.3 -2.3 -2.3 -2.3 -2.3 -2.3 -2.3 -2.3 -2.3 -2.3 -2.3 -2.3 -2.3 -2.3 -2.3 -2.3 -2.3 -2.3 -2.3 -2.3 -2.3 -2.3 -2.3 -2.3 -2.3 -2.3 -2.3 -2.3 -2.3 -2.3 -2.3 -2.3 -2.3 -2.3 -2.3 -2.3 -2.3 -2.3 -2.3 -2.3 -2.3 -2.3 -2.3 -2.3 -2.3 -2.3 -2.3 -2.3 -2.3 -2.3 -2.3 -2.3 -2.3 -2.3 -2.3 -2.3 -2.3 -2.3 -2.3 -2.3
5.3 5.5 6 6 6 5.8 5.7 5.8 5.7 5.7 5.8 5.7 5.7 5.6 5.1 5 5.5 5 4.7 5 5 5 5.2 5 5.2 5.2 5 4 4 3.4 3.1 4.2 3.2 3.3 3.8 3.9 3.2 2.6 2.7 2.8 2.4 2.2 1.9 1.5 1.5 1.5 2.1 3 2.9 2.9 2.9 2.8 2.6 2.4 2.2 2.1 1.9 1.7 1.5 1.3 1.1 0.9 0.8 0.6 0.5 0.4 0.2 -0.2 -0.7 -1.1 -1.5 -1.9 -2.3 -2.3 -2.3 -2.3 -2.3 -2.3 -2.3 -2.3 -2.3 -2.3 -2.3 -2.3 -2.3 -2.3 -2.3 -2.3 1.8 3.9 3.7 4.4 3.6 4.5 4.9 4.3 3.1 3.4 3.1 4.2 4.2 4.2 1.4 0.9 -2.3 -2.3 -2.3 -2.3 -2.3 -2.3 -1.4 -1.6 -2.3 -2.3 -2.3 -2.3 -2.3 -2.3 -2.3 -2.3 -2.3 -2.3 -2.3 -2.3 -2.3 -2.3 -2.3 -2.3 -2.3 -2.3 -2.3 -2.3 -2.3 -2.3 -2.3 -2.3 -2.3 -2.3 -2.3 -2.3 -2.3 -2.3 -2.3 -2.3 -2.3 -2.3 -2.3 -2.3 -2.3 -2.3 -2.3 -2.3 -2.3 -2.3 -2.3 -2.3 -2.3 -2.3 -2.3 -2.3 -2.3 -2.3 -2.3 -2.3 -2.3 -2.3 -2.3 -2.3 -2.3 -2.3 -2.3 -2.3 -2.3 -2.3 -2.3 -2.3 -2.3 -2.3 -2.3 -2.3 -2.3 -2.3 -2.3 -2.3 -2.3 -2.3 -2.3 -2.3 -2.3 -2.3 -2.3 -2.3 -2.3 -2.3 -2.3 -2.3 -2.3 -2.3 -2.3 -2.3
6.7 5.9 5.8 5.8 5.9 6 5.7 5.4 5.1 5 4.9 5.4 5.2 5.4 5.5 5.3 5.4 5.7 5.4 4.8 4.7 5.1 4.7 4.6 4.5 4.6 3.8 3 3.3 2.8 3 3 2.4 2.1 2 2.5 2.3 2.3 2.3 2.3 2.3 2.2 2.5 1.6 1.6 1.9 2.4 3.4 2.9 2.9 2.9 2.8 2.7 2.5 2.3 2.1 1.9 1.7 1.5 1.3 1.1 1 0.9 0.7 0.6 0.4 0 -0.4 -0.8 -1.2 -1.6 -2 -2.3 -2.3 -2.3 -2.3 -2.3 -2.3 -2.3 -2.3 -2.3 -2.3 -2.3 -2.3 -2.3 -2.3 -2.3 1.1 4.4 4 3.6 3.5 3.5 3.6 3.8 3.1 3.1 3.1 4.1 2.5 1 0.9 4.5 4.5 4 4 2.6 0.5 0.1 -0.4 -0.5 -1.4 -2.3 -2.3 -2.3 -2.3 -2.3 -2.3 -2.3 -2.3 -2.3 -2.3 -2.3 -2.3 -2.3 -2.3 -2.3 -2.3 -2.3 -2.3 -2.3 -2.3 -2.3 -2.3 -2.3 -2.3 -2.3 -2.3 -2.3 -2.3 -2.3 -2.3 -2.3 -2.3 -2.3 -2.3 -2.3 -2.3 -2.3 -2.3 -2.3 -2.3 -2.3 -2.3 -2.3 -2.3 -2.3 -2.3 -2.3 -2.3 -2.3 -2.3 -2.3 -2.3 -2.3 -2.3 -2.3 -2.3 -2.3 -2.3 -2.3 -2.3 -2.3 -2.3 -2.3 -2.3 -2.3 -2.3 -2.3 -2.3 -2.3 -2.3 -2.3 -2.3 -2.3 -2.3 -2.3 -2.3 -2.3 -2.3 -2.3 -2.3 -2.3 -2.3 -2.3 -2.3 -2.3 -2.3 -2.3 -2.3
7.1 5.7 5.6 5.6 5.5 5.4 5.1 4.8 4.6 4.5 4.3 4.4 4.8 5.1 5.1 5.2 5.1 5.1 4.9 4.4 4.1 3.9 3.7 3.8 4.1 4 3.4 3.3 2.8 2.8 3.1 3 2.8 2.4 2.6 2.3 2.2 2.2 2.2 2.3 2.3 2.2 2.7 2.5 1.8 2.2 2.8 2.9 2.9 2.9 2.9 2.9 2.7 2.5 2.3 2.1 1.9 1.7 1.5 1.4 1.2 1.1 1 0.9 0.7 0.3 -0.1 -0.5 -0.9 -1.3 -1.7 -2.1 -2.3 -2.3 -2.3 -2.3 -2.3 -2.3 -2.3 -2.3 -2.3 -2.3 -2.3 -2.3 -2.3 -2.3 -2.3 3.1 4 4.1 3.7 4.1 3.7 3.1 3.1 3.1 3.1 3.1 3.1 3.1 3.3 3.6 3.4 3.6 4 3.8 4.6 1.8 1 0.6 -0.1 -1.1 -2.1 -2.3 -2.3 -2.3 -2.3 -2.3 -2.3 -2.3 -2.3 -2.3 -2.3 -2.3 -2.3 -2.3 -2.3 -2.3 -2.3 -2.3 -2.3 -2.3 -2.3 -2.3 -2.3 -2.3 -2.3 -2.3 -2.3 -2.3 -2.3 -2.3 -2.3 -2.3 -2.3 -2.3 -2.3 -2.3 -2.3 -2.3 -2.3 -2.3 -2.3 -2.3 -2.3 -2.3 -2.3 -2.3 -2.3 -2.3 -2.3 -2.3 -2.3 -2.3 -2.3 -2.3 -2.3 -2.3 -2.3 -2.3 -2.3 -2.3 -2.3 -2.3 -2.3 -2.3 -2.3 -2.3 -2.3 -2.3 -2.3 -2.3 -2.3 -2.3 -2.3 -2.3 -2.3 -2.3 -2.3 -2.3 -2.3 -2.3 -2.3 -2.3 -2.3 -2.3 -2.3 -2.3 -2.3 -2.3
6.6 6.5 5.7 5.8 5.6 5.3 5.4 4.6 4.2 3.8 3.6 3.8 3.8 3.4 3.8 3.9 5.4 5.1 4.7 4.4 3.8 3.4 3.3 3.3 3.5 3.3 3.6 2.7 2.9 3.1 3 2.9 2.7 2.6 2.5 2.4 2.4 2.2 2.2 2.2 2.2 2.2 3.1 3.2 2.3 2.8 3.6 2.9 2.9 2.9 2.9 2.9 2.7 2.5 2.3 2.1 2 1.8 1.6 1.4 1.3 1.2 1.1 1 0.6 0.2 -0.2 -0.6 -1 -1.4 -1.8 -2.2 -2.3 -2.3 -2.3 -2.3 -2.3 -2.3 -2.3 -2.3 -2.3 -2.3 -2.3 -2.3 -2.3 -2.3 0.6 3.2 3.8 3.3 3.1 3.1 3.2 3.1 3.1 3.1 3.1 3.1 3.1 3.1 3.4 3.6 4.2 4.2 4.1 3.6 3.9 2.7 1.7 1.1 0.1 -0.9 -1.9 -2.3 -2.3 -2.3 -2.3 -2.3 -2.3 -2.3 -2.3 -2.3 -2.3 -2.3 -2.3 -2.3 -2.3 -2.3 -2.3 -2.3 -2.3 -2.3 -2.3 -2.3 -2.3 -2.3 -2.3 -2.3 -2.3 -2.3 -2.3 -2.3 -2.3 -2.3 -2.3 -2.3 -2.3 -2.3 -2.3 -2.3 -2.3 -2.3 -2.3 -2.3 -2.3 -2.3 -2.3 -2.3 -2.3 -2.3 -2.3 -2.3 -2.3 -2.3 -2.3 -2.3 -2.3 -2.3 -2.3 -2.3 -2.3 -2.3 -2.3 -2.3 -2.3 -2.3 -2.3 -2.3 -2.3 -2.3 -2.3 -2.3 -2.3 -2.3 -2.3 -2.3 -2.3 -2.3 -2.3 -2.3 -2.3 -2.3 -2.3 -2.3 -2.3 -2.3 -2.3 -2.3 -2.3 -2.3
5.9 6.6 5.7 6.1 6.3 5.6 5.9 5 4 3.7 3.2 3.7 3.1 3 3.6 4.2 4.9 4.5 3.8 3.8 3.5 3.3 3.2 3.2 2.9 2.8 3.5 3.5 4.1 3 2.8 2.7 2.5 2.7 2.6 2.6 2.5 2.4 2.3 2.2 2.2 2.6 2.6 2.2 2.6 3.3 3 3.1 2.9 2.9 2.9 2.9 2.7 2.6 2.4 2.2 2 1.8 1.7 1.5 1.4 1.3 1.2 0.9 0.5 0.1 -0.3 -0.7 -1.1 -1.6 -2 -2.3 -2.3 -2.3 -2.3 -2.3 -2.3 -2.3 -2.3 -2.3 -2.3 -2.3 -2.3 -2.3 -2.3 -2.3 1.5 3.3 3.8 3.1 3.1 3.1 3.1 3.1 3.1 3.1 3.1 3.1 3.1 3.6 3.5 3.9 3.7 4.1 3.9 3.8 3.1 4.9 2.3 1.3 0.3 -0.7 -1.7 -2.3 -2.3 -2.3 -2.3 -2.3 -2.3 -2.3 -2.3 -2.3 -2.3 -2.3 -2.3 -2.3 -2.3 -2.3 -2.3 -2.3 -2.3 -2.3 -2.3 -2.3 -2.3 -2.3 -2.3 -2.3 -2.3 -2.3 -2.3 -2.3 -2.3 -2.3 -2.3 -2.3 -2.3 -2.3 -2.3 -2.3 -2.3 -2.3 -2.3 -2.3 -2.3 -2.3 -2.3 -2.3 -2.3 -2.3 -2.3 -2.3 -2.3 -2.3 -2.3 -2.3 -2.3 -2.3 -2.3 -2.3 -2.3 -2.3 -2.3 -2.3 -2.3 -2.3 -2.3 -2.3 -2.3 -2.3 -2.3 -2.3 -2.3 -2.3 -2.3 -2.3 -2.3 -2.3 -2.3 -2.3 -2.3 -2.3 -2.3 -2.3 -2.3 -2.3 -2.3 -2.3 -2.3 -2.3
4.7 6.2 5.5 5.7 5.7 5.9 5.7 5 3.9 3.1 3.5 2.8 2.8 2.9 3 4 4.4 4.5 3.5 3.4 3.9 4.4 4.2 3.7 3.2 2.9 3.3 4.3 4.6 2.7 2.5 2.4 2.8 2.7 2.7 2.7 2.6 2.5 2.4 2.3 2.2 2.1 2.1 1.9 1.8 1 0.9 3.5 2.9 2.9 2.9 2.9 2.8 2.6 2.4 2.2 2 1.9 1.8 1.6 1.5 1.4 1.2 0.8 0.4 -0.1 -0.5 -0.9 -1.3 -1.7 -2.1 -2.3 -2.3 -2.3 -2.3 -2.3 -2.3 -2.3 -2.3 -2.3 -2.3 -2.3 -2.3 -2.3 -2.3 -2.3 2.6 4 3.9 3.1 3.1 3.1 3.1 3.1 3.1 3.1 3.1 3.1 3.2 3.9 3.5 3.5 4.5 4.2 3.7 3.8 4.2 3.6 2.6 1.5 0.5 -0.5 -1.5 -2.3 -2.3 -2.3 -2.3 -2.3 -2.3 -2.2 -2.2 -2.1 -2.1 -2.1 -2 -2 -1.9 -2 -2.1 -2.3 -2.3 -2.3 -2.3 -2.3 -2.3 -2.3 -2.3 -2.3 -2.3 -2.3 -2.3 -2.3 -2.3 -2.3 -2.3 -2.3 -2.3 -2.3 -2.3 -2.3 -2.3 -2.3 -2.3 -2.3 -2.3 -2.3 -2.3 -2.3 -2.3 -2.3 -2.3 -2.3 -2.3 -2.3 -2.3 -2.3 -2.3 -2.3 -2.3 -2.3 -2.3 -2.3 -2.3 -2.3 -2.3 -2.3 -2.3 -2.3 -2.3 -2.3 -2.3 -2.3 -2.3 -2.3 -2.3 -2.3 -2.3 -2.3 -2.3 -2.3 -2.3 -2.3 -2.3 -2.3 -2.3 -2.3 -2.3 -2.3 -2.3 -2.3
4.4 4.9 6.5 6.3 5.2 5.2 4.8 4.6 3.7 2.8 2.7 2.7 2.7 2.7 2.8 3.9 4.1 4.3 3.6 3.2 3.8 3.8 4.2 4.9 3.9 3.4 3.3 3.5 3.7 3.1 2.9 2.8 2.8 2.8 2.8 2.7 2.7 2.6 2.6 2.5 2.6 2.9 1.8 2.6 0.9 0.6 0.7 1.3 2.9 2.9 2.9 2.9 2.8 2.6 2.4 2.2 2.1 2 1.9 1.7 1.6 1.4 1 0.6 0.2 -0.2 -0.6 -1 -1.4 -1.8 -2.2 -2.3 -2.3 -2.3 -2.3 -2.3 -2.3 -2.3 -2.3 -2.3 -2.3 -2.3 -2.3 -2.3 -2.3 -2.3 3.3 3.9 4.2 3.6 3.1 3.1 3.1 3.1 3.1 3.1 3.1 3.5 4 3.3 4 3.8 4.5 4 3.4 3.4 3.7 3.3 2.9 1.6 0.5 -0.5 -1.4 -2.3 -2.3 -2 -2 -1.9 -1.9 -1.9 -1.8 -1.8 -1.7 -1.7 -1.6 -1.6 -1.7 -1.8 -1.9 -2 -2 -2.3 -2.3 -2.3 -2.3 -2.3 -2.3 -2.3 -2.3 -2.3 -2.3 -2.3 -2.3 -2.3 -2.3 -2.3 -2.3 -2.3 -2.3 -2.3 -2.3 -2.3 -2.3 -2.3 -2.3 -2.3 -2.3 -2.3 -2.3 -2.3 -2.3 -2.3 -2.3 -2.3 -2.3 -2.3 -2.3 -2.3 -2.3 -2.3 -2.3 -2.3 -2.3 -2.3 -2.3 -2.3 -2.3 -2.3 -2.3 -2.3 -2.3 -2.3 -2.3 -2.3 -2.3 -2.3 -2.3 -2.3 -2.3 -2.3 -2.3 -2.3 -2.3 -2.3 -2.3 -2.3 -2.3 -2.3 -2.3 -2.3
4.9 5.4 6.1 5.7 5.1 4.4 4.5 4.1 3.1 2.8 2.7 2.7 2.7 2.7 3.1 4.2 4 3.7 3.5 3.1 3.2 3.6 3.7 4.3 3.6 3.2 3 2.8 2.9 2.3 2.1 2.5 2.5 2.5 2.5 2.6 2.6 2.6 2.6 2.7 3.1 3.5 3.6 1.5 0.7 0.7 0.7 0.7 0.9 2.9 2.9 2.9 2.8 2.7 2.5 2.3 2.2 2.1 2 1.8 1.7 1.3 0.9 0.5 0.1 -0.3 -0.7 -1.1 -1.5 -1.9 -2.3 -2.3 -2.3 -2.3 -2.3 -2.3 -2.3 -2.3 -2.3 -2.3 -2.3 -2.3 -2.3 -2.3 -2.3 -2.3 3.6 3.2 3.6 3.5 3.1 3.1 3.1 3.1 3.1 3.1 3.1 3.8 3.3 4 4.2 3.4 4.3 3.8 3.1 3.4 3 3.1 2.9 1.1 -0.3 -2.3 -2.3 -2.3 -1.7 -1.6 -1.6 -1.6 -1.5 -1.5 -1.4 -1.4 -1.3 -1.3 -1.3 -1.3 -1.4 -1.5 -1.6 -1.7 -1.8 -2.1 -2.3 -2.3 -2.3 -2.3 -2.3 -2.3 -2.3 -2.3 -2.3 -2.3 -2.3 -2.3 -2.3 -2.3 -2.3 -2.3 -2.3 -2.3 -2.3 -2.3 -2.3 -2.3 -2.3 -2.3 -2.3 -2.3 -2.3 -2.3 -2.3 -2.3 -2.3 -2.3 -2.3 -2.3 -2.3 -2.3 -2.3 -2.3 -2.3 -2.3 -2.3 -2.3 -2.3 -2.3 -2.3 -2.3 -2.3 -2.3 -2.3 -2.3 -2.3 -2.3 -2.3 -2.3 -2.3 -2.3 -2.3 -2.3 -2.3 -2.3 -2.3 -2.3 -2.3 -2.3 -2.3 -2.3 -2.3 -2.3
4.9 5.4 5.7 5.7 4.8 3.8 3.5 5.8 3.2 2.9 2.7 2.6 2.7 3 3.3 5 5 3.8 3.5 3.1 3.6 4.1 3.9 3.6 3.1 2.9 2.7 2.5 2.5 2.1 1.8 2.2 2.3 2.3 2.3 3 2.9 2.8 2.8 2.7 2.9 3.4 4 0.8 0.7 0.7 0.7 0.7 0.7 0.9 2.9 2.9 2.9 2.7 2.5 2.4 2.3 2.2 2.1 1.9 1.6 1.2 0.8 0.4 0 -0.4 -0.8 -1.2 -1.6 -2 -2.3 -2.3 -2.3 -2.3 -2.3 -2.3 -2.3 -2.3 -2.3 -2.3 -2.3 -2.3 -2.3 -2.3 -2.3 -2.3 3.8 3 2.9 4 3.2 3.1 3.1 3.1 3.1 3.1 3.2 3.6 3.3 3.6 3.7 3.6 4.1 3.5 3.8 3 2.9 3.1 2.5 0.1 -2.3 -2.3 -1.7 -1.4 -1.3 -1.3 -1.2 -1.2 -1.1 -1.1 -1.1 -1 -1 -0.9 -1 -1.1 -1.2 -1.3 -1.4 -1.6 -1.8 -2.1 -2.3 -2.3 -2.3 -2.3 -2.3 -2.3 -2.3 -2.3 -2.3 -2.3 -2.3 -2.3 -2.3 -2.3 -2.3 -2.3 -2.3 -2.3 -2.3 -2.3 -2.3 -2.3 -2.3 -2.3 -2.3 -2.3 -2.3 -2.3 -2.3 -2.3 -2.3 -2.3 -2.3 -2.3 -2.3 -2.3 -2.3 -2.3 -2.3 -2.3 -2.3 -2.3 -2.3 -2.3 -2.3 -2.3 -2.3 -2.3 -2.3 -2.3 -2.3 -2.3 -2.3 -2.3 -2.3 -2.3 -2.3 -2.3 -2.3 -2.3 -2.3 -2.3 -2.3 -2.3 -2.3 -2.3 -2.3 -2.3
4.8 5.1 5.4 5.7 4.3 3.5 5.7 2.7 2.6 2.5 2.4 2.6 2.9 3.1 3.3 4.2 5.7 4.6 3.9 3.2 3.5 3.3 3.1 3.1 3.1 3 2.9 2.7 3.3 2.5 2.8 3.1 3.3 3.2 3.2 3.1 3 2.9 2.9 2.8 2.8 3 3 0.7 0.7 0.7 0.7 0.7 0.7 0.7 0.8 3.8 2.9 2.8 2.6 2.5 2.4 2.3 2.2 1.9 1.5 1.1 0.7 0.3 -0.1 -0.6 -1 -1.4 -1.8 -2.2 -2.3 -2.3 -2.3 -2.3 -2.3 -2.3 -2.3 -2.3 -2.3 -2.3 -2.3 -2.3 -2.3 -2.3 -2.3 -2.3 2.9 3.4 3.8 3.6 3.1 3.1 3.1 3.1 3.1 3.1 4 3.7 3.3 3.5 3.4 3.7 5 3.5 3.8 3.3 3.1 3.4 1.7 -2.3 -2.3 -1.4 -1.1 -1 -0.9 -0.9 -0.9 -0.8 -0.8 -0.7 -0.7 -0.6 -0.6 -0.7 -0.8 -0.9 -1 -1.1 -1.3 -1.6 -1.8 -2 -2.3 -2.3 -2.3 -2.3 -2.3 -2.3 -2.3 -2.3 -2.3 -2.3 -2.3 -2.3 -2.3 -2.3 -2.3 -2.3 -2.3 -2.3 -2.3 -2.3 -2.3 -2.3 -2.3 -2.3 -2.3 -2.3 -2.3 -2.3 -2.3 -2.3 -2.3 -2.3 -2.3 -2.3 -2.3 -2.3 -2.3 -2.3 -2.3 -2.3 -2.3 -2.3 -2.3 -2.3 -2.3 -2.3 -2.3 -2.3 -2.3 -2.3 -2.3 -2.3 -2.3 -2.3 -2.3 -2.3 -2.3 -2.3 -2.3 -2.3 -2.3 -2.3 -2.3 -2.3 -2.3 -2.3 -2.3 -2.3
4.7 5 5.4 5 5.6 10.4 5.7 3.4 3.1 2.6 3 2.9 2.7 3 3.4 3.9 5 5.6 3.9 3.4 3.2 3.1 3.1 3.1 3.1 3 2.9 2.9 2.1 2.9 2.5 2.7 3.5 3.3 3.2 3.2 3.1 3 3 2.9 2.8 2.9 3.3 0.7 0.7 0.7 0.7 0.7 0.7 0.7 0.7 1.2 3.5 2.9 2.7 2.6 2.5 2.4 2.2 1.8 1.4 0.9 0.5 0.1 -0.3 -0.7 -1.1 -1.5 -1.9 -2.3 -2.3 -2.3 -2.3 -2.3 -2.3 -2.3 -2.3 -2.3 -2.3 -2.3 -2.3 -2.3 -2.3 -2.3 -2.3 -2.3 3.1 4.5 3.7 3.2 3.1 3.1 3.1 3.1 3.1 3.1 3.6 3.4 4 3.7 3.7 4.6 3.4 3.7 4.7 4.4 3.2 4.3 -2.3 -2.3 -0.9 -0.9 -0.6 -0.6 -0.6 -0.5 -0.5 -0.4 -0.4 -0.4 -0.3 -0.3 -0.4 -0.5 -0.6 -0.7 -0.8 -1.1 -1.3 -1.5 -1.8 -2 -2.2 -2.3 -2.3 -2.3 -2.3 -2.3 -2.3 -2.3 -2.3 -2.3 -2.3 -2.3 -2.3 -2.3 -2.3 -2.3 -2.3 -2.3 -2.3 -2.3 -2.3 -2.3 -2.3 -2.3 -2.3 -2.3 -2.3 -2.3 -2.3 -2.3 -2.3 -2.3 -2.3 -2.3 -2.3 -2.3 -2.3 -2.3 -2.3 -2.3 -2.3 -2.3 -2.3 -2.3 -2.3 -2.3 -2.3 -2.3 -2.3 -2.3 -2.3 -2.3 -2.3 -2.3 -2.3 -2.3 -2.3 -2.3 -2.3 -2.3 -2.3 -2.3 -2.3 -2.3 -2.3 -2.3 -2.3 -2.3
5.8 5 5.3 11.2 5.7 4.7 7.4 4.4 3.8 3.3 3.6 3.2 2.9 3.1 3.7 3.7 5.1 5.6 4.9 4.2 4.1 4.3 3.9 3.7 3.5 3.3 3.1 3.5 3 3 3 2.9 3.4 3.6 3.4 3.2 3.2 3.1 3.1 2.9 2.8 3.1 3.5 0.7 0.7 0.7 0.7 0.7 0.7 0.7 1 1.4 2 3 2.8 2.7 2.6 2.4 2 1.6 1.2 0.8 0.4 0 -0.4 -0.8 -1.2 -1.6 -2 -2.3 -2.3 -2.3 -2.3 -2.3 -2.3 -2.3 -2.3 -2.3 -2.3 -2.3 -2.3 -2.3 -2.3 -2.3 -2.3 -2.3 4.3 4.1 3.6 3.1 3.1 3.1 3.1 3.1 3.2 4.7 4.3 2.9 3.2 3.8 3.3 3.5 3.8 4.3 2.5 1.6 -2.3 -2.3 -0.6 -0.2 -0.1 -0.3 -0.1 -0.2 -0.2 -0.2 -0.1 -0.1 0 0 0 -0.1 -0.2 -0.3 -0.4 -0.6 -0.8 -1.1 -1.3 -1.5 -1.8 -2 -2.2 -2.3 -2.3 -2.3 -2.3 -2.3 -2.3 -2.3 -2.3 -2.3 -2.3 -2.3 -2.3 -2.3 -2.3 -2.3 -2.3 -2.3 -2.3 -2.3 -2.3 -2.3 -2.3 -2.3 -2.3 -2.3 -2.3 -2.3 -2.3 -2.3 -2.3 -2.3 -2.3 -2.3 -2.3 -2.3 -2.3 -2.3 -2.3 -2.3 -2.3 -2.3 -2.3 -2.3 -2.3 -2.3 -2.3 -2.3 -2.3 -2.3 -2.3 -2.3 -2.3 -2.3 -2.3 -2.3 -2.3 -2.3 -2.3 -2.3 -2.3 -2.3 -2.3 -2.3 -2.3 -2.3 -2.3 -2.3
5.6 5.6 5.2 5.3 5.7 5.3 5.2 5.1 4.5 4 3.9 3.7 3.7 3.6 3.9 3.7 4.4 5.6 5.8 4.8 4.9 5 4.6 4.6 4.1 4.5 4.4 4.7 4.2 4.1 4.1 4 3.8 3.9 3 2.1 2.5 3.4 4 3.8 3.8 4.3 4.1 1.9 0.7 0.8 0.8 0.9 0.4 1 1.5 1.9 2.1 2.3 2.9 2.8 2.7 2.3 1.9 1.5 1.1 0.7 0.3 -0.1 -0.5 -0.9 -1.3 -1.7 -2.1 -2.3 -2.3 -2.3 -2.3 -2.3 -2.3 -2.3 -2.3 -2.3 -2.3 -2.3 -2.3 -2.3 -2.3 -2.3 -2.3 4.3 3.4 3.1 3.1 3.1 3.1 3.1 3.1 3.1 3.3 4 3.9 4.2 3.2 4 3.6 4.3 2.3 1.1 -0.4 -2.3 -2.3 3.5 1.3 0.8 0.5 0.2 0.3 0.1 0.2 0.2 0.3 0.3 0.3 0.4 0.2 0.1 0.1 -0.1 -0.3 -0.6 -0.8 -1 -1.3 -1.5 -1.7 -2 -2.2 -2.3 -2.3 -2.3 -2.3 -2.3 -2.3 -2.3 -2.3 -2.3 -2.3 -2.3 -2.3 -2.3 -2.3 -2.3 -2.3 -2.3 -2.3 -2.3 -2.3 -2.3 -2.3 -2.3 -2.3 -2.3 -2.3 -2.3 -2.3 -2.3 -2.3 -2.3 -2.3 -2.3 -2.3 -2.3 -2.3 -2.3 -2.3 -2.3 -2.3 -2.3 -2.3 -2.3 -2.3 -2.3 -2.3 -2.3 -2.3 -2.3 -2.3 -2.3 -2.3 -2.3 -2.3 -2.3 -2.3 -2.3 -2.3 -2.3 -2.3 -2.3 -2.3 -2.3 -2.3 -2.3 -2.3 -2.3
5.6 5.2 5 5.1 5.5 5.7 4.5 4.8 5.2 4.3 4.2 4.1 4 3.5 3.3 3.5 4.9 5.6 4.9 4.9 5 4.5 4.6 4.7 4.6 4.2 4.2 4.5 4.7 4.8 4.6 4.3 3.5 0.7 0.6 1.3 0.7 0.5 0.8 2 3.8 4.9 4.4 2.9 0.6 1.2 1.3 1.4 1.5 1.4 2.1 2 2.1 2.1 2 2.9 2.6 2.2 1.8 1.4 1 0.6 0.2 -0.2 -0.6 -1 -1.5 -1.9 -2.3 -2.3 -2.3 -2.3 -2.3 -2.3 -2.3 -2.3 -2.3 -2.3 -2.3 -2.3 -2.3 -2.3 -2.3 -2.3 -2.3 3.8 4.1 3.8 3.1 3.1 3.1 3.1 3.1 3.3 4.4 4.2 3.4 3.4 3.9 4.2 4.2 1.9 0.4 -0.7 -2.3 -2.3 5.2 5.4 2.5 1.6 1 0.7 0.6 0.5 0.5 0.6 0.6 0.7 0.7 0.6 0.5 0.4 0.2 -0.1 -0.3 -0.5 -0.8 -1 -1.2 -1.5 -1.7 -2 -2.2 -2.3 -2.3 -2.3 -2.3 -2.3 -2.3 -2.3 -2.3 -2.3 -2.3 -2.3 -2.3 -2.3 -2.3 -2.3 -2.3 -2.3 -2.3 -2.3 -2.3 -2.3 -2.3 -2.3 -2.3 -2.3 -2.3 -2.3 -2.3 -2.3 -2.3 -2.3 -2.3 -2.3 -2.3 -2.3 -2.3 -2.3 -2.3 -2.3 -2.3 -2.3 -2.3 -2.3 -2.3 -2.3 -2.3 -2.3 -2.3 -2.3 -2.3 -2.3 -2.3 -2.3 -2.3 -2.3 -2.3 -2.3 -2.3 -2.3 -2.3 -2.3 -2.3 -2.3 -2.3 -2.3 -2.3 -2.3
4.7 4.9 4.8 4.7 4.1 5.7 3.9 3.6 3.7 3.6 3.5 3.8 3.8 3.5 3.1 3.6 5.1 5.4 4.4 3.8 3.4 2.9 2.8 2.9 3 3.1 3.7 4.4 4.1 4.1 3.4 2.4 0 0.3 0.4 0.2 0.1 1 1.3 0.1 0.3 3.3 4.1 3.3 1.6 1.6 1.6 1.6 1.6 1.7 1.8 1.8 1.8 1.8 1.8 2 2.9 2.2 1.7 1.3 0.9 0.5 0 -0.4 -0.8 -1.2 -1.6 -2 -2.3 -2.3 -2.3 -2.3 -2.3 -2.3 -2.3 -2.3 -2.3 -2.3 -2.3 -2.3 -2.3 -2.3 -2.3 -2.3 4.1 3.7 3.8 4 3.3 3.1 3.1 3.1 3.1 3.2 3.8 4.7 3.6 3.4 3.4 4.4 2.1 -0.1 -2.3 -2.3 -2.3 4.5 5.3 5.3 5.6 2.2 1.4 1.2 0.8 0.9 0.9 1 1 1 0.9 0.8 0.6 0.4 0.2 -0.1 -0.3 -0.5 -0.8 -1 -1.2 -1.5 -1.7 -1.9 -2.2 -2.3 -2.3 -2.3 -2.3 -2.3 -2.3 -2.3 -2.3 -2.3 -2.3 -2.3 -2.3 -2.3 -2.3 -2.3 -2.3 -2.3 -2.3 -2.3 -2.3 -2.3 -2.3 -2.3 -2.3 -2.3 -2.3 -2.3 -2.3 -2.3 -2.3 -2.3 -2.3 -2.3 -2.3 -2.3 -2.3 -2.3 -2.3 -2.3 -2.3 -2.3 -2.3 -2.3 -2.3 -2.3 -2.3 -2.3 -2.3 -2.3 -2.3 -2.3 -2.3 -2.3 -2.3 -2.3 -2.3 -2.3 -2.3 -2.3 -2.3 -2.3 -2.3 -2.3 -2.3 -2.3 -2.3 -2.3
3.2 4.1 4 3.8 3.8 4.3 5.4 3.9 4.1 4 4 4.1 4.3 3.7 3.8 3.7 5.6 5.4 4.4 2.9 2.1 2.3 2.8 3.1 2.5 2.8 3.3 3.3 2.9 2.9 1.9 0 0 0 0.2 0.4 0.9 1.7 1.5 0 0.6 -0.4 2 2.4 1.6 1.6 1.6 1.6 1.6 1.6 1.6 1.5 1.4 1.4 1.5 1.6 2.1 3.5 2.2 1.4 0.7 0.3 -0.1 -0.5 -0.9 -1.3 -1.7 -2.1 -2.3 -2.3 -2.3 -2.3 -2.3 -2.3 -2.3 -2.3 -2.3 -2.3 -2.3 -2.3 -2.3 -2.3 -2.3 4.1 4.3 4.3 3.9 3.8 3.1 3.1 3.1 3.3 3.7 3.9 5.9 4.5 4.7 3.4 3.8 2.4 -0.1 -2.3 -2.3 4.4 5 5.3 5.2 5.2 5.6 2.6 1.8 1.5 1.2 1.2 1.3 1.3 1.3 1.2 1.1 0.9 0.7 0.4 0.2 0 -0.3 -0.5 -0.7 -1 -1.2 -1.4 -1.7 -1.9 -2.1 -2.3 -2.3 -2.3 -2.3 -2.3 -2.3 -2.3 -2.3 -2.3 -2.3 -2.3 -2.3 -2.3 -2.3 -2.3 -2.3 -2.3 -2.3 -2.3 -2.3 -2.3 -2.3 -2.3 -2.3 -2.3 -2.3 -2.3 -2.3 -2.3 -2.3 -2.3 -2.3 -2.3 -2.3 -2.3 -2.3 -2.3 -2.3 -2.3 -2.3 -2.3 -2.3 -2.3 -2.3 -2.3 -2.3 -2.3 -2.3 -2.3 -2.3 -2.3 -2.3 -2.3 -2.3 -2.3 -2.3 -2.3 -2.3 -2.3 -2.3 -2.3 -2.3 -2.3 -2.3 -2.3 -2.3 -2.3
2.2 3.3 3.3 2.8 2.7 2.9 5.4 3.2 3.6 4.2 4.5 4.5 4.2 3.9 4 2.7 6.1 5 3.2 3 1.8 2.1 3 3.8 2.6 2.6 2.9 2.5 1.5 2 1 0.3 0.2 -0.1 0.1 1.5 1.6 1.2 0.8 0.4 0.2 0.5 1.1 0.7 1.7 1.6 1.6 1.6 1.6 1.6 1.6 1.5 1.3 1.3 1.4 1.5 1.9 2.5 3.9 2.3 1.4 0.5 -0.1 -0.6 -1 -1.4 -1.8 -2.2 -2.3 -2.3 -2.3 -2.3 -2.3 -2.3 -2.3 -2.3 -2.3 -2.3 -2.3 -2.3 -2.3 -2.3 -2.3 3.9 4.3 4.2 3.5 3.1 3.1 3.3 4 4 4 4.3 4 4.4 4.5 3.9 3.1 -2.3 -2.3 1.2 5.6 5.5 5.2 5.6 5.8 5.8 5.3 3.7 2.2 1.8 1.6 1.6 1.7 1.7 1.5 1.4 1.2 0.9 0.7 0.5 0.2 0 -0.3 -0.5 -0.7 -1 -1.2 -1.4 -1.7 -1.9 -2.1 -2.3 -2.3 -2.3 -2.3 -2.3 -2.3 -2.3 -2.3 -2.3 -2.3 -2.3 -2.3 -2.3 -2.3 -2.3 -2.3 -2.3 -2.3 -2.3 -2.3 -2.3 -2.3 -2.3 -2.3 -2.3 -2.3 -2.3 -2.3 -2.3 -2.3 -2.3 -2.3 -2.3 -2.3 -2.3 -2.3 -2.3 -2.3 -2.3 -2.3 -2.3 -2.3 -2.3 -2.3 -2.3 -2.3 -2.3 -2.3 -2.3 -2.3 -2.3 -2.3 -2.3 -2.3 -2.3 -2.3 -2.3 -2.3 -2.3 -2.3 -2.3 -2.3 -2.3 -2.3 -2.3 -2.3 -2.3
2.5 2.5 2.6 2.9 2.8 3 3.8 4.7 2.7 3.1 3.5 3.7 3.5 3.6 3.4 4.1 4.1 4.9 3.4 2.7 2.4 2.1 3 4 3.4 3.3 3.1 3.5 2.1 1.2 0.4 0.8 0.3 0.3 0.6 1.2 1.8 0.7 0.6 0.3 0.4 0.9 1.1 0.8 2.4 1.6 1.6 1.6 1.6 1.6 1.6 1.6 1.5 2.2 1.7 1.9 2.9 2.9 2.8 3.3 2.6 1.4 0.3 -0.6 -1.2 -1.6 -2.3 -2.3 -2.3 -2.3 -2.3 -2.3 -2.3 -2.3 -2.3 -2.3 -2.3 -2.3 -2.3 -2.3 -2.3 3.2 4 4.4 4.6 4.4 3.1 3.1 3.1 3.1 4.4 4 4.6 4.2 4.6 4.3 5.4 4.8 -2.3 -0.2 2 5.8 5.7 5.6 5.2 5.4 5.6 5.6 5.5 5.2 2.6 2.1 1.9 2 2 1.8 1.6 1.4 1.2 0.9 0.7 0.5 0.2 0 -0.2 -0.5 -0.7 -0.9 -1.2 -1.4 -1.6 -1.9 -2.1 -2.3 -2.3 -2.3 -2.3 -2.3 -2.3 -2.3 -2.3 -2.3 -2.3 -2.3 -2.3 -2.3 -2.3 -2.3 -2.3 -2.3 -2.3 -2.3 -2.3 -2.3 -2.3 -2.3 -2.3 -2.3 -2.3 -2.3 -2.3 -2.3 -2.3 -2.3 -2.3 -2.3 -2.3 -2.3 -2.3 -2.3 -2.3 -2.3 -2.3 -2.3 -2.3 -2.3 -2.3 -2.3 -2.3 -2.3 -2.3 -2.3 -2.3 -2.3 -2.3 -2.3 -2.3 -2.3 -2.3 -2.3 -2.3 -2.3 -2.3 -2.3 -2.3 -2.3 -2.3 -2.3 -2.3 -2.3
3 2.6 2.3 2.5 2.8 3.2 3.2 5.7 2.9 3.1 3.2 3.2 2.7 3.1 3.2 3.7 3.4 4.3 3 2.7 2.4 2.3 3.4 4.7 4.2 4 3.9 3.6 2.7 1 0.9 0.3 0.5 0.5 0.5 0.2 0.6 0.4 0.2 0 -0.2 0.7 0.3 1.1 2.5 2.3 1.6 1.6 1.6 1.6 1.6 1.6 1.7 2.1 3.3 3.1 3.2 3.1 3.1 3.1 3.6 3.2 1.4 -2.3 -2.3 -2.3 -2.3 -2.3 -2.3 -2.3 -2.3 -2.3 -2.3 -2.3 -2.3 -2.3 -2.3 -2.3 -2.3 -2.3 4.7 4.7 3.9 4.2 3.7 3.1 3.1 3.1 3.1 3.1 3.3 4.2 6.1 4.3 4.6 5.9 4.8 -2.3 0.3 2.6 5.1 5.3 5.3 5.3 5 5.2 5.4 5.3 5.2 5.2 2.9 2.3 2.3 2.3 2.1 1.9 1.7 1.4 1.2 1 0.7 0.5 0.3 0 -0.2 -0.4 -0.7 -0.9 -1.1 -1.4 -1.6 -1.9 -2.1 -2.3 -2.3 -2.3 -2.3 -2.3 -2.3 -2.3 -2.3 -2.3 -2.3 -2.3 -2.3 -2.3 -2.3 -2.3 -2.3 -2.3 -2.3 -2.3 -2.3 -2.3 -2.3 -2.3 -2.3 -2.3 -2.3 -2.3 -2.3 -2.3 -2.3 -2.3 -2.3 -2.3 -2.3 -2.3 -2.3 -2.3 -2.3 -2.3 -2.3 -2.3 -2.3 -2.3 -2.3 -2.3 -2.3 -2.3 -2.3 -2.3 -2.3 -2.3 -2.3 -2.3 -2.3 -2.3 -2.3 -2.3 -2.3 -2.3 -2.3 -2.3 -2.3 -2.3 -2.3 -2.3 -2.3 -2.3
1.6 2.6 2.4 2.6 2.8 3.1 2.9 4.3 3.7 3 3.4 3.4 3.2 2.4 2.3 2.3 2.4 3.6 3 2.4 2 1.9 2.6 3.9 3 3.6 3.9 3.2 3 2.5 1.6 0.2 0.3 0.7 0.4 0.6 0.4 0.6 0.9 0.6 0.1 0.3 0.5 -0.3 2.8 3 1.5 1.6 0.4 0 0.6 1.5 2.2 2.9 3 3.2 3.5 3.5 3.3 4.6 -2.3 -2.3 -2.3 -2.3 -2.3 -2.3 -2.3 0.1 0 -2.3 -2.1 -2.3 -2.3 -2.3 -2.3 -2.3 -2.3 0.1 4.7 5.4 4.3 3.9 3.3 3.1 3.1 3.1 3.1 3.1 3.1 3.1 3.1 3.8 4.3 6 5.1 5.1 -2.3 0.2 2.9 5.6 5.3 5.1 4.9 4.9 4.9 5 5.1 5 5.1 5.4 4.4 2.7 2.6 2.4 2.2 1.9 1.7 1.5 1.2 1 0.7 0.5 0.3 0 -0.2 -0.4 -0.7 -0.9 -1.1 -1.4 -1.6 -1.8 -2.1 -2.3 -2.3 -2.3 -2.3 -2.3 -2.3 -2.3 -2.3 -2.3 -2.3 -2.3 -2.3 -2.3 -2.3 -2.3 -2.3 -2.3 -2.3 -2.3 -2.3 -2.3 -2.3 -2.3 -2.3 -2.3 -2.3 -2.3 -2.3 -2.3 -2.3 -2.3 -2.3 -2.3 -2.3 -2.3 -2.3 -2.3 -2.3 -2.3 -2.3 -2.3 -2.3 -2.3 -2.3 -2.3 -2.3 -2.3 -2.3 -2.3 -2.3 -2.3 -2.3 -2.3 -2.3 -2.3 -2.3 -2.3 -2.3 -2.3 -2.3 -2.3 -2.3 -2.3 -2.3 -2.3 -2.3 -2.3
1.1 1.9 2.8 2.6 3 3 2.8 4 5.8 4.8 3.2 3 2.8 2.8 2.7 2.6 2.5 2.5 2.4 2.5 2.7 2.3 2.8 3.7 3.5 3.7 2.6 1.8 2.9 2.9 2.4 0.7 0 -0.2 0.2 0.3 0.3 1 1.3 1.2 0 0.4 0.6 0.7 0.7 2.7 1.5 1.6 1.2 0.4 0.1 0.8 1.7 2.6 2.9 3.3 5.3 -2.3 -2.3 -2.3 -2.3 -2.3 -2.3 2.5 4 5 4.8 4.1 2.6 -2.3 1.3 0.4 -2.3 -2.3 -2.3 -2.3 -2.3 4.3 4.3 4.4 3.5 3.1 3.1 3.1 3.1 3.1 3.1 3.1 3.1 3.1 3.1 3.4 4.1 4.4 4.8 -2.3 0.2 4.2 5.4 5.3 5 4.9 4.7 4.6 4.9 4.8 4.8 5.1 5.5 5.4 5 2.9 2.6 2.4 2.2 1.9 1.7 1.5 1.2 1 0.8 0.5 0.3 0.1 -0.2 -0.4 -0.6 -0.9 -1.1 -1.3 -1.6 -1.8 -2 -2.3 -2.3 -2.3 -2.3 -2.3 -2.3 -2.3 -2.3 -2.3 -2.3 -2.3 -2.3 -2.3 -2.3 -2.3 -2.3 -2.3 -2.3 -2.3 -2.3 -2.3 -2.3 -2.3 -2.3 -2.3 -2.3 -2.3 -2.3 -2.3 -2.3 -2.3 -2.3 -2.3 -2.3 -2.3 -2.3 -2.3 -2.3 -2.3 -2.3 -2.3 -2.3 -2.3 -2.3 -2.3 -2.3 -2.3 -2.3 -2.3 -2.3 -2.3 -2.3 -2.3 -2.3 -2.3 -2.3 -2.3 -2.3 -2.3 -2.3 -2.3 -2.3 -2.3 -2.3 -2.3 -2.3 -2.3
1.1 3.2 3.1 3 3.9 2.6 3 4 5.3 3.4 2.9 2.8 2.9 3.1 3.1 3 2.9 2.7 2.6 2.6 2.5 2.9 3.1 3.7 3.8 3.3 1.8 2 2.3 2.8 2.8 1.7 1 0.5 -0.2 0.1 0.2 1.5 1.6 1.6 0.1 0.5 0.5 0.1 -0.1 2.5 1.5 1.4 1.2 0.9 -0.1 1 1.5 3.9 -2.3 -2.3 -2.3 -2.3 -2.3 -2.3 4.3 4.4 3.6 3.3 3.6 3.5 4.4 4.5 5 4.4 5.5 4.1 5.5 4.6 4.9 5.5 4.8 3.8 3.4 3.2 3.1 3.1 3.1 3.5 4 3.8 3.1 3.1 3.1 3.8 3.6 3.9 4.4 4.8 -2.3 -2.3 4.9 6.1 5.2 5 4.7 4.6 4.4 4.5 4.9 4.7 5.1 5.5 5.9 5.5 2.9 2.6 2.7 2.4 2.2 2 1.7 1.5 1.3 1 0.8 0.6 0.3 0.1 -0.2 -0.4 -0.6 -0.9 -1.1 -1.3 -1.6 -1.8 -2 -2.3 -2.3 -2.3 -2.3 -2.3 -2.3 -2.3 -2.3 -2.3 -2.3 -2.3 -2.3 -2.3 -2.3 -2.3 -2.3 -2.3 -2.3 -2.3 -2.3 -2.3 -2.3 -2.3 -2.3 -2.3 -2.3 -2.3 -2.3 -2.3 -2.3 -2.3 -2.3 -2.3 -2.3 -2.3 -2.3 -2.3 -2.3 -2.3 -2.3 -2.3 -2.3 -2.3 -2.3 -2.3 -2.3 -2.3 -2.3 -2.3 -2.3 -2.3 -2.3 -2.3 -2.3 -2.3 -2.3 -2.3 -2.3 -2.3 -2.3 -2.3 -2.3 -2.3 -2.3 -2.3 -2.3 -2.3
1 3.6 3.2 2.6 1.5 1.3 1.4 1.2 2.4 5.4 2.5 2.6 3.2 3.2 3.4 3.4 3.3 2.9 2.7 2.5 2.2 2.7 3.1 3.7 3.9 2.5 1.8 2.1 2.4 2.7 2.7 2.9 1.7 0.8 0.4 0.1 0.3 1.1 0.9 1.4 1.2 0.4 0.2 0.2 1.2 4.8 1.5 1.2 1.5 4.3 -2.3 -2.3 -2.3 -2.3 -2.3 -2.3 -2.3 3.8 4.1 3.6 3.1 3.1 3.1 3.1 4.3 4.3 3.5 4.9 5.3 4.3 5.4 5.5 5.1 4.7 5.5 4.9 3.6 3.1 3.1 3.1 3.1 3.5 4.5 3.1 3.1 3.1 3.1 3.3 4 4.8 4.6 4.6 4.8 -2.3 -2.3 5.6 4.9 5.1 4.6 5.1 4.6 4.7 4.7 4.7 4.8 5.4 5.1 5.6 5.4 2.7 2.1 2 2.3 2.4 2.2 2 1.7 1.5 1.3 1 0.8 0.6 0.3 0.1 -0.1 -0.4 -0.6 -0.8 -1.1 -1.3 -1.5 -1.8 -2 -2.2 -2.3 -2.3 -2.3 -2.3 -2.3 -2.3 -2.3 -2.3 -2.3 -2.3 -2.3 -2.3 -2.3 -2.3 -2.3 -2.3 -2.3 -2.3 -2.3 -2.3 -2.3 -2.3 -2.3 -2.3 -2.3 -2.3 -2.3 -2.3 -2.3 -2.3 -2.3 -2.3 -2.3 -2.3 -2.3 -2.3 -2.3 -2.3 -2.3 -2.3 -2.3 -2.3 -2.3 -2.3 -2.3 -2.3 -2.3 -2.3 -2.3 -2.3 -2.3 -2.3 -2.3 -2.3 -2.3 -2.3 -2.3 -2.3 -2.3 -2.3 -2.3 -2.3 -2.3 -2.3 -2.3 -2.3
