ncols 200
nrows 99
xllcorner 370000
yllcorner 390300
cellsize 50
22 22.5 22.6 22.7 23 23.1 23.2 23.5 23.6 24.7 25.5 25.2 24.8 24.9 24.9 25.2 25.8 26.2 26 26 26.2 27.1 27 26.6 26.9 26.8 26.1 25.5 24.6 24.1 23.7 23.3 23.2 22.5 22.5 21.2 21.9 22.2 21.4 20.3 19.7 19.7 19.5 19.7 20.5 21.4 21.2 20.9 20.9 20.3 20.3 20.1 19.8 19.6 20.5 19.9 19.7 19.7 20.1 19.6 19.6 20.1 20.1 20.5 18.8 13 12.6 13.4 18.7 19.6 19.9 20.2 20.9 21.1 20.2 20.2 20.3 20.4 20.3 20.3 20.2 20.1 19.9 20.5 20.6 20.8 20.6 20.6 20.8 21.1 21.3 20.9 20.6 21.3 21.2 22.5 22 22.6 22.6 22.6 21.7 21.1 20.7 21.1 20.9 20.9 21 21.8 21.4 21.7 21.7 21.6 21.3 21.3 21.2 21.4 21.6 21.6 21.5 21.5 21.5 21.5 21.6 21.8 22 22.3 22.3 22 22.3 22.4 22.1 22.1 21.9 22.2 22 21.7 22.1 22.1 22 22.1 22.3 22.3 22.7 22.2 22.1 22.4 22.5 22.6 22.7 22.9 23.2 29.3 23.5 23.3 23.6 23.5 23.4 23.3 23.7 23.9 23.7 23.6 23.6 23.8 24 24.3 24.2 24.5 24.5 24.5 24.6 25 24.9 24.9 23.6 25 28.4 23.5 22.8 23.6 23.1 23.3 23.6 23.5 23.3 23.4 24.2 25.2 24.9 24.4 24.8 25.2 25.7 25.9 25.6 25.3 24.8 25.3 27 26.5
22 22.2 22.5 22.3 22.6 22.5 22.4 22.6 22.9 23.4 24.1 24.7 24.9 24.2 24.2 24.3 24.7 24.9 25.1 25.4 25.9 26.4 25.6 26.3 26.8 26.4 26 25.6 24.5 24.1 23.7 23 23.4 22.1 21.3 20.8 22.1 21.6 20.9 20.5 19.7 19.6 19.4 19.6 20.1 20.5 20.4 20.4 20.9 20.4 20.5 20.3 19.6 20.8 19.4 19.6 19.6 19.6 19.6 19.8 20.1 20.8 20.9 20.7 16.7 12.7 15.6 18.8 19.4 19.8 20.2 20.1 20.3 20.6 20.3 20.1 20.2 20.3 20.4 20.5 20.5 20.4 19.4 19.6 20.4 20.3 20.2 20.6 20.9 20.9 21 20.5 21.1 20.5 21 21.4 21.6 21.9 21.8 21.7 21.3 21 20.4 20.7 21 20.8 21.6 21.5 21.5 21.7 21.9 20.9 21.6 21.6 20.9 21.1 21.3 21.7 21.6 21.6 21.5 21.2 21.5 21.7 22 22.2 21.8 21.6 22 22.2 22.4 21.9 21.5 21.5 21.8 21.9 21.9 21.9 22.1 22 22.6 22.4 22.2 22.4 22.2 22.2 22.3 22.2 22.2 22.7 25.6 27.2 22.9 22.7 22.9 23.3 23.1 23.8 24.1 24.3 23.5 23.6 23.6 23.6 23.8 24 24.3 24.7 24.7 24.8 24.7 25.5 27.9 24.8 24.3 23.4 23.2 22.9 23.1 23.5 23.6 23.6 24 24.3 23.5 23.3 23.5 24.4 24.4 24 24.6 24.9 25 25 25.5 25.8 25.8 25.2 24.9 26.7
22.1 19.9 22.2 22.1 22.2 22.7 22.8 22.7 22.8 22.8 23 23.5 24.6 23.8 23.9 24 24 24.4 24.7 25 24.9 25.4 26.2 25.8 25.9 26.1 25.2 24.9 24.6 23.9 23.4 23.3 22.8 21.1 20.7 21.4 21.4 20.6 20.2 19.9 19.7 19.8 18.9 19.5 19.8 19.8 20 20.2 20.5 20.7 20.7 20.6 20.1 19.6 19.5 19.6 21.2 20.3 19.7 20 20.2 20.5 20.2 16.5 13 13 18.2 19.8 20.2 20.3 20.5 20.6 20.6 20.3 20.3 20.3 20.2 20.5 20.2 20.3 20.9 20.4 20.6 20.4 20.7 20.4 20.2 20.6 21 20.8 20.7 20.8 21.2 21.3 20.8 21.2 20.9 21.3 21.2 21 20.6 20.7 21.4 20.8 21.4 21 21.4 21.5 21.6 21.4 21.8 21.7 21.8 21 20.8 20.8 21 20.9 21.6 21.6 21.1 21.2 21.4 21.6 21.8 22.1 21.5 21.4 21.7 21.7 21.9 21.6 21.2 21.1 21.5 22 22 21.9 21.9 22.1 22.6 22.5 22.3 22.6 22.6 22.5 22.4 22.2 22.2 22.6 22.8 22.8 22.8 22.7 23 23.5 23.8 23.8 24.4 24.6 23.5 23.7 23.5 24 23.9 23.7 23.9 25 26.5 24.6 24.7 24.7 25 24.9 25 24.7 24.2 23.8 23.8 23.7 23.5 24 24.5 24.9 24.4 23.6 23.3 23.5 23.6 23.2 24.4 24.5 24.4 24.4 24.9 25.6 25.8 25.6 24.9 24.6
22 22.2 22.5 23 23 23 23.2 23.2 23.2 23.4 23.3 23.1 23.2 23.3 23.5 23.8 23.9 24 23.4 23.5 24.1 23.4 24.5 24.8 24.6 24.7 24 24.1 24.2 23.5 23 23.2 21.3 20.8 21.7 21.1 20.9 20.7 20.5 20.4 20.2 20.1 19.9 19.1 19.3 19.6 19.8 20 20.2 21.1 20.9 20.5 20.1 19.3 19.8 21.1 21.7 21 19.7 19.5 19.7 20 18.8 13.4 13 17 19.2 20.2 20.5 20.7 20.7 20.6 20.4 20.1 20.1 20.6 20.3 20.3 20.1 20.1 20.2 20.4 20.8 20.3 20.4 20.3 20.2 20.5 20.8 20.9 20.6 20.5 20.7 21.1 21.1 21.1 21.1 21.2 21 20.7 21.4 21.6 21.7 21.5 21.4 21.6 21.6 21.6 21.7 21.8 21.4 21.2 21.7 20.7 20.6 20.4 20.6 20.9 21.3 21 21.1 21.1 21.2 21.4 21.7 22.1 21.7 21.5 21.3 21 21.6 21.4 21.4 21.6 21.7 22 22.1 22.1 22 21.9 22.2 22.3 22.4 22.4 22.5 22.6 22.6 22.8 22.4 22.6 30.3 22.7 23.5 23.3 23.1 23.5 23.6 23.4 23.5 23.8 23.6 23.8 23.8 23.9 25 23.8 24.3 24.6 24.5 24.6 24.8 25.1 25.3 25.3 25.2 25 24.8 24.7 24.7 24.2 24.6 24.5 25 24.8 24.4 23.8 23.1 24.5 24 22.6 24.4 24.5 24.8 24.5 24.8 25.5 25.3 25.7 25.2 24.9
21.9 22.4 22.5 22.9 23.1 23 23.1 23.2 23.3 23.4 23.3 23.1 23 23.4 23.5 23.6 22.9 22.9 22.9 22.5 22.7 23.9 22.6 24.2 23.4 23.4 23.2 22.8 22.9 23 22.2 23 20.4 21.6 21.8 21.9 21.5 20.9 20.5 20.9 20.6 20.4 20 19.3 19.1 19.3 19.4 19.6 20 20.7 20.5 19.6 19.2 20.1 20.8 21.8 21.7 20.3 19.3 19.3 19.6 20.2 16.3 13 13 17.6 19.6 20.3 20.5 20.7 20.7 20.2 20.1 20 20 20.4 20.3 20.1 20 20.1 20.5 20.2 20.8 20.3 20.1 21 20.4 20.4 20.4 20.7 20.8 20.9 21 21 21 21.1 21.1 21.1 20.9 20.7 20.7 21.3 21.2 21.1 21 21.6 21.3 20.9 21 21.5 21.2 21.1 21 20.8 20.3 20.7 20.8 21.1 21.2 21 21.2 21.2 21.3 21.4 21.5 22 21.9 21.7 21.8 21.7 22 22.2 22.1 22.2 22.3 22.3 22.3 22.2 22.1 22.1 22.2 22.3 22.4 22.5 22.6 22.7 22.9 22.4 22.4 22.7 30.7 23.1 23.5 23.2 23.3 23.7 23.7 23.8 24 24.2 24 24.2 24.4 24.1 23.8 24.1 24.5 24.6 24.7 24.8 24.9 25.1 25.1 25.1 25.1 25 25 24.6 24.8 24.8 25 25.3 25.3 25.5 24.9 24.3 24.4 24.6 24.6 24.1 25.1 24.6 25.2 24.8 24.9 25 25.1 25.7 25.6 25.3
22.2 22.4 22.4 22.8 23 23.1 23.1 23.2 23.2 23.3 23.3 23.2 23.3 23.5 23.1 22.7 22.9 23 23.4 22.9 22.3 22.4 22.3 22.7 22.5 22.6 22.6 22.3 22.1 21.5 20.7 20.6 21.9 21.3 20.7 20.8 21 21.8 20.9 20.5 20.8 20.4 19.7 19.5 18.9 18.6 18.8 19 19.7 20.1 19.8 18.4 20.7 21.1 21.2 21.7 21.5 14.4 17.3 19.5 19.3 18.7 13 13 15.3 16.9 19.2 19.8 20.2 20.5 20.3 20 19.9 19.7 19.8 20 20 19.9 19.9 20.3 20.5 20.5 20.5 20.4 20.7 20.6 20.5 20.7 20.8 20.8 20.4 20.5 20.8 21 21 21.1 20.7 20.6 20.6 20.7 20.8 20.9 20.8 20.7 20.6 20.8 20.7 20.8 20.8 20.7 20.2 20.2 20.8 20.8 20.7 21.1 21.3 21.4 21.3 21 21.2 21.3 21.4 21.4 21.4 21.8 22.1 22.2 22.3 22.3 22.6 22.4 22.9 22.9 22.9 22.4 22.3 22.4 22.3 22.3 22.4 22.6 22.6 22.6 22.6 22.8 23 23 22.3 22.6 30.3 23.1 23.4 23.1 23.4 23.3 22.7 22.8 23.4 23.8 23.9 24.1 24.1 24.1 24 24.3 24.5 24.6 24.8 24.9 24.8 24.8 24.8 24.9 25 25.1 25.3 24.7 24.9 24.5 25.2 25.1 25 25 25.1 24.9 24.4 24.9 25 24.5 24.8 24.8 25.8 25.7 24.1 23.9 25.4 25.3 25.6 25.7
22.2 22.5 22.5 22.7 22.9 23.1 23.2 23.2 23.3 23.4 23.4 23.2 23.6 23.2 23.8 23.3 23.3 23.3 22.9 22.9 23.5 22.8 22.6 22.3 22.8 22.3 22.3 22.1 21.4 20.9 20 20.5 20.3 20.1 19.7 18.5 19.4 20.2 19.8 19.6 19.8 19.7 18.4 19.2 19.3 18.7 18.6 18.7 18.7 18.3 17.7 20.6 21 21.2 22.1 21.6 18.6 14.4 14.4 18.1 16.8 16.8 13 15.4 15 15.1 18.3 19.5 19.7 19.5 20 19.9 19.9 19.7 19 19.5 19.7 19.6 19.4 19.8 20.3 20.1 20.3 20.5 20.6 20.2 21.2 20.9 20.8 20.7 20.7 20.5 20.6 20.8 20.8 20.8 20.9 20.6 20.6 20.6 20.7 20.7 20.6 20.7 20.9 20.6 20.7 20.6 20.6 20.6 20.5 20.5 20.9 21 20.9 21.1 21.3 21.4 21.3 21.3 21.3 21.4 21.6 21.8 21.5 22 22.4 22.8 22.7 22.5 22.9 23.1 22.8 23.2 22.9 22.9 22.5 23.3 22.4 22.3 22.4 22.2 22.6 22.7 22.7 22.8 22.6 22.9 22.8 22.7 28.6 22.3 20.9 23 22.9 23 23.1 23.4 23.7 23.4 23.3 23.8 24 24 24.1 24.2 24.2 24.4 24.6 24.6 24.5 24.7 24.8 24.9 25 25.2 25.2 25.1 24.6 25 25.1 25.1 25 24.9 24.7 24.8 25.2 25.4 25.3 24.9 25 25.2 25.3 25.5 25.2 24.5 25.4 25.4 26.1 26.6
22.1 22.4 22.8 22.9 23.1 23.1 23.2 23.3 23.4 23.6 23.4 23.1 23.1 23.1 23.7 23 22.9 23.2 23.1 23.3 23.4 23.4 23.4 23 23.4 22.1 22 21.8 21.4 19.7 20.9 21.1 20.5 19.9 19.6 19.2 19.4 19.7 18.6 18.3 18.4 18.6 19.7 19.3 19.7 19 18.7 17.9 16.9 17.3 20.6 21 21.7 21.8 21.9 21.6 14.4 15.6 15 17 17.4 12.9 13 15.3 15 14.9 16.5 18.1 18.7 19.5 19.8 19.6 18.8 18.7 19.4 19.4 19.5 19.4 19.4 19.4 20.4 20.3 20.3 20.4 20.7 20.9 21.1 20.9 20.9 21.2 20.6 20.6 20.9 20.7 20.5 20.4 20.6 20.6 20.6 20.5 20.6 20.6 20.5 20.5 20.4 20.7 20.6 20.4 20.2 20.9 20.9 20.8 21 21.2 21.2 20.9 21.1 21.5 21.3 21.2 21.3 21.5 21.6 21.8 21.7 22.1 22.5 22.8 23 22.7 23 23.3 22.9 23.2 23 23.2 22.4 23 22.8 22.3 22.4 22.2 22.4 22.6 22.7 23.2 23 22.3 20.4 23.1 25.3 25.9 23.1 23.1 23.1 23.2 23.2 23.5 23.8 23.5 23.5 23.6 23.8 24 24 24.1 24 24.1 24.4 24.4 24.4 24.6 24.9 25 25.1 25.1 25 24.7 24.6 24.8 25.1 25.1 25 25 25.3 25.3 25 25.4 25.5 24.7 25.2 25.7 25.9 25.5 25.5 25.3 25.9 25.6 26.2 26.7
22.3 22.6 22.9 23.1 23.3 23.2 23.2 23.3 23.3 23.3 23.1 23 23 23 23 23.5 23.7 23.3 23.3 23.3 23.4 23.4 23.5 23.6 23.6 23.5 22.7 21.3 19.6 21.2 21 21.2 21.2 20.9 20.4 21.1 19.6 19.6 19.3 18.5 18.1 19 19.8 19.6 18.5 19.1 18.9 16 16.1 18.1 20 20.9 21.5 21.1 21.4 14.4 16.7 18.9 19.8 18.1 16.8 12.9 14.9 14.5 14.5 14.7 15.5 16.7 17.2 17.8 18 17.7 17.4 19.4 19.5 19.6 19.6 19.6 19.5 20 20.2 20.5 20.4 20.4 20.6 20.7 20.6 20.8 21.2 21.1 21.3 21.4 21 20.7 20.7 20.6 20.6 20.5 20.8 20.5 20.3 20.3 20.4 20.4 20.6 21 20.7 20.7 21 21.1 21.1 21.3 21.5 21.1 20.8 20.8 21.6 21.6 21.3 21 20.7 21.5 21.7 21.7 21.9 22.3 22.6 22.8 23 22.7 22.9 23.1 23.4 23.5 23.7 23.2 23.2 23.1 22.6 23 23.8 22.9 22.5 22 20.5 22.4 22.7 23.1 23.1 23 25.8 25 23 23.1 23.2 23.2 23.2 23.3 23.6 24 23.4 23.6 23.8 24 24 24.1 24.2 24.5 25.1 24.9 24.3 24.8 24.9 25.2 24.9 25 25.2 24.9 25.3 25.1 25.2 25.4 25.7 25.5 25.3 24.9 25.5 25.3 25.1 25.6 25.6 25.7 25.9 26 26.2 25.5 25.7 26.2 26.3 26.6
22.7 23 20.5 23 22.9 23.5 23.2 23.1 23.1 23 23.1 23 22.9 22.9 23 23.3 23.1 23.1 23.3 23.3 23.4 23.4 23.4 23.4 23.3 23.5 21.7 19.6 22.5 22.4 21.7 21.2 21 20.4 20 19.7 19.5 19.3 18.9 19 19.2 19.5 19.7 18.9 18.4 19.3 16.2 16.4 19.2 19.4 20.4 21.3 21.5 20.8 18 17.1 18.9 21.7 21.6 16.4 12.9 12.9 14.1 14.1 14.1 14.6 16.9 17 16.4 17.4 17.5 18.8 19.3 19.3 19.5 19.7 19.7 19.7 19.8 20.3 20.3 20.8 20.3 20.5 20.6 20.4 20.3 20.7 21 20.4 20.8 21 20.9 20.7 20.7 20.4 20.2 20.1 20.5 20.3 20.2 20.3 20.4 20.4 20.3 20.5 20.9 21 21.2 20.7 21 21.4 21.7 21.7 21.8 21.6 21.8 21.9 21.8 21.8 21.7 21.8 21.9 21.9 22 22.4 22.7 22.8 22.9 23 23.6 23.3 23.5 23.2 23.6 23.7 23.2 23.8 23.2 21.9 19.9 23.4 22.9 23.2 22.8 22.7 22.8 23.1 23.1 23 29.4 23.1 22.8 22.9 23 23.1 23.1 23.3 23.4 23.9 23.4 23.6 23.9 23.8 24 24.2 24.3 24.7 25 24.7 24.8 24.9 25.1 24.6 25.3 25 24.9 25.2 25.7 25.4 25.5 25.4 25.7 25.2 25.3 25.4 25.3 25.2 25.5 25.4 25.5 25.7 25.4 26.1 26.2 26.7 26.8 26.1 26.3 26.4
20.8 22.9 23.1 23 23 23.2 23.2 23.1 23.1 22.7 23.1 23.1 23.1 23.1 23.3 23.4 23.1 23.3 23.3 23.4 23.4 23.5 23.5 23.3 22.7 19.9 19.5 23.1 23.4 23.2 22.6 21.6 21.3 20.7 19.9 19.3 18.9 19.3 18.8 18.8 19.5 19.4 19.2 18.9 18.7 16.7 16.8 17.8 18.9 19.5 20.5 20.7 21.1 21.2 17.4 19.4 21.6 21.8 20.2 16 12.6 14.5 14.4 14.7 16.6 17.1 19.2 19.3 19 18.7 18.9 19.1 18.9 18.9 19.3 19.7 19.5 19.7 19.6 20.8 19.9 19.5 19.6 19.6 19.7 19.7 20 20.5 20.6 20.1 20.2 20.5 20.8 20.7 20.2 20.1 19.7 20.2 20.6 20.1 20.2 20.4 20.3 20.3 20.6 20.9 21.2 21.4 21.5 22 21.9 21.7 21.4 21.3 21.8 21.9 21.9 21.6 21.7 22.1 22 22 22 22.1 22.2 22.6 22.9 23.1 23.3 23.5 23.5 23.4 24.2 24.9 23.5 21.8 19.6 23.7 23.6 23.6 23.8 23.8 23.4 23.2 23 22.7 23 23.2 23.2 23.3 28.8 22.8 23.2 23 22.8 22.3 23.1 23.2 23.2 23.2 23.3 23.1 22.9 23.3 24 24 24.2 24.4 24.5 24.7 24.5 24.4 24.9 24.6 24.6 25 25.3 24.8 25.6 25.5 25.4 25.2 25.7 25 25.5 25.6 25.5 25.3 25.3 25.4 25.7 26.1 26.4 26.1 26.2 26.3 26.3 26.7 26.2 26.2
22.5 23 23.3 23.2 23.1 23.3 23.3 23.2 23.1 22.5 23.2 23.3 23.3 23.4 23.6 23.6 23.6 23.3 23.4 23.3 23.3 23.4 23.6 23.3 19.5 19.8 23.3 23.4 23.4 23.5 23.6 22.6 21.8 20.8 19.9 19 19.3 19.2 19.4 19.7 19.6 19.1 18.9 18.7 18.2 17.3 16 18.5 18.7 19.5 19.9 20 20.2 20 16.7 21.7 22.1 21.1 15.9 12.3 12.7 15.4 16.8 17.4 17.9 18.9 19.3 19.6 19.7 19.4 19.4 19.6 19.1 19.4 19.5 19.4 19.5 19.8 19.7 19.7 20.2 19.3 19.3 19.6 19.5 20.2 19 19.7 19.6 19.9 20.1 19.8 19.8 19.9 19.7 19.7 19.9 20.2 20.1 20.1 20.2 20.1 20.3 21.2 21.6 21.5 21.7 21.9 21.2 21.3 21.9 21.7 21.6 21.3 22 22 21.2 20.9 21.6 22 22.2 22.1 22.1 22.3 22.5 22.8 23 23.1 23.4 23.2 23.3 22 19.8 24.3 23.9 23.8 23.7 23.5 23.6 23.6 23.8 23.6 23.7 23.7 23.5 23.2 23 23.4 23.6 23.6 28.8 23.4 23.4 23.4 23.5 23.4 23.2 23.2 23.4 23.4 23.5 23.5 23.8 23.9 24 23.9 24 24.2 24.5 24.6 24.7 24.6 24.3 24.5 24.7 24.9 24.7 24.9 25.1 25.1 25.3 25.3 25.1 25.3 25 25.2 24.6 24.8 24.6 25.3 25.4 25.7 26 26.2 26.3 26.2 26.3 26.5 26.6 26
22.5 23.3 23.5 23.5 23.1 22.9 23 22.8 22.8 23 23.3 23.3 23.4 23.4 23.6 24 23.8 23.1 23.4 23.2 23.4 23.4 21.6 19.4 21.8 23.2 23.4 23.5 23.5 23.1 22.5 22.6 22.1 21 19.9 19.6 19.4 19.2 19.9 19.8 19.7 19.4 19.1 18.3 18.5 15.1 15.1 18.5 18.6 18.8 19 19.6 18.6 18.7 16.3 19.5 21.7 17.8 15.3 12.3 17 17.4 17.6 17.8 18.6 19.4 20 19 19.3 19.7 19.6 19.5 19.4 19.2 19.9 19.8 19.6 19.7 19.6 19.7 19.7 19.2 19.6 19.8 20.7 20.7 20.4 20.5 20.8 20.3 20.4 20.1 19.7 19.8 19.6 19.6 19.7 19.9 20.6 20.2 20.2 20.6 20.7 21 21 21.7 21.6 21.3 21.9 21.8 21.7 21.7 21.9 22.1 22.6 22.4 22.1 22.2 22.8 22.5 22.2 22.2 22.4 22.5 22.9 23 23 22.2 19.5 21.1 20.4 21 20.6 23.6 23.8 23.9 23.9 23.7 23.5 23.4 23.2 23.9 23.7 23.7 23.7 23.6 23 23 23.6 24.7 28.8 23.6 23.5 23.8 23.4 23.8 23.8 23.3 23.6 23.5 23.6 23.5 23.7 23.8 24 24 24.1 24.2 24.4 24.6 24.6 24.6 24.6 24.4 24.3 24.4 24.6 24.7 24.7 24.7 24.7 24.9 25 24.9 25 25.1 24.5 24.8 25.4 25.6 24.9 25 26.1 26.4 26.5 26.3 26.1 25.7 25.1 25
22.4 23.4 23.5 23.4 23.3 22.9 23 23.2 23.2 23.3 23.3 23.3 23.2 23.3 23.5 23.8 23.4 23.5 23 23.1 23.2 20.2 19.3 22.9 23.7 23.5 23.5 23.5 23.7 22.9 22.6 22.7 22 21.4 20 19.6 19.2 19.6 19.8 19.6 19.5 18.8 19 18.5 16.8 16.9 14.5 17.4 18.7 19 19.1 18.6 17.4 15.7 16.7 20.4 20.6 15.3 13.1 12.3 17.2 17.2 17.5 18.1 18.5 19.6 19.7 19.7 19.2 19.8 19.5 19.4 19.7 19.4 19.5 19.4 19.5 19.7 19.5 19.6 19.7 19.3 19.9 19.9 20.5 20.4 19.9 20.7 20.9 20.5 19.2 19.1 19.5 19.3 19.6 19.6 19.8 20 20.2 20.2 20.3 20.4 20.9 20.6 21.6 21.6 21.8 21.5 21.3 21.4 21.5 21.7 21.8 21.3 22.4 22.9 22.8 22.8 22.6 22.4 22.2 22.3 22.6 22.3 19.3 22.9 23 22.4 22.3 22.3 23 23 23.5 23 23.7 23.9 23.9 23.9 23.7 23.6 23.5 23.8 23.9 23.6 23.4 23.2 23 23.4 23.5 22.8 28.3 23.1 23.7 23.8 23.5 23.6 23.9 24.2 23.5 23.5 23.6 23.5 23.6 23.8 24.1 24.1 24.1 24.2 24.3 24.5 24.4 24.6 24.5 24.4 24.4 24.5 24.6 24.8 24.9 24.8 25.6 25.4 25.2 25 25.2 25.3 24.8 25.2 25.2 25.5 26 26.3 26.1 26.4 26.4 26.5 25.9 25.7 25.1 26.8
22.7 23 23.1 23.2 23.2 22.9 23 22.8 23 23.2 23.3 23.6 23.5 23.4 23.5 23.4 23.3 23.1 22.5 22.9 18.8 18.8 23.1 23.4 23.5 23.6 23.6 23.6 23.4 23.2 22.9 22.9 22.1 21.2 19.9 19.4 19.3 19.4 19.7 19.3 19.1 18.9 19 18.2 18.5 17.8 15.5 14.5 17.7 18.6 19.2 15.8 14.9 15 17.1 19.4 15.9 14.6 12.3 16.3 16.6 17 17.4 17.4 17.4 17.9 18 18.7 19.6 19.5 19.3 19.3 19.2 19.1 19.5 19.6 19.7 19.7 19.5 19.6 19.7 19.7 19.8 20 19.9 20.1 19.6 20 19.7 19.4 18.5 19.3 19.5 19.2 19.8 20.3 20.2 20 20.4 20.6 20.7 20.8 21.1 21.6 21.5 21.6 21.5 20.9 21.3 21.9 21.5 21.3 21.6 21.5 21.3 22.7 22.9 22.6 22.1 21.9 19.1 23.2 23.1 23 22.7 22.6 22.9 22.7 23.2 23.1 23.1 22.9 23.1 23.3 23.3 23.9 23.8 23.9 23.8 23.6 23.7 23.9 23.7 23.5 22.7 23 22.8 22.4 22.8 21.7 28.1 22.9 23 23.3 23.3 24.2 23.8 24.6 24 23.5 24 23.8 24 24.2 24.2 24.1 24.1 24.1 24.2 24.3 24.1 24.7 24.8 24.8 24.7 24.6 24.8 25 25.1 25.1 25.1 25.5 25.5 24.8 25.1 25.4 25.7 25.7 25 25.1 25.7 26.1 26 26.2 26.1 25.9 25.5 25.7 25 26.7
22.5 22.6 22.6 22.9 23 22.4 22.6 22.4 23 23.2 23.3 23.6 23.7 23.6 23.5 23.5 23.5 23.2 25.8 18.7 21.8 23.4 23.4 23.8 23.8 23.6 23.3 23.8 23.6 23.4 23.2 23.1 22.3 21.5 20.1 19.4 19.5 19.7 19.3 19 18.8 18.6 18.9 18.2 18.9 18.2 17.2 14.8 14.9 14.7 14.3 14.5 14.7 14.7 15.2 17.4 15.9 14.3 12.3 15.9 16.6 16.5 17 16.5 16.7 18.2 18.9 18.9 19.4 18.9 19.1 19.3 19.7 19 19.2 19.7 19.6 19.6 19.5 19.5 19.5 19.6 19.5 19.8 19.8 19.4 19 19.4 19.4 19.6 19.4 19.7 20.2 20.2 20.7 20.3 20.3 20.2 20.8 21 21 21.3 21.3 21.5 21.6 21.2 21.2 21.1 21.3 21.2 21.2 21.1 21.5 21.5 21.3 20.2 18.7 21.5 21.3 21.3 22.2 22.9 22.7 22.7 22.6 22.3 22.8 22.6 22.6 22.9 22.9 22.7 22.6 22.7 23 23.9 23.8 24 24.5 24 24 23.3 22.7 22.8 21.4 21.5 22 21.9 21.7 21.2 21.7 22.5 22.9 23.2 23.8 23.7 23.6 24.1 24.6 24.4 24.3 24.2 24.6 25.3 24.2 24.1 24.1 24.2 24.2 24.3 24.4 24.6 24.8 25 24.9 24.9 25 25.1 25.2 25.3 25.4 25.4 25.8 25.3 25.8 25.7 25.8 25.7 25 24.9 24.9 25.8 25.9 25.2 25.9 25.7 25.7 25.6 26.6 26.3
22.4 22.6 23 22.2 22.3 22.4 22.6 22.7 23.2 23.5 23.4 23.6 23.5 23.6 23.6 23.5 22.9 18.4 18.4 23.4 23.4 23.9 23.2 23.9 23.2 23.8 23.7 23.6 23.5 23.4 23.2 22.6 21.6 21.4 20.7 19.9 19.6 19.6 19 18.7 18.6 18.7 18.6 18.6 18.8 18.6 17.6 14.7 13.3 14.6 14.7 14 14.4 14.7 15.6 10.6 14.8 12.3 12.3 15 14.9 15.5 15.6 18.2 19.3 19.7 19.6 19.3 19.4 19 18.6 18.8 19.3 19 19.2 18.9 19.2 19.5 19.7 19.6 19.6 19.6 19.6 19.2 19.5 19.5 18.9 18.7 19.7 19.9 19.9 20.6 21.1 20.3 20 20.5 20.3 21 20.9 20.9 20.8 20.4 20.4 20.5 20.5 20.6 21.1 21.3 21.5 20.9 20.9 20.7 18.8 20.9 21.1 20.9 21.5 21.2 21.3 21.6 22.4 22.4 22.5 22.7 22.9 22.9 23 22.6 22.8 23.1 23 22.6 22.3 22.9 23.1 23.6 23.8 23.8 24.4 23.9 23.7 23.3 22.7 22.5 21.4 20.3 20.7 21.3 20.5 20.5 27.9 21.7 22.1 23 23.3 23.3 23.5 23.9 24.4 24.6 24.6 24.5 24.3 24.5 24.2 24.3 24.5 24.4 24.7 24.2 24.2 24.6 24.6 25 25.1 25.2 25.2 25.3 25.3 25.2 25.4 25.2 25.9 25.4 25.3 25.6 25.6 25.6 25.6 25.8 25.5 25.4 26.6 27.1 27.3 25.5 25.6 25.9 26.1 26.2
22.3 22 22.1 22.2 22.3 22.5 22.7 22.8 23.2 23.4 23.4 23.2 23 22.9 23 19.6 18.3 21.4 23 24 23.7 23.3 23.6 23.5 23.1 23.7 23.5 23.4 23.4 22.8 22.7 21.6 21.1 21.4 21.3 20.7 19.6 19.7 18.7 18.4 18.5 18.4 18.3 18.7 18.6 18.2 17.9 15.1 13.4 14.9 14.8 14.3 14.5 14.9 10.6 16.9 15 12.3 14.3 14.8 15.7 16.5 17.1 18.3 19 19.7 19.8 19.6 19.6 19.2 19.7 19.3 19.2 19.4 19.9 19.4 19 19.5 19.8 19.8 19.7 19 19.2 18.3 18.6 19.2 19.2 19.3 20.1 20.4 20.7 21 20.4 20.1 19 19.6 20.2 20.5 20 18.5 18.6 19.1 18.5 19.7 20.5 20.9 20.9 19.6 18.1 20.5 21 21.4 21.7 21.5 21.5 21.6 21.1 21.7 21.7 21.7 22.2 22.3 22.6 22.8 22.7 22.6 22.7 22.9 23.1 23.2 23 23.1 22.9 22.8 23.1 23.3 23.9 23.7 23.9 23.6 23.5 22.9 22.4 22.4 21 20.2 20.2 19.8 18.7 19 27.2 20 20 20.7 21.8 23 23.2 23.5 23.9 24.7 24.4 24.2 24.7 24.2 24.3 24.4 24.1 24.3 24.4 24.2 24.6 24.2 24.8 25.2 25.4 25.5 25.4 25.3 25.2 25.2 25.6 25.6 25.7 25.9 24.8 25.7 25.8 25.8 25.8 25.5 25.2 25.2 25.7 27.6 27.5 28.9 25.5 31.7 26.4 26.3
22 22 22.2 22.4 22.4 22.9 23.1 22.9 23 23.2 23.4 23.2 22.6 21.2 18.1 19 22.2 23 23 23.4 23.7 23.4 22.1 22.8 23.5 23.2 22.9 22.8 22.2 22.1 21.6 20.9 21 21 20.9 21.2 20.5 19.8 18.6 18.2 18.4 18.3 18.6 18.8 18.3 17.7 16.3 14.6 13.9 14.4 14.6 14.5 15.2 10.6 16.6 17.2 14.7 12.3 14.2 15 15.6 16.4 17.3 18 18.6 19.3 19.9 19.8 19.6 19.5 21.2 21.2 20.3 20.5 20.9 20.7 20.4 19.8 19.5 19.8 18.1 17.5 18.4 17.7 18.4 19.8 20.3 20.6 20.5 20.5 20.2 20.6 20.2 19.6 19.3 18.3 18.5 18.3 16.4 15.2 15.5 16.4 17.8 19.8 18.1 20.4 20.8 20.8 21.6 21.3 21.4 21.4 21.5 21.8 21.6 21.4 21.4 21.5 21.8 21.9 22 22.2 22.1 22.2 22.4 22.4 22.6 22.7 22.7 22.6 22.6 22.9 23.1 22.9 22.9 23.1 22.8 23.5 22.4 22.4 22.6 21.9 21.4 18.8 17.4 19.7 19.7 19.8 17.4 18.9 25.6 18.9 18.9 19.1 19.6 20.8 22.4 23 23.5 23.9 24.1 23.9 24.4 23.7 24 23.4 23.4 23.3 23.4 23.5 24.2 24.6 25 25.4 25.6 25.8 25.6 25.5 25.4 25.6 25.8 24.9 25.6 25.7 25.2 26.6 26.1 25.9 26.1 25.7 25.6 25.6 25.9 27.4 26.4 26.4 29.2 25.7 25.9 27.2
22.2 22.1 22.4 22.8 22.8 23 23.2 23 22.9 22.8 22.9 21.9 18 18 21.8 22.7 22.6 23.1 23 23 23.5 23.3 22.9 23 23 22.4 22.4 22.5 21.7 21.2 20.8 20.8 20.8 20.4 20.4 20.8 20.6 20.1 18.8 18.8 18.7 18.3 18 18.4 18.4 17.6 14.4 14.7 11.5 14.6 14.5 13.4 10.6 17.7 18.6 15.5 12.3 12.3 12.4 13.8 15.3 16.3 17.5 18 18.3 18.7 19.2 19.7 19.6 19.5 21.6 21.3 20.2 20.2 21.4 21.3 20.4 19.8 19.1 16.8 16.1 18.4 19.1 19.7 20.1 20.6 20.2 20.3 20.3 20.4 20.3 20.4 20.5 20.3 20.1 18.9 16.7 16.1 15.3 18.2 17.6 14.1 14.9 16.6 19.3 19.4 20.8 21.7 21.7 21.6 21.4 21.6 21.5 21.4 21.2 21.3 21.3 21.6 21.9 21.9 21.9 22.5 22.1 22 22.2 22.4 22.5 22.5 22.6 22.7 22.8 22.8 23 23 23.3 23 23.1 23.3 22.3 19.8 17.4 17.6 18.5 17.4 17.5 16.5 17.5 17.5 17.3 17.5 24.4 20.5 18.4 18.9 19 19.2 21.7 22.3 23.1 23.8 23.1 22.7 23.1 23.4 23.1 18.7 19.8 21.3 20.4 19.8 20.2 21.9 24.9 24.6 25.7 25.9 25.8 25.4 25.4 25.7 25.9 25.4 25.1 25.1 25 25.5 26.3 26.2 26.4 26.3 26.2 26.3 26.8 26.5 25.9 25.1 25.8 25.9 25.8 26.1
22.5 22.7 23 23.2 23.2 23.2 23.1 22.9 22.5 21.3 17.9 17.9 22 22.2 23 23.2 23.1 23.1 23 23 23.1 23.2 23 22.8 22.6 22.5 21.4 21.6 21.4 21 21 20.7 20.3 19.9 20.3 20.7 19.6 19.6 18.7 18.5 18.4 17.8 18 18.6 18.4 17.5 14.3 14.7 14.2 15.1 10.7 10.8 16.7 17.7 17.1 15.2 12.3 12.3 12.3 13.7 14.9 15.6 16.6 17.4 18.1 18.3 19 19.3 19.1 19.5 20.8 21.1 20.3 20.1 21.7 21.5 20.6 19.4 17.5 14.6 15.1 16.8 17.5 18.8 19.8 19.8 19.9 20.2 20.5 20.6 20.9 21.2 20.2 18.8 19 18.4 17.5 15.9 15 15.1 14.7 14.6 14.8 15.8 18.5 20.4 21.3 21.5 21.7 21.6 21.5 21.2 20.9 21.3 21.3 21.4 21.6 21.9 21.9 21.9 21.7 21.7 21.8 21.8 21.6 21.9 22.5 22.6 22.7 22.7 22.9 22.9 22.9 23 22.7 22.7 22.9 19.7 16.4 18 17.8 16.9 17.1 17.5 17.4 17.7 17.7 17.5 17.5 17.5 22.6 22.2 18.8 18.7 19.3 19.4 19 21.3 22.7 22 21 21.4 19.1 18.3 18.8 18.9 21.7 21.6 20.3 20.7 19.8 20 19.6 21.3 24.4 24.4 25.7 25.4 25.5 25.6 25.7 25.1 25 25.5 25.4 25.1 26.6 26.8 26.6 26.6 26.7 26.8 26.8 26.5 25.6 25 25.7 25.7 25.7 26.2
23.4 23.4 23.4 23.2 23.1 23.1 23 20.2 17.3 17.5 21.8 22.6 23.1 23.3 23.4 23.3 23.1 23.2 23.3 23.5 23.5 23.4 23.2 23 23.1 22.3 21.3 21.1 21.1 21.2 21.2 20.8 20.3 20 20.6 20.6 19.7 19.6 18.7 18.3 18.2 17.8 18 18.1 18.1 16.6 14.1 14.2 12.3 10.6 15 15.8 17 16.8 15.9 15.3 14.6 12.3 14.7 13.8 14.2 15.1 15.5 16.2 17.8 18 18.2 18.5 18.8 19 20.6 21.6 20.8 20.9 21.5 21.9 21 19.8 15.4 14.8 14.8 15.8 15.6 15.6 18.8 19.2 20.3 20.5 20.6 20.9 20.9 19.7 18.4 18.7 20.1 19.3 15.6 14.2 14.9 15 14.8 14.6 14.5 15 19.2 20.8 21.1 21.4 21.1 21.3 20.8 21.1 21 20.5 21.3 21.6 21.9 21.4 21.9 20.7 21.5 20.9 19 17.8 18.7 19.6 20.5 21.7 22.3 22.6 22.8 23 23 22.4 21.7 20.5 19.2 18.3 18.3 18.4 18 17.5 17.5 17.5 18.7 17.5 17.6 17.3 17.5 17.5 18.3 22.7 19.2 18.8 19.1 19.6 19.5 20 21.5 20.8 18.5 18 18.3 18.4 18.8 19.4 22.1 21.2 21.4 22.3 23.1 22 22.1 22.2 20.1 23.5 24.6 25.6 25.6 25 25.3 25.5 25.8 25.5 25.2 25 26 26.4 26.2 26.6 26.2 26.4 26.7 26.5 25.7 25.1 25.8 25.7 25.9 25.9
22.8 23 23.3 23.1 23.2 18.6 17.2 17.1 22 23.5 23.5 22.9 23.4 23.3 23.6 23.5 23.3 23.4 23.6 23.7 23.7 23.5 23.3 23.1 23.2 22 21.4 21.2 21.2 21.3 21.2 20.9 20.2 20.3 20.9 20.8 20.2 19.8 18.9 18.5 18.1 18 17.8 17.8 17.6 16 14.4 10.6 15.1 16 16.4 15.8 16 15.2 14.4 14.8 8.1 12.3 13.8 13.7 14.1 14.8 15.1 15.4 16.5 17.3 16.9 18 18.3 18.7 20.2 20.7 19.7 20 20.5 20.5 19.7 18.2 14.8 14.8 15.4 15.7 15.8 15.1 14.8 17 20.2 20.6 18.6 20.8 20.8 21.3 19.9 20.5 20.5 19.7 15.1 15 14.7 14.7 14.7 14.9 14.8 14.6 17.2 20.8 20.9 20.3 19.8 19.2 20 20.8 21 21.3 20.7 21 21.8 21.3 21.8 21.6 18.9 16.6 16.3 16.3 16.2 16.8 17.4 19.7 21.4 21.6 22.1 22.7 22.8 23 22.9 18.3 17.5 17.2 18.2 17.7 18.3 19 17.6 18 19.6 21 20.9 20.9 21 17.7 18.2 22.6 20.6 18.8 19.3 19.6 19.8 20.2 21.5 18.8 17.8 18.1 18.4 18.3 19.9 21.6 22.8 21.9 22.8 24.2 24.2 23.8 23.4 23.7 23.7 21.7 23.3 25.1 24.8 24.7 25 24.9 25.1 25.3 25.6 25.1 24.6 26 26.5 25.8 25.5 26 26.4 26.3 25 25.7 25.6 24.8 26 25.6
22.9 23.2 20.4 16.7 16.8 19 22.7 23.2 23.8 24.3 24.3 23 23.1 23.4 23.8 23.6 23.3 23.3 23.2 23.5 23.8 23.5 23.3 23.2 22.9 21.8 21.6 21.6 21.4 21.4 21.3 20.5 20 20.4 20.8 20.3 19.8 19.6 19.2 18.4 17.8 17.8 17.9 17.5 17.1 15.1 10.7 14.5 16.2 16.8 16.3 15.7 15.7 14.4 14.4 8.1 8.1 8.1 13.7 13.5 13.1 14.2 14.5 14.9 15.6 16.2 16.2 16.9 17.8 18.1 19.3 19.5 19.6 19.9 19.8 19.3 18.6 17 15.2 15.4 15.9 15.5 15.4 15.3 16.4 19.5 19.7 20.7 21.1 21.1 20.4 20.5 20.6 20.6 20.8 20 17 15.1 15 14.7 14.9 15.1 14.8 14.7 17.3 20.6 20.3 19.5 19.4 19 19.8 20.3 21.2 21.2 20.9 21.5 20.9 21.3 21.1 20.4 16.5 16.6 16.3 16.2 16.3 16.3 16.4 16.6 17.1 19.1 21.8 22.2 22.4 23 21 17.1 17.6 18.1 18.1 18 18 17.7 17.5 17.7 20.3 21.5 21.9 22 21.6 18 18.3 18.2 21.6 25.7 18.8 19.2 19.8 20.3 20 18.9 19.5 20.7 21.4 21.7 22.2 20.9 22.1 22.2 24.2 27.4 29 28.8 27.4 23.9 24.2 24.1 22.6 23.2 24.5 24.1 24.3 23.9 23.9 24.2 24.7 24.7 23.5 24.7 25.5 25.3 25.3 24.5 25.5 25.4 25 25.6 25.7 25.5 25.6 25.6
16.4 16.4 16.5 21.1 23.6 23.3 24.2 24.3 24.3 24.3 24.3 23.9 23.1 23.3 23.7 23.5 23.2 23.3 23.3 23.7 23.8 23.5 23.4 23.3 22.9 22 21.9 21.9 21.7 21.5 20.7 20.6 20.1 20.1 20.6 20.7 19.8 19.6 19.3 18.5 17.7 17.8 18 16.7 15.4 14.3 10.6 15.9 16.7 16.3 15.9 15.7 15.6 14.6 14.6 14.7 8.1 8.1 13.2 13.3 13.2 13.6 14.1 14.5 14.9 15.5 15.5 16.4 16.3 16.8 18.3 18.9 19.7 19.9 19.7 19.6 18.9 17.9 16.6 17 16.5 18.2 21.1 14.7 14.9 16.2 19.4 20.7 20.7 20.2 20.2 20.4 20.5 20.6 20.4 19.5 17.1 14.5 14.6 15.1 14.8 15.3 14.5 14.2 18.4 20.4 19.5 19.5 19.4 18.6 19.8 19.2 21.1 21.6 21 20.9 21.6 21.7 19.4 16.2 16.1 16.4 16 16.2 16.3 16.4 16.5 16.5 16.2 16.6 19.7 22.2 22.9 22.7 17.7 17.6 17.7 17.8 18.2 18.2 18.3 18.6 17.5 20.8 21.5 21.2 21.6 22 21.9 18.2 18.3 18.7 22 22.3 25 19.1 19.6 21.5 19.7 20.7 21.9 22.9 23.4 23.8 24.1 23.4 22.2 22.4 24.5 29.9 31 30.4 28 25.5 25.1 23.9 25.1 21.9 22.9 23.2 23.6 23.4 23.3 23.9 23.9 23.9 24 23.8 24.9 25.2 25.2 25.3 24.7 25 25.1 25.8 25.7 25.7 25.8 25.8
19.9 22.2 22.9 23 23.6 24.1 24.1 24.3 24.3 24.3 24.3 24.3 23.3 23.2 23.4 23.3 23.4 23.5 23.6 24.3 23.8 23.6 23.5 23.5 23 22.2 22.2 22.2 21.9 21.5 20.5 20.4 20.3 20.4 20.5 20.3 19.9 19.6 19.2 17.8 17.3 17.9 18.3 17.6 16 14.7 10.6 15.5 16.5 16.5 15.2 15.3 15.5 14.1 8.1 8.1 8.1 10.4 12.7 12.9 12.9 12.8 13.8 14.2 14.5 14.9 14.8 15.2 15.3 15.2 15.9 16.7 18 19.2 19.1 18.3 17.2 18.3 22.3 16.6 15.6 15.5 15.6 15.4 15 15.9 19.6 20.4 19.8 19.6 19.4 19.1 19.1 19.3 19.5 18.9 16.1 14.9 14.6 15.2 15.3 14.8 14.8 14.8 17.5 18.3 19 19.3 20.2 20.9 20.3 19.7 21 20.8 21 21.4 20.9 19.8 16.7 15.5 15.2 15.5 16 16.4 16.4 16.5 16.6 16.5 16.4 16.7 20.1 22.3 22.7 22.6 17.7 17.3 17.7 17.7 18.2 18.1 18.3 21.5 20.2 20.9 21.2 21.8 21.9 22.8 21.6 18.6 17.9 19 18.8 20.5 24.6 29.6 22 22.8 22.1 21 22.7 23.7 24.5 25.6 25.9 25.6 25.1 25 27.4 32 32.6 31.5 27.2 25.7 26.4 26.1 24.1 23.4 22.3 22.9 23.6 23.8 23.4 24 23.5 23.3 23.2 23.5 24 25.2 25.6 25.7 25.8 25.5 25.5 26.1 25.7 26.3 26 25.8
20.8 21.8 22.3 22.9 23.1 23 23.1 23.9 24.1 24.3 24.7 24 22.8 23.1 23.2 23.4 23.6 23.8 23.1 24.6 23.4 23.7 23.6 23.5 22.8 22.1 21.8 21.6 21.6 21.2 20.4 19.8 19.7 20.4 20.5 20.3 20.2 19.7 18.5 17.3 16.8 17.4 18.4 18.2 17.4 14.8 11.2 15 16.1 15.8 14.6 14.2 14.2 13.7 8.1 8.1 8.1 12.8 12.8 12.7 12.8 12.9 13.5 13.8 14.1 14.8 14.2 15.2 14.8 15.3 14.9 15.6 17.3 18.2 23.5 19.3 21 23.3 18.9 16.3 15.1 15.4 15.3 15.5 15.2 14.6 18.3 19.6 19.5 19.1 14.6 15.2 15.3 14.2 17.4 17.6 15.6 15.1 15 15.1 15.5 15.3 15.5 15.9 17.1 19 19.2 19.4 20.8 21 20.2 20 20.4 20.8 21 20.1 19.4 17.7 16.1 15.7 16.3 15.9 16.1 16.3 16.3 16.4 16.5 16.4 16.3 17.1 20.7 22 22.7 22.5 16.4 17.5 13.7 14.2 21 21.8 21.5 21.6 21.6 21.1 21.8 21.5 21.7 22 23.1 19.7 18.5 18.5 18.8 25.1 21 23.4 30.4 32.7 22.2 20.9 21.9 23.8 25.3 27.1 28 29.5 28.8 29.4 31.3 32.8 33.7 30.7 25.5 27 29.5 29.7 28.2 26.1 24.2 23.3 23.4 23.9 23.8 23.4 23.3 23.2 22.7 22.9 25 25.3 25.3 25.2 25.4 25 25.5 26.6 26.6 26.6 25.5 24.8
20.6 21.2 22 22.1 21.3 21.7 22.3 23.2 23.9 23.8 23.7 23.6 22.4 22.6 22.8 23 23.4 23.7 24.6 24.5 24.8 24.2 23.4 23.5 22.7 21.9 21.5 21.4 21.2 21.1 21 19.8 20.1 20.3 20.3 20.4 20.5 19.4 18.6 18.3 16.9 17.8 18 17.7 16.7 14.3 14.1 15.2 15.3 15.2 14.3 14.5 13.9 11.7 8.1 8.1 13.5 13.5 13.5 13.3 13 13.2 13.2 13.6 14.5 15 15.3 16.1 17.3 18.7 25.4 22.1 15.5 14.8 20.3 25.2 23.2 25 23.5 19.3 15.5 15.5 15.3 15.2 14.8 15.7 16.4 18.7 15 15.2 15.2 14.3 14.9 15 14.4 14.5 15 14.7 14.8 15.2 14.9 14.9 14.8 14.8 16.9 18.7 19.2 19.5 21.1 21.2 20 19.9 20.7 20.7 20.4 20.8 20.2 17.4 15.7 14.8 16.4 16.2 16.2 16.2 16.3 16.2 16.2 16.3 16.3 16.6 20.4 21.7 21.8 20.8 16.9 15.8 14.4 14.8 14.7 21.1 21.5 21.9 22.9 20.7 21.2 21 21.5 22.6 23.5 19.2 18.7 18.6 18.7 18.6 24.6 20.8 21.4 28.3 26.8 21 22 22.9 24.8 26.9 29.5 30.3 30 30.6 31.4 33.9 33.1 26.7 25.8 27.8 30.4 31.1 30.9 30.5 28.9 26.9 23.6 22.6 23.2 23.9 23.7 23 22.4 23 25.1 25.6 25.6 25.1 23.7 25 26 26.5 26.6 26.2 25 21
20.6 20.7 21.2 21.6 21.6 21.5 22 22.7 22.9 23 22.9 22.3 21.7 21.5 21.7 22.1 23.2 23.7 24.2 24.4 24.7 25 24.2 22.6 21.9 21.2 20.9 20.9 20.8 20.7 20.4 19.8 20 20.2 20.3 20.4 19.9 19.5 18.4 17.6 16.9 17.1 17.3 16.1 15.2 10.6 14.7 18.2 13.9 13.9 13.9 13.5 13.2 8.7 8.1 11.6 13.4 13.3 13.7 13.1 13.5 12.8 13.5 15.6 17.5 19.8 27.1 25 18.4 14.7 15 15.2 15.7 15.3 28.9 28.2 23.1 25.4 25.1 20.2 17 16.6 16 15.1 15.2 16 16.1 15.4 11 10.2 15.7 14.6 15 15.2 15 15.7 15.4 15 14.8 15.5 15 14.7 14.8 14.7 15.5 17.6 19.3 19.8 21.1 20.4 20.3 20.3 20.6 20.3 20.7 21 20.6 16.4 15.8 16.1 15.9 16.2 16.1 16.2 16.3 16.4 16.4 16.9 17.1 16.9 18.7 21.2 21.2 17.5 16.8 14.3 14.9 15.6 15.4 12.8 13.4 13.4 16.9 22.1 23 22.6 23.2 23.2 23.3 19.2 19.6 19 18.5 18.9 24.1 26.5 20.4 21.1 24.8 27.7 22.2 23.2 24.9 26.3 29 29.8 29.9 30.5 30.7 28.9 26.5 25.1 26.2 28.2 30 31.2 31.7 32.2 31 28.4 21.7 21.6 23 23.3 22.7 22.8 22.6 23.1 23.6 23.4 23.1 22.8 22.7 25 24.4 25 25.4 25.3 21.4 20.8
20.6 20.6 21.4 21.6 21.3 21.8 22 22.2 22 21.7 21.3 21.1 21.2 21.1 21.2 21.4 22.4 22.7 22.9 23.5 23.9 23.8 23.8 23.7 23 20.7 20.2 20.5 20.3 20.2 19.9 19.7 19.8 20 21 20.6 19.7 19 18.4 18 16.2 15.8 16.1 15.4 14.8 14.1 14.2 13.9 13.9 13.9 13.6 13.4 13.4 8.1 8.1 12.9 13.3 13.1 13.6 17.5 17.8 19.6 28.1 27.7 20.2 14.3 15.3 15.2 15.3 15.8 15 15.4 15.6 18.5 28.9 28.5 25 23.5 26.1 22.9 17.9 16.8 16 15.9 10.2 10.2 10.2 13.8 15 15.8 10.2 15.1 15.6 15.6 15.7 16.3 16.2 15.6 15.2 15.3 14.6 14.6 14.7 14.8 15.3 16.3 18.5 19.2 21 20.1 19.8 19.7 19.3 20 20.4 20.8 20.6 16.1 16 16.3 16.3 16 16.1 16.2 16.4 16.5 16.4 17.2 17.8 17.7 17.7 18.4 17.8 18.1 12.3 14.5 14.3 12.8 13.3 17.2 17.3 17.6 13.4 22.6 23.6 23.2 23.2 23.3 22.9 22.4 21.7 19.8 19.2 19.5 27.6 28.4 29.4 20.4 20.7 20.4 22.4 21.1 24.3 25.8 26.1 27.4 27.9 28.3 28.8 28.8 25.2 25.1 25.5 26.7 29 30.7 31.9 32.8 31.6 25 21.7 21.6 22 22.1 22.3 21.6 22.6 23 22.9 23 23 22.9 20.5 25.8 21 21.4 21.6 22.1 21.3 20.6
20.7 20.8 20.7 20.8 21.4 21.9 21.5 21.3 21.2 21 20.7 20.6 20.7 20.9 21.1 22 22.2 22.5 22.7 22.9 23.2 23.6 23.6 23.4 22.4 21.7 21.2 20.7 21.1 20.2 19.7 19.7 19.8 20.2 21 20.6 20 18.8 18.3 18 16.1 15.1 15 14.9 15.1 14.2 14.1 14 13.9 13.9 13.9 13.6 13.9 8.1 13 16.5 17.3 22.6 28.5 29.6 22.4 17 9.7 9.7 13.5 11.5 9.7 9.7 9.2 13.8 14.5 15 15 27 28.2 28.3 25.5 22.8 26.2 24.5 18.8 16.3 16.3 10.2 15.1 15 14.9 14.9 12.5 12.9 15.8 15.6 16.2 16.5 11.6 12.8 16.4 16.6 17.2 16.1 14.9 14.8 14.7 14.8 14.9 15.6 16.1 17.2 17.4 20.8 20.5 19.7 19.8 19.6 20.3 21.2 20.8 17.9 16.3 16.4 16.4 16.1 16.1 16.3 16.8 17.2 16.5 17.2 17.6 17.7 17.9 17.2 18 12.2 13.3 12.5 19.3 15.3 18.5 19.5 19.8 19.3 19.1 16.8 23.3 23.7 24.8 25.1 25.1 24.2 20.9 22.4 25.6 21 19.7 18.8 20.3 22.6 25 20.4 20.8 20.6 20.5 20.5 21.2 23.5 24.8 24.5 24.7 29.1 24.6 24.1 24.5 25.6 25.9 27.4 29.6 31.6 28.4 20.8 21.8 21.3 20.9 20.9 21.3 21.1 22.6 22.6 22.9 23.8 20.4 22.6 25 25.7 21.6 21.6 21.4 20.9 21.3 20.8
20.5 20.5 20.7 20.9 21.2 21.4 21 20.7 20.7 20.8 20.8 21.4 21.3 21.4 21.2 21.7 22.1 22.3 22.6 22.9 23.2 23.3 23.3 23.1 22.5 21.5 21.4 22.1 21.2 20.2 19.7 19.7 20.2 20.4 20.4 20.5 19.8 18.7 17.5 17.2 16.4 15.4 14.9 14.5 14.4 14.1 14 13.9 13.8 13.9 13.8 14.3 14.8 8.1 29.5 31.6 25.8 18.6 12.1 9.7 9.7 14.6 14.5 14.6 14.3 14.4 14 14.3 14.5 9.2 14.7 15.4 15.9 16.3 24.6 27.6 25.1 23.2 25.5 23.5 18.9 17.3 10.2 14.9 14.8 14.7 15.1 15 10.2 15.9 15.7 15.6 10.7 15 15.2 14.7 10.7 10.7 10.7 10.7 15.5 15 15 14.9 14.9 14.8 14.9 16.1 17.2 19.7 20.3 19.8 20.1 20 20.7 21.6 20.9 18.8 16.2 16.5 16.4 16.2 16.4 16.6 17.2 17.7 16.6 17.1 17.5 17.2 15.9 17.7 18.2 17.1 12.9 16.2 18.9 19.3 19.4 19.1 19 19 19.1 13.4 21.8 24.7 25.8 25.9 24.6 25.7 22.4 19.5 19.1 19.7 19.6 19.2 20.1 22 23.5 22.8 20.9 20.8 20.6 20.6 20.7 21.1 21.5 21.4 22.2 22.4 22.4 22.7 23.4 19.9 20.2 22.3 25.3 25.8 24.5 20.6 20.5 21.1 20.7 21.5 21.5 22.4 22.8 23 23.7 20.8 24.7 25.8 25.2 25.6 21 21.5 21.5 21 20.9 22.4
20.3 20.4 20.7 22 21.6 18.8 21.1 21.1 20.7 20.9 21 21.1 21.3 21.4 21.5 21.7 22 22.3 22.6 22.9 23.1 23 22.7 22.8 22.4 21.3 21 21.3 21.2 20.3 19.6 19.9 20.4 20.3 20.1 20 19.8 18.1 17.3 16.5 16.1 15.1 15.1 15.1 14.5 14.7 13.8 13.8 13.8 15.4 16.3 26.1 14.7 10.8 20.4 14.2 9.7 9.7 14.1 14.4 15.2 14.9 15.4 14.8 13.8 13.4 13.4 13.9 9.2 14.6 14.1 14.3 13.9 13.5 14.9 16.5 17.8 20.2 21.4 17.7 16.2 16.4 15 14.9 14.7 14.8 15.3 15.6 10.2 15.9 15.7 13.5 14.4 14.8 15.5 15.5 15.2 14.8 16.2 10.7 15.5 14.8 15.2 15.6 15.7 14.9 15.5 15.5 16.6 18 19.5 20.5 20.6 20.3 20.1 20 20.2 18.3 16.2 16.2 16.5 16.5 16.5 16.7 16.4 17.3 15.7 17.2 16.3 17.9 18.6 18.3 18.3 18.4 12.3 15.4 17.2 19.2 19.2 18.9 18.9 19 19 18.3 13.4 22.3 25.1 25 19.3 19.5 19 19 19 19.1 19.7 19.2 19.1 20.8 21.9 22 20.9 19.3 21.9 21.7 20.2 20.4 20.2 20.9 22.8 22.5 22.6 22.8 23.4 23.7 23.9 24.6 25.1 21.8 22.4 21.6 20.9 20.3 19.1 19.9 19.8 23.2 23.3 23 20.4 24.3 25.1 25.3 25 23 21.2 21.4 21.6 21.1 21.2 22.9
20.1 20.4 20.5 21.2 21.8 20.4 20.6 20.8 20.7 20.8 20.9 21 21.2 21.4 21.6 21.7 22 22.3 22.6 22.9 23 22.6 22.4 22 21.6 21.4 21.2 20.6 20.6 20.5 19.9 19.8 20.1 19.3 18.7 19.5 17.2 18.1 16.1 15.3 14.1 14 15 14.7 14.5 14.3 14.8 15.8 19.3 29.7 29.4 18 8.1 12.4 9.7 11.8 14.5 14.6 14.4 14.4 15.4 15.4 15.2 14.6 13.2 13.2 13.9 12.9 10.9 14.9 15.2 13.9 14 13.6 14 15 15.6 16.7 17.1 16.5 16.4 15.6 15.2 14.7 14.5 14.9 15.3 15.4 10.2 16.4 16.3 16.2 10.4 14.1 17 15.5 12.4 14.3 11.8 15.8 15.3 15 15.6 15.7 15.9 15.9 15.9 15.8 16.5 17.6 18.6 19.6 20 20.5 20.1 19.6 19.7 19 16.3 16.2 16.5 16.6 16.7 17.6 17 17.3 17.7 17.8 17.3 17.7 18.3 17.6 18.6 18.9 18.7 13.3 15.2 19.3 18.9 18.8 18.9 18.9 18.9 19.2 19.3 15.6 24.5 22.6 19.6 19.5 19.1 19.1 19.1 19.3 19.9 19.6 20.3 20.7 22 20.2 18.2 19.2 22.1 21.9 19.5 19.3 19.6 21.9 24 23.3 22.8 22.5 21.8 21.6 22 24.6 21.8 17 17 19.3 21.6 21.1 20.5 19.5 23.3 23.3 19.8 22.7 23.3 25.2 25.3 25.5 25 20.7 21.3 21.5 21.5 21.1 21.3 21.8
20.3 20.5 20.8 20.7 20.7 21.2 20.8 21.4 21.2 21.1 21.4 21.4 21.3 21.4 21.5 21.9 22.5 22.5 22.7 22.8 22.7 22.4 22.3 22.3 21.4 21 21.1 21.1 20.4 20.1 19.8 19.6 19.4 18.2 18 18.7 16.4 15.7 14.9 14.7 14.2 14 14.6 14.4 15.3 15.5 24.9 29.4 22.2 21.4 20.1 15.5 8.1 8.1 9.1 16.1 14.3 14.3 14.4 14.3 12.9 13.2 13.8 15.1 13.2 13.4 14.1 9.2 14.5 14.8 15.9 13.8 13.8 13.7 13.4 13.5 13.6 14.2 14.7 15.1 15.3 14.6 14.6 14.5 14.7 14.9 15.1 15 14.2 10.2 16.4 16.7 13.1 15.4 16.2 13.8 17.1 17.5 16.3 15.5 15.5 15.3 15.8 15.9 16.2 16 16.1 16 16.9 16.8 17.8 19 19.7 20.4 20.4 19.9 19.8 17.3 16.5 16.5 16.5 16.7 16.9 17.3 17.5 17.6 17.7 17.7 17.9 18.3 17.6 18.7 12.2 12.2 12.2 16.1 12.1 19.1 18.9 18.9 18.8 19.1 18.6 19.1 19.4 19.4 19.1 19.5 19.7 19.5 19.2 19.2 19.3 19.6 19.8 19.2 19.9 19.9 19.4 20.1 19.9 20.7 21 20.3 18.9 22.4 22.8 21.6 22.2 20 17.8 19.7 21.4 19.4 19.6 19.4 20.2 25.4 26.4 27.4 28 23.4 22.8 22.8 22.9 23.1 23.1 23.7 24.1 25.1 25.3 25.2 25.3 21 21.5 21.5 21.5 21.4 21.8 22.8
20.5 20.6 20.8 20.9 21 21.3 21.2 22.2 21.9 21.3 21.6 21.6 21.5 22 22.4 22.6 22.2 23.1 22.8 22.3 22.3 22.2 22.1 22.1 21.8 20.9 21.5 21.2 20.5 19.9 19.5 19.5 18.7 17.3 17.4 17.3 15.9 15.7 14.6 15.4 14.4 14.1 17.5 21.6 28.1 21.4 21.3 27.2 27 19.8 15.4 8.1 8.1 8.1 15 14.1 14.1 14.2 14.2 14.6 16 13.4 15.3 15.6 13.3 13.7 14.1 13.5 9.2 15.2 15.2 13.9 13.8 13.7 12.1 13.4 13.4 13.7 14.1 14.4 14.8 12.6 14.5 14.4 14.6 14.8 15 15.4 16.5 16.6 14.4 10.2 10.3 15.3 15.3 17 16.7 15.7 14.9 15.7 15.6 15.5 15.8 16.1 16.6 16.5 17 16.7 17.5 16.6 16.6 16.1 16.4 16.5 20.2 18.2 17.4 17.6 17.1 15.3 16.8 16.8 16.9 16.1 17.5 17.9 18 18.1 18.3 18 16.2 13.1 15.1 19.4 13.1 13.7 12.2 18.7 18.7 19 18.7 18.7 20.3 19 20.9 18.7 16.2 19.3 20 19.6 19.5 19.8 19.9 20 20.8 16.2 16.2 21.2 17.7 19.5 19.8 20.1 21.3 20.5 19.6 19.7 19.7 20.7 19.5 19.6 20.7 19.6 19.3 19.5 19.6 19.8 19.8 20 19.5 26.3 28.3 29.2 29.4 22.3 22.2 22.5 22.9 23.7 24.1 25.1 25.6 25.3 25.5 21.7 21.5 21.7 21.5 19.6 25.5 23
21 20.7 20.7 20.7 21.1 21.1 21.7 21 21 21.3 21.7 21.8 21.7 22.1 22.5 22.8 22.9 22.5 22.9 22.6 22.6 22.4 22.4 22.3 21.8 21 21 21.1 20.6 21.5 19.8 18.9 17.1 16.1 16.7 16.4 16.3 16.4 13.6 16.1 17.4 27.2 22.2 17 17.3 16.8 23.4 24.7 17.3 15.5 13.4 8.1 8.1 14.6 14.6 13.6 14.1 14.1 14.2 14.4 12.7 12.9 12.7 15.8 13.8 13.8 14.2 14.7 14.4 9.2 14.6 13.7 13.6 13.7 13.6 13.7 14.8 13.9 14.4 14.7 15 10.2 14.4 14.5 14.6 14.7 14.9 15.2 15.4 16.5 16.3 15.6 15.3 15.2 15.2 15.8 13.7 15.6 15.2 15.7 15.8 15.7 15.6 16.8 12.6 13.2 14.5 15.4 13.1 11 11 11 15.6 14.8 16.9 16.8 15.4 16.9 16.9 17 17.1 17.4 17.4 17.7 17.6 18 18.4 18.6 18.7 14.3 12.1 18.9 18.7 19.5 18.6 18.4 18.2 18.1 18.4 18.5 22 18.3 22.2 22.7 16.5 18.9 18.6 15.1 19.7 20.5 20.5 19 15.4 15.9 19 20 19.9 16.2 20.5 19.2 19.5 19.7 20.3 20 19.7 20.7 21.2 20.6 21.2 20.2 19.9 19.5 19.1 19.7 19.7 19.8 19.7 19.7 19.8 19.9 22.7 28.7 30.3 22.5 26.5 23.9 23 22.9 25 25.5 25 24.6 25.7 21 21.8 21.8 21.2 25.4 21.5 21.4
21.5 21.5 21.1 21 21.5 21.5 20.7 21.4 22.1 21.8 21.7 21.8 21.8 22.3 22.5 22.6 22.8 22.4 23.2 23.1 22.7 22.7 22.4 21.9 21.3 21.3 21 20.7 20.3 20.2 20.4 17.3 16.7 16.1 16.6 17.7 15.1 15.9 25.5 23.7 19.1 17.6 15.5 15.9 16.5 16 20.9 14.6 15.3 14.1 9.7 8.1 11.4 14.6 13.8 13.3 14 13.7 14.2 13.1 12.7 13.2 15.8 14 14.2 14.4 14.8 14.7 14.3 14.1 11.1 13.8 13.6 13.8 13.7 13.7 14.7 14.2 14.5 14.7 15.1 14.6 14.6 14.6 14.6 14.6 14.6 14.8 14.9 15.5 15.4 15.4 15.1 15.1 15.2 15.5 10.9 16.7 16.5 10.7 11 17.1 16.8 16.8 15.7 14.5 11 16.4 16.8 17 16.7 16.7 16.9 17 17.1 13.1 16.9 16.9 17 17.1 17.2 17.4 17.5 17.5 17.6 18 18.4 19.6 12 14.7 17.4 18.4 19 19.7 18.5 18.4 18.1 18.1 20.2 21.7 22 17.8 18.8 20.6 18.6 18.8 18.6 18.9 17.2 16.9 18 20.7 20.2 20.3 19.6 19.8 20 16.2 20 20.2 20.2 19.7 20.2 20.4 20 18.9 20.9 21.4 20 19.3 19.3 19.6 19.3 19.6 19.7 19.8 19.8 19.9 20.1 20.4 20.5 21.4 22.5 31.8 31.7 30.1 26.6 23.7 17.8 24.9 21.3 25 23.3 21.4 21.1 23 24.4 21.1 20.6 21.1
21.5 21.3 21.9 21.2 21.3 21.3 20.7 22.3 21.4 21.6 21.7 21.8 21.7 21.9 22 22.6 22.8 23 22.9 23 22.5 22 21.3 21.2 21.4 21.5 21.2 20.8 20.6 20.5 17.6 16.3 15.9 13.1 15.1 21.7 25.2 20.1 19.5 15.5 15.6 15.4 15.4 15.5 15.7 15 13.9 15.5 14.2 14.5 8.1 8.1 8.1 12.4 13.5 13.6 13.6 13.2 13.4 12.2 12.8 13.5 15.7 14.6 14.4 14.4 17.8 18.4 17 14 13 15.5 15.6 15.9 16.2 16.3 14.3 14.3 14.5 14.7 14.9 15.3 10.2 14.4 14.4 14.4 14.4 14.5 14.6 14.8 15.1 15.1 14.9 15.2 15.3 15.7 16.4 10.7 15.5 19.5 19.4 14.3 14.2 16.4 14.6 16.8 15.9 15.9 15.6 16.2 16.7 16.8 17.2 11.6 17.1 16.5 16.6 16.7 17 17.1 17.3 17.5 17.7 14.9 17.8 18 18.9 13.2 15.4 15.2 19.2 19.6 18.6 18.9 19.1 18.1 18.1 18.3 19 18.5 18.4 19.9 20.4 21.5 18.6 18.6 19.1 19.2 18.8 19.4 19.7 18.8 19.7 19.4 19.7 20.1 20.2 16.2 20.5 21.3 20.7 20.5 20.9 20.5 20.2 20 20.3 20.3 18.7 19.2 19.4 19.6 19.5 19.7 19.9 19.9 19.9 20.1 20.3 20.3 21 21.5 22.2 22.8 31.2 31.6 31.6 23.6 21.6 24.8 25.3 25 23.9 19.3 18.1 23.7 21 20 20.1 19.6
21.5 21.5 21.6 21.3 21.6 21.9 21.2 21.4 21.5 21.7 21.3 21.3 21.5 21.7 22.1 22.6 22.9 23.2 23 23.3 22.6 22 21.9 21.8 21.9 21.3 21.4 21 20.7 21.9 14.6 16.3 17.8 24.3 20.6 16.1 16 15.9 15.9 15.6 15.3 15.5 15.2 15 14.6 13.8 15.2 14.8 14.2 14.4 8.1 8.1 12.5 13.2 14.6 13.4 13.3 13.3 12.9 12.9 12.9 13.5 16.1 15 14.7 17.4 18.9 19.1 18.6 15.9 13.2 14.4 13.9 14 15 13.8 13.8 13.6 14 14.5 14.9 14.9 14.6 10.2 14.4 14.3 14.2 14.5 14.7 14.6 14.8 14.9 14.9 15.2 15.5 17.9 17.7 17.4 19 20.6 19 18.8 16.7 11 16 15.5 15.8 15.7 15.9 16.1 16.5 17 17.4 11 16.7 16.5 16.3 16.3 17 17.1 17.3 17.6 15.4 11.7 11.8 13.4 18.7 12.4 15.4 20.1 21.1 20.4 19 19.3 19.5 19.2 18.3 18.5 18.6 17.7 18.2 21.3 19.7 21.9 18.6 18.2 18.7 19 19.3 19.4 19.4 19.1 19.6 20 19.9 20.3 19.6 16.2 21.5 21.1 20.4 20.3 20.4 20.3 20.6 20.2 21.1 20.6 19.7 19.6 19.7 19.7 19.7 19.8 20.4 20.6 20.1 20.2 20.4 20.7 20.7 21.7 23 23 24.6 28 23.3 17.8 24.1 24.5 24.9 25.2 22.3 23 20.8 23.4 20.9 19.6 19.6 19.8
21.5 22.1 22.5 22 21 20.9 21 21.8 21.3 21.3 21.8 21.3 21.6 21.7 22.3 22.8 22.8 22.8 22.9 23.3 22.8 22.3 22.2 22.1 21.8 21 21.5 21.3 21.7 12.9 22 23.3 20.8 16.5 16.2 16.1 16 15.5 15.5 15.4 15.1 15.1 15 22.8 14.5 14.4 14.1 14.6 14.4 13.6 8.1 11.4 12.6 14.9 15.7 14 13.2 13 12.9 13 13.3 15.3 16.7 16.2 16.1 19.4 19.3 19 18.9 18.4 9.9 14.3 13.9 13.3 13.7 13.4 13.3 13.1 13.1 13.6 14.3 14.3 14.7 14.7 14.1 11.3 14.8 14.8 15 14.5 14.6 14.8 15.7 17.1 18.5 18.8 18.5 17.6 17.9 19.9 18.8 18.8 16.2 16 16.2 15.6 15 15.8 15.9 16 16.5 16.9 17.6 17 16.6 16.2 16.4 16.6 16.9 17.1 17.5 17.6 11.7 14.4 16.6 15.9 11.9 14.1 21.4 21.5 21.8 20.9 18.4 19.3 19.5 19.3 18.4 16.8 18.4 19 18.9 18 20.2 22 21 18.3 18.6 18.5 18.9 19 19.1 19.2 19.4 19.6 19.8 18.8 19.5 18.2 22.4 20.8 20.7 20.6 20.5 20.1 21.1 20.8 20.4 20.3 20.4 20 20.3 20.3 20.3 20.3 20.5 21.2 20.6 20.7 21.3 21.2 21.1 22.2 24.1 23 21.9 17.8 22.2 32.2 32.6 25.1 25.1 25 23.1 24.7 24.7 24.7 24.7 23.5 20.4 20.3
21.4 22.1 21.1 21 20.7 20.6 20.8 21.7 21.5 21.6 21.5 21.6 21.6 21.5 22.3 22.6 23 22.9 23.1 23.4 23 22.5 22.4 22.3 21.7 20.9 20.9 22.9 22.2 22.6 19.3 16.3 15.7 16.2 15.9 15.7 16.2 15.3 15.6 15.1 15.1 15.1 19.3 18.7 14.3 14.2 13.9 13.5 13 8.1 8.1 11.2 15.8 15.7 15.1 15 14.2 13.2 12.9 12.9 14.5 15.9 16.4 18.1 19.2 19 18.8 18.6 18.2 18.1 10.3 14.3 14.3 13.9 13.6 13.4 13.5 13.3 12.9 13.7 14.2 14.4 14.8 15.3 15.4 10.2 14.6 15.2 15.3 14.1 14.3 15.1 17.1 18.8 19.7 18.9 19.4 16.9 16.9 17.8 16.7 15.1 14.9 14.7 15.1 15.5 14.7 15.7 15.8 15.9 16.2 16.8 15.4 17.1 16.7 16.8 17 16.7 16.9 17.1 17.6 18 12.1 18.3 21.5 21.6 21.7 21.1 20.2 19.7 20.7 20.6 17.9 18.9 19.5 19.5 18.6 18.1 18.1 19.5 18.6 18.7 21.6 22.5 22.4 19.2 18.4 17.9 18.3 18.7 18.8 19.3 19.4 19.4 19.5 20 20.9 20.3 16.2 16.2 16.2 20 20.8 21.7 21.2 20.1 20.2 21.5 20.7 20.5 20.7 20.5 20.3 20.2 21.7 20.9 20.6 20.9 21.2 21.3 21.2 23.4 18.4 22.5 23.8 23.4 24.6 31.9 32.6 32.8 25 25.5 24.6 24.7 24.7 24.7 24.7 24.7 24.7 24.7
21 20.6 20.5 20.4 20.4 20.3 20.7 21.2 21.8 22.4 21.7 21.3 21.6 21.2 21.5 22.4 22.9 22.9 22.9 23.6 23.3 22.7 22.6 21.8 21.9 21.6 22.2 22.1 15.5 16.5 16.2 16.2 15.9 16.3 15.8 14.8 15.2 18.9 17.6 15.5 15.3 19.3 23 15.2 14.8 14.8 13.9 12.6 13.2 8.1 8.1 13.3 15.5 19.1 18.2 19.6 16.8 14.4 12.8 13.7 15.7 16.4 16.7 18.7 19.1 18.9 18.5 18.4 18.5 18.6 17.9 12.4 9.2 9.2 9.2 14.4 14.2 13.6 13.1 13.4 13.3 14.3 14.6 14.8 15 12.1 15.1 14.8 14.9 15.6 18 16.5 17.7 18.8 19.3 19.6 19.5 19.1 16.4 17.7 18.2 19.2 17.2 15.5 15 15.3 15.4 15.7 15.8 15.9 16.2 16.7 16.8 11 17 17.3 16.7 16.7 16.8 17 17.6 18.2 12.6 20 22.2 22.4 22.9 19.6 20.6 20.5 20.4 20.2 19.2 18.2 18.9 19.5 18 18.1 18.2 19.4 18 18.9 21.8 22.8 22.7 21.6 18.1 18 18.3 18.5 18.7 19.2 19.6 19.1 19.5 20.1 20.9 20.8 20.3 19.9 19.9 20.8 18.2 21 20.3 20.2 20.2 20.7 21.1 20.2 20.6 20.5 20.4 20.4 20.8 20.9 20.7 20.8 21 21.5 16.7 17 25.2 23.8 23.7 23.5 24.6 24.9 28.7 32.7 25 25.8 23.7 24.6 24.7 24.6 24.6 24.6 24.6 24.7
20.2 19.8 20.3 20.3 20.1 20.2 20.7 20.8 21.2 21.4 22.2 21.6 21.5 21.5 21.3 21.4 22.8 23 22.5 22.4 19.3 19.7 19.8 21.7 21.8 22.4 22 19 18.5 16.5 16.5 16.3 15.8 15.1 14.7 14.4 15.1 13.6 14.7 15 15.9 15.8 16.2 14.3 14.6 14.6 14.4 13.5 12.8 8.1 11.5 15 20.8 20.9 19.8 21.2 20.2 18.3 14.7 13.8 16.1 16.7 17 18.1 18.5 18.7 18.6 18.5 18.7 18.1 18.3 17.7 15.5 15.6 16.7 9.2 10.9 14.3 14.4 13 13.1 14.1 14.3 14.5 14.6 10.1 17.2 17.3 18.1 17.7 17.6 16.9 17.7 18.3 18.8 19.6 19.5 19.3 19.1 17.2 17.8 18.9 18.2 17 17.2 16.7 17.6 16.7 16.4 15.9 16.1 16.6 17.1 16.1 18.7 17.6 16.9 17 17 17.3 17.8 18.5 11.9 20.6 22.5 22.8 21.7 18.5 20.1 20.2 20.2 20.1 19.3 19.2 19.6 19.5 19.5 18.4 18.4 16.4 18.6 19.8 21.8 22.8 23 22.5 19.3 18 18.6 18.4 18.4 18.6 18.8 19.1 19 19 19.4 20.2 19.8 19.7 19.8 19.9 20.4 16.6 21.6 20.5 20.4 20.3 20.7 20.5 20.5 20.6 20.6 20.6 21 20.8 20.9 21 21.1 16.2 23.6 24.1 23.9 23.8 23.6 23.5 24.7 25 25.3 26.8 25.1 33.4 28.8 20.3 24.7 24.7 24.7 24.7 24.6 24.6
19.4 18.9 20.4 20.8 20.8 20.8 21.1 20.4 20.7 22.1 20.5 21.7 21.2 21.3 21.4 21.2 21.2 21.6 20.9 21.5 20.8 21.9 23.1 22.2 21.9 21.6 21.2 19.9 19.6 17.5 16.4 16.1 15.4 14.9 14.6 14.7 13.8 14.3 14.4 15.3 15 16.4 16.3 14.5 14.3 14.3 15 13.4 8.1 8.1 17 17 18.8 17.4 17.8 20 19.1 16.8 17.2 15.1 17 17 17.3 17.6 18.2 18.4 18.5 18.5 18.5 18.3 18.5 18.6 18.9 18.3 18.6 18.4 16.7 10.6 14.1 13.6 14.1 13.8 14 14.2 14.8 12.7 18.3 19.3 19.8 18.8 18.5 18 17.7 18.6 18.4 19.2 19.2 19.3 19 17.4 17.9 19.3 19.1 18.2 18.8 18.3 18.2 18.1 18.5 17.3 16.5 16.4 16.9 13.7 17.4 17.8 17.4 16.9 17.1 17.4 17.7 18.3 11.5 19.1 22.6 22.4 22 20.7 18.1 17.2 19.9 19.9 19.8 18.8 18.5 18.6 18.3 18.1 18.2 18.9 19.9 19.7 21.9 22.5 23.4 22.4 19.4 18.7 18.9 18.1 18.2 18.4 18.5 18.7 19.1 19 19.4 19.6 19.6 19.6 19.7 19.8 19.9 21 16.2 20.7 20.8 20.4 20.8 20.8 20.8 20.7 20.8 21 21.2 21 21.2 21.4 16.2 23.7 23.8 23.9 23.6 23.6 23.6 23.4 24.1 23.9 25.2 25.1 25.1 33.1 32.4 25.3 23.8 24.6 24.7 24.7 24.7 24.7
19.2 19.7 19.4 20.7 20.4 20.3 20.3 20.6 20.6 20.7 21.1 21.5 20.4 21.2 21.7 21.1 18.9 20.4 21.5 21.9 22 21.8 21.8 22.1 21.7 21.5 20.8 20.5 19 18.5 16.1 15.8 15.5 15.2 14.8 14.4 14.2 13.9 13.6 13.5 13.7 16.4 14.2 13.9 13.9 14.1 15.1 13.3 8.1 9.1 18 17.6 17.6 18.5 17.7 17.7 17.7 17 16 16.3 16.5 17.6 17.2 17.7 18 18.1 18.2 18.2 18.2 18.5 18.7 18.9 18.6 18.8 18.7 19.3 19.6 19.4 9.2 15 14.4 16.2 14.5 15.5 10.1 19.3 19.3 19.7 19.9 19.4 19.4 17.2 17.4 18.4 18.4 19 19.1 19.2 19.2 18.6 18.4 19.8 19.2 19.4 19.1 18.7 18.7 18.4 18.9 19.6 19.9 19.3 18.4 17.2 11 17.8 17.6 17.2 17.3 16.9 15.1 17.5 17.8 14.1 18.2 22 21.5 20.5 17.8 17.9 17.6 17.5 19.4 19.2 19 18.6 18.1 18.2 19 19.6 20.2 20.2 20.9 22.2 23.6 21.5 19.8 19.2 17.9 17.9 18.2 18.3 18.2 18.6 18.9 19.1 19.4 19.6 19.6 19.6 19.6 19.6 19.6 19.7 19.8 20.4 16.2 16.2 16.2 16.2 20.5 21.2 21.4 20.8 16.2 16.2 20.4 16.2 23.9 23.7 23.7 23.6 23.7 23.9 23.6 23 23.9 23.4 24.1 25.2 25.2 29.5 32.6 32.2 28.7 24.2 24.7 24.7 24.6 24.7
19 19.5 19.4 20.4 20.6 20.2 20.9 20.4 21.4 21 20.7 21.6 22.4 18.5 20 21.1 21.1 20.6 20.8 21.7 21.6 21.4 21.5 21.3 21.4 21 20.5 19.6 18.6 18.3 20.9 15.8 16.5 16.1 15.6 13.8 14.1 14.1 13.7 13.2 15 14.2 14.1 13.3 13.3 14.1 15.7 11.9 8.1 12.6 18 17.6 18.5 18 18.8 16.8 16.7 16.5 16.5 16.8 17.3 17 16.7 17.9 18.1 18.2 18.1 18.4 19.4 18.8 19.1 19.2 18.6 18.7 18.8 19.3 19.3 19.3 18.7 16.1 9.6 10.1 10.1 15.7 19.3 19.6 19.8 19.7 19.2 19.8 19.8 18.6 16.6 18.1 18.6 18.8 18.9 18.9 18.5 17.5 19.6 20.2 20 19 18.7 18.6 19 18.7 19.3 19.9 20.6 21 21.2 21 18.2 11 18 17.5 17.3 15.4 14.7 15.4 17.9 11 17.5 16.1 20.3 19.6 18.5 18.4 18.5 18.3 17.3 18.7 18.2 18.1 18.2 18.7 20.3 20.2 20.4 20.5 20.4 21.7 23.1 22.7 21.2 20 19.9 19.2 19.1 18.4 18.7 18.4 19 19.2 19.6 19.6 19.6 19.6 19.4 19.5 19.6 20.8 20.5 20.9 21.4 23.5 24 23.8 22.1 16.2 17.2 21.5 24.3 24.2 23.9 23.6 23.7 23.7 23.8 22.7 23.5 23.8 23.8 23.7 23.8 23.7 24.2 25 24.7 29.1 29.5 31.8 31.1 29.1 23.9 24.7 24.7 24.7
19.4 19.3 18.4 20 20.8 20.5 20.7 20.6 21.1 20.2 18.4 18.7 22 21.3 21 21.2 21.5 21.2 21.3 21.3 21.4 21 21.2 20.9 20.7 20.6 20.2 19.3 18.7 22.1 17.3 16.8 16.1 15.4 15 15.1 13.6 13.6 13.5 14.6 15.5 14 14.1 13.7 13.8 14.6 14.2 8.1 8.1 16.1 21.6 22.8 18.8 16.8 17.4 17.3 16.8 17 17.3 16.9 16.6 16.6 17.7 18 18.1 18.3 18.4 18.3 19.3 18.1 18.9 19.2 18.7 18.6 18.7 19.1 18.9 18.7 18.1 17.9 14.9 15.7 16.8 18.3 19.7 20 20.4 21.2 19.7 20.2 19.7 19.4 17.3 17.6 18.1 18.4 18.7 18.4 17.9 18.1 20.1 20.2 20.2 18.9 18.4 18.7 19.1 19.3 19.6 20.1 20.8 20.9 21.1 21.6 21 20.3 11 17.6 14.7 15 13.7 16.4 15.4 11.3 18.1 18.3 13.3 17.4 18.6 18.8 14.3 14.8 17 14.5 17.4 18.7 19.4 19.7 19.9 20.2 20.4 20.5 20.2 21.6 22.9 23 21 20.8 20.1 19.1 19.8 19.5 19.4 19.2 19.5 19.5 19.7 19.2 19.7 18.7 19.5 20 20.1 21.2 21.3 21.7 23.1 24.3 24.7 24.5 23.6 23.1 23.2 23.1 24.4 24.5 24.7 22.9 23.6 23.5 24.3 24.4 23.8 23.4 23.4 22.3 22.8 20.8 24.3 25 23.8 28 27.1 27.3 30.8 30.3 29.6 22.8 24.6 24.7
18.2 18 18.8 19.2 20.1 19.9 19.3 19.7 18.6 18.6 19.3 20.4 21 21.2 20.4 20.8 20.6 20.8 21 21 21.1 20.8 21 20.7 20.4 21 19.9 20.2 22.4 18.4 17.9 16.9 15.8 14.9 14.4 15 14.9 13.5 14.5 15.8 15.7 14.8 14.3 14.7 14.6 14.4 13.2 8.1 11.6 22.8 26.8 26.8 20.7 17.7 17.6 17.4 16.7 16.8 16.5 16.3 16.3 16.8 17.9 18.4 18.5 18.5 18.4 18.4 19 18.5 18.6 18.9 18.6 18.3 18.3 18.3 18.3 18.3 18 18.5 18.5 15.8 17.7 18.6 19.2 19.4 19.4 19.5 19.5 19.9 19.4 19.3 19 17.4 17.5 17.9 18.3 18.4 18.1 18.9 19.9 20.1 20.5 18.3 17.3 18.9 19.2 19.5 19.8 20.2 20.8 20.8 20.9 21.3 21.3 20.7 19.9 11 15.2 14.9 17.7 11.6 15.7 15.8 17.9 18.2 18 18.3 12.5 19.7 21.2 21.4 19.9 19.8 19.5 19.4 19.5 19.7 20 20.2 20.4 20.4 20.7 22 22.9 23.1 22.8 21.3 21 20.7 20 19.6 19.6 19.8 19.8 19.7 19.6 19.7 19.9 19.5 20 20.8 20.7 21.3 21.7 22.1 23.6 24.5 25 25 24.9 24.1 24.2 23.9 25.5 25.3 25.1 24.6 24.4 24.6 24.8 25.4 25.6 24 22.2 23.5 25.5 25.1 25.3 25.4 26.1 27.2 27.1 22.5 26.6 29.2 28.9 28.6 28.5 22.5
17.8 17.5 18.3 18.9 19.5 18.8 18.5 18.9 19.2 19.7 20 19.9 20.1 19.9 19.5 19.7 20.1 20.2 20.3 20.4 20.6 20.1 20.4 20.4 20.2 20 20.4 22.6 18.1 17.8 17.5 16.4 15.9 14.8 15 15.2 15.3 14.9 15.3 16.1 16.1 15.3 15.4 15.6 14.6 13.4 8.1 8.1 18.6 25.3 26.6 26.2 18.3 18.1 17.8 17.5 16.7 17.1 16.6 16.1 16.3 17 17.7 18 18.8 18.5 18.2 18.4 18.5 18.2 18.2 18.6 18.3 18.6 18.9 18.9 18.7 18.4 18.3 18.8 18.2 18.3 18.1 19 19.4 19.1 19.2 19.4 19.6 19.7 19.8 20 20.1 19.1 18.4 18.3 18 18.6 19.5 19.9 20.1 20.3 20.8 18.9 17 19.3 19.5 19.7 20 20.4 20.7 20.8 20.9 21 21.2 20.5 19.2 20.2 19.3 17.5 17.3 16.9 16.7 18.9 21.5 21 21.2 20.9 20.9 21.4 21.1 20.8 21 20.4 19.3 19.5 19.8 19.8 20.2 20.7 20.6 20.6 21.2 22.4 22.9 23.3 23.1 22.6 23 22.6 21.6 20.2 19.4 19.7 19.4 20.4 20.6 20.3 19.9 19.6 20 21.1 21.7 22.7 23.1 23.9 24.2 24.4 25 25.3 25.5 25.6 25.7 25.3 25.7 25.5 25.3 25.2 24.6 26 25.8 25.7 25 25.5 25.8 25.9 25 25 25 25.7 26.5 26.9 27.7 26 26.4 21.3 25.6 28.6 27.8 26.9
17 16.9 18.7 18.5 18.5 19 18.8 18.5 18.5 20.7 19.8 19.4 19.4 19.1 19.6 19.8 19.6 19.6 19.5 20 20.1 19.8 19.8 20.3 20.1 19.7 20.3 18.4 18 17.2 17 19.9 19.4 15.7 15.6 15.3 15.4 15.6 15.4 15.7 15.1 15.4 15.5 14.1 13.3 8.1 8.1 12.3 22.2 26 26.7 24.7 18.8 18.4 18.1 17.3 16.6 17.3 15.9 17.1 16.6 18 17.8 17.9 18.7 18.3 18.4 18.5 18.5 18.5 18.4 18.6 18.8 18.8 18.8 18.8 18.9 18.8 18.5 18.7 18.8 18.9 16.8 19 19 19 19.4 19.7 20 19.9 19.9 20.3 20.6 20.3 20.3 20 20 19.5 20.1 20.4 20.5 21 20.7 19.5 18.1 19.5 19.8 20 20.2 20.3 20.5 20.6 20.8 21.1 21 20.8 18.3 20.7 20.7 20 20.5 19.3 19 20.7 21.5 21 21 21.5 21.4 21.7 21.8 21.9 21.5 20.6 20 19.7 20 20.1 20.3 20.9 20.8 20.9 22 22.8 23.1 23.1 23.2 23.7 23.3 23.6 23 22.1 21.1 19.3 20.4 20.7 20.5 19.9 19.8 19.8 19.7 20.6 22.1 23.7 24.2 24.6 24.8 24.4 24.8 25.3 25.6 25.8 25.2 25.7 25.7 25.5 25.2 24.9 25.5 26.2 25.9 25.8 26.1 25.8 27.1 27.1 25.1 25 25.2 26.5 26.7 25.9 25.9 26.8 21 25.7 27.1 27.3 28 27
18.7 19.5 17.7 17.3 17.4 20 21.7 21.3 21.4 20.3 18.5 18.9 18.7 18.9 19.3 19.4 19 19.2 19.4 19.6 19.5 19.7 19.6 19.8 19.8 19.9 18.7 18.5 18.2 17.6 18.7 26.1 27.6 20.3 16.1 15.3 15.1 15.1 15.3 15.4 15.5 15.5 15.2 14.9 9.4 8.1 10 19.1 27 26.7 26.8 18.6 19.5 18.6 18 16.5 17.5 16.5 18.3 17.9 18.6 18.2 17.6 17.2 18.6 18.6 18.3 18.4 18.5 18.3 18.3 18.2 18.5 18.6 18.7 18.7 18.7 18.8 18.8 18.9 19.4 19.1 18.8 19 18.6 18.6 19.6 20.1 20.2 20 20.1 20.4 20.7 20.8 20.9 21.3 21.3 21 20.5 20.7 20.9 20.8 20.5 19.9 18.4 19.3 20.1 20.2 20.6 20.3 20.6 20.6 20.9 21.2 21.2 21.2 21.2 21.2 21.3 21.2 20.3 20.5 20.6 21.2 21 21.3 21.2 22 22.1 21.8 22 21.6 21.8 21.5 20.5 19.9 20.1 20.3 20.4 20.8 21 21.7 22.4 23.1 23.6 23.5 23.3 23.8 23.2 23.8 24.1 23.7 23.1 21.2 20.7 20.5 19.6 19.5 19.4 19.5 19.8 21 21.6 23.3 24.3 24.8 25 24.5 24.8 25.4 25.6 25.5 25.4 25.5 25.7 25.6 24.9 25.3 25.8 26.1 25.6 26 26.3 26.5 26.5 26.6 25 27.4 27.5 26.7 27.1 25.6 25 21.2 26.4 29 28.9 29.5 29 29.1
16 16.5 16.9 17.1 17.6 17.9 18 18.3 19.5 21.4 21.7 22.2 18.4 18.6 19.1 18.9 18.7 19.1 19.3 19.3 19.3 19.9 19.7 19.4 19.5 20 18.7 18.6 18.2 17.7 16.9 21.6 29.2 25.6 17.1 15.7 16.4 15.7 15.4 15.6 15.5 15.5 15.3 11.9 8.1 8.1 16.7 26.7 26.6 26.6 26 18.7 18.6 18.6 17.3 17.1 16.7 16.7 16.3 17.5 18.6 18.3 18.2 18 17.8 18.2 18.3 18.4 18.4 18.2 18.2 18.2 18.2 18.3 18.5 18.7 18.5 18.5 18.8 19.1 19.5 19.2 19 19.2 19.5 18.7 19.8 20.1 20.4 20 20.3 20.6 20.9 21.3 21.7 21.9 21.6 21.7 21.3 21 20.7 20.5 20.1 19.8 18.7 19.2 20.2 20.4 20.6 20.8 20.9 21.4 20.9 21.2 21.4 21.7 21.7 21.5 21.6 21.5 21 21.1 21.3 21.1 21.2 21.3 21.5 21.9 22.6 22.4 22.3 22.1 20.9 21.4 21 20.8 20.7 20.9 21.9 21.2 21.8 22.7 22.9 23.2 23.2 23.8 23.8 23.9 23.6 23.4 24 24 23.5 22.5 20.5 20.7 20.3 20 20.2 19.6 19.5 20.6 21.3 22.6 23.4 24.3 24.7 24.6 24.8 25.5 25.5 25.4 25.4 25.3 25.5 25.1 24.8 25.7 25.4 25.3 25.5 26.1 26.3 26.3 26.2 26.6 26.9 25.4 26.7 27 27.1 25.3 24.9 21.5 27.4 28.9 28.9 29.3 28.9 28.9
15.2 15.7 16.5 16.8 17.4 18 18.1 18.3 18.3 18.6 18.2 19 20.3 23.3 18.8 18.6 18.5 18.5 18.6 18.8 19.1 19.7 19.5 19.1 19.5 19.2 18.2 18.4 18 17.7 17.3 16.9 20.9 18.2 16.4 17.2 16.2 16 15.3 15.6 15.6 15.6 15.6 8.1 8.1 11.6 22.3 24.4 26.1 27.2 19.7 18.7 18.7 18.6 18 17.7 17.6 17.2 17.5 17.7 18.6 18.4 18.2 19.2 22.7 18.4 23.5 21.6 20.1 19.1 18.5 18.4 19 18.4 18.5 18.7 18.5 18.5 18.6 18.7 19.2 19.1 19.7 19.9 19.9 19.6 20.3 20 20 20.1 20.3 20.9 21.3 21.8 21.5 22 21.4 21.5 21.2 20.9 20.6 20.6 20.3 20 18.9 19.1 20.3 20.5 20.6 20.5 20.6 20.8 21.2 21.3 21.5 21 21.5 21.4 21.6 21.6 21.7 21.9 21.8 21.7 21.7 21.7 21.6 22.2 22.3 22.3 22.5 22.7 22.3 22.3 21.9 22.1 21.5 21.4 22 21.9 21.8 21.8 22.6 22.8 23.1 23.8 23.7 23.8 23.7 23.9 24 23.9 23.9 23.5 22.8 21.2 21.1 21 20.6 20.5 21.6 20.7 20.9 21.7 22.6 23.1 23.6 23.6 24.6 25.4 25.6 25.7 25.8 25.8 25.6 24.8 25.4 25.8 25.9 25.8 25.9 26.2 26.3 26.3 26.6 26.8 26.2 26.6 27.1 27.1 27.2 26.9 25.2 25.9 24.4 26.3 28.7 28.8 26.2 26.1
15.4 15.7 16.1 16.6 17 17.6 17.9 18.3 18.8 18.8 18.4 18.2 18.2 18.3 18.9 25.2 20.3 18.6 18.7 18.3 18.8 19.4 19.6 18.7 18.3 17.9 18.3 18 17.7 17.4 17.3 17.2 16.9 17.1 17.4 17.6 16.6 15.6 15.8 15.7 15.3 15.5 8.1 8.1 10.9 18.7 25.4 25.3 26.4 25.9 18.9 18.8 19 19.2 18.9 18.6 18.1 18.1 18.4 18.5 18.6 18.5 18.5 18.4 18.4 18.2 19 18.6 18.6 18.6 18.6 18.3 19 18.5 18.6 18.7 18.6 18.6 18.7 18.9 19 19.2 19.5 19.8 20 20.7 20.8 20.2 20 20 20.1 20.2 20.6 20.8 24.8 21.7 21.7 21.4 21.1 20.7 20.6 20.7 20.6 20.3 19.5 19.8 20.4 20.6 20.6 20.6 20.7 21.2 21.6 21.7 21.8 21 21.7 21.4 21.3 21.9 22.1 22.1 22.1 22.1 22.2 22.1 22.1 22.2 22.5 22.5 22.7 22.9 21.5 22.6 22.5 22.7 22.8 22.1 22.6 22.6 22.6 22.5 22.8 22.6 23.1 23.8 23.9 23.8 23.6 23.7 23.9 24 23.8 24.1 23.2 22.8 21.6 21.5 21.3 21.1 21.5 21.2 21.4 21.5 22 22.2 23.3 23.8 24.7 25.3 25 25.5 25.7 25.6 25.2 25.6 25.9 26.2 26.3 26.3 26.2 26.2 26.3 25 26.6 26.7 25.5 27.3 27.5 27.1 27.7 27.5 26.5 27.6 27.2 25 25.1 27.9 25.9 25.5
15.7 15.5 16.1 16.1 16.6 17.6 18.4 18.6 18.8 18.6 18.3 18.3 18.2 18.1 18.1 17.9 18.7 25.8 20.5 19.3 18.5 18.7 19.1 18.2 17.4 17.3 17.8 17.1 17.3 17.3 17.3 17.4 17.7 17.9 17.4 17.5 15.5 15.8 15.9 15.9 15.7 8.1 8.1 8.1 16.5 26.7 26.2 26.4 25.9 21.2 18.9 19.2 19.6 19.4 19.2 18.9 18.2 18.8 18.6 18.1 18.4 18.4 18.4 18.6 16.8 18.5 18.7 18.6 18.6 18.4 18.1 18.2 19 18.8 18.8 18.7 18.7 18.8 19 19.1 19.2 19.4 19.6 19.9 20 21.2 21.1 20.5 20.9 20.2 20.5 20.4 20.3 21.2 23.6 21.1 21.5 21.1 20.8 20.7 20.7 20.7 20.5 19.9 20.2 20.4 20.5 20.7 20.6 20.6 20.7 21.1 21.5 21.5 21.4 21.6 21.8 21.5 21.5 21.8 22.2 22.1 22.1 22.1 22.1 22.3 22.5 22.5 22.6 22.5 22.6 23.1 22.2 23 22.9 22.8 23 22.6 22.8 22.8 22.7 22.7 23.1 23.5 23.4 23.4 23.3 23.3 23.7 23.2 23.4 24 23.7 24.2 24 23.5 21.5 21 20.6 21.4 22.1 21.8 21.9 22 22.5 22.3 24.1 24.4 24.8 25.6 25.5 25.4 25.5 25.8 25.4 25.4 25.4 26.1 26.5 26.2 26.3 26.3 26.3 26.8 26.9 25.7 27.3 27.3 27.6 27.1 27.7 27.4 27.6 27.4 27.3 26.7 25 24.3 25.1 25.8
14.5 15.4 16 16.1 15.9 17.1 18.6 18.8 18.6 18.4 18.4 18.3 18.1 18 17.9 18 18.5 18.2 19.4 26 21.7 19.3 17.4 18 17.8 17.6 18.1 18.4 18.6 18.6 18.4 18.2 18 18.1 17.9 17.5 16.3 16 16 15.9 8.1 8.1 8.1 16.3 20.4 20.2 20.5 21.8 20.9 18.3 18.6 19.2 19.2 19 18.8 18.6 18.3 19.1 18.7 18.2 18.4 18.4 18.5 18.7 18 18.3 18.4 19.4 18.7 19 18.4 18.6 18.8 19.1 18.9 19 19 19.1 19.2 19.3 19.5 19.6 19.8 20 20 20.7 20.7 20.3 20.2 20.8 20.8 20.5 20.3 20.2 22 22.3 21.4 21 20.6 20.5 20.3 20.1 19.7 20.2 20.2 20.7 20.8 20.8 20.7 20.7 20.8 21.1 21.4 21.4 21.5 21.6 21.8 21.8 21.8 22 22.2 22.2 22.2 22.2 22.1 22.3 22.5 22.6 22.7 22.6 22.5 22.8 22.4 23 23 23 23 23.1 23.2 22.9 22.8 23.1 23.5 23.3 23.2 23.1 23.5 23.6 23.6 23.6 24.1 24.4 24.2 24.3 23.2 22.7 23.5 23.4 22.4 21.7 22.6 22.1 22.3 22.6 22.7 22.6 24.4 25.4 25.3 25.1 25.3 25.4 25.3 25.5 25.5 25.5 25.8 26.5 26.8 26.2 26.5 26.4 26.5 26.7 26.4 27.2 27.4 27.5 27.4 27.4 27.8 27.2 27.9 27.6 27.3 27.4 27.4 26.4 26.7 26.8
10.3 12.1 14.9 15.8 15.5 16.2 17.8 18.4 18.8 18.8 18.9 18.3 18.1 17.8 18 18.4 18.5 18.3 18.6 18.4 24.2 24.6 21.6 17.3 17.7 19 18.4 18.6 18.4 17.8 18.1 17.7 18.4 18.3 18.6 19.5 18.2 17 16.6 8.1 8.1 8.1 12.8 19.4 19.6 19.6 20.1 20.1 19.8 18.4 18.7 19 19 18.6 18.4 18.6 18.8 18.9 18.7 18.2 18.4 18.4 18.6 18.6 18.5 18.5 18.6 18.9 18.6 18.6 18.8 19.3 19.2 19.2 19.2 19.2 19.3 19.4 19.4 19.6 19.7 19.9 20.1 20.2 20.2 20.6 20.4 20.2 20.1 20.6 20.5 20.5 20.4 20.7 20.7 22.4 21.3 20.8 20.5 20.2 20.1 20.1 20.3 20.5 20.7 21.1 21 20.9 20.9 20.9 20.9 21.2 21.4 21.5 21.5 21.5 21.7 21.8 21.9 21.9 22.1 22.2 22.2 22.2 22.2 22.3 22.2 22.3 22.8 22.6 22.4 22.9 22.2 22.7 22.9 23 23.2 23.1 22.8 23 23.1 23.4 23.3 23.5 23.4 23.4 23.9 23.6 23.4 24.3 24.5 24.4 24.3 24.9 23.8 23.7 24.3 23.1 21.3 21.7 22.9 22.9 23.2 23.1 23 23.4 23.4 25.1 25.2 25.8 25.8 25.7 25.6 25.5 25.9 25.7 26.1 26.5 26.6 26.6 26.4 25.7 26.7 26.2 26.7 27 27.3 27.3 27 27.8 27.5 27.6 27.6 27.7 27.4 27.6 27.7 27.3 27.6 28.3
13 10.1 13.1 15.5 15.7 16.1 17.2 17.8 17.9 18 17.9 17.9 17.6 17.9 18.2 18.7 18.4 18.4 17.9 17.8 17.6 16.9 23.2 25 21.3 18.5 18.8 19 18.9 17.8 18.6 19.2 18.8 18.3 19.5 19 18 16.3 8.1 8.1 8.1 12.3 19.6 19.8 19.6 19.8 19.5 19.8 19.1 18.7 19 18.8 18.8 18.5 18.5 18.8 19.1 18 18.2 18.2 18.4 18.4 18.5 18.5 18.5 18.6 18.7 18.7 18.8 19 19.3 19.7 19.7 19.6 19.5 19.5 19.6 19.6 19.7 19.8 20 20.1 20.5 20.5 21.4 20.5 20.5 20.6 20.6 21 20.9 21.1 20.9 20.9 21.5 22.7 20.6 20.6 20.5 20.5 20.5 20.4 20.5 20.6 20.9 21.3 21.5 20.8 21.1 21.2 21.1 21.3 21.5 21.6 21.6 21.6 21.6 21.7 21.8 21.8 22 22.1 22.3 22.3 22.3 22.4 22.4 22.5 23 22.7 22.3 22.8 22.6 22.5 22.7 23.1 23.1 22.9 22.9 23.1 23.3 23.2 23 23.1 23.3 23.5 24.5 24.4 24.1 24.5 24.5 24.4 24.2 24.3 23.4 24.2 24.4 23.1 22.6 22.3 24.1 24.5 24.3 24 23.9 23.5 23.7 24.8 25.1 25.7 25.8 25.8 25.9 26.2 26.3 25.9 26 26.5 26.4 26.3 26.2 26.4 25.6 26.3 26.6 26.9 27.2 27.1 27.2 27.8 27 27.6 27.9 27.8 27.7 27.8 27.9 27.5 28.2 28.5
14.2 12.5 11.2 12.9 15 16 17 17 17.1 17.1 17.2 17.5 17.9 18 18.3 18.4 18.1 17.7 17.2 17.7 17.5 17 17.4 16.6 24.9 25.5 20.2 19.6 19.2 18.6 18.3 18.9 18.2 18.5 18.6 18 15.4 8.3 8.1 8.1 13.5 19.2 19.6 19.6 19.6 19.5 19.8 20 19.2 18.9 18.8 19.1 18.5 18.7 18.2 18.8 18.4 18.3 18.3 18.7 18.5 18.4 18.5 18.9 18.7 19 18.8 18.8 19.2 19.6 19.6 20.1 20.1 20 20 19.8 19.8 19.9 19.9 20.3 20.5 20.4 21 21.1 20.7 20.4 20.5 20.6 20.3 20.4 20.9 20.4 20.7 21 21.8 21.6 21.2 21 20.9 20.9 20.9 20.5 20.8 20.9 21.2 21.8 21.9 21.5 21.4 21.1 21.4 21.5 21.6 21.8 21.8 21.8 21.8 21.8 21.8 21.8 22.1 22.3 22.3 22.5 22.6 22.8 22.7 22.9 23.2 22.7 22.1 22.8 22.1 22.7 22.7 22.8 23 23 23.1 23.2 23.5 23.6 23.5 23.6 23.7 23.9 25.3 24.8 24.4 24.8 25.1 24.3 24.3 24.5 24 24.6 24.8 24.5 23.5 23.1 24.5 24.5 24.4 24.6 24.9 24 24.2 23.9 25.4 26 26.2 26.2 26.1 26.3 26.5 26.6 26.4 26.2 26.4 26.2 25 26.2 26.6 26.5 26.6 26.9 27 27 27.5 27.2 27.6 28 27.5 27.2 27.9 27.5 27.9 27.9 28.3 28.4
15.8 14.6 10.4 13 14.9 15.8 16.3 16.6 16.4 16.9 17.3 17.8 18.2 18.1 18.1 17.9 17.5 17.1 17.3 17.6 17.8 17.4 16.4 16.3 15.9 16 26.8 25.3 20 19.2 18.9 18.4 17.6 18 17.5 14.2 8.1 8.1 8.1 13.6 20.1 19.6 19.5 19.5 19.5 19.5 19.7 19.8 19 18.9 19.1 19.6 18.9 18.9 18.8 18.8 18.7 18.5 18.5 18.8 18.3 18.4 18.4 18.7 18.6 19 19.1 21.2 20.1 20 19.8 20.3 20.3 20.2 20.2 20.1 20.1 20.2 20.2 20.5 20.6 20.7 20.7 20.3 20.3 20.4 20.5 20.6 20.5 20.6 20.7 20.9 20.4 21.2 21.3 21.4 21.7 21.8 21.7 21.5 21.1 20.5 20.9 21.2 21.4 21 22.2 22 21.4 21.1 21.7 21.6 21.5 21.7 21.8 21.7 21.8 21.9 21.8 22 22.2 22.4 22.4 22.7 22.8 22.9 22.4 23.2 22.9 22.6 22.6 22.3 22.6 22.4 22.8 22.9 23 23.2 23.3 23.2 23.6 23.4 23.8 23 22.7 23.1 24.6 24.5 24.4 24.5 24.6 24.3 24.4 24.6 23.8 24.1 24.7 24.2 23.2 23.7 23.2 23.6 24.3 24.6 25.4 24.7 25 25.1 25.4 26.4 26.5 26.3 26.3 26.7 26.9 26.6 26.3 26.3 26.1 26.5 26.3 26.1 26.7 26.9 27.2 26.7 26.8 26.9 27.1 27.1 27.6 27.3 27.2 27.9 27.6 27.2 27.8 28.2 28.3 28.3
17.7 15.1 7.9 13.6 15.5 16.1 16.3 16.8 16.7 16.6 17.6 17.7 17.8 17.6 17.4 17.3 16.9 16.8 17.2 17.3 17.4 17.4 16 15.9 15.3 15 15.3 15.1 28.5 26 19.3 18.9 16.8 17.3 11.5 8.1 8.1 8.1 16.2 19.2 20.1 19.6 19.5 19.5 19.5 19.6 19.6 19.8 18.6 18.7 19.5 19.6 19.4 19.2 19 18.9 18.8 18.7 18.5 18.9 18.2 18.3 18.4 18.7 18.7 19 19.2 20.3 21.2 20.2 20 20.3 20.4 20.2 20.1 20.2 20.2 20.5 20.5 20.6 20.6 20.4 20.3 20.4 20.4 20.4 20.5 20.7 20.9 21.2 21.3 21.1 20.5 20.9 21 21.3 21.7 21.9 22.1 22.2 21.2 21 21.2 21.4 22.4 22.1 22.3 22.4 22.1 21.8 21.7 21.5 21.5 21.5 21.6 21.6 21.7 21.9 22 22.2 22.4 22.8 22.6 24.7 22.8 23 23.3 23.3 22.9 23 23.1 23.1 22.6 22.7 22.8 23 23.1 23.3 23.5 23.3 23.2 23.9 23.7 23.9 23.9 23.9 23.9 25 24.1 24.5 24.5 24.4 24.5 24.6 24.5 24.4 23.9 23.8 24.5 23.4 24 24.8 24.4 24.6 25 24.9 25.2 25.6 25.8 26.4 26.4 26.4 26.4 27 26.9 26.4 26.8 26.7 26.4 25.2 26.2 26.6 27.1 27.2 27.4 27.3 27.4 27.4 26.8 26.5 27.4 27.4 27.4 27.6 27.2 27.1 27.9 28.3 28.3 28.8
19.1 17.9 11 12.3 14.4 15.3 16.3 16.6 16.2 16.4 17.1 17.4 17.4 17.1 16.8 16.6 16.7 16.9 17.2 17.2 17.3 16.7 15.9 15.3 14.7 14.4 14.3 14.2 14.1 14.6 27.9 26.4 18.7 11.8 8.1 8.1 14 16.7 19.1 16.4 18.5 19.3 18.7 19.5 19.5 19.6 19.6 19.5 18.6 19.1 19.7 19.6 19.5 19.4 19.2 18.9 19 19.1 19.1 18.9 18.3 18.8 19 19.1 18.9 18.8 18.9 20.1 20.5 20.5 20.2 20.2 20.4 20.3 20.3 20.4 20.3 20.4 20.4 20.4 20.5 20.3 20.3 20.4 20.5 20.5 20.5 20.6 20.7 20.7 20.5 20.6 20.6 20.5 21.1 21.1 21.5 21.7 22 22.3 21.4 21.2 20.6 21.9 23 23 23 22.7 22.3 21.4 21.8 21.7 21.6 21.4 21.5 21.6 21.6 21.7 21.8 21.9 22 22.4 22.6 22.6 22.8 23 23.3 23.3 23.1 23.3 23.3 23.4 23 23.1 23.3 23.8 23.7 23.7 23.6 23.6 23.6 23.3 24 23.9 23.8 24 24.3 24.4 24.8 24.8 24.6 24.5 24.6 24.7 24.7 25 24.2 25.1 24.9 24.1 23.2 25.2 24.7 24.7 25.2 24.8 25.3 25.8 26 26.2 26.3 26.4 26.5 27.3 26.7 26.9 27.3 27.2 26.1 27.7 26.6 26.8 26.8 27.3 27.3 27 26.7 27.1 27.2 27.2 27.5 27.6 27 27.8 27.8 26.8 28.2 28.5 28.6 28.8
19.5 18.8 15.7 10.7 11.4 14.4 14.3 15.1 15.6 15.7 16.6 16.8 17 16.9 16.8 16.9 16.9 17.1 17.4 16.9 16.5 15.6 15.1 14.9 14.4 14.1 14 13.9 13.3 13.3 13.2 16.7 12.4 8.1 12.3 16.1 17 18.1 18.6 21.6 19.1 19 18.8 19.5 19.5 19.5 19.4 19.2 18.7 19.1 19.5 19.6 19.6 19.5 19.4 19.1 18.9 19.1 19.1 18.9 18.3 18.9 19.2 19.1 18.9 18.9 19.2 20.2 20.4 20.3 20.4 20.4 20.4 20.4 20.7 20.7 20.4 20.2 20.2 20.3 20.4 20.3 20.3 20.4 20.4 20.9 20.7 20.5 20.7 21.5 20.4 21.5 20.9 20.3 21 20.6 21.7 21.4 21.5 21.3 20.3 21.4 21.7 22.6 23.1 23.3 23.4 22.8 22.3 22.7 22.4 22 21.6 21.4 21.4 21.6 21.6 21.6 21.6 21.7 21.8 22.1 22.5 23 22.5 22.8 23 23.3 23.4 23.3 23.3 23.2 23.3 23.6 23.7 23.8 24 23.8 23.7 24.2 24.4 23.5 24 23.9 23.8 24.1 24.5 24.6 24.7 24.6 24.6 24.6 24.4 24.6 24.6 24.3 24.4 24.9 25.1 24.7 24.3 23.7 24.6 24.8 25.4 25 25.3 25.6 25.3 25.9 26.3 26.4 26.4 26.3 26.9 26.6 28.3 28.1 26.6 26.6 27.5 27.1 27.1 26.7 27.3 27.3 27.5 27.4 26.9 26.9 26.9 27.7 27.3 27.7 27.3 27.7 28.2 28.4 29 29.1
19.6 19.2 16.3 8.3 11 11.8 14.9 15.2 15.7 15.7 16.2 16.4 16.6 16.5 16.5 16.5 16.2 16.6 16.4 16 16 15.1 14.7 14.5 14.2 14 13.9 13.8 13.3 12.2 11.9 8.1 8.1 14.1 27.4 19.2 18.3 18.3 18.1 16.9 19.1 18.4 19 19.1 19.5 18.4 18.7 19.1 18.7 19 19.5 19.7 19.7 19.6 19.6 19.5 19.4 19.3 19.2 18.9 18.3 19.1 19 19.1 19.1 18.9 19 20 20.5 20.4 20.5 20.6 20.5 20.2 20.4 20.4 20.1 19.9 20 20.2 20.3 20.3 20.3 20.3 20.2 20.4 20.6 20.4 20.7 20.2 20.2 20.6 20.2 20.2 20.6 21 21.1 21 20.8 21.2 21.7 21.9 22.3 22.5 22.6 22.8 22.6 22.7 22.3 22.9 22.6 22.5 21.6 21.6 21.5 21.5 21.6 21.6 21.6 21.6 21.7 22.1 22.1 22.3 22.4 22.5 22.7 23 23.1 23.3 23 22.6 23.1 23.5 23.3 23.9 23.7 23.7 23.8 24.1 24 23.8 23.8 23.8 23.8 24.1 24.4 24.6 24.4 24.5 24.6 24.6 24.9 24.7 24.1 24.7 24.8 24.3 24.9 25 25.2 24.2 25.2 24.9 25.4 25 25.1 25.1 25.4 26.2 26.3 26.6 26.3 26.3 26.6 27 26.8 25.3 26.5 29.5 27.3 27.1 26.7 27.2 27.1 26.9 27.2 27.8 27.7 27 26.7 27.5 27.6 27.5 27.3 28.1 28.3 28.2 28.2 29.3
19.4 18.2 15.6 11.7 11.5 14.5 15.4 15.4 15.4 15.8 15.9 16.1 16.1 16.2 16.2 16.2 15.9 15.9 15.9 15.9 15.7 15.5 15.1 15.1 14.1 13.8 13.8 12.2 11.6 8.1 8.1 8.1 14.3 14.9 15.1 14.8 25.1 22 18.1 16.8 16.5 17 18.9 18.1 18 18.1 19 19 18.6 18.5 19.4 19.7 19.8 19.5 19.3 19.4 19.3 19.5 19.4 19.1 18.9 19.1 18.8 18.8 18.9 18.8 18.5 18.8 19.3 19.3 19.4 19.4 20.6 20.6 20.5 20.5 19.9 20.4 20.4 20.4 20.5 20.9 20.7 20.4 20.5 20.6 20.5 20.4 20.6 20.6 20.6 20.6 20.1 20.5 20.5 20.5 20.8 22 21.8 21.7 22 22.2 22.4 22.4 22.3 22.2 22.2 22.6 22.4 22.2 22 22.8 22.3 21.9 21.6 21.7 21.8 21.6 21.6 21.6 21.6 21.9 22.2 22.4 22.4 22.4 22.4 22.7 23 23.1 23.1 23.1 22.7 23.1 23.6 23.8 23.8 23.7 23.7 23.9 23.6 23.4 23.9 23.7 23.8 24.1 24.2 24.4 24.4 24.6 24.4 24.1 24.1 24.2 24.8 24.9 25.1 25 24.9 25.1 25.3 25 25.3 25 25.4 24.7 25.5 25.7 25.3 25.8 26 26.2 26.8 26.7 26.4 26.8 26.3 26.7 27.7 28 27 27.3 27.6 27.8 27.7 27.4 27.7 26.6 26.7 27.2 27.4 27.4 27.6 27.8 27.8 28.3 28.4 28.6 28.5 28.4
18.3 17.9 15.4 11.6 9.8 13 14.7 15.4 15.7 15.9 15.8 15.7 15.9 16.1 16.1 16 15.7 15.7 15.9 15.9 15.8 15.7 15.5 15.4 13.9 12.9 12.3 8.1 8.1 8.1 13.7 14.3 14.3 14.6 15 12.6 13.4 20.9 28.9 21.6 16.7 16.9 17.1 17.1 18.1 18.4 18.6 18.9 18.3 17.5 19.4 19.7 19.7 19.6 19.5 19.4 19.4 19.7 19.7 19.5 19.4 19.3 18.8 19.4 18.9 18.8 19.1 19.9 20.6 20.8 21.2 21.6 21.3 21.3 20.6 20.2 20.3 20.3 20.4 20.5 20.5 20.6 20.4 20.2 20.4 20.4 20.3 20.4 20.6 20.6 20.6 20.6 20.6 20.6 20.6 20.6 20.7 22.8 22.1 22.3 22.3 22.1 22.2 22.2 22.1 22 22.2 22.2 22.3 22.7 22.7 22.8 22.1 22 22 21.9 21.9 21.6 21.6 21.7 21.8 22 22.3 22.4 22.4 22.6 22.6 22.4 22.7 22.9 23.1 22.9 22.7 22.8 23 22.9 23.5 23.4 23.3 23.6 23.8 24 23.9 23.7 23.7 23.8 24 23.8 24 24.8 24.3 24 24.2 24.7 24.8 25 25.3 25.5 24.8 25.1 25.3 25.6 25.8 25.3 25.8 25.4 25.4 24.8 27.4 25.9 25.8 26 26.2 26.4 26.6 27.4 25.2 26.4 27.5 27.7 27.2 26.5 27.4 27.6 27.4 27.8 27.9 27.9 27.2 27.5 27.5 27.3 27.8 27.8 28.1 28.2 28.3 28.4 28.4 28.4
17.9 17 15.1 12.3 9.8 12 15.6 15.5 15.4 15.6 15.6 15.6 16.2 16.3 16 15.9 15.9 15.8 15.7 15.7 15.9 15.8 15.3 14.4 13.5 9.4 8.1 8.1 8.1 14.5 14.9 14.9 17.1 16.9 14.5 12.4 12.1 12 11.6 20 27.8 19.9 16.3 17 17.2 16.8 16.4 16.1 17.3 17.9 19.5 19.7 19.5 19.7 19.7 19.6 19.3 19.6 19.8 19.6 19.3 18.9 18.8 19.5 19.1 19.4 19.2 20.7 20.9 20.6 21.2 21.6 21.7 20.6 20.4 20.2 20.2 20.5 20.5 20.6 20.7 20.4 20.1 20.8 20.6 20.5 20.4 20.3 20.6 20.6 20.5 20.4 20.7 20.1 20.8 20.6 21.5 23.2 22.1 22.2 22 21.9 21.8 21.9 22 22 22.1 22.1 22.3 22.3 22.4 22.7 22.1 22.1 22.1 22 22 21.9 21.9 21.9 22 22.2 22.5 22.3 22.3 22.6 22.7 22.3 22.7 22.4 22.4 22.4 22.6 22.7 22.7 22.8 23.2 23.1 23.1 23.4 23.7 23.8 23.8 23.8 23.8 24 24.3 24.6 24.4 24 24 24.7 24.3 24.6 24.8 24.6 24.8 25 24.7 25.1 25.3 24.9 25.6 24.8 25.6 25.5 25.3 25.3 25.6 25.8 25.8 26 26.2 26.4 26.3 25.9 26.1 26.7 27.3 27.4 27.2 27.1 27.6 27.2 27.3 27.8 27.5 27.6 27.3 27.3 27.4 27 27 27.9 28.1 28.4 28.3 28.6 28.2 28.3
17.6 16.7 14.1 12 10.1 10.9 15.3 15.3 15.3 15.6 15.9 16.1 16.3 16.2 16.1 15.8 15.6 15.5 15.5 15.5 15.6 15.4 14.6 14.3 8.1 8.1 8.1 16.5 15.8 17.4 18.2 18.1 17.6 16.9 13.5 12.5 12.5 12.3 12 11.9 11.7 18.4 27.4 19.7 16.8 16.4 17.5 17.7 18.5 18.1 18.5 19 18.7 19.6 19.6 19.3 18.8 19.4 19.5 19.8 19.5 19.3 20.1 20.2 20.4 20.9 20.9 21 20.7 21.3 20.9 21.4 21.1 20.9 21.1 21.3 20.3 21 21.2 21.1 21.2 20.7 20.2 20.9 21.2 20.7 20.6 21.5 20.4 20.1 20.6 20.4 20.4 20.7 21 21.3 21.6 23.2 22.1 22.1 22.1 22 21.9 21.9 22 22.1 22.1 22.2 22.5 22.3 22.4 22.8 22.2 22.1 22.1 22 22.1 22.1 22.2 22.1 22.2 22.6 23.1 22.6 22.5 22.9 22.7 22.7 22.8 22.5 22.2 22.4 22.6 22.9 23 22.8 23 23.4 23.4 23.5 23.5 23.5 23.7 23.9 24 23.7 24 24.2 24 24.2 24.4 24.4 24.4 24.4 24.5 24.8 24.7 24.8 25 25.2 25.3 25.6 25.7 25.7 25.4 25.8 25.4 25.2 25.5 25.9 25.9 26.1 26.2 26.4 26.2 25.2 26.6 26.7 26.8 26.8 27 27.8 27.3 26.9 26.7 27.7 27.3 27.1 27.9 26.5 26.8 26.4 27.3 27.5 28.1 28.5 28.4 28.4 28.2 28.6
16.1 15.2 11.9 10.6 9.5 11.5 14.5 15.1 15.5 15.9 16.2 16.1 16.1 16.1 16 15.9 15.6 15.4 15.2 15.3 15 14.6 13.4 8.1 8.1 8.1 15.4 15 16.9 17.8 17.3 17.9 17.6 16.6 17.3 17.8 12.6 12.6 11.8 11.8 12.4 17 14.3 16.9 24.8 19.2 16.7 20.5 18.9 15.6 18.3 18.8 18.8 19 19.3 19.5 19.3 19.1 19.7 19.5 20.4 19.3 20.6 20.5 20.5 20.7 20.5 20.7 21 20.7 20.5 20.9 20.8 20.8 21.2 21.4 21.3 21.2 21.2 20.9 21.5 21.4 21.3 21.4 21 21.6 21.4 21.3 21.2 20.6 20.8 21.1 21.5 21.8 21.8 21.9 22 23.1 22.1 22.1 22 22 22 22 22 22.1 22.1 22.2 22.7 22.1 22.5 22.9 22.3 22.4 22.6 22.1 22.1 22 22.1 22.2 22.4 22.4 22.5 22.8 23.1 22.5 22.7 22.8 22.5 22.7 22.5 22.2 22.4 22.7 22.9 22.7 23.4 22.8 23.3 23.5 23.5 23.4 23.3 23.9 24.2 23.5 24.2 24.4 23.7 24.3 24.6 24.4 24.4 24.4 24.5 24.8 24.9 24.9 25.1 25.3 25.4 25.7 25.8 25.8 25.5 25.6 25.5 25.4 25.8 26 25.3 25.4 26 26.5 25.8 26.2 27.1 27.4 27.1 27.1 27.4 26.9 27 27.6 27.7 27.3 27.4 27.5 27.7 26.7 26.9 26.8 26.6 28.3 28.4 28.6 28.5 28.4 28.8 29.1
17.8 14.5 11.4 10.4 9.9 12.6 14.9 15.3 15.7 16.3 16.6 16.1 16 15.9 15.9 16 15.3 15.9 15.2 15.1 13.9 8.1 8.1 8.1 8.1 15.1 15.6 16.1 17 17.7 17.2 17.8 18 17.4 17.8 17.7 16.6 16.7 17.8 18.5 18.6 18.6 17.9 17 16.5 17.3 19.6 20.8 18.2 18.8 18.8 18.5 18.5 18.3 18.8 19.3 19.4 19.5 19.5 19.5 19.7 20.1 21.3 20.1 20.3 20.4 20.3 20.4 20.6 20.4 20.5 20.5 20.7 20.7 21.4 21.5 21.4 20.1 20.8 20.8 21.5 21.5 21.4 21.5 21.8 21.9 22.8 21.6 21.5 21.5 21.6 21.8 21.8 21.8 21.9 22 22.2 23.2 22.1 22 22 22 22 22 22.1 22.1 22.2 22.3 22.3 22.3 22.6 23 22.3 22.3 22.4 22.3 22.2 22.1 22 22.2 22.4 22.5 22.6 23.2 23 23.2 22.4 22.1 22.1 22.3 22.7 22.7 22.3 22.7 22.8 22.9 22.6 22.7 22.9 23.3 22.2 22.5 23.5 23.9 24.1 24.4 23.6 23.4 24.4 24.4 24.9 24.4 24.4 24.4 24.4 24.3 25.2 25.3 25.4 25.5 25.5 25.5 25.6 25.3 25.1 25.7 25.8 25.3 25.7 25.4 25.7 26.4 26.7 25.9 26.9 26.2 26.7 27.2 27.1 27.5 27.2 26.6 27.1 27.2 27.2 27.6 27.7 27.7 27.4 27.5 27 27.2 27.4 28.6 28.5 28.6 28.3 28.6 29 29.1
18.4 15.2 11.5 10.7 9.8 12.7 15 15.5 15.7 16.5 16.8 16.3 16.2 15.6 15.5 15.7 15.1 14.6 14.6 13.3 8 8.1 8.1 17.2 16.4 16.2 16.5 17 17.5 17.7 17.4 18 17.9 17.7 17.4 17.1 17.1 17.3 17.9 18.2 18.2 18.1 17.9 17.5 17.9 20.9 21.6 20.9 24.5 20.1 18.4 18.2 18.7 18.3 18.3 19.2 19.5 19.7 19.4 19.4 19.4 19.3 20.7 19.8 20.1 20.3 20.2 20.1 20.7 20.5 20.4 20.3 20.5 20.7 21.2 21.1 21.2 21.6 21.3 21.7 21.6 21.6 21.5 21.6 21.5 21.8 22.1 21.7 21.7 21.6 21.7 21.8 21.9 21.9 21.9 21.9 21.8 23.3 22 21.9 21.9 22 22.1 21.9 22.1 22.2 22.2 22.3 22.3 22.6 22.9 23.1 22.5 22.3 22.3 22.3 22.2 22 21.9 21.9 22.4 22.4 22.4 22.6 23.2 22.5 22.2 22.5 22.5 22.4 22.8 22.7 22.4 22.9 23 23.1 23.3 23.5 23.6 23.2 23.2 23 23.6 23.9 24.1 24.4 23.9 24.1 24.6 24.3 24.5 24.5 24.6 24.6 24.8 24.4 24.8 25.4 25.3 24.7 25.3 25.8 25.4 25.8 25.8 25.7 25.7 25.7 25.8 26.1 26.1 26.3 26.4 25.2 26.5 26.7 26.5 27.2 27.2 27.5 26.8 26.9 27.3 27.1 27.6 27.6 27.6 27.5 27.8 27.4 27.5 27.2 26.9 28.6 28.5 28.3 28.1 28.7 29.1 29.2
16.7 15.3 10.2 10 10.1 15.1 15.6 15.7 15.7 16.3 16.7 16.4 15.7 14.8 14.7 14.8 14 13.5 9.9 7.7 8 12.6 15.2 16.6 16.3 17 17.3 17.6 17.5 17.5 17.5 17.7 17.5 17.4 17.5 17.6 17.5 17.7 17.8 17.9 18 17.9 17.7 17.6 17.4 17.7 18.2 19.3 24.2 25.7 23.9 18.2 18.6 19.1 18.5 18.9 19.6 19.7 19.7 19.6 19.5 18.8 20.4 19.9 20.1 20.2 20.3 20.3 20.3 20.2 20.2 20.1 20.2 20.4 20.6 21.7 21.5 21.5 21.7 21.9 21.8 21.7 21.7 21.9 21.8 21.6 21.5 21.8 21.7 21.7 21.8 21.9 21.9 21.8 21.8 21.8 21.8 23.3 21.9 21.9 22 22.3 22.4 21.9 21.9 22.1 22.3 22.2 22.1 22.8 23 23.2 22.7 22.3 22.6 22.6 22 22 22 22.2 22.5 22.4 22.4 22.4 22.7 22.8 22.3 22.9 22.7 22.7 22.8 22.7 22.9 23.1 23.1 23 23 23.2 23.4 23.7 23.7 23.6 23.7 23.7 23.9 24.5 24.3 23.9 24 24.2 24.3 24.5 24.9 25 24.9 24.6 24.7 24.7 24.8 25.7 25.6 25.7 25.8 25.9 25.9 25.8 26 26.1 26.2 26 26.1 26 26 26.4 26.3 26.8 26.7 26.8 27 27 27.3 27.3 27.4 27.4 27.3 27.3 27.3 27.2 27.7 26.1 27.2 27.6 26.4 28 28.4 28.4 28.3 28.5 28.8 29.2
16.6 13 10 9.7 10.3 14.9 15.2 15.5 15.9 16.2 16.3 15.7 14.5 14.4 11.7 12.1 12.7 7.9 7.9 8 14.1 14.1 15.7 15 15.9 16.9 16.9 16.7 16.6 16.3 17.1 16.8 16.8 16.7 16.8 17 17.2 17.8 17.6 17.6 17.7 17.8 17.7 17.9 17.7 17.8 17.8 17.4 17.6 20.7 25 26.5 25.3 19.1 19.7 19.3 19.7 19.8 19.8 19.5 19 18.8 20.6 19.7 20 20 20.1 20.1 20.7 20.4 20.3 20.2 20.1 20.1 20.4 20.9 21 21.2 21 21.1 21.4 21.7 21.8 22 22 21.8 21.9 21.9 21.9 21.9 21.8 21.9 21.6 21.7 21.7 21.7 21.8 23.3 21.9 22.3 22.1 23 22.2 21.7 22.2 22.9 22.5 22.8 22.4 23.4 22.8 23.1 23 23.1 23.1 23.1 22.3 22.5 22.2 22.9 22.5 22.5 22.5 23.1 22.5 22.5 22.6 22.8 22.8 22.8 22.8 22.7 22.7 22.9 23 22.9 23.1 23 23.1 23.2 23.4 23.6 23.6 23.5 23.5 23.7 24.5 23.9 24 24.1 24.3 24.4 24.6 24.9 24.3 24.6 24.5 24.8 24.5 25.5 25.9 25.7 25.7 26 26 25.3 26.1 26.3 26.5 26.2 26.4 26.2 25.2 26.4 26.6 26.1 26.7 26.3 26.4 26.4 26.7 27.2 26.3 27.1 27.1 27 27 27.2 27.8 27.4 26.9 27.7 27.8 26.6 27.1 28 29 28.7 28.7 28.9
15.7 12 10 9.1 12 14.7 15.2 15.5 15.7 15.7 15.7 14.7 14.3 12.6 12.1 10.3 7.9 7.9 13.4 13.1 14.8 13.4 16.8 15.9 14.7 15.6 16.4 16.4 16.4 16.6 17.2 16.8 16.5 16.4 16.5 17 17 17.7 17.4 17.6 17.8 17.7 17.5 17.6 17.8 17.7 17.6 17.4 17.4 17.4 17.4 19.7 25.3 22.6 26.5 19.5 19.7 19.7 19.7 19.7 19 18.8 20 19.4 19.8 19.8 19.8 20.1 20.3 20.3 20.4 20.4 20.3 20.2 20.3 20.6 20.6 20.8 20.6 20.7 21 21.6 21.8 21.7 22.1 22.2 22.6 22.5 22.5 22.5 22.2 23.1 23.5 23.1 22.3 22.1 21.8 22.7 22.5 22.8 22.2 22.3 21.5 21.5 22.2 23.1 23.1 23.4 25.1 22.7 22.5 22.6 22.6 22.5 22.4 22.7 22.3 22.7 22.4 21.9 22.6 22.5 23.4 22.5 22.6 22.5 22.6 22.7 22.8 22.8 22.9 23 23.2 22.6 22.9 23.1 23.3 23.2 23.1 23.1 23.5 23.6 23.6 23.7 23.8 23.7 24.1 24.2 24 24.1 24.3 24.5 24.8 24.7 25.1 25.4 24.6 24.7 24.4 25.2 25.5 25.4 25.7 26 26.1 25.6 26.4 26.5 26.2 26.2 26.3 25.9 26.3 26.5 26.6 26.8 27 26.8 26.8 26.7 26.5 27.4 27.2 26.9 26.9 26.8 27.1 27.7 27.2 27.5 27.6 27.7 27.3 27.2 26.8 28.3 28.3 28.2 28.5 28.6
14.3 11.2 9.9 10.6 12.8 14.8 14.9 15.3 15.6 15.1 12.4 11.8 12 11.6 7.9 7.9 7.9 13.1 12.9 13.4 12.7 16.6 17.4 17.3 17.5 17 17.4 17.2 17 17.4 17.3 16.8 16.4 16.6 16.9 16.6 16.7 17.5 17.4 17.6 17.9 17.9 17.6 17.5 17.6 17.5 17.5 17.7 17.9 17.4 17.7 19.6 18.5 18.4 19.1 24.6 24.8 19.7 19.8 18.3 19.5 19.6 20.6 20.2 19.7 19.7 19.7 19.9 20.1 20.2 20.5 20.7 20.7 21.2 20.8 20.6 20.9 20.9 20.9 20.8 22 21.1 20.8 21.1 21.6 21.6 23 22.3 22.1 22 22.1 22.1 22.4 21.6 21.5 21.6 21.4 22.8 22.5 22.5 22.5 23 22.7 21.8 22.5 22.9 22.3 23.1 24.6 23.4 22.8 22.6 22.7 22.6 22.4 22.3 22.5 21 22.3 22 22.2 23.2 22.9 22.4 22.5 22.7 22.8 22.8 22.6 22.7 22.9 22.9 22.9 23.1 23.2 23.2 23.3 23.4 23.4 23.5 23.4 23.6 23.5 23.9 23.8 23.8 24.2 24.5 24.7 24.9 24.8 24.7 24.6 24.3 25.1 24.4 24.5 25.2 24.9 25.5 25.7 25.5 25.7 26 26.1 26.5 26.5 26.3 26.1 26.3 26.2 25.5 26.7 26.2 26.5 26.7 27 26.6 26.5 26.5 26.6 26.9 26.8 27.1 26.9 27.5 27.8 26.9 27.9 27.9 27.4 27.7 27.4 27.2 26.4 27.1 28.2 28.6 28.9 28.4
14.4 11.7 10 10.8 11.2 12.9 15.1 15.1 12.7 13.1 14 12.5 11.2 7.9 7.9 7.9 13.2 13.5 16.5 16.5 15.7 15.3 16.1 16.8 17.4 18.4 18.8 18.8 18.3 18.4 17.9 17.4 16.9 17.5 17.4 17.3 17.2 17.7 17.5 17.6 18 18.1 17.9 17.8 17.8 17.9 18.7 19 18.6 18 18.1 18.8 18.6 17.8 18.5 18.6 19.6 24.1 22 18.3 16.8 19.9 20.2 20 19.7 19.5 19.6 19.6 19.7 19.9 20 19.7 19.9 20 20.1 20.7 20.6 20.7 20.9 20.9 21.5 21.7 21.4 21.4 21.5 21.5 22.4 21.8 22 21.9 21.9 21.9 21.9 21.7 21.3 21.2 21.3 22.8 22.6 22.3 22.1 22.3 22.3 22.4 22.4 22.4 22.6 23.8 24 22.9 22.9 22.5 22.7 22.8 22.6 23 23 21 22.6 22 22.5 23.1 22.1 22.3 22.3 22.7 22.7 22.5 22.4 22.5 22.6 22.9 22.5 22.6 23.5 23.5 23.5 23.5 23.5 23.6 23.5 23.7 23.6 23.9 23.5 23.6 24 24.3 24.6 24.4 24.3 24.5 24.5 25 24.8 24.7 24.7 24.8 24.6 25 25.7 25.4 25.4 25.7 26.4 26.5 26.2 26 25.8 26.4 25.2 26.5 26.8 26.9 26.5 27 27.1 27.1 26.8 26.8 27.5 27 26.9 27.1 26.9 27.2 27 27.8 26.9 27.5 27.5 27.6 27.7 27.9 26.5 27.5 28.2 28.6 29 28.8
14.6 12.7 10.7 11.7 12.1 14.3 14.9 14.3 10.5 12 12.4 7.9 7.9 7.9 13.5 13.2 13 16.8 16.9 17 16.2 15.9 16.5 17 17.7 18.4 19 19 19.2 19.5 19.5 19.4 19 19.1 18.5 18.2 18.7 18.3 17.5 17.4 17.5 17.7 18.1 18.4 18.4 18.5 19.1 19.3 18.6 18.5 18.6 18.7 18.4 17.8 17.7 18.1 19.3 19.1 21.4 22.6 20 18.6 18.6 19.6 19.4 19.3 19.3 19.3 19.6 19.8 19.7 19.5 19.6 19.8 20.1 20.8 20.4 20.7 20.9 21 21 21.4 21.3 21.2 21.3 21.3 22.1 21.4 21.7 21.7 21.7 21.7 21.8 21.7 21.3 21.4 21.6 22.7 22.4 22.1 21.8 21.8 21.9 22.1 22.2 22.3 22.6 23 26 22.8 22.4 22.5 22.6 22.9 23.3 23.5 23.2 23.3 22.5 22.5 22.8 23 22.1 22.3 22.2 22.3 22.7 22.4 23.1 22.7 22.9 23.1 23 23.3 22.5 23.2 23.5 23.4 23.5 23.5 23.5 24 23.5 23.9 23.7 23.5 23.8 24.1 24.4 24.3 24.5 24.6 24.5 25 24.9 24.8 25.1 25.5 24.6 25.1 25.6 25.4 25.3 25.2 25.8 26.3 26 25.9 25.8 25.8 26 26.7 26.3 26.4 26.3 27.1 27.1 27.1 27.1 27.9 26.9 27.4 27.3 27 27.2 27.2 27.5 27.7 27 27.7 26.5 27.7 27.4 27.7 27.8 28.8 28 28.5 28.9 28.9
13.4 14.2 7.9 11.3 12.9 13.3 12.5 12.8 11.6 8.5 7.9 7.9 7.9 11.1 11.5 11.8 16.5 16.8 16.5 16.5 16.3 16.4 16.9 17.5 17.9 18.2 18.4 18.7 18.7 19.5 19.6 19.5 19.6 19.6 19.3 19.2 18.8 18.8 18.2 17.6 17.5 17.6 19 19.1 18.9 18.4 18.5 19 18.6 18.4 18.4 17.4 18.2 17.6 14.4 18.7 19.2 17.1 19.1 19.8 20.1 22.7 19.7 17.6 18.1 19.2 19.4 19.8 19.8 19.6 19.5 19.5 19.5 19.5 19.9 20.7 20.4 20.8 21 21.1 21.1 21.2 21.4 21.1 21.1 21.2 22 21.4 21.4 21.4 21.5 21.6 21.7 21.6 21.4 21.4 21.8 22.4 21.4 21.2 21.3 21.5 21.8 22 22.1 22.2 22.3 22.3 26.6 22.4 22.4 22.5 22.7 22.7 22.9 23.5 23.5 22.7 22.2 22.2 22.6 22.4 22.1 22.2 22.2 22.2 22.4 22.4 22.3 22.8 22.9 23.1 23 22.9 23.4 23 23.3 22.9 23.4 23.4 23.3 23.8 23.1 23.7 23.9 24 23.9 24.1 24.2 24.3 24.5 24.7 24.9 25 25 25 25.1 25.2 24.7 25 25.3 25.3 25.3 25.4 25.4 26.2 25.9 25.8 25.7 25.2 26.2 26.2 26.2 26.8 26.5 26.6 27.2 27.4 26.7 27 27 27.8 27.6 27.4 27.3 26.7 27.3 27 27.6 27.6 27.6 27.3 27.6 26.7 26.8 27.3 27.7 28.4 28.8 28.8
16.9 15.6 10.9 10.7 10.7 10.4 10.4 12.3 7.9 7.9 7.9 10.4 11.4 10.7 16.3 17.1 16.8 16.4 16.4 16.6 17 16.7 17.3 18 18.3 18.7 19.1 19 19.6 19.7 19.6 19.7 19.6 19.7 19.9 19.7 19 19.3 19.1 18.2 18 18.3 18.2 19.6 19.1 18.9 18.8 18.7 19 19 19.4 18.5 18.6 18.6 15.9 18.8 19.1 19.2 19.3 19.9 20.8 20.7 23 19.5 18.5 17.5 18.2 19.6 19.2 19.1 19.2 19.5 19.4 19.4 19.7 20.1 20.3 20.6 20.5 20.6 20.8 21.3 21.3 21 21.1 21.1 21.5 21.3 21.3 21.4 21.4 21.6 21.7 21.6 21.5 21.5 21.5 22.5 21.2 20.3 20.5 21.5 21.8 21.9 22 22.2 22.3 22.5 28.4 22.8 22.7 22.6 22.7 22.8 22.7 22.8 23 22.4 22.3 22.2 22.7 22.3 22.3 22.1 22.2 22.3 22.4 22.5 22.4 22.9 22.7 22.9 22.9 23 23.2 23.3 23.5 23.4 23 23.3 23.5 23.6 22.7 23.2 23.4 23.8 23.3 24 24.1 24.2 24.3 24.5 24.7 24.8 24.8 24.8 24.9 25 25.2 24.9 25.3 25.3 25.1 25.3 25.3 25.9 27.9 26 26.4 26.1 26.8 27 26.5 26.7 26.3 26.7 27 27 26.6 27.4 27.1 27.4 27.5 27.3 27.2 26.9 27.3 27.2 27.4 27.9 27.6 27.7 27.5 27.4 27.6 27.7 27.2 28.1 28.4 28.6
17 13.6 12.9 7.9 11.3 11.3 13.3 7.9 7.9 9.7 10.5 13 16.6 17 16.7 16.7 16.7 16.7 16.6 17 17.6 17.6 17.9 18.6 19.3 19.7 19.8 19.8 19.9 20.1 20.1 20.1 19.7 19.8 20.1 19.8 19.3 19.2 19.4 18.4 18.3 18.6 19.2 19 18.9 19 19.1 19 18.9 19 19.3 19 19.1 19 18.9 19 19.2 19.4 19.6 20.1 21.3 20.7 22.9 19.4 18.7 18.6 18.5 17 18.7 19.1 19.2 19.3 19.4 19.4 19.7 20.5 20.1 20.2 20.5 20.4 20.5 20.7 20.9 21 21 20.9 21.2 21.1 21.3 21.3 21.4 21.5 21.6 21.6 21.6 21.6 21.6 22.3 21.6 20.6 21.1 21.1 21.7 21.9 22 22.2 22.3 22.4 28.2 23.2 22.7 22.5 22.7 22.9 22.7 22.5 22.6 22.3 22.2 22.1 22 22.2 22.4 22.2 22.2 22.4 22.7 22.6 22.4 22.6 22.7 22.9 23.4 22.6 23.4 23.3 22.9 22.9 23.3 22.7 23.4 23.6 23.5 23.6 23.7 23.4 23.7 23.7 24 24.1 24.1 24.5 24.8 24.7 24.9 24.7 24.8 25 25.2 25.3 25.3 25.3 25.6 24.9 25.4 26 25.6 26 25.7 30.3 28.9 26.6 26.8 26.7 26.6 26.5 27 26.9 26.5 26.4 27 26.9 27.2 27.4 27.1 27.3 27.2 27.4 27.4 27.7 27.7 27.4 27.4 27.8 27.7 27.8 27.9 27.7 28.2 28.7
17.5 16.8 16.6 15.1 11.8 7.9 7.9 7.9 7.9 11 17 16.7 16.6 16.8 16.5 16.3 16.3 16.6 16.9 17.3 18.1 18.3 18.6 18.7 19 19.9 19.8 19.8 19.9 20.1 20.3 20.5 19.8 20 20.2 19.9 19.8 19.5 19.4 19.1 19 18.8 19 19.1 18.8 18.9 19 18.6 18.4 18.1 18.4 19.3 19.5 19.3 19.3 19.2 19.4 19.6 19.7 20.6 21.2 22.1 22.8 19.2 18.4 18.4 18.4 18.5 18.5 16.5 18.8 19.4 19.6 19.5 19.5 20.7 19.9 20.2 20.3 20.2 20.4 20.6 20.7 20.8 20.9 20.8 20.9 21 21.3 21.3 21.3 21.5 21.6 21.3 21.3 21.3 21.2 22.1 21.2 21.2 21.8 21.6 21.8 21.9 22 22.2 22.3 22.4 28.4 22.5 22.3 22.3 22.6 22.8 22.8 22.4 22.2 22.2 22.1 22 22 22.2 22.5 22.3 22.2 22.4 22.7 22.6 22.4 22.7 22.9 22.8 22.6 23.3 23.2 23 23 23.1 23.2 23.5 23.6 23.3 23 23.9 23.6 23.4 24.5 24.9 24.3 24.1 24.5 24.6 24.8 24.9 24.9 24.5 24.8 24.6 24.5 25 25.7 25.5 25 25.5 25.9 25.9 25.9 25.8 26.3 26.5 27.4 26.1 27.1 26.4 26.9 26.5 26.9 26.7 26.6 27 27 26.9 27.2 26.4 27.5 27.4 27.8 27.9 27.8 27.6 27.3 27.4 26.2 26.9 27.9 27.3 28.4 28.2 28.1 28.6
17.8 16.7 14.5 12 7.9 7.9 7.9 17.3 16.7 17.7 16.7 16.2 16.7 17 16.4 16.3 16.5 16.9 17.7 18.3 18.4 18.5 19 19.4 19.7 19.9 19.9 19.8 19.5 19.8 20.1 19.9 19.4 20.1 20.4 20.1 19.7 19.3 19.3 19.7 19.6 19.3 19.2 19.2 19.1 19.5 19 18.5 18.2 18 18.1 18.6 19.3 19.6 19.6 19.6 19.6 19.7 20.2 21.5 21 21 23.6 19.4 18.6 18.3 18.2 18.8 18.8 18.3 18.6 16.4 19.1 19.5 19.4 20.3 19.7 19.9 19.9 19.9 20 20.1 20.3 20.5 20.7 20.6 19.8 20.6 20.9 21 21.1 21.1 21.2 21 21 21 21.1 21.3 21.6 21.6 20 21.6 21.6 21.9 22.1 22.2 22.3 22.4 28.6 22.2 22.4 21.5 20.7 21.4 21.6 21.6 24.3 22.6 22.1 22.4 22.1 22.2 22.4 22.2 22.1 22.1 22.3 22.4 22.4 22.7 23 23 22.8 23.1 23.1 23.2 23.3 23.1 22.7 23.2 23.2 23.8 23.2 23 23.6 24.3 24 24.4 24.9 23.9 24.3 24.6 24.5 24.6 25 24.6 25 24.8 25.3 25.3 25.7 25.6 25.5 25.6 25.6 25.7 25.7 26.2 26.4 26.1 26.2 26 26.7 26.2 26.4 26.4 26.6 26.6 26.7 27.2 27.1 26.9 27.2 26.9 27.2 27.4 27.5 27.6 27.5 27.7 27.4 27.9 27.7 27.7 26.9 27.5 27.9 27.6 28 28.5
17.1 13.5 9.8 7.9 7.9 17.5 17.8 17.1 17.6 17 16.2 16.7 17.4 17.5 16.7 16.5 16.7 17.6 18.6 18.8 18.9 18.7 18.9 18.8 18.8 19.3 19.7 18.9 19.2 19.1 19.3 19.2 19.3 19.7 19.6 19.8 19.6 19.2 19.4 19.7 19.9 19.5 19.1 19.3 19.4 19.6 18.8 18.2 18 18 18.5 18.8 18.4 20.1 20.8 21.5 20.5 20.5 20.3 20.5 20.4 20.1 19.2 19.3 19 18.8 18.6 19.1 18.5 18.6 18.4 18.4 18.4 16.4 18.7 19.5 19.3 19.4 19.5 19.5 19.6 19.7 19.9 20.2 20.5 20 19.2 19.7 20 20.7 20.7 20.7 20.7 20.5 20.7 20.7 20.7 20.9 21.4 21.5 21.5 21.4 21.3 21 21.8 21.4 22.9 24 28.4 21.7 21.6 21.5 21.1 20.7 21.2 24.7 25.6 23.2 22 22.4 22.3 22.3 22.6 22.5 22.5 22.5 22.4 22.5 22.6 22.8 22.9 23 23 23.1 23.1 23.2 23.5 23 22.9 23.2 23 23.6 23.6 23.6 23.7 23.3 23.3 23.6 24.8 24.2 24.3 24.5 24.5 24.7 24.7 24.3 25.5 25.5 25 25.3 24.7 24.9 25.1 25.4 25.5 25.6 25.2 26.1 26.2 26.5 26.4 25.8 26.2 26.3 26.3 26.3 26.5 26.6 26.5 26.9 27 27 27 27.4 27.5 27.7 27.6 27.3 27.5 27.1 27.4 27.5 28 27.3 27.4 27.5 27.6 27.6 27.8 28.4
12.5 7.9 7.9 7.9 15.1 16.8 17.3 17.5 17.9 16.4 16.6 16.4 17 16.9 17 17 18 19 19 19.1 19.2 18.7 18.7 18.6 18.5 18.9 18.7 18.8 19.3 19 18.9 18.7 18.9 19.1 19.2 19.6 19.3 19 18.8 18.7 18.8 19.5 19.1 19.3 19.2 19.5 18.9 17.7 17.7 17.8 18.3 18.5 18.4 17.6 18.3 18.8 19.2 19 18.8 19.5 18.4 17.8 18 19.5 18.7 18.6 18.6 18.8 18.8 18.5 18.7 18.8 19 18.7 18.5 16.4 18.8 18.9 19.1 19.3 19.6 19.5 19.7 20 19.9 19.8 19.4 19.9 19.8 20.1 20.1 20.3 20.4 20.1 20.5 20.4 20.3 21.2 22.3 20.8 22.3 21.8 20.4 20.8 22.3 20.4 20.4 20.5 22 21.7 21.5 21.3 21.3 21.1 24.8 25.7 25.3 25 22.6 22.3 22.4 22.3 22.6 22.7 22.6 22.6 22.6 22.5 22.7 22.7 22.9 23 23 23 22.9 22.9 23.4 23.3 23.4 23.3 23.2 23 23.3 23.4 23.4 23.2 23.3 23.5 24.2 23.7 23.8 24.1 24.5 24.2 23.9 24.4 25.1 25 24.9 24.9 25 24.6 24.7 25.3 25.7 25.7 26.2 26 25.7 26 26.2 26.1 25.6 26.5 26.2 26.1 26.3 26.3 26.6 26.6 26.9 27.3 27.6 26.7 27.2 27.4 27.9 27.7 27.4 27.2 27.3 27.4 27.3 26.8 27.3 27.7 26.6 27.5 27.6 28.2
10 7.9 7.9 15.6 16.6 16.8 16.6 16.7 16.5 16.6 17.2 16.8 16.3 16.3 17.6 18 19.1 19 19 19.1 19 18.7 18.9 18.9 18.8 19 18.9 18.9 19.5 19.1 18.8 18.4 18.3 18.6 18.7 18.3 17.8 17.6 17.9 18.2 18.8 18.9 18.9 18.5 18.6 18.9 18.6 18.2 18.1 18.5 18.1 17.7 17 17.2 17.9 17.9 17.8 17.9 18.4 18.3 17.7 16.9 17.6 18.9 18.7 18.6 18.6 18.7 18.7 18.5 18.8 19 19.1 18.8 19 20.6 20 16.4 18.8 19.4 19.5 19.6 19.6 19.6 19.5 19.7 19.6 19.7 19.8 19.8 19.8 20 20.1 20.5 20.2 20.7 20.6 20.5 20.2 21.3 21 20.4 20.5 20.6 20.6 21.2 21.1 21 21.6 24.6 24.1 21.1 21.1 24.7 25.2 25.8 25.6 25.5 23 22.5 22.4 22.2 22.3 22.4 22.5 22.6 22.6 22.6 22.5 22.5 22.9 23 23 23 22.8 22.8 23.3 23.3 23.2 23.5 23.8 23.6 23.5 23.4 23.4 23.5 23.3 23.8 23.9 23.8 23.5 23.9 24.4 23.8 23.9 24.4 24.3 24.5 24.7 24.8 24.8 24.9 24.8 24.4 25.4 25.2 25.8 25.4 25.4 25.6 25.7 25.4 24.9 25.7 25.7 25.5 25.5 26.5 26.5 26.5 26.8 27.1 27.3 27.9 27.2 27.3 27.8 27.3 27.2 27 27.2 27.4 27.2 27.2 27.2 27.9 28.2 28.3 28.1 28.2
7.9 7.9 14.6 16 16.4 16.2 16.6 14.4 13.5 15.5 16.3 16.1 16.8 16.6 16.9 17.7 18.9 19 18.7 18.7 18.7 18.7 19.1 19.4 19.3 19.4 19.4 19.5 19.7 19.4 19.1 18.9 18.8 18.6 18.2 17.8 17.4 17.3 17.7 17.9 17.6 17.5 17.9 17.8 17.7 17.7 17.5 17.5 17.9 18.1 18 17.5 17.6 17.9 18.1 17.6 17.6 17.7 18 17.9 17.2 17.4 17.6 19 18.3 18.3 18.3 18.5 18.5 18.5 18.7 18.8 18.9 18.7 18.5 20.2 19.2 19.1 18.7 16.4 19 19.4 19.5 19.2 19.5 19.6 18.3 19.5 19.7 19.5 19.6 19.7 19.8 19.6 19.9 20 20.9 21.3 20.1 21.1 20.5 20.5 20.6 20.5 20.8 20.7 20.8 20.9 24.1 25.3 24.5 24.4 24.5 25.7 25.4 25.7 25.3 25.4 25.3 22.3 22.6 21.8 21.9 22.3 22.4 22.3 22.4 22.5 22.5 22.4 22.9 23 23 23 22.9 22.8 23 23.1 23 23.5 23.7 23.8 23.6 23.6 23.7 23.9 23.9 23.9 23.7 23.5 23.6 23.8 24.3 23.7 23.2 24.1 24.1 24.3 24.6 25 24.7 24.6 25.1 24.4 25.5 26.1 24.9 25.1 25.3 25.4 25.6 25.9 25.6 24.5 24.9 25.2 25.8 26.3 26.3 26.5 26.7 26.9 27 26.8 26.9 27.1 27.1 27 27 27 27.1 27.4 27.5 27.1 27.1 28.3 28.7 28.6 28.7 28.8
8.1 13.3 14.3 9.7 10.2 9.3 8.7 11.5 11.4 8.7 14.6 15.6 16.5 16.8 17.1 17.4 17.9 18.8 18.5 18.5 18.5 18.7 19.1 19.5 19.8 19.6 19.6 19.7 19.6 19.7 19.5 19.4 19.4 18.9 18.2 17.6 17 17.2 17.1 17.3 17.4 17.3 17.3 17.5 17.8 17.9 18.1 17.8 17.5 17.6 16.8 18.4 18.9 18.1 18.1 17.5 17.2 17.6 16.6 17.1 16.8 17.2 18.5 18.4 18.2 18.1 18.3 18.4 18.4 18.4 18.6 18.6 18.6 18.5 18.4 18.6 19.4 18.9 18.8 18.7 19.4 19.3 19.1 19.2 19.4 19.5 19.4 19.3 19.4 19.3 19.4 19.5 19.7 19.5 19.7 19.8 20.8 20.1 20.3 20.3 20.5 20.1 20.5 21.9 20.5 20.5 20.7 22.1 24.7 24.2 24.9 24.8 25 25.4 25.8 25.6 25.6 25 23.5 21.8 21.9 21.6 21.9 22.2 22.2 22.2 22.2 22.4 22.4 22.2 22.9 23.1 23 22.9 22.6 22.7 22.9 22.8 22.9 22.8 23.1 23.5 23.6 23.5 23.7 23.6 23.5 23.5 23.6 24 24.7 23.7 23.8 25.4 24.6 24.9 24.8 24.9 24.9 24.7 24.5 24.5 24.7 25.6 25.7 25.6 25.4 25.2 25.2 25.3 25.6 25.2 24.7 24.5 25.6 25.8 25.7 26 26.2 26.3 26.4 26.3 26.6 26.9 26.5 26.7 26.9 27 27 27 27.2 27.8 27.7 27.7 27.9 28.2 28.3 28.4 28.6 28.6
11.4 10.5 10 11.9 14.3 14.8 14.7 14.7 14.2 14.1 11 9.3 13.8 15.4 17.5 16.6 16.9 17.4 17.6 17.8 17.7 17.8 18.2 18.5 18.8 18.7 18.5 19.1 18.3 19.1 19.4 19.6 19.3 18.8 18.3 17.9 17.9 17.7 17.1 17.2 17.3 17.4 17.6 17.8 17.9 18.4 18 17.6 17.4 17.3 17.3 19.6 18 18.2 18.2 18.3 18 17.4 16.5 17.4 17.6 17.5 17 17 18 18.2 18.2 18.2 18.2 18.2 18.2 18.3 18.3 18.2 18.3 18.5 18.7 18.7 18.7 18.6 18.7 18.9 19.1 19.3 19.4 19.4 19.3 19.2 19.3 19.3 19.4 19.5 19.6 19.2 19.3 19.6 20.1 20.2 20.6 20.8 20.1 20.5 20.3 20.4 20.2 20.4 20.3 23 23.8 24.2 25.6 25.2 25.4 25.3 25.5 26 25.5 23.4 21.8 21.7 21.7 21.8 22 22.1 22.2 22.1 22.1 22.3 22.2 22.2 22.4 22.9 22.5 22.4 22.4 22.6 22.9 23.5 23 23 23.1 23.3 23.4 23.5 23.4 23.4 23.8 23.2 23.3 23.4 23.5 24.3 24.3 24.6 24.8 24.4 24.8 25 25 24.7 24.4 25.1 25.2 25.7 26.3 25.4 25.3 25.3 25.3 24.9 25.4 25.8 25.7 25.3 25.2 25.6 25.8 25.8 25.9 26 26.2 26.3 26.1 26.2 26.4 26.8 26.9 27 27.1 27.1 27.4 27.6 27.5 27.5 28.1 29 28.8 28.6 28.5 28.6
10.3 11 12.6 14.7 15.4 15.6 16.3 16.7 16 15.7 15.5 11.6 10.4 14.1 15.3 17.2 16.8 16.3 17.3 16.9 16.7 16.5 16.6 17.5 16.6 17.2 16.8 17.6 17.1 18.2 18.5 18.7 18.2 17.6 17.5 17.5 17.8 17.5 17.2 17.3 17.4 17.6 17.9 18 17.9 18 17.5 17.5 17.4 17.5 17.7 18.8 17.9 18.1 18.1 18 17.7 17.6 17.5 17.6 17.6 17.4 17.5 17.3 16.9 18.2 18.3 18.3 18.2 18.3 18.5 18.2 18.2 18.2 18.3 18.5 18.7 18.7 18.7 18.6 18.5 18.8 19.1 19.3 18.7 18.9 19.2 19.4 19.6 19.4 19.5 19.6 19.5 19 19.5 20 20.1 20.1 20.3 20.4 20.1 20.4 20.9 20.2 20.3 20.5 20.7 20.1 20 21.7 22.3 22.8 23.6 25.5 25.8 24.6 24.2 23.2 21.8 21.8 21.9 22.1 22.2 22.2 22.3 22.3 22.2 22.4 22.3 22.2 22.4 23 23 23.1 23.2 23.2 23.3 23.3 23.3 23.3 23.2 23.4 23.5 23.5 23.3 23.5 23.7 23.6 23.9 23.3 24.5 24.3 24.8 24.8 24.7 24.6 24.7 24.8 25 25 25 25.1 25.6 26.8 25.4 25.4 25.4 25.4 25.4 25.2 25.5 25.8 26.4 26.3 24.5 25.8 26 25.6 25.7 25.7 26.3 26.3 26.1 26.3 26.6 26.7 26.9 27.1 27.2 27.2 27.3 27.7 27.7 27.7 27.6 28.8 28.6 28.5 28.5 28.5
12.4 13.5 14.5 15.3 16.1 17.2 18.2 18.9 18.9 18 17.3 15.6 15 11.7 13.3 16.8 16.7 16.5 17.3 16.9 16.2 15.9 16.4 17.2 16.8 16.7 16.8 16.9 17.2 16.9 17.1 17.1 17.1 17 17.2 17.5 17.7 17.9 17.7 17.4 17.6 17.9 18.1 18.1 18.2 18 17.5 17.5 17.5 17.7 18 18.1 17.9 18 17.7 17.3 17.2 17.5 17.8 17.8 17.6 17.6 17.5 17 17.5 17.9 17.9 18 18 18.6 18.9 18.5 18.4 18.7 18.4 18.7 19 18.8 18.7 18.7 18.4 18.7 19.1 18.8 18.9 19.1 19.2 19.6 19.6 19.4 19.5 19.5 18.9 19.1 19.6 19.9 20.3 21 20.3 20.4 19.8 20.1 20.6 21 21 21.3 20.8 20.1 19.9 21.3 19.9 20.2 21.2 22 24.4 24.5 24 23.4 21.7 21.9 22.1 22.3 22.3 22.3 22.5 22.5 22.5 22.5 22.5 22.9 23.2 23 23 22.9 22.9 23.1 23.3 23.4 23.4 23.4 23.4 23.5 23.6 23.5 23.6 23.7 23.4 23.9 24 23.9 24.3 24.3 24.3 25.1 25 25 25.1 24.7 25.1 25.2 25.2 25.4 25.2 25.7 25.4 25.5 25.5 25.6 25.8 25.8 25.6 25.6 26 26.3 25.7 25.8 26 25.5 25.5 25.9 26.5 26.2 26.3 26.8 26.9 26.9 26.9 27.1 27.5 27.5 27.5 27.9 27.9 27.7 27.5 27.1 28.4 28.3 28.3 28.3
13.5 14.6 15.4 16.2 16.9 17.5 18 18.9 19.2 19.1 18.7 17.6 16.7 15.2 11.4 14.5 16.5 16.7 16.7 16.5 16.6 16.6 16.9 16.8 16.9 16.9 17 17.8 17 16.9 17.3 17 16.8 16.9 16.7 16.9 17.2 17.9 18.2 17.7 17.5 17.7 17.6 17.3 17.2 17.9 17.4 17.6 17.6 17.5 17.7 17.7 17.9 17.4 16.9 16.7 17.1 17.5 17.5 17.5 17.5 17.4 17.4 17.5 17.1 16.5 18.7 18.9 19 19 19.3 19.3 19.3 19.1 18.5 19 19.5 22.4 22.1 19.1 17.7 18.5 18.8 18.8 19 19.1 19.2 19.4 19.1 19.4 19.4 18.8 18.8 19.1 19.2 19.5 20 20.4 20.2 20.1 20.6 20.7 21.9 22.9 21.5 20.7 20.8 20.1 19.9 20.9 21.7 21.2 21.4 21.2 22.4 22.9 23.3 23.1 21.8 21.6 22.2 22.2 22.1 22 21.7 22.2 22.5 22.7 22.8 22.8 22.8 23.1 23 22.9 23 23 23.2 23.4 23.5 23.5 23.5 23.6 23.7 23.5 23.5 23.8 24 23.8 24.1 24.3 24.4 24.6 24.7 24.7 24.8 24.8 25.3 24.5 25.2 25.3 25.4 25.7 26.3 25.3 25.4 25.5 25.8 26 26.1 26 25.7 25.7 26 26.2 26.3 25.5 26.1 25.7 25.6 26 26.5 26.7 26.4 26.4 26.6 26.7 27.1 27.1 27.6 27.8 27.7 27.8 27.8 27.8 27.6 27 27.9 28.2 28.2 28.2
13.8 15.2 16.3 16.8 17.2 17.6 17.6 17.9 18.5 18.9 19 18.6 17.9 16.4 14.4 11.1 11.2 16.6 15.3 16.1 16.6 16.9 17.3 16.3 17 17 17.4 17.7 17.4 17.5 17.3 17 16.5 16.7 16.6 16.4 17.5 18 18 17.8 17.7 17.5 17.4 17.2 17.3 17.4 16.6 17.5 17.7 17.6 17.6 17.8 17.7 17.1 17.1 15.9 16.9 17 17 17 17.2 17.2 17.2 17.3 16.7 17 18.6 18.7 18.8 18.7 18.8 18.8 18.9 18.8 18.6 18.7 18.7 20 22.5 22.5 17.1 18 16.9 18.5 19.1 19.2 19.2 19.2 19 19 18.9 18.8 19.1 19.4 19.3 19.3 19.8 20.1 20.1 20.3 20.6 20.9 21 21.1 21.1 20.7 20.3 19.3 21.1 21.3 21.2 21 20.9 20.9 23 23.5 23.5 22.6 21.8 21.3 21.6 21.8 21.7 21.7 22.3 22.7 22.5 22.6 22.7 22.6 23 23.3 23.2 23.2 23.3 23.3 23.2 23.3 23.1 23.1 23.5 23.6 23.7 23.3 23.2 23.5 24.1 24.2 24.3 24.6 25 24.3 24.4 24.6 24.6 24.6 24.7 24.9 25.1 25.4 24.9 25.2 26 25.5 25.5 25.7 25.9 26 26.1 26 25.7 25.8 26 26 26 25.5 26.1 26.5 26.3 26.3 26.7 26.4 27.8 27.5 26.9 27.3 27.7 27.4 27.8 26.8 27 27.9 27.5 26.4 27.2 28 26.8 28.1 28.1 28
14.8 15.6 16.3 16.8 17.2 17.6 17.7 17.5 17.7 18.3 18.7 18.7 18.8 17.8 16.8 16 12.9 12.3 11.7 15.5 16.4 15.9 16.6 16.1 16.8 16.9 17.1 17.5 16.9 17.2 16.5 16.2 10.3 12.3 13.8 15.4 16.1 17.6 17.6 17.4 17.6 17.6 17.6 17 18 17.9 17.6 17.5 17.4 17.7 17.7 17.4 17.1 17.1 16.4 14.7 15 16.1 16.8 16.8 17 16.8 16.6 16.5 16.5 15.4 16 16 17.2 16.2 16.7 16.6 17.3 17.1 17.5 17.6 16.2 18.2 20.2 21.7 16.4 16.9 16.2 18.4 19.1 19.2 19 18.3 17.6 18.2 19.5 19.5 19.3 19.4 19.4 19.3 19.7 20 19.8 20 20.4 21.6 20.9 20.9 20.6 20.6 20.5 21.3 21.8 22.2 20.7 21.1 20.5 20.7 23.2 23.2 23.2 22 21.6 21.6 21.8 21.7 21.5 21.4 22.3 23 22.8 22.8 22.8 22.8 23 23.2 23.4 23.4 23.6 23.1 23.4 23.6 23.6 23.5 23.7 23.8 23.6 23 23.4 23.9 24.6 23.3 23.5 24.3 24.8 24.6 24.4 24.4 24.8 24.8 24.8 25 25.2 25.3 25.8 25.8 25.8 25.5 25.4 25.6 25.7 25.8 25.9 25.8 25.6 25.8 25.8 25.8 25.4 25.4 26.5 25.6 26.7 26.2 26.8 26.6 27 26.9 26.8 27 27.4 27.3 27.7 27.9 27.5 27.3 27.5 26.8 27 27.1 27.5 27.9 28.1 28.2
15.3 16.2 17 17.6 17.8 18 17.8 17 17.1 17.6 17.9 18.4 18.7 18.6 18.3 17.7 16.7 15.5 12.2 11.7 10.1 10.2 10.1 15.7 16.6 16.6 16.7 16.3 15.4 14.1 12.8 12.9 14.3 11.5 12.5 13.2 14 15.3 17.6 16.6 17 17.1 17.4 17.2 17.5 17.4 16.3 16.6 17 17 17.2 16.5 16 15.7 12.7 15.6 15.3 14.9 12.8 15.6 15.2 15 14.9 14.5 12.2 14.9 14.8 15.7 14.8 15.1 15.4 12.9 14.5 15.9 16 15.8 17.2 18.4 19 17.2 17.4 17.4 15.2 16.6 18 17.8 18.8 18.3 19 19.3 19.4 19.5 19.3 19 19.5 18.8 19.5 19.8 19.8 19 20.4 20.3 20.6 20.8 20.8 21.6 21.6 21.8 23.1 23.8 23.4 22.8 22.4 20.2 20.6 23.5 23.3 23 22.3 21.7 21.5 21.4 21.4 21.6 22.1 22.8 22.4 22.7 22.7 22.5 22.4 22.9 22.8 23 23.4 23.1 23.4 23.6 23.7 23.8 23.8 23.8 23.7 22.6 23.5 24.3 24.8 23.4 23.9 24.2 24.3 24.5 25 24.7 24.9 24.8 24.7 24.9 25.1 25.2 25.4 25.8 25.8 25.5 25.3 25.4 25.5 25.7 25.7 25.7 25.6 25.7 25.9 26.1 25.8 25.6 26.4 26.1 27 26.7 26.5 27.3 26.8 26.8 26.7 26.7 27 27.5 27.6 27.7 26.7 27.7 26.3 27.8 27.9 27.7 27.2 27.3 27.9 28.2
15 16.8 17.4 17.6 17.8 18.1 18.2 17.1 17.1 17.2 17 17.3 17.8 18.1 18.4 18.8 18.5 18 16.8 16.3 15.4 15.5 15.4 13.9 14.7 14.6 15.3 13.5 12.3 13.2 14.2 15.3 16.4 16 15.5 14.9 14.6 13.8 12.5 13.6 13.9 11.2 13.5 11.2 14.6 11.7 14.6 14.5 14.2 15.3 14.5 14.8 14.7 14.9 14.7 16.6 17.1 16.4 15.9 15.4 16.8 16.7 16.7 17.1 17.2 17.3 16 16.5 17.3 17.1 16.8 17.3 18.5 18.8 18.7 18 19 19.9 19.9 19.5 18.9 18.9 18.7 17.3 15.1 16.9 17.4 16.4 17.7 18.1 18.9 18.8 19.1 19.4 19 18.5 19.4 18.7 19.3 19.1 20.4 20.7 20 20.4 21 21.5 21.6 21.3 23.3 23.9 22.9 23.1 20 20.3 20.4 23 22.4 20.6 21.1 21.7 21.6 21.8 21.7 21.7 22.1 22.5 22.9 22.8 22.7 22.7 22.2 22.5 22.4 23.1 23.2 23.2 23.4 23.6 23.7 23.9 23.8 23.7 23.6 23.8 23.8 23.4 23.5 23.9 24.6 24.5 24.6 24.7 24.8 24.8 24.7 24.7 24.7 24.9 25 25 25.6 25.4 25.8 25.6 25.2 25.2 25.3 25.5 25.5 25.5 25.5 25.7 26.1 26.2 26.4 26.3 26.6 25.7 26.2 26.4 25.7 26.2 26.7 27 26.9 26.9 26.9 27.2 27.1 27.2 27.6 27.5 27.7 27.7 27.7 27.8 27.1 27.7 27.5 28.1
15.1 16.4 17.3 17.8 17.7 18.1 18.3 17.1 16.8 16.9 16.9 16.7 17 17.4 17.8 18.5 18.7 18.4 18.4 17.6 17.5 17.5 17.1 16.6 13.8 12.5 10.5 12.7 14.1 15.3 16.3 17 17.4 17.9 17.8 17 16.9 16.2 15.8 14.4 15.9 16 16.4 15.8 13 15.1 16.3 16.5 15.7 13.1 16.4 14.7 15.8 16.4 16.4 13.8 17.1 17.2 17.3 16.6 17.5 17.6 17.6 17.5 17.7 17.9 17.7 16.1 17.6 17.7 17.2 18.8 19.2 19.4 19.5 19.1 18.9 19.9 19.9 19.6 18.8 18.8 19.2 19.4 18.7 18.7 17.9 17.5 17.4 17.7 17.7 17.4 17.9 18 17.8 17.8 16.4 19 16.1 18.2 18.4 19.7 19.8 20 20.4 21.1 21.7 21.7 22.4 23.6 23.1 21.2 20.5 22.5 22.9 23.6 22.3 21 21.4 21.8 21.8 21.7 21.8 21.7 22.1 22.5 23 23 22.9 22.7 22.2 23 23.1 23.3 23.2 23.3 23.4 23.6 23.7 23.9 23.8 23.6 23.7 23.8 23.2 23.8 24.1 24.5 24.5 24.4 24.6 24.6 24.7 24.8 24.7 24.6 25 24.9 24.8 25.4 25.1 25.6 25.9 25.6 25.1 24.8 25.3 25.4 25.5 25.8 25.8 25.6 26 26.3 25.8 25.8 26.5 26.2 25 25.8 26.6 26.7 26.7 26.5 26.7 27.3 26.9 27 27.4 27.6 27.4 27.7 27.6 27.7 27.7 27.8 27.6 27.9 27.5 28.1
14.1 15.9 16.9 17.8 17.8 17.9 18.1 16.9 16.8 16.6 16.7 16.9 16.7 16.7 17.1 18 18.5 18.7 18.6 18.7 18.6 18.4 18.3 17.3 16 15.8 15.2 15.8 15.7 16.8 17.2 17.9 17.8 18.8 18.9 19 18.7 18.3 17.8 16.9 16.8 16.8 16.6 16.7 16.2 16.5 17.4 17.4 17.6 17.6 16.7 14.3 17.2 17.4 17.5 16 15.4 17 17.5 17.1 17.4 17.4 17.6 17.9 17.8 17.7 17.2 16.5 17.2 17.7 17.7 18 18.4 18.8 18.9 18.8 19.5 19.4 19.5 19.3 18.8 18.5 18.9 18.9 18.6 18.7 19.1 18.3 18.6 18.2 17.3 17.5 18.9 19.1 18.9 19.9 19.5 19.2 19 18.3 18.8 21 19.2 19.8 20.6 22.5 22.2 20.9 21 20.9 21.6 23.1 23.6 20.2 18.1 23 20.9 21 21.6 21.6 21.7 21.5 21.6 21.8 22.1 22.5 23 23 22.8 22.5 22.7 22.9 23.1 23.3 23.3 23.3 23.5 23.7 23.7 23.9 23.8 23.7 23.9 23.9 23.9 23.7 24 24.6 24.6 24.6 24.6 24.6 24.7 24.9 25 24.7 24.8 24.8 25 25 24.8 24.9 25.8 25.3 25 25.5 25.6 25.7 25.9 26.2 25.8 25.6 25.9 26.1 26.2 26 26.4 26.4 25.2 26.5 26.5 26.8 26.9 27 26.7 27.1 26.6 27 26 27.7 27.2 27.5 27.8 27.7 27.8 27.7 28 27.8 28.2 28.5
13.3 15.3 16.7 17.7 17.7 17.6 17.5 16.8 17 16.7 16.4 16.9 16.8 16.8 16.7 17.5 17.4 18.3 18.9 19.1 18.9 18.8 18.5 18.2 18 18 18.2 17.7 16.8 17 17 17.2 19 19.1 19.1 19.3 19.6 19.7 19.1 18.8 18.8 18.7 18 18 18.4 18.1 17.8 17.7 17.8 17.2 16.5 16.8 17.1 17.4 17.7 17.5 17 16.9 16.2 17.4 17.8 17.5 17.7 17.7 17.4 17.9 17.7 17.7 16.7 17.4 17.8 18 18.1 18.2 18.2 18.3 18.3 18.4 18.5 18.4 18.4 18.5 18.4 18.2 18.6 18.8 18.8 19.1 19.1 19.3 19.4 19 19.4 19.2 19.2 19.9 19.8 19.5 19.4 19.6 19.4 17 20.3 17.2 21.4 20.3 21.8 21.3 18.1 17.7 18.6 18.8 19.6 19.3 20.6 17.4 19.5 20.2 20.8 20.7 20.7 21 21.4 21.8 22 23 21.8 22.4 22.5 22.5 22.7 22.9 23.2 23.4 23.4 23.3 23.6 23.8 23.8 23.8 23.8 23.6 23.5 23.6 23.7 24 24.4 24.5 24.5 24.5 24.6 24.6 24.8 24.7 24.9 25.1 25.1 24.5 24.9 24.9 24.6 24.8 25.2 24.9 25.1 25.1 25.4 25.7 25.6 26 25.8 25.5 25.5 26 26.3 26.2 26.2 26.4 26.9 25.6 26.1 26.4 26.8 27.2 27 27.1 27.1 27.2 27.4 27.3 27.5 27.5 27.8 27.8 27.8 27.8 27.5 27.8 28.1 28.4
