ncols 200
nrows 82
xllcorner 390000
yllcorner 400150
cellsize 50
112.6 113.7 114.3 114.2 114.1 114.9 115.4 116.6 119.4 119.3 122.5 124.9 126.9 126.8 137.9 135.6 136.2 137.5 141.4 144.5 147.2 150.2 153.4 155.9 159 161.2 163.4 166.1 169.5 171.8 175.6 181.7 185.8 189.7 192.5 195.2 198.9 202.7 207 206.7 204 202.3 197.3 193.7 193.3 191.9 191.6 190 188.6 185.6 184 184.4 182.6 175.7 173.3 172.2 171.6 169.4 171.4 173 174.6 177.5 181.4 183.6 187.3 190.8 192.2 193.4 195.7 198.2 200 201.9 204.8 205.5 207.3 210.1 211.9 213.8 212.4 212.6 210.5 207.1 204.1 203.1 191.7 183.6 178.6 177.2 180.2 179.4 178.5 176.7 176.5 176.5 175.7 171.6 161.9 165.3 173 174 174.4 175.6 177.2 180.3 182.9 183.1 170.8 168.7 161.8 164.3 170.8 181.4 181.8 182.3 186.8 189.5 188.9 189.9 191 192.3 191.5 186.8 193.1 194.5 194 188 199.9 202.5 205.1 205.7 203.5 200.1 209 213.8 216.8 218.8 220 220.4 220.2 235.5 241 243.7 244.7 247.7 253.7 257.8 259.8 262.8 263.1 258.5 254.9 250 242.3 235.3 228.4 222.6 217 212.3 208.6 205.2 200.7 193.8 183.2 177.2 167.3 165.5 159.9 161.6 160.6 159.1 153.6 155.2 151.1 151.2 150.7 151.3 153.1 153.6 153.6 150.4 150.5 150.8 150.9 150.8 152.2 149.6 154.3 158.2 154.1 155.3 155.4 153.1 154.9 158.6 159.3 160.7 162.6 164.3 166.6 171.6
112.3 112.9 113.5 113.3 112.8 113.7 113.5 118 119 120.3 122.8 125 125.9 125.5 131.1 135.6 134.4 136.8 139.7 143.9 146.6 149.3 152.2 154.3 157.2 159.2 161.4 163.1 167.7 170.9 174.1 177.1 183.7 187.3 191.4 194.1 196.8 201.4 203.9 205.8 204.7 202.1 198.5 195.2 192.7 191.9 191.9 190.9 188.7 186 183.4 179.9 177.2 173 173 172.5 170.7 169.4 170.8 170.7 172.3 175.4 177.9 180.8 183.3 185.2 189.5 190.4 192.4 195.3 197.1 200.3 202.2 205 206.2 208.6 211.8 214.4 216.6 219.4 221.8 217.1 201.3 196.9 194.5 183.6 178.3 177.4 176.7 176.4 175.4 175.6 176.3 176.8 174.4 166.8 161.8 165.7 172.3 174.1 175 176.3 177.7 180.2 180.4 176.7 163.8 159.4 172.2 181.6 183.4 182.2 183.8 184.9 187.2 189.3 189.1 190 190.3 191.8 191.3 192.7 193.7 195.7 199.4 198.3 195 201.9 204.9 206.6 207.4 206.5 210.1 213.8 216.9 217 218.9 220.7 222.6 226.2 229.6 232.1 237.6 243.8 252.8 255.7 257.3 258.2 259.4 257.1 252.4 245.8 237 230.8 227.9 223 216.5 209.5 202.9 200.8 196.6 186 176.6 170.7 164.8 161.4 156.4 158.2 155.9 153.5 148.8 148.9 148.4 148.2 149.7 150.1 148.6 148.5 148.7 149.7 149.4 151.3 151.2 151.4 151.3 150.7 157.6 162.5 158.4 156.6 155.6 155.1 154.7 155.2 158.5 159.7 161.8 162.1 163.3 165.2
111.6 112.1 112.7 113.1 112.2 112.4 116.2 117.9 118.4 120.5 121.8 124.4 124.9 128.5 129.7 131.4 133.5 136 139 142.6 145.1 147.7 149.3 151.5 153.5 156.5 159.1 163 166.3 166.6 172.9 175.6 180.1 183.7 190.2 191.5 194.8 198.3 201.5 203.8 203.8 203.5 202.7 198.9 195.3 193.9 192.4 191.4 189.1 187.3 182.6 180.4 177.3 174.9 173 172.5 170.6 169.4 171.3 170.7 173.1 174.6 176.2 178.8 181.1 182.6 184.7 187 189.8 191.7 194.5 196.1 198.3 200.8 202.4 203.9 206.2 207.8 212.3 217.1 221.1 224.4 215.5 191.3 190.6 187.9 178.5 173.7 175 177.1 176.3 175.2 175.4 174.6 172.5 162.4 161.8 167.3 173 174 175 175.9 180.5 180.9 179.1 172.3 159.2 164.7 178.2 180.7 181.9 182.8 184.2 184.9 186.1 189.3 191.3 193.5 193.5 194.9 191.8 194.9 195.8 198 201.7 201.3 191.4 200.5 204.3 206.5 207.3 206.5 211 215.7 217.1 216 216.9 217.5 220.4 222.7 226.3 232.5 237.5 244 251.5 255.2 258.7 262.4 259.4 255 246.8 239.6 237.9 234.1 228.8 222.4 213.8 205.4 197 191.8 187.3 174.2 168.5 163.4 158.3 153.6 155 154.5 149.9 147.7 147.7 148.8 148 148.3 147.9 147.1 147.9 147.5 149.1 149 150.4 150.8 151 150.9 150.7 152.8 161.6 163.9 159.7 157.5 156.4 155.8 155.7 157.2 158.9 158.6 158.8 161.2 161.9 163.8
111 111.5 111.6 111.1 113.1 112.6 116.1 117.3 118.9 120.1 121.1 122.3 123.1 130.7 128.2 129.9 133.2 134.9 137.5 141.2 143.3 145.1 146.6 148.8 151.9 154.6 157 158.6 164.6 165.3 169.1 173 176.5 181 185.3 189.6 192.6 196.4 198.6 200.6 202.8 204 204 200.9 199.8 197.1 195 191.1 191.5 188.6 183.8 180.8 178.9 175.6 173.6 172.4 170.1 169 169.1 171.3 172.2 172.5 174.3 176.4 178.5 179.4 181.5 184.2 186.3 188.9 191.8 191.4 195.5 196.7 198.8 200.4 201.4 201.8 207.2 211.1 216.3 220.1 221.8 212.6 189.4 191 183 175.9 176.7 177.1 176.5 175.7 175.2 173.3 171 161.1 162.9 172.3 172.6 173.5 172.8 175.7 177.5 177.3 170.9 165 157.8 166.3 171.1 179.5 180.6 182 183.3 185.7 188.8 190 193.1 197.5 199.9 198.8 193.8 196.9 198.8 202.9 204.9 202.7 194.7 195.2 202.1 205.7 206.8 207.7 209.3 214.1 215.1 215.4 216.8 218.7 221.4 225.9 229.4 232.8 240.3 247.3 253.5 257.1 260.9 263.5 259.4 251 247.1 244 239.4 234 227.2 219.9 211 201.3 188.4 179.2 172.4 164.8 159.2 153.5 152.3 151.7 150.8 150.2 147.7 147.7 146 147.2 146.8 146.9 147.9 148.8 149 148.7 149.6 149.7 152.1 155.1 151.5 149.2 149.2 159.2 165 165.8 164.5 160.4 160.2 159 160.5 156.7 156.7 157.2 157.7 160.1 161.4 161.8
109.4 110.4 110 110.9 111.7 113.6 116.3 117.9 119 119.4 121.4 121.9 122.3 132.1 128.4 130 132.5 133.6 136 138.2 140.9 141.7 144 146.6 149.1 152.9 154.2 156.4 160 163.4 166.8 171.4 173.2 177.8 181.8 183.5 190.7 192.7 196 200.8 201.7 203.4 204.7 204.6 201.4 198.3 197 195.4 193 191.7 184.2 181.4 180.4 175.7 174.9 173.8 171.4 168.8 169.1 169.6 169.5 170.3 171.8 174.4 175.4 175.9 177.1 178.7 182.7 183.1 184.9 188.3 190.7 192.4 194.9 195 197.5 199.4 201.6 207.7 211.8 215.3 218.6 218.7 212.9 199 193.1 178.9 177.6 177.4 176.5 175.7 175 173 168.2 161.1 161.4 169.8 170.9 171.7 167.9 169.4 168 166.5 163.2 157.6 156.1 164.7 167.3 174.6 176.8 179 184.2 187.4 190.4 192 195.9 205 204 202.4 199.7 203.5 205.1 204.3 208.1 208.6 201.1 194.3 195.9 202.8 202.6 204 206.8 208.2 206.6 216.7 220.3 221.7 226.4 232.3 237.2 241.7 247.5 253.2 258.7 262 265.2 263 258.3 253.4 248.7 244.3 238.2 231.3 224.4 216.9 208.4 199.7 186.3 167.9 163.4 156.7 153.6 150.3 150.6 148.2 147.9 148.6 147.7 147.7 146.3 148 149.4 148.3 148.6 148.9 148.8 149.5 149.9 151.7 154.7 156.5 155.5 155.1 159.5 166.7 168.1 167.3 165.9 164.5 162.7 163.5 163.5 163.3 162.9 163.6 162.6 160 157.9 159
104.8 109.3 109.2 110.4 111.6 115.1 116.4 117.5 118.5 119.7 121 121.5 121.9 132.4 127.4 128.8 130 130.3 132 135.5 137.4 139.5 142.1 145.1 146.6 150.8 151.7 154.5 158 161.5 165.8 168.8 171.5 173.6 179.3 183.2 185.8 190.8 193.9 196.9 199.3 202.3 204.4 204.4 201.3 201.2 198.1 196.1 195.3 193.3 192.4 189.8 183.1 180.3 178 174.3 171.1 169 168.3 169 168.5 167.8 170.6 172.6 173.4 169.5 176.1 175.5 177.4 182.3 182.1 185 187.7 189.4 192.5 192.8 194.1 196.2 199.2 201.5 205.8 209.7 212.6 214.4 213.5 207.9 199 184.5 180.4 178.2 177 176 174.9 172.3 161.2 156.3 156.1 168.7 168.8 167.5 162.4 161.5 158.3 158.1 153.8 159.3 164.9 165.5 172.9 175.3 177.2 181 186.2 188.7 191.1 194.8 204.6 208.4 215.2 207.4 205.3 207.6 209.2 214 215.8 216 210.6 196.7 197.8 199.5 201.5 204.6 207.3 210.5 214.1 218.2 223.6 227.8 234.1 241.8 249.2 250.6 254.5 261.1 264.6 267.4 265.3 260.6 256.9 252.5 247.4 241.8 235.6 228.9 221.3 213 202.9 194.1 176.3 164 153.1 151.2 148.4 149.3 148.6 147.6 147.8 147.8 148.2 146.9 146.5 147.4 150.3 148 148.3 148.4 148.4 155.5 156.7 157.5 158 161.2 160.8 162.8 166.3 172.5 171.4 168.7 166 165.8 169.1 168.7 169.4 171 169.8 168 166.8 165.6 163.8 159.4
109.2 109.9 110 111 112 115 116.4 117.6 118.5 119.4 120.5 121.1 121.5 131.4 125 126.5 128 128.5 129.2 132.5 134.3 137 140.1 143.5 145.9 147.9 149.9 153.1 155 160 162.7 164.7 169 172.5 175.4 180.5 184 190.4 193.1 196.5 198.8 201 203 200.5 201.3 201.3 199.3 197.4 196.4 195.2 193.1 192.1 190.5 183.1 180.5 177 175 175.2 168.4 167.4 168.6 167.6 166.8 168.5 169.6 165.4 174 174 175.6 176.9 177.7 181.8 183.2 187.8 192.2 192.1 191.7 193.6 196.4 199.2 200.5 202.4 207.1 209.1 210.4 211.3 204.1 194.4 183.2 179 177.8 176.3 174.5 171.6 161.2 153 153 167.5 166.6 160.4 155.6 153.5 157.4 161.1 164.4 169.8 175.3 174.6 174.9 176.1 179.5 184.5 187.8 190.9 195.8 205.1 211.7 214.3 220.6 211 208.2 210 213.3 218.6 221.9 224.5 222.4 203.1 199.1 201.5 203.8 206.2 210.1 213.7 216.7 220.3 223.7 230.2 240 249.1 255.8 259.9 262.5 265.5 268.6 267.1 262.8 258.4 253.9 248.9 245.2 238.8 233.7 226.3 218.4 209.4 198.8 186.5 167.3 157.5 148.8 146.9 147 146.9 146.5 146.9 146.2 146.8 146.5 146.4 148.1 149.9 151.3 150.7 148 148.9 156 158.7 160.1 161.3 164.4 166.4 168.3 169.9 172.6 173.6 172.8 170.2 170.8 175 174.5 175.9 177.5 178.4 177.2 175.9 174.9 175.5 172.7 171.2
109.8 110 110 110.8 112 112.9 115.2 117.6 118.4 119 119.7 119.9 120.7 126.8 121.7 123.4 126.8 126.7 128 130 132.5 135.5 141.3 142.2 145.6 147.1 149.7 153 155.5 157.4 161.9 164 167.1 172.4 175.5 179.1 182.7 187.5 191.6 193.9 196.4 198.6 199.9 200.1 201.2 200.8 199.3 198 196.4 194.4 193 191.9 188.2 184.3 183.4 180.5 179.9 178.1 175.6 171.4 166.2 167.3 167.4 166.9 166.1 165.2 171.4 172 173.3 171.5 176 178.1 179.6 181.1 189.2 191 188.6 192.4 195.7 195.4 198 198.2 199.4 203.6 206 207.7 208 200.2 189 182.3 179 177.1 173.5 166.1 161.1 151.8 150.9 164.1 159.4 155.2 151.3 165.3 170.8 174.4 177.3 178.7 177.8 177.7 177.4 178.6 182.6 186.9 191.1 197.2 203.5 209.5 216.8 226.1 223.6 217.3 215 215.8 218.6 223.6 230.3 233.8 227.2 207.5 201.9 202.1 203.2 207.4 210.4 216.4 219 222.9 228.1 235.8 247 255.1 264.5 266.4 269.6 269 268.3 264.8 260.6 255.3 250 245.2 240.6 237.3 230.7 222.7 214.7 204.6 191.2 176.6 163.4 145.7 145.8 146 146 148.6 145.9 146.2 146.4 146.3 146.8 147.2 149.3 151.6 153.4 153.8 156.9 159.2 159.6 160.2 163.6 167.2 169.3 170.1 171.7 173.5 175.1 175.8 175.7 173.8 177.8 180.8 182.4 182.9 184.9 184.6 184.2 183.2 180.7 181.2 178.3 175.7
109.9 109.9 109.9 110.9 112.4 113.8 115.3 117 117.3 117.9 119.2 119.7 120.2 120.3 121.4 122.3 123 125.7 129.6 131.3 132.7 134.9 138.4 141.6 145.1 147 150.5 153.1 156.8 159.2 163.5 167.7 169.4 173.9 175 179.1 182.9 187.1 189.7 192.3 194.3 196.5 197 198 199.3 200.3 199.8 198.4 196.5 194.2 192.6 192.5 189.7 187.8 184.8 183.2 180.8 179 177.6 174.7 171.2 166.3 166.6 166.8 166.3 168.3 168 167.9 168.6 171 174.1 177.9 178.6 179.1 179.4 183.4 187.4 192.5 196.6 193.4 191.7 194.5 195 195.4 198.6 200.5 203.4 203.4 194 183.3 178.7 176 176.1 174.4 161.6 158.6 151.3 152.8 152.3 151.7 164.8 166.8 171 175.6 177.9 179.4 179.7 180.6 180 181 183.7 186.8 191.6 199.6 205.8 212.8 221.3 230.8 228.7 219.6 218.1 220 223.5 231.2 239.4 241.9 235.7 214.1 206.6 202.4 203 203.9 205.5 216.3 220.9 225.5 232.4 242 254.6 264 269 273.8 273.4 272 268.3 263.4 257.7 251.8 246.5 241.5 237.2 233.3 224.9 216.1 208.8 201.2 192 180.1 164.3 147.1 145.6 145.9 145.3 145.5 146.1 146.1 146.5 147.1 147.3 149.6 152.6 152.6 153.6 158.6 159.3 159.3 161.3 166.5 166.9 171 171.6 173.6 177.8 178.7 179 180 178.5 179.6 183.6 186.8 189 187.5 190.9 189.9 189.6 189.1 187.8 187.7 185.7 185.2
108.7 109.4 109.5 110.8 112.8 114.1 115.7 116 116.4 117.2 118.9 119.5 123.3 122.5 122.9 124.8 126.2 127.8 131.7 132.9 135 136.3 138 141.6 144.2 147.7 151.7 154.5 156.7 158.8 162.3 167.5 172.3 177.4 179.5 178.7 183.9 186.7 190.1 192.7 193.4 195.1 196.1 196.8 197.8 199.3 199.4 198.3 194.8 193.6 192.5 191.8 190.6 187.1 185.6 183.2 182.1 180.7 179.4 177 175.5 173.4 168.3 166 166.7 165.9 165.4 165.2 165.5 169 170.2 177.7 177.7 178.3 178.7 180.1 185.4 189.6 191.9 192 188.7 187.3 189.5 191.1 192.3 193 193.5 195.6 189.9 184.6 177.4 176.6 176.4 175.3 166 159.1 152.8 150.3 148.9 163.6 166 168.3 171.6 174.5 177.5 179 180.4 181.2 181.5 182 184.8 188.5 193.6 202.1 209.2 215.8 224.6 234.4 233.1 224.3 222.1 224.3 228 239.1 247.6 249.2 238.2 224.6 212.2 206.8 204.7 203.2 204.2 209.2 219.9 229.3 237.4 246.3 259.4 267.9 273.5 277.9 276.2 274.4 269.8 265.8 258.5 250.5 244.5 234.7 229.6 226.9 219.8 212.7 206.1 204.5 187.6 178.7 156 142.9 147.8 149 145.2 146.2 146.5 146.2 146.3 146.5 146.6 152.4 154.7 156.1 159.1 164.8 164.9 166.8 168.3 169.6 171.6 174.4 175.4 181.2 183.5 185.2 183.9 183.3 181.6 185.8 188.4 192.5 194.5 197.1 198.9 199.4 201.2 200.7 197.5 194.1 193.5 191.7
108.2 109.4 110.9 112.2 113.3 114.4 115.2 115.4 116.3 117.2 118.4 118.8 126.8 123 126 127 127.8 128.4 130.2 133.5 134.8 137.2 138.5 141.3 144.6 149.7 152.7 153.4 156.4 158.8 161.4 165.5 171.7 178.7 181.4 181.5 182.6 186.8 190.3 192.8 193.7 194.5 195.5 196.1 196.6 197.6 197.6 195.5 192.5 191.4 190.3 188.4 189.6 187.9 185.5 184.1 183.1 181.8 180.9 179.7 176.8 175.2 173.2 168.9 166.2 165.3 164.6 164.3 164.9 167.6 169.1 171.5 173.6 170.7 177 177.5 181.1 184.9 186.6 187.1 186.3 184 183 182.9 187.5 187.2 187.7 185.6 182.9 178.3 177.2 176.3 174.7 174.5 172.6 159.6 153.8 150.1 154.8 161.3 165.5 167.4 171.8 173.8 176 178.3 179.6 180.8 181.3 182.6 185 189.5 195.9 203.8 211.9 218 227.9 237.5 236.2 228.6 225.8 231.2 236.1 246.3 253.2 254.4 249 236.4 221.5 211.5 208.6 208.7 204.2 205 220.1 230.5 241.1 249.7 262.2 271.3 277.2 281.9 279.3 277.5 272.3 267.3 260.1 253.3 245.2 238 233.5 225.3 219.4 211.1 204.5 194.9 183.6 162.1 157.3 144.9 146.7 150.6 146.3 145.5 146.4 146.5 146.3 147.1 151.2 156.2 158.3 163.9 175.7 181.9 178.2 172.6 173.6 179 179.5 180.7 182.9 187.5 190.6 192.2 190.9 187.9 185.3 191 194.3 198.5 200.2 201.1 202.2 204 204.9 205 203.7 201.3 202.7 200.2
108 108.6 111.1 111.7 113.3 113.9 115 115.2 116 117.2 117.5 118.7 119.9 123.4 126.3 126.5 127.2 128.8 130.4 133 134.7 137.2 137.6 141.1 145.2 151.2 151.8 154 155.5 157.9 161.8 163 169.2 174.6 178.3 180.1 181 184.2 188.8 191 193.5 193.9 194.1 194.3 194.5 195.3 193.8 190.6 189.2 188.6 187.9 187.8 187.6 187 185.9 184.8 183.7 183 183 181.8 179.2 176.6 174.6 172.4 167.8 167.7 164.4 163.9 164.5 165.7 169.1 169.7 169.9 168.5 170.5 175.8 177.2 180.4 183.3 183.9 181.4 180 179.3 179.8 178.8 183.8 184.6 184.2 184.4 176.9 174.9 173.6 171.7 171.7 171.7 162.5 151.6 148.6 147.6 160.9 165 167.9 171.6 173.7 175.7 177.9 179.9 180.3 180.9 182.5 185.9 189 195.7 203.4 211.2 219.1 230.4 239.1 239.2 232 229.9 236.6 242 252 258.9 258.5 259.3 248.4 228.2 218.5 215.3 219.7 207.4 205.4 218.6 232.2 243 251.6 263.3 275 282 286.7 285 280.3 275.5 269 263.3 259.8 251.8 241.5 231.2 222.5 215.5 206.5 198.8 189 177.9 166.8 154.5 144 145 148.9 150.7 150.4 152.7 152.1 153.2 156.4 159.5 162.3 163.5 176.7 186.9 191.4 187.2 179 185.4 188.3 190 190.1 188.2 193.6 197 198 196.3 192.6 192.4 198.2 200.6 201.1 203.4 205.1 205.6 207.5 209.9 210 209.2 207.3 209.4 210.7
108.4 109.1 110.3 111.4 112.2 112.9 113.9 114.8 115.1 115.7 116.5 123.3 119.4 121.2 123.5 125.4 126.1 128.3 130.9 133.2 135.2 137.2 138.8 140.8 144.8 150.4 151.3 151 154.1 156.8 159.2 162.3 166.8 170.9 174.3 176.3 177.6 180.5 185.3 189 190.2 191.6 192 192.7 192.1 191.3 189 188.3 187.9 187.4 187 185.5 185.2 185.9 185.6 184.9 184.2 184.1 184.1 183 180.6 178.7 176.4 173.6 171.5 167.3 167.2 163.3 163.8 164.1 168.2 169.2 169.6 168.5 162.4 173.5 175.4 178.2 179.8 180.1 178.8 176 176.3 175.4 175.3 176.8 179.5 179.9 178.7 175.4 173.1 171.8 171 171.9 170.6 160.7 152.8 147.1 148 163.6 167.8 169.1 171.9 173.9 175.7 179.1 178.7 179.7 180.2 183.2 184.6 188 193.5 201.7 210.8 219.5 230.7 239.6 240.8 234.5 235 241.3 246.7 256.6 264.2 262.1 264 259.8 242.4 226.7 217 224.5 208.1 205.3 212.1 229.8 242.1 253 266.9 278 285.7 290.1 289.5 282.7 275.7 269.6 265.3 260.7 251.1 243.3 230.6 218.4 211.2 202.7 192.9 187 171.8 159 150.8 144.7 145.2 145.5 151.3 153.2 159.4 159.5 161.9 164.5 165.2 167.5 174.9 185.2 195.3 198.3 194.5 187.2 195.8 199.2 199.4 198.7 196.3 199.7 202.5 203.1 202.3 197.5 199.5 203 204.3 205.1 206.7 209.2 210 212.2 214.9 215 215.1 214.7 216.9 218.1
109.4 108.9 109.3 109.7 111.9 112.5 112.9 114.1 114.6 115.2 114.9 119.2 118.8 120.6 122.4 124 126 127.1 129.6 132.4 135 136.4 138.1 140.2 142.7 145.3 147.8 149.3 151 154.8 157.7 159.5 162.9 166.3 168.8 170.8 173.5 177.1 181.4 185.1 185.5 186.8 189.1 190.5 190.2 189 187.1 186.4 186.2 186.2 185.5 183.5 183.8 184.7 184.1 183.2 183.3 184.9 184.3 182.9 182.2 180.7 179.3 176.7 173.1 170.7 166.9 162.7 163.3 163.8 163.7 168.4 168.8 169.1 164.6 160.3 168.9 174.2 176.3 177.3 175.9 174.3 173.4 168.9 170.9 174.3 174.7 174.6 172.3 173 171.3 171.8 171.2 172.2 171.9 160.7 151.5 146.5 157.3 166 167.7 170.4 173 174.4 175.7 176.4 177.8 179 179.6 180.8 183.8 187.4 190.9 198.8 209.7 220.3 230.8 239.3 237.9 236.1 238 243.4 250.4 259.8 266.8 265.6 269.8 268.6 256.3 234.6 219 224.5 218.8 205.9 211.3 222.6 240.7 257.1 269.2 281.7 288.5 292.2 291.5 282.7 275.7 269.9 265.1 260.1 248.6 241.2 226.5 215.9 207.2 197 189.2 170.6 160.2 154.6 146.5 144.4 145.1 145.8 149.6 152.9 158.3 158 159.8 166.1 168.7 173.1 183.7 194.1 203 204 201.5 193.7 203.7 206.1 206.4 205.4 204.8 206.3 207.8 208.1 207.1 201.6 204.8 207.7 208.2 209.7 212.8 215.2 216.6 217.7 220.5 221.1 221.6 222.3 224.7 227.2
109.6 108.8 108.9 109.5 111.1 112.2 112.4 113.8 114.5 114.1 118.2 116.2 117.1 118.8 121.5 124.1 125.7 127.4 129.8 131.8 133.3 135.3 136.9 137.2 137 142.3 144.4 145.9 147.6 151.5 154.5 156.9 160.8 162.9 165.4 166.9 169.1 172.6 175.4 178 180.7 183.4 186.2 187.3 187.4 186.4 185.4 183.6 184.5 184.2 183.6 182.9 181.7 182 181.8 181.5 181.4 183.5 183.8 182.4 181.8 181.3 180.8 179.2 175.2 172.3 169.9 166.9 160.2 162 162.7 162.9 167.8 168.1 167.8 163.4 164.7 170.2 172.7 172.6 171.7 170 172.6 166.3 167.9 169.6 170.6 171.1 170.3 168.9 169 170.5 171.4 170.9 171.8 159.9 151 146.5 159.9 165.8 168.2 171 172.9 173.8 174.3 175.1 176.6 177.3 178.8 179.3 182.9 185.2 190.4 196.6 205.4 219.9 231.5 235.2 234.8 235.4 238.8 244.5 251.6 259.7 268.5 267.7 274.1 275.7 267.1 246.6 222 225.5 225.5 208 211.1 220.6 238.8 256.9 274.2 284.1 290.1 292.3 292.3 283.6 275.7 269.6 264.2 258.6 247 238.6 227.3 215.7 201.2 182.2 168.5 159.4 159.8 154 145.4 145.1 145.1 145.7 145.6 151.5 157.4 157.7 158.9 162.5 171.2 177.9 187.3 200.1 208.6 209.5 207.9 199.8 209 212.8 215.6 214.1 212 211.9 214.2 213.8 212.5 206.1 211.8 214.9 215.2 215.9 219.9 223.1 224.3 225.3 227.7 228.6 229.5 228.9 231.8 236
107.5 108.4 108.5 109.1 110.7 111.7 112.6 112.8 113.8 113.1 117.7 115.6 116.7 117.5 120.3 122.7 125.5 127.4 129.5 130.6 132.8 134.3 135.9 137.2 137.1 139.5 141.8 143.2 144.7 147.3 151.1 156.4 156.7 159.9 161.4 164.4 167.5 170.6 170.5 174.5 175.8 178.7 182.1 183.2 184.1 184.1 181.9 180.2 179.8 180.2 179.8 179.5 178.9 178.6 179.7 180 180 181.4 181.8 181.8 181.6 180.9 181.5 180.8 178.5 173.5 171.6 169.2 165.2 158.6 161.3 160.9 161.2 166 164.5 160.1 162.9 167.1 168.6 170 169 167.8 170.7 164.5 165.9 166.4 167.8 167.9 166.7 167.6 168.9 168.9 170.4 171.5 167.5 159.1 150.9 146 156.5 164.4 167.4 169.6 172.4 173.3 174.2 174 175 176.3 177.1 174.9 177.1 179.4 185.5 195 202.6 217.2 227.2 229.6 231.8 234.8 238.4 245.2 251.6 260.6 266.4 269.7 275.8 279.8 275 260 226.1 228.8 231 211.2 211.4 221.4 236.6 258.8 275.1 285 290.1 293.1 293 285.9 275.9 269.4 262.6 257.9 250.2 238.2 226.7 214.4 193.9 167.8 160.8 161.7 165.7 155.5 145.1 144 145.4 146.7 145.4 150.7 157.6 158.3 158.8 170.5 174.8 180.8 191.5 205.3 212.6 214.9 214.4 207.6 215 220.2 223.6 223 220.2 219.1 220.6 220.6 219.1 218.9 213.3 223.1 228 228.5 229.8 230.2 232 233.8 235.8 236.9 236.9 236.5 240.5 242.3
105.9 106.7 107.5 108.7 109.9 110.7 111.4 112.2 112.4 113.2 113.5 114.2 115.9 115.7 119.2 122 124.4 127.2 128.5 130.3 132.2 133.3 134.8 135 135.6 137.4 139.3 141.1 143.2 144.6 149.1 149.1 153 156.4 159 161.3 164.3 164.9 169.9 170.7 172.8 174.8 176.5 178.7 181 180.5 178.8 177.8 177.4 177.9 177.5 177.3 177.5 177.6 177.9 177.9 177.9 178.6 178.7 180.3 181 180 181.3 179.7 178.7 178.7 173.1 171.3 168.6 163.8 158.5 157.2 152.1 151.8 158 151.6 160 161.7 165.6 167 167.9 166.6 162 163.5 165.5 165.6 165.9 166.4 167.2 167.8 168.5 169.3 169.5 170.4 169.7 158.4 152.3 144.2 151.5 164.5 167.7 169.5 170.7 172.7 173.2 172.9 173.5 174.7 175.6 173 180.6 182.8 187.5 193 196.6 205.7 216.6 223.5 228.5 234.1 239.4 244.7 251.2 259 265 270.3 276.6 282.6 280.7 273.1 252.2 247.1 242.8 218.3 210.9 221 239.1 259.3 275.6 284.7 290.1 292.3 293.1 286.4 276 269.7 263.6 257.8 250 238.7 226 215.5 192.5 161.1 159.6 167.1 166.7 154.1 144.5 143.6 145.6 146.7 145.4 157.1 157.8 156.8 169.4 172.1 176 183.3 194.5 209.3 218.4 220.9 219.4 216.3 221.9 227.1 231.1 231.3 230.3 229.4 228.5 228 229.6 232.2 224.2 238 239.7 238 238.2 238.6 239.6 242.2 243.1 245.5 245.9 246.3 249.4 251.5
105.5 106.3 107.2 108.4 109.4 110.3 112.4 112.5 112.6 113.6 112.9 114 115.2 115.5 118.4 121.7 123.7 126.2 128.8 130 130.7 131.2 132.2 133.6 134.2 136 137.6 140.1 141.9 142.7 144.6 148.6 152.5 153.2 155 156.5 159.3 163.3 163.5 164.7 169.5 170.9 172.9 175.8 178.5 176.9 174.6 173.8 173.5 174 174.7 175.4 176.6 176.3 175.8 175.5 175.2 175.4 175.5 177 176.1 177.2 176.1 179.4 179.4 179.1 175.9 173.1 168.8 167.5 161.4 154.2 152.4 151.6 151.3 151 157.5 158.2 163.5 165.8 165.4 163 159.4 160.8 161 164.2 164.6 166.1 167.4 167.7 168.6 169.2 168.6 169.3 168.4 157.3 148.9 144.7 150.8 165.7 167.2 170.2 170.6 171.8 170.9 169.1 170.6 172.4 165.2 175.4 182.8 185.9 193.3 200.1 206.3 221.2 232.2 233.7 230.9 233.9 238.9 244.7 251.3 259.1 265.2 270.9 276.6 284.6 285.4 279.7 269.5 255.5 244.6 221.7 213.3 220.1 240.3 259.6 276 285.6 291.1 293 293.7 285.8 275 268.9 264.1 257.7 250 240.8 226.8 217.3 199 169.8 159 158.5 162.8 152.3 143.5 142.3 144.6 145.5 145.6 152 157.6 167.2 172.3 174.8 178.7 186.5 196.3 214 224.8 227.8 226 226.1 228.1 233.8 238.3 240.3 240.1 239.3 239.1 240.2 243.4 248 237.6 247.9 247.8 255 253.7 251.9 249.4 250.2 252.2 254.5 256.2 257 258.6 262.7
106 106.7 107.4 107.6 108.7 109.5 111.8 112.2 112.6 113.2 111.3 114.3 114.8 115.6 118.1 121.6 123.7 126.4 127.1 127.8 128.2 129.5 130.3 131.5 133.1 135.5 136.3 138.3 140.6 142.3 144.3 146.5 149.6 150.4 150.4 151.1 153.9 158.1 156.7 160.4 163.8 167.4 169.2 172.8 173.9 173.1 171.3 170.2 170.3 171.6 172.9 173.2 173.8 174.2 174.3 174.1 174.1 173.1 173.3 175.5 174.7 173.3 174.2 177 178.8 178.7 176.9 174 171.7 167.4 163.8 164.4 152.3 152.6 151.8 153.9 157.2 154.8 158.7 162.7 159 158.5 162.9 164.8 165.3 166.4 167 166.9 167.6 167.7 168.7 169 168.2 168.4 167.9 158 143.8 143.8 158.8 165 166.3 169 170.6 169.8 168.8 159.2 159.9 167.9 174.8 176.5 184.2 192.2 199.9 205.8 212.3 225.1 236.7 241.1 236.8 237.6 240 245.9 251.7 260.5 267.1 271.7 277.3 284.8 288.1 285.4 275.9 260.7 247.1 224.6 215.5 218.7 238.4 258 274.7 285.2 290.4 291.6 292.7 283.8 273.6 268.6 263.7 257.9 250.6 243.1 230.2 221.9 211.8 194.4 172.6 157.2 155.8 151.6 141.7 142.7 143.5 143 145.9 150.7 159.9 170 173 175.9 180.8 186.2 197.7 215 231.7 231.8 233.6 235.5 237.9 242.2 246.3 249.3 250.5 249 253.2 259.9 268.1 257.2 255.5 258.5 267.3 277.8 281.6 268.9 264.6 262.9 263.2 265.5 267.6 267.9 267.1 273.2
105.9 106.5 107.3 107.8 107.9 108.6 109.8 111.6 112.2 111.4 111.3 111.8 114.5 115.7 120.7 121.5 121.9 122.8 124.2 125.4 126.5 127.9 128.8 130.6 131.7 133.2 135.6 137.7 139.7 142.9 143.5 145.6 146.3 147.5 148.4 149.5 151.6 152.8 152.2 154.9 159.2 161.2 165.4 169.9 170 169.4 168.5 167.7 167.9 168.5 169.8 171.6 172.4 171.6 172.3 172.2 171.8 171.2 171.6 172.7 172.9 176.6 175.6 178.1 178.4 178.4 176.7 174.9 171.3 168.4 167.7 166.1 159.8 153.6 155.2 154.9 155 154.5 155.3 156.4 160.8 164.9 166.6 168.4 168.2 168.6 168 168.4 169.4 167.8 169 168.6 167.5 166.9 163.1 153.7 150.3 142.4 161.5 164.1 165.4 167.9 169.3 165.4 156 161.8 171.2 173.7 177.1 180.1 186.9 196.6 203.7 210.3 217.5 227.9 241.6 246.4 242.4 240.6 244 248.3 253.5 260.2 266.4 272.1 278.4 285.6 290.4 291.7 281 263.1 245.6 225.5 214.8 217.9 236.5 255.7 271.8 282.7 288.1 288 287.4 281.7 271.4 267.1 262.7 258 251 243.5 234.1 227.5 218.7 206.4 191.7 177.9 158.7 154.4 142.3 142.8 143 142.3 145.5 155.8 163.1 168.8 173.3 176.6 182.5 187.5 199.8 214 229.1 236.3 240.6 243.8 248.1 252.3 255.9 256.3 258 263.7 273.7 283.1 273.6 257.5 265.4 273.2 281.9 293.2 299.8 300.8 282.7 276.6 273.4 274.6 276.6 280.7 280.8 285.8
105.7 106.2 106.9 107.1 107.4 108.3 108.8 110.4 110.6 111.3 111.5 111.7 114.7 115.6 115.9 120.8 121.6 120.6 122.2 123.6 124.7 125.9 128.1 129.3 130.6 132.2 134.6 137.1 138.3 139.6 142.2 141.8 143.5 144.3 144.8 147.5 146.8 150.3 150.5 152 154.3 156 161.2 165 164.4 166.1 166.5 166.1 166 165.4 168.9 170.3 169.6 169.6 170.1 169.2 169 169.7 170 172.6 169.2 171.7 175.7 177.3 177.2 176.7 175.9 173.8 170 168.4 167.1 165.7 159.6 161 156.3 156 155.8 156 155.9 157.8 159.1 163 168 170.6 171.5 171 170.4 169.5 169.8 169.3 169.2 168.1 166.2 165.2 162 152.6 147 152.1 153.2 160.4 163.5 161.2 162 152.1 163.6 167.8 172.3 175.6 178.1 180.1 189.2 198.2 206.7 213.8 221.6 230.3 244.5 251.6 247 245 245.4 251.5 256.5 260.7 266 272.5 279.8 287.2 292.4 296.8 286.2 264.4 244.7 226.9 215.6 220.5 230.2 253 268.2 279.7 286.1 284.8 284.2 279.4 267.9 263.1 259.3 255.3 250.5 242.2 235.4 228.9 223.1 210.6 199 183.1 167.4 154.7 142.7 142.7 142.9 142.6 154.1 155.6 164 168.2 172.9 177 183 190 202 216.2 229 239.9 246.4 251.4 257.4 262.2 266.4 269.8 274.3 286 292.4 287 270.2 273.6 277.5 283.7 292.7 304.4 311.1 318.7 313.5 298.7 291.1 286.2 288.1 292.4 294.5 298.3
105.3 105.8 106.7 107 107.2 107.9 107.8 108.5 109.6 111.1 111.7 111.9 115 115.8 115.9 116.3 118.2 121.2 121.3 122.7 123.6 126.1 126.7 127.4 130.5 132.7 133.8 135.3 137.5 138.9 139.6 139.8 141.2 141.9 143.7 145.7 145.6 147.2 148 149.9 152.6 153.9 156.5 159 162 164.8 166 164.5 164.2 161.5 161.8 165.7 165.2 166.8 167.9 166.9 166.5 167.1 167.3 166.9 165 169.8 175.7 176.7 176.5 175 173.8 173.8 169.3 168.4 166.7 166.5 166.5 165.9 159.4 158.3 160.9 158.9 158.4 158.9 160.7 160.3 167.2 171 173.3 173.6 173.1 173.1 172.8 172.3 169.2 166.3 162.7 158.1 152.2 146 144 144.5 145.9 156.5 156.8 149.6 148.6 150.2 158 168.4 172.4 174.6 177.6 181.7 189.8 200.2 207.9 215.5 223.7 234.5 246.6 257.4 255.1 248.9 249.1 254 259.4 264.3 271.9 273.1 280.6 288.1 294 299.8 290.2 263 242.7 227.8 215.8 213.7 226.4 247.7 263.7 275.8 281.4 279.7 279.9 275.9 265.2 256.9 254.2 249.5 247.7 238.8 232.2 227 223.3 211.9 200.3 183.3 169.1 152.5 141.4 143.9 143.8 153.7 156 161.6 164.5 167.2 172.2 177.1 183.1 191.7 204.9 220 236.7 244.6 251 257.3 264.9 271.8 277.4 281.6 286.1 298.3 296.2 285.3 278.9 288.2 289.3 291.2 303.1 313.3 321.3 328.5 333.9 332.5 316.2 303.9 302.8 304.6 308.7 313.2
105.2 105.8 106.5 106.7 107 107.2 107.7 108.2 109.4 110.2 110.9 113.5 113.4 115.6 115.9 116.5 118.2 119.1 121.5 123.1 124.4 125.6 126.7 128.1 130.1 131.4 132.5 134 135.2 137.8 138.9 139.6 142.4 143.6 143.1 145.5 146.3 147 147.3 149.8 151.8 153.5 155.4 157.4 159.6 164.5 165.8 164.2 162.9 161.9 160.8 161 162.9 164.6 165.2 165.2 163.6 165.6 166.6 162.2 165.1 172.1 174.6 176 176.2 174.6 173.3 173 170.2 169.5 168.5 168.6 168 167.7 166.3 159 164.7 162.5 164.4 160.5 160.7 161.3 166.9 169.5 173.6 175.7 174.3 173 172.7 173.3 170.9 157.4 154.5 152.8 145.3 144 142.1 157.7 151.8 154.5 149.5 159.1 165.4 168.5 157.8 158.7 170.3 172.7 174.9 179.5 187.6 201.6 209.7 217.4 226.1 235.5 248 261 264 254.1 253.4 257.3 262.1 267.4 275.7 279.4 282.2 288.9 294.6 301 294.7 267.7 244 228.3 216 212.4 222.4 241.8 258.3 270.7 276.2 274.3 274.7 271.4 257.6 251.6 247.9 242.9 243 233.3 226.5 222.8 218.4 210.6 198.7 179.9 167.5 149 140.2 141.1 146.7 156.8 157.1 162.6 164.5 168.2 172.9 178.8 184.5 195 207.5 222.3 242 249.2 255.7 263.2 271.2 280.5 288.3 293 304.6 306.8 300.2 283.9 295.6 298.8 301.5 306 310.5 319.8 328.2 336 343.9 350.3 345.6 329.9 320 320.5 323.3 327.4
104.8 105.1 106 106.8 106.7 107.3 107.7 108 110.2 110.8 110.6 111.9 113.1 114.3 115 115.9 117.9 118.3 121.4 122 123.5 124.9 125.4 127 128.4 130.2 132.7 133.3 135 135.4 138 139.2 141.5 143.5 143.3 145.3 145.5 145.6 147.2 149.3 151.3 153.4 155.1 156.8 161.6 165.4 165.2 164.2 163.1 162.6 162.7 162.5 162.4 163.3 162.9 162.2 161.7 160.6 160.6 162.3 166.5 169.9 172.7 175.1 175.7 174.4 172.8 171.3 170.5 170.4 170.6 170.3 169.8 169.2 169.3 162.6 162.2 165.6 166.2 160.2 161.1 162.5 166.2 168.9 173.3 176.2 176.3 172.9 171.4 174.3 164.2 155.9 149.6 145.5 141 140.1 152.9 162.9 163.5 161.3 152.1 163.9 165.6 168.3 167.7 154.3 158.4 167.9 173.8 177.1 184 201.6 210.4 219.4 227.9 236.8 248.5 262.2 270.1 260.8 258 259.9 264.6 270.2 277.3 284.7 285.3 290.2 296.3 302.5 295.8 270.8 247 230.6 216.3 211.1 218.3 234.3 253 265.4 272.4 269 269.2 264.9 252.2 244.6 241.5 236.9 234.4 225.8 218.9 217.8 212.1 207.4 196.3 177.4 163.4 150 140.8 139.6 143.7 154.8 156 162.2 164.2 168.5 172.7 178.3 186.2 197.6 211.6 224.8 243.2 251.9 259.6 268.1 278.6 291.9 302.8 312.3 321.3 312 302.5 294.9 305.2 310.3 315.3 319.5 318.7 325.9 335.9 345 353.2 357.3 362.1 361 346.5 340.3 339.6 343.2
104 104.4 104.6 106.2 106.6 107.1 107.7 108.1 109.9 111 110.9 111.1 111.3 114.6 114.9 115.6 116.8 118.6 121.2 121.3 122.6 123.9 124.6 125.7 128.7 133 133.3 133.1 135.4 138 138.6 139.4 140.1 141.5 144.5 145.2 145.4 146.5 148.2 149.7 151.3 153.5 155.9 158.5 162.6 163.2 164.7 163.9 163.3 162.1 162.7 161.8 160.9 161.6 161 160.2 155.7 158.7 158.8 163 167.4 169.2 171 172 175.1 174.9 173.2 172.1 170.6 170.7 170.9 170.9 171 171.2 171.3 170.2 160.8 164.8 160.4 160.8 164 168.4 168.4 170.6 173.5 176.9 177 173.3 169 173.6 159.1 151 144.4 141 140.9 151.9 163.8 165.8 165.3 163.9 153.8 164.3 166.5 167.9 167.9 166.2 164 160.3 172.8 175.9 183.7 200 209.8 218.7 229.4 237.3 248.7 263 274.3 266.3 262.6 263.8 268 273.2 279.3 288 289.8 291.8 298 304.4 294.8 269.2 245.8 230.1 216.3 210.3 213.4 227.1 246.3 260.8 267.8 263.2 263.6 255.7 244.5 238.1 234.2 229.6 227.7 218.5 210.3 210.4 211.7 201.3 190.6 175.7 157.5 143.6 139.2 138.7 141.7 148.4 153.5 154.6 164.2 167.7 172.9 179.2 188.7 201 214 228.9 245.4 254.2 263.3 273.2 289.1 312.9 330 330.4 323.6 314.9 305.8 304.2 312.2 317.7 323.4 328.8 332.8 336.8 345.3 353.2 361.2 369.1 374.6 379.5 377.6 367.8 362.9 362.6
103.6 103.5 103.7 104.9 105.6 106.3 107.2 108.1 109.7 110.5 110.4 111.4 113.5 112.6 114.5 115.3 115.6 117.9 118.3 119.7 122.9 123.7 127 128.5 129.4 133.5 133.5 136.8 136.6 138.5 138.4 139.9 140.1 142.1 144.1 144.8 145.1 146.2 148.2 148.8 150.4 153.3 155.9 157.8 159.8 163.2 162.6 162.1 161.1 158.5 158.6 158.3 158.2 159 159.1 158.5 155.7 155.7 155.7 155.7 165.2 166.3 167.9 169.3 172.4 174.4 173.9 172.4 170.8 170.4 170.2 170.6 171.1 172.7 173 172.5 160.9 161 158.8 161.9 171.1 171.7 170.9 171.9 173.3 175 175.3 174.7 169.2 161.5 154.8 144.5 140.7 139.7 142.5 158 165.8 167.7 166.8 165.1 155.2 164.5 166.5 167.8 169.5 171.5 172.1 163.3 168.7 175.3 181.2 196.8 207.9 217.7 227.6 236.4 247.5 262.5 272.2 269.5 265.7 266.2 269.9 275.6 279.4 289.2 293.6 296 298.9 306.4 292 265.5 240.4 227.9 216.7 210.8 209.6 221.4 239.8 255.4 261.3 257.9 257.7 247.4 237 231.6 228.3 224.1 220.9 209.8 204 203.7 203.1 195.5 184.1 171.9 149.4 141 138.3 138.5 145.3 145.1 152.5 160.4 164.1 167.3 172.3 180.4 191.1 203.1 216.9 232.3 247.6 256.9 265.6 279.7 300.4 324.5 334.2 330.4 323.9 317 304.5 310.4 317.7 323.5 329.3 336.4 340.1 343.5 349.8 357.2 365.6 374 382.2 390.2 396.6 398.9 392.2 391.3
106.2 103.5 103.2 104.2 106 106.1 106.7 106.5 110.1 110.8 111.2 111.7 113.5 113.4 113.8 114.4 115.1 117.4 118.1 120.1 123 123.6 124.8 126.8 128.3 129.6 138.2 138.4 138.4 139.2 138.7 139.1 139.7 140.9 142.6 142.8 144.1 144.8 145.9 147 148.7 151.1 154.3 155.8 158.8 159.1 157 157.1 156.8 156.5 154.8 155.5 156 156.5 156.8 155.9 155.2 156.3 157.4 161.4 164.4 168 169.8 169.4 170.8 172.3 173.2 172.7 171.8 171.1 169.6 169.1 170.1 173.2 174.1 174.4 161.6 159.6 158.2 164.1 174.2 173.9 173.1 172.9 172.7 174.1 174.1 171 169.1 164.2 141.6 139.6 139.1 141.5 152.8 163.9 168 168.6 168.2 166.6 160.7 165.3 167.1 168.4 170.6 172.8 173.4 170.3 170.7 175.4 179.8 192.4 203.4 213.8 225.3 233.3 244.1 260.4 268.5 268.8 266.7 267.7 271.6 276.4 280.2 287.1 294 299.1 299.9 305.3 293 265.4 241.7 225.3 213.5 209.8 209.1 216.5 233.6 248.9 253.2 251.1 250.7 240.1 228.8 224 219.8 216.9 209.5 202.2 196.2 195.7 192 183.4 177.9 160.5 151.2 141.2 136.2 138.2 143.9 148.2 153.3 155.8 161.5 166.2 172.4 182.4 193.2 204.4 218.5 232.9 249.2 258.4 270.7 286.7 308.7 330.7 332.2 327.5 321.6 315.2 307.2 313.7 320.9 327.2 333.4 340 345.2 350.4 355.4 361.7 369.5 378 385.7 394.1 401.6 407.9 414 417.6
104.2 103.2 104.6 108.5 103.4 106 106.4 106.5 111.4 110.4 110.5 110.9 111.8 112.3 113.5 114.2 115.2 117.4 118.1 119.7 121.6 123.3 124.9 126.6 128 129.5 135.1 138.6 138.3 137.6 137.6 138.6 138.7 139.4 140.5 141.1 143 144.5 144.1 145 147.2 149.1 152.1 153.7 154.1 152.4 153.9 151.7 148.6 148.6 152.2 154.4 155.1 155.5 155.4 153.6 153.4 154.2 157.4 160.8 164.6 168.9 174 173.3 170.8 171.9 172.8 172.4 172.1 173.6 172.6 169.1 171.3 173.9 174.2 173.2 160.2 157.5 157.1 160.1 173.6 173 172.4 172.1 172.5 173.4 176.5 169.4 166.4 161.7 142.9 138.6 142.5 154.5 162.2 165.6 169.6 169.8 169.4 168.4 166.9 164.2 168.5 169.9 171.6 173.2 174.1 169.7 168.9 175 179.9 187.6 198.1 208.7 220.7 229.3 240 255.8 264.3 265.1 265.4 268.5 272.2 276.8 281.2 287.2 291.7 300.6 299.9 302.9 291.9 264.2 238.1 223.9 213.8 209 208.2 211.6 224.7 241.5 246.3 244.5 243.3 233.4 220.6 216.6 211.4 209.1 205 194.5 188.2 186.3 181 177.5 170.2 157.2 146.3 140.6 138.3 138.2 147.8 152 153.1 155.8 160.6 168.6 175.2 184.4 194.2 206.9 220.2 234.6 249.5 259.5 274.2 294.3 320.9 334.2 330.3 323.7 320.6 315.4 312 315.1 322.2 328.6 335 342.1 349.1 355.2 361.1 367.2 373.5 381 388 396.2 404.2 411.3 419.3 426.6
102.5 102.9 102.8 102.2 101.9 106.6 105.9 107.3 111.6 111.1 109.6 110.3 111 111.3 112.9 114.3 115.3 117.3 118 119.4 121.5 123.1 124.5 126.3 127.1 128.7 132.7 134.9 136.3 134.9 135.8 137.2 136.7 137.2 137.8 139 140.1 141.4 142.3 143 144.7 147.7 150.8 153.1 153 150.4 149.2 147.5 147.6 147.1 149.1 152.5 153.9 154.5 153.8 151.8 150.9 152.1 157.3 160.5 163.3 168.5 172.5 174.2 172.6 172.3 172.7 173 172.9 173.1 172.1 169.6 170.2 172.8 173.3 172.4 161.9 157.8 156.7 158.5 165.9 171 171.1 171.3 172.3 174.9 177.8 173 168.5 166.1 150.5 138.2 138 152.9 158.5 167.9 170.2 170.6 170.3 170.1 166.9 166 168.7 170.6 171.7 172.5 172.9 168.6 168.3 175 180.4 186.1 194.6 203.4 214.1 224 234.7 250.9 260.2 261.3 263.4 267.4 272.1 276.4 282.3 287.2 291.4 300.6 297.9 299.6 294 265.4 237.9 222.1 212.1 208 206.9 209.8 219 232.8 238.7 235.6 233 221.6 211 208.1 202.5 199.4 192.2 188.2 180.6 178.2 172.4 169 156 145.1 142.3 139.5 136.2 138.2 147.3 152.4 152.4 158.1 164 170.5 177.3 184.4 196.4 209 222.4 237.4 251.6 262.6 278.9 304 324.7 333.9 328.9 323.6 320.7 318.3 317.1 317.5 322.7 329.6 336.8 344 351.1 357.6 364.6 370.7 377.1 383.4 390 397.5 405 412.9 420.2 428.5
103.6 103.9 103.2 103.3 103.2 101.6 101.5 106.3 110.5 110.2 109.2 109.5 110.2 111 112.1 113.7 115.5 117 117.8 118.9 119.6 122.2 124.1 125.6 126.1 128.2 130.2 131.3 132.9 133.9 134.5 135.5 135 136 136.8 137.9 139 140.1 140.6 140.8 142.1 144.9 148.9 152.1 152.7 149.8 147.2 145.9 145.9 146.1 148.4 152.2 152.3 152.8 152.1 150.2 149.4 152 154.9 160.1 162.3 166.2 170.5 172.6 172.3 172.2 170.5 170.7 171.4 169.8 168.4 165.5 166.5 169.7 170.7 170.5 164.5 160 156.5 157.1 162.5 167.9 170.1 169.8 168.6 172.6 178.5 179.1 174.6 173.6 142.3 136.3 152.2 164 163.1 164.9 170.2 171.8 172.8 171.7 170.5 169.1 168.8 169.5 170.8 171.3 171.4 171.5 167.3 173.9 179.2 184.4 191.4 200.4 210 220 231.6 246.7 255 256.1 261.9 266.7 271.4 276.3 281.3 286.5 293.9 295.1 293 295.1 294.5 268.5 240.2 220.4 211.4 207.3 205.8 210.4 216.3 226.2 232.9 227.1 224.1 213.7 205.8 202.1 192.2 189.2 184.8 180.3 172.2 169 164.8 155.2 144.2 141 138.2 138.6 138.8 138.1 147.6 151.2 159.5 163.5 167.1 171.6 178.3 186.2 198.2 210.4 225.1 240.9 254.2 265.8 284.7 310.7 327.1 333.8 328.8 326.1 326.4 324.9 323.6 322.4 324 331.2 337.4 344.8 351.8 358.9 365.9 372.7 379.1 385.2 392 398.9 405.9 413.6 420.6 428.5
103.4 103.5 103.7 103.8 103.7 102.9 102.4 101.3 101.7 107.8 108.5 109.1 109.7 111.4 111.9 112.7 114.9 116.4 117.4 118.9 120.6 122.4 124.1 125.5 125.9 127.5 129.4 130.2 131.6 132.2 132.8 134.2 135.1 136.3 137.2 137.7 138.6 139.2 139.6 139.3 141.3 142.2 146.6 149.6 150.3 149.6 147 144.8 145 145.3 146.4 152.3 151.1 151.1 150.9 151.1 147.6 150.8 153.7 157.5 161 164.5 166.5 167.9 165 169.2 169.4 169 168.4 167 166.6 166.1 164.7 166.4 166.9 165.9 163.4 159.3 154.6 156.1 159.4 166.3 168.1 167.3 166.1 169.5 176.8 181.7 180.7 179.5 140.1 144.3 163.3 168.5 170.2 167.9 170.2 173.6 173.9 173 171.7 170.4 169.1 168.8 169.9 170.6 171.2 170.7 171.3 173.4 177.1 181.1 187.7 200 209.3 216 226.1 239.7 253 255.3 262 266.9 270.5 276 279.7 284.9 290 290.7 288.1 290.9 292.6 273.2 244.6 222.8 211.1 206.5 205.8 208.7 210.5 218.5 223.5 224.1 217.6 206.8 196.6 190.5 185.3 180.5 175.9 169.1 165.8 161.1 154.7 146.3 142.4 139.3 139.1 138.1 135.6 141.1 152.6 158.3 162.7 164.8 167.3 172.4 179.5 188.3 200.9 213.4 228.8 242.8 256.1 268.4 289.5 315.5 329.4 333 329 331.1 330.3 328.6 329.5 328.9 329.1 331.9 337.9 344.9 352.4 359.4 366.5 373.4 379.7 386.4 393.2 399.9 406.4 414.1 420.3 427.2
103.3 103.2 103.4 103.8 103.8 103.3 102.9 102.2 101 101.6 106.9 109.2 109.7 111.4 110.7 112.1 112.7 114.2 117.1 118.7 120.9 122.2 124.3 125.1 125.4 126.8 128.6 129.1 130.3 130.6 132.2 133.4 134.2 135.6 136.7 137.2 137.6 138 138.2 138.9 139.9 140.5 143.2 146.7 149.5 148.8 146.3 141.8 141.1 144.7 146.2 148.2 148.7 148.1 151.3 151.8 146.6 150.9 151.3 155.2 159.8 161.6 160.9 160.5 161.4 162.8 165 165.6 165.1 164.4 164.2 165.8 164.5 159.8 159.3 161 158.8 152.2 143.6 151.3 157.3 163.2 165.4 165.4 164 166.7 173.8 180.6 181 181.2 144.5 137.4 164.6 168.1 171 172.4 173.2 173.5 173.7 173 171.9 170.5 169.3 169.1 170.2 171.2 171.8 171.6 172.5 176 179.7 184.5 192.3 202.9 214.3 224.5 233.4 246.6 258.5 263.8 265.3 268.2 271.8 275.3 277.6 282.1 286 283 282.6 284.8 288.4 278.8 249.9 224.2 211.4 206.1 205.5 209.1 211.6 213.6 220.6 216.4 208.9 200.3 191.3 185.9 179.3 172.5 167.1 162.5 159.2 154.3 142.9 139.3 137.7 137.9 136.5 136.5 142 151.2 153.7 159.6 162.6 165.8 169.1 174.8 181 192.7 203.9 217.1 232 245.5 257 270.6 293.4 316.3 329.7 329.6 324.5 327.8 328.9 328.4 329.8 333.3 334.3 336.4 339.2 344.4 351.6 359 366 372.7 379.6 386.6 393.1 399.8 406.4 413.1 419.4 425.4
103.3 103.2 104.4 104.1 104 104.1 107.9 105.1 107.6 106.7 100.7 107.8 109.6 110.7 110.9 111.6 112.8 114 115.8 117.9 120 121.9 123.8 125 125.1 125.9 127 126.6 128.7 129.6 130.3 130.4 130.9 132.8 133.4 134 136.3 136.2 136.1 137.5 138.4 138.6 140.8 142.9 146.3 146.1 143.1 140.5 140.9 143.6 145.1 146.9 148.1 148.5 146.2 145 145.3 146.9 148 155 156.2 157.9 157.1 157.1 157.8 159.5 161.5 162.5 162.2 162.2 162.7 164.2 165.1 164.4 156.3 148 152.2 149.3 135.9 143.6 152.9 158.7 162.6 161.9 158.8 162.3 170.1 177.3 176.4 176.1 138.3 151 164 167.2 170.5 172.8 173.4 173.4 173.2 172.2 171 170.3 169.2 169.6 171.5 172.7 172.5 172.3 174.1 178 182.8 187.6 194.2 205.5 216.5 229.4 238.8 250.8 262.5 269.7 269.8 277.4 276.8 274.4 275.7 277.7 280.6 277.4 277.7 279.8 284.3 282.4 255.7 227.4 212.7 205.1 203.8 206.8 207.3 208.5 211.5 211.1 205.2 197.5 191.3 185.1 167 165.3 161.3 157.4 153.4 141.6 137.7 137 137 136.9 136 139.2 150 154.1 159 161.8 164.1 168.1 174.2 178.8 185.5 195.5 207.2 224.1 234 247.6 258.2 273.1 295 315.8 332.1 326.2 319.3 321 325.4 327 329.3 334 339.8 340.8 343.8 345.2 350.5 358 365 371.4 378.8 385.6 392.2 399 405.5 411.4 416.9 422.3
103.4 104.3 104.2 104.4 104.3 104.6 108.6 106.1 106.9 107.2 108.1 100.6 101.6 106.3 113.4 111.4 113.3 114.7 116.5 118.5 120.7 122.8 123.4 124.5 124.7 125.1 125.3 125.5 127 127.2 127.7 128.1 128.4 129.6 130.9 131.4 132.9 134 134.3 136 136.5 137.5 138.6 141.5 142.7 142.2 139.8 138.7 139.1 142.5 144 145.2 146 146.5 145.7 144 144.1 145 147.3 150.9 152.4 153.1 154.1 154.4 154.2 155.6 156.7 159.3 160.4 160.8 160.4 162.4 164.9 164 161.5 156.4 144.2 149.3 129.3 143.3 152.1 153.6 159.1 156.7 154.3 159 165.9 174.4 165.1 156 133.7 155.6 161.9 166.9 171.1 174.4 173.1 173.1 172.7 171.4 169.7 169.7 170.3 171.3 174.3 174 173.3 173.8 175.5 180.8 183.5 190.9 199.1 206.4 218.2 231.9 243 253.5 264.7 273.7 275.5 275.1 274.8 274.9 273.2 273.2 275.1 272.8 271.5 274.6 278.9 279 260.5 232.1 213.9 205.9 203.9 203.5 202.6 202.9 204.1 202.6 197.4 194.5 191.5 183.2 174.2 164.4 158.3 153.7 141.5 138.6 136.8 137.7 138 138.5 142.4 150.9 153.8 156.1 161.7 162.2 163.3 167.5 174.8 178.7 190.9 198.6 210.1 222.9 236.3 247.2 258.8 272.4 294.3 317.8 330.9 322.6 314.2 313.7 317.2 325 328.8 334.3 341 346.9 348.3 350.2 352.4 356.5 362.6 369.4 376.9 384.2 391 397.1 402.8 408.2 413.2 418.2
104.3 105 105.1 105.3 105.1 109.4 105.9 105.9 106.8 107.7 108.4 108.3 101.8 103.2 109 110.8 112.9 115.3 117.4 120 122.1 122.6 123.4 123.5 124.1 123.7 124.1 124.9 125.1 126.4 126.3 127.5 128.1 129 130.5 131.3 131.3 132.1 131.6 133.4 134.9 136.7 137.6 138.7 139 138.7 138.3 137.8 137.6 139.8 140.9 142.7 143.7 145.6 145.7 144.5 140.3 143.1 145.9 147.6 148.5 148.9 149.6 152.5 152.9 153 153.4 155.2 157.6 158.9 159.2 161 163.2 163.3 161 156.6 140.4 147.8 128 142 146.9 150.6 153.9 146 148.1 154.1 161.8 157.5 139.4 138.7 155 160.2 163.5 168.7 172.9 173.8 173.3 173.4 172.9 171 169.8 169.8 171.9 173.6 178.1 177.7 177.3 180 177.4 185.4 188.5 191.9 201.9 213 219.7 233.1 246 255.5 265.4 274.2 281.5 278.5 275.9 274.3 270.5 269.7 271.1 269.7 267.9 268.8 273.9 274.7 263.5 237.4 216.2 208.8 205.6 204.3 203.4 202 203.2 206.1 208.8 196.7 194.7 186.9 173.9 164.2 157.3 146 141.4 138.7 137 136.5 141.8 147.8 156.5 160.1 158.1 160.3 162.2 162.4 162.7 170.8 175.8 187.4 196.6 203.6 212.3 224.1 234.8 246.4 258.6 271.5 291.4 312.4 328.9 319.9 310.9 307.7 309.3 315.3 326.4 332.5 338.9 346 349.6 351.7 355.8 358.8 361.7 367.7 375.2 382.2 388.5 394.1 399 403.5 407.8 412.4
104.2 104.8 105 105.4 108.7 107.3 106.1 106.9 107.4 108 108.3 109.5 111.4 104.2 105.4 113.1 112.4 117 118.4 120.5 121.8 122.6 122.7 122.8 123.9 123.1 123.2 124.1 124.3 124.9 126 127.1 128.2 129.3 129.7 129.4 129.7 130.9 132 133 133.2 134.5 136 136.7 137 137.7 137.4 136.3 135.2 137.1 138 138.1 142.7 144 144.3 143.3 137.3 141.7 143.5 145 145.3 145.9 147.8 149.6 149.6 150.2 150.9 153.8 156.8 158.1 158.9 160 160.6 163.2 162.2 157.3 134.5 139 137.2 134.2 139.2 147.1 141.6 141.4 143.3 146.3 159.4 134 142.1 155.3 159.7 160.1 165.1 169.9 173.3 172.2 173.1 173 172.5 171 170.2 170.4 172.3 173.7 181.1 182.7 184.3 187 181.1 188.8 194.5 193.4 203.8 216.8 226.2 234.7 244.6 255.8 265.9 273.9 282.2 282.4 275.9 272.4 267.2 266.6 267.9 265.1 263.3 264.5 268.9 270.3 267.1 242.2 221.4 211 206.3 205.5 205.3 205.3 205.3 208.4 209.4 205.8 198.7 185 173.9 161.5 152.4 146.5 140.1 138.7 137.5 139.4 144.6 151.1 153.3 168 169.5 164.7 164.4 164 165.3 176 186.2 190.1 202.5 208.5 214 221.8 230.5 244.6 257.9 268.9 287.7 305.2 324.5 316 306.4 302.2 302.6 308.4 314.5 320.6 328.5 335.1 341.3 348.7 354.6 359.6 360.1 366.1 373.2 379.5 385.1 389.8 394.1 398 402.2 406.6
104.2 105 105.2 108.1 106.2 106.1 106.1 106.4 107.7 107.9 107.9 107.8 108.3 108.1 105 107.1 113.7 116.6 117.9 120.1 121 121.7 122.2 122.5 123.2 123.3 122.7 123.2 123.7 124.7 125.7 126.6 127.1 128.2 128.7 128.5 128.7 129.3 130.7 132.1 132.7 133.3 134.1 134.6 135.4 136.9 136.1 134.3 131.5 134.9 135.5 139 139.4 140.5 141.3 141.5 136.2 140.2 141.4 142.8 143.2 144.5 146.3 147.4 147.6 149 150.5 153.7 156.2 157.2 158.5 159.6 160.7 161.7 159.9 149 132.4 137.2 123.8 127.6 133.7 140.7 141.3 134 137.1 143.9 156.2 128.7 144.2 160 157.8 160.6 165.4 170 171 170.5 171.5 171.9 171.5 170.5 170.2 171 173 178.4 183.9 185.2 186.1 190.3 185.3 189.9 196.8 200.4 205.6 217.7 228 235.4 244.6 255.2 262.2 271.6 281.1 282.2 272.3 268.4 264.3 263.8 264.3 260.8 259 259.7 264.6 266.1 264.4 245.6 224.7 213.7 207.6 207.5 207.6 207.7 207.7 209.1 209.6 207.2 201.9 189.6 172.8 160.7 149.3 142.7 138.4 138.5 137 137.8 146.5 152.7 162.7 169.2 172.9 172.4 172.9 175.3 180.1 187.1 192.2 194.3 202.6 208.4 215.5 220.4 228.8 241.2 256.1 265.4 275.5 291.7 311.4 308.7 300.2 295.8 298.5 302.4 307.6 314 320.3 327.4 334.4 342.4 348 353.5 359 364.5 370 376.2 381.3 385.1 388 392.3 396.5 400.9
105 105.6 107.9 106.2 106.1 106 106.4 107.3 107.9 107.8 107.4 107.7 107.6 108 108.2 107 108.6 115.4 117.6 118.6 119.9 121.7 122.7 122.9 122.2 122 122.4 122.7 123.3 124.4 125.4 126.3 127.2 127 127.5 127.4 128.3 128.5 128.9 130.3 131.8 132.1 132.5 132.7 134.2 135.8 135.2 134 126.8 132 133.7 135.8 136.2 137.7 139.4 139.2 136.6 139.6 140.5 142.6 143 144.5 145.8 146.4 147.1 149.1 150.3 153.1 154.3 156.1 157.5 159 159.9 161 149.4 132.7 118.1 116.4 123.9 122.9 122.8 123.1 123.3 126.4 130.2 130.9 134.8 133.9 149.1 156.6 157.1 160.8 165.1 168.5 169.3 169.3 170.5 170.8 170.5 170.4 168.9 171.2 174.7 178.9 183.5 184.6 187.6 190.2 193.2 191.3 197.8 201.1 206.5 216.5 226.7 234.8 243.1 251.8 258.9 268.8 277.6 283 268.4 264.2 260.3 260.1 261.7 257.7 254.2 254.4 258.9 262.1 262.7 249.9 227.9 216.3 210.6 210.2 211.1 209.5 209.9 209.8 209.1 207.7 202.3 192.7 171.8 152.2 147.1 141.7 138.6 138 136.7 140.4 148 151.3 160.4 166.7 172.1 174.4 176.3 178.2 183.3 188.2 192.5 195.8 202.2 207.5 213.4 221.4 223.4 237.7 251.9 261.6 264.7 272 280.1 294.9 289 283.9 294 298.4 303.9 309.6 316.3 324.6 333 340 346.4 351.6 356.9 362 367.1 372.5 376.7 379.3 382.6 386.8 391.1 395.2
105.1 107.4 102.6 103.1 105.7 105.7 106.4 107.5 107.8 107.8 107.7 108.2 107.7 108.2 108.6 109.5 108.4 110.4 117.6 118.3 120.4 122.5 123 122.7 121.3 122.5 122.8 122.3 122.7 123.3 124.4 125.5 125.4 125.8 126.2 126.8 127.6 128 128.3 129.4 130.1 130.5 131.2 131.3 131.9 133 133.4 133.2 130 129.4 131 132.1 133.8 136.6 137.4 135.6 133.4 137.6 139.2 141 142.5 143.4 145 145.7 147.3 148.7 149.9 151.7 152.9 153.9 157.3 158.4 159.4 155.9 146.5 115.2 125 123 135.5 136.5 134.9 129.5 123.6 128.9 130.8 129.7 126.4 135.5 137.7 149.5 157 162 167.1 169.1 168.5 169.2 170.1 170.1 169.8 170.1 169 171.8 176.5 180.5 183.8 184.4 188 192.8 195 195.5 197.6 202.2 204.9 215.2 224.4 233.5 240.6 248.4 254.9 264.9 273.6 279.5 264.9 260 256 255.8 258.8 254.9 249.1 249.1 253.8 256.8 258.1 254.2 233 219.1 213.5 217.3 215.2 214.4 212.1 209.9 208 206.4 202.1 188.7 170.9 153.4 149.6 142.9 137.7 137.7 136.8 143.1 147.5 154.1 159.7 164 170.8 172 173.5 176.9 181.3 185.7 189.6 194.9 199.8 205.9 210.7 215 222.5 235.4 247.1 254.3 255.8 259.1 266.2 274.4 274.8 275.1 285.4 297.2 304.1 310.2 318.2 325.6 333.3 339.8 345.4 349.8 355.3 359.6 364.4 368.3 372 373.5 377.7 381.8 385.7 389.3
106.6 103.3 102.9 103.1 105.7 105 106.5 107.4 107.2 107.3 107.6 107.8 107.8 107.8 108.1 111.2 111.2 109.7 117.6 118.6 121.8 121.9 122.1 121.4 123 123.6 123.5 122.6 122.3 122.8 123.2 124.2 124.2 124.2 124.8 126.4 127.5 127.5 127 128.3 128.9 129.3 129.5 129.6 130.5 131 132.4 132.4 132.9 124.1 128.6 129.7 131.7 133.6 133.7 133.8 134.6 136.3 137.9 138.4 140.3 142.2 143.8 145.3 146.4 147.4 148 148.6 150.4 143.3 153.5 151.3 154.1 154.6 149.9 122 125.5 126.6 141 142.4 144.7 142.7 139.8 139.3 138.7 142.9 148.3 152.9 152.3 153.9 156.7 162.3 166.2 166.8 166.9 167.9 166.8 166.9 168.8 170 170.3 172.7 175.9 179 182.6 182.1 186 189.2 191.3 194.2 198.5 202.6 206.6 212.3 223.1 231.8 238.5 245.6 252.8 260.6 268.8 273.5 260.7 254 250.4 249.9 254.5 251.6 243.7 244.3 247.7 251.7 254.3 255.3 235 223.4 221.1 218 217.6 217.9 214.8 210.8 205.2 204.4 200.2 177.3 166.8 154.2 144.3 132.6 136.7 136.8 134.9 141.2 144.9 152 157.6 160.9 170.5 167.6 169 174.1 177.4 181.9 186.2 191 195.4 203.8 208.3 218.6 221.5 230.4 239.2 244.2 243 245.2 248.1 250.9 249.7 268.8 282.9 297.2 304.5 311.5 319.3 326.6 334 340.6 345.5 350.2 354.1 358 362 365.2 367.3 368.7 373 376.7 380.5 383.7
103.2 103.7 103 103 103.1 105.1 105.9 106.1 106.5 106.9 107.2 107.3 107.8 107.6 107.7 109.9 110.3 110.1 110.6 117.8 119.2 120.8 120.7 122.4 123.1 123.5 123.5 123.4 122.9 122.4 122.6 122.9 122.4 122.2 124.1 125.9 127.1 126.6 126.4 127.5 127.2 127.8 127.5 127.8 128.9 129.8 131.2 131.2 130.8 126.3 127 128 129.6 130 130.7 132.5 134 135.5 136.8 137 138.4 139.8 141.6 143.2 145.1 145.9 145.3 143.9 145.6 140.7 150.3 151.8 151.5 152.5 150.7 123.1 120.8 126.2 141.8 144 144.6 145.9 146.4 146.5 146.6 147 149.2 152.7 152.8 153.6 157.1 161.5 162.9 163.9 164.3 163.7 167.6 169.3 169.8 170.4 172 173.4 173.9 177.5 178.5 180.4 182.8 183.6 190.1 194.3 197.6 201.3 205.8 210.7 221.5 229.5 236.6 243.1 250 256.7 264.2 267 256.7 250 247.8 244.5 249.8 249.1 242.4 242 244.3 247.4 250.2 253.8 237.1 225.1 218 217.5 217 216.2 212.2 209.6 203.8 202.8 196.5 173.5 164.1 149.9 136.4 136.5 136.6 135.3 134.6 139 145 149.6 154.8 157.8 162.1 162.1 164.4 168.5 171.8 177.1 181 187.6 192.6 202.2 205.1 211.4 217.7 225.4 231.1 232 231.9 235 234.1 245.4 259.9 277.9 291.1 299.8 306.4 312.5 320.1 327.5 334 340.3 345.4 349.9 353.5 356.9 359.7 362.6 365 366.4 369 372.4 374.9 377.1
103.5 104.1 103.9 103.7 104.6 104.9 105.5 105.6 105.4 106.9 107.2 107.6 107.8 107.7 107.4 108.8 110.2 111.5 110.2 118.4 118.2 118.1 119.9 121.4 122.3 123 123.5 123.6 123.1 121.8 121.9 121.2 121.8 122.6 124.7 125.8 126 125.7 125.5 124.4 126.6 126 125.5 125.8 127 128 130.6 129.2 129.3 126.4 126.6 126.6 127.4 128.3 134.5 139.2 137.7 136.6 136.2 136.8 137.2 138.5 140 142 143.9 144.1 143 142 144.6 134.8 142.4 144.6 144.8 147.1 133.5 119.4 120.1 132.1 140.5 142.8 144.3 147.4 151.2 149.3 147.3 146.7 141.9 143.1 144.9 150.1 151 157.2 155.4 154.4 162.8 164.5 167.1 168.6 170.1 171.3 172.6 173 174.1 174.8 175.7 178.4 180.6 184.8 189.3 193.4 196.6 201.4 206.5 210 219.3 227.3 234.4 240.7 247.8 252 259.1 260.8 252.1 246 242.7 240.7 244.4 244.8 239.5 237.2 238.4 243.7 247.7 251.3 239.2 222.7 212.2 212.8 212.6 213.1 212 208.2 204 202 193.5 179.5 160.6 154.1 132.4 134.5 134.1 133.9 131.9 137.4 144.2 150.4 153.8 157.7 162 161.1 162.4 165.2 168.1 171 176.3 182.7 188.5 194.3 199.7 206.5 213.7 219.8 222.4 219.9 220.4 228.8 239.6 254.6 270.7 283.5 294.3 303 310 316.2 321.8 328.5 334.6 341.1 345.8 349 352.3 355.1 357.7 359.3 360.8 362.9 365.5 368 369.1 371.5
104.2 104.7 104.8 104.7 105 105.2 105.5 105.3 105.5 106.6 107.3 107.8 107.9 107.8 107.4 109.2 110.8 113.9 116.4 111.4 119.3 117 119.5 120.2 120.9 122.9 122.9 122.8 122.5 121.8 121 121.8 123 123.8 125.4 125.3 125 124.8 124.2 122.3 123 124.1 124.1 124 125.7 126.2 127.7 127.5 126.6 124.8 123.8 124.9 126.7 134.5 136.8 141.2 137.4 136.9 136.3 137.6 138.2 138.3 138.7 140.6 142.1 143.6 145.2 147.2 148.5 140.3 128.1 135.2 138.2 140.4 127.5 111.3 126.2 141 140.1 140.8 143 144.8 147.5 149.9 148.1 149.3 155.3 158.1 158.2 154.1 157 157.6 160.8 163 163.8 165.2 166.6 168.2 169.8 171.4 172.6 172.8 172.5 172.1 176 179.1 182.4 184 185.1 190.8 197.1 198.1 205.9 211.9 217.4 224.8 229.8 238.5 245.2 251.2 255.5 254.6 247.5 241.9 240.4 235.4 239.7 240.5 236.8 231.4 238.6 241.2 244.4 248.3 237.2 222.2 210.1 208 205 208.7 208.7 207.5 203.8 200.3 194.2 180.9 159.8 151.1 142.5 135.3 133.8 134.4 131.8 136.3 142.8 151.2 154 157.5 163.4 160.1 160.9 162.8 165.2 168.6 173.5 178.6 184.1 188.4 194.5 201.9 208 212.3 211.6 207.1 219.7 227.7 242.4 261.2 276.2 288.9 297.6 305.5 312.7 318.7 323.9 329.8 335.8 342 346.9 350 351.5 353.3 355.6 357.1 358.6 360.7 362.5 363.5 363.8 364.6
104.7 105 105.1 105 105 104.6 105.5 105.5 106 106.3 107.5 107.8 107.9 107.8 107.7 110 112.3 112.9 113.2 111.1 114.5 118.5 118.8 119.4 120.1 121.7 122.2 122.3 122 122 121.6 121.9 123.3 123.7 124.5 124.6 124.5 124.3 123.5 122 122.1 122.9 123.9 124.4 124.3 125.8 126.2 125.6 124.7 123.5 121.6 123.9 126.7 129.6 131.3 135.7 137.2 135.6 135.7 140.5 139.3 139.1 139.8 141.6 142.3 142.7 144.9 146.5 144.3 134.2 125.9 121.2 124.9 119.4 110.5 122.8 138.7 141.7 139.3 140.9 142.6 144.9 145.2 148.2 147.9 151.2 158.8 160.6 161 158.4 159.2 158.6 160.8 161.2 163.3 165.4 167.2 168.1 169.8 171.3 172.2 171.9 171 170.6 174.6 177.1 181.4 185.2 188.6 192.3 196.2 200.1 205.1 211.5 216.1 223.1 227.6 235.9 244.3 249 251.7 249.9 241.7 236.7 232.1 230.2 234.4 235.1 233.2 230.4 235.1 239 242.5 245.4 236.7 226.9 210.2 206.2 203.2 207.3 207 204.1 203.2 198.7 196.2 177.7 161.1 153.3 147.9 139.8 134.7 134.3 130.1 133.9 141.1 149.5 151.9 155.5 158.8 158.1 158.5 161 164.2 166.4 170.9 176.3 180.5 185.1 190.6 195.7 201.8 206 205.6 213.1 220.7 228.9 245.6 264.4 280.2 293.6 302.3 309.4 315 320.7 326.5 332.2 337 342.4 348 350.9 351.9 352.8 353.8 355.3 356.7 358.3 359.5 358.8 357.1 357.2
104.9 105.2 105 105 104.6 104.2 104.4 105.6 105.7 106.2 107.2 107.5 107.7 107.8 108.3 110.4 111.9 113 113.5 116.6 112.2 117.6 118.3 119 119.5 120.5 120.7 121.4 121.8 121.7 121.2 122.4 123.3 123.5 123.7 123.9 124 123.3 122.7 122 121.6 124 124.3 124.6 124.8 124.9 124.4 123.7 123.1 122.4 119.1 123.2 117.3 128.9 134.9 134.4 134.8 133.8 136.7 140.7 139.1 139.4 139.9 141.7 141.9 141.8 143 144.8 141.3 130.4 123.5 115.3 113.4 109.5 122.9 135.1 141.1 139 138.1 138.5 139 142.2 145.2 146.7 147.5 152.6 158.1 159 161.4 161.1 159.4 157.5 158.6 159.7 163.1 165.4 166.9 167.7 168.3 167.2 165.7 171.7 171.9 173.2 175.4 177.8 181.9 185.1 188.6 192.8 196.2 197.9 203.5 211.3 215.9 218.4 227.9 234 241.6 247.3 247.2 245.1 236.9 231.5 226.4 225.7 228.7 231.8 232.4 225.6 232.4 237.7 241.2 245 242.9 222.7 209.1 198.3 197.4 205.9 205.7 202.9 198.2 196.5 190.8 178 165.1 153.2 145.2 140.8 134.9 131.3 131.6 133.5 138.7 146.7 149 151.7 153.8 155.1 155.6 155.4 159.9 165.2 168.4 172.7 173.9 180.8 187.4 189 189.3 193 206.3 214.7 223.5 233.7 248.3 272.3 286.7 298.2 306.7 313 318.3 323.9 329.4 334.6 338.7 343.5 348.3 352.3 353.5 351.8 352.2 353.3 354.6 355.6 355.7 353.1 350.6 349.3
105.5 105.5 104.8 104.3 103.8 103.5 102.7 104.4 105 106.1 106.5 107.4 107.5 107.9 109 110.7 112.3 113 113.6 113.9 112.2 117.7 118.2 118.7 118.5 120.1 120.4 120.8 121.7 122.4 123.4 123.5 123.3 123.4 123 122.9 122.9 123.1 122.8 122 121.9 122.8 124.2 124.7 124.5 124.2 122.9 122 121.6 122.6 121.3 123.6 122.8 132.6 135.6 133.4 132.6 132.9 135.8 140.4 141.8 139.5 140.5 141.2 141.6 141.6 141.6 141.8 140.4 128.6 117.1 110.8 109.1 118.9 134.5 138.1 135.8 131.4 136.6 138.7 139.2 141.1 144.4 144.7 146.2 150.1 153.3 157.9 161.8 163.7 160.1 155.6 157.4 158.9 162.3 164 165.1 165.7 166.1 169.2 170.4 172.2 173 174 175.7 178.4 181.7 182.7 187.9 193.5 195.6 197.3 202.1 206.4 211.4 218.3 226.2 233.3 239.4 245.8 242.3 238.9 232 227.6 221.1 220.1 223.8 229.9 226.1 226.5 232.8 237.1 240.1 243.8 246.5 231 209.4 198.7 192.9 200.6 202.4 198.6 191.5 184.3 180.7 170.8 157.5 152.1 145.4 137.7 133 132.9 133.2 134.5 136 138.2 140.9 143.6 146 147.9 151.9 156.3 159.9 162.3 165.8 168.5 172 175.6 178.6 186.7 192.9 200.5 209.7 217.1 228.2 240.6 259.6 281 291.7 303.4 311.6 316.7 321.6 326.9 332.2 336.9 340.4 344.9 349.8 354.8 352.9 350.7 350.8 351.4 352.1 352.4 350.2 347.2 342.9 339.7
105.5 105.4 104.2 103.7 103.7 103.4 103.4 103.5 104.6 106.2 106.9 107.1 107.1 108 108.5 109.3 112.5 113.3 113.9 112.6 114.1 113.2 116.1 117.2 118 119.8 119.8 121 120.9 121.5 122.9 123.8 123.7 122.5 122.6 122.7 122.6 123 123.1 121.7 121 122.2 122.6 123.5 123.8 122.7 121.2 120.6 121.8 123 123.7 124.1 124 134.8 128.9 129.5 132.2 135.4 136.7 139.5 140.3 139.1 140.3 141.1 141.1 141.2 140.2 137.2 136.7 124.9 107.2 108.2 114.3 117.8 136.1 136.2 125.5 130.4 134.4 137.1 139.1 143.4 143.6 144.9 147.3 151.1 154.2 160.5 162.8 160.4 157.2 154.5 154.6 154.7 154.7 156.6 156.8 160.3 166.8 168.8 170.1 171.3 172.6 174.3 176.4 178.4 180.9 183.3 184.6 190.5 192.3 195.8 200 204.3 211.4 219.8 226.8 230.6 238.2 242.8 236.8 233 228.9 225.7 216.5 214.2 220.6 219.4 217.8 226.8 232.5 236.3 239.6 244.4 249.6 240 214.9 201.5 191.9 191.9 197.2 191.1 188.7 177 172.9 163.8 154 151.4 143.6 136.8 132.4 132.8 136.2 136.8 138.9 142.4 146.5 144 144.7 147.1 151 156.2 165.4 168 174.9 182.2 183.4 187.3 187.9 193 202.5 208.4 215.4 222.6 234.2 248.6 271.1 291.1 302.9 309.4 315.4 320.1 324.4 329.3 334.8 339.5 342.6 347.7 353.5 354.5 351.7 350.1 350 348.4 348 347.4 344.5 339.7 333.2 329.5
105.2 104.7 104.1 103.4 102.6 102.6 102.7 102.8 103.3 105.5 106.5 106.6 107 107.6 108.1 108.9 111.7 112.3 111.8 112.4 114.4 113.3 115.9 116.9 118 118.5 118.9 119.3 120.3 120.6 121.4 122 121.7 121.7 122 122.6 122.4 122.9 123.3 122.2 120.9 121.4 122.3 122.3 122.1 121.1 120 120.4 121.9 122.9 123.5 122.9 129.5 132 129.3 129.6 132 134.8 137.5 136.9 137.8 138.6 138.8 139.5 139.8 138.4 137.9 136.9 131.1 114.5 107.2 111 112.8 115.8 123.2 125 135.4 135.4 139.4 136.4 139 143.7 146.6 148.4 149.5 152.2 156.4 160.8 162.1 157.7 153.6 150.5 146.2 155.4 158.5 161.1 163.4 164.8 166.5 167.6 169.5 170.9 172.9 173.7 175.2 177.2 179.6 182.2 185.1 187.5 189.9 193.3 197.1 201.3 208.9 217.7 226.2 229.5 235.1 237.8 233.6 229.7 223.2 221.9 213.8 209.2 209.1 217.9 220.9 224.7 230 234.3 239.6 244.2 250.7 249 225.3 206.4 195.1 188.1 188.2 187.6 184.4 178.5 170.1 165.7 161 148.2 145.3 133.9 133.1 133.4 135.1 137.4 140 142.5 149 153.2 154.9 155.1 151.6 157 167.9 172.2 180 186.7 187.8 192.2 199.4 205.1 214 219.3 223.5 229.7 241 257.7 284.2 301.1 311.9 317.2 320.2 322.5 326.1 329.4 336.5 342.4 345.7 350.6 354.8 355.1 347.8 348.5 348.8 345.9 341.7 340.2 336.7 329.3 321.3 334.3
103.9 103.7 103.7 103.4 102.5 102.4 102.3 102.9 103.8 103.4 105.3 106.1 106.7 107.2 108.3 109.2 111.1 111 111.5 111.7 111.7 113.3 117.2 116.6 117.1 117.7 118.3 118.4 118.3 118.1 118.7 119.8 120.6 121.5 122.3 122.6 122.1 122.2 122.2 121.6 121.2 121.8 122.2 122.4 121.3 120.1 120.2 120.5 121.6 123.3 124 122.8 128.5 128.3 129.2 129.3 133.3 134.9 136.1 134.5 135.5 135.6 136.7 137.2 137.7 134.7 136.3 135.8 131.2 110.9 109 111.3 112.5 132.4 132.5 135.7 136.6 136 136 136.2 137.4 141.9 147.4 150.3 151 151.5 154.8 158.2 157.3 152.8 150.2 141.2 151.3 154.7 157.4 160.4 162.4 163.5 165.2 167.2 169.1 170.8 172.4 173.4 174.1 176.2 178.6 181 183.6 186.3 187.4 189.4 194.1 198.7 203.9 214.2 223.7 226.7 231.3 233.1 229.3 227.1 220.9 218.4 209.9 206.3 218.3 225 229.5 232.7 232.3 237 239.3 245.6 252.7 254.8 237 213.5 202.4 194.2 185.4 180.7 178.5 176.4 170.5 167.4 165.7 148.4 145.3 134.3 132.6 132.6 134.1 135.8 140 141.2 146.2 155.2 157 159.8 149 155.6 166.9 173.7 181.4 186.1 195.9 203.1 207.3 212.8 219.3 224 228.6 237.4 249 267.1 295.3 311.5 320.5 323.7 325.3 325.7 327.6 331.4 338.7 343.3 341.2 350.9 354 349.4 342 331.5 346.8 346.2 341.2 333.9 325.1 311.3 330.1 338
103.3 103.7 103.3 102.9 102.8 102.5 103 103.3 102.5 102.5 104.2 105.5 106.2 107.1 108.6 108.8 108.9 110.2 110.6 110.8 111 115.9 113.6 115.2 114.9 115.8 116.7 117.3 117.4 117.3 119.4 120.4 121.1 122.3 123.8 122.5 119.2 120.9 120.4 120.5 121.4 122 122.4 122.3 121.5 120.3 120.5 121.1 122.7 124.1 124.3 124.2 126 128.4 129 129.4 133.5 134.1 132.2 133.3 133.4 134.4 135 135.6 133.5 133.4 133.1 130.4 120.2 108.6 108.9 110.4 122.2 131 133 135.5 134.2 135.4 136.2 136.6 138.1 142.7 146.3 149 150.1 151.2 153.2 154.7 151 148.5 147.9 141.2 148.5 152.5 155.7 159.1 160.2 161.8 163.5 165.6 167.1 169.8 170.6 172.7 173.9 175.5 176.8 178.8 181.5 182.1 187.3 190.9 193.9 197.7 202.9 211 222.6 225.5 225.7 227.4 223.7 220.4 217.7 213.8 210 205.6 215.6 219.6 227.1 232.7 238.5 240.5 242.8 247 254.3 258.3 253.2 229.2 211.6 201.4 193.4 184.2 180 177.4 174 166.9 160.4 150.1 144.8 134.8 132.5 132.6 134.2 133.5 139.3 139.8 147.6 156 157.9 161.2 155.2 158.4 168.8 174.6 181.1 189.5 201.8 212.4 214.4 216.4 221.4 227 232.2 241.9 255.5 278.4 304.5 320.7 328 328.9 328.9 332.8 329.7 304.3 317.3 341.9 339.6 350.5 343.3 338.9 330.3 317.6 331 343.6 337.8 329.1 315.5 320.3 332.3 339.6
103.4 103.3 103.2 103.2 103.1 103 102.2 101.7 101.5 102.7 104.4 106.2 106.5 107.2 108.3 108.2 108.9 109.2 109.4 109.9 111.2 112.1 113.8 111.1 112.8 114.6 114.5 116.2 117.5 120.8 121.3 121.3 122.4 123.1 122.7 118.7 120.4 120.5 119.9 121 120.4 121.6 122 122.2 121.7 121 121.5 121.7 122.8 123.8 123.9 125.2 128.1 129.2 129.2 129.4 130.3 130.9 130.6 132.1 132.4 133.8 134.1 134.2 133 132.1 127.5 123 115.6 108.7 105.1 112.4 124.7 129.7 130.3 132.1 134.1 134.9 135.3 136 137.1 142 144 145 146.7 148.8 149.8 150.3 146.4 144.6 141.5 145.8 147.7 150.3 153.2 155.5 151.8 158.7 163.3 165.3 167.5 169.8 172.1 173.6 174.6 175 173.1 174.1 178.9 183.4 186.4 189.3 193.1 197.4 200.8 207.8 219.2 222.3 221.8 219.4 214.8 212.2 213 212.3 202.3 206.3 212.3 220.3 228.2 236.2 239.9 241.5 244.6 248.1 254.8 258.9 263.1 250.2 229.5 213.5 205.4 197.4 188.4 180.7 176.5 172.6 159.6 152.6 145.9 137.6 132.9 129.3 133.2 132.7 136.8 139.9 146.9 153.8 157.9 160.1 164.6 154.2 170.5 176.9 184.3 193.9 204.9 210.4 214.4 216.3 222.2 228.5 234.8 244.6 259.9 286.3 311.5 330.4 333.6 325.5 316.3 300.6 301.4 300.6 305.7 336.3 336.1 344.5 335.2 328.3 317.8 317.7 329.9 342.2 335.1 321.9 304.9 321.3 332.5 339.5
103.4 103.8 103.2 103.3 103.5 102.5 101.4 101.4 101.5 102.7 105.2 107.1 107.7 107.8 107.8 107.8 107.2 108 108.4 110.2 110.6 111 113.9 117.4 111.4 112.5 115.2 118.5 120.3 121.1 121.3 121.3 121.6 120.7 121 119.9 117.3 120.9 120.6 120.3 120.7 121 121.6 121.3 120.5 121 120.7 122.3 123.9 124.4 125.9 126.6 129.1 128.8 127.2 129.4 129.8 126.3 128.6 130 131.1 132.5 132.6 132.8 131.2 129.7 114.5 113.4 109.9 106.3 103.4 109.1 127.4 131.1 131.9 133.5 135.3 136.1 135.8 136.6 137.7 142 143.2 143.3 144.1 146.4 146.6 144.6 140.3 141.8 142.2 143.8 147.3 148.5 146.1 154.5 157.5 160.6 162.6 165.3 167.7 170.3 172.2 173.1 174.1 173.7 172.6 177.2 179.9 180.3 184.6 189.3 192.5 195 197.7 204.8 214.4 215.5 214 210 206.6 207.2 207.2 204.2 198 208.5 214.6 220.5 227.7 233.6 240.4 245.1 248.6 250.4 255.4 259.8 264.4 265.3 251.2 228.5 215.6 205.7 193.3 183.1 180.5 173.2 162.2 154.8 141.2 137 132.3 131.9 131.9 129 137.1 140 148.8 152.5 159.1 163.2 166.2 155.3 170 177.2 186.1 195.7 201 206.1 212.8 216.9 221.4 228 235.4 245.7 262 288.6 314.7 334.4 340 326.3 306.3 301 300 300.1 304.6 336.8 340.5 341.4 327.3 318.6 317.5 317.9 317.6 341.7 328.1 313 295.1 322.8 332.6 339.2
103.3 103.2 103.4 103.8 104 103 101.8 101.7 101.8 102.9 104.7 107 107.7 107.5 106.2 106.6 106.6 106.7 107.5 108.4 109 109 117.2 113.8 111.9 113.7 116.1 119.6 120.4 120.7 120.9 120.4 120.4 119.6 119 119.1 114.2 120 120.5 120.8 121.1 121.1 121.5 120.3 119.6 115.9 118.2 121 124 125.3 126.6 127.8 127.9 127.7 126.6 126.7 126.9 126.4 128.5 128.2 128.4 129.6 131.4 131.4 129.9 127.2 107.4 107.7 105.9 103.3 111.7 122 127.7 130.6 132.8 134.4 136.7 139 139.3 139.8 140 141.2 142.4 141.5 141.1 143.6 143 140.7 137.8 132.3 141.7 144.4 143.6 146.8 151.2 153.7 157 159.9 161.9 163.9 166.8 169.3 171.4 172.7 173.2 168.2 173.3 176.1 173.5 181.5 185.1 188 191.5 193.1 195.5 200.2 208.7 207.2 201.7 200.1 197 199.6 196.6 190 198.2 208.4 216.7 222.2 227.2 234.3 240.6 245.8 250.8 252.6 256.1 261.1 266.6 271.3 264.9 243.1 223.9 214.5 203.5 184 181.5 173.5 166.1 153.5 139.7 136.1 133.3 132.1 132 128.5 136.3 141.6 150.5 153.4 162.3 166 169.1 167.7 155.7 166.5 178.4 179.7 194.7 202.9 210.6 215.7 220.2 226.6 234.8 244 260.1 285 312.8 336.4 343 324.9 302.5 299.2 299 299.6 303.7 337.9 343.2 332.8 316.3 305 308.3 309.3 317.6 336.7 320.4 302.9 303.7 322.8 330.5 337.2
103.5 103.4 103.8 104.1 104.6 103.3 102.4 102 102.4 103.1 104.7 105.9 106.7 105.4 104.5 104.8 105.1 105.6 107 107.1 107.8 107.7 110.3 113.9 118.4 113.5 117.2 119.2 120.1 120.3 119.5 119.8 118.9 119 118.7 118.7 111.3 115 118.1 118.2 117.6 118.9 115.5 112.8 109.8 110.4 117.8 122.4 124.3 127.1 126.6 127.2 127 126.9 126.4 124.6 123.7 126.5 127.7 124.1 127.7 128.1 129.3 128.9 127 111.2 100.5 101.7 110.1 113.7 127.4 129.5 130.4 131.5 133 134.3 136.4 139.1 139.4 139.3 139.3 140.2 139.2 140.2 140.5 141.2 139.2 134.5 131.9 135.7 133.8 137.1 145.1 148.6 151.4 153.5 156.1 158.2 160.1 163.3 165.5 168.4 168.9 170.1 171.6 167.9 167.9 168.8 177.4 180.4 183.7 185.9 187.4 191.1 193 196.1 201.4 196.6 196.2 195.2 189.3 188.7 187.5 191.8 197.9 208.7 216.1 223.7 231.6 234.4 240.2 246 251.2 253.3 257.4 261.4 268.2 271.5 270.1 251.7 230.2 219.3 208.5 191.6 180.7 174.5 166.5 153.3 139.1 136.6 132.5 131.2 131.4 136.2 138.3 141.5 151.9 155.3 164.1 170 172.4 175.2 170.2 162.7 162.7 176.4 166.9 179.6 199 206.6 218.7 223.2 232.4 240 254.2 273.5 300.8 325.8 336.6 325.7 298.6 298.8 302.4 299.1 301.7 338.3 338 324.2 315.9 299.9 301.6 316 317.9 331.8 313.2 288.8 299.4 317.9 327.1 333.8
103.2 103.2 103.8 104.1 104.1 103.1 102.8 102.2 103.4 102.5 103.5 104.4 104 103.7 103.7 103.9 104.5 105.1 105.7 106 107 107.9 110.4 113.7 116.3 115 116.1 118.7 119.1 118.8 118.4 118.1 117.7 117.9 118.6 118.5 117.9 107.5 115 113.2 108.6 110.1 113.6 116.9 121 122.3 123.9 124.3 125.2 126.6 126.2 127.2 126.9 126.8 125.5 123.5 121.9 121.2 122.6 122.2 124.2 124.9 126.4 126.2 122 105.9 111.4 116.6 112.5 122.2 130.1 131.1 131.1 131.3 133 133.5 137.4 138.1 138.2 138.2 138.4 140.1 139.2 137.8 139.8 137.3 130 138.6 140.6 144.8 144.4 145.8 144.2 150.6 147.1 151.8 154 155.7 157.6 162 166.8 167.8 168.4 169 171 171.3 160.8 171.8 169.8 172.4 179.3 188.8 190.3 190.2 190.7 192.2 195.5 195.7 192.7 184.9 184.9 185.3 188.8 192.8 197.7 208.8 217.3 224.5 231.6 235.4 238.6 246.3 252.6 256.3 259.6 261.5 267.2 271.1 271.7 258.6 235.2 221.8 210 197.3 183.9 174.2 168.4 152.4 140.3 133.2 128.9 130.4 127.8 137.8 141.3 141.3 153.8 157.9 165 173 175 177.7 176.3 175.7 181.4 177.9 168.7 176.7 187.4 190.9 209.8 219.4 226.7 237 246.9 259.9 281.6 304.4 318.1 317.5 296.9 299.8 303.3 301.2 304.9 311.9 321.2 312.2 299 301.6 302.3 315.6 325.3 326.1 310.5 285.3 284.7 307.3 321.5 329.5
102.7 102.9 103.2 103.3 103.1 102.8 102.9 102.6 102.6 102.3 102.7 103.5 103.1 103.4 103.3 103.6 104.2 104.6 105.4 105.8 107.3 108.3 110.4 115.2 113 118.9 115.3 116.9 117.3 117.5 116.9 117.2 117 116.7 116.9 117.2 110.9 107.4 107.8 109 111.9 117.4 118.5 120.9 122.3 123.9 125.3 126.2 125.2 124.8 125.5 125.4 124.3 124.4 123.7 122.4 119.7 119.5 121.8 121 119.1 121.8 123.4 121.8 111.7 100.1 116.1 120.9 125.6 128.6 130.1 128.9 129 130 131.3 134.6 137.6 138.4 139.4 140 141 140.3 140.4 139.5 136.9 137.1 131.4 138.8 140.9 145.7 147.9 148.8 149.7 150.2 149.5 151.7 153 154.7 157.6 160.7 163 167.2 167.6 168 169.3 168.9 158.7 168.5 175.5 179.7 185.5 189.9 191 187.4 188 189.5 190.7 190.1 185.2 179 180.1 188.9 191.6 194.8 199.3 209.1 217.5 225.3 231.9 236.6 240.7 247.1 253.7 258.9 260.6 262.3 266.1 268.8 270.8 259.1 239.5 223.2 210.7 199 186.7 178.2 166.7 145 139.3 132.4 129.7 127.8 136.6 134.6 141.2 141.8 156.7 162.1 170.2 174.2 177.7 180.9 182.2 179.9 186.6 194.9 191.8 168 174.3 171.5 192.9 214.2 222.8 229.2 237.6 249 261.7 277.6 294.4 297.1 294.9 306.6 326.2 317 313.1 309.2 308.3 303 316.2 308.1 306.8 325.9 324.5 319 306.9 287.9 268.2 288.7 313.4 323.4
101.9 102.6 102.1 101.9 102.5 102.6 102.7 102.7 102.5 102.7 102.9 103.2 103.3 103.4 103.2 103.2 103.8 105 104.9 107.1 107.8 109.2 111.6 113.1 112.7 120.4 117.6 116.2 116.2 116.2 116.2 116.7 115.4 111.9 115.4 115.3 106.8 114.3 117.1 115.9 117.1 117.8 118.4 119.5 120.4 121.6 123.1 125 124.5 123 124 123.5 122.5 122.7 121.5 120 113.3 121.3 120.8 116.6 112.9 116.3 118.5 112 107.4 109.2 118.2 123.1 125.2 118.6 127.9 128.9 130.7 131.9 133.8 133.5 134.8 136.8 138.9 139.3 140.6 139.5 139 136 125.3 128.1 133.2 141.2 143.5 146 147.7 149.2 150 151 151 151.9 153.2 155.4 157 159.2 160 163.4 167.4 167.6 167.9 167.5 155 171.4 174.9 179.5 184.9 188.8 190.4 184.9 183.6 186.2 186.9 181.4 175.1 177.9 185.2 187.3 190.4 194.5 199.6 206.6 219.1 225.4 231.7 237.3 242 247.9 254.8 260.8 261.8 261.2 262.3 266.5 268.5 261.4 242 223.1 209.6 196.8 185.9 176.3 165.6 145.8 138.7 131.2 130.6 141.1 137.2 133.4 141.1 150.1 157.8 173.6 176.3 175.9 176.8 180.1 181.5 182.7 186.3 193.9 196.5 199.1 194.1 184.5 186.8 215.3 220 224.7 229.2 237.3 245.8 252.5 260 281.9 295.5 300.3 313.8 324.2 317.1 317.2 315 311.4 318.4 320.2 317.5 305.9 293 297.8 294.3 281.1 263 278.3 299.8 312
101.5 102.4 101.8 101 101.3 101.7 102.2 102.7 102.4 102.9 103.3 103.5 103.5 103.5 103.4 103.5 103.5 104.5 107.2 108 108.2 109.3 111.9 114.7 112.3 118.3 115.9 114.5 115.3 115.2 115.8 115.6 108.9 109.1 109.1 109.1 109.1 116.5 116.4 116.4 116.1 116.5 117.3 117.6 117.7 119.1 120.6 122.3 122.6 117.8 121 122 121.1 118.9 118 108.3 113.2 113.6 106.2 104.4 106.9 107.6 107.1 103.7 97 113.1 115.3 114.5 114.8 119.1 118.3 129 125.9 131.3 129.6 124.8 133 136.7 137.6 139 138.7 138 136.5 120.8 131.3 138.3 142.1 142.3 144.1 145.1 146.8 148.5 149.8 152 152.5 153.1 155 156.9 159.1 156.6 159.7 161 160 161.2 160.5 158.2 159.4 170.1 174 178.3 180.9 185.2 190 182.4 179.3 182 180.5 174.9 177.1 184.2 186.2 187.5 190.4 193.5 198.6 208 217.5 225 231.7 238.1 241.9 248.2 254.9 261.1 261 258.9 258.5 263.7 265.5 261.4 242.1 221.9 206.3 194.9 180.8 172 163.4 154.3 136.7 126.6 131.6 137.4 133.8 141 141.4 153.7 162.7 175.7 175.1 172.6 173.8 176.2 179.6 179.9 185.1 190.9 196.7 198.4 200.9 183.6 181.8 194 209.3 218.4 220 224 230.2 242.9 247.7 251.5 260.6 284 305.2 316.5 328.3 315.2 310.9 311.1 309 306.3 306.8 294.6 290.8 290.7 275.8 262.2 255.6 262 276 293.2
100.3 100.5 100.8 100.8 100.9 101.3 101.7 102.5 103.2 103.2 104.3 104 104.2 104.3 104.1 104 103.6 103.6 103.7 108.7 109.9 112.2 114.1 116.3 116.5 111.5 112.9 112.8 113.2 113.6 113.7 114 109.1 109.1 112.7 106.2 115.6 115.7 115.2 115.2 115.3 115.3 115.6 115.9 116.3 117.8 118.7 120.1 120.2 119.5 112.7 119 117.7 114.4 109.5 104.6 106.7 101.4 102.3 101.3 98.3 101.2 100.3 100.8 98.4 100.5 100.5 104.2 107.5 110.2 107.4 107.2 110.3 125.2 117.5 112.3 117.2 115.2 116.2 117.5 120.5 118.4 122.6 127.9 141.2 141.2 142.3 143.3 144.3 145.5 147.1 148.7 151.7 153.6 152.9 153.4 155.3 157 157.7 151.4 146.9 146 144.2 149.6 145 147.5 155.9 165 169.3 169.9 177.2 179.8 181.5 175.9 173.1 173.1 181 176.8 180.3 183.3 185.4 187.5 190.5 194 198.5 205.6 215.4 223.8 231 236.4 241.7 244.4 254.5 260.3 259 255.4 255.4 259.7 261.5 257.8 240.9 218.5 206 196.3 181.5 171.1 162.7 153.9 136.9 131.7 131.5 133.6 141.5 141.8 148.9 156.4 165.4 174.6 168.8 165.7 168.9 172.3 176.1 179.5 183.7 187.3 196.5 201.9 200.1 193.8 185.9 177.1 179.5 191.5 206 215.5 218 222 226.7 235.7 246.2 264.8 288 297.9 302.4 301.3 290.5 290.3 287.3 285.6 290.3 289 282.9 271.5 254.9 250.7 252.9 266.9 259.4 278.6
100.5 100 100.2 100.6 100.8 100.9 101.6 102.5 103.8 103.7 104.6 104.9 104.6 104.7 104.9 104.9 103.9 103.7 103.4 108.2 109.6 112.8 114.6 116.4 116.2 110.8 114.7 112.7 114.5 113.5 113.5 109.9 109.1 105.9 113.9 113.7 115 114.8 114 114 114.2 114 114.6 114.6 116 117.3 118 118.5 118.2 118 109 113.5 113.6 107.1 102.6 101.6 100 101.1 100.2 101.7 106.1 95.1 97 100.5 101.9 115 123.8 128 133.3 135.7 132.1 129.6 130.3 132.3 134.3 135.1 133.5 129.7 132.2 135.1 132.5 136 138.1 140.1 140.4 140.3 140.7 141.8 144.1 145.7 148.4 151.3 154.2 155.1 153.1 153.2 155.2 156.7 150.5 143.7 149.3 154.8 158.4 152.5 156 161.8 158.5 158 157.6 159.4 162.1 167.8 180.9 179.5 181 181 175.6 174.5 174.6 182.6 183.8 186.5 190.6 194.1 198 204.9 213.3 221.4 228.6 234.2 239.9 247.3 253.3 258.2 254.9 252.4 252.5 254.4 256.1 253.6 237.5 216.4 205.7 196.9 184.6 173.2 161.8 155.1 135 126.1 136.6 134.5 141.3 143.2 143.5 152.7 157.6 165.3 159.9 164.9 169.7 173.9 175.4 177.8 181.5 185.9 195.2 200.9 201 196.8 197.3 197.7 189.7 181.2 182.1 204.9 208 213.7 219.4 222.9 230 245.9 264.7 281.3 287 285.3 275.9 271.8 264.2 260.6 262.6 260.1 257.8 250.7 250.7 250.7 270 290.3 282.6 265.5
99.9 100.1 100.4 100.7 101 101.4 103.2 103.7 103.8 104.9 104.4 105.2 104.3 104.5 105.1 104 103.9 103.5 102 103.7 108.1 109.8 112.5 113.1 113.4 111.2 109.5 114.3 114.8 113.2 112.8 107.4 109.1 109.1 110 110.8 114.1 113.1 112.2 113.1 113.2 112.6 111.6 113.7 115.3 116.6 117.2 117.2 116.9 117.2 111.8 105.2 102.7 100.3 99.1 96.9 98.1 100 90.1 100.9 106.9 100.1 94.1 93 108.5 126.2 132 135.7 135.7 132.4 128.2 128.7 129.8 130.8 132.8 133.5 133.5 133.7 134.4 135.4 135.7 136.7 137.9 138.9 139.3 139.1 139.4 140.3 142.6 145.9 147.8 151.6 154.2 155.2 147.3 146.7 149.2 143.9 150.9 154.8 160.2 162.7 166 166 165.9 166.7 167.2 167.7 157.8 167.4 171 165.1 168.9 180.7 176.4 177.8 178.1 181.7 182.4 179.3 184.8 187.7 189.8 193.3 197.3 203.2 210.8 218 225.2 232.8 239.8 245.4 251.2 252.5 249.9 247.5 248.7 249.4 251 247.5 232.9 212.9 204.4 194.5 161.6 144 135.8 134.6 132 131.2 129.6 137 140.8 144 143.5 142.9 153.5 152.8 158.4 163.7 168 171.6 173 176.7 180.6 183.4 190.8 196.9 197.8 197.5 198.7 198.7 196.9 189.8 183.6 185.1 201.5 205.5 209.7 214.7 218.3 231.5 244.2 257.9 273.1 271 259.9 249.2 245.5 244.2 244.3 250.4 241 250.7 250.7 264.4 288.1 307.1 307 290.7
99.3 98.9 99.6 100.6 101.9 103.4 103.9 103.9 103.9 105.7 104.8 104.4 104.2 104.3 104.6 104.4 103.1 103.9 102.4 101.1 104.5 107 108.8 109.8 110.8 113.5 108.8 115.6 112.9 111.4 108.8 109.6 100.8 100.9 104.9 105.7 111 111.2 110.5 112.1 112.1 112.4 109.4 113.1 114.3 115.8 116.2 115.5 115.3 115.1 107.5 99.5 93.2 96.4 95.2 94.1 93.9 92.4 95.1 105.4 110.4 98.8 97.2 98.1 123.8 129.5 131.6 131.4 128.7 127.7 126.8 127.5 128.7 130.3 131.6 132.6 133.2 133.9 134.5 135 134.9 135.8 137 137.7 138 137.9 138.4 139.3 141.5 144.2 146.4 148 148.8 138.9 136 136.4 136.9 141.7 152.6 158.8 160.8 163.3 166 169.8 168.3 168.6 168.8 169.2 168.2 166.1 173.7 175.6 174.2 180.2 180.9 181.7 181.4 181 183.5 182.7 179.8 186.6 190.2 192.6 196.2 200.9 206.5 212.4 220.5 229.6 239 245.2 248.5 248.1 245.5 243 245.5 246.3 248.4 244.3 226.5 208.8 200.7 180.2 141.4 141.2 130.9 126.1 132.8 129.3 135.3 139.2 144 149 149.5 149.5 145.6 151.4 155.9 158.6 163.7 165.1 174.2 177.4 180.5 185.2 192.8 196.5 196.9 196.7 197 197.6 196.2 193.8 185.6 184.5 196.6 197.9 202.7 205.7 210.4 224.2 231.3 243.5 255.3 250.9 240.4 235.5 235.1 234.3 233.4 235.7 233.7 250.1 259.5 281.4 306 318.1 322.6 314.6
98.8 99.4 99.7 100.6 102.5 103.3 105.3 107.9 105.4 105.8 104.6 103.9 104 104.1 103.8 102.9 101.9 102.1 98.4 100.6 103.2 104.3 106.7 107.7 109.6 111.5 107.4 109.9 108.3 113.1 114.4 112.7 105.3 96.8 95 98.4 103 107.7 110.7 111.2 109.1 111 111.5 112.3 112.5 113.3 114.6 111.8 112.2 105.7 98.8 86.3 88.1 90.1 92.2 92.1 91.5 92.4 108.8 116.3 117.2 110.5 97.7 107.7 124.7 125.8 126.4 126.1 126.3 126.9 126.5 128 129.4 130.1 132.5 133.5 134.2 135 135.4 135 134.4 134.9 136.2 137.3 136.9 137.3 138.8 139.9 141.2 142 141.1 140.1 139.6 132.3 135.9 140.4 141.5 148.5 154.2 158.6 160.9 162.4 165.4 166.4 168.9 169.4 169.8 171 170.9 166.7 164.4 171.8 178.2 179.8 180.3 180.8 181.3 182.9 184.2 185.9 186.6 184.5 189.9 192.4 196 198 201.4 208.1 216.5 226.5 238.1 244.3 246.4 244.7 241.9 239.4 242 244.1 244.4 240.6 223.8 201.3 194.6 169.5 140.1 131.7 131.8 135 150.7 141.3 140.6 147 151.2 157.4 162.6 159.3 156 154.1 156.2 162.7 166.6 171.8 176.9 180.3 183.8 186.5 191.9 195.1 195.2 194.7 194.5 195.5 195 192 184.9 185.6 191.3 195.6 197.5 200 203.5 210.3 216.8 225.7 233.5 228.5 223.9 226.6 225.8 224 225.7 229 243.4 257.6 275.7 298.5 315.1 323.8 327.9 330.3
99 100 100.3 100.4 101.2 104.1 105.3 105.1 105.6 105.4 104.4 103.5 103.7 101.8 101.6 93.9 96.8 98.7 100 101.5 102.7 102.5 103.3 106.2 108.9 111 111 105.7 113.3 114.8 115.3 114.2 112.1 104.4 100 94.4 92.5 104.3 105.7 108.5 105.7 105.7 109.2 109.4 108.4 109.1 108.7 106.2 102.8 105.5 89.2 87.8 90.9 91.2 93.7 96.7 101 110.6 118.7 119.1 117.7 117.9 118.3 119.1 120.5 121.7 123.3 124.9 125.7 126.8 126.3 127.5 128 130.2 131.3 132.7 133.2 133.6 133.9 133.4 134.1 134.9 136.2 136.7 137.2 138.3 140.3 140.9 141.5 142.5 141.4 143.4 143.9 137.1 147.1 149.5 151 154.4 154.6 158.1 159.8 161.2 164.4 165.8 167.3 169.6 171.6 173.2 173.6 174.8 175.1 176.8 175 175.5 176.1 177.1 181.6 183.9 185.5 185.9 187.7 186.1 187.4 191.4 193.5 197.8 201.7 204.4 212.4 220 236 242.6 243.8 240.8 238.2 235.7 239.4 241.9 241.6 234.4 218.7 197.5 184.9 157.8 139.8 129.5 132.2 146.8 151.6 149.5 154.9 154.3 161.6 172.9 175.6 174.6 167.9 162.2 160.7 166.2 169.5 173.3 176.9 181.7 185.3 188.4 191.5 192.7 193.7 194.2 195.1 194.6 195.4 191.1 186.9 187.5 190.1 192.1 195.1 197.5 201.5 204.2 206.5 212.7 214 213.4 212 214.6 220.5 226.1 234 245.4 258.2 274 291.3 310.8 321 327.5 330.7 332.5
99.4 100.5 100.7 100.4 100.2 101.5 104.8 104.8 104.8 105.1 103.2 104.1 102.6 99.6 98.1 96.2 99.5 100.7 102.5 103.9 104.7 105.9 106.9 108 109.5 111.1 111.9 104.5 109 115.4 115.5 114.3 112.6 110.4 109.3 103.1 88 98.9 104.9 105.2 102.7 103.5 106.3 106.1 106.5 105.6 99.3 97.9 97.8 98.8 86.7 89 90.4 92.7 106.1 115.5 117.8 118.9 118.7 118.3 116.2 114.7 117.9 121.1 121.1 121.5 122.3 124 124.5 125.1 126.1 127.7 128 129.7 131 132 132.6 132.8 132.8 133.5 134.3 135.1 135.7 136.8 138.4 139.4 140.8 141.8 142 143.8 145.2 145.3 149.3 149.2 148.7 149.4 151.3 154.5 155.2 156.2 158.1 159.3 160.6 164 166 170.3 171.6 172.5 174.1 177.1 177.8 179.2 178.7 178.9 178.4 178.3 179.4 182.5 185.2 186.4 187.8 189.2 185.7 187.7 192.9 196.5 198.8 203.2 208.5 214.1 233.4 241 241.6 235.8 231.4 234.1 237.9 240.2 239.7 232.4 213 193.5 184.4 168 140.5 127.1 130.2 143.1 149.4 147 162.8 161.2 168.4 174.5 176.5 173.9 172.9 169.9 165.3 167.5 170.7 173.4 176 177.5 184 184.9 189.9 191 191.9 194 193.4 194.2 195.4 192.9 191.3 190.6 190.1 191 193.5 196.1 198.8 201.3 205.2 207.6 206.9 209.3 214.2 220.7 227.5 237.4 248.6 262 275.1 293.9 310.4 320.1 325.9 329.7 332.8 335.5
100.1 100.4 100.2 100 99.6 100.7 102.7 104.6 103.7 102.7 102.8 102.4 100.3 93.3 93.1 97 99.5 101.7 103.1 105.1 106.4 107.2 108.5 109.2 110 110.9 111.9 105 102.4 114.6 115 113.9 113.4 112.6 111.2 107.4 95.8 87.8 101.1 101.7 97.7 102.4 99.1 99.4 98.3 97.4 95.9 94.3 90.4 88.3 84.5 87.8 91.2 99.9 115.3 116.7 116.1 117.2 116.3 115.8 116.5 114.7 116.9 120.8 121.4 121.6 121.5 122.4 122.7 123.6 124.3 125.6 128.5 130.8 131.7 133 133.5 133.9 133.2 134 134.5 135.2 136 137.4 138.7 140.3 142.4 143 143.2 144.4 145.5 144.8 149.1 149.3 148.7 152.4 152.2 153.2 154.6 155.3 157.3 158.3 159.5 162.3 165.4 168 170.4 172.5 174.6 177.7 179.5 179.9 179.2 180.4 179.2 180 181 184.3 186.7 186.5 187.1 189.9 189.1 187.1 191.2 193.7 198.2 204.7 209.2 213 227.8 234.3 232.1 228.2 226.8 232.7 235.7 239.4 239.9 227.1 206.1 191.7 182.7 172.9 140.2 126.9 129.3 137.2 146.9 146.1 161 164.3 169.3 173.6 173.8 173 174.7 171.5 170.5 171.6 169 171.5 169.9 171.5 177.5 181.1 186.3 187.8 187.8 188.5 189 191.5 194.9 191.7 192.4 193.4 193.7 193.8 195.3 197.1 198.5 199.8 202.9 204.7 208 212 220.4 232.6 242.6 262.1 273.2 286.8 300.9 310.2 318.1 323.9 328 332.9 338.3 342
98.8 98.9 99.4 99.7 99.8 100.3 102.2 102.5 101.9 100.9 99.5 94.5 92.2 99.8 102 102.1 102.6 104.3 105.8 107.2 108 109 109.5 110.4 111 111.6 112.3 108.8 101.4 107.9 114.3 113.6 112.4 111.2 108.9 105.4 95.6 88.5 97.8 97.2 88.4 89.6 94.7 90.1 87.6 90.7 93 84 85.7 85 84.2 84.2 101 108.8 116.4 115.4 114.4 114 114.3 114.6 115.5 114.7 117.2 119.3 119.8 120.5 120.3 120.7 121.7 122.9 124.9 128.2 129 131.6 132.6 133.9 133.6 132.8 134.3 134.6 134.4 135.6 137 138.1 139.2 140.3 142.7 143.6 143.7 143.9 145.5 145.6 145.5 149.4 151.2 152.2 152.4 153.4 154.5 155.1 156.2 157.3 158.6 160.5 163.7 166.2 169.1 171.5 174.1 177.7 180 181.2 181.4 181.5 181.3 182.5 184.4 187.1 191.1 194.1 193.7 193.1 192 190.8 191.1 193.1 197.7 206.5 210.2 211 220.9 219.3 216.4 221.5 227 232 237 240 240 232.2 210.1 194 180.5 161.2 139.6 128.9 122.1 134.9 144.5 146.9 162.2 164.7 163.9 164.8 170 171 173.8 172.7 174.1 173.9 163.4 164.5 165.9 168.8 176.8 178.2 181.8 183.8 184.8 184.8 185.6 186.8 189.4 190.9 193.2 195.2 196 197.7 198 198.2 199.7 201 204.8 208.2 210.9 220.5 233.4 247.5 252.8 269.8 283.1 302.9 309.8 316.7 322.5 327.1 331.6 341 348.8 354.2
96.4 97.2 98.4 98.8 99.2 99.9 99.3 99.9 98.5 97 92.4 99.3 101.1 101.7 103.1 104.3 105 105.6 106.7 108.1 109.3 109.5 110 110.7 111.2 111 112.3 113 99.7 100.7 113.1 112.4 111.2 109.7 106.4 102.2 94.8 82 92.9 85.1 80.4 86.4 93.4 81.5 81.3 84.7 88.4 83.9 84.1 87.7 96.4 107.6 113.8 114.9 114.6 115 111.5 110.8 112 113.6 114.6 114.4 114.8 116.9 118.5 120.2 120.5 120.3 121 121.8 123.6 125.5 126.8 130.4 131.1 131.8 132.3 131.7 134.8 133.2 134.3 135.4 136.7 138.7 139.9 140.6 141 143.9 143.9 144 145.3 145.7 146.9 148.8 150.6 151.8 152.7 153.9 154.4 155.2 156 157 159.5 160.2 163.2 166.7 169.9 172.5 174.5 177.2 179.8 181.1 182.1 182.8 185.1 186.8 187.8 189.3 194.5 198.2 200.2 199.2 196.3 195 191.5 195 202.3 205.8 207.2 204.3 212 221.5 228.5 233.4 234.5 235.5 237.8 241.2 241 232.8 214.1 195 182 161.4 139.4 126.1 121.1 132.4 141.2 145.8 160.8 161.7 157.8 169.1 168.2 169.2 170 170.7 170.3 169.8 160.2 160 166.3 165.4 175.4 176.7 180.1 182.5 183.6 184.3 186.2 187.6 189 193.2 197.5 197.6 198.2 201 200.8 200.5 200.6 202.5 204.5 211.4 221.3 232.9 244.4 260.5 275 293.1 302.1 308.8 315.9 321 325.3 331.7 339.9 346.4 351.7 355.8
94.8 96.3 97.4 98.1 98.9 98.3 96.2 95.7 88.6 92.8 93.8 99.8 101.2 101.4 103.8 105.3 105.9 106.4 107.7 109.2 109.5 109.3 110 110.8 110.3 110.7 111.5 112.5 104.1 97.9 106.4 112.2 111.1 109 101.4 89.8 86.8 80.8 80.7 78.7 80.4 84.4 94.3 83.1 87.2 84.3 84.6 83.1 84.9 100.5 112 113 113.9 113.3 113.2 112.6 111.1 108.2 113.7 114.8 114.2 113.5 113.8 116.4 117.7 118.6 119.4 119.8 119.4 119.3 115 124.1 124.8 128.7 129.6 130.5 126.3 122.6 128.2 132.8 133.4 134.6 137.6 138.5 140.5 141.3 141.5 143.7 143.1 144.8 146.7 147.3 148.7 149.2 150.2 151.6 152.7 152.9 153.6 154.4 154.6 154.8 156.3 160 163.7 167 169.8 172.3 175.1 178.1 180.7 182.3 183.4 184.5 186.5 187 188.2 191.9 197.5 201.9 205 203.8 202.4 198.3 194.1 195.6 201.7 197.7 201.9 209.6 217.2 225.1 232.2 238.3 239.6 238.7 239.5 242 242.1 234.2 210.7 192.5 180.9 162.8 139.7 126.4 120.4 130.3 138.1 143 152.8 154 161.6 170.5 166.7 164.3 165.9 166.8 162.3 161.8 158.4 165 169.5 171.6 174 175.9 179.6 181.8 183.4 184.1 187.5 189.3 193.1 198.1 202.9 201.4 204.6 207.5 210.8 207.5 207.7 208.1 211.7 224.8 235 242.3 258.4 276.1 290.6 301.1 307.2 315 320.8 324.2 330.8 336 342.7 347.9 353.3 358.8
94.3 95.6 96.7 97.3 97.1 96.8 88.9 87.2 94.9 96.2 96.4 99.1 99.2 100.7 104 105.9 106.6 107.5 108.2 109.3 109.6 109.6 110.2 109.9 109.4 110.4 110.9 111.2 108 96.5 99.1 110.4 109.3 105.5 97.4 83.5 83.5 83.6 79.5 84.3 90.8 97 100.1 102.4 107.3 101.9 102.1 105.8 111 112.3 113.2 112.6 111.8 110.6 109.6 110.3 103 104.6 109.2 102.5 99 104.7 112.6 113.2 114.8 116.4 118.8 120.4 120.7 117.7 109.4 110.7 118.3 117.6 125.5 118.7 114.7 122.4 131.5 132.8 133.9 135 136.7 138.7 140 140.9 141.2 140.6 141.5 143.2 145.2 147.6 148.3 149.5 150.3 150.9 151.2 151.4 153.4 151.8 153.4 153.5 156.6 159.7 162.3 167.6 170.6 173.8 176.8 179.3 180.8 182.8 184 184.8 185.6 185.3 188.1 193.8 200 202.5 203.7 204.1 201.5 198.3 192.9 190.9 192.9 199.5 206.3 212.6 218.6 226.9 234.6 241.5 244 241.9 240.6 242.3 243.9 233.2 204.7 190.5 179 158.7 142 133.3 120.4 127 136.8 143.7 150.9 151 164.4 167.1 163.2 161.2 162.8 159.6 158.6 156.9 160.2 165.5 170.7 173 176.2 178.1 180.5 183.5 183.9 185.2 188.6 193.6 197.7 199.7 206.1 207.2 212.3 216.4 216.5 213.2 214.4 215.4 227 239.3 247.5 262.7 277.9 290.6 301.2 307.7 313.7 319.9 323.7 327.3 335.2 340.5 346.3 353.1 360.5 369.2
94.4 94.6 95.6 96.2 96 93.1 89.1 94.3 94.5 97.9 99.4 101 101.7 101.5 103 105.7 107.6 108.8 108.8 109.2 109.3 109.2 109.1 108.1 107.6 108.6 109.4 110 109 98.9 94.5 104.3 107.8 102.8 89.7 81.9 82.3 79.5 84.8 99.2 107.8 103.9 106.1 107.9 108.5 109.1 110.5 110.6 111.2 111.6 111 109.7 107.8 103.4 99.7 94 99.3 95.6 97 106.2 111.1 111.7 112.7 114.3 115.6 117.4 118.5 120.2 121.5 122.1 122.3 118.2 116.9 117.4 111.4 118.5 128.4 131.1 132.3 132.5 134.3 136.5 137.4 138.8 139.3 139.8 139.6 139.3 139.9 142.8 144.4 146 147.6 148.8 148.6 149.1 149.9 151.4 152.2 153.2 154.5 156.2 159.5 161.5 164.7 168.8 171.6 175.2 178 179.8 180.8 182.5 184 184.8 183.6 184.8 189.1 194.8 198.7 199.6 201.4 204.5 202.6 198.7 193.9 192.8 197.6 203.7 207.8 213.1 219.3 227 234.5 242.8 245.7 241.6 239.6 241.8 243.4 231.5 205.3 188.3 176.5 155.9 144 134.6 124.6 124.4 135.2 140.6 148.6 156.2 160.1 161.4 159.4 158.3 157.8 154.1 149.9 155.6 160 166.7 171.2 174 177.1 179 182 186.1 186.7 186.8 191.4 196.3 202.1 205.7 209.9 213.4 217 219.9 220.5 221.2 222.8 226.8 240.1 251.2 267.2 285.7 296.4 302.8 308.9 313.2 318.6 322.1 326.6 334.3 340.1 347.2 355.4 365.4 372.5 377.8
94.7 94.8 94.9 94.7 93.1 83.8 94.3 97.1 98.3 99.3 99.5 102.3 102.9 103.2 105 107.5 107.8 108.4 108.5 108.3 108.1 107.9 107.8 106.8 104.5 105.3 106.7 107.6 107.7 103.8 93.3 97.2 106.5 96.3 81 78.3 79.2 84.3 99.6 105.6 107.1 100.4 106.3 106 106.5 108 109 108.9 108.9 107.9 106.9 99.9 91.7 91.9 95.1 106.3 108.7 109.4 109.5 111.4 111.3 112.2 112.9 114 115.2 116.6 117.7 120.8 122.9 123.3 123.1 125.1 126.4 128.8 128.1 124.1 130.1 131.3 133.3 134.5 135.1 136 136.7 137.5 138.4 138.6 139 138.5 138.6 141.8 144.4 145.6 147.1 148 147.8 148.9 149.7 151.2 152.2 153.3 154.4 156.5 160.9 163.3 166.9 169.8 173.7 175.8 177.8 178.9 180.4 182.5 183.5 183.6 182.9 184.5 189.1 193.8 195.7 196 199.3 202.5 201.7 200.8 191 186.6 197.5 202.1 206.1 211.7 218 226.5 233.5 241.3 243.3 237.5 237.7 240.6 241.7 228.9 203.6 186.8 175 155.1 141 135.1 131.9 119.8 131.6 137.9 143.9 152.8 155.5 156.6 155.8 156 148.4 145.7 152.5 158.2 163.2 169.3 174.1 176.3 177.9 180 183.1 188.8 191.2 191.7 195.2 199.6 204.8 212.1 217.3 219.4 221.7 224.9 226.4 228.6 232.8 237.1 254.2 271.1 290.4 301.6 305.9 310.1 315.5 319.6 322.3 326.2 333.7 340.2 347.9 356.9 366.4 373.1 377.5 381.3
95.1 94.7 94.6 93.3 91.5 85.7 94.4 97.4 99.8 100.2 100.9 103.1 104 104.3 105.8 107.7 108 107.7 107.5 106.7 107 106.6 106 104.7 98.4 102.6 102.6 102.6 103.5 103.5 94.1 91.2 101.8 89.4 80 79.7 81 95.3 101.2 104.2 102.8 94.7 101.7 103 103.2 102.6 104.2 104.3 99.7 97.8 94 91.4 102.9 101.4 103.2 108.2 109.3 109.6 110.1 111.6 112 113.4 113.6 113.1 114.5 115.8 117.2 121.1 123.5 124.2 123.7 125.1 126.2 128.1 128.3 128.2 129.6 131.3 133 134.4 135.2 135.3 136.2 137.8 139 139 138.7 138 139.8 143 145.2 146.3 147.4 148.1 148.3 148.6 149.6 150.8 152.4 153.1 154.3 157.1 161.9 164.7 168 170.4 172.6 174.5 176.5 177.6 179.3 181.1 182.1 182.6 183.2 185.6 190.2 194.6 193.4 193 197 200.8 198.8 197.4 187.9 187.3 196.6 200 203.8 211.7 218.1 223.9 231 236.8 235.7 231.6 234.8 240.2 239.6 225.7 200 186.8 174.9 158.8 143.8 137.3 132 123.3 125.6 135.8 139.8 148.5 153 152.5 152 145.8 141.7 145.1 156.1 158.5 163.8 168.7 174 177.1 179.1 180.5 183.7 189.1 193.2 197.4 199.2 205.7 208.4 217 221.1 224.3 227.3 230.4 233.1 237.2 243.5 256.5 255.7 283.7 298.9 307.1 312.4 316.6 320.9 322.9 325.6 333.6 340.3 346.2 354.7 364.9 372.3 377.3 380.1 382.6
94.6 94.7 93.9 92.1 85.8 89.4 95 97.4 97.5 100.5 101.7 103.5 105 105.4 106.9 107.8 107.5 107.2 106.8 106.2 106.1 106 104.3 102.3 100 96 96.7 96.4 98.7 100 98.3 89.5 95 88.2 80.2 76.6 79.4 93.5 95.4 95.6 93.5 94.6 88.1 91.4 89 92.9 94.9 90.2 88 86.7 98.7 105.4 102.3 103.1 102.2 106.7 108.5 110.1 111.3 111.5 112.7 113.7 113.5 113 114.6 115.8 117.2 120.5 122.1 124 124.3 124.8 125.8 126.6 128 128.6 129.7 130.9 132.2 133.6 134.2 135.1 136.6 138.5 139.3 139 138.4 138.3 140.4 144 146 146.2 147.5 149 149.5 149.7 152.2 151.3 153.7 153.7 154.3 156.4 162 165.4 168.6 170.4 171.5 172.5 173.2 174.4 178.6 179.3 179.9 179.9 180.1 182.7 189.2 186.4 188.8 187.4 195.5 197.1 194.5 191.9 184 186.2 192.7 197.8 202.6 209 217.1 221.4 227.6 230.1 228 227.5 233.4 238.8 236.4 223.4 199.1 186 175.1 159.1 148.2 136.8 131.3 127.1 123.6 131.9 137.6 141.8 148.8 149.3 145.8 141.6 142.1 144.1 151.4 158.8 163 167.5 172.6 177.4 179.7 181.4 183.1 186.3 192.9 201.1 205.3 210.2 215.2 220 225.7 231.4 236.5 242.3 241.3 246.9 256.2 278.9 284.5 275.3 298.3 307.9 315.4 320.8 324.1 325.7 331.2 339.2 345.4 353.3 363.6 369.5 373.4 377.4 380.3 382.8
94.8 94.3 92.7 91.3 79.1 91.4 95 96.4 99.6 102.1 103.2 104.5 106.8 106.9 107.7 107.4 106.9 106.4 105.2 104.5 105 103.9 99 97.2 94.3 89.8 90.4 91.3 93.7 95.2 94.6 89 88 82.1 80.2 79.3 78.1 85.6 79.2 77.7 84.9 94.6 89.5 84 89.3 84.4 88.4 87.6 97.7 100.2 100.6 100.1 104.6 107.4 108.1 108.2 103.6 109.1 111.1 110.7 112.3 113.2 113.6 113.6 115.3 116.2 116.7 118.3 120.8 123 124.4 125 125.9 126.7 128.4 128.5 128.9 130.4 131.5 133 133.2 134.9 136.8 138.6 138.8 139.6 138.7 139.2 141.3 144.5 146.5 146.4 149.2 151.1 151.5 152.3 152.7 155.1 154.8 156 158.4 159.2 161.8 165.9 168.7 170 170.5 170 170.7 173.7 175.4 176.7 176.5 177.9 177.9 180.3 178.9 178.2 182.4 185.6 192 192.5 186.8 187 179.3 186.3 190.8 195.7 199.9 205.7 214 222.2 219.7 221.9 221.6 227.5 233.5 238.1 234.7 219.7 198.4 186.2 177.3 165.5 151.1 139.4 129.3 124.8 118.4 124.8 136.3 138.4 142.7 145.1 140.3 138 141.9 145.6 150 157.4 160.8 165.6 170.2 175.6 180.4 182.6 184 187.4 193.8 206.6 212 215.2 218.2 226.3 233.1 238.6 245.4 250.9 252.2 260.4 277 297.6 303.3 301.9 290.8 306.8 316.7 322.6 326.4 329.5 335.9 342.5 347.5 359.1 366.1 369.6 372.8 376.6 380 381.8
94.8 94.1 92.6 90.5 78.6 90.5 93.2 96.4 100 102.2 103.8 105.5 106.4 107.5 107.6 106.6 106.3 104.8 103.6 103.5 101.6 100.8 96.6 91.7 88 85.6 86.8 87.6 88.6 84.9 86.6 90.4 87.1 81.4 79.1 79.2 78.9 75.8 90.9 90.6 94 96.5 98.3 98.3 96.8 94.7 89.4 103.9 103.2 99.1 99.8 100.6 105.3 109.4 110.2 109.5 107.2 103.1 103.9 108.1 110.1 113 113.2 113.7 113.9 115 115.3 116.3 119.3 121.3 123.2 124.9 126.5 124.4 128.6 129 129.6 130 130.9 131.7 133.1 135.1 137.4 138.5 138.7 140.8 140.8 140.1 141.3 144.5 146.1 146.9 150.6 151.5 152.3 153 154 155.4 156.8 158 159.5 160.9 162.9 166.2 168.6 169.5 167.9 167.3 168.7 171 173.5 175 175.7 175.5 175.3 176.4 175.4 178.9 180.1 183.7 188.9 185.6 183.9 184.5 176.8 186.3 190.1 194.1 198.6 204.5 213.5 220.7 221.7 212.8 221.9 227.7 235 237.4 231.9 216.8 197.3 186.6 179 168.9 161.9 148.6 131.5 124.6 122.6 123.9 131 135.9 137.5 140.2 137.3 137.3 141.8 145.5 150.6 156.5 160.1 164.6 170.1 175.1 180.8 183.5 185.2 188.4 196.7 208 214.1 219 222.6 233 240.2 245.8 252.7 257.8 263.3 276.2 297.2 312.1 318.7 315.7 311 306.5 318.3 324.9 328.4 332.4 338.5 343.8 349 357.9 365.7 368.7 372 375.5 378.4 380.5
94 93.9 92.5 91.3 82.5 87.9 89.4 94.6 98.5 101.2 104.2 105.7 106.6 107.5 107.4 106.4 104.4 100.8 102.1 99.9 93.7 89.2 86.3 77.4 82.6 83.7 83.5 84.3 77.2 79.3 78.5 85.3 86.1 79.2 78.5 78.6 78.4 81.9 93.7 98.6 100 99.3 98.6 98.1 98.7 100.6 86.9 97.9 97.2 104.4 104.3 105.2 106.2 108.7 109.7 109.6 109.2 109.1 110.3 109 108.6 106.2 110 114.1 112.7 114.3 115.1 116.1 116.7 119.3 121 122.8 126.2 125.5 128.2 128.9 129.7 130.3 130.6 131.6 133 134 134.2 137.8 139.3 141.7 142.1 142.5 143.4 144.3 147 149.9 151.6 152.9 155 154.8 155.9 156.6 157.5 159.2 159.6 161.6 162.6 166.4 167.1 166.5 165.4 165.5 167.1 169.5 171.9 173 174.4 174.5 173.2 172 173.6 174.3 177.2 182.4 185.2 181 180.7 174.4 183.1 185.8 189 192.4 197.3 203.5 210.9 215.8 215.1 210.9 222.3 228.9 232.3 233.8 226.5 211.7 195.3 184.5 177.5 169.8 164.1 147.8 135.7 124.9 122.4 118.4 125.8 135.4 136.4 137.9 137.3 138.4 143.1 147.2 151.3 154.1 158.5 164.6 170.8 177.2 180.7 183.8 185.9 190 199.1 209.3 216 222.4 226.9 237.7 245.7 252.2 260 265.2 272.6 288.7 310.7 327.7 333.6 329.4 324.9 321.9 318 328.2 330.9 335.1 340.2 344.5 351.6 362.6 366.4 368.5 370.2 372.9 376.2 379
92.3 92.7 92 90.2 84.2 83.9 89.9 92.6 96.9 101.5 104.1 105.3 106.5 107.3 107 106.1 103.8 96.3 100.6 93.6 85.4 76.9 74.7 73.6 73.7 75.6 77.3 73.8 74.7 75.4 76.3 77.7 75.9 85 86 80.1 79.4 92.9 97.3 101.8 103.4 103.3 98.6 98.7 100.3 102.1 99.4 95.1 101.7 104.8 106.2 106.1 108 109.1 110.4 111.5 111.7 112.6 113.2 112.6 111.9 112.7 113.7 114.5 111.6 114.8 115.6 116.1 116.9 118.7 119.4 121.6 123.7 125.3 128 128.6 128.7 129.6 131 132 132.4 131.2 137.5 137.5 139.2 141.3 142.1 142.6 142.3 145.2 147.4 150.7 151.3 154.3 155.5 156.3 155.9 157.5 157.6 157.5 158.1 160.8 162 162.7 164.5 164.5 164.2 164.6 166.1 168.1 170.2 171.3 171.6 171.6 169.2 169.6 170.3 171.5 175.8 179.8 180.6 175.6 169.8 179.3 182.5 183.1 186.7 193.9 198.7 202.4 205.4 210.6 214.1 209.9 219.1 223.6 223.7 222.5 216.6 205 193.7 182.9 176.3 169.4 162 144.9 135.2 124 121.4 118.7 122.4 132.4 135.7 136.8 137.2 140.7 144.2 146.3 149.8 153.8 159.4 164.3 168.6 177 180.9 183.6 186.3 190.7 199.6 211.7 216.2 226.9 229.8 240.1 249.5 256.6 265.3 272.1 282.5 301 324.2 340.5 346.9 341.7 333.8 330.3 328 332 333 338 342.4 346.1 352.5 364.1 367 368.2 369.9 371.3 374.2 376.6
90.1 91.1 90.6 89.4 87.9 75.4 86.6 93.1 97.7 101.6 104.1 105.1 106.2 106.8 106.8 105.7 102.9 92.6 97.5 82 72.4 71.2 72.3 72.9 74.5 75.2 75.6 72.8 73.5 74.9 73.5 76.5 79.4 86.9 86.7 92.7 92.6 94.9 98.5 102.2 102.8 101.8 102.4 102.8 102 100.8 103.2 102.7 103.8 106 106.7 106.9 107.7 108.9 110.7 112.2 115.6 115.5 115.1 113.8 113.8 114.7 114.6 115.1 114.7 113.1 115.6 115.8 116.3 116.8 117.8 120 122.7 126.9 127.5 127 128.1 129.3 131 129.6 133.1 137.4 138 139.2 140.2 141.1 141.6 141.6 141.6 142.5 149.8 152.1 154.7 155.2 156.6 155.7 154.7 155.6 155.8 156.4 157.5 158.5 159.9 162.2 162.7 162.9 162.1 164 165.8 167 168.4 169.5 170.4 165.7 168.1 168.3 168.7 171.4 174.9 176.5 175.8 168.1 176.9 179.7 181 183.6 186 192.6 197.2 201.3 205.8 211.8 213.7 209.2 207 210.3 211.8 210.9 207.3 203.4 193.3 184.2 176.5 166.8 158.2 144.4 134.7 122.8 121.2 119.5 118.6 122.7 135.1 135.5 134.3 139.3 142.2 144.6 148.9 153 159.2 164.2 169.9 175.8 179.7 183.4 187.4 192.3 201.7 210.4 216.1 224.5 231.8 243.5 252.9 260.3 268.5 277.2 289.9 313.3 334.7 351.4 355.7 352.2 343.7 338 335.9 335.1 337.8 341.8 345.2 348.6 355.2 363.7 367.2 367.9 369.6 371.5 372.8 374.8
88 89.2 89.5 89.5 88.1 76.7 90.1 95.8 98.3 101.3 103.5 104.9 105.9 106 105.8 105.1 100.9 95.2 86.9 76.4 70.4 76.2 77.2 76.7 78.2 70.6 72.5 73.9 74 76.9 76 76.6 82.8 92.5 87.7 93.6 97.2 102.9 102.7 102.3 102 101.4 103 102.6 103.1 101.3 103.7 103.7 104.8 106.8 107.6 108 108.1 108.7 110.3 114.4 114.7 116.9 116.6 117.1 115.3 114.9 115.1 116.6 115.2 114.1 113.7 115.2 115.5 116.9 118.6 120.5 123.3 126.7 122.1 125.8 127.1 128 128.8 128.9 132.5 136.2 137.3 138.4 140 140.8 141.8 140.6 140.7 141.8 149.3 151.1 154.9 154.9 152.7 152.1 152.8 153.7 153.3 152.7 154.6 156 157 157.8 158.3 159.2 160.3 163 165.3 165.9 166.3 166.8 165.7 165.5 165.3 166.9 166.9 168.8 172.7 173.3 171.6 170.7 175.2 178.7 180.2 182.6 187.3 192.1 195.4 200.5 209.3 214.1 213.7 209.1 205.6 193.6 204.8 203.5 206.3 201.6 191.4 184.1 176.3 168 158.1 146.5 134.4 121.2 120.6 119.2 119.5 124.4 133.7 134.9 135.7 138.5 141.3 144 147.6 151.3 157.1 165.8 172.4 175.1 179.2 183.2 187.4 193.5 202.8 210.8 216.7 228.6 234.4 246.1 254.8 262.8 272.8 281.1 298.6 322 342.6 358.7 364.3 360.7 352.7 346 343.6 342 343.3 346.6 348.5 351.5 359.2 365.4 368.2 368.6 369.8 372.6 373.7 373.2
84.8 87.4 89.9 89.5 81.5 79.8 90.3 95.7 99.1 101.3 103.3 104.5 105.5 105.5 103.5 103.6 99.1 94.6 84.4 75.8 72.5 78.5 81.7 91.6 94.8 91.6 91.4 92.7 90.5 87.3 86.3 84.3 86.4 92.6 91.4 89.5 100.4 103.9 103.2 102 101 102.3 103.5 103.1 102.8 103.6 104.5 105.7 106.3 107.2 108 108.8 108.7 109.3 110.6 113.5 115.4 116.5 116.8 117.3 117.6 117.8 118.2 117.6 116.6 115 117.1 116.4 116.4 116.9 117.9 120.4 121.8 126.2 124.1 121.9 122.2 124.3 123.7 129.3 131.7 135.3 136.5 136.8 138 140.6 139.7 137.9 142.2 143.6 147.3 151.1 155.4 153.4 151.2 150.7 150.6 151 151.5 152.3 153.3 154.2 154.4 155.3 155.9 157.5 158 160.5 162.3 163.3 164.1 164.5 165.4 165.2 164.4 164.4 165 167.2 168.8 170.1 165.7 170 174.1 177 180.3 182.8 186.9 188.8 196.8 202.7 208.4 212.4 212.7 207.9 203.3 200.2 186.9 198.1 203.7 201.2 189.4 182.5 174.8 167 154.8 147.3 134.1 120.2 119.4 119.3 116.6 121.1 133.5 134.3 136.7 138.6 140.5 144.3 147.5 150.8 157.5 165.3 171.1 175.5 179.7 183 188.1 195.6 205.8 211.8 218.6 228.5 236 246.7 255.6 264.5 274.4 284.8 305.5 327.5 349 361.4 371.4 370.1 360.3 353.5 348.7 347.4 350 351.6 352.6 355.9 363 368 369.5 369.8 370.3 372.2 373 372.6
73.7 84 86.8 80.8 74.3 86.9 91.7 94 98.1 101.2 102.2 103.2 103.9 103.8 102.7 100.1 96.6 92.2 81.7 73.4 70.5 79.5 83.2 93.9 98.4 99.8 100.4 94.8 98.9 101.2 99.8 100 97.3 96.1 96.4 90.3 93.9 102.1 102.5 101.8 102.3 103.4 103.5 103.1 102.5 103.5 105 106.3 106.8 107.1 107.8 108.5 108.8 109.3 110.9 112.2 113.5 115.1 116.3 116.7 116.9 118.6 118.9 118.4 117.5 117.7 117.2 117.3 117 116.5 119 119.7 120.8 122.4 123.3 129.5 129.1 127.6 129.1 130.3 133.8 135.3 136 136 135.4 138.9 139 140.2 144.8 148.3 150.3 153.5 154.9 154.5 145.8 147.7 147.6 148.3 149.5 151.1 152.8 153.5 153.6 153.8 154.9 155.5 155.9 157.5 158.8 161 162.4 162 164.8 164.7 163.6 160 164.2 164.9 165.7 161.2 159.9 165.7 170.8 175.8 179.4 189.8 186.7 189.7 197.1 203.3 208.1 212.2 211.2 206.7 199.6 195.2 184.8 196.4 201.5 196.8 186 178.6 174.3 166.6 152.5 144.6 133.5 128.9 120.5 119.6 119 119.3 130 135.1 134.7 138.4 140.3 143.2 147.2 151.4 157.3 163.6 171.1 174 177.2 183.3 191.6 200.6 210.1 215.7 218.3 227.2 234.9 245.8 255.1 264.7 276.9 286.9 310.6 331.6 351.2 364 376.1 377.8 368 359.4 354 355.1 357.3 356.3 358.8 364.3 368.1 371 371.6 370.5 370.3 372.5 372.5 371.9
