ncols 200
nrows 93
xllcorner 530000
yllcorner 102100
cellsize 50
39.9 35.4 32.1 30.1 28.6 29.4 32.7 37.9 40.2 42.2 44.1 44.8 45.5 48 48.1 48.1 49.7 54.1 64.2 74.9 82.1 87.2 89.9 91.1 91.8 92 92.5 91.4 90.4 85.8 77.4 63.7 60.1 66 67.7 69.6 74.4 81.7 88.9 95.2 98 97.4 92.7 87.6 80.8 72.8 64.4 54.4 43.7 37.4 30.5 29.2 29.7 31.2 38.7 41.6 37.3 36.2 39.1 45.2 50.4 55.7 62.2 68 76.1 83.1 88.3 91.7 92.4 92.2 90.5 90.3 91.8 93.6 95.3 95.5 89.2 79.8 82.3 94 100.1 102.3 102.9 103.4 106.1 109.5 113.2 116.6 116.3 113.4 107.5 100.1 92.4 86.1 87.9 87.9 88.5 88.7 87.3 85.6 87.2 93.7 101 106.8 109.6 106 104.1 106.7 112.4 119.1 125.7 131.2 136.9 141.7 147.4 156.1 164.6 171.6 178.4 185.3 190.5 195 198.1 198.9 198 194.8 190.3 183.9 176.3 165.3 146.8 131 120 121.6 125.6 125.8 124.2 121.4 119 115.7 110.3 105 102.1 100.6 100.1 98.1 95.6 91.7 88 89.4 102.7 114.1 126.7 141.9 152.2 158.4 160.9 159.3 153.3 144.5 133.1 120.6 108.9 98.1 88.6 86.4 94.5 106.6 120.7 135 148.5 160.3 169.5 176.7 182.3 186.2 188.7 190 190.6 189.8 188.2 185.7 182.1 176.8 168.9 156.3 141.5 129.7 118.9 116.2 112.1 103.1 94.8 93.7 91.8 85.1 78.3 71.6 64.2 56.9
39 35.2 31.6 29.2 28.5 28.8 31.7 36.1 37.5 38.3 39.2 41.5 42.3 47.2 47.5 50.2 55.5 60.2 71 77.8 82.2 85.1 86.7 87.9 88.4 87.5 88.4 88.3 87.5 83.9 77.9 66.4 61.4 60.3 62.7 67.4 72.8 79.5 86.7 92.1 95 93.2 88.7 81.5 74.2 66.3 57.2 46 38.1 29.3 30.3 29.4 31.1 36.5 42.3 45.3 39.4 37.3 40.1 48.2 53.1 58 64.2 70 76.2 81.5 86.1 86.7 85.7 81.3 74.8 72.8 79.2 85.3 88.4 89.7 82.6 75.8 81 91.2 94.8 95 94.6 94.2 96.9 101 105.3 109.2 111.8 109.4 103.3 95.1 84.8 80.4 80.9 80.6 83 80.8 83.8 85.9 92.4 100.9 108 113.4 116.5 117.1 115.5 113.6 113.9 117.6 123.2 130.5 136.6 142.9 152.6 162.3 169.6 176.4 183.1 188.6 193.3 197.2 198.8 197.9 195.5 191.5 186.6 180.2 171.6 157.6 137.9 124 125.3 133 135.5 134 132.1 128.2 122.2 114.2 110.2 109.5 110.9 112.5 112.6 110.4 104.3 93.8 86.9 89 100.5 113.6 127.4 140.7 148.9 153.9 155.7 154 148.6 140.2 130.7 119.5 109 98.6 90.4 86.2 96.1 109.3 123.2 137.6 152.4 165.1 174.1 181 186.2 189 190.1 189.9 188.9 187.2 185.8 183 181.4 178.5 175.3 170.1 163.8 153.2 142.5 135.6 130.2 124.1 117.5 111.4 104.2 93.1 81.4 71.6 63.3 55.6
38.5 34.3 31.8 29.4 28.1 28.3 30.2 32.5 35.4 37.2 39.1 43 45.9 48.9 52.3 57 61 67.5 73.7 77 80 80.7 83 82.9 82.4 82.4 84.5 84.5 85.2 82.4 77.7 69 61.8 59.1 59.7 65.4 70.3 77.1 84.2 90.1 91.3 88.5 82.3 77 69.8 61.2 51.3 40.8 28.7 29.7 29.2 29.1 36.6 42.8 45.4 47.8 44.1 37.9 38.5 46.4 52.7 58.1 65.7 70.6 76.5 79.9 81.6 79.2 71.6 62.8 59.4 60.1 62.2 72.8 81 83.4 78.9 72.2 78.1 85.2 86.9 85.5 83.8 78.3 80.4 86.8 96.3 102.2 105 105.4 98.8 88.1 78.4 77.2 80.8 85.5 88.5 92.3 94.9 95.1 92.9 102.7 110.7 117.3 121.9 123.8 123.3 122.1 121.6 123.8 127.8 132.3 138.9 147.5 157.6 165.9 173.2 179.5 185.4 190.6 194.9 197.5 197.6 196.2 192.5 188.1 182 175.5 165.6 150 133.2 125.7 135.8 139.6 141.5 139.9 134.6 127.1 119.7 117.3 120.1 123.6 126.8 126 122.1 114.9 104.7 94.1 86.6 85.8 96.4 110.7 124.4 136.1 142.9 147.2 149.2 147.4 142.9 135.2 126 115.1 103.7 93.8 86.6 86.2 97.8 111.6 125.9 142 157.2 169.5 178 184.8 188.3 189.6 189.7 188.5 186.9 184.1 180.9 177.8 176.8 177.2 177.1 175.4 172.9 169.4 164.1 158.4 151 142.7 135 124.3 112.4 95.6 80.2 68.7 60.9 55.5
45.7 34.4 31.4 29.1 27.6 29.4 31.2 32.7 35.4 39.5 43.2 46.5 49.2 49.7 54.7 57.7 62.5 68 73.9 75.7 78.2 78.3 77.5 76 76 77.8 78.2 80.5 82 81.3 77.8 70 61 57.7 58 62.2 68 75.4 82.8 86.9 87.4 84.7 78.6 72.6 64.1 56.6 45.2 34.2 29.5 29 28.9 35.6 41.7 46.1 48.6 51.2 50.9 40.3 38.9 39.5 44.4 52.3 61.8 69.4 73.9 75.9 74.2 66.2 56.9 51.1 49.6 52.4 55 62.4 70.9 76.3 75.3 68.7 70.1 75.5 74.2 66.6 65.5 64.4 65.3 67 74.4 88.9 100.1 99.8 94.9 80.9 75.8 83.1 88.4 93.3 99.2 104 107.3 105.8 99.7 99.8 111.7 119.4 125.2 128.5 129 128.8 128.6 130.5 133 137.7 145.6 154.5 162.5 168.8 174.8 180.4 185.4 189.5 194 196.6 196.3 193.9 189.4 183 176.6 168.3 156 141.3 130.5 137.1 147.4 154.7 153.5 144.6 132.7 126.2 127.5 131.6 134.8 136.6 136 131.7 122.8 111.1 100.4 91.7 85.7 84.7 94.1 104.9 118 128.5 135.1 139.3 140.8 139.6 135.1 128.4 119.5 108.7 96.8 88.5 84.5 89.2 100.3 114.3 129.2 146.3 161.7 172.7 181.6 186.2 188.3 188.4 188 186.3 183.9 179.8 174.4 171 169.8 173.1 175.6 177.2 177.5 175.9 173.7 169.2 163.6 155 144.3 127.8 107.8 88.9 74.1 67.4 62 57.8
45.5 34.6 31.5 28.6 27.1 29.7 31.4 34.5 37.2 40.8 41.8 42.3 43.3 48 51.6 56.1 62.7 68.2 71.1 74.5 76.3 76 72.6 72.5 71.6 72 73.9 77.3 79 77.5 74.4 68.1 58.5 52.6 55.1 59.5 65.4 74.6 81.6 84.5 83.5 78.5 74 64.5 58.7 49.2 34.2 28.9 27.7 27.1 30.7 38.7 43.7 48.1 51.3 55 59.7 52.7 42.7 39.8 39.9 43.5 52.1 62.4 69.4 68.8 63 50.9 47.6 48.7 49.1 50.7 51.7 54.2 62.6 69.2 71.1 65.9 64.1 62.7 62.6 63 61.7 62.6 63.4 64.5 66.3 72 89.4 94.3 88.6 75.7 76.8 86.2 91.9 98.2 105.4 110.8 114.4 114.3 109.7 102.8 109.7 120.1 126.8 131.2 133 134 134.3 136 139.2 145.7 153 159.6 165.8 171.2 176.2 179.8 183.6 187.6 190.9 192.8 193.2 191.7 186.3 179.3 167.4 157.4 147.8 144.7 144.5 149.3 159 163.6 160.1 146.7 141.5 139.1 143.4 145.3 146.8 145.8 142.6 135.4 118.7 106.6 99.4 92.8 86.3 84.4 88.1 98.5 109.4 118.4 125.4 129.9 132 130.8 126.7 120 110.7 100.4 90.5 84.8 83.8 91.3 103.6 117.9 133.8 151.1 165.5 175.5 182.7 185.5 186.5 186.3 186 184.5 180.9 175.1 167.5 161.6 160.4 166.4 170.9 174.4 176.7 177.6 177 174.8 169.2 157.8 137.6 116.6 96.2 81.8 75.5 70.2 65.4 61.9
39.3 36.9 30.3 27.7 27.3 27.9 30.1 34.9 36.9 40.8 41.2 41.8 41.8 45.2 46.1 54.4 60.8 66.1 68.6 71.9 72.4 71.9 70.6 68.2 67 67.1 71 73.9 76.4 77 73.4 67.3 57.7 51.2 52.8 57.3 65.3 74.2 80.3 82.3 78.7 75.3 68.2 61 52.6 44.5 33.8 28.6 27.1 26.4 33.2 40.2 45.5 50.1 53.8 58.9 64.7 63.8 57.6 45.4 41.1 41.4 43.9 52.3 59.6 56.8 49.3 47.1 47.8 49 53.1 55.7 52.7 52.6 54.8 62.1 65.6 63.8 59.5 58.8 61.2 63.2 65.6 67.1 67.9 65.8 66.4 67 78.4 88.1 81.1 72.8 81.2 89.4 95.8 103 109.7 115.1 119.7 120.5 118.3 112.8 108.7 118.3 126.5 131.7 135.4 137.5 139.1 141.4 146.1 151.8 157.9 163.8 168.1 172.7 175.5 177.9 179.9 183.4 186.2 188.2 189.4 188.4 185.4 181.2 173.4 167.6 163.9 162.5 164.5 167.8 172.5 171.8 165.8 160 158 158.3 160.8 164 162.4 159.3 151.6 140.2 128.2 119.7 110.8 98.8 89.2 84.3 85.2 94.4 99.4 106 113.3 118.8 121.2 120.5 116.6 110 101.3 92 85.6 82.7 85.3 93.7 106.8 121.7 139.4 156.1 169.4 177.8 183.7 184.6 182.6 183 183.3 182.6 179.5 172.7 163.8 155.1 150.5 157.9 164.4 169 172.5 174.9 176.2 175.7 171.1 154.3 128 108.1 93.1 89.4 83.2 75.4 72.1 68.1
39.4 45.4 29.5 27.6 26.8 26.8 29.2 33 36.5 40.3 40.6 41 41.4 42.3 45.1 53.2 60.1 63.7 66.6 69.5 68.8 67.6 66.6 64 60.7 62.5 66.1 70.6 73.9 74.3 71.6 65.7 56.4 51.3 50.2 54.6 66.6 74.4 78.2 78.2 75.2 70.3 62.9 56.4 47.1 36.5 28.8 28.6 26.6 30.4 39.9 42.9 47.8 52.2 56.5 63.9 71.4 71.8 67.3 58.7 46.5 42.3 42.4 43.4 48.4 46.1 46.6 47.1 49.2 54.6 60.5 64.9 63.5 53.3 53.5 55.6 59.8 61.3 57 58.1 63 66.8 72.8 75.4 76.5 73.1 67.9 67.4 70.6 81 74.7 71.6 82.3 90.6 97.9 104.6 110.9 116.5 121.8 124.7 125.6 121.5 117.2 115.6 123.1 130.7 135.2 139.1 142.4 146.4 151.3 156.6 161.4 165.5 169.3 171.3 173.1 174.3 175.9 178.5 180.7 183.2 184.9 185.3 184.7 183.2 179.9 177.4 177.3 177.2 179.5 180.6 181.3 179 176 174.3 174.6 175.4 177 177.1 175.2 170.7 163.7 152 144.1 134.7 123.3 106 91.9 85.1 83.6 86.7 89.4 95 97.7 105.8 110.2 110.2 106.3 99.4 92 85.6 81.8 82.2 87.5 96.9 110.4 126.7 144.5 161 172.5 180.1 183.8 181.9 177.1 179.3 180.6 180.5 178.5 173.9 167.8 159.6 149 145.8 154.9 161.7 166.4 170 173.1 173.6 170 155.6 128.5 112.1 108 105.7 98 88.6 81.2 77.3
41.3 35.1 32.4 27.9 26.8 26.4 27.1 30.6 33.8 35.1 40.3 40.3 36.5 39.5 43.3 51.3 57.3 60.4 63.4 64.2 64.6 64.1 62.7 60.8 57.5 59.2 63.2 68 71.9 71.9 69.9 64.2 56.7 48.8 48.7 54.9 67.2 73.2 75.6 75.5 71 66.1 57.8 49.9 43.9 32.7 27.6 27 26.4 36.2 44.6 46.7 50.7 55.1 59.4 71.1 78.6 78.8 76.7 69.6 58.8 45.5 42.6 42.9 43.8 44.6 45.9 48.2 53 59.5 68.1 71.1 71 67.2 56.4 53.7 56.3 54.7 54.9 58.8 67.5 73.3 78.8 83 83.5 79.7 74.5 67.5 67.8 72.2 70.4 74.4 80.4 86.3 95.1 102.8 109.7 115.7 121.4 126.1 128.8 128.6 126.3 124.1 124.6 130.4 135.8 140.9 146.1 150.7 155.5 159.8 163.8 166.3 168.1 168.6 169.3 169.9 170.4 172.5 175.1 177.7 180.2 181.3 183.3 183.5 183.7 183.7 184.6 185.8 187.3 188.8 188.6 186.7 185.4 184.7 184.5 184.6 185 184.5 182.4 178.4 173 165.7 156.8 147 136.8 115.9 96.4 85.4 82.9 83.1 83.2 82.6 86.6 92.8 97.6 98.8 95.7 90.2 84.5 80.8 80.2 82.5 89.1 100.2 114.8 131.8 150.9 165.6 175.8 181.9 183.4 178.5 171.5 174.5 176.3 177.2 176.5 173.5 168.5 162.3 151.8 138.1 140.8 151.1 157.9 162.9 167.6 171 170.8 160.7 137.2 125.3 127.9 123.8 115.6 106.8 94.8 92.5
58.6 42.7 43.4 29.7 26.5 26.2 26.7 27.9 30 32 33.4 34.1 35.4 37.1 40.1 46.7 53.2 57.1 59 60.8 60.9 60 58.8 57.1 55.4 56 59.4 63.7 68.2 68.8 66.8 61.2 54.9 47.4 48.1 55.1 66.1 71.1 73.2 70.6 67.5 61.4 53.2 44.8 35.2 27.7 27.6 25.4 27.3 41.1 45.6 49.3 53 56.6 65.7 77.1 83.8 85.6 83.2 78.3 71.2 58.1 46.6 44.1 44.3 45.4 47.8 50.4 55.2 63.8 72 76.7 75.8 72.1 65.6 55.7 53.3 53.6 57.5 63.2 71 78.3 85.6 89.8 90.4 86.8 78.4 70 67.5 69.4 70.6 74.4 78.4 81.5 86 96.3 106.1 113.3 119.5 125.9 127.4 132.3 132.7 132.9 130 133.5 139.5 145.3 150.3 154.7 158.5 161.8 163.7 164.4 164.8 164.9 163.2 163 164.1 166.2 168.9 172.1 175 177.6 179.7 181.4 183.2 185.6 187.7 190.1 192.1 192.9 192.8 192.3 191.2 190.6 190.7 190.6 190.2 188.8 186.6 183.5 179.5 174.2 167.4 158 143.6 122.6 101.7 89 84.3 81.9 80.7 79.3 78.7 79.2 89 89.2 87 82.3 79.1 79.1 81.1 86 95 106.8 121.6 138.9 157.5 170.4 178 183.2 182.5 176.6 166.9 168.3 170.5 172.2 172.9 171.4 167.8 162.5 155 142.2 131.4 136.2 145.5 155.4 161.4 166.3 168.7 166.9 155.3 146.1 151.2 145.8 137.4 129.1 121.4 111.3
66.1 50.7 45.4 30.3 27.8 26 25.8 26.4 27.4 29.1 30.2 31 32.6 34.7 37.6 41.6 49.5 52.2 54 56.2 55.9 55.9 55 54 52.1 53.5 58.1 62 65.7 66.8 65.2 58.1 52 48.4 47 54.5 65.2 68.3 68.2 65.9 62.6 57.2 49.8 38.7 32.8 27.7 27.1 25.6 36.5 41.3 45.4 49.6 53.4 58.8 69.5 78.2 84.6 89.4 89.1 84.7 80.7 72.2 60.1 50.5 48.7 48.4 52.9 58.9 60.1 66.1 75.4 81.9 82.4 76.9 68.8 60.7 55.5 56 60.6 69 76.9 83.3 92.8 98 98.2 94.3 84.7 75.6 71.1 70.8 75.6 82.1 88.4 92 92.4 92.8 99.6 108.8 116.1 122.4 128.8 132.3 134.3 136.7 136.5 140 145.1 149.8 153.7 157 159.5 161.6 162.1 160.7 161.7 160.3 159.4 159.4 157.6 160.4 164.7 167.5 170.4 172.4 175.3 177.5 179.9 183.6 188.1 189.5 192.1 193.5 194.6 194.5 194.1 193.8 193.5 193 191.5 190.5 188.7 186.3 183.3 179.3 173.8 165.8 154.4 133.2 112.4 103.3 95.6 87.8 82.5 80.7 78.1 76.7 77.4 81.1 80 77 77.4 79.5 85.2 93.2 104.7 119.7 132.8 148.7 163.7 173.7 180.7 183.5 181.6 176 166.5 157.4 162.9 165.9 167.5 167.4 165.4 161.9 155.3 146.9 133.6 123.7 130.6 141.8 154 159.7 164.6 166.9 165.5 162.4 159.6 155 149.4 143.6 137.7 130.6
69.1 59.4 46.6 44.3 28.4 26.4 25 25 25.9 26.6 27.9 28.9 29.8 32.2 35.4 38.8 42.3 46.7 49.2 50.6 51.7 51.9 50.9 49.9 49.2 49.6 54.2 57.9 62.5 64.3 62.1 55.6 49.6 46.5 46.2 57.6 61.3 63.1 62.7 61.3 58.1 53.6 43.8 35.1 27.7 27.5 24.5 29 35 40.7 43.7 49 53.1 61.4 66.2 74.1 82.2 90 92.6 92.6 85.5 83.8 75.3 65.6 58 57.3 62.7 68.8 70.3 71.1 81.5 87.8 89 84.1 74.3 69.6 62.4 59.5 63.2 74.2 82.9 93.3 101.3 105.9 105.3 102.3 94.4 84.7 77.8 74.2 76.8 87.3 95.7 99.9 102.2 103.1 104 108.4 115.6 125 131.1 137.2 140.6 142.5 143.6 146.8 150.5 153.6 156.4 157.7 159.1 159.8 159 153.5 157.3 155.8 148.7 148.7 151.8 156 160.5 164.4 166.9 169 170.9 171.8 175.3 178.6 182.2 188.2 188.4 191.3 193.3 194.6 194.7 194.2 192.5 191.4 190 188.6 187.5 186.1 184.2 181.2 177 170.7 163.3 149.4 133.5 123.5 112.3 103 95.1 86.7 81 76.8 73.1 73.2 74.7 75.9 79.7 85.8 93.5 105.5 117.9 130.2 143.5 156.5 167.8 176.5 182.2 183.4 180.7 174.8 166 151.7 150.2 158.6 161.1 161.6 160.8 158.6 154.3 146.9 137.9 125.6 118.3 127.2 139.3 151.9 159.4 164.2 164.4 163.5 161.8 159.4 156.2 152.2 148 142.6
71.3 61.3 49.6 44.4 31 26.7 25.7 24.4 24.7 25.1 26.1 26.8 27.3 29 32.5 35.3 38.4 40.6 43.9 45.4 47.6 48 46.7 46 45.7 47.2 51.9 56.3 59.7 61.5 61.1 53.6 49 46.7 46.1 54.1 57 56.6 57.5 56.3 53.5 47.2 41 32.4 26.8 26.3 24 31.3 34.7 37.6 41.4 45.9 47.7 55.2 62.4 72.7 78.5 88.3 93.9 96.8 95.3 91.1 85.5 79.3 72.8 71.2 76.1 82.7 82.2 81.8 92.1 94.6 99 94.8 87 77.8 68.1 63.3 66.4 78.4 90 100.1 108.1 113.2 114 111.5 105.7 97.1 85.6 78.4 80.1 92 100.3 106.5 108.4 110.4 111.4 115.6 124.1 132.8 138.5 142.7 145.9 147.9 149.8 151.9 154.2 156 157.1 157.5 157.7 156.9 155.4 153.7 153.8 150 144.4 141.8 146.7 151.8 156 159.3 161.6 164 165.7 167.1 169.8 170.6 176.3 179.8 183.1 186.6 190.1 192.4 193.1 192 189.7 187.8 185.4 183.7 182 181.4 181.1 179.4 177.5 173.3 167.1 159.3 150.3 141 131.4 121.5 109.7 96.9 85.4 77.9 73.7 71.9 73.6 79 86 94.6 106.2 116.1 126.9 138.9 150.2 161.2 170.6 178.2 182.6 183 179.4 173.2 165.3 151.5 139.6 146.6 152.8 153.9 153.6 152.8 150.5 145.6 138.3 129.2 118.1 114.7 127.1 141.8 153.9 161.1 162.7 161.5 160 158.4 157.2 155.7 153.1 148.9
72.7 66.3 47.5 44.2 44.2 33 26.2 25.1 24.1 24.2 24.7 25.2 25.4 26.3 29.3 30.9 32.7 36 39.2 41.1 44 43.9 42.6 42.5 42.2 44.2 47.8 52.5 56.7 59.6 57.9 54.2 42.4 45 43 48.7 46 49.8 48.8 49.3 45.6 43.9 38.8 28.1 24.9 24.1 23.4 34.8 40.3 43.2 44.8 46.6 49.7 52.1 59.5 65.6 78.5 86.9 93.5 98.3 99.1 100.1 96.9 94 90.4 91.7 96 95 98.5 102.7 105.7 107.3 105.9 104.9 97.8 85.8 70.8 64.5 66.8 79.2 93 104.3 112.6 118.1 120.1 118.2 113.2 106 91.9 85.2 87.9 94 102.9 109.4 113.3 115.1 119.3 126.9 135.7 140.7 144.5 147.9 150.3 152 153.5 154.5 155.8 156.9 157.1 156.6 155.2 153.5 151.5 148.8 145.5 141.9 138.4 137 142.7 149.1 154.1 156.6 158.4 159.5 160.3 160.8 163.3 165.8 167.4 172 176.1 181.9 186.1 190 190.4 188.9 184.9 181.4 178.5 176.1 174.6 173.7 174.3 174.8 173.5 172.6 168.2 162.3 155.1 147.1 137.6 127.7 116.9 102.5 87.2 78 73.1 71.6 74.2 83.2 92 102.4 112.6 122.1 130.7 140.6 151.2 161.5 171.1 178.3 182.4 182.2 178.1 170.3 160.5 148.8 135.6 132 138 142.7 143.8 144.1 144 141.4 136 128.7 119.6 108 116.9 133.5 149.7 157.5 159.5 157.3 154.5 153.2 152.8 153.5 153.5 152.2
74.5 68.3 62.8 54.6 44 43.9 40.6 28 24.8 24.2 24.1 24.1 24.3 24.5 26.5 27.4 30 31.5 34.8 37.3 38.6 39.1 39.1 38.4 38 41.8 45.9 50.7 55.8 58.7 59.1 52.4 45.3 44.2 41.9 39.4 40.9 40.8 41.6 42.8 42.8 38.7 34.4 26.4 24.4 23.6 31.4 39.4 45.9 52.7 55.7 59.2 61.4 62.6 62.9 65.2 73.4 85.5 92.4 96.1 100.8 101.8 103.2 102.9 100.4 104 104.8 107.5 111.2 111.7 115.1 116.6 116.1 112.1 105.3 88.8 74.9 69.2 70.1 75.7 94.9 107 115.1 121.3 124.4 123.4 118.7 111.1 97.6 88.7 89 94.6 103.5 111.2 117.2 124.6 131.6 138.4 142.4 146.3 149.3 151.3 152.6 154 154.6 155.2 155.6 156 155.5 154 152.3 149.6 146.6 143.3 139 136.7 132.5 133.4 141.1 147.1 150.9 153.2 151.9 153.1 153.3 154.2 155.6 157.9 160.7 164.6 169.4 176.4 180.8 185.1 186.7 186 179.3 173.2 167.3 162.8 159.6 161.6 165.6 167 167.6 167.9 166 161.1 154.6 147.1 138.4 128 116.8 102.6 86.6 77.1 72 70.9 75.8 85.1 94.6 104.2 110.6 120.7 127.3 136.3 147.5 158.6 169.3 177.1 181.5 181.7 177.2 168.3 157.7 145.5 133.5 126.7 122.9 124 128.2 132.3 134.3 133.9 130.9 125.4 118 105.7 113.2 128.8 145.2 153.7 154.5 150.7 145.6 143.9 145 147.6 149.5 150.2
74.1 71.8 70.2 66.7 62.8 44 43.3 34.7 27.5 24.3 23.3 23.3 23.5 23.4 24.2 24.4 26.8 28 32.3 33.7 35.8 35.3 34.6 35.4 36.9 39.9 44.6 49.7 55.4 58.7 59.4 54.3 46.9 40.3 39.6 38.4 37.1 40.1 42.1 35.3 39.3 36.3 30.6 25.7 24.2 23.5 32.8 42.8 50.7 58.1 63.1 66.5 68.9 71.6 72.1 69.4 74.1 83.1 89.9 95.6 99.4 103.7 106.9 108.2 109.7 112.6 114.4 117.3 119 118.6 123.2 121.9 121.4 116.5 107.5 89 74.9 69.5 71.7 80.2 97.1 108 115.8 122.2 126.6 126.6 122.6 115.2 101.6 89.5 89.7 96.9 106.6 118.1 128.4 136 141 144.3 147.5 150.3 151.8 152.8 153.4 153.7 154.2 154.4 154.2 154.1 152.9 150.9 148.5 145.4 141.5 137.3 132.7 130.6 128.1 132.4 140 144.5 148.6 149 148.9 148.6 148.2 148.2 148.7 150.5 154.6 156.8 162.1 169.6 176.3 179.7 182.6 182.7 179.2 171 158.4 149.6 142.6 140.6 142.9 150.6 158.9 161 160.6 157.2 151.1 143.9 134.9 124.3 112.5 98 85 76.9 70.8 69.3 77.3 85.3 93.7 100.3 105.7 111.3 115.2 122.9 139.3 153.9 166.9 174.8 180.4 181.5 177.8 171.4 162.8 153.1 142.1 132.7 124.3 117.5 113.4 113 117.9 122.5 123.2 119.6 112.5 101.5 110.5 125.9 142.6 147.9 147.9 142.8 133.3 130.1 134 138.6 142.4 145.1
73.4 73.8 73.8 70.5 66.6 59.4 43.6 36.9 30.8 26.9 24.2 23.2 23.3 23.2 22.9 23.2 23.8 25.5 27.5 30.8 31.9 32.3 32.9 34.3 35.8 40.4 45.4 50.3 54.5 58.2 60.4 58.5 46.2 44.5 42 38.7 41.2 33.3 31.8 31.2 31.5 31.1 26.9 25 24.5 24.4 34.7 43.9 50.8 57.6 63.8 68.3 72.1 76.2 77.3 76.3 76.1 81.2 88.4 91.8 96.3 102.3 106.9 110.7 114 116.8 119.7 122.4 125.2 127.2 128.8 128.6 126.3 120.7 109 88.5 74.5 72.5 74.2 80.5 97.6 107.7 115.5 121.7 127.1 129.1 126.7 120.2 107 98.2 98.4 104.8 116.9 130.1 138 142.7 146.3 148.6 150.5 151.7 152.7 152.8 152.8 152.5 152.2 152 151.4 151.1 150.1 147.9 144.2 141.5 136.8 130.5 128.2 125.2 122.8 132.5 138.5 143.1 145.2 144.9 143.9 141.6 140.4 140.2 141.1 142.5 144.6 150.5 156.3 162.3 169.2 173.4 178.4 180.2 179.8 175.6 167.9 157.2 142.6 132.3 127.7 132.5 142.6 152.8 154.1 151.6 146 138.4 128.9 116.9 105.4 92.5 81.9 75.1 69.3 68.8 76.7 83.2 88.4 92.4 93.7 94.2 96.9 109 130.4 150.7 164.6 173.9 179.8 181.4 178.8 173.4 166 157.9 148.3 139.9 132.6 124.4 116.8 109.6 104.5 105.1 112.7 113.1 107.6 98 108.3 125.1 138.8 141.2 139.7 134.7 121.7 112.5 117.8 127.5 133.6 136.6
71.9 73.4 72.9 72.3 67.1 61.9 55.5 43.2 35.2 31.9 25.7 24.1 23.3 22.9 22.3 22.5 22.7 23.8 23.5 27.2 29.2 29.2 31.3 32.8 36.8 40.4 44.9 49.1 53.4 57.3 60.4 62 47.6 45.5 41.4 41.4 40.6 39.1 37.7 31.5 28.9 27.1 26 24.2 26.2 30.9 35.8 40.9 47.8 54.3 60.7 66.4 71.6 75.5 78.8 80.7 81.7 83.2 88.6 92.3 96.2 101.1 105.4 109.7 114.1 118.1 121.7 125.5 128.8 131.4 133.4 133.4 131.1 125.1 112.2 92.5 75.2 75.4 78.7 85.5 97.2 106.5 113.4 120.2 127 130.9 131.2 126.9 116.2 109.9 110.9 119.4 132.6 139.3 143.6 146.9 149.3 150.3 150.9 150.8 150.9 150.9 150.6 150.3 149.6 148.9 147.9 147.7 146.7 144.2 140.3 136.8 132 126.5 119.4 120 124.9 132.3 137.4 140.9 141.8 140.6 138 135.8 132.7 132.3 132.7 134.4 138.8 145 151.4 158.3 164.9 170 173 176.8 178 176.1 171.4 163.9 152.7 138.6 123.4 120.7 127.1 138.2 145.7 144.7 139.5 131.1 120.8 107.9 96.1 86.4 78.2 72.6 68.3 69 72.9 77.4 80.7 82.4 83.1 87 93.7 108.8 128.5 150 163.3 173.1 178.8 181.1 179 174 166.7 157.5 147.8 139.2 131.8 125.7 120.2 114.4 108.2 101.1 100.8 105.2 102 95.6 108.4 125.3 133.9 134.3 131.2 125.4 116.9 101.6 102.6 115.1 123.1 126.9
70.2 71.6 71.8 71.3 69.5 61.5 57.4 52.5 42.7 47 34 24.3 24.8 22.9 22.2 21.8 22.5 22.9 23.1 24.9 27.1 26.7 28 32.5 36.3 39.6 43.2 46.7 50.8 55.1 58.6 61.2 41.5 57.6 49.1 49.6 47.4 45.6 42 38.4 29.2 25.5 24.6 23.5 24.4 25.1 31.3 36.1 41.1 48.1 53.9 61.6 67.2 72.1 75.4 79.2 82.7 85.6 88.4 90.5 95.2 99.1 102.7 107.3 111.9 116.5 121.5 126.2 130.7 134.5 136.1 137.6 134.7 130.8 125.8 101.4 88 81.5 80.6 86.9 94 102.4 110.6 119.6 128.6 134.5 136.3 134.9 130.3 128.5 132.5 137.3 142.1 145.9 147.6 149.3 149.7 149.4 149.1 148 148.1 147.5 147 146.6 145.6 144.7 143.4 143.6 142.9 140.3 137.2 134.1 127.5 123.6 117.9 116.9 123.1 129.1 136.1 137.8 138 135.6 133.8 130.2 126.4 125.9 124.7 127.3 133.2 138.7 147 153.8 160.7 165.4 168.9 173 174.1 173.9 170.7 164.2 151.6 135.2 122.2 115 115.8 122.9 136.5 136.5 131.8 123.8 112 99.4 88.3 80.8 75.2 70.9 68.4 67.9 68.5 70.5 73.7 75.2 78.3 85.7 95.8 111.7 131.8 151.2 162.7 171.7 177.4 180.3 178.9 173.9 166.8 156.2 144.1 135.6 128.3 122 116.9 112.6 107.9 102.5 95.4 96.5 96.1 92.9 110.5 123.2 128.2 127.7 123.3 116.1 108.5 94 92.2 104.9 110.6 113.5
67.4 68.6 70.1 70.7 68.9 65 60.4 59 53.8 42.7 42.5 33 24.3 26.2 22.6 21.5 21.1 22.4 22.2 22.9 25.4 25.8 28.9 31.9 35 37.8 41 41.4 43.1 39.8 58.2 65.6 68.2 65.7 61.5 56.6 50.1 46.9 42.2 35.9 30.9 24.6 23.7 23.6 24.9 24.6 27.5 30.1 34.1 37.9 43.3 53.7 60.6 66.3 71.5 76.8 79.6 83.5 85.3 89.3 92.3 94.7 98.6 103.4 108.7 114.3 119.8 126.2 132.2 136.7 140.5 140.2 137.7 134.3 129.4 117 100.7 90.9 87.5 88.8 94.3 101.6 111.5 124 133.7 138.7 141.9 142.3 141.4 141.8 143.5 145.8 147.7 148.8 149.2 149 148.1 146.9 145.2 144.4 144.4 143.7 143.8 142 140.6 139.7 139 138.8 138.7 137.6 134.6 129.9 122.9 120.3 113.7 114.3 124.5 130.5 134 135.4 134.5 132.4 129.6 125.1 122.2 119.4 120.3 122 128.3 136.6 143.9 150.2 156.2 161.3 164.3 167 169.2 169.7 168.8 163.1 150.2 131 118.1 110.9 108.8 111.8 123 127.2 124 115.6 104.4 93.1 83.8 78 74.6 72.1 71.1 69.4 67.7 67.2 68.7 71.7 77.8 87.5 99.2 115 135.9 150.3 161.7 169.4 175.4 178.6 178.5 174.2 166.7 155.8 140.9 127.1 121 115.6 111 106.9 103.5 100.2 93.9 89.2 89.6 93.7 108.6 117.5 121.3 120.6 115.4 108.4 100.6 89 83.9 94.9 97.5 96.5
64.3 66.1 67 68.9 67.6 67.5 65.5 63.6 61.2 55.5 42.3 42.1 30.4 23.8 23.4 21.7 21.5 21.3 21.2 22.8 24.2 26.1 27.3 35.1 40.3 39.7 38.4 40.3 43.8 51.5 57.1 64.3 69.5 68.1 63.7 55.7 49.8 42.9 36.4 32 28.1 24.3 22.5 22.2 28.4 29.7 35 39.7 40.4 37.9 39.8 43.2 51.7 60.5 66.6 72.2 76.1 78.6 80.3 83.2 85.3 88 92.9 99.2 107.3 112.5 119.2 126.2 132.3 137.5 142.1 140.5 139.6 137.1 132.6 127.7 120.4 108.6 102.4 101 104 112.2 124 132.9 139.6 143.5 146.4 147.4 147.9 148.8 150.2 150.3 150.4 149.2 148.1 146.2 143.7 142.3 141.3 140.6 140 139.3 138.6 137.5 136.3 135.1 134.5 136 136.8 134.3 130.9 126.1 121.3 114.9 109.7 116 124 127.7 131 131.4 130.9 128.1 125.3 121.1 117.7 116 115.3 121.4 128.1 134.8 141.3 147.5 152.4 155.6 158.7 161.7 163.3 164.6 165.2 162.1 154.6 138.9 119.6 108.7 104.6 105.2 108.5 117.8 114.9 107.7 97.3 88.5 81.4 78.9 80.6 83.9 79.7 75.5 69.2 66.7 66.4 70.2 78.9 89.9 102.8 122.1 139.7 150.7 159.9 167.4 173.1 176.6 176.5 173 166.7 156.2 143.8 127.9 116.8 110.4 105.3 101.2 97.7 94.1 90.4 87 84.6 91.3 98.5 106.5 112.5 112 107.1 100.5 92.8 84.3 78 84 82.1 78.6
61.9 63.3 63.3 66.5 66.7 67.5 66.3 66.2 62.9 58.9 56.2 41.2 41.2 32.8 28.6 19.5 20.7 20.6 20.8 22 22.7 23.7 28.7 31.7 30.1 32.1 35.3 38.9 43.5 48.8 56.3 63.5 68.2 64.3 59.3 52.7 44.7 35.1 30.8 26.5 22.5 20.9 21.2 22.1 24.1 28.3 40.1 46.2 48.2 47 46.5 42.6 45.5 47.5 56.1 66.6 70.8 71.2 71.5 73.9 80.1 88.1 92.6 99.3 105.8 113.4 121.2 128.3 133.9 137.3 138.9 139.1 138.4 138 136 132 129.1 126.3 122.7 121.9 124.1 129.1 134.2 138.7 143.5 146.7 149.4 151.4 152 152.5 152.7 152.1 150.7 147.7 144.6 141.3 139.5 136.6 136.2 135.6 133.8 134.8 134 133.8 132.3 131.2 130 132.2 133.9 132 128 122.9 117.3 111.2 106 115.7 123 125.3 127.3 127.8 127 124.4 121.1 118 114.1 111.3 114.8 121 126.9 133 139 144.5 148.3 151.7 153.9 155.8 157.2 159.3 160.8 159.9 155.2 146.4 128.3 108.8 102.3 100 100.2 103.6 105.3 98.2 90.6 84.4 82.2 84.4 90.1 95.8 91.9 81.8 72.2 66.6 66 71 81.3 93.6 110.1 128.4 140.5 149.9 157.8 164.3 170 173.1 173.5 171 166 159.4 150.3 139.7 129.3 119.9 113.1 108.2 104.8 103 99.7 93.1 85.4 81.7 84.9 90.4 100.8 103.2 97.9 92 85.1 78.8 72.5 73.1 71.6 68.2
59.7 61.4 63.4 63.8 64.2 65.4 66.7 66.7 65.8 61.8 56.3 48.6 41.4 41.5 29.3 27.5 23.8 20.6 20 20.3 21 22.2 23.3 25.7 27.7 29.1 32.3 35.5 39.2 46.7 53.6 60.7 62.7 58.5 52.7 46.1 34.2 27.6 24 20.9 21.9 21.7 22.9 23.5 26.1 34.8 42.9 47.7 53 55.8 57.6 55.5 51.8 49.3 49.6 57.8 62.4 63.2 67.7 75.9 83.6 88.1 93.1 100.7 107.9 116.2 123.8 129.8 133.6 136 136.6 136.4 136 135.9 135.9 135.3 134.5 134.3 132.6 132.6 134.1 136.7 140.3 142.9 145.7 148.2 150.3 152.2 153.5 153.5 153.2 151.7 149.2 144.5 140.2 135.8 132.1 130.8 130.1 129.6 130.2 129.4 129.7 126.5 125.6 124.9 125.5 128.5 129.4 129.4 125.6 120.7 113.7 106.3 106.2 115.5 120.3 121.9 123.7 123.7 122.7 120.8 118.7 115 109 108.5 114.1 119 124.1 129.3 135.8 142.2 145.5 146 148.2 149.2 151.1 153.5 156.3 156.9 154.1 147.2 134 111.8 102.8 98.3 95.8 95.6 94.6 90.3 86.8 84.9 88 93.7 101.5 102.1 91.9 81 71.3 66 65.9 72.7 84.8 101 115.8 129.4 139.3 147.7 155.2 161.3 166 168.6 168.8 167.5 165.1 160.3 154.6 147.9 140.5 134 129.4 124.5 120.3 115.8 109.7 102.4 94 86.3 81 79.5 89.7 94.4 89.6 83.3 77.5 72.6 68.3 64.9 63.7 61.8
57.1 58.3 59.3 61.4 62.6 63.3 65.2 65.5 65.7 64.6 62.1 60.8 41.2 41.2 40.8 38.1 29.3 22.2 19.5 19.5 19.7 20.8 21 23.6 25.7 27.7 30.6 33.2 37.4 45.1 51.5 56.1 57 53.2 45 33.8 26.7 22.6 22 20.4 20.4 21.7 23.7 27.2 29.4 34.4 41.4 45.6 51.8 55.6 60.7 62.7 63.6 62.1 55 54.5 57.4 58.5 67.6 77 83.3 88.5 94.1 103.2 110.7 119.2 125.7 130.1 132.5 133.5 132.7 131.9 131.6 132.1 133.4 134.7 135.8 136.9 137.4 137.7 139.7 140.7 141.6 144 145.8 147.5 148.9 150.5 152.4 152.7 152 149.4 145.9 140.8 134.7 129.7 126.4 125 124.5 124.4 124.3 123.4 126.9 123.7 122.5 120.4 123.7 128.3 129.3 128.3 124.2 117.8 109.7 101 107.1 113.9 116.9 117.8 120.1 119.3 118.9 117.3 115.3 112.4 106.8 107 112.3 118.3 123 128.4 135.2 139.3 141.3 141.2 142.5 142.7 145.2 148 151.4 154.2 153.6 149.1 141.4 122.9 106.4 99.8 95.6 93.2 91 89.3 88.7 92.3 97.6 104.5 108 101.7 90.3 77.9 68.5 65.5 67.3 76.5 90.2 105.4 118.3 128.6 137.2 144.7 151.6 157.2 161.1 162.8 163.4 162.9 161.7 159.7 156 150.8 144.4 138.4 132.4 127.5 122.4 118.1 113.3 107.8 101.2 93.7 86 79.6 81.9 87.7 83.2 77.3 72.4 67.8 64.3 61.8 61.7 61.3
54.8 55.8 57 58 60.6 60.8 62.7 63.7 64.6 64.3 63.5 62.3 60.4 40.8 40.8 40.7 37.6 29.1 20.2 19.6 18.7 19.5 19.5 21.5 23.3 26.3 28.7 30.6 36.5 41.5 47.9 50.7 50.7 44.3 34.1 23.7 21.1 20.3 19.6 19.7 20.8 21.3 25.3 33.7 35 36.6 38.8 42.9 47 54.1 58 64.1 67.7 69.2 68.5 67.4 66.3 65.4 66.2 74.6 82.9 88.7 96.8 105.4 114.6 121.6 126.2 129.2 129.7 128.7 127.2 126.2 126 127.1 129.6 132 135 137.4 139.4 140.8 141.1 141.5 142 142.4 143.1 144.2 145.9 147.8 149.4 150.5 149.9 147.5 144 137.5 129.8 123 119.9 118.3 118.4 118.9 119.1 118.9 119.3 117.7 118.3 118.9 119.5 127.1 129.2 127.6 122.2 115.4 106.3 99.1 107.1 111.6 113.1 113.8 114.6 115.1 114.4 113.6 111.3 106.8 105.2 104.5 110.4 114.9 121.7 127.4 132.9 136.5 136.8 135.3 135.4 136.4 139.6 142.6 147.1 150.3 152.2 151.1 146 136.5 121.1 107.1 101.4 97.9 95.3 96.1 98.4 103 110.2 112.7 108.9 101 85.4 73.4 65.7 64.6 70 79 93.6 107.4 118.2 126.9 134.5 141.4 147.9 152.7 155.7 156.9 157 157 157.1 157.2 155.2 151.1 145.8 139.6 132.9 126.3 121 116.9 113.5 109.2 103.3 96.4 87.3 79.2 77.9 82.8 79 73.9 68.3 65.3 68.6 72.5 72.9 70.5
52.3 53.6 54.8 55.4 58.4 59.3 59.9 61 62.1 64 63.7 62.1 59.5 49.3 40.7 40.6 40.5 40.3 21.1 20 19.3 19 18.6 19.5 21.2 23.5 26.4 29.2 36.3 39.8 43.7 45.7 45.7 35.5 24.5 21.1 19.3 18.1 20 19.7 22.7 26.3 32.4 37.1 40.4 42.5 45.1 46.5 47.7 51.9 55.8 61.2 66.8 70.9 74 76 77 77.3 75.5 78.6 84.4 91.7 102.1 109.8 117.6 123.2 126.1 126.7 124.9 123 121.7 119.9 119.9 121.8 125 129.4 133.5 136.7 139.1 140.7 140.5 139.9 139 138.5 138.1 139.2 141.3 143.6 145.2 147.4 147.8 145.4 142.1 136.4 128.2 117.6 113 112.2 113 113.7 113.7 113.6 113.1 115.5 116.3 117.8 120.9 126.7 129.2 126.6 121.1 113.3 103.6 96.2 105.3 107.6 108.7 109.2 110.2 110.4 110.4 109.4 107.7 103.9 100.9 102.8 109.2 113.3 122 127 131.5 133.6 132.3 129.3 129 129.9 132.2 137.5 142.8 147 150.6 151.8 150.2 146 139 127.5 118.8 112.6 109.5 110.1 112.3 118.1 118.1 113.2 106.8 98.1 82.5 70.1 64 64.7 71.9 81.4 95.4 107.2 117.2 124.6 131.5 138.4 144.3 148.3 150 150.2 150.4 150.8 151.9 153 152.8 150.2 145.3 139.2 131.8 124 117.3 113.2 110.4 108.1 103.5 97.2 88.8 79.6 75 78.1 75.7 70.3 66.2 74.4 82.4 83.3 79.9 73.5
50.2 51.6 52.8 54.1 54.9 55.9 58 59.1 61.2 61.9 62.2 60.5 58 53.4 40.8 40.7 40.3 40 24.9 20.5 19.7 18.5 18 18.2 18.7 20.3 23 26.2 31.7 36.7 40.7 40.7 33.2 25.1 20.9 19.1 18.9 19.1 19.5 21.9 25.2 28.7 33.4 40.1 44.7 48 51.3 53.1 54.1 55.3 56.6 59.7 63 68.7 74.7 78.3 81.5 82.9 83.8 84.4 87.7 97.7 106.2 113.8 119.8 123.7 124.8 122.6 120.3 117.5 113.5 112.4 113.7 116.9 120.2 125.2 130.8 134.9 137.4 138.8 137.9 136.2 133.6 132.3 131.7 132.9 135.5 137.9 141.1 143.2 144.7 144.2 141.5 136.4 129.5 120.3 109.6 106.4 108.2 108.7 108.7 108.4 108.3 113.3 114.7 117.2 123.6 127.9 129.4 126.7 120.9 111.4 100.1 93.9 100.9 102.5 103.3 104.5 106.5 106.2 106.2 104.9 104 101.1 98.1 102.5 107.5 113.9 122.2 126.6 130.1 129.9 128 122.9 121.8 124.3 127.9 132.7 137.9 143.5 148.2 152 152.4 150.4 147 143.9 139.2 134.5 130.5 130 128.3 124.5 118.7 110.7 102.8 93.7 78.9 67.6 63.9 65.5 72.9 82.9 95.9 106.2 114.8 121.9 128.7 135.2 140.5 142.9 143.5 143.5 143.8 145 146.4 148.5 149.5 148 143.9 138.2 130.5 122.2 113.1 107.6 105.2 104.1 101.8 96.8 89.9 80.9 74 73.9 71.3 67.6 74.5 84.4 90.7 89.7 82.5 75.1
47.9 49.5 51.3 52.1 53.6 54.7 56.4 57.1 58.6 60.7 61.1 58.1 54.7 49.4 45.4 40.4 40.1 39.8 38.8 21.7 20 18.8 17.8 17.5 17.8 18.4 20.3 23.1 26.8 30.7 34.1 33.6 26.9 20.2 19.5 16.9 18.5 19.3 19.6 24.5 28.6 32.9 35 40.2 45 51.5 52.9 56.8 58.3 60.6 61.5 62.5 66.3 70.1 74.7 80.2 84.1 86.7 89.2 90.4 93.4 102 109.6 117.3 121.3 122.4 121.5 118.5 114.2 109.5 102.2 102.5 105.9 110.8 116.5 121.8 127.8 133.3 135.9 135.8 134.2 131 127.2 124.4 124 126.4 129.1 131.8 135.3 139 142 142.4 140.1 135.5 129.9 121.9 110.5 102.1 103.1 103.9 104.1 103.2 102.9 106.8 114.6 121.1 126 129.1 129.9 127.3 121.6 112.8 101.2 91.9 90.1 97.6 99.1 99.5 101 101.7 103 102 100.8 96.7 97 102 107.4 116.2 122.2 126 127.9 126.4 122.2 117.7 115.2 118.6 122.8 127.7 134 140.8 147.4 152 153.5 152.3 150.4 148.5 146.1 143.6 139.7 136 131.2 124.6 116.6 106.7 97.4 87.9 75.2 65.9 63.2 66.2 74.1 84.3 95.3 104.4 112.2 119.4 126.1 132.1 136.4 137.3 136.8 136.6 137.5 138.9 141.2 143.7 145.2 145 142.4 137.2 130.8 123.7 115.1 105.6 99.7 99.2 97.8 94.3 88.6 81.9 74.8 71 68.9 75.6 86.2 95.1 98.5 94.8 87 78.5
46.3 47.2 48.2 49.5 51.3 53.5 55.1 55.6 56.5 58.6 59 55.5 50.7 45.9 40.5 36.5 36.6 28.4 33.3 39.1 21.7 18.8 18.6 17.3 17.1 17.2 17.9 19.5 22.7 28.5 28.4 25.6 21.5 17.5 17.8 18.6 17.4 18.8 23.2 27.6 32.2 35.4 38 41 44 47.5 52.3 56.8 61.2 65 67.1 70.1 72.1 75.7 78.5 83.4 88.7 91.7 94.6 97.2 100.8 108.9 114.4 118.7 121.2 121.2 118.6 113 106.3 100.4 97.2 95.3 99.5 105.5 112.3 118.5 125.7 130.8 132.7 131.9 129.6 124.9 120.5 121.1 121.1 121.1 121.9 125.5 130 135.1 138.7 140.2 138.1 134.4 128.5 120.9 110.3 99.3 98.3 99.4 99.1 98.3 105.2 112.1 117.5 121.9 125.3 128.1 129.3 127.4 123.1 115.3 105.7 94.9 88.3 89.1 93.6 94.8 96.7 98 98.3 97.9 95.5 95.3 95.9 102.7 111.2 118.7 122.5 125.4 125 122.2 118.5 112.4 109.9 114.1 118 123.2 130.8 139.2 146.4 150.5 152.1 151.1 149.9 148.6 147.5 145.7 141.9 136.6 129.8 121.9 112.3 102.3 92.5 82 71.6 64.6 63 66.8 75.1 85 94.4 102.5 109.9 117.1 123.5 129.1 132 131.2 129.9 129.8 130.9 133 135.7 138.4 141 142.4 140.3 135.9 129.5 122.8 115.5 106.2 97.7 92.5 92.2 90.2 85.2 79.2 75 74.2 79.5 88.7 97.1 101.3 101.2 97.3 90.6 82.7
45 46 46.8 47.4 49.5 52.2 52.9 54.2 55.6 56.9 56.6 55.1 49.2 43.6 40.4 36.6 39.6 38.8 38.8 39.7 32.5 24.5 19.1 17.7 16.5 16.6 17.7 18.9 21.4 24.6 24 20.4 17.3 17.1 17.3 18.4 18.3 22.1 25.8 30.4 32.7 39.5 41.2 45 47.1 47.1 54 55.5 59.7 66.3 70.5 74 76.8 80.5 83.9 88.9 92.4 96.1 100.3 103.9 109.4 113.1 118.6 120.9 121 118.1 112.6 104.5 96.3 90.2 91.2 93.2 97 99.1 108.1 116.6 123.1 127.2 129.2 128.6 124.6 120.4 119.2 119.7 120.1 120.6 120.7 121.3 125.4 131.8 136.5 137.8 136.1 132.3 126.6 118.6 107.4 97 94.2 94.7 94.6 102.3 108.6 113.5 116.4 119.5 122.3 125.7 127.8 126.7 123.1 116.3 108.9 99.4 91.3 85.4 88.3 91.4 93.2 93.6 94.6 94.3 93 92.4 97.8 105 114.7 120.9 123.9 124.2 121.5 118.2 114.3 107.6 105.4 109.4 113.5 119.7 129.3 138.3 144.9 148.2 148.5 147.4 146.6 146.1 145.3 144.6 141 135.9 128.7 119.8 108.8 98.6 89 79 70.1 63.6 62.5 67.8 76.7 85.4 93 100.6 108.1 115.1 121.2 125.1 126.6 124.8 123.2 122.7 124.4 127.1 130.2 133.3 136.5 138.8 138.3 135 127.4 118.9 111.2 102.7 94.6 89.9 86.4 83.7 79.8 78.2 81.6 87.3 94.4 98.5 101 101.4 100 96.8 91.5 84.6
43.6 42.6 37.4 34.5 34.7 34.7 34.8 49.6 54.3 55.5 55.8 46.7 46.3 44.5 41.7 39.2 39.7 39.1 38.8 39.2 39.5 32 25.4 18.4 17.9 16.1 16.3 16.2 18.7 20.7 19.7 16.8 16.4 16.4 16.8 18.4 20.1 24.1 28 32 35.9 40.6 44 47.8 51 53.2 55.3 59 64.2 69.4 73.6 78.1 81.6 85.7 89.2 93.4 96.9 101.7 106.2 110 113.5 118.1 121.1 121.6 119.3 115.5 104.2 90.7 86.8 85.7 87 90.9 95.2 101.2 106.7 114.3 121 124.5 126.2 125.1 121.2 119.7 119.5 119.6 119.4 119.4 120.4 120.6 121.7 129.3 133.9 135.7 134.1 130 124.3 115.5 104.1 94.2 90.9 91.8 97.9 104.1 108.2 110.8 112.6 115.2 118.6 122.5 124.9 124.6 121.1 115.1 107.9 99.8 91.8 84.7 84 88.8 89.6 90.6 91.3 90.9 90.1 94 103.2 111.3 118.5 122.4 122.7 120.6 117.7 115 110.1 103.7 100.9 105.7 109.5 118.6 129.1 137.4 142.8 145.1 144.1 141.8 140.6 141.1 142.5 142.8 139.9 134.9 127.6 119 108.6 97.6 88.3 79.3 70.5 63.1 62.3 68.6 76.8 83.4 90.7 98 106.3 113 118 120.6 121 118.9 116.4 115.4 117.4 120.5 124.2 127.9 131.5 134.6 136.3 134.4 128.7 120.4 112.2 103.8 98.1 93.1 89.5 87.7 88.3 91.4 95.9 99.2 100.9 101.3 99.9 98 95.8 93.7 89.8 83.8
41.4 40.9 42.2 44.4 45.9 47.1 48.9 50.5 52.4 54.2 55.3 54.2 49.8 46.6 49.1 37.3 39.2 39 38.8 39.4 39.7 37.3 27.7 26.5 19.1 16.9 15.7 15.6 16.2 18.6 16.5 15.2 15.6 16.1 17.3 18.5 22 25.4 29.7 33.9 37.8 41.8 45.7 49.7 54.5 57.7 61.1 65 68.7 73 76.1 80.7 85 88.9 92.9 97.8 99.7 106.1 111.1 115.2 118 121.6 121.5 120.9 117.1 109.2 92.4 81.2 81.1 82.7 85.2 90 93.8 99.6 105.3 112.8 118 122.5 122.5 119.7 120.2 118.9 118.5 118.5 119.1 119.4 119.4 119.7 120 127.4 132.1 133.3 131.8 127.9 122 113.7 101.3 91.8 88.3 92.6 98.5 102.1 104.6 105.6 107.2 109.9 114.2 119 122 122 118.9 113.2 105.1 96.3 88.4 83.3 81.4 84.9 86.1 86.1 87.4 87.9 90.2 102.7 109.4 116 120.6 121.4 120.8 118.3 114.5 109.8 105.1 99.3 97.1 102.4 108.8 119.2 129 136.5 140.8 141 138.2 135.1 133.5 135 137.9 139.8 137.5 133.6 126.5 117.8 108 96.8 88.2 80.7 71.7 63 60.9 66.8 73.5 79.7 87 96.3 104.3 110.4 114 115.7 115 112.6 109.8 107.6 110.6 114.4 118.3 122.6 127 131.3 133.6 133.3 130.5 124.7 117.9 112.3 108 103.9 102.9 101.9 103 102.5 102.5 103.2 101.8 99.4 96.3 93.1 90.5 88.1 85.2 80.7
37.4 38.9 41.5 43.9 45.4 46.9 48.5 50 52.1 54.2 55.2 54.8 51.7 52.1 55.4 59.4 60.7 38.3 38.8 38.8 39.6 39.3 31.3 31.5 18.9 18.5 15.8 15.4 15.6 15.9 15.7 15.4 15.4 16 17.3 19.6 23.6 28 32 36.5 38.8 44.4 49.2 53 57.4 61.9 65.1 69.7 73.7 77.4 82.2 86.2 90 93.5 99.1 103.5 106.8 110.6 116 119.3 122.3 123.5 122.2 120.1 113.4 99.2 81.9 78.6 77.4 80.3 84.4 87.5 93.1 98.2 104.5 110.6 115.9 118.9 119.3 114.8 119.2 117.2 119.5 117.8 117.2 117.7 118.8 118.7 119.8 127.1 130.1 130.5 129.1 125.7 120.1 111.9 100 88.7 87 92.5 96.5 97.9 99.2 99.8 100.9 104.1 109.7 115.1 118.7 118.8 115.6 109.4 101.8 92.2 84.6 80.4 78.8 82 83.4 83.3 85.3 92.6 98.4 107.6 114.2 118.5 120.4 120.2 118.2 115.2 110.7 106.3 100.6 95.1 94.5 100.8 109.9 120 129.3 135.9 138.1 136.8 132.3 124.7 123.2 128.2 133.2 136.2 135.9 132 124.7 116.4 106.3 95.3 87.2 81.2 73.6 64.2 60 63.7 69.9 76.1 85 94.5 102.5 107.6 109.2 110 109.3 107.2 104.3 100.9 104.1 108.3 112.5 117.5 122.8 127.4 131.1 132.3 130.3 128 123.4 120.2 117.1 114.5 112.1 110.6 108.6 106.3 104.5 102.6 99.6 95.6 90.6 86.2 82.3 80.6 78.7 75.9
39.8 41.5 42.4 44 45.7 46.8 48.6 50 52.2 53.4 55.2 55.6 55.3 56.9 58.6 61 61.3 58.4 38.8 38.9 39.6 39.4 31.3 31.4 25.1 20.9 17.3 15.7 14.6 14.3 15.6 15.3 15.5 15.8 17.9 21.4 24.5 29.5 34.5 37.6 42.1 46.7 51.4 55.7 61.7 66.3 70.9 75.7 79 83 86.9 90.5 93.7 97.4 103.2 107 111 115.5 118.8 122.3 124.8 124.4 122.2 117.8 107.7 88.6 77.8 76.5 76.6 79.7 83.3 86.5 89.7 97.2 104 109.5 114.4 116.9 115.3 113.7 116.8 116.7 117.4 117.2 117.4 117.2 117.4 118.2 122.4 127.2 128.5 127.5 126.4 123.3 118.7 110.9 99.9 87.4 85.2 90.2 92.7 93.4 94 94.2 94.4 98.9 105.5 111.3 115.7 115.8 112.6 105.5 96.4 85.6 80.9 78.5 77.4 79.3 80.5 86 90 98.6 104.8 109.8 114.6 117.6 118.7 117.1 115.4 112.4 107 101.8 95.7 91.5 93.9 100.9 111 121.1 129.5 134.8 135.7 132.4 126.6 115 114.9 122.2 128.3 132.8 134 130.4 123 114.1 103.6 93 85.8 80.9 75 66.4 59.5 60.6 66.8 73.7 82.8 93.1 100.3 104.3 104.5 103.8 103 101.7 99.6 95.1 97.4 102 107.2 112.5 118.4 124 128.1 129.9 130.2 129.2 127.4 124.7 122.2 119.8 117 113.6 109.6 106.5 102.9 99.8 95.9 90 82.1 75.5 71.2 69.5 67.2 68.1
37.7 38.9 41.1 43.3 45.8 45.9 48.7 50.2 51.7 53.2 55.4 56.8 57.9 59.7 63.2 63.4 62 58.3 54 40.2 40.1 39.8 31.1 28.7 24.2 19.9 17.1 14.6 14.6 14.8 14.6 14.8 16.2 17.4 20.4 23.5 27.3 31.5 35.7 40.2 44.7 49.8 54.1 64.2 64.4 70.2 75.7 79.6 83.9 87.9 91.8 94.8 97.6 102.2 105.7 108.7 114.4 119.1 122.8 125.2 125.3 124.8 121.7 114.4 97.2 79.1 74.1 72.3 75.6 78.5 81.4 85.7 90.6 95.8 102.9 107 112.9 113.4 111.2 117.1 114.7 115.4 116.4 116.9 117.5 117.3 117.5 117.4 125.2 127.9 126.8 124.5 123.1 121.3 117.8 111.6 102.6 90.4 82.9 85.7 88.2 88.9 88.6 88.2 89.6 94.7 102.3 108.8 113.1 113.1 109.6 102.3 92.1 82.1 78.2 77.8 77.4 80.3 85.8 89.7 97.3 100.2 104.3 108.8 112.8 115.3 114.8 114.9 111.8 107.2 102.4 96.8 90.9 88.5 93.3 101.7 112.1 121.8 129.7 133.4 132.5 128.1 119.8 107.5 109 116.8 123.2 129.2 131.8 128.7 121.6 112.2 100.5 89.1 83.5 79.6 75.1 68.5 59.6 58.5 64.2 70.9 81.3 91.5 98 100.3 99.6 98.2 97.6 96.8 94.9 90.6 91 95.6 102.1 108.5 114.9 120.5 124.4 127.2 128.1 127.5 126.8 126 124.5 122.4 118.8 114.5 108.7 103.6 99.6 95.8 90.7 83.9 80.7 80.8 78.5 73.1 66.9 62.5
38.4 38.7 41 43.2 44.3 46.1 48.6 49.2 52 54.1 55.5 57.8 60.1 62.2 64.7 65.2 62.1 57.6 51.7 40.5 40.5 34.9 29.9 27.8 23.9 19.7 17.2 14.8 14.4 14.6 15.2 15.4 17.1 19.3 22.9 27.5 34 38.1 38.6 40.9 47.3 52.7 58 65.2 70.3 74 78.8 82.6 87.5 90.1 93.7 98.1 100.9 105.3 109.9 112.8 117.2 121.3 124 125.7 125.3 123.8 120.6 108.9 88 73 72.6 71 74 77.8 81.4 85.1 90.1 95.1 101.2 106.6 111.3 110.5 107.6 113 112.1 113.1 115.9 115.5 114.8 116.5 116 118.7 126.4 128.3 124.7 120.3 118.4 117 116.3 111.9 104.7 94.6 82.6 81.1 83.2 84 83.8 83.2 86.2 92.5 100 105.8 109.8 110.2 106.1 99.4 88.8 79.3 77.2 77.6 79.5 83.3 87.8 90.5 94.5 97.3 101.6 105.6 109.1 111.8 111.6 110.7 107.3 103.3 97.9 91.4 86.2 87 93.6 102 113.1 123.3 129.2 131.5 129.3 123.8 113 102.5 104.5 112.4 119.3 126.2 130 127.7 120.9 111.1 97 85.6 80.4 77.3 73.6 68.8 61.5 57.3 61.5 68.3 79.8 90.4 96.4 96.7 94.8 91.9 91.1 91.4 90.5 86.1 84.8 90.6 98.1 105.2 112 117.1 120.5 122.9 123.9 124.2 124.4 124.7 124.3 123 119.6 114.9 108.7 102.7 96.5 91.1 86.6 87.4 89.6 88.1 84.4 79.7 73.6 67.7
43.7 45 46.9 46 47.1 48 49.2 51.1 53.1 54 56.3 58.7 61.5 64.6 66.5 65.4 61.9 56.7 49.5 45.2 40.5 31.1 29 26.7 24.2 20.2 15.7 14.3 14.2 14.9 15.2 15.8 18 21 29 34.1 38.8 41 40.1 43.8 51.9 55.2 62.6 67.8 72.6 77.6 81.1 85.1 89 91.9 95.3 99.3 102.9 106.9 110.7 114.6 118.2 122.1 123.5 125.3 124.7 123.1 116.3 101.3 80.4 71.6 67.5 69.8 73 76.9 79.9 83.6 89.1 94.9 101.2 106.9 108.6 107 107.8 108.3 108.2 108 107.5 108.2 109.3 108.5 111.5 120.6 126.8 128.3 124.9 117.4 111.8 112.5 112.8 111.8 107.3 99.1 88 78.9 78.2 77.8 78.6 79.9 84.1 90.3 96.8 102.9 106.7 107.4 104.1 97 85.8 77.1 76.4 76.8 79.9 82 85.7 88.4 90.7 93.7 97.6 100.5 103.9 106.2 107.5 106.7 102.9 98.4 93.3 86.9 83.9 86.9 94.1 104.9 115.9 124.7 129.3 129.5 126.4 119.7 107.1 97.4 100.4 107.4 115.8 123.7 128.2 127.2 120.7 111.1 95.6 82.5 76.7 73.8 71.1 67.4 62.2 56.8 59.1 66.7 80.8 89.9 93.8 92.9 90 86.5 85.7 86.4 85.5 82.7 80.4 86.7 94.7 102.6 109.1 113.3 115.9 117.7 119 119.5 119.9 121.2 122 121.6 119.6 116.2 111.2 104.8 97 92.4 91.8 93.4 92.3 89.8 85.8 80.6 75.3 68
47.3 50 50 47 45.8 48.5 50.3 51.9 53.8 55.6 57.7 60.9 63.9 66.6 66.6 63.8 60.4 53.1 46.8 42 40.5 31 27.5 24.6 21.1 20.1 16.7 14 13.5 13.2 14.5 15.8 18.7 28.3 34.4 39.6 43.4 45.1 45.4 51.6 54.5 58.8 65.3 70.4 75.4 79 82.6 85.2 89.4 91.7 95.3 99.4 103.3 107.3 110 113 116.2 119.2 121.8 123.1 122.6 120.9 113.2 93.5 74.1 67.2 66.5 69.4 72.1 75.2 78.9 82.5 88 93.9 100.7 105.7 106.6 104.4 107.4 107.7 107.5 107.2 107.5 107.7 107.7 107.7 112.1 120 125.9 127.7 125 119 110.2 104.4 107.7 109.8 108.1 103.5 95.7 88.8 80.2 74.9 74.2 77.1 81.5 87.1 93.3 99.2 102.9 104.3 102.3 95.3 84.3 75.8 75.4 76 77.3 79.3 81.8 84.3 86.1 88.8 90.4 94.6 98.2 101.1 102.7 101.3 98.7 95.2 89.1 82.5 82.1 88.2 97.2 108.2 119.1 126.2 129.2 128.1 123.5 115.4 101.4 93.8 96.5 103.4 112.8 121.5 126.6 126.7 121.5 113 99 83.2 74 70.3 67.6 65 61.1 56.5 58 67.5 82.3 89.4 90.7 88.8 85.6 81.7 80.4 81.9 80.7 78.1 77.2 84.7 93.5 100.8 106.1 109.4 111 112.1 113.2 114 115.3 117.4 119.2 119.9 119.4 117 112.5 106.9 101.6 98.9 98.5 96.1 93.2 88.7 84.5 80.2 74.8 68.1
46.7 49.2 47.8 46 46.6 48.8 50.3 52 55.1 57.3 60.7 62.2 65.9 65.4 63.3 60.3 56.9 50.5 44.7 40 33.1 29.9 25.8 22.8 20.4 17.6 15.8 13.9 13.9 12.3 14 16.3 21.4 30.4 37.8 43.1 47 49.5 52.5 55.2 57.3 62.6 66.6 72.6 75.9 79 81.2 83.1 86.6 91 95 98.8 101.9 105.4 107.7 110 112.8 115.7 119 120.9 120.5 116.3 109.2 86.5 68.3 65.8 64.2 68.1 70.2 74.4 78.3 82.7 86.9 94 100.5 104.1 104.4 99.6 103.3 106.8 106.3 106.8 105.6 104.1 106.9 107 110.1 118 124.3 126.5 124.3 118.9 109.3 100.2 101.2 105.3 106.8 105.7 100.9 94.3 85.9 76.3 72.4 74.7 78.8 83.6 89.4 94.8 99.3 101.5 100.7 95 84 74.6 74.2 73.7 73.9 75.2 76.8 79 80.2 82.7 85.7 89.2 93.9 95.7 97.5 96.5 94.2 90.2 84.1 80.5 82.3 89.6 100.4 112.7 121.8 127.2 128.6 126.2 120.6 112.4 97.2 90.4 93 100.4 110.4 119.3 124.3 125.2 121 113.9 103.1 87.7 73.3 68.9 64.8 62.1 59.5 55.6 58.1 71.2 83.3 87.8 87.4 84.7 80.5 76.6 75.7 77 75.9 73.5 75.1 84.4 92.6 98.7 102.7 105 105.8 106 106.7 107.7 110.5 113.6 116.5 118.3 118.6 117.7 114.8 111.6 108.6 105.5 102.6 97.2 92.4 86.8 82.3 77.6 72.9 67.3
42 45.7 47.3 45.4 47.6 49.7 50.9 53.5 55.2 58.8 62.9 65.4 66.9 65.5 62.4 57.8 53.6 48.1 42 39 32.2 27.7 24.6 21 19.4 16.9 15 13.7 13.7 12.3 14 17.7 24.4 31.6 38.1 44.3 49.4 52.3 55 59.1 62.9 67.8 69.9 72.4 76 76.9 78.4 81.2 84.2 89.1 92.8 96 98.2 101.3 102.2 104.9 107.2 110.5 118.4 119.3 118.5 114.2 105.6 82 66.1 64.3 63.4 65.9 69.2 72.8 78.1 81.9 87.7 93 99.5 102.1 102.5 101 103.6 102.4 98.9 97.3 97.5 97.8 99.5 103.7 107.9 115.2 121.7 125.2 123.6 118.8 107.2 95.4 95.5 100.7 103.9 104.7 102.4 97.2 89.4 78.8 71.7 72.6 75.8 80.1 85.1 90.3 95.4 99 99.8 97 88.6 76.9 72.8 71.9 71.1 71.3 73.3 74.3 77 78.3 79.7 83.3 87.1 88.7 90.3 90.7 89 86.4 80.6 77.5 81.9 91.8 103.4 115.4 123.2 127 127 123.4 117.2 109 93.8 87.8 90.4 98.3 108.4 116.1 120.8 123 120.4 113.7 103.5 90.1 72.4 66.1 62.3 59.4 56.7 55.1 61.5 75.8 82.6 84.6 83 80.5 76.1 72.7 71.2 71.8 71 69.4 75.1 84.5 91 96.1 99.2 100 99.4 99.3 99.5 101 105.4 110.7 113.9 116.2 118 118 117.6 115.8 113 109.8 104.6 98.2 91.1 85.6 81.1 76.2 71.7 70.4
40.8 42.8 45.6 48.7 47.3 48.5 49.7 52.2 55.2 59.5 64.2 66.2 66.5 63.2 59.7 54.2 48.8 44.5 39.9 36.9 29.6 25.8 22.7 20.1 15.8 15.5 14.4 13.3 13.1 12.5 14 17.6 25.5 32.4 39.1 45.8 52.1 56.5 60.5 63.1 66.6 68.7 70.6 71 72 73.5 75.5 77.3 82.9 87.3 90.8 93.2 93.9 94.3 94 96.2 99.9 107.1 113.8 118.1 117.6 112.9 103.6 80.4 64.1 63.5 60.6 64.6 67.9 72.5 77 80.8 86.5 92.4 97.2 99.5 99.7 98.7 97.7 97.4 96.3 96.3 96.5 96.9 98 100 104.7 112.4 119.2 123.5 122.7 117.7 107.7 91.9 90.8 94.8 99.4 101.9 101.5 97.7 91.4 82.3 72.2 69.4 72.3 76.6 80.6 85.7 91 96.3 99.5 99.7 95.9 87 74.3 70.7 69.6 68.2 68.9 70.9 69.8 70.9 72.7 76.5 81.3 82.8 85.2 85.7 84.6 81.7 76.1 75.4 83.4 93.5 107.6 117.6 123.5 125.4 124 119.8 114.1 105.5 91.8 84.2 88 95.2 104.5 112.3 117.4 120.3 118.7 112 102.6 89 70.4 64.6 60.4 57 54.5 54.8 66.3 75.4 78.9 79.7 78.2 75.6 72.6 68.9 66.9 66.5 66 67.7 75.9 83.1 88.4 92.5 94.3 94 93 92 91.1 95.8 103.3 108 111.5 113.9 116 117.9 118.7 117.8 116.1 112.1 106.7 98 89.7 84.5 80.3 77 76.4 78.5
41.3 42.6 43.3 44.6 46.7 46.4 48 50.4 54.2 60.9 63.7 65.7 64.6 62.4 57.7 54.1 48.1 39.7 33.3 34 29.1 24.7 22.4 18.6 15.8 15.6 13.7 13.6 12.4 12.3 14.1 17.6 23.8 33.7 40.4 50 56.5 62.2 65.6 67.8 67.7 69 69.6 71.1 67.7 68 70.2 76.6 81.4 84.9 87.9 88.4 87.2 85.3 82.6 84.3 91.4 104.6 113.9 118.1 117.9 112.7 103.5 80.8 66.6 58.9 59.6 60.6 66.4 71.7 75.3 79.1 84.3 89.6 94.2 96.6 96.5 95.2 94.8 93.7 92.7 94.1 94.5 93.9 93 93.7 99.6 107.9 115.1 120.8 121.5 117 108.6 91.6 86.6 89.5 94.3 97.7 98.7 96.1 91.3 83.9 75.2 68 68 72.5 76.1 81 87.3 93.4 99.2 102.5 101.4 95.8 85.8 72.3 68.1 67.4 63.9 64.8 65 65.5 66.8 69.5 76.4 78.6 80.2 80.6 79.2 77.2 73 76.4 84.8 97.8 110.8 118.4 122 122.9 120.4 115.9 110.1 102.3 90.2 81.7 84.6 92.3 100.5 108.3 114.7 118 116.8 110.8 100.9 87.4 69.4 63 59.2 55.4 53.5 57.4 66.8 70.7 72.5 73.2 72.1 70.5 68.3 65.3 63 61.6 62.2 68.5 74.9 80.2 84.7 87.7 88.9 87.7 86.3 83.9 87.1 95.5 101.1 104.8 108.3 111.5 114.3 116.5 117.9 118.7 117.7 114.9 109 100.4 93.3 88.6 85.5 85.2 88.8 94.4
39.8 40.7 42 43.1 43.7 43 44.2 47 52.7 56.6 60.7 62.9 62.6 60.1 57.2 50.9 42.6 38.4 32.5 31 26.4 23.7 20.5 17.7 15.4 14.5 13.6 13 11.9 11.9 13.3 15.1 26.5 38 44.2 54.8 61.3 65.9 68.2 69.1 68.9 67 65.4 65.9 64.2 62.8 66.9 74.4 78.5 83.2 83.7 81.8 77.1 75.3 72.6 78.1 92 104.9 113.8 118.5 118.5 113.8 104.5 83.8 66.6 58.2 57.2 60.2 63.2 66.9 71.3 74.8 80.9 84.8 89.8 93.6 93.7 91.8 88 86.6 86.3 86.6 87.1 88.6 88.8 87.4 95.9 102.9 111.9 119 119.9 116 108.1 91.4 83.6 84.8 89.6 93.9 95.1 93.5 89.6 83.6 76.8 69.1 65.4 68.4 72.4 77.3 83.8 91.5 100.4 105.4 106 102.4 95.3 84.7 76.6 70.2 64.7 62.4 60.8 60.1 61.1 63 69.6 71.8 74.1 74.7 74.2 71.9 71.5 77.8 88.3 102.3 112 117.4 119.1 118.7 115.9 111.3 105.6 97.5 88.1 79.2 81 88.6 97.3 105.5 112.4 116.3 115.4 109.8 99.3 81.8 66.8 61.4 57.5 53.4 52.1 58.2 61.2 61.8 62.4 64.2 64.2 64.9 63.6 61.8 59.6 58.1 61.7 67.4 71.7 76 80.1 82.6 82.9 81.7 79.3 77.4 86.5 93.9 98.2 101.3 104.5 108.5 111.6 113.8 116 117.8 118.6 117.2 114.2 109.1 104.4 101.3 99.5 100.9 103.4 106.3
36.5 39.2 39 38.3 40.8 38.9 40.2 43.6 47.9 52 56.6 58 59.5 58.6 55.8 49 44.9 37.2 32 28.7 23.7 22.4 19.1 16.5 14.9 14 13.5 12.6 11.5 11.6 13.1 19.8 28.8 36.9 50.3 57.9 64.7 68.4 69.3 68.9 65.8 64.1 63.2 63.3 63.4 65 65.9 73.9 78.1 79.9 79 75.2 67.5 65.8 69 77.5 96.2 107.9 115.7 119.9 119.2 113.7 105.2 90.4 69.5 59.7 54.4 55.7 60 63.2 67.3 70.6 75.8 81.1 86.6 90.4 91 88.9 83.9 80 82.4 83.3 84.5 86.3 85.9 86.4 89.6 99.8 109.8 117.1 118.8 115.4 107.2 89 80.8 81.4 85.8 90.1 91.4 89.8 86.3 81 75.7 69.2 65.3 65.2 69.4 74.4 81.7 91.8 102.7 107.9 109.4 107.2 102.7 96.1 88.6 81.6 75.3 71.3 65.3 61.6 58.6 58.6 65 68.1 68.8 69.4 68.8 68 72.8 81.8 94.1 105.4 111.3 114.3 114.8 113.6 110.4 106.2 100.3 93.3 85 77.6 78.1 85.3 94.2 103.3 110.9 115.1 115.4 109.8 100.8 84.2 66.2 60.1 57.2 52.2 51.1 55.4 56.1 55.3 55.1 55.2 56.7 58.5 59.9 58.7 56.3 55.5 61 63.7 67.6 71.6 74.8 76.7 76.5 74.8 72.1 77.3 86.4 91.2 94.1 97 100.5 104.6 108.2 111.2 114.1 116.1 118.5 119.2 118.3 116.6 113.5 112.1 111 110.7 111.9 113.5
32.8 34.5 35.4 34.4 35 33.8 36.6 39.4 44 47.7 51 55.1 55.8 54.4 50.4 48.4 46.3 38.1 31.7 27.7 24.3 21.2 18 16.5 14.9 13.6 12.7 11.7 11.3 11.5 14.5 24.3 33 36.3 50.9 58.9 66.3 69.6 69.2 66.4 63.1 61.8 55.8 54.9 56 61.5 65.5 72.2 75.1 76 72.8 67 61 62.2 69 83 100 111.1 117.8 121.2 119.2 113.7 105.2 94.3 83 64.4 54.4 52.9 56.4 61.3 62.6 66.3 70.6 77.3 81.7 86.2 87.9 85.9 80.1 79.7 79.4 79.9 81.6 84.2 84.9 85.2 84.7 96.8 107.1 115 117.5 114 106.2 86.6 78.4 78.5 82.6 85.9 87.4 86 82.3 77.5 72.7 67.3 62.4 62.6 66.8 72.3 81.8 95.1 105.1 109.6 110.8 109.1 105.8 100.3 93 85.8 76.6 69.9 66 62.9 57.9 56.4 60.4 62.8 63.9 64.8 65.2 68.7 78.7 89.8 100.3 105.6 108.8 109.8 109.1 107 104.3 100.1 94.4 87.9 80.9 75.2 75.5 82.5 92.4 102.8 111.8 116.4 116.5 111.7 102.8 86.7 68.1 60.2 57.2 51.7 50 52.2 52.7 51.4 50.9 50.7 51.5 53.3 55 55 52.6 54.5 58.5 60.8 62.4 66 69 70 70.3 67.8 68.7 77.7 83.9 87.6 89.5 92.4 97.1 101.3 104.4 107.5 110.5 113.9 117.1 120.1 121.3 121.5 120.1 118.7 117.5 116.5 117.4 117.6
29 30.5 31.1 32.1 31.6 31.6 32.8 34.7 35 41.6 41.9 48.6 49.2 50.1 49.9 48.3 43 35.9 29.7 26.8 24.6 20.4 18 15.7 13.2 13.4 12.4 11.5 11.2 12.4 13.8 25.9 34.6 43.7 51.1 59.7 66.3 69.1 67.7 64 59.8 53 51.3 52.4 54.3 61 64.6 68.7 71.4 68.5 66.2 60.8 57.6 60 67.6 86.7 102.7 112.6 119.6 120.6 117.3 111.9 103.4 94.5 86.2 77.1 59.9 51.4 52.7 54 57.6 60.2 67 71.1 77.3 83 87.1 85.1 80.4 79.7 79.8 79 76.7 77.1 82.6 84.3 83.9 93.1 104.1 112 115.7 112.7 104.7 85.3 76 76.1 79.3 81.7 83.1 81.8 78.5 74.3 69.6 65 61.1 60.7 65 71.2 83.8 98.4 105.7 109.6 110.3 108.5 105.3 100.7 94.1 86.5 76.9 67.9 63.7 60.6 56.5 55.1 57.1 58.7 60.9 64.8 71.4 79.3 89.8 97.8 102 103.6 104.5 104.5 102.6 100.5 97.8 93.7 87.6 81.4 75.9 72 74.2 83.4 93.9 106 114.8 119.2 118.7 114.4 106.7 92.9 72.9 62.1 58.9 52.2 49.1 49.4 49.5 48.2 47.3 46.9 47 48.1 49.8 50.7 49.6 52.9 55.2 55.8 57 59.7 62.8 64.2 63.7 62 69.6 76.3 80.5 83 84.2 88.8 94.1 97.9 100.8 103 106.7 110.9 115.1 119.6 122.1 122.9 122.9 121.9 120.4 119.7 119.3 119.4
25.4 26.6 27.3 28.3 26.9 27.7 31.5 31.1 33.5 36.5 38.8 40.4 41.1 41.9 45.2 44.5 41.4 34.7 29.6 25.8 23.5 21.2 17.4 14.9 12.3 12.6 12.1 11.9 12 12.2 17.4 25.6 34 41.7 48.4 58.8 65.1 67.2 62.5 58.9 55.7 48.1 47.2 49.9 56.6 60.9 64 67 65.2 64.4 59 57 56.9 60.7 71.9 90.6 105 113.8 118.9 119.3 114.8 108.2 100.1 91.6 84.3 78.4 71.9 56.6 49.7 50.1 52.4 55.8 58.9 66.9 72 80.3 84.9 85.5 81.6 72.8 75.4 68.2 57.3 61.5 68.8 77.9 82.9 91.1 102.4 110.1 114.1 112.1 104.5 86.6 74 72.9 75.5 77.8 78.8 78.3 74.9 70.7 66.5 62.3 59.6 59.3 64.2 72.4 88.9 98.1 104.3 107 107.4 105.4 102.3 98.6 93.1 85.8 76.3 66 60.5 57.5 54.7 54.4 56.7 60 65.5 72.5 82 91 97 100.1 100.6 99.5 99.1 98.1 95.6 93.9 90.7 86.2 80.5 74.1 70.4 69 75.8 86 98.4 110.8 118.8 122.4 121.8 118.2 111.2 102 83.8 68.6 60.6 54.7 50.8 47.7 47.9 47.5 47.7 47.5 46.4 45.8 45.3 46 46.8 49.2 50.3 51.3 51.9 53.1 56.5 57.8 57 61.1 68.5 72.7 76 77.6 80.7 87.1 91.6 93.7 95.8 98.4 102.6 107.7 113.1 118.2 121.4 122.1 121.9 121.6 120.7 119.3 118.1 117.6
22.2 23.3 24.4 25.2 22.7 25.7 27 27.6 30.4 32.2 30.5 37 37.7 38.1 34.1 37.7 35.7 30.5 26.5 24.3 21.5 19.1 17.1 13.2 11.8 11.6 11.9 11.6 11.8 12.2 19.5 26.5 33.6 40.3 47.8 56.5 60.8 61.6 57.8 56.2 47.9 43.7 45.3 50.5 56 60.1 62.1 61.8 61 56.6 53.1 51.9 56.7 60 74.6 93.1 104.4 113.2 115.9 114.9 110.4 103.1 95.5 87.5 81.3 77.1 72.2 64.4 51.6 46.6 48.8 50.4 55.1 61.2 68.7 76.4 82.8 82.5 81.1 74.2 68.6 57.9 52.9 53.2 57.2 65.9 75.4 89.2 100.1 108.6 113.2 112.3 106.2 88.9 73.8 70.2 70.6 73.2 74.4 74.5 71.8 67.7 63.4 60.2 57.9 58.4 65.1 77.6 88.6 96.3 100.5 102.3 102.2 100.9 98.2 95.2 90.8 84.1 74.7 63.1 57.6 54.4 52.9 55.1 59.3 64.7 71.5 80.4 88.9 94.9 98.8 98.6 96.8 94 92.1 91 88.7 86 83.3 78.4 72.2 68 67.2 71.1 79.7 90.2 103.2 115 122.1 130.2 124.7 121.5 116.7 109.2 97.6 81.3 70.1 62.7 58.3 56.4 56.7 55.6 59.9 60 55 49.3 47.1 43.8 43.6 43.4 43.9 45.3 46.2 47.8 49.8 51.4 53.9 60.6 65.3 68.7 70.9 73.4 81 85.7 87.9 88.9 90.1 93.5 98.7 104.7 111.2 116.4 119.5 119.8 119.3 117.6 117.4 115.2 114 113
18.2 17.4 20.7 21.9 22.1 23.1 23.9 25.5 27 28 29.3 29.9 30.2 30.8 32.5 32.6 31.2 27 23.3 22.5 19.8 16.9 14.6 12.5 11.8 11.5 11.9 11.4 11.9 13.4 23.1 26.2 33.2 39 47.3 53.5 58.2 57.1 54.5 51.3 44 42.8 45.3 51.1 54.2 56.5 44.7 57.6 54.1 51.4 50.3 50.8 54.4 64 80.4 95.5 105.1 110.3 111.6 109.8 103.5 96.1 89.9 80.4 75.2 73.3 72 66.2 58.3 49.2 45.7 44.4 49.3 56.6 65.2 73.1 80 82.5 76.8 71.1 66.6 55.8 52.4 50.6 53 60.5 75.2 87 97.3 106.2 111.8 112 107 95.1 78.6 69 67 68.3 70.6 71.3 69.1 65 60.9 58.1 56.8 59.1 68.5 79.3 86.7 92.2 95.2 96.2 95.7 94.5 92.5 91.2 88 81.7 72.3 58.5 55.5 51.9 51.9 56.4 61.3 68.1 79.5 83.4 89.9 94.8 97.1 96.1 92.2 88.1 85.3 84.2 82.2 78.9 75.2 70.4 65.8 65.5 66.9 74.6 83.8 96.7 108.7 118.2 123.3 125.9 125.8 123.7 120.6 115.3 109.4 98.9 86.3 77.2 71.8 69.3 69.2 69.1 71.7 71.3 67.3 63.5 61 56.4 50.2 46.3 43.1 41.6 41.6 43.7 45.7 47.8 52.8 57.6 61.4 63.8 67.6 75.5 80.7 82.8 83.7 84 84.1 89.3 95.6 102.4 109.3 114.7 116.5 115.8 113.5 112.2 111.3 109.4 107.7 107
12 15.6 16.8 18.7 18.1 20.5 21.4 21 24.4 25.4 27 27.3 28.2 30.6 30 28.6 25.9 23.7 21.2 20.6 17.7 15.3 13.6 12.2 12.2 12.2 11.2 11.3 11.5 14.6 19.4 24.2 31 37.7 44.3 50.4 52.2 53.5 52 43.7 41.6 40.7 46.3 48.8 50.6 41.1 34.1 48.2 48.7 46.8 50.2 49.8 54.6 64.9 84.4 96.1 105 108.3 106.9 102.7 96.6 88.7 80.4 73.8 68.3 67.2 68.3 64.9 60.3 52.8 45.7 42.2 46.5 54.8 62 70.1 77.5 79.9 75.4 70.3 63.7 54.7 49.6 49.3 51.8 63.4 73.3 83.7 93.7 103.5 109.4 111.3 107.8 101.1 88.3 74.1 66.7 63.8 66.1 67.8 66.2 62.8 58.6 55.8 56.2 61.5 70 77 82.7 86.7 89.2 89 88.7 87.8 87.4 86.9 84.5 79 70.1 55.9 53 50.5 52.6 57.4 63.2 70.5 76.5 82.6 88.4 92.4 93.7 92 87.2 82.1 79 77.8 76.1 72.7 68.4 64.3 61.4 63.5 70.1 78.6 90.4 102.9 112.7 119.1 122.7 124.1 124.7 124 122 119.6 115.8 110.4 103.2 95.5 89.6 86.6 85 84.1 84.3 84.4 82.2 81.2 80.5 74.9 63.5 54 48 44.5 41.2 41.1 42.9 46.1 50.2 53.7 57.6 63.9 71.9 76.9 79.3 79.6 78.8 77.7 80.3 86.5 93.7 100.9 107.6 112.6 114.4 112.1 108 105.7 104.6 102.5 100.7 99.7
11.1 12.6 14.5 16.2 16.8 17.6 18.8 16.8 16.7 21.6 22.6 23.3 23.4 23.2 23.3 27.7 23.8 20.4 18.7 17.5 15.8 14.4 13 11.2 12 11.3 10.9 11.2 12.4 19.1 18.4 20.6 20.7 35.3 42.2 46 48.1 48.6 48.1 42.8 38.8 40.7 42.3 44.3 47.1 34.1 34.1 45 43.6 42.9 49.2 50.6 57.5 71 86.7 98.4 98.8 104.9 102 96.2 89 80.9 73.3 67.8 62.7 61.9 64 63.6 59.4 53.3 45.9 40.7 42.9 49.2 55.7 67.6 75.1 76.6 73.3 66.6 57.9 52.6 48.4 49.1 51.5 60.6 69.9 79.4 89.7 100.6 106.6 111.1 107.6 102.4 94.3 82.3 70.3 62.5 62.5 63.8 63.4 60.4 56.4 54.6 56.6 62.6 68.8 73.4 77.4 80.7 82.5 82.3 82.1 81.1 80.9 82.2 81.6 76.5 67.1 54.6 51 49.6 53.3 58.5 64.4 68.7 73.9 79.6 84.7 89.1 90.5 88.3 82.6 76 72.8 73.3 70.8 67.5 63.4 60.1 59.7 65.5 72.7 84.1 96 106.4 113.4 118.4 120.9 122.5 122.7 122.4 121.3 118.4 118.3 116 113.7 112.5 110 106.6 104.7 104.2 104.2 103.7 102.2 99.5 94.2 86.4 71.9 58.8 52.1 47.8 44 39.6 40.6 44.1 49.8 55.5 61.8 67.7 73 75.3 75.8 74.9 73.8 73.3 78.2 84.8 92.1 99.7 106.4 112.3 112.3 109.4 103.9 99.6 98.7 97.1 94.7 93.3
10.9 11.8 13.6 12 15.2 15.2 16.1 17 17.2 18.4 16.7 20.2 19.1 21 21.9 22.3 20 19.4 17.6 16.3 14.7 14.5 12.1 10.9 10.5 10.2 10.6 10.9 11.9 15.1 19.8 24.4 21.4 32.1 37.1 41.4 44.8 43.8 42.7 40.3 38.2 38.4 39.5 40.5 34.3 34.1 34.2 41 42.8 42.7 43.7 50.4 62 77.2 92.4 93.3 100.9 100.5 96.2 89.5 81.5 73.6 67.6 62 57.6 57 58.9 59.2 57.5 53.1 47.3 40.3 39.2 45.9 53.8 63.3 70 72.1 66 65.8 53 47.9 46.9 49.4 52.6 59.1 66.7 74.9 86.5 98.9 106 109.1 107 101.9 94.5 83.7 71.9 62.5 59.8 60.2 60.6 58 54.1 53.3 56.5 61.4 65 68.3 71.4 74.5 76.2 76 75.9 74.8 74.9 78 79.4 75 63.8 53.2 48.2 49.5 54.4 59.6 63.5 67 70.1 75.4 80.9 85.3 87.6 85.6 78.9 71.2 68.2 68.1 66.3 63.4 59.3 57.1 60.5 67.3 76.8 89.2 100.3 108.3 113.4 116.7 118.7 119.7 120.2 120 119 117.6 117.3 117 117.6 117.6 117.4 116.6 116 115.7 115.2 113.9 110.7 107.4 99.6 89.7 78.6 65.9 56.1 50.6 45.8 40.7 39.2 43.6 51.2 57.1 62.7 67.8 70.6 71.7 71.6 70.5 68.7 71.2 77.1 83.7 91.2 98.7 106 111 111.3 107.6 101.4 96.2 93.2 92.1 89.1 86.8
10.2 10.8 11.3 10.3 12.8 13.2 14.1 14.6 13.9 14.4 14.6 17.4 15.6 15.5 15.1 17.9 17.5 17 15.9 16.1 15.6 15.2 12.6 10.1 10.1 10.2 10.4 10.9 11.8 15.4 19.9 24 26.4 29.7 32.9 36.4 40 40.3 38.5 36.5 34.8 35.4 36.9 38.2 34.1 34.2 34.4 39.8 42.2 42.7 43.1 53.2 66.8 80.3 87.7 93.4 96.6 93.9 91.5 83.1 74 67 62.8 59.2 54.2 52.4 54.3 54.2 53.5 50.8 45.9 41.8 37.4 41.6 51.1 63.2 67.6 67 65.7 57.7 47.1 46.3 45.3 48.1 49.9 54.6 63.3 73.5 86.9 99.2 106.6 108.7 106.1 100.8 93.9 83.8 73.3 64.2 59 56.9 56.8 55.4 52.4 51.8 55 58 60.2 62.2 64.9 67.6 69.8 70.2 70.7 69.4 70 74.5 77.6 75.3 66.5 51.7 47.3 49.7 54.6 57.9 59.9 63.2 64.7 70.1 76.3 81.5 84.7 83 77.2 68.4 63.4 62.9 61.7 58.8 55.5 56.4 62.4 71 83.2 94.3 103.5 107.6 111.3 114.4 116.3 117 117.5 117.2 115.8 109.7 110.2 115.9 118.2 119.4 120.2 120.5 120.3 119.8 119.2 117.3 113.9 109.1 101.9 92.5 82 70.9 60.5 52.2 46.7 41.3 38.8 42.3 50 55.8 61 64.8 67.2 67.4 67.3 65.8 65.1 69.1 75.2 82.4 89.9 98.6 107.1 111.7 111.7 106.9 100.2 93.9 89.9 87.4 85.9 84.1
7.3 7.5 9.9 10.7 11.1 11.5 12.1 12.8 13 13.3 12.9 12.4 13.6 15.4 14.9 14.3 15 14.9 15.2 15.1 15.2 15.7 12.9 10.4 10.2 9.2 10.3 10.6 11.7 16.3 19.3 22 24.6 26.8 30.3 33.4 36.2 36.2 35.7 34.4 34.3 34.4 34.4 35.8 34.5 34.1 37.1 38.3 41.9 42.6 47.8 57.2 69.4 75.5 85.3 88.8 90 89.4 84.6 76.1 69.2 60.9 58.8 55.4 52.2 49.4 49.3 49.9 49 46.3 43.2 39.2 36.1 40.1 47.3 60.5 64.8 59.2 63.4 53.9 45.1 44.3 45.4 47.1 48.8 54.5 63.5 76.1 90.2 100.9 107.2 108.7 105.2 99.1 92.2 83.7 76.5 68.6 61 55.5 53.6 53.2 50.7 50.1 51.5 53.2 54.6 56.2 58.9 61.6 64.5 65.5 66.3 65 66 71.4 77 74.6 67.6 51.8 46.9 48.2 52.8 54.7 55.9 57.1 60.2 64.7 71.8 77.9 81.5 81.1 76 67.2 59.4 57.3 56.9 54.3 53.5 59 67 78.3 89.4 97.1 102.3 105.9 108.6 111.3 113.6 114.5 114.8 114.4 111.7 109.1 109.8 114.5 117.1 118.7 120 120.6 120.6 120 119.1 116.9 114.5 109.1 101.7 93.5 84 74.6 64.8 54.9 48.6 41.3 38.3 40.3 47.9 53.3 57.9 61.3 63 63.1 62.6 61.1 63.1 68.5 75.3 82.7 91.5 101.5 109.1 113.2 113.6 109.1 102.1 96.1 94.3 92.9 92.5 92.5
3 5.9 6.7 7.1 7.1 7.1 10.6 11.2 11.8 12.2 11.5 12.3 12.6 12.7 12.8 13.3 13.9 14 14.3 14.5 15.4 14.8 12.9 9.9 10.1 9.5 9.9 10.9 12.7 15 18.5 21.1 24 24.1 27.3 29.7 31.5 31.2 31.7 30.6 29.8 29 31.9 33 33.6 34.4 36 37.9 38.5 45 49.1 57.1 65.6 73.9 79.5 82.3 82.8 82.6 79.4 73.3 62.4 55.3 54 52.5 48.7 45.6 44.6 44.4 44.2 42.9 39.7 35.2 35.4 38.8 49.5 57.6 61.1 59 58.6 49 44.1 43.9 45.6 46.6 49 58.5 68.3 83.1 95.6 103.9 106.6 106.3 102.8 95.3 87.9 81 76.7 71.7 64.9 57.6 53.4 51.9 49.9 48.4 48.5 48.6 50 51.6 54 57 59.7 61.2 61.7 60.8 62.6 69.2 77.5 80.4 73.2 58.2 48.1 45.3 47.8 50.4 50 51.4 52.8 60.5 67.3 73.7 78.6 78.5 73.4 65 56.1 52.5 51.3 51 55.4 62.5 73.9 84.3 93 98 100.6 102.3 104.3 107.4 110.5 112.3 112.3 110.1 106.2 99.2 105.9 111.7 114.9 117 117.9 118.8 118.8 118.3 117.6 116 112.6 106.7 99.7 91.8 83.3 75.8 67.2 58.1 49.9 42.4 38.9 39 45.5 50.6 54.2 56.9 58.3 58.6 57.9 58.8 63.3 68.7 76.6 85.9 95.4 104.5 111.5 115 115.4 112.8 108 103.8 101.5 99.2 97.5 95
-2.1 -2.1 -2.1 2.2 4.4 5 6.4 6.6 6.6 7.3 11.2 11.9 12.4 12.8 12.9 12.9 13.4 13.1 14.2 14.9 14.4 14.2 12.4 9.1 9.5 9.5 9.8 10.4 10.5 14.5 17.4 19.5 21.9 24.2 24.8 27.3 28.2 28.8 28.5 28.2 28.7 28.2 28.4 29.1 30.2 32.3 33.2 36.4 38.5 43.8 50.3 55.2 61.6 67.7 73 75.2 76 76.5 73.7 66.4 58.8 53.1 51.7 47.5 45.9 43.6 40.8 41.1 39.7 39.1 36 33.6 35.5 42 49.4 53.8 57.5 58.4 51.2 45.5 42.8 41.9 44.5 46 54 61.7 76.3 90.4 100.1 105.7 108.4 107.7 101.8 94.2 84.9 77.8 75.6 73.9 70.4 62.1 56.6 53.1 51 49 47.7 46.7 46.9 48.3 50.4 53.4 55.7 57.1 57.2 56.8 60.4 69.2 75.7 82.3 79.2 69.3 51.7 44.5 43.6 45.6 46.6 47.3 50.2 54.9 63.4 70.5 75.6 75.2 69.4 60.9 53 49.2 48.9 52.9 59.1 69.7 80.2 89.3 94.7 96.9 97.3 98 99.2 103 107.1 109.7 109.8 107.8 101.4 95.5 102.3 108.4 113.1 114.9 115.9 116.6 116.5 116.2 115 113.4 109.1 103.1 95.9 87.9 80.6 73.7 66.7 59.3 51.3 43.8 37.9 36.9 42.6 47.9 50.3 52.6 53.7 54.3 55.4 60.1 65.9 74.4 83.3 92 100.3 107.4 112.4 116.1 117.6 116.9 114.2 110.1 105.6 100.4 96.8 93.8
-2.1 -2.1 -2.1 -2.1 -2.1 -2.1 -2.1 2.9 3.9 5.7 6.3 6.5 6.7 6.2 12.2 12.3 13 12.8 13.5 14.1 13.8 13.7 12.1 9.1 9.6 9.2 9.7 10.4 11 13.9 16.8 18.3 20.5 21.6 23.1 24.3 25.5 25.8 26.4 26.8 23.9 27.4 27.4 28.6 29.8 31.3 33 35.4 39.6 40 46.6 50.9 54.8 59.3 61.6 61.7 62.1 69 68.1 61.5 57.4 49.9 47.2 43.4 42.1 41.1 37.1 38 36.7 31.6 32.6 31.9 37.3 42.7 48.3 50.3 51.5 50.2 47.5 41.4 41.5 41.3 43.2 45.3 54.3 66.6 82.5 94.2 101.6 106.4 107.7 106.5 99.9 92.6 82.2 72.8 71.5 72.5 72.8 70.2 62.4 58.5 56.9 52.9 49.8 46.9 45.3 45.2 47.2 50.7 52.1 53.6 54.2 53.9 57.9 67.7 75.1 81.2 82.5 77.6 64.4 51.6 43.5 42.2 42.9 44.5 46.2 49.3 58.7 66.7 72.5 71.8 65.5 55.5 48.5 47 50.7 56 64.3 75.3 85.4 92.2 94.9 93.8 91.4 90.6 93.1 99.9 104.1 107.1 107.3 104.8 97 92.4 99.5 106.4 111 113.1 114 114.5 114.2 113.9 113 110.1 105 98.1 90.1 82.3 75.9 70.5 65 58.4 52.3 44.7 37.9 36.8 40.6 44.8 46.2 47.1 49.5 54.2 58.9 64.7 72.8 82.1 90.5 97.1 102.8 107.4 111.8 115.7 118.1 119.7 117.8 113.4 106.5 98.4 92.3 89.7
-2.1 -2.1 -2.1 -2.1 -2.1 -2.1 -2.1 -2.1 -2.1 -2.1 -2.1 -2.1 -2.1 1.9 4.2 6.4 6.7 7 9 13.4 13 12.5 10.7 8.3 7.3 8.5 9.6 10.3 10.9 12.2 15.8 16.3 18.5 19.4 20.9 21.7 23.7 23.6 23.9 24.1 27 25.4 25.9 27.2 28.4 29.8 31.8 33.6 35.7 37.5 40.3 45.2 43.3 41.9 52 61.5 61.2 58 57 58.8 54.9 48.4 44.2 41.6 40.2 37.4 34.9 34.3 33.9 31.6 30.4 33.1 37.1 41.6 44.1 45.7 46.1 46 43.7 40.7 38.4 40.7 42.5 44.7 56.1 71.9 87 96.1 102.8 106 106.1 103.4 97.9 89.8 79.6 69.4 67.2 69.9 73 74.4 74.6 72.1 62.6 56.3 52.7 48.9 45.6 43.8 44.1 48.2 48.6 47.1 50.3 51.4 56.2 63.6 70.7 77 80.7 81 76.2 67.7 58.6 46.8 42.7 40.1 40.4 44.8 56.5 63.8 69.3 67.8 61.3 51 45.7 47.6 52.3 58.3 68.3 79.2 88 93.5 94 90 85.4 85.1 89.4 95.5 101.1 104.9 105 102.2 94.4 88.7 96.5 103.6 109.4 111.2 112.1 112.2 111.7 111.4 110.1 107.1 100.5 93.1 84 76.5 71.7 66.3 61.9 57.1 51.8 45.7 38.2 35.3 37.4 40.6 43.9 48.8 53.9 59.3 64.6 72.5 81.2 88.8 94.3 98.8 101.5 105 108.6 113.5 118.6 121.5 120.5 115.4 106.9 96.9 88.3 85.3
-2.1 -2.1 -2.1 -2.1 -2.1 -2.1 -2.1 -2.1 -2.1 -2.1 -2.1 -2.1 -2.1 -2.1 -2.1 -2.1 1.6 5.1 6.5 6.7 6.9 6.3 10.2 9.7 7.9 8.3 8.6 9 4.1 9 9.1 8.4 17.2 18.3 19.7 19.8 21.2 21.1 22 22.9 23.2 24.3 24.9 26 26.9 28 30 31.2 33.2 35.2 37.6 40.7 42.5 42.6 41.6 41.3 41.2 50.1 54 53.8 52.5 48.6 44.3 41.5 38.7 35.9 34 31.8 30.9 29.9 29.1 32.4 35.6 37.5 39.9 38.9 40.3 40.6 39.2 38.6 37.9 39.1 42.5 49.2 60.8 78.6 88.7 95.9 101.5 103.6 103.9 101.2 95.4 86.7 75.9 65.3 63 66.6 71 76.2 82.1 81.6 72.4 59.1 54.2 50.2 46.8 43.6 43.2 42.5 45 44.7 46.4 48.6 53.9 59.2 65.1 72 77.2 80.3 79.4 70.9 59.3 50.9 42.8 40.8 40.6 43.5 52.6 61.4 66 64.1 57.1 47.4 45.2 48.3 52.9 60.4 71.2 81.5 89.3 92.8 91.9 86.9 80.6 80.8 86.1 92.5 98 102.1 102.8 100.3 92.4 85.5 93.6 100.4 107 109.4 109.9 109.9 108.5 107.5 106.7 103.2 97 88.7 80 71.9 65.9 61.2 57.7 54.3 50 44.8 38.2 34.9 36.2 41.6 46.5 51.3 56.8 64.6 72.9 81 87.3 91.8 94.2 96 97.1 99.3 104.6 111.2 118.2 122.2 122.2 116.9 107.4 95.9 88.1 83.1
-2.1 -2.1 -2.1 -2.1 -2.1 -2.1 -2.1 -2.1 -2.1 -2.1 -2.1 -2.1 -2.1 -2.1 -2.1 -2.1 -2.1 -2.1 -2.1 -2.1 3.1 5.4 5.3 5.6 5.6 5.2 4.6 5.6 5.1 5.2 6.6 5.7 7.7 7.5 8 19.2 20 20.6 21 21.6 22.1 23.1 22.8 25.1 25.3 25.2 26.7 29 30.7 31.4 31.4 35 38.5 39.7 41.2 41.1 42 46 46.4 46.8 47.2 45 43.2 41.4 38.5 35.8 34.1 31.1 30.1 27.4 28.2 29 33.8 34.6 35.2 35 36.5 36.9 36.5 36 37 38.3 44.5 51.8 68.6 81.9 89.3 94.5 97.8 99.5 99.5 97.2 92.3 83.7 72.1 61.1 59.7 63.3 68.7 76.7 84.4 86.1 79.6 63.8 56.1 51.9 48.5 44.3 41.2 41.1 42.4 43 43.6 46.4 50.2 53.4 59.4 65.2 73.8 78.2 77.1 67.7 60.9 50.5 43.7 40.8 40.7 43.2 51.3 59.5 62.5 60.4 53.3 44.6 43.4 48.1 53.2 61.9 72.7 82.6 89.1 91.3 88.9 82.9 76.3 77.2 82.8 89.5 95.2 100.3 100.8 98.4 90.6 82.6 90.3 98.4 103.8 106.9 108 106.8 103.1 100 101.8 98.8 92.7 84.9 76.7 69.6 62.8 57.2 53.5 50.8 47.2 43.1 36.1 33.6 36.7 42.7 48.3 53.6 62.2 71.2 79.7 85.7 89 90.5 90.3 89.9 89.7 92.2 100.4 109.8 117.4 122.6 122.8 119.2 109.6 103.7 97.1 91.3
-2.1 -2.1 -2.1 -2.1 -2.1 -2.1 -2.1 -2.1 -2.1 -2.1 -2.1 -2.1 -2.1 -2.1 -2.1 -2.1 -2.1 -2.1 -2.1 -2.1 -2.1 -2.1 -2.1 -2.1 -2.1 -2.1 -2.1 2.4 0.9 2 2.6 3.9 4.8 6.8 6.4 6.7 7.7 7.9 8.2 21 21.4 22.3 23.1 23.5 22.5 22.5 24.8 25.9 27.6 28.7 30.9 32.7 34.9 35.8 36.6 38.5 39 40.2 40.7 40.7 42.9 43.4 42.2 39.3 38.2 35.8 34.5 31.3 28.8 26.8 26.8 28.7 29.1 31.3 31.3 31.4 32.1 33.8 33.8 35.4 36.7 37.5 47.9 58.5 75.6 82.8 87.5 90.7 92.8 94.2 94.8 92.8 88.3 80.1 68.3 57.9 56.8 60.1 65.8 77.8 84.6 88.7 85.8 70.7 60.1 54.1 49.6 44.6 41.5 41.4 40 40.4 41.7 44.5 46.9 49.4 53.9 60.2 68.9 73.8 74.4 66.7 57.5 48.7 42.2 41 40.8 39.5 49 55.4 59.5 57.4 50.6 42.6 42.5 47.9 53.5 62.9 74.2 83.4 88.4 88.7 85.4 79.1 72.5 73.4 79.4 86.6 93.2 98.1 98.7 95.6 88.4 79.4 85.3 93.6 100.7 104.4 105.8 103.2 97 87.3 95.5 93.5 87.5 80.6 73.5 66.9 61.2 55.1 50.2 46.7 44.1 41 35.4 33.4 35.8 43.3 49 57.6 67.5 76.9 83.5 86.4 86.9 86.3 83.8 81.8 81.4 87.8 97.4 107.2 115.3 121.6 123.6 121.4 117.6 113.5 109.4 104.9
-2.1 -2.1 -2.1 -2.1 -2.1 -2.1 -2.1 -2.1 -2.1 -2.1 -2.1 -2.1 -2.1 -2.1 -2.1 -2.1 -2.1 -2.1 -2.1 -2.1 -2.1 -2.1 -2.1 -2.1 -2.1 -2.1 -2.1 -2.1 -2.1 -2.1 -2.1 -2.1 0.3 1.2 2.8 4.3 5.7 6.6 7.1 7.3 7.3 7.5 21.7 22.3 22 22.3 22.5 23.1 24.9 26.4 28.9 29.5 31 32.3 33.5 34.5 35.7 35.7 36.7 36.9 38 37.6 36.8 32.5 33 36.4 34.3 31.8 28.4 25.6 25.6 25.2 26.5 29.7 29.9 30.7 31.5 32.2 33.4 35.3 39.5 45.4 56.1 71.3 77.4 80.8 82.5 85.3 87.1 88.5 89.4 87.8 83.8 75.9 64.8 54.6 53.7 57.2 63.9 76.1 84.1 89.8 89.7 81.7 67.3 58.3 52.3 47.8 43.3 40.2 38.9 37.8 40.8 42.6 44.1 47.5 50.3 55.5 64.1 71.2 71.6 67.3 57.4 47 41.8 39.4 37.8 40.5 48.4 55 52.5 51.8 49.8 42.1 42.1 47.2 53.9 64.5 75.8 83.5 87 85.8 81.9 75.2 69.1 70.1 77.3 84.7 91.3 95.8 96.4 93.2 85.4 76.2 79.7 89.9 97.5 102.4 103.5 100.2 90.2 79.5 87.8 87.2 82.5 76.6 69.9 63.1 57.6 52.7 48.4 43.9 41 38.1 34.3 33.3 37.1 44.7 52.5 62.8 73 80.3 84.1 85.1 83.4 80.5 76.6 74.5 76.9 84.5 94.4 104.7 114 121.1 124.9 123.7 121.4 118.4 115.2 112.3
-2.1 -2.1 -2.1 -2.1 -2.1 -2.1 -2.1 -2.1 -2.1 -2.1 -2.1 -2.1 -2.1 -2.1 -2.1 -2.1 -2.1 -2.1 -2.1 -2.1 -2.1 -2.1 -2.1 -2.1 -2.1 -2.1 -2.1 -2.1 -2.1 -2.1 -2.1 -2.1 -2.1 -2.1 -2.1 -2.1 -2.1 -2.1 5.1 5.2 6.8 7 6.9 7.5 7.3 13 22.1 22.5 23.2 24.2 25.2 26.8 27.5 29.2 30.1 31.1 32.2 32.4 32.3 34.6 34.5 34.1 33.9 34 34.3 32.7 33.3 29.6 26.9 25.7 26.7 27 26.2 30.4 29.8 30 30.6 34.9 36.9 41.6 48.6 57.3 68.3 73.9 76 76.8 77.6 78.9 79.2 81.4 84.4 83.3 79.2 71.6 61.5 52.4 50.9 54.8 62.4 74.7 81.8 88.2 90.9 89.1 80.6 66.5 56.3 51.1 46.4 42 37.5 36.5 36.7 40 41.6 43.3 46.4 52.6 59.9 67.4 70 66.8 55.4 47.2 41 38.1 36.9 39.9 46.1 51 49.9 48.7 47.9 39.8 41.1 46.4 54.2 65.8 76.7 83 84.2 82.3 78.2 71.6 65.6 67.9 75.8 83.8 90.1 94 94.1 90.7 82.1 72.6 76 87.3 95.8 100.4 101.2 97.4 83.8 73.4 78.4 80.6 77.2 72.4 66.6 59.6 53.5 49.2 45.8 41.9 38.5 35.4 33.1 31.9 40.8 48.7 58.1 68 76 80.8 82.3 81.4 77.9 74.4 71.3 70.3 74.3 80.9 92.1 103.8 114.1 121.8 129.2 124.7 122.3 119.2 116.3 112.8
-2.1 -2.1 -2.1 -2.1 -2.1 -2.1 -2.1 -2.1 -2.1 -2.1 -2.1 -2.1 -2.1 -2.1 -2.1 -2.1 -2.1 -2.1 -2.1 -2.1 -2.1 -2.1 -2.1 -2.1 -2.1 -2.1 -2.1 -2.1 -2.1 -2.1 -2.1 -2.1 -2.1 -2.1 -2.1 -2.1 -2.1 -2.1 -2.1 -2.1 -2.1 -2.1 6.2 6.7 6.2 6.6 6.9 7.4 7.7 22.9 23.4 24.1 24.3 26.7 26.8 28.2 28.8 29.9 30.2 30.6 30.5 31.5 28.7 31.5 31.6 32.1 28.6 28.3 25.6 23.8 24.2 23.9 27.3 32.9 35.8 38.9 41.8 44.5 48.3 53.8 61.2 66.1 70.5 72.4 72.5 71.2 70.5 68.7 71.4 76.7 79.4 78.8 74.9 67.8 58.9 50.3 48.8 52.7 60.6 71.4 78.4 85.7 90.4 91.2 89.2 80.5 66.6 55.7 49.6 44.5 40 36.3 35.3 35.6 38.5 40 42.7 48.4 56.6 64.1 67.9 66.3 61 48.4 39.9 37.1 35.9 39.8 44.6 47.5 48.6 46.9 41.1 37.9 40.3 46 55.3 67.7 76.5 80.8 80.8 78.6 74.1 67.6 63.7 66.6 74.9 82.6 90.4 92.3 91.3 87 78.8 69.8 73.7 85.3 93.9 98.5 99 94.6 80.9 67.4 68.7 73 71.5 67.8 62.3 56.3 50.1 45.8 40.1 39.1 35.4 32.9 31.3 38.3 46.4 54.8 63.7 71.6 76.8 79.3 79 76.6 72.7 69.2 67.5 67.7 73.3 82 94.9 106.3 116 122.4 124.9 124.7 122.5 118.5 113.8 109.2
-2.1 -2.1 -2.1 -2.1 -2.1 -2.1 -2.1 -2.1 -2.1 -2.1 -2.1 -2.1 -2.1 -2.1 -2.1 -2.1 -2.1 -2.1 -2.1 -2.1 -2.1 -2.1 -2.1 -2.1 -2.1 -2.1 -2.1 -2.1 -2.1 -2.1 -2.1 -2.1 -2.1 -2.1 -2.1 -2.1 -2.1 -2.1 -2.1 -2.1 -2.1 -2.1 -2.1 -2.1 3.7 5 6.7 6.6 6.6 6.9 6.9 7.9 10.1 24.2 24.9 24.6 24.5 22.6 26.3 27.4 28.3 25.2 26.8 29.5 29 29 28.5 27.1 25 23.4 23.6 22.8 26.7 33.9 38 44.2 48.3 48.8 54.6 58.6 62.1 64.7 68.3 66.9 66.9 64.9 63.6 62.8 67.2 71.1 75.2 74.1 70.4 64.1 55.8 48.5 46.6 50.3 57.3 66.1 74.4 83 88.7 91.5 91.5 88.9 82.5 71.7 55.1 48.1 43.8 38.6 35.5 35.1 35.7 37.2 40.1 45.4 53.2 59.6 63.6 64.9 60.6 50.4 40.2 36.1 35.9 38.8 41.8 44.1 44.2 43.6 39.1 36.4 40.1 45.9 57.3 68.8 75.8 77.8 76.6 73.7 69.7 63.5 60.6 65.6 74 82.3 89 90.1 88.1 83.3 75.9 67.7 72 83.1 92 96.9 97.4 92.9 80.7 64.1 60.1 61.8 64.7 62.1 57.6 52.5 47.1 43.4 38.4 38.1 31.9 31.3 34.2 44.8 52 59.9 67.5 72.6 76 76.3 74.7 71.3 68.2 65.3 63.6 67.7 74.6 86.2 100.5 110.4 118.1 122.7 124.3 123.9 121.8 117.9 112.1 104.7
-2.1 -2.1 -2.1 -2.1 -2.1 -2.1 -2.1 -2.1 -2.1 -2.1 -2.1 -2.1 -2.1 -2.1 -2.1 -2.1 -2.1 -2.1 -2.1 -2.1 -2.1 -2.1 -2.1 -2.1 -2.1 -2.1 -2.1 -2.1 -2.1 -2.1 -2.1 -2.1 -2.1 -2.1 -2.1 -2.1 -2.1 -2.1 -2.1 -2.1 -2.1 -2.1 -2.1 -2.1 -2.1 -2.1 -2.1 3.6 5.6 5.9 6.2 5.1 6.2 6.8 7.6 15.1 21.3 23.7 23.4 24 22.9 25.6 26.5 27.1 27 27.1 26.6 25.2 24.5 22.7 22.6 23.7 24.9 32.6 39.4 44 47 49.8 52.2 54.2 56.7 61.1 62 62.4 60.9 58.9 56.8 56.9 61.4 65.7 70.4 69.7 66.3 61.3 54.7 47 44.3 46.8 52.9 61.6 70.3 80.3 86.1 90.4 91.4 90.5 87.1 80.3 67.7 54.3 46 40.8 35.9 35.1 34.3 34.8 37.9 42.7 48.6 54.8 58.9 62.2 60.7 56.1 42.3 35.3 34.9 36.7 39.2 40.4 41.6 39.1 36.7 35.5 39.9 47 59.5 69.1 73.2 73.5 72.2 68.5 64.4 59.9 58.4 64.6 73.1 81.3 87.2 87.8 84.6 78.8 71.6 65.7 70.3 81.5 90.3 94.8 96.2 92.1 82.7 63.9 56.4 54.3 55.9 56.7 53.4 48.3 44.1 39.5 37.2 32.5 31.3 30.5 42 49.7 56 62.4 68.1 71.7 73.1 72.1 69.4 66.7 63.8 61.6 62.5 68.7 77.5 93.3 104.8 113.4 119.4 122.3 122.8 122.6 121 117.9 111.3 102.9
-2.1 -2.1 -2.1 -2.1 -2.1 -2.1 -2.1 -2.1 -2.1 -2.1 -2.1 -2.1 -2.1 -2.1 -2.1 -2.1 -2.1 -2.1 -2.1 -2.1 -2.1 -2.1 -2.1 -2.1 -2.1 -2.1 -2.1 -2.1 -2.1 -2.1 -2.1 -2.1 -2.1 -2.1 -2.1 -2.1 -2.1 -2.1 -2.1 -2.1 -2.1 -2.1 -2.1 -2.1 -2.1 -2.1 -2.1 -2.1 -2.1 -2.1 -2.1 -2.1 -2.1 5.5 6.9 7 7 7.2 16.2 22.3 22.7 22.8 23.3 22.7 24.8 22.6 24.7 24.3 21.7 22 21.1 22.9 26.6 32.7 36.3 41.9 43.6 46.1 47.8 50.1 51.1 55.6 55.9 55.3 52.6 52.3 51.3 51.9 57.6 61.8 64.1 64.2 61.6 57.7 51.3 45.8 41.8 42.7 48.2 56.5 66.1 78.1 84.4 88.6 90.1 89.9 87.8 82.8 75 61.7 47.5 42.8 38.5 34.7 33.5 33.8 35.2 39.8 45.3 48.9 54 57.9 59.8 57.2 47 36 33.8 34.1 36.3 38 37.8 36.5 32.9 35.3 40.6 50.6 61.6 68 69.8 69.2 66.6 63.1 59.4 55.5 56.2 63.6 73.5 82.1 86 85.3 81.3 74.3 66.2 62.7 69.5 80.1 88.7 93.9 94.8 92 84.9 68.9 55.9 51.1 49.3 50.2 48.7 45.2 41.1 37 32.3 30.2 31.3 37.9 45.5 50.8 55.8 61.5 66.4 68.6 68.5 66.8 64.4 62 60.5 59.9 66.7 70.8 83.8 99.2 108.8 115.8 119.5 120.9 120.7 120.7 119.9 116.7 110.6 101.9
-2.1 -2.1 -2.1 -2.1 -2.1 -2.1 -2.1 -2.1 -2.1 -2.1 -2.1 -2.1 -2.1 -2.1 -2.1 -2.1 -2.1 -2.1 -2.1 -2.1 -2.1 -2.1 -2.1 -2.1 -2.1 -2.1 -2.1 -2.1 -2.1 -2.1 -2.1 -2.1 -2.1 -2.1 -2.1 -2.1 -2.1 -2.1 -2.1 -2.1 -2.1 -2.1 -2.1 -2.1 -2.1 -2.1 -2.1 -2.1 -2.1 -2.1 -2.1 -2.1 -2.1 -2.1 -2.1 -2.1 7.2 7.9 6.3 6.6 6.8 10 10.4 21.7 22 23.2 21.5 22.1 20.9 20.9 14.5 16.6 26.1 30.1 34.5 37.5 39.9 41 41.6 45 47.8 49.2 49.9 49.4 48.3 50 48.3 47.8 51.4 55.8 58.8 59.5 57 53.6 49.1 43.8 39 39.5 43.9 52.1 65.1 77.8 83.2 86.1 87.3 87.8 86.3 83.6 77.8 68.2 52.3 44.5 39.8 36.2 33 32.4 32.6 37.1 41.1 44.4 49.1 52.9 57.2 57.8 53.5 40.6 34.4 33.1 33.8 35.6 35.1 34 33.2 36.4 43.4 53.8 62 65 65.6 63.7 60.7 57.2 54.4 52.7 54.9 64.7 74.9 83.1 84.2 82.8 78.7 71.6 62.1 61.1 68.5 78.6 87.4 92.3 93.1 91.6 87.7 76.2 58.9 51.3 46.8 44.8 43.7 41.3 37.9 34.2 30 28.9 30.7 39.4 44.5 47 52.3 57.8 61.9 63.9 63.4 61.6 60.6 59.3 51.6 58.3 66.3 76.1 91.4 103.3 111.4 115.9 117.4 118.7 119.4 119.5 118.9 116.2 110.8 101.1
-2.1 -2.1 -2.1 -2.1 -2.1 -2.1 -2.1 -2.1 -2.1 -2.1 -2.1 -2.1 -2.1 -2.1 -2.1 -2.1 -2.1 -2.1 -2.1 -2.1 -2.1 -2.1 -2.1 -2.1 -2.1 -2.1 -2.1 -2.1 -2.1 -2.1 -2.1 -2.1 -2.1 -2.1 -2.1 -2.1 -2.1 -2.1 -2.1 -2.1 -2.1 -2.1 -2.1 -2.1 -2.1 -2.1 -2.1 -2.1 -2.1 -2.1 -2.1 -2.1 -2.1 -2.1 -2.1 -2.1 -2.1 -2.1 2.2 4.9 6.9 6.7 7.2 7.1 10.9 14.4 21.6 21.4 20.8 21.5 22.5 24.3 27.9 24.1 26.9 31.7 34.3 37.1 38.2 39.9 41.2 42.9 43.8 43.5 42.9 43.1 42.5 43.9 47.5 51.1 53.5 52.7 50.4 48.6 46 41.7 37.4 36.9 41.3 52.8 67.5 77.1 81.1 83.2 83.2 83.2 83.2 81.9 78 71.6 62.6 47.2 41.1 36.9 33.4 31.3 31.1 34.4 38.3 40.7 43.5 48.3 53.8 57.1 57.1 48 36.6 32.8 31.9 32.6 32.8 32 33.1 38.5 46.9 55.1 59.8 61.7 60.9 57.9 54.8 52.3 50.3 50.8 56.5 68.6 77.5 80.9 81.4 79.4 75.7 69.8 60.5 58.9 66.8 76.7 85.5 90.2 91.3 90.8 88.8 83.6 70.2 54.7 47.4 43 40.3 37 34.3 30.7 29.1 29.2 33.4 36.8 38.2 40.8 44.8 52.1 56.6 58.9 58.9 57.5 54.8 53.7 54.4 56.9 68.7 81.8 97 106.7 112 114.5 115.2 117.3 118.5 119.2 118.3 116 111.7 106.1
-2.1 -2.1 -2.1 -2.1 -2.1 -2.1 -2.1 -2.1 -2.1 -2.1 -2.1 -2.1 -2.1 -2.1 -2.1 -2.1 -2.1 -2.1 -2.1 -2.1 -2.1 -2.1 -2.1 -2.1 -2.1 -2.1 -2.1 -2.1 -2.1 -2.1 -2.1 -2.1 -2.1 -2.1 -2.1 -2.1 -2.1 -2.1 -2.1 -2.1 -2.1 -2.1 -2.1 -2.1 -2.1 -2.1 -2.1 -2.1 -2.1 -2.1 -2.1 -2.1 -2.1 -2.1 -2.1 -2.1 -2.1 -2.1 -2.1 -2.1 -2.1 2.5 6 7.2 6.5 7.7 10.6 11.2 8 6.7 2.1 2.3 2.1 2.7 2.5 5 19.9 32.5 33.3 33.7 34.8 36.6 36.8 38.3 38.6 38.2 38.2 40.2 42.9 45.7 46.5 46.5 46.6 44.5 41.8 37.9 34.9 35.5 40.5 56.8 68 74.9 78.3 78.2 77.7 78 78.6 78.4 77.2 73.1 67.7 54.7 43.2 38.2 34.3 31.1 30.4 30.9 34.9 37.2 41.2 44 48.5 53.7 57.3 54 42.6 33.6 30.9 30.4 30.4 30.9 34.3 40.1 47.6 53.3 56.4 56.8 55.3 52.3 49.7 47.7 47.7 51.2 60.6 71.5 76.5 77.8 77.2 75.2 71.7 66.6 60.1 57.2 64.9 74.4 82.8 87.9 88.9 89.2 88.4 87 81.5 70.4 57.7 48.1 41.5 36.6 32.2 29.5 27.3 28.7 30.8 32.6 33.9 35.3 38.4 45 51.4 54.2 54.6 53.6 52.5 52.8 56 61.7 73.3 88.1 100.9 107.6 111.8 111.2 112.9 115.3 117.1 117.9 117.7 116.2 113.9 110.2
-2.1 -2.1 -2.1 -2.1 -2.1 -2.1 -2.1 -2.1 -2.1 -2.1 -2.1 -2.1 -2.1 -2.1 -2.1 -2.1 -2.1 -2.1 -2.1 -2.1 -2.1 -2.1 -2.1 -2.1 -2.1 -2.1 -2.1 -2.1 -2.1 -2.1 -2.1 -2.1 -2.1 -2.1 -2.1 -2.1 -2.1 -2.1 -2.1 -2.1 -2.1 -2.1 -2.1 -2.1 -2.1 -2.1 -2.1 -2.1 -2.1 -2.1 -2.1 -2.1 -2.1 -2.1 -2.1 -2.1 -2.1 -2.1 -2.1 -2.1 -2.1 -2.1 -2.1 0.8 3.9 7.4 7.8 7.2 7.2 3.5 2.1 2.1 2.2 2.7 2.6 2.4 2.5 2.8 1.8 3.3 19.6 33.1 34.2 34.2 33.8 34.3 34.8 36.9 39.1 41 42 41.8 41.3 40.3 37.6 34.3 33.5 36.1 48.7 58.3 65.9 70.8 72.4 72.3 70.9 71.8 72.6 73.3 73.7 72.8 69.9 62.2 50.1 41 36 31.9 30 29.8 31.2 34 37 40.9 45.2 50.4 55 56.7 50.8 35.4 31.6 29.5 29.4 33.1 36.1 40.5 45.1 49.9 51.7 51.4 49.6 47.4 45.6 44.6 46.9 55 65.9 72.1 73.3 73.4 72.3 70.2 67.4 63.5 57.7 54.6 62.6 73.8 81.6 85.2 86.3 86.9 87.8 87.5 83.7 75.8 66.1 55.1 44.8 38.6 32.9 28.9 26.5 28.4 30.4 33.8 38 37.5 37.4 40.6 46.2 49.7 50.5 49.7 49.6 53.6 57.4 69.4 81.1 96.2 103.7 109.1 108.7 107 109.8 113.3 115.7 116.9 117.5 116 114.2 111.8
-2.1 -2.1 -2.1 -2.1 -2.1 -2.1 -2.1 -2.1 -2.1 -2.1 -2.1 -2.1 -2.1 -2.1 -2.1 -2.1 -2.1 -2.1 -2.1 -2.1 -2.1 -2.1 -2.1 -2.1 -2.1 -2.1 -2.1 -2.1 -2.1 -2.1 -2.1 -2.1 -2.1 -2.1 -2.1 -2.1 -2.1 -2.1 -2.1 -2.1 -2.1 -2.1 -2.1 -2.1 -2.1 -2.1 -2.1 -2.1 -2.1 -2.1 -2.1 -2.1 -2.1 -2.1 -2.1 -2.1 -2.1 -2.1 -2.1 -2.1 -2.1 -2.1 -2.1 -2.1 -2.1 -2.1 4.3 6.4 6.7 1.5 2.1 2.3 2.3 2.7 2.8 2.5 2 1.8 1.8 2.7 1.8 1.8 1.8 20.3 31.2 32.5 33.9 34 35 36.5 37.2 37.6 37.8 36.3 33.2 31.5 34.1 38.2 48.7 55.4 61.1 63.7 65 65.9 63 63.2 66.1 67.5 69.1 70 69.6 66.4 60.3 49.2 40 34.9 30.8 28.4 28.8 29.6 33.7 37.2 41.8 46.6 52.1 57.9 56.5 44.1 33.9 29.3 29 31.6 35.6 38.8 42.2 45.4 47 46.8 45 43.4 42.5 43.2 48.8 60.5 66.4 68.7 68.8 67.4 66.4 64.5 62.5 59.6 53.6 53.2 62.5 74.3 80.4 82.4 82.9 85 87.7 87.4 83.1 75.6 66 54.1 45.1 38.9 33.2 28.5 26.4 27.6 33.1 38 43.2 44 40.8 40.8 42.1 45.1 47.4 48.8 51.2 57.6 66.9 80.5 93.6 102.4 106.7 107.6 104.1 103.4 107.2 111.6 114.4 115.9 116.4 115.5 113.9 111.8
-2.1 -2.1 -2.1 -2.1 -2.1 -2.1 -2.1 -2.1 -2.1 -2.1 -2.1 -2.1 -2.1 -2.1 -2.1 -2.1 -2.1 -2.1 -2.1 -2.1 -2.1 -2.1 -2.1 -2.1 -2.1 -2.1 -2.1 -2.1 -2.1 -2.1 -2.1 -2.1 -2.1 -2.1 -2.1 -2.1 -2.1 -2.1 -2.1 -2.1 -2.1 -2.1 -2.1 -2.1 -2.1 -2.1 -2.1 -2.1 -2.1 -2.1 -2.1 -2.1 -2.1 -2.1 -2.1 -2.1 -2.1 -2.1 -2.1 -2.1 -2.1 -2.1 -2.1 -2.1 -2.1 -2.1 -2.1 -2.1 7.4 2.1 2.2 2.2 2.2 2.4 1.7 1.9 1.9 1.7 1.8 1.8 1.8 1.8 2.4 1.8 1.8 4.9 29.3 31.7 32.8 32.2 33.3 33.7 34 32.2 30.3 28.4 33.1 40.3 44.4 53.2 53.2 57.8 57.5 56.7 53.5 55.5 58.1 60.4 62.4 64.8 67 66.2 63.5 57 47.9 38.8 33.5 29.5 27.4 27.8 30.4 34.4 38.8 42.9 48.9 56.5 58.8 51 35.2 29.6 28.4 29.1 34.6 36.7 38.6 40.7 42.2 41.7 38.8 40 40.7 44.7 54.7 61.7 64.5 63.7 62.8 61.3 60.3 58.5 57.3 55 50.8 52.6 64.5 74.6 78.2 78.4 79.3 83.2 86 85.7 80.7 72.3 62.8 52.8 43.7 38.6 33.3 28.2 26.4 27.2 34.6 39.3 45.4 49.2 48.1 44 42.8 44.1 47 51 58.7 66.5 76.1 91.7 99.5 105.1 106.7 104.1 100.9 101.1 104.8 109.5 113.2 114.8 115.1 114.4 113.1 111.2
-2.1 -2.1 -2.1 -2.1 -2.1 -2.1 -2.1 -2.1 -2.1 -2.1 -2.1 -2.1 -2.1 -2.1 -2.1 -2.1 -2.1 -2.1 -2.1 -2.1 -2.1 -2.1 -2.1 -2.1 -2.1 -2.1 -2.1 -2.1 -2.1 -2.1 -2.1 -2.1 -2.1 -2.1 -2.1 -2.1 -2.1 -2.1 -2.1 -2.1 -2.1 -2.1 -2.1 -2.1 -2.1 -2.1 -2.1 -2.1 -2.1 -2.1 -2.1 -2.1 -2.1 -2.1 -2.1 -2.1 -2.1 -2.1 -2.1 -2.1 -2.1 -2.1 -2.1 -2.1 -2.1 -2.1 -2.1 -2.1 -2.1 2.5 2.6 2.2 2.1 -2.1 -2.1 -2.1 1.7 2.3 1.7 2.8 1.9 2 1.8 1.8 1.8 1.8 1.8 1.8 4.9 6 30 30.3 31 29.9 29.7 28 33.7 38.6 42.1 45.5 50.1 51.5 50.9 50.7 49.1 49.9 51.8 53.3 56.1 59.7 62.7 63.7 62.8 59.2 51.4 41.7 35.1 31.1 27.2 26.4 27.6 31.3 35.3 39.9 46.6 55.3 59.5 55.4 39.9 29.8 27.5 28.1 31.8 32.9 35.7 36.7 37 37.8 39 38.9 42.3 50.5 58.1 60.1 59.4 57.9 56.2 54.1 53.2 53 51.7 49.1 48.8 53.6 66.5 73.7 74.6 73.6 76.5 80.8 83.3 82.6 77.5 69.6 59.8 49.3 43.3 37.3 32.8 27.3 25.8 27 33.8 40.5 46.2 51.5 54.3 54.4 49.1 49.5 51.7 59.6 68.2 80.5 92.8 98.9 103.4 105.4 105.2 100.7 95.6 97.5 103.1 108.9 111.6 112.9 113.5 113 111.8 110
-2.1 -2.1 -2.1 -2.1 -2.1 -2.1 -2.1 -2.1 -2.1 -2.1 -2.1 -2.1 -2.1 -2.1 -2.1 -2.1 -2.1 -2.1 -2.1 -2.1 -2.1 -2.1 -2.1 -2.1 -2.1 -2.1 -2.1 -2.1 -2.1 -2.1 -2.1 -2.1 -2.1 -2.1 -2.1 -2.1 -2.1 -2.1 -2.1 -2.1 -2.1 -2.1 -2.1 -2.1 -2.1 -2.1 -2.1 -2.1 -2.1 -2.1 -2.1 -2.1 -2.1 -2.1 -2.1 -2.1 -2.1 -2.1 -2.1 -2.1 -2.1 -2.1 -2.1 -2.1 -2.1 -2.1 -2.1 -2.1 -2.1 3.2 2 2.2 2.1 -2.1 -2.1 -2.1 -2.1 -2.1 -2.1 -2.1 1.6 1.6 1.6 2.5 2.7 1.8 1.8 1.8 1.9 2.4 2 2.5 6.7 19.3 29 29.2 31.9 35.1 37.7 40.4 43 44.3 44.5 41.8 41.4 42.3 45.9 48.5 51 55 58.2 59.2 60.3 57.9 51.3 42.3 35.9 31.8 27.9 25.7 25.5 28.8 33.1 38.1 45.3 55.1 59.8 55.5 43.3 30.6 26.8 27.5 29.2 30.8 32.4 32.5 33.3 36.3 38.9 42.3 49.3 55.8 57.6 56.5 53.8 51.4 49.4 48 46.5 46.1 45.3 45.8 47.4 54.8 68.2 71.2 70.6 68.4 72.7 77.2 79.1 78.2 73.9 65.5 55.8 47 40.9 35.9 31.2 26.9 25.3 26.5 34 39.6 45 50.8 58.3 64.2 66.8 65.2 69.7 76.5 87.7 96.2 100 103.3 104.9 103.7 102.2 97 92.4 95 101.7 106.7 109.4 110.5 111.1 111.2 110.3 108.6
-2.1 -2.1 -2.1 -2.1 -2.1 -2.1 -2.1 -2.1 -2.1 -2.1 -2.1 -2.1 -2.1 -2.1 -2.1 -2.1 -2.1 -2.1 -2.1 -2.1 -2.1 -2.1 -2.1 -2.1 -2.1 -2.1 -2.1 -2.1 -2.1 -2.1 -2.1 -2.1 -2.1 -2.1 -2.1 -2.1 -2.1 -2.1 -2.1 -2.1 -2.1 -2.1 -2.1 -2.1 -2.1 -2.1 -2.1 -2.1 -2.1 -2.1 -2.1 -2.1 -2.1 -2.1 -2.1 -2.1 -2.1 -2.1 -2.1 -2.1 -2.1 -2.1 -2.1 -2.1 -2.1 -2.1 -2.1 -2.1 -2.1 -2.1 -2.1 -2.1 4.2 -2.1 -2.1 -2.1 -2.1 -2.1 -2.1 -2.1 -2.1 -2.1 -2.1 -2.1 2.5 1.6 2.4 5.1 5.4 1.1 0.4 0.8 1.5 2 2.4 6.9 29.9 31.6 34.5 36.3 37.2 37.2 36.3 41.5 41.1 41.9 41.6 45 47 50.5 52.7 54.5 56.5 55.4 50 41.9 35.9 31.7 28.7 25.6 24.5 26.9 31.3 36.6 44.3 54.3 59 56.4 45.2 31.9 26.5 25.6 27.4 28.5 29.1 30.2 31.9 35.4 41.3 49 53.3 55.6 55.1 51.3 48.2 45.3 43.1 42.5 39.7 41.1 42.4 44 49.1 59.5 69.2 70.7 66.2 63.3 67.8 71.8 74.1 73.6 67.5 60.8 53.2 43.8 40 35.2 30.3 26.7 25.4 28.3 34.8 39 44.1 51.9 62.1 70.1 76.3 80.3 84.5 92.8 97.5 101.4 103.7 104.6 103.8 101.9 99.1 93.8 88.7 92.9 99.4 104.4 106.6 108.3 108.9 109 108.4 107.1
-2.1 -2.1 -2.1 -2.1 -2.1 -2.1 -2.1 -2.1 -2.1 -2.1 -2.1 -2.1 -2.1 -2.1 -2.1 -2.1 -2.1 -2.1 -2.1 -2.1 -2.1 -2.1 -2.1 -2.1 -2.1 -2.1 -2.1 -2.1 -2.1 -2.1 -2.1 -2.1 -2.1 -2.1 -2.1 -2.1 -2.1 -2.1 -2.1 -2.1 -2.1 -2.1 -2.1 -2.1 -2.1 -2.1 -2.1 -2.1 -2.1 -2.1 -2.1 -2.1 -2.1 -2.1 -2.1 -2.1 -2.1 -2.1 -2.1 -2.1 -2.1 -2.1 -2.1 -2.1 -2.1 -2.1 -2.1 -2.1 -2.1 -2.1 -2.1 -2.1 -2.1 -2.1 -2.1 -2.1 -2.1 -2.1 -2.1 -2.1 -2.1 -2.1 -2.1 -2.1 -2.1 -2.1 -2.1 -2.1 -2.1 -2.1 -2.1 -0.9 -0.2 0.2 0.9 1.4 2.2 5.1 22.5 32.7 36.4 37 33.9 33.8 33.6 37.3 37.5 39.4 43.2 46.1 47.8 50.2 52.7 52 47.7 41.2 36 31.9 28.8 25.4 23.9 25.2 29.8 35.7 44 55 60.7 58 45.1 32.2 26.5 25 25.2 26.1 28.3 28.6 33.1 38.4 44.5 49.6 53.2 54.2 51.6 47.2 42.6 40 38 37.6 39.4 40.6 44.9 48.4 53.9 66.5 70.3 66.9 61.1 57.5 61.6 65.5 67 67.2 62.6 53.1 46.9 41.9 36.9 33.3 28.2 25.2 24.6 28 33.7 38.6 44.6 51.8 64.2 73.6 82.1 88.2 91.9 97.7 101 103.2 103.5 102.7 100.9 98 94.7 88.8 85.4 90.8 96.3 99.8 103.8 106 106.9 106.7 106.4 105.3
-2.1 -2.1 -2.1 -2.1 -2.1 -2.1 -2.1 -2.1 -2.1 -2.1 -2.1 -2.1 -2.1 -2.1 -2.1 -2.1 -2.1 -2.1 -2.1 -2.1 -2.1 -2.1 -2.1 -2.1 -2.1 -2.1 -2.1 -2.1 -2.1 -2.1 -2.1 -2.1 -2.1 -2.1 -2.1 -2.1 -2.1 -2.1 -2.1 -2.1 -2.1 -2.1 -2.1 -2.1 -2.1 -2.1 -2.1 -2.1 -2.1 -2.1 -2.1 -2.1 -2.1 -2.1 -2.1 -2.1 -2.1 -2.1 -2.1 -2.1 -2.1 -2.1 -2.1 -2.1 -2.1 -2.1 -2.1 -2.1 -2.1 -2.1 -2.1 -2.1 -2.1 -2.1 -2.1 -2.1 -2.1 -2.1 -2.1 -2.1 -2.1 -2.1 -2.1 -2.1 -2.1 -2.1 -2.1 -2.1 -2.1 -2.1 -2.1 -2.1 -2.1 -2.1 -2.1 -2.1 0 0.6 1.4 1.6 2.7 32.2 31.1 33.8 33.6 33.7 33.5 36.5 39.5 41.8 43.3 46.2 49.1 48.9 45.4 40.4 35.9 32.2 28.8 24.6 23 24.5 29.1 35.5 44.6 55.5 60.7 60.1 49 34 27.5 24.8 24.7 26.5 27.9 31 33.4 39.1 42.4 47 52 51 48.5 43.5 38.2 35.2 35.4 38.1 41 46.6 50.8 55.6 64.5 73.1 73.2 67.8 56.6 51.9 56.2 57.8 58.2 57.7 55.4 48.7 42.4 38 34.4 31.1 27.1 24.6 23.8 27.6 33.1 37.8 44.1 51.1 64.5 76.7 86.2 92.7 96.9 99.8 101.3 102.1 101.5 99.9 97.2 94.1 90.1 84.3 81.8 86.6 90.5 96 101.8 104.4 104.9 104.6 104 103.1
-2.1 -2.1 -2.1 -2.1 -2.1 -2.1 -2.1 -2.1 -2.1 -2.1 -2.1 -2.1 -2.1 -2.1 -2.1 -2.1 -2.1 -2.1 -2.1 -2.1 -2.1 -2.1 -2.1 -2.1 -2.1 -2.1 -2.1 -2.1 -2.1 -2.1 -2.1 -2.1 -2.1 -2.1 -2.1 -2.1 -2.1 -2.1 -2.1 -2.1 -2.1 -2.1 -2.1 -2.1 -2.1 -2.1 -2.1 -2.1 -2.1 -2.1 -2.1 -2.1 -2.1 -2.1 -2.1 -2.1 -2.1 -2.1 -2.1 -2.1 -2.1 -2.1 -2.1 -2.1 -2.1 -2.1 -2.1 -2.1 -2.1 -2.1 -2.1 -2.1 -2.1 -2.1 -2.1 -2.1 -2.1 -2.1 -2.1 -2.1 -2.1 -2.1 -2.1 -2.1 -2.1 -2.1 -2.1 -2.1 -2.1 -2.1 -2.1 -2.1 -2.1 -2.1 -2.1 -2.1 -2.1 -2.1 -0.8 -0.1 0.8 1.5 2.3 28.2 29.7 33.3 33.6 35.3 36.1 37.1 39.2 42.1 45.1 45.3 43.4 39.3 35.4 31.7 27.7 23.3 22.1 23.8 28.7 35.4 45 55.1 61.5 62.2 54.8 39 30.1 24.9 23.5 24.3 27.2 31 33.5 37.1 38.8 44.1 47.5 47.9 43.9 40.3 35 33.8 35.1 38.9 44 48.9 54.5 63.2 74.6 77 74.1 65.6 53.3 47.4 48.8 51.4 50.9 52.1 47.2 43.2 38.1 34.7 32.2 29.2 25.2 23.4 23.6 27.7 33.7 37 42.8 51.8 67.6 79.8 88.6 94.6 98.2 100.1 100.1 99.5 98.1 95.9 92.4 89.2 84.7 79.8 77.6 81.5 89.4 96.9 100.4 102.3 103.1 102.7 102 100.9
-2.1 -2.1 -2.1 -2.1 -2.1 -2.1 -2.1 -2.1 -2.1 -2.1 -2.1 -2.1 -2.1 -2.1 -2.1 -2.1 -2.1 -2.1 -2.1 -2.1 -2.1 -2.1 -2.1 -2.1 -2.1 -2.1 -2.1 -2.1 -2.1 -2.1 -2.1 -2.1 -2.1 -2.1 -2.1 -2.1 -2.1 -2.1 -2.1 -2.1 -2.1 -2.1 -2.1 -2.1 -2.1 -2.1 -2.1 -2.1 -2.1 -2.1 -2.1 -2.1 -2.1 -2.1 -2.1 -2.1 -2.1 -2.1 -2.1 -2.1 -2.1 -2.1 -2.1 -2.1 -2.1 -2.1 -2.1 -2.1 -2.1 -2.1 -2.1 -2.1 -2.1 -2.1 -2.1 -2.1 -2.1 -2.1 -2.1 -2.1 -2.1 -2.1 -2.1 -2.1 -2.1 -2.1 -2.1 -2.1 -2.1 -2.1 -2.1 -2.1 -2.1 -2.1 -2.1 -2.1 -2.1 -2.1 -2.1 -2.1 -0.9 -0.3 0.4 1.2 2.2 27.1 29.5 29.3 35.3 33.5 35.6 38.5 40.8 41.6 39.9 37.5 34.3 31 26.5 22.5 21.5 22.9 28.1 35.2 45 54.8 61.7 63.8 60.8 49.2 35.4 27.4 23.1 23.3 25 28.6 30.6 32.7 36.1 39.7 43.3 44 41.1 37.8 32.5 32 35.2 39.9 45 49.9 61.1 73.2 79.3 79.6 74.4 65.2 52 43.7 42 44.7 44.6 43.1 41.2 37.7 33.8 32.5 29.3 26.2 22.9 22.7 24.4 30 34.9 38.6 44.5 58.6 72.6 83.1 91 95.8 98.2 98.5 98.3 96.9 94.7 91.4 87.8 84.1 79.8 75.7 75.2 81.4 89.1 95.2 98.6 100.1 100.6 100.5 99.9 98.9
-2.1 -2.1 -2.1 -2.1 -2.1 -2.1 -2.1 -2.1 -2.1 -2.1 -2.1 -2.1 -2.1 -2.1 -2.1 -2.1 -2.1 -2.1 -2.1 -2.1 -2.1 -2.1 -2.1 -2.1 -2.1 -2.1 -2.1 -2.1 -2.1 -2.1 -2.1 -2.1 -2.1 -2.1 -2.1 -2.1 -2.1 -2.1 -2.1 -2.1 -2.1 -2.1 -2.1 -2.1 -2.1 -2.1 -2.1 -2.1 -2.1 -2.1 -2.1 -2.1 -2.1 -2.1 -2.1 -2.1 -2.1 -2.1 -2.1 -2.1 -2.1 -2.1 -2.1 -2.1 -2.1 -2.1 -2.1 -2.1 -2.1 -2.1 -2.1 -2.1 -2.1 -2.1 -2.1 -2.1 -2.1 -2.1 -2.1 -2.1 -2.1 -2.1 -2.1 -2.1 -2.1 -2.1 -2.1 -2.1 -2.1 -2.1 -2.1 -2.1 -2.1 -2.1 -2.1 -2.1 -2.1 -2.1 -2.1 -2.1 -2.1 -2.1 -2.1 -0.7 0.5 1.3 2 19 29.5 30.4 31.9 34.4 36.6 37.5 37 35.4 32.3 29.3 25.5 21.6 20.7 22.4 27.3 35 44.6 53.6 60.5 64.3 63.5 59.6 49.7 33.4 24.4 22.4 22.8 26.5 28.4 29.3 31.1 36 39.7 39.4 37.5 33.9 30.6 32.2 36.1 40.6 45.4 56.1 70.1 80 82.8 80.2 74.2 65.8 54.5 44.4 39.4 37.5 37.6 36.6 35.7 33.2 31.6 29.2 26.3 23.4 22.3 22.2 27.2 31.5 36.5 41.1 49.8 67.8 79.4 87.1 92.7 96 97 96.9 95.9 93.9 90.6 86.8 82.6 78.4 74.6 72.7 74.9 82.8 89.6 94.2 96.4 97.6 98.2 98.2 97.8 96.7
-2.1 -2.1 -2.1 -2.1 -2.1 -2.1 -2.1 -2.1 -2.1 -2.1 -2.1 -2.1 -2.1 -2.1 -2.1 -2.1 -2.1 -2.1 -2.1 -2.1 -2.1 -2.1 -2.1 -2.1 -2.1 -2.1 -2.1 -2.1 -2.1 -2.1 -2.1 -2.1 -2.1 -2.1 -2.1 -2.1 -2.1 -2.1 -2.1 -2.1 -2.1 -2.1 -2.1 -2.1 -2.1 -2.1 -2.1 -2.1 -2.1 -2.1 -2.1 -2.1 -2.1 -2.1 -2.1 -2.1 -2.1 -2.1 -2.1 -2.1 -2.1 -2.1 -2.1 -2.1 -2.1 -2.1 -2.1 -2.1 -2.1 -2.1 -2.1 -2.1 -2.1 -2.1 -2.1 -2.1 -2.1 2.4 -2.1 -2.1 -2.1 -2.1 -2.1 -2.1 -2.1 -2.1 -2.1 -2.1 -2.1 -2.1 -2.1 -2.1 -2.1 -2.1 -2.1 -2.1 -2.1 -2.1 -2.1 -2.1 -2.1 -2.1 -2.1 -2.1 -1.3 -0.5 0.3 1.1 1.8 2.4 12.8 30.6 30.8 33.8 33.7 32.6 30.7 27.6 24.1 20.9 20.5 21.6 27.1 36.4 38 52.4 58.8 63.3 64.5 62.5 56.3 43.2 28.4 22.3 21.8 21.3 24.9 26 29.5 32.6 35 34.5 32.4 30.8 29.7 31.6 36 41.3 49.1 64.1 74.8 81.9 83.7 80.4 74.7 65.6 56.8 48.1 41.2 36.1 33.1 31.6 31.3 29.2 27.9 25.9 23.2 22 21.5 22.6 28.1 32.5 37.8 49.7 66 75.5 84.1 90 93.6 95 95.4 94.6 92.8 89.9 86.1 81.5 77.9 74.2 70.4 69.5 75 84.1 89.4 92.4 94 95.1 95.6 95.1 94.6 94.2
-2.1 -2.1 -2.1 -2.1 -2.1 -2.1 -2.1 -2.1 -2.1 -2.1 -2.1 -2.1 -2.1 -2.1 -2.1 -2.1 -2.1 -2.1 -2.1 -2.1 -2.1 -2.1 -2.1 -2.1 -2.1 -2.1 -2.1 -2.1 -2.1 -2.1 -2.1 -2.1 -2.1 -2.1 -2.1 -2.1 -2.1 -2.1 -2.1 -2.1 -2.1 -2.1 -2.1 -2.1 -2.1 -2.1 -2.1 -2.1 -2.1 -2.1 -2.1 -2.1 -2.1 -2.1 -2.1 -2.1 -2.1 -2.1 -2.1 -2.1 -2.1 -2.1 -2.1 -2.1 -2.1 -2.1 -2.1 -2.1 -2.1 -2.1 -2.1 -2.1 -2.1 -2.1 -2.1 -2.1 -2.1 -2.1 -2.1 -2.1 -2.1 -2.1 -2.1 -2.1 -2.1 -2.1 -2.1 -2.1 -2.1 -2.1 -2.1 -2.1 -2.1 -2.1 -2.1 -2.1 -2.1 -2.1 -2.1 -2.1 -2.1 -2.1 -2.1 -2.1 -2.1 -2.1 -2.1 -0.9 0.1 0.6 1.1 2 14.7 29.9 29.4 29.9 28.5 26 23 20 20.4 20.7 26.1 34.9 38.9 50.8 56.4 60.4 62.5 61.6 57.2 48.7 33.9 24.2 21 19.9 20.7 23.8 26 29.5 30.1 30.6 29.6 27.7 29 32.4 37.4 43.7 58 67.7 76.7 82.4 83.6 80.5 74.6 66.8 58.8 50.8 43.5 38.3 33.2 29.3 28.5 26.5 25.4 23 21.6 20.9 20.2 24.9 29.6 35.8 46.8 59.7 70.8 79.9 86.6 90.8 92.9 93.6 93 91.6 89.2 85.8 82.1 76.3 72.3 69.7 66.8 68.3 76.2 83.1 88.2 89.7 91.3 92 92.1 92 91.7 91
-2.1 -2.1 -2.1 -2.1 -2.1 -2.1 -2.1 -2.1 -2.1 -2.1 -2.1 -2.1 -2.1 -2.1 -2.1 -2.1 -2.1 -2.1 -2.1 -2.1 -2.1 -2.1 -2.1 -2.1 -2.1 -2.1 -2.1 -2.1 -2.1 -2.1 -2.1 -2.1 -2.1 -2.1 -2.1 -2.1 -2.1 -2.1 -2.1 -2.1 -2.1 -2.1 -2.1 -2.1 -2.1 -2.1 -2.1 -2.1 -2.1 -2.1 -2.1 -2.1 -2.1 -2.1 -2.1 -2.1 -2.1 -2.1 -2.1 -2.1 -2.1 -2.1 -2.1 -2.1 -2.1 -2.1 -2.1 -2.1 -2.1 -2.1 -2.1 -2.1 -2.1 -2.1 -2.1 -2.1 -2.1 -2.1 -2.1 -2.1 -2.1 -2.1 -2.1 -2.1 -2.1 -2.1 -2.1 -2.1 -2.1 -2.1 -2.1 -2.1 -2.1 -2.1 -2.1 -2.1 -2.1 -2.1 -2.1 -2.1 -2.1 -2.1 -2.1 -2.1 -2.1 -2.1 -2.1 -2.1 -2.1 -2.1 -0.5 0.4 1.2 1.8 2.4 27.1 26.4 25.2 22.6 19.5 21.2 20 25.5 33.9 42.8 49 52.8 56.1 58.3 58.7 57 51.2 40.3 29.2 23.2 19.6 18.4 20.9 21.7 24.7 25.6 25.9 25.4 26.6 30.7 35.6 42.6 52.3 61.9 70.9 77.8 82.4 82.7 80.1 74.1 66.7 57.7 50.6 42.1 37 33.2 29.3 26.2 24.4 22.6 20.7 20.1 19.6 20.9 27.6 34.4 45.6 55.6 64.5 73.9 81.9 87.4 90.7 91.6 91.4 90.1 87.9 84.8 81 76.4 71.8 68.9 66.4 64.2 67 75.3 81.4 84.2 86.7 88.2 89.6 89.7 89.1 88.3 86.9
-2.1 -2.1 -2.1 -2.1 -2.1 -2.1 -2.1 -2.1 -2.1 -2.1 -2.1 -2.1 -2.1 -2.1 -2.1 -2.1 -2.1 -2.1 -2.1 -2.1 -2.1 -2.1 -2.1 -2.1 -2.1 -2.1 -2.1 -2.1 -2.1 -2.1 -2.1 -2.1 -2.1 -2.1 -2.1 -2.1 -2.1 -2.1 -2.1 -2.1 -2.1 -2.1 -2.1 -2.1 -2.1 -2.1 -2.1 -2.1 -2.1 -2.1 -2.1 -2.1 -2.1 -2.1 -2.1 -2.1 -2.1 -2.1 -2.1 -2.1 -2.1 -2.1 -2.1 -2.1 -2.1 -2.1 -2.1 -2.1 -2.1 -2.1 -2.1 -2.1 -2.1 -2.1 -2.1 -2.1 -2.1 -2.1 -2.1 -2.1 -2.1 -2.1 -2.1 -2.1 -2.1 -2.1 -2.1 -2.1 -2.1 -2.1 -2.1 -2.1 -2.1 -2.1 -2.1 -2.1 -2.1 -2.1 -2.1 -2.1 -2.1 -2.1 -2.1 -2.1 -2.1 -2.1 -2.1 -2.1 -2.1 -2.1 -2.1 -1 -0.1 0.5 1.1 1.6 2.3 6.4 21.9 21.9 22.1 19.9 26.1 33.7 40.7 45.4 48.6 51.5 53.6 55 54.4 51.4 45.6 36.5 26.6 19.9 17.6 17.6 20.2 22.5 22.4 23.2 25.5 28.9 33.9 40 46.4 55 63.9 71.4 77 81 81.3 78.6 73.3 65.7 56.3 47.5 39.7 36 32.4 28.8 24.9 22.7 21.2 19.7 18.8 20.1 25.3 31.1 42.7 52 60.5 68.3 76 82.2 86.9 89.6 89.9 88.4 86 83.3 80.1 75.4 71.4 67.5 64.7 62.3 61.8 67.5 73.8 77.5 80.8 83.7 86.2 87.4 86.8 85.3 83.7 82.1
-2.1 -2.1 -2.1 -2.1 -2.1 -2.1 -2.1 -2.1 -2.1 -2.1 -2.1 -2.1 -2.1 -2.1 -2.1 -2.1 -2.1 -2.1 -2.1 -2.1 -2.1 -2.1 -2.1 -2.1 -2.1 -2.1 -2.1 -2.1 -2.1 -2.1 -2.1 -2.1 -2.1 -2.1 -2.1 -2.1 -2.1 -2.1 -2.1 -2.1 -2.1 -2.1 -2.1 -2.1 -2.1 -2.1 -2.1 -2.1 -2.1 -2.1 -2.1 -2.1 -2.1 -2.1 -2.1 -2.1 -2.1 -2.1 -2.1 -2.1 -2.1 -2.1 -2.1 -2.1 -2.1 -2.1 -2.1 -2.1 -2.1 -2.1 -2.1 -2.1 -2.1 -2.1 -2.1 -2.1 -2.1 -2.1 -2.1 -2.1 -2.1 -2.1 -2.1 -2.1 -2.1 -2.1 -2.1 -2.1 -2.1 -2.1 -2.1 -2.1 -2.1 -2.1 -2.1 -2.1 -2.1 -2.1 -2.1 -2.1 -2.1 -2.1 -2.1 -2.1 -2.1 -2.1 -2.1 -2.1 -2.1 -2.1 -2.1 -2.1 -2.1 -0.8 -0.2 0.3 1.1 2 2.4 5.2 16.2 24.7 25.8 33.5 38.8 42.2 44.5 46.9 48.7 50.3 50.5 50.2 47.1 40.9 32 23.1 18.3 17.1 17.8 19.9 21.4 23.7 30.1 33.6 37 41.7 48.8 56.7 64 70 74.9 78.3 78.5 75.8 71 64.1 54.1 45.6 37.5 33.4 30.3 26.9 23.6 21.5 19.9 18.6 19.3 23.4 30.3 40 47.2 55.9 62.3 69.1 75.9 81.3 85.1 86.9 86.7 84.9 81.9 78.9 74.5 70.6 66 63.9 61.5 58.4 58.4 64.1 68.8 73.4 78.2 82.1 84.1 84.6 83.2 81.3 79.2 77.5
-2.1 -2.1 -2.1 -2.1 -2.1 -2.1 -2.1 -2.1 -2.1 -2.1 -2.1 -2.1 -2.1 -2.1 -2.1 -2.1 -2.1 -2.1 -2.1 -2.1 -2.1 -2.1 -2.1 -2.1 -2.1 -2.1 -2.1 -2.1 -2.1 -2.1 -2.1 -2.1 -2.1 -2.1 -2.1 -2.1 -2.1 -2.1 -2.1 -2.1 -2.1 -2.1 -2.1 -2.1 -2.1 -2.1 -2.1 -2.1 -2.1 -2.1 -2.1 -2.1 -2.1 -2.1 -2.1 -2.1 -2.1 -2.1 -2.1 -2.1 -2.1 -2.1 -2.1 -2.1 -2.1 -2.1 -2.1 -2.1 -2.1 -2.1 -2.1 -2.1 -2.1 -2.1 -2.1 -2.1 -2.1 -2.1 -2.1 -2.1 -2.1 -2.1 -2.1 -2.1 -2.1 -2.1 -2.1 -2.1 -2.1 -2.1 -2.1 -2.1 -2.1 -2.1 -2.1 -2.1 -2.1 -2.1 -2.1 -2.1 -2.1 -2.1 -2.1 -2.1 -2.1 -2.1 -2.1 -2.1 -2.1 -2.1 -2.1 -2.1 -2.1 -2.1 -2.1 -0.8 -0.2 0.9 1.4 1.7 2.4 3.1 27.2 29 33.5 38.6 40.5 42.3 44 45.6 47 47.3 46.1 42.5 35.5 24.7 17.9 17 16.8 18.8 23.4 27.8 30.7 34.2 37.8 42.1 50 57.1 62.5 67.9 72.5 75.2 74.1 72.8 68.4 61.6 52.2 42.5 35.5 31.2 27.7 24.4 21.9 19.8 18.7 18.8 23.3 30.2 37.8 45.6 51.5 57.2 63.1 68.6 75.2 80.4 82.7 83.4 83.2 81.1 78.4 73.8 69.8 65.1 62.5 60.5 57.6 55.3 56 60.6 66.5 72.8 77.8 80.8 81.3 81.4 79.9 77.2 74.7 73.4
-2.1 -2.1 -2.1 -2.1 -2.1 -2.1 -2.1 -2.1 -2.1 -2.1 -2.1 -2.1 -2.1 -2.1 -2.1 -2.1 -2.1 -2.1 -2.1 -2.1 -2.1 -2.1 -2.1 -2.1 -2.1 -2.1 -2.1 -2.1 -2.1 -2.1 -2.1 -2.1 -2.1 -2.1 -2.1 -2.1 -2.1 -2.1 -2.1 -2.1 -2.1 -2.1 -2.1 -2.1 -2.1 -2.1 -2.1 -2.1 -2.1 -2.1 -2.1 -2.1 -2.1 -2.1 -2.1 -2.1 -2.1 -2.1 -2.1 -2.1 -2.1 -2.1 -2.1 -2.1 -2.1 -2.1 -2.1 -2.1 -2.1 -2.1 -2.1 -2.1 -2.1 -2.1 -2.1 -2.1 -2.1 -2.1 -2.1 -2.1 -2.1 -2.1 -2.1 -2.1 -2.1 -2.1 -2.1 -2.1 -2.1 -2.1 -2.1 -2.1 -2.1 -2.1 -2.1 -2.1 -2.1 -2.1 -2.1 -2.1 -2.1 -2.1 -2.1 -2.1 -2.1 -2.1 -2.1 -2.1 -2.1 -2.1 -2.1 -2.1 -2.1 -2.1 -2.1 -2.1 -2.1 -0.7 -0.1 0.3 1.4 1.7 2 3.6 33.7 33.9 34.1 38.5 39.5 41.3 42.8 43.3 43 41.1 36.1 26.7 20.4 16.4 16.7 19.7 23.5 26.9 30.1 32.4 37.3 43.1 50.5 55.8 60.7 64.6 68.5 71.9 72.5 69.9 64.5 58.2 49.3 40.8 33.5 29.3 25.7 22.8 19.6 17.9 17.3 20.7 27.2 35.5 43 48.7 53.3 57.5 62.5 67.6 72.6 77.1 79.3 79.6 77.9 76.8 73 68.5 65.6 61 57.9 56.2 54.6 52.9 54.4 59.8 66.6 72.8 76.7 78.9 79 77.5 75.8 73.2 70.2 68.4
-2.1 -2.1 -2.1 -2.1 -2.1 -2.1 -2.1 -2.1 -2.1 -2.1 -2.1 -2.1 -2.1 -2.1 -2.1 -2.1 -2.1 -2.1 -2.1 -2.1 -2.1 -2.1 -2.1 -2.1 -2.1 -2.1 -2.1 -2.1 -2.1 -2.1 -2.1 -2.1 -2.1 -2.1 -2.1 -2.1 -2.1 -2.1 -2.1 -2.1 -2.1 -2.1 -2.1 -2.1 -2.1 -2.1 -2.1 -2.1 -2.1 -2.1 -2.1 -2.1 -2.1 -2.1 -2.1 -2.1 -2.1 -2.1 -2.1 -2.1 -2.1 -2.1 -2.1 -2.1 -2.1 -2.1 -2.1 -2.1 -2.1 -2.1 -2.1 -2.1 -2.1 -2.1 -2.1 -2.1 -2.1 -2.1 -2.1 -2.1 -2.1 -2.1 -2.1 -2.1 -2.1 -2.1 -2.1 -2.1 -2.1 -2.1 -2.1 -2.1 -2.1 -2.1 -2.1 -2.1 -2.1 -2.1 -2.1 -2.1 -2.1 -2.1 -2.1 -2.1 -2.1 -2.1 -2.1 -2.1 -2.1 -2.1 -2.1 -2.1 -2.1 -2.1 -2.1 -2.1 -2.1 -2.1 -2.1 -0.9 -0.2 0.1 0.7 1.9 1.9 2 5.8 34.6 34.8 37.5 38.5 38.7 39.9 38.5 35.3 29 21.1 16.6 15.3 18 21.4 25.4 28.6 31.4 36.5 42.9 49 53.5 58.2 62.2 66.1 68.6 68.5 66.5 62.1 54.1 46 37 31.2 27.3 23.9 19.9 18 16.5 17.7 24.4 32.6 39.4 44.6 49 52.4 55.4 60 65 70.1 74.3 75.2 74.2 73 71.6 68.4 65.7 61.1 57.7 55 52.3 51.1 51.1 53.2 61.1 68 73 76.3 76.8 75.4 73.6 71.5 69.2 66 63.8
-2.1 -2.1 -2.1 -2.1 -2.1 -2.1 -2.1 -2.1 -2.1 -2.1 -2.1 -2.1 -2.1 -2.1 -2.1 -2.1 -2.1 -2.1 -2.1 -2.1 -2.1 -2.1 -2.1 -2.1 -2.1 -2.1 -2.1 -2.1 -2.1 -2.1 -2.1 -2.1 -2.1 -2.1 -2.1 -2.1 -2.1 -2.1 -2.1 -2.1 -2.1 -2.1 -2.1 -2.1 -2.1 -2.1 -2.1 -2.1 -2.1 -2.1 -2.1 -2.1 -2.1 -2.1 -2.1 -2.1 -2.1 -2.1 -2.1 -2.1 -2.1 -2.1 -2.1 -2.1 -2.1 -2.1 -2.1 -2.1 -2.1 -2.1 -2.1 -2.1 -2.1 -2.1 -2.1 -2.1 -2.1 -2.1 -2.1 -2.1 -2.1 -2.1 -2.1 -2.1 -2.1 -2.1 -2.1 -2.1 -2.1 -2.1 -2.1 -2.1 -2.1 -2.1 -2.1 -2.1 -2.1 -2.1 -2.1 -2.1 -2.1 -2.1 -2.1 -2.1 -2.1 -2.1 -2.1 -2.1 -2.1 -2.1 -2.1 -2.1 -2.1 -2.1 -2.1 -2.1 -2.1 -2.1 -2.1 -2.1 -2.1 -1.3 -0.4 0.2 0.4 0.7 1.2 1.7 2.3 16.3 34.8 34.6 35.5 34.9 33.7 29.7 23.2 16.9 15 14.4 19.1 23.1 26.7 30 34.6 41.3 47 51.1 54.9 59.1 62 65 64.5 64.4 59.6 52.8 42.8 34.9 28.8 25.1 21 16.8 15.9 16.2 19.7 28.1 34.6 38.9 43.9 45.9 48.7 51.7 57.5 64.1 69.2 71 71 70.1 67.8 65.4 64 61.8 59 54.3 50.7 49.3 48 49.7 54.7 63.2 69.5 73 74.4 74.2 72.5 70.7 68.1 65.6 62.4 59.7
-2.1 -2.1 -2.1 -2.1 -2.1 -2.1 -2.1 -2.1 -2.1 -2.1 -2.1 -2.1 -2.1 -2.1 -2.1 -2.1 -2.1 -2.1 -2.1 -2.1 -2.1 -2.1 -2.1 -2.1 -2.1 -2.1 -2.1 -2.1 -2.1 -2.1 -2.1 -2.1 -2.1 -2.1 -2.1 -2.1 -2.1 -2.1 -2.1 -2.1 -2.1 -2.1 -2.1 -2.1 -2.1 -2.1 -2.1 -2.1 -2.1 -2.1 -2.1 -2.1 -2.1 -2.1 -2.1 -2.1 -2.1 -2.1 -2.1 -2.1 -2.1 -2.1 -2.1 -2.1 -2.1 -2.1 -2.1 -2.1 -2.1 -2.1 -2.1 -2.1 -2.1 -2.1 -2.1 -2.1 -2.1 -2.1 -2.1 -2.1 -2.1 -2.1 -2.1 -2.1 -2.1 -2.1 -2.1 -2.1 -2.1 -2.1 -2.1 -2.1 -2.1 -2.1 -2.1 -2.1 -2.1 -2.1 -2.1 -2.1 -2.1 -2.1 -2.1 -2.1 -2.1 -2.1 -2.1 -2.1 -2.1 -2.1 -2.1 -2.1 -2.1 -2.1 -2.1 -2.1 -2.1 -2.1 -2.1 -2.1 -2.1 -2.1 -2.1 -2.1 -1.1 -0.7 -0.2 0.3 0.8 1.5 2.2 6.4 33 32 31.9 30.2 23.8 18.6 15.5 14.6 15.7 19.6 24.2 28 32.8 40 45.5 49 52.6 56.1 58.5 60.8 61.3 60.3 56.9 51.6 41.1 32.9 26.6 22.8 18.9 16.3 14.9 16.5 22.8 29.8 34.8 38.4 40.8 42.5 44.7 50.5 58.7 63 65.1 65.7 65.8 65 63 59.9 58.6 58 55.1 51.1 47.6 45.9 46.5 49.8 58.4 65.4 70.1 72.5 72.5 71.2 69.1 67.5 64.9 62.3 59.1 56
-2.1 -2.1 -2.1 -2.1 -2.1 -2.1 -2.1 -2.1 -2.1 -2.1 -2.1 -2.1 -2.1 -2.1 -2.1 -2.1 -2.1 -2.1 -2.1 -2.1 -2.1 -2.1 -2.1 -2.1 -2.1 -2.1 -2.1 -2.1 -2.1 -2.1 -2.1 -2.1 -2.1 -2.1 -2.1 -2.1 -2.1 -2.1 -2.1 -2.1 -2.1 -2.1 -2.1 -2.1 -2.1 -2.1 -2.1 -2.1 -2.1 -2.1 -2.1 -2.1 -2.1 -2.1 -2.1 -2.1 -2.1 -2.1 -2.1 -2.1 -2.1 -2.1 -2.1 -2.1 -2.1 -2.1 -2.1 -2.1 -2.1 -2.1 -2.1 -2.1 -2.1 -2.1 -2.1 -2.1 -2.1 -2.1 -2.1 -2.1 -2.1 -2.1 -2.1 -2.1 -2.1 -2.1 -2.1 -2.1 -2.1 -2.1 -2.1 -2.1 -2.1 -2.1 -2.1 -2.1 -2.1 -2.1 -2.1 -2.1 -2.1 -2.1 -2.1 -2.1 -2.1 -2.1 -2.1 -2.1 -2.1 -2.1 -2.1 -2.1 -2.1 -2.1 -2.1 -2.1 -2.1 -2.1 -2.1 -2.1 -2.1 -2.1 -2.1 -2.1 -2.1 -2.1 -2.1 -1.2 -0.7 0 0.7 1.4 2.2 4.9 29.4 26.2 22.9 20.5 16.2 14.2 14.8 18.9 23 26.1 32.5 39.5 43.5 46.7 49.5 53.1 55.4 57 57.8 57.2 54.8 49.8 40.8 31.1 25.6 20.2 16.5 15 15 18 24.3 29.9 34 35.8 36.8 39.4 45.2 53.4 59.1 61.6 63.3 62.1 61.1 61.2 58.2 55.1 53.2 54.1 52.1 48.5 44.3 43.6 46.5 52.7 61 67.1 70.2 71 69.9 67.7 65.9 64.2 61.8 59 55.8 52.6
-2.1 -2.1 -2.1 -2.1 -2.1 -2.1 -2.1 -2.1 -2.1 -2.1 -2.1 -2.1 -2.1 -2.1 -2.1 -2.1 -2.1 -2.1 -2.1 -2.1 -2.1 -2.1 -2.1 -2.1 -2.1 -2.1 -2.1 -2.1 -2.1 -2.1 -2.1 -2.1 -2.1 -2.1 -2.1 -2.1 -2.1 -2.1 -2.1 -2.1 -2.1 -2.1 -2.1 -2.1 -2.1 -2.1 -2.1 -2.1 -2.1 -2.1 -2.1 -2.1 -2.1 -2.1 -2.1 -2.1 -2.1 -2.1 -2.1 -2.1 -2.1 -2.1 -2.1 -2.1 -2.1 -2.1 -2.1 -2.1 -2.1 -2.1 -2.1 -2.1 -2.1 -2.1 -2.1 -2.1 -2.1 -2.1 -2.1 -2.1 -2.1 -2.1 -2.1 -2.1 -2.1 -2.1 -2.1 -2.1 -2.1 -2.1 -2.1 -2.1 -2.1 -2.1 -2.1 -2.1 -2.1 -2.1 -2.1 -2.1 -2.1 -2.1 -2.1 -2.1 -2.1 -2.1 -2.1 -2.1 -2.1 -2.1 -2.1 -2.1 -2.1 -2.1 -2.1 -2.1 -2.1 -2.1 -2.1 -2.1 -2.1 -2.1 -2.1 -2.1 -2.1 -2.1 -2.1 -2.1 -2.1 -2.1 -0.8 0 0.7 1.4 1.9 3.4 5.8 14.2 16.8 14.3 13.7 16.5 23.3 26.9 34.4 38.8 42 44.7 46.7 49.2 51.5 52.7 53.8 54.2 52.7 48.9 41.4 31.3 24.7 18.8 15.5 13.7 15.1 19.2 24.2 26.6 30 32.4 35.4 44.5 49.6 54.6 57.4 59.5 59.6 58.7 57.4 55.4 53.8 50.6 48 47.7 47.9 44.7 41.8 43.1 49.5 57.9 63.5 68.2 69.3 69.1 66.8 64.8 62.7 61.1 58.9 56.3 53.5 50.3
-2.1 -2.1 -2.1 -2.1 -2.1 -2.1 -2.1 -2.1 -2.1 -2.1 -2.1 -2.1 -2.1 -2.1 -2.1 -2.1 -2.1 -2.1 -2.1 -2.1 -2.1 -2.1 -2.1 -2.1 -2.1 -2.1 -2.1 -2.1 -2.1 -2.1 -2.1 -2.1 -2.1 -2.1 -2.1 -2.1 -2.1 -2.1 -2.1 -2.1 -2.1 -2.1 -2.1 -2.1 -2.1 -2.1 -2.1 -2.1 -2.1 -2.1 -2.1 -2.1 -2.1 -2.1 -2.1 -2.1 -2.1 -2.1 -2.1 -2.1 -2.1 -2.1 -2.1 -2.1 -2.1 -2.1 -2.1 -2.1 -2.1 -2.1 -2.1 -2.1 -2.1 -2.1 -2.1 -2.1 -2.1 -2.1 -2.1 -2.1 -2.1 -2.1 -2.1 -2.1 -2.1 -2.1 -2.1 -2.1 -2.1 -2.1 -2.1 -2.1 -2.1 -2.1 -2.1 -2.1 -2.1 -2.1 -2.1 -2.1 -2.1 -2.1 -2.1 -2.1 -2.1 -2.1 -2.1 -2.1 -2.1 -2.1 -2.1 -2.1 -2.1 -2.1 -2.1 -2.1 -2.1 -2.1 -2.1 -2.1 -2.1 -2.1 -2.1 -2.1 -2.1 -2.1 -2.1 -2.1 -2.1 -2.1 -2.1 -2.1 -0.9 -0.2 0.4 1.2 2.1 2.6 4.5 6.1 13.1 15.4 20.6 27.4 31.5 37.2 38.4 41.8 43.8 45.6 47.4 48.8 49.7 50.9 50.3 47.8 42.3 32.1 24 17.4 14.2 13.7 15.3 18.6 22.3 24.4 28.4 33.7 35.3 44 48.3 53.1 54.5 55.4 55.4 54.1 52.1 50.5 49.3 46.4 44.1 43.1 42.6 39.5 40.4 45.4 55.9 62.7 66.6 68 67.8 65.9 63.5 61.7 59.7 58.5 56.4 53.9 51.6 48.1
