ncols 200
nrows 95
xllcorner 460000
yllcorner 1211900
cellsize 50
116.2 135.1 131.3 122.4 112.1 102 107.7 117.6 121.7 122.9 126.3 126.6 128.2 128.2 127.3 127.2 126.7 126.1 125.2 122.8 117.9 114.5 111.3 107.2 103.6 98.2 90.4 80 63.7 40.8 29.2 17.1 -0.8 -0.8 -0.8 -0.8 -0.8 -0.8 -0.8 -0.8 -0.8 -0.8 -0.8 -0.8 -0.8 -0.8 -0.8 -0.8 58.6 41.7 137.1 162.7 182.3 195.3 204.9 214.6 222 227.9 231.8 240.2 257.4 274.4 284.4 283.2 278.8 270.8 261.7 251.3 240.2 227.5 215.8 204.4 195.2 187 178.6 170.8 164.5 155.4 149.3 142.9 136.1 129.5 123.5 118 112.4 108.9 105.1 103.3 106.6 107.4 111.5 115.4 117.1 118.4 120.6 120 116.2 109.1 103.3 97.3 91 84.2 80.7 78.2 74.7 67.4 61.9 59.6 55.4 52.3 49.8 48 48.5 47 41.6 38.3 32.8 25.7 21.3 17.8 12.5 9.3 8 6.8 7 -0.8 -0.8 -0.8 -0.8 -0.8 -0.8 -0.8 -0.8 -0.8 -0.8 -0.8 -0.8 -0.8 -0.8 -0.8 -0.8 -0.8 -0.8 -0.8 -0.8 -0.8 -0.8 -0.8 -0.8 -0.8 -0.8 -0.8 -0.8 -0.8 -0.8 -0.8 -0.8 -0.8 -0.8 -0.8 -0.8 -0.8 -0.8 -0.8 -0.8 -0.8 -0.8 -0.8 -0.8 -0.8 -0.8 -0.8 -0.8 -0.8 -0.8 -0.8 -0.8 -0.8 -0.8 -0.8 -0.8 -0.8 -0.8 -0.8 -0.8 -0.8 -0.8 -0.8 -0.8 -0.8 -0.8 -0.8 -0.8 -0.8 -0.8 -0.8 -0.8 -0.8 -0.8 -0.8
145 142.1 136.2 126.8 115.2 106.7 107.3 119.4 124.2 127.6 128.2 127.6 127.9 128.2 126.5 124.6 123.1 122.7 122.5 120.2 115.9 113.2 109.9 106 102.8 97.2 87.7 74.6 57.6 39.1 30.8 -0.8 -0.8 -0.8 -0.8 -0.8 -0.8 -0.8 -0.8 -0.8 -0.8 -0.8 -0.8 -0.8 -0.8 -0.8 -0.8 -0.8 -0.8 88.6 100.2 167.4 182.6 194.9 205.4 213.8 222.6 228.6 230.6 239.3 253.7 267.1 274.6 277.1 274.1 269.4 259.5 249.2 238.9 227.1 214.2 202.8 193 185.6 178.1 171.7 164.1 157.6 150 144.2 138.7 131.6 125.2 118.2 112.9 108.8 104.9 98.5 101.4 103.6 105.7 108.1 111 113.1 115.3 115.5 111.7 104.8 99.6 93.5 87 81.3 78.3 76.5 72 67.5 61.3 58.4 53.6 49.2 45.6 43 41.8 41 35.5 32.5 26.7 22.6 17.7 14.1 2.8 0.8 -0.8 -0.8 -0.8 -0.8 -0.8 -0.8 -0.8 -0.8 -0.8 -0.8 -0.8 -0.8 -0.8 -0.8 -0.8 -0.8 -0.8 -0.8 -0.8 -0.8 -0.8 -0.8 -0.8 -0.8 -0.8 -0.8 -0.8 -0.8 -0.8 -0.8 -0.8 -0.8 -0.8 -0.8 -0.8 -0.8 -0.8 -0.8 -0.8 -0.8 -0.8 -0.8 -0.8 -0.8 -0.8 -0.8 -0.8 -0.8 -0.8 -0.8 -0.8 -0.8 -0.8 -0.8 -0.8 -0.8 -0.8 -0.8 -0.8 -0.8 -0.8 -0.8 -0.8 -0.8 -0.8 -0.8 -0.8 -0.8 -0.8 -0.8 -0.8 -0.8 -0.8 -0.8 -0.8 -0.8 -0.8 -0.8
147.9 144.6 138.7 129.6 121.6 113.2 106 120 124.4 127.3 128 127.7 127 126.8 124.6 123 121.5 120.4 118.6 116.2 112.9 109.9 107.5 103.9 99.3 92.6 83.1 65 51.4 36.8 29 -0.8 -0.8 -0.8 -0.8 -0.8 -0.8 -0.8 -0.8 -0.8 -0.8 -0.8 -0.8 -0.8 -0.8 -0.8 -0.8 -0.8 -0.8 53.7 136.9 165.1 180.2 192.6 204.2 213.7 221.4 227.4 230.4 239 247.7 261.2 266.8 268.6 267.5 264.6 257 245.4 234.5 223.4 214.1 203 194.5 186.5 179.2 173.1 165.4 159.5 151.6 145.9 139.6 134.4 126.9 119.7 111.9 107.8 104.2 98.5 93.6 98 100.1 100.8 104 106.6 108.6 107.3 105.3 99.9 94.7 88.5 81.9 76.9 73.7 72.2 67.2 64.4 59.1 56.2 51.8 46.2 41.6 36.8 34.7 32.1 26.7 24.7 21.7 18.1 14.1 8.5 0.9 -0.8 -0.8 -0.8 -0.8 -0.8 -0.8 -0.8 -0.8 -0.8 -0.8 -0.8 -0.8 -0.8 -0.8 -0.8 -0.8 -0.8 -0.8 -0.8 -0.8 -0.8 -0.8 -0.8 -0.8 -0.8 -0.8 -0.8 -0.8 -0.8 -0.8 -0.8 -0.8 -0.8 -0.8 -0.8 -0.8 -0.8 -0.8 -0.8 -0.8 -0.8 -0.8 -0.8 -0.8 -0.8 -0.8 -0.8 -0.8 -0.8 -0.8 -0.8 -0.8 -0.8 -0.8 -0.8 -0.8 -0.8 -0.8 -0.8 -0.8 -0.8 -0.8 -0.8 -0.8 -0.8 -0.8 -0.8 -0.8 -0.8 -0.8 -0.8 -0.8 -0.8 -0.8 -0.8 -0.8 -0.8 -0.8 -0.8
149 146.7 141.4 133.1 125.8 115 106.6 120 123.7 127.2 128.7 127.6 126 124.9 123 120.8 119.5 117.1 115.2 112.9 111.2 107.4 104.6 101.7 97.8 89.4 76 60.6 56.6 42.4 30.1 1.1 -0.8 -0.8 -0.8 -0.8 -0.8 -0.8 -0.8 -0.8 -0.8 -0.8 -0.8 -0.8 -0.8 -0.8 -0.8 -0.8 -0.8 63.3 122.8 161.7 176.3 189.7 201.1 210.5 217.5 223.1 228.5 234.6 239.4 253.5 260 261.4 260.7 257.9 252.5 242.4 231.6 223.2 215.5 203.6 194.8 187.7 182 175.8 166.8 159.8 153.3 146.1 141.3 135.3 128.5 120 112.5 107.9 103.5 97.7 92.5 89.2 94.6 96 96.5 99.4 102.3 102.5 99.4 95.4 90.8 85.5 79.6 75.3 69.7 68.8 64.2 59.2 57.4 54.2 49.8 42.6 37.5 31.9 27.6 21.8 17 16.7 15.6 13.2 9.5 4.1 0.6 -0.8 -0.8 -0.8 -0.8 -0.8 -0.8 -0.8 -0.8 -0.8 -0.8 -0.8 -0.8 -0.8 -0.8 -0.8 -0.8 -0.8 -0.8 -0.8 -0.8 -0.8 -0.8 -0.8 -0.8 -0.8 -0.8 -0.8 -0.8 -0.8 -0.8 -0.8 -0.8 -0.8 -0.8 -0.8 -0.8 -0.8 -0.8 -0.8 -0.8 -0.8 -0.8 -0.8 -0.8 -0.8 -0.8 -0.8 -0.8 -0.8 -0.8 -0.8 -0.8 -0.8 -0.8 -0.8 -0.8 -0.8 -0.8 -0.8 -0.8 -0.8 -0.8 -0.8 -0.8 -0.8 -0.8 -0.8 -0.8 -0.8 -0.8 -0.8 -0.8 -0.8 -0.8 -0.8 -0.8 -0.8 -0.8 -0.8
149.4 148.5 143.8 136.8 127.3 120.3 110.2 120.9 124.9 127.5 127.9 127.7 126.8 123.8 122.5 119.2 115.8 113.1 110 107.8 105 101.7 99.9 96.9 94.1 87.2 71.2 68.6 57.2 40.5 12.3 6.6 -0.8 -0.8 -0.8 -0.8 -0.8 -0.8 -0.8 -0.8 -0.8 -0.8 -0.8 -0.8 -0.8 -0.8 -0.8 -0.8 -0.8 80.5 140.6 158.8 172.3 185.6 197.1 206 212.2 217.1 222 227 234.3 245.2 252.5 255.2 254.4 252.8 249.7 242.2 232.1 223 215.6 205.8 196 189.2 182.4 175.6 167.4 160 154.4 147.3 141.1 135.8 128.5 121.7 112.3 104.6 101.4 97.2 92.5 88.6 89.1 90.9 91.2 92.5 95.4 97.7 95.6 92.8 89 84.5 78.3 73.4 67.5 65.8 62.1 58.8 55.3 52.5 45.6 38.9 33.1 27.4 22.3 14.6 12.2 11.4 11.4 9.7 4.8 2.7 0.8 -0.8 -0.8 -0.8 -0.8 -0.8 -0.8 -0.8 -0.8 -0.8 -0.8 -0.8 -0.8 -0.8 -0.8 -0.8 -0.8 -0.8 -0.8 -0.8 -0.8 -0.8 -0.8 -0.8 -0.8 -0.8 -0.8 -0.8 -0.8 -0.8 -0.8 -0.8 -0.8 -0.8 -0.8 -0.8 -0.8 -0.8 -0.8 -0.8 -0.8 -0.8 -0.8 -0.8 -0.8 -0.8 -0.8 -0.8 -0.8 -0.8 -0.8 -0.8 -0.8 -0.8 -0.8 -0.8 -0.8 -0.8 -0.8 -0.8 -0.8 -0.8 -0.8 -0.8 -0.8 -0.8 -0.8 -0.8 -0.8 -0.8 -0.8 -0.8 -0.8 -0.8 -0.8 -0.8 -0.8 -0.8 -0.8 -0.8
147.5 148.9 146.7 142.7 134.4 124.5 118.2 120.1 124.3 127 128.5 128.4 126.5 124.1 121.9 119.3 114 108.1 103.7 99.7 97.7 95 91.8 87.5 81.5 73.6 63.9 56 41.9 38.5 29.8 14.7 -0.8 -0.8 -0.8 -0.8 -0.8 -0.8 -0.8 -0.8 -0.8 -0.8 -0.8 -0.8 -0.8 -0.8 -0.8 -0.8 -0.8 81 137.9 155.4 168.2 180.5 190.3 199.1 205.1 210.5 215 220.2 225.5 235.4 244.9 247.1 248.5 247.7 246.5 241.8 235.1 226.4 217.2 207.7 197.6 189.2 181.6 174.1 167.3 160.6 153.9 147.8 141.6 134.5 129.4 122.6 113.3 105.2 100.4 96.3 91.8 88.5 82.2 83.7 86.7 87.3 89.2 90.4 90.6 88.8 87.7 83.1 79.3 72.1 67 63.9 61.4 54.5 52.2 49.5 42.5 34.9 28.7 23 17.8 12.7 10.8 7.8 6 4.4 7.8 10.2 2.2 1 -0.8 -0.8 -0.8 -0.8 -0.8 -0.8 -0.8 -0.8 -0.8 -0.8 -0.8 -0.8 -0.8 -0.8 -0.8 -0.8 -0.8 -0.8 -0.8 -0.8 -0.8 -0.8 -0.8 -0.8 -0.8 -0.8 -0.8 -0.8 -0.8 -0.8 -0.8 -0.8 -0.8 -0.8 -0.8 -0.8 -0.8 -0.8 -0.8 -0.8 -0.8 -0.8 -0.8 -0.8 -0.8 -0.8 -0.8 -0.8 -0.8 -0.8 -0.8 -0.8 -0.8 -0.8 -0.8 -0.8 -0.8 -0.8 -0.8 -0.8 -0.8 -0.8 -0.8 -0.8 -0.8 -0.8 -0.8 -0.8 -0.8 -0.8 -0.8 -0.8 -0.8 -0.8 -0.8 -0.8 -0.8 -0.8
144.6 147.1 147.7 143.7 140.9 131.6 122 116.3 123.6 127.1 128.1 127.3 126.1 123.2 121.2 116.9 111.9 104.3 98.2 93.6 88.3 85.8 82 77.3 70 60.1 54.3 59 57.3 44.1 29.5 2.7 -0.8 -0.8 -0.8 -0.8 -0.8 -0.8 -0.8 -0.8 -0.8 -0.8 -0.8 -0.8 -0.8 -0.8 -0.8 12.9 104.5 100.6 126.2 151.8 164.4 174.3 183.9 190.8 198 202.9 208.4 213.1 218.3 222.6 236.2 241.6 242.9 244.1 243.5 240.3 234.9 226.6 218.8 207.9 198.6 189.8 182.6 174 166.4 160.1 153.1 147.1 140.7 135.2 128.6 122.1 113.2 106.2 100.4 95.3 92.1 88.2 82 77.2 80.1 84 82.8 83.9 85.5 83.6 82.6 82 77.4 70.3 65.4 60.9 56.3 52 47.5 45.5 38.9 32.7 25.4 20 13.3 10.9 11.3 10.9 18.6 21.1 21 20.4 18.1 13.4 -0.8 -0.8 -0.8 -0.8 -0.8 -0.8 -0.8 -0.8 -0.8 -0.8 -0.8 -0.8 -0.8 -0.8 -0.8 -0.8 -0.8 -0.8 -0.8 -0.8 -0.8 -0.8 -0.8 -0.8 -0.8 -0.8 -0.8 -0.8 -0.8 -0.8 -0.8 -0.8 -0.8 -0.8 -0.8 -0.8 -0.8 -0.8 -0.8 -0.8 -0.8 -0.8 -0.8 -0.8 -0.8 -0.8 -0.8 -0.8 -0.8 -0.8 -0.8 -0.8 -0.8 -0.8 -0.8 -0.8 -0.8 -0.8 -0.8 -0.8 -0.8 -0.8 -0.8 -0.8 -0.8 -0.8 -0.8 -0.8 -0.8 -0.8 -0.8 -0.8 -0.8 -0.8 -0.8 -0.8 -0.8 -0.8
142.6 144.1 146.6 146.1 142.2 134.5 126.2 119.4 124.2 126.2 126.6 126.4 124.5 121.3 118.6 114.7 108.7 100.7 96.2 90.3 83.5 79.4 77 72.4 64.3 59.3 67.8 69.9 58.4 42.8 25.7 6.9 -0.8 -0.8 -0.8 -0.8 -0.8 -0.8 -0.8 -0.8 -0.8 -0.8 -0.8 -0.8 -0.8 -0.8 -0.8 36.1 104.4 120.2 133.2 147.1 159.5 169.1 177.2 183.6 188.8 195.4 200.5 205 211.4 216.6 225.4 234.3 236 237.8 238 237.1 232.8 225.6 217.3 207.2 198.4 190.7 182.7 173.9 166.3 160.4 154.3 146.5 140 134.2 127 121.2 113.2 104.8 98.6 94.3 91.1 86.3 80.7 75.1 73.6 73.1 77.8 76.7 78.9 77 76.1 76.2 72.3 69.2 63.8 58.1 53.5 51.8 48.2 42.9 38.5 33.9 24.4 16.7 13.3 15.8 18.2 27.5 33.4 33.6 32.8 30.3 25.2 19.9 11.7 -0.8 -0.8 -0.8 -0.8 -0.8 -0.8 -0.8 -0.8 -0.8 -0.8 -0.8 -0.8 -0.8 -0.8 -0.8 -0.8 -0.8 -0.8 -0.8 -0.8 -0.8 -0.8 -0.8 -0.8 -0.8 -0.8 -0.8 -0.8 -0.8 -0.8 -0.8 -0.8 -0.8 -0.8 -0.8 -0.8 -0.8 -0.8 -0.8 -0.8 -0.8 -0.8 -0.8 -0.8 -0.8 -0.8 -0.8 -0.8 -0.8 -0.8 -0.8 -0.8 -0.8 -0.8 -0.8 -0.8 -0.8 -0.8 -0.8 -0.8 -0.8 -0.8 -0.8 -0.8 -0.8 -0.8 -0.8 -0.8 -0.8 -0.8 -0.8 -0.8 -0.8 -0.8 -0.8 -0.8 -0.8
140.9 141.4 143.7 145.2 142 136.5 129.5 125.2 122 124.3 125.5 125.3 122.9 120.4 116.5 110.8 105.3 98.2 92.5 86.3 81.6 76.5 71.4 67 61.7 64.6 70.9 67.2 56.2 41.4 23.7 7.5 -0.8 -0.8 -0.8 -0.8 -0.8 -0.8 -0.8 -0.8 -0.8 -0.8 -0.8 -0.8 -0.8 -0.8 -0.8 67 94.6 113.6 128.5 142 153 162 169.3 174.6 180.9 186.4 193.2 197.8 204.2 210.5 215.8 224 229.9 231.5 231.1 230.2 227.1 221.7 212.9 204.4 197.5 189.9 182.5 174.8 166.6 159.7 152.7 146.2 139.9 133 127.4 119.4 111.3 103.6 98.8 93.2 86.2 84.8 84.5 82.8 79 79.2 71.4 66.2 59.4 69.2 68.6 69.7 67.1 65.8 63.2 58.3 52.1 45.5 43.2 40 35.1 27.3 19.1 18.1 21.9 25.4 33.3 38.4 42.4 40.7 38.5 34.5 29.4 21.9 12.6 1.1 -0.8 -0.8 -0.8 -0.8 -0.8 -0.8 -0.8 -0.8 -0.8 -0.8 -0.8 -0.8 -0.8 -0.8 -0.8 -0.8 -0.8 -0.8 -0.8 -0.8 -0.8 -0.8 -0.8 -0.8 -0.8 -0.8 -0.8 -0.8 -0.8 -0.8 -0.8 -0.8 -0.8 -0.8 -0.8 -0.8 -0.8 -0.8 -0.8 -0.8 -0.8 -0.8 -0.8 -0.8 -0.8 -0.8 -0.8 -0.8 -0.8 -0.8 -0.8 -0.8 -0.8 -0.8 -0.8 -0.8 -0.8 -0.8 -0.8 -0.8 -0.8 -0.8 -0.8 -0.8 -0.8 -0.8 -0.8 -0.8 -0.8 -0.8 -0.8 -0.8 -0.8 -0.8 -0.8 -0.8
138.1 138.3 139.7 142 140.5 136.6 132.1 128.5 124.7 122.5 123.1 123.3 121.3 118.7 113.8 107.4 102.1 95.8 90.8 83.8 79.1 74.1 69.6 65.9 63.6 63.7 68.1 62.4 52.7 39.4 23.6 -0.8 -0.8 -0.8 -0.8 -0.8 -0.8 -0.8 -0.8 -0.8 -0.8 -0.8 -0.8 -0.8 -0.8 -0.8 -0.8 -0.8 70.5 104.1 121.5 135.2 145.8 153.8 161.2 167.6 173.8 179.6 186.1 193.4 198.8 204.4 208.3 214.3 219.9 223.2 223.8 222 219.8 215.8 209.1 201.5 193.7 187.7 181.4 173 166.1 159.1 152.7 145.5 138.8 131 124.7 117.2 109.5 102.5 96.9 91.5 87.7 91.7 91.1 88.8 86.1 84.4 79 71.7 73.1 63.3 55.9 53.8 53.1 59.2 61.6 58.9 48.9 43.8 46.7 41.2 31.4 24.4 28.8 34.1 36.3 36 41.8 44.4 44.2 41.9 38.6 34.2 27.2 18.1 11.9 2.4 13.2 -0.8 -0.8 -0.8 -0.8 -0.8 -0.8 -0.8 -0.8 -0.8 -0.8 -0.8 -0.8 -0.8 -0.8 -0.8 -0.8 -0.8 -0.8 -0.8 -0.8 -0.8 -0.8 -0.8 -0.8 -0.8 -0.8 -0.8 -0.8 -0.8 -0.8 -0.8 -0.8 -0.8 -0.8 -0.8 -0.8 -0.8 -0.8 -0.8 -0.8 -0.8 -0.8 -0.8 -0.8 -0.8 -0.8 -0.8 -0.8 -0.8 -0.8 -0.8 -0.8 -0.8 -0.8 -0.8 -0.8 -0.8 -0.8 -0.8 -0.8 -0.8 -0.8 -0.8 -0.8 -0.8 -0.8 -0.8 -0.8 -0.8 -0.8 -0.8 -0.8 -0.8 -0.8 -0.8
136.7 135.1 135.7 137.6 138 136.4 132.5 128.3 123.8 122.7 121 120.4 120 116.6 111 105 99.8 94.6 90.6 83.2 77.8 72.4 68.9 66.7 63.1 59.4 63.3 58 46.7 34.8 20.6 -0.8 -0.8 -0.8 -0.8 -0.8 -0.8 -0.8 -0.8 -0.8 -0.8 -0.8 -0.8 -0.8 -0.8 -0.8 -0.8 -0.8 68.4 95.9 113.2 127 137.7 147.2 154.3 160.4 165.8 172.9 181.4 189.2 195.5 199.9 203.1 206.2 209.5 211.8 212.1 212 210.9 208 202.4 195.8 189.4 183.9 177.4 171.1 163.5 158.1 151.2 143.4 137 129.6 122.5 114.3 107.1 99.1 94.1 91.9 94.8 96.8 95.1 93 89.7 86.5 83.7 80.6 79.6 72.8 64.8 66 59 48.1 52.4 54.5 49.1 40.6 35.4 38.4 38.1 44.7 45 44 39.8 37.2 42.7 44.5 43.1 40.3 37.3 31 24 18.3 19.6 21.1 20.9 -0.8 -0.8 -0.8 -0.8 -0.8 -0.8 -0.8 -0.8 -0.8 -0.8 -0.8 -0.8 -0.8 -0.8 -0.8 -0.8 -0.8 -0.8 -0.8 -0.8 -0.8 -0.8 -0.8 -0.8 -0.8 -0.8 -0.8 -0.8 -0.8 -0.8 -0.8 -0.8 -0.8 -0.8 -0.8 -0.8 -0.8 -0.8 -0.8 -0.8 -0.8 -0.8 -0.8 -0.8 -0.8 -0.8 -0.8 -0.8 -0.8 -0.8 -0.8 -0.8 -0.8 -0.8 -0.8 -0.8 -0.8 -0.8 -0.8 -0.8 -0.8 -0.8 -0.8 -0.8 -0.8 -0.8 -0.8 -0.8 -0.8 -0.8 -0.8 -0.8 -0.8 -0.8 -0.8
134.6 130.8 131.4 132 133.1 132.8 130.4 126.6 124.4 121 119.2 117.7 117.6 114.7 108.4 103.3 99 95.8 91.6 83.8 78.4 72.5 69.2 66 62.9 63 63 54 35.9 26 12.5 -0.8 -0.8 -0.8 -0.8 -0.8 -0.8 -0.8 -0.8 -0.8 -0.8 -0.8 -0.8 -0.8 -0.8 -0.8 -0.8 -0.8 -0.8 86 103.4 119.8 131.7 140.6 146.2 151.2 159.1 169.3 177.4 185.9 192.7 196.1 199.6 201 201.5 202.5 203.2 202.1 200.3 197.8 193.4 187.5 184.3 178.4 173.1 166.7 159.8 154.4 148.4 141.1 133.7 126.2 119.6 111.8 105.3 98.5 95.7 100 102.1 101.1 99.4 97.1 93.3 90.1 86.2 83.9 82.5 76.9 73.6 72.6 69.6 63 52 44.7 40.5 40.2 53.9 53.4 51.1 51.8 50.8 46.7 40.3 39.1 42.3 42.8 41.2 37.7 33.9 29.4 24.8 27.6 29.5 28.3 7.5 -0.8 -0.8 -0.8 -0.8 -0.8 -0.8 -0.8 -0.8 -0.8 -0.8 -0.8 -0.8 -0.8 -0.8 -0.8 -0.8 -0.8 -0.8 -0.8 -0.8 -0.8 -0.8 -0.8 -0.8 -0.8 -0.8 -0.8 -0.8 -0.8 -0.8 -0.8 -0.8 -0.8 -0.8 -0.8 -0.8 -0.8 -0.8 -0.8 -0.8 -0.8 -0.8 -0.8 -0.8 -0.8 -0.8 -0.8 -0.8 -0.8 -0.8 -0.8 -0.8 -0.8 -0.8 -0.8 -0.8 -0.8 -0.8 -0.8 -0.8 -0.8 -0.8 -0.8 -0.8 -0.8 -0.8 -0.8 -0.8 -0.8 -0.8 -0.8 -0.8 -0.8 -0.8 -0.8
135.7 132 127.5 127.7 127.9 127.7 126.2 124.4 121.2 119.5 116.2 115.6 114.2 112.1 106.4 103.2 98.6 94.7 91.6 85.4 78.7 72.6 68.4 65 64.3 66.8 65.9 53.8 34 19 -0.8 -0.8 -0.8 -0.8 -0.8 -0.8 -0.8 -0.8 -0.8 -0.8 -0.8 -0.8 -0.8 -0.8 -0.8 -0.8 -0.8 -0.8 -0.8 75.3 94.3 111.7 124 132.5 134.3 142.8 153.3 164 174.1 182.6 189.3 194.3 197 197.8 198.4 197.5 196.9 195.8 193.6 190.4 186.4 180.8 177.3 171.6 166.9 160.7 156.5 151.1 144.5 137.5 130.7 123.1 113.2 109.9 103.7 101.8 105.2 106.4 106.7 106.5 103.7 101.5 97.7 93.7 90.2 87.6 86.2 82 78.1 76.6 75.4 72.9 68.7 63.1 56.5 60.4 61.5 58.5 56.9 55.7 53.1 47.6 43.4 42.4 43.4 43.6 41.5 38.9 35.4 34.8 36 36.9 35.8 32.7 26.9 -0.8 -0.8 -0.8 -0.8 -0.8 -0.8 -0.8 -0.8 -0.8 -0.8 -0.8 -0.8 -0.8 -0.8 -0.8 -0.8 -0.8 -0.8 -0.8 -0.8 -0.8 -0.8 -0.8 -0.8 -0.8 -0.8 -0.8 -0.8 -0.8 -0.8 -0.8 -0.8 -0.8 -0.8 -0.8 -0.8 -0.8 -0.8 -0.8 -0.8 -0.8 -0.8 -0.8 -0.8 -0.8 -0.8 -0.8 -0.8 -0.8 -0.8 -0.8 -0.8 -0.8 -0.8 -0.8 -0.8 -0.8 -0.8 -0.8 -0.8 -0.8 -0.8 -0.8 -0.8 -0.8 -0.8 -0.8 -0.8 -0.8 -0.8 -0.8 -0.8 -0.8 -0.8 -0.8
136.7 132.7 127.9 123 122.2 122.1 122.5 121 118.7 117.2 113.2 112.6 111.7 109.4 104.6 99.5 97 95.2 91.5 85.9 78.9 72.3 68 66 65.5 66.8 64.7 52 33.1 17.7 -0.8 -0.8 -0.8 -0.8 -0.8 -0.8 -0.8 -0.8 -0.8 -0.8 -0.8 -0.8 -0.8 -0.8 -0.8 -0.8 -0.8 -0.8 -0.8 74.4 88.5 102.3 113.9 119.8 118 138.5 149.2 159.7 169.7 178.9 186.7 191.9 194.6 194.7 194.9 194.9 193.4 191.6 189 185 177.9 171.7 167.4 162.7 157.9 153.9 146.5 143.5 138.5 132.9 125.8 117.5 110.9 104 105.6 109 111 112.5 113 112.2 108.7 105.8 102.4 99.2 95.4 93 89.8 86.1 84 80.6 78.8 77.8 74.4 70.5 67.8 66.1 64 61.2 60.1 58.3 54.9 50.1 47.8 47.2 47.9 47.2 47.3 47.2 46 44.1 44.4 42.1 39.1 34.5 27.5 1.1 -0.8 -0.8 -0.8 -0.8 -0.8 -0.8 -0.8 -0.8 -0.8 -0.8 -0.8 -0.8 -0.8 0.7 -0.8 -0.8 -0.8 -0.8 -0.8 -0.8 -0.8 -0.8 -0.8 -0.8 -0.8 -0.8 -0.8 -0.8 -0.8 -0.8 -0.8 -0.8 -0.8 -0.8 -0.8 -0.8 -0.8 -0.8 -0.8 -0.8 -0.8 -0.8 -0.8 -0.8 -0.8 -0.8 -0.8 -0.8 -0.8 -0.8 -0.8 -0.8 -0.8 -0.8 -0.8 -0.8 -0.8 -0.8 -0.8 -0.8 -0.8 -0.8 -0.8 -0.8 -0.8 -0.8 -0.8 -0.8 -0.8 -0.8 -0.8 -0.8 -0.8 -0.8
137.2 133.7 129.8 126 121.9 116.6 117.4 117.8 116 113.6 112 108.9 107.6 107 103.6 97.6 94.8 94.9 93.6 88.2 78.6 72.5 67.4 66.2 65.3 66.7 63 50.3 30.9 14.8 -0.8 -0.8 -0.8 -0.8 -0.8 -0.8 -0.8 -0.8 -0.8 -0.8 -0.8 -0.8 -0.8 -0.8 -0.8 -0.8 -0.8 -0.8 1 58.4 72.5 78.5 88.4 98.9 122.9 135 145.4 154.4 164.6 174.8 183.2 189.9 192.2 193.1 192.9 193.2 191.6 190.3 187.5 179.6 172.6 168 166.9 162.6 158.7 154.5 149.5 142.9 136.3 132.3 125.4 118.1 113.3 110.3 112.6 115.9 118.7 121.1 120.6 118.7 115.3 111.4 107.8 106.1 102.2 99.3 97.2 93.2 91.8 87.3 83.9 82.9 78.6 73.6 71.6 68.2 65.7 63.1 61.6 60.4 56.7 55.9 54.6 53.6 55.8 55.3 53.5 52 49.1 47.6 45.8 42.7 37.9 32.9 27.2 1.1 -0.8 -0.8 -0.8 -0.8 -0.8 -0.8 -0.8 -0.8 -0.8 -0.8 -0.8 -0.8 -0.8 3.4 0.8 -0.8 -0.8 -0.8 -0.8 -0.8 -0.8 -0.8 -0.8 -0.8 -0.8 -0.8 -0.8 -0.8 -0.8 -0.8 -0.8 -0.8 -0.8 -0.8 -0.8 -0.8 -0.8 -0.8 -0.8 -0.8 -0.8 -0.8 -0.8 -0.8 -0.8 -0.8 -0.8 -0.8 -0.8 -0.8 -0.8 -0.8 -0.8 -0.8 -0.8 -0.8 -0.8 -0.8 -0.8 -0.8 -0.8 -0.8 -0.8 -0.8 -0.8 -0.8 -0.8 -0.8 -0.8 -0.8 -0.8 -0.8 -0.8 -0.8
137.6 133.6 130 126 123.2 119.4 115.4 109.5 111.4 110.8 109.8 106.6 104.9 102.8 100.5 95.7 92.9 92.6 91.4 85.9 78.5 71.7 67.5 66.2 66.8 68.1 62.2 46.2 26.1 -0.8 -0.8 -0.8 -0.8 -0.8 -0.8 -0.8 -0.8 -0.8 -0.8 -0.8 -0.8 -0.8 -0.8 -0.8 -0.8 -0.8 -0.8 -0.8 0.2 21.9 46.1 49.6 63.3 94.1 119.8 131.3 141.1 149 158.7 168.7 177.2 183.7 188.1 190.5 191.3 191.3 191.1 190 184.3 180.8 180 178 176.4 171.8 166.7 160.4 154.3 148.1 141.1 134.5 130.7 124.7 117.7 115.4 116.7 122.8 126.5 128.5 128.2 126 122.3 118.6 114 112.2 109.6 106 103.5 102.5 99.9 95 92.7 90.5 84.5 77 74.1 70.9 67.5 64.3 62.6 62.2 61.5 60.7 60.4 60.2 60.2 59 57.2 54.7 50.5 49.3 44.6 39.7 34.7 30.6 25.3 13.6 -0.8 -0.8 -0.8 -0.8 -0.8 -0.8 -0.8 -0.8 0.5 0.3 0.9 0.3 1 1.1 1.4 -0.8 -0.8 -0.8 -0.8 -0.8 -0.8 -0.8 -0.8 -0.8 -0.8 -0.8 -0.8 -0.8 -0.8 -0.8 -0.8 -0.8 -0.8 -0.8 -0.8 -0.8 -0.8 -0.8 -0.8 -0.8 -0.8 -0.8 -0.8 -0.8 -0.8 -0.8 -0.8 -0.8 -0.8 -0.8 -0.8 -0.8 -0.8 -0.8 -0.8 -0.8 -0.8 -0.8 -0.8 -0.8 -0.8 -0.8 -0.8 -0.8 -0.8 -0.8 -0.8 -0.8 -0.8 -0.8 -0.8 -0.8 -0.8 -0.8
137.5 134 130.6 127.2 122.6 119.5 116.7 111.9 105.6 103.9 105.5 104.2 101.7 98.6 97.7 92.2 90.1 88.2 88.4 85.5 77.6 71.2 68.1 66.2 68.5 72 61.7 44.5 30.2 15.7 -0.8 -0.8 -0.8 -0.8 -0.8 -0.8 -0.8 -0.8 -0.8 -0.8 -0.8 -0.8 -0.8 -0.8 -0.8 -0.8 -0.8 -0.8 0.6 1.1 48.5 65.5 84.4 102.5 117.5 128.1 137.2 144.4 151.5 158.9 171 180.5 187.3 191.2 191.5 191.5 192.2 191 188 188.3 188.7 187.9 186 179.5 172.3 165.7 159 151.6 145.3 138.9 133.5 129.9 123.4 121.8 123.8 128.3 132 134.9 134.9 133.4 130.1 126.1 121.8 119.3 116 111.4 109.8 109.2 106.8 102.1 97.9 95 88.4 82.5 77.1 74 68.1 65.6 64.4 62.9 63.5 63.5 63.4 63.1 62.5 60.7 58.9 55.7 52.4 49 43 37.8 32.7 28 22.3 14.4 2.1 -0.8 -0.8 -0.8 -0.8 -0.8 0.6 17.8 10.3 9 19.4 8.3 1.2 10.3 12.5 -0.8 -0.8 -0.8 -0.8 -0.8 -0.8 -0.8 -0.8 -0.8 -0.8 -0.8 -0.8 -0.8 -0.8 -0.8 -0.8 -0.8 -0.8 -0.8 -0.8 -0.8 -0.8 -0.8 -0.8 -0.8 -0.8 -0.8 -0.8 -0.8 -0.8 -0.8 -0.8 -0.8 -0.8 -0.8 -0.8 -0.8 -0.8 -0.8 -0.8 -0.8 -0.8 -0.8 -0.8 -0.8 -0.8 -0.8 -0.8 -0.8 -0.8 -0.8 -0.8 -0.8 -0.8 -0.8 -0.8 -0.8 -0.8 -0.8
136.9 133.8 130.8 127.4 124.3 119.7 116.5 112.4 108.7 103.9 98.7 99.8 97.5 95.1 93.3 90.9 87.7 84.7 83.2 79.8 75.1 70.4 67.7 66.3 70.3 68.5 58.1 44.9 30.6 17.7 -0.8 -0.8 -0.8 -0.8 -0.8 -0.8 -0.8 -0.8 -0.8 -0.8 -0.8 -0.8 -0.8 -0.8 -0.8 -0.8 -0.8 -0.8 0.8 45.1 55.1 70.4 78.8 93.9 109.2 122.8 135 142.4 150.3 161 171 180.1 186.4 189.6 191.5 192.5 193.7 194.1 194.7 198.6 199.5 196.3 192.8 185.9 177.9 170.8 164.2 156 149.1 142.9 138.7 133.5 128.5 126 130.1 134.8 138.6 141.9 142.2 140.6 138.2 134.6 131.6 128.1 123.1 118.7 117.2 115.9 112.2 106.9 103.8 99.2 94 85.7 80.1 77.1 71.2 66.9 65.2 64 64.7 64.8 64.6 64.7 63.5 61.6 59.1 56.3 53.2 48.7 42.6 36.6 31.3 26 18.1 10.2 4.3 2 10.7 -0.8 -0.8 4.3 19.2 23.8 10.8 22.9 21.4 16.9 10.2 14.4 12.3 12.2 -0.8 -0.8 -0.8 -0.8 -0.8 -0.8 -0.8 -0.8 -0.8 -0.8 -0.8 -0.8 -0.8 -0.8 -0.8 -0.8 -0.8 -0.8 -0.8 -0.8 -0.8 -0.8 -0.8 -0.8 -0.8 -0.8 -0.8 -0.8 -0.8 -0.8 -0.8 -0.8 -0.8 -0.8 -0.8 -0.8 -0.8 -0.8 -0.8 -0.8 -0.8 -0.8 -0.8 -0.8 -0.8 -0.8 -0.8 -0.8 -0.8 -0.8 -0.8 -0.8 -0.8 -0.8 -0.8 -0.8 -0.8 -0.8
136.9 133.3 129.8 128.1 125 121.1 115.9 111.5 107.4 104.3 101.5 98.4 90.4 88.9 88.1 88.1 86 82.1 79.6 76 72.2 68.6 65 62.8 66.6 63.5 52.8 35 19.3 3.6 -0.8 -0.8 -0.8 -0.8 -0.8 -0.8 -0.8 -0.8 -0.8 -0.8 -0.8 -0.8 -0.8 -0.8 -0.8 -0.8 -0.8 -0.8 1 59.5 72 81.9 91.7 102.9 112.7 123.3 132.3 142 149.7 159.1 170.6 178.7 185.6 190.4 193.3 194.5 194.9 198.4 204.1 208 207.5 204.1 198.1 191.3 184.5 177 170 162 155.3 149.6 142.7 138.2 132.8 132.3 137.2 140.1 144 148.4 149.8 149.3 147.5 142.8 140.4 137.3 133.7 129.2 125.5 123.9 117.9 111.2 108.6 103.3 96.4 89.7 83.7 80.7 75.4 69.1 65.3 64.7 64.7 65 64.9 64.8 63.2 62 59.3 56.7 52.8 48.7 42.9 35.9 29.8 21.9 16.6 14.4 8.3 15.8 18.9 16.8 10.9 20.1 21.6 24.3 24.4 23.8 21.4 17.7 12.8 18 17.5 14.9 -0.8 -0.8 -0.8 -0.8 -0.8 -0.8 -0.8 -0.8 -0.8 -0.8 -0.8 -0.8 -0.8 -0.8 -0.8 -0.8 -0.8 -0.8 -0.8 -0.8 -0.8 -0.8 -0.8 -0.8 -0.8 -0.8 -0.8 -0.8 -0.8 -0.8 -0.8 -0.8 -0.8 -0.8 -0.8 -0.8 -0.8 -0.8 -0.8 -0.8 -0.8 -0.8 -0.8 -0.8 -0.8 -0.8 -0.8 -0.8 -0.8 -0.8 -0.8 -0.8 -0.8 -0.8 -0.8 -0.8 -0.8 -0.8
135.5 132.2 129.1 126.6 124.4 120.5 115.8 109.7 106.8 103.3 100.2 98.4 95.7 91.5 84 79.5 80 79 77.3 72.3 69.2 64.4 60.9 54.7 49.4 46 32.4 24.4 26.7 6.6 -0.8 -0.8 -0.8 -0.8 -0.8 -0.8 -0.8 -0.8 -0.8 -0.8 -0.8 -0.8 -0.8 -0.8 -0.8 -0.8 -0.8 -0.8 17 53.6 63.9 78.3 88.5 95.5 104.6 118.5 131.3 141.1 150.2 159.6 170.7 179.7 186.4 192.9 196 197.8 201.6 207.1 213.9 215.8 214.6 210.2 203 197.4 190.5 183.6 177.7 169.7 162.5 155.7 148.2 144.3 139.1 139.6 143.7 144.7 149.7 155 157.4 156.2 154.7 150.9 148.4 146.8 142.2 137.1 137 132.1 126.8 121.5 114 107.7 101.6 97.7 90.8 84.9 76.5 69.7 65.9 64.1 64.5 64.5 64.4 64.3 63.1 61.9 58.8 56.6 53.5 48.3 40.7 34.5 28.2 22.4 21.6 18 11.4 21 21.1 22.3 23.7 22.5 22.2 24.2 24.4 23.6 20.9 16.4 15.8 20.4 19.9 13.9 -0.8 -0.8 -0.8 -0.8 -0.8 -0.8 -0.8 7.4 -0.8 -0.8 -0.8 -0.8 -0.8 -0.8 -0.8 -0.8 -0.8 -0.8 -0.8 -0.8 -0.8 -0.8 -0.8 -0.8 -0.8 -0.8 -0.8 -0.8 -0.8 -0.8 -0.8 -0.8 -0.8 -0.8 -0.8 -0.8 -0.8 -0.8 -0.8 -0.8 -0.8 -0.8 -0.8 -0.8 -0.8 -0.8 -0.8 -0.8 -0.8 -0.8 -0.8 -0.8 -0.8 -0.8 -0.8 -0.8 -0.8 -0.8
133.5 130.2 127.4 125.2 122.5 118.6 114.1 109 105.3 101 98.5 96.6 93.8 85.1 89 82.5 71.9 69.3 69.9 64 57.6 56.4 56.4 49 55.9 56.7 41.7 32.1 34.3 -0.8 -0.8 -0.8 -0.8 -0.8 -0.8 -0.8 -0.8 -0.8 -0.8 -0.8 -0.8 -0.8 -0.8 -0.8 -0.8 -0.8 -0.8 0.8 1.1 31 39.8 57.4 75.7 86.5 100.6 121.6 132.2 141.3 151.5 161.6 172.7 181 189.2 195.4 199.2 203.4 210.3 216.7 221.4 223.1 220.9 215 208.6 202.8 195.7 188.9 183.3 177 168.2 160.8 153.6 149.7 147.2 145.8 149 149 154.7 160 163.6 164.1 162.8 159.5 155.6 156.2 152.8 149.3 147.1 141.1 135.8 131.2 125.2 118.6 111.7 104.5 96.1 88.1 78.2 70.4 66.6 63.7 63.3 62.8 63.4 63.5 62.5 60.8 58.8 56.4 53.3 48.5 42 36.1 30.5 27.2 25.8 21.1 17.5 25 23.7 25.1 24.7 22.9 22.4 23.7 23.6 21.1 18.5 15.8 21.1 21.3 19 13.3 -0.8 -0.8 -0.8 -0.8 -0.8 -0.8 20.7 20.6 -0.8 -0.8 -0.8 -0.8 -0.8 -0.8 -0.8 -0.8 -0.8 -0.8 -0.8 -0.8 -0.8 -0.8 -0.8 -0.8 -0.8 -0.8 -0.8 -0.8 -0.8 -0.8 -0.8 -0.8 -0.8 -0.8 -0.8 -0.8 -0.8 -0.8 -0.8 -0.8 -0.8 -0.8 -0.8 -0.8 -0.8 -0.8 -0.8 -0.8 -0.8 -0.8 -0.8 -0.8 -0.8 -0.8 -0.8 -0.8 -0.8 -0.8
131.8 128 124.5 121.7 119.7 117 112 107.6 104.3 100 95.2 92.6 86.7 90.5 91.6 86.5 81.2 76.4 73.5 70.4 64.8 59.7 54.3 60.1 67.4 58.9 40.9 -0.8 -0.8 -0.8 -0.8 -0.8 -0.8 -0.8 -0.8 -0.8 -0.8 -0.8 -0.8 -0.8 -0.8 -0.8 -0.8 -0.8 -0.8 -0.8 0.3 1.1 13.5 46 65.3 78.2 88 98.4 114.4 124.8 132.9 142.9 154.3 164.5 173.3 183.6 192.9 198.1 204.6 209.4 217 223.8 227.3 229.6 225.6 219.5 213.3 207.5 202.4 195.1 189.1 183.1 175.4 166.6 160 156 153.6 153.1 153.1 153.9 158.6 165 168.2 169.8 169.9 168 163.5 164.7 164 159 156.2 151.2 144.5 139.8 134 125.9 118.1 110.4 100.7 92.7 83.7 71.4 67.1 64 63 62.2 61.3 62.1 61.2 60.3 58.7 56.5 53.7 50.5 45.6 39.2 33.2 31.6 28.7 23.4 23.7 27.9 26 26 24.6 23.1 22.8 22 21.5 19.3 18.8 18.2 18.8 21.4 19.4 12.5 -0.8 -0.8 -0.8 -0.8 1.3 25.6 25.8 24.7 23.3 -0.8 -0.8 -0.8 -0.8 -0.8 -0.8 -0.8 -0.8 -0.8 -0.8 -0.8 -0.8 -0.8 -0.8 -0.8 -0.8 -0.8 -0.8 -0.8 -0.8 -0.8 -0.8 -0.8 -0.8 -0.8 -0.8 -0.8 -0.8 -0.8 -0.8 -0.8 -0.8 -0.8 -0.8 -0.8 -0.8 -0.8 -0.8 -0.8 -0.8 -0.8 -0.8 -0.8 -0.8 -0.8 -0.8 -0.8 -0.8 -0.8
129 125.1 122.1 119.5 116.2 113.6 110.2 105.5 101.9 97.2 89.5 87.9 92.5 91.2 88.2 84.7 80.8 78.5 76.8 74.6 68.1 61.6 60.3 65.3 74.6 59.5 32.3 -0.8 -0.8 -0.8 -0.8 -0.8 -0.8 -0.8 -0.8 -0.8 -0.8 -0.8 -0.8 -0.8 -0.8 -0.8 -0.8 -0.8 -0.8 -0.8 18.1 36 43.7 70.8 83.9 92.4 100.8 109.8 118.6 126.9 134.9 145.2 157.3 167 176.5 186.1 195.3 203.3 209.6 216.3 223.7 229.4 232.2 232.9 228.8 223.2 216.4 210.4 206 199.6 193.9 187.4 179.7 170 163.4 159.8 157.8 158.2 157.7 160.1 161.2 168.5 172 174 175.8 174.6 172 172.1 172 168.7 164.8 161.1 152.8 147 140.3 131.7 122 114.9 104.3 95.7 87.1 76.5 68 64.1 62.6 61.1 60.3 60.2 60.1 59.1 58 56.2 54.5 51.7 48.1 42.3 38.2 35.6 30.9 26.4 26.3 28.2 27.1 26.2 24.6 23.4 23.2 23.1 21.6 20.7 20.7 20.7 20.4 21.3 18.5 11 9.3 15.5 4.8 19.6 24.3 29.8 33.6 29.7 24.7 -0.8 -0.8 -0.8 -0.8 -0.8 -0.8 -0.8 -0.8 -0.8 -0.8 -0.8 -0.8 -0.8 -0.8 -0.8 -0.8 -0.8 -0.8 -0.8 -0.8 -0.8 -0.8 -0.8 -0.8 -0.8 -0.8 -0.8 -0.8 -0.8 -0.8 -0.8 -0.8 -0.8 -0.8 -0.8 -0.8 -0.8 -0.8 -0.8 -0.8 -0.8 -0.8 -0.8 -0.8 -0.8 -0.8 -0.8 -0.8 -0.8
126.3 122.4 119.8 117 113.1 109.9 106.7 102.6 99 90.8 91.6 93.3 93.7 92.6 90.3 86.1 81.7 79.9 78.3 74.6 70 65.4 64.4 65.1 69.2 57.5 42.3 46.5 35.9 -0.8 -0.8 -0.8 -0.8 -0.8 -0.8 -0.8 -0.8 -0.8 -0.8 -0.8 -0.8 -0.8 -0.8 -0.8 -0.8 -0.8 48.8 66.7 69 69.2 84.9 97 104.6 113.8 121.4 128.9 137.1 148.7 158.8 168.5 179.3 187.6 196.4 205.7 211.6 219.5 226.9 232.4 235 234.3 230.7 225.4 219.2 213 209.7 204.2 197.2 189.7 182.1 172.8 166.9 163.5 163 162.6 161 163.1 164.9 170.6 175.9 178.2 179.5 178.8 177.5 177.4 176.8 173.1 172.6 170 162.2 153.8 144.9 134.2 123.5 115.1 105.8 97.8 88.5 80.3 67.4 63.5 60.9 59.6 59.4 59.2 58.2 57.7 57 55.5 54.5 52.5 50.3 43.7 43.8 38.1 32.8 27.7 27.7 28.2 28.1 26.4 24.7 24 23.4 23.3 23.2 22.2 22.1 21.4 21.2 20.9 17.7 12.8 14.6 20 20.8 20.4 23.4 27.5 29.8 30.7 5.1 -0.8 -0.8 -0.8 -0.8 -0.8 -0.8 -0.8 -0.8 -0.8 -0.8 -0.8 -0.8 -0.8 -0.8 -0.8 -0.8 -0.8 -0.8 -0.8 -0.8 -0.8 -0.8 -0.8 -0.8 -0.8 -0.8 -0.8 -0.8 -0.8 -0.8 -0.8 -0.8 -0.8 -0.8 -0.8 -0.8 -0.8 -0.8 -0.8 -0.8 -0.8 -0.8 -0.8 -0.8 -0.8 -0.8 -0.8 -0.8 -0.8
121.5 119.6 116.9 114 110.8 106.6 103.6 99.9 96.1 91.7 95.3 96 95.6 92.3 90.1 86.1 81.4 79.7 78.7 76.1 72.4 67.8 66.7 66.3 69.6 57.9 53.2 48.3 33.4 18.9 -0.8 -0.8 -0.8 -0.8 -0.8 -0.8 -0.8 -0.8 -0.8 -0.8 -0.8 -0.8 -0.8 1.1 2.2 59.5 74.9 83 86.8 89.3 89.3 99.3 109 116.8 123.3 130.1 140.8 150.7 159.9 169.8 179.6 186.7 196.5 205.4 212.6 220.6 228.5 233.3 235.1 234.5 231 224.6 219.4 215.2 211.4 205.8 199 191.8 183.7 175.2 168.3 165.7 165.4 165 163.6 164.5 166.3 171.7 177.8 181.1 182.7 181.7 181.7 180.9 179.3 175.1 174.9 171.6 163.9 155.2 146.2 136.1 124.2 115.6 105.1 97 89.8 80.1 68.9 64 60.1 58.2 57.4 56 56.2 56 55.7 54.3 53.7 52.8 51.9 50.4 47.4 41.3 33.7 28.7 29.9 30.2 30.1 28.4 27.5 25.7 23.3 23.1 23.7 22.7 21.9 21.6 21.8 20 16.1 2 1.1 20.6 21 -0.8 21.8 24.1 26.1 -0.8 4 -0.8 -0.8 -0.8 -0.8 -0.8 -0.8 -0.8 -0.8 -0.8 -0.8 -0.8 -0.8 -0.8 -0.8 -0.8 -0.8 -0.8 -0.8 -0.8 -0.8 -0.8 -0.8 -0.8 -0.8 -0.8 -0.8 -0.8 -0.8 -0.8 -0.8 -0.8 -0.8 -0.8 -0.8 -0.8 -0.8 -0.8 -0.8 -0.8 -0.8 -0.8 -0.8 -0.8 -0.8 -0.8 -0.8 -0.8 -0.8 -0.8
117.4 115.9 113.8 110.5 107.4 103.5 100.5 96.8 93.9 94.5 97.6 97.4 96.9 93.3 90.6 86.1 82.3 81.2 80.1 77.7 74.2 70.9 70.2 68.3 70.1 61.1 51.2 40.7 26.8 -0.8 -0.8 -0.8 -0.8 -0.8 -0.8 -0.8 -0.8 -0.8 -0.8 -0.8 -0.8 -0.8 -0.8 3.3 39 76.2 82 86.9 92.1 95 99.1 98.4 111.8 118.9 125 133 143 152.6 161 169.4 177.8 185.6 194.8 204 211.4 219.6 227.1 231.4 232.1 232.3 228.4 222 217.1 213.9 210.8 206.1 198.2 191.2 183.8 175 169.2 166.5 166.1 164.7 164.6 165.2 166.8 171.6 177.6 181.1 183.1 182.3 181.5 181.3 178.2 174.4 172.1 168.2 162.7 155 145 135.7 122.9 111.4 99.8 94 88.3 79.8 69.8 62.8 57.8 56.2 54.9 54.8 54.5 54 54 53.1 52.6 52.3 51.2 49.6 46.5 41.1 34 31.5 32 32.1 32 31.8 30.6 26.6 24.2 23.3 23.7 22.4 21.6 21.7 21.8 -0.8 -0.8 -0.8 -0.8 21.5 -0.8 -0.8 -0.8 -0.8 -0.8 -0.8 -0.8 -0.8 -0.8 -0.8 -0.8 -0.8 -0.8 -0.8 -0.8 -0.8 -0.8 -0.8 -0.8 -0.8 -0.8 -0.8 -0.8 -0.8 -0.8 -0.8 -0.8 -0.8 -0.8 -0.8 -0.8 -0.8 -0.8 -0.8 -0.8 -0.8 -0.8 -0.8 -0.8 -0.8 -0.8 -0.8 -0.8 -0.8 -0.8 -0.8 -0.8 -0.8 -0.8 -0.8 -0.8 -0.8 -0.8 -0.8 -0.8 -0.8
113.4 112 110 106.8 103.9 100.2 96.8 94.8 92.7 95 97.8 98.3 97.4 95.3 91.8 88 84.5 83.7 82 78.9 76.1 73.4 72.1 69.4 68.6 64.4 52.2 39.8 26.1 -0.8 -0.8 -0.8 -0.8 -0.8 -0.8 -0.8 -0.8 -0.8 -0.8 -0.8 -0.8 -0.8 -0.8 5.8 47.3 77.5 83.9 90.2 95.7 101.3 104.4 107.2 114.6 121 126.5 133.7 143.5 152.9 161.3 168.2 175.4 182.9 191.6 201.1 208.4 217.9 222.9 226.6 226.3 225.7 221.7 216 213.9 211.5 208 202.1 194.9 188.6 181.9 173.8 167.4 165.2 165.2 165.6 165.7 165.7 166.9 170.7 175.9 178.7 180.5 179.8 177.6 177.8 175 171.1 164.9 162.4 160.8 152.7 144 131.8 120.5 108.1 96.7 89.7 85.6 80.2 68.4 60.8 55.2 53.4 52.9 52.5 51.4 51.2 52.1 51.5 51.4 50.8 49.8 47.7 43.6 39.6 35 34.4 34.5 34.1 33.3 31.4 30.2 25.4 24.3 22.4 22.3 21.3 20.4 19.7 -0.8 -0.8 -0.8 -0.8 -0.8 -0.8 -0.8 -0.8 -0.8 -0.8 -0.8 -0.8 -0.8 -0.8 -0.8 -0.8 -0.8 -0.8 -0.8 -0.8 -0.8 -0.8 -0.8 -0.8 -0.8 -0.8 -0.8 -0.8 -0.8 -0.8 -0.8 -0.8 -0.8 -0.8 -0.8 -0.8 -0.8 -0.8 -0.8 -0.8 -0.8 -0.8 -0.8 -0.8 -0.8 -0.8 -0.8 -0.8 -0.8 -0.8 -0.8 -0.8 -0.8 -0.8 -0.8 -0.8 -0.8 -0.8 -0.8 -0.8 -0.8 -0.8
109.5 107.2 105.1 101.9 99.7 96 94.4 93.4 92.8 96 99.5 100.5 99 97.7 94.8 92.3 86.6 86.3 83.8 82.1 77.5 72.4 70.8 67.5 59.3 52.5 46.9 -0.8 -0.8 -0.8 -0.8 -0.8 -0.8 -0.8 -0.8 -0.8 -0.8 -0.8 -0.8 -0.8 -0.8 -0.8 -0.8 8.9 47 77.7 84.6 91.2 97.8 103.8 109.8 113.7 117.3 123 127.7 135.2 143.5 153.4 161 166 172.9 181 188.4 196.8 205 213.3 218 220.1 218.4 217 213.2 209.6 207.5 204.4 200.9 196.5 189.5 183.8 177 169.6 165 162.9 162.3 163 163.7 164.3 165.1 167.6 171.5 174.5 176.3 176.8 173.9 171.8 169.8 163.6 157.9 155.1 152.6 146.3 136.6 127 116 102.7 95.3 85.8 81.7 76.8 69.3 60 53.1 50.6 50.9 50 48.4 49.2 50.2 49.6 48.4 41.1 13.4 41.2 -0.8 -0.8 -0.8 28.3 36.7 35.4 31.8 -0.8 28.9 -0.8 -0.8 -0.8 -0.8 -0.8 1.6 -0.8 -0.8 -0.8 -0.8 -0.8 -0.8 -0.8 -0.8 -0.8 -0.8 -0.8 -0.8 -0.8 -0.8 -0.8 -0.8 -0.8 -0.8 -0.8 -0.8 -0.8 -0.8 -0.8 -0.8 -0.8 -0.8 -0.8 -0.8 -0.8 -0.8 -0.8 -0.8 -0.8 -0.8 -0.8 -0.8 -0.8 -0.8 -0.8 -0.8 -0.8 -0.8 -0.8 -0.8 -0.8 -0.8 -0.8 -0.8 -0.8 -0.8 -0.8 -0.8 -0.8 -0.8 -0.8 -0.8 -0.8 -0.8 -0.8 -0.8 -0.8 -0.8 -0.8
103.9 102.3 100.1 97.7 95.3 93.6 92.2 91.2 94 99.1 102 103.6 102.7 101.7 98.6 93.9 89.4 87.6 87.1 84.3 78 71.6 66.4 59.1 45.1 33.2 30.1 -0.8 -0.8 -0.8 -0.8 -0.8 -0.8 -0.8 -0.8 -0.8 -0.8 -0.8 -0.8 -0.8 -0.8 -0.8 1.1 47.7 70.4 78.3 85.2 92.6 100.4 107.1 113.6 116.5 120.4 123.7 128.8 136.6 145.3 153.2 157.9 163.6 171 177.3 184.8 191.7 199.4 205.8 211.4 211 209.3 207.8 204.8 201.2 198.2 195.2 191.2 188.2 182.2 176.3 169.6 164.8 161.6 159.9 159.1 159.9 160.5 160.9 161.5 162.6 164.9 168.5 169.8 169.7 167.8 164.3 158.9 154.7 147.4 146.1 141 134.7 127.9 115.1 104.9 98 91.2 82.4 79.1 74.4 69 60.4 53 49 48.7 46.9 46.4 39.7 47.6 37.6 -0.8 -0.8 -0.8 -0.8 -0.8 -0.8 -0.8 -0.8 0.6 23.7 -0.8 -0.8 1 -0.8 -0.8 -0.8 -0.8 -0.8 -0.8 -0.8 -0.8 -0.8 -0.8 -0.8 -0.8 -0.8 -0.8 -0.8 -0.8 -0.8 -0.8 -0.8 -0.8 -0.8 -0.8 -0.8 -0.8 -0.8 -0.8 -0.8 -0.8 -0.8 -0.8 -0.8 -0.8 -0.8 -0.8 -0.8 -0.8 -0.8 -0.8 -0.8 -0.8 -0.8 -0.8 -0.8 -0.8 -0.8 -0.8 -0.8 -0.8 -0.8 -0.8 -0.8 -0.8 -0.8 -0.8 -0.8 -0.8 -0.8 -0.8 -0.8 -0.8 -0.8 -0.8 -0.8 -0.8 -0.8 -0.8 -0.8 -0.8 -0.8
100.6 98 96.7 94.1 91.7 89.4 90.2 92.5 96.7 101.9 104.7 106 105.8 104.5 101.2 96.2 91.8 90.5 88.4 84.3 78.9 72 66.5 59.4 47.4 34.6 -0.8 -0.8 -0.8 -0.8 -0.8 -0.8 -0.8 -0.8 -0.8 -0.8 -0.8 -0.8 -0.8 -0.8 -0.8 -0.8 5.4 65.4 73.9 81.1 86.6 94.3 101.1 108.9 115.6 119.2 122.5 125 129.7 137 145.1 151.2 156.1 161.1 166.8 173.5 181.3 186.9 192.6 198.2 201.7 202.5 201.9 199 194.6 190.2 185.9 181.9 179.1 175.5 171.9 167.1 162.3 159.1 156.3 155.3 154.4 154.5 155.4 156.7 157.1 157.4 158.3 159.9 160.9 160.6 157.9 154.5 148.8 141.7 136.5 133 128.4 122.7 115.8 103.5 98.4 93.6 87.1 81 78.1 72.3 67.5 58.9 51.6 18.9 1.1 34 41.9 1.1 -0.8 -0.8 -0.8 -0.8 -0.8 -0.8 -0.8 -0.8 -0.8 -0.8 -0.3 0.8 -0.8 -0.8 -0.8 -0.8 -0.8 -0.8 -0.8 -0.8 -0.8 -0.8 -0.8 -0.8 -0.8 -0.8 -0.8 -0.8 -0.8 -0.8 -0.8 -0.8 -0.8 -0.8 -0.8 -0.8 -0.8 -0.8 -0.8 -0.8 -0.8 -0.8 -0.8 -0.8 -0.8 -0.8 -0.8 -0.8 -0.8 -0.8 -0.8 -0.8 -0.8 -0.8 -0.8 -0.8 -0.8 -0.8 -0.8 -0.8 -0.8 -0.8 -0.8 -0.8 -0.8 -0.8 -0.8 -0.8 -0.8 -0.8 -0.8 -0.8 -0.8 -0.8 -0.8 -0.8 -0.8 -0.8 -0.8 -0.8 -0.8 -0.8 -0.8 -0.8
97.5 94.2 92.6 90.7 88.7 87.5 91.2 94.5 99.2 102.6 105.4 107 106.7 105.1 100.5 97 94 92.5 88.4 83.7 78.4 72.8 65.3 47.1 36.2 21 -0.8 -0.8 -0.8 -0.8 -0.8 -0.8 -0.8 -0.8 -0.8 -0.8 -0.8 -0.8 -0.8 -0.8 -0.8 1.1 2.4 64.8 74.9 82.7 88.8 96.3 103.9 110.6 114.9 119.7 123.4 127 132.6 139.8 146.9 149.6 153.5 159 163.3 169.9 176.8 180.8 185.4 189.9 192.5 193.1 191.7 188.9 184.7 179 172.5 167.5 165.3 161.3 158.4 155.2 152.6 151.3 150.3 148.9 147.8 148 148.6 148.9 150.9 152 150.5 151.2 151 150.2 148.6 144 137.8 131 124.2 120.5 116.4 112 104.2 96.8 92.5 89.5 83.7 78.5 74 68.7 47.2 35.1 1.6 -0.8 -0.8 -0.8 -0.8 -0.8 -0.8 -0.8 -0.8 -0.8 -0.8 -0.8 -0.8 -0.8 -0.8 -0.8 -0.8 -0.8 -0.8 -0.8 -0.8 -0.8 -0.8 -0.8 -0.8 -0.8 -0.8 -0.8 -0.8 -0.8 -0.8 -0.8 -0.8 -0.8 -0.8 -0.8 -0.8 -0.8 -0.8 -0.8 -0.8 -0.8 -0.8 -0.8 -0.8 -0.8 -0.8 -0.8 -0.8 -0.8 -0.8 -0.8 -0.8 -0.8 -0.8 -0.8 -0.8 -0.8 -0.8 -0.8 -0.8 -0.8 -0.8 -0.8 -0.8 -0.8 -0.8 -0.8 -0.8 -0.8 -0.8 -0.8 -0.8 -0.8 -0.8 -0.8 -0.8 -0.8 -0.8 -0.8 -0.8 -0.8 -0.8 -0.8 -0.8 -0.8 -0.8 -0.8 -0.8 -0.8
94 90.9 89.2 85.7 84.7 87 90.7 94.3 98.3 101.5 104.7 105.7 106.6 105 100.5 97.3 94.4 93.1 89 83.4 77.4 71.7 61.7 37.3 36.5 34.9 22.6 -0.8 -0.8 -0.8 -0.8 -0.8 -0.8 -0.8 -0.8 -0.8 -0.8 -0.8 -0.8 -0.8 -0.8 22.2 39.1 65.1 74.8 82.8 90.4 97.6 104.6 111 116.6 119.9 123.2 128.1 133.7 140.3 146.9 149.7 152.3 155.7 160.2 165 171 174.1 178.1 181.8 184.1 183.7 182.8 179.4 173.9 168.3 160.8 155.3 151 148 143.9 142.6 142.8 141.3 141.4 140.8 139.6 139.7 138.9 139.1 141.8 143.8 143.6 143.3 142 139.6 136.4 132.4 126.4 120.1 113.9 110.1 106.2 101.3 95.6 91 87.9 85.1 80.5 74.6 68.9 60.6 23.3 -0.8 -0.8 -0.8 -0.8 -0.8 -0.8 -0.8 -0.8 -0.8 -0.8 -0.8 -0.8 -0.8 -0.8 -0.8 -0.8 -0.8 -0.8 -0.8 -0.8 -0.8 -0.8 -0.8 -0.8 -0.8 -0.8 -0.8 -0.8 -0.8 -0.8 -0.8 -0.8 -0.8 -0.8 -0.8 -0.8 -0.8 -0.8 -0.8 -0.8 -0.8 -0.8 -0.8 -0.8 -0.8 -0.8 -0.8 -0.8 -0.8 -0.8 -0.8 -0.8 -0.8 -0.8 -0.8 -0.8 -0.8 -0.8 -0.8 -0.8 -0.8 -0.8 -0.8 -0.8 -0.8 -0.8 -0.8 -0.8 -0.8 -0.8 -0.8 -0.8 -0.8 -0.8 -0.8 -0.8 -0.8 -0.8 -0.8 -0.8 -0.8 -0.8 -0.8 -0.8 -0.8 -0.8 -0.8 -0.8 -0.8 -0.8 -0.8
87.8 85 83.3 81.7 83 85.3 88.6 92.3 96.4 99.5 102.4 104 106.1 103.9 101.3 97.9 94.7 93.5 90.4 84.8 77.7 69.6 58.4 37.4 42.6 38.6 23.4 -0.8 -0.8 -0.8 -0.8 -0.8 -0.8 -0.8 -0.8 -0.8 -0.8 -0.8 -0.8 -0.8 4.9 16.8 57.2 65.1 73.6 82.7 91.1 97.6 103.2 110.4 115.9 120 124.1 128.8 134 141.1 144.1 146.7 148.7 152.3 157 161.8 164.6 167.5 170.3 174 175.6 174.8 173 169.3 163.3 156.6 149 143 137.7 133.1 130.8 129.7 130.3 130.1 130.8 131.1 130.6 130.3 129.3 129.8 131.6 134.5 135.7 134.9 132.2 129.3 124.9 121 114.7 108.6 98.9 97.6 99 92.4 87.7 83.7 79.6 78.6 76.4 69.6 63 35.4 1.7 -0.8 -0.8 -0.8 -0.8 -0.8 -0.8 -0.8 -0.8 -0.8 -0.8 -0.8 -0.8 -0.8 -0.8 -0.8 -0.8 -0.8 -0.8 -0.8 -0.8 -0.8 -0.8 -0.8 -0.8 -0.8 -0.8 -0.8 -0.8 -0.8 -0.8 -0.8 -0.8 -0.8 -0.8 -0.8 -0.8 -0.8 -0.8 -0.8 -0.8 -0.8 -0.8 -0.8 -0.8 -0.8 -0.8 -0.8 -0.8 -0.8 -0.8 -0.8 -0.8 -0.8 -0.8 -0.8 -0.8 -0.8 -0.8 -0.8 -0.8 -0.8 -0.8 -0.8 -0.8 -0.8 -0.8 -0.8 -0.8 -0.8 -0.8 -0.8 -0.8 -0.8 -0.8 -0.8 -0.8 -0.8 -0.8 -0.8 -0.8 -0.8 -0.8 -0.8 -0.8 -0.8 -0.8 -0.8 -0.8 -0.8 -0.8 -0.8
90.2 86.6 82.3 79.8 80.5 83.3 85.4 89 93 96.1 99.1 101.5 103.3 102.8 101.7 99.2 95.8 95.1 91.2 85.6 77.2 67 55.1 37.6 39.3 34.1 18.3 -0.8 -0.8 -0.8 -0.8 -0.8 -0.8 -0.8 -0.8 -0.8 -0.8 -0.8 -0.8 -0.8 -0.8 46.8 56.1 64.7 73.2 81.6 90.4 98.5 103.2 108.8 113.6 119.3 123.9 128.4 133.4 137.4 141.8 143.3 146.4 149.4 151.9 156 158.5 160.5 162.1 164.6 166.2 165.8 164.1 159.3 153.6 146.5 138.7 130 124.7 121.1 117.8 117.3 117 118.2 120.6 122 122.3 122.1 121.9 122 123.4 124.8 126.2 125.5 123.4 120 116 111.5 104.8 96.5 89.8 86 92.7 87.8 82.5 76.7 71.1 71.8 70.2 57.2 35 2.3 -0.8 -0.8 -0.8 -0.8 -0.8 -0.8 -0.8 -0.8 -0.8 -0.8 -0.8 -0.8 -0.8 -0.8 -0.8 -0.8 -0.8 -0.8 -0.8 -0.8 -0.8 -0.8 -0.8 -0.8 -0.8 -0.8 -0.8 -0.8 -0.8 -0.8 -0.8 -0.8 -0.8 -0.8 -0.8 -0.8 -0.8 -0.8 -0.8 -0.8 -0.8 -0.8 -0.8 -0.8 -0.8 -0.8 -0.8 -0.8 -0.8 -0.8 -0.8 -0.8 -0.8 -0.8 -0.8 -0.8 -0.8 -0.8 -0.8 -0.8 -0.8 -0.8 -0.8 -0.8 -0.8 -0.8 -0.8 -0.8 -0.8 -0.8 -0.8 -0.8 -0.8 -0.8 -0.8 -0.8 -0.8 -0.8 -0.8 -0.8 -0.8 -0.8 -0.8 -0.8 -0.8 -0.8 -0.8 -0.8 -0.8 -0.8 -0.8 -0.8
90.9 88.5 84.5 80.8 75.8 80.6 82.3 84.3 88.3 91.6 94.7 98 100.1 100.9 100.4 99.2 97.5 96.4 92.5 85.3 76.1 65.4 53.6 38.9 30.9 22.1 -0.8 -0.8 -0.8 -0.8 -0.8 -0.8 -0.8 -0.8 -0.8 -0.8 -0.8 -0.8 -0.8 -0.8 -0.8 1.1 53.4 63.3 72.8 80.9 89.1 96.9 101.7 107.8 111.5 117.4 122.5 127.2 130.1 134.8 137.4 140.2 143.3 145.8 148.8 151.7 152.8 153.1 154.3 155.8 156.8 156.5 154.8 150.7 144.5 135.8 127.4 119.8 114.1 110.1 107 106.5 106.4 106.5 108.2 111.2 112.9 114.5 114.2 115.2 116.2 117.3 116.6 114.9 112.9 109.9 106.3 102 95.4 87.9 82.5 77.9 83.6 82 77.8 70.6 63.7 61.6 55.6 32.7 -0.8 -0.8 -0.8 -0.8 -0.8 -0.8 -0.8 -0.8 -0.8 -0.8 -0.8 -0.8 -0.8 -0.8 -0.8 -0.8 -0.8 -0.8 -0.8 -0.8 -0.8 -0.8 -0.8 -0.8 -0.8 -0.8 -0.8 -0.8 -0.8 -0.8 -0.8 -0.8 -0.8 -0.8 -0.8 -0.8 -0.8 -0.8 -0.8 -0.8 -0.8 -0.8 -0.8 -0.8 -0.8 -0.8 -0.8 -0.8 -0.8 -0.8 -0.8 -0.8 -0.8 -0.8 -0.8 -0.8 -0.8 -0.8 -0.8 -0.8 -0.8 -0.8 -0.8 -0.8 -0.8 -0.8 -0.8 -0.8 -0.8 -0.8 -0.8 -0.8 -0.8 -0.8 -0.8 -0.8 -0.8 -0.8 -0.8 -0.8 -0.8 -0.8 -0.8 -0.8 -0.8 -0.8 -0.8 -0.8 -0.8 -0.8 -0.8 -0.8 -0.8 -0.8
91.1 87.9 85.3 83 78.3 75.3 78.6 80.9 83.2 87 90 93.5 96.2 98 98.7 98.5 97.6 96.7 91.5 81.6 72.7 61.5 53 37.3 31.1 14 8.3 17.1 -0.8 -0.8 -0.8 -0.8 -0.8 -0.8 -0.8 -0.8 -0.8 -0.8 -0.8 -0.8 -0.8 -0.8 45.4 61 73.2 81.7 87.7 94.5 99.6 104.4 109.8 115 118.9 123.7 127.2 130.3 133.2 137.2 139.4 143.2 145.7 147.5 147.2 147 147.4 148.2 148.5 147.7 145.4 141.9 135.2 125.6 117.1 109.6 103.1 99.3 97.2 96.6 96.7 96.7 97.3 100 103.6 105.8 107.2 108.4 109.7 109.6 108.1 106 103.5 100.8 96.6 92.5 85.9 78.7 75.3 68.8 73.2 75.1 70.2 60.5 51.3 42.8 31.1 5.9 -0.8 -0.8 -0.8 -0.8 -0.8 -0.8 -0.8 -0.8 -0.8 -0.8 -0.8 -0.8 -0.8 -0.8 -0.8 -0.8 -0.8 -0.8 -0.8 -0.8 -0.8 -0.8 -0.8 -0.8 -0.8 -0.8 -0.8 -0.8 -0.8 -0.8 -0.8 -0.8 -0.8 -0.8 -0.8 -0.8 -0.8 -0.8 -0.8 -0.8 -0.8 -0.8 -0.8 -0.8 -0.8 -0.8 -0.8 -0.8 -0.8 -0.8 -0.8 -0.8 -0.8 -0.8 -0.8 -0.8 -0.8 -0.8 -0.8 -0.8 -0.8 -0.8 -0.8 -0.8 -0.8 -0.8 -0.8 -0.8 -0.8 -0.8 -0.8 -0.8 -0.8 -0.8 -0.8 -0.8 -0.8 -0.8 -0.8 -0.8 -0.8 -0.8 -0.8 -0.8 -0.8 -0.8 -0.8 -0.8 -0.8 -0.8 -0.8 -0.8 -0.8 -0.8
90.4 87.4 85.3 83 79.4 76 74 77.2 79.7 83.2 86.4 89.6 92.3 94.7 96.1 96.2 95.9 93.9 86.4 78.8 70.8 59.3 53.8 36.8 29.4 9.7 12.4 -0.8 -0.8 -0.8 -0.8 -0.8 -0.8 -0.8 -0.8 -0.8 -0.8 -0.8 -0.8 -0.8 -0.8 -0.8 51 66.9 75.1 81.2 87.3 92.9 96.8 101.6 108.1 111.8 116.5 120.1 122.7 127 129.9 134.3 136.8 140.8 143.7 143.9 143.1 141.1 141.7 142.1 140.9 140.1 136.2 132.7 127 116.5 107.1 96.7 89.8 87.9 86.7 86.7 87.1 88.2 87.7 90.9 93.8 98 98.7 99.4 100 100.7 101.3 99 96 92.9 89.3 82.7 74.3 66.5 59.8 54.7 66.1 63.4 56.4 45.4 31.1 20.7 3.3 -0.8 -0.8 -0.8 -0.8 -0.8 -0.8 -0.8 -0.8 -0.8 -0.8 -0.8 -0.8 -0.8 -0.8 -0.8 -0.8 -0.8 -0.8 -0.8 -0.8 -0.8 -0.8 -0.8 -0.8 -0.8 -0.8 -0.8 -0.8 -0.8 -0.8 -0.8 -0.8 -0.8 -0.8 -0.8 -0.8 -0.8 -0.8 -0.8 -0.8 -0.8 -0.8 -0.8 -0.8 -0.8 -0.8 -0.8 -0.8 -0.8 -0.8 -0.8 -0.8 -0.8 -0.8 -0.8 -0.8 -0.8 -0.8 -0.8 -0.8 -0.8 -0.8 -0.8 -0.8 -0.8 -0.8 -0.8 -0.8 -0.8 -0.8 -0.8 -0.8 -0.8 -0.8 -0.8 -0.8 -0.8 -0.8 -0.8 -0.8 -0.8 -0.8 -0.8 -0.8 -0.8 -0.8 -0.8 -0.8 -0.8 -0.8 -0.8 -0.8 -0.8 -0.8 -0.8
89.4 86.4 84.6 82.9 79.7 75.3 68.2 73.6 76.2 79.1 82.5 85.6 88.3 91 92.5 93 92.3 88.8 82.8 74.5 62.6 57.1 45.4 42.6 27.1 8 -0.8 -0.8 -0.8 -0.8 -0.8 -0.8 -0.8 -0.8 -0.8 -0.8 -0.8 -0.8 -0.8 -0.8 -0.8 43.6 58.4 67.6 77.5 82.8 86 90.8 94.4 98.7 104.6 109 113.1 115.5 117.4 122.8 128.1 131.8 134 138.2 139.8 139.9 138 137.6 137.9 137.2 136.1 132.6 128.8 124.4 117.3 107.1 96.3 82.4 76.5 76.2 75.6 76.8 77.6 79.2 77.4 82.1 87.4 91.2 92.6 91.8 91 93.1 94.3 94.7 91.1 86.7 80.7 74 64.7 52.9 43.7 40.4 47.8 52 43.5 28.5 12.5 4.7 -0.8 -0.8 -0.8 -0.8 -0.8 -0.8 -0.8 -0.8 -0.8 -0.8 -0.8 -0.8 -0.8 -0.8 -0.8 -0.8 -0.8 -0.8 -0.8 -0.8 -0.8 -0.8 -0.8 -0.8 -0.8 -0.8 -0.8 -0.8 -0.8 -0.8 -0.8 -0.8 -0.8 -0.8 -0.8 -0.8 -0.8 -0.8 -0.8 -0.8 -0.8 -0.8 -0.8 -0.8 -0.8 -0.8 -0.8 -0.8 -0.8 -0.8 -0.8 -0.8 -0.8 -0.8 -0.8 -0.8 -0.8 -0.8 -0.8 -0.8 -0.8 -0.8 -0.8 -0.8 -0.8 -0.8 -0.8 -0.8 -0.8 -0.8 -0.8 -0.8 -0.8 -0.8 -0.8 -0.8 -0.8 -0.8 -0.8 -0.8 -0.8 -0.8 -0.8 -0.8 -0.8 -0.8 -0.8 -0.8 -0.8 -0.8 -0.8 -0.8 -0.8 -0.8 -0.8 -0.8
88.1 86.5 84.2 82.2 79.1 74.7 71.2 68.3 72.8 75.9 78.3 81.7 84.5 87.2 88.5 88.6 87.8 85.5 78.9 69.4 56.7 46.6 38.3 30.7 18.8 -0.8 -0.8 -0.8 -0.8 -0.8 -0.8 -0.8 -0.8 -0.8 -0.8 -0.8 -0.8 -0.8 -0.8 -0.8 56.2 61.9 67.4 74.3 79.2 83.8 88 89.8 91.9 94.9 100.7 103.6 108.2 108.9 113.5 119.8 125 127.7 131.1 135.8 137.3 136.2 134.9 134.1 134.3 132.1 130.6 127 123.2 117.2 109.5 98.3 83.3 74.7 65.8 66.5 66.7 67.3 68.7 67.6 69.1 75.9 81.9 85 86.4 87.5 88.1 88.9 89.8 89.9 85.9 80.1 73.2 65.2 50.1 39 32 29.3 36.2 35.9 25.8 11.7 4.8 -0.8 -0.8 -0.8 -0.8 -0.8 -0.8 -0.8 -0.8 -0.8 -0.8 -0.8 -0.8 -0.8 -0.8 -0.8 -0.8 -0.8 -0.8 -0.8 -0.8 -0.8 -0.8 -0.8 -0.8 -0.8 -0.8 -0.8 -0.8 -0.8 -0.8 -0.8 -0.8 -0.8 -0.8 -0.8 -0.8 -0.8 -0.8 -0.8 -0.8 -0.8 -0.8 -0.8 -0.8 -0.8 -0.8 -0.8 -0.8 -0.8 -0.8 -0.8 -0.8 -0.8 -0.8 -0.8 -0.8 -0.8 -0.8 -0.8 -0.8 -0.8 -0.8 -0.8 -0.8 -0.8 -0.8 -0.8 -0.8 -0.8 -0.8 -0.8 -0.8 -0.8 -0.8 -0.8 -0.8 -0.8 -0.8 -0.8 -0.8 -0.8 -0.8 -0.8 -0.8 -0.8 -0.8 -0.8 -0.8 -0.8 -0.8 -0.8 -0.8 -0.8 -0.8 -0.8 -0.8 -0.8
87.9 85.5 82.7 81.1 77.1 73.6 69.3 62.6 70.6 73.6 75.8 78.1 80.8 83 84.3 83.8 82.5 78.9 73.2 65.3 55.4 41.3 32.8 23.7 -0.8 -0.8 -0.8 -0.8 -0.8 -0.8 -0.8 -0.8 -0.8 -0.8 -0.8 -0.8 -0.8 -0.8 -0.8 -0.8 59.4 65.4 69 76.6 83.2 86.1 87.9 89.5 91 92.9 96.4 99.4 101.4 104.7 111 116.3 120.7 124 128.7 132.7 134.3 133.4 132.3 130.8 130 127.8 125.7 121.3 117.5 110.7 103.8 92.3 78 68.4 60.3 58.5 57.9 59.8 60.4 59.7 61.9 67.1 73 77.7 81.4 82.6 83.5 85 86.5 85.5 82.1 73.4 64 54.4 35.4 24.6 19.6 19 17.9 12.9 7.8 3.2 3.5 -0.8 -0.8 -0.8 -0.8 -0.8 -0.8 -0.8 -0.8 -0.8 -0.8 -0.8 -0.8 -0.8 -0.8 -0.8 -0.8 -0.8 -0.8 -0.8 -0.8 -0.8 -0.8 -0.8 -0.8 -0.8 -0.8 -0.8 -0.8 -0.8 -0.8 -0.8 -0.8 -0.8 -0.8 -0.8 -0.8 -0.8 -0.8 -0.8 -0.8 -0.8 -0.8 -0.8 -0.8 -0.8 -0.8 -0.8 -0.8 -0.8 -0.8 -0.8 -0.8 -0.8 -0.8 -0.8 -0.8 -0.8 -0.8 -0.8 -0.8 -0.8 -0.8 -0.8 -0.8 -0.8 -0.8 -0.8 -0.8 -0.8 -0.8 -0.8 -0.8 -0.8 -0.8 -0.8 -0.8 -0.8 -0.8 -0.8 -0.8 -0.8 -0.8 -0.8 -0.8 -0.8 -0.8 -0.8 -0.8 -0.8 -0.8 -0.8 -0.8 -0.8 -0.8 -0.8 -0.8 -0.8
87.4 84 81.9 79.8 75.8 72.8 69.3 58.8 68.2 71.2 73.4 75.7 77.2 78.5 79.7 79.6 77.2 72.7 66.3 60.4 49.2 42.6 31.1 22.4 -0.8 -0.8 -0.8 -0.8 -0.8 -0.8 -0.8 -0.8 -0.8 -0.8 -0.8 -0.8 -0.8 29.9 38 42.2 60.2 65.3 69.6 77.9 85 89.3 88.7 89 90.5 91.6 93 94.5 96.6 102.5 108.3 112.8 117.1 121.3 125.5 129.2 129.5 129.6 129 126.9 124.1 122.5 120.8 117.1 111.9 106.5 97.8 87.3 75.8 62.8 54.3 49.6 49.4 51.5 52.7 53.2 51.5 58.9 67.4 73.5 77.4 78.4 79.1 80.4 82.9 80 77.4 67.5 53.8 38.7 23.7 14 11.2 10 7.3 4.7 3.6 2.8 4.5 -0.8 -0.8 -0.8 -0.8 -0.8 -0.8 -0.8 -0.8 -0.8 -0.8 -0.8 -0.8 -0.8 -0.8 -0.8 -0.8 -0.8 -0.8 -0.8 -0.8 -0.8 -0.8 -0.8 -0.8 -0.8 -0.8 -0.8 -0.8 -0.8 -0.8 -0.8 -0.8 -0.8 -0.8 -0.8 -0.8 -0.8 -0.8 -0.8 -0.8 -0.8 -0.8 -0.8 -0.8 -0.8 -0.8 -0.8 -0.8 -0.8 -0.8 -0.8 -0.8 -0.8 -0.8 -0.8 -0.8 -0.8 -0.8 -0.8 -0.8 -0.8 -0.8 -0.8 -0.8 -0.8 -0.8 -0.8 -0.8 -0.8 -0.8 -0.8 -0.8 -0.8 -0.8 -0.8 -0.8 -0.8 -0.8 -0.8 -0.8 -0.8 -0.8 -0.8 -0.8 -0.8 -0.8 -0.8 -0.8 -0.8 -0.8 -0.8 -0.8 -0.8 -0.8 -0.8 -0.8 -0.8
85.6 82.9 80.6 78.3 75 71.3 66.4 53.8 65.2 68.4 70.8 72.1 73.3 74.8 75.5 75.1 72.2 66 59.7 55.7 45.3 37.7 26.7 -0.8 -0.8 -0.8 -0.8 -0.8 -0.8 -0.8 -0.8 -0.8 -0.8 -0.8 -0.8 -0.8 -0.8 45.1 52 52.2 58.1 64.5 69.5 76.9 83.6 87.7 88.6 89.7 88.6 89.1 89.2 89.6 93.8 99.5 104 108.8 112.7 117.6 121.4 124 125.5 126.1 124.5 121.6 118.9 117.6 116.5 113.1 108.2 102.1 93.5 82.7 70.9 60.8 48.1 42.3 41.1 43.3 45.6 45.3 43.9 51.1 61 69.2 73.3 76 77.4 77.7 78.2 76.2 70.7 58.2 43.5 25.2 15.8 8.2 6.3 4.7 3.5 2.8 2.6 2.9 3.4 6.6 1.1 -0.8 -0.8 -0.8 -0.8 -0.8 -0.8 -0.8 -0.8 -0.8 -0.8 -0.8 -0.8 -0.8 -0.8 -0.8 -0.8 -0.8 -0.8 -0.8 -0.8 -0.8 -0.8 -0.8 -0.8 -0.8 -0.8 -0.8 -0.8 -0.8 -0.8 -0.8 -0.8 -0.8 -0.8 -0.8 -0.8 -0.8 -0.8 -0.8 -0.8 -0.8 -0.8 -0.8 -0.8 -0.8 -0.8 -0.8 -0.8 -0.8 -0.8 -0.8 -0.8 -0.8 -0.8 -0.8 -0.8 -0.8 -0.8 -0.8 -0.8 -0.8 -0.8 -0.8 -0.8 -0.8 -0.8 -0.8 -0.8 -0.8 -0.8 -0.8 -0.8 -0.8 -0.8 -0.8 -0.8 -0.8 -0.8 -0.8 -0.8 -0.8 -0.8 -0.8 -0.8 -0.8 -0.8 -0.8 -0.8 -0.8 -0.8 -0.8 -0.8 -0.8 -0.8 -0.8
84 81.4 79.3 76.5 73.7 69.2 64.9 53.3 60.8 64.5 66.3 68.4 69.6 71 71.2 70 67.9 63.7 60.3 53.3 40.9 36.6 25.6 -0.8 -0.8 -0.8 -0.8 -0.8 -0.8 -0.8 -0.8 -0.8 -0.8 -0.8 -0.8 -0.8 36.3 45.1 53.4 58.5 57.3 62.7 68.7 75.3 80.4 82.2 84.5 86.3 85.4 84.7 84.2 86.6 90.5 95.5 100.4 105 108.7 112.4 116.2 118.9 120.5 120.7 117 114.4 113.6 113 111.7 108.9 104.5 97.7 89.1 76.8 65.8 55.6 48.9 40.4 36.2 35.1 37.2 37.3 39.3 43.1 52.6 62.1 68 70.8 73 75.1 74.7 69.5 61.3 49.7 31.9 18.2 9 4.3 3.4 3 2.9 2.6 5.5 3.3 3.9 6.5 1 -0.8 -0.8 -0.8 -0.8 -0.8 -0.8 -0.8 -0.8 -0.8 -0.8 -0.8 -0.8 -0.8 -0.8 -0.8 -0.8 -0.8 -0.8 -0.8 -0.8 -0.8 -0.8 -0.8 -0.8 -0.8 -0.8 -0.8 -0.8 -0.8 -0.8 -0.8 -0.8 -0.8 -0.8 -0.8 -0.8 -0.8 -0.8 -0.8 -0.8 -0.8 -0.8 -0.8 -0.8 -0.8 -0.8 -0.8 -0.8 -0.8 -0.8 -0.8 -0.8 -0.8 -0.8 -0.8 -0.8 -0.8 -0.8 -0.8 -0.8 -0.8 -0.8 -0.8 -0.8 -0.8 -0.8 -0.8 -0.8 -0.8 -0.8 -0.8 -0.8 -0.8 -0.8 -0.8 -0.8 -0.8 -0.8 -0.8 -0.8 -0.8 -0.8 -0.8 -0.8 -0.8 -0.8 -0.8 -0.8 -0.8 -0.8 -0.8 -0.8 -0.8 -0.8 -0.8
80.9 80.3 78.5 75.8 72.3 68.2 63.9 52.1 54.5 60.1 61.8 62.8 65.1 66.6 65.9 65.7 65.1 60.1 55.2 45 36.5 31.5 20.7 -0.8 -0.8 -0.8 -0.8 -0.8 -0.8 -0.8 -0.8 -0.8 -0.8 -0.8 -0.8 15.4 33.5 42.1 52.1 57.2 61.1 60.9 65.7 72.5 76.3 78.1 79.1 79.8 79.4 79.1 78.6 82.5 86.2 90.4 96.9 101.7 105.4 108.8 112.2 114 114 112.5 110 109.1 108.9 109 108.6 105.7 100.3 92.1 83.1 69.3 58.9 51.7 45.7 40.1 35.4 31.8 30.6 31.3 34.8 38 43.9 52.9 62.2 64.8 67.9 70.4 70.3 62.3 50.8 37 22.1 12.7 4.8 3.1 3.1 3 3 2.7 5 3.9 2.9 6.6 1.3 -0.8 -0.8 -0.8 -0.8 -0.8 -0.8 -0.8 -0.8 -0.8 -0.8 -0.8 -0.8 -0.8 -0.8 -0.8 -0.8 -0.8 -0.8 -0.8 -0.8 -0.8 -0.8 -0.8 -0.8 -0.8 -0.8 -0.8 -0.8 -0.8 -0.8 -0.8 -0.8 -0.8 -0.8 -0.8 -0.8 -0.8 -0.8 -0.8 -0.8 -0.8 -0.8 -0.8 -0.8 -0.8 -0.8 -0.8 -0.8 -0.8 -0.8 -0.8 -0.8 -0.8 -0.8 -0.8 -0.8 -0.8 -0.8 -0.8 -0.8 -0.8 -0.8 -0.8 -0.8 -0.8 -0.8 -0.8 -0.8 -0.8 -0.8 -0.8 -0.8 -0.8 -0.8 -0.8 -0.8 -0.8 -0.8 -0.8 -0.8 -0.8 -0.8 -0.8 -0.8 -0.8 -0.8 -0.8 -0.8 -0.8 -0.8 -0.8 -0.8 -0.8 -0.8 -0.8
80.1 79.4 78.2 75.7 72.4 68.7 64.4 58.9 45 53.1 56.8 57 58.6 59.7 59.6 61.6 61.7 58.2 51.6 42.7 33 22.3 -0.8 -0.8 -0.8 -0.8 -0.8 -0.8 -0.8 -0.8 -0.8 -0.8 -0.8 -0.8 -0.8 24.5 32.5 39.5 46.9 53.7 57.6 59.3 62.3 66.9 70.2 73 74.5 75.2 75.1 74.5 75.5 79.8 83.6 87.3 92.5 97.3 101.7 105.2 108.4 110.7 111.2 109.4 107 106 106.4 106.4 104.8 101.3 96 88.5 75.4 63 52.7 46.3 42.4 37.7 33 29.6 26.7 28.9 31.8 34.9 39.2 46.1 58 61.8 63.8 65.7 63 53.9 41.9 28.5 17.7 8.9 2.9 3.2 3.2 3.1 3 3 5.4 5.8 3.4 4.5 -0.8 -0.8 -0.8 -0.8 -0.8 -0.8 -0.8 -0.8 -0.8 -0.8 -0.8 -0.8 -0.8 -0.8 -0.8 -0.8 -0.8 -0.8 -0.8 -0.8 -0.8 -0.8 -0.8 -0.8 -0.8 -0.8 -0.8 -0.8 -0.8 -0.8 -0.8 -0.8 -0.8 -0.8 -0.8 -0.8 -0.8 -0.8 -0.8 -0.8 -0.8 -0.8 -0.8 -0.8 -0.8 -0.8 -0.8 -0.8 -0.8 -0.8 -0.8 -0.8 -0.8 -0.8 -0.8 -0.8 -0.8 -0.8 -0.8 -0.8 -0.8 -0.8 -0.8 -0.8 -0.8 -0.8 -0.8 -0.8 -0.8 -0.8 -0.8 -0.8 -0.8 -0.8 -0.8 -0.8 -0.8 -0.8 -0.8 -0.8 -0.8 -0.8 -0.8 -0.8 -0.8 -0.8 -0.8 -0.8 -0.8 -0.8 -0.8 -0.8 -0.8 -0.8 -0.8 -0.8
78.5 78.4 78.1 76.8 72.2 69 65.2 60.5 55.2 38.3 46.1 52 53.6 52.9 52.1 51.3 52.1 51.4 42.8 33.9 25.2 10.9 -0.8 -0.8 -0.8 -0.8 -0.8 -0.8 -0.8 -0.8 -0.8 -0.8 -0.8 -0.8 -0.8 23.1 29.8 36.1 42.8 49.5 53.8 56 59.2 61.5 64.9 67 68.3 69.8 71 70 71.7 76.6 80.4 83.9 89.3 94.6 98.4 102.2 106.3 108.3 108.8 107.8 105.8 104.7 105 103.9 102.5 98.5 92.8 85.2 72.6 58.8 48.8 43.4 41.1 38.4 32.5 27.8 23.9 25.5 30 32.7 35.5 41.8 53.6 58.4 59.1 60.5 57.7 47.8 34.3 21.7 13.2 6.1 3.1 3.2 3.3 3.2 3 3.4 5.2 6.7 8.9 5.2 -0.8 0.6 -0.8 -0.8 -0.8 -0.8 -0.8 -0.8 -0.8 -0.8 -0.8 -0.8 -0.8 -0.8 -0.8 -0.8 -0.8 -0.8 -0.8 -0.8 -0.8 -0.8 -0.8 -0.8 -0.8 -0.8 -0.8 -0.8 -0.8 -0.8 -0.8 -0.8 -0.8 -0.8 -0.8 -0.8 -0.8 -0.8 -0.8 -0.8 -0.8 -0.8 -0.8 -0.8 -0.8 -0.8 -0.8 -0.8 -0.8 -0.8 -0.8 -0.8 -0.8 -0.8 -0.8 -0.8 -0.8 -0.8 -0.8 -0.8 -0.8 -0.8 -0.8 -0.8 -0.8 -0.8 -0.8 -0.8 -0.8 -0.8 -0.8 -0.8 -0.8 -0.8 -0.8 -0.8 -0.8 -0.8 -0.8 -0.8 -0.8 -0.8 -0.8 -0.8 -0.8 -0.8 -0.8 -0.8 -0.8 -0.8 -0.8 -0.8 -0.8 -0.8 -0.8 -0.8
77.2 77.8 77.9 76.8 72.3 68.1 64.4 62 58.6 53.8 38.4 42.8 49.2 49 48.1 48.9 43.3 37.1 35.6 29.6 20.4 7.6 -0.8 -0.8 -0.8 -0.8 -0.8 -0.8 -0.8 -0.8 -0.8 -0.8 -0.8 -0.8 -0.8 18.9 26.5 34.2 42.4 49.6 52.1 53.9 57.2 58.6 60.9 62.7 64 65.6 66.1 65.6 68.2 71.5 74.4 78.7 81.7 91.5 96.5 101.5 104.9 105.9 106.9 107 105.4 104.5 104.3 102.9 100.6 96.4 90.3 81.6 69 55.8 46.4 41.7 39.2 38 30.5 25.3 21.3 22.7 27.5 29.6 32 35.7 47.7 55.5 55.2 55.5 50.2 40.2 28.8 18.4 11 3.7 3.5 3.5 3.2 2.9 3.1 3.6 5.2 7.3 7.9 8.5 7.6 3.8 -0.8 -0.8 -0.8 -0.8 -0.8 -0.8 -0.8 -0.8 -0.8 -0.8 -0.8 -0.8 -0.8 -0.8 -0.8 -0.8 -0.8 -0.8 -0.8 -0.8 -0.8 -0.8 -0.8 -0.8 -0.8 -0.8 -0.8 -0.8 -0.8 -0.8 -0.8 -0.8 -0.8 -0.8 -0.8 -0.8 -0.8 -0.8 -0.8 -0.8 -0.8 -0.8 -0.8 -0.8 -0.8 -0.8 -0.8 -0.8 -0.8 -0.8 -0.8 -0.8 -0.8 -0.8 -0.8 -0.8 -0.8 -0.8 -0.8 -0.8 -0.8 -0.8 -0.8 -0.8 -0.8 -0.8 -0.8 -0.8 -0.8 -0.8 -0.8 -0.8 -0.8 -0.8 -0.8 -0.8 -0.8 -0.8 -0.8 -0.8 -0.8 -0.8 -0.8 -0.8 -0.8 -0.8 -0.8 -0.8 -0.8 -0.8 -0.8 -0.8 -0.8 -0.8
73.3 74.8 75.8 75.1 71.2 67.5 64.1 62 60 56.6 43.3 30.1 40.2 42.3 42.6 37.2 35.9 35.3 29.7 22.4 17.2 -0.8 -0.8 -0.8 -0.8 -0.8 -0.8 -0.8 -0.8 -0.8 -0.8 -0.8 -0.8 -0.8 -0.8 3.2 25.5 32 36 44.2 48.7 53.4 54.7 56.5 58.8 60.4 61 61.9 62 67.1 71.3 74.3 75.7 84 90 94 96.8 95.5 101.9 105 106 105.7 104.1 103.7 103.7 101.9 99.2 94.7 88.1 79.3 67.2 53.8 42.9 38.9 37.6 37.3 31.2 25.3 20.9 19.8 24.3 26.3 28.7 31.7 39.2 52.3 50.2 49.2 47.2 35.9 25 14.3 6.8 3.4 3.9 3.9 2.9 3.1 3.3 4.2 6.7 8.8 11.1 13.4 11.2 11.4 -0.8 -0.8 -0.8 -0.8 -0.8 -0.8 -0.8 -0.8 -0.8 -0.8 -0.8 -0.8 -0.8 -0.8 -0.8 -0.8 -0.8 -0.8 -0.8 -0.8 -0.8 -0.8 -0.8 -0.8 -0.8 -0.8 -0.8 -0.8 -0.8 -0.8 -0.8 -0.8 -0.8 -0.8 -0.8 -0.8 -0.8 -0.8 -0.8 -0.8 -0.8 -0.8 -0.8 -0.8 -0.8 -0.8 -0.8 -0.8 -0.8 -0.8 -0.8 -0.8 -0.8 -0.8 -0.8 -0.8 -0.8 -0.8 -0.8 -0.8 -0.8 -0.8 -0.8 -0.8 -0.8 -0.8 -0.8 -0.8 -0.8 -0.8 -0.8 -0.8 -0.8 -0.8 -0.8 -0.8 -0.8 -0.8 -0.8 -0.8 -0.8 -0.8 -0.8 -0.8 -0.8 -0.8 -0.8 -0.8 -0.8 -0.8 -0.8 -0.8 -0.8 -0.8
70.1 72.1 71.8 71.1 70.3 67 64.3 62.4 60.7 58.7 53.1 38.3 25.9 20.9 35.5 38.3 39.3 37.1 31.9 20.4 -0.8 -0.8 1.2 -0.8 -0.8 -0.8 -0.8 -0.8 -0.8 -0.8 -0.8 -0.8 -0.8 -0.8 -0.8 17.3 32.5 37.4 44.8 50 55 57 57.4 58 57.4 58.9 59 57.7 62.3 65.7 70.9 76 81.2 87.2 92.6 96.9 99 102.4 104.4 104.8 104.2 104.5 104 103.6 103.1 101 98.1 92.2 83.9 73.2 60.2 49.1 40.9 35.3 34.5 32.6 32.8 24.2 19.1 18.7 20.9 23.3 24.9 27.4 35.8 44.7 47.6 48.4 41.3 30.1 19.1 10.4 4.8 3.1 3.5 3.8 3.8 4.3 4.7 7.5 10.2 11.7 13.8 15.2 15.6 14.2 11.2 -0.8 -0.8 -0.8 -0.8 -0.8 -0.8 -0.8 -0.8 -0.8 -0.8 -0.8 -0.8 -0.8 -0.8 -0.8 -0.8 -0.8 -0.8 -0.8 -0.8 -0.8 -0.8 -0.8 -0.8 -0.8 -0.8 -0.8 -0.8 -0.8 -0.8 -0.8 -0.8 -0.8 -0.8 -0.8 -0.8 -0.8 -0.8 -0.8 -0.8 -0.8 -0.8 -0.8 -0.8 -0.8 -0.8 -0.8 -0.8 -0.8 -0.8 -0.8 -0.8 -0.8 -0.8 -0.8 -0.8 -0.8 -0.8 -0.8 -0.8 -0.8 -0.8 -0.8 -0.8 -0.8 -0.8 -0.8 -0.8 -0.8 -0.8 -0.8 -0.8 -0.8 -0.8 -0.8 -0.8 -0.8 -0.8 -0.8 -0.8 -0.8 -0.8 -0.8 -0.8 -0.8 -0.8 -0.8 -0.8 -0.8 -0.8 -0.8 -0.8 -0.8
65.7 68.5 67.4 67.5 66.8 65.5 64.5 62.5 60.1 57.1 52.7 46.8 41.7 26.8 25.9 40 41.6 35.6 24.3 15.9 -0.8 1.5 2.2 1.4 -0.8 -0.8 -0.8 -0.8 -0.8 -0.8 -0.8 -0.8 -0.8 -0.8 -0.8 22.5 37.5 41.4 45.4 50.4 55.1 58.6 60.5 59.2 58.4 57.5 57.2 57.5 61.6 65.4 71.5 76.8 82.6 88.9 94.6 98.8 101.4 104.5 106.5 107.3 106.3 105.2 104.8 104.4 103.6 101 97.6 92.3 84.6 74.5 58.2 47.6 37.9 32.2 29.2 27.4 28.8 23.3 17.7 16.9 18.4 20.6 21.9 24.3 31.1 39.4 44.9 44.3 36.5 26.8 17.1 8.8 3.4 4.2 6.1 6.3 4.7 7.4 8.5 12 15.1 15.6 16.1 18 18.7 18.5 13.6 3.8 -0.8 -0.8 -0.8 -0.8 -0.8 -0.8 -0.8 3.3 -0.8 -0.8 -0.8 -0.8 -0.8 -0.8 -0.8 -0.8 -0.8 -0.8 -0.8 -0.8 -0.8 -0.8 -0.8 -0.8 -0.8 -0.8 -0.8 -0.8 -0.8 -0.8 -0.8 -0.8 -0.8 -0.8 -0.8 -0.8 -0.8 -0.8 -0.8 -0.8 -0.8 -0.8 -0.8 -0.8 -0.8 -0.8 -0.8 -0.8 -0.8 -0.8 -0.8 -0.8 -0.8 -0.8 -0.8 -0.8 -0.8 -0.8 -0.8 -0.8 -0.8 -0.8 -0.8 -0.8 -0.8 -0.8 -0.8 -0.8 -0.8 -0.8 -0.8 -0.8 -0.8 -0.8 -0.8 -0.8 -0.8 -0.8 -0.8 -0.8 -0.8 -0.8 -0.8 -0.8 -0.8 -0.8 -0.8 -0.8 -0.8 -0.8 -0.8 -0.8
59.9 63.2 62.9 63.3 64.6 64.7 63.7 61.7 58.7 53.9 49.7 45.4 40.7 28.3 16 31.9 29.3 20.9 13.1 2.6 2 2.2 3.4 2.7 1.6 -0.8 -0.8 -0.8 -0.8 -0.8 -0.8 -0.8 -0.8 0.6 22.5 33.8 42.5 46.1 49.3 51 54 58 61.3 62.1 59.7 56.1 54.3 56.5 60.5 65.7 71.2 76.7 83.2 90.2 96.6 100.4 103.7 106.5 108.7 108.9 108.3 106.4 105.7 105.1 103.6 100.1 96.7 91.3 82.8 72.2 55.9 46.5 39.4 33.2 26.4 22.8 25.2 21 16.3 15 17.3 18.6 20.6 23.1 30 38.2 41.8 43.8 33 25.5 16.2 7.2 2.9 6.5 9.3 8.2 5.4 7.2 11.6 15.2 17.7 17.9 18.3 22.3 22.1 21.2 13.1 12 10.3 2 7.5 11.6 12.3 11.4 12.3 13.7 14.8 14.5 13.4 8.6 3.8 1.1 -0.8 -0.8 -0.8 -0.8 -0.8 -0.8 -0.8 -0.8 -0.8 -0.8 -0.8 -0.8 -0.8 -0.8 -0.8 -0.8 -0.8 -0.8 -0.8 -0.8 -0.8 -0.8 -0.8 -0.8 -0.8 -0.8 -0.8 -0.8 -0.8 -0.8 -0.8 -0.8 -0.8 -0.8 -0.8 -0.8 -0.8 -0.8 -0.8 -0.8 -0.8 -0.8 -0.8 -0.8 -0.8 -0.8 -0.8 -0.8 -0.8 -0.8 -0.8 -0.8 -0.8 -0.8 -0.8 -0.8 -0.8 -0.8 -0.8 -0.8 -0.8 -0.8 -0.8 -0.8 -0.8 -0.8 -0.8 -0.8 -0.8 -0.8 -0.8 -0.8 -0.8 -0.8 -0.8 -0.8 -0.8 -0.8
51.9 53.1 56.7 57.8 59.5 61.5 61.4 60.7 56 52 47 42.1 37.4 30.3 7.6 17.2 10.3 4 2 1.9 2.1 2.2 2.6 3.4 4.2 1.4 -0.8 -0.8 -0.8 -0.8 -0.8 -0.8 1.4 8.1 21.6 35.4 45.7 52.2 52.4 54 55.2 57 61.1 62.8 58.3 53.9 50.9 56.1 61.3 65.9 71.1 76.9 84.9 91.8 98.1 101.9 105.3 108.7 110.7 110.7 110.8 108.2 107.3 105.8 103.7 100.4 95.9 89.6 81.2 67.9 53.1 43.8 37.7 34.2 26.2 21.9 19 15.5 14.2 14.6 17.1 18.4 20.6 26.6 33.7 37.4 40.5 42 33.5 24.4 15.5 6.6 3.1 5.9 9 6.7 6.9 10.8 15.1 17.3 19.6 20.2 19.7 22.5 22.2 18.9 17.4 15.7 14.6 14.9 16.4 18.5 18.9 20.4 21.4 22.6 23 22.6 20.8 16 11.9 -0.8 -0.8 -0.8 -0.8 -0.8 -0.8 -0.8 -0.8 -0.8 -0.8 -0.8 -0.8 -0.8 -0.8 -0.8 -0.8 -0.8 -0.8 -0.8 -0.8 -0.8 -0.8 -0.8 -0.8 -0.8 -0.8 -0.8 -0.8 -0.8 -0.8 -0.8 -0.8 -0.8 -0.8 -0.8 -0.8 -0.8 -0.8 -0.8 -0.8 -0.8 -0.8 -0.8 -0.8 -0.8 -0.8 -0.8 -0.8 -0.8 -0.8 -0.8 -0.8 -0.8 -0.8 -0.8 -0.8 -0.8 -0.8 -0.8 -0.8 -0.8 -0.8 -0.8 -0.8 -0.8 -0.8 -0.8 -0.8 -0.8 -0.8 -0.8 -0.8 -0.8 -0.8 -0.8 -0.8 -0.8 -0.8 -0.8
53.7 52.4 43.6 45.4 51.9 54.7 56.8 57.4 55.1 50.6 45.2 40 33.9 25.5 15.3 3.9 3.7 3 1.5 2.4 2.3 2.5 3.4 3.6 3.6 3.8 4.1 18.3 8.2 2.5 5.2 16.7 20.1 22.8 19.4 34 46.5 50.3 52.4 53.5 54.3 56.5 59.2 58.3 55.3 49.1 53.2 57.6 61.1 65.2 70.6 77.3 85.9 92.1 97.7 103 106.9 110.1 112 113.1 113.3 111.2 110.2 107.9 104.3 100.8 95 87.2 78.3 62.9 49.7 38.6 35.3 31.5 24.7 20.4 17.7 15.2 13.5 14.1 17.1 18.9 20.6 30 38.3 39.7 39.6 41.6 30.4 21.3 14 6 4.5 4.2 4.7 6 8.8 13.6 17.3 19.8 21.1 22.4 24.4 23.9 23.4 22.3 20.1 19.6 21 20 20.9 23.5 24.4 27.2 29.3 30.1 30.2 31 29.8 27.4 25.5 -0.8 -0.8 -0.8 -0.8 -0.8 -0.8 -0.8 -0.8 -0.8 -0.8 -0.8 -0.8 -0.8 -0.8 -0.8 -0.8 -0.8 -0.8 -0.8 -0.8 -0.8 -0.8 -0.8 -0.8 -0.8 -0.8 -0.8 -0.8 -0.8 -0.8 -0.8 -0.8 -0.8 -0.8 -0.8 -0.8 -0.8 -0.8 -0.8 -0.8 -0.8 -0.8 -0.8 -0.8 -0.8 -0.8 -0.8 -0.8 -0.8 -0.8 -0.8 -0.8 -0.8 -0.8 -0.8 -0.8 -0.8 -0.8 -0.8 -0.8 -0.8 -0.8 -0.8 -0.8 -0.8 -0.8 -0.8 -0.8 -0.8 -0.8 -0.8 -0.8 -0.8 -0.8 -0.8 -0.8 -0.8 -0.8 -0.8
62.8 60.4 55.8 49.1 39.9 46.1 51.1 52.5 51.8 47.7 42.9 37.9 28.9 18.3 4.2 3 3 3.3 2 1.9 2.9 2.2 2.2 4.7 5 4.4 23 24 22.6 20.1 22.2 24.3 28.2 33.7 32.6 26.9 37.8 44.1 47.8 49.2 50.3 52.2 54.5 53.2 51.8 48.2 55.5 58.6 61.9 65.3 70.7 78.7 86.7 93.5 98.9 103.5 107.3 110.9 113.4 115.3 116.3 114.8 113 110.2 106.5 101.4 93.8 85.2 73.3 58.9 43.5 30.8 27 25 21.6 18.5 15.4 13.7 12.7 14.5 17.1 19.3 22.7 30.3 38.6 41.6 40.5 36.2 26.4 18.1 11.1 5.3 3.7 3.8 4.5 6.1 9.9 16 19.6 23.3 24.5 27.7 29.2 25.8 27.7 27.1 25 25.2 25.8 24.8 25.6 29.5 31 33.4 36.8 37.7 37.5 38.5 37.9 38.1 37.7 37.8 -0.8 -0.8 -0.8 -0.8 -0.8 -0.8 -0.8 -0.8 -0.8 -0.8 -0.8 -0.8 -0.8 -0.8 -0.8 -0.8 -0.8 -0.8 -0.8 -0.8 -0.8 -0.8 -0.8 -0.8 -0.8 -0.8 -0.8 -0.8 -0.8 -0.8 -0.8 -0.8 -0.8 -0.8 -0.8 -0.8 -0.8 -0.8 -0.8 -0.8 -0.8 -0.8 -0.8 -0.8 -0.8 -0.8 -0.8 -0.8 -0.8 -0.8 -0.8 -0.8 -0.8 -0.8 -0.8 -0.8 -0.8 -0.8 -0.8 -0.8 -0.8 -0.8 -0.8 -0.8 -0.8 -0.8 -0.8 -0.8 -0.8 -0.8 -0.8 -0.8 -0.8 -0.8 -0.8 -0.8 -0.8 -0.8
64.1 62.6 60.2 55.6 49.1 36.2 43.8 47 47.6 44.4 39.3 32.3 17.9 5.2 2.9 2.6 3.6 4.2 4.7 1.7 2.2 2.1 4 5.5 6.9 21.4 25.4 26.4 26.3 25.7 27.7 31.4 35.5 43.2 44.2 40 38.3 39.4 40.4 41.7 45 47.3 50.2 50.1 44.7 52.2 56.5 60.4 63.8 66.3 70.5 79.2 87.3 94.2 99 103.1 106.8 110.2 113.3 116.5 118 118.7 117.8 112.8 107.8 100.6 92 81.2 65.1 50.8 37.9 27.5 23.6 22.3 21.2 17.9 14.7 13.2 12.1 14.4 16.8 18.9 21.9 30 38.5 39.8 40.8 34 22.5 14.3 9 4.2 4.1 4.3 5.2 7.2 9.3 19.9 23.7 27.7 31 33 30.9 28.2 33 30.9 31.2 33.2 32.9 31.1 31.2 35.5 37.6 42 43.9 46.2 45.5 46.7 47.8 46.7 46.1 30.4 -0.8 -0.8 -0.8 -0.8 -0.8 -0.8 -0.8 -0.8 -0.8 -0.8 -0.8 -0.8 -0.8 -0.8 -0.8 -0.8 -0.8 -0.8 -0.8 -0.8 -0.8 -0.8 -0.8 -0.8 -0.8 -0.8 -0.8 -0.8 -0.8 -0.8 -0.8 -0.8 -0.8 -0.8 -0.8 -0.8 -0.8 -0.8 -0.8 -0.8 -0.8 -0.8 -0.8 -0.8 -0.8 -0.8 -0.8 -0.8 -0.8 -0.8 -0.8 -0.8 -0.8 -0.8 -0.8 -0.8 -0.8 -0.8 -0.8 -0.8 -0.8 -0.8 -0.8 -0.8 -0.8 -0.8 -0.8 -0.8 -0.8 -0.8 -0.8 -0.8 -0.8 -0.8 -0.8 -0.8 -0.8 -0.8
65.4 62.9 60.1 57 52.9 45.8 33 40.7 42.9 40.1 33 22.7 10.5 3 2.2 2.8 2.8 3.5 3.9 2.1 2.3 4.9 6.2 7.5 18.2 23.8 26.5 30.3 30.7 30.5 33.1 36.6 43.2 49.7 51.6 50.6 48.4 46.9 44.5 42.2 42.2 44.6 46.9 47 46.8 52.1 56.4 60.9 64.5 67.2 71.8 79.2 87.8 93.8 97.5 100.8 104.5 109 112.4 115.4 117.8 120.3 119.4 114.6 106.7 98.3 88.6 74.8 54 43.7 35.2 28 23.3 21.9 23 21.5 14.3 12.1 11.4 13 16.2 17.8 19.6 28.6 36.6 35.7 34.5 29.4 21.1 14.1 8.6 4.6 4.2 5.6 7.5 9.6 13.6 26.2 31.5 33.4 34.9 34.3 31.9 32.9 36 34.8 35.9 38.8 40.5 38.6 37.8 41.1 45.7 49.9 52.4 53.5 54.3 54.5 55.2 55.6 56.3 55.3 -0.8 -0.8 -0.8 -0.8 -0.8 -0.8 -0.8 -0.8 -0.8 -0.8 -0.8 -0.8 -0.8 -0.8 -0.8 -0.8 -0.8 -0.8 -0.8 -0.8 -0.8 -0.8 -0.8 -0.8 -0.8 -0.8 -0.8 -0.8 -0.8 -0.8 -0.8 -0.8 -0.8 -0.8 -0.8 -0.8 -0.8 -0.8 -0.8 -0.8 -0.8 -0.8 -0.8 -0.8 -0.8 -0.8 -0.8 -0.8 -0.8 -0.8 -0.8 -0.8 -0.8 -0.8 -0.8 -0.8 -0.8 -0.8 -0.8 -0.8 -0.8 -0.8 -0.8 -0.8 -0.8 -0.8 -0.8 -0.8 -0.8 -0.8 -0.8 -0.8 -0.8 -0.8 -0.8 -0.8 -0.8 -0.8
66 63.2 59.4 56.3 52.6 48.3 41.4 31.6 38 36.6 29.6 21.6 12.1 2 1.6 2.4 2.2 1.8 1.8 2.4 4.2 8.8 10.9 14.4 19.8 24.7 28.1 33.6 34.8 35.5 37.2 40.4 47.4 53.9 57.3 56.9 55.5 53.3 50.5 47.8 45.1 44.2 45.5 42.4 47.1 51.6 56.1 60.6 64.5 68.1 73.3 80 86.9 91.9 95.5 98.3 101.9 106.6 110 114.5 119 120.6 118.8 112.9 105.1 94.7 82.2 63.9 46.3 39 32.5 27.2 22.8 22.7 26.4 21.2 14.3 11.2 11 11.7 15 16.5 17.1 25.8 32.3 29.6 27 24.3 19.4 13.1 4.9 4.2 6.5 10.1 10.3 14.1 26.7 36.4 37.1 37.6 37.5 36.5 33 36.4 39.8 39.4 41.4 45.9 46.5 45.8 45.2 47 52.1 56.3 60.1 61.6 60.9 61.5 61.7 63.9 62.7 61.4 20.4 -0.8 -0.8 -0.8 -0.8 -0.8 -0.8 -0.8 -0.8 -0.8 -0.8 -0.8 -0.8 -0.8 -0.8 -0.8 -0.8 -0.8 -0.8 -0.8 -0.8 -0.8 -0.8 -0.8 -0.8 -0.8 -0.8 -0.8 -0.8 -0.8 -0.8 -0.8 -0.8 -0.8 -0.8 -0.8 -0.8 -0.8 -0.8 -0.8 -0.8 -0.8 -0.8 -0.8 -0.8 -0.8 -0.8 -0.8 -0.8 -0.8 -0.8 -0.8 -0.8 -0.8 -0.8 -0.8 -0.8 -0.8 -0.8 -0.8 -0.8 -0.8 -0.8 -0.8 -0.8 -0.8 -0.8 -0.8 -0.8 -0.8 -0.8 -0.8 -0.8 -0.8 -0.8 -0.8 -0.8 -0.8
66.9 62.9 59.4 55.2 51.1 47.6 42.9 25.2 32 33.4 28 21.2 3 2.8 2.8 2.2 2.5 1.9 4 7.8 10.3 13.7 17.8 19.3 20.3 25.6 31.1 35.9 38.9 40.3 41.6 43.8 49.2 55.5 59.6 59.8 59.5 57.7 54.4 50.7 46.8 43.8 40.4 38.7 46.8 51.1 54.5 58.9 63.3 67.6 72.9 78.3 83.9 88.6 92.2 95.1 99.1 103.8 108.1 114.7 118.3 117.5 115.6 109.8 100.6 88.8 72 52.9 40.4 35.2 30.1 24.8 20.9 21.4 23.7 18.9 13.7 11.5 9.9 9.9 12.8 13.5 14.3 20 23.6 19.4 13.5 11.4 9.1 5.4 5.8 9 12.4 13.5 15.3 21.1 36.3 39.7 39.7 40.5 40.3 40.2 37.8 37.6 42.6 44.2 46.4 48.8 50.9 50.8 51.5 54.3 59.2 63.7 67.9 69.1 70.1 71.7 68.3 67.1 66.6 66 63.9 -0.8 -0.8 -0.8 -0.8 -0.8 -0.8 -0.8 -0.8 -0.8 -0.8 -0.8 -0.8 -0.8 -0.8 -0.8 -0.8 -0.8 -0.8 -0.8 -0.8 -0.8 -0.8 -0.8 -0.8 -0.8 -0.8 -0.8 -0.8 -0.8 -0.8 -0.8 -0.8 -0.8 -0.8 -0.8 -0.8 -0.8 -0.8 -0.8 -0.8 -0.8 -0.8 -0.8 -0.8 -0.8 -0.8 -0.8 -0.8 -0.8 -0.8 -0.8 -0.8 -0.8 -0.8 -0.8 -0.8 -0.8 -0.8 -0.8 -0.8 -0.8 -0.8 -0.8 -0.8 -0.8 -0.8 -0.8 -0.8 -0.8 -0.8 -0.8 -0.8 -0.8 -0.8 -0.8 -0.8 -0.8
67.2 63 57.8 53.6 49.9 46.1 42 33.9 24.9 26.3 22.8 12.1 2.8 2.8 2.8 2.8 2.7 2.3 4.2 8.7 15.8 20.6 24.3 25.7 20.4 26.2 32.6 37.7 40.9 41.7 44.8 46.8 52 55.5 59.3 60.6 60.1 59.2 56.2 52 47.9 43.5 35.3 41.4 44.9 49 53 57 61.4 66 70.9 74.6 79.3 84.1 87.8 90.7 95.7 100.8 106 112.8 114.4 113.5 110.5 103.5 94.1 79.3 59.1 46.4 33.8 29.7 26 21.8 19.8 18 18.6 17.3 13.2 10.6 9.4 9.7 10 10.2 9.7 8.7 8.9 7.6 6.9 6.3 5.7 8.6 10.6 15.2 16.4 18 23.4 33 40.6 42.5 43.2 43.7 42.5 41.2 37.9 42.2 45.1 47 49.3 52.7 54.2 54.2 56.9 61.2 64.6 69.5 75.1 77.4 79.6 79.9 78.8 73.7 71.1 70.1 68.6 64.6 -0.8 -0.8 -0.8 -0.8 -0.8 -0.8 -0.8 -0.8 -0.8 -0.8 -0.8 -0.8 -0.8 -0.8 -0.8 -0.8 -0.8 -0.8 -0.8 -0.8 -0.8 -0.8 -0.8 -0.8 -0.8 -0.8 -0.8 -0.8 -0.8 -0.8 -0.8 -0.8 -0.8 -0.8 -0.8 -0.8 -0.8 -0.8 -0.8 -0.8 -0.8 -0.8 -0.8 -0.8 -0.8 -0.8 -0.8 -0.8 -0.8 -0.8 -0.8 -0.8 -0.8 -0.8 -0.8 -0.8 -0.8 -0.8 -0.8 -0.8 -0.8 -0.8 -0.8 -0.8 -0.8 -0.8 -0.8 -0.8 -0.8 -0.8 -0.8 -0.8 -0.8 -0.8 -0.8 -0.8
66.5 61.9 56.5 51.4 47.9 44.3 39.5 33.3 23.2 15.5 3.9 2.8 2.8 2.8 2.8 2.8 2.8 2.6 4.2 14.5 22.7 24.9 27.4 28.5 25.6 24.6 32.1 39.9 42.3 43.2 46.3 49.4 52.5 56 58 59.8 59.6 58.3 55.9 52 46.1 41.5 31.8 39.2 43.3 47.3 51.3 55.3 59.3 63.1 67.3 71.6 75.5 78.7 82.6 87 91.9 96.8 103.3 108.8 109.9 108.1 103.1 95.7 85.4 65.4 50.5 42.6 32.5 25.9 22 21.2 18.4 14.2 13.2 14.5 12.6 9.5 9 9 8.9 8.9 8.5 7.8 7.5 7.1 6.9 6.6 7 12 16.9 22.7 20.2 27 35.1 40.8 42.9 44 44.6 45.3 44.4 40.6 41.8 45.5 47.5 49.6 52 55.4 56.7 58.4 63.1 65.2 69.3 77 80.5 84.3 86.6 87.2 87.5 84.3 77.7 75.3 71.8 67.6 -0.8 -0.8 -0.8 -0.8 -0.8 -0.8 -0.8 -0.8 -0.8 -0.8 -0.8 -0.8 -0.8 -0.8 -0.8 -0.8 -0.8 -0.8 -0.8 -0.8 -0.8 -0.8 -0.8 -0.8 -0.8 -0.8 -0.8 -0.8 -0.8 -0.8 -0.8 -0.8 -0.8 -0.8 -0.8 -0.8 -0.8 -0.8 -0.8 -0.8 -0.8 -0.8 -0.8 -0.8 -0.8 -0.8 -0.8 -0.8 -0.8 -0.8 -0.8 -0.8 -0.8 -0.8 -0.8 -0.8 -0.8 -0.8 -0.8 -0.8 -0.8 -0.8 -0.8 -0.8 -0.8 -0.8 -0.8 -0.8 -0.8 -0.8 -0.8 -0.8 -0.8 -0.8 -0.8 -0.8
68.5 62.3 56.3 50.2 45.2 41.3 36.5 29.9 26.8 23.8 4 2.8 2.8 2.8 2.8 2.8 2.8 3 5.9 21 26.8 28.1 29.5 29.8 29.9 28.8 29.7 37.8 40.9 42.3 46.6 50.3 52.9 54.9 56.5 58 57.4 56.7 53.9 49.3 43.6 38 26.7 36.5 40.6 44.9 48.7 52.4 56.4 60.1 63.6 66.7 69.9 73.6 77.9 81.2 86.2 90.8 98.2 102.2 101.7 98.5 93.8 86 72 53.4 44.9 37.3 27.5 21.2 20.3 21.5 14.8 11.4 10.7 10.6 10 9.1 9 9.2 8.4 8.5 8.3 7.8 7.6 7.7 11.2 11.4 19.2 22.3 26.2 27.5 26.5 29.6 38.7 44.3 44.4 44.9 45.4 46.3 46.3 43.6 43.7 47 49.9 52.1 53.9 56.7 58.9 62.6 67.3 71.4 74.9 83.2 88.4 91.6 93.9 94.4 92.6 87.6 84.5 79.7 76.3 33.1 -0.8 -0.8 -0.8 -0.8 -0.8 -0.8 -0.8 -0.8 -0.8 -0.8 -0.8 -0.8 -0.8 -0.8 -0.8 -0.8 -0.8 -0.8 -0.8 -0.8 -0.8 -0.8 -0.8 -0.8 -0.8 -0.8 -0.8 -0.8 -0.8 -0.8 -0.8 -0.8 -0.8 -0.8 -0.8 -0.8 -0.8 -0.8 -0.8 -0.8 -0.8 -0.8 -0.8 -0.8 -0.8 -0.8 -0.8 -0.8 -0.8 -0.8 -0.8 -0.8 -0.8 -0.8 -0.8 -0.8 -0.8 -0.8 -0.8 -0.8 -0.8 -0.8 -0.8 -0.8 -0.8 -0.8 -0.8 -0.8 -0.8 -0.8 -0.8 -0.8 -0.8 -0.8 -0.8 -0.8
68.7 62.8 54.9 49.2 45.1 39.2 33.6 27.7 18.6 10.3 2.8 2.8 2.8 2.8 2.8 2.8 2.8 7.7 23.3 28.9 32.5 33.6 34.5 35 36.2 35.6 31.6 34.1 38.7 40.6 44.7 47.7 50.2 52 53.2 53.8 54.1 53.3 50.6 44.8 39.2 34.1 24.4 34.4 38.2 42 45.4 49.3 52.7 55.4 58.6 61.2 64.5 68.8 73.2 76.4 80 84 90.9 92.3 91.4 87.9 82.8 71.1 55.2 47.4 40.3 32.1 22.3 18.9 20.1 15.3 11.2 10.4 10.1 10 11.6 10.9 10.7 11.3 9.3 9.2 8.9 9 12.4 22.2 21.5 20.5 22.4 26.5 31.7 31.8 30.9 36.5 39.3 42.9 44.7 45.4 46 47.3 46.3 44.5 47 48.5 51.5 53.9 55.9 58.4 61.1 67.2 71.5 76.6 80.4 87.5 93.6 98.1 100.5 99.3 98 94.3 89.5 84.6 79.1 73.8 -0.8 -0.8 -0.8 -0.8 -0.8 -0.8 -0.8 -0.8 -0.8 -0.8 -0.8 -0.8 -0.8 -0.8 -0.8 -0.8 -0.8 -0.8 -0.8 -0.8 -0.8 -0.8 -0.8 -0.8 -0.8 -0.8 -0.8 -0.8 -0.8 -0.8 -0.8 -0.8 -0.8 -0.8 -0.8 -0.8 -0.8 -0.8 -0.8 -0.8 -0.8 -0.8 -0.8 -0.8 -0.8 -0.8 -0.8 -0.8 -0.8 -0.8 -0.8 -0.8 -0.8 -0.8 -0.8 -0.8 -0.8 -0.8 -0.8 -0.8 -0.8 -0.8 -0.8 -0.8 -0.8 -0.8 -0.8 -0.8 -0.8 -0.8 -0.8 -0.8 -0.8 -0.8 -0.8 -0.8
69.3 65.1 56.1 49.5 43.7 37.5 32 26.1 17.6 2.8 2.8 2.8 2.8 2.8 2.8 2.8 2.8 20.9 28.3 35.1 39.2 39.1 38.9 38 40.7 39.8 39.2 37.6 34.2 37.3 40.8 43.8 46.7 48.3 48.7 49 49.1 47.6 45.1 38.7 34.2 30.4 24.6 30.8 35.4 38.3 41.3 44.9 48.1 50.9 53.1 55.2 57.1 62 66.5 70.4 73.2 76.9 80.9 80.3 77.5 72.2 65.7 52.6 44.8 41 34.7 25.3 19.4 18.9 15.6 11.3 10.4 10.4 10.5 10.8 12.8 12.8 13.1 14.7 16.5 17 16.7 17 23.3 29.1 28.9 27.6 28.2 31.5 36 35.7 35 39.8 40.3 42.7 45.7 45.9 47 47.6 44.9 47.4 49.5 51.2 53.5 55.5 57.5 60.4 63.2 68.4 74 80.7 87.3 93.9 99.5 104.1 106.7 107.3 105.3 101.5 97.1 92.1 84.5 77.7 72.1 54 35.2 -0.8 -0.8 -0.8 -0.8 -0.8 -0.8 -0.8 -0.8 -0.8 -0.8 -0.8 -0.8 -0.8 -0.8 -0.8 -0.8 -0.8 -0.8 -0.8 -0.8 -0.8 -0.8 -0.8 -0.8 -0.8 -0.8 -0.8 -0.8 -0.8 -0.8 -0.8 -0.8 -0.8 -0.8 -0.8 -0.8 -0.8 -0.8 -0.8 -0.8 -0.8 -0.8 -0.8 -0.8 -0.8 -0.8 -0.8 -0.8 -0.8 -0.8 -0.8 -0.8 -0.8 -0.8 -0.8 -0.8 -0.8 -0.8 -0.8 -0.8 -0.8 -0.8 -0.8 -0.8 -0.8 -0.8 -0.8 -0.8 -0.8 -0.8 -0.8 -0.8 -0.8
68.4 64.2 56.8 49 41.8 36.5 30.6 19.7 9.5 2.8 2.8 2.8 2.8 2.8 2.8 2.8 20.6 26.8 33.6 38.8 41.6 42.6 42.8 42.7 43.8 43.1 43.7 43.6 39 35.1 36.4 39.3 41.5 43.4 43.5 43.8 43.8 42.5 37.7 34.2 31.3 27.8 22.8 27.7 31.7 34.7 37.4 40 43.1 46 47.2 49.9 52.7 55.1 59.6 64.1 67.8 66.6 68.8 65.7 59.4 51.4 45.6 39.8 38.3 34.4 27.9 20.6 20.1 18.1 13.7 10.9 10.4 10.4 10.5 11.4 12.3 13.6 15.6 17.8 19.7 20.4 20.2 20.8 25.5 29.8 30.8 32.4 35.2 35.4 38.2 39.2 40.8 42.7 42.4 42.3 44.9 46.1 48.3 46.7 47.8 49.6 51.1 52.5 55.4 57.3 59.3 61.4 66.8 70.9 77.4 84.3 92.2 98.3 104.6 108.8 110.7 111.1 108.7 106.2 101.3 95 89.6 81.8 77.9 75.8 73.2 57 -0.8 -0.8 -0.8 -0.8 -0.8 -0.8 -0.8 -0.8 -0.8 -0.8 -0.8 -0.8 -0.8 -0.8 -0.8 -0.8 -0.8 -0.8 -0.8 -0.8 -0.8 -0.8 -0.8 -0.8 -0.8 -0.8 -0.8 -0.8 -0.8 -0.8 -0.8 -0.8 -0.8 -0.8 -0.8 -0.8 -0.8 -0.8 -0.8 -0.8 -0.8 -0.8 -0.8 -0.8 -0.8 -0.8 -0.8 -0.8 -0.8 -0.8 -0.8 -0.8 -0.8 -0.8 -0.8 -0.8 -0.8 -0.8 -0.8 -0.8 -0.8 -0.8 -0.8 -0.8 -0.8 -0.8 -0.8 -0.8 -0.8 -0.8 -0.8 -0.8
68.6 63.9 56.7 48.1 41.3 36 30.3 15.2 2.8 2.8 2.8 2.8 2.8 2.8 2.8 18.4 24.9 30.1 35.3 38.8 42.6 43.8 46.5 47.8 46.9 46.6 45.6 44.6 42.4 39.2 36 36.6 36 36.8 36.4 37.5 36.3 34.8 31.3 28.5 26.9 24.5 19.3 25.3 28 30.9 34.1 36.5 38.9 41.3 42.2 45.4 47.6 50 53.8 57.6 56 56.1 54.6 49.2 44.4 41.2 37.8 35.5 30.1 26.1 22.2 19.9 20.2 16.9 12.7 11.8 10.7 10.6 11.1 12 12.9 14.1 15.8 19.5 21.4 22.6 22.4 24 28.1 30.7 34.3 33.9 35.8 37.4 40.1 43.3 44.6 45.6 44.1 43.2 44.2 45.9 47.1 46.7 48.4 50 51.4 54.1 56.6 58.7 60.3 64.3 69.5 75 80.8 88.6 96.7 104.8 108.6 112.3 114.6 114.8 112.8 110.1 105.4 98.9 92.9 85.7 83.1 81.4 78.9 76.5 78 77.8 70.7 -0.8 -0.8 -0.8 -0.8 -0.8 -0.8 -0.8 -0.8 -0.8 -0.8 -0.8 -0.8 -0.8 -0.8 -0.8 -0.8 -0.8 -0.8 -0.8 -0.8 -0.8 -0.8 -0.8 -0.8 -0.8 -0.8 -0.8 -0.8 -0.8 -0.8 -0.8 -0.8 -0.8 -0.8 -0.8 -0.8 -0.8 -0.8 -0.8 -0.8 -0.8 -0.8 -0.8 -0.8 -0.8 -0.8 -0.8 -0.8 -0.8 -0.8 -0.8 -0.8 -0.8 -0.8 -0.8 -0.8 -0.8 -0.8 -0.8 -0.8 -0.8 -0.8 -0.8 -0.8 -0.8 -0.8 -0.8 -0.8 -0.8
66.9 63.1 57.3 49.5 43.2 37.3 30.5 20 2.8 2.8 2.8 2.8 2.8 2.8 8.5 19.3 25.1 30.1 34.8 37 41.6 44.6 48.3 49.6 48.8 47.4 46.2 44.8 43.8 41.8 36.4 35.3 33.1 32.8 31.3 30.9 27.6 27 25.5 24.3 22.9 21.5 16.7 22.7 25.5 28.6 30.9 33.1 35.4 37.3 39.2 41.7 44.4 47.2 49.2 48.1 44.4 42.4 40.7 39.7 35.8 34.2 31.4 27.7 24.2 22.3 19.7 18 15.1 12.8 12.5 11.6 11 11.7 12.4 13 13.5 14.5 16.5 19.7 21.6 23.3 24.2 24.7 28.8 31.6 33.5 33.9 37.3 38 42.2 44.4 45.3 46.3 45.2 44 44.6 46.2 47 47.7 48.4 49.8 52.3 54.6 57.1 59.2 61.3 65 70.4 77.7 84.8 91.1 98.6 108.6 112.7 116.1 117.5 117.8 115.8 112.6 107 102 95.6 90.7 88.3 85.7 83.7 83.9 84.3 85.2 81.2 36.2 -0.8 -0.8 -0.8 -0.8 -0.8 -0.8 -0.8 -0.8 -0.8 -0.8 -0.8 -0.8 -0.8 -0.8 -0.8 -0.8 -0.8 -0.8 -0.8 -0.8 -0.8 -0.8 -0.8 -0.8 -0.8 -0.8 -0.8 -0.8 -0.8 -0.8 -0.8 -0.8 -0.8 -0.8 -0.8 -0.8 -0.8 -0.8 -0.8 -0.8 -0.8 -0.8 -0.8 -0.8 -0.8 -0.8 -0.8 -0.8 -0.8 -0.8 -0.8 -0.8 -0.8 -0.8 -0.8 -0.8 -0.8 -0.8 -0.8 -0.8 -0.8 -0.8 -0.8 -0.8 -0.8 -0.8 -0.8 -0.8
65 60.9 56.7 48.3 43.6 37.6 27.2 13.3 2.8 2.8 2.8 2.8 2.8 2.8 2.8 10.5 22.7 28.4 31.8 34.7 39.2 43.5 47.9 51.2 49.7 48.1 46 43.9 41.6 39.1 36.1 33 30.2 27.9 25.7 23.7 20.3 18.7 17.6 18.5 19.3 18.6 16.7 20 20.2 25.9 28.6 30.9 32.3 33.7 35 37.9 39.7 41.2 41.2 37.9 34 34.1 32.3 30.8 29.7 28.3 26.3 25 22.7 20 17.7 16.4 14.5 12.9 12.2 11.7 11.5 12.7 13.5 14.3 14.8 15.3 16.5 18.7 20.9 22 23.5 27.1 28 29.8 32.6 35 37.4 38.1 41 44.2 45.2 46 45.1 43 44.1 45.1 44.9 46.2 48.2 50.6 53.2 55.3 57.7 59.8 63.2 67 73 79.1 85.6 92.2 100.6 111 116.6 118.7 119.4 119.6 117.3 114.4 109.9 104.4 99.5 96.2 93.3 90.8 89.1 90.1 92.1 92.4 93.1 28.8 -0.8 -0.8 -0.8 -0.8 -0.8 -0.8 -0.8 -0.8 -0.8 -0.8 -0.8 -0.8 -0.8 -0.8 -0.8 -0.8 -0.8 -0.8 -0.8 -0.8 -0.8 -0.8 -0.8 -0.8 -0.8 -0.8 -0.8 -0.8 -0.8 -0.8 -0.8 -0.8 -0.8 -0.8 -0.8 -0.8 -0.8 -0.8 -0.8 -0.8 -0.8 -0.8 -0.8 -0.8 -0.8 -0.8 -0.8 -0.8 -0.8 -0.8 -0.8 -0.8 -0.8 -0.8 -0.8 -0.8 -0.8 -0.8 -0.8 -0.8 -0.8 -0.8 -0.8 -0.8 -0.8 -0.8 -0.8 -0.8
62.8 59 54.4 48.8 41.5 35.2 25.1 2.8 2.8 2.8 2.8 2.8 1.5 9 2.8 2.8 16 23.3 27.9 31.6 34.8 39.8 45.4 49.1 49.3 48 44.9 41.6 40 37.7 35.3 31.9 27.5 24.7 21.5 14.8 5.8 6.2 6.7 7.9 14.1 16.8 14.6 17.8 19.9 23.2 26.8 28.3 29.2 29.8 29.9 31.7 33.4 32 30.1 25.2 25.7 24.4 24 24.8 25.2 25.4 25.2 23.7 21.3 18.1 18.1 17.6 17.6 14.9 12.2 11.9 12.2 13.4 14.4 15.4 15.1 14.3 15 16.8 18.1 21.1 24.6 27.4 28.9 29.5 32.3 34 35.4 37.6 39.7 42.6 44.2 45.7 42.7 41.6 43.5 42.8 44 45.7 48.9 51.5 54 56.3 58.3 61 64.2 69.6 75.4 80.8 87.2 92.9 102.5 112.7 118.9 122.2 122 121.4 119.2 115.9 111.7 107.4 102.5 101 99.5 96.7 95.3 97.5 99.2 82.1 64.1 42.7 -0.8 -0.8 -0.8 -0.8 -0.8 -0.8 -0.8 -0.8 -0.8 -0.8 -0.8 -0.8 -0.8 -0.8 -0.8 -0.8 -0.8 -0.8 -0.8 -0.8 -0.8 -0.8 -0.8 -0.8 -0.8 -0.8 -0.8 -0.8 -0.8 -0.8 -0.8 -0.8 -0.8 -0.8 -0.8 -0.8 -0.8 -0.8 -0.8 -0.8 -0.8 -0.8 -0.8 -0.8 -0.8 -0.8 -0.8 -0.8 -0.8 -0.8 -0.8 -0.8 -0.8 -0.8 -0.8 -0.8 -0.8 -0.8 -0.8 -0.8 -0.8 -0.8 -0.8 -0.8 -0.8 -0.8 -0.8 -0.8
62.3 56.7 53.5 48.1 42.4 30.1 13.9 2.8 2.8 2.8 7.4 13.7 17.2 15.6 11.5 2.8 2.8 16 22.3 27.9 30.9 35.5 40.9 44.4 45.9 45.3 42 37.8 35.3 33.3 32.1 29.5 24.7 20.9 16.1 9 5 6 6.7 7.7 10 11.1 14.2 15.5 17.5 20.3 23.7 25 25 21.5 19.3 20.8 20.7 20.5 19.4 18.9 19.7 20.5 21.3 21.7 22 21.8 22 22 20.2 18.8 17.5 17.3 17.2 15.1 12.2 11.9 12.5 13.4 14.2 15.3 14.4 13.2 13.7 15.2 16.2 18.5 23.3 26.5 27.4 27.5 29.7 31.8 33.2 35.2 37.7 40.4 42.3 42.5 40.2 41 41.7 41.4 42.5 45.6 49 51.7 54.8 57.2 60 64.1 66.5 71.8 76.7 82.1 88.9 94.7 102.9 113.3 120.2 123.9 124.7 123.8 121.7 118.2 114.7 110.9 108.3 106.9 105.6 104.7 103.7 106.3 106.5 58.1 -0.8 -0.8 -0.8 -0.8 -0.8 -0.8 -0.8 -0.8 -0.8 -0.8 -0.8 -0.8 -0.8 -0.8 -0.8 -0.8 -0.8 -0.8 -0.8 -0.8 -0.8 -0.8 -0.8 -0.8 -0.8 -0.8 -0.8 -0.8 -0.8 -0.8 -0.8 -0.8 -0.8 -0.8 -0.8 -0.8 -0.8 -0.8 -0.8 -0.8 -0.8 -0.8 -0.8 -0.8 -0.8 -0.8 -0.8 -0.8 -0.8 -0.8 -0.8 -0.8 -0.8 -0.8 -0.8 -0.8 -0.8 -0.8 -0.8 -0.8 -0.8 -0.8 -0.8 -0.8 -0.8 -0.8 -0.8 -0.8 -0.8 -0.8
58.5 53.7 50.2 46.4 39.4 24.8 2.8 2.8 2.8 2.8 13.1 21 24.4 22.3 17.6 10.9 2.8 6 14.2 21.4 26 29.4 34.6 37.6 40.3 39.4 36.2 31.9 27.8 26.1 27.7 26.9 20.5 14.9 7.5 4.3 5.8 6.8 8.5 10.1 9.9 10.5 12.7 14.3 15.6 18.2 20.6 16.2 13.1 11.8 11.9 12.4 16.2 17.7 16.7 17.7 18.7 18.4 18.7 19.3 18.7 18.6 18 18.6 18.8 18.2 16.3 17.3 16.8 14.1 12.3 11.8 12.5 13.2 13.9 14.3 13.6 12.8 13.2 15.1 16.2 15.4 18.7 23 22.9 24.9 26.6 28.3 30.7 32.5 35.6 37.4 37.7 37.4 38 39.6 39.3 38.6 42 44.8 48.2 51.8 54.2 57.5 60.5 65 68.5 73.3 78.4 83.1 89 95.2 102.4 113.5 120.7 124.8 127.1 127.4 126.3 122.5 118.6 113.7 114.3 112.7 112.9 112.4 113.2 113.8 79.9 44.2 -0.8 -0.8 -0.8 -0.8 -0.8 -0.8 -0.8 -0.8 -0.8 -0.8 -0.8 -0.8 -0.8 -0.8 -0.8 -0.8 -0.8 -0.8 -0.8 -0.8 -0.8 -0.8 -0.8 -0.8 -0.8 -0.8 -0.8 -0.8 -0.8 -0.8 -0.8 -0.8 -0.8 -0.8 -0.8 -0.8 -0.8 -0.8 -0.8 -0.8 -0.8 -0.8 -0.8 -0.8 -0.8 -0.8 -0.8 -0.8 -0.8 -0.8 -0.8 -0.8 -0.8 -0.8 -0.8 -0.8 -0.8 -0.8 -0.8 -0.8 -0.8 -0.8 -0.8 -0.8 -0.8 -0.8 -0.8 -0.8 -0.8 -0.8
57.8 52 48.4 43.3 35.2 17.6 2.8 2.8 2.8 4.1 19.3 26.8 29.9 27.5 22.1 15.9 2.8 2.8 2.8 5.3 16.1 22.3 25.9 29.2 31 30.5 27.3 24.7 21.8 20.8 23.5 22.2 15.8 5.7 4.5 3.8 6.7 9.5 11 11.3 11.2 10.8 9.7 14.9 16.3 17.2 14.1 10.4 10.6 10.6 11.2 11.8 15.4 15.8 15.7 15.6 16.4 16.8 17.2 16.9 17 17 16.8 16.7 16.5 16.5 16.1 14.7 14.3 13.4 12.6 11.9 11.7 12.1 12.7 12.9 12.4 13.4 13.6 15.3 15 14.1 13.6 15.4 17.3 19.7 24.3 27.7 29.7 31.1 32.7 34 34.6 34.6 35.1 37 35.6 37.1 40.8 44.2 48.3 52.3 54.9 57.9 61.7 66.1 70.5 74.1 79.3 84.5 90.2 96.1 102.1 112.5 120.3 125.9 128.1 129 129.4 127.1 124.8 121.4 120.6 120.1 119.4 119.9 120.6 121.4 82.2 45.8 -0.8 -0.8 -0.8 -0.8 -0.8 -0.8 -0.8 -0.8 -0.8 -0.8 -0.8 -0.8 -0.8 -0.8 -0.8 -0.8 -0.8 -0.8 -0.8 -0.8 -0.8 -0.8 -0.8 -0.8 -0.8 -0.8 -0.8 -0.8 -0.8 -0.8 -0.8 -0.8 -0.8 -0.8 -0.8 -0.8 -0.8 -0.8 -0.8 -0.8 -0.8 -0.8 -0.8 -0.8 -0.8 -0.8 -0.8 -0.8 -0.8 -0.8 -0.8 -0.8 -0.8 -0.8 -0.8 -0.8 -0.8 -0.8 -0.8 -0.8 -0.8 -0.8 -0.8 -0.8 -0.8 -0.8 -0.8 -0.8 -0.8 -0.8
55.1 49.5 44.7 39.2 29.2 8.9 2.8 2.8 2.8 13.8 26 32.8 35 31.6 25.5 19.5 15.8 9.3 3.7 2.8 2.9 13.3 18.7 20.6 20.4 21.7 19.5 18.3 17.3 17.9 18.9 17.4 8.9 2.6 3.6 5.1 8.8 10.6 13.4 14.1 14.5 14 11.6 10 13.9 11.3 10.7 10.6 10.5 10.6 11.1 11.5 12.3 12.6 13.2 15.2 15.3 16.3 17.1 17.2 16.1 15.2 14.9 14.6 14.9 15.8 15.3 14.1 12.7 13.7 12.9 12.2 11.5 11.5 11.6 13.5 13.8 13.5 12.6 12.9 13.1 12.4 13.7 13 12.7 15.2 23.4 27.6 29.1 30.2 30.7 32 32.4 32 32.4 33.6 32.1 36.4 38.8 42.6 47.5 51.9 56 59.4 63.2 67.5 71.9 75.3 80.2 85 90.3 96.2 101.2 110.8 119.1 125.6 128 131 131.8 131.9 129.4 127.2 127.7 127.8 126.9 127.2 128.9 128.2 88.4 36.8 -0.8 -0.8 -0.8 -0.8 -0.8 -0.8 -0.8 -0.8 -0.8 -0.8 -0.8 -0.8 -0.8 -0.8 -0.8 -0.8 -0.8 -0.8 -0.8 -0.8 -0.8 -0.8 -0.8 -0.8 -0.8 -0.8 -0.8 -0.8 -0.8 -0.8 -0.8 -0.8 -0.8 -0.8 -0.8 -0.8 -0.8 -0.8 -0.8 -0.8 -0.8 -0.8 -0.8 -0.8 -0.8 -0.8 -0.8 -0.8 -0.8 -0.8 -0.8 -0.8 -0.8 -0.8 -0.8 -0.8 -0.8 -0.8 -0.8 -0.8 -0.8 -0.8 -0.8 -0.8 -0.8 -0.8 -0.8 -0.8 -0.8 -0.8
49.3 45.6 41.1 34.4 20.1 2.8 2.8 2.8 6.7 22.8 32.7 38.4 38.8 35.5 29.4 23.1 20.5 15.6 10.1 2.8 2.8 5.6 13 14.6 14 12.8 13.1 15.4 15.6 16 13.3 11.1 2.4 3.5 8.2 9 12 13.6 16 17.3 17.8 17.7 16 10.3 9.7 9.9 11.3 12.4 11.8 11.1 10.9 11.4 11.4 12.7 14.4 14.9 16.1 17.6 17.1 16.8 15.9 14.4 14.1 14.1 14.1 14.2 13.6 12.9 12 12.1 13.4 12.5 11.7 11.4 11.7 11.6 11.6 11.4 11.1 11.1 11.3 11.6 11.9 12.1 12.5 14.4 23 26.4 26.1 26.7 27.1 27.5 29.4 30 29.7 29.5 32.7 36.1 38.1 41.9 46.8 51.2 55.2 59.4 63.3 67.3 72.2 76.6 81.8 85.2 89.8 95.7 101.3 109.8 116.7 124.3 128.3 132.1 133.7 134.6 134.7 133.9 134.7 133.7 133.9 134.6 136.4 134.4 76.5 29.5 -0.8 -0.8 -0.8 -0.8 -0.8 -0.8 -0.8 -0.8 -0.8 -0.8 -0.8 -0.8 -0.8 -0.8 -0.8 -0.8 -0.8 -0.8 -0.8 -0.8 -0.8 -0.8 -0.8 -0.8 -0.8 -0.8 -0.8 -0.8 -0.8 -0.8 -0.8 -0.8 -0.8 -0.8 -0.8 -0.8 -0.8 -0.8 -0.8 -0.8 -0.8 -0.8 -0.8 -0.8 -0.8 -0.8 -0.8 -0.8 -0.8 -0.8 -0.8 -0.8 -0.8 -0.8 -0.8 -0.8 -0.8 -0.8 -0.8 -0.8 -0.8 -0.8 -0.8 -0.8 -0.8 -0.8 -0.8 -0.8 -0.8 -0.8
35 35.7 36.3 27.8 7.8 2.8 2.8 2.8 14.7 29.3 38.4 43.7 42.6 39.3 34.8 28.7 23.1 17.4 13.3 4.9 2.8 2.8 5.2 8.4 8.2 9.2 11.1 13.8 14.2 12.5 4.9 2.8 3.1 7.4 9.8 12.6 15.8 17.5 20 21.1 21.2 21.1 17 10.6 10.2 10.2 12.2 13.3 12.7 12 11.1 11 12.2 13 14.2 14.8 15.4 16.4 16.5 15.7 14.7 13.7 13.6 13.6 13.6 13.5 12.9 12.2 11.5 11.7 12.2 13.1 12.2 11.6 11.9 11.6 10.6 10.3 10.1 10.4 10.7 10.9 11.7 12.7 13.5 16.8 20.8 23 23.7 24.2 24.2 25.7 25.7 25.9 26.3 29.1 33.3 34.8 36 40.9 46 49.6 53.9 58.9 63 67.4 72 77.1 81.7 85.8 89.8 94.7 100.2 107.8 115.7 123.3 128.7 132.7 135.8 138 137.9 139.3 139.9 140.7 141.9 143 143.6 122.8 79.5 26.6 -0.8 -0.8 -0.8 -0.8 -0.8 -0.8 -0.8 -0.8 -0.8 -0.8 -0.8 -0.8 -0.8 -0.8 -0.8 -0.8 -0.8 -0.8 -0.8 -0.8 -0.8 -0.8 -0.8 -0.8 -0.8 -0.8 -0.8 -0.8 -0.8 -0.8 -0.8 -0.8 -0.8 -0.8 -0.8 -0.8 -0.8 -0.8 -0.8 -0.8 -0.8 -0.8 -0.8 -0.8 -0.8 -0.8 -0.8 -0.8 -0.8 -0.8 -0.8 -0.8 -0.8 -0.8 -0.8 -0.8 -0.8 -0.8 -0.8 -0.8 -0.8 -0.8 -0.8 -0.8 -0.8 -0.8 -0.8 -0.8 -0.8 -0.8
24.7 9.2 24 13.8 2.8 2.8 2.8 7.2 22.2 35.6 45.2 47.3 45.6 42.6 37.6 31.5 25.2 19.3 15.2 10.5 3 2.8 2.8 2.8 4.4 6 8.1 9.2 8.6 2.8 2.8 2.7 7.4 9 12.3 15.8 18.1 20.5 23 24.8 22.6 15.6 12 11.4 11.8 10.8 11.4 11.3 11.6 12.1 11.7 11.1 11.7 12.2 12.5 14.1 14.4 14.8 15 14.7 13.6 13.1 13 12.9 12.8 12.7 12.3 11.5 11.6 11.7 12.2 12.6 12.2 12 11.9 11.4 10.4 9.4 9.5 9.7 10 10.2 11.5 13.3 14.9 16.1 17.7 19.6 20.8 22.6 24.4 24.4 23.6 24.4 26.3 29.1 31.7 32.9 35 39.3 44.6 48.3 52.2 57.6 62.7 67.2 70.5 76 80.5 84.7 88.5 93.2 99.1 106 113.6 121.5 128.6 134.2 138.2 140.6 142.4 144 144.4 145 146.8 148.9 149.5 127.2 81.4 35.9 -0.8 -0.8 -0.8 -0.8 -0.8 -0.8 -0.8 -0.8 -0.8 -0.8 -0.8 -0.8 -0.8 -0.8 -0.8 -0.8 -0.8 -0.8 -0.8 -0.8 -0.8 -0.8 -0.8 -0.8 -0.8 -0.8 -0.8 -0.8 -0.8 -0.8 -0.8 -0.8 -0.8 -0.8 -0.8 -0.8 -0.8 -0.8 -0.8 -0.8 -0.8 -0.8 -0.8 -0.8 -0.8 -0.8 -0.8 -0.8 -0.8 -0.8 -0.8 -0.8 -0.8 -0.8 -0.8 -0.8 -0.8 -0.8 -0.8 -0.8 -0.8 -0.8 -0.8 -0.8 -0.8 -0.8 -0.8 -0.8 -0.8 -0.8
33.9 21 4.2 2.8 2.8 2.8 2.8 12.2 29 41.4 48.9 50.2 48.6 44.6 39.3 33.4 27.2 21.3 17.3 13 7.4 2.8 2.8 2.8 2.8 2.8 2.8 2.8 2.8 2.8 5.5 8.8 10.5 12.5 14.9 17 19.7 23.4 24.9 21.9 14.6 12.4 12.5 13.7 14.4 15.2 14.9 13.5 12.4 12.6 12.1 11.3 11.5 11.6 11.9 12.7 12.6 12.9 13.1 12.9 12.5 12.5 12.3 12.2 12.1 12 11.7 11.9 11.7 11.8 12.1 12.6 12.3 12.2 12 11.2 10.2 9.4 8.8 9 9.1 8.9 9.7 11.6 12.6 13.5 15.1 16.6 19.3 21.6 23.1 22.9 23.9 24.6 26 27.6 28.9 31.3 33.8 37.7 42.4 47.5 52 56.7 61.4 65.3 69.6 73.1 78 82 86.8 91.9 98.2 104.9 112.5 121.1 127.7 134.6 140 143.1 145.7 146.9 148.7 150.3 152.1 153.7 152.2 148.6 97.4 53.8 -0.8 -0.8 -0.8 -0.8 -0.8 -0.8 -0.8 -0.8 -0.8 -0.8 -0.8 -0.8 -0.8 -0.8 -0.8 -0.8 -0.8 -0.8 -0.8 -0.8 -0.8 -0.8 -0.8 -0.8 -0.8 -0.8 -0.8 -0.8 -0.8 -0.8 -0.8 -0.8 -0.8 -0.8 -0.8 -0.8 -0.8 -0.8 -0.8 -0.8 -0.8 -0.8 -0.8 -0.8 -0.8 -0.8 -0.8 -0.8 -0.8 -0.8 -0.8 -0.8 -0.8 -0.8 -0.8 -0.8 -0.8 -0.8 -0.8 -0.8 -0.8 -0.8 -0.8 -0.8 -0.8 -0.8 -0.8 -0.8 -0.8 -0.8
34.8 24.7 6.1 2.8 2.8 2.8 2.8 13.6 33.1 44.9 49.6 51.5 50 45.6 40.4 35 28.8 22.2 17.9 14.6 8.9 4.1 2.8 2.8 2.8 2.8 2.8 2.8 6.2 8.7 10.3 11.7 13.4 15.6 16.5 18.3 21.9 24 22 15.4 14.2 15.3 15.1 16.7 17.2 16.3 16.2 14.9 13.7 13.3 12.8 11.5 10.9 11 11.3 11.4 11.4 11.6 11.8 11.7 11.7 11.8 11.8 11.7 11.5 11.4 11.7 12.4 12.1 11.9 12.1 13.2 13.6 13.9 14 13.5 11.8 10.6 9.5 8.2 7.8 7.6 7.8 9.7 10.9 11.9 13.2 14.5 16.9 19 19.1 18.9 23.6 23.6 24 25.4 26 28.6 32 36 39.9 46.1 51 54.8 59.7 63.5 67.7 71.3 74.8 79.4 84.5 90.1 96.5 102.7 112.8 120 127.9 135.8 140.9 144.6 147.3 149.5 150.4 153.5 155.8 157.2 133.9 117.4 80.7 49.6 -0.8 -0.8 -0.8 -0.8 -0.8 -0.8 -0.8 -0.8 -0.8 -0.8 -0.8 -0.8 -0.8 -0.8 -0.8 -0.8 -0.8 -0.8 -0.8 -0.8 -0.8 -0.8 -0.8 -0.8 -0.8 -0.8 -0.8 -0.8 -0.8 -0.8 -0.8 -0.8 -0.8 -0.8 -0.8 -0.8 -0.8 -0.8 -0.8 -0.8 -0.8 -0.8 -0.8 -0.8 -0.8 -0.8 -0.8 -0.8 -0.8 -0.8 -0.8 -0.8 -0.8 -0.8 -0.8 -0.8 -0.8 -0.8 -0.8 -0.8 -0.8 -0.8 -0.8 -0.8 -0.8 -0.8 -0.8 -0.8 -0.8 -0.8
31.3 18.5 2.8 2.8 2.8 2.8 2.8 18.7 35.9 46.7 49.9 52.5 50.5 47 41.1 35.2 29.4 22.1 18.6 16.1 11 5.6 2.8 2.8 2.8 2.8 2.8 4.3 8.1 11.1 13 15.1 17 19.1 19.2 23.6 24.3 22.9 17.2 17.2 19.3 19.5 18.1 17.9 18.9 17.5 16.8 15.1 13.5 13.8 13.3 12 11.9 11.2 10.5 10.6 10.6 10.7 11.3 10.9 11 11 11.1 11.1 11.1 10.9 12.4 13.1 12.7 12.4 13.4 16.4 16.2 15.7 15.2 14.1 12.7 10.6 8.8 9.5 8 6.4 6.6 7.3 9.1 11 12.4 13.8 15.4 15.6 16.4 17.3 20.1 21.5 22.1 21.8 23.1 26.4 29.6 34.6 38.3 42.7 49 54.2 57.8 61.7 65.9 69.5 73.3 78.2 82.4 86.7 94.6 100.6 111.8 118.7 126.5 134.3 141.1 145.1 148.2 150.6 152.5 155.8 158.4 155.7 97.7 52.2 21.5 -0.8 -0.8 -0.8 -0.8 -0.8 -0.8 -0.8 -0.8 -0.8 -0.8 -0.8 -0.8 -0.8 -0.8 -0.8 -0.8 -0.8 -0.8 -0.8 -0.8 -0.8 -0.8 -0.8 -0.8 -0.8 -0.8 -0.8 -0.8 -0.8 -0.8 -0.8 -0.8 -0.8 -0.8 -0.8 -0.8 -0.8 -0.8 -0.8 -0.8 -0.8 -0.8 -0.8 -0.8 -0.8 -0.8 -0.8 -0.8 -0.8 -0.8 -0.8 -0.8 -0.8 -0.8 -0.8 -0.8 -0.8 -0.8 -0.8 -0.8 -0.8 -0.8 -0.8 -0.8 -0.8 -0.8 -0.8 -0.8 -0.8 -0.8 -0.8
24 2.1 2.8 2.8 2.8 2.8 2.6 23 38.2 48 51.7 52.7 50.6 46.3 40.2 34 28.4 24.6 20.5 17.4 12.4 6.3 3.3 2.8 4.2 4.5 5.2 6 8.9 12.9 15.5 17.7 19.4 22.5 24.2 26.6 24.1 21.1 21.7 22.2 21.6 21 20.4 19.9 19.3 18.3 17.4 15.9 14.2 13.9 13.7 13 12.9 12.4 12.1 11.6 10.5 10.5 10.2 10.2 10.2 10.3 10.3 10.4 10.4 11.4 13.2 13.3 12.9 13.9 15.2 16.6 16.9 16.6 15.9 15.4 13.9 10.8 8.6 8.1 8.7 7.3 5.9 5.9 6.4 8.4 11 13 14.1 14.4 15.2 16 16 17.6 18.5 19 20.3 24.3 28 32.6 36.8 41.4 47.4 52 56 59.9 63.8 67.1 70.4 75.6 79.7 84.3 90.1 99.3 109.8 118.8 126.4 133.3 139.6 144.3 148.3 150.7 153.9 157 159.4 146.2 77.2 34.3 -0.8 -0.8 -0.8 -0.8 -0.8 -0.8 -0.8 -0.8 -0.8 -0.8 -0.8 -0.8 -0.8 -0.8 -0.8 -0.8 -0.8 -0.8 -0.8 -0.8 -0.8 -0.8 -0.8 -0.8 -0.8 -0.8 -0.8 -0.8 -0.8 -0.8 -0.8 -0.8 -0.8 -0.8 -0.8 -0.8 -0.8 -0.8 -0.8 -0.8 -0.8 -0.8 -0.8 -0.8 -0.8 -0.8 -0.8 -0.8 -0.8 -0.8 -0.8 -0.8 -0.8 -0.8 -0.8 -0.8 -0.8 -0.8 -0.8 -0.8 -0.8 -0.8 -0.8 -0.8 -0.8 -0.8 -0.8 -0.8 -0.8 -0.8 -0.8 -0.8
15.7 2.8 2.8 2.8 2.8 2.8 8.7 27.1 39.1 48.3 52.5 51.7 49.5 44.5 38.2 32.5 29.5 26 22.3 17.9 13.1 7.2 2.7 2.8 4.7 6.5 7.5 8.2 10.8 14.6 17.3 19.8 23.6 26.1 27.9 25.6 22.3 23.7 24.8 23.8 23.1 22.7 22.6 20.9 19.8 18.8 18 16.9 15.3 13.9 14 14.4 13.9 13 12.7 12.1 11.4 10.9 10.9 10.4 10 9.6 9.6 9.7 9.9 11.4 12.9 13.3 13.7 14 15.5 16.5 17 16.6 16 15.6 14.1 11.3 7.5 6.9 6.9 7.3 7.2 5.7 4.9 6 7.3 10.6 12.7 13.4 14.2 15.2 14.7 14.3 15.7 16 18.3 20.8 26 30 34.3 39.9 45 49.5 53.9 57.6 60.9 63.8 66.8 71.6 75.5 81.5 88.2 96.2 106.1 114.8 124.9 131.5 137.6 142.8 147.3 150.3 154 157.2 159.7 128.7 79.6 30 -0.8 -0.8 -0.8 -0.8 -0.8 -0.8 -0.8 -0.8 -0.8 -0.8 -0.8 -0.8 -0.8 -0.8 -0.8 -0.8 -0.8 -0.8 -0.8 -0.8 -0.8 -0.8 -0.8 -0.8 -0.8 -0.8 -0.8 -0.8 -0.8 -0.8 -0.8 -0.8 -0.8 -0.8 -0.8 -0.8 -0.8 -0.8 -0.8 -0.8 -0.8 -0.8 -0.8 -0.8 -0.8 -0.8 -0.8 -0.8 -0.8 -0.8 -0.8 -0.8 -0.8 -0.8 -0.8 -0.8 -0.8 -0.8 -0.8 -0.8 -0.8 -0.8 -0.8 -0.8 -0.8 -0.8 -0.8 -0.8 -0.8 -0.8 -0.8 -0.8
3.7 2.8 2.8 2.8 2.8 2.8 12.7 28.4 39.8 47.2 50.2 49.3 46.7 41.4 36 32.3 29.3 25.9 22 17.7 11.7 4.3 4.1 4.6 5.4 7.2 10.9 12.1 12.6 14.6 18.8 23.1 26.7 28.1 26 22.9 23.8 25.9 25.9 25.7 25.6 24.3 23.1 21.9 20.5 19.4 18.5 17.4 16.5 15.1 15.4 15.4 14.2 13.3 12.2 11.9 12.5 11.5 11.4 11 10 9.8 9.4 9.2 9.7 11.4 11.9 12.6 13.3 14.4 14.8 15.8 16.7 16.3 15.3 14.9 13.3 11.1 7.9 6.5 6 5.5 5 4.7 4.8 6.5 6.9 9.3 12.5 13.3 13.5 13.6 13.5 13.3 14.1 14.4 17.1 19.2 23.5 27 32.6 37.1 41.8 46.6 50.8 54.7 57.8 60.7 63.6 67.6 72.2 77.7 83.7 92.5 102.2 110.6 121.3 128.9 135.1 140.8 145.7 149.2 153.6 156.5 159.1 122.9 88.4 43.3 -0.8 -0.8 -0.8 -0.8 -0.8 -0.8 -0.8 -0.8 -0.8 -0.8 -0.8 -0.8 -0.8 -0.8 -0.8 -0.8 -0.8 -0.8 -0.8 -0.8 -0.8 -0.8 -0.8 -0.8 -0.8 -0.8 -0.8 -0.8 -0.8 -0.8 -0.8 -0.8 -0.8 -0.8 -0.8 -0.8 -0.8 -0.8 -0.8 -0.8 -0.8 -0.8 -0.8 -0.8 -0.8 -0.8 -0.8 -0.8 -0.8 -0.8 -0.8 -0.8 -0.8 -0.8 -0.8 -0.8 -0.8 -0.8 -0.8 -0.8 -0.8 -0.8 -0.8 -0.8 -0.8 -0.8 -0.8 -0.8 -0.8 -0.8 -0.8 -0.8
2.8 2.8 2.8 2.8 2.8 5.1 15.2 27.1 36.8 43.3 47 45.9 42 36.4 33.7 31.1 28.3 24.9 21.3 14.3 7.1 5.2 5.8 6.7 7.9 9.9 13.3 15.5 17.5 18.2 21.1 23.9 24.8 24.6 24 24.3 26.4 29.3 29.4 29.4 28.7 26.9 25.2 23.6 21.7 19.8 18.3 18.1 16.8 16 16 16.6 15.2 13.9 12.5 12.8 12.8 12.4 10.7 10.2 9.4 9 8.6 8.6 9.3 10.1 10.8 11.4 11.7 13.1 14.8 15.6 16.3 16.6 15.3 14 12.8 10.5 8.5 6.8 5.7 5 4.3 3.8 5 6.8 6.5 9.2 11.2 11.9 12.7 13.2 12.9 12.6 13.7 13.9 14.8 17.7 20.7 24.9 30.1 35.2 38.7 43.6 47.9 51.3 53.9 57.5 60.6 63.5 68.6 74.1 79.5 87.8 98.7 107 116.2 125 131.1 136.8 141.7 147.1 151.1 155.2 157.7 122.6 68.4 22 -0.8 -0.8 -0.8 -0.8 -0.8 -0.8 -0.8 -0.8 -0.8 -0.8 -0.8 -0.8 -0.8 -0.8 -0.8 -0.8 -0.8 -0.8 -0.8 -0.8 -0.8 -0.8 -0.8 -0.8 -0.8 -0.8 -0.8 -0.8 -0.8 -0.8 -0.8 -0.8 -0.8 -0.8 -0.8 -0.8 -0.8 -0.8 -0.8 -0.8 -0.8 -0.8 -0.8 -0.8 -0.8 -0.8 -0.8 -0.8 -0.8 -0.8 -0.8 -0.8 -0.8 -0.8 -0.8 -0.8 -0.8 -0.8 -0.8 -0.8 -0.8 -0.8 -0.8 -0.8 -0.8 -0.8 -0.8 -0.8 -0.8 -0.8 -0.8 -0.8
2.8 2.8 2.8 2.8 2.8 7.7 17.4 26.2 33.3 40.4 44.2 41.4 36.9 33.5 31.5 29.6 26.7 23.2 16.8 9.3 7.2 7.5 10 9.7 10.9 14.1 17.9 19.2 21.4 20.7 21.1 22.6 24.5 25.8 26.8 28.6 29.7 30.8 32 31.4 30.3 29.2 28 26.3 23.8 20.7 19 19.1 19 18.2 18 16.9 15.9 14.5 13.2 12.3 11.7 11.6 10.3 9.4 8.8 8.7 8.7 8.3 8.7 9.4 10 10.1 11.5 13.2 13.8 15.2 15.7 16 16.1 15.5 14.1 12 9.3 7 5 4.2 3.5 3.2 4.3 6 6.2 7.4 9.1 11.2 11.6 11.9 12.4 13.7 13.6 13.9 14.7 16.6 19.7 22.3 27.7 32.2 35.7 40.5 44.8 48.8 50.5 53.8 56.6 59 64.6 70.2 76.2 84.3 92 103.7 112.8 118.8 125.2 131.9 136.7 142.9 149.3 153 154.4 122.8 69.3 19.3 -0.8 -0.8 -0.8 -0.8 -0.8 -0.8 -0.8 -0.8 -0.8 -0.8 -0.8 -0.8 -0.8 -0.8 -0.8 -0.8 -0.8 -0.8 -0.8 -0.8 -0.8 -0.8 -0.8 -0.8 -0.8 -0.8 -0.8 -0.8 -0.8 -0.8 -0.8 -0.8 -0.8 -0.8 -0.8 -0.8 -0.8 -0.8 -0.8 -0.8 -0.8 -0.8 -0.8 -0.8 -0.8 -0.8 -0.8 -0.8 -0.8 -0.8 -0.8 -0.8 -0.8 -0.8 -0.8 -0.8 -0.8 -0.8 -0.8 -0.8 -0.8 -0.8 -0.8 -0.8 -0.8 -0.8 -0.8 -0.8 -0.8 -0.8 -0.8 -0.8
2.8 2.8 2.8 2.8 2.8 9.5 17.3 24.8 30.9 36.8 39.7 38 33 30.5 28.5 26.5 23.4 19.6 10.8 8.6 8.8 12.4 15.2 15.1 14.8 18.1 20.4 22.5 22.7 23 23.8 25.1 26.6 27.4 28.7 30.3 31.6 31.9 33.2 33.5 33.2 31.6 29.9 27.8 25.5 22.1 21.1 21.4 20.3 19 17.4 17 16.5 15.1 14.1 13.2 12.2 11.3 10.4 9.3 8.7 8.4 8.4 8.4 7.3 7.9 8.7 9.2 10.4 11.8 13 13.7 15.3 15.9 16.1 15.3 12.7 11.4 8.9 7.3 5.1 3.3 3 3 3.6 5.2 6.6 7.4 8.1 9.7 10.4 11.2 12.7 14.3 15.7 15.2 15.1 16.3 19.5 22 26.1 30.8 34 37.3 41.6 45.9 47.9 50.5 53.5 55.9 60 65.8 70.8 78.4 88.8 94.8 104.4 113.3 119.2 125.2 132.8 138.7 144.2 150.7 151.5 124.9 79.4 33.4 -0.8 -0.8 -0.8 -0.8 -0.8 -0.8 -0.8 -0.8 -0.8 -0.8 -0.8 -0.8 -0.8 -0.8 -0.8 -0.8 -0.8 -0.8 -0.8 -0.8 -0.8 -0.8 -0.8 -0.8 -0.8 -0.8 -0.8 -0.8 -0.8 -0.8 -0.8 -0.8 -0.8 -0.8 -0.8 -0.8 -0.8 -0.8 -0.8 -0.8 -0.8 -0.8 -0.8 -0.8 -0.8 -0.8 -0.8 -0.8 -0.8 -0.8 -0.8 -0.8 -0.8 -0.8 -0.8 -0.8 -0.8 -0.8 -0.8 -0.8 -0.8 -0.8 -0.8 -0.8 -0.8 -0.8 -0.8 -0.8 -0.8 -0.8 -0.8 -0.8
2.8 2.8 2.8 2.8 2.8 6.4 13.3 19.9 27.6 31.9 34.8 33.1 30.8 28.5 25.9 23.3 20.8 11.4 10 11.3 14.8 18.3 18.9 19 18.8 20.3 21.8 24.3 25.3 27.4 32.2 32.2 28.5 29.1 30.2 31.8 33.5 34.5 34.8 35.1 35 32.8 31.2 30 27.8 24.1 23.3 22 20.7 19.3 18.2 17.5 17 16 15 14 13.8 12.1 11 10.2 9.5 9 7.9 8.2 7.4 7.1 7.3 7.9 8.8 10.3 11.5 12.9 14.1 13.7 14.6 14.9 12.2 10.8 8.8 6.1 4 1.1 -0.8 -0.8 3.2 5.5 7.2 7.4 7.8 8.7 9.6 11.2 12.3 13.9 15.9 16.1 16.6 17.1 18.2 20.9 24.2 29.5 32.7 35.1 39.3 43.3 44.8 46.1 49.2 51.7 55.9 61.2 65.8 71.1 81.2 91 97 106.1 113.5 119.5 124.7 133.3 138.9 146.2 148.8 140.7 88.8 51.4 -0.8 -0.8 -0.8 -0.8 -0.8 -0.8 -0.8 -0.8 -0.8 -0.8 -0.8 -0.8 -0.8 -0.8 -0.8 -0.8 -0.8 -0.8 -0.8 -0.8 -0.8 -0.8 -0.8 -0.8 -0.8 -0.8 -0.8 -0.8 -0.8 -0.8 -0.8 -0.8 -0.8 -0.8 -0.8 -0.8 -0.8 -0.8 -0.8 -0.8 -0.8 -0.8 -0.8 -0.8 -0.8 -0.8 -0.8 -0.8 -0.8 -0.8 -0.8 -0.8 -0.8 -0.8 -0.8 -0.8 -0.8 -0.8 -0.8 -0.8 -0.8 -0.8 -0.8 -0.8 -0.8 -0.8 -0.8 -0.8 -0.8 -0.8 -0.8 -0.8
2.8 2.8 2.8 2.8 5.4 8.9 13.5 17.8 22.8 27.1 29.1 28.7 28.1 26.2 23.5 20.8 19.4 16.6 15 19.2 21.3 21.8 22.6 22.8 21.9 22.4 24.2 32 29.4 31.5 32.2 29.2 30.1 31.2 32.2 33.3 35 36.9 37.2 37.4 36.7 34.4 32.7 31.7 28.9 26.6 23.8 21.5 21 20.2 20.2 19.7 18.2 17.1 16.1 15.8 15.1 13 11.6 10.9 9.8 8.8 7.7 7.7 7 6 5.9 6 7.2 8.7 10.2 11.6 11.7 12.2 12.6 10.6 9.4 9.1 6.6 4 -0.8 -0.8 -0.8 -0.8 3.4 5 7 7.6 7.5 7.7 9.3 11 12.5 13.5 15.3 16.3 16.5 16.9 17.9 20.1 22.2 26.6 29.7 33.5 37.4 40.2 41.2 42.9 45.2 48 51.4 56.2 61.2 66.9 72.6 83.6 90.2 97.6 105.7 112 119.3 126.4 132.2 141 145 146.7 115.4 69.2 25.9 -0.8 -0.8 -0.8 -0.8 -0.8 -0.8 -0.8 -0.8 -0.8 -0.8 -0.8 -0.8 -0.8 -0.8 -0.8 -0.8 -0.8 -0.8 -0.8 -0.8 -0.8 -0.8 -0.8 -0.8 -0.8 -0.8 -0.8 -0.8 -0.8 -0.8 -0.8 -0.8 -0.8 -0.8 -0.8 -0.8 -0.8 -0.8 -0.8 -0.8 -0.8 -0.8 -0.8 -0.8 -0.8 -0.8 -0.8 -0.8 -0.8 -0.8 -0.8 -0.8 -0.8 -0.8 -0.8 -0.8 -0.8 -0.8 -0.8 -0.8 -0.8 -0.8 -0.8 -0.8 -0.8 -0.8 -0.8 -0.8 -0.8 -0.8 -0.8
2.8 2.8 2.8 6.5 10.5 15.6 20.8 26.6 27.9 26.7 27.3 27 26.3 23.2 20.9 23.2 23 22.4 23.2 24.3 25.1 24.8 25.8 25.8 26.4 26.9 32 32 32 29.7 30.9 32.2 33.4 34.3 35 35.2 36.9 39 39.3 39.5 38.7 36.7 34.8 33.2 30.1 27.3 25.1 23 22.2 22.1 21.3 20.8 19.4 18.1 17.3 17.1 16.1 14 12.6 11.9 9.9 9.1 8.2 7.1 6.5 5.8 4.9 4.2 5.7 7.5 8.4 10.4 10.6 10.1 9.6 7.9 7.2 6.4 1.9 -0.8 -0.8 -0.8 -0.8 -0.8 1.6 4.6 6.3 7.2 6.7 6.7 8.1 9.8 11.3 12.8 14.1 14.6 15.7 17.2 17.4 18.7 20.5 24.9 28.1 31.6 34.4 37.1 37.9 38.9 41.3 43.3 47.1 51.5 57.6 62.5 69.1 76.1 84.6 90.7 98.3 104.4 112.5 119.4 127.5 133.9 140.8 143.6 138.4 92 69.5 -0.8 -0.8 -0.8 -0.8 -0.8 -0.8 -0.8 -0.8 -0.8 -0.8 -0.8 -0.8 -0.8 -0.8 -0.8 -0.8 -0.8 -0.8 -0.8 -0.8 -0.8 -0.8 -0.8 -0.8 -0.8 -0.8 -0.8 -0.8 -0.8 -0.8 -0.8 -0.8 -0.8 -0.8 -0.8 -0.8 -0.8 -0.8 -0.8 -0.8 -0.8 -0.8 -0.8 -0.8 -0.8 -0.8 -0.8 -0.8 -0.8 -0.8 -0.8 -0.8 -0.8 -0.8 -0.8 -0.8 -0.8 -0.8 -0.8 -0.8 -0.8 -0.8 -0.8 -0.8 -0.8 -0.8 -0.8 -0.8 -0.8 -0.8 -0.8
2.8 2.8 3.3 9.3 14 20.5 26.2 30.6 31.6 30.4 29.3 28.5 24.7 20.9 21 21.9 23.3 25.3 26 27.3 28.1 27.8 28.5 28.7 28.7 29.2 30.7 30.6 32 30.8 33.6 35.1 36.2 37.3 38.4 38.5 40.5 42 42.5 42.4 41.6 39.4 37.8 35.4 32.2 28.3 25.3 24.2 23.2 22.5 22.6 21.2 20.2 19.1 18.6 18 16.8 15.2 12.8 12.2 10.1 9.5 8.8 6.9 6.3 5.4 4.4 3.5 3.2 5.7 7.7 8.8 9.9 9.2 7.4 4.8 -0.8 -0.8 -0.8 -0.8 -0.8 -0.8 -0.8 -0.8 -0.8 3.4 5.3 7.2 6.6 5.7 7.7 9.7 11 11.7 12.4 14.3 15.5 16.5 17.2 18 19.6 20.4 26.1 27.8 31 33.7 33.6 34.8 36.1 38.4 43.2 47.8 52.7 57.5 63.4 70.2 78.2 85.6 93 100.1 106.6 113.5 119.4 127 135 139 139.9 139.4 127.9 72.8 -0.8 -0.8 -0.8 -0.8 -0.8 -0.8 -0.8 -0.8 -0.8 -0.8 -0.8 -0.8 -0.8 -0.8 -0.8 -0.8 -0.8 -0.8 -0.8 -0.8 -0.8 -0.8 -0.8 -0.8 -0.8 -0.8 -0.8 -0.8 -0.8 -0.8 -0.8 -0.8 -0.8 -0.8 -0.8 -0.8 -0.8 -0.8 -0.8 -0.8 -0.8 -0.8 -0.8 -0.8 -0.8 -0.8 -0.8 -0.8 -0.8 -0.8 -0.8 -0.8 -0.8 -0.8 -0.8 -0.8 -0.8 -0.8 -0.8 -0.8 -0.8 -0.8 -0.8 -0.8 -0.8 -0.8 -0.8 -0.8 -0.8 -0.8
2.8 2.8 3.9 12.3 18.8 24.3 31 36.1 34.9 32.4 30.3 28.9 22.9 21.3 21.3 24.2 27.2 28.4 28.6 29.8 29.5 29.7 30.6 30.7 30.9 31.9 33 33.1 34 34.9 36.2 37.7 39.1 40.8 41.7 42.8 44.8 46.3 46.4 45.7 44.1 42.5 40.9 37.2 33.2 29 26.5 25.3 24.3 23.5 22.8 21.4 21.3 20.7 19.6 19.5 16.7 14.4 13.3 12.3 10.7 9.5 8.3 6.7 5.4 4.9 3.9 3.2 2.7 3.5 5.6 7.5 7.2 6.7 5.3 -0.8 -0.8 -0.8 -0.8 -0.8 -0.8 -0.8 -0.8 -0.8 -0.8 -0.8 4.3 6.3 6 4.5 6.5 9.4 10.6 10.5 11 13.7 14.9 15.7 16.4 16.8 17.1 2.1 17.3 23.2 27.1 29.2 29.5 30.6 33 34.6 36.2 43 49.2 53.4 58.9 66.2 72.9 79 86.6 96.1 103.4 108.3 114.9 121.5 128.3 133.4 135.4 135.7 132.8 74.8 28.7 -0.8 -0.8 -0.8 -0.8 -0.8 -0.8 -0.8 -0.8 -0.8 -0.8 -0.8 -0.8 -0.8 -0.8 -0.8 -0.8 -0.8 -0.8 -0.8 -0.8 -0.8 -0.8 -0.8 -0.8 -0.8 -0.8 -0.8 -0.8 -0.8 -0.8 -0.8 -0.8 -0.8 -0.8 -0.8 -0.8 -0.8 -0.8 -0.8 -0.8 -0.8 -0.8 -0.8 -0.8 -0.8 -0.8 -0.8 -0.8 -0.8 -0.8 -0.8 -0.8 -0.8 -0.8 -0.8 -0.8 -0.8 -0.8 -0.8 -0.8 -0.8 -0.8 -0.8 -0.8 -0.8 -0.8 -0.8 -0.8 -0.8
2.8 2.8 3 13.2 21.4 29.1 35.3 39.4 36.5 33.1 30.9 28.6 24.2 22.4 25.5 29.1 28.8 30 31.1 31.6 31.9 32.2 32.3 32.4 32.7 33.8 35 35.8 36.9 38.1 39.6 41.5 43.1 44.6 46.2 47.5 49.2 50.2 50.4 48.7 47 45.6 42.4 38.4 35.5 32 28 26.5 25.2 24 23 22.5 22.3 21.3 20.2 19.5 17.5 15 14.4 14.1 12.6 9.5 8 6.7 5.4 4.4 3.9 3 2.5 2.5 3.8 5.3 4.9 4.2 -0.8 -0.8 -0.8 -0.8 -0.8 -0.8 -0.8 -0.8 -0.8 -0.8 -0.8 -0.8 -0.8 4.2 -0.8 1.9 4.9 8.4 9 9.3 9.3 11.7 13.5 14 15.2 16 15.1 8.1 13.6 15.4 22.1 25.1 24.5 25.8 27.7 29 31.2 37.5 44.3 48.6 53.9 61 67.2 74.6 80.7 89.2 97 103.3 110 116.7 121.8 127.5 130.5 130.9 129.5 79.6 34.7 -0.8 -0.8 -0.8 -0.8 -0.8 -0.8 -0.8 -0.8 -0.8 -0.8 -0.8 -0.8 -0.8 -0.8 -0.8 -0.8 -0.8 -0.8 -0.8 -0.8 -0.8 -0.8 -0.8 -0.8 -0.8 -0.8 -0.8 -0.8 -0.8 -0.8 -0.8 -0.8 -0.8 -0.8 -0.8 -0.8 -0.8 -0.8 -0.8 -0.8 -0.8 -0.8 -0.8 -0.8 -0.8 -0.8 -0.8 -0.8 -0.8 -0.8 -0.8 -0.8 -0.8 -0.8 -0.8 -0.8 -0.8 -0.8 -0.8 -0.8 -0.8 -0.8 -0.8 -0.8 -0.8 -0.8 -0.8 -0.8 -0.8
2.8 2.8 5.1 15.2 24.3 31.9 37.3 41.1 35.5 31.4 30.3 31.4 29.5 29.6 31.4 33.9 33.2 30.8 32.1 32.8 33.5 33.4 33.5 33.9 34.6 35.6 37.4 39.1 40.3 41.3 43.4 44.9 46.3 49 51.2 53 53.7 54.3 55 52.5 50.4 48.3 44.3 41 37.4 33.8 30.4 28 26.7 24.5 24.1 23.6 23.3 21.8 21.2 19.4 17.2 15.7 15 14.6 12.8 9.3 8 6.7 5.4 4.2 3.4 2.7 2.6 2.3 -0.8 -0.8 -0.8 -0.8 -0.8 -0.8 -0.8 -0.8 -0.8 -0.8 -0.8 -0.8 -0.8 -0.8 -0.8 -0.8 -0.8 -0.6 -0.8 -0.8 -0.8 7 7.4 6.6 7.3 9.7 11.8 12.6 13.4 14.5 15.3 13.2 7 -0.8 -0.8 18.4 19 20.1 22.3 23.8 29.1 32.9 39.1 44.3 50.5 56.6 62.3 69.1 75.4 82.2 89.9 98.4 105 110.6 116.4 120.9 123.9 125.2 124.1 59.7 35.9 -0.8 -0.8 -0.8 -0.8 -0.8 -0.8 -0.8 -0.8 -0.8 -0.8 -0.8 -0.8 -0.8 -0.8 -0.8 -0.8 -0.8 -0.8 -0.8 -0.8 -0.8 -0.8 -0.8 -0.8 -0.8 -0.8 -0.8 -0.8 -0.8 -0.8 -0.8 -0.8 -0.8 -0.8 -0.8 -0.8 -0.8 -0.8 -0.8 -0.8 -0.8 -0.8 -0.8 -0.8 -0.8 -0.8 -0.8 -0.8 -0.8 -0.8 -0.8 -0.8 -0.8 -0.8 -0.8 -0.8 -0.8 -0.8 -0.8 -0.8 -0.8 -0.8 -0.8 -0.8 -0.8 -0.8 -0.8 -0.8 -0.8
2.8 2.8 5.5 15.9 25.8 35.1 38.8 41.5 36.3 33.7 34.4 33.5 31.8 34.5 37.5 37.5 36.4 35.2 34.6 34.7 35.5 34.8 35.1 35.6 36.4 37.2 39.8 41.7 43.4 45.3 47.6 50.2 51.6 52.7 56.1 57.5 58.1 58.7 59.1 56.2 52.8 49.9 46.9 43.2 38.8 35.3 31.6 28.5 26.8 25.8 25.1 24.6 24 22.2 21.6 19.6 17.8 16.2 16.2 13.7 12 9.1 8 7 5.8 4.6 3.6 2.8 2 3.7 -0.8 -0.8 -0.8 -0.8 -0.8 -0.8 -0.8 -0.8 -0.8 -0.8 -0.8 -0.8 -0.8 -0.8 -0.8 -0.8 -0.8 -0.8 -0.8 -0.8 -0.8 3.4 4 4.6 6.5 7.6 8.9 9.6 10.9 12.2 14.3 12.6 -0.8 -0.8 -0.8 -0.8 -0.8 15.2 16.5 19.2 24.5 29.2 33.9 40.9 45.6 50.9 57.5 63.6 70.1 77.1 83.6 91.3 97.3 102.7 109.4 114.1 117.6 115.3 57 -0.8 -0.8 -0.8 -0.8 -0.8 -0.8 -0.8 -0.8 -0.8 -0.8 -0.8 -0.8 -0.8 -0.8 -0.8 -0.8 -0.8 -0.8 -0.8 -0.8 -0.8 -0.8 -0.8 -0.8 -0.8 -0.8 -0.8 -0.8 -0.8 -0.8 -0.8 -0.8 -0.8 -0.8 -0.8 -0.8 -0.8 -0.8 -0.8 -0.8 -0.8 -0.8 -0.8 -0.8 -0.8 -0.8 -0.8 -0.8 -0.8 -0.8 -0.8 -0.8 -0.8 -0.8 -0.8 -0.8 -0.8 -0.8 -0.8 -0.8 -0.8 -0.8 -0.8 -0.8 -0.8 -0.8 -0.8 -0.8 -0.8 -0.8 -0.8
2.8 2.8 7 15.9 25.2 34.9 38.8 40.6 37.1 35.2 36.1 35.5 38.7 39.9 41.7 41.3 40.2 37.4 35.7 35.5 37.6 36.8 37 37.9 38.9 40 42.8 45.5 47.2 48.9 51.7 55.1 57.3 59.6 62.1 62.2 62.5 63.1 63 60.7 56.1 52.8 49.6 44 39.8 35.7 32.3 29.8 27.7 26.8 26.2 25.6 24.1 22.7 21.9 20.2 18.7 18.6 16.4 13.3 11.4 9.8 8.5 7.4 6.2 5 3.9 3.4 2.1 2.5 -0.8 -0.8 -0.8 -0.8 -0.8 -0.8 -0.8 -0.8 -0.8 -0.8 -0.8 -0.8 -0.8 -0.8 -0.8 -0.8 -0.8 -0.8 -0.8 -0.8 -0.8 -0.8 -0.8 -0.8 4.3 5.5 6.9 6.9 8.2 10.7 11.7 10.7 -0.8 -0.8 -0.8 -0.8 -0.8 10.9 11.6 15.4 21.1 25.6 30.3 36.3 40.4 46.3 51.7 58.2 63.8 71.1 76.8 83.7 88.5 96.8 100.1 105.9 110.2 102.1 49.9 -0.8 -0.8 -0.8 -0.8 -0.8 -0.8 -0.8 -0.8 -0.8 -0.8 -0.8 -0.8 -0.8 -0.8 -0.8 -0.8 -0.8 -0.8 -0.8 -0.8 -0.8 -0.8 -0.8 -0.8 -0.8 -0.8 -0.8 -0.8 -0.8 -0.8 -0.8 -0.8 -0.8 -0.8 -0.8 -0.8 -0.8 -0.8 -0.8 -0.8 -0.8 -0.8 -0.8 -0.8 -0.8 -0.8 -0.8 -0.8 -0.8 -0.8 -0.8 -0.8 -0.8 -0.8 -0.8 -0.8 -0.8 -0.8 -0.8 -0.8 -0.8 -0.8 -0.8 -0.8 -0.8 -0.8 -0.8 -0.8 -0.8 -0.8 -0.8
2.8 2.8 7.4 15.7 25 35 39.3 40.4 37.8 36.6 38.2 41.7 43.3 44.8 44.8 45.1 43.7 39.3 37.6 38.6 40.4 40.1 39.9 40.9 42 43.1 46.2 49 51.1 52.7 56.6 60.6 62.3 65.3 67.3 67.3 67.1 67.5 67 64.3 59.6 54.7 49.9 45.4 40.3 36.1 32 29.9 28.3 27.2 26.9 26.4 24.8 23.5 22 20.2 20 19.4 17 13.7 11.9 10.8 9.6 7.9 6.6 5.4 4.7 3.8 2.5 2.8 -0.8 -0.8 -0.8 -0.8 -0.8 -0.8 -0.8 -0.8 -0.8 -0.8 -0.8 -0.8 -0.8 -0.8 -0.8 -0.8 -0.8 -0.8 -0.8 -0.8 -0.8 -0.8 -0.8 -0.8 -0.8 3.7 3.7 5.1 6.9 9.5 9.2 6.8 1.3 -0.8 -0.8 -0.8 -0.8 -0.8 1.3 10.8 16.2 20.5 25.6 30.4 34.6 41.2 46.1 53.3 58.5 63.7 68.7 73.9 80.5 86.3 90.6 96.2 100.8 104.1 76.3 11.5 -0.8 -0.8 -0.8 -0.8 -0.8 -0.8 -0.8 -0.8 -0.8 -0.8 -0.8 -0.8 -0.8 -0.8 -0.8 -0.8 -0.8 -0.8 -0.8 -0.8 -0.8 -0.8 -0.8 -0.8 -0.8 -0.8 -0.8 -0.8 -0.8 -0.8 -0.8 -0.8 -0.8 -0.8 -0.8 -0.8 -0.8 -0.8 -0.8 -0.8 -0.8 -0.8 -0.8 -0.8 -0.8 -0.8 -0.8 -0.8 -0.8 -0.8 -0.8 -0.8 -0.8 -0.8 -0.8 -0.8 -0.8 -0.8 -0.8 -0.8 -0.8 -0.8 -0.8 -0.8 -0.8 -0.8 -0.8 -0.8 -0.8 -0.8
2.8 2.8 8.6 16 24.6 33.8 38.6 38.6 38.5 37 38.3 44.3 46.8 48.1 48.9 50.1 48.4 44.8 42.8 41.6 42.6 42.8 43.6 44.4 44.9 46.6 50 52.1 54.8 57.1 60.4 63.6 67.5 70.5 72.1 73.5 73.9 72 70 67 62.5 57 51.3 45.8 40.6 36 34.1 31.9 29.9 29.2 27.8 25.9 24.6 24.6 23.4 21.5 20.9 19.6 16.8 14.3 13.1 11.7 10.3 9.5 8.2 7 6.2 5 4.1 3 4.3 2.6 2.5 -0.8 -0.8 -0.8 -0.8 -0.8 -0.8 -0.8 -0.8 -0.8 -0.8 -0.8 -0.8 -0.8 -0.8 -0.8 -0.8 -0.8 -0.8 -0.8 -0.8 -0.8 -0.8 -0.8 2.1 4 5 6.6 4.3 1.4 -0.8 -0.8 -0.8 -0.8 -0.8 -0.8 -0.8 2.7 10.9 14.7 19.7 24.6 31.9 36.6 41.2 46.4 51.7 57 61.8 65.6 71.2 76.3 80.6 87.4 90 94.2 95.1 43.9 -0.8 -0.8 -0.8 -0.8 -0.8 -0.8 -0.8 -0.8 -0.8 -0.8 -0.8 -0.8 -0.8 -0.8 -0.8 -0.8 -0.8 -0.8 -0.8 -0.8 -0.8 -0.8 -0.8 -0.8 -0.8 -0.8 -0.8 -0.8 -0.8 -0.8 -0.8 -0.8 -0.8 -0.8 -0.8 -0.8 -0.8 -0.8 -0.8 -0.8 -0.8 -0.8 -0.8 -0.8 -0.8 -0.8 -0.8 -0.8 -0.8 -0.8 -0.8 -0.8 -0.8 -0.8 -0.8 -0.8 -0.8 -0.8 -0.8 -0.8 -0.8 -0.8 -0.8 -0.8 -0.8 -0.8 -0.8 -0.8 -0.8 -0.8
