ncols 200
nrows 82
xllcorner 290000
yllcorner 703850
cellsize 50
166 167.4 169.7 170.5 171.5 168.4 170.4 172.9 174.2 175.5 176.9 177.7 177.7 177.5 176.1 170.5 172.3 168.5 174.5 175.9 176.1 177.7 178.7 178.9 179.8 182.1 183.9 184.8 187.1 188.8 190.6 193 193.9 194.8 195.7 195.6 192.7 198.6 204.8 211.4 214.9 218.3 221 225.2 229.4 229.5 228.9 227.5 229 230.9 232.5 233.1 237 239.9 244.4 249 252.9 255.7 258.1 257.4 252 239 221 205.5 189.1 171.5 158.8 152.6 151.3 150.5 151.6 155.2 157.6 177.6 200 226.4 254.5 281.5 312.8 336 357.4 368.9 382.4 402.3 418.3 432.7 437.6 442.3 447.6 452.3 459.2 465.2 469.2 471.1 472.1 469.7 466.7 466.1 465.4 462.8 458.2 454.2 450.5 448.9 445.2 448.1 452.6 458.4 459.6 460.2 460 458.1 455.8 454.8 454.5 453.1 451.9 452.6 455 457.2 460 464 467.6 469.6 469.1 467 464.2 461.4 459.5 458.6 461.4 465 468.4 471.1 471.9 474 477.1 479.8 481.7 482.1 481 479.7 478.4 476.9 471.5 463.5 453.1 441.9 427.1 416.4 405.5 390.2 397 401.4 406.7 410.5 412.4 409.4 406.2 397.2 387.8 381.8 377.1 374.3 371 368.8 366 362.2 358.6 355 349.2 349 353.6 356.6 360.3 364.6 366.9 366.1 365.8 366.4 369.2 361 359.1 361.3 361.7 361.5 360.9 360.6 361.2 362.6 365 368.8 371.9 373.4 378.8 385.5 394.6 403.5 412.4 421
169.2 170.6 172.5 173.1 173.9 171.1 172.6 175.5 176.8 178.1 179.6 181.2 181 180.9 178.3 172.4 175.3 171.8 177.1 181.2 182.8 183.5 183.7 184.5 184.4 187.6 190.2 191.5 193.8 195.2 196.9 198.6 199.5 200.5 201.4 202.3 199.5 201.9 207.5 215.5 221.3 225.1 230.3 232.3 234.9 236.1 235.7 235.8 238.1 239.7 240.8 242.7 247.4 250.1 252.7 257.4 260.6 264.8 267.5 264.4 259.1 246 229.1 213.6 198.5 179.7 162.8 153.4 151 151.8 152.2 154.5 154.5 168.7 189.1 212.6 242.1 267.9 298.8 324.7 347.6 366.8 379.5 397.1 417 425.9 432.4 437.3 445.1 450.2 454.7 460.7 465.1 467.2 468.3 467.6 467.8 467.3 465.3 461.2 457 453.4 451 447.4 442.8 443.9 449.6 455.1 456.4 456 456.6 455.8 453 449.7 449 448.5 448.4 449.1 451.1 453.8 457.2 461.6 466.4 469.5 468.8 466.3 463.3 460.1 458 457.6 461.4 465.4 468.6 471.2 472.7 474.8 476.9 479.4 481.7 482.9 481.6 480 478.6 476.9 472.8 464.5 455.6 445.5 434.9 423.6 412.4 404 409.3 414.4 417.9 420.2 421.6 418.8 413.1 404.8 395.6 387.9 384.7 379.2 375.2 372.6 369.5 366.1 362.4 358.4 350.8 353.7 359 361.9 366.7 370.4 373 373.8 373.4 373.9 378.6 377.3 377.8 374.3 371.7 370 368.5 368.4 368.8 368.8 370.6 372.6 375.8 378.6 380.9 381.2 385.3 390.8 397.3 401.4
172.5 173.9 175.3 175.8 176.1 171.8 175.7 177.8 179.4 180.8 182.5 184.3 184 183.8 177.2 180.1 178.7 175.3 182.7 186.1 187.4 187.7 188.5 190.4 190.8 193.5 195.9 196.9 199.4 201.1 202.7 204.2 205.1 206.1 207 208 204.4 211.4 211 220 227.8 233 237.2 240.9 244.1 245.3 245.3 246.4 248.7 250.6 252 253.9 257.8 260 261 265.5 268.9 272.4 273.8 272.3 270.9 260.9 240.1 222.7 206 187.9 170.9 156.8 152.5 152.6 153.5 154.9 156.9 160.3 181 200.5 223.9 253.6 280.3 307.3 336.4 354 370.7 391.9 407 414.6 423.9 432.2 436.7 442.8 449.5 454.9 459.7 462.4 464.8 466.5 467.1 465.6 461.5 458.7 454.9 452.9 450.5 447.6 441.8 441.1 445.7 449.7 450.1 450.4 450.4 449.8 448.3 445.1 442.8 442.1 442.6 444.7 448.4 451.6 454.6 458.4 463.4 466.9 467.1 464.3 460 457.5 455.2 457.4 461.5 465.6 468.6 471.2 473.4 476 477.4 481 483 482.9 481.9 480.1 478.4 476.8 472.8 464.9 457.1 449 440.1 429.7 415.7 418.8 422.2 425.3 427.8 429.1 428.9 426 422.2 416.9 402.5 393.4 390.3 385.9 382.4 377.9 372.3 368.5 364.8 360.9 351.1 359.7 364.7 367 371.3 375.8 378 380.1 380.3 381.2 386 391.8 391.3 388.2 384.1 380.1 377.6 376.6 376.5 376.8 376.7 378.9 381.6 383.6 385.3 387.1 387.8 392.2 398.3 403.9
176.2 177.4 177.9 178.1 178.3 176.5 179.2 180.5 182 183.7 185.6 187.5 187 186.4 183.5 183.1 182 177.2 185.7 190.9 191.3 191.7 193.4 195.6 196.4 199.1 201.1 202.3 203.6 204.7 206.3 209.4 210.6 211.5 213.2 215.9 213.1 219.2 222.6 219.5 232 238.8 243.5 249.3 253.7 254.8 255.8 256.9 258 259.5 262.3 264.7 266.1 268.9 271 272.9 275.7 279.1 279.6 278 274.3 266.1 250.7 233.8 214.5 196.4 179.2 164.1 155 153.9 153.6 155.2 159.2 158.5 172.9 191.7 209.8 236.6 263.4 289.2 316.3 337.7 355.2 379.9 393.9 403.6 415.5 424.8 431.9 440.2 447.8 453.1 458.4 461.4 462.5 464.2 465 462.1 458.9 456.2 453.7 451.4 449.7 447 441 435.7 439.2 442.3 443.6 443.8 443.7 443.5 442 439.6 436.7 435.1 435.5 440.2 444.7 448.4 451.9 455.4 460 461.4 462.3 459 455.7 453 452.2 457 461.3 465 467.9 470.7 473.8 476.1 477.6 482 483.5 481.1 479 479 477.4 475.3 471 465.5 457.6 451.6 443.5 435.5 427.1 429.6 431.8 434.7 436.6 437.1 436.8 433.5 430.1 424.3 415.1 400.8 395.6 390.6 387 381.1 374.7 370.4 366.6 362.2 357.5 365.5 369.1 373.8 377.6 379.4 382.4 385.2 388 388.7 396 400.5 403.8 402.6 398.2 392.3 387.6 385.5 384.8 384.9 384.9 386.1 387.2 391.3 394.6 401.7 405.6 408.5 413.6 421.1
180 180.4 180.5 180.4 179.7 180.7 182.2 183.5 185.3 187.2 189.1 190.1 190.8 188.8 187.9 187.3 186 184.6 188 193.7 195.3 196 198.4 200.8 201.8 204.2 206.2 207.4 208 208.4 211.3 213.9 216 219.1 221.6 223.4 220 226.4 229.9 231.3 229 242.8 250.7 257.1 262.2 265.2 265.9 266.4 268.1 270 271.7 272.9 273.3 275.1 277.5 279.6 283.7 286.7 285.7 284.1 278.9 269.8 256.9 244.3 224.1 206.3 187.9 171.8 158.8 155.5 155.3 155.4 161 160.8 164.7 180.3 198.6 218.3 244.8 270.3 296.8 317.6 336.4 354 366.9 389 404.5 414.1 425.1 434.1 442.9 452 457.9 461.6 462.4 461.3 462 459.6 456.9 454.4 452 450.3 448.3 443.3 438.5 433.8 429.1 434.9 436 436.3 436.1 435.5 433.9 431.7 429.7 429.1 429.7 437 440.7 444.9 448.4 453 455.7 456.8 455.6 452.5 450.2 447.9 449.7 455 459.9 463.7 466.8 469.7 471.7 474.4 477.9 481.2 481.9 479.3 477 476.5 475.4 473.9 470.6 465.5 459.1 453.1 447 441.6 437.3 438.5 441.4 442.8 444.1 443.4 442.8 440.3 436.2 429.4 421.1 410.8 399.2 393.5 389.2 383.6 377.5 372.1 367.7 361.2 361.9 370.1 375.2 380 384.1 385.5 387.7 390.9 393.9 397.4 402.8 409.9 415.7 417.2 412.9 405.8 399 394.8 394.5 393.7 393.6 393.8 395.5 403 412 419.5 425.4 429.8 433.5 440.2
183.1 183.2 183.3 184 184 185.4 184.7 186.9 189.7 191.8 193.1 194.3 194.4 191.4 193 192.4 191.5 190.5 183.7 195.5 199.1 200.9 203.6 205.1 205.7 208.3 211 212.6 214.4 216.3 218.8 221.1 223.5 227 229.2 230.3 231 232.4 238 239.7 239.2 242.9 255.9 263.8 269.6 273.3 274.2 274.9 275.7 276.4 279.5 280.1 281.7 282.9 284.6 288.8 292.2 293.4 293.9 290.4 283.8 274.6 262 250.6 236.2 218.3 199.6 179.3 166.4 159.1 157.4 157.6 159.9 159.8 162.3 170.2 186.8 203.4 229 255 278 297.9 312.8 318.5 332.6 359.9 385.4 402.2 411.4 418.8 428.2 443.7 452.8 456.8 459.1 458.8 458.2 457.3 454.9 452.4 450.2 449.5 447.4 440.4 436.3 429.8 422.6 425.3 427.4 428.4 427.8 426.2 425.3 424.6 422.4 419.9 427.6 433.5 437.7 441.4 446.6 450.5 452 452.5 450 446.1 444.3 442.4 447.3 452.2 457.1 462.1 465.4 467.6 468.9 471.6 475.3 477.9 479.3 477.3 475.1 473.8 473 471.3 469.5 465.5 460.1 454.7 449.8 444.9 442.9 444.9 447.2 449.3 448.7 447.9 445.7 442.9 439.4 431.5 421.8 412.8 403.2 394.4 388.7 382.8 376.8 369.4 366 364 369.7 374.7 379.2 385 388.9 391.6 395.1 399.5 401.9 405.1 409.6 416.2 422.1 426.2 425.1 422.6 417.1 411.9 407 404.7 403.2 403.9 409 419.4 429.4 436.7 442.8 449.3 456 460.2
186.7 186.8 186.9 188 189 188.5 188.7 191.2 194.3 195.8 197.4 198.2 198.3 196.5 197.4 197.7 196.8 195.9 186.6 194.7 201.1 207 208.9 210.5 211.7 212.8 217.1 219.8 221.3 223.3 226.2 228.7 231.1 233.8 236.7 237.5 238.8 237.6 245.1 248.3 250.1 245.8 259.9 268.6 275 279 280.1 280.6 281.4 282.7 287.3 291.1 294.2 296.4 297.7 301.7 302 302.7 301.7 300.5 291.8 282.6 271 258 242.6 227.1 210.2 192.6 174.9 164.1 160 157.8 158.8 160.9 163.9 168.5 179.4 195.3 214 239.1 258.5 274.8 282.8 291.5 319.5 344.9 366.5 375.9 379 392.6 408.9 429.9 443.2 449.9 453.9 455.5 457.2 458.1 455.3 450.3 449 447.7 444 438 433.1 426.4 419.1 416.3 418.7 419.4 419.1 419.1 418.6 417.8 415.5 414.6 424.1 430.6 434.8 440 445.1 447.6 448.2 447.1 444.2 440.3 438.8 437.6 444.7 449.5 454.4 459.3 463.9 465.3 466.8 468.2 470.7 473 474.2 474.1 473.1 472.4 471.5 470 467.7 463.4 459.9 455.5 450.4 446.6 446.1 448.5 452.1 454 453.9 452 449 444.5 439.8 431.7 422.5 413.8 405.2 397.2 388.6 381.3 379 375.1 371.8 371.2 374.8 379.6 384.9 388.9 393.2 398.4 404 409.3 413.6 417.1 421 424.8 432.4 438.8 439.2 440.7 438.9 435.1 425.9 419.6 417 420.3 427.1 437.2 447.4 455.7 462.6 468.5 475.4 474.5
190.2 190.4 190.5 192.3 193.2 192.2 192.6 195.5 198.4 200.1 201.5 202.3 200.2 199.9 201.9 202.3 202.2 201.3 189.7 197.5 203.5 212.2 214.7 216.5 217.4 220 223.2 226.3 228.3 230.7 233.4 236.2 238.1 241.4 243.8 245.3 245.2 242 250.7 254.3 258.8 260.1 249.1 270.9 277.4 282.2 285.4 286 289.1 293.5 299.2 303.1 307.3 308.9 309.6 313.2 314.9 313.6 312.2 307.8 294.6 287.7 278.5 267.1 251.1 233.2 217.8 204.1 186.1 171.2 164 162.9 160.4 163.1 166.5 170.7 179 191.3 205.2 221.2 238.7 248.5 258 282.7 299.6 321 336.5 344.9 369 390.6 410.2 426.4 437.1 445.5 449.7 453.5 455.6 456.5 450.8 447.9 445.8 442.9 439.6 435.5 429.8 423.2 416.6 409.9 412.5 413.6 413.2 412.5 411.3 410.1 406.1 412.9 422.2 427.7 432.8 437.8 442.1 444.2 443.5 441.7 438.1 434.4 432.9 436 442.3 447.1 452.1 457 461.1 463.3 464.3 465.5 468 470.4 471.8 472.8 473.8 473.2 471.8 470.1 467.4 464.1 460.8 455.3 449.4 446.5 447.2 450.5 454.2 455.9 456.2 454.5 451.8 447.2 440.7 432.5 424 415.3 407.7 399.1 390.2 387.3 383.6 378.3 377.5 377.4 381.3 386.4 392.9 396.1 402.2 407 414.9 420.9 426.8 429.5 433.2 435 442.9 448.8 452.8 456.3 458.5 454.9 449.7 440.6 437.3 440.2 444.7 453.6 460.2 469.6 476.5 480.6 481.4 477.3
194.2 194.3 194.7 196.4 197.7 195.4 197 199.7 202.5 204 205.8 206 203.2 201.1 204.3 206.7 207.2 205.8 197.9 200.3 208.4 216.6 220.4 222 223.6 225.1 228.4 232.1 236.1 239.1 241.6 243.8 245.2 248.1 250.6 252.3 253.6 252.4 255.6 261.9 266.2 268.8 260.2 270.3 280.6 285.3 290 295.5 300.5 305.4 311.8 314.3 317.8 322.3 320.4 323.2 325.6 324.7 322 314.3 303.6 294.8 285.4 275.4 258.9 237.9 225.1 213.4 197.6 183.5 172.2 166.8 162.4 164 168.6 174.2 182.1 191.5 200.4 208.3 221 231.8 248 264.8 281 297.9 313.9 347.8 371.4 388.6 405.3 419.7 428.5 434 440.3 445 447.3 447.1 447.1 446 444.1 441.3 437 432.7 426.5 419.8 413.1 407.3 405.1 407.9 407.8 403.5 402.9 401.2 399.5 415 421.1 425.9 430.8 436 439.3 440.6 439.3 435.3 431.6 428.1 428 435.5 440.5 445 449.9 454.8 458.2 459.9 461.1 462.8 465.3 467.9 471.5 473.4 473.7 473.9 471.7 469.6 467.4 464.1 459.2 453.7 446.5 444.6 446.8 451 455.4 456.8 456.8 456.2 453.2 448.6 442.6 434.4 426.2 417.4 409.2 400.3 398.8 394.4 390.7 385.3 384.1 384.5 387.9 393.7 398.8 403.9 412 418.3 426.2 433.5 441.8 445.2 445.8 446.8 449.8 455.7 460.9 465.4 469.5 472.1 466.6 458 451.9 454.5 458.1 463 466.9 472.8 475.3 476.5 474.6 469.5
198.3 198.7 199.3 200.5 202.1 199.9 201.9 204.7 206.3 206.8 208.7 210 208.8 203.1 207.5 210.7 211.8 209.8 200.4 203.7 214.8 218.9 225.6 227.1 229.9 232.1 234.7 238.3 243.5 246.7 248.5 250.2 252.7 254.7 257.1 259.5 261.3 261.3 263.4 268.5 272.4 275.9 276 268 282.7 289.3 298 304.3 309.7 315.9 322.4 324.7 326.4 328.7 329 333.4 338.2 338.4 338.1 328 309.1 296.9 290.9 279.4 269.4 251.8 234.4 221 210.5 196.5 180.4 174.4 166.2 164.5 167.9 172.6 179.3 189 197.9 207.9 225.4 245.7 244.1 250.6 264.1 280.3 305.6 328.2 352.5 372.2 394.6 407.7 416.8 426.4 433.1 438.7 441.2 443.5 443.9 443.6 442.5 440 435.4 428.6 422.4 415.8 409 404 397 400.4 399 395.8 394.8 390.1 403.6 413.7 420.4 425.7 430.2 433.3 435.7 436.2 433.5 429.3 425 421.5 427.6 435 439.7 444 448.6 452.6 454.8 456.5 457.9 460.1 463.1 466.3 470.1 473 473 472.5 471.2 469.1 466.8 463.3 458 450.9 441.6 441.4 447.1 452.1 455.9 457.1 456.8 456.3 454.6 449.6 445.4 438.2 430 421.7 415.2 409.1 405.1 401.6 397.3 395 393.4 393.9 397.8 402.9 406 411.7 422 431 438.2 445.5 452.6 454.8 454.4 455.1 457 461.5 465.9 470.5 476.7 478.8 470.6 463.8 458.9 455.1 456.4 459.4 462.6 465.9 467.8 465.7 466 461.3
202.8 203.4 204 205.4 206.2 206 205.6 207.7 209.7 210.5 211.4 212.8 212.2 206.5 211.8 215.1 215.9 213.9 204.5 208.1 219.2 225 227.7 232.9 236.4 239 241.3 245.6 250.5 253.7 255.5 257.8 260.5 263 265.4 267.8 269.7 269.7 270.6 275.1 278.7 281.8 283.7 281.5 282.5 295.5 305.9 312.9 317.8 323.1 330.6 332.9 334.5 337.6 339.9 345.3 350.8 350.8 349 345.6 321.1 300.1 294.6 284.5 277.8 264.4 246.4 230.4 218.5 206.7 197.5 185.2 171.1 166.7 167.6 172.5 178.5 185.7 191.3 198.4 217.5 244.9 272.6 286.2 285.9 285.9 284.3 303.1 323.5 346.1 369.6 381.6 397.3 416.5 426.5 434.6 440.1 441.1 442.1 441.5 440 435.8 429 422.7 415.2 409.8 404.3 399.7 392.3 389.4 391.1 389.7 385.8 392.5 401.7 411 420.3 427.5 428.1 429.9 431 430.3 427.6 423.5 418.8 416.3 426.6 432.8 438.1 442.6 445.9 448.8 451 453.1 455.2 458.3 461.5 464.6 467.7 470.7 470.9 470 469.9 468.3 465.1 460.4 454.3 445.7 434.7 437.9 446.6 453.1 457 457.3 456.1 455.5 455.1 454.2 449.5 443 435.4 427.4 421.1 417.6 413.2 408.4 405.6 405.2 404.6 405.2 408.6 413.9 416.3 421.4 430 438.3 448.2 455.4 459.6 461.1 460.8 461 462.2 464.9 469 472.1 474.5 475.9 470.8 461.3 455.5 446.3 446.2 449.8 453.2 455.1 457.5 455.6 457.1 453.8
207.8 208 208.6 209.9 210.3 210.1 208.9 212 213.2 214.3 215.3 215.8 216.7 212.3 216.5 219.6 221.1 219.2 208.8 215.9 223.9 228.9 234.2 238.3 241.1 245.7 248.3 251.9 255.7 260 262.9 266.3 269.8 272.6 273.2 277.2 278.5 279.3 277.4 281.8 285.3 289.5 291.8 291.4 280.7 303.5 310.9 318.6 324 330 335.4 339.6 344.7 348 351.1 355.9 361.5 360.7 358.6 354.8 337.7 311.8 297.2 288.8 280.4 275.8 258.5 241.9 221.8 217.6 209 194.2 177.6 170.9 168.1 170 174 176.2 184.2 197.8 211.8 242.9 274.7 302.5 328.3 333.9 323.1 327.2 333.9 337 358.9 388 405.8 418.6 426.5 435.2 440.9 443 445.2 445.3 442.4 438.5 432.2 421.8 414.5 408.5 403.6 398.2 389 382.2 380.3 383.4 379.5 389.1 397 404.7 412.7 420.6 425.3 426.8 427.5 424.9 421.7 417.5 412.6 414.9 423.9 430.8 434.8 438.7 441.5 444.1 446.3 448.9 452.6 456.7 460.2 464.2 466.3 468 468.9 467.6 466.9 465.5 460.9 455.6 449.1 438.3 426.1 435.7 446.5 450.9 455.3 455.5 454.3 452.9 453 453.7 450.7 446.5 439.2 433.7 429.6 426.1 421.9 416.6 415.3 415.4 416.9 418 420.3 422.9 424.6 427.9 433.8 440.9 449.9 455.3 460.3 464.3 465.2 465.9 467.9 470.4 472.9 474.4 474.2 469.1 462.3 453 442.3 434.7 432.2 435.3 439.6 444.8 447.1 449.1 449.6 446.7
213.3 213.1 213.2 213.9 214.6 214.8 213.8 215.9 217.4 218.9 220.1 220.9 221.6 218.6 221.4 224 226.3 225 221.3 219.2 229.9 234.9 240.1 243.7 247.1 251.6 255.8 259.5 263.5 267.3 271.4 275.4 279.1 280.8 283.6 288.2 288 288.6 288.4 290.1 292.6 296.1 300.6 302.8 296.8 306 316.8 322.9 329.9 336.5 340.6 347.4 353.9 357.9 361.6 366.1 367.9 367.8 365.3 363.3 347.4 325.9 314.4 303.1 291.7 283.9 268 250.6 242.5 229.3 218.5 205.2 188.6 175.6 172.2 169.6 172 172 183 195.9 209.7 235.8 267.9 300.9 328.7 349.5 365.4 361.6 361.1 365.1 365.6 398.7 413.5 421.1 430.2 437.4 441.8 445.8 448 447.2 443.6 439 432 420.8 415 411.2 404.5 396.1 391.8 384.4 378.1 374.3 377.8 384.3 391.2 398.4 406.1 413.8 419.2 423.5 423.1 419.6 414.9 409.6 404.7 414.7 422.1 427.7 432.4 434.1 436.8 439 441.6 446.3 451.3 456.2 460.3 463.6 466.4 467.7 467.3 465.2 463.6 462.1 457.1 452.3 443.7 430.9 420.6 433.5 442.6 445.6 447.1 449.7 451 450.9 451.4 453.4 452.9 450.5 447.2 442.4 438.4 434.8 430 425.9 424.9 424.9 427.5 429.7 430 432 434.6 434.7 434.3 436.6 446.1 452.9 458.2 463.3 467.2 466.3 468.9 472.5 473.5 474.1 472.5 465.1 453.4 442.7 430.6 423.5 422.4 424.4 428.2 435.6 440.7 443.1 442.5 437.8
218.4 218.7 218.6 218.8 219.6 219.1 218 221 222.8 224.3 225.5 226.3 227.2 225.6 226.6 230 231.3 229.8 224.7 220.1 234.5 241.2 245.5 248.6 252.8 256.4 263.4 267.1 271.2 275.7 279.8 284.7 289.3 291.6 293.1 295.6 296.3 297.6 297.2 299.4 304 307.2 310.3 313.1 311.7 297 319.2 325.7 334 341.5 347.3 354.3 361.9 366.2 368.8 374 374.8 374.1 372 368.8 343.8 332.5 323.6 310.4 296.6 287.6 275 271.6 259.6 238.9 230.2 224.7 196.7 181.9 177.8 171 174.2 174.7 181.7 193.2 206.7 230.2 257.4 285.6 312.9 336.7 359.7 386.8 392.9 397.7 398.9 408.1 421.6 432.2 436.2 442.3 446 448.9 449.8 447 442.8 437.2 429.8 421.7 417.6 412.3 405 397.5 390.3 382.8 378.7 368.9 374.5 380.2 385.8 392.6 400.3 408.9 414.2 418.8 418 414.3 409 400.4 405.9 414.1 419 422.8 425.3 428 431.8 435.4 441.9 445.9 451.5 457.1 461.7 463.5 466.1 468.1 467.5 466.9 463 458 451.8 445.7 437.7 421.7 414.7 430.6 438.5 440.5 440.8 443.4 446.1 449.9 450 453.8 455 454.3 452.2 450.1 446.9 442.3 439.2 436.9 434.5 435.5 437.3 438.5 440.6 443.3 444.6 444.2 440.7 434.2 439.3 447.1 450.7 457.1 463.1 463.5 467.3 471.7 471.8 470.2 465.3 456.2 445.1 432.3 421.3 415.6 415.1 419.8 427.2 433.7 436.7 435.8 434.8 429.5
224.1 224.9 224.7 224.4 224.9 225.2 224.1 225.3 227.8 229.8 231.1 231.9 232.8 232.9 231.5 234.7 236.5 234.8 230.9 221 239 246.6 251.2 255.3 258.6 262.8 269.5 274.8 278.8 282.9 289.9 295.1 298.7 301.1 301.4 303.8 306.2 304.9 305.6 309.6 313.4 315.8 318 321.1 319.7 316.6 307 324.2 336.5 344 351.7 361.5 368.5 372.7 375.5 380.7 381.2 380.1 375.9 367.6 350.1 332.1 327.3 316.4 308.1 290.4 285.3 279.6 266.3 259 242.7 233.1 205.6 189.5 183.2 173.1 174.8 179 184.5 191.1 204.3 220.8 245.6 272.2 295.6 322.8 353.9 389.9 408.1 416.8 419.5 429.5 433.6 439.3 442.1 446.9 449.7 452.1 449.3 446.9 441.8 434.1 426.7 421 417.2 412.8 404.5 397.9 389.8 380.1 371.9 366.4 368 375.2 381.2 388.4 396.1 405.8 410.8 412.9 412.9 408.6 401.7 392.9 401 404.5 411.9 415.9 417.9 426.5 432.1 437.3 443.3 447.9 453.4 457.8 461.7 463 465.7 468.7 470.5 468.6 463 455.7 448.6 437 423.6 409.7 413.8 429.9 435.3 435.6 435.1 437.3 439.7 444.5 448.9 453.3 455.9 456.6 456.6 455.9 452.9 448.8 446.8 444.6 443.6 444.5 445.3 446.7 450.2 452.4 453.5 452 448.1 439.1 428.4 435.3 439.9 443.3 450.9 454.3 462 467.1 468.1 465.3 457.4 446 433.2 420.5 412.7 408.5 409.3 417.2 427.5 433.4 435 432.2 427.9 421.9
230.9 232.4 233.1 233.1 233.1 232.8 232 231.9 234.2 236.1 237.5 238.3 239.2 239.7 236.3 240.6 241.4 239.7 235.8 222.1 242.5 253 258.4 262.3 266.4 271.8 276.3 281.8 285.7 290.8 299 302.4 307.2 309.3 310.3 313.3 315 311.7 312.4 318.4 321.5 324.9 328.5 331 331.4 329.7 327.7 317.6 337.6 348.6 355.9 366.5 373.4 377.8 380.9 385.3 387.7 385.5 382.2 366.9 354.5 341.5 332.3 322.9 312.6 308.5 296.8 288.4 283.8 271.9 260.8 241.1 217.8 199.2 186.5 177.8 174.1 178.2 182.1 189 202.9 216.6 237.3 265.5 300 329 353.8 383.3 410.7 422.5 428.5 435.8 441.2 446.4 449.6 453.3 452.9 452.9 449.6 446.3 441.9 434.6 427.4 419.5 416 412 406.4 398.2 391.7 384.5 379.8 374.6 364.2 367.9 377.2 385.3 395.7 403.7 408.4 408.4 407.4 402.4 393.8 387.9 391.2 402.8 411.8 418.1 424.8 430.5 435.2 439.8 444.7 449.4 453.6 457.9 461.7 463.3 466 469 471.5 470.8 461.3 452.9 445.5 436.2 419.5 398.5 408.2 419.9 425.2 427 427.6 430.7 438.8 444.1 449.7 454 455.8 457.7 458.4 458.9 457.7 454.4 453.4 452.5 452.3 452.3 452.9 455.1 457.9 459.4 459.8 458.4 452.3 440.5 427.7 421.5 427.8 431.3 436.6 446.9 455.2 461.7 460.9 458.9 448.7 435.8 421.4 410.3 405.6 401.1 406.8 416.5 424.5 428.6 429.8 426.3 421.6 414.4
238.8 241.2 242 242.7 243.2 242.1 240.8 239.8 240.9 243.4 245 245.7 246.5 245.9 242.5 246 247.1 246.6 241.6 225.7 246.7 257.8 265.8 270.1 273.9 279.5 283.8 289 293.8 297.8 305.9 311.2 314.8 316.5 318.9 321.7 322.5 320.3 320.7 327.7 330.4 332.5 336.7 340.9 340.2 337.7 334.7 333.4 338 351.5 359.3 369.6 378.3 382.5 386.3 392.2 392.6 390.8 385.6 365.1 355.2 347.2 339.7 332.6 328.4 321.9 313.6 303.7 296.3 289 281.8 258.3 234.3 212.7 198.1 182 175.5 177.2 180.2 186.1 196.9 210.9 231.5 264.9 300.8 337.9 366.6 399.3 429.2 437.4 438.7 444.2 449.3 453.2 457.2 458 457.1 454 451.7 446.8 441.2 431.9 422.8 419.5 417.2 413.8 409 402.3 397.7 391.5 385.8 381.1 371.4 360 372.2 384.1 394.8 402.4 404.8 405.4 402.4 396.7 388.1 378 392.4 403.8 413 420.1 425.6 431 435.8 440.5 445.4 450.4 455 458.7 462.2 464.2 466 467.2 466.6 465.9 457.7 450 441.4 430.6 414.3 395.4 397.8 408.9 412 414 416 429.9 437.7 443.6 449.3 452.7 454.6 456.8 458.8 459.3 459 459.2 458.2 458 458.6 459.7 460 460.8 463.6 464.4 463.9 461.9 455.8 442.4 426.6 415 411.1 415.7 424.3 437.6 447.2 454.4 455.1 450.6 440.4 426.3 410.8 402.3 398.6 394 405.2 412 417.1 419.2 420.4 418.4 412.9 406.9
247.8 250 250.9 251.4 251.7 251.3 249.7 248.2 249.4 250.6 252.8 252.7 252.6 251 248.5 251.2 252.8 252.2 248.1 230.6 250.1 262.1 271.3 276.7 281.8 287.3 291.6 293.4 300.4 302.9 312.6 318.1 321.7 324.5 327.1 330.5 328.8 331.2 330.5 335.2 338.8 340.5 343.4 347 348.9 347.4 341.4 342.4 349.8 355.8 363 373.9 387.6 387.4 393.7 399.1 399.7 397.2 391.7 374.4 363.4 357.1 349.6 344.6 339.8 333.6 321.2 315.1 306.1 301 296.6 283.3 257.7 229.1 209 191.3 182.9 178.5 180 183.6 190.4 205.3 227.6 260.6 296.5 336.9 371.4 405.8 428.5 436.9 443.3 448.7 453.7 458 461 462.5 460.8 457.4 453.3 446.3 441.1 432.9 426.1 422.3 419 415.7 412.4 409.6 401.4 394 388.6 381.1 369.7 356.8 367.7 379.5 391.3 397.1 400.6 400.7 397.7 391.7 379.6 379.6 389.7 403.3 412.6 419.3 425.8 431.6 436.3 440.8 445.8 451 455.9 460 462.1 464.1 466 465.1 462.8 458.4 453.7 445.9 436.5 425.8 412.7 393.5 387.5 398.8 400.6 398.8 415.5 427.3 434.8 440.9 444.9 449.6 451.7 453.9 456 458.9 459.4 460.8 460.6 461.3 462.6 464.1 465.4 467.6 469.2 469.2 468.2 465.2 458.2 444.1 424.8 410.6 400.8 403.1 413.4 426.1 436.8 443.5 444.3 441 431.7 417 403.2 394.8 390.7 393.3 401.3 406.1 409.5 409.8 408.1 405.2 403.5 398.8
257.7 258.9 259.5 259.8 260.1 259.8 258.3 256.1 257.2 260.1 260.8 260.8 260.6 258.3 257.7 258.8 259.1 257.9 254.5 240.2 252 265.8 275.8 282.1 288.5 294.1 298.6 302.7 304.8 310.5 318.8 324.9 329.3 331.4 336.9 337.8 336.6 338.1 339.7 343.8 347.2 349.2 353.1 356.4 356.5 354.9 339.9 350.6 358 362.5 368.8 375.6 384.2 392.8 400.4 406.3 406.4 403.1 396.4 378.2 373.2 364.4 359.2 355.4 353 344.2 335.2 324.9 308.2 315.7 311.4 301.7 281.6 245.8 219.9 201.4 187.1 180.6 181.7 182.9 185.6 200 223.9 253 285.8 323.2 358.1 397.1 423.3 435 444.5 449.5 458.2 463.1 465.4 465.2 463.1 458.9 455.8 450.6 443.8 437.3 432.9 425.5 419.3 417.8 414.5 410.7 404.1 397.9 391 381.8 371 355.4 361.2 375 384.4 392.6 396.2 396.1 393.7 387.8 377.6 372.7 387.3 401.6 410.8 417.8 425.1 431.7 436.7 441.1 446 451.6 456.3 459.6 460.9 464.1 465.4 464.2 461.1 456.5 449.2 441 431.5 418.6 408.1 395.3 373.9 383.1 382.6 396 409.2 420.8 428.9 434.9 439.9 443.5 447.4 450.3 454 455.6 457.8 458.7 458 459.2 461.8 464.8 467.4 469.1 471 472.5 471.7 468.5 460.5 444.2 423.2 407.9 397.2 391.9 401.3 414.8 425.3 432.2 436 430.8 416.7 406.9 396 387.9 381 386.8 393.6 396.5 397.5 397.2 396.1 392.7 392 389.1
267.2 267 267.2 267.9 267.9 266.6 264.6 264.1 266.9 268.1 269.3 269.3 268.4 264.2 265.2 266.1 266.1 263.7 261.1 248 253.1 269.3 279.1 286.8 293.5 300.8 305.4 308.9 312 319.9 325.3 331.4 336.7 340.6 344.1 343.5 344.7 340.7 349 353 354.2 357.9 361.8 364.2 364.4 362.7 344.3 358.7 365.1 368.9 374.4 381.2 389.9 398.6 405.9 412 413.2 407.6 399.2 387.1 379.3 374.2 368.9 365.8 364 358.8 347 333.9 323.1 327.9 324.8 309.7 297.7 263.8 233.1 212.2 199.3 189.7 183 184.4 186.4 199.7 219.2 244.7 279 317.1 357.5 403.7 426.1 437.9 444 450.4 462 466.8 469.8 467.5 466.6 463 457.6 451.9 446.7 441.1 438.5 432.8 427.8 423.4 419.8 415.8 411.2 403.4 395.2 383.2 371.4 361.2 348.4 368.7 381.5 388.6 392.7 392.8 391.2 385.3 374 363.1 382.9 398.4 408 415.1 423.6 430.7 436.4 440.6 446 451.4 456.8 458.3 459.3 461.9 464.1 464.4 459.6 453.3 447.5 437.4 425.7 414 401.6 391.3 381.2 366.5 377.2 392.2 408.1 414.9 418.3 424.2 431.7 437.5 441.1 445.5 449.8 452.9 454.9 453.2 455.4 454.8 458.6 462.1 465.8 466.6 470.4 472.9 472.1 467.9 460.8 444.1 421.4 403.6 394.4 383.9 387.1 400.7 409.5 417.5 422.1 421.3 408.7 398 389.8 382 371.8 380.4 386.2 386 383.4 380.4 379.2 378.9 378.2 380
273.6 275.2 276.5 277.4 276.6 275.2 273.7 267.4 275.1 275.9 277.2 278.9 276.1 271.4 273 273.4 273.1 270.8 267.9 255.8 253.1 272 284.1 292.9 299.9 306.3 310.4 314.9 320.5 326.7 332.9 339.5 345.1 348.4 350.2 351.1 351.8 353.7 356.2 359.5 362.8 367.7 370.7 374.3 373.8 371.5 352 364.2 372.6 375.7 382 389 397.9 403.5 410.8 416.8 417.6 410.5 401.9 393.6 388 385.8 379.9 378.3 371.2 369.6 358.6 343.7 335.1 342.8 340.5 329.6 312.1 278.2 246.1 223.7 205.9 193.3 188.6 186.6 188 192.7 209.9 233.2 270.8 306.9 344.6 388.4 434.2 440.1 444.1 447 460.4 461.4 465.7 467.7 466.4 463.2 459.3 455.1 450.5 445.6 443 437.7 431.9 429.2 425.2 420.4 414 407.1 395.9 381.6 370.1 360.4 346 364.6 376.8 382.7 387.7 390.9 388.8 383.7 370.7 361.7 378.6 393.8 402.9 411.9 420.9 430 436.6 440.2 445.3 449.6 452.8 454.5 456.1 457.7 458.9 458.7 456.5 451.2 445.6 437.6 426.3 413.3 401.6 390 379.5 360.8 369.7 386.2 402.3 405.8 407 412.6 419.2 427.9 435.6 443.1 447.4 450.9 452.4 450 447.2 447.7 451.4 454.2 458.4 461.9 467.6 470.4 468.7 464.5 458.5 446.6 422.7 405.3 393.1 384.5 378.8 384.2 394.4 399.5 405.4 406.8 398.5 390.4 383.1 374.7 364.8 374.9 377.5 376.9 374.4 372 373 376.1 379.8 381.8
282.2 282 284.3 286.2 286.2 284.8 282.6 277.6 282.4 285.6 285.4 288.2 284.7 278.2 281 281.3 281 278.4 274.3 267.3 249.9 271.8 287 297.3 304.7 311.6 317.9 323.7 329.5 335.2 341.1 347.8 353.1 355.6 356.4 361.1 362.4 363.1 364.4 368.6 371.5 374.8 380.4 381.3 381.4 372.8 374.4 374.8 379.4 384.8 390.2 397.3 405 411.1 415.5 419.6 418.4 410.4 405.2 399.3 395.6 393.5 389 386.4 381.9 377.7 367.2 352.7 346.7 357.9 354.5 346.6 333.9 293 260.7 234.3 218.4 203.8 197.8 193.9 189.7 191.7 202.9 231.2 260 293.2 331.9 369.2 401.8 429.1 435.1 438 448.4 458.1 461 464.8 469.5 462.8 457.9 455.7 452.4 450.1 446.9 442.4 437.2 431.5 428.2 424.8 418.3 409.8 395.6 380.8 371.7 364.3 344 361.4 371.6 377.8 383.1 388.1 387.7 383.2 370.7 353.7 372.1 384.3 396.1 406.2 418.7 429.3 435.7 439.1 442.5 446.6 448 449.5 451.7 453.7 454.5 453.6 452.3 449.7 444.2 436.8 426 414.8 402.9 391 378.8 360.1 364.5 380.2 391 391.8 394.4 401.1 409.2 421 431.7 439.8 443.8 448.2 448.5 447.1 444.2 440.6 444.5 446.8 451.3 456.7 463.3 466.8 464.1 458.7 452.4 443.2 423.6 407.6 393.7 384.7 376.1 373 378.7 384.2 388.6 391.4 387.9 382.4 375 368.8 358.7 369.1 371 370.7 370.5 372.1 375.3 380.1 382.1 384.9
289.4 290.4 293.6 294.6 295.6 293.2 291.5 282 291.9 292.6 293 293.2 289.2 288.2 289 289 288.5 285.7 281.6 276.8 266.3 268 287.5 299.2 309.1 316.1 323.5 330.4 337.1 343.1 349.3 355.1 359.8 364.4 371.3 378 375.3 373.4 371.6 377.2 380.8 383.4 387.5 389.2 386.2 382.8 384.5 385.4 387.7 392.9 398.5 405.8 412.6 417.7 421.7 420.6 416.6 413.7 408.2 404.7 401.4 400.6 396 392 392.4 382.8 374.5 358.7 361.8 370.3 370.7 366.8 350.4 315.2 278.2 247.6 225.1 211.1 202.1 197.2 198.7 194.4 206.3 225.5 248.9 281.2 317.4 351.5 385.5 417.6 423.4 430.9 442.6 450.2 454.6 457.2 460.1 459.5 456.5 454.9 452 451.3 449.7 446.8 441.9 436.2 431.5 426.2 418.5 412 396.8 380.4 370.2 362.7 342.1 355.9 365.8 370.7 377.7 384.5 385.3 381.9 372.1 347.1 362.3 374.3 385.6 401.4 415.1 425.1 432.2 436.6 438.8 440.9 440.7 443.2 446.5 448.8 450.2 450.4 449.7 448.3 442.8 435.4 425.7 415.1 403.3 389.3 370.9 354.7 354.4 363.1 373.7 379.5 387.7 398.5 410.6 420.2 430.3 437.7 443 445.8 446.2 443.3 438.6 435.5 435.4 440.2 446.5 452.3 459.4 461.9 459 452.4 447.4 440.3 427.8 412.5 401.4 387.8 379.1 371 364.4 368.9 373.1 377.1 376.3 374.9 369.2 362.5 358.1 362.5 364 364.1 370.1 374.8 379.7 380.7 387.1 392.8
298.4 300.9 302 302.7 303.8 300.7 297.2 290.3 299.5 300.3 299.9 297.6 294.2 295.6 296 296.5 295.7 293.9 290.4 285.4 275.7 262.4 285.5 300.7 311.8 320.2 327.9 336 344.4 351.2 357.3 363.3 370.1 375.9 383.4 388.2 383.6 380.6 382.2 387.2 388.1 391.3 394 393.8 388.8 391.3 392 392.5 396.7 401.2 407.8 415.3 421.8 425 426.2 424.3 421.1 417.9 414.8 411.7 409 403 398.9 396.4 393.5 387.5 376.7 358.6 373.1 382.5 387.6 386.2 370.2 328.3 292.4 260 235 218.8 204.8 205 202.3 195.9 206.8 222.3 240.1 273.8 313.4 345.9 377.7 404.8 414.9 423.8 433.7 442.7 448.4 451.9 454.2 450.9 450.2 451.4 452.3 451.6 450.5 448.3 443.6 439.7 433 429 422.4 412.9 396.9 382.8 369.9 358.6 344.1 350.6 358.8 362.6 371.4 379.8 382.5 380.4 374.4 354 347.6 361.4 377.7 393.2 407.2 418.6 425 429.1 430.3 430.1 429.1 432.4 439.1 444 446.9 448.1 447.9 446.5 441 434.4 425.7 413.8 400 382.1 365.2 348.4 343.1 357.8 370.9 383 395.7 407.2 417.6 426.8 433.3 437.7 441.4 442.6 443.7 439.6 434.1 429.7 429.9 432.9 440 449.2 455.1 452 450.5 447.2 442.6 437.3 433.7 422.9 411.6 397.5 384.1 375.1 365.6 361 360.5 366.5 366.3 365.9 363.6 358.7 353.1 354.2 365.5 371.2 375.2 379.6 384.2 390.8 392.9 392
310.7 311.5 311 312 312.1 308.1 300.2 299.6 303.9 307.4 306.6 302.4 299.3 302.7 304.3 304.9 304.2 301.7 299.1 293.1 283.9 269.1 282.4 299.2 313.6 323.7 332.6 342.1 351.5 359.7 366.6 374 381.1 387.2 392 396 391.9 388.6 389.1 393.5 396.4 398.8 399.4 398.9 395.2 397.5 398.9 400.8 405 409 415.7 424.2 430.5 432.7 432.5 429.4 426 423.6 420.5 415.8 411.4 407.2 402.1 399.3 394.7 387.6 376 371.5 384.5 396.3 402.4 410.7 379.3 339.1 307.2 270.4 243.2 225.2 216.1 206.4 204.6 197.9 206.4 217.4 235.4 264.4 305.4 341.1 373.7 394.2 404.8 414.3 424.8 432.2 437.4 442.7 445.6 446.4 448 449.3 449.7 450.5 449 447.6 443.7 439.4 434.3 428.2 420.9 410.9 398 385.2 371.2 359 346.2 341.5 350.8 355.1 365.4 373.2 378.1 378 372.5 361.5 333.9 348.9 365.1 382.5 396.7 408 412.8 415.8 416.7 412.6 412.6 422.2 433.8 440.7 443.8 445.6 445.7 443.9 440.6 433.1 425.3 414.4 399.4 379.7 360.2 338.1 345.3 358.6 373.4 388.1 401.7 414.6 424.4 431.8 437.5 440.5 440.5 441.1 440.5 437.4 431.9 423.9 421.8 425.5 435 444 449.4 444.9 443.6 441.9 438.3 435.4 434.7 428 416.2 405.8 392.6 379.8 368 351.7 353.7 356.7 358.5 359.7 358.3 346.8 350.8 360.4 368.1 375.8 381.6 387.1 391 392.5 393.1 392.4
322.6 323.3 321.1 320.2 319.9 314.2 310.4 309.5 309 312.7 310.3 306.7 307.7 312.2 314.4 314.8 312.6 309.3 306.2 299.4 288 279.4 278.6 299.2 314.1 326.6 337.3 347.9 358.4 367.5 375.1 382.4 389.5 395.9 401.1 407.6 401.8 397.4 397.6 400.4 404.5 404.7 404.2 403.7 402 404.7 406.8 409.1 412.7 415.8 425 432.5 436.6 440.1 438.3 436.2 431.5 425.5 424 418.5 413.6 410.1 405.4 401.7 395.1 385 377 385.4 395 405.5 411.7 414.3 388.2 352.4 324.8 288 251.6 231.7 224.9 216.3 210.2 203.1 208.6 215.4 233.8 259.6 294.3 332.7 364.5 382.9 395.4 407 416.2 424.6 433.4 439.3 442 442.8 443.2 444.8 445.2 447.1 447.5 446.1 444.3 439.7 433.5 427.5 419.9 409.4 399.1 388.8 376.8 363.2 350.5 333 343.6 348.2 357.9 367.1 370.3 368.9 365.5 357.4 341.2 332.1 351.7 369.3 384.4 392.4 396.3 398.5 395.6 395 399.9 417.3 429 438.3 441.4 444 443.7 441 436.3 429.6 423.5 415.3 394.2 375.1 353 333.6 344.1 360.5 377.3 392.1 407.9 419.6 428.5 435.7 441 442.8 443 440.6 437.4 438.3 432.5 421.7 412.2 415.8 424.2 434.5 441.8 441.4 438.7 435.5 433.1 432.2 432 426.9 415.7 405.9 396 382.2 371.2 359.4 343 347.6 352.4 353.3 349.7 341.1 354 363 371.7 385.2 394.9 394.7 393.7 393.6 394 393.4
335 335.5 331.9 330 325.7 321.4 318.2 316.9 317.4 317 314.9 312.9 316.1 320.9 323.1 322.5 320.7 316.6 311.3 304.8 294.9 287.5 277.2 299.6 315.7 329.8 340.9 352.7 363.1 374.5 383 391.2 398.5 404.7 410.5 413.8 409.9 405.9 405.8 408.3 410.9 411.9 411.5 411.1 408.3 413.1 416.1 418.4 422.3 427 433.8 441.5 446.8 448 443.2 437.5 433 429.3 425.1 421.6 415.6 413 407.4 398.6 390.6 389.8 387.5 393.8 403.8 412.2 419.3 424.8 400 364.1 337.2 312.2 262.2 240.4 231.5 227.6 213.7 210.5 205 216.8 229.5 251.8 285.1 322 351.8 361.9 387.4 401 409.7 421.3 428 435 435.8 437 438.2 439.4 440.5 441.3 442.5 444.6 441.9 437.6 432.5 426.4 419.1 410.3 400.4 392.3 381.9 368.1 353.9 341.4 331.8 340.7 351.8 359.9 363 358.2 349.6 346.8 337.6 318.2 341.8 361.5 370.7 378.4 378.8 379.7 379.4 377.9 396.5 412.5 427.7 436.8 440.5 442.1 441 438.3 433.5 425.9 418.8 409.7 387.9 367.1 346.9 326 344.6 359.8 375.9 393.5 412.3 424.4 433.5 440.4 444.7 446.9 446.3 445.1 441.3 430.9 430.1 421.5 410.4 406.4 412.3 422.6 430.7 432.1 429.9 427.7 427 426.7 426.8 421.6 411.4 400.9 391.6 380.1 369.7 357.1 347.6 337.7 345.6 345.9 332.6 346.4 356.4 366.7 382.1 401.1 401.5 397.7 396.4 396 396 394.5
346.2 345.1 341.8 337.3 329 329.6 325.9 324.2 323.2 322.5 320.6 320.2 325.1 330.2 331.1 331.6 329.1 324.5 318.3 310.7 301.3 295.1 291 300 316.2 329.4 344 357 369.2 380.9 391 399.2 407.3 413.3 418 423.6 419.4 413.2 414.6 417 418.3 418.5 418.7 418 414.9 419.3 423.6 426.6 433.6 438.9 444.5 449.8 455 452.6 444 440.8 435.4 431.8 427.2 423.7 418.8 413.3 405.1 402.9 400.7 396.4 396.8 402.1 411.5 418.2 424.9 432.3 417.6 376.6 345.7 310.3 276 252.6 239.7 230.7 222.7 219.4 210.4 216.2 229.5 249 273.7 306.9 336.3 354.2 379 394.8 406.2 415.9 425.4 429.9 431 430.3 431 433.7 435.8 438.1 438.6 439.6 438.9 435.9 430.7 425.3 418.5 409.4 400.1 392.8 383.9 373.3 359.2 344.3 327.6 334.7 339.8 341.6 343 341 337.5 333 328.1 314 338.8 349.1 357.9 363.4 365.6 360.8 357.8 381.5 399.4 414.6 428.1 436.1 439.8 440.3 437.5 435.2 428.7 421.8 414.5 397.7 376.9 360.2 341.4 321.3 344.2 361.6 379.1 398.6 416.8 429.7 437.5 443.3 446.6 447 445.9 444.9 440.7 433.3 423.2 413.9 407.5 397.7 402.7 412.7 420.7 423.9 421.7 420.7 421.5 423.3 420 412.3 404.5 394.5 383.5 373.5 361.8 354.2 346.5 336.3 337.6 328.6 338.7 348 359.5 373.7 390 408.5 407.1 403.3 399.5 397 397.2 391.2
358.2 356 353.7 344.7 339.2 338.3 336.1 333.7 332.1 329.6 326.8 329.4 334.7 337.4 337.9 340.3 339.7 335.3 330.2 320.5 309.9 302 300 298.3 315.9 329.6 343 359.2 372.2 385.8 398.6 407.1 415.2 421.1 424.7 427.9 426.1 422.6 423.1 425.6 426.9 426.1 426.4 425.4 425.6 428.1 431.1 437.9 445.5 449.7 452.6 456.5 460.1 456.6 448.9 444.4 438 431.7 429 425 419 413.5 410.8 410.4 408.7 405.7 405.1 407.4 416.2 421.5 426.4 432.6 424.9 389.9 354.2 307.2 282.5 261.9 249.2 240.8 228.3 230 219.4 216.3 228.4 241.6 260.1 285.2 321.4 354.7 377 392.7 404 412.1 420.3 423.5 424.4 423.2 423.8 427.9 431.7 434.4 436.3 437.1 436 433.7 429.8 424.1 417.7 408.3 399.6 391.2 383.9 375.7 361.4 347.2 327 325.5 332 332 330 329.8 326.3 322 315 312 320.5 331.8 344.4 349.6 341.4 346.9 369.8 387.7 402.4 417 429.2 436.3 437.9 436.9 434.8 430.9 424 418.3 406.5 387.4 363 346.5 329.3 320.2 337.4 353.9 376.5 399.7 419.9 433.1 440.2 445.1 446.1 446.1 445.1 442.7 437.2 431.5 420.1 407 399.6 391.6 390.1 401.4 410.8 414.1 413.6 414.4 415.2 417.5 417.2 411.4 398.8 385.3 374.8 363.3 352.1 345.3 340.9 334.9 326.4 329.9 340.3 350.2 362.1 380.1 399.5 415.9 412.7 408.9 405.1 401 397 391
368.8 367.4 364.5 354 350.9 347.3 344.4 343.1 338.6 336.7 335.3 338.3 343.1 345.5 346.6 348.6 347.4 343.5 340.3 333.1 318.4 309 306.9 300.6 315.1 328.9 342.7 358.9 374 389.2 405.3 414.1 422.3 429.5 433.3 435.2 433.9 430.9 432.3 434.3 435.3 434.9 433.6 433.1 433.2 435.5 440.5 446.3 453.7 457.9 460 461.5 462.1 459.8 452.8 446.3 441.3 435 427.9 425.4 421.6 419.7 418.3 416.7 414.5 412.1 412.8 413.5 417.3 422.7 427.1 423.3 419.9 397.6 359 313.1 291.8 272.7 257.4 246.7 233 226.2 230.1 222.9 227.3 238.9 262.1 286.6 314.8 344 369 388.7 399.6 406.6 412.1 415.9 417.5 417.3 418.1 422.2 427 431.1 433.8 435.6 434.6 432.6 428.8 422 414.3 407 399.9 392.2 381.4 370.9 360.6 348.3 337.6 327.8 317.1 321 323.5 319.7 316.9 312.2 308.3 306 310.5 317.5 328.3 329.9 338.2 358.7 377.5 393.6 407.8 420 429.2 433.7 433.1 431.6 429.6 426.2 420.2 415.1 402.2 378 356.3 335.8 324.7 315.4 333 355.1 379 402.3 423.2 436.4 441.7 446 447 445.7 443.9 440.7 435.2 428.2 414.2 400.9 390.7 384.2 381.2 391.2 402.3 405.6 404.5 405.8 410.6 413.4 414.2 408.7 396.1 379.1 362.7 352 343.2 335.4 333 321.9 318.4 333.7 341.8 350.9 364 379.9 399.7 418.3 412.4 407.9 403.3 398.8 395.1 391.5
377.6 372.7 368.4 365.2 361.9 356 352 347.6 347.2 344.7 343.8 347.1 351 354.2 354.7 354.5 353.9 352.1 349.8 342.8 325.7 315.5 308.6 302 315.2 328.9 343.3 359.3 375.3 389.7 408.1 419.8 428.7 436.8 442 443.8 442 438.7 441.7 443 443.7 442.7 442.1 442 440.9 443.8 447.3 454.6 459.8 464.5 466.3 465 462.5 458.5 453.1 448.2 442.6 436.9 432.1 428.1 424.8 424.5 424.4 422.3 420.3 419.6 418.7 414.9 415.6 420.4 424.3 420.8 408.5 390.7 355.9 319.6 300.5 282.9 268.1 252.4 245.5 237.3 237.6 228.8 245.9 234 259.9 279.9 302.6 328.4 357 378 393.1 400.9 405.3 410.2 411.6 411.6 413.4 417.1 422.8 427.3 432.6 434.7 434 431.7 427.9 421.4 413.1 404.7 397.2 390.2 379.9 370.6 359.9 344.3 336.4 335.4 331.4 324.7 314 310.7 307.3 302.9 297.7 301.3 303.8 308.7 314.9 324.4 345.9 365.5 383.6 399.1 414 426.6 431.5 428.3 424.1 427 426.9 419.3 415 411.4 395.2 370 349.2 330.6 319.3 311 331.4 353.6 378.3 400 422.5 432.2 441.5 446.3 446.4 445.7 440.8 436.2 429.2 419.4 406.9 392.6 381.8 374.1 372.7 382 392.1 394.1 391.8 398.3 407.3 413.8 407.2 397.4 391 373.2 358.3 344.5 333.3 328.7 325.2 314.6 328.8 338.7 346.7 356.4 369.6 384.8 400.1 411.9 410.5 405.3 401.1 396.7 391.3 384.8
386.3 380.2 376.2 374.5 371.7 366.9 360.1 357.9 355.5 353.1 352.3 354.7 357.7 361.1 362.2 362.4 361.4 358.4 355.4 345.8 331.9 321.2 312.4 303.8 316.7 329.9 345 360.7 376.6 389.8 409.7 423.2 434.5 443.5 449.2 452.2 449.8 448.3 450.2 452.1 452.4 452 450.9 451.7 449 452.1 455.4 460.5 464.8 468.1 468.5 465.9 463.2 459.4 455.7 450.2 443.1 437.5 433.6 430.7 428 424 425.6 423.8 423.5 422.3 422.6 421.4 411.2 415.7 422.1 418.4 403.2 384 358.2 332.7 312.9 297.2 283 267.6 255.8 251.1 248.4 246.6 246.5 241.9 257.9 272.6 292.6 316.8 342.5 364.3 384.1 394.5 399.5 404.5 406.4 406.6 410.3 413.4 419.4 425.5 430.9 433.7 432.6 430.8 426.4 419.2 411.7 402.7 393.7 385.1 376.3 368.6 362.1 354.7 350.9 346.4 341.4 337.4 335.2 332.7 329.6 323.4 315.9 305.6 293.7 295.9 314.3 328.5 348.6 369.5 388.8 406.8 419.8 424 421.2 419.1 416.2 415.9 415.3 413.9 411.1 404.7 390.4 365.5 341.2 324.8 313 312.1 329.2 347.3 372.1 391.7 414.2 430 439.2 441.9 442.7 441.5 437.2 431.2 423.2 413.5 400.2 385.3 373.9 367.9 361.3 372.6 380.5 379.6 382.9 395.1 407.3 414.8 415.3 399.5 384.7 369.6 350.4 336.8 327.2 321 311.5 322.9 335.4 345.9 357.8 366.1 378.1 392.2 402.5 406.8 404.4 402.3 397.4 389.7 384.2 379.6
395 387.6 382.4 380.3 378.4 374.2 369.9 365.7 363.3 360.8 360.7 362.9 365.6 370.3 371 371.2 369.1 365.1 359.6 349.9 336.7 325.2 319.6 309.2 319.5 331.1 348.4 364.3 379.3 393 409.3 426.6 438.5 448.9 455.4 457.7 456.9 455.4 458.7 463.2 465.7 462.5 460.8 459.6 457.9 461.6 463.2 466 469.2 471.2 471.5 468.4 465.6 460.1 455.7 449.8 441 437.5 434.9 432.6 430.8 429.2 425.9 421.2 420.3 420.5 419.1 418.4 407.3 406.5 410.4 407.1 397.1 380.8 361.9 347 330.7 316.8 303.3 282.2 265.6 264.2 254.9 252 256 262.9 252.4 266 282.4 305.4 330.8 352.1 372.9 387.4 395.2 399.8 401.1 403.2 406.9 410 414.7 424.1 429.2 430 429.9 427.9 424.2 419.7 410.7 403.9 396.4 388.1 380.4 374.7 367.4 365.9 364.3 359 353.5 350.5 349.5 347.6 342.3 333.1 320.2 310.8 303.3 292.3 306.7 327.6 349.3 371 389.8 406.1 416 418.6 414.8 413.1 410.4 407.4 407.6 408.7 407.7 404.3 387.4 362.8 336.7 317.8 303.9 311.2 328.4 351.6 378.3 402.9 417.8 434.4 438.5 437 437.1 434.4 429.8 422.6 413.4 400.9 388.9 377 366.9 360.2 348 361.5 366.4 366.6 379.9 393.3 408.3 415.1 414.5 402.4 380 362.2 342.9 328.7 320.3 308.8 317.8 333.3 345.9 356.4 369.7 379.7 389.1 401.2 405 405.1 402 395.4 390.3 385.1 381.9 377.2
400.8 397.1 390.6 388.9 386 381.7 377.4 374.8 373.7 371.1 368.6 370.2 373.3 376.7 378.3 376.4 374 369.5 363.6 354 342.1 330.1 327.2 319.8 321.7 329.3 349.5 363.8 382 396.4 410.3 427.4 441.4 451.9 460.1 462.2 462 461.6 466.4 470.7 477.6 475.8 471.7 469.2 467.5 470.9 471.7 472.5 474.9 476.4 475.5 473.7 470.5 466.9 461.5 450 447.3 440.9 437.4 437 436.1 434.3 432.1 429.5 424.2 416.7 415.2 417.1 408.1 405.1 395.8 394.1 387.1 376.5 365.1 352.9 340.5 327.7 311.7 296.4 281.1 272.3 266.6 257.2 256.6 260.1 254.9 265.4 273.7 297.6 318.3 343.6 367 381.9 390.8 395.1 394.9 399.1 402.8 405.6 410.6 420.4 426.3 428.1 426.6 424.5 422.4 416.8 412 406.2 399.5 392.7 385.1 378.5 375.1 374.6 374.3 372.6 370.6 368.2 365.1 359.8 345.8 332.3 318.8 307 300.4 286.6 312 332.2 354 374.1 392 405.4 412.3 413.8 411.2 406.3 402.8 399.3 400 403.2 404 400.7 380.5 357.1 336.1 312.8 297.3 312.1 331.5 356 380.3 402.4 422.8 437.5 435.1 434.1 430.8 427.9 421.8 410.7 400.5 388 377 366.6 357.1 348.5 335.7 347.8 356.3 368.5 381.4 397.5 411.7 419.4 414.3 397.8 376.6 353.3 333.9 322.4 311.5 305.5 323.3 340.8 355 369.4 382.2 394.6 402.8 409.1 410.6 405.2 397.8 391.1 383.9 380.7 376.4 373.2
409.4 404.9 401.9 398.9 394.6 390.9 386.5 382.8 381.4 379.7 378.1 379.6 382.7 384.9 386.5 384.5 381.8 374.8 367.3 357.8 346.6 336.2 332.4 328.3 329.3 331.8 348.1 365.8 383.3 397.4 412.2 427.5 442.6 454.2 461.7 464 465.1 465.8 471.6 476.3 479 481.1 477.6 476.2 475.2 475.1 476.9 479.7 481.9 482.4 481.1 477.7 473.8 468.3 462.2 455.6 447.2 444.3 441.4 440.7 439.6 437.7 435.5 432.4 428.2 424.8 420 410.5 404 404.1 396.5 396.6 386.8 373.1 363.1 358.7 344.6 336.5 327.8 317.7 306.1 289.9 276.8 267.2 261.8 259.1 261.2 266.3 268.1 284.5 308 332.6 357.3 376 386 390.5 389.4 393.2 397 401.2 409.2 419.4 425.5 426.7 426 424.5 420.8 416.7 412.2 406.9 402.9 396.8 391.9 386 384.1 385.5 385.7 385.7 380.5 374.8 365.5 349.5 335.9 322.8 310.8 301.7 286.3 298.5 316.8 335.8 355.6 374.2 391.2 401.6 404.1 406.6 402.7 397.2 394.3 389.1 392.4 397.6 400.2 396.2 374.5 350.8 327 306.8 294.8 314.7 338.7 363.4 384.7 406.7 427.2 439.6 433.7 430.8 424.3 419.3 413.3 399.7 387 375.4 365 355.1 345.1 337 332.3 348.9 359.5 373.7 389.7 404.1 416.5 424.1 414.8 392.7 370.4 349.1 329.3 315.6 305.7 310.3 327 346.2 364.6 382.1 399.4 408.4 414.4 414.4 414.2 405.5 397.9 384.6 372.4 369.6 368.1 366.9
416.3 416.3 412.8 410.4 405.7 398.9 395.4 392 390.5 389.4 389 392.3 394.7 395.4 394.5 392.8 388.6 381.5 374.2 363.5 352.4 342.1 339.2 335.4 337.3 340.6 347.5 367.2 384 398.4 413.3 428.6 442.2 454.6 462.1 465.4 466.8 469.6 475.7 480.3 482.1 485.3 484.7 481.9 480.5 480.7 482.8 486.2 487.8 487.3 484.5 480.7 474.8 469.3 463.7 455.5 451 446.5 443.1 442.5 442 440.5 438.5 435.5 431.4 430.9 428 424.4 417.6 410.4 402.8 395.8 387.5 379.3 368.8 355.6 348.8 345.5 333.9 326.6 321 306.9 288.7 276.3 270.3 267.7 264.8 263.1 270.3 278.6 297.8 320.6 344.7 365.8 379.1 383.6 380.8 386.8 389.9 399.6 410.7 421.4 427.9 427.1 425.2 421.9 418.3 414.9 411.7 407.8 404.6 401.5 396.9 394.3 393 393.1 392.8 392 382.1 370.8 355.9 336.4 323.3 311.5 303.4 288.4 280.6 301.6 319.1 336.3 353.9 371.9 388.1 396.2 398.3 393 393.5 390.2 383.3 377.7 385.2 392.3 399.4 394.3 367.3 342.2 320.3 300.9 290.8 313 336.4 361 388.6 412.3 430 432.6 430.2 424.4 418.3 414.6 405.5 390.4 376.5 365.1 354.9 344.3 335.9 324.6 337.3 351.1 364.9 378.6 397.1 410.7 422.4 424.6 414.6 390.9 368 345.4 325.8 310.6 297.6 311.9 329.1 351.4 371.1 389.3 405.8 419.5 424.7 419.4 411.8 404.3 396.4 383.4 369.2 361.1 360.9 362.7
423.9 422.2 419.1 417.8 414 406.9 405.2 403 401.1 400.4 402.5 405.4 406.8 406.3 404.8 401.6 394.9 386.8 377.8 368 357.2 349.8 344.4 344.6 348.3 349.2 351.4 366.9 382.4 397.8 413.7 429.1 442.7 453.7 462.1 467.8 469.5 472.6 479 483.6 486.7 489.5 489.3 486.8 486.1 486.9 489.1 491.3 491.5 490.3 487.2 482.6 476.5 469.3 464.1 457.5 451.9 448.4 445 443.1 443.2 442.3 440.5 437.7 436.7 435.8 434.1 429 421.6 410.6 404.3 398 393.6 388.9 383.5 378.7 368 357 345.2 332.8 325 316.5 301.1 288 285.1 274.8 268.7 267 269.3 273.7 288.7 310 333.2 358.5 370.5 374.6 370 377.1 388.1 398.9 411.4 421.7 427.4 428.2 424.6 420.2 415.7 411.8 408.9 408 405 402.3 400.1 398.5 397.1 397.4 395.9 389.5 375.6 361 342.8 325.6 311.6 302.2 293.1 277.3 291.5 304.8 321.1 337.1 356 373.2 388.4 396.6 397.3 392.6 384.6 379.7 369.9 368.6 379.6 390.4 399.2 390.2 362.3 335.8 313 295 293.1 314.2 336 362.1 392.3 410.1 421.7 423.1 421.4 412.2 406.6 399.8 391.4 377.6 365.5 354.9 345.1 335.4 325.1 324 337.7 352.5 368.3 388.4 404.2 417.1 426.3 427.6 417.7 393.4 369.4 346.2 323.4 307.9 294.7 310.1 327.4 351.3 373.6 392.8 412.8 428.2 429.8 422.4 410.2 398.7 389.3 377.1 366.8 354.2 355 358.1
427.5 426.1 423.8 423.3 421.7 417.2 415.2 413.9 414.4 411.3 415.5 416.7 417.6 418.7 415.9 410.7 402.2 392.2 382.7 373.6 363.1 354.6 347.7 350.8 357.8 359.8 361.5 364.1 383.1 397.2 412.7 429.6 444 453.5 462 469 472.2 474.5 479.7 484.2 487.3 490.7 493.1 491.4 492.2 493 493.7 494.9 494.1 490.9 488.1 483.2 477.1 470.1 464.6 458.6 452.5 449 445.9 443.1 442.3 442.4 441.6 441.3 440.2 439.4 436.8 431.6 422.1 414.5 408.1 404.3 400.9 398.6 393.4 391.4 382.2 374.7 361.8 350.2 334.1 322.7 313.5 298.3 285.8 279.5 273.6 268.6 268.8 270.9 283.6 299.5 319.3 344.3 358.1 361.7 358.3 374.6 388.9 399.6 412.1 422.3 426.7 426.1 421.2 417.4 413.9 408.8 405.2 405.5 404 402.3 401.4 400.5 398.7 394.8 387.2 377.4 362.8 345.8 331.6 314.6 302.6 293.2 275.3 280.1 298.5 314.6 333 348.7 366.5 379.6 391.4 393.8 391.5 380.9 367.7 361.2 357.5 364.5 378.9 390.6 397.7 382.8 358.1 336.3 311.1 284.9 295.2 316.1 338.9 359.6 377.6 395.5 407.5 410.3 407.7 397.2 389.1 382.3 376.6 367.1 356.4 346.4 338.3 327.8 314.1 327.2 338.4 354 376.8 395.2 410.4 422.6 429.2 430.8 423.4 399.6 373.1 348.8 325 309.2 291.2 305 326.5 350 372.3 394.4 414.8 434.1 431.1 419.3 405.2 389.8 379.1 368.7 360.8 351.6 347.5 351.5
431.9 431.1 428.4 427.5 426.5 424.6 423.2 423.2 424.9 425.9 426.8 429.3 430.6 431.8 427.8 421.1 409.9 398.7 388.2 379.8 370.3 359.6 355.4 359 364.3 368.1 369.9 369.9 384.3 398.8 411.8 427.2 442.5 452 460.6 467.9 472.1 474.3 478.9 484.1 487.3 490 492.6 494.2 495.7 496.2 496.3 496.8 494.1 490.2 486.3 481.9 475.5 469.8 465.5 459.7 453.6 448.9 445.5 443.5 439.9 442 441.1 443.4 443.4 442.4 438.6 433.5 426.1 419.2 416.3 414.4 410.6 411.8 404.6 400.9 394.1 385.6 376.7 366 353.8 342.8 333.2 313.3 296.7 287.6 280.4 271.6 269.3 270.7 274.4 290 309.7 330.9 341.8 345.8 366.1 381.6 392.4 401.2 414.1 421.3 423 422.1 417.5 412.9 407.1 403.1 399.9 400.8 401 400.9 400.7 400.6 398.8 392.6 378.7 362.9 347.4 331.9 319.9 305.9 294.2 278.2 271.2 292.7 311.4 327.7 345.6 359.6 374.4 386.1 391.6 388.9 383.2 366.9 349.7 345.4 350.2 365.2 380.4 394.4 394.6 376.4 355.9 334.1 312.4 286.9 290.3 312.5 332.4 352.9 370.1 387.1 397.4 398.4 391.6 383.5 373.1 365.7 360.9 352.8 345 338.9 330.7 320.9 307.4 324.9 341.8 363.5 385.7 403.3 416.7 426.9 432.1 430.4 419.5 400.7 377.2 354.2 328.1 308.4 296.7 299.6 323.7 346.8 369.5 392.8 411.2 427.6 427.9 411.4 395.7 380.3 369.2 360.7 355.3 347.1 341.4 344.9
437.2 437.3 434.3 432.6 431.4 430.6 433.3 435.1 436.8 437.9 438.2 441.6 443.2 443.2 440.7 429.3 419.3 406.6 393.9 385.8 375.7 366.3 363.6 367.1 373.2 377.3 378.1 381.4 382.2 402.4 415.9 430.2 443.3 451.4 459.8 466 470.7 473.4 477.5 482.7 486.4 490.5 493.7 497.1 498.3 498.2 497.9 497.7 495.1 489.3 483.4 478.1 473.8 468.2 464.8 460.1 453.5 448.6 445.1 442.3 438.2 439.5 440.6 442.9 445.2 444.7 440.1 436.3 430 424.8 423.3 421.6 422.8 419.6 418.1 413.8 404.1 394.9 387.2 376.9 362.6 354.2 342.8 320.8 313.8 303.4 292.5 279.3 269.9 270.7 273.5 280.5 297.2 318.9 339.5 355.7 370.9 383.3 394.5 402.6 413.3 418.5 420.1 416.8 407.7 403.1 399.7 395.8 394.8 395 397.5 398.4 397.6 397.1 392.2 382.5 367.8 347.7 329.6 318.7 307.8 295.8 284 268 285.2 304.6 324.4 341.9 356.6 368 379.9 387.4 387.2 380.7 370 355.1 340.3 333.1 348.4 364.7 379.7 389 386.6 371.1 353.9 330.5 307.2 282.5 286.4 309 329.3 346.2 362.3 377.3 385.5 382.8 374.3 366.2 357.3 349.3 342.5 338.3 333.1 327.9 321.3 312.3 307.2 324.2 343 370.6 392.5 411.5 426.2 433.7 435.9 429.8 411.8 394.1 375 356.6 333.8 308.7 295.9 294.4 317.9 341.3 362.8 387.9 406.7 417.4 413.9 402 384.1 368.9 358.7 351.8 345.6 340.4 334.8 339.1
439.4 441 440 439.1 436.9 437.9 439.7 443.3 446.2 448.9 449.4 452.1 452.5 453.7 451.6 438.8 427.2 413.1 400.9 391.2 382 368.2 371 377.4 380.7 385.2 389 390.9 395.6 401.7 418.4 432.7 444.5 453.4 459.6 465.2 469.2 472.5 476.1 481.3 485.3 490.7 493.9 498 500 500.4 500.2 497.1 490.5 483.6 478.4 473.2 469.2 464.9 461 456.3 451.5 447.5 443.7 438.4 435.8 434.1 438 440.7 445.4 446.6 443.5 439.2 433.9 429.7 430 429.5 429.6 430.3 429.3 425.8 421.9 414.9 397 381.9 376 368.1 356.9 339.8 330.4 314.1 297.1 282.8 272.4 270.4 273.5 276.6 289.9 314 333.5 354.8 369.6 383.3 394.4 402.7 410.8 415.1 412.8 402.6 397.5 394.6 390.9 389 387.9 388.9 391.2 393.3 390 385.2 377.1 366.6 349.6 333.5 318.9 305.4 295.7 286.3 271 265.6 292.6 315.2 333.8 354 369.6 381.7 384.5 383.5 378.8 373.6 360.6 342.5 332.4 326 344.8 362 376.6 388.5 381.9 363.1 347.8 328.1 305.9 281.7 284 306.5 325.3 340.5 356.6 364.8 369.6 366.2 355.9 350.4 344 337.3 331.5 327 321.3 314.9 309.5 299.1 311.4 327.2 350.9 376.9 398.6 420.3 432.7 440.9 438.2 423.4 406.5 388 372.4 354.5 335.6 314.6 295.7 286.4 310.4 333.6 357 379.9 395.2 405.2 400.1 385.8 370.7 356.3 345.4 337.4 330.9 329.3 328.9 335.2
437.6 441.6 444.7 444.1 443.2 445.3 447.4 449.5 453.3 458.1 460 463.9 464.5 463 462.3 448.9 437.7 422.5 406.6 396.6 387.2 374.5 378.6 384.5 389.1 394.5 398.6 402.1 405.9 407.4 421 434.6 446.3 454.3 459.3 462.4 466.2 469.9 474 479.8 484.8 490.8 494.8 498.8 500.7 499.6 497.8 490.7 483.2 477 472.4 468 464.1 459.3 456.1 451.8 447.7 444.3 440.1 434.7 430.6 431.3 429.6 440.3 445 447.4 446.1 442.2 437.4 435.6 435.9 435.1 434.4 434.2 431.8 427.3 422.9 416.7 404.3 390.4 381.9 374.2 365.8 358.1 336.6 325.4 304.2 284.4 272.6 269.7 272.2 274 286 307.4 332.9 355.1 371.6 385.5 394.6 400.1 405.5 402.1 398.8 393 389.1 386.1 383.1 380 377.5 375.3 370.8 365.5 362.7 362.4 361.4 358.5 342.7 326.5 309.1 296.7 287.7 272.1 261.5 279.9 301.7 327.3 352.6 364.2 376 386.4 385.4 378.9 373.5 359.3 347.1 334.2 319.1 323.1 338.4 355.9 373.1 385.1 377.4 357.1 341.8 323.1 304.6 280.6 280.2 302.7 320.9 333.6 345.2 352 350.3 346.9 340.2 336.3 331.4 326.2 321.4 316.1 308.1 301.3 291.7 297.6 314.3 331.6 358.2 383.3 407.5 425.3 440.5 450.7 441 418.2 401.6 385.8 367.6 347.9 331.4 314.4 295.1 280.3 303.9 326.3 350.5 369.9 381.8 390.2 382.4 368.2 353.4 343.5 334.9 323.8 319.4 320 324.1 333.2
434.2 438.5 442.6 446.7 447.8 451.8 454.1 457.2 460.1 465.7 469 472.6 473.5 473.7 468.9 458.5 449.4 432.6 414.5 403.7 388.9 380.6 386.1 391.9 398.5 406.1 413.5 417.4 419.6 418.4 421.7 435.4 446.7 454.7 457.4 459 461.9 465.5 469.7 475.8 480.9 487 492 495.1 493.5 491.4 486.3 481 475.7 471.6 466.2 462 457.2 453 449.5 446.9 443.7 440.6 436.5 431.2 425 423.3 424.6 434.4 443 444.9 444.6 442.7 439 439.1 439.9 440.1 439 436.3 433.1 424.9 417.7 411.4 404.1 394.6 383.4 378 373.5 364.5 354.6 328.8 306.6 289.6 274.3 268.5 269.4 270.5 285.2 304 330.3 356.4 374.1 386 394.5 394.2 392.5 390.8 387.2 383.9 379.9 374.9 372.2 369.7 369.7 371.7 379.4 384.3 390.2 384.6 369.8 354.9 338.6 319 301 287.1 280 258.8 265.6 286.9 312.6 339.1 357.8 369.6 380.3 381.1 374.4 370.7 360.6 349.9 336.6 319.1 304 314.3 330.2 346.6 363.8 380.4 374.2 350.9 331.6 315.4 300 277.7 273.7 295.4 312.6 324.2 334.4 340.6 338.4 332.6 327.1 322 318.2 315.5 310.7 303.4 293.7 287.3 286.9 303.3 318.4 342 364.5 390.4 413.6 435.3 448.4 455.5 444.9 416.4 398.4 380.3 358.5 340.5 326.2 311.6 293.5 278.9 298.8 319.4 341.5 356.2 366.8 368.9 361.2 350 338.5 330.3 321.8 314.6 311.8 313.3 322.4 333.6
428.8 434.8 439.4 445 448.1 453.5 458 461.8 465.6 471.4 474.3 477 478.9 478.2 473.2 467.4 457.1 440 422.8 409.3 395.2 387.8 395.1 400.9 408.4 418 425.7 429.4 430.4 429 419.5 436 447.7 453.5 454.3 452.3 454.5 457.5 462.4 467.7 472.5 477.9 481.6 482.3 482.1 481.6 478.6 475.2 471.2 466.4 459.5 454.1 449.4 446.2 444.6 441.9 438.8 435.7 431.5 426.6 420.1 413.7 420.5 429.9 437.9 440.4 441.8 439.8 436.7 441.6 441.7 441.8 440 436.9 432.3 423.2 416.7 409.4 402.7 395.5 392.8 389.4 381.5 373.1 362.6 333.3 310.8 292.3 276.5 269 267.3 270.7 285.9 305.3 331.6 356.6 375.3 384.7 390.2 390.8 389.2 382.3 378 375.5 369.4 364.7 361.8 363.3 373.6 384.8 393.4 399.2 395 385.6 367.8 352.1 333.8 312.8 296.8 283.8 267.8 256.2 273.8 295.1 318.3 346.8 362 365.3 364.3 362.2 360.3 356 349.3 339.8 327.8 315.1 296 304 322 338 356.4 375 376.3 349.9 329.7 313 295.1 278.7 266.3 285.9 297.6 313.2 321.1 326.5 324.3 319.5 314.1 309.8 307.1 304.4 298.2 289.2 280.3 276.4 296 307.8 324.2 349.7 372.3 397.2 420.6 439.6 447.8 451.8 439.1 415.5 395.1 378.5 358.6 338.6 321.6 308.8 286.1 273.2 291.7 310.4 328.9 342.6 348.8 348.4 341.5 332.3 324.4 319.5 312.8 305.8 306.4 315.4 325.8 335.3
423.3 429.5 435.7 442 446.8 451.7 456.8 462.1 470.2 477.4 481.1 483.6 484.5 482.8 479.4 472 462.9 450.6 429.8 414.1 401.5 395 406 413 420 429.4 436 440.1 440.5 439.4 435.2 425.1 446.7 451.6 448.9 444.8 446.7 450 454.5 458.7 463.5 467.5 471 473.7 473.3 473 472.6 469.4 465.1 459.4 452.7 445.9 441.9 440.6 438.6 436.1 433.2 429.9 425.7 420.4 414.6 406.7 413.7 421.6 431.8 433.9 434.2 434.2 437.3 440.2 442 442.5 439.8 436.1 427.2 422.2 416.4 411 405.6 400.7 398.4 395.9 392.8 383.8 368.3 340.3 318.3 294.6 278.8 269.7 267 268.6 288.1 308.3 331.2 352.1 369 378 380.3 382.7 382.1 378.6 372.5 365.3 359.5 355 350.3 362.7 376.7 389.4 399.1 401.5 388.1 379.8 363.2 346 328.2 306.7 289.6 277.3 256.8 264.7 285.5 307.2 325.6 343.7 352 351.4 349.9 348.5 343.1 340.8 333.9 325.1 315.4 305.1 292.7 293.7 317.1 332.1 353 373 378.2 355.8 333.6 318.3 298.3 281.8 261.3 272.3 281.6 295 304.5 311.1 309.8 305.4 300.5 297.8 295.5 293.2 286.1 277.3 268.2 288.2 299.9 312.9 336.9 356 378.7 402.2 424 437.4 443.8 439.2 431.8 411.6 394 374.4 358.8 338.8 316.2 304.2 287.1 269.1 282.1 301.1 316.1 327.4 331.7 331 324.4 319.7 316 311.4 303.9 300.9 312.2 322.8 333.5 340.9
420.1 428 435.8 442.1 446.9 451.2 456 462 472 481.5 486.6 488.8 489.9 488.9 484 476 467.5 457.3 438.8 422.8 409.7 406.2 418.3 426 432.2 441.2 446.2 448.1 448.2 447 445.7 428.9 434.7 443.2 442.2 431.8 435.5 440.7 443.9 449.6 454.7 458.8 462.8 465.9 465.6 465.8 465.6 463 457.7 450.7 443.8 436.7 433.7 432 431.5 429.5 426.3 422.6 418.8 413.3 406.7 397.7 408.5 416.8 425.4 427.5 429 431.6 435 438.4 440.6 441.3 437.3 431.5 426.2 421.7 418.6 414.7 411.5 407.4 404.4 403 399.8 389.7 372.7 344.4 320.8 299.5 281.1 269.8 266.5 269.4 286.8 308.1 329.7 348.8 365.9 371.2 373.7 375.9 373 368.8 362.2 354.8 349.2 337.1 349.6 361.6 376.5 391.1 397.8 396.4 383.9 371.8 353.9 338.5 318.6 299.3 282 268.6 253.4 275.7 300.3 318.7 330.2 329.3 322.4 317.8 322.8 325.8 322.3 316.2 312.7 307.7 301.5 290.6 284.8 290.3 310.5 324.7 351.2 370.8 370.6 356.9 338.6 319.6 302.1 283.9 261.8 257.2 264.9 277.3 288.9 294.7 293.1 290.7 288.5 286.2 282.9 280.3 274.8 263.8 277.5 291.6 303.2 325.2 342.6 363.7 381.2 400.9 416.2 422.2 424.7 426.3 415.7 402 384.6 367.4 355 340.6 321 300 287.9 268.1 276.7 290.2 303.1 314.9 319 318.3 312.3 310.3 306.9 297.4 295.4 305.6 318.7 330.6 341.3 345.6
421.3 430.3 438 442.7 447.7 452.1 456.8 463 472.9 481 486.3 488.4 490.3 489.7 486.5 479.4 471.9 463.5 447.4 430.4 417.5 414.8 428.9 436.7 445 452.5 457 457.3 455.4 452.4 451.3 442.2 414.2 425.7 416.3 419.3 423.8 429 435.2 440.6 447 451.9 455.9 458.6 458.5 458.6 457.8 455.5 448.8 441.5 432.2 426.3 424.7 424.1 424.1 421.2 417.7 414.9 411.2 405.1 397.2 393.1 405.2 412.3 419 422.3 425 424.9 428.7 435.4 436.6 435.4 431.1 428.3 425.4 421.2 419.4 417.6 416.4 415.7 412.5 407.8 400.8 390.7 374.1 349.8 322.7 300.5 286 269.5 266.3 265.9 280.9 301 320.8 337.3 354.5 360.6 365.9 366.8 363.6 356.9 348.2 343.4 334.5 320.8 345.6 361.3 375.4 388.7 391.6 384.5 372.8 356.9 340.8 326.2 307.6 292 276.5 259.6 256.5 284.7 308.8 312.8 306.3 301.9 297.7 297.3 298.2 301.4 298.1 295.7 294.4 288.6 284.1 279 276.7 280.3 301.3 321.1 345.5 357.6 357.3 350.2 338.4 318.4 307.4 290.5 272.6 255.4 253.9 266.3 274.8 278.3 278.2 277.9 277.8 276.6 273.4 269.9 265.1 263.4 280.4 298 315.1 330.2 349.1 364.7 378 392.5 403.8 405.6 405.1 405.8 398 390.8 375 361.6 350.1 337.7 324.1 307.5 289.2 266.6 274.6 288 295.6 300.1 305 307.2 306.2 303.1 293 289.9 299 311.2 325.4 338.3 345.5 347.9
419.9 431.2 440.2 445.4 450.1 453.8 459.1 465.1 472.4 479.5 485 487.3 489.4 490.3 490 486.4 479.8 470.6 458.4 439.1 428.1 423.4 438.9 447 456.1 463.6 467.7 465.5 460.2 454.4 449.2 442.4 423.2 404.8 400.7 409.4 413.5 418.9 426.9 434.1 440.7 447 451.1 452.9 452.9 451.9 449.7 445.1 438.2 430.7 423 415.7 410.3 411.6 414.3 412.6 409.2 405.6 401.6 396.5 386.3 386.2 401 408.7 414.1 419.3 423.6 422.9 424.3 426.8 426 422.7 422.8 422.9 422.9 421.2 420.6 420 419.5 418.6 414.9 409.1 400.1 391 374.4 352.8 325.8 302 282.4 271.8 266.3 264.4 273.4 293.9 312.4 326.3 336.3 346.1 352.6 354.5 352.8 343.1 334.3 320.8 315.7 320.5 343.7 360.4 375.7 387.4 386.4 381 363.7 346.2 329 312.2 298.9 284.8 273.4 255.7 263 289.3 304 293.2 286.7 282.3 280.6 277.8 276.5 277.3 278.8 277.8 278.6 273.5 269.3 268.2 263.3 275.6 295.6 314.4 333 338.8 334.6 328.3 319.1 308.6 302.5 291.4 275.7 261.4 246.2 252.6 260.8 263.1 265.7 267.2 268.1 268.3 264.4 256.5 250 270.4 285.9 303.5 322.2 334.4 349.7 360.9 370.8 378.1 383.7 383.7 384.8 385.4 384.9 374.9 360.8 350.4 340.3 331.4 322.1 310.9 296.5 278.2 259.6 280.2 290.2 294.2 297.2 298.8 297.6 294.6 284.1 294.3 305.7 319.7 333 344 349.6 349.8
419.7 431.4 440.3 447.4 453.2 456.4 458.3 462.6 469.6 474.3 482.2 487 487 487.2 489 488.1 484.5 478.1 467.5 451.6 439.8 434.3 444.7 453.3 460.7 469.8 473.9 468.7 461 455.2 447.5 434.6 427.5 409.9 396.4 399.5 403.6 409.2 417 425.4 434.1 441.5 446.5 449.4 448.7 446.3 442.6 436.3 427.5 420.5 412.1 405.2 394.6 397.4 401.5 399.9 398.2 393.2 389.8 386.1 376.6 381.6 397.8 406.6 412.9 418.3 420.8 419.9 420.3 420.8 418.3 415.6 415.5 417.6 418.5 419.8 420.2 420.8 420.8 418.5 413.9 409.2 399.2 391.4 373.4 353.7 330.4 306.2 283.8 271.1 266 264.1 268.7 282.4 296.7 309.8 319.5 331.4 335.6 339.9 339.3 325 318.8 311.1 298.7 323.3 346.3 364.3 380.5 389.2 387.1 373.5 357.3 338.5 319.7 303.5 290.6 278.7 268 250.7 264.9 282 279.7 275.9 271.6 265 261 257.3 257 256.3 257.9 260.1 261.1 259.3 255.7 255.1 261.7 272.1 284.1 301 313 316.1 314.3 307.7 302.5 296.5 291 283 271.7 262.8 253.6 242.2 249.7 251.1 253.9 258.4 262.2 258.8 246.4 246.4 259 273 289.6 307.9 321.3 334.5 344.6 353.1 361.2 368.3 368.8 370.4 372.8 371.6 367 359 347.6 341.9 333.4 323.8 315.8 310.1 301.8 288.3 269.1 262.4 278.5 288.4 284.3 281.8 282.4 277.2 289 301.5 314.1 327.7 338.8 348.4 351.6 349.7
415.7 428.5 440.4 448.1 452.1 455 457.5 459.7 464.5 468 476.1 478.8 480.4 482.2 485.1 485.1 481.8 479.2 473.8 464.1 451.4 442.7 451.8 458.8 465.5 470.5 472.3 467.4 460.2 454.4 445.6 428 426 416.1 397.6 393.2 396.1 393.9 407 421.6 430.1 438.3 444.1 445.8 445.1 439.9 434.1 427.6 420.1 411.6 402.7 395.9 384.8 383.7 385.7 385.1 382.3 378.4 374.9 372.9 364.4 378.8 393.4 403.7 410.7 414.3 415.5 414.4 415.9 410.1 406.5 406.6 408 411.1 414.1 416.7 418.1 416.2 415.5 413.2 411 405.9 398.9 388 372.7 355.5 335.7 312.9 287.3 270.5 265.8 263.5 262.6 269.8 282 290.9 302.6 313.9 321.7 323.7 318.6 308 302.6 297.4 296.8 330.8 352.3 368.9 380.7 384.7 374.5 368.4 353.5 332.6 313 297.6 284.2 273.6 264.3 247.9 251.1 259.3 258.1 254.7 252.2 249.7 244.4 241 240.7 243.9 244.1 245.5 244.9 240.8 242.4 245.6 250 262 272.2 282.7 289.2 295 297.1 296.1 291.1 286.4 282.8 276.1 266.2 262.9 254.1 244.7 242 242.2 245.6 249 252.6 239.2 246.7 260.6 272.5 281.3 288.6 302.7 316.5 325.6 333.5 342.6 353 354.1 356 355.7 359.1 358.6 351.9 344.5 336.7 331.9 325.2 317.6 309.5 301.3 296.3 289.8 280.5 254.7 261.2 272.5 262.8 269.3 275.6 286.8 298.8 310.3 323.3 334.8 343.7 346.8 347.5 346.9
410.3 425.6 436.7 443.7 449.2 452.5 455.6 457.7 460.3 462.1 468.2 472.5 474.9 477.1 479.2 479.8 478.4 475.6 473.6 468.3 454.8 445.4 458 463.8 470 469.8 467.1 464 458.5 451.9 441 432.6 420.6 416 409.3 388 376.1 375.6 396.8 416.6 428.2 435.7 439.9 442.4 439.9 435.5 429.6 422.4 414.3 403 392.9 386.1 378.3 362.7 367.3 368.1 365.2 359.4 357.5 352.8 359.1 379.3 394.4 403.4 405.9 408.7 408 392.2 397.7 396.5 392.7 394.2 397.6 402.1 408 414.9 419.5 421.2 418.1 413 410.4 405.1 394.4 381 369.2 353.3 338 319.5 295.7 275.8 267.2 263.9 260.5 262.4 267.3 276.8 283.1 290.5 297.9 307.4 301.5 298 292.7 280.9 310.2 334.9 349.7 361.8 367.5 369 365.6 355.2 337 319.6 304.8 290.3 277 267.6 260.8 257.2 243.1 244.6 243.7 244.3 240.1 238.7 237.2 236.3 235.5 235.9 235.7 234.7 231.2 231.1 233 234.9 237.4 242.8 252.3 263.5 267.4 275.3 279.8 282.8 281.9 279.1 274.1 266.8 260.3 256.8 248.6 238.5 233.9 234.1 236.6 240.7 243.9 230.5 253.5 269.8 275.8 279.8 283.7 294.8 306.3 315.1 321.9 331.1 341.1 344.2 344.3 344.5 346.7 347 340.7 333.6 327.1 320.9 315.9 311.7 304 296.2 288.2 283 279.1 273.5 248.8 258 269.8 281.9 290.2 298.4 305.4 317.1 332.2 337.9 341.6 341.1 340.9 340.2
405.7 419.5 432 441.4 445.5 448 451.4 454.6 456 455.2 460.2 465 468.2 471.7 475.1 478.9 477 473.5 470.3 467.6 454.7 447.1 461.7 468.7 471 468.7 465.1 460.7 456.2 447 438.1 431 425.1 418.2 407.9 400.4 385 365.9 386.1 406.4 421.8 430.7 435.5 437.6 435.6 431.2 426.4 420.1 411.6 399.1 385.3 372.3 367.8 358.4 348.5 347.3 343.5 335.3 347.4 363.9 375.8 388.5 396.2 401.3 400.7 396.8 390.7 377.7 379.8 376.7 377.4 380.9 386.1 396.6 404.7 413.8 419.6 420.4 414.8 406 400.4 394.6 382 374.9 366.2 352.6 338.2 322.9 305.4 289.4 270.5 265.4 261.6 260.9 261.2 265.3 269.3 274.4 282.7 285.1 288.2 287.5 279 282.8 311 323.1 332.9 339.6 342.3 337.8 329.7 321.6 313.3 303.7 293 278.4 271.1 265.3 258.4 257.3 254.5 237.5 241 240.7 238.2 237.8 236.6 233.9 234.2 233.9 233.2 232.2 231.5 231.3 230.8 231.3 230.5 230 231.8 236.5 248.8 258.3 267.2 270.4 267.9 264.5 259.1 253.8 247.1 238.8 234.6 232.2 226.8 230.5 229.2 229.9 230.4 238 256.6 268.5 277.2 274.3 277.9 285.8 295.8 303.4 310.5 319.6 327.4 332.7 335.2 334.6 335.7 333 328 323.1 317.6 311.6 307 303.1 295.8 287.5 281.2 276.2 272.4 264.1 249 263.1 275.2 287 297.5 307.2 315.8 323.2 331.7 336.6 339.2 337.1 335.2 333.6
399.3 409.1 422.3 433.3 443.6 444.3 446.3 448.5 449.3 450.1 453.2 457.6 461.4 465.1 468.8 472.4 472 471.2 470.1 467.4 456.1 447.7 462.2 463 464.1 463.4 459.7 455 449.8 442.6 435.2 429 426.3 421.2 413.8 394.9 385.6 361 373.5 394.3 407.2 421.6 432.1 434.3 432.9 430.1 426.1 418.4 410.4 397.7 384.1 365.6 354.5 348.2 336.2 325.2 333 351 365.8 376 382.9 387 390 394.1 392.7 387.4 378.8 363.1 358.1 359.1 361.3 363.3 376.8 392.1 405.1 409 411 411.8 405.7 400.2 395.3 385.2 378.7 372.6 363.1 350.4 337.2 322.4 303.6 295.5 281.3 270 261 257.1 257.2 255.8 259.1 263.8 266.3 267.6 269 268.1 264.2 285.7 294.7 301.5 307.5 306.5 307.9 303.2 296.3 291.6 288.5 284 277.7 269 262.5 258.8 254.4 249.1 242.5 236.8 237.3 238.8 236.5 234.2 232.8 233 232.9 231.2 231.5 230.2 229.7 230.7 228.4 229 229.3 228.4 227.8 227.1 225.8 236.9 248.7 249.8 249 246.5 240 233.9 230.6 230.2 227 225.5 223.6 225.5 225 224.1 222.6 232.1 248.7 257.1 252.9 264.6 270.8 278.8 284.8 295 308.1 317.1 323.1 324.8 325 324.5 322.2 320.1 315.4 312.1 306.7 301.8 295.9 289.8 284.8 278.9 272.6 267.9 263.3 259.4 249.9 267.6 277.9 289.2 301.4 311.8 319.3 324 328.2 332.7 335.5 335.1 333.5 332.3
390.3 400.1 406.9 420.5 430.1 431.4 435 439.8 441.6 445 447.9 452.4 456.7 460.6 464.4 467.7 468.3 468.3 467.1 466.1 452.2 446.3 458.6 458.6 458.2 456 452.2 446.7 443.7 440.1 433.6 428.4 427.4 422.2 415.4 403.9 383.7 361.2 366.5 382.2 397.5 413.2 426.7 432.4 431.6 429.9 426.9 420 410.2 398.8 382.6 365 347.5 332.8 331.4 318 339.8 361.1 367.9 364.7 363.2 366 365.8 369.8 372.7 375.4 366.9 349.1 339.8 338.9 354.7 366.2 380.1 392.1 399.8 401.9 400.9 399.2 398 394.6 386.1 378.3 370.5 365.4 355.6 342.6 331.4 330.6 321.7 310.1 297.7 287.2 271.9 261.4 254.9 253.9 253 253.6 258.7 260.6 259.4 259.9 259.9 269.1 275.2 278 279.3 277.9 276.9 275.5 272.8 269.5 268.2 266 262.3 258.9 255.1 248.5 239.2 236.9 236.4 236.6 236.3 235 233.6 235.9 238.6 237.1 240.1 239.4 239.8 237 234.4 231.6 230.4 228.9 228.1 227.6 228.1 227.9 226.9 225.5 225.6 231.3 232.1 229.1 228.7 228.7 227.3 223.9 223.7 222.5 222.1 220.9 220.2 218.7 220.2 223.5 229.9 242.6 245.4 253.1 261.4 271.4 283.2 295.6 308.1 314.5 318.1 318.8 316 314.2 312 307.2 304.3 301.5 296.2 290.8 285.9 276.7 273.2 268.2 264.1 259.7 255.2 248 247.8 268.2 282.1 294.7 306.1 315 319.6 323.4 324.2 327.6 331.3 331.9 330.9 331.1
380.1 391 395.7 403.2 415.8 420.9 427.3 430.3 434.1 437.8 441.6 447.4 452.6 456.5 461.2 465.3 465.4 461.8 463.7 458.6 448 438.6 451.4 452.6 450.8 449.5 447.3 444.6 440.9 436.5 431.8 427.4 424.1 420.6 413.8 402.9 382.6 361.6 356.8 368.4 387.6 404.2 420.5 429 430.9 431 428.8 423.9 415.1 404.8 386.1 363.9 347.6 332.3 315.8 318.2 336.1 344 343.7 338.9 342.2 345.2 343.4 344.9 353.8 364.4 363.1 340.9 325.1 344.4 358.7 371.9 383.3 391.9 393.8 392.5 392.1 392.6 393.2 382.4 371.4 365.6 360.3 354.1 357.5 356.2 352.1 345.6 337.9 330.4 318.3 306.1 289 276 264.8 256.3 253.2 253.1 251.6 252 254.1 255.4 255.7 254.4 256.5 257.5 256 256.2 256 255.9 254.9 254.9 256.9 256.3 251.7 243.5 239.5 239.1 237.2 238.1 237.9 239.4 244.4 246.9 249.5 251.9 256.4 259.2 261.9 263.2 261.8 257.9 255.3 252.3 249 248.1 242.6 233.6 227 227.8 227.5 227.2 225.9 224.7 225.4 225 224.4 224.8 224.1 223.6 222.5 219.7 222.3 221.2 221.6 219.8 218.6 217.9 221 227.9 234 242 256.1 269.4 281.5 293.9 303.9 307.9 310.4 309 307.8 304.4 301.1 298.8 295 292.1 287.1 281.1 274.5 267.6 261.7 259 255.6 253.7 249.1 241.6 256.5 273.2 284.9 299.2 309.2 315.2 318.4 319.9 321.3 324.6 328 328.8 329 328.6
359.5 375.5 385.1 393.8 398 407.7 413.7 417.2 419.4 422.9 427.4 436.2 445.8 449.2 458.3 462.5 458.2 452.8 450.7 449.1 441.5 433.6 442.7 443.5 443.5 442.3 440.9 440.7 439 434.3 427.4 424.6 421.6 417.7 411.9 397.6 379.7 362.6 347.3 355.5 375.1 393.9 410.4 425.2 431.5 433.5 429.1 425.1 418.2 406.9 388.4 365.2 344.9 329 315.5 309.3 323.5 325.3 321.3 318.1 318.2 320.3 320.1 324.3 338.1 349.4 350.2 328 322.2 346.2 361.5 371.1 380.9 389.3 393.3 398.4 401 397 392.5 384.1 381 384 382.3 381.6 377.9 373.9 368.3 357.6 348.2 342.4 333.9 322.6 306.5 292.1 279.2 266.1 259.3 255.5 253.2 250.4 251.4 252.4 251.2 250.9 249.9 247.2 246.1 245.4 245.1 244.3 241.8 241.3 241.2 240.2 238.9 238.3 239.4 238.7 238.1 242.1 253.6 259.5 265.8 267.3 269.8 272.3 276.8 276.3 276.1 274.3 272.9 268.2 262.8 256.5 251 249.6 248.1 245.4 241.4 232.8 228 228 227.4 226.7 225.6 224.8 224.6 222.4 220.4 226.1 233.2 236 231.9 227.3 222.3 220.2 219.1 218.6 219.5 221.8 222.8 237 249.4 264 280.5 292.1 298.9 300.5 302.8 301.5 300.4 296.5 294.6 291.4 287.3 283.6 277.9 272.1 265.8 257.4 253.1 250.9 250.3 247.4 236.8 247.8 268.1 279 290.9 302.3 308.5 313.7 317.5 318.3 318.8 321.8 325.2 325.9 325.1 324.5
367.4 356.2 368.6 376.3 382.8 394.2 405.9 409.3 410.6 412.5 417.8 424.3 433.1 434.9 440.1 445.1 443.4 442 441.4 439.5 433.4 429.4 436.8 436.7 431.8 433.6 434.6 436.1 435.2 432.3 428.3 424.1 422.1 418.5 412.4 402.3 388.2 370.3 352 345.2 363.6 382.7 400.6 417.2 427.6 429.6 428.3 425.8 418.1 406.2 386.9 364.3 343.9 330.2 315.9 298.5 307.5 308.9 304 301.7 299.5 301.1 304.7 310.2 318.8 329 335.9 320.2 313.3 333.9 345.4 353.6 365.8 380.4 393.1 402.7 407.3 409.4 407.8 404.6 398.9 394.9 394.6 393.2 388.9 380.6 373.7 367 353.7 345.6 338.1 329.8 316.6 303.5 290.8 278.3 263.8 259.2 263.4 258.3 250 249.3 248.4 247.9 247.5 245.9 245.8 246.3 243 241.6 240.3 240.2 241.5 240.7 240.2 239.5 241.4 246.2 254.5 264.5 276.3 283.7 288 286.4 287 286.8 288 287.8 282.7 277.6 272.2 267.7 261.5 254.9 250.3 248.6 249.8 248.4 242.5 232.1 229.1 228.6 229.3 229.2 231.4 233.9 238 241.9 246.1 250.9 257.8 260.9 254.5 241.7 228 222.3 219.5 218.5 216.6 219.1 220.7 227 241 255 272.5 283.3 288.7 292.3 294.1 296.5 293.8 290.5 288.4 285.1 280.6 274.8 268.7 262.7 255.7 250.2 247.3 245.8 246.6 239.2 234.2 257.4 275.9 285.6 295.8 304.4 309.3 312.7 315.6 315.8 316 319.1 322.6 323.3 323.2 324.4
367.9 358.3 351.4 359.3 365.9 373 391.7 395.3 400.2 402.4 409.7 415.2 420.8 426.9 431.5 435 434.7 431.4 430 429 423.9 420.6 426.9 426 424.1 425.2 429.4 432.9 433.9 436.6 433.8 427.2 424.7 421.3 418.5 411.9 393.3 375.9 354.2 337.3 354.7 373.6 392 408.4 421.5 424.8 424 422.7 415.9 400.8 380.8 359.9 342.1 329.2 313.6 301.4 292.9 292.9 292.9 292.9 292.9 292.9 292.9 292.9 302.4 314 322.5 313 302.8 321.5 331 338.7 354.6 370.7 390.5 401.6 408.5 410.7 410.7 409.3 405.4 402 398.7 395.8 391.9 386.6 380.7 369.9 360.5 350.1 340.4 329.7 320.4 309.4 296.9 282.6 271 260.6 259.7 262.2 258.6 258.6 251.6 256.3 254.3 249.4 245.7 241.4 244.6 244.2 244.5 249 247.9 249.6 247.2 249.6 256.6 265.2 276.4 287.4 297.7 305.8 307.9 305.2 300.8 299 293.8 290 284 274.1 267.6 263.2 255.2 251.9 250.5 244.8 246.6 242.3 232.9 232 239.7 240.7 239.4 241.6 243 246.7 256.2 262.8 273 279.9 279.8 277 269.2 258.9 241.1 225.2 220.9 218.2 217.4 219.2 219.6 221.8 231.8 242.4 257.6 265.7 278.9 284.5 288.4 290.4 288 286.8 283.8 279.6 274.8 269.3 261.7 255.6 246.6 242.9 241.5 244 233.7 231.9 253.9 269.6 279.1 286.3 296.2 303.7 307.7 310.2 311.6 312.2 312.3 316.4 320 320.7 321.4 322.8
373.8 367.4 357.9 349.5 348.5 355.5 371.9 382.4 388.4 394.3 401.1 407.3 413 417.8 421.1 423.7 422.4 422.9 419.3 418.2 410.8 415.4 418.2 419 417.9 419 423.1 430.6 433.6 438.3 438.3 433.3 428.5 424.1 422.4 418.6 401.1 381 358.9 329.5 346.2 363 381.9 398.9 414 420.3 418.6 412.1 400.6 384.4 366.4 351 334.3 320.2 310.2 298.8 292.9 292.9 292.9 292.9 292.9 292.9 292.9 292.9 292.9 293.4 304.1 305.7 292.9 310.7 318.6 336.6 357 377 390.5 402 406.9 409.4 410.6 410.2 409.4 407.9 406 402.5 398.1 391.1 385.4 374.3 363.4 354.3 337.5 328 320.5 309.9 296 284.2 274.2 261.5 258 257.8 258.1 251.4 246.9 246.1 245.8 247.8 251.4 251 251.6 252.8 254 256.2 252.5 254.8 258.3 266.4 276.1 285.2 297.1 307.9 321 327.5 327.3 321.6 312.5 301.6 297.2 290 275.3 263.2 255.1 251 247.3 243.2 238.4 235.2 234.7 233.8 234.4 246.9 248.2 248.7 251.2 253.2 258.2 267.3 275 283.6 290.7 294.6 291.9 288.2 281.8 270.5 258.5 235.5 223.7 219.7 217.5 216.3 217.9 218.2 221.3 231.3 242.9 252.3 261.8 268.6 276.2 280.6 281.2 282.2 279.2 274 270.3 265.9 258.1 248.2 240.2 237.4 238.3 228.3 232 253.2 265.7 273 277.8 282.6 291.7 299.9 303.5 305.3 307 308.2 308.6 313.5 317.4 317.7 318.2 319.1
381.3 371 363.2 352.7 342.7 350.3 357.5 368.1 372.1 384.6 393.5 399.7 404.7 408.9 412 415.8 415.9 413.9 410.6 405.2 398 405.8 408.2 409.1 408.2 411 418.9 427.9 434.3 437.9 438.2 432.2 429.9 427 426.6 421.5 408 388.3 364.4 331.3 338.1 351.2 368.9 388.1 405.2 411.4 408.4 393.6 375.6 361.3 348.9 334.5 319.6 307.9 297.5 292.9 292.9 292.9 292.9 292.9 292.9 292.9 292.9 292.9 292.9 292.9 292.9 292.9 292.9 301.7 320 336.9 358.1 378 390 399.9 404.3 407.5 409.7 406.6 405.8 404.6 405.2 404.4 404.9 395.6 390.1 376.1 364.7 350.2 331 320.5 311.9 302.4 290 279.7 272.6 265 259.5 249.2 248.8 250 253.7 256.2 259.9 260.9 259.3 259.1 259.4 259.9 260.2 262.1 262 263.2 272.8 282.5 292.6 305.9 319.3 331.5 341 345.1 338.1 326.5 313.5 303.8 295.7 281.8 266.8 254.6 248.8 243.9 239.4 240.4 241.4 244.3 244.9 245.2 251 251 254 256.7 259 264.6 271.5 280.8 286.3 290.3 293.3 293.8 291.3 286.6 281 271 261.6 247.7 228.7 223.7 220.9 217.1 215.7 216.1 216.4 218.8 228.5 241.5 246.3 253.9 262.6 265.6 271.4 273.2 274.5 269.7 266.1 259.5 252.8 242.6 234.3 231.9 224.2 225.7 247.3 259.1 268.2 273.7 275.9 279.5 284.9 292.4 296.8 299.3 301.1 303.1 306.5 310.6 314.7 315.2 315.6 315.8
392.8 379.5 369.2 354.8 347 334.6 344.5 355.1 362.3 371.7 386 394.6 401.1 404.4 406.4 407.1 407.7 406 401.4 392.4 386.4 396.3 396.7 398.5 395.9 399.1 413.2 422.9 432.2 436 433.2 426.4 426.6 423.4 421.3 415.3 407.4 391.7 367.9 334.3 329.5 343.7 357.5 373.5 391.7 393.3 384 372.6 356.8 341.2 328.1 314.5 299.9 292.9 292.9 292.9 292.9 292.9 292.9 292.9 292.9 292.9 292.9 292.9 292.9 292.9 292.9 292.9 292.9 292.9 309.3 329.7 349.3 367 381.8 390.9 397.5 403.1 406.3 405.2 405.3 405.4 402.6 402.1 402.2 398.5 383.2 370.8 359.2 340.7 323.1 311 300.5 290.7 277.7 274.1 268.3 262.8 249.6 250.6 255.4 262.8 273.8 278.5 278.1 278.6 278.8 277.8 276.6 275.8 275.8 276.4 275.5 271.4 283.8 296.4 309.6 325.2 339.3 351.7 358.8 353.9 339.6 324.5 311 301 290.4 275.6 258.9 251 243.2 241.6 241.5 250.4 260.1 262.3 260 259.4 257.9 256.9 259.7 262.2 266.5 272.9 279.2 283.7 288.5 291.3 290.6 286.9 283.9 277.8 270.7 264.7 253.5 241.1 236.7 234.3 230.7 226.9 221 216.7 213.7 215.1 218.5 221.4 236.6 242.9 246.9 253.3 260.4 264.4 265.8 265.3 262.1 256.2 247.4 238.1 232.9 227.4 222 243 248.5 260.3 269.1 274.1 275.7 277.1 279.6 284.7 287 290.4 294.1 295.2 304.5 308.6 311.9 313.5 314.8 313.5
404.6 384 372.3 361.3 347.7 334.6 338.7 344.5 352.1 358.9 374.2 387.7 394.4 399.3 402.3 402.7 401.5 399.2 394.6 382.8 379.2 385.8 387.8 385.1 380.6 390.9 402.5 412.3 421.4 427.9 427.1 420.9 419.3 418.8 415.3 409.6 403.5 390.7 368.3 344.9 315.6 331 343.1 358.9 369 369.5 365.6 357.7 343.7 330 313.2 295.1 292.9 292.9 292.9 297.6 303.4 304.8 298.8 292.9 292.9 292.9 292.9 292.9 292.9 292.9 292.9 292.9 292.9 292.9 292.9 312.5 331.3 351.4 365.2 378.9 389.3 397.4 400.3 402.4 402.9 402.7 397.9 396 390.6 382.5 372.8 361.9 350.3 326.6 310.2 297.2 288 280.2 274.3 269.1 257.6 252.1 253 259.6 272.1 291.5 303.2 307.7 306.2 304.6 303.4 300.7 299.2 296.2 294.2 291.3 289.7 284.3 294 308.2 324 341.8 357 368.8 371.1 353.4 335.9 320.2 305.8 293.8 281.8 267.6 257 249.4 244.2 244.5 255.2 268.9 270.4 272.1 271.3 268.7 265.8 263.2 266.3 270.8 274.9 279.6 281.6 283.6 287.8 287 283 278.3 273.4 268.4 260.5 253.7 254.8 246.5 244.3 242.6 239.9 233.9 227.6 222.8 217 214.2 213.2 214.2 220.6 231.6 237.7 242.2 249.4 256.5 259.1 258.1 257.3 251.8 245 236.8 230.3 222.8 223 233.1 246.1 258.7 268.6 274.3 275.1 275.4 274.6 275.6 279 281.6 283.5 295.5 303.4 307.9 310.9 312.9 313.9 313.2
408.7 389.6 372.8 364.7 351.3 334.6 334.6 334.6 335.7 348.2 358.9 375.3 384.6 389.8 393.4 394.3 393.6 390.2 383.3 370.9 369.4 373.6 373.6 371.4 371.7 380.9 390.9 399.3 406.6 411.3 413.1 411.6 413.2 411.4 412.2 408.7 402.5 384.7 371.2 349.9 326.6 320.5 330.7 340.8 347.4 345.7 340.4 335.6 326 313.2 297.7 292.9 292.9 292.9 300.4 314 321.3 319.8 317.3 303.9 298.2 296.2 292.9 292.9 292.9 292.9 292.9 292.9 292.9 292.9 292.9 292.9 314.4 329.4 348.6 366.7 377.7 387.6 392.3 396.6 398.9 392.5 389.1 384.3 378.9 372.2 360.3 349.3 332.7 313 295.8 282.9 276.1 273.3 269.9 263.9 252.6 252.2 261.2 278.5 295.9 315.6 327.9 334.3 332.8 328 325.5 322.6 320.5 317.1 311.6 305 299.7 296.6 303.6 319 338.4 357.6 374 381.9 375.6 352.5 333.3 316.9 303.1 289.2 275.2 263.4 257.7 247.5 246.6 257.6 274 277.8 280.9 282.9 281.6 278.4 274.7 270.6 272.2 278.9 281.5 282 282.8 282.4 282.7 279.1 275.4 270.8 265.3 259.5 259.8 262.1 256.7 253.4 247.8 243.3 243.1 243.3 235.2 233.4 224.2 219.7 215.1 212.7 212.8 216.6 224.7 231.8 238.5 244.7 247.1 248.3 248.5 244.9 241.2 234.1 226.5 219.4 224.4 229.2 244.3 258.6 269.1 273.5 274.2 273.3 271 268.8 271.4 275.3 285.5 297.2 306.7 310 311.4 312.8 313.4 313.8
398.5 388.4 374.3 359.5 352.3 340.2 334.6 334.6 334.6 335.7 344.8 363.5 375.6 381.9 383.7 384.3 378.5 375.1 371.6 358.8 349.9 354.6 355.5 351.8 356.5 363 370.8 378.3 384.4 390.4 394.8 398.5 403.4 406 407.3 404.3 401.8 391.8 371.2 348.1 332.1 307.8 317.4 325.8 334.6 327.5 322.9 314.5 305.1 297.3 292.9 292.9 292.9 302.1 315.1 328.3 330.9 331.7 329.2 318.9 313.2 307.2 298 292.9 292.9 292.9 292.9 292.9 292.9 292.9 292.9 292.9 294.8 312.2 333.6 350.1 360.7 370.7 377.9 381.5 382.1 379.2 376.8 371.1 364.4 357.5 346.9 329.7 313.9 297.5 286.2 276.4 271.8 268.6 258.6 253.7 252.3 262.9 279.3 300.3 320.7 338.9 351.5 358.3 358 350.9 346 344 340.4 333.8 323.6 314.3 305.8 304.3 314.8 331.2 350.8 368.4 384.7 389.1 376 350.8 332.9 317.4 303 289.9 274.8 263.9 257.4 249.5 251.2 270.4 280.5 288.3 293 295.5 292.6 289 284.8 277.6 278.7 283 284.3 284.9 286.2 284.5 279.8 275.5 271 265.6 269 268.4 267.9 268.3 268.3 262.8 256 249.4 244.4 243.3 241.5 234.5 228.4 222.5 219.9 214.8 213.4 212.8 215.2 219.8 225.6 233.8 239.1 241.2 242.4 241.4 239.6 234.7 223.9 216.6 220.2 229.4 242.3 256 268.1 271.3 270.5 269.5 263.6 260.9 264.3 276.2 286.6 302 309 312.6 313 314.4 314.2 314.1
392.1 384.4 373.4 354.3 348.8 346.3 334.6 334.6 334.6 334.6 338 350 364.3 372.4 374.5 373.4 369 364.4 354.8 343.6 334.9 338.4 338.4 337.5 334.6 347.6 351.6 357.9 365.1 372.1 377.1 380.9 385 391.4 392.7 390.6 387.5 381 366.3 350.8 330.6 313.8 308.4 308.8 314.3 307.8 302.9 296.6 293.7 292.9 292.9 295.5 305.3 318.6 330.3 337.3 342.4 344.7 341.1 331 316.5 314.6 309.7 304 297 292.9 292.9 292.9 292.9 292.9 292.9 292.9 292.9 295.1 315.8 329.2 341.6 350.6 356.7 364.3 367.9 367.8 360.6 354.1 348.1 338.4 326.2 312 297.1 286.2 276.8 270.1 267.1 257.8 254.5 253 259.4 277.9 297.8 319.4 341.3 358.8 370.5 376.8 380.3 375.5 367.9 362.9 355.3 345.3 332.3 321.6 311 313.8 328.6 344.7 362.5 378.9 391.5 392.3 375.9 350.2 331.4 317.1 305.6 292.1 276.9 267.3 260.2 248.6 259.6 277.7 289.8 299.7 304.8 307.5 304.5 300 293.2 284.7 283.1 285.7 289.4 289.8 289.4 286.8 279.7 274.5 272 271.9 271.6 275.4 277.4 276.5 274.2 269.6 264.4 257.4 250.5 245.9 243.3 235.4 228.8 223.9 221.9 216.6 214.6 214.3 210.8 213.6 217.2 221.1 223.4 229.3 233.3 236 233.7 237.5 223 214.3 213.7 226.5 242.2 255.9 263.6 264.3 263.2 261.5 256.2 256.6 265.5 276.6 292.2 304.4 310.3 313.9 315.7 315.6 315.3 314.6
382.9 372.1 360.7 349.5 341 341.6 334.6 334.6 334.6 334.6 334.6 334.6 351.3 358.5 363.1 364.4 360.1 345.6 334.6 334.6 334.6 334.6 334.6 334.6 334.6 334.6 334.6 334.6 343.2 352.6 356.1 361.5 363.9 367.4 369 369.5 369 363.8 355.8 341.6 336.1 318.6 315.3 303.1 299.6 298.3 293.8 292.9 292.9 292.9 296.5 309.1 318.9 329.9 341.6 348.9 351.8 353 350.9 342.8 328.3 318.2 312.1 307 305.7 302 292.9 292.9 292.9 292.9 292.9 292.9 292.9 292.9 294.4 309.1 320.6 328.3 333 340.3 344 346.2 342.9 337 328.9 317.8 305.7 294.6 284.8 276 270.6 264.8 259.4 255 254.3 261.3 273.6 296.2 317.2 337.4 356.2 375.1 387.9 394.3 398 394.4 387 378.9 367.2 353 338.8 327.9 320.5 325.6 342 357.5 374.6 390.8 397.4 394.3 379.1 355.7 336.9 320.8 308.5 294 279.3 270.1 261.9 252.1 267.3 283.8 300.4 309.6 314.9 315.7 313.1 308 299.2 291.5 288 290.2 293.9 296.4 294.7 290.3 283.1 277 281.9 283.5 285.6 287.7 285.7 282.8 280.1 279.9 277.1 269 258.5 252.5 247.5 241 233.1 227.6 223.8 222.3 222.7 218.7 212.4 211.6 212.3 214.4 217.7 218.5 219.4 220.7 222.3 220.2 219.7 212.9 214.5 225.6 241.2 255.3 261.6 257.8 257.5 255.8 251.8 254.7 266.6 280.1 296.5 307.9 314.5 317.6 319 318 315.3 314.4
366.7 356.2 348.9 344.7 334.6 334.6 334.6 334.6 334.6 334.6 334.6 334.6 334.6 338.4 344.6 346.5 340.3 334.6 334.6 334.6 334.6 334.6 334.6 334.6 334.6 334.6 334.6 334.6 334.6 334.6 333.2 337.6 338.1 343.7 346.5 349.5 348.5 349.1 345.4 342.9 333.8 322.3 310.9 304.8 295.4 293 292.9 292.9 292.9 302.7 311.7 322.3 330.9 339.3 347.9 356.1 359.3 360.3 358.9 352.3 344 335.7 324.6 313.9 306.7 304.1 298.7 292.9 292.9 292.9 292.9 292.9 292.9 292.9 292.9 292.9 293.2 301.5 308.9 317.6 324.7 327 322.6 319.2 309.7 298.9 289.3 281.1 274.6 268.6 262 258.2 256.2 256.6 265.3 272.8 292 315.5 335 355.1 373.4 391.2 404.3 411.1 411.2 407.1 398.6 390.8 378.4 362.7 346.6 335.4 324.9 337.2 353.9 370.7 387.7 401.6 405.2 398.2 382.5 362.1 344.7 326.1 309.5 294.6 282.1 272.7 265.6 253.2 272.3 290.7 309 321.7 326.1 324.2 318.2 311.2 300.3 294 295.2 297.8 301.1 302.2 298.8 293.6 286 280.7 289.5 298 299.9 299.8 297.5 295.9 297.8 301 299.5 286.5 269.3 260.8 256.8 251.9 242.4 233.7 229.1 228.2 237.2 226.4 214.1 209.9 211 211.1 210.8 209.9 209.2 211.6 214.4 212.5 217.4 212.7 211.7 221.8 241 252.9 254 251.5 250.5 249.9 240.3 255.2 268.4 284.6 301.5 312.4 320.2 322.9 322.9 319.5 314.6 312.7
344.1 339.8 334.6 334.6 334.6 334.6 334.6 334.6 334.6 334.6 334.6 334.6 334.6 334.6 334.6 334.6 334.6 334.6 334.6 334.6 334.6 334.6 334.6 334.6 334.6 334.6 334.6 334.6 334.6 334.6 328.4 315.2 319.3 325.1 330.3 332.1 329.9 329 328 324.2 320.2 313 305.5 298.2 292.9 292.9 292.9 295.9 304.8 314.5 324.6 333.8 343.4 352.3 356.7 359.8 364.2 363.9 362.4 357.9 352 343.1 333.7 322.7 316.2 312.4 306.5 300.9 298.3 293.1 292.9 292.9 292.9 292.9 292.9 292.9 292.9 292.9 292.9 295.8 303.3 305.5 303.9 299.4 288.9 282.2 272.8 266.1 260.2 257.6 254.5 256.2 257.8 267 276.2 290.6 308.5 329.3 349.8 370.7 389.8 407.8 418.5 422.1 422.9 418.9 410.1 401.5 388.2 371.6 354.1 343.4 332.9 351.5 367.6 383.4 399.2 411 411.1 400.7 384.3 366.5 346.7 326.5 309.2 294.3 283.3 273.9 267.3 253.6 276.5 296.5 320.5 336.6 337.1 331.7 319.6 309 300.5 301.4 303.2 304.6 308 309.8 304.2 297.6 287.3 289 298.4 306.2 308.6 310.1 311.8 315.2 319.5 320.7 314.3 304.6 289.1 273.7 267.8 263.1 251.1 244.2 238 237 243.5 234.3 223.2 214.6 209.9 210.1 210.2 209.9 209.4 209.2 207.7 206.8 206.4 209.6 209.5 225 238.3 245.8 244.9 243 243.5 239.8 246.8 256.1 268.3 287.1 306.1 316.5 324.7 329.5 323.3 319 311.9 308
343.1 348.4 348.4 348.5 345.9 344.3 338.2 343.8 337.5 334.6 334.6 334.6 334.6 334.6 334.6 334.6 334.6 334.6 334.6 334.6 334.6 334.6 334.6 334.6 334.6 334.6 334.6 334.6 334.6 334.6 324.2 305.9 292.9 300.2 305.2 312 307.2 305.7 301.2 294.5 294.6 294.5 293.6 292.9 295.9 300.3 304.9 310.5 320.7 329.4 338.2 348.4 357.5 363.7 365.5 366.5 367.7 365.7 362.5 359.1 353.6 346.6 337.4 330 322.8 317.6 308.3 304 297.3 292.9 292.9 292.9 292.9 292.9 292.9 292.9 292.9 292.9 292.9 293.3 285.6 286.7 285.2 281.6 275 265 260.5 257.2 258.8 259.2 262.2 266.4 269.4 278.7 290 304.4 321.8 343.3 362 383.4 404 421.2 430.1 432.2 429.8 425.3 416.9 408.6 395.3 379 361.3 348.9 348.3 365.1 380.7 394.3 407.2 415 413.5 400.2 383.1 365.9 345 324.1 308.2 295.2 284.8 274.5 265 255.4 279.5 301.2 331.7 349.6 345.8 330.4 317.7 309.9 307.4 309.4 310.9 311.5 313.9 315.3 310.1 297.5 288.1 296.2 308.9 320.6 324.8 329 331.5 333.7 337.2 337.9 329.1 315.6 300.8 283.4 273.1 264.4 261.1 260.2 256.3 253 252.2 246.6 232.3 219.9 214.1 209.6 210.1 210 209.7 208.4 207.7 207.2 206.4 205.4 209.7 225.5 230.7 236.5 235.5 233.9 236.4 234.1 248.1 258.3 271.8 292.7 310.6 319.1 324.1 326.6 325.9 317.4 310.7 302.7
360.2 361.3 360.2 356.8 354.2 348.6 353.2 355.1 352.5 346.5 338.7 334.6 334.6 334.6 334.6 334.6 334.6 334.6 334.6 334.6 334.6 334.6 334.6 334.6 334.6 334.6 334.6 334.6 334.6 336.7 322.3 311.6 312.9 308.5 297 292.9 295 294.8 299.4 302.3 305.2 308.7 311.4 311 307.3 317 323.2 326.8 336.9 344.8 353.7 362.2 369.6 372.9 371.6 371.9 371.1 367.7 362.7 359.2 354.9 347.7 340.1 332.6 324.5 317 308.8 302.2 298.6 301.2 299 296.6 292.9 292.9 292.9 292.9 292.9 292.9 292.9 289.5 274.2 264.1 264.2 264.4 261.9 260 260.5 262.7 267 268.4 269 270.2 274.3 291.5 303.9 317 332.7 352.4 373.3 394.2 413.9 430.4 438 439.4 435.9 430.9 423.8 413.7 400.1 383.9 367.1 354.7 362.3 377.5 391.1 404.7 413.6 415.5 410.1 397.3 381.2 362.5 341.1 322 308 296.1 285.6 274.7 263.7 262.3 284.4 307.4 332.6 351 340.8 322.2 315.8 316 315.1 316.9 318.3 319.5 316.6 312.2 304 294.3 297.8 307.9 320.9 333.9 342.5 348 350.9 353.1 355.3 353.7 342.2 326.6 307.2 289.4 277.6 278.3 277.5 275.1 274.1 269.5 265.4 260.5 251.8 237.7 226.6 219.1 210.8 208.6 208.8 210 208.3 207.6 206.6 205.7 207.5 211.5 221.7 223.9 218 217.1 224.2 230.2 243.5 255.8 274.1 294.7 309.3 318.2 324.6 327.3 327.1 317.1 308.3 296.8
374.1 373.2 370.5 368 364.5 358.1 361.4 365.5 362.1 359.3 355.4 350.9 346.3 343.6 334.6 341.1 339.5 338 334.6 334.6 334.6 334.6 334.6 334.6 334.6 334.6 334.6 334.6 334.6 340.5 319.6 323.6 318.2 316.2 315.4 314 313.9 313.5 309.1 317.7 321.5 324.5 326.6 325.2 314.5 330.4 336.4 342 350.7 359.7 366.6 372.6 378.6 380 377.4 374.1 366.6 364 362.1 357.8 352.5 344.7 337.9 328.4 320.4 311.5 306.6 306.4 307.7 307.4 306.7 302.6 299.2 295.5 292.9 292.9 292.9 292.9 292.9 285.9 275.1 273 271.3 269.8 268.2 267.9 264.4 269.3 271 273 272.2 278.1 290.7 294.2 311.9 326.2 340.5 357.6 376.4 396.5 415.4 434.2 442.9 444.8 442.7 438.3 430.3 419 404.4 388.1 373.1 366.4 376.2 389.7 401.8 411.5 416.6 413.6 406.8 395.7 379.3 358.8 340.1 322.9 307.3 295 286.2 275.1 258.6 269.2 292.2 308.1 328.9 334.9 325 319 318.6 320.1 319.7 325.8 331.7 330 318.7 309.8 304.3 309.3 314.4 321.7 333.6 345.9 357.9 365.3 373.8 375.8 378.4 366.5 352.8 335 314.8 298.8 291.9 294.6 294.1 293.2 291.5 287.2 281.6 275.7 266.7 255.2 243.5 234.2 226 219.2 218 211.9 210.1 208.2 207.6 205.9 205 205.7 210.2 212.3 213.5 212.5 213.6 222.8 237.9 252.1 272.1 291.1 305.8 316.6 322.4 325.3 327.5 319.1 302.9 292.1
388.9 384.7 379.3 375.2 371.1 368.5 368.1 374 371.4 368.1 363.6 357.4 351.8 347.7 346.5 346.2 344.7 342.9 342.5 339.6 334.6 334.6 334.6 334.6 334.6 334.6 334.6 334.6 334.6 336.6 326.4 324.5 327 325.8 325.4 324.4 324.8 326.1 324.8 327.6 333.1 335.2 336.8 337.7 331.4 339.5 347.4 354.6 361.5 368.8 375.2 379.8 382.1 381.1 378.4 373.5 368 363.1 359.7 354.8 347.7 339.4 329.7 323.7 315.2 319.2 314.8 317 317 315 313 308.9 306.1 301.8 298.2 296.4 292.9 292.9 291.6 293 288.3 286.4 283.9 279.1 274.7 268.5 270.8 275.2 277.5 276.3 280.4 290.8 303.4 305.9 318.9 326.6 344 359.8 377.6 394.2 411 431 445 448.8 447.8 443.7 436.8 425 411.2 395.7 383.4 379.4 391 401.7 410.2 415.2 416.4 412.7 405.7 393.2 372.5 353.8 335.5 318.8 304 291.7 284.5 277.3 273.8 275.6 294.8 307.8 323.2 322.8 319.1 321 327.4 332.4 338.1 341.6 346.1 338.7 320.8 310 316.7 326.4 331.3 333.3 344.1 358 370.3 381.6 389.4 391.5 388.3 375.2 361.7 342.3 323.7 311.2 308.4 310.6 311.7 309.7 308.4 305.8 300.7 292 280.9 269.8 259.6 251.2 244.6 238.5 224.6 217.8 214.9 211.9 209 206.5 206.7 205.5 204.1 206.1 204.9 202.8 201 214.6 229.1 245.2 267 286.3 302.5 313.8 323.1 328 328 316.8 299.2 285.5
402 396 389.9 384.2 379.9 375.1 372.7 379.1 382.1 379.8 370.6 361 356.3 353.2 351.8 350.4 350.1 347.3 345 340 334.6 334.6 334.6 334.6 334.6 334.6 334.6 334.6 334.6 341.2 334.4 335.1 337 337.1 337.8 336.3 335.8 336.7 336.2 336.6 343 344.7 347.5 350.1 347.4 345.6 355.4 363.3 371.2 377.7 381.3 384.9 385.1 382.2 378.8 372 365.4 360.1 356.1 350.4 342.5 339.4 338.2 329 329.1 329.7 327.5 326 324.5 322.2 320.3 315.5 311.1 309.7 305.7 300.8 299.4 298.2 296.1 295.8 293.8 290.5 285.5 284.6 278.4 269.2 277.2 282.9 284.5 285.5 292.5 304.8 316 319.9 331.6 341 349.6 360.6 378.2 392.9 407.4 425.8 443.8 451.2 452.9 449.5 443.7 433.7 420.5 407.8 395.2 393.5 402.9 410.8 414.7 415.4 413.2 408 400.3 385.8 365.2 347.3 328.7 312.4 299 291 283.2 283.2 283.2 283.2 292.3 304.7 314.8 317.7 321.6 335.4 346.3 350.4 352.8 357.5 357.8 338.7 318 320.1 331.7 341.7 346.9 345.7 354 368.2 383 396.4 403.5 399.2 392 381.3 368.6 355.1 337.4 326 327.4 330.9 332 330.6 328.2 325.1 319.7 311.2 298.7 285.3 276.4 265.8 256.4 245.6 234.8 226 219.8 214.3 210.3 216.2 214.8 214.5 210.3 204.2 204.5 229.3 216.1 200.9 219.5 239.4 263.1 283.3 298.3 312.8 322.1 331.2 329.5 314.8 293.6 280.2
412.6 407.6 400.9 394.2 386.6 382.1 380.2 385.6 390.1 388.1 381.6 371.5 363.9 358.3 356.5 354.3 352.5 349.6 343.9 334.6 334.6 334.6 334.6 334.6 334.6 334.6 344.8 349.3 344.9 334.8 343.8 344.8 346.5 348.8 350 349.8 347.7 346.5 344.6 347 352.6 356.6 361.3 362 362.8 362.2 362.7 373.7 379.4 385.1 388.5 390.7 391.8 385.7 376.1 370.3 366.4 360.9 358.4 353.2 352.9 350.3 343.8 333.3 339.4 339.3 338.1 336 333.5 330.2 327.8 323.6 321.6 320.7 318.4 316.2 314.3 311.2 307.3 306 302.8 299.2 294.3 287 285.5 269 283.4 290.2 292.6 292.8 303.5 314.5 326.1 333.2 336 349.4 360.1 370 382.7 395.8 410.1 428.6 446.7 456.4 458.4 455.8 450.8 443.7 432.7 419.5 407.6 408 412.7 414.8 415.7 412.2 408.3 402.7 392.1 375.9 357.7 338.9 320.2 305.1 294.8 289.1 283.2 283.2 283.2 283.2 287.5 297.7 307.8 317.6 331.8 347.4 360 364.4 368.7 369.7 359.9 335.8 320.3 335.1 346.7 356.3 360.9 360.9 363.5 377.4 392.9 407.4 410.8 401.1 391.4 381.4 373.4 364.3 353.8 345.4 350.8 354.5 353.8 350.9 346.7 342.4 337.3 329.4 317.3 304.8 292.4 279.6 265.2 251.3 242.4 235.6 228 215.2 216.4 217.3 217.2 216.4 215.1 214.3 230 248.5 230.8 203.9 212.8 238.2 265.5 284.5 299.9 314.4 322.2 332.6 331.2 311.7 292.3 275
423 418.9 407.6 398.9 396.6 394.5 389.4 394.9 400.2 396 388 380 370.6 362.4 360.8 357.6 353.9 348.9 344.6 340.1 334.6 334.6 334.6 334.6 334.6 348.9 354.2 359.4 358.3 355.5 354 355 357.1 359.8 360.9 362.9 362.6 359 355.5 357.7 365.3 372.5 376 375.6 375.3 376.7 375.8 379.9 388.2 393.2 397.6 401.6 398.3 390.4 382.3 377.4 372.9 368.3 365.2 363.6 361.5 357.2 351.2 347.2 350 350.3 349.7 347.8 346.6 343.3 339.9 335.9 332.6 330 330.8 330.2 326.8 321.5 317.7 314.8 311.5 307.6 299.9 285.9 279.9 277.8 289.5 297 299.4 303.5 315 324.7 334.6 344 350 353.6 367.3 378.8 390.5 404.2 418 437.6 454.9 462.2 464.5 461.9 457.3 451.2 442.7 428.7 419 419.5 419.9 418.1 414.2 408.7 402.5 393.9 382.6 366.9 349.7 330.4 313.3 302.2 291.9 283.2 283.2 283.2 283.2 283.2 290 302.7 315.4 327.4 343.7 357 370.2 380.5 381 375 356.2 334.7 329.9 347.8 364.8 369.9 373.5 372.9 374.5 387.3 402.1 410.8 414.3 403.2 392.4 382.9 376.5 373 367.2 367.1 372.9 378.4 378.8 374.1 368.5 362.2 354.3 345 332.2 317.2 299.9 286.9 270.3 255.8 247.1 242.4 235.5 220.3 228.9 234 220.5 217.6 217.2 224.5 243.2 251.8 238.6 211.5 206.4 239.1 267.9 284 300.9 313.6 319 325.7 328 312.3 288.8 270.1
432.1 427.9 420.6 411.1 406 404.9 399.4 403.4 407.7 405 396.4 392.2 382 369.9 364.3 359.8 354.8 351.2 348.9 347.4 345.6 338.4 334.6 334.6 336.8 352.5 361.6 363.4 364.7 362.1 363 363.6 367.8 370.5 372.9 373.9 376 375.4 372.3 372.8 381.8 386.8 388.3 388.9 388 389.9 389.2 388.2 396 401.7 405.6 405.3 403.8 398.9 395 387.3 379.4 377.6 374.7 373.2 369.6 365.1 358 359.8 360.9 361.6 361.3 359.8 358.9 356.5 352.7 348.3 345.2 343.6 344.8 342.6 336.9 330.7 326 320.4 313.3 306.9 298.8 286.5 274.1 285.6 295.9 303 305.7 316.2 326.6 334.9 343 352 361.4 366.3 369.5 386.3 400.4 414 429.8 447.4 462.1 470.3 471.4 469.1 466.8 461.5 450.6 436.3 429.8 428.4 424.3 418.1 410.9 404.3 395.4 385 371.9 357 341.1 323 308.7 299 289 283.2 283.2 283.2 283.2 283.2 295 310.7 324 341.6 354.8 370.7 382 389.1 386.6 374.7 352.4 335.6 341.2 361.2 376.3 384 385.3 386.2 387.7 397.1 408.8 414.9 415.7 406.3 396.2 388.8 385.9 386.6 384.6 387.3 393.6 397 398.3 394.8 388.7 375.9 364.3 351.1 336.4 320 303.7 286.1 270.5 259.9 255.5 254.9 243.1 222.4 241.5 234.4 226.4 225.8 227.1 239.8 247 249.8 236.3 205.4 200 240.3 267.1 279.1 296.5 305.9 309.5 316.2 319.3 309.3 290.3 269.7
442.3 435.8 430.3 425.2 417.6 415.1 411.7 412.3 417.9 417.2 411.7 409.4 392.7 379.4 371.2 366.5 360.7 356.4 354 352.4 349.9 343.2 334.6 334.6 346.4 356.9 364.5 366.8 371 365.9 369.3 371.6 378.6 381.7 385.3 387.3 389.1 389.8 390.1 389.8 392.5 397.4 401.6 403.9 406 405.7 402.4 398.9 404.6 409.9 412.4 415 415.7 412.3 408.6 398.9 392.5 388.4 384.9 382.3 378.8 374.2 370.5 370.7 371.7 372.5 372.9 371.8 370.9 369.4 366.6 362.2 358.9 356.6 355.6 352.6 347.1 339.2 332.6 322.6 315.9 300.1 293.7 280.5 282 292.6 302.8 309.7 314.3 327.5 340 346.7 353.4 361.9 370.9 378.9 386.5 394.3 407.8 423.5 442.9 457.4 469.9 476.9 479.1 476.1 473.9 468.1 456.1 443.8 438.1 432.8 426.6 417.7 407.3 396.7 386.8 375.4 361.6 347.3 332.3 317.7 305.4 295.6 289.4 283.2 283.2 283.2 283.2 289.6 301.3 316.7 335.5 351.3 367.8 385 392.4 396.6 391 374.2 353.2 340.3 351.4 373.3 388.4 397.6 395.3 396.1 399 407.2 413.7 419.7 419.8 414.3 405 399.8 399.6 400.8 400.8 404 408.7 409.1 409.1 399.7 388.6 376.6 362.5 344.8 329.7 314.8 298.9 281.9 266.1 258.7 257.1 243.7 228.1 228.5 244.6 240.5 241.5 234.5 235 246.1 247.9 245.1 228.4 199.6 209 241.3 263.7 273.9 284.1 293.6 295.4 299.2 299.8 297.3 284.2 267
447.9 445.1 443.5 438 429.2 426.4 422.8 421.9 427.7 428.5 427.3 421.5 406.1 385.1 377 372 368.2 362.9 359.1 357.3 354.1 346.7 334.6 334.6 350.8 363 371.2 371.2 378.3 373.7 378.9 380.4 387.8 393.5 397.6 398.8 401.8 404.2 402 400.9 404.1 408.5 412.7 416.3 419 419.2 415.9 415.8 417.6 420.7 425.8 428.8 428.6 428 420.6 410.6 405.9 401 396.8 392.7 390 385.8 384 383.5 383.3 384 384.6 384.3 383.5 383.4 380.6 374.5 368.7 364.8 359.7 355.5 350.5 342.1 334.1 324.4 310.7 301.5 287.4 275.8 290 300.3 310.2 319.2 327.8 339.6 351.4 359.7 366.5 373.6 381.3 391.5 399.2 407.1 416 430.7 449.2 464.5 476.4 483.4 485.7 482.9 478.8 470.7 459.1 449.5 441 435.4 426.5 413.2 398.9 384.7 375.4 365.9 354.3 342.8 328.8 314.4 302.6 291.6 283.5 283.2 283.2 283.2 288.7 299.4 312 325.9 343.3 361.8 382.6 395.3 403.6 407.5 397.2 377.7 357 348.4 362.2 380 394.2 409.2 403.1 406.1 411.3 415.3 418.8 425.4 425.9 421.2 418.5 415.1 413.3 411.5 413.4 416.2 418.2 415.8 408.7 397.6 384.5 370.7 356.8 338.5 319.8 305.6 291.1 275.4 265.3 243.9 234.4 243.8 248 255.8 264 256 248.9 244.8 244.4 248 249.9 245 229.8 201.4 211.3 238.5 260.2 265.4 273.1 279.1 282 285.6 286.3 285.2 275.6 261
455.2 453.9 451.4 446.8 440.4 435.1 432.4 432.2 434.2 435.6 432 422.6 412.9 397.6 382.7 377.8 373.7 368.8 364.8 361.4 357.5 343.9 334.6 334.6 355.4 369.2 379.1 376.8 385.6 381.6 387.1 390.3 397.2 401.8 404.7 407.9 410.9 412.5 413.5 412.5 412.9 417.4 422.7 426.4 429.7 431.2 429.3 431.4 432.3 432.8 436.9 439.2 439.6 438.1 430.4 423.7 418.7 412.5 408.7 405.2 403.5 400 398.6 396.8 395.8 396.2 396.6 396.9 395.1 394.3 388.2 380.5 374.1 366.4 361.2 354.3 345.6 335.5 328.4 320.9 310.1 298.8 284.3 282.5 295.6 306.4 317.3 327.2 339.6 353.5 364.4 373.5 382.4 388.5 394.8 404.2 412.8 421.5 430.9 442 454.7 469.8 482.3 489.1 493.1 490.9 486.7 477.8 463.5 449.2 440.1 430 418.7 403.5 387.3 373.5 364.3 356.2 346.4 334.7 321.9 308.1 299.3 286.4 283.2 283.2 283.2 285.1 299.7 312 325.2 338.5 353.2 374.1 392.4 401.9 409.2 413.9 404 385.3 366.7 357.3 368 380.5 396.5 407.2 409.7 414 422.4 425 427.6 430 430 428.7 426 423.3 422.4 423.4 424.8 424.7 421.8 414.6 403.6 390 377.1 361.7 343.5 324.7 308.9 295.6 281.5 269.5 255.8 241.5 262.1 270.2 270.6 268.7 273.7 267.5 264.2 262.7 258.7 252.2 250.3 243.8 227.3 200 210 232.5 253 256.6 264.8 269.5 273.6 277.8 278.1 275.7 264.5 249.9
460.7 460.8 460.2 455.4 449.5 445 442.3 442.4 442.9 443.6 438.5 431.7 426.9 411.5 398.4 385.2 377 373.1 369.2 364.8 357.9 350.2 334.6 334.6 358.7 372.9 385.8 380.5 391.3 389.9 395.1 401.8 407.1 409.7 413.2 416.2 417.1 422 423.7 424.4 424.9 427.4 432.5 436.5 439.8 441.6 441.5 441.6 442.6 442.9 445.1 445.3 445.7 444.8 440.8 435.6 433.2 428.5 425.1 421 417.5 414.2 412.4 411.5 409.7 408.1 408.2 408.2 405.3 398.5 388.9 379.8 369 359.5 354 345.5 337.3 328.3 318.2 310.9 303.3 292.6 278.4 285.7 299.9 311.2 321.5 333 347.9 362.6 376.2 387.3 397.5 404.3 408.8 418.8 427.8 436 443.6 451.7 461 476 487.6 494.4 504.9 504.4 494.5 476.9 457.5 443.8 431.8 419 406.2 391.9 376.1 362.7 350.2 342.4 333.5 322.9 311.7 300.8 291.4 283.2 283.2 283.2 289.3 291.5 312.2 323.3 338.3 352.4 368.2 385.2 398.9 407.9 415.3 418.2 412.3 398.8 381.6 370.9 367.4 381 396.1 407.9 416.3 422.5 429.5 434.2 438.1 437.8 437.2 434.5 432.3 429.6 430.2 432.4 430.4 427.2 418.9 410.1 398.9 384.3 366.5 348.3 329.1 312.6 298.3 285.1 272.9 266.7 253.3 239.8 258.6 262.9 268.6 267.2 267.7 266.2 264.7 264 261.1 255.3 248 238 224.8 200 209.9 227.5 241.3 250.9 257.2 263.1 267.1 271.6 270 259.2 247.5 247.2
466.8 468.5 469.2 464.5 458.6 453.3 450.8 449.7 449.2 448.8 447.8 440.1 432.5 419.6 409.2 396.5 385.3 376.3 372.1 365.1 353.9 334.6 334.6 334.6 358.7 376.5 389.1 387.1 397.8 397.5 402.6 408.8 416.8 421.1 421.2 422.1 425 429.7 432.8 436.1 435.2 438 441.1 445.1 448 449.3 449 450.5 451.5 451.7 451.6 453.2 452.9 451.8 449.4 446.8 444.6 443.2 439.8 436 431 426.2 423.4 419.4 416.8 414 413.4 412.6 408.2 395.5 383.5 372.5 362.6 352.9 344.4 337.2 329.6 319.7 308.1 300.6 290.6 285.1 293.2 297.8 301.3 313.8 324.7 337.2 352.1 367.1 382.8 396.5 407.5 413.4 419 428.4 437.6 445.5 451.5 458.8 467.6 482.2 493.7 509.9 512.7 503.8 487.1 467.2 448.7 433.4 418.7 404.9 393.5 382.5 368.3 352.7 338 327.2 318.8 309.7 301 293.4 283.2 283.2 283.2 290.8 296 301.4 315 333.5 351.3 368.3 384.8 399.1 412 418.6 423 426.2 423 416.3 401 386.7 378.9 381.4 399.5 411.1 420.2 426.4 434.6 439.5 445 448.6 446.3 442.3 438 435.7 436.3 433.6 428.9 422.3 414.8 403.9 389.7 371.6 352.4 333.7 316.8 302.1 290.5 278.4 269.5 265 249.6 241.7 261.6 260.9 266.9 267.1 267 266.1 264.5 260 252 245.7 238.8 231.2 225.7 200.3 200 224 237.7 243.6 249.7 257.9 262.9 264.7 260.1 247.2 251.2 270
472.9 473.3 475.1 472 466.4 460.8 456.1 458.1 459.2 454.9 454 447.6 432.8 423.2 416 404.7 393.2 384.6 375.7 362.5 349.4 355.4 346.5 334.6 354.3 378.7 392.9 393.6 404.6 402.4 408.7 415.7 424.1 427.2 427.6 429.5 432.8 437.9 441 443.2 445.7 446.3 448.7 452 454.2 456.1 456.9 457.4 459.6 459.6 458.6 459.2 459.7 460.3 459.4 457.9 457.2 456.2 453.6 448.7 443.5 436.9 433.1 428.3 421.9 413.8 411.8 406.2 398 387.3 375.1 363 352.9 344.8 336.5 327.9 318.9 310.5 302.5 287.9 286.1 295.6 302.4 307.9 307.8 311.9 324.7 336.9 350.6 366 383.3 399.5 410.8 418.2 424.5 434 442.5 451.1 456.3 461.7 471 482.2 498.4 511.9 508.2 492.7 472 451.6 435.1 418 401.6 387.3 378.9 371 358.3 342.5 326.7 315.5 306.8 299.2 292.8 283.2 283.2 283.2 290.1 297.6 305.9 315.5 326.2 338.3 359 381.7 399.2 411.6 422.2 428.8 434 438.4 436.5 430.4 421.2 407.3 398.7 396.5 396 411.1 420.8 430.5 438.8 445.2 451.4 456.1 453.1 447.6 441.3 441.3 436 431.7 425.9 417.6 405.3 394.1 376.5 356 335.7 319.7 304.1 292.8 283.3 274.2 267.7 255.7 239.2 254.8 264.7 265 267.2 266.8 266.5 266 264.3 251.2 237.5 230.2 227.3 237.3 228.2 201 200 219.9 233.7 236.2 242.3 248.9 255.2 254.6 248.8 248.1 267.7 285.7
