ncols 200
nrows 81
xllcorner 240000
yllcorner 784800
cellsize 50
687.6 692.4 698.6 705.8 711.3 720.3 726.2 733.2 741.4 749.2 757.6 765.9 771.2 779 788.5 796.3 804 811.8 817.3 821.9 828.5 833.6 841.4 852.3 858.8 864 866.7 870.3 873.1 877.3 879.8 880.6 879.3 874.2 864.8 867.5 869.1 873.6 875.7 878.8 875.6 885.7 895.1 906.3 921.4 937.3 950.8 962.8 976.3 987.7 997.6 1007.1 1016.2 1025 1032.5 1039.8 1047 1051.1 1032.6 1012.1 1000.7 996.2 981.2 954.8 926.1 899.3 893.7 880.4 875.7 874.1 874.7 868.4 854.9 846.1 828.4 815.3 804 789.4 773.1 760.3 746.5 732 716.1 699.2 682.4 666.4 649 630.2 614.8 599.9 590.6 578 569.9 562 556.9 550.6 555.7 554.9 555.7 559 561.7 561.1 562.6 564.3 565.1 569.1 573.3 571 569.2 569.7 569.1 572.2 568.6 563.4 558 552.9 547.6 545.4 538.9 531.4 523.7 511.7 500.8 489.9 478.4 466.6 456.3 458.6 448.1 434.5 429.5 428.1 432 436.7 444.4 443 451.1 455.7 459.2 470.6 479.8 488.5 496.8 510.4 528.6 550.3 566.6 585.8 596 597.2 602.6 609.2 617.5 613.1 609 582.7 562.7 554 544.3 534.5 518.1 502.4 491.1 473.7 468.6 458.9 452.5 439 432.4 405.6 391.1 382.1 373.4 366.1 363.4 361.9 361.4 361 359.7 357.9 358.7 361.7 364.2 376.6 384.2 390 398.5 401.9 405.9 411.5 415.4 409.9 407.7 401.2 395.1 391.2 388.8 381.5 371.7 362.5
683.2 689.3 694 700.2 706.8 713.3 720.3 727.6 734.8 741.9 749.9 758.6 765 773.1 780.2 788 796.8 804.3 810.1 815.1 822.3 828 834.6 845.4 853.3 857.9 862.7 867 870.4 873.5 876.5 878.7 878.1 875.4 871.8 865.7 873.3 876.2 880.5 885.3 883.9 887.1 894.8 909.5 923.4 935.9 949 960.9 973 984.1 995.5 1005.9 1014.9 1022.9 1031 1037.1 1037 1009.5 993.2 975.1 960.9 947.9 933.3 900.8 875.1 862.1 853.4 846.9 838.3 837.3 836.7 830.5 819.1 806.2 794.1 785.9 772.6 761.2 746.9 736.5 725.6 710.4 695.6 678.7 662 645.9 633.1 614.4 602.4 590.3 582.6 573.7 566.4 557.8 556.4 561.5 562.4 564.1 566.3 569.7 572.9 574.5 577.6 580.5 584.3 590.3 591.1 590.1 588.6 588.3 590.3 589.4 584.8 581.8 577.1 575.2 569.6 565.5 558.8 550.8 544.5 534.4 521.7 507.7 490.9 478 473.1 466.7 461.3 442.9 436.1 428.7 421.8 438.6 441.9 436.5 440.8 448.4 453.7 455.7 468.9 478.2 487.3 499.6 516.3 533.2 549.2 563.2 576.6 581.4 584.4 589.5 599.4 600.9 583.6 569.1 548.5 543 534.2 530.3 518.9 504.4 492.1 470.5 463.7 450.5 443.3 427.5 410.1 395.3 386.8 378 366.2 363.6 361.7 360.1 358.8 358.6 355.2 357.1 361.5 367 374 380.5 387.1 394 398 400.7 405.4 408.3 409.8 407.7 406.8 401.5 392 378.4 373.2 369.6 361.9 350.2
679.3 684.9 690.3 694.4 701 707.7 713.7 720.7 727.3 734.9 742.5 750.4 757 766.6 772 779.7 788.6 796 802.4 808 814.5 821.2 827.9 833.4 842.3 850.3 857.1 862.7 867.7 868.3 870.4 872.7 874.4 873.9 871.8 868.1 875.3 877 879 885.9 890.3 890.6 894.4 910.3 919.1 928.2 943.8 955.9 968.1 979.5 990.6 1000.9 1009.5 1017.7 1024.3 1026.1 990.4 967.6 952 927 914.9 903.3 889.4 860.6 830.3 824.7 813.5 807.9 804.1 802.9 802.4 797.9 787 782.5 775.7 763.9 750.5 737 729.1 715.9 704.3 689.4 675.5 659.1 642.8 629 617.1 602.1 586.4 578.9 571.3 566 563.7 558.5 565.9 569.7 572.1 577 580.8 585.4 591.3 594.1 597.5 598.1 603.1 610 609.6 607.7 604.7 610.8 610.3 609.7 605.3 603 599 597.1 590.6 586.3 578.2 570.1 561.5 552.1 537.6 527.4 509.4 493.3 479.1 470 457.7 457.3 457.7 448 424.7 420.6 426 431 429.6 439.2 437.9 444.5 459.6 467.1 475 486.1 503 518.8 533.2 547.8 558 559.1 558.3 562.4 565.6 567.8 568.8 557.7 536.6 526.9 525.5 523.1 507.5 494.5 488 477.6 456.8 441.7 427.9 413.3 400.9 386.3 378.5 370.2 364.2 359.1 356.5 354.4 352.1 353.8 351.1 356.1 364 371.2 375 382.9 387.9 394.3 397.1 400.9 407.6 408.5 408.8 404.2 400.3 394.5 386.1 377.1 363.5 356.8 349.4 347.6
671.8 680 685.6 690.1 694.9 701.6 707.7 713.8 719.7 726 733.1 740 748.1 757 763.6 770.8 779.2 786.7 793.8 798.9 805.8 812.6 819.4 824.5 833.3 839.7 847 853.2 856.8 858.9 860.4 865.4 869.5 873.2 873.1 872.3 874.9 879.9 881.5 887.5 890.7 890.9 894.5 901 914.5 924.7 936.7 948.9 961.4 972.9 984 993.5 998.8 1003.7 995.4 988.1 958.4 924 896.3 878.8 862.6 860.6 854.7 805.6 793.1 788.5 779.5 773.9 774.7 771.2 768.3 766.3 763 764 755.4 739.4 728.9 718.2 707.5 695 682.5 670.2 654.8 639.9 628.4 614.8 603.5 589 578.7 573.7 572.1 569.1 561.1 569.7 575.2 580.1 585.2 590.9 597.5 604.5 609.7 613.2 614.3 618 620.4 627.3 628.5 626.2 627.2 635.1 634.5 630.6 628.6 625.7 621.5 617.7 612.5 608 599.1 592.4 581.3 568.5 557.4 544.8 525.3 509.4 491.1 477.7 465.6 458.4 455.3 449.2 437.1 422.7 414.7 411.1 412.8 414.6 429.4 434.1 445.9 456.4 463.6 473.5 487.3 503.3 517.4 530.3 539 541.3 544.5 547.3 550.9 555.3 553 537.8 530.1 522.1 506.6 502.1 488 484.1 476.4 468.1 441.7 431.4 418.5 400.7 390 379.5 372.1 366.3 360.1 353.3 351.3 350.9 349.9 350 350.8 357.5 364.6 371.2 376.8 380 386.8 390.7 396.9 402.3 408.1 407.7 405.9 403.9 397.8 388.9 382.7 384.6 372 351.1 339 337.3
666.5 671.1 679.1 684.6 689.7 696.3 702.7 707.9 713.1 717.2 725 733.3 740.5 748.6 756 763.7 771.5 778.1 784.6 791.5 797.8 804.8 811.2 816.5 822.6 830.5 836.3 842 847.1 851.9 855.6 861.1 868.3 874 877.7 878 881.3 884.9 888 890.5 893.6 894.1 895.9 899.2 908.7 918.7 925.9 938.7 951.4 962.2 968.4 975.3 965.4 960.4 948.3 922.4 901.1 880.5 851.5 833.8 824.3 823.4 795.4 776 765.8 761.4 751.6 748.6 753.5 747.1 742.2 739.5 739.3 738.7 729.7 718 706.2 696 685.8 675.9 665.3 652.6 639.5 626.3 613.6 601 591.3 581.2 576.3 569.7 568.1 568.9 575.1 581.6 587.2 593.9 598.9 607.1 615.1 622.6 627.9 632.3 631.4 634.6 641.4 645.7 649.1 648.5 652.6 653.6 653.2 652.3 648.5 647.1 641 637.5 633.8 630.9 620.1 614.7 605.7 593 580.6 566.2 547.1 526.9 504.2 487 473.5 460.5 456.5 451.7 448.1 442.8 440 427.1 407.4 408.1 422.8 422.9 436.3 447.7 454.1 461.4 472.7 484.4 500.8 514.8 518.7 519.8 526.2 530.1 530.8 527.8 530.7 531.7 521 516.4 488.9 480.6 467.9 460.9 449.2 447.5 422.8 413.9 403.7 390 380.2 372.8 366.1 360 355.6 349.9 348 346.9 350.7 353.5 357 359.8 366.1 370.3 376.6 381.2 383.6 389.1 394.4 404.5 405.9 399.4 394 393.2 389.8 385.2 387.8 381 365.3 343 334.6 329.5
658.9 660.8 670.1 674.8 684.3 691.2 698.6 702.4 708.3 712.4 718.2 726.8 734.1 742.7 749.3 756.8 763.3 770 776.8 783.4 790.2 797.2 804.1 810.1 817.1 822.5 829.1 835.7 841.4 848.3 854.2 860.3 868.9 876.3 880.1 882.6 886.1 890.5 893.4 894.1 897.9 898.4 898.7 900 902.8 911.4 915.9 926 937.8 945.6 934.5 932.1 935.5 936.9 931 907.8 879.1 851.7 826.4 811.2 798.6 788.7 775.1 762 752.5 743.4 735.1 730.8 730.6 725.6 720.6 719.8 716.8 710.9 706.8 698.2 687.8 679 671.3 660 647.8 636.8 628.6 615.9 603.5 592.9 584.7 576.9 574.9 572.2 575.9 579 584.9 590.9 597.7 607.4 616.3 624.2 629.9 639.1 645.5 649.1 654.8 656.1 660.9 667.5 675.8 674.4 674.8 672 671.5 672.9 670.5 667.1 666.3 659.9 654.2 649.8 641.6 632.6 622.9 610.6 597.1 580.7 563.4 546.3 517.5 493.2 479.9 465.1 457.2 454.7 448.5 441.7 438 429.3 408.7 399.2 405.1 412.3 427.6 436.5 442.6 450.7 459.5 472.4 482.5 496.6 501 505.2 507.9 512.2 514.9 511.9 516.4 510.7 507 492.9 468.3 464.1 448.9 438.9 427.9 420.1 403.8 396.7 387.2 379.4 371.8 368.8 360.1 357.2 355.3 350.5 347.3 342 348.2 353.9 358.7 362 366.2 371 375.2 378 382.9 387.1 389.1 392.2 389.2 386.7 385.2 386 387.4 389 378.8 368.6 343.9 340.1 334.2 330.2
659.8 663.6 666.7 668.5 675.9 688 693.3 700.3 706 709.5 713.2 721.3 727.2 735.7 744.6 750.9 757 764.3 772.2 779.1 783.3 784.4 788.7 798.9 809.1 814.9 824.7 832.5 839.7 847.4 854.8 862.6 870.7 878 881.9 885.5 890.3 894 897.1 897.9 902 904.1 907.2 902.3 909.7 914.1 916.7 922.5 930.5 942.5 948.4 971.6 986.1 965.9 953.8 930.1 889.8 854.3 829 808.3 790.4 778.6 766.5 757.3 749 740.9 730.8 718.9 714.8 708.7 704.2 701.2 698.5 692.4 686 679 671.7 662.6 655.5 646.5 636.6 629.2 619.2 606 596.4 585.7 585.4 584.4 581.9 583.6 590.5 592.8 597.5 605.8 615.6 625.2 634.7 641.8 648.7 655.7 663.2 668.2 675 679.7 685.4 696.4 699.2 698.3 694.6 694.6 696.7 696 694.3 691.4 688.5 681.1 676.4 670.2 661.2 652 643.3 627.3 609.8 592.9 573.4 551.3 524.5 502.6 483.1 469 456.8 451.2 445.8 439.3 436.7 430.9 423.5 406 394.8 401.8 418.7 424.4 431.3 438 444.8 455.5 466.7 477.6 484.6 492.7 495.5 495.1 497.5 491.8 495 497.2 487.1 464 450.5 442.8 434.9 420.9 409.8 400.8 393.7 384.6 373.3 366.9 364.5 360 355.1 354.4 352.3 346.9 344.8 341.3 346.6 353.3 358.1 360.7 365.7 368.4 372 376.6 379.2 380.8 382 382.1 379.2 380 376.7 378.6 375.8 375.3 363.7 341.9 338.6 342.6 341.3 343.3
659.7 664.2 667.6 672.5 677.2 678.2 687.4 698.3 702.8 707.7 711.9 717 723 733.2 739.8 745.8 752.4 758.9 766 766.8 778.7 789.9 798.5 805.7 814 821.7 829.1 833.2 842.3 850.6 861.8 871.4 875.3 880 884.6 888.5 893.1 897.2 899.6 901.6 905.1 902.5 906.6 905.1 916.6 918.6 925.6 929.6 935.5 944.8 965.9 986.9 1001.7 1002.8 1011.6 997.2 940.3 870.9 851.6 821.8 800.8 783.6 775.1 760.4 746.8 735.1 724.6 716.8 700.5 696.9 689.8 685.1 682.3 675.4 668.3 662 653.3 649.4 643.5 635.8 629.6 621.5 611.9 604.5 591.4 595.3 596.2 595.3 599 605.4 608.7 610.2 616.9 626 635.5 643.6 651.7 659 667.1 675.3 683.6 692.1 698.3 704.2 711.6 721.3 725.1 721.4 716.4 717.1 720.9 721.4 719.9 710.9 707.4 697.7 693.9 687 679.3 670.8 656.8 638.8 614.1 592.3 568.9 544.4 526.7 508.3 489.5 471.5 458.4 450.7 443.9 438.5 433.6 429 423.7 414.7 392.4 392.7 403 409.9 418.5 424.3 430.4 442.3 450.8 462.3 470.9 478.7 483 477.5 478.2 471.8 471.2 467.7 463.3 443.2 431.8 421.8 413.1 402.6 395.5 387.3 377.6 370.6 361.9 361.3 358.4 356.3 348.4 347.9 342.6 341.5 340.2 339.5 342.6 353 355.7 358.3 360.7 363.5 368.3 369.5 370.8 371.6 371.8 374.2 370.4 368.9 370.6 370.3 362.8 350.8 340.3 338.9 342.9 351.7 348.7 341
666.8 665.7 668.2 671.9 679.4 689.7 689.3 693.5 694.1 705 711.3 714.2 720.4 726.6 733.6 741.2 747.5 750.2 760.3 769.9 779.1 787.9 798.1 806.7 815.6 825.2 833.3 841.3 846.7 857.3 867.8 876.7 880.9 883.1 887.4 892.2 896.3 900.7 903.1 904.9 903.8 903.8 906.7 908.9 919.4 921.1 928.9 935.4 939.7 948.6 964.6 991.4 1009.5 1025.1 1037.4 1037.8 999.8 905.7 870.5 843.7 823.7 807 790.8 776.2 757.6 737.5 723 699.6 693.2 682 680.1 669.3 663.3 657.4 652.6 647.4 640.2 634.5 632.7 627.6 624.2 615.1 606.1 602.6 605.8 607.6 608.9 615.6 620.4 625 624.5 629.2 640.2 648.7 656.8 662.2 669.5 676.2 685.5 696.5 708.4 715.1 721.9 732.9 739.7 746.3 746.1 744.3 742.4 745.7 744.8 742.4 737.7 730.1 728.2 715.3 710.2 704.5 696.7 685.1 671.6 646.1 617.8 589.4 561.7 544.9 527.9 511.2 493 476.5 463.4 451 441.8 434.8 428.2 424.2 417.9 410.7 401.4 387.2 393.3 395.4 406.7 415.6 420.2 429.6 439 446.3 454.7 460.9 464.3 462 454.4 450.6 446 442.8 439.7 428.2 409.8 402.2 393.5 388.2 382.3 372.4 365.8 359.2 356.6 355.3 352.3 350.3 342.3 340.7 339.2 336.3 336.4 331.9 345.3 350.4 350.7 353 355.5 357.3 359 359 362 366.3 364.7 362.6 358.1 358.4 357.6 347 344.1 341.5 340.4 345.3 349.2 350.9 345.2 337.8
669 667.5 669.5 676 682.2 687.9 694.8 700.8 704 703.4 705.4 713.2 717.1 721.5 727.8 736.6 742.8 749.3 759.8 767.3 775.3 785.2 795.9 806.6 817 827.4 837.4 846.4 854.7 862.5 867.9 879.2 882.9 884.7 889.7 895.2 899.4 903.2 904.7 904.6 905 906.6 908.6 917.3 918.8 922.6 928.1 938.1 944.9 955.5 979 998.7 1018.2 1034.6 1049 1058.5 980 966.2 922.4 879 852.7 840.5 826.2 804.6 775.7 740.6 715.9 693.4 678.8 669.9 660.9 655.1 644.5 636.8 630 627.8 630.2 626.2 626 623.7 614.8 613.4 614.7 615.5 617 622.4 628.6 634.5 638.9 641.5 648.2 657.8 662.3 668.5 676.3 680.6 686 695.1 707.7 723.7 736.1 740.6 744.3 754.3 759.5 764.4 760.4 757.2 764.6 763.6 763.4 757.8 754.1 749.7 742.5 734.3 729.8 720.7 712.6 702.5 682.6 647.2 613.7 584.6 564.4 545 528 512 495.2 479.3 465.1 453.6 441.1 432.4 423.8 416.1 411.2 403.9 398.2 382.8 379.5 385.7 397.9 404.2 412.4 417.8 426.5 431.6 441.5 445.9 444.1 437.6 436.8 433.4 426.8 423.2 415.9 402.5 390.9 383.7 379.5 373.8 367.6 359.1 353.2 349.9 349.2 348.9 346.8 340.7 336.7 334.6 333.3 332.2 328.1 339 343.7 344.2 345.1 348.4 350.1 351.7 351.7 353.9 356 353.2 355.4 349.2 349.3 351.4 348.2 343.4 350.1 342.8 345.2 348.7 347 343.5 335.6 332.5
671.2 670.8 673.5 678.7 684.6 691.8 697.8 703.1 707.2 710.2 712.9 711 714.9 725.1 729.8 734.9 740.7 748.8 758.4 765.5 772.7 782.3 794.8 807.2 819.3 829.7 839.4 850 859.2 866.7 874.6 880.4 882.7 884.4 889.7 893.5 897.6 900.8 902.4 904.1 908.3 907.3 913.3 921 927.5 932 942.4 949.3 956.7 968.9 985 1007 1028.1 1044.2 1058.4 1067.4 1022.9 1003.9 954.8 956 960.3 935.7 864.4 840 803.9 756.8 704 677 661.1 651.4 646.1 636.6 632.8 624.5 619.9 618.9 619.9 618.6 622 622.4 614.6 620.9 624.6 628.4 633.5 640 644.8 649.7 654 661.9 670.9 677.7 683.2 688 692.7 697.8 708.1 720.6 735.2 746.2 755.3 763 771.3 777.4 781.2 780 776.8 774.9 770.2 767.5 777.1 771.8 768 767.6 758.6 756.4 751.9 744.5 733.2 717.1 684.7 647.2 617.1 588.4 564.1 546.1 529 510.5 494.2 479.5 465.7 452 439.7 426.5 417.2 410.9 405.2 402.3 397.2 386.2 371.5 378.5 391.3 396.4 403.4 408.8 414 420 428.7 431 425.9 422 420.6 416.4 410 407 396.2 383.7 376.3 370.6 364.5 356.9 352.4 347.7 344.4 342.8 341.2 340.5 339 331.5 330.7 330.1 327.9 325.2 332.6 334.4 335.3 338.6 341.2 343.4 345 343.5 346.2 348.6 349 344.7 347 344.9 346.1 350.5 345.5 342.7 346 349.5 350.6 349.8 339.5 331.9 333 331
672.3 675.5 677.7 681.9 687.2 695.4 699.4 705.4 709 711.5 714.1 718 721.3 723.5 729.8 736.9 742.6 750.9 760.1 766.7 773.8 781.9 793.7 806.5 820.7 832.8 842.8 854.3 863.3 869.9 874.6 881.1 884.2 883.6 886.7 890.7 894.8 897.5 899 903.3 905.5 905.7 909.9 917.3 925.7 933.6 943.9 955 965.7 975.5 992.2 1014.5 1037.4 1055.2 1067.1 1073.7 1063.6 1062.8 1028.2 1021.8 1022 992.5 930.9 885.9 843.1 786.6 720.1 663.1 638.8 639.6 635.8 627.2 618 616 616 616 616 616 616 619.1 624.7 630.3 636.9 643.2 648.4 652.6 658.7 666.1 673.8 681.8 690.5 697.6 702.2 707 717.2 727.4 737 748.3 759 769.7 779.6 790.8 799.8 806.1 809.3 805.4 799.7 795.8 786.6 780.2 791 791.1 789.7 785.9 783.9 783.6 782.1 776.2 759.1 722.6 688 647.6 620.3 595.4 569.6 546.5 530.2 511.6 493.3 478.1 465.1 449.9 437.8 424 413.2 408.9 403.8 400.7 395.8 383 367.3 373.7 380 387.8 393.3 397.9 403.4 410 414.7 415 409.9 412.6 409.1 403 395.4 388.5 375.9 370.6 361.2 354.5 351.3 344.6 340.9 337.2 335.1 335.6 333.4 332 328.5 323.8 323.8 324 314.1 324.2 328.1 326.9 331.1 334.4 335 336 335.2 335.5 337.3 340.3 344.3 339.2 337.5 339.8 341 340.3 345 350.3 350.4 350.3 347.7 346.3 325.8 324.9 320.9 315.7
675.3 679.4 683.5 688.1 693.2 697 702.2 708.1 714.4 714.3 716.9 721.5 724.7 724.7 726.5 739.9 744.4 751.2 759.3 766 773.9 782 793.5 806.8 821.9 835.5 845.7 856.8 865.9 873.3 878.3 882.2 884.6 883.9 885.1 890.4 893.1 895.5 898 904.1 906 906.5 907 907.2 914.3 927.1 939.4 953.6 965 973.7 989.3 1018.5 1048.3 1065 1073.6 1079.2 1080.4 1080.6 1078.3 1071.9 1057.9 1027.1 975.9 865.9 815.9 766.2 707.9 667.2 643.9 632.1 627.4 620.7 616 616 616 616 616 616 618 627.5 635.3 641.8 650.2 656.1 662.9 668 675.7 682 689.8 699 705.6 711.5 719.7 728.4 737.3 750.1 762.4 774.8 788.1 800.7 811.8 821.6 832 839.5 842.1 838.4 830.5 822.2 814.6 808.3 816.5 819.3 814.2 813.1 813.3 812.2 811.5 799 774.6 723.7 684.7 651 621 599.9 571.4 542.2 527 508 492.1 476.7 464.2 451.1 436.7 421.2 410.6 404.7 398.9 395.8 391.6 383 367 363.5 371.3 378.7 385.9 387.6 392.3 397.3 400.2 398.9 399.3 401.7 397.2 390.3 377.3 369.7 359.4 356.6 347.6 341.2 337.4 332.6 330.9 327.1 326.7 325.5 324.3 321.9 320.4 317.5 316.6 313.2 321.8 320.6 322.2 321.7 324.8 328.3 328.4 331.2 326.1 333.2 334 334 335.4 328.7 328.5 328.1 336 344.1 350.1 346.5 344.6 344.8 345.2 336 322.2 321.6 319.9 310
680.7 685.9 693.1 697.1 700.2 702 707.1 715.4 717.1 720.5 721.7 725.7 727.2 732.4 735.2 734.9 745.3 749.2 756.5 763.5 772.6 781.9 792.8 808.2 821.8 834.3 846.4 857 866.3 873.2 877.4 881.2 884.3 888.3 888.6 892.6 896.8 896.9 900.3 906.1 906.4 904.3 900.2 900.2 905.5 916.8 937.6 950.6 955.4 966.2 984.2 1021.2 1052.1 1069.3 1077.6 1081.9 1082.5 1081.4 1077.9 1073.8 1068 1053.4 994.7 873.5 802.7 742.8 703.7 677.9 658.6 638.9 624.1 616 616 616 616 616 616 621.1 630.3 639.3 647.3 653.6 661.5 667.8 675.9 682.7 688 695.8 704.5 715 722.3 728.8 737.5 749.6 761.8 775.3 792.6 806.4 820.3 833.7 844.7 857.3 866.9 868.9 867 863.9 855 848.3 839.8 828.3 832.9 833.1 832.1 830.2 829.8 821.4 817.9 798.5 770.8 725.9 688.9 655.2 622 597.8 569 542 519.4 505.1 489.7 473.8 461.8 449.5 433.5 417.2 405.9 398.6 395.5 390.3 384.4 381.9 371.2 356.9 360.5 370.9 378.1 376.8 379.2 384.7 385.8 385.3 387.4 387 379.9 369.4 363.4 355 346.4 341.7 336.3 328.8 324.8 321.2 319.9 318.1 317.5 317.8 315.9 316.2 316.2 314.3 304.2 316.1 318.5 317.3 317.8 317.5 320.2 321.8 322.5 325.3 324 329.1 331.3 332.5 326.3 320 321.4 332.5 340 341.3 336.9 334.6 336.8 339.1 343.2 322.9 312.7 313.4 302.9 300.4
690 695.1 700.2 703.7 706.2 709.2 713.9 717.7 722.9 723.9 727.8 731.5 736.4 736.6 742.2 744.7 745.2 749 754.3 760.9 769.8 781.1 791.1 807.7 821.8 832.5 843.9 853.5 863.1 870.1 873.2 880.8 887.4 894.9 895.7 897.1 896.4 896.4 900.3 903.6 900.2 900.2 900.2 900.2 910.4 927.4 945.2 946.3 947.6 965.8 990.6 1018.5 1051.6 1068.8 1079.7 1083.2 1082.8 1080.8 1077.1 1073.1 1067.8 1039.3 985.8 893.9 816 761.9 713.5 689.7 667 644.8 621.9 616 616 616 616 616 622.2 633.7 641.3 649.4 657.3 664.7 672.1 679.6 688 694.8 700.7 708.6 719.3 730.8 738.5 745.7 758.5 772.4 791.2 806.1 821.8 838.5 853.1 866 875.4 884.5 887 883.4 878.3 872.1 859.9 848.9 840.1 837.7 836.9 835.9 834 831.8 826.5 818.3 805.3 786.7 758.1 725.2 680.4 648 618.4 587.5 563.2 541.1 521.4 504.5 489.2 474.1 460.7 447.8 434.1 420 405.9 395.7 392.4 387.5 380.2 377.1 371.9 359.4 350.5 360.6 369.7 364.4 366.8 373.9 375.7 373.9 374.6 368.1 360.6 353.5 346.3 343.2 333.5 327.3 324.3 320 315 311.8 311.3 310.2 310.3 310.3 311.8 313.9 311.2 305.7 310 313.8 314.1 314.2 312.9 312.7 314.9 317.5 317.3 320.1 321.5 321.8 324 319.5 316.5 317.3 320.3 324.2 326.2 328.8 327.1 327.2 333 326.3 315.3 305.5 302.3 308 302.2 284.5
700.1 705.2 708.1 711.4 714.9 718.3 721.2 726.2 727.7 730.4 734.3 738.8 743.5 744.7 746.2 746.9 747.9 749.9 754 761.5 769.8 782.2 796.9 811.2 825 834.7 843.9 851.2 859.6 865.3 872.3 885.8 894.5 895.3 899 902.1 902 898.4 900.5 900.2 900.2 900.2 900.9 907.9 926.2 942.1 947.8 954.1 959.4 976.7 1000.2 1025.4 1048.2 1069.7 1080.4 1083.4 1082.8 1080 1076.3 1072.6 1066.1 1023.3 960.1 892 812 768.5 726.1 716.8 665.6 641.6 621.4 616 616 616 616 620.7 633.3 641 649.5 657.7 665.1 673.5 680 690.2 698.6 708.4 716.1 727.4 735.6 743.9 754.7 767.1 782.6 800.7 819.5 838 855.1 872.4 881.9 889.6 897.9 900.6 895.8 888.9 881.8 872.9 862.9 845.4 848.9 842.5 837.4 832.2 827.6 823.4 815.8 805.1 791.7 772.1 743.2 706.6 670.2 639.4 609.8 581.8 558.5 540.3 519.8 504.6 491.7 475.9 459.4 447.4 434.3 420.8 408.5 395.7 388.7 383.7 378.3 371.1 368.2 360.9 352.1 346.7 357.8 356.8 357 358.4 365.4 362.9 356.7 352.5 346.6 340.3 330 328.9 322.6 317.6 313.5 312.7 311.7 308.4 303.8 302.6 303.9 305.7 308.5 309.9 301.1 306 308.3 308.3 306.7 307.4 306.5 306.5 309.8 311.2 313.2 316.6 320.8 317.7 314.9 312 310.4 310.7 315.6 314.7 315.5 312.8 312.9 312.5 314.5 317.7 301.6 298.7 298.3 296.9 287.8 282.1
711.6 716.7 720.5 724.3 728.3 731.2 733.9 736.1 738 739.6 741.3 743 747.1 750.5 751.5 752.3 750.4 752.1 755.6 761.3 774.6 784.2 796.8 812.1 824.6 835.2 842.3 852.9 859.3 866.5 879.9 887.7 894.1 902.9 907.6 913.5 916.3 914 910.8 911.4 912 915.9 916.8 926.3 939.3 947.2 960.6 975.1 978.7 985.9 1002.8 1021.8 1048 1070.8 1080.1 1083.4 1083.3 1080.3 1077.3 1071.8 1059.9 1024.5 973.8 894.6 821.9 766.8 783.7 771.8 666 635.7 616.6 616 616 616 617 632.4 639.5 648.7 656.7 665.6 673.5 681.4 690.1 699 707.7 718.5 732.9 741.7 749.9 759.2 772.9 790.6 811.5 832.6 850.1 873.1 892.1 900.5 907.4 914.7 916.2 913.6 906 896.8 886.4 874.4 866.3 852.1 845.7 842.5 833.8 823.9 817.9 810.5 801.4 790.5 773.4 753.4 724.5 688.4 661.8 633.3 602 576.8 555.6 539.8 520 504.8 490.5 476.4 458.5 444.1 432.6 419.9 407.9 399.2 389.6 379.9 374.1 366.1 361.1 360.4 350.7 341.9 347.6 349.7 352.6 349.2 352.3 349.5 346 340.2 333.9 324.2 319.8 317.7 312.2 307.3 306.7 306.5 304.6 302.2 300.1 300.1 301.4 300.6 302 300.7 299.4 307.5 307.4 306.1 303.1 303.9 300.1 302.8 304.8 306.5 307 310.6 311.9 304.4 303.5 307 307.7 306.9 305.3 302.4 306.2 302.4 307.7 314.6 311.1 305.8 300.9 299.4 297.5 291.8 284 270.8
728.3 737.7 738.9 740.2 744.4 747.6 751 751.4 749.9 749.3 751.7 753.1 754 754.4 755.6 757.2 752.2 753.9 756.6 764.1 773.4 781.9 796.9 810.4 827.1 835.6 842.3 850 857.4 869.9 882.3 892.4 902.2 921.9 933 927.2 932.5 938.4 944.5 943.6 941.5 938.4 949.3 969.4 963.6 965.9 972 985.3 989.4 998.1 1012 1033.5 1061.4 1070 1080.9 1084.6 1084 1082.5 1077.8 1069.1 1059.1 1017.5 941.3 877.8 809.2 812.1 818 826.7 737.1 650 630.4 623.3 621.3 621.8 632.6 638.7 645.2 656.1 662.6 671 679.7 689.6 698.3 711.4 721.1 734.6 745.9 756.9 766.8 778.5 795.4 816 839.1 860.6 887.5 907.5 919.8 924.1 935 940.8 935.3 925 917.2 906.8 895.6 884.8 871.8 859.2 848.1 839.4 823.3 810.9 804.8 794.7 783.3 767.5 747 729 705 673.5 648.4 623.4 596.8 573.9 550.3 536.5 519.7 504.1 488.7 472.7 454.3 442.2 430.2 418 405.5 397.3 389.3 377.4 368.8 362.5 356.2 351 352.3 342.4 336.8 338.9 346.6 342.2 338.9 338.2 332.5 326.9 320.1 315.1 310.5 306.9 302.4 301.2 298 297.7 296.2 294.8 294.3 294.3 294.4 294.4 294.2 293.3 300.7 302.2 302.3 302.1 299.7 295.6 295.3 296.9 296.9 296.7 299 298.5 297.9 299.3 303.9 307.7 305.8 304.6 300.3 296.2 297.7 298.4 300.2 301.6 306.7 298.3 300.8 301.1 293 286.6 270.2 265.6
750.4 752.7 754.9 758.2 756.1 761.8 762.6 762.2 763.1 761.4 761.7 761.5 759.8 759.4 762.7 758.6 756.7 758.3 763.2 767.4 773.1 783 797.2 810.7 825.7 836.2 841.1 853.3 858.8 871.1 884.3 892.4 909.4 923.2 929.1 940.1 957.2 971.2 983.6 987.6 1005.2 984.4 986 1001.7 999 999.2 995.9 1001.6 1031.6 1043.5 1040.7 1061.3 1075.7 1082.4 1084.1 1087 1086.5 1084.1 1077 1067.9 1055.5 1035.9 997.1 898.7 852.2 852.5 854.6 863.8 801.8 670.5 656.9 644.7 637.2 637.4 646.1 650.7 653.8 664.5 670.8 679.5 688.8 700.5 713.8 728.1 735.6 745.9 758.9 771.7 785.6 801.2 817 839.9 865.3 894.3 917.3 931.7 943 953 960.6 960.1 951.5 939.8 927.3 918.6 906.2 894.5 880 865.9 851 835.5 819.1 804.6 793.5 780.3 769.8 745.1 730.3 709.1 688.2 665.4 640.1 617.5 592.3 566.6 551.8 538 520.3 503.1 486 469.6 453.2 437.2 425.4 413.6 403.4 393.6 383.1 375.2 364.7 358.5 352 346.7 341.3 337.6 330.5 329.8 336 333.3 328.8 326.9 320.6 314.1 308.6 308.2 302.9 299.3 295.5 289.7 289.7 290.2 289.5 286.3 285.6 285.6 286.7 285.9 286.8 294.3 296.7 296.6 296.6 294.7 291.7 291.3 291.2 291.1 293.1 296.8 297.7 295.7 298.2 298.2 298.3 299.8 299.6 299.9 294.6 291.1 288 288 291.2 291.3 289.1 294.4 296.8 293 279.6 264.8 260.2 257.2
765.9 771.6 774.6 773 771.8 774.4 773.5 774.8 773 772.1 771.8 767.9 765.6 764.9 762.8 762.7 759.6 759.3 771.3 772.8 777.8 788.4 799.2 814.8 827.5 836.8 842 851.6 864 876.3 890.9 904 918.7 925 928.1 942 962.5 973.6 986.9 1003.2 1025 1039.3 1036.6 1047.1 1040.2 1052.3 1036.8 1056.6 1071.4 1079 1087.6 1095.1 1094 1092.8 1091.9 1091.6 1088.8 1085.9 1076.8 1065.9 1052.2 1038.7 989.3 897.6 893.6 887.3 885.3 896.2 838.5 701.7 684.9 665.6 656.3 655.1 659.6 664.3 666.5 673.2 680 689.8 702.9 717.1 731.8 741.5 746.9 758.3 772.5 791 806.6 820.5 832.6 858.5 892 917.3 939.3 955.6 968.2 979.7 982.9 975.4 965.1 954.3 942.3 930.3 917.5 904.8 892 875.2 859.4 838.5 818.9 802 792.2 780.9 759.4 736 716.8 700 680.1 657 634.1 612.9 591.9 569.9 555.5 539.5 521 502.7 482.6 464.5 449 433.2 421 410.5 401.3 392 378.4 368.6 361.4 355.5 349.9 343.8 337.7 332.3 331.6 323.1 324 325.3 323.7 320.9 309.5 301.4 300.1 299.4 295.2 289.4 284.4 283 285.6 282 280.6 281.2 281 277.8 273.6 277.4 285.7 287.5 288.5 287.1 287 286.4 285.8 286.7 289.3 288.3 290.4 292.2 293.1 294.6 300.2 296.6 290.9 291.5 291.6 291.1 287.5 284.8 281.9 278.9 279.4 280.7 281 282.6 279.7 270.8 262.9 255.3 246.6 246.6
784.7 788.5 790.2 789.5 785.5 781.5 786.1 785.8 782.5 783.2 780.6 775.9 774.4 773 772.1 765 764.4 766.8 771.7 778.1 790.7 798.6 806.5 819 833.2 842 853.6 861.9 869.2 884 897.8 913.5 927.2 932.7 937.6 953.9 967.6 978.1 993.4 1008.4 1027.3 1051.5 1078.5 1086 1087.7 1087.9 1095.3 1098.2 1101.4 1102.4 1104.1 1104.2 1101.8 1099.3 1097.1 1094.4 1090.7 1085.4 1077.3 1067.4 1056.9 1047 1044.7 934.3 924.8 915.7 918.2 931.1 853.1 770 709.6 686 684 673.6 675.4 678.2 684.7 687.7 695.9 709.5 720.8 734.4 755.6 758.2 763.1 770.2 786.7 805.2 820.6 833 845.2 869.7 901.5 927.6 953.2 976 989.6 997.2 994.6 985.3 975.2 966.8 956.7 946.4 933.1 920 905.3 888 869.4 848 824.8 807.6 791.9 775.4 754.8 732.7 712.8 695 677.7 652.8 632.3 614.1 591.2 575.4 559.3 542.6 524 500.8 480 461.6 444 429.4 417.1 407.3 396 388.5 378.2 367.6 359.3 353.5 347.6 343.4 340.4 330 326.1 322 317.2 314.6 317.5 307.5 300.8 295.9 295.3 293.1 288 283.8 279.9 276.8 273.6 272.5 274.3 274.5 273.6 272.3 270.8 275.2 278.2 278.4 279.2 278.8 278.9 279.3 279.9 281.3 281.5 281.6 284.9 290.6 293.5 297.4 298.1 296.7 288 280.3 280.1 281.7 283.5 283.5 282.1 280.2 278.5 279 277.7 270.1 264.3 258.2 247.6 246.6 246.6 246.6
796.6 803 803.7 801.9 797.5 795.3 800.7 799.1 798 794.1 789.8 786.3 784.7 789.1 781.5 779.2 781.4 783 789.5 796.2 798.5 810.9 823.9 837.4 847.4 852.7 863.8 873.9 889.4 910.9 943 954.3 962 960.4 965.4 975.3 988 993.6 1002.6 1014.3 1041.4 1064.1 1088.7 1102 1105.8 1106.6 1109.4 1107.6 1107 1108.7 1109.7 1108.7 1106.3 1102.1 1098.7 1095.2 1091.4 1085 1077.9 1068.5 1059.2 1049.3 1046.9 976.6 957.5 950.7 948.8 956.6 890.4 769.6 766.2 717.7 715.8 720.2 707.1 703.4 708.8 712.3 722.2 733.2 741.5 752.8 763.4 781.6 791.2 793.5 806.5 823 828.1 834.6 845.5 867.1 901.6 934.4 967 990.5 1001.8 1000.6 997.2 989.9 982.2 975 968.2 957.6 946.2 929.8 915.8 898.2 877.7 857.1 836.3 813.9 791.4 770.9 752.1 737.6 719.7 702 680.1 652.9 633 609.1 592.7 577.6 562.5 543.9 522.5 497.3 474.6 457.3 440.3 426.1 414.5 403 391.1 384.4 376.6 367.2 360.4 354.3 348.8 342 334.7 325.5 322.2 320.6 316.9 310.7 309 305.6 300 295.6 291.1 288.5 285.6 282.5 280 277.3 275.1 273.3 271.7 269.8 267 270.5 267.8 268.8 271.1 270.2 271.3 272.3 271.8 273.1 274.9 275.8 276.8 279.9 282.7 286.6 292.2 294.2 296.4 295.3 286.8 281.6 274.6 276.5 278.5 278.1 277.1 276.8 271.4 265.3 263.6 258.6 247 246.6 246.6 246.6 246.6 246.6
808.4 811.8 814.2 812.5 809.2 806.4 815.3 811.9 809.7 805.3 797.8 797 792.8 793.9 797.5 815.6 813.4 824.2 824 823.5 835 849.4 865.4 867.4 883.7 895.1 894.4 906.8 928.8 951.2 967 973.3 980.1 984.3 990.1 1005.7 1010.2 1014.9 1023.6 1033.6 1050.7 1077.5 1092.3 1104.9 1108.7 1110.2 1110.7 1109.8 1110.4 1112.5 1113.2 1111.9 1108.4 1103.2 1098.6 1094.3 1090.1 1083.8 1076 1067.9 1058.5 1048.3 1045.3 1030.6 995 987.4 992.8 1017.5 943.1 806.1 828 756.6 751.2 762.6 769.9 761.6 741.5 745 748.1 763.6 768.7 770 781.7 801.2 815.8 826.5 839 839.1 831.3 833 845.1 867.5 899.8 937.2 972.5 992.3 997.8 996.3 993.6 990 984.6 980.7 975.5 964 953 937.9 919.6 904.2 884.8 865.2 847.3 827.6 806.4 787 763.4 741.4 724.6 704.6 682.5 655.3 634.3 615.3 597.7 580.7 562.2 539.2 516.7 494.2 472.3 451.7 437.1 421.4 410.2 398.3 387 379.8 370.7 363.1 353.8 349 344.6 335 330.1 323.9 319.4 315 313.3 309.7 305.2 301.4 298.6 295.6 291.6 288.3 284.7 282.3 280.1 277.8 275.7 273.7 271.5 269.3 267.6 265.7 267.1 264.5 265.3 265.4 266.6 267.1 267.4 268.2 269.6 271.6 274 276.6 280.1 284.7 287.1 286.8 288.4 289.6 282.6 274.4 274 269.3 268.2 266.2 261 256.7 246.6 246.6 246.6 246.6 246.6 246.6 246.6 246.6 246.6 246.6
816.9 821.6 823.8 822.1 820 822.2 826.4 826 821.9 818.5 814.5 814.4 818.6 819.7 826.9 836.2 841.7 852.4 856.9 861.9 873.2 881.3 889.1 892.8 909 914.8 931.3 945.7 956.8 975.5 988 1001.1 1009.1 1021 1028.7 1047.2 1044.5 1051.2 1056 1060.5 1080.1 1083.7 1093.8 1106.1 1108.7 1110.2 1110.7 1111.9 1113.6 1115.3 1115 1112.5 1107.8 1101.6 1096.7 1092.2 1087.5 1080.4 1073.4 1062.9 1055.9 1048.8 1043.8 1030.6 1017.7 1011.7 1023.2 1034.4 959.7 851.5 874.7 798.1 787.6 796.4 808.6 812.4 801.8 786.7 781 792.1 804 792.7 802 820.6 841.7 859.9 870.7 862.7 845.9 843.6 845.9 866 898.7 938.9 976.8 990.5 990.2 989.3 986.8 984.3 983.5 980.3 974.6 966 954.8 940.7 921.7 906.1 889.4 873.6 853.7 834.2 817.1 797.7 775.6 752.3 724.9 700.3 677.4 653.1 633.6 617.4 599.5 577.4 551.3 533 509.4 489.9 471.8 445.6 433.1 415.8 401.8 391.4 381.9 373.1 363.1 356.4 349.8 345.1 339.7 331.1 323.4 319.6 317.1 313.8 307.6 307.2 302.1 302.3 297.2 294.2 291.2 288.5 285.6 283.2 279.3 276.3 275.7 273.2 270.4 268.6 266.8 265 263.5 262.6 261.9 264.2 265.3 263.7 263.2 264.4 267.2 270.5 270.7 272.2 275.6 277.6 279.6 280.2 278.9 274.6 263.3 261.4 261.3 257.8 255.4 246.6 246.6 246.6 246.6 246.6 246.6 246.6 246.6 246.6 246.6 246.6 246.6 246.6
823.5 831.8 830.7 831.7 834.1 835.8 836.4 837 838.6 837.1 834.9 845.1 846.7 852.6 859 870 879.4 873.8 878.4 894.2 898.4 898.8 903.9 920.2 925 937.1 954.2 966.4 982.4 1003.9 1026.1 1047.6 1056.7 1060.3 1068 1074.6 1078.3 1092.4 1095.1 1100.7 1108.3 1108.7 1104.6 1104.8 1107.4 1109.4 1111.6 1113.8 1115.8 1116.2 1114.9 1110.6 1104.6 1098 1093.8 1089 1082.4 1074.8 1065.5 1057.9 1050.8 1044.5 1038.2 1032.6 1022.4 1017.9 1029.6 1029 961.3 896.8 913.3 895 920.8 831.2 841.8 845.2 853.4 827.3 831.5 820.7 823.1 817.6 825.4 844.2 866.7 893 911.2 891.5 871.9 857.6 857 871.8 902.4 938.9 978.4 985.2 981.9 979.2 977.3 975.6 974 971.3 968.4 959.9 946.8 932.8 912.7 903.1 886 869.5 851.8 832.2 817.5 798.2 782.2 764 736.6 704 675.6 651.8 627 607.4 587.8 563.7 541.2 522.2 503.4 484.5 462.9 440.8 424.7 410.2 398.2 384.7 374.2 367.1 359.1 352.7 348.2 339 334.2 330.5 322.5 318.6 312.7 305.7 302.4 303.4 301.3 298.5 296.5 293.8 290.6 287.6 287.3 287.1 285.4 280.3 272 269.9 268 266.9 264.4 263.5 262.7 261.3 260.1 262.3 263.3 262.8 263.4 265.2 266.6 266.8 268.5 271.1 271.5 270.8 272.9 271.1 264.4 257.3 247.8 246.6 246.6 246.6 246.6 246.6 246.6 246.6 246.6 246.6 246.6 246.6 246.6 246.6 246.6 246.6 246.6 246.6
827 835.3 836.8 839.5 842.1 846.2 850.1 852.7 856.5 857.1 857.5 861.2 866.5 870.9 876.8 882.2 887.6 893.7 894.4 906.1 917.2 916.6 929.1 936.1 946.5 963 970.3 985.1 1008.8 1031 1055.9 1075.9 1087.9 1102 1110.9 1118.6 1122.9 1126.1 1124.1 1119.2 1112 1103.9 1099.8 1101.3 1104.7 1108.4 1112 1115 1116.8 1115.7 1112.7 1107.4 1100.2 1094.2 1089 1083.9 1075.4 1068.3 1060.7 1054.2 1045.1 1040.5 1038.8 1034.5 1025.9 1022.4 1035.4 1040 956.6 937.7 946.3 962.8 972.8 935.1 869.8 870.2 879.1 870.6 870.2 868.3 864.1 847.1 852.8 871.5 895.2 926.1 940.4 922.2 896.5 882.1 877.4 887.2 915.7 951.4 981.4 976.4 971.1 967.4 965.6 964.3 963.1 961.1 956.5 947.5 935.5 921.8 908.7 895.5 878.2 862.2 843.4 827.1 812.1 795.4 780 763.5 740.9 712 677.3 650.9 625.1 603.8 578.5 556.3 532 514.4 496.2 477.6 456.7 435.9 419.8 407.6 396.4 382.1 372.7 364.6 355.9 350.1 343.7 335.5 330.5 325.6 320.5 312.9 303.5 301.3 299.8 298.2 298.8 295.7 294.6 292.6 290.4 288.6 287.3 284.4 281 275.8 270.6 269.1 267.2 266.5 267 261.9 260.5 259.8 258.8 259.8 260.3 261.7 262.9 263.8 264.7 264.5 267.1 270.2 273 264.7 260.7 256.9 246.6 246.6 246.6 246.6 246.6 246.6 246.6 246.6 246.6 246.6 246.6 246.6 246.6 246.6 246.6 246.6 246.6 247.7 246.6 246.6
829.7 836.6 840.4 847.3 851.8 855 858.9 866.6 868.6 872.4 876.5 877.5 880.8 881.7 885.5 888.9 892.4 896.5 904.6 915.6 925.8 938.6 943.5 955.9 968.6 976 990.5 1010.4 1032 1055.5 1074.1 1087.7 1099.6 1109.9 1118.5 1125.4 1127.9 1125 1119 1110.4 1100.5 1094 1092.6 1096.1 1101.7 1107 1111.2 1114.3 1115.1 1112.7 1108.7 1103.3 1095.3 1088 1083.6 1076.1 1069.4 1063.5 1056.6 1047.8 1041.2 1039.3 1037.1 1031.5 1024.9 1028.8 1040.3 1043.8 993.6 989.8 988.1 1018.7 1026.5 995.7 904 900.7 904.3 898.4 886.3 888.4 886.6 877 883.4 901.8 922.1 962.7 969.8 951.9 927.4 912.2 904.7 908 935.1 972.4 976.3 967.3 960.5 955.5 953.6 950.1 949.4 946.7 941.2 931.4 924 910.4 896.8 884 867.2 852 833.7 818.4 800.7 784.5 771.5 762.5 741.8 714.7 679.7 643.9 620 594 571.5 545.6 526.5 506.8 489.1 469.1 451.4 434.1 419.1 405.7 392.5 381.3 373.6 365.8 353.8 345.9 338.6 330.7 325.4 320.3 310.9 304.4 300.4 298.3 296.9 295.5 295.3 291.1 291.6 290.4 288.1 286.1 285.4 282.3 279.5 272.7 271 269.4 268.6 266.8 261.7 259.9 259.3 258.5 257.8 256.6 261.1 263.6 262.8 262.6 262.2 263.6 269.8 269 259.9 252.2 246.6 246.6 246.6 246.6 246.6 246.6 246.6 246.6 246.6 246.6 246.6 246.6 246.6 246.6 246.6 246.6 246.6 246.6 246.6 246.6 246.6 246.6
830.9 838.2 845.8 853.7 858.1 871.2 872.1 879.1 881.4 886.4 889.6 893.2 892.8 892.2 896 909.4 918 912.4 918.7 927.1 934.8 945.6 960.8 971.2 984.1 998.3 1015.6 1034.9 1055.6 1070.8 1084.1 1095.4 1105.8 1114.1 1121.2 1125.2 1121.3 1114.3 1106.1 1095.5 1083.8 1082.3 1084.3 1090.2 1098.2 1104.3 1109 1111 1110.7 1108.1 1103.2 1098 1089.3 1082.6 1077.1 1069.3 1063.4 1058.2 1048.7 1040.8 1037.3 1035 1031.4 1027.8 1025.9 1032.8 1040.9 1041.2 1033.9 1026.2 1031.5 1047.6 1054.4 1024.6 957.5 927.4 930.3 920.7 913.8 913.8 918.2 912.4 918.2 934.5 963.8 997.4 1004.4 983.9 961.4 943.3 934.4 938.1 960.1 980.7 972.5 962.8 951.4 942.4 937.5 934.3 932 928 919.9 914.8 905.6 888.9 877.8 870.2 854.2 839.3 824.7 807.1 791.6 776 764.6 751.8 731.5 708.8 678.2 638 608 585.4 561.4 538.5 520.1 500.5 483.5 465.3 446.8 430.9 416.4 407.7 390.1 382.3 376.4 362.5 352.4 343.1 333.3 325.7 319.2 313.5 307.6 303.5 299 295.8 294.3 292.4 291.1 289.9 285.5 285.9 285.5 283.9 283.5 276.4 273.4 272 269.7 262.1 259.8 260.1 260.1 258.3 258 257.3 256.5 255.7 260.5 260.9 259 258.5 258.5 259.8 258.8 253.8 246.6 246.6 246.6 246.6 246.6 246.6 246.6 246.6 246.6 246.6 246.6 246.6 246.6 246.6 246.6 246.6 246.6 246.6 246.6 246.6 246.6 246.6 246.6 246.6
828.4 838.9 848.5 859.1 870.5 881.3 889.7 888.4 899.2 901.9 900.6 903.8 905.8 899.5 906.7 917.5 918.4 925.7 936.5 940.8 951.7 964.5 974.7 984.4 999.1 1020.3 1040.6 1060.1 1073.7 1084.1 1093.2 1102.4 1110.2 1116.8 1120.5 1113.5 1102.1 1093.2 1085.4 1076.7 1071.2 1073.4 1076.3 1085.8 1094.1 1100.8 1104.7 1105.9 1105 1101.3 1096.6 1090.3 1081.8 1076 1068.9 1063.1 1058 1050.3 1040.6 1035.3 1032.4 1029.5 1027 1025.2 1027.9 1034.5 1041 1045.2 1047.5 1050.3 1056.7 1064.3 1064.1 1057.4 1008.3 955 955.5 946.3 947.2 947.4 956.7 957.6 951.6 980.1 1004.5 1029 1038.1 1015.3 997.9 983.4 973.9 970.5 983 976.1 965.7 951.5 936.6 924.1 918.5 913.4 911 908.6 903.5 897.9 886 873.6 863.7 853.1 842.7 829 812 795.5 781.4 765.6 754.3 741.5 720 693.3 669.9 629.8 600.5 570.9 553.5 532.5 517.2 496.7 477.2 459.2 441.2 427.2 411.7 399.2 387.3 379.9 368.7 356 347.5 337 328 322 317.4 310.6 305.3 301.2 297.3 293.9 292.4 290.1 288.4 286.7 285.7 281.5 281.1 282 276 270.1 267.9 265.2 262.6 259.2 257.9 256.5 257.5 257.3 256.8 256 255.2 255.7 256.2 256.1 254.8 253 250.8 248.4 246.6 246.6 246.6 246.6 246.6 246.6 246.6 246.6 246.6 246.6 246.6 246.6 246.6 246.6 246.6 246.6 246.6 246.6 246.6 246.6 246.6 246.6 246.6 246.6 246.6 246.6
827.5 837.2 851.6 867.2 878.3 891 899 899 914.4 918 916.5 917.4 915 921.3 923.4 924.5 930.6 937.7 943.4 953.4 968.1 979 995.8 1013.8 1030.2 1050 1064.8 1077 1088.3 1096 1102.1 1108.4 1113.1 1114.8 1104.9 1082.7 1065.9 1062.9 1060.1 1055.8 1058.7 1064.1 1068.6 1080.3 1089.8 1096.1 1098.8 1099.2 1097 1092.9 1087.8 1080.4 1074.2 1067.7 1060.6 1056.3 1050.9 1041.8 1034.7 1030.6 1026.5 1024 1023.2 1022.5 1027.5 1034.5 1041.5 1047.1 1051.6 1057 1061.9 1067.4 1068.2 1065 1037.2 984.1 976.9 976.1 977.8 982.2 994.4 1004.1 990.9 1015.3 1023.7 1052 1061.4 1045.9 1031 1017 997.8 984.9 977.3 969.3 953.7 936.6 914.9 901.6 891.9 888 887.6 885.2 881.2 875 865.8 858.4 847.6 839 826.8 814.9 799.6 785 768.5 756.1 739.8 724.8 703.8 678.8 651.7 620.2 583.9 560.2 541.3 526.9 510.7 490.8 473.3 455.8 437.4 419.7 406.8 391.2 382.6 371.7 360 349.9 339.1 329.5 323.7 320.7 317.9 309 302.3 298.6 295.1 292.9 290.7 288.9 285.8 283.9 282.7 281 277.4 271.7 271 267.3 266.1 264.6 261.5 258.9 257.6 256.7 256.2 256.2 256 254.6 253.6 253.9 254.6 253.8 252.3 251.2 247.9 246.6 246.6 246.6 246.6 246.6 246.6 246.6 246.6 246.6 246.6 246.6 246.6 246.6 246.6 246.6 246.6 246.6 246.6 246.6 246.6 246.6 246.6 246.6 246.6 246.6 246.6 246.6
826.2 838.3 857.4 875.3 887.7 893.2 903.9 917.8 925.3 928.8 929.1 931.9 924.6 930.1 933.1 937.7 943.4 948.8 956.8 967.9 984.9 1008.6 1026.3 1039.9 1053.9 1066.2 1079.1 1090.7 1100 1105.8 1109.8 1108.8 1110.4 1093 1068 1046 1033.7 1031.7 1036.4 1041.6 1048.5 1051.1 1063 1075.2 1084.4 1089.7 1091.7 1090.8 1087.9 1083.4 1078 1071.1 1064.9 1058.3 1052.2 1049.3 1043.8 1035.8 1030.3 1024.2 1021.4 1020.3 1017.8 1021.5 1026.8 1033.2 1040.8 1046.8 1052 1056.5 1062.3 1066.6 1069.1 1069.3 1043 1010.4 1006.2 1012.4 1017.1 1021.2 1035.3 1050.3 1023.5 1051.5 1065 1061.3 1053.5 1039 1020.6 1003.6 989.6 976.6 968.6 954.1 934.4 914.9 893.5 876 873.1 865.1 856.9 856.6 853.6 851.7 845.7 836.8 829.2 823.3 811 796.2 783 769.7 750.9 738.3 725.9 704.4 688.1 667.6 637.6 602.8 574.5 552.8 534.8 520.5 503.3 485.8 469.3 448 431.7 418.5 401.5 389.1 378.6 366.8 355.9 345.5 336 326.7 320.1 317.9 314.8 309.1 300.9 296.9 294.3 292.4 289 286.5 284.7 280.8 280 278 275.8 274.4 272.4 270.2 268.4 265.8 264.6 261 256.2 254.8 255.8 255 255.3 254.8 254.2 253.5 253.6 252.8 252.2 251.2 246.6 246.6 246.6 246.6 246.6 246.6 246.6 246.6 246.6 246.6 246.6 246.6 246.6 246.6 246.6 246.6 246.6 246.6 246.6 246.6 246.6 246.6 246.6 246.6 246.6 252.9 251.3 246.6
832.8 845.8 865 882 896.5 911 924.2 933.4 939.3 942.8 942.6 940.9 942.3 946.5 940.3 951.1 958.4 966.4 975.7 985.6 1003.8 1027 1041.5 1053.5 1066.2 1078 1089.6 1099.4 1107.2 1111.6 1102.6 1096.5 1077.5 1051.9 1032.9 1022.1 1014.7 1013.6 1017 1025 1032 1041.3 1058 1070.1 1077.6 1082.2 1082.9 1081.9 1077.7 1073.2 1068.3 1061.9 1056.6 1051.1 1046.2 1042 1035.5 1032 1025.3 1019.3 1018.7 1018.4 1017.8 1021.3 1026.8 1031.3 1037.9 1044.6 1050 1055.4 1061.5 1065.2 1068 1070.6 1069.2 1044.1 1051.3 1050.4 1061.6 1062.5 1063.4 1063.2 1062 1061 1059.1 1053.6 1043.9 1027.4 1010.1 991.7 979.3 966.6 952.7 935.9 913 891.9 875.5 861.8 853.5 843.5 834.6 831 831.7 828.5 824.2 819.3 811.9 802.3 789.2 778.6 763.1 749.2 733.9 717.4 701.6 688.9 679.4 667.5 632.8 602.1 574.7 547.9 531.4 514.4 496.2 476.3 459.4 442.8 430 411.3 396 383.4 372.6 359.1 350 343.4 334.3 326.9 320.7 318 313.1 306.4 299.8 303.2 297.5 292.8 290.3 286.7 281.8 278.3 276.4 276.9 275 272.9 270.5 268.3 266.7 267 264.7 260.6 255.6 253.9 254.4 254 254.2 254 253.8 249.5 251.1 249.4 251.5 250.3 246.6 246.6 246.6 246.6 246.6 246.6 246.6 246.6 246.6 246.6 246.6 246.6 246.6 246.6 246.6 246.6 246.6 246.6 246.6 246.6 246.6 246.6 248.8 246.6 253.7 262 263.1 263.3
836.9 852.5 871.9 895.4 912 928.8 940.7 952.1 957.8 961.1 962.4 962.3 959.1 955.5 962.2 964.9 969.5 977.7 988.3 1001.8 1018.9 1038.4 1050.9 1062.5 1074.6 1084.8 1094.7 1103.6 1110.4 1097.7 1077.6 1060.7 1029.6 1015.3 1013.5 1004.4 997.2 998.5 998.2 1008.4 1018.7 1035.4 1052.4 1063.1 1069 1072.6 1072.6 1070.2 1066.6 1062.9 1058.5 1053.4 1049 1044.7 1040.1 1033.5 1030.5 1026.8 1020.3 1018.5 1018.2 1018.3 1017.9 1023.5 1029.6 1032.7 1034.9 1040 1045.6 1053.7 1056.1 1058.5 1062.6 1065.4 1064.4 1058.7 1052.1 1049.2 1048 1048.5 1049.4 1051 1052.8 1052.4 1051.3 1042.7 1031.9 1015.9 999 981.3 967.9 953.1 934.7 915.9 892.2 874.1 857.8 847.2 832.6 820.1 814 810.8 806.9 803.1 800.3 793.5 788.4 780.2 771.8 756.2 742.1 726.1 709.9 696.3 684.9 675.1 663.5 644.6 626 608.6 580.5 545.6 524.2 505.6 485.8 466 449.9 435 419 402.4 390.9 378.7 366 358.6 350.7 343.6 333.4 327.1 323.4 318.5 314.2 307.8 303.6 301.8 298.5 294.7 290.3 286.8 278.6 275.6 274.4 273.8 273.3 271.6 269.6 268 265.9 265.8 265.3 259.5 254.1 253 253 253.1 253.1 253.2 252.9 252.6 247.9 246.6 250.9 246.6 246.6 246.6 246.6 246.6 246.6 246.6 246.6 246.6 246.6 246.6 246.6 246.6 246.6 246.6 246.7 246.6 246.6 246.6 246.6 246.6 246.6 248.9 255.1 246.6 261.5 268.1 269.7 270.6
843.9 857.7 884.1 903.3 924.4 940.5 954.2 965.7 973.7 978.9 984.1 984.2 983 971.4 969.4 974.8 983 994.9 1007.5 1021.1 1033.7 1045.6 1057.1 1067.5 1078 1087.6 1096.2 1103.8 1107.6 1074.7 1051.7 1016.7 999.6 998.1 992.2 986.6 975.5 969.8 974.1 985.9 1000.9 1026.4 1045.1 1054.2 1058.6 1060.9 1060.9 1059.1 1055.6 1052.1 1048.5 1044.8 1041.3 1037.8 1033 1028.5 1025.9 1022.5 1019.3 1018.3 1018.1 1017.4 1014.8 1023.2 1027 1026.4 1021 1017.5 1017.9 1024.6 1031.3 1041.6 1048 1049.6 1045.4 1031.3 1023.8 1017 1018.5 1025.1 1030.3 1035.9 1040 1043.1 1039.1 1030.7 1022 1007.7 988.2 969.2 956.4 937.8 917.6 895.8 875.3 854.8 843.9 828.8 814.8 804.7 798 792.2 784.4 779.4 771.8 764.8 759.1 753 742.3 728.8 711.7 699.9 690.7 679.5 666.9 656.8 646 634.6 622.4 606.1 578.1 543 517.7 495.6 476.1 459.4 443 423.2 408.1 397.4 385 374.1 363.1 355 349.7 339.8 331.7 328.3 324.8 321.3 316 308.1 305.3 304 302 294.8 289.6 284.5 277.6 275.8 272.3 271.2 271.7 270.4 269.9 267.8 264.4 263.9 259.2 255.3 252.8 252.4 252.2 252.2 252.5 253.4 252.1 251.5 251.1 250.1 246.6 246.6 246.6 246.6 246.6 246.6 246.6 246.6 246.6 246.6 246.6 246.6 246.6 246.6 246.6 247.5 250.8 250.3 250.4 246.6 246.6 246.6 246.6 257 257.7 253.2 265 274.1 279.6 283.4
852.6 863.7 882.7 911.9 936.7 952 964.7 976.1 985.9 994 999.1 1002.9 1001.4 998.1 994.8 993.8 1001.8 1009.6 1020.4 1030.1 1039.9 1050.4 1060.1 1069.7 1078.9 1087.5 1095.9 1102.9 1091.5 1058.4 1022.8 996.2 986.3 976.6 963 963.1 952.6 944.6 943.5 956.6 985.1 1016 1035.3 1043.6 1047.2 1047.9 1047.9 1046.3 1044 1041.9 1039.4 1037.4 1034 1031.4 1027 1022.7 1019.6 1016.7 1016.2 1015.6 1015.2 1012.3 1014 1008.9 998.6 990.7 978.3 970.2 969 974.8 987.8 1002.2 1015.2 1018.4 1009.8 987.7 979.3 979.9 986 993.3 1004.3 1014.3 1025.1 1031.5 1027.1 1020.1 1012.7 1000.1 976.1 954.3 942.7 925.9 905.4 880.8 861.6 841.3 828 813.5 806.1 796.6 788.9 778.4 766.9 756.8 747.6 740.5 732.2 722 711.9 699.2 689.3 677.7 668.9 659.9 651 640.3 627.9 620.7 610.3 599.5 575.9 540.5 517.2 490.6 474 454.4 437.2 418.7 404.2 390.8 380.7 368.7 358.5 352 345.2 340.3 334 330.8 327.9 321.8 315.1 309.7 306.4 300.6 297.9 291.7 285.9 280.3 277.9 274.7 270.2 268.7 270.1 271.5 272.4 268.4 259.6 256.8 254.4 252.1 251.7 251.8 251.1 251.4 253.2 252.1 251.4 251.5 249.5 247.6 246.6 246.6 246.6 246.6 246.6 246.6 246.6 246.6 246.6 246.6 246.6 246.6 246.6 246.6 248.4 253.2 256.3 258.2 256.9 254.8 248 248 256.6 262.1 262.4 257.6 264.1 273.8 282.6 290.1
858.8 870.6 891.1 920.8 945.1 960.4 973.2 984.4 995.1 1003 1009.1 1013 1015 1014.3 1012 1011.3 1014.8 1020.1 1027 1034.7 1043.6 1052 1060.6 1069.4 1077.4 1086 1093.7 1099.1 1073.2 1036.7 1004.3 989.2 970.3 950.2 933.5 925 920.1 915.3 921.5 937.8 966.4 999.7 1022.6 1031.7 1034.3 1035.2 1035.9 1035.5 1034.2 1032.5 1031.2 1029.1 1027.4 1024.3 1020.4 1016.1 1014.3 1012.9 1012.5 1011.7 1011.7 1008.8 1001.9 988.4 963.2 929 920.5 922 929.2 934.7 943.6 964.9 979.1 982.3 958.9 934.8 933.6 944.5 946.8 955.5 969.1 983.9 1005 1015.5 1012.9 1007.8 1003.1 985.9 963.3 944.8 929.9 913.5 894.2 868.1 844.1 830.9 816.8 810.1 800.7 791 784.1 772.9 760 746.2 730.6 717.8 705 694.5 683.4 673.2 664.4 655.1 645.7 638.7 631 621.8 613.7 608.1 593.9 578.9 559.7 540.2 524.6 504.9 485.9 466.8 444.6 421.5 407.5 393.3 380.4 366.7 355.7 349.9 345.6 342.1 335.1 331.2 327.4 320 313.7 308.9 306.1 300.6 291.6 290 287.5 282.8 277.3 274.8 268.7 267.4 268.6 272.4 268.7 260.4 255.8 254.8 253.2 251.4 249.2 250.4 251 252.7 251.8 251.3 250.8 251.2 246.6 246.6 246.6 246.6 246.6 246.6 246.6 246.6 246.6 246.6 246.6 246.6 246.6 246.6 246.6 246.6 255.4 259.6 260.8 260.3 260.1 258.1 256.3 256.3 259.5 264.7 266.7 266.7 267.4 269.1 280.5 288
864.7 880.6 902.7 928.6 949.2 966.1 979 989.9 999.7 1008.7 1015.9 1020.1 1022.1 1022.4 1022 1020.6 1021.7 1025.7 1031.2 1037.4 1044.8 1052.2 1059.2 1066.9 1074.8 1082.1 1088.7 1090.6 1053.2 1015.3 992.8 967.5 946.2 916.5 899.3 893.1 888 896.1 908.1 925.6 954.7 988.8 1009.7 1019.4 1023.4 1024.9 1024.3 1023.8 1024.4 1023.7 1022.7 1021.7 1020.3 1017.7 1014.4 1012.1 1010.4 1008.9 1008.8 1009.6 1010.8 999.2 984.8 953.1 912.3 894.2 891 879.6 880.1 894.9 915.1 933.3 943.9 934.9 900 898.1 894.1 893.2 904.6 917.8 933.8 953.4 977.2 986.9 995.4 991.5 987.7 975.7 958.9 940.8 928.3 917.4 895.3 860 838.9 826.7 818.8 811.2 799.4 790 780 767.6 750.9 734.9 719.7 704.1 687.9 675.8 663.2 652.3 640.8 631.1 624.6 618.1 611.8 605.7 601.7 594.4 583.7 572 566 555.5 542.7 522.6 500.1 476.3 451.3 423.4 410 394.2 377.3 360.9 353.8 349.9 347.2 340.5 333.4 329.2 324.4 317.2 312.7 309.7 299.5 297.2 294.7 290.4 284.7 281.3 276.9 274.6 272.2 263.2 263.6 263.3 258.6 255.6 254.5 252.9 252.2 251.2 250.9 250.3 250.8 249.3 249.1 251.4 249.7 246.6 246.6 246.6 246.6 246.6 246.6 246.6 246.6 246.6 246.6 246.6 246.6 246.6 246.6 246.6 246.6 250.5 259.1 262.8 262.4 261.6 263 263.1 261.5 262.6 266.2 267.5 268.6 269.7 273.1 273.2 277.8 284.1
875 887.5 914.7 937.3 954.1 969.5 983.1 993.5 1002.3 1010.9 1018.5 1022.8 1025.2 1026 1025.7 1025.2 1025.1 1028.2 1032.8 1038 1043.8 1049.8 1056.1 1062.3 1069.4 1075.1 1078.8 1075.5 1034.9 994 955.8 939.9 906.5 879.8 865.8 867.8 865.5 885.1 893.2 919.2 945.8 972.1 994.9 1005.9 1010.9 1012.8 1012.9 1013.7 1014.8 1014.9 1014.6 1014.5 1014.2 1010.7 1009.8 1008.3 1006.7 1004.5 1004.5 1008.6 1010.9 988 944 914.4 895.8 863 849.1 842.4 853.4 872.1 882.3 891.4 895.9 894.7 862.4 850 845.9 847.8 859.6 880.7 900.6 918 938.1 955 970.7 970 966.8 964.9 952.3 948.4 941.4 922.4 894.8 859.6 842.9 829.1 823.3 814.8 802 788.5 775.8 762 746.1 732.7 716.5 698.7 677.3 654.9 645.9 632.2 620.1 610.7 603.3 598.5 592.8 592 589.5 588.9 582.1 571.4 571.5 559.1 544.8 529.6 507.6 478.1 453.6 424.8 410 392.5 375.3 359.2 355.8 355.7 349 340.4 332.8 326.3 319.4 314.4 310 304 298.8 297.1 294.3 285.4 282 280.3 280.5 275.5 268.1 263 260.2 259.3 257.6 256.5 255.1 253.6 253.2 252.3 251.5 250.8 248.8 246.6 246.6 247 246.6 246.6 246.6 246.6 246.6 246.6 246.6 246.6 246.6 246.6 246.6 246.6 246.6 246.6 246.6 249.1 254.1 258.6 261.4 264.9 266 266.9 270 269.3 267.7 267.8 274.4 276.2 274.3 274.9 279.3 280.3 276.1 280
890.5 904.9 925.7 944.5 959.8 972.7 984.6 995.8 1004.5 1011 1017.9 1022 1024.7 1025.5 1024.8 1024.5 1024.6 1026.6 1030.3 1034.6 1040.1 1045.5 1050.6 1056.3 1061.1 1065 1066.6 1038.5 997.3 956.5 927 891.6 863.6 845.5 839.1 843.1 851.9 864.3 876.2 898.4 924.5 952.3 975.7 990.8 997.1 998.9 1001.5 1003.5 1005.1 1008 1009.3 1009.6 1008 1006.8 1005.9 1003.3 1002.5 1000 1003.2 1006.6 1002 959.4 927 897.8 881.8 830.1 814.5 818.7 828.3 842.4 846 856.2 865.6 863 833.4 817 811 814.9 826.7 841.6 864.2 885.5 906.5 924.6 938.4 948.3 951.6 951.4 953 952.2 940.2 916.3 881.3 856.8 839.5 828.3 820.3 815 802.5 788.6 772.6 757.4 741.3 726.5 711.9 693 673.7 655.5 638.9 623.5 606.5 595 584.4 579.7 574.7 576 575.5 571.9 564 564.4 563.8 554.2 537.8 524.1 502.7 469.8 442.3 429.9 407.1 386 369.4 362.3 361.3 359.3 351.2 341.6 332.8 323 315.6 310.7 301.6 296.9 293.9 289.8 286.3 284.8 283.1 280.7 277.5 274.3 264.7 267.8 261.2 259.3 258.1 256.7 255.4 254.1 253.3 252.4 251.8 252.1 250.1 246.6 246.6 246.6 246.6 246.6 246.6 246.6 246.6 246.6 246.6 246.6 246.6 246.6 246.6 246.6 246.6 246.6 246.6 253.3 260.7 262.8 265.6 268.4 268.8 270.5 272 275.2 278.1 277.4 278.9 278.6 278.3 278 279.9 285.1 282.6 281.3
905 919.9 934.7 949.1 962.9 975.2 985.9 996.1 1004.4 1009.8 1016.1 1019.7 1021.7 1021.6 1019.6 1019.1 1019.8 1021.9 1024.6 1028.7 1033.7 1038.6 1042.6 1047.6 1051.2 1053.6 1053.1 1015.1 968.5 936.2 898.4 864.7 844.3 832.4 822 823 828.8 849.3 860.8 880.2 900.9 927 953.9 972.8 981 987.2 991.1 994.4 998.3 1001.1 1003.7 1004.9 1003.9 1001.8 1000.1 1000 999.3 996.3 1002 1004.3 993.8 950.8 900.3 863.8 826.9 804.1 804.1 804.3 815.8 822.7 834 838.1 840.3 827.5 809.1 792.1 784.7 787.1 798.9 813.1 829.4 849.4 871.3 891 913.1 926.5 932.7 932.5 936.7 939.8 927.9 916.4 890.9 866.1 851.8 845 829.7 825.5 816.1 797.2 775.3 761.4 748 729.3 721 696.8 675.3 656.7 635.4 612 598.2 585.1 569.3 560.9 558.1 556.7 555.7 551.8 545.4 548.6 548.1 538.5 523.5 508.3 480.8 452.9 444.8 427 397.5 379.6 370.1 365.4 363.6 358.4 350.8 338.4 328.4 318.1 311.4 304.9 297.9 294.1 291.6 288.4 286.2 285 279.5 276.9 275.5 273 271.7 268.6 265.7 263.8 264 258.9 256 255.8 254.3 252.6 251.9 249.6 249.3 246.6 246.6 246.6 246.6 246.6 246.6 246.6 246.6 246.6 246.6 246.6 246.6 246.6 246.6 246.6 246.6 246.6 246.6 253.2 260.5 265.5 269.4 269 271.4 275.3 278.8 281.3 283.5 284.1 284.1 282.1 282.6 282.5 283.7 287.4 286.6 281
913.2 926.7 939.4 951.6 965.4 977.3 988.4 997 1003.7 1008.4 1012.7 1014.9 1015.2 1013.3 1011.3 1010.1 1010 1011 1013.2 1019.5 1023.9 1027.2 1032.4 1036.3 1040.3 1042.2 1038.5 996.5 950.8 911.3 877.8 855.3 835.7 816 806.5 810.2 821.8 839 854.8 867 884.8 910.7 938.7 955.7 966.3 973.6 980.3 985.8 990.8 994.8 998.1 999.6 998.5 997.1 995.5 995 994.8 993.6 998.1 996.7 984.4 915.1 876.7 829.4 804.1 804.1 804.1 804.1 810.1 817.8 824.4 826.3 822.7 809.3 789.6 770.8 765.5 764.7 773.7 786.7 799.5 816.9 838.2 860.5 882.5 898.8 908.5 917 924.3 928.3 929.1 915.4 895.4 885.2 872.9 862 855.8 841.5 831.8 804.4 783.8 777.7 759 748.6 735.5 714.4 688.6 662.1 639.8 611 594.3 576.1 565.5 550.4 545 538.4 533.7 528.4 524.3 521.1 523.7 515.7 502.3 487 451.7 446.9 436.2 409.1 386.7 377.3 370.5 366 361.1 354.4 344.3 326.5 319.3 312.8 306.4 301.1 296.5 293.2 291.7 289.2 284.6 281.1 281.2 279.2 277.3 274.7 275.6 273.7 268.2 265.7 263.7 261.3 261.1 261.7 258.6 254.7 252.4 249.5 247.8 246.6 246.6 246.6 246.6 246.6 246.6 246.6 246.6 246.6 246.6 246.6 246.6 246.6 246.6 246.6 247 246.6 246.6 259 269.9 271.7 272.4 274.4 274.8 277 280.2 284.4 287.4 288.6 288.2 290.3 288.9 289.3 289.1 290.4 289.7 284.1
917.2 929.7 941.7 953.7 966.6 977.8 987.9 995.7 1002.5 1006.7 1008.9 1009.1 1006.4 1003.2 999.4 997.4 994.4 990.9 995.8 1003.6 1010.3 1015.5 1021.6 1026.9 1030.2 1031.1 1025.8 978.2 929 894 867.5 846.3 810.6 795.6 794.2 805.2 815.4 834.1 848.7 860.3 877.1 898.2 921.3 936.8 948.5 961.7 972.3 979.6 984.7 989.6 992.5 993.1 992.6 991.7 990.4 989.9 989.1 990.7 993.9 991.4 957.6 895.8 842.1 811 804.1 804.1 804.1 804.1 804.1 809.4 816.1 819.7 813.6 796.6 781.7 766.4 755.2 752.3 755.2 764.4 777.1 791.7 810.3 829.7 850 872.4 887.5 896.4 902.6 914.7 916.5 909.6 898.5 897.4 898 876.4 867.4 858.7 844.3 819.3 794.8 785.5 773.7 764.5 755.2 731.8 707.1 673.7 651.3 619.7 593.5 573.8 555.3 544 533.3 521.4 515.6 506.6 501.5 500.2 499.4 497.2 484.5 456.8 442.7 430.9 412.6 390.2 380.9 372.7 365.6 357.6 351.9 342.8 327.5 317 308.6 304.6 301.4 299 303.6 299.8 298.1 296.4 295.7 294.2 288.7 285.2 282.5 281 280.1 280 271.2 267.5 264.7 265.7 267.5 267.8 264.3 260.2 255.1 252.2 246.6 246.6 246.6 246.6 246.6 246.6 246.6 246.6 246.6 246.6 246.6 246.6 246.6 246.6 250.2 257.1 258.6 259.2 261.4 278.4 287.2 289.5 286.1 282.2 278.3 279.6 285.6 290.9 294 297 299.5 300.9 298.3 297.6 300.9 296.2 294 291.3
918.3 930.4 941.4 952.7 965.9 976.7 986 993.4 999.3 1002.7 1003.4 1001.3 997.6 990.7 982 980.2 978.6 979.2 984.3 991.3 999.1 1005.8 1012.9 1018.8 1022.3 1022.3 998.9 958.2 910.3 882 857.8 833 800.1 784.2 789.9 799.8 812.5 826 843 856.3 870 888.6 903.6 912 932.9 955.4 967.5 974.6 979.5 983.7 985.7 987.1 986.7 986.2 985.6 985 982.5 987.2 990.5 987.5 935.3 880.4 842.6 812.8 804.1 804.1 804.1 804.1 804.1 804.1 805.4 809.7 807.9 791.1 775.1 761.4 757.3 753.4 748.2 748.7 757.3 770.1 784.1 797.5 810 832.7 851.7 868.5 882.3 892 895.7 893.3 895.8 899.6 893.3 884 883.8 872.7 853.6 832.3 810.5 797.6 791.5 780.8 760.2 742.6 718.1 692.1 657.8 623.1 597.3 571 551.5 537.6 518.1 502.2 494 485.8 481.4 476.7 481 470.5 449.2 437.2 420.9 406.9 389.2 379.2 372 367.6 360.5 349.6 339.2 325.9 315.6 311.9 316.8 321.9 318 319.2 320.8 312.8 306.9 308 305.8 304.1 301.1 298.3 294.9 290.7 285.5 284.1 273.6 266.6 267.1 268.2 273 272.9 268.4 261.9 257.1 249.6 246.6 246.6 246.6 246.6 246.6 246.6 246.6 246.6 246.6 246.6 246.6 246.6 246.6 246.6 248 261.3 267.7 271.1 281.9 298.8 305 303.9 299.3 294.4 291.4 301.7 307.6 311.7 313.1 316.5 314.9 312.9 309.4 307.2 305.6 300.5 297.8 295.1
918.2 929.4 941.2 951.5 963.3 974.4 982.8 989.7 994.4 996.8 995.6 992 985 977.4 970.1 969.6 968.2 970.8 976.7 984.4 992.1 999.9 1007 1013.1 1016.9 1016.5 985.4 939 900.9 877.5 852.8 824.4 785.9 771.8 780.9 791.9 804.1 818.5 834 846.6 860.2 871.3 889.3 915.4 936.6 952.6 961.8 968.9 973.4 977.1 979.9 980.7 981.2 981.5 981.2 981.1 978.9 983.1 983.6 965.7 940.3 888.1 846.5 813 804.1 804.1 804.1 804.1 804.1 804.1 804.1 803.3 792.3 781.6 768.3 761.7 761.4 764.3 756.3 744.2 742.8 746.6 754.9 766.1 779.3 798.8 821 844.2 860.1 868.8 876.1 876.8 880.9 883.5 884 885.6 885.2 873.3 860.3 841.4 818.9 813.2 801.4 783.7 774.9 761.4 739.4 723 681.4 640.2 604.7 575.4 549.3 527.5 504.4 491.1 478.1 470.4 461.7 457.9 455.1 443.7 431.1 414.6 405.7 393.4 377.6 373.4 368.4 361.3 350.7 337.6 324.4 322.9 326.3 324.9 327.6 336.2 333.8 336.2 328.4 320.6 317.7 316.4 312.8 313.1 312.5 311 304.2 303.9 299.7 288.2 279.1 273.2 270.6 268.7 270.1 268.9 264.1 256.8 256.5 247.9 246.6 246.6 246.6 246.6 246.6 246.6 246.6 246.6 246.6 246.6 246.6 246.6 246.6 246.6 250.1 265.4 272.5 284.2 305.3 315.2 321 323 327.6 334.5 338.4 345.5 345.8 344.2 340.1 331.3 329.6 315.8 318.3 316.7 309.5 303.1 298.9 298.2
917 928.3 940.1 951 961 970.4 978.5 984.3 987.9 988.5 985.3 979.8 974.2 962.4 953.5 951.7 956.6 961.4 970.5 980.7 989.8 998.4 1004.8 1010.5 1014.5 1013.7 996.1 937 905.1 880.9 844.8 796.1 772.3 762.7 769.7 780.2 793.9 807.9 821.2 832.7 840.4 863.1 887.5 913.6 934.6 946.7 954.7 960.1 964.8 969.7 972.9 975 976.6 977.2 977.8 977.5 975.2 980.9 987.8 991.4 984.3 917.2 867.2 827.1 804.1 804.1 804.1 804.1 804.1 804.1 807.5 811.6 805 792.6 775.3 767.8 769.1 767.6 762.2 747.7 736.2 730.7 733.5 739.8 753 772.4 794.6 818.8 836.8 845.4 853.9 861.6 866.2 870.3 876.7 876.3 879.1 868.5 862.6 838.3 821.6 816.1 805.5 789.3 779 750.2 718.5 698.8 657.5 622.2 595.6 568.5 544 523.5 492.5 482 460.8 448 445 442.9 434.8 424.5 412.2 401.2 389.5 376.3 370.5 365.5 359.3 350.1 336.9 330.5 330.7 334.7 333.1 333.7 335.5 341.7 340.2 340.1 329.3 327.4 322.7 323.5 323.8 324.1 321.8 319 312.5 314.5 306.7 297.3 289.4 284.5 274 268.3 265.2 262.8 260.1 256.5 252 246.6 246.6 246.6 246.6 246.6 246.6 246.6 246.6 246.6 246.6 246.6 246.6 246.6 246.6 246.6 260.4 274.5 283.5 303.3 320.1 333.8 340.4 343.3 352.8 372.2 387.3 394.9 387.4 380.7 375.5 358.1 346.5 335.2 332.3 326.2 317.1 311.3 301.9 298.3
915.8 928.2 939.4 950.3 959.5 968.4 974.8 978.7 980.6 980.4 975.6 969.6 959.9 950.8 945.2 944.7 952.5 961 972.8 983.7 992.1 999.4 1005.8 1010.7 1014.1 1012.7 989.1 948.9 909 864.9 803.2 774.3 754.8 749.2 755.6 765.6 779.5 792 804.2 812.3 836.1 859.5 882.3 908.6 926.3 937.4 945.3 951.2 955.8 960 964.5 968.5 971.2 971.9 972.6 972.6 970.9 981.1 989 995.4 988.4 939 913.9 862.7 825.9 804.1 804.1 804.1 804.1 810.3 819.4 823.6 809.7 791.4 774.4 767.6 765.4 760.1 756.6 747.5 739 729.2 721.6 726.4 735 751.6 768.9 793 812.2 825.8 838.8 847.3 850.6 858.2 867.8 867.7 868.4 864.2 853.8 832 819.5 816.1 802.5 785.5 760.1 734.9 705.3 669.4 641.8 607.9 578.9 552.8 526.1 504.5 480.4 473.9 460 434.2 428.7 424.5 417.8 407.3 396.1 386.6 375 364.8 361.3 357.9 349.5 338.9 340 337.8 342.8 343.2 342.5 342.3 341.5 343 342.5 342.8 341.7 333.5 331.6 329.3 328.8 329.2 329.3 328.1 321 318.7 312.5 303.6 293.2 283.6 272.3 267.9 264.7 262.5 260.4 252.7 246.6 246.6 246.6 246.6 246.6 246.6 246.6 246.6 246.6 246.6 246.6 246.6 246.6 246.6 246.6 249 268.6 278.3 295.8 315.5 334.7 348.9 358.4 368.2 382 404 419.9 428.1 421.5 413.4 406.3 390.2 365.6 350.7 345 328 319 308.4 308.8 302.6
914.6 927.7 938.8 948.9 958.4 966.8 972.5 975.2 975.1 972.9 967.5 958.2 945 941.6 935.4 942.2 955.4 969.5 979.3 987.6 994.8 1001.9 1007.7 1012 1012.2 1004.3 969.6 937.9 869.3 815 779.5 753 738.4 734.5 740.5 751.5 766.2 776.9 790.8 806.4 827.6 853.7 873.4 898.4 916.6 927.2 935.3 942 947.3 952.8 957.8 962.5 965.2 966.6 967 965.6 971.1 980.5 988.4 996 994.4 981.9 953.8 884.6 860.7 828.2 817.7 816.4 817.5 825.4 832.5 833.9 811.6 789.9 769.5 758.9 757.9 751.8 747.4 743.3 736.7 728.3 720.6 715.6 720.1 734.4 750.7 773.1 794.4 809.2 822 831.9 835.3 841.1 846.6 846.7 848.2 854.3 838.3 822.5 809.7 801.7 787.1 759.7 741.2 715.4 682.1 641.2 616.2 589.8 564.1 539.1 514.5 485.4 471.3 459.2 445.8 426.8 411.1 409.2 404 391.6 380.2 369.3 363.1 357.4 354 346.8 349.6 346.5 343.3 347.8 349 352.1 352.6 353.7 351.1 352.3 353.6 354.9 352.9 344.9 337.9 335.7 338.2 346.9 340.9 335.7 325.9 324.2 315.2 305.2 292.8 278.4 273.1 269.7 269.1 263.6 254.4 246.6 246.6 246.6 246.6 246.6 246.6 246.6 246.6 246.6 246.6 246.6 246.6 246.6 246.6 246.6 246.6 258.3 273.5 288 310.2 326.1 344.1 361.7 380.6 398.3 416.7 433.4 452.3 462.5 455.8 444.9 429.4 412.8 388.4 367.8 347 328.8 319 316.4 312.5 307
914.9 927.4 937.8 947 955.7 962.4 967 969.3 969.2 966.7 956.9 941.7 935 928.3 923.7 941.1 960.7 975.2 984.9 992.5 999.3 1004.6 1008 1008.5 1003.5 974.8 927.2 877.5 840.5 799 758.5 734.6 721.6 723.5 730.3 741.3 755.4 769.8 786.3 799.3 817.4 839 861.8 883.7 904.2 915.9 926 934.7 940.6 947 951.1 954.6 957.7 959.7 960.2 956.4 971.3 979.8 988.5 996.4 1002.9 1007.8 991.6 935.6 886.1 855.6 847.5 845.1 841.8 848.3 854.9 838.2 811.5 786.4 758.2 754.1 752.2 746.3 741.8 738.4 732.6 724.8 717.3 711.1 713.3 722 734.8 753 776.5 790.2 798.6 813.5 820.2 821.4 824.4 827.1 828.5 831 823.2 806.2 794.4 779.1 768.7 741.8 717.2 688.5 665.7 624.1 602.3 574.6 550.6 518.4 497.7 473.8 458.7 441.4 428.8 414.6 406 392.9 389 379.5 367.7 359.6 355.6 351.8 356 359.8 360.4 356.6 357.4 360.4 362.9 363.5 362.7 361.2 358.5 362.6 366.5 366.6 363.8 349.1 342.4 343.3 343.6 342.4 336.3 332.4 334.3 334.3 311.4 298.4 287.4 280.2 276.3 272.5 265.1 255.6 246.6 246.6 246.6 246.6 246.6 246.6 246.6 246.6 246.6 246.6 246.6 246.6 246.6 246.6 246.6 246.6 246.6 263.7 278.3 302.9 324.5 342.2 364.4 388.5 413.7 433.7 455.2 462.9 473.2 490.6 490.1 473.3 448.1 423.7 394.4 372 350.6 333.3 324.3 320.5 318.8 310.9
912.5 924.9 935 943.3 950.3 955.4 959.3 960.3 958.3 952.5 938 928 927.9 920.3 915.9 936.6 962.5 978.5 988.6 996.4 1002.6 1006.8 1006.3 1000 976.5 929.9 902.9 856.7 824.8 768 738.3 721.7 715.3 719.9 726.1 734.8 751.1 764.4 778 790.6 807.5 824.1 848.8 871.3 890.6 905 916.9 925.7 932.8 938.4 942.4 946.2 949.5 951.8 951.7 960.8 972.3 980.9 988.7 996 1002 1007.4 1008.5 960.1 916.6 893.6 873.7 870.3 873.8 874.1 869.6 844.1 812.7 782.4 752.3 750.8 747 743.1 737.9 733.9 729.2 721.6 714.9 709.2 700 709.7 721 735.8 754.8 770.9 780.3 795.3 802.1 806.4 810.2 807.6 811 820.4 810.7 795.1 798.5 780 759.5 733.7 702.7 659 629.7 598.3 575.1 549.6 525.8 501.2 479.9 459.7 445.9 429.5 417.5 408.2 401.5 386.2 372.3 368.8 363.8 362.2 366.1 368.3 369.7 369.4 367 368.8 368.5 369 370.2 370.8 369.4 368.5 367.9 374.1 377.3 377.7 376.7 355.9 350.9 345 343.1 342.2 340.8 343.2 344.7 333.5 306.1 292.5 285 278.3 276.2 267.9 257.6 246.6 246.6 246.6 246.6 246.6 246.6 246.6 246.6 246.6 246.6 246.6 246.6 246.6 246.6 246.6 246.6 246.6 259.6 274.5 292.4 313.5 337.4 363.2 393.2 416.7 435.1 457.2 472.3 480.4 495.5 501.8 487.6 471.6 459.5 430.9 401 376.9 362 349.2 340.2 335.6 326.4 320.8
905.4 920.3 929.1 936.6 942.6 946.7 948.5 945.7 939.3 934.5 924.9 918.2 916.7 905.6 910.7 935.7 962.7 981.1 991.4 998.3 1003.1 1005 1001.6 985.1 947.5 906.9 868.5 842 792.7 752.7 729 712.4 712.5 716.2 717.9 728.5 748.1 763.2 775.3 787 799.2 819.3 840.5 859.8 880.3 892.8 902.3 911.5 919.7 925.3 930.7 934.3 939.6 941 950.4 963.2 973.3 980.9 987.1 992.8 997.5 1003.3 1007.9 993.1 951 925.5 904.4 901.1 912 914.9 892.1 853 813.6 781.7 753.9 750.9 746.8 739.5 733.2 729 723.4 715.8 710.5 704.8 699.6 693.6 705 715.4 732.6 750.4 761.5 775.1 785.9 787.7 789 784.7 793.6 805.2 796.8 791.2 787.6 771.2 744.1 717.6 681.7 644.9 602.8 570.5 540.9 516.1 498.3 479.1 462.5 446.6 428.5 415.9 407.1 399.8 392.5 378.9 373.1 373 373.9 376.3 382.4 380.2 374.3 374.5 378 379.2 381.2 377.3 376.4 377.2 375.5 375.9 377.2 393.2 393.4 395 372.1 353.5 349.9 348.4 351.9 348.6 349.7 348.5 344.3 325.2 303.6 286.6 280.7 272.8 270 261.2 248.5 246.6 246.6 246.6 246.6 246.6 246.6 246.6 246.6 246.6 246.6 246.6 246.6 246.6 246.6 246.6 246.6 255.5 269 284.6 305.3 326.8 356.1 384.8 410.7 437 452.7 470.9 479.3 492.4 494.6 492.9 486.3 466.7 447.3 430.1 412 396.5 383.9 369.4 358.1 346.5 337.9 328.4
893.4 909.3 919 926.9 932.2 935.2 933.8 923.2 916.9 910.4 904.6 899.5 896.5 885.6 910.5 940.4 964.6 981.7 991.2 996.7 999.6 998.7 992 959.2 921 883.4 856.4 810.1 768.1 741.5 722.9 713.1 709.6 709.4 710.4 721.2 742.2 760.9 774.1 783.1 800.6 822.7 836.1 847.3 866.1 873 879.5 886 894.2 903.6 909.2 917.1 924.8 941.5 955.2 966.5 974.1 978.6 983.3 986 990.4 996.5 1004.9 1015 1001.2 978.6 942.8 940.2 948.1 942.4 908.2 860.4 822.3 789.3 762.4 753.8 747.5 736.7 730.8 728.2 716.7 710.8 706.1 701.4 694.1 682.2 689.9 697.1 711.5 731.2 743 755.1 768.7 768.8 767.9 770.3 779.8 785.7 784.3 780.1 766.8 750.4 720.2 691 651.9 619.7 574.5 545.5 517.3 499.7 480.1 461.3 445.9 429.4 415.8 405.2 398.2 390.2 378.8 373 372.7 377 384 392 395.6 381.5 378 384.1 388 391.2 395.1 393.1 390.8 385.9 385.1 385 394.2 397.3 393.5 384.6 368.3 348.7 352.2 353.4 353.3 352.5 352.1 347.6 338.8 322.2 301.9 282.5 272.7 267.8 263.8 251.8 246.6 246.6 246.6 246.6 246.6 246.6 246.6 246.6 246.6 246.6 246.6 246.6 246.6 246.6 246.6 246.6 246.6 258.8 281.6 298.1 321.6 345.2 368.6 399.7 421.2 445.8 463.9 472 487.2 494.8 492.3 490.1 488 479.4 462.3 453.9 452.2 432.8 406.6 388.8 368.9 352.5 343.1 338.1
878.1 893.9 905.3 913.5 918.3 918.9 908.3 895.9 888 888.9 882.5 876.8 867.4 876.8 907.4 942.1 964.3 980.4 988.8 993.6 994.7 986.6 958.1 921.2 891 872.9 845 798.8 756.7 737.3 724.5 714.6 703.5 702.6 705.5 715.9 736.7 758.8 774.3 786.7 804.5 810.9 820.6 830.6 834.2 841 850.4 864.5 881 897 910.4 924.8 939.1 950.4 960 968.3 972.3 975.1 975.9 975 978.7 986.7 997.5 1010 1019.5 1015.7 989.4 976.9 981.7 963.8 928.7 877.2 834.9 804 772.5 759 747.6 735.8 728.5 722.4 712.4 704.8 699.3 693.8 686.3 677.4 675.8 681.9 692.3 712.7 727.3 740.4 750.6 752.9 754.2 756.1 767.6 767.9 771.8 766.7 744.9 733.1 693 653.8 617.2 586.1 555.6 528.3 499 477.3 461.8 445.6 429.5 416.8 405.8 398.4 387.2 377.9 373 372.9 379.3 389.5 395.3 395.7 390.2 384.2 390.9 394.7 398.6 407.3 413.5 409.6 406.1 403.1 399.1 395.4 399.5 395.2 389.5 384.1 364.9 347.2 345.7 348.3 354 352.5 352 343 327.6 314.1 300.1 281.2 271.8 263.9 254.3 246.6 246.6 246.6 246.6 246.6 246.6 246.6 246.6 246.6 246.6 246.6 246.6 246.6 246.6 246.6 246.6 246.6 246.6 261.7 290.2 308.3 335.1 358.9 384.4 409 429 447.4 458.7 474.4 490.6 498 504.1 508.3 503.1 491.7 482.7 471.5 457.3 434.2 407.2 388.7 374.1 358.7 349.7 347
860.7 876.1 886.8 895.5 899 894.5 875.7 862.9 857.6 854 852.4 848.9 844.4 871.9 903.9 938.9 965.5 978.7 985.1 989.3 985.9 957.4 915.9 896.5 877.2 859.9 811.4 783.7 760 740.7 726.8 715.2 706.5 700 698.3 711.5 728.1 754.1 770.9 782 792.9 793 795.4 816.3 838.1 855.5 873.2 888.1 901.6 914.7 928.4 939.2 949.3 956.9 964.1 968.1 967.3 966.6 961.6 954.9 958.5 969.4 984.6 997.4 1011.3 1019.5 1023.3 1013.1 1011.9 992.3 960.4 900.5 853.8 821 783.7 765.9 746.5 732.9 724.8 713.7 706.3 699.8 691 684.4 677.6 668.7 658.6 670.1 676.6 696.4 706.7 721.4 733 736.2 738.7 748.1 754 757.5 751.2 741.1 723.3 714.8 676.8 628.8 601.6 577.4 544 509.9 481 462.1 446.8 432 418.9 406.8 397.8 386.9 378.9 374 372.6 382.6 394.8 396.6 397 396.1 395.8 395.9 399.7 407.4 415.5 421.1 419.3 416.8 412.6 408.2 401.8 398.9 396 393.8 387.5 377.9 366.8 349.1 339.6 344 347.9 350.7 344.4 328.5 315.1 302 284.8 281.3 268.9 257.3 246.6 246.6 246.6 246.6 246.6 246.6 246.6 246.6 246.6 246.6 246.6 246.6 246.6 246.6 246.6 246.6 246.6 246.6 249.3 267.5 294.3 320.3 347 371.8 397.7 422.8 445.8 461 483.6 511.5 525.4 517.5 520 514.5 509.6 493.3 474.5 460.7 445.3 426 409 386.7 372.8 364.5 357.7 351.9
841.9 857.8 871.2 878.1 880.9 870.6 850.9 838.8 833.5 834.5 831.3 824.8 847 873 908.3 942.2 965.6 976 981.6 984.3 966.4 923.6 893.6 870.1 844.5 824.4 805.5 782.7 763.5 739.5 727.5 715.4 705.4 695.9 690.6 705.2 719.6 741.5 757.3 767.8 766.3 784.4 808.5 833.6 855.6 875 890.8 905.5 919.3 931.9 942.2 951 957.1 962.6 963.8 963.9 958.9 952.5 938 924.7 928.6 942.2 963.7 981.9 997.9 1009.4 1015.9 1017 1018.3 1009.1 960.1 932.8 869.6 833.9 800.5 769.8 745.9 728.1 717.3 706.7 700.7 694.7 684.9 677.3 671.1 664.8 648 658.6 661.9 674 689.8 704.3 722.6 722.8 729.8 733.5 744.4 743.1 730.3 715.3 698.1 680.7 651.1 623.1 585.1 564.3 529.2 491.3 466.1 448.5 433.8 419.5 407.5 398.2 386.8 376.2 373.8 378.8 385.4 392.6 397.9 397.9 398.1 401.4 404.2 404.2 410.1 417.3 421.4 422.8 420.4 417 410.2 402.2 399.9 395.3 395.7 389.9 383.5 372.5 359 343.7 340.7 336.5 333.9 334 328.2 318.8 302.2 289.3 285.3 276.1 261 246.6 246.6 246.6 246.6 246.6 246.6 246.6 246.6 246.6 246.6 246.6 246.6 246.6 246.6 246.6 246.6 246.6 246.6 246.5 263 284.9 308.2 333.6 359.6 382.5 408.3 432.4 457 487 518.7 539.2 547.1 533.5 529.6 521.5 501.9 479.5 467.2 447.7 433.3 417 397.4 386.1 377.4 370 365.3 356.6
820.7 839.2 853.8 862.9 865.9 849.1 830.4 814.6 812.1 815.2 807.2 829.4 854.1 888 921.3 949.1 963.5 972.1 977 978 963.9 916.4 891 867.4 834.8 813.4 795 774.3 756.1 742.7 726.6 713 700.6 692.5 687.7 699.7 715.4 733.5 741.5 747.6 765.6 795.2 824.8 852.8 876.4 893.6 908.9 923.1 934.9 944.8 953 958.6 963.5 964.1 958.5 953.3 944.8 925.1 910.5 907.7 907.7 917.7 943.2 967.1 982.9 993.2 1002.3 1009.1 1012.4 1011.2 969.6 927 881.6 844.7 810.6 772.7 744.1 720.6 708.9 700.4 693.7 686.4 679.1 671.5 664.1 657.4 647.4 646.1 653 666.3 677 691.2 705.9 711 718.2 723.4 728.8 723.6 712.1 691.6 661.5 643.4 627.1 601.3 571.1 542.1 511.6 476.8 453.8 437.9 421.9 407.7 395.7 386.4 379.7 375.3 379.2 391.4 392.5 399.6 402.1 399.7 405.1 409.7 410.5 411.7 415.1 420 421.7 419.1 417.7 409.2 401 396.4 394.3 389.9 387.2 381.2 369.1 358.8 344.4 338.1 338 339.4 326.6 322.1 317.4 308.3 288.5 283.1 275.7 265 249.1 246.6 246.6 246.6 246.6 246.6 246.6 246.6 246.6 246.6 246.6 246.6 246.6 246.6 246.6 246.6 246.6 246.6 257.3 268.3 288.3 304 326.4 349.7 374 396 420.2 443.5 466.7 497 520.6 534.7 535.7 534.5 526.1 512.8 498.2 476.3 459.6 448.4 439.8 427.4 415.7 403.3 396.7 388.4 377.2 367.8
797.9 818.4 834.6 844.7 846.4 827 803.5 789.6 791.4 790.2 815.2 840.4 867.6 904.7 933 949.1 959.1 965.2 969.6 970.4 961.2 921.3 894.2 870.2 840.6 813.4 793.5 771.8 754.3 735.1 719.3 706.4 692.8 682.1 684.8 695.1 709.1 720.9 727.6 745.9 773.8 801.3 837.8 871.8 894.1 909.6 925.2 937.8 946.8 953.4 958.2 962.5 962 950 941.7 932.1 911.7 895.9 891.8 893.5 898.5 904.4 926.7 949.8 966.5 980.3 991.3 999 1004 1009.7 998.3 950.9 899.9 846.7 808.9 769.8 742.7 716.8 703.3 695.9 688.4 681.4 672.7 664.5 655.7 648.5 643.1 631.2 645.9 656.1 663.8 682 692.2 699.2 705.6 709.7 712.2 703.2 687.4 667.8 651.2 631.3 628.2 589.1 551.5 517.4 488.2 458.2 442.9 427.9 411 397.7 385.7 380.7 377.3 379 386.6 395 400.5 402.5 400.7 407.9 414.8 416.2 416.7 417.2 417 418.7 416.6 414.2 407.9 399.8 393.1 388.2 384.5 380.5 379.1 372 362.2 347.6 335.8 332.8 334.7 334.4 320.1 305.4 299.2 289.2 284 272.9 262 246.6 246.6 246.6 246.6 246.6 246.6 246.6 246.6 246.6 246.6 246.6 246.6 246.6 246.6 246.6 246.6 246.6 246.5 264.1 276.4 286.3 306.1 323.1 342.8 364.1 389.4 415.1 439.1 461.3 488.1 521.8 536.7 543.4 556.1 559.6 554 537.2 533.2 525.7 495.4 477.9 479.4 465.9 447.6 434.2 417.4 400.3 383.9 375.1
775.5 795.8 812.9 825.6 819.6 798.7 782.8 769 777.9 799.9 827 850.5 882.8 909.9 930.3 943.1 951.6 957 960.7 962.5 959.6 935.6 904.3 879.4 850.6 826.6 796.4 779.5 748.7 729.3 714.3 697.9 685.9 676.1 681.7 691.3 702 710.5 733.7 758 785.3 813.3 844.6 884.6 905.7 923 938.5 948.7 954.8 958.9 958.1 959.9 933.4 924.3 906.7 889.4 879.1 872.1 878.6 881.9 888 898.1 920.3 940.3 957.5 969.7 980.5 988.7 996 1000 973.4 934.9 874.7 841.2 804.4 768.2 740.2 717 700.2 690.6 680.6 672.7 665.1 658 648.7 639.8 636.7 622.1 632.6 642.2 648.6 666.1 677.3 686.7 692.6 695.9 698.3 705.8 696.5 675.6 645 626.1 614.9 568.6 537.7 493.3 465.4 447.2 435.5 413.6 399.4 386.7 382.3 378.6 377.8 377.8 390.2 399.1 402.6 401.2 406.8 413.3 416.5 417.7 415.8 412 413.5 414 407.9 403.2 396.5 389.2 382.9 380.5 378.2 374.2 371.2 362.7 349.9 342.3 330.1 330 327.9 324.8 315.9 295.1 286.8 280.6 268.1 256.1 246.6 246.6 246.6 246.6 246.6 246.6 246.6 246.6 246.6 246.6 246.6 246.6 246.6 246.6 246.6 246.6 246.6 246.3 264.2 279.5 287.3 304.5 324.9 341.4 359.6 381.7 405.2 430 456.6 488.2 511.6 530.4 558.7 595.2 593.5 592 590.2 580.9 572.7 549.8 521 505.3 497.8 489 477 459.9 431.7 405.3 387.8 380.4
751.1 771.6 788.6 794.3 794.3 785 771.5 756.6 764.5 786.5 814 844.4 878.2 904.6 922.4 934.3 942.8 948 951.5 952.6 951.1 944.7 921.3 882.2 852 829 786.2 753.4 730.4 717.7 703.7 688.3 675.8 673.9 679.8 687.5 699 711.2 736.7 771.2 795.9 824.7 853.1 896.3 918.2 935 947.3 957.9 965.5 967.8 960.9 922.6 902.1 883.8 869.4 857.1 855.7 856.9 863.3 869.5 880.6 897.2 915.6 932.7 947.6 959.5 970.3 979.6 986.4 984.7 958.1 906.2 870.1 835.1 801.5 763.8 737.5 717.2 697.6 685.3 674.9 665.6 657 647.5 641.7 635.8 629.4 618.2 625.2 632.3 640.5 652.5 665.3 671.2 679.9 688.5 691.1 695.1 685.8 659 627.7 612.4 591.7 547.4 510.4 476 452.8 437 421.1 401.3 388.6 384.1 382.8 380.1 379.7 383 396.6 397.6 398.9 402.6 410 413.1 410.3 411.3 409.9 407.5 405.2 401.4 397.1 394.3 386.7 379.5 376.8 373.3 369 365.8 358.5 351.5 339.4 333.4 325.1 317.4 316.2 312.8 301.2 283.5 274.2 262.3 249.8 246.6 246.6 246.6 246.6 246.6 246.6 246.6 246.6 246.6 246.6 246.6 246.6 246.6 246.6 246.6 246.6 246.6 253.7 264.1 278 292.9 305.4 323.1 341.4 355.5 372.7 395.9 420.3 453.8 479 508.7 533.3 552.3 593.2 609.2 622.1 612.6 611.2 601 590.2 573.6 555.3 532.8 505.9 502.5 486.5 457 430 404.7 390.2 382.2
726.7 742.5 756.3 771.4 777.6 773.6 760 745.2 752.6 770.8 798.5 828.9 866.5 896 913.6 924.5 932.9 938.3 941.3 941 937.5 919.8 889.6 861.5 833.6 793.8 755.7 731.1 713.2 700.9 690 678.1 670.1 671.2 675.6 685.7 696.8 717.3 742.8 777.8 807.2 836.6 868.4 907 928.5 945 958.4 968.5 973.1 970.4 949.1 896.5 874.6 862.7 840.2 834.9 838.1 846.1 855.9 865.3 881.3 895.4 910.1 925.3 938.2 949.2 958.6 967.3 969.4 953.1 940.4 904.1 861.3 829.2 799.5 760.7 736.6 714 693.3 676.9 665.3 657.6 649.9 642.5 636.8 631 624.1 605.6 618.4 624.9 633.5 647.4 658.3 663.9 677 680.6 677.7 682.2 663.3 625.7 601.5 585 556.7 526.4 483 454.2 435.7 424.1 404.1 392.4 386.2 383.6 381.9 382.4 384.9 391.8 396.7 396.5 401.5 405.5 410.3 408.7 407.7 405.7 402.5 399.3 397.1 390.5 387.5 382.3 376.9 373.3 367.5 363.1 362.7 355.1 349.3 338.8 333.6 326.8 316 310.7 304.3 292.2 281.9 267.8 252.5 246.6 246.6 246.6 246.6 246.6 246.6 246.6 246.6 246.6 246.6 246.6 246.6 246.6 246.6 246.6 246.6 246.6 246.6 257 265.4 277 288.1 303.4 317.2 335.1 354.2 367 387.7 412 447.3 474.7 502.6 522.3 550.5 574 619.5 631.8 623.9 625.7 623.5 617.3 605.1 593.6 572.5 545.7 516.5 505.8 476.5 450.3 422.6 402.3 389.8 381.1
706.1 716.6 729.8 743.6 757.9 756.2 745.1 734.7 744.2 760.7 783 815.1 849.9 884.7 904.2 916.1 923.7 928.6 929.8 927.5 917.4 890 865.6 837.7 796.4 765.4 732 711.5 696.6 685.2 677.3 667 663.1 668.6 673.7 684.6 702.8 728.3 753.8 787.5 822.3 856.5 890.4 918.1 937.5 954.3 967.9 976.4 976.6 954.5 913.3 877.3 850.1 828.1 819.9 820.2 830.5 841.1 852.7 866.4 880.8 893.2 904.8 917.9 929.3 938.7 946.2 953.1 941.9 923.7 916.4 896.6 872 833.5 799.2 758.7 734.4 711.5 689.8 672.9 660.8 650.8 643.5 637.2 631.4 625.8 620.1 598 604.7 618.8 628.9 644.2 658.3 658.9 673.5 672.7 661.7 647.7 616.4 586.7 574.9 550.3 516.2 490.3 461.1 436.9 424.1 407.4 395.6 387.7 385.9 384.1 383.9 385.1 387.4 394.2 395.9 397.4 401.3 405.2 405.1 401.4 400.1 398.5 394.4 390.4 388.2 380.4 377.3 372.9 372.3 363.3 359 357.4 350.2 342.9 337.5 331.6 328.1 320.1 303.7 301.5 285.2 279.6 264.6 246.6 246.6 246.6 246.6 246.6 246.6 246.6 246.6 246.6 246.6 246.6 246.6 246.6 246.6 246.6 246.6 246.6 246.6 246.6 256.9 263.2 274.5 285.1 297.7 313.4 328.8 348.2 365.6 382.4 401.1 439 469.3 497.2 518.7 544.4 568.9 591.5 628.4 628.8 628.7 635 638.8 630.4 623.2 605.2 584.8 561.9 531.9 497.3 467.7 440.3 414 398.8 387 378
688.1 699.1 710.5 719.7 725.7 727.1 725.8 730.2 740.9 756.7 777.7 809.3 843.5 876.8 895.4 907.7 915.1 919.2 918.4 910.9 881.9 860.9 834.4 798.5 771.9 735.5 711 691.4 680.8 674.8 666.1 662.7 659.8 666.1 675.5 690.8 712.4 738.6 769.4 803.1 836.7 870 905.8 928.8 945.9 963.7 975.3 979.6 960.6 926 887.6 857.8 824.8 812 813.1 818.3 825.8 838 851.2 865.2 878.1 888.5 899 912.1 921.5 928.4 933.4 926.2 910.4 904.4 893.5 882.6 863.6 836.5 802.1 766.3 732.8 704.3 686.5 670.4 658.6 648.2 640.2 631.7 625.6 621.2 611.5 595.6 596.7 612.9 627.1 641.2 655.4 653.1 658.5 660.4 638.9 612.1 592.9 560.4 547.5 534.8 497.4 465.7 442.7 423 408.7 398.6 390.4 386.2 386.4 384.5 385.3 386.2 386.7 388.9 391.7 393.4 397.6 399.6 396.4 393.9 393.5 392.3 385.7 380.5 376.3 372.3 368.3 369.4 360.2 356 352.6 345.3 338.1 332.2 327.7 326.8 322.5 304.1 292.2 284.4 273.9 261.3 246.6 246.6 246.6 246.6 246.6 246.6 246.6 246.6 246.6 246.6 246.6 246.6 246.6 246.6 246.6 246.6 246.6 246.6 246.6 258.2 264.1 270.1 280.9 299.2 312.4 323.7 339 358.8 379.6 393.6 425.9 463 496.1 511.8 534.9 569.8 588.5 605.4 617.6 632 639.2 646.7 648.6 645.5 634.9 613 588.1 545.5 509.4 483.8 453.5 427.9 406.1 392.9 380.7 371.4
670.3 682.5 693.7 703.3 709.4 711.5 706.7 725.5 738 755.6 776.3 807.5 842.6 870.9 886.8 899 905.9 909.1 907.3 894.2 857.4 823.1 794.8 756.3 730.6 707.1 687.6 675.9 668.5 661.7 657.3 655.3 664.5 670.5 682.6 701.3 723.4 749.7 788 819.5 853.7 886.6 916.8 937.2 954.4 968.7 978.8 962 939.9 895.2 863.8 831.5 815.5 813.3 809.4 812.4 818.1 832.5 847.2 861.1 869.8 882.2 896.4 906.5 908.9 911.2 904.4 894.9 888.1 876.4 867.8 853.4 842.6 830.5 816.1 767.2 728.7 701.1 680.6 666.5 654.3 643.9 636.5 627.6 622.1 611.4 602.3 579.8 591.4 607.9 618.3 641.5 650.3 649.4 641.1 636.2 614.7 585.7 560.2 531.5 523.5 492 467.7 440.7 419.7 406.2 400.5 393 387.5 386.2 385 384.7 385.5 384.1 384 385 389.7 392 393.6 394.3 391.1 388.5 386.9 382.6 375 369.5 365.2 360.1 361.7 359.2 350.4 344.8 341 333.1 329.8 325.6 318.8 317.8 305.9 287.4 280.3 265.3 248.2 246.6 246.6 246.6 246.6 246.6 246.6 246.6 246.6 246.6 246.6 246.6 246.6 246.6 246.6 246.6 246.6 246.6 246.6 248 257.3 262.4 268.1 278.6 292.5 309.5 322.3 332.7 346.4 370.6 388.4 415.4 453.2 494.8 516.2 536.1 561.6 582.3 604.2 618.6 629.6 639.8 651.1 655.4 657.3 655.6 638.8 610.3 555.3 523.3 493.4 463.4 437.2 414.6 397.4 386.8 374.5 365.4
659.6 670.8 684.1 693.4 699.1 692.8 712.5 724.7 737.1 754.1 778.1 808.4 841 862.6 878.9 889.9 896.3 898.3 892.7 872.2 818.3 783.9 754.7 730.5 707.7 685.1 670.8 662.2 656.2 647.2 652 661.3 669.6 678.8 694 713.6 738.3 765.5 802.6 836.7 871.9 903.4 924.3 943.2 958 971.9 970.9 932.1 895.9 866.5 838.7 822.4 818.8 810.4 805.1 807.2 811.2 826.2 841.4 854.1 863.1 877 889 888.4 886.3 885.3 877.3 867.5 856.6 846.8 842.5 833.8 829.9 820.8 805.2 766.8 725.1 696.5 677.1 661.5 649.7 639.6 630.3 620.7 613.1 599.2 584.4 568.2 586.1 600.9 614.3 638 642.7 636.8 622 598.4 565.8 537.5 518.4 502 489.4 463.8 437.2 418.6 400.6 394.4 395.2 390.9 387.8 387.7 386.5 385.8 383.6 380.4 381 385.2 388 386.7 387 385.4 381.6 381.4 378.9 368.7 364.8 358.5 352.2 350.8 353.1 350.6 340.6 336.9 334.4 329.1 323 315.9 311.5 302 285.6 275.8 262.5 246.6 246.6 246.6 246.6 246.6 246.6 246.6 246.6 246.6 246.6 246.6 246.6 246.6 246.6 246.6 246.6 246.6 246.6 246.6 246.6 257.6 261.9 267.1 279.4 290.1 303.3 318.8 332.7 344.1 366.9 385.9 403.2 440.7 477 513.6 537.2 556.7 574.1 604.5 623 632.9 641.7 650 658.2 663.8 663.1 645.9 624.8 574.2 528.9 498.6 470.9 445.6 423.2 406.8 389.3 380.3 369.1 358.2
649.2 660.4 671.8 673.7 677.3 695.8 708.8 721.3 734.9 751.6 779.5 810 837.3 856.6 871.1 880.3 886.2 884.4 867.5 825.5 784.4 762.1 736.4 702.1 680 668.1 656.3 646.5 642.7 650.8 656.6 665 678.4 692.3 706.8 728.7 755.5 792.7 817.6 852.2 885.7 911.4 930.2 946.5 960.8 968.7 949.3 922.1 866.5 845 830.2 822.9 811.6 795.8 793.4 799.6 804.8 815.7 832.1 845.3 856 865.3 866.6 866.4 866.5 861.5 849.2 836.6 827.7 821.5 817.6 814.8 809.1 801.8 785.5 754.8 723.5 698.9 678.5 658.3 644.1 631.6 621.6 610 598.5 592 566.6 559.1 578.2 592.7 605.1 627.7 628.4 626.5 597.9 572.9 540.9 511.3 484.6 471.1 453 432.7 416.1 400.2 392.8 394.6 394.3 388.8 387.6 387.1 385.2 385.2 379.5 376.3 375.9 384.7 380.3 377.6 374.9 372.7 371.9 369.6 362.8 356 356.1 350.8 345.4 342.4 343.7 339.6 337 333.2 327.3 323 317.7 306.9 297.5 285.9 275 259.3 246.6 246.6 246.6 246.6 246.6 246.6 246.6 246.6 246.6 246.6 246.6 246.6 246.6 246.6 246.6 246.6 246.6 246.6 246.6 246.6 253.7 259.5 265.6 276 292.4 298.5 312.6 328.9 340.6 358.3 379.4 402.4 430.2 467.2 505 532.5 565.8 586.4 598.8 616.2 635 648.3 652.2 656.1 661.7 659.4 647.9 629.6 588.5 545.2 515.7 477.6 451.9 430.4 414 394 381.5 373 361.1 353.9
641 649.3 657.9 664.8 679.6 690.3 704.3 719.2 732 748.4 778.3 806.5 830.4 848.6 862.3 871.8 877.3 863.7 829.5 794.9 759.9 734.1 701.6 677.6 663.8 648.5 640.8 637.1 645.8 652.1 665.5 679 689.7 702.8 721.2 746.5 777.2 810.1 837.7 867 893.1 916.8 937.9 952 963.5 946.6 914.4 889.7 846.2 826.2 825.5 810.1 793.9 786.1 785.5 788.2 794 804.8 821.3 836.3 846.3 849.9 851.6 850.2 848.2 841.1 818.8 808.9 803.8 798 796.6 793.8 787.6 775.2 758 740.8 730.9 709.7 670.6 654.2 637 621.4 608.7 596.3 588.1 573.8 563.7 550.5 570.7 583.8 593.8 617.5 616.2 606.8 567.7 545.8 524.2 481.8 453.8 437.4 426.1 411.8 397.1 391.3 386.5 390.4 388.9 384.3 387.8 386.7 385.1 377.9 375.5 371.7 375.5 374.1 370.4 368 364.5 362.7 362.7 355.7 352 348.9 346.2 343.6 339.8 333.9 332.3 329 328 325.8 322.5 313.4 304.2 294.2 284.5 279.5 267.6 249.2 246.6 246.6 246.6 246.6 246.6 246.6 246.6 246.6 246.6 246.6 246.6 246.6 246.6 246.6 246.6 246.6 246.6 246.6 246.6 246.6 255.3 263.2 274.7 287.8 299.4 308.5 320.9 333.5 350.6 370.9 398.2 421.7 454.4 496.3 524.2 553.1 583.2 604.2 614.1 628.7 641.8 658 658.9 655.7 651.8 643.5 629.9 594.1 555.4 520.8 489.8 458.3 436.5 417.3 403.4 387.2 376.2 363.6 354.9 349.8
629.7 638.6 647.4 660.8 671.2 681.4 695.8 713.2 727.7 743.3 772.6 799.1 823.3 840.6 854.7 864.6 869.2 845.7 805.1 769.3 744 708 680.9 659.1 644.7 633.3 630.5 640.7 649.3 661.7 674.9 688.2 698.2 713 733.6 766.5 798.3 828 855.6 881.2 903.3 922.4 943.2 959.5 966.1 937.5 900.4 861.9 834.7 817.7 811.1 792.9 786.7 779.8 776.3 776.1 780.3 791.6 807.9 822.2 832.1 835.3 834.5 835.4 824.2 809 790.7 785.1 779.7 775.4 774.7 774.1 768.6 756.3 750.4 742.2 734.9 699.9 667.1 644.5 626 612.9 596.6 579.3 572.1 559.6 546.7 542.8 567.6 574.3 581 602.4 596.6 584.2 551.6 521.4 484.4 468.3 429.3 420.8 409.7 402 394.5 388.6 380.7 379.5 379.5 378.9 384 382 377 375 373 368.5 367.1 363.4 359.5 359.1 359.3 353.7 348.2 344.6 339.6 340.1 339 336.4 330.9 325 323.3 322.8 321.3 319.5 312.2 301.8 290.2 285.7 281.9 271 267.5 249.6 246.6 246.6 246.6 246.6 246.6 246.6 246.6 246.6 246.6 246.6 246.6 246.6 246.6 246.6 246.6 246.6 246.6 246.6 257.1 258 261.8 270.6 281.5 295.6 306.9 322 337.1 348.3 362.3 387.9 416.7 444.6 492.8 516.9 540.8 577.6 596.4 615.1 634.1 641.9 648.9 663.9 656.5 641.3 638.5 634.9 602 565 532.9 505 475.2 448.2 425.7 407 390.5 379.6 368.7 358.2 350.8 349.6
624.2 631.7 642.4 653.2 663.6 673.2 686.7 701.1 723.6 735.4 763.2 789.1 815.1 833.2 847 856.4 855.8 820.3 787 756.1 724.9 686.6 663.8 643.9 627.2 617.3 630.5 642.4 654.7 667.9 682 696.1 706.6 722.8 749.9 783.3 815.7 844.8 868 888.4 908.9 930.4 951 967.4 975 949.9 904.3 856.7 840.7 820.2 804.6 790.6 780 775 767.9 763.9 765.6 775.1 790.1 803.8 814.7 815.4 815.6 810 797.7 774.8 770.7 767.3 763.3 760.3 758.5 756 750.6 748.2 744.1 730.6 721.7 696.1 658.9 637.1 617.6 599.2 581.3 564.6 557.6 547.3 533.9 538.3 552.2 554.5 566.5 588.2 571.9 550.8 527.2 498.2 448 427.5 415.8 406.1 405.9 398.6 390.7 388.4 379.2 373.5 372.1 372.7 375.5 372.4 372.1 371.5 367.2 362.1 354.9 353.1 354.3 355.5 348.2 341.2 332.4 335.9 332.5 332.9 330.6 328 318.9 315.9 318.6 317.2 311.8 305.9 296.1 291.1 288 281.9 274.3 270.9 260.8 246.6 246.6 246.6 246.6 246.6 246.6 246.6 246.6 246.6 246.6 246.6 246.6 246.6 246.6 246.6 246.6 246.6 246.6 248.9 257.6 263.6 273.4 281.2 294.2 301.7 314.3 330.5 344.8 366.4 385.5 404.3 435.5 485.4 512.1 541.6 574.5 596.2 614.3 632.3 640.9 648 650.7 653.4 632.2 626.9 628.9 610.8 576.2 545.9 517.9 489 461.2 433.7 413.4 396.1 382.9 372.2 361.6 354.2 349.6 349.6
615.2 626.4 636.7 647.3 657.5 665.7 678.7 691.9 713.7 730.9 756 782.5 807 825.9 840.5 848.8 841.4 808.5 768.5 737.1 704.9 672.9 649.3 628.9 615.5 617.1 631.8 646.9 660.2 672.1 687.1 702.9 719.3 740.4 774.4 806 835.2 860.7 878.7 899.4 918.3 939.1 957.8 974.6 982.9 961.7 916 869.5 845.1 827.9 805 789.1 776.7 770.6 757.9 749.2 750.5 759.5 772.8 784.2 792.5 795.9 795.2 782 763.8 753.2 749.4 749.1 747.2 744.5 744.4 743.3 741.9 738.2 723.2 719.7 706 679.1 651.3 625.5 607.2 586 564.5 552.6 543.7 535.2 521.1 529 537.9 541.5 551.3 562.9 539.6 515.8 490 459.6 431 418.5 409 407.6 409.1 391.8 387.9 380.2 378.1 373.8 365.4 363.8 367.4 367.2 368.2 363.4 357.9 353.9 350.2 348.8 348.7 347.3 342.9 335.3 323.8 328.8 327.7 325 321.8 319.8 309 309.6 308.4 305.4 298 290.3 288.9 287.3 282.4 278.4 270.8 265.3 246.6 246.6 246.6 246.6 246.6 246.6 246.6 246.6 246.6 246.6 246.6 246.6 246.6 246.6 246.6 246.6 246.6 246.6 246.6 253.4 260.9 269.1 280.8 290.3 298.4 305.7 320.3 339.7 359.9 380.1 398.3 427.1 467.2 501.6 535.3 566.9 590.5 616.1 630.3 642 645.9 641.7 642.4 634.1 615.2 608.4 614.5 588.8 556.4 526.9 500.1 472.4 446.3 421.8 403.9 386.8 373.8 364.9 356.7 349.6 349.6 349.6
612.9 619.6 629.1 640.3 649.4 658.7 669.8 682.1 700.7 724.7 748.7 774.7 797.3 818.5 833.3 842.3 832.6 797.7 757.6 719 683.1 658.8 636.1 617.1 602.3 616.2 634.1 650.8 666 678.9 695 713.8 737.6 766.2 801.8 829.9 850.6 870.9 888.5 907.9 926.7 945.7 965.7 980 990.3 976.3 924.7 882.7 863.3 832.6 803.6 782.8 768.6 756.9 746.5 735.7 736.4 742.4 755.7 767.3 774.8 777.8 770.9 762 742.6 737.6 735 735.5 731.4 730.5 733.2 727.8 725.3 712.6 707.3 701.7 691.9 662.6 639.1 621.8 599.5 575.6 552 538.3 528.1 524.6 508.4 516.9 528.4 530.2 539.2 527.3 517 489 459.6 437.4 418.8 409.2 401.9 393.8 392.9 384.2 376.7 375.2 372.3 369.8 359.7 357.7 364.2 364.6 360.7 354.1 352.8 349.4 344.6 342.7 343.4 342.9 332.9 330.1 320.1 316.6 319.3 318.8 314.9 310.4 305 303.2 299.6 298 289 286.3 284.3 283.1 275.6 272.5 260.8 246.6 246.6 246.6 246.6 246.6 246.6 246.6 246.6 246.6 246.6 246.6 246.6 246.6 246.6 246.6 246.6 246.6 246.6 246.6 247.6 259.3 263.9 274.9 286.8 297 303.2 313.5 332.3 355.1 376.6 397 415.5 444.6 490.3 525.4 551.9 580.4 610.9 629.6 641.2 652.4 646.8 635.8 632.3 620.5 605.6 600.9 592.1 559 538 509.2 483.1 457.2 434.3 409.5 393.3 377.1 365.9 358.5 351.2 349.6 349.6 349.6
605 611.7 620.4 629.8 638.4 648.7 657.9 671.2 687.4 713.8 739.9 764.5 788.6 808.7 822.6 830.7 813.9 780.7 744.6 696.1 668.2 644.4 624.5 606.7 604 614.6 635.6 655.1 672.9 686.9 708.4 730.5 759.5 790.5 822.5 842.8 860.7 879.4 900 917.4 935.9 955.3 970.8 980.9 989.2 977.1 938.7 904.7 864.6 833.4 804.3 781.5 763.1 745.9 733.9 725.3 722.5 724.8 736.1 749.3 756.9 758.7 750.1 735.3 727 722.5 719.7 717.7 715 715.5 714.6 709.7 700.3 696.1 694.4 686.1 670.7 651.5 630.3 612.8 588.7 566 535.9 522.7 514.7 511.4 496.1 512.1 517 515.9 523.2 512.6 491 467.5 435.2 421.8 413.6 410.1 406.2 399.1 384.3 376.9 367.9 363.2 369.1 358.6 354.2 355.3 353 356.5 348.6 344.4 343.2 339 337.8 338.5 339.4 334.8 333.8 324.3 317.6 308.4 307 309.6 306.3 305.6 299.3 299.3 289.3 283.8 281.2 282.2 281.5 274.3 269.1 258.4 246.6 246.6 246.6 246.6 246.6 246.6 246.6 246.6 246.6 246.6 246.6 246.6 246.6 246.6 246.6 246.6 246.6 246.6 246.6 246.6 258.1 263.9 272.8 282.9 292.3 303.2 315.3 327.2 346.7 370.2 388.5 406.4 431.9 464.3 497.7 540.5 567.2 602.8 622.2 637.9 651.2 652.9 638.6 628.1 623.7 607.1 594.6 584.8 562.6 536.5 522.5 498.7 464.5 438 411.2 391.8 378.7 367.3 359.2 353.1 349.6 349.6 349.6 349.6
597.5 601.8 609.7 616.5 626.9 635.8 646 658.3 674.5 699.2 726.9 753.7 777.9 798.1 814.1 821.1 800 763.3 719.6 683.6 655.3 632.2 612.7 593.2 600.3 611.7 637.3 663.1 682.9 702.3 726 750 778.5 813.9 835.3 853.4 870 888.6 907.3 926 942.8 960.4 972.7 982.2 981.3 969 933.3 889.9 855.7 826.5 803.7 787.2 755.4 734.1 721.1 714.6 704.9 711.4 719.1 728.7 738.2 734.2 723.1 721.1 714.6 707.9 703.7 700.7 695.8 694.9 695.3 685 685.1 683.4 677.6 665.2 653 641.3 622.3 596.7 574.3 552.1 520.5 506.3 502.3 497.5 487 504.2 509 508.5 502.9 482.4 455.5 434.5 424.9 421.2 419.5 410.8 406.8 398 383.5 373.7 365.3 358.9 352 342.9 338.5 345.3 341.3 340.2 334.8 335.2 334 328.6 330.1 331.5 331.1 331.8 328.1 324.1 313.9 302.9 299.4 299.2 298.1 294.5 289 282.5 276.5 275.3 274.3 275.3 269.7 263.9 252.1 246.6 246.6 246.6 246.6 246.6 246.6 246.6 246.6 246.6 246.6 246.6 246.6 246.6 246.6 246.6 246.6 246.6 246.6 246.6 246.6 253.7 262 272 281.1 290.7 302.2 315.4 330.2 340 362.1 381 397.5 421.7 449.1 484.2 525.8 557.7 585.1 610.8 629.4 643.2 647.7 642.3 624.6 613.1 604.2 589.7 573 559.3 532 521.9 513.1 479.8 448 418.5 401.3 387.4 374.1 359 350.1 349.6 349.6 349.6 349.6 349.6
588.3 587.3 597.6 603.2 613 620.7 632.3 645.9 661.6 684.7 712.8 742.3 767.7 788.2 803.5 811.1 796.2 752.3 713.1 677.4 645.6 622 602.4 591.6 597.9 611.6 639.3 668.5 690.6 713.4 740.6 771.7 806.9 825.8 842.4 858.7 875.2 894 911.3 930.1 948 962.5 971 973.9 970.7 957.8 937.8 899.9 859.1 816.8 792.2 759.7 732.6 717.3 709.2 702.7 694.8 697.9 701.2 711.2 714.5 711.8 709.7 705.2 699.8 695 690.2 683.1 676 668.8 666.8 664.9 664.6 664 658.4 652.2 647.4 629.3 602.4 581.5 567.2 539.4 508.3 490.3 489 483.8 476.5 492.9 504.8 497.4 483.5 446 431.9 427.1 424.2 426.2 417.5 405.9 401 392.9 378.5 368.7 368.3 357.1 349.3 341.4 333.1 328.6 324.6 322.7 327.4 325.5 326.5 323.9 325.3 323.6 325 327.9 318.3 317.3 312.3 303.3 293.8 291.1 287.8 285 281.3 276.4 269.8 268.6 266 264.9 260.8 249.2 246.6 246.6 246.6 246.6 246.6 246.6 246.6 246.6 246.6 246.6 246.6 246.6 246.6 246.6 246.6 246.6 246.6 246.6 246.6 246.6 256.9 259.2 265.5 275.6 284.8 296 310.2 323.3 334.4 348.2 369.7 387.2 411.3 438.5 465 497.6 543.5 576.2 597.5 619 633.7 635.9 641.3 633 607.5 574.4 554.7 550.1 539.9 522 515 506.9 497.3 461 437.9 418.5 395.5 376.6 364 352.5 349.6 349.6 349.6 349.6 349.6 349.6
580.2 576.1 584.3 591.9 599.3 609 618.9 630.3 647.8 670.8 698.7 728.9 756.7 777.7 793.4 801.5 792.1 748.4 710.5 669.7 633.3 611.3 591.1 587.6 592.6 606.5 629.1 652 687 713.8 745.3 790.9 816.2 830.8 845.1 858.2 878.4 895.9 908.7 925.4 936 946.9 952.9 951.7 945.1 940.6 927.5 902.3 858.9 819.3 782.2 746.2 721.7 707 696.1 691.7 680.2 687.2 688.9 694.7 698.9 698.1 696.8 694.8 691.6 687.9 676.3 665.4 656.2 656 650.6 647.3 646.4 641.7 642.2 635.7 622.5 609.4 597 580 560.6 528.4 502.9 479.3 477 472.3 471.5 477.6 483 459.5 442.5 434.1 430 426.6 426 421.1 409.4 396.3 394.4 388.3 375.2 362.1 361.1 357.1 350.6 345.9 332.9 320.3 311.9 311.6 313.5 313.5 312.7 311.2 311.5 315.2 315.5 315.1 314.2 312 305.7 297 286.6 283.5 280.4 276.9 274.3 268.5 265.3 261.7 261.7 257.7 246.6 246.6 246.6 246.6 246.6 246.6 246.6 246.6 246.6 246.6 246.6 246.6 246.6 246.6 246.6 246.6 246.6 246.6 246.6 246.6 246.8 258.1 262.2 267.6 272.5 279.4 290.7 305 319.9 331.3 344 360.3 375.5 394.9 424.5 452.2 477.4 517.8 552.8 580 603.9 623.7 625.2 633.3 623.8 599.5 572.3 543.8 520.2 514.5 507.4 505.3 502.5 491 471.7 443.3 424 400.9 382.5 368.1 356.7 349.2 349.6 349.6 349.6 349.6 349.6 352
563.6 568.6 571.8 579.9 589.3 597.5 605.8 620.1 634.4 658.4 684.9 714.1 741.4 764.5 781.5 792 786.3 749.4 705.8 657.7 622 599.9 580.6 585 589.2 601.2 622.7 644.4 674.6 706 745.1 794 817.5 830 844.9 859.1 874 886.9 898.3 907.9 914.2 918.7 922.3 924 922.1 913.6 900.7 875.2 851 824.8 778.4 728.6 707 694.3 687.2 682.7 675.2 674 675.7 680 683.5 683.5 686 687.7 681.4 668 657.4 651 640.7 639.1 637.2 639.7 632.6 634.6 631.8 627.7 616.8 605.3 595.1 578 560 515.8 490.9 472.7 466 459.2 461.4 462.9 454.7 444.3 440.4 439.4 432.6 423.5 424.3 413.6 402.4 390 384.8 383.3 370 358.7 354.1 352.7 344.5 336.3 325.8 316.6 301 302.5 305.3 306.7 303.7 300.5 300.3 303.4 305 308.3 306.3 304.8 289.8 287 282.9 278.1 272.4 270 265.5 260.7 259.9 254.6 248.3 246.6 246.6 246.6 246.6 246.6 246.6 246.6 246.6 246.6 246.6 246.6 246.6 246.6 246.6 246.6 246.6 246.6 246.6 246.6 246.6 246.6 259.6 263.4 269.7 273.1 281 290.7 301.3 314.4 326 340.7 359.4 370.2 384.5 411.7 438.9 466 495.7 533.6 568 593.1 612.1 615.3 624 621.7 596.3 570.6 540.1 510.7 496.2 490.2 494.1 493.6 486.5 476.8 450.2 424.3 407.3 384.6 372.1 358.8 349.6 349.6 349.6 349.6 349.6 349.6 349.6 358.5
556.4 559 561.8 570 576.6 586.1 596.8 608.3 623.1 642.1 668.7 697.1 724.9 749.9 766.9 780.6 778.5 743.1 708.4 649.7 613.9 591.3 575.9 580.3 584.8 595.8 615.1 638.2 666 698.7 737.6 785.5 808.8 821.3 832.2 845.7 854.3 863.1 869.2 877.7 884.4 892.4 897.6 896.2 889.5 882.1 859.9 848.3 830.2 814 766.1 716.9 698.4 685.7 674 665.5 661.2 656.8 662.8 665.5 667.6 668.3 667.4 665.3 655.4 647.1 641.1 635.6 626.4 623.9 624.7 621.5 622.1 622.6 622.5 615.1 604.8 593.9 578.4 560.1 529.1 506.9 484 467.9 457 453.5 452.1 454.3 451.8 447.3 443.5 434.5 429 419.9 419.9 405.7 394.5 383 377.8 373.1 368.8 349.9 343.2 342.3 332.4 326.1 319.1 307.7 297.3 290.8 299 299.6 300 290.9 296.4 298.4 300 302.4 295.5 286.3 285.3 285.7 283.6 280.2 265.9 258.6 256.9 257.3 253.6 246.6 246.6 246.6 246.6 246.6 246.6 246.6 246.6 246.6 246.6 246.6 246.6 246.6 246.6 246.6 246.6 246.6 246.6 246.6 246.6 246.6 253.7 260.4 267.1 271.3 275.5 280.8 287.9 297.5 309.7 322.5 337.7 354.8 364.5 376.4 405.8 429.1 453.8 479.6 507.8 550.7 579.3 598.2 603.7 615.7 607.9 593.2 586.2 542 513.4 489.9 483.2 480.8 482.1 478.9 473.1 453.9 431.8 406.6 388.9 373.7 361.3 351.6 349.6 349.6 349.6 349.6 349.6 349.6 352.6 365.1
561.8 551.8 548.1 559.4 568.4 578 589.1 597.3 612.8 628.3 651.3 679.1 705.5 729.6 749.7 766 765.5 737.7 693.1 641.2 609.7 587.5 571.5 578 582.6 593 607.7 629.3 652.9 683.1 718.3 760.7 786.5 799.2 809.8 821.6 830.1 836.3 843.5 854.9 861.3 863.8 865.8 864.4 855.9 844.9 833.3 821.8 807.9 787.3 747.7 711.6 695.5 676.3 656.5 647.6 649.6 638.1 645.4 647.3 648.6 648.7 650.3 654.1 646.9 635.6 632.3 621.1 616.6 615.5 615.4 615.2 606.1 606.1 601.7 593.9 584.6 571.4 555.1 539 519.5 496.9 472.5 463.8 449.4 444.3 446 449.3 453.7 450.1 429.1 423.7 414.1 413.2 410.3 398.1 386 377.9 366.7 362.1 351.5 340.8 334.3 332.2 329.1 323 314.5 302.8 294.7 289.5 287.1 290.4 296.2 282.8 290.1 295.1 297.1 292.8 281.4 277 279.3 279.9 279.8 268.2 257.4 247.3 246.6 246.6 246.6 246.6 246.6 246.6 246.6 246.6 246.6 246.6 246.6 246.6 246.6 246.6 246.6 246.6 246.6 246.6 246.6 246.6 246.6 246.6 246.6 254.8 261.1 268 271 276.4 280.7 283.9 291.8 301 316.4 335.8 348.7 355.8 372.3 391 421.8 444.4 477.2 502.4 527.7 560.3 582.2 593.3 601.2 603.5 597.7 602.6 571.1 528.8 500.5 483.7 473.5 473.4 476.7 472.5 456.4 431.8 411.9 391.1 376.6 362.4 353 349.6 349.6 349.6 349.6 349.6 349.6 349.6 356.9 373.5
562 552.9 543.5 549.8 558.8 567.9 580.7 589.3 604.9 620.1 637 659 683.3 706.7 730.4 749.9 753.3 735.1 691.4 640.1 607.5 586.6 569.8 575.1 581.8 592.1 603.9 621.2 645.1 670.6 704.8 741.1 760.7 771.4 783.7 794.8 804.6 812.7 818 824.3 828.4 834.1 827.9 821.4 818.5 816.1 803 792.6 778.3 756.2 718.8 703.8 690.8 665.7 645.6 638.8 633.2 619.8 626.1 630 638.2 633.3 637.4 641.4 637.1 630.2 619.5 613.2 607.5 606.2 608.9 601.5 594.9 589.7 588.1 579.5 569.4 560 544 540.3 512 484 468.3 451.3 443.2 436.2 441.7 452.6 452.4 437 412.3 404.3 407.5 407.3 394.6 388.9 373.6 362.7 355.8 351.5 340.6 329.4 327.2 331.2 328.1 317.2 303.3 295.4 288.8 282.2 274.7 283.8 285.4 279.5 280.3 286 286.3 283.3 275.5 268.9 268.8 267.7 257.8 252.9 253.2 246.6 246.6 246.6 246.6 246.6 246.6 246.6 246.6 246.6 246.6 246.6 246.6 246.6 246.6 246.6 246.6 246.6 246.6 246.6 246.6 246.6 246.6 246.6 255.4 260.3 270.1 271.4 275.4 279.9 283.2 287.7 299 315.7 332.3 341.2 352.2 372.3 389.6 412.3 441.2 472.7 498 520.9 543.4 565.5 581.6 595.6 600.8 597.6 606 587.2 566.7 521.3 495.6 480 468.2 469 471.4 466.1 451 426.3 400.6 378.8 362.7 354.4 349.6 349.6 349.6 349.6 349.6 349.6 349.6 350.6 363.1 378.1
559.8 555.7 540.4 538.7 550 559 571.7 581.3 595.2 613 631.5 653 675.8 695.1 716 732.6 741.3 735.2 692.1 638.6 612 591.7 563.1 575.8 579.4 587.5 598.3 613.5 635.7 661.3 690.2 717 734 746.2 758.1 767.9 777.1 782.5 786.9 790.1 790.6 793 790.8 791 789.4 786.7 773.7 766.5 749.6 717.5 705.7 690.9 679.9 653.4 637.5 628.3 611.8 605.1 608.9 614.9 618.5 620.7 619 628.7 630.5 621.4 607.2 607.4 600.4 597.4 595.6 583.8 577.9 582.3 577.2 563 542.2 537.2 529.7 522.1 487.4 467.7 454.7 442 433.7 434.4 442.6 450.5 438.5 414.4 395.7 396.2 397.1 390.6 375.9 366.7 362.1 356.5 348.1 343.5 332.7 322.6 327.1 323.7 318.3 305.6 297 290.7 284 278.9 270.1 269.8 270.4 268.5 269.7 273.7 273.3 272.6 266.4 261.3 257.6 252.8 246.6 246.6 246.6 246.6 246.6 246.6 246.6 246.6 246.6 246.6 246.6 246.6 246.6 246.6 246.6 246.6 246.6 246.6 246.6 246.6 246.6 246.6 246.6 246.6 246.6 255 260.3 264.4 272.8 276.6 276.1 279.3 285.1 293.9 308.6 322.8 334.2 354.7 374.2 389.2 401.5 439.6 472.9 492.2 514.3 533.5 554.7 571.7 581.9 589 587.7 591.9 584.6 572.4 543.1 515.4 492.3 476.7 463.6 461.9 461.3 454 427.7 410 386.8 368.1 354.6 349.6 349.6 349.6 349.6 349.6 349.6 349.6 349.6 355.7 369.4 384.4
556.7 551.9 542.4 532.4 541.3 551.7 563.5 573.1 587.7 607.6 625.6 645.9 666.9 688.9 708.9 725.1 732.7 728.2 685.8 644.1 616.6 586.9 557.3 568.5 572.2 579.1 588.2 604.4 621.6 635.6 659.9 685.7 705.3 716.4 728.9 737.9 742.7 748.4 751.8 758.1 757.4 760.6 761.2 758.5 762.1 753.7 746.3 730.7 710.5 697.4 684.7 679.5 661.7 639.9 629.7 613.5 597.1 583.7 592.8 597.2 603.2 605.6 606.4 615.8 608.5 607.5 598.8 596 589.8 590.9 576.2 568.4 566.4 565.6 560.3 528.1 523.5 517.3 504.5 479.4 461.5 448.6 443.1 434.4 426.4 430.1 442.3 442 421.2 400.7 384.9 386.6 387.6 383.2 365.2 360.2 351.1 348.6 343.5 337.7 326.5 316.5 322.9 321 306.9 297.7 292.6 283.9 279.6 269.8 260.7 259.1 253.2 257.7 259 259.9 257.9 258.1 256.6 249 246.6 246.6 246.6 246.6 246.6 246.6 246.6 246.6 246.6 246.6 246.6 246.6 246.6 246.6 246.6 246.6 246.6 246.6 246.6 246.6 246.6 246.6 246.6 246.6 248.1 250.3 252.9 259 264.2 268.3 274 279.9 282.9 285 291.6 303.3 314.6 329.1 353 369.4 384.1 399.4 431.1 470.7 490.4 505.1 527.4 544.9 557 567 574.3 570.9 573.6 574.8 566.4 544.6 540.7 510.4 493.1 468.7 456.3 452.7 448.1 432.6 415.2 396 374.3 359.4 349.5 349.6 349.6 349.6 349.6 349.6 349.6 349.6 349.6 362.7 376.8 390.2
549.3 545.9 541.3 529.9 532.3 544.3 554.9 564.8 580.5 599.3 616.7 636.6 655.4 677.5 697.3 711.2 721.3 715.1 689.3 649.7 621.5 594.1 563.3 554.1 562.3 563.5 574.4 584.8 600.1 614.9 628.1 659.1 668.5 683.7 698.1 700.6 706.5 715.5 718.7 725.9 725 728.9 728.5 735.7 727.2 716.9 702.3 687.5 684.3 679.9 672.7 656.4 638.9 627 620.1 596.5 583.2 567.9 576.3 583.3 590.4 593.2 594.8 593.9 595 596.2 587.3 583.8 579.2 573.2 558.8 545.2 544.5 547.1 536.2 511.7 496.8 483.7 468.2 457.2 448.2 442.9 434.8 423.1 414.4 423.4 422 416.9 406.5 387.9 376.7 377.8 372.2 364.2 358.8 347.8 341.5 338 337.1 333.7 320.7 311.9 316.2 312.2 298.1 288.7 282.1 276.4 268.1 260 249.5 246.6 246.6 246.6 246.6 246.6 246.6 246.6 246.6 246.6 246.6 246.6 246.6 246.6 246.6 246.6 246.6 246.6 246.6 246.6 246.6 246.6 246.6 246.6 246.6 246.6 246.6 246.6 246.6 246.6 246.6 246.6 246.6 253.3 254.9 256.7 260.2 262.9 271 274.8 277.8 283.6 288.5 294.1 301.5 307.7 329.8 350 361.8 377.1 396.1 427.2 456.6 478.5 499.8 513.7 529.9 540.2 553.8 562.5 565.2 567.5 569.2 564.1 554.5 522.9 506.7 503.5 477.2 459.1 448.2 442.8 430.2 416.2 400.3 379.2 361.4 351.5 349.6 349.6 349.6 349.6 349.6 349.6 349.6 349.6 353.2 370.1 383.2 398.5
543.3 543.8 541 532.5 524.2 536.2 544.8 557.1 574 590.5 608 624.9 643.2 663.7 683.9 699.6 711.4 709.8 694.1 655.3 626.4 596.4 573.7 545.9 548.5 551.2 558.2 569.3 580.1 589.9 598.7 608.6 620.6 642.9 660.6 669.1 675.9 681.7 684.5 687.2 696 698.7 705.4 699.9 692.8 685 671.5 663.7 666.2 653.4 642.3 632.1 628.3 617.6 597.8 580 565.4 553 562.1 572.9 580.5 581.3 588.4 580.8 576 584.1 575.1 577.6 570.2 550.4 539.3 529.9 526.8 520.2 499.7 485.5 472 458.5 449.9 445.6 441.9 437.3 422 416 411.3 411.4 406.4 407.2 385.6 371.5 365.3 363.4 358.8 353.7 346.7 338.5 333.3 328.6 325 320.5 312 306.7 308.6 301.6 292.3 284.3 278.5 268.4 257.6 246.6 246.6 246.6 246.6 246.6 246.6 246.6 246.6 246.6 246.6 246.6 246.6 246.6 246.6 246.6 246.6 246.6 246.6 246.6 246.6 246.6 246.6 246.6 246.6 246.6 246.6 246.6 246.6 246.6 246.6 246.6 246.6 253.1 257.2 258.3 259.8 261.6 264.5 265.3 273.1 278.1 283.4 287.7 294.8 301.4 306 322.3 345.1 359.1 372.9 390.8 414.8 442.5 463 487.8 506.4 513.4 526 536.1 549.3 553.5 554.7 554.4 556.1 542.5 514.7 502.2 490.8 477.6 463.1 447.9 441.3 429.5 414 399.7 382.6 364.1 351.4 349.6 349.6 349.6 349.6 349.6 349.6 349.6 349.6 349.6 362.1 375.6 391.8 413
