ncols 200
nrows 82
xllcorner 370000
yllcorner 485350
cellsize 50
317.5 333.5 345.3 355.9 365.7 373.9 384.6 393.5 402.9 410.6 417.1 424.6 432.7 439.4 444.8 450.1 454 458.3 460.8 461.2 460.5 460.6 462 463.7 465.7 468.1 469.9 470.1 468.9 466.9 464.6 462 458.2 454.5 450.3 445.1 440.3 435.6 431.1 426 419.7 411.3 407.2 402.4 398.1 392.9 387.6 385.8 384.9 382.5 378.5 373.8 371.1 367.2 361.9 356.2 349.2 337.9 323.6 311.6 320.6 316.8 310.2 303.5 299.2 294.4 287.7 278.8 271.5 263.8 265.2 259.6 253.4 247.8 244.2 246.3 243.9 235.8 234.1 228.7 223.8 221.5 219.4 218.2 217.2 218.5 216.5 217 217.9 218.3 225.4 232 236.6 236.9 235 234.2 234 238.2 243.3 247.1 250 251.5 244.7 251.1 261.1 269.2 272.6 276.9 280.9 283.7 283.2 283.2 294.2 301.9 307.4 313.1 318.3 324.5 327.9 334.6 341.2 348.7 352.9 357.2 353 359.9 363.6 368.4 373.6 376.8 382.2 386.5 389.9 393.2 394.8 394.5 392.5 388.4 389.7 394.9 402.2 410.1 417.5 422.8 426 429.5 432.7 437.3 440.1 445.4 449.3 455.4 459.7 464.3 468.8 472.6 478.5 489.1 498.8 499 513.6 528 528.8 530.2 533.6 538.5 537.7 536.3 535.2 535.4 535 536.1 536.8 537.1 538.8 542.4 543.8 544.6 545.9 546.6 547.9 547.4 548 548.5 548.5 550.8 549.5 549.9 551.1 551.7 551.6 547.7 544.8 541.7 534.6 530.7 530.2 526.1 521.4 513.6
315.4 325.9 337.3 347.3 359.7 371.8 382.8 393.2 401.8 411.2 420.6 428.9 436.3 442.4 447.9 453.2 457.7 462.3 465 465.4 465.2 466.1 467.1 469 472 474.5 476.7 477.4 475.7 475.6 474.3 472.1 469.7 465.7 461.8 457.6 451.2 446.2 440.1 432.7 427.3 421.9 415.4 409.2 405.8 402.2 398.2 393.7 391.3 389.6 385.7 380.3 376.8 374.1 370 364.8 359.7 351.1 338.9 326.3 329.8 326.1 322.6 319 309.7 304.9 299.8 287.9 287 282.3 278.3 271.9 268.4 257.2 254.5 255.1 255.1 253 242.3 242.8 238.4 235.3 240.5 237.5 237.1 233.8 231.7 229.8 228.6 232.2 235.3 238.4 239.5 239.3 237.7 242.6 246.6 249.5 256.2 258 259.9 259 251.1 259 270.6 276.5 280.1 285.4 289.9 293.7 293.1 298.2 290.7 311.1 319.6 325.5 329.6 335 342.2 346.9 355.6 360.2 361 363.3 364 365 369 374.6 379.6 384.3 388.1 392 395 397.9 397.9 397.4 395.4 391.6 391.6 397.7 405.2 412.8 418.9 422.6 426.9 432.4 434.9 436.4 440.8 446 450.1 453.5 458.9 464.4 468.9 473.9 478.7 489.2 498.2 499.5 508.1 522.9 528.6 530.5 533 536.2 537.8 537.4 536.1 535.1 535.2 536.8 534.9 537.3 537.7 540.9 544.2 544.8 545.7 545.6 546.2 547.1 547.5 548 549.4 551.4 552.7 551.9 551.5 552 550.5 541.7 540.5 537 532.8 531.5 528.8 524 521.4 519.2
313.7 322.4 332.2 347.5 355.5 364.8 377.8 389.5 400.6 412.5 421.5 430.5 438.9 444 449.2 456.6 460.6 465.4 467.6 468.9 469 470 471.2 473.4 476.3 478.9 481.2 482 481.8 480.7 480.9 479.6 478.3 476 473.2 470 465.1 458.5 451.3 442.6 435.9 429.6 423.9 415.5 411.5 408 406 401.7 397.2 394.4 391.6 387.8 382.1 378.7 375.3 370.9 366.5 361.6 352.5 343.9 336.6 333.9 332.9 329.2 321.3 314.8 307.8 304.6 299.7 296.5 289 285.9 283.8 274.2 269.8 266.2 265.1 261.9 257.6 255.2 253.8 247.9 252.6 251.3 248.9 248.1 247 242.6 238.6 241.7 247.4 249.4 247 247.2 243 248.3 253.1 260.3 267 271.4 270.6 271.2 265.9 270.9 277.7 285.4 290.5 296.2 300 299.5 301.7 306 314.1 312.7 317.5 328.4 336.6 345 350.9 356.8 361.2 364.7 367 368.4 369.2 369.3 373.5 378.6 383.7 387.7 390.8 393.7 395.7 401.4 397.5 397.3 396.4 396.7 398.3 401.3 407.1 414.9 421 426.1 431.2 434.2 434.5 436.7 439.1 444.4 448.9 453.8 458.8 464.3 469.1 472.7 478.7 488 498.1 502.2 503.1 513.8 521.8 529.2 530.2 532.9 536.2 538.6 537.1 535.9 537.8 537.5 537.1 536.4 537.2 538.6 542.2 543.9 545.5 544.3 545.4 546.3 549.4 550.4 551 553.5 553.1 551.1 549.7 549.5 548.1 539 535.6 533.3 532.4 531.6 528.7 526 522.4 518.6
309.6 317.2 328.2 341.9 350.8 360.3 373.5 385.5 400.2 412.2 420.5 428.2 439.8 444.8 451 458.9 463.1 467.9 470.7 472.7 473.3 474.6 476.3 477.8 480.4 482.8 484.9 486 485.9 485.6 485.9 484.8 483.2 481.9 481 479.3 476.8 472 464.8 455.9 446.8 441 433.6 427.8 419.1 413.9 411.9 409 405 400.6 398 393.8 389.2 384.7 380.6 376.2 372.4 367.8 363.5 355.6 348.8 343.6 341.5 337.6 333.2 324.5 316.5 315.3 313.9 310.7 304.2 298.8 295.9 293.1 287.9 281.1 278.4 274.7 271 267.9 264.9 259.9 264.2 265.7 264.3 262.4 261.5 254.4 253.5 255.5 259.6 261.4 259.7 258 254.9 256.3 268.1 272.2 278.3 283.4 285.6 287.3 287.2 288.5 294.2 299.9 304.4 308.1 310.7 313.9 315.8 320.8 325.2 330.7 337.4 344.4 347.2 341.1 354 359.4 364.1 368.4 372.7 375.8 376.8 376.9 377 379.5 384.8 387.8 390.4 393 394.5 397.6 397.4 399.6 400.8 402.5 403.2 406.7 413.7 419.3 423.9 429.4 432.2 433.9 435.2 436.1 440.3 446.5 451.4 455.3 460.1 464.1 468.3 473.1 478.6 484.9 495.8 501.8 503.6 507.9 516.7 524.7 528.7 528.2 530.1 534.8 535.4 536.4 535.4 533.3 535.5 535.7 536 537.3 540.3 540.4 541.1 541.9 542.4 545.9 548.1 548.6 550.1 554.1 554.5 553.7 550.9 547.7 543.8 539.3 537.6 533.2 533.2 529.5 527 523.5 518.1 510.9
303.2 312.4 323.9 336 343.3 356.3 367.6 378.6 392.5 406.2 416 424.7 436.5 444.8 451.5 459.2 464.6 470.2 474.4 476.4 477.7 479.6 481.4 482.4 484.2 486 487.6 489 489 489.4 489.8 490.3 488.5 487.8 486.9 485.9 485 481.9 477.5 471.1 463.3 455.4 446.1 439.4 433.1 424.9 420.1 415.9 412 407.7 403.4 399.7 395.2 390.9 386.3 380.8 376.4 373 369.4 365.7 361.3 356.6 351.8 347.2 342.5 335.9 325.7 316.8 321.8 318.7 314.4 310.7 307.3 304.7 302.1 296.9 293.9 289.5 285.4 282.7 279.3 272 278.2 278.3 277.1 276 267 274.4 266 272.3 274.1 276 274.6 270.6 266.8 272.6 278 284.7 289.1 297.7 302.2 305.1 306.8 309.7 309.7 311.7 319 320.6 325.4 328.5 333.8 338 344.4 350.8 355.3 358.1 360 350.4 352.3 361.3 367.1 372.8 377.8 383 386 387.2 386.1 385.2 386.8 388.9 391.4 393.7 397.4 399.9 402 403.9 405.9 407.6 408.9 412 418.3 422.6 426.7 429.4 431.5 432.9 434.3 437.2 443.3 448.3 453.1 457.1 461.1 465.2 469.5 472.9 477.2 481.3 489.5 498.1 502.3 504.7 509.5 515.9 526.1 528 527.1 523.6 523.9 527.2 532.1 532.5 535.4 536.3 534.5 535.8 537.3 537.8 538.6 540.3 545.5 548 549.4 550.6 550.8 550.7 551.2 550 548.2 549.3 547.4 544.5 545 533.4 534.3 530.2 525.9 520.2 513.2 515.5
297.8 306 314.6 325.5 334.4 347.2 361.1 372.5 385.5 396.7 407.3 419.8 429.9 440.8 450.3 456.9 465 471.9 476.3 479.5 481.6 483.8 485.9 487.5 488.1 489.8 492.9 494.5 495.6 497 498.7 498.5 497 496.2 494.8 493.4 492.8 490.8 487.4 483 477.6 471.6 464.1 455.6 446.9 439 431.4 422.8 417 413.8 410 405.2 401 397.1 393.1 388.7 381.3 378.1 376.4 373.1 369.2 364.2 359.4 354.6 350.2 344.6 338.6 329.7 333.5 328.8 323.7 320.2 315.7 314.1 310.7 311 306.9 300.7 302.3 300.3 296.3 292.7 293 289.9 288.2 287.3 280.7 286.3 286.8 290 291 288.8 290.3 288.5 278.5 289 294.1 299 303 310 314.9 319.3 322.7 324.7 326.2 327.7 332.6 335 338.6 342.4 348.6 354.1 358 362 365.8 368.6 368.3 364.9 362.5 362 370.6 377 382.7 387.2 390.6 391.6 391.1 389.6 389.6 391.2 392.9 396.6 399.3 401.3 403.5 406.4 408.5 410.6 412.3 415.3 418.7 423.1 425.5 428.5 429.6 430.7 435.2 439.7 445.3 450 453.1 456.5 460 464.2 467.3 470 475.6 479.2 483.1 490.4 496.2 500.6 503.1 507.6 510.9 516.9 518.2 520.9 523 525.6 524.3 528.3 529.5 531.8 530.3 533.1 532.5 536.2 537.5 540.2 543.2 547.7 549.5 552.8 554.2 552.9 551.6 550.3 552.9 551.7 546.6 547.4 539.4 534 531.1 528.6 526.2 521.6 522.3 520.3
290 300.7 308.6 317.6 326.7 336.3 351.2 364.4 376.4 389.1 402.2 414.6 425.9 434.8 445.6 455.3 464.2 472.2 476.9 481.3 483.9 487.5 490 491.9 494.7 497.4 499 500.5 501.2 502.1 502.7 503.5 503.6 502.4 501.2 500.3 499.1 498.2 495.4 491.9 488.6 485 479.7 472 461.9 451.4 441.6 431.1 422 420 416.6 412.3 407.2 403.3 399 395.2 390.4 385.5 383.2 380.6 376.8 373.1 368.5 364.5 358.4 354.1 351.1 347.3 343.6 341.3 338 329.8 325.5 323.1 321.3 320 317.2 314.9 316.7 315.1 310.4 311.4 308.2 307 299.5 300.2 298.1 301.7 297.3 301.1 304.3 306.3 305.2 304.7 296.6 303.2 308 309.3 317.4 325.7 330 334.3 339 339.8 339.9 338.7 344 348.9 351.9 353.9 358.6 365.7 368.2 371.7 375.3 377.3 377 373.8 373.2 372.4 375 381.5 386.7 390.2 391.8 391.8 391.2 391 391.4 392.2 393.5 396.3 399 401.5 403.7 406.6 409 410.7 412.8 415.5 418.8 422.4 424.3 427 427.7 430.1 436.7 441.4 445.4 447.9 450.3 453.1 457.2 460.4 465.3 469.2 473.3 477.8 479.7 484 491.5 495 497.9 501.5 504.4 506.8 509.3 510 511 514.5 518.6 521.5 523.1 527.2 531.2 532.9 533.9 537.4 538.8 541.6 545.3 548.5 551 553.4 555.8 556 552 552.5 552.4 553.2 548.7 545.5 536.3 534 531.5 528.7 526.9 527.3 529.1 527.4
285.5 293.9 301.1 310.4 319.7 328.2 340.7 356 368.1 380.7 394.9 407.3 421.3 432.7 440.8 451.9 460.9 471 476.3 482 486.5 490.6 493.5 496.8 500 502.5 503.5 503.4 502.9 502.7 503.2 504.9 506.2 506.3 508.4 508.2 504.1 503.4 502.4 500.3 498.3 494.8 490.3 484.5 477.5 466.6 456.3 444.6 433.4 426.4 423 419.8 415.8 410.2 405.2 400.8 396.5 393.2 391.1 387.3 383.7 379.5 377.3 373.3 368 362.5 361.1 358.3 353.3 352.2 348.6 342.3 337.4 332.9 330.2 328.3 327.4 326.8 326.5 326.4 319.3 323.1 323.3 319.4 315.6 312.3 310.5 315.4 319 322.1 322.5 324.7 325 321.1 313.4 315.5 322 328.6 332.6 339.8 344 348.2 350.8 354.3 356.9 355.8 351.4 358.4 363.1 366.9 371 374.7 378.8 383.4 386.2 386 384.7 382.1 380.5 380.3 376.2 385.7 388.8 389 388.2 388.1 387.9 389.7 391.1 392.5 394.6 397.2 400.8 400.8 402.4 404.3 405.9 408.7 411 413.5 416 419 421.5 425.3 427.5 431.3 436.1 439 441.2 443.7 446.2 448.9 451 457.7 461.9 465.8 470 473.2 477.3 480.1 482.5 487.3 490.6 492.6 495.4 498 499.7 501.9 505.1 509.2 511.9 518.7 529.9 532.9 533.6 534.5 533.4 535.9 540.7 544.5 547.8 551.3 555 555 557.5 554.2 552.9 553.4 554.1 552.1 551 545.8 537.1 535 531.9 532 533.4 533.7 535 536.1
281.3 288.7 297 304.7 314.2 323.3 333.4 346.1 360.5 372.8 387.6 401.9 416.6 429.7 440.5 445.8 455 465.1 474.9 480.3 488.1 492.2 496 499.9 503.3 505.2 505.4 505.2 504.7 503.8 504.2 505.9 507.4 508.3 515.1 514.3 512 510.6 509.2 507.4 505.7 503.1 499 494.4 488.6 481 471.9 459.2 447.7 436 430.1 425.9 423.2 419.1 413.5 407.5 402.3 400.2 398.9 397.1 394.4 389.8 385.2 381.6 378.2 374.5 368.5 368.3 365.2 363.3 360 357.8 351.1 345.8 340.1 336.9 336.9 337.3 337.1 337.3 334.8 334.5 334 332.4 331.5 326.8 325.7 331.1 334.6 338.3 340.2 339.5 342.6 337.9 333.3 328 336.5 346.8 350.6 352.9 357.3 361.4 365.5 368.8 371.3 372.6 368.1 368.1 374.1 380.3 386.8 389.4 392.7 394.7 395.1 394 392.1 389.9 389 388.2 384.2 380.8 385.1 385.7 385.4 387.9 389.5 389.9 391.6 393.2 393.4 395.2 397.6 398.3 397.4 398.1 400.1 403.4 406.7 411 413.1 415.6 419.5 421.7 424.6 428.1 430.7 432 435 436.9 440 443.8 446.2 450.3 454.5 458.4 462.6 466.6 471.3 474.9 477.8 480.3 482.9 482 483.1 495.5 503.2 507.2 508.8 510.4 513 520.3 529.6 531.6 532.4 534.1 535.6 536.6 541.2 544 550.7 555.5 555.8 556 555.5 554.7 553.2 555.3 554.9 551.4 550 545 540.9 537.7 537.2 537.8 539.3 538.4 540.9 542.6
274.1 281.7 289.1 298.7 307.1 316.6 328.4 339.1 350.9 364.5 378.2 391.9 407.5 423.7 431.8 440.5 448.1 459.2 469.6 476.7 485.2 492.4 496.5 500.6 504.3 506.1 506.5 506.8 506.5 506.7 508.2 509.4 514.1 519.2 522.2 522 521.6 520.3 519 516.1 513.3 511 507.9 504 498.8 492.3 485.1 473.5 460.7 449.3 439.4 433.8 431 426.2 422.4 417.3 411.6 407.3 404.7 403.9 401.6 398.8 395.3 390.8 386.8 382.9 373.8 377.8 376 373.3 370.2 367 361.5 356.8 354.2 349.4 350.3 348.8 351.7 351.7 352.7 350.9 348.3 346.4 344.4 344.5 346.6 344.8 351.9 350.3 355.1 356.3 357.3 357.5 352.2 353.1 355.3 362.9 367.4 374.4 377.8 381.5 383.8 387.2 390.4 392.5 390.6 391.1 395.1 397.8 400.4 400.5 401.3 402 401.7 399.7 396.8 395 394.2 392.6 389.5 385.9 383.7 385.3 387 389.5 391.8 393.1 393.4 393.7 393.7 394.8 395.3 394.7 388.7 389.9 393 397.8 402.2 405.4 408.7 412.5 414.6 416.8 418.1 420.4 422.7 424.1 427 429.4 434.4 439.7 441.6 443.4 445.4 448.1 451.3 457.9 463.5 467.9 466.6 465.7 476.4 486.4 488.8 497.1 503.8 505.9 507.6 509.6 514.1 525.3 530.8 530 533.8 536.1 538.2 542 546.9 549.1 553.6 557.4 558.1 557.5 555.7 555.4 554.4 553.6 553.4 553 548.7 545.2 545.7 544.3 543.2 545.2 545 549.4 549.2 550.7
269.5 276.7 283.8 291 299.6 310.3 320.3 331.4 341 352.8 367.5 380.9 395.8 411.7 425.4 433.5 442.3 453 462.7 471.1 480.3 488.9 494.6 498.8 501.8 505.2 507.4 508.6 509.9 511 516.8 522.2 526 528.8 531.4 533.9 533 531.2 530 527.7 523.2 519.8 515.9 513.2 508.7 503.7 496.6 488.9 475.4 461.7 448.9 440.7 437.4 434 430.1 426.6 421.2 416.8 413.7 411.3 409.6 406.3 403 400.1 396.4 392.7 388.3 384.3 385.1 383.7 381 379.4 374.9 369.3 369.4 364.1 353.5 357.8 354.2 360.8 362.6 364.1 363.8 362.8 361.5 362 360.9 364.5 365.5 362.1 367.4 369.4 372.2 374.5 374.6 374.4 381.4 388.7 397.6 401.8 402.3 405.8 408 409.4 410.2 409.8 407.7 407.6 407.8 409.1 408.7 407 405.3 404 402.7 400.3 398.6 397 395.6 392 387.9 384.8 385.6 387.1 391.8 394.9 395.2 394 392.6 393.1 394.3 395.1 391.7 388.4 381.7 383.3 387.2 389.1 394.6 398.5 401.4 405.5 408 410.9 412.7 414.4 416.9 418.6 423.4 426 427.6 430.5 430.8 434.2 435 425.9 445.8 451.1 455.1 458 467.8 479.3 485.7 490.6 494.7 499.9 504.9 509.4 511.2 514.5 517.8 526.3 530.7 533 538.3 539.4 544.6 548.8 551.8 554.7 558.3 559.2 558.9 558.6 557.2 555.9 556.7 555.1 553.4 555.6 552.2 551.3 549.3 549.3 551 551.2 554.6 554.8 554.4 558
260.1 269.4 276.4 282.2 292.6 304.1 311.4 321.7 334.4 342.9 356.4 371.1 384.1 398.3 415.4 427.2 434.8 443.8 454.2 463.7 474.5 482.3 490.1 495.6 499.6 503.3 507.4 510.3 512.5 517.9 523.2 527.5 531.7 534.8 537.8 540.7 541 538.9 538.1 537 534.5 531.2 528.3 524.7 520.4 514.6 508.9 501.1 493.1 478.8 463.7 449.5 444.4 441.4 436.7 430 427.9 426.1 424.4 421.5 418.4 414.9 410.1 405.8 401.6 398.8 396.3 393.3 392.6 392.6 391.8 389.4 387 383.4 379.7 375.3 371.6 369.6 368.9 370.1 370.6 373.6 374 372.2 372.9 372.9 376.1 378.6 380.5 382.6 390.9 392.7 396.5 399.1 401.7 404 407.3 410.8 412.5 414.2 415.4 416.8 417.8 419 419.6 419.7 419.4 418.9 419.3 417.7 414.9 409.7 406 404.3 403.1 402.1 400.3 398.5 395.7 391.6 387.7 386.6 388.3 389.7 392.3 392.5 391.5 390.3 391 393 394.1 392.4 387.5 380.8 375.7 377.8 379.8 382.4 386.9 388.2 393.4 396.8 399.6 404.1 407.5 410.1 411.7 413 413.4 409.9 406.8 406.5 413.3 415.8 426.9 440.5 452.7 459.7 465.7 469.3 474.8 481.9 487.4 492.5 499.3 504.2 508 511 515.7 519.6 526 530 532.6 537.5 542 547.6 553.1 555.8 557.9 559.1 559.4 558.5 559.3 559.4 556.9 558.1 559 557.9 556.7 554.7 554.4 551.6 553.4 556.7 558 557.5 561.3 562.2 562.7 565.6
251.9 259.7 268.6 275.8 284 291.7 304.7 315 322.6 336.1 349.5 361.5 375.8 388.9 400.7 414.4 427.9 434.2 444.9 454.9 466.1 475.4 483.2 490.4 496.2 500.7 505.3 509.9 513.6 522.2 525.8 530.8 535.8 539.5 542.9 544.9 545.4 544.6 543.3 542.2 540.9 538.7 535.9 533.6 530.9 528.5 523.4 517.2 507.9 499.3 483.3 466.5 454.4 448.5 444.1 438.5 432.1 432 432.9 430.8 427.5 423.7 419 411.2 405.1 404.1 403.9 402.4 401.1 400 398.3 397.6 394.6 391.4 390.5 386.4 381.6 380.4 378.5 377.2 378.8 382.1 383.6 383.2 383.9 386.2 387.6 392.5 395.9 396.6 402.3 404.4 407.1 410.6 413.2 415.8 417.7 419.3 420.3 421.7 423 424.2 425.1 426.3 427 427.3 426.8 426.6 426.8 426.6 423.3 418.9 412.9 411.2 409.6 406.6 403.1 399.6 394.6 392.1 391.7 390.5 389.5 389 388.8 388.6 388.8 387.9 389.7 390.7 389.1 385 380 372.8 364.4 368.7 373.3 377.3 382.1 378.8 381.7 383.7 389.1 394.4 394.1 396.3 395.8 391.5 389.8 404.4 414.1 417.5 429.5 434.9 439.1 448.5 456.4 463.4 468.9 473.4 477.5 484 490.3 497.8 503 508.4 511.6 514.9 520.3 525.9 531.5 533.8 538.9 543.1 548.6 554.4 558.8 557.8 558.5 559.6 560.2 560.4 557.7 557.4 559.6 561.4 562.2 561 559.2 557.9 558 558.2 560.3 563.3 563.7 565.5 566.4 568.9 570.9 571.7
245.5 251.8 257.2 268.5 277.2 283.6 298.1 305.2 316.3 329.1 341.1 350 363.9 377.5 387.6 400.4 414.1 424 432.3 444 453.9 466 473.5 483.3 490 496.2 501.3 506.4 513.6 521.7 525.8 531.7 535.7 540.4 544.9 546.4 547.2 547.6 547.1 546.9 547.1 545.4 541.4 539.4 538.6 538 537.1 532.9 526.7 517.4 507.1 491.4 474.2 462.3 454.1 445.4 441.7 440 438.3 436.5 434.6 430.1 425.4 420.5 416.9 412.1 412.3 412.7 412 409.5 407.7 405.4 401.9 400.9 400.7 398.7 394.1 391.7 388.7 386.3 388 390.6 393.2 395.6 397.7 398.4 402 403.4 406.2 407.8 410.5 413.1 414.7 416.5 417.9 419.4 421 422.8 424.1 426.1 428 429.7 431.2 431.9 432.8 434.9 436.1 437.9 436.6 434.5 428.8 424 419.4 416.5 412.1 407.9 402.6 397.7 397.4 397.9 397.1 394.9 391.4 388.4 387.5 386.6 386.7 386.2 386 384.4 381.4 376.4 368.1 363 355 359.4 369.9 374.8 372.5 362.7 362.7 365.4 373.2 379.4 380.8 379.6 381.1 397.5 406.5 414.3 424.6 431.1 435.3 440.8 444.5 452.3 460.2 466.5 472.4 476.7 481 485.3 492.9 501.1 508.8 512.2 516 518.5 524.7 532.5 534 540.1 543.7 548.4 553.9 556.8 556.7 558.8 560.4 561.7 562.3 562.7 562 563.5 564 564.6 564.6 564.3 564.2 562.4 562.1 565.5 569.5 570.7 570.1 571.5 573.2 574.4 576.6 577.3
236.5 244.4 249 258.9 265.4 275.3 286.7 295.2 305.4 318.2 330 339.8 352.8 366.1 378.4 389.3 400.1 411.8 422.5 433.1 441.5 453.3 463.7 473.6 482 489.3 495.4 500 506.8 517.7 523.8 528.9 533.7 538.8 543.4 546.4 548.4 548.9 549.7 550.9 550.4 549.1 547 545.9 545.3 545 544 542.5 538.3 533 525.6 514.8 501.2 485.2 468.5 458.5 452.4 451.8 450.1 447 441.4 434.4 429.1 427.9 426.2 421.5 422.8 424 422.4 419.5 418.7 417.2 416.2 412.3 412.3 409.7 407.8 406.5 400.3 397 396.6 401.7 403.3 407.4 410.6 412.6 414.5 413.7 416.3 416 415.2 416.6 417.6 417.9 420.2 421.6 423.6 426.5 430.5 434.7 438.1 443 446.6 449 450.8 450.9 450 448 444.7 441.3 434.3 427.4 422.8 418.3 412.8 407.6 402.2 402.8 404.5 404.8 402.9 399.1 394.1 389.1 386.7 386.2 386.3 384.5 382.4 378.6 373.1 366.2 356.6 344.7 345.8 347.2 347.8 347.5 350.9 363.8 379 382.4 376.4 384 386.1 395.7 399.2 404.7 413.4 422.2 429.1 434.3 438.7 443.6 449.7 457.6 464.1 469.7 474.6 478.9 485 490.9 498.3 505.4 512.7 516.5 519.8 528.1 532.1 533.6 538.8 542.1 546 550.2 554.4 557.6 559.4 561.2 562.4 563.7 564.5 565.5 566.7 566.7 567 566.4 566.2 567 568.8 567.3 566.3 567.7 575.5 577.3 576.8 578.9 579.3 580.8 583.7 582.5
233.5 238.2 240 250.5 258.5 271.1 279.2 289.3 298.7 308.9 319 330.5 342.2 354.9 365.7 374.9 388.5 398.7 407.4 416.7 429.1 438.8 450 460.9 470.1 478.5 486.7 492.3 498.2 507 515.8 524.7 530 535.2 540.6 545.1 548.4 550.5 552.4 553.2 552.8 551.6 550.9 550.6 550.2 549.8 548.7 546.5 543.8 540.1 535.3 531.3 522.3 513 499.5 480.7 469.6 462.2 458.7 454.6 450.5 441.8 436.6 433.2 431.9 429.5 429.4 431 430.6 429.1 428.7 426.6 426.5 428 426.8 426.7 423.5 420.5 417.2 414 410.8 412.4 414.6 416.4 418.5 420.6 421.5 421.8 421.4 419.4 419.3 420.9 421.7 424.3 427.2 431.3 437.2 443.3 448.3 452.6 456.1 458.6 461.2 461 460.2 458.8 457 454 450.6 445.1 438.7 429.9 424.9 419.9 414 409.9 409.7 411.1 411.9 410.9 407.3 402.2 397.1 391.2 386.1 384.6 383.6 381.2 377.4 371.7 361.1 352.9 336.7 339.2 351.1 355.2 362.2 366.2 375 379.5 386.9 391.7 392.1 379.7 397.3 403.3 407.7 413.6 418.9 425.9 432 437 441.9 448.7 456.6 462.6 467.9 473.7 478.7 484.6 490.2 495.2 502.3 510.6 516.6 521.4 532.1 533.9 535.6 540.4 543.1 545.4 548.7 553 555.7 558.7 560.9 562.7 564.2 565.4 565.8 567.5 568.9 568.7 568.6 568.8 569.5 570.5 572.3 572.3 572.1 574.2 579.7 581.8 583.8 587 588.3 589.6 590.9 583.4
223.4 226.5 230.6 241.7 250.4 262.8 268.5 277.9 287.6 297.3 307.5 316.8 329.3 338.7 350.6 365 374.6 383.3 392.4 401.2 413.6 426 436.1 445.7 457.8 467.4 476.1 483.5 489.9 497.6 507.3 515.1 524.2 531.6 536.7 541.7 546.5 549.7 552.7 554.1 554.4 554.9 554.1 553.9 553.6 552.5 550.7 548.6 546.4 545.1 542.4 537.7 534.4 528.3 521.5 513.3 501.5 486.2 472.6 464.7 457.8 453.6 451 447.2 444.1 442.2 440.5 439.2 438.6 436.3 436.2 436.6 437.1 437.5 437.1 436.2 434.2 431.2 425.4 425.8 425.6 427.1 429.1 429.4 430.3 429.8 429.5 427.6 427.1 426.8 428.3 430.5 432.7 435.9 440.2 445.4 451 455.7 459.9 463.7 467.3 469.6 469.2 467.8 465.9 463.6 461.7 458.2 454.5 448.6 441.3 433.4 425.6 419.3 416.3 416.3 416.5 417.1 416.3 413.2 409.3 403.4 397.5 389.8 384.1 381.1 379.7 376.5 369.4 358.1 350.2 334.9 337.5 354.5 363.1 369.5 374.4 379 383.3 388.8 391.9 396.6 399.2 400.9 388 405.8 414.3 418.9 423.6 428.2 433.8 440.2 448 455.2 462 466.1 471.6 477.4 484.9 490 494.2 500.4 510.1 516.6 524.4 533.3 533.8 538.3 544.5 545.7 547.9 550 551.7 554.5 555.7 559.5 562 563.8 565.6 567 568 569 570.3 570.6 571 570.6 573 573.4 575.7 575.2 572.9 577.5 582.3 587.4 590.1 593 595.4 598.5 600.8 598
212.4 221.4 225.2 233.4 241.4 249.6 256.9 267.2 275.4 286.4 295.4 301.6 313.8 321.3 332.8 345 358.5 368 378.4 387.1 400.8 412.5 422.4 430.3 440.1 454.3 463.7 472.5 481.3 487.5 495.5 505.1 513.7 521.3 531.4 536 539.9 544.7 550.6 553.1 553.9 554.7 553.7 553.5 553.7 552.7 550.5 549.2 546.5 545.3 544.4 541.1 538.5 535.6 532.3 527.8 524.1 517.2 499.4 487.2 473.9 468.5 462.1 459.9 458.7 457.8 455 452 453.1 451.3 447 445.6 446.7 447.7 447.5 446.4 443.6 439.4 438.2 438.7 439.5 440.6 441.4 440.7 438.6 436 433.2 433.5 434.6 435.5 433.6 437.9 440 442.9 447.9 452.2 457.9 463.4 469 474.8 480.5 478 474.4 469.4 466.5 464.3 461.6 459.8 456.5 450.6 442.8 434 424.6 420.2 420.6 420.5 420.8 419.9 417.6 413.6 408.3 401.7 395.2 387.8 381.1 378.2 373.8 368.1 354.1 345.8 334.5 336.1 357 366.3 371.7 375.6 380.1 385.1 389.7 392.1 399 403.5 407.9 410 407.4 404.4 414 422.1 427.7 431.6 438.7 445.9 452.5 458.1 463.4 469.1 475.5 481.8 487.4 493.8 499 504.4 513.9 521 525.8 533.7 533 542.8 547.4 548.5 550.9 553.2 555.2 556.1 559.1 561.7 563.7 565.7 567.6 567.6 569.2 570.8 571.2 571.9 571.7 574.7 576.3 574.5 577 580.6 579.8 581 579.5 583.3 589.6 594 599.6 602.7 602.8 602.3
208.9 212.8 216.7 221 230.4 237.7 251 259.4 269.6 274.9 281.8 291.2 299.2 309.6 313.2 322.9 335.5 351.5 363.4 374.7 387.7 397.9 408.1 418.5 427.3 436.5 448.8 459.7 469.5 477.9 485.1 492.4 500.3 510 518.5 525.8 532.4 537.7 542.4 546.4 549 550.8 550.7 551.6 551.7 551.3 550.6 548.7 545.8 544.6 543 541 538.2 537 535.2 533.8 532.3 528.2 522.5 514.2 501 489.2 485 477 473.2 472.5 471.5 468.1 468.1 467.7 463.5 461.9 460.8 459.9 459.1 457.3 456.4 454.6 453.2 453.2 453.5 452.5 451.5 450.3 447.3 441.9 437.2 437.8 440.1 440.4 440.1 441.4 444.4 447.9 453 458.4 464.8 470 476.9 481 482.6 482.1 473 467.3 464.6 463.5 462.5 460 457.1 451.3 444.6 433.5 425.9 424 423.1 422.8 422.7 421 417.1 411.9 405.3 398.8 392.3 385.7 378.2 373.4 366.7 354.7 342.9 344.8 330.8 353.9 358.5 370.3 373.5 379.2 382.9 388 393.1 398.3 403.1 408.2 412.3 415.7 418.1 418.2 407.4 424.1 429.4 435.1 442.4 448.6 454.5 459.3 463.9 470.2 476.1 484 489.8 495.7 505.4 510.8 515.9 520.2 526.4 532.6 534.2 542.9 547.1 549.7 553 555.9 558.1 560 561.3 563.4 565 566 567.8 569.7 570.8 571.7 574 574.6 576.3 577.9 581.6 584.2 584.5 585.3 585.1 585.8 587.7 591 594.2 601.3 602.9 603 603.2 605.1
198.4 201.3 203.2 215 221.9 230.3 244.8 246.8 259.5 263.6 271.5 280.9 290.1 297.4 303.1 309.3 316.9 334.1 349.9 361.5 373.6 385.1 396.2 405.5 414.3 423.4 433.1 443.4 456 465.6 475.2 481.9 487.7 495.7 504 512.5 518.5 524.1 530.3 534.8 539.2 542.1 543.9 546.3 547.1 547.1 546.1 544.8 543.5 542.2 540.3 538 535.2 533.1 532.6 533.7 534 532.9 530.4 526.4 521.8 518.4 514.6 508.4 505.3 500.5 497.4 495.6 492.4 485.7 484.2 480.2 480.6 478.1 476.3 473.1 470.7 469.3 468.7 467.5 466.1 464.4 463 460.8 457.9 453.2 449 447.6 448.3 448.7 446 445.5 449.7 453.2 456.7 461.9 467.4 475 479.4 479.9 480.7 476.2 470.4 465.8 464 462.7 461.9 459.7 456.1 450.3 442.9 430.4 426.3 424.4 424.3 424 422.1 419.2 414.4 408.5 401.8 395 388.6 382.4 375 363.5 351.6 335.5 324.7 347.2 343.4 363.5 369 373.9 376.9 380.7 384.1 390.2 395.1 398.5 405 411 414.9 417.1 420.7 422.9 425.1 422.1 431.4 439 444.8 450.1 455.2 459.6 464.9 471 478.1 485 491.4 498.2 507.1 513.6 515.8 521.5 529.1 531.5 538.4 545.5 548.1 551.3 554.5 557.2 559.7 561.2 563.3 564.3 567 568.8 569.4 571.1 572.7 576.1 577.3 576.8 579.9 585.1 587.6 589.5 591.1 592.2 589.8 591.8 591.5 596.2 602.8 604 605.7 604.4 606.4 607.3
190.3 188.2 198.3 205.4 210.5 222.7 232.9 237.2 246.4 252.1 258.5 267.9 277.8 290.5 297.8 301.5 307.1 319.1 333 346.3 359.1 370.8 382.9 391.7 400.2 408.9 419 429.6 440.6 451.1 460.6 470.3 477.9 484.7 491.5 499.2 505.8 511.1 517.1 521.3 525.3 529.5 532.9 535.6 537.3 538.3 538.1 537.8 536.8 534.7 531.9 530.4 528.9 529.1 530.3 532.6 535.4 536.4 534.3 530.7 528.6 524.6 521.7 519.9 518 514 510.8 508.8 505.8 503.5 501 497.3 493.3 490.2 488 485.5 483.6 481.6 480 478.5 476.6 474.5 472.4 469.9 467.4 464.9 463.6 462.2 462.1 460.9 458.1 456 457.2 459.1 460.6 465.1 470.5 476.9 477.3 478.7 478.4 473.9 469.3 466.4 464.5 462.6 460.8 457.7 453.1 446.5 438.1 428.7 426.4 425.2 423.9 422.7 420.2 416 410.7 403.1 396.3 389.3 383.7 376.7 366.8 353.4 335 317.3 326.8 346.1 356.9 368.4 373.6 377.7 380.5 384.2 388.7 393.5 398.6 402.9 410 415.1 418.4 421.7 423.9 427.1 431.6 434.4 428.8 443.1 447.3 452.6 456.8 462.5 467.8 473.9 479 484.4 490.8 496.8 505.1 513.7 517.5 522.9 531.8 533.8 537.8 545.2 549.6 552.9 555.9 558.6 561.2 563 564.8 566.4 567.2 570.3 571.5 573.6 575 577.6 579.3 581.9 584.8 589.4 592.4 596.4 599.9 600 596.8 596.4 598.2 601.4 605.4 606.8 608.3 608 608.5 610.8
180.4 180.5 188.6 199.6 204.8 215.4 223.4 229.9 235.9 242.8 249 253.2 260.6 271.1 282.6 287.4 293.7 304.2 314.8 331 345 358.1 368.9 379.4 388.9 394.8 405 414.9 425.8 436.2 446.3 455.6 463.7 470.3 478.3 485.4 492.1 497.9 504.2 508.7 513.1 517.5 520.4 522.9 524.8 526.2 526.1 526.6 526.8 527 526.9 527.2 527.2 527.9 529.9 532.4 534.9 535.6 533.1 529.9 526.9 523.4 522 521.2 520.8 519.6 519 517.1 514.4 511.9 510.1 506.6 502.3 499.3 497.4 494.9 491.8 489.2 486.4 485.2 483.9 482.4 479.6 477 474.5 473.7 472.7 471.6 471.1 470.3 469 467.6 467.2 466.7 466.6 467.8 470.6 474.3 476.3 477.2 475.1 471.7 468 465.2 463.4 461.8 458.6 453.9 448.6 440.7 431.2 428.2 426.2 424.7 423.1 420.4 417.1 412.1 404.8 397.6 391 385.3 373.7 364.8 354.7 340 320.9 319 336.1 352.8 364.7 372.3 377.9 380.5 383 385.8 388.7 394.8 401.5 406.1 412.2 417.9 422.4 424.9 428.2 431.3 435.5 439.2 442.1 441.3 449.4 454.1 459.5 464.5 471.6 476.2 481 484.8 490.8 498 504.4 513.3 517.7 526.8 536 535.4 541.3 539.6 549.6 553.9 557.6 561.1 562.7 564.8 566.6 568.2 568.7 570 573.6 576.6 578.7 580.5 583 584.8 588.6 593 598.2 602.4 605.7 606.5 603.3 605.8 607.9 608.1 606.4 608.2 607.7 608.4 611.5 613.8
179.1 179.9 183.4 191.9 197.6 208 219.1 223.9 229.7 235.1 237 243.1 247.5 255.3 263 268.9 277.8 289.7 300.3 313.4 328.6 342.6 355.8 366.3 376.6 384.9 391.7 401.3 410.2 421.6 430.8 438 449 456.2 464.3 471.3 478 484.5 489.9 494.7 499.6 504.6 507.5 511.2 513.5 515.5 516.7 518.4 519.7 521.2 523.1 524.4 525.4 526 527.2 528.7 529.4 529.4 527.4 526 524 522.6 521.3 520.4 521.4 521.1 521.1 522.1 520.4 517.2 514.6 511.4 508.7 506.4 504.3 502.2 497.9 494.3 491.2 489.6 487.3 485.7 484.1 480.3 478.9 477.6 475.9 474.3 474.3 474 473.8 473.1 472.6 471.6 472 472.7 472.5 473.2 474.5 474.4 472.5 469.5 466.8 464.5 462.5 459.6 453.8 448.6 441 432.4 429.8 427.3 425.3 423.6 419.9 415 410.9 404.4 398.5 392.5 386.8 373.6 363.9 351.4 338.7 324.1 313.8 332 342 356.3 368 374.7 378.5 381.5 383.7 388.2 392.3 399 404.7 408.7 415.1 419.3 422.4 427.3 429.8 434.5 439 443.5 446.5 450.5 447.6 456.6 461.4 467.7 472.5 477.9 482.4 485.7 491.7 498.4 503.2 510.4 517.2 526.5 537.3 539 538.8 542.1 547.8 554.1 558.1 561.4 564 566.1 567.8 569.8 570.1 571.9 575.3 578.2 580.5 582.5 584.5 588.3 591.7 600.8 606.2 610.8 612.5 611.5 611.9 611.2 610.3 610.3 609.8 610.5 612.2 614.3 616.5 619
177.5 175.2 181.7 187.9 191.2 203.8 209.2 214.5 220.5 225.2 228.7 232.3 236.1 241.8 249.6 256.7 266.3 275.6 286.9 298.7 313.9 323.3 339.9 352.6 364.2 375 382.1 389.7 398.6 405.9 414.3 424 433.7 441.3 448.4 456.5 463.2 469.5 475.2 480.5 485.6 489.6 494.4 498.2 500.9 504 506.3 509.1 511.3 513.8 515.8 517.4 518.7 519.2 519.2 520.8 521 521.7 521.7 521.8 522.1 521.5 520.1 519.8 520.4 520.5 520.7 520.2 519.4 518.2 516.9 514.5 513.2 511.1 508.8 505.1 500.6 497.6 495.1 492.8 490 487.7 484.3 483.3 480.3 478.1 475.2 474 474 474.4 475 473.8 474.1 474.5 473.7 472.6 471.7 472.3 471.1 472.2 470.5 468.6 465.9 463 460.2 455.5 449.7 440.5 432.1 430 428.6 426.3 423.9 419.4 413.3 406.8 401.7 396.2 392.2 387.7 377.7 363.4 351.4 334.6 317.5 304.8 323.4 334.6 347.5 354.7 366.1 374.2 378.8 380.9 384.8 389.1 395.4 401.3 407.2 412.4 415.6 419.9 426.4 431.9 434.7 437.8 441.4 446.1 449.4 453.4 457.1 453.9 462.5 468.2 472.4 476.9 481.9 486.6 492 497.1 502 507.7 517 524.6 533.2 536.3 539.4 545.5 551.8 556.6 558.9 562.2 564.4 566.9 568.2 570.5 571.8 574 576.6 580.2 580.4 582.1 587.8 593.1 600.7 611.9 622.2 624 626.4 618.6 615.5 615.7 616.2 616.2 619.7 623.7 624.5 625 625.7 626.1
176.5 174.8 178.8 183.2 184.6 194.1 200.8 204 210.8 217.1 219.6 221.4 225.1 230.3 237.9 247.9 256.4 264.3 276.7 287.1 298.9 310.5 321.6 334.3 347.7 360.2 370.2 378.6 384.9 393 400.6 409.3 417.9 427.7 434.2 442.2 448.2 453.3 458.6 464.9 470.3 475.2 479.5 483.9 487 490 493 495.9 498.9 501 502.9 505.9 507.8 509.9 511.2 513.2 514.4 515.2 516 516.3 516.7 516.6 517.5 517.9 517.5 517.2 517 517.2 517.1 516.8 515.9 514.3 512.8 510.3 507.1 504.2 501.3 499.3 497.3 494.1 490.6 488.3 486 483.6 479.4 476.4 473.9 473.1 473 471.7 471.9 470.6 471.6 471.7 471.7 470.7 469.6 470 471 470 467 463.6 460.8 458.3 454.6 450.4 443.4 434.6 430 428.4 426.2 423.2 417.3 410.8 403.1 396 392 390 386.1 378.4 362.1 350.2 337.8 317 299.6 312.5 319.7 331 348.3 360.2 367.4 375 379.4 382.2 385.7 391.2 397.9 403.6 408.5 414.7 420.8 427.7 430.9 434.1 437.1 440.6 445.1 448 452.7 457 461.2 462.6 465.1 468.8 470.9 473.6 480.8 485.6 491.8 496.5 501.6 507.2 514.4 522.5 528.3 535.8 544.5 544.1 556.1 559.6 561.8 563.2 566.3 566.2 568.9 571.3 573.7 576.1 578.2 580.1 586.8 590 594.5 601 612.4 625.3 628.8 631.3 632.6 631.2 631.7 631.8 631.6 631.9 631.9 632.7 634.1 636.1 634 631.1
170.1 171 173.8 176.5 182.5 189 191.3 191.4 201.4 206.3 209.2 211.3 213.3 224.6 231.5 239.2 246.7 257.2 266.7 276.5 282.9 293.3 305.5 314.4 329.4 341.5 353 363.5 372.6 380.7 387.8 395.7 403.2 410.5 420 427.3 433.8 440.3 445.6 449.6 454.1 458.6 462.9 466 470.9 474.3 477.3 479.5 480.3 486.4 490 492.6 494.8 497 501.4 502.7 505.4 507.2 508.6 509.9 511.5 511.8 513.1 513.6 513.8 513.9 514.4 514.1 513 512.2 511.3 510 508.3 505.9 503.8 501.9 500.1 498.4 496 493.3 490.5 487.6 484.3 480.3 477.1 474.5 473.3 470.6 470.2 470.4 467.7 466.2 466.1 465.8 466.3 466.1 465.6 466.2 465.8 463.8 459.8 456.7 454.5 452 449.8 445.3 437.4 430.1 428.1 426.1 421.7 416.9 410.5 402.1 394.7 389.8 387.5 384.7 378.6 364.9 351.8 339 325.5 297.7 311.2 317.5 325.3 338.1 352 360.5 370 374.4 381.4 385.1 387.8 393.8 401.1 407.2 413.3 418.7 425.8 430.6 433.7 436.4 439.6 443.2 447.4 451.4 453.7 457.6 461.7 465.5 468 471.1 474.6 477.9 480.8 486 493.3 498.7 502.9 505.7 514 520.9 526.3 532 542.8 545.6 556.5 560.8 562.7 563.8 566.1 569.1 570.5 572.8 577 578.3 578.8 585.9 590.4 599.1 606.2 620.1 625.6 633 633.3 633.9 633 634.8 637.1 638 636.8 636.8 637 636.7 636.4 634.7 634.7 634.7
168.2 169.4 172.1 177.3 181.1 183.5 184.4 187 190.5 192.1 196.7 200.7 204.9 212.6 223.8 230.2 238.2 246.6 254.3 263.9 269.2 279.7 290.2 300.4 310.4 322.2 333.8 344.6 355.3 363.6 372.8 380.7 388.3 396.1 403.7 410.2 417 423.6 430.6 435.4 438.8 443.9 447.9 451.6 454.3 457.3 458.8 460.7 464.5 468.4 472.1 476.1 479.5 483.3 486.4 489.3 493.3 495.5 497.9 500.2 501.8 503.6 505.6 506.3 506.8 507.3 507.1 506.5 505.6 504.6 504.1 503.2 502.5 501.5 499.8 498.8 497.4 494.7 492.1 489.1 486.8 484.2 480.9 478.2 475 469.4 466.9 465.7 464.3 462.8 462.5 461.8 461.3 461.3 460.8 459.9 459 459 457.3 455.4 453.1 450 448.4 446.9 444.3 439.1 434.1 429.8 426.5 421.3 416.1 410.1 403.5 396.1 388.9 385.6 383.1 374.8 364.1 350.7 341.3 326.8 306.5 298.3 317.8 322.5 332.7 343.3 356.3 365.5 371.7 378.1 382.3 386.4 391.3 396.6 403.3 408.8 414.2 421 426.3 433 435.7 438.6 442.9 448 451.9 454.3 456.6 458.9 462.6 466.3 470 472.9 475.9 480 485.5 490.3 490.6 500.6 504.4 509.9 516.3 522.1 526.8 530.1 536.1 545 553.6 559.9 561.6 565.5 569.1 571.6 572.5 574.1 577.9 580.3 586.4 594 600.8 607.9 618.8 624.3 629.8 635 632.1 632.1 634.9 637.1 640.8 640.6 639.6 638.3 639.3 637.5 636.5 636.9 635.9 635.7
166.9 166.8 170.6 176.2 179.9 180.9 181 182.5 184.6 185.7 189 191.7 195.3 205.1 212.3 222.4 228.9 236.8 244 251.7 259.7 267.6 276.4 286.3 295.9 305.2 315.1 325.2 334.7 344.9 353.4 362.6 371.8 379.5 386.8 394.1 399.5 406.2 413.5 419.2 424.6 428.7 433.6 436.9 440.4 441.3 445.1 447.7 453 455.8 457.9 460.9 462.9 467.7 470.3 473.9 477 480.5 483.9 486 488.5 491 492.6 494.8 495.6 496.9 497.3 497.6 496.3 495.3 496.6 496.3 496 495.9 494.8 493.3 489.7 488.1 486.4 484.1 482.1 479.8 474.1 470 466.7 462.4 460.2 459.3 458.6 458.3 458.4 457.7 456.8 455.6 454 452.9 452 450.1 448.8 448.8 447.4 446.5 444.1 441.7 435.9 433.3 430.1 426 420.6 415.4 407.6 401.1 397 391.3 384.9 381.5 373.6 361.8 349.5 338.9 329.7 311.1 287.5 307.3 322.9 326.8 335.2 348.1 357.1 367.1 373.7 379.4 383.4 387.8 392.1 398.3 403.7 408.4 413.2 420.8 427.7 433.7 437.3 441.1 446.5 451.2 454.4 456.4 458.2 460.6 463.7 467.2 470.9 474.1 477.5 482.5 488.2 494.5 499.9 503 507.3 514.5 520.4 524.5 527 529.9 537.8 547.6 554.4 562.4 563.8 568.5 570.8 573.4 576 578.7 581.3 588.6 597.2 602.2 609.4 618.4 621.8 626.7 632.1 633.5 632.7 633.5 637.8 640.7 640.7 639.8 640.2 639.8 637.3 638.4 639.2 637.8 637.5 636.3
167.9 166.1 166.7 171.9 175.9 177.9 178.5 179.9 181.1 184 185.6 188.3 192.4 199.1 207.5 212.7 220.2 226.2 233.5 241.4 247.4 255.1 262.4 271.1 280.3 288.3 298.4 308.1 317.2 325.6 334.6 342.6 352.3 361 368.9 376.3 382.4 388.9 396.1 402.8 409.7 413.8 416.6 420.9 424.1 429.7 432.1 434.8 438.6 440.8 444.8 446.7 449.8 453.5 456.6 460.8 463.6 467 470.5 471.8 475.1 476.2 478.5 480.7 483.3 484.2 486.4 486.6 487.8 488 488.2 487.8 487.4 485.9 483.6 481.9 481.6 481 480.1 478.2 475.5 469.5 466.3 462.9 461 459.7 458.7 457.5 456.2 455.3 453.9 452.9 451.3 449.6 447.2 444.6 443.4 445.6 444.2 441.1 440.5 439.9 438 435 430.3 428 423.3 418.6 413 405.4 399.2 395 390.9 384.8 379.8 371.8 359.2 347.9 337.1 327.8 312.3 292.8 296.8 316.9 327.7 332.1 339.4 349.3 362.9 370 374.7 380.5 385.1 389.2 394.5 400.1 404.5 408.6 414.5 422.6 429.6 433.9 438.8 443.8 447.9 451.5 454.1 456.1 457.9 460.2 463.3 467.9 471.6 475.2 479.6 485.4 490.9 497.5 503.8 508.3 511.2 514.6 516.9 520.6 526 532.6 538.4 545.3 553.6 561.5 566 570.3 572.7 576.2 579.6 584.6 592.8 599 603.6 610.8 616 620.6 624.5 630.2 631.9 632.6 636.7 640.8 641.5 640.9 640.9 641.4 639.2 638.5 638.4 640.5 640 639.5 638.2 637.5
167.4 163.8 164.9 167.8 173.7 176.1 176.2 178.3 179.6 182.5 184.2 185.9 189.8 193.4 200 206.5 211 217 225.1 227.8 233.8 240.1 250 257.6 267.1 275.1 284.5 292.8 298.2 304.5 313.8 319.2 329.4 339 349.3 357.8 365.9 372.8 381.1 386.8 393.9 399.3 402.5 406.5 409.4 413.5 420.1 422.5 425.1 427.9 431.2 433.6 436.9 440.2 443.2 446.3 449.5 452.5 456 457.9 460.6 463.1 464.7 468.3 470.6 472.5 474.8 475 475.2 475.4 474.7 474.3 474.4 474.8 475.1 475 473 470.4 468.7 467.6 462.8 462.5 461.5 460.5 459.1 457.4 455.9 453.8 450.9 448.9 447.4 446.3 444.4 441.6 438.5 437 436.6 436.7 436.1 435.3 434 433.2 431 428.3 424.1 418.9 415.5 410.6 399.9 395 391.8 388.3 384.4 377.5 369.5 358 346.1 336.3 324.2 315.3 296 287.9 307.3 324 330.8 336.9 346.2 354.7 366.9 372.2 377.4 381.6 384.9 390 396 401.8 405.7 411.2 418.2 425.5 430.9 435.6 439.8 443.6 447.4 450.5 452.6 454.3 456.7 459.9 463.7 467.6 473.5 478.9 483.5 488.7 493.7 499.8 506.6 512.5 516 517.6 521.9 524.8 528 536.1 541.8 547.7 552.1 559.8 566.3 571.7 574.8 578.8 581 591 601.5 605.5 611.4 612.4 617.2 622.8 628 632.5 631.1 631.7 637.9 642.7 642.4 641 641.7 640.1 639.5 639 638.9 639.5 640.9 640.2 638 638
165.4 164.8 164.4 164.9 170.7 173.7 172.7 174.9 177.5 178.9 181.3 183 185.4 189.5 194.2 198.1 202.5 207.8 213.7 216.3 224.2 230.6 239.9 247.4 255.9 262 269.9 276.6 283.7 287.4 293.4 302.2 310.2 319.3 329.8 339.5 349.1 357.7 365.1 371.4 378.9 385.5 387.7 391 395.2 400.3 404.4 408.5 411.1 415.1 418.4 421.6 425.8 428.4 433 435.6 437.5 439.5 443.5 445.6 448.8 450.8 453.1 455.8 459 460.5 462.1 462.4 463.3 464.6 464.8 465.6 463.1 463.4 464.3 463.3 461.2 460.4 458.8 458.3 458 457.8 457.9 456.8 455.1 450.2 448.1 446.3 445.3 441.7 442.8 440.7 437.2 435.7 433.8 432.8 432.9 432.5 431.5 430.5 428.3 425.9 422.4 418.7 413.8 411 408.3 401.4 395.2 390.7 386.7 378 371.5 365.2 354.6 343.8 334.9 324.8 314.1 295.9 278.8 293.9 316.3 328 334.9 339.7 352.9 358 368.5 374.2 378.4 382.1 387.3 391.9 397.7 403 407.9 413.5 419 426.1 431.2 435.3 439.7 443.6 446.5 449.1 450.9 453.5 456.2 459 463.3 468 474.5 481.8 488.7 494.1 502 510.5 515.6 520.2 522.6 524.7 527.5 530.1 534.9 534.7 542.2 546.8 550.3 556.8 563.3 569.1 574.7 579.4 583.5 594.6 604 611.1 613.1 615.5 620.3 623.8 630.7 633.7 631.9 632.3 636.6 640.8 640.7 641 641.9 640.3 638.9 637.8 639.1 642.4 643.7 643.1 640.6 638.3
164 163.4 165 163.9 166.2 168.6 167.7 171 172.4 172.9 174.2 178.7 182.3 185.5 187.8 192.2 195.9 199.4 200.9 205.8 209.6 216.5 231.3 240 245.4 250.6 257 263.3 267.6 270.5 274.3 284.4 293 300.7 311.2 320.5 331.1 340.3 348.3 356.7 363.8 370.8 376 380.2 383.9 389.6 393.1 396.6 400 403.3 406.6 408.9 412.3 416.9 420.8 424.3 427.3 428.7 432.1 434.1 436.6 438.7 442.4 445.2 448.6 450 451.9 452.8 450 451.2 452.6 453.8 454.9 455.8 456 455.9 455.9 454.5 453.4 452.8 452.3 451.2 450 447.1 447.4 444.9 443.4 441.6 441.6 439 437 435.6 434.2 431.9 430.3 428.5 428.4 427.4 425.6 423.2 419.3 414.9 410.1 408 406.8 405.2 400.1 394.5 389.4 383.8 375.5 372.3 363.2 350.9 339.1 334.3 323.4 311.2 295.5 273 292.7 312 322.7 332.1 335.6 341.6 357.2 360.4 369.6 374.5 378.5 382.3 387.4 392.7 398.3 403.5 408.6 414.9 420.3 425.5 428.6 433.3 438 441.9 445 448.1 450.3 452.8 455.5 458.1 463.1 469.5 477.3 484.8 493 504.3 512.7 516.6 518 521.7 525.1 528.6 534.2 536.5 538.1 541.9 544 547.1 550.6 556.7 564 569.4 574.3 579.7 586 596.9 605.7 611.8 615.4 619.6 621.9 626 630.9 631.8 632.7 632.9 634.8 640.7 638.3 638.3 638 639.2 638.1 637.3 640.1 643.5 644.5 642.9 639.8 637.4
157.3 163.3 165.6 165.1 161.7 162.8 162.7 166.6 167.2 167.1 169.6 174.3 178.2 180 182.4 185.9 189.1 193.2 193.7 195.9 202.1 208.5 221.7 230.1 236.2 239.2 243.4 250.1 253.7 257.3 259.6 270.1 279 287.6 295.6 305.4 313.5 323.5 334 341.2 349.4 356 362.7 368.1 370.6 376.8 381.4 384.5 388 393.1 394.4 398 401.9 405.2 409.2 413.1 415.8 415.9 421.3 423.8 426 428.6 432.2 435.4 438.7 439 440 441 441.5 441.8 443.6 445.5 446.2 447.3 448 448 445.5 443.8 444.7 444.3 444.4 444.2 443.8 443.8 444.4 444.7 443.6 441.5 437.9 433.4 431.7 430.7 428.4 426 424.5 423.1 422.7 420.2 416.1 411.4 405.9 402 400.2 400.1 397 393.9 389.9 384.9 379.2 371.1 364.3 357.3 347.6 337.5 332.8 320.3 308.7 294.7 276.3 283 299.8 317.2 325 331.4 338.6 344.1 360 361.2 369.6 373.9 377.3 381.5 386.5 391.8 397.4 402.8 408.2 414.3 420.1 424.2 427.5 430.8 435.1 440 443.7 446.8 449.8 451.8 454.1 458.2 464.4 472.2 481.7 489.4 500.1 509.1 516.8 520.2 520.9 523.5 529.3 536.4 539.3 540.6 542.1 545.2 549 552.7 554.8 559.6 566.1 573.1 578.2 580.4 590.4 600.4 608.5 613.3 617.2 620.2 624 630.4 631.7 632.2 633.6 633.4 634.3 636 635 634 632.7 632.5 633.1 634.2 636.2 638.8 638.4 638.7 639 636.7
152 158.3 161.1 164.6 168.3 166.2 161.4 159.9 159 163.6 165.6 168.3 171 172.1 176.9 179.6 183.6 184.2 184.6 186 194.5 203.5 210.4 217.5 224.4 227.2 232.1 237.9 241 240.4 248.4 257.1 267.6 274.5 283.1 292.2 299.3 309 315.9 326.5 333.5 341.8 348 354.7 359.6 364 367.6 373.2 377.6 382.1 385.4 388.8 392.7 395.3 397.1 401 403.7 406.9 409.6 412.8 416.2 418.5 422.4 425.6 428.1 429.3 431.2 432.5 433.7 434.8 436 437.1 438.6 439.4 438.9 437.5 434.1 430.4 428.2 429.2 429.7 429.7 430.6 433 433.7 433.7 432.7 430.5 429.2 425.4 424.7 422.6 420.7 419.8 418.7 416.8 413 409.2 405.7 401.3 396.7 391.3 391.1 388.1 386.4 384.1 380 373.3 365.9 356 348.1 343.2 337.6 330.8 321.5 305.4 292.1 275.1 277.8 288.8 307 317.7 323.6 330.1 340.6 349.7 360.3 359.7 368.2 371.9 375 379.7 384.9 390 396.6 402.5 407 411.4 417.9 422.1 425.9 429 433 437.7 441.3 444.4 447.4 450.8 454 458.8 466.5 475.3 486.5 493.1 502.6 512.8 520.2 528.6 533.8 534.9 539.7 541.6 545 548.4 551.6 552.4 558.1 561.2 566.9 570.2 574 576.9 582.7 589.8 598.9 606.2 614.5 617.5 620.5 623.5 628.2 631 630.9 633.7 633.3 634.9 636.9 637.9 634.8 630.9 628 627.6 627.4 627.2 630 632 632.7 633.6 635.3 633.5
145.3 152.6 156.5 159.8 162.2 164 163.6 163.8 152.3 164.4 163.9 162.3 163.5 168 171.9 176.5 178.7 178.1 177.3 180.6 188.9 195.8 201.7 206.9 210.9 216.4 221.1 225.8 227.6 230.5 239.2 246.9 257 265 271.6 279.5 286.1 296.6 304.1 311.5 319.4 326.5 334.2 341.3 347.6 352.1 355.7 361 366.7 372 375.6 379.6 382.8 386.5 388.4 391.8 394.5 397.9 400.7 404.3 406.8 409.5 411.8 413.8 416.9 419.6 421.8 422 421.2 423.8 423.9 424.8 425.9 426.4 426.1 425.9 423.4 421.8 420.7 420.5 421.7 421.6 421.3 421.7 421.3 422.1 422.4 422 420.5 418.7 416.4 416.2 415.7 414.3 409.8 406.8 404.3 400.2 396 392.4 387.4 385.6 383.9 381.8 378.1 371.7 366 359 352.5 341.4 337.2 333.3 328 321.3 309.2 292.8 273.1 263.7 284.1 296.9 302 313.8 324.8 334.7 342.9 349.9 358.5 356.4 368.1 370.9 373.2 377.5 380.5 386.3 394.9 402 408.2 412.4 418.6 422.9 426.8 429.3 431.6 435.1 438.8 441.1 445.4 449.5 454.4 460.2 468.3 478.4 490.4 499.6 510.2 514.4 526.2 531.9 538 542.8 549.1 552.6 556.3 560.8 563.3 567.6 568.7 573 574.4 580.6 583.9 586.6 582.3 597.5 604.9 614 618.7 621.1 622.8 626.2 629.5 630.5 630.4 634.2 633.3 633.3 634.2 637 634.7 631.2 626.2 625.2 624.8 625.1 626 628 628.2 628.6 630.2 629.6
143 148.4 151.9 155.9 159.5 162.8 159.9 157.7 152.9 159.2 158.8 157.3 160.2 164.9 170.1 173.6 175 174.3 171 172.1 179.7 186.5 191.2 198.2 203.7 204.8 208.1 210.3 214.1 218.5 227.3 235.8 245.4 250.6 260.8 266.5 273.1 283.3 292.8 300 308.6 315.2 320.8 328.6 334.7 341.2 346.1 352.3 357.5 360.7 364.7 369.2 372.5 376.5 380.2 383.3 385.5 388.8 391.3 395 397.3 400.9 403.5 404.9 407.4 408.1 408.5 411.1 412.5 413.1 414.6 415.9 417 417.6 417.8 417.8 417.3 416.7 416.3 416.3 415.8 415.3 415.4 415.4 415 415.1 415 414.4 413.7 412.9 407.1 410.2 406 404 401.8 399.2 394.6 391 387.7 384.8 381.7 378.8 375.9 369.1 363.4 356.6 351.1 344 338.6 331.4 325.2 323.7 318.4 309.3 292.4 281 258.4 282.8 288.1 296 305.8 318.9 329.2 335.6 344.5 351.8 359.3 350.4 368.1 370.4 369 375.3 381.7 388 395 401.5 407.2 412.8 418.3 424.1 428.4 431.2 434.4 435.8 436 439.9 443.5 447 453.8 460.3 469.7 479.9 493.2 505.5 511.9 516.4 529 533.5 539.3 547.7 554.3 556.4 559.5 563.9 569.1 573.9 576.3 582.6 586.7 589.7 591.3 597 599.9 607.4 615.5 618.3 620.8 625.6 627 630.5 631.9 630.5 630.5 633.2 633.3 633.3 633.3 633 631.6 628.2 625.6 625.8 625.3 624.2 624.3 623.8 622.5 625.2 625 623.3
142.4 145.1 147 150.8 153.8 155.1 153.4 154.4 150.2 151.7 152.8 154.7 155.7 159 164.7 169.5 174.1 173.5 169.2 167.2 174 180.4 185.7 191.3 194.5 195.9 198.8 200.9 204.2 209 216.2 227.5 235.2 241.7 249.5 253.6 262.2 269.2 279.2 288.6 295.8 304.8 311.6 318.4 324.2 328 335 342 347.3 352.4 356.2 360.3 364.4 368 371.9 373.9 376.6 379.1 382.1 386 387.7 391.3 394.4 396.3 398.3 399.6 400.9 401.7 401 404.4 406.4 408.1 408.9 409.7 410.5 410.3 409.9 409.4 409.2 408.8 408.5 408.5 408.8 408.6 408.5 408.5 408.4 407.9 407 404.3 400.4 398.8 396.9 396.2 394.1 389.7 385.9 382.1 378.4 374.6 371.7 367.5 361.1 351.8 345.5 340.5 338.4 334.5 330.9 324.2 317.7 312.9 303.7 295.6 283 264.7 266.8 280.6 286.8 300.3 313.7 322.2 328.9 335.9 343.8 352 357.9 352.1 365.4 366.5 369.6 374.4 380.6 386.2 393 399.7 405 410.2 415.6 421.8 427.8 432 435.4 437.3 438.6 440.6 443.3 446.6 452.8 462.8 471.6 483.8 497.1 508.2 512 519.8 527.8 535.4 541.9 549.2 552.9 559.6 564.5 571.5 576 581.1 587.2 593.3 597 599.9 606 608.2 613.7 616.9 619.8 623.3 627.9 630.1 631.5 632.6 631.5 630.5 633 635.6 634.4 633.3 634.8 634.5 632.7 628.1 622.9 619.2 618.7 621 621.4 621.3 620.4 619.2 615.7 613.5
140 139.9 141.3 140.9 142 143.4 146.6 154.4 147.1 148.4 149.1 150.7 152 155.4 160.4 165.8 170.6 169.2 163.7 161.6 163.4 173.6 179 183 186.3 189.2 190 195.5 196 199.8 206.7 219.5 224.9 229.5 238.8 243.8 248.6 256.6 265.2 274.3 283.5 289.1 301.9 309.4 314.4 319.4 327.5 332.6 337.4 343.5 347.8 351.6 355.4 360.2 363.1 364.4 367.7 370.1 373.3 376.9 380.2 383.3 386.4 388.7 390.5 392 393.8 394.8 395.2 396.6 398 399.7 400.8 402.2 403 403.8 403.7 402.7 402.5 402.7 401.7 401.6 402.2 401.5 401.1 400.3 400.5 399.3 397.5 394.3 391.6 390.6 389.7 388.5 386.2 380.5 377.4 373.2 362.7 364.2 359 353.8 346.2 337.8 333.7 329.1 327 325 321 313.9 307.4 301.8 291.1 279.8 267.5 253.3 275.2 280.7 292.1 306.7 314.9 319.9 327.1 333.9 340.7 348.6 354.2 357.8 356.3 366 368.4 372.6 379.6 384.3 389 396.2 402.9 407.8 412.3 417.9 425.1 429.9 434.2 437.2 439.3 441.7 444.7 448.7 454.9 465.8 476.2 487.4 498.9 509.8 517.7 519.5 532.6 536.5 544.1 550.5 555.3 564.4 573.2 584.6 589.5 592 594.8 599.2 604.8 610.7 615.8 621 621.7 622.2 623.6 625.3 630.2 632.3 630.5 630.6 631 634.7 639.8 641.9 641.2 637.9 636.3 634.9 630.8 626.9 620.9 617.6 617.2 617.5 619.1 621.2 616.9 612.5 609.4 603.5
135.9 135.9 136 135.4 135.3 137 138.3 138.7 135.5 140.4 143.9 146.4 150.2 150.6 154.8 157 160.2 159.8 156.9 155.3 158.3 167 171.5 173.3 174.1 178.6 181.6 186.9 190.3 193.9 201.1 205.5 213.5 217.8 226.4 230.8 237.1 240.2 250 257.1 264.9 276.8 286.1 297 305.5 312.4 319.4 323.6 329.9 334.1 339.6 344.1 348.1 352.1 355.6 357.8 360.5 362.7 364.5 368 371.7 375 378.1 380.4 382.9 384.3 386.7 388 389.1 389.7 391.4 391.6 393.2 394.1 395 395.9 395.9 395.5 395.8 395.5 395.6 395.1 394.7 394.4 394.4 393.9 392.5 391.1 388.4 386.6 386.3 384.8 383.3 377.7 372.8 370.7 365.8 359.2 353.5 348 344.1 338.8 334 326.6 323.5 318.1 315 311.3 306.4 300.2 294.4 288.2 276.8 260.3 248.2 262.3 278.5 288.4 302.2 309.9 315.7 319.8 325.2 330.8 337 344.1 348.2 350.6 355.2 360.8 367 372.4 378.7 383 387.2 393.7 400 406 410.5 415.2 421.3 428.3 433 436 439.1 441.3 445.2 451.4 459.2 468.6 478.4 488.8 501.1 510.5 515.5 523.3 532.4 540.1 543.3 550.2 560.8 572.9 580.1 587.9 590.2 593.6 599.7 605.7 611.8 620.1 626.1 629.8 627.6 624.9 624.2 626.8 628.1 628.3 629.2 630.6 632 638.2 642.7 642.8 640.5 637.6 636.2 634.2 629.8 626 619.8 617.1 617.6 618.8 616.9 614.5 610.2 605.1 599.8 587.2
127.5 128.9 129.3 129.1 129.9 131.4 132.2 133.7 130.4 135.1 137.2 136.5 138.1 138.4 139.3 142.4 145.4 146.7 147.9 149.6 153.5 158.9 165.5 158.4 170.4 172.1 176.6 180.8 184.5 188.7 195.5 200.4 203.8 208.4 215.2 220.9 224.4 229.9 237.1 242.5 251.6 264.8 275.3 284.5 295.1 303.9 309.6 316.3 320.5 326.2 331.3 336.1 339.9 343.9 348.4 351.1 354.3 357.9 360 361.4 364.5 368.3 371.3 373.6 376.2 377.9 380.2 381.8 383 383.5 384.2 383.5 384.4 385.4 386.2 387.1 389 389.6 389.5 388.9 388.7 387.5 387 387.2 387.9 388.2 387.1 386.1 383.9 381.7 379.8 376.5 372.1 364.9 363.4 357.2 349.3 344 342.1 336.4 334.4 328 323.7 318.7 311.5 309.2 303.4 299 294.6 290.6 285.1 278.9 260.3 246.5 245.5 268.1 282.7 291.4 300.1 303.5 308.1 314.2 321.8 327.7 333.4 339.3 343.4 336.8 351.2 357.9 365.6 370.3 375.2 381.4 386.8 392.5 398.8 404.9 410.2 414.8 420.2 425.7 430.4 434.6 438.9 442.8 447.2 453.2 462.4 470.6 480.6 491.4 502.8 511.8 519.7 528.1 532.9 539 546.6 556.2 568.6 582.6 587.4 589.6 592.6 600.3 608.8 613.4 618.9 624.1 629.7 632.2 630.3 629.4 627.6 627.6 626.2 629.8 628.8 629.9 632.5 638.4 642.1 642.6 642.7 638.6 637.1 634.6 630.4 627.1 622.7 620.8 619.5 617 612.5 606.8 601.9 592.2 584.9 574.8
127.2 128 128 128.2 128.4 129.8 130.5 130.2 130.4 130.5 131.3 131.8 133.2 134.4 138.1 138.8 138.1 140 142.8 144.1 145.8 149.8 153.5 157.9 164.1 166.8 172.7 176.7 181.7 185.4 189.7 193.4 196.4 200.1 204.4 209.7 214.8 220 223.7 236.2 243.5 257.8 268 277.3 287.8 294.6 302.7 307.1 314 319.3 323.2 327.6 332.8 336.5 341.4 346 349.3 352.5 355.1 359.2 361.4 363.9 366.4 368.3 370.5 372.8 375 375.3 376.7 376.8 376 376.3 377 378.8 380.2 381.2 381.9 381.9 381.4 379.8 379.2 380.3 382 382.3 382.6 382.6 381.2 379 376.1 372.6 366.7 355.9 355.8 353.6 349.7 342.2 335.6 334.1 331.8 327.8 322.9 317.8 313.4 308 302.3 294.5 289.1 287.2 283.6 280.5 276 265.3 243.6 237.3 259.3 271.2 279.4 286.3 291.3 296.1 302.6 309.6 317.6 323.5 328.6 334.4 337.4 338.5 348.5 353.9 359.9 366.7 373.4 379 384.4 390.2 396.2 402.5 407.9 413.2 418.4 423.5 428.7 434.3 438.7 442.7 447.9 455.7 466.1 474.4 484.7 493.2 505.2 511.6 518.7 527.6 534.6 542.8 551.4 562 577.2 586.2 590.1 593.2 598.4 605.4 610.6 616.1 620.9 627.8 631.5 633.8 633.8 633.1 632.7 631.7 630.7 631.3 631.7 632.2 634.7 641 645.3 646.7 645 640.1 638.2 636.6 633 628.9 625.3 620.8 616.8 611.9 604.3 593.8 586.1 576.8 569.1 552.5
128.4 128.9 128.7 126.4 128.8 128.5 128.6 128.6 128.6 129.7 129.8 130.1 131 130.7 131.7 132.8 134.7 137.7 139.8 140.6 142.4 146.5 146.5 152.2 155.7 158.5 161.1 166.8 170.5 177.7 182.1 185.3 189.1 191.9 194.8 200.9 205.5 211.1 220.8 230 240.9 250.3 261.6 270.5 278.2 285.7 294.3 301.4 307.4 311.3 314.7 321 325.4 331.7 336.4 340.8 344.8 348.7 351.9 355.5 358 360.3 362.3 364.2 366.4 368.6 370.7 371.3 372.4 372.1 371.5 370.7 372.7 374.5 375.8 376.9 377.2 377.1 377.1 376.6 375.9 377.2 377.1 376.7 375.4 373.6 371.1 368 364.3 358.6 351.4 347.2 341.1 335.6 332.1 327.4 325.4 324 319.1 311.1 308.1 305.8 300.4 293.9 290.2 282.7 278.8 275.2 273.3 271.7 265.9 251.7 239.5 232.6 256.9 266.3 273.1 278.7 282.5 287.5 293.9 303.3 309.6 316.4 323.5 328.6 327.6 335.8 340.7 349.4 353.9 361.5 369.8 375 380 385.9 393.1 400 405 409.7 416.4 420.8 427.2 432.6 437.2 441.1 445.3 455.4 465.4 475.4 485 495.4 503.6 510.9 521.7 527.2 534 543.4 554.2 569.3 581.7 587.3 590.1 592.9 598.2 604.5 612.2 619 625.9 631.1 633.8 636.1 638 640.5 641.2 642.8 642.6 641.3 641.3 641.9 644.3 646.3 647.8 643.8 641.7 639.3 636.7 633.1 631.1 626.5 620.8 616.5 609.6 600.8 588.8 580 572.6 564.3 550.3 541.5
129.8 129.4 129 128.7 128.6 128.9 128.9 128.7 128.7 128.8 129.2 129.8 130.4 128.6 131.5 132.2 133.4 135.9 137.4 137 139 142 141.9 145.8 151.5 151.9 153.1 158.2 160 163.4 168.9 175.2 179.7 182.2 181.6 187.2 193.4 204.6 217.2 224.5 234.9 245.2 254.1 256.5 271.7 279.3 287.1 285.3 296.6 309.8 316.7 322.2 326.8 331.1 334.7 339 343.2 346.1 349.3 352.4 355.6 357.3 359.5 361.6 363.4 364.5 366.3 367.4 368 366.9 366.8 366.8 368.4 370.1 371.1 371.8 372.6 372.5 372.3 371.8 371.7 370 368.7 366.1 363.1 360.4 356 353.2 351.3 346.9 342.1 335.5 327.9 324.9 322.4 319.2 315.4 310.6 304.1 299.4 292.7 291.2 286.1 283.7 279 272 266.4 265.2 262.6 262 254.9 238.7 236 238.3 252.6 261.2 266.8 270.2 274.8 280.2 285.8 293.5 300.7 306.5 314 317 317.7 331.7 337.3 348.2 349.3 356.8 364.9 370.4 375.6 381.1 388.6 396.7 402.2 407.4 413.4 419.3 424.8 429.8 433.8 438.9 445.6 455.1 465.5 476.8 486.2 496.9 506.5 513.5 522.2 526.2 534.5 544.4 556.7 571.7 582.3 586.7 588.9 592.2 598.3 605.2 612.7 623.8 627.9 631.6 635.2 639.7 645 648.3 649.7 651.5 652.2 652.5 652.2 650.7 650.6 649.3 648.5 648.9 647.6 643.4 638.8 633.2 626.2 622.5 615.6 608.3 601.6 592.6 582.2 572 562.8 553.3 540.3 532.9
132.7 131.5 131 129.9 130.1 130.8 129.3 128.7 128.7 129.2 130 130.3 131 130.9 131.6 131.3 132.4 133.9 134.7 135.1 135 137.1 137.7 137.3 140.5 142.1 144.8 149.6 155.9 156.2 158.7 165.9 168.9 168.1 178.6 186.3 193 199.5 211.4 218.7 229.2 236.7 223.3 230.7 246.1 257.8 267.8 293 301.7 308 315.6 321.3 326.2 331.3 335.5 339 342.5 345.6 347.9 350.4 353.2 355.3 357.1 359.1 360.8 361.3 362.5 362.6 363.3 363.3 362.6 358.2 363 363.7 364.3 364.8 364.4 364.4 363.7 362.7 352.5 359.1 355.9 352.5 347.6 344.9 344.2 342.3 340 337.2 331.3 324.4 319.8 315.7 310.7 306.4 300.8 294.9 290 285.3 275.9 278.6 276.2 273.7 268.3 260.7 254.8 254 250.8 250.5 239.2 234.5 232.2 235.4 247.9 253 257.5 260.9 266.4 271.7 276.6 284.9 289.8 298.4 303 301.2 316.2 325.5 330.4 336.6 343.6 351.9 359.8 365.4 370 375.9 383.9 391.5 398.8 404.8 410.6 416.3 422.1 426.1 432.5 438 444.5 452.8 465.7 478.8 487.3 497 507.7 517 524.7 530 536.8 545.5 559.7 574.3 582.8 584.9 588.1 591.9 598.9 606 612.8 621.7 629.1 636 642.5 647 650.6 652.9 654.8 656.2 658.1 659 659.2 660.2 658.8 655.5 652.2 651.6 647.8 642.2 637.6 631.4 624.7 619.6 614.5 605.6 598.5 588 575.8 566 555.1 545.6 535.5 516.6
136.5 136.1 134.5 132 132.8 132.4 131.6 131 130.5 129.8 130.4 131 131.1 130.9 129.7 132.1 132.8 135.2 138.1 134.7 133.7 133.4 134.4 134.1 134.8 136.3 138.7 141.3 145.2 148.5 151.2 155.8 154.1 164.1 171 178.2 182.6 195.6 205 208 215.3 209.5 226.4 245.5 258.6 268.1 278 288.1 296.9 306.1 314.6 321.4 326.5 330.5 334.1 337.4 340.6 343.7 346.1 348.4 350.4 352.3 353.5 355.1 355.6 357.4 357.3 357.3 357.8 356.8 356.5 353.5 355.1 355.8 356.4 356 354.7 352.8 350.9 348.8 344.2 343.9 341.2 339.2 335.1 333.8 332.8 332.7 329.8 325.5 321.3 315.2 308.2 299.7 297.9 292.6 288.9 282.9 277.7 271.7 266 268.3 265.1 259.5 256.8 249.5 246.7 246 244.3 238 232.6 231.8 228.4 231.6 240.5 245.7 248.9 254 259.8 263.4 268.2 273.5 279.7 285.7 290.6 297.3 308.3 313.1 320.7 327.8 334.4 344.6 352 359.9 362.9 371.8 378.5 386.2 393.1 400.4 406.3 411.9 418.2 423 429.4 435.3 442.5 451.8 465.5 481 490.4 499.4 510.4 520.3 523.7 530.7 536.7 546.2 562.8 576.2 582.5 583.5 585.8 591.1 598.6 604.7 611.3 620.7 630.9 639.9 646.8 648.6 651.1 655.1 658.4 662.1 666.7 669.5 668.4 666.3 662.7 655.8 652.3 649.5 644.1 640.2 638 631.4 627.4 620.5 614.1 605.8 593 580.7 568.4 558.3 548.9 539.6 529.8 516.3
143.1 139 137.9 136.4 135.1 134.5 134.1 134.1 131.8 131.8 131.5 131.7 132.1 132 131.7 134.2 134.5 135.9 136.8 136.6 133.3 133.7 133.5 133.2 133.5 134.5 136.4 138.5 141.9 143.4 145.2 148.1 148.6 152.7 157.3 164.8 171.1 179.4 188.5 196.4 197.4 199.2 222.2 234.6 245.9 256.1 267 278.6 291 301.6 311.5 316.6 324.7 328.7 332.4 335.1 338.1 340.2 342.6 344.8 345.8 346.5 346.4 348.2 349.6 350.7 351.2 350.4 351.2 350.1 349.8 349.3 348.4 348.1 347.6 345.9 344.3 341.9 341.2 340.2 336.7 329.8 327 327 326 324.9 323.9 322 317.8 313.5 307.6 300.7 292.1 285.6 282.9 279.4 274.9 271 266.1 259.7 255.4 259.5 254.1 250 245.2 240.6 238.2 238.1 238.5 230.4 228.8 229.6 223.8 230.6 231.4 238.7 241.3 243.6 251.7 254.7 258.7 263.2 268.1 274.2 273.1 288.1 298 304.7 310.3 318.4 327.1 337.4 345.1 350.6 358.8 363.7 372.4 377.4 386.4 393.5 399.8 406.5 413.2 419 425.7 432.2 440 449.4 462.3 478.5 490.2 499.4 512 518.8 523.3 530.3 536.9 547.9 560.8 577.1 581.7 582.9 585.6 590.3 596.4 602.5 610.4 620.5 629 640 644.9 648.1 652.9 656.5 663.8 668.4 671.4 672 670.7 666.9 660.1 654.6 650 646.5 642.8 639.6 636.2 631 624.7 619.2 612.2 601 586.3 574.5 562.5 550.6 541.4 531.9 521.4 508.8
148.1 145.1 140 137.6 136.5 137 137.1 137.1 138.8 138.8 137.4 135.4 133.9 133 132 130.7 130.4 130.6 133.7 131.8 133.5 133 132.4 133.4 133.3 133.9 134.7 135.4 136.8 139 141.2 143.9 143.5 145.5 149 155.3 159.7 166.4 176.4 180.6 178.1 195.8 207.3 215.6 226.1 238.6 250 262.3 276.8 290.4 302.7 311.4 319.5 322.4 327.9 331.7 334.8 337 339.8 341.7 340.9 341.3 345 346.4 346.8 347.3 346.8 343.2 344.3 341.7 343.5 342 340.5 339.9 334 329.7 334.5 334.4 332.6 331.2 328.1 323.1 318.9 316.3 316.2 316.4 314.6 310.3 305.6 300.3 293.1 285.3 280.2 273.7 270.8 269.4 264.3 259.1 254.8 249.7 248.6 249 245 238.6 232.1 232.7 230.8 231.1 228.9 226.2 226.7 226.8 222.8 227.9 227.4 234.2 236.2 236.9 243.6 246.2 249.7 254.6 257.9 249.3 271.6 279.9 288.8 294.9 302.5 308.7 316.7 327.9 335.2 344.1 353.2 357.9 363.5 371.9 376.8 385.9 393.9 400.2 406.9 413.4 420.8 428.4 435.7 447 460.3 477.1 488.6 499.2 511 518.9 524.6 527.4 538 548.6 564.9 577.9 581.9 583.6 585.8 589.3 595.2 601.3 609.1 618.4 626.7 638.3 643.7 649.6 655.5 658.3 662.7 667.1 669.9 670.5 667.3 663.8 658.1 653.9 649.8 646.1 641.4 636.2 631.1 625.5 620.9 615.4 607.6 593.7 579 567.6 556.1 544.6 534.5 524.4 515.1 501.9
155 150.1 145.3 140.3 138.9 139.2 139.7 141.4 142.3 142.7 142.3 138.9 136.1 133.3 132.1 131.9 132.4 133.1 133.4 133 133 132.9 132.6 133.8 133.7 133.6 133.5 133.9 135.1 137.5 138.5 140.2 140.9 142.4 145.2 147.4 150 157.1 167.7 164.3 174.5 184.6 192.3 199 205.5 218.6 228.5 242.5 256.3 269.9 286.9 297.9 307.2 316.9 323.4 327.2 328.8 333.7 333.6 336.3 337.4 334.2 341.7 341.9 341.4 341.2 340.6 333.9 338.1 334.5 335.4 332.5 328.1 328.6 326.8 321.1 325.2 325.8 324.7 323.4 320.6 317.8 314.9 305.7 309 306 302.6 298.6 293.5 286.2 279.2 273.6 268.4 259.3 253.5 255.6 251.9 249.8 246.3 239.3 240.2 239.4 231.8 230.1 228 223.6 223.7 224.2 222.5 223.1 222.7 223 221.7 224.6 222.9 227.7 230.1 230.3 235.5 239 241.1 245.4 242.8 251.8 261.6 268.1 277.5 285.5 293.4 300.8 307.4 316.4 326.9 335.7 341.1 347.7 358.3 367.1 374 381.2 388.3 395 401 408.1 415.3 422.2 431.7 443.9 457.7 475.8 487.8 498.9 510.2 517.8 523.6 530.2 536.3 545.8 559.7 574.7 580.4 584.3 586.4 588.7 594.7 599.5 607.9 615.9 625.5 635 641.9 647.3 652.8 654.7 659.4 662.2 664.7 663.7 657.6 654.9 651.3 646.9 644.6 642.1 639.2 632.5 624.8 618.5 615.9 610.1 602.2 587.9 574.3 562.8 551.7 538.1 528.4 520 505 492.9
163.3 160 152.8 146.6 146.1 142.8 143.5 144.1 144.6 145.7 145.3 140.9 136.3 134.4 133.2 132 132 132.4 132.7 132.5 132.5 132.6 132.8 132.7 134 133.9 133.9 134.1 134.9 136.1 137.3 138.2 138.8 140.6 142.1 144.4 146.8 151.8 156.7 160.4 164.2 172.8 179.9 187.2 194.1 203.3 212.8 225.2 236.8 248.4 264.3 278.1 289.4 301.3 309.9 318.6 323.7 324.9 325.2 326.7 331.1 330.8 334.1 335 331.8 333.8 333.8 330.6 328.8 326.7 325.1 324.2 322.8 320.6 318.6 316.8 318.9 317.4 315.6 313.6 310.5 306 302.2 298.3 295.7 293.1 290.2 286.6 281.7 275.1 268.7 262.9 256.7 250.5 246.3 242.9 241.7 240.9 237.6 231.9 232.1 228.9 225 224.2 222.9 220.1 218 219.5 219.5 220.1 218.8 221.9 217.9 222 221.2 221.2 221.8 224.1 226.7 231 231.4 235.3 230.9 243.6 251.8 256.1 265.9 275.3 284.4 290.6 299.8 307.3 314.7 324.4 336.9 343.5 351.3 357.3 366.4 375.7 383.1 388.9 395.5 401.9 408.9 417.8 428 439.8 453.7 468.9 486.8 492.7 506 516 522.3 529 535.9 543.1 557.6 571.6 579.3 584.5 586.4 590 595.7 599.7 607.7 614.4 622.9 631.1 636.8 640.8 644.5 647.4 651.3 652.4 652.7 651.2 649.4 646.9 645.9 644.4 642.3 640.3 635.1 623.2 617.9 615.8 613.5 607.2 595.5 579.9 568.9 557.2 545.2 534.1 522.4 512.9 499.5 486.3
169.3 166.7 160.3 157.5 153 149.4 146.5 147 146.4 145.8 142.8 138.2 137.6 135.5 134 132.5 133.1 132.1 132.2 132.1 132.2 132.6 133 133.5 133.9 134.6 134.3 134.7 134.9 135.2 136.1 137.2 137.9 139.3 140.7 142.6 145.3 148.7 152.9 155.4 156.3 160.9 166.7 175.5 182.1 189.9 198.5 209.3 220.1 227.3 242.7 256.4 268.6 281 291.8 300.3 307.6 311.8 316.2 318.5 321 322.8 324.8 325.5 325.2 325.9 325.3 324.2 321.8 321.5 320.7 320.2 319.3 318 316.7 313.9 305.6 307.2 303.4 300.2 297.1 292.1 291.2 287.8 282.6 280.6 279 276 272.2 265.3 255.9 248.1 244 241.1 236.9 231.3 233.4 232.6 230.8 224.2 222.4 219.7 217.1 215.6 215 214.1 215.2 217 217.9 216.9 218.8 218.6 215.1 218.7 216.9 218.5 218.9 220.7 222.3 225.3 230.5 229.5 232.2 237.6 243.6 247.9 256.9 265.6 270.3 280.1 287.5 295.3 297.2 313.1 322 333.3 341.8 350.4 359.9 366.8 375.4 381.9 388.9 396.1 404.1 412.7 423.5 435 446.4 456.7 478.1 490.2 504.9 516.8 522.2 528.3 536.4 542.7 552.9 566.6 577.9 584.3 587.3 591.7 595.9 600.1 606.1 611.8 620 625.9 631.4 635.6 637 640.2 643 644.4 645.6 645.8 645.3 644.1 641.6 640.6 638.8 637.4 631.6 620.4 615.7 613.7 611.9 604.1 590 573.7 563.8 553.4 541.4 529 516.3 506.4 494.6 480.3
181.3 170 168.8 166.5 160.5 153.8 150.8 150.5 149.7 146.9 143.3 145.9 142.5 137.4 134.8 134.3 134.2 133.6 132.5 132.4 132.1 132.5 132.7 132.9 133.3 134 135.3 134.7 134.9 135.2 135.7 136.5 137.2 138.4 139.7 141.5 143.2 145.6 148.5 149.7 150.9 155.1 159.4 168.1 172.9 179.5 187.2 196.6 206.7 213.7 224.3 236.1 247.2 261.4 272.4 283.5 293.1 299.1 304.6 307.7 311.5 315.1 317.4 319 319.4 318.6 318.7 317.8 316.4 316 315.3 314.5 311.6 310.3 307.3 303.6 298.9 288.5 292.3 290.1 285.9 283.3 278.7 274.4 269 269 267.9 264.7 260.2 253.2 246.9 241 237.9 234.1 228 224.6 222.7 225.8 225.4 220.7 211.4 209.1 207.9 208.1 209.8 210.5 212.6 213.9 214.6 215.5 216.4 215.7 212.4 213.5 214.2 217.7 218.8 220 220.8 221.6 222.9 223.6 225.8 228.7 235.8 242.5 249.4 255.9 262.1 270.1 275.7 281.4 289 301.4 310.4 319.4 329.3 339.7 350 358.9 367.4 371.8 382.8 391 399.9 407 416.8 422 440.9 456.2 471.7 483.8 500.3 512.2 522.1 527.1 535.8 541.1 551 565.1 576.4 584.7 588.3 591.8 595.8 600.8 603.3 610.5 615.8 619.8 625.6 628.7 630.3 633.2 636.1 638.1 639.4 638.7 638.2 637.9 637.9 636.1 635.2 634.5 629.5 617.2 614.7 612.7 607.8 594.7 581.5 570.4 560.6 550 536.5 525.6 509.4 496.4 486.4 473.2
191.7 181.6 176.7 174.4 167 161.7 156.2 155 153.3 149.4 148 147.4 145.2 141.3 138.9 142.2 140.6 139.5 139.5 136 133.1 132.8 133 133 133.4 134.5 134.9 135.6 135.5 135.8 136 136.3 136.8 138.1 139 139.5 141.4 142.7 144.5 146.2 147.5 151.4 154.8 159.2 166.6 171.3 178.1 187.1 194.4 202.5 211.1 222.2 231.2 244.5 255.1 268.7 276.5 284.1 290.8 293.5 300.8 303.8 306.4 308.6 310.2 310.6 310.9 310.6 310.1 307.8 307.3 304.1 303.1 299.3 294.4 290.3 287.4 283.5 281.5 276.6 275.4 272.8 267.6 263.6 256.5 255.1 252.5 250.3 247 241.1 235.3 233.5 230.6 229 224.3 218.7 219.2 218.1 212.5 207.6 206.1 205.8 206 206.3 207.9 209 210.2 211.8 212.9 212.6 212.8 210.3 214.1 215 216.4 217.5 215.6 219.8 219.6 220.3 218.7 219.7 221.7 223 226.1 234.4 240.3 245.2 251.8 257.6 257.8 273 282.2 291.6 300.5 312.1 318.6 328 338.7 347.6 357.1 365.8 375.5 386.3 393.7 401.9 406.2 422.2 435 447.7 465.3 477.9 494.7 511 523 528 531.8 539.5 548 565.6 577.4 586.8 589.3 591.6 594.8 599.1 601.4 607.6 613.3 617.2 620.7 622.7 623.5 624.1 625.3 626.5 627.8 627.2 628.9 629.1 629.2 629.9 630.8 628.4 623.9 616.1 612.7 609 600.4 591 578.2 568.3 556.8 546.3 534.4 522.6 507.1 494 481.5 468
202.9 190 186.4 185 182.4 172.2 164.2 159.9 157.2 155.6 152.8 150.5 149.5 148.5 149.9 151.1 147.3 148.8 148.5 146.6 140.7 133.8 133.6 133.2 133.6 134.1 134.6 135.5 133.8 134.8 136.8 136.9 137.7 137.4 137.6 137.9 138.5 139.4 140 141.1 142.7 146.1 151.2 156.5 160.6 164.2 167.3 173.4 180.7 187.4 201.1 209.1 217.9 227.2 238.7 251.4 261.6 268.5 275.9 282.1 287.5 291.2 294.6 296.6 298.6 299.2 299.6 299.5 298.5 296.7 295.5 292.4 286.4 282.2 280.2 279.7 277.4 274.8 269.5 264.6 262.5 260.1 255.8 250.2 246 240.6 241 239 236.7 232 225.1 225.3 224.9 224 220.9 212.1 207.8 207.6 205.1 202.4 203.2 203.9 203.2 204.6 204.2 203.7 209.1 212.9 211.9 213.1 212.9 216.2 217.5 218.3 225.9 227.4 229.1 228.9 221.6 221.5 221.8 222.1 222.5 223.8 224.2 223.7 230.4 237.5 236.8 241.4 254.2 261.8 272.9 280.9 290.9 296.7 309.3 319.6 328.7 339.2 349.3 360.2 372.4 380.4 389.6 394.3 403.4 411.7 427.7 439.4 456.2 471.6 492.1 506.6 518 526 531.5 538.6 545.7 562.3 575.6 584.4 587.9 590.8 593.6 597.1 599.5 603.9 608.2 611.8 615.1 617.4 618.3 616.2 616.5 617.4 618.8 619.8 622.8 623.8 623.4 623.3 623.3 622.6 616.5 613.8 611.1 606.6 595.5 586.7 575.8 562.9 551.4 539.5 529.4 517.2 502.6 489.7 476.3 462.1
210.9 201.8 202.3 199.4 192.2 186.3 175.1 167.6 167.6 164.4 163.5 159.4 156.9 153.9 154.7 156.5 155.2 156.1 154.8 153 148.3 140.7 133.9 133.8 133.4 134.5 134.4 134.8 135.5 135.7 137.3 134.4 137.8 137 137.3 137.8 138.2 138.7 139.1 140.1 141.3 143.2 144.3 147.8 153.8 158.6 164.4 169.8 175.2 180.8 190.6 195.8 205.8 214.5 222.8 235.9 246.2 254.1 260.2 269.7 275.7 279.7 282.3 285.4 286.3 287.9 287.9 287.4 282.2 285.1 283.6 279.9 276.3 272 270 269.8 267.6 264.2 254.4 254.6 250.3 248.5 244.8 241 237.8 227.1 231.1 230.3 226.9 222.5 212.7 213.5 216.3 215.3 212.2 206.8 203.5 209.9 200.7 200.3 199.7 201.5 203.9 212 211.6 213.2 215.7 217.4 217.7 220.5 222.1 224.5 226.8 231.4 235.8 238.3 239.4 239.5 238.7 234.8 232.6 234.3 234.5 232.2 231.4 227.2 226.5 227.8 232.5 237.7 250 258.8 264.6 273.3 281.1 289.8 298.3 308.8 316.9 329.1 339.5 352.1 364.3 365.3 383.5 392 399.6 405.6 417.6 433.3 446.4 461.8 482.2 500 514.2 523.1 531.1 536.7 542.6 560.5 574.3 583.4 585 588.6 590.9 594.2 597.4 601.3 605.6 609.9 612.8 612.6 609.6 611.6 613.9 612.2 615.1 617.7 619.9 619.9 618.2 615 616.1 617.2 613 611.5 606.6 595.1 585.3 579.6 570.2 556.3 545.2 533 524.3 511.2 498.2 485.2 473.5 458.2
219 217 212.1 208.3 202.7 198.2 187.3 172.9 182 180 175.1 172.9 167.1 163.2 160.2 159.7 157.9 160.3 160.5 157.6 151 143.4 137.9 134.8 135.3 135.7 135.5 135.7 135.8 136.3 138.7 137.4 135.4 137.5 137.6 138.2 138.4 138.9 139.2 139.6 140.5 141.9 142.8 143.3 146.1 152.2 156.2 162.4 169 175.2 181.1 189.2 195.4 201.2 211 221.6 229.3 236 246.6 251.2 261.2 266.1 269.5 271.4 273.1 273.4 273.6 274.1 272 270.7 269.6 267.4 265.6 263.5 261.2 259.3 255.6 251.8 247.1 238.9 237.1 238.4 234.3 232.1 227.3 224.3 222 222 215.9 212.9 209.1 206.9 204.7 202.7 202.1 201.4 200.6 198.9 199.4 198.2 200.6 202.6 208.1 210.9 212.5 215.2 219 220.1 226.2 230.6 230.9 234 234.4 235.6 241.7 244.4 246.3 246.6 243.4 234.3 236.3 238.1 239.4 237.9 238.4 232.7 229 228.2 230.6 231.3 242.4 251.7 259.1 261.8 276.2 283.2 288.3 299.7 311.5 320.3 329.9 342.2 341.9 366.8 376.3 384.2 395.7 403.4 411.2 426.2 437.4 451.9 469.7 491.9 510.8 522.7 530.4 533.8 541.4 557.1 573.3 581.6 584 582.4 585.3 590.1 594.9 599 603.5 609 610.6 608.1 606.8 607.1 608.9 609.5 614.6 614.5 613.7 615.7 613.4 611 609.8 609.5 608.1 601.6 589.1 581.7 578.2 572.6 564.4 549.2 538.5 527.6 517 505.8 493.6 481.2 468.9 455
226 226.5 223.2 219 212.1 206.8 191 189.8 193.3 191.1 187.4 184.1 180.7 174.3 169.3 166 162.5 162.1 161.8 161.4 155.9 148.9 143.4 137.5 135.6 136.3 136.4 137.6 136.7 137.2 137.6 137.2 136.7 135.8 138.1 138.7 138.6 139 139.2 139.6 140.2 140.7 141.5 142.9 144.4 146 148.2 153.2 159.4 169.4 175.8 181.1 187.2 192 198.9 208.6 217.3 220.2 230.9 234.5 245.3 249.9 253.1 255.1 257.5 259.1 262.1 263.2 262.7 261.7 259.9 257.5 254.8 253.6 249.9 246.9 244 241.7 238.5 231.6 231.2 228.7 227.6 222.6 216.7 217.1 211.7 212.3 210 205.6 202 202.2 198.8 198 198.4 198 194.9 198.6 199.4 201 204.5 208.8 213.7 218.3 222.5 227 225.1 229.6 234.5 237.2 239.2 241.3 243.6 244.3 243.2 247.7 247.6 248.1 242.3 245.8 243.5 241.9 241.4 243.2 242.5 239.8 237.8 232.1 229.9 231.4 234.6 241.2 247.2 258 267.6 272.8 281.4 293.4 301.3 313.3 323.6 325 345.7 356 369.3 380.1 391.2 400.1 408.7 417.8 430.3 444.2 462.2 484 505.7 521 528.5 531.1 540.5 550.7 567.3 573.7 576.2 578.1 582.6 586.9 592.1 596.8 600.2 603.6 602.3 601.6 600.8 601.3 601.7 603.3 604.6 605 605.3 604.7 603.1 602.9 602.5 599.1 595.1 584.1 578.5 575.9 565.8 568.5 559.4 548.3 533 520.6 511.8 500.9 489 474.7 462.1 454.7
234.4 233.5 230.9 226.7 221.1 212.3 202.2 205.5 202.5 200.1 197.7 196.5 192.8 189.1 183.3 179.9 169.8 166.6 163.2 160.3 154.7 150.1 143.7 138.9 138.1 139.8 137 137.9 137.9 138.5 138.8 137.9 137.9 138.5 136.3 137.6 137.6 139.2 139.3 139.6 140.1 140.7 141.2 141.5 141.9 142.4 145.2 148.6 153.6 157.8 164.5 172.3 178.6 183.2 188.3 193.7 200 209.1 212.2 221.9 227.1 233.3 236 240.2 243.9 246.3 248.5 249.1 248.6 248.7 247 245.4 242.3 242 237 236.5 235.7 232.9 228.4 224.2 220.6 217.9 217.1 210.8 208 209.7 209 207.8 206.6 202 198.2 195.3 193.6 196.5 196.7 195.3 197.4 198.8 201.4 205.7 209.2 215.2 218.5 224.9 231.8 235.8 234.8 238.2 245.2 246.9 247.9 250.1 253.3 254.8 255.7 255.4 256.6 255.4 257.1 259.3 260.4 257.6 253.1 250.6 247.2 246.9 245.6 240.2 234.8 230.7 233.2 236.2 240.8 248.8 253.8 266.8 274.5 283.8 293.4 305.8 312.6 323.8 334.8 347 360.9 373.1 385.9 392.8 404 413.6 422.9 436.8 452.5 471.7 496.7 516.5 527.6 531.7 539.2 547 560 564.5 566.1 569.8 576.3 583.6 587.8 590.2 590.9 590.7 590.8 591.8 592.9 595.4 594.9 595.1 594.9 595.9 597.8 597.3 596 596.8 596.8 594.3 585.5 579.8 576.1 574.7 572.4 566 556.4 542.6 530.8 515.6 505.1 494.8 484.7 472.2 460.2 454.9
241.4 240.1 238.1 234.7 230.4 211 219.5 215.8 210.6 207.2 205.6 204.8 202.7 199.2 194.7 187.7 182.4 174.3 169.3 165.3 163.8 155.3 147.6 145.4 146.5 149.6 150.3 145.4 145.7 141.6 140.7 138.6 138.5 138.4 138.4 138.8 139.2 137.5 139.4 140.2 140.1 140.6 141.2 141.6 142.4 142.7 143.7 146.5 150.8 155.6 160.1 163.9 170.7 174 177.8 182.5 191.6 196.1 202.4 210.1 214 219.9 224.6 227.5 230.2 233.6 235.7 237.1 237.6 238.1 236.6 235 232.9 233.3 228.6 227.5 224.9 222.2 219.3 215.6 210.4 208.4 210.4 204.7 202.1 202.4 201.4 201.5 197.9 194.7 191.6 195.6 196.9 197.1 199.2 201 201.6 204.2 210.8 215.1 219.3 223.8 227.2 233.5 238.7 243.8 244 248 256.8 261.7 263.4 263.7 265.2 268.2 267.6 268.4 271.1 272.6 274.1 272.1 272.8 269.5 263.5 262.5 259.7 255.2 252 248.8 243.8 237.5 234.2 234.1 236.9 242.9 252 257.6 269.5 278 285.8 291.5 308.6 318.7 330.1 336.5 352.9 365.5 376.2 386.6 397.2 407.6 417.2 431.2 444 459.8 483.6 509.2 522.7 530.3 536.5 542.6 548.6 556 555.9 559.4 569.1 574.7 579.4 580.5 579.1 577.7 581.2 585.7 589.8 590.5 590.5 589.2 590 591.5 591.7 592.1 592.4 592.9 593.1 587.5 583.3 579.4 577.1 573.3 568.4 562.3 552.1 538.3 526.1 511.3 500.9 493.2 483.9 472.3 460 451.5
250.3 244.8 243.1 240.6 234.1 213.3 230.2 225.9 221.3 216.7 213.9 212.1 208.5 205.7 199.7 197.8 189.9 186.1 180.1 174.2 170.3 168.9 156.5 149.4 146 158.5 160.2 158.3 155.4 148.3 144.8 139.5 140 139.7 139.5 139.1 142 141.1 140.7 140.7 141.2 141.6 142 142.5 139.7 143.3 143 143.9 151.1 153.3 157 162.3 165.4 169.7 173.4 178.2 181.2 185.3 189.5 198.3 201.9 207.3 213.2 217.3 220.5 222.7 225.2 225.9 226.5 226.5 226.7 224.9 223.9 223.5 221.2 217.3 214.6 211.6 208.9 207.7 199.5 207 200.6 200.3 197.6 194 191.7 190.4 194.9 198.9 198.7 198.5 199.4 201.7 206.2 208.2 213.4 219.1 223.6 228.2 233 238.6 243.4 244.3 247.1 252.8 260.4 264.7 268.3 274 277.3 280.1 283.6 285.9 284.1 278.8 286.9 287.1 291 290 288.4 284.2 276.4 273.4 269 267 263.4 258.5 253.5 246.7 241.8 234.8 235.6 238.2 245.3 253.4 261.6 265.7 267.1 285 301.8 312 321.1 329.6 344 357.6 369.2 378.9 391.9 400.2 410.6 423.1 436.4 449.3 468.9 496.9 517.8 528.6 532.6 536.8 541.4 544 542.8 550 554.3 562.1 567.8 570.3 571.2 572.6 574.3 578.6 584.4 584.5 583.1 581.4 585.2 586.8 582.1 582.7 583.4 583.4 585 581.5 575 571.9 569.9 566.3 561.1 554.4 546.2 535.1 525.5 511.3 499.4 492.5 484.8 475.2 465.1 454.9
258 252.9 248 242.7 226.4 233.7 237.3 234.2 229.9 227.3 223.5 219.7 215.9 210.7 206.5 204.3 201 198.6 195.1 185.7 180.5 175.5 171.6 159.2 158.7 158.9 165.1 163.7 159.7 148.5 153.9 146.6 141.2 140.7 140.1 140.5 142.3 143.3 143.4 141.9 141.7 142.5 142.7 143.1 143.2 143.9 143.7 143.7 143.7 145 151.9 157.1 160.6 167.4 169.3 174.1 176.9 179.7 182.7 187.6 191.5 197.6 202.7 206.8 210.6 212 214 215.8 216.9 213.3 214.4 214 212.1 209.7 207.9 203.5 203.7 201.8 201.3 200 190.4 195.9 190.9 190.8 191.4 190.8 195.4 198 200.9 203.9 204.7 206.6 207.4 210.4 215.3 219.5 224.9 232.1 237.6 243.2 248.8 253.7 257.5 259.6 264.7 270.3 276.6 280.7 283.5 287 291.8 293.8 298.1 297.6 293.1 286.9 294.6 301 303.5 303.2 301.8 297 291.3 284.7 279.9 277.5 273.1 268.5 261.7 256.7 253.1 244.4 232.8 237.9 240.6 245.3 250 251.7 267.7 279.4 292.9 303.4 313.3 322.5 337.2 344.5 364.2 373.4 386.3 396.1 405.5 414.4 427.3 441.6 456.2 476.8 506.2 523.5 529.4 533 533.8 534.4 533.3 535.6 539.3 544.6 552.9 555.3 555.5 556.9 555.9 566.5 570.5 572.2 571.7 569.6 571.9 570.5 568.2 569.6 571.1 570.2 570.7 569.7 565.8 564.7 562.4 558.5 553.4 549.3 543.1 529.7 520.1 507.5 498.9 493 485.9 477.6 468.3 457.7
267.9 262.2 257.4 244.2 246.7 240.8 241 241.2 238.4 235.2 232.4 228.3 223.1 214.9 214.3 211.8 209.8 205.6 202.6 197.8 193.4 188.6 179.2 172.2 166.4 163.9 162 166.8 162.4 160.4 156 151 145.4 142.5 141.8 140.8 142.8 143.9 144.2 144.6 144.9 146.2 146 145.1 144.7 144.6 143.3 144.3 144.5 144.6 145.1 148 152.1 156.3 158.8 164.6 171.9 177.2 179.5 181.5 183.3 185.8 190 193.1 197.4 198.9 199.2 200.2 202.5 200.5 202.5 202.1 199.8 198.8 197.5 196.3 197.6 197.5 196.7 194.5 187.7 177.9 189.2 192.5 191.9 193.5 199.1 201.8 205.1 209.5 213.3 216.4 220 221.2 224.7 230.8 238 245.2 252.8 259.9 264.8 267.1 273.5 273.5 279.3 284.2 285.1 289.3 288.4 296.2 301.3 305.8 308.5 309.5 305.3 303.7 305.8 310.7 311 310.9 310.1 306.9 301.9 297.2 288.4 285.8 281.9 276.3 272.7 268.9 263.2 254.7 245 238.4 235 237.4 242.8 256.7 268.1 274.8 287.2 297 307.3 318 328.6 340.9 352.5 367.8 378.1 390.5 400.3 409.2 418.9 431.9 445 460.1 484.1 509.2 521.3 525.5 526.4 524.6 521.8 527.8 532 534.2 536.8 538.4 541 543.1 548.1 553.3 555.7 557.9 558.7 557.7 558.5 556.4 556.8 557.7 559.8 560.8 561.8 562.7 561.7 562.1 559 555.5 553.5 547.1 533.4 525.6 519.8 504.5 496.2 486.9 482.1 475.8 467.8 455.2
277.5 273.2 264.6 260.7 258.4 251.3 244.9 244.6 243.3 241.8 239 234.8 227.7 228.2 225.5 222.1 218.9 215.7 209.4 206.8 202.6 196.1 191.2 182.7 176.2 170.7 166.1 163.8 165.1 165 163.6 155.7 151.8 146.4 144.2 138.4 143.6 144.7 145.1 145.4 147.2 148.9 150.3 149 148.9 148.1 141.9 144.3 145.1 145.2 145.5 145.9 146.9 147.6 149.4 153.7 157.4 162.1 167.2 171.1 176.3 181 181.9 185.7 188 189.4 190.7 191.8 191.7 191.7 190.9 193.1 192.8 191.9 191.4 193.3 192.9 192.8 186.7 179.1 189.1 191.9 196.9 197.2 195.3 195.8 200 203.9 208.4 214.7 220.4 223.9 226.7 232.1 232.6 240.5 250.7 261.4 268.9 274.4 281.7 284 288.9 292.1 296 298.5 299.3 298.8 298 303.3 311.6 317.6 321.1 321.6 317.5 318.1 321.6 321.8 322.5 321 319.6 316.7 311.2 308 303.5 298.9 294.7 290.7 280 278.1 271.9 263.9 256.4 250.6 244.5 241 239.8 246.3 260.8 268.6 278.3 289.3 299.6 311.4 321.4 333.1 347.4 357.8 371.8 384.5 393.3 403.4 412.5 422.6 435.2 448.6 463 486.4 506.9 514.3 514.3 513.1 508.8 517.5 521.5 524.7 525.4 529.2 532.6 534.2 538.3 543.7 547.3 548.9 549.8 550.2 550.1 552.1 551.1 551.8 550.9 553 554.7 555.2 556.3 555.3 552.7 549.6 546 541.2 528.3 522.9 513.8 504.8 495.6 487.5 481.6 478.3 469.6 457.9
284.8 279.4 263.7 270.8 266.8 260.8 254.3 248.2 246.5 245.1 242.9 237.2 237.2 236.5 234.7 232.6 229 224.2 218.6 214.1 210.3 204.8 199 188.4 188 184.6 175.8 172.9 168 168.9 168 162.2 156.5 152.8 148.1 145.6 143.2 145.4 145.7 146.1 146.8 149.7 152.3 153.6 151.5 148.6 146.7 145 145.8 145.6 145.8 146.2 147 147.7 147.9 148.2 151.2 153.9 157.6 161.4 164.5 168.4 172.1 176 178.3 181.5 183.9 185.7 186.4 188.4 188.4 189.9 189.3 186.3 185.5 186.6 185.6 182.2 180.6 190.1 195 198.9 200.6 200.9 198 199 204.7 208.4 213.5 220.6 227.7 234.4 239.7 245.4 245.7 251.9 262.5 273.6 280.1 286.6 291.4 293.5 297.5 301.9 306.8 309.1 312 312.6 313 314.6 319.2 326.4 329.1 332.2 332.8 333.7 332.2 332.7 329.7 328 328.4 326.8 322.8 316 314.4 311.8 308.1 302.7 297 290.3 281.9 272.3 264.9 258.6 251 245.1 241.1 241.8 254 263.6 273.3 282.9 291.9 302.4 315.3 325.1 336.6 343.7 362.7 376.8 387.8 397.7 406.4 414.4 425.9 436.6 447.8 463.7 480.1 493.3 493.6 494.9 494.8 499.4 503.2 507.4 510.4 511.6 517.3 519.4 527.2 532.7 537 538.7 536.6 538.7 538.8 540 540 542.6 542.2 544.2 545.5 545.4 546.3 544.2 544.2 545 536.5 529.8 524.9 520.6 512.1 503.6 496.9 488.7 483.2 476.8 467.7 453.6
297 285.3 280.9 279.6 275.5 269 260.3 254.7 253.4 251.3 247.7 241.9 241.8 242.5 242.2 240.4 235.5 232.2 227.3 223.2 217.5 214.6 206.6 203.4 197.2 192.5 182 177.8 172.4 171.1 172.9 169.2 163 158.5 152.3 149.3 146.7 140.9 146.1 146.4 148.2 149.3 154.6 156.3 158 153.6 148.7 147.3 143.2 145.8 145.8 146.1 147 148.4 148.7 149 149.5 151.2 153.1 155.6 157.2 160 163.7 166.3 168.6 170.2 173.7 177.5 177.1 182.5 183.1 183.7 183.8 173.2 169.3 175 181.8 185.6 188.7 193.6 196.2 199 199 199.6 199.1 205.9 213.6 222 223.4 232.4 237.3 244.9 250.2 256.1 261.4 266.6 273.1 283.6 291.8 298.2 302.4 303.9 305.1 310.7 316.1 320.5 324.4 328 329.5 331.6 333.6 336.5 338 340 341.5 343.6 344.2 343.1 339.8 339.1 339.8 337.1 333.6 328 319.8 321.9 318.7 310.4 306.1 300.3 290.6 281.8 273.1 265.5 258.6 250.3 243.1 242 244.6 255.5 264.3 275.3 283.3 294.8 302.4 316.9 327.6 338.9 344.1 368 378.4 390.8 400.2 409.6 416.2 425.2 437.3 447 457 468.8 474.8 477.1 474.5 478.5 481.3 485.3 490.7 495.2 499.6 498.9 501.7 503.7 507.6 510.9 515.2 522.3 526.8 532 531.7 533.6 536 536.2 535.2 534.1 534.9 536.7 534.8 534.3 530.4 526.7 522.5 518.4 511.6 505.4 498.8 489.1 480.2 473.8 465.9 452.1
301.9 290.6 289.2 286.4 281.6 275.9 268.3 258.6 259.2 257.1 252.9 248.4 249.5 248.4 247 245.1 242.1 237.9 234.2 228.9 226.8 221 218.8 212.8 206.8 199.4 189.6 183.4 176.2 175.5 181.6 179.5 174.3 165.6 158.6 153.2 151.7 150.1 145.5 148.2 148.7 148.8 154.8 159.3 161 160.5 158.8 149.4 147.5 147.2 147.6 147.2 144.2 147.8 149.4 149.5 149.5 149.4 150.1 151.5 153.1 153.5 156.3 158 159.3 160.5 163.3 165 171.1 176.1 178.7 179 178 172.2 180.6 182 183.9 187.8 190.9 193.7 194 196.6 198.7 200.6 201.2 210.7 221.6 229 236.1 240.3 246.2 251.3 256.9 263 271.1 279.1 286.4 295.2 302.2 308.5 312.1 314.2 317.1 320 325.6 330.5 336 339.7 342.4 341.5 344.5 347.2 347.9 347.9 347.8 349.8 351.2 346.3 350.9 350.6 347.6 346.1 343.3 338 331.8 330.6 327.3 322 315.3 309.5 303.2 291.9 284.2 274.3 266.3 257.5 247.2 245.5 243.5 246.3 255.7 269.2 278.6 287 296.8 308.4 318.5 329.8 341.5 351.6 370.4 382.7 392.5 401.9 407.1 413.8 423 431.8 439 446.6 451 455.4 459.3 461.6 465.3 466.3 469.8 473.1 475.2 480.9 485.2 487.9 489.5 495.5 496.1 499.8 502.5 506.1 511.3 513.7 516.3 517.8 516 518.2 522.4 524.9 529.5 527.9 524.9 524.4 522.6 521.3 511.9 506.3 498.1 489.9 482.5 475.1 463.1 445.3
298 305.1 300.4 291 287.4 280.7 275.1 270.8 266.7 262.5 258 256.9 257.9 256.8 255.3 252.1 247.7 242.8 238.8 234.4 232 228.2 228.1 222.8 214.8 210.4 198.2 185.9 183.6 180.2 183.1 182.6 179.9 174 167.5 159.4 154.7 154.1 150.1 145 149.7 151.2 159.1 163 165 164.4 162.8 152.8 147.7 148.8 149.6 151.1 152.3 152.6 150.5 149.7 149.8 148.8 151.3 151.2 154.4 155.3 155.8 154.4 157.3 158.7 158.7 157.8 165.5 167.8 169.6 157.2 158.6 171.7 176.7 181.8 186.2 188.3 192.4 193.7 195.4 196 199.8 203 207.7 214.6 224.4 232.4 238.4 248.3 254.4 261.6 268.3 273.8 276 284.6 293.8 302.5 309.2 315.7 320.4 323.7 327 331.6 337 341.4 345.8 350.2 352.9 354.8 356.1 357.5 357.8 357.8 356.9 354.2 353 350.1 351.6 354 352.6 352.4 350.6 346.6 343.6 341.1 337.9 332.6 326.2 318.2 309.6 303.6 294.5 283.1 271.9 263.2 256.4 250 246.6 246.7 252.1 262.8 271.9 278 289.2 298 309.6 321.1 331.6 344.8 355.8 371.3 381.8 391.5 399.9 405.4 412.4 418.8 424.1 431.5 434.8 436.9 443.1 449.3 452.5 455.7 457.4 458.7 462.7 463.9 465.8 469 471.6 475.8 479.3 484.4 489.5 493.5 499.6 502.9 505.3 506.6 508.6 511.3 513.7 516.4 518.1 519.4 520.2 522.4 521.9 518.9 513.3 506.7 500 492.4 484.3 475.4 460.5 439.7
314.3 316.2 310.8 301.5 296.6 291.7 283.4 276.6 272.5 267.9 265.4 262.3 262.2 262.2 259.7 257 252.6 247 242.9 239.4 228.4 235.1 233.1 228.7 224.9 216.8 211.3 204.7 197.3 185.1 189.8 185.4 182.7 178.9 173.1 166.6 161.2 158 156.6 150.1 150.6 156.7 164 167 168.3 167.7 164 152.2 148.7 150 150.3 153.2 157.5 159.8 160.7 159.1 156.7 157.2 157.3 159 159.7 158.5 157.4 159 159.1 163.7 167.2 166.8 168.1 168.4 171.3 171.6 173.9 174.3 177.5 182.6 187.1 192.5 196.2 198.8 200.7 200.7 199.6 201.3 208.6 213.2 221.6 230.2 238.7 247.4 254.8 264.3 274 282.5 288.8 297.5 303.3 308.5 317.2 322.1 326.9 331.1 337.4 342.6 347.5 352.4 356.3 358.5 359.9 361.3 363.6 364.8 367.1 368.3 367.2 363.5 357 354.7 355.3 354.3 355.1 355.5 355.6 353.8 350.3 346.6 343.6 338.2 332 324.5 317.5 310.7 300.7 291.2 276.8 268 261.4 256.1 249.8 247.7 246.1 255.8 266.8 275 284.8 293.9 303.6 311.7 322.7 339.3 344 357.1 370.3 378.9 389.4 397.4 403.9 410.5 412.8 416.8 421.3 422.2 427.1 430.6 434.4 438.5 442.5 443.5 446 450 453.9 454.5 458.1 461.4 465.8 471.1 477.9 483.4 488 492 494.9 498.7 501.7 503.8 507 510.4 512.8 516.4 519.8 523.4 520.6 520 516 507.7 501.7 494.9 486.4 474.7 458.1 439.4
328.6 325.8 320.4 311.6 306.9 298.8 292.8 286.4 280.7 276.4 272 268 265.8 262.1 260.9 258.2 254.6 250.6 247.4 241.9 240.8 239.7 237.6 234 230.5 224.8 218.3 209.9 203.6 195.8 192.2 191 187.4 183.1 178.8 174.4 169.4 162.3 160.8 156.4 149.7 152.5 165.2 167.5 169 168.1 160.1 154.3 151.8 154.2 154.3 156.9 160 161.8 163.5 163.2 164.9 165.2 162.5 162 162 163 163.4 163.5 165 166.3 170.9 174.5 178.6 180.5 178.7 176.9 181.1 182.6 183.8 185 187.4 193.4 198.9 202.7 205 205.7 206 207.7 206.5 222 227.6 234.7 240.6 245.1 252.5 265 273.9 283.4 291.8 301.6 309 315.3 321.7 328.1 333.8 338.9 346 352.4 355.4 360 361.1 363.5 367 370 371.4 372.9 376.2 377.1 375.5 370.3 360.8 359.3 358.3 357.6 358.9 357.6 358 357.5 355.6 352.8 349.5 344.1 338.1 332.4 326.9 319.3 308.4 298 285 275.4 267.9 260.5 254.6 249.1 247.4 252.6 263.7 270.4 277 286.5 294.6 303.6 314 324.1 340 344.7 356.5 368.7 377.4 385.8 392.8 397.8 402.2 406.1 407.8 409.5 414.8 414.7 417.3 420.4 423.7 428.9 429.7 433.3 438.6 442.2 446.9 449.1 454.9 460.2 465.6 469.4 474 478.2 482.9 490.8 494.8 497.3 499.8 505.5 511.9 515.9 518.7 519.9 520.1 520.2 515 509.7 503 494.7 484.7 469.8 452.1 441.6
334.3 332.8 329.7 324.9 319.7 313.9 302.5 295.6 291.7 284.4 276.4 273.3 270.1 266.3 263.3 260.3 257.3 253.6 251.4 243.6 247.5 245.9 243.5 239.8 236.2 231.5 224.5 217.5 209.9 201.8 191.4 195.3 194.2 191.7 183.7 180.6 177.2 169.8 165.3 163.1 156.3 153.7 162.9 169.7 170.6 167.1 161.1 159.3 156.6 157.3 157.4 159.3 161 162.9 164 164.2 167.4 169.7 171 170.6 171.3 173.6 171.3 169.4 169.3 170.9 173.5 178.6 184.2 187.2 185.8 182.2 186.7 188.5 192.3 195.5 197.1 194.4 199.7 204.3 207.1 208.5 210.5 214.4 216 216.1 229.1 234.4 246.3 253.8 260.6 268 274.6 283.3 291.4 301.2 309.5 317 323.9 331.1 339.1 346.6 353.8 357.7 359 360.2 362.4 367 372.5 375.9 375.4 373.5 378.7 380.6 379.5 374.8 365.7 361.5 359.7 358.6 359.6 359.3 360.4 360.3 359 358 355.8 353.7 350.8 344.1 334.6 327.1 315.9 301.4 289 278.9 272 266.2 260.3 252.7 248.5 250.3 257.4 265.6 273.2 279.9 288.2 296.5 304.7 315.7 322.6 343 345.5 355.2 365.4 375.7 379.6 388 391.2 393.3 395.4 396.6 401.2 403.6 404.9 408.3 409.3 412.7 417.3 421.1 424.1 429 433.9 438.5 443.5 449.1 454.1 458.3 463.3 467.2 473.5 477.4 485.4 497.4 500.6 507.8 511.9 515.5 518 519.5 520 519.6 518.4 511.5 503.7 494.6 484.3 477.8 462.8 446
338.5 337.8 336 332.1 328.1 323.1 317.2 309 301.7 293.4 284.9 279 274.9 272.7 268.8 264.6 260 255.1 251.5 250.9 252.4 250.6 247.8 245.4 241.8 236.5 230.6 222.4 214.2 207 196.7 196.8 198.2 198.6 194.1 187.9 184.7 181.6 172.2 167.2 164.2 155.3 158.7 168.8 171.4 166.4 163.6 164.3 162.6 163 161.9 161.9 163.1 164.2 167.2 168.1 169.4 173.6 175.4 179.6 181.5 183.7 182.1 178 178.7 176.5 182 187.9 192.3 194.4 191.4 190.9 192.5 194.8 196.2 199.6 202.1 200.6 205.1 207.8 210.2 213 222.1 229.3 231.4 231.6 231.9 229.3 235.4 250.8 261.1 270.2 276.8 282.8 291.3 300.1 307.9 314.5 322.5 332.7 340.7 347.9 354.2 357.2 359 362 366.6 369.9 374.2 377.8 379.5 380 379.1 380.2 381.3 379.8 374.4 366.2 362.6 359.8 360.9 362.3 362.2 362.3 361.9 360.9 359.8 357.6 355.7 351.6 344.2 332.7 320.4 307.2 291.1 287.3 277.3 271.6 264.2 259.6 249.6 251.7 254.8 260.4 269.4 273.1 280.9 289.8 297.1 305.5 313.1 333.5 334.2 342.7 352.1 359.6 367.1 371 375.1 380.2 380.6 383 385.7 388.1 391.9 394.6 399.7 400.1 406.6 410 413.2 417.3 423.3 428.3 430.8 431.1 434.1 441.3 450.6 466.9 476 486 495.7 501 504.6 509.5 512.9 515.8 518.2 519.8 520.7 520.4 515.7 511 503.4 499.2 491.9 478.8 463.2 444
344.6 343 341.2 337.6 333.9 328.9 323.6 318.6 313.3 302 296.5 288 282.5 276.5 272.3 269.5 266.1 259.6 256.2 255.6 257.7 257.2 252.5 248.1 244.8 241.2 235.1 228.9 222.3 211.3 208.2 203.1 198.8 203.4 202.2 200 194.4 189.9 181.5 176 169.6 164.2 156 158.3 166.9 165 164.4 169.3 172.1 172.8 169.6 167.1 172 174.9 173.2 173.4 174.8 175.8 182.5 185.9 189.1 190.7 192 193.3 194.1 191.4 192.8 199.8 202.5 205.2 200.2 201.5 201.4 204.3 206.1 206.9 209.9 212.5 220 224.1 228.7 230.6 237.2 243 246.5 248.8 251.7 250.8 236.9 242.3 243.3 256.7 268.7 279.4 288.8 297.3 304.4 310.2 320.8 330.4 338.3 345.7 350.7 354.6 359.8 365.8 371.6 375.2 377.9 380.2 383.6 385.1 384.8 382.1 383.5 384.1 381.1 374.1 367.5 361.1 361.8 362.1 361.8 361.5 361.1 362.7 362.5 360.1 356.5 353.4 349.5 340.1 325.2 310.7 300.7 294.7 285.4 279.7 270.7 263.9 252.8 250.6 255.6 259.5 264.2 267.7 272.7 270 278.8 289.1 303.8 313.5 323 331.5 337.8 346.5 351.4 356.1 362.1 365.3 363.1 368.7 372 374.9 378.8 382.2 380.9 387 392.2 393.8 397.4 404.7 415.5 425.3 435.3 443.4 451 458.6 467.1 475.1 485.2 495.3 500.3 504.1 507.5 512.4 514.8 517.5 519.4 522 521.5 520.9 518.2 513.6 509.5 499.9 492.3 478.8 462.2 443.5
354.8 353.2 350.7 346.7 339.1 335.4 330.6 325.2 318.5 314.2 305.2 297.8 289.5 281.3 275.6 273.9 271.4 267.3 262.8 253.8 260.9 263.4 261.6 257 250.7 245.5 241.1 234.8 222.3 217.8 217 213.8 204.6 203.3 204.7 205.4 200.3 195.7 191 181.7 177 170.4 162.5 157.6 161 171.4 166.8 170.2 172.5 174.6 175.1 174.6 177 180.7 182.7 184.9 187.4 187.4 189.8 193.7 199.7 200.2 201.9 203.9 205.8 209 210 209.1 213.1 219 213 218.1 217.2 217.7 221.8 226.3 227.3 232.7 241.7 246.1 249 250.8 255.5 261.2 263 267.6 268.7 269.5 253 272.3 270.6 272.7 268.9 265 263.4 280.5 297.1 304.6 313.2 321.2 328.6 341.5 348.9 353.6 356.3 361.2 367.9 372.9 378.1 381.2 383.8 385.2 385.5 383.9 383.7 384.3 383.8 382.2 379.2 373.3 365.8 363.1 362.5 362 362.4 363.1 364.2 362.4 359.2 353.5 349.4 343.7 334.1 321.6 310.7 294.6 286.5 280.7 269.2 261.7 262.2 254.2 254 258.6 256.5 261.6 271.1 287.6 292.3 290.2 288.1 290.4 310.6 314.5 318.5 330.7 339.2 344.8 346.2 350.1 351.8 357.3 351.3 354.8 359.8 360.9 370 386.3 394.2 404.5 413.1 422.3 431 439.5 448 456 463.9 470.6 479.6 487.7 494.6 499.9 504.5 509 513.5 515.8 518.6 520.1 522.4 523.6 524.4 523.9 521.5 516.9 511.6 501.5 490.6 476.9 460 441.4
363.7 362 361.1 358 353.3 346.2 337.3 330.8 326.3 320.6 314.5 307.1 299.7 291.5 283.6 275.8 273.6 271 266.6 258.7 263 264.3 263.4 260.3 255 249.4 244.3 230.2 226.1 225.9 223.4 221 216.8 203.6 207.5 207.4 205.3 201.2 195.1 187.7 182.9 176.6 167.2 160.9 159.9 179.5 178.7 178.6 181.2 181.4 182.4 182.5 182.6 184.8 189.1 193.9 198.3 198.8 201.1 204.3 210.3 212.2 214.9 218.8 215.9 219.2 222.2 225.8 228.5 232.1 230.1 239 239.6 237.6 242.9 246.3 246.6 248.7 258.3 266.2 269.2 271.2 273.7 276.6 280 284.3 286 285.7 280.6 293.5 294.9 293.5 294.3 294.2 292.7 285.8 288.2 285.7 301.4 309.5 322.4 335.3 344.1 350.6 354.1 357.4 361.5 366.6 373.2 378.3 383.2 385.3 385.9 385.5 386.1 384.8 385.1 385.1 384.3 380.8 374.4 368 365.1 364.7 364.5 364.4 364.6 363.5 362.5 359.7 351.2 344.7 337.7 327.3 318.2 305.6 296.3 286.7 273.3 268.5 263.9 263.1 257.1 256 262.3 266.4 278.5 292.1 300 308.7 316.3 315.6 321.1 323.3 329.1 326.8 324.8 327.4 339.2 343.7 345.3 354.6 363.4 372.6 376.8 384.7 392.7 400.3 407.8 417 429.1 437.9 446.1 454.2 461.8 469 475.6 484 491.7 497.1 499.3 505.2 510.4 514.6 517.4 519.6 521.8 524.3 526.8 527.4 526.7 525.8 525.1 519.9 512.3 502.8 489.1 474.8 459.1 439.6
370.5 369.6 366.4 363.3 359.2 352.3 344.1 335.7 330.6 325.8 320.5 310.6 308.5 301.9 294.7 283.3 276.5 273.6 271.1 268 266.9 267.1 265 262 258.2 252.3 243.8 232.8 239.3 234.2 227.9 222.5 217.7 210.8 206.3 207.7 207.8 204.8 201.9 195.1 189.1 180.9 170.8 163.9 164.6 178.2 182.3 186.6 190.6 195.4 192 195 194.9 194.6 201.4 204.9 207.6 211.9 215.2 220.2 221.7 225.7 228.5 228.9 231.7 235.7 238.1 241.1 245.3 248.8 250.6 256.3 259.6 256.8 259.1 265.6 267.8 269.5 274.4 279.6 284.5 287.4 292 294.1 299.2 300.6 301.9 300.5 301.2 307.5 310.5 311.8 310.4 310.7 312.3 308.7 306.6 307.2 300.2 296.5 310.5 325.4 337 344.2 349.2 354.7 359.1 363.2 367.6 374.3 380.4 384.4 384.5 387.1 388 386.7 385.9 386 386 385.1 381.4 375.1 369.8 367.4 366.7 366.5 365.9 365 364 361.2 356.5 349.4 340.6 329.8 319.6 309.8 302.4 291.8 281.9 273.6 265.5 263.2 257.3 255.2 260.3 266.9 279.1 293 304 315.5 323.5 331.3 342.3 337.4 338.5 339.7 345.5 349.2 354.9 359.6 365.1 371.4 378 384.1 393.4 401.3 407.7 416.6 424.8 434.8 443.1 451.8 460.6 466.6 472.4 480.7 488.4 494.9 498.7 501.3 505.9 506.9 516.3 520.1 522.4 524.9 526.3 527.8 529 528.5 527.6 527.6 524.9 520 511.3 500.8 485.7 471.9 457.4 440.8
376.8 376.9 376.1 373.7 368.2 361.3 354.3 346.4 339.6 331.6 325.1 320.2 314.4 308.5 303.3 297 288.2 281.1 277.7 275 273.7 272 268.6 265.6 260.9 254.7 243.5 231.2 244.6 243.3 237.3 230.1 223 217.8 214.2 212.7 209 209.4 204.4 198.6 192.9 188 175.5 167.3 173.5 178.8 183.1 187.1 195.7 201.7 205.4 208.7 208.2 210.3 214.7 216.4 217.5 222.2 225.7 229.8 233.4 235.5 240.8 241.1 243.7 249.4 253.8 254.2 259 261 265.5 265.3 270.9 277.1 280.5 285.5 284.7 292.5 294.1 295.6 300.2 301.6 307.9 309.4 311 311.3 315 314.7 319.1 321.2 323.4 324.9 326.8 325.5 326.6 327.9 324.3 319.9 320.5 318.6 315.6 309.8 314.7 331.2 344.5 349.8 358 361.7 365.2 369.1 372.5 381.8 385.2 385.5 385.9 388 389 387.2 386.2 386.4 385.6 381.2 376.6 373.3 369 368.3 367.2 365.8 363.9 360.6 356.1 350 343.2 334 319 312.5 303.6 292.3 282.5 275.7 270.2 261.6 262.8 259.3 257.4 264.6 277 290.9 305.8 318.3 326.4 344.8 348.6 351.6 354.9 358.6 362.6 367.6 374 377.5 378.3 383.2 387.7 395.9 405.1 414.7 422.9 432.5 441.1 449.9 458 464.7 470.1 477.4 484.6 491.6 497.6 500.2 503.8 508.2 514.1 517.2 520.4 523.6 526.6 528.9 530.9 531 530.2 529.2 529 526.4 524.2 518.9 508.6 496.7 481.5 468.4 453.8 440.9
380.3 382.2 382.7 381.6 378.7 372.9 365 357.4 350.5 343.8 336.1 328.3 321.3 314.1 306.9 304.1 299.9 294.8 288.6 284.1 278 275 272.5 269.3 263.2 259.4 248.7 236.8 238 247.3 244.6 238.9 231.4 225.6 221.8 218.2 211.1 210.4 209 203.7 196.9 191.8 181.7 172.5 167 180.4 186.8 187.9 193.2 204.3 211.5 216.3 220.4 223.7 228.7 232.5 235.2 235.3 238.2 241.5 246.9 249 255.2 256.9 259.3 264.2 267.5 270.1 276.4 276.8 280.8 278.5 285.7 291.6 297.6 303.3 306.9 309.3 310.3 312.6 313.2 317.7 323.4 326.4 325.2 323.6 326.7 326.8 329.5 331.2 334.9 338.5 340.1 339.7 341 342.8 340.2 336.4 335.7 333.8 331.1 331.4 331.9 333.2 329.6 347.6 355.2 359 363.9 368.8 376.5 381.3 385.3 387.2 387.3 387.5 388.1 387.7 387.5 386.6 386.5 384.6 382.8 379.5 375 369 367.5 366.9 365.5 361.8 354 347.3 341.2 333.7 322.6 315.8 307.8 296.2 279.8 273.4 269.5 262.2 269.3 267.2 257.4 261.6 274.7 287.6 305.9 319.2 328.4 338.6 350.7 350.1 362.2 368.7 377.3 383.7 390.8 392.8 394.1 397.8 403.9 411.5 420.2 429.1 439.1 446.1 453.4 461.7 467.6 472.9 480.8 489.3 496.4 500.3 503.6 507.2 511.4 516.2 520.7 523.8 524.3 529.8 533.6 535.7 537 533.9 531.7 529.6 526.9 525.4 523.1 518.4 509 497.6 483.6 468 450.8 447.1
387.8 390 389.4 387.1 384.8 380 375.7 362.7 356.1 350.9 345.4 338 330.7 323.5 314.3 308.4 305.9 301.4 296.1 291.6 288 278.6 275.6 272.8 270.4 266.7 260.4 241.9 246.5 247 249.5 245.5 239.4 231.3 227.5 222.5 219 216.6 213.1 208.8 201.4 194.7 186.9 176.2 172.6 169 181 192.4 192.6 205.3 210.8 217.2 225 233.2 240 243.6 245.3 248.9 254.1 257.5 260.7 265.4 272.1 275.4 274.5 277.7 281.5 290.4 294.1 296.4 297.5 295.3 303.5 310.6 313 318.6 324 322.1 322.8 325.8 331.9 333.1 336.9 338.2 340.1 340.1 341.7 342 340.9 335.8 348.6 351.8 352.9 353.2 355.1 357 357.3 356.3 348.9 348.1 347.2 344.8 330.5 343.9 347 343.3 346.5 354.4 363.9 370.3 375.1 381 384.4 387.3 389.1 388.9 388.9 388.6 389.3 388 386.9 386.8 387.9 385.2 379.4 371.6 367.2 366.9 365.9 362.8 355.3 346.3 338.9 330 325 316.8 308.2 299.6 287.9 279.6 264.6 271.7 271 269.5 260.1 261.2 274.1 286.6 304 319.9 329.5 338.8 352.1 346.6 365.7 377.3 383.4 390.9 395.7 399.2 405.1 413.5 419.1 426.3 434.4 442.2 450.9 458 464.8 469.6 477.4 485 492.1 497.8 501.9 506.5 511.5 517.1 522.1 524.8 529.1 532.7 535.2 537.1 538.5 539.8 540.5 539.2 530.3 527.6 525.5 524.5 521.6 517 509.9 495.8 487 473.8 463.4 454
396.9 397.5 396.7 395.7 393.8 389.5 381 376.3 366.1 358 351 344.8 338 331.2 322.8 318.3 309.9 304.7 301.7 300.2 296.5 288.5 279.7 276.3 272.3 272.1 265.6 256.4 256 246.6 249.8 252.2 248.7 241.8 233 225.8 224.2 219.2 219.6 213.4 208.7 200.5 191.5 181.8 176.4 169.4 172.2 194.6 193.9 203.1 208.1 218.8 227.3 241 249.5 254.6 259.6 264.9 268.2 271.4 276.4 284.5 286.9 288.5 290.6 293.3 299 305.1 308.4 312.4 315.3 318.7 321.8 326.2 331.8 330.3 337.7 340 341.8 339.9 343.7 345.7 349.4 350.2 352.5 355.3 356.5 357.3 356 349.4 360.5 362.4 365 364.8 366.4 369.2 371.2 370.3 367.7 361.9 357 356 348.3 355.7 358.1 360.7 362.6 362.8 363.5 366.4 371.5 378.4 382.4 384.6 387.5 389.5 390.4 391.4 391 389.6 388.2 387.6 388.4 388.5 383.4 375.2 368.3 367 365.5 361.2 355.2 348.3 341.4 331.9 326.5 317.9 307.7 300.4 289.7 273.4 271.7 277.2 273.4 268.9 260.8 260.9 271.7 284.3 305.5 319.9 329.1 339.6 351.2 344.1 370 382 386.8 393.2 397.2 404.4 412.3 420.3 429.8 437.2 444.3 452.9 459.2 465.5 472.9 481 488 495.1 500.8 504.1 508.8 514.8 521 525.8 531 535.4 537.2 538.1 538.4 539.3 540.3 540.7 541.6 541.1 535.7 525.4 523.9 522.9 520.9 517.1 512 504.3 492.8 478 464.8 455.7
400.8 402.7 403.8 402.9 401.5 396.4 391.1 385 379.4 369.7 359.1 347.3 338.1 332.9 328.7 323.9 319.3 309.7 306.3 305.5 301.7 296.1 288.2 280.4 274.5 273.1 257.8 269.8 265.3 259.5 249.8 253.6 255.8 251.8 244.7 231.1 229 229.4 223.5 218 211.9 205.9 197.6 186.8 181.2 173.2 173.5 187.6 193.3 201.1 208 217.3 230.9 244.1 253.6 263.6 270.2 275.6 279.2 281.5 289.6 294.2 298.5 304.8 305.3 309.3 314.5 320.2 325 329.2 332.2 335.7 338.5 341 346.1 347.7 351.5 349.3 355.1 355.7 357 359.7 360.7 362.8 366.4 369.1 370.9 370 369.2 370.8 372.9 375.7 378.5 380.3 381.6 382.1 383.4 383.6 381.9 377.8 370.5 365.2 363.4 360.4 364.8 368.8 371.2 371.3 368.7 372.1 375.3 375.9 381.4 384.1 387.2 388.8 389.9 390.9 392 391.3 391 388.9 386.8 386.7 383.4 377.1 369 366 365.2 361.1 354.8 346.6 339.3 328.7 321.9 316 303.8 299.2 284.5 278.1 281.1 281.8 279 273.2 268.1 261.6 272.2 287.3 303.5 315.5 326.8 339 353.4 343.6 372.9 383.1 387.5 395.2 403.4 408.4 418.3 428.1 437.7 444.8 451.4 459 465.4 473 483.7 491.9 498 500.2 505.1 511 518.3 525.1 530 535.6 539.7 539.8 541.4 542.3 543.2 544 544.5 543.2 544.5 544.7 543.2 532.2 523 521 520.5 519.5 514.8 507.8 497 482.4 469.3 461.1
411.6 414.7 418.3 416.7 411.2 407 401.3 393.3 387 380.3 369.2 359.7 350.5 341.5 335.5 328.3 323.5 316.9 311.4 307.5 304.5 299.1 295 291.7 287.9 279.2 276.1 277.5 273.7 267.4 258.4 251.9 258.7 257.5 251.6 245.4 235.4 232.8 229.9 221.5 217.6 211.5 202.3 191.5 186.4 174.9 176.3 183.4 188.9 199.9 208 222.6 235.7 249.9 259.3 268.6 275.6 280.9 288.2 292.7 300.4 307.9 313.5 318.1 321.9 325.7 332.4 336.3 339 342.3 346.2 348.7 352.6 354.8 358.9 362 363.8 364.5 370 372.8 376.2 376.3 374.3 379.1 382 384.7 386.9 388.4 386.3 387.1 386.8 388.9 392.3 393.4 393.4 394.5 394.9 395.5 393.7 390.8 389 380.7 374 370.6 371.7 373.7 377.3 378.6 375.4 378.6 381.6 382.4 381.5 382.3 386.9 389.7 391.3 391.8 392.4 392.7 391.8 390.7 387.6 385.5 383.9 380 372.6 363.9 361.8 358.2 354.9 346.8 337.3 329.2 319.4 311.3 289.1 278.3 278.6 292.1 289.5 286.1 282.8 277.9 275.4 269.7 261.5 281.2 297.2 309 322.7 337.7 351.5 343.8 373 381.5 389.2 399.4 404.8 411.4 421.9 432.2 443.5 452.2 457.2 463.3 470.5 481.2 491.3 499.4 501.2 503.4 511.1 518.3 526.6 533.6 540.1 542.8 542.5 542.1 544.3 548.1 549 549.5 549 549 549.9 549.5 545.2 531.6 524.1 522.7 521.3 520.1 517.1 510 498.9 485.3 472.2 461.5
418.9 425.5 429.9 429 421.6 418.1 412.5 404.3 394.3 386 376.7 369.3 361 351.9 343.4 335.1 330 326.3 321.5 312.1 311.2 306.9 302 297.5 294.2 286.4 278.3 284.8 282.2 275.7 265.3 258.1 260.8 261.8 257.7 251.8 243.4 237.5 236.1 230.6 223.8 215.3 207.3 197.8 189.3 180.3 174.6 182.3 194.5 206.2 209.3 220.9 232.7 250.1 260 270.8 278.5 287.1 294.1 300.7 309.8 317.5 322.6 328.9 333.6 339.4 344 347.8 351.4 355.1 358.8 361.6 362 365.1 369 374.3 376.8 378.4 381.9 386.1 388.2 392.1 394.6 396.4 397.9 396.2 400.6 400.6 401.2 399.7 392.1 399.9 403.2 403.7 404.3 404.3 404.4 404.1 403.1 400.4 398.9 395.2 389.7 384.3 380.9 378.4 384.1 385.6 384.6 382.2 384.4 386.6 387.2 386 387.2 390 391.9 392.6 393.5 393.7 392.7 391.5 390 386.5 385.4 381.5 374.5 366.9 364.1 358.6 351.1 344 337.8 330.7 323 304.3 307.4 304.7 302.2 300.2 296.8 289.2 284.8 281.9 277.1 273.2 266.1 276.1 291.9 306.4 318.3 333.3 348 343.8 369.6 378.3 389.7 397.7 405.1 413.6 423 434.1 446.6 455 460.8 468.6 478.8 488.3 496.4 500.6 505.4 511.7 517.1 524.5 535.1 543.5 544.3 544.4 544.3 547.2 550.3 551.7 551.9 552.3 551.8 552.1 553.5 553.1 549 540.7 529.2 525.3 522.2 520.5 516.5 509.2 499.8 485.7 473.9 462
428.7 434.6 437.7 435.8 430.7 426.9 423.2 418 408.1 396.4 384.9 373.8 364.5 359.4 352.8 345.6 341.4 335.4 329.1 322 314.3 311.3 308.5 304.2 299 294.8 286.2 290.5 288.2 282 270.5 265.7 260.5 265.1 263.3 258.6 252.4 243 240.4 237.4 229.5 218.9 211.2 201.7 190.4 183.5 176.6 178.4 194.6 198.6 204.8 219.2 231.1 244.6 255.9 267.3 277.4 287.5 296.7 306.2 315.1 323.5 329.4 335.9 342.6 348 352.7 357.9 361.4 364.8 369.9 372.6 373.4 379 382.8 384.9 387 389.9 392.9 397.2 400.4 403.9 406.1 407.7 409.1 409.7 410 409.7 409.7 410 407 409.4 410.1 410.4 411.7 411.9 411.5 410.9 410.1 408.3 405.6 402.2 399.5 396.7 388 387.6 394.7 395.6 394.3 392.8 388.2 391.8 391.6 391.1 389.6 391.6 392.9 394.6 395.7 395 393.7 392.6 391.4 387.8 385.7 381.6 374.6 368.1 363.3 357.1 349.6 340.2 331 313.9 317.3 325.2 325.2 321 317.5 308.4 300.3 295.9 292.6 288.3 280.8 277.5 268.1 270.1 284.5 299.9 316 328.8 341.2 347.5 367.5 379.2 388.1 397.5 406.2 415.6 423.4 434.6 448.3 456.1 464.5 474.3 484.8 494.4 501.1 505.7 512.9 518.1 523.3 532.7 543.2 546 546.1 547.7 548.9 551.2 553.4 554 553.8 553.4 553.2 553.8 555.6 556.3 553.7 549.7 538.2 529.3 523.7 520.7 515.7 509.6 499.1 485.5 472.8 461.5
