ncols 200
nrows 86
xllcorner 480000
yllcorner 503150
cellsize 50
178.7 181.4 184.1 185.8 186.5 187.9 189.9 191.3 191.7 192.1 191.7 192.4 193.9 195.2 196.7 198.3 199.1 198.5 195.1 194.1 195.2 195.1 195 195.4 196.4 197.5 198.6 199.4 200.2 199.4 197.6 196 195.2 194.4 194.2 194.6 196.3 197 195.4 194.4 193.9 192.1 189.9 189.8 187 185.5 182.2 177.3 175.3 173.6 169.1 170 170.5 168 164.9 159.3 153.7 147.9 144.3 141.8 140.2 136.3 135.8 137.9 136.7 133.3 129.7 127.3 125 122.2 119.3 116 111.7 110.6 110.5 108.4 106.3 103.5 101.2 98.5 95.6 92.8 90.4 88.2 86.6 84.8 82.8 80.7 78.1 76.3 73 67.2 60 55.4 59.3 57.9 52.4 47.7 45.8 41.6 38.8 35.2 32.7 29.4 27 27.4 27.5 29.3 26.4 23.4 14.9 14.6 12.7 11.1 9.7 7.3 10.6 10.7 10.6 10.1 9.8 12.1 10 9.8 9.6 9.6 7.8 16.7 26.4 37.6 48.2 57.9 60.2 59.7 57.3 53.1 47.8 42.2 39.2 35.9 32.4 27.2 22.3 17.4 14.3 17.4 27.2 38.5 48.1 57 64.2 65.5 67 67.8 68.5 66.9 63.5 73.9 77.8 82.7 87.1 91 95.1 99.1 103.6 107.1 107.3 107.7 107.3 106.1 105 106.5 110.5 113.6 113.3 105.2 102.1 116.2 120.1 120.2 121.2 121.1 119.7 119.2 119.6 118.7 117.8 116.2 115.4 114.7 114.6 113 110.8 109 107.2 105.7 104.2 103.4 102.3 98.9
176.2 178.9 182 185.1 187 188.8 190.3 190.6 191 191.2 191.1 192.1 193.1 194.6 195.9 197.2 197.2 195.7 193.5 192.2 192.8 192.7 193.5 194.8 195.9 197.3 198.2 199 199 198.3 197 195.3 194 192.5 191.2 191.5 193.3 195.1 192.9 190.5 190 188.4 186.2 184.3 181 180.5 178.4 174.6 172.9 171.3 168.4 162 162.8 160.3 157.4 152.2 147.1 142.1 136.7 133.4 133.5 131 129 128.4 129.4 126.4 122.8 121 119 116.8 114.4 111.6 108.1 104.4 105.1 103.4 101.6 99.5 97.1 94.3 92 90.5 88.3 86.4 84.8 82.9 80.8 77.5 74.4 72.7 70.4 65.9 57.4 49.4 50.5 50.6 48.5 46.8 43.8 42 42 40.2 38.5 34.9 30.5 26.3 22.9 21.5 19.3 15.8 8.5 8.9 8.7 9.1 9.6 10.9 10.6 10.7 10.8 10.1 10.4 6.2 9.7 9.7 9.6 9.3 8.4 18.7 28.2 38.6 49.7 59.2 60.7 61 58.4 54.2 49.1 44.9 42.1 39.4 35.8 29.7 23.9 17.6 14.2 17.4 25.9 35.5 43.7 51.2 60.8 66.5 69.5 70.6 71.6 72.9 65.4 77 79.9 85 90 93.5 97.2 101.5 105.6 109.5 109.6 110.3 110.9 109.7 108.6 111.1 115.3 116.6 115.7 109.8 103.2 109.5 118.6 120.4 122.2 123.5 123 122.4 122.7 122 120.9 119.2 118.3 117.9 116.8 115.5 113.5 111.7 110.4 108.9 107 106.5 105.5 99.7
174.2 176.8 180.4 183.8 186.7 189 189.7 189.7 190.1 190.1 190.4 191.3 192 193.4 194.8 195.9 194.8 192.6 191.5 192.4 193.4 193.6 194.6 195.9 196.4 197.1 197.8 198.3 197.7 196.9 196.1 194.5 192.9 190.2 188.9 187.1 188.4 189.9 188.5 186.5 186.5 185.1 182.4 179.8 176.8 176.3 175.1 172.4 169.8 167.2 164.8 153.1 153.8 152.9 149 146 142.2 138.2 134.4 127.2 126.9 125.2 121.9 121.3 123.1 122.2 118.9 116.1 113.4 111.4 109.3 107.5 106.1 102.7 99.8 98 96.3 95 93.4 90.5 89 87.7 86.5 84.6 82.2 80.3 78.6 75.4 71.6 68.2 64.8 60.7 53.3 47.9 45.2 48.7 50.5 51.8 49.6 48 47.8 48.1 48 42.9 36.7 31.3 24 18 15.5 12.9 7.6 11.1 10.8 11.2 11.6 11.5 10.9 10.8 10.9 11.4 11.8 11.2 7.8 5.9 5.9 9.6 16.9 24.3 32.8 42.9 53.1 60.4 60.9 61.2 59.2 56.1 52 47.6 44.7 41.6 37.2 30.5 22.9 15.9 14.5 17.3 24.7 32.8 39.6 47.5 54.5 62.9 69.8 73.4 74.7 75.7 75.1 76.9 82 87.2 92.8 96.8 100.7 104.7 108.7 111.8 111.7 112.3 113.5 113.5 112.4 114.7 118.3 119.3 118.3 114.4 108.8 105.8 114.9 119 121.2 124 125.7 125.3 125.5 125.2 123.9 122.4 121.9 120.8 119 117.1 115.3 114.5 113.6 111.6 110.1 110.7 108.4 104
174.4 176.3 179.1 181 183.7 187.4 188.7 188.8 189.1 188.9 189.5 190.3 191.1 191.9 193.1 193.6 192 190.8 192.4 194.3 195 195.1 195.5 195.6 196 196.4 196.6 196.5 196 195.7 195 193.3 190.8 188 185.1 182.4 180.7 181.7 182.2 182.1 182.5 182.3 179.4 175 173.1 172.1 171.9 168.3 164.6 161.8 159.7 153.5 140.2 143.9 141.4 139 137.4 134.6 131.8 128 119 119 116.6 114.9 117.4 118.2 116.4 113.1 109.5 106.7 105 104 103.5 101.1 98.1 94.8 92.1 88.5 87 86.7 86 85.2 84.2 82.7 79.9 76.3 74.3 71.7 67.8 62.7 58.9 54 50.9 49.5 52 53.7 56.4 56.3 55.2 56 55.8 55.9 54.6 49.8 43.6 36.3 25.1 16.9 13.5 11.6 11.3 11.3 11.4 12 12.5 11.9 11.1 13 11.3 11.8 12.2 12.5 11.6 12.3 16.3 19.4 24.8 31 39.2 49.4 57.9 61.4 62.1 61.6 60.5 59.1 55 50 46.1 42.6 38.1 30.7 22.3 14.8 15.9 17.4 23.5 30.1 36.6 43.7 49.8 57.7 66.3 73.5 75.9 77.9 78 76.4 82.6 91.8 94.9 99.6 104.1 108.2 112.3 114.1 114.4 115 116.3 116.9 115.6 116.9 119.8 120.5 119.2 118 114.4 110.2 108.4 116.7 120.8 123.4 126.1 127.1 128.1 127.8 126.8 125.8 125.3 124.2 122.2 119.1 117.9 116.9 116 114.3 113.9 114.3 110.6 107.5
173.4 175.4 176.6 178.7 181.5 184.9 185.6 187.5 187.9 187.6 188.3 189 189.5 189.4 189.9 190.1 190.1 192.2 193.6 195 194.9 194.4 194.4 194.2 194.2 194.6 194.7 194.7 194.4 194.2 193.4 191.7 188.7 185.6 182.9 178.7 174.1 175.1 176.3 177.2 178.4 178.3 176.3 170.5 168.4 167.1 165.9 163.2 159.7 156 154 149.8 134.2 120.3 129.8 131.1 131 130.2 128.2 125.4 121.3 113.9 110 109.8 112.2 114 112.8 109.7 107.1 104.1 102.8 101.3 99.5 97.9 96.3 94.1 91.7 89.6 87.7 84.7 81.7 80.7 81.8 80.3 77.2 72.1 68.9 66.6 62.8 58.3 55.2 54.8 56.4 59.4 61.7 60.9 62.4 62.5 62.9 64.2 64.6 63.3 58.1 51.7 45.8 36.4 25 16.6 14.2 12 11.5 11.5 12.1 12.9 13.2 12.5 11.2 11.5 11.8 12.2 12.7 13.6 14.8 17.1 23.1 27.8 31.1 37.4 45.6 55.3 61.1 62.9 63.3 62.5 62.3 61.2 56.8 51.6 46.7 42.9 38.6 30.3 22.4 15.6 14.2 16.5 22.5 28.7 34.2 39.9 45.9 53.1 63 73.3 77.3 79.9 81.1 83.7 85.4 88.8 95.9 101.8 106.5 111.1 115.2 117.7 117.8 118.5 119.1 120.3 119.2 119.3 120.5 121.7 121 119.9 118.8 116.5 113.7 112.7 118 121.7 125.2 128.4 129.8 130.7 130.3 129.3 128.7 127.7 125.6 123.4 122.1 120.9 119 117.7 117.7 117.6 113.1 113.3
171.7 172.8 174.7 177.3 179.7 180.8 183.1 185.7 186.2 186.4 187.4 187 187 187.6 188.6 189.8 191.8 193.3 194.4 194.8 194.3 193.5 192.4 192.2 192.4 192.7 192.4 192.5 192.6 191.9 190 187.6 185.7 182.6 179.4 175.4 171 170.2 172.1 171.8 172.4 172.9 170.9 166.3 163.4 161.3 159 157 154 150.8 148.4 145 135.9 114.5 113.3 122.5 123.2 124.3 123.3 121 120.7 119.1 114.6 104 107.1 110.4 109.9 107.8 106 103.2 100.6 99 97.2 95.4 93.8 92.1 90.1 88.2 86.8 84.7 82.4 78.6 78.5 77.1 71.8 67.3 63.9 62.2 62.3 63.2 61.9 63 65.8 67.5 67.7 66.2 67.8 68 68.5 68.6 67.8 63.4 56.5 48.7 41.7 32.2 23.1 16.4 14.2 12 11.6 10.9 13.2 14.4 14.3 13.2 12.6 12.2 12.2 12.6 14.7 17.3 19.9 24.3 29.5 35 40.4 43.8 50 56.6 62.2 64.7 64.9 64.2 63.7 62 57.2 51.8 46.3 42.5 37 30.6 24.2 18.2 16.3 16 21 26.1 31.1 36.1 42.2 50.7 61.3 72 78.6 81.6 84.7 88.6 91.9 92.6 94.1 101.9 108 113 117.5 120.2 120.9 121.1 122 122.9 122.6 122.3 122.2 122.3 123 122.2 121.2 120.2 119.3 116.4 114.3 117.8 123.3 127.6 130.6 133.5 134.8 133.4 132.3 131.3 129.8 128.2 126.3 124.1 122 121.4 121.3 120 116 116.5
169.3 171.2 173 175.4 176.9 177 181.1 184.2 184.7 185.2 185.8 185.7 187.1 188.4 190.2 191.6 193 193.8 193.9 194.2 193.4 192.5 191.3 190.6 190.5 190.7 190.4 190.2 189.8 188 185.5 183.1 182 179.6 175.4 171.9 168.4 166.3 167.5 167.6 167.4 166.4 164.3 159.9 156.5 154.7 152.5 150.6 149.1 146.6 144.2 139.2 131.3 116 97 114.5 117.2 118.3 118.4 116.3 115.8 115.2 113.4 103.3 96.2 105 106.8 105.9 104.2 102 99.2 96.9 95.1 94 92.6 90.8 88.8 87.1 85.5 84.1 81.7 76.5 73.8 72 66.6 67.2 68.6 69.2 69.9 69.5 69.1 69.7 71.4 72.2 71.7 70.7 71.4 72.1 71.7 70.5 67 60.9 53.4 45.1 36.5 27.7 18.5 15 13.1 12 7.5 11.5 14.4 14.4 14.5 14.2 13.6 13.5 13.3 14 17.5 22.1 25.6 30 34.2 39.3 44.9 48.4 50.6 56.6 62.5 66.5 66.5 65.9 64.5 60 55.1 50.3 45.2 41.5 35.9 30.8 25.4 19.9 14.6 18.4 20.1 24.3 29.3 34.4 41.1 49.9 59.4 70.6 79.9 84.2 88.1 92 95.5 97.6 99.4 102.7 107.5 111.8 115.6 119.6 121.9 123 123.6 124.4 125.5 125.4 125.1 124 124.8 124.7 123.6 122.5 122.3 121.9 119.7 117.9 120.2 127.2 130.9 135.5 138.5 137.3 136.2 135.3 134.1 132 129 126.6 125.8 125.1 124.3 122.1 118.4 121.6
167.4 169.3 171.2 172.6 173.4 172.9 177.3 182.5 183.5 184 184.7 185.9 188 189.9 191.6 192.5 193.6 193.7 193.6 193.4 192.6 191.6 190.9 189.9 189.1 188.5 188.1 187.3 186.1 183.9 181.4 178.9 176.9 175.4 171.4 168.6 165.6 162.8 162.3 162.7 162.9 160.3 156.7 152.2 148.8 146.7 145.3 144.3 143.7 142.6 138.4 132.1 121.8 108.7 93.9 105 111.7 114.4 114 111.7 110.8 110.9 109.8 107.6 96.1 94.3 103.9 103.6 102.1 100.3 97.9 95.5 93.6 92.4 91.4 89.8 88.1 86 83.8 82.5 80.4 74.8 69.3 68.3 70.5 73.8 74.5 72.6 71.5 72.1 71.4 71.9 73.4 73.6 72.5 72.1 72.6 72.6 71.3 69.3 63.5 54.9 48.4 42.1 33.1 23.5 16 14.4 13.4 12.2 10.7 12.7 14.8 15.5 14.9 14.5 14.8 15.4 16.7 21.5 25.7 28.3 30.5 32.5 36.1 40.9 46.1 51.8 55.7 56.9 62.9 67.7 67.4 67.2 63.2 57.6 53.9 50.8 47.8 40.6 34.2 29 23.7 19.4 17.1 19.1 22.1 26.1 30.3 35.2 42 50.4 59.6 70.8 80.3 86.6 90.8 95 98.9 101.4 104.6 107.8 111 112.9 114.2 117.6 120.4 122.9 124.3 125.7 127.1 128.7 127.8 126.7 127.1 127.8 126.5 125.4 124.9 124.4 123.9 122.6 120.9 125.9 130.7 135.3 139.2 139.7 139.1 139.1 138 134.9 131.3 130.2 129.4 128.6 127.4 124.9 124.4 127.3
165.1 167 168.2 168.9 169.5 170.1 173.6 178.6 182.2 183.1 184.4 186.4 188.8 190.9 192.2 192.6 193.5 193.3 193 192.5 191.6 190.9 190.5 189.5 187.9 186.1 185.1 183.4 182.1 180.4 178.2 174.9 172.8 170 166.8 164.1 162 156 156.9 157.7 156 152.4 148.2 144.8 142.1 140.3 139.3 139.6 140.6 138.2 130.8 121.5 110.5 100.5 88.9 98.8 107 110 109.5 107.6 106 105.8 105.8 102.8 94.2 85.3 97.6 101.8 100.5 98.8 96.5 94.1 92.3 90.7 89.7 88.7 87.4 85.4 82.7 80.3 77.1 72.8 74.2 76.9 78.5 75.5 74.4 69.8 67.2 65.5 65.7 65.7 66.8 68.9 71.4 73.3 73.6 72.9 70.5 65.5 58.8 51.7 45 38.4 30.4 20.5 15.8 14.3 13.6 12.6 14.8 13.7 16.2 19.9 19.6 20 20.3 20.5 23.3 29.8 35.7 33.7 33.4 35.3 37.5 41 46.5 53.9 59.9 60.4 62.6 68.1 69.2 68.8 65.8 61.6 59.9 57.3 53.5 46.1 37.7 30.6 23.6 18.9 18 20.1 23.6 28.6 33.1 38.4 44.4 52.1 62.3 73.3 82.3 88.5 93.1 97.3 101.4 104.9 108.3 111.5 114.8 116.9 119.2 121 124 126.5 129.1 129.2 128.9 130.6 131.4 130.5 130.2 130.7 130.5 129.2 127.7 127.2 126.8 126.2 123.5 125 130.3 134.4 138 139.8 141.3 141.8 140.5 136.6 134.8 134 132.9 131.5 128.8 126.6 128.6 131.6
162.5 163.5 164.5 166.1 168.7 172.7 175.4 179 182.1 183.7 185.2 187.2 189.6 191.6 192.4 193 193.2 192.5 191.9 191.4 190.7 190.4 190 188.4 186.4 184.1 181.6 179.2 178 176.6 174.2 171 167.7 164.2 160.4 157 154.8 150.1 151.7 152.6 149.6 145.5 140.8 138.7 138.3 137.3 136.2 135.8 136 129.8 121.3 112.2 103.4 96.1 83.2 95.4 101.2 104.5 105.8 103.7 101.7 101.5 100.9 98.1 88.9 79.5 94 99.1 99 97.2 94.9 92.5 90.9 89.1 88 87.3 86 83.9 80.9 77.7 77.3 77.8 80 81.7 81.2 77.1 73.1 66.4 61.2 56.5 54.5 56.3 56.7 57.7 61.4 67.3 72.1 70.5 67.9 62.1 54.9 47.7 41.2 35.9 28.4 19.7 16.1 15 14.1 14.9 7.5 16.1 23.8 27.5 28 27.5 27.2 27.1 30.3 36.3 40.9 39.4 37.8 38.6 40.2 42.4 46.7 54.6 61.1 63.8 65.1 69.5 71.2 71.8 71.1 68.2 66.8 64.3 58.9 52.1 43.3 34.5 27.8 21.1 19 19.9 23 28.8 35.6 41.7 47.7 55.4 65.6 75.8 85.2 91 94.6 98.8 102.9 107.2 111 114.3 117.6 120.6 123.6 125.9 128.1 130.9 133.7 133.9 131.7 132.9 134.7 134.3 133.9 134.6 135 133.9 132.1 130.7 130 129.4 126.9 125.6 130.5 134 136.7 139.2 141.7 143.3 142.2 139 138 138.1 136 133 130.4 128.4 131.4 133.3
154.6 158 162.3 166.4 170.4 174.6 178.7 181.4 183.3 184.9 186.7 188.7 190.5 191.9 192.6 193 193 192.3 191.6 190.8 190.1 189.7 189 187 184.5 181.6 177.9 175.1 173.7 172.2 169.1 165.2 161.7 158.1 153.2 148.2 144.8 140.3 147 147.4 145 142.1 138.2 135.1 134.7 135.3 132.2 129.5 125.9 119.7 112.5 106.3 100.2 93 75.6 89.2 95.3 99.4 100.8 99.9 97.7 97.5 95.7 92 80.5 74.7 89.8 96.7 96.2 95.3 93.7 91.5 90.2 88.9 87.3 85.9 83.9 82.1 80.6 79.1 80.2 82.4 82.8 81.1 79.7 74.8 68.9 60.5 52.5 45.9 42.3 41.3 42.1 44.9 49 55.8 61.7 61.9 60.4 55.8 50.2 43.2 38.2 33.4 27 21.1 16.4 15 14 13.7 7.7 19.6 29.8 35.6 37.2 37.7 36.6 33.5 34.6 39.6 45.2 45.9 43.5 43.1 43.1 45.6 48.5 55.2 62.2 65.7 68.8 71.7 74.5 76.4 75.8 74.3 72.6 69.6 63.3 57 49.1 41.5 33.1 24.9 17.9 19.7 21.8 27 35.8 43.6 51.8 59.7 68.8 78.6 87.1 92.2 96.3 99.9 103.6 108.4 113.2 117.3 120.8 124.3 127.7 130.7 133 135.3 137.3 137.2 134.9 136 138.4 138.7 139.3 140.3 141.3 140 136.8 134.8 133.7 132.9 129.3 127 131.3 135.4 137.4 139.5 141.7 144 144.7 142.5 142 141 138.7 135.5 132.5 130.3 132.3 134
152.5 161 165.8 168.8 171.9 176.8 180.3 182.5 184.4 186.2 188.2 190.4 191.5 192.2 192.3 192.4 192.5 191.7 190.9 190.2 189.5 188.9 187.6 185.2 182.6 179.2 175.2 171.3 168.3 165.9 162.7 159.3 155.7 151.7 147.4 142.7 137.6 130.4 142.2 142.5 140.3 138.3 136.9 133.1 129.3 128.8 125.9 116 115.4 109.7 103.3 98.9 95.6 91.3 76.9 78.2 90.3 94.7 96.2 96.4 93.6 95 87.9 81.1 69.5 72.2 87.4 95.5 95.6 94.5 93.5 93.1 92.5 90.9 89.5 88.1 86.6 85.6 83.5 82.3 83.5 82.7 81.6 79.3 76.1 68.3 61.1 54.1 45.1 35.4 29.7 29 29.1 33.2 38.2 46 51.2 52.3 50.3 47.8 44.5 40.3 36.1 30.8 27.3 23.1 17.2 15.1 15.1 11.9 11.2 24.4 33 42.3 45.4 46.6 44.3 39.9 37.3 42.2 49 52.5 49.8 49.5 48.9 50.7 53.8 59.4 64.9 70.1 72.9 75.4 78.4 80.8 80.6 79 76.6 72.9 67.2 62.7 58 48.9 40 32 24.3 19 21 26.8 35.9 43.8 53.9 61.8 69.7 78.9 86.9 92.6 96 99.6 104.1 109.8 114.7 119.7 123.8 127.7 131.7 135 137.8 139.8 140.5 140.1 138.2 138.6 140.5 142.2 143.1 144.7 144 142.9 140.7 140.1 138.4 135.6 132.4 130.6 132.5 135.8 138.3 140.1 142.5 144.6 145.6 145.1 144.1 142.4 140.6 138.7 135.9 133.3 133.9 134.7
157.8 163.1 167.6 171.7 175.7 178.7 180.3 183.1 185 187 189.1 190.8 191.3 191.6 191.7 191.8 191.6 190.9 190.2 189.6 189.1 188.7 186.3 183.9 180.4 176.4 172 166.6 162.4 158.3 155.2 152.6 149.5 145.5 142.6 138.7 132.3 126.7 135.4 138.1 135.4 133.9 133.2 129.7 124.4 122.7 119.9 109.8 102.9 101.4 96.7 92.5 90.2 89.3 80.3 67.2 81.9 86.1 88.9 91.5 87.4 88.2 80.3 70 62.4 70.5 85.4 92.3 95.4 93.8 93 93.3 93.3 92.7 91.5 90.3 89 87.6 85.5 84 83.8 81.1 79.8 76.6 72.1 62.7 54.6 47.7 36.4 23.4 13.3 14.1 15.8 16.9 24.6 37 42 43.2 41.3 39 37.8 36.6 34 29.4 26 22.3 18.2 16.2 13.6 8 18.4 35.5 40.3 46.9 53 53.7 48 42.3 41.1 44.8 51.8 56.3 56.5 55.6 56.4 58.1 60.7 63.1 68.1 73.4 76.5 79.3 82.3 83.9 82.5 80.9 79.1 75.3 71 66.9 62.3 54.5 44.7 35.7 27.9 20.5 18.2 26.1 35.7 43.2 51.7 60.4 70.5 78.7 86 91.8 95.5 99.5 104.5 109.5 115.8 120.9 126.1 130.7 134.9 138.2 140.9 143.6 145 144.8 143.7 141.9 142.1 143.9 145.6 146.7 147 146 145.9 145.4 144 140.1 136.1 134.4 134.7 137.1 139.4 141 143.4 145.4 146.5 146.7 145.1 143.4 141.6 140 138.4 136.1 135.7 136
160.2 164.3 169.3 173.9 177.2 178.6 180.5 183 185.7 187.3 188.6 189.7 190.6 190.9 191 191.2 190.6 190 189.4 189.3 189 187.9 185.1 182.1 178.3 174.2 169 161.4 155.7 150.2 147.4 146.6 145.2 140.1 136.5 133.9 126.3 120.6 127.3 132.9 132.2 130.3 129.4 126.8 119.7 117 114.4 112.5 97.9 89.7 90.5 81.5 77 76.7 74.3 61.8 70.5 77.9 81.7 85.8 81.9 77.9 73.5 63.6 53.6 67.2 78 81.1 83.1 81.9 82.2 83 87.6 91.7 91.3 89.9 89 87.9 86.3 84.8 82.7 79.9 76 72.4 68.5 59.5 51.4 41.9 31.3 16.3 14.7 15.2 14.9 13.9 13.5 27.6 35.7 35.5 32.6 30.2 29.3 31 30.8 28.9 25.8 22.3 18.6 16.3 13.2 7.5 36.2 45.1 49.8 54.4 57.9 54.4 50.5 47.5 44.4 47.4 53.2 59.3 61.9 61.4 62.7 64.3 65.9 69.5 73.9 77.8 80.1 83.3 85.7 86 84.6 83.1 80.8 78.5 74.3 68.6 64.7 58.2 48.3 38.5 30.6 23.3 17.5 24.3 33.7 42.5 50.3 59.2 70.5 79.4 86.4 92.5 96.9 101.2 106.2 111.8 117.1 122.1 127.3 132.4 136.9 140.6 144.7 148.5 149.7 150.6 149.6 147.3 146.2 145.7 147.3 148.8 150.7 152.1 152.1 151 150 145 140.1 137.8 137.9 140 141.8 142.6 145.2 147.2 148.1 148.1 146.3 144.5 143.1 141.6 140.2 138.8 137.9 137.9
161.4 165.4 170.7 173.7 175.5 176.7 178.9 181.6 183.9 185.5 187 188 189.5 190.4 190.5 190.1 189.3 188.8 189 188.9 188.8 186.6 183.7 180.3 176.4 172.2 166.6 158 151.1 145.6 143.3 141.9 139.7 134.9 130.3 127.5 122.2 116.1 119.2 125.7 130.1 128.1 126.5 124.4 118.5 110 111.6 110.2 101.6 89.4 73.6 72.6 71.6 68.4 58.2 62.3 59.5 68.8 74.5 79.7 79.4 68.4 60.5 54.4 53.2 66.9 66.3 67.8 68.2 67.6 66.6 67.8 73.8 82.8 88.4 89.4 88.9 88 86.3 83.1 80.5 77.3 72 67.9 63.7 58.5 49.4 37.7 28.5 13.7 16.9 17.3 15.8 14 11.1 22.7 28.3 27.4 24.5 22.5 21.9 24 31.2 28.2 25.6 21.1 18.4 15.7 13.8 21.8 53.5 56.1 58.6 60.8 59.7 57.9 57.7 53.3 48.6 49.7 54.9 60.9 65.6 67.3 68.7 70.4 73.2 76.8 80.9 82.5 84.6 86.9 88.2 87.6 87 85.3 83.3 80.3 75.9 71.6 67.5 60.5 50 40.4 33 27.1 21.3 22.3 31.4 40.4 48.7 58.2 70.4 80.2 88 94 98.2 103.4 108.8 114.3 119.2 123.8 127.9 132.8 138.2 143.2 148.3 152.7 155 156.5 156 153.2 150.6 149.9 151.1 152.3 154.8 157.3 157.8 157.2 155.2 150.4 145.6 142.1 141.3 143.2 145 145.2 147.5 150.2 150.4 149.2 147.4 145.7 144.5 143.6 142.6 141.3 140 139.3
163.3 165.7 170.7 172.9 173.7 174.8 176.6 178.8 181.3 183.4 185 187.1 188.9 190 189.3 188.6 188 188.4 188.7 189 188.5 186.2 182.6 178.7 174.9 170.6 164.8 154.6 147.5 143.5 140.8 140.3 137.5 129.6 122.5 118.1 116.7 108.4 111.7 117.1 124.7 125.8 123.9 122 117.8 113.4 105 99.9 93.8 86 93.4 92.6 88.6 80.5 74.6 62.4 51.4 58.4 68.1 74.3 77.2 68.7 54.4 46.6 58 57.8 57.8 58.1 57 55.9 54.6 55 58.8 67.3 77.1 82.4 86.1 87.1 84.8 81.6 76.2 72.8 68.5 63.8 59.1 54.6 49.9 37.6 26.5 13.8 16.4 19.1 17.1 15.1 11.1 17.1 21.4 21.2 19.9 19.7 19 18.8 31.5 28.2 25.4 20.5 16.6 13.8 7.5 40.6 59.1 62.2 64.2 64.8 64 63.7 62.7 56.1 51.3 51.9 56.9 63.9 69.5 73.1 75.5 78.2 80.9 82.6 86.2 87.8 88.9 90.4 91.6 92.2 92 91.1 88.4 83.9 78.5 73.6 68.3 60.5 51.2 41.7 34.7 28.6 24.7 18.6 29.1 38.2 47.3 56.8 69.7 80.6 89.6 95.8 100 105.9 111.5 116 120.3 124.6 128.8 133.7 140.3 146.5 151.9 156.2 159.4 160.8 160.4 157.9 156.1 155.8 156.3 156.3 157.7 160.5 161 160.1 157.5 154 150.9 147.6 145.9 147.1 148.5 149.3 150.8 153.1 152.1 150.2 148.4 147 146.3 145.9 144.9 143.5 142.1 141.1
168 168.1 170.8 172.6 172.2 172.9 174.1 176 178.2 180.7 183.2 185.3 187.1 187.5 187 186.7 187.6 188.2 188.6 189.1 188.3 186.4 182.2 178.1 173.8 169.4 163.8 155.3 148.5 142.4 133.9 128.8 128.7 122.7 114.8 108.5 107.2 104.8 105.2 109.3 118.4 124.1 121.5 120.3 117.7 114.5 111.3 105 102.6 103.3 100.3 95.6 91.7 86.3 79.6 72.7 57.9 51 57.4 65.4 71.8 67.7 59.6 47 49.7 48.7 48.7 48.3 48 47.2 46.5 47.4 50.4 55.4 61 69.2 75.7 79.7 82.9 80.2 73.9 67.7 64.5 60.5 55.7 50.8 46.8 35.4 23.8 15.9 19.3 20.5 19.1 16.2 11.1 17.3 16.7 17.4 18.2 18.2 17.7 16.6 16.1 17.8 17.9 19.1 16.3 10 28.8 56.2 63.9 67.5 69.4 68.6 68.6 69.1 65.5 58.6 53.8 53.8 58.7 65.9 72 77.8 81.1 83.1 85.2 87.3 91 94.2 93.9 95.5 99.5 103.7 104.9 103.9 97.5 89.9 82.1 76 68 60.2 53.7 44.5 37.4 31.8 27.7 20 27 35.7 44.9 54.7 68.1 80.3 89 96.7 101.6 106.4 111.4 115.8 119.9 123.7 128.1 134.3 142 148.9 153.4 157.7 160.7 162.5 163.1 162 161.9 162 162.3 161.6 160.6 162.7 163.2 162 160.2 157.8 155.1 152 150.3 150.6 152.2 154.2 155.4 155.1 153.1 151.2 149.7 148.7 148.3 147.8 146.8 145.5 144.2 143.2
171.5 171.6 171.2 173 172.6 171.6 172.6 173.4 175.5 178.2 181.1 183.7 184.5 184.1 184.5 185.7 187.1 187.9 188.6 189.2 188.6 186.1 181.3 176.9 173.4 169.6 165.1 158.3 151 145.3 137.4 130.9 124.6 119.9 121.1 117.7 109.5 101.1 99.8 104.4 113.1 119.1 120.2 117.8 116.9 115.2 111.4 107.2 104.6 103 99.6 96.1 91.9 88.2 80.6 70.9 61.8 50 46.6 54.6 64.5 62 54.5 44.7 41.3 40.8 40.9 41.6 42.4 41 40.2 41.1 43.1 45.2 48.6 55.6 63.1 67.9 71.9 77.7 75 69.2 61.8 55.4 51.5 48.1 43.8 32.7 21.3 17.6 19.1 21.1 21 18.8 18 13.1 13.3 10.7 11.5 13.2 11.2 14.9 16.6 14 10.1 17.3 10.3 21.1 64.2 68.2 72.1 74.9 73.2 73.1 73.9 72.3 65.9 58.4 58.8 60 63.5 68.5 74.2 78.9 84.3 87.1 89.3 92 96.4 100.5 101 104.8 111.9 120.5 125.3 119.8 108.4 97.7 86.5 78 69 62.3 56.2 48.7 40.8 35.5 29.9 23.8 24.7 33.3 42.2 52.5 65.6 77.9 86.5 94.9 100.5 105.5 110.4 115.1 119.6 123.5 128.4 134.7 141.2 147.2 153 157.8 162 163.8 165.8 167.1 166.9 166.4 166.7 166 165 165.2 165.5 164.6 162.8 160.9 158.6 155.5 153 153 155.3 157.3 157.7 157.2 154.8 153.3 151.6 151.2 150.4 149.9 149 147.3 146.1 145.2
172.2 171.2 171.6 173.9 173.6 172.2 171.7 170.9 173.5 176.2 178.2 180.2 180.4 180.1 182.6 184.8 186.3 187.9 189.1 189.4 188.9 186.4 181.1 175.9 172.4 168.9 165.7 160.8 152.9 145.3 138.4 132.2 127.5 123.7 119.8 117 114.7 106.5 100 98.6 106.9 112.9 116.2 115.6 113.6 113.9 111.4 107.3 104.3 101.5 98.8 95.9 92.7 88.9 83.5 76.2 67.7 57.6 47.7 45.5 52.5 53.6 49 40.9 38.3 36.5 35.8 36.6 36.6 35.5 34.6 36 37.3 37.3 37.8 42.6 48.7 55.1 62.2 69.7 72.4 68.4 63 57.4 52.1 47 39.4 27.9 20.9 19.7 18.9 23.5 24.4 24.7 25.5 22.8 20.2 20.5 26.8 27.2 27 21.1 18.4 16.8 19.4 22.5 33.8 65.1 70.9 74.4 79.5 79 77 77.1 77.6 74.3 67.5 63.3 65.5 64.2 69.4 73.5 77.5 82 87.5 91.8 94.9 97.8 101.8 105.6 108.1 114.7 124.4 133.5 139.4 132 117 102.3 90.9 81.7 71 63.4 58.6 52 43.6 36.4 29.3 25.2 26 33.4 42.7 54.7 66.8 77.6 85.6 93.4 100 104.5 109.4 114.2 119.3 125.7 130.5 136.8 142.8 148.9 155.3 159.7 164.3 167.4 170 171.3 171.6 171.2 171.3 170.3 169.1 168.5 168.2 167.1 165.5 163.5 161.4 158.2 155.1 155.5 156.9 158.7 159.9 160.3 159.6 158.4 156.8 154.9 153.5 151.9 150.9 149.4 148.1 147.2
169.6 168.8 168.7 170.5 173.3 173.5 172 168.8 171.3 174.6 175.3 175.3 174.7 175.8 181.5 183.8 186.1 188.2 189.1 189.3 188.8 185.8 180.3 175.1 171.8 168.7 165.7 161.3 153.7 144.6 137.8 131.2 124 119.1 114.3 110.5 109.8 109.3 108 93.8 99.3 106.4 111.5 114.2 111.5 109.1 109.8 107.6 104.7 101.7 99.3 96.7 92.9 89.8 86.7 82.9 73.7 64.6 56 44.1 40.5 43.8 42 37.8 36 34.8 33.3 32.4 31.2 30.3 30 31.1 31.9 30.4 28.4 30 33.2 43.6 54.6 62.6 67.9 66.1 62 57.3 51.3 45.8 38.8 28 20.8 17.4 21.9 29.8 34.1 34.9 38.9 37.8 35.1 33.2 33.7 32.4 30.7 28.9 31 34.4 44.4 52.7 69.1 66 77.1 79.8 82.6 82.2 80.9 82 81.1 76.4 70.4 68 72.1 70.8 73.7 77.5 81.8 85.9 90.5 95.5 99.7 103.7 108 111.3 115.1 124.5 134.9 142.9 148 140.4 123.1 108.7 95.8 85.7 75.2 66.7 60.1 54.5 45.4 37.3 31.1 24.2 27.8 35 44.3 56.4 69.9 79.2 86.8 93.3 99.8 104.5 109.5 114.4 119.4 125.5 132.2 137.5 142.3 147.8 155.1 161.3 165.5 170.4 172.8 173.8 174.3 175.4 176.1 175.4 173.6 172.2 170.2 168.8 167.3 165.3 163.5 160.7 157.6 158.3 159.2 160 161.1 162 162.7 162.9 161.4 159.3 157.3 155.3 153.8 152.6 151.3 149.4
166.1 166 166.3 166.2 168.4 171.1 170.7 166.1 167.6 171.4 172.4 169.7 168.8 172.3 178.1 181.6 183.8 186 187.1 187.8 187.1 184.5 179.1 175.4 172.2 168.8 165.6 160.7 153.2 145.2 139 131.6 124.6 119.2 112.2 105.8 103.3 103.3 107.3 99.3 87.8 100.7 107.4 111.1 109.7 104.5 105.4 104.5 103.8 101.7 100 98.2 96.1 93.1 89.6 85.6 80.1 71.1 63 55.3 47.1 39.3 34.1 33.8 33.9 32.9 31.7 30.1 28.5 27 26.2 26 26.3 23.2 17.5 17.5 21.1 33.5 47 55.8 63.4 64.8 62.5 57.5 52 46 39.6 26.9 21.4 16 25.6 37.9 41.8 43.6 46.9 47.7 47.3 44.6 49.1 51.4 49.3 48.1 57.9 67.2 75.8 77 79.5 74 82.2 85.7 87.4 86.1 85.8 85.9 84.9 80.4 73.4 73.4 78.1 76.7 76.2 82.6 86.6 90.7 94.5 98.7 105.4 109.5 115 119.6 124.5 133.9 143.5 148.9 149.3 145 130.5 115.4 100.7 90 80.5 69.9 61.9 57.3 48.5 40.1 34 28.6 28.5 35.9 44.9 56.7 70.6 79.5 86.4 91.7 97.7 102.7 109 115.1 119.9 125.6 131.6 138.3 143.7 148.6 154.2 160.8 168.7 174.6 176.3 177.2 177.8 179 178.8 178.5 176.9 174.6 172.6 170.8 169.1 167.4 165.7 163.1 161 161.1 161.7 162.2 162.8 163.8 164.7 165.1 164.2 163 160.7 158.7 157.4 155.7 153.7 151.5
165.1 164.3 164.3 163.8 164.2 167.3 167.5 165.9 160.9 164.2 166.2 163.9 166.8 171.5 175.7 178.3 180.3 182.3 183.6 184.1 183.4 181.2 178.4 176.1 172.9 169.6 165.5 159.1 151.8 144.4 138.3 132.7 125.9 121 114.4 104.7 95.6 95.5 99.5 97 78.5 96.1 102 106 106.2 101.7 97.5 99.2 99.8 100.7 100.7 100 98.4 96.2 92.7 88.5 83.6 77.4 69.9 63.6 54.9 46.7 40.8 32 31.7 31 30.4 28.8 27.1 25.9 24.7 22.8 21.3 17.5 20.6 20.5 18.7 25 38.3 47.7 59.1 64.4 61.4 56.8 51.8 43.8 37.1 24.3 20.9 13.5 33.8 45.3 49.1 50.8 54.8 56.6 56.9 56.6 56.8 60.5 62 64.7 73.3 78.3 82.2 86 85.6 89.4 81.6 90.6 91.5 90.9 90.2 90.4 88.8 84.5 81.8 83.1 84.4 83.3 81.4 86.8 91.5 95.7 99.5 100.9 108 115.8 122.4 127.9 136.2 144.5 148 150.2 148.2 146.9 135.9 120.8 104.9 92.1 83.9 73.6 66.1 61.3 53.3 45.1 39 31 28.8 39.2 46.7 57.2 70.1 78.2 85.4 91.1 96.6 102.4 108.3 113.3 118.4 124.2 130 136.8 144.4 150.2 155.6 163.1 172.2 177.8 180.3 181.3 181.9 182 181.5 180.2 178.6 176.6 174.5 172.5 171.3 169.7 168 165.4 163.7 164.1 164.4 164.4 164.6 165.3 166.1 166.6 167.1 166.1 163.6 161.3 159.8 158 155.9 155.5
162.9 162.4 161.4 160.3 161.1 161.9 162.3 162.4 159.6 155.9 159 156.8 161.8 167.2 172.4 174.9 176.2 178.5 180.4 180.2 179.3 178.1 177.2 176.3 173.5 169.8 163.3 156.5 149.6 143.9 140.5 136.1 129.7 125.6 118.6 110 100.6 89.2 87.3 90.3 77.6 87 92.7 98.5 103 102 89 87.8 92.5 96.7 99.5 100.5 99.3 97.8 95.9 91.7 86.6 80.7 72.7 63.6 54.1 45.5 37.5 31.2 30 30 29 27.7 26.3 25.3 24.1 21.7 20.5 21.2 20.8 20.5 17.5 17.5 29.9 40 54.7 60.6 55.1 51.6 47.9 41.5 35.4 21.6 18.5 13.5 44.8 52 55.8 58.2 62.4 64.4 64.4 64.2 63.6 68.2 72.8 71.2 81.2 85 91.4 92.4 91.5 92.1 87.2 91.2 96 95.5 95 95.2 92 87.8 89.1 93.4 95.2 92.3 86.9 90.2 96.2 100.9 105 106.1 110.7 120 128.1 137.6 147.5 152.3 154.6 153 149.7 145.1 139.2 126.3 109.9 96.8 88.2 77.9 70 64 56.9 50.5 43.2 33.8 33.7 42.3 48.1 56.1 68 76.6 84.6 90.9 95.7 101.4 107.8 112.1 118 124 130.1 135.8 142.3 148.4 155.4 164.8 174.1 180.2 183.4 184.3 184.7 184.5 183.2 181.7 179.9 178.2 176 174 173.4 171.9 169.7 167.4 166.7 166.8 166.9 166.8 166.6 167.3 168.1 168.6 169 167.7 165.5 163.6 161.8 160.1 159.1 158.8
156.7 157.6 158.1 157.2 156.9 157.6 157.7 157.6 157.7 155.2 152.4 151.2 156 160.7 165.2 168.7 171.3 173.9 175.4 175.8 175.2 175.5 176 175.9 172.6 167.3 159.3 152.5 146.8 142.2 138.7 134.4 130 125.9 119.9 110.9 103 94.6 85.2 67.3 68.2 77 82 91 99 97.3 86.2 79 81.7 88.9 95.7 99.1 99.5 99 97.8 95.4 90 81.4 70.7 60.1 50.5 42.1 34 29.7 28.7 28.6 27.6 26.4 25.7 24.7 23.3 20.9 17.5 21.7 21.6 20.5 20.6 18.7 23.1 37.1 53.6 51 39.3 41 42.2 37.9 21.5 19.5 13.5 32 52.2 60.4 63 64.7 68.2 70.6 71.1 73.5 74.1 76.7 81 84.6 81.8 90 94.4 96 94.8 96.1 96.4 98.1 100.1 100.9 100.6 100.4 96.5 90.3 95.1 102.1 105.6 102.4 95.6 94.2 99.8 105.5 111.2 114.1 117 125.5 136.9 146.6 155.5 159.6 159.9 157.8 153.4 145.8 140.9 132.9 117.1 103.4 92.5 81.9 73.4 66.3 60.1 55.3 47.4 30.5 32.7 36.6 41.7 51.4 63 72.2 80.4 88.1 94.1 100.9 107.8 112.8 117.8 123.8 129.5 134.9 139.9 146.7 154.3 163.5 173.5 181 184.2 185.3 185.7 185.7 184.5 183.6 182.2 180.2 177.6 176.6 175.9 174.3 171.6 170.1 169.7 169.7 169.3 169.6 169.8 169.9 170.6 170.9 170.3 169 167.1 165.4 163.8 162.3 161.2 160.8
146.9 149.5 152 155.4 152.6 153.2 153.5 154.2 154.6 152.3 148.4 146.9 149.4 154.6 157.7 161.4 165.1 167.3 170.3 171 171.7 172.6 173.7 174.2 169.6 162.8 155 148.7 144.1 140.1 136.3 131.4 128.3 124.9 121.1 115.4 107.7 100.1 89 80.2 64.4 70 73.2 80.9 91.6 96.3 88.6 75.2 72.2 79.9 87.9 94.4 96.8 97.6 97.2 95.7 89.3 79.3 68.7 56.8 47.7 39.4 32.9 29.2 28.1 27.2 26.3 25.3 24.5 23.5 22.3 17.5 22 22.2 22 21 20.2 17.5 21.7 36.8 46.5 48.4 29.4 25.6 20.4 15.4 13.9 16.8 29.1 52.7 61.6 66.5 68.7 70.7 74.4 76.4 77.9 81.3 83.5 85.6 89.3 93.2 94.2 97.2 97.2 98.3 100 103 105.4 107.2 108.3 109.9 109.8 108 103.4 97.9 101.9 110.3 117.5 113.4 103.8 100.2 106.6 110.5 117.1 123.3 131.5 137.5 146.6 154.2 160.4 164.5 167.2 165.9 158.2 147.5 142.5 136.8 123.4 107.9 95.6 86.2 75.3 67.8 62.4 57.8 50.2 38.5 31.1 32 36.9 46.4 57.3 67.2 76.8 86.2 93.8 100.9 107.8 113.3 118.5 123.2 128.6 135.3 140.7 145.3 149.3 159.7 172.2 180.2 183.9 184.8 185.2 185.7 185.4 184.9 184.4 182.8 180.6 179.9 179.7 177.2 174.2 173.5 173.4 172.9 172.7 174 173.9 173.8 173 172.1 171.3 169.9 168.6 167.2 165.6 164 162.8 161.9
141.1 143.6 146.9 151.3 150.7 148.8 149.5 150.2 151.6 149.8 145.7 141.1 145.2 148.3 150.8 154 158.1 163.1 166.4 167.9 168.3 168.9 170 168.9 163.7 157.2 151.1 146.1 141.7 138.1 134.1 128.9 123.7 122.2 118.8 116 111.6 104.3 95.9 85.1 73.6 59.6 64.5 71.5 82.9 95.2 87.4 75.6 67.1 69.5 77.6 85.9 91.2 92.8 93.1 93.5 87.5 76.8 66.1 54.7 47.6 39.8 32.7 28.8 27.4 26.9 26.3 25.1 23.9 22.7 20.9 21.6 22.8 22.4 22.1 21.1 19.8 16.8 34.1 37.1 35.3 32 23 15.6 21.8 20.5 23.6 34.6 50 60.7 67.4 72.1 74.2 76.1 80.5 83.7 86.3 89.2 91.1 91.6 97.2 100.8 106.3 108 102.8 105.5 109.1 113.5 113.9 116.2 118.9 120.5 119.8 118.9 115.3 112.3 113.1 120 125.8 125.4 113.6 113.2 118.7 121.4 131.7 139.6 148.3 155.3 157.2 159.7 164.1 169.7 174.8 175.1 166.1 152.7 143.8 138.1 127.9 112 100.5 90.4 78.2 68.6 62.4 57 51.2 42.9 29.2 29.6 34.8 42.7 53.5 64.7 74.6 84.3 92.8 100.8 108.7 114.7 118.9 122.9 127.6 133.2 137.8 141.8 147.7 156.3 166.9 175.2 179.9 182.8 184.4 186.1 186.2 186.9 186.6 186.1 184.2 183.2 183.7 181.2 177.9 177 177.8 177.4 176.9 177.1 177.6 176.4 175 173.7 172.3 171 169.7 168.5 167.2 165.7 164.5 163.3
137.1 138.8 142.9 147.6 147.8 144.5 144 146 147.5 146.4 142.5 136.2 141.7 145.4 146.3 149.6 154.7 160.3 163 164.7 165.1 164.2 163.3 161.1 157.2 151.5 147.7 143.3 139.2 135.3 130.8 126 120.8 115.8 114.1 112.9 110 105.2 98.3 88.7 77.2 67.6 55.8 62.5 76.4 89.7 87.8 77.6 65.8 62.3 67.9 77 83.6 83.7 85.1 87.3 83.7 73.2 62.3 52.4 43.8 37 31.3 28.9 27.6 27.5 27.2 25.6 24 22.7 20.8 23.2 22.9 22.4 21.7 20.6 19.9 26.5 26.9 26.8 24.3 22.8 15.7 25.3 25.9 30.3 40.3 52.9 61.9 66.8 71.8 77.5 79.7 83.4 87.4 91.5 94.3 96.3 98.2 99.1 104.5 110.4 118.4 118.3 112.1 116.2 121.5 125.5 128.1 131.9 134.7 137.4 136.8 134.9 130.1 127.4 135.7 129.3 126.3 126.5 141.3 137.1 136.5 139 147.1 156.8 160.6 163.7 164.9 166.4 169.4 173.9 179.7 178.3 173.7 157.2 146.6 140.1 133 117.8 104.6 93.7 82.2 69.8 62.6 57.1 52.6 49.2 36.1 29.9 29.3 38.3 49 59.9 70 80.7 89.3 100 110 114.8 118.7 122.7 126.9 131.3 135.4 139.6 146.6 154.2 162 168.8 174.8 179.2 184.3 187.9 189.8 190.6 191 189.7 188.4 187.8 187.1 184.6 181.5 181.3 182.4 182.2 181.9 181.7 181.3 180 177.9 176 173.8 172.4 170.9 169.5 168.2 167.4 166 164.8
134.2 136 139.9 143.5 144.5 141.7 139.9 142 143.8 142.9 139.2 133.5 138.4 143.3 146.1 148.9 153.3 157 159.7 161.5 160.7 157.8 155.6 153.1 150 147.9 145 141.1 137.1 132.8 127.7 123.4 118.2 112.5 109.2 109.1 108 104.8 98.5 91.1 80.5 70.7 60.2 54.8 64.7 75.9 79.8 74.8 64.4 59.3 60.2 67.1 71.1 73.6 76 78.2 77.2 69.5 59.3 49.6 41.3 34.4 30.9 29 28 27.5 27 24.9 22.6 17.5 25 23.9 23.4 22.3 21.3 20.2 16.5 23.3 25.1 23 19.7 15.6 31 30 32.5 45.1 56.7 62.7 68.1 72.9 76.2 82.2 87 89.9 92.9 96.8 101.1 103.6 105.6 107.9 111.6 116.3 130.1 132.5 125.7 130.7 135.8 141 145.2 152 155.6 159.1 157.8 153.4 146.4 139.7 153.6 139.9 128 129.9 152.1 154.8 155.5 159.2 164.5 167.1 170 171 171.7 173.3 177.1 180.2 182.5 179.9 173.8 161.2 150.8 142.5 135.3 123 108.7 97.6 87 73.4 64.2 59.4 56.1 51.3 42.6 30.6 29.8 32.9 45.4 57.2 69.3 80.7 90.2 98.6 107.3 114.6 118.5 122.7 126.6 131.5 136.5 143.1 146.9 154.3 159.5 166.8 174.7 179.9 185.9 190.5 193.6 194.8 194.7 193.5 192.4 192.2 191 189.7 188 187.6 187.6 187.5 187.2 186.3 185.4 183.2 181 178.7 175.9 173.7 172.1 170.4 169.5 169.2 167.7 165.8
132.1 134.2 138 140.5 140.1 137.3 132.5 137.7 139.4 137.8 134.6 128 133.5 141.2 144.7 147.8 150.6 153.3 155.4 156.3 154.8 150.2 147.4 144.8 143.4 143.9 142.7 139.4 135.1 130.5 125.4 120.7 116.4 110 102 103.5 103.7 102.4 99.3 93.2 82 69.8 60.2 52.2 51.9 59 67.5 68.6 63.5 56.7 53.5 59.3 63.1 64.5 66.2 68.2 69.2 63.4 55.6 47.9 40.9 34.5 30.8 29.7 28.7 27.7 26.2 24.1 17.5 25.7 25.7 24.8 23 22 21.7 20.5 16.8 19.3 20.6 16.9 16.7 36.3 38.7 39.4 39.3 55.5 62.2 68 73 78.4 81.9 88.1 93.2 96.6 99 102.3 106.6 110.8 114 116.6 119.2 123.8 133 134.6 139 147.3 152.1 159.6 167.9 176 180.6 178.2 174.5 168.6 161.2 154.7 156.6 139.2 136.3 135.9 142.7 162.6 169.6 172.2 174.1 176.5 177.9 179.3 181.1 183.1 186.1 187.8 187 183.3 176.2 167.3 156.1 144.5 136.8 127 113 101.9 91.3 78 67.2 61.3 57.5 52.6 45.2 33.7 28.7 33 45.8 59 71.8 83.6 92 100.4 109.2 114.4 118.3 122.7 127 131.8 139.6 145.2 148.4 152.6 159 167.3 175.5 182.9 188.5 192.8 196.3 197.6 198.1 197.1 196.7 196.7 195.9 194.9 193.4 191.9 191.5 192.3 192.6 191.3 189.3 186.2 183.3 180.5 177.8 174.8 173.1 171.5 171.3 171.2 168.5 166.1
130 133.6 136.1 137.7 136.2 133.6 126.7 131.8 134.3 132.3 129.4 123.8 127.8 136.3 142.6 146.7 148.4 149.1 149.7 150.2 148.1 143.6 140.2 138.8 138.4 139.8 139.2 137.1 132.9 128.3 124.7 119.7 112.2 105.2 96.5 95.1 97.3 99.7 96.6 90.1 81.4 75 67.8 56.4 48.7 50.6 55.1 58.4 59.2 54.1 48.9 51.5 54.8 55.9 57.2 57.4 56.2 52.9 47.6 44.3 39.7 34.5 31.3 29.9 29.3 28.4 25.6 21.6 28.9 30.8 32.2 32.8 31.9 30.2 25.8 24 25.4 16.5 17.7 42.6 45.5 53.3 53.8 51.8 48.2 57.1 67.3 73.1 78 82.7 88.3 94.4 98.2 102.6 105.5 108.4 112.7 118.6 121.7 124.9 128.3 131.7 136.2 135.4 140.6 153.5 169.1 181.5 190.9 193.8 193.2 188.7 182.6 177.4 173.2 169.4 176.1 175.3 171.8 170.9 174 178.8 179.5 181.3 182.4 183.7 185.4 187.6 190.7 192.8 194.3 194.3 192.4 187.7 180 173.6 162.3 149.1 139.3 132.1 119.2 107.9 96.1 83.3 72.2 65.2 60.1 52.2 41.6 29.1 34.6 41.6 48.1 58.1 69.6 82.3 91.3 99.1 107.8 113.6 117.6 122.4 126.8 131.3 134.8 139.4 145.6 151.5 158.7 169.3 178.7 184.9 189.9 194.1 197.6 199.8 201.5 201.7 201.6 201.3 200.5 199.5 197.8 196 195.6 196.5 197 196.1 194.4 190.7 185.7 181.3 178.3 176.1 174 172.9 172.3 171.6 168.2 167.4
128.5 132.1 133.8 133.5 132.4 130.8 127.5 122.5 129.3 129.9 124.8 120 122.5 132.6 139.6 145.1 144.8 143.7 144.1 144.5 142.5 138.8 135.4 134.1 134.4 136 136.1 133.5 130.3 127.1 123.9 119.9 112.6 102.4 91 82.7 84.4 91.8 94.8 91.9 91.6 86 74.5 63.6 54.4 49.6 46 50.3 52.3 49.2 45.7 45.9 47 48.9 49.4 48.1 46.2 43.2 39.9 37.2 35.9 36.3 33.3 30.1 27.9 26.9 24.3 24 34.9 37 38.4 39.2 39.4 40.5 41.2 47.4 51.6 53.6 52.2 53 61.4 63.3 62.1 62.1 63.1 53.1 67.5 77.7 83.3 88.8 93.4 98.7 104.2 109.2 113.5 115.7 119.9 126.9 131 134 138.8 144.5 145.3 139.7 147.3 164.3 189.2 198 200.9 202.7 201.9 198.6 194.1 189.1 185.1 179.1 185.4 187.9 189.9 189.7 188.5 187.8 188.1 189.4 190 191 193 195.8 197.7 198.2 198.1 197.7 195.3 191.5 184.2 175.8 166.5 154.5 143.8 135.6 123.8 110.7 101.6 90 77 68.2 60.4 51.4 40.3 30.9 36.6 43.9 47.5 55.6 60.7 67.2 78.8 91.4 104.6 111.5 116.4 120.5 124.5 128.9 126.2 137.5 144.9 152 160.3 171.3 181.4 186.6 191.1 195.2 198.7 201.4 204.2 205.7 206 205.9 204.8 203.3 201.5 199.6 199.2 199.6 199.3 198.4 196 192.8 188.3 183.6 179.8 177.4 175.6 174.1 171.5 168.1 165.6 165.5
125.7 125.8 128.5 128.8 128.6 127.1 125.2 109 122.1 126.8 121 114.4 117 125.4 132.4 139.4 138.1 137.6 139.1 139.2 137.7 134.1 131.1 130.6 130.6 132.4 133.6 130.8 128.3 125.7 122.7 118.9 114.3 105.4 95.6 84.2 72.4 75.3 80.9 86.1 90.3 83.5 75.2 66.1 59.9 50.6 40.6 42.9 46.4 44.4 42.9 42.4 42.7 44.5 42.6 39.7 37.5 35.8 33.2 32.7 33 33 32.4 29 28.2 24.4 18.1 37.7 40.2 42.6 44.5 46.3 48.2 50.4 53.4 56.8 60.4 64.5 66.1 63 68.5 71.5 71.8 74 76.1 70.5 76.6 73.9 86.3 93.5 99.4 105 109.5 115.1 119.4 125.5 128.5 136.5 141.3 145.9 151.8 158.4 160.2 162 172.4 192.2 204.1 210.8 212.8 215 213.7 210.4 206.3 201.9 198 195 194.8 195.5 196.4 196.3 196 195.1 195.4 196.4 197.5 198.8 201.4 203.5 202.6 201.6 200.1 195.5 194.7 192.5 186.8 178.7 171 157.4 147.2 138.7 128.6 116.5 106.7 96.8 82.8 73.7 63.1 52.2 39.6 32.6 38 47 55.3 64.1 73.5 82.3 80.7 80.5 91.1 107.8 112.9 118 122.4 120.4 127.8 137.1 144.3 152.9 162.1 173.5 182.3 187.6 192.5 197 200.7 204 206.4 208.3 208.9 208.9 207.9 206.9 205.1 203.2 202.4 201.6 201.3 199.9 197 193.4 189.7 185.7 182.3 179.4 177.6 175.8 173 170.8 167.3 164.1
118.5 117.8 117.3 117.7 120 121.5 119.5 110.7 115.4 121.3 118.3 109.9 110 116.9 124.4 129.9 130.5 133.3 136.6 136.7 133.9 130.1 126.9 126.7 127.1 129.1 131 128.9 126.1 123.8 120.3 115.3 111.9 108.3 102.6 92.9 79.3 67.5 64.6 75.5 81.8 78.3 70.5 63.1 57.1 51.5 43.9 36.7 41.2 40.8 39.2 38.9 38.7 39.5 36.4 33.2 31.8 31.3 30.7 30.9 31.4 29.2 28.6 28.8 28 17.9 44.6 44.6 46 48.2 51.1 54.4 56.4 58.4 61.7 65.2 67.9 70.7 73.4 71.7 74.3 79.2 80.5 81.9 83.8 84.1 81.6 86.5 91.7 97.7 104.7 110.9 115.5 123 129.2 134.3 140.1 146.6 151.4 157.5 165.2 174.6 182.5 190.2 200.6 211.1 218.1 222.8 223.9 225.4 223.8 219.9 215.5 211.7 208 204.8 203.8 203.1 202.6 202.3 202.1 201.7 202.2 203.2 204.6 205.9 208.8 210.1 208.5 204.3 200.8 195.2 194.2 192.6 188.9 180.2 171.9 159.7 150.3 141.7 133 122.6 111.8 101 88.9 78.8 67 53.5 42.1 31 35.3 44.5 54.7 63.4 71.8 83.2 94.1 92 91 93.5 102.5 108 107.6 121.4 129.1 135.9 143.4 154.9 164.8 176.3 184 188.9 193.9 198.5 202.7 205.9 208.1 209.5 210.4 210.6 209.7 208.8 207 205.3 204.3 203.3 202.3 200.7 197.5 193.8 190.1 187.1 184.1 181.6 179.3 176.5 173.6 170.7 168.2 165.8
106.1 105.2 103 102.9 105.6 109.2 112.9 110 104.6 115.5 116.9 109.3 104.3 110.2 118.1 122.8 123.5 126.1 133.9 134.5 130.4 126.5 124.3 123.3 123.6 125.8 127.9 127.1 123.5 120.6 116.7 111.8 106.9 103.5 97.1 88.8 82.7 72.1 59.2 61.8 65.1 66 61.7 57.3 50.9 46.4 41.6 35.5 33.8 35.5 35 34.3 33.7 33.4 31.4 30.7 30.4 30.7 30.4 29 28.5 23 20.3 19.7 32.3 45.5 48.8 49.8 51.6 54.4 57.4 60.9 64.3 66.4 70 73.5 74.4 76.8 79.2 80.6 79.6 84.5 87.4 88.1 91.5 92.5 93.2 94.7 97.7 102.5 110 117.7 123.3 128.9 137.9 142.5 149.1 155.2 161.2 169.3 179.3 190.9 201.3 211.3 220 227.8 232.8 236.3 237.7 236 232.7 228 223.2 219.5 216.4 213.6 212.2 210.2 208.9 208.4 208 208 208.8 210 211.4 212.9 215 216.3 213.3 208.2 202.9 198.4 195.9 193.7 190.7 182 172.9 162.5 152.1 143.9 136 126.4 115.7 104.7 91.8 80.5 69.5 59.2 49.9 37.4 35.5 40.4 50.6 58.5 66.7 78.1 89 102.2 107 110.5 112 115.2 120.6 123.8 129.4 136.2 145 156.3 167.7 178.7 185.2 190.1 194.7 199.2 203.4 207.6 209.2 210.5 211.6 211.6 210.7 209.7 208.2 206.7 205.4 204.2 202.8 201.2 198.1 194.6 190.8 187.8 184.8 182.3 180.1 177.3 174.5 172 169.5 167.4
93.3 93.2 90.7 90.5 91.6 93.8 102.1 104 98 107.3 110.3 109.5 99.7 102.7 112.1 115.4 116.1 121.7 131.3 129.7 126 122.6 120.9 119.8 120.6 121.6 124.2 124.8 120.9 115.9 111.4 108.2 102.7 92.6 83.3 74 68.1 63.1 55.4 50.8 51.7 51.9 52.2 48 44.5 40.6 38.5 36.2 32.3 31.8 31.7 31.5 29.9 28.5 27 21 21 20.5 24.7 20.7 20.2 25.1 28.2 34.8 41.3 47.9 53.1 57.4 58.8 61.2 64.2 67.5 70.9 74.5 78.7 80.5 81.4 84.2 87.4 90.2 88.8 93.5 95.5 96.7 100.9 101 99.5 103.3 106.8 111 116.2 122.2 129.5 137 144.6 152.3 159.6 165.8 174.4 183.7 194.1 206.5 218.9 229.1 237.5 242.5 245 246.7 247.4 244.8 240.5 235.4 230.2 225.9 222.8 221.1 219.1 216.7 215.4 214.4 214.1 214.3 215.3 216.4 217.8 219.4 221.2 221.1 217.9 212.7 206.8 201.7 198.3 194.7 192.1 183.8 173.5 163.3 152.4 145.6 137.6 129.5 113.8 109.7 96.7 83.1 75.2 66 56 43.2 31.7 38.7 48.7 54.8 62 73.5 83.7 95.9 107.1 111.4 114.6 117.3 120.9 125 130.4 137.2 147.7 160.6 171.2 180.7 186.4 191.1 195.7 199.8 204 208 209.9 211.3 212.4 212.5 211.5 210.3 208.6 206.7 205.6 204.4 203.3 202 199.1 195.2 191.2 188.4 185.4 182.9 180.4 178 175.6 173 170.4 168.9
83 82.8 85.6 86.3 82.7 84 86 89.7 92.5 98.4 101.1 101.6 98.4 97.7 105.7 107.7 111 121.7 126.9 124.8 121.1 118.2 118.5 116.7 116.7 118.8 120 119.6 118.1 114.2 106.8 101.2 94.3 83.4 71.9 64.7 62.7 57.2 49.8 43.8 43.1 43.3 42.4 42.2 40.2 38.6 37.1 36.8 31 30.4 29.7 28.9 27.2 26.8 26.3 24.1 35 36.8 32.3 32.9 34.9 37.5 40.3 43.1 49.6 56 61.3 64.2 65.9 68.5 71.5 74.7 78.5 82.3 86 88.7 90.1 92.5 95.4 99.6 95.6 105.1 104.3 107.4 107.4 109.4 106.4 108.3 113.9 118.1 122.3 127 135.7 145.5 154.8 162.9 170.3 179.5 188.3 197.8 209.4 224.2 236.9 245.3 249.5 250.9 251.2 251.2 251.1 248.8 245 240.3 235.9 231.5 228.4 226.9 224.7 222.9 222 221.2 220.7 220.7 221.6 222.4 223.8 225.3 225.2 224.2 220.9 215.6 209.7 204.3 201.2 195.7 191.1 183.1 173.5 163 153.3 146.3 140.6 134.2 104.9 94 82.2 79.4 76.4 66 54.6 41.4 40.3 33.1 41.8 50.7 59.6 70.6 82.9 95.5 107.4 111.8 115.7 118.4 121.7 125.2 130.6 138.5 151.8 165.4 175.2 183 187.3 192.1 196.7 200.6 204.6 208.5 210.2 211.5 212.4 212.5 211.8 210.9 209.1 207.2 206.2 204.6 204.2 203 199.8 195.2 191.9 189 185.8 182.8 180 177.5 175.2 173 171 169.6
77 79.7 81.2 79.1 76.6 76.4 76.1 76.2 79.2 91.5 92.6 96 93.2 95.9 99.7 103.3 108.9 118 120.3 118.3 116.1 114.6 114.9 112.8 113.1 115.1 114.7 114.6 114.8 111.5 104.6 94.8 85.4 76.2 65.4 59.5 54.8 49.2 43.5 38.2 35.9 35.7 35.6 35.9 35.7 35.6 34.2 30.9 29.1 28.6 28.3 27.4 26.7 26.6 24.6 28.8 33.7 31.2 35 38.6 42.2 47 51.2 53.3 57.3 63.4 68.1 71 73.3 76.3 79.4 83.4 85.9 89.3 93.6 97.1 100 102.9 107 110.2 105.5 116.9 118 119.1 118.9 120.4 118.1 112 119.8 125.5 129.8 136.5 146.4 157.9 166.1 174.3 182.2 191 200.6 212 224.3 238.5 247.9 251.6 254.6 255.9 255.6 255.4 254.7 252.4 249.4 245.1 240.9 237 234.4 232.4 230.2 229.1 228.3 227.6 227 226.5 227.1 227.8 229 229.3 228 225.6 222 217.4 212.4 206.6 201.5 195.7 190.3 182.8 174.3 163.5 154 147.1 141.7 134.9 111.1 95.4 94.7 86.9 70.1 61.3 54 50.2 43.4 41.4 35.8 46.9 57.8 68.6 79 91.4 104.5 112.1 115.8 119.6 122.8 126 131.3 139.7 154.1 167.3 177.9 184.6 188.7 193.1 197.5 201.4 206.1 210.6 211.3 211.7 212.3 212.3 211.6 210.7 209.2 209.7 211.9 206.4 209.1 208.3 203.7 200.7 193.3 188.2 186 182.9 180.6 178.4 176 173.7 171.6 169.6
72.9 73.5 74.8 76.1 74.6 70.6 68.9 70.4 67.8 75.2 81.4 85.2 88.4 89.9 95 103 105 108.2 108.9 108.9 107.7 109.8 111.3 109.6 108.5 110.6 110.3 109.7 108.7 104.9 100 92.9 81.9 70.8 62 53.7 47.8 42.1 36.3 31.8 30.3 29.6 29.2 29.6 29.3 28.9 29.3 28.1 27.8 27.7 27.4 27.1 26.8 26.6 21.6 33.5 37.6 31.6 36.2 40.4 47.8 54.4 59.8 61.7 63.4 67.9 73.7 77.9 81.3 84.4 88.6 92.9 94.9 98.8 102.9 107.4 112.3 116.1 121.2 120.7 119.2 129.8 131.2 133 132.3 134.5 133.5 127.9 129.4 137.6 144.8 151.4 159.4 170.2 177.3 186.2 193.7 201.8 214.3 226.6 238.2 247.7 252.8 255.9 258.1 259.3 259.5 258.9 257.7 255.2 252.6 249.2 245.9 242.7 240.3 237.9 236 234.8 233.3 232.6 232 231.6 232.2 232.5 232.3 231.7 229.7 226.3 222.2 217.8 213.3 206.1 200.2 194.4 188.6 181.8 174.2 164.4 154.1 147.4 141.1 135.8 108.6 107.2 95.4 81.9 68.7 60.8 53.2 55.8 48.2 34.9 38.6 46 56.1 65.6 74.2 86.4 99.5 111 115.6 119.5 124.2 127.9 131.2 138.6 151.6 164.5 175.9 185.1 190.3 194.4 198.2 202.2 207 210.9 211.1 211.3 211.8 211.9 211.4 210.3 209.1 210.8 213.7 205.6 203.8 202.7 201.5 199.1 191.6 187.6 185.1 182.6 180.3 178.3 176.1 173.8 171.3 166.4
69 68.6 69.9 71.6 70.8 66.3 63.3 62.6 61.2 64.3 68.5 74.1 78.6 82.8 88.3 89.4 90.7 92.5 94.1 95.7 96.7 99.8 103.1 103.6 104.1 104.7 105 104.9 102.2 97.5 93 89 79.6 67.9 57.6 49 42.7 37 31.8 28 28 28.1 28 27.7 27.2 24.3 25.2 27.1 26.5 26.7 26.9 26.9 25.5 21.6 21.6 33.3 33.1 34.5 37.8 43.9 52.4 61.1 65.9 68.4 69.4 72.2 78.9 84.4 89.4 93.7 100.2 104.9 102.5 109.3 116.1 121.7 127 131.5 135.1 135.5 138.1 144.4 147.4 152.8 154 154.5 156.3 151.8 146.9 155.6 163.9 170.2 175.7 181.9 188.1 197.7 205.1 213.6 224.2 239.7 249.3 253.7 256.7 259 261 261.9 262.1 261.5 260.2 258.2 255.7 252.7 250 247.5 245.5 243.3 241.3 239.7 238.1 237.4 236.8 236.8 236.8 236 234.9 233.4 230.6 226.4 222.3 218 212.6 205.7 199.6 193.7 187.5 180.9 173.8 165 154.2 147.1 139.7 131.5 115.5 102.6 90.1 80.4 69.8 62.7 63.8 60.9 49.5 40.6 39 45.6 52.6 60.9 69.3 80 94.2 109.4 115.5 120.2 124.7 126.8 130.1 137.2 148.1 159.5 171.1 183.8 190 194.5 198.1 201.9 207 210.5 210.7 210.9 211.2 211.2 211.3 210.1 209.3 210.7 208.6 205.1 203.9 201.5 201.4 198 194.6 188.5 185.6 185.5 180.8 178.7 175.6 172.9 172.5 172
64.2 67.1 66.7 66.3 65.5 62.7 59.3 58.4 58.6 56.9 60.7 61.8 67.4 74.3 75 76 77.9 80.2 81.3 82.9 84.9 87.9 90.8 93.1 96.6 97.9 98.6 100.1 94.5 89.3 85.7 84 79.4 67 55.1 46 38.4 33.8 29.6 27.9 27.6 27.6 27.9 25.7 26.8 26.7 26.5 27.1 25.2 23.3 22.9 22.7 23.6 24.8 31.9 33.4 32.6 34.8 40.9 47.1 56 65.2 69.5 72.8 74.3 74.2 84.9 92.2 97.6 103.8 109.9 117.8 118.3 119.8 127.4 136.4 142 147 150.1 151.9 154.8 161 166.6 172.2 174.8 176.7 177.6 175.5 172.9 180.1 180.2 183.1 186.6 193.1 200.5 209.8 222.4 230.4 237 251.9 254.8 257.4 259.9 262.2 263.1 264 264.1 263.3 262.4 260.4 258.4 255.8 253.7 251.8 249.7 247.6 245.7 244.2 242.9 242 241.3 241 240.9 239.1 236.5 233.9 230.9 226.6 222.4 217.4 211.7 205.9 200.3 194.1 186.7 180.1 174.1 165.1 154.1 146.3 136.3 123.1 108.5 98.6 88.5 79.6 69.7 71 69.4 64 55.5 49.1 43.3 37.8 42.5 51.8 62.4 76.5 92.2 107.3 114.7 119.5 124 124.7 127.3 135.7 145 155.7 165.1 177.1 187.8 192.8 196.4 200.3 203.6 207.4 208.6 209.2 209.6 210.5 210.6 209.6 209.3 209.4 206.6 204.6 204.1 201.4 201.3 197 194.2 189.4 187.2 184.5 180.5 181.2 180.2 175.4 174.7 174.8
59.8 61.5 63.2 62.2 58.4 54.9 54.7 55 54.7 52.3 54.5 55.8 60.9 65.5 68.7 69.7 69 70.1 70.6 71.2 71.7 76.1 77.9 80.1 85.6 90.2 88.9 88.7 84.1 82.1 77.4 76.9 75 66.5 54.6 44.4 37 32.1 29.6 28.5 28.5 24.7 27 27.2 26.9 26.6 26.5 27 22.7 24.5 24.3 24.3 24.8 26 31.2 33.9 32.9 36.9 42.4 50.1 58.3 67.8 73.3 76.2 79.4 83.6 83.7 95.3 102.6 106.9 119.5 130 136.3 136.3 142.1 147 151.9 156.6 159.6 161.8 164.7 170.9 173.7 175.3 177.3 181.8 183.9 185.1 185.7 187 188 191.8 198.1 205.7 213.3 221.2 241.3 236.2 251 255.7 258.1 260.8 263.1 264.4 265.3 266.2 265.9 265.3 264.3 262.5 260.6 258.9 257 255.2 253.2 251.1 249.1 247.5 246.8 246.5 245.8 244.4 243.3 241 237.6 234.3 231.2 226.9 222.4 217.8 211.6 205.8 200.3 193.6 186.4 179.7 173.7 164.7 153.1 143.1 131.1 116.3 104.1 96.2 85.2 84.2 82.2 79.8 74.4 68.3 63 57.1 50.7 40.9 39.7 39.4 56.6 73.8 88.2 102.4 111.8 118 122.4 119.9 125.8 134 142.3 153.5 161.3 172.4 184.5 190.8 194.5 197.8 201 204.6 206.3 206.9 208 209.1 210 209.7 209.4 209.5 208.5 204.3 204 201.6 201.5 201.4 194.4 191 188.6 185.5 184.8 181.9 180.6 178 176.2 175.9
53.6 55.3 57.5 57.3 53.9 52 52.3 55.4 55.8 53.8 51.2 52.3 55.9 59.1 63 64.4 64 63.6 64.4 64.1 63.8 66.8 69.5 72.2 76.2 79.8 77.8 77.5 76.5 77.9 76.3 69.5 65.8 60.8 52.2 44.6 37.7 31.7 29.9 28.8 28.4 26.2 29.3 28.4 27.5 26.9 26.4 26.7 22.7 25.9 26.3 25.6 25.3 26.1 29.4 32.1 33 38.2 44.9 52.9 59.9 66.7 75.2 81.6 85.2 89.6 92.1 93.2 112.3 110.6 124.5 140 144.4 143.6 148.9 152.3 156.6 162.5 164.9 167 170.3 175.5 178.7 182.1 187.6 190.9 193.5 193.3 192 193.3 195.1 200 208.8 216.2 223.6 234.9 246.9 253.1 258.2 259 261.1 263.7 265.3 266.6 267.5 268.3 268.1 267.5 266.3 264.6 263.1 261.7 260.2 258.4 256.4 254.4 252.5 250.7 250.2 249 247.6 246.2 244.4 241.9 238.2 234.8 231 227.1 222.4 217.9 211.5 205.7 199.9 193.2 186.3 179.7 173.9 164.1 150.7 136.9 121 111.3 104.3 94 92.7 100.5 95 87.8 80.3 73.2 67.7 61.5 51.5 40.3 41.9 49.6 63.9 73.7 83.7 97 109 115.4 117.3 116.1 124.5 132.4 140.1 151.9 160.5 169.2 180.5 188.4 191.8 195.2 199.8 203.2 204.7 205.7 206.6 207.7 208.9 209.7 210.4 210.8 208.9 204.2 204 200.3 201.4 201.6 196.1 197.6 190.5 187.5 186.4 184.1 182.1 180 178 176.6
47.9 49.4 50.4 51.1 48.5 46.1 45 46.9 49.9 49.6 48.6 49.7 53.2 52.1 55.5 58.3 58.2 58.6 59.8 58 61.2 59.8 62.7 64.3 69.1 71 69.2 70 71.7 74.5 72.5 64.9 59.2 54.8 49.2 42.7 38.5 33.9 30.9 29.8 29.2 26.7 34.2 32.1 33 30.1 27.7 26.7 23.7 26.3 26.9 27.3 27.6 33.3 33.6 33 33.6 39.5 47.2 55.1 62.7 68.5 75.1 83 88.4 93.5 100 102.3 108.4 119.8 129.8 140.2 144 147.3 151.4 155.4 159.6 164 167.6 173.9 181 185.7 188 191.4 195.2 197.9 199.9 199.8 199.7 200.8 204.3 210.9 220.3 228.8 236.9 244.3 250.4 251.4 250.2 261.3 263.7 265.9 267.6 269.5 270.4 271.2 271.1 270.2 268.7 267.2 265.7 264.2 262.7 260.9 259 256.9 255.3 253.5 251.8 250.2 248.6 246.8 244.9 242.3 238.6 234.8 231 227.1 222.5 217.7 211.5 205.4 199.4 193.1 186.4 180.3 174.4 162 148.3 133.2 123.2 113.3 103.5 97.7 108.2 105.3 99.5 93.3 85.7 78.1 73.4 66.1 51.9 43.4 45.9 51 62.7 71.4 78.4 89.9 104.9 113.4 111.6 115 123 131.5 139 151 158.3 167.2 176.1 184 189.4 193.4 198.3 201.7 203.4 204.3 205.2 206 206.7 207.5 208.4 209.6 209 203.5 203.4 203.5 201.5 201.4 198.3 195.7 192.6 189.8 187.6 185.5 182.9 180.3 178 176.4
43.1 42.7 43.4 44.2 43.3 42.4 41.9 43 46.6 46 44.3 44.9 46.9 47.4 49.1 51.7 54 54.9 56.1 57.4 53.7 54.1 56.3 56.5 63.5 65.5 62 63.5 66.9 69.4 65.3 58.5 53.8 49.4 44 40.2 37.6 35.4 25.8 25.1 25 35.2 35 36.3 38.4 38.9 37.3 32.4 31.8 25.9 27.4 28 28.5 32 33.5 34.5 35.3 40.5 47.2 54.8 62.9 69 77 85.1 92.9 99 106.1 115.2 119.4 124.4 134.8 140.7 145.2 149.5 153.8 157.9 162.5 167.2 172.9 180.5 188.6 192.9 195.7 198.9 201.5 204.5 205.5 206.3 206.6 208.3 213.3 222.4 233.8 239.6 243.5 248.6 255.1 256 254.6 262.8 265.3 267.7 270.2 272.6 273.8 275.3 275.2 274 272.3 269.8 267.9 266.4 264.2 262.4 260.6 258.6 256.6 254.6 252.7 250.6 248.8 247 244.8 242.2 238.7 234.8 231.1 227 222.5 217.6 211.3 205.1 200.3 193.9 187.8 181.3 174.8 158.9 146.5 130.7 121.2 110 109.8 113.5 112.4 108.1 102.3 96.3 87.8 83.4 78.8 71 56.6 42.8 48.4 46.5 49.4 67.7 74 82 97.4 103.8 106.8 118.8 127.2 132.2 138.7 149.6 157.5 165.4 172.3 179.4 185.9 191.6 196.9 200.6 201.7 202.5 203.2 203.8 204.4 205.4 206.6 208.6 208.3 203.4 203.5 203.8 201.4 201.3 198.4 195.5 192.2 189.3 186.9 184.9 182.5 180.3 178 175.9
39.5 39.9 40 39.1 39.3 39.3 38.7 39.3 44 43.1 42 41.6 42.3 43.4 45.8 48.3 50.7 53.6 51.4 50.6 48 48.6 50.5 53.8 59.2 62.1 58.4 57.3 59.6 61.2 57.6 53.2 48 43.8 39.4 36.8 31.1 28.3 29.3 29.5 30.1 35.6 37.4 37.7 41.5 42.9 42.9 40.8 39 30 23.5 23.7 24.2 26.6 29.5 31.8 34.5 39 48.3 55.7 63.6 71.5 79.3 88.1 97.4 104.8 111.5 121.6 128.9 131.6 137.9 142.5 146.4 151.4 155.7 161 166.2 172.4 179.2 186.8 193.3 198 201 203.9 206.4 208.7 209.7 211.3 212.8 216.2 222.8 231 239.2 243.7 247.4 250.9 255.3 259 251.6 263.8 266.9 270.3 273.3 275.7 278.4 280.1 280.1 278.4 276.4 273.8 271.1 268.3 265.7 263.8 261.9 259.5 257.4 255.4 253.2 250.8 248.9 246.9 244.6 242 239.2 234.9 231.1 227 222.5 217.2 211.1 205.5 201 195.2 189 181.7 172.8 156.8 141.8 129.1 118.4 114.2 117.3 118.7 115.9 111.3 104.9 99.1 94.3 90.8 85.5 77.2 67.1 59.2 53.6 46.4 51.3 58.6 62.4 73.5 86.1 92.7 107.8 119.8 130.3 136.8 142.8 150.3 157.1 163.8 170 176.8 183.5 189.4 194.4 198.1 199.4 200.4 201.2 201.7 202.5 203.5 205.1 207.1 207.5 205.1 203.2 203.4 201.8 201.3 197 194 191.4 189 186.7 184.1 181.9 179.5 177.1 173.3
42.7 41.8 41.3 36.2 37.4 39.4 38.8 36.8 42.7 41.7 40.6 39.1 38.9 39.6 41.2 43.4 46.7 49.8 47.9 43.8 43.7 44.8 47.7 50.5 54 57.8 54.2 52.8 54.8 55.9 51.6 47.6 42.9 39.5 37.2 33.9 29.9 28.2 30.4 31.3 37.5 39.3 44.2 47 50.2 52 53.5 51.8 51.8 40.3 39.4 36.7 35.9 34.9 35 36.3 34.7 27.2 35.9 32.3 37.1 58.3 80 88.4 98.7 106.2 115.7 125.2 132.3 136.6 141 145 148.9 153.6 158.9 164.3 170.7 177.9 184.7 191.3 196.8 201.3 205.1 208 210.5 213.4 215.4 217.8 220.2 223.6 229.3 236.2 241.4 245.6 249.1 252.9 257 261.1 253.5 267.1 270.8 273.5 276.5 279.2 282.1 284.1 284.5 282.8 280.7 277.8 275 271.4 268.2 264.9 263 260.3 258.3 256.1 253.7 251.1 248.9 246.9 244.4 241.9 239.4 235.2 231.4 227.4 222.4 216.9 210.8 206.3 201.7 196.2 189.9 182.3 172.9 155.1 134 122 126.8 125.3 124.2 122.3 118.8 114.8 109.3 105.4 103.8 99.3 93.4 85.7 74.4 66.7 56.9 47.9 50.8 57.6 53 56.8 75 92.6 108 119.1 131.2 138.2 144.7 151.2 157.2 163.3 168.9 175.4 180.7 186.5 191.6 195.4 197.1 198 199.4 200 201.2 202.6 204.3 206.6 207.4 206.4 206.7 205.8 202.9 201.6 197.5 194.3 192 189.6 187.2 183.3 180.6 179.1 174.3 177
45.2 44 44.5 44.6 42.9 41.6 40 39 42.2 40.7 39.3 37.9 36.6 35.6 32.5 34.6 38.3 42.9 42.1 42.3 41.5 40.1 42.6 45.8 47.4 46.7 51.1 48.4 50.3 50.2 46.8 42.7 39.2 37.8 36.4 37.8 40 28.5 40.1 42.9 47.7 52.7 54.8 55.4 58.5 59.2 63.2 67.7 65.1 55.1 49.5 45.9 44.4 44.9 45.5 44 36.7 39.3 36.9 26.3 33.9 45.8 67.1 83.4 97.5 108.1 118.7 127.7 134.6 140.4 144.4 147.7 152.3 157.5 162.3 168.3 174.7 182.6 189.2 195.9 201.2 206.2 209.6 213.4 216.4 219.7 222.3 224.8 227.3 230.6 234.5 239.4 243.4 247.5 251.5 255 259 262.4 266.7 271.1 274.8 278.5 280.5 282.3 284.2 285.2 285.2 284.6 283.3 281.1 278.6 275 271.1 267.3 264.2 261.3 259 256.8 254.3 251.6 249 246.9 244.7 242.4 239.5 235.5 231.6 227.5 222.1 216.7 210.9 206 201.9 197.3 191.1 183.8 174 158.3 142.4 138.8 133.8 131.7 128.3 125.2 121.5 117.5 113.5 111.5 110 107 101.5 94.4 85.1 75.7 66.5 61.1 60.9 66.2 48.2 55.7 81.6 96.1 106.7 116.8 128.3 135.2 141.8 149.3 157.4 163.8 168 173.5 177.9 182.7 188.2 192.3 194.7 196.1 198.2 199.1 200.3 201.7 203.6 206.4 207.1 206.5 206.6 206.1 204.9 202.9 199.9 195.9 193 190.8 188.4 181.9 182 180.4 180.1 180
48.7 50.2 51.2 51.9 46.1 43.8 42.1 35.4 39.4 38.6 37.6 37 36.1 34.4 35.5 34.5 33.7 36.5 37.5 38 35.9 38 38.2 39 39.9 39.6 41.6 42.4 43.1 43.5 42.2 41.3 38.8 37.1 34 31.7 30.5 26.8 51 52.6 60.1 68.9 65.3 63.5 65.1 67.2 72.2 76.3 73.8 67.2 57 54.3 54 53.2 53 50.7 47 26.3 32.8 32.8 35.8 43.8 64.3 79.6 97.7 109.4 119.7 128.5 136.6 142.2 146.9 150.4 154.5 159.9 165.7 171.7 178.6 186.6 193.5 200.4 206.4 212.1 217.3 220.6 223.4 226.6 229.3 231.9 233.7 236 239.6 243.3 247 250.7 254.2 258.1 262.2 266.2 270.5 274.8 279 282 283.2 283.8 284.7 285.4 285.1 284.6 284.2 283.3 281.2 278.7 274.8 270.9 267.4 263.1 259.9 257.4 254.8 252.1 249.2 247.1 244.9 242.5 239.5 235.8 232.1 227.6 222.2 216.8 211.1 206.3 201.9 198.3 192.1 186.6 178.6 169 158.4 148.1 141 136.6 133 128.1 123.7 119.8 117 114.9 113.5 111.1 106.3 101 94.6 87.7 78.9 73.2 68.9 59.4 50.5 62.9 80.5 92.4 106.9 117.2 126.9 134.9 142.2 148.8 156.1 162.9 166.7 170.5 174.1 179.4 184.9 189.1 192.8 194.8 196.9 198.2 199.5 201.4 203.6 206.2 209.2 210.3 207.8 206.9 206.1 204.6 200.7 196.1 194.3 192.3 189.2 187.1 185.9 185.1 183.6 182.7
55.5 58 59.4 59.8 53.9 49.8 49.6 42.7 35.4 35.4 34.6 34.6 40.5 39.6 36.2 35 34.2 32.1 35 34.1 32.9 33.7 32.9 33.2 32.2 31.5 32.2 35.4 36.1 36.1 34.5 32.9 32.8 32.3 33 31.2 29.7 31.4 60 64.1 72.9 76.7 73.6 71.4 74.1 77.8 81.3 83.7 82 76.1 66.9 65 65.7 63.6 60.5 57.8 46.1 31.5 38.5 37.9 39.7 50.4 63.7 78.9 97.2 109.3 119.7 128.7 136.8 143.5 148.1 151.5 155.9 161.6 167.8 174.9 182.2 190.4 197.8 205.4 212.7 219.7 224.6 227.5 230 233.5 236.4 238 239.3 240.9 243.6 247 250.6 254.5 258.3 262.2 266.1 269.9 274 278 281 283.3 284.6 284.7 284.8 285.5 285.4 285.6 285.4 284.6 283.3 281.5 278.4 274.6 270.4 266 261.8 258.4 255.3 252.4 249.6 247.2 244.9 242.5 240 236.2 232.4 228.2 222.8 217.7 212.2 207.1 203.2 199.1 195.5 190.5 183.6 174.6 166.7 157.2 148.4 141.4 136.4 131.6 126.8 122.5 120 117.6 115.6 112.9 109.1 104.6 100.2 95.1 89.4 82.5 75.1 61.8 53.8 66.3 79 92.7 108.5 119.3 126.3 133.7 136.9 143.2 151.7 159.7 163.6 167.3 171 177.4 183.7 188.2 191.3 193.6 195.6 197.3 199.2 201.5 203.7 206 209.4 214.3 209.3 206.7 206.6 204.9 201.1 196.1 195.2 193.2 190.1 188.1 187 186.5 185.8 184.7
62.8 66.1 68.6 68.4 65.5 60.6 58.1 54.8 50.9 48.7 48.2 47.7 50.5 51.2 43.1 36.3 34.3 32.7 33.8 30.7 32.1 32 31.6 31.5 31.4 31.2 31 30.4 31.4 30.4 28.1 30.6 28.1 27.5 29.7 26.9 26.8 49 67.3 74.8 79.9 82 82.8 79.5 81.4 85.4 89 90.3 91.3 83.5 72.2 70 70.2 66.7 61.1 55.5 37 28.1 42.7 39.9 48.7 59.6 70.5 86.5 98.2 110.2 119.9 128.9 137 143.4 148 151.9 157.2 163.5 170.2 176.8 184.3 192.4 201 208.8 217 224.6 229.3 233.4 235.2 237.2 239.7 241.2 242.5 244.7 247.3 250.5 254.2 258.2 262.3 266.2 270 273.8 277.1 278.9 281.2 283 284.8 286 286.1 286.2 286.4 286.5 286.5 285.9 284.8 283.2 280.9 277.7 273.4 268.8 263.9 259.5 256.2 252.8 249.9 247.5 245 242.5 240.1 236.6 232.7 228.8 224.2 219.1 214 208.7 204.5 201.5 198.5 194 188.1 181.1 173.5 164.6 154.9 146.8 139.8 134.1 129.1 125.5 122.7 119.6 117.1 114.4 111.1 105.9 101.8 97.9 93.2 84.7 73.1 61.5 55 66.7 77.2 88.8 101.7 113.4 117.9 116.9 124.3 138.6 146.5 155.9 162.1 166.5 171.1 177.6 185.1 189.5 192.7 194.8 196.1 197.9 199.6 201.8 204.1 206.6 209.2 218.3 213.1 211.1 207.8 205.4 202.4 199 195.7 193.6 190.9 189.2 188 187.4 187.2 186.8
73.1 77.2 79.7 80.3 77.9 72.4 66.4 67.6 66.2 62.6 57.2 61.1 59.9 56.3 51.2 44.5 41.4 31.4 32.1 37.4 38.2 35.6 33.4 32.7 31.9 31.7 31.7 31.2 31.4 33.2 33.4 33.1 34 36.7 40.6 42.3 52.2 67.5 77.4 82.4 86.9 87.6 93.6 91 90.2 87.2 88 85.9 83.3 79.2 71.4 68.5 66.8 63 56.6 49.2 36.7 33.4 46.2 44.8 59 67.3 79.7 88.6 100.5 111.2 121.1 128.8 137 144.6 148.9 152.2 157.9 165.9 173 178.6 185.7 193.1 202 210.3 218 225.5 229.6 235.6 237.7 238.8 240.4 242.7 244.5 246.7 249.9 252.9 257 261.3 265.8 269.7 273.3 275.9 277.6 279 280.7 282.3 284.4 286.3 286.8 286.9 287 287.2 287.6 287.5 286.5 284.4 281.8 279.2 275.9 270.8 265.7 260.8 256.7 253.3 250.3 248 245.6 243.1 240.4 237.8 233.5 229.2 225 221.2 216 211.4 208.9 205.6 202.1 197.3 191.2 184.2 177 168.4 160 151.8 144.7 138.1 132.8 127.7 124.2 120.9 118 114.5 111 103.6 96.8 92.2 86.8 78.7 68.5 61.2 54.1 64.2 73.2 82.1 92.4 99.9 97.1 94.6 117.3 137.9 147.7 154.7 160.9 167.1 172.8 176.8 185.1 191 194.4 196.7 197.4 198.6 200.3 202.3 204.6 207.1 209.5 222.1 216.8 218.7 210.2 203.6 203 199.6 196.7 194.2 192.2 190.2 189.2 188.8 188.6 188.8
88.8 89.7 91.4 92.3 92.2 90.9 88.2 77.9 76.7 77.6 75.4 75.8 73.1 67.3 61.8 55.1 53.8 53 51.2 49.3 47.7 44.8 41.2 39 36.6 41.4 42.9 40.6 37.3 36.7 40.1 45.1 47.9 54.6 59.7 64.6 76 85.2 93.9 86.5 92 95.9 98.7 92.7 86.9 80.8 79 76 73 69.3 65.1 61 59 58.3 54.2 38.8 37.7 35.5 48.5 53.6 65.4 72.7 82.7 93.2 103.8 113 121.9 128.7 136.4 145.1 149.8 153.1 159.7 167.9 174.5 180.6 187.8 196.3 202.6 207.4 214.2 221.2 227.1 233.9 236.8 236.9 239 241 244.3 247.3 251.2 255.1 259 264.2 268.8 272.1 274.4 275.7 277 278.6 280.3 281.8 283.2 285 286.8 286.9 287.3 287.5 287.9 288.4 287.1 285.4 282.7 280.1 277.2 273.1 267.3 261.8 257.3 253.9 250.7 248.3 245.9 243.7 241 238.2 233.9 229.9 226.1 222.7 219.3 216.2 212.8 209.3 205.8 200.3 193.2 186.3 179.4 172 164 156.1 148.4 141.2 135.2 129.3 125.6 120.8 116.7 112.7 104.5 95.8 89.1 82.9 77 68 59.4 59.9 56.4 54 67.3 76.6 83.6 86.7 85.9 87.6 107.7 133.3 143.3 150.3 157.1 164.6 170.7 177.9 186 192 195.3 197.4 198.3 199.6 201.1 202.8 205.2 207.6 210 218.7 216.6 218.1 211.5 211.1 204.2 201.4 198.2 195.8 193.9 192.1 190.8 190.8 190.9 191.7
104.1 104.4 103.7 104 103.4 102.8 103.2 100.8 97.8 96.8 93.2 91.7 87.9 79.7 71.1 67 64.3 62 61.5 57 53.1 53.5 53.9 51.2 49.2 53.6 51.4 48.9 50.6 54.5 59.8 68.2 72 76.4 81.8 87.3 92 98.4 101.4 93.6 97.2 100.5 91.4 84.5 78 73.8 69.9 67.5 64.7 62.3 59.1 55.8 52.6 51 50.4 37.5 39.7 32.2 54.5 53 69.2 76.4 87 97.2 105.9 114.5 122.1 128.9 135.8 144 149.5 153.8 160.7 167.9 175.2 182.8 190.3 196.8 199.1 204.5 210.6 216.7 224.4 230.9 233.6 235 237.2 239.4 243.1 247.4 251.8 256.1 260.6 266.4 270.4 272.5 273.9 275.1 276.5 278.2 279.9 281.4 282.4 284.1 286.2 287.2 287.7 287.8 288.1 288.6 287.9 286.1 283.5 280.7 277.7 274.5 268.3 263 258.1 254.4 251.3 248.7 246.3 244.4 242.1 238.9 234.8 230.9 227.5 224.6 222.3 219.3 215.9 212.4 208.7 204 195.5 188.7 181.8 174.8 166.6 157.3 150 143.4 136.9 130.7 125.2 119.9 113.4 105.1 94.2 87.3 82.6 77.1 67.8 70 68.1 63.8 66.4 61.8 54.3 57 59.2 77.3 83.7 87.3 95.2 125 139.5 146.3 155.7 163.1 169.7 178.2 186.6 193 194.6 196.3 198.1 199.9 201.6 204.1 206.5 208.9 210.4 217.3 214.8 220.6 210 206.9 204.7 202.7 199.6 197.5 195.7 194.1 193.5 193.9 194.4 195
110.2 111.5 110 110.6 108.3 107 107.5 104.9 102.4 101.2 100 99.3 97 90.9 83.2 79 75.7 72 68.5 66.1 62.8 61.6 62.3 63.8 61.2 59.4 58.8 61.4 64.6 70.3 74.8 78.2 81.5 86.3 90.7 94.9 99.7 104.7 105.9 101.6 101.8 92.9 83.5 77.5 72.2 67.4 63.5 60.3 57.1 54.2 51.5 47.7 45.1 41.7 38.3 39.6 43 30.4 63.2 50.6 65.4 77.9 84.5 94.9 104.5 111.7 118.6 126.3 135.1 142.6 148.2 154 160.4 167.6 175 182.5 189.6 193 196.3 201.1 207.1 213.1 220.4 226.2 230.8 233.1 235.4 238.4 242.2 246.8 251.5 255.4 260.6 266.2 270 271.8 273.1 274.1 275.8 277.6 279.3 280.7 281.7 283.3 286 287.6 286.9 288 288.4 288.5 287.9 286.6 283.6 280.7 277.7 274.5 269.3 264.3 259.2 255.3 252 249.2 246.8 244.9 242.5 239.2 235.4 232.4 229.1 227.2 224.4 221.3 217.9 214.2 210.6 206.3 197.6 190.6 183.8 176.6 168.5 159.5 152.4 144.6 137.9 130.7 122.4 114.6 106.2 94.8 86.8 82.3 79 72.8 77 76.8 74.4 70.8 80.3 79.7 69.4 60.5 67.7 74.3 80.3 85.1 89.6 114.1 135 144.6 154.4 161.8 170 178.5 187.7 193.7 195.7 196.8 199 201.1 202.7 205.6 208.1 210.5 211.8 212 211.9 213.6 209.9 208.1 205.4 203.4 201.4 199.1 197.9 197 196.6 197.3 197.9 198.4
113.4 115.4 115.5 115.5 112.9 112.3 112.7 111.2 110.9 110.8 110.6 108.5 104.4 99.4 94 90.1 87.1 83.7 79.3 74.6 74.7 74.4 73.4 72.9 68.1 72.7 71.6 75 77.7 79.7 82.3 85.3 88.9 93.2 97.8 103.4 108.8 111.6 107.7 104.6 96.8 85.8 77.5 72 66.8 62 57.3 54.3 50.6 47.3 45.2 39.8 39.8 38 29 32.5 37 55.1 72.2 65.9 55.6 62.1 77 87.3 98.2 107.6 114.5 121.6 130.3 139.1 146.6 152.6 159.4 166.1 173 180.3 186.9 190.5 194 198.4 203.6 209.7 215.4 221 226.4 231.3 234.6 237.7 241.6 246.3 250.3 254.7 260.3 265.6 268.8 270.7 271.9 273 274.9 276.8 278.3 279.7 281.2 283.6 286.1 287.4 287.5 287.8 288.3 288.4 287.7 286.8 284 281 277.7 274.4 270.4 265.5 260.5 257 253.1 249.4 247 245 242.9 239.5 236.3 233.5 230.7 228 225.3 222.6 219.5 216.1 211.8 206.9 200 191.4 184.5 178.2 169.4 160.9 153.6 146.6 139.4 131.3 118.1 108 98 88.7 83.4 78.8 74.4 79.5 83.5 86.4 83.7 79.6 91.9 89.4 82 68.1 66.3 67 70.6 77 87.5 106.5 131.8 143.1 152.9 161.7 170 180.2 188 193 195.5 197.4 200.3 203 205 207.9 210.7 212.3 213.2 213 213 211.4 209.9 207.9 206.1 204.2 202.5 201.5 200.7 199.8 199.5 200 199.9 200.2
118.9 118.8 119.6 120 118.3 118.9 119.6 119.4 119.5 120.5 118.4 116.1 111.2 106.5 103.2 101.5 99.5 95.7 89.9 84.6 86.1 86.7 87.7 80.5 84.5 86.4 85.1 85.1 86 86.9 90.8 93 98 101.8 105.8 110.9 114.4 114.7 108.5 102.6 91.1 80.9 71.5 65.5 60.3 55.5 51.8 49.3 46 43.4 41.5 38.5 38.9 30.1 35.4 42.6 58.1 73.9 79.2 72.9 69.6 68.3 61.8 76.3 89.9 100.3 109.6 116.7 125.2 134.4 143.5 150.8 157.2 163.4 171.6 178.5 184.4 188.5 192.5 196.7 201 206.6 211.6 216.7 222.9 229.3 233.5 236.7 240.1 244.6 248.9 253.8 259.1 264 267.2 268.6 270.2 272.2 274.1 275.6 276.8 278.1 279.9 282.7 285.4 286.9 287.1 287.3 287.9 288.4 288.2 287 284.7 281.4 278 274.9 271.3 266.7 261.9 258 253.9 249.7 247.3 244.8 243 240 237.4 234.7 231.7 229 225.9 222.9 219.9 216.6 212.3 207.5 201.4 193 185.4 179.1 170.3 160.7 154.4 148.6 141.9 132.3 118.7 105.5 96.7 89 83.4 81.1 83.2 87.6 92.5 97.2 95.8 87.9 94.5 95.3 89.1 81.3 74.2 72.9 74 64.2 82.7 99.2 125 139.5 149.5 158.1 167.5 178.7 186.7 191.3 194 197 201 204.7 207.7 210.8 213.1 214.1 214.2 214 213 211.6 210 208.4 207.2 205.6 204.1 203.4 202.9 202.2 201.8 201.7 201.8 201.8
126.4 124.3 123.5 123.4 123.7 125 125.4 125.3 125 124.2 121 118.2 114.2 112.9 112.9 111.9 111.8 106.9 101.4 94.4 97.4 95.8 94.8 88 93.5 95.8 95.1 94.5 95.2 96.6 100.4 103.6 105.5 108.6 111.4 113.5 113.8 112 106.2 97.4 88.5 77.5 65.7 59.1 54.6 50 46.7 43.5 41.3 38.3 36.4 39.5 33.8 34.6 41.2 54.6 72.5 83.9 88.4 87.9 83.1 80.9 75.7 66.9 75.8 91.5 102.2 113.6 119.8 128.6 139 151.3 159.6 164.2 170.7 177.8 182.7 186.9 191.1 195.5 199 203 208 213.4 219.7 227 231.7 235.6 239 242.8 247 251.1 255.5 260 262.9 266.3 268.8 271.3 273.1 274.1 275.2 276.5 278.4 281 283.3 285.2 286.5 286.9 287.4 288.2 288.4 287.1 285.2 281.8 278.4 275.3 272.1 267.6 263 258.7 254.5 250.4 247.3 244.9 242.8 240.7 238 235.2 231.9 228.9 225.6 222.6 219.8 217 212.5 207.7 201.6 194.3 186.4 179.7 170.2 160.4 152.6 148.1 141.4 131.8 118.3 105.3 96.8 90.3 87.3 91.5 94.5 98.6 102.6 104.5 102 95.2 94 99.8 95.9 91.1 88.4 89.1 88.9 71.5 77.3 92.8 116.8 134.2 146 154.2 163.1 173.3 183.4 188.2 192.1 196.1 200.4 205.2 209.3 212.6 215 215.2 215 214.7 214.1 212.9 211.1 208.8 207.9 206.9 206 205.3 204.8 204.4 203.9 203.1 203.1 202.7
132.3 130.3 128.8 128.1 128.8 131.4 131.8 130.8 129.2 126.1 121.9 118.8 116 116 117.7 118.4 119.4 118.2 115.8 109.5 107.7 106.4 104.9 101.5 105.4 104.9 105.9 105.9 106.6 107.8 109.1 111.7 112.6 114.3 115.1 115.7 114 109.5 100.1 90.3 83.8 73.7 60.7 54.9 50.4 46.1 42.6 40.6 38.6 38.8 37.8 39.4 36.6 37.9 51.3 67.5 83.8 94.7 98.5 99.8 97.3 91.3 89.7 92 81 76.8 91.6 103.2 111.8 120.7 133.1 145.6 152 158.6 165.1 172.5 179.2 184.7 189 192.5 195.4 199.6 205.1 210.2 215.8 223.5 230 233.5 236.8 240.1 244.1 248.3 252.6 255.9 258.7 262.1 266.1 269.8 271.9 272.9 273.8 274.9 276.7 278.7 280.9 283.2 284.9 286 287 287.8 288.2 287 285.1 282.3 279 275.6 272.5 268.6 264 259.4 255.2 251.1 247.7 245.3 242.9 241 238.6 235.8 231.8 227.6 224.6 221.8 219.1 216.5 212.6 207.3 200.7 193.3 186.7 179.1 168.9 160.2 151.5 145.9 139.3 131.1 118 106.1 97.1 96.2 103.5 106.8 107.4 110.3 110.6 108.2 105.5 100 93.9 102.7 100.2 98.1 95.8 95.9 96.5 86.2 67.1 83.8 101.4 124.3 142.7 151.1 159.2 168.1 177.1 184.4 190.9 195.6 201 206.1 210.4 214.2 215.8 216.1 215.8 215.4 214.9 214.3 212.2 210.2 209.4 208.5 207.9 207.2 206.7 205.9 205.1 204.5 203.8 203.5
138.1 136.4 135.1 135.6 137.9 140.1 139.4 137 133.8 128.4 124.1 121.6 119.7 121.3 123.7 127.2 129.2 129 124.6 119.8 116.2 113.9 112.1 110.4 110.5 112.3 113.8 115.6 116.7 117.1 118.4 119.8 120.3 119.3 119.3 119.6 116.8 110.1 98.6 88 79.7 67.6 56.9 51.1 46.5 42.8 40.6 39.1 38.8 39 36.7 38.3 35.4 45.8 62.8 79.5 93.7 103.7 107.8 109.6 109.5 104.5 98.8 96 95.3 89 81.2 98.2 106.1 114.9 122.2 131 143.8 151.9 159.1 167.8 175.8 182.1 187.1 190.4 193.4 197 202.3 207 211.9 218.8 226.5 231.1 234.4 237.7 241.4 245.3 249.1 252.2 254.5 258 263.1 268.1 270.5 271.6 272.5 273.3 274.8 276.6 278.9 281 283.7 285.2 286.3 287.1 287.5 286.9 285 282.9 279.5 276.1 272.8 269.3 264.9 260.2 255.7 251.8 248.4 245.6 243.2 241.1 238.9 236.2 232 226.5 223.2 220.7 218.2 215.1 210.9 206 198.5 192 185.5 177.3 167.9 159.3 151.2 143.5 135.4 126 115.6 107.5 99.9 106.8 114.7 117.6 118.2 117.3 114.2 111.6 108.5 104 95.1 105.4 103.7 102 100.7 102.1 103.2 99.3 89.4 70.8 84.4 111.5 137.4 147.2 155.3 164.1 173.4 182.1 189.5 195.8 201.4 206.9 211.2 215.3 217.6 217.2 216.5 216 215.6 214.9 214 211.5 210.8 210.1 209.5 208.9 208 207.1 206.3 205.5 204.7 203.8
146.3 144.2 144.7 146.3 148.4 148.1 148.2 144 137.1 131.4 127.7 126.2 125.3 126.3 129.8 133 133.3 132.7 130.4 128.8 124.6 120 117.2 115.5 116.2 118.4 120.6 121.6 122.2 123.2 125.7 128.3 126.4 125.4 125.1 124.3 119.8 112.1 98.7 87.6 78.2 63.1 53.8 48.5 44.1 41.7 40 39.8 42.6 37.5 33.2 37.3 46.2 59.1 73.9 90 103.9 111.3 114 115.7 116.4 114.2 109.5 104.8 102.3 99.6 97.7 88.4 98.1 107.5 116 119.3 131.9 146.2 156.7 164.4 172.8 179.1 184.3 188.3 191.7 195.4 199.6 203.7 208.4 214.8 222.7 228.5 231.6 234.6 238.1 242.2 246 248.9 251.7 255.4 260.5 265.8 268.6 270 270.8 271.7 273.1 274.6 277.1 279.9 282.6 284.5 285.6 286.3 286.8 286.1 284.8 282.5 279.7 276.4 273.2 269.7 265.5 260.9 256.3 252.8 249.5 246 243.6 241.1 238.8 236.5 231.9 227.4 223.4 219.7 216.6 213 208.5 202.4 195.7 189.7 183 174.3 165 157.1 148.7 140.9 132.5 120.5 116.8 111.1 102.9 111.2 119.1 123 123.3 121.2 117.8 114.9 111.7 107.7 98.6 106.4 107.3 107.4 107.8 108.9 110 109.3 101.2 81.6 86.4 104.4 132 143.1 151.8 161.9 171.1 180.1 187.8 195.5 201.3 207.3 211.9 216.1 218 218.1 217.2 216.5 215.8 215 214 213 211.9 211.3 210.8 210.4 209.9 208.9 207.8 206.6 205.6 204.7
150 149.8 152.3 153.3 153.6 152.9 152.3 148.3 141.1 135.6 132.9 131.8 129.8 129.5 132.4 133.4 133.3 132.8 132.4 130.9 128.1 124.5 122 120.4 120.9 121.8 123.6 124.8 125.8 127.6 130.8 133.5 132.2 131.3 130.1 128.8 123.6 113 98.7 84.5 75 62.2 51.9 46.8 43 41.3 40.2 39.6 39.5 37.5 36.8 46.4 60.1 72.4 86.6 101.1 110 114.9 117.7 119.6 121.5 122.2 120.2 117.6 111.7 107.1 106.1 99 97.2 99.1 103.6 110.9 130 147.8 153 160.7 169.4 175.1 180.8 185.3 189.1 193 197.1 201.1 204.9 211.3 218.5 224.4 227.8 231.4 235.2 239.1 242.8 245.7 249.4 253.3 257.8 262.6 266.2 267.9 268.9 270 271.5 273.2 275.4 278.3 281.1 283.1 285 285.7 286.1 285.3 284.3 281.9 279.3 276 272.8 270.2 266.1 261.5 257 252.8 249.1 246.2 243.7 241.3 238.8 236.5 232.6 227.9 223.6 219.6 214.5 208.2 203.7 198.6 192 186.3 179 170.3 161.6 153.2 145.6 138 128.6 117.9 118.7 116.3 106.9 109.3 121.1 126.2 127.3 125.2 121.7 118.2 114.9 110.3 101 108.3 111.6 112.4 113.6 114.7 115.7 115.3 107.3 84 89.5 106.6 130.5 142.6 152.7 162 170.1 178.1 186.7 195.1 201.9 207.7 212.4 216.6 218.5 219 218.1 217.1 216.3 215.8 214.9 213.9 213.1 212.6 212 211.5 210.9 210.1 209.4 208.4 207.3 206.3
150.2 153.1 155.2 154.5 153.2 151.9 150.3 148.6 143.7 143.3 141.7 139.4 137.5 134.4 133.7 134 133.8 133.9 134.1 133 131.1 128.6 126 125.1 125.5 126.1 126.5 127.9 128.7 131 132.5 134.5 134.9 133.9 133 131.3 124.8 114.4 101 84.6 72.3 60.3 50.6 45.5 42.1 41 40.7 43.7 38.9 33.2 40.7 57 71 83.5 96.5 106.4 113.3 117.2 120.4 123.3 125.2 127.1 127.3 127.6 127.5 123.3 116.2 113.2 114.1 112.5 111.7 107.8 122.9 138.1 145.6 154.8 164 170.6 175.5 180.5 185.1 189.7 194.2 197.9 201.4 207.2 214.4 220.8 224.7 228.6 232.3 236.3 240.3 243.8 247.5 251.4 255.1 259.3 263.2 265.7 267.5 268.9 270 271.8 273.7 276.3 279.1 282.3 284.1 285.1 285.1 284.5 283.5 281.1 278.6 275.6 272.6 270 266.3 262 257.7 253.4 249.4 246.4 243.8 241.2 239 236.6 233.4 227.4 223.2 219 212.8 205.9 198.7 193.5 187.8 180.6 172.7 162.3 153.6 144.9 139.4 134.2 129.4 128.1 124.5 119.1 113.6 112.5 121.4 128 130.2 129.3 126.2 122.5 118.7 113.5 103.4 110.9 116.1 116.7 117.9 118.8 119.6 118.3 112.4 90.5 90.6 108.1 132.3 144 152.9 161 168.9 176.6 186.5 195.3 202.1 208.4 213.3 216.9 219.1 219.8 218.9 218 217.5 217.1 216.2 215.3 214.4 213.8 213.4 212.4 211.8 211.1 210.6 209.7 208.7 207.4
147.8 152.5 155 154.4 153.5 151.7 150.2 148.3 147.7 151.5 150.1 148 145 142.3 140.7 139.3 137.6 138 138.6 139.8 137.8 134.6 131.5 130.8 132.1 132 131.2 132.6 135.1 135.9 135.3 135 134.5 133.4 133.2 129.5 122.6 112.5 100 82.5 71.5 59 49.7 44.9 42.6 42.2 42.1 43.3 40 36.2 46.7 63.1 77.4 90.6 99.5 107.2 112.7 117.6 122.8 127.1 130 132.5 134 134.3 134.8 133.4 132.5 132 130 127.9 123.7 119.3 115.3 119 135.2 147.4 155.4 162.6 168.5 174.6 180.5 185.4 189.7 193.2 196.9 202.4 210.8 218.5 221.8 225 230.1 234.3 238.1 241.7 245.4 248.7 252.1 255.9 260.4 264.2 266.3 268 269.2 270.8 272.6 274.7 277.6 281.1 283.2 284.5 284.5 283.7 282.8 280.3 277.9 275 272.4 269.8 266.3 262.5 258.1 253.8 249.6 246.5 243.6 240.8 238.6 236.6 232.5 227.6 222.3 217.6 209.5 198.7 193.1 186.8 181.1 173.6 168 164.7 161.1 155.1 149.2 144 140.9 135.5 129.2 122.2 118.8 117.7 123.3 131 133.4 132.8 130.6 126.6 121.6 117.2 109.6 111.2 118.3 118.9 120.5 121.7 122.4 121.1 117.1 105.5 81.2 106 126.4 142.1 151.6 159.9 166.9 175.4 184.4 194.5 201 207.5 213.1 217.2 219.8 220.4 220.2 219.4 218.9 218.4 217.5 216.6 216 215.5 215 213.9 212.7 212.2 211.7 210.9 209.7 208.4
144 149.3 152.4 155.7 156.2 156.1 154.5 151.9 150.2 153.3 153.2 151.6 150 148.2 147.1 147.7 145.5 145.7 146.4 148.3 145.7 141.3 140 139.9 140.8 139.2 137.9 140.1 142.5 143.6 139.7 136.8 134.4 131.5 127.3 125.5 120.5 109.5 99 77.4 60.9 57.3 48.7 45.2 43.7 43.1 43 41.2 39.6 39.9 52.1 67.2 81.1 92.4 100.7 106.5 111.9 118.3 125.3 129.8 134 137.5 139.7 140.9 141.4 142.5 143.4 144 144.3 143.9 145.7 141.7 132 126.3 124.9 134.7 145.9 154 161.7 169.1 175.6 180.8 184.5 187.7 191.1 197.6 205.8 213.5 216.7 221.2 227.5 232.3 235.8 239.4 242.9 246.3 250.2 254.3 259 262.6 265.4 266.9 268.4 269.7 271.3 273 276 279 282 283.5 284.1 283.6 282.3 280 277.4 274.9 272.3 269.7 266.4 262.5 258.5 254 249.7 246.2 243.3 240.5 238.2 236 233 228.7 223.2 216.7 206.7 205.3 202 198.3 194.1 188.6 183.2 177.2 172.6 166.3 159.5 153.1 148.3 141.1 134 128.4 124.6 126.6 129.1 133.5 136.6 136.1 133.8 129.4 124.8 121.2 115.3 111 120.6 121.7 123 124.1 124.6 123.5 119.1 111.3 87.9 103 121.5 139.7 148.9 157.7 165.3 173.4 182.4 191.8 199.1 205.6 211.6 216.6 219.1 220.9 220.9 220.5 219.9 219.4 218.7 218 217.6 217.2 216.4 215.1 214.6 214.2 213.5 212.1 210.9 209.7
142.8 147.6 153.1 158.3 161.2 161.2 158.9 156.1 152.7 153.7 154.6 153.3 152.1 150.7 150.5 150.7 150.3 150.4 150.6 150.1 149.2 147.4 147.3 147.8 146.8 145.5 144.5 145.1 145.9 146.8 143.5 135.8 131.6 128.8 127.6 119.3 115.5 105.2 94.9 70.8 54.8 49.6 47.2 44.7 44 43.8 45.2 41.2 38.8 43.4 56.3 71.5 86.2 95.5 100.7 106.6 112.8 119.1 126.3 132.5 137 140.4 142.9 145.4 148.2 151.3 154.3 156.1 157 158.3 158.9 156.2 153.6 145.5 137.9 136.9 136.9 147.2 155.3 163.6 169.8 174.6 178.6 182.1 185.4 191.7 197.8 203.1 208.8 216.1 224.3 229.4 233.4 238 241.9 245.8 250 253.7 258.2 262.4 264.2 265.7 267.2 268.8 270.1 271.4 273.6 277.2 280.6 282.4 283.6 283.2 281.9 279.8 277.3 274.7 272.2 269.7 267.1 263.6 260.1 255.8 250.5 246.5 243 240.1 237.6 235.2 232.6 226.3 218.3 216.1 215.8 212.3 209.3 205 199.9 195 190.5 186.9 182.2 175.8 168.9 162.5 155.6 147.9 140.3 134.1 131.9 133.9 135.2 137.5 139.8 139.1 136.5 133.4 129.6 125.1 117.8 111.8 123.2 125.1 125.6 126.2 126.8 124.9 119.7 107.7 93.1 99 119.5 139.1 147 155.7 163.6 171.5 180.3 188.7 196.4 203.2 209.9 215.7 219.5 221.2 221.8 221.5 220.8 220.2 219.6 219 218.7 218.2 218.1 217.2 216.6 215.8 214.7 213.5 212.3 211.1
144.2 147.8 153.7 161.5 167.6 167.2 163.6 160.3 156.2 155.1 156.3 155.1 154.2 153.3 152.8 152.5 152.3 152.4 152.4 151.6 150.7 150.8 151.1 151.2 151.2 150.3 148.9 148.2 148 148.7 145.8 136.7 128.8 126.5 124.1 117.9 110.3 100.4 88.7 71.1 51.5 47.2 37.4 36.9 41.1 42.6 47.9 40.4 35.2 50.4 61.3 76.8 92.3 98.6 103.6 109.8 115.1 121.5 128.7 134.2 137.8 141.3 144.4 148.2 153.1 160.2 165.5 168.7 169.1 169.8 170.7 171.5 170.1 165.3 158.3 153.2 148.7 141 147.4 157.9 162.6 167.4 171.7 175.9 179.1 182.5 187.5 192.8 200.1 208 221.3 226.2 233.2 237.9 242 245.9 249.7 253.5 258.4 261.7 263.3 264.9 266.4 267.8 269.5 270.9 273.2 276.1 280.1 281.6 283.3 282.9 281.4 279.6 277.1 274.9 272.8 270.5 268.2 265.1 261.7 257.7 252.6 247.5 243.6 240.5 237.9 235.4 232.4 227.9 226 223.6 221.1 217.6 213.8 209.6 205.2 200.7 197.2 193.4 189.2 184 177.5 171.3 164 156 147.8 140.9 140 139.8 139.9 141.5 142.8 141.8 139.2 136.1 132.2 126.8 122.2 118.8 123.4 128.1 129.5 129.4 129.6 126.8 120.7 108.7 88.6 98.7 117.2 139.4 145.8 153.6 161.8 169.8 178.2 186.1 193.8 200.4 207.9 214.5 219.1 221.6 222.2 223 222.7 222.1 221.3 220.7 220.7 220.6 220.4 219.7 218.5 217.1 216 214.8 213.6 212.4
145.6 148.6 153.9 163.1 170 170.7 167.7 163.8 159.9 160.1 160.1 159.1 157.9 156.3 155.6 154.9 154.4 154.6 154.1 153.3 152.8 152.8 153 153.5 153.4 152.9 152.2 150.5 149.2 149.1 145.6 137 128.4 125.4 121.3 115.5 106.2 95.3 83.1 68.2 49.1 41.6 41.2 40.8 39.2 38.9 39 37 50.6 59.7 70 83.9 96.5 101.9 108.3 115.5 121.6 126.1 130.9 135.2 138.7 142.1 145.4 150.6 159.8 168.9 176.1 179.5 179.5 179.6 179.7 180.2 180 178.7 176 173.2 167.3 159.8 158.2 159.4 159.1 158.1 164.9 169.9 176.6 187.1 194.5 201.4 210.5 218.4 224.2 229.3 233.1 238.3 242.3 246.2 250.2 254.3 257.9 260.9 262.4 264 265.9 268.2 270.1 273.3 275.4 277.6 281 283.3 284.4 283.4 281.7 279.7 277.8 275.7 273.6 271.4 269 266.5 263.1 259.6 254.8 250.4 245.9 242.4 239.5 237 234.4 232.6 230.8 228.8 225.6 221.6 217.2 213.3 209.5 205.4 202.3 199 194.5 189.8 184.8 178.8 172.3 164.3 156.3 151 147.8 146 144.9 144.9 145.7 144.5 141.4 138.6 135 132.7 128.6 126.1 122.3 130.6 131.7 132.5 131.3 128.5 121.7 109 93.2 94.1 112.6 136 144.8 152 160.1 167.9 175.5 183 190.7 197.9 205.3 212.6 218.3 221.8 222.9 224.1 225 224.4 223.8 223.4 223.7 223.5 223.1 222.2 220.7 219.2 217.5 215.8 214.3 213
148.1 151.4 155.8 162.5 167.7 168.9 167.2 165.3 163 164.8 164.8 163.3 162.5 160.8 160.5 158 157.3 157.2 157 156 155.2 154.8 154.7 154.9 154.7 154.7 154.1 151.6 149.7 148.7 145.3 137.3 127.7 123.5 119.1 113.1 102.7 91.1 77.5 65.5 48.4 41 41.9 42.7 41.6 43.4 40.9 52.4 60.3 69.5 78.1 89.8 101 105.9 111.8 118.3 123.6 128.7 133.3 136.7 140.1 143.8 148 154.6 165.7 175.6 183.1 186.6 187.5 188.3 188.1 189.5 189.8 189.7 188 185.6 182.4 177.7 176.2 176.9 175.2 169.4 169.3 178.7 189.8 199.7 206.7 213.5 218.9 223.4 227.7 232.3 235.9 239.9 242.2 246.7 249.7 254.5 258.2 260.1 262.1 264.1 266 267.7 271.2 274.4 276.8 279.5 282 284.5 285.5 283.9 282.4 280.4 278.6 276.6 274.4 272.2 269.8 267.4 264.4 260.9 257.2 253.4 248.9 244.5 241.4 239.1 237.1 235.5 234 232 229.1 225.4 220.3 216.4 213 209.7 207.6 204 200.5 195.6 189.7 184.1 177.7 170.6 163.7 161.8 156.6 153.1 150.9 150 148.9 147.1 143.8 140.5 138.7 136.3 133.3 130.4 127.5 133.2 133.5 134.1 132.4 129.3 124.6 113.9 98.1 85.2 103.9 126.9 142.8 151.1 158.7 165.5 172.3 179.8 187.7 195.8 203 210.7 217.2 221.5 223.6 225 226 226.9 226.4 226.4 226.5 226 225.4 224.1 222.5 220.7 218.9 217.2 215.5 213.9
151.5 155.3 158.8 163.4 167.1 167.9 167.1 166.5 165 165.5 166.6 166.7 166 166.3 168.1 167.3 166.4 164.6 162.1 160.1 158.4 158 157.4 156.7 156.1 155.5 155 151.7 149.9 147.8 144.1 135.8 127.6 122.4 116.9 108.5 98.2 84.8 72.9 60.8 47.5 41.7 43 44.9 47.6 50.1 52.9 54.8 65 74.4 83.9 93.4 103.1 109.3 114.1 119.2 124.9 130 135 139 142.5 146.7 151.7 159.9 170.8 180.6 188.8 193.9 193.9 194.3 195.2 196.6 198.1 198.4 197.8 196.5 194 190.7 189.2 190.3 188.7 178.7 179.1 188.6 198.8 207.5 213.5 218.6 222.6 226.9 231.2 235.2 239 243 245.6 249 252.8 255.4 258.6 260.4 262.2 264.4 266.7 269.4 272.2 275 277.3 279.6 282.7 285.2 286.4 285.1 283.1 281.3 279.6 277.4 275.3 273.2 270.9 268.4 265.6 262.7 259.4 256.4 252.4 248 244.5 241.9 240.2 238.4 236.8 234.7 231.5 228.1 224.5 220.6 217.4 214.1 212 209.6 205.9 201.5 195.4 189.9 182.9 175.3 173.8 170.2 165.5 160.8 159.7 158 155 150.9 146.9 144.4 142.2 139.9 137.9 135.1 130.8 136.3 135.9 135.7 134.4 132.4 128.6 120.4 105.5 90.5 100.7 125.1 142.6 149.2 155.9 163.1 169.8 177.3 185.3 194 202.2 210 217.2 221.3 224 225.3 226.7 227.6 228.5 228.7 228.7 228 226.9 225.3 223.7 222.1 220.4 218.6 216.9 215.2
155 159.3 163 166.6 168.7 169.1 168.4 167.8 166.9 166.5 167.4 167.6 167.7 170.7 174.3 176.6 175.7 173.6 171.9 170.7 168.4 165.4 162.9 160.2 157.9 156.4 155.1 153.1 150.3 147.3 143.4 134.7 127.2 120.9 114.7 105.4 95.7 81.6 68.3 57.5 47.6 40 43.2 46 51.2 54.3 60.5 66.1 62.8 74.7 83.1 95.2 103.7 110.5 115.3 120.3 126 131.2 136.9 141.4 145.4 150.2 156 165.7 175.3 184.1 192.3 197 197.8 198.9 200.4 201.9 203.6 204.9 204.7 204.4 203.2 201 199.5 200 198.3 189.5 184.9 194.1 204.2 211.6 217.4 221.9 226 230.4 234.9 239 241.3 245.8 249.3 252.3 254.4 257 258.9 260.9 263 264.8 267 269.8 272.8 275.2 277.5 279.9 282.8 285.8 287 285.6 283.8 282 280.5 278.4 276.3 274.2 272.1 269.4 266.6 263.8 261.4 259.2 256.1 252.7 248.4 246.5 244.7 242.6 240.2 238.2 235.1 232 228.6 225.2 221.7 217.7 215.4 213.3 210.5 206.6 202.1 195.9 186.6 184.6 183.2 178.5 173.7 170.2 169.2 168.4 166.6 158.2 152.2 148.4 145.9 143.7 141.6 137.6 138 139.3 138.6 138.1 137 135.2 131.6 123.1 110.3 93.9 104.2 125.2 139.9 147.1 153.1 160.6 167.2 174.8 183.1 192.2 200.6 209.5 216.7 221.6 224.1 225.4 226.7 227.8 228.8 229.3 229.3 228.7 227.5 226.1 224.8 223.3 221.8 220 218.2 216.5
160.7 163.4 167.4 170 171 170.9 170.5 169.7 168.8 168.2 167.9 168.3 169 172.7 178 180.9 179.8 177.2 176 174.9 174.8 174.7 173.3 169.1 162.5 158.4 155.5 152.7 149.9 148.5 143.2 133.8 126.6 119.8 112.2 104.3 93.4 76.1 67 55.3 47.1 39.1 43 45.2 50.6 57 63.5 70.6 75.4 70.8 85.1 98 106 111.8 117 122.2 127.9 133.9 139.6 144.1 147.9 153.8 160.4 169.5 177.9 186.9 194.4 198.1 200.7 201.7 203.4 205.4 207.4 209.5 210 210 209.3 208.7 209.2 208.6 207.2 200.8 192.2 196.5 206.7 214.8 219.7 224.1 229.6 234 238.5 241.9 245.5 249.4 252 254.2 255.9 257.7 259.7 261.9 264 265.8 267.6 270.5 272.9 275.2 277.7 280.3 283.2 286.2 287.4 285.9 284.4 282.9 281.3 279.2 277.4 275.4 273.1 270.5 267.9 265.3 263.1 261.2 259.1 256.7 254.4 251.3 249.4 247.6 245 241.8 238.9 235.9 233 229.3 225.5 221.5 218.5 215.8 213.6 210.2 206.4 202.1 196.5 195.5 192.6 190.7 186.9 181.1 177.4 175.2 173 165.9 157.7 152.7 149.8 147.1 143.4 141 142.6 142.6 141.5 140.6 139.7 137.7 133.2 125.1 112.8 96.4 99 118.1 134.9 144.8 151.9 158.6 164.8 172 181.3 191.3 200.4 209.7 216.6 221.5 224.1 225.5 226.7 227.6 228.3 228.4 228.9 228.7 227.9 226.5 225.3 224 223 221.4 219.5 217.6
164.2 166.4 170 172.8 174.3 174.6 174 173.1 171.5 170.7 169.8 169.1 169.7 174.1 181.1 184.2 183.2 181.1 179 177.3 176.9 176.1 175.8 174.3 167.8 161.2 156.9 151.2 149.2 147.8 142.2 132 124.8 118.2 111.2 103.4 90.3 74.1 63.7 53.8 47.2 42.7 42.7 44.4 49.2 56.4 64.9 74.9 85.8 89.5 82.9 100.8 106.8 113.8 118.9 124.2 130.2 136.2 141.1 145.4 149.3 156.1 163.7 172.1 180.3 188.5 195.3 199 201.8 204.6 206.8 209.3 211.8 214.3 214.7 215.2 215.4 214.9 215.3 215.7 214 211.8 207.4 205.7 209.2 216.6 222.9 229.5 234.1 237 241.7 245.5 248.9 251.6 253.3 255.2 256.9 258.8 260.6 262.7 265 266.9 268.9 271.2 273.6 276.3 278.7 280.8 283.4 286.3 287.5 286.7 285.3 283.9 282.1 280.2 278.4 276.3 274.1 271.6 269.2 266.9 264.9 262.9 261.2 259.1 256.9 256.1 254.9 252.6 249.9 246.7 243.4 240.4 237.1 234.2 231.2 226.7 222.6 219.3 217.1 213.9 210.9 208.2 205.9 202.5 199.9 197.9 196.5 192.7 186.9 180.1 175.1 169.9 162.2 157.1 153.1 149.7 147.3 145.8 146 145.8 144.6 143.4 142.4 139.7 132.4 124.9 112.7 97 95 108.8 126.7 140.4 148.5 156.6 162.5 169.4 181.1 192.4 200.5 209.7 217.2 221.6 223.9 225.6 226.2 227 227.1 227.6 227.9 228.2 227.6 226.5 225.4 224.2 222.9 222.5 220.8 218.7
165.3 169.3 173.6 180.5 183.3 183 184.1 182.4 178.5 173.9 171.8 170.8 170.6 173.8 184 187 185.8 184.3 182.4 179.8 178 177.4 176.2 175 169.4 163.4 158.3 150.1 147.2 146.1 140.1 131.2 122.6 116 109.6 100.1 88.9 73.8 61.9 52.3 47.3 42.5 41.9 41 45.6 54.1 64.9 73.8 85.4 94 89.6 101.6 108.2 115.7 120.8 126.2 132.1 137.8 142.5 146.7 150.3 157.7 166.2 174.8 183.1 190.4 195.5 199.7 203.8 207.7 210.8 214.2 216.8 219 220 220.5 220.9 221.7 221.8 222.6 222.4 221.6 220.6 219.4 217 220.6 228.2 233.7 238.3 241.9 244.8 248 250.1 252.1 254 256 257.8 259.9 261.9 263.9 266 267.9 270 271.9 274.7 277.6 280.4 282.6 284.6 286.3 287.1 286.8 285.7 284.3 282.6 281.1 279.1 276.9 274.7 272.4 270.1 268.2 266.2 264.5 262.9 261 260.5 259.9 258.5 255.7 253.7 251.3 247.9 243.7 240.4 237.8 235 231.9 227.5 224.1 221.1 218 215.2 212.6 210.3 208.2 204.9 202.6 200.3 198.2 195.9 191.5 183.3 173.8 166.9 162.1 157.9 153.8 150.9 149.1 149.5 148.9 147.7 146.4 144.7 137.6 130.7 122.9 111.6 99.8 88.8 101.3 118.3 133.9 143.7 154.4 160.5 168.1 180.4 192.3 200.3 208.9 216.8 221.4 223.9 225.2 225.1 224.9 224.7 225.3 226.3 227 227.1 226.4 225.3 224.1 223 222.3 221.2 219.1
165.8 169.9 177.1 186.4 190.5 191.4 191.1 190.3 187.8 182.1 177.2 172.7 171.4 173.1 180.9 189.2 188.4 186.8 185.2 182.6 180.1 177.9 176.6 174.7 170.6 164.6 159 150.1 145.4 142.7 136.8 129.4 120.8 113.1 107.2 100.5 88.3 73.6 63.1 54.4 47.1 44.6 44.1 44 41.3 50 58.1 70.5 85.4 95.2 101.3 98.6 109.5 116.6 122.4 127.9 132.7 138.7 144 148.1 153.3 160.3 167.9 176.4 184.8 191.2 196.1 200.5 205.1 209.8 214.3 218.9 222.4 224 225.7 226.3 226.7 227.2 228 228.3 228.3 228.1 227.3 227.3 226.9 226.8 232.9 237.3 241.3 244.8 246.9 249 250.9 252.8 254.8 256.8 258.8 261.1 263.5 265.8 267.8 269.8 271 273.3 276.1 279 281.6 283.2 284.8 286.5 287.3 286.8 285.8 284.5 283 281.3 279.3 277.3 275 272.9 271.3 269.5 267.7 266 264.4 263.6 263.4 262.9 260.7 257.9 255.7 253.2 251.3 248.4 244.3 240.4 237.7 235 232 228.4 225 222.2 219.1 216.6 214.3 212.6 209.2 206.2 203.8 201.1 199.2 196.8 192.2 184.5 174.8 167.3 162.9 159.3 155.2 154 153.2 152 150.7 149.4 147.3 137.7 131.7 122.8 112.9 102.8 92.5 94.1 111.1 126.9 141.3 150.2 156.1 164.2 176.8 189.9 199.6 208 215.5 220.1 222.9 224.7 224 223.3 223 223.3 223.8 225.4 226.3 225.8 224.8 223.7 223.1 222.1 221.2 219.6
168.2 172.8 180.6 189.8 194.8 195.3 194.9 193.6 191.7 188.9 185.1 179.3 173.5 173.1 179.5 190.4 190.9 189.3 187.7 185.3 182.3 179.5 177.3 174.5 170.8 164.7 158.7 150.1 144.6 140.9 134.9 127.5 119.4 111.5 102.8 95.2 84.2 72.6 62.1 53.3 48.3 45.5 44.6 44.5 42.8 49.7 59.6 72.8 85.6 97.1 104.7 102 111.3 117 122.1 127.4 133.7 139.8 144.9 150.5 156.7 163.1 170.1 176.9 184.9 190.8 196.4 200.9 205.5 210.1 214.9 220 224.5 226.9 228.6 230 230.9 231.4 231.6 232.8 233 232.9 232.8 232.4 233.1 234 236.6 240 243.1 245.5 247.7 249.8 251.8 253.7 255.8 257.9 260.6 263.1 265.4 267.7 269.8 271.9 273.3 275.5 277.3 280 282.3 283.8 285.2 286.7 287.6 287.8 288.3 285.9 283.5 281.2 279.2 277 275.3 273.6 272.2 270.7 268.9 267.7 266.7 265.8 265.6 264.7 263.2 259.8 256.4 253.9 252.4 251.3 249.2 245.1 240.4 237.9 234.4 231.3 228 225.4 222.6 220.1 217.7 215.2 212.3 208.8 206.1 203.9 201.6 198.8 195.7 191.3 184.4 176.1 168.6 164.9 161.9 158.6 156.5 155.2 153.5 152.1 150.6 143.4 135.8 126.8 116.6 106.4 98.3 88.1 98.2 119.2 135.3 144.3 150.8 159.1 170.1 185.3 196.2 204.6 211.9 217.2 220.4 222.8 221.9 221.1 220.7 220.9 221.1 222.7 224.4 225.3 224.4 223.5 223.2 222.9 222.1 220.8
171.8 176.2 184.3 192.9 197.7 198.2 197.9 196.3 194.3 191.9 188.4 183.6 176.1 173.6 177.8 191.3 192.1 190.6 188.6 186.7 184.7 181.8 178.6 174.7 170.7 165.9 160.4 153.1 146.6 141.5 135.1 127.9 119 109.6 100.2 91.2 79.1 67.8 58.5 52 47.5 46 45.1 44.5 45.5 51.9 64.7 78.2 90.1 99.3 107 106 111.6 117 123.4 129.4 136 141.2 146.6 152.1 158.7 165.4 171.2 176.6 183.8 190.5 196 200.8 205.1 209.7 214.2 219 223.8 227 229.7 231 232.2 232.8 233.5 234.3 234.9 235.5 236.1 236 236.8 237.7 239.6 241.1 243.7 246.4 248.6 250.8 252.9 255 257.2 259.6 262.6 265.6 268 270.4 272.3 274.1 276.6 278.8 280.7 282.3 283.4 284.5 285.8 287.1 287.8 287.7 288.5 286.7 283.2 281.1 278.9 276.8 275.2 273.9 272.7 271.5 270.3 269.4 268.4 267.5 267.2 266.2 263.8 261.2 257.6 254.5 253.1 251.6 250.7 248 245.4 241.2 236.5 233.9 230.8 227.5 224.6 221.4 219.4 216.9 214 210.9 209.2 206.9 204.4 201.3 198.4 194.5 189.5 182.8 176.4 171.3 167.1 163.7 160.9 158.2 155.8 154.5 153.1 148.1 139.9 128.8 117.7 108 100.1 95.6 95.8 109.9 129 139.6 146.9 153.8 164.6 177.7 190.5 198.1 204.7 211.4 215.7 218 218.7 218.5 217.9 217.8 218.2 219.9 221.6 223.2 224 223.6 223.3 223 222.5 221.4
175.5 180.2 188.5 196.4 199.2 199.8 199.7 198.5 196.5 194.3 190.8 184.2 176.5 174.4 176.9 190.5 192.7 191.3 188.9 187.4 186 183.2 180 175.9 170.7 166.9 162.7 155.1 147.8 141.9 135.4 128 118.2 109.2 100.4 88.3 76.2 64.6 56.9 49.9 46.8 45.7 45 44.9 48.1 56.6 69.9 84.8 94.3 103.1 110.8 113 114.5 118.1 122.3 130.7 137.5 142.7 148.4 154.8 161.9 167.5 172.6 177.7 183.3 189.7 195.6 200.6 205.1 209.5 213.9 218.5 223.2 227 229.6 231.5 232.6 233.7 234.8 235.6 236.3 237 237.7 238.4 239.7 240.5 241.6 243.1 244.8 247.2 249.7 251.8 254 256.2 258.4 261.3 264.6 267.8 271.1 273.9 275.9 277.9 279.4 281.9 283.8 284.7 285.2 286 287 287.7 287.8 287.2 286 284.6 281.3 279.6 278.3 276.7 275.1 273.4 272.6 271.5 270.5 269.6 268.7 268 267.1 266.1 263.6 260.9 258.1 255.2 253.2 251.8 250.9 249.8 247.6 245.7 240.3 235 232 229.4 226.4 222 219.8 217.4 214.4 211.9 210.7 209.6 207.1 204.1 201.1 196.9 192.3 187.2 181.7 176.3 170.4 167.1 163.2 160.8 158.3 156.7 155 152.9 143.9 132.1 119.4 109.7 101.8 97.4 99.7 101.7 120.6 133.8 141.9 148.5 158.6 170.4 181.7 190.9 195.8 202.4 207.9 211.4 213.3 213.6 214.3 214.8 215.6 217.3 219 220.8 221.8 222.1 222.4 222.7 222.1 221.7
180 185 191.8 198.3 200.5 201.4 201.2 200.2 198.6 196.4 192.7 184.9 176.9 175.2 176.9 190.7 192.9 191.8 189.2 187.3 185.2 183 180.7 176.2 170.6 165.3 160.7 154.2 147.8 143.5 136.5 127.8 116 107.7 98.7 86.3 73.8 62 53.8 48.3 46.3 45.5 44.6 47.8 52.5 61.5 79 89.9 99.4 106.9 112.3 116.6 119.2 122.7 127.3 132.3 138.5 143.9 149.4 156.8 164.4 168.1 172.8 177.9 184.2 190.8 196.1 200.8 205.3 209.6 214 218.4 223 227.2 231.3 232.7 233.9 235.4 236.5 237.2 237.8 238.5 239.3 240.1 241.6 243 244.1 245 246.6 248.2 250.5 252.5 254.9 257.2 259.6 262.9 266.1 269.7 273.3 276.8 279.9 281.7 281.6 284.3 286.6 287.3 287.5 288 289 288.6 287.7 286.5 285 282.2 279.9 278.6 277.6 276.3 274.9 273.3 272.2 271.4 270.4 269.5 268.5 267.6 266.8 265.9 263.5 260.6 257.9 255.3 253.2 251.5 250.6 249.6 248.7 247.3 242.8 236.3 233 230 226.5 222.5 219.9 217.8 213.7 212.6 211.6 210.9 209.5 206.4 202.8 198.5 194.1 188.7 184.6 178.4 172.2 166.9 163.9 161.2 158.7 157.2 154.9 151.2 144.6 134.3 122.2 112.1 103.9 96.3 102.3 102.4 109 118.9 131.2 142.4 153.5 165 175.1 182.8 189.1 194.4 198.6 203.1 206 207.2 208.4 211.3 213.1 214.8 216.6 218.3 219.4 220.1 220.7 221.2 221.5 221.3
184 188.7 194.8 200.7 202.4 203.5 202.8 201.9 200.3 198.3 194.9 184.7 177.8 175.9 179.6 187.5 190.9 191.9 189.8 186.7 184.1 182.2 179.9 176.5 170.2 164.3 158.9 152.6 147 142 134.4 126.6 114.7 106.2 96.9 85.7 72.3 59.8 49.8 44.1 45.9 45.9 45.4 53.7 58 71.6 85.1 95.6 104.3 110.1 113.9 118 122.3 126.2 130.5 135.2 140.1 145.3 150.9 157.6 164.4 168.9 173.7 179.7 185.9 192.4 197.3 201.8 206.2 210.3 214.2 218.6 223 227.5 227.4 234.3 236 237.5 238.1 238.7 239.3 240 240.8 241.6 243 244.5 246 247.1 248.3 249.7 251.2 253.1 255.7 258.2 261 263.9 267 270.7 274.5 279 283 284.8 285.1 285.9 288.1 289.2 289.7 290.2 290.1 288.8 287.2 285.7 284.1 282.1 280.3 278.8 277 275.7 274.4 273.1 271.8 271 270 269 268.1 267.3 266.3 265.2 263.5 260.6 257.6 255.4 253.1 251.3 250.2 249.3 248.1 246.7 243.1 237.2 232.4 228.8 225.3 222.5 219.5 216.9 213 211.9 211 210.9 209.8 206.8 203.3 199.1 193.3 187.5 182.6 176.6 169.1 164.4 160.6 157.9 156.4 154.6 151.8 147.4 140.8 130.5 120.9 114.3 106.6 102 107.5 109.9 106.6 100.7 112.9 132.3 146.2 161.9 169.7 175.5 182 188 191.4 195.6 198.3 199.6 201.7 204.8 208.4 211.3 214.2 215.8 217.1 217.3 218.4 219.5 220.1 220.7
188.1 191.9 197 202.5 205.8 205.9 204.8 203.8 202.7 201 195.8 182.1 176.6 177 185.8 193 190.6 190.2 189.7 186.9 184.6 183 179.8 176.4 171.1 165.1 158.9 151.3 145.6 135.4 132.2 125.8 113.8 102 92.2 79.5 65.6 52.3 43.5 46.8 47 48 51.9 62.1 65.8 79.4 90.5 100.1 106.4 112.3 116 119.5 123.9 128.5 133.8 138.8 143.7 148.9 154.8 161.1 167.2 172.6 177.4 182.6 188.7 194.3 198.8 203.2 207.1 211 214.8 218.9 223 227.4 230.4 233.3 235.3 239.6 239.4 239.8 241.2 242.1 242 242.7 244.3 245.8 247.8 249 249.8 250.8 252.4 254.4 256.4 258.8 261.6 264.5 267.7 271.2 274.7 279.1 284.2 286.1 286.5 288.3 290.1 291 291.5 292 291.3 289.9 287.2 284.8 283.2 281 279.7 277.9 276.4 275.1 273.9 272.6 271.1 269.9 269.2 268.3 267.4 266.5 265.7 264.4 262.8 260.2 257 254.7 252.6 250.8 249.4 248.4 246.8 245.3 241.8 235.9 231.8 227.6 223.8 221.5 217.7 215.6 212.1 210.5 209.6 208.7 207.9 205.7 202.6 197.4 190.1 183.3 177.2 172.2 165.7 161.3 157.1 153.9 151.6 148.7 145.1 139.9 135.3 126.9 122.6 119.5 115.3 110.9 117.8 121.7 119.1 108.6 107.1 121.1 135.2 149.1 159.8 168.1 172.2 177.7 183.3 187.8 190.2 192.2 194.8 197.1 200.6 204.9 209.2 212.2 214.8 215.2 216.3 217.5 218.5 220.2
191.1 195 199.5 204.5 208.1 207.9 206.9 206 205 203.4 194.6 179.5 176.9 180.5 194.2 197.1 194 191.5 188.7 186.9 185.3 183.7 180.9 178.3 171.7 163.9 156.2 149.2 143.6 139.5 131.9 128.3 111.5 97.8 85.1 67.4 56.1 45.2 46.8 47.4 49.6 50.2 52 65 74.2 85.9 96.5 103.5 109.4 114.4 118.5 122.1 126.3 131.3 137.1 142.1 148.4 154.9 161.6 168 172.6 176.9 181.6 186.4 191.6 196.1 200.6 204.8 208 211.6 215.4 219.2 222.6 225.8 228.9 232.3 236.9 238.5 232.8 240.7 242.4 242.3 242.5 243.7 245.1 246.4 248.2 249.7 250.5 252 253.7 255.7 257.7 259.6 262.1 264.8 267.5 270.9 273.9 278.4 282.7 285.6 287 288.9 290.9 292.6 293.2 293.5 292.6 290.8 288.2 284.9 281.5 278.9 277.9 276.8 275.7 274.4 273.2 271.7 270.3 268.8 268.1 267.4 266.5 265.5 264.7 263.6 261.9 259.4 256.3 254 252 250.2 248.6 247.5 245.8 242.3 237 234 230.4 227 223.5 219.7 216.1 212.8 210.9 209.1 206.9 205.4 204.3 202.5 199.2 194 186.5 179.4 172.4 166.7 162.5 158.5 153.5 150.2 147.5 144.8 138.6 135.1 132.3 129.8 127.2 128.1 127.3 128.1 131.3 132.7 127.7 111.2 110.4 112.1 120 134.8 148.6 158.3 162.9 167.6 173.4 178.7 183.2 186.8 189.2 190.3 193.3 197.2 203.4 207.5 211.3 212.6 213.8 215 216.6 218.5
194.3 198.3 202.5 206.4 209.8 209.9 209.8 209 208.1 205.4 194.8 179.2 176.3 187.9 200.1 199.5 196.9 193.7 190.2 186.6 185.3 184.7 182.2 179.4 171 163.6 154.6 147.1 141.8 139 137.3 122.8 108.7 94.6 77.7 59.8 50.6 47.4 47.7 49.2 51.3 51.8 55.3 66.7 83 92.2 100.6 106.6 111.6 116.3 119.9 124.2 128.8 134.3 140.1 146.2 154.7 162.8 168.9 174.1 177.7 181.7 185.9 189.8 194.1 198.5 202.7 206.3 209.2 212.5 216.1 219.3 222.5 224.6 227.6 230.9 235 237.2 238.8 241.2 236 242.4 241.3 242.7 244.9 246.6 248.2 250 251.4 253 254.9 256.9 258.8 260.7 262.9 265.3 267.7 269.8 272.9 276.9 280.8 283.8 286.3 288.7 291.4 292.6 293.5 293.6 292 290.2 288.1 284.5 280.4 277.4 275.9 275.6 274.4 273.2 272 270.7 269.2 267.8 266.9 266.2 265.4 264.2 263.6 262.4 260.6 257.9 255.1 252.9 250.9 249.3 247.9 246.5 244.4 240.5 234.7 230.6 228.2 226 223.2 219.6 215.1 210.7 207.5 206.5 204.3 201.9 200.5 198.3 194.2 188.8 182.8 176.5 169.3 164.5 160.2 155.5 150 146.4 145.2 146.1 142.1 138.4 135.3 132.2 132.9 138.4 141.4 140.2 139.6 137 134.3 131.7 126.8 121.8 111.4 122.9 134.5 144.9 152.2 157.6 163.4 169 174.9 179.9 182.9 184.4 186.7 191 197.4 202.6 206.8 209.2 211.1 212.5 214.7 217
197 201.1 204.8 208.3 211.4 213.1 212.8 212.3 211.1 208.4 194.9 178.8 175.5 185.3 196.3 195.9 195.1 192.5 191.4 188.7 184.7 184.6 182.7 179.7 171.3 162.6 154.3 146.2 141.6 133.2 133.1 118.3 104.9 88.3 68.7 56.2 47.6 45.2 49 50.4 51.8 53.1 64.2 73.1 90.1 99.7 104.1 109.1 113.6 117.9 121.5 126.4 131.1 137.1 143.7 151.3 162.1 171.2 176.5 180.2 183.5 187.1 189.1 192.5 196.6 200.6 204.6 207.8 210.8 213.7 216.6 219.4 222.3 223.6 226.4 229.5 232.4 235 237.1 238.9 239.2 239.4 235.7 240.5 244.1 246.3 248.4 250.2 252.1 254 256 257.9 259.8 261.7 263.7 266.1 268.5 270.7 272.9 275.8 279.7 283 286 288.6 291.3 292.4 293.2 292.7 291.2 289.2 287.3 281.9 278.8 276.4 274.5 274.4 273.3 272.2 270.9 269.6 268.1 266.7 265.6 265 264.1 262.7 261.7 260.4 258.7 256.1 253.8 251.6 249.8 248.3 247 245.4 240.8 235.9 232.4 228.5 225.9 223.9 221.7 217.6 213.2 208.2 205 202.9 201 198.3 195.6 192.5 188.4 184 178.5 173.9 168.2 163.5 160.9 156.8 149.4 144.5 147.3 150.6 146.1 140.5 135.3 134.1 139.6 144.1 146.1 145 143.1 139.9 139.4 139.2 138 133.7 119.4 115.2 121.6 131.3 139.8 146.2 152.9 159.6 165.8 170.7 175.2 179.4 182.3 186.1 192.8 197.1 202.8 207.3 209.4 211.3 213 215.9
199.7 203.2 207 210.1 213 214.6 215 214.5 213.7 211.2 197.4 178.6 174.1 178.4 182.2 181.3 180 178.7 183.6 189.6 185.2 183.3 182.1 179.6 172 163.9 154.8 147.4 141.7 131.9 127.4 114.2 97 76.3 62.8 50.6 48.4 47 48.3 49.3 49.9 58.7 70.5 87.3 97.3 102.9 108.1 112 115.4 119.2 123.4 128.7 133.4 140.6 148.2 160.2 173 179.3 183.2 186.4 189.3 191.7 193.7 195.9 199.1 203.2 206.6 209.2 212 214.6 217.2 219.8 221.4 222.5 225.2 227.2 229.2 231.7 235.1 235.8 235.5 236.2 236.8 239.8 238.6 245.7 248.3 250.4 252.9 254.9 257 259 260.8 262.7 264.5 266.9 269.1 271.3 273.7 276.3 279.4 283.5 285.8 288.3 290.8 291.9 292.8 292.1 290.5 288.5 285.5 281.6 277.7 274.4 272.9 272.4 272.1 271.1 269.8 268.5 267 265.6 264.4 263.6 262.6 261.1 259.2 257.4 256.3 254.7 252.6 250.4 248.9 247.4 246.1 243.5 237.4 233.2 230.5 226.8 223.3 220.4 218 214.6 209.7 205.1 201.8 197.4 195.9 193.3 189.4 185.8 182.2 178.3 172.7 168.9 166.3 165.6 163 157.7 150.2 147 150.7 152.6 144.5 139.3 136.7 138.6 144.3 148 150.3 149.7 147.6 145.3 144.2 142.5 141.8 141.3 129.3 121.9 117.2 123.8 128.2 134.2 142.9 150.8 157.5 163.2 171.1 179.5 187.3 190.5 191.6 195.5 201.4 205.4 207.9 210.4 212.6 215.6
201.9 205.3 208.8 212.1 214.7 216.6 216.8 216.8 216 213.7 202.7 182.8 172.8 173.9 174.5 172.1 168.9 170.1 173.7 186.4 186.9 183.8 180.9 177.8 170.4 162.3 154.6 148.6 138.4 139.1 122.1 108.3 90.7 74.2 63 54 48.4 48.3 48.8 49.3 55.1 69.2 90 96 101.2 106.4 111.1 114.7 117.5 121 125.5 130.8 137.3 145.1 157.1 171.3 181.5 185 188.7 191.7 193.4 195.6 197.9 200.7 203.5 206 209 210.8 212.7 214.9 217 219.1 220.4 221.2 223.2 225.1 227 229.4 232.3 232.8 232.7 232.7 235.2 237 240.4 243.9 247.9 245.7 254 256.4 258.8 260.7 261.9 263.4 265.5 267.6 269.8 271.9 274.6 277.3 280.2 284.1 286.8 288.8 290.4 291.4 292.1 291.8 289.8 287.7 283.7 280.4 278.1 275.5 272.3 270.5 270.3 269.3 268.5 267.3 265.8 264.1 262.5 261.2 260.4 258.6 256.7 255.3 253.9 252.5 250.9 249.5 247.9 246.2 244.6 241.6 235.6 232.4 229.3 225.6 222.1 218.4 215.4 211.9 206.8 202.2 197.2 192.8 189.1 184.8 180.7 177 173 170 167.1 163.8 163.9 164.6 159.7 153.7 148.9 150 154.1 150.3 142.9 143.2 143.3 147 149.1 152.6 154.1 153.9 152.3 150.7 149.8 149.1 146.2 143.8 139 130.4 121.4 122.1 124.6 129.4 136.9 145.1 152.7 159 171 181.7 189.1 195.9 201.6 201.3 202.1 205.4 208.6 210.7 212.7 215.9
204.2 207.7 210.7 214.1 216.8 218.1 218.4 218.6 217.5 216.2 212.5 193.8 174.7 171 169.5 168 167.2 167.3 167.5 180.7 185.9 183.9 180.3 176.1 168.1 159.9 152.9 147.4 141.2 130.2 119.1 104 88.3 78.1 67.2 57.6 52.9 49.6 48.6 52 65.1 88 93.6 98.4 103.5 108.9 113 116.8 119.5 123.2 127.7 133.6 141.9 152.5 167.2 180.7 184.9 189.1 191.9 194.4 196.1 198.9 201.6 204 206.1 208.8 210.4 211.1 212 214 216 217.4 218.7 219.2 221.3 223.2 224.9 227.8 229.4 230.1 230.2 231.4 233.2 235.1 237.8 241.3 245.5 248.6 252.1 250.7 257.1 259.1 262.1 264.2 266.3 268.5 270.7 272.9 275.6 278.5 281.4 284.8 287 288.5 290.1 290.9 291.3 291.3 289 286.1 282.8 280.1 277.8 275.4 272.6 270.2 268.1 267.3 266.7 265.4 263.8 262.2 260.6 258.9 257.8 256.2 254.9 253.5 252.2 250.9 249.4 248.2 246.8 245 242.3 238.9 234.4 231.3 227.7 224.6 220.9 216.9 213.5 208.7 201.4 196.4 191.9 186.9 181.3 176.2 172.1 168.3 164.7 161.2 159.7 158.4 158.5 156.9 152.8 148.9 148.9 150.7 155.8 150.1 147.4 150.8 150.9 153.6 153.5 156.2 157.8 158.6 157.6 156 158.3 159.1 157.2 153.3 148.1 140.1 130.3 122.6 124.8 129.9 139.2 147.8 155 163.1 174 183.1 190.7 198.1 204.6 207.1 207 206.9 209.3 211.2 213.4 217.1
