ncols 200
nrows 87
xllcorner 210000
yllcorner 674300
cellsize 50
351.7 356.8 354.7 354.7 356.5 360.6 363.6 375.4 384.8 386.9 381.7 375.9 370.4 363.5 369.3 381.4 401.8 425.1 442.7 466.6 481.5 491.6 499.6 508.2 512.9 508.9 503.2 495.2 468.2 440.1 410.3 392 369.6 354.7 332.1 310.1 291.7 269.1 248.6 230.7 214.2 204.2 193.8 185.1 175.9 166.9 159.4 147 137.9 132.4 132.3 126.4 122.9 115.9 123.1 124.4 128.8 133.3 137.9 149 161 169.3 180 189.1 199.3 209.3 221.5 233.8 240.6 262.1 278.1 288.4 298.4 309.9 329.5 330.3 326.8 324.5 327.3 327.9 326 331.3 339.4 347.1 353.1 355.2 357.3 358.7 358.7 358.8 357.5 352.1 345.4 339.4 334 329.4 320.8 310.8 300.8 291.2 281.9 271.7 273.2 271.3 265.3 256.4 249 241.7 232.5 222.5 215.4 210.2 204.7 200.5 192.6 184.3 181.4 177.4 172.8 162.5 155 147.6 158.2 157.3 155.3 154.4 153.7 152.1 146.2 135.1 123 109.4 95.7 81.4 65.1 49.5 34.1 29.2 28 28 28 28 38.9 50.7 77.6 89.2 86.7 84.3 89 81.8 65.8 67.7 65.4 62.3 62.7 57.5 48.4 42.7 39 37.6 35 33 32.6 32.5 35.3 36.2 30.1 24.2 19.4 12.7 7.8 1.3 -1.1 -1.1 -1.1 -1.1 -1.1 -1.1 -1.1 -1.1 -1.1 -1.1 -1.1 -1.1 -1.1 -1.1 -1.1 -1.1 -1.1 -1.1 -1.1 -1.1 -1.1 -1.1 -1.1 -1.1 -1.1 -1.1 -1.1 -1.1
339.1 338.6 338.2 336.6 337.9 340.4 344.4 355.8 362.2 365.7 362.4 354.7 349.8 343.9 348.6 365.8 386.1 406.8 424.6 445 462 471.8 480.7 497.8 499 498.8 497.7 488.6 463 431.3 405.4 377.3 365 347.3 322.3 300.4 283.8 262.5 243.5 227.1 211.3 196.9 189.5 180.4 172.2 165.1 157.6 150.2 138.6 130.7 122.8 122.2 119.4 118.3 128.3 130.9 137 145.7 156.8 165.9 178.2 184.9 197.3 209.5 220.1 230.7 243.5 256.4 263 270.6 282.9 297.9 314.1 326.5 335.6 338.5 336.8 338.1 337 335.1 334.1 331.9 338 345 350.7 359.6 365.8 366.6 361.4 357.5 356.5 353.4 345.6 338.9 334.7 327.8 318.7 307.8 298.5 289.8 281.9 279.4 280.6 275.4 269.9 260 253.1 244.9 236.3 225.6 217.7 212.8 209 205.2 198.2 190 185.7 178.5 173.3 165.8 161.9 162.1 162.1 159.7 157.6 156.9 156.3 156.4 156.5 144.8 128.3 114.6 100.5 88.8 77.2 59.5 42.5 31.8 28.1 28 28 28 38.3 52.2 69.2 79.3 82.9 81.5 80.8 74 65.2 61.9 60.1 59.1 59.3 55.6 48.5 41.5 37.9 36.1 35.3 34.5 34.6 36.4 38.2 36.5 30.1 23.6 19.2 10.9 7.6 -1.1 -1.1 -1.1 -1.1 -1.1 -1.1 -1.1 -1.1 -1.1 -1.1 -1.1 -1.1 -1.1 -1.1 -1.1 -1.1 -1.1 -1.1 -1.1 -1.1 -1.1 -1.1 -1.1 -1.1 -1.1 -1.1 -1.1 -1.1 -1.1
338.4 318.4 320.6 321.1 318.6 320.9 326 333.3 343.7 342.6 342.4 338.5 333.8 326.1 335.3 350.9 368.2 386 405.9 422.1 439.5 451.3 459 481 480.4 490.1 494.1 481.7 460.1 419.6 392.9 372.6 352.3 332.1 314.1 292.8 275.8 255.3 237.7 224.7 210.3 195.5 185.4 177.1 168.8 160.2 154.7 143.5 134.8 129.2 128.5 129 127.6 133 134.8 143.9 155.4 166.3 177.2 180 199.6 209.9 220.3 232 244.2 255.9 268.8 276.4 282.9 292.7 301.1 304.8 327.8 338.9 351.2 357.8 347.9 347 351 347.3 342.4 340.1 337.6 345.6 354.8 366.1 374.1 370.3 365.2 358.8 354.1 352.3 346.1 340 335.4 329.4 319.7 308.7 298.6 291.8 286.6 284.6 284 279.5 272.2 263.4 258.5 251.2 242.1 232.3 225.8 218.3 213.9 209.3 200.4 193.6 187.7 181.9 176.2 172.6 168 167.5 164.9 162.4 160 159.4 158.9 159.5 171.9 158.6 138 122.8 108.2 96.6 90.2 72.9 55.4 36.8 29.9 28.2 28 28.7 38.9 52.5 64.5 72.2 75.6 75.4 74.9 71.2 64.2 59.5 55.6 55.7 56 53.6 47 40.3 36.2 34.2 33.2 32.9 33 37.5 37.2 34.8 29 23.1 16.8 8.2 5.9 -1.1 -1.1 -1.1 -1.1 -1.1 -1.1 -1.1 -1.1 -1.1 -1.1 -1.1 -1.1 -1.1 -1.1 -1.1 -1.1 -1.1 -1.1 -1.1 -1.1 -1.1 -1.1 -1.1 -1.1 -1.1 -1.1 -1.1 -1.1 -1.1
339.4 312.8 296.7 301.6 301.7 302.6 306.3 313.5 323.1 324 327 320.1 315.3 313.4 317.9 333.7 350 366.1 386.8 404.1 419.6 429.6 437.8 456.5 463.9 481.9 490 476 453.9 417.7 384.8 359.6 341.4 321.5 299.7 282.9 267.4 248.3 233.8 219.6 206 192.7 181.7 173.4 165.2 155.9 147.3 134 130.6 131.1 129.5 135.7 135.5 138.5 147.6 160.2 174.9 186.4 195.6 204.7 218.5 234.1 245.3 254.9 267.4 280.7 291.3 299 313.6 316.9 322.3 325.3 328.1 351.1 370.1 373.9 365.2 357.2 358.1 354.4 349.5 345.2 342.7 346.4 357 368.1 373.7 370.6 364.4 357.6 352.6 349.5 345.6 340.8 334.2 328.8 322.7 311.6 305.4 299.4 293.6 290.2 287.9 284 275.4 267.3 262.1 255.1 248.2 240.3 235.4 226.6 218.3 212.1 202.6 195.5 191 188 183.3 179.2 174.5 170.9 167.1 164.5 161.4 160.3 159.7 159.5 168.8 166.5 154.6 134 117.9 101.8 93.2 84.5 67.3 47 35.6 31.7 29.3 29.7 36.9 48.8 59 65.1 70 70 68.7 65.5 61.8 56.8 52 52 52.9 51.2 45.5 40 34.4 33.2 32.6 32.1 34.4 36.8 35.2 33.1 26.7 21 11.3 8 1.2 -1.1 -1.1 -1.1 -1.1 -1.1 -1.1 -1.1 -1.1 -1.1 -1.1 -1.1 -1.1 -1.1 -1.1 -1.1 -1.1 -1.1 -1.1 -1.1 -1.1 -1.1 -1.1 -1.1 -1.1 -1.1 -1.1 -1.1 -1.1 -1.1
341.1 315.4 291.5 275.8 278.8 281.4 285 293.3 301.4 306 308.3 304.1 298.2 294.9 304.9 318.5 331.2 344.8 363.9 383.7 396.6 408.8 417.5 429.2 452.8 471.7 484.7 470.4 445.9 406.5 374.7 351.9 327.9 311.6 293.4 275.2 258.3 242.5 228.8 214.6 200.9 189.3 179.6 169.7 161.1 151.6 141.7 139.5 140.5 140.2 139.1 142.8 146.4 149.7 154.5 177.4 193 203.7 215.4 227.9 241.3 255 269.6 281.2 296 311 320.9 327.7 334.3 336.1 345.3 345.7 335.9 363.9 378.1 381.7 374.7 373 363.6 360.4 356.9 351.1 348.1 348.2 362 365.1 371.8 369.7 364.6 356.9 351.3 349.2 345.7 340.3 333.2 328.5 324.8 319.7 311 304.3 298.9 296.1 292.6 285.5 276.9 269.1 264.2 258 250.9 245.2 239.6 229.9 220.1 211.8 204.8 199.1 194.7 191.7 189.9 185.1 180.4 175.6 170.2 165.5 162.6 161.4 160.5 159.1 161.7 159.9 150.6 136.6 121.7 104.6 91.9 80.4 69.4 51.8 39.2 36.2 34.1 28 34.5 45.9 53.9 59.3 64.5 65.6 63.8 60.6 57.2 52.5 48.2 48.6 49.3 49.1 43.5 37.2 33.2 32.6 31.9 32.6 34 34.3 33.3 32.8 25.3 19.9 10.7 7.9 1.4 -1.1 -1.1 -1.1 -1.1 -1.1 -1.1 -1.1 -1.1 -1.1 -1.1 -1.1 -1.1 -1.1 -1.1 -1.1 -1.1 -1.1 -1.1 -1.1 -1.1 -1.1 -1.1 -1.1 -1.1 -1.1 -1.1 -1.1 -1.1 -1.1
345.9 321.1 295.3 273.7 254 262.1 266.4 274.4 283.9 288.6 289.5 289.1 283.9 278.2 285.5 298.4 310.9 323.6 342.7 361.8 372.7 383 396.8 415.3 441.5 462 478.4 467.5 449.4 413.5 378.2 348.4 317.6 297 284.7 268.1 250.4 236.1 223.3 209.5 195.9 185.7 176.6 167.4 156.2 147.5 147.2 148 149.6 145.3 148.9 155 160.5 164.4 170.7 196 212.6 229.1 241.5 254 269.8 281.7 298.3 313.6 332.5 341.2 349.7 353.6 354.3 371.8 381.8 382.4 360 366.1 385.5 386 382.4 385.1 376.4 374.7 371.5 367 355.9 352.9 357.6 363.4 368.3 368 362.3 354.8 350.7 350.7 345.7 342 337.1 333.6 332.2 325.4 315.2 306.4 301 297.8 290.5 283.8 276.3 269.2 265 260.4 253.9 248.2 241.9 232.6 224.7 218.3 211.8 204.3 200.1 197.1 195.6 192.1 187.3 180.7 172.5 166.1 163.8 162.2 159.5 157.1 158 156.7 146.9 134 120.3 104.2 87.3 77.2 66.1 52.1 39.1 37.5 38.8 28.5 32.7 43.8 51.2 56.2 60.3 61.9 60.4 56.9 53.7 47 44.8 45.7 46.5 45.9 42.3 35.3 32.4 31.9 31.3 34.4 34.2 34.2 32.5 28.5 24.2 16.9 10.2 7.2 -1.1 -1.1 -1.1 -1.1 -1.1 -1.1 -1.1 -1.1 -1.1 -1.1 -1.1 -1.1 -1.1 -1.1 -1.1 -1.1 -1.1 -1.1 -1.1 -1.1 -1.1 -1.1 -1.1 -1.1 -1.1 -1.1 -1.1 -1.1 -1.1 -1.1
348.7 324.1 299.9 277.8 259.8 241.6 246.3 254.8 263.7 269.8 272.4 271.4 267.2 261.5 268.4 279.1 290.6 305 322.5 338.6 349.5 363.9 378.7 398.9 423.2 449.5 467.9 459.9 445.6 422.7 384.1 347.4 312.2 290.6 270.9 258.2 243.1 229.9 217.4 204.1 193.3 183 173.8 163.5 154.2 157.3 157.7 157.6 155.3 154 161.8 167.1 174.6 173.4 186.2 216.5 233.9 249.5 268.2 287.1 303.2 314.1 331.5 349.3 361.1 363.3 367.9 376.1 387.1 392.8 400.1 400.3 389.8 369.7 384.9 389.2 388.6 395.1 385.9 383.4 388.4 378.2 368.5 358.6 360.6 363.9 364.8 364.1 359.5 354.4 354.1 359.2 355.9 348.7 345 341.4 337.4 329.5 317.7 309.4 304.1 296.2 286.6 279.8 274.7 269.7 265.8 261.9 256.8 251.4 245.5 236.9 230.2 224.3 218.5 213.3 208.7 204.5 201.1 198.8 193.2 189.2 182.2 167.6 162.9 161.7 157.7 154.4 152.9 150.6 143.4 130.9 119.2 107.2 90 75.7 63.5 51.1 40.6 38.1 36.7 26.4 32.7 41.8 49.5 53.8 57.5 58.6 45.4 45.2 45 44.4 43 44.5 44.2 43 40.1 33.7 32.3 31 32.2 33.1 33.1 32.5 31.3 26.6 22.8 18.4 10.4 6.9 -1.1 -1.1 -1.1 -1.1 -1.1 -1.1 -1.1 -1.1 -1.1 -1.1 -1.1 -1.1 -1.1 -1.1 -1.1 -1.1 -1.1 -1.1 -1.1 -1.1 -1.1 -1.1 -1.1 -1.1 -1.1 -1.1 -1.1 -1.1 -1.1 -1.1
356.4 329 306.8 282.2 268.8 257 231.8 236.6 241.9 252.4 255.4 252.2 247.7 241.6 248.3 259.6 270.6 285.5 303.9 317.7 329.8 342 361 383.2 405.7 438.6 453.7 448.3 437.3 421.2 394.6 349.1 315.6 290.3 271.5 256.2 240.2 225.1 212.5 201.9 191.6 181.3 170.7 160.7 163.2 165.4 167.3 167.1 165.3 164.6 171.8 181.3 190 191.7 201.9 236.4 251.2 272.3 300.9 324.7 342.6 350.9 354.9 376.9 381.7 387.5 396.2 401.3 409.9 415 413.1 408.3 399.4 383.1 392.3 392.6 392.9 398.5 393.7 393.3 391.6 385.5 374.8 366.3 366.6 368.4 365.1 361.5 359.4 356.3 360.5 361.2 358 351.9 350.5 347.8 341.3 333 320.2 312.1 305 297.6 290.6 280.6 275.8 272.3 268.3 265.3 261.5 255.7 249.1 242.4 236.1 230.3 224.1 217.8 212.1 207.7 204.6 201.1 196.2 190.8 183.8 169.3 163.6 160.6 155.7 151.2 148.4 146.2 137.5 128.7 119.1 108 90.5 74.3 61.7 50.7 42.5 35.6 33.8 26.1 35.5 41.2 46.2 50.6 52.8 52.9 45 44.4 42.4 41 40.6 43.5 43.1 42 37.2 33.8 33.2 30.5 30.9 32.1 32.5 31.4 30.7 26.7 20.8 15.1 9 4.6 -1.1 -1.1 -1.1 -1.1 -1.1 -1.1 -1.1 -1.1 -1.1 -1.1 -1.1 -1.1 -1.1 -1.1 -1.1 -1.1 -1.1 -1.1 -1.1 -1.1 -1.1 -1.1 -1.1 -1.1 -1.1 -1.1 -1.1 -1.1 -1.1 -1.1
362.8 341.6 317.7 295.9 274.9 261.1 244.5 226.7 223.1 229.4 241 238.7 233.3 219.1 229.5 237.5 251.5 267.6 281.6 294.8 309.3 327.9 346.9 367.6 388.5 412.9 433.5 433.5 423.5 411 388.3 354.8 321.4 290.3 269.7 253.6 236.7 223.3 210.3 198.3 188.5 179.7 170.9 168.6 172.6 174.3 179.1 178.1 177.9 175.3 183.5 195.4 204.8 210 220.6 256.3 275.8 307.2 346.9 357.2 367.3 373.9 371.4 384.5 400.5 410.2 412.9 417.7 422 421.6 415 412.9 410.7 392.4 400.2 396.2 394.9 400.6 408.8 404.6 392.1 387.2 381.1 371.6 370.2 369.3 367.7 362 359.3 359.1 360 361.3 357.6 355 353.3 350.4 343.3 335 323.1 312.5 305.3 297.1 291.7 283.5 278.2 275 272.9 270.6 270.2 264.9 254.6 248.1 242 235.8 229.5 223.2 217 211 207.5 201.8 196.1 189.7 181.3 171.5 164.2 158 153 148.8 145 141.5 134.5 126 118 106.5 90.3 72.8 59.8 50.1 41.3 35.8 29.9 25.8 32.5 40.3 43.1 47.2 48.9 48.6 44.7 40.7 41 41.1 41.8 40.9 40.3 39.5 35.7 33.5 32.2 30.9 29.8 30.2 29.6 30 27.6 24.7 18.4 12.3 9.2 1.4 -1.1 -1.1 -1.1 -1.1 -1.1 -1.1 -1.1 -1.1 -1.1 -1.1 -1.1 -1.1 -1.1 -1.1 -1.1 -1.1 -1.1 -1.1 -1.1 -1.1 -1.1 -1.1 -1.1 -1.1 -1.1 -1.1 -1.1 -1.1 -1.1 -1.1
372.7 355.4 331.7 306.3 284.2 268.2 254.1 240.2 223.1 211.8 220.6 226.6 217.8 195.6 208.1 220.4 232.8 246.1 261.6 275.4 292.1 310.8 331.3 352.5 374.2 397.4 418.3 418.7 410.3 406.2 389.1 359.5 325.6 295.8 270.3 255.6 238.4 221.8 208.8 197.2 185.7 183.8 181.4 182.2 184.4 191.3 195.6 197.4 196.4 190.7 185.7 205.1 219.3 231.3 250.2 278.2 304.4 343 374.9 379.1 382.6 385.6 381.3 395.6 414.4 422.4 426.5 431.7 431.4 429.4 427.7 426.2 417.9 402.7 407.6 399.7 398.9 402.5 408.5 406.2 396 388.4 382.2 376.6 375.4 374.5 370.7 364.9 358.9 358.3 357.9 357.7 356.9 354.8 352.2 349.1 343.1 336.4 325.4 313.9 302.9 295.2 290 283.6 280.7 279.7 278.4 280.5 278.2 272.2 262.6 253.9 247.5 241.2 234.9 228.6 222.4 216.1 208.5 202.6 196.1 188.6 182.3 172.4 163.2 156 150.8 146.5 142.1 137.3 130.7 123.2 115 102.9 87.1 71.4 57.6 48.3 40.6 37.2 31.1 24 30.5 37.6 40.9 43.3 44.7 43.5 39.6 37.5 37.7 36.3 38.8 40.1 40 39 36.3 32.8 30.4 29.6 29.1 30.1 29.8 28.3 25.2 21.3 12.8 9.2 7.1 -1.1 -1.1 -1.1 -1.1 -1.1 -1.1 -1.1 -1.1 -1.1 -1.1 -1.1 -1.1 -1.1 -1.1 -1.1 -1.1 -1.1 -1.1 -1.1 -1.1 -1.1 -1.1 -1.1 -1.1 -1.1 -1.1 -1.1 -1.1 -1.1 -1.1 -1.1
384.5 365.7 346.3 321 297.1 278.6 262 247.5 233.4 218 197.4 207.5 192.8 181 192.2 205.4 216.4 226.6 242.2 256.4 275.5 295.7 316.9 340.3 361.3 381.2 403.8 400.8 397.9 397.6 382.7 355.3 327.4 304.8 279.4 259.6 240.6 221.8 207.8 195.4 191.2 192.8 186 193.7 203.4 211.5 216.2 217.7 214.1 208.2 190.1 216.4 231.7 253.3 276 307.5 336 379.2 393 395.9 396.6 395.2 394.1 403.6 414.5 424.5 434 441.3 442.2 433.2 432.8 430.4 420.8 410.5 411.6 407.2 403.3 404.2 407 403.5 396.4 389.1 384.4 384.1 380.7 379.3 373.7 368.2 361.2 356 355 354.4 353.4 351.3 348.3 345.8 340.5 332.8 323.7 313.1 298.6 291.6 286.6 281 278.3 275.8 274.7 276.2 274.8 269 263 255.9 250.3 246.6 240.3 233.9 227.9 222.2 213.9 204 196.5 189.9 183.5 175.9 166.7 155.7 148.4 144.3 139 133.9 127.1 120.1 112 100.3 84.6 69.3 55.2 48.6 41.1 34.9 29.8 23.8 28.4 34.8 38.2 38.6 39.2 38.1 36.2 35.8 34.1 34.5 36.9 38.5 40 38.6 35.4 32.4 29.6 29.4 29.7 29 28.9 26.2 22.7 17.2 9.7 7.6 -1.1 -1.1 -1.1 -1.1 -1.1 -1.1 -1.1 -1.1 -1.1 -1.1 -1.1 -1.1 -1.1 -1.1 -1.1 -1.1 -1.1 -1.1 -1.1 -1.1 -1.1 -1.1 -1.1 -1.1 -1.1 -1.1 -1.1 -1.1 -1.1 -1.1 -1.1 -1.1
391 378.2 354.5 331.1 308 288.6 271.5 254.7 241 229 209.6 191.4 185 177.1 172.7 191.4 200.9 210.8 222.1 241.1 260.4 281.6 305.4 329 349.2 367.4 387.1 381.4 382.5 384.1 368.9 345.3 327.1 312.7 289.2 265.8 244.1 224.5 207.8 204.4 203.2 193.6 205.3 214.6 224.7 233.6 239.7 239.6 241.5 237.4 214.6 228.5 244.9 265.6 289.4 339 364.5 395.7 407.5 410 407.6 408.3 411 418.4 427.7 439.7 439.6 446.7 446.2 439.5 432.6 429.7 425 415.1 415 412.2 411 411.1 407.3 402.9 397 389.9 387 387.5 387.8 386.2 380 370.3 362.6 356 352.7 351.2 350.4 347.9 345 341.2 337.5 329.3 318.9 308.5 296 290.8 289.8 283.7 276.4 275.4 273.5 272.8 271.3 265.9 260.4 255.9 251.3 249.9 245.5 239.8 234 228.2 219.6 209.3 199.7 190.9 185.9 179.5 172.2 161.2 148.1 141.3 135.6 129.4 122.9 116.5 108.4 97 80.4 67.6 54.6 47.4 41.1 37.2 32.4 26.6 23.6 33.5 35.6 35.4 35.9 35.5 34 33.8 31.3 32.8 35.1 36.3 38.8 37.9 37.1 32.4 29.4 29.1 27.8 28.1 25.8 23.4 20.9 13.4 8.4 7.1 4.7 -1.1 -1.1 -1.1 -1.1 -1.1 -1.1 -1.1 -1.1 -1.1 -1.1 -1.1 -1.1 -1.1 -1.1 -1.1 -1.1 -1.1 -1.1 -1.1 -1.1 -1.1 -1.1 -1.1 -1.1 -1.1 -1.1 -1.1 -1.1 -1.1 -1.1 -1.1
403.7 382.9 363.7 336.8 315.9 297 280.8 260.8 247.1 237.9 223.1 211.5 200.5 189.5 170.5 175.8 187.1 196 210.3 227.3 246.6 269.3 291.6 319.3 337.3 356 369.1 365.6 367.1 365.2 352.8 336.2 326.9 311.2 292.3 273.3 255.2 246 233.1 219.7 208.4 208.6 228.8 242.3 249.1 257.7 266.9 280 280.9 274 255.6 240.1 255.1 277.4 307.4 355.7 376.9 403.9 428.3 432.5 427.5 417.5 418.9 424.3 430.4 440.6 449.3 447.2 445.9 441.1 437.6 436.6 432 426.2 424.6 422.9 421 422.7 412.5 407.5 402.6 400.9 391.6 393.8 392.3 391.2 387.6 374.6 363.9 356.4 351.7 349.6 347.3 343.2 339.4 336 332.7 323 313.7 304.6 295.4 291.9 291.1 290 278.9 274.7 273 271.1 268.1 263.6 258.4 254.2 249.8 249.7 250.6 245.4 239.7 234.1 224.1 214.1 203.3 193.3 188.1 183.8 178.8 163.1 147.4 140.1 132.3 125.1 118.6 112.3 104.8 93.6 76 62.7 53.3 47.1 41 39.5 39.4 30.9 19.3 24.4 30 31.5 33.3 32 32.1 31 30.6 32.4 34.6 35.8 38.1 37.8 35.5 32.6 30.3 29.2 27.6 25.2 23.2 18.9 15.8 10 8.4 6.2 4.2 -1.1 -1.1 -1.1 -1.1 -1.1 -1.1 -1.1 -1.1 -1.1 -1.1 -1.1 -1.1 -1.1 -1.1 -1.1 -1.1 -1.1 -1.1 -1.1 -1.1 -1.1 -1.1 -1.1 -1.1 -1.1 -1.1 -1.1 -1.1 -1.1 -1.1 -1.1
411.6 387.1 364.5 341.8 317.3 299.1 284.3 265.1 251.1 241.4 230 217.3 201.9 186.1 167.5 167.6 176.5 186.1 197.7 215.7 234.7 260 282.1 306.1 328.5 351 357.4 355 354.7 350.5 340.4 330.5 322.9 310.4 294.4 278.9 267.9 258.9 254.4 242.1 226 237 252 267.9 282.9 299.5 307.8 321.1 325.4 311.9 286.1 268.5 259.2 290.6 315.3 355.6 388.4 415.8 435.4 437 428.7 429.7 427.4 427.8 433.8 443.5 450.3 448.9 443.8 440.2 435.4 432.6 430.9 429.5 432.7 434.1 426.6 423.7 414.7 410 407.2 403.6 396.5 394.3 394.1 392.4 388.4 377.9 366.5 356.9 352.1 348.5 344 338.6 333.9 331 324.1 316.1 306.9 297.4 291.2 288 286 283.5 280.1 274.7 270.4 268.3 265.1 261.2 256.5 252.3 249 251.8 252.7 249.7 244.4 237.7 228.3 216.6 205.5 195.8 190.1 186.1 177.4 161.4 145.7 136.9 129.2 121.5 114.6 108.2 98.4 89.9 76.1 64.3 54.1 46.5 38.9 37.4 37.1 33.6 25.7 18.2 24.9 29.9 29.6 29.6 29.5 29.3 30.7 32 33.2 35.1 38.1 38.3 35.9 33.9 31.8 28.2 28 26.2 22.7 19.8 14.8 9.9 7.7 5.8 4.7 -1.1 -1.1 -1.1 -1.1 -1.1 -1.1 -1.1 -1.1 -1.1 -1.1 -1.1 -1.1 -1.1 -1.1 -1.1 -1.1 -1.1 -1.1 -1.1 -1.1 -1.1 -1.1 -1.1 -1.1 -1.1 -1.1 -1.1 -1.1 -1.1 -1.1 -1.1
410.7 388.9 364.9 343.1 318.7 299.8 282.6 267.7 255.1 243.2 229.6 215.8 199.1 183.8 169.8 154.2 167.1 178.5 190.3 202.9 224.3 248.2 275 295.8 323.3 340.3 347.1 343.7 343.5 340 333.2 326.7 321.7 311.7 298.3 285.9 278.2 281.7 276.1 263.8 249.2 258.1 271.3 289.2 310.3 321.8 358 364.2 361.7 346.6 311.9 285.7 274.8 305.2 327.5 366 408.1 422.6 435 435.9 430.4 437.9 445.6 436.3 437.2 442.4 445.3 443.5 439.9 436.3 433.2 430.9 430.7 433.6 439.1 437 430.6 423.8 417.8 413.5 409.7 406.8 399.6 396.6 394.4 391.2 387.3 377.4 367.3 356.5 351.6 346.7 341.4 335.8 330.1 322.2 315.3 308.4 300.8 291.4 284.9 283.2 281.5 279.8 275.6 271 267.2 265.2 262.1 258.2 254.5 251.5 249.2 253.2 254.9 253.7 248.7 239.4 228.6 217.3 205.9 196.9 189.2 182.7 175.1 160.3 145.8 133.6 125.9 118.3 110.7 103.2 96.1 84.1 72.4 62.6 53.3 44.9 36.4 30.5 30.5 29 28.7 15.1 20.6 23.3 24 27.7 28.2 29.2 30.4 30.2 32.2 36.7 39.8 41.2 37.6 34.2 31.3 28.5 28.1 25.4 22.4 19 9.3 8 6.6 5 -1.1 -1.1 -1.1 -1.1 -1.1 -1.1 -1.1 -1.1 -1.1 -1.1 -1.1 -1.1 -1.1 -1.1 -1.1 -1.1 -1.1 -1.1 -1.1 -1.1 -1.1 -1.1 -1.1 -1.1 -1.1 -1.1 -1.1 -1.1 -1.1 -1.1 -1.1 -1.1
409.1 389.1 363.3 342.3 320.4 297.8 280.5 264.7 254.1 241.8 228.2 212.9 196 181.1 166 155.2 158.3 168.9 182.1 195.4 213.5 238.7 265.1 287.8 314.2 330.1 335.6 334.3 334.2 332.8 328.8 325.6 320.7 313.6 303.3 293.8 292.5 295.9 294.6 286.4 276 273.7 290.6 309.2 327.6 354 379.9 381.6 376.2 370.5 342.9 297.5 295 325.4 333.6 384 410.2 421.7 432.6 433.6 433.9 440.7 449.9 447.2 439.8 436.5 436.4 436.6 434 432.9 433.9 433.5 437 441.6 442.9 438.9 431.4 425.2 421.1 419 415.4 410.9 402.7 396.3 393 389.7 385.7 376.6 367.1 355.7 349.1 344.3 338.9 332.7 325.2 315.6 306.7 300.1 294.3 285.8 280.2 278.2 276.6 275.1 273.4 268.9 264.8 262 259 255.2 251.7 249.7 249.3 251.9 255 255.1 249.3 238.9 227.6 216.4 205 196.1 187.3 180.6 170.9 158.2 144.6 132.5 122.9 115.7 108.4 101 90.7 79.4 69.2 61.4 52.6 44.2 38.7 37.8 31.2 23.8 21.8 16.7 18.1 23.2 24 24.4 22.2 27.7 29.7 30.4 32.3 35.8 39.7 40.3 36.4 33.6 29.5 26.7 26.5 23.2 21.3 11.2 8.8 7.2 5.1 1.3 -1.1 -1.1 -1.1 -1.1 -1.1 -1.1 -1.1 -1.1 -1.1 -1.1 -1.1 -1.1 -1.1 -1.1 -1.1 -1.1 -1.1 -1.1 -1.1 -1.1 -1.1 -1.1 -1.1 -1.1 -1.1 -1.1 -1.1 -1.1 -1.1 -1.1 -1.1 -1.1
402.2 383.8 362.4 337.8 318.6 297.7 275.9 263.1 251.6 236.7 224.8 207.9 191.3 176.7 162.7 151.4 151.6 162.8 177 188.4 205.9 232.3 256.4 282.5 304.9 321.9 327.6 327.9 328.7 327.9 325.8 324.7 322.6 317.3 308.2 303.1 302.9 310.8 309.5 308.3 302.4 300.6 308.7 329.6 345.9 374.3 395.7 400.8 392.6 382.2 361.8 324.9 319.9 359.5 363.6 383.3 407.5 420.9 431.8 435.5 443 450.9 464.1 461.6 452.3 437.9 435.6 434.3 434.1 433.7 438.7 443.3 448.8 449.7 450.9 444.4 434.3 427.2 421 419 416.4 412.4 403.6 397.3 392.2 387.2 382.6 374.7 365.7 354.4 346.2 341.3 335.3 328.6 319.1 309.5 300 292 286.2 280.3 275.2 273.2 271.7 270.5 269.4 266.8 262.8 258.8 256 252.4 249 247.7 248.3 249.8 251.7 253.4 248 237.6 226.6 215.3 204.1 194.6 186.4 177.6 168.2 154.5 141.5 129.1 120.9 114 106.9 99.6 88.2 75.6 66.1 57 48.3 42.3 36 33.3 28.2 23.5 20.7 17.7 17.7 17.6 18.4 20.4 21.4 21.7 23.7 27.7 30.9 35 37.8 39.1 35.4 33.3 27.9 25.9 23.8 22.6 20.4 10.9 7.5 5.7 -1.1 -1.1 -1.1 -1.1 -1.1 -1.1 -1.1 -1.1 -1.1 -1.1 -1.1 -1.1 -1.1 -1.1 -1.1 -1.1 -1.1 -1.1 -1.1 -1.1 -1.1 -1.1 -1.1 -1.1 -1.1 -1.1 -1.1 -1.1 -1.1 -1.1 -1.1 -1.1 -1.1 -1.1
392.4 374.8 355.7 334 311.8 295 272.8 255.8 245 231.8 216.2 201.3 184 170.9 158.1 152.2 142.8 152.3 171.3 187.5 201.8 223.2 250.9 277.9 299.5 315.5 321.2 322.8 323.7 323.1 323.7 324.8 324.5 322 316.3 316.4 319.3 320.1 321.1 322.1 320.4 324 329.5 344 364.4 391.1 401.1 407.9 405.6 400.4 385.1 334.4 344.2 385.9 393.5 394.1 405.3 418.1 429.7 436.5 449.2 456 472.8 468.7 460.2 447.6 436.6 435.1 440.3 441.8 443.8 449.3 455.1 455 462.1 451.6 438.3 429.2 421.5 416.3 413.5 409.7 401.6 393.9 388.5 383.6 379.1 373.6 362.5 352.5 345.2 339.7 333 324.9 313.1 303.3 293.1 284 278.5 274.2 269.3 267.5 266.6 266 265.7 264.2 261.1 256.7 253 249.6 246.5 245.4 245.3 246.5 248.8 249.1 245.5 235.5 225.6 215.1 203.1 196.3 185.5 174.9 164.1 150.5 138.5 126.7 118 111.3 105.1 97.3 85.9 73.9 63.9 57 47.9 41 37.4 33.5 27.2 22.9 20.3 17.7 16.7 17.1 18.6 19.8 21.3 21.3 21.1 22.6 29.3 34.4 37.2 37.2 35 31.4 26.8 25 23.5 21.3 17.5 11.4 7.7 2 -1.1 -1.1 -1.1 -1.1 -1.1 -1.1 -1.1 -1.1 -1.1 -1.1 -1.1 -1.1 -1.1 -1.1 -1.1 -1.1 -1.1 -1.1 -1.1 -1.1 -1.1 -1.1 -1.1 -1.1 -1.1 -1.1 -1.1 -1.1 -1.1 -1.1 -1.1 -1.1 -1.1 -1.1
382.4 364.6 347.5 327.3 305.7 289.3 267.3 249.5 238.8 225.5 209.1 193.5 177.3 164.7 153.3 149 138.7 151.7 166.5 181.8 198.4 219.8 246 274.2 294.5 307.3 314.6 316.7 317.8 319.9 323.8 327.5 329.3 327.5 329.4 329.3 331.9 330.4 331.3 333.6 335.7 341.4 351 362.2 381 395.1 401.6 411.4 413.1 412.9 396.6 358.1 385.4 406.8 404.9 404.2 418.8 422.5 431.7 441.5 453.1 462.4 475.7 472.7 466.5 457.8 442.8 438.8 439.3 441.2 443.2 449.4 456.1 461.5 465.1 458.4 444.7 432.3 423.6 415.6 410.9 404.1 397.4 390.8 384.8 380 375.6 371.1 363.4 355.1 347.4 339.3 331.4 319.8 308.2 297.8 287.6 276.9 272.2 268 263.9 261.9 261.4 261.7 262.6 261.2 259.3 254.4 250.1 246.7 243.5 242.5 240.9 241.9 243.9 244.5 240.9 233.5 224.2 216.9 210.4 201.6 188.3 171.4 159.8 146.8 135.3 124.4 115.9 107.6 99.4 92.9 83.5 71.1 63 55.2 47 38.4 35.2 32.8 25.8 20.6 18.9 17.4 16 17.9 19.3 19.1 20.4 20.7 20.5 21.4 27.4 33.5 35.9 36.2 34.8 30.7 25.7 24.8 23 19.7 14.7 9.3 6.1 -1.1 -1.1 -1.1 -1.1 -1.1 -1.1 -1.1 -1.1 -1.1 -1.1 -1.1 -1.1 -1.1 -1.1 -1.1 -1.1 -1.1 -1.1 -1.1 -1.1 -1.1 -1.1 -1.1 -1.1 -1.1 -1.1 -1.1 -1.1 -1.1 -1.1 -1.1 -1.1 -1.1 -1.1 -1.1
368.4 353.1 335.9 317.7 297.6 279.8 259.1 240.5 228.6 214.3 200.2 184.8 170.2 157.7 149.4 142.7 136.5 150.3 165.4 179.3 197.2 216.1 244.4 268.5 288.7 299.8 305.1 307.5 314.4 321.2 328 334 336.3 336.3 337.6 336.5 338.3 340.2 342.5 347.9 350.7 365.8 373.3 389.1 398.6 407 405.8 409.6 417.1 418.1 394.5 368.4 413 427.3 414.2 410.4 425.8 431.2 442.1 453.4 456.7 467.5 474.2 472.2 465.9 459.4 451.7 444.1 440 441 443.3 448.1 454.8 464.1 469.3 462.4 450.2 433.6 424.6 415.7 407 401.3 395.3 388.7 380.9 376.5 372.1 367.5 361.3 350.8 342.8 335.4 326.7 315 303.3 291.2 280.1 270.5 261.4 258.3 258.3 256.1 255.6 256.2 258.7 258.6 255.8 251.5 247.3 243.7 240.6 239.1 237 236.5 237.5 238.5 234.9 227.8 222.5 216.1 210.9 201.3 188.7 171.7 155.3 143 132.1 122.1 113.3 105 96.7 88.4 80.4 70.5 63 55.5 48.1 40.8 34.9 30.5 19.5 19.3 18 14.6 15.8 15.7 18.6 18.9 18.2 18.5 18.7 20.6 24 29.9 34.3 35.8 34 30.6 24.7 23 21.5 14 9.2 6.8 -1.1 -1.1 -1.1 -1.1 -1.1 -1.1 -1.1 -1.1 -1.1 -1.1 -1.1 -1.1 -1.1 -1.1 -1.1 -1.1 -1.1 -1.1 -1.1 -1.1 -1.1 -1.1 -1.1 -1.1 -1.1 -1.1 -1.1 -1.1 -1.1 -1.1 -1.1 -1.1 -1.1 -1.1 -1.1 -1.1
357.7 339.5 326.7 308.7 289.7 271.3 252.5 233.3 218.7 204.8 191.7 176.7 161.8 149.2 144.1 130.6 138.1 150.5 164.3 178 196.9 216.2 238.1 265 281.6 284.3 298.7 311.3 320.7 326.2 336 340.6 343.2 344.2 344.6 344.2 349.3 350 359.1 373.9 377.7 383.4 388.7 406 420 425.6 424.6 416.8 414.4 415.1 397.5 385.2 423.2 442.1 437.3 422.4 432.7 438.3 449.5 465.9 469.6 473.6 472.4 470.9 466.2 461.5 457.3 447.6 442.3 441.4 440.7 444.5 453 462.5 468 462.8 450.9 433.2 425.1 415.6 404.1 398.9 393.5 387.2 380.6 374 368.1 363.2 356.7 347.6 339.4 331.4 322.1 310.3 298 283.5 272.8 262.7 253.6 250 250.7 249.6 248.8 251.3 253.7 254.3 251.3 248.4 244.5 240.8 236.4 233.9 231.8 230.4 231.4 231.4 229.1 224.5 221.1 215.1 207.7 196.9 185.9 171.4 155.6 140.9 130.4 120.1 111.5 103 94.7 86.4 78.3 70.1 62.6 54.9 46.7 39.8 35.2 30.3 23.8 20.7 19.3 16.1 14.7 15.6 17.2 17.8 18 17.7 17.4 19 23.7 29.2 32.6 35.2 33.2 29.7 23.2 20.5 13.8 8.9 7.5 3.2 -1.1 -1.1 -1.1 -1.1 -1.1 -1.1 -1.1 -1.1 -1.1 -1.1 -1.1 -1.1 -1.1 -1.1 -1.1 -1.1 -1.1 -1.1 -1.1 -1.1 -1.1 -1.1 -1.1 -1.1 -1.1 -1.1 -1.1 -1.1 -1.1 -1.1 -1.1 -1.1 -1.1 -1.1 -1.1 -1.1
344.9 327.8 310.7 293.9 276.1 261.5 242.8 225.6 209.1 197.1 181.1 168.7 155 142.3 138.1 127.1 138 147.4 156.8 176 198.1 213.7 231.7 257.3 273.5 292.9 306.4 319.6 326.7 331.9 340.7 345 347.9 350.1 353.6 357.4 367 378.2 387 399.8 392.8 402.2 413.6 425.4 438.2 443.4 437.1 431 418.8 413.3 398.2 407.1 425.9 439.6 437.9 432.4 440.1 444.7 456.6 472.4 478.9 484.1 476.6 473.9 465.9 461.1 457.5 450.4 445.5 442.7 439.9 442.4 453.1 461.2 461.9 458 447.6 429.7 421.6 412 400.9 395.8 391.4 385.2 377.7 369.8 363.9 357.4 350 345 336.8 329 318.5 304.4 291.3 276.2 265.1 255.3 243.3 240.9 242.8 242 243.3 245.2 247.1 248.1 245.1 242.1 238.8 235.2 229.6 227.6 226.1 224.7 224.1 223.8 223.6 220.1 216.7 212.1 205.1 197.7 183.9 168.6 152.2 136.5 125.1 117.8 109.7 101.1 92.7 84.5 76.4 68.3 60.5 53.2 44.9 38.6 33.9 29.4 23.1 20 17.4 16.3 11.6 14.8 15.7 17.1 17.8 17.6 16.3 18 23.2 27.9 31.7 32.3 32.2 27.8 21.3 19.3 13 8.8 6.3 -1.1 -1.1 -1.1 -1.1 -1.1 -1.1 -1.1 -1.1 -1.1 -1.1 -1.1 -1.1 -1.1 -1.1 -1.1 -1.1 -1.1 -1.1 -1.1 -1.1 -1.1 -1.1 -1.1 -1.1 -1.1 -1.1 -1.1 -1.1 -1.1 -1.1 -1.1 -1.1 -1.1 -1.1 -1.1 -1.1 -1.1
341.5 315.8 299.1 282.1 266.8 251.5 233.5 217.7 202.5 188.6 172.3 158.5 146.9 135.5 126.4 125.8 137.7 145.2 157.1 162.2 188.5 206.5 228.7 253.1 281 299.7 314.2 324.4 333.2 337.7 344.2 349.7 354.6 358.1 363.8 374.9 388.3 394.9 409.2 418.6 411.2 415.4 426.4 432.1 437.8 440.4 441.8 437.9 426 420.2 403.2 410.5 422.4 433.6 438.7 441.5 445 449.3 461 474.4 483.1 489.9 487 483.7 471 463.9 457.7 451.5 446.5 442.3 437.8 438.8 451.7 455.6 450.4 448.7 441.5 428.5 416.9 406.8 396.6 392.3 388.6 382 374.2 366.2 358.1 350.1 344.3 337.6 332.8 325.5 317.8 303.3 287.4 270.6 258.1 246.6 235 230 233 233.8 236.6 238.5 240.2 241.7 238.6 235.4 232.1 228.8 222.5 221.9 221.4 215.1 216.4 216 216.4 214.4 213 211.8 207.5 197.4 182 166.2 149.2 133.3 121.6 114.5 106.9 99.1 90.8 82.6 74.5 66.3 58.2 50.7 42.7 39.3 33.6 28.7 23.3 19 16 14.9 13.9 16 17.2 16.1 16.5 15.6 16 16.9 20.3 25.2 30.3 32.2 30.2 21.6 16.4 17.3 8.9 6.4 -1.1 -1.1 -1.1 -1.1 -1.1 -1.1 -1.1 -1.1 -1.1 -1.1 -1.1 -1.1 -1.1 -1.1 -1.1 -1.1 -1.1 -1.1 -1.1 -1.1 -1.1 -1.1 -1.1 -1.1 -1.1 -1.1 -1.1 -1.1 -1.1 -1.1 -1.1 -1.1 -1.1 -1.1 -1.1 -1.1 -1.1 -1.1
326.5 299.9 282.1 270.8 255.2 240.9 221.5 207 193.8 180.2 165.9 151.4 139.7 130.1 124.8 127.9 141.7 154.7 166.9 180.6 198.5 221.4 240.9 265 290.5 307.8 319.6 330.4 336.9 342.6 349.6 355.3 363.2 373.3 385.3 397.6 407.1 416.7 423.9 432.8 426.9 430.8 448.2 453 453.7 452 451.9 444.8 429.4 421.7 411.1 409.1 419.7 430.7 437.2 444.2 446.9 451.9 462 473.3 486.2 496.3 492.3 489.2 478.6 471.5 465.4 453.9 447.6 441.5 435.7 434.7 444.8 446.8 440.7 439.4 432.8 421.9 411.5 402.5 394 389.1 384.1 378.1 370.3 360.1 350.5 341.2 334.3 328.4 322.1 314.9 305.8 295.9 282.3 265.3 250.2 239.3 228.9 216.8 223.2 224.6 226.1 229.3 232.3 234.8 231.7 228.5 225 221.6 218.7 217.8 213.1 205.9 206.3 207.6 208.4 208.9 207.5 206.2 201.4 194.2 181.2 161.2 144.3 130.5 119.1 111.1 103.7 95.9 88.6 80.4 72.2 64 55.9 48.8 41.9 37.1 33.4 28.3 23.2 17.3 15.6 14.7 13.2 14.8 16.9 16.1 14.1 14.2 14.5 15.6 18.3 22.9 26.6 27.5 26.2 13.5 8.9 7.6 7.3 -1.1 -1.1 -1.1 -1.1 -1.1 -1.1 -1.1 -1.1 -1.1 -1.1 -1.1 -1.1 -1.1 -1.1 -1.1 -1.1 -1.1 -1.1 -1.1 -1.1 -1.1 -1.1 -1.1 -1.1 -1.1 -1.1 -1.1 -1.1 -1.1 -1.1 -1.1 -1.1 -1.1 -1.1 -1.1 -1.1 -1.1 -1.1 -1.1
314.3 289.1 273.1 258.8 246.4 228.9 211.4 199.4 183 171.6 157.7 143.5 134.2 124.3 116.7 132.1 144.6 159.4 172.8 189.6 207.7 228.1 251.4 278.9 298.4 312.4 326.4 335.6 342.1 350.2 359.8 369.2 386.3 397 405.4 413.9 422.6 430 434.2 440.6 437.5 445.1 452.8 454.8 454.9 454.8 453.9 450.8 434.2 423.4 424 420 418.2 430 436.4 444.6 448.9 452.9 462.7 473.7 483.9 493.8 502.1 495.2 486.3 475.8 468.2 454.5 447.8 441.1 435.1 430.6 437.3 438.2 433.9 429.2 424 414.9 405.8 398.1 390.9 385.3 379.6 374.1 364.9 354.6 343.1 332.1 323.8 317.3 309.6 302.1 292.7 282.7 271.6 254.6 242 231.8 222.6 213.4 206.9 212.1 215.2 218.4 221.8 224.8 223.6 220.2 216.7 213.1 210.4 208.9 203 198.4 195.9 197.8 199.1 200.3 200.2 198.8 194 187.6 173.9 156.2 142.3 127.5 116.5 107.9 100.8 94.3 84.7 77 69.6 61.6 54.1 46.6 40.7 36.4 33.4 28.8 25.8 19.3 16.1 13.1 13.4 14.1 13.9 13.8 13.1 13.8 14.6 14 14.1 16.4 21.1 20.4 10.7 8.1 7.1 6 5 -1.1 -1.1 -1.1 -1.1 -1.1 -1.1 -1.1 -1.1 -1.1 -1.1 -1.1 -1.1 -1.1 -1.1 -1.1 -1.1 -1.1 -1.1 -1.1 -1.1 -1.1 -1.1 -1.1 -1.1 -1.1 -1.1 -1.1 -1.1 -1.1 -1.1 -1.1 -1.1 -1.1 -1.1 -1.1 -1.1 -1.1 -1.1 -1.1
302.2 282.2 265.5 251.3 242.9 224.5 215.7 192.4 175 161.3 150.3 136.7 126.9 120 115.9 134.6 147.3 160.8 177.8 196.4 216.4 240.2 264.3 286.7 306.7 321.3 331.9 340.9 348.6 361.3 379.9 390.7 400.9 410.7 418.2 426.5 433.5 439.4 444.5 450.8 445.7 446.9 454.1 464.9 465.5 456.6 451.1 446.2 437 434.6 438.9 436.3 427 425.3 432.1 443.6 450 456.6 462.9 471.5 479.8 488.7 497.1 498.7 494 483 469.8 458.1 451.5 442 435.1 427.8 427.9 429.2 427.5 421.5 415.8 408.4 399.5 393.7 388.9 383.5 377.3 371.2 361.3 348 334.4 322 312.9 302.8 295.1 288.1 279.6 269.6 259.2 248.8 238.1 227.3 216.4 207 204.6 197.2 204.3 207.7 211.1 214.5 213.9 210.7 207.6 204.7 201.7 199.9 195.8 191.3 186.7 185.4 189.7 191 189.6 188.1 185.1 178.5 167.2 153.7 139.3 125.5 114.5 105.8 99.1 91.2 82.5 75.6 67.7 59.8 52.5 44.8 40.2 35.8 32.8 30 26.7 23 19.1 14.5 12.2 12.8 12.5 12.5 14.5 15.3 14.1 11.8 10.7 11.9 11.2 9.9 8.4 7.3 6.6 5 -1.1 -1.1 -1.1 -1.1 -1.1 -1.1 -1.1 -1.1 -1.1 -1.1 -1.1 -1.1 -1.1 -1.1 -1.1 -1.1 -1.1 -1.1 -1.1 -1.1 -1.1 -1.1 -1.1 -1.1 -1.1 -1.1 -1.1 -1.1 -1.1 -1.1 -1.1 -1.1 -1.1 -1.1 -1.1 -1.1 -1.1 -1.1 -1.1 -1.1
298.9 278.5 262.3 247.6 235.7 221.7 215.2 192.7 168.1 154 142.1 129.8 122.9 113.9 119.3 128.5 145.8 163.5 183.3 205.2 226.4 250.4 274.8 296 314 326.1 335.6 346.6 358.7 378.5 391.9 403.6 413 420.1 427.1 434.9 444.7 451 456.9 462.8 463 458.1 463.8 471.8 475.2 476.2 462 454.7 446.6 449.7 456.5 451.8 442.3 439.1 441.1 448.1 453.8 459.3 463.2 471.1 475.4 482.3 490.9 492.5 488.2 481.9 474.4 461.3 454 444 438.6 428.8 419.4 420.7 420.2 416.1 409.8 404.9 397.4 392.3 387.2 381.5 375.3 369.1 356.6 339.8 325.3 312.1 300.6 289.3 280.9 274 266.7 258.1 247.9 239.4 228.9 217.7 208.3 200.4 195.1 186.5 192.2 197 200.3 203.7 203.9 201 197.8 195.3 192.6 189.1 186.4 183.9 179.5 175.2 178.6 180.7 179.1 177.7 176.1 169.5 161.2 149.9 136.1 124.1 112.6 104.8 98 89.3 80.9 74.4 67 58.8 50 44.3 39 35.2 32.1 29.8 27.2 23.5 21.1 16.9 12.3 12 10.8 12.9 13.2 11.6 10.6 10.2 8.6 8.1 8.6 7.5 6 5.4 4.2 -1.1 -1.1 -1.1 -1.1 -1.1 -1.1 -1.1 -1.1 -1.1 -1.1 -1.1 -1.1 -1.1 -1.1 -1.1 -1.1 -1.1 -1.1 -1.1 -1.1 -1.1 -1.1 -1.1 -1.1 -1.1 -1.1 -1.1 -1.1 -1.1 -1.1 -1.1 -1.1 -1.1 -1.1 -1.1 -1.1 -1.1 -1.1 -1.1 -1.1 -1.1
290.8 272.5 256.5 237.6 225.8 223.2 206.3 181.1 159.9 146.4 135 126.7 116.9 111 125.1 138 151.1 169.6 191.5 213.8 236.5 261.2 283 303.4 318.9 329.1 340.5 356.8 372.3 388.7 400.5 415.7 422.3 424.6 435.8 442.8 452.6 460.4 466.7 472.1 477.2 471.8 468.4 475.5 485.1 487.8 479.8 470.2 467.5 464.4 469.2 463.5 460.6 462.8 455.6 454.8 462.6 465.9 466.7 472.3 475.4 481.2 484 485.1 482.3 476.4 470.3 463.8 458 445.4 438.9 432.6 420.1 413.2 412.2 408.6 404.6 400.1 396.1 391.2 386 379.9 373.2 367.2 351.5 332.8 316.1 303.1 289.8 279.8 263.9 264.1 257.6 250 238.9 230.2 219.4 207.7 199.8 191 183.3 177.6 181.4 186.8 189.9 191.8 192.8 190.8 187.9 186 183 178 175.4 172.8 170.8 159.5 169.4 172.2 171.2 169.3 166.5 161.7 154.4 145.7 135.1 123 113.3 104.8 97.1 88.2 80.7 74.1 67 58.1 49 42.8 39.2 34.6 31.4 29.2 25.1 23.4 20.9 17 14.4 11.7 10 11.8 11 10.2 10 8.5 5.2 3.8 5.2 4.8 4.2 -1.1 -1.1 -1.1 -1.1 -1.1 -1.1 -1.1 -1.1 -1.1 -1.1 -1.1 -1.1 -1.1 -1.1 -1.1 -1.1 -1.1 -1.1 -1.1 -1.1 -1.1 -1.1 -1.1 -1.1 -1.1 -1.1 -1.1 -1.1 -1.1 -1.1 -1.1 -1.1 -1.1 -1.1 -1.1 -1.1 -1.1 -1.1 -1.1 -1.1 -1.1 -1.1 -1.1
285.5 264.1 246.1 232.8 224 217.9 196 170.4 152 139.1 128.3 121.8 114.3 106.6 123 142 157.3 181.1 201.6 219.7 244.8 268.5 290.5 308.1 320.4 334.4 350.2 367.5 383.8 395.3 409.2 422.5 429.1 436.6 444.7 451.3 460.1 465.7 471.3 478.4 486.6 482.3 478.6 481.1 488.2 488.2 482.9 477.3 472.4 475.8 477 478 483.4 478.9 469 465.9 470.9 472.8 471.8 473.6 475.5 478.1 477.5 478.1 474.7 469.9 463.7 458.5 452.9 442.7 435.4 429.9 416.7 409.4 406.2 402.4 399.2 395.8 393.3 390.1 384.3 378.2 371.9 364.9 345.6 325 307.8 293.5 278.1 269 256 250.5 248.1 240.9 232.1 217.3 203.8 194.9 187.4 178.7 172.1 165.7 171 175.9 177.5 179.4 180.3 180 177.6 176 174.2 167 163.3 160.6 157 149.2 156.8 161.5 163.6 161.1 156.9 152.7 147.1 141 131.7 123.6 114.8 105.4 96.1 87.6 81.5 75 67.9 59.6 49.9 44 38.6 34.3 30 26.9 23.8 23.2 23.2 19 15.4 8.9 10.8 10.4 10 8.3 8 6.4 5.5 5.2 4.2 3.5 2.3 -1.1 -1.1 -1.1 -1.1 -1.1 -1.1 -1.1 -1.1 -1.1 -1.1 -1.1 -1.1 -1.1 -1.1 -1.1 -1.1 -1.1 -1.1 -1.1 -1.1 -1.1 -1.1 -1.1 -1.1 -1.1 -1.1 -1.1 -1.1 -1.1 -1.1 -1.1 -1.1 -1.1 -1.1 -1.1 -1.1 -1.1 -1.1 -1.1 -1.1 -1.1 -1.1 -1.1
274.8 254.7 242 224.2 216.5 212 185 163.3 142.2 130.4 122.8 114.1 104.6 111.5 130 144.6 163.6 188.5 210.1 233.1 253.1 278.2 294.6 305.1 317.9 337.6 361 378.6 395.1 403.7 415 427 433.9 448.5 454.5 461.3 465.8 470.6 480.1 483.3 490.2 488.2 483.7 482.2 483.5 485 484.4 483.1 481.3 486.7 485.5 493.1 492.3 485 476.2 474.2 477.6 479.2 480.1 477.1 475.5 473.6 472.2 471 467.6 464.4 458.2 454.6 447.6 439.6 430.7 422.8 410.4 403.6 400.1 398.1 395.3 392.2 389.2 386.2 381.2 375.8 370.4 359.6 338.2 317.1 300 283.7 267.9 249.7 251.5 229.3 236.4 231.8 219.5 203.8 190.5 181.6 174.4 167 163.5 161.7 157.7 162.9 164.9 166.7 167.7 167.7 167.3 165.5 163.7 159.9 153.2 148 145.9 139.7 143.5 150.3 154 151.7 147.4 143.1 138.8 136.2 129.2 122.4 115.5 106.1 96.2 88.4 82.3 75.7 68.9 54.7 50.4 43.5 38 31.5 27.6 25.8 24.6 25 25.3 20.2 16 9.6 11 9.9 8.4 6.5 5.6 6.1 5.4 5.5 3.6 2.4 1.2 0.1 -1.1 -1.1 -1.1 -1.1 -1.1 -1.1 -1.1 -1.1 -1.1 -1.1 -1.1 -1.1 -1.1 -1.1 -1.1 -1.1 -1.1 -1.1 -1.1 -1.1 -1.1 -1.1 -1.1 -1.1 -1.1 -1.1 -1.1 -1.1 -1.1 -1.1 -1.1 -1.1 -1.1 -1.1 -1.1 -1.1 -1.1 -1.1 -1.1 -1.1 -1.1 -1.1
264.1 241.6 230.7 216.1 210.8 201.9 177.6 149.5 138 123.4 115.5 104.7 105.2 121.5 134.8 151.8 169.1 193.9 219.8 241.9 265.3 285.4 301.2 316.5 331.9 352.8 372.1 389.1 402.1 410.3 421 431.5 443.3 456.8 462.4 465.6 469.3 475 480.7 486.5 492.7 494.8 490.2 489.9 488.4 487.7 492.9 486.2 483.3 491.2 492.3 496.8 494.9 486.9 477.6 479.3 482 484.1 487.7 481.9 474.4 473 470.4 465.7 461 457.6 452.3 447.8 444.9 436.5 426.7 417.1 406.3 399.1 395.4 393.6 390.6 387.8 385.3 382.3 378.6 374.1 368 355.3 331.4 310.5 293.4 275.5 260.5 245.4 229.2 215.8 224.3 218.6 204.4 189.7 178.7 171.1 163.5 157.3 155 151.6 148.1 145.3 152.4 155.1 154.7 154.5 155.7 154.2 152.4 148.2 143.1 136.9 139.1 132.5 132.5 138.7 143.5 142 138 133.6 129.5 129.4 125.9 120.3 116.2 106.3 95.8 88.7 82.5 76.1 69.8 66.1 56 44.6 36.2 30.8 26.4 25.3 24.8 24.8 22.7 20.1 14.9 11.6 8.6 7.9 6.9 6.4 6.5 6.1 5.5 4.4 2 1.1 0 -1.1 -1.1 -1.1 -1.1 -1.1 -1.1 -1.1 -1.1 -1.1 -1.1 -1.1 -1.1 -1.1 -1.1 -1.1 -1.1 -1.1 -1.1 -1.1 -1.1 -1.1 -1.1 -1.1 -1.1 -1.1 -1.1 -1.1 -1.1 -1.1 -1.1 -1.1 -1.1 -1.1 -1.1 -1.1 -1.1 -1.1 -1.1 -1.1 -1.1 -1.1 -1.1 -1.1
234.9 220.6 215.5 209.2 201.6 189.7 165.2 147.8 130.2 119.8 106.5 101.5 105.9 125.5 139.8 157.7 178.7 204.5 229.7 254.1 275.4 294.1 309.2 322.4 339.9 365.1 382.7 398.6 409 416.9 425.6 437.5 453 465 470.8 472.2 475.2 477.8 481.8 485.8 493.8 497 495 493.6 493.3 493 498.9 491.7 486 496 495.5 496.8 493.2 488 480.5 483.6 485.4 489.2 491.9 485.4 476 473.2 468.6 461.4 456.3 452.6 447 444.1 441.9 434.6 422.7 412.7 403.3 395.1 390.9 389.5 386.2 383.2 381 378.6 375.4 371 366.2 352.8 325.1 303.8 285.1 267.5 252.6 244.1 232.4 214 199.7 200.5 189.9 177.4 168.6 162.8 157 151.3 147 142.2 138.6 131.8 139.5 144 142.9 143.2 143.9 142.8 141.7 137.5 132.1 126.7 128.3 125.1 123.1 129.5 132.6 132 129.1 124.4 118.9 121.8 119 115.9 110.6 105.2 95.5 87.3 79.6 74.4 68.6 60.5 52.7 43.1 34.2 30.4 26.5 26.7 25.4 24.2 23.4 20.4 13.7 11.3 9.3 7.6 6.4 6.9 5.1 5.2 3.9 1.7 0.9 0.1 -1.1 -1.1 -1.1 -1.1 -1.1 -1.1 -1.1 -1.1 -1.1 -1.1 -1.1 -1.1 -1.1 -1.1 -1.1 -1.1 -1.1 -1.1 -1.1 -1.1 -1.1 -1.1 -1.1 -1.1 -1.1 -1.1 -1.1 -1.1 -1.1 -1.1 -1.1 -1.1 -1.1 -1.1 -1.1 -1.1 -1.1 -1.1 -1.1 -1.1 -1.1 -1.1 -1.1 -1.1
224.6 209.1 198 198.2 189.5 179.9 159.7 146.4 126 111 97.8 98.4 115.5 126.8 144.4 165.6 189 213.4 239.9 264.5 285.2 302.8 315.8 333.7 352.4 373 392.1 408.9 418.5 423 431.6 443.6 459.1 469.5 477.1 479.5 479.3 481.1 483.5 485 493.1 496.7 496 495.7 494.7 498.8 504.3 497.1 490.5 498 495.6 493.7 491.3 486.3 482 487.1 487.4 489.8 491.2 485.8 478.8 473.5 468 461.1 455.2 449.5 443.9 439.9 438.2 429.4 419.7 409.8 402.2 394.7 389.5 386 382 378.8 376.2 374.2 371.7 366.8 362 344.4 317.4 298 277.7 259.2 246.7 238 229.6 222.1 203.3 186.2 179.2 167.8 161.1 156.4 150.5 146.1 142.1 135.8 130.9 125 120.7 130.2 131.6 131.4 132 131.8 130.2 126.9 123.2 118.9 115.3 114.1 111.9 119.4 121.7 123.5 120.5 112.5 107.2 114.1 112.3 109.3 105.2 99.8 93.2 84.5 77.4 72 64.9 58.8 48.6 38.6 32.5 29.1 26.6 26.4 25.1 23.9 23.1 20.6 15.8 10.8 8.9 7 6.4 5.6 4.2 3.1 1.7 1 0.2 -1.1 -1.1 -1.1 -1.1 -1.1 -1.1 -1.1 -1.1 -1.1 -1.1 -1.1 -1.1 -1.1 -1.1 -1.1 -1.1 -1.1 -1.1 -1.1 -1.1 -1.1 -1.1 -1.1 -1.1 -1.1 -1.1 -1.1 -1.1 -1.1 -1.1 -1.1 -1.1 -1.1 -1.1 -1.1 -1.1 -1.1 -1.1 -1.1 -1.1 -1.1 -1.1 -1.1 -1.1 -1.1
219.4 203 187.9 174.9 180 169.4 152.2 140.9 121.9 101.4 96.9 107.2 117.8 130.8 149.1 173 198.1 224.4 249.8 274.6 293.3 311.5 327.4 342.9 360.8 381.6 399.5 416.7 429.3 433.7 440.4 448.7 466.6 479.7 482 484.2 480.9 480.3 485.8 483 490 493.7 496 496.8 496.4 501.6 504.3 502.2 492.3 496.7 496.1 493.2 490 485 483.9 488.2 488 490 489.2 484.1 478.3 470.4 465.1 459.9 454.2 447.5 438.5 437.1 434.1 428.1 417.7 407.6 401.5 394.6 389.2 383.1 378.3 374.7 371.4 369 364.6 362.2 352.5 337.2 311 293.6 275.3 255.5 240.3 228.9 221.7 212.4 202.8 188.7 175.6 167.3 162.3 158.1 150.5 145.5 138.5 130.5 128.4 124.9 120.7 114.2 118.7 120.2 121 120.8 118.8 114.9 113.7 109 103.4 97.9 98.8 105.2 108.7 112.6 112.1 103.2 97.8 104.7 104.8 101.8 99.1 95.3 89.4 81.2 73.7 68.9 62 55.1 45 34.8 31 28.5 27.8 26.6 25.5 25.1 23.7 20.9 18 11.9 8.6 6.4 5.4 5.1 2.6 1.7 1.1 0.4 -0.5 -1.1 -1.1 -1.1 -1.1 -1.1 -1.1 -1.1 -1.1 -1.1 -1.1 -1.1 -1.1 -1.1 -1.1 -1.1 -1.1 -1.1 -1.1 -1.1 -1.1 -1.1 -1.1 -1.1 -1.1 -1.1 -1.1 -1.1 -1.1 -1.1 -1.1 -1.1 -1.1 -1.1 -1.1 -1.1 -1.1 -1.1 -1.1 -1.1 -1.1 -1.1 -1.1 -1.1 -1.1 -1.1
212.5 195.5 180.9 167.4 163.9 155.4 151.8 140.8 118.2 93.3 101.7 111 121.2 134.3 157.1 183.7 207.6 233.5 258.4 283.2 300.1 318.1 336.2 352.2 370.3 388.6 408.6 427 439.3 442.5 444.4 455.6 474.4 482.6 484 484.5 483 481.1 485.5 482.1 486.4 490.6 492.6 495.5 496 500.3 505.7 502.1 494.7 501 499.4 491.7 488.1 485.6 486.9 488.1 486.3 486.1 486 483.1 477.6 466.5 461.8 457 450.4 442.3 434.4 434 428.8 423.9 413.9 406.1 399.6 394.4 390.1 383.7 376.8 371.2 361.1 362.5 356.5 354.9 345.8 328.8 306.3 288 272.8 254.3 237.9 225.4 216.3 204.5 195.3 185.1 169.6 166.2 159.4 155.4 149.6 142.2 137.8 137.7 132.2 130.1 125.2 119.1 111.1 104.9 107.9 108.8 107.5 102.9 99.1 97.3 93.8 90.1 88.5 89.6 99 102.1 104.8 99.8 90.2 93.5 93.9 91.6 89.8 88.6 83.1 76.7 67 64.3 58.8 51.2 41.8 33.4 30.6 28.5 27.2 26.2 26 25.8 25.1 22.4 19 13.3 9.3 7 4.9 3.2 1.5 1 0.5 -0.1 -1.1 -1.1 -1.1 -1.1 -1.1 -1.1 -1.1 -1.1 -1.1 -1.1 -1.1 -1.1 -1.1 -1.1 -1.1 -1.1 -1.1 -1.1 -1.1 -1.1 -1.1 -1.1 -1.1 -1.1 -1.1 -1.1 -1.1 -1.1 -1.1 -1.1 -1.1 -1.1 -1.1 -1.1 -1.1 -1.1 -1.1 -1.1 -1.1 -1.1 -1.1 -1.1 -1.1 -1.1 -1.1 -1.1
206.7 190.1 176.9 164.2 155.8 147 149.3 138.6 116.6 93.1 99.5 114.3 127.2 142.9 168.7 194.4 217.8 244.5 267.5 290.8 304.3 326 344.1 360.7 378.5 397 417.7 434.6 445.1 454.9 457.5 461.2 475.4 481 483.6 483 481.7 480 484.5 479.5 482.3 485.9 490.9 493.9 496.2 500.1 504.1 499.2 492.5 499.8 497.9 491.6 488.2 485.6 487.7 486.9 484.1 484.9 483.8 481.8 475.8 463.4 457.7 453.4 444.8 437.3 431.1 428.5 422.3 417.4 408.8 402.1 396.6 391.5 387.4 382 373.6 365.5 357.7 342.4 342.6 344.4 338.4 322.6 302.1 282.4 268.2 252.8 237.1 223.7 211.1 200.2 188.9 172.3 172.1 174.8 176.3 166.8 161.4 155.9 149.3 144.7 138.3 134.8 128.2 121.4 114.6 108.6 98.3 94.8 96.1 94.5 92.8 88.4 87.7 85.2 81.6 82 86.4 91.5 94.6 96.3 88 79.7 79.9 79 78.8 79.5 77 72.4 62 57.6 53.1 48.4 37.3 32.5 30 28.9 26.8 25.7 26.1 25.2 29.6 27.6 22.1 17.9 9.4 6.4 4.7 4.6 1.1 0.3 -0.1 -0.6 -1.1 -1.1 -1.1 -1.1 -1.1 -1.1 -1.1 -1.1 -1.1 -1.1 -1.1 -1.1 -1.1 -1.1 -1.1 -1.1 -1.1 -1.1 -1.1 -1.1 -1.1 -1.1 -1.1 -1.1 -1.1 -1.1 -1.1 -1.1 -1.1 -1.1 -1.1 -1.1 -1.1 -1.1 -1.1 -1.1 -1.1 -1.1 -1.1 -1.1 -1.1 -1.1 -1.1 -1.1 -1.1 -1.1
198.5 183.5 173 161.3 150.2 146.7 148.9 136.8 118.6 91.2 100.8 117.2 131.6 151.6 178.1 204.6 229.3 255.5 280.9 298.5 316.1 333.1 353 368.6 385.7 406.2 425.2 439.6 453.6 464.3 469.3 466.8 476.9 481.2 482.2 482.2 478.7 478.9 480.8 476.8 478.8 483.8 486.1 490.8 496.4 497.2 498.2 494.5 487.5 497.2 497.3 491.2 488 488.3 490.9 488.9 483.3 481.2 482.3 479.4 472.7 461.6 454.3 447.6 438.6 431 427 422.8 416.3 411.8 406.1 398.7 393.6 388.4 383.9 377.8 370.2 362.1 352.5 341.7 331.2 334.7 330.6 315.5 297.2 277.3 263.5 249.6 235.3 220.9 208.3 199.5 190.9 176 182.1 182.9 182.8 179.3 171.7 164.2 157.8 149.8 144.1 137.1 130.3 123.5 116.9 110.7 104.4 99.2 89.5 82 82.8 83.5 84 81.3 77.7 73.4 73.9 80.6 84.8 86.7 85.6 79.4 65.3 64.2 62.8 66.9 68.4 69.1 59.4 50.6 48.2 39.7 34.1 31.8 30 28 25.9 25.1 25.3 26.3 30.5 29.4 27.1 24.6 16.6 8.4 5.1 2.9 0.7 -0.3 -1.1 -1.1 -1.1 -1.1 -1.1 -1.1 -1.1 -1.1 -1.1 -1.1 -1.1 -1.1 -1.1 -1.1 -1.1 -1.1 -1.1 -1.1 -1.1 -1.1 -1.1 -1.1 -1.1 -1.1 -1.1 -1.1 -1.1 -1.1 -1.1 -1.1 -1.1 -1.1 -1.1 -1.1 -1.1 -1.1 -1.1 -1.1 -1.1 -1.1 -1.1 -1.1 -1.1 -1.1 -1.1 -1.1 -1.1 -1.1
193.2 179 166.6 157.2 149.5 150.3 145.3 131.7 108.5 90.3 106.7 123.5 137.7 159.6 188.6 213.8 239.4 267.1 288.8 306.6 324.5 343.6 362.2 373.9 396 413.3 431.3 444.1 461.1 470.4 476.5 471.3 477 480.7 480 479 477.8 478 476.1 474.1 474.2 479.1 482.6 488.5 492.9 493.8 492.2 487.1 480.5 494.6 497.4 492.3 490.5 491 493.6 489.9 482.6 479.7 479.7 475.3 467.2 457.4 453 440.6 431.3 425.8 422.1 416.4 408.9 408 403 396.5 390.7 385.5 380.5 374.1 366.3 357.3 347.4 337.7 320.2 320 319.1 309.1 291.7 274.5 260.5 247.3 232.3 218 206.5 196.4 183.1 181.7 188.8 190.1 189.8 187.1 183.3 175.1 163.5 155.2 146.7 139.7 132.9 126.2 120 114 107.6 100.3 93.3 89.2 86.4 79.3 80.3 77.1 73.5 73.4 73.4 73.4 74.2 77.9 77.8 75.9 69.9 54.7 46.6 52.3 60 63.5 57.8 48.6 40.5 36.3 34.8 30.8 28.8 27.2 25.8 25 25.1 26.3 29.4 29.5 29.4 26.8 17.2 9 9.8 4.8 1.6 -1.1 -1.1 -1.1 -1.1 -1.1 -1.1 -1.1 -1.1 -1.1 -1.1 -1.1 -1.1 -1.1 -1.1 -1.1 -1.1 -1.1 -1.1 -1.1 -1.1 -1.1 -1.1 -1.1 -1.1 -1.1 -1.1 -1.1 -1.1 -1.1 -1.1 -1.1 -1.1 -1.1 -1.1 -1.1 -1.1 -1.1 -1.1 -1.1 -1.1 -1.1 -1.1 -1.1 -1.1 -1.1 -1.1 -1.1 -1.1 -1.1
189.6 174.5 163.4 153.7 147.2 143.6 139.7 123.8 93.4 95.8 115.9 128.6 148 170.2 197.6 223.2 248.4 274.5 296.1 317.6 335.2 354.5 369.6 382.8 404.9 421.5 436.3 451.2 465.6 476.5 481.5 475.7 478.8 481.8 481.2 478.9 478 477.1 476.3 472.6 473.4 476.4 479.8 483.9 489.2 487.9 485.4 481.8 474.3 487.9 494.1 492.9 494 491.9 494.8 488.9 483.6 479.2 476.6 470.6 461.2 452.7 445.9 437.2 425.2 420.4 414.8 409.6 406.8 403.8 401.1 393.9 388.2 382.8 376.8 370.2 361.8 352.4 342.7 335.6 322.6 304.2 301.8 295 285.2 272.1 257.5 243.9 228.9 216.2 205 194.7 187.8 193.9 197.4 197.5 196.9 195 190.8 184.2 170.8 160.8 151.2 142.3 135.6 129 123 117.1 111 104.3 98.7 95.3 91.9 85.1 77.9 73.5 73.4 73.4 73.4 73.4 73.4 73.4 71 69 65.5 60.1 43.3 29.9 44.3 51.9 54.2 49.3 40.9 36.5 33.4 30.3 27.9 26.4 25.3 24.7 24.7 28.4 30 29.2 27.1 25.3 20.1 10.9 9.3 7 4.5 -1.1 -1.1 -1.1 -1.1 -1.1 -1.1 -1.1 -1.1 -1.1 -1.1 -1.1 -1.1 -1.1 -1.1 -1.1 -1.1 -1.1 -1.1 -1.1 -1.1 -1.1 -1.1 -1.1 -1.1 -1.1 -1.1 -1.1 -1.1 -1.1 -1.1 -1.1 -1.1 -1.1 -1.1 -1.1 -1.1 -1.1 -1.1 -1.1 -1.1 -1.1 -1.1 -1.1 -1.1 -1.1 -1.1 -1.1 -1.1 -1.1
182.6 168.9 160.3 152.8 146.8 140 127.5 103.2 86.2 101.1 115.7 134.9 158.8 181.1 207 230.2 257.7 282.2 301.7 325.4 342.3 362.4 377.1 393.4 415.2 429.5 445.7 458 470.2 480.9 483.4 483 482.9 485.9 485.8 480.8 480.4 477.8 477.7 473.7 468.7 472.1 474.2 476.6 477.6 477.3 473.6 471.4 465 484.3 489.7 489.7 489.9 492.6 492.2 488.3 480.8 476.4 472.6 464.5 456.6 448.3 439.9 428.8 420.5 413.9 409.6 405.3 402.6 400.6 396 391.6 386.5 380.6 373.4 366 356.8 347.3 338 329.4 316.7 302.6 288.8 279.6 270 261.9 250.8 239.8 225.2 213.2 200.1 199.3 200 206.3 208.1 206.6 204.4 201.1 196 188.8 177.4 166.7 156.8 146.5 138.5 131.9 126 120.2 114.5 109.5 104.6 100.7 97 91.5 86.7 81.2 73.4 73.4 73.4 73.4 73.4 73.4 66.9 55.5 48.9 33.9 35.8 33.8 22.7 40 44.9 44.9 39.8 35.2 31.5 29.1 27.3 26 24.9 23.6 24.9 25.1 25.1 24.3 24.5 22 21.1 20.4 13 6.1 5 -1.1 -1.1 -1.1 -1.1 -1.1 -1.1 -1.1 -1.1 -1.1 -1.1 -1.1 -1.1 -1.1 -1.1 -1.1 -1.1 -1.1 -1.1 -1.1 -1.1 -1.1 -1.1 -1.1 -1.1 -1.1 -1.1 -1.1 -1.1 -1.1 -1.1 -1.1 -1.1 -1.1 -1.1 -1.1 -1.1 -1.1 -1.1 -1.1 -1.1 -1.1 -1.1 -1.1 -1.1 -1.1 -1.1 -1.1 -1.1 -1.1
173.2 163.2 157.4 151.7 139.6 132.8 112.6 86.2 91.5 113.7 127.9 146.7 167.5 190.5 213.7 240.1 262.6 287 310.8 332.2 347.8 370.1 385.7 404.8 424.6 439.6 454.9 463.8 477.6 483.5 486.1 486.2 489.1 491.8 492.4 491.3 484 477.9 476.4 471.4 465.7 463.7 463.6 465.5 467.9 464.2 461.8 455.9 455.5 469.2 483.2 484.2 486.5 489.4 490.7 485.9 479.9 473.7 466.9 458.4 449.2 440.5 432 421.2 413.9 408 405.2 402 399.7 398 395.3 391.5 385.9 377.3 370.7 361.9 351.9 342.5 332.7 322 308.6 290.8 281.2 272 260 249.3 239.5 228.7 213.4 206 207.6 211.3 212.1 218.7 217.9 214.9 211.5 206.5 199.8 191.6 182.2 171.7 161.6 151.1 141.7 134.9 128.6 123.6 116.4 114.7 112.1 108.3 104.5 98.4 94.1 87.9 80.8 73.4 73.4 73.4 73.4 73.4 64.4 60.1 54.9 54.1 47.6 38.2 29.1 25.8 33.8 33.5 32.3 29.6 27.3 26.6 25.7 23.2 21.8 21.3 21.4 21.3 21.1 21.5 22.2 21.7 20.9 21.4 20.9 10.6 5.6 -1.1 -1.1 -1.1 -1.1 -1.1 -1.1 -1.1 -1.1 -1.1 -1.1 -1.1 -1.1 -1.1 -1.1 -1.1 -1.1 -1.1 -1.1 -1.1 -1.1 -1.1 -1.1 -1.1 -1.1 -1.1 -1.1 -1.1 -1.1 -1.1 -1.1 -1.1 -1.1 -1.1 -1.1 -1.1 -1.1 -1.1 -1.1 -1.1 -1.1 -1.1 -1.1 -1.1 -1.1 -1.1 -1.1 -1.1 -1.1 -1.1
163.8 161.1 158.5 146.2 134.9 121.9 99.6 83.3 103.7 120.3 139.5 159.2 178.4 202 225.3 249.2 270.6 298 321.2 334.8 360 380.9 392.8 411.8 429.7 449 462.9 471.3 481.6 485.4 487.8 492.6 494.7 498 502.5 499.5 488.9 480.4 474.8 466.8 458.6 452.6 452.5 454.1 453.9 454.3 446.2 440.3 440.4 455.5 468.9 476.7 484.2 487.3 487.2 482.7 475.4 469 460.4 453.1 442.6 433.9 425.3 413.6 407 402.8 399.3 397.9 397.7 396.6 395.3 391.5 386.8 378.6 371.2 361.1 349.2 338.5 327.4 314.2 295.2 283.2 273.7 264.6 252.7 240.8 228.5 224.2 220.9 219.5 223.6 225.3 225.1 229.3 227.6 224.7 220.1 214.5 207.3 196.9 187.6 176.3 166.1 155.8 145.8 138.3 132.6 128.5 126.2 122.6 120.5 116.7 111.4 105.1 98.7 92.6 87.7 83.2 80.8 75.6 73.4 73.4 72.6 72 67.9 62.5 52.6 42.9 34 25.7 17.2 13.1 22 23 24.4 24.7 23.9 21 19.5 18.9 19.2 19.1 19.2 18.3 18.3 18.1 19.7 21 21 11.1 6.1 -1.1 -1.1 -1.1 -1.1 -1.1 -1.1 -1.1 -1.1 -1.1 -1.1 -1.1 -1.1 -1.1 -1.1 -1.1 -1.1 -1.1 -1.1 -1.1 -1.1 -1.1 -1.1 -1.1 -1.1 -1.1 -1.1 -1.1 -1.1 -1.1 -1.1 -1.1 -1.1 -1.1 -1.1 -1.1 -1.1 -1.1 -1.1 -1.1 -1.1 -1.1 -1.1 -1.1 -1.1 -1.1 -1.1 -1.1 -1.1 -1.1
166.2 163.6 157.2 137.1 119 103.3 83.7 97.4 113.2 131 152.4 171.6 192.7 213.3 235.3 257.9 282.7 308.8 329.6 347.8 374.1 392 406.6 423.7 439 455.4 468.5 478.8 484.9 489.4 491.9 495.2 497.3 505.2 508.3 503.6 492.5 482.4 475.8 465.4 452.1 441.1 440.6 438.3 436.4 437.8 429.6 423 424.6 440.1 453.2 465.2 479.2 482.7 482.7 478.2 470.5 462.6 453.7 444.8 435.4 426.5 417.7 409 403.3 397.7 395 395.6 396.4 397.5 395.6 393.2 388.7 381.4 371.4 357.7 345.2 334.5 322.7 308.9 294.3 282.2 266.2 255.5 250.1 245.5 241.9 238.5 232.9 239.6 242.4 239.9 239.6 240.4 237.9 234.7 229.2 221 211.6 202.2 192.8 182.4 171 160.7 150.6 142.8 139.2 134.2 132.5 131.4 127.9 122 116.3 111.9 104.6 97.7 94 91.1 85.6 79.8 73.6 73.7 76.2 78.6 74.4 67.5 59.2 49.4 39.9 34.5 25.7 18 12.9 20 19.7 20.6 20.7 18.3 17.4 18 17.4 17.2 17.4 16.4 17.3 17 18.9 19.6 22 12.2 7.4 -1.1 -1.1 -1.1 -1.1 -1.1 -1.1 -1.1 -1.1 -1.1 -1.1 -1.1 -1.1 -1.1 -1.1 -1.1 -1.1 -1.1 -1.1 -1.1 -1.1 -1.1 -1.1 -1.1 -1.1 -1.1 -1.1 -1.1 -1.1 -1.1 -1.1 -1.1 -1.1 -1.1 -1.1 -1.1 -1.1 -1.1 -1.1 -1.1 -1.1 -1.1 -1.1 -1.1 -1.1 -1.1 -1.1 -1.1 -1.1 -1.1
163.4 154.8 147.7 124.8 108 83.5 87.2 104.7 124.1 143.5 162.4 182.4 202.4 223 243.3 269.3 292.5 318.5 340.3 365.2 387.9 401.8 413.7 431.3 446 458.6 476 484.2 489.3 493.5 497.6 498.5 499.4 507.9 511.9 504.4 494.7 485.6 479.2 464.8 447.4 422.9 416.9 414.6 414.4 414.8 413.2 409.1 409.3 422 438.8 456.3 471.2 476.8 476 471.8 464.8 453.7 445.6 436.2 427 420.3 412.4 404.7 398.3 392.3 391.1 392.9 394.9 396.3 395.6 394.6 391.4 384.8 371.1 355.9 341.4 328.7 316.8 304 294.9 283.2 270.3 271.5 264.5 259 254.2 248.9 255.4 261 261.8 258.2 254 251.8 249 245 236.2 226.8 218.7 209.4 198.8 188.4 178.4 168.8 159.7 149.9 145.4 140.3 136.9 135.2 131.7 125.8 120.2 116.5 109.5 100.6 99.9 97 92.6 86.9 80.8 77 80.2 83.8 81.6 76.4 66.9 56.2 44.4 41 40.4 21 5.7 15.3 18.7 17.8 16.5 16.6 17.8 16.4 14.7 13.5 13.3 12.7 12.4 12.8 15.6 18.6 18.4 15.8 7.7 -1.1 -1.1 -1.1 -1.1 -1.1 -1.1 -1.1 -1.1 -1.1 -1.1 -1.1 -1.1 -1.1 -1.1 -1.1 -1.1 -1.1 -1.1 -1.1 -1.1 -1.1 -1.1 -1.1 -1.1 -1.1 -1.1 -1.1 -1.1 -1.1 -1.1 -1.1 -1.1 -1.1 -1.1 -1.1 -1.1 -1.1 -1.1 -1.1 -1.1 -1.1 -1.1 -1.1 -1.1 -1.1 -1.1 -1.1 -1.1 -1.1
151.1 145.9 128.3 112.1 89 80.5 96.7 113.8 136.7 154 171.9 192.9 214.3 233.6 260 283.2 308 331.9 358.6 381.6 398.5 415.2 431 440.7 452.4 465.8 481.8 490.1 495.8 499.5 502.5 501.3 501.9 507.8 511.4 504.5 496.9 489.4 480.6 464.9 445.4 426.3 408 391.1 391.5 391.9 389.1 387.4 393.5 405.2 421.3 443.8 461.2 468.6 467.6 462.6 456.5 444.9 436.7 428.8 420.6 414.5 407.9 401.1 393.4 387.9 386.8 390.2 393 395 397 395.4 392.4 384.9 369.8 355.2 340.6 326.9 314.4 306.3 296.4 290 285.3 284.8 282.8 274.8 270.7 269.4 272.1 277 278.3 275 270.3 265.1 259.4 254.5 244.1 234.8 226.2 217.2 206.6 195.8 185.9 176.6 167.7 158.9 152 146.4 143.3 139.6 135.5 129.9 124.3 118.9 111.4 108.6 107 102.9 99 93.7 87.6 85.3 85.2 88.7 91 88.6 77 62.7 48.3 42.4 38.3 25.7 11.1 5.3 9.4 15.3 16.7 14.4 12.7 12.8 10.9 11.4 10.8 10.6 10.6 10.3 12.1 14.2 15.2 17.2 9.1 3.6 -1.1 -1.1 -1.1 -1.1 -1.1 -1.1 -1.1 -1.1 -1.1 -1.1 -1.1 -1.1 -1.1 -1.1 -1.1 -1.1 -1.1 -1.1 -1.1 -1.1 -1.1 -1.1 -1.1 -1.1 -1.1 -1.1 -1.1 -1.1 -1.1 -1.1 -1.1 -1.1 -1.1 -1.1 -1.1 -1.1 -1.1 -1.1 -1.1 -1.1 -1.1 -1.1 -1.1 -1.1 -1.1 -1.1 -1.1 -1.1
130 124.9 106.9 92.6 76.6 90.7 108.2 125.7 143.4 163.7 183.3 204 224.1 245.8 272.5 298.5 320.9 348.4 376.9 397.9 412.3 428.5 441.9 451.2 459.7 473.8 485.5 496.2 501.2 504 504.4 503.2 504.1 507.3 508.4 502.8 499.4 494.6 482.9 463.7 438.4 419.4 401.3 379.4 370.2 366.9 361.6 363.6 373.2 386.2 400.9 428.4 447.9 457.3 457.2 451.7 447.3 435.9 429.8 422.6 414.8 409.1 403.1 396.1 390.2 384.7 385.8 388.8 391.4 394.9 396.9 397 394.2 386.6 368.5 353.6 339.3 326.6 316.8 308 299 301.4 297.8 297.1 296.2 291 287.6 286.3 288.7 293.6 295.9 293.2 285.5 278 270.6 262 253.2 243.6 234.1 225 214.3 203.3 193.6 184.6 175.6 165.7 158.4 152.7 146.7 142.9 138.9 132.8 127.1 119.9 114.4 115.6 113.3 109 104.2 99.1 93.4 92.2 92.8 97.3 95.9 92 81.6 67.9 51 38.8 32.5 27.5 13.3 7.9 6.1 6.3 12.6 11.7 10.8 9.5 9.5 10.8 8.7 9.1 9.1 8.6 7.8 10.4 10 17.2 21.1 5.9 -1.1 1.9 -1.1 -1.1 -1.1 -1.1 -1.1 -1.1 -1.1 -1.1 -1.1 -1.1 -1.1 -1.1 -1.1 -1.1 -1.1 -1.1 -1.1 -1.1 -1.1 -1.1 -1.1 -1.1 -1.1 -1.1 -1.1 -1.1 -1.1 -1.1 -1.1 -1.1 -1.1 -1.1 -1.1 -1.1 -1.1 -1.1 -1.1 -1.1 -1.1 -1.1 -1.1 -1.1 -1.1 -1.1 -1.1 -1.1
101.9 108.7 91.2 70.3 86.4 101.7 117.5 135 154.1 174.4 193.7 212.2 238.1 262.1 285.4 310.3 343.4 366.7 386.8 410.4 423.8 439.1 450.2 459.5 467.4 478 489.1 499.7 504.4 506.1 505.6 505.1 506 507.1 506.6 503.3 500.7 497.1 486.5 448.5 428.1 411.8 392.7 371.7 348.5 345.9 337.9 343.6 352.8 371 386.2 409 430.9 442 441.6 440.2 433.7 425.1 421.4 415.8 409.3 403.4 397.2 390.8 386.4 379.4 383.3 386.1 390.2 393.1 396.1 396.6 395.3 385.3 368.4 352.8 339 328.8 319 310.2 306.1 309.7 309 307.9 307.2 303.8 303.9 302.8 305.2 310.3 312.4 309.3 299.8 288.5 278.1 269.5 261.7 253.3 243.4 234.2 222.7 210.8 201.6 191.8 182 172.1 164.7 158.6 152.1 145.5 141.4 134.8 129.8 124.8 122 121.1 116.3 111.1 106.3 101.5 98.6 99.2 99.3 100.6 97.8 93.6 82.5 69.3 52.9 38.3 37.1 24.5 15.9 8 6.1 5.6 7.1 10.7 9.2 6.9 5.2 4.6 4.7 4.3 4 5.5 5.2 7.2 7 7 5.7 -1.1 -1.1 -1.1 -1.1 -1.1 -1.1 -1.1 -1.1 -1.1 -1.1 -1.1 -1.1 -1.1 -1.1 -1.1 -1.1 -1.1 -1.1 -1.1 -1.1 -1.1 -1.1 -1.1 -1.1 -1.1 -1.1 -1.1 -1.1 -1.1 -1.1 -1.1 -1.1 -1.1 -1.1 -1.1 -1.1 -1.1 -1.1 -1.1 -1.1 -1.1 -1.1 -1.1 -1.1 -1.1 -1.1 -1.1 -1.1 -1.1
92.9 80.4 67.6 77.5 95 113.3 129.5 143.3 165.9 184.1 204 226 253.9 276.2 297.4 329.6 357.4 378.6 400.3 420.9 433.4 446.8 458 468.5 476.1 481.8 491.8 501.4 505.6 506.4 507.6 508.6 508.2 505.8 506.1 503.8 503.1 498.3 484 439.9 421.6 405.4 386.4 365.3 341.4 328.6 323.7 324.3 341.2 355.3 369.5 390.8 406.7 421.4 426.2 424.1 421 416.6 414.3 408.1 402 396.5 390.6 384.3 379.6 376 379.4 382 387.6 392.5 395 396.8 394.3 385.1 369.9 354.3 340.9 331.6 322 315.7 315 318.4 320.5 319.3 318.1 318.2 318.8 318.8 321.1 326.4 327.1 321.5 309.3 297.7 285.6 276.8 268.9 261.2 255.1 244.3 230.9 217.4 207.2 197.4 187.9 176.5 170.5 163.8 156.5 149.6 143.2 138.1 133 128.3 125.7 123.2 118.3 113.1 108.1 102.9 106.3 105.1 103.2 100.9 97.6 94 83.3 54.3 51.5 40.2 29.8 22.2 16.6 12.7 8.1 4.7 1.9 4.3 4.3 2.9 3.5 2.7 3.2 2.4 -1.1 -1.1 1.4 -1.1 -1.1 -1.1 -1.1 -1.1 -1.1 -1.1 -1.1 -1.1 -1.1 -1.1 -1.1 -1.1 -1.1 -1.1 -1.1 -1.1 -1.1 -1.1 -1.1 -1.1 -1.1 -1.1 -1.1 -1.1 -1.1 -1.1 -1.1 -1.1 -1.1 -1.1 -1.1 -1.1 -1.1 -1.1 -1.1 -1.1 -1.1 -1.1 -1.1 -1.1 -1.1 -1.1 -1.1 -1.1 -1.1 -1.1 -1.1 -1.1 -1.1 -1.1 -1.1 -1.1
82.3 62.9 72.8 86.2 107.3 121.4 138.1 158.3 176.8 193.2 216.5 241.5 266.9 290.2 315.5 345.6 369.4 390.3 411.5 428.6 439.9 454.4 466 475.4 481.3 486 494.9 502.7 506.6 508.1 510.1 511.9 512 506.9 507.1 505.8 505.7 499.1 487.7 447.6 415.3 400.9 380.5 359 337.5 321 309.2 313.4 327.5 340.4 354.2 370.6 387.1 401.6 406.8 409.6 408.9 406.3 403.2 398 393.8 389.5 383.5 379 374.1 373.9 374.6 379.1 384.5 389.8 393.5 396.1 394.3 385.2 370.7 355 343.3 334 326.1 324.2 325.9 329.6 331.9 330.9 331.5 332.8 333.6 333.7 331.5 340.7 340.8 334.7 320.4 307 295.3 283.6 275.7 268.1 261 250.6 237 223.5 213 203.1 193.8 182.5 175.7 168.3 160.9 153 146 140.2 135.7 131.1 127.2 123.2 120.9 115.3 110.9 107.8 114.2 108.4 105.4 102.6 97.8 90.5 80.4 65.8 53.3 41.4 31.6 23.2 14.4 11.5 10.5 5.3 4.1 3.3 3.1 3.1 1.9 -1.1 -1.1 -1.1 -1.1 -1.1 -1.1 -1.1 -1.1 -1.1 -1.1 -1.1 -1.1 -1.1 -1.1 -1.1 -1.1 -1.1 -1.1 -1.1 -1.1 -1.1 -1.1 -1.1 -1.1 -1.1 -1.1 -1.1 -1.1 -1.1 -1.1 -1.1 -1.1 -1.1 -1.1 -1.1 -1.1 -1.1 -1.1 -1.1 -1.1 -1.1 -1.1 -1.1 -1.1 -1.1 -1.1 -1.1 -1.1 -1.1 -1.1 -1.1 -1.1 -1.1 -1.1 -1.1 -1.1 -1.1 -1.1 -1.1
73 62 77.2 95.2 114.6 131.1 146.6 167.3 186 204.6 226.3 254.7 280.6 305.5 331.3 359.2 381.2 400.8 420.3 436.7 448.6 459.4 472.1 480.8 486.3 490 498.5 505.6 510.1 512.9 514.5 516 512.7 508 508.6 506.9 506.1 498.6 486.1 448.4 413.5 393.7 373.6 353.3 332.3 314.5 298.1 302.1 315 326.7 339.9 356 370.4 383.5 391.7 396.8 398 395.9 392.6 388.3 384.4 381 376.9 373.6 369.3 369 371 374.9 380.9 387 390.8 393.5 394.7 387 372.6 358 345.7 336.3 331.5 332 336 340.3 341.9 341.8 346.5 347.4 346.5 346.4 347.1 353.9 355.5 350.9 335.4 319.9 304.5 290.5 281.1 273.5 266.2 256.7 243.1 229.7 219.2 209.2 197.8 187.3 180.2 172.7 164.3 155.5 148.8 142.9 137.1 132.6 128.8 126 122.7 118.4 114 113.6 117.5 110.7 107.3 104.2 100 89.5 76.4 63.7 52.3 41.3 32.1 22.7 12.9 11.1 9.5 6.1 4.6 4 3.5 1.4 0.3 -1.1 -1.1 -1.1 -1.1 -1.1 -1.1 -1.1 -1.1 -1.1 -1.1 -1.1 -1.1 -1.1 -1.1 -1.1 -1.1 -1.1 -1.1 -1.1 -1.1 -1.1 -1.1 -1.1 -1.1 -1.1 -1.1 -1.1 -1.1 -1.1 -1.1 -1.1 -1.1 -1.1 -1.1 -1.1 -1.1 -1.1 -1.1 -1.1 -1.1 -1.1 -1.1 -1.1 -1.1 -1.1 -1.1 -1.1 -1.1 -1.1 -1.1 -1.1 -1.1 -1.1 -1.1 -1.1 -1.1 -1.1 -1.1 -1.1
63.2 64.4 82.6 104.3 125.5 140 155.1 174.5 194.5 213.9 240.6 268.7 295.4 322.3 350.1 371 391.9 408.5 429.8 446.7 455.6 464.3 478.2 482.8 488.6 494.1 502.2 508.4 513.2 517.9 519 520.1 516.8 511.2 508.7 507.1 505.7 498.1 483.6 445.2 413.1 386.7 368.7 348 327 310.9 295.3 285.3 303.6 315.3 327.1 341.4 355.2 367.8 377.1 383 385.8 384.9 383.2 379.3 376.8 373.8 369.7 367.6 363.8 362.9 366.2 371.7 377.7 383.1 387.5 391.4 392.7 385.7 371.1 358.4 347.4 341.9 341.2 346.9 347.8 348.7 350.8 353 356.8 358.4 358 357.4 359.3 369.3 371.1 363.6 347.5 330.1 311 297.2 285.8 278.1 270.7 259.6 247.5 235.9 225.6 216.6 206.3 195.1 184.8 176.2 167.1 158.1 150.5 145.1 139.6 134 130.5 127.6 123.5 119.8 116.6 118.1 118.5 113 109.4 106 100.4 87.6 74.9 63.6 54.3 41.5 35.4 24.4 12.8 9.6 7.2 4.7 3.6 -1.1 -1.1 0.4 -1.1 -1.1 -1.1 -1.1 -1.1 -1.1 -1.1 -1.1 -1.1 -1.1 -1.1 -1.1 -1.1 -1.1 -1.1 -1.1 -1.1 -1.1 -1.1 -1.1 -1.1 -1.1 -1.1 -1.1 -1.1 -1.1 -1.1 -1.1 -1.1 -1.1 -1.1 -1.1 -1.1 -1.1 -1.1 -1.1 -1.1 -1.1 -1.1 -1.1 -1.1 -1.1 -1.1 -1.1 -1.1 -1.1 -1.1 -1.1 -1.1 -1.1 -1.1 -1.1 -1.1 -1.1 -1.1 -1.1 -1.1 -1.1 -1.1 -1.1
59.9 75 93.4 115.8 131.6 149.9 165.8 184.8 201.6 226.5 250.7 282.8 309.4 337 358.3 378.4 397.8 417.9 438.3 453.2 461.6 468.7 480.1 484.6 489.9 496.6 504.1 510 513.8 518.6 520 522.6 518.8 512.6 509.5 506.8 504.5 497.9 485 444.1 410.2 386.1 366.7 347.4 325.4 306.9 290.4 275.3 290 302.8 315.3 327.3 339.7 354.1 363.6 370.7 372.1 373 373.4 371.9 369.3 366.5 362.6 360 358.4 357.7 361.4 367.2 373.7 379.1 382.7 389.7 390.6 384.1 370.1 357.5 350.8 348.7 356.4 357.8 354.5 355.4 359.3 362.2 365.3 366.6 365 362.5 364.1 376.5 374.9 367.8 352.2 334.9 314.5 300.5 289.1 282.2 272.6 259.5 250.3 242.1 231.9 222.6 214.3 203.5 190.3 179.5 170 160.8 152.7 146.5 141 135.6 132.4 129 124.5 121 119 119.5 119.9 113.5 109.9 106.8 100.9 88.3 77.2 64.4 53.2 41.8 37.1 24.1 14.2 10.3 6.3 3.7 3.6 3 -1.1 -1.1 -1.1 -1.1 -1.1 -1.1 -1.1 -1.1 -1.1 -1.1 -1.1 -1.1 -1.1 -1.1 -1.1 -1.1 -1.1 -1.1 -1.1 -1.1 -1.1 -1.1 -1.1 -1.1 -1.1 -1.1 -1.1 -1.1 -1.1 -1.1 -1.1 -1.1 -1.1 -1.1 -1.1 -1.1 -1.1 -1.1 -1.1 -1.1 -1.1 -1.1 -1.1 -1.1 -1.1 -1.1 -1.1 -1.1 -1.1 -1.1 -1.1 -1.1 -1.1 -1.1 -1.1 -1.1 -1.1 -1.1 -1.1 -1.1 -1.1 -1.1
70.9 85 101.9 124 142.5 159.8 175.9 193.4 217.9 246.1 264.3 296.1 322.9 345.2 366.2 384.6 404 424.9 444.3 459.1 466 471 478.2 483.4 489.6 495.2 502.9 508.6 511.9 515.9 518.3 521.3 519.7 515.1 510.7 507.2 503.9 497.8 486.7 449.3 412.8 386.2 367.3 347.3 326.3 306.7 288.4 275.4 276 289.8 302.4 314.9 326.3 341.2 350.3 358.3 361.8 363.4 363.6 363.9 362 359 355.5 352.3 351.4 351 356.6 362.4 369.3 373.6 379.8 386 387.3 382.2 369.2 360.1 357.2 362.8 365.9 363.7 360.9 363.4 366.2 369.8 370.8 371.3 367.3 363.8 370.3 374.5 372.7 363.1 346 332.1 315.5 302.1 291.7 282.1 271.6 260 251.8 246.2 238.1 228.4 220.2 210.1 195.7 183.1 173.7 164.2 155.1 148.1 142.3 137.3 134 129.7 125.3 121.9 120.6 119.6 117.2 114 112.2 105.1 96.2 84.8 72.1 63.1 50.7 40.1 28.2 23.3 22.6 11.6 6.9 3.2 3.5 1.4 -1.1 -1.1 -1.1 -1.1 -1.1 -1.1 -1.1 -1.1 -1.1 -1.1 -1.1 -1.1 -1.1 -1.1 -1.1 -1.1 -1.1 -1.1 -1.1 -1.1 -1.1 -1.1 -1.1 -1.1 -1.1 -1.1 -1.1 -1.1 -1.1 -1.1 -1.1 -1.1 -1.1 -1.1 -1.1 -1.1 -1.1 -1.1 -1.1 -1.1 -1.1 -1.1 -1.1 -1.1 -1.1 -1.1 -1.1 -1.1 -1.1 -1.1 -1.1 -1.1 -1.1 -1.1 -1.1 -1.1 -1.1 -1.1 -1.1 -1.1 -1.1 -1.1
79.7 92.8 110.8 132 151.2 169 188.7 210.5 237.6 263.2 291.3 306.4 334.9 359.5 373.3 390.9 411.4 431.2 450.2 461.7 465.7 469.7 475.4 482.6 488 492.4 499.4 504.3 508.4 511.6 513.8 517.5 517.3 514.1 511.5 508 502.5 494.9 484.9 454.9 414.4 385.7 367.9 347.5 327.2 307.6 289.8 274.2 262.5 277.8 290.4 302.5 314.7 326.9 337.1 346.3 350.7 353.4 354.1 355.3 353.3 350.2 348 346.7 344.7 345.8 350.9 358 363.8 368.7 375.5 382.5 383.2 378.6 368.1 362.1 360.3 362.6 366.3 366.1 364.7 368.2 371.4 375.3 379.1 381.8 369.2 367.5 369.9 372 366 354.1 340.1 326.1 313.8 300.8 291 281.6 270.4 262.4 254.7 249 242 232.6 223.4 213.4 199.7 186.7 176.3 166 157.3 149.1 143.5 138.9 134.7 130.4 126.2 123.3 122.5 121.3 118.9 118.5 110.8 102.8 94.4 84.5 71.7 55.8 46.5 34.7 34.4 32.3 23.7 13.9 7.6 4.1 3.7 0.8 -1.1 -1.1 -1.1 -1.1 -1.1 -1.1 -1.1 -1.1 -1.1 -1.1 -1.1 -1.1 -1.1 -1.1 -1.1 -1.1 -1.1 -1.1 -1.1 -1.1 -1.1 -1.1 -1.1 -1.1 -1.1 -1.1 -1.1 -1.1 -1.1 -1.1 -1.1 -1.1 -1.1 -1.1 -1.1 -1.1 -1.1 -1.1 -1.1 -1.1 -1.1 -1.1 -1.1 -1.1 -1.1 -1.1 -1.1 -1.1 -1.1 -1.1 -1.1 -1.1 -1.1 -1.1 -1.1 -1.1 -1.1 -1.1 -1.1 -1.1 -1.1 -1.1
85.7 99.2 119 140.6 161.7 183 203.6 232.4 255.3 279.6 308.8 335.1 356.4 366.6 378.9 397.4 417.2 436.9 452.8 460.3 464.2 467.8 473.1 479 485.3 488.6 495.1 500.2 503.4 507.5 509.4 512.4 512.3 510.6 508.7 506.1 499.9 489.3 481.7 459.3 418.5 384 368.1 348.6 328.8 309.2 290.4 274.6 259.5 264.7 277.4 290.2 303.1 314.2 324 333.6 338.9 344 345.9 346.8 344 341.4 340.1 338.9 338.9 338.9 346.3 351.8 357.3 363.2 370.3 377 378.7 372.8 366.2 362.4 361.7 363.7 366.2 367 369.6 373.6 374.7 379.2 379.1 376.3 368.7 366.8 368.6 365.4 357 346.5 333.8 320.4 307.8 299.7 289.6 280.5 272.7 266 258.7 251.7 242.2 232.3 222.8 212.5 202.2 189.3 177.9 166.7 157.6 150.3 144.9 139.8 135.5 131.2 126.9 124.9 123.6 121.3 120.7 115.1 108.8 100.7 92.7 82.6 71.1 59.8 50.7 42.6 39.2 35.6 26.9 14.7 7.7 4.8 3.8 0.7 -1.1 -1.1 -1.1 -1.1 -1.1 -1.1 -1.1 -1.1 -1.1 -1.1 -1.1 -1.1 -1.1 -1.1 -1.1 -1.1 -1.1 -1.1 -1.1 -1.1 -1.1 -1.1 -1.1 -1.1 -1.1 -1.1 -1.1 -1.1 -1.1 -1.1 -1.1 -1.1 -1.1 -1.1 -1.1 -1.1 -1.1 -1.1 -1.1 -1.1 -1.1 -1.1 -1.1 -1.1 -1.1 -1.1 -1.1 -1.1 -1.1 -1.1 -1.1 -1.1 -1.1 -1.1 -1.1 -1.1 -1.1 -1.1 -1.1 -1.1 -1.1 -1.1
91.9 109.3 128.7 149.2 171.4 196.8 220.4 249.5 271.3 291.4 320.7 348.3 365.8 375.7 386.5 407.7 424.3 441.7 454.1 460.8 463.3 466.2 471.2 475.9 481.3 484.7 490.5 495.9 499.6 502.2 505.2 505.7 505.4 505.9 504.2 502.9 494.4 488.1 481.7 449.7 415.1 385.4 368 350 330.4 310.8 291.1 275.1 259.2 252.5 266.4 279 291.7 303.6 313.3 322.5 329.3 334 336.1 337.7 335.4 333.8 332.4 333 331.6 332.2 339.5 345 351.3 357.7 364.6 372.5 373.7 368.5 362.8 360 361.1 364.5 365.4 367.7 370.1 372.2 375.5 376.7 376.5 370.1 366 365.2 364.3 359.1 348.6 337.9 327.5 315 303.8 296.2 288.8 281.3 274 267 259.6 251.7 242.2 232.1 222.1 211.3 201.9 189.2 175.3 165 156.9 149.6 147 140.9 136.5 130.9 128 126.3 123.5 121.1 118.6 113.3 106.3 98.3 90.1 80.3 72.4 61 54.6 46.2 40.5 33.8 26.8 14.5 7.7 5.5 3.9 0.7 -1.1 -1.1 -1.1 -1.1 -1.1 -1.1 -1.1 -1.1 -1.1 -1.1 -1.1 -1.1 -1.1 -1.1 -1.1 -1.1 -1.1 -1.1 -1.1 -1.1 -1.1 -1.1 -1.1 -1.1 -1.1 -1.1 -1.1 -1.1 -1.1 -1.1 -1.1 -1.1 -1.1 -1.1 -1.1 -1.1 -1.1 -1.1 -1.1 -1.1 -1.1 -1.1 -1.1 -1.1 -1.1 -1.1 -1.1 -1.1 -1.1 -1.1 -1.1 -1.1 -1.1 -1.1 -1.1 -1.1 -1.1 -1.1 -1.1 -1.1 -1.1 -1.1
101 122.1 139.3 160.3 180.6 204.9 230.6 261.5 280.1 306.8 333.6 355.6 375.2 386.3 394.9 412.4 429.9 444.5 455.3 460.5 462.5 465 470 474.6 478.8 481.9 485.7 489.5 494.6 496.2 498.5 500 500 499.8 499.2 497.5 491.3 485.8 475.8 454.3 417.9 387.4 363.9 350.3 331.1 311.8 292.5 275.2 260.1 244.5 254.1 267.2 280.3 293.6 303.4 311.7 320 324.9 327.1 328.7 328 325.9 325.4 324.9 324.2 326.7 333 339.4 345.8 352.3 359.1 364.9 367.2 364.5 360.8 356.8 360.1 362.9 364.2 366.4 368.6 371.4 373.8 373.9 370.5 367.5 366.4 366.8 363.6 357.2 346.2 331.9 321.2 309.4 301.7 295.6 289.3 282.3 274.9 267.4 259.8 251.3 241.4 232.1 221.1 210.3 198 182 167.1 159 153.4 145.1 139.9 136.9 133.8 130.5 128.5 126.2 123.7 120.9 116.7 111.2 104.8 96.7 87.2 79.5 73.2 65.8 57.9 49.2 40.1 23.3 20.1 8.5 3 4.9 -0.6 -1.1 -1.1 -1.1 -1.1 -1.1 -1.1 -1.1 -1.1 -1.1 -1.1 -1.1 -1.1 -1.1 -1.1 -1.1 -1.1 -1.1 -1.1 -1.1 -1.1 -1.1 -1.1 -1.1 -1.1 -1.1 -1.1 -1.1 -1.1 -1.1 -1.1 -1.1 -1.1 -1.1 -1.1 -1.1 -1.1 -1.1 -1.1 -1.1 -1.1 -1.1 -1.1 -1.1 -1.1 -1.1 -1.1 -1.1 -1.1 -1.1 -1.1 -1.1 -1.1 -1.1 -1.1 -1.1 -1.1 -1.1 -1.1 -1.1 -1.1 -1.1 -1.1 -1.1
113.6 132.7 153.2 176.4 193.1 214.7 242.2 267.8 287.7 317.4 343 363.6 382.2 393.7 404.5 417.6 432.9 445.4 454.7 458.8 461.6 463.8 468.6 473.3 476.4 479.7 482.5 485 487.8 490 491.3 492.5 493.2 494.9 494 489.2 484.4 481 469.5 453.2 420.4 389 368.2 350.6 331.8 313.2 293.1 274.8 259.6 243.9 241.4 256.7 269.5 282.5 293.4 302.1 310.7 315.9 319.1 321.6 321.2 319.3 318.1 317.1 313.3 318.7 326.2 334 340.4 346.8 352.3 357.3 361.4 361 355.1 354.6 358.6 360.2 362.8 365.5 368.6 370.5 372.8 370.9 367.4 367.6 370.5 373.6 373.1 364.7 351.6 337.1 325 309.4 301.8 295.2 288.4 281.8 275.3 267 258.3 250 242.9 235.2 222.5 208.8 199.3 178.6 179.4 172 160.8 149.8 145.4 138.3 131.7 125.3 123.9 123.2 121.4 118.9 116.4 109.9 103.2 95.1 86.2 79 72.6 68.4 60.9 52.3 37.5 37.9 33.4 16.7 9.6 5.9 0.8 -1.1 -1.1 -1.1 -1.1 -1.1 -1.1 -1.1 -1.1 -1.1 -1.1 -1.1 -1.1 -1.1 -1.1 -1.1 -1.1 -1.1 -1.1 -1.1 -1.1 -1.1 -1.1 -1.1 -1.1 -1.1 -1.1 -1.1 -1.1 -1.1 -1.1 -1.1 -1.1 -1.1 -1.1 -1.1 -1.1 -1.1 -1.1 -1.1 -1.1 -1.1 -1.1 -1.1 -1.1 -1.1 -1.1 -1.1 -1.1 -1.1 -1.1 -1.1 -1.1 -1.1 -1.1 -1.1 -1.1 -1.1 -1.1 -1.1 -1.1 -1.1 -1.1 -1.1
127.6 148.3 169.3 189 207.6 228.8 252.2 273.2 296.8 325.6 348.9 368.3 386.6 398.4 408.2 420.8 435.3 446.5 454.8 458.2 460.6 463.2 467.6 472 474.4 476.9 479.4 481.1 481.9 484 485.3 485.4 485.3 485 485.4 481.2 478 473.9 463 449.4 430.8 394.3 368.2 352.1 333.3 314.6 294.5 274.3 258.8 241.4 229.1 247 261.6 274.3 284.8 293.9 301.6 306.7 311.1 313.4 313.4 312.8 311.2 309.5 302.7 312.9 320.3 327.4 334.7 341.5 346.7 350.1 353.4 355.1 350.4 352.6 356.3 358.1 361 366.4 370 371 371.9 370.4 370 373.7 377 383.6 386.2 374.1 357.5 345.4 333.3 314.6 303.4 295.3 288.4 281 273.5 265.4 257.2 248.5 239.7 232.2 221.5 211.5 202.6 190.5 189.1 181 170 155.3 149.1 143.4 136.1 128.9 123.3 117.9 112.9 111.9 111.3 102.1 97.7 93.6 85.7 78.1 73 70.1 56.3 47.8 46.3 42.6 33.7 20.4 11.4 6.2 -1.1 -1.1 -1.1 -1.1 -1.1 -1.1 -1.1 -1.1 -1.1 -1.1 -1.1 -1.1 -1.1 -1.1 -1.1 -1.1 -1.1 -1.1 -1.1 -1.1 -1.1 -1.1 -1.1 -1.1 -1.1 -1.1 -1.1 -1.1 -1.1 -1.1 -1.1 -1.1 -1.1 -1.1 -1.1 -1.1 -1.1 -1.1 -1.1 -1.1 -1.1 -1.1 -1.1 -1.1 -1.1 -1.1 -1.1 -1.1 -1.1 -1.1 -1.1 -1.1 -1.1 -1.1 -1.1 -1.1 -1.1 -1.1 -1.1 -1.1 -1.1 -1.1 -1.1 -1.1
139.3 164.2 183.1 206.2 226.6 240.1 261.4 281.5 306.4 330.8 352.7 371.9 388.5 400.7 410.6 426.3 437.4 447.8 453.8 458.2 461.4 464.4 468 471.2 472.7 474.1 474.2 475.7 476.2 477.3 478.5 477.9 475.8 475.7 473.7 472.5 469 462.9 452.4 442 425.4 402.9 370.9 352.3 334.7 316.5 297.2 273.5 256.7 240.3 224.3 240.4 253.9 266.5 276.1 285.3 292.7 297.3 302 305 305 305.1 303.7 300 295.3 307 314.5 321.7 328.8 335.8 340.8 344.5 348.1 350.5 345.4 350.4 353.9 357 362.6 368.3 372.7 372.2 371.6 370.7 375.3 379.3 387.8 393.6 391.4 379.2 365.9 355.4 345.6 321.2 304.9 296.9 290 284.9 276.6 267.4 258.7 251.8 244.2 236.9 225.3 221.9 214.2 205 196.9 187.2 174.2 159.9 151.2 144.3 137 131.3 126 121.4 117.8 113.6 110.2 100.3 89.6 87.8 83.6 75.5 73.4 70.1 64.7 57.8 50.3 42.1 34.4 23.9 12.7 5.8 -1.1 -1.1 -1.1 -1.1 -1.1 -1.1 -1.1 -1.1 -1.1 -1.1 -1.1 -1.1 -1.1 -1.1 -1.1 -1.1 -1.1 -1.1 -1.1 -1.1 -1.1 -1.1 -1.1 -1.1 -1.1 -1.1 -1.1 -1.1 -1.1 -1.1 -1.1 -1.1 -1.1 -1.1 -1.1 -1.1 -1.1 -1.1 -1.1 -1.1 -1.1 -1.1 -1.1 -1.1 -1.1 -1.1 -1.1 -1.1 -1.1 -1.1 -1.1 -1.1 -1.1 -1.1 -1.1 -1.1 -1.1 -1.1 -1.1 -1.1 -1.1 -1.1 -1.1 -1.1
154.2 173.8 197.3 225.4 241.7 251.9 268.7 289.7 315.5 338.9 359.9 377.2 391.9 404.3 413.8 429.9 439.4 447 453.5 458.3 462.7 464.7 468.9 470.4 470.4 471.3 471.6 471.7 471.5 469.5 468.9 468.5 468.2 466.4 462.3 459.5 456 450.9 441.1 430.8 417.8 403.6 379.8 354.7 334.1 315.8 296.9 274.3 250 232.2 217.9 234.1 246.5 257.5 266.8 276.3 282.9 286.8 290.7 295.4 296.2 296.8 294.8 290.8 292.6 301.7 308.8 316 323.2 330 334.7 338.4 341.7 344.2 341.4 346.9 353.1 357.8 367.7 374.9 379.5 375.7 372.3 373.3 377.7 384.8 391.6 392.6 389 381.1 369.2 359.9 345.6 325.7 316.6 309.3 305.9 295.8 284.9 271.3 262.1 255.3 248.2 240.7 236.6 232.6 227.3 213.6 202.8 190.6 176.8 163.1 153.6 144.9 138.6 133.2 127.8 123.1 119.9 116.1 111.7 105.1 95.3 84.9 83.9 73.5 71.1 72 66.9 59.3 49.9 42.3 34.6 24.5 16.6 7 -1.1 -1.1 -1.1 -1.1 -1.1 -1.1 -1.1 -1.1 -1.1 -1.1 -1.1 -1.1 -1.1 -1.1 -1.1 -1.1 -1.1 -1.1 -1.1 -1.1 -1.1 -1.1 -1.1 -1.1 -1.1 -1.1 -1.1 -1.1 -1.1 -1.1 -1.1 -1.1 -1.1 -1.1 -1.1 -1.1 -1.1 -1.1 -1.1 -1.1 -1.1 -1.1 -1.1 -1.1 -1.1 -1.1 -1.1 -1.1 -1.1 -1.1 -1.1 -1.1 -1.1 -1.1 -1.1 -1.1 -1.1 -1.1 -1.1 -1.1 -1.1 -1.1 -1.1 -1.1
163.9 183 214.5 236.1 254.9 264.2 280.3 304 322.3 343.5 365.1 381.7 396.5 410.2 420 432.6 440 447.5 454.5 459.3 464 465.8 469.4 470 468.2 468.5 468.4 466.5 466.7 464.4 461.7 459.4 457.3 457.4 453 449.4 443.6 438.3 429.6 419.4 411.9 397 377.8 355.1 333.8 314.1 293.5 274.5 251.1 231.3 217.5 222.5 239.9 248.3 257.5 268.2 274.2 278.2 283 286.2 287.4 287.9 287.7 278.1 285.1 296.2 303.3 310.3 317.3 323.4 328.5 331.9 334.9 333.3 338.4 344.8 352.8 362.5 372.5 381 382.6 377.5 372.4 373.8 379.5 388.9 392 390.7 388.2 382.9 368.3 357.5 346.6 331 328.8 326.8 322.9 310.6 289.9 276.3 265.6 258 250.3 240.8 242.6 243.3 236.1 221.6 206.2 193.1 179.5 166.5 155.7 144.4 140.1 135 129.6 124.8 121.5 116 109.5 101.9 93.9 90.9 83.3 78.3 75.7 73.6 67.2 58.2 49.3 41.7 34.1 23.2 11.3 6.2 -1.1 -1.1 -1.1 -1.1 -1.1 -1.1 -1.1 -1.1 -1.1 -1.1 -1.1 -1.1 -1.1 -1.1 -1.1 -1.1 -1.1 -1.1 -1.1 -1.1 -1.1 -1.1 -1.1 -1.1 -1.1 -1.1 -1.1 -1.1 -1.1 -1.1 -1.1 -1.1 -1.1 -1.1 -1.1 -1.1 -1.1 -1.1 -1.1 -1.1 -1.1 -1.1 -1.1 -1.1 -1.1 -1.1 -1.1 -1.1 -1.1 -1.1 -1.1 -1.1 -1.1 -1.1 -1.1 -1.1 -1.1 -1.1 -1.1 -1.1 -1.1 -1.1 -1.1 -1.1
171.8 193.8 220.7 245.5 263 274.2 294 316 334.4 355 371.7 386.8 401.7 414.5 424.5 434.5 441.5 448 455.2 460.6 465 467.1 470 469.7 466.8 465.6 464.3 462.5 460.9 459.8 457.8 455.1 451.5 448.4 444.5 439.2 431.8 425.4 418.1 409.4 402.8 390.5 373.4 351.5 327.3 307.8 287.7 268.5 248.3 229.5 214.2 216.3 233.2 242.1 250 259.8 265.7 270.3 275.4 278.4 279.7 279.9 279.6 263.5 280.4 289 297.2 304.3 311.3 316.8 322.5 326.7 327.6 329 336.5 344.9 355.3 366.7 377 385.5 384.6 378.5 372.4 373.8 380.5 387.7 389.2 389.8 386.8 378.9 367.3 358.2 351.4 342.1 340.2 338.4 335.9 322.7 301.1 281.6 268.1 260.2 252.1 247.8 250.1 247 241.2 224.6 208.9 195.1 182.1 170.1 156.8 145.7 141.6 136.6 131.4 126.4 121.1 114.8 107.3 99.7 92.8 87.7 84 83.9 81.3 74.9 68.1 58.1 50.3 41 34.5 23.3 9.4 1.3 -1.1 -1.1 -1.1 -1.1 -1.1 -1.1 -1.1 -1.1 -1.1 -1.1 -1.1 -1.1 -1.1 -1.1 -1.1 -1.1 -1.1 -1.1 -1.1 -1.1 -1.1 -1.1 -1.1 -1.1 -1.1 -1.1 -1.1 -1.1 -1.1 -1.1 -1.1 -1.1 -1.1 -1.1 -1.1 -1.1 -1.1 -1.1 -1.1 -1.1 -1.1 -1.1 -1.1 -1.1 -1.1 -1.1 -1.1 -1.1 -1.1 -1.1 -1.1 -1.1 -1.1 -1.1 -1.1 -1.1 -1.1 -1.1 -1.1 -1.1 -1.1 -1.1 -1.1 -1.1
177.5 204.5 229.3 250.1 269 284.2 303.1 322.4 342.3 362.1 377.9 393.2 407.9 418.5 428.1 437.2 442.7 448.9 456 462.2 466 467.9 469.5 469 465.3 462.7 460.5 458.8 457.2 454.2 451.5 447.8 442.7 439.1 435.9 428.7 419.6 410.1 405.2 399 393.9 383.6 365.3 340.4 318.4 300.1 281.2 263 243.8 224.6 210.7 212.2 226 234.1 242.7 252.5 258.6 262.2 267.9 270.9 271.9 271.8 270.6 260.7 275 284.2 291.2 298.2 304.7 310.3 316.4 320 320.3 326.6 336.8 346.9 357.5 370 378.4 381.8 380.8 375.4 371 375.2 380.7 385.2 387.6 387.3 382.2 373.7 366.9 360.6 357.6 355 344.5 342.1 337.6 325.5 305 287.9 270 261.3 253.6 250.2 252.6 248.7 238.8 223.3 210.6 197.3 184.8 172.7 157.5 152.9 147.1 138.9 133.1 126.9 120.5 114.2 108.8 103.5 96.7 91.2 90.6 89.9 85.6 76.8 68.5 58.9 49.9 40.5 34.8 27 9.6 2 -1.1 -1.1 -1.1 -1.1 -1.1 -1.1 -1.1 -1.1 -1.1 -1.1 -1.1 -1.1 -1.1 -1.1 -1.1 -1.1 -1.1 -1.1 -1.1 -1.1 -1.1 -1.1 -1.1 -1.1 -1.1 -1.1 -1.1 -1.1 -1.1 -1.1 -1.1 -1.1 -1.1 -1.1 -1.1 -1.1 -1.1 -1.1 -1.1 -1.1 -1.1 -1.1 -1.1 -1.1 -1.1 -1.1 -1.1 -1.1 -1.1 -1.1 -1.1 -1.1 -1.1 -1.1 -1.1 -1.1 -1.1 -1.1 -1.1 -1.1 -1.1 -1.1 -1.1 -1.1
186 212.9 236.2 254.8 274.7 291.5 308.6 328.5 348.6 367.3 383.6 398.9 412.5 421.6 430.9 439.2 445.4 450.7 458.2 463.9 467.2 468.8 469.8 468.3 463.7 459.7 457.4 454.5 452.3 447.9 445.1 439.2 435.1 431.1 423.1 415.3 405 396.5 390.7 385.1 380.6 373.4 355.2 329.2 309.5 291.3 273.4 255.9 239.3 220.3 204.3 205.9 218.7 226.6 235 245 248.6 254.1 259.1 262 263.6 263.2 256.9 257.8 269.6 278.1 284.9 291.5 297.2 303.5 307.5 310 316.7 325.5 337.1 347.8 359.2 370.6 379 380 378.2 374.1 368.1 374.4 379.4 382.3 385 383.7 378 372.2 368.1 365.5 362.2 354.1 346.3 343.8 338 324.9 308.1 291.8 273 263.7 256.6 254.4 255.5 249.7 237.2 224 211.7 199.1 186 173.4 164.4 158.9 153.2 142 133.1 126.9 120.4 113.8 109.9 105 98.2 95.7 95.1 93.7 87.2 78.4 70.4 59.5 50.6 42 34.3 22.9 8.4 -1.1 -1.1 -1.1 -1.1 -1.1 -1.1 -1.1 -1.1 -1.1 -1.1 -1.1 -1.1 -1.1 -1.1 -1.1 -1.1 -1.1 -1.1 -1.1 -1.1 -1.1 -1.1 -1.1 -1.1 -1.1 -1.1 -1.1 -1.1 -1.1 -1.1 -1.1 -1.1 -1.1 -1.1 -1.1 -1.1 -1.1 -1.1 -1.1 -1.1 -1.1 -1.1 -1.1 -1.1 -1.1 -1.1 -1.1 -1.1 -1.1 -1.1 -1.1 -1.1 -1.1 -1.1 -1.1 -1.1 -1.1 -1.1 -1.1 -1.1 -1.1 -1.1 -1.1 -1.1 -1.1
193.6 216.6 238.3 257.3 276 294.8 311.6 332.5 352.6 371.1 387.7 402.7 414.6 423.9 433.9 442.5 448.3 453.2 459.7 465.2 468.4 469.8 469.7 465.7 461.8 457.7 454.7 450.5 446.4 442 437.7 433.5 428.6 420.2 411.7 403 393.2 385.2 378.7 372.6 365.9 359.3 344.1 322.5 300.6 282.2 265 248 232.3 214.8 202.1 196.1 211.7 220.6 228.8 237.2 239.7 244.9 250 252.4 254 252.7 242.4 253.8 262.7 270.9 278.1 283.3 288.3 294.9 297.4 308.4 314.6 323.9 337.4 348.9 360.4 370.5 375.7 377.8 374.4 370 365.3 372 377.9 380.5 381.3 379.2 374.2 370.4 368.7 365.9 361.9 354.4 346.5 344.7 336.5 323.6 309.3 292.8 273.8 265 256.7 259.5 257.1 247.2 236.6 224.9 212.5 201 193 182.9 173.7 165.5 156.2 145.3 134.3 126.8 120.2 113.5 109.8 107 101.6 101 100.7 96.1 88 79.6 70.2 61.9 51.7 37.2 28.7 23.7 7.6 -1.1 -1.1 -1.1 -1.1 -1.1 -1.1 -1.1 -1.1 -1.1 -1.1 -1.1 -1.1 -1.1 -1.1 -1.1 -1.1 -1.1 -1.1 -1.1 -1.1 -1.1 -1.1 -1.1 -1.1 -1.1 -1.1 -1.1 -1.1 -1.1 -1.1 -1.1 -1.1 -1.1 -1.1 -1.1 -1.1 -1.1 -1.1 -1.1 -1.1 -1.1 -1.1 -1.1 -1.1 -1.1 -1.1 -1.1 -1.1 -1.1 -1.1 -1.1 -1.1 -1.1 -1.1 -1.1 -1.1 -1.1 -1.1 -1.1 -1.1 -1.1 -1.1 -1.1 -1.1 -1.1
196.4 219.8 239.7 257.3 278.2 297.2 315.3 335.8 353.7 372.4 390.9 404.7 416.3 427.5 436.5 444.4 450.5 455.5 461.1 466.3 469.5 470.3 469.9 464.9 460.6 456.3 451.3 447.2 441.8 437.1 432.2 424.8 419.2 410.8 402.2 392.5 382.6 373.6 366.6 359.5 352.6 346.6 330.9 311.6 292.5 273.5 256.6 240.5 225.1 208.7 198.9 191.4 206.8 214.8 222.2 230.1 232.1 235.6 240.1 243.2 243.6 243.1 230.5 247.6 255.2 263.5 270.4 275.9 281.9 283.9 296.8 304.3 311.5 323.4 336.1 347.1 357.5 366 369.3 370.5 367.4 363 364.4 372.2 375.7 378.4 379.3 375.7 372.6 369.6 367.8 365.6 361.1 353 346.8 343.4 334 321.8 310.2 290.4 273.5 261.6 263.2 259.6 254.7 247.5 238.4 227.4 216 210.3 202.1 190.7 179.6 169.4 158.5 147.6 136.9 126 119.5 113 109.2 109.7 107.6 104.7 102.5 97.4 89.8 81.5 68.4 61.9 51.7 37.1 29.5 17.8 7 -1.1 -1.1 -1.1 -1.1 -1.1 -1.1 -1.1 -1.1 -1.1 -1.1 -1.1 -1.1 -1.1 -1.1 -1.1 -1.1 -1.1 -1.1 -1.1 -1.1 -1.1 -1.1 -1.1 -1.1 -1.1 -1.1 -1.1 -1.1 -1.1 -1.1 -1.1 -1.1 -1.1 -1.1 -1.1 -1.1 -1.1 -1.1 -1.1 -1.1 -1.1 -1.1 -1.1 -1.1 -1.1 -1.1 -1.1 -1.1 -1.1 -1.1 -1.1 -1.1 -1.1 -1.1 -1.1 -1.1 -1.1 -1.1 -1.1 -1.1 -1.1 -1.1 -1.1 -1.1 -1.1
200.5 222.8 239.4 260.5 279.1 300.9 317.4 336.9 354.7 374.8 393 406.1 418.5 429.4 438.1 445.7 451.6 457.1 462.5 466.9 469.7 469.9 469.5 465.5 459.4 454.8 450.7 445.2 438.2 431.3 424 416.2 409.9 401.7 392.7 382.2 372 362.9 354.5 346.6 338.8 334.1 317.6 299.5 281.3 263.6 247.7 233.1 219.4 206.6 193.2 189.5 202.8 210.7 217.1 222.1 222.9 227.6 230.8 233 234.9 229.6 228.3 242 247.4 255.8 261.1 266.4 271.6 284.3 291.9 300 310.1 323.2 334.7 343.6 352.8 359.9 362.4 364.4 362 358.3 363.3 369.4 372.4 375.2 375.7 374.1 370.7 368.8 367.1 364.7 358.8 351.9 346 341.6 330.5 318.7 305.3 286.1 268.2 267.9 266 261.4 256.9 249.9 240.9 230.8 222.8 218 207.9 192.3 180.6 169.2 159.8 149.6 138.3 125.8 116.5 114.4 118.2 118.6 114.3 108 104.2 98.1 90.6 80.3 69.9 63.7 51.6 38.9 19.3 10.1 3.3 -1.1 -1.1 -1.1 -1.1 -1.1 -1.1 -1.1 -1.1 -1.1 -1.1 -1.1 -1.1 -1.1 -1.1 -1.1 -1.1 -1.1 -1.1 -1.1 -1.1 -1.1 -1.1 -1.1 -1.1 -1.1 -1.1 -1.1 -1.1 -1.1 -1.1 -1.1 -1.1 -1.1 -1.1 -1.1 -1.1 -1.1 -1.1 -1.1 -1.1 -1.1 -1.1 -1.1 -1.1 -1.1 -1.1 -1.1 -1.1 -1.1 -1.1 -1.1 -1.1 -1.1 -1.1 -1.1 -1.1 -1.1 -1.1 -1.1 -1.1 -1.1 -1.1 -1.1 -1.1 -1.1
202.5 222.5 241.1 260.1 281.2 300.9 319.5 340.3 358.3 374.9 392.2 406.4 419.1 429.7 438.3 446.5 452.7 458.5 463 467.4 470.1 469.8 468.4 465 458.9 452.8 449 440.1 432.8 425.9 415.8 407.8 400.5 392.5 382.4 371.7 361.5 352 342.1 331.6 319.9 319.2 305.4 287.3 269.7 253.2 239.9 226.8 214.7 203.6 188 188 198.5 205.1 208.7 211.5 213.1 211 211.4 216.8 212.1 212.3 220.8 226 227.6 236.2 244.9 259.5 271.2 280 288 297.8 309.9 323 332.7 341.5 349 353.4 356 358.5 356.5 353.9 361.8 366.1 368.9 371.8 373.3 372.9 370.4 368.2 366.6 363.1 357.4 351.4 345.6 337.1 322.7 309.9 294.8 284.7 280.1 274.9 268.6 264 258.7 251.4 243.7 234.4 225.7 218.4 208.9 194.1 181.1 170.2 160.2 150.9 139.1 125.5 118 118.9 120.8 118.8 115 109.6 104.7 98.3 91.8 82.3 72.2 65.1 53.7 41.6 14.4 7.4 -1.1 -1.1 -1.1 -1.1 -1.1 -1.1 -1.1 -1.1 -1.1 -1.1 -1.1 -1.1 -1.1 -1.1 -1.1 -1.1 -1.1 -1.1 -1.1 -1.1 -1.1 -1.1 -1.1 -1.1 -1.1 -1.1 -1.1 -1.1 -1.1 -1.1 -1.1 -1.1 -1.1 -1.1 -1.1 -1.1 -1.1 -1.1 -1.1 -1.1 -1.1 -1.1 -1.1 -1.1 -1.1 -1.1 -1.1 -1.1 -1.1 -1.1 -1.1 -1.1 -1.1 -1.1 -1.1 -1.1 -1.1 -1.1 -1.1 -1.1 -1.1 -1.1 -1.1 -1.1 -1.1 -1.1
202 222.7 240 261.7 282.1 301.2 320 340 358.2 375.3 390.4 406.5 419 429.2 437.4 446.2 452.8 458.7 463.7 468 470.7 470.5 469.7 466.4 459.8 455 446.7 437.2 428 419.3 411 402.7 391 383.5 372 361.3 350.6 340.9 328.3 316 298.8 301.3 291.5 275.1 258.3 243 231.4 220 209.5 200.7 185.2 182.4 194.2 199.2 202.3 201.3 198.7 204.4 217.4 206.6 216.2 227.2 234.2 232.4 248.5 248.1 244.1 246.7 258.1 270.4 282.8 296.8 309.8 321 329.4 337.9 345.3 347.9 350.6 353.2 352.2 352.2 357.9 363.2 366.2 368.7 369.3 370.1 368.6 366.9 365.7 361.9 356.4 350.3 343.2 334.9 316 309.7 305.9 299.3 287.8 276.7 271.5 266.5 259.6 252.4 244.9 237.3 230.3 222.9 211.4 193.8 181 171 161.1 151.3 139.2 125.8 119.5 121.1 120.9 118.4 114 110.1 106.2 99.2 91.9 83.8 75.5 65.4 51.8 38.5 18.9 6.5 -1.1 -1.1 -1.1 -1.1 -1.1 -1.1 -1.1 -1.1 -1.1 -1.1 -1.1 -1.1 -1.1 -1.1 -1.1 -1.1 -1.1 -1.1 -1.1 -1.1 -1.1 -1.1 -1.1 -1.1 -1.1 -1.1 -1.1 -1.1 -1.1 -1.1 -1.1 -1.1 -1.1 -1.1 -1.1 -1.1 -1.1 -1.1 -1.1 -1.1 -1.1 -1.1 -1.1 -1.1 -1.1 -1.1 -1.1 -1.1 -1.1 -1.1 -1.1 -1.1 -1.1 -1.1 -1.1 -1.1 -1.1 -1.1 -1.1 -1.1 -1.1 -1.1 -1.1 -1.1 -1.1 -1.1
201.9 222.3 242.1 263.6 283.8 301.7 319.6 339.3 357.7 375 389.4 405.6 417.9 427.4 436.7 445.5 452.3 458.5 463.6 468.6 470.9 471.1 469.9 467.5 461.1 456.8 447.9 438.4 427.3 416.6 408.6 397.9 385.7 368.4 357.1 346.2 336.1 327.9 315.3 301.8 284.3 283.4 275.2 260.2 245.2 232.8 221 211.6 202.5 198.5 187.3 178.7 191.3 193.5 195 190 189.5 192.4 219.8 233.6 238.1 249.4 252.5 255.1 260.4 268.1 266.4 266.7 260.1 266.6 279 294.1 309.9 318.5 326.2 334.1 341.6 343.6 345.6 347.8 345.8 347.9 353.6 359.3 363.4 364.8 366.1 367.3 366.4 365.5 363.4 360.5 355.5 348.2 341 333.2 311.7 321.6 316.6 308 295.5 282.6 273.6 267.6 260.5 253.4 246 238.4 232.9 222 209.1 193.9 181.5 171.8 162.6 154.1 141.1 128.3 123.5 123.1 120.4 116.7 112.9 110 106.6 99.2 90.6 82.7 75.4 64.6 51.5 31.7 10 6.1 -1.1 -1.1 -1.1 -1.1 -1.1 -1.1 -1.1 -1.1 -1.1 -1.1 -1.1 -1.1 -1.1 -1.1 -1.1 -1.1 -1.1 -1.1 -1.1 -1.1 -1.1 -1.1 -1.1 -1.1 -1.1 -1.1 -1.1 -1.1 -1.1 -1.1 -1.1 -1.1 -1.1 -1.1 -1.1 -1.1 -1.1 -1.1 -1.1 -1.1 -1.1 -1.1 -1.1 -1.1 -1.1 -1.1 -1.1 -1.1 -1.1 -1.1 -1.1 -1.1 -1.1 -1.1 -1.1 -1.1 -1.1 -1.1 -1.1 -1.1 -1.1 -1.1 -1.1 -1.1 -1.1 -1.1
201.5 223.1 243.3 263.9 283 300.2 318.5 337.6 355.8 374 388.6 402.2 415.9 425.8 434.5 443.9 451.4 458.2 463.3 468.5 470.8 471.1 469.9 467.4 461.3 456.2 446.3 438.1 429.3 417.6 406.3 394.8 382.7 360.5 338.3 330.9 323 314.2 300.8 286.6 271.8 262.7 255.8 246.4 234.2 223.3 212.4 203.4 194.6 192.8 173.2 192 191.5 191 185.9 180 203.5 209.8 229.6 240.1 248.1 256.6 264.6 271.3 276.3 278.2 278.4 280.1 272 263.1 267.5 291.9 309 317 324 330.3 337.8 340.1 341.9 343.4 339.7 344.2 350.3 356.4 360.3 362.8 364.2 365.4 364.6 363.7 360.9 358 352.7 346.5 340.5 334.3 325.6 327.7 322.9 315 301.6 288.5 275 268.5 261.4 254.3 247.1 239.6 230.3 219.5 207.3 193.7 180.6 171.4 162.1 154.7 142.6 130.9 127.5 123.8 120.7 116.4 112.3 110.2 105.3 97.4 88.3 81.3 74 64.9 51.2 28.1 9.9 -1.1 -1.1 -1.1 -1.1 -1.1 -1.1 -1.1 -1.1 -1.1 -1.1 -1.1 -1.1 -1.1 -1.1 -1.1 -1.1 -1.1 -1.1 -1.1 -1.1 -1.1 -1.1 -1.1 -1.1 -1.1 -1.1 -1.1 -1.1 -1.1 -1.1 -1.1 -1.1 -1.1 -1.1 -1.1 -1.1 -1.1 -1.1 -1.1 -1.1 -1.1 -1.1 -1.1 -1.1 -1.1 -1.1 -1.1 -1.1 -1.1 -1.1 -1.1 -1.1 -1.1 -1.1 -1.1 -1.1 -1.1 -1.1 -1.1 -1.1 -1.1 -1.1 -1.1 -1.1 -1.1 -1.1 -1.1
202.3 222.7 243 263.1 281.5 296.8 315.8 333.1 352.3 368.8 386 399.5 412.8 423.3 433.8 443.6 451.6 456.5 462.4 468 470.4 470.5 469.4 466.7 460.6 454.4 444.7 435.6 427.9 415.3 403.1 391.7 379 358.3 336.8 314.4 307.7 298.5 285.8 271.7 256.8 246.9 236.6 229.9 222.7 213.7 204.9 196.6 190.1 177.8 171.5 187.6 190.2 175.4 172 181.9 205 223.3 233.8 243.4 255.8 265.2 273 280 285.4 286 287.7 289.1 285.1 283.6 282.8 288.3 305.9 314.6 321.1 327.4 334 336.6 338.3 338 336.8 342.1 348.3 353 357.2 360.5 362.2 363.6 363.1 361.2 358.4 355.8 349.8 345.6 340.3 335.6 333.5 331.3 325.9 317 306 292.5 278.7 269.3 262.2 254.9 247.8 240.7 228.9 217.8 204.5 191.1 177 167.2 158.6 151.2 141.5 134.8 129.8 124.6 119.8 115.5 111.9 109.6 105.4 102.1 94.3 81.9 72.6 62.8 49 27.9 8.8 -1.1 -1.1 -1.1 -1.1 -1.1 -1.1 -1.1 -1.1 -1.1 -1.1 -1.1 -1.1 -1.1 -1.1 -1.1 -1.1 -1.1 -1.1 -1.1 -1.1 -1.1 -1.1 -1.1 -1.1 -1.1 -1.1 -1.1 -1.1 -1.1 -1.1 -1.1 -1.1 -1.1 -1.1 -1.1 -1.1 -1.1 -1.1 -1.1 -1.1 -1.1 -1.1 -1.1 -1.1 -1.1 -1.1 -1.1 -1.1 -1.1 -1.1 -1.1 -1.1 -1.1 -1.1 -1.1 -1.1 -1.1 -1.1 -1.1 -1.1 -1.1 -1.1 -1.1 -1.1 -1.1 -1.1 -1.1
202.7 219 238.2 258.6 275.1 291.3 308.3 327.9 347.4 367 382.5 395.3 407 420.8 433.4 443.9 450.5 456.1 461.6 467.3 469.9 469.9 468.7 465.6 459.7 453.2 442.5 433.2 424.8 412.6 400.4 388.2 373.5 355.6 335 315.3 284.2 280.4 268.7 256.6 241.7 234 225.4 217.4 210.4 204.7 198.2 190.4 181.3 169 180.5 177.1 165.2 171.4 187.3 200.1 211.9 223 237.5 250 262.6 273.8 283 290.7 294.7 299.5 301.7 303.4 299.3 297.5 293 285.2 299.8 311.1 317.3 323.9 330.5 333.2 334.8 333.6 336 340.8 345.6 349.7 354.2 357.9 360.4 362 361.5 359.5 357.2 354 349.7 345 340.4 337.3 335 329.7 325.1 317.2 307.7 294.8 280.6 269.9 262.3 254.8 248 239.6 228 215 201.9 186.8 177.1 164.4 152.6 144.4 139 133.7 129.2 123.9 118.7 114.5 111.8 109.8 109.1 110.8 106.3 95.5 78.9 62.1 46.1 23.5 7.9 -1.1 -1.1 -1.1 -1.1 -1.1 -1.1 -1.1 -1.1 -1.1 -1.1 -1.1 -1.1 -1.1 -1.1 -1.1 -1.1 -1.1 -1.1 -1.1 -1.1 -1.1 -1.1 -1.1 -1.1 -1.1 -1.1 -1.1 -1.1 -1.1 -1.1 -1.1 -1.1 -1.1 -1.1 -1.1 -1.1 -1.1 -1.1 -1.1 -1.1 -1.1 -1.1 -1.1 -1.1 -1.1 -1.1 -1.1 -1.1 -1.1 -1.1 -1.1 -1.1 -1.1 -1.1 -1.1 -1.1 -1.1 -1.1 -1.1 -1.1 -1.1 -1.1 -1.1 -1.1 -1.1 -1.1 -1.1
195.8 212.8 229.4 249 265.3 279 294.6 312.7 333.9 357.1 377.5 391.9 405.4 420.4 432.7 444 451.2 457.6 463.8 468.2 471.3 471.3 468.5 464.9 458.7 451.7 441 431.1 421.7 409.5 397.3 384.6 368.4 351.9 333.6 313.9 290.9 261.7 255.2 241.6 225.9 220.4 212.6 198.8 200.7 196.8 191 185.1 176.6 163.4 170.8 162.5 165.9 174.1 192.4 204.4 213.7 224.8 240.6 255.8 270.1 285.1 298.6 306.6 313 317.8 321.9 321.1 319.3 317 309.1 294.6 296.7 305.5 313.7 320.5 326 329.6 330.8 327.1 332.7 337.5 343.1 349.1 353.2 356 358.2 360.2 359.6 357.6 355.7 353.1 349.4 345.7 341.1 336.2 331.5 327.8 323.9 316.3 308.9 296.2 282.3 270.8 263.9 256.4 248.1 234.8 222.8 212.2 198.6 185.8 174.3 159.4 146.8 139.5 133.5 131.4 126.7 121.6 117.2 113.6 112.1 111.7 116.1 120.3 112.6 103.2 90.3 65.9 43.1 16.4 6.9 -1.1 -1.1 -1.1 -1.1 -1.1 -1.1 -1.1 -1.1 -1.1 -1.1 -1.1 -1.1 -1.1 -1.1 -1.1 -1.1 -1.1 -1.1 -1.1 -1.1 -1.1 -1.1 -1.1 -1.1 -1.1 -1.1 -1.1 -1.1 -1.1 -1.1 -1.1 -1.1 -1.1 -1.1 -1.1 -1.1 -1.1 -1.1 -1.1 -1.1 -1.1 -1.1 -1.1 -1.1 -1.1 -1.1 -1.1 -1.1 -1.1 -1.1 -1.1 -1.1 -1.1 -1.1 -1.1 -1.1 -1.1 -1.1 -1.1 -1.1 -1.1 -1.1 -1.1 -1.1 -1.1 -1.1 -1.1
188.6 203.3 219.3 236.2 252.8 267.2 287.9 309.9 333.3 355.5 372.9 388.1 401 417.4 431.5 443.5 451.9 458.8 465.6 469.5 472.2 472.2 469.3 466 460.8 452.6 443.4 430.2 417.5 405.9 394.2 381.4 364.7 349.4 331.2 312 291.2 269.4 246 233 219.8 209.2 209.5 192.1 193.5 189.3 183.2 177.3 171.2 160 166.1 161 166.8 180.1 194.9 206.8 215.4 228.1 246.3 267.2 284.4 299.5 312.5 322.2 328.7 333.9 337.7 336.8 335.6 333.1 326.1 310.1 304.1 306.5 308.9 312.3 314.9 323.5 324.2 324.7 330.3 335.8 341.6 347.7 351.6 354.6 356.3 358.2 358.1 356.8 355.1 353.1 349.9 346.7 343.1 338.5 334 329.3 324.5 318.2 308.6 295.9 283.2 273.5 264.1 255.1 245.6 223.9 215.6 205.6 191.2 174 166.1 156.9 144.2 131.4 128.8 128.2 123.7 118.9 115.8 113.5 112.4 115.8 122.5 126.6 119.5 108.3 94.2 72.7 43.6 14.3 5.6 -1.1 -1.1 -1.1 -1.1 -1.1 -1.1 -1.1 -1.1 -1.1 -1.1 -1.1 -1.1 -1.1 -1.1 -1.1 -1.1 -1.1 -1.1 -1.1 -1.1 -1.1 -1.1 -1.1 -1.1 -1.1 -1.1 -1.1 -1.1 -1.1 -1.1 -1.1 -1.1 -1.1 -1.1 -1.1 -1.1 -1.1 -1.1 -1.1 -1.1 -1.1 -1.1 -1.1 -1.1 -1.1 -1.1 -1.1 -1.1 -1.1 -1.1 -1.1 -1.1 -1.1 -1.1 -1.1 -1.1 -1.1 -1.1 -1.1 -1.1 -1.1 -1.1 -1.1 -1.1 -1.1 -1.1 -1.1
180.4 194.8 211.9 228.9 247.3 265.8 287.4 312.4 334.1 349.1 367.1 381.9 400.9 415.9 432.2 442.6 451.6 459 465.4 469.5 472.8 472.3 469.4 466.4 461.2 452.8 441.5 427 413.5 401.4 389.9 378.4 365.8 349.3 328.2 307.2 285.9 263.9 241.5 223.2 216.9 208.8 200.5 190.2 187.8 182.7 176.7 169.7 161.3 155.7 156.1 162.3 176 185.8 196 207.5 218.1 235.6 257.3 278.2 298.2 312.5 324.9 336.5 343.8 349.6 351.2 349.9 348.7 344 337.1 324 320.1 318.5 316.2 322.1 322.1 321.6 321.6 325 329.4 334.8 340.4 346.4 349.8 353.2 355.4 357.9 357.9 356.8 354.8 352.7 349.8 346.6 343.4 339.4 334.9 330.4 325.8 319 307.5 295.8 283.3 275.2 261.4 253.6 248.1 238.4 228.1 212.5 195.1 181.1 170.5 158.5 142.5 132.1 125.5 124 120.7 115.8 112.8 111.6 114.4 120.5 131.5 132.9 126.9 115.3 99.7 78.7 47.2 12.9 3.3 -1.1 -1.1 -1.1 -1.1 -1.1 -1.1 -1.1 -1.1 -1.1 -1.1 -1.1 -1.1 -1.1 -1.1 -1.1 -1.1 -1.1 -1.1 -1.1 -1.1 -1.1 -1.1 -1.1 -1.1 -1.1 -1.1 -1.1 -1.1 -1.1 -1.1 -1.1 -1.1 -1.1 -1.1 -1.1 -1.1 -1.1 -1.1 -1.1 -1.1 -1.1 -1.1 -1.1 -1.1 -1.1 -1.1 -1.1 -1.1 -1.1 -1.1 -1.1 -1.1 -1.1 -1.1 -1.1 -1.1 -1.1 -1.1 -1.1 -1.1 -1.1 -1.1 -1.1 -1.1 -1.1 -1.1 -1.1
176.7 192 211.8 228.9 246.2 270.7 290.3 318.9 334.5 351.3 365.5 381.4 398.4 414.9 430.8 441.5 449.6 457.4 464.6 469.2 471 470.6 468.9 466.5 460.9 451.9 438.5 423.3 409.9 396.8 385.7 374.3 363 344.7 323.6 302.3 280.9 258 234.3 220.4 198.5 201.1 192.7 184.9 173 174.6 171.8 158.4 152.5 153.2 158.3 172.7 180.7 187.8 198.9 210.2 221.7 244.5 267.7 289.8 308.5 323.4 335.7 347.8 358 364.4 361.5 359 356.7 352.1 345.4 334.6 330.7 321.6 323 328.8 329.6 328.3 323.4 323.3 327.9 333.8 339.3 345.3 349.7 352.6 356 359.9 358.5 356.6 354.8 352.8 349 346.4 343.3 340.1 335.7 331.2 326.8 316.1 304.4 294.8 283.6 268 266.1 262.6 253.1 242.6 228.4 210 192.4 176.2 165.3 153.8 138.7 127.3 108.4 121.5 117.6 112.7 109.6 111.7 118 127.4 137.6 139.1 131.7 119.3 104.2 81.2 49.7 10.8 3 -1.1 -1.1 -1.1 -1.1 -1.1 -1.1 -1.1 -1.1 -1.1 -1.1 -1.1 -1.1 -1.1 -1.1 -1.1 -1.1 -1.1 -1.1 -1.1 -1.1 -1.1 -1.1 -1.1 -1.1 -1.1 -1.1 -1.1 -1.1 -1.1 -1.1 -1.1 -1.1 -1.1 -1.1 -1.1 -1.1 -1.1 -1.1 -1.1 -1.1 -1.1 -1.1 -1.1 -1.1 -1.1 -1.1 -1.1 -1.1 -1.1 -1.1 -1.1 -1.1 -1.1 -1.1 -1.1 -1.1 -1.1 -1.1 -1.1 -1.1 -1.1 -1.1 -1.1 -1.1 -1.1 -1.1 -1.1
181.1 195.7 211.4 227.6 246.7 267.3 289.6 319 335.7 349.7 363.5 382.1 398.6 413.9 427.4 439.4 448.5 457.1 463 468.7 468.9 467.1 466.5 465.1 459.4 448.5 432.5 415.9 403 390.6 378.2 367.8 356.7 336.2 315.3 295.4 275.3 253.3 230.5 219.2 202.7 189.2 184.8 174.3 174.2 164.2 159.8 149 153.4 163.2 174.1 179.4 183.8 190.7 202.1 213.5 228.8 254.8 277.8 299.7 317.8 333.5 346.6 358.6 370.1 376.5 371 367.1 364.2 359 352.1 342.5 332.9 329.7 335.2 337.1 335.2 332.9 328.7 322.3 326 332.6 338.2 348 352.2 356 359.4 361.8 360.2 358.7 355.9 351 346.8 344.9 342.1 339.4 336.2 331.4 324 312.9 299.9 290 285.9 282.7 275.7 266.7 255.8 245.5 229.7 208.9 189.5 172.4 159.9 148.4 137 125.9 111.4 113.2 113 109.4 109 113 120.7 133.4 141 140.2 134.1 122.3 107.7 83.5 52.6 17.5 5.9 -1.1 -1.1 -1.1 -1.1 -1.1 -1.1 -1.1 -1.1 -1.1 -1.1 -1.1 -1.1 -1.1 -1.1 -1.1 -1.1 -1.1 -1.1 -1.1 -1.1 -1.1 -1.1 -1.1 -1.1 -1.1 -1.1 -1.1 -1.1 -1.1 -1.1 -1.1 -1.1 -1.1 -1.1 -1.1 -1.1 -1.1 -1.1 -1.1 -1.1 -1.1 -1.1 -1.1 -1.1 -1.1 -1.1 -1.1 -1.1 -1.1 -1.1 -1.1 -1.1 -1.1 -1.1 -1.1 -1.1 -1.1 -1.1 -1.1 -1.1 -1.1 -1.1 -1.1 -1.1 -1.1 -1.1 -1.1
185.1 196.8 210.9 225.1 244.8 264.6 291.6 316.1 334.5 349 363.4 381.4 396.9 410.9 424.7 437.7 446.6 455.5 460.5 465.3 466.8 464.9 464.1 462.3 455.3 443.9 427.3 409.7 395.7 383.5 371.4 359.1 346.6 326.7 307.2 287.6 267.8 247.6 225.3 212.3 197.6 181.5 174.4 173 158.8 164.2 149.5 148.4 158 166.6 173.8 177.8 186.3 196.2 206.2 219.1 239.8 265.4 288.2 308.8 327.6 343.4 357.6 370.4 378.7 380 376.2 371.7 367.2 362.8 358.3 346.7 335.4 341.3 346 344.4 341.7 336.4 331.2 324.7 328.7 332.7 343.9 352.9 356.3 360 362.9 365.4 363.8 359.3 354.1 349.2 344.6 343.2 340.8 338.3 335.5 329.8 325.1 318.7 305.3 295.5 291.1 289.2 283.2 270.5 259.6 247.6 230.4 208.4 187.5 169.1 155.6 143.9 133.1 121.9 110 100.3 107.3 104.9 106.8 112.8 122.4 134.7 139.7 137.5 131 122.2 106.3 81.5 51.3 24.4 6.2 -1.1 -1.1 -1.1 -1.1 -1.1 -1.1 -1.1 -1.1 -1.1 -1.1 -1.1 -1.1 -1.1 -1.1 -1.1 -1.1 -1.1 -1.1 -1.1 -1.1 -1.1 -1.1 -1.1 -1.1 -1.1 -1.1 -1.1 -1.1 -1.1 -1.1 -1.1 -1.1 -1.1 -1.1 -1.1 -1.1 -1.1 -1.1 -1.1 -1.1 -1.1 -1.1 -1.1 -1.1 -1.1 -1.1 -1.1 -1.1 -1.1 -1.1 -1.1 -1.1 -1.1 -1.1 -1.1 -1.1 -1.1 -1.1 -1.1 -1.1 -1.1 -1.1 -1.1 -1.1 -1.1 -1.1 -1.1
178.3 195.3 213.3 227 245.6 265.2 293.1 313.6 330.9 345.9 362.3 381.3 395.9 407.3 420.7 433.3 445.3 451.8 458 464.2 465 463.8 460.6 457.6 450.5 436.2 420.1 405.3 390.1 377.1 364.5 351.1 335.9 318.1 299.1 279.8 260.1 239.9 219.8 204.6 190.5 180.4 168.7 167.5 164.3 144.8 144.6 150.9 158.6 167.1 174.2 181.7 192.4 202.4 212.4 227.3 249.9 275.9 297.6 317.4 337.2 353 367.3 376.5 380.3 379.6 379.2 374.9 370.3 365.8 360.5 353.6 343.5 349.9 352.1 349.6 344 338.4 333.4 326.2 331 337 351.1 359.2 360.3 363.5 366 368.4 366.5 361.4 355.8 347.7 342.4 340.5 339.6 337.2 334.6 329.3 326.8 319.6 309.9 298.9 294.5 291.5 285.6 274.2 262.4 248.1 228.8 206.4 185.9 166.8 150.8 138.9 128.3 118.7 108.6 94.2 98.7 102.1 104.6 110.6 122.3 137.1 139.2 135.4 128 116.4 96.9 71.2 43 20.3 1.8 -1.1 -1.1 -1.1 -1.1 -1.1 -1.1 -1.1 -1.1 -1.1 -1.1 -1.1 -1.1 -1.1 -1.1 -1.1 -1.1 -1.1 -1.1 -1.1 -1.1 -1.1 -1.1 -1.1 -1.1 -1.1 -1.1 -1.1 -1.1 -1.1 -1.1 -1.1 -1.1 -1.1 -1.1 -1.1 -1.1 -1.1 -1.1 -1.1 -1.1 -1.1 -1.1 -1.1 -1.1 -1.1 -1.1 -1.1 -1.1 -1.1 -1.1 -1.1 -1.1 -1.1 -1.1 -1.1 -1.1 -1.1 -1.1 -1.1 -1.1 -1.1 -1.1 -1.1 -1.1 -1.1 -1.1 -1.1
193.5 191.8 212.1 229 244.8 266.4 293.7 312 330.6 344.6 362.6 380.5 393.2 404.4 418.2 429.2 441.2 449 456.3 463.6 465.2 463.4 457.5 453.1 444.4 428 411.9 396.5 382.4 368.8 355.2 341 325.7 308.8 290.3 271.7 252.4 232.5 213.4 198.8 185.4 174.6 164.7 156.1 159.2 141.9 147.6 152 161.4 169.8 175.9 185.4 196.3 208.3 218.7 234.9 259.9 282 303 323.9 344.3 360.4 373 378.5 380.6 380.7 381.6 377.5 372.9 368.6 364 357.6 351.8 355.9 356.6 351.4 346.7 340.6 335.2 327.1 334.6 344.3 358.5 363 364.3 366 368.4 370.2 370.5 363.7 354.7 345.3 338.9 337.9 336.9 335.9 333.5 329.4 326.8 318.7 308.3 300.7 296 292.7 285.2 274 261.1 247.6 225 204.7 184.6 167.1 151.3 134.2 123.9 113.8 104.6 93.4 91.2 94.7 99.6 107.9 121.3 132.6 133.2 129.1 120.3 106.2 76.7 45.3 37.5 13.1 -1.1 -1.1 -1.1 -1.1 -1.1 -1.1 -1.1 -1.1 -1.1 -1.1 -1.1 -1.1 -1.1 -1.1 -1.1 -1.1 -1.1 -1.1 -1.1 -1.1 -1.1 -1.1 -1.1 -1.1 -1.1 -1.1 -1.1 -1.1 -1.1 -1.1 -1.1 -1.1 -1.1 -1.1 -1.1 -1.1 -1.1 -1.1 -1.1 -1.1 -1.1 -1.1 -1.1 -1.1 -1.1 -1.1 -1.1 -1.1 -1.1 -1.1 -1.1 -1.1 -1.1 -1.1 -1.1 -1.1 -1.1 -1.1 -1.1 -1.1 -1.1 -1.1 -1.1 -1.1 -1.1 -1.1 -1.1 -1.1
210.3 208.2 209.8 230 248 269.4 292.5 313.3 330.9 346.3 364.7 377.6 392.3 403.1 414.4 426.7 436.9 445.9 455.3 463.1 465 460.9 455 448.1 435.8 419.8 403.6 388.2 373.4 359.3 345.3 331.3 316.8 299.2 280.8 262.3 247.8 224.4 206.7 192.6 180.7 169.8 160.8 156.5 140.6 141 145.9 154.1 163.5 171.7 179.2 188.5 199.3 211.4 223.8 245.7 266.9 288.5 309.8 330.6 350.5 365.9 375.3 380.2 383 386.6 382.9 378.9 375.6 372.6 371.1 362 357.5 360.5 363.5 357.4 352.6 343.7 336.4 329.1 338.7 352 361.9 364.3 366.6 368.3 369.6 370.7 370.5 362.6 352.3 342.3 335.8 334.4 333.8 333.2 332.3 329.4 325.8 317.6 306.8 301.5 296.6 291.9 282.9 273.7 258.6 244.7 222.5 206.3 185.5 163.2 147.9 131.9 119.3 108.9 100.2 91.1 80.4 86.7 94 105 118 124.3 124.7 119.5 111 92.5 49.5 20 12.5 7.7 -1.1 -1.1 -1.1 -1.1 -1.1 -1.1 -1.1 -1.1 -1.1 -1.1 -1.1 -1.1 -1.1 -1.1 -1.1 -1.1 -1.1 -1.1 -1.1 -1.1 -1.1 -1.1 -1.1 -1.1 -1.1 -1.1 -1.1 -1.1 -1.1 -1.1 -1.1 -1.1 -1.1 -1.1 -1.1 -1.1 -1.1 -1.1 -1.1 -1.1 -1.1 -1.1 -1.1 -1.1 -1.1 -1.1 -1.1 -1.1 -1.1 -1.1 -1.1 -1.1 -1.1 -1.1 -1.1 -1.1 -1.1 -1.1 -1.1 -1.1 -1.1 -1.1 -1.1 -1.1 -1.1 -1.1 -1.1 -1.1
222.4 224.3 226.7 223.9 243.7 271.7 294.9 315.4 330.5 347.2 364.7 376.8 391.6 401.7 410.9 421.8 433.5 444 453.2 459.5 461.6 456.8 450.7 441.1 426.1 411.1 395.2 380 365.3 350.7 336.8 322.8 308 290.1 272.1 254.1 237.2 216 200 187.1 174.3 164.4 156.1 147.1 138.9 140.8 147.4 156.8 165.7 173.8 182.8 191.8 204.5 216.1 229.5 253.2 271.4 292.4 316.5 337.4 354.9 367.1 375.2 379.5 382.7 388.6 384.1 378.5 376 381.3 379.1 366.1 363.2 368.5 369.5 364.2 355.8 347 338.4 332.2 341.2 355 361.4 365.4 367.7 369.2 370.4 371.4 369.1 358.9 347.8 337.6 333.8 330.8 330 329.8 329.4 327.1 321.3 314.9 304.5 302.3 296.8 289.7 281.9 273 261.3 245.6 227.9 209.3 188.8 167.8 148.6 132.8 114.2 104 92.1 86.8 80.4 78.9 88.3 102.3 109.8 114.8 114.6 109.3 97.8 85.9 62.8 30.5 17.1 -1.1 -1.1 -1.1 -1.1 -1.1 -1.1 -1.1 -1.1 -1.1 -1.1 -1.1 -1.1 -1.1 -1.1 -1.1 -1.1 -1.1 -1.1 -1.1 -1.1 -1.1 -1.1 -1.1 -1.1 -1.1 -1.1 -1.1 -1.1 -1.1 -1.1 -1.1 -1.1 -1.1 -1.1 -1.1 -1.1 -1.1 -1.1 -1.1 -1.1 -1.1 -1.1 -1.1 -1.1 -1.1 -1.1 -1.1 -1.1 -1.1 -1.1 -1.1 -1.1 -1.1 -1.1 -1.1 -1.1 -1.1 -1.1 -1.1 -1.1 -1.1 -1.1 -1.1 -1.1 -1.1 -1.1 -1.1 -1.1 -1.1
231.3 236.3 240.5 249.8 260.3 278.8 300.9 318.5 330.6 346.2 363.8 377.5 390.9 400.2 408.1 419.5 429.9 440.1 450.4 455.6 455.6 452.8 443.7 433 417.1 400.6 385.8 371.4 357.2 342.3 328.3 314.4 299.2 281.5 263.5 245.6 228.7 210.2 192.7 180.5 168.5 158.3 152.4 138.6 136.2 143.4 149.4 157.5 166.7 175 185.7 196.1 210.1 221 236.4 258.5 273.6 297.1 322.7 343.7 357.8 367.8 374.8 378.4 380.1 382.9 380 378 382.9 382.6 375.5 369.4 370 377 378 369 358.9 349.9 341.3 335.9 343.2 354.3 361.5 365.1 368.1 369.7 370.8 371.7 364.4 356.1 344.1 335.9 331.5 327.5 325.4 325.5 325.9 323.9 317.8 309.5 303.8 299.2 294.8 287.5 280.1 270.1 258.3 249 237.3 217.4 194.8 175.5 154.2 139.8 120.4 99.8 85.6 80.3 77.7 75.5 84.5 95.1 101.5 105 103.8 98.3 86.8 75.2 52.6 28.5 8.3 -1.1 -1.1 -1.1 -1.1 -1.1 -1.1 -1.1 -1.1 -1.1 -1.1 -1.1 -1.1 -1.1 -1.1 -1.1 -1.1 -1.1 -1.1 -1.1 -1.1 -1.1 -1.1 -1.1 -1.1 -1.1 -1.1 -1.1 -1.1 -1.1 -1.1 -1.1 -1.1 -1.1 -1.1 -1.1 -1.1 -1.1 -1.1 -1.1 -1.1 -1.1 -1.1 -1.1 -1.1 -1.1 -1.1 -1.1 -1.1 -1.1 -1.1 -1.1 -1.1 -1.1 -1.1 -1.1 -1.1 -1.1 -1.1 -1.1 -1.1 -1.1 -1.1 -1.1 -1.1 -1.1 -1.1 -1.1 -1.1 -1.1
237.5 245.6 256.4 271.5 282.1 296 310.9 325.2 335.4 351.4 363.4 378.6 390.9 397.9 406 416.2 426.2 436.5 446.5 450.2 451.1 447.5 438.8 425.6 407.3 388.8 374 363.5 350.4 334.6 319.9 306 290.2 272.8 254.9 237.7 220.8 203.6 186.8 174.9 165.2 157.4 144.6 136.8 134.9 143.1 150.6 158.1 167.1 176.4 187.9 200.1 212.4 226.1 242.5 261.6 276.2 301.7 329 347.5 359.5 367 373.1 377.2 379.3 380.3 379.7 378.3 383.4 381.1 374.8 372.7 372.9 378.8 379.2 371.1 360.7 351.4 342.3 339.9 345.3 353.6 360.2 364.7 368.4 370.1 371.4 369.3 362.7 353.3 341 332.9 328.2 325.3 322 322.3 322.2 317.3 311.5 306.7 300.9 296 291.3 285.4 278.5 275 264.8 256.1 243.1 222.7 200.7 180.9 161.7 145.6 126.5 103.4 86.5 70.1 73.4 68.7 77.4 88.5 92.1 95.2 92.9 86.4 74.7 63.3 41.3 20.8 6.6 -1.1 -1.1 -1.1 -1.1 -1.1 -1.1 -1.1 -1.1 -1.1 -1.1 -1.1 -1.1 -1.1 -1.1 -1.1 -1.1 -1.1 -1.1 -1.1 -1.1 -1.1 -1.1 -1.1 -1.1 -1.1 -1.1 -1.1 -1.1 -1.1 -1.1 -1.1 -1.1 -1.1 -1.1 -1.1 -1.1 -1.1 -1.1 -1.1 -1.1 -1.1 -1.1 -1.1 -1.1 -1.1 -1.1 -1.1 -1.1 -1.1 -1.1 -1.1 -1.1 -1.1 -1.1 -1.1 -1.1 -1.1 -1.1 -1.1 -1.1 -1.1 -1.1 -1.1 -1.1 -1.1 -1.1 -1.1 -1.1 -1.1
245.6 263.7 270.1 284.2 296 309.3 322.4 334.5 345.4 356.8 368 379.7 391 397.7 404.6 413.2 423.8 433.4 441.3 445.9 446.6 442.7 434.5 420.1 399.9 381.9 366.8 354.6 344.2 328.9 312.8 297.7 281.1 264.2 246.7 229.8 212.9 196.9 182.1 170.5 159.9 150.9 138.4 133.1 136.6 143.8 152.3 160.8 169.9 180.9 192.4 203.7 211.6 228.7 247.5 264 280.3 304.8 332.3 347 357.4 366.1 371.5 375.3 378.5 379 379 379.3 380.6 377.9 374.6 375.2 377.1 380.3 377.5 368.7 359.8 352.1 343.3 341.1 345.5 353.1 358.2 362.8 367.5 370.6 369.5 367.1 361 347.3 335.5 329.1 324.4 322.5 320.4 319.3 317 311.9 307.1 302.9 298.7 293.1 288.3 283.5 280.6 274.6 265.1 255.6 241.4 219.9 200.1 180.8 161.9 146.2 129 107 87.4 70.4 67.1 65.4 72.2 79.3 85.8 88.4 83.7 74 63.2 49.8 35.1 13.3 -1.1 -1.1 -1.1 -1.1 -1.1 -1.1 -1.1 -1.1 -1.1 -1.1 -1.1 -1.1 -1.1 -1.1 -1.1 -1.1 -1.1 -1.1 -1.1 -1.1 -1.1 -1.1 -1.1 -1.1 -1.1 -1.1 -1.1 -1.1 -1.1 -1.1 -1.1 -1.1 -1.1 -1.1 -1.1 -1.1 -1.1 -1.1 -1.1 -1.1 -1.1 -1.1 -1.1 -1.1 -1.1 -1.1 -1.1 -1.1 -1.1 -1.1 -1.1 -1.1 -1.1 -1.1 -1.1 -1.1 -1.1 -1.1 -1.1 -1.1 -1.1 -1.1 -1.1 -1.1 -1.1 -1.1 -1.1 -1.1 -1.1 -1.1
