ncols 200
nrows 82
xllcorner 360000
yllcorner 661400
cellsize 50
339.8 340.7 347.5 356 367 380.4 390.1 398.3 405.2 411 416.3 420.5 424.9 427.4 428 426.5 423.6 418.6 414.4 411 407.6 404 399.9 395.7 391.1 385.8 379.7 373.7 367.4 359.8 351.1 342.9 337.5 332.9 330 326.7 326.7 327.5 327.2 326.9 327.1 328.2 329.4 330.1 330 329.8 330.4 331.4 331.4 331.1 331.8 329.7 327.6 324.6 321.3 317.2 315 313.6 312.2 308.9 304.7 299.7 294.6 284.5 278.5 279.3 287.6 292.5 293.5 293.6 290.2 292 290.7 288.9 283.2 276.4 269.4 259.3 257.3 255.9 271.3 293 305.5 308.9 312.4 312.2 306.3 299.3 290.2 304.6 323.5 333 344 353.4 361.1 367.6 376 387.8 400.6 414.7 426.7 440.6 454.5 461.5 464.6 464.7 463.6 461.8 458.8 453.3 443.9 437.1 429.9 422.7 415.2 408.6 402 395.6 389.2 382.5 374.2 367 367 364.8 364 362.7 361.3 360.5 359.9 358.4 354.8 361 366.5 370.5 371.5 372.8 373.8 377.1 381.2 385.6 387.8 388.6 385.9 381 375.4 366.9 360.7 351.2 341.1 331.6 321.6 311.3 301.2 292.1 283.3 276.1 269.4 263.2 256.9 250.5 244.3 234 227.6 224.6 225.2 224.6 242.9 255.5 260.2 263.8 265.3 265.1 263.3 260.2 255.6 257 263.3 267.1 265 256.6 260.6 271.7 280 295.3 311.7 327.7 339.9 347 351.5 352.8 350.4 347.4 343.9 339.8 334.9 329.3 325.7 322.1 317.6 312.2
349.5 342.4 346.5 359.7 371.6 383.1 392.8 402.1 409 416.3 421.1 424.5 427.4 429.4 430.6 428.5 424.6 420 416.1 412.1 408 404 399.5 395 389.3 383 376.1 369.4 363.5 355.9 349.2 341.2 336 332.4 329.4 329.2 330.2 328.8 328.4 327.7 327.4 328 328 327.1 326.6 325.7 326.9 326.9 326.4 326 326.1 325.5 323.9 321 317.5 313 310 308.3 306.6 303.5 299.5 294 282.9 285.8 293.5 296.8 298.3 299.4 299.6 298.9 297.7 297.4 295.9 294.1 290.6 281.9 273.9 267.1 257.3 254.5 256.8 273.3 289.2 300.6 304.5 302.1 289.9 283.2 299.7 314.9 326.2 333.2 342.7 350.8 356.3 362.1 372.3 384.4 396.7 412.9 424.3 437.5 451.1 457.4 459.5 459.5 458.2 457.6 455.2 450.9 442.3 435.6 427.5 420.7 414.2 407.6 401.7 395.9 390.6 384.6 379.4 376.9 374.5 372.4 371.1 369.6 369.7 369.3 368.4 367.7 367.4 370.1 375.6 378.7 379.6 380.8 382.3 385.4 388.5 392 393.5 392.8 390.2 385.4 380.4 372.8 363.7 354.7 344.6 336.2 326.8 316.3 306.5 296.5 287.2 279.7 273 266.8 260.6 254.2 247.9 241.3 232.1 228.4 225.2 223 225.8 238.7 243.9 252.5 258.1 259 258.2 254.3 248.9 250 252.6 256.4 253.4 253.1 270.3 284.3 295.8 295.6 311.8 330.3 339.8 346.4 350.3 351.4 348.5 345.4 341.8 336.6 330.5 324.8 319.4 312.7 307.7 304.7
355.1 346.5 352.2 363.4 376.6 387.3 394.5 403.6 411.3 418.1 422.1 425.1 427.6 429.5 430 427.7 423.4 420.1 416.2 411.1 406.4 402.1 398.2 392.6 385.9 379.5 372.7 365.6 357.8 351.1 344.7 338.5 335.1 333.1 330.7 332.3 331.4 330 329.1 327.9 326.9 326.7 325.8 324.9 324.1 323.5 322.9 322.4 321.3 320.4 321.1 321.2 319.3 316.2 313.2 309 305.5 300.6 299.5 294.1 286.9 284.6 289.3 298.1 300.5 302.3 303.7 304.8 305.4 304.4 303.3 302.2 300.8 298.6 295.3 288.9 279 271.8 263.6 256 254.9 256.1 272 290 294.5 290.9 276.2 291.5 307.2 316.8 325 332.2 339.5 345.9 347.1 352.8 364.8 378.2 391.6 407.5 419.6 428.4 441.4 449 452.2 452.2 452.5 452.8 450.9 446.3 439.4 432.8 425 418.4 411.8 406.1 400.3 396 391.4 387.8 384.9 382.6 380.5 378.5 377.9 377.1 377.6 377.4 377.3 377.2 377.7 379.8 382.9 385.8 388.6 389.3 391.4 392.7 395.2 396.9 397.5 396.2 393.2 389.2 383.9 376.1 366.8 357.5 347.5 339.1 329.8 320.1 310.2 300.7 290.3 282.9 275.6 269.4 262.3 254.7 245.9 236.2 236.1 236.6 226.8 224.2 223.6 222.4 228.9 239.6 248 251.1 249.6 246.4 240.9 241.3 242.6 244.2 247.5 260.8 277 294.2 308.1 316.8 323.6 332.3 340.1 345.4 348 349.1 346.6 343.4 338.9 331.5 324.5 317.7 313.5 309.5 303.9 300
369.1 356.8 351.4 366 381.5 389.8 397.3 404.4 411.1 416.2 419.7 422.9 425.3 427.4 427.4 424.8 421.6 418.7 414.9 410.1 404.7 399.7 395.2 389.6 382.8 376.1 369.3 362.1 354.2 347 341.2 341.9 339 335.4 333.5 333.1 332.1 330.6 329 327.9 326.7 325.2 323.9 322.8 322.1 321.3 319.9 317.9 316.4 316.5 317 316.5 314.7 312.2 309.6 305.6 299.9 294.9 289.6 288.7 291.9 296.8 301 303.9 305.6 308.1 309.2 310 310.3 309.4 308.1 306.5 305 303.3 300.2 294.9 285.9 280.5 274.3 264.6 254.3 254.8 256.1 272.3 273.9 269.8 277 294.4 306.6 314.4 322 328.4 334.9 338.7 338.6 344 354.5 367.5 382.1 399 411.9 420.1 427.4 435 439.9 441 443.5 445.4 444.3 440 434.6 428.3 421.8 415 408.6 403.2 399.1 395.7 393.2 390.4 388.2 386.4 384.9 384.7 384.5 383.9 384.1 384.8 385.1 385.1 385.4 387.2 390 394.3 396.1 397.4 398.3 399.1 399.9 399.8 399.2 397.9 395 390.6 385.5 378.3 368.3 358.9 348.5 340.8 331.7 321.7 311.8 302.6 293.9 286.1 278.2 270.2 259.1 249.3 242.6 249.3 246.8 242.1 237.1 224.4 223.2 222.8 222.6 225.9 235.2 241.2 238.3 236 234.4 235.6 240.7 248.1 259.1 261.1 274.1 293.8 310.9 321.3 329 335.5 340.8 345.2 346.6 347.4 345.3 342.1 335.8 331.6 327.8 324.8 320.7 316.1 309.8 305.1
381.9 376.7 357.6 363.2 381.6 391.7 399.8 404.2 408.8 412.1 415.9 420.6 422.4 424.2 424.4 423.1 420.9 417.7 413.6 408.7 402.5 396.7 391.9 385.9 379.3 372.7 365.8 358.6 351.6 349.6 348.5 344.9 340.8 337.9 335.6 334.6 332.8 331 329.2 327.3 325.7 324.1 322.6 321.1 319.6 318.8 317.7 315.5 312.3 312.4 312.3 312.3 311 308.4 304.5 300.6 293.3 291.4 294.5 298.2 302.5 305.1 306.6 308.6 311.5 314.2 314.8 315.1 314.1 313.3 312.2 310.7 309 306.9 304.1 300.8 294.3 289 281.7 272.3 261.4 254.2 254.3 254.4 259.9 275 288 295.4 302.3 309.9 316.8 322.6 327.2 328.7 321.6 333.9 343.7 354.5 369 386.3 401.4 413.3 421.1 422 423 424.7 429.2 434.3 434.2 431.3 428.4 422.8 416.7 410.8 405.5 400.8 396.8 394.6 393.1 391.6 390.4 389.6 389.3 389.4 389.4 389.5 391 391.7 392.4 392.7 394.3 395.5 397.6 401.3 402.6 403.9 403.4 403.1 402.5 401.7 400.4 398.3 394.5 390.3 385.1 377.8 369.4 360.1 348.3 340 331.4 322.1 313.1 303.5 295 286.3 278.3 261 256.1 259.6 260.6 257.9 253.9 248.3 241 230.1 223.3 221.9 222.1 221.9 223 228.4 227.3 230.5 237.3 241.6 249.8 256.3 269 278.9 273.8 281.4 297.9 318.8 329.6 336.5 341.3 344.5 346 346.4 345.1 342.7 340.3 338.7 334.4 329.4 324.3 318.6 313.2 308.2
388.8 388 376.4 358.3 378.7 393.2 399.3 401.4 404.2 409.8 415.8 420.5 421.8 422.8 423.4 422.5 420.4 416.9 412.3 406.4 401.1 394.9 389 381.8 375 368 362 356.1 353.4 352.6 349.9 345.3 340.9 338.2 336.1 334.7 332.7 330.8 328.6 326.4 324.1 322.1 320.8 319.5 318 317.5 316.5 313.8 310.4 308.6 308.6 308.2 306.5 302 297.2 294.3 296.8 299 302.4 306 308.4 310.4 312.1 314.7 317.9 319.4 319.5 319 317.7 316.4 315.7 314.3 312.4 310.1 307.5 304.6 300 292.7 286.9 281.1 273.7 260.5 252.5 253.5 254.8 273.6 279.9 282.8 286.6 291.7 298.4 305 310.3 310.6 325 339.4 349.1 358.8 371.3 382.8 392 401.9 408 409.9 409 407.7 414.6 419.8 422.4 423.7 420.4 415.8 411.4 407 402.3 398.3 394.5 392.9 392 391.3 391.2 391.4 391.3 391.9 392.4 394.1 396.2 398.5 399.5 400.1 401.4 402.8 405.2 408.9 409.7 408.8 407.9 406.2 404.8 402.8 400.3 397.5 393.7 388.3 382.7 375.7 368.5 359.4 348.7 339.2 330.2 321.2 312.3 303.1 295.4 287 278 261.9 273.6 272.3 270.4 266.6 259.9 253.5 247 240.1 227.9 221.4 221.6 221.2 220.8 223.9 232.5 241.7 247 251.1 260.3 266.1 276.2 287.2 296.4 300.5 303 312.9 328.3 335.8 340.7 343.8 345.4 345.8 345.6 344.5 343.1 341.7 338.6 333.6 327.4 320.9 316.3 312.1
391.5 390.3 387.8 368.1 382.2 392.1 395.8 398.3 404.7 409.8 416.1 419.4 421.3 422.3 422.7 421.8 419.5 415.7 410.9 405.7 399.7 393.5 387 379.9 372.8 364.1 360.3 358.7 355.3 351.2 347 343 338.3 335.1 333.9 333 332.1 330.3 327.8 325.1 322.6 320.1 318.7 317.6 316.3 315.1 314.7 312.7 309.4 306.4 305 304 300.8 298 299.3 301.8 305.2 306.6 309.4 311.6 313.7 315.1 318 321.8 323.4 324.6 324.1 323.1 322 320.8 319.8 318.3 316 313.4 310.4 307.4 303.8 296.2 290.6 285 279.3 267 255.5 253 252.4 255.9 261 268.3 276.3 287.5 293.5 298.2 307.2 318.7 329.6 339 347.4 357 367.9 376.5 384.8 389.7 392.9 395.4 394.6 391.7 401.8 406.3 411.9 414.1 413.2 409.8 406.3 402.8 398.4 394.6 390.9 389.4 389.1 389 389.8 390.5 391.1 392.6 394.5 396.7 399.9 404.2 406.1 406.3 407.3 408.7 409.7 411.5 412.4 412 410.8 408.3 406.3 403 400.2 396.5 391.9 387 380.1 373.3 366.2 357.1 346.4 336.9 328.1 319.1 310.1 302.1 293.9 284.2 271.8 282.2 285.5 281.8 278.3 274.1 267.7 259 251.6 245.2 237.5 221.8 221.3 220.5 220.1 220.2 235.2 244.2 248.4 254.7 264.1 272.2 281.1 290 298.2 306.4 313.7 320.1 327.5 334.7 339.9 343.2 344.8 346.3 346.7 346.6 345.7 344.6 342.9 337.3 330.6 324.2 320.2 316.1
392.4 390.6 385.7 376.4 382.2 387.3 393 399.2 404.4 409.8 415.3 418.5 420.3 422.1 423 422 419.5 415.3 409.8 404 397.8 391.7 385 379.2 373.5 369.2 365.5 360.5 355.7 350.2 343.3 338.7 337.7 334.2 330.9 328.3 327 326.4 325.3 322.7 320.7 318.3 316.3 315.5 313.9 312.2 311.2 309.9 307.8 304.2 302.4 301.2 303 305.8 307.2 308.5 310.8 313 315.3 317.1 319.2 321.3 325.2 327.7 329.3 329.4 328.4 327.5 326.3 325.1 324.2 321.9 319.6 316.6 313 308.7 305.1 300.4 292.2 286 280.5 275.2 263.1 252.2 251.7 252.4 262.1 285.6 298.7 304.6 308.3 312.6 317.1 322.3 328.8 335.7 343.1 350.7 360.2 368.9 376.2 379.2 379.8 381.1 380 377.8 385.5 396.6 403.3 406.6 407.2 405.5 402.3 398.6 394.9 391.4 388.5 386.1 384.2 383.7 384.6 386.1 387.4 390.4 393.4 397.1 402.4 406.8 409.2 410.7 410.7 411.1 411.7 412.4 413.4 412.9 412.1 409.9 406.6 403.2 400.1 395.8 390.3 384.5 377.9 370.8 364.2 354.7 344 334.2 324.5 314.6 305.5 298.1 290.4 280.3 292.1 295.7 294.6 290 284.9 279.9 272.4 263.8 255.2 248.2 240.3 229 220.8 220.1 218.5 219.2 229.9 238.4 242.7 251.9 264.6 274 282.3 290.1 297.5 303.7 311.2 318.2 325.1 332.2 338.1 341.4 344.2 345.8 347.7 348.4 348.1 348 346.4 342.1 335.4 330.1 325.6 321.2
392.6 390.6 376.1 389.1 392.5 394.5 393.6 397.7 403 409 414.1 417.9 420.6 422.8 423.1 422 419.3 414.7 409 403.2 397 390.8 386 381.8 377.3 372 366.9 361.4 355.2 346.5 347.1 345.1 342.7 338.6 336 330.9 326 322.4 320.5 318.7 317.7 316 313.9 312.6 311.3 310 308.7 307.6 306 304.4 304.5 306.7 309.3 311.2 312 312 314.7 317.2 319.6 321.4 323.7 327.6 331.8 333.7 334.9 334.5 333.1 331.7 330.3 329.1 326.5 323.9 320.9 317.9 314 309.4 305.4 300.3 292.4 286 280.7 277 271.5 262.9 250.9 251.2 263.3 290.5 301.2 306.5 309.6 313.7 317.7 321.2 325.6 331.2 337.6 343.3 349.5 357.4 365.8 369.3 368.8 369.8 368.1 362.9 372.9 387.6 396.8 401.7 402.7 401.1 398.3 395 392.2 389.4 386.5 383 380.5 378.3 379.5 380.8 382.3 386.2 390.8 395.7 402.3 407.8 410.3 411.7 411.4 411.1 411 411.3 412.2 412.6 412.1 410.1 407.3 403.7 400.3 395.6 389.8 383.1 376.1 369.2 362.2 353.2 344.1 335.7 327 316.4 305.7 296.4 293.8 299.4 303.4 304.1 301.6 295.8 289.9 284.3 276.5 267.9 258.9 250.5 243.2 235.7 221.3 219.9 219.1 218.6 224.8 232.7 245.5 255.5 266.5 275.1 282.3 288.6 294.9 300.9 306.5 313.2 320.4 327 333.4 338.1 341.5 344.4 347.2 349.8 350.6 350.7 349.1 347 341.5 335.5 331 326.5
391.6 387.4 383.9 391.9 395.4 397.8 399 400.2 405.2 410.8 414.7 418.4 421.8 423.4 423.4 421.8 419.1 414.4 409.2 403.5 398 393.3 388 383.7 378.2 372.9 367.3 361.2 353 354.4 353.2 348.7 344.5 342.3 336.4 332.1 328.1 324.6 322.1 319.2 317.2 315.9 314.4 312.9 311.5 310.5 310.1 309.5 307.6 308 308.4 310.3 313.1 314.9 315.4 315.4 318.9 321.7 323.6 324.9 328.1 332 335.8 338.5 339.3 338.8 337.6 336.5 334.2 331.5 328.1 323.7 321 317.7 313.2 308.7 304.4 299.3 292.6 285.8 281 276.3 269.8 260.8 250.5 250.7 260 287.3 301.8 306.8 310.6 313.6 316.3 318.3 322 326.1 330.9 335.3 339.2 345 351 355.9 357.7 359 357.1 350.5 358.2 377.4 390.8 398 399.5 398.1 395.4 393.1 391.7 389.8 387.7 385.3 382.4 377.6 373.2 373.3 376 380.1 385.2 391.3 399.1 405.8 409.4 410.5 410.1 408.1 407.5 406.9 408.9 410.5 410.5 409 407.1 404.3 400.6 396.1 390.6 383.6 376.7 370.3 362.9 354.7 346.1 337.8 329.1 319.9 309.5 303.2 308.7 311.5 311.8 310.3 306.5 299.9 293.1 287 279.2 270.1 260.5 252.2 244.4 238.3 231.1 219.2 218.7 218 222 237.5 252.5 261.5 270.6 278.1 283.5 288.1 293.2 296 301.1 306.7 312.8 318.1 325 329.6 335.5 340.9 345.8 349.4 352.4 352.9 352.7 351.6 346.1 341.1 336.5 332.1
389.3 381 388.2 394.5 398.6 401.7 404.1 404.4 407.1 411.3 415.7 419.6 422.7 423.5 423.2 421.7 419.1 414.5 409.5 404.4 399.2 393.8 388.7 383.8 376.3 369.3 362.9 360.2 361 361.3 358.9 351.8 347.9 343.9 339.5 335.3 330.6 326.6 323.4 320.5 319.1 317.6 316.2 315.2 314.1 313.6 313.4 312.7 311.8 311.4 312.5 313.4 315.3 317.3 317.9 319.3 322.6 324.5 325.7 327.6 330.4 334.6 338.3 340.7 341.9 342.4 341.3 338.9 335.7 331.4 327 322.6 319.8 315.9 311.3 307.1 303 298 292.4 286.4 280.9 275.7 268.7 260.4 250.5 250.2 255.5 284.2 301.8 306.3 309.3 311.5 313.4 315.3 317.3 320.4 322.9 327.1 330.5 334.4 338.2 340.6 340.5 347.2 344.2 338.8 354.2 374.7 386.5 393.4 395.1 394.5 394.2 392.9 391.7 390.7 388.9 386.9 384.3 381 376.2 370.9 368.7 372.7 378 384 393.7 401.1 405.2 406.3 405.9 402.6 401.1 400.8 403.2 406.4 407.4 406.9 405.9 404 400.8 396.7 392.2 385.3 378.2 371.1 364.4 356.8 349.2 341.4 333.4 324.7 314.8 318.7 319.6 319.6 318.6 315 309.9 302.5 295.7 288.7 280.2 270.9 260.4 251.5 244.4 238.5 232.5 218.2 218.3 218 218 235.1 250.4 263.3 271.5 278.2 282.2 285.8 288.2 289.9 293.9 297.8 301.5 300.4 303.5 308.8 316.1 326.3 340 348.7 353 354.9 354.8 355.1 351.5 346.6 342.1 337
388.4 383.3 390 396.4 401.3 405 407.3 408.8 410.8 414 418.2 421.2 423.6 423.5 423.2 421.3 418.9 414.5 409.5 404.2 398.8 392.7 387 382.6 378.6 375.3 372.1 369.9 367.5 365.8 362.2 355.7 351.5 347 341.8 336.1 330.4 326.9 324.1 323.6 322.1 319.7 319.1 318.6 316.6 316.7 316.2 315.5 314.2 314.7 315 315.3 316.4 318 319.6 321.5 323.9 325.4 325.8 328 330.8 334.4 337.5 339.8 340.9 341.4 340.2 337.8 334 328 323.8 319.6 316 310.9 307.9 304.9 302 298.1 293.1 287.3 280.2 274 265.6 258.2 248.7 250 254.5 282.1 299.6 304.5 306.9 308.3 308.7 309.1 310.7 312.6 314.7 318.3 321.6 324.2 325.1 325 325.8 332.1 331.3 333 355.2 370.4 381.2 386.3 389.7 392.4 393.3 392.9 391.6 390.8 389.8 388.1 385.6 382.2 377.4 372.2 367.7 365.7 370.9 377.2 386.8 394.5 397.9 398.7 397.6 394.8 392.8 392.2 394.6 399.9 404 404 404.2 403 400.9 398.1 393.4 387.8 381.4 374 367.6 360.4 352.6 344.8 337.6 332 328.7 328.1 327.3 325.7 322.6 318 311.8 304.5 297.2 289.7 281.1 270.5 260.2 249.6 243 237.4 231.8 220.9 218.1 217.4 217 234.3 248.9 262.5 270.4 275.8 279.4 281.4 282.1 281.8 281.9 280.8 281.3 281.6 285.5 291.9 300.7 311 330.2 346.9 353.8 356.5 356.9 358.1 355.8 351.2 346.4 341.7
389.2 386.4 390.3 397.6 402.2 405.9 408.2 410.4 413.7 417.4 420.2 422.3 424.2 424.1 423.4 421.4 418.7 414.2 408 402.1 398.2 395.4 392.3 389 385.5 382.1 377.9 374.3 371.3 368.3 364 359.3 353.4 347.9 340.5 336.1 333.3 330.5 328.7 326.8 326.5 325.5 323.8 322.1 320.7 319.6 318.5 317.9 317 316.6 316.1 316.8 317.5 318.1 319.3 320.9 322.7 323.7 324.9 325.8 328.1 331 333.7 334.9 335.4 334.3 333.5 330.7 327.2 321 317.8 314.1 307.2 305.6 304.1 302.4 300.2 296.4 292.3 287 276.4 270.4 263.8 257 248.9 249.2 254.9 283 297.9 301.5 303.4 303.7 302.4 301.6 302.6 304.3 303.1 308.6 311.1 310.7 310.9 309.7 311 315.5 322.8 339.9 352.4 362.7 369 371.2 387 390.9 392 391.9 391.6 391 390.4 388.6 386.1 382.5 378.1 372.6 367.9 363.6 365.3 371.9 379.8 387.5 390.3 390.2 387.8 384.3 380.6 380.7 383.4 391 398 401.1 401.8 401.9 401.2 399.3 395.7 390.2 383.9 377.6 371.7 364.2 356.7 349.6 343.1 339.4 336.6 335.1 333.8 330.3 325.7 319.4 312.6 304.5 297.6 289.5 280.5 270.3 258.8 249.2 242.4 236.3 230.1 222.1 216.6 216.7 216.2 232 250 262.1 267.4 271.6 275.2 276.2 274.5 271.1 266.1 263.8 264.4 268.6 276.1 282.6 290 306.4 325.7 345.4 354.2 358 359.2 360.6 359 354.3 349.2 343.3
391.1 390.5 391.1 395.4 402.4 405.8 409.3 412.8 417.2 420.2 421.8 423.5 424.9 424.7 423.7 421.8 418.2 413.7 409.9 406.6 403.6 400.4 397.2 393.4 389.8 385.9 381.7 377.3 373.3 369.9 365.7 361.3 354.9 350.8 348.3 345.3 340.5 337.1 334.7 332.6 330.6 329.7 328.4 326.8 325.2 323.1 321.5 320.4 319.2 318.2 316.6 315.8 315.8 316.7 317.4 318.4 318.6 318.4 320 321.1 323.4 325.6 326.2 325.3 324.4 320.9 318.8 318.5 314.6 309.3 306.4 302.2 296.8 299.5 299.4 299.7 298.3 295 291.5 286.9 277.8 270.8 262.8 251.4 248.4 248.4 262.3 285.8 294.9 298 298 296.3 292.6 292.5 292.6 291.2 290.7 296.2 300.9 297.5 299.9 308.6 317 324.4 331.4 339.8 346.6 349.7 352 374.1 384.4 388.5 390.5 390.8 390.8 390.4 389.7 388.3 385.6 382.1 378.1 372.9 367.6 363.2 360.5 366.2 372.4 378.4 380.9 380.2 377.6 373.5 370.2 370.2 373.8 383.1 391.9 397.4 399.7 400.9 401.2 400.9 398.8 393.2 387 380.7 375.1 368.5 361 355.3 349.6 346 342.9 340.5 337.3 332.3 326.7 320.5 312.1 303.9 296.7 287.7 277.8 267.7 257.5 249.1 241.5 235.1 228.7 221.5 215.9 215.8 215.5 234 252.3 260 262.5 265.3 268.3 268.2 264.5 259.4 255.6 261.9 267.9 275.8 287 294.9 300.2 304 320.3 343.2 354.4 358.8 360.7 361.3 359 355.8 350.9 344.1
392.9 394.1 396.7 397.8 400.1 406.9 410.8 414.9 418.9 421.3 422.3 424.1 425.2 424.9 424.1 422.7 420.2 416.6 413.8 410.7 407.5 404.2 400.8 396.2 392.5 388.3 384 379.9 375.9 371.6 367.2 363.1 359.7 357.1 354 350.7 346.5 343 340 337.2 334.6 332.7 331.5 330.6 328.9 327.1 325.3 323 320.6 318.5 316.7 315.6 313.3 313.6 314.1 312.4 310.6 311.4 311.7 315.6 317.7 318.7 314.8 312.1 311.8 307.3 305.8 303.7 300.6 297.1 294.3 291.7 291.8 294.2 296.2 296.3 295.5 293.6 291.1 285.8 279.6 272.9 262.8 250.5 247.8 248.4 259.1 281.6 289.8 291.8 289 280.7 276.8 276.4 276.2 283.5 286.3 290.1 293.2 297.8 306.8 316.1 323 327.8 332 336 337 337.3 356.7 370.6 379 384.2 386.6 387.5 388.3 387.8 387.4 386.2 383.9 380.9 377.5 373.3 367.2 362.7 356.6 361.5 366.8 370.8 371.3 370.7 368.4 364.8 362.7 362.3 365 373.8 385.2 392.9 396.5 399.2 401.1 401.8 400.6 397.7 391.6 384.1 378.5 372.3 366.1 360.4 355.1 350.5 346.7 342.9 339.3 333.4 326.9 319.7 310.9 302.6 294.3 284.8 275.4 265.6 256.5 248.6 240.1 233.7 226.7 219.7 215.5 215.1 213.8 233.8 245 248.4 245.4 247 250.8 252.2 249.8 254.9 265 271.6 278.3 279.6 290.8 300.8 310 317.1 322 331 352.5 359.6 361.9 361.7 360.3 357 351.9 340.1
395.7 398.3 400.2 405 403.5 406.4 411.7 415.7 418.7 421.1 423 424.7 425.5 425.8 425.4 424.3 422.6 420.1 417.5 414.1 410.8 407.3 403.1 399.3 394.7 390.3 386.2 382.1 377.9 373.5 369.6 366.5 363.4 360.4 357.9 355.4 351.9 347.7 343.8 339.9 337.2 335 333.4 332.4 330.4 328.3 325.8 323 320.4 318.4 316.5 313.8 311.2 310.4 309.5 308 307 306.1 306.2 307.8 309.1 308.7 306.9 303.8 301.7 298.8 296.7 293.9 291.4 288.6 286.6 285.5 288 290.5 291.5 291.6 291.7 290.7 289.2 286.8 281.6 275.1 265.4 250.9 247.8 247.9 253.2 271.6 282.7 280.1 267.4 264 269.2 279.3 288.6 295.3 298.2 298.7 300.4 305.4 311.7 317.3 322.7 326.5 329.5 330.9 326.7 337.3 351.5 363.5 371.4 377.3 380.8 381.9 383 383.5 383.4 382.2 381 378.7 375.6 373 367.2 362.3 355.3 357.1 361.3 363.9 364.6 363.3 360.2 357 355.1 354.5 358.1 365.3 376.9 387.1 392.1 396.3 399.9 402.4 402.2 399.6 395.7 387.5 381.9 375.4 369.2 363.5 358 353.1 347.9 343 338 332 325.2 316.9 308.2 299.6 289.9 280.9 271.7 262.2 254.3 246.2 238.5 230.6 222 217.1 215 214.4 217.8 222.1 228.3 230.6 234.7 236.3 240.9 247.6 256.2 264.6 273.3 280.8 287 292.1 294.9 300.7 313 326.3 339.6 347.8 349.9 360.8 362.8 362.8 361.5 358.3 353.9 343.7
399.8 404.1 407 409 410.1 409.8 411 415.3 419 422.4 425.1 426.6 427.2 427.3 427.3 427.4 425.9 424.2 421 417.6 413.7 409.5 405.3 400.7 396 391.3 387.8 383.8 379.3 375 371.8 368.7 365.6 362.3 359.5 357.2 353.4 349.2 345.5 341.6 337.8 335.8 333.5 332.4 330.3 328.1 325.4 322.7 320.4 317.7 315 312.4 309.6 306.7 305.7 303.9 302.8 301.7 301.6 301.9 301.6 301 299 297.2 294 291.8 288.7 285.3 283.1 281 279.9 278.9 282.5 284.4 284.6 284.7 285.7 285.6 285.3 283.6 281.3 275.8 269.5 255.8 247 246.5 247.9 260.2 272.2 264.9 259 273.9 286.8 296.2 301.1 303.3 305.5 305.1 305.7 309.8 314.1 317.3 321.4 323.2 324.6 322.1 322.1 332.6 341.6 353.8 361.8 368.9 372.2 373.9 374.9 377.5 377.6 378.1 377.2 376.5 374.9 371.9 367.3 362.3 356.1 351.5 356.7 358.3 358 356.2 352.9 349.5 347.7 346.8 351.4 358.6 369.7 380.7 387.9 393.8 398.6 402.1 403 400.9 397.8 391 384.7 377.7 370.9 364.1 358.3 353 346.9 341.4 334.8 327.9 320.6 312.1 303.4 294.1 283.8 274.9 265.9 259 252 244.5 236.5 226.1 217.2 215 214.3 213.6 232.1 239 235.1 239.6 245.5 245.7 251.1 259.7 268.5 275.1 281.3 287.3 294.1 300.6 303 312.9 321.8 335 347.8 355.5 359.9 363.3 364.8 364.3 363.1 360.7 357.2 352.2
406.3 409.8 411.6 413.7 414.9 415.5 415.3 417.6 421 424.3 426.7 428.3 429.1 430 430.7 430.6 429.7 427.5 423.7 420 415.4 410.6 405.9 401.1 396 391.8 388.1 384.2 379.7 376 373.6 370.4 366.9 363.4 360.1 357.1 353.2 349.2 345.2 341.5 338.5 335.1 331.8 330.8 328.8 326.6 325 322.3 319.1 316.2 312.8 310.8 308.5 304.8 302.5 300.1 298.8 297.6 296.7 296.6 295.8 294.8 293.3 291.1 287.7 285.5 281.5 278.1 276.4 275.5 273 271 274 274.6 275.7 278 280.3 279.7 280.9 280.2 280.3 277.7 274.2 263.1 250.2 246.6 245.7 248.7 253.6 253.2 262.5 282.4 294.9 302.1 306.9 309.7 309.2 309.1 310.4 313.5 314.9 317.2 318.7 318.8 317.9 313.1 316.4 327.3 338 347.2 354.8 358.9 362.1 364.3 365.9 369.2 371 372.5 373.5 373.6 372 369.8 366.5 362.2 356.5 348.7 350.2 352.2 351.6 349.3 346 342.4 341 340.1 345.7 353 363.7 374.9 382.2 389.3 396.9 401.2 403 401.4 398.4 393.1 387.1 378.7 370.9 363.9 356.9 350.3 343.7 337.6 329.6 322.3 314 305.8 296.7 286 276.3 267.6 260.3 254.8 248.1 241.2 234.4 221.8 214.4 213.7 212.8 225.6 238.2 247.2 248 243.5 251.5 257.4 258.7 267.2 275 281 287.5 293.3 300.3 308.1 316.7 321.5 335.1 345.3 353.5 359.3 363.7 365.7 366.1 365.7 365.1 363 360.2 356.4
411 414.5 416.4 418.3 419.7 419.5 419.7 421.4 423.2 425.8 427.9 429.6 431.1 432.1 433.3 434.1 433 430.7 426.3 422 416.3 411.2 406.1 400.4 394.8 391 386.7 383.3 379.1 376.3 373.7 370.1 366 362.1 359.2 355.8 351.9 347.5 343.8 340 335.3 332.8 330.3 328.6 326.7 323.6 322.6 320.4 317 314.3 311 308.5 306 302.7 299.3 296 295.2 294.2 293 291.9 290.5 289.2 287.3 284.9 281.2 278.9 275.3 272 269.8 268.8 265.9 265.4 267 265.8 266.7 269.9 271.3 274.4 276.4 278.1 278.9 278.7 277.4 272.8 261.2 247.6 245.2 245.2 248.3 250.4 266.5 289.1 299.6 305.6 309.9 313.2 313.4 314 314 314.3 314.6 314.6 314 312.4 309.7 308.3 321.3 331.2 337.9 343.2 347.8 350.1 352.2 354.3 356 360.9 364.2 365.6 368.1 369.7 368.7 367.4 365.5 361.8 356.5 350.2 344.5 345.5 344.7 342.6 339.3 335.3 334.3 333.4 339.8 347.1 356.7 369.3 377.8 384.9 393.5 399.9 402.3 402.5 399.5 394.2 388.3 378.8 370.1 361.5 353.3 345 338 331.2 323.9 315.3 306.3 297.1 287.7 277.1 267.5 260.3 255.3 250.6 243.4 237.6 231.5 218.9 213 212.5 215.5 230.8 242.2 247.7 254.6 253.1 258.3 265.9 269 271.6 278.4 285.5 292.8 298.6 306.2 317.1 328.3 336.1 343.5 351.7 357.6 362.4 366 367.7 367.6 367.4 366.6 365.3 363.5 360.1
414.2 418 420.3 422.3 422.9 423 423.2 424.5 426 427.5 428.6 430.3 432.6 434.3 436.6 437.5 436.4 433.7 428.9 423.2 417.4 411.6 406 399.2 393 388.1 384.2 380.6 376.9 374.1 371.6 367.8 364.3 360.8 357.2 353.5 349.5 344.7 339.9 336 331.4 328.3 326 324.7 323.2 320.1 318.7 316.9 314.1 311.4 308.8 307.5 305.7 300.8 296.5 293.2 291.5 291.5 289.6 287.7 285.8 283.5 281.5 279.4 275.8 272.9 269.5 266.6 265.6 264.5 263.3 263 261.7 260.1 260.5 261.3 264.7 267.9 272.6 275.4 276.5 278.2 278.3 276.9 271.7 263.5 251.5 245.2 246.8 247.8 261.8 287.7 300.5 307.1 312.8 315 315.7 315.2 313.9 313.1 312.2 309.9 308 303.1 300.1 316.9 324.2 330.2 335.9 339.7 341.8 342.6 343.6 344.7 346.4 351.2 354.4 357.8 361.2 363.9 365.1 365.1 363.7 361.2 357.7 351.9 344.1 339.6 336.9 334.3 329.8 327.2 325.3 327.5 333.2 340.5 350.9 362.7 372.7 381.7 391.1 397.5 400.7 402.6 399.6 394.9 388.7 379.1 368.9 358.8 349.1 340.3 331.3 322.7 315.3 307.1 297.6 288.1 279 269.5 260.1 253.5 249.5 245.4 238.9 234.1 226.6 213.1 211.6 213.2 218.7 228.4 235.8 242.4 251.7 259.8 262.3 269.4 275.3 279.8 284.8 289.6 296.1 303.6 313.9 326.8 336.6 344.5 350.3 356.3 360 364 367.1 368.9 368.6 368.2 368.2 367.5 366.4 362.2
416.3 419.6 421.6 423.7 424.5 424.6 425.9 426.6 427.6 428.5 429.4 431.9 434.6 436.8 439.5 440.4 438.9 435.3 430.2 424.6 418.6 412.3 406 399.1 392.3 386.3 380.5 376.4 373.6 370.2 367.6 364 359.8 354.9 350.7 347.1 342.8 338.8 333.9 330.2 326.7 323.8 321.5 320.8 319.5 316.5 313.7 311.7 311 308.3 306.4 305.1 304.7 301.5 297.1 292.2 288.4 287.8 286.6 284.1 281.1 279.3 277.3 274.2 271.6 268.2 267.5 267.2 266.1 265.3 264.7 262.9 262.1 260.7 259.5 258.7 258.8 260.7 267.9 271.5 274.2 276.1 277.8 278.6 277.1 272.3 257.6 245.2 245.6 246.2 254.9 282.2 299.3 307.1 311.3 313.7 314 313 311.2 309.3 307.5 304.8 299.3 294.2 309.6 318 323.8 329 333 336 336.4 335.6 334.2 333.7 337.5 340.1 342.9 349.5 353.3 355.1 358.8 360.7 360.9 359.8 357.2 353 350.1 343.6 337.3 331.4 327.4 319.3 316.7 318.3 325.6 333.6 343.1 354.6 366.1 376.3 386.8 394.5 399.3 401.6 399.5 395.3 389.4 379.8 368 356.6 345.9 335.5 321.2 310.9 300.6 294.4 288.4 280.6 271.8 262.4 253.6 249 243.3 239 234.8 229.9 221.1 211.8 211.7 212.9 221.3 233.1 239.8 248 253.6 262.3 269.4 273.8 279.1 285.6 290.6 295.1 300.9 309 321.9 334 342.5 349.1 354.5 358.6 362.1 364.3 366.1 367.4 366.9 366.6 367.2 367.2 366.5 361.1
416.9 420.8 423 423.8 424.8 425.9 427 427.5 428.5 429.4 431.2 434 436.8 439.3 441.1 441.2 439.5 435.1 430.3 424.8 418.8 412.2 405.5 398.5 391.7 385.8 379.5 374.3 367.9 364.8 362 354.7 349.3 346.9 340.3 337.1 331.1 327.4 323.7 322.3 321.1 319.1 316.1 315.8 315 311.9 309.2 307.6 307 305.5 303.4 301.3 300.5 298.7 295.2 291.9 288.6 284.1 282.4 280.7 278.3 276.2 273.7 270.9 269.5 268.6 268.4 273.2 274.5 272.7 271.6 268.8 265.9 263 260.3 258.6 257.7 257.3 257.6 266.5 271 272.9 275.5 277.2 276.8 272.7 260.4 246.5 243.4 243.4 252.8 278 295.7 303.7 307.4 308.8 307.4 305.3 303.4 299.7 298.2 297 290.5 300.2 309.9 316.8 322.7 326.8 330.1 331.6 331.6 329 327 324.8 329.4 329.7 332.3 337.7 343.3 345.6 350.9 353.9 356.1 356.4 355.4 353.9 352.1 349.7 346.7 343.5 339.1 333.5 323.2 310.2 314.5 327.2 336.6 347.4 358.4 369.9 380.2 390.3 397.6 399.9 399.8 395.4 389.7 380.8 368.5 357.4 344.5 334.3 319.2 303.8 288.6 278.2 274.6 272.2 265 252.5 246.6 243.3 237.6 229.1 228.3 222.2 214.1 210.5 211.4 212.8 227.9 237.9 253.1 262.6 268.8 270.1 274.9 280 284.1 290.1 295.4 301.1 307.5 316.2 327.9 338.8 345.8 352.1 355.9 359.5 360.9 361.7 363.5 363.4 363.9 364 364 363.8 362.7 357.7
418.3 421.3 422.3 423.5 424.5 426.5 426.5 428 429.1 430.3 432 435.3 438.3 440.7 441.5 440.5 438.6 434.5 429.9 424.4 418.1 411.7 404.9 397.8 390.4 384.6 379 373.9 367 363 358.7 359 358 355.8 352.6 347.9 343.4 336.3 328.6 323.6 316.4 313.1 311.1 309 307.8 306.4 305.4 304.1 303.2 302.1 300.2 297.4 296.4 294.6 292.5 289.9 286.7 283.3 280 278 275.6 273.5 271.9 270.6 270 272.5 278.9 279.5 280.2 280.3 278.9 276.8 272.1 268.8 265.7 262.1 259.5 256.7 255.2 255.6 264.2 267 269.1 273.9 274.8 269 261.9 246.9 243.4 243.4 258.3 276.6 290.8 298 301.3 300.3 298 295.8 293.1 289 286.7 285.9 283.3 300.6 308.2 314.2 319.6 323.6 326.3 327.7 328.4 325.4 319.4 317.6 320.5 320.4 324.1 327.5 332.2 336.1 341.7 346.4 350.3 351.6 352.1 352.1 351.5 349.8 347.5 344.4 341.7 337.1 331 316 308.6 319.8 332.2 342.5 353.7 364.7 375.3 386.4 395.1 398.7 399.7 395.4 390.3 380.9 369.1 359.4 345.5 336.2 324.8 311.4 295.8 281.9 267.9 254.6 250.3 240.4 235.4 235.5 233.2 227.6 225.3 210.2 210.4 210.6 211.2 222.2 235.8 248.4 259.5 271 277.5 280.2 281 286.2 291.2 295.5 301.1 308 315.3 324 333.8 342 348.5 352.7 355.6 356.8 357.5 357.9 358.7 358.4 358.7 359.4 359.4 359.3 358.6 353.9
418 419.7 419.8 421.8 423.4 424.6 425.8 427.5 429.3 430.8 432.1 435.2 438 439.6 440.1 439.5 437.7 434.6 430 423.4 417.5 411.6 405.3 398.5 390.4 384.1 379.4 375.2 369.8 365.2 363.9 364.4 363.6 361 357.2 352.7 345.2 336.5 329.8 324.5 320.2 315.9 312.5 309.4 305.1 301.5 301 299.9 299.1 299 297.6 294.6 292.8 291 289.4 286.4 283.8 281.2 279 276.6 274.2 272.9 272.1 273.5 276.7 281.1 285.3 287.8 288.8 289 287.2 283.6 278.9 274.7 271 267.3 264.4 262.1 261.2 257.2 253.8 253.8 256 266.5 270.3 266.7 261.1 249 243.4 243.4 254.8 271.6 281.9 290.4 292.9 291.3 288 285.9 283.9 279.9 277.4 275.8 287 298.2 304.8 310.5 315.8 319.9 322.4 323.7 324.9 323 318.9 312.3 312 310.2 315.9 320 322.9 326.6 332.6 338.2 343.1 345.8 346.7 348.3 348.9 347.6 345.5 342.5 339.3 336 331.6 317.1 304.5 313 326.9 338.1 349.2 361.1 372.7 383.5 391.4 396.9 399.1 397.7 391.1 382.4 371.3 359.8 347.9 336.9 327 316.4 304.8 289.8 276.3 264.1 252.6 242.1 234.2 227.3 224.7 224.9 220.9 210.5 209.6 210.6 216.3 227.9 239.6 252.3 265.1 277.5 283.6 286.4 289 292.4 295.9 301.4 306.9 313.8 320.7 329.2 337.9 344.2 349.1 351.7 352.8 352.5 352.7 352.4 352.3 352.3 352.8 353.1 352.8 352.6 352.5 350
416 417.3 417.7 418.6 419.8 421.8 425.2 427 428.1 429.9 431.4 433.6 436.1 438.4 439.7 438.4 436.4 433.5 428.1 423.1 417.6 411.8 405.6 399.4 392.3 386.6 381.4 376.6 372 369.8 368.7 368.3 366.9 365 361.1 355 346.3 338 331.5 326.1 321.3 319 316.2 313.7 310 304.2 298.6 296.7 296.1 295.5 294.1 292.3 289.7 287.7 285.8 283.3 280.8 279.4 277.2 275.8 275.4 276.1 277.3 279.6 282.9 285.3 288.8 293 296.1 296.6 294.2 289.8 284.1 279.5 274.5 268.5 265.6 268.7 268 265.7 263.5 257.4 252.7 253.6 265.3 266 263.1 250.5 243.4 243.4 243.4 260.8 273.8 280.2 281.6 281.9 279.1 275.8 275.2 271.5 269.5 274.9 286.6 295.8 301.6 306.4 309.9 314.1 317.5 319.7 320.8 319.4 316.3 312.8 305.3 303.2 308.7 312.2 313.4 317.1 323.1 328.3 333.3 335.9 339.3 342.5 343.8 343.6 342.1 339.4 336.5 333.3 328.9 322.1 299.6 305.5 321.1 334.9 347 359.1 370 380.2 389.2 395.8 399.3 397.9 392.7 384.1 373.6 361.1 349.5 339.9 329.8 320.3 308.5 295 282.5 270.1 258.3 247 238.5 230.5 222.9 217.7 215.3 209.2 210.1 210.5 223.5 234.4 243.8 254 269.9 282.3 287.9 291.8 295.1 298.1 301.8 308 313.3 319.6 325.7 332.2 338.7 344.3 347.2 349.2 348.6 347.9 346.5 345 344.2 344.3 345.8 345.9 345.6 345.6 345.3 344.4
412.8 413.8 414.1 414.4 415.7 419.5 422.9 424.3 425.9 427.7 430.1 432.6 435 437.5 438 436.6 434.6 431 426.7 422 417.6 412 406.6 401.3 395.7 389.5 383.8 379.4 375.4 373.4 372.3 372.2 370.4 368.3 364.6 358.8 349.3 340.8 334.1 328.5 324 321 318.3 315 312 307.1 301.9 297.9 295.6 293.1 291.2 289.5 287.1 284.7 283 282.2 280.7 278.6 279.9 280.8 278.7 279.5 280.7 284.1 287.9 291.1 294 297.5 300.8 302 298.9 293.5 289.4 283.1 276 270.7 272.4 273.6 273.8 272.3 269.6 263.6 254.3 251.1 256.1 263.7 267.1 258.8 247.9 243.4 243.4 245.8 261 266.4 268.4 271.4 268.5 264.9 265.6 262.4 264.9 276.8 285.5 291.3 296.6 300.6 304 307.4 311.1 313.8 315 315 312.7 309.1 303.8 298.6 304 307.5 308.1 310.6 315.7 321.1 324.1 325.2 331.5 335.6 337.8 338 337.3 335.3 332.7 329.5 325.1 318.9 298.1 301.2 317.7 331.6 345.6 358.6 369.5 379 388 395.2 397.5 395.5 390.8 383.5 375.4 361 350.2 340.9 332 323.1 311.8 299.1 285.9 273.3 261 250.1 240.2 232.5 225.7 219 212.2 208.5 209.4 219 230.1 239.9 246.6 258.6 273.1 284.4 291.4 295.9 300.7 304.5 308 314 318.8 323.2 328.2 333.6 338.2 342.5 345.3 345.9 344.8 343.1 340.2 337.2 335.3 335.2 338.2 338.7 338.5 338.7 338.8 337.5
410.1 409.7 409.7 408.3 410.8 415.2 419.1 419.9 421.1 424.2 428.4 431.2 433.6 435.3 435.1 433.9 431 427.9 424.6 422.1 418.1 413.5 407.9 402.4 397.3 391.6 386.8 381.3 377.7 376.4 375.7 375.9 374.5 371.6 366.6 361 353.9 346.5 338.4 332.6 327.3 323.5 320.1 317.4 313.9 309.6 303.5 299.1 296 294 291.6 287.1 287.8 287.9 287.3 284.9 283.6 282.7 282.8 283.9 281.7 283.7 284.1 286.8 290.8 293.8 297.5 301.5 304.2 304.9 301.8 296.6 292.9 287.8 280 276.5 279 279.6 277.8 271.9 266.4 263.3 260.3 250.8 251.6 258.1 265.6 265.3 258.4 248.9 242.5 242.5 245.8 250.5 252.4 253.8 255 256.4 257.7 255.4 266.3 275.7 281.4 286 289.4 293.3 296.3 299.9 303.9 307.1 309.5 309.9 307.6 304.8 298.3 299.2 303.9 304.7 304 305.2 310.2 315.5 316 319.4 325.2 329 331.6 332 332 330.6 327.8 324.6 320.6 314 291.9 299.7 317.1 331.4 346.6 360 369.6 378.6 385.8 393 394 392 387.8 381.4 373.2 362.3 349.6 340.9 332.1 322.6 311.3 299.3 286.8 274.4 262 250.8 240.5 232.3 225.2 216.5 208.6 208.4 212.9 221.1 228.6 236.8 247.2 261.3 274.7 285.5 293.5 299.3 304.9 309 313.5 318.2 322.2 325.6 329.6 332.5 336.6 339.8 341.9 342.4 340.7 338.3 334.7 330.1 326.9 328.2 331.1 331.2 330.6 330.1 331.1 330.1
406.2 405.2 404.1 402.2 405.8 410.1 413 412.5 414.2 420.4 426.2 429.1 431.3 432.1 431.7 430.1 428.4 426.2 424.2 422.1 418.7 414.1 409.4 404 399.2 393.9 389.2 384 380.2 378.2 377.7 377.7 375.9 372.8 368.9 363.2 357.6 350.7 343.1 337.3 331.9 327.5 324 320.4 315.8 309.6 303.3 299.1 294.9 292.5 290.5 290.9 292.6 292.8 290.8 288.6 285.7 285.5 285.3 287 284.8 286.2 287 289.2 293 296.1 300.5 303.7 306.3 307.2 304.6 300.8 296.3 290.2 284.8 283.2 283.3 282.7 278.4 274.2 272.6 270.8 267.2 252.1 249.3 250.2 255.5 257.5 255.3 250.1 242.5 242.5 242.5 242.5 247.3 248.7 249.5 249.7 250.5 255.4 263.5 270.4 275.8 279.3 280.8 283.7 287.6 291.5 295.3 300 303.3 303.6 302.8 300.5 287.4 298.2 301.7 302 300.6 300.4 304.7 308.2 306.7 314.7 318.6 322.4 324.6 325.9 326 324.2 321.8 319.3 315.3 303.2 287.5 302.4 318.6 332.6 347.5 360.8 370.3 378.5 384.3 389.3 390 388.1 384.3 378 369.6 360.2 348.7 339.5 330.8 320.4 309.1 297.6 285.6 273.6 260.6 250.2 239.8 230 221.6 211.7 209.3 208 221.7 233.6 240.5 247.4 256.1 267.6 276.7 286.7 294.4 300.7 307.5 312.4 317 321.1 323.4 325.4 327.8 329.9 333.5 336.2 338 338.3 336.9 334.8 331.4 325 320 322.2 324.2 324.2 322.9 320.9 322.6 322.4
402.7 400.7 398.6 395.3 399.4 403.4 405.6 404.3 408.3 417.6 423 426 427.5 428.4 428 426.5 425.5 424.4 423.9 422.2 419 414.9 410.4 406 401.4 396 391.2 385.6 381.5 379.4 379.2 378 376.2 374.2 370.4 365.2 359.6 352.7 347.2 341.4 336.1 332.5 328.4 323.3 317.4 310.4 303.2 298.7 295.5 295 293.8 295.1 296.4 295.7 292.9 291.7 288.8 289.3 289 288.3 288.6 289.8 291.2 292.4 294.9 298.8 302.8 305.5 308.3 308.8 307.6 304.1 299.5 294.5 291.4 288.8 286.8 283.2 280.4 280.7 278.9 276.7 272.8 258.8 249.6 247.8 248.8 255.2 252.9 246.9 242.5 242.5 242.5 242.5 242.5 242.5 242.5 242.5 243 248.9 255.8 262 266.9 270 271.9 273.6 279.3 284.1 288.1 291.9 294.9 297.1 297.4 294.3 282.3 295.9 301.3 300.6 296.9 297.5 298 300.1 303.9 308.5 311.9 315.7 318.5 319.5 319.4 317.7 315.8 313.5 309.6 290.9 287 305.1 320.1 335.2 348.4 360.1 369.8 377.7 382.6 385.6 385.6 383.3 380.6 373.9 365.9 356.2 347.2 337.8 328.8 317.6 306.1 294.9 283.5 272.4 261.3 250.4 239.9 231.2 222.2 209.7 207.7 208.3 230.5 245.1 253.4 259 265.7 272.1 279.9 287.1 294.6 301.2 308.5 313.8 318.1 321.2 322.9 322.5 323.8 325.5 327.5 330.7 332.5 333.5 333.2 331 328.6 324.3 317.5 315.6 318.2 317.4 316.6 313.3 314.9 314.6
398.9 396.6 393.8 388.1 390 394.6 396 395.6 407.1 414.2 419.1 422.4 423.9 424.2 423.8 423.3 422.4 422.3 422.9 421.9 419.4 416.6 412.1 407.7 403 398.1 392.3 386.6 382 378.4 376.9 376.8 375.6 374.6 371.8 367.2 361.3 355.1 349 343.9 339.9 336.2 331.8 325.8 318.1 309.5 302.2 297.8 297.1 296.8 295.9 297.2 299.6 298.7 296.3 294 291.4 293.4 292.4 293.3 292.5 293.8 295.2 296.3 298 300.9 304.8 307.2 309.5 310.8 310.7 309 306.1 302.7 299.6 294.5 290.3 286.5 286 286.8 285.4 283 277.8 269.9 261.3 257.9 250.7 246.3 246.8 242.5 242.5 242.5 242.5 242.5 242.5 242.5 242.5 242.5 242.5 242.5 248.3 255.1 258.1 260.1 262.7 263.7 267.9 275.6 280.7 284.9 288.6 290.1 288.7 285.8 281.3 297.3 300.6 299.1 294.2 293.2 293.4 295.2 299 302.4 305 309.1 312.2 313.1 313.2 311.5 309.4 307.1 303.4 283.7 288.9 308.4 322 335.3 348.2 359.2 368.6 374.8 378.6 380.8 381 379.7 375.5 369.2 361.2 351 342.9 333.7 325 313.7 302.1 291.7 280.5 270.1 260.2 250.5 240.9 232.3 224.3 208 206.5 214.4 234.6 247 253.9 261.1 268.3 274.9 280.8 287.3 295.4 302 308.2 313.1 316.1 317.2 318.2 317.3 316.9 318 320.2 323.5 326.5 327.9 328.3 327.6 325.4 321.7 317.6 309.3 312.4 310.9 310.1 306.3 308.4 307.8
395.5 393 389.3 383.4 382 384 386.6 397.1 405.9 411 415.2 418.8 420.1 420 419.3 419.3 419.4 420.5 421.6 421.3 420.2 417.9 414.3 409.3 404.4 399.2 392.9 386.8 381.6 377.5 375.2 375 374.8 374.6 372.4 368.1 362.4 357.3 352.1 346.8 342.4 338.6 333.8 327.1 317.2 308.7 300.7 299.3 299.4 298.6 298.1 299.5 300.1 300.2 299.7 295.4 295 297.1 295.9 296.1 296.6 297.4 298.8 300.3 301.7 303.5 306.7 309.5 311.9 313.3 313.8 313.8 312.4 309.8 306.3 300 293.7 294.2 293.3 293.7 291.7 288.7 283.5 277 272.9 268.6 263.9 257.6 252.9 250.4 246.8 242.5 242.5 242.5 242.5 242.5 242.5 242.5 242.5 242.5 242.5 247.1 250.3 251.5 252.8 254.5 258 263.9 270.5 276.9 280.5 281.8 276.3 268.3 285.8 296.5 298.3 297 292.6 285.4 289 292.8 294.4 295.6 297.6 302.6 306.2 307.2 307.4 305.5 302.7 299.8 296 281.8 292.5 310.8 322.2 331.4 343.7 355.5 364.1 369.1 372.3 375.1 376.2 374.9 371.3 364.1 356.3 345.2 337.6 327.3 318.8 308.7 297.8 287.8 277.3 267.3 257.6 249.2 241 232.7 223.4 209 204.8 214.8 230 236.9 246.2 258.5 267.3 275.1 280.4 287.8 295.5 302.1 307 309.8 311.7 312.3 312.5 310.9 309.7 310.5 312.8 316.5 320.3 321.7 323.1 322.9 322 319.9 315.3 311.1 304.2 304.5 303.9 301.4 303.1 302.2
391.7 388.7 384.6 379.2 374.2 380 391.6 399.3 403.8 408.9 411.8 415.2 416.3 415.8 415.1 415 415.5 417.1 420.1 421.3 420.6 418.8 415.3 410.8 405.4 400 394 387.2 381.4 376.4 373.4 372.9 374 374.1 372.6 368.2 363.7 358.5 353.7 348.5 343.8 339 333.4 325.6 316.8 307.4 300.4 301.8 300.9 300.3 300.6 302.2 302.4 302 300.8 296.2 298.3 299.8 301.1 299.7 300.2 301.1 302.8 304.6 305.8 307.2 309.7 312.2 314.7 316.9 317.3 317.9 319.5 318.1 314.2 307.8 304 303.6 302.3 299.8 297.5 292.6 286.6 279.7 274.5 271.1 267.5 263.3 259.1 255.4 252.2 248.3 242.5 242.5 245.8 246.9 242.5 242.5 242.5 242.5 242.5 242.5 244.4 242.5 245.7 247.9 249.7 255 259.5 265.4 268.1 267.4 260.9 271.3 287 293.3 293.2 291.6 283.9 281 288.3 291.3 291.2 290.3 290.9 296.3 300.6 301.7 301.8 299.6 296.5 292.6 288.3 275.5 297.9 312 321.5 327.8 334.5 345.3 354.8 359.6 363.9 367.2 369.4 370 364.8 358.7 350 339.6 331.6 322.6 312.9 303.2 292.6 282.8 272.5 262.7 253.4 246.3 239.3 231.7 223.7 209.2 204.8 213.8 229 239 251.5 262.5 269.9 275.3 281.5 288.6 294.8 300.5 304.8 306.2 307 307.1 306.7 305.2 304.1 305 307 311.1 314 316.5 318.1 318.3 318.5 316.9 314.8 311.3 307.3 300.6 296.4 294.7 296 295
386.3 383 380 372.3 372.3 386 393 398.1 402.1 406.1 408.7 411.4 412.6 411.8 410.8 409.8 411.1 414.5 417.8 420.4 420.7 419.8 416.2 411.6 406.6 400.7 394.8 388.8 382.6 376.9 372.3 370.6 372.2 372.8 371.6 367.4 363.6 358.7 353.4 348.6 343.6 337.5 330.7 323.7 316 308.2 304.3 304.2 303 303 303.9 304.9 304.3 303.4 302.1 298.7 300.8 302.8 304.2 304.3 303.9 304.8 306.6 309.1 310.6 312 313.5 315.9 318.2 320.5 322 323.4 325.5 324.6 320.7 314.8 312.6 312 310.1 307.3 301.4 293.1 285.6 277.6 271.6 270.6 268 264.4 261.4 256.6 254.3 251.5 247.5 246.7 246.9 247 247.3 245.7 242.5 242.5 242.5 242.5 242.5 242.5 242.5 242.5 242.5 249.7 253 253.7 258.3 255.9 258.4 274.2 286.7 290.5 288.3 283.2 272.1 282 292 291.8 289.5 285.9 285.5 289.3 294.3 296.4 295.9 293.9 289.7 283.5 274.9 284.2 301.3 310.4 318.4 323.8 328.5 332.2 340.6 347.7 354.1 359.4 362.4 361.2 358.7 353.3 343.6 335.4 326.8 316.8 306.8 297.6 287.8 277.9 267.9 257.6 248.7 240.4 234.3 229.8 223.4 210.7 205.6 215.6 236.7 249 258 265.6 270.9 276.3 282.1 288 293.2 297.7 301.4 302.4 302 301.9 301.5 300.5 299.8 300.5 303.2 306.3 308.7 309.8 311.8 313.6 314.4 314.2 313 311.3 308.7 306 303 300.3 293.6 288.3
380.2 377.4 375.1 364.1 376 384.6 390.3 394.4 398.7 402.1 405.1 407.7 408.9 408.2 406.4 403.8 405.4 409.4 414.6 418 419.1 418.7 415.7 411.9 407.4 401.6 395.7 389.7 383.1 377.7 372.3 368.2 368.7 370.1 369 366.2 362.4 358.1 352.4 347.4 342.9 336.4 330.2 322.8 314.8 308 306 307.6 308.6 308.4 309.2 308.8 307.8 306.2 304.1 302.7 303.4 305.7 307.2 307.6 308.3 309.2 311.1 313.7 315.8 317.2 318.7 319.9 321.9 324.3 325.5 328.3 330.4 329.7 326.4 321.9 320.2 319.7 317.1 312.3 304.9 293.5 281 270.8 266.7 265.6 263.7 261.3 259.3 255.6 254 252 246.9 246.9 246.8 247 247.1 247.1 242.5 242.5 242.5 242.5 242.5 242.5 242.5 242.5 242.5 242.5 247.6 250 249.7 251.3 256.7 267.8 277.3 279.4 275.8 265.2 275.2 290.3 293.8 293.3 290 284 280.8 283.9 288 290.3 290 287.8 283.8 277.8 274.6 292.4 300.8 308.2 314 317.5 321.2 324.5 329.1 335.6 342.8 349.9 354 354.7 352.2 347.5 338.3 331 322.5 311.8 301.6 293 283.3 273.3 263.6 252.3 242.6 233.1 224.1 220.8 219.6 210.7 205.2 212.6 235 251.6 260.9 267.7 271.9 277 282.5 287.4 291.4 294.7 297.2 298.2 297.9 297.1 296.8 295.9 295.1 296.8 299.2 301.2 302.2 301 302.8 306.6 309.6 311.3 311.6 311.3 309.4 306.9 304.7 301.8 298.8 295
370.4 370.9 368 360.4 374.2 380.2 384.4 389.1 393.8 397.7 401.7 404.4 405.1 404 401.9 398 399.1 404.7 410.4 414.8 416.7 416.3 414.7 411.4 407.5 402.8 397.1 390.9 384.5 377.4 372.1 368.2 365.6 365.9 365.8 363.5 360.5 356.4 350.6 345.7 340.6 335.2 329.9 324.1 315.9 309.1 310 312 314.8 315.6 313.6 312.8 311.7 309.2 307.3 306.4 307.8 310.2 311.5 310.8 312.5 314.9 316.8 319.4 321 322.4 323.4 324.5 326.4 328.2 329.8 332.9 334.8 334.2 331.6 329.6 328.5 327 322.8 314.8 303.7 290.1 275.4 267.6 263.2 260 257.8 256.1 254.8 253.3 250.3 246.6 242.5 242.5 242.5 242.5 242.5 242.5 242.5 242.5 242.5 242.5 242.5 242.5 242.5 242.5 242.5 242.5 242.5 243.1 246.7 248.4 253.4 260.3 263.4 263.5 259.8 276.8 286.9 292.2 294.4 293.5 290.5 285.9 277.8 277.5 280.5 282.9 282.4 280.4 273.9 264 283.3 292.2 297.4 303.1 307.4 311 313.9 317.7 321.6 326.9 331 338.8 342.8 345.3 345.3 340.1 333.7 326.5 319 309.1 299.6 289.3 277.3 267 258.1 247.8 238.2 231.4 229.2 221.6 214.2 206.6 204.6 207.5 230.7 251.4 260 266.1 272.3 277.2 281 285.6 289.5 292.5 294.7 294.5 294.1 293.2 292.6 291.6 290.5 293.6 295.5 296.1 295.1 293.5 294.1 297.9 304 308.3 310.7 310.8 309.2 307.1 304.5 301.5 298.3 295
358.3 359.6 359.5 358.9 367.3 369.7 373.8 382.2 389.8 393.8 397.2 399.9 401.1 399.6 397.4 392.5 393.9 399.6 405.4 410.1 413 414 412.9 410.2 406.6 403.2 398.3 392.9 387 379.9 373.2 368.9 364.6 360.9 361.2 359.5 357.2 352.3 346.8 342.3 336.1 332 328.5 324.1 317 312.3 312.9 315.5 318.9 320.9 318.5 316.3 314.5 312.9 311.8 311.2 312.2 314.7 316.1 315.1 318.3 320.7 322.8 325.3 326.7 327.5 328.3 329.4 330.9 332.5 333.7 336.5 338.8 337.7 336.3 335.7 335 334 327.6 315.5 301.4 283.6 271.3 265.9 262.4 258.4 255.1 253 251.9 249.9 243.7 242.5 242.5 242.5 242.5 242.5 242.5 242.5 242.5 242.5 242.5 242.5 242.5 242.5 242.5 242.5 242.5 242.5 242.5 242.5 242.5 242.5 250.4 255.4 256.1 253.7 260.4 271.1 279.9 291 292.8 292.1 289.2 285 277.2 270.6 273.3 275 274.8 270.1 259.1 275.4 284 289.5 293 296.7 300.1 303.8 307.1 311.7 315.2 319.2 323 326.9 331.3 335.3 336.7 333.8 329.1 323.9 316.3 307.3 297 286.9 277 266.5 256.9 249.6 245.6 239 232.2 224 215.7 204.3 204.2 205.1 224.6 242.1 254.3 262.8 268.6 273.6 278.7 283.5 287.7 289.8 292.3 291.7 291.2 289.2 288.3 287 285.6 288.8 290.2 289.4 287.8 285.7 285.4 292.3 298.6 304.6 307.5 308.9 307.7 305.8 303.3 300.2 297 293.5
348.7 351.2 350.9 352.5 353.6 358.1 371.1 379 385.8 390.2 392.4 394.4 395.5 394.7 393.3 389.6 388 394.6 400 404.5 408.3 410.1 409.8 408.1 405.6 403.1 399.6 395 389.5 383.3 376.8 372.6 368.2 362.7 356.5 352 350 345.6 341.1 336 331.2 327.6 325.2 321.4 314.2 314.4 316.2 318.6 321.8 323.7 322.6 320.7 318.8 317.8 316.6 317.1 319.1 321.3 323.6 325 328.1 328.9 329.8 330.9 332.3 332.8 333.4 334.1 335.3 336.6 337.5 340 341.2 340.8 341.1 340.6 341 337.7 328.8 314.9 299.3 281.5 271.4 266.4 263 258.8 255.6 252.9 249.5 246.6 242.5 242.5 242.5 242.5 242.5 242.5 242.5 242.5 242.5 242.5 242.5 242.5 242.5 242.5 242.5 242.5 242.5 242.5 242.5 242.5 242.5 242.5 247.7 249 248.9 251.9 263.3 273.8 285 290 290.7 289 285.6 281.7 275.5 266.6 264.9 267.5 267.1 256.4 263.7 274.5 280 284.3 287.2 289.2 292 295.9 300.2 303.6 307.8 311.1 315.2 319.5 324.5 327.7 329.2 328.3 325.9 321 313.7 305.1 295.1 285 276.2 268.1 261.2 254.6 248 240.7 233.3 224.7 214.4 203.8 203.5 203.8 214.3 229.5 249.4 256.2 261.1 264.3 274.5 281 285.7 288.7 289.9 289 288.1 285.7 284.6 283 279.6 284 283.3 282.2 280.7 277.5 278 288.7 295.2 300.9 304.5 305.8 306.3 304.6 301.8 298.7 295.6 292
357.9 353.8 349.7 348.6 348.8 349.5 363.9 375.3 381.4 384.1 387.1 388.7 389.8 390.3 389.7 386.1 380.3 388.9 394.4 399.1 402.1 403.9 404.7 403.5 402.9 402.9 401.8 397.7 392.9 387.5 381.3 376.4 371.1 365.1 360.7 355.6 350 344.2 337.7 331.7 327.5 324.6 321.2 316.2 317 317.2 319.1 321.8 324 326.2 326.2 325.6 323.9 322.9 322.1 322.6 324.3 328.5 332.8 337.4 340 338.8 336.1 336.4 338.3 338.9 339.5 339.2 340.1 340.9 342.2 344 344.4 344.1 345.3 344.3 342.5 337.3 327.1 314.3 298.1 281.6 271.3 266.8 263.4 260.3 257.2 253.5 250.2 246.7 242.5 242.5 242.5 242.5 242.5 246.4 247.4 246.3 244 242.5 242.5 242.5 242.5 242.5 242.5 242.5 242.5 242.5 242.5 242.5 242.5 242.5 242.5 242.5 246.4 257.1 271.7 283.9 288.3 288.9 287.5 284.8 281.5 277.8 272.6 265.1 257.4 258.3 258 248 264.8 269.9 273.4 275.6 279.4 280.2 283 286.6 291.2 294.4 297.7 301 306.2 311.5 317.3 322.3 324 324.5 321.8 317.2 310.3 301.7 291.9 283 275.2 267.3 260.7 254.2 247.8 241.6 234 225.9 214.6 203.8 202.5 203 204.1 224.9 239.1 244.4 244.1 256.4 270.1 277.4 283.2 287.2 287.9 287.1 285.7 282.1 281 279.5 274.4 277.6 277.6 276.2 273.8 269.6 273 284 292 297.3 302.1 303.8 304.1 303.4 300.5 297.7 294.9 292
367.3 363.9 355.8 350.4 347.7 346.9 349.9 365.7 373.3 375.5 378.8 382 383.7 385.1 384.4 381.5 375.1 380 387.9 392 394.7 396.6 397.2 397.5 400 401.8 402.2 401.3 397.5 392.7 386 380.2 375.4 369.4 364.2 358.5 354.1 348.2 341.2 334.6 328.3 324.6 322.2 324.4 321.7 320.8 322.4 325.6 327.6 330 330.9 331.7 329.5 327.9 327.6 328.8 330.3 335.8 342.1 348.4 349.7 348.6 345.9 345.2 345.7 345.6 345.6 345.3 345.5 346 347.2 347.9 347.7 346.9 346.7 345 338.8 333.7 324.4 311.9 297.8 283.4 272.3 266.9 263.6 261 257.5 254 250.2 246.5 242.5 242.5 242.8 243.6 249.1 250.5 250.3 249.9 248.3 246.6 242.6 242.5 242.5 242.5 242.5 242.5 242.5 242.5 242.5 242.5 242.5 242.5 242.5 242.5 254.6 268.9 280.3 285.5 286.8 285.8 283.4 279.9 276.5 273.6 269.5 264.5 257.4 248.7 244.3 247.2 260.2 263.5 265.3 267.2 269 270.7 273.1 278.2 282.4 284.8 288.9 293.2 296.6 301.8 307.8 314.2 317.5 320.2 317.9 312.9 306.8 298.3 289.5 280.9 273.2 266 259.6 254 248 242 236.4 229.6 221.6 210.3 202.7 202.3 202.4 209.6 223.8 227 233.3 251.7 266.2 274.1 280.6 284.3 285.2 285.2 283.2 279.7 277.5 276.1 271.8 271.6 272.2 270.2 266.2 263.1 272.4 282.4 288.2 293.2 298.1 301 301.7 301.8 300.1 297.5 294.8 292.1
375.8 374.1 370 365.6 360.4 354.4 345.8 347.5 356.2 361 366.5 371.8 375.3 376.9 377.5 375.3 370.5 372 379.2 383.4 385 386.1 386.9 389.7 396.6 400.2 403.4 403.5 402 399.4 393.1 386.3 380.4 374 367.7 361.1 354.7 348.2 340.9 334 330.4 329.8 329.8 329.7 326.6 324 327.4 331 332.6 334.9 336.7 337.1 336 334.9 334.9 336.7 339.7 346.7 352.3 356.9 358.8 357.8 356.5 356.2 354.3 352.7 351.7 351.6 351.8 352.3 352.5 352.1 350.8 348.9 345.8 341.4 334.8 327.4 318.6 308.1 295.9 282.8 272.5 267.5 264.1 260.2 256.6 253.4 249.8 244.5 247.4 245.9 247.1 251.1 253.6 254 252.6 251.7 250.6 248.8 247 245.7 242.5 242.5 242.5 242.5 242.5 242.5 242.5 242.5 242.5 242.5 242.5 242.5 262.6 275.7 280.9 283.5 283.5 281.2 277.6 275 272.1 269 264 260 254.9 246.4 234.5 247.8 255 258.5 260.3 259.5 259.2 259.4 262.6 267 270.6 273.6 277.2 283.9 289.7 295.6 299.7 305.9 309.5 310.5 309.9 305.5 300 293.1 285.8 278.2 269.8 262.9 258 253 247.6 242.5 237 231.5 225.5 217.1 205.5 201.3 201.4 201 209 218.3 234 251.1 261.9 270 276.5 280.8 283 282.6 281.5 277.4 274.7 272.9 268.7 265.9 266.3 264.9 259.2 260.2 270.5 278.3 282.9 288.1 293 296.8 298.2 299 298.8 296.9 294.6 291.9
383.4 381 378.3 374.5 370 364.3 357.2 343.5 342.7 345.9 355.5 359.4 362 363.8 365.7 366.1 363.5 364 370.4 373.9 374.1 374.1 375.3 385.4 393.4 399.2 403.3 405.4 405.2 403.9 399.3 393.4 386.6 379.7 372.6 363.4 354 347.1 341.7 337.7 339.2 338.6 336 334.6 329.9 328.6 333.4 337.6 339.8 341.7 343.4 343.2 342.7 342.8 343.2 345.3 350.9 357.3 362.3 365.3 366.5 366.4 365 363.5 361.8 360.1 359 359.4 358.5 358.7 357.5 355.2 352.3 348.3 343.9 336.3 329.1 319.5 310.8 300.7 289.9 280.5 273.1 268.3 264.3 261.3 256.7 253.2 251.4 251.2 244.5 248.5 253.4 257.8 258.8 256.7 254.8 252.9 251.7 251.3 249.2 246.9 242.5 242.5 242.5 242.5 242.5 242.5 242.5 242.5 242.5 242.5 242.5 244.6 266.2 275.8 279.1 279.2 278.1 275.4 272.5 268.6 264.3 261.1 257.4 251.8 248.1 241.6 228.3 237.2 249.1 251 251.4 250 250.9 249.1 251.6 254.7 256.4 260.7 264.2 270.6 277.8 286.5 293.3 296.7 299.7 300.2 297.9 295.4 292 286.5 279.6 273.2 266 259.9 255.8 251.3 246.2 242.3 237.2 231.9 227.8 221 210.5 203.2 201.4 200.7 201.4 215.5 232.2 247 257.1 265.2 271.5 276.8 280.8 281.8 279.8 276.6 272.9 271.2 266.3 261.3 260.4 256.5 252.1 258.2 265.4 270.2 276.4 281.9 286.5 291.4 294.2 295.9 296.3 295.5 293.5 290.6
388.8 386.2 382.4 378.7 375.5 370.6 365.4 358.5 350.8 343.1 342.1 345.4 342 351.2 351.3 353.4 353.5 350.4 360.4 362.6 361.2 361.3 371 380.5 389.1 396.6 401.1 405.1 406.6 405.3 402.8 397.4 391.8 385 376.9 366.9 359.5 353 349.1 346 347.7 347 342.8 339.9 335.3 334.2 341.3 344.3 348.1 350.1 351.2 352 350.8 350.6 351.8 356.3 361.1 366.6 369.4 372.5 373.8 373.6 372.5 370.7 369.4 369.1 368.2 367.4 365.3 364 361.5 357.7 353.3 348.3 341.6 334.1 325.3 314.8 304.9 294.9 286.2 279.5 273.4 268.6 265.7 262 258.9 256 255.6 253.2 244.5 253.6 258.7 263.7 265.7 261.8 256.8 254.2 252.5 251.3 249.3 246.8 242.5 242.5 242.5 242.5 242.5 242.5 242.5 242.5 242.5 242.5 242.5 248.5 268.4 274.3 276.9 277.2 270.6 267.4 266.7 263.2 255.8 251.6 248 238.6 236.8 230.1 222.6 227.5 234.4 237.6 242.8 243.6 241.8 238.6 243.2 244.6 242.1 244.1 248 254.9 264.9 276.7 285.2 291.5 293.7 292.9 290.8 287.4 283.5 278.6 272.6 267 259.5 254.5 251.3 247.9 244.5 240.4 236.1 232.1 228.6 223.5 216.2 208 201.6 200.4 200.2 201.9 219.8 237.3 249.3 258.8 267.6 273.1 276.5 278.3 276.8 273.9 271.2 269.5 265.8 257.4 250.6 248.2 248.8 256.6 258.6 262.1 269.6 275.2 280.7 286.7 290.5 292.7 293.5 292.7 290 289.2
393.1 389.8 386.1 381.4 377.5 372.9 367.9 362.3 357.6 353 349.7 345.1 340.3 337.4 337.6 337.2 338.5 342.2 347.5 348.3 349.4 357.4 365.3 373.8 382.4 390.8 397 402.2 405.2 404.7 403.5 401.5 396.5 390 381.4 373.9 366.8 360.6 354.8 354.9 355.7 353.1 349 344.8 339.8 340.8 348 351.7 355.6 360.7 363.3 364.4 364.3 363.5 364.3 367.3 372.1 375.4 377.1 378.4 379.6 380 379.1 377.7 376.8 377.4 376.8 374.4 371.3 368.8 364.7 360.6 355 349.5 342.3 334.5 325.7 314.6 303.7 293.9 286.2 280.5 276 273 269.1 265.9 261.5 261.4 258.4 255.4 244.8 256.1 261.9 267.5 271.1 270.1 263 256.8 255.5 252.4 249.1 246.6 242.5 242.5 242.5 242.5 242.5 242.5 242.5 242.5 242.5 242.5 242.5 252.8 265.1 270.7 273.6 273.5 265.9 264.8 262.2 257.3 251 248.1 233.5 219.2 221 220.4 219.6 219.2 219.2 222.2 230 229.2 233.2 225.6 227.9 225.6 223.3 226.4 230.8 238.6 249.8 262.3 274 282.3 287.3 288.3 284.9 279.4 272.7 266.2 262 256.7 250.3 245.5 243.7 242.3 240.3 238 234.3 230.8 228 224.8 220.5 218 210.3 200.8 199.9 200.3 205 221.7 237.5 252.8 262.2 268.7 272 274 273.3 270.7 267.8 266 264.1 258.4 249.1 243.1 249.2 252.9 253 256.5 262.8 268.9 275.3 281.4 286.2 288.8 289.5 284.3 284 290.4
396.1 392.6 388.2 384 379.6 374.2 369 364.9 361.1 358 354.5 350.6 345.1 339.9 337.9 336.7 335.1 332.5 334 335.3 342.8 351 358.2 364.9 372.5 382 389.3 396.2 400.9 404.3 406.3 406.2 402.7 395.7 387.8 381.6 374.4 367.4 361 362.3 361.6 357.8 353.3 348.8 344.3 345.4 353.2 358.6 365.6 372.4 377.9 380.5 380.8 379.2 379.3 380.5 381 383.5 385.7 384.8 385.5 386 385.8 384.7 384.9 385.5 383.7 380.7 376.8 373.2 368.4 363.1 357.1 350.9 343.9 335.6 326.3 315.7 303.7 294.1 288.7 283.9 282.3 279.6 275.2 270.1 266.5 265.7 261.1 256.8 247.7 255 263.5 268.3 274 276.2 270.3 261.8 257.4 254.4 250.6 246.9 245.9 242.5 242.5 242.5 242.5 242.5 242.5 242.5 242.5 242.5 242.5 244.8 259.4 264.7 268 268.2 263.1 262 259.8 254.3 248.8 234.8 220.8 218.3 219.1 218.5 216.7 216.5 216.5 217 218.1 215.4 214.9 214.2 211.4 213.2 211.7 209.7 210.5 221.7 232 243.6 255.2 264.7 274.4 276.7 271.8 266.1 258.4 250.1 244.7 239.9 234.6 229.9 230.7 232.3 233.2 231.9 229.2 227.3 224.6 222.7 220.6 219.2 216.9 207.3 198.6 200 199.8 210.7 224.9 244.8 256.7 263.4 266.9 269.3 269.6 267.5 264.8 262.5 260.8 256.1 248.7 240 247.5 247.1 246.6 252 257.7 263.9 268.1 273.5 279.4 281.7 277.8 276.9 291.6 294
397.6 393.7 389.5 385.7 380.9 376.1 372.1 367.8 363.5 359.4 355.6 349.3 339.7 342.3 345.8 346.9 344.9 340.1 335.6 333.7 331.9 334.9 343.8 349.6 359.8 367.4 376.1 387.3 396.5 404.7 409.3 410.8 407.8 401.6 392.9 387.3 381.1 374.4 371.3 369.1 366.5 362.3 357.7 352.4 347.9 349.1 356 363.1 370.6 380 387.6 394.8 394.9 396.2 397.8 397 397.9 397.8 395 393.3 393.5 394.2 393.4 392.5 392.5 391.8 389.9 387.2 382.5 378.4 373.1 366.7 360 352.9 346 337.7 327.2 316.5 301.8 295.3 290.8 289.7 287.4 284.7 280.5 275 274.2 270.7 264.4 258.9 250.1 247.3 262.6 268.2 274.1 277.7 275.2 266.3 259.8 255.2 252.7 251.3 250 248.2 244.2 242.5 242.5 242.5 242.5 242.5 242.5 242.5 242.5 242.5 242.5 253.4 259 260.7 259.8 258.2 252.6 248.8 240.1 222.2 217.3 220.4 226.9 239 230.1 219.6 218 216.4 216.1 215.4 214.7 213.9 215.7 218.6 213.5 211.6 211.7 208.6 211.5 221.4 231.1 240.4 246.6 248.2 245.8 241.4 236.4 229.1 224.1 221.3 217.1 216.6 218 217.5 216.3 216.5 213.5 214.4 214.2 217 217.2 217 216.6 212.9 201.6 197.5 198.8 200 214.4 228.3 244.8 257 261.2 263.9 264.3 263.5 261.5 259.3 257.3 252.6 246 237.3 239.4 239.8 245.9 251.6 254.2 256.7 260.5 263.9 263.6 262.4 262.6 278.8 292 296.2
398.5 394.4 390.8 386.5 381.9 377.9 374 369.9 365 361.1 351.1 341.8 345.4 353.7 354.5 353.5 352.2 349 344.2 340.8 335.9 331.2 330.6 332.3 343.2 353.1 362.6 376.3 390.8 402.3 410.3 412.5 411 406.8 399 394.1 388.3 383.2 379 375.5 371.4 366.6 361.7 355.5 350.1 352 359.1 367.4 374.3 384.6 395 401.8 408.8 413.5 414.3 415 414 408.6 407.9 404.4 401.5 401.5 400.5 399.3 399.5 398.4 395.1 391.9 387.9 383.4 377.8 372 363.5 356.4 349 340 328.2 316.8 305.7 298.9 295.9 292.7 289.8 286.8 283.5 280.2 279.2 274.1 267.5 260.2 254.1 246.9 258.9 265.7 272.8 277.3 275.2 269.6 262 258.1 255.8 254.4 253.9 251.3 248.5 242.5 242.5 242.5 242.5 242.5 242.5 242.5 242.5 242.5 242.5 242.5 242.5 248.8 251.2 249.6 242.5 243.8 248.8 229.5 217.3 236.9 250.9 253.8 251.3 243.5 232.4 221.5 214.6 215.3 214.5 222.6 237.3 243.3 239.8 234.9 228.8 219.3 208.1 209.7 210.6 215.2 221.3 223.7 220.8 217.7 210.4 205.1 205.3 206.1 205.3 207.4 205.6 205.4 204.5 203.7 203.3 203.1 203.4 205.3 208.4 212.8 214.2 212.2 207 199.9 198.5 198.7 200.1 214.4 227.2 244.1 254.8 257.6 259 259.1 258.2 256.5 253.8 249.9 243.3 234.9 234.8 236 243.7 245.5 247.9 250.1 251.8 250.2 248.6 253.5 266.7 279.6 292.1 297.4
398.7 394.8 391 386.6 383.3 379.6 375.5 371.3 367.2 360.6 347.3 347.5 358.3 360.8 361.6 360.4 358.6 356 353.8 352.6 349.7 343 334 329.3 328.1 335 352.6 366.3 380.4 396.8 407.9 412.5 413.3 411 405.1 399.9 393.9 388.6 384.6 380.8 375.7 370.7 364.9 358.2 352.4 354.3 360.3 369.3 376.4 386.1 397.1 405.5 412.9 417.4 419.6 420.6 420.1 417.6 416 414.2 409.6 407.4 406.3 406.9 406.5 404.5 401.3 397.7 393.1 388.4 383.4 378.5 370 362.6 353.1 342.4 329.6 316.7 305.8 300.3 296.9 293 289.7 287.1 284.7 282.7 281.3 275.5 267.7 260 250.4 249.2 258.7 265.1 270.9 275.3 276 272.6 266.8 262.6 260 258.7 257.9 255 251.2 247.4 242.5 242.5 242.5 242.5 242.5 242.5 242.5 242.5 242.5 242.5 242.5 242.5 242.5 242.5 242.5 242.5 249.3 240.6 240.9 254.1 258.6 259.2 258.1 255 248.9 235.4 218.4 222.6 226.3 236.2 249.5 251 247.9 246 242.5 238.7 229.5 214 206.9 209.2 209.4 207.9 208.7 207.9 206.5 204.2 204.6 206.5 205.9 204.6 204.2 203.9 203.5 203.3 203.5 202.9 202.6 202.4 203.1 205.1 208.1 208.8 207.9 205.6 198.8 197.5 198.3 198.9 216.2 232.4 248.2 252.2 253.8 254.7 254.6 253.5 250.8 247.6 241.3 233.3 229.8 232.6 237.3 237.1 240.3 242.4 242.9 243.7 252.9 264.6 276.3 284.4 294.8 298.1
397.5 394.3 390.6 386.8 383.9 380.6 377.4 373.7 368.8 353.6 345.4 361.7 367.3 368.7 369.5 368.4 366.8 363.9 361.2 360.9 358.7 355.3 344.9 331.2 328.6 328.1 337.7 356.1 374.2 391.8 406.2 412.3 414.7 413.2 409.2 404 398.8 393.6 389.9 385.3 380.2 374 367.2 360.6 355.3 357.1 362.7 371 377.8 385.8 396.3 405.4 412.2 416.8 419.5 421 420.9 420.6 419 417.4 415.8 412.2 411.3 411.3 410.9 409.2 405.8 402.6 399.4 395 390.5 383.9 376.4 368.2 358.2 344.9 329.1 314.5 303.8 298.2 294.8 291.8 288.9 286 284.3 282.6 280.8 275.4 265.8 256.2 249.1 252.8 261.4 267.3 272.7 279.2 282.2 280.1 274.8 269.8 266.4 264.2 262 260.4 256.1 252.5 249.9 243.7 242.5 242.5 242.5 242.5 242.5 242.5 242.5 242.5 242.5 242.5 242.5 242.5 242.5 242.5 243.2 247.7 259.9 262.7 262.8 261.9 259.7 256.4 244.7 221.4 224.3 232.6 239.9 244.9 248.6 252.3 251.2 248.7 244.8 240.9 236.3 228.1 222.7 218.6 215 211.9 209.5 209.5 208.2 210.8 218.1 217.3 217.8 215.6 211.5 209.8 207.6 204.1 202.2 202 201.9 201.5 201 200.7 200.1 197.6 197.4 202.2 199.8 198 196.9 198 205.4 223.2 240.6 246 248.4 250.3 250.8 250.1 249 245.5 239.6 232.6 225.7 227.8 226.4 230.1 232.2 234.6 240.3 247.3 258.7 273.9 284.9 291.5 296.4 299.1
394.4 392 389.3 386.3 382.8 380.7 377.1 373.3 367.4 348 359.2 371.9 375.1 376.4 377.2 376 374.9 372.6 369.8 368.6 367.6 364.7 357.2 342.4 328.2 325.2 329.2 354.1 371.8 389.4 404.5 411.7 415.1 414.4 411.3 406.7 402.2 397.7 393.6 389 383.5 376.2 367.8 361.2 357.4 359.9 365 372 379.3 386.1 393.8 401.3 408.2 414.3 417.9 419.2 420 420.6 421 420.3 419.6 417 416.1 415.5 415.3 413.4 411.4 408.2 404.2 400.4 396.8 390.2 381 372.3 361.2 348.1 329.4 313.4 302.6 296.7 292.4 289.1 286.1 283.8 282.1 280.5 278.7 273.5 260.9 252.3 251.5 258 265.1 270.6 277.2 284.6 288.9 290.1 285.1 281.7 278.1 271.7 268.2 264.7 263.5 261.5 259 254.2 249.6 242.5 242.5 242.5 242.5 242.5 242.5 242.5 242.5 242.5 242.5 242.5 242.5 242.5 242.5 255.7 265.2 265.9 264.3 262.1 259.5 253.5 234.1 226 233.1 244.7 252.1 253.6 252.5 253 250.8 249 246.7 242.3 240.4 235.9 233.3 230.5 220.4 224.5 221.5 223.4 226.4 231.9 238.8 238.7 238.2 231.3 228.3 226.3 221.7 218.5 209.4 204.6 202.4 200.3 199.3 199.3 200.8 199.5 198.6 198.1 198.1 196.4 196.9 197.9 200.2 216.1 233.3 240.4 242.9 245 246.7 247.1 245.2 241.2 238.1 232 222.7 221.7 229 237.2 241.7 243.8 248.4 257 265.6 274.3 285.7 292.1 296.7 299.5
388.8 388.7 387.4 384.8 381.8 379.5 375.8 371.6 363 348.3 370.7 379.2 381.6 383.4 385 384.6 383.5 380.8 377.9 376.1 374 370.6 365.2 354.2 334.1 326.8 328.2 348.1 367.4 385.3 400.7 409 414.2 414.8 412.8 408.8 405 401 396.8 391 384.9 377.5 369 362.9 360 363.3 367.6 374.6 380.3 386.4 391.6 398.3 403.1 408.7 413.2 416.4 418.3 418.9 419.5 421.3 422 420.8 419.2 419.2 418.9 418.1 415.6 413.3 409.3 404.5 401.2 396.6 387.1 377.1 365.1 352.1 334.7 318.2 304.8 297.8 292.2 287.4 283.6 280.8 277.7 276.2 275.5 270.3 255.6 251.1 252.9 262.3 268.5 273.3 281 289.1 294.2 296.3 296.1 296.4 291.7 281.9 276.4 273.5 274.3 271.8 270.7 266.1 262.1 255.6 250.8 247.5 242.5 242.5 242.5 242.5 242.5 242.5 242.5 242.5 242.5 242.5 245.5 264.6 268.5 267.9 265.5 262.6 257 235.9 228.4 232.3 244.8 256.1 260 259.9 257.6 255.3 253.4 251.2 249.6 247.5 246.5 243.8 240.2 232.6 228.5 235.7 239.3 242.8 247.4 251.1 256.3 256.7 254.7 251 244.6 239.7 235 229.5 221.9 215.3 214.6 210 201.4 200.9 200.3 199.8 199.2 198.4 197.7 197.8 197.6 197 199.2 208.7 226.3 236 238.5 241.1 242.6 242.6 239.8 236.4 232.8 225.3 218.7 226.6 235.7 243.4 248 249.9 254.8 262.6 271.7 279.7 287 292.6 296.3 299
378.8 381.8 381.2 378.5 377.5 374.5 369.5 363.4 353.2 367.1 381.2 386.9 390.2 393.7 394.9 393.7 390.7 387.7 384.5 381.9 378.7 374 367.9 354.9 336.5 324.5 326.8 341.9 360.6 378.1 396.2 406.1 412.3 413.8 413 410.3 407 403.4 399 392.7 385.6 378 371.1 365.7 363.1 365.8 370.3 376.1 381.7 386.6 390.8 396.3 401.4 405.8 409.5 412.8 416 417.4 419.7 421.8 423.4 423.2 422.6 423.2 422.2 420.7 419.3 416.2 412.9 408.6 404.1 398.3 391 379.4 367.3 355.1 339.8 323.2 308.4 298.8 292.8 287.7 282.8 278.6 273.8 268.7 268.7 263.3 253.5 252.9 254.5 263.1 268.4 275.4 281.6 292.6 299.1 305.2 307.9 307.2 303.9 296 287.5 283.4 283.4 283 284.2 279.1 274.1 271 261.9 258.3 254.8 250.4 242.5 242.5 242.5 242.5 242.5 242.5 242.5 244.6 263.7 271.6 270.6 269.4 266 260.3 240.7 231.3 238.9 249.7 261 267 267.4 266.1 264.4 262.7 258.9 257.4 255.9 254 252.2 248.8 244.2 240.3 234.1 247.2 252.6 256.5 261.9 266 266.8 267.2 267.2 264.2 259 253.2 247.4 241.4 233.9 231.4 228.6 223.7 223.8 220 213.9 203.2 199.2 198.4 197.9 198.2 197.3 197.1 196.6 201.1 223.8 233.2 235.3 236.9 239.6 238.3 234.5 230.5 223 216.7 224.9 233.4 239.8 246.5 251.1 254.9 260 265.5 273.2 280.1 286.4 291.4 295.3 297.9
365.6 367.3 366.5 363.5 363 357.8 358 355 370.4 381.6 389.8 395.2 399.8 401.7 401.7 400 397.2 394.2 390.8 385.5 380.5 374.8 367.3 353.8 336.1 326.3 326.7 337.2 359.6 378 393.7 405.1 411 412.9 412 410.3 407.7 404.2 399 393.2 386.3 378.7 372.4 367.9 366.8 367.9 372.2 377.4 382.5 386.7 390.3 394 398.6 402.5 405.5 408.4 411.4 415.7 418.2 421.7 424.4 425.2 425.9 426.3 425.1 423.2 420.9 417.8 414.2 409.9 403.9 398.5 391.8 380.5 369.4 358 344.4 326.2 311.1 300.1 292.9 287.4 283.2 278.4 273.5 267.2 261.1 257 252.4 254.2 261.3 267.7 272.1 278.3 285.7 295.5 305.6 312.3 315.2 314.4 313.1 310.1 306 302 300 299.1 295.8 295.3 289.9 283.2 279.8 274.1 270.9 266.1 260.7 262.5 262.1 260.5 260.2 255.9 265.9 273.7 276.2 275.3 272.4 268.7 263.1 245.3 234.3 242 256.2 265.9 271.6 274.4 274.6 274 272 269.8 267.8 265 262.7 259.8 256.8 253.1 251.3 248.9 243.5 256.3 261.6 267.4 274.2 278.1 281.1 281.6 281 276.4 270 264.4 258.7 251 244.3 243 239 233.7 231.7 228.2 223.3 218.6 210.2 199.4 198.4 197.9 198.1 197.6 196.5 194.6 220 229.1 230.4 231.6 233.2 232.7 230.2 222.9 216.4 215.4 228.2 233.9 243.3 249.3 253.4 257.8 261.6 265.5 272.7 278.3 284.4 289.4 292.8 295
381.5 379.2 375 371.8 365.6 360.9 363.5 366.9 383.1 391 397.3 403.1 406.5 407.4 406.9 404.5 400.5 396.8 392.8 387.3 380.2 373 364.9 351.9 335.5 325.6 323.9 338.9 363.2 379.7 394.8 404.6 409.5 411.5 410.7 409.4 406.2 402.2 397.4 391.6 385.2 378.2 370.6 368.3 366 368.2 372.3 377.6 381.8 385.2 388.3 391.1 394.1 397.1 400.1 402.9 406.3 411 417.6 421.1 424.4 425.9 427.2 427.8 426.9 425 421.8 417.8 413.2 408.6 402.4 396.7 388.9 379.5 370.1 358.5 345.5 327.7 311.9 299.4 292.1 286.7 283.6 277.9 273.6 269.5 261.7 256.7 253.9 257.9 265.9 272.2 279.4 284.8 293.3 304.6 313.7 319.3 322.4 324.6 322.5 319.7 318.5 316.9 315.9 313 312.8 305.8 303.9 299.2 295.9 294.5 292.3 286.6 279.7 281.1 282.5 277.3 275.3 276.1 282.9 283.3 281.3 278.4 274.8 269.5 254.3 238 241.5 258.5 271.4 277.1 279.2 280.5 281.1 280.9 279.8 277.5 275.5 273 270.7 267.5 263.5 259.2 259 255.1 248.3 263.2 269.7 276 283.9 288.4 292.5 291.9 291.4 286.3 281 274.6 268.2 261.4 255.5 252.7 247.1 242.1 237.7 233.1 227.3 221 214.9 207.2 203.8 200.1 197.7 197.2 196.4 194.6 212.6 223.1 225.6 226.2 227.5 221.7 217.2 212.8 211.1 222.5 230 239.3 245 250 253.7 258.1 261 264.3 269.6 275.7 281.5 286 289.7 292.1
386.5 384.2 380.5 377 371.3 365.5 375.4 383.4 390.3 397.4 404.1 409 411.5 411.3 409.5 406.3 401.4 397.1 391.2 384.9 377.6 369.5 361 349 332.5 325 323.9 338.7 363.8 381 396.5 403.8 407.5 407.6 406.7 404.9 401.9 398.2 393.6 388 381.9 376.7 370.7 366 364.2 367.8 371.7 376.3 379.8 383.2 386 387.8 389.2 391.5 394.4 398 401.7 407.5 415.8 420 423.4 426.4 427.4 427.4 427.3 425.1 421.8 416.9 412 406 399.9 393.5 385 377 368.1 357.3 344.6 327.3 311 299.5 291.6 286 282.5 277.6 273.6 269.2 262.2 255.3 256 262.3 271.8 279 286.9 295.2 305.2 315.5 322.4 328.2 332.1 333.7 334.7 331.8 331.5 333.6 332.1 330.3 325 322.8 317.9 315.1 312.4 309.1 307 302.9 299.9 299.6 297.4 295.2 293.1 291.9 291.6 289.3 284.3 280.2 275.3 268.7 247.8 239.6 252.5 272.5 280.6 284.8 286.7 288.4 288.9 287.6 286.5 285.6 283.7 281.1 278.7 275.1 270.9 267.5 265.7 263.3 250.1 268.1 274.3 282.2 290 295.9 299.5 299.9 298.8 295.8 291.6 286.4 277.5 271.2 266.8 259.8 252 247.8 242.2 236.3 230.1 223.8 218 212.4 209.1 205.4 201.6 198 195.8 195.8 197.7 208.8 215.7 220.9 216.9 206.6 206.2 208.3 221.5 235.3 236 240.9 246 249.7 251.6 255.9 258.1 260.3 262.9 270.8 276.9 282.4 285.9 287.6
390 387 382.9 379.3 368 375.5 383.6 390.4 396.1 402.6 408.2 413.2 414.2 412.4 408.9 403.5 399.1 392.7 386.1 379.8 372.1 364.1 355.4 345.5 332.6 324.2 323.4 333.9 365.5 383.7 396.1 401 402.6 401.7 399.9 398 395.1 391.8 387.9 383.2 378.3 373.6 368.6 363.1 360.6 364.8 369 373.2 377 379.7 381.8 382.4 383.4 385.3 388.1 392.5 398.2 404.4 412 418.3 421.7 424.2 426.2 426.5 426.3 424.5 420.9 416 410.6 403.1 395.9 388.7 379.9 371.6 363.3 353.7 341 325.1 309.7 299.2 291.1 285.7 281.5 276.6 272.7 269.7 262.5 255.7 256.2 265 276 285.9 294.6 304.4 313.9 324.1 332.5 339.2 344 343.8 345.2 347.1 346.1 345.8 344.6 342.4 339.3 335.5 332.3 327.4 322.2 319 316 314.1 312 310 306.3 303.1 301.4 299.6 297.3 293 287.9 283.7 279 270.6 246 243.4 266 281.3 288.2 292.9 296.4 298.6 299.6 298.6 296.9 294.6 292.1 288.6 285 281.4 277.9 275 272.5 266.6 258.2 271.9 280.3 288.2 295.7 301.8 307.1 309 308.3 305.4 299.5 292.7 286.2 278.7 273.9 266.8 260.6 253.8 245.1 239.9 231.7 225.8 220.8 215.2 212.5 210.8 206.3 202.4 198.1 194.9 196 196.5 203 209.6 204.7 206.2 220.4 225.8 231.8 240.7 242.4 242.9 245.1 248.4 250.1 251.8 254 253.7 255.8 263.6 272 278.3 281.9 283.4
393.4 390.5 386.3 376 372 382.1 389.5 395.3 400.7 406.1 412.2 414.8 414.2 410.7 405.5 399.2 391.8 385.5 378.6 371.1 364.9 358.2 350.1 342.6 329.4 323.6 323 346.6 366.5 383.5 392.8 396.4 396 393.3 390.8 389.4 387.1 384.2 381.3 378.9 374.3 369.5 364.5 358.5 355.4 359.9 364.5 369.2 373 375.6 376 376.5 376.4 377.8 381.8 387.8 394.7 401.7 408.7 414.7 418 420.6 422.8 423.7 424.5 422.3 419 414 408.5 400.1 391 382.5 371.8 364.2 356.9 346.9 334.6 321.1 308.5 298.5 290.4 285.4 280.5 276.1 271.9 268.2 261.5 257.5 257.2 258.7 278.2 292 302 313.6 324.8 334.4 343.3 349.8 352.7 355.8 357.7 357.5 358 357.5 359 356.4 352.1 347.9 340.6 334.8 329.1 324.9 321.4 319.3 318.7 316.7 314.2 309.6 307.7 305.4 301.7 296.8 292.8 288.2 281.5 264.4 245.1 253.9 274.3 286.1 293.7 300.5 306.8 308.7 310 309 307.2 304.5 299.6 295.5 291.5 287.9 284.3 281.4 278.5 271.9 263.4 271.4 283.3 291.5 299.8 306.7 312.5 316.5 317.6 311.2 305.7 297.6 291.1 285.3 277.1 269.4 263.5 258.8 252.2 244.3 236.3 230 224.3 219.8 215.6 211.6 207.7 204.9 201.9 195.8 194.6 195.8 195 198.4 199 214.1 224.4 231.4 235.8 240.5 241.6 241.2 242.2 245.6 248 248.4 248.4 247.5 250.6 255.4 264.9 273.4 278 279.1
397.6 394.4 389.1 373.2 378.3 387.9 393.8 398.7 403.5 409.3 412.9 414 411.7 406.1 399.2 391 383.6 375.9 367.5 361.6 357.2 351.3 344.8 338.8 330.2 323 321 349 366.4 381.1 387.6 388.7 387.6 385.2 383.1 382 380.4 378 375.5 373.5 370.6 365.9 360.9 353.9 351 354.7 359.9 365.1 368.2 369.9 370.7 370.5 369.5 371.2 377 385.4 391.1 397.8 403.7 408.9 412.6 414.5 415.6 418.5 419.2 417.2 415.1 410.5 404.9 397.4 388 378.7 361.7 348.9 344.6 337.7 328.6 317.8 307 297.4 289.4 284.7 279.3 275.5 271.5 267.1 255.8 257.7 257.9 260.4 282.4 295.8 308.9 321.4 333.5 348.1 358.1 363 364.6 368.4 370.8 371.5 371.7 375.7 375.2 371.9 363.5 354.6 347.2 340.1 334.5 330.3 327.7 325.7 325 322.4 319.5 316.5 313 309.8 305.2 300.6 295.8 290.6 270.9 248.5 248.8 266.5 285.1 293.5 300.8 308 314.5 318 319.2 318.6 316.6 313.1 308 301.7 297.5 293.6 290.4 287.5 284 277.4 270.3 278.4 284.8 294.3 301.9 309.9 315.9 319.6 321.4 315.5 308.5 299.3 292.8 287.1 278.7 273.1 266.9 260.3 254.7 248 240.9 235.6 227.7 222.6 217.7 213.2 210.7 208.7 205.3 198.6 193 194.9 194.7 194.6 203.8 213.1 218.1 227.6 235.2 239.1 239.6 237.7 239.2 241.8 244.6 243.8 243.4 243.4 245.2 249.5 256.9 267.9 273.8 274.4
402 397.4 391.9 380.3 383 391.5 396.3 401.3 406.3 410.3 412.1 411.3 407.1 400.2 392.5 382.7 370.5 360.1 352.6 348.5 341.4 337.4 333.9 331 328 322.1 322.3 346.6 366.4 378.2 381.8 382.9 382.1 381.3 378.2 375.9 374.3 373 370.5 368.1 365.9 362.1 356.7 350.6 347 349.3 354.1 358.5 362.2 363.4 363.7 363.1 362.3 366.4 375.3 382.9 388.8 394.2 398 401.3 404.8 406.7 407.8 410 411.2 410.6 409.4 407.2 403.4 395.5 386.3 377.3 365 348 333.1 323.2 317 309 302.1 293.8 287.6 281.8 277 272.7 268.4 264.8 261.1 258.7 259 272 287.4 300.1 315.9 329.3 342.5 360.2 370.1 375.6 377.3 381.7 381.8 383.8 385.7 388.3 387 382 373.9 362.9 354.4 345 339.8 335.4 332.6 331.8 329.9 326.7 323.7 320.2 316.2 312.9 307.9 302.1 298.3 291 260.2 249.1 257.3 279.6 292.7 300.5 307.9 315 321 325.1 326.5 326 324.9 321.5 316.1 310.6 304.9 300.7 297.2 293.6 289.2 284.4 278.5 287.7 290.9 297.3 305.4 312 317.6 319.4 319.9 315.3 307.9 298.5 293.2 286.8 280.4 273.8 267.9 262.7 256.3 249 243.3 237.8 230.3 223.7 219.5 216.4 213.3 210.4 206.5 201.8 196.1 195 194.8 194.6 198.2 205.3 212.6 225.5 233.6 237 236.5 232.6 234.8 237.7 240 238.6 236.8 239.5 244.1 250.1 257.3 265.6 269.6 270.7
404.1 398.9 394.3 389.9 383.1 393.6 398.7 403.5 408.4 410.9 411.9 408.8 404.3 397.4 386.1 379.5 375 369.3 362.9 356.4 348.8 342.8 337.2 332 327.3 322.1 321.2 340.8 364 376.3 378.6 379.4 378.9 377.9 374.5 371.2 370.7 370.2 368.9 367 363.9 360.5 355.8 349.8 345.2 344.1 348.9 352.7 355.7 357.6 357.2 355.1 354.6 364.5 374.3 381.4 386.4 389.9 392 393 394.9 396.3 398.1 400.8 402.6 404.8 406.1 405.2 401.6 395.1 387.8 379.5 366.8 355 344 333.2 322.7 312.2 300.7 291.9 286.1 282.1 277.5 274.8 272.1 267.4 263 259.3 261.4 277 291.8 307 321.6 334.7 350.3 366.9 378.8 383.6 389.2 390.6 390.4 395.2 399.8 402.8 401.1 395.8 384.2 371.3 359.3 350.6 344.8 339.9 337.2 335.2 332.9 329.2 325.1 321.1 316.2 312.2 308.6 303.1 298 290.9 260.9 249 269.6 289 297.1 306.2 314.9 321.2 326.6 331 332.7 333.1 332.8 328.7 324.7 320.1 314.1 309.1 305.8 301.7 296.9 287.2 288.4 296 299.2 302.6 309.1 314.7 318.2 319.9 316.3 311.8 304.4 296.4 291.5 286.1 281.3 275.1 269.1 263.8 257.1 250.6 244.6 237.7 232 226.1 222.1 218.5 215.2 211.9 208.4 204.3 198.8 192.2 194.2 194.3 193.8 195.1 207.4 222.4 229.9 233 231.7 228 228.3 232.2 230.6 230.3 237.7 242.1 247.3 252.4 257.7 263.5 266.5 266.6
405.3 400 395.5 390.7 384.6 395.7 401.1 405.5 410.2 412.5 412.8 409.7 405.2 398.4 393.6 389.8 384.8 378.7 370.9 362.6 354.8 347.2 340.1 333.6 328.6 323.1 320.5 333.7 354.6 370.8 374.7 374.5 372.9 371.3 368.4 368.9 370.9 370.5 370.5 369.1 366.8 362.1 356.5 350.6 345 338.7 343.1 347.9 350 350.8 349.7 345.1 351 361.9 371.3 377.7 381.5 384.3 385.5 385 385.6 385.8 387.9 391.5 395.8 399.2 401.3 401.5 399.8 395.6 389.6 383.7 372.3 362.2 353 340.5 329.3 317.4 305.7 297.2 289.9 285.1 280.9 278.7 274.2 265.4 263.8 261 258.1 278.2 293.3 310.7 323.9 338.8 356.2 371.8 381.4 388.7 395.6 398.9 403.4 411.5 414.5 413.4 411.5 405.5 391.7 376.1 365.3 356 348.3 342.8 339.5 337 333.3 329.1 324.6 320.1 315.4 310.4 306 300.9 295.6 286 267.9 253.9 271.8 289.3 298.4 308 318.3 325.2 331 335.6 337.5 337.6 336.8 336 333.1 329.7 325.9 320.3 315.8 311.4 306.7 297.3 297.3 304.1 308.3 311.4 312.3 314.2 314.7 316.8 312.8 307.7 300.9 294.2 288.9 284.3 279 274.9 269 263.7 257.4 251.8 245.6 237.9 232.6 230 225.8 220.8 217.7 214.6 211.7 208.3 202.4 195.2 193.4 193.7 193.6 193.5 197.1 216.3 225.1 226.4 224.1 221.5 221.1 219.8 225 235.5 239.2 241.9 246.3 251.1 255.8 261 262.3 262.5
405.3 400.5 394.3 387 390.5 397.8 403.4 408.2 412.2 413.8 413.5 411.2 408.2 405 401 396.6 391.1 383.9 376.3 367.5 358.1 349 340.9 334.2 328.9 325 318.9 319.9 338.4 355.4 367.1 367.1 366.1 364.1 362.9 370.3 372.6 373.9 374.3 372.7 367.7 361.2 355.3 349.2 343.3 336.7 336.4 341.5 343.3 343.5 341 336.2 346.9 356.6 366.3 371.8 375.5 376.7 377.1 376 376.2 376 377.9 382.2 386.9 392.2 397 399.1 399.1 397.4 393.7 387.5 380.2 369.8 358.7 347.7 335.2 323.5 312.8 303.6 294.4 287.2 285.5 280.7 275.5 265.9 264.3 261.1 259.9 272.5 294.8 312.1 327 341.5 357.5 371.8 379.8 389.3 397.1 401.9 408.6 419.3 424.7 424.5 420.2 413.1 395 380.1 368.2 360.2 353.7 346.3 341.2 335.9 332 327.2 322 317.2 312.5 307.8 302.5 297.3 291.1 272.9 257.3 263.8 261.9 271.2 286.4 305.3 317.4 326 332.7 337 339.5 340.3 341 341.7 339.6 337.9 335.5 330.9 326.5 320.8 316.4 309.8 304.6 311.5 316.3 318.5 319 318.6 317.3 310.8 305 303.6 297.7 291.9 286.1 282.8 276.9 273.5 267.2 261.9 257.9 252.5 245.6 240.9 238.1 234.2 229.2 224.5 221.1 217.9 214.8 212.2 206.8 200.2 193.2 193.3 193.4 193.2 196.9 211.1 217.4 216.8 213.6 210.3 215.1 223.2 229.6 235.8 241.5 245.2 246.8 250 254.6 257.5 259.1 259.2
404 398.7 396 390.9 393.1 401.1 406.5 411.8 415.1 416.5 416.2 414.3 412.1 409.8 406.7 401.2 394.8 388.1 378.8 368.9 359 350.1 341.8 335.7 330.3 326.1 319.9 319.3 322.3 339.4 351.7 357.4 353.2 346.4 364.1 371.2 377.6 379.7 377.5 373.2 366.3 359.4 352.6 346.5 340.9 334.5 328.6 334 335.6 335.1 331.3 330.2 339.9 349.1 356.8 362.5 365.3 365.6 364.7 364 363.1 361.5 368.1 374.6 381.4 387.1 392.9 397.1 400.1 401.4 400 394.3 385.5 375.2 363.8 352.5 340.5 328.8 318 306.7 298 291.5 287.7 282.9 275.5 267.4 264 260.5 263.4 283.5 299 312 327.4 342 355.2 368.1 376.1 387.2 395.5 403.1 414.4 424.3 428.1 427.4 423.5 412.9 393.6 381.1 369.9 362.2 356.4 349.5 342.5 335.9 330.6 323.8 317.4 313.2 308.2 304.1 298.6 291.8 282.8 260.5 266.2 280.9 286 276.9 276.9 296.4 311.8 322.3 330.5 336.1 339.5 341.7 344.5 345.8 345.7 344.7 342.6 338.7 333.9 328.6 324.6 320.6 317.4 319.8 323.1 324.9 325.1 322.2 318.3 312.9 307.5 298.3 292.5 287.5 283.9 280.2 275.1 270.5 266.2 261.4 257.2 252.7 247.4 245.7 243 237.9 232.5 228.3 224.5 221.2 218.6 215.1 211.2 205.3 195.4 192.3 193 192.5 193.1 199 205.4 206.8 205.4 208.5 216 224.1 231.3 237.8 243.4 247.5 249.3 251.7 253.6 255.4 256.3 256.1
405.6 403.2 400.4 394 395.7 404.3 410 415 418.5 421 421.5 420.5 418.5 415.2 410.6 404.7 398.4 389.9 380.3 370.1 359.7 350.8 343.7 338.3 332.8 327.6 323.1 317.8 317.6 322.7 336.2 338.4 335.4 353.8 363.7 374.2 379.7 379.6 375.9 370.7 363.9 356.3 349.5 343.8 338.3 331.5 323.6 326.2 327.9 327.3 324.8 324.7 331.7 337.1 342.2 345.7 348.3 347.7 347 347.2 345.7 351.3 359.3 366 373.5 382.3 389.5 395.2 400.6 404.6 405.7 400.8 391.2 380.6 369.3 357.1 343.1 332 320.2 309.2 298.8 293.3 289 284.3 277.4 266.4 261.1 266.3 276.7 290.3 303.1 314 325.6 342.4 352.1 361.6 372.8 384.2 392.5 403.7 418 426.1 429 427.9 423.4 411.2 392.5 380.7 371.7 365 359.2 352 343.7 335.5 328.9 322.6 315.7 308.8 302.7 297.6 293.4 285.8 268.5 262 278.5 289.9 295 296.2 291.8 285.9 305.9 317.2 326.5 333.8 338.4 342.5 347.3 350.2 350.4 349.8 347.7 344.5 340.2 336.1 331.8 327.2 325.8 328.2 328.8 329.9 330.3 326.4 321.4 313.7 306.1 298.2 289.9 284.9 281.2 277.5 273.4 269.8 266.1 262.3 257.6 253.7 252.6 250.7 246.1 240.8 235.3 231.7 227.8 224 221 216.2 213.4 208.8 202.5 194 192.7 192.6 192.3 192.1 192.4 196 205.7 218.1 224.4 229 233.4 239.5 243.6 248.7 252.5 254.4 255.2 254.8 254.9 253.8
409.8 407.2 404.6 396.4 397.9 407.1 413.5 419 422.9 426.1 427 426.2 424.3 420.4 414.4 407.5 400.5 391.8 382.1 371.6 361.6 354.4 347.8 341.4 335.8 329.4 323.5 323 316.3 316.8 317.8 324.3 338 348.6 360.7 368.5 372.2 372.4 370.1 364.8 358.2 351.5 345.2 339.8 335.3 329.5 321.9 315.9 321.2 321.2 317.1 318.7 322.7 324.2 324.5 327.2 329.4 330.3 331.2 329.1 334.9 345.2 353 360.4 367.5 376.1 385.1 391.7 399.6 405.8 408.8 404.1 392.3 382.5 372.5 357.9 345.2 334.2 322.2 312.2 301.1 294 289.6 284.3 272 261.5 268 273 280.3 291.8 304.8 315.2 324.9 338.6 347.7 356.2 368.6 380.1 390.4 404.2 417.9 426.1 428 426.5 421.7 410.4 392.8 381.7 373 367.6 362.6 355 343.4 334.1 327.2 320.5 314.5 308.7 303 296.6 288.7 273.4 264.6 277.1 290.5 297.7 301.8 305 305.6 298.3 297 314.2 322.4 331.1 338.3 344 348.6 353.1 354.3 354.4 353.3 350.6 346.5 341.4 337 326.8 333.7 335.4 335.2 334.6 332.6 328.6 322.9 314 306.2 296.1 288.6 284.4 279.3 275.1 270.9 267.8 265.4 262 259.9 257.2 256 252.2 247.5 244.2 237.6 234.6 230 225.5 223.3 218.7 213.7 210.9 206.5 200.2 190 192.3 192 191.6 191.6 198.1 211 220.8 226.3 231.6 236.8 241.8 245.3 249.2 252.8 254.2 254.9 253.4 251.8 250.2
414.3 411.4 407.7 395.9 401.9 411.2 418.2 423.8 428.2 431.2 431.7 430.7 427.7 423.8 417.8 409.7 401.9 393.3 384.4 374.6 366.5 358.9 352.2 345.2 336 329.8 331.4 329.4 325.3 318.6 314.5 314.8 321.2 336.5 348.3 354.3 357.9 359.9 359 356.2 350.8 345.2 339.7 335.8 331.8 327.1 321.6 313.8 313.7 314.4 311.5 309.2 308.5 306.4 303.4 304.4 310.1 314.4 318.6 319 331.5 339.8 346.1 354.5 362.7 370.9 380.5 387.5 397.1 405.7 407.1 401.8 391.6 382.7 371.7 358.3 346.2 335.8 322.3 312.3 304.3 295.9 289.2 278.9 263.3 268.5 270.6 276.6 284.7 293.6 304.4 314.6 323.5 332.8 341.8 353.1 366.2 376.8 390.3 402.3 416.4 424.9 426.5 424.9 418.6 406 392.9 382.7 374.6 369.3 364 355.7 343.2 333.5 324.8 317.6 310.6 305.7 299 291.4 281.3 266.2 267.9 289.7 300.1 305.7 309.4 311.4 313 311.3 303.3 311.2 320.9 330.4 338.4 344.9 350.2 355 357.4 358.5 357.7 355.1 350.6 345.9 341.3 339.5 340.7 340.9 340 338 334.5 327.3 320.3 312.2 304.3 295.4 287.4 283.2 278.8 275.4 271.1 268.3 266.3 264 262 260.3 257 253.2 249.8 247.7 239.4 234 230.8 226.1 223.7 219.7 216.4 213 210.3 205.8 197.4 190.9 191.4 191.1 191 196 208.8 221 225.8 232.6 237.9 242.3 247.1 251.3 252.8 254.2 255 254.5 250.6 247
418.1 415.1 408.6 397.5 408 416 422.8 428.6 433.5 436.5 435.8 433.5 429.6 424.8 418.2 410.2 402.4 394.1 386.1 378 370.1 362.4 355.5 345.4 338.6 340.2 339.9 338.2 335.3 331.6 327.4 319.2 311.2 317.8 333.1 340 343.4 344.3 343.8 342.1 338.9 336.1 333.4 330.1 327.4 323.1 318.6 312 307.4 306.9 304.2 302 300.4 299.6 298.9 298.5 298 299.8 305.6 316.3 326.1 332.1 339 346.5 356.7 367 377 383 392.2 400 402.7 396.6 390.3 380.7 369.4 358.7 345.5 334.2 322.5 312.4 304.2 295.8 286.8 267.3 269 269.6 273.8 280.9 290.5 298.8 308.4 316.3 323.2 330.9 338.7 349.8 364.4 374.4 387.2 400.9 413.3 422.3 423.5 421.9 414.6 405 392.6 383.6 375.8 370.1 364.4 353.3 342.7 332.4 320.9 313.4 306.5 300.7 291.1 279.9 272.1 272.1 288.8 301.3 307.3 312.6 317.2 318.9 319 317.2 313.3 310.2 320.3 329 338.1 347.2 352.2 356.9 360.1 361.4 360.6 358.6 354.1 349.6 347.8 346.2 346.5 345.5 343 339.7 335.1 327.4 318.1 310.3 301.8 292.9 286.3 281.5 278.3 275.2 271.2 269.5 266.9 264 262.6 261.1 257 253.7 251.2 246.7 238.9 234.7 229.8 227 222.3 219.3 216.6 213.2 211.2 208.8 204.1 195.9 191.3 190.9 190.5 190.8 202.9 217.7 228.9 234.3 238.7 242.3 247 251.4 253.2 254.6 254.8 254.2 252.3 248.5
421.7 418 406 403.1 413.7 421.2 428.1 434.2 437.7 439.2 438.2 434.8 430.3 423.9 417 409.5 401.7 394.1 386.1 379.1 372.1 364.5 354.6 346.1 349.2 348.1 347 345.1 342.3 338.7 335.5 329.2 318.7 313.6 314 319.4 324.3 325.4 326.6 326.3 325.1 325.3 324.5 322.6 319.4 316.2 310.7 305.3 302.1 303 302.9 301.6 300.5 298.9 299.5 297.8 296.8 296.2 295.3 309.2 319.5 324.5 330.7 340.9 352.2 363.1 371.4 379 384.9 391.7 394.6 391.2 386.5 375.6 367.1 355.8 341.8 333.2 322.5 311.7 302.8 293.3 281.6 268.1 270.4 271.5 276.9 288.4 295.7 304.8 312.6 318.5 324.1 330.8 337.8 349.3 359.9 372.4 386.2 399.1 410.8 417.7 419.2 416.8 411.2 403.5 394.2 387.1 378 370.3 363.2 351.5 333.8 322.7 316.2 309.6 304.2 292.7 284.6 286.1 273.3 282.5 298.1 307.2 313.5 319.2 323.1 324.6 324.7 322.8 320 313.9 321.7 329.1 339.4 348.4 353.9 358.8 362.4 364.5 363.8 361.4 357.3 354.6 353.3 351.8 351.7 348.8 344.6 340 333.1 324 315.1 307.3 298.4 292.3 286.7 281.7 278.2 275.1 270.4 270.1 267.1 263.8 261.2 259.5 255.9 253.2 248.9 244.4 237.7 233.2 229.4 225.9 222.2 219 215.9 213.3 211.3 209.8 207.9 203.4 193 190.6 190.5 190.6 193.4 207.9 222.3 235.7 240 244.7 248 251.3 253.3 254.2 254.4 254.2 252.4 249.6
424.4 420.4 404.3 407.2 417.7 424.7 431.5 436.8 439.6 440.3 438.6 434.8 428.3 421.5 414.8 407.6 400.4 393.5 386.5 379.9 373.4 366.3 357.1 357.8 357.1 356.2 353.8 351.1 347.8 344.8 341.2 336.1 330.9 321.8 314 312.8 312.2 310.6 310 310.1 309.7 308.8 308.2 307.6 306.1 303.6 302.7 309.4 309.1 307.6 307.6 307.5 307.1 305.9 304.9 302.4 302.8 301.5 299.2 296.3 306.8 307.3 322.9 333.5 344.8 356.2 365.3 373.1 379.9 385 386.1 385 380 371.4 363.3 352.7 338.7 330.5 321.2 310.5 300 289.6 274.7 270.6 271.3 274.2 282.4 295.1 303.6 309.5 315.2 320.8 326.4 331.5 338.2 346.8 356.2 370.2 384.2 395.5 405.3 411.4 413.3 410.7 407.9 402.7 396.9 391.3 381.8 372.1 363.2 351.6 339.7 325.9 315.2 306.4 298.3 297.3 300.9 294.6 274.3 287.2 304.5 313.6 320.4 327.1 330.8 330.4 329.9 327.7 324.6 321 324.4 331.6 340.2 349.4 355.7 360.7 364.6 366.2 366.3 364.5 361.5 359.5 359.3 357.8 355.5 351.8 345.5 339 329.3 320.6 312.6 304.6 296.5 292 286.6 281.7 278 274.6 271.4 268.2 266.3 263.8 260 257.8 255.1 251.8 246.9 241.1 234.5 230.2 226 222.8 220.5 217.5 215 213.1 211.4 209.9 208.1 203 197.8 193.3 188.7 190.3 190.3 197.6 211.7 227.2 237.5 243.8 247.2 250.3 252.8 254.2 254.8 254.1 252.3 250.1
426.5 422 407.9 411.2 420.8 427.6 433.2 437.2 440 438.7 436.6 431.3 424.8 418.8 412.1 405.3 398.8 392.8 386.9 381 374.6 368.4 366 366.1 364.5 362.4 359.5 355.7 352.5 349.1 345.6 340.9 335.5 329.3 317 316.7 317.9 320.9 320.9 317.8 312.5 305.6 306.1 312.1 313.9 316.2 319.6 321 323.6 324.4 323.4 324.3 322.5 318.9 314 308.5 306.1 306.6 302.2 294.6 295.3 296.4 307.5 321 331.7 344.4 356.6 365.2 370.1 374.8 376 376 371.1 364.9 358.6 348.2 335.9 327.8 318.6 306.5 296.5 286.7 271.7 272.2 274.1 280.4 289.8 301.6 309.3 313.7 317.7 323 327.7 332.3 338.2 346.2 355 368.3 381.3 392 399.9 405.7 408.4 407.7 405.7 402.4 398.5 394.1 387.9 377.8 366.8 354.6 342.1 329.9 318.9 308.3 311.4 310.1 308.1 301.5 275.7 289.3 309 319.5 326.8 334.8 337.6 337.4 335.1 332.8 329.4 328.6 326.7 335.2 342.8 350.2 356.2 362.2 365.6 367.5 368.2 367.3 366.2 364.7 363.9 361.9 358.6 353.2 346.3 335.4 326.6 319.2 309.4 301.6 295.6 291 286.2 282.1 279.5 275.1 271.4 268.1 266 263.5 260.1 257.2 253.8 249.6 246.4 238.7 232.4 227.9 224.1 221.1 219 216.1 214.6 212.7 210.3 208.4 206.4 203.9 203.3 200.5 191.4 190.5 190 191.3 203.2 216.2 229.2 238.4 244.2 248.4 251.6 253.8 254.4 253.4 252.3 250
426.9 422.6 410.4 414 422.8 428.4 432.3 435.4 437.2 436.2 433 427.6 420.8 414.2 408.2 402.3 396.9 391.5 386.3 380.4 375.8 372.7 372.7 371.9 370.5 367.7 364.9 361.2 356.8 352.9 347.9 342.7 335.2 323.1 318.7 318.2 327 330.9 334.2 334.6 333 330.9 328.8 327.7 326.4 325.8 328.9 332.7 338.4 340.4 339.7 337.9 334.5 329.6 319.4 311.3 311.9 313 311.8 303 294.5 294.2 293.3 294.7 315.7 329.7 343.5 353.3 356.4 361.7 365.2 363.7 360.6 357.4 351.9 342.1 331.9 325.3 315.5 303.1 293.8 284.5 272.6 273.5 277.6 283.1 294.5 304.9 310.9 315.4 319.6 323.9 328.6 333.3 338.8 347.7 355 365.7 378.5 388.1 394.8 400.1 403.6 404.8 403.7 402.4 400.5 396.1 391.3 382.8 370.2 357.9 344.1 331 318 321.1 320.5 317.4 314.4 308.1 289 286.4 311.5 323.4 334.7 340.7 341.9 342.1 340 336.9 334.6 333.9 334.4 338.1 344 350.5 357.2 362.2 365.9 368.4 369.1 369.9 370.1 369.4 367.4 364.3 360 353.4 344.2 334.3 324.7 316.3 303.8 298.4 295.1 289.7 284.4 282.9 278.2 275.1 271.7 268.5 265.8 263.1 260.6 258 254.1 248.5 242.5 236.3 230.7 227 223.7 220.9 218.5 216.2 214.6 213 211.9 211 209.1 207.6 206.1 202.5 195.5 190.6 190 188.6 198.1 209.3 222.9 234.3 241.5 247.3 250.3 252.7 253.6 253.3 251.7 249.6
426.9 421.9 412.4 416.8 423 428.2 432.4 434.5 433.6 431.4 427.8 422.1 415.9 410.2 404.6 399.4 394.8 390.2 385.4 380.2 376.6 377 376.6 375.7 373.8 372.3 368.9 364.7 358.8 354 348.4 342 328.7 320.1 326.4 324.8 331.6 339.7 343.8 344.2 343.6 341.7 340 337.4 334.6 334.2 337.2 342.2 345.9 346.4 345.6 343.6 339.5 333.6 318.8 315.5 317.7 319.4 318.3 314.3 311 305.8 298.2 291.4 294.5 308 325.6 336.8 343.1 348.3 354 353.8 352 349.7 344.2 334.7 327.8 320.5 309.7 298.9 290.2 281.7 273.2 271.2 277.3 284.3 293.2 300 305.5 311.7 319.3 325.2 330.6 334.9 341.3 348.1 355.1 363.3 375.1 384.9 391.4 396.9 401.5 403.6 404.9 404.3 402.3 398.1 391.9 384.3 372.9 360.2 346.1 333.1 330.1 329.4 326.9 323.6 319.7 315 306.6 281.1 309.4 327.7 339.2 343.5 345.3 346.4 343.5 340.4 338 338.5 338.9 341.2 345.8 350.9 357.4 362 366.2 368.6 370.1 371.9 374 373.5 370.8 365.6 360.1 352.2 343 333.1 320.1 312.1 301.6 296.2 292.3 286.9 282.8 281.3 278.4 274.5 271.6 269.1 266.5 263.8 261.5 259.3 255.3 249.3 243.4 237.8 233.3 229.8 226.2 223.8 221.5 219.6 217.2 215.3 214.4 213 211.3 208.9 205.9 202.7 197.6 189.9 189.5 189.1 202.1 219.2 227.7 234.8 240.8 246.1 248.9 251 251.9 251.8 250.5 249.1
424.1 418.4 411.7 418.2 424.1 429.1 431.8 431.8 429.6 426.1 422.2 417.7 411.8 406.6 401.6 396.6 392.5 388.3 385.1 381.1 379.5 379 378.1 377.5 376.1 373.2 370.1 364.3 358.9 352.5 345.9 337.3 321.1 331.4 335.9 334.7 331.8 344.5 349.1 351.3 351.4 350.9 348.9 345.8 343.9 344.1 345.8 349.5 351.5 351.1 349.6 346.7 341.6 335.7 320.1 323.8 327.5 326.6 325.8 322.1 318 313.6 307.6 302.7 291.3 290.3 302.4 320.6 332 339.5 343.7 344.7 344.6 341.5 335.4 328.4 322.2 313.9 303.6 293.6 283.4 275.6 273.9 279 286.5 292.1 297.7 302.4 307 309.4 317.9 326 332.4 336.7 342 348.9 355.1 363.3 372.8 381.8 390.5 397.1 401.8 405.2 406.6 406.2 404.3 400.3 394.9 386 376.6 363.1 350.1 343.5 340.4 336.1 332.4 328 323.6 318.7 314.4 287.9 307.1 329.5 341.4 345.7 348.5 349 346.9 343.8 341.6 342 342.9 344.6 348 352.2 358 362.5 366.7 369 371.7 374.2 375.9 375.4 372.6 366.9 360 351.2 340.7 329.8 317.2 307 298.7 292.6 289 283.9 280.7 278.8 276.5 273.9 271 269.4 267.1 264.6 262.2 259.8 256.1 250.1 243.8 238.3 234.2 231.7 228.7 226.3 224.2 221.2 218.6 216.4 215.5 213.4 211.5 209.3 205.4 202.1 197.3 190.1 189.1 187 205.6 221.1 230.2 234.3 238.9 243.4 246.4 249.2 250.2 249.3 249.6 248
421.5 419.2 417 418.7 423.8 427.3 428.9 429 426.2 422.6 417.9 413.1 408.3 403.2 398.4 393.8 390.9 388.5 385.3 382.3 380.8 379.3 378.1 378.2 376.3 373 368.4 362.8 354.8 346.7 337 325.1 337.4 340.8 343.9 344.7 343.5 346.4 354.2 357.9 359.7 359.6 357.8 356 353.9 354.7 356 357.2 357.4 355.9 352.7 348.3 342.1 332.8 328.5 334.7 336.2 335.3 333.3 329.6 324.4 319.4 313.4 307.9 296.7 289.2 288.9 303.9 317.4 328.8 336.1 338 337.3 333.4 327.2 321.9 315.3 306 295.2 282 273.2 276.9 280.4 285.7 293.2 300.4 306.6 310.4 314.4 317.4 317.7 325.9 332.4 337.9 343.4 349.9 356.4 363.2 371.5 380.9 392.2 399.5 404.5 407.8 409.1 408.7 406.9 402.9 397.1 389.7 380.7 370.6 359.9 353.3 347.1 341.6 336.6 331 326.4 321.9 318.1 297.6 307.3 330.4 342.1 347.5 350.9 351.2 349.3 345.9 344.3 344.9 346.7 347.9 351.7 356 359.9 364.3 367.8 370.7 373.4 376.2 377.4 376.2 372.6 366 359.2 349.9 337.8 327 315.3 303.6 294.9 288.5 285 280.7 276.4 274.4 273.6 271.2 269.9 269.2 267.4 265.2 262.7 259.3 256 249.8 243.3 237.8 234.7 232.1 229.3 227.6 225.1 221.9 219.6 217.8 216.3 215.4 212.8 209.7 206.2 201.5 197.7 189.9 189.1 186.8 203.9 217.6 228 231 235.4 239.8 243.6 246.6 247.4 248.3 247.6 246.3
427 422.8 419.6 419.2 421.7 424.1 425.6 424.9 422 418.5 413.8 409.1 404.3 399.4 395.2 391 389.5 387.3 385 382.3 380.5 378.5 377.3 377.6 374.8 370.9 365.9 357.6 337.4 331.6 334.3 345 347.9 350.1 352.1 353.4 352.4 346.9 359.9 364.9 367.6 367.6 367.5 365.9 365.7 365.7 365.5 364.7 363 359.7 355.5 350 337.8 332.6 340.6 343.3 343.9 343.3 342.4 339.5 334.2 327.3 320.2 313.4 307.5 302.2 292.5 288.3 302.5 317 324.3 329 328.8 325.4 320.6 315.7 306.6 296.3 283.1 276.3 279 281.3 287.3 293 300.1 306.6 311.7 316.1 319.6 321.7 326.2 327.1 331.8 338.9 344.7 351.3 357.9 365.3 374.6 384.9 394.5 402.5 408.6 411.6 413.5 412.9 410.7 405.6 399.3 392.9 384.6 375.3 367.2 359 351.7 346.1 339.8 334.1 328.8 324.1 318.3 294.7 310.9 331.6 342.4 348.4 352.1 352.8 351.4 348.3 347.3 347.4 349.4 351.3 355.7 359.8 363.6 367.2 370.4 372.9 375.9 378.2 378 375.7 371.3 364.8 357.6 347.8 336.5 323.2 311 299.7 291.7 284.6 278.7 274.8 270.2 269.7 269 269.1 267.9 267.5 265.9 263.5 260.4 258.4 254.9 248.9 241.5 237 234.2 231.6 228.8 226.1 223.6 221.2 219.7 219.1 217.5 216.1 214.2 211.6 207.3 202.3 198.2 189.8 188.8 188.4 201.9 213.3 221.7 225.7 229.2 234.7 239.9 243.5 244.7 244.7 244.8 243.3
431.3 425 421.1 420.6 420.9 421.4 421.2 419.7 416.9 413.7 409.4 404.5 399.8 395.2 391.5 389.1 386.9 384.6 382.5 380.5 379.1 377.2 376 375 372 367 359.6 341.2 341.6 348.1 354.2 357.7 358.4 359.5 360.3 360.8 359.9 350.5 364.1 369.9 373.5 375.3 376 375.2 375.6 374.2 372.9 371 368.2 363.1 357.9 350.6 337 343.3 350 352.3 352.9 352.4 351.7 349.1 343.5 335.8 328.1 320 313 308.1 301.9 288.4 287.4 297.6 313.6 316.8 317.9 316.9 313.5 307.6 297.3 286.4 273.6 279.8 282.8 288.8 295.1 301.7 308 313 318 320.9 322.7 326.2 330.3 334.2 336.2 338.3 345.3 352.9 359.8 367.7 378 387.8 396.5 405.1 411.5 415.3 419.4 419.3 416.6 410.3 402.8 395.9 387.8 378.8 370.8 363 355.7 348.5 341.8 336.1 330.8 325.3 317.7 296.2 318.1 331.6 342.1 349.5 353.3 353.5 351.6 349.7 348.8 349.3 351.1 354.6 358.9 363.2 367 370.1 373.6 376.1 378.4 379.1 378.2 374.9 369.2 362.4 354.8 345.4 333.7 320.5 308 297 288.4 281.3 273.7 267.5 263.9 261.8 263.4 265.5 265.9 265.2 263.7 261.5 258.2 256.1 251.4 245.1 239.5 236.1 233 229.8 227.4 224.8 222 220 218.5 218.4 217.7 215.8 214.1 212 208.3 203.3 197.7 189.5 188.7 188.3 196.7 208.8 216.6 220 223.5 228.2 234.9 239.3 241 241.8 241.2 239.8
433.5 426.9 423.1 422 420.9 419.6 418.5 416.1 412.4 408.9 404.1 399.4 394.9 390.6 387.2 385.2 382.3 380.5 378.4 376.5 375.3 372.2 371 369.8 366 357.2 340.5 337.9 356.4 362.7 365.7 368 367.4 367.3 367.7 368.2 367 357.4 366.3 375.5 379.4 381.3 382.9 384.4 383.5 381.7 378.9 376 370.9 365.8 359.2 349.4 344.3 351.9 357.6 359.6 361.2 361 359.1 355.9 351.4 344.8 335.8 327.4 319.9 312.8 306.7 298.8 287.1 286.8 298.7 308.6 309.4 308.9 306.7 299.9 291.1 281.8 279.3 283.4 290.4 296.1 303.7 310.5 316.7 320.5 323.5 326.2 329 332.4 336.2 339.6 342.1 342 344.4 352.5 361.3 370 380.8 391.6 398.7 406.9 413.6 419.6 423.2 421.5 417.6 412.5 405 398.1 390 381.8 374.4 365.8 358 350.9 344.2 337.9 332.4 326.6 309.5 299.5 315.7 331.2 341.9 349.7 353.8 353.8 351.7 350.2 349.5 350.6 353.8 357.7 361.7 366.1 369.7 373.3 376.6 379.2 380.3 379.8 377.8 373.5 367.7 360.6 352.4 343.2 332.1 318.2 307.2 296.8 288.1 280.5 276.3 273.6 269.8 263.6 256.5 259.3 262.2 261.7 260.1 257.9 254.6 252 248.2 242.6 237.3 234.4 230.9 228.2 225.4 222.5 220.4 217.9 217.2 217.2 215.8 214.9 213 211.5 208.3 204.3 199.2 190.5 188.5 187 189.9 201.9 208.9 215.4 217.3 222.3 228.9 234.2 237.1 237.9 237.4 237
435.5 429.1 425.1 422.8 421 418 415.3 412.3 408.3 404 398.8 394.4 390.1 386 382.5 380.2 377.3 375.5 374.4 372 368.3 364.8 363 356.2 349.8 344.5 358.2 363.6 367.8 372.3 373.9 375.1 374.7 374.6 375.1 375.4 374.7 362.6 368.2 378.4 384.3 387.4 390.1 390.3 389.2 387.8 384.6 379.7 374.7 368.5 362.4 350 352 357.9 364.2 367.5 368.8 368.4 366 362.2 357.7 351.8 343.6 335 325.4 317.5 309.9 303 294.7 285.8 285.8 294.3 301 303.1 300.6 294.7 287.1 280 285.1 292.1 299.1 306.3 313.3 319.7 325.1 327.5 330.6 333.7 336.5 339.7 343.2 345.9 348.3 349.5 343.7 352.5 362.8 373.1 383.9 394.3 401.8 409.5 416.6 422.5 424.1 421.9 417.5 412.1 405.7 398.6 391.3 383.9 376 367.5 360.5 353.4 347 340.6 333.7 322 302.5 317.1 306.8 326.3 338.9 345.3 351 351.8 350.1 349.3 349 351.8 356.5 360.5 363.8 368.7 372.6 375.7 378.1 380.1 380.3 380.1 377.6 373.2 366.5 358.4 350.6 341.4 330.4 319.2 308.9 300.4 293.1 286.9 284.5 279.9 275.3 268 262.1 254.1 253.9 256.1 255.2 252.9 250 247.2 243 238.6 234.5 231.3 228.4 225.8 223 219.9 216.8 214.9 214.1 213.5 212.6 211 210.7 209.1 207.1 204.2 200.4 192 188.5 187.1 189.8 195.2 206.2 213.3 213 218.5 226.2 230.6 233.2 234.3 234.2 234.2
436.9 431 427.2 424.6 421.2 417.6 412.7 408.1 404 398.7 393.6 388.9 384.9 379.7 375.5 372.3 370.1 367.6 365.4 363 355.8 353.6 357.5 359.2 363.1 366.1 369.4 373.3 377.1 380 381.5 382 382.1 382.1 382.3 382.5 381 368 370.4 383.5 389.1 392.9 395.2 396.1 394.8 392.3 388.5 383.6 378.8 374.3 368.8 354.8 358.2 362.9 369.3 372.6 375.5 376.1 373.2 369 363.1 356.9 349.3 340.5 330.8 321.5 313.4 306.8 300.1 295 287.9 283.1 290.1 294.7 292.3 287.3 278.5 286.2 293.9 301.1 308.7 315.8 323.1 329.3 333.4 335.1 337.9 341.4 344 346.7 350 352.4 355.1 356.8 355.3 349.1 364.5 376.7 387.6 396.4 404.3 412.7 419.2 422.3 422.7 419.9 415.9 410.6 404.8 398.3 390.8 384.1 376.1 367.5 361.4 354.6 348 341.6 333.6 311.5 322.1 331.1 326.9 313.2 330.8 339.2 344.6 347.7 348 348.4 349.2 352.8 357.1 361.6 365.4 369.8 373.4 376.5 379.3 380.6 380.4 380.7 377.9 372.1 365.1 357.1 349.2 339.8 329.3 319.9 310.9 304.2 297.8 294.2 289.2 283.6 278.2 271.6 266 256.8 246.3 245.4 245.5 245.2 243.6 240.3 236.4 233.7 231.2 228.2 225.7 223.1 220.5 217.4 214.3 211.8 210.7 210 207.7 205.9 206 204.8 205.1 202.5 200 193.5 188.3 187.6 187.8 188 200 207.1 209.1 216.5 223.9 228.1 229.8 231.1 230.5 230.1
438.5 432.2 428.5 426.1 422.1 417.5 411.9 405.3 394 391.8 387.1 383.3 376.6 371.9 368.4 366.1 363.9 361.8 359.8 358.1 359.9 364.9 368.2 369.2 370.8 373.9 377.5 381.4 385.9 387.6 388.9 389.6 389.5 389.5 389 389 387.4 376.6 374.4 387.3 393.8 398.3 400.6 401.3 399.3 395.9 391.6 387.7 384.1 380.4 375.1 360.1 362 367.5 373.6 379.3 382.4 382.6 379.6 374.5 368 361 352.4 343.6 333.7 323.8 315.2 308.3 302.3 297.2 291 286.9 284 283.8 283.1 281.4 288.5 295.6 301.8 309.6 317.2 325 332.7 338.7 341.7 343.7 346.3 349.3 352 354.4 357 360.6 363 363.6 363.1 355.7 365.4 379 389.8 397.9 407.3 415.5 420.4 421.9 420.6 417.6 412.9 408.2 402.6 396.5 390.1 382.9 374.7 367.2 360.7 354.2 348.2 341.2 323.8 321.6 335.2 337.3 336.7 331.9 319.7 331.8 338.9 343.6 345.6 347.6 349.6 352.9 356.4 361.3 365.9 370 374.1 377.1 379.3 380.4 380.2 379.3 376 371.1 363.5 356.1 348.1 338.4 329.4 320.4 312.5 307 302.4 297.3 292.4 287.4 281.1 274.7 268.3 262.1 255.7 248.9 239.2 237.8 234.5 232.7 230 228.4 227.6 225 222.6 220.4 217.9 214.8 212 209 207.3 206.2 204 201.7 199.4 196 195.9 194.7 192.9 190.8 188.7 187.2 187.5 187.6 190.4 199.8 204.9 213.1 221.2 225.3 226.5 227.2 226.5 226.3
438.3 431.6 427.2 425.2 421.2 416.2 408.6 396 388.3 387.3 383.8 381.5 379.2 377.1 376.4 374.1 370.5 367.2 362.1 363.1 367.2 371.1 373.7 375.4 377.7 381.1 385.2 389.3 392.9 395.5 397.3 397.1 396.8 396.5 395.6 394.9 392.7 380.9 379.5 392.1 398.7 403.7 406.3 405.9 403.3 399.4 395.8 392.7 389.7 386 380.8 371.4 364.6 371.9 379.5 384.9 387.6 387.6 384.2 379.2 372.8 364.5 354.9 345.1 335.9 325.3 317 309.5 303.1 297.4 290.6 291 288.7 283.9 283.1 289.8 297.2 303.2 309.7 317.3 325.5 333.2 341.2 345.4 349 351.3 353.6 356.8 360.5 362.9 366.2 368.6 369.7 370.1 369.7 362.3 365.1 380.4 391.1 400.5 409.2 415.8 419.7 420 417.9 413.7 409.1 404.7 399.6 393.3 387.4 379.3 370.6 365 358.6 352.7 346.7 337.5 325.5 339.1 342.6 342.8 342.1 339.3 331.2 323.9 330.1 335.2 343.3 346.5 350.5 353.1 356.3 361.4 365.4 369.9 374.2 377.3 379 379.1 378 376.9 373.5 369 361.7 354.4 346.1 337.8 329.5 321.4 314.6 309.9 304.9 299.7 294.8 289.3 283.7 277.1 270.1 264.4 258.3 251.9 246 240 234.7 229.7 225.2 222.3 222.5 221.4 218.9 216.5 214.7 212.6 210.4 207.1 204.4 202.1 199.2 197.6 198.1 199.8 197.6 192.6 194.4 193.1 190.5 187.1 186.5 187.2 187.8 193 199.9 210.7 218.7 221.1 222.2 222.5 222.3 222.6
436.7 430.1 425.6 421.4 416.9 406.3 402.7 402 401.2 397.2 393.8 390 387.5 385.1 381.2 377.2 372.8 368.6 363.1 368 372.4 375.6 379 382.4 384.6 388.2 392.3 396.7 400.8 404.2 405.3 404.3 403.6 402.7 402 400.2 397 386.3 382.1 396.4 402.7 407.5 409.5 409 406.7 403 400.3 397.8 394.8 391.1 387 380.9 368.9 377.5 384.8 389.6 392.1 391.6 387.5 381.5 375.4 366.4 356.7 347.1 337.2 327 318.9 311.2 303.6 297.3 296.1 294.4 290.2 286 289.6 297.3 303.2 309.1 315.8 323.1 331.7 341 346.9 351.9 355.6 357.8 361.4 364.9 368.9 372.6 374.4 374.8 374.7 374.7 374.2 369.3 360 380.3 391.3 400.8 408.8 414.2 417.2 416.8 414.7 410.5 406 401.5 395.6 389 382.2 374.1 367.4 360.6 354.5 348.7 338.8 328.5 342.7 345.9 347.4 347.8 346.7 343.6 336.4 325.8 337.2 341.6 344.8 347.2 350.5 353.5 357.1 361 365.1 370.3 374.3 377.2 378.7 378 377.5 374.8 370.4 365.1 359.1 352.4 344.8 336.6 329.6 322.5 315.8 311.4 306.3 301.3 296.4 291.1 285.2 277.7 271.6 266.5 261.6 256.3 251.5 245.9 239.8 233.9 227 222 218.5 216.8 215.6 213.4 211.2 209.3 207.6 205.3 202.4 200.3 201.4 206.9 207.7 207.7 206.4 203.8 202 200 195.9 187.4 186.7 187.1 187.2 188.1 195.4 207.7 215.4 217 217.7 217.8 217.9 218.2
437.8 430.2 424.9 419.2 416.8 416.6 414.2 410.4 405.5 402.6 399.5 396.5 392.6 388.6 383.3 378.1 373.5 368.5 367.5 373.1 377.3 380.6 385.4 389.1 391.9 395.4 399 403.5 407.7 410.3 410.4 409.9 408.9 407.8 406 403.5 400 391.3 385.9 400.2 406.2 410.8 412.9 412 410.1 407.6 405.2 402.6 399.3 395.5 391.6 385.9 371.9 382.4 389.1 393.4 395.6 395.1 390.8 384.1 376.2 367.9 358.3 348.2 338.4 328.9 319.1 311.1 306.6 303.1 301.6 297 291 287.6 293.5 301.8 307.1 314.3 320.8 328.7 337.4 344.7 351.9 357.7 361.3 365.2 370.5 373.6 376.8 379.2 380.4 379.7 378.9 377.9 376.6 372.6 365.4 377.8 389.3 397.4 406.5 412.2 414.3 414.4 412.7 408.4 403.4 398.2 391.7 383.9 376.8 367.5 359.2 350.4 343.5 336.3 331.6 341.9 348.9 351.2 352.1 352 350.5 347.2 340.4 330.5 341.5 345.7 348.1 350.8 353.7 355.9 359.1 361.4 365.3 368.5 372.6 376.2 378.2 378.4 376.4 373.2 368 362.4 355.4 348.4 341.3 334.7 327.7 321.3 315.8 312.2 306.8 301.7 296.7 291.6 286.3 279.5 274 269.4 264.8 259.9 254.1 248.3 243 237.4 231 225.5 220 215.2 213.1 210.9 209.1 206.8 205 203.3 202.3 203.4 209.5 211.6 211.7 210.1 208.9 207.5 205.5 202.6 197.3 187 187.7 186.9 187 186.9 191.1 202.3 210.7 213.1 213.2 213 213.1 213.5
