ncols 200
nrows 82
xllcorner 310000
yllcorner 252150
cellsize 50
308.6 312.9 314.3 316.2 317 312.9 310.2 308 297.2 285.7 275.6 267.7 260.2 254.8 250.9 243.4 236.3 233.3 233.4 239.5 247.6 253.4 248.5 243.1 237.7 240.6 241.3 235.8 229.1 222.6 213.1 214 221.5 224.8 228.4 232 237.1 240.8 240.5 239.7 240.7 240.3 241.1 239.8 234.4 229.4 225 224.1 226.5 233.5 239.8 239.9 237.2 237 235 234.1 229.9 235.3 242.8 251.3 263.2 272.2 263 273.7 281.5 287.8 293.1 299.9 308 315.6 322.4 328.9 333.3 337.7 341.9 346.2 351 356.3 360.7 363.8 365.1 365.8 366.2 366.3 367 371 377.1 379.2 376.7 375.6 374.9 372.3 369.9 378.3 391.9 400.2 409.6 427 438.2 445.3 447.1 449.6 458.1 461 461.1 461.9 464 467.9 475 482.2 486.5 489.4 490.6 491.9 492.3 492.3 490.7 488.7 485.2 482.8 477.9 473.5 469.2 463.5 459.1 454.8 452 447.4 443.5 439.6 435.6 431.2 427.7 430.3 429.7 420.6 413.8 411.5 406.9 403.3 399.3 395.9 391.7 381.8 381.7 388.2 389.7 391.7 389.4 385.7 383.2 379.7 375.8 373.1 371.4 372.3 367.9 366.9 364.2 364.1 363.3 362.8 363.3 360.6 358.8 358.7 359.8 354.7 350.5 350.3 357.5 357.5 357.6 361.2 365.8 371.3 376.8 381.7 390.5 398.6 404.7 414.8 419.4 426.6 436.9 450.9 459.6 468.5 477.1 488.6 502.1 511.7 514.4 513.6 509.9 510.4 510.7 510 507.6 503
302.9 306.9 309.3 312.4 313.5 315.7 317.7 316.4 307.4 300.9 291.2 289.8 278.4 272.8 266.3 256.7 242.5 235.3 236.1 242.7 249.7 256.7 253.4 247.4 241.7 241.6 244.2 239.1 231.6 225 213.1 213.7 219.5 222.9 226.9 232.3 235.3 239.3 238.4 237.9 239.7 243.3 244 241.4 236.8 232 227.6 223.6 223.6 229.9 235.4 235.9 233.4 234 233.6 232.3 228.2 234.7 241.8 251.5 260 265.1 265.3 273.1 277.3 286.5 292.3 298.3 303 310.8 319.7 326.1 332.3 335.6 339.6 343.1 346.4 351.1 355.9 358.2 358.9 359.6 360 359.1 359.1 359.7 362.5 358.9 357.1 361.9 366.2 363.1 362.2 373.9 388.7 397.2 407 430.6 446.4 455 456 455.1 461.8 466.7 468.9 470.3 472.8 476.4 483.1 489.4 492.9 495.6 498 500.1 501.4 501.5 499.3 496.5 493.4 494.6 491.5 488.6 483.1 480.1 474.2 469.7 464.8 456.3 449.6 444.5 437.3 433.1 430.3 430.8 430.6 419.9 415.1 411.5 407.9 404.3 399.2 394 390.7 387.9 380.2 378.7 380.2 381.3 379.7 379.1 378.6 377.6 373.8 370.5 368.9 368.2 366.4 364.3 362.4 361.1 359.7 359.4 358.3 357.4 356.1 355.6 353 357.3 360.8 359.7 363 357.7 364.9 367.7 370.9 375.5 381.9 386.8 394.3 404.5 415.7 420.6 424.6 436.1 446.5 454.2 460.6 471 483.1 496 509.1 516.5 517.7 518.1 518.1 518.2 518.4 517.4 512.9 507.4
298.8 303.5 307.6 312 315.6 318.1 328 334.3 332.6 326.4 315.2 314.3 306.6 297.7 286.5 275.1 257.9 247.2 247 244.5 252.1 258.3 257.7 251.9 244.7 240.5 240.4 237.9 232.9 226.4 218.2 212.2 216.5 221.5 225.9 231.3 234.2 237.8 238.1 237.9 241.3 244.6 243.3 240.2 236.4 232.9 228.8 224.4 224.4 230.9 235.4 233.3 230.8 230.5 231.8 228.2 231 234.3 237.9 243 250 258.9 269.2 275.3 281.9 288.4 293.5 297.7 302.1 309.2 318.3 324.1 329.1 332.3 336.9 339 342.9 346.5 349.3 351.5 352.3 350.7 350.4 349.7 349.6 348.3 343.3 346 349.4 355.8 357.4 357.1 369.6 382.8 390.1 397.9 408 433.5 451 456.7 459.8 461 463.5 467 471.4 477.3 480.8 487.8 495.5 496.4 497.1 499.6 503.9 506.4 507.1 508.4 506.1 502.4 497.9 501.3 499.9 498.3 495.7 490.9 487.9 483 476.9 472.2 465.3 455.4 448.3 441.1 431.6 427.3 421.8 417.5 411.8 407.9 405 401.3 397.8 393.8 390.1 386.7 383.7 382.1 377.7 377.9 381.8 379 376.7 370.1 367 366 365.4 364.1 363 361.6 361.1 359.5 360.4 358.5 356.7 356 355.5 353.2 354.1 360.6 359.6 361.5 363.4 360.1 362.3 366.8 371.7 377.1 383.2 389.4 397.9 409.5 418 423.4 431.4 444.5 453.1 457.9 469.6 482.4 494.5 503.5 508.4 511.9 513.5 515.9 517 521.4 521.6 518.5 514.5 510.7
299.1 304.8 308.9 313.3 318.8 327.9 337.4 344.7 344.9 336.7 334.9 338.4 332 317.8 307.2 291.2 271.4 262.1 256.9 253 255.1 259.5 259.7 254.7 247.8 242.1 238.2 234.5 228.9 224 220.4 212.1 214.3 219.9 225.4 230.3 234.2 238.3 239.5 238.7 242 243.5 241.3 238.4 235 231.8 228.2 223.5 224.4 231.8 236.3 232.3 228.3 226.8 227.9 227.8 231.3 234.7 241.9 252.2 260.8 271.5 275.1 277.9 286 291.7 296.1 299 302.4 311.2 317.7 322.6 326.6 330.7 333.9 335.9 337.1 340.3 342.6 343.6 343.8 340.3 339.5 337.6 335.5 332.9 334.4 339.9 344 347.5 350.5 360.9 374.6 388.7 399.1 403.1 410.3 434.6 451.1 457.8 462.2 464 465.8 469.1 475.9 481.7 488 497 500.4 501.2 502.2 504.9 508.7 511.7 512.4 513.4 510.1 507 504.1 507.2 506.5 505.5 503 500.4 502.7 499.5 494.4 489.1 481.2 474 466.3 461.3 449.9 441.2 434 427.4 420.6 413.1 409.2 404.7 401 398.1 395.3 387.3 384.3 382.3 385.1 386.5 388.1 386.7 383.3 376.2 373.3 369.1 367.7 366.2 365.2 365 364.4 363.9 363.2 362.3 361.2 360.3 355.2 357.7 358 359.5 361.6 363.3 364 362.3 363 368.1 371.4 375.6 380.8 388.1 397.8 407.2 416.4 425.8 434.6 447.1 457.2 470.4 481.2 488.9 494.1 499.4 504.9 507 509.4 513.7 516.1 518.3 515.5 512.7 510.7 509.8
301 305.4 311.1 317.8 326 334.9 343.3 350.1 349.6 340.1 346.5 352.3 346.5 332.9 314 297 277.1 269.8 264.6 262.1 260.3 258.4 256 252.6 248.1 243.8 238.8 232.9 226 219.6 218.1 212.7 213.2 217.1 223.3 230.1 236.2 240.3 242.4 239.7 241.4 242 239.2 236.2 233.2 230.3 227.4 222.9 222.7 228.7 232.8 229.2 225 226.2 226.8 230.9 234.6 239 246.4 255 263.1 273.5 279.7 287.6 292.5 294.8 299.2 302.8 307.6 312.7 317.5 320 323.8 327.5 329.8 330.9 331.3 331.3 331.9 331.5 332.6 330.3 327.7 324.1 322.3 324 329.9 334 331.7 342.4 352.1 361.4 371.4 388.6 397.5 403.7 410.6 434.3 450.3 457.8 462.8 466.6 468.9 475.8 483.6 486.4 492.4 500.2 502.6 504.7 507.2 511.8 514.3 516.5 516.5 516.4 513.8 511.5 508.6 510.4 512.4 511.6 511.8 511.6 512.4 509.3 505.2 500.7 498.5 491.6 484.8 480.4 471.3 462.8 453.5 441.2 432.9 425 414.4 405.1 401.9 397.2 393.7 389.8 387.3 388.2 389 390.7 392.4 391.2 386.5 380.3 375.8 371.8 369.3 367.6 366.7 366.7 368.3 368.7 367.6 363.8 362.7 361.9 359.9 359.3 361.6 364.6 365.7 366.5 366.2 365.1 365.9 370 375.1 379.6 385.5 392.3 399.6 404.9 411.7 422 431.7 444.6 459.1 473.9 483.9 489.7 495 500.7 504.8 507.5 510.9 518.8 519.8 518 515.7 513 510.7 508.8
301.5 308 313.9 325.6 333.8 341.6 350.3 352.1 346.9 344.1 355.4 352.4 348.9 337 315.8 295.3 282.9 274.5 268.3 263.9 259.9 256 251.8 247.3 243.6 239.9 237.3 232.5 225.7 218.6 214.8 212.3 212.5 217.3 223 234.7 244.4 247.2 246.9 243.6 240.6 240.4 237.7 234.3 231.4 228.5 225.3 222.4 220.7 223.3 224.7 223.6 227 230.8 233.8 238.2 241 244.4 248.3 253.5 260 272 281.4 291.3 296.2 298.7 301 303.5 307.6 311.8 315.3 317.4 319.4 321.7 323.9 323.3 324.2 322.5 321.4 320.2 318.1 316 314.7 310.2 316.3 318 319.4 325.4 333.6 342.9 352.1 357.4 368.6 381.4 388.4 400.7 406.4 420.6 445.6 454.2 459.6 464.7 470.5 476.1 489.1 491.1 497.3 504 503.8 506.1 510.7 515.9 517.9 517.3 517.2 518.1 517.8 515.4 511.7 513.6 516.7 519.3 520.5 520.7 519.2 516.8 514 511.2 508.2 504.3 500.2 494.8 488.6 481.6 471.6 460.7 448.4 433.1 419.6 416.3 410.5 400.6 396.8 393.5 394.1 393.7 392.7 394.4 393.6 391.9 388.4 382 377.2 371.6 369.3 367.8 368.2 370.5 372 372.3 370.1 367.3 364.8 359 362.2 363.7 366.1 368.4 371.2 372.8 373.2 370.5 370.2 373 379.5 384.9 391.1 397.6 404.7 413.6 419.5 429.5 436.2 442.5 455.6 470.1 484.6 494.6 499 502 505 510.9 513.2 510.9 509 508.4 508.2 510 512.3 507.2
300.8 309.5 322.5 332.9 339.7 347.5 352.7 350.5 348.4 345 347.9 349.6 346.9 328.9 309.7 294.2 282.2 273.8 266.3 260.3 255.6 250.8 246.5 242.4 238.1 234.2 232.3 228.9 224.4 219.1 213.1 211.5 212.2 217 223.1 235.4 243 247.4 249 246 241.9 239.1 235.2 232 228.7 225.8 223.8 221.1 220.4 220.9 221.9 226.2 232.4 236.4 240.4 245.8 248.5 249.2 248.5 247.9 252.6 263.3 278 289.9 293.1 296 299 302 305.2 308.8 311.4 313 313.9 314.7 314.5 314.5 314.1 314.2 310.9 309.5 307.8 306.3 307.2 307.3 310.1 310.7 311.3 325.1 332.6 342.2 350.9 353.6 360.1 368.5 379 386.4 395.3 405.3 428.3 447.3 456.6 464.1 470.8 477.8 489.6 495.3 503.6 505 504.2 506.3 510 516.1 518.6 517.8 518.3 519.9 521.5 519.5 516.6 519 521.4 524.4 527.1 527.6 526.2 523.8 520.8 517.9 514.7 511.7 508.8 505.3 501 495.6 488.9 480 470.6 459.6 444.3 435.6 424.1 412.4 404.6 398.3 400.9 399.3 397.5 396.5 396.5 392.8 387.9 384.3 378.3 372.4 370.3 369.2 370.3 371.8 375.3 375 373.3 369.4 366 363.6 365.7 366.7 369.7 375.6 383.9 386.3 380.8 378.7 379.6 383 387.6 394.8 402 409 417.2 423.4 429.5 437.2 443.5 451.3 462.9 477 492.1 501.6 503.8 504.4 507.2 508.6 506.7 501.9 498.1 495.8 496.1 501.2 506 507
301 313.8 326.3 337.8 344.5 348.5 344.9 344.9 346.7 345.7 344.3 342.8 336.2 317.9 301.3 287.8 278.5 269.3 261.6 254.8 249.7 244.8 240.3 236.3 233 228 225.8 222.4 220 216.5 211.2 211.4 211.9 217.5 224.2 233.5 237.9 242.1 246.6 247.4 242.9 237.8 233.5 228.9 225.2 222.9 220.4 218.9 221 222.4 224.3 226.6 235.3 239.9 244.6 251.8 253.8 249.4 244.8 243.1 248.9 262.1 273.5 285.7 288.5 291.3 294.3 297.4 299.8 302.7 305 306.1 305.7 306 305.8 304.5 302.7 301.6 301.1 300 299 299.4 298.4 301.1 300.7 299.2 305.5 314.8 325.1 333.5 340.5 346.3 351.3 356.9 363.7 370.1 378.9 389 408.4 431.4 453.1 465.9 475.3 481.6 490 499.5 506.6 505.7 504.5 505.4 508.8 513.7 516.4 517.2 519.4 523.2 524.8 523.1 520.7 521.5 525 529.1 531.8 532.4 531.7 528.5 525.5 523 518.7 516 513.2 509.9 506.1 501.7 496.6 490.9 485 476.8 468.9 456.7 441.4 432.4 420.2 411.7 408.8 406.6 402.9 399 393.9 392.1 388.6 384.3 377.4 374 373.9 374.3 372.7 374.4 375.4 374.3 372.2 368.3 363.7 368 368.4 371.7 381.8 394.9 398.9 397.4 391.8 390.2 392.7 395.9 406.5 414.9 423.5 427.6 433.2 440.1 445.6 451.2 459.5 466.9 475.7 486.8 496.8 504.7 506.1 506.8 507.8 505.6 500.4 495.8 490.7 487.5 487.1 490.1 496.4 498.7
299.3 313.3 325.9 336.9 341.7 337.4 337.9 341.2 343.6 343.1 339.1 332.6 321.5 299.9 287.3 280.4 270.9 263.2 256.3 249.6 244.3 238.9 233.5 229.4 225.8 222.2 220.4 217 215 213 209.6 211.2 213.1 218 224.8 232.7 236.5 239.9 243 245.6 240.5 236.1 231.8 227.3 222.8 219.7 217.6 219 220.6 221.9 223.2 225 233.7 243.6 250.2 254.4 253.2 247.1 241.9 241.4 246.1 253.9 266.5 276.3 282.7 286 289 290.9 293.6 296.7 298.6 300.2 298.7 297.6 297.1 296.8 295.6 294.3 293.7 292.5 292.2 292.5 289.8 287.7 292.3 299.5 304.3 302.6 309 316.1 324.5 333.1 340.7 347.9 353.2 358.4 365.7 374.2 391.3 412.6 439.3 460.3 474.2 482.4 489 500.9 506 505.4 502.9 505.1 508 509.7 512 515.8 522.1 527.1 527.9 526.7 524.8 523.8 527.4 532.4 535.3 535.7 533.8 530.9 527.9 525.1 521.6 518.8 515.8 512.4 509.2 505.7 502.4 497.8 492.4 485 478.4 470.8 462.2 451.6 441 430.4 424.6 416.2 413.6 405.7 398.3 391 386.2 384.5 382.1 379.7 376.5 376.6 375.3 375.1 373.9 371.7 369 366.1 367 370.2 376.3 386.2 397 405.3 409.8 410.6 408.4 404.3 406 415 425.3 432.7 439.5 445.8 452.6 459.5 465.2 471.9 478.5 485 491 497.1 503.8 509 509.5 506.8 505.3 501.4 496.9 492.2 487.7 487.3 487.1 487.4 488.5 491.5
297.7 303.8 314 321.4 326.5 330.8 333 336.4 339.9 338.4 334.6 321.1 306.9 286.1 279.3 271.8 264 257.8 252.2 246.2 240.5 234.5 228.8 223.6 221.4 220.1 221.9 221.5 216.3 211.7 211 210.9 214.3 218 223.4 230.5 234.4 237.7 241.2 241.7 238.5 234.1 229.6 225.3 221.9 216.4 217.8 219.2 219.4 219.4 228.1 223.6 227.7 242.2 245.5 246.7 246.9 241.7 236.8 239.7 241.6 246.3 254.4 266.3 272.8 278 281.5 283.8 286.8 289.2 291 292.9 290.1 289.9 289.7 289.4 288.3 287.2 285.9 284.5 279.1 280.9 289.9 296.7 302.2 306.9 311.6 315.7 318.7 319.1 317.7 323.7 335.4 342.4 347.6 352 356.9 363.5 377.4 397 419.4 447.1 470.5 482.5 488.4 495.4 501.1 501.8 501.7 504.2 506.1 506.6 508.7 513.7 523.7 529.9 530.6 529.8 528.2 527.5 531 534.1 537.4 537.5 534.5 531.7 528.9 525.5 522.3 519.6 516.7 513.1 510.3 507.8 504.6 501.1 497.1 490.1 483.7 477.4 470.1 462.6 452.4 435.8 435.1 427.4 428.4 419.4 408.6 399.6 391.5 389.1 384.9 381.8 379 377.8 376.8 376.1 374.3 371.9 368.6 369.3 372.7 379.1 388.6 399.2 408.8 416.1 421.6 422.6 419.9 418.5 425 433.4 442 449.6 456.2 465.1 472.8 477.8 485.7 491.4 495.1 498.7 502.1 506.3 508.8 510.6 509.6 505.4 501.5 497.7 494.7 489.3 487.4 487.4 487.2 486.9 486.7 486.9
297.1 303.5 310.7 317.4 323.7 326.1 328.1 330.7 332.1 333.2 330.6 315.9 290.9 281 273.9 266.6 259.8 254.5 249.5 244.2 238.5 235 231.8 227.7 221.5 220.5 221 221.8 219 214.1 209.8 210.8 214.7 218.5 223.3 227.8 232.1 235.7 240.7 239 235.6 231.5 226.9 223.6 220.1 216.1 216.9 218.3 222.6 227.8 234.4 237.6 228.6 230.6 237.9 238.7 236.8 234.2 236.4 237.1 238.3 241.8 246.5 256.2 264.4 270.3 273.4 275.1 278.3 281.4 281.5 280 280.8 281.9 282 281 279.9 279 276.4 274.1 286 290.8 299.3 310.3 322.4 328.2 330.3 329.1 329.5 331.7 332.3 332.7 335.6 338.6 341.6 343.5 346.4 354.3 365.2 383.5 404.8 430.3 459.7 475.4 484.7 491.4 499 499.4 499.3 500.9 502.9 505.1 508.1 512.9 524.2 532.4 533.6 532.9 531.4 530.4 533 535.3 536.7 536.3 533.8 531.2 527.9 524.5 520.9 518.9 516 513 510.5 508.4 505 501.4 497.6 492.5 487.6 482.1 475.5 469.2 457.5 450.5 441.2 439.5 436.8 429.5 419.8 409.3 399.5 394 389.6 386 382.8 380.3 379.2 377.4 375.2 371.7 371 374.4 380.9 391.3 400.4 410.8 419.1 426.2 431.2 432.1 433.1 438.3 445.6 453.3 458 467.3 475.1 481.2 486.4 491.8 496.9 500.5 502 504.4 508.6 509.8 508.6 508 505.7 501.6 498.3 496.9 493.3 490.3 487.5 487.5 487.3 487.1 486.9 487.9
298.4 306 313.5 318.2 320 320.9 321.3 321.7 325.3 330.5 328.1 304.3 286.5 277.5 268.6 262.1 256.2 250.9 247.3 242.1 237.3 234 231.4 228.3 224 222.8 221.6 218.9 216.2 214.9 209.1 210.4 213.8 218.1 221.3 224.7 231 237.3 242 236.4 232.2 228.6 224.4 221.1 214.4 215 217.3 219.2 226.4 232.8 237.6 246.2 244.6 228.9 229.4 231.7 234.3 237.7 240.3 242.6 242.6 244.6 242.8 243.9 247.1 257.6 262 264.3 266.2 266.7 269.7 272.5 273.8 274.6 273.3 268.4 268.1 272.6 279.6 286.9 295.2 309.1 322.2 332.6 341.6 350.2 354.2 355.2 352 349.4 348.6 350.9 357.1 361.1 363.9 362.3 362.1 364 366.5 371.5 393 415.1 441 458.8 471.6 482.9 492.6 497.2 497.7 498.8 501 504.2 508.9 517 526.7 535.2 537 535.8 534.2 533.3 533.7 534.7 535 533.5 531.4 529 525.6 522.1 519.1 516.6 514.2 512.1 510.7 509 505.2 501.3 497.7 492.6 487.8 482.9 477.6 471.3 466.9 460.5 452.2 447.1 441.3 434.3 426.9 413.9 407.6 401.7 394.8 391.9 387.7 384.4 381.9 378.3 374.7 372.4 375.7 380.3 388.9 399 409 420.5 427.5 434.2 439.1 443 449.8 455.5 461.7 466.8 471.8 478.8 486.3 491.7 495.4 499.5 504.1 504.7 505.1 508.2 509.6 507.5 505.4 503.2 501.2 500.3 502.5 503.2 501.1 497.8 493.8 489.2 487.6 487.7 487.2 487.5
298 305.9 313.5 317.7 314.4 315.5 314 316.5 325.4 336.2 323 298.3 283.2 273.9 266.4 259.7 254.8 251 245.9 241.3 236.2 232.7 229.2 226.9 225.1 223.3 221.1 217.8 215.6 213.2 210.2 209.3 210.6 216.1 219.2 221.3 228.7 234.7 238.2 233.8 229.3 225.6 222.2 218.9 212.9 215 216.9 222 228.4 236.9 243.7 249.5 244.4 236.2 231.1 235.7 240.2 245.3 247.2 251.2 251.9 254.2 254.4 255.8 253.6 253.3 252.1 251.1 253.6 254.9 258.2 260.9 260.6 263.7 268.9 276.9 280.8 284.4 291.9 303 317.3 331.4 345.7 356.2 365.5 371.6 375.6 377.2 374.8 375.4 375.5 378.9 385.7 391.3 390.5 388.3 382.1 378.4 377.3 378.8 386 406.4 429.6 448.8 462.5 472.6 481.5 490.6 494.3 498.6 501.6 505.2 510 519 527.4 534.6 539.4 538 536.3 535.1 534.7 533.6 533.3 531.6 529.1 526.3 523.2 519.8 516.9 514.5 512.1 510.8 509.5 507.3 504.5 501.8 498.2 494.5 490.6 486 481.3 476.6 471.2 464.7 457.9 450.9 443.6 437 429 423 415.1 406.3 399.9 395.5 391.8 387.4 383.4 378.4 375.7 375 379.1 385.5 395.7 407.6 418 428.6 436.2 442.4 447.2 456 464.4 470 476 480.9 483.4 487.2 493.7 498.3 502.5 505.4 505.5 506.1 508.9 506.4 504.7 503.7 502.4 501.4 501.6 503.5 507.9 510.3 510.1 507.8 504.1 499.4 497.2 495.5 494.7 492.1
301 309.3 315.1 313.8 308.4 307.3 309.2 317.6 329.3 331.9 318.9 295.5 281.5 272.1 264.7 259 255.8 253 248.2 242.4 236.9 232.3 229.1 225.7 223.8 221.3 219.4 216.1 214.8 213 210.7 209.5 209.1 213.6 215.1 220.8 228.1 233 235.5 231.1 226.5 223.2 220 216.2 212.3 215 218.5 224.7 231.1 237.4 245 246.5 241.8 236.9 236.4 239.3 248.1 253 254.6 258.3 260.1 260.4 261.3 262 262.4 260 260.8 264.8 268.2 268.5 260.8 267.3 273.5 277.9 281 284.7 290.1 298.7 313.8 325.2 337.3 351.6 362.7 372.6 381.2 386.6 391.1 393.3 395.5 400.3 406.6 409.4 413.4 417.8 417.5 413.9 409.4 402.4 397.6 396.6 397.3 396.7 414.5 434.8 450.9 459.9 473 486.7 494.6 500.3 503.3 506.8 510.5 518.7 527 533.3 541.2 539.3 537.1 536.3 535.3 534.1 532.1 530.2 528.3 525.2 521.5 518 515.1 512.6 510.9 509.7 509.2 507.3 505.7 503.2 500.6 497.9 494.3 490.3 485.8 480.4 474.6 467.5 461.3 453.9 446 439.4 433.1 426 418.8 410.9 402.4 396.9 394 390.6 386.3 380.5 377.1 377.1 382.1 389.3 401.3 414.6 427.2 436.1 441.7 447.7 457.7 469 475.8 482.2 488.2 490.9 491.5 494.4 498.2 502.5 504.8 505.6 506.9 508.5 506.2 503.2 502.5 501.6 502.1 503.9 508.2 513.9 516.8 517.6 516.4 513.9 510.7 506.8 505.8 502.6 498.4 494.7
304.6 312.9 313.7 308.3 300.8 303.5 306.8 320.3 328.6 329.8 314.2 292.4 279.9 271.5 265.5 262.2 258.9 254.4 248.6 242.8 239.4 236 232.4 228.6 223.5 220.2 218 216.7 216.8 215.6 212.2 209.1 208.4 208.8 211.8 220.2 227.8 232.4 231.3 228.3 224 220.4 217.2 211.3 213 214.9 219.7 225.5 230.7 238.6 245.2 243.1 236.4 233 237.2 251.3 256.4 258.8 260.9 265.3 270 270.9 268.5 268.2 269.3 267.8 267.4 264.2 272.7 274.6 270.2 273.2 281.4 287.2 292.1 298.1 303 315.5 331.1 344.1 355.3 366 376.6 384.4 392.3 397.8 400.6 405.1 413.5 426.4 431.7 433.4 436 443.4 445.1 441.6 439.2 432.3 425.8 422 421.7 424.6 431 440.3 454.2 466.1 479.4 490.2 496.2 501.3 504.7 507.3 512.1 518.2 526.2 532.3 541.1 540 537.9 537.2 536.1 534 531.5 529.2 527.3 524.7 520.7 516.8 513.5 510.4 508.1 507.4 507 505.1 505 503.7 502 499.8 496.7 492.9 488.9 484 478.1 471.5 464.2 455.5 447.9 442.6 437.1 431 423.7 413.8 404 397.4 394.3 390.9 387.6 383.5 380.1 379.5 385.3 394.2 407.9 422.2 433 440.3 448.3 457 470 479.9 487.7 495.5 498.4 499.6 499.7 499.2 502.3 502.5 501.5 502 504.9 505.8 503.1 501 501.1 502.2 506.5 514.3 519.6 523.3 524.6 521.8 518.4 515.2 512.6 509.9 508.8 506.4 502.8 498.5
310.3 314.3 311.5 302.1 295.7 298.9 310.6 321.3 331.3 326.7 315.9 291.1 279.2 271.3 264.9 261.7 258.3 253.7 248.4 243.9 241.5 239.9 238.6 232.6 224.7 219.8 217.3 215.5 216.7 217.5 216.6 214.6 209.2 208.5 209.3 219.1 225.4 227.3 226 223.8 221.3 217.7 213.1 210.9 213.1 216.8 221.5 226.2 233.4 239.4 244.9 241.1 235.3 236.8 244.4 257.5 265.2 266.9 270.8 277.4 281.4 282.5 282.2 280.9 278.9 275.3 273.3 275.3 275.5 280.5 275.4 276.2 288.7 296.3 305.6 314 324.5 335.7 347.2 359.5 368.8 377 387.1 396.6 404.6 408.9 411.2 418.7 430.6 440.5 446.2 449.6 452.3 454.9 459.3 463 465 465.2 460.1 455.5 451.4 450.8 453.9 462.8 473.3 483.9 489.1 493.2 496.2 501.2 505.6 508.1 512.6 518.5 524.3 531.7 538.4 540.3 538.7 537.1 535.7 533.6 530.5 527.6 525.2 523.2 520.2 516.7 513 509.8 508.5 507.5 503.7 502.3 501.6 498.8 499 498.6 496.5 493.4 489.4 484.7 479.6 472.8 465.6 458.2 450.4 444.3 439 431.7 423.4 414.3 405.7 398.3 392.8 389.9 389.1 387.6 384.1 382.8 387.9 400.5 415 426.5 438.4 447.2 454.7 467.6 480.6 492.8 499.4 500.8 503.9 505.3 503.7 502.7 500 499.2 496.8 496.3 497.9 499.6 499 499.9 503.1 509.4 515.8 521.7 526.5 528.9 530.5 527.5 520.8 515.6 511 508.4 505.9 504 502.4 499.7
313 313.5 308.5 299 292.3 301.6 310.8 322.9 329.7 331.1 320.2 290.7 278.6 270.2 263.1 259.7 256.8 253.2 248.7 245 243.7 243.5 240.4 235.5 229.3 222.3 216.3 214.6 214.5 215.1 216.5 217.7 216 207.7 208.6 220.6 223.8 223.2 221.1 219.9 217.7 213.4 209.9 211.3 212.7 217.6 223.7 229.4 234.4 241 241.5 238 236.5 241 255.3 266 273.9 277.4 280.6 286.9 289.6 290.8 291.4 292.2 292.4 290.2 285.1 283.7 283.3 286.8 288.4 288.5 295 307.5 318.9 331 341.5 351.2 360.4 370.8 379.6 388.4 398.5 408.1 415.1 420 424.1 432.2 442.7 451.2 457.5 461.2 462.4 464.3 467.7 472.1 475.8 478.1 480.9 483.6 486.4 485.6 486.6 491.4 493.6 493.8 494.2 496.8 498.3 502 505.1 508.1 511.8 516.3 521.5 529.5 537.2 541.1 539.5 538 535.4 533 529.5 526.5 523.7 520.9 519.1 516.7 512.8 509.7 506.7 505.9 502.9 498.6 494 492.2 490.1 491.3 492.7 490.6 488.2 483.9 478.6 472.9 466.2 458.5 452.2 442.5 436.6 431.3 424.3 415.1 405.7 397.9 390.9 386.8 387.9 388.1 386.9 386 391.2 404.4 418.3 430.8 443 453 462.4 477.1 490.2 502.2 505.8 505.3 504.4 507.7 507 503.5 498.6 492.9 491.7 492.2 492.5 493.6 496 501.1 508.8 517.1 522.8 527 530 531.6 530.9 528.8 524.1 517.8 511.5 506.7 502.8 500.8 499.1 498.1
308.9 308.8 304.2 296.8 291 301.3 306.9 324.6 332.1 331.2 319.8 293.5 277 269.6 262.6 258.2 255.7 252.7 248.5 246.2 245.8 244.2 239.5 234.9 229.1 224.5 217.7 214.1 212.9 212.4 213.2 214.1 214.2 207.6 208.6 218 222.1 220.5 217.4 216 212.9 209.4 210.1 212.3 215.9 220.8 227.2 232.3 237.4 242.1 238.4 236.2 238.3 246.5 260.3 272.4 280.6 284.3 288.2 293.6 297.5 299.5 300.8 301.3 301.3 300.7 299 296.7 294 295.9 296.4 297.4 296.4 312.1 322.5 338.4 351 361.4 371 379.6 388.4 398.2 408.5 415.7 423.7 430.9 434.5 443.5 451.7 459.1 464.7 467.5 469 471.8 475.4 479.3 482.3 485.5 489.6 493.7 498.8 503.8 501.1 500.8 499.3 498.2 498.6 500.1 501.3 502 504.4 506.6 509.1 513.2 518.4 525.4 535.8 541.6 540.2 538.6 536 533 529.9 526.5 522.9 519.9 516.6 514.7 511.6 508.9 505.5 496.2 497.5 493.8 481.1 483.4 481.4 481.8 486.1 486.1 484.2 480.9 476.3 469.6 463.7 457.9 450 441.6 434.3 428.7 422.7 413.4 405.8 396.3 390.8 384.7 384.9 386.9 387.9 388 393.3 405.4 420.1 434.6 447.1 458.2 471.2 486.6 499.6 506.4 507.5 505.4 504.9 504.8 504.2 500.9 496.1 490.4 489.2 489.6 489.7 491.5 496.1 505.8 514.6 521.7 527.7 530.8 531.9 531.7 530.7 528.4 524.7 518.1 512.8 508.3 504.9 501.4 498.9 497.5
301.8 299.3 295.7 292.5 289.7 296.5 309.7 321.1 331.1 328.7 315.2 288.5 276.6 268.5 262.2 257.3 254.3 251.6 247.8 245.4 244.2 242.4 237.9 232.9 228.8 223.7 218.1 214.5 212.5 211.7 210.8 211.9 211.1 206.5 207.2 212.9 217.2 216.8 214.3 211 209 208.8 217.8 219.4 221.6 227.4 233.1 238.3 242.9 240 237.1 237.9 243.1 255.9 267.4 277.6 283.1 289.3 294.1 298.1 303.2 305.7 307.6 308.6 309.6 308.7 309.1 307.2 302.4 303.2 304.2 304.5 301 311.9 321.3 342.9 357.2 369.3 379 387.2 395.3 405.4 416.5 424 431.3 438.3 443.5 451.8 457.9 465.1 469.3 471.8 475 478.7 481.5 484.3 487.1 491.7 496.1 498.5 503.7 509.5 506.7 503.6 503 502.2 501.9 501.9 502.1 501.3 502.4 503.9 506 510.7 514.3 520.7 533 539.4 540.6 538.8 536.4 533.3 530.6 527.4 523.7 519.6 515.6 512.4 508 505.7 504.5 498.4 486.5 486.1 483.2 476.6 474.9 475.1 478.3 479.1 478.6 475.9 470.7 463.8 458.4 454.1 448.6 442.4 435.7 427.6 418.7 412.6 404.6 394.9 389 383.5 380.2 383.5 385.5 388.2 393.8 407 422.8 437.3 451.1 462.2 479 495.6 505.1 506.2 504.2 501.4 502 500.9 498.7 494.3 491.5 487.8 487.1 487.1 484.9 491.3 498.9 508.7 518.3 524.6 529.2 530.3 530.8 530.2 528.3 526 523 518.1 513.5 509.3 505.5 502.6 500 497.7
294.6 289.8 285.1 283.9 287.6 294.6 306.3 319.7 326.3 323.1 308.2 284.7 274.9 267.8 261.6 255.8 251.6 247.6 245.4 242.7 241.5 239.9 235.7 230.9 227.1 222.5 216.9 214.9 212.3 211.9 213.2 216.9 216.9 208.5 206.2 207 210.3 213.2 211.5 206.9 207.6 217.8 222.5 226.2 229.8 235.2 240.5 245.1 242.9 238.4 239.2 240.5 247.4 258.3 273 281.8 286.4 292.7 299.1 301.9 305.6 309.5 312.7 314.6 315.9 317.8 317.9 315.2 312.7 312 312.4 312.6 309.7 314.7 333.4 350.4 363.5 376.6 386.4 395.1 403.9 412.4 424.2 431.6 436.9 443.4 452.4 458.3 462.2 469.1 473.2 475.2 479.3 483.4 485.9 488.4 491.9 495.9 497.8 497.9 503.7 508 506.8 505.2 504.7 504.7 504 503.1 502 500.2 499.6 499.7 502 505.8 509.7 516.3 528.3 536.5 539.3 538.1 535.7 533.5 530.8 527.8 523.8 519.6 515.4 512.2 508.2 503.9 498.1 492.9 490.1 482 472 470.6 467.8 469.8 470 468.5 469.2 468.3 463.9 458.3 453.9 448.9 445.4 441.2 436.1 429.1 422.4 415.1 404.5 393.4 384.7 380.6 377.4 378.8 380.8 386.6 395.1 408.7 425.6 441.4 453.7 468.1 486.8 501.5 504.7 503 499.8 497 498.1 497 493.9 490.2 487.9 487.2 486.4 483.7 483.2 489 500.5 509.3 518.6 523.9 526.6 527 527.7 527 525 522.6 520.1 517.6 513.7 510.2 506.4 503.8 499.8 496.5
287.6 281.4 275 279 289.3 296.3 305.4 321.3 329.8 322.3 299.8 279.1 273.3 265.8 260.2 255.3 250.3 246.4 241.6 238.6 235.3 232.2 232.8 228.7 225.1 220.7 216.5 214.9 213.5 213.4 216.9 218.2 217.9 215.2 207.3 205.1 206.1 208.5 209.5 206.9 213.4 222.2 227.2 230.6 234.4 241.4 246.4 248.5 240.8 240.4 241.7 244.1 251.5 261.6 271.1 283.4 290 295 300.9 305 308.9 313.1 316.2 319.4 323.8 326.2 325.9 322.1 320.6 319.9 320.6 320 315.8 323 340.6 357.3 371.5 383.5 394.1 403.3 413.3 422.6 430.3 437.3 442.5 450.5 459.4 463.6 466.5 470.8 476.3 477.7 481.8 484.8 488.2 492.5 496.9 499.3 499 497.2 499.2 504 505.6 505.6 506.2 504.8 503.3 501.5 499.9 498 494.6 494.7 495.4 496.3 502.1 510.5 522 531.2 535.1 535.5 534.7 532.9 530.9 527.6 523.1 519 515.3 511.9 508.3 505.7 499.3 484.6 472.9 478.7 474 472.3 465.2 463 463.1 462.1 459.8 456.6 456.3 451.4 447.9 444.7 439.9 436.9 433.8 429.4 423.2 416.3 405.5 389.9 381.5 377.6 375 376.8 381.9 388.4 395.8 409.9 428 443.2 455.5 473.6 491.5 503 502.8 499.5 495.5 493.3 493.2 491.8 489.4 487.3 485.4 484.6 485.1 483.7 479.7 487.1 500.4 509.4 516.2 520.2 522 522.3 523.6 522.9 521.3 519.7 517.9 515.5 513.5 512.7 510 505.3 498.5 493.4
282.1 272.7 267.3 280.6 287 294.9 308.3 321.5 325.7 310.6 287.7 276.9 271.1 265.7 259.8 254.6 250.7 247.1 243.8 241.4 237.8 233.8 228 224.4 220.7 218.8 216.8 214.6 213.4 214.3 218.3 219.3 216.1 213.8 212.6 211.3 205.5 204.5 204.9 211.6 220.6 228.1 232.9 236.5 240.9 247.9 250.3 246.5 240.2 241.8 243.8 248.1 257.4 264.7 270.8 279.8 289.7 294.1 299 305.3 310.8 315.8 320.5 324.8 329.9 332.9 332.7 329.8 328.9 326.9 327.1 328.2 319.9 326.3 342.6 362.4 378.8 390.3 401 410.9 423.4 431.5 436.2 441.9 447.9 456.3 464.4 467.7 471.9 474.2 476.2 477.6 482 485 489.8 495.8 500.1 500.9 497.3 497.1 497.1 501.2 504.4 507 505.8 504.7 501.6 497.7 495.3 494 489.8 487.9 487.7 486.4 492.6 503.4 514.7 523.6 527.9 530.1 530.6 530 528.6 525.9 522.2 518.5 514.7 511.9 508.8 506.7 503.7 499.8 493.7 485.6 474.3 457.7 459.8 457.7 444.2 453.8 455 451.8 448.5 444.5 442.4 438 433.6 431.2 427.9 425.9 421.3 415.1 405.9 392.1 380.2 375.5 372.5 375.5 381.9 389.1 396 407 428.1 445.6 459.5 477.1 493 499.9 498.2 494.3 491.1 488.5 487.1 484.6 483.1 481.8 481.6 481.3 481.1 480 471.3 487.3 499.2 506.6 511.2 514.8 516.3 516.9 518.2 518.2 517.6 517.3 516.3 515.1 516.4 516 513.6 509.1 499.5 487.1
275.2 267.4 266.5 281 289.2 296.1 304.1 309.7 304.2 289.1 275.6 272.4 269.9 265.8 260.5 254.5 251.9 249.2 246.8 244 239.1 232.9 227.8 228.3 226 221.1 215.8 213.9 212 212.8 214.5 215.1 213.8 211.5 209.7 209.6 208.5 205.1 205.2 218 224.3 232.1 238.5 243.8 251.3 252.1 247.5 242.3 241 243.3 246.1 249.4 259.9 266.2 271.1 274.6 282.5 293.8 301.8 308.6 314.5 318.9 324 330 334.7 338.5 340 337.3 337.3 337 335.4 333.3 333.5 341.4 356.3 369.9 385.5 397.6 408.1 420.1 431.9 438.7 441.9 445.9 453.8 460.8 466.8 472 474.7 475.6 475.6 477.3 480.8 484.5 490.3 496.7 500.5 499.7 497.7 497.2 497.1 500.3 503 505.1 505.1 503.3 498.8 493.4 488.9 486.6 485.5 481.8 479.8 478.6 484.8 494.7 506.2 515.2 521.9 523.8 524.8 525.7 525.2 523.1 520.3 517.1 513.4 511.5 509.7 507.9 505.8 502.1 497.9 493.6 479.7 484.2 478.2 470.1 462.8 450.3 435.7 434.8 432.9 426.9 422.8 421.8 419.1 423.2 419.9 419.4 416.6 410.6 403.8 394.5 379.9 374.6 370.7 373.8 380.1 387.3 393.8 409.4 428.8 446.7 463.9 477.5 490.6 496.1 492.5 488.7 485.4 482.8 480.9 476.8 474.7 472.3 472.5 472.9 475.4 473 468.5 486.6 497 502.2 504.7 507.7 509.7 511.3 512.8 515.3 515.3 516.3 515.4 516.1 518.8 518.4 517 512.4 500.9 480.9
267.8 263 264.6 278.1 281 284.6 287.6 283.5 276.7 272 270.1 268.8 267.8 265.5 260.2 255.1 253.9 251.6 247.7 243 238.8 232.5 226.5 229.4 228.2 223.2 216.4 213.5 211.9 210.5 210.6 210.1 209.2 208.3 206.7 205.8 205.3 204.5 216.5 222.2 229.8 239.5 244.3 251.2 254.3 250.1 243.3 240.8 241.8 244.6 249.8 252.8 255.2 260.2 266.1 276.5 283.6 293.8 303.7 312.2 317.9 322.9 326.9 333.6 341.5 346.4 347.5 344.7 345.3 345.1 344.5 346.5 354.6 367.3 375.3 385.9 395.4 405.1 416.6 429.3 439 445.1 447.8 451.4 459.9 465.2 470.1 475.4 475.9 475.5 474.7 478 481.6 485.4 491.1 496.5 498.7 498.4 497.2 497.6 497.4 501.6 504.2 505.6 504.8 500.4 495.2 487.5 482 479.7 476.7 473.6 472.3 470.1 478.5 487.5 498.9 508.5 516.1 517.9 518.4 520.2 520.9 519.8 517.7 515.4 513 511.3 510.5 508.6 506.4 503.3 500.2 496.8 493.8 489.8 484.8 479.3 471.9 466.2 459.5 453.1 447.7 442.9 444.2 441.4 430.1 405.8 414 414.2 412.1 407.3 401 393.7 382.1 374.6 370 370.8 377.8 383.8 391.5 410.5 430.8 448.2 464.4 476.3 487.5 492.2 488.4 485.3 481.5 477.8 475.3 471.8 467.9 466.3 464.9 465.1 465.5 463.3 468.6 486.4 492.9 496.3 497.8 500.6 502.9 505.1 508.2 510.3 513.9 515.9 515.2 515.4 518 519.3 519.2 515.5 506.2 490.7
260.2 257.5 263.7 279.5 268.2 266.2 266.6 268 267.2 266.5 266.4 267 267.9 266.4 261.1 254.3 252.6 249.7 245.4 239.8 235.2 231.5 225.5 225.4 226.5 223.7 217.3 213.1 212.1 210.2 207.2 206.2 205.4 204.8 204.5 204.4 204.6 210.1 221.4 227.5 235.6 244 251.7 256.9 254.1 247 242.7 243.6 244.5 252.6 256.5 258.6 264.2 266.6 274.9 281.7 288.9 299.6 310.3 318.5 325 330.1 335.6 342.5 350.2 354.8 355.1 353.6 354.2 354.4 354.4 361.4 371.3 382.4 391 399.2 406.7 415 425.8 437.6 444.6 449.7 451.9 455.3 463.2 469 475 477.3 475.8 473.9 474.6 478.5 482.2 486.5 491.2 495.3 496.5 497.1 497.5 497.3 499.3 502 504.1 506.3 504.7 498.5 490.9 481.8 474.1 470.2 464.1 464.2 463.8 468.2 473.8 483.2 494.4 504.1 509.9 511.2 512.6 514 514.5 514.7 514.6 513.3 511.6 511.3 510.7 508.6 506.2 503.7 501.3 498.4 494.1 489 483.4 477.3 471.9 463.3 458.3 454.6 450.7 448.1 445.7 442.2 437.4 422.1 402.6 400.4 403.3 402.9 397.6 390.7 380.3 373.5 370.3 365.9 374.7 381 391.1 411.1 431 450.2 463.8 475.3 484.5 488.6 487.1 483.2 478.2 473.8 469.9 466.2 464.3 461.5 457.9 457.2 458.3 460 474 484.1 488.1 490.2 491.5 492.9 496.3 499.3 502.4 506.5 509.9 513 514.7 516.2 517.5 519 519.7 515.9 510 501.9
254.8 257.3 262 262.9 262.9 261.7 261 260.7 264.1 265.5 267.3 270.3 271.4 268.4 262.8 255.2 248.8 245 240.7 236.2 232.3 229.7 224.9 220.6 221.2 220 216.5 214.1 211.5 210.2 207.7 204.5 203.9 203.9 202.4 201.7 213.8 220.8 224.3 231.6 240 246.6 254.7 257.8 250.8 244.8 246.5 249.4 258 264.1 267.1 267.9 272.6 276.9 281.8 287.7 294.1 304 316.7 326.5 333.6 339.3 347.4 354.3 359.6 363.5 365 364.3 365 366 368.7 376 383.6 393.9 401.9 409.6 416.2 425.5 435.2 443.1 449.4 453.1 454 457.9 465.3 471 476.1 476.9 475 471.9 474.1 478.1 481.8 486 490.8 494.6 495.1 495.9 496.7 497.2 499.5 501.8 503 502.8 500.6 494.9 486.4 476.9 467.5 460.5 456.1 455.7 456.9 464 468.9 480.3 491.7 499.2 503.2 505.8 507.9 509.4 510.1 510.7 510.8 510.7 510.2 509.7 508.7 506.1 503.6 500.9 498.2 495.1 490.3 484.6 479.4 472.3 466 461.1 453.1 451.5 448.7 447.4 446.3 443 437.2 428.9 419.5 395 387.1 395 391.6 386.1 379.6 371.8 368.5 364.3 372.2 379.3 390.1 411.4 432.4 450.6 464.1 474 481.7 484.8 482 478.6 474.6 470.6 466.2 460.2 458.6 456.9 451.6 449.3 451.2 464.2 474.6 479.3 482.3 483.9 485.5 487.2 489.8 493.8 497.7 501.5 506.2 508.6 511.2 513.1 516 517.7 518.3 514.6 509.4 501.7
253.3 254.5 265 258.9 256.6 256.5 256.9 261.3 265.3 269.7 272.6 273.2 272 269.3 263.9 256.5 248.5 239.5 236.9 233.4 229.1 227.6 224.3 219.3 217 216.4 214.3 213.2 210.5 209.3 208 203.6 203.5 201.6 207.7 213.7 219.4 224.9 227.1 234.5 242.7 250.1 256.7 256.7 247.9 247.5 251.3 262.1 269.3 277.2 279.9 281.1 283.5 286.8 289.7 296.7 302.2 309.3 321.9 333.3 341.5 348.7 357.1 363.7 368 371.3 373.4 375.9 379.1 381.5 382.4 387 395.2 403.9 411 418 424.8 434.1 441.9 447.2 451 453.1 455.6 459.6 465.4 469.8 471.1 474 473.3 470.3 473.9 477.2 480.2 484.7 489.5 493.4 493.6 494.5 495.3 496.8 498.7 501.3 502.3 500 495.6 488.7 480.8 471.3 461.5 451.7 447.1 432.2 452 459.3 464.5 476.1 488.4 496 499.2 500 502.6 504.9 505.9 506.5 506.1 505.9 505.1 504.5 503 499.8 496.5 494 490.4 485.9 480.8 476.4 471.1 464.8 459.1 454.3 446.6 446.3 443.8 443.6 443 439.8 435.5 427 419.1 409.1 396.3 379.9 381.2 381.8 375.7 370.1 366.8 361.6 370 378 388.7 410.8 434.7 454.1 464.5 474.8 479.7 479.8 478 473.9 469.4 465.2 460.4 454.7 450.2 447.7 445.1 445.4 457.3 468.7 472.3 472.3 474.5 476.5 478.4 480.3 483.4 487.9 493.4 497.4 500.6 504.6 508.4 510.3 512.2 513 513.9 512 506.4 497.3
256.1 248.6 255.5 258.9 254.2 252.2 255.8 260.5 265.4 270.4 273.7 273 270.5 266.3 261.7 255.6 248.9 240.5 232.9 229.8 226.7 224.4 222.7 218.6 216.1 214.1 213 212.3 210.4 207.7 203.5 203.3 201.6 203.1 208.4 214.4 221.2 224.8 227.7 234.8 241.8 249.1 255.6 253.5 248.6 251.2 262.9 272.3 281.4 287.2 287.9 290.7 293.2 295.3 302.1 307 313.1 319.6 329.2 339.7 350.1 358.1 365.6 372.1 375 377.5 379.9 384.2 386.7 391.2 393.9 399.1 405.7 412.6 419.3 424.2 433.5 442.8 447.5 450.4 453.2 456 458.2 461.3 463.3 467.6 470.3 469.3 468.7 468.2 471.8 474.1 477.7 482.7 487.2 491.4 491.4 493.1 493.7 495.6 497.8 500 500.5 497 491.4 483.2 473.6 462.1 450.3 443 434.5 434.2 445 452.3 458.1 471.4 484.4 491.4 494.8 495.7 497.7 499.2 500.4 500.4 500.2 499.2 497.7 496 494 489.7 486 480.8 476.3 472.3 468.2 464.4 460.2 454.7 451 446.3 442.6 436.1 436.3 437.8 437.3 433 431 426.3 418.2 409.5 398.3 387.3 375.5 370 370.2 366.3 363.4 359.1 368.2 377 386.8 407.7 434.4 456.8 464.6 472.8 478.6 476.4 473.6 469.4 465.4 461.3 456.2 450 442.4 440.2 426.4 447.1 456.5 465.5 465.9 465.7 466.6 468.1 469.9 471.2 477.7 483.8 488.7 492.4 497.7 502.2 505.8 507.2 508.8 509.5 508.8 507.8 503.4 489.1
256.7 251.5 247.7 251.7 252.1 250.4 253 256.8 260.5 263.4 266.3 269 267.9 264.7 260 253.9 246.7 239.3 232.4 227.9 226.1 224.5 222.4 218.2 214.8 213.5 211.8 211.7 209.5 202.7 202.4 202.9 201 203.1 207.2 215.4 218.3 222.1 227.6 233.3 240.6 248.5 255.4 250 248.5 255.9 266.1 280.2 288.6 291.2 293 296.6 301.9 306.7 313 316.1 321.8 328.9 336.7 347.7 358 367.2 373.4 378.6 381.5 382.5 385.2 389.8 394 398.4 401.9 407.8 413.6 419.4 424.1 432.1 442.1 449.1 451.8 453.8 456.8 461.1 462.7 460.7 458.5 462.3 465.4 464.7 463.8 465.4 467.8 469.8 474.1 480 485.6 489.2 489.4 490.2 490.9 493.1 496 497.5 497.3 493.1 486.6 477.9 467 453.1 440.7 431.5 416.7 431.2 437.4 445 451.9 466.1 478.5 486.2 487.8 488.6 489.4 490.6 492.2 492.4 491.8 489.4 486.6 483.4 480.7 476.9 471.6 467.2 462.7 458.8 455.6 451.5 448.4 445.5 441.3 438.6 435.9 427.9 427.8 430.3 430.7 426.9 424 421.2 416 407.1 395.3 385.1 375.4 368.9 365 363.8 361.2 357.1 365.9 375.2 385.4 404.5 432.9 456.6 466.9 470.7 477.1 473 468.2 464.1 459.8 456.2 450.3 444.4 438.5 432.9 433.1 450.5 455.8 457.9 458.3 458.9 459.2 460 458.7 465 474.4 481.1 485.6 488.9 494.1 499.1 503.3 505.4 506.1 506 505.4 504 498.4 476.5
253.4 250.7 243 246.2 246.6 244 248.7 251.9 254.6 256.1 257.7 260.8 263.3 261.5 256.3 250.3 242.5 235.3 230.3 226.6 225.6 227.3 224.3 219.7 213.7 210.7 209.4 208.3 206.6 200.1 201.7 202.1 202.6 203.9 207.9 213.6 217.2 221 227.1 232.1 239.6 247.6 253 247.1 249.4 263.1 276 289 290.5 293.1 297.9 302.9 309.6 316.2 322.5 326.9 329.7 336.6 344.7 355.3 366 372.7 377.5 383.2 384.7 385.8 390.1 393.9 398.3 403.6 409.8 414.6 419.3 423.3 428.9 438.6 448.5 453.3 455.9 457.5 460.7 462.7 461.9 457.1 453.1 455.3 460.2 458.1 455.4 460.4 462.8 465.1 470.1 476.7 482.5 485.1 486.6 486.6 487.8 489.9 491.7 492.3 493.9 489.7 482.3 474.1 463.4 447.5 431.1 424 404.9 424.6 430.1 434.1 447.2 460.9 471.2 477.5 476.9 481.5 480.9 480.9 480.9 480.4 478.8 476.4 473.5 470.2 466.9 462.5 458.6 454.8 450.5 447.2 444.1 440.5 436.8 435.4 431.8 428.3 424.3 413.4 418 421.6 421.9 420.5 415.6 413.2 409.9 402.4 392 382.6 373.2 366.9 363.6 361.6 358.9 355.6 365.1 374.1 383.9 403.5 430.9 455.8 468.8 470.3 472.6 469.5 462.8 458.1 453.9 449.4 443.3 438.1 433.5 422.1 434.5 449.8 454.2 452.1 450.9 451.4 452.1 447.8 449.5 460.6 469.5 476.7 480 485.4 491.6 496.3 500.6 504.2 506.1 507.9 506.9 503.5 492.5 469.7
254.2 248.6 243.2 239.5 239.4 237.3 241.6 244.3 247.3 248.3 249.6 250.6 253.4 253.7 249.7 243.4 235.2 230.4 225.8 226.2 227.9 228.5 225.6 221 216 210 207.3 205.7 200.2 200.7 201.1 204.6 207.8 206.8 209.5 215.1 217.6 217.9 224.8 229.7 238.4 247 250 245.3 252.2 266 283.5 291.2 293 298.3 303.9 310.3 316.3 321.9 328 333.2 336.9 344 352.9 363 372.8 377.7 380.7 384.9 386.6 389.5 393.6 399.2 404.8 410.1 415.4 420.3 423.4 426.6 434 444.1 452.6 457.6 460.9 461.9 461.8 459.2 457.4 451.5 447 448.2 449.9 450.4 451.5 455.5 455.9 460.1 465.9 472.2 476.3 479.7 481.6 482.1 483.7 485.9 487.2 488.2 488.3 484.8 478.7 471.2 460.8 447 425.9 415.6 405.9 416.9 422.1 426.3 441.1 454.1 461.2 466.1 466.8 470.2 470.4 468.9 468.4 468 468 466.4 462 457.9 455.3 450.5 445.7 441.7 440.2 436.7 431 427.1 424.1 422.6 419.9 416.2 412.5 403.3 406.1 407 408.8 410.2 406.3 403.9 399.8 394.2 387.8 380.9 373.3 366.3 361.8 357.9 357.3 353.9 363.5 373.4 385 403.6 429.9 454.9 467.1 468.6 468.7 466.2 458.9 452.9 447 441.6 436.2 431.3 426.8 412.9 436.1 445 448.4 447.7 445.2 443.9 445 440.3 449.5 458.9 467.3 464.9 481.1 488.6 494.2 499.7 503.7 506.1 508.8 511 509.7 506.9 498.3 473
254.1 249.6 243.4 237.9 234.3 232.3 232.2 234.6 239.3 241 241.7 243.7 243.3 242.3 239.7 234.5 228.9 224.7 226.1 227.3 229.1 227.8 224.7 221.4 216.1 211 207.7 205 200.1 201.3 203.4 204.7 207.1 208.4 210.3 216.6 219.2 217.9 222.1 226.1 234.2 244.1 244.4 245.5 255.7 268.4 287.3 294.8 304.4 310.2 310.8 315.4 320.8 325.9 332.3 337.8 342 348.9 358.6 368.8 377 382.9 385.7 389.5 392.8 394.9 399.7 404.7 409.8 414.7 419.5 423.5 424.6 429.6 437.9 447.1 455.5 459.5 461.4 460.7 457.8 454.9 451.6 443.8 440.2 442.2 442.5 442.1 444.3 448.4 449.6 454.4 461.6 468.2 471.8 473.4 474.7 474.8 477.7 480.4 482.5 483.3 481.7 478.7 473 467 458.3 445.2 428.1 409.9 396.4 407.7 412.6 415.9 432.1 444.3 449.9 453.5 455.1 457.2 457.5 457.7 458 457.6 455.2 451.1 447.7 445.9 442.5 437.7 434.9 432.3 431.1 425.9 418.8 415.6 414.2 413 408.9 405.5 401.4 395.3 393.4 395.4 395.1 395.5 395.4 393 389.2 385.3 381.3 377 373.1 369.1 363.7 354.4 355.5 353.5 363.1 372.4 386.2 405.8 429.3 454.7 465.7 466.4 465.3 461.9 455.5 448.7 441.7 435.8 430 425 421.4 410.6 436.5 440 440.5 440.6 438.3 436.7 437.1 433.6 446 452.3 452.8 468.6 483.9 490.4 497.7 503.6 507.7 509.5 511 511.4 509.8 507.9 503.1 475.6
249.2 246.5 244.2 239.9 236.3 234.8 234.4 232.5 229.9 233.4 236 237.6 236 233.2 230.8 228.2 225.2 221.5 224.4 227.1 227.8 225.9 223.3 219.1 214.7 210.3 208.9 203.3 199 201.1 201.2 201.9 204.1 206.1 209.2 215.1 216.4 220.6 221.7 223.8 233.4 239.7 241.1 246.4 256.2 266.9 286.9 296.6 308 317.1 315.8 318 323.4 329.3 334.9 339.1 343.9 352.5 362.9 372.9 381.3 387.8 390.7 394.5 397.6 399.9 403.1 408.1 412.4 417.2 420.8 421.7 422.9 430.2 439.3 446.4 452 453.1 454.2 452.7 455.2 453 445.6 437.4 430.6 432.6 435.2 433.9 435.9 438.3 440.3 448.5 456.7 463 466.5 467.7 468.2 469.5 472.4 475.7 478.4 477.3 475.5 472.4 468.5 462.9 454.4 443.8 430.1 413.9 396.3 390.7 402 406.5 421.4 431.9 437.5 439.9 442.7 444.9 445.2 445.9 446.6 446.2 444.6 442.3 439.4 436.3 433 429.8 427.7 424.9 419.2 414.8 409.2 407.8 406.8 405.9 404.6 398.6 390.4 388.3 384 384.5 383.9 383.8 385.6 383.5 380.8 376.4 374.1 372.4 370 368.1 364.9 354.4 353.1 351.4 360.6 370.3 387 408.9 432 453.8 464.7 463 462.2 459.7 453.6 445.7 438.5 432.5 424.8 419.6 416.5 406.1 430.6 434.6 433.5 432.3 431.6 431.2 430.7 429.2 435.9 444.4 459.4 477.1 485.2 492.8 499.8 505.7 510.2 511.7 511.2 510.3 508.4 506.3 503.2 484
247.9 248.8 246.9 244.7 242.1 239 234.3 228.1 221.8 224.1 230.8 230.1 229.3 226 222 222.6 221.7 218.1 220.3 221 224.5 223.4 220.2 215 210.9 208 207.2 204.2 199.1 200.5 200.6 201.8 202.5 203.1 207.4 211.4 214.5 221.3 220.9 222.3 230.6 233.4 241.7 247.1 253.5 265.3 279.2 294 305.5 316.1 316.3 318.4 322.9 329.9 334.3 337.1 345.1 355 364.7 375 383.9 391.1 393.5 396.5 398.8 401.1 404 408.3 411.3 414.1 417.5 414.3 417.9 427.7 436.6 441.4 444.6 445.2 446.5 449.3 453.2 450.5 445 438.5 427.7 422.3 426.3 423 426.8 425.5 431.4 440.2 447.3 452.7 459.7 460.7 460.8 464.3 466.5 470.4 471.9 470.8 469.5 466.3 462.6 457.3 451.2 442.4 429.7 418.1 403.9 383.5 383.3 392.4 405.8 418.2 424.7 428.4 429.5 432.7 433.6 434.7 436.2 436.7 437 434.8 432.1 430 428.1 425.2 421.2 415.2 410.5 405.8 401.8 401.3 402.6 401 398.3 394.1 386.2 380.9 377.8 375.6 375.3 374.7 375.6 375.3 373.6 371.9 368.8 365 363.9 363.5 362 349.6 351 349.1 358.7 371.1 386.4 408.7 433.2 454.4 461.9 459.4 458.1 455.8 450.3 443.2 435.6 429 421.2 413.3 409.2 403.9 423.2 425.5 425.4 424.1 426.7 427.3 425.2 424.5 434.6 451.6 467.3 478.6 484.8 492.9 498.8 504.6 508.2 508.4 508 506.9 505.8 504.1 502.1 490.8
250.9 251.7 251.6 249.1 245.8 241 235.9 231.2 227.8 218.6 224.7 223.7 222 217.6 216.8 218.1 217.1 214.5 216.6 216.4 218.2 220.6 216.1 209.9 207.9 206.4 205.7 200.9 199.9 200.2 200.9 201.1 201.1 202.2 205.4 207.8 217.7 219.5 219.8 222 225.9 231.4 239.6 246.1 250.7 260.6 273.5 286.7 300.2 311.6 315.7 314.7 316.5 323.9 328.9 334.8 343.7 354.3 364.7 375.4 384 389 391.8 395 395.4 395.3 397.6 401 400.5 399.4 400.6 406.3 410 420 430.1 434.6 437.1 438.1 442.6 448.5 449.5 450.9 444.1 438 426.2 417.9 417.7 415.7 417.4 408.3 421.1 428 434.7 440.8 447 451.2 453 457.8 459.9 462.9 464.8 464 463.6 461.3 456.9 452.7 447.5 439.3 428.9 418.9 409.3 393.5 372.1 376.4 388.3 397.8 406.3 410 416.3 419.3 422.5 424.6 427.2 428.2 428.4 428.4 427.6 426.3 424 421.6 416.5 409.6 404.9 400.3 398.7 393.1 395.9 393.4 387.6 381.7 377.5 372 368.7 365.8 365.4 365.8 366.6 367.5 369 368 364.1 358.9 358 357 356.7 352.8 348.4 347.4 356.9 368.2 384.9 405.6 430.6 449.4 456.8 455.3 454.8 452.6 448.3 440.9 433 425.5 417.6 409.5 401.1 400 413.8 415.4 415.6 416.3 418.5 421.8 417.4 425.2 441.3 455.6 466.5 476.4 483.1 488.3 494.1 498.2 500.2 501.5 502.4 502.1 499.3 498.5 498 494.3
249.1 253.1 254.2 254.6 250.8 245.6 240.6 233.2 226.1 217 215.2 214.5 215.4 214.5 211 210.8 212.3 210.1 212.1 213.1 212.8 214.5 211 209 209.5 208.7 206.2 204.4 199.4 201.6 199.9 200.1 200.4 203.7 204.7 209.1 215 216.8 218.4 221.6 223.6 227.9 235.3 244.1 247.8 253.8 269.8 282.8 295.5 304.1 309.1 310.3 312.3 314.7 321.6 330.3 340.4 351 361.5 371.8 377.7 381.8 384.6 387.9 387.6 384.4 383.9 384.5 384.2 385.9 389.4 394.7 401.6 409.8 418.1 425.4 429.5 432.5 439.3 445.3 448.1 447.5 443.4 436.3 423.6 413.2 408.7 406.3 410.3 405.6 412 415.6 421.9 428.6 434.4 439.4 446.1 449.7 453.3 454.6 457.1 458.6 458.2 456.5 453 449 444 436.4 425.9 415.9 408.4 399.1 384.9 363.8 372.4 379 385.6 394.7 401.6 408.1 412 415.8 419.4 420.9 421.7 423.1 423.8 425.7 424.2 421.9 416.8 410.9 407.4 401.1 400.4 395.8 386.9 382.9 380 380.1 379.7 376.4 371.2 366.7 362.8 356.6 357.4 361.8 362.2 366.1 365.7 359.1 354.3 353 349.9 348.8 346.4 345.4 354.8 365.2 382.1 402.4 425.7 443.5 448.1 450.2 451.1 449 444.9 438.4 430.6 422.3 414.1 405.4 396.4 394.5 401.5 404.2 405.5 409.3 413.1 415.2 415.8 428.2 444.1 453.6 465.5 474.7 481.9 485.8 487.7 490.5 492.2 492.8 493.2 493.2 493.2 493.5 493.8 491.6
246.1 249.9 254.7 256.4 252.2 246.4 240.5 233.1 226.8 222.9 218.1 210.4 211.6 211 208.1 205.9 207 206.7 207.2 208.7 208.4 209 208 207.1 207.4 207.8 207.6 205.4 199.5 199.5 199.6 199.6 200.1 203 204.4 207.9 210.4 213.1 215.5 217.9 221.1 225.1 231.8 239.4 244.1 246.2 258.2 273.1 283.8 293.7 300.1 303 306.7 311.2 316.2 324.7 334.2 344.6 352.9 360.5 367.3 371.7 374.9 377.9 378.5 374.8 373.7 373.1 372.4 376.3 381.5 388.1 395.9 402.9 409.4 415.4 423.5 429.7 436.5 442.6 446.7 445.4 441.4 434 423.2 413.9 409.9 398.6 401.2 396.3 403.9 403.9 410 414.6 422 428.9 435.7 441.7 445.1 446 450.4 452.7 452.6 451.9 449.6 445.7 441.4 433.9 423.9 412.3 402.7 397.5 385.1 372 355.1 364.9 371.7 377 382 385.9 394.3 404.2 410 414.5 417.6 419.7 422.1 423.7 422.6 421.2 417.2 412.4 408.7 409.2 409 411.4 406.9 402.6 397.2 394.1 386.8 378.7 372.7 370.5 364.8 361.2 357 352.8 352.6 357.3 361.1 359.3 354.9 350.3 347.3 344.6 343.5 344.4 351.5 360.8 377.7 397 419.4 438.4 441.2 442.8 446 444.9 442.2 436.1 428.2 420.1 412.8 404.8 393.2 390.1 394.1 397.7 398.8 403.7 408.3 406.3 417.3 430.4 440.7 451.5 461.6 469.8 477.1 481.9 483.6 485.9 488.3 489 489 488.3 488.3 488.3 487.7 487.3
244.9 246.8 250.6 252.9 249.5 243.3 236.7 230.1 224.9 220.9 216.7 212 207.3 206.5 204.7 203.7 203.2 204 204.4 204 204.2 204.2 204.3 202.9 203.2 204 204.8 203.7 198.1 199.5 200 199.6 199.7 202.2 204 205.4 207 210.1 212.1 217 224.4 227.2 230.1 233.1 237.7 239.2 246.2 261.3 273.8 285.2 290.2 293.2 298 304 310.3 317.7 326.7 336.8 343.7 350.1 355.7 359.9 360.5 362.3 365 364 361.3 360 360.5 364.8 372.3 381.8 388.2 393.5 395.9 410.7 422.6 430.7 437.4 442.7 446.9 444 439.8 433.8 424.4 417.1 409 400.5 384.7 388.5 395 393.1 394.9 399.9 404.7 415.6 419.5 429.6 432.3 436.5 442.9 446.5 447.6 447.3 446.2 443.3 437.9 431.9 424.3 413.3 401.2 389.2 382.4 373.5 363 348.8 355.4 364.5 368.9 372.1 376.6 386.4 395.2 405 411.5 417.2 421.3 424.1 425.3 425 421.7 417.8 415.3 418.4 422.1 423.5 422.2 419.7 416.1 409.6 396 389.3 378.2 373.6 369.6 365.5 362.1 358.2 353 345.6 350.6 353.7 351.9 345.5 345.3 342.8 341.9 341.9 348.4 356.1 372.9 391 411.4 428.6 434.7 439 439 441.1 438.7 434 425.3 418.2 411.6 406.1 395.2 387.4 386.2 389.1 391.7 398.2 402.3 400.6 417.8 429 437.4 447.8 456.1 461.8 467.8 473.4 477.1 480.1 483.3 484.6 485.1 484.2 483.8 482.7 481.5 479.1
244.1 247.7 249.8 248.5 244.9 239.1 231.3 224 221.6 219.3 215.6 211.7 205.9 203.5 202.7 201.9 201.5 201.7 201.3 201.1 201.6 201.9 200.4 200.8 201.9 202.1 202.1 201.1 198.7 199.3 199.8 200.2 199.6 200.5 202.1 203.4 204.9 206.8 208.9 217.5 226.2 229.4 230.2 228 227.4 230.7 238.5 249.4 262.9 273.6 279.7 284.6 288.1 298.9 304.6 310.8 319.4 329.3 337 343.3 346.6 349.7 351 352.1 352.4 350.4 349.5 351 349.7 352.9 362.9 369.4 375.4 387.7 401 412.8 422.9 432.1 439.7 445.1 447.6 445.9 441.9 435.9 428.1 419.9 407.8 398.4 386.7 374.6 383.6 383.5 381.6 383.9 391.3 396.8 406.5 417.2 422.6 427.1 433.7 438.4 441 441.7 442.8 442.1 438 432.8 425.3 416.9 406.8 394.1 379.3 367.2 362.5 358.6 343.6 348 355.5 358.9 366.2 373 382.6 389.6 401.2 410.9 417 421.2 424.3 426.1 424.9 420.8 424 428.3 431.6 431.5 431.2 430 425.8 422.3 413.1 401.5 394.1 384 374.1 369.9 366 361.2 355.6 349.9 344.1 343.7 343.9 342.5 341.4 340.5 339.8 338.5 343.9 351.3 364.7 382.2 403.2 417.8 427.3 431.5 434.3 435.3 434.5 430.3 422.5 415.3 410.4 405.5 398.7 389.1 382.9 381 383.1 392.3 393.8 402.8 417.4 428.3 436.1 441 444.9 449.9 455.3 463.8 468.6 472.7 476.1 479 479.5 478.4 476.6 475.2 472.3 468.5
238.4 242.5 247.4 244.2 238.9 232.3 224.7 218.7 216 214.3 210.8 207.7 202.9 202.1 203.9 201.6 201.2 201.4 201.3 201 201 201 201 199.8 200 200.7 201.2 200.3 198.5 198.5 198.7 201 199.2 202 201.2 202.5 204 203.6 209.1 214.6 222.5 227.2 228.2 224.4 220.4 225 234.3 245 255.1 263.4 270.4 276.5 283.5 291.9 297.5 302.9 312.1 323.5 332.1 337.3 339.7 340.8 341.8 342.9 336.9 337.7 339.2 336.4 337.1 348.6 359.6 373.6 388.3 399.9 408.4 417.4 426.6 435.9 442.5 448.3 450.7 449.6 446.4 440.4 431.8 421.6 412.7 400.8 388.5 378.4 367.9 374.7 371.8 370.5 375 380.6 390.3 401 407.3 417.5 424.1 429.8 434.1 435.6 437.8 439.8 438 433.4 426.7 419.1 409.9 397 381.3 371 363.4 357 351 337.5 343.6 349.2 355.5 361.7 372.7 385.9 396.1 405.7 411.8 416.7 420.9 425.1 427.3 426.3 430.2 436.5 437.4 439 438.3 438.4 436.7 432.3 429.7 422.1 408.5 394.1 386.7 377.5 372.4 365.1 357.2 352.4 347.5 342.2 338.6 340.5 339.2 338.1 337.5 338.4 340.5 345.1 355.7 370.9 392 408.6 419.7 422.9 427.8 429.7 428.9 426.1 419 412.7 408.1 404.4 400.4 395.4 388.1 379.2 376.3 382.1 387.4 404.3 414.4 423.6 432.4 437.1 437.6 440.7 445.9 452.7 460.2 465.9 472.2 475 473.5 470.9 466.4 464.1 460.9 457.1
233.1 237.4 241.5 237.5 232.6 225.2 219.4 214.5 212.2 208.4 204.2 203.6 202.5 207.8 209.7 208.7 207.9 207.2 203.1 201.1 201.9 201.8 201.3 200.4 200.2 199.7 199.4 199.4 198.8 197.9 198.1 198.8 201.6 201.2 200.5 199.8 200.5 201.7 205.4 210.3 216 220.2 221.8 219.4 216 219.2 232.6 240.8 247.7 256.9 265.7 270.9 277.8 285.4 287.2 292.3 306.7 320.1 328.3 331 332.1 332.7 331.8 327.6 326.7 324.8 320.7 334.2 341.8 354.6 369.6 385 397.4 405.7 413.7 422.3 431.5 439.8 446.3 452.6 455.5 455.3 452 446.5 436.8 427 419 404.6 395 382.6 376.9 362 361.7 356.9 364.3 368.2 376.4 384.2 391.8 402.7 404 417.3 420.7 426.5 431 435.9 436.3 435.4 429.4 422 414.5 404.2 391 376.6 366 358.4 352.1 341.7 332.2 339.7 344.2 357.4 373.3 384.1 394.7 404.1 408.4 414.1 418.8 424.1 426.5 428.9 436.3 441.8 443 444.4 446.3 446.1 445.2 445.1 440.8 435 424.9 412.9 404.5 388 381.1 369.7 364.5 357.7 350.5 344.3 339.5 335.4 336.9 336 335.9 336.5 336.2 340.8 348.1 362.2 380 399.6 412.1 417.3 420.5 424.7 423.7 421.7 414.9 409.5 406.5 404 398.5 393.3 387.5 378.5 374.3 380.8 390.3 403.1 410.7 419.2 428.5 432.2 432.8 435.4 439.8 445.8 452.9 461.5 469.9 472 469.3 465 459.3 452.6 449.1 445
228.2 231.1 233.7 232.2 224.9 218.7 215.1 211 208 204.5 203 204.3 207.3 213.3 216.2 216.7 216 213.5 207.8 203.9 203 202.7 202.2 202.3 200.8 200.2 199.3 199.3 198.7 197.7 197.8 198 198.2 197.8 198.2 198.4 199 200 201.1 205.5 209.7 212.2 213.5 211.1 210.7 217.9 228.5 234.6 240.9 254.6 261 266.8 270.8 277.5 277.7 287.6 304.8 317 323.7 325.7 326 326 323.6 319.6 312.8 319.7 328.3 338.6 352.6 364.8 376 392.5 402.1 410.4 418.9 429.8 438.9 445.7 451.5 457.6 460.6 461.4 459.5 453 442.4 432.8 420.9 413.4 402.3 394.7 386.5 375 364 357 353.6 357.6 363.5 370.9 378.2 384.9 396.5 405.4 405.7 413.8 422.1 430.9 434.6 434.1 431.9 427.2 420.2 410.3 399.4 385.2 372.4 362.1 353.2 345.7 339.3 328.2 342.3 356.7 372.4 385.4 396.3 404.6 409.7 416.8 421.1 424.8 426.8 433.6 442.2 446.6 447.8 450.2 452.2 453 454.7 453.4 449.8 445.1 438.2 430.9 407.4 405.3 395.5 382.8 374.2 363.3 353.6 348.4 342.2 337.8 334 333.6 334 334.5 333.7 337.4 343.1 354.4 370.7 389 403.8 411.5 414.2 418.8 418.7 416.8 410.3 406.2 404.6 402.3 397.4 389.5 382.7 376.1 372.7 379.7 390.9 400.1 407.1 415.4 426.9 430.6 429.4 430.9 434.7 440.7 449 457.9 467.4 468.8 465.8 459.2 452.3 445.8 438.5 433.8
222.8 224.2 225 222.6 218.4 215.7 212.1 209 204.8 204 211.2 215.7 219.4 220.7 222.2 222.6 222.1 219.7 214.8 208.9 205.2 203.7 204.6 204.7 203.9 205.3 206.3 202.2 198.9 198.2 197.5 196.8 197.6 197.3 197.9 198.1 198.9 199 199.8 201.5 204.3 204.9 204.8 205.5 209 217 223.4 231.3 242 250.1 256.9 262 267.8 272.8 273.4 287.6 303.2 313.5 320.5 319.7 320.3 320.4 318 311.5 300.9 321 333.9 345.3 357 367.5 380 397.3 407.2 415.5 424.9 436.5 444.4 450.9 456.9 461.8 465.3 466.7 466.7 459.6 452 442.3 435.1 424.7 413.6 401.8 391.8 379.1 369 361.6 353.7 351.1 355.8 360.1 365.1 370.4 381.3 388.9 398.6 403 413.3 423.5 429.2 430.1 430.4 427.4 421.8 414.9 404.1 393.4 384.2 371.5 359.9 351.8 347.5 341.3 325.7 351.5 373.2 386.7 397.4 406.5 415.2 422.3 425.3 426.9 429.7 439.3 446.9 450.7 453.4 455.8 458.3 460.6 461 459.8 456.7 452.5 446.8 438.7 429 424.6 413.6 399.1 382.7 369.6 362.4 354 345.7 340 336 332.2 332.4 332.8 332.4 334 338.3 346.5 359 377.2 393 404.5 409.9 412.5 413.6 412.1 406.2 403 401.4 399.1 394.4 386.6 378.7 373.4 370.1 378.8 388 398.1 406.6 411.6 417.9 423.4 424.9 426.9 432 438.2 445.3 454.6 464.3 466.1 462 453.9 447.2 439.3 430 419.2
217.7 218.6 218 215.8 213.8 211.8 209.7 206.8 204.5 208.6 215 221.7 227 228 228.3 228.7 228.3 225.7 220.4 214.7 211.1 205 209.6 210.2 209.7 209.3 209.7 206.3 203.1 198.1 197.7 197.3 196.8 197 198.2 197.8 199 198.9 199 199.4 200.4 201.2 202.6 204.8 209 214.5 221.8 228.1 236.5 244.1 253 260.2 266.8 267 273.4 286.2 301 309.3 314.3 313.8 315 315.8 309.5 298.9 309.5 322.7 336 345 358 369.9 387.1 401.9 413.3 422 432.3 441.7 449.3 454.9 461.7 466.6 469.2 470.5 471 465.7 458.8 453.9 448.9 439.5 429.7 414.7 400.5 386.3 374.2 363.7 355.8 348.2 348.2 352.3 356.1 359.7 367.7 375.9 387.2 391.5 402 413.9 420.7 423.3 424.7 424.1 420.8 415.3 407.1 397.6 387.4 378 366.7 357.6 352.2 346.2 324.9 346.5 372.8 387.8 398.9 407.9 419.8 425.9 425.6 428.5 434 441.9 448.6 453.6 457.2 460.3 463.2 465 464.9 463.1 460.1 456.7 451.9 446.2 441.6 435.7 428.1 415.9 402 386.6 370.6 358.8 349.7 342.7 336.6 331.1 331.2 330.5 330.6 330.8 333.9 339.6 348.6 363.8 381.3 396.1 404.1 408 409.1 407.6 403.6 400.7 398.5 394.4 389.6 383.2 375 369.4 367.8 375.7 383.2 392.5 400.1 406.5 412.2 415.6 418.9 423.7 429.4 436.1 443.1 453.1 461.9 463 459 452.1 443.5 435.6 425.7 411
211.4 213 212.9 211.6 210.2 208.4 207.4 205 206.6 210.8 217.9 224.4 229.6 233.2 235.3 239.4 234 229.8 223.3 218.9 214.5 205.9 212.5 211.9 210.9 211.8 212.7 209.5 204 201.7 197.8 196.9 197.1 196.6 199.4 198.4 199.3 199.4 199.1 198.5 198.7 199.4 200.7 202.5 206.3 214.4 220.9 226.1 233.9 241.6 250.2 256.9 261.9 260.7 268.6 280.3 295.6 305 309.2 307.6 310 309.7 304.5 289.2 304.8 321.9 335.3 343.3 359.6 374.3 391.5 405.8 417.2 428.4 439.9 445.4 453.5 459.5 465.8 470.8 472.4 472.8 473.7 469.9 466.2 463.6 459.9 454 445 432.4 415.6 398.8 384.7 373.5 360.8 350.4 344 345.4 348.4 350.9 356.8 363.5 372.7 379.4 387.8 402.9 410.1 412.9 415.3 414.9 413.2 411 405.4 395.7 386.2 377 366.8 354.6 348.6 341.2 322.5 344.2 370.2 391 399.1 410.4 423.1 423.1 421.1 427.3 435.7 442.1 448.3 453.6 458.8 462.7 464.2 465.3 465.3 464.3 461.9 459.1 455.6 452.3 449.2 444.1 437.7 430.3 420.8 405.6 385.7 366.1 354.3 345.5 337.8 331.2 330.1 329.2 329.1 329 329.5 333.9 341.1 351.4 367.8 387.4 397.4 403.6 405.4 404 401.1 397.7 395.6 390.1 384 378.3 371 366.3 367.1 371.7 377.1 384.1 388.8 395.6 400.9 411.9 417.6 422.4 427.7 433.8 441.4 453 461.1 459.4 453.5 446.8 440.5 434.6 425.3 410.2
206.7 206.7 206.8 206.6 206.3 205.8 205.8 205 210.6 214.7 220.7 227.6 232.7 235.8 239.6 239.9 233.7 227.3 223.6 219.7 214.9 207.6 208.5 211.8 211.7 211.9 212.5 211.6 205.6 203.4 198.4 196.7 196.2 196.4 196.3 196.6 199.3 199.4 199.1 198.4 198.5 198 199.1 200 205.7 212.3 217.4 224.5 232.5 238.6 245.8 252.3 258.4 254.7 266.2 279.9 291.2 301.7 303.4 301.7 302.3 300.5 296 283 299.5 319.8 333 343 362.3 378.9 395.6 409.5 420.9 432.6 443.7 449.3 456.5 463.4 470 474.6 475.5 476.2 476.2 474.5 472.8 469.9 467 463.6 458.7 449.5 435.5 416.8 399.4 385.9 372.4 359.3 349.8 342 339.3 342.8 346.6 352 360.2 367.4 373 387.3 399.2 405.5 405.8 404.4 403.8 402.9 398.7 386.7 376 370.3 362.3 348.3 342.1 334.3 317.4 342.1 365.6 383.6 395.4 404.4 413.3 416.7 417.4 427.2 437.1 442.1 446.2 450.8 456 460.1 462.4 464.3 464.9 464.6 463.1 461.3 459 457.6 455.3 451.7 446.6 439.4 431.5 421.9 406.7 385.2 365.3 348.3 338.1 332.4 329.5 328.3 328.1 327.5 326.6 328.4 334.9 343.5 356.6 373.8 389.2 398.2 402.9 402.7 400.1 395.5 391.7 387.2 381.1 373.8 367.7 363.9 363.8 367.6 371.3 376.8 381.8 387.1 397.2 406 412.8 418.2 424.9 433 445.5 456.2 459.5 456.5 451.5 446.6 441.1 435.3 429.1 421.7
213.7 212.1 206.1 206.2 205.5 205.2 205.6 207.3 213.4 218.4 223.5 228.9 236.1 237 236.1 233.2 228.7 223.5 219.6 217.2 213.4 208.6 210.4 210.5 212.1 213.8 214.7 213.7 211.6 209.4 206.9 205 197.6 196.3 193.9 194.1 195.3 197.5 198.5 198.6 198.4 197.6 197.6 198.5 201.2 206.7 213.7 221 230.9 236.1 243.2 249.5 254.1 247.7 262.1 275.9 285.9 297.5 299.7 295.2 292.4 292.4 288.7 282.2 295.7 317.2 329.6 343.7 364 382.2 398.5 412.4 424.8 436.1 446.3 453 456.7 466.2 471.3 477.3 477.6 479.5 478.2 479 476.8 474 473 471.3 469 463.2 454 440.1 420.6 401.9 387.8 373.9 363.8 352.1 341 336.2 336.1 342.4 348 354.6 362.1 371.3 383.7 387.7 391.7 392.6 395 395.8 391.1 378.4 369.4 362.4 355.1 341.7 335.2 324.4 320.2 343.2 363.6 374.7 388.2 399.5 408.7 412.8 415.4 425.6 435.8 441.4 445.1 448 453 457.2 460 462.5 463.9 464.2 463.7 462.9 462 461.1 460.2 457.3 452.8 447.1 439.7 431.3 421.4 403.6 380.7 359.5 346.2 336.5 328.7 327.4 327.1 326.2 325.2 325.4 330.3 337.5 345.9 359.5 377.1 392.2 401.8 404.1 400.6 394.9 390.9 383.7 374.3 368.9 364.7 362 361 363.3 364.6 369.9 374.7 384.4 393.6 400.8 408 415.3 423.4 436.4 450.3 457.4 460.6 453.7 448.2 444.1 440.5 437.1 432 428
217.9 218.1 215.9 213.5 212.7 209.8 210 210.7 215.6 222 226.6 231.6 238.9 237.5 235.1 230.6 225.9 218.7 215.7 211.7 211.5 212.5 212.6 212.5 214.1 216.8 218.8 219.8 218.2 215.5 211.9 209.4 204.2 197.3 196.4 195.8 195.6 195.2 195 194.8 194.4 197 196.2 197.3 199.4 205 211.4 219.2 227 234.1 240.6 244.7 246.6 242.9 259.7 271.8 284.6 291.4 295.7 289.4 284.8 283.5 280.2 280.5 292.3 316.5 326.9 345.2 364.5 383 400.1 415.2 428 438.4 445.3 449.3 454.6 465.6 471.2 475.7 479.1 479 480.1 482 480.3 477.9 476.8 479.1 476.5 471.2 464.2 455.9 442.6 424.1 405.4 389.5 377.2 365.2 353.2 347.4 340.8 335.3 331.2 339.1 349.5 357.1 367.8 373 378.4 381.7 381.7 381.7 379.7 373 363.1 354.7 346.1 337.6 327.8 316 324.9 347.3 364.1 371.9 384.9 398.2 408.3 409.2 410.9 423.2 432.9 439.2 443.1 445.9 449.7 453.5 456.9 460.1 461.9 463.1 464 463.8 463.7 463.6 462.9 461.8 457.6 452.7 446.9 439.3 430.3 418.4 396.8 373.1 357 345.1 335.9 329.3 325.6 325.5 324.7 323.4 325.3 333.3 338.1 348.9 363.6 382.3 398.2 404.6 404.4 397.8 393.8 386.5 376.8 369.7 364 360.1 358.7 359.5 362.4 364.4 371.6 379.8 388.2 397.4 405.5 413.2 428 443.9 454.2 457.1 456.3 448.8 445.6 441.2 438.7 437.2 434.4 432.5
222.7 222.1 221.7 220.3 218.6 217.9 217.9 219.4 221.6 225 229.4 233.4 236 235.4 233.3 228.8 225 216.9 215.9 218.9 218.9 217.3 216.1 216.5 217.5 221.4 224.2 225.1 223.8 220.7 217.8 214 210.4 205.2 201.1 195.6 195.7 195.3 194.9 194.7 194.6 195.7 195.5 196.7 198.4 202.9 209.3 222.1 231.7 235.2 237.7 237.1 235.2 242.2 257.2 270.3 280.7 287.7 290.6 285.5 280.1 279.5 276 277.3 293 312.4 323.7 344 364.8 383.2 400.8 417.2 429 438.2 441.6 445.4 452.6 462.7 470.6 475.2 479.4 480.3 482.2 483 482.8 482.2 480.8 482.2 480.1 475.2 469.4 461.9 453.5 442.1 425.6 406 393.6 382.2 367.4 358.1 349 349.9 342 327 336.9 347.4 353.6 359.1 366.2 370.4 372.5 370.5 368.8 363.8 354 345.1 337.5 333.5 324.9 310.5 325.6 345 360.8 368.9 378.9 392.1 401.9 403.7 409.5 421.3 431.6 437.2 440.4 443.3 446.3 449 452.6 456.3 458.7 460.2 462.3 464 464.7 464.8 466.1 465.9 460.9 455.8 451.7 444.5 436.8 427.2 413.6 395.4 375.4 359.9 346.8 337.6 328.8 325.2 323.9 322.7 323.3 328.3 334.9 343.1 356.1 370.7 393.6 404.5 405.8 401.6 397.3 391.1 379.6 370.9 363.7 359.4 356.7 358 359 363.5 371.6 380.3 389.7 400.2 412.6 427.7 441.4 454.4 451.4 455.3 449 445.6 442.3 439.5 438.6 438.3 436.8 436.4
229 229.5 228.5 227.1 225.8 225.1 225.2 225.4 227.5 229 229.1 229.7 229.9 230.2 229.6 226.8 219.8 217.1 223.3 225.8 226.1 223.9 219.9 220.1 221.9 227 229.4 230.7 230.2 225.9 222.6 221.6 218.8 212.1 206.8 197 195.7 195.2 194.6 194.2 194.2 193.9 195.1 195.2 196.7 202 207.7 218.1 229.7 235.6 232.1 229 228.5 242.7 257.4 268.9 280.9 287.1 288 281.2 275.6 275 269.4 277.1 292.2 305.2 321.5 343.2 363.4 382.5 399.7 414.1 425.5 434.4 437.9 442.3 454.1 463.3 469.6 475.2 479.5 481.8 483 483.7 485.7 486.5 484.5 483.1 481.6 477.8 472.1 465.4 457.4 449 438.1 422.1 407.3 393.5 377.5 366.7 355.8 354.3 350.3 332.9 329.2 337.9 343.1 346.1 353.8 360.6 363.9 363.7 359.1 352.1 345 335.5 331.1 327.2 323.5 308.7 323.9 335.5 354.3 365.1 375.4 384.7 392 398 406.7 418.4 427.9 434.9 437.4 440.9 443.2 445.9 448.9 452.2 454.8 456.9 459.4 461.9 464.8 467.7 468.2 468 461.1 456.3 452.5 447.9 441.4 433.6 424.3 413.1 395.9 375.2 358.7 348.5 337.4 328 323.3 321.9 320.8 324.5 332.5 339.5 349.9 364.1 380.3 399.7 405.6 402.7 399.5 395.6 386.9 373.6 364.6 358.8 355.2 355 359.9 369.9 381.3 392.7 403.3 416.4 430.3 443.1 454.3 448.5 451.3 445.5 439.8 437 435.8 436 437.7 438.9 440.6 440
234.7 234.9 234.6 233.1 231.2 230.9 229.6 227.7 227.4 228.4 228.1 227.2 225.1 223.9 223.5 220 218.9 225.3 228.6 231.6 231.6 228.6 227.1 225.5 228.9 235.1 236.2 237.4 235.3 232.4 231.1 229.3 226.3 222.1 216.8 204 195.6 195.1 194.8 194.6 194.3 193.8 193.9 193.5 195.5 198.9 204.4 214.1 224.7 230.6 229.1 223.5 225.2 243.6 257.8 268.9 279.8 286 287.5 278.7 273.3 269 266 277.2 287.5 299.1 316.1 341.3 361.1 379.4 395.8 410.1 423.8 430.1 432.8 441.9 453 462.9 469.9 474.6 479.1 481.6 483.4 484.6 487 490 487 484.3 483.3 479.3 473.3 466.8 459.6 452 442.7 431.3 418.6 402 385.1 368.7 360.7 357.5 351.1 337.3 322.8 323.7 332.7 336.8 342.2 349.5 355.4 357.2 350.5 344.2 335.6 329.5 324.7 320.4 317.3 306.2 318.9 329.4 347.9 354.9 366.6 376.2 390.5 396.2 400.9 410.9 426.1 434.6 432 438.7 440.8 442.8 445 447.1 449.6 452.2 455.5 459.7 464.2 467.4 465.7 461.6 456.8 453.2 451.1 448.5 443 437 429.5 419.9 407.4 392.9 374.7 357.9 344.7 336.1 328 321.5 320.4 319.9 328.7 336.1 344.9 355.7 370.9 386.8 397.1 402.6 402.5 399.7 392.2 380.4 366.5 358.3 354.1 352.6 358.8 373.8 391.1 407 418.9 431.6 444.7 455 446.8 445.8 440.9 431.2 431.2 426.6 427.2 428.1 433.6 438.1 440.8 443.4
240.4 240.5 240.5 238.7 236 232.1 229.5 226.3 226.1 225.6 225.6 224.5 224.6 226.4 226.5 225.1 225.3 230.2 233.4 236.5 236.4 233.1 234.1 232.6 236.2 241.9 245.8 246.7 242.2 241.4 246.2 244.4 236.4 232.8 227.2 212.4 197.3 195.2 195 194.5 194.1 194.2 193.6 193.8 193.2 197.4 202.9 210.9 219.7 224 222.5 220.1 228.2 244.6 259.2 270.9 279.9 285.3 284.3 278.2 273 263 267.6 277.4 283.8 293.7 309.5 336.1 357 375.1 390.6 404.6 416.9 423.6 430 439.8 450.5 461.2 467.9 473 477.6 480.6 482.9 485.3 486.1 486.8 485.7 484.6 485.5 480.8 474.1 467 460.2 452.4 445 434.9 423.2 409.2 393.4 375.9 366 360.4 348.3 341.5 337.5 327.8 317.8 329.6 335.7 339.8 343.3 345.6 340 334.2 328 323.1 316.1 312.6 310.4 303.6 314.9 323.4 346 364.3 376.2 376.8 381.9 387.3 395 404.6 417.1 423.8 431.5 437.9 437.4 438.7 440.2 442.7 444.2 445.3 448.5 452.5 456.9 459.9 458.1 453.4 448.9 447.4 446.9 445.5 442 437.7 431.8 424.2 414.2 402.7 387.3 368.6 354.3 342.5 332.2 324.8 320.2 318.6 329 333 340.6 349.3 362 381.4 390.6 401.4 405.2 405.1 397.3 382.6 367.5 357.6 353.3 349.8 357.8 376.5 397.3 417.4 432.2 444.7 450.5 445 443.8 437.6 427.1 422.7 418.9 416.2 417.5 421.6 429.7 435.3 440.9 445.7
244.1 246.7 245.3 239.9 234.8 230 227.8 226.7 226.5 226.4 227.9 229.8 232.6 233.7 234 233.3 231 235.4 238.7 240.2 238.2 237 239.3 241.5 246.8 252.2 256.3 257.9 257.2 264.3 266.5 256.1 245.1 245.2 232.9 208.3 199.6 195.2 195 194.4 193.9 193.7 193.5 193.2 192.8 193.7 200.4 206.9 213.3 218.3 216.7 218.6 232.2 246.6 258.9 270.2 279.3 283 281.7 277.3 273.6 265.7 261.3 273.4 277.5 287.1 302.1 329 350.5 368.8 383.8 396.5 407.3 415.6 425.5 436.7 447.7 458.7 466.5 471.6 475.7 479.5 482 484.7 485.7 486 484.7 483.4 485.2 480.4 473.2 466.2 459.5 452.6 444.7 435.1 424.2 412.3 398.6 382.7 369.4 357 344.1 339.1 336.6 334.7 323.4 323.4 328.7 332.5 333.7 334.6 331.6 327 321.3 316.7 309.5 307.4 304.1 305.8 311.6 318.3 335.7 358.7 378 387.2 376.4 378.2 388.3 404 413.2 416 422.5 427.2 430.1 431.6 434 435.9 436.9 437.2 439.6 443.1 446.3 448.7 448.6 444.3 440.9 440.4 440.5 440 438.4 435.3 431.5 425.8 418.1 408.1 395.6 378.5 361.6 348 336.8 327.5 321.4 318 329.6 332.2 336.8 347.2 355.2 370.3 388.4 395.8 407.4 407.8 403.1 386.6 368.6 359.1 353.3 348.3 355.4 374.9 400.8 425.1 444.5 452.6 449.7 440.2 435.6 421.9 415.6 415.4 409.7 409.2 412.6 419.4 425.8 433.5 440.5 446.2
241.7 244.2 243.3 238.4 232.9 229.2 228.2 227.5 226.9 227.9 231.1 234.6 238.5 241.1 242.1 239.5 236 242.6 244.8 243.4 245 251 258 263.4 268.7 276 276.3 279.9 279.1 280.1 274.4 261.1 254.5 248.1 230.7 213.2 204.4 196.9 195.5 194.4 193.9 193.9 193.8 193.3 193.1 193.4 197 204.4 210.2 213.4 212.8 217.9 234.8 247.6 259.3 268.4 275.9 279 278.4 275.8 273 264.7 255.5 267.2 269.3 280 295.5 322.1 342.9 360.9 375.4 387.9 398 409.4 421.2 433.9 444.9 455.9 464.8 469.6 473.6 478 481.2 483.6 485.2 485.5 483.5 481.7 482.8 478.9 471.7 464.6 457.8 450.9 443 432.7 422.4 410.4 397.1 384.4 368.5 351.1 339.2 333.4 333.5 331.6 322 307.1 321.9 325.9 326.9 326.5 324.3 320.1 314.8 310.8 306.1 303.4 298.1 305.4 307.9 313.6 325.4 345.5 363.8 378.2 378.2 370.6 377.5 399.1 406.1 410.7 413.8 416.5 419.8 421.5 424.4 425.3 425.8 425.6 428 431.4 432.2 432.8 434.6 432.8 433.2 433.6 433.7 433.4 433.2 432.2 429.3 424.7 418.4 410 398.2 382.3 366.5 351.8 339.1 328.8 322.6 321.6 331.2 332 336.3 344.9 350.9 364.2 381.3 394.4 403.7 412.8 409.9 389.5 370.5 359 352.7 347.7 352.3 371.1 399 428.8 446.3 446.3 441 433.6 422.8 414.5 412.7 406.2 402.5 403.7 407 415.5 423.9 434.6 441.3 445.3
237.8 239 238.4 235.3 231.5 229.7 228.7 228.2 228.1 229.9 234.5 238.3 241.9 246.7 248.4 245.6 241.4 247.3 250.7 257.1 265.3 276.1 287.4 291.1 283.1 296.4 296.8 301.1 296.5 287.9 275.2 268.8 267.5 249.5 235.5 223.8 208.3 199.6 197.1 195.4 194 193.6 193.4 193.2 193 192.7 197.3 205.1 206.8 210.9 211.3 223 234.9 246.7 257.5 267.1 272.8 275.3 275 274.1 271.3 262.4 248.7 259.6 262.9 272.8 287.9 314.2 333.4 349.7 365.2 379.7 394.4 405.9 417.5 430 442 453 461.8 468.2 472.3 476.6 480.3 482.5 483 482.7 480.3 479 478.5 476 468.8 462 454.9 447.9 439.7 429.7 418.6 403.9 391.1 379.9 362.2 344.5 332.6 326 326 322.4 317.3 301.6 318.8 322.1 324 322.8 320.9 316.6 311.8 306 302 298.6 298.5 303.3 306.5 311.1 316.6 328.1 344.2 359.2 371.2 371 366.5 389.4 402.8 408.5 409.9 408.2 408.2 410.8 412.8 411.9 411.1 412.9 414.9 417.3 418.3 416.5 416.9 418.2 422.4 424.9 424.8 424.8 426.3 426.9 425.6 422.5 417.4 410.3 398.7 384 367.9 352.7 338.7 328.1 321.6 321.2 331.6 330 335 342.5 348.9 357 377.3 390.3 400.2 408.6 410 391.8 371.1 359.1 352.9 348.1 350.2 367.3 393.6 425.5 445.8 440.9 434.8 426.7 416.8 412.7 407.1 401.7 396.9 400 405.8 417.2 427 435.8 443.5 445.8
236.2 233.8 234 232.5 230.5 230.2 229.1 229.8 231.1 234.8 238.5 243 245.4 250 251.2 247.8 250.7 255.4 266.7 279.3 291.9 309.8 310.6 306.6 295.4 302.5 306.3 304.9 298.9 290.1 282.9 281.4 270.5 250.3 235.5 224.1 211.3 203 201.3 199.9 197.4 193.8 193.1 193 192.9 192.9 196.3 203.4 203.7 205.2 213.7 223.4 233.8 245.1 256.1 264.6 269.7 272.2 273.3 274.4 273.5 262.9 249.4 252.6 257.3 267.8 281.3 304.9 323.4 337.4 357.4 374.4 387.9 400.5 414 426.1 438.1 449.3 460 466.5 471.2 475.5 478.9 478.5 477.9 477 477 475.8 474.3 472.8 465.6 458.8 451.8 444.8 436.6 426 414.2 399.7 383 372.6 357.6 339 324.6 316 315.1 311.1 307.7 303.7 312.4 315.4 317.7 318 316.8 315.9 310.1 302.6 297.2 292 299.2 301 303.8 307.3 308.1 315 325 338.1 349.4 355.9 365.4 376.6 390.3 394.3 396.5 399.3 400.6 400 400.2 397.1 394.7 394.1 396.8 399.2 397.8 398.3 399.3 402.4 407.8 412.4 414.6 418.1 419.9 421.3 420.5 418 414 407.3 395.7 382.4 367.3 352.7 339.1 327.6 319.6 314.8 323.5 328.7 334.4 338.9 344.7 352.3 367.1 386.9 391.6 399.3 405.9 395 372.4 357.9 352.3 346.6 349.6 363.7 389.9 421.4 441.3 436.6 430 425.2 417 410.3 405.2 401.6 397.2 400.6 411.4 424.1 434.8 440.9 446.9 448.7
234.5 233.7 232.8 232.2 231.2 230.7 230.7 231.6 235.7 241.5 245.6 249.6 252.8 253.5 252.6 255.8 262.2 275.7 292.7 311.5 323.1 321.3 315.9 308.9 301.8 307.4 307.5 303.9 299.1 292.4 288.3 280.6 267 250.7 234.6 225.9 217.7 209.3 205.1 204.9 203.4 196.6 193.5 192.7 192.3 192.4 191.8 201.8 201.6 207.5 214.3 222.5 235 244.8 254.8 261.4 266.2 268.7 270.2 272.5 273.1 264 250.5 242.1 254.1 264.8 278.1 296.2 313.8 331.3 347.9 365.2 381 393.4 408 420.7 433.1 444.7 455.5 464.1 469.9 473.4 476.2 473.5 471.7 470.3 469.4 469.3 468.3 468 462.5 455.8 448.9 441.5 433.2 422.5 410.3 393.3 377.6 367.1 351.8 336.2 322.6 310.1 305.4 300.7 289.1 301.3 302.5 304.4 305.6 308.1 309.9 310.3 307.9 300.1 295 291.1 296.5 297.1 299.8 302.7 306.7 313 319.3 327.8 338.2 349.7 366.4 371.5 382.1 389.3 391.8 393.4 394 392.8 390.2 386.2 382.6 381.5 381.3 384.4 381.6 380.1 380.9 383.6 390.8 396.3 400.9 408.3 413.1 415.2 415.3 413.6 408.9 401.6 391.1 378.9 363.9 350.1 339.6 327.6 319.4 313.4 321.4 326.9 331.2 336.2 342.3 348.2 355.5 372.4 384.5 389.7 393.4 390.8 371.2 357.1 351 340.5 349.7 360.9 388.5 418.9 432.9 429.5 425.2 420.3 412.7 407.8 402.8 399.9 396.9 404.3 417.7 428.8 439.4 447.3 449.8 450.4
235.1 234.4 233.8 233 232.1 232.1 232.8 235.7 242.1 246.5 253 258 257.2 259.2 261.5 269.4 284.3 301.8 324.2 334.2 331.5 325.6 318.3 309.8 312.4 313.2 308.4 302.5 296.7 291.7 286.1 278.7 262.9 248.4 234.9 226.4 220.9 216.2 212.3 208.8 206.5 201.9 195.2 193.2 192.1 192.1 192.2 195.3 198.9 206.2 213.7 223.7 234.8 245.2 253.3 259.3 262.6 264.7 266.9 269.4 268.8 260.6 251.6 239.8 249.7 262.6 274.9 289 306.5 324 340.3 356.2 371.8 386.7 400.6 415.1 428.7 441.8 453.4 461.7 466.7 470.3 471.7 469.5 467.7 465.7 463.6 461.6 460.3 460.4 457.3 452.2 445.2 437.5 427.9 416.8 404.6 386.5 372.1 361 345.9 332.2 319.4 307.3 298.9 290.3 283.8 292.9 292.7 292.8 295 300.6 303.3 302.7 302.2 296 290 289.7 291.5 296.3 300.1 305.3 311.9 320 328.1 341.8 354 361.4 376.4 386.8 391.9 394.4 395.8 392.6 390.5 388.2 380.2 375.6 372.5 369.9 369.2 371.1 371.5 368.8 369.3 370.9 372.9 376.5 382.9 392.3 401.7 407.1 408.3 408.1 404.5 398.3 387.5 376 363 350.8 337.5 327.1 318.5 312.7 317.4 322.6 327.7 333.8 341.1 344.5 347.3 353.6 365.7 380.2 387.3 385.1 367.3 358 349.7 341.3 347.8 359.3 386.6 411.7 417.9 420.3 421.3 415.9 408.6 404.6 400.8 397.5 397.6 407.4 423.2 435.5 445.6 452.7 454.1 451.3
236.8 235.9 234.9 234.1 233.5 234.1 236.5 241.6 251 259.8 261.6 263 264 267.7 278.9 294.7 311.6 331.5 342 339.8 334.2 327.7 318.9 315.9 314 311.7 308.5 300.3 293.1 285.6 281.4 278.3 261.1 249.2 238.8 231.5 229.3 227.2 220.7 214.2 211.8 209.6 204.1 194.8 192.8 191.9 192 192.2 197.3 204.7 213.4 224.7 235.1 243 251.2 255.4 257.9 260 263.4 266.4 264.5 255.8 249 240.4 246 256.7 269 281.4 299.2 312.3 326 339.2 354.5 370.1 394.4 411.1 425.9 439.6 452.8 461.3 463.2 463.6 465 464.7 462.9 461.2 458.8 456.2 453.8 455 451.3 444.5 438.5 431.8 421 409.3 395.9 378.2 364.6 352.9 337.7 326.6 318.4 306.8 297 288.7 281.9 284.6 285.3 282.7 284.5 290.1 293.2 292.2 292 288.7 287.6 292.1 296.4 299 303.4 310.9 323.9 337.4 351.5 363.6 369.4 379.3 390.6 399 400.6 402.4 403.5 404.2 400.7 395.9 389.9 383.8 377.9 372.9 367.3 362.5 361.8 361.2 360.2 360.9 361.7 364.8 367.8 373.2 383.5 393.3 398.4 402.2 399.4 394.2 385.7 374 361.8 348.1 336.2 326 317.8 312.1 311.5 315.5 322 329 337.4 341.7 341.2 344.4 349.1 358.7 373.2 374.4 363.4 357.4 349.4 342.4 342.8 356.7 382.6 398.6 405.5 414.1 421.4 414.9 407.2 402.3 397.5 394.9 397.6 409.7 427.6 442.9 449.7 451.9 452.9 448.1
238.3 237.9 236.5 236 235.7 237.4 240.3 245.9 255.3 265.9 270.7 271.1 273.6 287.5 301.6 324.6 343.9 348.3 345.8 341.8 335.3 327 324.2 318.1 312.4 307.3 302.3 297 289.4 283.2 279 272.5 259.5 253.2 248.8 243.2 235.4 228.8 223.6 217.8 216.9 215.5 210 202.9 197.3 192.1 191.7 191.9 191.8 201.2 215.3 224.6 233 239.8 246.1 250.3 253.4 255.6 260.2 263 260.7 250.9 243.6 238.3 245.3 255.7 264.2 274.8 288.2 299.2 307.5 327 351 372.9 390.3 406.3 422.7 437.7 451.8 457.3 458.1 458.8 457.6 458.1 458 456.3 453.9 450.5 446.8 446.1 443.1 437.7 431.5 422.5 412.5 398.9 383 367.9 355.2 341.5 326.9 319.1 314.6 306.6 296.3 289.3 280.9 279.2 280 278.5 279.9 283 284.7 282.3 282.2 286.9 289.7 293.5 297.8 305.7 313.3 328.2 347.1 360.9 373 379.7 382.1 395.4 407.7 411.5 413.4 413.5 414.4 415.3 413.7 407.8 400.4 392.2 383.1 379.4 372.3 367.8 365 360.5 357.2 354 353.7 355.7 356.4 359.5 365.4 374.1 381.3 390.7 391.8 388.6 382.2 372.6 360.5 346.9 333.8 324.6 316.4 311.8 310.6 309.7 314.9 322.4 330.8 338.5 335.4 336.1 338.7 344 352.7 360.8 359.8 354.6 350 346.1 337 354.7 376.8 384 394.4 404.3 410.1 407.2 401.2 396.9 392.7 387 398.2 411.4 431.5 445.1 449.7 447.6 440.7 438.4
240.6 241.5 240.7 240.1 239.6 241.6 246.8 252.6 263.4 271.1 281.4 286.9 298.3 315.3 332.2 341.5 352.2 351.6 348.4 341.7 338 338.6 337.1 328.3 314.8 305.1 300.1 292.1 285.8 280.3 275.2 268.6 263.6 258.3 255 248.3 240.5 235.6 231.7 225.9 221.9 218 213 204.5 202.5 198.9 192.7 191.4 189.8 196.3 215.3 223.6 229.5 235.8 238.2 242.2 245.9 251.2 257.6 260 257.2 244.2 235.4 233.1 245 253.7 262.3 271.1 276.9 294.3 310.8 327.1 344.4 366.1 384.6 400.6 417.7 433.1 448.3 453.6 454.2 453.7 452.8 452.7 452.5 451.1 449.1 445.6 441.3 436.2 432.3 427.6 420.8 411.9 400.4 384.2 370.5 356 343.2 329.3 317.9 310.7 306.9 302.7 299.4 292.6 286.6 282.1 276.3 276.4 277.4 279.3 281 282.5 287.2 290.8 292.6 298.5 305.5 312.9 324.3 346.6 367.2 377.5 382 385.7 397 410.4 419.5 421.6 424.4 418.9 422.8 423.8 422.5 416.7 410.1 402.1 396.4 391 382.5 374.6 371.3 368.6 363.4 360.1 357.3 356.9 354.6 345.8 352 355.4 363.3 372.6 379.2 379.8 377 371.6 359.6 347.8 336.6 325.4 318 312.4 309.9 309.4 309.1 315.6 322.8 329.6 329.7 330.1 331.7 333.3 337.8 344.4 351.4 352.9 350.4 347.3 331.9 352.6 366.2 374.8 379.6 382.5 384.1 383.5 386.2 389.2 387.8 388.2 395.7 412.2 431.6 442.2 443 436.9 430.4 423.3
243 245 245 244.5 244.7 246.8 256.2 269.8 281.2 291.4 298.9 312.3 328.4 347.3 352.1 353.1 353.2 352.3 348.2 346.5 350.3 350.5 344.9 334.5 319.4 308.1 299 291.6 284.9 277.6 270.7 267.2 265.3 262.5 258.6 252.9 245.4 238.1 234.1 228.7 223.2 217 211.9 204.6 204.8 203.2 196.6 191.6 192.5 193.4 209.3 219 224.4 226.7 230.2 234 238.7 245.9 253.4 257 251.3 237 228.6 237.9 245.5 252.5 260.2 265 276.4 290.1 306.7 322.4 337.6 355.8 376.6 393.6 410.2 425.8 440.3 450.4 451.1 449.3 450.3 450.2 448.6 445.3 440.8 439.1 436.7 428.8 420 412.2 403.5 392.7 382.4 367.2 355.9 341 329.5 321.2 310.6 304 301.2 303 303.3 302.3 289.2 274.7 274.9 284.4 285.8 289.4 293.3 288.8 291.9 297.1 296.1 307.6 318.1 325.1 335.8 355.8 372.4 382.5 389.8 397.6 410.6 421.4 426.6 431.2 430.8 430.3 432 432.8 431.7 429.4 425.1 418.2 413.2 408.7 401.4 393.1 385.3 380.3 372.5 368.8 365.8 365.1 360.7 356.7 352.4 343.2 345.4 354.6 361.3 368.5 368.2 365.4 357.5 346.5 335.8 326.7 321.4 315 310.5 308.9 307.4 309 313.2 318.1 321 323 325.1 326 329.1 334.4 342.2 352.1 352.2 348.8 330.1 344.9 356.4 364 369.8 369.5 370.2 372.8 375.5 379.4 376.1 388.9 394.4 408 428.8 432.4 425.9 416.3 405.3 396.6
245.7 246.7 250 250.8 251 254.9 269.1 285 302.3 317.8 327.6 343.4 355.4 360.8 360.1 357.8 355.4 353.6 353.8 358.2 361 357.4 349.9 339.9 329.5 313.1 298.7 288.9 281.1 274.1 267.2 260.3 258.7 257.5 255.5 251.4 244.7 237.9 231.1 224.2 220 213.6 207.5 203.6 203.8 203.2 197.5 192.5 191.2 191.1 202.3 208.6 212.2 217.8 224.4 227.3 233 239.8 250.6 254 244.7 232 231.7 239.7 245 250.6 254.8 261.7 271.3 285.6 301.9 319.9 336 348.7 368.3 385.8 401.3 416.4 430.6 444.8 449 449.3 449 448.3 445.2 440.6 435.9 432.6 431.9 420.7 407.4 397 386.6 376.5 365.5 352.7 339.8 328.3 317.2 310.7 304.1 297.2 298.8 306.5 310.8 296.4 273 282.2 290.4 287.4 292 295.2 295.9 298 301.9 306.9 304.8 315.7 313.3 333.4 344 355.7 374.2 387.3 397.1 409.3 422.7 431.7 434.9 435.6 438.3 440.9 441.8 442.5 443.9 443.5 442 437.6 433.8 429.3 422.5 416.3 405.6 399.7 392.3 385.7 379.5 373.6 368 363.5 361.4 355.4 353 344.5 340.2 352.2 357.3 357.5 354 346.9 335.3 327.5 323.8 316.8 312 309.4 308 306.5 307.3 309.1 312.6 315.6 318.7 320.2 322.8 328.4 338 347.9 352.2 350.1 336.2 334.7 350.4 355.2 360 361.6 363.2 365.1 364.6 375.4 382.5 389 396.1 403.9 417.6 416.8 409.7 398.3 388.4 384.4
249.8 248.9 256.4 259.1 259 267.6 285.8 308.2 329 346.6 357.1 360.2 363.9 364.6 363 360.7 358.4 362.6 368.5 369.5 366.3 361.6 355.6 347 335.9 320.1 304.6 286.7 275.8 269.8 262.3 255.4 250.9 248.3 246.5 243.8 238.8 229.9 221.6 214.8 214.7 212.1 208.2 203.8 199.7 197.9 195.9 194.4 191.1 190.8 196.1 205.7 208.1 211.8 216.7 222.9 228.9 236 244.9 246.9 242.1 228.2 233 239.6 243.6 246.3 251.2 257.1 266.2 282 294.9 315.8 333.2 346.5 360.8 376.1 391.7 406.4 419.5 434.4 444.7 446.5 446.3 444.7 441.2 436.3 430.1 424.6 419.8 407.9 396.8 382.7 371 360.9 352.5 339.5 327.8 321.6 309.2 298.3 295.6 291.4 295.2 302.3 302.6 287.3 271.1 288.8 300.5 293 296.1 302.8 308.7 315.6 317.9 325.4 329 332.6 335.3 326.2 340 354.4 372.7 389.8 403.6 418.2 430.6 436 437.1 441.8 446 449.9 452.7 454.9 455.5 455.4 455.1 455.4 454.4 449.5 446.3 439.5 431.4 424 416.8 409.8 403.9 398.5 390.7 382.5 376.3 369.2 362.4 356.4 347.6 334.5 344.2 347.2 346.2 341.9 333.7 328.7 324 315.2 312.9 313.5 310.1 308.5 304.9 304.3 305.3 307.6 311.5 315.1 317.9 323 333.7 342.6 349.8 351.1 342.6 324.9 346.5 350.7 354.1 356.4 358.2 357.8 365.6 371.4 377.2 384.5 393.8 398.8 404.1 402 394.3 386 381.1 377.7
257.2 252.3 262.6 268.5 269.8 283.2 305.8 330.3 349.1 362.4 368.4 370.5 369.7 367.9 366.2 364.7 368.4 375.8 377.7 375 370.1 365.7 359.9 352.9 344.6 327.5 308 285.5 273.6 265.7 258.9 252.3 245.6 241.5 238.5 231.7 232.1 234.5 231 226.4 225.3 220 211.5 206.4 202.7 201.8 202.9 201 193 190.8 190.9 199.1 206.2 210.3 213.7 219.8 226.1 232.4 240 240.9 236.2 225.2 229.7 237.2 239 241.3 247.5 254.5 264.2 277.5 289.2 303.3 320.2 333.9 348.2 364.7 380.7 396.5 410.9 424.7 437.4 441.2 441 439.5 436.5 431.2 423.8 412.7 401.9 392.8 381.3 368.1 355.1 348.4 341.4 329.6 317.1 309.5 302.7 289.4 283.9 284.1 289.9 290.2 286.9 272.6 281.4 293.1 302.7 302.2 307.5 314.8 325.7 335.3 339.4 343.6 344.6 338.3 352.2 350.8 344.7 351.9 366.1 385 402.6 420.9 432.9 434.5 440.2 448.7 454.4 458.8 463 465.8 462.9 464.1 466.2 468.5 469.4 469.7 467.9 462 456.8 451.9 446.5 439.5 435.4 431.4 419.6 408.2 396.8 385.9 374.8 366.2 352.2 347.5 334.4 334.1 337.9 337.4 333.9 327.6 319.4 316.3 325.6 323.4 318.5 315.9 312.5 305.1 303.2 303.4 304.9 309.5 313 318.6 327.8 336.1 344.5 347 347.5 331.7 342 345.3 351.5 353.5 351.9 355.1 361.6 366.5 372.1 376.9 382.5 389.1 391.2 390 384.9 381 377.7 374.3
267.6 257.7 266.8 275.4 287 308.4 329.5 347.5 361.4 370 374.6 375.7 374.3 372.3 371.5 376.1 382.2 384.2 382.3 378.5 373.3 370.1 364.7 357.8 346.1 331.1 310.1 287.4 272.9 264.4 257 250.4 244 238.6 238.3 238 239 239.5 238.6 233 228.9 227.4 224.5 215.9 210 206 204.7 203.1 200.2 190.4 190 195.6 199.4 210 216.5 224.2 225.5 230.1 235.4 234.2 228.3 218.5 225.4 232.6 233.6 241.7 248.6 255 263.6 273.7 284.8 294.9 306.8 320.4 334.1 351 372.6 389.1 403.3 417 429.9 434.7 434.4 432.7 430 423.4 412.5 401.3 388.2 378 367.1 352.9 342.5 332.3 326.6 319.9 306.7 293.9 285 278.1 273.8 280.6 273.2 272.1 267.2 279 296.5 303.7 309.8 316.7 323.4 332.8 343.5 352.2 356.6 358.2 357.4 356 357.3 355.7 354 350.4 364.5 382.1 402.5 424.1 434 436 443.7 455.4 462.2 467.8 472.2 473 470.3 471.7 475.9 479 480.6 481.2 482.4 480.3 480.6 481.1 478.5 472.9 470.2 461.9 451.1 434.6 421.6 407.8 392.6 377.2 368.2 359 349.9 338.8 327.9 321.8 320.4 318.1 320 330.8 330.4 327.6 324.2 322.1 317.8 311.9 302.9 302.5 301.9 304.4 307.1 315.8 324 330.5 337.9 340.1 333 318.7 333.5 340.2 339.3 344.4 350.5 354.7 358.4 362.3 367.9 372.5 375.8 381.5 383.4 382.4 379.9 377.6 375 372.2
267.2 268.6 268.5 282.3 303.7 333.4 350.7 359.8 367.1 374 377.4 379.4 377.6 377.8 383.1 388.1 390 390 386 381 377.9 376 369.3 361.3 349.6 334.6 312.3 292.4 278 269.8 265.5 257.4 250.6 244.8 245.6 246.4 243.1 240.6 240.1 236 230.9 230.5 229.4 224.7 219 215.4 211.6 209.7 204 198 190.1 190.6 194.8 202.3 216 227 226.3 227.6 230.3 226.4 221.8 213.9 223 225.5 234.6 241.2 248.7 255.8 263.8 272.4 281.4 291.2 300.7 311.5 327.9 348 369.9 385.7 398.5 410.4 421.8 426.7 424.9 425.2 420.4 412.2 402.6 391.6 378.6 362.4 353.5 340.4 328.3 317.9 305.6 301.4 293.9 275.8 263 260.1 262.6 263 266.8 276.8 283 293.4 308.3 318.5 323.9 335.3 343.9 351.6 358.7 364.4 368.3 370.2 368.9 368 363.9 361.4 359.6 359.1 358.5 376.5 394.3 422.1 435.7 439.4 449.4 461.5 470.1 477.1 479.1 477.1 476.1 479.5 484.4 487.7 490.2 491.6 492.4 493.4 496.7 498.6 489.2 484.9 486 485.2 478.6 462.8 446.6 429.5 410.5 399 387.9 373.1 363.1 353.3 344.9 339.4 337.2 339.7 338.6 337.1 333.8 330.3 327 323.6 318.7 313.9 306.4 302.3 301.2 301.9 302.9 309.9 319.6 325.1 332.4 328.5 317.8 338.8 348.7 351.2 352.1 353.5 355.1 359.1 364.9 368.1 370.3 372.4 374.8 377.6 378.1 375.9 374.7 373.5 370.1 367.1
272.3 277.6 280.2 300.3 323.9 346.6 358.7 366.7 370.8 375 379 380.3 382.7 388.9 392.6 394.7 395.1 392.9 388.5 384.3 382 378 373.4 366.6 356.7 339.3 321.3 304.8 292.2 288 288.4 284.5 275.7 264.8 252.3 249.8 245.2 240.6 237 235.8 231.8 230.5 231.4 229 225.3 222.1 219.7 217.6 213 206.5 199.4 187.6 190.2 197.5 201.7 214.4 215.1 219.4 220.7 210.8 222.3 224.1 221.4 229 234.4 240.5 247.6 253.7 264.9 272.7 278.3 288.7 295.6 310.7 332.7 348.9 365.9 381.9 395.2 405.8 414.7 419.1 416.7 413.3 409.9 401.2 390.2 378.4 369.3 358 342.2 327.3 312.4 296.3 286.5 285.4 283 265 257.6 268 272.3 276.5 281.6 287.2 297.8 309.2 318.3 331.5 341 352.2 360.7 367.7 373.6 378.2 381.1 382.6 380 380 374.1 370.9 368.7 368.7 373.7 381 395.1 420.5 435 442.5 453.3 467.8 477.6 483.4 482.1 481.5 483.1 486.5 492.6 495.8 498.2 499.6 500.4 502 510.1 504.8 495.3 489.6 491.4 493 490.6 484.8 470.1 447.3 426.9 413.1 403.4 392.5 379.9 370.8 363.6 357.6 352.6 350.4 345.7 341.4 337 332.6 328.5 323.8 318.7 314.1 308.6 301.4 300.4 301.2 303.3 306.3 315 320.6 311.4 320.7 338.8 349.6 351.4 353.7 357.5 361.1 363.3 364.7 368.6 373.7 376.4 378.7 380.4 382.7 382.8 376 370.8 362.9 361.3 359.2
279.7 289.3 302 323.8 339.4 351.8 363.2 370.4 375 378.3 381.4 384.5 392.3 397.5 399 399 398 395.7 391.4 385.7 383.7 381.2 376.9 370.3 362.3 350.6 337.5 321.7 308.9 311.7 309.9 305.1 297.8 285.1 270.7 255.2 244.1 238.8 234.8 231.1 228.6 229.6 232.7 230.6 224.6 223.2 222.6 220.9 216.5 216.5 212.4 196.7 187.1 192 194.4 197.6 198.5 204.1 203.2 219 228.2 226.9 225.6 229.1 231.7 238.2 244.3 256 267.4 277.1 285.9 293.2 304.3 320 336.5 350.8 364.6 377.1 389.7 401.3 408 409.6 408.6 404.3 397.3 387.3 375.2 364.4 356.7 347.6 332.7 318.9 301.7 286.5 277.1 272.3 269.4 254.6 272.5 276.1 280 286.4 292 299.1 308.4 320.3 332.4 345.5 358.1 368.8 376.4 383.8 388.4 392.2 395.7 396.1 393.1 388.9 389.1 382.6 385.7 386.4 390.4 396.5 407 431.2 440.9 447.2 458.8 473.5 484.3 486 486.4 487 489.6 493.2 498.9 501.2 503.8 505.5 507.1 510.2 514.1 508 499.4 492.8 493.5 493.7 490.8 484.3 471.1 459 449.7 435.9 423 414 402 386.3 370.8 362.5 360.4 356.2 350.7 346 339 334 329 323.2 318.4 311.5 306.8 302 299.5 300.4 303.1 305.1 307 308.1 324.1 334.8 342 345.9 349.1 355.5 362.9 369.8 380.4 374.8 374.6 377.9 381 384 386.2 385.2 381.2 374.5 368.3 361.1 351.5 351.1
292.8 303.7 323.4 340.1 350.1 358.7 366.9 373.2 377.7 382.1 387.7 395.1 400.5 402.4 402.8 402.9 400.7 398 392.3 386 386.4 383.9 379.6 373.5 367.1 360.1 346.7 334.7 330.9 327.6 324.8 319.2 312.1 303.8 287.8 270.2 258.7 242 235.8 232.2 229.5 227.3 231.8 226.6 223 223.1 224 220.7 217 219.4 212.1 195 189.2 188.9 196.1 198.8 203.6 209.4 219.8 222 225.4 226.3 227.2 230.8 234.8 240.4 250.2 263.1 275.9 287.7 297.8 308.9 319.7 329.2 341.1 351.8 364.2 373.5 381.8 390.3 396.1 397.3 396.2 394.2 388.7 379.4 368.9 356.8 345.5 337.6 326.1 311.6 298.3 287 271.1 259.7 252.5 259.4 273.7 280.5 287.6 295.8 303.8 313.7 325.6 337.7 350.6 363.2 375.4 385.2 393 398.3 402.4 406.6 408.1 407.6 405.8 404.3 403.5 406.2 407.1 409.2 412.3 415.2 426.4 439.6 452 455.8 467.6 478.9 489.2 489.3 490.1 492.4 495.9 500.1 503.4 505.5 508.6 510.7 512.8 515.7 517.4 509.6 501.1 493.6 492.5 491.6 488.6 487.9 484.7 476.1 469.2 457.6 445.5 435 425.1 409.8 390.6 372.7 366.9 360.9 355.4 349.3 342.2 336.5 329.4 322.2 313.6 307 304.3 304.7 299.5 299.1 301.7 302.2 311.4 315 323.1 329.5 334.9 343.9 353.4 363 378.2 390.3 387.7 382.2 380.8 382.6 386.1 388.7 389.5 385.2 376.5 371 363.5 357.9 352.6 346.8
318.1 324.4 340.7 350.3 357.2 365.4 371.9 376.2 380.7 386.8 396.6 402.8 404.8 405.3 405.8 404.8 402.9 398.9 392.2 385.3 387.9 386.2 380.4 374.2 368.2 361.4 352.2 342.6 341.3 337.3 334.4 328.4 318.6 309 298 290.5 278.2 253.6 239.9 235.1 232.9 228.7 223.2 223.6 218.4 223.3 224.6 218.9 217.7 217.5 213.5 198.3 189.4 189 201.6 198.5 201 209.8 214.8 220.2 224.9 224.6 227.2 235 240.3 244.9 255.1 267.3 280.6 294.9 308.3 317.3 327.5 336 344.5 353.1 362.9 369.9 375.8 380.7 384.1 385.6 384.7 381.6 376.4 369.4 360.1 350.4 341 331.9 314.9 303.3 291.2 280.6 265.4 253 251.1 267.3 280.1 288.5 296.4 308.5 320 332.7 341.5 356.6 370.2 382.5 393.1 401.8 408.4 413.5 416.7 418.4 420 419.9 418.8 419 423.3 426.9 429.9 431.9 435.8 435 446.8 457.5 466.6 469 472.4 483.1 491.8 493.3 495.4 497.3 501.6 505.8 507.4 509.5 513.3 515.5 518.1 519.2 517.7 508.8 499.6 493.1 492.5 491.9 492.9 494.9 493.3 484.4 479.3 473.8 457.9 445 438.5 427.5 414.7 396.2 380.2 371.3 363.1 355.8 347.6 339 329.1 318.3 307.7 305.5 304.8 307.8 304.4 298 299.5 304.4 308.6 314.2 319.7 326.3 335.9 345 358.3 378.7 391.3 391.8 389.8 386.7 387.1 390.6 393.8 395.7 389.7 380.4 370.8 364.3 358.6 352.9 348.4 344.3
342.3 345.1 348.6 357 364.7 372.1 376.6 379.6 386.7 395.9 402.8 405.6 406.7 407.4 407.6 406.8 404.5 400 391.6 382.7 387.5 384.5 378.6 373.7 370.5 365.6 356.7 349.9 349.3 345.7 340.1 334.1 324.2 312.8 303.8 295 281.7 265.1 248.3 239.2 233.9 228.1 217.5 218.3 215.4 220.4 223.6 220.8 215.1 213.2 211.1 204 188.8 190.1 199.4 199.8 198.9 204.7 210.4 218.4 221.4 224.2 228.4 235.6 240.7 246.7 257.1 270 282.4 297.9 312.3 321.5 330.2 338.2 344.3 351.6 359.9 366.1 371.3 375 376.6 376 372.8 370 365.2 358.1 349.9 341.4 334.1 323.6 305.2 284 278 263.3 250.8 248.8 259 278 292.6 301.9 313.8 327.6 338.3 348.1 361.5 373.2 388 398.8 408.4 415.6 421.8 426.1 428.4 429.7 430.9 431.1 431.5 433.5 438.1 441.8 444.8 447.7 451.4 456.8 461.1 473.5 478.2 478.4 481.3 485.2 493.4 496.4 498.1 501.7 505.7 510.6 512.1 513.6 517.6 519.7 520.3 518.1 515.9 507.1 496.9 492.7 492.9 494 496.9 501.7 500.6 493 487.5 483.6 473 451 440.3 435.6 429.5 418.7 401.8 384.1 373.3 362.5 352.2 339.4 326.1 312.2 306.4 305.4 304.6 305.7 306 298.9 298.7 306.7 308.6 312.1 317.3 325.5 333.4 343.2 366.4 382.3 387.8 388.2 388.6 391 394.6 401.3 404.7 405.8 386.1 371.6 361.6 355.2 352.2 348.3 345 341.9
358.1 356.7 357.8 364.9 372.3 376.7 381.1 389 396.1 402 405 407.4 409.7 409.2 409 408.5 405.6 400.4 391.1 379.7 383.2 383.1 377.2 371.5 370 366.4 361.4 359.9 356.3 352.3 345.7 338.6 327.3 324.4 317.5 307.3 292.1 278.7 265.5 251.4 239.2 229 219.2 212 214 217.4 230.6 227.4 213.2 212.2 211.1 208.6 192.9 188.7 193.9 199 199.5 202.5 209.5 213.3 219.6 226 230.3 235.8 241.4 246.5 259 270.6 284.1 298.2 312.8 321.8 330.1 337.1 342.4 348.8 355.3 361.8 366.3 369.5 369.7 367.9 362.9 358.3 352.9 346.8 339.7 332.6 324.6 311.3 290.5 273.5 259.2 248.2 252.2 265.1 277 291.6 305.1 318 331.2 344.9 357 366.5 378.1 391.4 402.8 413.3 421.7 428 432.4 436.9 438.5 440.1 440.5 441.7 442.4 447 451.5 454 455.9 458.2 462 466.4 471.9 483.2 488.5 485 485.7 488.9 494.3 498.3 500 505 509.2 513.1 515.9 517.5 520.9 520.2 518.3 516.5 513.5 505.1 496.9 493.2 493 496.5 502 506.6 504.8 499.7 493.7 486.9 475.5 459.9 442.2 436.8 435.3 428.8 418.7 404.2 386.3 371.4 354.8 335.8 317.7 309.3 306 306.4 304.7 305.3 307.9 296.4 310.6 309.8 308.3 313.7 317.6 323.4 331.1 341.1 357.3 374.7 384.2 388.7 393.4 397.7 406.3 411.7 414.3 405.9 378.9 364.2 350.8 347.1 345.3 342.1 340.3 337.8
367.2 366.7 369.1 373.1 379.1 381.8 388.2 396.5 401.9 404.3 407 410.1 410.5 411.1 410.5 409.3 406 399.7 388.1 376.6 377.7 379.1 374.6 369.2 368.8 367.9 365.5 364.7 361.6 356.9 352.2 343.8 340.4 337.8 333.2 324.8 312.5 297.6 286.2 264.4 252.6 236.6 223 212.2 207.7 214.5 215.8 213.2 211 210.8 211 210.7 203.2 188.4 189.4 198.6 199.6 201.7 205.8 211.5 217.5 224.4 231 239 244.8 248.5 258.8 270.2 284.4 298.4 310.8 321 329 334.8 339.6 344.7 350.9 356.6 359.9 362.4 362 359.1 354.7 349 342.9 336.9 330.7 324.7 315.7 297.8 269.8 257.1 245.8 250.3 263.1 276.4 290.4 307.5 320.3 333.4 346.8 358.9 369.9 380.8 392.9 404.2 415.7 425.2 432.9 436.7 440.7 446 449.9 451 451.2 452.5 453.9 458 461.7 464 465.5 468.6 472.3 475.3 480 487.2 493.5 494.8 494 498.8 501.1 501.6 503.6 507.2 510.8 513.4 517.3 519.9 521.5 520.8 518.8 515.7 508.7 502.7 497.7 493.9 495.4 499.5 503.6 506.9 506.5 501.6 498.2 489.8 479.7 466 450.9 442.5 440 434.9 423.9 407.7 392.1 374.4 357.3 339.1 324.2 309.4 307.6 309.3 304.6 305.7 308.8 299.8 300.4 308.3 311.7 315.2 318.8 324.3 330.8 341.1 353.4 369.8 383.1 393.6 406.5 415.6 416.1 417.4 416.1 387.4 367.6 351.8 343.8 340.5 338.1 337.3 336.9 336.4
374.8 375.1 376.1 381.4 386.4 389.9 395.8 399.7 402.5 404.5 408.6 409.6 411 412.5 412.9 410.1 405 396.9 386.2 376.4 370.4 373.2 370 367 368.4 368.9 369 367.7 365.3 361.2 357.2 353.3 350.6 349.6 345.8 339.3 328.5 313.5 300.5 284.1 271.8 253.6 231.2 216.1 206.1 204.9 206.8 209 209.9 210.8 210.6 209.6 206.4 194.9 187.7 194.4 199.5 200.1 204.5 209.5 215.3 223.7 233.2 241.7 246.9 250.1 257.4 269.2 282.8 297.4 310.3 321.2 327.7 332.7 336.7 340.1 345.7 350.6 353.3 355 353.7 350.5 345.3 340.3 334.4 328.6 323.5 316.9 304.6 279.7 258.9 249.9 243.3 260.9 272.2 286.2 302.7 319.7 332.8 347.2 360.1 371.1 381.8 393.6 404.3 415.3 425.6 433.5 440.6 444.7 448.5 452.9 458.8 461.5 462.9 462.7 464.4 467.2 470.3 471.6 473.3 476.9 480.9 484.5 489.4 494.4 498.1 502 504.4 508 507.2 506.8 507 508.8 512.2 514.3 516.3 517.5 519.9 523.6 520.5 515.6 506.4 499.7 494.9 493.8 496.8 500.2 504.4 507.1 505.9 500.9 495.8 489.3 481.3 469.6 457.4 449.5 443.9 437.5 429.5 418.6 397.9 375.5 355.1 336.5 318.9 311 309.2 307.7 306.3 306.3 310.4 307.4 293.8 300.8 312.4 317.4 322.2 328.3 337.4 347.9 360.5 371.9 390.6 411.1 424.2 427 415.8 410.4 392 371.5 355.7 342.3 337.8 335.5 333.8 329.5 335.6 339.8
380.8 382 381.4 385.4 390.2 393.8 397.3 400.1 401.9 405.1 407.7 410.6 412.1 413.7 413.5 409.4 402.6 393.5 383.7 374.9 366.9 364.5 364.3 363.6 363.8 368.4 370.2 369.9 368.4 364.8 362.9 361.1 359 358.1 355.8 352 343.3 331.8 322 306.9 289 269.9 243.8 223.1 208.4 200.5 202.3 205.6 208.5 210.2 208.2 206.9 206.1 198 187.1 193.9 197.9 199.2 203.9 210.9 218.6 225.3 234 240.8 245.7 250.8 256.9 267.5 279 294.6 306.8 317.7 321.7 330.6 334.9 338 341.1 345.2 346.7 346.7 344.4 341.3 337.1 331.6 326.9 322 316.7 309.2 288.7 268.4 253.1 242.3 255.1 267.5 280.6 295.8 313.1 330.8 345.1 358.2 370.7 382.5 394.9 405.5 415.4 425 433.9 441.3 448.2 452.6 455.9 458.9 464.2 470.3 471.8 472 473.9 474.2 476.4 478 480.5 485.1 490.8 494.8 495.7 499.1 501.6 507.4 512.1 513.1 512.8 511.5 509.7 509.4 512.2 514.4 517.2 517.5 518.1 521.3 518.3 509.7 499.1 490.2 488.2 493.4 499 503.4 505.8 508.3 504.4 500.1 496.4 484.8 474.9 466.4 459.4 453.1 443.5 436.3 428.2 416.1 395.6 373.1 352.5 336.4 321.4 314.9 311.3 306.6 305.7 306.8 309.5 305.4 293.5 295 313.2 320 326.1 333.6 342.6 358.1 367.9 382.3 401.6 421.4 425.4 410.5 398.8 388.7 370.2 356.2 341.8 335.6 332 326.8 329.5 335.1 338.1 345
382.3 382.1 383.5 386.7 390.3 393.1 396.6 398.3 402.5 405.7 407.8 410.8 413.4 414.5 411.4 406.5 398.8 389.9 381.5 374 364.1 355.4 355.8 356.9 360.5 368.2 369.5 370.2 370.4 367.8 367.4 367.6 367.3 366.2 364.7 362.1 357.1 350.5 340.9 323.5 302.7 281.7 258.3 230.8 207.4 199 197.3 203.4 207.6 208.2 205 203.3 196.8 188.4 191.4 196.7 196.8 197.1 201.8 212.6 221.7 229.7 235.3 240.8 246.3 251.7 257.2 265.6 276.1 289.4 300.6 310.2 319.6 323.1 331.3 335.7 338.1 340.1 340.6 338.9 335.4 331.8 328.8 324.1 319.6 315.9 309.6 299.7 279 256.2 241.9 246.2 260.2 275.9 290.1 305 321.9 339.3 354.6 369.2 382.7 395.7 407.2 416.1 425.3 434.5 443.4 451.4 458.3 460.8 462.2 465 469.9 476.7 480.2 481.1 481.2 481.2 483.1 484.6 488.1 492.2 497.1 499.3 501.8 503.5 505.9 510.8 515.4 516.1 515.4 513.8 512 512.1 511.1 512 516.3 517.8 516 517.1 513.5 502.8 490.4 481.2 482.2 492.2 506 510.7 512.6 513.2 503.5 496.2 490 478.2 469.2 459 452.8 445.4 439.9 430.7 421.9 410.2 391.8 369.6 348.8 333.7 325.3 319.9 312.4 308.4 304.9 304.4 304.5 295.4 292.3 302 314.1 322.8 330.3 339 350.7 365.5 381.8 394.1 410.2 423.2 410.7 397.1 377.9 363.4 349.9 341.9 334.3 327.4 325.5 331.6 335.6 338.2 343.4 349.9
379.9 380.4 383 384.1 387.1 390.2 392.7 395.7 399.6 404 408.5 410.5 412.1 412.5 408.4 402.3 395.7 387.3 379.4 371.9 362.7 352.4 348 350.8 355.7 364.1 366.9 369.6 371 370.5 371.6 373.9 374.3 374.8 374.4 372.6 369.7 363.9 354 336.4 312.9 287.1 268.9 244.3 216.8 198.7 193.9 201.1 204.8 204.1 200.4 194.6 184.5 188.2 190 193.4 194.5 200.1 206.9 216.9 225.1 232.6 237.9 242 247.3 251.8 257.5 264.6 273.5 284.9 294 303.1 309.9 317.8 323.2 327.4 330 331.6 332.6 330.9 326.3 322.7 319.1 315.9 312.4 309.8 303.1 289.3 266.2 250.2 238.2 252 267.3 282.8 298 313.4 331.1 346.8 362.5 378.5 399.1 408.6 416.8 425.2 434.4 443.8 453.4 458.5 463 466.4 468.6 471.4 474.8 482.1 487 488.8 487.6 486.9 487.3 489.5 492.6 495.8 498.9 501.3 504.1 505.8 509.1 513.3 517 517.1 515.2 513.4 512 510.8 510 510.1 512.8 515.5 513.9 514.5 506.5 496.2 482.8 479.2 479.8 496.4 510.3 515.2 516.2 511.8 500 488.4 477.9 468.4 461.9 452.1 442.4 436.5 430.8 420.4 412.2 397.7 378.1 360.5 343.2 335.5 329.6 319.7 313 309.2 304.6 301.6 301.1 291.1 290.2 306.3 314.2 322.7 335.4 346.6 359.5 375 391.7 404.7 416.4 415.6 396.8 382.1 360.6 342.3 335.7 330.7 320.8 325.1 333 336.4 339.8 343.4 347.4 353.7
377.4 376.5 379 381.2 384.6 387.8 389.8 391.5 397.1 403.3 408.2 411.9 411.1 408.4 403.6 398.1 391.7 384.3 377.6 368.8 361.5 350.7 342.7 346 350.7 358.1 364 367.5 371.1 372.7 376.2 379.8 382.8 383.8 383.5 381.4 378.4 374.3 364.7 344.8 319.2 291.4 265.6 248.2 224.8 202 193.4 195.6 198.4 199.7 192.4 183.7 187.8 191.8 198.4 195.2 197.4 209 215.1 220.7 229.2 236.7 240.8 243 246.5 250.5 255.6 262.5 269.8 279.5 288.2 294.3 301.1 308.2 313.6 316.1 319.1 321.1 322.1 321.5 317.8 312.7 309.4 306.8 304.1 301.5 296.1 279.3 253.6 236.8 244.9 258.1 271.6 286.1 302.8 319.5 336.7 353.2 369.9 392.3 409.3 417.8 424.9 432.3 441 450.8 458.3 462.8 466.8 470.7 473.6 476.9 480.8 487.8 493.2 496.2 493.8 491.8 492 493.9 495.5 496.8 499.5 502.4 505.4 507.5 510.1 513.6 518 517.7 515 512.6 510.8 507.7 504.8 505.3 507.5 508.2 509.5 508.3 499.9 487.2 478.1 477.5 481.7 499.7 514.1 516.3 517.6 503.5 493.5 477.6 461.6 455.6 450 442.7 434 426 418 407.7 400.1 385.1 366.2 351.9 343.5 336.4 325.3 318 316.6 311.6 302.8 300.6 299.1 290.4 289 307.1 316 329.6 343.4 357.2 369.7 383.5 396.5 410 407.9 397.8 384.3 366.5 343.4 330.1 327.1 319 324.8 331.7 335.9 341.6 345 349.6 353.6 357.7
377.3 373.5 374.2 378.2 381.8 385.4 387.9 387.1 392.6 400.2 406 409.9 408.2 404.9 399.6 394.1 387.7 380.8 375.3 367 358.3 349.2 341.6 341.7 346.9 353.1 359.7 366.3 371.8 376.9 382.1 386.8 390.5 391.6 391 388.8 385.5 381.7 366.3 347.1 324.3 295.3 267.3 246.6 230.1 207.2 194.8 190.2 193.2 185.1 184.7 186.4 189.3 194.1 199 199.4 203.5 213.6 218.3 223.3 231.5 239.1 241.6 241.9 244.9 247.9 252.5 259.3 268.2 275.7 282.2 288.5 295 300.1 303.2 305 307.1 308.1 310.8 311.4 309.1 304.1 300.7 297.8 294.9 292.9 286.7 268.4 243.5 238 250.4 258.6 273.9 288.6 306.1 324.4 342.9 361.3 380.2 400.7 414.6 425.7 431.2 437.2 445.5 454.7 460.7 465.9 470.5 474.6 477.9 482.2 487.1 494.6 499.8 502.1 499.7 497.4 498.2 498.3 498.2 499.1 501.4 504 506.6 507.8 510.2 512.9 515.1 515.5 513.5 511.4 508.6 502.3 499.9 498.1 499.2 499.7 499.1 501.6 493.6 480.7 476.2 479.6 485.3 505.4 514.8 515.9 507.4 495.5 481.9 461.8 447.9 440.1 437.6 434.3 427.1 418.1 407.1 398.2 387.6 374.2 358.5 350.4 342.8 334.2 324.3 317.8 314.6 309.7 302.4 299.3 297.3 290.4 288.7 304.6 323 339.7 352.9 368.4 383.4 398.4 404.4 396.6 387.5 375.2 362.6 346.4 330 323.6 320.2 310.8 326.7 332.6 339.8 345.1 350.5 355.8 359.5 361.8
378.7 376.1 371.9 374 378.4 381.9 384.6 383.8 386.5 395.1 401.6 403.7 402.7 400.1 395.3 389.9 384.6 377.7 371.3 364.3 355.4 345.7 338 338.1 343.3 350.3 356.3 366 375.2 381.8 388.5 393.7 397.4 398.3 397.2 394.3 390.3 382.2 365.2 347.3 326.8 296.7 268.2 241.6 229.4 204.7 195.9 190.3 189.8 184.5 185.1 185.4 192.5 197.3 199.3 202.1 207.5 213.8 218 223.3 230.1 236.6 238.8 239.2 241.6 245.3 251.8 258.2 265.1 273 280.8 286.7 292.9 297.5 294.3 293.6 292 293.6 295.3 297.2 297.1 293.4 291 289.2 285.7 283.5 279.2 262.1 235.6 240.5 254.6 266.9 278.6 288.8 308.9 328.3 349.1 369.9 387.8 405.7 421.3 429.1 433.9 439.8 449.7 457.4 463.5 468.9 474 478.7 483.5 488 494.1 500.2 504.7 505.8 503.6 501.6 501.8 501.4 500.8 501.4 502.5 504.6 506.8 508.1 509.8 510.5 509.8 509.9 508.1 506 502.1 497.4 491.9 490.3 491.1 488.4 488.5 492.3 486 477.4 473 479.5 486.2 508.6 515.3 507.9 496.5 487.2 467.8 447.9 438.8 431.6 428.6 426.1 421.4 414.3 404 392.6 379.8 369.2 358 349.7 342 335.8 326 315.7 310.3 307.1 302.7 299.8 295.8 289.6 288.1 301.7 323.5 344.6 360.2 372.7 382.4 386.3 383.3 374.5 365.3 355.9 343.7 329 322.5 319 305.5 321.6 327.7 335.8 344.5 349 354.9 360.6 363.5 364.7
385.2 380.7 377.8 369.6 372.7 377.4 379.6 379 379.4 387.6 394.9 396.7 396.5 394.9 391.6 387.1 382.7 374.9 366.4 360 351.7 341.5 333.5 336.1 343 349.1 354.1 367 379 387.7 394.4 400.2 403.4 403.2 400.8 396.9 391.2 381.1 364.7 344.7 325.1 297.7 268 240.7 224 207.3 196.5 191.8 184.6 184.2 185.2 190.5 197 198.3 200.2 206.3 209.2 213.8 218.3 223.3 229.6 233.7 235.3 235.8 239.3 243.2 249.9 257.1 264.6 270.6 277.6 282.5 288.8 293.8 287.8 282.6 279.6 277.3 279.1 282.2 282.4 281.2 280.3 280.4 274.8 271.1 266.1 255.2 233.6 245.1 257.9 270.8 284.8 299.1 317.7 336.7 355.1 375.2 393 411.1 425.7 431.8 436.1 442.1 451.9 460.3 467.7 473.1 477.6 482.8 487.8 492.4 498.1 503.4 507.1 506.6 504.9 503.9 503.1 502.3 502.3 502.3 502.4 505.5 508.4 510.7 510.2 507.3 504.8 502.5 501.9 499.1 495 491.9 486.6 481.2 481.6 480.1 474.1 477 477.1 474.5 471.3 478.7 491.3 510.7 507.2 498.7 488.2 471 454.4 440.6 433.8 427.6 421.5 418.7 415.7 410.5 402.7 391.6 378.4 365.4 356.7 343.9 333.6 328.4 321.4 316.1 311.4 306.3 302.3 299.2 296.2 291.6 287.7 290.2 311.4 325.9 340.6 351.3 360.2 362.3 362 358.2 350 342.6 328.3 320.4 317.7 311.8 311.3 323.4 329 342.2 348.7 353.9 358.3 361.2 362.1 363.7
