ncols 200
nrows 82
xllcorner 210000
yllcorner 865500
cellsize 50
471.1 457.7 444.3 431.2 418.2 401.8 392.6 382.2 372.8 361.5 371.2 379.1 386.7 394.5 409.7 424.5 440 454.5 470.1 484.8 495.5 506.3 513.6 521.4 532.2 546.1 561.5 577.4 594.2 610.8 627.3 643.6 661.5 678.5 685 653.3 618.7 595.4 573.6 553.7 534.2 522 507.9 493.3 477.6 465.9 457.2 449.4 449.8 452.9 456.2 465 476.6 490.3 503.3 524.3 546 570.5 592 609.1 620.6 633.3 645.5 656 665.9 675.4 684.4 691.5 698.4 704.3 690.6 662.1 646.1 631.8 620.8 610.6 598.8 586.8 582.1 576.2 569.1 558.3 549.7 539.5 531.1 520.2 508.3 496.3 481.1 463.8 450.1 431.7 417.3 398.5 387.2 372.7 358.5 344.7 338.7 332.7 327.4 313.7 307.1 308.9 324.2 327.3 331.1 337.4 340.2 344.4 344 347 353.7 359.1 365.8 371.9 378.6 386 396.2 401.3 407.6 417.4 426.8 438.1 451.1 457.2 459.2 457.8 453.3 447.2 442.5 439 435.7 427.5 416 405.1 398.4 394.4 404.7 407.8 419.6 434.1 451 469.6 491.1 516.2 545.5 580 621.7 662.4 709 735.8 741.1 740.1 737.1 736.3 734.9 736.7 746 759.4 775.2 789.7 808.6 823.2 840 853 862.2 842 811.7 796.8 774.3 729.8 699.1 657.7 625.2 599.1 578.6 557.6 535.8 522.5 513.8 503.1 497.2 484.5 462.7 447.4 442.1 449.7 459.3 471.8 489.6 502.4 520.7 535.2 567.9 597.6 624.5 649.5 679.8 706.9
460.4 449.1 437 424 414.6 398.4 385.9 371.3 362.1 360.7 368.9 375.2 383.3 391.3 404.3 420.6 435.2 450.3 462.4 475.7 488.8 499.1 507.2 515.4 524.3 537.5 552.1 566.1 581.1 596.6 615 635.3 655 672.7 682 645.5 616.5 593.9 572.9 554.6 539.4 520.1 506.7 490 481.1 469 460.1 449.7 431.8 440.5 448 454.4 462.8 471.8 487.2 503.3 524.3 552.2 578 598.9 612.1 624.1 637.1 648.2 657.8 666.3 677.9 686.6 695.4 701.3 696.2 667.2 648.2 636.9 626.2 616 605.6 596.5 590.4 587.6 579.9 571.9 561.1 551.6 540 530.1 520.3 511.9 497.8 481.1 462.9 448 433.5 416.4 400.3 386.2 371.3 356 342.4 332.5 326.4 322.1 317.4 304.6 311.3 320.6 327.4 330.7 335 336.6 335.2 338.8 340.4 341.6 348.5 354.1 359.7 364.3 377.3 386.6 391.3 401.2 408.1 419.4 430.7 440 443.6 441.7 438.2 438.2 433.3 427.4 421.9 417.1 408.8 396.1 387.6 393.8 398 410.6 426.1 445.6 462.5 484.9 503.6 526.3 559.1 596.3 636.1 678 715.3 736.8 743.7 747.2 745.2 743.9 744.4 747.9 753.5 763.7 774.9 789.9 804.9 817.4 832.6 840.7 829.5 820.1 794.9 763.2 743.8 715.1 707.8 657.3 627.8 606.8 584.5 560.6 541.1 523.1 514.7 504.2 494.3 477.3 462.5 446.9 438.2 444.4 452.7 465 481.8 494.2 518.3 533.8 557.4 587.1 618.7 649 678.7 704.9
452.1 442.4 432 422.9 406.9 394.6 381.5 367.3 358.1 359.8 366.1 373.7 379.1 391.2 401.1 415.4 429.1 443.4 454.4 468 481.1 492.9 500.7 510 519.5 530.2 542 552.8 571.2 590.9 609 630.6 650.2 668.1 679.7 652.4 621.8 592.4 568.9 549.3 535.4 517.6 502.1 490.4 481 468.1 458.8 449.5 429.6 427 432.5 439.5 448.1 455.7 465 484.9 506 519.1 561.8 589.3 605.2 617 629 640.2 651.6 661.4 672.6 683 692.7 700.8 705.1 684.9 657.9 644.8 632.5 619.5 612.8 605.7 597.8 596.5 590.4 579.7 569.8 559 543.7 535.4 529.1 517.3 505.2 493.7 478.3 462.1 446 434.6 419.1 401.4 385.7 371.6 358.6 344.2 328.5 321.6 317.8 308.4 300.7 312.6 318.5 323.6 328.2 327.4 326.9 328.7 330.1 330.8 332.8 341.3 343.1 350.8 360 369.6 374.5 385 394.8 405.1 417.3 424.2 430.1 429.1 426 424.4 421.1 414.5 406.6 405.4 399.2 388.2 382.8 389.3 399.6 418.6 436.2 454.2 473.7 492.6 514 545.5 580.2 619.1 653.4 682.5 713 732.6 743.3 748 749 751.1 755.6 756.7 760.1 766.4 776.2 787.7 800.7 812.7 823.6 821.8 800.4 787.5 766 750.6 727 706.3 692.6 673.7 635.6 609.4 590.7 565.2 543.9 525.6 515.8 506.1 497.3 481.8 465.7 446.9 438.3 435.9 447.4 460.6 475.8 490.6 516 530.1 551 579.4 614 647.8 676.4 704
445.4 439 424.6 414.3 401.5 386.9 376.3 366.5 357.6 357.8 364.1 369.7 379.4 391.3 397.3 409.2 421.2 437.8 451.3 463 475.2 485.5 494.2 504 513.8 522.7 535.3 550.4 568.3 588.8 607 629 649 667.7 679.6 656.3 620 586 559.3 541.3 533.7 518.6 503.8 491.6 481.7 467.4 456.7 440.8 427.7 411 418.9 428.1 434 440.5 452.6 468.2 485.5 511.8 539.1 575.6 596.8 611.1 623.4 634.4 646 656.7 668.6 679.7 689.8 700 708.7 708.3 681.1 655.1 639 628.3 622.5 615.1 608.3 603.4 596.3 585.9 573.4 563.7 553.4 542.5 534.3 524.4 512.5 500.1 488.1 477.5 459.3 445.1 434 418.3 401.8 384.4 371.5 357.9 344.1 330.7 319.4 312.4 297.5 299.4 306.6 314.8 315.9 316.7 320.7 318.6 320 317.5 320.8 328 332.3 337.2 345.6 351.8 359.2 368 380.5 389.5 401.5 410.9 415.3 418.3 416.5 412.9 408.4 401.5 398.3 393 386 379.8 380.6 392.9 413 431.1 449.1 472.6 482.5 502.7 530.2 561 592 625.5 655.9 682 709.7 726.9 739.2 745.3 747.7 750.4 755.1 759.5 763.8 768.8 774.9 784.7 796.6 807.5 815 814.8 784 756.6 748.1 721.1 720.3 698.2 684.4 666.6 637.7 612.6 597.4 579 548.6 530.3 515.6 506.3 497.7 483.2 465.6 449.6 439.6 432.3 448.3 457.8 475.8 485.9 508.1 528.6 545.7 577.3 611.1 644.2 674.6 699.5
432.4 427.1 417 407.9 394.9 380.8 371 369.6 353.9 355.5 362.4 367.9 376.5 386.2 394.3 403.9 416.9 433.5 447.4 457 468.9 478.7 488.8 498 508.9 519.4 531.9 549.1 567.6 588.1 608.1 630.4 650.8 669.7 676.9 648.7 610.1 579.6 556.9 545 530.2 514.7 505.9 493.1 480.6 467.7 455.6 440.1 424.5 404.7 398.7 410.5 416.5 430.9 442.5 452.2 469.2 494.3 521.4 556.6 586.7 605.6 618.6 629.5 641 652.4 663.6 675.8 686.4 698.1 709.9 715.7 702.7 677.2 651.4 635.8 630.6 623.3 618.7 610.2 600.3 587.3 575.9 568.9 558.5 548.6 538.9 529.3 519.3 507.6 495.1 484.6 471 457.9 444 431.2 417.4 402.1 382 368.1 354.6 341.1 325 313 304.5 291.3 299.5 302 307.5 309.4 312.6 310.3 311.5 309.6 313.8 313.8 318.4 326.9 329.4 339.9 347.9 352.1 362.6 375 384.7 397.2 401.2 404.6 405.2 400.9 400 393.9 389 378.8 370.6 375.1 387.6 402.1 420.8 439.2 457.6 476.7 498.5 521.2 550.5 577.4 610.4 637.4 662.2 686.1 709.9 723 731.5 737.7 740.3 744.5 749.5 756.1 761.3 767.5 774.2 782.2 792.3 802.5 810.5 810.7 775.7 750.2 730.2 715.9 706.7 694.1 692 681.3 649.2 622.3 605.3 584.7 555.6 535.6 518 507 497 487.7 470.9 448.7 439.5 430.4 439.7 452.4 470.8 480.4 502.6 521.5 541.9 572.8 603.3 641.9 669.6 695.6
427.7 413.6 406.9 398 388.4 383.5 371.4 363.1 356.6 355.6 359.8 365 373.9 383.3 390.6 400.9 412 425.6 439.1 450.5 461.2 470.6 482.6 492.3 502.7 518.4 532.8 549.3 569.3 590.3 610.5 632.6 653.2 670.3 671.2 645.9 607.9 573.5 558.7 545.7 530.1 514 499.8 490 478.5 467.1 452.9 436.9 420.5 401.6 385.4 394.2 408 420.7 426.9 435.8 459.4 478.5 505.7 538.5 575.1 598 612.1 624.9 636.5 647.3 658.8 670.5 683.7 695 707.4 715.9 715.9 687.1 665.6 651.7 641.5 632.3 624.2 614.8 604.3 595.4 582.5 570.5 562.1 553.6 542.4 533.5 523.3 512.3 502.2 491 479.4 469.2 459 444.8 431.9 414.5 399.6 380.4 362.8 346.5 335.5 323 310.6 300.4 291 288 291.8 299.4 301.2 302.8 304.2 301.5 307.1 306.8 308.4 314.9 317 325.7 331 337.8 346.9 357.4 370.8 381.7 387.3 390.4 391.4 391.3 389.6 392.9 381.5 372.3 364.4 377.2 395.9 410.9 429.5 446.7 469.1 491.4 519.7 547.6 575.5 591.2 615.6 642.6 667.5 687.6 701.6 713.8 722.7 729.8 734.2 737.1 741.5 747.1 754.3 762.1 770.8 779.8 789.3 799.4 809.4 811.8 784.9 753.5 731.1 713.2 697.7 696.3 687.1 683.1 669.2 640.8 609.1 581.8 546 531.7 520 508.2 498.5 487.3 470.8 451.1 436.7 429.1 433.7 444.1 458.4 478.1 497.8 515.6 535.1 568.5 605 639.9 666.7 688.6
422.8 411.1 400.9 388 382.3 373 366.9 361.5 356 351 359.1 362.9 368.1 377.6 386.4 398.3 409.3 418.2 430.5 441.7 459.2 468.6 479.6 492.5 505.6 519.4 533.9 549.8 569.5 590.3 613 631.9 656.8 674.6 673.4 646.4 605.2 573.7 558.4 541.8 528.9 515.4 503.2 489.4 474.6 462.7 448.3 433.5 419.8 402.9 379 382.6 396.9 403 413.8 430.2 447.6 463 492 526.1 555.8 587.1 606.7 620.8 634.1 643.1 654.8 666.7 679.5 693.2 705.6 714.2 720.2 701.9 679.1 662.7 654 643.7 631.4 618.2 606.6 598.1 587.9 577.3 565.5 556.8 547.2 537.9 527.3 517.7 507 496.9 484.3 477 468.9 456.4 442.1 428.3 412 392.8 374.9 358.7 345.2 330.1 318.1 305.6 295.7 289.2 283.3 287.9 290.7 294.5 294.8 294.3 296.5 297.9 298.9 303.5 308.1 312.5 316.5 325.6 334.9 343.8 354.5 365.1 373.1 376.1 376.7 383.6 381.4 381.5 378.4 362.2 367.6 387.6 404.8 419.8 439.9 461.1 485 516.1 549.8 579.4 606.5 621.6 625.3 645.3 662.7 673.3 688.9 709.1 720.5 728.8 734.2 736.5 737.8 741 746.3 755.5 765.8 777.5 788.1 799.5 810.4 821.9 787.3 760.5 738.5 710.8 692 688.3 681 669.7 667.7 644.1 610.1 573.2 548.6 534.8 524.2 512.6 501 488 471.4 448.4 436.5 426.6 428.4 438 454.1 473.1 492.1 512 531.9 564.8 599.4 634.2 661.3 683.2
414.6 408.3 394.5 385.3 374.3 366.9 363.8 359.4 353.8 350.2 357.6 359.7 366.9 376.1 391.3 406 418.4 429.5 440.8 453.4 465.5 475 480.3 493.4 506.2 520.8 535.3 550.9 571.4 593.2 614.3 633.9 658.6 674.7 674.2 645.2 602.7 577.1 558.2 541.7 528 516.2 503.1 489.3 474.9 460.9 446 431.2 418 399.2 386.8 369.2 389.1 393.3 407.7 420.4 434.6 450.4 474 505.1 537.4 564.2 597.1 616.1 630.5 642.6 652.9 663.5 676.3 689.4 701.9 712.1 719.5 723.6 701.2 684.8 672.8 660.5 643.9 630 611 600.6 592 581.6 572.4 561.9 551.4 541.2 530.2 520.5 513.3 504 492 484.3 475.5 466.5 454.7 441.6 424.9 405.7 386.6 369.4 353.2 337.4 320.8 308.6 298.6 289.9 283 277.3 283.3 287.7 288.7 287.9 287.9 290.3 292.1 294.6 298.8 303.5 306.5 315.5 322 331.4 340.9 349.3 360.3 362.8 362 368.8 374.2 365.9 365 356.6 375.7 395.7 412.6 429.2 450.5 475.2 504.6 534.5 566.4 595.9 618.4 637.7 649 658.2 669.6 686.3 702.4 715.9 726.8 733.2 737.7 739 739.7 741.4 745.2 751.7 763.3 776.1 788 802.2 815.4 826.3 802.7 791.3 758.1 716.5 700.7 682.9 678.3 659.5 637.9 608.5 583.5 566.8 545.3 536.7 529.1 517.8 505 491 479.2 460.5 438.8 426.3 428 437 446.4 464.6 484.2 499.5 524.4 558.2 591.2 622.3 653.9 676.1
406.4 396.5 390.5 379.8 370 364 359.7 355.5 352.4 346.7 352.1 360.6 368.1 381.9 397.4 409.8 420.2 433.3 445.8 460.7 473.9 483.7 493 502.6 514.6 528.3 541.3 557 574.9 594.6 616.5 639.2 662.4 676.5 673.4 640 606.1 578 559 543.1 527.3 515.1 504.6 491.3 475.8 460 442.6 427 413.3 396.7 381.5 367 381 389.2 397.9 410.5 423 441 462 488.7 515.8 547.3 585.4 612.5 627.6 640.9 650.5 662 672.7 684.8 696.7 707.4 715.6 723.5 727.2 720.9 707.7 690.3 669.7 638.9 623.6 606.5 597.3 586.1 574.9 564.7 555.7 543.4 534.9 528 518.5 508.2 497.7 489.2 479.5 470 460.1 451.5 439.8 423.6 405.4 381.3 365.6 343 326.2 314.1 304.6 294.4 283.2 278.4 278.3 282.3 283.7 282.5 280.5 285.3 285.5 286.3 292.4 294.4 299.4 303.7 312.6 318 331.8 340.3 347.6 351.5 352.3 357.2 368.3 356.2 351.6 363.7 383 402.5 419.7 439.4 463.4 491.5 525.2 556.2 573.5 600.3 626.2 656.2 668.7 672.8 686.3 699.5 712.5 723.4 734.7 740.6 743.8 745.1 743.3 743.6 748.1 753.8 763.6 778.8 793.3 806.6 819.9 834.6 822.2 805.3 767.7 727.2 698.2 674.1 664.3 646.1 625.3 600.2 583.1 562.4 549.3 540.7 533.5 522.2 508.4 493.8 481.1 465.3 443 427.8 423.4 433.9 441.4 457.6 482.2 499.4 515.3 545 575.5 606.9 642.3 668.8
396.8 388.9 384.3 374.2 366.6 358 354.4 352.1 346.3 347.9 355.7 363.2 368.8 381.3 395.6 410.8 422.1 436.6 452.7 467.5 482.3 493.2 503.3 510.7 523.1 536.5 550 565.9 582.2 601.4 623.7 644.5 667.3 681.1 675.6 639.1 603.4 577.2 559.8 543.1 531.9 517.1 505.9 492.4 476.4 460.4 443.7 429.6 413.5 398.8 382.3 365.4 366.5 380.9 387.3 398 414.3 432 451 478.2 502.9 539.3 579.2 609.6 626.4 641 649.9 659.3 669.5 679.4 690 699 707.3 716 723.7 733.7 736.4 717.2 687.1 660 633 613.3 602.8 589.5 577 568.1 560.7 550.5 541.4 533.4 524.7 517.1 507.2 496.8 486.7 475.3 467.2 459.1 453.2 440.8 417.7 400.3 376.4 354.4 334.7 319.1 306.4 295.9 286.8 279.4 272.1 276.5 278.5 278.1 276.2 279 281.2 280.3 284.9 291.9 291.6 296.5 302.9 313 318.7 326.6 335.3 339.4 342.9 346.4 354.1 347.8 349 367.9 387.7 406 425.1 448.2 473.5 506.5 546 578.4 601.3 619.7 645.7 679.9 689.2 695.6 703.1 714.6 726.6 735.8 744 749.4 752.1 751.3 747.5 745.5 751 757.4 765.7 781.1 795.1 810.4 825.1 840.1 841.4 821.6 789.8 751.7 708.7 683.9 658.8 645.6 627.6 606.6 583.5 568.1 559.2 543.4 537.6 523.2 510.4 496.6 482.8 470.3 446.1 429 419.6 426 435 450 477.4 492.8 507.6 530.9 566.4 595.5 627.7 658
385.7 379.9 376.6 370.3 363.9 354.8 346.1 346.2 344.3 351.6 357.2 364.8 372.5 382.9 397.2 411.3 428.7 440.6 458.7 475.5 490.5 504.1 514.3 523 531.6 545.2 558.8 575.7 594.9 616.9 633.3 651.7 670.4 681.2 677.3 640.3 607.1 577.3 559.3 543.8 530.4 519.2 506.6 494 478.8 462 445.8 427.3 410.1 397.3 384.3 366.3 360.1 374.2 378.2 390.9 409.4 424.3 441.7 465.9 494.2 535.9 571.2 606.3 624.6 638.4 648.7 656.6 665.5 673 683.6 691.6 700.2 707.9 715 724.1 732.2 736.4 709 671.3 639.3 620.4 607.1 592.6 581.2 571.3 563.8 556.8 548.5 539.6 530.8 524.7 517.7 508 494.4 485.6 475.9 465 460.3 453.4 443.8 425.5 389.2 367.2 344.9 325.5 312.6 299.4 288 280.3 274.9 269.7 273 274.5 274 273.4 275.6 274.4 279.4 283.3 284.8 288 293.4 299 306.3 316.5 324 329.7 336.1 338.6 341.5 339 353 371.8 390.2 408.6 433.4 456.2 487.1 527.4 566.8 592 622.2 650 680.8 703 712.9 716 722.1 730.5 739.9 748.3 756.2 760.3 760.1 755.3 748.9 747.9 751.8 757.9 766.5 780.7 795.4 811.3 827.8 845.2 860.4 835.9 801 765.6 718.4 687.6 661.9 646.7 628.7 610.9 590.8 576.9 565.7 551.4 539.9 527.7 513.3 499.3 486.8 474 452 432.2 417.5 422.4 428.5 446 466.4 487.4 499.2 522.2 552.9 584.5 612.3 646.4
377.3 374.8 370.6 365 359 353.1 346.4 335.8 343.8 351.9 357.2 365.4 373.4 383 395.7 417 431.6 449.1 464.9 482.2 500.9 515.1 526.3 533.4 541.8 554.3 567.9 585.6 606.9 626.9 641.6 658.8 674.4 684.7 680.1 647.5 613.1 586.8 563.4 549.8 535 519.8 506.9 494.7 480.1 461.5 445.1 429.4 411 394.9 379.9 366.9 349.6 364.5 376.1 387.1 399.4 414.4 429.8 454.7 484.9 522.1 559.2 588.7 620.3 635.4 645.4 654 661.3 667.7 673.5 681.4 689.1 696.2 701.7 707.6 714 720.2 724 686.4 651.4 625.1 609.3 597.2 588.4 579.2 570.8 562.7 554.7 546.2 537.4 531.2 525.2 516.6 509.7 494.4 484.4 472.9 466.7 461.1 453.8 443.5 418.4 380.8 356.7 337.7 316.5 302 291.3 283.8 277.5 272.8 267.7 271.1 271.9 268.7 269.8 268.9 273.3 275.9 280.6 283.2 287.3 293.1 299.3 308.3 315.5 322.2 327.2 331.3 333.2 339.4 354.9 372.8 391.4 411.2 434.5 466.1 500.7 532.4 571.3 607.9 637.4 665.9 695 714.7 726.3 734.5 740.5 747.8 758 765.8 769.6 771.5 770.4 760.3 749.8 745.7 748.6 755.3 764.7 777.4 792.1 808.6 825.2 843.8 861.1 855.4 810.7 776.5 740.6 705.8 681.6 660.7 639.2 616.6 595.6 579.1 567.3 555 542.6 529.9 515.5 501.9 489.6 476.2 458.5 434.2 420.1 418.1 426 440.6 456.1 476 492 504 536.7 568.4 596.9 631.2
370.2 366.5 363.1 359 351.2 344.9 339 331.9 344.9 355.4 358.1 366 373.9 386 396.3 411.2 437 455.7 476.5 494.7 511.1 523.5 536.1 544.4 550.7 561.6 575.8 597.4 615.3 631.6 648 663.1 676.6 688.1 685.3 657.7 620.3 589 572.2 559.6 542.7 525.2 511.9 497 483.3 462.9 446.3 429.1 411.4 396.9 382.6 369.6 348.6 358.1 372.3 376.5 387.6 403.6 423.9 446.2 475.8 504.4 543.8 581.9 615.6 630.1 640.5 649.6 655.9 659.4 664.5 669.4 676.7 682.9 687.8 692.8 696.6 700.2 703.8 701.3 668.6 640.7 619.7 606.6 593.3 584.3 575.7 564.6 558.8 554.5 545.5 540.4 533 524.9 517.6 506.3 493.5 483.9 476 470.4 462.6 451.1 438.2 399 372.6 347.2 328.7 309.2 297.1 285.2 277.7 272.3 267.1 266.1 268.8 266.9 268.2 266.3 268.4 270 272.2 275.8 282.1 287.2 295.7 298.7 310.1 313.7 320.5 330.1 332 342 356 373.5 391.8 412.1 436.3 470.4 504.8 542.1 579.7 615.7 640.8 670.1 702.5 723.6 738.8 747.9 755 762 772.2 778.1 781.3 779.4 775.5 759.3 745.8 739.9 741.4 748.4 758.3 771.3 786.1 802.3 818.6 837.4 854.6 866.7 823.4 784.8 753.3 731.8 712.7 694.8 670.1 630.8 600.3 579.1 569.4 561.7 553.2 535.4 517 504.3 493.4 481.4 464.8 441.5 425.9 415 420.1 433.4 444.7 461.1 483.5 488.9 519.6 558.2 580 613.2
358.4 357.8 357.4 349.5 347.1 343.4 336.7 336.6 342.6 352 357.3 364.7 373.2 384.5 395.6 412.3 436.7 458.3 478 497.4 514.2 528.2 539.7 547.9 555.6 567.3 585 604.1 619.6 633.3 650.8 664.4 676.1 686.4 689.1 666.5 627.4 597.3 576.7 561.9 546.1 529.4 517.3 502.9 484 466.5 448.6 428.4 410.9 395.8 380.7 367.8 349.4 348.6 361.5 371.7 377.8 396.1 414.6 438.2 468 495.5 525.8 574.1 600.8 618.4 630.5 638.3 645 648.8 652.3 656.1 660.9 665.9 670 673.7 676.8 679.5 680.8 681.8 679.8 658.4 634.5 620.1 607.1 598.2 594 581.8 572.1 574.3 559.7 559.4 553.6 548.9 539.7 522.7 507.7 504.9 494.2 485.7 472.8 463.2 448.2 428.8 389.8 361 334.6 317.6 305.7 293.9 286.1 279.6 269.5 264.8 267.6 266.7 264.1 262.5 264 267.3 265.8 272.3 275.7 280.1 287.6 294.4 303.4 308.9 314.7 315.8 331.7 340 354.9 373.1 392 410.8 438.8 469 507.4 549.3 590.2 616.5 645.7 679.3 708.2 729.5 744.4 755.6 765.7 770.2 777.7 781.2 779.8 776.9 773.6 760.7 744.8 728.2 733.1 735.1 746.7 761.9 778.5 792.6 810.7 829 845.8 860.9 840 803.3 785.1 770.5 755.8 715.3 684.7 640.5 605.2 579.5 565.1 559.5 550.9 538.7 520.8 505.8 495.3 482.5 466.8 443.9 424.5 410.9 416.4 428.4 436.1 452.7 464.6 475.5 502.5 548.1 568.6 595.9
351.1 344.6 343.6 343.7 339.8 344.6 334.2 333.5 340.7 346 356.8 360.5 371.3 381.6 394.9 407.7 428.7 457.5 479.7 499.8 514.3 529 539.2 545.3 559.4 573.4 588.1 605.7 620.3 633.4 649.7 662 671.7 679.8 683.6 673.3 639 611 588.8 567.4 549.2 533.3 519.3 501.8 484.4 465 447.5 426.8 410.5 393.9 379.6 366.9 352 337.6 356.7 359.1 372.5 388.1 407.1 430.4 455.3 482.8 512.7 554.7 585.2 600.3 613.8 623.6 630.2 634.4 637.1 641.3 644.3 649.4 651.8 652.8 655.3 657.7 658.1 660.9 662.4 662.8 662.3 652.6 640.1 633.9 632.2 620.1 605.3 599.5 597.1 591.5 587.9 580.6 571.9 563.3 546 527.2 520.7 515.6 494.3 479.3 465.8 447.7 408.6 376.5 351.4 326.2 311.6 298.2 286.5 281.2 271.7 264.4 265.4 264.9 262.9 260.5 259.7 261.4 264.3 268.8 269.9 276.4 285.6 292 296.6 299.7 305.5 318.7 328.6 339.1 354.7 372.9 390.7 410.6 438 470.3 507.5 551.3 590.6 618.4 650.8 683 711 728.2 743.2 756.1 767.7 772.7 778.3 777.8 772.8 762.7 754 753.2 737.6 721.1 721.1 719.5 731.6 746.5 765.8 780.9 799 818 835.1 846.8 829.5 796 770.7 760.1 741.3 696.2 649.6 622.1 596.1 570.6 553.2 550.6 548.6 541.7 525.8 506.1 496.7 486.1 469.1 448.7 430.1 409.3 413.1 420.5 429.5 446.3 457.5 465.9 485.5 533.3 557.1 580.2
342.7 338 335.5 334.3 336.3 335.8 326.1 334.1 337.8 345.8 350.1 360 366.6 373.5 387.9 401.3 421.3 453.1 476.1 492.7 506.2 520.6 530.9 540.4 557.6 572.9 588 603.6 616.7 628.4 639.7 651.8 660.1 667.2 672.3 671.3 652.9 630.9 605.2 580.6 558.9 538.1 518.9 498 482.6 461 444 426.2 408.2 392.7 379 366.9 350.8 335.4 346.6 352.9 362.9 378.7 396.7 415.1 440 468.4 499.3 538 564.3 582.5 595.2 605.5 613.4 617.7 621.8 624.5 627.8 630.6 632.7 634.8 635.9 635 633.9 638.1 641.6 645.5 648.9 651.7 652.3 651.6 647.4 645.8 626.2 613.9 611.7 609.6 600.6 596.6 585.8 580 568.5 553.6 542.9 531.5 513.8 497.7 484.4 465.5 451.7 413.9 367 336.7 317.8 300.4 288.6 278.7 270.9 264.6 262.3 264.3 261.4 260.2 257.9 259.3 259.9 265.7 268.8 274.1 280.7 281.9 288.6 300.5 306.3 318 325.6 337.6 352.8 370.4 389.5 409 437.3 467.5 505.8 543.8 580.1 618.9 654.9 685 710.7 728.1 741.7 753.8 765.5 772.2 774.9 771.9 761.3 741.7 726.9 724.4 722.5 711.7 707.1 706.1 716.2 729.6 746.4 765.9 784 803.4 818.8 803.4 787.1 745.8 720.9 697.4 693.6 655.5 624.2 599.9 569.8 549 532.5 532.2 537.2 542.3 533.8 508.8 498 488.1 472.9 454.5 435.4 418 406.2 414 422.7 439.8 446.6 456.1 468.3 508.5 540.9 563.6
333.8 333 331.3 329.9 332 332.7 324.7 328.2 337.2 342.1 349 355.3 360.3 368.8 378.8 393.6 406.4 431.2 450.8 468.8 487.7 496.4 505 530 550.3 564.2 579.1 593.3 605.3 616.6 626.1 635.4 644 648.7 651 650.8 643.8 629.6 612.4 588.1 567.8 543.6 517.4 494.1 475.4 454 438.8 422.2 405.3 390 376.4 364.2 350 330.5 339.6 348.2 357.4 369.7 384.5 402.8 422.4 449.1 481.2 514.5 541.2 562.6 577.3 587.9 596.4 601 604.2 607.2 610.4 613.6 615.8 618.3 619.9 621.2 621.1 619.6 622.4 625.6 630.7 635.6 638.3 638.7 635.2 629 623.6 617.2 610.9 609 605.5 600.8 594 586.8 580.2 571.7 561.3 546.6 526.6 511.5 498.8 483.9 469 452.9 387.7 351.7 327.8 309.6 292.5 279.4 271.4 264.5 261.1 260.4 260.2 258.9 257.6 256.7 260.9 264.1 266.4 270.4 273.8 281.8 285.5 293.8 302.4 313.5 322.4 335.4 350.4 367.5 386.9 406.1 434.2 463.6 498.6 538.8 584.1 620.3 657 692.4 712.3 727.2 740.2 750.7 758.9 765.7 768.7 765.6 742.9 729.5 712.3 701.9 700.9 698 689.1 700.6 703.5 716.2 729.4 748.6 767.1 785.1 799.6 771.5 749.7 717.9 691.6 663.2 639.4 616.9 603.1 582.6 560.5 537.9 521.8 521.9 526.7 532 529.8 512.8 500.5 488.3 476.3 461.3 440 422.5 406.1 403.2 414.8 423 439.7 445.7 456 477.7 508.9 552.7
329.5 330.1 330.4 326.6 329.1 327.6 319.4 326.5 332.3 336.9 342.8 348.9 355.7 361 371.4 383.7 392.6 405.5 427.7 440.5 460.9 470.5 474.7 508.7 528 545.3 562.2 577.6 589.9 599.5 608.8 615.8 620.2 621.7 622 618.1 612.7 601.9 588.9 577 556.8 536.9 516.6 493.3 467.8 447.6 430 416.6 400.3 385.8 372.8 360.7 347.7 329.2 333.5 342.8 349.3 360.9 375.7 389.9 410 433.3 458 490 516.4 538.4 555 567.6 574.6 582.4 584.7 588.5 594.4 595.8 598.3 601.2 602.5 601.7 604.6 603.7 605.2 611.1 612.9 618.1 620.2 622.9 622.9 621.7 617 612.4 607.6 608.8 608.4 602.5 598.5 594.7 591.3 581.3 572.6 563.9 551 529.7 516.4 502.8 487.2 471.4 425.4 369 336.9 316.3 297.8 284.8 274.2 266.5 262.6 260.9 259.2 258.9 258.4 256.9 258 262 263.8 267 270 275.5 282.5 288.9 300.2 310.6 320.3 333.9 347.9 363.8 383.5 402.7 429.7 460.5 498 536.5 580.9 616.6 655.7 692 712.2 726.3 738.1 749.5 754.5 758 760.1 757.4 740.5 724.4 704.8 695 684.8 684.8 684.9 687 694.4 705.4 718.2 733.4 750.8 768.2 784.6 760 728.9 700.3 673.4 644.2 621.9 602.3 588.2 577.4 558.1 536.8 520.8 513.7 517.1 523.2 528.1 516.5 502.5 489.3 479.1 464.9 448.3 429.3 409.3 402 405.6 414.9 426.4 436.9 447.6 464.9 499.2 531.6
326 326.1 325.5 324.4 325.1 322.9 320 324.2 327.4 329.8 337.2 341.5 348.5 354.3 361.5 371.6 381.3 389.4 402 416 433.4 445.1 461.9 483.1 502.1 519.8 534.5 549.4 564.6 573.9 581.9 587.6 589.1 590 589.4 585.1 578 570.7 558.5 546.1 530.9 513.5 499.3 481.4 457.8 435 422 408.5 393 380.6 367.5 355.4 343.4 329.8 325.1 336.6 342.3 353.7 363.8 380.7 399.3 417.4 437.3 466.9 488.3 510 528.4 543.5 551.4 558.1 563.6 567 571.7 572.1 576.1 580.9 585.3 587.5 590.1 591.6 591 593 597.5 601.3 605.4 606.8 608.4 608.3 609.4 608.1 605.2 602.7 607 608 603.2 598.5 592.8 587.5 579.8 572.1 562.9 548.2 526.1 513.6 496 479.9 455.7 385.4 350.3 325.8 302.1 287.1 275.6 266.9 260.9 260.1 258.5 257.6 257.4 256 257.1 258.7 261 265.5 271.4 274 279.7 290.7 297.6 307.6 316.9 330.9 343 359.8 378.4 397.5 423.6 454.1 491.4 527.4 566.2 604.2 646.9 677.1 699.1 718.6 730.3 744.9 750.5 752.3 752.4 750.7 737.7 718.9 705.2 688.9 686.1 684.8 684.7 684.1 687.5 696.7 706.7 718.1 734.2 750.6 768.7 762.2 728.6 694.2 661.4 636.7 615.7 598.2 583.8 570.8 558.5 538.7 521.7 511 509.9 512.9 516.7 513.2 502.1 489.2 479.1 468.2 453.6 433.6 415.5 402.7 398.9 410.9 416.7 428.2 439.5 452 472.6 510.1
324.6 323.5 321.5 321.4 320.5 320 319.2 322 326.2 326 330.3 334.1 342.5 346 352.7 360.6 368.6 380.9 393.8 404.7 416.3 423 447.5 461.5 475 490.4 506.6 521.8 532.8 539 546.1 552.5 554.7 555.7 553 550.3 542.8 535.3 524.8 512.1 500.3 486 472.1 454.9 439 423.3 410.7 396.5 386.9 374.1 362.3 350.2 339.7 330.2 322.9 331.5 337 343.4 356.3 371 386 401.3 417.8 435.6 456.3 476.7 494.6 512.5 527.6 534.2 539.6 543.3 549.3 555.8 556.8 557.3 567.4 572.3 575.7 577.6 578.7 579 581.2 584.1 588.1 590.8 591.2 592.7 594.3 595.9 597.6 598.9 599.3 600.3 601.6 599 594.5 587.9 582.8 576.4 569 554.1 536.1 517.3 502.6 488.1 469.4 402.3 360.5 330.6 310.4 291.5 276 264.6 260.8 258.1 256.6 257.6 256.8 252.8 256.8 258.1 260.2 263.5 267.4 273.5 278.3 285.9 295.6 304.4 314.7 326.6 339.4 356.1 373.3 393.6 414.2 444.1 478.1 509.5 546.4 595.5 632.5 663.6 684.5 703.2 719.6 731.5 741.6 747.6 747.7 743.3 731.5 716.2 706.3 690.5 686.3 684.8 685 683.8 683.5 690.6 698.1 705.6 718.4 733.2 749.5 757.6 725.9 689.2 658.7 631.8 609.9 594.8 578.4 564.9 558.5 535.7 522.3 512 507.7 503 506.2 509.4 502.2 489.6 480.6 469 457.4 441.4 422.8 407.7 397.8 405.5 413.7 420.5 427.4 440 451.5 477.9
324.4 323.5 320.6 318.7 318.2 318.1 318.3 317.7 320.8 320.4 325.2 331.3 336 339.8 346.6 353.9 360.3 369.8 378.2 387.3 398.9 407.2 427.2 437.6 447.8 460.4 474.9 487 498.4 507.6 514.9 518 520.6 521.9 518.8 515.8 508.7 499.6 489.1 481 469.1 456.4 445.9 432.3 420.2 407.7 396.9 387.9 377.3 367.9 355.8 345.3 334.9 326.6 316.4 324.9 331.4 340 348.8 358.3 371.1 385.9 399.4 414.8 430.4 447.5 467.5 485.5 496.4 502.1 507.6 518.8 525.2 527.9 530.7 534.2 546 552 558.1 560.5 561.9 560.8 562.9 568.2 569.2 572.4 573.9 575.5 576.6 579 582.5 584.4 586.2 588 590.4 591.7 589 586.2 581.5 577.1 569.6 560.1 545 527.6 513.4 500.1 478.4 428.3 377.7 341.6 317.5 296 279 266.8 261 258 255.5 256.5 254.4 250.7 252.6 251.2 259.5 261.2 263.7 272.6 277.7 285 294.4 301 310.4 324 336.5 352.2 368.9 386.4 406.7 433.6 463.3 492.3 537.8 581.3 615.5 645.5 669.6 687.2 702.7 720.9 737.6 744.7 738.9 734 729.2 719.4 706.4 697.8 688.2 682.6 682.9 681.4 680.9 683.4 689.4 697 707.3 719.3 733.5 751.5 727.4 688 662.6 630.2 605.1 587 569.3 558.4 554.1 535.4 521.6 511 503.4 498.5 499.4 496.4 495.5 491.5 481.3 469 460.5 448.3 428.3 411.6 399.5 403.3 411.3 410.2 418.2 427.5 440.7 451.6
322.7 322 321.5 319.6 317.9 317.1 317.2 316 316 315.9 320.6 328.6 330.5 332.9 338 346.7 347.1 358.3 363.7 371.8 380.6 391.7 404.2 417 429.7 434.7 444.4 455.3 464.7 471.9 479.2 482 484.1 486.3 483.2 480.3 474.4 466.9 458.1 448.3 438.8 433.1 423.8 413.5 400.9 393.5 385.8 377.2 369.4 360.2 350.1 342.3 330.3 323.9 318.9 320.8 323.7 328.5 338 347.7 358.5 370.8 382.7 396.2 410 423.9 440 452.8 461.3 470.6 477 484.6 495.1 503.9 509 515.3 519.5 529.4 534.4 538.4 542.3 544.8 547.5 549 550.3 551.1 556.4 557.3 558.6 559.9 561.5 563 567.5 570.8 573.3 575.6 577.4 576.5 574 570.3 565.3 559.4 546.8 532.8 519.5 505.5 483.6 464.5 406.2 354.7 326.3 302.5 283.7 270 262.2 258 254.8 250.7 250.7 250.7 250.7 250.7 258.1 259.3 261 268.9 277.6 285.7 289.5 298.2 309.7 319 329.4 344.5 362.3 378.6 397.6 422.1 450.6 481.5 522.5 561.8 590.2 617 643 665.6 682.4 705 722.7 732.1 727.7 720.2 718 710.8 708.2 696.4 686.5 678.4 677 676.1 676.6 677.2 681.1 687.9 695.6 706.4 718.7 734 731.9 692.7 652.2 630 604.6 582 565.5 551.4 545.6 537.3 519.5 510.1 501.8 497.6 493 489.7 486.5 492.7 477.7 466.5 461.2 449.6 438.3 418.1 401 394.2 403.7 402.7 411 420 429.4 437.5
320.6 321.3 319.9 319.5 317.2 317.5 316.2 315.3 314.2 314.2 312.9 316.8 325.4 328.2 327.1 331.3 336.4 346.7 353 358.8 365.6 374.5 385.3 394.1 402.7 411 420.4 427.9 435 441.8 446 448.9 450.6 453.3 451 447.6 442.8 436.5 428.7 420.5 414.8 409.6 404.2 394.7 388.5 381.1 373.3 367.7 361.1 352.7 346 338.6 326.6 319.4 318.3 313.7 320.6 322.6 330.3 336.6 346.5 356.4 367 378.3 390.6 402.5 413.7 424.5 431.8 439.6 438.3 463.6 473.6 486.2 494.3 497.5 500.3 502.4 510.3 518.7 521.2 524.3 528.8 529.7 532.1 532.4 534.9 537.1 538.9 541.6 540.5 542.4 545.3 547.5 550.6 552.5 553.9 555.3 558.2 555.2 546.5 542.8 543 533.1 519.4 500.6 485.7 446.2 428.6 371.6 338.3 306.8 288.6 272.7 263.2 258.2 251.7 250.7 250.7 250.7 250.7 250.7 253.9 257.8 261.2 267.9 276.7 280.9 287.7 297 304.6 318.5 327.3 338.6 354.3 370.9 388.6 408.6 437 469.8 505.9 548.2 569.1 594 621.9 640.9 662 685.9 701.9 712.6 711.6 701 703.4 706.1 703.4 695.1 682.2 673 671.3 669.6 668.2 670.1 672.9 676.5 682.4 692.6 704.6 716.9 727.5 692.5 647.7 619.8 607.1 579.6 557.3 543.2 536.5 532.3 515.3 509.9 501.3 496.8 490.2 485.7 481.3 483.9 474 468.5 459.6 453.7 440.4 426.2 408.2 393.2 394.9 399.5 404.6 413.6 421 429.1
322.3 319.5 319 318.7 317.4 317.8 316.2 315.1 313.3 312.6 312.5 311 313.6 317.6 321.5 324.6 328.6 338.8 344.7 350.7 356.5 362.9 369.8 377.9 385.4 392.7 401.5 406.6 410.4 416.7 423.1 424.2 424.8 424.3 424.5 421.6 417.9 413.9 406.5 403 396.5 389.8 384.4 381.5 374.2 369.2 362.4 356.5 351.9 345.4 338.8 332.3 321.6 317.2 315.8 310.2 308.5 319.2 322.5 328.2 334.4 342.8 349.3 361.5 368.8 378.8 390.6 400.7 404.3 412.7 422.9 439.1 458.7 469.5 480.5 475.8 477.3 485 491.9 496.9 501.3 503.2 504.4 507.2 509.1 511.6 512.9 516.8 516.8 517.5 519.1 515.6 519.5 522.3 524.1 523.7 525 525.2 525.9 526.1 523.2 513 512.8 507.1 501.8 486.5 460.6 432 412.1 376.3 344.2 317.6 291.4 275.3 261.5 257.6 250.7 250.7 250.7 250.7 250.7 250.7 250.7 255.8 261.9 269.1 275.4 283.2 285.2 296.1 302.5 311.6 324.1 336.1 353.3 368 382.9 400.9 421.1 452.4 488.7 531.9 551.1 572.1 595.8 616.9 638.9 661.5 682.1 688.7 687.9 687 686.4 690.2 692.7 684.3 674.3 662.2 661.8 660 658.8 659 662.1 666.5 671.1 678.5 689.5 699.6 710.7 697.6 656.7 614.5 587.8 574 555.3 539.5 530.8 525.9 512.3 506.7 502.6 496.8 489.8 483.3 475.3 474.8 477.7 470.2 462.6 454.8 445.8 433.4 415.9 400.2 390.1 397.8 398.9 409 415.3 425
325.4 322.1 320.2 320.5 318.9 317.6 317.5 315.6 315.5 313.5 311.5 310.9 309.6 311.1 313.4 320.1 323.1 327.5 333.8 337.1 346.6 351.8 357.8 362.8 370.7 377.4 382.4 386.7 391.7 397.6 399.7 403.6 401.6 402.5 400.5 400 395 391.1 389.5 386.3 380.2 374.9 370.3 367.1 365.3 360.7 354.2 349 342 338.5 329.8 327 320.3 318.1 316.7 318.3 305.6 313.4 318.9 315.3 322.3 330.3 335 342.2 350 358.7 365.9 377.5 383 393.5 402.9 413.1 432.6 439.2 451.2 461.3 457.9 467.2 474.4 478.4 481.6 482.4 483.3 484.1 487 489.8 490.8 492.9 493 493.6 494.7 491.7 490.9 490.9 495.3 496.8 495.7 493.6 492.3 490.5 488.9 481.7 476.8 477 476.7 466.9 447.4 426.9 403.4 386 354.7 320.4 297.1 281 265.6 257.4 252.2 250.7 250.7 250.7 250.7 250.7 250.7 250.7 261.8 269.4 275.6 279.1 283.4 291.7 301.2 308.6 320.9 333 347.3 361.6 374.8 391.6 411.5 435.9 465.5 503.8 535.1 556.9 576.7 592.2 614.1 633.2 649.5 663.4 673.2 675.8 674.8 671.6 671.9 672.2 658.9 648.6 646.4 647.5 647.8 647.2 648.9 654.9 656.7 664.3 672.5 681.5 691.3 693.7 661 616.6 578.9 551.1 535 530.6 523.8 519 511.9 504.9 499.7 495.5 491.2 480.9 469.6 462.9 466.4 463.4 462.6 454.5 447.9 436.8 423.4 405.6 392.6 393.6 393.9 404.1 412.3 421.1
330.3 326.1 323.5 323 322.4 319.3 316.4 314.8 313.7 313.3 311.5 310.1 310 308.6 308.5 311.4 316.2 321.3 325.9 325.2 335.2 342.4 346.8 352.2 357.9 362 366.2 371.4 375.3 380.8 381.8 384 384.8 386.4 385.1 382.4 379.5 377.6 375.3 371.7 368.3 366.1 361.1 356.5 352.2 347 344.1 339.9 336.3 332.1 326.9 317.6 312.1 312.3 313.8 315.3 303.8 308.1 315.9 312.3 314.6 316.5 322 327.6 333.4 340.7 346.3 353.1 361.4 367.9 378.6 385.8 395.6 404.4 416.2 431.9 441.1 438.3 448.4 455 457.1 458.1 458.7 460.4 461.3 461.7 462.8 464.2 465.7 464.4 467.7 470.7 468.5 465.6 463.5 463 461.2 462.1 458.1 455.4 454.4 451.3 443.6 439.8 434.6 432 416.6 397.8 386.8 378.8 356.6 323.6 300.2 284.3 270.2 258.5 250.7 250.7 250.7 250.7 250.7 250.7 250.7 250.7 259.7 266.5 274.2 279.2 284.7 293.7 299.2 308.7 316 329.4 342.4 355.9 370.8 384.4 402.7 422.8 453.1 486.7 511.7 530.8 555.3 574.6 591.4 613.8 628.3 644.8 661.1 665.7 652.7 653.1 649.9 650.8 644.2 633.9 624.3 626.7 627.8 630.8 634.3 642.2 645.9 648 655.1 662.6 670.6 673.3 649.5 617.9 573.5 547.8 526.3 512.5 510.8 509.6 506.6 501.6 499.8 492.4 489 481 469.3 463.4 461.2 462.1 461.2 458.3 452.7 442 429.2 411.4 396.6 384.9 393.9 400.3 410.2 418.3
334 332 328 325.8 325.1 323.2 319.8 318.1 316.1 312.2 311 308.9 309.3 308 307.7 307.9 311 314.1 316.3 318 321 327.7 336.8 340.8 345.3 348.9 353.5 357 361.4 365.5 367.5 368.8 369.6 370 369.7 370.3 368.3 364.5 362 358.5 358 354 351.6 346.4 341.5 339.1 336.4 333.6 329.2 324.2 325.8 317.6 304.5 306.9 309 306.9 302.5 300.7 306.1 303.8 307.6 308.9 315.3 317.5 318.6 324.2 327 328.8 333.4 345.5 351.1 359.7 367.5 375.7 384 403.2 409.3 403.8 418.7 426.2 430.7 431.1 432.5 433.2 435.1 436.2 439 439.2 438.1 436.7 438.9 438.5 441 442.8 434 436.5 433.1 435.4 432.6 429 427.7 422.6 416.8 411.3 405.3 396.3 389.6 377.9 372.2 366.3 354.4 323.4 303.6 287.2 273.3 262.6 250.7 250.7 250.7 250.7 250.7 250.7 250.7 250.7 261.2 266.6 272.1 277.9 283.2 289.2 296.4 302.1 314.6 325.4 337.4 352 367.3 379.5 393.3 411.6 436.8 468.6 492.3 508.8 530.2 552.7 573.4 588.3 604.6 623.8 637.2 636.4 632.4 630.9 629.4 624.9 623.8 621 605.4 604.8 606.2 606.3 615.6 626.5 629.5 630.7 635.5 641.1 648.1 647.4 628.7 602.7 574.8 540.9 524.1 506.8 505.1 502.7 501.4 499.4 496.1 493.3 489.8 481 473.7 465.7 461.7 461.5 460.1 458.6 454.4 445.4 432.6 417.8 400.2 387.5 389.6 397.4 404.2 411.7
341.1 337 333.5 330.7 328.6 327.6 326.4 326.4 319.8 314.4 313.4 311.6 310.1 307.8 307.4 306.5 306.8 309.1 311.4 312.9 312.2 317.7 322.4 326.7 334.7 340.9 343 349.2 349 352.6 354.7 357.6 357.4 358.1 359.3 356.7 355.6 351.9 349.3 350.2 347 344 340.1 336.7 330.1 327.7 323.7 319.8 317.2 316.5 310 310.2 301.6 301.8 308 302.7 301.7 297 297.8 300.3 299.3 300.9 303.3 302 302.3 307.1 311.5 317.5 318 324.5 328.3 334.8 345.1 350 355.4 365 372.8 371.1 383.3 390.6 398.9 404.4 405.2 406.1 407.6 410.2 412.6 414.6 416.7 417.4 416.3 416.3 414 409.6 412.1 409 411.9 412.7 411.8 409.3 408.3 402.9 399 395.2 387.9 381.6 371.7 366.4 363.8 353.2 344.9 321.6 303 287.5 279.2 267.6 251.3 250.7 250.7 250.7 250.7 250.7 250.7 250.7 259.8 265.4 270.4 278.8 281.4 289.5 291.6 301.5 309.8 322.8 336 347.4 361.6 372 385.3 402.1 424.9 455.2 476.1 497.3 517.2 534.7 558 574.5 584.7 599.3 609.8 619.9 622.5 617.9 615.1 613.6 612.6 607.1 597 590.1 587.5 587.8 595.6 605.3 612.8 613.8 616.5 615.7 620.8 624.1 610.5 593.5 567 531.1 516.5 502.7 497.8 492.6 494.4 496.3 494.7 491.4 489.3 483.5 478.1 468.9 463.4 460.9 457.5 459.1 456.8 447.8 437.3 424.2 406 391.8 380.5 392.6 398.4 405.5
346.4 342.4 339.6 334.2 331.6 330.9 334.7 334.1 329.5 324.8 316 312.9 312.7 312.8 307.9 307.4 306.5 306.1 306.2 307.1 308.5 310.5 314.7 317.8 320.5 324.2 335.3 339 338.3 343 343.3 349.1 347.4 347.9 348.2 346.5 343.5 341.4 337.7 337.4 336.2 333.3 331.2 327.6 323.5 316.3 317.4 311.2 310.4 309.1 307.5 305.8 304.9 297.3 297.5 303.9 301.8 296.6 294.6 293.9 295.8 294.5 294.8 292.5 293.9 296.2 301.2 304.7 307.8 311 312.3 317 321 323.2 332 336 342.8 344.1 350.9 355.7 360.9 366.6 372.9 378 381.4 383.4 385.8 383.9 388.1 389.2 391.5 393.4 397.5 396.3 393.7 396 395.8 396.7 394.6 393 390.9 387.8 383.7 380 373.4 366.9 359.3 352.1 348.2 340 330 316.9 299.9 288.9 278.2 268.4 258.9 250.7 250.7 250.7 250.7 250.7 250.7 250.7 258.6 267.2 270.9 274.6 280 283.4 294.2 302.4 308.5 318.6 332.4 347.1 359.4 371.4 381.2 395.4 412.9 439.5 465.2 490.5 514.9 526.1 542.6 559.6 572.6 586.1 597.3 605.9 614.1 618 611.7 610.6 606.5 602.6 592.8 577.7 574.8 574.7 579.3 585.7 595.1 596.9 594.2 593.6 586.4 593.1 592.8 564.6 544 531.1 503.9 496.3 491.1 489.1 488.2 489.5 490.4 488.3 487.1 485.8 477.8 472.6 464.6 461.1 457.4 458.6 457.3 451.6 442.7 427.8 412.1 398.1 380.5 383.3 393 398.5
354 348.3 345.8 340.1 336.1 333.8 333.6 334.5 336.9 330.5 322.1 318.2 315.3 311 311.1 310.5 308.5 305.2 305.4 304.9 306.6 306.5 307.5 309.2 310.4 314.4 318.9 328.5 331 330.6 330.9 331.8 333.9 336.6 338.3 336.5 334.1 332.5 324.3 326.9 327.2 326.2 321.5 318.8 314.9 308.2 309.6 303.1 302.9 304.1 305.9 303 303.1 295.3 298.7 296.9 294.9 294 293.7 290.9 290.3 289.4 289 288.8 289.3 291 294.6 297.6 298.2 300.2 300.1 302.4 303.9 306.3 309.7 312.1 321 325.1 327.3 331.5 335.5 338.4 344.4 348.5 352.4 356.2 360.2 360.2 362.1 368.7 370 374.6 375.9 375.9 376.6 379 379.5 382 380.4 378.5 375 371.6 369 364.8 358.7 354.4 345.6 340.6 335.9 331.1 324.2 310.6 295.9 286.7 277.7 269.4 260.9 250.7 250.7 250.7 250.7 250.7 250.7 250.7 255.9 263.9 267.1 273 279.2 286.5 291.7 296.3 307.9 319.4 328.8 340 353.9 368.2 382.1 392.5 406.6 429 458.9 486.3 501.9 518.9 531.6 548 564.5 578.9 592.9 606.4 611.5 615.1 608.8 611.3 601.1 590.1 585.4 566.3 561 561.7 564.7 568.9 574.3 581.4 575.1 570 565.4 559.9 558.1 555.7 525.2 516.7 497.9 487.9 481.8 482.7 481.8 483.4 487.2 485.9 485.3 482.7 476.9 473.1 467.1 463.5 458.7 457.2 458 454.5 445.5 433.2 417 400.3 385.1 374.7 384.6 389.4
363.1 356 356.8 349.6 345.9 340.3 337.9 335.6 338.8 337 328.5 326.7 323 320.1 315.5 311 308.8 305.9 305.2 304 303.6 302.8 303.1 303.3 304.1 306.7 308.8 310.8 320.9 320.3 321.5 325.4 325.4 325.4 327.7 324.4 325.3 326.1 315.3 321.6 321.3 316 312.4 310.1 306.1 302.4 299.8 292.9 293.8 297.5 297.8 300.7 298.7 294.6 300.8 295.5 291.9 292.2 291.6 290.5 289.7 287.6 286.8 285.5 285.1 286.6 288.8 291.1 291.2 292.2 292.4 293.6 294.1 294.3 294.3 298.5 305 305.9 309 314.1 316.9 319.4 324.3 326.3 331.8 334.3 336.4 339.8 345.3 346.1 350.7 353.8 354.5 357.4 359.4 360.7 361.9 364.9 363.3 362.9 360.9 355.1 354.7 350.4 346.1 341.1 336.5 331.9 327.3 321.9 318.1 312.6 291.7 282 276.5 270.3 260.8 250.7 250.7 250.7 250.7 250.7 250.7 250.7 252.1 263.2 267.4 271.6 278.5 280.5 290.2 294.5 304.8 316.2 324.4 338.9 352.2 365.4 377.4 388.4 403.4 423.2 448.7 469.2 488 504.1 524.4 541.5 557.9 572.8 588.9 600.1 600.8 607 600.2 601.5 594.6 570.3 551.8 547.3 549.2 544.6 552.1 554.6 558.8 560.7 560.5 554.8 547.1 540.2 533.3 530.3 520.2 500 489.9 478.7 474.8 474.8 475.9 477.7 480 482.2 482.4 479.9 476.7 471.7 466.4 461.9 458 455.4 455.4 453.6 447.5 436.3 419.4 402.8 387.3 374.2 374 385
367.9 365.2 365 364 358.7 351.8 346.8 342.6 344.4 344.3 344.5 337.1 334 330.1 325.4 322.2 315.1 309.1 306.6 307.1 304.7 304.4 304.8 303.4 303 302.6 301.9 303.8 310.2 307.8 309.2 312.3 315.7 311.5 314.9 312.8 314.4 313.3 310.3 312.9 312.8 308.8 306.2 305.4 302.4 297.1 294.5 294.2 293.2 291.3 290.9 298.7 292.5 294.5 295.3 296.1 293.8 291.6 288.4 289.5 287.9 287.6 285.8 284.4 283.2 282.7 284.6 284.9 284.8 285.2 285.9 287.1 286.3 286.6 289.1 290.4 293.5 294.7 292.3 293.6 302 302.7 308.9 310.8 312.4 317.2 318.1 323.4 327.4 328.9 332.6 330.5 335.6 336.3 337 339.7 342.9 345.9 345.1 348.4 344.7 341.7 340.7 335.7 331.7 327.9 326.2 320 320.1 313.3 309.9 306 297.8 280.2 272.7 268.2 261.9 250.7 250.7 250.7 250.7 250.7 250.7 250.7 250.7 261.9 265.5 271.7 274.9 279.6 288 296.9 303 313.3 320.9 334.6 346.5 359.5 373.1 386.3 400.4 419.4 438.1 458.9 479 494.3 514.4 534.5 553.3 569.7 583 593.9 599.8 599.9 591.1 584.2 570.3 558.7 538.9 531 531.1 532.4 537.9 541.5 543.2 544.9 546.4 544.1 533.5 524.6 522.2 515 510.4 495.9 484.9 478.1 472.2 469.6 469.2 471 474.3 477.9 478.3 477.8 474.8 469.4 465.5 460.9 459.7 455.9 452.6 451.1 446.2 435.8 423.6 406 390 377.8 369.2 380.7
375.1 369.3 371.5 370.1 367.9 367.1 361.2 354.2 352.6 352.3 351.1 349.5 347.4 342.4 336.4 331.9 325.1 315.8 311.5 309.5 306.7 305.7 304.9 302.9 303 302.2 303.1 301.2 303.9 304.3 303.6 303 309.3 310 306.4 309.8 307.1 305.1 307.7 305.1 305.2 304.4 303.3 303.7 299.2 294.8 299.2 301.4 298.9 295.5 289.1 289 287.8 287.2 287.5 293.5 289.4 290.5 287.7 292.1 286.6 285.4 284.6 283.5 282.6 281.4 280.3 279 280.5 279.6 281.3 278.3 279.5 283.4 281.7 283.2 285.1 287.2 286.5 286.1 286.8 288.7 291.2 295.6 295.8 298.7 304.4 307.2 310.9 315.3 318.1 319.6 320.5 323.3 321.8 321.8 324.2 327.8 330.7 330 330.6 329.1 324.4 322.4 318.7 318.5 316.8 309.4 308.2 306 303.4 300.1 297.4 286.5 281.9 269.1 262.4 252.9 250.7 250.7 250.7 250.7 250.7 250.7 250.7 254.9 264.6 265.7 275.6 280.1 291.3 296.4 298.7 309.3 318.6 330.6 343.2 357.3 371.4 382.2 395.3 413.2 433.5 453.2 470.5 487 507.6 524.6 545.5 571.9 586.8 595.8 600.5 597.3 584.4 569.9 560 543 523.8 516.1 515.9 517.5 524.6 529.4 530.2 530.4 532.2 533.7 525.4 512.6 510.9 508.2 500.3 494.8 482.5 480.4 473.6 470.4 464.3 464.1 466 473 475.6 475.4 475.7 471.4 465.6 461.4 461.7 458.2 448.6 447.9 444.3 435.3 422.9 407.9 392.9 378 367 368.6
379.5 375 372.8 374.8 373.8 373.5 371.9 367.8 362.2 363.2 361.5 359.3 358 355.7 349.9 341.8 332.2 324.4 320.5 315.4 311.8 308.6 305.8 306 303.7 303 300.8 301.6 302.3 305.1 301.5 301.2 301.7 304.5 301.8 304.1 302.4 301.9 302.4 302.6 300.9 299.2 300.6 296.6 296.3 301.9 303.5 302.8 301.3 301.7 300.4 293.7 291.5 289.3 289.2 287 286.4 285.2 284.2 284.8 284.7 284.2 283.8 282.8 281.6 279.6 279.7 279.4 278.1 278.2 277.6 276.2 275.8 276 277.5 278.5 279.6 280.5 282.1 281.4 282.6 282.4 284.3 284 288.2 287.4 289.1 296.8 301.8 305.6 306.8 306.6 307.2 312 311.6 305.8 308.9 312.4 315.1 315.6 313.7 313.1 314 309.9 306.5 304.5 305.2 301.9 298.2 294.7 297 293.1 289.7 285.9 278.2 272 264.5 253.9 250.7 250.7 250.7 250.7 250.7 250.7 250.7 250.7 262 265.3 270.9 275.4 283 291.9 300.9 305.3 318.5 328.5 341.3 354.4 364.7 378.6 392.5 409.1 430.4 446.9 467 483.1 501.2 517.2 542.8 558.9 582.2 594.2 612.5 603.7 584.4 566.4 545.6 527.3 508.6 503.3 506.3 507.2 512.4 516.2 518.9 518.6 521.4 521.3 518.8 508.4 504.6 502.2 495 490.4 482.9 481.4 474.6 471.2 464.7 462.2 462.6 467.5 471.1 473.5 472.5 469.3 466 462.5 460.7 461.8 446 444.1 440.9 431.3 421.2 409.9 394.3 378.7 367.1 363.5
383.4 382.2 377.7 378 379.2 379.8 378.7 377.5 377.8 375.2 373.6 373.3 371.5 369.5 365.2 358.8 346.8 339.5 331.1 324 316.5 312.9 311.7 308.3 305 304.3 302.1 301.2 300.6 301.2 301.1 301.2 302 302.7 300.7 300.9 301.4 300.1 300.6 300.1 300.3 299 297.8 301.5 304.9 306.1 306 306.6 306.5 305.7 304.9 304 301.3 299.3 295.1 297.6 289.4 285.6 284.8 283.7 283.5 282.6 281.6 281.4 280.4 280.6 280 279 278.3 277.3 277.2 275.6 275.4 276 275.4 275.3 274.5 274.1 274.8 275.3 276.7 278.4 276.8 279 278.5 281.2 279.1 281.9 288 287.3 292.8 289.5 294.6 293.3 297.8 297 294 297.2 295.3 300.2 301.2 300.4 301.5 300.1 296.2 293.5 293.3 293.2 290.6 288 286.7 284.3 281.6 278.8 279 270.2 262.5 250.7 250.7 250.7 250.7 250.7 250.7 250.7 250.7 250.7 256.7 263.4 266 272.5 281.3 288.1 298.3 301.7 313.6 323 334.6 346.1 358.5 373.3 388.1 403.8 422.1 440.7 460.7 474.2 490.5 515.5 533.5 550.1 568 584.6 604.6 582 567.8 560.2 533.7 509 500.6 493 494.1 493.1 501 504.5 508.8 509.2 511.2 510.9 509.3 503.2 497.9 496.2 492.8 487.6 485.7 481.3 476.1 471.6 467.7 464.8 460.8 462.7 468 470.4 468.9 468 463.9 460.3 459.3 461.1 446.7 440.4 436.3 429.3 419.2 408.9 395.3 380.4 367.8 359.2
385.1 382.7 384.5 384.5 385.2 382.6 382.3 382.2 384.9 383.3 381.4 384 383.2 381.8 378.8 372 366.6 358.1 348.3 338.3 331.9 325.4 317.6 314.9 310.3 307.8 304.3 303 305.2 300.8 301.1 301.2 299.8 300.5 300 299.6 299.8 298.9 298.6 298 298.2 300.7 302.8 302.9 307.3 311.7 315.1 316.7 321.5 317.4 313.2 311.9 310.8 306.7 307.7 303.6 300.8 301.8 296.1 290.7 291.3 284.8 282.8 282.2 281.3 279.9 278.9 278.4 278 276.7 276.3 276.8 274.9 275.4 274.8 273.2 273.3 272.8 273 271.9 271 274.1 273.3 272.2 275.3 275.4 274.1 272.2 274.5 277.6 279 278.9 282.1 281.5 283.2 285.3 282.1 283.4 282.1 281.9 287 287.8 288.6 288.4 286.4 285.2 285.5 285.3 284.3 280.1 278.2 277.9 280.1 275.7 275.9 270.3 261 250.7 250.7 250.7 250.7 250.7 250.7 250.7 250.7 250.7 250.7 259.7 268.4 270.3 276.2 280.1 288.4 298.8 310 316.3 327.5 338.2 351.2 365.5 381.8 398.9 418.2 437.3 457.3 468.3 482.4 499.7 525.2 540.2 557 563.2 571.7 560.1 544.7 543.3 521 501.4 487.8 481.3 483.5 484.2 490.5 495.5 497.9 498.1 499.8 504.8 500.7 499.1 493.7 494.1 491.3 487.9 486.4 484.5 478.1 475.1 469.1 465.6 460.2 460.1 463.4 463.8 464.9 462.7 460.6 457.5 453.4 456.9 445 434 430.6 425.3 415.6 406.2 394.4 379 369.4 357.6
393.8 389 390 386.3 384.8 388.8 391.1 387.6 389.4 389.7 391.1 390 391.9 390.4 390.7 387.7 380.5 374.4 366.6 361.1 353.5 344.3 331.8 320.3 315.7 311.8 309.9 305.6 304.6 303.1 301.8 300.6 300.2 300.3 298.7 299.7 298.6 304 302.1 301.8 303.7 306.4 307.4 312 316.5 322.1 323.6 325.5 335.5 329.5 329.7 326.4 326.8 322.3 321 316.4 314.6 310 307.3 301.6 298 298 292.1 294.2 291.5 284.8 285.1 281.4 283 283.9 281.8 282.1 276.9 274.1 273.8 275 273.5 273.3 273 271.4 272.2 270.8 271.3 270 269.1 270.9 270 269.8 269.1 271.6 273.9 273.3 276.2 278 274.1 272.4 273.3 278.8 274 272.8 272.8 273.7 278.4 280.1 279.5 279.3 281.3 277.3 277.5 275.7 272.3 270.7 273.2 274.4 272 265.1 261.3 256.8 250.7 250.7 250.7 250.7 250.7 250.7 250.7 250.7 250.7 253.3 260.4 266 270.5 278 290.3 297 302.1 312.4 324 333.8 346.7 359 374.2 395.8 421.7 440.1 453.8 469.2 484.9 502 518 535.7 546.1 550.4 547.8 534.7 524.6 517 501.7 486.6 478.7 476.1 475.3 475.3 479.7 488 491 490.1 490.7 494.2 495.8 494.2 492 492.9 491.5 490.3 488.3 486 481.9 479.6 472 464.3 460.5 456.8 457.8 459.9 457.6 456.9 453.8 452.1 449.5 451.6 443.3 430.5 423.5 422.7 414 401.4 393.7 380.9 369.6 358.7
393.7 393.3 392.8 393.2 392 393.6 394.3 394.6 395.1 395.7 396.5 398.2 400.1 397.4 400.9 402.2 396.6 392.4 383.4 380.3 373 366 353.9 343 326 318.8 313.9 309.1 309.4 307.5 306.4 307.8 301.5 303.5 305.1 302.4 307.6 307.6 309 307.2 310.2 313.9 316.6 322.8 326.8 333.1 335.5 335.7 343.3 346.2 341.6 338.8 338 332.9 331.2 329 327 321.2 318.9 311.9 307.1 304.5 304.6 301.3 295.4 293.3 290.9 292.5 286.8 285.2 288.7 286.6 282.7 283.2 282.3 281.7 280.2 277.9 275 273.5 272.4 271.6 270.5 270.2 268.8 269.7 267.8 268 267.8 266.9 267.2 270.3 267.4 272.7 270.8 267.7 270.7 270.5 270.3 268.9 268.5 267.3 267 269.9 269.6 272.4 274 273.8 273.5 271.3 267.8 267 266.7 265.3 262 262.5 262.6 258.8 250.7 250.7 250.7 250.7 250.7 250.7 250.7 250.7 250.7 250.7 259 263.3 268.3 277.9 280.7 287.6 297.8 306.5 318.9 328.3 339.6 352.2 364.4 383.8 413.7 443.2 460.4 481.7 493.2 500.9 513.9 531.6 545 550 555 546.1 525.4 500.2 483.5 469.5 466.1 465.6 464.7 468.3 473 477 482.7 481.8 485.5 486.9 490.3 489.7 491.1 490.6 490.6 489.9 489.2 488.1 485.3 482.5 475.6 466.3 460.2 457.6 456 456.8 454.6 452.9 450.1 446.1 444.6 442.8 435.4 427.1 415.4 415.2 407.8 397.3 389.7 380.6 368.7 362.9
396.6 396.4 394.3 394.7 394.5 396.4 398.7 401.9 403.9 403.3 405.4 404.6 408.8 408.4 410.2 408.7 407.2 407 404.6 399.3 391.7 381.1 372.7 361 348.6 339.3 325.4 318.5 315 314.5 308.6 310.1 308.3 306.2 310.9 306.1 307.7 313.4 316 318 319.5 325.7 329 336.2 341.6 346.6 349.3 356.2 356.4 358.2 355 357.2 352.1 345.3 346.9 342.8 339.2 335.4 329.9 322.9 318.2 315.2 313.1 308.8 304 302.2 299.6 298.2 295.3 294 296 292.7 292.9 289.8 290.6 286.8 286.5 284.6 284.7 280.3 280.3 277.5 270.5 269.9 269.3 271.3 269.4 268 267.8 266.9 265.9 265.6 265.7 267.6 267.9 265 264.9 268.7 268.3 267.2 264.7 263.6 263 264.7 262.5 264.1 265.7 267.4 268.7 267.2 265.4 262.6 262.7 267.4 261.5 250.7 250.7 250.7 250.7 250.7 250.7 250.7 250.7 250.7 250.7 250.7 250.7 250.7 250.7 264.6 266 273.9 276.4 284.8 291.4 299.5 310 324.1 334.2 342 355 373.8 398.2 430.4 450.5 470.1 479.2 487.1 502.6 516.3 527.5 528.7 536.4 545.2 525.6 501.3 477.4 470.8 466 463.1 462.1 462.9 465 470.9 473 475.4 477.9 480.4 486.2 487.7 488.1 489.1 489.3 490.7 489.6 487.4 486.8 482.9 479.7 470 461.4 456.8 453.3 453.9 451.8 448.6 443.5 440.6 438.7 437.3 430.8 421.2 410.2 402 400.6 389.4 384.4 377.9 369.6 362
398.6 397 397.2 398.6 398.1 399.7 401.7 404.5 402.9 405.5 408.3 411.9 412.7 413 421 418.2 417.7 419.1 414.3 411.5 405.1 395.7 385.4 379.4 370.8 357.6 347.9 334.6 322.6 319.3 316.5 313.4 312 309.2 314.6 315.4 316.9 319.3 323.9 329 332.6 338.5 344.4 351.6 356.5 361.9 367.5 371.3 372.9 372 374.6 370.4 369.2 367.4 360.9 359.7 356.6 350.1 342.9 334.8 330.9 328.7 324.6 319.3 313.3 311.4 311.1 305.1 304.4 303 305.3 299.1 297.1 299 298 295.8 294.9 294 292.1 290.2 288.4 286.3 281.4 277.1 277 273.3 270.6 269 267.8 268.1 267.3 266.6 265.7 265.1 264.6 264.4 263.4 264.7 262.7 265.1 263.9 263 261.9 261.5 260.2 259.2 261.4 262.3 263.8 262.9 262 261.1 259.2 262.5 261.9 255.6 250.7 250.7 250.7 250.7 250.7 250.7 250.7 250.7 250.7 250.7 250.7 250.7 250.7 250.7 259 266.5 274.5 282.7 287.9 294.9 303.4 311.3 326.3 331.3 346 361.9 383.7 409 439.5 461.3 464.8 474.5 483.5 497 507.6 509.2 512 498.8 487.1 481.8 464.6 458.8 456.5 460.9 460.5 459.5 459.6 461.2 464.7 468.6 471.7 476.1 481.1 484 487.9 489 489.6 489.8 489.4 487.1 485.8 484.5 481.6 473.1 464.3 457 453.2 448.6 447.3 443.1 439.2 434.8 432.6 431.3 423.8 415.5 403.3 392.5 390.6 384.3 380.9 375.5 368.4 359.5
400.3 399.1 395.8 396.1 399.5 400.1 403.3 403.5 404.7 405.9 412.4 415.4 416.5 417.3 425.2 429.3 430 429.8 425.2 422 416.1 409.1 402.9 395 385 375.6 362.7 350.7 333.6 326.9 322.8 319.6 316.6 315.5 323.7 326.7 331.7 332.5 334.2 340.6 348.8 354.4 360.7 365.6 371.9 378.6 384.8 387.6 388.2 392.2 393.4 390.4 389.1 387.1 381.2 376.9 369.3 363.2 359.5 350.4 343.9 344.2 337.9 328.5 327.4 323 319.8 315.9 313.2 311.5 311.1 308.1 307.5 306.3 306.2 304.4 304.7 303.2 301.2 300.1 297.3 294.8 286.8 286.4 285.3 282 277 273.6 271.3 271.6 270.6 273.3 269.9 267.3 265.2 264.6 268.4 271.4 270.9 268.8 262.7 261.9 262.3 262.5 261.7 261.1 259.3 258.4 262.8 262.2 259.8 259.4 260.3 254.5 250.7 250.7 250.7 250.7 250.7 250.7 250.7 250.7 250.7 250.7 250.7 250.7 250.7 250.7 250.7 250.7 250.7 263.8 269.6 276.7 280.2 288.1 295.3 303.3 310.4 325.6 332.7 348.4 366.9 391 412.9 436 449.8 460.2 473.5 471.5 477.8 488.5 485.6 480.2 474.5 464.8 457.8 448.5 446.2 444.4 450.6 455.8 456.6 458 459.1 463.4 468.2 472.1 476.7 480.7 484.4 487.6 489.8 489.1 490.1 488.7 487.8 485.7 482.6 474.7 465.9 459 452.3 447.9 442.8 438.9 434.1 430.3 426 422.2 420.3 408.5 403.2 389.1 384.3 382.1 378.5 374 367.2 360.2
400.6 400.6 400.8 399.7 399 399.1 400.6 404 405.4 406.8 411.8 417.1 418.8 422.9 427 434.7 439.2 436.5 435 431.3 425 418.1 412.3 406 396.5 387.8 377 366.7 356 342.1 334.5 328.9 324.1 330.4 329.4 333.7 340.5 345 350.4 357.3 363.3 369.8 376 382.6 391.7 397.2 402.3 404.4 408.9 410.1 411.2 411.7 413.7 408.4 399.2 391.8 384.3 380.2 373.7 367.6 359 354.1 351.7 342.2 341 334.9 331.8 328.3 323.9 321.4 321.7 317.6 317.8 315.9 313.8 316.3 313.8 313 310.5 309.9 307.4 304.9 297.9 294 288.7 286.9 285.3 281.1 280.8 276.3 277.7 280.6 277.9 276.8 279.3 277.2 274.9 274 274.2 273.6 272.4 270.7 269.6 266.9 266.8 263.4 260.9 258.2 258 256.3 257.4 259 258.7 258.1 250.7 250.7 250.7 250.7 250.7 250.7 250.7 250.7 250.7 250.7 250.7 250.7 250.7 250.7 250.7 250.7 250.7 258 262.8 271.4 271.8 280 288.8 296.4 303.6 313.7 321.7 332.3 350 368.6 395.8 402.3 419.5 439 450.5 444.8 457.3 459.5 468 457.8 450.5 451.9 449.8 435.4 427.2 432.6 439.8 441.7 443.7 451.1 452.6 459.5 464.6 467.9 471.9 477.7 481.4 486.5 487.5 489.3 490.4 490 489 487.9 483.6 477 468 460.7 451.6 446.2 442.1 435.9 430.2 425.7 420.5 416.1 413.6 405.9 397.4 383.5 375.9 376.6 374.4 371.9 365.2 360.3
401.6 400.5 400.1 399.8 398.7 397.6 402.4 406.5 405.7 408.3 410.1 415.6 418.7 426.4 430.8 437.6 443.4 440 436.8 435.7 431.7 429.2 424.5 414.8 405.6 398 390.3 379.7 370.6 360.9 351.4 344.8 333.5 337.1 339.8 343.7 352.8 359.3 367.1 373.9 382 387.4 394.2 402.4 408.9 416.4 421.5 427.7 430.7 433.1 438.7 438.6 434.6 428 416.8 409 402.3 396.2 390.5 384.9 376.5 371.1 360.5 357.8 352 347.9 344.2 340.3 334.5 335 334.2 330.7 330.7 328.4 325.4 326.9 325.1 323.3 322.1 320.4 318.5 313.9 311.5 308.2 305.7 302 296.2 291.7 289.5 284.6 286.3 286.7 284.1 284.9 285.7 280.2 282.8 279.4 282.7 277.4 279.2 276.1 274.8 271.6 270.6 266.3 264.4 260.7 257.2 256.7 256.5 254.3 256.5 250.7 250.7 250.7 250.7 250.7 250.7 250.7 250.7 250.7 250.7 250.7 250.7 250.7 250.7 250.7 250.7 250.7 250.7 250.7 250.9 262.8 267.5 272.3 282.2 287.8 296.1 304.2 310.5 319.7 324.3 344 355.2 383 388.3 402.2 409.7 417.7 420.5 434.8 446.1 440.2 434.2 436.2 431.5 428.8 426.2 425.5 426.4 431.1 433.6 439.7 447.4 452.3 459.8 465.6 468.9 474.3 478.8 485.9 488.2 490.6 492 492.9 492.8 490.4 487.3 479.1 469.8 464.8 452.6 444.8 439.9 433.9 427.9 421.3 414.1 408.8 404.1 400.1 391.1 381.8 372.5 371.4 368 366.6 362.8 356.9
401.3 397.8 399.2 399.2 398.3 398.1 397.5 402 404.7 408.3 410.1 416.6 418.2 423.6 427.7 432.6 439 439.6 437.1 435.7 435.4 432.6 428.6 424.2 415.1 408 399.2 391.2 379.2 373.7 367.1 354.6 350.3 353.3 354.2 355.4 365.6 372.1 383.3 393.5 396.4 402.5 410.4 419.3 428.1 434.2 440.2 446.4 452.9 454.4 459.3 458.1 454.4 449.6 441.3 429.5 419.9 413.4 406.6 398.9 393.7 386.1 379.6 374.1 368.5 360.6 357.5 351.9 351.6 347.8 344.9 342.3 342.4 340.7 339.3 338.4 336.8 336.7 334 332.2 328.2 324.1 323.3 319.8 318.1 314 309.4 307.4 302.6 303.8 301 299.6 297.3 295.9 294 295.1 297.4 288.1 292.1 287.9 289.7 289.7 284.4 281 276.9 273.5 268.5 265.7 261.7 259.9 260.1 259.4 255.9 250.7 250.7 250.7 250.7 250.7 250.7 250.7 250.7 250.7 250.7 250.7 250.7 250.7 250.7 250.7 250.7 250.7 250.7 250.7 250.7 255.8 263.2 269.7 276.5 280.2 289.7 294.1 300.7 306.7 310.5 316.7 328.7 343.7 368.2 380.6 383.2 390.9 396.5 394.4 402 418.7 413.3 410.1 410.9 410.4 410.4 409.7 414.7 414.4 425 433.2 439.2 446.4 453.9 460.7 467.4 471.8 478 483.4 487.9 490.2 495.4 497.6 498.5 496.9 490.3 482 473 466.1 454.8 443.5 438.4 432.2 426.4 418.8 409.2 402.5 400.2 393.7 388.1 377.1 368.9 367.1 364.7 361.8 359.6 356.1
399.9 396.6 394 394.8 396 393.9 394.2 400.1 403.5 407.2 410.4 414.9 420.2 424.8 429.5 431.6 431.4 432.3 431.8 433.3 434 433.7 431.9 427.4 419.8 413.4 407 397.7 389.9 383.9 378 367.5 367.9 368.2 369.4 370 374.6 386.7 400.2 406.6 410.5 417.1 424.7 434.6 444.1 448.9 454.9 461 465.9 469.6 471.1 473.3 473.1 469.4 462.7 451.6 439.5 430.6 421.1 414.2 407.1 401.6 393.2 389.7 384.6 378.3 373.1 366.9 364.1 360.1 358.3 355.5 354.4 353 351.5 350.2 349.7 348.5 347.2 345.3 339.3 336 334.5 330.2 329.1 325.5 320.3 316.2 314.4 312.3 307.1 306.8 308 303 302.7 303.5 303.3 296.7 298.4 299.3 297.5 294.2 292 287.7 286.5 281.3 276.7 272 269.9 265 262.3 259.3 257.9 250.7 250.7 250.7 250.7 250.7 250.7 250.7 250.7 250.7 250.7 250.7 250.7 250.7 250.7 250.7 250.7 250.7 250.7 250.7 250.7 250.7 252 266.6 269.6 273.1 277.9 286.5 292.6 293.4 299.4 304.3 310.7 319.9 335.3 354.7 361.4 365.5 364.4 372.1 374.3 380.7 381 392.1 394.2 396.9 401.4 394.4 398 403.4 417.3 424 429.2 437.7 443.2 452 461.1 466.2 473.3 480.6 487.2 492.1 498.3 502.3 503.2 501.8 495.9 485.3 476.9 469.2 458.4 444.2 436.4 430.4 424.8 416.6 408.4 396.5 394 389 384.4 373.6 365.1 359.9 362.6 361.9 356.6 354.5
399.6 395.2 393.7 391.3 391.9 390.2 395.1 397.6 401 406.5 408.5 414.1 419.7 424 426.8 432.3 431.4 430.7 430.3 433.9 433.5 433.2 429.8 425.6 422 417.7 410.8 404.6 395.7 391.8 386.4 384.4 382 380 380.7 383.9 387.5 397.7 411.4 416.4 421.7 429.8 443.4 448.8 456 460.5 465.9 470.3 475.4 480.4 481.3 483.5 485.6 486.3 482.2 472.6 461.4 447.7 438.1 429 422.4 416.2 409.9 404 397.3 394.3 390.6 384.9 378.4 375.4 372.2 369.6 366.6 364.5 363.1 362.3 361 360.3 358.7 354.7 352.5 351.7 346.2 342.6 339.6 335.7 331.7 327.1 324 320.7 316.4 317.2 313.7 310.8 313.4 311 309.4 308.1 307.8 307.7 302.9 302.7 301.1 294.9 291.5 288 281.8 281.6 276.5 270.1 267 262.7 259 257.6 250.7 250.7 250.7 250.7 250.7 250.7 250.7 250.7 250.7 250.7 250.7 250.7 250.7 250.7 250.7 250.7 250.7 250.7 250.7 250.7 250.7 257.5 258 268 275.4 278.2 284.4 286.3 292.6 298.1 301.2 306.2 313.5 322.7 335.6 344 347.5 348.7 348.2 360.8 359.7 368.6 374.7 380.4 384.4 382.1 386.1 391 402.9 409.9 416.9 427.7 433.8 441 449.4 458.9 467 476.4 483.5 491.4 497.4 504.4 507.5 507.2 500.9 491 480.7 471.2 459.8 444.4 437.1 430.4 423.2 415.4 405.2 389.1 383.6 383.7 377.2 369.7 363.2 355.7 356 358.6 353 349.7
398.6 395.1 390.9 389.9 388.5 387.7 392.6 394.7 394.8 400.8 409 414.6 418.4 421.2 423.7 427.6 428 427.7 429.3 432.3 432.5 428.5 426.3 423.8 421.6 418.1 410.6 405.1 401.5 396.8 395 393.7 390.1 390.1 391.5 394.9 395.8 405.3 417.6 425.5 433 444.1 452.7 459.4 465.1 469 474.5 477.9 483.5 487.6 489.5 490.9 494.6 496.4 496.7 493 481.6 469 455 445.7 438.5 432 426.5 420.6 413.7 407.1 404.2 399.4 394.7 389.5 385 382 380.7 378 375.1 373.8 372.1 371.6 369.8 368.3 364.8 364.1 359.2 354.3 351.4 346.1 343.4 338.6 333.4 330.4 326.1 327.1 324.5 323.6 320.3 319.9 318.7 318.4 317.8 315.5 314.4 311.4 307.1 304.5 299.7 294.9 290.9 285.8 281 276 268.7 265.5 263.7 259.6 257.4 251.6 250.7 250.7 250.7 250.7 250.7 250.7 250.7 250.7 250.7 250.7 250.7 250.7 250.7 250.7 250.7 250.7 250.7 250.7 250.7 250.7 256.1 260.1 262.8 269.4 274.3 279.7 283.9 289.6 292.6 295.7 298.4 303.9 312.1 321 327.1 329.5 327.6 331.5 337.8 345.5 353.7 357.7 361.9 363.8 366.4 374.3 388 398.5 405.8 413.2 422.8 428.3 438.1 447.2 457.1 467.8 477.1 486.9 495.6 504.6 510.1 511.2 506.7 494.7 486.3 476.3 463.1 447.6 436.1 429.5 420.7 413 404.4 388.4 379.9 376.2 371.3 365.3 358.1 352.9 351.1 351.7 349.5 348.2
398 396.2 389.7 389.3 389.7 388.4 385.3 388.6 390.8 396 406.2 413.2 415.1 417.9 417.9 418.7 425 423.8 427.3 430.6 428.4 425 422.1 420.6 418.7 415.5 409.8 406.1 402.8 400.9 400.2 398.1 396.9 398.8 399.1 400.6 404 415.4 423.2 431.3 442.7 454.3 461.1 466.9 470.7 476.7 481.7 485.5 491.1 494.1 497.4 498.1 502 505 508.3 508.3 500.3 488.3 473.1 461.2 453.6 446.7 440.3 434.9 429.6 424.3 420.4 414.3 410.5 405 401.2 395.8 393.2 390.3 387.3 386.2 385.2 384.5 381.7 380 376.9 377 372.6 366 362.4 357.1 353.8 348 344 341.2 334.1 335.8 336.4 332.4 333.7 332.6 330.1 328.6 327.5 325.5 324.6 316.8 317.2 314.2 309.7 302.7 302 292.1 289 282.5 278.8 275.9 271 264.4 261.8 258.8 257 250.7 250.7 250.7 250.7 250.7 250.7 250.7 250.7 250.7 250.7 250.7 250.7 250.7 250.7 250.7 250.7 250.7 250.7 250.7 250.7 250.7 257.3 261.2 265.6 273.4 277.9 278.9 284.4 284.6 289.8 293 298 304.1 310.2 314.5 318.1 313 316 321.4 328.3 337.8 339.1 342.9 350.5 362.2 376.1 388.6 395.1 400.8 407.4 414.9 422.8 433.1 443.8 457.9 467.4 477.4 489.4 501.5 509.5 513.1 509.8 499.3 492 481.3 465.3 449.3 437.3 427.2 417.6 410.3 403.1 387.4 373.8 368.4 365.6 360.8 355.1 348.9 347.4 347.3 346.9 344.7
398.8 394.2 390.3 390 388.7 385.5 385 389 391 394.3 401.2 404.6 411.8 416.3 409.5 413.2 415.6 419.2 423.7 423.8 421.8 420.1 420.7 418.9 415.6 411 407.2 404 402.2 402 401.8 402.1 401.9 401.4 404.6 405 407.9 421.4 428.3 438.5 448.1 459.7 467.8 472.1 477.3 482.6 488.2 493.1 496.6 500.7 504.2 504.6 508.9 513.1 518.2 520.9 518.2 506.7 494.2 477.5 467.8 460.8 454.1 449 444.4 439.5 434.2 430.4 425.7 419.7 415.3 411 407.6 403.4 399.7 399.4 397.5 397.3 396.7 394.3 391.1 386.5 382.1 378.6 373.5 369 365.5 359.9 354.8 349.4 350 346.7 344.5 345.2 342.7 342.8 340.8 340.2 338.2 335.5 333.9 330 328.9 323.9 320.2 313.7 307.5 301.4 296.1 288.3 283.5 278.5 272.9 270.5 266.2 261.7 257.7 257.1 256 250.7 250.7 250.7 250.7 250.7 250.7 250.7 250.7 250.7 250.7 250.7 250.7 250.7 250.7 250.7 250.7 250.7 250.7 250.7 250.7 257 260 262.6 271.4 272.7 277.4 278.4 282.9 284.6 286 290.5 297 302.3 304.6 303.2 303.6 314.5 310.9 311.7 318.8 327 331.7 347.6 360.5 374.5 379.9 387.7 390.5 401.1 407 417.8 429.5 444.7 457.8 466.5 478.5 491.4 504.9 511.1 511.4 506.6 499.2 486.3 470.2 452.1 438.1 426.8 414.9 407.2 396.7 388.3 373.7 366.8 362.1 355.1 350 347.9 342.4 344.4 343.2 341.8
394.9 392.1 388.5 386.5 383.9 382.6 384.1 385.6 388.9 392.7 395 397.1 401.5 405.4 404.9 405.1 411.6 419.2 421.1 422.3 420.2 417.7 417.8 415.8 412.5 408.4 405.5 405.2 403.5 402.7 401.9 402 402.6 405.5 406.3 408.6 411.5 418.3 432 445.5 454.3 464.1 472 477 482.9 488 494.6 500.2 504.3 507.8 510.2 512.9 516.2 520.6 525.3 530.6 532.7 528 514 495.9 481.4 473.5 467.1 463.2 458.8 454.1 449.4 445.1 438.9 433.7 428.1 424.7 420.3 417.2 412.8 412.7 410 408.2 406.6 403.4 401.4 398.3 394.3 388.8 383.3 380.3 375.5 371.9 367.2 362.1 362.5 360.7 357 356.3 356.3 352.2 352.9 351.3 347.2 347.6 344.4 339.9 337.8 333.2 327.7 326.3 318.6 309.9 301.1 295.3 287.3 281.9 277.4 273.3 268.5 263.9 262.3 258.9 257.2 250.7 250.7 250.7 250.7 250.7 250.7 250.7 250.7 250.7 250.7 250.7 250.7 250.7 250.7 250.7 250.7 250.7 250.7 250.7 250.7 250.7 250.7 260.9 261.5 265.8 270.1 273.5 273.9 279.1 278.3 281.5 284 287.1 291.5 293.5 292.6 297.2 301.3 304.1 312.6 322.4 327.2 336.1 341.9 355.6 365.6 371.5 374.4 386.4 395.4 404.1 411.7 427.1 442.6 454.6 463.6 477.9 493.3 506 510.3 513.1 508.1 494.1 476.1 457.9 440.4 424.4 412.1 403.3 394.7 383.1 372.4 358.1 356 352.6 344.8 342.1 337.6 337 338.1 340.2
396.1 392.6 388.5 384.9 382.4 381.8 382.2 383.8 386.7 386.8 387.2 387.6 391 392 398 402.8 402.3 412.1 417.1 417.1 417 416.1 415.3 412.3 409.1 405.8 403.2 403.5 403.1 402.7 401.4 402.2 402.9 404.1 407.5 409.8 414.6 424.3 429.2 446.1 456.4 466.6 474.8 479.7 487.6 493.9 499.4 505.6 510.7 513.9 517.2 519.8 523.1 528 532.5 538.1 544.2 544.5 533.1 517.2 494.9 487.3 479.8 475.6 473.1 468.8 463.7 458.3 450.8 445.5 440.5 435.1 431.4 428.5 425.4 424.5 421.7 420.1 415.8 416.9 413.9 411 405.2 401.4 395.2 390.1 386.6 381.6 379.6 375.2 373.8 370.1 370.1 368.8 366.8 366.3 366.2 363.9 360.6 358.9 356.7 354.5 351.3 345.2 341.5 335.3 326.2 315.1 308.8 301.5 295.3 288.2 282.9 276.3 272.4 269.8 263.7 259.7 258.2 257.4 256.4 253.6 250.7 250.7 250.7 250.7 250.7 250.7 250.7 250.7 250.7 250.7 250.7 250.7 250.7 250.7 250.7 250.7 250.7 250.7 250.7 250.7 250.7 260.5 262.4 267.1 268.7 268.6 272.9 273.6 276.5 278.4 282.7 286.8 288 287.7 291.9 293.7 305.4 312.2 319.3 317.5 327 337.6 350.3 352.3 361.8 370 383.1 388.1 398.1 408.9 424.9 440.5 449.4 461.9 477 494.8 504.7 512.8 514.3 499.2 481.9 461.8 438.5 423.2 410.6 399.4 389.8 379.5 369.8 359.3 351.7 346.6 341.6 338.4 334.5 332.7 334.2 336.1
396.5 392.3 388.8 384.8 382.1 381.6 379.9 382.8 385.6 386.6 385.8 383.9 386.3 388 388.9 395.8 397.3 404.1 404 409.8 412.2 413 412.2 408.6 405.8 403.5 402.9 400.5 399.3 399.6 396.8 400 400.9 403.8 407.5 414.2 422.1 429.6 433.2 443 457.9 469.1 476 482.7 490.6 496.8 503.4 509.9 515.2 519.4 524.6 526.5 531.3 535.1 540.4 546.9 553.1 557.1 552.2 534.1 513.2 497.9 490.8 487.8 484.7 479.2 474.5 467.3 459.6 454.7 452.1 444.1 440.3 436.3 434.5 434.1 432.4 431.6 429.5 426.4 425.1 421.1 416.4 412.5 407.8 403.3 399.2 394 389.7 386.1 385.3 381.6 381.2 379.4 378.4 378.5 377.4 377.4 375.8 374.1 372 369.9 366.6 359.6 353.6 347.5 338 326.2 318.7 310.8 303.2 296.6 291.9 285.1 278.4 273.8 269.5 264.2 260.6 259.4 257.8 250.7 250.7 250.7 250.7 250.7 250.7 250.7 250.7 250.7 250.7 250.7 250.7 250.7 250.7 250.7 250.7 250.7 250.7 250.7 250.7 250.7 250.7 250.7 250.7 255.4 259.6 263.5 265.3 269 270.7 272.6 275.7 280.5 283.2 282.9 284.9 290.1 295.8 299.6 304.9 309.8 315 328 334.5 341.5 350.7 361.5 365 377.3 383.1 395.4 402.8 421.6 434.2 442.6 460.3 479.7 494.5 504.8 513.1 504.1 484.8 466.8 449 425.1 408.8 397.7 385.7 376.3 365 356.1 345.6 340.7 337.8 334.5 331.4 328.3 331.1 332.1
395.7 392 388.9 384.2 382 382.1 379.3 382.3 384.1 384.6 383.6 381.9 381.1 382.5 386.1 387.2 390.1 394.8 398.2 405.7 408 406.9 404.3 403.7 401.1 400.8 400.5 398.1 394.3 394 393.9 395.5 396.6 402.2 409.8 416 425.6 433 437.2 443.6 459 469.9 477.4 485.7 491.9 499.2 506.5 513.9 520.4 525.5 529.8 533.4 538.1 543.5 548.9 555.3 561.1 567.7 569 553.4 532.6 513.7 504.3 498.5 491.8 486 480.9 474.8 468.6 465.8 461 455.2 451.1 444.3 442.2 442.8 442.3 442.3 441.2 440.7 439.3 433.8 429.4 425.4 421 416.2 411.6 405.2 401.2 399.9 398.7 397.7 393.7 391.7 391.7 393.9 395.6 394.9 393 393.4 392.5 390.4 384.4 378.6 370.6 362.6 350.3 342 331.4 318.8 311.3 303.5 300.9 296.2 285.1 279 273.4 269.3 265.1 261.7 258.1 257.1 250.7 250.7 250.7 250.7 250.7 250.7 250.7 250.7 250.7 250.7 250.7 250.7 250.7 250.7 250.7 250.7 250.7 250.7 250.7 250.7 250.7 250.7 250.7 250.7 250.7 262.3 258.6 266 268.4 267.2 270.3 274.3 280.6 274.8 282 285.1 288.2 291.8 296.2 300.1 306.1 321.4 322.5 329.2 339.8 353.5 352 361 369.4 382.5 387 397.5 414.6 424.4 437.4 458.5 476.8 490 503.1 504.2 486.8 468.2 451.9 428.4 407 394 382.7 371.2 364.6 354.3 346.2 338.7 332.3 330.3 324.7 325.4 325.2 325.9
392.9 389.8 387.7 384.1 383.4 380.5 380.4 380 381 379.7 380.2 379.4 376 377.3 380.5 384 384.3 387.9 393.2 398.1 399.8 399.3 397 395.7 396.2 397.3 396.7 394.6 391.9 390.8 392.4 391.8 396.6 401.1 411.2 417.9 426.5 435.3 443.4 447.7 457.4 467.4 476.9 485.6 492.8 501.6 508.9 516.2 523.3 529.7 535.2 539.1 543.7 549.4 556.6 564.1 571.4 578.1 583.7 577.2 556.9 535.3 520.7 510.2 499.8 494.5 490.4 483 483.1 480.7 475.3 466.7 463.3 456.2 451.3 453.1 455.6 454.6 453.7 453.7 451.3 447.1 442.4 438.9 435.2 430.5 424.9 419.3 416.5 415.3 414.2 410.7 408.5 409.5 409.4 410.6 410 409.6 409.5 409.8 409.4 408.4 403.7 399.1 389.8 383.4 369.5 356.6 342.2 331.4 319.9 311.8 313.3 300.1 291.9 287.1 282.6 276.8 267.9 263.6 259.4 254.8 251 250.7 250.7 250.7 250.7 250.7 250.7 250.7 250.7 250.7 250.7 250.7 250.7 250.7 250.7 250.7 250.7 250.7 250.7 250.7 250.7 250.7 250.7 250.7 250.7 250.7 250.7 250.7 258.9 256.4 259.6 267.1 271.8 271.9 276.6 278.7 281.5 285.4 288 293.3 299.8 306.5 310.6 318.3 320.9 332.3 340.1 346.5 354.2 364 375.2 376.3 392.2 405.9 416.1 437.7 453.7 471.7 485.6 499.2 490.2 470.6 452.4 432.4 409.3 390.4 378 368.5 359.9 352.3 339.3 336.3 329.3 323.8 322.1 319.7 320.9 319.8
395.1 389.2 385.3 384 380.5 378.5 378.8 377.9 376.2 376.2 376.1 375.2 372.2 372.5 373.5 377.3 385.4 379.3 381.1 384.7 389.5 389.3 389.8 388.7 389.5 392.6 392.5 389.8 384.8 385 387.9 392.7 396.5 405.3 413.8 419.4 427.6 436.1 439.7 451.2 459.7 468.5 477.7 486.8 496.8 503 511.6 518.4 526.9 534.1 539.4 544.4 549.1 555.3 563 571.4 579.3 586.6 592.8 597.1 583 559.9 540.9 527 515.7 514.4 511.9 512.8 506.9 502.2 502.2 498.5 488.9 482.4 476.4 471.6 470.3 466.9 466.2 467.8 463.6 461.9 460.2 459.1 456.8 451 449.3 445.5 444.2 439.8 438.6 433.9 431.9 431.7 428.1 427.9 426.9 428.4 427.6 426 427.3 424.2 416.6 409.5 404.8 396.7 387.9 373.7 358.6 343.4 329.8 320.1 317.2 305.1 297.1 290 284.4 280.3 279 274.1 265 260.7 258.3 250.7 250.7 250.7 250.7 250.7 250.7 250.7 250.7 250.7 250.7 250.7 250.7 250.7 250.7 250.7 250.7 250.7 250.7 250.7 250.7 250.7 250.7 250.7 250.7 250.7 250.7 250.7 250.7 250.7 250.7 263.5 262.4 268.5 270.9 273.2 274.6 277 279.9 285.5 291 298.1 303.5 307.1 311 318 328.4 334.1 339.6 352.3 359.1 365.9 369.8 384.7 397.2 409.2 428.8 448 462 477 487.1 475.3 456.4 438.6 411.7 388.2 371.6 363.4 354.8 345.8 339 331.3 326.3 320.2 319 316.7 318 317.2
395.6 391.3 387.4 383.7 379.5 377 378.7 376.6 373.1 372.2 369.9 369.8 368.3 367.9 368.5 371 373.7 376.5 376.5 375.6 379.9 382.4 380.7 379 384.9 388.4 386.9 384.2 378.9 382.2 383.9 389 399.9 404.6 413.6 423.3 428.9 431.8 440.5 450.1 458.6 468 479.4 488.5 497.5 505.1 512.7 521.7 529.9 537.1 542.8 548.7 554.4 560.9 569 577.5 585.9 594.9 602 608.5 611.2 589.4 570.3 558.1 551.3 540.5 546.9 546.5 540.2 545.7 549.5 536.5 535.2 517.7 505.4 500 488.7 481.6 484.4 487.9 485.4 487.5 486.8 487.7 486.6 488.5 487.8 481.3 473.4 465.4 463.6 463.6 460 455.2 454.1 455.1 453.7 449.9 446.8 441.8 437.4 435.8 432.2 428.5 422.9 414.5 404.6 392.3 373.8 355.6 345.5 337.2 327.3 316 306.6 296.1 287.9 289.7 285.5 279.8 275.6 265.8 261.4 260 255.8 256.3 250.7 250.7 250.7 250.7 250.7 250.7 250.7 250.7 250.7 250.7 250.7 250.7 250.7 250.7 250.7 250.7 250.7 250.7 250.7 250.7 250.7 250.7 250.7 250.7 250.7 250.7 250.7 250.7 250.7 261.7 267.7 266.9 268.2 270.6 272.8 277.3 284.4 289.9 296.5 300 301 306.8 316.3 321.2 325 338.8 348.7 353.8 358.4 363.4 379.2 386.6 404.9 422.7 439 452.4 466.8 472.5 459.1 438.3 417.4 389.9 368.1 355.8 350.8 344.5 336.8 331.7 323 318.2 313.4 313.8 314.7 312.3
396.5 391.5 384.1 382.3 377.7 377 375.2 372.7 370.3 368.3 367.6 366.8 364.2 362 365.8 366.9 367.5 372.8 377.2 373.1 372.6 372.3 372.4 375.8 380.4 381.8 380.9 377.9 372.5 374 381.8 390.3 398.1 405.2 414.2 422.2 432.5 439.3 446.1 453.5 458.5 468.2 478.9 489.7 498.4 506.7 514.7 523.9 532.2 539.9 545.9 552.5 559 566.3 575 583.9 593 600.6 608.5 616.1 621.3 623 606.3 598.6 591.2 586 589.7 587.3 589.7 604.7 606 594.6 574.2 552.8 533.1 519.9 506.9 507.9 511.7 518.1 521.9 533.7 543.4 534 533.1 531.7 530.6 522.4 513.6 514 511.2 501.6 492.9 490.8 487.8 481.9 474.4 468.6 465.4 460.7 455.8 447.8 445.8 441.6 434.5 428.2 416.8 407.9 389.5 370.5 356.6 347 333.2 328 315.7 303.6 293.9 291.7 287.8 282.4 278.6 274.7 274.4 271.8 263.9 260.9 255.1 258.2 250.7 250.7 250.7 250.7 250.7 250.7 250.7 250.7 250.7 250.7 250.7 250.7 250.7 250.7 250.7 250.7 250.7 250.7 250.7 250.7 250.7 250.7 250.7 250.7 250.7 250.7 250.7 250.7 255 261.1 262.6 264.5 266 271.5 276.3 281 285.6 292.6 295 298.7 304.8 311.7 317.9 323.8 336.9 341.6 349.2 348.6 359.8 371.9 381.6 397 415.4 428.4 440.1 455 455.6 437.2 420.6 395 367.1 349.3 344.6 344.4 336.5 327.5 322.3 316.6 313.7 306.3 307.6 309
394.5 389.4 382.9 379.6 376.9 376.2 376.1 369.1 367.3 366.3 365.7 363.6 363.6 360 360.2 362.6 360.9 364.7 366.9 368.3 366.5 365.3 368 369.6 374.7 374.4 372.3 368.1 362.2 373.6 381.2 389.8 398 406 418 424.9 431.7 439.1 446.8 454.7 463.1 471.7 482.5 491 499.7 508.6 516.6 525.3 534.4 541.4 549.1 555.6 562.1 570.5 579.4 589.7 598.4 606.8 614.3 621.8 628 632.5 635.3 636.4 633.8 627.6 631.8 627.4 624.2 621.3 619.9 617.2 604.5 579.2 557.8 545.2 544.8 543.6 547.4 560.4 593.2 594 591.2 593.2 581.6 587.6 583.5 573.9 558.5 565.4 558.6 548.3 533.6 527.2 518.2 506.5 499.5 493.2 482.3 473.9 469.6 467.6 461.3 456.8 452.2 446.5 437.5 430.8 414.3 396 375.5 360.2 345.4 333 318 307.8 300.5 291.1 288 287.4 283.5 283.4 276.1 272.9 274.3 265.3 264.9 261.7 255.7 250.7 250.7 250.7 250.7 250.7 250.7 250.7 250.7 250.7 250.7 250.7 250.7 250.7 250.7 250.7 250.7 250.7 250.7 250.7 250.7 250.7 250.7 250.7 250.7 250.7 250.7 250.7 250.7 250.7 251.1 259.9 261.1 265.6 268.8 273 279.4 283.9 288.3 292.2 295 302.1 310.1 316.1 322 329.8 337.8 340.2 344.1 362.3 365.6 380.4 391.3 405.9 417.8 429.4 436.4 429.2 419.4 398.7 365.1 347.7 337.8 333.9 332.9 325.2 316.5 310.9 309.5 305.6 305.7 307
391.6 389.8 382.6 375.6 374.4 374.4 372.3 366.5 363.6 362.3 362.8 359.4 357.5 358.7 358.4 357.5 356.4 357.3 358.7 362.3 362.1 363 360.8 363.4 368.5 366.9 363.7 360.7 355.8 370.3 381.8 391.5 398.5 403.8 417.3 424.5 432 442.1 450.4 458.6 466.9 476.6 486.8 494.8 503.3 511.4 520.5 528.3 536.5 544.6 552.1 558.4 566.3 573.3 582.5 592.9 602.5 611.2 619.1 626.4 632.9 637.4 640.8 642.7 642.4 642.5 640.9 638.1 634 630.2 627.4 627.7 624.3 604.2 591.8 578.6 582.3 587.7 597.8 608.7 607 605.2 604.1 601.9 599.8 596.8 595.1 592.3 588.1 584.1 578.6 571.5 562.6 554.4 545 535.1 520.4 509.7 496.8 489.9 485.8 480.3 473.1 470.5 464.3 456.4 456 451.5 442.7 430.3 406.6 377.6 353.4 336.3 324.4 314.1 306.8 298.1 294.8 293 288.6 283.8 283.1 279.6 277.7 273.9 272 267 262.6 259.4 255 250.7 250.7 250.7 250.7 250.7 250.7 250.7 250.7 250.7 250.7 250.7 250.7 250.7 250.7 250.7 250.7 250.7 250.7 250.7 250.7 250.7 250.7 250.7 250.7 250.7 250.7 250.7 250.7 250.7 252.2 261.1 262.8 266.9 275.8 277.9 282.3 286.3 288.4 293.4 300.7 306.7 312.1 317.2 325.9 332.8 334.3 349.1 352.8 362.1 372.3 385.8 395.7 406.4 417.1 417.8 408 396.9 367.3 348.8 339.1 329.2 326.7 321.7 314.3 309 303.9 303.4 302.5 302.5
389 388.2 383.2 375.7 370.5 371.5 370.9 363.5 359.6 357.8 358.7 355 355.2 355.3 354.7 355.9 354.8 353.4 353 354.9 354.4 356.9 357.4 357.1 359.6 363.9 360.1 352.5 356.4 368.9 378.4 389.5 399.1 405.7 416.7 422.2 430.1 443 451.7 461.4 470.7 479.9 490.3 499 508 515.7 524 531.2 540.2 546.9 554.3 560.6 568 576.5 585.4 595.9 605.2 614.1 622.3 629.8 636.3 641.2 644.4 646 648 648.4 648.1 646.2 642 639 636.5 636.5 633.8 631.5 627.8 623.3 624 622.3 620.3 617.2 614.9 613.8 611.9 610.1 608.2 604.8 602 598.4 594.8 591.9 586.7 580.4 575.4 566.8 557.2 546.1 531.3 526.9 516.2 500.8 493.4 488.9 483 477.4 475.2 470.5 466.2 462.1 452.4 440.9 415.8 391 366.9 350 330.6 319.7 311.3 308.5 304 300.6 297.8 293.2 291.2 286.8 285.1 284.8 280.9 275.8 268.2 266.9 261.7 260.3 257.6 250.7 250.7 250.7 250.7 250.7 250.7 250.7 250.7 250.7 250.7 250.7 250.7 250.7 250.7 250.7 250.7 250.7 250.7 250.7 250.7 250.7 250.7 250.7 250.7 250.7 250.7 250.7 250.7 258.1 257.4 259.9 267.2 271.9 274.7 280.3 283.7 287.6 292 297.8 304.7 310.2 316.9 324.5 327.3 337.3 341.6 350.2 356.7 369.5 377.2 385.5 393.9 401.9 394.8 383 371.7 346.8 334.3 323.9 320.5 319.8 312.4 305.3 301.3 298.5 298 297.4
388.3 385.1 380.1 372.4 369.4 366.1 369.8 362.2 357.7 353.3 352.6 350.4 349.9 352.8 352.5 352 352.1 351 348.6 352.9 349.7 352.2 352.9 352.4 351.7 351.3 350.4 349.4 354.9 370 379.5 387.3 396.2 402.9 415.7 423.5 430.5 443.1 452 462.4 472.8 483.3 492.6 502.1 511.3 519.4 527.7 536.3 543.6 551.3 558 564.9 570.5 578.3 587.7 597 606.3 615.1 623.2 631 637.5 643 646.5 649 651.3 653.3 653.6 653 649.7 648.4 646.8 645.4 643.1 640.6 639 636 633.3 631.5 628 625.3 622.8 620.2 617.3 616.1 612.8 609.9 606.5 602.2 598 596.5 590.6 584.8 579.7 575.1 566.7 554 548.1 538.6 528.9 519.5 510.5 505.2 496.8 489 486.6 482.3 477.2 472.2 468.6 459.3 440.5 411.8 388.1 374.7 358.8 335.5 324.5 313.8 308.4 306.5 302.2 298 298.5 294 290 288.1 285.6 279.2 277.3 273.3 269.2 268 262.3 255.7 250.7 250.7 250.7 250.7 250.7 250.7 250.7 250.7 250.7 250.7 250.7 250.7 250.7 250.7 250.7 250.7 250.7 250.7 250.7 250.7 250.7 250.7 250.7 250.7 250.7 250.7 250.7 250.7 250.7 250.7 259 265.6 270.2 277.5 279.4 282.5 287.3 291.7 296.5 302.3 308.7 314.9 318.5 324 332.2 342 342.9 354.5 360.2 366 373.5 381.7 381.7 370.7 364.9 345.5 333.4 319.3 312.5 315.4 306.8 302.8 298.6 294.6 294.3 294.3
384 382.5 378.2 372.9 369.6 369.7 361.4 355.8 353.4 350.2 349 349.7 344.4 343.9 344.8 346.6 345.6 344.8 346.2 342.1 347.9 344.9 344.7 343.9 343.8 346.9 340.7 338.9 353.3 369.8 377 389.2 395 404.1 413.6 424.3 432.1 440.1 452.1 464 474.2 483.4 492.3 502.2 511.7 520.9 530.1 538.3 545.7 553.1 560.6 567.2 573.6 580.6 588.9 596.7 606.6 614.8 623.3 630.5 637.2 642.2 646.1 649.4 652.5 655.2 657.4 657.9 655.8 656.2 656.1 655.8 653.6 652.2 649.8 647.6 644.4 640.7 636.9 634.4 631.5 628.2 625.4 622.6 619 614.7 610.9 607.1 601.9 599.2 592 587.1 583.6 580.8 575.4 565.8 557.5 547.7 541 541.5 528.9 516.2 506.5 502 496.3 492.8 486.7 481.5 481.1 478 467.2 444.4 417.8 398.2 372.1 353.3 336.7 324.2 311.3 310.4 305.1 303.3 302.5 299.8 297.3 297.1 292.6 288.2 281.6 279.8 276.2 272 269.9 264.3 261 254.8 250.7 250.7 250.7 250.7 250.7 250.7 250.7 250.7 250.7 250.7 250.7 250.7 250.7 250.7 250.7 250.7 250.7 250.7 250.7 250.7 250.7 250.7 250.7 250.7 250.7 250.7 250.7 250.7 250.7 252.8 265.2 269.8 272.7 277.1 282.2 286.6 292.5 296 301.2 307.7 310.7 317.2 321.4 331.2 335.7 341.5 347.1 352.4 354.2 362.8 363.5 362.4 354.6 345.3 328.5 318.1 312.7 309.3 305.6 299.1 294.4 292.2 289.3 290.7
383.3 381.1 374 371.1 370.3 369.3 363.5 356.9 353.6 348.5 345.7 342 341.8 340.5 339.1 338.9 342.5 338.5 337.3 336.9 339.6 341.2 340.6 339.5 340.7 338.1 338.1 336.6 354.7 368.3 378 383.9 394.2 401.1 412.4 420.4 429.4 438.5 449.8 462.6 470.4 480.7 489.8 500.7 510.8 519.8 530.1 538.2 546.1 554 561 568.2 575 581.1 589.1 596.9 605.5 613.6 621.2 628.6 634.3 640.2 643.9 648.2 652 656 659 660.6 659.9 662 663.1 664.8 664.9 662.9 661.5 658.6 655.5 651.2 647.8 644.2 641.5 637.4 633.4 629.2 625.1 619.9 618.6 615.2 608.7 601.9 595.2 590.8 587.9 585.1 580.6 571.1 561.7 559 552.5 544.6 535.3 525.5 518.7 511.6 503.9 504.1 497.1 493.5 491.1 487.6 475.6 460.8 439.3 412.8 394.2 377 361.5 348.5 332.6 322.9 314.5 310.1 308.2 306.1 305.9 302.8 298.4 294.2 290.5 290.1 286.2 282.1 273.5 271.1 266.4 262.7 259.8 259.8 250.7 250.7 250.7 250.7 250.7 250.7 250.7 250.7 250.7 250.7 250.7 250.7 250.7 250.7 250.7 250.7 250.7 250.7 250.7 250.7 250.7 250.7 250.7 250.7 250.7 250.7 250.7 250.7 262.6 265.7 267.8 273.9 278 282.2 287.4 290.8 295 301.9 304.8 312.6 313.6 320.3 331.2 332.3 335.3 340.6 340.4 348 348.9 348 343.9 340.7 327.5 314 309.6 307.2 305 294.7 291.5 288.3 284 286.1
381.8 379 372.8 370.2 369.6 369.1 361.4 355.3 351.7 348.1 343.5 339.9 333.1 335.6 335.1 332.8 334.7 333.3 334.1 335.1 335.5 335.2 336.8 336 334.6 334.3 330.2 344.7 353.6 364 377.7 384.7 394.1 401.4 409.3 419.1 429.2 436.4 447.6 458.3 467.4 477 486.4 496.6 507.8 516.9 527.8 535.6 544.3 551.6 559.5 566.4 574.9 581 587.5 595.2 602.9 610.2 617.4 623.5 629.8 635.5 640.9 645.1 649.3 653.9 657.3 659.8 661.2 664.6 668.7 671.7 673.2 673.6 672.8 670.7 667.4 664.1 660 656.3 651.7 647.6 641.6 635.7 630.3 626.6 626 621.6 615 608.1 601.3 598.8 595.4 591.2 585.1 578.6 572.3 568.5 558.9 552.1 543.6 536.9 529.2 522.9 516.3 513.4 508.5 504.7 502.2 496.4 481.3 465 447.9 428.1 413.2 396.6 381.6 371.6 359.7 357.2 332.6 323.2 316.3 316.3 313.3 310.8 307.1 303.2 299.5 296.4 289.2 286.8 281.4 279.7 274.3 269.9 266.3 262.2 260.1 260.5 250.7 250.7 250.7 250.7 250.7 250.7 250.7 250.7 250.7 250.7 250.7 250.7 250.7 250.7 250.7 250.7 250.7 250.7 250.7 250.7 250.7 250.7 250.7 250.7 250.7 250.7 250.7 259 265 267.9 270 276.9 280.6 286.4 289.5 296.2 301.6 305 308.3 311.9 319.3 321.2 327.7 329.4 330.1 332.5 334.1 335.3 332.6 336.8 328.4 311.6 307.7 303 298.4 292.4 287.3 285.8 283.6 283.6
381 375.3 371.4 370.1 367.7 365.7 359.6 355.1 351.4 346.3 342.4 337.9 335.5 328.8 327.4 329.3 331.6 331.1 330.4 331.7 333.1 332.5 331.2 330.4 331.5 329.2 325.7 347.4 353.4 362.9 373.4 382.9 390.4 398.8 409.6 417 427.4 435.3 444 453.4 463.6 471.5 481.3 490 499.3 510.8 520.6 529.9 539.2 547.5 554.3 562.3 570 577.7 583.6 589.9 597.8 604.9 611.3 618.1 623.4 630.1 635.6 640.7 644.9 649.2 653.5 656.9 660.1 664.9 670.2 675.8 680 682.4 682.6 682.1 679.8 675.8 672.1 668.9 665.6 660.1 651.7 647.3 640.9 636.7 633.1 627 622.2 617.6 610.9 606.3 601.3 595 591.5 585.8 581.3 576.8 572 567 558.8 554.2 548.3 537.5 530.7 528.1 521.2 517.5 513.3 505.8 490.3 470.4 451.5 432.2 419.4 403.3 395.5 385 375.4 360.9 349.8 340.6 330.4 330 325 318.4 315.6 311.6 310.2 302.8 297.5 293.3 288.6 286.6 281.5 281 273.9 272.6 268 265.6 259.8 258.7 250.7 250.7 250.7 250.7 250.7 250.7 250.7 250.7 250.7 250.7 250.7 250.7 250.7 250.7 250.7 250.7 250.7 250.7 250.7 250.7 250.7 250.7 250.7 250.7 250.7 250.7 260.2 263 266.5 270.9 274.1 278.6 283.1 289.3 294.5 300 304.3 306.3 311.4 313.8 317.6 321.2 323.2 329.1 325.1 328.5 326.1 329.4 327 309.8 304.8 302.1 296.1 290 285.7 282.6 280.2 281.9
377.7 373.2 370.3 368.5 367.1 363.8 359.1 354.3 347.5 345.4 340.6 334.7 331.5 329.2 324.1 322.4 326.5 323.9 324.2 325.8 328.6 330.9 332.2 325.8 324.9 321.3 330 343.3 354.1 362.3 371.7 382 390.4 397.6 404.6 413.9 424.1 433.2 438.9 447.9 456.1 466 473.5 480.5 490.1 501.8 511.7 522.4 531 538.4 547.5 555.4 562.7 570.1 576.9 582.5 589.6 597.5 603.5 609.4 615.6 622.1 627.5 632 637.7 642 646.8 650.7 655.8 660.8 668 675.4 682.8 688.5 690.8 691.6 691.1 688 685.1 682.1 679.6 676.1 667.2 660.5 654.1 647.9 641.7 635.4 630.9 625.6 619.9 614.9 609.9 605.3 600.1 593.6 589.5 586.4 585 581.4 575.3 571.9 569.2 555.7 549.7 544.2 537.7 532.6 522.7 509.6 482.2 464.9 450.1 434.5 422.4 411.9 403.4 389.2 379.4 369.6 360.6 356 349.6 343.9 335.7 330.2 325.3 321.1 317.8 310.7 306.5 302.2 298.4 295.1 290.5 285.6 282.1 281.4 275.7 272.5 267.8 264.4 260.9 250.7 250.7 250.7 250.7 250.7 250.7 250.7 250.7 250.7 250.7 250.7 250.7 250.7 250.7 250.7 250.7 250.7 250.7 250.7 250.7 250.7 250.7 250.7 250.7 250.7 250.7 254.3 260.5 263.7 266.2 271.5 276.7 283 289 293.1 296.5 299.1 303.1 306.3 310.9 314 315.2 319.3 315.9 320.5 317.1 319 315.4 309.7 305.6 295.9 291.8 287 284.1 279.5 277.3 276.3
374.6 370.6 369.6 367 365 361.4 357.7 352.1 347.2 345.5 339.8 333.3 326 324.8 321.9 322.9 320.6 319.3 321 323.3 322.4 320.9 323.8 322.5 319.7 321.1 332.2 342.2 351.9 361.8 371.3 379.2 388.9 396.7 404.8 412.9 420.8 429.5 434.9 441.7 449.3 457.5 464.8 473.2 482.7 493.2 502.1 512.8 520.6 530.5 538.5 546 554.1 560.9 567.6 572.9 579.4 586.5 592.9 598.5 604.3 610.7 616.9 622 627.1 631.1 636.5 641.5 646.7 653.7 662.2 671.3 681.2 689.3 694.2 697 698.4 697.9 696.6 693.8 691.1 687.7 680.2 673.3 665.7 656.4 650.3 643.6 639 634 630.1 624.9 618.9 613.2 608.6 604.4 600.7 597.4 596.2 593.6 591.3 588.9 583.5 579.3 577.6 568.1 559.5 556.5 540.6 519.5 481.2 457 445.5 441 434.6 423.7 403.2 395.3 390.3 386 380.1 374.6 371.7 363.4 351.3 340.9 335.8 331.5 328 323 320.6 313.7 309.3 305.1 297.7 293.6 289.3 292.8 287.5 279.2 275.5 271 267.5 265.2 264.2 250.7 250.7 250.7 250.7 250.7 250.7 250.7 250.7 250.7 250.7 250.7 250.7 250.7 250.7 250.7 250.7 250.7 250.7 250.7 250.7 250.7 250.7 250.7 250.7 250.7 250.7 254.3 261.7 266.4 269.5 275.7 279.9 284 290 293.8 297.3 298.7 304.4 307.1 307.7 307.9 308.7 309.4 309.6 310.2 305.9 304 298.7 293.3 289.5 285.8 280 277.8 272.3 274
375.5 373 369.1 364.3 363.7 360.4 355.4 350.4 347.4 342.4 339.7 333.8 325.2 321.5 318 316.8 317.4 320.2 319.5 318.9 319.5 316.8 315.1 315.2 315.5 320 329.5 339.7 347 357.3 368.3 378.2 386.4 393.5 402 410.1 417.7 425.4 430.9 436.8 444.3 451.4 459.3 469 476.7 486.3 494.3 504.6 512.7 521.3 529.2 536.1 542.8 549.7 556.3 562.8 567.3 572.5 578.1 583.8 590.9 596.3 602.7 609.7 613.5 618.3 622.7 626.7 633.7 640.6 651.1 663.2 674.7 686.2 694.2 698.8 702.1 704.4 705.8 703.5 700.6 696.2 690.2 684.1 676.3 667.7 658.7 651.4 645.5 640.8 637.4 633.1 630.1 625.1 619.6 617.4 613.9 612.5 611.6 610.7 608.3 605.4 603.4 603.1 599.9 593.2 585.8 575.5 552.2 515.4 494.1 460.4 446.9 436.9 425.1 419.3 413.4 406 401.4 401.4 395.3 392.3 386.9 375.4 364.3 354.3 347.9 342.2 338.8 335.9 329.6 324.4 319.5 311.8 306.3 301.9 296.2 294.5 288.8 285.3 282.3 279.9 276.5 271.7 266.8 263.9 261.4 251.9 250.7 250.7 250.7 250.7 250.7 250.7 250.7 250.7 250.7 250.7 250.7 250.7 250.7 250.7 250.7 250.7 250.7 250.7 250.7 250.7 250.7 250.7 250.7 250.7 252.3 258.8 263.4 268.7 273.1 278.4 283.4 287.8 292.8 293.1 297.4 299.7 300.8 300.7 301.3 303.9 303.1 299.2 298.5 299 295.9 291 285.7 283.3 280.4 277.9 273.7 267.9
377.4 372.6 368.8 363 359.5 358.2 353.3 349.2 346.3 342.8 336.3 331.8 327.9 324.4 320.4 317.9 315.2 315.5 319.4 317.1 315.5 314.5 312.1 313.5 314 316.6 324.5 337.9 342.8 352.6 361.1 369.5 380.1 389 397.6 403.7 411.8 419.4 427.3 435.1 441 448.9 457.2 464.1 470.2 478 486.9 496.2 504.3 511.8 519 525.9 532.1 538.7 544.4 550.3 554.9 559.1 564 569 574.1 578.4 584.6 591.1 597.1 602.4 606 611.4 617.2 625.1 635.3 649.4 663.9 676.8 688.2 695.4 701.3 706.4 709.9 709.9 706 701.4 696.1 690.8 684.4 676.8 667.7 659.3 653.9 649.8 646.4 642.1 638.6 634.8 630.6 629 626.1 624.3 623.7 624.1 624.4 623.2 621.6 619.3 617.7 613 604.6 584 548.5 519.2 501.1 474.9 462.2 444.9 431 428.1 422 413.7 414.7 411.1 408.5 404.5 399.4 391.5 378.9 369.3 357.3 351.8 350.6 344.6 341.6 336.9 333.7 327.2 319.3 313.6 307.7 301.9 297.4 296.3 292.9 285.9 286 277.6 274.3 270.6 267.3 261.1 260.7 258.7 250.7 250.7 250.7 250.7 250.7 250.7 250.7 250.7 250.7 250.7 250.7 250.7 250.7 250.7 250.7 250.7 250.7 250.7 250.7 250.7 250.7 250.7 250.7 250.7 257 262.4 265 270.1 276.7 281.9 287.6 287.3 290.6 292.5 293.9 293.2 294.8 296.3 295.9 292.7 291.3 291.7 290.4 291.1 284.2 280.5 279.5 274.5 272.7 270.5
376.5 371.3 366.7 362.7 356.8 357.1 352.7 348.4 344.5 340.8 336.4 331.8 328.8 323.3 320.8 319.1 315.9 311.6 313.3 315.9 315.1 312.7 311.3 311.8 313.2 315.3 322.3 335.2 340.9 351.8 360.2 369.2 380.7 391.2 399.1 406.9 411.9 419.1 423.8 430.7 436.8 445.6 452.9 458.1 465.7 472.7 479.5 488.2 495.2 503 509.5 515.7 522.2 528.4 534.1 539.7 544.2 548.1 552.4 556.2 561 565.7 570.4 574.6 580.5 586.7 591 595.7 601.9 610.9 620.9 634 647.4 662.5 677.3 687.8 695.7 703.2 708.1 709.8 706.3 701.8 697.6 693.1 687.9 681.3 673.5 666.1 661.3 656.3 653.7 649.9 646.4 643.2 640.9 639.6 637.1 635.3 634.4 634.7 635.4 635.5 633.6 633.4 631.7 627.7 615.3 579 550.4 525.4 500.3 484.3 474.6 457 444 438.9 434.3 430.7 431.1 425.9 423.3 418.4 413.2 403.8 395.3 385.3 374.4 369.4 365.8 361.7 357.5 351.6 345.9 339.7 335.2 326 318.5 315.5 308.6 303.9 298.4 295.6 289.3 286.7 282.7 279.4 273 269.2 271.4 260.6 252.7 250.7 250.7 250.7 250.7 250.7 250.7 250.7 250.7 250.7 250.7 250.7 250.7 250.7 250.7 250.7 250.7 250.7 250.7 250.7 250.7 250.7 250.7 250.7 250.7 250.7 257.7 262.4 268.1 273.3 280 279.7 283.7 287.1 287.9 288.3 286.7 288.6 291.1 287.8 285.9 286 286.1 283.3 280 277.1 277.6 274.6 268.8 265.3
375.7 372.5 367.7 361.8 355.9 352.1 350.7 346.6 342.5 340.2 341.1 335.2 331.6 325.7 322.3 318.6 316.2 314.3 311.3 313.3 313.4 313.2 312 309.8 311.5 315.7 322.4 328.9 343 352.5 360.9 366.7 374.5 388.2 394.6 402.1 408.1 413.9 421.8 428.1 434.9 441.3 447.6 454.5 459 465.7 472.7 478.6 487.5 494 500.8 506.3 512.5 518.7 525.1 530.2 535.1 539.3 542.8 545.9 548.2 552.9 556.8 561.2 566.6 571.2 576.1 582.9 589.2 596.5 606.1 619.4 633.4 647.7 663.6 676.6 686.5 695.3 702.3 705.6 704.3 700.3 696.9 693.4 690.3 685 678.7 672 668.3 664.6 660.7 657.2 653.6 650.2 648.4 647.5 645.7 645 643.5 644 645.5 645.8 645.4 646.7 645.4 639.6 621 587 549 523.1 507.3 488.3 475.7 463.2 454 451.2 449.2 445.9 445.7 440.2 433.8 429.4 424.4 415.9 404.3 398.3 390.7 386.7 387 383.3 376.7 367.8 358.6 354.4 353.8 345.1 333.5 325.8 317.3 313.2 308.6 302.1 297.3 293.9 292.9 286.7 280.3 274.8 268.5 267.1 265.5 262.1 250.7 250.7 250.7 250.7 250.7 250.7 250.7 250.7 250.7 250.7 250.7 250.7 250.7 250.7 250.7 250.7 250.7 250.7 250.7 250.7 250.7 250.7 250.7 250.7 250.7 250.9 260.5 265.9 269.6 272.9 273.8 281.4 283.8 282.5 282.3 284.6 285.9 284.2 283.3 283.7 283.4 277.9 277.4 275.5 275.5 272.4 267.4 263.5
375.1 371.9 364.7 360.4 355.8 350.6 349.1 346.4 343.7 338.7 340.6 335.7 330.9 326.2 322.8 317.8 314 312.2 313.9 313.2 310.2 311.3 311.1 310.2 309.8 316.9 319.4 329.4 336.1 349.5 358.4 364.1 371.5 383.1 392 399.7 407.5 414.7 418.8 425.7 431.5 438.2 442.9 450.4 454.9 459.8 465.9 471.8 479.3 485.3 492.6 498.2 503.7 510.1 516.2 521.4 527 531.3 534.6 537.2 539.3 541.6 544.3 547.8 551.5 554.6 561.2 565.9 572.9 582.6 594.1 604.9 618.5 631.9 648.4 663.9 676.1 685.9 693.9 699 700.9 699.3 697 692.7 690.1 687 682.6 677.7 674.9 671.4 669 666.1 663.3 660.4 657.8 656.4 655.9 655.4 654.4 653.4 654.2 654.7 655.3 657.4 656.5 653.8 649.2 604.7 560.4 536.9 523 507.9 495.4 484 474.3 473.5 472.3 466.4 459.4 454.7 448.5 442.6 434.3 424.7 417 410.4 405.2 404.8 408.7 406 395.7 382.4 372 366.7 362.6 355.3 347.6 340.9 329.2 324.5 320.2 312.9 308.4 302.8 297.6 294.7 292.2 280.4 276.3 274.7 272.7 265 261.6 255.9 250.7 250.7 250.7 250.7 250.7 250.7 250.7 250.7 250.7 250.7 250.7 250.7 250.7 250.7 250.7 250.7 250.7 250.7 250.7 250.7 250.7 250.7 250.7 250.7 250.7 258.6 260.9 265.2 270.2 272.2 274.4 276.4 276.7 278.8 280.9 280.3 276.1 276.1 276.7 275.1 273.6 271.8 271.8 271.9 267 261.3
373.6 369.7 365.3 359.6 357.2 352.5 348.7 348.5 346.2 340.5 337.7 335.4 332 326.9 324.5 317.1 313 310.2 310.7 310.4 304.8 314.2 310.8 309.4 307.2 312 320 326.3 332.8 342.3 353 361.8 369.6 377.4 388.2 393.9 402.1 410.5 415.6 421.1 429.4 434.1 440 447.6 452 454.8 459.6 465.4 471.1 477 484.3 490.4 495.8 503 508.6 514.3 518.6 523.6 526.4 527.8 529.7 531.4 533.7 536.1 539 541.4 541.8 548.6 559.2 570.4 581.9 593.5 604.5 617.9 633.3 648.8 663.4 674.7 684.1 691.4 696 697.7 697.1 694 690.3 687.8 685.5 683.1 680.9 678.4 676.4 675.3 672.6 669.8 669.1 667.3 665.1 663.5 663.8 663.5 664 665 664.7 665.8 666.2 665 661.9 618.8 575.7 558.4 543.6 527.3 514.5 502.1 496.5 496.2 491.3 486.7 479.5 475.2 468.4 458.8 451 440.1 431 424.6 421.8 427.5 421.3 414.6 406.7 396.1 387.8 379.4 375.8 366.1 364.6 354.2 343.9 336.7 331.6 325.2 319.3 313.4 306.5 301.2 292.5 288.2 283.5 281.4 276 270 265.6 257.9 250.7 250.7 250.7 250.7 250.7 250.7 250.7 250.7 250.7 250.7 250.7 250.7 250.7 250.7 250.7 250.7 250.7 250.7 250.7 250.7 250.7 250.7 250.7 250.7 250.7 250.7 250.7 255.6 260.7 265.2 267.7 270.3 271.5 273.7 273.6 273.4 272.7 274.6 275.5 274.1 271.1 270.4 272 272 265.2 260.1
371.1 367.8 363.8 357.4 353.8 352.4 347.2 347.6 345.1 339.3 338.5 338.1 332.5 327.6 323.5 318.3 313.3 310.2 309.4 308 303.2 311.4 309.6 308.3 304.7 312.9 320.7 324 329.7 340.2 351.9 359.8 367.3 376.9 384.5 392.2 399 405.7 413.7 419.6 427 432.4 437.3 444 447.4 451 455.8 460.8 465.1 470.2 477.1 484 490.1 496.5 501.7 506.9 511.1 515.2 518.8 520.1 521.1 521.2 522.9 524.7 526.2 526.6 524 533.5 546.4 558.4 570.4 580.6 591.4 604.3 619.3 634.1 648.7 661.3 672.3 681.3 688 691.7 693.5 693.5 692.1 690.3 687.6 685.4 684.5 683.2 683.1 681.6 680.8 678.6 676.5 675.2 673 670.9 670.6 671.6 673.3 675.8 673.6 672 674.6 671.7 670.5 637.7 595.7 578.5 567.3 550.7 534.3 521.6 525.7 517.9 513 509.5 505.6 501.9 492.2 481.9 469 460 452.2 446.3 444.1 448.4 442.8 432.4 417.2 410.9 405.6 394.5 387.5 383.8 375.7 367.3 358.1 353.8 347.6 342.4 333.4 324.7 316.5 311.2 302.5 295.5 294.2 285.2 281.8 274.5 271.4 262.8 263.3 263.1 252.7 250.7 250.7 250.7 250.7 250.7 250.7 250.7 250.7 250.7 250.7 250.7 250.7 250.7 250.7 250.7 250.7 250.7 250.7 250.7 250.7 250.7 250.7 250.7 250.7 250.7 250.7 259 261.6 264.7 266.6 265.8 266.3 267.5 271.1 274.7 269.9 268.7 265.6 263.6 267.5 266.9 264.5 258.1
368.7 366.2 361.6 358.1 355.3 355.5 347.9 346 344.3 337.6 336.7 334.8 330.9 328 324.4 317.9 315.3 310.7 308.2 304 302.7 302 304.9 306.8 303.5 308.1 315 318.1 327.2 336.6 349.4 357.7 365.4 375.6 382.2 390 395.3 402.5 408.3 415.5 421.3 427.6 435.1 442.2 443.8 448.8 453.4 456.2 460.9 465.2 471.6 478.3 485.1 490 495.1 499.9 504.1 507.7 510.2 512.1 513.1 512.8 513.1 513.4 512 513.4 508.9 522.9 533.3 546 557.7 568.6 579.3 592.1 605.9 618.8 633.1 645.1 657.1 667.2 676.2 682.7 686.7 689.7 690.4 689 687.5 686.3 686.2 686 686 684.8 683.2 682 679.9 678.6 677.7 677.7 676 675.9 678.2 682.4 680.4 676.3 673.5 672.4 670.3 664.8 639.6 613 595.6 582.6 567.5 564.3 561.8 554.5 554.4 548 543.5 535.7 522.7 509.5 496.4 482.8 475.4 471.4 468 467.4 460.2 449.4 440.6 435.4 428.5 416 400.5 395.7 387.1 379.2 374.8 366.3 361.7 356.5 351.6 341.5 330.7 321.2 312.9 306.6 300.8 291.1 282.9 279 273.2 270.1 266.2 262.2 256.2 250.7 250.7 250.7 250.7 250.7 250.7 250.7 250.7 250.7 250.7 250.7 250.7 250.7 250.7 250.7 250.7 250.7 250.7 250.7 250.7 250.7 250.7 250.7 250.7 250.7 250.7 250.7 250.7 254.9 259.8 259.1 259 261.7 267.1 268.1 264.2 262.9 259.7 259.9 266.1 264.9 260.7 257.7
368.1 365.3 360.3 355.8 350.5 349.9 349.2 343 341.2 336.9 337.1 335.1 331.5 330.6 327.5 320.1 317.2 313.7 307.9 307 301.3 300 300.6 303.4 299.9 305.7 311.1 318.5 326.4 333.9 344.8 353.1 360.4 368.8 376.4 384.3 391.1 397.7 404.6 411.9 416.2 424.7 431.2 435.9 441.6 446.1 449.5 453.4 457.4 462.5 467.4 472.3 478.2 483.2 488.4 493.9 497.2 500.9 503 504.6 505.1 505.5 503.9 503 501.7 493.9 503.5 511 522.1 534.3 546.9 558 568.2 579.8 591.5 604.5 617.5 629.4 638.9 650.1 660.4 668.7 675.4 678.3 680.2 680.5 681.5 681.8 681.5 680.5 681.4 681.7 680.9 680.8 679.5 679.7 680.5 681.7 679 678.7 679.9 681.8 678.8 673.9 670 665.2 661.1 655.4 646.8 638.3 633.1 625.8 619.3 611.9 603.3 597.1 590.2 582.3 577.7 568.9 554 537.6 526.8 515.8 508.9 503.6 499.2 496 486.1 476.2 467.8 463.2 457.3 446 430.1 418.1 414.6 404 397.7 392.1 383.9 375.3 369.2 358.7 347.1 337.1 323.2 317.7 311 302.4 292.3 284.5 281.6 277.7 271.4 267.8 262.7 253.9 250.7 250.7 250.7 250.7 250.7 250.7 250.7 250.7 250.7 250.7 250.7 250.7 250.7 250.7 250.7 250.7 250.7 250.7 250.7 250.7 250.7 250.7 250.7 250.7 250.7 250.7 250.7 250.7 250.7 250.7 250.7 250.7 260.4 262.8 261.3 258.3 250.7 250.7 258.7 260 258.6 250.7
369.3 363.8 358.1 354.1 350.1 347.2 347.4 340.6 336.9 335.3 334.4 333.9 334.5 329.4 324.1 322.9 318.3 315 310 306 303.2 303.1 298.7 297.2 297.5 303.7 307.8 314.8 321.6 330.7 341.5 348.7 355.9 363.4 372.1 378.9 387.1 392.5 399.4 403.6 413.1 420.2 426 432.9 436.2 441.1 445.7 450 455.1 458.7 461.8 466.2 472.2 477.3 482.4 486.5 492.2 494.5 495.7 498 498.6 497.8 496.6 494.1 491.8 486.2 495.7 503.2 512.5 522.7 535.1 547.7 558.2 568.2 578 589.5 601 612.1 622.7 632.5 639.8 648.9 656.1 661.4 664.8 665.7 665.6 665.9 665.1 666.3 667.6 671.7 674 673.7 674.4 675.6 677.9 677.6 676 674.7 673 670.8 667.6 663.9 658.8 651.9 642.5 635.2 627.9 623.6 618.2 615.6 613.5 615.2 614.3 608.5 603.1 596.5 593.7 590.4 582.8 566.7 555.2 548.5 539.2 530.7 526.8 516.9 508.2 501.1 491.1 484.9 482.3 470.2 455.3 447.6 433.8 425.3 422.7 416.3 408.8 395.5 382.1 371 359.6 347.2 332.9 323.6 318.3 309.9 299.2 290.2 287.7 279 273.9 272 261.2 258.1 250.7 250.7 250.7 250.7 250.7 250.7 250.7 250.7 250.7 250.7 250.7 250.7 250.7 250.7 250.7 250.7 250.7 250.7 250.7 250.7 250.7 250.7 250.7 250.7 250.7 250.7 250.7 250.7 250.7 250.7 250.7 250.7 250.7 252 258 250.7 250.7 250.7 250.7 250.7 250.7 250.7
362.6 359.5 354.5 351.4 347.3 347.3 346.5 342.4 336.3 333.3 335.3 333.7 334.9 328.9 325 322.8 314.7 312 309.6 308.4 307.4 306 303 301 296.5 301.3 304.6 308 313.6 322.5 332.6 340.7 349.7 356.5 364.4 372.3 379.8 387.2 395.4 401.7 409.3 415.6 421.3 426.8 433.5 437.4 443 447.6 452.1 454.8 457 460.5 465.5 470.7 476.9 481.5 485.3 488.2 489.4 490.7 492.1 491.7 489.3 487.2 485.3 480.6 489.5 495.6 505 513.8 526.5 536.8 546.1 554.6 563.7 574 584.3 594.9 604.8 613.7 619.9 625.9 632 637.5 640.6 642.9 642.5 642.5 642.9 646.1 648.1 653.1 659.4 659.5 658.6 660.1 661.5 663.8 663.8 662 658.4 651.5 646.1 641.4 637.4 632.1 624.5 615.4 606.1 602.6 599 596.7 598.8 599.7 601.8 603.3 605.6 600.6 592 590.3 586.2 577 570.1 566.9 562.2 553.9 549 537.9 526.4 520.6 512.2 507.2 497.7 487.3 472.2 465.8 450.4 445.5 440.9 432.7 418.9 406.1 390.9 383.9 375.3 363.7 345.4 335.5 323.8 314.7 305.6 294.7 289.1 279.8 276.6 267.7 262.4 259.1 252.1 250.7 250.7 250.7 250.7 250.7 250.7 250.7 250.7 250.7 250.7 250.7 250.7 250.7 250.7 250.7 250.7 250.7 250.7 250.7 250.7 250.7 250.7 250.7 250.7 250.7 250.7 250.7 250.7 250.7 250.7 250.7 250.7 250.7 250.7 250.7 250.7 250.7 250.7 250.7 250.7 250.7
360.4 356.3 352 349.3 346.5 344.4 344.9 340.6 335.3 333.2 330.5 329.6 327 323 321.3 320.7 320.3 315.4 310.3 308.5 307.8 307.6 302.2 301 294 300.1 302 304.8 311.8 319.1 327.3 332.6 342.4 353.7 363.7 370.4 376.7 383.7 392 397.5 404 410.8 416.3 423.7 427.9 433.7 438.2 444.1 446.9 450.1 452.8 456.5 460.9 464.8 470.4 476.2 478.7 481.6 482.9 485 486 486.5 484.8 481.3 477.4 471.9 482.4 489.9 495.2 506.1 515.8 525 532.7 541.1 549.1 557 565.4 575.8 585 593.6 600.3 604.6 608 611.3 610.9 615.5 616.5 617.1 618.1 619.6 624.5 627.4 634.9 633.3 629.1 628.5 628.6 630.1 635.9 632.7 629.1 624.4 620.6 615.7 612.6 608 600.2 595.5 585.8 580.1 578.9 573.2 577.7 578 577.9 580.5 582.5 586 584 580.2 576.6 576.3 575.1 576.4 572.9 567.7 563.3 551.5 544.2 538.5 534.1 528.9 516.9 507 489.4 474.9 462.8 456 449.9 437.6 426.7 410.5 399.8 393.7 386.3 375.4 356.3 343.7 337.8 325.6 312.4 300.4 292.4 284.4 277.7 270.8 264.7 259.7 255.6 250.7 250.7 250.7 250.7 250.7 250.7 250.7 250.7 250.7 250.7 250.7 250.7 250.7 250.7 250.7 250.7 250.7 250.7 250.7 250.7 250.7 250.7 250.7 250.7 250.7 250.7 250.7 250.7 250.7 250.7 250.7 250.7 250.7 250.7 250.7 250.7 250.7 250.7 250.7 250.7 250.7
358.7 355.6 350.6 344.4 343.6 340.4 340.6 338.4 335.9 336.4 334.2 328.3 327.3 327.1 323.7 321.8 319.4 315.8 310.3 307.7 306.3 304.7 302 296 293.2 301.6 302.8 305.6 309.1 317.4 321.8 331.4 344.4 352.2 359.6 365.2 372.8 380.2 387 391.8 398.4 404 411.7 417.3 424 429.1 433.1 436.2 442.1 445.6 447.6 450.9 455.2 459.7 465.2 469.4 473.3 476.1 478.3 479.4 481.5 481.4 479.2 477 469.5 468.5 477 481.7 486.6 494.1 504.5 513.1 521.1 527.7 534.7 541.1 548.8 556.5 565 573.2 580.3 584.3 586.6 588.1 589.1 591.7 592.8 593.4 592.5 594.5 597.6 600.1 603.4 602.1 598.8 594.2 592.3 591.1 592.7 598.7 599 596.9 595.6 592.3 588.1 585.2 578.3 572.2 567.5 564.6 558.5 556.1 553.2 554.4 554.5 559.2 558.7 561.6 561.9 560.5 560.5 561.7 564.2 566.3 568.3 571.7 567.2 562.9 560.2 554.5 547.1 540.2 530.9 518.8 502.2 488.9 474.6 463.3 442.6 432.4 417 411.3 401.9 393.1 391.3 373.6 358.3 348.6 341.2 331.8 319.5 307.8 294.7 285.8 279.6 273.6 271 261.1 256.7 250.7 250.7 250.7 250.7 250.7 250.7 250.7 250.7 250.7 250.7 250.7 250.7 250.7 250.7 250.7 250.7 250.7 250.7 250.7 250.7 250.7 250.7 250.7 250.7 250.7 250.7 250.7 250.7 250.7 250.7 250.7 250.7 250.7 250.7 250.7 250.7 250.7 250.7 250.7 250.7 250.7
357.5 354.2 351.5 345.7 340.4 339.6 340.8 343.9 336.4 335.3 338 329.7 327.5 326.5 323.1 320.5 318.1 316.2 309.3 307.2 303.6 303.4 303.3 297.2 291.8 299.4 302.5 303.9 306.2 313.2 318.6 328.2 335.4 343.2 350.5 359.7 367.1 373 379.3 384.1 390.7 397.8 405.4 409.4 415.8 423.1 427.5 432 436.6 440.2 445.4 445.4 449 454 458.2 462.1 466.5 469.5 471.3 472.4 474.7 474 473.1 469.6 463.3 463.4 469.3 471.2 477.6 485 493.3 501.5 508.6 516.5 522.2 527.9 533.9 539.9 545.2 553.1 560 563.6 565.3 567.3 568.7 569.9 571 569.5 568.9 569.4 568.6 567.9 569.3 571.1 567.6 563 558.3 555 551.3 556.5 562.7 565.7 567.8 567.3 561.9 559.4 554.5 548.4 542.2 538.1 539.6 535.4 532.9 532.9 532.2 534.6 536.3 534.6 537.4 540.2 541.9 542.1 542.5 547.1 552.8 565.5 566.6 565.2 563.3 562 558.5 554.5 544 532.5 517.6 498.3 474.9 455.2 440.4 422 405.6 403.6 385.9 372.2 363.5 359.9 351.4 340.2 334.1 326 318.9 308.9 301.3 291.8 280.4 273.2 268.8 262.1 259.3 250.7 250.7 250.7 250.7 250.7 250.7 250.7 250.7 250.7 250.7 250.7 250.7 250.7 250.7 250.7 250.7 250.7 250.7 250.7 250.7 250.7 250.7 250.7 250.7 250.7 250.7 250.7 250.7 250.7 250.7 250.7 250.7 250.7 250.7 250.7 250.7 250.7 250.7 250.7 250.7 250.7
355.9 352.9 348.4 348.5 340.6 339.1 338.9 339.4 334.3 330.9 330.6 332.9 330.1 326.4 323.8 321.7 318.1 314.1 308.8 308.2 306.5 302.5 301 295.6 289.3 290.3 296.2 303.1 304.8 306.3 311.2 319.7 329.4 337.4 344 352.6 358.2 363.6 369 376.6 384.3 389.6 398.7 404.4 409.1 416.1 421.6 426.6 431.6 435.3 438.3 440.4 442.3 445.4 450.5 454.4 458.8 464.5 465 466.1 466.9 467.1 466.2 463.2 458.1 455.8 459.5 462.3 467.7 473.9 481.5 489.2 495.8 503.3 508.5 513.8 519 524.6 528.9 534.5 540.9 545.2 548.2 550.2 548.8 549.9 550.5 547.9 544.9 542.7 541.1 539.4 535.5 536.3 535.9 532.2 525 515.8 513.4 514.7 520.7 526.3 530 534.1 532.1 523.8 522.2 520.4 511.1 510.2 511.1 512.2 509.4 505.8 502.8 510.6 514 513.3 514.9 519.2 518.2 518.8 518.9 522.4 529 541.2 549 550.5 555.4 560.7 565.6 563.4 554.2 542.8 524.2 499.5 472.2 453.1 430.2 405.2 385.4 377.2 368.3 354.1 347.4 343 337.8 329.2 319.4 315.9 311.8 304.8 295.5 288.6 279.2 271.6 266.6 261.9 257.4 250.7 250.7 250.7 250.7 250.7 250.7 250.7 250.7 250.7 250.7 250.7 250.7 250.7 250.7 250.7 250.7 250.7 250.7 250.7 250.7 250.7 250.7 250.7 250.7 250.7 250.7 250.7 250.7 250.7 250.7 250.7 250.7 250.7 250.7 250.7 250.7 250.7 250.7 250.7 250.7 250.7
