ncols 200
nrows 101
xllcorner 210000
yllcorner 552700
cellsize 50
11.4 13.8 17.2 20.7 21.2 18.6 19.1 22.5 21.1 21 21.5 20.2 20.6 20.7 20.1 19.5 19.4 19.8 20.6 20.7 20.8 20.6 14.8 15 18.3 18.7 16.4 16.9 17.4 19.6 19.9 19.2 18.9 18.8 18.7 17.6 17.8 19.5 19.6 19.5 19.5 19.9 20 19.8 19.4 18.3 12.5 9.5 10.7 16.8 16.8 16.3 15.7 15.5 12.3 9.1 8.2 10.3 14 15.2 15.5 15.4 15.3 15.2 15 14.9 14.7 14 14.6 14.6 14.1 13.6 14 13.9 14.2 14.5 15 10 13.5 7.6 8.5 10.3 10.4 13.7 20.3 19.8 22.2 19.2 19.4 20 21.9 22.6 23.8 27.2 30.2 31.3 33 34.9 37.9 38.4 38.5 38.6 41.8 50.7 60.2 56.8 41.8 29.8 31.8 38.7 45.3 51.2 54.3 52.9 63.8 67.7 70.1 75.6 78.9 85.3 94.7 101.8 105.8 108.4 110.3 111.6 111 115.5 116 112.9 111 109.8 108.9 108.6 107.7 104.1 97.7 93.2 92.5 88 82.6 80.2 81.3 76 67.9 61.9 55.8 52.6 47.4 42 41.9 47.9 44.1 46.2 51.4 53.8 49.5 40.1 28.6 27.1 25.9 22.2 21 21.3 21.6 20.6 12.6 11.4 12.6 11.7 10.9 10 9.7 9.7 14.9 24.8 31.5 32 29.9 36.2 38.7 42.7 47.6 50.8 48.9 45.3 41.5 43 44.2 42.5 46.2 44.8 41.3 41.6 39.2 40.7 45.8 46.5 45.4 47.4
11.7 11.9 13.6 16.6 17.5 17.3 17.4 21 22.3 22 21.6 21.3 21.1 21 20.6 20 20.1 20.5 20.7 20.6 20.6 20.4 19.4 16.2 12.7 14.1 16.1 18.8 19.7 20 20.2 20.3 20.1 19.8 19.6 19.1 17.9 15.6 16.1 18.4 18 19.7 19.4 19.1 18.8 18 16.5 10 9.7 16 16.5 16 15.3 14.7 12.7 9.5 7.5 11.1 13.7 14.7 14.8 14.8 14.8 14.7 14.4 14.2 14 12.6 13.5 13.7 13.4 12.6 12.8 12.9 13.3 13.7 13.5 11.3 6.1 6.7 9.1 14.2 15.5 13.5 12.3 14.5 23.2 21.6 19.6 21.7 22.3 21.3 21.5 21.3 25.7 26.9 28.8 30.5 30.6 33.5 33.2 33.8 40.3 45.7 54.1 58.8 40.5 28.2 29.2 34.8 43.4 51.4 54.9 54.2 52.3 54.5 57.4 64.6 71.9 77.6 82.1 89.1 96.4 99.3 101.4 103.1 107.8 110.4 108.1 106.7 104.5 104 105 105.6 104.5 100.4 95.7 94.7 92 86.6 82.3 81.1 82 76.3 68.3 59.8 53.2 49.6 46 40.3 41.9 45.3 42.5 47.4 52.5 53.7 47.3 36 26.8 25 23.6 20.7 22.7 25.4 23.1 21.5 20.1 12.7 12.5 12.7 12.9 12.6 11.3 11.1 9.9 21.9 28.7 27.2 28.3 34.9 35.4 38.4 43.8 45.1 43.2 39.9 40.2 39.3 39.4 45.5 45.8 43.8 38.8 39.1 37.8 39.6 42.1 42.2 41.4 37.4
11.7 11.9 11.8 11.7 13.7 13.6 12.3 16.2 20.9 21.5 21.4 21 19.4 20.6 20.5 20.9 20.8 20.9 20.5 19.4 19.6 20.1 19.5 17.9 16 11.9 16.6 19.1 19.9 20.1 20.2 20.2 20.2 20.3 20.3 20.4 20.2 19.4 17.7 13.9 15.8 18.9 18.9 18.6 18.2 17.3 16.4 11.1 9.3 10.4 16.2 15.3 13.5 13.4 10.7 8.6 7.8 10.4 13.4 14.2 14.2 14.3 14.3 14.2 13.9 13.7 13.3 12.5 11.7 12.5 12.3 11.7 10.5 11.8 12.5 12.8 11.8 11.3 5.7 6.9 9.1 11.8 14.7 16.2 17.5 16.6 15.9 17.3 24.6 19.9 19.6 19.2 22.8 22.7 23.1 24.1 23.8 24.4 24.7 27.8 27.4 28.2 36.3 40.4 49.6 50.1 37.7 26.3 25.6 31.7 36.9 44.2 49.9 52 51 53.1 51.9 55.7 65.1 72.9 76.7 79.9 83.3 89.4 90.2 96.4 101.1 101.8 99.7 98.3 97.7 98.4 99.3 102.5 101 96.4 94.4 93.9 88.5 83.6 80.9 82.6 83.7 76.7 70.8 62.5 55.1 47.1 42.3 38.8 40.6 41.8 41.3 46.3 51.6 51.2 47 34.8 27.6 24.8 20.7 20.7 20.7 21.8 23.6 23.5 22.6 14.9 12.6 12.7 12.6 11.9 12.1 11.4 10.7 11.1 23.1 19.8 25.9 30.1 31.5 34.8 40.6 40.8 37.8 34.7 39.5 37.1 39.2 41.4 41 40.7 38.2 34.7 36.1 38.1 38.8 37.7 37.4 39.1
11.2 11.4 11.2 11.1 12.9 11.7 11.5 14.8 18.7 20.9 20.7 19.7 17.4 19.9 20 20.3 20 20.7 20.5 19.6 19.9 20.2 20 20 19.4 12.8 16.5 19.2 19.9 20.2 20.2 20.2 20.3 20.4 20.6 20.8 20.6 20 19.3 17.3 12.8 17.9 18.5 18.3 17.6 16.5 14.7 11.5 7.9 9.8 14 14.3 12 12.9 9.3 7.1 7.6 9.9 13.1 13.7 13.7 13.7 13.7 13.1 12.3 10.3 8.4 7.4 7.3 7.5 10.8 11.2 9.7 10.3 10.6 10.7 9.3 6.5 5.3 8.2 10.1 9.9 11.7 13.3 14.1 14.4 15.3 16.7 17.3 25.7 19.1 19.1 18.8 18.3 18.3 21.9 21.6 22.4 22.4 23.1 23.1 23.9 29.6 35.2 44.4 44.4 34.7 24.4 23.6 27.2 32 37.5 45 54.1 50.8 48.1 46.5 47.1 57.1 67 67.3 69.3 73.1 77.8 82.7 86.2 90.2 91.1 90.4 90.4 90.9 91.7 93.8 95.5 94.9 91.9 91.7 87.8 85.1 80.2 79.1 81.7 83.1 75.4 73.2 64.2 55.7 48.8 38 37.1 38.9 39.9 40.2 42.1 48 47.1 43.7 32.7 30.7 24.1 20.7 20.7 22.2 22.8 25.8 30.4 27.2 17.8 12.2 12.5 12.2 11.5 11.6 11.6 10.7 8.9 17.3 23.7 23.2 25.8 29.4 33.5 36.8 34.8 32.9 33.4 35.8 36.5 37.7 36.9 39.9 38 37.1 35.7 34.5 35.9 36.5 33.9 32.8 33.3
11.1 10.9 10.7 10.6 13.8 15.1 11.5 13.1 16.7 20.9 19.8 18.2 16.7 19 20.8 20.1 19.6 20.4 20.4 19.9 20.3 20.1 19.9 19.9 19.6 12.5 18.3 19.5 19.8 20.2 20.6 20.5 20.6 20.8 20.9 20.3 19.6 19 18.6 17.7 13.3 13.9 16.4 17.7 16.3 14.7 15.2 14.7 11.5 9 10.2 10.2 13.4 13.1 8.4 7.3 6.8 8.3 12.1 13 12.8 11.5 8.6 7.5 7.2 6.9 6.6 6.2 6.4 6.5 6.7 6.8 6.7 7.2 7.1 7 6.5 6.3 5.6 6.4 8.4 9.4 9.6 12.3 13.1 13.6 14.6 15.6 16.6 19 25.2 17.3 18.6 18.2 18.5 17.5 18.3 20.6 21.9 22.1 21.8 21.7 23.7 29.5 38.2 40.6 32.8 24.1 22.4 24.5 29.7 33.8 37.6 47.9 47.2 43.2 44.5 39.9 47.9 56.6 60 62.4 59.2 69.4 75.2 76.3 79.2 81.8 82 82.8 83.1 84.3 86.2 89 89.2 86.3 87.3 82.5 79.6 76.4 76.6 78.7 78.8 71.2 64.4 60.1 55 45.6 35.9 36.4 39.6 39.1 40.5 41.7 40 40.5 38.4 32 31.1 26.2 27 25.1 26.3 24.1 25.6 32.5 33.7 22.7 24.9 11.6 11.9 11.2 11.2 11.4 11.3 10.9 10 16.6 21.4 22.7 25.1 30.3 33.2 31.8 28.6 34.6 33.9 34.7 34.4 36.9 41.5 36.8 34.7 32.3 31.3 34.1 31.2 29.7 30.4 30.4
10.3 10.3 10.4 10.2 14.7 14.6 11.7 12.6 16.5 20.6 17.8 16.4 15.9 17.6 18.4 18.7 18.5 19.9 20 20.2 20.2 20 19.3 19.5 17.3 11.2 15.3 18.4 19.6 20 20.4 20.8 20.7 20.3 20 19.2 18.6 18.2 18.6 18.9 17.3 12.7 12.1 11.8 14.8 15.1 11.7 11.7 11.7 7.8 9.2 9.3 10.3 9.6 6.8 8.3 7.5 7.2 8.8 8.1 8.1 7.3 7.3 6.7 6.5 6.4 7.1 7.2 5 5.8 6.1 6.6 6.3 7 6.8 6.8 6.9 6.7 6.5 6.1 5.9 7.2 8.1 9.9 11.3 12.5 13.5 14.4 15.6 18.1 19.5 23.1 19.5 17.2 17.2 17.3 17.5 19.7 20.8 21.5 21.1 20.4 21.4 21.5 28.7 33.5 29.3 26 25.1 25.4 27.1 31.4 34.4 40.3 43.7 39 35.9 33.8 43.3 51.8 59.6 60.8 55.1 59.3 64.9 67.1 71.3 73.1 72.8 72.2 71.6 75.5 75.2 81.2 79.5 78.6 80.4 76.7 73.9 71 72.7 75.4 71.9 65.7 59.8 54.8 49.4 39.8 34 36 41.1 39.6 40.7 42.5 41.8 40.5 36.2 31.9 31 29.4 27.4 29.4 27.9 25.1 26.2 31.1 31.5 26.4 25.2 23.1 15.2 10 10.9 11.2 11.3 11 7.9 11 18.5 21.1 22.4 26.9 31.9 28.5 22 32.2 31 32.6 30.1 38.9 36.4 35.3 31.6 28.5 25.4 27.3 25.1 26.1 26.4 26.3
9.9 9.8 9.7 11.6 14.3 14.8 13.4 13.1 17.1 19.6 19.9 16.4 15.9 15.6 15.6 15.4 16.6 19.3 20 20.2 20.1 20 18.3 15.8 11.4 13.2 19.2 19.6 20.1 20.4 20.4 20.3 20.1 19.7 18.9 18.1 18.1 18.2 18.4 18.6 18.3 16.5 12 11.5 11.6 10.9 11 10.1 9.1 8.9 8 8 8 7.7 8.2 8.6 7.2 6.7 6.7 6.4 6.7 6.8 7.1 6.9 6.3 6.8 6.5 6.3 6.2 6.8 6.1 6.2 6.6 5.8 7.1 7.1 6.5 6.6 6.4 6.1 6.2 6.3 6.1 5.9 6.9 9.7 11.9 13.4 15 16.6 17 19 19.2 17.5 16.6 17.3 18.9 20.4 16.6 21.2 20.4 19.5 19.7 20.2 21.5 23.8 25.2 25.1 23.9 26.5 26.4 28.2 32 34.3 33.2 31.6 29.3 30.5 37.4 49.2 54.2 55 50.3 48.6 53.4 57.4 62.9 63.5 63.4 63.5 65.2 68.9 69.5 67.1 68.1 68.9 70 68.4 66.6 64.9 66.9 69.7 65.8 59.8 54.9 50.2 45.1 37.2 35.6 33.4 40.7 38.2 41 40.1 41.2 40.7 32.2 34.1 33.1 29.4 29.8 30.2 28.6 27.3 27.2 30.8 29.3 24.9 24.5 14.5 18 17.6 10.4 10.8 11.4 11.1 10.6 8 12.5 18.6 19.4 22.2 24.9 21.4 26 28.1 28.5 27.5 29.9 41.1 36.6 32.6 27.3 27.7 27.1 19 20 22.5 20.5 20.6
8.7 8.7 9.5 13 15.1 15.1 15.2 15.4 18.1 19.8 20.2 17.9 18 15.4 14.5 14.6 16.2 18.3 19.5 19.4 19.9 20 19.6 18.4 9.8 18.6 19.5 20 19.9 19.8 19.7 19.6 19.4 18.5 17.8 17.5 17.4 17.9 18.3 18.4 18 17.3 16.4 13.5 11.8 11.1 10.5 9.9 9.4 9.2 7.8 8.1 9.1 9.3 9.6 8.4 7 7.1 7.2 6.8 6.9 6.7 6.8 4.6 6 6.1 6.5 6.3 6.1 6 6.1 6.1 6.2 6.2 6.4 6.2 6.4 6.3 5.7 5 6.5 6.3 6.1 5.7 5.8 6.2 7 11.6 13.3 14.9 14.9 16 18.5 16.5 16.4 17 18.8 18.8 19.1 18.2 17.7 17.2 18.4 18.1 18.2 21.2 22.2 16.3 19.9 22.9 24.7 26.5 28.3 35.6 31.7 28.7 25.5 26 32.4 42.8 47.5 47.5 45.9 41.9 44.6 49.3 53 54.2 53.9 53.9 56.6 59.5 64.8 67.4 66.9 64.3 61.2 59.2 55.5 55.3 58.3 59.5 57.2 51.6 47.1 43.4 42.1 36.2 32.4 29.8 40.3 36.9 38.4 40.1 40.1 31.2 40.1 39.3 39.3 33.6 30.7 28.7 28.7 27.6 28.4 31.9 31.5 28.9 31 33.5 24.3 17.5 11.5 10.1 10.9 10.8 10.6 10.3 8.2 9.6 15.7 15.2 15.1 14.6 23.6 22.7 28 29.5 29.6 36.4 31.5 26.4 23.8 24.6 19.1 16.3 17.5 18.7 18.1 16.5
8.9 8.7 9.5 12.7 15.5 15.8 16.7 18.2 17.7 17.8 18.9 20.3 19.2 14.7 13.6 14.3 15.1 16.6 18 17.9 19.2 19.7 19.4 18 9.8 16.5 17.3 18.2 19.1 19.3 19.2 19.2 17.9 17.7 17.5 17 16.7 17.1 17.6 17.4 16.8 16.9 16.3 15.2 13.9 12.5 12.4 12.3 11.5 10.2 8.8 8.4 8.8 9.5 9.2 8.2 7.3 7.3 7.6 6.5 6.2 5.6 6.4 6.3 6 5.9 6.6 6.4 6.3 6.2 6.2 6.2 6.2 6.1 6.2 6 6.8 4.1 7 7 6.6 6.4 6 5.7 5.8 6 6 6.2 10.5 13.1 14.2 15 16 21 15.9 16.5 17.6 17.7 17.3 16.7 16.3 16.6 17.4 16.7 17.4 17.9 18.5 16.4 16.5 22.1 22 22.2 25.2 28.8 30.1 26.4 24.7 23.6 29.8 35.3 38.9 39.1 38.1 37.7 36.9 39.5 45 45.4 45.6 47 48.8 52.7 56.5 59.7 58.9 58 56.5 54.8 52.7 49.3 54 54.2 48.9 46.1 42.3 38.9 36.4 32.4 28.5 32.1 35.9 35.7 36.7 36.4 34.6 42.6 41.2 42.1 40.9 38.8 37.4 35.7 31 29 32 37.1 40.7 40.3 40.7 41.3 34.9 26.2 19.1 10.2 10.5 10.5 10.4 10.3 10 9 7.5 14 13.1 6.6 14.9 15.8 30.3 29.7 32.1 28.8 24.7 24.6 23.1 16 14.6 13.9 12.8 12.4 13.1 12.2
9.4 8.7 9.4 12 15.8 16.7 18.6 20.6 18.2 17.4 18 20.2 18.2 13.9 13.6 14.3 15.7 16.6 16.9 18.3 19.2 19.3 19.1 18.2 10.7 11.7 14.2 16.8 19 19.7 19.1 18.2 17.6 17.4 17.1 16.4 15.9 16 15.6 16 16.1 16.2 15.9 15.3 14.8 14.2 13.5 12.6 12.3 11.5 8.4 7.3 6.6 6.7 8 7.3 6 6.1 6.7 6.8 6.8 6.6 6.5 6.4 6.1 5.7 6.6 6.6 6.5 6.4 6.4 6.3 6.2 5.9 6.2 6.1 6 5.9 5.7 5.9 6.6 6 5.7 5.8 5.9 5.6 5.7 5.9 6.5 11.2 13.6 15 15.9 16.5 19.8 17.5 16.1 16.2 15.8 15.3 14.9 15.5 15.4 14.8 14.7 15.3 17.6 14.2 17.2 18.8 18.8 18.6 20.2 22.6 25.6 24.8 24.8 24 24.9 31.8 32.3 30.7 30.6 31.1 31.8 32.4 35.7 38.5 37.7 39.5 41.6 44 46.3 49.5 50.9 50.2 50.2 47.7 43.4 43.5 46 47.2 43.5 40.7 37 36.5 34.9 33.4 27.6 28.5 29.4 28.4 30.1 36.4 35.4 33.8 29.4 33 36.8 36.7 35.4 37.3 38.7 36.4 35.6 41.4 41.4 41.1 41.3 41 39.4 36.9 27.6 10.2 10.5 10.4 10.3 9.9 10.4 17.2 23.1 26.8 19.6 7.6 9.2 10.7 12.9 15.5 15.2 15.2 15.7 16 12.4 11.4 11.6 12.6 11.2 11.8 12.1 12.9
11.7 9 9.3 13.7 16.3 17.7 20.1 20.2 18.4 18.3 19.1 19 16.1 13.5 15.4 15.9 17.7 18.6 17.6 17.9 18.3 18 17.7 16.6 10.6 10.4 15.2 17.3 18.5 18.6 18.2 17.3 17.4 17.2 17 16.8 15.8 14.1 13.8 15.8 15.7 15.7 15.3 14.6 14.6 13.5 12.8 12.5 11.1 9.9 8.5 7.4 6.7 6.4 6.4 7.2 7.8 6.3 6.4 6.2 6.2 6.2 6.1 6.1 6.1 5.9 6.7 6.8 6.7 6.6 6.6 6.5 6.5 6.7 6.2 6.2 6.1 6.2 5.7 5.5 6.2 6.7 5.2 6.4 5.7 5.5 5.6 5.9 6.6 8.3 12.4 14.9 16.2 18.6 16.2 17.6 14.7 15.4 14.9 14.5 14 13.8 13.4 12.8 12.9 13 13.6 11.8 13 14.2 14.8 17.3 16.2 18.8 20.8 21.6 22.9 21.6 23.4 24.4 25.9 24.7 24.6 26 27.8 28.4 29.4 32.1 31.8 32.7 34.3 38.3 41.7 42.5 42.3 42.2 40.7 39.7 39.1 41.3 42 40 35.1 34.4 33.9 38.2 30.1 32.9 26.3 24.9 27.2 25.9 27.6 28.6 32.3 32.9 33 31.2 28.6 32.4 35 35 34.8 36.1 34.8 40.2 40.6 40.1 40 40.8 40.2 38.8 32 23.2 17.7 10.2 10.6 13 25.5 30.7 32.8 32 25.7 9 7.8 9.6 9.5 9.7 9 8.4 11.9 10.1 8.8 10.4 14.3 23.9 19.9 17 14.4 16.4
14.8 11.3 8.7 14.6 16.5 19.2 20.6 20.5 19.5 18.6 16.4 17.3 14.8 13.5 15.4 16.5 17.5 18 18 16.9 16.2 15.8 16 15.5 9.8 12.3 15.6 16.9 17.6 17.9 17.2 16.9 17 17 16.8 16.8 16.1 15.4 13 14.9 15.1 15.4 14.6 13.8 13 12.1 11.3 10.7 10.2 10.2 8.1 6.8 6.9 6.9 7.1 7.2 6.5 6.9 6.3 6.2 6.3 6.3 6.4 6.3 6.3 6.6 6.8 6.9 6.9 6.8 6.7 6.6 6.8 6.4 6.5 6.4 6.3 6.5 6.3 5.9 6.8 5.4 6.2 6.7 4.9 6.7 5.9 5.7 6 6.3 10.6 14.1 16.9 17.1 16.3 15.8 14.9 13.8 13.1 12.3 11.4 11.5 11.2 10.6 10.6 10.9 11.7 10.1 9.5 10.2 10.2 11.3 12.4 13.4 16.5 17.3 18 17.7 18 19.3 20 19.1 19.6 20.9 24 25.2 26.2 26.3 27.2 27.1 29.9 30.6 33.8 35.2 34.8 35.1 35.2 34.5 35.1 35.7 36.7 35.4 32.7 31.4 31.8 30 22.4 26 22.3 21.2 22.5 21.8 24.3 23.9 22.7 22.1 26.1 26.9 28.3 32 33.1 30.3 30.4 34.7 34.6 36.3 36.4 38.1 39.2 39.6 39.2 38.9 33.6 23.1 15.7 31.2 25.8 34.9 35.8 34.7 34.8 34.3 25.3 9.3 5.7 9 9.4 9.4 8.8 8.6 9.2 9.4 17.2 20.7 24.1 26.4 26.2 23.8 18.5 21.9
16.9 15.6 10.9 10.9 11.4 19.5 20 20.1 20 18.9 16.6 17.2 15.8 14.4 13.7 15.3 17.3 17.3 17.4 17.1 15.8 15.1 16.1 15.3 9 13.4 15.6 16.6 17.1 17.3 16.6 16.4 16.5 16.7 16.4 16.1 15.4 14.7 12.3 13.2 14.9 15.2 15.4 15 14.2 13.6 12.9 12.9 10.7 8.1 7.2 6.9 6.6 5 6.9 6.8 6.8 6.5 6.2 6.7 6.8 6.8 6.8 6.8 6.8 6.8 6.2 6.4 6.8 6.8 6.8 6.8 7.1 6.5 6.8 6.7 6.6 6.7 6.9 6.8 8.5 9.1 8.3 8.1 7.4 7.2 6.3 5.7 5.9 6.2 8.6 12.2 16.6 16.7 15.7 14.6 14.2 12.3 11.4 10.3 9.1 8.7 8.4 8.5 8.8 11 15.4 7.8 8.2 8 8.4 8.8 9.6 9.7 10.4 12 12.3 12.4 16.4 16.5 15.5 16.1 15.4 14.8 17.3 17.7 19.7 23 26.3 25.5 26 26.4 26.8 26.1 26.2 28.6 29.4 29.5 30 30.2 30.9 30.2 29.9 30.2 27.8 21.8 19.6 20.1 19.2 19 19.8 19.1 20.4 19.7 17.2 15.8 15 14.8 19.7 25.9 29.2 31.6 32.7 30.4 35 35.2 33.8 33.1 36.4 37.7 38.5 37.6 27.5 24.1 22.2 31.2 35.4 35.7 35.2 34.9 35.2 34.7 26.8 9.2 5.6 8.7 9.3 9.3 9 8.7 9.9 16.1 26.2 25.5 28 28 27.7 26.1 24.7 30.3
18.6 17.8 19.1 13.2 8.4 11.4 13.6 18.2 19 18.9 17.7 17.7 17.2 16.3 16.3 13.4 11.8 13.1 12.1 12.7 13.1 11.9 14.2 12.3 9.6 12.4 14.4 15.5 15.8 16 15.4 15.2 14.9 15.1 15 14.9 14.7 13.9 11 13.2 14.8 15 15.2 15.2 15 14.3 13.1 9.9 7.5 7.3 6.8 5.8 7.8 6.7 6.7 6.8 6.8 6.7 6.3 6.4 7 7.2 7.2 7.2 7 6.6 6.3 6.7 6.6 6.7 6.7 6.8 5.8 6.9 7.1 7 6.8 6.9 7.4 8.6 10.7 10.8 10.8 10.2 9.3 7.9 3.6 6.1 5.6 5.6 7.5 11 14.2 15.1 14.1 13.6 12.9 11.5 10.2 9.1 8.2 9.8 9.8 9.2 9.3 10.3 18.6 8.9 8.2 7.9 8.3 8.5 8.6 9.1 9.3 9.5 9.5 10.2 10.2 10.5 10.3 10.6 11.3 11.2 11.8 16.7 17.5 16.7 19.3 19.6 18 17.9 18.7 19.3 21.1 21.3 21.2 22.2 23.7 26.5 27.3 26.7 21.7 21.3 20.2 19.3 18.2 18.5 17.5 18.5 18.9 19.9 19.8 19.8 19.9 18.5 17.8 18.6 16 18.2 24.9 28.5 28.6 30.6 34.5 33.1 31.3 31.2 32 30.7 32.6 24.4 20.4 25.5 30.8 36.6 35.7 35.5 35.2 34.8 34.3 30.1 21.6 8.5 7.1 8.1 8.2 8.8 8.5 8.1 8.4 8.3 20.9 29.1 30.1 29.9 29.8 28.3 32 38.6
19.7 20.7 21.2 20.9 11.5 8.4 8.2 14.5 17.4 18.4 18.3 17.7 17.3 17.5 17.2 16.8 16 15.4 15 14.3 15.1 13.3 12.1 10.2 8.7 11.1 12.4 13.3 13 13.1 13.1 13 13 13 13.1 13.4 12.7 11.5 10.7 14.1 14.7 15 15.2 14.9 14.7 12.4 8.7 7.6 7.5 7.7 5.9 6.6 6.6 6.6 6.7 6.8 6.8 6.8 6.4 6.5 6.9 7.5 7.5 7.2 7 6.9 6.2 6.8 7.3 5 7.2 6.7 7 7.2 7.4 7.3 7.1 7 7.7 10.4 12.4 12.2 11.7 10.8 9.8 8 7.5 3.9 6 5.7 6.2 8.9 11.3 12.4 12.8 12.1 11 10.1 9.6 8.7 8.1 7.8 7.9 7.9 6.7 8.6 17.6 9.4 8.8 9 9.2 9.2 9.8 9.3 9.4 9.4 9.9 10.3 10.1 10.2 10.6 10.9 10.6 10.6 10.4 10.5 11.1 11.7 12.3 14 15 15.5 16.2 17.1 18.9 18.9 19.3 19.8 19.9 18.8 19.1 19.8 19 17.6 17.2 16.6 14.5 14.2 15.1 15.3 16 16.5 16.5 17.7 18.6 18.3 18.3 21 22.2 21 22.5 24.3 26.8 29.4 30.6 29.6 29.9 25 27.8 26.5 25.8 24.1 26.5 28.5 33.1 36.5 35.9 35.3 35 34.7 33.6 24 12.6 8.3 7.7 8.1 7.7 8.7 8.8 8.3 8.8 8 10.2 21.7 19.4 22.3 28.9 32.1 33.3 43.9
20.3 21.5 21.3 21.1 18.6 10.7 8.6 7.9 10.6 16.5 17.7 17 12.7 16.8 16.6 16.6 17 16.9 16.9 18.2 18 17 14.1 10.8 8.1 9.3 11.1 12.6 12.5 12.5 11.8 11.7 11.3 12.3 11.8 11.6 11.1 9.6 11.3 13.7 14.3 14.6 13.8 11.3 9.3 8.2 7.6 7.1 8 9.2 7 6.7 6.6 6.6 6.6 6.7 6.8 6.8 6.5 6.7 7.2 7.5 7.6 7 6.5 5.8 6.5 6.5 6.4 6.9 6.6 6.6 7 7.3 7.3 7.5 7.2 7.5 8.7 11.2 12.7 12.9 11.9 10.9 9.7 9.4 7.6 8 5.7 5.5 5.6 7.5 9.5 10.5 11.3 11.2 10.7 10.5 9.9 9.2 8.6 8.8 8.7 8.9 8 11.3 10.1 8.6 8.5 8.8 8 8.4 8.2 8.6 8.4 8.6 8.4 9.1 9.1 8.8 9.5 7.3 8.9 8.8 8.8 8.9 10 9.3 10.3 11.1 11.7 12.1 12.6 12.6 12.8 14.1 14.8 15.9 16.3 16.4 17.2 17.2 17.5 16.2 15.6 14.9 12.3 12.4 13.2 14.8 13.7 15.5 16.5 17.2 17.6 17.5 17.9 19.6 20.8 21 22 22.7 23.5 25.1 26.4 26 25.5 24.3 24.8 25.2 23.1 24.9 28.3 28.9 32.9 34.5 34.8 34.5 34.2 31.5 24.4 22 8.4 8 7.8 5.5 7.2 8.6 8.7 8 12.4 13.1 14 18.9 23.7 27 31.1 36.5 37.5 46.3
20.4 21.3 21.2 21 20.5 17.4 12.8 8.4 8.3 9.7 11.4 9.5 8.9 10.7 13.3 13.5 13.1 11.6 12 14 15.2 15.6 13.5 11.8 8.2 8.8 10.6 11.9 12.1 11.9 11.4 11.5 11 10.8 11.1 10.5 9.1 9.7 11.5 12.3 12.6 11.1 9.2 8 7.5 7.2 7.5 6.3 7.3 7 7 6.8 6.7 6.5 6.6 6.8 6.8 6.7 6.6 7 7.4 7.7 7.3 7.5 7.2 6.6 6.7 6.7 6.6 6.5 6.4 6.5 6.8 7 7.1 7.6 7.2 8.3 10 11.8 12.5 12.3 11.7 10.4 9.6 9.4 8 7.8 3.7 5.5 5.5 6.3 8.3 9.5 10.5 11 11.2 10.9 10.7 10.3 10.3 10.3 9.8 9.9 10.3 7.6 8.5 8.1 8.3 9 8.5 7.8 7.9 8.2 8.5 8.6 8.4 8.2 8.6 9.1 9.6 8.5 8.4 8.4 8.6 8.6 8.7 8.6 9.5 10.2 10.5 11.4 11.5 9.3 9.2 12.1 11.5 12.7 12.5 12.6 12.3 12.7 13.7 13.2 12.4 12.5 12.2 12.4 12.3 12.4 11.8 11.9 11.6 14.8 16.7 16.7 16.6 17.9 18.9 20.4 21 22.6 23.1 23.6 24.1 23.7 21.9 15.9 20.7 22.7 21.4 22.7 25.6 30.4 32.4 34.3 36.4 32.4 25.3 23 21.1 11.4 7.7 7.6 7.4 5.2 7 9.3 12.1 12.3 7 10 13.9 19.1 24 28.1 35 39.2 46.6 47.4
20.1 20.9 21 20.9 20.1 18.9 17.6 13.6 9.1 8.6 9 8.5 8.6 8 8.4 8.6 8.5 8.5 8.5 8.9 10.2 11.5 11.8 10.6 9.1 8.6 10.2 11.3 11.3 11.6 11.7 11.7 11.5 10.8 10.1 9 8.7 10.2 11.2 11.6 9.9 7.8 7.6 7.3 6.9 7.1 9.6 7.1 6.8 7.2 7 7.2 6.7 6.5 6.7 6.7 6.8 6.9 7 7.2 7.4 7.2 7.2 7.4 6.9 6.5 6.7 6.6 6.8 6.4 6.3 6.7 6.6 6.8 7 7 8.2 9.4 10.7 11.4 12.4 10.8 11.6 10.9 10.3 9.4 7.6 6.5 4.4 5.4 5.6 6.1 7.2 8.6 10.1 10.3 19 10.2 10.3 10.3 10.3 10.1 10.2 9.7 10.2 9.3 9.3 9 9.2 9.6 9.3 8.8 9.3 7.9 8.5 8.6 8.4 8.7 8.7 8.9 8.7 8.4 8.4 8.3 8.4 9 10.2 11.1 11.6 10.4 10.7 11.6 12.3 12.7 13.6 13.6 13.8 14.3 13.6 13.3 12.3 12.1 12.3 12 12.2 12.4 12.6 12.4 12.4 12.5 12.5 12.2 12 11.3 13.2 15.3 15.8 17.7 18.9 20.6 21.7 22.6 22.7 24.3 22.9 18.6 18.5 11.8 18.1 19.9 21.5 22.6 21.6 24.7 25.5 26.6 22.7 23.2 22.1 20.3 14.5 7.8 7.8 7.9 7.4 6.1 6.4 7.8 7.4 10 8.2 10 14 19.5 25 29.2 35.2 42.1 47.9 46.9
20.2 19.9 20.2 20.1 19.7 19.3 19 17.2 11.8 10.2 13.9 14.3 13 11.1 9.7 8.9 8.2 7.4 7.9 8.5 8.7 9.7 9.7 9.2 8.3 8.7 9.6 10.1 10.3 11.3 11.6 11.6 11.3 11.1 10.9 9.9 8.2 8.6 10.5 9.5 7.7 7.4 6.8 6.9 5.2 6.9 7.4 6.1 7.3 7.2 7.1 7.1 7 6.9 6.9 7 7.1 7.2 7.3 7.3 7.5 7.4 7.6 7.6 7.6 6.1 6.9 6.5 6.9 7.3 7.3 7.9 8.1 8.1 7.5 7.4 8.8 8.6 11.1 11.3 11.9 10.9 11.3 11.3 10.5 9.7 7.4 6.9 4.4 5.8 5.8 6 6.5 8.3 9.9 9.8 9.7 9.2 9.7 9.8 9.7 10 10.2 9.7 9.3 9.1 9.4 9.8 9.6 9.2 9 9.5 9.4 8.4 9.2 8.8 8.2 8.2 8.2 8.4 8.9 10 9.3 9.7 10.1 10.7 10.9 11.2 10.9 9.2 9.2 9.3 10.1 12.3 13.2 13 13.7 13.4 12.8 12 11.5 11.6 11.8 11.7 11.7 11.7 11.5 11.4 12 12 12.1 12.2 12.2 12.7 13.3 13.4 13.8 16.2 18.5 20.3 21.7 22.2 22.8 21.3 17.3 18.2 11.9 14.6 12.5 18.8 20.7 22.1 22.3 22.7 22.5 22.3 23.5 21.5 16.4 10.8 6.7 7.8 10.8 8.1 7.9 7.6 5.4 7.5 7.5 6.5 8.2 9.9 16.2 26.8 28.9 30.9 37.4 44.3 47.3 47.6
20.3 20.1 19.6 19.6 19.5 19.4 18.4 18 17.7 17.6 17.2 15.2 12.7 13.4 16.5 14.9 16.1 15.8 10 7.8 7.8 8.8 8.9 8.9 8.5 8.4 8.4 9 8.9 9.8 10.7 10.7 10.9 10.8 9.2 8.6 7.4 7.9 8.3 7.4 7.6 7.8 6.3 7.6 7.5 7.1 6.9 7 7.2 7.1 7.2 7.2 7.2 7.1 7.1 7.2 7.3 7.4 7.5 7.3 7.5 7.6 7.6 7.7 7.7 6.8 6.8 6.8 7.2 7.8 8 8.3 8.3 8.2 8 8.4 9.9 9.4 12.2 11.6 11.2 10.9 11.2 11.2 10.8 9.6 7.8 7.6 5.7 5.1 5.8 6 6.7 8.3 9.5 9.5 9.1 8.4 9 9.6 9.5 9.8 10.4 10.1 9 7.7 6.7 6.3 5.7 5.7 6.2 6.3 6.3 5.9 8.4 9.8 10.5 10.3 9.8 9.2 9.3 9.2 9.6 9.8 10 9.9 9.7 9.7 10.1 9.4 9 8.8 8.7 10.9 12 12.1 12.1 12.3 11.2 11.9 11.7 11.5 11.4 12.1 11.4 11.2 11.2 11.1 11.2 11.1 11.2 11.1 11.3 11.2 11.4 12.8 15.6 18.1 18.5 17.3 15.4 14.2 13.7 13.6 12.7 10.2 7.2 6.9 9.9 11 8.2 16.1 20.3 18.3 18.6 9.2 7.6 7.8 8.4 9.4 7.5 7.2 7.2 7.3 7.5 7.6 5.1 6.3 6.8 7.1 11.4 20.4 27.6 28.3 28.6 31.8 38 48.1 45.6 47.8
19.8 20.3 20 19.7 19.7 19.6 19.2 18.6 18.6 18.4 17.9 15.3 13.2 13.3 14.7 16.7 17.2 17 15.3 8.8 7.9 7.6 8.5 7 8.3 8.3 8.3 8.2 8.2 8.1 8.7 8.7 8.1 7.7 7.9 7.8 7.2 7.4 7.4 8.2 7.8 7.3 7.1 7.5 7.3 7.2 7.1 7 7.1 7.1 7.2 7.3 7.4 7.3 7.3 7.3 7.4 7.5 7.4 7.3 7.5 7.6 7.8 7.4 7.3 7.4 7.5 7.5 7.6 7.8 7.8 7.9 7.9 7.8 7.7 7.8 8.6 11.9 13 14.3 10.9 10.8 11 10.4 10.2 9.3 7.9 8.8 6.4 4 6.1 6 6.4 7.8 9.1 10.2 10.6 9.1 8.8 9.5 9.3 9.1 9.2 8.1 7.2 7.1 5.1 5.5 5.4 5.5 5.6 5.7 5.7 5.9 5.4 6 6.3 6.3 6.7 6.8 8.4 9.2 8.7 8.9 9 9 9.3 9.7 9.9 9 8.8 8.7 8.3 8.8 9.5 9.7 9.9 10.8 11.4 10 10.2 11.7 12.4 13.1 13.9 11.6 11.6 11.5 11.5 11.6 11.7 11.7 11.7 11.7 11.7 14.4 16.7 18.3 18.7 19.7 21.9 19.5 15.2 12.9 7.4 8.4 6.9 9.6 9.2 8.1 7.7 8.4 7.9 7.5 7.5 7.6 7.6 7.2 6.3 6.8 7 7.1 6.9 7.1 7.3 7.5 5.1 7.1 9.2 15.5 27 28.3 27.8 28.1 28.3 32.9 41.1 48.7 43.3 47.4
19.8 20.2 20.2 19.9 19.8 19.7 19.5 19.1 19.2 18.6 17.1 14.3 14.5 13.7 13.2 16.6 17.4 17.1 12 8.6 8.3 7.9 8 8.9 8.6 8.2 8.3 8.3 8.3 8.1 7.7 7.6 7.3 7 7.2 7.3 7.3 6 7.5 7.1 7.3 7.5 7.3 7.5 7.4 7.3 7.2 7.1 7.1 7.2 7.3 7.4 7.5 7.5 7.6 7.6 7.6 7.6 7.2 7.3 7.5 7.6 7.8 7.2 7.4 7.6 7.7 7.9 8.3 7.9 7.3 7.2 7.5 7.4 7.5 8.3 8.5 10.8 11.4 11.3 11.8 11.3 11.6 10.6 7.5 7.5 6.4 5.6 5.1 4.9 6 6.3 6.8 8.3 11.3 11.7 11.4 10.5 10.5 9.5 8.4 8 7.3 6.9 6.3 6 5.9 4.8 5 5.7 5.5 5.6 5.6 5.6 5.8 6 6.1 5.9 5.7 5.5 6.1 7.4 8.9 8.5 8.1 8.4 9.2 9.9 10 9.8 10.2 9.7 8.3 9.4 9.4 9.3 8.8 9.7 7.7 6.3 6.6 7.1 7.3 7.6 8.8 13.3 13.9 13 12.9 13 12 11.9 11.9 11.4 11.7 15.4 16.9 18.5 18.6 20.6 21.3 15.9 13.2 10.2 7.9 6.6 6 5.5 4.8 7.2 6.3 6.5 6.5 6.5 6.6 6.9 7.1 5.6 6.1 6.6 6.9 6.9 6.7 6.7 6.9 7.5 5.1 6.1 12.9 26.7 27 27.7 27.5 27.9 29.6 34.4 44.3 47.6 42.6 46.9
19.4 20.1 20.1 20.1 20 19.6 18.8 18.5 18 17.5 15.8 14.9 13.8 13.5 12.8 14.3 14.3 13.3 8 8.3 8.3 7.9 8.2 8.4 7.9 8.4 8.3 8.4 8.3 8.2 7.9 7.4 7.6 7.3 7.9 7.1 7.8 7.2 7.4 7.2 7.2 7.3 7.5 7.7 7.5 7.4 7.3 7.2 7.1 7.2 7.3 7.4 7.4 7.4 7.3 7.2 7.4 7.5 7.2 7.3 7.5 7.6 7.5 7.3 7.4 8 8.4 8.8 9.2 8.7 7.9 7.9 7.9 7.8 7.4 8.3 8.8 9.4 10 10.8 11.2 11.1 10.5 8 7.4 5.5 5.4 5 5.3 4.6 6.3 6.5 7.1 9.2 9.4 9.2 8.3 8.2 8.1 7.3 7.2 6.9 6.4 6.6 6.5 6.1 6.2 5.4 5.6 6 5.7 5.6 5.4 5.3 5.6 5.9 5.9 5.7 5.5 5.5 5.7 6 7.1 8.5 8.9 8.7 9.2 10.2 7.4 7.2 7.1 6.8 6.5 7.1 8.4 8.1 6.4 5 4.6 5.3 5.5 6 6.3 6.6 7.5 7.7 8.5 12.2 12.1 12 12.1 11.9 11.4 11.2 11.2 14.3 18.1 19.5 19.9 21.6 20.3 13.2 10.4 8.3 8.3 7.7 5.8 6.2 6 5.4 5.6 6 6.7 6.8 6 6.3 6.6 6.1 6.4 6.3 6.4 6.4 6.3 6.3 6.9 7.6 5.6 4.5 12.2 25.9 26.9 27.4 27.7 28.1 31.5 37.1 45.5 44.8 42.4 46.8
17.3 18.8 19.4 19.5 18.5 18.2 17.1 16.1 15.9 15.9 15.3 14.5 13.8 13.6 12.8 11.1 11.1 9.9 8.1 8.1 8.3 8.1 8.3 8.4 8.5 8.6 7.3 8.5 8.5 8 7.7 7.6 7.1 8.2 7.7 7.4 7.5 7.3 6.8 7.3 7.5 7.7 8.2 7.4 7.7 7.5 7.4 7.3 7.2 7.2 7.3 7.4 7.4 7.3 7.2 7.2 7.3 7.4 7.2 7.3 7.5 7.3 7.1 6.9 6.8 7.1 8.1 9.1 10 8.2 8 8.5 8.9 9.1 8.4 8.6 9.2 10.6 10.3 11.7 11.6 10.7 10.1 9.6 8.8 6.1 5.8 5.6 4.5 6.2 6.5 6.8 7.6 8 7.6 7.4 7.7 7.4 6.6 6.2 6.2 6.2 6.2 6 5.8 6.1 5.9 5.6 6 6.5 6.5 6.3 6.3 6 5.7 5.7 5.7 5.5 5.5 5.6 5.8 6.1 6.7 7.6 8.8 8.9 8.8 8.7 6.9 6.9 6.8 6.6 6.2 6.1 6.5 5.3 3.2 3.6 4.6 4.9 5 5.4 6.1 6.1 6.7 7.7 8.4 8.2 8.2 8.8 10.2 9.7 11.6 11.7 10.8 11.9 17.7 17.5 16.9 16.9 19.3 16.2 9.2 8.1 6.5 5.9 5.2 5.6 5.7 5.2 5.5 5.7 6.1 6.4 6.1 6.3 6.3 6.5 6.2 5.8 5.9 5.8 6 6 6.3 6.7 5.7 4.3 9.6 25.9 26.3 27.1 27.9 28.1 34.6 37.7 45.1 43.1 41.3 46.1
15 16.2 15.8 15.7 15.1 11.9 9.7 10.2 12.1 13.3 15 15.7 14.1 13.8 13 10.7 8.1 8 8.3 8.1 8.2 7.7 8.5 8.2 8.4 8.5 7.9 7.2 8.2 7.6 5.9 7.7 7.2 7.2 7.7 7.5 7.2 7.1 6.8 7.4 7.6 7.6 7.9 7.4 7.5 7.6 7.5 7.4 7.3 7.3 7.3 7.3 7.3 7.3 7.3 7.3 7.6 7.7 7.6 7.3 7.2 7.1 7.1 7.1 7 6.4 7 7.8 8.5 8.5 9.2 7.9 9.8 10.3 9.8 11.6 12 12.2 10.3 12 12.6 11.4 10.4 9.3 8.9 3.5 5.2 5 4.6 3.2 3.2 6.4 6.5 7 7.3 6.8 6.5 6.2 5.8 5.4 5.7 6.3 6.3 5.8 5.4 6 6.1 6.8 -2.6 6.7 6.7 6.6 6.6 5.9 5.4 5.6 5.5 5.5 5.5 5.6 6 6.5 7.1 7.9 7.9 7.9 8.7 7.9 6.8 6.5 6.5 6.2 4.9 -2.6 -2.6 -2.6 -2.6 -2.6 -2.6 5.6 5.6 5.6 6.1 6.5 6.5 6.7 6.7 6.7 6.7 6.7 6.6 6.5 7.2 8.9 9.3 10.7 10.7 11.9 12.3 12.6 12.4 11.2 8.2 7.2 6.8 6.5 5.5 5.4 5.2 5.1 5.3 5.6 5.8 6 6.1 6.3 6.6 6.8 6.2 5.6 5.5 5.7 5.9 5.8 5.9 5.7 5.6 3.8 7.6 17.8 25.7 26.6 27.1 29.1 34.3 38.4 43.7 40 40.6 44.5
13 12.7 11.1 9.7 8.8 9.5 9.4 9.2 8.8 9.4 13.7 16.1 15.4 13.7 12.7 11.2 9.1 8.2 8.1 8.2 8.2 7.4 8.7 8.2 8.3 8.4 9 7.3 8 7.8 7.5 7.4 7.1 7.1 7.5 7.5 7.1 7 7.1 7.6 7.5 7.5 7.1 7.1 7.3 7.4 7.6 7.5 7.4 7.4 7.4 7.6 7.9 7.8 7.3 7.5 7.6 7.9 8 7.3 7.3 7.2 7.2 7.2 7.1 6.9 7.4 8.5 8.7 8.8 9.3 7.1 9.3 10.7 12.3 12.7 12.5 12.7 11.2 11.7 13.4 11.1 10.3 5.4 4.7 5.2 5.6 5 4.6 4.3 4.5 4 5.2 5.8 4.3 4.5 5.5 5.5 5.6 5.2 5.2 5.4 5.1 4.9 4.7 5.2 6 -2.6 2.9 -2.6 -2.6 -2.6 3.8 4.2 4.5 4.5 5 5.4 5.7 6.7 6.5 7.1 7.6 7.5 6.8 6.8 6.8 6.9 6.8 6.3 5.4 5.7 -2.6 -2.6 -2.6 -1.6 -1.7 -2.1 -2.6 -2.6 5.2 6 5.8 5.1 5.9 5.9 6.2 5.4 5.8 5.3 5.2 4.7 5.1 5.5 6.2 6.7 7.7 8.8 8.6 7.7 7.5 6.2 6.1 5.9 5.3 5.6 5.4 4.8 4.8 5 5.2 5.4 5.7 6 6.6 6.1 6.2 6.4 5.7 5.1 5.2 5.5 5.7 6 5.6 5.9 6 5.3 4.2 20 26.1 26.4 26.4 29.3 33.3 38.6 41.5 39.2 40 43.5
10.5 9.9 9.9 10.1 9.3 10.9 11.6 9.7 8.7 9 9.9 14.1 15.7 15.2 11.7 10.5 8.5 8.3 8.3 8.5 8.6 8.1 8.6 7 8.6 8.5 7.9 7.6 7.5 7.4 7.4 7.4 7.1 6.9 7.5 7.5 7.1 7.1 7.3 7.6 7.6 7.6 6.7 7.2 7.3 7.4 7.5 7.6 7.9 8.1 8 7.6 7.9 7.7 7.7 7.4 7.5 7.6 8.5 7.4 7.4 7.3 7.3 7.3 7.3 7.8 9.3 9.4 8.8 9.1 9.7 7.2 9.3 10.9 12.3 12.7 12.2 12.7 11.9 12.5 12.1 10.2 10.4 7.6 6.5 5.1 5.8 5.3 5.4 5 5 4.9 3 2.9 2.6 4.1 4.3 4.8 5.1 5.3 5.1 4.5 4.1 4.1 -2.6 -2.6 -2.6 -2.6 4.6 -2.6 -2.6 -2.6 -2.6 4.4 4 4.3 4.5 4.8 4.5 7.2 7.1 7.3 6.5 7 6.5 6.3 6.4 6.4 6.3 5.2 3.7 0.7 -2.6 -0.9 -0.4 -0.4 -0.7 -1.2 -1.9 -2.6 -2.6 0.3 1.4 2.3 2.8 3.1 3 3.5 4.9 4.5 3.9 3.9 4.1 4.6 5.4 5.7 5.2 5.3 5.6 7 7.1 6.7 6.6 6.7 6.2 4.7 4.3 4.6 4.5 4.8 5.1 5.3 5.5 6 6 5.8 5.9 6 5.7 4.8 4.9 5.1 5.3 5.5 5.2 5.6 5.5 5.5 4.2 18.8 25.7 25.4 26.3 30.1 34.2 38.7 40.1 39.6 39.8 41.5
10.6 10.8 13.4 14.5 14.9 15.5 14.7 9.6 8.7 9.5 8.8 9.4 11.2 11.9 10.9 8.6 8.4 9.2 9.3 7.5 8.9 10.2 8.6 8 7.9 7.6 7.4 7.7 7.5 7.4 7.4 7.4 7.1 7 7.6 7.6 7.1 7.1 7.2 7.4 7.5 7.6 7.9 8.7 8.6 7.8 7.9 8.1 8.5 8.4 8.3 7.6 7.8 8 8.2 7.9 7.7 7.9 8.6 7.9 7.4 7.4 7.4 7.3 7.4 8.9 9.5 9.1 8.9 9.3 7.1 9.7 10.6 10.5 11.6 12.2 12.2 12.8 12.2 12.5 10.7 12.6 12.9 12.1 9.2 7.7 6.6 6 6.1 5.8 5.6 5.4 5.1 4.9 4.4 3.1 3.2 4 4.3 4.9 5.1 4.5 4 -2.6 -2.6 5.2 4 4.4 4.3 -2.6 -2.6 -2.6 3.4 3.9 3.7 4.1 4.5 4.9 5.2 5.3 6 7 6.6 6.1 6.4 6.6 6.3 5.8 5.2 4 2.2 -2.6 -2.6 0.8 0.8 0.7 0.2 -0.5 -1.1 -1.7 -2.6 -2.6 -2.6 -2.6 -2.6 -0.3 0.6 1.6 2.9 3.9 3.8 3.7 3.9 4.3 4.8 5.2 5.8 5.4 4.5 4.5 6.1 7.2 7.1 6.6 4.8 4.3 3.9 4.1 4.4 4.7 4.9 5.2 5.4 5.5 5.4 5.5 5.6 5.6 5.8 4.8 5 4.7 4.9 5.1 4.9 5.1 5.3 5.6 4 15.5 20.4 20.8 25.8 30.8 31.6 37.2 38.5 36.8 39.3 41.8
12 15 17.1 17.3 17 16.4 15.7 14.5 9.9 8.6 8.7 9 8.8 7.6 9.9 9.7 8.7 9.1 8.8 8.6 8.9 11.8 11.9 7.7 7.5 7.6 7.5 7.8 7.8 7.5 7.4 7.4 7 7.2 7.7 7.7 7.1 7 7.1 7.5 7.3 7.8 8.4 8.3 8.3 8.2 8.3 8.3 8.3 8.2 8.3 7.9 7.7 7.8 8.2 8.2 8 8.3 8.3 7.9 7.5 7.4 7.3 7.3 8.1 8.5 9.2 9.4 9 9.5 7.1 8.7 10.9 11 11.4 12.5 12.3 11.8 11.9 11.2 10.4 14.5 15.4 11.5 9.4 9 9 7.4 7.9 6.9 6.3 6.1 5.6 5.5 5 4.3 4.1 -2.6 4.2 4.9 4.9 4.4 4.2 -2.6 -2.6 4.9 4.4 3.6 -2.6 -2.6 2.5 2.3 3.8 3.6 3.6 3.9 4.4 5.8 5.8 5.4 5.5 6.9 6.7 8.9 6.8 6.1 6.5 6 4.3 3.4 1.6 -2.6 -2.6 2.6 2 1.6 1 0.3 -0.4 -1.1 -1.6 -1.9 -2.1 -2.4 -2.6 -2.6 -2.6 -0.1 1.2 2.1 3.1 3.4 3.8 4 4.5 5.3 5.2 5.9 5.9 5.9 5.8 6.5 6.8 6.5 3.4 4 3.9 4.1 4.4 4.6 4.8 5 5.2 5.1 5.6 5.5 5.3 5.3 5.3 4.7 5 4.8 4.6 4.5 4.8 5 5.2 5.4 5 7.8 15.5 23.9 25.8 28 29.8 34.7 34.5 34 38.5 40.9
14.5 15.2 14.8 15.2 15.8 16.5 15.6 13.8 9.2 8.8 8.9 8.8 8.6 8.7 8.5 8.2 8.3 8.1 8.9 8.6 9.5 10.1 14.7 10.6 7.7 7.5 7.6 7.6 7.6 7.5 7.4 7.2 6.9 7.3 7.9 8 7.3 7.4 7 6.6 7.8 8 8.4 8.3 8.2 8.3 8.3 8.2 8.2 8.3 8.3 8.2 8.1 8 8.2 8.3 8.7 9 8.2 8.1 7.8 7.5 7.3 7.6 7.4 8.1 8.8 9.2 8.8 7.7 7.2 10 11.9 10.9 11.4 12.7 11.8 11.4 13 14.7 15.5 16.8 16.2 9.2 7.4 7.2 10 10.2 8.4 7.3 7 6.2 6.2 6.1 5.7 4.9 4.3 -2.6 -2.6 4.8 4.7 4.5 4.3 -2.6 -2.6 4.7 4.4 3.4 -2.6 -2.6 -2.6 -2.6 3.9 3.3 3.7 4.1 4.4 5.9 6.8 6 5.8 7.2 6.5 6.4 7 7.4 5.8 4.9 3.6 3 1.3 -2.6 -2.6 3.6 3 2.4 1.7 0.9 0.2 -0.4 -0.9 -1.2 -1.4 -1.7 -2.1 -2.6 -2.6 -2.6 -0.5 0.4 1.4 2.7 3.6 4.1 4.6 5 4.9 4.3 4.5 3.9 3.8 4.5 4.7 5.3 4.7 3.8 4 4.2 4.4 4.5 4.7 4.9 4.8 5.4 5.6 5.5 5.3 5.2 5.1 4.7 5 4.5 4.3 4.2 4.4 4.6 4.8 5 4.4 3.5 15.4 26.3 26 26.2 28 32 31.9 33.1 37.2 40.5
15.6 15.2 14.1 12.8 12 13.6 13.4 11.7 8.9 9.1 8.6 8.6 8.8 8.8 8.5 8.3 8.1 8 8.3 8.4 8.5 8.8 13.2 15.4 9 7.8 7.4 7.4 7.4 7.3 7.3 7.1 7.2 7.5 7.9 8.2 7.6 7.1 7.3 7.7 7.8 7.7 7.9 8.1 8 8.2 8.2 8.1 8 8.1 8.2 8.6 8.4 8.4 8.9 9.2 8.4 8.1 8 8.1 8.1 7.8 7.5 8 8.3 8.7 8.8 8.8 9.2 7.6 7.8 10.2 11.8 10.9 11.5 11.4 10.9 12.6 13.9 14.8 15.2 15.7 15.7 13.2 8.6 9.6 8.9 9.3 8.5 8.1 7.9 7 6.5 6.6 6.5 5.7 4.5 -2.6 -2.6 4.3 4.7 4.3 3.3 -2.6 -2.6 4.6 4.9 4.1 -2.6 -2.6 3.5 -2.6 -2.6 3.3 3.7 4.2 4.8 6.8 6.8 7.2 7 6.5 6.2 6.4 6.4 5.2 5 4.1 2.7 2.9 0.6 -2.6 3.3 4 4 3.2 2.2 1.5 0.8 0.3 -0.1 -0.4 -0.7 -1.1 -1.5 -1.9 -2.6 -2.6 -2.6 -1.2 0.1 1.7 3.4 4.5 4.5 4.6 4.7 4.3 4.1 4.5 4.7 3.8 3.9 4.4 3.7 3.8 4.1 4.2 4.4 4.5 4.6 4.8 5.3 5.5 5.3 5.3 5.2 5 4.8 4.9 4.7 4.1 3.9 4.2 3.9 4.1 4.4 4.6 5.6 3.5 11 13.3 26.5 25.9 26.7 28.5 28.4 29.9 34.9 37.2
15.5 15.1 13.8 12.7 11.6 12 12.1 11 9.5 8.9 8.6 8.7 8.8 8.6 9.1 8.4 8.9 10.3 8.7 8 8.5 9.8 13.4 17.2 15.5 8.7 8.1 8.2 7.8 7.6 7.4 7.4 7.6 7.8 8 8.3 8.1 7.7 7.5 7.5 7.3 7.5 7.6 8.2 7.6 8.1 8.1 8 7.9 7.8 8.1 8.5 9.8 9.1 8.5 8.1 8 8 7.9 8 8.3 8.2 7.9 8.1 8.1 8.3 8.6 8.6 8.3 7.1 8.6 11 11.6 11 11.4 11.9 10.6 13.3 14.3 14.4 15 18.2 13.5 9.3 8.2 7.9 9 10.6 14.6 11 9.4 9.1 7.9 6.7 6.7 6.9 6.4 -2.6 3.9 -2.6 -2.6 3.6 -2.6 -2.6 -2.6 4.7 4.8 3.8 3.6 3.4 3.6 -2.6 -2.6 3.8 3.8 3.9 4.3 5.8 6.4 6.7 7 7.1 6.7 5 5.4 5 -2.6 -2.6 2.2 -2.6 -2.6 -2.6 4.2 4.3 4.9 4.6 2.8 2.1 1.5 1 0.5 0.3 -0.1 -0.5 -1 -1.5 -1.9 -2.3 -2.6 -2.6 -0.8 1.4 3.4 4.7 4 4.2 5 4.6 4.7 4.1 4.6 4.4 4.3 4.4 4.4 3.9 4.1 4.2 4.4 4.5 4.6 4.7 5.3 5.3 5 5 5 4.9 4.7 5 4.6 3.8 3.9 4 3.2 3.6 4.1 4.3 5.1 4 4 10.1 15.3 25 25.9 26.6 27.1 27.9 32.9 35.6
14.9 14.6 14.2 13.8 12.1 12.5 13.1 11.5 10.3 10 8.9 8.8 9.6 8.8 9.4 11.8 14.6 14 10.4 8.6 8.6 9 12.7 16.7 16.9 13.1 8.5 8 8.2 8.2 8.1 8.1 8 8.2 8 8.3 8.2 8.1 8.1 7.6 7.7 7.7 7.7 7.6 8.2 8 8 8.2 8.1 8 8.1 8.5 8.5 8.1 8 8 7.9 8 8.1 7.7 8.1 8.3 8 7.9 7.9 8.6 9 8.5 8 7.1 10 11.6 11.6 11.4 10.7 9.8 11 12.9 12.9 14.1 15.3 15.5 14.9 9.4 9.7 9.5 10.6 12.6 17.2 8.3 8 13.5 8.7 7.2 7 7.3 7.5 -2.6 -2.6 -2.6 -2.6 -2.6 -2.6 5.7 4.8 4.5 4.2 3.9 3.5 3.4 -2.6 -2.6 3.3 3.3 3.4 3.8 2.7 3.7 4 3.6 3.6 4 3.7 3 -2.6 -2.6 -2.6 -2.6 -2.6 -2.6 -2.6 5 5 5.1 5.2 5.2 3.7 2.6 2.2 1.7 1.3 0.9 0.4 -0.1 -0.7 -1.1 -1.4 -1.9 -2.4 -2.6 -1.4 0.8 2.8 5 4.9 4 3.7 4.8 5 5 5.2 5.2 5.1 5.2 4.9 4 4.1 4.2 4.4 4.5 4.6 4.7 5 4.6 4.4 4.3 4.1 4.2 4.4 4 4.1 4.1 3.3 3.1 -2.6 -2.6 3.9 4 4.6 4.2 3.9 6.9 11.1 17.2 25.6 25.5 25.1 26.4 30.1 34.1
14.6 14.2 14.4 13.9 13.4 13.4 12.7 12.4 11 11.1 10.8 9.2 12.2 14.4 15.3 15.8 15.5 14.3 10.9 8.8 8.5 9 10.9 14.4 16.8 15.7 8.9 7.9 8.1 8.7 8.8 9 8.6 8.5 8.1 8.1 8 8.1 8.4 8.3 8.2 8 7.7 7.8 7.8 7.8 7.9 8.2 8.5 8.7 8.8 8.3 8.2 8.1 8.1 8 8.1 8.1 8.2 7.7 7.9 8.1 8 7.7 8.1 8.9 9.3 8.9 8.6 8.9 10.1 11.2 11.6 11.8 10.2 11.1 11.3 12.7 14 14.6 14.5 14.8 14.3 11.8 11.5 10.8 11.3 11.3 8.2 8.8 7.6 8.2 9.8 9.4 7.7 7.7 8.2 6 -2.6 -2.6 4.9 4.9 5.4 5.3 4.4 4.4 4.2 3.9 3.8 3.9 4.1 -2.6 3.3 3.5 -2.6 -2.6 -1.4 -2.2 -2.6 -2.6 -2.6 3 -2.6 -2.6 -2.6 2.6 1.2 0.7 1.2 2.9 3.7 4.7 4.7 4.7 5.1 5 5.2 3.7 2.8 2.2 1.9 1.3 0.7 0.2 -0.3 -0.6 -1.1 -1.6 -2.1 -2.6 -2.6 -0.2 1.6 4 5.1 4.5 3.7 4.8 5.7 5.3 5.5 5.5 5.5 5.6 5.1 4.4 4.3 4.3 4.4 4.5 4.5 6.8 5.7 5.4 5.1 5 4.7 4.3 3.5 3.7 4 4 -2.6 -2.6 -2.6 -2.6 3.8 3.8 4.2 4 3.4 3.8 10.1 11.5 18 18 25.5 27.6 31.5 35
14.4 13.9 14 14.1 14.1 13.5 13 12 11.9 11.8 11.1 10.7 13.4 15.1 16.3 16 15.3 14 11.1 8.9 8.5 8.8 9.6 12.6 15.8 15.6 13.1 10.6 12.2 12.6 12.4 11.6 10 8.3 8.3 7.9 7.8 7.9 7.5 8.4 8 7.9 7.9 7.9 8 7.8 7.8 8.1 8.1 8.2 8.2 8.3 8.5 8.4 8.3 8.3 8.3 8.3 8.3 8 7.9 7.9 7.8 7.9 8.9 9.3 9.2 9 8.2 9.4 9.9 11.8 12.2 11.7 11 11.6 11.2 14 13.5 15.3 15.5 15.6 11.2 10.4 9.7 15.8 12.6 10.5 13.5 9 9.2 8.2 12.8 10 8.2 8.7 9.5 7.2 -2.6 5.1 4.6 5 6.8 5.7 5.1 4.5 4.4 4.4 4.3 4.3 4.4 -2.6 -2.6 -2.6 -2.6 -2.6 3.1 3.5 3.1 -2.6 -2.6 -2.7 -2.6 1 3.3 3.7 3.1 3.1 3.6 4.3 4.7 5 4.5 4.3 5.2 4.9 5.9 4.8 4.3 2.8 2.1 1.6 1 0.6 0.2 -0.3 -0.8 -1.3 -1.8 -2.6 -2.6 -2.6 -0.1 1.4 2.5 4.2 5.9 5.1 6.6 5.8 5.5 5.3 5.4 5.5 6.2 6 4.6 4.9 4.8 5.1 5.5 5.1 5.3 5.1 4 3.4 3.2 3.4 3.6 3.9 4 -2.6 -2.6 5.1 6.5 -2.6 3.6 3.4 4 3.6 3.6 4.5 4.9 10.1 14.6 25.1 26.4 27.9 32.4 35.9
14.2 13.8 13.7 13.7 13.7 13.9 12.4 12.1 11.8 11.6 11.2 12.8 14.8 15.5 16.2 15.7 15 13.6 11.7 9.6 7.8 8.5 9.2 11 15.6 15.9 14.1 13.7 14.6 14.7 14.6 14.4 13 9.5 9 8.6 8 7.9 8 8 8 8 8 8 8 8.1 7.7 7.9 8 8.1 8.1 8.3 8.4 8.6 8.6 8.6 8.6 8.6 8.5 8.1 7.9 7.9 8.1 8.4 9.1 10 9.8 8.9 8.2 9.8 11.2 11.4 11.1 10.9 11.1 13 14.9 14.9 15.5 13.2 17.9 11.3 13.4 10 9.9 11.9 17 14.4 10.8 12.8 8.9 14.8 8.6 11.3 9.3 9 9.4 7 -2.6 5.7 5.6 6.1 6.6 7 5.8 5 4.9 4.9 4.8 4.8 4.7 4.3 -2.6 -2.6 4 4.7 4.1 3.5 3.5 3.4 3.3 3.1 2.9 3.4 4.1 3.8 4.1 4.9 5.3 5.7 5.4 4.5 4.9 4.7 6.1 4.8 5.9 5.4 4.6 3.3 2.4 1.9 1.4 1 0.5 0 -0.5 -1 -1.6 -2.1 -2.6 -2.6 -2.6 -0.3 0.8 1.6 2.2 3.4 5 5.8 5.2 4.7 5.2 5.1 4.8 4.2 4.9 4.7 5.4 6.3 5.8 4.6 4.1 4 3.6 3.1 3.2 3.5 3.7 3.6 3.9 -2.6 3.3 3.9 5 -2.6 -2.6 3.2 3.7 3.2 3.2 4.3 4.2 9.4 10.6 24.4 25.8 32 35.3 38.6
14.2 13.8 13.6 13.4 13.1 12.6 12.1 11.8 11.6 11.4 11.8 14.8 15.4 15.8 15.9 15.5 14.8 13.4 10.6 9.5 9.1 8.7 9 10.1 14.3 16.3 14.8 15.5 15.5 15.9 15.8 15.4 14.1 11.6 9.3 8.6 8.4 8.3 8 8.6 8 8 8 8 8.1 8.1 8 8 8.2 8.3 8.4 8.3 8.3 8.7 8.8 8.8 8.6 8.5 8.2 7.9 8.2 7.9 8.2 8.5 9.4 10.5 10.3 9.2 8.8 9.5 11.7 11.9 11.1 11 12.9 15.7 15.4 15.9 12.9 13.5 17 11.8 10.3 10.6 10.2 13.4 10.7 12.6 13 11.4 9.8 13.1 12.2 10.8 9.3 9.5 9.6 8.9 7.8 6.1 5.7 7.1 5.8 6.1 6 5.2 4.8 4.7 4.7 4.7 4.7 4.4 5.8 4.4 5.2 6.1 6.8 6.6 6.2 4.8 4.2 4.1 4 4.5 4.9 4.8 4.8 5.7 5.3 5.8 7.5 5.9 5.8 6.1 6.5 5.4 5.6 5.6 5 4.2 2.7 2.2 1.8 1.3 0.8 0.3 -0.3 -0.8 -1.3 -1.7 -2 -2.6 -2.6 -2.6 -0.8 -0.1 0.6 1.6 2.7 4.4 4.8 5 5.1 4.7 4.4 3.7 4.6 4.7 5.6 6.7 5 4.4 4 4.5 4.6 3.1 3.1 3.5 3.8 3.4 3 2.7 3.1 3.7 5.7 4.7 -2.6 -2.6 2.9 2.9 3 5.4 4.5 9.3 10.4 18.2 26.3 35 37.9 39.9
14.2 13.9 13.6 13.6 13.2 12.5 11.8 11.5 11.3 11.7 14.2 15.3 15.2 15.7 15.3 14.9 14.6 13.9 13.1 11.4 8.9 9 9 10.1 13.4 15.2 16.1 15.6 15.4 15.8 16.4 15.6 14.8 14.5 10.2 8.9 8.7 8.3 8.1 8.7 8.4 8.1 8.1 8.1 8.1 8.1 7.2 8.2 8.3 8.5 8.7 8.6 8.4 8.6 8.7 8.4 8.6 8.4 8.1 8 8.8 7.8 8.7 9.1 10.4 10.3 10 9.4 9.5 10.9 12.3 12.7 12.5 13.7 14.1 12.9 15.5 15.6 14.9 11.2 11.5 11.7 9.8 10.2 10.6 13.2 12 11.6 9.4 10.2 10 15 11.3 12 9.4 9.9 11.2 10.7 7.5 9.1 13.8 14.1 6.2 5.4 8.1 5.6 5.1 4.7 4.3 4.8 5.5 5.2 5.5 7.3 5.1 5.6 6.8 6.4 7.1 6.4 5 5.2 5.2 5 4.7 4.7 4.8 5.3 5.5 6.3 6.9 5.9 5.5 6.7 6.4 5.8 5.9 6.1 6 6.1 3.5 2.6 2.1 1.6 1.1 0.5 0 -0.5 -0.9 -1.3 -1.7 -2.1 -2.6 -2.6 -2.6 -2.6 -1 0.3 1.4 2.5 4.7 6 4.7 4.9 4.8 4.3 4.5 4.6 6.2 7.2 4.8 5.3 4.7 5.1 5.2 3.3 3.4 3.7 4.1 4.2 3.7 3.2 3.5 3.5 4.8 4.2 2.9 -2.6 -2.6 2.4 2.9 2.8 4.3 9.4 9.4 10.2 27.1 33.8 37.8 41
14.2 13.9 13.4 13.3 12.5 12.5 12.2 11.5 12.8 13.5 15.4 15 14.7 15 14.8 14.9 14.3 13.8 13.5 11.9 9.8 10.1 9.3 10 12.5 15.3 16.1 15.2 16.2 17.3 16.9 15.5 14.6 14.4 11.7 9.2 8.7 8.4 8.6 8.3 9 8.2 8.1 8.3 8.9 8.6 8.5 8.2 8.3 8.5 8.7 8.6 8.4 8.8 8.4 8.4 8.5 8.2 8.1 8.3 8.3 8.3 8.5 8.7 11.3 9.6 9.4 9.1 10.3 12.8 13.3 13.7 10.9 17.1 17.9 17.4 15.8 11.1 13.5 9.5 10.3 11.1 10.7 10.4 10.6 14.9 12.4 12.6 13.5 11.1 14.1 13.4 11.3 10 9.2 9 11 9.3 9.4 12.6 6.7 7.1 12.1 8 6.9 6.2 6.2 5.8 5.7 5.2 6 5.3 5 7.3 6.6 7.9 7.6 6.9 7.1 6.7 6.6 5.4 5.4 5.5 5.3 5 5.1 5.3 5.7 6.2 6.7 6.6 7.5 8.9 6.5 6.5 8.1 8.2 7.8 6.9 7.4 2.9 2.4 1.8 1.3 0.7 0.3 -0.1 -0.5 -1 -1.4 -1.7 -2 -2.3 -2.6 -2.6 -2.6 -1 0.1 1.2 1.8 2.2 3.4 4.2 5.6 5.4 4.9 4.6 5.5 5.9 5.3 6 6.4 5.6 5.4 5.1 4.3 4.8 5.2 4.5 4.9 4 4.1 3.5 5.8 3.6 4 1.8 -2.6 2.5 2.6 2.4 2.2 8.3 9.2 9.3 25.8 37.4 48.4 54.4
14.5 14.1 13.5 13 12.3 11.8 12.6 13.6 14 15.4 15.5 14.8 14.2 14.9 15 14.5 13.5 13 12 10 9.5 9.1 9.4 9.8 12.9 14.3 16.3 15.6 17.7 18.1 17.3 16.5 15.2 15.2 12.9 9.4 8.9 9.5 8.2 7.9 8.2 8.2 8.1 8.1 8.2 8.1 8.1 9.7 8.2 8.3 8.5 8.3 8.5 8.8 8.3 8.1 8.1 8.2 8.1 8.4 8.5 8.6 8.8 10.1 9.5 9.6 9.6 10.2 11.6 10.7 14.3 11.1 12.4 14.3 14.2 18.6 17.8 11.9 13.2 11 10.2 9.9 10.2 9.5 9.9 10.8 11.8 12 12 10.6 12.6 10.5 11.1 9.2 9.3 8.8 9.3 10 9.8 10 9.8 12.1 9.4 9.3 7.7 9.1 6.8 7.9 8.3 5.8 6.4 5.4 5.1 7.2 8.7 7.6 7.6 7.6 7.5 8.8 7.2 6.9 6.9 6.7 6.5 6 5.4 5.8 6 6.4 7.1 8.2 8.5 8.4 6.8 8 10.1 11.2 6.3 7.1 8.8 4.3 2.6 2 1.5 1.1 0.7 0.1 -0.4 -0.7 -1.1 -1.3 -1.6 -1.9 -2.2 -2.6 -2.6 -2.6 -0.9 0 0.6 1 1.7 2.2 3.8 5.9 4.7 4.9 6.2 5.5 6.9 6.3 6.4 5 5 5 5.9 5.7 5.4 4.7 4.6 5.1 5.6 5.3 5.1 3.4 -2.6 -2.6 -2.6 2.8 3.2 3.5 3.1 -2.6 9.4 8.8 26.5 39 47.8 56.7
14.6 13.6 13 12.5 12.2 11.6 13.4 14.3 16.7 16.3 15.8 14.7 14.6 15 14.7 14 12.6 11.8 11.6 9.7 9.4 8.2 9.3 10.3 12.4 15.2 16.2 16 17 18.2 17.4 16.6 15.6 15.1 13.9 11.7 8.9 9.6 8.2 8 8.2 8.2 8.2 8.2 8.2 8.2 8.1 8.9 8.7 8.1 8.1 8.4 8.4 8.6 8.2 8.3 8.4 8.2 8.1 8.1 8 8.7 9 10.3 9.2 10 10.1 10.8 11.6 10.3 14.9 11.3 16.5 14.5 19.1 12.9 17.2 16.4 15.4 12 11.8 15.1 19.8 18.4 10 10 14 13.2 12.6 12.4 10 8.9 10.5 10.3 8.7 9.1 9.1 8.7 9.8 10.9 9.4 9.7 8.5 10.9 10 10.6 8.1 8.6 8.7 8.9 5.8 6.4 6 7.7 8.2 6.5 7.9 8.3 9.4 7.7 7 8.2 7.6 7.5 6.9 6.1 5.9 6.3 8.2 9.1 8.4 10.3 7.1 11.4 12.9 9.4 4.7 5.5 5.8 9.5 4.6 7.3 2.8 2.3 1.8 1.3 0.8 0.3 -0.1 -0.4 -0.7 -1 -1.3 -1.6 -1.9 -2.2 -2.6 -2.6 -2.6 -1.3 -0.6 -0.1 0.2 0.8 1.3 1.5 1.4 1.5 1.8 2 2.2 2.3 2.7 5 4.9 3.9 5 6.7 5.1 6.4 5 4.8 5.5 6.2 7.5 -2.6 -2.6 -2.6 -0.8 2.9 3.1 3.1 2.9 -2.6 8 8.7 27 34.9 46.4 58.1
14.2 13.3 12.4 12 11.7 11.9 15.6 16.6 16.6 16 15.8 15 14.7 14.7 14.5 13.4 12.8 12.7 12.4 10.9 9 8.7 9.7 10.6 12.4 15.6 16.3 16.2 16.9 17.2 17.2 16.3 15 14.4 13.8 12.1 9 8.8 8.4 8 8.2 8.3 8.3 8.3 8.3 8.3 8.3 8.2 8.1 8 8.5 8.2 8.4 8.5 8.4 8.6 8.4 8.3 8.2 8.1 8.3 8.8 9.8 10 10.1 10.3 10.5 10.7 13.8 11.1 12.8 14.1 14.2 12.6 14.4 13.9 13.2 10.9 17.5 15.1 17.3 17.4 20.9 21.9 19.9 15.2 10.4 14.5 11.5 10.9 9.5 11.3 10.2 11.8 9.3 9.3 8.5 8.4 10.2 9.7 10.6 9.2 8.1 6.8 9.4 8.3 8.1 8 7.2 7.6 7.5 6.5 6.5 6 8.7 5.8 6.6 11.3 10.2 7.2 9 8.5 7.9 7.3 6.3 6.9 7.2 6.9 9.5 8.4 8.7 10.8 9.3 6.2 12.3 12.9 13.7 6.1 4.9 6.9 5.3 4.6 3.3 2.4 1.9 1.3 0.9 0.6 0.2 -0.1 -0.4 -0.7 -1 -1.3 -1.6 -2 -2.3 -2.6 -2.6 -2.5 -1.9 -1.4 -1.2 -0.7 -0.4 -0.3 -0.2 0.1 0.6 0.9 1.2 1.4 1.9 2.4 2.7 2.6 2.5 2.5 2.5 2.6 2.7 4.9 3.4 6.1 4.7 -2.6 -2.6 -2.7 -1.6 1.3 1.6 -2.6 -2.6 -2.6 8 9.3 23.9 30 44.5 59.3
13.7 12.8 12 11.6 11.8 13.7 16.5 16.3 15.9 15.9 15.7 15.5 15.1 14.7 14.4 13.5 12.9 12.5 12.1 10.6 9.2 9 10.5 11 13.5 16 16.5 16.6 16.4 15.8 16.5 15.6 14.2 13.7 13.1 12.2 10.1 9 8.6 8.2 8.2 8.3 8.3 8.3 8.3 8.3 8.6 8.5 8.6 8.6 8.4 8.2 8.4 8.5 8.6 8.6 8.5 8.4 8.3 8.2 8.8 9.8 10.1 10.2 10.3 10.3 10.6 12 16.1 13.6 14.1 18.9 18.3 15.8 19.2 21.2 20.2 12.5 20.1 12.6 12.9 20 17 11.5 18 18 13 13.2 10.9 12 11.5 10.6 10.4 10.6 9.2 8.8 9.1 8.4 9.8 9.3 10.2 11.2 9.3 8.1 9.6 10.6 8.2 8.9 9 10 8.1 6.5 6.7 6.7 7.7 8.9 7 6.4 6.6 12.9 9.5 9.2 7.8 8.2 7.6 6.5 8.5 8.8 9.8 9.9 10.5 13.3 5.4 5.4 5.3 18 8.5 10.5 7.1 6.7 5.1 4.3 3.9 2.4 1.9 1.5 1.1 0.8 0.5 0.2 -0.1 -0.4 -0.8 -1.1 -1.4 -1.7 -2 -2.3 -2.6 -2.6 -2.6 -2.6 -2.6 -2.6 -2.6 -2.6 -1.7 -1.1 -0.5 -0.1 0.2 0.6 1 1.5 2 1.9 1.7 1.8 1.9 2 2.2 2 1.9 2.7 2.9 -2.6 -2.6 -2.6 -2.6 -2.6 -2.6 -2.6 -2.6 8 9.2 8.6 13.5 31.4 50.5 62.5
13.2 12.4 11.7 11.7 12.7 14.3 15.9 15.3 14.9 15.8 15.7 15.7 15.3 14.8 14.1 13.2 13.1 12.5 11.9 10.8 9.6 8.9 10.5 11.2 14 16.1 16.6 16.7 16.3 16.2 16.1 13.5 12.1 12.7 12.7 12 9.8 9.3 8.8 8.4 8.3 8.4 8.4 8.5 8.4 8.3 7.9 8.6 8.6 8.7 8.6 9.3 8.6 8.6 8.6 8.6 8.6 8.5 8.4 8.4 9.8 10.3 10.1 10.2 10.4 10.8 10.6 13.8 13.9 19.2 19.5 21 17.1 20.3 21.3 20.7 22.8 21.4 15.9 12 14.7 11.4 14.3 13.4 10.2 10.7 15.8 12.3 10 10.4 10.5 10.6 10.2 10.7 10.3 8.9 9.2 9.5 8.7 11.8 10 10.8 10.8 10 12.5 10.1 10.9 10.4 9.1 7.2 7.8 6.9 6.6 9 8.7 8.7 7.6 8.3 9.7 8.7 10 9.2 7.9 9.6 13 12.7 13.6 16.8 17.3 11.8 12.7 13.6 9.6 7.6 4.7 10 7.2 8.1 14.4 6.8 6.4 7.6 3.6 2.5 2.1 1.7 1.4 1.1 0.8 0.4 0.1 -0.3 -0.6 -0.9 -1.3 -1.5 -1.9 -2.2 -2.5 -2.6 -2.7 -2.6 -2.6 -2.6 -2.6 -2.6 -2.6 -2.6 -1.6 -1 -0.7 -0.3 0.2 0.8 1.2 1.1 1.1 1.2 1.3 1.5 1.8 1.3 0.8 0.7 1.6 -2.6 -2.6 -2.6 -2.6 0 1.3 8.3 7.3 8.2 8.4 8.4 8.7 33.8 50.2 61.3
13.1 12.1 11.5 11.9 12.7 13.3 13.2 13.5 14.1 15.1 14.9 15.6 15.3 14.8 13.4 12.9 12.8 12.3 11.2 9.9 8.7 8.3 9.8 11.8 14.2 16.2 16.6 16.9 16.3 16.1 14.3 12.3 11.3 11.5 12.8 12.2 9.6 9.4 9.1 8.8 8.8 8.9 9.1 9.3 8.8 8.2 8.6 8.7 8.7 8.7 8.8 8.8 8.7 8.7 8.7 8.7 8.6 8.6 8.5 9.4 10.6 10.5 10.3 10.2 11.4 12.7 11.8 13.9 12.4 19.6 18.7 16.3 17.7 19.5 22.1 21.6 15.3 18.2 23.8 12.6 11.8 17.6 17.1 18.4 19.2 20.8 12.2 15.1 10.1 11 9.9 10 10.6 10.4 10.1 9.4 8.8 10.4 10.5 10.8 10.9 10.4 10.7 11 12.2 9.3 10 7.2 12.1 9.1 8.7 7.1 7.6 8.9 8.1 8.1 12.2 6.8 7.3 9 8.6 7.6 8.9 8.5 5.7 6.1 8 10.3 10.6 11.3 16.9 9.3 11 10 10.3 4.6 6.1 11.5 4.8 11.1 5.9 5.7 3.1 2.5 2.2 1.8 1.4 1.1 0.8 0.4 0.1 -0.2 -0.6 -0.9 -1.3 -1.6 -1.9 -2.3 -2.6 -2.6 -2.6 -2.6 -2.6 -2.7 -2.7 -2.7 -2.6 -2.6 -2.6 -1.9 -1.6 -1.1 -0.5 0.1 0.5 0.4 0.4 0.5 0.7 1 1 0.5 0 -0.5 -0.4 -2.6 -2.6 -1.6 -0.5 0.7 1.8 2.8 5.2 5.7 7.2 7.3 8.1 31.1 50 58.5
13 12.1 11.3 11.9 13.2 12.3 12.7 13.5 14.2 14.1 14.1 14.9 15.3 14.5 12.7 12.6 12.5 12 11.4 9.8 8.3 9.3 9.9 10.7 14 16 16.4 16.5 16.1 14.7 13.2 12.2 11.3 11.2 12.9 11.9 9.5 9.3 9.1 9.4 9.6 9.8 9.3 8.7 8.8 8.3 8.7 8.7 8.8 8.8 8.9 8.9 8.8 8.8 8.8 8.7 8.8 8.8 9 10.4 10.2 10.8 10.5 10.4 13.2 13.2 14.5 12.9 15.3 18.9 23.8 18.7 18.1 15.7 20.2 16.6 14.1 18.1 20.9 19 11.2 16.6 18.5 15.1 13.3 14.8 14.8 10.4 9.6 10.5 11.1 9.5 9.8 10.3 9 9.8 9.8 11.4 11.4 13.4 8.9 12.4 12.6 11.7 12 9 8.1 8.2 6.8 7.8 8.1 9.4 9.3 8.8 8 6.9 8.9 8.6 11.9 10.4 10.6 8.2 9.9 11.4 14.9 8.4 6.4 9.7 12.2 8.7 13 11.5 8.2 10.8 5.9 8.9 8.8 8.4 5.5 8 12.6 5.7 2.8 2.5 2.1 1.7 1.4 1.1 0.7 0.4 0 -0.3 -0.7 -1 -1.3 -1.7 -2 -2.4 -2.7 -2.7 -2.6 -2.6 -2.6 -2.6 -2.6 -2.6 -2.6 -2.6 -2.6 -2.6 -2.6 -1.9 -1.2 -0.6 -0.2 -0.3 -0.2 -0.1 0.3 0.6 0.3 -0.2 -0.8 -1.3 -2.6 -2.6 -2.6 -1.6 -0.5 0.7 1.5 2.2 2.9 5.4 5.5 6.6 7.8 25.9 46.6 52.2
12.8 10.8 11.5 13.5 13.2 13.1 13.1 13.5 13 13.1 13.8 15 15.3 14.1 12.4 12.3 12.2 11.7 11.2 10.2 8.9 8.9 10.3 12.7 15 16 16.5 16.3 15.2 14 12.7 11.5 10.6 10.9 11.4 10.3 9.6 9.6 10.2 10 9.6 9.2 9.1 8.9 8.6 9.2 8.9 8.8 8.9 8.9 9 8.9 8.8 8.8 8.8 8.7 9 8.9 9.2 10.2 9.9 10.8 11 11.6 10.8 13.3 14.7 13.5 14.7 19.2 23.7 19.8 19.1 16.3 16.6 21.2 19.3 20.4 20.7 22.3 19.2 11.2 13.8 15.2 12.6 11.7 9.7 10.4 9.8 10.4 11.1 11.1 10.3 12.2 9.6 10.4 9.2 11.6 11.6 10.6 10.9 11.6 14.4 9.6 11.7 9.7 8.3 10.9 10.5 11.3 8.5 7.6 9.8 8 8.5 7.5 9.6 9.6 11 15 9.5 11.2 12.9 6.4 12.4 11.9 8.5 7.1 6.3 6.8 10.2 5.8 5.9 8.4 7.4 7 7.3 9 8.6 10.4 9.6 4.5 2.7 2.4 2 1.6 1.3 1 0.6 0.3 -0.1 -0.4 -0.7 -1.1 -1.4 -1.8 -2.1 -2.4 -2.7 -2.6 -2.7 -2.6 -2.6 -2.6 -2.6 -2.7 -2.7 -2.7 -2.6 -2.6 -2.7 -2.6 -1.9 -1.3 -0.9 -0.9 -0.8 -0.5 -0.2 0 -0.5 -1 -1.5 -2 -2.6 -2.6 -2.7 -1.6 -0.5 0.3 1 1.6 2.3 2.7 3.2 4.8 5.9 24.9 41.3 48.7
12.3 10.9 12.6 15.4 15.5 15.6 14.9 13.3 13.1 13.6 14 14.2 14.6 13.8 12.6 11.7 11.8 11.1 10.3 9.9 7.7 9.3 10.4 13.8 15.8 16.3 16.3 16 15.2 13.7 12.7 12.3 12.3 12.1 11 10.8 10.8 10.6 10.2 9.7 9.2 9.1 9.3 9 8.9 8.9 8.9 9.1 9.3 9.2 9 8.8 8.8 8.8 8.7 8.8 9.2 9.2 9.6 10.4 10 10.8 10.9 11.7 15.7 17.8 15.1 13.1 14 15.6 22.9 22.2 17.6 15.8 20.8 20.4 26.6 22.3 21.5 26.2 22.5 19.6 11.7 13.4 11.3 11.3 10.6 10.1 10.1 10.6 11.1 12.3 13 12 10.9 9.7 9.2 9.7 9.8 11.3 11.7 16.4 15 10 10.7 10.9 8.5 8.3 8.6 11.1 9.4 10 10.7 8.8 7.5 8.8 8.9 8.2 9.9 14.7 13.8 10.9 12 11.5 9.7 13.3 6 11.1 8.2 11.6 12.1 6.4 14.1 13.9 13.8 11.9 14.3 11.6 6.8 8.7 5.6 3.2 2.6 2.2 1.9 1.6 1.2 0.9 0.5 0.2 -0.1 -0.5 -0.8 -1.1 -1.5 -1.8 -2.2 -2.5 -2.7 -2.6 -2.7 -2.6 -2.6 -2.7 -2.7 -2.6 -2.7 -2.6 -2.6 -2.6 -2.6 -2.6 -2.6 -2 -1.7 -1.6 -1.3 -0.9 -0.6 -0.7 -1.3 -1.8 -2.3 -2.7 -2.6 -2.6 -2.6 -1.7 -1 -0.3 0.4 1.1 1.7 2 2.5 2.9 2.9 16.7 35.2 46.6
11.4 11.4 13.7 15.7 15.6 15.7 15.1 13.3 13.4 13.8 13.7 13.5 13.5 13 12.2 11.8 11.8 10.7 10.1 10.3 8.7 9.6 11.8 15.2 16.2 16.7 16.5 16.2 15.1 13.3 12.4 12.3 12.7 13.2 12.8 11.7 10.8 10.3 9.8 9.4 9.2 9.2 9.1 9.7 9.5 9.3 9.4 9.6 9.4 9.2 9 8.8 8.7 8.7 8.7 8.9 9.3 10.1 11.1 10 10.8 10.8 11.5 13.1 17.3 21.3 17.7 19.2 20.4 13.1 12.1 16.7 16.4 15.2 20.2 22 16.6 16.5 21.3 19.7 15.7 18.5 19.3 14 13.3 11.5 10.9 10.5 10.4 10.5 10.6 11 10.8 10.9 9.7 10.8 10.2 9.7 10.2 9.5 9.5 16.2 10.8 9.2 9.2 11.5 12.1 11.5 9.1 7.7 10 10.2 7.3 13.2 8.4 8.1 12.4 12.7 15.1 17.5 17.3 7.2 16 22.1 6.7 6.2 10.9 10.6 5.9 7.7 17.2 13 5.2 6.2 5.6 8.9 9.8 7.2 10.6 5.9 4.2 2.8 2.5 2.2 1.8 1.5 1.1 0.8 0.5 0.1 -0.2 -0.5 -0.9 -1.2 -1.6 -1.9 -2.2 -2.6 -2.7 -2.6 -2.6 -2.6 -2.7 -2.7 -2.7 -2.7 -2.7 -2.6 -2.7 -2.7 -2.6 -2.6 -2.6 -2.6 -2.6 -2 -1.7 -1.4 -1 -1.5 -2 -2.5 -2.7 -2.6 -2.7 -2.6 -2.6 -2.6 -1.5 -0.7 0.1 0.7 1 1.5 2 2.6 2.9 12.2 29.4 40.4
10.3 10.2 13 14.6 14.9 14.2 13.3 11.9 12.3 13.2 13.3 13.2 13.2 12.9 12.4 12 11.8 10.7 9.7 9.3 8.8 9.7 13.9 16.3 16.6 16.9 16.5 18.5 14.5 13.3 12.2 12.6 12.8 12.8 12.3 11.3 10.5 10 9.5 9.3 9.2 9.3 9.2 9 9.5 9.4 9.6 9.7 9.5 9.3 9.1 8.9 8.9 8.9 8.9 9.2 9.6 9.9 10.5 10.9 11.2 11.3 11.4 14.7 15.3 16.8 20.8 19.5 16.7 18.1 16.8 13.9 19.8 19 19.8 14.3 14.4 14.4 16.9 18.2 14.6 19.2 23.6 24 19.4 16.9 12.1 10.7 10.2 11 10.4 12 9.7 9.9 9.6 9.7 10.2 9.4 10.1 10.7 11 14.4 12 11.1 12.3 11.9 9.1 12 8.2 11.2 11.2 14.1 8.7 10 10.9 12.6 10.2 8.2 10.9 13.3 18.6 13.3 9.2 12.3 15.6 9.5 8.5 7.8 11.4 5 8.2 11.1 12.6 5.3 4.6 15.8 8.2 9.4 7 6.6 3.3 2.6 2.4 2.1 1.8 1.4 1.1 0.7 0.4 0.1 -0.3 -0.6 -1 -1.3 -1.6 -2 -2.3 -2.7 -2.7 -2.7 -2.7 -2.6 -2.7 -2.7 -2.6 -2.7 -2.7 -2.6 -2.6 -2.6 -2.6 -2.6 -2.6 -2.6 -2.6 -2.5 -2.1 -1.8 -1.8 -2.3 -2.7 -2.7 -2.6 -2.6 -2.6 -2.6 -2.6 -2.6 -1.8 -1 -0.3 0.1 0.6 1.1 1.6 2.1 2.6 2.9 23.1 29.8
12.9 11 11.2 13.1 11.7 11.2 10.7 10.5 10.9 12.3 13 12.9 13 12.6 12.4 12.1 11.8 11 10 9.1 8.9 11 12.9 15.6 16.6 16.3 16 14.9 13.7 12.4 12.6 12.8 12.8 12.6 11.7 10.9 10.3 9.7 9.4 9.7 9.5 9.3 9.2 9 9.1 9.4 9.6 9.7 9.5 9.3 9.2 9.1 9.2 9.2 9.2 9.6 9.9 10.2 10.4 10.9 11.3 12.6 15.7 18.8 14.6 14.1 21.9 15.3 12 12.5 11.7 12.1 14.9 18.2 13.1 14.3 21.4 11.1 11.3 13.6 17.2 17.8 19.8 22.1 15.2 13.6 12.5 11.2 11 10.5 10.3 9.8 11.2 10.2 9.9 9.5 11.4 9.8 9.2 11.3 10.9 12.7 11.2 10.2 12.7 10.4 11 9.9 8 10.4 16.5 8.8 11.2 10.6 9.2 13.7 15.8 9.6 8 9.3 8.3 8.7 6.6 7.2 6.6 13.5 10.9 5.7 7.7 11.3 7.1 10.4 8.8 5.7 9.1 15.2 9.2 7.2 6.7 4 2.7 2.5 2.2 1.9 1.7 1.3 1 0.7 0.3 0 -0.4 -0.7 -1 -1.4 -1.7 -2.1 -2.4 -2.6 -2.7 -2.6 -2.6 -2.6 -2.7 -2.6 -2.7 -2.7 -2.7 -2.7 -2.6 -2.6 -2.6 -2.6 -2.6 -2.6 -2.6 -2.7 -2.6 -2.2 -2.5 -2.7 -2.7 -2.6 -2.7 -2.7 -2.6 -2.6 -2.6 -2.6 -2.1 -1.3 -0.9 -0.4 0.1 0.6 1.2 1.7 2.2 2.7 10.2 22.8
13.6 12.4 9.9 10.3 10.2 9.9 9.7 9.5 9.7 10.6 12.2 12.7 12.7 12.5 12.2 11.3 10.9 9.9 8.9 9 9.9 10.9 14.5 16.4 16.4 15.9 15.1 14.1 13.3 12.5 12.9 12.8 12.7 12.5 11.3 10.6 9.9 9.6 10 10 9.9 9.6 9.5 9.5 9.5 9.4 9.6 9.8 9.6 9.5 9.4 9.3 9.4 9.5 9.6 10 10.3 10.6 10.9 11.2 14.8 15.5 16.2 20.2 20.6 14.8 19.2 12.5 12.1 12.6 11.9 12.5 12.2 14.7 19.1 12.6 12.6 15.7 14.9 11.9 15.9 17.6 15.9 17.5 14 15.5 10.5 10.8 12.8 12.4 10.3 11.6 10.6 10.6 9.9 9.3 11.8 12.6 12 12.3 15.4 12.5 13.9 11.2 11.3 8.7 9.2 13 10.5 12.8 9.5 10.6 11.7 11.4 18.2 9.9 9.8 13.7 9.1 6.6 8.9 10.4 8.8 6.3 6.2 5.5 13.4 12.9 5.2 5 5 16.7 7.6 9.2 9 8.6 7.2 7.7 6.4 2.7 2.5 2.3 2 1.8 1.5 1.3 0.9 0.6 0.2 -0.1 -0.4 -0.8 -1.1 -1.5 -1.8 -2.1 -2.5 -2.6 -2.6 -2.6 -2.6 -2.6 -2.7 -2.7 -2.6 -2.7 -2.7 -2.7 -2.6 -2.6 -2.6 -2.6 -2.7 -2.6 -2.6 -2.6 -2.6 -2.6 -2.6 -2.6 -2.6 -2.7 -2.7 -2.6 -2.6 -2.6 -2.6 -2.6 -2.6 -1.8 -1.3 -0.8 -0.3 0.3 0.9 1.4 2 2.5 7.9 19.8
13.9 12.6 12.2 10.6 10.5 11.2 10.6 9.3 9.1 9.1 11.1 12.6 12.2 11.7 10.8 9.5 9 9.3 9.6 10.2 12.5 14.3 14.2 15.9 16.3 15.5 14.5 13.7 13.3 12.9 12.9 12.9 12.8 12.7 11.8 10.3 10 10.1 10 10 10.1 9.9 9.7 9.9 9.9 9.9 9.8 9.8 9.7 9.7 9.6 9.6 9.7 9.8 10 10.3 10.7 11 11.5 12.3 12.2 11.6 16.7 22.2 19.7 22.3 18.7 14 12.4 12.2 11.6 12 17.3 16.8 13.7 15.7 13.4 11.6 17 13.8 16.4 13.8 12.2 16.4 13.2 12.3 10.7 10.7 10.1 13 12.9 12.6 10 9.7 10.1 9.3 9.1 10.7 13.3 13 10.7 8.1 13.3 10.5 8.6 9.9 8.5 7.9 8.4 7.7 7.8 8.2 7.2 10.8 8 12.3 12.5 14 12.2 6.4 6.3 7.3 13.3 13.8 6.9 9.9 8.6 8.7 6.1 4.6 10.6 9.9 7.4 9.2 7.8 7.1 7.2 3 2.7 2.5 2.3 2 1.8 1.5 1.4 1.2 0.8 0.5 0.2 -0.2 -0.5 -0.9 -1.2 -1.5 -1.9 -2.2 -2.5 -2.7 -2.6 -2.6 -2.6 -2.6 -2.7 -2.6 -2.6 -2.6 -2.6 -2.6 -2.6 -2.6 -2.6 -2.6 -2.6 -2.6 -2.6 -2.6 -2.6 -2.6 -2.6 -2.6 -2.6 -2.7 -2.7 -2.6 -2.7 -2.6 -2.7 -2.6 -2.6 -2.1 -1.5 -0.9 -0.4 0.2 0.7 1.2 1.8 2.3 2.8 9.8
13.6 12.6 12.1 12.4 12.9 12.6 12.2 11.3 10.8 9.2 9.5 10.9 10.6 9.4 9.3 8.7 9.1 10 10.9 11.2 14.4 15.8 15.8 16.1 15.9 15.2 14 13.5 13.1 12.9 12.9 12.9 12.9 12.8 12.2 10.7 10.4 10.2 10 9.9 10.3 10 9.7 10.4 10.4 10.4 10.2 10.1 10 9.9 9.8 9.9 10 10 10.3 10.8 11.2 11.5 12.9 13 11.9 17.3 17.6 15.3 13 25.6 24.2 14.5 11.8 11.8 12.6 12.3 13 12.4 11.5 11.9 12.2 17.9 11.1 14.9 14.4 16.2 12.8 11.6 14.3 11.4 10.8 12.5 12 12.1 14.9 13.1 9.7 10.3 10.4 9.7 10.3 8.9 10 8.7 8.3 8.5 8.6 10.9 10.9 8.9 11.3 8.8 8.6 7.5 7.3 8.2 8.7 13.2 11.2 8.1 7.7 7 6.6 10.9 10.3 11.4 6 12.4 9.3 13.7 6.4 8.9 7.8 13.2 9.6 8.3 8.7 8.2 8 6.5 2.8 2.5 2.4 2.1 2 1.8 1.6 1.3 1.2 1 0.8 0.4 0.1 -0.2 -0.6 -0.9 -1.3 -1.6 -1.9 -2.3 -2.6 -2.7 -2.6 -2.6 -2.7 -2.7 -2.7 -2.6 -2.7 -2.6 -2.6 -2.6 -2.7 -2.6 -2.6 -2.6 -2.6 -2.7 -2.6 -2.6 -2.6 -2.6 -2.6 -2.6 -2.6 -2.6 -2.6 -2.7 -2.6 -2.6 -2.6 -2.6 -2.6 -2.2 -1.7 -1.1 -0.6 0 0.5 1 1.6 2.1 2.6 6.2
14.2 12.9 12.1 11.9 12.1 12.5 12.1 11.3 9.7 10.1 9.6 9.1 9.7 9.8 9.8 10.1 10.9 12 13.1 14.5 14.7 15.8 16.1 15.8 15.5 14.8 13.8 13.2 12.7 12.4 12.4 12.8 12.8 12.7 12.7 11.1 10.7 10.7 10.6 10.5 10.8 9.9 9.8 10.4 10 10.7 10.5 10.3 10.5 10.3 10.1 10 10 10.2 10.5 11.1 11.5 11.9 11.8 12.5 17.4 19.6 21.6 11.7 15.1 12.7 13.6 20.1 12.9 11.8 12.8 15.1 18.9 15.6 14 13.2 14 14.4 18.3 13 12.8 10.8 12.5 12.6 17 11.8 15.1 12.2 10.9 10 11.9 10.3 11.5 11.1 10.9 11 10.8 11.4 9.2 9 8.9 11.6 8.3 8.7 12.2 11.8 12.4 13.8 8.1 7.5 8.1 9.4 11.1 6.8 9.6 8.3 6.7 11.4 8.3 11.8 7.6 6.2 13.4 9.6 6.7 9.2 9.9 9.6 8.9 8.7 9.6 8.9 7.4 7.7 2.8 2.6 2.4 2.2 2 1.8 1.7 1.5 1.3 1.1 0.9 0.8 0.5 0.4 0 -0.3 -0.7 -1 -1.3 -1.7 -2 -2.4 -2.6 -2.7 -2.6 -2.7 -2.6 -2.7 -2.7 -2.6 -2.7 -2.6 -2.6 -2.7 -2.6 -2.6 -2.6 -2.6 -2.7 -2.6 -2.6 -2.7 -2.6 -2.6 -2.6 -2.6 -2.6 -2.7 -2.6 -2.6 -2.6 -2.7 -2.6 -2.7 -2.6 -2.6 -1.8 -1.3 -0.7 -0.2 0.3 0.9 1.4 1.9 2.5 8.9
13.9 12.8 12.5 11.9 11.1 11.4 11 10.3 10.9 10.6 10.4 10.4 10.5 11.1 11.8 12.6 13.8 14.6 14.9 15.3 15.8 15.9 15.9 15.6 15 14.4 13.5 12.8 11.9 11.8 12.4 12.7 12.7 12.6 12.5 11.7 11 11.2 11.3 11.4 10.7 8.6 10.8 11.5 11 10.2 10.1 10.5 10.7 11 10.4 10.3 10.4 10.8 11.3 11.5 10.8 13.3 15 14.4 18.6 19 25.1 19.7 24.5 20 21 20.9 12.8 13.7 12.7 17.1 20.6 14.6 13.1 13.7 11.6 12.7 10.7 12.7 13.4 11.6 10.8 15.8 12.9 13.9 10.7 12.5 10.6 9.8 9.5 11.2 10 9.5 10.6 10.1 9.9 9.8 10.9 8.7 8.8 14.7 10.6 12.3 8.1 10.1 13.4 11.1 10 8.2 10.6 9.3 9.7 10.8 8.8 8.6 6.6 8.8 7.2 6.9 8 10.9 6.2 8.6 9.9 10 9 10 10.8 7.6 6.1 3.1 2.7 2.6 2.4 2.2 2 1.9 1.7 1.5 1.3 1.2 1.1 0.8 0.6 0.5 0.4 0.1 -0.1 -0.4 -0.7 -1.1 -1.4 -1.8 -2.1 -2.4 -2.7 -2.7 -2.6 -2.7 -2.6 -2.6 -2.7 -2.7 -2.7 -2.7 -2.6 -2.7 -2.6 -2.6 -2.6 -2.6 -2.6 -2.6 -2.6 -2.7 -2.6 -2.7 -2.7 -2.6 -2.7 -2.7 -2.6 -2.7 -2.7 -2.6 -2.6 -2.6 -2.6 -2.6 -2 -1.4 -0.9 -0.4 0.2 0.7 1.2 1.8 2.3 4.7
14.2 12.8 12.8 11.9 10.5 9.7 9.7 11 12 11.3 11.7 12.6 12.6 13.4 14.3 14.7 15.2 15.3 15.6 15.8 15.8 15.8 15.8 15.5 14.8 14.1 13.3 12.2 11.3 11.3 12 12.5 12.5 12.4 12.4 12.7 11.2 11.4 11.5 11.5 11.5 10.2 11.3 11.7 11.6 11.4 10.9 10.7 10.6 11 11.1 10.8 11.3 11.7 11.6 12.4 12.5 13.6 13.3 16.7 12.4 14.9 20.1 17.8 13.7 14.3 11.9 14 14.3 14.3 16.2 16.1 20.4 13.4 13.4 15 11.2 11.6 12.8 12.9 10.6 15 17.7 14.1 12.7 11.9 10.9 10.2 10.5 10.9 9.9 9.2 9.2 10 11.6 9.7 8.9 10.6 9.8 8.4 8.3 8.9 11.1 8.3 8.5 9.7 7.8 11.2 7.3 8.7 8.3 9.6 8 10.5 7 9.3 6.1 8.8 6.2 6.9 7.2 9.2 8.3 9.9 11.1 10.5 8.5 5.7 3.6 2.8 2.7 2.5 2.4 2.2 2 1.9 1.7 1.5 1.3 1.2 1 0.9 0.7 0.6 0.4 0.2 0.1 0 -0.2 -0.5 -0.8 -1.2 -1.5 -1.8 -2.2 -2.5 -2.7 -2.6 -2.6 -2.7 -2.6 -2.6 -2.7 -2.7 -2.7 -2.6 -2.7 -2.6 -2.6 -2.7 -2.6 -2.6 -2.6 -2.6 -2.7 -2.7 -2.6 -2.6 -2.7 -2.7 -2.7 -2.7 -2.6 -2.7 -2.6 -2.6 -2.6 -2.6 -2.6 -2.6 -2.2 -1.7 -1.1 -0.6 -0.1 0.5 1 1.6 2.2 2.8
13.9 12.8 12.6 10.8 10 10.2 9.9 10.8 11.8 14 14.6 15.1 15.5 15.3 15.3 15.7 16 16 15.9 15.9 15.9 15.8 15.8 15.3 14.5 13.3 12.3 11.2 11.2 11.1 11.3 11.9 12.1 12.2 13 11.1 11.7 11.6 11.6 11.6 10.2 11.7 11.8 11.8 11.7 11.6 11.5 11.4 11 11 11.8 11 11.3 11.4 11.6 12.6 14.1 13.5 18.8 15.4 23.5 22.4 20.8 12.5 11.7 12.8 14 13.1 14.7 14.7 14 15.1 19.7 14.2 13.3 11.4 12.7 11.6 16.6 13.7 13.4 15.8 14.9 13.1 12.2 12.3 11.2 10.6 10.7 10.2 9.4 9.6 9.4 10.3 9.3 9.1 9.8 8.4 10.8 10.7 10.1 8.2 8.1 8 7.6 9.4 8.5 7.8 8.8 8.7 6.6 7.4 7.7 6.2 6.9 11.7 7.4 8.2 5.6 8.7 6.3 8.6 10.6 5.8 7.2 3.5 2.8 2.7 2.6 2.4 2.3 2.2 2 1.8 1.7 1.5 1.3 1.2 1 0.8 0.6 0.5 0.4 0.3 0.1 -0.1 -0.2 -0.3 -0.4 -0.6 -0.9 -1.2 -1.6 -1.9 -2.2 -2.6 -2.7 -2.6 -2.6 -2.6 -2.6 -2.6 -2.7 -2.7 -2.6 -2.6 -2.6 -2.6 -2.6 -2.6 -2.7 -2.6 -2.6 -2.6 -2.6 -2.7 -2.6 -2.6 -2.6 -2.6 -2.6 -2.6 -2.6 -2.7 -2.7 -2.6 -2.6 -2.6 -2.6 -2.6 -2.4 -1.9 -1.3 -0.8 -0.3 0.3 0.9 1.4 2 2.6
16.1 14.4 11.8 10.3 9.8 10.1 10.3 11 11.9 14.6 15.5 15.7 16 15.9 16 16.2 16.4 16.2 16 16 15.9 15.8 15.7 15.2 13.9 13.8 13.1 11.5 11.3 11.1 11.1 11.3 11.5 11.5 11.3 10.9 11.6 11.7 11.7 11.7 8.5 12 12 12 11.8 11.7 11.6 11.6 11.4 11 11.6 11.6 11.3 11.6 12 12 12 13 13.1 13.6 13.9 14.3 16.1 14.8 13.7 14 13 13 12.4 14.3 12.4 14.7 14.1 20.4 11.9 11.6 11.4 10.9 13.5 13.8 11 16.1 14.6 14.6 11.7 12.7 9.6 10 9.7 9.9 9.4 9.4 10.3 9.2 11.1 9.1 8.7 8.3 9.9 9 10 8.2 7.6 7.8 8.9 8.8 8.3 8 6.6 8.4 7.9 6 6.6 6.4 10.6 8.1 7.8 8.3 5.9 8.4 7.1 6.3 3.8 2.8 2.7 2.6 2.4 2.3 2.2 2.1 1.9 1.8 1.6 1.4 1.3 1.1 0.9 0.8 0.7 0.4 0.3 0.1 0.1 0 -0.2 -0.3 -0.5 -0.6 -0.7 -0.9 -1 -1.3 -1.6 -2 -2.3 -2.6 -2.7 -2.7 -2.6 -2.6 -2.6 -2.6 -2.6 -2.7 -2.6 -2.6 -2.6 -2.6 -2.6 -2.6 -2.6 -2.6 -2.6 -2.6 -2.7 -2.7 -2.7 -2.6 -2.6 -2.6 -2.7 -2.6 -2.6 -2.7 -2.6 -2.6 -2.6 -2.6 -2.6 -2.6 -2.6 -2.1 -1.6 -1 -0.5 0.1 0.7 1.2 1.9 2.7
16.8 14.3 11.7 9.9 9.5 10 10.7 11.5 12.4 12.7 14.8 15.2 15.8 16.3 16.4 16.4 16.4 16.3 16.1 15.9 15.8 15.7 15.6 15.3 15.3 15.1 14.3 12.2 11.5 11.2 11.2 11.8 11.9 10.9 11 11.3 11.5 11.8 11.8 11.7 11.5 12.1 12.1 12 11.8 11.7 11.6 11.8 11.6 11.2 11.5 11.7 11.8 12.2 14.6 12.1 12.2 12.4 12.5 12.8 13.4 13.9 13.8 14 14.3 16 15.5 21.1 11.1 11.7 11.9 11.7 12.4 10.9 18.4 13.2 13.4 11.3 13.2 12.7 11.7 13.2 12.6 10.8 10.2 9.8 9.7 10 11.9 9.6 9.9 9 10.4 13.3 8.7 12.5 8.4 8.6 8.4 8.4 8.8 7.3 8.8 7.3 7.3 7.8 7.7 7.6 7.8 6.1 7.4 8 6.5 8.6 7.7 7.8 6.4 6 6 4.3 2.8 2.7 2.6 2.5 2.3 2.2 2.1 2 1.8 1.7 1.6 1.5 1.3 1.1 0.9 0.7 0.6 0.4 0.3 0.1 -0.1 -0.2 -0.3 -0.4 -0.5 -0.6 -0.8 -0.9 -1 -1.1 -1.3 -1.4 -1.7 -2.1 -2.4 -2.6 -2.7 -2.6 -2.6 -2.6 -2.6 -2.6 -2.7 -2.7 -2.6 -2.6 -2.6 -2.6 -2.6 -2.6 -2.6 -2.6 -2.6 -2.6 -2.6 -2.7 -2.6 -2.6 -2.6 -2.7 -2.6 -2.6 -2.7 -2.7 -2.6 -2.6 -2.7 -2.7 -2.6 -2.7 -2.6 -2.6 -1.8 -1.3 -0.7 -0.1 0.5 1.3 2.4 3.3
14.6 12.5 11 9.8 9.9 10.6 11.6 13.2 14.8 15.5 15.5 15.1 15.4 16 16.3 16.2 16.4 16.6 16.5 16.4 16.3 16.2 16 15.7 15.8 15.5 14.7 12.8 11.5 11.2 11.4 11.7 11.9 12 11.5 11.6 11.5 11.7 11.8 9.1 11.4 11.5 12.2 12 11.8 11.6 11.8 12 11.8 11.5 11.6 11.5 14.1 14.8 13.1 18.2 12.3 12.3 12.4 12.5 12.9 13.4 13.5 13.6 13.9 14.3 19 18.8 14.2 12.7 12.4 15.8 14.9 13.7 15 14.2 11.3 11.7 14.1 12.7 13.1 10.9 11 9.9 9.5 9.7 9.7 10.2 9.9 9.1 10.2 9.3 8.8 8.2 8.7 11.9 8.9 9.5 8.5 8 7.8 7.6 7 7 7.3 8.5 6.2 6.9 5.7 6.6 7.6 8.4 6.5 8 6.6 5 4 2.8 2.7 2.6 2.5 2.3 2.2 2.1 2 1.8 1.7 1.6 1.5 1.4 1.2 1.1 1 0.8 0.5 0.4 0.2 0 -0.1 -0.2 -0.4 -0.6 -0.7 -0.7 -0.8 -0.9 -1.1 -1.2 -1.4 -1.4 -1.5 -1.6 -1.8 -2.1 -2.5 -2.7 -2.7 -2.6 -2.7 -2.7 -2.6 -2.6 -2.6 -2.6 -2.7 -2.6 -2.6 -2.6 -2.6 -2.6 -2.6 -2.6 -2.7 -2.6 -2.7 -2.7 -2.6 -2.6 -2.6 -2.7 -2.6 -2.6 -2.6 -2.6 -2.7 -2.7 -2.6 -2.6 -2.6 -2.7 -2.6 -2.6 -2.1 -1.6 -1 -0.1 0.8 1.7 1.2 1.7
13.7 11.4 10.4 9.4 10.6 11.6 12.6 14.6 16 15.9 15.9 15.5 15.3 15.7 16.2 16.3 16.4 16.6 16.7 16.9 16.8 16.6 16.3 16 15.6 15.2 14.9 12.7 11.4 11.6 11.9 12.1 12.1 12 12.1 12.1 12.2 12.2 11.8 10.1 12.1 11.9 11.8 11.7 11.6 11.8 12 12.1 12.1 11.8 12.1 12.4 11.7 13.8 15 18.5 12.2 12.6 12.4 12.4 12.4 12.6 13 13.2 13.5 13.9 14.3 20.1 19.1 17.2 13 14.6 15.7 11.7 11.8 12.9 11.3 10.7 10.4 11.3 10.3 10.1 9.9 9.9 9.4 9.7 9.7 8.9 9.5 11.9 8.6 8.4 8.1 8 8.9 9.2 8.4 8.2 7.7 7.5 7.4 6.9 6.9 8.9 7.9 6.9 6.4 6.6 7.2 7 7 7.4 5.9 4.3 2.8 2.7 2.6 2.4 2.3 2.2 2.1 2 1.9 1.7 1.6 1.5 1.4 1.3 1.1 1 0.9 0.7 0.6 0.4 0.2 0 -0.2 -0.3 -0.5 -0.6 -0.8 -0.9 -1.1 -1.1 -1.2 -1.3 -1.4 -1.5 -1.6 -1.7 -1.8 -1.9 -2 -2.2 -2.5 -2.7 -2.7 -2.6 -2.6 -2.6 -2.6 -2.6 -2.6 -2.7 -2.6 -2.6 -2.6 -2.6 -2.6 -2.6 -2.6 -2.6 -2.7 -2.6 -2.6 -2.7 -2.6 -2.6 -2.6 -2.7 -2.7 -2.6 -2.7 -2.6 -2.6 -2.7 -2.7 -2.7 -2.7 -2.7 -2.6 -2.6 -2.6 -1.6 -1.3 -0.7 -0.2 0.4 1.4 2.1
13.2 10.7 10.1 10.6 11.5 12.4 14.8 16.4 16 15.8 15.8 15.7 15.5 15.7 16.1 16.2 16.3 16.3 16.4 17 16.9 16.6 16 15.6 15.2 14.8 14.8 13.4 11.8 11.8 12.3 12.2 12.1 12.1 12.1 12 12 12.1 11.6 11.6 11.5 11.3 11.3 11.4 11.5 11.5 12 12.3 12.3 12.9 13.5 15.3 12 15.5 17.4 12.5 12.5 12.9 13.3 12.7 12.3 12.4 12.6 12.8 13.1 13.4 13.8 16.2 21.8 11.1 12.4 13.5 15.3 13.7 13 10.5 10.8 10.3 10.3 10.1 9.9 9.8 9.8 9.8 9.7 9.2 9.1 9.8 9.1 9 11.5 8.8 8.4 8.2 8.2 8.5 6.2 6.7 7.1 6.9 7.6 8.1 7.2 5.8 9.5 6.4 6.9 6.2 7.1 5.9 4.6 3.3 2.8 2.6 2.5 2.3 2.2 2 1.9 1.9 1.8 1.6 1.5 1.4 1.3 1.1 1 0.9 0.8 0.7 0.5 0.4 0.2 0.1 -0.1 -0.4 -0.6 -0.7 -0.9 -1 -1.1 -1.3 -1.4 -1.5 -1.5 -1.6 -1.7 -1.8 -2 -2.1 -2.1 -2.2 -2.3 -2.3 -2.6 -2.7 -2.6 -2.6 -2.6 -2.6 -2.6 -2.6 -2.7 -2.6 -2.7 -2.6 -2.6 -2.6 -2.6 -2.6 -2.6 -2.7 -2.6 -2.7 -2.7 -2.6 -2.6 -2.6 -2.6 -2.6 -2.7 -2.7 -2.6 -2.6 -2.6 -2.6 -2.7 -2.7 -2.7 -2.7 -2.7 -2.6 -2.6 -2.1 -1.6 -1 -0.3 0.5 1.1 2
12.1 10.4 10.1 10.2 11.4 12.8 15.4 16.4 16 15.7 15.7 15.7 16.2 16.2 16.1 16.1 16.1 16.2 16.5 16.9 16.9 16.6 16.2 15.5 15 14.7 14.8 14.4 12.6 12.2 12.2 12.2 12.1 12.1 12 12 11.9 11.9 11.5 11.4 11.4 11.3 11.3 11.3 11.4 10.9 12.1 12.4 12.9 12.6 14.4 12.5 15.4 12.1 20.1 12 13.3 18.4 12.5 12.4 12.4 12.4 12.4 12.5 12.6 13 13.4 14 19.1 14.2 13.9 12.1 11.7 13.1 14.6 11 10.2 10 9.8 9.5 9.6 9.7 9.8 9.4 9 9.4 9.2 10.1 8.3 8.7 9.5 9.8 8.3 7.5 7.1 7.1 6.4 6.9 7.3 7.7 7.7 7.2 5.7 6.7 6.2 5.7 7.6 5.2 4.5 2.9 2.7 2.5 2.4 2.2 2.1 1.9 1.8 1.7 1.5 1.5 1.4 1.3 1.2 1 0.9 0.8 0.7 0.5 0.4 0.3 0.2 0 -0.1 -0.3 -0.4 -0.7 -0.9 -1.1 -1.3 -1.4 -1.5 -1.7 -1.8 -1.9 -1.9 -2 -2 -2.1 -2.3 -2.4 -2.6 -2.6 -2.6 -2.6 -2.6 -2.6 -2.6 -2.6 -2.6 -2.6 -2.6 -2.6 -2.6 -2.6 -2.6 -2.6 -2.6 -2.6 -2.6 -2.6 -2.6 -2.6 -2.6 -2.6 -2.6 -2.6 -2.6 -2.6 -2.6 -2.6 -2.6 -2.6 -2.6 -2.7 -2.6 -2.6 -2.7 -2.7 -2.7 -2.6 -2.7 -2.7 -2.6 -2.6 -1.8 -1.1 -0.4 0.6 1.5 2.7
11.1 10.2 10.4 10.4 11 12 13.9 15.9 15.8 15.7 15.8 16 16.2 16.2 16.2 16.2 16.2 16.1 16.6 16.8 16.8 16.7 16.3 15.8 15.4 14.9 14.3 13.7 12.5 12.2 12.2 12.2 12.2 12.1 12 11.9 11.8 11.8 11.7 11.9 11.8 11.7 11.6 11.6 11.5 11.4 12.2 13.1 13.1 15.8 12.3 15.5 13.9 15.4 18.2 14.1 14.8 19 12.7 12.5 12.4 12.3 12.1 12.1 12.2 12.6 13.1 13.1 13.3 12.9 11 12.5 10.9 11.5 10.8 10.3 10 9.5 9.3 9.3 9.4 9.5 9.4 9.8 9.5 10 9.3 10 8.8 8.8 10.2 7.8 7.1 6.7 7 6.8 7.3 6.2 7 7.3 8.1 6.2 6.6 5.4 6.5 4.7 3.1 2.8 2.6 2.5 2.3 2.2 2 1.8 1.7 1.5 1.4 1.3 1.2 1.1 1 0.9 0.8 0.7 0.6 0.4 0.3 0.2 0.1 -0.1 -0.2 -0.3 -0.5 -0.6 -0.8 -1 -1.2 -1.5 -1.6 -1.8 -1.9 -2 -2.1 -2.3 -2.3 -2.3 -2.4 -2.6 -2.6 -2.6 -2.6 -2.6 -2.6 -2.6 -2.6 -2.6 -2.6 -2.6 -2.6 -2.6 -2.6 -2.6 -2.6 -2.6 -2.6 -2.6 -2.6 -2.6 -2.6 -2.6 -2.6 -2.6 -2.6 -2.6 -2.6 -2.6 -2.6 -2.6 -2.6 -2.6 -2.6 -2.6 -2.6 -2.7 -2.6 -2.7 -2.7 -2.7 -2.6 -2.6 -2.6 -2.7 -2.6 -2.6 -1.9 -1 -0.1 0.4 1.1 1.8
11.1 10.2 9.8 10.2 10.8 11 12.6 15.4 16.3 16.3 16.3 16.2 16.2 16 16 16 16.2 16.4 16.6 16.7 16.7 16.7 16.4 16 15.5 15 14.6 13.8 12.3 12.3 12.3 12.4 12.3 12.1 12 11.9 11.7 11.6 11.9 12.4 12.1 12 11.9 11.9 11.9 12.7 12.7 13.8 12.6 12.7 13.1 20.7 11.9 18.1 16.7 17 20.4 18.3 21.1 12.3 12.3 12.2 12 11.8 11.8 12.1 12.5 12.6 13 13.2 11.3 12.2 10.7 11.1 10.1 10.1 9.6 9.1 9.3 9.3 9.3 9.4 9.4 10.3 8.9 8.2 9.2 8.3 8 8.1 7.2 6.9 6.2 6.7 7 6.9 6.9 6.5 7 6.6 5.4 6 4.8 3.8 2.9 2.7 2.6 2.4 2.3 2.1 2 1.8 1.6 1.5 1.3 1.2 1 0.9 0.8 0.7 0.7 0.6 0.4 0.3 0.2 0.1 0 -0.2 -0.3 -0.4 -0.5 -0.7 -0.8 -1 -1.1 -1.3 -1.6 -1.8 -2 -2.2 -2.3 -2.4 -2.6 -2.6 -2.6 -2.6 -2.6 -2.6 -2.6 -2.6 -2.6 -2.6 -2.6 -2.6 -2.6 -2.6 -2.6 -2.6 -2.6 -2.6 -2.6 -2.6 -2.6 -2.6 -2.6 -2.6 -2.6 -2.6 -2.6 -2.6 -2.6 -2.6 -2.6 -2.6 -2.6 -2.6 -2.6 -2.6 -2.6 -2.6 -2.6 -2.6 -2.6 -2.6 -2.7 -2.6 -2.6 -2.6 -2.6 -2.6 -2.7 -2.7 -2.6 -2.6 -2 -1.4 -0.8 -0.1 0.7 1.6
12.3 10.6 10 10.3 10.7 10.8 11.5 14.7 16.2 16.3 16.3 16.2 16.1 15.8 15.8 16 16.2 16.4 16.6 16.4 15.9 15.3 15.7 16.1 15.6 14.8 13.9 13.3 12.4 12.1 12.1 11.6 11.4 11.9 11.7 11.5 11.4 11.7 12 12.4 12.2 12 12 12 12 12.9 13.6 13.7 13.4 12.5 12.4 14.8 14.9 20.2 17.6 12 17.2 23.3 17.5 19.2 12.3 12.1 12 11.7 11.5 11.8 12 12.4 12.8 13.2 12.6 11.9 11.1 11.2 9.9 9.6 9.4 9.1 9.4 9.3 9.2 9.8 9.4 9.4 8.3 8.4 8.1 7.6 7.3 7.1 7 6.5 7.1 7.3 6.4 7.3 6.2 6.2 6.2 6.3 5.2 3.8 2.8 2.7 2.5 2.4 2.2 2 1.9 1.7 1.6 1.4 1.2 1.1 0.9 0.8 0.6 0.5 0.4 0.3 0.3 0.2 0.1 0 -0.1 -0.3 -0.4 -0.5 -0.6 -0.8 -0.9 -1 -1.2 -1.3 -1.5 -1.6 -1.9 -2.1 -2.4 -2.6 -2.6 -2.7 -2.6 -2.6 -2.6 -2.6 -2.6 -2.6 -2.6 -2.6 -2.6 -2.6 -2.6 -2.6 -2.6 -2.6 -2.6 -2.6 -2.6 -2.6 -2.6 -2.6 -2.6 -2.6 -2.6 -2.6 -2.6 -2.6 -2.6 -2.6 -2.6 -2.6 -2.6 -2.6 -2.6 -2.6 -2.6 -2.6 -2.6 -2.6 -2.6 -2.6 -2.6 -2.6 -2.6 -2.6 -2.6 -2.6 -2.7 -2.7 -2.6 -2.6 -2.6 -2.6 -1.8 -0.8 0.2 1.3 2.3 3.3
14.1 11.7 10.6 10.2 9.6 10.5 11.9 13.6 15.6 16.3 16.3 16.5 16 15.8 15.9 16 16.3 16.5 16.5 15.9 15.4 15 15.3 15.7 15.1 14.3 13.9 13.7 12.9 11.9 11.5 11.3 11.4 11.5 11.3 11.3 11.5 11.8 12.1 12.4 12.2 12 12 12 12.6 13.6 13.3 13.2 12.7 15.8 15.6 14.7 19.7 17.4 18.4 14.3 14.2 16.4 14.5 16.6 12.5 12.1 11.9 11.7 11.4 11.3 11.6 12 12.3 12.7 13 10 9.4 10 9.7 9.6 9.3 9.2 9.3 9.6 9.5 8.6 8.6 7.9 8.2 8.4 7.2 7.1 6.6 6.5 6.4 6.9 7 6.9 6.3 6 6.4 6.4 5.2 3.1 2.8 2.6 2.5 2.3 2.2 2 1.8 1.7 1.5 1.3 1.2 1 0.9 0.7 0.5 0.4 0.2 0.1 0 -0.1 -0.1 -0.2 -0.3 -0.4 -0.5 -0.6 -0.7 -0.9 -1 -1.1 -1.2 -1.4 -1.5 -1.7 -1.8 -2 -2.2 -2.4 -2.6 -2.6 -2.6 -2.6 -2.6 -2.6 -2.6 -2.6 -2.6 -2.6 -2.6 -2.6 -2.6 -2.6 -2.6 -2.6 -2.6 -2.6 -2.6 -2.6 -2.6 -2.6 -2.6 -2.6 -2.6 -2.6 -2.6 -2.6 -2.6 -2.6 -2.6 -2.6 -2.6 -2.6 -2.6 -2.6 -2.6 -2.6 -2.6 -2.6 -2.6 -2.6 -2.6 -2.6 -2.6 -2.6 -2.6 -2.6 -2.6 -2.6 -2.6 -2.6 -2.6 -2.6 -2.6 -2.6 -2.1 -1.1 -0.1 0.9 1.9 2.9
16.7 14.5 12 10.3 9.6 9.5 11 12.3 14 16.4 16.5 16.7 15.9 16.1 16.2 16.2 16.3 16.5 16 16.3 16.7 14.9 15.3 15.2 14.6 14.4 14.2 13.5 12.1 11.9 11.3 11.3 11.4 11.4 11.2 11.3 11.5 11.8 12 12.2 12.2 12 12 12.1 12.7 13.1 13.2 13.2 13.2 15.2 14.3 20.7 17.3 16.9 12.1 15.8 13.7 12.9 13.1 11.9 12.2 11.9 11.6 11.6 11.3 11 11.2 11.5 11.8 12.2 12.4 12.4 10 9.6 9.6 9.6 9.3 9.3 9.4 8.7 8 8.6 6.9 7.8 7.3 7.3 6.6 6.5 6.8 6.2 6.7 6.1 6.9 6.5 5.5 6.5 5 3.1 2.8 2.6 2.4 2.3 2.1 2 1.8 1.7 1.5 1.3 1.1 1 0.8 0.7 0.5 0.3 0.2 0 -0.1 -0.3 -0.4 -0.4 -0.5 -0.5 -0.7 -0.8 -0.9 -1 -1.1 -1.2 -1.3 -1.5 -1.6 -1.7 -1.9 -2 -2.2 -2.3 -2.5 -2.6 -2.6 -2.6 -2.6 -2.6 -2.6 -2.6 -2.6 -2.6 -2.6 -2.6 -2.6 -2.6 -2.6 -2.6 -2.6 -2.6 -2.6 -2.6 -2.6 -2.6 -2.6 -2.6 -2.6 -2.6 -2.6 -2.6 -2.6 -2.6 -2.6 -2.6 -2.6 -2.6 -2.6 -2.6 -2.6 -2.6 -2.6 -2.6 -2.6 -2.6 -2.6 -2.6 -2.6 -2.6 -2.6 -2.6 -2.6 -2.6 -2.6 -2.7 -2.7 -2.6 -2.6 -2.6 -2.6 -2.6 -2.6 -1.8 -0.8 0.2 1.2 2.2
17.7 18.2 14.8 11.3 10.2 10.1 10.3 11.6 12.9 14.9 16.2 16.6 16.6 16.5 16.4 16.5 16.5 16.4 16 15.8 15.8 14.5 13.8 13.4 13.2 14.2 14.4 13.9 12.7 12.3 11.2 11.2 11.2 11.4 11.3 11.4 11.5 11.7 11.9 12.1 12 12.1 12.3 12.5 12.3 12.5 13 13.2 12.2 12.5 16 14.3 13 12.4 11.4 13.4 13.1 14.9 13.1 15.5 14.7 11.3 12 11.4 11.1 10.8 10.8 11.1 11.4 11.7 12 12.3 9.5 9.4 9.3 9.4 9.1 8.3 8.5 8.5 7.9 7.4 7 7.3 6.6 6.8 6.5 6.5 6.1 6.5 7.3 5.6 5.3 5.9 4.7 3 2.8 2.6 2.4 2.3 2.1 2 1.8 1.6 1.5 1.3 1.1 1 0.8 0.6 0.4 0.3 0.1 -0.1 -0.2 -0.4 -0.5 -0.7 -0.8 -0.8 -0.9 -0.9 -1 -1.1 -1.2 -1.3 -1.4 -1.6 -1.7 -1.8 -1.9 -2.1 -2.2 -2.3 -2.6 -2.6 -2.6 -2.6 -2.6 -2.6 -2.6 -2.6 -2.6 -2.6 -2.6 -2.6 -2.6 -2.6 -2.6 -2.6 -2.6 -2.6 -2.6 -2.6 -2.6 -2.6 -2.6 -2.6 -2.6 -2.6 -2.6 -2.6 -2.6 -2.6 -2.6 -2.6 -2.6 -2.6 -2.6 -2.6 -2.6 -2.6 -2.6 -2.6 -2.6 -2.6 -2.6 -2.6 -2.6 -2.6 -2.6 -2.6 -2.6 -2.6 -2.6 -2.6 -2.6 -2.6 -2.6 -2.6 -2.6 -2.7 -2.6 -2.6 -2.6 -2.5 -1.5 -0.5 0.5 1.4
18.4 18.6 18 13 11.2 11.2 11.2 11.4 13.3 13.8 13.6 15.5 16.8 16.7 16.5 16.6 16.6 16.3 16 15.7 15.5 14.6 13.9 13.5 12.6 12.5 13 12.7 12.6 12.1 11.2 11.2 11 11.4 11.5 11.6 11.6 11.7 11.8 11.9 11.9 12.1 12.4 12.7 12.9 13.5 13.3 12.6 11.6 11.5 18.3 17 14.3 12.6 14 16 13.5 13.7 11.8 11.5 14.9 11.6 11.6 11.2 10.9 10.5 10.5 10.8 11 11.3 11.6 11.9 12.1 8.9 9 9.2 8.6 8.1 7.6 7.4 7.3 6.9 6.9 6.8 6.8 6.4 7.1 6.5 7.3 5.8 5.5 6.4 4.9 3.2 2.8 2.6 2.4 2.3 2.1 1.9 1.8 1.6 1.5 1.3 1.1 0.9 0.8 0.6 0.4 0.2 0.1 -0.1 -0.3 -0.4 -0.6 -0.8 -0.9 -1.1 -1.2 -1.2 -1.3 -1.3 -1.4 -1.5 -1.6 -1.7 -1.8 -1.9 -2 -2.2 -2.3 -2.4 -2.6 -2.6 -2.6 -2.6 -2.6 -2.6 -2.6 -2.6 -2.6 -2.6 -2.6 -2.6 -2.6 -2.6 -2.6 -2.6 -2.6 -2.6 -2.6 -2.6 -2.6 -2.6 -2.6 -2.6 -2.6 -2.6 -2.6 -2.6 -2.6 -2.6 -2.6 -2.6 -2.6 -2.6 -2.6 -2.6 -2.6 -2.6 -2.6 -2.6 -2.6 -2.6 -2.6 -2.6 -2.6 -2.6 -2.6 -2.6 -2.6 -2.6 -2.6 -2.6 -2.6 -2.6 -2.6 -2.6 -2.6 -2.6 -2.6 -2.6 -2.6 -2.6 -2.6 -2.6 -2.2 -1.2 -0.4 -0.1
18.4 18.8 18.8 17.1 12.5 11.8 12.2 12.7 13.3 13 13.1 16.5 16.6 16.6 16.4 16.6 16.6 16.3 16 15.7 15.7 15.1 14 13.4 12.7 12.1 11.4 11.5 11.7 11.7 11.6 11.3 10.8 11.2 11.4 11.5 11.5 11.6 11.8 11.8 12.1 12.3 12.5 13 15.1 14 12.7 11.3 11.9 12.9 13.5 15.8 15.8 13.4 11.6 15.4 14.4 12.5 13 17.8 17.1 12.5 10.4 11.3 10.7 10.3 10.2 10.4 10.6 10.8 11.1 11.4 11.7 9.9 8.8 9 8.2 7.9 7.8 6.7 7 6.8 6.7 6.9 7.7 6 6.9 6 7.7 5.7 4.2 3.5 2.8 2.6 2.4 2.3 2.1 1.9 1.8 1.6 1.4 1.3 1.1 0.9 0.8 0.6 0.4 0.3 0.1 -0.1 -0.3 -0.5 -0.7 -0.8 -1 -1.1 -1.3 -1.5 -1.6 -1.6 -1.7 -1.7 -1.7 -1.9 -2 -2.1 -2.2 -2.3 -2.4 -2.6 -2.6 -2.6 -2.6 -2.6 -2.6 -2.6 -2.6 -2.6 -2.6 -2.6 -2.6 -2.6 -2.6 -2.6 -2.6 -2.6 -2.6 -2.6 -2.6 -2.6 -2.6 -2.6 -2.6 -2.6 -2.6 -2.6 -2.6 -2.6 -2.6 -2.6 -2.6 -2.6 -2.6 -2.6 -2.6 -2.6 -2.6 -2.6 -2.6 -2.6 -2.6 -2.6 -2.6 -2.6 -2.6 -2.6 -2.6 -2.6 -2.6 -2.6 -2.6 -2.6 -2.6 -2.6 -2.6 -2.6 -2.6 -2.6 -2.6 -2.6 -2.6 -2.6 -2.6 -2.6 -2.6 -2.6 -2.6 -2.6 -1.5 -0.7
17.5 18.5 18.7 17.9 16.2 15 14.8 15.4 13.7 12.7 13.4 16.1 16.4 16.4 16.1 16 16.3 16.3 16 16 15.9 15.8 14 13.3 12.6 12 11.3 11 11.2 11.3 11.2 10.4 11 11 11.2 11.3 11.3 11.4 11.6 12 12.9 13.1 13.2 15 18.2 14.6 15.3 11.9 12.1 15.4 14.5 13.5 13.6 12.9 11.3 11.2 15.7 14.6 15 12.3 11.2 10.6 10.1 10.5 10.6 10 9.9 10 10.2 10.4 10.7 11 11 10.9 9 8.8 7.8 7.4 7.4 6.7 6.7 7.1 6.5 6.3 5.9 7.5 6.1 5.6 5.3 3.8 2.8 2.6 2.5 2.3 2.1 2 1.8 1.6 1.4 1.3 1.1 0.9 0.8 0.6 0.4 0.3 0.1 -0.1 -0.3 -0.5 -0.6 -0.8 -1 -1.2 -1.4 -1.5 -1.7 -1.8 -2 -2 -2.1 -2.1 -2.1 -2.2 -2.3 -2.4 -2.5 -2.6 -2.6 -2.6 -2.6 -2.6 -2.6 -2.6 -2.6 -2.6 -2.6 -2.6 -2.6 -2.6 -2.6 -2.6 -2.6 -2.6 -2.6 -2.6 -2.6 -2.6 -2.6 -2.6 -2.6 -2.6 -2.6 -2.6 -2.6 -2.6 -2.6 -2.6 -2.6 -2.6 -2.6 -2.6 -2.6 -2.6 -2.6 -2.6 -2.6 -2.6 -2.6 -2.6 -2.6 -2.6 -2.6 -2.6 -2.6 -2.6 -2.6 -2.6 -2.6 -2.6 -2.6 -2.6 -2.6 -2.6 -2.6 -2.6 -2.6 -2.6 -2.6 -2.6 -2.6 -2.6 -2.6 -2.6 -2.6 -2.7 -2.6 -2.6 -2.6 -2.6
17 17.8 18.2 17.8 17 16.2 16.5 16.9 16.1 14.6 14.4 15 15.7 16.3 15.9 15.6 15.9 16.2 16.2 16.2 16.2 15.6 14.3 13.2 12.6 11.9 11.3 11.2 11.1 10.8 10.5 11 11 11 11 11.1 11.2 11.5 11.5 12.9 13.6 13.8 14.4 16.8 14.6 12.8 16.5 14.2 11.2 14.7 14.5 11.3 15.9 14.6 11.1 11 11.6 11.2 12.4 11.8 10.5 10.1 10.1 9.9 9.8 10.3 9.9 9.6 9.8 10 10.2 10.1 10 10 9.9 8.4 7.2 6.8 6.7 6.4 7.9 6.8 6.2 7.5 5.4 5.5 5.7 3.8 2.8 2.7 2.5 2.3 2.1 2 1.8 1.6 1.5 1.3 1.1 1 0.8 0.6 0.5 0.3 0.1 -0.1 -0.2 -0.4 -0.6 -0.8 -1 -1.2 -1.4 -1.6 -1.7 -1.9 -2.1 -2.2 -2.4 -2.4 -2.4 -2.5 -2.5 -2.6 -2.6 -2.6 -2.6 -2.6 -2.6 -2.6 -2.6 -2.6 -2.6 -2.6 -2.6 -2.6 -2.6 -2.6 -2.6 -2.6 -2.6 -2.6 -2.6 -2.6 -2.6 -2.6 -2.6 -2.6 -2.6 -2.6 -2.6 -2.6 -2.6 -2.6 -2.6 -2.6 -2.6 -2.6 -2.6 -2.6 -2.6 -2.6 -2.6 -2.6 -2.6 -2.6 -2.6 -2.6 -2.6 -2.6 -2.6 -2.6 -2.6 -2.6 -2.6 -2.6 -2.6 -2.6 -2.6 -2.6 -2.6 -2.6 -2.6 -2.6 -2.6 -2.6 -2.6 -2.6 -2.6 -2.6 -2.6 -2.6 -2.6 -2.6 -2.6 -2.1 -2.1 -2.6 -2.6 -2.6
16.1 16.6 17 17 16.8 16.3 16.4 16.9 17.5 16.4 15.3 14.2 14.4 15.6 15.9 15.6 15.2 16.4 16.6 16.6 16.4 15.8 14.8 13.4 12.7 12 11.4 11 10.8 10.6 10.9 10.9 10.9 10.9 10.9 10.9 11 11.3 12.3 13.1 13.7 13.8 15.8 13.9 12.8 14.6 15.1 12.6 11.4 14.4 13.7 15.4 16.1 16.5 11.9 11.3 10.7 10.9 11.7 11.6 9.9 9.6 9.4 9.8 9.9 10.3 9.8 9.4 9.4 9.4 9.3 9.2 9.2 9.1 9 8.4 7.6 6.6 6.1 6.5 5.8 6.2 5.2 4.8 6.5 5.4 2.8 2.7 2.5 2.3 2.2 2 1.8 1.7 1.5 1.3 1.1 1 0.8 0.6 0.5 0.3 0.1 0 -0.2 -0.4 -0.6 -0.8 -0.9 -1.1 -1.3 -1.5 -1.7 -1.9 -2.1 -2.3 -2.6 -2.6 -2.6 -2.6 -2.6 -2.6 -2.6 -2.6 -2.6 -2.6 -2.6 -2.6 -2.6 -2.6 -2.6 -2.6 -2.6 -2.6 -2.6 -2.6 -2.6 -2.6 -2.6 -2.6 -2.6 -2.6 -2.6 -2.6 -2.6 -2.6 -2.6 -2.6 -2.6 -2.6 -2.6 -2.6 -2.6 -2.6 -2.6 -2.6 -2.6 -2.6 -2.6 -2.6 -2.6 -2.6 -2.6 -2.6 -2.6 -2.6 -2.6 -2.6 -2.6 -2.6 -2.6 -2.6 -2.6 -2.6 -2.6 -2.6 -2.6 -2.6 -2.6 -2.6 -2.6 -2.6 -2.6 -2.6 -2.6 -2.6 -2.6 -2.6 -2.6 -2.6 -2.6 -2.6 -2.6 -2.6 -2.6 -2.6 -2.6 -2.6 -2.6 -2.6
15.5 15.5 15.8 15.4 16 15.4 16.5 16.2 16.4 16.4 15.4 14.6 13.5 14.2 15.2 14.4 14.2 15.7 16.2 15.9 15.9 15.7 15.3 13.7 12.8 12.1 11.5 10.8 10.6 10.4 10.7 10.9 10.9 10.9 10.8 10.9 11.1 11.9 12.1 11.9 13.9 13.5 13.7 15.3 15.3 15.2 12.1 11.5 11.5 11.9 12.5 13.4 11.3 11.9 11 13.9 12 10.8 10.7 11.1 9.6 9.2 9.2 9.2 9 10 10.1 9.3 9.3 9.1 9 8.8 8.6 8.4 8.2 7.9 6.9 5.9 5.6 5.8 5.5 5.3 4.3 3.3 2.9 2.7 2.5 2.4 2.2 2 1.9 1.7 1.5 1.3 1.2 1 0.8 0.7 0.5 0.3 0.1 0 -0.2 -0.4 -0.5 -0.7 -0.9 -1.1 -1.3 -1.5 -1.7 -1.9 -2.1 -2.3 -2.6 -2.6 -2.6 -2.6 -2.6 -2.6 -2.6 -2.6 -2.6 -2.6 -2.6 -2.6 -2.6 -2.6 -2.6 -2.6 -2.6 -2.6 -2.6 -2.6 -2.6 -2.6 -2.6 -2.6 -2.6 -2.6 -2.6 -2.6 -2.6 -2.6 -2.6 -2.6 -2.6 -2.6 -2.6 -2.6 -2.6 -2.6 -2.6 -2.6 -2.6 -2.6 -2.6 -2.6 -2.6 -2.6 -2.6 -2.6 -2.6 -2.6 -2.6 -2.6 -2.6 -2.6 -2.6 -2.6 -2.6 -2.6 -2.6 -2.6 -2.6 -2.6 -2.6 -2.6 -2.6 -2.6 -2.6 -2.6 -2.6 -2.6 -2.6 -2.6 -2.6 -2.6 -2.6 -2.6 -2.6 -2.6 -2.6 -2.6 -2.6 -2.6 -2.6 -2.6 -2.6 -2.6
15.5 15.3 15.8 15.6 15.1 14.6 14.1 15.5 16.3 16.2 16 15.1 14 13.4 14.4 13 13.9 15 15.2 14.5 14.4 14.9 14.5 13.9 13 12.2 11.6 10.9 10.5 10.6 10.6 10.8 10.8 10.9 10.9 11 13 12.6 12.7 13.1 14.7 13.1 13.4 13.3 16.5 12.8 15.6 11.6 16.1 12.4 13.2 12.1 11.1 11 10.7 10.9 11.3 11.1 10.6 10.1 9.3 8.9 9.3 8.5 8.8 9 9.8 9.4 9.1 8.8 8.8 8.6 8.4 8.2 8.1 8 8 7.1 6.4 5.4 6 5.3 3.6 2.8 2.6 2.4 2.2 2.1 1.9 1.7 1.6 1.4 1.2 1.1 0.9 0.7 0.5 0.3 0.2 0 -0.2 -0.4 -0.5 -0.7 -0.9 -1.1 -1.3 -1.4 -1.6 -1.8 -2 -2.2 -2.6 -2.6 -2.6 -2.6 -2.6 -2.6 -2.6 -2.6 -2.6 -2.6 -2.6 -2.6 -2.6 -2.6 -2.6 -2.6 -2.6 -2.6 -2.6 -2.6 -2.6 -2.6 -2.6 -2.6 -2.6 -2.6 -2.6 -2.6 -2.6 -2.6 -2.6 -2.6 -2.6 -2.6 -2.6 -2.6 -2.6 -2.6 -2.6 -2.6 -2.6 -2.6 -2.6 -2.6 -2.6 -2.6 -2.6 -2.6 -2.6 -2.6 -2.6 -2.6 -2.6 -2.6 -2.6 -2.6 -2.6 -2.6 -2.6 -2.6 -2.6 -2.6 -2.6 -2.6 -2.6 -2.6 -2.6 -2.6 -2.6 -2.6 -2.6 -2.6 -2.6 -2.6 -2.6 -2.6 -2.6 -2.6 -2.6 -2.6 -2.6 -2.6 -2.6 -2.6 -2.6 -2.6 -2.6 -2.6
15.7 16.1 16.4 15.7 15.5 15.5 13 12 14.5 16 16.6 15.6 14.4 13.1 12.2 12.1 12.9 14.3 14.2 13.1 13.1 14 14.1 13.7 12.6 11.6 10.9 10.6 10.5 10.5 10.6 10.6 10.7 10.7 10.9 12 12.9 13.4 13.7 12.9 12.5 13.3 13.5 13.5 12.8 11.5 11.7 11.5 12 15.1 13.1 10.9 11 10.6 10.6 10.6 10.8 10.9 10.6 9.8 9.1 9 9.2 8.3 9.4 8.6 7.8 9.6 8.8 8.5 8.5 8.4 8.2 8.1 8 7.9 8.1 8.5 6.1 9.5 4.8 3.1 2.7 2.5 2.3 2.1 1.9 1.8 1.6 1.4 1.3 1.1 0.9 0.7 0.6 0.4 0.2 0 -0.1 -0.3 -0.5 -0.7 -0.9 -1 -1.2 -1.4 -1.6 -1.8 -1.9 -2.1 -2.3 -2.6 -2.6 -2.6 -2.6 -2.6 -2.6 -2.6 -2.6 -2.6 -2.6 -2.6 -2.6 -2.6 -2.6 -2.6 -2.6 -2.6 -2.6 -2.6 -2.6 -2.6 -2.6 -2.6 -2.6 -2.6 -2.6 -2.6 -2.6 -2.6 -2.6 -2.6 -2.6 -2.6 -2.6 -2.6 -2.6 -2.6 -2.6 -2.6 -2.6 -2.6 -2.6 -2.6 -2.6 -2.6 -2.6 -2.6 -2.6 -2.6 -2.6 -2.6 -2.6 -2.6 -2.6 -2.6 -2.6 -2.6 -2.6 -2.6 -2.6 -2.6 -2.6 -2.6 -2.6 -2.6 -2.6 -2.6 -2.6 -2.6 -2.6 -2.6 -2.6 -2.6 -2.6 -2.6 -2.6 -2.6 -2.6 -2.6 -2.6 -2.6 -2.6 -2.6 -2.6 -2.6 -2.6 -2.6 -2.6 -2.6
16.4 16.8 16.7 16.5 16.3 16.1 15.2 12.1 11.8 12.4 14 15.2 14.7 13.1 12.2 11.8 11.5 12.4 12.3 12.7 12.8 12.9 13.3 13.1 12.4 11.6 10.4 10.3 10.3 10.4 10.4 10.4 10.5 10.9 11.6 12.6 12.9 12.3 12.5 12.7 13 14.4 13.2 12.9 12.4 11.7 11.4 11.1 11 11.2 15.4 12.7 12.8 10.4 10.5 10.4 10.5 10.5 9.9 9.3 8.7 8.8 8.7 8 8.2 8 7.5 7.9 9.3 8.4 8.2 8.2 8.1 8 7.9 7.8 7.9 6.8 5.5 3.7 2.8 2.6 2.4 2.2 2 1.8 1.6 1.5 1.3 1.1 1 0.8 0.6 0.4 0.3 0.1 -0.1 -0.3 -0.4 -0.6 -0.8 -1 -1.2 -1.4 -1.5 -1.7 -1.9 -2.1 -2.3 -2.6 -2.6 -2.6 -2.6 -2.6 -2.6 -2.6 -2.6 -2.6 -2.6 -2.6 -2.6 -2.6 -2.6 -2.6 -2.6 -2.6 -2.6 -2.6 -2.6 -2.6 -2.6 -2.6 -2.6 -2.6 -2.6 -2.6 -2.6 -2.6 -2.6 -2.6 -2.6 -2.6 -2.6 -2.6 -2.6 -2.6 -2.6 -2.6 -2.6 -2.6 -2.6 -2.6 -2.6 -2.6 -2.6 -2.6 -2.6 -2.6 -2.6 -2.6 -2.6 -2.6 -2.6 -2.6 -2.6 -2.6 -2.6 -2.6 -2.6 -2.6 -2.6 -2.6 -2.6 -2.6 -2.6 -2.6 -2.6 -2.6 -2.6 -2.6 -2.6 -2.6 -2.6 -2.6 -2.6 -2.6 -2.6 -2.6 -2.6 -2.6 -2.6 -2.6 -2.6 -2.6 -2.6 -2.6 -2.6 -2.6 -2.6 -2.6
17 16.8 16.5 16.3 16.2 15.8 15.6 14.3 10.7 11.2 11.4 13.1 15.1 14.4 13 12.1 11.3 9.7 10.9 11.8 12 12 12 12 11.8 11 9.9 10.2 10.3 10.4 10.4 10.4 10.8 11.7 12.1 13 13.3 13.2 13.1 13.6 13 11.6 14.1 12.8 11.7 11.4 11 10.9 10.9 10.9 10.7 11.3 10.9 12.2 10.6 10.8 10.3 9.9 9.6 9.3 8.6 8.2 7.9 7.7 7.6 7.8 7.8 7.9 8.5 8 7.9 7.8 7.4 7.5 7.7 9 6.6 5.4 2.9 2.7 2.5 2.3 2.1 1.9 1.7 1.5 1.3 1.2 1 0.8 0.6 0.5 0.3 0.1 -0.1 -0.2 -0.4 -0.6 -0.8 -0.9 -1.1 -1.3 -1.5 -1.7 -1.9 -2 -2.2 -2.6 -2.6 -2.6 -2.6 -2.6 -2.6 -2.6 -2.6 -2.6 -2.6 -2.6 -2.6 -2.6 -2.6 -2.6 -2.6 -2.6 -2.6 -2.6 -2.6 -2.6 -2.6 -2.6 -2.6 -2.6 -2.6 -2.6 -2.6 -2.6 -2.6 -2.6 -2.6 -2.6 -2.6 -2.6 -2.6 -2.6 -2.6 -2.6 -2.6 -2.6 -2.6 -2.6 -2.6 -2.6 -2.6 -2.6 -2.6 -2.6 -2.6 -2.6 -2.6 -2.6 -2.6 -2.6 -2.6 -2.6 -2.6 -2.6 -2.6 -2.6 -2.6 -2.6 -2.6 -2.6 -2.6 -2.6 -2.6 -2.6 -2.6 -2.6 -2.6 -2.6 -2.6 -2.6 -2.6 -2.6 -2.6 -2.6 -2.6 -2.6 -2.6 -2.6 -2.6 -2.6 -2.6 -2.6 -2.6 -2.6 -2.6 -2.6 -2.6 -2.6
17.5 16.8 16.6 16.3 16.1 15.8 15.7 14.8 11.6 9.5 10.9 12.6 14.6 14.6 14.1 13 11.9 10.7 9.7 10.8 11.1 11.1 11.2 11.1 11 9.5 10 10.1 10.3 10.4 10.4 10.8 11.6 12.2 8.9 13.7 12.3 13.2 10.5 12.5 14.8 12.6 13.4 13.2 11 10.8 10.6 10.6 10.6 10.6 10.6 10.7 11.1 11 10.3 9.9 9 8.9 8.6 8.4 8 8 7.7 7.2 7.7 7 7.1 7.2 7.1 8.6 7.5 7.4 7.8 7.9 7.1 5.8 4 2.7 2.6 2.4 2.2 2 1.8 1.6 1.4 1.2 1 0.9 0.7 0.5 0.3 0.2 0 -0.2 -0.4 -0.5 -0.7 -0.9 -1.1 -1.2 -1.4 -1.6 -1.8 -2 -2.2 -2.4 -2.6 -2.6 -2.6 -2.6 -2.6 -2.6 -2.6 -2.6 -2.6 -2.6 -2.6 -2.6 -2.6 -2.6 -2.6 -2.6 -2.6 -2.6 -2.6 -2.6 -2.6 -2.6 -2.6 -2.6 -2.6 -2.6 -2.6 -2.6 -2.6 -2.6 -2.6 -2.6 -2.6 -2.6 -2.6 -2.6 -2.6 -2.6 -2.6 -2.6 -2.6 -2.6 -2.6 -2.6 -2.6 -2.6 -2.6 -2.6 -2.6 -2.6 -2.6 -2.6 -2.6 -2.6 -2.6 -2.6 -2.6 -2.6 -2.6 -2.6 -2.6 -2.6 -2.6 -2.6 -2.6 -2.6 -2.6 -2.6 -2.6 -2.6 -2.6 -2.6 -2.6 -2.6 -2.6 -2.6 -2.6 -2.6 -2.6 -2.6 -2.6 -2.6 -2.6 -2.6 -2.6 -2.6 -2.6 -2.6 -2.6 -2.6 -2.6 -2.6 -2.6 -2.6
17.2 16.8 16.5 16.2 16.2 15.8 15.6 15.2 12.8 10.4 10.6 12 13.9 14.4 13.9 13.1 11.9 11.1 10.1 9.6 10.1 10.3 10.4 10.2 9.7 9.7 9.9 10 10.2 10.3 10.8 11.6 11.5 11.2 10.6 11.6 14.4 12.9 12.3 10.9 11.4 14 12.7 13.1 10.8 10.4 10.4 10.4 10.4 10.5 10.7 10.9 10.9 11.8 9.3 9.4 9.2 8.4 8.2 7.9 7.6 7.6 7.3 7 6.9 7 7.2 6.7 7.1 7.7 8 8 7 9.3 4.7 2.8 2.6 2.4 2.2 2.1 1.9 1.7 1.5 1.3 1.1 0.9 0.7 0.6 0.4 0.2 0 -0.1 -0.3 -0.5 -0.7 -0.8 -1 -1.2 -1.4 -1.6 -1.7 -1.9 -2.1 -2.3 -2.6 -2.6 -2.6 -2.6 -2.6 -2.6 -2.6 -2.6 -2.6 -2.6 -2.6 -2.6 -2.6 -2.6 -2.6 -2.6 -2.6 -2.6 -2.6 -2.6 -2.6 -2.6 -2.6 -2.6 -2.6 -2.6 -2.6 -2.6 -2.6 -2.6 -2.6 -2.6 -2.6 -2.6 -2.6 -2.6 -2.6 -2.6 -2.6 -2.6 -2.6 -2.6 -2.6 -2.6 -2.6 -2.6 -2.6 -2.6 -2.6 -2.6 -2.6 -2.6 -2.6 -2.6 -2.6 -2.6 -2.6 -2.6 -2.6 -2.6 -2.6 -2.6 -2.6 -2.6 -2.6 -2.6 -2.6 -2.6 -2.6 -2.6 -2.6 -2.6 -2.6 -2.6 -2.6 -2.6 -2.6 -2.6 -2.6 -2.6 -2.6 -2.6 -2.6 -2.6 -2.6 -2.6 -2.6 -2.6 -2.6 -2.6 -2.6 -2.6 -2.6 -2.6 -2.6 -2.6
17.3 16.7 16.4 16.1 16.2 15.8 15.5 15.1 13.2 10.9 10.3 11.3 13.2 13.7 13.3 13.1 12.7 11.9 11.1 9.9 9.3 9.4 9.6 9.2 9.4 9.7 9.8 9.9 10 10.7 11.5 12.7 13.3 12 13 13.3 11.1 13.3 13.8 11.2 11.1 10.5 14.1 13 12.2 10.3 10.2 10.2 10.3 10.5 10.7 10.8 10.8 9.7 9.2 9 8.7 8.3 8.2 7.9 7.4 7 7.2 6.8 6.8 7 7.3 7.3 6.4 7.3 8.3 8.1 6.9 3.7 2.7 2.5 2.3 2.1 1.9 1.8 1.6 1.4 1.2 1 0.8 0.6 0.5 0.3 0.1 -0.1 -0.3 -0.4 -0.6 -0.8 -1 -1.2 -1.3 -1.5 -1.7 -1.9 -2 -2.2 -2.4 -2.6 -2.6 -2.6 -2.6 -2.6 -2.6 -2.6 -2.6 -2.6 -2.6 -2.6 -2.6 -2.6 -2.6 -2.6 -2.6 -2.6 -2.6 -2.6 -2.6 -2.6 -2.6 -2.6 -2.6 -2.6 -2.6 -2.6 -2.6 -2.6 -2.6 -2.6 -2.6 -2.6 -2.6 -2.6 -2.6 -2.6 -2.6 -2.6 -2.6 -2.6 -2.6 -2.6 -2.6 -2.6 -2.6 -2.6 -2.6 -2.6 -2.6 -2.6 -2.6 -2.6 -2.6 -2.6 -2.6 -2.6 -2.6 -2.6 -2.6 -2.6 -2.6 -2.6 -2.6 -2.6 -2.6 -2.6 -2.6 -2.6 -2.6 -2.6 -2.6 -2.6 -2.6 -2.6 -2.6 -2.6 -2.6 -2.6 -2.6 -2.6 -2.6 -2.6 -2.6 -2.6 -2.6 -2.6 -2.6 -2.6 -2.6 -2.6 -2.6 -2.6 -2.6 -2.6 -2.6 -2.6
17.4 16.8 16.3 16.4 16.2 15.8 15.4 15 13.2 10.1 9.7 10.6 12.1 13.5 13.8 13.9 14 13.1 12 11.9 10 9.2 9.1 9.3 9.5 9.7 10.1 10.3 10.7 11.4 12 13.1 13.8 12.9 12.2 12.6 11.1 10.9 8.6 10.7 11.4 14.6 15.6 14.3 12 10.4 10 10 10.1 10.1 10.2 10.2 10 9.2 9 8.5 8.2 8.1 8 7.7 7.2 7.2 7.5 7.3 6.4 6.9 6.5 6.1 5.6 6.1 5.8 4.4 2.8 2.6 2.4 2.2 2 1.8 1.6 1.5 1.3 1.1 0.9 0.7 0.5 0.3 0.2 0 -0.2 -0.4 -0.6 -0.7 -0.9 -1.1 -1.3 -1.5 -1.6 -1.8 -2 -2.2 -2.4 -2.6 -2.6 -2.6 -2.6 -2.6 -2.6 -2.6 -2.6 -2.6 -2.6 -2.6 -2.6 -2.6 -2.6 -2.6 -2.6 -2.6 -2.6 -2.6 -2.6 -2.6 -2.6 -2.6 -2.6 -2.6 -2.6 -2.6 -2.6 -2.6 -2.6 -2.6 -2.6 -2.6 -2.6 -2.6 -2.6 -2.6 -2.6 -2.6 -2.6 -2.6 -2.6 -2.6 -2.6 -2.6 -2.6 -2.6 -2.6 -2.6 -2.6 -2.6 -2.6 -2.6 -2.6 -2.6 -2.6 -2.6 -2.6 -2.6 -2.6 -2.6 -2.6 -2.6 -2.6 -2.6 -2.6 -2.6 -2.6 -2.6 -2.6 -2.6 -2.6 -2.6 -2.6 -2.6 -2.6 -2.6 -2.6 -2.6 -2.6 -2.6 -2.6 -2.6 -2.6 -2.6 -2.6 -2.6 -2.6 -2.6 -2.6 -2.6 -2.6 -2.6 -2.6 -2.6 -2.6 -2.6 -2.6 -2.6
17.4 17.1 16.6 16.6 16.2 15.7 15.2 13.8 11.6 10.2 9.5 9.9 11.5 13.4 13.6 14.1 14.1 13.3 12.4 12.5 12 9.9 9 9.4 9.6 9.7 10.2 10.8 11.3 11.8 12.4 13 12.4 11.9 12.5 12.3 13 10 9 9.9 9.9 10.5 14.3 15.2 12.1 10.7 9.8 9.6 9.5 9.5 9.6 9.6 9.3 8.4 8.4 8.3 8 7.8 7.3 7.2 7.3 7.3 10.2 6.8 5.9 5.5 5.8 6.4 6.3 3.9 3.2 2.7 2.5 2.3 2.1 1.9 1.7 1.5 1.3 1.2 1 0.8 0.6 0.4 0.2 0.1 -0.1 -0.3 -0.5 -0.7 -0.9 -1 -1.2 -1.4 -1.6 -1.7 -1.9 -2.1 -2.3 -2.6 -2.6 -2.6 -2.6 -2.6 -2.6 -2.6 -2.6 -2.6 -2.6 -2.6 -2.6 -2.6 -2.6 -2.6 -2.6 -2.6 -2.6 -2.6 -2.6 -2.6 -2.6 -2.6 -2.6 -2.6 -2.6 -2.6 -2.6 -2.6 -2.6 -2.6 -2.6 -2.6 -2.6 -2.6 -2.6 -2.6 -2.6 -2.6 -2.6 -2.6 -2.6 -2.6 -2.6 -2.6 -2.6 -2.6 -2.6 -2.6 -2.6 -2.6 -2.6 -2.6 -2.6 -2.6 -2.6 -2.6 -2.6 -2.6 -2.6 -2.6 -2.6 -2.6 -2.6 -2.6 -2.6 -2.6 -2.6 -2.6 -2.6 -2.6 -2.6 -2.6 -2.6 -2.6 -2.6 -2.6 -2.6 -2.6 -2.6 -2.6 -2.6 -2.6 -2.6 -2.6 -2.6 -2.6 -2.6 -2.6 -2.6 -2.6 -2.6 -2.6 -2.6 -2.6 -2.6 -2.6 -2.6 -2.6 -2.6 -2.6
17.5 17.4 16.9 16 15.5 15 14.2 14 12.7 10.8 9.1 9.6 9.9 11.5 12.7 13.1 13.2 13.1 12.4 11.6 10.7 9.7 10.5 9.4 9.6 9.8 10.3 11.3 11.7 12.2 12.7 12.7 8.9 11.6 12.9 12.3 14 12.5 10 9.9 10.3 15.5 12.9 14 11.7 11.2 9.6 9.4 9.2 9 9 8.9 8.6 8.6 7.9 7.8 7.8 7.5 7.2 7.4 6.8 6.9 7.4 6.7 6.5 5.6 5.9 4.8 6 2.8 2.6 2.4 2.2 2 1.8 1.6 1.4 1.2 1.1 0.9 0.7 0.5 0.3 0.1 -0.1 -0.2 -0.4 -0.6 -0.8 -1 -1.2 -1.4 -1.5 -1.7 -1.9 -2 -2.2 -2.4 -2.6 -2.6 -2.6 -2.6 -2.6 -2.6 -2.6 -2.6 -2.6 -2.6 -2.6 -2.6 -2.6 -2.6 -2.6 -2.6 -2.6 -2.6 -2.6 -2.6 -2.6 -2.6 -2.6 -2.6 -2.6 -2.6 -2.6 -2.6 -2.6 -2.6 -2.6 -2.6 -2.6 -2.6 -2.6 -2.6 -2.6 -2.6 -2.6 -2.6 -2.6 -2.6 -2.6 -2.6 -2.6 -2.6 -2.6 -2.6 -2.6 -2.6 -2.6 -2.6 -2.6 -2.6 -2.6 -2.6 -2.6 -2.6 -2.6 -2.6 -2.6 -2.6 -2.6 -2.6 -2.6 -2.6 -2.6 -2.6 -2.6 -2.6 -2.6 -2.6 -2.6 -2.6 -2.6 -2.6 -2.6 -2.6 -2.6 -2.6 -2.6 -2.6 -2.6 -2.6 -2.6 -2.6 -2.6 -2.6 -2.6 -2.6 -2.6 -2.6 -2.6 -2.6 -2.6 -2.6 -2.6 -2.6 -2.6 -2.6 -2.6 -2.6
17.4 17.3 17.1 16 14.1 13.6 12.8 12.2 11.4 10.9 9.2 9.5 9.5 9.5 11 11.4 11.6 11.5 11.2 10.2 8.8 9.5 9.7 9.6 9.7 10 11.2 11.7 12.1 12.5 10.2 8.8 8.8 8.8 8.8 13.5 14.3 12.8 15.8 15.7 13.1 15 13.3 10.7 10.4 11.1 9.7 9.1 8.9 8.7 8.5 8.4 8.4 8.4 8.1 7.6 7.6 7.7 7.3 6.8 7 6 6.4 5.9 7.3 5.2 6.3 3.8 2.7 2.5 2.3 2.1 1.9 1.7 1.5 1.3 1.1 0.9 0.7 0.6 0.4 0.2 0 -0.2 -0.4 -0.6 -0.7 -0.9 -1.1 -1.3 -1.5 -1.7 -1.8 -2 -2.2 -2.3 -2.5 -2.6 -2.6 -2.6 -2.6 -2.6 -2.6 -2.6 -2.6 -2.6 -2.6 -2.6 -2.6 -2.6 -2.6 -2.6 -2.6 -2.6 -2.6 -2.6 -2.6 -2.6 -2.6 -2.6 -2.6 -2.6 -2.6 -2.6 -2.6 -2.6 -2.6 -2.6 -2.6 -2.6 -2.6 -2.6 -2.6 -2.6 -2.6 -2.6 -2.6 -2.6 -2.6 -2.6 -2.6 -2.6 -2.6 -2.6 -2.6 -2.6 -2.6 -2.6 -2.6 -2.6 -2.6 -2.6 -2.6 -2.6 -2.6 -2.6 -2.6 -2.6 -2.6 -2.6 -2.6 -2.6 -2.6 -2.6 -2.6 -2.6 -2.6 -2.6 -2.6 -2.6 -2.6 -2.6 -2.6 -2.6 -2.6 -2.6 -2.6 -2.6 -2.6 -2.6 -2.6 -2.6 -2.6 -2.6 -2.6 -2.6 -2.6 -2.6 -2.6 -2.6 -2.6 -2.6 -2.6 -2.6 -2.6 -2.6 -2.6 -2.6 -2.6 -2.6
17.3 17.1 17 16.7 15.5 13.9 14.3 11.5 10.2 9.5 9.2 9.2 9.3 9.3 9.2 9.5 10.1 10 9.3 9 9.2 9.5 9.6 9.7 9.9 10.6 11.4 11.9 13.1 12 11.6 13.9 13.6 8.8 13.9 17.6 18.2 16.9 14.1 12.8 12.3 12.7 12.7 10.7 10.2 9.7 10 8.9 8.7 8.5 8.3 8.3 8.2 8.2 8.1 7.6 7.4 7.7 7.4 8.3 7.9 5.5 5.7 6.7 7.4 5.2 2.8 2.6 2.4 2.2 2 1.8 1.6 1.4 1.2 1 0.8 0.6 0.4 0.3 0.1 -0.1 -0.3 -0.5 -0.7 -0.9 -1 -1.2 -1.4 -1.6 -1.8 -2 -2.1 -2.3 -2.5 -2.6 -2.6 -2.6 -2.6 -2.6 -2.6 -2.6 -2.6 -2.6 -2.6 -2.6 -2.6 -2.6 -2.6 -2.6 -2.6 -2.6 -2.6 -2.6 -2.6 -2.6 -2.6 -2.6 -2.6 -2.6 -2.6 -2.6 -2.6 -2.6 -2.6 -2.6 -2.6 -2.6 -2.6 -2.6 -2.6 -2.6 -2.6 -2.6 -2.6 -2.6 -2.6 -2.6 -2.6 -2.6 -2.6 -2.6 -2.6 -2.6 -2.6 -2.6 -2.6 -2.6 -2.6 -2.6 -2.6 -2.6 -2.6 -2.6 -2.6 -2.6 -2.6 -2.6 -2.6 -2.6 -2.6 -2.6 -2.6 -2.6 -2.6 -2.6 -2.6 -2.6 -2.6 -2.6 -2.6 -2.6 -2.6 -2.6 -2.6 -2.6 -2.6 -2.6 -2.6 -2.6 -2.6 -2.6 -2.6 -2.6 -2.6 -2.6 -2.6 -2.6 -2.6 -2.6 -2.6 -2.6 -2.6 -2.6 -2.6 -2.6 -2.6 -2.6 -2.6 -2.6
17.2 17.2 17.2 16.8 16.2 15.4 15 13.8 11.4 10.5 9.3 9.1 9 9 9.1 9.2 9.1 9.1 9 9 9.2 9.4 9.6 10 10.2 10.6 11.3 12.3 11.5 8.9 8.8 8.8 13 17.6 15.6 16.5 12.1 19 13.8 12.8 12 11.9 10.7 9.3 9.6 10.4 9.6 8.7 8.5 8.3 8.2 8.1 8.1 8 8 7.6 7.3 9.1 6.5 6.5 7.9 6 8.4 4.2 3.9 2.7 2.5 2.3 2.1 1.9 1.7 1.5 1.3 1.1 0.9 0.7 0.5 0.3 0.2 0 -0.2 -0.4 -0.6 -0.8 -1 -1.2 -1.4 -1.5 -1.7 -1.9 -2.1 -2.3 -2.4 -2.6 -2.6 -2.6 -2.6 -2.6 -2.6 -2.6 -2.6 -2.6 -2.6 -2.6 -2.6 -2.6 -2.6 -2.6 -2.6 -2.6 -2.6 -2.6 -2.6 -2.6 -2.6 -2.6 -2.6 -2.6 -2.6 -2.6 -2.6 -2.6 -2.6 -2.6 -2.6 -2.6 -2.6 -2.6 -2.6 -2.6 -2.6 -2.6 -2.6 -2.6 -2.6 -2.6 -2.6 -2.6 -2.6 -2.6 -2.6 -2.6 -2.6 -2.6 -2.6 -2.6 -2.6 -2.6 -2.6 -2.6 -2.6 -2.6 -2.6 -2.6 -2.6 -2.6 -2.6 -2.6 -2.6 -2.6 -2.6 -2.6 -2.6 -2.6 -2.6 -2.6 -2.6 -2.6 -2.6 -2.6 -2.6 -2.6 -2.6 -2.6 -2.6 -2.6 -2.6 -2.6 -2.6 -2.6 -2.6 -2.6 -2.6 -2.6 -2.6 -2.6 -2.6 -2.6 -2.6 -2.6 -2.6 -2.6 -2.6 -2.6 -2.6 -2.6 -2.6 -2.6 -2.6 -2.6
17.1 17.2 17.4 17 16.2 15.6 15.3 14.4 12.3 11.1 9.9 9.2 8.8 9 9.2 9.2 9.1 9.1 9 9.1 9.3 9.4 10.1 10.6 10.7 11 11.5 12.1 12.3 9.4 9.5 13.5 13.6 12.4 9.3 8.9 8.6 17.3 19.1 17.8 12.1 9 10.3 11.2 9.1 9.5 9.7 8.6 8.3 8.1 8 7.9 7.9 7.8 7.8 7.7 7.5 6.9 8.4 5.4 7.1 6 6 2.8 2.6 2.4 2.2 2 1.9 1.6 1.4 1.2 1 0.8 0.6 0.4 0.2 0.1 -0.1 -0.3 -0.5 -0.7 -0.9 -1.1 -1.3 -1.5 -1.7 -1.8 -2 -2.2 -2.4 -2.6 -2.6 -2.6 -2.6 -2.6 -2.6 -2.6 -2.6 -2.6 -2.6 -2.6 -2.6 -2.6 -2.6 -2.6 -2.6 -2.6 -2.6 -2.6 -2.6 -2.6 -2.6 -2.6 -2.6 -2.6 -2.6 -2.6 -2.6 -2.6 -2.6 -2.6 -2.6 -2.6 -2.6 -2.6 -2.6 -2.6 -2.6 -2.6 -2.6 -2.6 -2.6 -2.6 -2.6 -2.6 -2.6 -2.6 -2.6 -2.6 -2.6 -2.6 -2.6 -2.6 -2.6 -2.6 -2.6 -2.6 -2.6 -2.6 -2.6 -2.6 -2.6 -2.6 -2.6 -2.6 -2.6 -2.6 -2.6 -2.6 -2.6 -2.6 -2.6 -2.6 -2.6 -2.6 -2.6 -2.6 -2.6 -2.6 -2.6 -2.6 -2.6 -2.6 -2.6 -2.6 -2.6 -2.6 -2.6 -2.6 -2.6 -2.6 -2.6 -2.6 -2.6 -2.6 -2.6 -2.6 -2.6 -2.6 -2.6 -2.6 -2.6 -2.6 -2.6 -2.6 -2.6 -2.6 -2.6 -2.6
16.9 17 17.1 17.1 15.8 15.3 14.9 14.3 12.4 11.9 12.1 11 10.7 9.1 9.3 9.2 9 9 9.1 9.1 9.6 10.1 11 11.3 11.4 11.5 12.3 11.7 10.5 11.3 13.2 16.2 15.9 11.2 9.3 9.4 8.8 9.2 10.8 8.1 13.2 9.4 10.9 9.2 8.9 9.1 9.7 8.9 8.8 7.9 7.8 7.7 7.7 7.6 7.6 6.9 7.4 6.3 8.4 5.4 9.4 5.2 2.7 2.5 2.3 2.1 1.9 1.7 1.6 1.4 1.1 0.9 0.7 0.5 0.3 0.1 -0.1 -0.3 -0.4 -0.6 -0.8 -1 -1.2 -1.4 -1.6 -1.8 -2 -2.1 -2.3 -2.6 -2.6 -2.6 -2.6 -2.6 -2.6 -2.6 -2.6 -2.6 -2.6 -2.6 -2.6 -2.6 -2.6 -2.6 -2.6 -2.6 -2.6 -2.6 -2.6 -2.6 -2.6 -2.6 -2.6 -2.6 -2.6 -2.6 -2.6 -2.6 -2.6 -2.6 -2.6 -2.6 -2.6 -2.6 -2.6 -2.6 -2.6 -2.6 -2.6 -2.6 -2.6 -2.6 -2.6 -2.6 -2.6 -2.6 -2.6 -2.6 -2.6 -2.6 -2.6 -2.6 -2.6 -2.6 -2.6 -2.6 -2.6 -2.6 -2.6 -2.6 -2.6 -2.6 -2.6 -2.6 -2.6 -2.6 -2.6 -2.6 -2.6 -2.6 -2.6 -2.6 -2.6 -2.6 -2.6 -2.6 -2.6 -2.6 -2.6 -2.6 -2.6 -2.6 -2.6 -2.6 -2.6 -2.6 -2.6 -2.6 -2.6 -2.6 -2.6 -2.6 -2.6 -2.6 -2.6 -2.6 -2.6 -2.6 -2.6 -2.6 -2.6 -2.6 -2.6 -2.6 -2.6 -2.6 -2.6 -2.6 -2.6 -2.6
16.7 16.7 16.7 16.7 15.9 15.1 14.4 13.9 13.9 14.3 14.2 13.3 12 10.5 9.3 9.1 9 8.9 9 9.4 10.1 10.8 11.4 11.9 11.7 12 11.1 11.4 11.5 12.2 16.3 11.1 11 9.8 9.9 9.5 9.9 10.9 8.3 10.9 11.4 11.2 8.8 10.3 9.9 9.2 8.2 9.5 8.8 7.7 7.1 6.9 6.9 7.3 7.1 6.7 7.5 6 8.8 7.3 2.9 2.6 2.4 2.3 2 1.8 1.6 1.4 1.3 1.1 0.9 0.6 0.4 0.2 0 -0.2 -0.4 -0.6 -0.7 -0.9 -1.1 -1.3 -1.5 -1.7 -1.9 -2.1 -2.3 -2.6 -2.6 -2.6 -2.6 -2.6 -2.6 -2.6 -2.6 -2.6 -2.6 -2.6 -2.6 -2.6 -2.6 -2.6 -2.6 -2.6 -2.6 -2.6 -2.6 -2.6 -2.6 -2.6 -2.6 -2.6 -2.6 -2.6 -2.6 -2.6 -2.6 -2.6 -2.6 -2.6 -2.6 -2.6 -2.6 -2.6 -2.6 -2.6 -2.6 -2.6 -2.6 -2.6 -2.6 -2.6 -2.6 -2.6 -2.6 -2.6 -2.6 -2.6 -2.6 -2.6 -2.6 -2.6 -2.6 -2.6 -2.6 -2.6 -2.6 -2.6 -2.6 -2.6 -2.6 -2.6 -2.6 -2.6 -2.6 -2.6 -2.6 -2.6 -2.6 -2.6 -2.6 -2.6 -2.6 -2.6 -2.6 -2.6 -2.6 -2.6 -2.6 -2.6 -2.6 -2.6 -2.6 -2.6 -2.6 -2.6 -2.6 -2.6 -2.6 -2.6 -2.6 -2.6 -2.6 -2.6 -2.6 -2.6 -2.6 -2.6 -2.6 -2.6 -2.6 -2.6 -2.6 -2.6 -2.6 -2.6 -2.6 -2.6 -2.6 -2.6
16.6 16.6 16.5 16.5 16.1 15.3 14.6 14.2 14.5 15 15.2 14.8 13.1 10.4 10.1 9.1 9.1 8.7 9.3 9.9 10.6 11.3 12 12.6 12.5 12.8 12 9.9 12.7 13.1 16.4 12.4 11.4 11.6 9.1 8.1 13.6 10.6 7.7 8 7.9 14.8 9.2 8.3 7.5 10.1 8 10.7 8.3 7 6.6 6.1 6.1 6.5 6.4 7.3 8.4 9.4 8.1 2.8 2.6 2.4 2.1 2 1.8 1.5 1.4 1.2 1 0.8 0.6 0.4 0.1 -0.1 -0.3 -0.5 -0.7 -0.9 -1.1 -1.2 -1.4 -1.6 -1.8 -2 -2.2 -2.4 -2.6 -2.6 -2.6 -2.6 -2.6 -2.6 -2.6 -2.6 -2.6 -2.6 -2.6 -2.6 -2.6 -2.6 -2.6 -2.6 -2.6 -2.6 -2.6 -2.6 -2.6 -2.6 -2.6 -2.6 -2.6 -2.6 -2.6 -2.6 -2.6 -2.6 -2.6 -2.6 -2.6 -2.6 -2.6 -2.6 -2.6 -2.6 -2.6 -2.6 -2.6 -2.6 -2.6 -2.6 -2.6 -2.6 -2.6 -2.6 -2.6 -2.6 -2.6 -2.6 -2.6 -2.6 -2.6 -2.6 -2.6 -2.6 -2.6 -2.6 -2.6 -2.6 -2.6 -2.6 -2.6 -2.6 -2.6 -2.6 -2.6 -2.6 -2.6 -2.6 -2.6 -2.6 -2.6 -2.6 -2.6 -2.6 -2.6 -2.6 -2.6 -2.6 -2.6 -2.6 -2.6 -2.6 -2.6 -2.6 -2.6 -2.6 -2.6 -2.6 -2.6 -2.6 -2.6 -2.6 -2.6 -2.6 -2.6 -2.6 -2.6 -2.6 -2.6 -2.6 -2.6 -2.6 -2.6 -2.6 -2.6 -2.6 -2.6 -2.6 -2.6 -2.6
16.5 16.4 16.5 16.4 16 15.3 14.7 14.1 14.7 15.2 15.6 15.8 15.3 12.9 11.4 9.8 9.3 9 10.1 10.8 11.3 11.6 11.9 12.4 12.3 13.8 12 12.3 13 12.2 12.5 9.3 8.3 8 9.1 8.5 8 7.6 6.8 6.8 5.4 5.6 5.3 5.4 5 4.6 4.8 5 7.6 6.4 6 5.8 5.8 6 7.4 8.2 11.2 3 2.7 2.5 2.3 2.1 1.9 1.7 1.5 1.3 1.1 0.9 0.7 0.5 0.3 0.1 -0.1 -0.4 -0.6 -0.8 -1 -1.2 -1.4 -1.5 -1.7 -1.9 -2.1 -2.3 -2.6 -2.6 -2.6 -2.6 -2.6 -2.6 -2.6 -2.6 -2.6 -2.6 -2.6 -2.6 -2.6 -2.6 -2.6 -2.6 -2.6 -2.6 -2.6 -2.6 -2.6 -2.6 -2.6 -2.6 -2.6 -2.6 -2.6 -2.6 -2.6 -2.6 -2.6 -2.6 -2.6 -2.6 -2.6 -2.6 -2.6 -2.6 -2.6 -2.6 -2.6 -2.6 -2.6 -2.6 -2.6 -2.6 -2.6 -2.6 -2.6 -2.6 -2.6 -2.6 -2.6 -2.6 -2.6 -2.6 -2.6 -2.6 -2.6 -2.6 -2.6 -2.6 -2.6 -2.6 -2.6 -2.6 -2.6 -2.6 -2.6 -2.6 -2.6 -2.6 -2.6 -2.6 -2.6 -2.6 -2.6 -2.6 -2.6 -2.6 -2.6 -2.6 -2.6 -2.6 -2.6 -2.6 -2.6 -2.6 -2.6 -2.6 -2.6 -2.6 -2.6 -2.6 -2.6 -2.6 -2.6 -2.6 -2.6 -2.6 -2.6 -2.6 -2.6 -2.6 -2.6 -2.6 -2.6 -2.6 -2.6 -2.6 -2.6 -2.6 -2.6 -2.6 -2.6 -2.6
16.4 16.4 16.5 16.2 15.9 15.2 14.7 14.3 14.6 15.1 15.4 15.9 16.3 15.9 14.8 12.3 10 10.3 10.8 11.3 11.7 11.5 11 11.8 12.1 11.4 11.9 12.1 11.5 10.4 13.6 8.5 8.6 7.8 7.6 6.9 6.3 6.1 5.6 5.2 4.5 4.4 4.5 4.4 4.3 4.2 4.3 4.5 4.8 5.7 5.8 5.7 5.8 6.8 9.7 7.9 2.8 2.6 2.4 2.2 2 1.8 1.6 1.4 1.2 1 0.8 0.6 0.4 0.2 0 -0.2 -0.4 -0.6 -0.9 -1.1 -1.3 -1.5 -1.7 -1.9 -2 -2.2 -2.4 -2.6 -2.6 -2.6 -2.6 -2.6 -2.6 -2.6 -2.6 -2.6 -2.6 -2.6 -2.6 -2.6 -2.6 -2.6 -2.6 -2.6 -2.6 -2.6 -2.6 -2.6 -2.6 -2.6 -2.6 -2.6 -2.6 -2.6 -2.6 -2.6 -2.6 -2.6 -2.6 -2.6 -2.6 -2.6 -2.6 -2.6 -2.6 -2.6 -2.6 -2.6 -2.6 -2.6 -2.6 -2.6 -2.6 -2.6 -2.6 -2.6 -2.6 -2.6 -2.6 -2.6 -2.6 -2.6 -2.6 -2.6 -2.6 -2.6 -2.6 -2.6 -2.6 -2.6 -2.6 -2.6 -2.6 -2.6 -2.6 -2.6 -2.6 -2.6 -2.6 -2.6 -2.6 -2.6 -2.6 -2.6 -2.6 -2.6 -2.6 -2.6 -2.6 -2.6 -2.6 -2.6 -2.6 -2.6 -2.6 -2.6 -2.6 -2.6 -2.6 -2.6 -2.6 -2.6 -2.6 -2.6 -2.6 -2.6 -2.6 -2.6 -2.6 -2.6 -2.6 -2.6 -2.6 -2.6 -2.6 -2.6 -2.6 -2.6 -2.6 -2.6 -2.6 -2.6 -2.6 -2.6
16.3 16.4 16.3 16.1 15.8 15.4 14.8 14.5 14.6 15.1 15.3 15.7 15.3 15.5 15.6 14.3 11.1 10.6 10.9 11.3 11.8 11.4 11.4 11.8 12 12.4 14.9 13.8 12.3 9.4 14.9 10.9 6.2 5.6 5.5 5.2 5.1 5.1 4.7 4.3 3.9 3.8 4.3 4.2 4.5 4.5 4.5 4.5 4.6 5.2 5.7 5.6 6.8 8.7 2.8 2.7 2.5 2.3 2.1 1.9 1.7 1.5 1.3 1.1 0.9 0.7 0.5 0.3 0.1 -0.1 -0.3 -0.5 -0.7 -0.9 -1.1 -1.4 -1.6 -1.8 -2 -2.2 -2.3 -2.5 -2.6 -2.6 -2.6 -2.6 -2.6 -2.6 -2.6 -2.6 -2.6 -2.6 -2.6 -2.6 -2.6 -2.6 -2.6 -2.6 -2.6 -2.6 -2.6 -2.6 -2.6 -2.6 -2.6 -2.6 -2.6 -2.6 -2.6 -2.6 -2.6 -2.6 -2.6 -2.6 -2.6 -2.6 -2.6 -2.6 -2.6 -2.6 -2.6 -2.6 -2.6 -2.6 -2.6 -2.6 -2.6 -2.6 -2.6 -2.6 -2.6 -2.6 -2.6 -2.6 -2.6 -2.6 -2.6 -2.6 -2.6 -2.6 -2.6 -2.6 -2.6 -2.6 -2.6 -2.6 -2.6 -2.6 -2.6 -2.6 -2.6 -2.6 -2.6 -2.6 -2.6 -2.6 -2.6 -2.6 -2.6 -2.6 -2.6 -2.6 -2.6 -2.6 -2.6 -2.6 -2.6 -2.6 -2.6 -2.6 -2.6 -2.6 -2.6 -2.6 -2.6 -2.6 -2.6 -2.6 -2.6 -2.6 -2.6 -2.6 -2.6 -2.6 -2.6 -2.6 -2.6 -2.6 -2.6 -2.6 -2.6 -2.6 -2.6 -2.6 -2.6 -2.6 -2.6 -2.6 -2.6 -2.6
15.8 16.2 16 15.8 15.6 15.2 14.8 14.7 14.8 14.9 15.2 15.3 14.6 14.6 13.7 11.9 10.5 10.7 11.1 11.4 11.4 11.3 12 12 12 13 11.7 9.7 12.4 7.9 12.3 7.7 5.3 5.2 5.1 5.5 5.3 4.9 4.6 3.9 3.4 3.5 3.9 4.2 4.5 4.8 5.1 4.8 4.8 5.5 5.6 5.4 6.3 2.8 2.6 2.4 2.2 2 1.8 1.6 1.4 1.2 1 0.8 0.6 0.4 0.2 0 -0.2 -0.4 -0.6 -0.8 -1 -1.2 -1.4 -1.6 -1.9 -2.1 -2.3 -2.5 -2.6 -2.6 -2.6 -2.6 -2.6 -2.6 -2.6 -2.6 -2.6 -2.6 -2.6 -2.6 -2.6 -2.6 -2.6 -2.6 -2.6 -2.6 -2.6 -2.6 -2.6 -2.6 -2.6 -2.6 -2.6 -2.6 -2.6 -2.6 -2.6 -2.6 -2.6 -2.6 -2.6 -2.6 -2.6 -2.6 -2.6 -2.6 -2.6 -2.6 -2.6 -2.6 -2.6 -2.6 -2.6 -2.6 -2.6 -2.6 -2.6 -2.6 -2.6 -2.6 -2.6 -2.6 -2.6 -2.6 -2.6 -2.6 -2.6 -2.6 -2.6 -2.6 -2.6 -2.6 -2.6 -2.6 -2.6 -2.6 -2.6 -2.6 -2.6 -2.6 -2.6 -2.6 -2.6 -2.6 -2.6 -2.6 -2.6 -2.6 -2.6 -2.6 -2.6 -2.6 -2.6 -2.6 -2.6 -2.6 -2.6 -2.6 -2.6 -2.6 -2.6 -2.6 -2.6 -2.6 -2.6 -2.6 -2.6 -2.6 -2.6 -2.6 -2.6 -2.6 -2.6 -2.6 -2.6 -2.6 -2.6 -2.6 -2.6 -2.6 -2.6 -2.6 -2.6 -2.6 -2.6 -2.6 -2.6 -2.6
14.8 15.4 15.7 15.5 15.3 14.9 14.5 14.6 14.7 14.2 14.3 13.4 11.8 11.8 10.9 10.4 11 11.6 11.5 11.3 11.4 12.3 11.7 11.4 11.2 13.8 9.6 11.8 11.2 8.5 10.8 5.5 5.2 5.1 5 5.7 5.5 5.1 4.5 -2.6 3.1 3.1 3.4 3.2 3.3 2.9 3.8 4.1 5.3 5.1 5 2.8 2.7 2.5 2.3 2.1 1.9 1.7 1.5 1.3 1.1 0.9 0.7 0.5 0.3 0.1 -0.1 -0.3 -0.5 -0.7 -0.9 -1.1 -1.3 -1.5 -1.7 -1.9 -2.1 -2.3 -2.6 -2.6 -2.6 -2.6 -2.6 -2.6 -2.6 -2.6 -2.6 -2.6 -2.6 -2.6 -2.6 -2.6 -2.6 -2.6 -2.6 -2.6 -2.6 -2.6 -2.6 -2.6 -2.6 -2.6 -2.6 -2.6 -2.6 -2.6 -2.6 -2.6 -2.6 -2.6 -2.6 -2.6 -2.6 -2.6 -2.6 -2.6 -2.6 -2.6 -2.6 -2.6 -2.6 -2.6 -2.6 -2.6 -2.6 -2.6 -2.6 -2.6 -2.6 -2.6 -2.6 -2.6 -2.6 -2.6 -2.6 -2.6 -2.6 -2.6 -2.6 -2.6 -2.6 -2.6 -2.6 -2.6 -2.6 -2.6 -2.6 -2.6 -2.6 -2.6 -2.6 -2.6 -2.6 -2.6 -2.6 -2.6 -2.6 -2.6 -2.6 -2.6 -2.6 -2.6 -2.6 -2.6 -2.6 -2.6 -2.6 -2.6 -2.6 -2.6 -2.6 -2.6 -2.6 -2.6 -2.6 -2.6 -2.6 -2.6 -2.6 -2.6 -2.6 -2.6 -2.6 -2.6 -2.6 -2.6 -2.6 -2.6 -2.6 -2.6 -2.6 -2.6 -2.6 -2.6 -2.6 -2.6 -2.6 -2.6 -2.6 -2.6
13.2 14.1 14.9 15.1 15 14.7 14.5 14.3 14.6 14.7 13.6 12.1 10.1 8.7 9.3 10.5 11.1 11.6 12 11 12.5 11.6 11.2 11.1 11 13.8 11.2 12.8 10.3 7.3 6.6 6 5.2 5.2 5.7 6.4 6.1 4.1 3.3 -2.6 2.9 1.8 1.4 1.6 1.7 1.9 2.5 2.8 2.8 2.7 2.6 2.5 2.4 2.2 2 1.8 1.6 1.4 1.2 1 0.8 0.6 0.4 0.2 0 -0.2 -0.4 -0.6 -0.8 -1 -1.2 -1.4 -1.6 -1.8 -2 -2.2 -2.4 -2.6 -2.6 -2.6 -2.6 -2.6 -2.6 -2.6 -2.6 -2.6 -2.6 -2.6 -2.6 -2.6 -2.6 -2.6 -2.6 -2.6 -2.6 -2.6 -2.6 -2.6 -2.6 -2.6 -2.6 -2.6 -2.6 -2.6 -2.6 -2.6 -2.6 -2.6 -2.6 -2.6 -2.6 -2.6 -2.6 -2.6 -2.6 -2.6 -2.6 -2.6 -2.6 -2.6 -2.6 -2.6 -2.6 -2.6 -2.6 -2.6 -2.6 -2.6 -2.6 -2.6 -2.6 -2.6 -2.6 -2.6 -2.6 -2.6 -2.6 -2.6 -2.6 -2.6 -2.6 -2.6 -2.6 -2.6 -2.6 -2.6 -2.6 -2.6 -2.6 -2.6 -2.6 -2.6 -2.6 -2.6 -2.6 -2.6 -2.6 -2.6 -2.6 -2.6 -2.6 -2.6 -2.6 -2.6 -2.6 -2.6 -2.6 -2.6 -2.6 -2.6 -2.6 -2.6 -2.6 -2.6 -2.6 -2.6 -2.6 -2.6 -2.6 -2.6 -2.6 -2.6 -2.6 -2.6 -2.6 -2.6 -2.6 -2.6 -2.6 -2.6 -2.6 -2.6 -2.6 -2.6 -2.6 -2.6 -2.6 -2.6 -2.6 -2.6
11.6 12.4 14.1 14.3 14.6 15 14.7 14.3 13.9 14.3 14.4 12.5 10.7 8.8 9.6 10.7 11.4 11.3 11.5 11.7 12.3 11.1 11.2 10.5 10 11.8 9.8 11.7 8.5 9.6 5.4 6.2 5.3 5.3 7.8 4.4 2.8 1.6 0.8 -2.6 -1.2 -1.1 -0.5 0.1 0.7 1.4 2 2.4 2.5 2.4 2.3 2.2 2.1 1.9 1.7 1.5 1.3 1.1 0.9 0.7 0.5 0.3 0.1 -0.1 -0.3 -0.5 -0.7 -0.9 -1.1 -1.3 -1.5 -1.7 -1.9 -2.1 -2.3 -2.6 -2.6 -2.6 -2.6 -2.6 -2.6 -2.6 -2.6 -2.6 -2.6 -2.6 -2.6 -2.6 -2.6 -2.6 -2.6 -2.6 -2.6 -2.6 -2.6 -2.6 -2.6 -2.6 -2.6 -2.6 -2.6 -2.6 -2.6 -2.6 -2.6 -2.6 -2.6 -2.6 -2.6 -2.6 -2.6 -2.6 -2.6 -2.6 -2.6 -2.6 -2.6 -2.6 -2.6 -2.6 -2.6 -2.6 -2.6 -2.6 -2.6 -2.6 -2.6 -2.6 -2.6 -2.6 -2.6 -2.6 -2.6 -2.6 -2.6 -2.6 -2.6 -2.6 -2.6 -2.6 -2.6 -2.6 -2.6 -2.6 -2.6 -2.6 -2.6 -2.6 -2.6 -2.6 -2.6 -2.6 -2.6 -2.6 -2.6 -2.6 -2.6 -2.6 -2.6 -2.6 -2.6 -2.6 -2.6 -2.6 -2.6 -2.6 -2.6 -2.6 -2.6 -2.6 -2.6 -2.6 -2.6 -2.6 -2.6 -2.6 -2.6 -2.6 -2.6 -2.6 -2.6 -2.6 -2.6 -2.6 -2.6 -2.6 -2.6 -2.6 -2.6 -2.6 -2.6 -2.6 -2.6 -2.6 -2.6 -2.6 -2.6 -2.6 -2.6 -2.6
13.4 13 14 14.3 14.9 15.4 14.9 14.6 14.2 14.2 14.3 14.1 11.4 10.3 10.8 11.2 11.3 10.4 11.4 11.9 11.7 9.7 10.7 9.4 9.5 9.8 8.1 10.4 5.5 5 5.5 5.8 9.9 4.6 2.7 1.4 0.2 -1 -2.1 -2.6 -2.3 -1.6 -1 -0.3 0.3 0.9 1.6 2.2 2.1 2.1 2 1.9 1.7 1.6 1.4 1.2 1 0.8 0.6 0.4 0.2 0 -0.2 -0.4 -0.6 -0.8 -1 -1.2 -1.4 -1.6 -1.8 -2 -2.2 -2.4 -2.6 -2.6 -2.6 -2.6 -2.6 -2.6 -2.6 -2.6 -2.6 -2.6 -2.6 -2.6 -2.6 -2.6 -2.6 -2.6 -2.6 -2.6 -2.6 -2.6 -2.6 -2.6 -2.6 -2.6 -2.6 -2.6 -2.6 -2.6 -2.6 -2.6 -2.6 -2.6 -2.6 -2.6 -2.6 -2.6 -2.6 -2.6 -2.6 -2.6 -2.6 -2.6 -2.6 -2.6 -2.6 -2.6 -2.6 -2.6 -2.6 -2.6 -2.6 -2.6 -2.6 -2.6 -2.6 -2.6 -2.6 -2.6 -2.6 -2.6 -2.6 -2.6 -2.6 -2.6 -2.6 -2.6 -2.6 -2.6 -2.6 -2.6 -2.6 -2.6 -2.6 -2.6 -2.6 -2.6 -2.6 -2.6 -2.6 -2.6 -2.6 -2.6 -2.6 -2.6 -2.6 -2.6 -2.6 -2.6 -2.6 -2.6 -2.6 -2.6 -2.6 -2.6 -2.6 -2.6 -2.6 -2.6 -2.6 -2.6 -2.6 -2.6 -2.6 -2.6 -2.6 -2.6 -2.6 -2.6 -2.6 -2.6 -2.6 -2.6 -2.6 -2.6 -2.6 -2.6 -2.6 -2.6 -2.6 -2.6 -2.6 -2.6 -2.6 -2.6 -2.6 -2.6
