ncols 200
nrows 84
xllcorner 320000
yllcorner 492050
cellsize 50
303.5 299 294.6 290.7 288.5 286.9 285.4 282.7 279 276.3 275.9 274.6 272.1 272 264.6 265.4 265.9 265 265.1 265.6 271.8 272.8 269.8 255.3 240.1 225.3 214.2 208 200.6 193.6 181.3 165.8 149.8 130.6 116.3 102.4 98.4 98.4 99.2 100.3 100.6 100.7 98.8 97.8 98.5 98 98.3 98.4 95.3 102.8 105.8 105 103.7 103.4 102.6 104.1 105.8 106.8 108.5 110.2 114 117.5 121.8 128.2 135.9 146 145.5 143.3 145 148.6 153.9 162.7 169.9 175.6 179.9 189.4 199.6 211.8 225.2 237.3 254.1 270.5 284.2 296.5 307.4 321.5 331.9 335.6 340.7 345.7 351 358.2 367.4 373.9 381.3 391.5 402.5 410.2 419.8 428.9 432.7 439.6 449.2 460.3 474.2 490.5 508.1 524.2 541 559.2 578.3 593.5 605.7 607.2 594.4 574.4 557.4 542.3 530.4 527.1 522.4 524.7 518 508.5 498.6 482.5 459 458.4 462 445.8 439.1 434.5 430.5 423.3 415.6 410.3 409 399.5 391.7 383 374.2 367.7 362 353.4 343.9 332.2 321.9 309.7 297.3 288.1 279.8 274.3 274.9 279.2 275.7 269.7 264.3 257.8 250 243.6 241.1 236.6 235.8 232.7 226.6 227.1 228.4 232.6 235.1 243 250.3 259.7 257.8 252.8 249.7 249.3 245.7 234.9 224.7 218 209 198.7 195.5 187 171.8 153.7 143.8 133.6 125.3 123.9 120.5 115.4 111.3 110.7 103.6 93.7 84.1 79.7 74 71.4
298.4 294.8 291.3 288 285.7 284.3 282.8 280.2 278.2 275.2 271 270.2 268.8 265.1 260.7 260.7 263.8 258.6 254.8 253.1 252.3 262.4 260.3 245.8 233.4 219.4 214.9 209.6 200 188.5 171.7 150.2 131.7 117.2 103.4 96.3 97 97.8 98.4 99.2 99.4 99.1 100 99 98 97 97.2 97.2 97.1 99.1 104.7 104.5 102.4 100.4 100.2 100.7 103.7 106 109.1 117.9 121.6 123 126.9 134.1 139.4 141.4 142.7 143.8 147.4 151.7 159.1 168.4 175 180.1 186.3 196.3 207.4 221.1 234.9 243.3 257.8 272.5 287.2 299.8 313.1 327.3 334.8 338.1 345 351.7 359.5 369.6 379.3 384.2 395.5 407 416.2 422.5 430.7 436.5 445.2 452.9 463.4 474.6 488.2 503.1 517.8 533.9 550.8 569.3 587 600 605.4 601.6 583.2 561.5 540.2 526.2 511.4 503.5 501.3 497.5 493.5 485.2 475.1 460.2 442.9 432 429.4 427.4 433.8 419.9 418.8 422.6 415.2 408.8 407.7 401.8 393.6 384.1 373.7 366.1 358.6 349.8 338.9 327.9 315.9 306.7 294.9 286.9 283 275.3 271.9 272.3 269.5 265.5 257.7 250.9 245.4 240.7 235.9 232.9 231.1 229.6 223 223.5 224.1 227.8 234.7 243 250.3 255.3 253.1 251.6 252.7 249.9 241 229.4 221.2 213.4 197.9 191.4 183.7 166.3 155.7 146.1 137.1 133.1 132.1 130.4 123.6 118.2 112.9 106.2 97.6 91.8 85.3 80.2 72.5 71.9
292.7 291.8 289.3 286.4 284.3 282.7 281 278.4 276.7 274.2 269.3 267.3 266.1 263.8 259.7 256.9 257 251.4 241.8 237.4 238 240.1 242.7 232.4 223.6 221.3 217.3 213.3 213.5 184.9 162.8 140.8 121.4 104.7 96 96.6 96.9 97.8 97.7 97.8 98 98.2 97.4 97.1 95.6 96 96 96.6 96.8 93.5 102.8 103.9 101.1 99.3 100.2 101.3 104.5 106.6 111.3 121.7 127 129.3 130.7 137.1 144.6 145.2 145.5 148.1 152.8 156.5 164.8 173 180.8 186.3 195 206.4 217.1 229.2 241.8 253.5 266.5 276.7 290.9 301.4 314.9 329.7 335 342 349.8 355.6 362 374.8 382.8 396.5 415.7 419.1 430 436.6 442.8 450.7 460.2 468.5 477.7 488.5 501.4 514.6 528.4 543.9 560.6 576.6 591.8 601.7 602.9 593.8 571.9 555.6 530.2 507.1 491.9 486.3 485.2 480 474 467 454.5 438 424.9 416.3 416.6 413.4 412.9 408.4 412.1 417.5 413.1 404.8 397.8 395.7 392.2 382.2 372.1 361.5 358.5 347.5 336.6 322.4 313.1 303.9 292.4 286.5 277.6 273 267.6 266.9 264.8 257.9 252 246.2 240.1 235.3 232.2 228.3 227.8 225.2 217.9 217.7 218.2 226.2 233.4 242.1 245.9 249.5 256.2 260.8 253.9 244.6 232.7 221.5 216.3 204.2 194.8 178.8 167.4 158 150.9 146.3 140.7 141.2 141.2 137.8 131.9 122.4 113.2 103.9 96.5 91.9 86.2 79.1 75.5 74.7
288.1 289.3 288.4 286.2 284 282 280.3 276.9 273.7 271.7 268.6 266.6 265.7 259.9 254.8 249.3 250.1 243.2 235.5 226.7 221 218.6 218.1 217.8 222.1 220.1 210.6 194 186 174.4 150 124.6 105.5 96.9 95.6 96 95.9 96.5 96.6 96.1 95.8 91.2 93.1 93.8 94.6 95.6 96.2 92.3 92.5 96.1 100.3 101.4 98.2 99.3 100.7 101.6 103.9 106.1 112.9 125.1 131.1 134.6 134.7 139.2 144.2 145.8 148 151.9 157 161.8 168.5 177.6 187 196.3 207.7 218.3 227 239.4 247.7 257.3 272.1 283.3 293.4 306.2 317.3 328.8 339.7 349.4 354.2 359.1 367.2 379.1 392.6 411.2 418.3 432.7 443.5 449.7 457.1 466.6 475.7 482.7 491.6 500.9 513.3 527.5 541.1 557 572.5 582.9 591.2 597.5 593.1 579.2 559.2 543 513.9 487.2 475 470.3 470.9 467.3 457.1 449.7 436 425.1 410.9 404.9 401.5 400 402.9 401.2 401.6 410.8 407.3 401.2 391.5 392 389 380.9 366.6 354.7 355.2 345.1 333.6 318.9 309.6 301.6 289.7 281.8 274.4 270.1 265.7 259.1 256.8 249.5 246.6 240.4 235.9 234 227.8 223.4 221.5 217.8 212.1 211.4 217.7 224.3 232.9 238.7 243.8 254.5 264 259 247.2 232.7 225.4 221.3 213.6 201.2 191.1 177.5 162.6 152.1 151.2 152.5 150.4 150.1 147.2 143.6 135.1 122.3 110.8 101.3 95.1 91.7 84.8 81.2 78.2 75.9
283.5 288.1 291.3 289.2 285.9 284.2 280.4 276.4 274.4 269.8 266.1 265.1 262.7 257.5 250.5 242 238.9 232.4 227.1 219.1 212.2 209.4 211.1 210.9 206.6 199.5 193.3 183.7 168.6 158.4 137.2 112.9 98.2 93.5 94.4 94.3 94.6 94.9 95.8 94.2 93 93.7 95.2 97.8 99.7 100 102 101.7 101.2 99.2 100.2 100.8 99.1 100.9 102.6 102.7 103.3 106 114.5 129.8 136.7 137.8 138.6 141.3 144.9 148.5 153.1 157.4 162.3 168.3 176 182.7 192.7 205.7 216.5 225.5 236 247 257.1 269.1 280.4 289.5 299.4 312.2 324.3 334.9 344.6 354.8 357.8 364.8 378.7 392.8 399.6 413.5 429.6 447 458.6 462.3 473.6 482.8 491.9 498.8 505.7 516.1 527.4 540.9 554.8 569.7 580.8 586.9 587.2 586 581.4 567.5 545.4 523.8 496 475.9 462.7 454.4 454.8 454 445.7 433.4 421.7 411.6 397.2 393.5 389.2 387.5 394.6 393.9 397.9 402.6 402.8 393 386.7 386.8 383.8 376.8 357.1 349.9 350 340.8 328.8 313.4 309.2 301.6 290.6 279.7 275.9 269.4 262.7 254.1 250.2 234 232.4 236.9 232.2 227.2 222.8 219.8 213.9 208.9 207.2 212.3 216.7 225.5 227.9 231.7 240.8 256.8 262 247.9 235.4 229.7 223.9 213.9 207.6 195.8 183.2 167.2 157.5 160.4 166.3 165.4 161.7 158.6 154.9 145.8 134.3 122.9 105.9 98.1 94.1 89.9 85.7 83.4 80.3 77.2
282.9 289.4 293.1 295.3 287.7 283.9 281.1 276.6 274.2 271.2 268.2 264.2 260.1 255.4 246.9 240.9 235.6 227.6 222.9 215.5 205.1 199.5 203.4 201.6 197.1 195.8 189.8 181.1 168.2 141.3 117.3 108.4 97.4 90.1 90.5 92 93.5 93.1 92.3 92.3 95.1 98.2 99.1 99.8 100.3 100.9 100.9 100.7 101.1 101.4 103.2 103.2 102.6 101.4 104.7 105.8 105.7 108 120.3 132.9 138.4 139.3 141.4 145.9 148.6 154.1 160.6 163.9 169.8 175.5 180.7 190.4 202.7 214.6 226.9 238.1 248 257 264.4 279.5 288.8 294.2 303.3 318.3 333.9 341.5 351.3 356.5 366.3 378.9 388.5 400.1 409.3 420.9 450.4 458 461.9 476.2 487.6 499.1 507 513.9 521 530 542.1 554.4 567.9 581.3 589.4 593.5 593.1 586.5 573.1 558.5 541.9 516.1 488 466.1 453.3 444.1 442.7 439.5 430.9 419.7 411.6 399.1 386.4 386 382 376.3 379.5 386.7 390.7 391.9 391.3 383.5 372.5 373.8 370.7 363.1 347.2 344.3 339.6 333.2 321.2 307.3 304.8 297.9 287.8 280.5 274 265.4 258.8 255.3 248.6 234.6 238.3 232.4 227.2 222.1 217.5 212.5 206.6 204.1 211.5 211.8 216.5 222.1 220.4 224.7 240.8 252.7 253.2 239 232 225.1 214.1 200 194.4 187.9 176.8 169.9 172.1 175.2 178.2 178.2 171.6 167.1 162.1 148.1 127.4 111.6 100.9 96 93.7 89.6 86.8 84.8 82 78.5
283.5 288.5 289.5 287.3 287.1 283 280.7 280.4 278.1 273.8 268 264.5 255.5 250.5 243.3 238.3 241.5 232.4 220.9 213.1 193.5 186.3 185.3 186.3 184 187.3 182.7 166.1 156.7 121.4 101.9 94.6 86.8 90.2 95.9 90.1 89.7 91.3 93.3 95.4 98 97.7 98.6 99.3 99.6 99.8 99.9 100.9 111.8 113.8 110.1 106.6 105.4 105.3 106.7 107.1 109 111.6 120.1 129 135.8 139.8 144.6 148.5 152.9 160.1 164.8 169.1 173.4 181 194.7 206.6 221.1 232.9 240.4 246.8 256.4 263.9 274.2 287.5 298 300.9 307.8 321 336.1 348 355 363.3 372.6 385 396.8 409.8 419.4 432.3 459.1 468.3 467.4 489.5 503.5 514.5 523.8 529.2 536.3 546.6 556.8 569.7 581.2 590.6 595.5 594.4 594 588.7 573.9 548.7 527.4 504.2 485.2 457.2 443.5 436.2 431.8 428.2 421.5 415.6 406.3 391.3 380.2 377.6 375.8 368.4 368.7 382.7 378.9 374.4 379 369.7 360.2 358.1 357.6 347.5 338.9 337.3 330.3 322.7 318.4 302.5 299.1 289.7 283 279.3 271.6 264.1 256.2 251.2 238 239.2 229.6 224.8 223.9 223.9 218.7 206 201.9 203.5 205.2 206.8 211.3 211.8 213 221.8 236.5 247.3 243.7 232.5 228.1 211.4 200.1 198.6 186.9 178.2 175.7 178.9 186 186.6 186.6 184.7 181.1 175.8 162.1 139.7 117.9 107.2 97.1 93.8 92.6 90.4 88.2 86.1 82.9 79.3
282.3 283.9 284.8 283.8 281.9 281.1 282.7 282.5 284.6 278.1 267.7 262.6 251.3 244.1 237.3 234.4 239.8 239.7 216.2 193.4 184.8 178 174 169 167.8 176.3 172.8 148.1 121.2 104 90.7 88.8 91.5 100.1 105.7 103.8 96.4 95.5 96.2 96 97.2 98.5 99.7 99.7 99.5 99.6 100.1 106.9 114.4 116.3 113.5 112.3 111.2 110.6 112 111.3 111.7 115.2 123.2 131.2 137.1 142 146.7 152.3 157.5 163.3 169.8 175.5 182.1 194 213.3 221.5 230.2 238 243.3 251.5 260.2 271.9 281.9 292.3 301.4 309 316.7 324.3 335 346.7 357.6 369.1 383.5 394.9 407.1 416.1 426.9 447.7 460 478.8 472.7 503.9 519.9 530.7 538.1 544.9 551.2 560 571.3 582.4 592.1 597.3 599.1 596.7 588.7 579.1 564.6 549.5 517.6 492 475.8 452.3 438.5 430.8 426.7 423 417.9 412.3 400.9 385.8 377.6 372.3 368.1 363.7 360.9 363.7 361.8 357 359.3 354.4 350.1 346.4 346.7 336.3 330.8 334.8 324.8 314.3 304.4 295.1 293.7 284.4 282.4 275.7 268.6 263.4 257.1 239.6 240.1 236.2 230.7 222.9 219.5 216.6 219 208 200.2 199.7 198.1 200.2 202 202.3 208.8 219.4 231.5 238.1 233.8 227.7 213.9 203 196.4 189 187.9 187.5 190 197.5 195.9 192.3 193.3 190.9 185.3 171.9 155.4 127.8 111.8 103.7 94.7 92.8 92 90.8 89.3 86.9 83.6 79.6
280.2 282.1 283.3 282.3 279.9 279.8 279 280.2 277.4 267.6 266.3 255.8 249 239 232.1 228.9 222.7 231 211.3 181.5 175.9 167.9 160.7 153.7 152.3 149.2 140.5 119.6 103.8 90.3 88 88.8 92.7 99 112.6 103.9 106.3 105.3 101.3 100.4 102.6 106.1 104.8 101.5 100.9 101.4 101.7 102.1 111.2 112.1 116.9 115.6 116.4 117 118.5 119.9 119.3 122.7 127.7 132.7 139.9 146.6 150.8 155.8 161 168.4 176.5 184.7 193.3 204.1 225.1 231.8 235.6 241.8 248.4 258 270.5 279.7 288.2 296.8 304.7 313.8 323.2 329.5 338.7 348.3 360.5 372 388 402.4 411.3 421.9 435.3 448.5 467.5 473.4 502.4 520.8 538.5 547.2 553.5 559.2 564.6 571.9 582.7 593 599.6 601.8 600.7 598.2 586.4 573.6 559 541.4 518.2 490.6 468.6 449 436 426.4 420.6 416 414.1 409.9 395.4 383 374.6 367.4 366 357.8 350.1 347.9 347.8 341.4 340.9 341.6 338.5 334.2 333.4 327.5 323.5 328.1 314.1 306.2 293.5 292.4 284.9 282.2 277.4 272.7 267.8 261.7 256.3 249.9 244.5 234.2 230.8 221.7 218.6 209.1 200.8 199.4 196.2 193.2 193.4 194.5 195.1 196.8 203.7 216.4 228 227.8 222.4 216.2 203.4 195.4 196.6 192.5 193.4 200.8 209.1 205.8 199.9 197.3 198 193.6 178.2 163.3 142.6 123.7 110.1 101.3 94.2 92.4 91.6 90.6 89.1 86.9 83 78.9
280.4 284.9 286.1 282.4 279.2 277.3 276.3 275.4 271.1 265.4 260 250 243.4 235.2 226.2 218.7 206.1 202.7 184 174.1 164.5 155.4 148.2 139.6 134.9 130.9 114.6 105.5 93.4 88.7 85.8 91.3 91.6 92.4 94.5 100.5 115.4 112 106.4 105.3 106.9 108.5 108 103.5 103.6 108.8 104.7 104.7 107.1 115.2 116.2 120.6 122.2 122.3 123.7 129.4 130.8 134 138.5 142.9 147.8 152.8 156.6 161.5 167.8 177.3 186.4 194.7 208.1 221.4 231.6 236 241.1 247.8 256 268.1 281 289.5 294.5 301.4 310.9 321.4 328 334.1 343.5 354.8 367 380.1 397.2 412.7 416.7 426.9 442 447 471 478.5 512.5 533.1 555.7 564.9 569.8 575.1 578 585.5 592.9 598.8 604.2 605.8 605.6 600.1 586.7 573.2 554.9 539.4 512.2 492.4 469.5 448.9 433.1 425 418.8 413.4 409.7 406.5 393.2 380.9 372.5 363.6 359.4 354 342.4 341.6 336.4 329.5 327.2 328.9 325.8 323 322.4 320.3 316.8 311.2 304.3 296.5 286.2 283.6 280.9 278.5 271.8 271.4 265.6 261.7 254 246.2 238.9 230.8 222.9 218.7 213.2 207.1 199.8 197 194.4 192.9 189.7 190.9 190.8 193.2 204 213.7 220 219.9 215.9 203.9 195.8 192.2 190.5 193.8 206.9 215.9 216.2 207.9 201.1 200 198 185.1 165.2 156.7 138 123.4 111.4 99.8 93.3 91.3 90.8 89.3 87.4 84.8 79.6 76.1
277.2 280.7 283.3 279.6 276.6 274.6 275.8 278 272.9 268.6 257.7 245.4 236.1 231.5 225.2 203.3 185 176 173.3 168.4 161.9 148 138.6 133 127.7 121.7 109.8 95.1 89.9 87 86.6 91.3 91.3 91.2 92.4 99.9 106.7 109.7 110.1 109 109.2 110.2 109.3 106 107.7 114.4 112.4 118.4 121.9 124.5 125.6 128.3 126.4 125.7 129.6 136.5 141.1 145.8 150.3 155.8 159.9 161.4 166.1 172.1 181.6 189.1 199.8 216.6 221.9 229.1 234.9 240 248.2 257.5 265.5 279.9 292 295.9 299.4 306.1 314.2 325.3 330.6 338.9 349 364 376.9 388.5 400.9 414.9 427.1 430.1 439.4 452.1 472.1 496.4 521.8 545.3 565.5 579.6 584.2 585.7 584.3 590.8 596.6 601.5 606.2 608.8 611 599.8 586.6 571.9 552.6 534.2 509.3 489.1 468.9 455.1 435.5 428.6 419.9 412.2 402.6 397.7 388.8 380.3 369.3 361.8 356.6 352.2 339.7 337.7 328.5 322.8 320.1 318.9 317.5 315.6 317.2 314.2 308.6 298.4 297.1 285 280.4 279.8 276.2 270.9 270.3 268 264.3 257.8 251.5 242.7 235.5 227.5 220.6 217.6 212 203.2 196.9 196.9 194.3 192.8 188.5 187 186.4 191.9 199.2 205.6 212.3 211.9 204.6 199.4 190.1 186.4 196.7 210.4 215.3 220.1 215.3 205.4 201.8 198.3 190.2 175.6 163.6 154.6 139.9 122.8 106.5 97.4 91.7 90.8 90.7 87.6 84.7 82.1 76.2 70.3
275.7 279.6 278.7 280.5 280.1 275.2 274 276.8 276.8 268.8 253.4 238.2 226.9 226.3 218.3 188.8 169.7 162 157.1 161.1 160.3 144.3 132.5 128.5 117.6 112.6 98.2 89.7 87.6 85.8 91.1 91.1 91.3 91.2 93.4 96.5 98.2 105.2 112.3 111 110.3 110.7 111.5 108.9 109.9 115.7 116.6 124.6 125.5 128.9 131.4 131.8 130.4 134.2 141.1 147.7 152.5 157.8 164.7 168.7 172.7 175.3 174.8 180.5 188.2 199.5 216.3 223.2 226.1 233.6 238.7 247.4 254.5 265.6 275.9 285.5 295 301 304 309.5 317.4 327.2 338.7 351.6 360.8 372 383.3 393.7 404.9 417.6 430.9 434.9 442.8 456.6 479.3 500.6 528.1 556.9 579.2 594.3 592.2 590 584.7 590.4 597.6 603.5 607.5 608.6 610.1 595.7 583 568 552.2 531.2 512.3 490.6 470.3 451.6 439.5 436.2 421.8 413.9 402.5 385.1 384 380.3 367.1 358.4 354.6 353.1 341.5 330.7 322.9 317.4 313.7 313.2 311.5 311 315.3 309.1 301.1 290.8 288.5 279.9 278.4 277.8 271.1 267.9 268.6 265.5 259.6 254.1 246.7 237.5 232.7 225.6 222.1 215.6 210.4 203 198.5 200.3 194.6 191.3 187.5 183.1 182.8 188.2 192.2 201.4 205 200.3 197.1 189.3 183.1 202.4 215 214.3 212.1 212.2 211.7 198.9 199.2 190.6 180.1 170 159.3 147.7 132.8 116.9 102.1 95.4 90.4 90.2 89.1 85.3 82.5 77.7 72.2 66.6
273.2 274 277.9 281.6 280.8 274.5 269.2 271.9 271.2 258.1 244.4 226.7 215.7 205.3 195.1 173.7 163 151.7 144.1 146.6 148.2 139.5 132.3 117.6 108.5 95.5 90.4 88.8 85.5 86.7 91.6 94.4 95.6 95.2 95.4 100.1 100.7 108.1 116.9 113.1 112.1 114.4 113.5 115 115.7 115.5 122.1 126.6 129.3 130.9 132.5 134.8 140.1 149.2 160.7 161.3 161.2 166.2 168.8 174.3 182 186.4 187.9 192.3 197.8 203.9 214 219.8 229.8 238.2 247.9 257.2 267.2 279.1 284.7 292.4 299.6 307.1 309.4 315.7 323.5 336 347.7 359.4 368.4 380.2 388.2 397.7 409.6 420.7 434.1 440 448.4 468.8 484.4 506.9 535.7 566.3 593.4 595.5 594.1 585.4 577.6 581.9 594.2 602 603.3 605.1 598.7 588.6 578.7 562.2 547 533.1 518.8 497.5 477.8 459.9 440.7 434.5 422.1 414.9 401 391.6 383.5 371.2 366.7 356.9 352 349.1 337.2 329.6 324.5 318.4 310.8 309.7 308.8 309.1 310.9 302.9 292.4 286.3 282.9 278.2 275.8 274.7 268.3 266.4 265.2 261.4 256.4 251.4 241.8 235.3 230.3 226.3 219.7 212.6 210.1 201.8 201.7 194.3 189 187.3 186.8 186 182.8 183.3 190.6 196.4 194.3 189.9 184 181.5 198.8 210.7 213.3 207.8 203.9 207.8 202 192.2 192.1 186.9 176.1 166 153.2 140.2 126.4 112 99.6 93.8 89.2 87 85.3 82.3 79.8 75.2 69.5 64.5
269.9 272.4 278.1 281.4 281.7 275.4 267.1 265.3 262.8 251.1 235.5 216.7 202.3 188.4 174.9 164.5 156.3 142 135.5 135.6 132.6 125.3 129.5 117.4 99 91.6 89.1 86.1 81.9 88.5 90.6 91.3 90.4 97.2 95.9 101.6 104.7 109.2 111 114 118.7 120.7 118 122.7 120.2 125.8 128 130.9 136.4 136.9 142.5 145 150.8 158.7 169.8 167.2 166 169.3 173.8 181.1 193.9 198.8 200.9 204.5 211.1 217.3 222.1 226.3 233.7 242.1 250.8 261.5 273 285.8 294 300.8 307.3 313.8 319 329 335.5 346.4 356.4 365.2 374 385.6 395 402.3 414.6 426.1 436.6 445.8 456.8 479.6 496.5 510.5 540.2 577.5 597.6 590.8 587 573 566.3 574.5 593.3 597.9 594.9 591.1 584 574.6 567.9 557.6 544 536.1 523.7 509.4 488.1 472.9 442.2 428.2 420.8 413.8 397.5 387.4 382.3 375.4 363.8 358.8 348.5 338 332.1 326.9 322.6 318.3 309.5 307.7 307.4 307.9 307 296.5 288.7 283.1 279.5 277 273.5 270.1 267.4 265.7 261.5 258.1 254.3 247.8 238.7 234.1 229.5 224.2 220 214.4 204.1 200.7 196.7 189.4 189.6 188.9 190.1 185.6 183.7 177.7 188.6 187.4 182 177.3 180.2 192.3 200.7 205.1 205.2 199.1 197.5 201.3 198.2 190.7 190.3 182.3 172.3 160.2 146.2 133 119.7 105.5 98.5 92.1 88.9 86.6 83.1 79 77 71.8 66.8 62.4
267.1 272.2 278.8 281 277.8 269.6 265.1 252.8 249 238.8 227.4 207.9 191.7 179.7 166.6 159.3 147.1 134.6 123 119.3 115.1 106.8 117.5 109.1 95.4 88.9 86.4 82.6 86.6 89.1 90 88.6 88.3 90.7 94 97.4 100.9 105.2 111 123.1 123.5 124.8 126.1 131.4 129.2 131.7 135.9 140.6 145.3 148.2 150.9 151.1 160.1 166.8 169.4 168.9 171 174.9 181.9 189.6 200.7 206.1 211 214.2 221.1 226.2 232.7 236.7 242.7 252.6 264.1 277.2 287.9 297 307.7 314.7 318.3 322.7 328.8 343 349.6 357.3 364.3 369.6 378 387.1 398.1 411.7 422.1 429.2 438.1 450.2 466.1 486.1 495.7 508.5 542.9 579.4 585.6 575.4 567.6 564.9 558.3 568.1 586 585.7 578.7 569.5 564.3 559.6 554.7 549.8 538.6 537.4 527.7 518.4 497.5 474 439.9 424.2 415.3 406.5 394.1 380.7 376.8 374.9 365.9 354 343 336.2 328.1 324.2 320.4 317.6 308.8 306.2 305.8 305.8 299.4 292.9 285.5 280.3 278.3 275.3 271.1 267.8 267.2 264.8 259.8 255.6 251.2 242.5 236.4 232.4 227.3 223.5 218.8 207.4 201.4 200.5 199.1 199.3 197.9 195.8 188.1 185.7 180.7 177.7 180 176.8 176.5 182.8 185.9 188 193.7 199.2 197.1 194.7 195 195.3 197.7 190 185.8 176.3 163.4 151.7 140.1 125.7 112.4 100.1 95.9 89.9 87.7 85.1 81.3 76.4 74.3 68.7 63.6 59.2
269.1 271.2 274 275.5 272 265.3 256.7 244.9 237.3 227.1 213.8 193.9 181.6 167.7 160.1 152.4 137 127.5 116.4 102.5 99.6 94 104 99.2 90.4 86.1 83.7 84.6 88 89.1 88.4 87.7 87.2 87.7 90.7 94.6 100.4 111.9 120.2 127.9 126.5 132.7 130.5 138 134.8 139.6 144.6 148.7 151.8 154.9 157.7 156.4 165.5 168.3 168.3 171.7 175.7 181.6 187.7 196.8 204.8 213.2 221.8 225.7 231.1 237.9 243 247.5 254.7 266.4 277 290.5 298.6 305.7 320 327 330.7 332.8 344.9 354.9 360.9 368.9 375.3 382.6 387.7 394.6 400.8 416.5 426.3 435.8 438.8 451.5 464.2 479.3 493 508.6 546.4 566.6 560.2 552.9 556.1 554.3 547.8 550.2 555 557.3 555.1 550.9 544.6 542.4 540.2 537 532.5 526.3 527 512.7 500 473.8 439.1 428.2 410.1 399.3 388.6 377.6 371.3 374.6 366.3 351.7 338.4 331.5 325.4 322.3 318 313.2 308.5 306.5 303.8 300.1 295.4 288 283.6 280.8 277.7 273.6 269.5 267.9 264.2 259.5 257.5 252.7 246.3 240.9 236 232.4 229.9 220 212.1 203.3 204.2 206.8 204.9 206.5 205.9 199 192.9 186.5 180.9 174.6 174 174.9 178.3 180.6 182.5 183.7 188.4 194.1 189.8 192.2 194.2 195.3 195.2 185.9 175.5 159.7 146.9 139.7 130.7 117.9 106.4 97.8 92.4 87.7 83.4 81.1 78.2 75 70.5 65.8 60.1 55.3
269.5 267.5 268.4 268.3 269.6 266.1 256.7 242.8 232.1 219.4 203.4 185 172.8 161.8 152.3 141.8 126.9 114.5 103.9 91 85.2 84.9 87.1 87 89 84.3 83.3 86 87.6 87.6 87.8 87.3 87 86.9 92.2 96.4 103.4 113 122.5 126.7 131.8 135.9 140.2 148.4 144.4 143.8 152.9 154.2 155.2 157.9 157.7 160 165.2 167.4 172.2 176 183.5 188.3 194.2 206 217.2 223.7 232.1 240.2 242.4 248.6 257.9 265 271.8 283.2 292.1 300.8 308.3 316 326.3 334.9 342.3 347 355.7 363.8 370.4 377.4 385 389.3 397.8 400.7 405.7 419.7 430.5 435.1 435.2 450.1 451.5 466.9 482.2 496.4 533.9 540.8 535.7 538.9 539.7 536.8 528.6 528.7 528.9 532 531.7 528.1 523.4 521.4 525.1 527.3 527.6 520.4 515 503.3 495.8 469.2 439.7 425.7 408.6 392.9 382.5 376.3 368.9 368.3 363.6 353.7 338.3 330.6 325.2 322.6 315.8 311.4 308.5 307.5 299.3 292.9 292 283.5 281.7 280.8 275.2 270 268.7 266.8 262.4 258.5 253.2 249 244.6 241 236.4 230.5 224.8 216.4 214.2 211.4 213 213.5 212.9 212.5 206 202.4 194.3 189.4 181.2 176.2 176.4 169.6 178.8 181 180.4 182 188 192.1 187.7 194.4 194.6 193.7 186.2 175 162.8 146.7 146.1 133.3 118.8 105.9 99.2 97 93.2 86.8 80.6 77.8 75.4 72.4 68.1 63.1 57.9 53.7
265.1 266 266.9 265.5 269.9 267 258.4 240.7 225.2 215.2 194 179.4 170.2 158.4 144.2 131.4 117.3 101.5 90.7 84.2 83.6 83.5 84.1 85.6 86.9 84.6 82.8 87 86.8 87.2 86.9 87.1 86.4 87.1 89.4 95.7 104.8 114.7 122.4 130 140.2 138.8 146.9 151.3 154.7 151.3 159.6 162 158 160 162.2 164.3 169.4 172.5 177.3 183.8 190.6 197.8 205.5 215.8 225.5 238.9 244.8 253.8 259.8 267.7 277.7 285.3 290.7 296 303.9 310.7 317.8 325 332.5 344.1 354.3 356 362.2 369.5 380.4 381.8 390.7 393.7 398.6 403.4 405.5 414.8 424.4 426.3 430.8 446 444.8 450 465 480.1 511.2 516.1 515.4 526.6 528.4 516.5 505.3 509.4 509.9 509.1 506.8 503.8 503.5 503.3 510.3 519.8 525.4 523 511.2 494.5 478.9 464.1 441.8 425.4 406.6 391 382.6 375 370.9 366.6 362.5 355.8 341.6 332.7 326 323.2 317.7 311.2 309.1 305.3 297.1 293.9 290.3 284.1 279.5 276 271.2 265.9 265.2 263.3 259.9 255.7 250.5 246.1 242.9 237.9 234.9 226.8 218.3 217.5 216.8 217.3 217.7 218.4 218.2 212.9 209.5 201.7 198.2 190.4 187 186.3 182.9 167.8 173.7 178.9 177.7 180.6 185.1 188.2 186.3 193.6 192.9 186.1 177.6 162.9 150.3 136.8 129.1 112.1 106.4 99.2 96.5 100.1 99.3 86.8 81 76.9 73.9 69.5 65.6 60.9 57.8 53.5
257.5 261.7 261 264.3 271.2 262.9 253.6 235.3 216 203.8 188.1 175.3 163.4 151 137.9 124.4 109.6 94.5 84.6 83 83.4 83.4 84 84.5 85.3 83.1 83.9 86.9 86.3 86.8 86.2 86.2 86.2 86.6 87.7 100 106.5 113.7 130.3 141.5 144.2 150.6 155.1 164.1 164.1 164 163.5 163.6 162.5 163.5 170.5 173 175.7 183.8 191 197.5 201.8 210.1 214.9 226.5 243.4 256.9 264 271.1 283.2 284.8 293.4 301.5 311.9 316.8 318.1 321.4 327.6 334.3 341.5 352.6 360.4 361.8 366 371.4 378 383.2 393.7 396.7 399.5 401.7 401.2 411.6 417.2 413.2 426.3 433.9 434.4 434.1 442.8 455.5 481.7 494.4 501.2 508.4 503.2 491.8 481.9 488.8 491.6 490.8 487.8 482.8 485.4 488.6 498.2 505 513.4 514.9 506.5 489.5 475.5 455.2 440.9 424.9 405.5 388.7 382.8 374.3 372.4 371.1 366.5 357.5 347.3 332.9 326 319.6 317.7 312.3 307.7 299.8 292.9 289.1 287.5 282.5 278.8 272.5 268.4 265.1 262.1 259.1 255.7 251.7 247.6 245.7 241.3 233 226.9 221.4 217.5 218.5 218.8 220.1 222.1 224 219.2 215.7 208.1 202.7 196.6 196.5 193.6 189.4 181.5 171.6 163.8 171.8 171.2 177.2 185.1 184.3 187.8 191.4 186.9 174.9 162.6 152.5 140.4 124.8 109 107.5 101.9 97 99 104.5 96 87.1 80.6 76.2 72.4 67.3 63.4 60.6 57.2 55.1
255.8 260 260.3 261 263.9 261.9 252.6 230.6 210.8 197.2 183.5 171.4 157.1 143.5 131.2 118.5 104.5 90.5 83.1 82.6 83.4 83.4 83.9 84.4 83.4 81.5 84.2 86.1 85.8 86.2 85.6 85.9 85.5 85.6 89.9 99.2 111.5 116.2 130.8 147.7 155.9 160.9 172.2 177.5 174 171.2 171.6 173.5 174 174 178 181.5 185.6 196.3 201.3 208.1 213.9 218.4 227.7 245.8 259.8 268.1 276.6 284.2 295.8 301.8 309.5 317.6 326 336.7 341.1 339.8 342.2 348.5 356.6 359.8 365.7 367.1 369.9 375.2 379.8 388.8 392.1 397.7 399 396.2 396.6 405.5 412.8 404.2 419.5 423.5 421.8 421.6 423.9 433.6 449.4 464.2 484 486.4 482 468.2 461.3 471.3 475.1 476 474.4 472.5 470.9 472.4 478.2 488 494.7 497.2 496 490.8 466.3 454.6 436.5 421.8 398.1 385.6 379 375.2 375.3 374.9 367.3 359.7 350.2 334.7 324.3 319.2 317.4 310.4 302.5 297.4 292.7 289.2 285.5 282.5 276.9 270.2 267.5 263.8 258.9 255.9 251.2 248.1 246.1 245 234.8 227.9 223.7 221.9 219.8 220.3 222.5 226.6 225.8 225.3 221.6 216.9 206.9 204.2 203 199.6 194.7 186.3 178.6 172.9 155.1 160.3 165 180.1 184.6 182.9 185.8 181.6 173.7 165.3 153.2 135.2 121.8 110.8 107.5 107 100.6 96.8 105 99.9 92.5 86.6 79.7 77.2 70.6 64.6 61.3 59.4 57.3 54
255 257.8 259.5 262.1 260.9 262.9 253.6 229.5 208.3 196.9 180.2 168.6 153.2 138 125.6 113.5 99.2 87.3 82.6 82.1 82.6 83.4 83.2 83.5 81.9 79.4 84.9 85 84.9 85.1 84.4 84.6 84.9 85.6 91.9 102.2 116.9 126.1 140.3 162.4 167 175.9 180 189.6 185.7 176 173.9 177.6 184.1 183.1 191.2 191.8 196.9 204 209.5 216.5 222.9 230.8 237.9 247.1 260 272.8 286.9 301.3 314.6 318.5 326.3 334.1 347.4 358.1 360.5 358.3 363.4 364.2 368.9 369.9 373.8 375.6 378.2 379.5 382.3 388.2 391.9 393 392.6 392.9 396.2 401 398.8 395.4 405.2 408.3 410.5 412.7 415.7 420.4 430.5 441.6 456.7 463.5 457.2 443.7 444 455.5 462.1 464 460.8 457.7 455.8 455.3 458 467 466.6 470.7 472.5 469.3 457 449.1 424.9 417.9 394.2 383.5 375 376.2 375.8 377.9 366.7 358.7 352.3 341.9 326.8 316.9 312.3 304.8 302 299.6 292.9 289.2 285.2 279 273.5 269.4 262.5 259.4 256.7 252.3 246.4 245.9 239.6 235.8 228.7 224.3 222.2 219.9 220.2 223.1 230.3 235 232 229.8 217.1 215 216 212.1 206.8 198.4 190.4 185.3 180.5 171.5 159 149.1 156.6 172.3 180.2 181.2 176.4 168.8 155.4 141.8 129.6 119.1 111.4 107.1 105.6 102.7 97.2 96.3 102.9 97 90.4 86.7 80.5 76.7 69.8 62.6 60.5 59.1 57.3 53.5
254.9 257.8 257 257.1 257.9 261.1 251.5 228.8 205.3 189.5 174.2 162.6 149.3 135.7 120.1 109.8 96.8 86.2 82 81.4 82 82.9 82.6 81 83.5 84.4 85 84.4 84.6 84.3 84.7 84.3 84.9 93 100.2 109.5 122.9 138.4 154.2 170.2 172.5 180.5 191 198.9 191.6 179 176.8 185.4 187.6 192.8 198.5 204 207.3 211.2 217.2 223.2 235.4 240.7 247.8 259.5 275.8 294.9 308.9 319.4 326.8 335.3 338.2 347.9 361.6 370.4 369.1 373.7 382.7 385.8 386.6 381.9 385.9 383.8 386.7 386.7 388.2 394.5 395.6 393.4 391.3 392.2 394.4 395.3 393 391.7 392.3 392.7 392.3 395.2 402.5 411.9 414.5 422.1 425.6 438.5 434.6 423.4 427.5 436.3 447.7 448.4 445.2 442.1 438 437.2 436.3 442.1 445.2 446.1 448.7 443.3 447.3 425 405.6 405.8 395.6 382.5 371.4 372.4 371.6 373.5 365.2 357.2 349.9 343.2 327 318.7 310.4 303.2 303.6 299.4 293.4 290.8 286.1 278.2 270.7 265 262 256.5 251.4 247.7 243.4 242.1 231.8 228.3 224.7 222 221.2 220.3 221.4 228.7 235.3 236 232.2 222.7 225.2 225.6 220.9 214.5 205.6 201.3 193.3 184.5 175 165.1 155.2 143.4 154.6 168 175.1 174.5 168.9 156.4 142.9 133.8 124.1 111.5 107.9 107.1 102.6 98.4 95.7 95.2 98.9 94.9 90.7 83.3 75.3 72.3 65.9 69.7 66.3 60.7 57.9 55.1
252.8 255.9 257.7 257.8 256.7 256.6 243.8 224 200.9 186 177.6 163.7 143.4 131.4 119.2 107.8 93.6 83.6 80 80.8 80.9 81 80.4 77.6 83.4 84.3 84.2 83.8 84.1 84 84.4 84 88.2 99.5 111.7 125 140.7 161.2 169.4 174.9 177.8 184 196.3 201.8 190.8 185 181.6 185.6 191.2 199 205.6 212.8 216.2 220.8 227 235.2 245 255.7 263.6 275.5 289.1 307.3 324.9 335.5 341.8 348.4 350.3 355.5 365.1 374.3 381.2 388.5 402.4 400 398.9 391.3 392.9 394.4 397 397.7 395.5 402.6 409.2 399.1 389.7 393.3 396.3 393.8 390.9 390.2 389.1 387.9 387.6 388.4 390.9 396.1 401.8 415.7 415.1 409.6 415.2 411.6 412.4 419.2 425.5 429.7 427 423.4 422.1 425.4 420.1 423.3 426.5 426.6 423 418.1 412.2 406.9 396.7 393.8 388.5 381.6 371.3 372.5 367.8 369 361.8 350.2 347.5 340.6 330.4 318 305.6 304.4 303.3 297.2 294.1 291.1 285 276.2 264.2 262.8 259.9 251.8 244.6 241 240.5 233.8 228.6 225.3 223 221.6 220.8 220.7 223.9 230.3 232.9 231.4 230.5 234.8 234.8 231.4 225 216.1 205.7 200.4 188.7 182.6 172.2 163.8 155.8 144.5 157.3 165.4 169 164.4 154.4 143.3 135.3 127.4 118.4 109 106.5 103.6 99.7 96.6 94.6 92.5 93.5 92.1 89.7 82.5 78.2 73.2 72.9 72.3 68.6 65.6 61 58.1
256.7 259.5 267.5 261.9 258.6 250.5 230.7 218.2 209 190.2 171.6 157.7 139.9 128.4 116.8 102 87.9 79.2 79 79.1 79.4 79.8 77 82.1 83.8 83.6 83.4 83.6 83.2 83.3 83.6 86.1 95.5 111 125 136.7 151.8 168.7 172.3 181.1 176.6 186.7 194.8 198.6 190.9 189.7 187.6 190.5 196.4 205 213.6 217.8 227.3 235.3 241.5 250.7 261.1 272.4 281.6 298 312.5 321.3 334.6 347.3 354.6 357.2 359.5 364.1 367.8 379.5 387.7 400.4 415.4 405.3 403.7 405.9 404.1 401.7 402 402.2 402.4 404.7 409.8 404.5 392.2 396 403 391.8 390.3 389.4 388.4 386.9 386.1 385.9 385.9 389.1 394.2 403.9 409.2 402.7 396.1 400.5 403.7 407.5 409.9 411 408.7 408.7 408.4 406.8 407 406.6 404.8 402.9 402.5 396.8 408.7 395.6 383.6 384.4 388.3 384.2 371.5 367 363.1 360.8 357.5 345.5 345.3 336.1 333.7 313.3 304.5 305.9 300.6 298 295.6 289.6 282.4 273.8 266.8 260 255.2 247.7 241.2 234.9 234.3 227.3 225.5 223.7 222.7 221.7 221.1 222.3 224.1 226.9 227.6 235.7 243.4 239.8 239.2 234.9 226.6 215 205.8 194.3 186.2 179.9 172.1 165.1 155.5 143.8 155.5 158.1 154.9 148.2 138.2 136.2 127.8 118.3 113.7 108.2 104.1 103.4 98.2 95.8 91.8 88.3 87.7 87.4 85.4 84.9 84.3 79.5 75.3 72.8 69.2 66 63.6 59.6
267.2 271.5 266 262.6 256.4 238.7 227.2 217 209.2 190.9 169.3 152.7 138.3 127.7 114.1 94.4 83.3 78.1 79.5 79.7 78 80.3 82.1 82.7 82.2 82.6 82.5 82.7 83 84 89.1 98.9 112.5 123.3 140.3 147.3 160.2 167.7 176.8 176.6 179 186.4 193.3 193.5 193.3 193.4 191.9 195.3 205.1 213.4 223.1 232.8 238.3 246.9 256.1 268.5 281.6 294.2 300.5 315.1 330.3 341.4 349.7 359.3 368 369.2 370.4 373.7 376.7 379.7 391 401.5 413.8 415.5 414 416.2 417 413.9 406.7 406.5 408.2 409.6 413.9 406.1 391 388.7 393.8 391 391.2 388.9 389.1 387.7 385.8 385.6 384.8 385.6 386.7 390.5 392.9 393.6 391.9 389.6 392.1 399.6 401 401.2 401.5 400.5 398.6 396.6 395.3 393.1 389.6 383.7 382 376.8 380.5 375.5 366.4 365.3 380 382.4 374.5 365.6 356.8 354.8 349 339 330.6 325.3 325.3 306.6 307.2 305.4 302 299 294.7 288.1 278.5 271 264.6 255.1 249.1 243.5 238.9 234.2 228.6 225.6 224.1 223.2 222.4 221.7 221.5 221.4 221.3 225.6 235 242.8 247.6 243.1 239.3 233.2 222.8 210.2 198.4 192.1 186.6 181.8 173.9 163.5 153.5 145.4 149.2 149.8 143.7 135.1 129.4 126.3 120.6 113.3 110.2 105.6 98.8 97.1 96.2 95.2 91.5 91.7 90.5 90.7 90.6 89 85.1 81.4 78.3 75.4 69.4 65.4 62.9 60.4
276.7 277.4 272.2 254.3 240.1 233.9 230.5 217.4 203.1 183.1 169.1 149.7 135.8 113.9 98.4 88 79.9 78.7 78.2 81.7 81.1 80.9 81.6 81.7 81.5 82.4 82 82.1 84.4 89.6 98.6 114.2 129.5 141.6 150.6 155.4 158.8 168.5 175 176.6 181 188.4 192.4 196.7 201 197.2 195 203.4 214.5 221.1 231.8 245.5 250.9 257.5 273.7 292.2 302.5 306.5 318.5 334.7 348.9 357.6 363.3 371.3 378.6 380.3 382.6 384 385.1 387.5 397.5 412.2 425.9 427 429.1 420.6 421.2 419.2 418.6 415.5 414.7 411.8 406.8 402.6 391.5 381.8 382.4 388.7 390.9 388.2 389.5 387.2 383.6 382.7 384.1 383 383.5 386.3 387.6 387.8 388.7 385.3 384.7 387.4 394.1 396.9 396.8 395.1 393 390.6 387.3 383.6 376 367.1 362.2 360.6 357.3 357.7 352.6 363.2 367.1 372.5 372.2 360.7 353.2 348.6 343.2 335.4 324 322.1 312.4 307.6 309.3 306.1 303.6 299.3 293.6 284.9 276.9 269.9 259 255 246.7 235.7 233.4 228.2 226.5 225.8 224.9 223.3 222.3 221.7 221.5 221.4 223 228.2 237.7 242.5 245.7 243.1 235.8 228.4 216.1 203.1 199 191.1 186.7 179.2 167.5 158.3 149.4 141.7 141.9 138.6 133.5 124.8 124.8 126 114.7 111.3 109.6 104.3 97.3 94.5 91.5 90.8 90.1 92.6 92.1 92.5 92.1 88.4 84.9 81.9 81.2 80.5 74.3 68.7 65.6 62.1
276.9 280.7 271.1 249.3 237.3 231.4 226 214.3 194.8 173.7 159.7 141.2 125.1 109.3 94 81.9 79 78.1 76 80.6 80.9 80.9 81.1 81.7 80.8 81.7 81.4 82.3 90.4 101.8 118.9 130.6 140.7 149.3 159.6 165.1 168.9 175.3 180.2 180.9 187.5 193.9 196.3 204.6 205.7 199.2 201.4 211.6 223.1 232.9 244.6 253 260.6 271.7 289.8 307.4 321.5 326.9 331.7 345.3 362.1 371.1 376.5 385.7 393.2 394.5 396 394.5 392.8 391.7 396.3 419.5 429.2 430.7 435.8 428.8 423.9 423.2 422.3 423.5 425.3 417.3 408.8 398.1 383.4 374.5 373.4 384.5 389.3 386.5 384.5 384.1 381.3 377.8 379.4 381 382.6 382.2 385.1 383.6 383.6 381.8 381.7 381.8 382.6 391.1 390.9 388.2 387.2 385.4 378.7 372.6 363.8 357.7 350.3 344.7 342.9 343.2 344.5 353.9 357.2 359.3 362 352.1 351.3 340.3 339.9 340.2 325 315.4 309 313 311.5 310.2 306.1 299.2 292 284 276 267.1 256.9 252.6 244.7 235.6 230.4 225.6 225.2 224.7 223.9 223.2 222.2 221.8 221.9 222.8 224.4 230.4 236.8 238.3 240.8 237.5 229.5 220.7 208.3 201.8 196.8 189.8 181 170.9 158.3 148.3 141.6 131.2 134 128.9 124.9 119.4 120.7 118.2 108.9 108.7 107.8 102.4 96.4 91.8 91.8 91.2 90.6 93 93.2 96.7 93.3 90 87.7 85.3 83.6 78.1 75.1 72.3 69.9 64.3
269.8 263.9 255.2 246.1 233.7 219.2 215.2 202.1 184.7 172.2 160.7 144.2 123.7 104.3 90.6 79 78.8 77.7 77.9 78 79.5 80.1 81 81.2 80.4 80.9 82.3 90 101.4 114.6 132.6 143.7 155.8 163.7 174.5 180 183.8 192.3 187.7 192.3 192.9 196.7 202 207.6 205.9 203.9 209.8 219.9 235.6 245.7 257.3 269.8 275 287.5 305.1 320.4 333.8 341.8 352.8 368.3 379.7 388.8 394.7 400 405.4 407.8 408.9 405.5 399.8 397.9 397.3 418.9 434 437.2 444.5 441.9 430.6 427.9 423.9 423.9 426.1 423.9 408.7 396 379.1 367.4 363.8 379.7 386.3 383.1 382.2 381.1 376.9 375.2 375.5 376.7 382.3 381.4 381.7 380.5 380.5 380.8 381.2 381.1 381.6 382.3 383.1 380.8 379.7 376 368.1 359.3 353.8 350.3 339.3 334.1 333.1 330.9 333 342.4 346.8 349.8 351 340.7 337.7 333.5 341.5 334.4 317.8 310.4 314.6 317 316 312.4 306.8 299.1 291.4 282.9 272.5 261.5 253.8 250.6 243 232 227.2 225.5 224.2 223.9 223.6 222.7 222 221.8 222.2 225.7 225.1 227 231.5 231.9 235.6 228.8 220.6 212.4 207.4 198 191.6 181 171.5 159.3 148.1 140 132.4 124.7 123 118.8 115.6 114.5 112.7 107.7 108.7 108 103.3 100.7 95.7 92.7 92.7 91.6 93.6 103.8 102 100.8 95.6 90.6 86.2 83.2 81.5 79.4 77 74.3 67.5 64.2
256.9 251.5 245.9 237.5 224 213.5 201.7 191.8 180.9 169 159 151.9 124.5 104.2 88.7 78.2 78.6 77.2 77.2 79.2 79.7 80.3 80.2 80.1 80.4 83.7 94.4 107.4 118.7 134.4 147.2 163.9 164.1 176.5 186.6 191.8 195.2 198.2 196.8 200.4 202 207.1 210 211.3 211.7 212 216.9 233 249.9 259.4 272 285.6 293.2 309 319.9 336.5 350.8 361.8 371.4 388.7 396.9 406.7 412.6 416.3 421.9 421.8 420.2 414.9 407.6 404.2 404.5 419 432.1 449.3 454.7 452.8 438.6 426.9 422.8 422.3 424.8 421.1 411.3 390.3 373.7 360.2 359.4 373.7 383.6 379.8 378.4 378.1 375.7 374.8 376.5 377.5 379.3 379.7 380.2 380.1 380.1 380.1 380.4 381.2 382.2 378.2 377 375.4 370.4 365 356.9 345.8 351.1 346.3 333.5 329 323.5 319.2 327.5 327.8 330.9 339.9 333.3 324 329.7 332.8 331.6 323.9 312.2 313.7 320.3 322.2 318.2 314.2 307.6 298.1 289.3 280.5 269.9 257.1 249.5 246.7 236.3 228.5 225.6 223.6 223.6 223.8 223.6 222.1 222.3 221.9 221.9 226.2 224.7 225.6 226.2 226.3 225 216.1 209.6 204.2 199.5 191.7 180.2 168.3 160.7 146.2 141.1 133.1 129.1 118.9 116.2 114.7 113 112.1 107.1 107.6 110.4 106.5 104.8 102.6 95.6 93.7 92.9 94 100.2 104.5 106.7 106.5 100.8 90.6 87.6 85.8 84.3 80.9 78.8 73.7 68.5 62.6
259.2 257.3 242.8 229.2 217.3 209.3 202.8 191.9 175.3 165.7 159.2 147.8 121.4 97.6 81.5 78 76.9 77.3 76.2 78.4 80 80.1 80.1 80.5 89.3 97.9 112.1 131.2 142.1 156.9 165 172.9 181.1 190.5 193.7 200.2 203.6 205.9 207.6 212.6 210.6 219.4 216.4 219.6 220.7 219.4 229.1 251.6 266.1 276.7 284.2 297.2 310.7 322.8 337.5 352.5 367.1 379.5 390.8 405.9 417.1 429.1 437.2 437.5 438.4 436.1 432.3 427.5 416.5 412 411.4 416.2 434.7 451.4 458.8 456 442.8 428.6 421 418.9 414.7 409.9 401.1 379.7 363.7 353.6 355.2 365.8 376.5 374.3 374.2 379 373.8 373.9 373.9 376.1 382.9 381.8 380.8 380.9 379.8 379.9 380.1 380.5 380.7 379.6 374.9 369.8 362.4 354.4 346.3 350.5 353.2 351.7 341 322 314.5 313.1 315.1 320.9 321.8 323 320 315.9 319.3 331.6 320.1 310.2 311 321.5 325.4 324.9 322.2 316.5 304.3 293.7 283.7 275.5 263.2 252.4 246.1 239.2 231.8 228.4 225.9 223.7 223.6 225.7 222.1 222.9 222.9 222.7 221 223.1 223.2 226.9 223.8 219.9 213.9 205.2 201.8 196.7 189.3 178.3 165.8 158.8 147.6 139.3 135.5 128.9 122.2 116.2 114.2 113.2 112.4 108.4 107 108.3 105.3 101.7 99 99.2 94.6 94.2 95.5 100.5 105.4 109.5 109.1 101.9 95.3 91.1 88.8 87.3 87.8 82.1 79.2 76.7 66.8 59.1
255.3 252.5 243.4 224.6 210.2 200.2 181.2 182.7 170.8 163.1 151.9 138.9 114.8 96.1 78.3 77.4 76.2 76 77.1 78.3 78.7 79.6 80.8 89.5 108.3 118.3 133.4 147.7 157.8 171.7 186.5 195.4 202.9 209.4 213.4 212.3 214.5 215.6 219 223.7 223.8 226 225.7 234.2 236 225.2 239.3 265.3 275.7 299.3 305.9 312.4 327.9 347.1 364.2 376 388 395.1 410.6 426.2 436.9 444.2 453.6 453.2 452.9 450.1 448.3 445.2 433.6 422.8 418.3 419.8 431.1 443.7 447.8 454.6 437 419.5 417.5 411.3 403.1 395.5 387.2 368 356.3 345 347.8 355 357.7 362 366.8 370.8 367.1 371.2 372.4 371.7 379.1 384.2 379.9 382.1 380.2 380.1 380.5 381.4 381.9 381.7 382.4 374 363.6 357.2 353 352.4 351.2 352 343.3 320.5 306.8 305.8 306.3 308.7 308.4 307.7 304.8 305.4 312.6 310.8 305.7 308 318.9 324.9 325.9 325.3 320 309.2 295.5 284.5 278.2 269.6 254.8 248.1 241.3 236.1 231.7 229.9 227.6 225.3 223.2 222.4 223.5 224.9 225.3 221.8 221.8 221.3 219.9 222.5 217 208 201.9 195.8 194 185.5 176.7 167.6 157.7 146.9 137.1 136.7 130.8 127.3 120 112.2 113.8 111.5 110.2 108.2 107.8 106.5 103.7 100.1 100.2 98.5 97.9 96.1 101 107.9 111.6 112.3 103.8 96.7 95 92.9 89.6 89 92.1 82.9 80.1 70.5 62.2 49.7
247.4 241.2 230.4 216.2 200.9 192 186 178.9 167.8 159.7 146.5 131.3 106.9 88.7 77.5 76.6 75.5 77.5 77.8 77.1 79.9 79.9 84.3 101.2 117.4 137.5 146.8 155.6 169.2 184.9 187.7 199.2 210.6 216.3 221.9 227.3 229.5 228.7 230.4 227.8 229.7 232.5 235.2 245.3 246.4 239.2 258.2 278.9 298 316.4 326.4 333.1 350.6 367.4 386.2 397.8 408.9 411.3 426.7 440.8 450.4 458.1 464.9 466.2 465.3 456.4 457.7 459.8 447 435.5 426.2 423.5 430.6 445.9 437 430.9 417.7 403.7 403.1 398.8 393.6 385.2 368.8 355.4 347.6 334.2 336.1 344.3 346.9 357.1 357.8 362.8 358.4 364.2 366.8 367.5 371.5 376.7 379.1 381.3 381.2 381.5 382.3 383.5 383.9 385 376.9 346.2 346.8 349.3 342.6 344.5 350 348.3 338.7 322.2 300 300.7 304.5 303.9 300.9 302.4 296.2 300 303.8 299 303.4 314.1 321.4 323.6 321.6 319.6 315.4 299.3 286 277.3 272 260.7 252.4 245.5 236.7 231.3 231.3 228.8 225.9 223.4 222.9 225.3 227.6 227.8 227.8 224.6 215.1 218.4 215.9 211.7 204.8 196.2 194 186.8 185.2 178.2 169.7 162.3 148.5 136 134.5 131.4 127.1 123.1 115.9 110.7 110.9 111.2 109.5 107.1 105.5 104.3 107 107.7 105.1 102.8 102.3 102.2 109 113.5 115.9 113.2 102.7 100.3 98.6 95.3 89.4 88.8 85.4 79 68 56.8 50.9 49.7
226.3 224.2 217.4 205 196.5 190.4 181 169.9 163.7 158.3 144.9 129.7 102.9 86.5 76.3 75.3 76.5 77.3 76.8 78 79.8 81.8 90.5 106.1 120.8 143.7 144.7 153.2 175.2 187.8 199.3 213.3 222.5 227.8 232.8 238.4 244.6 245.2 247.5 238.9 240.3 246.2 249.1 254.5 253.8 253.8 271.9 289.2 314.3 334.9 346.6 357.2 374.4 389.2 405 419.5 430.4 432.9 443.5 453.2 464 474.3 481.4 482.8 473.4 468.7 465.5 459.2 450.6 436.6 432.8 433.7 425.7 424.4 431 415.4 400.3 390.9 391.7 388.4 382.8 369.6 354.8 344.8 334.9 323.7 327.1 335 337.7 347.4 349.4 355.6 358.7 360.7 363.1 364.7 369.5 374.5 378.1 380.8 381.9 383.4 384.4 385.6 385.6 385.2 363.7 326 339.7 329.3 336.4 326.1 326.1 322.2 320.3 303.5 295.7 295.8 299 297.8 300.3 294.1 295.3 295.2 292.5 298.7 308.3 317.7 319.2 318 313.9 311 301 283.5 277.3 270.7 260.7 253.7 248.5 240.7 233.7 231.6 230.5 224.7 223 224.9 229.8 232.1 232 231.9 230.5 226.5 219.3 208.3 208.6 201.3 193.2 189 182.8 178.3 173.3 168.3 163.3 151 135 129.9 129.3 125.8 123.3 118.3 112.4 108.4 109.2 109.8 111 106.8 106 114.2 108.2 107.5 108.6 108.7 105 110.1 115.3 118.1 118.2 115 108.7 103.5 103.7 97.6 83 82.9 74.6 64.7 63.9 60.7 54.5 48.8
213.6 217.3 206 203.7 203.9 196.5 184.1 172 164.7 150.5 145.5 124.4 97.8 81.4 75.9 73.6 75.8 75.6 83.7 84.5 83.3 85 92.9 104.1 121 133.7 141.6 159.7 177 187.5 200.6 211.5 226.1 237.2 244 249.2 257.4 256.5 256 256.5 257 259.8 261.4 263.9 259.5 266.6 284 304.6 323.3 347.7 362.7 374.5 394.5 409.8 426.9 438.5 447.1 451.9 465.4 474.2 479 487.4 497.3 494.1 480.2 481.8 472.8 451.8 442.3 430.3 429.9 426.1 422.3 404.7 407.1 392.6 383.4 385.7 381.3 374.5 363.8 359.1 344.1 331.2 322.5 310.5 320.3 328.2 331 340.1 347 354.8 356.1 357.2 360.6 363.6 371 376 380.6 382.9 383.5 385.9 386.9 388.1 387.9 376 337.2 321.9 321.7 314.6 326.6 325.5 322.2 321.6 318.3 296 293.9 293.6 291.3 292.3 290.6 295.9 296.8 287.5 296.3 301.1 311.3 313.5 312.5 310.8 309.2 297.7 283.8 273.5 271.8 261.7 253 247.6 243.7 236.2 232.5 230.6 224.6 223.8 227 232.7 237.9 236.5 235.9 236.1 233 228.8 222.8 216 202.6 196.9 189.5 177.4 174.7 166.3 164.9 161.9 150.7 139.8 129.9 125.9 123.4 122.2 119.8 116.3 110.7 108.5 109.1 107.6 105.8 105.5 106.8 109.9 110.5 110.4 113 110.3 114.6 116.9 117.8 117.8 114.8 110.5 108.1 104.4 94.7 87.9 80.3 69.3 68.6 70 67.3 61.5 54.1 48.7
204.6 210.4 211.6 212.8 211.5 207.1 188.1 176 169 152.3 148.5 127 94 79.6 75.4 73.6 75.4 75.5 81.6 86.5 88 89.4 93.9 105.9 123.8 130.1 139.1 158.2 175.7 197.4 205.2 213.5 226.3 240.7 248.6 257.9 260.2 265.1 263.8 265.1 270.1 271.6 272 270.7 268.2 275.1 288.2 313.1 334.1 358.1 371.9 388.9 410.9 426.4 441.2 454.4 463.9 469.2 484.4 491 500.9 499.5 508 505.6 486.3 483.4 472.3 456.6 435.9 427.9 425.4 417.7 409.3 395.5 386.5 377.6 375.6 376.3 373 360.8 352.3 338.1 329 324.4 311.5 308.4 322.3 335 338.3 338.5 348.3 354.3 357.7 357.6 360.5 365.4 371.9 377.7 386.7 385.3 390.2 390 390.8 393.7 393 354.8 352.1 353 323.3 306.4 313.1 323.5 313.9 309.2 308 288.1 292.5 289.1 285.7 284.3 288.9 292.5 283.2 292.1 296.7 304.3 306.2 307.7 306.1 302.3 294.2 283.7 274.4 264.8 263.9 252.1 248.9 241.4 238 236.3 232.5 229.5 224.3 228.3 234.9 238.9 241.3 240.5 240.5 237.6 233.9 230.6 225.6 218.4 208.9 195.7 184.9 175.3 165.6 161.4 159.5 149.2 139.7 134.1 121.5 118.2 116.5 115.6 115.7 113.1 108.3 107.7 107.2 105.5 104.5 105.9 108.9 111.5 114 117.9 116.1 115.2 119.1 118.5 116.2 111.9 107.8 106.3 102.9 100.2 92 84.3 79.4 76.6 75.4 72.7 67.6 60.1 52.1 48.2
199.2 215.3 210.3 209.6 201.5 191.4 170.9 163 153.9 148.9 132.8 107.9 89.2 82.4 77.9 75 73.2 74.6 77.1 79.8 84.7 88.7 97.6 108.9 121.8 132.8 146.5 164.1 181.3 198.8 210.1 221.4 230.7 240.3 251.3 259.5 266.5 271.6 275.6 282.1 286.3 287.3 280.3 279.3 273.6 278.7 288.4 308.4 328.6 354.3 380.2 390.4 413.3 430.7 448.5 462.3 472 482 493.2 502.1 517.7 519.4 517.6 517.6 492.2 476.3 461.4 450.4 437.5 427.6 423.8 415.5 407.2 393.7 384.3 374.8 366.1 363.9 357.5 344.9 339.8 319.9 319.6 319.8 303.3 304.4 320.7 335.4 342.8 343.2 349.6 356.1 364.8 362.2 364.7 369.1 373.9 378.8 384.4 391.4 399.3 396.3 394.6 396.9 394.9 388.2 376.1 358.6 324.8 297.5 296.1 307.6 305.6 293.9 294.1 280.8 282.8 284 283.9 280.3 285.3 279.6 286.7 290 297.7 299.1 301.4 302.1 295.2 296.2 283.7 274.5 267.5 259.5 253.1 247 240.6 238.6 238 236.2 234.1 228.4 229.1 234.3 240.1 245.1 245.9 243.6 242 238.7 234.2 230.2 227.1 214.2 204.5 197.1 188.4 176.8 159.1 154.3 149.4 141.4 133.3 126 115.7 115 114.3 114.2 114.5 112.2 107.6 106.7 106.4 104.5 105.1 107.7 107.1 110.7 117.7 122 121.3 121.8 120.8 117.6 109.9 106.3 104.5 105.3 107 103.4 96.6 88.4 89.9 84.2 78.6 75.4 68.6 59.6 51.8 47.1
188.4 201.2 197.9 201.2 187.1 176.3 157.5 147.9 138.9 135.2 110.3 93.4 87.3 82.9 80.5 77.7 74.5 74.3 73.9 76.7 83.8 90.4 102.2 110.5 120.6 141.3 152.7 173.8 196.5 213.1 222.9 233.5 244.7 255.2 264.1 267.7 256.9 278.9 290.5 298.3 306.7 296.9 288 286 280.9 284.5 290.3 300.2 326.2 350.1 382 394.4 413 428.4 442.6 455.5 467.5 474.9 483 500.6 510 510.9 506.1 497.7 481.8 472 461 451.5 441.3 430.7 427 422.2 414.6 401.9 390 375.5 360.4 350.6 341.7 328.8 317.6 306.1 306.4 304.4 294.4 304.7 317.8 328.1 340.1 348.5 352.6 358.3 363.6 366.2 369.6 375.4 379.8 382.5 388.8 395 401.7 400.2 396.9 395.7 392.3 380.5 371.2 359.1 333.8 296.5 283.9 285.4 294 300.2 284.6 275.4 273 276.3 283.3 278.5 276 283.2 284.9 290.2 293.1 295.4 296.5 294.2 291.2 283.7 277.9 268.8 258.8 252.2 246.5 241.7 239.9 239.2 239.5 236 234.3 232.6 242.6 245.4 248.1 250.3 250.5 246.4 242.4 239.5 233.7 229.4 221.1 209.6 201.5 195.7 185.2 170.6 154.4 143.5 137.6 130.2 124.3 116 113 112.9 112.5 113.2 112.8 108.2 106.9 106.2 105.8 104.7 106.5 106.9 112.6 116.5 121.3 121.6 123.2 122.9 117.1 113.5 112.1 108.7 107.9 109 111 106.6 104.4 104.4 99.5 93 84.2 77.4 68.8 59 51.3 47.2
185.2 189.3 179.7 180.6 170.3 158.1 145.8 139.5 139.3 117.2 94.3 85 83.1 81.5 80.9 81.9 74.5 72.7 74 75.7 88.7 99.1 104 112.9 122.7 142.2 153 175.2 196.4 217.4 229.7 243.3 251.8 261.4 258.2 251.9 277.4 299.9 302.9 307.9 318.5 308.6 292.3 292.7 287.9 290.8 296.1 301.6 316.4 337 364 382.7 389.3 396.7 422 427.8 431.6 454.7 469.8 476.2 482 483.6 482.6 481.1 468.7 465.5 466.6 462.8 451.1 445.7 442.8 434.8 418.5 406.3 393 377.6 358.4 349.5 338 320.2 297.7 290.5 287.6 290.6 279 304.4 319.2 333.6 348.9 355.7 360.1 366.6 368.9 373 371.8 373.6 381.4 386.8 390.3 396.7 399.8 402.3 399.3 394 383.5 369.5 357.7 337.7 338.3 312.8 283.9 276.9 276.7 276.6 275.6 267.7 268.1 271 278.4 272.1 278.6 280.4 283.2 288.4 289.7 291 290.6 288.8 280.5 275.4 270.9 261.2 252.2 245.2 243.4 240.5 240 240.7 238.5 238.3 236.6 245.7 252.3 253.9 254 255.5 254.1 251 245.3 239.2 234.8 227.9 217.6 207.5 199.8 188.2 174.8 159.1 143.4 135.1 129.3 119.2 114.1 113 111 110.4 111.4 109.2 107.3 106.4 105.8 106.1 105.3 105.3 107.5 110.2 115.3 119.2 119.2 119.7 123 122.6 123.3 122.5 118.5 115 116.3 120.2 121.7 120.3 118.1 110.9 105.3 98 86.8 78.6 68.3 58.1 50.8 45.1
180.7 176.6 163.3 162.8 155.1 151.7 139.3 136 122.5 99.2 84.6 81.5 80.9 80.8 80.1 79.7 77.5 70.9 74.1 75.3 88.6 95.6 99.2 108.5 118.6 136.2 141.9 159.5 179.7 213.1 223.6 238.8 246.2 244.7 242.5 250.7 287.7 312.2 312.6 312.5 327.9 325.1 298.2 298.4 296.6 294 297.1 304.3 311.5 323 341.9 359.8 366.1 375.7 387.8 396.1 403.6 429.4 445 459 464.9 459.5 464 466.4 456.4 453.5 452 456.8 462.5 460.8 454.4 442.3 428.4 415.2 397.1 376.1 359.3 349.7 335.2 316.4 294.9 278.5 278.9 279.8 279.6 305.1 320.8 336.9 354 359.9 362.2 372 377.2 379.7 376.8 375.2 377.7 382.4 389.2 398.2 401.6 407.2 397.8 386.8 374.8 354.3 333.3 319.4 325 321.7 306.6 298.8 296.2 288 268.4 265.3 267.6 269.6 268.2 275 275.8 278.9 282.9 285.1 287.5 285.9 286.3 278.4 275.8 269.5 262 253 244.9 242.9 241.6 241.2 242 244 243.5 245.8 253.9 259 261.7 265.3 263.6 260.7 258.2 252.6 249 242.6 236 228.4 215 205.9 192.7 177.6 163.2 148.4 135.1 125.2 117.9 114.1 112.2 111.3 110 108.3 106.4 106.6 106 106.2 104.8 105.2 104.8 104.5 108.3 112.6 115.2 114.7 115 118.4 125 129.9 132 133 126.1 127.4 133.9 137.6 135.3 128.6 118 112.5 106.6 98.3 88.8 78.5 67.5 55.5 48.2 43.2
161.2 151.5 147.6 146.3 145.3 143 132.2 121.1 106.5 90.2 82.8 81.2 80.4 80.7 81.1 80.9 78.7 73.7 73.4 75.7 81.3 86.4 93.1 99.7 109.5 121.6 134.2 147 168 191.5 210.7 223.7 229.7 230.1 228.3 255.3 286.1 305.5 305.4 314.2 337.9 332.1 310.7 306.5 311.6 308.4 300.8 299.9 307.2 318.3 327.9 338.2 347.7 357.2 362.5 372.9 385.9 406.6 421.8 439.6 440.3 438.5 441.4 438.5 437.2 432.5 428.1 436.1 452.8 467 453.8 442.7 427.9 413.7 395.9 379 364.9 350 336.6 314.4 294.8 277.1 271.3 269.1 286.7 305.7 321.4 333.9 357 360.3 363.8 371.3 377.7 380.5 378 379.3 380.6 384.1 385.5 403.5 400.9 393.8 384 372.1 357.8 344.8 317 300 295.6 308.1 315.4 307.7 306.7 285.9 268.8 264.5 265.1 264.9 270.3 272.8 276.9 279.5 280.1 280.7 281.3 281.4 277.9 273.6 269.1 261.9 253.3 245.6 246.1 242.7 243.5 241.8 250.5 249.6 253.1 261.9 268.1 271.1 272.2 279.1 278.5 271.2 267.1 258.7 253.4 246.5 237.2 226.7 213.1 200.4 183.4 166.1 150.1 136.3 125.2 115.8 112.8 112.3 111.5 110.1 108.4 107.7 106 105.6 105.9 106 104.6 104.1 104 104.4 106.9 110.2 111.1 111.5 113.6 122.6 131.9 137 141.4 141.8 136.9 138.8 145.9 145.4 139 131.5 121 114.1 104.5 101.7 89.2 76.4 64.4 52.1 43.2 43.2
134.9 134 136.7 142.1 139.6 134.2 121.9 107.7 93.2 84.2 82 81.3 81.8 82.3 82.5 80.2 77.8 73.9 70.1 75.8 78.2 81.5 86.6 95.8 104.4 117.2 133.7 140.2 162.3 180.5 196.1 210.1 212 207.7 222.1 243.2 269.9 280.6 292.5 309.1 332.2 328.5 316.1 321.5 324.1 327.2 318.9 312.3 307.8 316.3 323.1 326.3 327.6 335.5 350.4 367.3 376.5 388.2 398.1 417 425.1 425.3 431.3 424.9 416.6 425.3 412.7 411.8 426.5 446.6 442 434.6 421.2 408.5 396.2 379.7 366.9 348.2 333.6 316.2 295.6 275.4 265.2 271.8 290 305.1 316.7 328 349.8 353.4 362.3 369 374.9 379.1 378.6 382.8 386.2 385.2 385.2 391.5 393 380.4 360.5 342.1 330.3 319.1 303.3 287.2 283.3 287.3 309.1 315.1 315.6 282.8 268.3 261.9 262.4 267.1 272.7 277.8 278.1 276.4 276.5 275.7 274.3 274.1 270.5 266.6 259.7 255.7 245.4 245.7 246.8 246.8 249.7 255.1 257.7 260.6 270.1 276 281.2 281.8 284.4 287.3 286.1 278.6 269.9 265.6 259.5 249.5 236.8 221.8 204.5 187.8 171.1 155.3 139 126.1 116.6 112.5 111.6 110.4 109.8 109 107.1 106 105.1 105.4 105.6 105.5 104.3 103.9 103.9 105.6 110.6 112.4 111.3 113.4 120.5 128.9 137.9 144.9 151.3 151.9 145.3 149.2 151.8 144.6 137.3 129.8 119.5 117.4 116.1 103.7 87.8 73.7 60.4 43.2 43.2 43.2
123.6 126.7 131.7 133.9 135.5 122.9 110.9 92.3 82.7 81.3 81.5 82.2 82.2 81.9 82.2 78.3 76 73.8 70.5 75.8 77.9 81.8 87 92.2 101.1 111.8 123.9 135.9 153 165.2 180.1 191.8 193.6 199.9 216.3 233.3 253 261.2 276.8 294 313.2 312.3 311.9 330.2 334.2 336.4 340 335.6 321.4 313.7 319.3 322.7 326.6 332 340.2 357.6 370.6 380.5 386.6 390.6 397.1 404.6 409.3 406.2 401.2 406.8 403.4 395.9 405.9 419.6 421.7 419.1 410.7 401.8 393.6 379.1 363.3 346.1 334.3 323.2 295 271.9 260.7 273.9 289.8 302.6 312.8 322 332.1 340.5 352 360.2 370 373.3 379 384.3 389.2 386.2 379.9 377.1 373 366.3 344.6 324.1 308.9 299.5 286 278.4 272.9 267.7 277.7 281 283.2 265.6 257.2 262.4 265.3 275 279.8 277 274.5 273.5 273.1 271.6 269.1 266.2 261.7 258.4 250.8 245.7 246 248.4 252.4 254.9 259.3 264.6 267.9 276.8 283.3 288.9 295.3 292.6 294.2 289.8 287 276.7 270.1 267.1 260.8 247 228.4 208.4 192.6 175.9 158.1 139.8 123.9 117.7 113.3 110.9 110.7 108.7 108.5 108 107 105.4 104.6 104.6 104.3 103.6 103.5 103.3 104.2 108.8 111.3 112.6 115.2 118 125.8 134.5 146.2 157.1 164.1 158.7 150.6 151.5 150 144 134.4 128.5 124.8 121.4 117.1 101.9 85.4 70.2 55.4 43.2 43.2 43.2
116.7 119.5 124.1 128.4 133.6 106.7 96 80.8 77.8 81.5 84.9 84.1 82.1 81.2 79.3 76.5 74.2 72.9 72.8 75.2 78.6 84.3 94 98.6 107.5 112.4 118.6 127.7 144.7 156.5 169.3 177.8 183.1 194.1 206.4 223.4 236 246.6 259 273.6 284.6 302.8 306.5 325.2 338.8 343.4 350.7 345.6 341.3 322.4 315.4 319.5 323.7 330.2 335.2 343.7 355.3 365.9 373.7 377.8 374 378.3 387.3 390.9 386.4 387.9 394.6 385.3 387.4 397.1 401 401.8 398 390.2 385.1 375.7 359.2 345.6 332.5 321 295.5 266.9 253.3 272.5 287.3 302.6 311.3 319.4 324.3 331 338.7 356.8 371.9 373.3 374.9 380 385.9 382.4 373.1 369.6 359.3 342.5 326.8 312.7 297.2 286.9 274.8 268.3 264.5 259.9 255.2 254.4 255.4 255.2 255.8 263 272.4 278.6 279.2 275.4 274.3 270.9 269.3 265.6 261.9 257.8 252 245.9 243.8 243.4 248.2 252.4 257.3 262.6 265.7 274.6 282.8 291.2 297.5 298.5 297.8 294.2 291.1 286.3 285.6 278.5 272.6 264.9 252.9 230.4 212.2 196 177.6 160.7 143.5 126.4 117 114.3 111.8 109.4 108.9 107.6 108.2 107.2 106.9 104.9 104.7 104.1 103.9 103.1 103.3 103 104.1 109.8 117.5 119 117.1 126.6 142.6 145.8 158 165.5 170 165 156.9 151 144.9 140.3 140 133.5 127 118.3 110.8 96.9 81.8 64.7 46.7 43.2 43.2 43.2
111.3 114.7 121.6 133.8 126 93.2 79.7 75.7 78.5 86.6 85.6 84.3 82.3 80.5 79.2 75.8 69.5 68.9 74 77.1 81 86.8 94.4 100.1 108.7 118.1 124.1 130 138.7 157.2 164.3 172.2 184.6 192.1 204.5 217.6 234.3 245.2 250.5 261.9 276.1 290.4 299.2 323.8 338.1 353.4 360.7 358.3 357.7 341.1 318.9 317.2 320.2 325 331.6 338.1 347.5 359.8 369.4 370.7 368.6 359.7 362 364 365.8 363.1 363.3 368.3 366.5 373.7 378.4 379.9 379.2 375.8 372.5 370.3 353.2 344.6 326.2 316.3 288.5 260.3 252.4 270.6 281.8 298.7 312.1 318.7 323 325.4 335.9 344.6 364.5 375.9 372.7 370.1 381.7 367.1 365.1 361.3 348.1 331.7 314.1 300.1 287.6 279.3 269 260.9 255.9 254.4 253.9 253.5 252.9 252.8 259.6 270.3 277.5 279.1 278 277.1 273.1 266.9 263.5 259.8 255.1 249.6 241.6 243.4 242.3 244.5 255.4 256.4 261.8 266 279.4 291.1 298.4 303.1 302 295.5 292.1 290.4 282.4 282.7 286 274 265 251.6 237.9 218.9 200.7 180.3 162.2 146 131.6 118.4 114.5 110.6 109.3 108.2 107.3 107 107.5 105.9 104.4 104.1 103.1 102.3 103.9 104 103.8 102.6 103.8 110.5 113.1 114.4 124.7 134.9 153.1 161.1 164.7 170.9 171.8 167.8 154.6 149.9 147.2 147.3 142.9 133.7 126.4 117.4 104.1 88.2 73.8 56.1 43.2 43.2 43.2 43.2
105.4 110.7 115.2 123.2 99.8 80.3 73.4 74.3 84.5 86.3 82.6 81.8 81.5 78 73.9 70 74.2 73.5 77.2 79.8 83.1 89.3 95 100.6 108.9 120 131 139.6 146.1 156.9 166.6 176.9 187.5 194.6 201.6 218.8 233 242.3 251.4 260.3 276.2 290.7 304.3 326.4 343.7 355 367.4 364.2 358.4 346.2 328.3 314.9 316.3 319.5 326.3 333.5 344 357 367.3 365.9 359.3 351.8 351.3 353.7 359.3 358.3 353.3 354.3 357.5 362.1 361 360.9 362.4 367 367.5 366.3 352.5 338.5 321.7 300.4 273.1 250.9 254.4 270.4 284.5 296.1 312.2 320.6 322 323.7 325 331.9 351.5 364.4 366.3 363.5 364.8 357 355.7 349.7 336.3 319.4 303.1 290.9 279.3 271.6 263.2 257.5 255.6 255.3 256.5 255.7 252.5 255.9 267 275.2 279.2 278.7 276.9 273.5 267.9 263.8 258.5 252.9 248.2 239.4 241.6 241.1 243.5 248.6 256.7 260.9 267.9 284.1 297.1 305.1 305 301.3 297 287.2 286.5 280.6 277.2 280 274.3 262.1 247.8 235.1 216.9 194.8 176.1 161.5 148.7 135.6 121.2 113.6 112.2 108.2 107.5 107.3 105.4 105 104.3 102.7 103 102.4 102 101.6 102.9 104.1 102.6 102.5 105.9 106.9 109 125.4 135.2 146 161.4 172.7 174.5 170.5 167.5 159.3 154.6 151.8 150.2 148.6 142.3 132.2 120.9 111.3 95.2 80.5 65.1 45.6 43.2 43.2 43.2 43.2
94.4 98.2 101.7 98.7 81.4 71 70.5 74.4 78.9 78.8 81.9 84.4 76.7 72.1 70.7 69.8 73.1 77.4 84.1 85.3 87.8 93 101.2 106.4 114.3 125.1 142.3 150 157.7 167.2 172.4 183.4 193.7 201.7 208.5 219.3 233.2 245.4 254.8 261.7 277.7 293.3 306.5 323.9 344.4 360.6 369.2 366.8 357.7 350 337.9 314.4 309.2 311.6 317.3 325.9 336.7 349.5 354.9 355.1 344.1 343.9 340.1 338.2 342.9 341.4 342.6 347.4 345.2 351.4 348.6 353 358 349.7 349 351 345.6 331.4 318.4 292.7 264.8 243.4 255.5 270.3 283.1 294 312.6 323.9 324 326.4 326.2 326.3 336.5 347.8 349 348.6 347.8 345.5 341 333.6 322.3 307.2 294.1 283.4 274.6 266.7 259.6 257.2 258.5 261.3 261.1 251 251.4 265.6 271.8 277.2 277.8 278.3 272 267.7 264.5 257.1 252 247.6 239.3 237.8 238.5 241.8 245.5 252.9 256.9 268.7 283.2 299.2 306.4 304.5 299.5 293.6 285.5 278.3 276.5 272.2 272 271.8 257.9 250.9 233 216.3 193.3 178.8 165.7 151.4 135.5 121.4 113 111.7 109.1 107 106.9 105.3 103.5 102.9 102.8 103 102.4 101.8 101.5 101.6 103 102.5 102 102.2 103.4 109 116.7 131.4 133.3 148.4 162.7 176.2 173.1 163 163.6 165.9 151 146.4 148.5 149 140.4 122.2 110.3 99.6 85.8 69.5 54.4 43.2 43.2 43.2 43.2 43.2
84.5 81.5 83.3 77.7 69.2 68.4 72.1 76.9 77.3 78.7 85 78.9 71.3 69.1 67.6 70.5 75 83.6 88.4 93.7 99.3 105.4 111.7 116.6 123.5 135.8 147.1 159.2 172 174.9 181.5 191.6 199.2 209.2 217.8 226.6 243.6 255.7 262.7 268.1 278.1 295.1 316 336.6 358.1 367.4 367.7 364.5 356.4 358.1 349.7 325.3 303.8 300.6 305.4 318.3 329.2 341.6 347.3 341.2 335.7 335.8 330 322.7 327.2 328.6 327.2 332.6 335.7 338.3 339.1 342.7 343.7 342.1 345.4 343.6 339.1 329.7 323.6 295.4 257.5 240.3 254.5 268.3 279.7 295.8 316.3 325.1 326.9 326.6 329.5 325.4 324.2 332.2 336.5 336.7 335.5 333.1 326.1 316 308.6 298.1 285.6 279 272.2 263.9 258.9 258.2 258.9 262 253.8 246.2 258.9 269.4 275.5 277.1 276.6 274 267.4 262.6 257.7 249.7 245.6 239.7 235.6 236.2 238 241.6 245.4 253.8 267.3 280.3 294.5 301 304.1 297.6 288.3 281 273.1 269.1 267 265.6 262.4 258 247.8 232.4 209 194.3 183.7 169.7 157.3 141.7 124.3 110.8 109.1 108.4 106.9 105.9 105.5 103.5 102.6 101.9 102.1 101.7 102.2 101.7 102.3 101.9 102.1 101.4 101.6 101.4 102.3 109.9 122.3 129 135.4 149.5 159.8 165.4 168.4 172.1 160.6 152.8 144.7 141.1 143.2 136 122.8 115.7 103.7 87.2 75 59.6 44.9 43.2 43.2 43.2 43.2 43.2
80.6 73.9 70.8 67.4 65.1 66.4 72.4 75.9 77.9 82.5 79.7 70.6 68.1 67.4 70.3 75.4 82.9 89.2 98.5 105.5 113.6 118.4 120.8 128.3 134.4 145.2 152.2 166.4 176 182.2 193.6 201.8 212.8 218.4 225.5 236 250.1 259 267 272.4 280.5 296.3 317.5 333.2 353.2 370.6 367.5 364.5 359.8 361.4 351.1 330.3 304.5 293.5 294.7 302 313.6 328.2 333.6 332.1 324 318.8 318.1 317.6 324.7 321.8 319.6 321.9 325.8 333.4 336.5 333.1 337.2 339.5 343.7 344.2 339.5 328 314.8 289.5 251.6 237.7 254.4 268.4 280.7 297.6 315.8 321.6 325.4 325.8 328.4 329.7 322.8 322.1 322.9 324.5 322.3 319.5 309.7 302.4 299.7 289.9 279.8 274.4 267.8 261.3 259 259.5 263.7 256 247.2 253.6 264 271.6 275.7 275.6 274.4 268.9 264.4 258.1 249.8 247.4 246 236.4 234.6 236.4 235.9 238.8 247.6 261.2 273.9 287.1 300.2 300.2 298.4 284.6 273.5 266.4 262.9 263.5 256.9 252.3 251.1 245.7 229.4 213.4 191.7 183.3 174.3 160.6 146.9 131.5 113.8 108.2 108.6 106.3 105.7 104.9 103 102.5 103.3 101.8 102.9 102.1 102.9 102.8 102.5 101.7 101.9 101 101.2 101.2 103.2 107.5 121.8 130.8 134.7 148.5 159.3 166 167.3 170.1 157.5 149.2 140.6 134.7 133.6 126 116.2 102.5 89.1 75.7 65.2 51.7 43.2 43.2 43.2 43.2 43.2 43.2
82.5 67.5 68.2 65.6 63.9 63 68.7 75.3 81.8 76.8 68.6 65.1 68.9 73.2 77.8 82.5 90.6 105.8 113 119.2 124 128.9 132.2 139.5 149.4 153.6 162 172.7 183.2 195.6 208.2 221.4 229.6 233.4 234.4 242 251.8 259.1 266.6 274.5 284.1 303.6 329.6 344 356.4 369.2 378.5 369.5 362.9 352.7 348.8 328.9 305.9 289.2 287.1 291.7 297.6 309 316.3 314.8 312.3 310.2 305.1 307.9 314.3 316.3 315.7 316.9 327.3 329.1 329.1 327.5 327.2 333.2 343.9 343.4 331.7 321.9 308.5 277.3 244.7 241.3 259 271.4 288.2 302.6 312.1 320.2 323.4 327.6 327.9 323.9 321.9 317.3 314.6 310.5 308.3 302.8 298.3 294 291.1 283.9 276.1 269.7 263.1 258.8 258.2 258.3 256.9 245.4 250 254.8 267.8 272.4 277 273 269 265.7 259.3 251.1 250.3 249.6 241.9 234.3 232.9 232.6 232 240.5 256.4 269.4 278 292.9 296.7 294.5 284.8 268.9 263 259.3 260.2 254.2 247.4 242.9 236.8 225.7 209.2 194.1 177.8 167.5 158.7 145 130.8 119.4 108.3 106.5 105.7 105.2 104.7 103.6 103.8 105.2 104.8 104.4 104 104.6 104.3 103.3 103 101.9 101.6 100.5 100.7 100.7 102.8 108.1 118 125.4 139.6 148 152.1 158.5 165.1 162.6 154.8 144.3 134.2 132.6 128.7 116.5 104.8 97.3 80.9 69.1 61.4 49.7 43.2 43.2 43.2 43.2 43.2 43.2
80.1 66.4 66.4 65.2 62.5 62.3 67.7 73.1 80 71.6 66.4 70.5 74.9 80.3 86.1 92.4 102.6 114.5 124.2 131.7 133.2 138.1 142.2 149.2 158.7 161.7 170.3 179.3 190.2 203.4 219.6 234.1 243 250.1 244.9 248.8 261.9 271 273.7 280.3 292.2 315.5 342.6 354.8 356.3 366.6 373.4 376.8 370.7 347.4 336.5 323.6 305.3 290.6 284 285.2 289.7 299 307.2 304.8 303 302.2 298.5 298.7 302.8 312.4 312 313.7 319.6 325.1 317.9 317.3 323.1 330.8 330.2 329.8 328.9 314.6 287.5 260.9 234.3 246.8 262.8 279.9 296.8 311.4 318 322.8 323.9 325.7 328.6 321.9 316.8 309.9 304.8 300.1 298.6 296 293.5 288.4 283 279.3 274 266.6 259 254.9 256 252.8 244.8 245.7 255.2 264.5 269.5 274.3 272.6 270.1 266.2 263.2 258.2 256.7 253.9 245.5 235.3 231.9 230.8 228.3 232 246.1 256.5 269 277.3 290.3 290.4 284.1 269.7 258.5 256.8 258 251.8 246.1 240.7 234 221.6 208.4 193.6 180.2 165.7 153.1 141.4 131.5 120 112.1 105.1 104.8 104.2 104.2 104.2 105.2 106.6 105.7 107.2 110 106.3 104.3 104.6 105.1 102.5 101.3 102 100.3 100.2 100.2 101.7 107.1 114.5 126.6 137 142 145 151.3 161.8 156.9 147.9 141.3 136.6 129.8 124.1 112.5 102.5 91.1 76.5 67.1 57.7 45.5 43.2 43.2 43.2 43.2 43.2 43.2
76.4 62.9 63.4 62.3 61.1 61.9 65.9 67 69.1 65.3 69.9 75.7 82.3 91.6 98.1 106 118.8 126.9 135.8 141.2 143.9 148 151.4 156.4 162.8 169.8 179.7 189.9 202.6 212.3 225.9 240.8 251.3 254 255.1 254.7 261 268.2 277.6 288.7 305.8 325.9 349.3 360.7 361.1 361.4 365.2 371.1 367.4 344.1 334.6 325.4 311.9 295.7 285.5 282.1 283.7 288.5 293.1 297.1 293 292.1 291 291.3 294.3 302 305.6 308.6 309.1 311.4 309.1 311.2 321.3 327.1 323.4 318.3 315.3 302.3 278.8 255.1 224.6 247.4 266.2 284.1 301.9 315.5 323.2 327.8 326 324 319.6 312.5 307.7 303.7 299 294.6 291.4 291.8 291.6 288 282.1 276 270.2 263.3 254.8 250.9 250.1 243.2 237.9 249.8 258.6 265.5 270.4 269.7 268.8 267.7 266.3 263.2 259.6 256 249.4 239.1 234.7 233.2 228.9 228.3 235.3 245.5 254.7 265.9 275 280.6 279.4 268.9 256.2 252.4 250.2 248.7 248.4 241.9 233.4 222.8 213.8 193.1 181 168.2 155.5 140.3 128.8 120.7 112.4 105.3 103.3 103.4 103.2 104.1 106.8 107.6 107.8 109.4 109.8 108.3 106.1 106.6 105.4 102.8 102.9 101.9 100.7 99.9 99.9 100 102.1 107.5 114.5 124.1 129.9 132.7 137.5 146.7 149.8 148.7 147.9 139.8 135.8 129.4 119.3 112.9 104.1 90 73.8 62.3 50.3 43.2 43.2 43.2 43.2 43.2 43.2 43.2
64.9 61 59.5 59.1 59.1 61.9 65 68.1 68.7 71.5 78.6 84.4 93.2 101.9 110.3 119.8 131.3 139.1 148 154.8 156.2 156.5 160.5 164.3 170.9 178.7 187.4 198.6 211.1 221.3 235.9 251.4 259.2 261.9 258.8 265.5 261.1 270.7 283.2 292.5 306.8 328.7 349.7 354.3 353.8 355.9 375.6 372.5 356.5 339.8 328.6 319.6 310.1 299.7 297.8 288.3 277.8 278.7 278.6 280.6 279.5 278.6 282 282.6 289.8 291.6 294.7 300.8 304.1 299.5 300.5 302.6 311.2 323.6 322.4 317.4 306.4 298.2 270.4 246.7 224.7 242.8 264.5 285.7 301.1 313.2 319.9 325.2 324.5 321.4 315.1 309.3 305.5 300 296.4 291.1 287.7 287.7 289.3 287.6 281.1 272 264.2 257.4 251.2 248.8 241.2 235.5 244.6 253.5 261 266.9 270.3 268 267.5 266.6 264.3 260.9 257.2 250.8 239.3 236.5 234.3 231.4 227 230.1 235.7 244.8 254.4 260.6 268.2 270.7 265.3 253.1 249 246 242.4 249 243.6 235.6 220.5 214.7 198.8 179.6 166.6 154.6 138.4 124 115.1 111.4 106 102.6 101.6 102.5 107 107.9 108.9 109.4 111.8 110.7 107.5 106.5 110.4 109 105.1 103.2 103.3 101.5 100.5 100.5 100.1 100.1 101.1 106.6 115.1 122.9 125 126.8 139 147.5 151.9 145.1 140.9 135.2 135.1 130.4 123.8 113.5 100.5 83.1 71.5 57.3 43.2 43.2 43.2 43.2 43.2 43.2 43.2 43.2
63.2 59.2 59.7 63.1 64.8 70 77.7 76.4 76.5 78.3 83.6 91.5 102.5 114.5 122.8 134 144 152.1 159.8 168.2 173.2 174.9 176.5 186 186.7 188.1 198.2 209.4 219.6 232.1 250 261.4 267.9 267.8 266.2 264.3 268.6 280.1 284.8 291.6 307.3 326 337.4 342.7 351.3 356.9 368.6 367.7 362.7 348.6 327.8 317.9 308 302.5 305.8 307.4 285.2 269.2 270.7 269.4 271.6 269.7 273.7 273.5 279 284.8 289 297.4 294.9 291.2 290.5 295 305.9 318.4 320.4 318.5 306.9 291.3 270.8 237.7 225.7 242.9 259.2 283.9 298.5 307.6 313.5 319.1 319.6 316.7 311.1 307 303.3 297.5 291.8 288.6 286.1 284.1 284.8 282.1 278.7 271.8 257.5 245 247.8 245.4 233.1 238.4 246.2 255.6 263.5 268.2 268.7 267.4 265.9 262.3 258.2 256.4 251.6 242.6 239.3 238.8 229.3 229.3 225.6 230.2 234.8 244.4 252.7 254.1 257.5 256.7 250.7 243.3 240.4 237.6 240.3 246.2 237.4 220.9 210.6 197.5 187.5 167.2 151.7 139 127.1 114.2 109.7 106.5 102.4 101.4 101.6 102.5 108.1 109.5 110.1 111.1 109.7 108.1 112.5 112.4 110.5 108.6 108.1 103 101.8 101.4 100.7 100 99.8 100 101.1 108.4 115.8 121.2 123.8 130.5 139.7 144.4 144.9 139.1 134.8 133.8 142.3 135.6 125.7 107 89.7 77.8 64.8 52.2 43.2 43.2 43.2 43.2 43.2 43.2 43.2 43.2
61.6 58.9 59.2 63.9 65.9 69.8 74.9 78 80.6 84 90.4 101 113.7 126.8 136.8 147.2 154.7 162.1 174.7 183.1 190.3 193.8 195.4 198.9 196.9 197.7 205.8 214.3 230.1 246.8 262.7 270.5 280.1 276.8 274.2 265.1 282.2 295.4 296.3 290.7 304.4 324 329.2 329.1 343.2 353.6 352.3 356.2 357.3 352.2 332.7 315.5 307.5 303.3 310.3 308 298.9 269.8 261.2 263 262.8 263 267.4 264.4 266.4 276.3 282.7 289.2 290.7 289.6 286.2 291.1 308 316.6 321 319.3 307.2 285.8 257.5 227.7 225.9 243.5 259.1 280.1 294.9 302.2 309 314.2 314.2 311.4 307.5 304 300.9 294.7 288.6 284.9 281.2 279.7 279.3 281.6 274.4 266.2 253.2 240.7 242.1 230.4 234.9 243.9 251.7 258 265.4 268.8 268.1 265 260.7 255.9 253 250.2 245.5 242.3 239.5 234.6 234.7 234.7 225.4 227.5 232.1 241 243.9 244.2 243.8 240.4 236.6 234.1 234.5 233.5 236.8 237.1 223.7 204.5 196.4 183.2 168.8 150.7 140.1 128.2 119.6 109.2 106 102.9 101.9 102 102.3 102.7 108.9 112.3 112.3 109.9 111.2 116.9 115.8 110.8 110.1 108.7 106 101.8 101.4 102.7 103.6 102.8 99.2 99.8 104.2 111.6 117.8 123.2 129.5 138.3 140.1 143.4 138.1 134.6 142.9 146.6 142.9 133.8 120.1 97.8 83.7 72.9 61.1 47.9 43.2 43.2 43.2 43.2 43.2 43.2 43.2 43.2
59 56.4 62.9 67.4 69.1 72.5 77.5 80.9 85.9 90 97.8 108.3 121.1 138.9 147 158.3 166.4 177.4 189.9 196.9 203.6 204.2 204.6 206.9 208.8 208.4 211.1 224.1 235.1 249.2 269.3 275.7 283.2 279.5 276.3 266.1 288.9 305.1 296.7 291.2 303.2 318.5 322.7 325.8 339.3 355.9 353.1 344.7 340.7 339.9 336.4 319.3 307.2 305.2 315.3 313.5 301.9 276.4 256.8 253.6 254.8 255.4 256.9 257.4 258.9 271.4 275.3 273.2 280.5 283 281.6 288.3 308.2 319.5 323.5 315.2 300.5 275.6 247.2 214.1 222.8 239.8 259.1 276.8 291.9 303.5 307.8 310.3 309.6 306.1 303.6 301.9 298.4 293.1 289.1 286.6 282.7 275.1 267 275.1 269.9 258.5 257.4 241.5 230 232.1 236.4 247 255.8 261.3 265.8 267.9 266.6 259.1 253.9 252.4 247.3 242.2 241.7 241.1 236.3 238.5 239 235.5 228.8 224.2 229 234.4 235.9 233 233 230.3 224.2 225 228 230.1 230.1 218.4 204.3 191.4 182.3 171.7 155.5 137.9 126.1 118.1 116 106.7 106.6 105.7 101 101.8 101.5 103.1 111 111.9 111.7 113.2 117.1 118.6 115.7 122.8 114.4 107.5 102.1 102 105.5 109 113.1 110.8 100.7 100 106 111.7 116.2 121.5 130.7 136.6 136.9 137.7 137.9 146.8 154.4 148.1 137.4 129.3 115.6 93.6 78.7 68.6 57 45.5 43.2 43.2 43.2 43.2 43.2 43.2 43.2 43.2
54.6 65.8 69.8 75 76.9 81.9 84.6 90.5 93.6 97.4 106.6 118 133.5 145.5 157 169.2 180.5 195.3 204.3 209.7 212 211.7 214.8 216.2 214.8 215 221.2 233 244.5 254.5 268.5 271.5 275.3 280.4 276.5 267.6 272.9 292.6 289.7 281.3 284.1 300.5 314.9 321.8 326.3 346.6 358.8 355.6 335.3 334.9 341.7 330.5 313.2 305.2 312.1 314.9 310.2 283.6 255.3 248.1 249.1 250.9 251.3 249.2 251.7 261.2 266.1 263.4 271.8 275.3 274.7 289.2 300.5 317.7 314.5 303.9 283 264.3 235.1 204.9 222.1 239.7 265.3 277.9 293.2 308 310.9 305.4 302.7 300.5 302.1 300.7 295.2 291.4 290.6 288.2 281.1 275.3 262.1 261.6 252.5 245.7 246.8 235.1 229.4 234 239.9 250.5 258.4 262.8 266.5 265.9 260.5 254.5 250.5 246.7 242.8 240.6 240.5 236.4 243.5 242 240.6 235 228.7 217.7 224.6 229.9 227.9 223.8 223.2 219.1 217 218.7 224.1 219.9 212.8 199.9 190.7 183.4 172.6 157 140.7 125.2 113.5 108.5 107.3 108.8 110.5 101.9 100 101.1 104.6 108.3 112 113 120.5 119.3 117.6 119.5 124.9 117.4 108.5 107.5 110.6 109.4 113.7 119.2 120.4 113.2 102.1 100.3 104.8 109.8 115.1 119.9 127.1 129.9 135.4 144.4 144.6 150.7 149.9 145.2 134.8 124.6 108.7 93.6 78.5 64.7 47.4 43.2 43.2 43.2 43.2 43.2 43.2 43.2 43.2 43.2
65.8 73 78.2 82.2 85.5 89.2 91.2 95.1 102.1 104.9 114.7 128.1 142.5 150.8 161.9 179.1 191.9 205.8 214.6 222.1 226.8 225.7 225 225.4 223.5 223.4 228.6 238.1 248.2 255.8 266.3 268.8 269.1 271.3 270 262.9 256.6 264 266.5 268.8 279 292.4 305.6 319.8 326 331.9 337.7 344.9 336.5 328.9 329.4 329.5 317.8 305.3 307.3 310 308.2 283.6 261.3 247.5 244.6 245.4 244.2 242.1 243.2 247.8 258.5 256.8 261.5 266.9 268.4 277.6 290.7 311.7 305.9 291.1 266.6 247.7 225.1 205.2 222.5 242.6 272.8 280.4 290.5 303.6 316.8 307.5 298.2 296.9 302.3 301 297.5 291.8 289.3 287.9 280.1 271.9 257.9 243.1 233.7 230.8 231 223.3 229.8 234.3 243.3 254 261 265.2 266.4 261.8 253.9 248 244.2 242.2 236.4 236.3 237.5 247.2 247.8 245.2 240.8 235.3 227.9 213.2 219.5 221.6 217.7 215.6 212.5 211.6 214.1 214.6 213.1 207.4 193.9 185 181.5 171.6 158.8 144.7 125.7 110.9 105.3 104.1 112.1 113 103.8 99.9 104.8 110.5 114.4 118.5 116.5 119.2 119.3 119.3 125.7 124.2 120.6 113.2 107.8 109.9 111.5 115.9 121.9 124.2 120.5 113.1 104.1 99.5 104.5 110.1 112.8 119 122.4 128.8 144 146.1 143.7 146.3 149.6 142.7 131 118.8 104.1 89.8 74.8 59.6 43.2 43.2 43.2 43.2 43.2 43.2 43.2 43.2 43.2 43.2
68.6 75.4 82.1 85.5 89.7 100.4 100.1 102.5 109.4 116.1 125.4 136.7 148 158 172 185.8 200.9 211.5 224.5 238.1 245.6 241.3 242.2 243.4 241.3 237.5 238.9 240.2 246.8 257.7 269.9 274.5 264.5 265.1 272 256.6 243.7 245.4 247.9 255.3 276.9 293.5 300.3 308.8 336.6 332.8 331.4 330.4 330.1 324.6 322.8 317.5 310 304.6 297.4 295.9 292.8 282.2 266.3 248.6 242.7 239.7 239.1 238.8 240.2 243.1 253.4 250.4 246.8 251.2 255.1 261.7 266.7 278 280.8 273.1 264.4 237.1 214.4 204.6 222.8 245.9 270.9 283.1 290.5 299.3 308.5 311.2 298.8 293 297 304.6 302.2 291.9 289.8 286.9 282.2 273.2 248.2 237.8 232.7 228.5 219.9 227.9 228.1 236 247.5 256.9 263.4 266.1 262.8 255.8 247.7 239.9 240.1 234.3 234 242.2 249.4 251.7 249.3 244.7 238.2 233.1 224 213.6 212.2 209.5 208.7 206.2 203.6 209.3 206.5 206.5 203.9 190.5 180.9 177.9 171.8 162 145.9 125.9 110.3 103.9 103.7 109.4 111.4 103.6 100.1 108.9 120.1 124 122.5 117.4 117.5 118.7 121.7 126.4 124.7 120.6 114.1 111.7 111 113.3 112.6 114.4 119 120.8 117 110.2 106.5 101.1 103 107.5 110.5 112.7 120.7 132.4 142.8 139.4 143.9 150.9 150.9 140.7 128.6 111.8 97.4 82.7 66.8 51.9 43.2 43.2 43.2 43.2 43.2 43.2 43.2 43.2 43.2 43.2
70.9 82.9 88.3 91.7 96.4 104.7 107.4 111.9 118.3 131.5 138.2 144.6 156.7 167.1 179.1 192 204 216.5 234.5 247.6 256.7 253.3 258.5 260.5 250.7 252.2 247.9 248.9 250 258.8 264.1 262.9 253.6 255.2 272.4 249.9 238.6 234.7 236.1 249.4 266.8 283.1 300.3 314 346.7 343.5 337.8 335.6 326.5 323.2 328.7 310.6 305.1 296.1 286.4 281.4 281.8 279.1 268.2 256.4 244.4 238.4 235.9 236.5 237.7 240.3 244.7 246.3 242.9 243.5 244.5 243.6 245.4 248.5 250.3 251.8 246.7 228.3 205.5 203.7 225.9 251.3 273.3 288.5 295.5 302.5 310.5 305.3 299.2 291.4 293.8 300.8 301 296.9 285.8 284.9 279.8 265.7 245.4 233.1 227.5 219 225.1 225.9 228.6 241.4 253.7 261.1 264.7 263.7 257.9 249.8 241.4 234.3 232.5 233 243.4 252.2 253.6 252.6 248.3 239.5 233.7 228.7 220 215.8 208.1 195.8 193.7 192.7 198.1 201.5 199.3 195.4 188.1 180.5 173.4 169.8 162.8 146 127.9 110.1 104.7 102.5 102.7 107.2 103.2 105.1 113.6 123.4 131.3 128.4 121.7 116.6 116.8 119.4 125.8 124.6 121.1 116.3 119 115.3 115.3 115.8 111.4 109.4 108.7 111.8 111.3 105.7 101.4 98.1 101.7 104.9 109.6 116.3 120.2 128.5 132.3 135.1 141.8 147.5 148.9 137.9 122.7 104.3 91.3 79.5 63 45.4 43.2 43.2 43.2 43.2 43.2 43.2 43.2 43.2 43.2 43.2
76.7 98.3 100.4 98.5 102.3 112.1 119 125.3 129.2 139 147.2 153.8 163.2 172.5 184.3 195.5 208.7 223.5 236.3 246.4 259.1 260.4 267 267.6 265.8 266.4 260.3 257.1 259.4 259.4 259.3 255.8 247.4 250.7 258 244.3 232.1 230.9 233.4 244.8 262 271.2 291 311.2 333.3 348.4 340.7 335.7 327.5 324.4 314.1 308.5 297.4 293.4 286.3 277.2 274.6 273.8 272.6 265.8 252.8 238.4 235.1 234.7 236.3 240.8 241.5 241.1 241.1 241 243.6 235.1 234.9 234.8 234.8 233.3 228.9 219.5 199.5 203.1 228.2 255.8 277.7 294.1 300.6 306.3 314 303.4 295.1 288 286.3 287.5 294 292.3 283.6 273.8 266.9 253.2 238.1 228.4 217.6 216.1 220.1 226.1 235.9 248.6 258.8 262.1 262 258.6 253.1 244.9 236.7 232.4 234.8 246.5 251.7 254.9 254.2 252.3 246.5 236.6 230.4 225.5 220.1 212.9 203.9 195.4 181.4 188.8 194.2 194.5 192.8 185.5 174.8 168.8 163.6 153.3 144.3 129 113.6 104 105.3 102.3 103.3 102.6 109.1 120.9 132 130.7 127.9 123.7 122.4 116.5 118.1 124.8 123.5 121.3 119.4 122.8 119.7 118.9 116.9 116.2 108.7 107 106.6 103.3 102.6 97.2 96.9 95.4 99.8 103.9 112 115.3 120.9 118.8 125.6 131.8 138.8 147.8 144.2 129.5 115.7 101 85.3 72.3 57.3 43.2 43.2 43.2 43.2 43.2 43.2 43.2 43.2 43.2 43.2 43.2
79.8 94.7 109.7 108.6 110.1 121.8 130 132.7 141.1 147.9 156.7 164.3 169.7 179.5 191.6 202.9 214.6 227.1 237.8 247 262.3 263.6 267.8 274.2 279.1 277.2 268.1 266.1 268.8 258.7 252.3 249.8 239.2 247 242.4 231.1 225.4 227.1 233.1 243.6 257.2 265.9 286.3 319.5 336.5 352.2 349.9 333.5 331.8 322.9 305.5 297.6 292.8 291.4 283.5 275.1 270.6 270.3 273.7 268.5 254.9 243.1 236.1 233.3 234.9 244.7 243 239.7 238.9 238.3 236.9 229.2 227.5 228.1 225.4 220.5 218 208.3 190.5 201.7 221.3 244.2 267.3 297.2 308.7 316.2 326.6 314 294.4 286.9 282.6 278.8 285 281.6 276.9 263.8 248.9 238 231.2 221.4 209.1 214.9 220.6 228.7 241.9 253.2 259 260.7 257.9 252.7 246.5 238.7 233.5 234.9 243.6 251.4 254.7 257.1 255.2 251.2 242.3 235.2 228.2 222.8 215.7 208.8 198.8 193.7 187 183.6 187.5 185.5 185.3 173.4 162.9 158.4 151.2 142.4 131.4 116.7 103.8 103.6 100.4 99.1 100.4 110.3 122.9 130.8 133.5 129.3 125.9 121.7 120.1 122.3 122.4 121.6 120.6 118.8 125.9 124.6 119.7 120.1 117.4 112.5 106.5 106.9 106.4 97.1 96.8 92.4 94 88.1 99.9 106.2 108.6 112.5 117.9 122.1 126.1 136.6 140.6 142.8 138.6 126.1 108.5 97 82.7 67.6 51.1 43.2 43.2 43.2 43.2 43.2 43.2 43.2 43.2 43.2 43.2 43.2
79.4 90.3 105.8 111.3 115.5 124.4 138.7 144.2 154.2 165.6 173.2 180.8 184.4 188 202.8 207.5 213.9 223.8 237.1 255.3 258.6 265.9 275.2 285.9 293.5 299.1 283 271.8 276.4 259.8 241 235 227.6 231.1 226 222 220.2 225.2 232.1 241.7 256.2 264.3 284.3 316.6 338 348.8 349.7 337.1 318.9 313.2 301.9 293 296.5 284 277.7 274.7 270.3 270.1 271 269.2 268.7 258.1 240.6 233.7 233.5 248.3 247.1 238.7 236.3 232.6 229.2 221.3 216.2 215.4 211.9 206.2 201 189.9 182.1 201.2 220 243.8 262.1 281.7 306 313.8 319.6 320.1 303.3 288.1 278.6 272.1 272 275.8 272 259.9 241.4 225.4 219.8 205.8 212.2 217.7 222.6 232.5 246.4 253.9 256.7 257 253.2 245.1 237 233.7 234.9 242 250 254.7 259.2 260 255.1 247.9 239.3 231.6 226.6 218 210.8 203.4 199.4 192.4 181.2 172.7 175.9 175.7 168.7 156.9 150.5 141.2 135 128.7 116.5 104.3 103.8 98.3 98 101.4 112.1 121.5 127.8 129.4 126.1 123.5 120.2 126.4 127.7 125.7 124 119.1 118.5 121.2 127.7 125.7 122.7 120.3 113 109.5 106.2 105.9 100.9 95.9 96.2 90 86.7 94.5 99.6 103.6 106.7 112.4 116.2 125.9 131.6 137.8 140.8 136.4 131.5 121.5 104.8 92.5 76 62 43.5 43.2 43.2 43.2 43.2 43.2 43.2 43.2 43.2 43.2 43.2 43.2
83.3 93 106.3 117.1 124.2 135.8 150.8 158.4 170.3 179.9 185.6 190.8 194.8 194.5 210 209.1 214.9 223.9 249.5 251.2 259.7 279 286.3 303.8 314 307.8 292.6 282.1 282.4 269.5 237.9 227.2 221.5 216.2 217.7 213.4 217.4 225.4 233 239.6 249.5 267 285.2 311 339.2 350.4 350 335.4 317.6 307.9 300 290 296.2 282 275.9 273.2 270.3 275.8 277.2 281.6 279.8 270.3 247.7 233.6 230.1 243.6 244 235.7 228 222.1 219.4 213.8 209.6 205.2 201.3 198.1 191 181 185.4 199.9 215.6 245 263.6 281.4 299.4 315.5 311.1 303.1 299.5 294.8 274.8 261.5 263.4 265 260.9 250.5 231.7 218.8 207.1 209 211.8 217.9 226.1 237.4 247.4 251.5 252.4 250.4 243.1 236.2 232.5 238 243 251.7 255.4 260.5 264.2 263.8 255.9 244.9 237.2 229.6 219.9 213.5 208.1 198.8 189.6 179.6 167.8 165.8 171.1 164.9 154.8 145.1 137.5 131.6 127.5 116.2 107.2 101.1 98.5 98.9 107.1 121.8 123.2 125.2 127.8 124.8 121.2 122.9 132.5 133 129.6 125.4 123.2 119.2 121.3 122.4 128.4 125.4 122.7 117.3 112.4 108.2 106.7 103.8 99.8 100.6 102.3 99.4 87.3 90.9 95.6 99.3 102.6 105.9 114.3 124 129.6 133.4 133.5 130.4 123.9 115.8 101.2 86.6 69.2 48.5 43.2 43.2 43.2 43.2 43.2 43.2 43.2 43.2 43.2 43.2 43.2 43.2
86.3 103.7 116.8 127 134.1 148.8 161.2 172.8 186.8 195.1 200.2 200.3 203.9 203.5 211.3 211.4 212.7 224.9 240.8 245.6 260.2 272.9 290.3 314.2 325.8 318.5 308.8 291.7 286.7 266.7 241.6 224.6 218.1 212.4 208.1 210.8 214.8 228.1 233.9 238.2 247.5 262.3 282.2 306.5 329.2 344.3 350.7 343.5 328.3 312.1 300.5 287.8 283.9 282.4 280.5 274.4 270.5 284.4 285 283 274.4 264.7 252.8 233.7 226.4 230.7 232.7 227.3 220.2 218.8 216.9 211.4 204.6 198.4 193 187.9 184.4 172.2 186.1 199.6 215.8 241.8 269.3 289.1 301 310.4 303.1 292.7 278.6 268.8 259.9 253 251.8 252.9 249.2 237.1 221.1 209.4 199.4 206.4 213.1 220.9 228.6 238.7 245.1 246.2 243.8 237.1 232.8 233.2 239.3 246.8 250.8 258.2 265.9 270.6 270.6 267.5 254.7 242.9 233.3 221.8 216.2 212.1 203.2 187.1 182.3 177.8 161 157.4 161.2 154.4 142.8 135.1 129.3 128.4 117.9 107.9 100.1 97.9 103.3 114 119.6 123 122.4 123.4 123.6 122.3 126.3 136.3 137.9 140.1 137.6 125.2 126.7 121.5 122.3 125.2 125.4 123.7 117.7 115 113.2 113 108.4 111.7 107 107.3 108.9 101.8 87.9 84.3 88.5 95.3 101.7 105.3 116.4 120 125.7 126.7 126.3 125.2 118.4 111.5 95.3 77.7 60.7 43.2 43.2 43.2 43.2 43.2 43.2 43.2 43.2 43.2 43.2 43.2 43.2 43.2
92.2 110.2 126.3 137.3 143.1 159.1 169.3 181.5 198.5 207.1 213.4 216.8 214.6 216.1 211.1 213.4 218.9 225.4 230.5 239.8 257.4 275.1 291.9 322.6 335.9 331.8 313.5 296.5 286.1 266.5 242.4 223.4 216.7 211.9 204.8 206.4 212.3 229.6 233.7 236.6 247 258.3 280.4 303 318.8 332.3 340.6 342.6 333.2 313.4 297.6 282.3 278 282.4 284.3 269.1 267.2 273 274.5 274.3 276.5 270.9 254.3 237.7 226.6 222.8 223.1 218.7 216.7 216.1 215.4 210.6 203.7 197.1 193.6 183.1 177.3 172.3 186.3 199 219.2 240.1 265.6 292.1 308.2 316.2 301.7 287.3 277.1 268 255.8 245.1 242.8 241.5 236.1 222.5 209.7 195.1 201.7 205.5 214.8 223.1 229.6 236.6 238.9 235.4 231 230 238.4 249.8 256.3 258.9 261.3 266.6 277 275.7 272.3 263.9 251.7 239.9 225.7 218.6 215.5 207.4 194.4 180.7 178.6 167.8 153 150.9 148.6 140.7 131.1 124.4 128.9 119.5 108.8 101.2 99.1 108.4 114.2 120.1 115.3 120.1 121.3 122.8 122.7 133.4 139.4 140.2 137.6 135.4 130.3 130.7 134.6 128.1 126.5 124.9 120.5 117.5 116.1 114 114.5 117.2 114.3 114 111.9 114 112.2 101.7 89.2 83.8 83.5 90.9 100.9 104.7 111 116.3 119.9 119.4 120.8 118.9 114.6 99.1 86.6 71.7 50.2 43.2 43.2 43.2 43.2 43.2 43.2 43.2 43.2 43.2 43.2 43.2 43.2 43.2
96.7 112.3 129.4 143.1 148.2 159.8 176.6 192.5 208.4 218.6 223.8 227.4 222.9 222.4 218.3 216 219.5 223.9 229.5 243 261.8 281.4 298 327.6 343.9 334.9 317 305.1 295.9 279.3 252.7 224.5 215.3 211.4 202.4 200.8 206.9 231.9 232.4 236.3 245.6 254 272.2 298.6 323.1 336.1 338.1 346.1 331.8 308.4 297.4 282.5 267.7 265.6 264.8 255 255.8 255.8 265.2 271 269.8 270.6 256.4 238.9 226.7 218.9 216.9 215.6 213.9 211.9 213.5 209.5 200.9 191 183.7 177.2 169.8 174.8 184.8 196.5 213.7 231.2 256.9 287.5 302.6 307.5 296.5 288.5 282.2 270.5 252.8 236 228.2 226.3 221.5 211.6 197.8 194.7 201 210 219.1 225.9 230.9 232.4 230.2 227.7 228.6 241.9 253.2 260.8 263.5 267.1 275.9 273.6 279.1 275.1 267.7 259.2 246.7 237.1 229.1 219 207.7 199.5 183.5 172.6 164 153 137.8 142.3 137.4 128.3 116.4 124.3 123.3 110.4 104.2 96.2 99.6 103.4 109 109.5 114.3 118.4 120.1 124.6 133.2 137.9 143 144.6 135 133.5 136 141 134.8 131.1 128.6 122.1 116.6 116.6 116.4 114.7 117.4 113.6 115.5 113.5 120.4 119.5 113 109 99.9 89.8 82.3 85.5 96.7 102.2 108.4 110.4 113.4 114.2 112 108.6 97.6 84.8 75.9 62.2 44.6 43.2 43.2 43.2 43.2 43.2 43.2 43.2 43.2 43.2 43.2 43.2 43.2 43.2
99.8 116.6 130.7 143.6 151.9 164 178.3 201.2 215.5 224 230.4 235.5 230 228.4 228.5 227 222.9 227.1 235.6 245.8 261.9 280.7 305.4 339.5 349.7 332.7 318.6 313.8 309.7 293.1 262.3 225.8 211.6 206.8 202.1 197.5 200.6 226.1 228.1 231.8 241.9 256.3 269.6 290.3 316.8 343.2 339.6 354.1 343.2 312.7 291.3 278.3 266.5 256.2 252.6 247.4 245.8 245.1 251.8 265.1 262.9 255.9 246.3 235 224.2 219.9 217.4 212.5 210.2 210.5 213.6 208.1 196.9 186.5 178.5 170.5 169.6 175.5 180.9 188.9 207.2 223.4 252.1 279.8 292.9 296.1 287.4 284.3 278.9 269.5 254.7 235.1 217.9 211.5 207 197.3 191.1 196.3 204 213.3 220.6 227 228.3 227.4 226.1 228.5 243.6 254.6 260 262.7 264.7 275.3 276.4 275.8 274.6 271.2 266.9 253.3 242.6 236.7 227.1 212.8 201.7 189.8 175.8 158.6 150.2 140 122.3 132.9 126.8 112.9 111.8 119.9 113.1 103 95.6 92.3 93.7 103.8 109.9 119.8 121.2 120.1 122.5 133.6 135.2 139.6 137.4 133.5 133.3 139.4 143.1 152.5 140.6 130.1 123 118.3 116.2 115.4 121.3 121.2 122.6 117 114.7 115.2 124.8 123.3 118.3 112.1 105.4 98.1 87.4 80.3 91.6 98.2 101.9 105.6 107.3 106.4 102.7 94.8 86.7 78 68.8 56.3 43.2 43.2 43.2 43.2 43.2 43.2 43.2 43.2 43.2 43.2 43.2 43.2 43.2 43.2
104.9 120.1 137 148 155.4 168.1 178.7 198.9 212.5 227.5 231.9 243 238.8 235.2 236.4 237.6 229.3 233.3 242.2 250.6 266.2 291.4 317 345.1 351 332.7 323.2 309.8 311.2 291.3 262.6 235.3 210.8 204.6 201 194.9 197.4 216.8 214.3 224.8 238.6 256.4 269.8 288.3 308 327.2 339.8 346.7 342.2 318.8 289.9 277.1 262.7 252.5 248.5 243.4 239.8 238.1 244 251.8 253 247 239.1 230 223.6 220.9 218 211.5 207.1 204.7 207.3 203.5 197.9 184.7 173.3 166.2 167.1 170.7 177.2 183.4 197.8 215.8 235.7 258.2 266.9 269.6 263.8 266.2 267.4 262 253.9 237 221.4 210.5 196.9 189 191.2 198.3 209.7 216.3 222.5 225.4 225.3 225.8 229.6 242.4 252.4 256 258.4 258.4 264.5 273.7 274.1 274.9 270.5 267.9 257.2 246.7 240.1 230.6 217.9 206.8 193.8 182 161.5 147.5 140.9 129.5 117.1 118.3 114.8 100.6 107.6 108.9 100.1 93.5 90.1 92.9 102.9 115.3 124.4 123.5 121.5 129.2 130.5 132.8 133.1 131.6 133.9 140.1 141.4 141.4 152.9 153.2 140.7 129.3 122.3 121.6 123.4 129.9 132.5 128.2 121.1 114.5 115.5 120 126.8 127.3 122.2 117 108.4 100.9 84.9 75.9 85.5 95.6 99 99.2 97.9 96.5 91.3 85.6 77.6 73.8 58.4 43.3 43.2 43.2 43.2 43.2 43.2 43.2 43.2 43.2 43.2 43.2 43.2 43.2 43.2 44.7
121.7 132.2 146.3 155.3 165.9 185.2 194.1 203 215.1 229.2 239.8 250.4 249.3 246.3 242.5 241.6 237.5 236.5 245.7 257.4 284.1 309.5 334.3 358.1 355.3 335.5 328.7 309.8 312.1 291.6 263.2 235.9 211.8 203.1 200.7 193 195.6 203.9 207.4 221.7 238.3 255.2 268.1 280.3 301.1 316 343.2 343.2 338 318.1 297.6 273 259.6 253.4 245.5 242 237.6 236 241.3 242.3 239 234.5 230.9 228 224.2 217.7 214.5 209.1 204.7 199.5 200.6 197.6 188.6 177.9 164.2 158.9 163.6 165.7 173.2 181 188.3 204.7 222.8 234.1 237.7 241.6 243.4 244.6 250.2 248.1 243.7 231.1 219.1 208.8 192.6 187.4 195 202.9 215.8 219.7 224.2 226.3 231.6 236.5 243.8 250.4 254 255.3 254.8 253.7 261.2 267.8 273 276.8 268.9 259.6 253.1 243.2 233.6 223.2 211.8 201.4 183.6 168.4 151.1 137.3 129.8 113.5 111.1 105.3 100.4 94 98.6 94.1 90.1 88.4 87.6 95.9 104 116.6 118 123.1 128.9 130.5 130.1 130.4 132.2 137.4 139.2 143.4 145 149.4 153.8 151.3 144.3 136.5 128 134.3 140 146.8 140.7 136.2 117.3 114.4 118.4 119.8 130.1 128.9 124.2 115.8 104.5 96.8 84.7 70.7 81.2 85.4 89.9 89.1 89.1 88 84.4 79.2 71.9 58.5 43.4 43.2 43.2 43.2 43.2 43.2 43.2 43.2 43.2 43.2 43.2 43.2 43.2 43.2 43.2 47.3
130.5 141.7 153 163.3 176.2 195.7 204.7 217 223.4 231.6 245.1 254.5 260.6 261.6 249.8 247.7 244.5 244.1 245.8 257 280.9 299 334.8 369.5 361.3 335.7 326 312 313.6 287.5 258.8 238.6 215.2 200.8 198.5 190.5 191.4 198.3 203 217.4 234.1 253.1 261.7 274.9 296.6 319.1 344.9 339.6 330.6 311.8 298.1 276.5 262.8 253.1 245 240.8 244.3 237.1 236.8 236.5 236.4 231.9 226.5 222.7 218.9 214.5 211.2 205.9 199.7 193.3 190.7 186.5 178.5 165.8 156.4 153 158.1 163.8 172.2 180.8 187.3 196 208.4 215 219.6 223.3 226 224.4 228 227.7 225.8 217.7 208.4 199.6 182.7 196.8 204.3 207.5 217 220.6 224.7 233.2 241.9 248.2 253 255.7 257.1 254.6 250.8 251.8 258 266.2 272.8 272.9 265.9 260.8 251.7 238.4 227.1 213.7 202 188.9 170.1 152.7 139.8 129 119.4 104.6 104.5 101.5 94.1 89 89.8 87.2 85.9 85.2 89 99.2 108 115.5 130.3 134.8 135 131.8 136.1 139.1 139.7 141.4 142.5 141.5 144 149.5 150.9 147.6 144.9 139.8 135.1 143.1 152.6 150.3 141.9 133.6 112.7 114.9 117.1 130.8 138.5 133.1 125.7 116.3 101.1 90.4 82.6 69 75.7 79.9 81.5 83.9 85.5 84 78.4 73.3 63.6 52.8 43.2 43.2 43.2 43.2 43.2 43.2 43.2 43.2 43.2 43.2 43.2 43.2 43.2 43.2 43.5 49.3
137.8 147.7 158.3 168.9 184.1 201 211.3 231 240.5 249.4 261.7 268.4 268.5 268 266.5 260.4 248.1 249.7 250 260.1 273.7 296.4 327.4 348.3 346.1 326.2 316.8 305.6 306.4 282.4 261.6 236.3 217.2 201 192.4 188.4 187.3 192.3 196.6 208.3 236.2 249.9 255.9 269.1 293.3 315.6 335.6 338.8 322.3 303.1 291.7 275.5 260.1 258.2 249 246 253 246.9 235.7 229.1 229.9 230.1 228.1 221.9 215.2 211.2 208 201.5 194.1 187.3 179.9 173.4 165 155.7 147.3 149.8 154.7 163.9 178.3 187.3 189 195.7 201.5 205.8 211.5 214.6 215.2 215.5 212.8 210.5 205.5 197.5 192.3 183.1 192.6 203.9 210.7 216.6 220.4 223.6 231.4 241.7 250.4 255.2 257 258.4 257.5 252.3 245.6 247.8 257.7 262.9 267.3 268.8 264.2 256.1 242.3 230.6 216.3 202.8 192.2 178.6 157.6 144 124.2 116.6 105 93.8 98 92.6 87.9 85.1 87.1 84.9 83.9 85.8 96.6 107.4 118.6 128.8 138.3 141.1 139.1 147.5 147.8 144.8 146.7 143.5 144.9 142.9 144.7 148.3 147.8 148.2 146.3 140.5 140.8 146.1 147.7 141.1 132.4 123.1 111.7 114.3 123.3 139 142.7 134.9 127.8 111.2 96.4 86.5 77.1 68.9 68.7 72 77.6 83.6 83.3 80.6 73.4 64.8 55.7 48.6 43.2 43.2 43.2 43.2 43.2 43.2 43.2 43.2 43.2 43.2 43.2 43.2 43.2 43.2 46 50.4
144.7 153.7 157.7 170.2 186.9 203.6 222.4 240.8 253.2 262.3 277.8 279.6 274 277.7 279.4 264 250.3 249.1 254 266.2 277.2 292.4 315.1 328.9 314.5 310.5 310.9 302.3 297.5 283.4 263 241.4 221.6 204.2 189.9 184.8 184.2 185.4 189.7 200.1 230.5 252.5 257.5 269.5 296 315.8 333.1 333.7 319.5 304.4 289.8 274.9 259.3 256.4 252.6 249 248.2 242.9 233.3 224.7 225.1 229.4 224 222 216.4 209.8 203.7 197.5 188.3 177.1 169 161.4 155.1 148.2 142.5 145.7 151 163.5 176.7 185.8 188.9 189.8 197 199.2 200.6 204.3 206.6 205.8 203.1 200.6 196.2 185.6 179.5 188.8 201 208.8 214.3 218.8 222.9 230.7 240 247.9 253.4 256.4 257.1 256.5 253.3 245.7 239.8 242.1 251.6 256.5 265.6 268.2 258.7 250.6 234.5 220.1 204.2 190.8 179.4 164.7 145.8 126.5 108.3 99.8 94.9 91.4 92.5 88.7 84.3 81.6 81.5 83.1 93.4 102.7 114.7 118.6 126.5 135.6 140.2 144.7 151.5 155.4 153.6 149.8 149.2 145.1 147.2 146 145.8 145.9 146.6 144.9 148.4 151.6 145.7 141.6 135.1 128 123.8 115.9 111.7 117.3 128.8 140 145.8 130.5 114.9 99.7 89.5 79.9 74 67.7 65.5 65.6 76 80.7 78.8 73 66.6 58.8 52.7 45.4 43.2 43.2 43.2 43.2 43.2 43.2 43.2 43.2 43.2 43.2 43.2 43.2 43.2 43.2 46.3 50.5
139.1 152.8 154.4 166.8 188.6 211.6 227.9 248.1 257.3 268.6 281 279 279.4 286.3 288.5 270.1 254 250.2 252.9 268 284.5 294.4 301.8 311.1 296.3 292.2 301.5 306.3 300.3 294.1 277.9 248.5 219.8 207.2 189.9 181.8 179.8 180 185.9 195 231.5 252.7 256 268.1 293.5 314.2 334.8 341.2 331.4 315.7 296.2 280.1 264.5 252.2 246.3 240.3 245.6 236.2 230.5 219.7 217.8 224.8 223.9 221.8 216.1 208 199.1 191.4 182.7 171.3 161.6 152.9 149.9 143.9 139.6 143.5 149 162.9 174 179.6 183 184.3 190.7 193.8 193.7 195.5 198.3 197.2 194.6 191.9 184 179 187.7 197.5 205.4 211.2 216.5 222.6 230.2 238.8 247.1 252.1 255.3 256 254.3 252.7 245.9 238.1 235.8 233.4 242.3 253.3 261.3 258.9 253.9 244.4 228.1 212.5 194.1 176.9 163.5 149.5 132.1 112.8 95.5 90 86.7 90.5 87.9 82.5 79.8 80.7 83.3 101.5 111.9 118.3 126.7 130.8 136.4 147.1 153.9 154.1 159.4 159.9 157.5 157.3 155.1 152 150.9 147.3 146.4 145 147 146.4 148.6 145.5 139.7 129.6 125.6 123.6 118.9 111.7 111.7 125.4 132.3 142.1 129.3 110.6 99.9 87.1 78 79.1 82.9 80.7 75.6 66.9 70.4 76.2 73.9 68.5 66 59 48.8 45.7 43.2 43.2 43.2 43.2 43.2 43.2 43.2 43.2 43.2 43.2 43.2 43.2 43.2 43.2 46.1 49.1
129 139.6 154.1 171.3 190.9 208 227.5 245.4 262.5 268.3 272.6 269.8 280.8 288.1 285.5 277.5 265.3 254.7 256.6 264.7 284.4 290.4 291.9 296.3 285.4 282.1 291.4 307.6 290.5 287.5 283.3 259.6 223.9 210.5 194.2 179.9 175.8 176.1 184.8 191.4 209.7 236.2 246.1 266.7 285.9 303.7 326.4 330.3 332.6 318.6 300.4 279.1 268.8 251.8 236.7 231.1 230.5 229.9 229.7 216.5 211.1 220 222.3 217.2 214.4 208.3 196.3 186.3 178 167.9 157.9 151.1 145.6 137.5 138.1 145.8 154.1 163.5 170.9 177 180.2 183.4 186.6 190.4 190.4 195.7 194.5 184.9 180 175.8 177.4 185.9 194.1 201.4 207.7 213.6 221.5 232.6 239.2 244.9 251.2 256 255.4 252.2 248.7 245.1 240.6 233.6 227.5 227.1 238.1 248.1 254.9 252.2 247.1 236.6 223.3 202.1 179.6 161 144.3 130.2 112.1 94.6 86.6 86 84 85.5 81.6 78.7 81.2 88.7 96.3 109.7 117.3 130.8 144.9 145.3 148.7 157.4 156 164.6 165.7 160.3 159 160.3 155 152.5 148.4 147.1 146.2 150.3 146.6 143.3 142.7 132.8 124.5 124.1 121.2 117.3 111.7 111.7 116.1 126.2 131 125.2 108.2 94.8 85.8 82.2 90.6 95.3 99.1 91.5 88.9 69.3 63.2 68.5 66.4 63.7 60.4 56 49.9 45.4 43.2 43.2 43.2 43.2 43.2 43.2 43.2 43.2 43.2 43.2 43.2 43.2 43.2 43.4 46.8 49.8
113.3 131.5 150.6 172 188.3 201.2 219 230.7 251.5 257.1 259 260 275.6 280.6 276 283.4 269.4 261.3 266.6 280 282.8 285.5 283.5 284.1 285.8 276.9 289.8 292.3 280.5 273.1 270.4 256.8 225.5 207.2 195.1 179.7 173.8 175 181 188.4 205.6 222 243.2 265.2 285.5 303.7 323.1 320 315.7 306.7 288.6 269.3 261.5 246.7 227.9 223.3 222.8 223 219.1 210.9 204.5 211.3 216.3 214.6 212.6 208.7 195 182.9 174.4 164.7 156.3 151.5 140.9 132.4 137 143 151.7 160.4 166.5 174.3 184.7 188.2 185.4 187.2 187.1 186.5 192.9 174.8 171.3 176.9 184.7 190.9 196.7 204.3 210.7 220.6 233.1 241.8 244.9 248.9 254.1 255.6 249.6 244.8 242.5 240.1 233.4 223.4 218.9 224.3 234.9 245.4 248.8 244.3 241.4 230 215.8 194 165.9 145.3 127.9 114.4 100.3 88.8 84.3 82 80.6 77.8 77.6 81.7 87.2 94.1 105 114.3 128.2 142.7 152.4 153.5 149.4 156.9 164.1 169.7 165.3 167.5 162.1 159.1 158.9 156.9 150.6 151.7 149.4 144.9 139.4 137.3 126.1 124.8 124.2 120 115.9 114 111.7 111.7 117.4 121.2 113.4 109.7 98.6 86.8 90.8 96.9 102.3 109.2 105.7 99.5 93.8 77 60.6 57.8 58.3 56.4 54.6 52.2 48.4 44.9 43.2 43.2 43.2 43.2 43.2 43.2 43.2 43.2 43.2 43.2 43.2 43.2 43.2 43.6 47.4 51.7
107.1 128.6 147.6 170.4 193.7 199.2 204.5 216.7 232.5 243.3 244.9 258.9 276.4 279.1 274 277.8 271.4 268.7 278.8 289.5 293 281.4 276.9 273 272.6 271.9 277.1 271.9 272.4 259.8 248.2 250.5 227.3 201.6 192 181.7 172.5 174.1 178.5 185.6 200.2 215.5 236.8 264.6 282.8 304.5 309.2 317.9 314.4 299 276.4 261 246.9 234.5 218 213.6 212.2 213.6 208.4 205.5 199.5 203.1 210 210.6 209.6 206 191.2 176.8 170.6 161.3 152 148.8 139.4 129.9 134.8 143.3 154.3 160.4 167.9 178.7 188.8 196 192 185.1 184.4 182 175 170.6 175.7 183.1 188.3 192.7 201.7 210.4 219.9 230.5 239.4 244.3 248.5 249.3 251.8 247.5 243.1 240.5 236.2 230.3 224.2 216.5 218.6 224.7 234.2 238.8 238.4 238.1 233.2 223.4 204 173.2 150.7 131.1 115.4 104.8 95 86.3 80.1 77.5 77.8 77.4 80 87.5 96 103 113.9 124 136.3 144.1 153.6 155.4 155.1 157.5 166.1 168.7 168 170.3 164.6 164 162.5 163.5 154.4 146.6 142.4 137.1 131.3 123.4 122.4 124.1 118.4 114.2 113.2 111.7 111.7 112.6 115.9 104.8 99.6 93.5 87.5 90.9 101.3 105.9 113.6 115.1 105.8 99 88.9 78.5 67.2 54 50.8 51.2 50.8 49.6 48.1 46.7 43.2 43.2 43.2 43.2 43.2 43.2 43.2 43.2 43.2 43.2 43.2 43.2 43.2 43.2 48.9 53.7
109.4 121.7 140.3 162.6 178.9 185.8 199 207.1 216 229.8 247.5 258.1 273.6 274.7 277.2 277.7 272.8 271.2 281.3 296.8 308.7 293.4 273.4 269.5 270 266.9 264.4 255.5 255 243.2 235.2 239.3 220.6 195.3 187.7 181.4 171.6 173.3 174.7 181.5 189.9 205.3 228.3 250.3 273.4 294.8 303.8 317.1 306.1 285.5 257.7 247.6 231.6 226.6 209.7 201.6 199.7 200 198 197.3 194.7 196.7 200.8 205.9 205.6 200.9 185.6 172.9 167.6 157.8 150.3 145.3 134.4 130.8 136.9 149.3 157.4 164.6 174.1 184.6 191.7 201 200.8 190.9 184.3 175.1 168.2 178.1 184.6 186 189.9 200.7 208.4 218.9 229.9 235.9 239.6 242.9 244.4 248.2 245.4 242 239.9 234.4 229 223.5 215.6 217.4 217.2 221.5 229.3 230.6 232.8 233.7 224.9 204.3 183.1 157.8 143.4 121.6 108 95.3 87.9 82 77.6 76.2 76.9 76.2 90.4 100.3 104.6 115.8 121.6 134.9 149.6 151.2 155.4 156.2 154.4 157.2 164.6 166.8 173.9 173.2 171.4 171 166.1 162.1 148.7 141.1 134.4 126.7 125.1 126.4 120.1 117.5 113.5 111.7 111.7 116.8 117.1 110.9 105.5 95.7 92.7 92.3 101.1 107.1 114.3 119.2 118.8 109.8 104.5 97.6 89.5 78.9 70.7 65.3 57.9 45.9 48.3 48.5 47.8 46.4 43.2 43.2 43.2 43.2 43.2 43.2 43.2 43.2 43.2 43.2 43.2 43.2 43.2 44.3 48.8 54.6
101.7 115.2 128.3 143.6 161.3 179.9 192.1 199.3 213.4 234.9 248.4 257.6 264.2 276.4 284.6 284.7 278 280.7 289 297 300.3 296 277.5 268.6 267.2 262.2 259.7 251.8 242.2 237.2 229.2 219.9 212.7 191.4 184 181.4 170.8 173.4 178 181.9 185.8 195.3 213.5 232.5 254.6 271.1 288.3 302.9 290.6 265.2 244 235.4 221.6 215.5 200.5 191.9 190 190.9 190.2 189.8 190.1 195.3 201.3 204.1 202.7 198.2 183.8 170.9 163.5 154.8 145.4 137.5 128.3 128.5 136.4 147.9 158.6 168 180 191.5 199.8 207.1 203.3 196.7 180.8 167.8 181.1 182.1 182.4 185.3 194.6 206.4 215.3 225.9 233.4 236.5 240 240.5 245 244.3 242.3 239.5 237.3 232.7 224.9 214.6 210.7 216.1 214.8 216.8 221.2 224.2 229.7 226.9 207.7 183.1 163.9 144.6 128.8 110.9 97.9 86.7 82.5 77.3 74.7 74.6 75.5 83.8 94 98.5 107.9 118.5 128.1 136.7 144.2 153.9 158 159.2 158 153.3 155.5 168.5 175.5 180.6 176.7 166.1 158.2 150.6 143.4 134.4 127.5 125.2 127.6 122.3 118.3 115.9 114.9 112.8 115.2 117 110.8 110.8 103.4 94.4 95.6 105.1 118.7 128.5 126.1 122.2 117.3 111.5 106.4 100.6 91.7 85 78.2 70.7 63 50.6 44.7 46.7 46.7 45.4 43.2 43.2 43.2 43.2 43.2 43.2 43.2 43.2 43.2 43.2 43.2 43.2 43.2 46 50.3 57.3
94.2 107.7 124.2 143.6 166.8 176.6 183.5 195.2 218.5 240.8 244.1 252.2 262.1 279.5 285.6 292.1 288.2 294.5 301.8 298.6 295 288.6 279.1 270.8 264.4 256.2 252.9 247.6 242 233.1 221 213.7 205.3 193.9 183.4 175.4 169.5 174.4 177.8 185.8 190.3 191.7 205.1 220.2 242.5 259.8 273 277.7 283.4 253 233.2 222.7 214.4 205.2 198.7 185.3 182.6 185.2 187.9 184.1 189.4 195.8 202.7 203.9 201.1 195.8 185.9 170.7 159.3 150.2 141.2 133.7 126.5 127.3 134.5 143.7 155.4 169.4 180.8 193.5 202.5 211.3 206.5 196 169.3 174.5 176.9 177.9 181.6 191.7 204.5 213.2 222.7 230 234.3 236.6 237.2 237.9 241 241.3 241.3 241 237.8 230.3 218.5 206.1 209.5 210.2 209.1 211.7 215.8 225.9 228.9 211.2 188.3 168.5 149.1 132.1 116.4 101.5 90 81.8 76.7 73.9 73.5 73.8 79.1 86 92.5 102.9 110.8 123.4 126.1 132 139.8 146.3 151.8 164.5 162.8 156.2 165 165.1 172.5 179.7 166.4 157.8 149.8 148.7 145.2 134.4 126.4 125.2 124.5 121 119.8 120.7 120.9 114.6 114.3 112.8 112.7 108.7 98.8 96.1 107.5 119.5 129.3 136.9 128.4 122.9 116.2 114 109.1 103.2 97.3 92.1 83.6 73.6 64.8 53.1 47.1 45.9 45.5 44.7 43.2 43.2 43.2 43.2 43.2 43.2 43.2 43.2 43.2 43.2 43.2 43.2 43.2 44.1 50.8 59.1
97.3 113.9 131.1 149.2 160 165.4 173.7 191.5 211.8 235.1 239.9 248.1 266.3 282.6 280.9 289.9 291.1 303.5 311.7 309.8 293.4 291.3 285.3 276.5 268.3 262 246.2 240.7 237 230.9 211.2 204.5 200.5 196.3 186.6 171.8 168.4 174.6 180.4 187.5 195 194.2 213.3 229.3 240.4 250.8 265.3 266.2 266.7 249.4 227.6 219 209.8 199.6 194.1 179.7 175.5 179.5 182.1 180.2 189.8 197.8 205.9 204.7 199.6 194.9 186.7 170.9 155.2 145.6 137 130 124.4 127.5 135 143.8 152.7 165.5 177.3 191.8 197.1 204.7 203.5 192.5 175.4 165.1 171 177.6 186.3 197.7 210.2 220.1 227.4 229.2 231.7 232.7 233.6 236.2 237.3 239 241.4 239.8 231.7 221.8 211.9 201.5 202.5 204 205.7 212 220 227 211.2 196.6 176.7 154.7 138 122.2 108.7 95.2 84 75 72.6 72.4 73.2 75 79.5 85.5 96.9 104.7 111.1 115.7 120.1 123.7 129.8 141.5 154.3 165.7 165.8 161.6 165.8 167.7 168.3 162.5 154.9 149.6 153.9 149.1 139.1 128.3 123.7 122.7 122.2 122.3 120.8 119.7 121.2 114.2 113 110.6 110.5 106.6 97.5 98.6 109 124.1 136.2 136 132.4 128.6 122.9 117.5 110.6 109.3 104.9 97.7 87.4 77 67.9 58.7 48.6 43.9 44.1 44 44 43.2 43.2 43.2 43.2 43.2 43.2 43.2 43.2 43.2 43.2 43.2 43.2 46.1 52.7 60.6
105.6 117.4 135.1 148.9 147.6 154.3 176 192.2 209.2 227 240.7 248.3 269.4 280.1 278.5 278.5 290.9 305.6 303.9 298.4 286.1 282.9 282.7 269.4 268.6 270 250.7 241.3 232.4 222.5 210.4 200.1 197.1 196.5 184.3 170.9 167.9 173.4 178.9 184 187.9 192.8 208.7 222.6 247.7 252.8 264.3 265.7 260.2 249.8 230.5 218.4 213.9 195.2 185.6 174.8 170.4 170.2 176.3 176.3 182.9 195.4 206.5 205.2 200 194 185.5 168.6 153.4 142.5 133.7 124.1 120.6 130.9 138.7 149 156.9 162.7 172.4 190.3 194.5 195.4 192.1 180.4 166 163.1 176.2 185.6 197 204.5 216.9 225 228 228.4 228.9 230.9 231.5 234 233.7 236.4 236.7 231.8 223.1 216.2 207.4 200.4 197.2 202.5 206.9 216.7 221.5 215.2 197.6 177 154.1 143.3 131.2 114.5 101.1 90.1 79 72.8 72.7 79.2 74.7 76.1 80 88.5 95.1 99.6 103.1 106.5 111.1 127.2 140.5 143.2 151.5 159.2 166.2 159.5 159 161.2 162.8 157.8 155.3 145.6 152.4 142.6 129.2 122.2 121.1 123.6 124.7 121.3 116.2 115.5 114.2 111.8 111.9 109.6 109.6 106.3 102.1 100.2 110.8 125.2 133.1 137.1 137.6 136.6 132.3 124.1 117.5 116.4 111.5 102.9 92.2 81.6 71.4 60.9 50.2 47.5 44.7 44.4 43.2 43.2 43.2 43.2 43.2 43.2 43.2 43.2 43.2 43.2 43.2 43.2 43.2 48.1 55.5 62.3
100.2 114.6 124.9 130.9 131.6 158.4 182.2 194.6 213.1 233.1 241.5 247.7 269.3 277.5 279 274.1 292.5 300.7 307.7 302.7 281.9 273.1 268.6 265.3 263.9 269.5 267.9 245.8 226.5 215.2 214.3 196.3 186.3 184.4 177.3 169.7 163.6 172.3 181.8 181.4 186.9 191.4 203.7 217.8 239.3 256.1 277 272.5 265.5 244.5 230.4 218.8 212.2 195.5 185.6 174.5 166.3 164.4 169 171.6 177.1 184.3 195.1 199.3 194.8 191.5 181 162.6 146.1 135.7 127 119.4 121.4 130.1 138.3 153.1 164.2 164.7 171.5 182.9 192 190.3 179 164.4 160.7 175.5 186.2 196.2 208 212 222 226.8 225.7 225.7 226.3 228.6 228.5 229.7 230.1 230.5 228.8 225.1 218.8 209.7 198.3 192.6 195.9 202.7 208.3 214.2 211.5 197.3 175.5 159 150 137.2 122.4 108.1 96.5 87.1 76.8 70 75.6 74.3 74.4 74.5 80.9 83 87.6 91 97.4 104.3 118.5 134 138.6 146.4 151.3 153.1 152.3 159.3 163.6 160.9 162.5 154.5 147.5 142.9 139.4 126.9 119.6 119 121 121.4 116.1 113.8 113.6 112.3 111.7 113.2 114.8 110.7 107.8 105.3 102.7 105.8 111.8 123.4 133.2 138.2 142 146.7 141.2 128.3 128.2 124 116.7 107.7 98.3 86.7 73.5 60.8 51.3 46.6 43.2 43.2 43.2 43.2 43.2 43.2 43.2 43.2 43.2 43.2 43.2 43.2 43.2 43.2 43.2 46.6 55.3 61.6
84.8 95.5 101 104.5 122.6 154.8 177.4 188.6 207.1 226.7 235 251.4 267 270.8 274.6 272.2 299.2 297.6 306.6 309.4 300.7 283 264.9 260.6 257.9 265.8 267.2 255.1 226.3 205.4 203.8 189.3 176.3 173.9 173.4 166.8 160.2 169 181.3 185.3 187 194.9 204.4 218.8 232.3 252.9 265.8 266.3 273 251.4 239.8 214.9 203.3 198.5 184.6 175 160.2 160.1 166.7 173.1 177 182 183.7 188 186.4 182 172.3 154.7 136.4 129.6 117.6 113.7 121.6 131 140 154 165.3 163.7 170.4 181.7 191.7 176.2 161.2 158.8 174.8 186.3 193.7 205.1 214 220.9 224.9 224.5 223.1 222.3 223.8 223.9 224.8 224.6 224.4 222.6 222.4 220.2 212.6 200 184.2 185.2 195.8 201 201.8 200.4 192.5 173.9 161.4 152 140.8 127.8 116.4 103.7 92.4 84.3 74.9 69.8 72.8 73.6 77.2 74.7 74.7 75.7 80.7 87.7 99.5 108.3 116 128.9 133.6 139.3 142.9 150.7 174 173.2 163.2 155.1 153.8 149.6 147.5 134.4 122 117.6 118.7 124.4 120.6 115.4 114.2 113.4 112.2 111.6 112.4 115.2 112.9 110.1 108.3 109.1 105.9 114.9 126.3 131 135.7 139.2 149.6 152.3 147.8 135 138.6 130.5 125.8 117.6 104.1 91.3 75.8 62.9 53.8 46.3 43.2 43.2 43.2 43.2 43.2 43.2 43.2 43.2 43.2 43.2 43.2 43.2 43.2 43.2 43.2 45.5 54.3 61.2
71.3 83 87.5 96.6 113.1 142.4 162.5 174.2 187.6 208 228.6 253.6 262.1 264.8 268.2 272.8 300.4 297.6 302.5 303.9 305.4 293.3 278.4 258.5 255.8 253.8 264 252.7 234.2 204.5 185.5 175.9 166.2 167.3 166.8 164.3 157.9 167.7 179.5 185.6 187.4 193.8 210.4 219.8 230.5 246.2 255.1 266.8 275.4 262.5 249 224.2 203 193.7 187.1 175.3 158.7 155.1 158.8 166.8 171.7 176.1 178 179.6 176.4 170 159.9 140.1 126.6 121.1 107.5 118.9 130.5 137 145.1 155.4 163 162 167.7 178.4 172.2 158.4 157 172.8 188 191.6 206.1 215.1 220.4 226.9 222.6 220.2 219.6 220.4 220.1 220.6 219.8 219.1 216.9 216.8 216.3 209.6 203 187.2 176.9 183.4 187.8 192 185.5 186.7 177.3 163.6 149.7 138.8 131.8 120.2 109.5 98.3 88.8 81.2 73.1 70.3 80.3 79.9 76.3 77.9 77.4 75.4 79.1 90.5 100.4 107.9 112 115.7 121.1 131.1 144.6 165.8 175.6 175.3 163.3 154.4 145.4 143.6 141 125.3 118.8 121.4 127.8 126.5 118.9 114.4 114.4 114.6 112.7 114.7 116.8 118.1 113.5 113.2 112.7 118.4 114 130.7 142 147.2 144.7 141.2 146.1 151.7 149.1 146.6 145.1 142.8 135.8 119.6 106.4 91.3 76.3 63.2 55.7 46.9 43.2 43.2 43.2 43.2 43.2 43.2 43.2 43.2 43.2 43.2 43.2 43.2 43.2 43.2 43.2 48.2 54 61.6
