ncols 200
nrows 82
xllcorner 340000
yllcorner 831250
cellsize 50
370.4 372.9 374.9 377 383.9 388.7 399.8 400.6 406.3 395.3 386.5 379.7 370.5 356.3 341 324.7 319.1 310.8 303.6 294 286.1 278.6 274.3 262.9 255.3 251 250.3 249.1 249.4 249.1 248.4 244.5 236.5 220.7 217.7 234.7 249.2 267.9 280.1 289.6 297.5 305.5 310.8 313.3 311.4 307.6 308.7 314 319.3 324.1 325.9 328 328.3 326.7 322.1 316.9 316.2 316.5 319.2 322.4 326.2 331.4 336 341.2 346 350.9 355.9 361.6 367.4 373.3 378.9 386.1 396.7 405.8 412.5 420.6 428.6 432.3 436.2 444.9 451.7 456.2 464.1 467.6 469.8 471.2 479.7 480.9 480.9 478.6 474.2 469 464.4 459 452.5 446.1 438.9 430.9 422.6 414.3 405.8 397.4 389.5 380.3 369.6 364.3 357.4 350.4 343.2 335.5 327 316.9 306.4 296 287.9 281.1 275.8 271.8 270 267.3 265.7 265.2 264.6 263.6 263.9 270.3 279.7 289.5 298.9 305.4 310.9 312.8 314.2 313.7 311.6 306.8 298.8 284.7 290.1 296 302.2 308.5 312 313.9 316.3 314.9 310.3 298.5 291.6 284.5 277.9 271.9 268.6 265.1 263.2 261.8 261.7 261.4 262.3 263.2 262.7 262.9 262.9 261.9 260.5 258.1 255.2 251.3 247.4 244.5 241.1 237.2 233.9 231.4 227.5 224.7 223.6 222.1 220 218.4 217.9 217.4 216.2 214.2 211.6 209.1 206.5 205 203.7 200 199.2 199.2 196.8 194 190.4 185.6 180.8 176.1 171.9 167.5
371.6 374 376.4 378.7 388.3 392.8 392.2 392.6 388.6 383 377.5 371 363.3 349.5 332.2 318.9 312.5 305 294.4 283.8 277.7 267.7 257 253.6 250.4 246.7 241.4 239.8 238.3 239.3 240.3 237.1 226.6 218.1 225.4 239.3 254.7 269.6 280.8 289.1 298.1 309.3 316.8 316.7 315 312.2 314.7 320.5 325.8 329.1 331.7 333.9 334.8 333.1 328.5 325.7 324.2 322.6 324.9 328 331.1 335.9 341 345.6 350.5 355.3 361 366.9 372 377.4 383.3 396.2 405.6 412.4 418.5 426 432.8 437.6 443.6 450.4 456.6 462.7 470.7 475.7 478.8 482.8 484.9 485.4 484.2 481.7 478.2 473.6 470.5 464.3 458.1 451.7 444.1 436.2 427.6 417.9 410.2 402.1 394 385.9 379.5 371.7 364.5 356.3 349.3 340.5 331.2 321.4 311.1 300.6 290.5 281 278 275.3 272.8 271.3 268.3 266.7 263 261.2 261.1 260.1 270.6 278.9 287.7 295.9 302.2 306.4 311.1 313.1 312.4 307.6 298.3 289.4 275.1 285.1 290.2 294.5 299.8 302.9 306.2 306.9 302.9 293 285.4 280.1 275.7 269.4 266.4 264.1 261.2 260.6 260 261.3 263 264.6 265.5 265.8 266.3 266.4 266 264.2 261.5 258.3 254 250.8 247.8 242.9 241.7 238.6 235.4 231.9 229.6 227.1 225.3 225.8 225.5 225 223.7 222.5 220.3 217.8 215.2 212.9 210.2 208.1 206.8 203.9 201 198 193 188.2 183.4 178.6 173.7 169.3
372.5 374.9 377.2 378 382.8 384.3 384.7 380.6 378.2 377.6 367.4 361.7 354.6 340.9 324.2 312.5 304.8 295.5 282.1 273.8 264.6 251.1 246.1 241.8 238.2 233.9 229.5 225.2 222.5 220.7 219.9 221 219.1 221.7 230.9 243.7 254.6 267.6 278.2 287.9 301.2 309.6 314.4 315 315.5 315.3 319.9 325.9 330.8 333.9 336.7 339.8 340.6 337.3 332.8 330.6 328.7 328.6 329.7 333 336 341.6 345.1 349.8 354.8 360.5 366.1 371.9 377.9 382.9 390.7 403.7 413.2 418.6 423.1 429.4 436.8 443.1 450.9 459.4 465.4 472.3 478.2 482.7 485.4 487.8 488.4 489.4 488.6 486.6 483.6 481.2 476.3 469.8 463.5 456.6 448.5 439.7 429.7 419.8 413.3 406.6 399.4 393.3 386.2 377.2 369.2 360.8 351.5 342.9 333.9 324.9 311.7 297.9 288 284.9 284 281.7 280.3 278.7 276.5 274.8 272.5 269.2 263 258.5 258 270.4 278.6 285.2 292.5 299.1 305.5 310.4 308.9 304.6 297.3 288.9 281 274.3 278.8 282.8 286.5 290.7 296.3 296.2 291.5 284.3 279.4 275.1 272.4 267.2 263.3 261 259 258.4 258.5 260.4 262.1 263.8 266.7 268.4 269.7 269.8 269.2 267 264.4 262.1 258.5 256.4 253 249.7 246.7 242.7 239.8 236.6 233.7 231.9 231.6 232.4 232.9 232.6 231.4 230.3 228.4 226.3 224 220.2 217.6 215.1 211.7 208.7 205.1 201.3 195.8 190.8 186 180.7 175.7 171.7
373.2 374.1 374.8 375.1 377.4 375.2 371.4 369.3 372.3 366.3 358.6 351.4 341.8 330.8 317 305 294.5 282.5 271.1 259 247.3 240.3 236.5 231.8 228.8 225.6 223.9 223.1 221.3 222.8 224.9 226.3 227.7 230.8 229.6 243.3 253 261.8 273.2 287.5 298.2 304.8 308.7 312.2 312.7 317.2 325.3 330.1 335 338.4 341.4 343.3 343.3 339.8 335.3 333.3 331.4 333.3 334 337.2 340.6 344.6 349.3 354.2 360.1 365.6 371.2 376.8 383.2 391.8 401.5 410.5 416.5 422.7 428.8 436.9 448 452.2 463.5 470.7 475.4 480.2 484.6 486.7 489 489.5 490.9 491.9 491.7 490.3 490.2 487.5 481 473.7 466.6 459.6 450.6 441.2 431.6 422.7 415.8 409.1 403 396.7 388.3 380.1 371.6 361.8 351 341.1 333 318.4 304.5 294.4 295.2 294.9 294.4 292.1 289.6 286.7 284.5 282.1 279 274.8 270.9 266.9 257.4 260.5 268.4 275.6 283.4 291.6 297.5 302.3 302.8 300.9 296.2 287.7 278.7 264 267.6 271.2 274.7 277.6 280.9 281.4 279.4 276.8 273.5 270.2 267.5 264.8 260.1 257.1 256.6 255.9 257.7 260.4 263.5 266.5 269.6 272 273.6 272.2 270.2 268.3 265.8 264.2 261.4 259.5 257.2 253.9 250.3 247 244.1 240.9 237.7 236.6 237.2 238.1 239 239.9 239.3 237.7 235.8 233.7 230.8 227.5 224.5 220.6 216.3 212.2 208 204.1 198.6 193.4 188.4 182.7 177.6 174.7
371.9 372.5 371.4 370.1 369 362.4 359.8 359.6 355.6 351.1 343.7 337 329 317.2 304.3 292.6 280.5 267.7 253.4 240.5 234.4 229.9 226 224.8 224.6 223.6 223.1 220.7 228.4 230.4 233.1 235 238 239.8 230.7 237.5 249.9 259.4 272.3 284.9 292.1 297.9 301.7 306 310.1 315.7 323.1 329.5 335.3 341.3 344.1 345.4 344.6 341.4 337.6 335.8 336 337.8 339.2 341.7 345.1 348.8 352.9 359.2 365 370.7 376.4 382 388.3 397.7 405.2 413.1 420.9 430.1 442.1 459.9 467.1 474.5 480.3 481.4 483.7 488.3 488.7 489.5 491.2 491.9 492 492.4 492.9 493.8 492.9 489.5 482.8 475.3 467.5 459.6 449.6 440.6 432.9 424.3 417.2 411.1 405 398.8 390.8 382.4 374.5 363.9 353.4 337.7 318.8 312.2 310.6 308.4 308.4 307.2 305 301.3 297.7 293.9 290.9 288.5 285.3 280.6 275.9 270.9 265 256.5 256.1 267.2 275.8 283.9 288.5 291.7 294.4 294.4 291.6 283.3 274.5 261.3 257.1 261.8 263.8 266.3 268.5 270.1 271.3 270.2 267.5 265.2 262.5 259.8 257 254.1 252.6 252.9 257 259.8 263.8 268.3 273 275.1 275.2 272.2 270.7 269.2 267.4 265.8 264.2 262.4 260.3 257.2 254 250.1 246.5 243.3 240.8 240 240.8 241.6 242.3 244.9 245.3 243.9 242.3 239.8 237.2 233.3 229.1 224.8 220.4 216 211.6 206.6 201.4 196 190.7 185.4 180.9 177
368.9 369.8 365.4 363 356 350.5 346.8 344.8 338 334.1 330.8 324.4 312.5 299.9 287.9 273.4 262 245.7 233.2 224.1 223.6 224.3 223 221.7 222.2 225.6 228.4 230.8 234.2 237.8 241.7 245.7 248.2 247.6 246 239.5 242.1 254.9 267 275.8 283.5 289.7 294.6 298.9 305.1 311.9 319.1 326.5 333.6 340.5 345.3 345.9 344.2 342.3 340.7 340.5 340.3 341.9 343.9 346.2 349.6 352.9 358.9 364.3 369.2 374.1 379.2 384.8 393.6 403.4 409.9 415.9 430.1 448.5 460.3 475.1 483.4 487.4 491 492.3 493.7 492.9 491.1 491.4 492.8 491.2 490.8 491.1 491.4 492.6 491.5 487.4 480.8 473.5 465.9 457.9 448.6 439.7 432 424.2 419 413 407 400.8 393.4 384.9 377.3 366.5 352.1 340.3 337.8 331.4 321.7 320.2 319.7 318.1 313.1 309.5 305.8 302 298.1 294.9 290.3 284.4 278.4 272.1 266.6 261.2 252.8 259.6 268.1 276.1 279.9 284.2 285.9 285.5 283.3 276.6 270.2 261.3 252.5 252 254.3 257.1 260.7 262.4 262.7 262.3 261.7 259.3 257.5 254.5 252.2 249.9 247.9 251.1 255.4 259.2 264.6 270.3 273.6 275.1 273.4 271.7 269.5 268.5 268.4 267.5 265.9 265.5 263.2 260.1 256 251.7 249 245.6 242.6 240.8 241.9 243.1 244.4 246.8 249 248.9 247.3 245.3 242.1 237.2 232.9 227.9 223 218.3 213.1 207.2 202.4 197.5 192.5 187.2 183 178.8
365.3 362.6 360.3 356.5 349.3 340.6 335.9 331.2 325.6 321.7 316.2 307.8 296.5 281.3 265 249.6 236.6 227.1 227.3 225.6 227.1 226.7 231.1 233.6 233.7 234.3 235.2 236.7 241.4 246 252.7 256.8 258.3 260.2 259.2 255.7 247.3 244.7 255.9 265.9 272.7 279.4 284.9 291.1 297.8 304.7 312.3 321.1 328.7 337.3 341.7 344.5 343.4 343.3 344.1 344.6 344.7 346.5 348.4 350.4 354.5 357.8 364.1 368.8 373.8 378.8 384.3 390.9 399.2 408.2 417 430.5 446.8 462.2 473.3 486.9 493.6 496.8 501.6 502.3 499.7 497.7 496.1 493.5 490 488.9 486.3 485.4 485.8 485.6 484.6 481.1 475.4 468.7 461.4 453.6 446.5 438.8 432.2 424.4 419.9 413.8 407.7 402.6 396.2 388.1 380.9 371.3 362.8 355.6 347.8 339.9 333.8 331.4 327.2 324.1 320.1 316.9 313.2 309.3 304.9 300.2 293.6 286.6 279.2 272.9 266.9 259.6 252.2 252.9 261.7 268.7 273.5 276.8 278.7 277 274.1 269.2 263.1 257 250.8 246.4 245.7 249.5 252.6 255 255.6 255.8 254.3 253.4 251.7 249.6 248.4 246.6 245.2 249.4 254.6 260.2 266 271.5 273.1 272.5 270.9 269.7 268 267.8 268.4 268.5 267.6 266.9 265.7 261.2 256.2 251 247.3 244.9 240.7 239.6 240.2 241.8 244.3 247.7 250.4 252.3 250.6 248.5 244.9 240.3 235.5 230.4 225.1 219.8 214.3 207.8 203.1 198.5 193.1 187.8 183.3 179.2
357.3 355.2 355.3 348.7 340.4 330.5 325.4 319.1 313.3 307.2 300.5 292.9 278.1 257.9 241.8 230.2 224.2 227.6 227.7 231.9 238.6 243.9 242.8 242.3 242.1 242.8 243.1 246.3 252.9 260.7 266.5 270.6 271.6 270.3 267 263.4 258.8 249.1 250.9 260 265.9 271.3 276 281.1 287.1 295 303.1 311.2 320.2 329.7 336.1 340.5 343.7 344.9 346.4 347.1 347.6 349.9 351.9 353.9 358.6 363.1 370 375.6 380.1 385.1 390.4 398 407.8 420.2 433.7 448.6 466.6 478.9 492.5 500.7 504.5 507.7 507.8 506.4 503.8 502.2 497.3 493.2 488.1 484.2 481.1 478.5 478.2 477.3 475 471.5 468.4 463.7 456.3 448.7 442.3 436.2 429.9 424.5 420.1 414.1 409.1 404.2 398.6 392.7 385.7 378.8 371.2 363.8 355.3 348.2 343.9 339.5 335.5 330 326.1 322.9 319.3 315.4 310.2 303.6 297 288.7 281.3 274 268 263.4 257.6 248.8 250.6 262.2 267 268.4 268.9 268.5 265.5 260.7 256 251.6 246.8 243.4 241.4 242.1 244.6 247.1 248.6 249.2 248.7 248.1 246.6 245.8 244.6 242.7 242.6 249.2 255.1 260.7 267 271 271.5 270 268.3 267 266.3 266.1 266.5 267 267.5 266.5 262.7 259 254.6 249.6 245.2 241.3 238.5 237.4 237.9 239.2 241.7 245.3 249 251.7 252.5 250.1 246.4 242.2 237.6 232.3 226.9 221.5 214.7 208.5 203.9 199.2 193.8 188.4 183.6 178.4
348.3 348.3 346.2 337 328 320.7 315.8 308.9 302.2 295.7 287.6 274.7 258.9 242.4 232.7 227.2 228.7 229.5 236.3 241.1 245.8 249.9 250 250.5 252.1 253 258.4 264.7 270.9 276.8 280.4 282.6 281.8 278 273.2 269.1 262.3 256.2 249.6 253.1 258.1 260.4 269.1 273.5 276.4 280.4 290.2 298.1 310.3 320.9 329.9 336.2 342.2 344.1 345.8 347.7 350.2 353.1 355.3 357.7 362.6 369 377.4 383 388 392.8 401.9 417.5 428.5 443.1 457.6 468.6 479.6 490.5 501.9 509.8 511.9 511.8 511.8 510.6 509.7 505.4 498.2 493 486.3 480.2 475.6 472.5 469.8 468.2 465.4 461.7 460 455.2 448.4 444.4 438.9 433.8 428.7 423.6 419.6 415.3 410.6 406.1 401.2 396.4 390.3 383.3 375.7 367.6 363 357.5 352.3 346.8 343 337.2 331.7 327.7 324.7 319.2 312.7 305.3 298.9 291.1 284 277.3 272 267.1 262.3 251.5 247.7 256.2 260 261.3 261.6 261.3 257.5 253.1 249.7 246.7 242.7 240.4 238 236.5 238.7 240.2 241.8 242.6 242.4 242.2 242.2 241.7 240.7 238.2 242.4 248.7 254.9 261.3 267.7 270.5 270.5 268 266.1 264 263.8 264.2 264.6 264.9 263.7 261.7 258.9 255.3 251.7 247.1 242.8 237.5 232.8 231.2 232.6 234.9 237.6 240.9 245 247.6 249.9 248.5 245.4 242.3 237.8 233.2 228.4 221.7 214.9 209.3 204.6 199.9 194.5 189 183.8 177.7
339.9 343 338.5 329 321.2 313.5 306.1 299.5 293.2 283.1 275.2 264.1 250.1 237.1 227.5 229.2 230.6 237.1 243 248.3 253.7 256.4 261 267.7 270.3 272.4 278.9 282.7 287.6 290 291.6 291.1 287.4 282.8 277.6 272.3 265.9 254 256.6 257.7 264.2 270.1 276 281 286.4 291.7 295.2 298.4 302.2 312.6 324.4 332.1 337.6 341.7 345.5 348.8 352.1 355.6 358.4 361.7 368.2 375.1 382 388.7 395 403.8 418.1 434.5 451.6 463.9 473.1 481.5 490.1 498.4 508.9 514 516.2 517.9 518.3 517.1 514.4 509.6 501.4 492.7 486 478.4 470.3 458.7 457.2 455.9 452.1 451.2 449.4 445 441.3 439.8 435.5 432.7 427.9 423.3 419.6 415.7 411 407.3 403.9 399 393.4 386.4 381.2 376.3 371.4 365.7 360.8 355.3 349.8 343.1 337.3 330.9 325.9 320.5 315 307.3 300.8 293.9 287.2 281.7 275.9 271.4 266.7 261.3 252.5 245.9 250.5 253.2 253.1 251.7 249.7 247.2 245 242 239.4 237.1 234.9 233.4 233.2 234.6 236 236.3 236.8 237.3 237.8 237.7 236.3 235.2 242.1 248.5 254.9 261.8 269.7 273 270.5 266.2 263.5 260.2 257.8 257.5 257.6 257.3 256.2 253.8 251.1 248 244.9 240.5 235.5 230.6 225.9 224.7 225.1 228.2 232.6 236.5 240 242.6 244.5 243.8 242.3 239.4 236 232.2 227.1 221.1 215.4 210.6 205.5 200.6 195.1 188.6 181.1 168.3
329.8 335.6 329.4 322.9 313.6 305 297.4 290.1 283.9 277.1 269 258.4 245.6 234 228.4 230.2 237.2 244.5 252.7 259.8 266.4 274 281.4 285 286.3 290 296.3 298.8 301.2 300.1 299.6 296 292.1 287.1 281.9 275.6 269.2 257.9 261.9 261.7 266.2 275.7 281.4 288.1 293.5 298.9 302.7 305.9 308.1 308 312.9 321.8 329.1 337.5 342.9 348.1 353.1 357.7 361.3 367.7 373.9 381.5 388.9 394.3 406.6 424.9 440.4 454.3 463.7 473.8 482.6 491.8 500 508 513.6 516.9 519.5 521.8 521.8 520 515.8 509.9 501.2 494.7 486.8 477.5 465.4 448.4 439.8 440.8 439.1 438.9 439.1 437.9 434.2 434.8 432.3 429.6 425.2 421.6 418.3 414.9 411.6 408.1 406.6 402.3 396.8 392 387.2 383.1 379 373.9 367.4 360.5 355.3 348.2 339.3 331.9 326 320.7 315 308.2 303 297.3 291.2 285.1 278.7 274.3 269.6 263.8 258.1 247.4 241 241.6 243.1 242.3 241.4 241.8 240.4 237.2 235.8 234 232.3 230.9 229.6 230.3 231.4 231.5 232 232.5 233.1 233.6 233.4 234.5 241.7 248.2 254.6 262.9 269 270.9 268.2 264.3 259.6 254.9 250.1 248.8 248.8 247.5 245.3 242.7 240.2 237.8 233.9 229.8 225.9 222 218.4 216.8 217.1 220 223.8 230.5 234.9 237.6 239.1 238.8 237.3 235.4 231.8 227.1 223.8 218.8 214.6 210.1 205.5 199.8 192.8 184.9 173.4 162.8
329 320.9 323.5 314.3 304.2 296.9 289 282.2 276.3 269.7 261.7 252.9 242.4 226.2 230.4 239.3 247.9 258.6 273.3 281.1 289.9 294.1 296.4 297.6 302.3 307.1 309.3 310.7 310.8 309 304.9 300.5 296.4 291.1 285 278.3 268.8 264.2 267.9 269.2 269.5 276.7 285.3 293.7 300 305.1 309.1 311.9 315.9 318.8 322.5 328 331.3 330.1 339.2 346.9 351 359.8 366.8 373.2 379.8 389.2 396.7 408.3 431 444.6 457.1 467.5 474.4 484.8 493.7 501.8 508.7 511.9 516.5 517.6 520.2 521.4 521.3 520 516.7 509.7 502.7 494.7 487.1 477.2 464.8 452.5 442.7 425.9 425.7 426 425.6 426.9 427.5 426.9 427.6 424.4 421.2 417.7 414.8 412.6 410.3 408.6 407.9 405.5 401.2 396.4 392.5 389.9 385.9 381.3 372.6 364.1 356.1 347.7 339.9 331.9 325.3 320 314.4 309.1 304.6 299.9 294.7 288.3 281.9 277 271.5 267.2 263 257.1 250.4 242.8 237.1 237.1 236.9 236.4 234.9 233.8 232.4 231.1 229.7 228.2 227.1 226.4 227.1 227.2 227 227.6 228.3 227.3 224.4 233.4 239.9 246.2 253.8 261.1 265.7 266.1 263 257.5 252.1 246.9 243.1 239.9 238.8 237 234.3 231.6 229 226 221.5 217.6 213.8 210.4 208.7 205.1 204.8 210.1 216.3 224 229.4 232.5 234.3 234.1 231.7 229.3 226.2 222.9 219.7 215.9 213.1 209.3 203.7 197.3 189.1 178.1 167.6 164
326.8 315.9 312.9 308 297.1 288.7 280.6 274.2 268.9 261.6 254.8 246.1 230.8 230.7 230.9 248.1 256.5 269.2 279.4 291.2 300.4 304.6 306.6 309.6 315.7 320.5 321.5 321.4 318.9 316 310.2 305 300.4 294.3 288 281.3 266.5 271.6 275.4 275.8 271.1 278.3 289.4 298.7 305.7 310.5 312.8 315.7 319.4 323.1 327.9 331.8 335.3 341.1 346.9 351.6 356.8 363.4 369.8 376.5 383.6 396 407.2 424 441 456.3 464.8 473.5 484.6 495.1 503.9 509.3 512.6 516.3 517.9 517.8 517.8 517.5 518.3 518 515.1 510.6 504.6 496.2 488.5 479.7 468.9 458.8 450.1 436.5 415.3 411.2 410.1 410.3 416.2 417.8 419 417.2 415.6 412.8 409.9 408.2 407.2 408.1 408.5 407.7 404.1 401.3 397 394.2 391.7 385.6 376.8 367.1 356.3 346.7 336.5 329.4 323.8 318.5 313.1 309.2 306 301.6 296.1 289.9 284.4 279.4 274.7 270.2 264.6 257.4 251.8 245.5 240.6 235.6 234.6 233.1 231.9 231.1 229.8 228.6 227.1 225.4 224.7 223.8 222.9 223.3 222.4 221.7 222.1 222.3 219.5 230.1 236.2 242.1 248.8 253.5 257.2 255.8 251.1 246.1 241.4 237.6 234.3 232.1 230.5 227.5 224.6 221.5 217.8 213.2 208.2 204.6 198.3 191.3 187.7 187.6 187.6 198.1 209.8 218.3 224.3 227.8 230 229.9 227.8 225.4 221.6 217.8 214.8 211.9 209 205.1 200.2 193 182.4 171.7 164.1 163.6
324.3 317.4 307.1 282.5 278.4 275.9 270.7 265.8 259.2 252.5 245.3 234.5 231.9 231.4 231.6 245.4 257.6 269 284.4 295.9 305 308.9 312.8 321.9 329 333.2 332.6 331 327 320.1 314.9 309.7 303.6 297.3 290.7 283 271.3 277.4 280.6 281 279.7 282.9 292 301.3 307.9 312.7 316 318.9 322.8 327.3 331.4 336 341.6 346.7 349.8 357.5 362.9 369.9 375.9 382.5 390.7 399.2 410.8 428.7 444.1 455.3 469.4 478.2 491.1 503.4 509.3 511.9 513.4 515.7 516.6 514.3 513.1 511.7 511.3 511.2 511.2 510.4 506.7 498.7 489.7 480.6 472.4 462.9 454.9 445.7 434.9 423.5 408.2 395.7 402.8 408.2 409.5 408.9 406.9 405.6 403.5 401.4 403 405.9 408.3 408.9 406.9 404.3 401.6 398.4 393.9 388.2 380.6 368.8 357.5 345.1 333.3 326.3 320.7 315.6 312.3 308.7 305.6 300.8 296.5 290.3 285.6 280.7 275.4 269.7 263.9 257.6 252.1 246.6 241.5 234.2 232.6 232 230.2 228.5 227.2 226 224 223 222.2 221.3 220.4 219.3 217.1 215.4 214.4 213.9 215.1 223.8 230.5 235.2 241 245.1 246 243.4 238.8 235.4 232.7 230.2 227.8 225.7 223 219.1 215.7 211 203.8 193.3 191 190.6 188.7 196.1 196.8 191.5 184.9 184.1 196.4 210.2 218.8 223.5 225.8 225.7 223.9 221.7 217.9 213.4 209.2 207 203.9 199.8 193.8 184.1 174.8 165.7 164.2 163.7
321.7 314.2 304.1 293.9 277.5 262.6 259.8 253.2 249 244 243.7 247.1 240.5 227.5 232.5 239.5 253.3 266.6 281.8 294.5 303.4 311.3 319.1 330 336.3 338.8 339 335.9 330.2 323 317.4 311.1 304.7 298.4 292 284.5 278.3 283 285.5 286.9 287.3 287.5 293.7 302.5 308.8 313.8 318.7 321.9 327 331.7 335.9 341.5 348 354 358.8 364 369.6 372.9 380 387.6 396.3 407 419.7 433.3 446.2 461 472.7 483.1 494.9 504.7 510.9 512.7 514.1 516 515.6 511.1 508 504.8 502.2 502.8 505 505.8 502.9 496.8 489.9 483.9 475.5 467.5 459.2 449.2 439.4 428.5 421.4 411.5 389.2 395.8 399.1 399 396.9 394.7 394.2 392.9 396.2 400.3 405 406.5 408.6 406.7 404.3 400.7 394 387.8 379.8 368.4 358.9 350.8 340.2 329.7 323.2 316.9 311.8 306.3 302.6 299.9 295.9 291.2 286.6 280.1 274.2 268.5 262.8 258.4 253.1 247.8 242.8 239 235.3 230.6 227.8 227.4 225.5 224 223 221.7 220.4 219.4 218 217.1 215.3 214.5 213.6 213.3 212.1 209.5 221 226.4 230.5 231.4 231.3 230.2 229.2 227 225.4 223.8 221.5 219.4 215.2 210.9 205 193.8 196.5 202.1 206.8 210.7 211.9 209 204.7 200.5 195.1 188.5 183.8 201.7 214.3 221.4 224.3 224.1 222.1 218.9 214.1 209.5 205.1 202.2 198.5 193.4 186 177.3 169.3 165.9 165.2 171.8
317.6 308.8 301.9 293 283.6 276.5 269.9 260.9 261 258.8 255.7 252 245.8 231.7 229.8 235.6 246.2 261.7 276 288.9 297.5 307.5 319.5 331 337.6 341.2 341 335.7 330.3 324.9 318.6 312.2 305.9 299.5 293.1 284 284.7 288.5 290.3 292.9 293.4 288.8 297.3 303.5 310 315.1 320.1 324.8 329.3 333.7 339.8 349.9 356.5 363.1 366.9 369.5 374.3 380.3 384 391.7 402.8 414.5 427.9 440.5 453 465.6 476.2 486.5 494.9 502.5 509 513.2 515.4 516.2 515.2 509.6 503.8 498.1 493.8 493.6 493.8 496.8 496 492.9 489.6 484.7 478.6 471 462.5 453.4 443.5 437.3 427.2 417.6 406.9 382.6 384 387.2 387.1 385.5 383.7 383.7 387.4 391.7 398.1 401.4 406.1 406.7 404.6 399.3 394.5 388.6 382.9 374.4 366.5 355.3 344.7 335.2 327.8 321.3 314.2 307.3 302.1 297.1 294.2 290.8 283.8 278 273 267.4 262.5 258 253.8 249.1 244.3 240.3 236.1 232.6 230.6 227 224.9 223.8 223 221.7 220.5 219.2 218.3 217.3 218.2 217.6 219.9 219.9 218.5 214.3 208.4 215.8 218.7 218.9 219.2 221.6 221.1 219.2 218.5 218.2 216.6 212.6 206.4 199.2 195.5 205.6 217.2 222.8 222.1 219.6 217.9 212.4 207.5 203.2 198.2 192.6 182 187.2 209.5 220.7 224 222.9 220.2 216.1 211.1 206.8 202 197.4 190.1 185.2 179.8 173.5 167.7 166.1 167.3 180.8
313.2 305.5 298.1 292.1 284.3 277.1 270.9 268.4 265.6 263.1 259.8 256.2 251.4 240.3 231.7 230.8 239.1 255.1 267.4 281 290.7 303.5 317.4 327.4 336 339.6 339.7 336.4 331.7 325.9 319.6 313.3 307 300.6 294.6 285 290.4 294 296 298.3 298.4 299.5 299.2 304.8 311.5 316.6 321.7 326.4 330.6 337.3 345.1 356.3 367.6 373.1 373.9 376.4 378.5 383.9 389.7 400.2 409.8 421.9 436.1 447.5 456.2 468.4 478.5 487.2 494.2 501.6 509.2 514.7 516.7 517.9 515.5 508.9 501 490 474.4 481.6 485.2 486.3 488.9 488.1 486.3 482.5 477.2 471.8 467.4 461.8 454.6 445.3 434.1 423.4 412 400.1 385.3 374.8 375.9 373.7 373.3 373.6 377.3 381.8 388.5 394.3 398.9 400.5 400.8 398.5 395.9 392.2 387.5 380.8 370.2 361.9 351.4 342.6 333.7 325.5 318.5 311.1 302.5 296.6 290.9 286.2 280.6 275.4 270.8 266.7 262.2 257.5 253.3 249.3 244.9 241.2 237 231.8 230.1 232.3 232.1 231.8 229.8 228.4 225.7 221.4 220.3 222.4 222.2 221.1 222.6 222.4 221.6 218.8 211.6 208.6 207.8 205.8 206.9 208.7 209.9 206.5 206.2 208 205.9 201.3 196.6 205.1 215.6 226.9 231.1 230.4 229.3 226.5 221.7 215.3 210 204 199.9 195.3 186.3 180.6 195.8 213 220.8 220.3 217.3 213.1 208.5 204.7 199.8 192.7 185.7 180 175 170.3 166.9 168.7 182.5 188.4
310.3 303.6 297.2 291.4 285.4 280.7 277.7 272.6 269.4 266.7 263.9 260.6 256.9 249.1 239.9 231.6 233.5 247.1 260.1 273.4 285.4 298.7 311.1 323.3 332.1 337.1 338.4 337.1 333.3 326.3 319.9 313.6 307.5 302.5 296.2 294.9 297.5 299.5 301.4 302.9 304.5 305.8 304.9 307.7 313.4 318.6 323 328 334.4 348.7 358.7 370.2 378.2 381 380.9 381.1 384 388.9 397.8 409.9 421.1 432.1 443.6 452.5 461.3 471.1 479.5 488.4 495.1 503.9 513.3 516.8 519.2 518.8 514 506.5 497.6 483.3 461.9 467.3 473.5 475.2 479.2 482.5 481.2 478.9 475.9 473.9 472.4 470.6 465.3 454.9 443.1 427 416.4 407.2 393.5 380.2 364.2 363.4 362.4 363.1 366.1 372 378.3 385.9 392.4 397.5 400.4 400.6 398.8 395.7 390.2 384.6 370.7 368.8 357.3 349.4 340.4 331.3 322 312.5 304.4 296.5 290.6 283.6 277.1 272.4 268 263.9 260.4 256.7 252.9 249.2 245 240.3 236.2 232.8 235.7 238.8 238.7 239.6 237.3 236.2 233.8 231.5 229.3 227.1 226 224.4 224.4 224.2 223.8 222.3 218.1 213.5 206.7 206 204.3 202.5 202.9 204.7 203.2 199.8 201.8 209.3 218.3 226.9 233.8 236.8 236.7 234 231.3 227.5 221.5 215.3 208.8 203.3 199.8 196.4 191.4 180.4 178.7 197 208.5 213.9 212.4 209.3 206.3 202.4 197.6 191.9 185.7 179.3 173.9 168 172.2 183.6 189.8 194.1
310.1 303.9 297.4 292.3 288 283.8 280.3 276 272.8 271.5 269 266.6 262.7 255.5 247.4 237.8 231.9 238.8 253.2 266.7 280.6 292.6 305.4 318.7 328.5 334.2 337 336.9 333.7 326.9 320.4 315.4 310.5 305.5 298.3 300.2 302.9 304.8 306.7 308.1 309.3 309.6 310.5 312.6 316.8 320.7 324 329.8 343.1 361.1 373 380.9 385 387.7 387 387.6 396.6 406.1 413.5 425.2 432.2 442.4 450.9 458.3 464.9 472.7 482 490 498.7 509.8 516.7 520 521.6 518.7 513.7 505.6 494.9 480.9 460.6 452.6 459.7 466.3 472.1 475.6 474.6 474.5 474.9 475.4 474.5 474.1 472.1 462.1 448.4 436.5 425 412.6 400.8 386.9 373 358.4 357.6 355.4 355.9 362.2 368.2 376.5 385.4 392.3 398 399.9 398.1 395.8 391.6 386.1 378.9 375 363.7 354.6 346.2 336.5 326.3 315.2 306.5 297.8 290.2 283.7 277.1 271.9 265.5 261.4 258.4 254.8 250.9 246.9 242.8 237.9 235.8 242.5 244.3 245.4 247.1 247.3 245.9 243.5 241.2 238.8 235.9 232.9 230.5 228.5 228.3 228.1 227.6 226.5 224.8 222.2 220.4 219.7 219.2 219.4 221 222.2 223.9 224.8 226.5 230.3 233.6 236.5 237.2 237 234.9 231.7 228.1 222.8 217.7 212 206.9 202.5 197.7 194.3 192.4 188.2 178.8 177.3 189.9 195.7 204 202.8 200.7 197.4 193.9 188.7 178.9 171.3 168.3 173.2 185.7 192.2 197.5 202
311.3 304.3 297.6 292.3 288.8 285.6 281.8 278.7 276.5 275.9 273.9 271.3 267.6 263 251.5 242.1 235.1 230.3 248.1 262.5 274.9 288.4 302 313.7 323.9 332 336.3 336.2 333.1 327.4 322.4 317.4 312.9 308.6 306.3 306.6 308 309.8 311.7 313.3 314.4 315.4 316.3 317.2 318.3 324.7 329.5 342.3 359.4 372.3 381.4 386.2 390.6 393.3 394.8 399.6 411.4 421.6 429.9 437.2 442.1 448.4 456.4 462.8 469.7 477.1 484.3 492.9 506.3 514.8 519.7 521.8 523.6 519.7 511 501.7 491.1 479.8 459.9 440.2 445.5 454.3 461.7 465.4 466.4 468.7 472.6 474.4 474.3 473.4 472.1 468.2 456.4 445.7 434 421 405.9 394 381.6 368.7 360 352.1 349.9 350.7 358.6 367.3 375.1 384.1 390.8 395.3 396.3 394 390.7 385.8 381 373.9 367.4 358.7 350.1 341.4 328 316.5 307.4 299.5 291.7 284 277.3 271.8 267.1 260.1 253.4 249.6 246.4 242.3 239.1 242.5 247.9 255.4 257.9 258 257.6 256 253.9 251.6 249.3 246.2 242.5 238.8 236.1 234.5 234 233.8 234 233.7 232.8 231.9 231.6 230.5 230.2 232.4 234.2 235.4 235.9 236.4 235.3 234.8 234.7 233.6 233.2 232.2 230 226.5 222 215.9 210.8 207 202.1 196.7 190.7 184.8 182.9 180.8 178 177.3 175.6 175.5 181.6 184.7 183.6 178.2 173.5 171.7 170 171.3 180.2 189 195.9 200.2 205.1 212.5
310 305.1 298.3 293.1 289.3 286.1 282.6 281.1 280.2 278.8 277.2 275.2 271.6 267.4 255.7 246.9 238.4 233.1 243.2 259 270.3 284.6 298.5 311.2 322 330.4 335 335.3 333.7 329.8 324.9 319.9 315.6 312.7 311 312.1 313.2 315 316.6 317.9 319 320.2 321.6 323 325.1 333.7 335.9 352.9 368.9 377.5 385.7 391.3 394.2 399.4 405.2 418.1 430.4 438.7 444.1 450.3 454 455.2 461.1 466.9 474.3 481.8 489.8 501.5 512.4 518 522.1 524.6 524.3 518.8 509.5 497.9 489.8 477.9 462.4 443.5 432.7 442.1 449.6 455.3 459.3 461.3 466.6 469 470.5 469.9 468.4 465.9 460.5 450.8 439.5 427.5 412 398.9 387.4 377 366.6 356.8 347.4 347.9 349.3 354.5 361.1 368.7 378.3 385.3 387.6 387.9 386.6 382.4 378.1 373.9 369.4 360.8 350.4 341.7 326.7 315.1 307.5 300.1 292.5 284.7 278 272.4 267.5 261.4 255.1 246.6 244.1 244.5 249.4 259.2 266.7 269.2 268.5 268.9 268.6 266.8 264.2 260.5 257.6 253.1 248 244.4 241.8 240.7 239.9 239.6 239.8 239.9 239.8 239.8 239.8 238.4 240.3 241 239.7 240.3 239.1 238 234.9 232.3 231 229.3 227.5 225.7 222.7 219.5 215.2 209.1 202.5 198.5 191.7 183.2 181.9 181.1 179.9 179.5 181.7 177.9 176.3 175.2 174 173.9 172.9 171.9 171.6 172 179.1 188 193.4 199.5 205.9 210.3 218.1 224
308.6 304 299.5 294.6 290.7 286.4 283.4 281.8 282.1 280.1 278.8 276.8 273.9 269.6 260.8 252.1 242.4 234 239.5 257 268 280.5 296.7 309.9 320.8 328.8 333.7 335.1 336.2 332.5 327.7 322.9 318.8 316.7 315.8 317.4 318.4 320 321.2 322.6 325.6 326.7 327.8 330.5 338.8 350.7 354.9 353.4 367.7 377.8 387 393.5 397.5 405.6 419.6 435 446.6 451.8 457.1 461.6 460.7 461.9 465.3 471.4 478.9 487.4 496.2 507.6 515.5 518.7 522.6 526.2 524.3 517.8 507 497.8 487.2 474.1 460.4 444.4 423.7 430.2 437.2 443.8 448.6 453.1 457 460 462.5 463.1 462.8 461 456.9 451.4 442 431.6 419.3 404.8 393.9 383.9 373.8 365.1 356.1 348.3 341.1 343.2 347.5 354.3 361 368.2 372.4 374.6 374.8 373.1 373.1 371.1 365.5 356.4 348.2 333.3 320.6 312.5 306.4 300 292.7 285.5 278.7 272.9 267.1 259.7 252.4 247.3 256.9 264 272.6 279.3 281.7 281.1 280.6 278.6 278.2 275.7 272.7 268.4 263.9 258.2 253.5 250.3 247.6 247 246.2 246.6 246.9 247 246.9 247.2 246.3 244.3 244.6 244 241.9 240.9 239.2 235.9 232.4 228.4 224.8 222.3 219.7 215.7 212.2 207.1 202 192.3 186.8 186.7 184.7 183 182.6 181.5 185.4 186.2 183.5 180.4 184 185.1 185.6 177.3 182.6 183.6 185 187.5 190.6 196 201.8 209.1 215.5 222.7 229.1 234.3
307.6 303.4 299.1 294.2 289.9 285.6 282.3 280.4 279.5 278.4 277.1 275.6 273.3 269.3 262.9 253.9 241.1 234.5 235.8 255 267.3 282.6 297 311 319.9 327.9 333.4 336 337.4 334 330.7 326.8 324.5 322.7 320.6 323 323.2 325.3 326.8 329.5 334 335.5 337.4 344.9 354 361.8 363.4 363.3 371.3 378.5 387.1 393.3 405.6 420 437.5 451.3 459.4 465.4 467.7 469 468.5 467.8 471.3 476.8 483.2 492.4 501.8 511.5 515.5 518.6 523.8 525.4 523.2 514.9 505.5 494.9 483.3 471.3 455.1 440.4 425.6 415.6 423 428.9 434.4 443 446.6 449.5 451.8 454.6 455.2 455.4 452.3 447.9 442.6 433.6 424.1 410.1 399.3 389.9 381.1 372.2 362.5 355.7 347.1 340.7 339.6 345.2 347.3 351.5 355.4 356.8 361.5 364.9 366.6 361.5 357 349.3 336.2 324.3 315.8 309.7 303.5 297.4 291 284.3 277.5 270.9 264.9 258.7 252.2 254.7 270.9 278.4 284.7 292.3 295.4 296.6 293.5 291.7 287.9 285 280.1 275 270.4 263.8 259.5 256.5 253.6 253 252.7 253.1 254 254.1 253.5 252.1 250.7 249.3 248.1 244.7 240.9 237.8 234.4 231.6 225.3 218.6 214.7 211.3 207.2 202.2 197.5 189.8 188.5 188.1 186.8 186.1 185 191.1 190.3 189.3 187.6 186.9 183.5 186.1 190.4 191 189.4 182.6 186.8 189 191.3 193.3 196.9 202.6 209.3 216.7 224.4 232.6 240.6 246.8
306 302.1 298.1 293.2 288.4 283.2 278.7 276.3 274.3 273.6 272.8 271.1 269.4 267.7 261.6 249.5 236.8 234 244.4 258.7 269.5 285.5 299 311.2 320.2 328.8 335.3 337.6 338.7 335.7 334.1 331.9 329.2 326.7 326 325.2 326.7 328.9 331.5 334.8 338.3 340.9 347.7 357.9 364.3 368.4 373.1 376.1 375.6 383.8 394.2 406.7 421.6 437.7 451.5 462.7 469.7 475.8 478.7 475.8 473.3 470.7 476.3 481.5 489.1 495 503.2 508.9 512.8 516.6 520.5 523 520.8 511.5 501.5 489.9 477.7 463.7 446.9 431.4 419.2 406.8 410.6 416.7 425.2 433.2 435.2 436.7 439.2 442.7 443.3 444.7 445.2 442.8 439.4 433.7 423.6 412.7 404 394.7 386 376.4 368.1 361.3 353.6 347.1 337.9 333.4 337.6 342.3 343.7 345.2 348.6 355.1 354.6 350.9 345.5 336.6 327 316.8 311.3 305.9 299.8 294 288.3 281.9 275.2 268.4 262.8 257.1 251.7 264.2 279.3 290.9 296.9 307.1 307.8 308.4 306.7 303.3 298.6 293.3 287.3 282.1 276.8 271 265.7 262.4 259.7 258.5 258.3 257.9 257.8 256.7 254.7 252.3 249.8 247.9 246.2 241.2 237.2 230.1 223.9 215.8 209.8 202.8 197.1 193.7 193.8 192.9 191.2 190.1 191.8 196.7 196.7 196.9 197 196.8 195.5 193.7 190.5 186.5 187.4 191.9 193.9 193.8 189.9 186.1 186.6 192.4 195.2 199 202.9 208.7 216.4 224.5 232.8 241.6 251.5 260.4
304.5 300.4 296.3 290.6 285.4 280 274.2 270.1 267.7 266.1 265.4 264.9 264.7 262 253.3 241.7 235.1 232.1 253 262.2 273 287.8 301 311.7 321.4 330 336.1 339.6 340.2 338.3 335.4 333.4 332 330.1 329.3 329.6 331.6 334.6 336.7 339.2 343 347.8 357.9 366 371.3 380.7 385 387.2 383.6 392.1 404.5 421.3 435.2 449.4 463 472.8 481.2 484.6 485.8 482.9 478.7 477 480.3 485.6 490.3 494.1 497 501.6 505.5 510.7 514.2 516.2 513.1 506.6 496.5 485 472.4 458.7 438.6 422.8 411.1 400.7 400.2 408.6 415.6 421.1 422 423.2 425.6 428.2 430 431.7 433.8 434.5 431.4 426.4 419.1 413.7 405.6 397 388.5 380.6 372.7 365.3 359.9 354.3 346.4 338.4 329.4 331.3 329.8 336.6 339.7 339.2 340.1 336.8 332.7 326.6 318.9 311.7 306.1 301.4 296 291.1 285.5 279.2 272.9 267.3 262.3 257 252.8 273.4 287.7 298 310.3 315.8 319 319.2 318 314.3 308.4 302.1 296.4 290.3 283.6 281.5 273.2 268.9 264.7 261.7 260.1 258.8 257.9 255.6 252.7 249.2 242.9 241.2 237 229.2 221.1 212.9 206.2 198.4 197 195.8 194.7 196.3 195.2 196.4 198.1 201.7 202.1 202.6 202.1 202.3 200.9 201 198.5 194.4 190.4 187.3 191.1 195.2 197 196.5 193.2 189.9 189 194.1 198.3 203 209.4 216.1 223.5 233 242.4 251.3 263.9 275.9
299.8 297.5 293 287.4 281.8 275.8 269.8 264 260.6 257.9 257.3 254.8 254.4 246.3 238.1 232.4 233 240.9 250.1 263.3 275.2 289 302 312.2 321 329 334.7 339.4 340.9 339.9 336.6 334.4 333.5 333.3 332.4 334.2 337 340.4 342.4 345.4 349.8 356.3 366.9 376.9 384.9 392.4 397.3 397.3 393.9 402.7 417.6 430.9 445.9 460.6 472 482.3 488.9 490.4 490.6 486.9 481.8 479.1 480 483.2 486.3 488.1 490.8 493.6 496.4 500.9 506.2 507.5 504.4 497.3 488.9 479 467 453.1 436.6 419.2 404.3 394.9 394.6 401.5 404.5 409 410 408.4 411.3 414.1 417.8 420.4 421.5 420.5 418.4 415.2 413.8 413.1 406.8 397.4 389.4 382.8 372.8 370.1 364.3 358.6 353.5 347.1 337.3 329.6 326.3 327.8 331 328.5 331.2 327.4 322.8 318.8 313.4 306.4 301.3 296.7 292.3 288.3 282.6 276.5 271.5 268.2 263.7 256.4 262.9 281.5 298.2 309.3 317.2 322.4 327 327.3 324.7 322.5 316.7 311.8 306.8 298.7 287.3 288.5 279.2 269.8 265.3 259.3 255.4 251.8 250.5 246.6 239.5 231.1 227.5 223.9 220 212.3 203.6 200.2 198.5 198.8 199.8 206.1 208.8 213.3 216.1 215.8 213.2 210.2 209.3 208.5 207.5 205.2 202.7 200.5 197.5 193.6 192.6 189.8 195.1 198.4 198.9 198.6 196.2 192.9 193 196.9 202.3 209.3 217.6 223.8 231.7 239.8 250.2 265.1 278.7 291.1
295.5 293 289.1 284 277 270.5 265.3 259.4 254 249.8 245.3 242.5 234.6 235.3 235.2 234.5 244 257.2 256.2 257.4 269.9 285.8 299.7 309.8 318.9 326.7 332.8 337.3 339.6 339.9 337.4 336.3 337 336.9 337.2 338.9 342 345 347.5 351.7 358 366.7 376.9 387.3 395.7 400.7 405.7 404.4 409.4 417.3 428.5 442.5 455.5 469.7 480.1 488.9 492.7 493.6 491.9 487.4 482.6 479.3 478.1 476.6 476 476.8 480.5 484.7 488.5 493.3 497.5 498.4 495.9 488.2 481.4 473.4 462.4 449.9 436.8 422.6 408.6 392.7 387.1 391.4 394.2 397.7 398.6 399.3 399.2 402.8 406.7 407.9 407.7 404.6 404.5 403.7 407 409 402.7 394.3 388.8 381.7 378.9 374.3 367.1 363.2 358 353 346.3 338.1 330.3 319.2 321.2 322.6 320.6 318.5 315.2 312.4 308.8 302.4 297.4 292.7 288.8 285.1 280.8 275.5 271.4 265.8 259.4 257.8 272.4 287.9 300.8 311.7 318.9 324.7 329.2 330.2 329.7 327.8 325.1 320.5 315.9 308.7 301.7 293.4 279.2 270.7 261.1 253.7 246.9 241 234.1 229.3 221.6 214.6 208.4 204.8 203.8 202.1 203.5 208.6 211.5 212.9 207.7 221.1 227.8 230 228.9 227.4 224.4 220.4 217.2 214.1 210.2 205.7 202.2 198.5 196.2 195.8 195.5 192.9 198.1 201.7 201.7 202 199.8 197.7 198.9 202.4 208.2 216.2 223 231.1 239.7 249.7 262.6 278.1 292.1 305.6
289.4 287.5 284.4 279.1 273 266.8 260.9 254 246.8 237.4 234.4 235.7 235.9 235.4 235.8 248.7 261.7 267.9 267.2 258.5 267.1 280.5 294.6 306.1 315.2 323 329.1 334.3 338.2 340.1 339.3 339.7 341.2 342.9 343.9 344 346.1 349.6 353.5 358.6 367.2 377.1 388.4 397.4 403.8 408.1 412 416.9 425.7 434.5 440 452.1 463.9 476.2 486.5 490.8 495.7 496.5 493 488.5 482.8 479.2 473.4 468.8 467.4 467.3 470.2 474.6 478.7 485.1 489.9 492.3 488.6 483.3 476.6 469.7 460.3 448.5 436.8 424.1 409.7 392 378.8 380.4 382.8 386.4 387.6 387.4 387.6 393 394.6 395.5 392.4 389.3 389.2 392.3 396 397.2 393.5 389 385.2 382.9 380 375.9 370.9 367.8 364.2 358.4 351.5 344.5 336.6 328.9 312.7 311.9 309.8 309.6 307.6 306.4 304.2 298.6 293.5 290 286.3 282.4 278.7 275 271.1 261.6 259.8 265.6 279.3 290.7 303.8 312.5 319.7 324.5 328.6 330.7 331 330.7 329.5 325.8 321.7 316.5 306.3 291.7 278 267.9 252.7 243.1 235.3 228.5 221.2 209.3 207.6 206.6 206.8 211.7 215.1 217.2 221.7 224 224.6 221.4 213.9 232.5 237.2 239.5 240 237.4 233.5 228.8 223 217.5 212.1 206.4 201.5 198.5 197.8 199.5 198.3 195.8 199.8 204.4 205.8 206.1 203.9 203.8 205 209.6 216.7 222.4 230 238.1 245.5 258.4 272.5 285.2 303.7 315
281.8 280.8 278.9 273.6 267.5 262.3 256.3 247.2 236.5 234.2 236.4 235.7 235.1 235.6 249 260.6 271.9 275.5 274.9 270 264.4 276.6 290.2 301.5 310.8 320.4 327.1 333 337.2 340.7 343.3 344.4 345.8 347.8 349.2 349.3 350.6 355.4 359.7 365.8 376 387.2 397.1 403.8 409.1 413.1 420.3 428.3 438.8 448.1 454.8 460.7 470.8 479.7 486.8 492.7 496.4 497.4 495.3 490.9 484.1 476.9 467.7 456.4 455 456.7 459.5 464.5 470.3 476.5 483.7 486.1 484.3 479.7 472.8 465.6 456.3 444.6 434 423.8 410.1 396.4 381.2 372.6 371.6 373.8 374 375.5 380.6 385.4 386.6 384.2 380.3 377.9 377.8 381.4 384.6 385 384 383.1 381.4 380.5 378.5 376.6 374.6 372.1 368.5 362.5 355.8 349.1 340.4 332.5 321.1 305.5 301.7 296.5 299.1 299.3 300.2 295.9 291.2 288.3 285 281.1 277.5 272.2 264.7 264.4 268.8 277.4 288.4 298 305.4 313.3 320.2 324 327.9 330.1 330.4 330.9 330.4 326.2 322 314.7 304.6 287.9 275.3 263.4 245.5 235.2 226.3 218.7 210.5 209 217.4 220.6 222.6 224.2 226.8 231.6 234.7 233.5 228.9 216.4 222.1 237.7 243.8 247.4 247.7 244.9 240.3 234.6 227.6 220.3 213.3 207.7 202.4 200.3 201.2 203 201.6 199.4 200.9 206 209.2 209.6 209.9 211.5 213.3 217.9 224.7 232 239.7 247.8 255.9 266.6 280.4 298 311.7 319.5
268.7 270.2 269.2 266.3 262.1 256.8 249.1 237.8 234.4 236.3 235.9 235.2 237.2 251.1 263.1 274.6 280.5 282.4 282.1 280.2 271.3 275.9 285.7 296.8 307.2 317.1 325.2 331.8 337.8 343.5 347.7 348.8 350.4 352.9 354.3 356.4 359.4 363.9 369.9 376.8 384.7 393.2 400.8 408.1 413.3 418.1 430 440.2 451.3 460 464.7 470.2 474.4 480.9 488.5 492.1 496.5 499.4 499.5 494.1 485.3 476.4 466 444.5 436.7 441.7 448.1 454.4 461.5 468.2 475.1 479.1 479.3 474.9 469.2 462.1 452.2 441.7 430.7 420.1 408.4 397.6 386.2 373.9 366.5 364.2 364.4 364.2 370.8 375.7 376.1 374.4 370.4 367.5 368.1 371.8 374.8 375.6 377 377.3 377.3 376.8 378.3 377.7 377.2 373.8 368.9 364.9 360.4 354.9 345.7 337.9 326.1 315.5 309.8 304.5 293.4 292.8 295 294.3 290.1 286.6 283.6 280 275.8 268.6 272.6 274.9 279.4 289.9 298.9 304.3 309.7 316.2 320.8 323 324.8 324.2 322.3 322.7 320.6 317.9 314.4 308.1 298.5 286.5 273.4 259.5 244.6 230.8 222 213.9 209.9 224.7 232.1 236.2 238.2 240.2 241.6 242.4 240.6 237.7 231.6 216.9 226.9 240.7 249.5 253.5 253.5 249.8 243.7 236.4 229.7 222.5 215.4 209.7 204.6 203.4 205.3 205.9 204.7 202.8 204 206.9 211.8 214.3 216.8 220.4 223.9 227.1 235.5 242 249.7 256.4 265 276.4 291.9 306.8 318.2 326
270.6 257.6 259.1 258.8 255.4 250.2 237.9 236.2 237.2 236.5 236.2 249.6 255.5 266.6 276.9 283.9 287.9 289.2 289.5 287.2 283 278.9 286.5 297.1 306.7 316.7 326.4 332.9 340.7 346.3 350.8 353.3 355.1 357.5 362 365.4 369.1 376.5 382.8 389 395.6 400.5 406.5 412.4 415.7 427.4 440.5 451.7 461.8 471.2 475.4 479.7 482 485.4 490.4 493.9 497.8 502.5 503.6 498 487.7 478.4 467.1 447.7 428.5 427.7 436.5 444.5 450.1 458.2 465.8 471.5 471.7 467.6 463.4 457.3 447.4 436.5 425.5 416.3 406.7 396.9 387.5 378.9 367.6 360.2 358.3 354.7 357.4 361 363.3 362.8 359.1 356.7 360.4 363.5 366.4 368 369.8 371.4 373 373.8 375.4 376.4 375.3 374.6 372.3 369.3 365.2 358.5 351 343 333.6 325 316.4 307.9 300.6 295.2 286.5 292.1 289 285.6 276.3 274 278 283.7 288.5 292.5 297.4 304.6 307.7 310.9 314.3 317.5 318.3 319.5 317.4 313.4 312 309.7 308.6 306.8 304.1 298.3 289.5 278.4 269.6 257.4 242.4 228.9 219.6 212.5 223.5 239.9 248.6 251.9 252.6 252.1 251.7 248.5 245.1 241.2 231.4 219.5 231.6 244.5 253.7 257.7 257.7 253.1 245.5 237.7 231 224.1 217.2 210.4 207.3 207.4 209.2 208.3 208.9 208.4 208.5 208.9 217.5 221.7 224.3 228.6 232.7 239.9 246.5 252.8 258.2 266 275.6 289 302.9 315.1 324.5 330.4
270.9 263.7 256.3 247.7 248.6 244.6 238 237.8 237.8 244.3 250 255 263.3 277.4 284.8 291.6 294.3 295.8 294.5 292.8 289.2 284.3 290.7 301.7 309.8 318.7 327.7 334.8 342.4 349 353.9 357.2 359.8 363.5 370.8 375.7 380.9 388.1 395.8 400.7 403.1 407.5 412.2 418.6 427.4 437.2 447.9 460.3 471.5 481.1 486.9 487.8 490.6 491.5 494.5 497.7 501.9 505.9 505.9 499.7 490.1 480.1 467.5 449.2 429.3 411.4 423.1 432.2 439.8 446.9 456.3 464.6 464.3 461.2 457.9 450.5 440.6 430.7 421.2 411.4 401.7 394.8 387.5 378 369.8 362.6 354.6 352.7 350.6 351.1 350 349.3 347.1 348.9 352.2 355.3 359.1 361 363 365.5 367.7 370.7 373.6 374.1 375.2 376.3 375.8 373.6 369.7 362.3 351.3 345.6 342.6 334.5 326.2 318.3 308.7 297.6 289.9 282.2 280.9 282.1 285.8 293.4 298.2 302.8 307.3 310.2 311.3 312.9 313.9 314.4 313.9 313.5 313.2 310 307.3 303.1 301.6 300.3 296.3 294.5 291.1 285.2 278.4 270.9 263.6 253.4 241.9 228.4 216.6 220.2 242.4 256 261.3 262.4 261.8 259.5 256.6 251.6 246.7 239.9 231 223.5 238.4 248.7 256.5 260.7 259.6 254.7 247.4 238.6 231.1 223.4 214.7 211 210.3 210 211.4 210.9 212.5 214.6 214.1 213.2 223.6 228.2 231.7 235.4 243.8 251.8 257.9 264 271.5 280 289.2 299.8 312.5 321.2 328.1 334
269.9 263.8 257.4 251.1 243.8 236.8 238.2 237.4 244.3 248 252.3 258.6 268.2 279.6 289 295.5 299.6 300.4 299 297.4 298.4 295.7 295.5 306.2 314.2 321.8 329.1 336.7 344.3 351.6 357.2 361.5 365.6 374.8 380.2 385.8 392 398.1 404.5 408.7 410.8 413.2 417.1 425.3 436 443 451.3 469.2 479.6 487.9 493.9 496.8 496.7 497.2 498.9 502.3 504.5 507.5 506.8 501.5 491.9 481 466.5 448.4 427.5 410.7 408 418.6 428.4 438.3 449.7 459.1 463.2 458 451.3 443.4 433.7 425.9 416.7 407.4 397.9 392.3 387.3 378.6 371 364.9 359 352.9 348.1 346.2 344.9 342.8 341.5 342.5 345.6 349.3 352.7 355.6 358 360.3 363 366.8 371.1 373.8 375.6 377.3 377.3 375.3 371.7 363.7 353.8 355.8 351.9 345.9 338 327.6 316.5 303.8 300.2 295 294.9 299.8 306.6 311.3 316.6 319 319.2 319 318.5 317.9 315.1 311.7 309.2 307.8 303.3 298 293.7 290 288.9 286.3 282.5 279.4 278 271.9 265.3 258 251.4 243.1 233.6 219.2 222.2 243.7 261.1 271.2 273.5 272.7 269.2 264.5 259.4 252.7 247.5 242.2 234.2 226.3 243.7 254.2 260.3 263.8 263.4 259.4 251.4 238.7 229.9 221.9 215.9 214.4 214.3 215.9 215.8 217.1 219.2 221.2 220.7 218 227.8 236.2 238.9 248.7 256.3 263.4 270.3 279 285.6 291.6 302.1 311.3 319.4 326.6 332.2 335.1
268.8 262.7 255.4 248 236.9 238.4 238 245.2 253.8 251.7 254.5 260.4 269.2 281.7 291.1 298.3 303.5 305.1 303.5 305.6 306.5 304.8 304.4 310.8 319.4 325.4 331.9 338.7 346.2 353.8 360 367 374.8 382.9 388.5 394.3 400 406.1 412.7 416.2 418.4 420.6 426.6 438.5 447.3 453.5 465.2 477.3 486.9 494.4 500.4 502.5 502.4 504.3 506.3 508.4 509.6 508.5 507.8 501.6 491.6 479.8 463.1 441.7 421.6 407.1 395.7 405 416.7 428.1 442.6 449.9 455.1 450.7 444.3 437 429.7 421 411.8 402.6 395.6 391 385.5 379.2 371.6 365.8 359.9 355.6 350.3 343.6 341.4 339.9 336.2 336.9 337.6 343.3 345.2 347.1 352 356.9 360.1 364.5 368.4 371.8 374.2 377.4 377.7 375.5 371.4 361.7 365.6 365 362.5 356.2 350.2 340 326.4 315.3 314.1 315 318.8 323.3 324.9 326.6 327.6 328 327.4 325.5 323.6 317.6 309.5 306.1 299.7 294.2 286.8 282 280.9 277.7 273.5 270.8 267 262.3 257.9 252.7 246.2 238.7 233.3 226 218.7 226.5 244.3 261.7 277.8 285.7 286 281 272.9 266.1 260.2 253.5 248.2 243 236.3 231.9 247.2 258.6 264.6 269.3 269.1 265.5 257.2 244.2 231.9 223.1 219.9 221.1 223.9 228.2 232.3 230.5 229.8 230.3 229.1 225.8 233.3 242.2 251.2 260.3 268.1 277.7 287.6 293.3 300.2 309.7 316.8 322.4 327.2 331.6 335.8 337.8
268 260.7 251.1 238.5 239 238.8 238.9 254.4 258.6 254.8 258.6 263.7 271.5 283.3 291.9 299.4 305.4 307.4 309.7 311.5 313.6 313.8 312.4 313.1 322.8 328.7 335.1 341.8 348.7 355.7 362.9 371 380.8 389.4 399.2 404.1 408.5 415.4 422.3 423 424.8 428.2 438.4 448.9 457.8 465.7 476.3 484.3 493 499.2 503.7 506.5 508.3 510 512.1 512.2 511 509.6 505.5 498.5 488.7 477.8 458.8 436.7 417.5 403.5 393.3 393.6 406 419.5 431 440.4 444 442 436.1 429.4 421.1 414.7 407 398.2 392 388.1 383.6 377.7 370.6 364.6 359.4 356.2 352.7 348.1 344.1 340.5 338.5 334.7 331.2 331.4 336.1 339.4 345.5 351.7 356.6 361.6 365.7 369.6 372.6 375.5 374.9 373.2 370.4 371.1 371.5 371.1 369.9 364.9 358.8 351.3 340 328.7 334.1 337.5 339.6 340.9 341.3 340.4 340 339.3 335 330.6 323.7 314.5 304.6 295 284.3 276.5 269.2 265.7 261.4 260.3 255.5 250.9 246.9 242.1 237.6 232.7 226.4 221.9 223.6 229.9 239.4 252.3 266.6 281.2 289.8 293.5 293 284.3 273.5 267.9 260.7 253.6 248.6 242.8 235 240.7 252 264.2 271.8 275.5 274.6 269.9 262 248.1 236 228.4 232 234.1 241.5 246 247.3 244.3 241.1 239.3 236.9 232.5 239 249.1 259.8 268.3 279 291.7 299.1 308.7 315.8 322.1 327.7 332.6 335.3 338.5 339.7 340.1
266.2 258.3 241.6 238.4 239.3 239.4 252.4 261.2 262.7 258.5 263.3 269.5 276.7 283.3 291.8 299.5 305.5 310.3 314.6 317.8 320 321.9 320.8 322 323.6 333.1 339.1 345.1 350.8 358 367.8 376.4 389.5 399.3 409.3 414.1 421.8 428 430.4 429.8 431.2 442.2 452.8 464.9 470.3 477.7 484.5 489.5 495.5 501.3 505.4 509 511.1 513.6 514.5 514.4 510.5 507.8 502.4 495.1 487.1 475.2 458.7 436.7 422 405.4 391.9 385.7 397.6 410.4 422.8 429.6 431.3 428.7 423.1 418.5 412.2 406.6 400.2 393.8 388.5 384.7 379.2 374.7 368.3 361.8 357.6 356 353.8 350.7 347.5 345.2 343.4 340.1 336.8 328.2 328.9 334.8 342 346.9 352.4 358 362.3 366.6 370.1 372.5 372.4 372.8 373.7 374.7 374.9 375 374 371.2 365.1 359 351.2 345.6 347.9 350.4 353.4 355.1 357.2 355.3 352.2 348.4 342.5 333.1 323.4 310.8 296.9 283.5 271.6 261.1 252 246.1 241.9 238 232.8 227.3 226.2 226.6 224.5 224.2 230.2 238.7 248.1 257.6 265.3 276.1 283.7 289.8 292.3 292.4 289.2 282 273.2 267.8 259.2 252.9 247.2 241.2 238.3 246 258.7 270.1 280.9 283.3 282 275.3 264.6 252.4 238.7 241.8 245.8 249 253.6 258 259.1 258.4 255.3 251.7 245.6 241.6 245.4 256.6 268.6 280.9 291.6 303.3 314.6 320.7 326.7 333 336.4 339.7 341.5 342.8 343.7 343.7
264.7 254.8 240 238.9 239.5 247.4 261.1 264.8 265.1 264.1 268 274.5 280.9 287.6 293.8 301.1 307.2 312.8 318.6 322.7 326.2 327.9 327.9 329.7 332 331.9 341.1 347.6 354.3 362.8 371.6 383 396.3 406.1 416.2 427.3 432.4 437.2 436.8 434.7 442.8 455.1 468.2 477.1 482.3 487.7 492 494.2 497.6 502.7 507 511 513.5 515.5 516.3 515.4 510.7 503.3 497 490.6 483.3 475.9 465.1 450 429.3 411.4 394.6 381.5 386.3 399.1 408 412.2 414 414.2 410.9 408.5 405.1 401.1 395.7 389.2 385.4 380.1 375.7 371.4 365.7 360.2 356 355 354.4 352.1 349.9 348.4 345.8 342.5 338.7 335.2 324.5 330.9 338.5 344.3 349 354.1 358.5 362.7 365.8 367.9 370.1 373.6 377.1 377.5 377.8 377.8 377.4 374.4 369 362.9 359.1 357.6 358.7 362.8 365.8 368.8 372.6 372 365.2 357.2 348.3 335.4 321.7 303.8 288.7 272.1 257.8 245.1 233.8 231.4 231.4 230.2 229.8 232.4 236.9 238.6 239.8 235.7 244.4 255.1 264.4 276.8 284.7 289.2 291.1 291.6 290 286.6 282.2 276.5 271.4 265.6 259.5 252.4 245.9 241.2 246.3 256.3 269.4 280.7 288.9 290.7 284.3 277.4 265.5 251.8 250.4 254 257.9 261.2 268.2 272.1 272.7 271.7 267.8 263.9 260.7 254.2 253.9 263.7 275.8 288.7 302.8 314.1 323.3 329.4 335.1 337.7 339.7 340.8 343.3 344.5 344.9 344.3
261.9 253 241.6 238.6 240.2 256.9 264 266.4 266.9 268.5 270.5 279.1 285.4 292.1 298 303.7 309.8 316.2 322.1 326.8 330.4 332.7 333.9 335.5 337.5 340.6 341.2 350.1 358.2 365.6 375.7 389.3 400.4 412.4 425.6 436.9 442.1 443.9 442.9 445.1 458.1 470.7 481.1 487.9 490.9 494.7 497.8 498.5 500.5 502.8 508.6 512.1 515.5 515.7 514.8 513.1 506.6 498.2 491.1 486.1 480.4 473.6 465.8 455.6 440.1 417.2 398.8 384.1 375.4 383.9 391 396.7 399.8 400.9 402.2 402 399.4 396.5 391.2 386 381 375.9 371.7 367.7 364.5 359.7 356.1 356.3 355.7 354.3 352.4 350.7 347.5 343.8 340.4 336.5 330.2 324.8 333.4 341.6 345 349.9 354.6 358.2 360.8 363.4 368 372.2 376.4 379 379.5 379.9 379.3 375.9 370.9 366 364.3 363.3 366.3 370.2 374.4 378.1 381.8 379.2 373.5 363.8 350.4 334.3 316.6 296.3 280.2 260.4 246.6 234.7 236.8 242.4 247 248.1 250.1 253.6 255.4 256.8 257.9 251.9 257.9 269.6 278.7 288.8 294.8 294.2 292.6 290.6 286.7 282.4 277.9 273.3 268.3 261.9 256.9 248.1 247.3 252.8 259.6 270 281.6 290.5 295.7 292.3 287.4 279.3 269.5 263 264.8 267.3 270.4 277.5 283.6 286.1 283.8 282.2 278.5 274 271.1 265.7 259.7 270 282.8 295.4 309.3 318.6 327.7 336.1 338.8 339.1 338.6 338.7 341.1 342.2 342.4 341.3
257.4 246.6 243.7 239.7 242.6 259.9 263.3 265.3 267.6 272.4 278 282.5 289.9 296.5 302.2 307 313.2 319.8 325.8 329.8 334.1 337.4 339.9 341.7 343.4 346 350.9 355.3 361 369.3 382.2 393.7 405.8 417 433.4 444.2 447.4 449.3 448.1 457.1 470.7 482.6 492.4 499.5 501.3 501.9 501.7 500.5 502.6 504.8 508.1 511.2 513.6 514.4 512.7 508.3 499.5 492.7 486.7 483.6 477 471 464.8 457.2 447.4 427 407.3 390.2 376.9 371.6 375 381.4 386.5 392 395.3 396.7 395.2 392.1 387.5 382.1 377 371.6 365.9 361.5 360.3 359.1 357.5 357.3 356.4 355.5 354.3 352.7 350.4 347.1 342.6 337.4 332.1 320.2 328.2 337.4 341.5 346.1 349.9 352.6 355.2 358.7 365 370.8 376.1 378.8 380.2 379.9 378.8 375.6 371 367.7 366.6 366.6 367.8 372.6 376.4 380.6 382.9 381.8 376.2 365 350 332.2 313.8 294.5 275.8 254.2 236.8 240.9 251.6 259.8 264.9 268.7 268.6 269.1 271.1 273.1 274.3 271.6 268.9 283.3 292.1 298.3 297.7 295.7 292 289.6 285.3 280.1 275.5 270.3 265.1 259.7 255.3 258.4 261.2 263.6 271.6 281.1 289.3 295.6 297.1 294.2 290 285.4 278.7 274.9 277.6 281.5 287.8 293.5 297.8 296 294 291.2 286.9 283.6 281.2 277.8 271.8 277.7 287.5 301.3 312.6 322.3 331.7 337.8 337.9 336.4 335.1 334.4 334.6 335.6 336.9 337.1
250.2 250.5 245.8 240.2 242.8 253.6 260.2 264 268.8 276.1 281.7 285.9 294.1 299.7 305.5 310.5 316.8 323.4 327.9 332.6 337.2 341.7 344.7 347.2 349 354 358.6 361.6 363.6 376.2 387.8 398 409.6 424.6 438.5 446.9 450.9 452.3 453.6 468.2 481 493.4 502.5 507.3 505.6 505 503.5 502.3 502.7 504.2 507 510.5 512.6 511 505.7 499.1 491 484.3 479.8 476 472.4 469.7 464.4 457.1 448.3 437.4 420.3 401.5 386.6 376.7 366.5 364.8 371.5 382.2 389.4 391.5 389.7 386 382.2 377.5 371.9 364.7 358.6 356.1 355 355.8 355.3 356.6 356.6 356.2 355.3 353.6 352.1 349.7 345.3 339.8 335.3 317.8 324.5 332.8 337.3 340.7 344 346.5 346.4 354.5 363.1 370.2 375.9 379 380.4 379.7 377 373.9 370.7 367.5 365 364.6 365.5 368.9 371.7 375.2 377.2 375.7 371.2 361.7 346.2 329.3 310.4 292.9 273.5 251.2 237.2 249.2 264 275.5 281.2 285.5 290.9 292 294.9 293.2 290.7 285.1 273.4 289.6 299.1 301 301 297 292.8 289.7 288.5 283.4 277.6 271.3 267.3 261.7 261.6 264.5 268.2 274.7 281.4 288.2 295.5 299.3 300.7 298.9 293.4 289 287.2 285.1 287.9 293.5 300.4 304.9 306.2 305.5 304.7 302.4 299.1 294.3 288.7 286.5 282.8 284.3 291.1 303.6 314 323.4 330.1 334 335.8 333.1 331.2 329.1 329 330.3 332.9 334.7
258.2 255.1 249.5 241 239.6 247.7 256.5 263.2 269.6 277.7 285.3 292 297.6 303.1 309 314.9 321.5 326.2 330.7 335.7 340.5 345.1 349.1 352 357 361.5 365.1 368.7 375.8 382.7 392.6 402.4 415.6 429.6 440.3 448.7 451.7 454.9 465.7 478.5 492.4 502.6 509.3 510.2 506.4 505.5 503.5 501.6 501.4 501.3 503.6 504.9 504.6 500.5 494.3 487.9 481.3 475.4 471.2 468.2 467.4 466.2 462.9 455.9 447.8 437.1 427.7 418 408.1 396.8 383.5 369.7 360.1 367.9 379.4 384.3 384 380.7 376.5 371.8 365.6 358.7 355 351.1 350.6 351.1 352.8 353.9 355.5 355.3 355.1 354.7 353.2 350.9 347.2 342.6 336.2 324.2 317.6 328.1 332 335.3 337.9 338 340 350.3 361.4 370.7 375.8 379.3 379.9 377.6 374.3 370.7 367.8 365.4 363.2 361.1 361.1 362.6 365.4 368.2 368.8 366.7 362.5 354.9 340.9 322.8 304.3 291.4 271.5 251 239.9 257.5 274.4 288.1 298 303.9 307 309 308.4 304.2 300.1 293.5 280.1 290.3 299.8 303.2 303.2 301.2 295.5 291.8 287.4 283.7 279.4 274.8 270.9 267.6 266.2 271.4 276.8 283.5 288.9 294.5 301.8 305.6 307 304 299.4 295 293.8 295.3 298.2 301.6 306.9 310.9 315 317 316.1 313.1 309.8 303.7 298.1 293.8 290.1 289.3 294.2 303.9 312.7 320.5 327.1 332.1 332.9 330.1 326.8 324.1 323.9 324.8 328.5 332.8
257.8 253.4 246.7 240.9 239.7 245.7 254.8 263.3 271.2 279.2 287.2 294.1 301 306.7 313.5 319.6 324.1 328.7 333.7 338.6 343.6 348.4 353.3 358.8 364.2 367 370.6 376.1 386.5 395.6 400.1 407.9 419.4 431 440.8 447.5 456.5 464.9 475.7 489.8 502.3 510.8 512.6 511.4 507.3 503.5 501.2 499.1 498 496.5 496.1 495.2 491.8 485.5 480.2 475.1 469.9 464.2 459.2 459.5 462.1 461 457.7 452.4 444 436.2 432 425.5 417.8 409.2 399.3 385.5 368.1 355.8 364.2 372.9 374.3 370.3 366.4 362.2 356.9 354.8 352.3 346.4 344 345.5 348.1 351.4 353.1 354.1 354.1 354 354 352 347.8 344.4 339.8 332.3 318.4 314.1 324.4 327.5 330.6 328.9 338.1 349.3 360.6 370.3 375.1 379.3 378.2 370.8 368.5 365.8 364 361.4 358.3 356 355 355.9 357.7 358.5 357.4 354.6 351.4 343.5 331.6 314.2 300.8 288.5 269.7 250.5 242 261.2 279.1 295.6 306.6 313.4 317.4 318.9 320.2 315.1 309.6 303.4 296 286.8 301.6 306.1 307.3 304.9 300.9 296.6 292.8 289.1 285.4 282.3 279.2 274.4 272.2 279.3 285.7 289 294.8 302.9 311.4 316.3 316.2 314.5 308.7 302.6 302.9 306.3 308 310.8 313.2 320.3 328.6 331.6 330.7 327.6 321.3 313.1 305 299.7 294.7 294.2 295.8 303 311.5 318.7 325.4 330.2 329.4 326.3 320.8 318.7 318.1 319.4 323.3 328.8
258.7 249.8 242 241.3 241.1 243.4 255.7 264.6 272.9 280.9 288.9 297.7 304.5 311.3 316.8 322.6 327.2 331.9 337 341.9 346.8 352.6 358.5 364.1 368 372 377 384 395.1 403.7 410.4 415.9 423.2 431.9 439.4 449.8 463.6 475 486.1 500.1 510.1 513.3 513.8 508.5 504.8 501.2 499 495.8 493.5 490 486.9 484.5 478 471.4 467 461.7 456.6 453.7 449.1 449.3 452.7 452.8 449.4 445.9 440.5 437.4 434.1 428.8 421.8 413.4 404.6 396.8 383.5 365.5 352.5 354.9 359.2 358.1 356.3 351.8 351 351.5 350.3 345.8 341.7 340.1 342.1 346.6 350.3 352.3 353 353 352.9 351.5 348.2 345.7 341.7 336.7 329.9 311.6 306.4 315.5 316.8 325.4 337.2 349.3 360.4 369.5 373.4 375.7 371.6 362.1 359.9 359.2 357.1 354.6 352.6 349.6 347.4 346.6 346.2 343.6 341.6 338.6 334.4 328.3 317.3 306.2 296.1 281.7 264.2 246.9 243.2 262.5 280.8 295.5 310.4 320.5 324.2 326.5 325.1 323.2 317.4 311.9 307 297.5 300.1 308.3 310.8 308.3 306.2 302.7 299 295.3 292.2 289.6 287.9 283.6 282.5 283.8 291.5 296.3 306.3 315.9 322.2 324.6 321.3 320.3 316.9 314 314.3 316.8 319.8 323.5 329.6 335 342.6 344.7 342.4 337.5 329.5 319.9 311.2 303.7 299.1 296.7 297.4 302.4 310.2 316.7 322.1 325.4 324.2 321 315.7 313.3 312.1 312.4 316 323.1
258 247.7 241.7 241.4 241.8 248 253.4 267.2 275.6 282.6 291.2 300.4 306.8 313.9 319.2 325.2 330.2 335.1 340.2 345.2 350.9 356.7 362.7 367.6 371.5 376.4 382.4 390 400.3 410.3 416.1 421.6 428.3 435.6 442.2 456.6 472.3 483.6 496.1 508.2 512.4 511.4 509.8 505.2 502.5 499.7 496.5 493.2 488.2 483.3 478.6 471.5 466.2 460.9 455.4 448.8 445.1 442.8 440.2 437.9 441.8 442.2 441.9 440.5 441.7 441.6 438.4 431.6 423.7 415 406.6 398.5 390.7 379.9 366.5 351.4 344.4 343.3 343 343 345.3 346.5 345.8 343.4 339.6 336.5 337 342.1 346.2 349.2 350.8 350.6 349.5 348.3 346.7 345.8 343.1 338.8 332.4 321.9 312.4 300 305.7 323.5 336.2 344.1 358.9 367.7 367.5 363.3 358.4 350.1 347.8 346.6 347 344.8 340.8 335.9 331 328.9 326.6 324 323.1 321.4 318.5 310.2 304.6 297.2 289 273.6 257.3 244.5 247 264.4 279.7 296.6 311.5 322.2 326.7 328.5 328.4 327.1 324.8 319.4 314.8 309.1 306.2 313 314 314.1 312.3 310 306.2 302.5 299.6 297.4 296.2 293.8 293.3 294.1 302.1 308.4 318.2 325.1 329 332 330.2 328.2 325.7 324.2 324.3 325.8 330.3 336.4 342.1 348.1 351.3 350.4 348.2 344.5 336.8 326.6 316.5 308 303 299.9 299 299.9 306 311.8 316.3 319.7 319.9 316.3 311.3 307.6 305 305.4 308.2 313.1
251.6 242.8 241.6 240.7 241.8 252.9 261.5 270.7 278 284.9 293.6 302.4 309.4 316.1 321.8 327.8 333.2 338.3 343.2 348.8 354.5 360.6 366.4 371.1 376.4 381 386.8 397.4 407.6 415.4 421.5 426.8 433.2 441 450.9 465.5 479.8 492.4 504.5 511.4 513 509.9 505.1 501.9 500.5 497.8 493.7 490.3 484.5 480.1 470.6 462.8 455 448.8 441.4 437.5 435 433.6 431.4 428.2 431.6 434 435.4 437.6 440.9 441.7 437.6 430.6 422.3 414 406.2 398.5 390.4 382.1 374.6 364.8 357.4 349.2 340.9 335.3 336.5 339.6 339.9 338.6 337.8 335.2 331.2 335.6 339.8 342.3 342.5 342.7 339.5 338.8 339.3 340.6 338.7 334.2 329.5 322.5 313.9 303.8 303.5 322.4 334.7 341.6 350.1 354.5 353 350.5 346 337.5 332.9 332.7 331.8 329.4 323.6 317.8 313.6 310.7 309.6 307.9 307.3 305.1 302.3 298.9 294.2 288 278.1 265.8 250.5 243.1 252 259.4 276.4 293.7 307.5 319.3 326.8 329.8 331.1 330.3 329 326.4 322.6 319.1 316.2 318.8 319.4 319.5 319.8 317.6 315.3 312.3 309.7 307.1 305.2 304.2 304.9 307.9 312.9 321.3 330.1 337.3 342.6 342.3 340.3 337.7 335.3 334.1 334.2 338.3 343.1 346.9 349.5 352.5 352.4 351.4 349.6 346.4 338.9 327.7 319.6 311.7 306.4 301.4 298.7 296.3 300.2 304.1 308 310.1 310.5 308.5 302.5 298.7 297.2 296.2 298.8 304.4
243.1 242.7 241.6 242.1 250.4 257.9 265.5 274.1 281.7 289.2 296.9 304.5 312 317.9 324 330.5 335.7 340.3 345.9 352.1 357.2 363.9 370.1 375 381.9 385.7 393.8 404.8 412.7 419.7 426.7 433 443.9 453.3 464.9 478.3 489.7 500.6 509.2 513.2 511.3 506 502 499.7 498.3 495.9 491.8 487.6 482.5 476 466.3 456.6 447.6 437.9 431.1 427.4 425.2 423.2 422.7 421.2 424.2 427.6 430.7 433.7 438 436.7 432.3 426.4 418.9 411.5 404 396.6 389.5 381.4 374.6 367.6 358.4 352.7 347.2 341.8 335.9 332 331.4 331.2 330.8 330.8 328.2 323.4 328.2 329.1 325.9 321 318.6 318.3 321.7 326.2 328.2 326.5 322.7 318.3 312.6 304 296.6 317.8 329 335.5 341.9 342.5 339.6 337.5 331.8 324.7 317.8 317.5 317.3 313.3 309 303.8 299.7 297.3 295.6 293.6 292.6 289.4 288.4 284.5 280.2 273.8 264.8 251.5 245.7 259.7 267.3 269.1 270.7 286.2 301.6 315 326.7 331.4 332.2 333.5 332.2 330.6 328.8 326 324.1 324.3 325.4 326.7 326.6 326.4 325.2 323.3 321.3 319.4 318.2 317.4 319.7 320.8 324.4 333.8 342.2 350 353 351.2 348.5 344.9 343 341.7 342.6 344.2 346.8 348.4 350.4 350.9 350.8 349.1 345.8 342 335.5 327.4 320.6 313.8 307.1 301.8 296.8 293 292.6 295.8 297.1 299.5 301.3 299.9 295.1 289 284.4 283.4 287.7 295.4
242.9 242.2 242.5 247.5 254 261.4 269.9 276.7 284.6 292.1 299.6 307 313.8 320.3 327.8 333.1 338.4 342.8 349 355.1 360.3 367.2 373.8 379.4 385.2 391.4 401.5 411.1 417.4 424.5 435.5 446.2 458.9 467.5 479 489.9 500.6 507.8 511.6 511.8 506.9 502.1 499.1 497.5 496.1 493.9 490.2 486.5 481.2 472.8 464.5 455.8 446.9 437.4 430.1 423.6 417.8 415.5 414.1 413.5 418.1 422.9 426.4 429.6 431.3 430.6 427.1 420.9 413.2 405.8 399.9 394 387.4 379.7 372.3 366.2 359.3 353.8 349.6 344.8 339.1 335.4 326.4 325 325.7 326.7 323.5 317.1 314.7 312 312.6 315.1 307.7 305 304.9 301.1 301.8 311.2 311.1 309.2 307.1 301.3 290.4 309.3 320.3 326.1 329.7 330.8 328.7 324.5 319.5 313.3 305 302.1 302.4 299.1 294.1 288.7 283.7 283.4 280.2 276.9 274.1 271.7 269 266.5 262.2 256.2 247.8 246.2 260.1 268.6 274 280 281.4 280.4 298.4 312.6 324.6 329.5 333.4 336.4 336.3 335.6 333.5 331 331.1 330.2 329.9 331.9 332.7 334.9 335.3 334.7 332.8 330.9 330 331.8 336.6 340.7 341.9 348.6 355.3 360.8 361.4 358 352.8 348 346 343.5 343.6 344.6 345.8 346.3 346.3 346.5 344.9 343.3 339.7 334.4 330.6 327 321.4 314.9 308.1 301.5 293.3 287.8 284.9 285.7 287.3 289.9 291 289.6 284.7 276.6 272.4 274.8 280 287.5
241.8 242.5 243.5 250.9 257.7 265.5 272.8 279.1 287.1 295 301.8 308.5 315.6 322.3 328.9 335.1 339.5 346.3 352.5 357.5 363.3 370.7 377.4 383.5 390.3 399.1 409.4 415.3 422.1 429.9 444.3 460.7 469.3 479.8 491.1 501.3 508.8 513 514.1 510.7 505.9 501.5 498.7 495.9 493.6 491.7 489.2 484.8 479.2 471.5 463.3 454.5 446.9 438.4 430.8 423.5 417.6 412.8 409.4 407.8 412.7 417.6 421.9 424 425.7 424.7 420.1 413.6 407.3 400.9 395.6 390 383.6 376.7 370 363.4 358.9 354.2 349.4 345.6 341.4 337.5 331.4 326.6 319.6 318.5 316.6 321.7 323.4 325.7 330.1 331.1 329.8 325.5 317.2 313.6 304.7 295.6 293.9 292.3 290.9 289.6 288.2 299.6 309.5 315.3 319.1 320 317.3 311.9 307.1 300.5 292.5 288.4 287.1 282.3 276.5 272.3 267.5 264.4 259 256.9 256.4 255.3 253.1 252 250.7 250.1 252.9 260.9 271.8 278.2 285.1 292.8 294.5 288.7 295.9 312 323.9 331.1 336 339.7 340.4 340.7 340.3 339.8 338.4 337 336.8 338.2 340.8 343.4 344.7 344 341.5 339.6 339.6 341.9 345.5 353.2 358.7 363.1 365.8 369.2 366.3 362.9 355 348.6 344.9 342.2 341.7 341.6 341.7 340.5 339.2 337.7 335.1 332 328.8 327.8 326.2 324.9 320.3 314.5 306.8 299.6 290.1 283.1 276.6 277.2 277.9 280.2 279.8 278.2 274.7 268.8 264.1 267.4 272.6 280.1
244 243.5 249.2 254.9 261.6 267.7 274.2 281.7 288.4 295.4 303.4 310.4 317.2 323.6 330.2 337.2 342.6 348.9 355.2 362.7 367 374.3 381 388.5 399.5 409.4 414.3 419.4 425.1 438.7 457.6 468.8 481 492 504.1 511.4 515.7 516.1 512.8 509 505.4 501.3 497.5 493.8 490 488.3 485.9 481.7 475.9 468.7 461.1 454 445.9 438.1 430.8 423.5 417.6 412.9 407.9 402.6 408.5 415.3 419.1 421.1 419.3 416.6 410.8 406.2 401.3 395.4 390 385.5 379.3 372.7 367.3 362.6 358.1 353.7 350.1 346.9 342.8 337.3 328.6 323.9 329.5 332.6 333.8 334.1 335.7 339.6 341.3 342 339 333.1 324.3 319 317 311.2 306.4 300.4 303.9 299.2 286.7 285.5 297.7 303.9 308.2 309 305.3 299.9 295 288.5 281.3 273.9 266.9 264.3 263.4 261.7 261 262.3 263 265 266.7 265 264.5 265.2 263.4 261.6 261.4 269.3 282.7 290.8 298.5 305.2 305.7 300.3 293.2 306.7 322.9 332.4 339 343.7 346.5 348.2 348.3 347.5 345.6 345.4 347.2 349.1 349.3 351.7 353.1 352.3 349.2 347 347.4 349 353.1 359.4 364.2 367.6 371.1 374.4 370.6 364 355 348.9 344 340.1 336.9 335.1 332.7 330.9 329.3 326.4 323.2 321.1 319.6 318.5 319.3 318.9 316 311 304.4 294.9 287.2 276.2 269.6 267.4 268.2 270.3 270.1 268.6 265.8 258.8 255.8 259.9 265.3 274
244.6 247.8 253 258.8 266.8 271.8 278.5 284.9 290.3 296.4 303.2 310.2 318.6 326.3 332.9 340.2 346.9 351.5 357.9 365.3 373.7 380.4 387.6 395.8 406.6 413.5 418.3 423.1 429.3 448.5 464.2 477.6 491.2 503.9 514 519.1 520.7 519.6 514.4 509.5 505 500.6 495.1 491.3 487.7 483.3 480.3 475.8 470.6 465.3 459.1 452.3 445.1 437.5 430 423.1 417.7 412.8 407.7 402.4 402.6 409.7 413.7 413.9 409.8 406.8 403.5 399.5 395.2 389.5 384.5 379.6 375.1 370.1 365.3 360.4 356.6 354.2 349.5 340.3 329.4 327.6 331.7 341.2 345.8 347.7 347.7 347.7 347.2 347.6 348.2 348.1 343.9 338 330.8 323.8 320.6 320.4 317.5 314.5 312.7 308.8 299 289.6 282.4 291.9 295.4 296.5 291.3 286.3 279.9 273.1 269.4 267.6 267.4 270.5 278.3 278.4 277.2 276.8 278.2 281.5 282.7 282.2 282.4 281.2 278.9 276.4 275 277.3 290.9 301 308.1 312.3 313.8 312.9 307.8 309 324.9 334.3 342 347.5 351.6 354.2 356.1 355.8 356.4 356.9 358.2 360.1 359.4 360.3 360.4 358.8 355.2 351.3 351.1 352.2 355.6 362.3 368 371.5 375 376.6 372.5 363.3 354.5 348.8 342.4 336.9 330.5 326.1 323.1 320.7 317.6 313.9 311.4 309.5 309.3 309.3 310.6 310.1 308.6 305.4 301.6 294.1 284.9 273.1 262.9 258.7 258.3 260 260.5 259.6 255.9 250.9 249 252.7 258.3 265.8
248.2 252.4 257.1 264.2 270.3 276.2 281.6 287.1 293 300.1 307.5 314.5 319.2 328.8 336.3 343.8 349.2 354.7 362.2 371.2 377.7 384.5 391.2 400.7 410 417.1 422.2 427.2 436.2 454 471.6 485.3 500.9 513.8 520.5 524.4 523.1 520.6 516.7 509.9 505 500.5 494.4 488.2 482.8 476.9 473 468.8 465.7 461.3 455.5 449.7 442.7 436 429.3 423.1 417.2 411.6 406.8 401.1 396 403.5 406.8 405.1 402.2 400 396.3 392.7 388.2 384 379.6 374.3 369.2 366.5 362.3 358.1 354.7 343.2 332 339.1 339.7 344.3 350.3 354.9 357.4 358.5 356.9 356.5 355.6 354.7 353.9 352.7 348.8 342.8 336 331.4 328.4 326.7 324.1 321.4 317.6 313.8 308.4 297 281.3 279.7 278.7 277 272.3 273.2 272.7 277.4 280.2 281.4 282 286.8 292.5 294.3 291.8 291.7 294.7 297.9 299.7 301.3 301.5 300.8 297.7 296.6 293.9 289 296.8 308.6 315.5 319.9 321.5 322.6 323.3 322.4 328.8 337 344.7 352 356.7 360 361.6 364.6 367.7 369.4 370.1 371.2 369.9 368.1 365.2 361.8 357.5 353.6 351.8 351.9 354.8 361.8 368.7 374.3 378.1 380.2 375 366.9 356.3 347.7 340.9 334.8 325 317.2 313.2 307.7 303.8 299.2 295.6 294.6 294.9 296.6 297.2 299.8 302.2 301.8 298.2 292.3 283.2 272.6 262.3 251.5 249.9 249.7 249.7 249.2 246.7 243.2 239.5 243.9 249.8 256.4
252.5 256.6 260.7 267.7 272.8 278.2 283.7 289.9 296.2 303.8 311.2 318.6 325.7 331.6 339.2 345.4 351.4 359.3 367.3 374.5 381 387.2 396.5 405.4 412.8 419.3 425.1 431.9 445.2 461.9 476.6 493.6 508.5 518.7 523.5 525.4 523.8 520.9 517.5 512.9 507.8 501.6 494.1 486 475.5 465.2 462 459.4 458.9 456.7 452.2 446.5 440.2 433.6 427.2 421.8 416.6 410.9 406.7 401.5 395.1 392.9 397.3 396.5 394.9 392.8 390.4 388.5 384.2 379.6 372.3 355.8 349.6 349.3 355.2 349.8 337.5 345.5 345.7 347.4 354.3 360.4 361.7 364.4 365.2 365.4 364.7 364.5 362.3 360.5 358.6 355.8 351.6 346.5 340.7 335.5 331.9 329.6 326.1 323.5 318.8 315.7 311.7 305.9 295 280.7 283.5 284.9 284.3 288.9 290.8 295 293.8 294.6 294.7 297.5 303.7 304.6 305.5 308.4 313.7 317.9 318.9 320.3 320.9 320.3 316.7 314.7 311.2 304.1 300.9 314.1 322.1 327.7 330.2 331.4 332.6 331.8 335.1 340 348.1 355.1 361 364.7 368.4 372.9 376.7 378.2 378.6 377 374.3 370.5 366.5 362.4 357.5 352.7 350.1 349.9 352.1 359.2 368 375.3 378.6 378.5 375.6 368.8 356.6 346.4 338 329.7 319 305.9 297.1 289.8 286.5 284 284 283.4 284.1 286.6 289.2 291.7 294.7 294.6 293.1 288.3 281.3 269.9 260.5 249.8 239.8 239.8 241.1 240.2 238.1 234.5 231.4 236.7 241.8 247.4
255.7 258.7 264.9 271.1 275.9 280.7 286.7 293.2 299.5 307.4 314.9 321.8 328.6 335.1 341.4 348 356.1 366 372.7 378.4 384.2 391.2 399.3 407.4 414.3 421 428.5 439.2 450.1 465.5 481.6 500 512.4 520.8 524.4 524.6 523 521.1 517.8 514.7 510.2 504.3 494.9 483.7 473.5 456.2 449.3 447.2 449.6 448.8 446.2 442.1 437 431.4 425 420.1 415.2 410.5 406.4 401.8 397.8 392.3 388 390.3 389.6 389.1 387.2 385.6 381.4 365.8 356.9 373 370.2 356.9 340.6 348.3 352.4 352.9 354.6 360.8 366 369.8 371.7 372.3 373.3 372.4 371.8 369.2 365.4 363.8 361.4 358 353.5 348 341.6 336.6 330.7 326.8 321 319.1 316.4 313.2 310.8 303.8 289.1 289.9 297.8 299.5 299.7 301.8 304.4 303.4 303.5 306.3 308 310.9 312.6 313.7 316.2 323.9 334.7 335.5 337.2 337.1 335.9 334.6 332.3 328.2 321.9 314.3 306.6 319.4 328.4 333.4 336.5 338.4 338.2 338.6 340.9 345.4 351.2 357.5 365.6 369.9 374.8 379.2 382.7 382.9 381.7 380.3 375.4 369.3 364.8 359.8 354.5 349.7 346.8 346.7 349.4 356.7 364.2 370.1 374.5 375.2 373.1 367.8 354.9 344.6 335.9 325.6 312.5 297.5 279.4 272.8 271.7 271.8 271.5 272.6 272.7 275.6 279.5 283.6 286.4 285.8 283.9 279.5 274.2 266.2 257.8 245.4 235.1 229.2 232 232.2 230.2 226.8 224.4 230 234.6 238.3
257.8 261.9 268.1 273.3 278 283.2 289.6 296.2 302.7 311.1 318.5 325.1 331.5 338 344.7 352.8 363.3 371.9 376.7 381.9 387.4 393.7 401.4 409 416.1 423.5 432.9 444.2 455 470.8 489.5 505.6 515.9 520.1 523 523.3 521.8 520 518.1 515 511.6 506.3 494.8 483.2 472.4 454.8 442.2 435.8 437.3 438.3 436.8 433.8 430.6 427.1 421.9 417.5 413 409 405.2 401.2 397.5 393 388.6 380.7 385.9 383.9 383.2 371.3 375.3 382.5 381.3 378.9 374.4 369.3 366.7 364.6 362.5 362.7 367.2 371.7 376.6 379 380.7 380.6 380.3 379.6 378.2 374.1 369.5 366.8 362.1 358.4 353.4 346.4 335.1 330.4 322.2 313.8 308.4 305.1 299.8 297.2 295.9 291 297.9 307.4 311.5 311.9 311.4 311.2 312.5 312.3 314.5 316.2 320.8 322.6 326.5 329.2 336 343.4 352.9 353.8 353.8 351.3 348.8 346.3 341.6 339.6 333.5 327.5 320.4 325.5 335.3 339.6 342.8 343.1 343.3 344.1 346.8 352.3 357.5 363.1 368.9 373.6 376.6 380 382.1 382.8 383.2 380.1 373.8 367.5 362.2 356.9 351.6 346.4 343.5 340.5 344.7 350.4 357.3 363.3 368.6 371.2 369.3 363 353.1 343.3 333.1 319 304 291.6 275.8 259.7 257 257.4 259.2 260.9 260.8 263.1 266.2 269.4 271.5 270.7 270.1 266.8 262.9 258.2 248.3 239.5 232.4 225.2 223.4 224.9 224.8 223 217.3 222.8 226.5 229.8
259.7 263.4 269 274.3 279.9 286.2 292.6 299 305.5 314.1 322.5 328.7 334.4 340.9 349.1 360.3 372.2 376.7 380.6 384.9 391.3 396.8 403.4 412 420.4 428.8 438.8 450.5 461.9 481 497.7 509.2 515.2 517.7 520.6 521.2 520.3 518.8 517 515.1 512.7 506.1 492.4 481.9 470.9 453.5 442 432.5 427.1 426.6 427.1 425.7 423.1 420.6 417.5 413.9 410.1 406.4 403 399.4 395.6 392.1 388.5 384.5 378.1 375.9 378 386.2 386.9 386.1 385.1 383.4 381.7 379.5 377.3 374.8 373.3 374.6 378.3 381.7 383.3 385.2 385.6 385.3 384.7 383.9 380.9 376.2 372.5 366.8 360.7 355.1 345 332.8 322.7 317.5 315.1 319.6 319.5 318.7 313.5 308.4 305.3 310 313.5 323.3 328.5 327.1 322.5 322.4 325.3 328.8 332.6 336.2 338.8 340.7 345.2 350.4 359.2 362.2 363.9 365.2 364.4 361.8 357.9 353.8 351.3 347.7 345.5 341 336.2 337 342.9 347.2 346.3 348.2 349.1 352.4 354.6 356.3 359.9 365.3 369.3 372.7 375.3 377.9 380.5 380.4 377.7 373.1 369.1 364 359 353.8 348.6 343.4 338.4 333.5 334.4 341 348.3 355.5 361.6 364.8 363.2 356.4 347.6 338 325.2 310.7 295.9 282.6 269.7 258.4 246.9 242.5 245.3 246.4 245.7 247.4 250 252.6 253.6 254.4 253.1 251.4 247.9 243 238.7 233.9 228.6 222.4 216.4 219.7 219.8 217 210.6 215.5 219.6 223.1
261.1 265 270.1 275.9 282.9 289.2 294.7 301 307.6 318 325.2 331 337.4 344.6 355.3 368.6 376.9 380.4 383.9 388.8 395.3 400.8 407.7 417 426.9 436.3 446.8 456.5 472.8 490 502.1 509.1 515 517.3 518.5 518.2 517.3 516.2 514.7 513 509.7 501.9 490 480.2 469.9 455.9 443.3 433.3 424.5 416.3 416.1 416.9 415.1 413.6 412.3 409.5 407.4 403.9 400.4 397 393.5 390.3 387.1 383.5 378.4 380.6 386.1 388.3 388.8 389.3 390 390.3 389.1 388.1 386.9 386.2 385.8 384.6 387.3 389.5 389.9 390.6 389.6 388.2 387.2 384.2 381 376.6 371.2 366.7 357.1 344.8 332.6 330.4 331.2 333.3 336.2 337.4 336.6 334.3 327.2 318.3 315.1 326 334.9 343.3 344.2 341.1 338.1 340 344 345.5 348.4 351.1 354 357.5 360.8 365.5 368.9 371.4 372 374 372.1 368.4 366.3 362.5 360.4 357.2 353.6 350.5 349 349.2 349.5 351.4 354.7 356.3 359.2 359.6 358.5 359.2 360.2 362.6 362.8 365.3 367.5 367.8 369.7 370 367.3 366.1 364.3 360.8 355.8 350.6 345.2 340 334.9 328.8 323.8 331.7 338.9 346.1 351.4 354.5 353.1 347.8 339.7 328.6 315.8 301.7 286.8 274.8 264.4 253.5 245.9 237.5 234.2 233.4 232.4 232.9 234.8 236 237.9 239.4 237.8 235.4 234 232.6 229.3 225.7 223.1 219.7 208.7 212.9 214.7 211.2 205.3 209 212.3 215.4
261.4 266.2 271 278.1 284.8 290.5 296.3 303 311.8 320.1 326.8 334 342.4 351.7 362.9 373.9 379.3 383.1 388.2 393.6 400.1 405.6 413.7 424 433.3 443.3 452.4 465.5 482.6 495.5 503.7 508.7 511.7 515.3 515 514 513.4 511.6 509.5 508.9 503.1 496.2 487.9 478.2 468.5 458 444.7 434.6 424.9 416.5 408.6 406.3 406.9 406.9 405.6 405.2 404.8 401.7 398.7 395.7 391.7 388.4 385.3 382.5 377.9 380.6 385.5 388.7 391.9 393.4 394.2 395.6 395.9 395.5 395.8 394.7 394.3 393.5 395 395.5 396.1 395 392.1 389.8 386.9 382.8 378.3 373.7 368 360.2 347.2 335.9 337.4 340.1 343.8 349.2 352.9 353.7 350.1 345.6 337.6 325 329.6 343.7 351.9 355.1 355.2 353.7 353.8 355.7 357.3 359.3 360.8 363.3 364.8 367.8 371.3 375.8 378.2 380.8 382.9 380.7 377.1 373.8 372 369.4 366.7 363.6 360.4 357.5 357.6 355.8 358.8 361.3 362.8 366 365.7 362.4 359.3 357.4 356.2 353.8 353.1 353.3 355 356.8 358.7 359.9 359.7 359 358.3 356.9 352.4 347 341.6 335.6 329.9 324.1 318.9 320.6 328.3 333.7 338.2 340.3 339.8 335.9 329.4 318.9 306.4 292.5 279.8 269.1 258.3 249.4 242.7 235.9 225.4 224.2 221.9 220 218.4 219 218.8 223.5 224.6 223.8 223.4 221.4 220.4 219.1 218.8 215.9 209.2 204.1 208 204.9 199.1 202.3 206.4 208
262.4 266.9 272.4 279 285.5 291.4 298.4 307.3 315.4 322 328.6 337.2 347.8 355 367.6 376.2 381 385.4 392.2 397.7 403.7 410.4 420.5 429.6 439.8 449.6 459.5 473.8 488.8 498.7 504.2 507.2 508.7 511.4 512.1 510.3 509.1 506.3 503.9 501.5 496.7 490.2 483.7 475.8 466.4 456.9 446.5 435.5 425.1 417.1 409.9 401.6 398.8 400.2 401.1 402 402.2 400.8 397.8 393.6 390.5 386.9 384.6 382.2 377.8 376.7 383.6 387.6 391.2 395.5 399.4 401.1 401.8 402.9 403.6 403.1 401.9 400.5 400 400.2 399.7 396.8 392.6 387.8 384.4 380.3 375.7 369.4 361.1 349.9 338.8 344.8 350.1 355.8 360.3 363.3 364.7 362.9 358.9 355.3 348.7 331.7 343.9 355 361.1 363.4 364.5 363.5 365.6 368.2 369.8 371.3 373.2 375.1 377.9 379.3 381.3 383.9 385.8 388.4 387.4 385.3 381 377.7 374.6 371.9 369.6 367.8 366 363.7 362.5 361.3 362.8 364.6 366.3 367.9 366.5 362.2 358 352.8 350.4 347.3 345 343.3 344.2 345.9 347.7 349.1 350.3 351.5 350.8 349.9 346.9 342.2 336.7 329.5 323.9 318.8 310.7 307.4 313.8 321.8 326.4 328.8 328.3 324.4 317.2 308.3 296.4 282.5 271 261.1 252.2 245.3 238.6 230.7 222.5 220.4 219.4 219.6 221.4 219.2 219.2 211.9 209.6 208.6 208.7 210.7 212.7 212.8 212.8 209.8 205 197.9 196.6 194.7 193.7 194.7 199.5 200.5
262.3 267.3 273.2 279.2 285.9 293.6 301.2 310.9 317.6 324.2 331.9 340.9 350.9 358.8 369.8 376.5 382.7 387.9 396.2 401.5 407 415.7 426.4 436.2 444.9 454 466.1 480.5 492.9 499.1 502.2 503.5 505.5 506.8 507.6 506.3 502.8 500.2 497.6 493.6 488.5 483.4 477.7 471.2 462.3 453.5 445.3 434.4 425 416.6 410.7 404 398 394.1 397.5 399.2 398.8 397.5 395 393.4 388.9 387.5 385.1 382.7 377.9 375.2 381 387.2 393.7 399.1 402.9 405.9 407.6 408.8 408.8 408.1 407.9 406.1 404 402.8 400.1 396.7 391.4 385.8 381.1 376.7 370.1 360.3 351.8 347.6 353.4 359.1 362.2 366.4 370.5 372.7 372.3 370.7 366.2 363.4 359 342.1 358.3 365.1 369 370.3 371.5 373.8 376.9 380 381.1 382.9 384.3 383.8 384.4 387.1 388.7 390.9 393.4 391.8 390.3 386.8 382.5 379.2 376.1 373.7 372.1 369.7 367.5 365.6 365 364.2 365.9 367.5 368.2 367.5 365.5 359.9 354.2 348.5 344.3 340.8 337.3 335.3 334.3 334.6 334.9 336.4 337.1 339.7 340 339.7 338 334.8 329.3 322.9 317.5 312.3 304.1 297.1 304.4 310.8 314.4 315.7 314.1 309.9 303 295.3 284.1 273 262.8 254.9 247.2 241 232.4 223.8 224.5 232 235.9 237.4 236.9 235.5 230.8 225.5 220.8 214.7 210.4 207 207.6 202.9 201.2 200 204.5 202.6 201 199 195.1 191.2 189 193.7
265.2 268.4 273.8 279.4 287.4 295.5 304 312.6 319.4 326.6 334.6 345.6 354.5 361.9 370.8 377.6 385.6 394.2 403.2 406.7 411.5 420 431.6 440.4 448.6 458.6 472.8 485.1 493.2 497.6 499.4 500.3 501.3 502 502.5 500.5 495.3 492.9 489.2 486.2 481.3 476.3 471.6 466.2 458.1 449.4 443.1 434.2 424.9 416.1 410.2 404.9 399 391.5 391.5 395.8 395.4 394.1 392.6 391.2 389.8 388.3 385.9 382.9 377.8 374.8 380.4 388.6 395.5 401.9 406.2 409.2 411.9 413.7 413.7 413.1 411.2 408.6 406.2 404.1 400.7 396.8 391.1 382.7 375.8 368.8 362.4 357 356.3 357 363.5 366.8 371.4 376 378.5 379 378.4 377.3 373.6 370.9 367 362.4 367.1 370.4 375 376.7 378.6 382 386.4 388.8 388.8 391.8 393.7 394.8 395.4 394.8 393 394.7 394.4 392.8 390.3 386.6 382.2 378.7 375.8 373.2 372 370.1 368.2 366.6 365.4 364.3 365.2 365.5 366.1 364.2 359.8 352.5 346.9 341.2 335.1 327.2 325 321.7 320 320.2 319.7 321.8 323.5 325.3 326.6 326.4 325.6 323.2 319.1 315.1 310.8 306.3 300.2 285.3 292.7 298.5 301.5 302.1 300.8 296.9 290.3 282.9 273.6 264.7 257 249.9 244.3 232.9 226.7 234.1 240.2 245.3 246.9 249 247.3 246.5 242 236.8 231.8 224.9 221.3 219.9 218.8 217.8 217.9 217.6 217 211.9 208.8 205.7 201.6 197.8 194.4 191.5
270.7 271.7 273.2 279.7 287.5 295.8 304.7 314.3 321.2 329.5 339.1 349.7 355.9 363.6 372.4 381.4 394.5 404.5 409.3 412 416.4 426.6 439.1 445.8 453 463.5 476.2 486.3 491.2 494 496.1 496.4 498.5 499.3 498.6 495.2 491.1 487.8 483.5 478.4 474 469 466.1 460.9 453.6 446 440 431.7 424.3 415.6 409.7 402.5 396.7 390.6 386.2 390.7 392.1 391.3 392.3 391.5 391 389.2 386.7 382.8 378 373.7 381.1 389.4 397.8 405.1 409 412.5 414.6 415.8 416.4 415.2 413.5 411.7 409.3 406.5 402.8 397.9 393.3 385.8 376.7 368.6 364.4 362.3 362.6 363 367.7 374.2 379.2 381.5 383.2 384.2 384.4 383.3 380.2 377.4 374.5 372.8 372.7 375.6 378.7 380.9 383.3 386.4 391.5 393.7 395.9 399.5 400.4 399.5 399 397.9 397 395.5 393.5 392 389.2 384.4 379.9 376.7 373.7 371.8 369.7 367.5 365 363.2 361.4 359.5 358.4 357.9 356.1 352.8 348 342.1 336 329.6 321 315.7 308.7 306.2 305 304.5 304.4 307.2 310.1 312.2 312.4 313 312.9 311.4 309.3 306.3 302.4 299.2 294.1 285.1 278.2 288.1 290 289.2 286.9 283.6 277 269.5 262.6 254.9 250.8 244.9 234 233.4 242.1 249.8 257 261.1 261.6 262.7 261.4 259.1 254.3 249.6 244.7 239.6 235.8 230.9 230.3 232.2 232.8 231.1 227.8 220.4 214.6 211 207.7 202.3 198.8 192.9
274.4 275 275.1 280.5 287.4 296.1 304.5 314.2 322.7 332.4 343.5 350 356.1 363.3 374.3 388.4 401.8 409.1 413.5 417 421.7 436.5 446.8 453.2 459.4 468 476.5 483.6 486.6 489.1 492.3 493.5 496.5 496.6 495.5 492.4 488.2 483.4 479.3 473.6 466.3 461.8 458.6 454.6 448.3 441.7 435.4 428 420.6 413.8 406 398.5 393.3 387.9 382.9 383.3 386.5 389 391.3 392.1 392 390.3 387.3 383.1 377.4 373 381.1 391.6 400 408.1 413.1 416.1 417.2 418 417.3 416.5 414.9 413.6 411.6 408.8 405.6 401.2 396.3 389.1 381.8 375.6 372.3 369.8 369.1 370.7 375.6 380.3 383.1 386 388.9 390.9 390.7 388.9 385.6 383 380.3 379.2 378.8 378.8 381.7 384.2 387 389.9 392.9 395.9 397.8 400 400.2 399.3 398.9 398.3 396.3 394.2 391.9 389.2 386.1 382.1 377.4 374.1 370.8 368.5 365.9 362.9 360.2 357.4 355.4 352.6 349.7 345.7 342.9 341.1 336.4 330.4 324.5 317.8 311.3 302.1 298.5 294.3 291 290 292.2 293.2 295.9 299.2 300.6 300.5 300.4 300.7 299.2 296.6 294.5 291.7 287 281.6 269.6 275.6 277.6 276.4 273.1 265.8 261 253.7 245.4 241.4 238 233.9 243.9 252.8 260.9 267.3 270.9 273.1 277.9 278.2 277.4 276.1 269.7 262.7 257.9 252.9 248.8 245.1 244 245.2 246 243.3 236.9 226.3 217.3 214.3 211.1 203.9 195.6 185.2
278.6 279.4 279.7 279 287.1 294.9 305.3 315 325.1 333.3 342 349.7 356.3 364.5 378.4 395.6 406 412.1 418.8 422.5 431.1 443.2 451.4 457.8 464.3 469.8 475.3 479.9 481.9 485.2 488.3 490.5 492.9 495 492.8 489.6 485 479.7 474.6 467.8 460.6 455.1 450.6 446.7 442.8 437.4 431.2 424.8 417.4 411.3 404.4 395.2 389.1 384.6 379.4 379.3 382.8 387.6 390.1 392 391.7 389.5 386.2 381.2 373.5 371.4 382.1 392 401.7 410.1 415.9 419.6 419.3 418.1 417.1 416.6 416 414.8 413.3 411.2 407.7 403.3 399.1 395 388.2 382.5 379.6 377.1 375.8 377.7 380.7 384.5 387.9 391.4 395.5 397.9 397.9 393.9 389.7 387.3 384.8 383.2 382.2 381.8 383.3 384.5 385.7 386.6 388.6 392.1 393.9 396.4 398.4 396.8 396.1 394.2 392.5 390.4 387.9 385.7 382.5 378.7 375 371.4 368 364.6 361.7 357.6 353 347.4 342.2 338.8 335.9 332.9 331.2 328 326.7 320.8 313.6 305 298.8 295.5 293.7 290.9 288.2 285.9 283.7 281 283 287.1 288.5 288.2 289.5 290.7 289.2 287.8 286.4 284.7 279.6 274.6 267.6 260.1 265.4 262.2 252.3 245.4 242.8 241.6 242.9 241.1 244.3 251.1 259 266.9 273.7 278.1 283.8 289 294.6 296.2 297.6 296.7 289.2 280.1 272.4 266.7 262.8 260.4 261.1 259.6 256.6 251.6 242.8 228.8 217.2 211.7 204.9 197.3 189 186.3
283.6 284.4 285 285.3 285.9 296.9 305.9 318.6 329.4 334.5 340.7 349.8 357.4 367.5 381.9 397.5 408.6 415.2 421 427.7 436.5 447.1 455.7 463.4 467.4 471.2 474.1 476.6 478.6 482.6 484.7 488.1 491.1 492.8 490.1 486.3 481.7 475.9 469.3 462.1 454.9 449.5 444.4 440.3 436.4 433.1 428 422 414.6 408.4 402 394.1 388 382.7 377.7 375.4 379.2 384.4 388.7 389.7 389.3 386.7 383.3 377.5 368.6 376.4 386.6 395.5 403.6 411.9 418.2 419.9 419.1 417.3 414.9 413.7 413.7 414.3 413.8 412.1 409.9 406.1 402.2 398 394.9 390.1 386.1 383.9 382.4 383.6 385.9 387.9 390.7 394.9 399.2 400.8 398.8 395.8 392.7 390.3 387.9 386.2 384.7 382.9 381.2 380.6 381.6 381.5 382.9 384.8 386.6 388.6 389.3 389.6 389.5 389.2 388.3 386.3 384.2 383.3 380.5 376.7 372.8 368.2 364.3 357.5 352.4 347.1 340.9 334.3 328.5 325.9 322.8 320.7 321.6 318.3 313.5 306.4 306.7 310.2 311.8 311.9 308.4 304.9 301.5 297.9 294 288.5 283 276.3 274.3 276.7 278.5 279.4 279 277.9 275.7 271.9 268.3 264.1 260 256.4 251.2 250.1 252.5 253.5 252.6 252.7 253.6 256.2 260.2 265.4 271.6 279.3 286.3 296.7 304 308.6 310.6 312.3 309.7 303.5 292.6 281.5 276.8 274.1 269.9 266.3 264.4 258.5 249 238.2 229.2 218.3 212.9 206.5 200.2 192.2 187.5 191.2
288.7 289.7 290.7 291.7 291.6 286.9 307.7 322 329.7 336 344.2 351.4 360.3 371.6 387.8 398.5 408.4 416.3 426.1 433.4 441.3 453.6 462.8 467.9 468.5 469.8 470.6 473.1 476.1 477.7 482.1 486.2 489.1 490.3 486.7 482.5 478.1 471.4 465.6 458.3 451.6 445.1 438.7 434 430 427.6 422.8 417.3 411.7 404.9 399.4 392.8 387.8 381.6 377.8 374.5 373.6 379.3 383.6 385.5 385.2 383 378.3 369.9 369.7 382 392.3 400.7 408.2 414.5 418 418.5 416.7 413.4 411.9 410.9 411.7 412.5 412.6 412.1 410.1 406.9 403.7 400.5 398.1 395.4 392.9 390.9 389.3 389.1 389.7 390.3 392.4 395.9 399.1 399.9 398 395.7 393.3 390.9 386 384.6 383.3 380.8 377 376.5 375.6 375.6 377.4 378.3 380.1 382.8 384.9 386.3 386.6 386.6 385.8 384.5 383.3 381.4 378.6 374.7 371.2 365.5 356.1 347.1 341.4 336.1 334.3 334.5 333.3 330.2 328.2 324.4 318.8 317 319 322.2 325.2 325.7 325.6 325.5 322.5 319.6 315.7 311.1 306.5 301.4 294.4 287.7 279.6 275.6 271.4 268 265.5 263.8 261.9 260 257.8 255.8 260.4 262.5 264 264 262.9 262.7 262.9 265.7 267.2 269.6 272.2 275.7 279.9 290.1 302.9 313.3 318.6 321 318.8 314 305 294.5 285.2 277.4 270.1 264 259.7 255 248.5 237.7 226.4 220.3 216.8 213.3 209.2 203.1 195.1 189 187.3 205
294.8 297.5 298.4 299.1 302.7 298.8 300.3 318.6 330.8 338.7 348.8 354.3 363.1 375.7 387.2 397.2 407.5 419.5 430.2 440.4 449.2 459.2 466.2 468.6 467.8 467.1 467.4 469.1 471.8 474.4 478.6 483.3 485.8 485.7 482.2 478.3 473.5 467.9 461.8 455 448.3 441.8 435 430 425.8 422.7 417.9 412.3 407.2 401.8 395.4 389.9 383 378.4 375.6 373.7 369.7 372.5 377 380.3 380 379.5 374.7 365.3 371.9 385.1 396.1 403.6 410.5 416.1 417.1 415.1 412.5 409.3 406.7 405.8 407.7 408.6 410 410.3 408.4 406.1 403.4 401.8 399.6 398.1 397.6 396 394.4 393.4 392.5 394 394.6 395.5 398.4 398.2 397.3 395 391.1 388.9 383.6 381.2 377.1 373.4 370.8 369.6 369.7 370.5 371.6 372.9 374.9 378.1 380.6 383.2 383.4 384.6 385.1 384.3 383.2 381.1 377.4 372.9 367.6 361 355.4 351.7 345 343.2 345.9 345.3 344.7 343.4 341.2 338.9 333.3 334.9 335.7 339.4 340.1 339.6 339.1 338.4 337.3 333.5 329.6 324.2 318.3 312 305.3 297.9 289.9 284.4 278.9 278.6 278.2 276.9 276.2 275.7 274.2 275.8 277.8 277.1 276.3 275.5 273.7 274.6 275.9 276.3 276.3 278.4 280.7 285.4 293.5 305.6 316.5 320.8 322.9 320.7 312 300.9 290 279 268.2 259.7 250 243.9 238 232 224.9 217.5 214.4 211.2 209.3 207.2 204.9 198.9 190.5 186.1 194.9 218.1
302.2 303.5 306.1 308.6 311.2 310.3 309.7 310.9 330.4 339.4 347.5 355.3 365.7 378.4 386.2 397.5 409.6 423.1 435.5 445 455.1 461.4 465.4 465.1 464 462.2 463.8 466 468.6 471.2 475.2 479.1 480 479.4 476.8 473.2 469.3 464.2 458.3 451.7 445 438.5 433.4 428.4 423.3 418.5 412.8 408 400.1 394.4 390 386.2 383.6 380.5 379.9 377.9 373.2 366.9 368.2 373.1 375.4 375.1 372.8 362.8 371.4 385 396.2 404.4 411.3 415.5 413.3 410.9 407.5 403.1 399.8 399.9 401.2 403.9 405.3 405.9 405.2 404.4 402.9 401.2 401.4 400 399.7 399.3 398.2 397.2 396.6 396.9 397.7 398.6 398.4 397.3 396.6 393.3 389 384.5 379.4 373.9 370.5 366.9 364 362.6 362.4 363.6 365.7 367.4 370 373.2 377.6 380.6 382.5 384.5 385.9 385.3 384.1 382.1 379.7 375.9 371.5 366.9 363.2 357.7 352.1 350.2 353 354.9 354.9 354.1 353.8 353.9 350.2 349.2 351.9 353.6 355.5 355.7 355.5 354.2 351.9 348.2 344.2 338.4 333.4 325.3 316.4 309.1 301.3 293.6 289.3 289.5 290.2 293.7 295.6 295.2 294.9 295.4 295.6 292.7 290 287 285.8 284.5 283 282.4 284.3 286.3 290.5 296.9 308.5 318.4 321.2 319.7 311.4 301.5 291.1 278.7 267.6 256.6 246.4 239.5 232.9 226.6 221.3 214 208.8 206.2 203.1 199.4 196.1 192.6 192.6 189.8 188.9 193.3 209 233.6
308.4 311.9 313.7 315.2 317.1 319.7 320 313.7 322 333.7 343.6 352.3 367.7 377.9 387.6 398.9 413.1 426.2 437.3 447.2 454.2 458.7 461.2 460.4 458.1 457.3 458.8 460.9 465.1 467.8 471.2 473.3 474.1 473.5 471 467.4 463.8 460.2 454.3 447.7 441.3 436.7 432.2 427.3 422.4 417.4 411.1 405.9 400.3 397.2 395.6 395.5 394.3 394.3 392.2 388.2 381.6 374.2 363.9 364.3 369.9 372.6 370.9 362.1 370.7 384.3 395.1 403.3 408.5 409.7 408 404.9 400.7 395.6 389.4 390.9 395 398.7 400.3 401.9 400.4 401.7 401.2 402 402.6 401.9 401.6 401.4 400.8 399.5 399.3 399.9 400 400 400.1 397.7 397 392.8 388.1 379.8 370.6 363.5 360 355.7 351.1 350.8 353.1 354.4 357.6 358.4 363.7 368.7 375.6 380.2 383.8 386.1 387.5 388.5 387 385.1 382.7 380.1 376.8 373.8 369.5 364.2 358.2 357.6 360.3 363.5 366.8 369.4 371.3 371.7 370.8 371.1 371.3 370.4 371.8 372.5 370.5 370.9 369.5 365.2 361.1 356.6 350.5 341.2 331.8 322.5 314.2 303.6 302.6 303.1 307.5 311.4 313.2 312.3 310.6 310.1 310.3 308 304.8 301.3 297.9 296.1 292.7 291.7 293.3 297.2 302.3 308.5 315.6 317.4 306.7 296.1 286.2 273.7 260 251.5 242.5 233.8 227.7 221.5 216.7 211.6 207.6 202.4 198.5 196.4 195.7 194.3 193.4 191.3 189.3 192.4 195.6 208.9 230.1 254.4
316.6 318.7 319.9 320.7 323.7 326.4 328.4 329.2 317.1 326.3 339.7 350.4 364.7 374.2 389 401.7 414.1 428.1 437.7 444.7 450 452.4 453.8 451.9 450.1 450.6 452.8 457 461.5 464.3 466.8 468.3 469 467.9 465.3 461.5 457.5 453.9 448.5 442 437.1 433.3 428.8 424.7 420.5 416.4 411.8 407 404.6 404.4 406.1 406.6 405.8 403.4 400.4 394.3 387.8 380.8 372.5 361.3 363.1 369.1 369.5 362.2 369.6 383.4 393.8 401 404.9 404.8 401.5 398.4 393.9 387.9 375.8 381.5 389.8 393.7 395.4 397.1 397.7 397.4 398.9 401.2 403.5 403.8 403.1 402.4 401.9 401.6 401.5 401.4 401.1 402 401.7 399.4 396.9 393.6 389.6 384.1 376.7 366.7 355.7 349.1 342.5 338.8 342.4 344.4 345.1 351.4 360.1 367.2 373.4 380.3 383.8 387.6 389.1 392 391.8 391.1 389.3 386.7 383.8 380.6 377 372.5 366.2 370.5 374.2 378.3 382 384.6 387.4 386.8 384.9 384 387.3 388.8 391.8 391.2 388.7 388.7 387.3 384 379 375.1 368.2 359.4 348.7 338.2 328.4 322.7 321.8 324.1 327.3 326.1 325.9 327.3 326.2 323.7 322.7 320.4 315.6 310.3 306.2 303.5 301.7 301.5 303.3 306.5 310.5 313.6 304.2 291.4 279.3 269.1 258.1 242.1 229.6 216.2 208.6 201.9 203.2 199.7 199.2 196.8 195.2 199.9 198.8 198 192.7 195.6 197.9 201.1 207.7 214.8 222.8 234.9 253 271.7
322.9 323.7 324.6 327.7 330.4 332.9 335.3 336 335 328.9 330.5 347.3 357 368.5 381 399.8 412.4 425.5 433.4 438.1 441.7 443.9 441.9 440.6 445.5 446.6 450.4 454.8 458.8 461.8 463.4 463 463.7 461.9 459.3 456.2 451.9 447.7 442.7 437.3 432.9 429.2 425.3 421.3 417.8 415.2 413.3 411.9 413.3 414.5 415.7 415.6 414.4 411.7 407.3 401.6 394.2 385.9 377.2 368.5 358.9 365.1 367 360.6 368.3 381.9 391.3 398.4 400.4 399.1 395.5 391.8 385.2 377.7 366.7 374.9 384.6 390.8 391.6 392.5 391.8 392.9 395.4 399.1 402.2 403.6 404.2 403.4 402.8 401.8 402.4 402.2 403 403.7 403.4 401.5 400 396.9 392.6 387.8 380.5 371.8 363.1 354.5 347.1 340.4 332 337.1 344.2 351.8 358.4 364.2 370.7 378.2 383.9 388.1 392 395.4 400.6 400.3 397.2 393.8 391.5 389.5 386.4 383.2 381.9 385.3 388.5 391.8 394.8 397.5 400.4 400.7 401.2 400.5 405.6 412.1 413.7 412.8 412.2 410.2 408.8 405.7 400.6 394.2 384.2 374.1 362 352 343.9 339 338.9 340.4 341.8 342.6 342.7 341 339.3 335.2 330.4 324.3 317.5 311.5 306.7 304.1 302.9 304.1 307.6 309.8 302.5 289.9 276.1 268.7 255.7 240.3 227.5 216 203.8 202.5 200.9 201.9 204.7 207.8 207.4 207.4 207.5 207.3 207.8 208.1 208.4 208.7 214.5 223.9 234.6 245.1 252.2 262.3 277.3 292.7
327.2 328.6 330.3 333 334.9 338.5 341.1 344.7 345.6 345.5 329.8 337.7 350.6 362.2 375.7 393.6 408.4 419.3 427.1 429.6 432.7 433.5 433.1 435.1 439.8 444.4 448.5 452.5 456.4 459.9 460.8 460.1 458.6 455.9 453.3 450.7 446.7 442.5 437.9 432.6 428.8 425.3 421.8 419.7 417.3 415.4 415.2 417.6 420.6 422.8 423.4 423.3 422.1 418.6 413.9 407 400.1 390.8 381.9 373.3 363 357.6 361.1 355.8 365.4 377.7 388.5 394.4 395.4 393.1 389.4 384.8 378.1 370.3 359.7 370.2 379.2 385.1 386.6 386.4 385.9 388.6 391.7 395.9 399.2 402 403.2 402.8 402.6 402.4 402.9 403.4 404.2 406 406.3 405.2 403.5 400 395.6 390.9 383.4 376 367.6 358.4 350.5 343.3 332.9 331.3 341.1 347.6 354.2 360.6 367.6 374.4 381.8 388 393.4 401.1 405.6 406.5 404.8 402.9 401.8 399.1 396.8 394.6 392.2 391.3 393.2 398.5 403.1 410.2 414 417.8 421.1 423.9 427.6 427.8 425.7 423.2 422 423.2 425.6 425 420.4 410.8 400.5 387.4 373.7 362.1 356.3 351.4 350.2 351.3 351.8 351.9 351.6 350.2 347.6 339.6 331.9 325.2 315.4 306.4 298.7 295.6 292.9 291.1 296.4 293.4 284.1 270.4 256.7 243.6 229.5 215.6 206.2 204.5 199.9 205.4 209.1 212.9 214.2 215.7 213.8 214.1 214.3 215.6 214.2 215.1 217.1 221.1 230.4 239.2 256.5 269.5 283.3 290.6 300.3 314.5
333 336.1 336.5 337.8 340.6 343.8 348.5 350.8 352.4 352.7 354.9 338.3 340 355.4 368.5 383.9 398.2 408.6 413.7 417.6 421.4 422.6 425 432.2 438.6 443.7 447.7 452.4 455.9 458.2 457.7 455 452.8 449.9 447.3 444.7 441.5 438.2 433.5 429.1 425.8 422.4 420.4 418.8 418.8 417.2 418.3 423.5 427.3 429.8 430.4 429.8 428.6 424.5 419.6 412.8 404.9 397.6 388.1 379.4 369.4 358.7 353 350.9 357.7 370.4 378.5 384.9 387.1 385.7 381.9 377.4 371.8 364.4 354.9 365.8 373.2 377.6 379 378.6 377.9 381.1 385.5 391.5 396.9 399.5 401.2 401.6 401.6 402.2 402.7 403.3 405.6 407.8 408.9 408.5 406.8 403.2 398.5 393.8 386.4 379.1 371.7 362.5 354.7 345 334 324 333.6 342.7 349.5 355.8 362.8 369.8 378.4 385.1 393.3 402.4 408.5 410.2 410.4 409.7 408.6 407.1 406.2 403.4 402.4 404 411.5 417.5 425.1 429.7 433.3 435.3 437.4 439.3 438.1 434.3 429.6 424.2 422.4 426.5 429.6 432.6 431.8 423.2 411 395.8 381.4 368.6 364.5 360.9 359.6 359.8 358.6 358.3 356.8 353.9 348.1 340 328.9 317.9 306.5 295 287 280.5 277.7 279.2 279.9 271.6 258 247.1 234.5 223.2 208 205.4 205.5 203.3 208.6 212.2 215.7 219.3 219.6 220.6 221.3 221.6 221.7 225.5 232 235.5 232.6 235.5 243.1 258.1 277.3 290.7 304.2 317.7 330 342.6
340.8 343.9 345.3 347.3 348.7 350.5 353.7 356.2 358.3 364 362.2 352.6 341.2 349.2 362 377.3 387.7 396.4 401 404.5 406.7 414.3 425.5 431.3 436.5 441.6 446.8 451.9 455.4 456.7 455 451.5 447.5 445.7 443.2 440.4 437.1 433.6 431 426.6 423.3 420.2 419.9 419.5 419.1 419.1 423 427.6 431 433.4 433.7 433.4 431.3 428.9 424.3 417.9 411.7 404.3 396.6 387.6 379.7 374.3 368.1 361.8 347.8 359.7 367.7 373.3 376.2 377.2 373.9 369 363.9 356.1 350.5 357.9 366.5 369.3 370 370 370.2 372.3 377.9 385.1 391 394.8 397.6 399 400 400.5 401.1 403.1 405.3 407.5 410 410.5 410.5 409.7 405.1 400.1 391.6 383.1 375.3 366.4 357.3 347.5 336.2 323.9 326.8 334.6 342.8 349.6 357.3 364.9 374 382.7 392.3 402.2 408.4 412.7 414.8 414.6 413.2 412.4 411 411.8 414 422.2 428.4 434.8 436.9 438 439.5 440.6 440.6 440.1 436.8 432.2 422.6 418 415.8 420.3 424.7 427.1 428.3 422.5 411.9 396.6 384.1 374.8 369.9 368.2 366.9 365.7 364.6 363 359.7 354.6 347.4 336.7 324.5 310 294.4 281.3 268.8 260.1 256.7 259.7 259.3 252.3 240.4 230.3 221.1 206.3 207.5 207.2 206.5 212.6 215.9 219.3 223 226.3 227.1 229.5 231.3 232.4 238.6 243.8 250.1 249.8 246.4 249.8 258.4 265 289.9 306.6 324 340.5 352.7 363.7
351.5 355.4 356.3 354.4 355.3 357.2 358.7 361.2 366.3 367.5 365.4 360.9 355.6 346.8 356.2 368.3 378.5 384.6 389.6 399 410 417.7 424.9 430.7 435.9 441 446.2 451.1 454.5 454.6 451.3 447.1 443.9 441.5 439.2 436.4 433.4 430.5 427.3 424.2 423 421.6 418.8 419 418.7 418.4 424.7 430.1 433.6 435.1 436.2 436.3 434.9 431.8 428.5 423.6 417.6 411.5 404.1 397.2 389.9 384.6 377.9 369 356.8 346.6 354.1 361.2 363.6 364.6 362 357.8 353.5 347.5 343.7 350.8 356.7 360.2 360.7 360.3 359.3 361.6 368.6 376.9 384.9 390.5 393.3 395.2 397.5 398.8 400 400.6 402.9 405.9 409.2 412.4 414.7 415.9 413.4 407.6 397.9 388.8 379.7 371 360 350 338.4 326.4 319.8 326.8 335.1 344 351.1 359.3 368.6 377.8 388.9 399 408.2 415.3 418 418.2 417.5 415.2 414 416.5 420 430.1 435.9 437.4 436.3 436.6 436.4 436.8 437 436.5 431.7 422.5 413.3 404.6 400.8 403.3 408.2 412.8 416.3 412.8 404.1 390.2 381 375.9 374.1 372.5 371 369.5 368.2 366.7 363.8 355.2 344.8 333.2 317.1 297.8 278.1 263.6 252.6 244.7 241.1 237.5 236.5 233.4 228.2 219.7 207.3 208.7 209 208.7 217 221.2 223.4 228.5 232.6 236 238.8 240.7 248.4 253.2 255.2 259.8 261.2 261.1 258.8 261.8 272.8 284.7 297.1 316.8 338.9 357.4 372.2 385.5
360.2 361.8 364.1 363.5 363.1 365.5 367.3 367.9 371.2 370.7 368.9 368.7 366.9 359.2 358.3 368.2 377.4 384.5 393.5 403 411.4 418.4 425 430.1 435.3 440.5 445.7 449.7 451.3 449.6 446.2 442.4 440.5 437.8 435.3 432.3 429.5 427.7 425.2 423.9 423 421 418.6 417.2 416.7 418.1 425.1 429.4 433.2 435.2 437.4 437.4 435.6 433.8 429.6 427.1 423.2 417.7 412.2 405.9 399.5 393.6 385.3 377.3 367.7 355.1 344.5 344.5 348.4 349.8 350.9 348.6 345.4 340.9 339.1 342.9 347.6 350.9 351 349.6 348.6 351.6 359.8 367.5 375.7 383.4 390.2 393.4 395.9 397 398.2 398.4 399.8 402.1 406 410.6 416.1 418.6 417.6 414.8 403.5 394.7 385.2 375.7 364.3 353.8 341.1 328.7 317.9 319.5 328.6 337.2 344.4 353.8 362.5 372.5 383.7 395.4 405.3 414.6 417.8 418.8 419.1 417 415.3 417.1 420.7 428.7 431.4 430.1 428.3 425.7 426.2 426.7 428.6 426 418.8 409.1 399.8 389.3 378.7 383 389.2 394.1 397.6 397.5 391.5 383.1 379.7 376.3 374.9 373.7 373.4 372.8 371.3 369.4 366 356.2 343 329.5 310.7 289 269.7 262.6 261.9 258.8 251.2 242.1 231.9 225.5 218.5 208.6 209.8 210.5 216.2 220.8 225.1 230.2 234.1 238 242.3 248 252.8 258.5 263.5 267.3 269.9 273.7 277.3 276.9 275.3 277.8 291.3 301.2 313.5 331.2 350.5 370.5 386.3 398.6
369.9 372.2 371.8 372.1 374 377.6 377.3 376.9 377.6 376.5 376.6 377.2 376.2 370.2 358.4 371.6 381.7 387.7 395.5 403.4 411.7 419.5 425.3 430.1 434.2 439.4 443.5 446.3 445.2 443.2 440.6 438.3 436.9 434.4 432.2 429.6 428.1 426.2 424.5 423.8 421.4 420.5 417.8 415.7 414.6 415.3 423.2 427.5 431.9 435.3 437 437.1 435.8 434.4 431.9 429.3 425.5 422.5 418.4 413.4 407.5 401 391.9 383.5 375 365.5 354.5 340.7 339.8 337 340.1 340.1 338.3 335.6 335.1 336.7 340 342 341.3 340 339.3 343.2 351.1 360.1 370.2 380.4 385.7 388.6 390.3 391.3 391.1 392.4 394.4 397.4 402 406 412.1 418.4 418.7 415.9 408.5 399.3 391.4 381.5 368.6 357.6 345.1 331.7 319.7 314.5 321.3 330 337.6 346.3 355.1 365.5 377.3 390 401.1 410.2 415.5 418.4 419.3 416 414.7 415.7 419.8 422.6 421.4 420.3 418.2 416.1 414 414.3 413.6 412.8 407.6 398.3 385.8 372.8 355.5 360.3 370.4 373.4 376.7 378.7 378.5 378.3 376.9 374.8 372.4 371.9 372.8 373.3 371.9 370.3 367.5 354.9 341.5 327.7 308.4 289.7 277.8 276.1 274.1 263.4 255.3 242 231.5 225.2 217 210.5 210.5 219.9 225.2 229.5 233 238.1 243.5 249.2 253.9 260.3 265.8 272.5 278.2 283.7 287.6 291 294.1 292.9 291 294.5 305.2 317 331 346 363.8 379.9 394 410.2
377.7 379 381.3 383.2 387.8 390.6 387.3 385.6 386.2 389.1 392.4 390.9 384.9 377.2 365.3 373.4 383.6 392 396.4 402 412.2 420.6 425.5 429.8 433.6 437.1 439.4 440.3 439.1 437.1 435.3 434.7 433.5 431.1 428.9 428.3 426.9 425.1 423.7 423 421.6 421.3 418.8 417.3 414.7 413.1 421.4 425.9 429.8 433.1 434.8 435.3 434.9 433.2 431.3 429.7 427.1 425.6 423.6 420.9 418.1 412.3 403.7 391.4 381.7 371.8 361.8 352.6 345.1 340.6 333.4 333 331.5 332 331.5 331.3 333.5 333.9 333.9 333.4 333.2 338.1 346.8 357.4 364.5 372.5 378.1 381.7 383.3 382.9 381.9 383.6 386.5 389.9 393.6 398.2 404.9 411.4 416.8 418.7 415.5 407.2 398.9 388.3 375.5 363.4 350 335.1 321.5 311.6 314.3 323.4 330.2 337.9 346.6 357.2 368.9 382.5 393.3 404.2 411.4 417 416.1 412.4 412.1 412.3 413.3 413 411.2 409.9 407.5 405.2 403 401.3 400.7 399.6 395.1 385 372.2 357.2 334.9 342.4 353.8 357.5 363.5 367.6 372.2 372.6 372.8 369.7 366.8 367.6 368.5 372 370.8 368.1 363.8 353.7 339.5 327.2 313.2 300.7 290.7 288.9 281.4 268.7 255.5 240.9 230.6 222.9 215 212.9 219.6 226.5 231.6 236.3 241.5 247.1 255.7 258.4 268.1 274.1 280 287.6 294.8 301.9 307 310.3 312.6 310.9 309.2 310.2 320.9 334.2 347.8 361.5 374.5 387.8 402.7 417.4
384.5 386.6 390.6 396.2 400.3 398.6 395.1 394.8 399 402.8 401.6 396.5 390.2 382.6 373.9 369.6 384.4 391.9 395.4 403.1 411.8 420.6 424.6 427 430.5 433.3 433.3 433.5 433.8 432.5 430.8 430.9 429.7 428.6 427.8 426.2 425.5 425.6 426.1 424.9 424 422.5 421.1 419.7 416.3 408.6 416.9 422.6 426.3 429.6 431.6 431.9 431.6 430.2 429.1 428 428.8 427.3 427.6 425.7 422.1 416.4 408.3 394.5 383.8 373.5 363.2 355 348 342.5 338.5 333.7 328.5 328.5 328.6 327.3 327.2 327.4 327.4 327.4 328.3 333.1 340.1 347.6 355.6 363.1 368 371.2 374 373.6 372.7 373.4 373.5 375.9 380.5 388.8 394.1 402.5 411 419.6 418.3 414.4 405.9 394.9 382.7 369.4 355.2 338.8 323.8 313.1 308.4 314.8 323.3 330.9 338.3 348.8 361.7 373.7 384.4 394.3 403.3 406.8 407.9 403.2 405.4 406.4 405.6 405 403.3 400.6 398 395.9 392.5 389.5 388.5 386.7 381.2 372.5 361.5 345.3 322.2 325.2 336.7 345.6 352.1 359 364.6 367 365.5 362.3 359.6 360.1 362 366 367.5 363.9 358.9 350.7 338.5 327.7 316.5 308.6 301.8 294.8 285.1 270.5 253.5 239.2 227.7 215.4 213.1 216.6 225.6 232.7 239.8 246.7 252.6 260.7 265.2 273.6 281.8 288.1 295 302.8 310 317.2 324 329.4 331.9 329.7 327 330.1 340 353.6 365.2 377.8 387 397.7 410.3 423.1
391 395 402.5 407.9 409.3 405.5 405.2 405.7 409.7 409.8 407.5 401.3 393.7 386 378.7 370.8 383.2 387.7 389.9 399.7 407.7 415.2 419.1 416.4 418 420.4 423.6 425.4 427.9 428.8 429.2 429.5 430.2 431.2 430.4 428.6 428.6 429.2 428.7 427.9 426.7 425 423.7 420.8 418 412.2 408.6 416.5 422 425.7 426.9 427.5 428.3 427.4 427.7 426.9 428 428.5 428 425.6 422 416.2 407.6 395.8 382.8 370.6 361.6 353.7 346.7 342.7 339.3 336.5 334.3 331.9 324.4 323.6 322 322.3 323.1 322.7 323.7 326.4 329.3 335.6 341.7 348.9 354.5 357.9 359.7 361.3 361.2 361.1 361.9 364.8 369.1 376.8 384 393.6 405 415.7 418.2 415.3 408.2 398.9 388.7 376.9 361 344 327.9 315.3 306.2 308 315.3 323.2 332.1 340.7 352.9 363.7 374.5 384.1 390.5 395 395.6 395.8 398.1 399 398.2 396.9 395.9 393.7 390 386.3 379.8 377.1 375.6 372.4 367.4 362.4 351.9 337.7 319.9 306.7 321.8 330.7 338.7 346.8 352.4 353.8 352 350 347.2 346.8 351.7 354.5 357.4 356.3 352.7 345.2 335.2 328.6 321.2 316.2 309.2 298.9 288.3 273 251.2 235 222.4 214.5 215.6 222.5 234.2 249.6 258.8 264.9 270.1 276.7 286.3 292.8 297.7 305.2 312 319.4 327 334.3 342.2 349.4 353 350.7 349.7 352.3 361.4 370.8 382.6 393.4 401.4 410 419.2 427.6
398.2 405.3 413 415.4 414.3 415 417.7 417.1 418.4 417.9 412.2 405.6 396.8 387.8 382 376.9 380.6 386.6 390.5 398.1 407.6 411.8 421.1 425.5 430.2 433.2 434.6 431.7 434.6 435.5 436.7 436.9 434.8 435.2 433.6 432.1 432.7 432.1 431.6 430.9 429.3 427.6 425.8 422.9 420 415.2 404.8 411.6 417.5 421.4 422.5 423.9 424.9 424.5 425.2 426.5 428.8 430.7 430.5 427 424.2 416.9 405.6 394.1 378.2 364.4 356.1 349.3 344.7 340.7 338.7 336.8 333.9 330.2 323.6 322.9 317.9 316.5 316.7 317.4 317.5 317.1 316.2 322.9 329.3 332.8 337.7 341 343.7 344.8 346.7 347.2 348.7 350.7 357.6 364.8 375.1 386.3 397.4 406.5 412.8 414.7 409.6 402.6 394.3 382.9 366.9 349.2 332.3 318.1 308.1 303 307.2 315.6 325.6 335.2 344.2 353.8 364.1 373.8 379.4 383 386 388.8 390.8 391.9 392 390.6 388.1 384.5 379 371.6 363.3 362.9 363.5 362 358.3 353.5 341.7 334.1 323.2 304.6 305.2 314.5 327 332 338.6 338.2 337.9 335.7 333.6 331.8 335.6 339 341.8 342.1 339 334.6 332.3 329.7 324 320.5 314.4 303.2 290.7 274.4 253.3 232.9 218.6 214.8 215.6 234.3 252.8 266.1 275.5 279.9 293.8 302.7 305.5 309.4 316 324.1 331.4 338.5 347.4 355.3 363.5 371.1 373.8 373.2 372 371.5 379.5 387.5 396.9 405 412.4 420.1 424.8 428.8
408.5 415.8 419 420.3 422.4 428.7 429.4 430.3 428.7 423.9 417.5 410.9 397.4 388.9 383.7 379.8 382.2 390.8 397.5 404.6 413.8 421.6 428.1 433.1 435.9 438.6 438.8 439.1 439.6 440.1 440.7 440.7 440.4 438.8 436.5 435.6 435.9 435.2 434.1 432.8 431.1 429.4 427.3 424.3 420 415.5 407.5 401.7 412.3 416.7 419 420.3 421.4 421.4 422.9 424.7 427.7 430.3 430.8 427.9 425.2 417.6 403.4 383.9 365 355 350.7 346.2 342.1 339.1 336.3 332.2 328.9 327.7 326 327 327.8 322.7 318.8 317.3 320.7 319.3 314.4 314.4 312.9 313.3 321.2 323.5 326.7 330.5 332.6 333.7 335.6 339.4 345.2 353.3 361.7 375 388.4 397 405.1 409.4 409.6 404.3 397.5 387.8 371.4 354.5 338.4 322.1 311.2 302.2 302 307.9 318.2 328.2 337.4 345.2 351.7 358.3 364 366.6 372.5 376.5 380.3 383.2 382.9 381.4 378.2 373.8 368 360.2 349.7 349.1 352.4 352 350.4 343.2 336.4 329.2 318.8 306.4 293.3 305 314.3 320.9 325.1 325.4 323.9 322 318.4 316.1 322.7 325.7 328.3 330.9 331.4 329.5 332.2 331.3 329.7 326.3 318.7 309 295.2 277.3 254.8 233.7 219.5 216.1 222.6 245.2 266.4 284.9 288.9 305.7 318.1 323.9 328.2 332 339.1 345.8 354.3 363 371.1 380.5 387.1 391.8 394.3 393.3 391.1 389.9 394.2 401.5 409.1 415.1 421 426.2 428.7 428.5
416.2 419.6 423.7 427.3 435 438.8 438.1 438.1 433.6 427.9 421.6 413.3 399 390.2 384.9 385.9 388.1 393.3 401.3 409.9 421.6 430.1 436 440.6 441.6 443.7 443.6 443.1 443.4 443.4 444.6 444.7 442 442 440.2 438.2 436.7 435.5 434.5 433.7 431.7 430.8 428.3 425.5 421.1 415.5 410.2 400.7 405.2 411.3 414.8 415.9 416.7 417.6 419.4 420.4 424.4 425.9 425 422.9 417.9 403.3 385.4 366.6 351 346.3 341.9 338.2 336.6 335.3 333.2 334.8 336.3 336.5 337.6 336.7 336 333.2 331.1 328.5 328.9 328.1 326.2 323 314.2 311.9 311.3 311.4 314.1 311.1 319.7 320.1 322.2 325.9 332 339.7 349.1 364 379 388.6 395.3 405.1 408.1 404.4 399.2 390 376 360.7 345.4 328.3 315.9 307.3 299.3 300.9 309.4 319.1 328.7 335.3 340 345.7 349 354.6 359.8 363.6 366.8 370.9 370.4 371 370.1 368.7 365.1 360 349.8 337.1 339.7 341.1 339.3 335.3 329.9 321.2 311.8 302.8 289.7 295.2 305.2 310.6 313.7 313.9 312.9 310.4 305 300.9 309.7 313.6 316.3 318.9 322.3 327.7 331.4 334.8 334.2 330.4 323.4 313.4 297.2 277.6 256 234.6 220.1 217.4 228.5 252.3 279.1 292 309.9 325.2 339.7 348.2 355.5 358.1 364.9 370.5 377.5 386.2 392.7 399.6 406.4 410.2 411.5 408.9 404.8 403.5 404.6 408.8 415.9 422.1 426.4 429 428.6 426.1
