ncols 200
nrows 82
xllcorner 280000
yllcorner 254850
cellsize 50
435.2 433.6 431.3 428.4 424.7 415.8 405.5 391.1 370.3 347.7 342.6 351.7 366 385.6 408.6 426.6 443.3 453.6 461.5 467.6 472.5 476.4 480.4 484.9 487.2 490.9 493.7 496.3 497.8 499.4 500.3 501.7 503.3 504.1 505.3 506 506.5 506.9 506.8 506.5 506.6 506.8 506.4 506 505.4 504.3 501.8 499 496.3 492.9 489 485.4 481.6 477.3 473 468 463 455.1 441.6 447.5 458.5 465.3 473.6 480.8 489.8 503.6 512.1 517 518.4 518 516 511.7 506.8 502.5 498.1 489.1 476.4 462.5 468.5 476.8 480.6 483.1 487.9 497.6 506.7 515.3 522.4 529.8 536.5 543.2 550.7 557.3 564.4 571.8 578.4 584.5 591.9 594.1 597.5 599.6 601.2 600.9 601.8 600 597.4 593.6 588.8 583.7 578.9 574.6 571 567.9 565.5 564 561.8 561.5 560.9 559.6 559.7 559.4 560.3 562.4 564.7 567.5 570.1 571.1 572.4 573.2 575.2 573.5 572.6 572 571.6 572.4 573.8 573.6 574.1 578.1 580.9 579.2 578 576.7 568.3 561.1 554.6 549.9 547.7 546.4 549.5 554.5 558.3 561.4 564.7 565.6 565.2 566.3 569.5 570.3 569 568.1 568.9 570.1 571 572.1 572.9 572.8 572 571.3 568.6 567.2 567.2 566.4 565.6 564.3 564.2 562.4 561.8 560.2 558.1 556 554.7 552.3 548.9 541.2 534.4 525.2 518.6 509.5 502.8 502.4 504.2 507.6 516.1 527.1 536.6 543.8 546.7 551.7 555.7 557.9
432.9 432 430.6 428.1 422.6 411.8 403.6 386.6 365.5 346.7 341.8 348.5 364.1 382.4 402.3 422.6 440.7 454.1 461.6 467.7 472.9 477.8 483.7 487.2 490.6 493.6 495.8 497.6 499.1 499.7 499.7 500.8 501.8 503.1 503.8 504.3 504.8 504.6 504.4 504.5 505.1 505.8 505.7 505.8 505.8 504.5 501.7 498.8 496.3 493 488.6 483.4 479.1 475.3 471.1 466.7 462 456 441.8 446.7 461.1 467.7 473.2 480.1 490.8 503.4 511.4 515.4 515.8 514.9 511.7 507.6 503.2 496.6 488.4 477.8 466.7 461.3 475.3 482.1 488.5 494.9 500.4 504.6 508.7 512.2 519.2 524.4 535.5 542.9 550.1 557.3 564.6 572 578.3 585.9 592.8 594.9 597.6 599.2 599.8 599.7 599.8 599 596.6 592.1 587.6 582.9 578.1 574.1 571.7 570.1 567.6 564.6 563.3 563.5 561.4 561.8 562 562.1 564.5 567.6 570.2 572.4 574.8 576.7 578.6 579.4 580.2 580.1 579.6 578.5 578.5 579.4 578.9 578.7 582 587 587.6 588.1 588 581.8 574.2 563.8 556.2 553.9 552.1 553 554.7 557 559.7 561.3 562.9 564.6 565.7 567.5 570.8 571.3 571 571.2 573 573.9 574.3 575 574.9 574.3 572.3 570.2 568.3 567.2 566.2 564.8 563.4 562.5 561.8 561.2 559.6 557.6 556.6 555 553.4 551.3 545.4 537.6 534.1 523.5 517.8 507.2 503.8 504.7 506.4 510.8 521.3 530.6 537.8 544.2 548.2 553.3 556.5 558.1
430.3 429.2 427.6 423.8 416.9 406.8 398.3 379.7 359.9 345.6 336.7 343.9 355.6 370.2 390.9 416.4 438.1 448.8 456.9 464.9 471.1 477.2 483.2 487.7 491 494 495.6 497.2 498.3 497.1 497.3 498.5 499.5 500.2 500.9 501.4 501.8 502.1 502 502.1 502.8 503.4 505.1 505.8 505.8 504.9 502.5 499.9 497.9 496 491.1 485 478.7 473.7 470.3 465.8 460.7 449.5 440 443 458.9 466.5 472.6 479.5 490.5 502.7 510.6 515.5 516 512.5 506.8 501.9 495.8 487.6 479.7 472.4 457.5 468.8 480.1 488.7 495.4 502.7 509.4 515.9 522.1 527.4 531.4 536.7 540.1 540.8 550 558.1 566.2 571.9 579.1 586.1 591 593.8 596.3 598 598.2 597.8 599.2 598.7 595.2 590.9 586.6 582.4 578.8 576 572.5 571.1 568.8 566 565.2 563.8 563.9 564.8 565 567 569.7 573 575.8 577.8 580.5 583 585 586.4 586.8 587.3 586.7 584.7 584.7 585.2 585.1 586.4 590.5 595.8 597 599.2 596.1 587.4 578.2 566.9 560.5 558.6 557.2 557.1 558.1 559.1 560.7 562.2 563.5 565.8 567.4 569 572.5 573.3 572.8 574 575.4 576.5 576.9 575.9 575.1 575.2 572.1 569.9 568.2 566.7 565.2 563.6 562.1 559.7 558.4 556.5 554.3 554 553.9 553.3 552 549.1 541.6 534.7 527.9 521 514.1 507.7 508.1 507.5 509.1 515.3 524.8 532.3 539.4 545.1 549.6 553.3 556.2 559.3
427.8 425.6 423.1 418.7 412.8 405.1 393.5 375.8 359.3 344.9 334.1 338.5 346.5 360.5 379.9 400.2 419.9 437.1 451.3 460.2 467.5 475 480.5 484.9 488.7 491.3 492.4 493.6 494 492.8 493.4 494.3 493.9 495.6 496.9 497.4 498.1 498.6 498.4 499.5 500.2 501.9 503.7 505.6 505.8 504.9 503.4 502.3 500.9 498.9 494.6 487.2 479.5 474 471.3 468.3 461.5 447.5 439.6 440.5 455.9 466.6 472.9 479.5 490.3 502.8 510.5 515.3 514.8 510.6 505.6 499.3 491.3 481.7 473.1 463.4 458.3 475.3 483.7 492.2 500 507 514.3 521.8 529.2 535.4 540.1 544.5 548.2 550.5 555.1 559 565.6 572 578.4 583.2 587.4 590.9 594.6 596.8 597.4 596.4 595.9 594.7 592.4 589.4 585.2 582.2 580.6 578.3 575.8 573.3 570.4 567.4 567 566.9 567.2 568.1 570.1 572.9 575.6 578.9 582.2 585.2 587.3 590.6 592 593.1 594.6 594.6 592.6 590.5 591.4 592.8 592.6 595.3 601.8 606.3 606.8 606.8 599.2 590.9 582.8 573.8 568.7 565.3 562.7 561.1 561.3 561.3 562.5 564.6 566.7 569.3 569.7 571.4 574 575 575.5 576.2 576.7 577 576.4 575.6 574.8 573.9 571.5 570.5 568.5 566.8 565 563 560.3 557.5 556.1 553.6 551.9 551 550.9 551 550.6 546.3 537.8 530.5 523.6 517.1 513.4 512.5 511.6 509.9 512 519.6 527.4 535.2 542.3 547 550.4 555.6 558.4 561.2
424 421.8 418 413.7 410.1 409.5 400.4 380.1 362.8 350.2 337.2 334.5 339.4 351.1 365.8 382.4 399.8 420.8 441.4 454.3 462.4 470.8 476.7 481.3 484.7 487.1 488.3 487.9 487.2 485.9 485.9 486.4 488.2 490.4 491.6 491.4 493.2 494.3 493.5 495 498.2 501.2 503.6 505.2 505.8 505.5 504.6 504.3 503.6 500.9 496.1 490.2 480.8 476.8 473.6 468.8 460.5 448.1 440.4 438.1 452.4 466.1 472.3 479.6 491.7 503.4 510.3 513.9 513.4 509.5 506.1 499.2 491 481.4 470.1 455.1 464.1 477.7 484.7 492.5 501.3 509.3 516.9 525.3 533 539.7 544.9 549.3 552.8 555.9 559.2 563.5 568.4 573.5 577 581.8 585.7 589.2 592.7 594.8 595.8 594.8 594.5 593.4 591.5 588.5 586.4 583.9 583.1 581.5 579.2 575.4 572.1 570.5 569.9 571.3 572.5 573.5 576.2 579.6 582.3 585.5 589.3 592.5 594.8 597.4 599 600.9 601.2 598.8 597.1 597.4 599.3 600.6 601.6 607.7 614 613.8 612.9 610.4 601 593.5 585.4 580.1 575.5 569.5 566.8 565.7 564.2 564.5 566.2 567.7 569.6 570.4 571 573 574.1 575.1 575.9 576.6 576 575 575.2 575.2 574.8 572.8 572.3 571.1 568.9 567.3 565.3 562.8 558.2 555.1 551.3 549 547.4 546.7 546.7 547.1 546.5 541.2 535.5 525.3 516.7 513.4 513.3 516.6 514.8 513.2 516 522.8 531.2 538.8 544.5 549.6 553.2 557.7 559.2 559.8
417.7 416.1 414.5 411.6 414.3 414.8 405.5 393 379.2 361.8 344.4 331 333.9 342.2 353 366.5 383.6 405.7 428.2 445.9 456 463.7 469 472.5 476.2 478.8 479.2 477.3 476.5 474.9 476.4 478.8 481.7 482.9 484 485 486.9 487.8 487.6 493.6 499.2 502.8 504.6 506.4 507.6 507.3 506.4 505.9 505.6 502.3 497.5 491.5 485.2 480.9 476.3 469.3 457.9 447.1 438.4 437.6 450.1 463.2 471.3 480.7 494.2 502.7 510.5 512.3 512.1 508.6 505 498.1 490.2 478.8 466.2 451.9 466.1 476.1 482.2 490.3 499.6 508.9 519.1 527.4 535.6 541.9 547 551.2 555.5 558.9 562.4 566.3 571.1 575.1 578.8 582.9 586.5 590.6 593.6 596.1 595.5 595.4 596.6 596.6 595.2 592.6 589.3 587.2 585.8 583.7 580.7 576.6 574.1 574.1 573.7 575.5 577.3 580.2 582.8 585.6 588.8 592.9 597 600.7 603.3 605.4 606.8 607.1 606.4 605.2 604.5 605.1 606.2 607.2 613.1 619.7 621.9 618.7 617.5 612 603.4 595.2 590.1 586.5 581.4 575.4 572.4 570 568 569 569.9 570.6 572.2 572.6 572.2 572.5 573.5 573.9 574.5 574.5 574.3 576.1 577 576.2 574.4 573.9 572.4 571.9 570.1 569 566.6 562.8 557.9 552.8 547.3 545.2 543.5 542.8 542.5 541.3 539.1 536.2 529.5 519.4 514.9 514.9 516.3 518.6 517.9 517.1 518.8 524.7 534 542 547.9 552.8 555.1 557.5 559.2 560.5
410 409.4 410.2 413.7 419.9 417.1 408.1 406.6 394.6 374.9 355.8 341.7 330.4 335.6 344.7 355.1 371 391 413.2 434.6 445 453.3 459.1 462.1 463.8 462.7 461.3 458.2 458.6 461.8 466.2 469.1 470.9 471.6 473.9 473.7 476.6 478.3 487.1 495.7 502.1 504 505.8 507.7 509.7 509.1 508.2 506.8 505.5 502 497.4 491.4 486.5 482.3 478.1 468.4 454.1 444.6 436.9 435.8 451.9 463.1 470.1 481 493.1 504.4 510.1 512.1 511 506.4 500.2 495.1 487 472.9 456.3 453.1 460.2 470.4 476.8 485.1 494.8 507.6 518.7 528.1 536.3 542.8 548 552.9 557.7 561.4 565.7 568.9 572.4 575.8 579.4 583 587.9 591.4 594.2 596.6 597.7 598.2 599.6 599.5 597.6 595.6 592.9 590.2 587.8 585.6 582.3 579.1 578 577.9 578.2 579.7 582.5 585.8 588.4 591.3 596.2 601.4 605.7 609.8 611.9 613.3 615.6 614.8 614.5 614.2 610.7 609.6 610.3 613.7 619.7 626.6 624.9 621.8 618.6 612 604.2 597.8 593.5 589.5 585.6 580.3 577.1 574 572.7 573.3 573.5 573.7 574 573.9 572.4 572.6 573.4 572.9 572 572.3 574.7 576.2 575.9 575.8 575.6 574.2 572.2 572.3 571.5 570.1 567.1 563.5 558.6 552 545.5 543 541.1 539.1 537.8 536.1 534.4 531.7 525.3 517.7 515.2 516.3 519.1 520.5 520.5 520.4 521.6 527 536.6 545 550.5 553.2 555.9 557 557.9 559.7
402.6 405.6 410.3 414.9 418.2 416.4 415.4 418.2 408.8 390.8 371.3 354 338.9 328.8 336.7 345.8 359.7 380.3 398.9 416.7 431.3 439.6 441.6 443.8 439.8 438.6 434.7 435.7 439.7 446.3 451.4 454 455.5 457.3 458.5 460.5 471 482.1 491.5 499.4 503.5 505.1 506.9 508.4 509.6 509.6 508.6 506.9 505.1 501.2 497.2 492.2 487.7 483.3 476.6 464 451.3 442 434.4 434.1 454.5 462.2 470.1 481.5 495 505.5 508.6 509.8 507.3 503.5 498.5 493.6 483.7 466.4 448.7 454 463.9 470.1 469.3 474.6 487.4 498.7 512.7 526.5 536.4 544.2 549.5 554.4 558.4 562.7 566.6 570.1 574.3 577.9 581.6 585.5 589.6 593 595.7 597.5 598.9 600.1 600.6 600.2 598.5 596.7 594.7 592 589.1 586.1 584.3 581.5 579.7 580.2 581.5 584.5 587.2 590.2 592.6 597.3 602.8 608 612.9 617.1 618.7 620.2 621.3 620.8 621.6 621.5 616 612.9 615.1 620.5 625.7 626.2 622.9 619.5 615.3 609.4 604 599.2 595.7 591.5 586.2 582.6 581.4 578.6 576.3 575.9 574.7 574.4 574.4 572.7 572.6 572.4 572.3 571.7 570.7 572 573.7 574.4 574.1 575.2 575.9 574.6 571.5 572.1 571.7 570.1 567.4 563.5 559.9 552.3 545.4 541.1 538.5 536.7 535.6 533.8 531.1 527 521.4 517.2 516.5 518.3 521.1 522 522.2 523.2 526.2 533.1 541.4 546.6 550.9 552.4 553.8 554.7 555.8 557.2
396.1 401.8 409.8 414.2 415.3 416.7 417.4 417.8 413.9 401 384.1 366.4 349.7 335.4 325 338.1 351.9 367.4 386.7 401.8 412.5 417.6 419.6 417.3 410.5 410.4 412.1 416.6 422.6 430.4 432.7 436.9 439.6 435.4 446.1 463.5 475.8 486.3 496.1 501.3 503.8 505.4 506.8 508.7 509.2 508.6 507.4 506.5 504.4 500.7 496.8 492.8 488.2 483.4 475 461.3 450.1 441.4 434.5 436.2 453.1 460.8 469.3 482.2 496.5 504 506.8 507.5 505.2 502.1 497.7 492.4 481.6 460.8 447.4 455.2 465.9 474.2 483.7 493.3 500.9 505 506.4 520.2 535.3 544.6 549.9 554.7 558.8 562.7 566.7 570.6 575.4 579.2 582.9 586.7 589.9 593.2 595.9 597.9 599.5 599.5 599.2 598.5 597.9 596.4 594.6 591.7 588.7 586.3 584.5 582.8 581.7 582.2 583.8 587.2 589.7 593 597.6 602.9 610 614.9 619.3 623 625.4 625.5 625.9 626.1 627.1 626.6 623.4 620.2 621.5 623.2 623.4 619.8 618.2 616.5 610.3 606.4 605.2 598.4 595.9 590.1 585.7 584.3 583.5 581.5 578.7 577.9 576.1 575.2 573.8 572.3 571.3 570.1 569.4 568.3 569.3 569.1 570.2 572 573.7 574.9 574.4 572.1 570.4 571.3 571.3 570 567.2 563.1 557.4 550.6 545.3 541.1 537.5 534.8 533.8 530.7 528.2 523.8 519.7 517.2 518.2 520.3 523.2 523.7 524.3 526.3 530.9 536.9 542.5 547.5 550.6 552.4 554.4 552.5 552.2 552.7
386.9 394.2 402.9 406.1 409.3 412.9 415.7 417.6 412.1 401.9 391 376.1 359.5 345.1 330.5 332.3 344.2 355.1 369.5 383.4 392.9 393.3 391.9 385.9 385.9 387.5 391.2 397.6 406.7 412.3 418.1 421.8 421 437.1 453.4 465.4 477.8 489 497.6 501.5 503.4 504.7 505.4 506.3 506.7 506.5 505.2 504.6 503.2 499.7 495.8 493.7 489.1 484.1 476.4 463.6 449.4 441.2 435 436.6 451.9 459.1 469.5 483.4 493.9 501.4 505.1 505.6 503.4 499.2 495.2 490.2 479.4 458 446 457.1 469.1 478.5 489.8 500.7 510.3 518.3 523.3 517.3 533.7 542.9 549.1 554.4 558.4 562.6 566.7 571.1 575.2 579.2 582.8 586 588.8 592.2 594.7 597.1 598 598.2 597.6 596.6 596.3 595.2 593.3 590.4 587.3 584.3 583.8 582.5 581.8 582.5 584.5 587.9 591.1 595.9 602.2 609 614.8 619.1 623.4 627.2 630.1 632.7 631.5 631.8 632.2 631.4 628.4 624.3 622.4 621 618 614.1 613.3 611.1 606.8 605.1 599.4 595 592.5 588.7 586.9 586.4 585.8 582.7 580.3 579.8 576.9 575.4 573.7 571.4 569.3 567.9 566.5 566 565.1 566.7 569 570.5 572 573.1 572.7 569.6 568.9 570.1 570.3 569.2 565.6 561.3 555 550.8 545.9 541.5 537.6 534.6 531.7 529.3 526.3 523.4 519.5 519.6 520.9 522.6 524.2 523.9 525.6 529.4 534.9 539.4 544.3 548.1 550.4 551 550.1 548.6 549.5 550.9
378.2 383 386.8 392.6 401 408.5 412.2 411.7 403.8 397 390.9 380.8 365.3 350.4 336.2 323.4 338.2 348 358.2 367.3 369.9 369.5 366.8 365.4 366.7 369.9 374.8 382.9 390.8 397.9 406 409.8 426.1 442 454.2 465.3 479.2 489.9 494.3 498.4 500.6 502.1 502.7 503.7 503.4 503.6 502.3 502.8 501.3 497.5 495.9 494.1 490.3 485.1 475.9 462.4 449 440.9 434.4 435 447.7 456.1 470.9 482.1 489.6 497.3 502.5 503.3 500.1 496.5 492.7 487.1 476.5 460.1 443.6 455 472.9 482.8 495.3 506.2 515.3 523.6 529.1 531.3 526.7 538.4 546.1 552.3 557.1 562.1 566 569.9 574 577.8 581.5 584.6 587.2 590.4 592.4 594.6 596.4 596.8 596 595 594.1 593.3 591 588.3 585.3 582.2 581.3 580 580 581.5 584.1 588.2 592.8 597.8 604.5 610.5 616.3 621.8 625.1 629.4 636.3 640.6 637.3 637.4 635.7 629 622.1 618 617.6 616.7 611.3 610.7 611.5 607.4 605.3 599.8 593.5 592 590.5 588.6 588 586.7 586 584.1 581.9 580 577.1 574.8 572.8 570.2 567.8 566.5 564.3 562.1 562.1 563.7 566.5 568 569.9 570.5 569.6 567.2 566.9 568 568.7 567.3 562.8 558.1 554.2 551.1 547 542.2 537.5 534 531.3 528.9 526.1 524.2 522.2 521.6 522 523 523.9 524.1 527.1 532.1 537 541.6 545.2 548 549.3 546.3 543.9 546.2 549.8 549.8
386.5 380.7 375 372.9 384.6 394.3 399.7 398.1 393.4 390.1 384.9 377.2 363.7 349.7 337.7 330.6 332.7 344.6 351 352.7 352.2 350.3 352.3 356.4 360.8 362.6 365.4 373.3 380.9 386.5 397.2 411.7 426.5 440.6 452.9 464.4 476.8 483.5 488.6 494.9 497.3 498.9 499.3 501.4 501.3 501.3 501.2 500.7 497.8 496.4 495.5 494 490.9 481.8 470.8 458.1 447.9 440.8 434 431 441.2 453.6 470.1 478.2 483.8 493.1 498.7 499.7 497.7 495.1 491.6 485.2 474.8 460.3 441.5 449.5 470.7 487.3 497.5 508.1 517.2 525.8 532.2 536.9 540.8 543.2 546.3 548.9 554.6 559.8 564.5 568.4 572.3 576.2 579.9 583.1 585.5 588.3 589.9 593 594.4 594.5 594.1 592.8 592.2 590.4 587.7 584.7 582.3 579.9 579.4 578.5 578.4 579.6 582.1 587.1 592.4 596.3 602.8 609.6 616.6 622.9 626.9 634.2 640.5 638.6 633.3 629.4 624.4 618.4 614.9 612 611.9 609.5 607.6 608.7 610.3 608.4 601.6 594.7 590.4 590 590.6 588.2 587.6 585.8 584.7 582.4 579.3 576.5 574.7 573.3 571.8 568.6 567.4 566.6 564.3 561.8 558.5 560.2 562.7 564.8 566.4 567.2 565.8 564.5 564.8 565.9 567.1 565.1 560.2 556.4 554.3 551.6 547.8 543.3 538.2 534 529.2 527.3 525.7 525 523.6 523.1 523.7 523.4 523.7 524.1 527.5 532.8 537.3 541.7 543.9 545.7 545.7 541.7 541.8 545 546.8 549.5
406.5 401.2 392.1 382.7 365.9 376.7 383.3 386.6 384.9 382.3 377.8 370.3 357.2 344.4 331.2 323.5 326.1 333.9 343.2 350.2 355.5 360.1 365.8 370.4 372.2 373 375.3 380.3 383.5 387.9 399.1 412.3 424.3 435.5 446.6 457.4 470 481.3 487.9 492.4 495.3 497 499 501.1 501.4 501.2 500.6 498.9 495.6 495.4 493.7 491.6 485.4 475.7 465.9 456.2 448.5 442 436 429.2 433.3 446.9 461.3 470.1 480.1 489 493.3 495.3 494.5 493.1 491 484 475.7 462.6 445 444.6 466 486.2 498.8 509.3 518.1 526.3 534.1 540.6 545.5 549.3 552.7 555.7 557.4 559.4 563.4 567.2 571.1 574.8 578.3 581.6 583.9 586.9 588.9 591 591 590.9 591.4 590.7 589.7 587.1 584.1 581.1 578.8 577 576.6 576.9 576.6 577.8 580.6 584.3 587.1 593.8 602 610.2 617.3 623.1 629.1 634 632 629.4 624.4 622.5 620.3 609.5 606.7 607.5 606.8 605.8 605.8 607 609.5 604 593.8 590.9 589.8 589.4 588.3 586.2 584.3 583.7 581.8 578.4 575.6 574.4 573 572.2 569.6 568.8 568 566.5 564.6 560.6 555.6 555.7 558.8 560.6 562.6 563.8 563.7 562 563.1 564.2 565.8 563.2 558.3 555.7 553.9 552 548.2 544.4 539.2 533.9 529.4 527.6 526.7 526.3 525.1 525.1 526.1 524.9 524.1 524 527.1 530.9 535.4 540.6 543 541.5 541 538.5 540.6 543 545.8 548.8
422.9 416.1 407.5 399.6 384.3 361.2 369.9 376.7 377.2 374.6 369.1 359.7 348.1 336 320 327.1 335.7 348.3 360.3 368.7 374.6 380 386.8 391.5 393.3 394.9 394.4 396.6 398 403.8 407.9 412.3 422.1 435.7 454.2 464.9 474.9 482.5 488.1 492.4 496.1 498.8 500.6 501.9 501.8 500.7 499.9 496.9 493.8 492.9 491 486.4 478.5 471.6 462.4 454.9 450.1 443.7 437.9 430 427.3 438.1 451.8 464.3 474.1 482.7 489.4 492.4 492.4 492.7 490.6 483.8 475.7 463.4 445.8 441.8 465.1 484.7 499.4 510.7 519.4 527.4 535 541.9 547.2 551.9 556.4 558.3 561.1 562.1 564.7 568 571.8 574.7 577.2 579.8 582.3 584.8 586.3 587.8 588.5 588.8 589.6 587 586.3 584.3 581.2 578.1 575.7 574.4 574 575 575.1 575.7 577.5 579.9 584.4 592.6 602.5 610.6 617.9 622.6 625.7 624.3 624.7 626.5 620.5 610 603.2 601.9 601.3 601.7 602.6 606.1 605 602.8 602.3 596.9 591.8 590.3 589.8 588.8 587.5 585.8 582.1 580.3 578.1 574.8 574.5 572.5 571.4 570.2 568.7 568.2 566.7 564.9 563 558.1 552.9 552.2 555.1 557.5 559.6 561.5 560.2 559.6 560.1 562.8 563.8 560 555.4 554.5 553.1 551.3 548.8 545.3 540.3 534.7 531 529.2 528.5 528.6 528.6 529 529.1 527.6 525.4 524 524.3 528.1 533.3 538.3 539 537.6 535.8 536.2 538.5 542.2 545.2 547.5
430.9 424.1 417.9 410.6 398 376 350.6 365.2 368.7 366.2 359 349.6 338.8 327.6 324.5 331 343.8 359 374.8 389.2 401.3 404.8 409.6 414.6 416.5 421.3 421.2 420.2 416.8 418.6 424.8 429.6 433.3 443.3 457.4 474.1 484.6 491 494.9 498.9 500.8 502.3 503.6 503.6 502.6 501.4 499.3 495.5 493.1 490.1 486.4 480 473.4 467.4 459.1 454.3 451.2 446.3 440.6 434.5 425.1 429.9 444.2 458 468 477.9 484.9 487.8 487.7 489.3 488.4 481.5 474.2 461.9 445.2 441.6 461.9 483.4 499 510.9 520.3 527.8 535.4 542.6 548.4 553 556.3 559.1 562.3 565.4 567.7 570.2 572.7 574.6 577.7 579.5 581.8 583.9 585.3 587.8 589.5 589.4 587.3 585.1 583 581.4 578 574.9 572.8 571.8 571.2 572 570.9 572.6 575.2 578.3 582.4 591.1 600.8 607.1 608.4 613.6 616.7 618 616.4 610.3 603.8 600 599.3 599 596.4 594.7 596.3 599.5 597.3 593.9 592.3 591.3 590.8 590.4 589.9 589.7 588.5 585.1 580.6 577.8 574.9 573.1 571.8 570.7 569.7 568.1 568.8 566.2 564.6 563 560.1 555.7 551.7 549.2 550.9 552.8 554.9 556.3 555.3 554.4 557.5 561.6 559.7 555.7 553.2 552.5 551.5 550.1 547.9 545.2 541.2 536.2 532.3 530.6 531.1 532 532.4 532.6 531.7 529.5 524.2 521.2 519 524.1 529.2 530.7 531.7 531.4 533.6 534.2 537.2 540.9 544.3 546.8
435.3 430.3 427.5 418.7 405.8 390.7 372.8 345.6 355 355.2 349.6 339.7 329.8 321.3 325.9 336.9 354.6 371.9 387.9 406.8 421.3 427.5 430.8 435.4 438 441.2 442.6 441.3 437.8 435.4 443.5 450.7 459.2 470.1 480.6 488.5 493.3 497.3 500.7 503.5 505.1 506.3 506.7 506 504.4 503 499.5 495.7 493.2 490.5 486.5 474.8 468.6 462.3 457 455 452.7 447.7 443.2 439.6 428.5 423.7 437.1 448.5 460.6 474 479.5 481.9 482.3 484.4 481.6 475.5 469.9 456.4 439.8 442.1 462.6 483.8 501.8 513.8 521.9 529.1 535.7 542.1 548.5 553.3 556.9 560.9 564.8 567.8 570.5 572.3 573.9 576.5 579.5 581 582.6 585 586.7 589.1 589.7 588.5 586.5 584.2 581.9 579.1 575.7 572.6 570.9 569.4 568.9 568.1 568.6 570.4 573.1 576.2 581 590 598.8 602.7 604 609.3 611.3 607.6 602.2 597.1 595.6 593.5 591.3 590 589.4 590.1 589.8 589 587.1 586.8 588.8 591 591.9 590.8 590.2 589.8 587.6 582.7 577.7 576.3 573.5 571.6 569.3 568.2 566.6 566.7 566.1 564.1 562.4 560.7 558.5 554.7 550.4 547 546.2 546.7 548.2 549.4 549 549.9 555.3 558 554.6 550.5 549.8 549.7 549.5 548.2 546.5 543.8 540.3 535.5 532.4 531.3 532.6 533.3 534.4 534.5 532.5 528.3 522.2 516.3 514.1 519.4 524 522.1 522.3 527.2 529.6 532.9 536 539.6 543 545
440.2 436.7 430.8 422.7 413.8 401.2 389.9 370.6 339.8 342.7 340.3 333.5 325.1 320.5 328.3 345.4 365.4 384.2 401.7 425.5 439.5 445.8 450.2 453.1 454.9 455.9 457.7 459.3 459.4 461 466.8 473 481.9 488.6 493.8 496.2 499.2 502.3 505.4 507.5 509.4 510.2 509.9 509.1 507.3 504.4 500 497.3 494.7 490.7 482.3 473.2 465.4 460.3 458.6 456.7 453.4 448.4 444.7 440.5 429.6 421.1 430.4 440.2 455.1 465.5 470.6 473.1 476.5 478.2 475.3 469.7 463.2 448.5 430.4 447.6 468.6 489.2 506.1 517.2 524.9 531.6 538 543.4 549.5 554.8 559.2 563.4 567.2 570.7 574.2 576.8 579.3 578.7 579.8 581.5 583.3 585.6 587.9 589.9 589.9 588.1 585.7 582.9 580.9 578.1 575 571.2 569 567.6 566.8 565.8 566.7 568.5 571 574.1 579.2 587.2 595.4 598.1 601.7 602 599.4 596.2 593.8 592.9 592.6 588 584.2 581 581.9 584.1 584.8 582.5 583.1 585.5 589.4 591.5 591.2 589.9 589.5 587.1 584.4 579.5 575 574.3 573.1 569.3 565.8 564.3 564.6 564.7 563.5 562.3 560.9 559.9 558.6 553.6 549.4 545 541.1 540.7 541.3 542.9 542.8 547.2 552.2 551.4 547.1 546.8 546 546.4 546.2 546.3 544.5 541 538.3 534.3 532 530.6 531.6 533.1 534.9 535 529.3 523.9 519.1 510.6 509.6 512.5 515.4 513.2 516.6 523.3 526.4 531.4 535.3 538.7 541.4 543
446.2 440.4 433 425.7 417.9 409 400.4 386.3 365.7 346.9 324.5 327.6 321 320.7 332.1 351 375 396 416.5 439 452.5 461.9 465.3 467.4 467.7 466.9 467.6 469.4 472 475.8 480.1 484.9 489.8 495.8 500.6 502.7 504.5 507.1 509.3 511.3 512.7 513.8 513.3 511.9 509.5 506.4 502.4 500.2 498 493.3 485.2 476.3 466.6 463.6 462.4 459.6 454.2 450.2 446.2 441.6 433.2 425.1 420.4 431.3 441.9 450.3 457.2 463.3 468.7 472.3 469.5 465 457.4 439.6 431.6 455 475.4 492.8 508.2 518.6 526.2 533 539.2 544.7 550.6 556.2 561.3 566.1 569.6 571.9 572.7 574.1 575.7 577.5 579.9 583.3 585.2 586.3 588.6 588.7 587.9 586.3 585.1 584 581.3 578.4 574.5 570.9 567.5 565.5 564.9 563.8 564.5 566.3 568.3 572.2 577.4 583.4 589.1 594.1 593.8 592.2 590.6 591.5 591.4 590.5 587.7 584.2 579.2 575.1 574.5 575.7 576.9 579.5 582.2 585.3 590.6 591.4 590.1 588 585.5 583.4 579.7 573.9 573 571.9 570 566.3 562.8 562.2 561.7 562 561.3 560.3 559.8 559 557.2 552.4 547 542.7 535.4 535.2 535.4 536.6 537.9 543.4 545.9 542.8 542.8 542.9 542.3 542.6 543 543.2 541.9 538.4 536.4 534.6 532.2 530.6 530.5 532.1 536.1 531.6 525 520.5 514.9 506.3 503.3 503.4 505.7 508.2 513.3 519.3 524.7 529.6 533.7 536.9 539.5 541.5
450.9 443.8 436.1 428.8 423 415.6 405.8 392.7 373 355.1 336.7 323.8 318.5 320.7 335.7 357.8 383.5 406 431.5 449.7 462.6 471.5 474.6 474.4 474.2 474.5 475.6 477.1 478.8 481.5 485.4 489.8 494.8 500.2 505.5 507.7 509.6 510.9 513 514.4 516 516.6 516.3 515.2 513.2 509.4 505.1 503.6 499.8 495.3 487.3 479.9 471.2 470 468.3 465.8 460.4 456.3 454 451 445.5 438 426.9 416.2 424.6 433.4 442.5 452 460.7 465 464.2 460.7 449.2 432.6 434 457.1 477.3 493.8 507.6 517.2 525.6 532.4 538.7 545 550.9 556.2 560.1 563.4 566.1 567.7 568.8 570.5 573.2 575.7 578.9 580.9 582.9 584.6 586.1 586.1 587.3 587.9 586.9 585.3 581.8 577 573.4 568.8 565.1 563.1 563.1 561.4 562.2 563.2 565.2 570.1 574.4 577.9 580.3 586.4 583.1 584.4 587.9 585.7 582.1 578.6 574.2 571.7 568.7 569 570.7 573.1 575.7 579.8 583.5 587.7 591.1 590.5 588.4 585.5 579.9 576.2 573 571.6 571.6 571 565.8 561.9 559.9 558.9 558.2 559 559 558.6 558.4 557.7 555.7 549.7 544.9 540.4 534.6 531 531 531.8 533.6 535.7 537.5 537.9 538.2 538.5 538.2 538 538.9 539 538.8 536.6 535.2 533.9 531.1 530.1 529.9 531.9 532.9 525.4 522.2 513.7 508.9 498.8 499.6 496.8 500.9 504.8 510.4 516.6 523.2 527.7 531.9 534.9 537.6 539.5
450.5 444.8 437.8 431.1 425.4 419.5 406.9 387.8 365.8 349 335 324.6 319.3 321.9 339.8 363.5 390.3 412.9 441.2 457 470 475.7 477.1 476.6 476.6 476.9 478.5 480.7 482.9 485.9 489.4 494.5 498.7 503.2 506.9 509.9 512.6 514.1 515.6 517 518.3 518.9 519.1 518.4 517.1 512.9 508.5 505.6 503 498.2 491.3 484.8 478.8 475.3 475.5 473.3 468.2 465.8 463.3 461.9 458 452.1 443.4 427.7 410.5 419.4 430 442.1 450.9 458.6 459.7 452.7 441.2 424.7 433.3 455.6 476.2 493.1 504.2 513.1 521.5 529.4 536 541.3 546.2 550 553.6 556.8 560.1 563.3 565.7 566.8 569.4 572.9 576.3 577.7 579.8 582.3 584.2 586.8 588.3 588.7 587.8 585.4 581.2 576.1 570.2 565.5 561.6 559 559.2 558 559.5 560.2 563.1 567.5 570 572.1 574.5 574 576 579.7 579.9 575 570.5 566.8 565 563.9 564.5 566.7 568.7 572.8 576.3 582.1 587.8 590.1 591.8 590.3 585.7 579 574.5 572.9 570.8 569.5 569.1 567.2 563.2 559.1 557.2 556.1 555.7 555.8 556.5 557.1 557.8 556.7 553.4 549.7 545.9 542 536 530.8 526.9 527 529.1 531.7 532.9 533.6 533.9 534.1 534 533.8 534.5 535.6 536.3 535.6 534.6 534 531.3 529.9 528.6 528.6 524.5 522 520.4 508.3 501.4 493.6 493 493.1 498.1 502.4 508.7 515.1 521.8 525.9 530.1 533.5 535.7 539
448.6 443.5 438 432.3 426.6 418.6 400.1 374 356.8 342 331.2 321.8 317.3 324.9 345.2 368.1 393.8 421.2 444.7 461.8 473.3 476.3 476.9 476 476.4 477.8 479.9 482.5 485.6 489.3 492.7 497.1 501.1 504.1 506.9 509.9 513.1 515.3 517 518.7 520.3 521.2 521.3 521.4 520.2 517 513.6 510.5 508.9 506.8 500.4 495.1 489.1 483.6 484.6 483.8 480.3 476.6 475.2 473.5 468.7 462.6 455.9 444 425.6 410 420.4 432.5 440 448.7 454.3 446.5 432.5 418.9 431.4 456.4 476.7 490 500.8 508.7 515.4 521.9 526.9 530.7 535.6 539.9 543.8 547.1 550.5 554.4 557.2 560.1 564.2 568.2 571.9 574.4 577.7 580.9 583.6 586.4 587.7 588.3 587 584.3 579.3 573.7 567.6 561.5 557.8 555.8 554.9 555 556.2 556.8 559.2 563.1 566.7 567.8 566.9 567.1 569 569.3 566.8 563.3 563.7 560.7 560.7 561.5 562.9 565.1 567.4 572.3 578.5 584.7 589.3 590.3 590.1 584.8 577.4 573.2 572 570.6 568.1 566.9 566.6 565.4 561.1 556.2 554.8 553.4 552.7 552.8 553.7 555.2 556 555.2 553.3 551 549 546.2 539.7 533 528.5 524.3 525.5 527.8 528.9 529.3 529.6 529.9 529.2 530 531.6 532.8 533.9 533.8 534.4 534.4 532.4 529.9 527 522.6 517.1 516 511.8 501.7 491.7 488.4 488.6 489.9 495.9 500.8 508 514.2 520.4 524.5 528.5 531.3 534 537.9
445.2 440.4 435.8 431.6 424.8 413.7 387.1 364.9 348.3 335.8 325.7 318.4 316.6 328.5 350.9 375.4 399 428.6 448.1 466.1 473.8 474.4 473.4 472.9 474.4 477 480.3 484.4 487.8 491.6 495.6 499.3 503 505.2 507.5 510.3 513.5 515.7 517.9 519.6 521.3 523 523.4 523.5 522.8 520.6 517.8 515.6 515.2 514.3 508.4 503.8 498.7 495 493.3 491.3 488.9 488 487.3 482.4 476.8 470.4 464.3 451.3 433 410.7 413.2 422.1 425 436 442.6 437.5 423.4 415.6 433.9 453.4 470.9 485.2 494.3 499.9 505.3 510.7 514.3 518.1 522.2 524.9 531.4 535.3 537.6 539.7 543.4 549.4 555.1 559.7 564.8 568.5 573.8 579 582.6 584.8 586.1 586.4 585 582.1 577.4 572.9 566.3 559.5 555.6 554 551.9 551 551.6 553 554.8 558.1 561.3 560.7 560.8 561.9 561.9 560.1 559.2 559.4 558.4 557.5 559.1 560.7 561.5 563.7 566.1 572.6 579.4 584.8 585.8 584.2 580.7 575 571.9 571 569.8 566.8 565.2 564.6 564.3 561.5 557.6 554.2 552.8 551.4 550.9 550.7 552.4 553.9 554 553.9 553 552.5 549.3 546.1 542.2 534.6 530.7 527 521.4 523.3 524.3 525.4 525.4 524.4 525.5 527.8 528.6 529.6 531.3 533.4 534.6 535.8 537 531.6 525.2 518.7 512 508.9 501.5 492 484.6 486.6 485.6 486.9 493.2 499.3 506.7 513.2 519.1 523.1 526.5 529.2 532.9 536.4
440.6 436.3 432.5 429.4 422.2 405.9 378.2 357.6 341.5 330.9 322.7 315.6 319.3 334.4 358.6 382.7 410.6 433.3 452.8 466.5 469.3 469.4 468.1 469.8 471.6 475.3 480.1 484.5 488.9 493.1 497.4 500.9 504 507.2 509.3 511.8 514.2 516.2 518.3 520.5 522.1 523.7 524.8 524.9 524 522.8 521.5 520.2 519.6 518.9 514.8 508.8 505.8 502 498 495.6 495 495.7 493.5 490.1 483.6 475.9 468.4 454.7 434.5 413.3 408.2 409.8 412 419.9 425.3 423.8 412.6 416.7 432.4 450.3 466.6 477.1 484.8 487.9 491.4 495.3 498.1 502 505.7 509.4 513.8 517 521.7 525.8 531.9 535.9 541.8 550.4 559.2 568.5 574.1 578.8 582.3 583.8 584.4 584.4 583 580.2 576.8 572.1 564.3 557.2 552.2 550 547.5 546.7 547.6 548.5 550.6 551.7 552.6 554.7 556.8 555.9 553.9 554.8 554.6 554.9 555.7 556.6 557 558.9 559.9 561.7 565.1 571.6 577.8 579.1 578.3 575.8 572.9 570.9 569.9 568.9 567.7 565.2 563.6 562.3 561.1 558.4 556 552.8 550.8 549.5 549 548.9 550.6 551.4 552.1 553 553.5 553.4 548 543.4 540.2 535.1 532.3 529 525.6 520.8 520.1 521.6 521.3 521.4 523.6 524.4 525.6 527.1 529.7 532.1 532.1 532.9 537.3 534.1 527 520 511.5 503.8 493.9 484.5 481.2 482.3 481.6 484.7 490.6 497.5 504.6 511.8 517.5 521.1 524.1 527.5 531.3 534.2
434.9 431.7 429.4 425.5 419.6 393.8 369.2 350.6 336.4 327.3 321 314.7 321.2 340.5 365.3 388 410.4 434 454.3 461.4 462.8 462.1 460.8 463.8 467.9 473.5 479.2 484.5 489 493.3 497.3 501.1 504.5 507.3 510.3 513.4 515.4 516.8 518.9 520.6 522.3 524 525.4 526.2 525.1 524 523.2 522.6 522 521.1 518.5 512.7 510.2 508.2 502.6 498.4 498.1 499 497.9 494.1 495.7 474.6 466.9 453 432.9 417.9 410.2 405.5 403.9 410.4 415.6 414.9 407.2 416.5 431 446.3 460.1 466.9 471.4 473.2 474.7 478.2 482.1 485.5 487 499.3 505.8 511.8 517.3 523.9 530 537.4 546.6 556.4 564.8 571.3 577.6 581.5 583.8 584.3 583.7 583.4 583.3 579.5 574.9 570.5 561.2 554 548.7 545.7 544.2 541.3 543.3 544 545 545.7 548.4 551 551.1 548.4 547.9 549.1 550.2 550.6 552.6 553.5 555.5 556.8 558 559.9 564.2 569.8 570.8 570.9 571 572.7 572.8 570.7 569 567.2 565.6 564.3 563.1 561.4 559.1 556.6 554.1 552 549.9 548.1 547.2 547.2 548 549.4 550.8 552.3 552.6 550.8 546 542.6 539.3 535.5 532.3 529.5 526.9 522.5 517.1 516.9 517.2 518.8 520.5 521 522.1 523.6 526 528.2 530.2 528.1 532.8 532.3 525.1 520.4 509.6 499.5 488.2 478.7 479.7 478.1 479.4 481.5 488 494.9 502.7 510 514.8 518 520.9 525.6 528.5 532
429.5 426.2 424.3 420.4 412.1 385.6 362.3 345 332.2 323.7 318.9 315.4 323.9 345.9 367 387.4 411.9 434.9 448.1 451.6 452 450.1 445.2 456.1 465.4 473.1 478.9 484.3 488.7 492.9 496.9 500.7 504.2 507.2 510.3 513.2 515.3 517.2 518.9 520.6 522.3 523.8 525 526 525.4 524.8 524.5 523.8 523.3 522.2 520.1 516 511.6 508.6 505.7 500.5 500 501.9 499.5 490.4 488.6 476.6 464.5 453 429 417.6 414.6 412.6 399.9 404.4 407.7 408.7 407.8 413.1 425.9 443.5 452.6 456.7 458.1 461.9 468.6 474.3 480.6 485.7 492.4 499.8 507.3 513.6 520.4 527.7 537.8 547.5 555.8 563.6 569.8 575.9 581.6 583.8 584.8 584.8 583.7 581.6 579.7 574.9 571.3 563.8 556.6 551.9 545.7 541.8 539.7 537.5 536.8 537.4 538.8 540.2 542.4 542.7 540.6 540.7 542.2 544.5 545.9 547 549.8 553.4 553.9 554.8 556.7 559 561.8 564.2 564.9 566.1 569.3 571.8 573.5 571.3 568.9 567.7 566.1 564.1 562 560.5 558.2 555.8 553.9 552.6 550.6 548 545.4 545.3 546.3 547.4 548.8 550.9 551.5 550.1 546.1 542.7 539.7 536.2 533.5 530 527.3 524.4 520.7 516.7 512.7 514.6 516 517.5 518.5 519.6 520.9 522.7 525.5 523.6 524.5 526.5 522.9 515.7 508.3 493.6 482.4 476.5 478 475.7 476.3 478.3 485.3 491.9 499.5 506.9 511.4 514.6 518.6 523.1 527 529.9
424.2 420.6 419 413.4 402.5 380 357.4 340.3 327.8 320.8 316.3 314.3 328.9 349.9 367 386.9 410 424.5 433.1 435.6 437.4 430 438.4 455.2 464.7 472.8 479.3 484 488.4 492.5 496.5 500.1 503.6 507.1 510 512.8 514.8 516.6 518.3 520 521.4 522.6 524 525.1 525 525 525.1 525.2 524.4 522.5 520.6 519.3 516.2 509.9 504.8 502.3 501.4 502.5 495.8 483.1 475.4 470.8 461 449.6 425.9 416 419.4 412.6 399 400.8 401.9 404.7 415.6 427 436.9 445.1 450.3 452.1 460.1 470.1 478.3 484.6 490.8 495.8 501.2 507.1 513.8 521.1 530.5 540.1 548.9 556.9 564.7 571.2 576.2 580.1 583.4 585.9 587 587 585.4 582.7 577.3 570.8 566.1 560.5 553.8 548.5 543.2 539.6 536.9 533.7 532.2 533.4 534.3 534.7 534.7 535 535 535.8 537.5 539 541.1 544.9 548.4 550.8 551.5 553.4 555 557.2 559.6 561.8 564.4 567.4 570.9 572.9 572.1 569.1 567.6 566.4 564.9 562.9 560.9 559.1 557 555.9 555 552.6 550.2 547.2 545.4 543.1 543.4 544.7 546.7 549.7 551 550.8 547.2 542.9 539.8 537.2 534.7 531 527.8 524.3 520.8 517.3 514.1 508.8 512.1 513.6 513.8 514 514.5 517 520.7 518 518.6 521.7 521.1 513.9 507.9 491.7 476.5 472.1 472.5 472.7 471.7 476.1 482.1 488.3 496.2 503.1 507.7 511.7 516.8 521.3 525.6 527.9
415.9 414.9 414 409.1 397.2 378.6 353.9 335.7 324.6 317.8 313.4 319.4 335.8 352.2 366.9 380.3 395.5 405.6 412 415.3 419.3 410.3 437.5 456.4 466.3 474.3 479.6 484 488.4 492.2 496 499.3 502.6 505.9 509.2 511.9 513.9 515.7 517.4 519 520.2 521.5 522.9 524.1 524.2 525.1 526 526.4 525.6 524.4 522.7 521.6 520.1 516.5 509.6 504.5 502 499.5 489.9 477 471.3 468.8 462.6 447 425.3 411.5 409.5 398 399.4 401.9 406.1 414.7 426 438.2 447.6 455 462.2 472.7 483.6 493.5 499.9 504.7 510.9 515.9 519.9 523.1 527.7 533.8 541.5 549.6 556.3 562.3 568.9 574.5 579.3 583.6 587.7 588.6 588 587.7 586.3 583 578 570.7 564.5 558.5 551.5 545.9 542.4 539 535.8 531.5 528.5 529.9 529.8 530.1 530.9 531.5 531.2 531.3 533 538.1 541.3 541.7 543.6 547.8 548.7 552.3 555.1 557.5 560.5 564 567.3 569.7 571.6 571.1 569.7 567.6 566.1 565.2 563.5 561.3 559.4 557.8 557.3 556.6 554.9 552.2 549.7 546.6 545.3 542 541.8 543.6 547 549.7 550.7 550.2 547.3 543.5 541 539 535.9 532.1 527.6 523.6 520.1 517 514.2 511.1 506.9 510 510.6 511.4 512.3 513 513.7 514.2 514.9 517.5 517.2 511.8 499.9 489 476.7 470.1 469.2 469.8 469.7 473.5 478.6 484.8 492.6 499.3 504.3 509.4 515.5 521.4 525.8 527.3
409.6 409.1 408.8 401 393.6 372.8 350.6 332.6 321 312.9 315 325.4 338.9 352.2 363.3 370.8 380.1 385.5 391.7 396.9 399.1 414 442.9 460.8 469.5 476.2 480.4 484.5 488.8 492.4 495.6 498.8 501.9 504.8 507.9 510.7 512.4 514.2 515.9 517.5 519.1 520.3 521.7 523.3 524.4 525.3 526.2 527.2 527.8 526.9 525 524.1 522.4 518.8 511.7 505.7 500.5 493.9 484.6 474.4 469.2 464.5 455.3 445.1 430.1 407.5 397.9 398.1 403.7 409.4 418.9 430 442.1 451.4 458.5 468.4 481.2 494.4 504.2 512.8 520 524.5 527.9 529.6 531.1 533.2 535.9 541.3 548.3 555.2 562.4 571.1 576.1 580.7 584.8 587.9 589.3 589.5 588.3 586.4 584.1 579.7 574.2 567.6 561.7 556.2 549.7 545.8 543 540.1 536.8 532.7 527.5 525 526.1 526 526.5 526.9 526.4 526.5 529.9 534 535.4 536.7 539.9 543.5 548.6 552.2 555.7 559.6 563.7 566.3 569.4 570.9 571 570.7 568.6 565.9 564.6 563.1 560.6 558.2 556.9 556.3 556.6 555.8 554.4 552.8 550.1 546.2 543.3 540.4 540.7 543.5 547.3 550.2 551.5 553.4 548.1 543.8 542.2 540.4 537.2 532.7 528.1 523.3 519.4 516.5 513.8 510.8 507.1 505.1 508.2 509.3 509.8 508.7 509.6 511.8 510.8 509.8 506.9 501.9 491.8 485.2 475 469.5 467.6 467.3 467.9 471.5 475.9 481.8 488.8 496.2 501.9 507.7 515.3 521.3 524 526.1
404.3 403.7 399.4 393.3 388.5 366.7 345.5 329.4 317.3 313.9 318.2 327.5 338.8 349.7 364.1 372 377.5 380.9 388.2 397 410.2 433.9 453 464.9 472.5 478 481.8 485.5 489 492.3 495.5 498.4 501.3 504.1 506.7 509.1 510.8 512.5 514.1 515.8 517.3 518.9 520.5 522.3 524.1 525.3 526.8 528.2 530.1 529.4 527.5 526.4 523.2 519.1 512.7 505.7 499.1 493.9 486.7 475.5 465.9 458.4 450.4 442 426.9 409.1 396.7 400.1 414.1 421.1 432.4 446.8 459 468.7 478.8 490 499.5 509.3 518.8 527.3 533 537.3 538.6 537.5 537.2 539.4 541.5 547.6 553 557.2 563.6 572.6 579.5 584.6 586.7 588 587.6 587.2 585.6 584.4 580.8 577.4 573.2 567.1 561.5 556.2 549.8 546.8 544.6 542.8 540.3 537.5 533.8 530.3 525.7 520.3 521.2 520.1 522 520.8 525.7 527.1 531 536.7 541 545.2 550.2 555.2 558.8 562.7 568.4 570.6 571.4 571.7 571.5 568.8 566 563.3 561.5 559.4 556.9 555.1 555 554.6 554.5 554.3 554 552.8 550.8 546 542.3 538.7 538.8 543.1 546.1 549.2 553.4 556.3 548.5 545.1 543 541.8 537.7 533.3 528.6 524.1 519.3 515.7 512.5 509.4 506.4 501.3 504.1 505.6 506.3 505.5 505.2 508.9 507.6 502.9 496.5 490.2 485.3 478.2 473 468.3 466.7 465.7 465.5 469.6 474.2 479.6 486.6 494 500.4 507.8 514.8 520 522.4 524.4
400.7 399.2 393.6 391.4 383.8 362.2 342.5 326.6 315 314.3 323.2 335.1 344.9 362.1 378.5 391.3 399.8 408 415.8 427.3 440.6 452.8 461.4 468.8 475 479.6 482.6 485.8 489.2 492.4 495.5 498.3 500.8 503.6 505.8 507.7 509.3 510.9 512.5 513.8 515.2 516.6 518.4 520.1 522 524.2 526.4 528.7 530.4 530.3 529.2 526.5 523 519.1 514.3 507.1 500.7 493.6 486.9 473.6 463.6 457 448.4 435.6 422.6 401.6 396.1 407.8 420.3 429 442.3 460.2 474 484.1 493.6 502.2 507.6 516.6 527.1 536.1 543.5 547.6 546.2 543.3 543.4 544 546.3 551.1 553.3 556.1 561.1 568.4 577.3 581.4 581.8 584.9 584 579.7 579.9 579.1 579.6 575.7 571.2 564.8 559.8 555.7 551.7 549 547.4 546.5 544.5 541.1 537.4 533.9 530.4 528 522 515.7 517.7 517.2 523.1 523.9 529.5 535.3 539.9 545.4 552.4 559.1 561.7 566.6 570.7 572.9 573.4 571.6 569 566 563.1 559.9 557.8 555.7 553.3 552.5 552.2 552.2 552.5 553 553.2 552.5 551.2 547.3 541.7 537.1 536.7 540.5 545.6 550.1 554.7 555.3 549.1 546 544 542.2 538.9 534.8 530.5 525.9 520.6 516.1 511.8 507.5 504.8 501.1 499.8 501.8 502.7 501.7 500.5 500.3 497.8 493 487.3 481.3 475.7 472.5 469.4 467.7 466.7 466.4 463.8 465.6 472.1 477.1 483.9 491.2 499 506.4 513 517.8 520.6 522.4
395 389.2 386.7 381.1 369.6 355.5 339 324.7 314.7 316.7 328 339.1 350.3 373.2 396.3 414.2 422.6 431.5 439.7 448.2 454.4 460.5 466.9 472.8 477.4 480.5 482.9 486 489.3 492.6 495.5 498.4 501 503.3 505.3 506.5 507.9 508.8 509.6 511.1 512.8 514.4 516.2 518 520.7 523 525.4 527.8 530.2 530.9 529 526.1 523.1 520.9 516 509.3 504.1 496.6 490.3 478.8 464.3 453 438.8 423.9 409.1 394.4 394.8 414.4 426.4 436.7 449.7 467.8 483 495.1 505.1 508.1 512.9 520.7 530.8 540.1 545.4 547 544.9 542.7 543.6 544.2 545.9 549.4 551.4 553.9 560.1 563.6 568.3 570.9 575.5 577.7 576.4 573.4 572.8 573 574.3 571.9 567.7 564 560.5 557.8 556.3 554.7 552.6 550.3 547 543 538.6 534.9 531.9 528.7 525 519.6 511.8 512 518.9 521.7 525.6 532.1 538.6 545.9 552.7 558.2 564.4 568.7 572.1 573.7 570.9 567.9 564.8 561.9 558.8 556.4 554.2 551.9 550.2 548.8 548.8 549 550.3 551.4 552.2 552.1 551.3 548.1 542.7 537.1 534.1 539.9 546.1 550.9 553.8 555.6 550.3 547 545.6 543.9 540.5 535.7 531.1 526.3 521.8 517.3 511.5 506.2 502.7 499.7 495.6 497.8 499.5 499.3 498.2 495.8 491.3 484.8 478.6 474.4 471.9 470.8 469.3 468.6 468.8 468.7 463.4 460.9 469 474.5 481.4 489.8 497.7 503.9 510 515.7 518.3 519.9
387.5 384.5 382.2 376.2 365.8 353.8 340.2 326.7 315.6 317.2 326.8 338.1 354.2 374.6 402.2 424.4 434.6 440.2 446.8 452.7 458.4 464.5 470 474.7 478.1 481 483.3 486.2 489.6 492.7 495.6 498.4 501.3 503.3 504.5 505.1 506 505.6 505.3 506.6 508.7 511.3 513.6 516.7 519.8 522.4 524.5 526.6 528.9 530.4 528.7 525.9 524.1 522.4 518.9 513.2 506.6 500.5 491.4 479.7 463 445.4 436.5 415.4 397.6 394.4 407.3 420.9 433.4 444.4 454.5 473.4 489.9 501.7 513.3 517.8 521.6 525.3 534.7 540.9 543.3 545.2 540.8 540.6 541.3 541.8 544.5 547.1 549.7 553.8 556.9 559.8 562.7 565 567.5 568.1 568.4 570.2 570.9 571.4 571.4 570 568.3 566.6 564.6 562.4 561.3 559.3 556.5 552.9 548.9 543.9 539.4 536.1 532.8 529 525.2 521.2 515.5 505.3 512.6 512.6 521.3 531 540.3 548.1 554.9 560.9 565.4 569.3 570.8 569.1 565.9 563.2 560.2 557.6 555.1 553 550.8 548.9 546.8 545.4 545.5 546.6 548 549.9 550.8 551 549.8 548 543.3 537.4 532 538.6 544.3 551.2 551.9 552.1 549.6 547.8 545.3 544.5 541 535.4 530.9 525 519.7 516.3 510.3 504.6 501 498 495.9 493.8 496.5 496.8 496.6 494.6 490.1 485 480.1 476.1 475.5 473.9 471.9 470.8 471.5 471.1 465.1 454.3 464.7 471.6 479.9 487.9 495.2 501 506.6 511.2 514.5 515.3
381.5 382.1 383.6 378.5 370.4 356.9 342.9 327.2 313.7 316.6 322 335.8 356.8 380.9 405.2 424.5 434.9 439.6 446.9 452.8 460.9 466.5 471.3 475.4 478.5 481.5 484 486.9 490 492.9 495.6 498.4 501.3 503.4 503.9 504.1 502.6 501.5 501 502.7 505.7 508.8 512.4 516.3 519.3 521.4 523.4 525.4 528 529.3 526.9 525.8 524.1 522.3 519 512.6 505.4 497.3 488.7 477.3 458.2 441.9 427.8 407.8 392.2 399.5 411.6 425.9 444.7 449.4 453.8 474.2 492.7 498.1 508.1 516.3 520.7 526.3 534.1 538.3 539.6 539.1 537.2 537.7 538.1 537.9 541 544 546.7 548.8 552 555.1 556.9 558.8 561.5 563.1 565.5 568.1 570.2 570.7 572 573 572.8 571.4 569.8 567.3 565 561.9 559 555.2 550.8 546.4 542.5 538.1 533.7 529 524.6 520.9 517.3 509.4 500.9 503.4 516.7 531.1 541.9 550.4 556.9 561 564.3 565.4 565.2 563.1 560.1 558.2 556.8 554.5 551.8 550.3 548.4 546.3 543.6 542 541.7 542.4 544.9 547.6 548.6 548.4 548 547.7 544.1 538.5 530.5 533.3 542 548.1 548.1 549.6 549.2 546.9 543.4 543.1 540.1 535.5 529.6 523.3 516.9 512.8 508.4 502.8 498.1 496.8 493.9 490.8 494.5 495.9 496 495 492.8 489.6 486.3 482.4 480.4 478.3 475.4 474 473 470 463.8 450.7 457.3 467.8 476.3 484.5 491.9 498.3 504.4 508.6 509.6 509.9
371.4 377.3 378.9 376.6 366.8 353.4 337.4 321.2 312.3 316.4 326.5 344.4 365.9 385.6 407.8 420 433.6 441.3 447.3 453.5 460.5 466.2 469.9 475.7 479.6 482 484.6 487.3 490.3 493.1 495.8 498.5 501.3 502.5 503 501.9 499.7 498.4 497.2 500 503.7 507.2 510.9 514.7 517.5 519.6 520.9 524.4 526.7 527.3 523.9 523.8 522.7 520 515.4 510.3 504.7 497.6 492.7 480 455.3 434.4 417.8 400.9 390.8 399.2 417.6 440.8 440.6 438.3 451.9 473.3 484.6 494.6 504.3 512.7 520.6 525.7 528.5 531.1 533.5 535.5 534.8 534.7 534.3 534.2 535 537.4 540.3 542.5 547 549.6 552.5 555.9 558.2 560.7 565.2 568.6 570.3 572.1 574.3 576.2 577.6 575.9 573.1 571.7 569.3 565.9 563.3 559.6 556 552.6 548.3 542.6 536.9 530.5 527.3 523.1 517.4 506.8 492 498.3 514.7 529.2 542.6 550.3 556.9 559.1 559.4 559.2 558.7 556.6 555.5 554.4 553.3 551.5 550.1 548.6 546.6 543.9 541.1 539.1 538.4 539.8 541.7 544.5 545.7 545.4 544 544.6 542.6 537.7 532.2 530.1 538.2 542.9 545.9 549.5 550.5 544.9 538.9 539.5 536.5 532.6 525.5 519.4 512.4 508 504.3 501.7 495.6 495.2 490.6 493.1 492.9 494 494.9 494.8 493.5 491.1 488.4 485.5 483.1 480.2 477.7 475.7 472.3 467.9 459.7 443.5 452.1 463.1 472.6 480.6 488.3 495.2 500.5 503.2 504.6 505.3
351.2 355.8 364.2 366.5 357.5 341 327.7 316 310.3 317 331.9 353.8 373.7 401.2 427.1 438.8 445.6 450.8 455.6 462 466.8 471.9 475.3 477.6 480.1 482.5 485.2 488 490.7 493.4 496 498.7 500.9 501.8 502.2 499.9 497.8 494.9 494.2 497.8 502 505.1 507.6 509.8 513.4 516.9 518.1 520.8 518.8 520.5 521.4 520.5 519.4 517.4 514.3 510.3 503.2 496.3 489.8 479.3 454.5 431.6 409.5 393.2 387.4 401.9 417.2 410.7 421.3 431.8 450.8 470.7 484.7 495.3 505.2 513.7 521 525.1 527.6 529.5 532 534.4 532.9 531.4 530.5 530.3 530.8 532 535 538.2 542.1 546 549.7 552.7 556.6 561.7 567.6 572 574.2 574.9 575 576.7 576.6 575 574.3 572.7 568.2 566 563.9 560.9 557.9 555.8 551.4 545.1 539.1 535.3 531.3 525.4 518.9 509.5 494.8 493.5 511.4 527.7 540.7 549.6 551.4 553.3 553.8 553.3 552.4 552.3 552.2 551.8 551.6 550.9 549.8 548.4 546.1 542.5 539.2 536 534.5 536.1 538.8 540.5 542.5 542.2 540.9 542.9 539.5 536 531.9 525.5 534.6 539.9 543.6 550.7 549.8 542 530.8 532 529.4 525 519.5 513.5 505.7 502.5 499.1 496.6 493.3 493.1 487.9 491.1 492 491.3 493.3 494 493.8 491.7 489.2 486.8 484.3 481.8 479.4 477.2 472.8 467.1 458.2 440.8 444.6 456.9 468.2 476.3 484.8 492.3 497.4 500.1 501.2 503.2
353.2 343.1 349.8 353.9 343.9 329.6 319.1 312.5 311.1 321.8 336.7 355.1 379 409.5 435.8 446.6 452.3 456.8 462 466.1 470.9 474.8 476.7 478.3 480.7 483.3 485.9 488.6 491.3 493.9 496.3 498.6 500.2 501.3 501 498.4 496 492.6 490.7 494.6 497.1 499 501.2 504.2 508.6 513 513.3 513.5 513.9 516.6 516.9 516.9 515.7 513.8 511.2 507.5 501.8 494.5 486.8 476 457.3 433.1 409.9 390.5 384.1 388.6 393.7 403.4 415.7 431.2 454.4 475.5 488.9 501.7 511.4 519.4 525.3 527.6 529.1 532.5 534.6 533.8 531.3 528.7 527.6 527.6 527.9 529.5 532.5 535.9 540 544.4 547.9 552 557.3 563.9 569 572.9 573.4 573.7 573.6 573.9 573.7 573.8 573 571.8 569 566.5 562.6 558.6 555.1 553.8 549.8 543.7 535.7 532.7 530 527 521.5 513.2 495.2 490.8 510.2 526.4 539.8 543.5 545.4 547.4 547.5 547.8 547.8 548.2 548.2 549.8 550.7 551 550.6 548.9 546.5 542.1 537.3 534 530.7 530.8 533.7 537.5 540.1 540.6 539.3 541.2 536 533.8 529.9 521.3 531.1 538.1 544.6 549.6 545.3 535.6 520.4 520.7 518.7 514.8 510.2 505.6 500.1 496 494.9 493.3 491.3 488.8 477.2 490 489.9 488 491.1 493.2 493.8 492.1 489.8 487.6 485.3 482.8 480.4 478 472.1 464.7 455.5 446.6 435.7 449.3 463.3 472.4 480.9 488.9 494.6 497.7 499.9 504.5
370.2 356.9 335.4 342.1 332.3 321.6 314 309.6 312.4 325.5 343.6 362.9 386.9 421.4 441.6 450.8 455.5 460.3 465.5 470.3 474 476 477.8 479.4 481.8 484.4 486.9 489.3 491.8 494.4 496.8 499.2 499.6 500.5 499.6 497 493.9 489.4 485.9 488.4 490.4 491.8 493.6 496.5 501.2 505.8 507.2 509.1 511.2 515.2 516.8 514.7 513.4 512.3 509.7 505.1 499.1 494.5 486.6 474.5 457.8 436.7 414.7 393 381.9 384.9 389.8 398.8 411.8 435.5 461.9 485.9 501.3 513.9 522.2 528.1 532 534.5 535.3 536.6 536.5 534.4 530.9 526.8 525 524.8 524.7 527 530.5 534.6 538.9 542.9 548.6 553 558.2 562.9 567 570.5 571.4 570.4 570.5 571.3 572.3 573.2 571.9 570 566.8 562.7 558.7 554 548.6 546.8 541.9 537.1 533.7 532 528.3 523.3 518.8 511.7 494.1 487.3 508.7 524.3 533.3 536.6 539.1 540.6 540.7 541.8 542.8 544.1 547 549.1 550.8 551.2 550.7 549.6 547 542.4 537.2 532 527.3 525.8 529.6 534.9 539 538.4 536.6 536.3 531.7 529.2 528.2 518.8 532 539.1 543.8 544.9 537.1 523.9 508.9 505 503.6 501.2 497.8 497.5 495.1 491.9 489.8 489.1 487.4 483.1 471.2 484.6 484.6 485.7 489.4 492.1 493.2 492.9 490.8 488.7 486.1 483.4 481.2 478.5 472 462.4 450.5 440.9 432.5 442.5 457.9 465.9 475.5 485.3 492.5 496.1 500.3 504.1
383.4 371.8 348.7 332.6 326.4 317.9 311.5 306.3 314.2 330 345.6 368.3 395.6 428.1 445.6 452.4 457 462.9 468.3 473.1 475.2 477.1 478.9 480.6 482.9 485.4 487.9 490.3 492.8 495 497.3 498.9 499.2 499.6 498.1 495.1 491.7 486.8 481.9 482.3 484.4 485.9 486.7 489.6 494.4 499 503 506 508 510.9 510.7 510.6 511.2 510.3 509.2 503.8 497.2 492.9 487.3 475.5 460.3 441.6 423.7 402.8 378.1 381.5 385.9 398 420.2 444.9 473.9 499.3 515.3 527 533.7 538.8 541.5 542.5 542.3 540.8 539.2 536.1 532.2 525.7 521.6 520.5 521.1 524.4 528.2 533.9 539.7 545.3 551.3 555.2 558.9 561.5 564.1 566.5 567.3 567.6 566.9 567.9 569.6 569 567 565.2 560.5 554.7 551.6 547.4 543.5 540.1 537.7 535.6 533.2 529.5 523.3 521.3 519 509.3 492.3 484.1 504.9 518.2 526.4 529.9 532 534.1 534.4 536.9 539.6 542.9 546 548.7 550.3 550.2 549.9 549.7 547.1 543.5 537 530.9 525.2 521.4 526.4 531.8 533.1 531.2 532 529.5 525.6 526.4 523.2 515.3 530.2 538 539.5 536.1 526.2 512.3 498.9 491 487.5 485.8 487.1 488 488.8 486.1 482.9 484.4 482.1 477.9 467.3 479.8 480.8 484.9 488.4 491.3 492.9 493 491.7 489.8 486.6 484.6 481.6 478.5 473 463.4 451.9 441.5 431 435.4 449.9 459.9 469.6 481.7 490.4 493.1 499.4 504.8
393.6 385.6 365.5 342.5 323.9 313.6 307.4 306.9 317.3 331.5 350.6 371.6 399.7 432.7 446.2 452.1 457.7 463.9 469.8 473.6 476.7 478.2 480 481.8 484 486.5 489 491.4 493.7 495.7 497.8 498.7 498.8 498.4 495.9 492.9 489.2 484.9 479 476.6 478.2 479.7 480.7 483.8 488.3 494.7 499.3 503 506.2 508.6 507.6 507.4 507.8 506.6 504.1 500.8 493.9 488.3 484.9 474.6 461.2 445.9 430.8 412.9 390.6 378.7 382.7 404 428.4 460.1 490 511.4 526.6 535.6 542.3 545.8 547.7 548.4 548.2 546.3 542.9 537.7 532 523.4 517.4 514.7 516.8 521.9 527.9 534.8 540.5 547.1 553.4 556.8 559.2 560.1 563.5 566.3 564.8 562.6 559.7 561.2 561.7 560 557.5 552.7 549.4 548.3 548.3 547.2 543.2 540.2 538.2 536 531.5 527.2 523.2 517.7 511.9 504.2 490.2 480.7 499.8 512.7 519.1 523.2 526 527 529 534.2 538.3 543.5 546.9 548.4 549.4 549.6 550 548.8 546.3 542.7 536.6 528.2 522.6 518 523.2 528.2 525.8 523.7 524.2 521.6 521.3 520.6 515.5 514.1 528.4 532.8 534.9 529.7 521.1 505 491.2 483.4 478.1 475.8 476.1 480 480.6 479.4 476.4 478 475.6 474.9 469.9 475.3 478.7 483.9 488 490.7 492.6 492.8 492.1 490.2 488.2 485.3 482 478.7 474.4 467.4 456.7 443.3 430.7 429.7 439.4 454.1 464.1 473.2 481.4 488.3 494.7 500.2
405.7 395.8 375.2 353 334.9 318.6 308.9 309.3 318.8 334.4 354.2 376.1 408 434.5 444.3 446.2 454.2 463 470 474.3 477.5 479.3 481 482.7 485 487.6 490.1 492.3 494.3 495.8 496.5 497.1 497.2 495.4 492.9 489.8 485.9 481.6 475 470.9 471.7 473.6 475.8 479.1 484.7 490.4 494.7 497.8 501.5 503.6 504.4 504.7 504.3 503 500.2 495.3 490 484 479.7 473.8 459.9 446.1 430.8 414.2 396.5 382.3 380.5 407.5 437.1 472.3 494.1 515.7 529.3 538.5 545.1 549.1 551.3 554.5 554.5 552.3 546.6 538.5 531.4 521.2 512 508.6 514.9 522.3 528.4 534.4 541 547.2 552.6 557.1 557.4 558.8 561.1 560.3 558.8 552.7 549.7 549.2 548.2 548.3 548.5 547 546.4 546.3 545.3 544.1 540 537.1 535.6 533.6 528.5 524 517.3 512.9 509.3 498.8 484.9 476 495.8 507 514.1 517.5 518.4 521.8 527.5 532.9 538.6 543.6 546.1 547.9 549.1 550.1 548.3 546.5 544.8 540.8 533.9 526.5 519.8 513 519.8 522.2 518.2 516 513.4 515.2 515.9 513 502.1 516.7 523.9 529.7 533 525.7 513.6 499.2 486 477 471.7 467.2 468.5 470.9 472.6 472 471.3 472.2 471.5 471 464.9 471.4 477.4 482.9 487.3 490.2 492.4 492.8 492.5 491.1 489.2 486.4 482.9 480.4 475.5 469.6 459.9 442.2 429.5 423 430.3 446.3 457.5 465 472.8 481.2 487.4 491.4
411.4 400.8 378.7 357.3 336 318 306.9 311.6 317.4 333 356 386.4 416.4 428.4 428.6 423.5 453.3 463.9 471.2 475.9 478.3 478.9 480.6 482.7 485.4 488.6 491.1 492.1 493 494 494.2 494 493.8 491.9 489.5 486.3 482 477 470.5 464.9 465.7 468.4 470.9 475.3 480.6 486.1 488.4 491.3 494 495.6 497.5 498.6 498.5 497.6 495.6 490.7 485.6 479.7 474.1 471.2 460.5 446.1 430.3 413.8 395.7 379.7 383.3 411.1 440.6 470 495 516.8 530.9 539.6 545 548.6 553 556 556.3 552.6 545.9 535.1 528.2 516.6 503.9 504.1 513.3 521.2 527.9 534.3 541.1 545.6 549.5 553.3 552.5 552.3 555.2 558.6 558.5 552 545.3 542.6 543.2 544.9 544 542.1 541.7 541.7 540.4 538.6 535.5 533.2 532.1 528.2 520.3 516.3 513.4 509.7 503.3 492.5 481.2 475.3 494.9 504.7 508.6 510.6 514.5 520.8 527.4 532.8 538.1 540.7 544.7 545.7 547.3 548.4 546.7 544.7 542.8 539.2 534 524.8 517.6 508.7 516.3 512.3 510.3 506.7 508.5 509.8 510.6 505.9 503.3 515.1 521.9 527.6 529.1 520.6 507.7 493.6 481.6 470.9 465.2 460.1 457.8 460.4 463.6 465.6 467.9 469.1 469.3 468.6 459.4 468.7 474.9 480.6 485.2 489.2 491.2 492.4 492.1 491.1 489.4 487 484.6 482.2 477.1 470.5 461 447.9 428.5 421.3 424.3 438.6 446.8 453.7 462.5 472.9 481 483.6
410.9 399 378.9 356.7 334.9 317.8 308.2 307.7 316.3 331 355.5 377.7 389.7 405.5 392.8 419.5 451.7 463.8 470.9 475 476.8 477.8 479.1 481.1 484.4 487.1 488.6 489.5 490.3 491.1 490.8 490.4 490 488.2 485.9 482 477.7 472.4 466.5 461.5 460.5 462.6 465.9 469.9 474.6 479 481.1 482.5 485.3 486.3 488.2 489.4 490.5 491.1 489.4 486.1 481.6 477.3 469.8 465.7 458.7 446.1 429.4 410.7 391.1 372.5 389.3 413.8 436.9 466.4 498.5 517 528.5 536.8 540.1 545.3 550 552.7 552.5 548.6 539 529.7 524.1 511 494.8 498.9 510.7 519.5 525.7 532.1 537.8 540.7 545.4 548.6 548.3 549.3 552.5 554.9 553.3 547.4 541.3 538.6 538.2 537.2 537 536.2 535.5 536 535.1 535 529.7 527.2 525.4 520.8 517.8 513.5 508.8 502.7 496.1 485.6 476.5 476.2 494.1 499.2 502.7 507.7 514 520.3 526.8 531.7 534.8 540 542.9 543.5 545 545.3 544.2 543.6 541.7 537.9 532.4 522.8 514.1 501.7 504.8 502.7 501.3 501.3 503.2 504.6 505.1 498.9 501.7 513 521.4 527 525 515.9 501.4 488 477.7 467.7 459 454.6 450.4 453.5 456.7 461.7 464.1 465.1 465.3 463.1 458.7 466 471.5 477.9 483.3 487.3 489.9 491.2 491.5 490.7 490 488.5 487.5 483.8 478.8 472.7 464 452.1 434.4 419.4 418.2 424.8 434.6 444.1 454.8 460.1 464.8 464.7
405.6 392.5 375 353.4 332.5 318.4 309.5 304.5 311.4 319.1 327.2 343 355.4 367.2 379.8 416.9 450.8 461.7 467.4 471 472.8 474.1 476.7 479.1 481.4 483.4 485.1 486.3 487.1 488 488.3 487.5 486.8 484.8 482.4 479.1 475.2 470.9 465.7 460.2 454.4 456 463.1 467.4 469.9 473.2 475.4 475.1 477 477.5 478.5 480.3 482.6 483.6 483.9 481.3 477.9 473.5 466.2 460.8 455.2 443.8 425.2 405.3 385 369.4 390.8 412.5 437.6 475.2 495.4 509.7 519.9 527 535 541.8 545.9 548.9 548.5 544.5 535.4 526.6 520.6 501.7 480.6 490.5 505.8 515.6 523.4 529.7 535.6 537.8 542.1 543.6 544.2 544.8 545.7 545.7 543.4 538.3 534 531.6 529.7 531.4 532.2 530.7 530.9 530.8 527.3 526.1 524.5 522.8 520.7 517.5 513.1 508.1 502.9 497.3 488.5 477.7 471.2 479.8 488.8 496.3 502.9 506.9 512.8 519.4 524.7 527.7 534.8 539.4 540.2 540.9 542.4 543 543 543.3 540.9 535.5 529.2 519.5 509.6 502.8 495.7 497.1 496 493.5 495.7 498.3 493.6 486.9 503.9 513.7 521.8 522.8 520.8 508.3 494 484 475.3 464.6 455.2 449.7 445.6 445.7 451 456.5 459.4 461.3 461.3 457.7 459.1 462.3 467.8 474.3 481.1 485.4 487.6 489.3 490.3 490.7 490.7 491.6 489.6 485.6 480.5 473.7 464.9 450.2 436.6 421.2 414.3 415.9 423.1 434.6 441.5 445.8 452 458.1
400.6 387.4 369.5 349 331.6 320.3 312.8 307.5 302.7 309 316.5 325.2 337.9 350.2 371.6 410.4 443.1 452 459.7 463.1 464.5 468.2 473.4 476.7 478.8 480.4 481.7 483 484.1 485 485.7 485.1 484.4 483.2 480.7 477.5 474.1 468.2 462 457 451.1 450.5 454.6 458.7 460.9 463.6 466.5 465.2 466 466.1 467.4 471.8 476.1 477.1 478 477.9 473.3 468.9 464.7 456.7 450.6 440 423.3 402.1 379.4 371.5 391 413.5 444 473.7 491.6 503.1 513.5 521.6 529.9 534.6 538.1 539.9 538.2 535 528.1 521.7 510.1 487.9 470.4 478.6 498.7 511.9 520 525.5 529.6 533.7 537.9 540.8 542 542.2 542 540.5 536.5 532.8 529.3 527.3 523.6 522.7 521.8 521.9 523.1 524.1 524.5 522.8 520.7 518.7 516.7 514.2 509.9 504.6 499.2 493.3 482.2 472.7 470 479.6 488.5 496.3 500.6 506 510.3 515.9 520.4 527.6 533 535.3 537.4 540.2 541.8 542.1 541.8 541.9 538.9 534.9 527.4 515.5 506.3 500.7 494.7 491.4 487.8 486 486.6 483.6 478.1 494.9 506.8 515.3 517.5 517.1 515.7 500.5 486.6 478.3 471.7 462.1 453.2 446.2 441.5 438.9 444.5 450.1 454 456.9 457.9 453.1 453.1 458.8 464.5 470.6 477.4 482 485 487.5 488.9 491.2 491.8 492.3 491.3 486.3 480.7 474.4 466.1 455.2 440.8 425.3 411.5 407.4 412.3 419.9 433.3 440.3 447.7 454
395.2 384.4 370.5 350.3 336.3 328.2 320 311.6 306.9 301 308 315.3 326 338.9 357.3 393 415.3 431.3 440 445.1 450.6 459.9 468.1 473.3 475.9 477.5 478.7 479.5 481 481.9 482.6 482.7 482 480.6 477.9 475 471.7 466.5 459.7 451.4 447.9 444.7 446.7 450.9 456.1 458.5 460.2 458.5 458.2 456.5 457.5 465.7 469.1 470.5 471.5 471.4 469.6 466.3 461.2 453.6 446.1 432.9 415.3 394.5 371.4 372 390.8 416 446.1 471.1 485.4 495.6 506.6 515 521.1 526.4 527.9 528.5 529.6 526.6 520 514.8 500.3 474.7 457.1 469.4 491 505.3 513.3 520.3 526.3 531.2 535.6 537 536.5 535.6 535.7 532.1 530 526.7 524.4 522.3 519.6 518.3 518.5 518.6 520.5 521 520.5 519 516.9 516.1 515 512.4 508.3 502.5 496.4 488 476.3 469.4 470.3 479.8 488.1 493.7 500 505 509 513.4 519.9 524.9 528.2 531.5 535.8 539.3 541.2 541.2 540.2 539.2 536.5 534.1 526.8 515.9 506.6 502.3 498.5 489.3 480 478.1 476.1 472.2 483.1 496.8 506.6 507 509.2 512.6 505.9 489.5 477.4 472.8 468.1 459.5 451 443.4 436.9 431.5 438.1 443.7 446.7 450.6 453.2 453.2 449.3 455.2 459.6 466.7 474 478.3 481.7 485.3 487.6 489.4 490.5 492.2 492 487.4 482.2 474.2 465.9 456.8 444.7 428.2 413.4 404.8 405.9 412.8 428.7 437.5 445.4 454
395.9 387.2 374.4 362.7 350.7 338.6 326.4 317 309.1 305.7 303.1 308.8 314.8 327.2 341.3 361.8 377.3 394.7 410 420.1 432.1 446.5 460.8 469.2 472.2 474.1 475.3 475.6 477 478 478.9 479.2 478.4 476.8 474.2 473.3 470.4 466.6 461.1 455.7 451.6 445.8 440 443.7 450.6 452 452.6 451.2 450.4 447 447.6 456.3 461.3 460.6 462 463.7 464.6 463.5 458.9 449.2 441.5 425.4 406.4 385 366.5 369.6 391.7 417.2 446.8 469.5 482.4 492.6 500 507.7 513 517.3 519.2 522.2 522.2 517.1 512.3 497.4 481 461.2 445 461.8 484.5 500.5 509.8 516.3 520.9 525.8 528.8 529.7 529.9 529.7 529 527.9 526 523.9 521.6 518.8 515.8 513 514.1 516 516.7 516.4 515.5 515.1 514.3 514.6 514.1 511.8 507.7 501.8 494.5 484 472.5 467.2 469.9 478.1 485.6 491.6 497.7 502.7 507.5 512.7 517.2 521.3 525.7 530.8 536 538.7 540.7 540.5 539 537.4 536.2 533.3 525.9 519.7 511 507.3 501.4 491.7 476.7 474.5 467.7 468.1 478.5 484.1 489.4 498.2 502.4 503.7 491.4 479.4 469.4 467.3 463.6 456.5 448.8 440.8 433.7 427.2 429.8 433.8 439.1 443.7 447.9 428.3 448.2 451.8 455.3 462.2 469.2 473.8 478.2 482 483.9 486.4 488.4 489.7 488.2 486.4 480.8 472.8 466.1 457.5 446.7 434.8 419.6 406 400.8 408.8 424.7 434.8 445.1 456.1
407.6 401.6 392.9 382 369.2 352.5 336.4 323.4 313.8 307.9 303.5 300.5 307.4 316.1 329.3 343 355.9 369.4 381.9 398.3 420.9 439 455 464.8 468.4 470.3 471 470.8 472.1 473.3 473.5 473.9 474 472.8 470.8 470.1 468.7 465.9 462.4 458.6 455.6 450 441.1 435.5 440.3 442.2 443 442.2 440.6 438.7 437.6 442.5 449.4 447.7 451 453.1 454.8 456.2 454.4 446.1 435.4 418.3 399.2 378.9 362.2 371.1 394.4 420.5 445.9 469.4 480.7 489 497.3 504.1 511.4 515.4 518.6 520.1 519.1 515.9 510.2 488.1 462.1 445.7 440 457.5 480.8 497.3 504.6 511.5 519.5 523.6 524.9 525.5 525 523.3 523.5 523 521.6 518.9 516.5 514 511.7 509.5 511.4 512.8 514.3 514.4 513.4 512.7 513.1 513.4 512.6 510.4 506.8 501 492.9 482.1 472.3 465.8 470 479 488.2 494 498.4 502.5 508.1 512.8 518 521.9 526.2 532.5 536.9 539.1 540 540.5 538.5 538.8 536.9 531 526.5 523.5 517.6 512.8 506.3 498.3 482.9 467.5 458.5 462.1 456.9 464.8 472.9 485.4 495 485.1 479 470.6 460.8 460.4 459.2 453.7 447 438.8 430 423.4 422.2 426 431.8 436 428.5 431.7 448.6 447.2 451.7 458 463.9 469.4 473.2 478 480 483 483.7 483.7 484.8 485 480.4 473.7 467.1 459.5 451.3 440.4 422.9 409.1 398.3 402.9 417.2 432.9 446.1 456.5
416.8 412.1 405.4 395.6 384.6 370.2 349.8 332 320.7 313 307.3 302.1 298.1 308.2 317.7 327.3 337.2 345.9 362.5 386.4 413.1 435.6 452.3 461.5 464.6 465.6 466.2 464.8 465 466.4 467.1 468.5 469.1 468.7 466.8 466.6 465.2 463 463.8 462.6 460.5 454.5 445.8 432.4 434.1 431.8 431.8 429.3 427.2 426.9 426.7 427.2 432.6 432.6 437.1 438.1 442 445.4 444.1 438.8 429.2 412.3 392.5 372.9 358.8 371.7 396.3 423.2 452.3 473.7 481.1 489.3 497.2 504.2 509.3 511.9 514.1 513.3 511.2 506.2 501.1 481.4 452.6 431.1 438.7 457 476.7 490.2 502.2 509.7 514.7 515.6 516.4 516.5 516.6 516 516.8 516.5 514.7 514 512.4 510.3 507.9 507.2 508.5 510.3 512.4 512.6 512.7 512.2 511.7 512 510.8 507.1 501.3 495.3 488.2 478.8 471.8 464.2 467.7 477.9 487.6 491.7 496.1 504.8 510 513.9 518.7 524.1 530.4 534.9 537.3 539 539.8 538.9 538.5 540.8 540.6 535.4 531.3 527.9 524.8 519.8 515 507.6 494.4 468 449.3 443.4 444.8 446.6 455.3 466.5 467.3 468.6 468.4 456.7 453.3 453.4 454.1 450.2 443.8 436.2 426.3 418.9 415.7 419 425.3 429.5 429.6 443.3 443.9 441 446.7 452 457.8 464.4 468.4 471.5 474.1 475.7 479 480.8 481.9 481.1 476.7 472.7 468.5 463.7 456.3 447.6 433.2 413.7 401.9 393.7 411.6 430.5 446.7 460.7
421.2 416.2 411.6 404 393.6 380.5 362.8 341.3 327.7 318.3 309.7 304.4 301.8 302.8 311.1 316.7 325.3 340.5 360.8 384.3 409.4 435.7 452 457.1 457.9 458.4 457.6 455.6 455.2 457.6 458.7 459.1 461.1 462.7 460.7 459.8 460.6 463 463.9 463.9 460.9 456.4 448.9 438.7 426.2 422.9 421.4 417.2 414.1 414 414.4 414.8 415.1 416.7 420 423.3 427.2 433.7 434.6 432.6 422.4 407.6 388.9 367.8 353.3 372.8 398.1 427.4 458.5 473.8 481.3 488.8 497 502.3 505.5 507.1 509 506.7 503.2 499 484.2 469.7 444.5 425.5 438.3 455.9 477.5 491 497.2 501.6 502.9 504.4 505.5 506.5 507.4 508.6 510 509.7 509.5 509.1 508.4 507.1 505.2 504.3 507.1 509.7 511.5 512.2 512.2 510.7 510.3 509.1 506.2 502.4 497.6 490.7 482.3 476 471.7 464.1 466.6 474.4 481.4 486.1 498.9 505.2 510.2 515.6 521.3 527.3 531.1 534.5 537.3 538.5 538.3 538.7 538.9 541.6 542.5 537.2 533.5 531.2 530.2 525.3 521.6 510.5 499.1 473.7 444.3 430.1 429.6 431.3 434.1 436.1 443 456.2 449.3 450.4 448.8 446.8 448.2 446.1 441.4 435.1 426.5 417.8 410 412.7 415.7 407.5 432.3 436.3 433.3 435.1 439.8 444.7 451.4 459.4 461.5 463.9 467.8 470.4 473.5 475.6 475.6 475.6 473.6 470.6 467.5 464.6 460.2 453.6 438.2 416.7 399.3 392.3 407.5 428.5 451.6 464.7
426 419.9 416.3 411.5 401.5 386.2 365.3 346.6 334.1 322.2 313.1 305.5 302 298.3 303.7 312.1 322.9 340.6 360.4 383.6 405.4 430.5 444.6 445.8 445.5 446.4 441.1 442.2 444.3 446 446.9 448 451.1 453.4 452.8 454.9 459.7 464.2 465.2 465.5 462.5 456.8 449.3 436.3 434.8 432.5 428.3 424.3 419.5 414.8 409.5 404.4 404.1 405.1 409 413.5 416.4 422.2 426.6 426.9 418.3 399.4 380.4 358.7 350 375 400 432.1 462.5 473.3 480.1 487 495 498.9 501.3 502.8 503.9 502.1 499.1 496.3 487.1 461.1 433.9 420.2 434.5 453.2 472.9 483 487.9 491.2 493.6 494.7 497 499 500.8 502.8 504.1 505 505.4 505.9 505.7 504.5 503 501.6 505.4 508.9 510.8 511.5 511.3 510 508.5 507.5 505.3 503 499.5 494.4 487.5 479.9 473.3 461.8 464.4 466.3 472.8 485.2 498.8 506.5 512.5 518.1 523.4 527.4 531.4 534.6 535.8 535.4 536.7 538.8 538.9 544 541.5 537.9 533.8 533.8 532.1 528.1 521 512.8 497.5 473.9 446.7 425.9 420 418.3 414.7 417.8 427.7 433.9 439.7 446.7 442.7 438.3 440.2 439.8 436.6 431.4 424.9 417.5 409 401.5 397.2 417.6 425.5 427.1 422.6 428.9 431.6 436 446.5 451.5 453.3 457.2 461.1 464.4 466.6 467.7 467.8 469 467.7 467.5 468.1 466.6 464.6 459.4 445.2 421.6 397.8 388.4 400.9 418.1 441.8 460.4
433.4 429.1 422.3 417.3 409.2 398.3 376.5 355.7 344.2 332.2 319.7 308.3 302.6 297.8 295.6 307.7 317.3 339.4 362.9 383 407.6 424.7 429.4 424.6 427.2 421.7 417.8 422.6 427.4 428 430.9 435.1 440.7 441.4 449.9 456 462.5 466.2 468.3 468 464.9 461.5 449.8 448.8 448 446.9 443.9 438.8 433.1 426.4 418.7 412.9 406.1 400.6 396.4 397.1 400.7 405.8 412.7 418.5 417.3 401.9 376.8 355.3 355.4 377.8 401.8 435.3 459.1 470.4 478.3 483.7 490.6 495.3 496.7 497.8 498.7 497.5 494.4 490.2 481.9 460.1 429.2 415.9 429.4 447.8 462.4 470.4 477.2 480.8 484.2 487.3 489.7 492.1 496.5 499.5 501.4 503.2 503.6 503.8 502.6 501.1 499.2 500.7 504.2 507.6 508.4 509 508.2 507.3 508.1 507.9 506.8 506.5 505.1 501.5 495.6 487.7 477.2 459.5 456.5 459.4 470.9 485.6 499.2 506.8 514.3 519.6 523.6 526.8 529.6 532.3 532.8 534.9 536.5 536.9 540.4 544.6 544.3 538.7 539.7 535 532.9 530.1 522.2 519.7 505.9 472.3 451.8 432.1 410.1 409 408 408.2 412.8 420.1 431.5 440.4 436.3 429 429.8 430.4 427.6 424.3 419.4 413.6 408.1 400.3 398 408.4 417 413.7 415.8 418 423 429.6 438.6 443.1 445.4 449.2 452.2 454.9 456.8 457.2 459.3 461.3 464.4 466.5 469.4 471 470.4 466.4 451.2 423.9 396.3 381.6 388.2 399 420.1 442.1
434 431.5 426.7 421.7 415.6 409.6 397 379.4 362.6 346.3 329.3 315 304.6 300 298.1 303.2 317.3 337.8 358.8 380.6 396.6 403.2 403.7 401.4 401.7 399.4 399.6 402.1 406.1 409.9 413.9 417.7 433.6 447.8 457.3 461.6 465.7 468 470.5 470.4 467.7 464.6 460.9 462.2 464.5 464.5 462.8 459 452.7 445.1 438.3 429.5 422.3 414.7 407.6 400.2 390.7 383.1 388.7 405.7 408.7 393.9 371 351.7 358.6 377.1 400.7 430.8 450.5 463.7 472.8 478.7 484.9 490 491.9 492.9 493.6 492.4 489.3 483.8 474.4 451.9 427.4 409.4 424.1 438.8 450.3 459.5 466.5 470.4 474.8 480.1 482.6 487.4 493.7 497.5 499.9 500.8 500.7 500.4 499.6 498 496.1 497.4 501.1 503.1 504.1 505.9 506.2 506.2 507.7 508.5 510.1 510.4 508.6 505.6 502.3 496.4 481.3 459.3 452.5 456.4 468.2 485.2 497.9 507 513.2 518.5 521.3 524.6 527.1 528.9 531.5 533.7 536.5 537.5 540.8 544.3 541.7 542.3 541.6 539.1 535.7 528.7 524.8 522.1 513.3 482.9 455.6 436.4 417.8 403.6 401.8 401 404.4 413 424.4 434.1 428.1 418.8 417.6 418.5 417.4 415.2 411.3 408 403.3 399.5 389.5 400.6 405.5 400.6 405.2 407.2 411.4 419.9 425.7 432.7 435.9 439 442.1 444 446.1 448.7 451.7 456.3 461.9 466.7 470.6 473.4 473 469.7 455.5 427.9 402.6 387.3 373.2 384.6 402.5 417.9
433.5 431.1 428 425.5 421.3 415.9 407.3 397.3 381.1 360.2 336 315.8 304.9 299 296.8 298.2 313.1 334.7 350.9 368.6 380 384.6 382.3 379.1 378.2 379.3 381.7 385.8 388.8 391.4 405.1 423.4 438.5 453.3 463 466 468.4 470.3 472.5 474 472 469.2 468.7 471 473.3 474.6 474.5 474 471.5 464.1 456.4 446.3 443.6 436.6 428.2 416.9 406 389.9 365.5 381.4 387.8 375.8 355.5 345.2 357 369.7 392.7 415.4 437.5 457.1 465.9 472.6 478.8 483.3 486.4 487.6 487.9 486.8 483.4 476.8 467.7 448 422.9 402.8 417.2 428.7 437.3 447.4 455.1 459.4 465 471.1 477.9 486.2 489.9 493.1 495 496.4 497.1 496.4 495.8 494.6 486.1 493.4 495.3 498.1 501.3 502.5 504.4 506.3 509.1 511.5 512 511.5 510.2 508.9 505.3 498.9 482 463.9 451.8 452.1 460.6 481.4 497.4 506.7 511.2 513.8 516.7 519.3 522.6 526 530.4 533.1 535.8 538.4 540.7 541.4 542.3 544.1 542.1 540.8 534.6 528.3 523.9 520.7 518.1 506.3 469.4 437.4 421.3 409 402.3 398.7 399.3 405.1 414.3 420.4 414.2 406.1 404.2 405.2 405.7 404.8 404 403 400.6 396.7 383.4 390.7 396.7 391.3 394.6 398.8 401.9 405.6 413.2 421.2 425.3 428.8 431.9 433.7 436.7 441.8 448.8 456.1 462.1 467.1 470.9 472.6 471.7 467.3 456.6 429.7 407.8 391.8 371.8 371.7 379.5 392.5
432.2 428.9 427.4 426.8 424.1 419.4 411.4 404.5 390.4 364.9 333.1 314 302.5 297.5 296.8 297.1 313.7 330 342.9 355.8 364.1 363.9 361.8 358.9 361.1 363.6 368.4 374.4 391.5 408.9 425.2 442.1 453.1 460.2 466.6 470.7 473.1 474.1 475 475.7 475.7 474.5 474.8 476.9 478.6 479.5 479.7 479.5 478.2 475.3 469.1 464.5 458.8 454.3 447.5 436.6 424.1 409.7 381.6 357.1 365.8 358.7 345.5 346.7 353.1 362.6 378.2 398.9 421.1 445.3 458.8 466.9 473.1 477.1 479.5 481.9 482.2 480.2 476.3 469.6 460.7 446.2 418.9 396.9 406.9 416.7 424.4 433.8 441.8 445.3 458 468.3 474.2 480 483.5 485.9 488.4 489.7 490.7 490.6 490.1 488.8 482.4 488 490.4 493.5 496.8 501.8 506.2 508.4 510.7 512.8 512.8 512.8 512.4 510 506 498.4 487.6 470.7 457.3 446.3 456.9 478.4 494.8 504.3 508.8 508.2 509.4 513.7 519 524.7 530.3 533.8 535.4 540.7 540.4 542.2 544.4 543.5 542.2 538.8 532.2 528.6 523.9 519.2 513.9 505.5 484.2 446.5 427.2 414.8 405.6 399.2 396.1 400.8 404 402.6 396.6 393.4 390.8 391 393.5 395 397.5 397.5 396.3 393.1 384.6 383.1 386.3 383.3 386.5 392.9 396.8 401.7 407.1 411.5 415.5 418.8 422 425.8 433 442 449.9 455.5 460.9 464.9 467.7 468.9 468.4 465.5 456.2 433 410.3 396.2 379.4 363.3 368.2 372.9
429.4 427.7 426.2 425.7 421.7 418.5 413.9 408.2 393.1 359.1 327.5 310.4 300.5 296.6 296.1 301.2 313.7 324.4 334.5 343 347 347.8 345.3 346.8 355.1 364.3 377.4 392.4 411.3 430.7 444.9 454.7 462.1 467 470.7 473.4 475.3 476.5 478.2 479.9 480 480.1 481 483.6 485.6 485.1 485.1 484 482.1 479.9 476.4 471.8 466.6 461.6 455.2 448 439.6 427.3 402.5 372.6 354.4 350.6 345 339.9 346.8 354.6 366.1 384.5 409.3 436.2 452.3 461.2 467.4 471.5 474 475.5 475.7 473.8 468.9 463.7 455.4 440.8 414.7 389.3 393.6 401.3 411.2 419 429.3 442.6 449.6 458.5 464.7 470.8 474.7 477.7 479.5 481 481.8 482 482.6 482.1 471.9 482.3 486.9 493.3 499.9 504.3 506.8 509.5 512.1 514.3 514.7 514.6 512.6 509.2 504.6 500.1 494.6 478.5 462.1 448.7 444 470.1 490.7 500 499.1 499.9 504.8 512.7 518 524.9 530.6 533.3 535.7 538.6 539.2 541.3 543.2 541.5 539.9 533.7 531.5 526.5 521.7 520.3 511.8 500.2 486.2 458.3 436.4 423.9 413.5 403.4 395.8 395.6 395.4 388.9 385.5 382.3 381 380.5 382.9 386 388.7 389.3 391 389.6 383.1 365.1 376.2 374.3 381.2 390.5 396.3 401.2 403.3 404.3 407.6 411.2 414.3 421.3 431.8 440.3 446.4 452.1 456.2 460.4 463.6 465.3 465 463 458.3 445.8 416.7 396.5 380.1 365 359.7 362.9
426.6 426.5 425.4 421.8 418.3 416.1 413.4 406.2 380.1 345.6 320.2 305.7 298.5 296 294.8 302 310.1 317.6 326.1 331.8 335.4 337.2 347.7 360.3 371.9 385.6 401.2 415 433.9 448.6 456.4 462.1 466.6 470.7 473.4 475.9 478.3 479.9 481.7 483.4 484.2 484.8 486.4 487.8 488.3 488.6 488.1 487.6 486 483.6 480.5 476.5 471.7 468.2 461.6 452.7 445 436.4 420.2 387.8 362.6 351.4 350.2 340.5 339 347.2 357.2 377.1 400.9 430.1 446.6 456.1 462.2 466.1 468.2 469.9 470.4 466.8 462.4 457.7 449.1 433.9 410.5 384.1 382.2 385 402.8 415.8 424.9 429.6 433.8 442.3 447.6 454.7 460.2 465.3 467.8 468.6 470.1 472.2 474.8 467.1 461.1 481 490.1 497 500.8 504.7 508.4 511.3 514.3 515.8 515.8 514.8 512.1 509.2 505.5 501.4 495.5 488.8 468 453.8 433.8 457.8 483.4 484.2 488.1 495.1 505.4 514.1 520.9 527.6 530.6 532.6 536 538.6 537.5 538.5 539.8 539.1 534.4 529 527.4 522.8 519.7 513.9 508 497.7 482.5 469.5 452.2 437.4 428.3 415.9 402 388.4 384.4 381.7 377.8 376.2 373.6 370.5 373 376.4 379.6 380.6 383.1 382.1 378.3 368.3 366.2 371.7 378.3 389.1 396.4 396.9 396.8 397.3 400.5 404.2 408.1 417.1 426.8 434.7 441.4 446.6 451.6 455.8 459.1 461 461.2 458.9 455.7 447.6 424.5 402.7 384.1 369.8 355.4 357.5
425.3 424.9 421.6 417.5 414.4 412.9 408.7 388.2 357.2 331.4 311.2 299.8 295.4 295 296.1 299.8 306.6 313.7 318.8 325.3 334 350.5 365.1 381.9 396.7 411.9 424.4 436.3 448.2 457.6 463.1 467.4 470.6 473.6 476.2 478.8 481.1 483 484.6 486.3 487.5 488.4 488.7 489 489.4 489.7 489.6 488.9 488.2 485.6 482 478 474.1 470 464.8 457.7 447 437.8 427.4 405.7 382.8 361.5 349.9 342.1 334.6 340.8 351 371.8 394.9 423.8 442.5 451.6 457.1 460.4 462.7 464.3 463.7 460.9 455.9 449 438.1 422.6 402.3 381.9 375 389.8 400.4 404.1 407.3 411.5 416.4 421.1 428.1 434.1 440.1 444.2 445.9 448.6 450.6 456.5 462.2 446.8 468.7 487.5 493.6 496.9 501.2 507 511 513.4 515.4 516.1 515.9 513.1 510 508.3 504.8 502.7 497.9 485.4 466.5 451.1 424.4 433.9 451.2 477 490 498.4 508.4 516.9 523.9 528 530.3 532.4 536.2 536.2 532.6 537 538.8 533.1 528.6 526.1 524.1 520.3 516.8 510.8 504.4 495.8 483.6 477.7 463.6 457.3 444.7 427.5 407.9 394.8 387.8 382 377.5 373.2 368.6 366 364.4 366.8 371 372.2 373.6 371 368.1 361.1 354.7 366.4 373.4 384 389.2 390.5 391.1 391.9 394.8 398.3 403.1 412.9 420.9 428.6 435.1 441.1 447.2 451.9 455.5 456.6 456.5 452.6 445.4 433.8 420.7 405.8 393 377.3 360.2 353.3
423.4 420.6 416.3 412.5 410.3 407.1 392.6 365 339.2 318.3 303 296.6 295 294.7 300 308.3 310.2 313.4 321.9 334 348.9 366 385.2 404.1 420.4 434.9 442.6 450.2 455.8 459.8 465.1 469.5 472.9 476.4 478.9 481.6 483.7 485.1 486.6 488.1 489.1 490 490.2 490.5 490.7 490.3 490.1 488.8 487.6 484.4 481.2 477.5 474 469 464.1 457.7 449.5 439.3 430.8 418.4 399.6 373.9 355.4 340.7 330.7 337.6 349.4 369 391.2 419 438.2 446.7 451.4 454.4 456.4 457.4 455.6 451.2 445 434.1 420.2 406.6 390.2 375.7 370.6 380.8 387.9 391.1 393.5 396.9 398.3 405.4 411.9 417.1 421 424.6 425.3 427 431.7 435.3 436.2 448.4 478.5 489.3 494.5 498.4 504.1 507.9 510.7 513 515 516 514.2 511.7 509.3 507.5 505.3 502.5 494 470 451.9 429.6 412.2 431.5 460.6 481.4 493.8 502.8 511.7 517.9 525.9 530.1 531.6 534.1 533.5 530 528.9 534.6 534.2 528.5 525.8 524.5 520.4 514.5 508.4 507.1 500.1 495.7 490.4 479.1 469.1 465.6 447 435.3 424.6 414 399.3 391.5 384.3 379 374.8 370.3 365.4 361.6 362.3 361.6 363.5 363.3 360.4 354.3 350.8 357.1 365.9 375.2 380.1 382.8 385.6 387.1 388.1 390.7 397.3 406.3 414.1 421.8 429.4 436.8 443.2 448.5 451.3 451.7 449.6 440.4 428.7 418.7 410.1 400.1 388.4 372.4 360.9 351
419.8 415.6 410.7 406 403.3 392.2 372.1 346.4 323.3 308 298.7 294.5 294.6 293.7 300.5 305.9 316 322.9 332.7 348.5 365.3 384.9 404.1 419.9 431.5 441.9 449.8 455.9 459.1 463.6 466.9 471.1 474.5 478.2 481.6 484.4 486.7 487.7 488.9 490 490.7 491.5 491.9 492.1 491 489.5 488.8 487.3 485.4 482.5 479.2 475.1 471.6 466.3 461.5 455 448.1 439.8 431 420.4 403.5 384.5 360.2 341.7 332.9 334.5 347 367 389.8 417.1 433.9 441.5 446.6 448.7 449.1 446.8 442.7 437 426.9 414.5 401.6 388.5 376 367.8 368.7 375.4 377.9 378.4 377.6 387 387.9 393.9 395.4 400.7 404.9 410.6 417.9 428.5 434.3 444.4 457.3 472.9 484.3 488.8 494.4 500 504.1 507.8 510.4 512.6 514.1 513.5 512.2 511.4 510 508 503.4 497.8 486.1 456.9 436.2 411.5 421.1 434.2 464.8 485.2 496.2 504.7 515.4 521.4 529.5 531.9 531.4 532.9 526.6 524.7 524 524.3 523.3 522.9 522.6 519.8 517.3 511 501.8 498.1 495.9 496.5 489.2 479.1 472.7 462.7 464.4 451.2 442.7 434.8 413.7 402.2 393.5 386.6 381.3 376.4 370.4 364.1 361.7 358 352.7 351.2 347.2 343 345.2 351.3 358 362.2 367.1 370.5 373.3 375.5 378.8 383.2 388.3 398.2 406.6 415 425.4 433.5 440.4 444.3 446.3 443.8 439.5 428.9 415.6 405.5 396.8 383.8 370.3 359.4 346.5 353.5
416.5 411.8 405.7 399.5 389.8 374.5 353.2 329.1 311.7 301.9 295.4 294.1 293.9 295.7 307 314.7 321 329.9 343.5 362.6 381.8 401.1 415.9 427.2 437.8 446.3 452.4 457.2 460.3 464.5 469.5 473.6 477.4 481.2 485 487.9 489.8 490.8 491.7 492 492.4 493.1 493.5 492.6 490.7 489 487.7 485.7 483.6 479.9 476.2 471.7 467.1 462.5 458.2 453.2 446.4 438.5 430.3 420.2 403.8 384.4 362.5 345.9 335.9 332.8 346.6 365.9 389.4 415.6 430 437.3 441.6 443.1 441.8 437 428.8 419.3 406.9 394.3 381.5 369.9 362.6 361.3 367.7 376.9 387.5 395.1 403 409.2 413.9 418.2 422.7 426 430.5 437 444.3 453.1 460.7 470 476.9 482.2 486.3 489.9 495.2 500.2 504.5 508.4 508.7 510.9 512.1 512 511.2 510.5 509.2 504.8 501.2 494.4 473.8 448.7 422.4 404.6 416.1 439.7 464.1 489.3 498.2 504.9 517.3 523.3 530.2 525.8 527.4 524.9 522.1 521 519.6 519.3 520.9 520.3 516.1 514.5 510.5 504 498.5 495.8 495.1 492.1 484.9 478.5 475.4 475.4 473.4 467.2 460.8 455.9 440.2 415 403.9 395.8 390.4 385.6 378.4 371.3 367.7 363.3 358.7 353.2 347.2 341.4 338.5 347.8 349.2 350.4 354.4 357.7 361.6 366.3 371.1 377.3 381.8 390.2 402 413.1 422.9 431 435 436 435.7 434.1 427.9 413.3 399.4 387.2 376.8 366.5 358.6 352.8 345.3 354.6
413.3 409.2 401.7 391.4 375.7 357.3 335.2 318.1 305.5 297 293.2 293.8 294.2 302.1 315.3 325.7 333.2 339.7 347.4 373.6 393.9 410 422.6 432.2 439.8 446 452.1 457.7 463.3 468.3 473.5 477.8 481.5 485.1 488.8 491.5 492.9 493.6 494 493.8 494.2 493.7 493.4 491.4 489.6 487.3 486 484.1 481.2 477.1 472.7 467.8 462.9 458.3 454.1 450.5 444 436.5 429 421.2 400.3 378.9 363.3 347 334.2 331.7 345.5 365.7 390.2 415.2 428.7 434.5 439 437.6 432.8 420.6 405.4 392.4 385.5 373.7 363.3 355.9 364.5 377.1 390.2 401.1 409.4 418.5 426.1 434 440.1 444.9 449.9 453.7 458.3 465.2 471.7 478.3 483.2 485.5 485.7 486.3 488.5 492.4 497.9 501.3 505.7 505.5 506.4 508.7 509.7 510.3 509.2 508 506.5 502.5 496.8 489.5 466 437.2 410.3 402.2 417.1 445.2 469.2 485.4 497.8 504.7 515.8 519.8 517.6 519 520 521.2 520.4 519.6 517.8 516.4 515.7 512.9 510.5 509.1 505.4 499.7 498.7 497.5 493.6 489 485.9 482.8 482.4 479.3 477.8 473.8 467.7 463.2 455.7 432 413.3 405.1 400.6 397.5 392.5 381.4 373 368 364.3 357.6 350.9 345.2 336.8 336.9 339.4 342.7 345.5 351.1 355.4 358.3 365.6 371.6 375 387.3 400 410.1 418.2 423.6 424.8 425.2 425 421.6 411.7 394.5 380.2 371.9 363.6 355.9 352.4 349.5 339.7 352.8
409.7 404.6 396.3 383.8 367.5 346.3 325 311.5 301.4 293.7 293.4 293.5 298.2 311.5 326.6 339.3 349.3 356.6 357.8 365.7 390.5 408.4 418.9 427.1 433 445.2 456 462.5 469 474 478.1 481.9 485.6 489.1 492.1 494.4 495.8 496.1 496.3 495.9 495 494.1 492.2 489.9 487 484.5 482.9 480.6 477.4 473.2 469.1 464.2 458.6 454.2 450.1 446 441.4 434.3 426.5 417.1 398.2 376.7 357.7 341.3 332.2 329.8 346.5 366.6 390.3 415.9 427.6 433.5 436.3 431 415.1 398.1 383.2 373.2 365.4 355.9 358.9 372 385.4 398.9 411.6 423 432.4 442.3 452.7 461.1 467 472.3 477.1 481.3 484.3 488.7 491.5 491.8 491.1 490.5 489.6 490 491.4 494.6 498.7 503.2 504.3 503.7 504.7 506.6 508.1 509.3 507.8 506.6 503 499.3 493 482.2 457.6 428.8 404.1 401.5 415.6 443 470.4 487.4 496.6 502.4 509.6 508.9 511.9 515.8 520.5 520.7 520.1 519.1 516.1 514.3 510.8 507.3 505.7 504.2 500.7 498.7 500.8 497.4 494 491 489.9 487.5 487 481.8 480.8 477.7 471.8 464.9 454.9 441.9 421.6 414.4 411.5 408.4 400.5 390.7 382.5 375.4 369.3 362.1 354.8 349 343.7 336.7 332.5 334.8 337.9 344.7 347.7 350.9 357.7 362.6 363.9 379.3 393.7 402.6 408.6 414.1 415.3 414.9 413 404 387.6 373.8 363.6 357.6 351.6 348.6 346.4 342.6 343.9 352.3
403.4 397.7 390.3 377.8 361.6 340.4 323.1 308.8 298.4 292.6 292.9 297.7 308.9 322 336.4 353.7 367.7 376.5 378.3 373.2 382.8 400.8 412.8 426.3 443.5 454.7 463.7 469.8 474.6 479.1 483.1 486.8 489.6 492.6 494.9 496.9 497.3 497.2 497.1 495.4 494.5 492.7 490.4 487.3 484.1 481.4 478.6 475.7 472.4 469.1 465.7 460.6 454.4 449.2 446.1 440.9 435.3 429.5 421.3 409.2 396.3 375.7 352.4 338.3 330.4 329.3 347 367.6 390.8 410 419.6 422.5 422 412.5 394.3 376.9 368.6 361.1 349.1 360.1 372.5 388.9 405.8 421.3 433.5 445.5 455.3 465.8 476.5 487.1 492.8 495.9 498.4 498.6 499.4 499.1 498.1 496.2 494.3 493.7 493.1 493.3 494.1 495.1 498.6 502.6 503.1 501.7 502.8 505.9 507.4 507.3 504.7 502.8 499 494.6 487.8 472.4 452.6 427.2 404.7 397 410.6 437.7 473.6 487.9 494.9 498 499.6 505.7 511.7 518.5 521.9 518.7 516.1 514 513 510.9 506.4 503.3 502.1 501.7 496.7 497.1 498.9 496.2 495.1 493.7 491.3 489.6 489.3 483.4 480.3 480.5 474.9 468.9 459.1 447.1 428.6 421.6 419.8 414.5 406.8 398.7 391.4 383.3 374 365.8 358.6 352.7 347.4 341.6 336.5 327.6 331.9 337 340.5 343.2 346.2 348 354.5 371.5 385.1 391.9 399.2 403 402 399.1 392 380.7 365.7 354.2 349.5 345 343.7 341.9 339.3 336.5 345.5 357.4
397.8 392.4 385.9 373.7 357.8 338.4 320.9 306.3 294.3 292.4 295.8 306.9 318.5 331.7 346.2 364.3 384.4 395.6 401.3 401.9 406.2 416.8 429.5 445.6 456.9 465.3 470.9 475.8 480.1 484.1 487.7 491 493.8 496.2 498 498.2 498.2 498 497.4 495.4 493.2 491.4 489.2 486.6 482.4 478.5 475.4 471.1 467 464.1 460.1 454.3 447.7 441.4 438.1 431.2 424 417.7 409.1 398.8 385.6 369.7 346.9 334.1 327.5 329.7 347.2 366.9 381.8 391 391.4 396.1 391.7 384.5 372.3 366.6 358.6 346.5 357.2 371.7 388.7 407.2 425.8 443.3 456.5 467.5 477.4 487.3 496.6 502.3 503.1 502.6 502.6 503 503 503 501.8 499.8 497.8 496 495 495 493.8 495.3 497.7 500.4 501.2 498 500.2 502.8 502.6 502.2 498.2 495.9 492.8 488.1 478.5 459.8 444.7 424.6 402.3 391.2 406.8 431.1 461.9 477.9 485.6 492.1 497.9 508.5 511.8 515.2 515.9 514.5 514.1 512.5 509.9 507.7 504.6 500.4 495.9 494.5 493.1 493.9 497.1 499.1 498.5 494 491.1 491.8 486.9 483.7 480.7 478.3 475.6 469.9 461.2 452.1 436.1 428.5 424.4 417.2 410.2 402.5 394.5 387.2 377.1 369.5 362.7 356.5 351 346.4 340.8 335.6 328.6 329 332.5 334.6 336 338 346.7 364.9 372.5 378.1 380.4 383.2 383.2 378.9 371.7 361.4 348.6 341 339.1 338.6 337.6 330.3 333.5 341.3 355.3 371.6
392.6 388.7 381.4 372.4 356 336.2 318.9 304.5 292.9 293.7 300.6 310.5 325.6 336.5 352.6 373.1 396.7 412.2 418.5 422.2 432.7 443.6 453.6 461.5 467.5 472.4 476.6 480.5 484.1 487.6 491.5 494.8 497.8 499.3 499.7 499.4 498.9 498.2 497.5 495.1 492.8 490.7 488.3 485.5 480.6 475.8 471.2 466.9 461.7 456.3 452.4 447.6 441.3 434.8 429 423.2 416.3 408.8 400.7 392.4 379.7 362.8 343.9 332.1 326.6 328.7 338.1 347.5 358.2 363 365.5 367.5 365.6 361.7 355.5 353.5 349.6 353 369.1 387.7 405.7 424.2 442.8 462.2 477.5 487.1 493.7 498.9 502.8 503.8 503.7 503.6 504 504.3 504.9 505 504 502.2 499.8 496.3 494.6 492.6 491.9 493.8 497.2 498.3 496.2 493.6 495.5 497.3 497.7 495.2 494.7 493 488.6 480.1 461.7 450 431 411.8 397.1 391.5 401.9 418.1 448.3 468.8 481.7 492.6 496.9 504.6 510 510 510.8 511.7 512.1 509.8 506.4 504.5 500.9 498.3 493.2 491.8 492.2 494.9 497.2 498.3 496.6 492.6 490.6 493.5 484.4 482 479.9 477.7 473.6 473.1 464.2 452.4 441.5 432.7 425.5 417.5 410.1 402.2 394.9 388.2 381.2 373.2 367.9 362.1 357.2 351.2 345.2 339.4 334.1 323 325.9 327 329.5 331.9 337 346.7 354.7 359.9 360.4 363.7 364.8 359.5 350.9 344.4 336 332.5 332.7 329.6 325.7 333.6 342.8 355.9 371.6 384
388 384 377.3 369.4 352.7 334.9 319.1 304.6 291.7 293.1 303.1 313.4 326.6 339.9 358.1 382.2 411.9 425.8 434.2 441.6 448.3 455.5 462.1 469.3 473.9 477.2 480.8 484.4 487.8 490.3 494.9 497.7 499.5 500.2 500.4 500.3 499.5 498.6 497.6 494.8 491.5 488.8 486.1 482.5 477 472.2 467.1 461.6 456.2 450.6 446.5 440.9 434.7 426.8 418.6 413.1 408 402.2 395.6 388.2 374.9 359.1 341.1 330.7 326 326.9 330.1 334.9 341.3 344 346.3 348 348.4 346.5 337.5 337.3 346.3 363 384 403.2 422.7 441.1 459.6 477 486.8 493.4 496.6 499.6 502.6 503.8 504 504 504.8 505.5 506.5 506.4 504.6 502.7 498.7 495.6 492.4 490.2 489.3 491.3 493.4 490.7 488.4 489.6 492.5 494.1 493.6 493 491.5 487.4 481.6 467.5 451.1 433.2 417 402.6 393 392.3 406.5 424 448.2 469.8 483.7 491 495.8 502.3 505.8 507.5 508.1 509.1 507.3 505.7 503.3 500.6 496.3 492.4 490.3 490.3 491.8 496.2 497.6 496.2 494.8 490.7 489.4 489.4 483.4 480.9 479.6 476.2 475.2 471.5 465.4 452.7 443.5 435 426.5 417.4 409.1 401.2 394.9 387.9 381.8 376.8 371.9 368.1 363.7 358.4 352.3 347.3 342.5 335.2 324.8 322.5 324.1 325.3 329.5 336 341.5 341.2 342.9 345.6 346.8 343 338.5 333.8 329.5 326.6 326 323.7 333.4 346.7 358.8 369.4 379.3 385.2
380.2 377.7 372.5 363 347.7 332 317.3 304.4 294.8 293 306.6 314.7 325.6 341.1 365 393 415.7 431.8 441.4 448 453.7 460.9 467.4 472.7 476.3 480 483.3 486.4 489.3 492.7 497 499.3 500.8 501 501.1 501.2 500.1 499.2 497.4 494.7 491.7 487.8 484 479.3 473.7 468.3 462.7 456.3 450.3 445.2 438.4 432.6 424.2 415.1 406.5 402.5 399 393.8 387.3 379.3 369.8 357.1 341.7 333 324.7 325.7 325.7 327.1 327.4 329.9 332.3 333.2 332.1 328.5 339.9 349.1 357.3 375.5 397.9 418.6 438.2 457.2 472.3 481.6 488.2 493.9 496.8 499.3 501.6 503.1 503.6 504.4 505.2 507.1 508.5 506.5 503.3 501.3 498.1 494.2 489.6 486.8 483 482.1 483.7 482.2 483.2 484.9 488 489.4 489.5 487.6 486.6 482.9 478.2 456.9 435.5 416.6 402.1 393.7 383.8 396 413.7 435.6 461.1 479.1 486.3 491.4 496.1 501 504.2 506.5 506.3 506.2 505.7 503.4 498.9 495.4 491.9 489.3 488.9 490 494.8 496.2 496.6 495.3 493.2 489.8 488.2 484 481.1 478.9 476.6 474.6 474.7 471.4 463.1 452.2 443.2 434.7 425.7 416.7 408.6 401.4 395.8 390.2 384.8 379.9 375.6 372.6 368.6 364.1 360 357.7 354.5 349.9 347.5 339.2 321.9 319.1 322.4 322.6 325.4 330.8 335.6 338.4 337.1 334.8 332 330.4 327.4 320.6 322.6 334 346.4 356.7 363.1 368.6 375.6 379.3
371.5 370.4 366.7 357 344.4 330.2 314.7 303.3 294.3 292.3 299.7 309.2 324 343.2 364.7 392.1 414.9 431.2 443.1 450.5 456.8 462.8 468.8 474.2 477.9 482 485.4 488.5 491.6 495 498.7 500.8 501.7 501.9 502 502 501.7 500.6 499.3 496.4 492.5 488.2 483.5 477.5 471.1 465.5 458.3 449.7 442.3 435.4 426.8 418.7 407.2 404.7 399.3 387 385.1 383.3 377.3 369.6 359.6 349.4 337.6 335.7 331.4 324.7 324.5 324.1 323.4 322.9 322.6 325.2 324.4 332.1 340.5 352 369.9 389.5 411.5 435.8 453.8 469 476.6 481.6 487.7 492.6 495.9 498.3 500.6 502.1 503.2 504.2 506.7 507.3 506.3 504.4 502.3 499.8 495 489.2 484.4 479.1 472 470.9 473.6 475.6 477.2 478.8 483.3 484.4 484.9 484.6 483.9 479.3 466.3 439.4 418.4 402 392.9 383.7 386.6 403.8 425.4 450 474.5 483.7 488.8 493.4 496.4 501.4 504.7 505.7 505.8 506 504.9 500.1 496.7 492.1 489.6 487.8 488.5 491.8 493.6 493 492.1 492.5 490 488 484.5 482.4 479.2 473.9 471.8 473.1 471.5 468.2 457.8 448.2 440.5 432.1 424.6 416.5 409.6 403.8 399.4 393.7 388.2 383.3 380 377.3 374.1 370.4 367.8 365.7 364.9 363.3 364.4 362.1 351 331.4 314.8 318.4 319.6 325.5 332.8 336.2 334.8 332.7 329.3 325.5 322.7 311.5 325.7 337.9 345.8 352 353.8 356.6 359.3 360.6
361.8 358.5 356.6 349.7 340.2 328 310.8 298.9 291.9 290.6 297.7 311.9 329.3 348.8 371.9 399.9 421.8 436.5 445.1 452 458.5 464.4 469.7 474.7 478.2 482.4 486.3 489.8 493.4 496.8 499.6 501.5 502.5 502.8 502.8 502.7 502.5 501.6 500.5 498.3 493.7 489.2 483.8 478 472.5 468.7 461.2 448.4 446.3 442.9 438 430.8 425.9 421.2 415.2 406.5 394.6 386.6 378.2 371.9 368.5 365.2 357.4 346 336.3 334.1 324.3 323.5 323.1 322.6 322.2 320.2 323.1 331.9 346.1 364.4 385.9 409.7 433 454 465.8 472.5 476.7 481.5 486.9 491.1 494.3 497.1 499.5 501.3 502.7 504.2 504.4 504.4 503.9 502.8 500.1 496.5 492.6 485.9 477.6 470.3 463.9 462.5 465.3 468.1 470.3 472.6 478.5 479.1 481.2 481 479.5 471.3 457.8 429.4 407.9 393.4 387.5 379.4 393.7 414.9 439 467.5 482.6 488.5 491.4 494.4 496.4 501.3 503.9 506.4 505.9 505.5 502.8 499.3 494.7 489.9 486.9 486.4 489.7 489.4 489 488.3 488.2 487.7 487.1 484 481.2 479.3 473.5 467.6 468.8 467.2 465.3 459 450.1 442.8 436.8 429.5 423.4 417.2 411.9 407.8 403.4 397.3 391.7 387.6 385.1 382.7 380.2 377.3 374.8 373.8 375.4 376.3 377.2 373.8 360 347.4 330.7 314.2 316.1 319.8 331.7 338.6 338.9 335.4 327.8 321.9 314 309.8 323.6 334.4 340.7 339.5 339.9 341.4 342.3 348.8
350.8 344.1 344.1 330.9 321.5 320.5 311.9 301.4 292.1 291 297.7 312.9 331.2 355 384 412.7 432.2 439.3 446.1 452.1 458.6 464.4 469.8 474.3 478.2 482.3 486.1 489.6 493.4 497.2 499.8 501.8 502.7 503.5 503.4 502.7 502 501.7 500.8 499.3 495.6 491.4 487.2 482.5 478.6 476.1 472.4 467.6 464.4 461.1 458 454.1 447.4 445.9 443.6 434.5 421.3 415.8 408.5 403.5 397.2 389.9 380.5 362.7 344.7 336.7 334.3 332.8 328.9 324.9 322.6 320.1 324.2 335.5 356.7 378.8 408.9 432.1 448.2 462.3 468.4 473.3 477.6 481.9 486.5 489.8 493 496.2 499.3 501.2 502 502 502.1 502.3 502.2 501 496.3 493.2 487.9 479.3 472.5 463.8 458.3 458.3 459.7 461.4 464.2 466.8 472.6 473.4 474.4 474.7 473.1 467.3 449.5 421 399.1 388.1 379.2 384.7 403 428.8 455.6 477.9 487.2 489.9 489.9 492.6 495.4 500.3 504.6 506 505.5 504.6 502.5 498.7 493.4 487.3 484.5 487.6 488.1 485 482.4 483.5 484.7 484.5 483.7 480.7 477.8 474 467.8 461.7 461.3 458.9 454.8 448.6 441.9 435.8 430.2 425.8 421.9 418.6 414.8 411.5 407.5 401.6 396.1 393.2 391.1 389.2 386.3 383.7 381.9 382.7 386.1 386.7 382.4 375.1 362.3 349.7 336.9 324.7 314 313.3 332.1 344.4 346.1 340 330.2 319.6 306.7 306.6 315.9 325.3 323.2 323.1 328.8 333.7 341.9 348.7
360.5 349.7 343.3 338.7 334.9 326 311.7 297.9 291.2 290.5 298 316.2 337.9 360.5 392.6 421 440.3 445.8 449.6 454.3 459.4 464.6 469.4 474 478 481.8 485.7 489.4 493.2 497 499.6 501.2 502.2 502.3 502.2 501.5 501.3 501 500.7 500 497.7 495.5 492.4 488.7 485.6 483.9 483.3 482 480.5 479.7 477.9 475.7 472 472 468.6 464.2 452.9 447.8 442 436.1 433.3 424.7 411.2 382.1 355.6 343.8 339.4 334.6 330.7 326.8 323.3 320.7 323.1 341.4 367.1 390 409.6 429.7 449.8 460.3 465.8 470.5 475.7 480.2 485.3 489.2 492.5 496.6 499.7 500.5 500.6 501 500.7 500 499.2 495.9 493.3 488 482.9 476.6 465.7 459.5 455.1 454.2 455.5 455.9 457.5 459.7 462.9 466.8 470.6 471 469.8 461.7 442.2 413.1 392 377.9 377 391.7 415.9 441.9 466.5 480.5 485.1 486.9 488.5 491.2 495.3 500.6 504.4 505.4 505.2 503 499.5 496.7 489.9 485.1 484.3 486 484 479 475.1 478.3 480.9 481.1 479.2 477.4 474.3 468.8 462.3 450.8 452 448.4 443 436.8 432.1 428 424 421.2 420.8 419.2 416.8 414.1 410.1 405.2 400.9 398.6 397.4 395.1 392.5 390.2 389.8 390.9 391.8 388.2 383 375.5 366.7 355.9 343.4 334.1 324.7 313.3 321.5 339.6 346.1 340.6 330.9 313.8 300.3 303.3 308.1 310.5 321.3 327.9 334.7 341.5 348.6 357
373.9 361.9 351.8 334.9 327 317.2 301.1 291.9 290.8 290.6 304.2 325.1 344.2 366.4 399.1 427.5 444.2 449.7 453.7 457 460.8 465.7 470.2 474.2 478 481.8 485.3 489 492.8 496.1 498.4 500.2 501.2 501.1 501 501.1 501.1 500.9 500.9 500.7 498.9 497.4 495.7 493.9 491.3 490.3 489.4 489.6 490.5 490.2 489.4 487.8 486.3 485.3 483.3 480.5 477 472.8 465.8 460.8 456.6 449.4 436.4 404.5 373.1 357.7 349.7 342.1 335.9 329.8 325.4 321.6 322 337.8 351.9 363.2 379.8 398.1 416.6 429.6 454.2 461.5 470.3 477.4 482.9 488.6 492.7 496.6 498.1 498.5 497.7 497.9 498.2 498.3 494.9 492.1 488.2 485.2 481.6 473.8 465.5 458.6 452.2 449.5 451.3 451.4 451.3 454.8 457.8 462.2 466.1 465.5 462.1 450.6 432.6 403.7 384.2 372.5 382.5 404.3 427.4 450.3 470.6 481.4 484.4 485.2 487.6 490.3 495.8 502 504 505 503.5 500 498.3 492.1 487.7 485.2 481.1 484.5 482.4 477.2 472.1 463.6 472.7 476.3 474.9 472.5 470.1 465 452.6 437.5 438.8 435.1 429.6 423.1 420.1 417.9 416.4 416.3 418.6 418.4 416.7 414.8 411.4 407.4 404.2 402.1 400.4 398.9 397.3 396.7 397.2 397.4 395.5 391.3 385.9 378.9 371.5 359.9 348.2 337.6 327.2 314.5 316.7 334.4 345.5 340.7 323.7 306.2 297 305.1 309.6 316 322.8 332.3 342.2 353.6 365.2 376.6
378.3 369.7 361.6 347.4 326.3 312.8 298.5 290.7 290.4 295 311 329.7 352.4 376.1 413.8 435.7 446.3 451.7 455.5 459.2 462.7 467 470.6 474.6 477.8 481.1 484.6 487.9 491.2 494.3 496.5 498.5 500.3 500.4 500.6 500.7 501 501.1 501.2 500.9 500.5 499.3 498.1 496.9 495.4 494.3 493.3 494.1 494.9 494.7 494.8 493.7 493 492.8 492.4 490.3 488.2 483.6 477.6 472.6 468.1 463.1 454 422.5 387.4 375.4 368 356.6 349.1 336 328.1 323.3 318.4 321.6 326.7 335.8 344.7 356.5 365.8 383.7 403.1 429.9 461.8 475.1 482.2 487.3 491.7 494.3 495.1 495.7 493.4 494.5 495.3 491.7 491.3 489.6 486.9 483.6 477.6 471 464.6 456.8 449.9 444.2 444.8 444.7 445.7 449.4 453 456.5 458.1 457.8 446.5 428.8 412.4 390.7 376.1 373.8 388.6 405.3 432.9 456.5 474.1 480.2 481.5 484.9 488.8 491.6 496.4 500.5 502.7 501.9 500.2 497.9 491.8 488.6 485.6 482.5 479.9 484.8 480.4 476.3 475.1 459.9 452.7 464.3 467.6 466.5 463.2 455.9 442.7 422.4 420.5 415.9 411.7 407.7 405.6 407.5 408.2 412.6 416 416.5 416.6 415.7 414.4 410.9 407.6 405.6 403.7 401.9 401.4 402.2 402.9 401.3 398.9 393.5 387.4 379.4 369.8 360 349.4 337.2 323.8 309.9 308.3 327.1 340.7 332.1 304.6 296.8 299.6 306.7 312.6 319.9 329.9 342.7 356 369.9 383.6 396.6
379.3 371.3 363.1 353.4 338.6 321.9 299.5 290.2 291.8 301.6 317.4 337.6 362.9 387.9 422.6 441.2 448.7 453.2 457.2 461 464.7 467.9 471.3 474.5 477.2 480.4 483.4 486.4 489.5 492.2 494.6 496.6 498.5 499.8 500.2 500.5 500.9 501 501.3 501 500.7 500 499.2 498.2 497.6 497.4 496.8 497.5 498.8 498.8 497.9 496.7 496.1 495.9 495.9 495.7 493.6 489.9 485.6 482.8 479.5 472.4 464.4 438.5 405.3 391.9 383.9 375 367.3 347.5 333.3 326 319.1 318.9 319 319.4 322.1 330 342.8 357.8 381.2 408.2 439.4 467.4 478.6 484.7 489.3 488.9 488.2 487.3 488.1 487.6 487.4 486.7 485.4 483.8 482.2 477.9 474 468.7 464.2 457.7 447.9 443.4 435.5 437.5 439.3 445.6 449.7 452.6 450.8 436.5 419.9 402.5 390.3 376.4 369 383.1 400.6 419.7 434 453.4 469.1 476.8 483.4 489.8 491.8 493.6 497.4 500.1 502.3 501.1 496.9 492.2 487.9 484.7 482.6 478.7 478.4 480.5 478.3 476.3 470.5 461.9 429.9 442.5 453.1 454.7 450.3 444.7 433.4 405.9 398.2 396.4 394.5 393.4 394 397.6 403.7 409.3 411.8 414.3 416.1 417.2 418.2 415 411.2 409.6 408.1 406.4 406.1 406.7 404.4 401.4 397.8 392.5 386.1 379 369.5 359.6 347 333.1 320 302.8 302.2 318.5 319.2 307.2 292.2 296.1 301.9 307.3 315.4 327.1 342.2 358 373.7 387.6 399.9 410.1
380.2 376.5 367.8 359.8 343.9 321.8 296.8 289.9 292.5 307.6 324.5 347.2 370.3 397.8 429 442.6 449.3 453.2 457.1 460.7 464.5 468.1 471.1 473.6 476.6 479.2 481.6 484.5 487.4 490.1 492.6 494.7 496.6 498.6 499.7 500.3 500.8 501 501.4 501.2 500.8 500.2 499.8 498.8 498.7 498.6 498.9 500 500.8 500.2 498.9 498.2 497.6 497.3 497.5 497.9 496.3 493.4 490.7 487.6 484.3 480.9 474.1 457.3 426.2 414.6 402.3 392.9 387.6 361.9 345.8 335.4 328.1 322.1 317.9 317.2 318.1 320.1 329.2 345.3 368.1 399.6 431.2 456 472.3 478 479.1 480.1 478.3 479 480 482 481.3 481 480.4 479.6 477 474.6 471.7 467.7 463.2 456.2 450.7 442.9 433.7 430.7 434.7 440.9 445.3 445.4 428.3 407.2 392.2 379.6 370.2 368.5 381.1 396.4 416.3 436.6 454.5 464.6 477.7 484.3 487.3 491.5 492 494 497.7 499.3 499.2 494.3 493.1 490.1 486.1 482.9 481.7 478.8 470 476.2 476.8 475.7 468.3 459 440.2 421.6 426.3 431.4 431.9 428.2 419.4 404.1 387.7 383.6 382.3 383.4 385.1 391.8 398.3 399.9 408.4 414 417.4 419.5 419.7 418.3 414.7 412.4 411.4 410.1 407.7 405.3 403.1 399.6 395.4 390.3 384.8 377.6 369.6 359 343.9 328 311.7 296.5 296.9 304.5 298.1 293.5 290.1 298.6 305.6 314.1 324.1 339.8 358.8 374.9 390.9 401.4 409.5 414.2
386.7 379.3 371 359.9 341 316.5 290.2 288.3 294.8 305.8 326 353.1 378.5 403.3 431.4 443.1 447.5 451 455.2 459.6 463.7 467.3 470.1 472.6 475.3 477.9 480.2 482.5 485.2 487.9 490.3 491.6 493.7 496.7 499.1 499.8 500.5 501.1 501.4 501.4 500.9 500.5 499.9 499.3 499.2 499.1 499.2 499.5 499.7 498.9 498.6 498.1 497.9 498 498.1 497.9 496.7 494.5 492.1 489.1 485.6 482.7 478.2 469.3 452.2 443.8 426.8 413.9 406 377.3 361 345.7 337.9 330.6 323.7 317.8 316.6 317.3 321.6 333 353.8 379.5 404.3 431 449.2 460.9 464.2 466.4 469.6 471.4 475.1 477.7 478.1 478.3 477.9 478.2 477 474.7 470.6 468.7 464.6 458.5 453.4 443.2 431.2 427 427 434.8 436.2 430.4 403.6 384.3 370.4 362.1 368.4 380.4 395.8 412.6 432.1 453.1 465.5 473.5 480.3 485.4 489.7 490.9 491.1 493.7 499.1 496.5 494 494 491.6 487.2 483.2 482.9 482.2 480.7 475.3 459.6 466.4 470.4 466.2 456.6 447.5 416.3 404.5 408.3 409.6 406.5 399.2 388.1 380.1 375.8 374.9 376.5 378.2 385.1 386.3 398.8 409.2 414.9 419.6 421.6 422.4 420.3 418.2 415.5 413.7 411 408.1 404.4 401.7 397.4 392.9 388.3 383.4 376.2 369.3 358.3 342.9 326.5 306.1 293.5 288.8 289.9 289.2 288.3 289.5 300.7 312.9 322.3 334 351.5 368.1 381.6 391.8 401.4 410.3 419.6
392.7 381.4 368.7 352.2 334.4 313.8 291.5 289.6 296.1 306.2 326.8 354.3 380.2 411.6 429.8 440.8 444.8 448.7 452.9 457.3 461.7 465.3 468.6 471.3 473.9 475.9 478.3 480.3 482.5 485.1 487.3 488.2 492 495.4 497.6 498.7 499.5 500.3 501 501.2 500.8 500.1 499.3 498.6 498 497.9 498.1 498.4 498.3 497.8 497.9 497.6 496.9 496.6 496.6 495.9 494.9 493.2 491.2 488.5 486.2 483 478.6 472.6 467 460.4 450.6 437.8 427.8 394.3 369.7 361.3 352.5 343.4 334.7 326.1 317.5 315.3 316.3 324.6 341 362.5 382.6 406.6 433.6 446 449.2 454.9 461.5 465.5 470.8 474 475.9 476.3 476.6 476.7 476.1 472.9 471.7 468.1 462.9 457.5 450.6 439.4 427.4 421.8 418.9 428.5 427.5 406.6 383.4 367.2 359.2 367.9 380.7 394.8 411.5 428.6 449.3 465.5 473.2 477.2 483.4 488.4 490.5 491 490 492.8 492 492.1 493.7 490.3 487.1 483.3 482 482.9 480.9 477.6 476 466.9 427.3 450.4 461.3 458 451.4 428.3 393 386.8 386.6 384.8 381.2 376.2 371.9 370 369.1 369.3 372.2 374.8 386.5 401.8 411.3 418.4 423 426.4 426.2 423.4 420.2 417.5 415.1 412 408.6 404.9 401 396.3 391.6 386.9 381.7 375.4 369.2 359 345.3 324 307.5 297.4 285.8 287.6 287.1 285.5 290.9 299.2 310.2 323.2 334.9 354.6 365.5 376.7 392.6 407.9 422.2 432.7
399.3 386.7 371.3 351.4 331.7 315 299.2 283.4 294.8 308.2 326.7 349.1 375.4 405.3 425.9 437.5 442.1 446.2 450.3 454.9 459.2 462.5 465.6 468.3 470.7 472.6 474.9 476.9 479.5 481.6 483.4 487.3 491.2 493.8 496 497.4 498.9 499.8 500.3 500.6 500.4 499.5 498.7 498.1 497.3 496.4 496.5 496.4 495.6 495.2 495.1 494.5 493.4 493.2 493.4 493.1 492.6 491.3 489.9 488.2 485.3 482 478.4 473.5 469.4 466.1 457.9 449 443.9 415.7 389.8 374.5 363.3 353 342.6 334.3 326.9 320.8 317 318.7 331.2 345.5 361.2 382 408.5 423.6 434 443.8 454.8 460.6 467.3 471.8 473.6 474.6 475 474.9 473.9 472.4 468.9 465.3 461.1 456.6 447.9 438.8 428.3 417.3 413.3 420.2 409.8 385.8 366.5 357.3 365.2 379.8 395 411.9 429.3 446.4 462.8 472.6 477.3 481 487.2 489.4 489.7 489 487.9 487.2 486.7 488.5 488.3 486.2 483 480.1 481.4 481.8 477.6 475.2 472.4 465.9 433.3 418.2 441.2 448.7 449.6 429.1 400.5 379 370.7 371.1 369.2 366.9 364.6 363.4 363.7 363.3 364.2 376 392.6 405.5 415.3 422.3 427 428.4 426.8 423.9 420.5 417.7 415 412.5 409 405.2 401.2 396.4 391.4 386.5 381.5 376.4 370.4 365.9 354.4 333.4 317 304.7 291.1 284.9 291.7 285.4 286.4 292.6 302.8 318.2 334.5 355 372.4 390.4 407.7 422.2 433.8 442.6
401.7 390.8 373.7 352.9 331.6 312.8 302.6 289.6 289.4 304.1 321.2 340.4 363.2 393.9 423.1 432.3 439 443.4 447.8 452.4 456 458.8 461.7 464.8 467.8 469.4 471.4 473.4 475.5 477.4 481.7 486.1 489.3 492.2 494.6 496.4 498 499.1 499.6 500 499.9 499 498 496.9 496 495.1 494.5 493.5 492.3 491.7 491.2 490.2 490 489.8 489.5 488.6 488.2 487.5 486.6 485.7 482.5 479.9 477.1 473.7 470.6 467.6 462.7 456.1 451.6 439 409.2 393.5 380.7 369.5 359.5 348.9 341.7 330.3 323 317.3 322.9 331.9 341.3 357.5 376.5 392.9 405.7 425.3 439.3 453.3 465.2 469 471.6 473 473.3 473.3 471.6 467.9 466 463.1 460.7 456.9 450.1 442.3 432.9 419.1 406.2 407.1 392.7 371.8 356.7 358.6 374 392.6 413.2 430.2 445.6 460.1 471.4 477.1 480.2 483.8 488.3 490.7 489.8 489.3 484.4 483.9 484.2 485.3 483.2 481 478 477.1 480 476.1 473.4 472 467.2 462.2 446.9 401.6 407.4 423.4 435.5 420.4 395.5 376.2 359.2 359.7 358.5 358.6 357.4 357.3 358 357.2 365.7 381.3 398.2 409.7 419.1 424.8 426.9 426.4 425.1 422.5 420 417 414.7 412.6 409.4 406.4 402.3 397.7 393.4 389.9 385.9 383 379.9 376.5 369.5 349.5 328.4 318.3 311.7 303.8 296.8 287.3 277.7 285.6 294.8 310.2 337.9 361.7 381.6 397.8 413.2 426.8 437.6 444
403.7 389.9 373.2 352.6 331.1 310.2 297.4 286.1 285.9 296.4 312.4 334 359.4 391.8 411 422.7 433.4 438.7 444.7 448.9 452.4 454.6 457.8 461.9 464.4 465.6 468 470.7 470.5 473.4 479.6 484.1 487.2 490.3 493.5 495.4 497 498.2 498.9 499.2 499.5 498.5 497.3 495.9 494.4 493.4 491.8 490.4 488.8 487.2 486.3 485.9 485.5 485.1 484.5 483.6 483 482.3 482.1 481.2 479.4 477.6 475.4 473.4 470.6 468.1 465.5 460.5 457.6 452.9 434.5 418.4 403.9 391.3 381.1 371.1 362.9 352.8 339.6 322.8 311.3 319.8 326.5 337.3 352.4 361 376.9 395.8 407.6 437.9 461.9 465.9 468.1 471.1 469.8 468.1 467.6 465.9 463.5 460.4 459.1 456.1 452.5 447.2 438.8 425.1 410.7 393.6 374.4 359.1 354.3 361.8 384.1 407.1 429.1 445.5 456.7 466.5 472.6 477.5 480.4 486.2 487.9 489.7 490.4 487.6 480.4 481.4 481.6 479.3 476.7 475.7 472 473.2 473 469.2 465.8 464.1 461.2 458.2 452.4 421.4 384.8 371.2 397.4 401.3 387.4 372.5 354.4 351.1 349.6 350.5 351 352.1 352.4 356.2 367 387.1 402.3 413.6 420.2 422.3 422.9 422.2 421.4 420.2 418.1 416.2 414.2 412.3 410 407.4 404.5 401.9 399.3 396.5 394.9 392.7 391.6 389.8 386.5 374.7 355.2 343 330.4 310.5 301 284 277.6 284 293 309.7 334.3 360.3 382.8 401.8 413.1 422.9 430.2 435.5
401.7 387.4 368.9 348.6 327.9 307.4 293 284.8 284.1 295.3 307.4 330.9 355.6 378.9 399.3 414.9 423.4 429.6 437.2 440 444.5 448.2 453.3 455.8 456.2 459.3 460.3 461.8 461.2 469.8 476.5 481.9 485.6 488.9 492.2 494.2 496.1 497.3 498.2 499.2 499.1 498.1 496.7 495.2 493.3 491.4 489.5 486.8 485 483 481.5 480.9 480.5 479.7 479 478.5 478.3 478.1 477.6 477 475.6 474.2 472.9 471.8 470.7 468.8 467.1 465.6 464.3 462.8 453.2 444.6 434.1 422.9 414 401 388.6 377.8 361.8 341.2 322.7 308 315.1 321.8 328.8 336.3 354.2 367.4 393.2 439 461.3 465.3 468 467.1 465.9 465.1 466.2 464.9 461.4 459.1 458.5 456.2 454 449 440.9 429.8 418 402.9 382.5 362.4 350.7 360.9 378.2 402.4 433.4 450.6 459.6 466.9 475 477 482.3 487.4 488.1 488.6 490.5 480.5 477.2 478.1 475.9 473 471.5 469.6 464 464.6 461.8 457 456.8 456 453.9 451.5 444.2 434.3 406 363.4 371.7 379.7 376.1 365.8 353.7 345.7 343.9 344.2 346 346.9 345.6 353.9 371.7 391.2 404.7 411.4 415.5 416.8 417 416.6 416.5 416.3 414.9 413.7 412.3 411.4 410.8 409.5 409.5 408.4 406.8 405.1 403.8 403.6 403.2 402.8 400.1 394.6 388.5 373.9 347.1 312 291.2 281.8 276.7 281.8 290.7 304.6 329 356.9 380.9 397 405.4 413.8 420.8 426.6
399.1 384.3 365.3 344.5 324.1 304 290.2 282.3 286.4 295.2 305.5 322.8 345.1 371.8 388.6 399 410.2 422 428.7 431.8 437.8 442.4 445.7 447.3 452 452.9 452 450.4 458 467.5 474.1 479.9 484.1 487.9 491.2 493.7 495.7 497.2 498.3 499.2 499 497.6 496.3 494.7 492.7 490.8 488.2 484.8 481.9 479.3 477.7 476.2 475.2 474.6 474.5 474.4 474.1 473.8 473.2 472.6 472.1 471.8 471 469.9 468.6 467.9 469.1 469.2 468.7 465.2 457.7 452.8 452.3 446.4 439.2 429.8 416.4 403 394.1 371.5 341.7 316.9 302.1 306 311.6 320.1 330.9 350.9 380.4 423.3 455 462.8 464.3 463.7 462.4 463.9 463.7 462.2 460.2 458.9 457.1 455.8 452.6 449 443.1 433 421.6 413 385.7 365.6 348.6 356.6 376 396.6 421.5 447.5 461.6 468.9 473.7 476 483.3 487 488.2 484.8 481.8 474.6 473.6 471.7 469.7 469 468.1 461.4 455.1 454.6 453 449.2 449 446.8 443.5 439.5 435.7 425.3 407.2 373.6 350.3 365.5 365.4 358.5 348.3 342 338.9 339.2 340.8 342 342.2 356.4 374.7 391.8 402.2 407.7 409.2 410 410.2 409.9 410.6 411.7 410.8 410.2 410.8 411.6 412.1 413.1 413.4 414.4 414.1 413.6 412.2 411 411.2 410.7 408.8 405.6 397.4 371.2 339.2 311.4 290.5 282.3 275.3 280.3 287.9 300.8 323.2 352.9 374.2 389.7 402.1 410.4 414.7 421.3
