ncols 200
nrows 82
xllcorner 290000
yllcorner 211700
cellsize 50
407.4 411.8 412.6 412.5 411.8 410.9 407.5 402 398 394.9 388.9 383.3 377.7 373.5 365.2 346 343.1 355.2 358.5 360.1 363.9 357.7 353.7 359.6 360.9 361.8 367.9 367.5 372.3 383.3 393.6 398.8 403.3 406.7 409.3 414.5 420.4 422.9 420.2 416.1 410.3 404.9 400.9 398.8 396 396.2 394.4 391.9 389.5 385.4 379.5 373.1 367.6 362 355.1 346.8 333 328.3 346.5 349.8 352.5 357.3 362.7 367.6 370.4 370.7 366.9 361.4 357.2 353.2 349.1 350.2 353.1 356 357.8 358.8 361.8 363.6 363.3 359 352.6 343.6 334.9 322 310.4 293.8 311 318.2 324 325.2 330.7 338.5 341.7 343.4 347.3 351.4 358.9 362.9 363 366.2 370.9 375.4 383.2 385.4 392.7 401.8 407.2 411.3 410.8 409.6 408.4 416.5 418.5 421.3 423.3 425.9 429.4 433.8 438.2 441.9 445.4 447.1 446.4 445.7 445.2 445 444 442.8 441.6 440.4 439.3 439.6 439.7 437.6 435.2 433 430.7 428.7 428 426 423.7 420.5 422.8 424.7 425.5 426.5 427.8 429.1 430.4 431 432.4 433.8 435.2 436.2 438.6 437.7 433.8 429.4 425.9 424 422.1 421.7 423.4 423.6 423.7 423.9 424 424.3 424.5 424.7 424.7 423.6 422.6 421.6 420.6 419.6 414.3 407.5 401.5 395.5 389.8 382.3 372.5 361.1 347.2 336.4 326.8 326.2 326.2 326.2 329.7 337.7 351.2 357.4 386.4 402 414.1 424.7 434.4 441.6
406 411.8 409.2 408.1 409.9 409.1 406.6 400.7 396.5 393.8 388.9 385.4 380.6 374.3 365.4 352.8 340 345.2 352.1 354.2 352.1 349.6 351.1 354 354.2 357.9 361 362.6 370.9 381.2 391.7 397.7 402.6 405.8 408.4 414.3 420.1 422.8 419.9 415.5 406.7 399.8 395.4 395.4 396.1 397.2 393.9 390.1 387.8 383.3 377.8 372 366.3 360.3 352 343.2 329.2 324.5 342.9 345.9 350.8 354.8 359.6 364.6 367.1 365.9 361.7 356.2 351.9 348.5 345.2 347.6 350.4 353.3 355.2 357.4 360.5 361.2 360.6 357.3 350.5 342.2 333 319.5 308.7 296.4 308.9 315.2 318.5 321.5 328.3 334.1 336.6 337.9 344.7 348 353.1 358.4 365.6 368.9 371.3 373.7 374.3 381 386.4 387.6 393.5 403.1 402.2 401.8 410 413.3 416.7 419.8 422.2 425.6 429.2 433.3 437.4 441.3 444.6 445 444.5 444.1 443.8 443.7 442.5 440.7 438.8 437.7 437.5 437.9 437.3 434.2 432.1 429.8 428.7 427.8 427.2 425.5 423.9 417.9 419.5 421.8 423.3 424.9 426.2 427.5 428.5 428.8 429.8 431.5 433.3 434.4 436 434.5 431.1 425.4 422.4 420.7 419.2 421 422 422.6 422.7 422.8 423 423.3 423.5 423.6 423.2 421.6 420.6 419.7 419 418.3 411.8 405.1 399.2 394.6 389.1 382.5 374 363.4 351.5 340.2 330.1 326.2 326.2 326.2 326.2 334.3 347.2 364.2 379.9 391.4 404.3 416 422.1 429.4
405.3 408.7 405.3 404.3 407.8 406.7 404.1 398.1 395.1 392.1 389.1 386.6 383.2 376.5 365.3 357.9 342.4 339 347 347.9 348.9 347.1 348.2 349.6 350.2 352.3 354.3 359.3 370.4 381.2 390.5 397.2 400.8 404.1 408.7 414.3 418.9 419.6 416.9 411.5 404.2 397.6 391.5 391.5 395.1 396.6 393 388.6 385.3 381.1 377 371.9 366 358.5 348.6 341 327.6 319.2 340.3 343.5 347.7 350.9 356.1 361.6 363.3 360.4 355.8 350.9 347.3 343.7 341.1 344.9 348.6 351.4 353.5 356.7 359.2 358.7 358.1 354.6 348.9 340.8 331.1 317.8 306.6 297 306.7 311.4 314.2 319.3 324.3 328.6 331.1 334.2 335.5 342.6 354.2 358.7 360.1 362.4 364 371.8 382.3 390.8 394.8 400.7 404.7 406.9 410.6 412.7 414.9 418.9 419.5 420 422.5 425.4 428.5 432.3 436.9 441.3 443.6 443.5 443.1 442.7 442.5 442.2 440.5 438.6 437.1 436.7 436.4 436.2 433.9 431.1 429.9 429 427.9 426.8 426.1 424.6 423.9 422.1 417.2 419 421.1 423.3 424.7 425.9 426.2 426.4 427.4 429.2 431 432.6 432.5 430.1 427 422.1 418.8 417 417.6 419.1 420.6 421.1 421.4 421.8 421.9 422.2 422.3 422.3 421.7 420.2 418.7 417.7 417 416.4 409.6 402.3 397.7 393.5 388.5 382.9 374.8 365.5 354.8 341.9 332.2 326.2 326.2 326.2 326.2 331.4 342.5 357.2 371.7 382 392.8 405.2 411.1 416.1
402.6 404.2 401.8 401.5 404.3 404.8 401.6 396.7 393.6 390.5 387.7 385.7 383 377 364.7 356.7 346.9 338.5 340.7 343.6 344.3 344.2 345.3 346.4 346.3 347.3 351.9 359.4 370.7 381 388.5 394.6 399.8 405 409.7 414.2 417.5 417 413.2 406.8 401.1 395.5 390.4 390.4 393.8 395.2 392.1 387.4 383.2 379.1 375 370.5 365.7 358 348.2 339.9 326.4 325 338.2 341.9 346.1 347.8 352.9 358.3 358.7 355 350.3 345.7 342.3 338.9 336.9 342.7 347 350.1 352.5 355.7 357.1 357.2 355.9 352.6 346.8 339.5 329.5 316.3 306.3 293.9 303.1 309.8 312.8 317.4 320.8 322.4 320.4 330.2 336.8 346.2 349.5 353.6 362.4 367.5 373.6 379.8 386.9 394.3 399.6 404.2 408.1 412.2 416.6 418.9 419.2 421.6 422.4 422.5 423.1 426.2 428.6 432.8 437.3 440.8 441.7 441.9 441.8 441.4 441.2 440 438.5 436.6 435.6 435.3 434.9 433.1 430.8 429.2 428.7 428 427.1 426.1 425 424 423.1 422 417.5 413.3 418.4 421.7 423 423.7 423.9 424.1 425.7 426.9 428.2 428.2 427.7 425.5 423 419.4 416 413.9 416 417.4 418.9 419.5 419.6 419.8 420.5 420.7 420.9 420.8 420 419.1 417 415.9 415.1 414.4 407.7 401 396.6 392.5 387.9 382.3 375.8 367.2 355.9 345.3 335.6 326.2 326.2 326.2 326.2 326.2 337.7 352.1 363.7 372.5 380.5 390.7 399.6 405.3
402.2 401.2 400.8 400.6 401.3 402.3 400.9 396 391.3 388 386 384.1 381.6 374.6 364.3 355.7 349.4 340.7 334.8 338.7 340.7 340.7 342.5 342.8 343.1 345 350.4 360.8 372.3 381.1 388.9 396.2 401.1 405.9 409.8 413.9 416 413.2 409.3 404.8 399 393.3 388.6 389.6 392.5 393.2 389.9 385.3 381.4 377.3 372.7 368.6 362.4 355.5 346.7 340.8 323.9 323.7 334.7 339.8 343.8 344.8 349.7 353 352.8 349.6 344.4 340.6 337.3 333.9 336.1 340.7 345.5 348.8 351.5 354.6 355.6 355.2 353.9 350.6 344.8 338.1 327.1 315.1 306.2 292 297.8 307.3 311.1 315.7 316.9 315 325.2 331 339.2 346 355.4 361.3 365 370.1 377.9 385.8 392.4 399 403.4 407.7 412.2 417.8 421.3 423.6 424.6 425 425.7 424.7 425.8 426.8 429.6 434.4 437.8 438.5 439.7 440.1 440.2 440.1 439 437.4 436.1 436.2 434.5 433.5 432.8 430.7 429.5 428.4 427.3 426.9 426.2 425.3 424.8 424.1 423.3 421.8 419.6 410.7 413.9 417.4 420.3 421.1 421.6 422.2 424.2 425.7 425.8 424.7 423 420.8 418.5 416.4 414.3 413.2 414.3 415.8 417.3 417.8 418.3 418.6 418.9 419.1 419.2 419 418.8 418.1 416.1 414.4 413 412.3 405.9 399.8 395.5 391.3 387.1 381.7 376.1 368.8 359.7 349.8 337.9 328.6 326.2 326.2 326.2 326.2 331.7 345.7 355.4 363.8 370.7 378.2 386.9 392.5
402.6 402.2 402.2 401.4 400.4 400.6 399.6 396.8 392.9 385.8 383.9 382.2 379.2 372.7 364.2 356.6 351.2 344.2 337.3 333.1 335.9 338.4 338.9 339.6 339.8 342.6 349.5 361.8 372.8 383.3 391.6 398.4 403.1 406.6 409.6 413.5 413.8 411.2 407.3 403.1 398.1 390.7 387.1 387.7 390.1 390.2 387.5 382.9 378.6 373.2 367.8 364.6 360 353.9 346.2 340.9 329.6 318.4 328.4 337.1 339.8 341.8 345.2 346.6 346.2 343.5 338.9 335.5 333.2 330.2 334 339.1 344.1 347.3 350.6 353.1 353.6 353.2 351.7 349.1 343.2 335.5 324.5 313.7 305.5 294.1 292.7 303.9 300.9 308.9 306.4 318.7 325.3 334 342.5 350.4 358.3 362.7 367.7 376.5 383.5 390.6 398.5 405.6 411 414.9 418.3 421.5 424.8 427.3 428.8 429.5 430.8 430.2 430.8 428.4 432.3 435.4 436.7 437.2 437.6 438.5 438.6 438.1 436.4 434.9 434.9 435 434 431.7 430.4 429.1 428.6 427.6 425.8 425.1 424.6 424.9 424.6 424.1 423.2 422.3 421.2 418.6 409.6 412.1 415.1 418.4 419.3 421 422.9 423.1 422.8 420.9 418.6 416.5 414.2 412.6 411.2 410.2 412.7 414.2 415.5 416 416.6 417 417.3 417.5 417.7 418.1 417.6 417 415.2 413.5 411.8 410.2 404.3 398.5 394.5 390.4 385.8 381.5 375.8 370.3 362.7 352.8 342 329.3 326.2 326.2 326.2 326.2 326.2 336.5 346.2 354.9 361.6 368 375.4 381
403.3 403.4 403.1 402.5 401.2 400.3 398.7 397.5 394.2 389.2 381.3 379.1 376 369.9 363.5 357.2 351.5 346.5 341.6 334 333.6 335.7 336.4 337.1 338.4 341.2 349.9 361.4 372.7 381.8 391.4 399.3 403.8 407.1 410.4 413 412.7 409.8 406.8 403.2 396.1 388.3 385.7 385.9 387.4 387.2 384.5 379.9 374.3 370.1 366.2 362.7 358.2 352.3 346.6 341.6 334.7 318.5 318.8 328 332.9 339 339.9 340.3 339.6 337.3 334 330.2 328.4 326.6 332 338.3 342.6 345.9 348.6 350.7 350.7 350.6 350 346.6 340.3 332.4 321.5 313 304.6 293.3 289.4 293.6 308.9 313.2 315.6 319.1 326.7 335.1 344.2 350.8 357.4 365.9 374.5 382.6 389.8 395.9 403.5 412.6 419.4 422 423.5 426.6 428.7 431 433.8 436.5 435.5 435.4 434.5 432.4 433.3 435.5 436 436.4 436.8 437.2 436.9 436.3 434.9 433 432.7 433.6 433.1 430.8 428.2 426.9 426.1 425.8 424.9 423.2 423.8 424.2 424.1 423.9 423.1 422.8 421.8 420.6 419.2 411.8 410.2 413.5 417.6 419.6 420 419.4 418.9 417.2 415.8 414 411.6 410.3 409.2 407.9 410.6 412.7 413.8 414.4 415 415.6 415.6 415.9 416.4 416.9 416.8 416 414.3 412.7 411 408.7 404.2 397.9 392.5 387.3 384.2 380.3 373.6 369.6 361.5 352.9 349 340.5 332.7 326.2 326.2 326.2 326.2 326.2 336.8 343.6 350 357.3 363.7 371.5
404.2 403.5 403.2 402.8 401.9 400.8 401.8 400.3 394.6 389.6 383.1 376.8 374.5 368.8 362 355.9 351 347.2 342.9 334.2 332.1 333.1 334.5 336.2 336.9 341.5 350.2 360.7 372.4 382 391.7 398.3 403.3 406.8 410.4 412.7 411.8 409.9 407.3 402.2 393.8 386.7 384.6 384.7 385.5 384.6 382.2 377 371 367.5 364.4 359.5 352.4 348 344.8 337.3 331 319.2 313.1 317.3 324.6 332.7 334.5 334.6 333.2 332.3 329 324.9 324.1 321 331.3 337.8 342 343.9 346.1 347.3 346.9 347.2 347.3 343.5 336.3 329.3 319.9 311 304.9 293.8 289 300.2 309.8 313.2 311.4 318.5 327.8 337 347.3 353.7 362.5 370 378.6 385.8 392.4 400.4 414.3 427.4 426.7 428.1 429.6 431.1 434.1 436.8 440.2 442.3 442.1 440.2 438.2 435.9 435.7 435.1 435.4 435.6 436.1 436.5 436.2 435.3 433.6 431.1 430.3 430.2 429.8 428.4 426.8 425.4 424.1 423.8 422.9 422.3 422.9 423.6 423.5 423.4 423.5 422.8 421.8 420.1 418.3 415.8 407.3 409.9 416 417.1 416.6 416.1 415.5 415.8 414.2 411.7 409 407.8 405.9 407.2 409.9 411.6 412.2 412.8 413.5 414.1 414.4 414.8 415.4 415.9 416.5 415.8 414.3 412.7 411 408.6 405.2 401.1 395.9 391.7 388.4 383.7 378.8 373.8 369.6 366 360.2 352.9 345 336.7 326.2 326.2 326.2 328.1 326 332.7 337.6 348.3 355.7 361.8
405.6 403.4 403.4 403 402.1 401.2 405.3 402.5 395.9 389.5 384.2 378.3 366.5 362.6 359.5 354.1 348.5 345.1 342.5 340.7 330.5 331.3 331.3 334 335.6 341.4 348.5 361.9 373.3 382.7 391.5 397.9 401.9 405.7 409.7 411.7 411.2 410.2 407.7 402.4 393.9 386.3 383.7 383.5 383.6 382.3 378.7 376.9 374.6 370.4 367 362.7 356.6 350.1 345.5 343.3 338.1 332.3 314 312.7 313.8 318.9 321.1 329.6 327.4 325.8 322.7 320 319.4 323.1 330.3 336.2 340.2 342 343.9 343.7 343.2 343.9 344 340 333.3 325.8 317 309.4 302.8 293.8 284.4 296.1 303.1 304.2 309.1 317.7 330.2 342.7 351.4 358.6 365.2 374.7 381.7 387.5 395.8 411.1 427.1 430.1 432.1 433.7 435.3 436.3 438.2 441.3 443 445.1 446.1 443.4 440.4 438.9 436.6 436.1 434.7 435.2 435.3 435.7 435.6 434.9 433 429.1 427.8 426.4 426.6 426.3 424.4 423.4 422.4 421.6 420.7 421 421.6 422.8 423 422.9 422.9 422.2 420.6 418.8 416.6 413.9 409.8 404.9 413.9 413.9 413.4 413.1 413.8 414.4 412.9 410.2 406.5 404.4 403 407 409.6 411 410.7 411.3 412 412.5 413.5 413.9 414.5 415.1 415.7 415.9 414.4 412.9 411.3 409.3 407 404.8 402.8 399.4 395.2 389.5 384.6 379.9 376.7 373.7 370 364.4 356.6 348.4 338.7 329.2 326.2 322.3 314.4 319 327.9 336.7 344.7 354
406.1 400.7 403.1 402.6 399.2 401.4 404.1 402 396 389 383.3 377.9 371.7 368.1 360.4 352.9 348.1 344.9 341.1 335.6 332.6 329.2 330.5 332.8 334 341.2 348.9 363.2 374.2 383.6 390.8 397.1 401.2 405 410.2 411.7 412 410.5 408.6 403.3 395.3 387.5 385.2 383.9 383.2 382.5 383.8 381.1 376.1 371.8 368.4 363.6 357.9 351.2 347.2 342.8 339.5 333.9 318.8 308.5 303.8 297.2 303 322.4 322.3 319.8 317.6 315.4 312.5 321.4 328.9 333.9 337.4 339.4 340.6 340.2 339.4 340.2 340.7 336 330 323.9 315.4 306.8 300 290.5 287.1 295.7 298.6 302.7 310.5 321.8 335.8 347.5 354.5 361.5 369.7 375.3 381.9 390.7 404.9 420.7 428.3 433.4 437.8 441.5 441.3 441.3 442 442.3 443.4 446.5 447.8 446.1 444.1 443 439.2 436.5 435 435.2 435.2 435.2 435.2 434.3 432.1 428.3 425.7 423.7 423.8 423.4 421.3 420.7 420.4 419.4 419.3 419.7 420.7 422 422.4 422.5 422.2 421.3 419.4 417.1 414.6 412 409.6 400.8 410.6 410.5 409.9 411.5 412.9 413.9 412.5 408.8 404.7 402 400.9 406.7 409.8 409.2 409.5 409.8 410.4 410.9 411.9 413.1 413.6 414.1 414.9 415.5 414.3 413.5 412.4 410.7 409 407 405.7 404 400.9 396.6 393.5 389.8 385 380.8 378.1 373.5 366.8 359.9 351.4 342.7 330.5 317.1 306.4 305.3 307.7 320.7 330.4 339.1
405.6 401.9 402.7 400.8 397.3 398.6 400.2 400.6 395.3 388.9 383.4 377.7 373 368.1 363.1 353.6 347.1 344.8 342.3 336.9 330.8 328.2 329.2 330 334 341.5 350.8 364.8 374.3 382.7 389.8 396.1 400.7 404.6 409.6 411.5 412.3 412 409.3 404.2 395.9 388.5 386.2 385.1 384.3 384.9 384.5 380.6 375.9 372.7 368.9 362.3 355.8 350.1 346.4 342 338.5 336.7 330.8 326.1 326.2 315.3 298.7 305.8 316.6 314.5 311.7 309.2 314.6 320.9 327 331.9 335.2 336.6 336.6 336 334.9 335.7 335.9 332.2 327 320.9 313.6 303.1 298 284.4 286.4 292.9 297.8 304.6 314.6 328.4 340.2 349.6 356.4 365.5 371.3 375.5 383.6 399.9 415.3 425.2 432.3 439.4 444.2 446.2 445.6 445 444.6 443.7 443.5 447.1 448.2 449.3 450.5 447.6 443.5 437.8 435.1 434.7 434.6 434 433.2 432 429.7 427.2 424.5 421.6 420.3 419.6 419.5 419.3 418.1 417.4 417.7 418.4 419.8 421.5 421.8 421.8 420.7 419.6 417.7 415.2 412.6 410.1 407.7 401.8 406.2 406.8 408 409.6 411.5 412.1 411.5 406.7 400.8 397.8 400.1 404.8 406.5 406.3 407 407.9 408.5 409.1 410.2 411.8 413.3 414.2 415.2 415.3 415.6 414.8 413.6 412.4 410.7 408.8 407.2 405.9 403 402.5 400.5 395.3 390.2 386.2 383.3 379.7 375.4 369.2 363.9 358.2 353.1 343.4 330.4 314.7 297.4 302.5 314.1 326.4
403.6 402.1 402 397.3 395.8 395.3 396.5 397.7 394.4 388.3 382.8 377.5 371.4 366.2 362.4 353.6 347.6 344.9 340.6 336.4 324.9 326.9 327.4 327.4 335.3 339.7 352 364.2 373.3 381.5 388.5 395.3 399.8 404.4 409.2 411.4 412.9 412.4 410.4 406.4 396.3 390 388.5 386.4 385.3 385.2 382.9 379.3 376 373.1 369.3 363.1 354.8 350.1 346.4 341.7 338.3 336.3 335.1 336.2 333.4 324.4 309.3 293.4 297.8 300.7 301.8 299.5 313.4 319.3 324.8 328.7 332.1 333.1 333.3 331.8 330.8 331 331.3 328.3 324.2 318.1 310.3 301.2 295 287 280.3 291.8 297.7 308.2 323.1 334.6 342.8 350.8 358.4 365.7 370.7 377.8 390.8 410.9 423 427.9 435.1 439.1 442.8 447.3 449 448.3 446.2 443 443 445 449.1 450.2 451.1 451.4 447.4 440.2 435 433.1 432.8 431.9 430.3 428.3 426.2 423.9 421.3 418.5 417 416.8 418.2 417.5 415.4 415.4 416.2 417.1 418.4 419.6 420.8 420.1 418.7 417.8 415.8 413.9 411.2 408.3 406 399.5 401.8 403.7 405.7 407.6 408.4 409.1 408.6 404.8 397 396 399.3 401 402.5 403.6 404.5 405.3 406.5 408.6 410 411.7 413.2 414.5 415 415.7 416.4 416 414.8 413.6 412.2 410.1 408.7 407.1 405.9 404.9 402.4 397.8 393.1 389.5 387.3 385.7 382.1 379.2 374.8 371.7 368.3 362 351.9 340.1 325.6 309.4 299.6 306.5
401.1 401.1 399.9 394.4 393.6 393.1 393.7 395.4 394.3 388.1 382.9 377.1 371.4 365.9 361.1 355.1 349.9 344 340.1 335.3 323.8 325.6 326 329.2 334.1 341.8 353.3 362.9 371.6 379.6 386.8 393.7 397.6 404.9 411.9 413 413.8 414.3 412.5 408.1 396.5 391.5 390.6 388.4 386 383.5 381.1 377.2 375.1 372.6 368.5 362.5 355 349.6 344.8 340.6 337.8 335.1 333.5 333.5 332 324.8 318 312 302.4 293.9 288.2 296.1 310.2 317.6 321.7 325.7 329.2 330.2 330.2 328.4 326.7 326.7 327.8 325 321.2 314.8 306.1 296 291.1 286 280.6 289.9 299.1 314 329.5 338.4 345 352.6 360.5 365.7 372.4 384.7 404.1 419.1 423.8 429 433.3 437.3 442.1 447.1 449.4 448.7 444.5 441.9 442.2 445.3 447.2 447.6 450.4 452.8 448.9 441.7 435.1 432.7 430.1 428.5 427 424.6 422 420 417.3 414.3 414.8 415.8 417.2 415.5 413.4 413.4 414.6 415.1 418 418.5 418.6 418.1 416.8 415.3 414.1 412.8 410 406.8 403.9 399.7 396.9 400.1 403.7 405.1 405.3 406.1 405.5 400.2 393.8 394.4 397.6 399.3 400.7 401.7 402.4 403.7 406.3 408.6 410.6 412.9 414.3 415.2 416 416.6 417.1 416.5 416.2 416.5 415 411.9 409.1 407.7 406.7 405.2 402.2 398.6 394.9 391.2 389.3 389.3 389 386.6 382.9 380.2 379 374 367 358.3 345.7 331.7 314.8 300.8
398.3 398 394.6 391.4 391 391 391.8 393.5 391.8 385.8 381.6 375.3 370.8 368.8 366.4 359.9 355.5 347.7 340.3 336.2 327.7 324.4 326 328 333.9 342.9 353 361.3 370 377.6 385.8 392.6 397.6 405.3 411.6 414.3 415.1 415.3 412.6 407.1 396.8 392.8 390.7 388.2 384.5 381.6 378.2 375.5 374 372.1 367.1 359.6 353 349 344 340.5 337.3 334.3 331 328.8 328.2 323.9 317.9 310.3 301.9 297.5 288.5 284.6 307 313.9 319.3 324 326.5 327.2 326.8 325.3 323.6 323.5 324.7 323 318 310.5 300 291.5 287.8 282.4 278.4 294.1 306.4 320 330.3 339.5 346.8 354.3 361.1 367 378.3 395.4 411.3 419.3 423.8 428 432.3 436.8 441.1 444.2 446 445 440.4 439.4 442.3 445 445.5 446.6 448.4 449.2 446.1 441.7 435 430.7 427.6 425.2 424 420.9 417.8 414.8 412.7 411.8 412.9 414.9 415.2 413.1 410.7 411.2 411.9 413.1 415 416.7 416.2 415.1 415.3 414.3 412.2 409.5 406.9 404.3 402.4 398.6 391.5 396.5 401.2 401.9 402.4 403 401 395.7 390.7 392.9 395.9 397.4 398.8 400 401.3 403.7 406.9 409.6 411.6 413.2 414.3 415.9 417 417.4 417.2 417.3 416.8 416.5 415.5 412.4 409.5 407.4 406.2 405 402.2 399.1 396.1 392.7 392.1 393.2 393.8 391.5 388.3 385.9 384.3 380.6 374.3 366.9 358.6 347.6 332 313.2
396.1 394.4 391.3 389.8 389.7 390.1 391 392 389.2 383.6 379.6 375.4 368.8 368.6 367.4 361.7 355.2 348.7 339.7 334.8 329.8 322.3 325.4 326.9 333.3 342.9 352.1 359.9 370.3 377.2 385.5 392 399 404.3 410 411.9 414.9 415 411.1 405.1 396.4 393.7 391 386.6 382.2 379.2 375 373.2 373.2 370.2 363.3 354.6 351.2 348.1 344.7 341 337.5 335 334.7 326.9 322.4 318.6 312.7 307.5 299.7 295.3 289.2 282.8 303.2 310.2 316.8 322.1 324.7 324.2 323.9 322.5 320.7 320.5 321.8 318.9 312.8 304.8 295 289 281.8 281.1 285.5 299.7 312.1 325.9 335.4 343.5 349.6 355.7 362.5 372 387.8 402.4 412.4 419.6 423.6 428.1 432.6 435.6 438.6 441.6 443.4 442.5 438.6 438.4 441.4 442.6 443.1 443.3 444.5 443.5 442.8 439.7 433.9 429.1 426 423.9 421.4 417.9 414.5 411.5 410.7 410.1 411.4 412.8 412.9 411.2 409.2 409.2 410.3 411.6 413.4 413.9 413.8 412.4 412.8 412.3 410.1 407 404.8 402.9 401.7 398.5 394.7 391.8 397.9 398.6 399 398.7 394.7 392.3 389.2 390.9 393.8 395.4 397.4 399.6 401.2 404.8 408.6 412.3 414 415.4 416.3 417.3 418.3 418.3 418.1 417.6 416.4 415.2 414.3 411.2 408.9 407.2 405.9 404.1 400.9 398.7 395.8 391.5 391.3 393.5 392.6 390.4 388 386.6 385.8 383.4 379.1 372.7 364.9 357 343.5 329.4
394.8 393 391.5 390 389.3 390.1 391.1 390.1 386.8 382 377.9 374.2 367.6 368.5 367.2 361.9 352 346.7 340.2 335.6 329.9 321 323.9 325.8 333.5 344.6 352.3 360.2 370.6 378.3 385.5 393.9 399.6 403.6 407.7 411.1 413.8 413.5 409.1 402.4 396.2 394.1 389.1 384.5 379.9 375.4 372.3 371.1 369.9 366.5 357.2 352.5 350.6 349.3 346 341.2 339 337.2 335.7 330.8 322.5 315.8 310.6 306.5 298.3 292.9 287.4 282.3 299.6 307.3 314.5 319.7 321.3 322 320.5 318.8 317.5 317.9 318.5 313.5 307.6 296.9 290.3 284.9 279.5 280.2 291.7 306.3 318.7 330 339.4 348.3 355.3 360.4 367.4 378.2 392.8 407.7 414.2 419.4 424 428.9 431.7 434.5 438.8 441.9 442.6 442.7 440.8 440.7 438.7 440.5 441.7 441.1 440.7 443.5 443.3 440.2 435.6 429.4 426.5 423.6 419.8 416.3 413.1 410.7 409.3 408.5 409.8 410.3 410.6 409.8 407.5 406.8 408.6 410.1 410.6 410.9 410.9 411.6 412 410.7 408.4 405.3 403.2 401.8 400.7 398.2 394.5 385.7 393.2 395.4 395.6 393.8 389.8 388.3 387.4 390.5 393.7 395.9 398.8 401.5 404.3 408.5 412.6 415 416.6 417.4 418.4 418.9 419.2 419.2 418.3 417 415.9 414.3 412.4 410.1 408.7 406.9 405.4 403.1 400.1 397.8 394.3 389.9 389 389.2 387.8 386.3 385.1 384.7 385 386 383.9 378.3 370.7 361.9 351 338.5
394.7 392.1 389.6 388.9 388.4 390.8 393 388.7 384 379.8 375.8 371.5 366 366.1 365.7 361.7 353.9 346.2 341.1 336 329.9 318.8 322.2 325.1 334.9 344.2 351.5 361.3 371.5 379.6 387 396.4 399 401 406.7 411.5 410.1 409.4 406.1 400.8 395.7 391.7 388.1 382.7 377.7 372.7 369.9 368.3 366.2 362.5 355 352.6 351 349.4 345.4 341.7 339.4 338.1 334.2 330.4 326.6 322 313.8 306.9 298.3 292.7 287 280.7 295.4 304.6 312.8 317.5 319.3 319.5 317.2 314.9 315.2 316 313.8 309.5 301.1 291.9 285.9 276 279.1 282.3 297.7 313.4 325.6 332.9 341.9 351.2 359.1 367.2 376.9 387.7 400.9 410 415 420.1 425.9 429.4 431.9 434.8 439.1 441.9 443.7 444.4 442.7 442.3 440.4 438.3 438.8 438.1 441.1 444.5 445.4 444.1 441 435.8 429.8 423.5 419.6 415.8 412.7 410.2 407.9 407.1 407.6 407.9 408.2 407.6 405.4 405.1 407 408.2 408.4 408.7 409.1 410.1 410.4 408.9 406.5 403.7 402.3 401.4 398.8 396.6 392.3 389.9 385.8 391.7 391.4 388.3 386.1 384.8 387.3 392 395.6 399.5 403.3 405.7 408.3 412.3 415.3 416.6 417.2 418.3 419.1 419.6 420.2 419.3 418.2 417.2 415 413.3 411.8 409.1 407.7 406.3 404 402.5 400.1 397.2 395 389.7 386.9 386.1 385.4 384.3 383.6 384.3 385 386.8 387 382.6 374.5 364.8 356 346.5
396.9 393.4 390.3 387.2 390.1 393.1 392.3 387.6 382.8 379.3 373 368.6 365.6 364.9 362.2 359.7 353 345.7 340.4 335.8 331.2 321.2 320.4 323.7 334 342.9 349.9 361.9 373.4 381 390.6 399.8 397.1 399.3 405.9 405.9 405.2 404.2 402.2 397.8 389.9 386.5 385.5 381.5 375.1 370.2 367.9 366 364.5 359.2 355.8 354.1 351.7 349.2 347 342.8 340.8 339.5 333.1 329.2 325.9 320.6 312.9 306.5 298.6 292.1 286.5 279.7 291.8 301 310.6 315.1 316.9 316.5 313.6 310.9 312.8 312.4 309.1 302.2 292.4 285.5 281.8 274.7 278.6 288.7 304.4 319.2 329.3 338.2 347.4 354.7 363.1 373.1 385.1 395 406.2 412.8 418.5 423.3 429 433 434.4 436.8 440.3 443.2 445.6 448 447.6 444.6 441 438.9 437.3 439.1 443.4 446.2 447.7 446.3 445.6 443 435.7 425.8 420.8 416.9 413.3 409.9 407.1 405.7 405.5 405.8 406 405.3 403.5 403.9 405.8 406.1 406.4 406.7 407.2 408 407.7 406.9 404.6 403.3 401.3 399.6 397.3 393.8 390 387.7 378.7 387 386.4 383.9 383 382 388.5 394.2 399.3 402.5 404.8 406.3 409.7 413.2 415.4 416.1 416.7 418 419.1 419.7 419.8 419.2 418.5 416.6 414.3 412.2 410.6 407.5 404.7 403.4 401.2 399.3 396.5 393.6 392.2 389 385 384.3 384 383.3 382.6 383.5 384.4 386.1 388.4 385.7 378.4 368.8 359.7 351
397.7 394.6 390.1 385.6 391.6 393.1 391 386.9 382.9 378.1 371.8 365.9 364.5 363 359.9 356.3 351.1 346.8 339.5 336.2 331.5 324.9 319 323.2 334.4 342 350.1 362.8 375 383.6 391.3 398.1 396.1 397.7 399.4 399.8 402.4 402.3 398.2 393.7 385 383.3 382.1 380.9 374.4 368.8 365.7 364.7 361.8 360.2 358.6 356 352 349.3 347.1 344.3 340.9 338.8 333.8 330.4 328 322.6 314.3 309.7 301.2 293.8 286.1 276.7 287.5 296.5 306.5 310.8 312.2 312.4 308.9 307 308.6 308.4 303.6 293.5 283.7 281.3 279.1 276.4 277.9 295.1 309.8 323.1 334.1 344.3 353.4 361.5 370.8 380.5 391 401.7 408.9 414.9 423 429.3 434.7 436.3 437.7 439.5 442.6 445.2 448.4 450.7 448.3 445.4 442.5 439.3 438.6 440.5 443 445.5 446.2 446.7 448 446.7 437.1 428.5 422.2 418.9 414.5 409.3 406.2 405 404.2 404.3 403.7 402.8 402.2 402.6 404.8 405.3 405.7 405.5 404.8 405.1 404.7 404.2 403.8 402.9 401.5 398.9 395.9 391.8 387.8 385.9 380.2 381.4 382.8 380.2 379 385.3 390.6 395.5 399.4 402.6 404.9 406.6 409.3 411.9 412.9 413.7 414.5 416.9 419 419.6 419.2 418.6 417.3 414.8 412.5 410 407.8 405.3 401.4 398.7 396.2 395.3 393.3 390.8 389.1 387.8 384.7 384 383.3 382.3 381.6 382.4 383.7 386.1 388.5 388.9 382.3 371.8 362.4 354.3
397.7 393.6 390 384.1 390.4 392.6 389.7 386 381.8 375.3 369.9 364.6 363 361.2 358.5 354.4 350.1 345 339.6 334.9 331.1 325.3 318 323.2 332.9 340.4 351.6 364.9 376.8 386.9 391.3 396.9 396.6 395 394.7 398.1 405.4 400.9 395.2 388 380.9 380.8 381.5 381 373.3 367.2 364.8 363.5 363.1 363.1 360.5 356.4 352.7 349 346.2 344.2 338.7 336.8 332.7 329.8 328.3 323.4 317.1 309.2 303.1 294.6 285.8 277.6 283.3 292.9 303.1 307 307.2 306.5 302.5 300.5 302.3 303.1 294.9 283 278.7 278.4 276.7 274.2 284.4 302.7 315.7 328.7 340.8 351.6 361.5 370.4 378.9 390.6 397.7 407 412.5 420.2 429.4 436.1 437.9 439.2 440.1 442.1 444.8 449.5 453.1 452.3 448.8 448 447 443.3 439.4 441.8 443.2 443.4 444 445.7 447.8 445.2 438.4 431.9 424.8 420.2 414 408.6 406 404.7 403.1 401.9 401.5 400.8 400.3 402 403.7 404.7 404.7 404.2 403.2 402.7 402.5 402.3 402.1 401.1 399.7 396.3 393.7 391.9 385.6 383.9 379.5 377.5 378.7 376.1 381.5 386.9 390.9 393.9 397.3 400 402.2 404.4 407 408.6 409.1 409.8 412.5 415.4 418 418.1 418.3 417.4 415.3 412.6 410.4 407.4 404.7 402.6 398.6 394.7 392.3 391.2 390.2 388.1 387.2 385.5 384.8 384 383.2 382.4 381.1 381.2 382.5 385.4 387.5 388.7 384.8 374.4 364.4 357.2
396.9 392.7 389 382.7 388.8 389.6 387.7 383.4 380.4 374.6 369 363.9 361.7 359.3 356.7 353.5 349.3 345.4 340.8 335.3 332.4 326.2 314.8 323.2 331.5 341.4 352.3 368.7 382 387.4 392.1 396.2 397.4 392.7 391.5 399.4 402.9 398.2 392 383.8 378.2 380.2 381 379.6 372.1 367.2 365.1 363.5 364.6 364.3 361 356.4 352.2 348.6 345.9 342.6 337 334.2 331.7 329.5 327.6 323.7 316.7 309.4 302 293.1 284.8 275.6 279.9 289.4 298.9 302.6 301.5 299.6 296.6 294.6 295.7 296.2 285.3 277.6 277.1 276.1 273.6 270.7 295 309.6 321.8 334.6 347.9 361.7 373.5 385.1 394.7 403.1 407.4 412.1 419.1 426.6 433.3 438.1 440.6 441 441.2 443.7 448.1 454.1 453.9 452.8 450.3 451 450.3 444.6 442.6 442.7 443 441.3 441.9 444.9 446.5 444.1 439.2 433.3 426.9 418 413.5 408.6 405.9 404.4 402.3 400.4 399.7 399.5 399.3 401.2 403.4 404.2 404 403.5 402.6 401.1 401 400.9 400.1 398.9 397 393.7 390.5 387.9 384.4 381.6 379.8 374.3 374.3 376.1 382.5 387 389.6 391.9 394.2 396.7 398.9 401.1 402.7 404.6 404.2 406.3 409.8 413.1 415.3 415.4 415.2 415 412.8 410.5 407.9 404.8 401.9 399.4 395.6 392 389.5 388.5 387.1 386.5 386 385.5 384.8 384 383.5 383 381.8 380.1 381.6 384.2 385 384.8 383.6 375.8 367 359.9
390.6 392.5 387.8 380.9 386.2 387 385.6 380.2 377.2 373 367.2 362.7 360.5 357.9 358.2 355.4 352.4 345.5 340.6 334.2 331.2 325.8 314 322.4 331.7 341.2 353.1 369.8 383.8 388.9 393.2 398 398.1 392.3 389.6 395 398.5 395.7 389.7 381.1 376.8 380.6 381.3 380.1 375.2 370.4 367.6 365.4 365.4 364.3 361.3 356.2 351.6 347.9 344.2 340.9 336.8 332.1 330.5 327.8 326.6 321.7 315.9 307.7 301.1 291.6 282.9 278.5 274.4 286.5 294.3 299.1 296.5 293.6 290 287.3 288.2 285.8 277.1 276.1 275 272 268.7 288.3 302.6 316.7 328.5 342.6 360 375.5 390.1 402.9 410.4 416.4 417.9 420.6 424.8 430.5 435.9 439.2 440.1 440 441.5 446 452.7 454.4 452.1 450.3 448.8 451 452 445.9 443.3 444.4 444.8 442.1 440.3 443.6 444.3 442.5 439.6 432.8 425.3 417 412.9 409.9 406.9 403 400.4 399 398.1 398 398.5 400.6 403.4 403.8 403.5 402.7 401.7 399.7 399.3 398.2 397 395.9 394.1 390.6 387.1 384.3 382.5 379.7 378.2 373.8 371.9 379.3 382.3 385.3 387.3 389 390.7 392.7 395.4 396.8 398.3 400.4 401.2 403.7 406.6 409.4 411.1 412.2 411.8 411.5 410 408.1 405 400.7 398.3 395.8 392.8 390.2 387.7 387.4 386.7 386.2 385.6 385.1 384.6 384.2 383.7 383.2 382.2 380.2 379.8 381.1 381.9 381.1 380 376 368.8 361.8
387.1 387.6 384.9 378.5 382.8 384.1 383.6 376.5 374.1 370.3 365.9 362.5 359.6 358.9 360.5 357.1 353.3 348 341.4 335.7 332.4 325.4 313.9 321.2 331 342.4 354.5 372.5 388.2 389.9 395.3 399.5 397.7 391.4 387.1 390.5 391.5 391.7 389.3 383.1 381.1 381.6 383.3 384.7 378.5 373.9 369.6 366.4 365.1 364.3 362.8 356.7 350.8 346.7 342.7 339.6 336 330 326.8 326 324.3 319 314.3 306.5 297.8 288 280.4 277.7 270.9 284.6 290.4 295.1 292.7 287.7 281.3 277.5 278.3 275 273.2 271 269.9 268 287 298.4 309.7 321.9 336.6 356.8 375.4 391.1 403.5 413 420.8 428.7 428.7 426.3 428.7 432.9 437 439.7 440.8 441.2 444.2 448 451.2 450.5 448 447.3 447.4 449.6 450.4 445.4 442.8 445.7 447.1 441.5 441.5 441.9 442.2 440.9 438.6 430.9 422.2 416.8 412.9 410.1 406.8 402.8 399.1 397.4 396 396.8 398.8 400.6 402.9 403.2 402.6 401.7 400.6 398.7 396.8 395.3 393.9 393 390.9 386.9 383.3 382.4 379.5 377.6 376.2 373.5 368.1 378.1 380.9 382.3 383.7 385.4 387.1 389 390.4 391.8 393.8 396.5 398.3 401.3 404.1 405.2 406.6 407.3 407.5 408.3 407.3 405.3 401.7 397.7 394.9 392.6 390.4 388.1 387.2 386.9 386.4 385.8 385.3 384.8 384.4 384.1 383.7 383.6 382.4 380.2 378.9 378.7 378.5 377.8 377 375.7 370.7 364.2
383.2 382.7 381.1 376.9 377.6 380 378.5 373.9 372.1 368.5 365 362.4 360.6 360.5 362.1 360.2 354.2 350.7 346 336.6 331.5 324.2 311.9 319.8 329.5 340.9 355.1 378.3 387.7 388.6 395.7 396.1 395.5 389.7 384.1 385 384.8 386.4 388.8 387 382.9 384 393.1 394.1 381.2 376.8 371.2 366.7 364.5 364.4 362.2 358.2 351 345.2 341 338 335 329.3 322.9 321.9 320.1 316.6 310.7 304.3 294.5 285.1 279.6 275.4 272.8 280.6 286.5 289.6 287.2 281.3 276 274.4 274.3 268 264.9 265.4 271.4 285.1 295.1 305.8 316.3 329.5 348.3 372 388.5 400.7 411.2 418.6 429.7 434.7 435 433.3 430.6 433.7 438.4 443.8 445.6 442.4 444.2 447 446.5 446.2 446.3 447.5 447.6 449.4 450.6 444.4 442 443.8 444.1 441.1 440.4 440.1 439.2 438.1 435.6 427.4 420.1 416.3 412.5 408.8 405.5 400.9 397.6 395.8 394.1 396.9 398.8 400.8 402.4 402.3 401.7 400.8 398.5 396.3 394.7 393.1 391.4 390.5 387.6 384.1 381.5 379.1 378.4 376.4 373.2 371.2 368.7 376.4 378.1 379 380.3 381.8 383.6 384.5 385.7 387 390.3 393.3 396.3 399.5 400.2 401 402.4 403.3 403.8 405 404.4 401.8 397.8 394.4 392.1 390.4 388.9 387.6 386.9 386.4 386 385.5 385.1 384.7 384.3 384 384.2 384.2 383.5 381.5 379 377.6 376.2 375.5 374.5 374.5 373 366.4
381.3 378.3 378.5 374.6 375.1 376.1 374.5 373 371.9 370.7 368.3 364.9 362.4 363 363.9 361.9 357.3 352.5 347.1 339.3 326.6 318.7 310.9 318.9 327.9 339.3 354.6 373.8 383.9 385.3 393.4 391.4 390.6 386.4 381.2 379.3 379.9 383.5 391.7 390 383.8 390.3 395.9 394.5 382.6 376.6 370.3 365.9 363.7 362.6 362.1 358.8 350.6 343.1 339.6 336.3 333.1 328.2 323.2 317.9 315.5 313.4 306.3 300.6 291.6 282.4 278 272.8 271.4 275.7 281.4 283.7 280.9 275.9 269.2 266.5 264.3 267.3 268.6 274.8 285.7 292.8 305 315.5 326.3 341.5 366.3 382.3 394.9 406.9 415 427.6 435.4 440.8 442 436.6 432.2 432.7 441.1 453.6 449.4 442.6 443.1 443.9 444.2 447.4 449 450.6 452.2 452 448.7 442.9 441.1 440 438.6 439.1 437.6 436.6 435.4 434.5 430.9 423.6 418.2 414.1 410.2 408 403.6 399.7 396.4 394.7 393.2 396.9 399.1 400.5 400.7 400.6 400 398.6 396.3 394.1 392.5 390.9 389.3 387.4 384.7 381.4 378.5 376.1 375.8 374.8 371.4 368.8 365.9 371.8 374.7 375.7 377 378.3 379.7 380.7 381.2 383.6 387.7 391.9 396 397.5 397 397.1 398 399.3 400.3 401.6 400.8 397.9 395.1 391.4 389.3 388.2 387.9 387.1 386.6 386.2 385.4 385.3 384.9 384.5 384.1 383.9 384.7 385.1 384.3 382.4 380.3 378.5 375.9 373.2 372.2 372.8 373.1 366.7
377.7 374.9 376.1 373 373 373.1 374.2 374.2 373.5 374.4 370.2 366.2 363.5 363 364.2 362.7 359.5 353.2 346.6 339.6 327.7 317.3 313 318.5 326.8 338.3 355 370.8 378.9 382.9 389.2 387.9 386.2 385.8 378 374 374.7 385.2 398.1 390 381.9 392.3 392.2 390.4 383.3 375.5 369.3 365 362.2 361 360.1 358.6 350.8 341.7 337.9 333.9 330.3 326.2 322.3 315.2 311 308.4 302.7 295.8 288.9 280.3 276.4 271.4 266.5 271.3 276.2 279 275.3 267.6 265.1 264.9 265.6 266.3 279.9 284.6 290.8 302.2 313.7 323.5 336.2 356.6 373.4 387.6 400.4 409.7 422.8 432.6 440.9 450.5 448 440.6 431.1 430.7 450.9 453.6 446 442.2 441.8 442.2 445.1 448.8 452.7 455.4 454.4 451 445.6 441.4 438.5 434 436.1 436.6 435.9 434.3 432.3 429.9 427.3 420.8 416.2 412.7 408.6 406 401.9 399.2 396.5 393.4 392.5 396.6 398.4 398.8 399 398.8 397.8 396.5 394.2 392.2 390.9 389.2 387.6 384.8 382.7 379.2 375.8 374.8 373.6 372.6 370.5 367.2 364.9 368.7 371.6 372.3 373.9 375.5 376.6 377.5 378.6 382.3 386.7 390.5 394 395 394.6 394 395.1 396.5 397.2 397.5 396.8 395.5 392.9 389.4 387.8 386.9 386.7 386.6 386.5 385.8 384.9 384.5 384.4 384.2 383.9 384.3 385 385.7 384.4 382.6 382.5 379.3 376.8 373.9 370.5 370.5 369.8 365.7
374.6 372.2 371.9 372.3 371.9 372.4 374.8 374.2 373.2 374.6 372.1 366.7 362.1 361 362.6 362.2 359.7 352.9 346 338.3 328.7 314.9 313.3 317 326.5 336.5 354.9 366.7 377.1 384.4 384.7 381.9 385.4 384.6 376 369.1 369.2 384.9 396.5 387.6 381.1 388.9 388.3 386.8 383.8 374.6 368.1 365 362.1 358.7 358 356.9 351.5 339.6 335.3 330.7 326.9 324 321.1 312.7 306.5 301.9 297.9 291.8 284.7 278.9 275.3 272 268.2 264.4 266 275.7 270 263.4 263.8 263.7 266.5 278 283.2 288.9 299.6 310.8 320.1 329.9 347.7 365.2 380.1 393.1 404.4 417.5 428.3 439.8 450.3 453.2 451.1 445.9 430.6 433 451.5 449.8 444.5 441.3 440.4 441.5 444.1 447.8 451.5 453.6 454.2 448.8 444 439.9 435.9 433.4 435.5 436.5 437.1 434.7 430 428.3 426.9 420.4 415.1 411.2 404.1 403.5 400.7 398.9 396.5 391.7 390.1 396.6 397 397.2 397.1 396.5 395.5 394.3 392.3 390.3 389 387.7 385.6 381.9 380.1 377.5 374 373.3 370.9 370.2 368.5 365.6 362.9 362.7 368.6 369.8 371.2 372.7 374 375.7 378.2 382.3 385.5 389.3 391.6 391.9 392.3 392.4 392.3 393.6 394.2 393.3 393.3 394 391.3 387.7 386.4 385.4 385.3 385.4 385.9 385.4 384.4 383.4 383.7 383.6 383.2 384.2 384.8 385 384.1 383.5 383 380.8 377.3 374.1 369.5 365.7 364.8 362.3
374 372.5 371.7 371.8 370.9 373.5 375.8 375.4 374.8 374.9 372.2 366.8 360.7 358.5 359.3 360.6 359.3 352.9 345.3 339.5 331 311.9 312.6 317.2 324.6 336.4 353.6 363.3 379.3 382.2 380.9 376.8 385.2 383.4 373.9 364.3 362.6 376.6 387.7 382.6 377.7 383.8 383.6 384 384.7 374.4 368.2 364.7 361 355.3 354.9 354.6 349.7 341.4 333.2 328.3 323.8 321.2 318.3 310.7 303.3 296.6 292.9 287.8 282 277.2 274 269.6 266.2 263.1 262.1 263.9 262.3 263.4 263.8 266.4 274.4 281.5 288.6 297.1 307.9 316 325.6 340.3 357.9 373.7 385.4 396.7 416.2 425.2 433.8 447.3 452.7 452.3 450.9 444.6 433.5 439.9 447.9 448.3 444.2 441.3 440.7 442.6 443.8 445.9 448.5 451.1 450 446.3 442.3 439.6 437 433.6 437.4 438.2 436.7 433.2 427.5 426.7 427.5 421 413.8 408.6 403.2 401.9 399.7 397.8 395.8 392.3 387.5 395 395.4 395 394.5 393.7 392.8 391.7 390 388.3 387.1 385.9 383.7 379.6 377.6 375.3 372.4 369.9 368.2 367.6 366.4 364.2 360.8 362.2 366.4 367.5 368.7 370.3 372.8 375.8 378.6 381.8 386 388.4 390.4 390.8 391.1 390.6 390.7 391 390.2 390.3 391.2 391.9 390.1 386.3 384.9 384 383.9 384.2 384.8 384.8 383.2 381.6 382.7 382.6 381.9 383.3 383.7 383.1 382.4 383.8 383.4 380.5 376.3 370.9 365.7 361 359.7 358.5
377.2 373 372.8 372 372.3 372.7 374.8 374.6 373.8 373.7 369.9 364.6 359.1 355.8 356.4 357.3 358.3 353 346.6 340.5 331.2 311.3 312.3 314.9 322 336.8 351.9 360.4 374.2 379.3 375.7 371.3 380 378.8 372.7 362.1 358.1 365 383.4 376.6 374.8 378.8 378.9 382.4 384.7 374.8 368.6 364 359.7 354 352.8 352.7 349.7 340.6 331.4 326 321.5 317.9 314.6 309.6 300 293.4 288.6 283.7 278.9 275.1 272.2 270.1 268.2 265.9 262.8 259.4 256.9 264.4 265.2 269.3 279.6 288 295.9 304.6 312.3 319.3 330.6 350.2 365.8 379.1 389.7 402.8 417.3 426.8 440.8 450.9 451.2 449.1 447.8 446 439.2 442.9 445.4 444.8 442.2 440.6 443.6 445.7 443.6 444.3 446 446.9 446.4 443.3 442 439.3 437.2 437.9 438.1 436 433.4 428.8 426.8 426.2 422.3 417.6 411.5 406.6 401.9 400.4 398.7 395.8 395 392.5 383 391.6 393 392.6 391.7 390.8 390 388.8 387.4 385.9 385 384 381.4 377.6 375.5 373 370.6 367.5 365.7 364.9 364 362.2 359.1 360.2 364.5 365.6 367.6 369.8 373.1 376.7 379.4 382.3 385.9 388.9 390.2 390.2 390.3 390.5 390.2 388.2 387.2 388.1 389.3 389.1 388 385.4 383.6 382.3 382.3 383 383.5 383.5 381.4 380.3 381.8 381.8 380.7 381.4 381.5 381.1 381.2 383.6 383.4 380.4 376.8 372.8 366 359.4 357 354.7
380.7 379.2 374.6 372.8 372.8 371.3 371 372 372.5 371 366 360.2 356.5 353.5 353.7 355.3 358.9 353 347.3 341.3 333.6 317.2 308.7 313 319.2 336 347.8 356.5 369.9 377.5 372.5 367.1 376.4 375.3 370.1 360.8 355.5 357.7 374 369.9 373.6 374.5 375.8 381.4 383.8 377.4 368.9 362.9 357.9 352.5 350.9 351.4 348.7 339.3 329.6 323.2 316.3 318 312.3 305.4 296.8 290.1 285.7 281 275.7 272.1 270.4 269.9 268.4 265.9 262.9 260.1 255.5 263.5 264.4 274.7 285.7 294.4 302.3 307.2 311.4 320.5 339.6 357.5 371.8 383.9 393.8 403.8 414.9 433.1 440.8 447.4 447.5 446 443.8 444.2 442.6 443.5 444 442.7 440.7 439.6 441.9 442 441.5 442.4 443 444.2 443.8 443.8 443.8 441.9 441 440.1 435.8 432.2 429 425.5 425.6 422.9 418.1 412.4 407.7 402.7 399.1 397 394.9 394.4 393.6 393.3 386.4 383.9 389.4 389.7 388.8 387.9 386.8 385.5 384.3 383.6 382.7 381.5 378.2 375.3 373.2 370.3 367.4 364.5 363.7 362.3 361.4 360.3 356.6 358.7 362.6 365.1 367.3 370.7 374.1 377.7 380.3 383.4 388 390.3 390.6 390.3 389.5 388.9 388.4 385.4 384.9 386 386.9 386.3 384.8 382.7 381.5 380.4 380.7 381.3 381.8 381.1 379.5 379.8 380.5 380.6 378 378.5 378.4 377.8 378.5 381.6 382.7 379.7 377.2 373.7 366.2 358.9 354.2 353.2
381.3 379.5 375.4 373.6 375 376.5 372.7 370 370.1 366.1 361.4 356.2 352.9 350.7 350.4 354.3 358.4 353.1 348 342.2 337.3 327.7 305.6 308.6 313.9 334.7 344.2 355.5 366.5 370.7 365.7 365.7 373.2 373.8 370.1 362 354.9 355.5 366.9 365 370.4 370.6 373.3 380.9 383 382 373.5 363.1 355.6 350.9 348.1 347.3 344.6 336.2 328.3 321.5 311.3 314.1 308.8 302.1 295.8 287.8 283.5 277.8 272.8 269.7 268.2 268.1 267.2 266.1 263.2 260.1 257.5 263.4 271.9 281.6 291.5 298.9 304 306.1 314.6 332.1 349.5 365.3 376.8 389.3 395.7 403.1 414.9 428.8 440.3 443.2 443.4 442.4 443 444.5 445.6 444.8 443.1 440.7 437.8 433.9 436.7 438.7 441.4 442.5 440.8 440.6 442.6 445 445 444 445.5 443.9 432.5 427.7 424.5 422 420.8 416 412.3 407.4 404.4 400.4 397.2 393.9 392.6 392.3 392.2 393.5 392.1 382.8 383.1 386.9 385.9 384.8 383.5 382.1 381.3 380.8 380.1 378.9 375.3 372.9 370.7 367.3 364.3 362.5 360.8 359.8 359.1 357.2 352.4 358.1 362.2 364.9 368.3 371.7 375.1 378.5 381.8 386.6 391.9 391.2 389.8 389.5 389 388.2 386.8 383.5 382.8 383.3 383.1 381.9 380.4 379 378.4 378.4 378.6 379.3 379.9 379.2 378.2 378 379 377.9 376.3 374.5 374.6 374.3 374.6 377.3 379.2 378.7 376 372.6 366.2 358.8 354.1 350.9
382.2 376.8 373.1 372.1 372.2 373.1 371.1 366 365.8 362 357.5 352.6 350.1 348.7 347.6 351.7 356.4 351.2 348 342.6 337.5 331 315.1 305 313.1 332.1 341.1 354.9 368.1 368.5 364.2 363.9 369.7 370.7 372.3 363.5 355.2 351.6 362.1 361.9 365.3 366.7 371.2 377.8 379.3 379.8 377.1 363.5 353.5 348.4 345.5 342.5 339.9 332.7 326.3 319.9 309.8 309.1 304.9 298.8 292.1 284.8 280 274 270 266.9 265.9 265.9 266.3 266.2 262.1 258.8 260.7 269.4 278.7 284.9 292.5 299.2 303.6 308.7 323.7 341.4 356.7 370.4 381.8 389.9 396.8 403.8 414.6 426.6 438.3 438.9 439.5 441.2 444.8 448.4 449.1 446 442.1 438.3 431.3 426.9 431 439.5 441.7 441.5 436.5 435.6 440 443.6 443.1 442.4 443.3 442.4 429.7 423.7 421.5 417.9 414.1 409.8 406.6 404.2 401.9 398.2 392.8 390.9 390.9 391.8 392 392.8 391.5 388 376.1 381.4 382.8 381.5 380.1 378.8 378.2 377.9 377.1 375.8 372.8 370.5 368.5 365.2 361.6 359.9 358.6 356.8 357.8 354.4 355.4 359.6 362 365.6 369.2 372.6 376.1 379.9 384.9 390.4 392 391 390.2 390 388.3 387.3 384.8 382.4 381.3 380.1 378.7 377.3 375.9 375.4 375.2 375.2 376 376.8 377.5 377.6 377.1 376.9 376.4 376.3 374.6 370.6 369.9 369.8 370.8 372.6 374.5 376 373.8 371.1 366.3 359.9 353.8 349.2
384.4 377.4 369.7 368.6 368.2 368.7 368.8 361.1 361.5 356.5 353 350 347.8 346.8 345.7 350.6 353.1 348.1 345.7 341.3 336 330.8 317.2 305.2 311.2 329.1 337.9 355.1 368.5 369.4 365.2 362.8 366.4 367.4 374.9 366.6 355.7 354.8 357.6 360.3 360.8 362.6 368.4 374.2 375.4 375.9 375.9 365.6 355.1 346.8 342.2 337.8 334.6 328.9 323.2 316.8 305.9 301.8 300.1 294.9 288.6 283 277.6 271 267.2 264.8 264.1 265 265.4 265.4 259.8 258.6 264.2 275.4 281.3 287.6 294.9 302 306.7 315.5 332.1 348.2 360.7 372.6 383.3 391.5 396.5 404.3 420 427.3 433.3 433.5 436 444.6 447.7 449.2 449 446.5 441.9 434.8 427.4 422.6 426.5 431.1 437.5 437.4 431.4 431.4 436.5 439.8 439.3 438.7 438.9 437.7 429.3 421.4 418.6 414.2 408.3 405.3 403.4 402.4 400.4 394.7 390.6 390 389.9 391 392 391.3 389.7 387.2 378.7 374.5 378.8 378.8 377.5 376.2 375.5 375.1 374.3 372.9 370.7 368.3 365.7 361.9 359 357.6 356.4 354.8 355 352 355.4 359.2 362.9 366.4 369.7 373.6 377.8 382.8 388.3 391.3 391.3 390.7 390.1 389.6 387.2 386.1 383.6 381.7 380.3 377.6 375.3 373.5 372.3 372.2 371.9 372.5 373.4 374.2 375 375.7 375.4 375.7 375.2 374.3 372.1 368.1 365.7 366.2 367.2 368.2 370.1 371.6 370.7 368.8 365 360.1 354 348.3
390.5 383.4 367.6 366.2 366.6 366.4 364.8 358.3 355.1 352.2 350.3 348.2 346.7 344.6 344.4 348.4 348.4 344.8 344 339.9 333.8 329.8 316.4 304.4 307.8 327.1 335.4 354.4 364.9 366.7 363.4 361.4 362.3 364.5 373.7 368.1 360 358.4 355.2 358 358.1 359.9 364.5 370.5 371.7 371.5 371 367.7 357.9 345.9 338.7 334.2 330.3 324.5 319.8 314.3 306.2 292.6 290.6 288.9 284.9 281 275.4 268.2 264.3 263.7 263.1 263.9 264.6 257.9 257.9 254 270.8 278.4 285.8 293.6 300.6 303.9 309.6 322.5 337.9 350.3 362.2 373.4 385.6 392.5 395.4 405.7 419.4 424.7 429.1 432.3 439.4 444.8 447.1 447 446.9 445.9 440.3 431.3 423.8 419.6 421.1 423.5 425.3 425 423.2 426.1 432.7 436.4 435.6 435.1 434.9 433.7 427.5 418.9 414.6 409.2 403.6 402.5 401.5 399.8 397.3 392.2 389.3 389.2 389.3 390.4 389.6 389 387.6 384.9 380.8 367 374.1 375.8 375.2 374 373.1 372.4 371.4 370 368.2 365.7 362.6 359.7 357.3 355.6 354.4 353.7 351.6 351.9 356.6 360.1 363.9 366 370.1 375.6 380.8 385.7 388.7 390.5 390.8 390.1 389.5 389.1 387.3 385 382.4 380.5 378.8 375.2 372.2 370.4 369.2 369.1 368.8 369.9 370.8 371.6 372.4 373.5 373.3 373.1 372.6 371.9 369 365.3 362.7 363.3 363.5 364.1 365.6 366.8 367.1 366 364.1 359 353.1 347
395.1 381.5 368.9 370.4 363.8 362.4 360.3 357.7 351.1 347.5 346.4 345.7 343.2 343.5 344.2 345.8 343.6 341.8 341.5 337.4 331.8 327.5 316.2 303.4 306.8 325.8 334.4 351.5 361.7 363.1 361.5 359.9 359.5 360.4 375 370.9 364.2 360.8 356 353.5 355.2 356.8 361.5 366 367.3 366.8 366.1 364.6 360.1 346.4 337.9 331.8 327.8 320.8 316.1 311.3 304.3 295.9 288.7 284.8 281.3 278.4 272.7 264.7 262.4 262.2 262.1 260.1 256.8 256 254.8 263.4 274.2 280.9 291.5 299 302.9 305.9 314.1 327.2 341.2 352.1 362.3 372 381.6 387.6 394.3 407.7 422.3 425.9 429.6 435.1 440.3 442 443.3 443.4 444.3 443.4 438.2 430.8 423 417.5 416.4 417.5 417.3 415.4 414.8 422 427.9 432.2 432.1 431.8 431.5 429.4 421.2 416.8 411.3 405 401.4 399.6 399 396.9 393.8 389.6 388.1 387.6 388.6 388.6 387.7 386.7 385.2 382.6 379.6 371.2 366.5 371.1 372.8 371.8 370.9 369.9 368.5 366.9 364.6 362.3 360 357.2 355.3 354.3 353 350.9 350.6 353.6 358.1 361.8 364.1 367.9 373.1 378.1 383.3 386.8 389.2 390 390.2 389.6 389.1 389.1 387.7 384.3 381 378.8 376.8 373.1 370.2 368.3 367.3 367.1 367.2 367.3 368.4 369.5 370.7 371.2 370.9 370.7 370 369.3 366.2 363.2 360.5 360.2 359.8 360.3 361.4 362.3 363.4 362.6 361.8 358.6 351.6 345.5
391.6 379 374.4 374.6 363.7 359.4 357.8 354.1 351.8 353.7 350.5 346.3 344.7 342.7 342 342.6 339.2 338.8 338.8 333.5 329.2 324.7 312.4 298.6 314 324 330.4 345.7 356.5 359.5 359.9 358.4 358.9 361.1 378 372.5 364.6 359.9 354.6 350.6 351.7 353 356.1 360.3 363 362.3 361.6 360 356.3 345.5 336.4 329.6 325.6 317.7 312.9 307.4 301.3 295.8 290.7 282.8 276.1 274.4 268.6 261.5 261.2 261.1 260.8 256.6 255.2 252.9 257.7 268.8 277.7 286.6 297.8 301.4 303.9 307.9 317.4 330.7 343.4 351.6 362.2 370.4 380 389.9 400 421.1 423.2 426.3 430.4 435.9 437.8 438.3 439.1 439.5 440.1 440.8 437 429.7 422.8 416.8 413.4 412.6 410.3 408.3 410.4 417 423.6 427.7 428.8 428.9 429.4 425.5 419.8 414.4 408.4 403.1 400.1 397.2 396 393.3 389.8 387.7 386.9 386.7 386.8 386.3 386.1 383.6 382.8 380.5 378.2 375.6 370.1 360.8 367.1 368.5 367.3 366.3 364.8 363 360.3 359.3 357.4 355.3 354.2 353.2 351.2 348.5 350 356 359.9 361.9 365.1 370.6 376.6 381.1 384.8 387.4 389.3 389.7 389.7 389.1 389.1 388.6 386.7 383.9 379.8 377.4 374.5 371.6 369.2 367 365.6 365.7 365.9 366 366.3 367.5 368.8 368.8 368.6 368.2 366.5 365.5 363.3 361.2 359.3 357.8 356.4 356.2 358.1 358.1 358.9 359.2 358.2 357.1 352 345.1
391.2 378.6 375.8 371.7 364.1 360.3 359.3 360.3 358.6 352.4 351.8 349.8 345.2 341.9 340.7 338.3 337.8 337.8 335.9 330.4 326.9 323.5 309 313.9 322.5 321.9 326.6 342.1 354 357.9 360.5 357.2 358.7 362.7 377.9 372.8 363 357 351.7 346.4 347.8 349.4 351.4 355 358.7 358.2 357.5 355.1 351.4 343.3 334.1 327.5 322.8 316.2 309.8 303.8 298 293.6 288.9 282.1 272.9 269.2 263.3 260.4 260.2 260.5 258.8 255.1 253.9 255.6 260 273.2 281.6 292.7 299.5 301.9 303.6 310.3 320.5 334.3 343.6 353.4 362.3 372.9 383.9 394.2 413.1 418.9 423.7 427.1 430.7 434.5 434.8 434.8 434.7 435.7 436 435.5 433.6 428.4 422 416.6 413.2 408.4 404.1 403 405.7 413 422.1 424.3 425.6 427.8 428.1 423.6 420.3 413.9 406.8 401.9 398.8 395.3 392.8 390.2 387.4 384.8 384.8 386 385.6 386 384.9 382.4 380.1 379.4 378 376.2 373 366.5 361.3 362.7 363.1 362.3 360.5 358.7 356.9 355.9 354.7 352.9 352.1 350.7 348.6 347.3 353.8 357.3 360.2 363.6 368.4 374.3 379.5 383.5 386.3 388.5 389.2 389 388.6 388.2 387.7 386.6 384.8 382.3 378.4 374.8 372.2 370.7 369 366.6 364.8 363.4 364.5 364.5 364.1 365.2 366.1 366.3 366.2 364.4 363 362 361.1 359.3 356.8 354.8 353.4 353.4 353.4 354.1 354.8 355.4 354.7 353.9 351.8 345.7
390 378.2 375.4 371.5 367.3 364.2 363 354.4 354.8 352.1 352.8 349.7 346.2 343 340.1 337.5 335 335.9 333.4 327.9 324.2 320.9 306.5 317.7 321.9 322.1 327.1 341.1 352.7 361.1 358.8 356.6 358.4 363.3 373.2 367.8 359.3 353.1 348.9 342.6 343.6 344.8 346.9 350.4 354.2 353.8 353 350.1 346.9 340 331.9 326.5 320.9 313.7 307.3 301.8 295.6 290.9 286.4 277.8 271.6 265.4 260.7 260.1 259.8 260.2 254.3 253.7 251.1 255.1 266.5 276.6 284.9 294.2 297.9 300.5 306.5 315.7 327.2 337.1 345.4 354.9 370.5 381.9 391.7 409.7 412.5 418.7 421.5 425.7 430.5 434.3 434.9 431.6 431.3 432.3 431.9 431.1 430.1 425.1 420.5 416.5 412.2 405.5 399.5 398.9 402.1 409.9 417.9 420 422.8 426.4 425.7 423.9 419.9 413.4 406.6 400.7 396.6 392.5 388.2 385.7 384.4 383.9 384.3 383.7 383.6 382.4 384 381.9 380.6 378.8 377.5 375.1 372.3 367.6 357.1 355.9 357.7 358.1 356.3 355 353.9 352.9 351.6 350 349.5 346.6 346.5 349 355.4 358.4 361.4 366.8 372.3 378.1 382.4 385.6 388.5 389.3 388.1 386.8 386.4 386.3 385.6 384.2 382.3 379 375.6 372.6 370 368.4 366.9 365 363.4 361.8 362.4 362 361.5 362.3 363.2 362.6 361.6 360.5 359.6 358.9 358 357.1 354.9 351.8 350.8 350.2 350 350.9 351.7 351.4 350.8 350.6 349.8 346.3
388.5 384 378.6 378.7 377.2 372.3 368.2 361.7 358.4 353.5 353.9 351.9 346.2 342.4 339.8 337.1 335.7 330.2 326.2 324.7 319.1 313.3 303.6 311.7 321.2 323.2 326.9 341.5 356.8 361.3 358.4 356.6 357.9 363.7 369 362.5 355.6 350.8 346.4 339.4 338.9 340.3 342.5 346.1 349.3 349.3 347.9 345.1 341.5 336.5 331.3 328.3 323.2 311.3 305.2 299.5 293.6 289.1 284.2 275.8 269.2 263 259.6 259.3 259.3 255.6 253.9 253.6 251.1 258.9 269.8 278.1 291.1 295.4 296.3 300.1 310.4 320.3 331 340.5 349 363 378.7 388.8 399.3 404.7 411.5 415.8 420.9 426.5 435.5 445.3 438.4 429.4 430.1 429.9 429.6 428 426.2 423.2 419.8 416.3 409.7 402.3 395.6 395.9 400.1 406.1 413.2 415.8 418.5 422.2 423.9 422.5 418.1 411.5 405.3 400 394 390 385 382.4 380.9 384.4 384 382.3 383.1 382.8 382.9 383.1 380 379 377.3 374.1 369.9 365.9 361.2 351.1 352.2 354.2 353.1 352 350.9 349.4 348.3 348.2 344.5 342 350 355 359 362 366.8 371.8 376.7 381 384.7 388.4 389.5 387.8 386.3 384.8 384.2 383.9 382.3 380.9 378.6 374.8 372.7 370.6 367.7 366.1 364.6 362.9 361 359.1 359.6 359.2 358.3 359.2 360.1 359.3 358.1 357.2 356.6 355.9 355 354.2 352.5 348.9 348.5 347.8 348.2 348.9 348.9 349 348.5 348.4 347.8 346
394.3 388.1 380.6 380.7 379.2 375.5 371.7 368.8 365.5 360.1 356.1 352.8 349.1 344.1 341.7 339 337.6 337.5 340 334.4 329.3 319.9 305.1 310.2 323.9 325.1 328.6 346.2 368 361.8 357 354.8 358.4 362.1 363.7 357.8 351.4 348 342.2 335.8 334.8 335.7 338.2 340.1 342.7 344 342.6 339.8 338.2 335.6 330.8 329.2 324.3 311.1 303.3 296 291.6 287.7 281.7 272.8 266.2 260.4 258.7 259 258.1 254 252.9 252.9 254.6 267.8 274.6 281.7 288.3 292.1 299.3 306.1 314.2 325.1 333.8 342.7 355.2 375.4 391.1 398 400.6 403 409.8 417.9 423.2 430.6 445 449.3 441.8 433.9 430 427.8 427.8 426.1 425.3 422.5 418.7 414.6 407.2 401.3 393.4 394.6 397.9 402.1 408.9 411.6 413.8 418.3 421.8 419.6 415.6 409.8 403.5 398.3 392.4 387 382.9 380.8 380.1 382.6 382.1 380.6 380.8 381.1 382.4 383.6 381.8 379 376 371.9 367.4 362.5 358.7 350.4 347.8 349.6 348.5 349.2 346.8 345.9 345 342.5 340.5 350.1 355 358.8 363 366.8 370.6 374.9 379.1 383.8 387 388.7 388.3 386.6 384.9 383 381.7 381.1 379.2 377.5 374.8 371.9 370.2 368 364.6 363.2 361.7 360.4 358.5 356.3 356.5 356.4 355.3 355.9 356.7 356.2 355.3 354.6 354.1 353.9 353 352.2 350.3 347.7 346.9 346.3 346.1 346.2 346.3 346.4 346.5 346.7 345.7 344.4
400.1 397.7 389.3 385.7 382.1 378.7 380 381.3 375 368.5 362.9 359 353.4 346.6 344.6 343.9 341.2 341.9 341.9 335.2 327 318.2 302.2 313.9 327.1 327.1 330 349.1 368 360.9 354.9 353.3 357.6 358.9 358.2 349.1 347.5 344.6 339.9 334.2 332.2 332.2 333.8 335.2 336 336.8 337.7 336.1 335.3 334 330 328.5 322.5 311.4 301.9 293.3 290.1 286.2 278.7 269.5 263.8 258.8 257.6 259 257.2 252.8 252.4 251.7 263 271.7 278.4 287.7 295.6 299.9 304.7 310.4 318.8 327.7 336.9 348.9 366.3 383.8 394.9 398.7 401.9 406.8 418.3 429.3 434.9 438 445.4 450.7 445.7 436.5 431.3 429 427.4 426.5 426 422.9 419.7 413.4 408.3 400.5 392.1 391.5 394.4 398.4 403.9 406.2 408.7 413.1 417.5 416.7 412.3 406.7 402.3 396.7 391.1 384.8 381.1 376.8 378 379.3 379.3 379.7 380.7 381.8 383 383.6 381.1 377.8 373.4 369.2 364.7 358.4 354.2 350.6 345.7 344.6 346.9 345.4 343.1 342 339.1 340.8 349.1 355.2 360.2 364.3 366.8 370 372.4 375.7 380 383.5 385.5 386.4 385.7 384.4 382.7 380.1 379.4 378.4 376.5 374.1 372.1 369.6 367.8 365.4 362 360.4 359 357.7 356.3 354.3 353.7 353.9 352.9 352.5 353.2 353.4 352.6 352.6 352.4 352.2 351.9 350.6 349 346.7 345.8 345.1 344.6 344.2 344.3 344.4 344.6 345 344.1 343
402.8 402.8 400.9 396.9 391.2 387 385.8 385.6 385.3 380.6 376.3 370 362.7 355.1 354.7 352.9 346.8 343.3 340.8 334.2 326 312.9 297.1 320.2 327.3 328.2 332.1 348.3 361.8 360 352.5 349.8 354 355.4 347.1 342.1 342.7 342.6 338.7 333.5 330.2 329.3 330 330.3 331.1 332.7 333.7 333.7 335.2 334.2 328.7 325.5 320.2 309.3 299.3 290.6 287.7 283.9 275.4 267.1 262.3 257.7 258 258.4 254.5 251.8 251.8 254.4 268.2 276.2 284.6 292.1 298.2 303.8 308.8 314.5 323 331 340.6 355.5 376.2 389.5 394.3 402.7 404.7 414.5 435.2 448.9 448.6 450.5 450.8 453.6 448.8 438.4 431.8 431.5 432.7 431.1 427.6 422.8 418.6 413.5 406.6 398.9 390.3 388.5 390.7 395 397.6 400.2 404.4 408.2 411.2 410.7 407.7 403.7 400 395 389.8 384.1 380 374.2 372.3 374.7 375.5 378.7 380.2 380.9 382.5 382.7 379.4 375 371.7 366.8 361.4 355.7 351.8 348.9 346.4 340.1 342.7 341.8 339.3 337.1 340.9 347.5 354.7 360.4 363.9 366.7 368.7 370.3 372.7 376.1 377.8 380.2 382.6 383.2 382.3 381.3 379.6 377.8 377.1 376.1 374.5 373 369.6 367.1 365.1 362.4 359.7 357.8 356.4 355.2 354.1 352.9 351.6 351.3 350.2 350 350.5 350.5 350.5 350.7 350.7 350.5 350.4 349.1 347.5 346.1 344.8 344 343.5 343.1 342.6 342.5 342.7 342.9 342.2 341.5
397.6 397.6 396.6 396.9 397.9 397.6 385.6 383.9 383.5 383.1 383.2 381.9 376.8 370.4 365.9 360.8 351.2 341.1 337.8 331.8 322.7 307.1 303.7 323.8 327.6 330.7 331.5 344.2 356.9 356.6 349.1 345.1 347 345.5 337.1 338 339.1 340 336.9 333 327.6 327.4 326.4 326.3 327.7 331 332.5 333.5 336.2 332.9 326.2 321.8 315.1 305.3 296.2 288 285.2 280.6 272 263.7 260 257 257.7 258.3 251.9 251.1 249.8 262.1 272.2 280.2 287.7 294.6 299.9 305.3 312.1 318.7 326.2 333.3 344.8 362.8 380.5 389.4 396 401 406.7 429.7 446 449.7 449.7 450.1 451 453.6 452.5 442.4 437.2 437.4 439.2 438.6 430.5 423.4 418 413.1 405.9 398.4 393.3 388.4 386.8 389.4 391.9 395.5 399.5 401.9 404.6 405.3 403.2 399.7 396.6 392.3 388 382.8 377.8 371.1 366.4 369.1 373.7 375.3 377.1 381.5 382.5 380.5 377 372.1 368 362.3 356.9 350.7 349.8 347.3 344.5 342.5 335 336.5 336.2 336.5 342.6 351.3 358.9 363 365.8 367.2 368.9 370.9 372.7 373.3 374.5 376.9 378.9 379.4 378.8 377.8 376.2 375.4 374.8 373.7 371.9 370.1 366.1 364.8 363.4 361.6 358.8 356.6 355.4 353.9 353.2 352 350.2 348.9 346.5 347.5 347.9 348.2 348.5 348.6 348.8 348.8 348.6 347.5 346.2 345 343.9 343.3 342.8 342.2 341.7 341.1 340.7 340.7 339.8 338.8
393 392.5 392.4 392.6 392.8 393.6 393.5 382.7 379.6 380 379.9 379.4 378.8 374.8 367.4 363.4 353.6 340.8 333.1 327.8 314.6 293.5 313.2 324.9 325.5 326.9 327.7 336.9 350.8 351.6 345.4 340.7 337.2 334.2 333.2 335.7 336.6 335.4 337.7 332.5 327.2 325.3 325.2 322.5 326.8 332.4 335.7 335.6 334.2 329.7 324.3 316.3 310 300.9 291.6 285.1 282.5 276.4 268.2 260.2 256.9 256.6 257.5 254.5 250.4 250.1 256 268.3 276.2 283.8 290.8 296.2 301.5 308.4 315.4 323.1 328.8 336 349.4 369 382.4 387.5 396.1 400 418.4 441 445.7 446.3 445.8 446.2 447.5 450.6 450.1 446.1 441.5 440 440.3 441.2 434.8 422.2 418 412.5 406.4 402.5 399.4 391.1 382.8 385.6 387.3 390.5 393.4 396.5 399.5 400.8 398.2 394.8 393 389.7 385.3 379.6 374.6 367.5 362.3 366.5 369 371.5 374.4 378.4 379.2 376.8 372.3 367.9 363.3 357 353.6 348.4 347.7 345.6 342.2 340.3 337 332.5 335.2 338 348.6 355.3 359.7 363.8 365.2 367 368.9 369.7 370.6 370 370.9 373 375 375.5 375.2 374.1 372.6 371.9 371.4 369.7 367.9 365.5 364.3 363.8 363.1 361.5 358.7 356.5 354 354.5 353.8 353 351.5 349.8 348.1 346.8 346.5 346.3 346.5 346.6 346.7 346.2 346.2 345.7 345.3 344.2 343.2 342.6 341.8 340.9 340.1 339.2 338.9 338.7 338.2 336.7
391.2 388.7 387.4 387.7 389 388.5 389.4 388.7 377.1 377.2 377 376.4 374.7 371.8 365.9 360.3 351.6 339.6 330.4 321.8 301.1 302.4 314.1 322.2 323.7 323.3 323.2 329.2 341.7 345.1 340.1 337.3 334.1 332.2 331.9 333.7 331.6 333.5 339.1 332.3 326.9 321.4 320.4 322.6 329.3 337.6 338.8 333.9 331.6 326.9 322.1 312 304.7 297.3 286.4 282.1 277.9 270.8 264.4 256.9 256 256.1 254.3 250.2 249.6 249.6 263.4 272.7 280.6 287.1 292.7 298 304.6 312.2 319.7 325.3 331.2 338.5 354.1 373.5 382.1 389.8 393.3 407.4 435.7 440.1 442 442.2 442.5 442.6 444.6 445.4 445.6 445.5 444.9 445.7 442.7 441.9 434.5 423.4 417.3 411.1 409 407.8 402.8 393.4 383.1 381.6 383.5 385.6 387.8 392.1 394.8 394.6 393.3 391.7 389.6 386.5 382.3 375.8 371.4 365.8 358.7 361.9 364.3 367.5 370.8 373.1 374.5 371.3 366.6 362.1 357.9 353.2 350.4 347.8 345.2 342.4 339.6 338 332.5 333.5 333.7 345 350.9 356.8 360.2 362.8 364.3 366.3 367.7 368.4 368.1 367.2 368.2 369.7 371.1 371.8 371.4 370.3 369 368.3 366.9 365.3 364.9 364.1 363.6 363.3 362.7 361 358.1 356.8 356.2 355.4 354.9 353.9 352.2 351.1 349.4 347.7 346.5 345.4 344 344.5 343.8 343.6 344 343.6 343.4 343.2 342.8 342.2 340.8 339 338.1 337.4 337 336.7 336.6 334.3
388.5 386.6 384.4 383.3 384.6 383.5 384.1 384.5 376.8 374.5 374.1 373.1 371.5 369.4 363.6 357.4 349.7 339.8 327.6 318.6 296.6 302.4 312.3 319.5 321.5 320.5 319.9 322.9 330.9 336.7 336.1 335.1 332 330 332 331 327.8 332.2 337 332.2 325.6 317.1 318.3 324.6 331.7 340.6 340.1 332.4 327.5 323.6 318.4 308 299.5 293.5 284.1 278.3 273.4 267.6 260.7 256.5 255.1 255.9 249.9 248.8 247.5 257.5 268.1 276.3 283.1 289.3 294.9 301.1 308.7 316.1 322.5 327.4 331.8 340.1 356 375 380.4 388.2 392 420.8 433.5 438 438.2 438.6 438.9 439.9 441 440.1 439.9 440.7 441.4 441 441.8 442.4 438.1 425.5 417.8 412.9 412.2 409.9 404.5 395.9 385.3 379.1 379.4 381.6 385.4 389 389.7 389.7 388.8 388.3 386.4 382.9 378.6 373.3 366 361.8 355.8 357 359.6 363.6 365.4 367.5 367.4 363.5 360.4 356.8 352.6 349.8 347.4 344.2 343.2 340.1 337.2 334.1 331.5 333.7 342.2 346.9 352.1 356.1 358.4 361.2 364.2 366.2 366.9 366.4 365 365.3 366.7 367.4 369.3 369.6 367.8 366.9 366.9 366 365.4 365.5 364.6 363.7 363.1 362.4 361.4 359.5 358.9 358.7 358.2 357 356 354.6 353.3 352.3 350.7 349.3 348 346.8 344.6 342.8 340.9 341.4 341.8 341.6 341.5 341.4 341.2 340.6 339.3 337.9 336.3 335 334.6 334.6 334.2 331.1
383.7 384.2 382.6 380.5 380.1 378.8 379 380.6 377.3 373.1 370.9 370 369 367.1 361.7 355.2 347.7 339.7 324.2 313.9 297.6 298.4 309.9 315.6 318.5 319.1 315.5 318.4 323.9 329.3 333.8 333.3 330.4 329.3 329.6 324.4 325 329.1 337.2 332.5 326.6 322.4 322.7 325.8 334.4 345 341.3 331.9 325.5 320.8 314.7 304.6 296.5 289.7 281.7 274.3 269.2 263.8 256.4 253.9 253 251.1 248.4 247.8 250.9 262.5 271.2 279.8 286.8 292.7 297.9 304.6 311.7 318.7 324.4 328 332 340.4 358.3 372.7 378.5 386.5 394.8 425.8 430.4 433.3 435.7 435.5 435.3 436.7 437.2 435.6 436.2 437.2 438.2 438.7 439.6 440.4 439.6 434 423 417.6 413.9 409.7 405.3 398.6 390.9 380.6 374.2 378.7 382 384 384.2 384 384.4 385.7 382.3 377.5 374.3 367.3 362.1 356.8 352.1 352.8 355.2 357.7 360.1 361 359.2 356.8 354.7 351.8 348.5 347.1 345.6 342 340.5 337.6 335.9 330.4 331.8 337.9 342.6 347.2 351.5 354.5 358.3 361.8 364.3 365.6 365.3 363.7 363.2 363.7 364.7 366.4 367.3 366.7 365.7 365.1 365 365.5 365.5 365.3 364.4 363.7 363.2 362.7 362.4 361.4 362 361.1 360.3 358.9 357.4 355.8 354.8 353.7 352.3 351 349.6 347.9 346 344.2 341.9 338.3 339.4 339.8 339.7 339.7 339.6 339 337.6 335.7 334.5 332.9 331.3 330.9 330.8 328.2
379.8 380.4 380.7 378 375.7 375 375.1 375.8 374.9 371.6 368 366.7 365.6 363.5 360.4 354 345.7 336 322 310 291.7 298.4 306.4 311.8 314.2 314.5 311.3 313.2 317.4 324.7 332.1 331.3 326.8 326.6 327.9 325.6 322.7 325.3 338.4 334.8 328.9 325.4 324.5 327.4 335 341.8 339.5 332.1 325.6 318.7 310.7 301.5 293.1 286.1 278.7 271.7 265.4 259 251.5 250.2 250.2 249.2 247.5 246.9 257.5 266.3 272.2 282.7 291.2 295.9 301.1 308.3 315.5 321.5 325.9 328.6 332.5 341.1 356.6 371.5 377 382.6 396.4 423.4 427.7 430.7 431.8 432 432.9 435 433.8 432.6 432.9 433.9 434.9 435.6 436.1 438.1 439.2 436.2 433.3 421.2 413.9 410.1 406.4 400 393 382.8 372.9 373.7 376.8 378.3 378.7 378.6 380 381.2 377.5 372.6 367.7 361.5 356.8 352 348.3 348.8 350.2 351.6 353.4 352.4 351.8 351.8 349.8 345.7 344.6 344.7 343.2 339.4 337.2 335.2 332.8 327.7 333.7 338.9 343.8 348.2 351.6 355.3 358.6 362 363 363 362.5 361.7 362.1 363.2 364.8 365.8 364.8 363.8 363.5 363.3 364.5 365.5 365.5 365.4 365 364.5 364.2 364.1 365.8 365.5 365.3 364.5 363.3 361.1 359.1 357.8 356.5 355.2 353.8 352.8 351.8 350.2 347.8 344.6 341.4 338.2 337.5 337.9 337.9 337.6 337.9 337.3 335.6 333.7 332.6 330.4 326.9 326.3 325.3 323.7
378.7 376.3 376.4 376.3 373.9 371.6 371.5 371.7 371 368.4 363.8 361.8 360.9 359.7 358.2 352.2 344.1 334.7 320.2 306.3 283 298 302.6 307.6 309.4 310 307.8 307.9 313.1 321.9 328.5 326.1 323.6 324.2 332.6 326.9 322.6 325.1 336.9 336.9 332.3 327.4 324.9 328.9 333.2 337.7 336.9 333.7 325 318.1 306.8 298.3 288.2 283.1 277 270 262.4 255.5 251.1 248.8 248.2 247.7 247.2 245.6 263 269.5 277 291.4 295.6 298.8 304.8 311.5 318.5 325.1 328.1 329.6 332.6 340.9 356.2 368.2 375.8 380 405.8 424.4 424.3 425.8 428.6 428.4 430.2 431.5 431.1 429.9 430.1 430.7 431.4 431.4 432.2 434 435.8 431.1 428 422.7 413.6 410.9 407.1 398 390.2 381.6 372.9 368.1 371.2 372.2 373.5 374.6 376.4 376.5 372.2 368.2 361.4 355.6 350.5 348 345 344.6 345.4 345.9 344.5 345.9 347.1 347.1 345.6 343 341.8 341.9 340.6 335.8 335.1 332.6 329.2 329.2 334.8 340 344.3 348.8 353.7 356 358.2 360.5 360.9 360.3 359.6 361.3 361.5 363.4 363.6 363.2 362 361.9 362.8 363.9 364.7 365.5 366.1 366.2 365.9 366 365.9 368.1 368.9 369.1 369 367.6 365.9 363.4 361.3 360.1 358.9 357.8 355.7 354.9 354.1 352.4 349.9 346.4 342.7 339.1 336.1 335.4 336.3 335 335.9 335.5 333.5 331.9 329.5 327 324.1 323.1 322.4 321.1
376.2 372.4 372.2 372.4 372.1 369.3 368 367.7 367.3 364.5 361.4 357.9 357.1 357 355 349.9 342.2 334.6 319.1 302.1 276 296.1 298.7 302.1 304.1 305.6 304 304.1 309.4 317.6 323.7 320.4 321.9 325.8 339.3 329.2 324.9 326.5 335.5 337.5 334.9 330.5 325.8 327 329.7 332.2 332.1 332.3 327 318.4 307.5 296.9 288.3 279.8 273.2 265.8 257.4 253.9 252.1 247.2 247.2 247 245.6 255.1 266.3 271.6 290.4 296.8 299.6 302.8 308.4 315 321.4 327 328.7 330.2 332.6 339.6 355.4 367.2 374.6 380.4 411.3 421.2 420.7 421.2 424.2 425.5 426.7 427.9 427.8 427.3 426.9 427.4 427.8 428 429.6 431.9 434.4 428.5 422.9 417.8 411.6 408 403.4 394.3 386.7 378.6 370.1 362.1 365.7 367.5 368.9 371.4 371.9 371.5 368 363 354.6 349.8 345.8 343.3 340.2 340.5 340.8 337.9 338.7 341.2 342.2 341.7 340.2 338.7 339.6 338.2 336.8 333.8 332.6 330.1 327.2 330.6 336.3 341.8 346.1 349.6 352.6 355.2 356.7 357.2 357.4 358.1 359.1 360 361.1 361 360.5 359.5 360.2 362.2 363.7 364.8 365.9 367.1 368.4 369.5 369.3 368.8 369.1 370.4 370.8 371 371.1 369.8 369.3 367.2 364.6 362.9 362.1 360.3 357.7 356.3 355.4 354 351.3 347.9 344.2 340.6 337.7 334.4 330.1 332.5 333.7 333.8 331.7 329 326.3 324 321.2 320.2 319.2 319.9
371 368.6 368.3 368.3 367.9 367.3 365 364.2 363.5 361.7 360.4 356.4 352.6 351.9 350.7 347.1 340.1 333.9 320 300.6 274.2 294.2 295.4 297.4 299.6 301.2 301.5 302 306.8 313.7 316.2 324.8 324.1 324.3 337.7 332.2 326.6 327.6 334.8 338.2 336 331.8 326.4 322.5 324.5 326 327.3 330.4 327.6 318.5 306.3 296.6 287.5 277.4 269.5 261.7 254.9 253.2 248 246.2 245.9 245.7 249.5 262.8 270 285.1 300.2 301.8 302.7 305.7 310.9 317.4 324.3 327.8 328.8 329.3 331.6 339.7 353.5 366 372.9 381.7 411 417.4 418 422.1 421.8 422.8 423.7 423.5 423.9 423.4 423 423.4 423.8 425.1 427.2 429.3 430.7 426.6 421.6 413.4 408.4 401.3 395.1 389.6 382.1 375 369.4 362.2 360.7 363.6 365.3 367.2 368.4 367.7 363.6 356.4 348.7 343 340.9 339.9 337.4 336.8 336.2 335.8 335.1 336.9 336.9 336.1 334.9 334.8 335.5 334.8 332.9 332.1 330.2 327.8 326.4 329.7 337.4 343.6 346.6 349.2 351.2 352.7 353.8 354.5 355.1 356.7 358 359.1 359.4 358.6 358.9 360.3 361.5 363.3 365.1 366.4 368.4 370.4 372.5 373 371.6 371.1 371.1 372.6 374 373.9 373.8 373.7 373 371.1 368.3 365.7 365.2 363 360 357.3 356.1 354.6 352.5 349.3 345.6 342.4 339.2 336.8 334.2 328.3 328.7 330.8 329.9 326.4 324.2 322 318.5 317 316.4 316.4
367 367.1 366.5 366.2 365.4 365.2 363.4 361.2 359.7 358.5 358.8 357.7 350.6 347.1 345.9 343.7 337.9 330.9 318.6 300.4 268.8 288.7 291.8 292.8 295.6 297.9 299.3 300 303.7 306.8 315.2 333.2 329.6 322.9 327.6 332.3 321.5 328.8 333.9 337.2 336.1 331.9 326.8 322.4 320.4 322.1 323.7 324.3 322.6 315.6 303.9 295.7 285.5 275.2 267.2 259.1 252.9 249 244.5 244.3 244.2 245 258.7 267.5 272.9 298.2 301.7 304.9 305.1 307.6 313 319.8 324.9 327.6 328.1 327.6 330.8 339.7 353.3 366 370.4 391.3 410.6 414.5 419 419.3 418.7 419.1 420.1 419.9 419.9 420.7 420.1 420.9 422.1 423.3 425.5 427.8 427.9 427.6 420.3 410.3 403.4 394.3 390.4 386 381.2 374.5 367.9 360.9 357.7 359.9 361.7 363.6 364.8 364.3 361.1 350.8 343 338.3 336.3 335.7 334 333.4 333.7 332.6 332.2 332.1 331.4 330.9 331.1 331.9 331.1 331 330.1 330.1 326.6 323.9 328.1 334.7 340 343.7 347.1 349.2 349.6 350.5 351.5 352.6 354.7 356 357.1 357.8 358 359.2 359.8 361.2 362.8 364.5 366.5 369 371.6 373.7 374.6 374.2 373.1 373.4 375 377.4 378.1 378.2 378.6 378 377.1 374.4 371.8 369.3 367.7 364.9 361 357.3 355.2 353.8 352.1 349.4 346.8 343.2 340.1 338 335.7 332.6 326.9 320.2 320.9 323.5 322.4 319.7 317.5 314.4 313.6 313.3
367 366.8 366.1 365.5 363.9 363.6 362 358.7 356.3 355.2 355.7 355.3 351.3 345.1 341.9 339.8 335.2 327.4 316.1 300.1 280.2 278.7 287.7 288.4 291.1 295.1 297.4 298.9 300.5 304.1 324.8 330.2 327.6 323.2 328.3 332.4 327.8 329.3 332.6 336.5 335.3 333.2 329.3 325.3 320 317.9 320.7 319.2 317.4 312.9 301.8 293.7 284.8 273.9 266 256.2 249.8 245.2 243.6 243.2 243.6 253 263.7 270.7 294.6 305 307.7 306.5 306 309.7 314.7 320.9 324.7 326.7 326.1 326.6 330 338 350.8 363 368.1 398.5 409.7 411.3 415.4 415.7 415 414.8 415.4 416.6 416.2 416.7 417 418 420 421.7 422.2 423.1 423.6 424.2 420.3 406.5 395.3 389.3 386.8 385.3 382.8 374.4 365.9 358.5 353 356.5 359 360.1 360 359.6 352.4 344.3 338.4 334.4 332.8 331.7 330.2 329.9 330.5 329.9 330 329.1 328.1 328 328.1 328.7 327.9 328.5 328.3 323.8 324.1 325.7 331.2 337.1 341.8 344.4 346.1 346.4 346.7 347.9 349.1 351.7 352.8 354.6 355.8 356.8 358.2 359.6 361.1 362.6 364.2 365.9 368.6 372 374.6 376.4 377.4 377.9 378.3 378.8 381.1 383.5 383.9 384.4 383.9 382.6 379.9 377.1 374.5 371.9 369.2 365.7 360.9 356.3 353.8 352.4 351 348.7 346.5 343.4 340.5 338 335.6 333.2 331.4 329.1 323.5 316.7 311.2 308.6 306.5 308.7 305.2 308.5
368.6 368 367.7 364.8 362.4 361.3 359.5 356.9 352.7 351.9 351.6 351.3 350.3 344.6 340.2 337.3 333.7 327.8 318.9 306.6 288.4 266.8 284.2 284 287.3 292.2 295.8 298.3 299.3 307.3 324.8 326.2 326.2 325.2 328.3 328.2 326.8 327.1 330.4 334 333.9 338.7 334.6 329.3 323 317.6 314.1 314.4 313 309.3 299.7 292 283.6 273 264.8 254.8 244.6 243.2 242.5 242.5 246.7 257.9 265.4 273.3 294.2 307.7 307.6 305 305.8 310.3 316.3 322.1 324.8 324.8 324.2 325.3 328.8 335.8 347.6 358.6 367.4 400.2 406.6 407.4 410.8 410.2 410.5 410.8 412.3 413.8 413 413 413.8 415.3 416.2 415.8 418.3 419 419.3 419.6 418 401.6 389.5 383.5 386.7 388.1 383.5 374.8 364.7 356.2 349.6 353.2 355.5 355.8 355.1 349.9 343.6 338.7 333.3 331.1 329 327.7 326.6 327 327.4 328.5 328.7 326.9 325.5 325.4 325.2 325.3 325.7 326 321.7 322.9 324.4 328 330.6 335.9 339 341.8 342.7 343.9 346 347.1 349.1 351 353.4 355.4 357.2 358.5 360 361.4 363.1 364.6 366.8 369.5 372.4 375.8 379 381.6 383.3 384.5 385.3 384.7 386.6 389.2 390.2 389.6 387.3 385.2 382.3 378 375.4 372.7 369.7 365.8 361.1 355.8 352.4 351 349.6 347.9 345.6 342.8 340.2 337.7 335.2 332.9 331.2 329.4 326.7 322.5 321.8 318.4 313.2 310.2 305.9 296.3
366.4 366.3 365.7 365.1 361.6 358.8 356.2 353.1 349.2 348.8 347.7 347.2 346.7 343.5 338.1 335.2 331.9 328.3 321.5 308.9 292.2 264.9 274.3 279.3 283.5 289.9 295.1 297.8 299.2 309.1 321.2 323.3 323.3 325.2 325.8 324.5 325 322.1 325.3 328.8 335.9 346.9 339.1 331.8 326 321.9 316.1 305.4 306.9 303.2 294.8 288.2 279.3 272.4 264.9 255.3 242.6 239 242.1 243.1 249.8 258.8 266.6 279.3 298.7 306.2 305.7 304.8 306.1 310.9 317.8 321.3 323.3 322.8 322.5 324.1 327.4 334.5 343.9 352.3 368.7 399 402.3 404.2 406.5 406.8 407 407.4 408.9 410 409.6 410.2 411 411.4 410.4 412.4 414.4 414.3 414.2 415.1 415.9 406.8 390.8 385.2 389.3 392.4 384.7 373.3 363.7 355.3 349.7 348.6 350.9 350.6 347.7 342 337.9 333 330 327.4 325.2 324.3 324.6 325 326.1 327.4 326.1 324.1 324.1 324.1 323.8 323.7 324.4 320.6 320.1 322.4 327.5 334.4 334.7 338 340.7 342 345.6 346.4 348.4 350.6 351.7 353 355.1 356.7 358.6 360.6 362.5 364.1 366.6 368.8 371.3 374.4 379.2 381.5 385 387.9 389.9 390.8 391.1 391.5 393.1 394.6 395.1 392.8 389.9 387.2 383.3 378.7 375.7 372.4 368.9 365.5 361.6 355.6 350.8 349.3 348.1 346.5 344.6 342 339.6 337.1 334.6 332.6 331.2 329.4 327.2 325.2 323.3 320.7 317.9 313.4 310 298.5
362.7 362.6 362.2 361.6 360.5 357.1 353.6 349.8 347.1 345.2 343.8 343.3 343.5 343.6 338 333.4 329.5 326.5 323.1 315.6 303.4 289.6 261.4 274.4 281.1 288.5 294.2 297.1 300.4 308.5 315.2 319.5 322.3 323.8 323.4 320.7 318.8 316.2 317.1 323.5 343.4 354.3 345.5 336.7 329.2 324.3 320.7 312.4 302.1 296.5 288.9 282 271.5 265.6 262.4 254.5 238.2 241.4 241.9 244 254.2 259.9 269.6 286 298.1 303.7 304.4 304.6 306.6 312.1 316.8 320.2 321.9 321.7 321.6 322 325.5 331.7 338.2 350.8 368.2 393.3 399.7 401.7 403 403.4 402.8 404 405.2 406.1 406.3 405.7 405 405.2 406.9 408.5 409.8 410.6 411.3 412.8 413.8 412.1 397.2 388.2 392 392 384.3 373.4 362.9 355.1 349.7 344.2 345.4 343.1 339.8 335.8 332.1 329.1 327.1 324.1 322.3 321.9 322.8 323.5 324.3 325.1 324.4 323.3 322.7 322.6 322.3 320.2 319.6 319.6 321.5 327.2 332.2 336.8 338.4 341.6 344.9 347.6 349.8 350.7 351.8 352.5 353.3 354.5 356.7 359 360.8 363.2 365.8 369.2 371.7 374.9 378.8 382.1 386.6 389.4 391.8 393.4 395.2 396.6 398.4 398.9 398.8 399.5 400.1 397.6 394.9 390.7 384.5 379 374.7 371.3 368 364.7 361.3 356 350.6 347.8 346.6 344.9 343.5 341.4 338.9 336.5 334 332.3 330.9 329.3 327.2 325.7 323.8 321.3 318.3 312 306.5 311.3
359.7 358.7 358.3 357.9 356.9 354.1 350.8 347.5 345 342.2 339.9 339.9 339.7 339.2 338.4 332.8 327.2 323.4 321.4 317.8 308.9 295.1 282 259.3 277.7 287.7 296 297 300.5 304.6 310.4 316.9 319.9 321.3 323.2 316.8 310.3 308.5 311.5 324.4 342.4 349.3 349.7 340.7 331.5 322.3 320.2 317.7 308.9 296.8 290.1 286.1 279.4 271.8 265.5 258.5 238.9 240.9 241.7 248.1 258.3 262.4 269.8 283.7 293.3 300.3 305.5 305.5 307 311.5 316.1 320.2 322.2 321.2 320 320.3 323.4 326 333.3 349.2 367 391.2 394.5 400.1 399.2 399 398.6 398.8 400.6 401.1 400.6 400.6 400.8 401.6 404.3 404.4 405.6 407.5 409.1 410.6 414.1 412.9 402.3 390.7 390.6 388.9 382.1 372.5 363.7 359.6 353 340.2 338.7 336 332.9 329.8 328 326.9 325 322.1 320.4 319.8 321 322.4 323.3 323.7 323.5 322.7 321.8 320 318.3 318.6 318.4 320.2 325.8 331.8 334.8 337.9 340.9 344.2 347.6 350.4 352.3 353.2 353.6 354.7 355.3 356.7 359 361.8 365.1 367.8 372.2 376.9 381.3 384.8 392.1 397.6 398.2 397.7 398.7 401.1 402.2 404.5 406.5 406.5 405.2 405.7 405.2 403.2 397.8 391.5 384.9 378.9 373.3 369.5 366.2 364.1 360 356.4 351 347.4 345.3 343.9 342.2 340.1 338.3 335.9 333.4 332 330.6 329.2 327.5 325.8 323.9 320.7 311.9 315.5 316 315.3
356.7 355.5 354.5 354.9 354 351.9 348.7 345.1 342.3 340.1 337.1 335.7 335.3 334.9 334.2 331.6 325.9 321.9 317.8 314.9 307.7 294.2 281.1 252.2 277 290.2 297.4 296.5 298 301.3 305.7 313.2 315.9 321.4 324.5 314.5 304.5 304.5 311 325 338.9 344.7 345.8 342.9 331.3 319.5 316 315.5 309.4 298.5 290.7 286.2 282 275.6 270.9 265 239.1 239.8 240.7 249.3 259.2 264.9 272.9 289.2 299.7 304.1 310.7 306.6 306.7 311.2 317 320.7 322.8 320.2 318.9 319.3 320.8 323.1 331.4 344.3 366.7 387.5 389.2 391.6 393.8 393.2 392 392.3 392.5 393 395.8 396.4 397.2 399.9 400.1 400.8 402.3 404.4 408.3 408.7 411.8 409.6 403.7 390 386.4 386.3 380.5 370.6 365.1 359.1 354 343.3 333.5 331.2 328.8 327.7 326.7 325 323 320.8 318.9 317.8 319.6 320.8 321.1 321.5 321.9 321.5 319.3 318.5 317.5 317.8 319.1 326.9 329.8 332.3 335.6 339 342.7 347.1 350 352.1 353.7 354.3 355.1 356.4 357.6 359.2 361.9 367.3 373.5 378.8 386.4 392 395.8 402.8 410.9 411 413.8 408.4 407.9 409.5 412.5 416.8 418.9 415.9 414.2 411.4 408 404.8 400.7 392.4 385 378.7 372.8 368.2 366 363.6 360 356.4 351.5 346.8 344.2 342.9 341 338.9 336.9 335.3 333.1 331.7 330.3 328.8 325.9 324 317.7 317.7 322.2 320.7 319.2 317.9
354.5 353 352.1 351.9 350.5 349.1 346.5 342.8 339.5 337.1 335.3 332.1 330.7 330.7 329.9 328.3 323.5 319.6 315.1 311.7 304.7 292.1 279.6 254.8 274.8 291.1 294.5 294.9 295.2 298.3 302 308.4 314.1 323.1 322.2 313.1 299.2 301.6 312 323.5 335.7 341.9 343.5 341.6 334.9 317.4 313.9 313.1 309.2 296.4 289.3 285.3 281.8 277.5 273.9 267.9 244.1 239.4 239.7 250.4 259.6 266.7 279.9 295.7 305.1 308 309.3 307.1 307.2 311.9 317.6 321.3 321.1 318.6 317.4 318.8 319.5 322.8 330 342.7 364.8 382.6 384.4 387.2 388.1 387.7 387.4 387.4 387.4 388 389.2 390.7 393.5 394.9 396 397.1 399.8 404.1 405.7 406.8 408.5 404.7 401.5 391.9 383.2 382.8 375.7 369.3 365.5 357.9 350.6 341.5 333.5 329.1 326.2 324.6 324.9 324.6 322.2 319.4 317.6 315.9 317.7 318.8 317.9 317.5 321.3 320.4 316.4 316.6 315.9 319.2 326.4 329 331.7 334.4 337.8 341.1 345.2 347.9 350.7 352.8 354.2 355.4 356.8 358.3 360.5 363.5 367.7 376.7 384.4 391.4 399.6 401.5 413 417.1 421 425.1 422.8 417.8 419 422.9 425.4 426 424 420.6 417.9 415.8 411.7 406.3 401.5 393.9 385.7 379.3 373.6 368.2 365.5 363.1 360.6 356.8 352.3 347.8 344.7 342.5 340.2 337.8 335.5 334.1 332.9 331.6 330 327.7 324.2 323.3 325 325.2 324.5 323.1 321.4 320.3
352.6 350.7 349.6 348.1 346.6 345.1 343.4 339.8 336.5 333.9 331.6 330.1 325.9 326.1 325.4 324 320.5 316.6 312.6 308.1 299.2 286.5 268 249.6 268.1 288.2 291.1 293.9 291.8 294.8 298.7 306.2 312.7 319.6 315.8 310.1 296.3 301.8 310.9 320.8 333.7 339.6 340.9 339.1 335.7 320 312.4 309.1 304 293.4 288.9 285.4 282.1 278.6 272.3 265.8 244.1 239 240.9 252.4 260.5 271.4 288.4 301.3 308.2 309.2 308 307.3 308.2 313.1 317.6 320.6 319 317.2 319.8 321.7 320.7 323.9 329.2 342.7 360.7 378.3 379.8 383 383.1 382.9 383.2 383.2 383.4 384.6 385.2 386.8 388.8 390 391.1 392.6 399.3 401.4 403.1 402 401.4 400.4 399.2 393.7 380.2 374.8 369.9 366.3 362.5 354.6 345.5 339.5 332.7 326.1 324.8 321.9 322.5 322.2 319 317.1 315.7 314.1 315.8 315 312.5 313.6 314.1 314.9 315.2 315.5 321 325.3 327.6 330.6 333.4 336.3 340.2 343.8 346.7 349.2 351.7 353.9 355.6 357.1 359 361.1 365.6 370.5 379.6 390.6 397.3 400.7 407.1 415 421.2 425.9 430.1 429.9 427.4 427 428.5 432 431.7 428.3 425.5 422.9 421.3 419.8 414.7 409.4 404.3 395.5 387.4 380.8 374.7 369.4 365.1 362.6 360.2 357.8 354.5 350.5 347.2 343.3 341 338.8 336.6 334.8 333 330.5 327.4 327.2 327.3 328 327.4 327 326.1 325.2 323.8 322.6
350.2 348.3 346.2 344.1 343 342.1 340.1 337.2 333.8 330.7 328.1 326 324.2 321.2 320.6 319.8 317 313.2 309.4 304.6 296.7 282.6 261.4 248.4 264.3 284.9 289.9 292.7 288.7 291.6 295.8 303.5 308.9 311.1 309.7 304.1 299.2 302.9 308.9 320.4 332.8 338.1 337.6 336.3 334 325.7 310.3 305.8 298.5 293.6 289.7 287.1 281.6 277.4 273 264.6 247 239.4 244.6 254.3 262.6 275.4 295.1 303.1 305.1 307.5 308.4 306.8 309 313.8 317.3 318.1 316.7 318.7 322.9 327.5 322.7 325.1 330.8 342.6 358.3 370.5 375.9 379 378.3 378.7 379.2 379.2 380.4 381.6 382.6 383 383.6 385.7 387.5 389.4 395.2 397.3 397.4 396.9 396.6 395.8 394.7 393 381.1 366 365.5 362.1 355.5 349.1 342.8 337.9 331.1 325.2 323.5 321.7 317.7 317.3 314.8 313.7 312.8 311.6 311 312.2 316 317 319.6 317.9 317.5 320.6 324 326.4 328.9 331.7 334.8 338.3 341.9 345.2 348.1 350.9 353.5 356.1 358.5 360.4 362.4 367.4 373 381.9 390.6 398.9 405.1 408.6 413.7 419.4 424.9 430.6 434.4 436.2 436.4 433.5 434.6 438.2 436.5 431.8 427.6 425.9 424.1 422.5 418.1 413.5 408.5 399.1 390.5 383.1 376 370.3 365.9 363 360.9 358.7 355.8 353.5 349.5 344.3 341.8 339.7 337.6 335.7 333.8 332.2 331.2 331.5 331.6 331.2 330.6 329.1 328.1 327 326 323.3
347.8 345.6 343.8 341.7 340.4 339.4 337.4 334.7 331.2 327.7 324.5 322 320.2 317.1 315.7 314.8 313.5 311.3 307.6 301.9 294.9 280.1 257.7 246.5 262.9 282.6 288.7 288.1 286 288.3 293.3 300.8 304.4 306.9 304.5 301.5 300.4 302.3 309.6 319.6 330.2 335.4 334.5 333.2 333.8 329 310.1 304.7 298.2 294.5 291.1 286.2 280 278.1 273.1 266.6 251.3 238.2 247.1 255.1 264.1 283 297.4 302.4 306.1 312.7 312.1 307.9 309.4 313.1 315.4 315 317.1 320.5 326.3 328 325.1 325.9 331.7 341.1 352.5 365.8 373.9 374.6 374.8 375 375.2 376.2 377.6 378.8 379 379.4 381.6 383.4 384.9 386.7 390.7 393.7 393 393.5 393.8 392.3 392.1 390.2 383.7 368.5 361.8 355.4 349.5 345.1 340.9 336.2 330.7 327.4 323.4 319.6 315.6 312.7 311.7 310.9 310.5 310.4 310.7 317.9 323 325.5 323.8 320.9 321.9 325.2 327.2 328.6 330.7 334 337.4 340.8 343.8 346.8 349.5 352.4 355.6 358.1 362.1 364.7 368.6 376.5 382.4 390.1 397.2 403.3 409.4 414.5 419.6 423.4 428.1 433 442.3 444.5 442 438.8 439.3 441.2 439.5 435.2 431.6 429.8 428.6 427.2 424.5 419.2 414.4 405.9 394.5 386.3 378.5 371.3 366.7 364 362.3 360.6 358.2 355.1 351.1 346.3 342.7 340.7 338.6 336.4 335.4 334.6 334.2 335.1 334.9 334.2 333.3 331.8 330.4 329.1 326.9 323.8
345.5 343.3 341.2 339.6 338.2 336.1 333.9 331.8 328.6 325.2 321.2 318.1 315.9 313.3 311.7 311.1 310.1 308.2 305.7 300.2 292.3 280.8 257.6 243 260.3 279.5 286.8 285.1 284.3 286.2 291.8 295.4 300.4 302 301.6 300.7 300.5 302.9 310 318.3 328.7 332.4 331.2 329.3 328.2 322.7 307.8 301.5 297 292.8 288.7 283.5 277.5 277.8 271 263.8 253.2 237.1 248.5 259.8 273 289.9 297.3 303 316 326.2 319.5 311.6 310.2 311.8 313 315.5 319.7 323.3 325.4 326.2 326.4 327.3 331.7 337.3 349.2 362.3 369.8 371.7 372.1 373 373.3 374.2 374.9 374.9 376 377.5 379.4 381.1 382.4 384.5 388.4 392.7 389.5 389.5 390 389.3 388.1 385.8 380.4 371.3 356.2 350.2 346.5 342.2 338.9 336.3 332 324.7 321.2 317.5 313.1 310 309.4 305.7 308 312.7 317 322.8 325.8 325.9 325.1 323.7 324.1 326 329.3 331.3 334.1 337.2 340 343.2 346.4 349.8 352.9 356.2 358.8 363.7 368.6 370.4 377 383.6 390.2 396.5 402.6 407.8 414.2 421.7 425.4 426.5 429.1 434.4 442.7 449.4 449.1 444.4 442.6 444.7 444.1 441.4 438.6 435.5 434.1 434 430.3 427.3 423.9 413.4 398.3 388.4 380.6 373 368.4 364.9 363.3 361.2 358.9 355.9 352.3 347.7 343.6 341.4 339.3 338.2 337.6 336.8 337 337.2 336.6 335.9 335 333.8 332.3 330.4 327.6 323.9
343 340.9 339.2 337.5 335.1 332.6 330.5 328.4 325.9 322.7 318.7 314.7 311.4 309.6 308.8 307.6 306.6 304.8 302.6 297.4 290.6 280.7 257.1 240.3 262.3 278.7 282.3 281.7 281 284.3 290.6 294.6 299.4 300.9 301 300.2 299.9 302.9 309.3 318.2 328.1 328.5 327.1 325.7 324.5 319.4 306 299.5 297.8 295.3 289.5 280.5 275.7 274 267 260.6 252.5 235.5 251.3 263.6 277.4 289.7 298.1 310.2 327.3 337.4 329.4 315.2 311.6 312 313.9 318.4 324.2 324.4 324.4 326.2 328.9 327.5 330.5 336.6 346.3 355.8 365.6 368.6 370.3 371 371.2 372.1 372 372.8 374.6 376.4 377.2 378.3 379.5 381.8 384.1 385.1 385.2 385.2 385.5 384.9 383.6 381.6 377.4 372.8 354.2 346.4 342 338.6 336.8 333.3 330.4 322.6 318.3 315.8 311.1 304.9 306.6 307.9 313 317 323.1 325.2 326.1 325.3 324.7 325.4 326.3 328.4 331.1 334.8 338.2 341 343.2 346.3 349.5 353.3 357.4 360.9 365.3 371.5 375.1 377.6 382.6 389.4 394.2 400.3 407.8 413.3 418.3 422.6 425.7 428 431.1 435.6 444.5 449 452.2 451.5 451.2 452.6 451.6 448.2 445 442 440.3 441.1 439.1 432 427 415.8 399.6 389.9 380.6 374.7 370.2 366.4 363.9 361.7 359.5 356.7 353.2 349.2 344.8 342.5 341.4 340.4 339.3 338.4 338.5 338.5 338 337.4 336.7 334.7 332.6 330.7 327.6 324.2
340.6 338.8 337.2 335.2 332.7 329.2 326.7 325 323.2 321.2 317.7 313.7 309.8 306.7 306.2 304.8 303 302.1 300 295.1 287.6 277.7 258.9 240.1 263.9 275.9 278.2 278.3 279.3 283.8 289.7 295.2 299.1 300.5 301.4 301.6 298.2 302 308.2 319.4 325.7 324.9 323.4 328.2 327 315.1 302 300 301.6 297.5 290 281.7 272.4 267.6 261.7 255.8 245.1 232.6 255.4 272.1 281 288.3 299.5 316.1 330 339.1 337.3 325 314.6 313.8 317.4 323.6 325.6 323.5 324 328.3 330.5 328.2 330.2 336.2 343.3 351.1 363 365.4 367.3 368.3 368.4 368 369.1 371.7 373.3 374 374.2 375.1 376.7 378.9 380.5 380.5 381 381.5 380.6 380.5 379.3 378.2 373.7 370.9 351.1 341.8 336.2 333.9 331.8 329.2 326.8 321.4 315.9 313.1 307 305.6 306.6 311.6 316.9 320.9 323.1 324.7 324.5 324.5 325.4 326.6 329.2 332.5 335.8 339.3 341.9 345.9 347.6 352.2 355.1 359.3 363.9 368 374.1 379.1 383 385.7 387.4 392.9 397.6 405.4 410.9 414.9 419.2 422.7 427.6 435.3 437.2 440.1 446 451.5 459.2 462.6 461.9 464.6 461.3 456.4 453.8 450.1 446 444.1 441.4 434.9 428.5 415.2 399.9 389 380.4 376.1 371.4 367.5 364.7 362.3 360.1 357.4 354.1 350.4 346.3 345.1 343.1 342 341 340 339.3 339.3 339.1 338.3 337 334.9 332.8 330.3 327.5 324.3
338.7 337.2 335.8 333.9 330.9 327.9 323.1 320.8 320.8 319.4 317.1 313 307.6 303.8 302.2 300.5 299.9 299 297.4 294.4 285.3 276.1 262.6 239.6 261.7 271.8 273.4 274.1 277.5 282.3 289.6 295.5 299.5 299.7 300.1 298.9 296.5 301.5 308.5 314.3 321.8 321 320.9 325.2 318 309.3 302.1 303.2 306.4 300.4 291 279.9 268.3 260.9 258.2 253.1 237.5 241.4 264.4 275.9 281.5 288.8 303.1 319.4 330.9 335.9 336.4 334.8 323.8 319.4 322.8 325.5 324.5 324 326.8 330.5 329.3 328.4 330.9 335.3 341.5 348.1 358.9 363.7 364.8 364.3 364.1 365.4 368.3 369.5 370.7 370.9 371.8 372.5 373.7 375.5 375.3 376.4 377.4 378.3 377.3 376 375.7 373.1 370.1 358.7 343.7 335.3 330.4 326.8 325 323.8 322 317.8 313.9 311.4 305 305.4 311.3 316.6 320 321.3 322.6 322.9 322.5 324.4 327.2 330.6 334.2 337.8 342.4 346.2 349.5 351.9 356.6 361.2 364.1 367 373.6 378.5 385.1 388.7 390.9 392.5 392.1 395.4 401.3 406.9 411.6 415.5 420 425 431.3 437.2 442.7 444.8 449.5 461 467.6 470.4 468.4 469.1 468.7 466.1 462.2 459.6 451.1 444.9 441.6 437 427.4 413.6 398.9 388.1 380.2 376.1 372.4 368.7 365.8 363.3 360.6 357.9 354 351.1 350.1 347.5 345.6 343.7 342.7 341.4 340.1 340.1 339.4 338.4 337.2 335.3 333 330.4 327.1 323.7
337.8 335.8 334.1 332 329 326.1 323.5 319.6 315.9 314.8 311.8 307.6 304 301 298.7 297.7 296 295.8 294.2 291.2 282.9 275 264.1 235.7 257.6 267.5 268.8 271.1 275.7 283.9 290.8 296.1 299.2 298.7 296.3 295.6 294.5 300.8 306.4 310 315.4 316.1 320.9 318.2 308.7 301 304.6 311.1 310.8 305.7 292.6 276.5 265.6 259.5 255.9 236.1 237.5 256.8 268.1 276.4 283.2 294.3 304.9 318.1 329.8 332.3 334.1 336.2 333.9 327.1 324.4 324.9 324.3 327.2 329.5 328.9 328.2 328.9 331 333.5 339.7 346.2 352.8 358.9 359.8 360 362 365.2 366 366.8 367.8 368.8 369.8 370.2 370.7 371.4 372 372.6 373.7 374.9 373.5 372.6 372.5 371.1 361 345.6 336.8 328.4 324.8 319.7 318.8 318.7 316.5 313.1 311.5 304.3 304.5 307.2 315 319.1 320.7 321.3 321.6 321.6 323.8 328.2 331.5 335.4 339.2 344.6 349 353.2 357.2 359.3 367.7 372.4 375.5 379.3 384.8 389.6 393.8 396.3 398 399.5 398 398.2 402.3 406.4 410.9 416.2 422.6 428.7 434.4 442.7 448 452 458.3 466.8 470.7 474.4 474.1 475.3 475.8 474 466.7 462 454 446.3 441.1 436.6 427.2 411.3 395.9 387.2 379.7 376 372.6 369.1 366.5 362.1 359.6 357.7 355.2 354.7 353.3 350.6 347.8 346 344.3 342.8 341.2 340.4 339 338.3 337.6 335.9 333.3 330.3 326.7 323.2
338.3 336.3 334 331 327.8 324.4 322 319.3 314.5 310.7 308.5 303.1 300.3 298.2 296.5 295.4 293 292.5 290 287.3 280.3 272.5 262.3 231.4 253.8 263.3 265.8 269.8 276.8 285.6 291.3 296.3 298.6 297.6 294.3 293 292.8 298 302.4 304.8 309.2 313.8 313.7 304.2 297.7 303.4 310 311.2 310.3 306.8 288.9 272.7 263.4 257.6 252.8 246.4 248.9 258.7 266.3 276.3 291.2 301.2 306.8 314.6 323.2 329.6 331.5 333.9 334.8 331.2 325.4 325.1 326.1 329 328.2 326.9 327.5 328.9 331 334 339.2 344.6 350.2 354.1 355.5 357.5 361.8 363.7 363.8 364.3 364.3 366.3 367.3 367 367.4 368.4 368.9 369.3 370 370.8 369.8 369.3 367.7 359.4 348.5 339 332 323.7 318.7 315.2 314.4 312.9 311.6 310.4 308.3 302.7 303.9 309.8 315.1 318.4 319 320 320.9 323.3 328.2 332.1 335.9 340 346.2 351.6 354.9 360.6 365.5 369.1 375.2 383.6 387 389.9 392.5 396.1 400.5 402.5 403.9 405 402.4 400.9 400.4 404.1 409.6 419.9 427.8 435.8 441.8 449 458 463.8 466.5 469.9 470.7 476.5 482 479.6 478.6 479.9 472.3 460.4 456.7 449.4 438.4 432.3 423 408.3 394.7 385.4 379.6 375.9 372.5 369.3 367.6 364.8 361.4 359 357.4 356.7 355.6 353.1 350.4 348.2 345.7 343.3 341.6 339.7 338.1 338.3 338.2 336.7 333.8 329.5 325 321.4
341.6 339.5 335.2 331.2 328 324.8 321.1 318.1 313.8 308.6 304.6 300.2 297.4 296 294.6 293.4 291.8 289.8 286.5 283.6 278.4 269.5 257.4 232.4 245.6 257.2 264.1 269.9 279.1 285.8 291.7 296.8 298.2 296.8 293.4 291.2 291.3 294.1 296.5 299.3 304.4 310.6 297.5 289.9 296 305.5 309.4 308 308.7 306.2 284.5 270.1 261.7 256.1 250.6 232 252.3 259.7 266 278.3 296.2 302.5 306.7 313.3 319.9 327 329.4 331.5 332.9 332.5 325.7 325.3 327.7 327.6 326 326.5 327.1 331.1 335.3 336.7 338.4 342.6 337.7 350.9 355.2 359.2 360 360.9 360.2 360.4 361.9 364 364.4 364.3 364.6 365.3 365.8 365.8 366.3 366.9 367.1 367.1 360.4 351.5 339.6 333 325.8 318.5 314.2 311 309.7 308.2 307.3 306.6 301.7 302.1 305.3 312.4 315.6 317.1 318.3 319.5 322.7 328.2 333.9 338.2 342.1 347.6 352.7 356.2 361.1 366.2 371.1 376.5 381.3 388.2 391.6 393.5 396.9 400.5 404.8 406.1 406.5 407.1 405.1 402.2 401 401.6 412.4 422.9 432.8 442.6 446.4 453.5 463.6 471.6 477.4 472.8 468.5 476.2 479.6 479.8 478.8 481.1 478 457.5 453.5 447.7 436 428.2 417.4 405.4 394.4 384.8 379.9 376.3 373.9 371.8 369.2 367.2 363.2 360.7 358.8 358.2 357.3 354.9 352.2 349.5 346.6 343.5 341.7 337.2 335.7 337.6 336.7 335.1 331.9 327.8 323.6 319.4
339.7 339.1 336 331.9 328.5 325.2 321.4 316.4 310.4 304.6 301.9 299.5 296.6 294.2 292.8 291.8 289.5 287.2 283.8 279.9 274.6 268.6 256.2 235.5 237.3 253.5 263.8 272.1 279.9 286.2 291.5 294.7 295.5 294.8 291.7 290 289.6 290.6 292.5 294.8 295.9 292 285.8 288.7 297.7 304 305.8 305.2 307 302.4 282.6 267 259.2 253.7 247.8 246.8 254.8 259.9 268.5 283.4 295.5 301.7 306.5 311.3 317.1 323.5 326.8 329.7 330.3 330.1 326.1 326.3 325.8 325.6 325.7 326.8 329.8 337.2 340.6 340 339.4 342 342.7 351 355.8 357.3 357.2 356.3 356.4 358.7 360.3 361.5 361.3 361.4 361.8 361.6 361.4 361.9 362.6 363.2 363.7 359.1 354.9 341.6 332.7 325.9 319.4 314.4 310.3 307.5 305.5 304.1 297.6 299.3 299.9 302 313 316 318.3 318.9 319.5 322.8 327.7 334.4 341.4 345.8 349.5 353.4 357.4 362.3 368.5 373.4 378.1 382.7 388.3 391.8 393.4 395.6 399.2 402.6 405.9 407.6 408.9 409.8 409.4 405.8 400.7 402.5 414.3 423.5 432.1 441 445.8 456.6 470 480.3 482.1 474.5 468.5 470.3 473.7 477.4 478.3 481.2 476.7 457.9 451.6 443.9 435.7 424.4 414.3 404.3 394.4 385.2 380.6 378.9 377.2 374.4 371.3 369.2 365.5 362.8 360.7 360 358.9 356.5 353.8 351 347.5 343.6 340.7 336.5 334.1 333.7 331.9 330.3 327.6 323.9 320.2 316.6
336.1 335.9 334.9 331.9 329.1 324.9 319.4 313.5 307.7 303.1 300.4 298.1 295.3 293.3 291.6 290.3 287.9 285.9 283.3 279 274.3 267.1 254.7 240.1 234.9 254.3 265.2 273.8 279.5 285.5 290 292.3 293.4 292.6 290.9 289.5 288.2 288 289 289.2 285.9 283.2 283.2 289.1 296 301.8 301.6 302.4 302.7 299.2 281.3 265 257.5 250.6 238.7 248.6 254.9 260.6 271.7 284.7 293.9 299.3 305.9 309.7 313.7 319.6 324.8 327.9 328.2 328.8 326.7 326.1 324.5 325.2 325.9 328.8 337.2 341.3 341.4 340.9 341.6 344.6 347.9 351.4 352.8 353.1 353 353.1 355.7 357.5 358.7 359.4 358.8 358.6 358.9 358.5 357.9 358.4 358.9 359.5 358.1 353.6 346.2 333.1 325.9 320.1 314.8 311 307.5 305.7 302.7 297.9 299.5 301.3 310 313.5 315.9 318.8 321.3 322.3 324.8 328.5 333 338.5 343.7 348.8 351.9 357.8 363.7 370.9 375.4 378.1 381.5 397.7 394 395.2 396.8 397.5 400.2 403.6 408.3 411.6 414.1 414.3 413.5 410.3 402.7 405.7 415.8 424.5 431.1 440.6 446.4 457.5 474.5 483 481.4 476.4 467.6 466.1 467.1 468.8 475.7 476.6 470.9 459 449.1 442.1 436 424.5 413.6 404.9 394.4 386.3 383.6 381.9 380.5 377 373.4 371.7 370.2 366.4 363.4 362.2 360.9 358.2 355.5 352.4 347.9 343.2 338.9 333.3 330.9 329.4 327.1 325.9 323.5 320.4 317.1 314
332.9 332.5 331.9 332.3 332.7 327.2 317.3 310.6 305.5 302 299.2 296.5 294.4 292.7 291 288.7 286.6 284.6 281.9 278.1 273.4 268.8 254.7 241.7 226.6 250.7 265.8 271.9 279 284.6 288.2 291.3 293.5 291.6 291.1 290.8 287.7 286.3 285.4 284 282.7 282.2 283.9 288.1 294.8 298.4 297.2 299.1 297.2 294.7 277.5 262.9 252.9 243.6 227.6 245.6 253.2 259.8 270.9 283.7 292.7 299.4 303.4 307 310.6 315.3 321.7 325.6 326.4 326.9 326.8 324.2 323.7 324.3 327.3 335 340 341.5 341.9 342.7 343.7 345.7 349 349 348.8 348.8 350.5 352.3 354.1 355.8 356.9 357.2 356.6 356 355.9 355.5 355.5 355.7 356.2 354.8 351.4 347.8 337.4 325.1 319.8 315.6 311.6 307.9 305.9 302.8 296 298.7 303.5 308.9 313.3 315.9 318.4 321.8 325 326.7 329.2 332.5 336.4 340.8 345.2 349.8 354.8 361.4 369.7 375.7 378.3 379.1 390.5 401.1 400 400.1 400.2 400.4 401.2 404.5 408.8 412.7 417.3 419.1 417.8 415.3 411.1 411.9 417.5 423.6 431.2 440.5 446.4 457.6 479.3 480.9 479.6 476.1 465.8 460.8 459.6 463.7 473.7 470.5 468.3 457 446.4 440.7 434.8 426.2 416.7 406.6 396.2 390 388.6 386.6 383.5 379.5 376.9 376.4 375.2 372.6 368.2 365.3 363 360.8 357.9 354.3 348.3 342.2 335.6 331.4 327.9 325.6 322.1 320.9 318.8 316.9 314.1 311.2
330 329.5 329.8 330.7 331.2 327.2 314.7 308.2 303.7 300.3 297.4 294.8 293.7 292.1 290.5 288.8 285.9 283.1 280 275 270.5 264.4 250.8 220.1 237.2 254.1 263.6 271.9 278 282.6 286.6 289.6 290.4 292.2 294.5 294.6 289.7 287.8 284.4 282.6 281.9 281.7 284.7 287.4 291.1 291.3 291.5 292.5 292.6 291.2 273.4 259.9 243.8 225.8 236.9 248.1 254.6 259.8 274.4 283.6 293.1 298.7 301.4 304.3 307.7 311.9 317.8 322.6 323.5 324.3 324.4 320.8 323.2 326.1 331.9 336.8 339.4 340.9 341.6 342.8 344.1 346.4 345.8 344.8 344.8 346 349.3 351 352.6 354.1 355 355.1 354.5 353.8 353.1 353.3 353.2 353.1 351.6 349.2 347.5 340.9 330 320.3 315.7 312.3 308.3 306 304.3 296.5 297.6 302 309.8 312.9 315 318.8 322.2 325.9 329.2 331.2 332.7 335.3 338.9 343 346.9 351.7 357.2 363.2 370 376.3 378.3 384.2 392.9 401.4 403.5 405.2 404.1 404.7 403.4 404.4 408.4 413.6 419.1 424.8 423.5 421.5 418.7 417.1 417.7 423.5 432.1 440 448.1 461.3 473.2 477.4 475.1 468.4 457.9 450.7 454.8 464.3 467.2 468.6 466.5 455.3 445.6 439.3 435.2 427 417.6 406.8 399.5 396.4 394.7 393.9 390.2 384.9 382.8 382.2 381.6 378.8 375.9 373.7 368.1 364.1 359 354.4 347.7 341.2 335.2 329.8 324.4 321.3 319.7 318 316.1 314.6 312 309.4
329 327.9 327.6 327.2 327.9 323.4 311.4 305.7 301.9 298.3 295.3 293.8 292.8 291.8 290.1 288.3 286.1 281.3 277.8 273.2 267.5 261.7 252.1 218.8 246.6 255.6 264.1 270.9 276.2 279.4 283.3 285.5 291.1 293.8 295.8 296.3 293.8 289 287.1 284.9 282.8 280.6 283.7 287.5 287.7 286.9 287.8 289.5 287.3 282.1 268.5 256.6 232.9 229.2 239.5 249 255.5 268.2 281.7 288.2 291.1 296.5 300.1 303.4 308.5 312.5 315.8 318.6 320.6 321 321.6 321.7 323.1 327.1 328.3 334.7 337.2 338.8 340.7 342.1 344.1 344.6 342.9 341.3 341.1 344.7 347.4 349.2 350.6 352 352.8 352.7 352 351.2 350.5 351.1 351 348.7 346.4 346.5 345.5 336 323.8 316.6 311.8 309.4 306.1 301.9 293.8 300.4 306.6 308 311.8 315.7 318.7 322.4 327.2 330.9 333.6 336 338.7 342 346.1 349.5 351.9 355.7 359.7 364.8 370.9 376.7 381.5 387.5 394.6 403.1 407 415.4 411.7 408.1 408.4 406.8 410.1 415.6 420.9 427.4 429.5 426.6 423.2 419 417.1 421.7 430.7 440.1 452.3 459.1 463.5 472.7 473.3 460.7 449.6 444.1 454.3 460.1 460.8 461.6 458.5 453.9 445.2 438 433 426.2 416.6 409.4 406.3 404.5 403.1 402.4 400.8 397.6 393.4 390.8 388.9 387.6 385.2 379.5 373.3 366.3 360.3 354.4 347.5 341 334.9 329.2 324.1 320.4 318.7 317.1 315.1 313.2 311.5 308.5
327.9 326.4 325.5 324.5 321.9 314.2 308.2 304.3 300.2 296.8 293.7 292.6 291.8 291 289.3 287.5 285.7 281.6 274.7 271.2 263.9 259.5 250.8 230.4 227.8 244.8 261.8 269 267.1 267.8 277.5 286 292.7 296.6 298 296.2 294.3 291.4 292.9 290.1 286.5 282.1 280.8 285 284.6 282.3 283.4 283.6 282.2 276.6 265.9 255.3 232.1 230 240.9 248.7 258.9 272.5 283.7 290.7 293.9 297.7 301.1 304.4 308.3 311 313.4 315.4 317.2 318.2 320 321.2 325.4 328.2 328.9 330.1 334.4 336.6 339 341.8 343.1 340.8 338.8 336.9 337.9 343 344.8 347.2 348.6 349.8 350.1 350.3 349.6 348.8 348 348.1 348.2 345.4 343.4 343.4 340.8 329 320.1 313.7 308.4 305.7 302.7 291.9 302.5 306.9 310.6 313.1 315.2 319.1 322.9 327.3 331.4 335 341.1 346.4 350.3 352.7 357 359.3 358.2 358.6 362.8 368.6 374.3 379.2 385.9 390 396 403.6 408.6 415.1 416.4 414.1 413.3 410 412.6 417.7 423.4 428.6 431.1 429.9 426.7 421.9 418.7 419.4 426.1 437.6 446.7 454 454.7 460.3 464.5 455 447.2 446.5 448.2 450 449.8 450.3 450.3 447 440.3 435.6 429.9 423.8 417 413.1 412.5 412.6 412 411.5 409 406.4 402.3 399.7 399.2 394.3 389.5 382.1 374.8 367.5 361.3 354.1 347 340.1 334.6 330.3 326.1 321.8 319 317 314.9 312.9 310.5 307.5
326.6 326.3 323.7 320.1 315.4 310.2 306.4 302.5 298.8 295.6 293.3 291.8 290.9 290.1 288.7 286.6 284.1 279.1 271.9 268.3 261.9 256.1 247.3 234 215.4 234.5 253.9 263.5 258.5 264 278.5 288 294.7 298.1 297.4 296.2 294.8 294 294.1 291.7 288.6 288.7 282.3 275.8 278.8 278.2 278.3 278.5 278.2 275.2 263.9 252.3 225.6 231.2 242 249.5 261.6 274.3 284.4 290 294.2 298.1 302.9 306.4 309.3 309.9 311.2 305 314.7 316.1 318.6 320.5 322.2 327.8 328.7 329 331.6 334.8 339.3 341.4 340.3 337.6 335.6 336.3 337.5 339.7 342 345 346.6 347.1 347.3 347.5 347.3 346.5 345.1 344.9 344.5 341.7 341.3 340.3 331.7 321.4 314.9 310.5 306.6 301.7 290.4 300 305.1 309 312.9 318.3 321.1 324 329.2 334 338.8 344.2 351.6 356.2 359.1 363.4 364.5 367 362.9 362.2 366.2 372.8 378.8 382.9 391 397.3 399.4 404 408.7 412.7 416.9 416.4 414.7 414.2 415.2 419.9 424.1 427.6 430 431.1 430.2 425.2 420.6 418.6 422 429.7 436.3 442.7 447.5 450.4 453.7 449.5 449.3 450.7 445.7 443.8 442.8 444.2 443.1 441.3 437.3 430.3 425.8 423.3 420.8 420 420.1 421 418.6 417 415.6 411.9 408 409.2 406.6 397.7 390.5 382.8 375.3 368.6 362.2 353.4 345.9 339 335.4 331.5 327.3 323.3 319.4 317.3 315.1 313 310.4 309.1
325.1 324.7 323.4 318.8 311.5 307.9 304.6 301.1 297.7 295.3 292.9 291.4 290.3 289.4 287.1 284.4 280.6 273.2 268.9 265.3 260.7 255.1 244.4 231.2 217.7 223.4 243.8 255.1 259.8 270.9 281.5 289.1 293.8 296.1 295.4 295 295.5 295.6 294.5 292.5 292.3 289.7 283.9 274.9 274.3 274.6 274.5 274.1 273.3 271.5 260.4 247.2 223.1 231.8 240.3 249.6 262.4 274.2 282.9 289 294.6 299.6 304.6 308.1 309.9 311.6 312.6 312.5 314.2 317.1 320.9 322.4 323.8 325.3 326.1 328 331.1 335.4 338.5 339.3 337.4 334.6 333.7 334.7 335.5 336.9 339.4 342.5 343.9 344.5 344.7 344.8 344.7 344.2 342.2 342.1 339.7 337.8 336.1 332.6 324.4 316.3 310.4 307.7 300.9 292.2 297.9 303.9 307.5 312.7 318.4 324 327.4 330.3 335.5 340.7 346.7 353.1 356.3 359.6 369.9 376.6 372.7 371 367.1 366.4 371.8 380.4 384.9 391.9 395.6 399.4 403.2 406 408.9 412 416.3 417.8 417.1 417.9 418.9 421.2 424.3 427.7 431 432.8 434.1 429.4 423.5 419.9 421 425.3 428.7 436.1 440.8 444 444.8 446.4 450.7 450.7 444.1 441.5 441.3 441.5 440.4 439 432.8 428.1 425.5 425.9 427.6 428.5 428.5 425.9 422.9 422.9 420.7 415.2 411.3 411.2 408.5 399.6 390.8 382.5 375.3 368 360.5 352.3 344.6 338.6 335 331.6 328.2 324.2 320.3 317.4 315.1 313.5 313.4 312.7
322.2 321.3 319.8 316.4 309.4 305.7 302.8 300 297.5 295.1 292.7 290.5 289.1 287.5 284.4 281.3 276.1 269.8 266.2 262.5 258.5 252.4 244.5 228.8 218 215.6 241.3 257.4 267.6 276.5 283.4 288.8 292.4 293.4 294.6 295.4 296.4 296.4 295.6 295.9 294.1 289.7 284 276.2 271.8 271.6 271.1 270.6 270.8 270.2 258.1 243.2 221.5 231.5 241 250.5 262.4 274.1 282.8 289.3 296.2 302.8 307.2 309.4 311.8 313.6 314.5 314.7 315.5 319 320.2 320.2 321 321.9 324.5 328.2 332.6 335.3 337 335.8 333.7 331.7 331.7 332.6 333.4 335.4 338 339.9 340.5 341.1 341.9 342 341.8 341.5 339.2 339.1 336.2 334 329.1 323.3 317.5 310.6 307.9 303.7 291.2 295.2 303.1 305.4 311.4 317.6 322.8 328.2 332.8 336.8 341 346.1 351.6 354.5 357 365 377.2 382.7 382.9 379.9 373.7 373.1 376.9 385.7 394.3 395.7 395.6 400.9 403.6 405.6 408.3 412.2 416.2 418.2 419.6 421.3 422.5 423.1 426 430.4 432.6 437 439.9 434.1 427.3 422.8 422.7 423.2 428.8 434.5 438.2 439 441.6 445.2 446.4 445.6 442 440.7 441.3 443 440.4 437.6 432.6 432 430.7 430.2 433.4 432.1 430.3 428 426.5 425.9 422.5 417.5 412.1 409.2 406.6 398.4 388.8 380.4 372.9 366.9 359.8 351 343.4 336.8 334.4 331.5 328.9 325.1 321.7 317.5 315.3 315.6 316.3 315.5
318.5 317.7 315.4 313.1 308.2 306 303 300.1 297.5 294.9 292.4 290.3 288.1 285.2 281.8 277.6 269.7 265.9 262.5 259 254.8 247.8 240.9 227.3 214 218.7 247.5 263.7 273 279.5 283.8 288.1 288.8 291.6 293.6 294.7 296.2 296.8 298 298.2 294.7 293.9 288 277.5 268.9 268.5 268.4 268 269.5 268.1 256.6 241.7 220.7 229.6 240.9 249.9 263.4 273.9 282.6 290.5 297.8 304.3 307.7 310.9 313.8 316.6 316.4 316.2 317 317.7 317.7 317.2 313.3 316.8 324.3 330 334.9 335.4 335.3 333.4 331.5 329.4 329.1 330.2 331.5 334.2 334.9 335.8 336.6 337.3 338.5 339.7 340.2 338.8 335.9 335.3 331.8 328.2 322.3 315.8 310.7 306.7 304.3 293.3 292.7 299.7 303.6 308.7 316.4 321.9 327.6 332.7 338.6 343.5 346.9 350.3 353 354.7 358.6 372.3 380.5 383.7 386.1 389 382.7 378.1 382.7 390.9 396 396.5 398.7 402.1 403.6 405.9 408.3 414.5 416.5 419.5 421.8 425.2 428.9 427.9 429.2 433 435.4 440.6 443.3 440.7 434.8 427.7 422.1 427.3 432.1 436 436.2 438.1 440.7 441.1 441 439.7 437.7 439.5 445 444.1 440.5 437.1 438.6 438.2 436.4 435.6 434.7 431.5 428.4 430.3 429.4 427.9 424.9 417.7 411 410 405.7 395.7 385.2 376.6 369.7 364.4 358.3 350.2 342.2 335.8 334.3 332.1 330.3 326.7 323.3 319.5 318.2 317.9 318.5 317.5
314 313.7 311.6 310.4 307.4 305.5 303.4 300.4 297.7 295.1 292.2 289.2 286.9 283.8 278.1 272.4 267.6 263.2 259.3 255.4 250.1 243.2 237.4 229.3 215.4 211.7 242.6 258.6 271.7 278.7 281.7 283.5 285.2 289.8 292.2 294.6 296.2 297.7 298.8 296.6 295 292 288.3 277.7 269.3 264.1 265.1 266.4 265.5 262.5 255.8 243.9 220.5 229.2 239.7 249.5 263.7 273.9 282.4 290.7 298.3 303.4 308.7 312.7 314.7 316.9 318.1 317.5 317.1 316.8 316.7 316.2 315.5 318.9 326.4 332.6 336.1 336 333.6 331.7 328.5 326.5 326.8 328.3 330.1 330.7 331 331.9 332.8 334.9 336.7 338 337.8 335.5 332 330.1 326.8 321.5 314.4 308.4 307.5 303.7 297.4 289.7 297.5 302.7 307.7 314.2 320.6 325.6 333.8 341.3 347.1 350.5 352.3 353.7 354.1 353.3 360.3 373.6 380.2 383.8 388.1 392.4 392.2 382 385.6 391.8 395.8 394.5 396.9 402 402.7 404.9 408.3 412.5 417 420.7 425.4 431.3 432.5 431.7 431.7 434.4 438.7 445.8 447.3 446.8 440.9 430.2 426.8 431.3 434.9 435.6 436.6 437.3 437.7 437.3 436.6 435.2 436 439.3 441.2 441.3 439.5 440.5 441.8 440.9 437.7 436.8 436 434.1 430.8 429.7 430.5 426.6 422.7 414.5 407.7 408.5 404.4 392.9 381 372.6 365.9 361.5 356.8 349.7 341.2 337 335.9 335.1 333.1 330.2 327.1 324 323.2 321.9 320.4 319.1
309.3 308.8 308.4 307.6 306.5 304.6 302.7 300.3 297.7 294.8 291.7 288.5 285.8 281 274.8 269.9 266 261.6 256.8 252.1 246.9 240 233.2 228 216.3 206.1 234 254.3 266.5 273.1 275.8 278.5 281.9 286.7 291.5 294.8 297.8 299 298.1 295.8 293.4 288.9 283.5 277.4 267.8 262.9 262 264 263 258.5 256.7 245.1 224 226.7 238.7 247.8 262.3 274 283.5 291.4 298.2 304 310.8 313.4 315.6 317.6 318.5 317.4 316.8 316.2 316 316 317.4 322.3 328.3 333.5 336.2 335.5 332.7 328.7 325.3 323.3 325.1 327.1 327.9 327.5 326.7 329.1 331.1 333.2 334.8 335.2 334.4 331.8 326.3 323.9 319.3 312.9 308 304.8 303.5 297 287.4 294.1 301 306.6 313.1 318.3 325.4 334.1 342.6 348.6 351.7 356.3 357.9 358.5 356.8 355.2 362.7 373.1 378.8 384.5 388.5 391.1 391.1 387.5 384.5 387.8 390.7 389.4 392 398.2 401.6 403.8 407.5 412.8 417.2 421.9 430.9 436.6 436.4 435.2 433.6 436.3 446.7 450.8 448.6 445.6 438.7 432.7 431.3 431.4 432.5 432.6 434.3 434.3 434.3 433.8 432.8 433.1 435.6 437.1 436.7 437.4 439.9 443.6 444.2 442.5 440.2 439.7 439.1 437.8 430.1 427.1 426.4 421.2 415.4 408.9 401.9 399.6 398.7 388.5 376.5 368.1 363.4 359.4 354.7 348.5 340.6 338.6 338 337.2 335.7 333.2 330.7 328.9 327.8 326.6 323.9 321
304 303.7 304.5 305 304.5 303.6 301.6 299.2 297 294.3 291.2 288 284.8 278.9 273.5 268.9 264.5 260.1 254.8 247.5 243.8 237.9 229.7 225 215.1 203.5 229.9 252.7 262.9 267.1 270.5 274.2 278.9 284.5 289.7 294.3 297.2 297.3 295.2 293.1 289.7 284.8 279.7 275 265.6 261.8 256.6 260.4 258.3 254.5 254 242.8 229.2 219.7 239.4 248 261 275 286.9 292.8 296.7 305.9 311.3 314.3 316.6 317.7 318.1 317.3 316.7 316.7 316.4 316.9 317.9 323.4 327.9 331.9 335 335.4 332.1 326.9 322.7 321.2 323.9 324 324.3 324.4 325.7 327.6 329.6 331.5 331.8 331.9 330 327.8 322.1 317 311.8 308.2 304.9 301 297.4 288.4 290.9 300.4 304.3 310.4 317.9 326.7 336.7 345.5 349.8 352.9 356.5 361.6 362.6 363.4 359.7 357.5 362.9 375 378.8 383.6 386.7 388.2 388.7 386.1 384.1 383.4 383.9 386 388 394.4 398.9 403.9 407.2 413.1 418 426.3 434.9 438.1 437.7 436.9 437.3 442.6 448.9 447.6 445.1 443.4 440.1 433.6 430.4 428.1 427.5 428.9 430.2 430.1 428.9 429.8 430 432.1 432.9 433.5 434.7 437.3 442.4 446.5 448.3 446.5 444.4 441.2 445.9 446.5 433.5 427.1 421.4 415.3 410.2 404.3 397.1 391.5 389.6 381.1 373.2 366.8 361.6 357.8 353.3 347.9 342 340.1 340 339.1 337.7 336.1 334.5 332.8 330.4 327.9 324.4 321.5
