ncols 200
nrows 82
xllcorner 310000
yllcorner 704000
cellsize 50
312.7 312.9 309.4 306 304.3 305.3 307.1 306.6 311.9 324 327.1 324.2 318.8 312.1 317.6 317 316.5 318.1 314 309.5 302.1 293.3 283.4 272.6 262.7 252.8 245 236.1 234.1 231.7 230.4 233.1 239.4 240.2 242 237.5 229.4 225.4 219.8 212.3 205.3 204.6 215.1 224.9 230.6 233.6 235.7 235.9 235.4 234.8 235.8 236.6 236.5 235.7 233.5 231.3 229.8 227.9 225.3 223.6 221.6 220.9 219.2 217.4 215.2 214.1 211.6 209.9 207.9 205.8 203.1 200.7 197.9 195.3 190.2 187.1 185.5 185.6 183.4 180.1 178 174 172.2 170.6 169.4 167.9 166.3 164 161.4 159 159.6 159.1 157.4 155.8 154.1 150.6 151 149.8 148.4 147.8 146.9 145.9 144 143.2 141.8 140.1 138.2 136.9 134.8 132.9 131 129.8 127.8 126.2 123.8 121.1 119.9 118.7 113.9 105.3 104.6 104.8 113.2 116.5 114.3 112.9 112.8 111.8 110.4 108.6 107.8 107 104 102.1 98.3 97.6 96.6 97.8 99.2 103.4 108.7 111.2 112.8 114.7 117.1 118.3 119 119.5 119.7 119.2 114.9 120 121.6 122.9 126.2 129 132.1 135.4 137.9 139.2 139.4 139.6 139.8 139.8 139.5 139.1 138.9 138.3 138.6 138.4 139.3 142.4 144.5 145.5 146.4 145.3 144 141.1 139.4 138.3 136.9 135.2 135.2 134.6 134 134 134.4 134.7 135.5 136.8 137.1 138.6 140.3 141.9 144.8 147.8 150.3 150.7 151.3 151
312.4 309.6 307.3 305.7 304.8 305.7 307.5 309.9 313.6 321.6 330.9 328.8 318.4 310.8 308.9 312.1 315.3 317 310.6 304.4 298.4 290.6 282.3 273.1 263.7 254.4 244.9 237.6 232 231.1 232.9 237.9 243.3 243.8 244.4 241.7 238.1 231.1 224.9 219 212.3 203.3 203.4 213.6 220.9 226.3 228.8 230.3 230 230.4 230.7 231.5 232.4 232.2 230.4 228.5 227.3 226.2 224.9 222.1 218.9 217.4 215.6 213.7 212.2 211 209.5 207.7 206.8 205.6 202.8 200 197 194.8 191.8 187.4 183.3 183.1 182.2 179.9 178.1 174.5 172.2 170.5 168.6 167.3 166 164.2 162.9 161.7 159.8 158.7 157.3 156 154.2 150.6 150.7 148.9 147.1 146.5 147.3 146.5 145.6 143.9 142.7 140.7 138.9 137.9 135.3 133.4 132.1 131 128.9 126.8 124.6 122.9 122 121.4 119.5 118.3 108.9 103.9 105.9 114.6 113.2 111.3 109.8 109.5 109 108.2 107.5 106 102.8 99.2 98.4 100.8 100.9 100.7 101.9 107 111.5 114.8 116.8 118.3 120.9 121.3 121.2 121.6 121.8 121.6 115.1 123.7 126.1 128.2 131 135.2 138.6 140.9 141.6 142.8 142.6 142.3 142.1 141.8 141.6 141.2 140.9 141.4 141.3 141.5 143.3 146.6 148 148 147.3 146.2 142.9 141.4 141.3 139.9 139 137.8 137.6 137.1 137 137.4 138.9 140.4 141.7 142.6 144.3 145.8 147.6 149.4 151.5 155.4 157.1 157.2 156.6 153.1
317.9 310 307.6 306.6 305.4 306.3 306.5 310 315.1 320.3 327.6 328.9 321.5 311.1 301.1 305.7 309.8 308 305 299.6 294.9 288 279.8 272.1 263.6 256.2 248.8 241.7 235.2 233.5 236.5 241.8 246.4 249 248.7 248 245.6 241.4 231.9 224.1 217.2 209 201 202 210.5 218.9 222.5 224.5 225.3 226.1 226.8 227 227.8 228.7 227.3 226.2 225.7 225.9 224.9 223.6 219.2 214.7 212.2 210.8 209.5 208 206.4 205.4 203.8 202.7 201.2 198.6 194.6 192.6 191.2 189.4 184.8 181.1 180.1 178.9 177.7 174.5 172.4 170.4 168.9 167.5 165.6 164.1 162.9 161.6 160.4 158.7 157.4 156.1 154.8 152.7 152.2 150.4 148.4 146.6 146.2 144.9 144.4 143.6 142.5 141.8 140 138.6 136.4 131.1 132.6 131.1 129.5 127.4 125.3 123.3 123 122.2 121.1 119.2 116.7 113.7 104 104.4 108.6 107.9 106.5 106.4 107 106.1 105.5 102.4 98.6 98.1 103.6 103.7 103.6 102.6 100.6 108.4 113.3 117.7 120 121.7 123.3 122.9 122.9 123.6 124.1 124.6 119.5 126.4 128.7 131.6 135.3 139.4 142.9 144.5 145.5 146.2 145.7 145.2 145.1 144.9 144.7 144.1 144.2 144.5 145.5 145.9 147.9 150.7 151.1 149.6 146.9 144.9 143.6 143.7 143.5 142.8 141.1 139.9 139.7 139.6 140.4 141.6 144.2 148 151.3 153.3 154.6 154.3 155.3 157 158.3 160.1 159.4 158.7 157.4 155.1
323.1 318.6 309.9 308.8 306.4 304.8 306.9 309.1 314.2 319.4 324.5 325.3 321.8 311.1 301 292 296.2 296.9 296.7 294 289.6 284.4 277.6 270.7 264 257.7 252.2 246 239.9 237.1 240.4 244.3 246.8 250.6 252.4 251 250.2 246.5 240.7 232.2 222.8 215.2 206.4 198 199.8 209 216.1 219.7 221.2 221.8 222.8 223.5 223.8 224.6 224.6 224.5 225.5 225.5 224.9 223.2 219.8 215.5 211.4 208.3 206.9 205.5 203.6 201.9 200.7 199.4 197.7 195.8 192.7 189.6 188.5 186.9 184.7 182.7 179.1 177.3 176 174.2 171.5 171.1 169.5 168.2 166.6 165.8 163.7 162 161.3 160 158.7 157.3 156 153.2 152.9 151.4 148.4 147 146 144.2 142.7 141.9 140.7 139.2 138.9 137.3 135.6 133.8 132.3 130.9 129.9 128.2 126.1 124.1 122.3 120.7 120 117.8 115.2 112.5 110.5 104.5 102.5 102.6 104 106.5 104.9 103.1 100.6 99 102.1 105 106.6 107 106.9 108.1 103.9 110.5 115.9 120.4 122.4 122.2 122.8 122.7 124.4 125.8 126.5 127.2 124.1 128 130.7 133.5 137.1 141.4 145.5 147.9 148.6 148.8 148.5 148.4 148.2 148 147.5 147.8 148.6 149.9 150.4 150.6 152.7 153.6 152.9 151 149 148.4 148.1 148 146.7 146 144.5 142.4 142.8 143 144 146.5 152 157.9 161.1 163 163.9 164.4 164.2 162.8 161.6 160.2 158.2 156.5 155.2 153.4
324.3 323.2 315 314.3 311.5 305.3 305.4 306.2 304.8 313.1 316.6 318.7 317.2 310.4 300.6 291.5 283.7 285.4 287.8 287.9 285.1 280 273.1 267.8 263.4 259.3 253.5 247.8 243 238.3 238.9 242.8 245.6 247.6 250 250.6 250.3 248.2 243.8 239.3 231.5 222.4 213.9 204.6 194.4 199.6 206.7 211.3 215.9 218.2 219.7 220 220.6 221.1 221.8 222.9 223.9 224.5 224.2 221.9 219.1 216.5 212.1 207.5 204.6 202.9 200.8 198.8 197.2 195.5 193.5 191.4 189.1 186.7 185.3 184.7 183.9 182.3 180.4 177.5 175.4 174 173.4 172.4 170.5 168.9 166.9 165.5 164.4 162.7 162.2 161.5 159.7 157.9 156.1 154.1 153.1 151.4 149.4 147.5 146.6 144.6 142.2 140 139 137.3 136.2 135.4 133.9 132.3 127.9 129.7 128.7 127.9 125.7 123.5 121.4 119.3 117.7 116.2 113.6 110.9 108.8 106.9 105.1 105.7 101.4 101.5 101.1 100.4 99.2 105 106.9 109.1 109.9 111.4 111.2 111.7 106.4 113.9 117.1 120.9 122.6 122.9 123.5 125.2 127.6 129.2 129.8 130.7 123.5 130.3 132.7 135.4 138 142.2 146 147.9 149.5 149.9 150.8 150.7 150.5 150 150.2 151.1 153.7 155.5 156.5 156.5 156.2 155.8 154.7 154.3 154.4 153.1 152.5 151.1 149.7 148.9 147.5 144.7 145.7 146.4 147.8 152.2 159.1 164.4 168.5 170 170.4 169.2 167.3 164.1 160.5 157.3 155 151.9 150.4 148.7
318.6 321.5 318.3 315.2 315 308.7 301.5 303.2 304.9 306.2 305.7 307.4 309.2 306.7 300.2 291.6 283.2 275.4 273.4 275.5 277.6 272.8 268.8 264.9 261.4 258 252.5 248 243.9 239.3 236.3 237.1 242.1 244.9 246.4 248.4 249 247.6 245.3 242.2 236.9 228.2 220.9 213.1 204 191.5 195.4 203.2 208.4 212.6 215.2 216.9 217.7 217.6 217.6 218.7 221 222 223.1 221.3 218.9 216.3 213 208.7 204.5 200.1 197.8 196.3 194.7 191.8 190.6 188.1 185.8 183.4 182 181.5 181.3 181.5 180.7 179 177.4 174.6 173.9 172.6 170.8 168.9 167.8 166.7 165.1 163.5 162.2 161 159.3 157.5 155.6 153.6 152.6 150.7 148.6 147.2 146 144.3 142.3 140.4 137.4 135.9 133.5 132.7 131.9 131.1 129.6 128.4 127.4 126.4 124.8 122.9 121 119.1 117.1 115 113 110.4 108 106.6 106.6 104.2 101.6 101.6 105.5 108.9 112.2 112.6 113.7 115 116 117.2 118 118.6 117.2 109.9 118.9 122 123.5 125 126.7 129.6 132.5 134.3 134.9 134.9 133.8 127.9 136.5 138.3 140 141.8 144.9 147.7 150 150.6 151.5 152.2 151.9 152.2 154 156.5 159.8 160.9 161.4 161.6 160.9 160.5 159.1 159.3 158.4 157.1 156.3 154.7 153.8 152.3 150.5 150.7 149.4 150.7 152 157.6 164.4 169.3 172 172.2 170.9 168.6 165.1 160.8 156.7 154.2 152.9 152.4 152.7 151.6
314.4 314.1 317.7 314.5 311.8 309 300.2 294 296.6 297.1 298.1 300.5 302.4 299.4 295.4 289.3 282.7 274.5 266.3 266.4 265 264.2 263 261.1 258.5 256 251.6 246 242.6 239.6 236.5 233.8 235.9 239.2 242.7 245.2 246.6 246.3 245.5 244.1 240.2 233.8 227.2 219.4 211.8 202.2 190.4 192.6 197.4 203.8 207.9 212.4 214.1 214.5 213.6 214.7 216.5 217.5 219.1 220.8 218.7 215.7 212.6 209.8 205.6 202.2 198.4 195.5 192.1 188 187.1 184.7 183 179.8 179.4 179.4 179.4 179.3 178.8 178 176.7 174.6 173.2 171.3 170 169.2 168.5 167.5 165.8 163.9 162.1 160.6 158.8 157 154.9 153.3 151.4 149.4 147.5 145.7 144.4 142.8 140.8 139 138.1 136.2 134.2 132.1 129.5 128.2 127.5 127 125.8 123.9 122.1 120.2 118.4 117.2 115.8 113.6 111.8 110 107.8 106.1 103.4 102.4 103.9 105.4 111.8 115.2 118.1 119.6 120.7 121.4 121.3 121.8 122.7 123 121.7 119.6 121.2 123.5 125.8 127.9 129.9 133.8 137.1 138.2 138.8 139 137.1 136.7 139 141.3 142.3 143.5 144.6 146.6 148.8 150.6 151.1 152 152.7 154.8 158.7 161.1 164.4 165.7 165.8 165.8 164.5 164.2 163.5 163 162.4 161.6 160.2 159.3 157.7 155.4 156.3 156.9 154.1 158 158.5 160.4 168.8 172.5 172.9 172.2 170.6 167.8 163.6 159 156.4 155.9 155.4 155.2 155.9 154.6
309.8 307.8 307.5 308.8 306.3 302.7 298.9 288.8 285.4 287 288.7 289 292.2 292.1 288 284.3 279.2 273.4 265.8 257.7 256.6 255.4 254.5 253.8 253.7 251.2 248.1 246.2 243 239.2 236.4 233.8 233 235.2 238.4 240.3 241.8 242.2 242.6 242.8 241.5 238.1 233 225.8 218.3 210.2 200.7 189.4 189.1 193.5 198.8 206.3 208.7 209.9 209.2 210.8 211.3 212.2 213.7 216.1 217.6 215 212.2 209.4 206.4 203.3 199.6 195.2 192.5 189.6 185.5 182.1 180.3 178.9 177.4 177.2 177 176.7 176.2 175.7 174.8 174.3 172.7 171.2 169.7 168.8 169 168.1 167 165.4 163.1 160.8 158.5 156.4 154.5 153.6 150.1 148.3 146.8 144.1 141.9 140.9 139.6 138.6 137.3 135.9 134 131.7 130.5 129 126.2 124 123.1 121.5 119.4 117.5 115.8 115.1 113.8 111.5 110.1 108.8 108.4 105 104 107.8 110.2 114.2 117.2 119.2 121.3 122.8 124.1 125.5 125.9 126.5 126.1 126.5 125.7 125 118.1 125.3 127.8 129.9 132.8 137.6 140.7 141.7 142.5 142.2 140.1 140.6 136.6 143.4 144.4 145 145.8 147 147.6 148.9 151.2 152.8 155.2 158.4 162.6 165.8 167.8 168.7 168 167.4 167 166.6 166.2 165.4 164.7 165.3 162.6 163 164.1 163.1 164.9 166.9 164.8 166.8 166.2 164.3 168.6 171.7 172.5 172.5 171 166.3 161.9 159.9 159.8 159.8 159.6 160.2 161 159.9
296.3 294.6 296.7 297.7 298.7 295.7 292.6 287.1 278.6 276.1 277.9 278.8 279.3 281.2 278.5 275.5 273 268.4 263.5 256.7 249.8 248.4 247.4 247.4 246.2 245 244.4 243.1 240.6 238 234.4 232.6 229.2 230.1 231.9 233.9 235.3 236 237.4 238.7 238.8 238.2 235.6 231.1 224.7 217.1 207.7 198.4 189.6 185.3 189.8 196.5 201 203.5 202 206.6 207.2 208.3 209.5 210.9 212.5 213.9 211.1 208 205.1 202.5 199.6 196.7 192 189.4 186.2 182.4 180.1 177.7 176.6 175.6 175 174.2 173.7 173.2 172.9 172.5 172 171.8 170.3 168.9 168.3 167.4 166.3 165.5 163.7 161.4 158.9 156.6 154.3 154 150.2 147.8 145.7 143.2 140.6 138.5 137.3 136.2 135.8 135.2 134.1 132.6 130.9 129.3 127.4 124.2 120.8 118.9 117 115.3 113.8 112.7 111.4 109.6 109.8 106.7 105.3 104.9 108.1 112.7 116.8 118.6 120.2 122.4 124.2 125.9 127.2 128.5 129.3 129.1 128.7 128.7 128.3 127.3 118.3 125.1 128.7 131.8 134.8 140.4 143.3 144.3 144.9 143 142.5 143 135.7 143.4 144.7 145.6 146.7 147.8 148.4 150.1 151.6 156.4 161 164.7 167.3 168.8 169.4 169.3 168.7 168.3 168.2 168.2 168.4 168.2 167.8 169.2 166 166.5 169.6 170.1 170.2 173.6 168.5 173.3 171.4 169 169.1 171.4 170 168.9 166.1 164.2 163.6 163.9 164.2 166.2 165.9 167.1 166.6 166.6
278.8 281.6 285.8 285.8 286.4 286.5 283.1 277.2 273.8 267.2 268.3 271.5 271.2 268.8 266.7 264.7 262.9 260.5 258 254 248.1 244 244 243.9 241.8 240 239.3 238.8 237.3 234.2 231.7 229.7 227.7 225.7 226.2 227.5 229 230.7 232.3 233.8 233.9 234.1 233.2 230.9 226.7 221.9 214.2 205.2 196.4 189.5 183.8 184.6 189.8 194.8 199.9 202.4 203.3 204.4 205.6 206.6 207 208.6 209 206.7 203.8 201.2 199 196.1 191.9 189.1 185.9 183 180.3 177.5 175.9 174.9 173.7 173.2 172.6 172.2 171.3 171.6 170.5 171.4 170.1 168.2 167 166.6 166.1 165.1 163.3 161.8 159.5 156.8 154.6 153.9 150 147.9 145.2 142.7 139.4 136.3 135 134.3 134 133.4 132.4 131.4 130.3 128.8 126.9 125 122.4 120 118.2 116.3 114.6 113 111.3 111.1 108.6 107.2 105 108.2 112 118.3 121 122.5 123.7 125.7 127.8 129.5 130.5 131.6 131.4 131.3 131 130.6 130 128.9 119.2 127.1 130.7 133.4 137.5 142.1 144.6 144.9 144.6 144.1 144.1 144.3 139.8 145.3 145.6 146.3 147.5 148.5 149.3 150.5 154.6 160.4 165.3 168.6 171 171.5 171.7 171.4 171.1 170.8 170.8 170.9 170.9 171.1 171.5 173.5 169.4 170.8 174.8 176 173.4 176.8 176.4 178.2 177.4 174 174 173.5 171.6 169.4 168.4 168.7 168.9 169.4 171.4 173.7 173.2 174.2 172.9 174
260.9 263 267 271.3 273.5 271.5 268.3 270 266 259.3 257.5 259.8 260.3 258.4 254.9 253.8 252.5 252 251.2 250.1 247 242.6 243.4 242.3 242.8 237.7 234.9 233.3 232.7 230.7 229.1 226.6 224.9 221 221.8 222.1 223.3 224.1 225.9 227.7 227.8 227.6 227.3 227.1 225.1 222.3 217.7 210.5 202 194.4 189.1 179.8 180.3 183.2 192 196.4 198.4 200.5 201.6 202.5 202.7 203.2 204.2 204.5 202.3 199.3 196.3 194.5 192.2 189.8 186.3 184.4 181.6 178.8 177 176 175.4 175 174.2 173.7 173.7 172.4 171.4 167.7 167.1 165.3 165 163.5 162.9 163.1 162.3 161.2 159.3 156.6 154.9 154.2 150.7 147.7 145 140.8 136.5 136.5 135.3 130.8 130.3 130.5 130.1 129.2 128.4 128.2 126.7 124.7 122.4 121 119.2 117.3 115.8 114.5 112.5 111.8 110.2 107.1 107.4 112.3 115.1 121.3 124 125.8 129.2 130.9 131.8 132.7 133.1 132.9 132.7 132.4 132.2 132.7 131.7 130.8 124.2 130.1 132.9 135.5 139.7 143.1 144.4 145.4 144.7 146 144.9 145.2 142 142.9 145 146.8 147.7 148.7 149.8 151.8 156.4 162.9 167.7 171 172.5 173.8 173.2 173.5 173.5 173.8 173.8 174.6 174.8 174.9 174.9 178.4 172.7 176.8 177.9 180.3 177.3 181 181.5 183 180.3 179.2 178.3 177 174.3 172.6 173.2 174.9 175.4 177.3 182.8 183 185.4 183.4 182.3 185.4
246.4 246.9 251 252.4 253.6 255.3 255.6 254.7 255 252.6 245.5 248.2 249 248.1 246.4 244.9 244.3 244 243.8 244.5 243.5 240 238.4 238.1 239.3 238.2 233.5 230.9 227.8 226.6 225.5 223.7 221.5 217.1 216.9 217.1 216.8 217.6 219.7 221.4 221.4 221.3 221.1 221 220.5 218.8 216.4 212.7 206.2 199.8 192.9 186.9 180.4 176.4 182.8 189.4 194 196 197.4 198.5 198.7 198.5 198.6 199.3 199.5 196.8 194 192.3 191.3 189.7 187.6 185.8 183 180.5 179.3 178.5 177.1 176.5 175.1 173.9 173.2 172.5 171.4 170.8 168.2 168.5 168 165.8 163.7 162.1 158 157.7 157.5 155 153.6 153.3 149.2 146 142.3 141.9 140.6 139.3 139.7 134.4 131.6 127.9 127 126.6 125.9 124.7 123.5 123.4 122.1 120.7 119.5 118.4 117.3 115 113.6 110.9 109.2 106.5 110.8 115 118 121.3 125.4 127.5 132 133.2 133.1 134 134 133.7 133.7 133.4 133.7 134.7 133.9 133.3 131.5 127.9 134.7 137.5 141.4 144 144.8 145.8 145.6 145.5 145.2 145.8 144.2 144.2 143.3 147.3 148.7 148.9 150.4 152.5 157.6 163.9 168 171.1 172.3 173 174.4 174.9 175.7 176.8 178.1 179.6 180 179.1 179 180.3 176.9 181.6 181.7 183.6 182 185 185.6 187 186.1 185.1 183.2 183 180.8 177.9 181.1 184 184.9 189.5 191.6 192.2 194.5 191.2 192.9 198.6
236.4 236.8 237.6 238.6 241.1 241.5 243 243 243.2 242.8 239.4 240.9 239.9 238.9 237.9 237.5 236.9 237.3 237.5 236.8 236.8 235.3 232.5 234.2 234.7 233.9 232.5 230.5 225.7 223 222.1 221.1 218.4 214.7 212.7 212.3 212 212.2 213.5 214.6 215 214.9 215.4 215.1 214.9 213.9 212.5 210.3 207.1 202.4 195.6 190.4 185.1 178.6 174.5 182.1 187.8 190.1 191.9 193.6 194.7 194.5 193.7 194.6 194.7 194.2 191.6 190.3 190.1 189.3 187.5 186.2 184.3 182 180.3 179.3 178.4 177.2 175.7 174.4 174 173.2 172 171 170.4 169.6 168.5 167.3 165.9 164.2 162.5 159.4 158.2 155.9 147.7 152.6 144.7 147.2 146.7 142.9 138.9 140.1 140.1 134.7 131.7 129 126.8 123.8 122.4 121.6 120.8 120.8 119.6 119.1 118.8 117.8 116.6 115.1 114.5 113.2 111.6 106.7 113.8 117.2 119.6 122.8 127.1 130.3 132.9 133.6 133.4 133.8 134.5 134.4 134.3 134.9 135.4 136.2 136.2 135.9 135.3 136.2 138.8 140.6 142.9 144.6 145.4 146.2 146.3 145.9 146.2 147 147.1 145.7 146.2 147 148.9 149.6 150.9 153.1 157.7 164 167.2 170.5 172 174 176.6 178.6 180.6 183.3 185.3 186.5 187.7 183.7 183.6 183.3 182.1 185.4 183.6 186.9 185.8 188.2 190.7 191.2 192 193.3 193.8 191.4 191.6 190 193.5 196.6 199 201.7 201.9 203.9 204.6 201.7 201.8 211.5
229.8 230.1 230.5 232.2 233.9 235 235.2 234.7 235.1 234 232.1 233.2 232 229.9 228.6 229 230 232.8 233.4 231.3 229.6 229.5 229.2 229.4 229.1 228.1 228.1 227.8 225.2 221.7 218.6 218.1 215.7 212.9 208.3 208 208.2 207 207.2 207.9 208 209.3 209.8 209.4 209.6 208.7 207.2 205.6 203.3 200.8 196.2 191.6 186.6 181.4 174.8 176.3 181.9 184 186.3 188 189.5 190.5 190.2 190.4 190.3 189.8 189.2 188.9 188.4 187.7 186.6 184.6 183.1 181.6 180.4 179.4 179 177.6 176.4 175.6 174.6 173.5 172.2 171.3 170.7 170.1 168.7 167.1 165.7 165.2 163.4 160.9 159.1 157.4 155.2 153.7 151.2 149.2 147.3 145.4 142.1 139.5 136.8 134.5 132.8 131.2 128.7 127.4 125.2 122.9 119.5 118.9 117.6 116.4 116.8 119.6 116.1 116 115.8 113.4 110.6 109 115.1 118.6 122 124.9 129.1 132.2 133.1 133.2 133.5 134.1 134.9 135.7 136.3 137.2 138.5 139 139.8 139.8 130.6 139.6 142.6 143.7 145.1 145.6 146.1 147 146.8 146.5 146.6 147 148.3 147.7 148.6 149.5 147.8 150.5 151.6 153.2 157.1 162.7 166.7 169.7 172.6 176.9 180.7 184 187.6 190.3 191 192.1 192.4 189.8 188.7 188.4 186.7 189.8 189.4 191.1 189.9 192.1 193.4 198.8 198.9 200.6 200.9 199.2 201 205.8 209.5 215.4 215.8 216.6 219.5 220.5 222.9 220.9 218.4 220.7
226.3 226.4 226.6 228 229.3 230.3 229.9 228.1 227.6 226.5 225.9 225.7 224.6 223.2 221 220.9 223.2 229.8 231.8 230 226.2 225 224 224.3 224.5 223.8 223.3 222.7 222.4 220.3 218 214.8 213.7 211 208.3 203 203.4 202.5 201.9 202.2 202.8 203.7 203.9 204.1 204.1 203.3 201.9 200.5 198.6 196.8 194 190.5 186.8 182.3 177.2 171.1 175.1 177.7 180.3 182.1 183.9 185.7 186 185.6 185.7 186 186.3 186.1 185 184.7 184 183.4 182.2 181.1 179.8 178.7 178.6 177.5 176.6 175.8 175.2 174 172.5 171.6 170.3 169.8 168.3 166.7 165.8 164.2 163.3 161.7 159.9 157.7 155.3 153.8 151.5 149.7 147.8 145.6 143.2 140.6 137.9 135.6 133.9 131.7 129.8 128.2 126.6 124.5 122.6 120.9 119.7 116.9 121.8 114.1 113.5 112.4 112.1 110.5 109.2 109.9 114.9 119.1 122.1 126.6 129.7 132.2 132.3 133.5 134.4 135.6 137.1 137.6 138.7 140.3 141.8 143.8 144.7 144.3 139 142.5 145 146.1 146.5 147 147.7 147.9 147.7 147.4 147.4 147.7 148.6 149.4 149.4 150 151.1 151.9 152.6 154.3 156 160.9 166.1 171.3 175.9 181.2 186.2 190 193.2 195.3 195.6 196 195.2 196.7 195.1 196.4 193.4 194.5 195.5 197.5 196.2 196.5 200.1 203.4 207.3 208.4 210.2 207.7 216.3 226.6 231.7 236.8 239.2 240.3 241.1 242.9 245.7 244.5 241.7 237.5
224.6 223.5 223.5 225.3 225.5 225.7 225.4 223.7 221.8 219.8 220.2 219.5 218.4 216.9 215.5 214.9 219.2 226 227.2 227.5 225.1 222.9 221.5 220.1 219.9 219.3 217.9 217.8 217.6 217 216.1 213.5 211.1 209.3 206.9 204.1 199.3 198.8 198.1 197.4 197.5 198.1 199 199 198.7 197.9 196.8 195.9 194.9 192.8 190.8 188.1 185.1 182 178 173.4 168.4 171.4 174.2 176.4 178.7 180.3 180.8 181.1 181.6 182.5 182.9 183.4 183.7 182.5 182.9 182.6 181.7 180.5 179.1 177.9 177.4 177.1 176.7 175.9 174.7 173.1 171.5 169.9 169.4 168.8 167.4 166.1 165 163.8 162 160.6 159.3 157.4 154.4 153.8 151.9 150.1 147.9 145.4 143.1 141.3 139.6 137.3 134.8 133.1 131.3 129.4 128 126.1 124 121.5 120.4 123 116.4 113.6 113.4 113 112.5 113.9 110.5 112.7 114.4 118.3 122.8 127.5 129.8 131 131.8 133.5 135.9 137.5 139 140.3 141.5 143.8 146.2 147.8 148 147 133.5 144.9 146.1 147 147.7 148.4 148.4 148.8 148.6 148.4 148.3 148.5 149.6 150.5 150.9 151.4 151.7 153.4 155.4 155.3 157.1 160.7 166.9 173.4 178.6 185.4 190.7 194.2 196.1 197.4 197.9 198.6 199.5 200.2 199.7 200.7 195.9 198.3 199.1 201.8 202.8 207 205.7 213 217.6 218 222.1 228 238 246.9 255.9 260.4 264.3 266.4 266.8 265.3 271.8 271.8 268.6 257.1
222.3 220.3 220.6 222 222.4 221.3 220.6 220 218.7 217.4 213.5 214.3 213.3 212.2 210.8 210.2 214 219 221.9 222.3 222.3 221.8 220.3 217.3 216 215.3 214.1 213.2 212.7 212.5 212.3 211.6 209.1 207.6 205.6 203.2 200.2 195.7 195.2 194 193.6 193.8 195 194.5 194.1 193.6 193.1 192.1 190.8 189.1 187.2 185.2 182.5 180 177.3 173.8 170.2 166.8 168.7 171.4 173 174.6 176.1 177.1 177.7 178.9 179.4 180.1 181 181 181.7 181.3 181.2 180.3 179.1 177.8 176.8 175.4 174.7 173.8 172.9 171.5 169.8 168 167.7 167.2 166.3 164.9 163.6 162.1 161.2 159 158.5 156.4 152.8 153.6 152.2 150 147.9 145.5 143.7 141.5 139.8 137.8 136.2 134.8 133.3 131.6 129.7 128 126 123.6 124 119.4 116.5 114.4 114.1 113.8 113.4 113.8 111.4 114.7 115.9 119.6 124.6 128.8 130.2 130.7 131.7 134 137.3 138.9 140.9 143.3 144.8 146.9 148.7 149.1 148.5 147.4 145.6 135.9 146.4 147.5 148.6 149.1 149.1 149.4 149.6 149.4 149.8 150.3 150.4 151 152 153 153.6 154.9 156.1 155.2 158.2 161.2 165 172.9 179.6 186.4 191.3 194.5 196.4 198.3 199.8 200.8 202.1 203.1 203.7 203.8 200.2 202.1 204.6 207.1 209.8 209.2 211.6 216.1 225.6 228.1 242.1 241.8 255 268.5 281.8 288.7 291 294.2 296.7 298.1 298.2 300.3 295 287.1
218.6 217.9 217.2 218.2 219.2 218 217.2 216.6 214.7 212.9 211 208.6 209.1 207.6 205.8 204.8 207.9 211.6 214.5 216.9 218.3 219.3 218.9 216.9 213.3 211.5 211 210.2 209.5 208.2 207.7 207.4 205 205.3 203.7 201.8 199.1 195.8 191.6 191.5 190.8 190.7 191.4 192.1 191.7 190.5 189.3 188.8 187.4 185.6 184.2 182.4 180.4 177.5 175 173.1 169.1 163.5 163.6 166 167.2 169.2 171.3 173.3 174 174.8 176.6 177.4 177.5 178.6 178.9 179.1 179.5 179.2 178.5 177.7 176.5 175.2 173.4 172.5 171.3 169.7 168 166 165.8 165.2 164.3 163.2 161.8 160.9 159.7 158.3 157.4 154.8 153.2 153 151.4 149.7 147.3 145.4 143.6 141.6 139.6 137.6 136.1 134.9 133.6 132.1 130.4 128.8 127.6 125.5 122.8 119.5 117.2 115 115 115 114.6 114 112.8 117.2 117.8 120.7 126.3 129 130.9 131 132.6 135.5 139 141.1 143.3 145.6 148 149.4 150.1 149.5 148.6 148.2 146.5 144.2 142.3 146.8 148.9 150.3 150.6 151.2 151.1 151.2 152.1 151.9 152.2 152.6 153 153.9 155.8 156.8 157.9 157.7 158.5 162.3 168.9 174.3 177.3 185.3 188.8 190.2 191.5 196.3 199.6 202.1 203.9 205.3 206.4 205.9 203.5 206.9 210.9 210.5 215.4 215.4 216.5 222.3 231.4 244 255.2 258.9 271.7 290.2 304.8 315.5 321.5 322.8 323.9 327 323.7 335.1 333.3 313
214.3 214.1 214.1 215 215.3 215.3 214.6 213.4 212.1 210.8 209.2 207.1 204 203.1 201.8 201.4 203.1 204.8 207.7 209.4 211.7 213.9 215.2 214.2 212.7 209.8 207.9 207.7 206.7 205.3 203.7 203.3 201.2 201.3 200.3 199 197.2 194.4 191.7 188.5 188.7 188.3 188.8 190.2 190.2 189.1 187.8 186.3 185 183.6 181.5 179.8 177.3 174.9 172.2 170.4 169 167.3 164.1 160.9 162.8 165.1 166.1 168.1 168.6 169.6 171.9 174 175.1 176.4 177.1 177.6 178.2 177.7 176.7 176.1 175.2 173.9 172.2 170.6 169.4 168 165.9 163.9 163.9 163.2 162.3 161.4 160.4 159.6 158.1 158.1 156.2 153.5 151.7 151.3 149.5 148.5 146.3 144.8 142.8 140.6 139.7 137.6 136.1 134.9 133.1 131.7 130.2 129.3 127.6 126.2 123 119.7 117.7 115.7 115.5 115.8 115.9 115.6 113.7 118.4 119.3 121.8 127.7 130.6 132.4 132.7 134.2 137.6 140.6 143.1 145.9 148.3 150.1 151.1 150.9 150.6 149.4 148 147.5 142.9 145.6 147 148.9 151.1 153.3 154.3 154.8 155.2 155.6 155.5 155.5 155.8 155.9 156.2 157.3 158.6 159.9 161 160.1 165.2 172 176.1 178.8 187.9 194.7 197.4 199.6 200.8 202.7 203.7 205.2 207.8 208.9 209.2 209.6 213.1 214.5 215.1 219.9 222.6 224.7 233.7 240 257.5 265.6 276.4 291.3 309.5 329.6 349.9 354.5 362.8 370.6 370.2 358.5 378.7 366.6 345.5
211.2 209.8 210.4 211.8 211.6 211.7 211.7 210.9 210.4 208.9 207.3 205.7 203.6 200.8 198.8 197.4 198.5 200.2 200.5 202.9 204.8 207.6 209.5 210.3 210.3 209.1 206.6 203.9 204.2 203.1 201.2 199.4 197.7 197.1 196.5 195.3 193.8 192.7 190.8 186.4 186.5 185.3 185.2 188.2 188.2 187.6 186.5 185.5 184.1 182.5 180.3 177.8 175.3 172.5 169.9 168 166.3 165.3 164.4 162 157.9 161.7 162.3 162.9 163.4 164.4 167.2 170 171 173.3 175.3 176.3 176.3 175.2 174 173.2 172.3 171.2 169.1 167.9 167 165.3 162.7 162 162.2 161.2 159.7 159 158.3 157 156 156.1 157.4 151.9 150.3 149.4 146.6 146.2 145.2 143.5 142.4 140.2 139.6 137.9 136.8 135 133.1 131.2 130.2 128.2 126.6 125.4 122.9 120.2 118.2 116.2 115.6 116 116.5 117.2 115 118.4 120.2 123 128.4 131.3 132.6 134.3 136.1 139.9 142.1 145.4 148.3 150.4 151.5 152.2 152.1 151.8 150 148.6 147.9 140.9 147.4 149.2 151.3 154.2 157 158 158.3 158.2 158.7 158.7 158.8 158.9 159.3 159.4 159.9 160.5 161.2 162.7 163.7 166.6 175.1 177.1 179.3 193.4 196.5 199.6 202.4 204.6 207.4 206.7 206.8 209.5 213.1 214.7 212.1 215 217.2 220.1 225.6 231.6 239.5 243.1 254.5 264 282.6 291.5 306.3 327.6 353.4 386.4 392.4 395.3 403 404.1 401.3 403.7 403.5 385.8
211.2 208.9 206.9 207.2 208.2 208.1 208.6 209.1 208.8 207.3 205.7 204 202.5 200.4 197.4 194.3 193.9 195.1 196.6 198.9 199.5 200.9 202.9 204.1 204.9 205.4 204.9 202.6 199.2 199.8 198.5 196.2 194.1 192.3 191.7 190.3 190.1 190.6 189.3 183.3 184.3 183.3 182.2 183.7 185.3 184.9 185 184.3 182.9 181.5 179.7 177.3 175.2 171.6 168.4 166.3 164.6 162.7 161.7 161 158.4 158.9 159.5 159.1 159.9 160.9 162.2 164.4 166.5 168.7 171 172 172.3 172.1 171.4 170.3 169.3 167.2 165.6 164.8 164.6 163.4 160.8 160.2 160.2 159.1 157.8 156.6 155.1 154.3 154 153.7 152.6 150.5 148.9 147.4 145 144.8 142.7 141.8 141.2 139.1 138.3 137 135.4 135.1 133.1 128.9 129.7 127.2 125.6 124 122 120.7 118.9 117 116 116.1 116.8 115.7 115.2 117.8 120.1 123.9 127.6 131.3 133.1 134.6 137.5 142.3 145.1 146.8 150.1 151.7 153 153.3 153.3 152.3 150.9 149.3 143.6 142.9 149.3 151.6 154.4 156.6 160 161 160.9 161.1 161.5 161.5 161.6 162.1 162.7 162.7 163 164.1 165.3 166.2 167.1 167.2 173 177 180.1 190.7 194.7 200 202.9 207.2 210.6 211.8 212.1 213.8 216.9 218 216.2 217.7 222.2 228.8 231.1 239 246.8 254.9 268.3 283.2 303.1 312.9 323.6 351.3 377.7 396 407.1 408.6 409.2 409 408.8 406.8 404.3 402.3
209.5 208.2 206.3 204.8 204.3 204.7 205.3 205.8 206.1 205.5 203.9 202.1 201.2 198.9 197.4 195 191 191 192.6 197.1 198.3 197.5 197.1 197.9 199.4 199.7 200.5 200.5 196.5 195.8 195.7 193.2 191.6 188.3 186.9 185.3 185.7 186.5 185.2 179.8 182.2 180.8 179.4 179.4 180.7 180.9 181.5 181.9 181.1 179.8 179.1 178.1 175.3 172.1 168.8 165.8 163.6 161.5 159.4 158.3 157.6 156.3 157.2 156.8 156.9 157.2 158.2 159.5 161.2 162.5 163.5 166.3 167 167.7 167.4 166.9 166.2 164.1 162.8 162.5 162.5 161.9 160.7 158.9 158.4 156.7 155.5 153.9 152.8 151.4 151.7 150.9 151.2 149 147.3 145.3 144.3 142.4 140.8 138.6 138.8 137.6 136.7 135.5 133.7 133.5 129.6 129.5 128.5 126.3 125.5 123.7 120.9 119.8 118.9 117.2 116.1 115.9 115.4 115.7 116.5 117.9 120.5 123.9 128 131.1 133.2 134.6 138.3 143.8 146.7 149.1 151.4 153 153.9 153.8 154 152.9 151.6 150.5 147.9 146 150.5 153.4 156.9 159.6 161.5 162.6 163.7 163.9 164.3 164.3 164.6 165.2 165.7 165.5 166.6 168.3 170.5 172.7 175.5 178.3 177.9 179 183.3 189.3 192.4 197.8 203.8 207.2 211.2 216 218.1 216.4 218.1 221.4 220.2 220 229.2 233.8 240.5 246.5 257 266 280.2 301.2 320.3 332.9 341.7 356.6 385.9 405.3 411.1 411.7 408.5 407.9 407 405.6 404.6 402
206.1 206.6 206 204.3 203.9 203.3 203.3 203.2 202.7 203 201.8 200.3 199.3 198 195.7 194.8 191.9 186.9 188 189.2 193.3 194.4 193.2 192.9 193.5 194.3 194.7 195.3 194.3 189.4 191.4 190.3 189.5 186.1 183.4 181.7 181.2 180.4 178.2 177.5 179.4 178.7 175.6 177 176.9 178.3 178.8 179.1 178.9 178.7 178.3 177.8 175.4 172.3 169.2 166.1 163 160.9 159 157.1 155.2 154.4 155.4 155.1 154.8 154.9 155.1 156.3 157 158 159.7 162 162.4 162.7 163.3 163 162.1 161.2 161 161 160.7 160.2 157.8 157.7 156.3 154.8 153.4 152 150.7 149.5 149.1 149.2 149 145.9 145.1 143.1 141.8 140.3 138.5 135.8 135.5 135.1 133.7 133.1 132.1 129.8 128.8 127.2 126.9 124.4 123.8 122 119.3 118.4 116.6 115.3 116.2 114.7 114.7 115.8 117 118.4 120.2 123.2 126.8 130.7 132.3 135 139.5 144.6 148.2 150.5 152.8 154.2 154.7 155.1 154.4 153.4 152.2 151 150.3 145.3 150.8 154.6 158 161.6 163.3 165.1 165.9 166.9 167.2 167.1 167.7 168 168.3 169.3 171.3 174.1 179.5 183.5 184.2 181.3 188 187 192.3 193.3 194.9 195.9 202.3 203.6 208.7 218.7 222.6 222.7 219.6 226.5 231.8 225.7 233.6 240.2 248.4 255.1 266.9 280.5 296.4 316 340.5 367.2 375.1 389 401 410.7 423.3 420.6 411.2 407.6 406.7 405.8 405.7 406.8
203.1 203.6 204.4 205.7 203.6 201.5 199.9 200.7 200.6 200.3 199.5 198.4 196.8 195.7 194.5 193.3 191.8 188.7 184.5 185.1 186.4 188.9 190.8 190.2 190.1 189.5 189.8 190.3 189.9 187.2 188.2 187.3 185.4 183.3 180.7 179.2 178 176.5 174.6 174.5 175.1 175.3 174 174.9 174.6 175.7 175.4 175.3 176.2 176.2 176.1 175.7 174.6 172.5 169.5 166.5 163.7 161.3 159 157.2 155.4 152.5 152.8 152.7 152.7 152.7 153.1 153.9 154.7 155.6 159.3 161.5 163 161.9 161.2 161 160.9 160.5 159.7 159.9 158.7 157.6 156.5 156.2 154.9 153.6 151.9 150.3 149.1 147.9 147.1 150 144.9 144.2 142.9 140.3 138.6 137.5 136.3 133.9 133.7 132.8 131.3 130.2 129.3 127.4 126.7 125.9 124.5 122.1 121.4 119.7 117.5 116.9 115.1 114.5 115.5 114.9 116.4 116 117.4 119 120.4 122.6 125.1 129.3 132.5 135.9 141.1 146.4 150.9 152.7 154.7 155.5 156.1 155.8 155.5 154.9 153.6 152.3 152 149.4 150.2 154.4 157.9 161.7 164.3 166.5 167.7 168.7 169.8 170 170.2 170.5 170.7 172.7 176.1 182.2 184.9 188.2 190.2 191.7 194.8 192.1 198.2 201 200.3 201.5 200.5 201.5 214.4 220.5 223.8 225.4 223.5 225.8 232.7 236.2 238.9 247 254.2 266.6 278.8 295.2 313.2 329.3 354.3 388.5 405.9 408.1 418.5 424.1 427.6 426.7 424.7 423.3 409.6 408 407 406.4
197.9 200.2 202.2 203 202.9 202 199.6 198.8 199.4 198.5 198.1 196.7 195.1 193.6 192.6 191.6 190.1 188.5 186.5 182.8 180.8 181.8 184.3 186.7 187.2 187.1 186.1 185.8 185.4 183.6 184.1 184 181.9 179.8 178.1 176.3 176 174.7 172.7 171.3 171.9 171.6 171.2 172.2 172.3 173.5 173 173.2 173.4 173 172.8 172.6 172 171.6 170.4 167.5 165.2 162.5 159.2 157 155.3 152.6 151.1 150.6 150 151.4 152.4 153.4 153.8 154.8 157.6 160.6 161.4 162.1 161.3 161.1 160.5 159.9 158.9 157.8 157.3 154.9 153.8 154.7 153.3 152 150.5 148.9 147.6 146.6 147.2 146.8 143.6 141.5 139 138.9 137.1 135.5 134.2 132.1 130.3 130.6 129.7 127.7 126.4 124.8 123.7 122.7 121.5 119.8 117.7 117.4 116.6 115.8 116 116 116.4 117.2 116.7 116.5 117.5 118.1 119 121.1 124 129.5 133.7 138.7 143.6 148.9 153.1 156.3 156.9 157.6 157.2 157 156.7 156 155 153.9 153.4 152.7 148.4 152.3 157 161.1 164.2 166.8 168.6 170.2 171.4 172 172.5 173.1 174.4 177.5 184.4 188.9 190.5 193.6 194.9 197.7 195.3 201.1 198.5 205.4 205 206.3 207 204.7 211 218.1 225.6 224.2 229.8 235.6 235.4 239.8 244.3 257.7 262.3 276 290.4 309.7 331.3 355.6 381.5 412.7 424.8 437.5 441.9 440.9 436.7 434.1 431.1 431.1 431.4 411.2 407.5 408.1
192.3 195.5 197.7 199.2 199.3 199.7 199.4 193.8 197.8 196.9 196.4 195.7 194.4 192.7 191.1 189.5 189.1 187.3 185.8 184 181.4 176.5 178.6 180.5 182.6 184.2 183.7 182.3 181.5 180.3 179.9 179.8 179.1 177.6 175.7 173.8 173.3 173.1 171.9 169.9 169.2 169.4 169 171.5 172.2 171 170.5 171.4 171.1 171.4 169.9 169.4 168.7 168.4 168.6 167.7 166.3 163.3 160.3 157.8 156.1 154.5 150.4 149 148 150.7 151.9 153.4 154.3 155.1 157 157.8 158.5 159.8 160.2 159.8 159.4 158.8 158 157 156.3 155 152.2 152.7 151.9 150.3 148.9 147.7 146.8 145.8 148 143.7 142.3 141 138.3 136.4 135.4 133.9 132.4 130.3 129.6 129.5 126.7 125.2 124.3 122.5 121.1 120 118.9 117.6 116.4 116.7 116 116.4 117.1 116.8 117.2 117.4 117.1 116.8 118.2 118.4 118.6 120.8 124.7 130.4 135.9 142.5 147.3 152 155.4 157.6 158.4 158.8 158.4 158.1 157.8 157.2 156.4 155.6 154.9 154.6 154 149.2 155 159.8 163.8 166.5 168.3 170.3 172.3 173.3 174.6 175.9 178.3 182.3 189.4 193.1 194.9 197.7 199.6 202 201.7 205 206.5 204.7 212.7 212.9 214 212.8 213.3 214.8 219.2 223 231 238.9 243.1 245.3 251.5 262.8 272 285.3 304.7 326.3 348.5 379.1 414.2 429.4 436.2 445.6 455.4 461 460.6 455.5 451.4 444.4 437.5 421.6 409.8 406.3
185.8 188.8 191.1 193.5 195.6 196.4 196.6 184.5 196.1 195 194.8 194.1 193.1 192.1 190.4 188.7 187.9 186 184.3 183.2 181.4 179.1 175 175 176.7 178.7 180.7 180.3 179 177.7 177.5 176.9 175.9 174.5 173.1 171.5 170.5 170.8 171.2 170 166.4 167.3 168.2 171 170.8 169.8 169.7 170 169.9 168.8 167.8 166.5 165.5 165.2 165.2 165 164.4 162.3 160.4 158.7 156.6 154.9 153.4 149.7 146.9 150.4 151.1 152.9 153.8 154.3 155.6 155.5 155.5 156.6 157.4 157.6 157.3 157.2 157 155.7 155.1 154.2 151.7 150.5 150.6 149.2 147.9 146.1 145.8 147.3 143.3 142.4 141 139.8 138.1 136 133.7 132.4 131.1 129.9 129.5 127.7 125.9 124.5 123.2 122.3 121 119.8 118.6 117.7 117.1 117.8 118.1 117.7 117 117.1 118.3 117.8 117.5 117.2 117.8 117.9 119.9 124 128.1 135.4 142.3 146.9 150.9 155 156.7 157.6 158.7 159.2 159.8 159.2 158.8 158.1 157.5 157.3 156.7 156.2 154.9 153.7 152.6 158.9 163.1 165.9 168.3 170.2 172.8 174.5 176.7 178.7 182.4 187 193.2 196.4 198.7 201.4 203.5 205.6 207.5 205.7 209.1 213.4 215.1 217.8 219.6 216.2 217 218.8 220.9 224.7 230.5 237.8 245.1 251.2 259.6 269.2 284.9 306.2 325.8 345.6 376.9 405.5 429.7 435.3 444.4 456.2 472.4 485.9 489.3 486.7 478.7 467.1 455.2 434.4 417.1 408.2
184.7 181.6 183.5 185.5 188 190.9 193.1 184.9 193.8 193.2 193.6 192.3 191.5 190.7 189.6 188.5 186.6 184.9 182.7 181.3 179.8 178.1 176.5 170.9 171.7 173 175.1 177.2 176.9 176 170.9 174.8 173.1 171.6 170.2 169.9 169.4 168.8 169.6 169.5 168.1 164.8 165.6 168.8 169.2 168.7 168.7 168.2 167.7 167.4 166.4 164.9 164 162.9 162 162 160.9 160 160.1 158.2 156.2 154.7 152.8 152.7 151.4 146.1 150.3 151.6 152.8 153.2 153.9 154.6 153.8 154.5 154.6 154.9 155.3 155.3 155.2 154 154 153.2 150.5 149.2 149.4 148 146.5 145.6 144.4 146.5 142.4 140.8 139.7 138.2 136.4 134.5 133.2 131.6 130.3 129.7 128.6 127.3 125.6 124 122.7 122.1 121.5 120 118.5 117.8 117.5 119 118.7 118 117.4 117.7 118.4 118.4 118 117.5 118.2 119.7 123.6 128.5 134.7 140.1 145.9 149.6 153.6 157.1 158.1 158.4 159.4 159.7 160.4 159.9 159.4 159.3 158.8 158.4 158.2 158.1 158.2 158 157 153.8 162.7 165 167.3 169.3 172.5 175.1 177.6 181.1 184.1 189.7 195.6 198.8 201 203.7 205.4 208.2 210.2 213.6 214.4 215.8 216.3 218 222.6 222.7 221.1 224 225.1 230.6 234.7 239.7 247.9 256.4 264.8 279.7 298.4 320.6 347.3 378.3 403.5 425.2 434.1 436.4 445.4 461.2 480.4 492.7 500.5 500.1 496.5 489.6 473.6 446.1 430.1 413
181.1 179.8 179.5 178.7 176.5 180.2 181.8 179.5 187.2 190.4 190.8 191 189.5 188.8 188.1 187.3 184.1 184.2 182.3 178.7 177.7 176.6 175.1 172.9 168.2 168.1 170 171.5 173.7 174.6 171.4 172.5 172.4 170.6 169 167.7 167 166.2 166.8 167 166.9 164.3 164 166.1 166.4 167.7 167.8 167.2 166.9 167 166.5 165 162.7 161.4 159.4 158.6 157.8 158.4 157 155.5 154.7 153.7 152.6 152.2 148.5 145.4 151 150.3 151.7 152.2 153 153.5 152.5 152.7 153.1 153 153 153.3 153.1 153 152.6 151.9 148.1 148.2 148 147.3 146.2 145 144.3 140.8 140.2 139.3 137.1 136.2 135.3 133.3 131.9 131.2 129.7 127.7 128.3 128 126.4 123.7 122.3 121.8 121 120.4 119.5 119.6 119.1 119.8 118.6 118.2 117.9 118.5 118.5 118.9 118.3 118.4 119.6 123.3 128.8 133.8 140.3 144.5 149.1 153.1 156.1 158.1 158.4 159.2 160.1 160.7 161.1 161 160.4 160.4 160 160.2 160.3 160.2 160.7 161.1 161 161.7 159.2 161.4 159.3 164.2 171.8 174.6 177.3 181.1 185.1 191.4 196.2 199.7 202.9 205.3 207.7 210.9 213 215.1 217.9 218.7 219.9 219.4 222.7 228 228.1 226 234.5 233.9 240.7 248 255.2 265.6 273.9 292.8 308.1 332.1 365.5 403.2 430.3 437.8 433.4 433.2 444.4 460.3 483.5 492.8 506.8 509.5 510.2 500.5 482.2 457.3 430.2 416.8
180.5 180.6 178.5 176.8 177.8 176.5 174.6 174.7 177.3 178.7 183.4 187.1 185.8 184.5 183.9 184.3 181.2 182.8 181 179 175.1 172.6 172.6 172.2 170.3 166.2 163.6 164.3 168.6 170 166.1 171.8 171.2 169.6 168.8 167.4 165.7 164.4 164.3 164.7 165.3 163.2 162 163.7 164.8 165.1 165.5 165.5 165.4 166.1 165.9 164.8 163.3 160.8 159.2 156.9 156.2 156.6 155.4 153.9 152.7 150.9 150.6 150.2 145.6 148.6 149.7 149.5 150.4 150.2 150.4 150.8 150.5 150.8 151.3 151.5 151.3 151.3 150.9 150.9 150.4 149.2 146.3 146 145.4 145.3 144.6 143.7 141.7 139.6 138.2 136.5 135.2 134.2 133.4 132.4 131.3 130.1 128.6 129.5 126.1 126.4 124.9 122.9 121.8 120.9 120.1 119.2 119.7 119.5 119.6 120.1 119.3 118.5 119 119.4 119.4 119.6 119.1 119 121.6 126.4 132.3 139 145.1 149.5 152 155 156.9 158.7 158.1 159.1 160.1 160.8 161.1 161.1 160.9 161.5 161.1 161.3 161.6 162.9 163.7 164 164 165 165.3 165.1 167.7 169.5 163.4 164.8 170.2 177.1 183.3 187.9 192.5 197.5 203.6 206.6 206.6 211.7 214.6 218.5 220.8 222.4 223.8 223.1 223.2 224.4 233.3 236.5 236.8 243.6 245.2 249.2 262 273.4 290.2 307.8 326.2 352.6 384 415.7 432.7 437 432.1 426.7 437.9 454 477.3 496.4 504.5 517.8 519.6 513.3 493.5 466 435.8 416.5
182.2 180.1 179 177.5 180 179.6 179.4 176.1 172.6 171.8 171.4 171.4 171.5 170.1 170.3 171.4 175.1 178.2 177.5 176.2 174.1 171.6 167.6 169.4 166.4 157.3 155 154.8 160.3 163.1 163.8 167.5 168.9 167.9 168 167.6 166.7 165.1 162.8 162.1 162.6 161 160.3 162.2 162.2 162.5 162.8 162.8 163.1 164.1 164.5 163.3 162.2 160.4 158.8 156.7 154.9 154.9 153.8 152.5 151.3 149.7 148.5 148.1 144.3 144.9 147.2 146.8 147.7 147.3 147.8 147.6 147.9 148.3 148.5 149.5 149.4 149.7 149.5 149.3 148.3 146.9 144.5 143.7 143.3 143.3 143.1 141.4 139.4 137.6 136.5 135 133.7 132.4 131.4 131.4 131 129.3 127.4 126.4 125.2 124 122.9 122 121.4 120.3 119.4 118.7 118.9 119.2 119.4 119.4 119.7 119.3 119.9 120.3 120.6 120.7 120.4 120.6 122.7 127.6 134.5 140.5 145.5 151 153.2 155.2 156.8 157.5 158.3 159.1 160.1 160.8 160.9 161.1 161.4 162 162.2 162.6 163.6 165.2 166.5 166.8 167 167.3 167.8 168.2 168.6 171.6 173.1 176 178.7 179 170.8 178.8 189.6 187.4 198.6 204.9 202.7 210.2 216.3 220.8 222.8 225.5 227 228 227.7 227.6 237.6 241.8 239.4 244.9 250.3 255.6 267.5 282.5 296.8 317.5 341.4 370.8 404 422.3 435.8 435 430.2 423.4 429.6 445.3 463.3 485.6 492.5 498 511.4 512.9 499.1 476.6 446.6 419.8
177.6 175.9 175.3 175.6 176.1 179.2 178.5 178 179.6 176.4 177.5 170.1 170.7 170.7 168.7 166.9 166 164.6 166.3 166 163 160.6 160.4 162.5 159.6 158.6 163 163.2 152.7 160.4 161.5 163.4 164.1 164.2 166.3 167 166.4 166 164.6 161.8 158.5 158.6 157.9 160 160.4 159.9 159.9 159.6 160.3 160.5 160.8 161.3 160.7 159.2 157.7 156.8 154.9 153.4 152.7 151.6 150.1 149.2 148.3 147.2 144.6 141.7 144.4 145.5 144.4 144.5 144.5 144.8 144.6 144.7 145.7 146 146.1 147.3 147.8 147.6 146.5 144.9 142.7 141.6 142.4 142.2 140.7 139.3 137.6 135.9 134.9 133.5 133.1 131.4 131.2 129.6 128.6 128.3 127.4 124.8 124.1 122.9 122.2 120.6 119.8 119.6 119.1 118.5 118.9 119.4 119.5 119.4 118.9 119.4 120.4 121 120.8 121.2 122.4 122.8 124.7 128.6 135.1 140.6 145.4 149.2 151.5 154.2 155.7 156.5 157.4 158.7 159.4 160.2 160.9 161.6 162 162.8 163.6 164.3 165 166.7 168.6 169.8 170.2 170.3 170.3 170.7 171.4 172.5 175.5 178.1 182.2 187.1 192.3 189.5 183.4 174.3 200.5 206.1 208.3 214.2 213.1 217.3 222.1 221.5 226.3 230.5 232.7 235.7 235.3 241.2 244.8 248 257.8 261.5 274.2 289.6 306.5 327.5 353.1 384.7 412.9 425.3 433.1 431.5 428.5 424.1 422.3 434.8 446.9 464.5 477.7 481.3 492.9 498.6 492.6 469.2 451.5 426.1
176.5 177 176.3 176 175.4 175.7 176.4 175.4 175.4 175.6 177.4 177.5 177.9 178.9 177.4 176.7 176.5 173.6 172.1 174 174.5 171.1 168.2 164.7 165.3 165.3 165 164.9 152.8 158.5 161.1 160.7 158.6 158 161.8 164.5 165.6 165.7 164.9 162.9 159.5 155.9 156.6 158.3 157.9 157.4 157.1 156.3 156.2 157.4 157.6 157.8 158.3 158 157.1 156.9 154.7 153 152.7 151.9 149.4 148.7 148.2 146.6 144.6 141 140.6 142 142.1 142 140.1 140.9 141.6 141.1 142.1 142.6 143.2 144.2 144.8 145.1 144.6 143 140.5 140.5 140.8 140.7 139.6 137.5 137.2 133.8 133.3 132.1 130.9 131.2 129.4 128.5 126.8 125.4 125.2 123.7 122.8 121.8 120.5 120 118.7 119.1 118.9 118.4 118.7 119 120 119.6 119.4 120 120.8 121.6 121.8 121.9 123.6 124.4 126.4 130.5 135.9 140 144.4 147.4 150 152.6 153.9 155.7 157 158.1 158.8 159.5 160.7 162.1 163.8 164.5 165.3 166.2 167.6 169 170.7 171.9 173.3 173.4 173.4 173.7 174.5 175.1 177.1 179.9 184.1 190.2 195.8 198.7 201.3 202.5 177.5 199.5 209.7 212.1 216.7 220.8 223 225 227.4 231.6 236.4 242.1 239.1 242.1 250.1 254.2 261.5 273.9 291.2 309.1 324.3 347.6 374.3 399.3 413.5 420.8 425.2 429.3 427.2 423.6 415.9 420.5 431.7 443.8 452 460.3 470.2 478.7 477.7 466.3 437 428.7
176.5 176.7 177.2 177.4 175.7 174.8 174.7 173.5 174.8 175.6 176.3 176.2 176.6 176.7 177.1 177.4 175.3 173.8 173.4 173.1 172.3 171.6 169.2 168.3 166.9 165.7 165.5 165 163.6 151 158 158.6 158.2 154 154.7 158.5 161 162.1 162.2 162.8 160.2 156.8 156.8 156.5 156.2 155.5 154.8 154.2 154 154.2 154.4 154.6 154.7 154.8 153.9 154.9 153.9 152.9 150.6 151.2 149.5 147.9 148.6 147.2 145 143.7 141.9 139.4 138.9 140 139 138.8 138.3 138.6 138.6 139.1 140.2 141.1 141.7 142 142.1 140 137.3 138.4 139.7 139 137.5 135.5 136.1 131.9 130.5 131.6 131.3 129.5 128.5 127.9 126.3 125.2 124.3 123.1 122.2 121.3 120.6 119.9 118.5 118.5 118.4 118.2 118.5 118.9 119.5 119.5 120.3 121.8 123 122.1 122.5 123.6 125.7 127.6 129.8 132.1 136.9 139.1 143.4 146.1 149.5 151.7 153.1 154.9 156.7 157.8 159 160.2 161.6 163.6 165.6 166.7 167.5 169.4 170.6 171.7 172.8 174 174.9 175.6 176.4 177.1 177.1 177.7 179 181.3 185.7 191.7 197.6 201 204.1 206 205.6 181.5 208.5 211.3 213.3 220.9 224.4 227.6 231.5 233.5 236.4 242 242.9 245.8 251.4 259.3 272.1 293.2 311.8 330.4 347.7 372.4 390.1 400 408.3 416.5 419.5 424.9 426 422.2 413.2 409.5 416.3 427.2 433 437.2 442.7 447.9 448.2 439.8 430.6 423.4
174 176.8 177.4 176.8 175.4 176 175.4 172.4 171.3 171.7 175.2 175.4 175.6 175.8 176.2 175.3 175 174 174.1 173.4 171.6 170.8 167.7 167.2 166.8 163.8 162.8 160.2 159.3 154.6 150.1 152.3 153.6 152.5 153.4 152.4 155.4 157.8 159.4 160 160.1 158.4 154.8 156.6 155.2 153.8 153.1 152.5 152.1 152.4 152.5 151.9 151.7 151.4 150.8 152.2 151.4 150.3 149.2 149.9 148.8 147.3 148.1 147.5 145.7 144.9 142.8 141.7 138.9 136.9 137 136.3 135.6 135.5 135.4 136.2 136.7 137.6 137.9 138.7 139.2 140.5 140 137.9 142.3 140.4 135.8 133.1 130.8 133.2 132.7 128.4 129.2 128 127.5 126 125 124.3 123.4 122.5 121.9 120.7 120 119.5 119.4 118.5 118.7 119 118.9 118.8 119.8 120.3 121.1 123.2 123.7 123.3 123.4 125.3 127.6 129.3 131.5 133.6 136.5 137.2 142.4 145.5 146.8 150.3 153.2 155.3 157 158.5 159.7 161.1 163.1 165.1 167.1 169 171.2 172.6 173.7 174.6 175.4 176.3 176.5 177.2 178 179 179.1 180.3 181.4 183.1 186.4 191.5 197.8 202.4 205.7 207.5 208.6 191.7 187.3 213 214.5 213.3 213.2 218.6 222.8 227.6 229.9 236.1 242.3 248.5 254.3 264.2 278.3 301.6 321.3 352.7 374.4 388.7 398.9 404.5 411.1 413.7 415.2 414.9 410.8 409.6 405.9 405.7 403.2 408.7 417.8 418.1 414.8 417 415.9 412 410.2 407
171.7 173.4 174.9 175.5 175.2 173.6 172.1 170.2 169.3 169.7 169.5 170.7 173.7 173.5 174.7 174.3 173.5 173.3 173.6 173.1 172.2 170.1 167.1 165.2 164.7 163 160.6 154.8 153.4 151.4 149.2 148.4 148.9 147 146.7 147.5 151.3 154.9 156.6 157 157.9 157.7 154.2 156 154.9 153.1 151.6 151 150.3 150.3 149.4 149 148.7 148.1 147.8 148.1 147.5 147.6 146.3 145.9 147.9 147.1 146.7 146.3 145.4 144.9 142.5 142.2 141.1 139.5 135.9 134.8 134.8 133.3 132.6 132.9 133.2 133.7 134 134.5 138.6 135.7 134.9 137.1 138 138.1 136.8 136.1 128.2 131.5 129.9 127.7 127.5 126.7 125.3 124.9 124.5 123.6 122.6 121.7 121.3 120.2 119.3 118.8 118.9 119 118.8 119.3 119.6 119.6 119.6 120.5 121.9 123.1 123.8 123.9 125.5 127.3 128.9 130.7 133 135.2 138.9 137.8 143.9 146.1 147.9 150.4 153.2 155.4 157.4 159 160.5 162.6 164.7 166.8 168.9 171.7 174.2 175.7 176.2 176.6 177.3 177.9 178.5 178.8 179.6 180.6 181.9 183.3 184.7 186.1 187.7 190.2 196.7 202.1 206.1 208.2 210.2 211.3 189.3 202.9 201.2 215.5 223.3 227.9 230.4 233.3 234.8 235.7 235.3 246.4 257.7 269.1 286.8 312.1 336.5 366.9 389.5 397.4 399.4 400.3 402.5 405.2 407 410.6 413.8 411.7 401.2 398 394.1 393.2 395.8 402 403 401 401.1 399.1 396.7 397.7
170.5 169.7 170.4 172.2 172.9 171.9 169.6 169.9 169.1 168.5 168.9 169 170.3 171.5 172.5 174.2 174.3 172.5 173.5 172.7 171.6 170.5 168.5 165.4 163.1 161.3 156.3 152.8 155.1 154.2 152.7 151.9 150.1 146.9 146.1 144.2 145.9 151.6 154.3 154.9 154.9 155.1 152.5 153.9 153.7 152.5 150.6 148.8 148.6 148.8 147.7 146.7 145.8 145.2 144.1 144.4 144.5 143.6 143.8 143.2 144.8 143.2 145.4 145.5 145.3 144.9 143.7 141.3 141.9 140.6 138.8 137.7 134.8 133.6 132.9 130.9 130.9 130.3 130.6 135.8 133.7 133.5 132.7 132.9 131.7 130.2 130 127.4 128.9 127.4 126.7 125.1 126.1 125.9 124.8 124.3 123.7 122.8 121.9 121 120.3 120.1 119.8 119 119.4 119 119.1 119.3 119 119.2 120.1 120.5 121 122.9 124 124.1 125.8 128.1 129.6 132.3 134.1 136.9 140.4 142 144.3 146.1 148.1 150.7 153.2 155.6 157.7 159.8 162.2 164.6 167.2 169.3 171.8 173.3 175.3 176.6 177.5 178.4 179 179 179.6 180.2 181.5 183.4 185.8 188.3 189.9 191.2 192.8 193.4 195.9 201.5 205.6 208.5 211.3 212.2 210 187.9 191.5 196.3 209 222.7 225.8 233.1 234.6 230.1 234.2 246.8 259.4 265.1 285.5 316.1 339.6 377.1 386 386 389.5 392.2 398.1 398.2 395.5 395 399.3 404.9 406 398.8 393.5 386.6 383.7 383 387.3 387.6 389.8 389.9 391.7 387.5
175.7 171.8 168.1 168.3 170.7 169.8 167.9 168.1 166.3 166 166.1 166.2 167.1 168.8 168.9 171.4 171.9 170.8 173.5 172.4 166.8 164.6 163 160.4 160 157.9 154.9 161.9 159.7 158.4 157.4 153.6 151.9 151.1 151.7 150.8 142.8 148.2 150.2 152.1 154.1 153.7 152.5 150 151.1 150.1 149.5 148 146.5 147 146.2 145.1 143.5 143 140.7 141.5 142.7 142.1 140.2 138.8 139.5 140.1 142.4 142.9 142.9 142.9 143.3 140.9 141.6 141.7 140.2 138.8 137.6 135.5 134 131.6 130.9 130.1 132.9 132.7 131.9 130.6 127.8 126.8 126.7 126.3 125.9 126.6 125.2 124.5 123.7 123.6 123.4 123.8 123.4 123.2 123.2 122.1 121.1 120.5 120.1 119.7 120.3 119.4 119.8 119.1 118.7 119.5 119.6 119.9 120.4 120.7 121.1 122.3 123.2 124.1 125.4 126.4 129.4 131.2 135.2 137.7 140.3 142 144.1 146 148 150.7 153.1 155.8 158.5 161.5 163.9 166 168.5 171.1 173.1 174.9 176.3 177.1 177.9 178.2 178.5 179 180.6 181.6 183 186.6 189.6 192.7 195.9 198.2 199.5 200.6 200.4 202.9 205.6 208.7 211 212.5 213.8 214.2 206.8 197.7 191.7 204.4 213.8 223.4 226.6 224.4 228.4 238.1 250.4 262.3 281.2 305.6 332.2 368.8 382 378.6 373.3 370.3 370 381.8 394 391.2 384.1 382.9 382.3 391.1 388.6 382.2 374.3 372.6 370.8 373.8 379.7 382.6 383.2 384.3
173.7 174.5 172.1 168.1 166.7 167.8 167.8 164.7 164.7 163.5 164.2 164.1 163.8 167.5 167.7 168.1 168.7 167.3 166.5 165.8 167 166.4 163.2 162.8 161.3 161.7 156.9 160.1 163.1 162.8 160.9 158.6 155 152.1 150.5 150.2 143.5 143.5 145.3 148.3 150.2 150.2 150.2 145.4 143.8 143.6 142.6 142.2 142 143.9 144 143.7 141.3 140.9 138.2 140.6 140.4 139.3 138.2 137 136.3 137.1 137.9 138.7 138.9 139.3 139.4 137.9 140.2 141.3 140.6 139.5 137.9 135.9 134.2 132.7 131.5 130 130.9 131.1 127.1 127.1 126.3 125.8 125.1 124.8 124.9 123.6 123.2 122.2 122.2 122.3 122 121.8 122.1 122 122 121.8 121.2 120.4 119.8 119.7 119.6 120.4 119.6 119.4 118.4 118.8 118.9 119.6 120.5 121 121.1 122.2 123.1 123.8 126.7 128.4 131.2 131.5 132.8 135.5 139.9 142.1 143.9 145.8 148 150.2 152.5 155.5 159.1 162.4 165.5 167.6 169.9 171.7 173.5 175.2 176.4 176.8 177.1 177.4 177.7 178.2 179.8 181.6 184.3 188 193.2 198.4 201.1 203 203.8 204.9 204.2 206.3 208.5 210.2 210.9 212.9 214.5 215.8 214.8 213 208.2 197.6 197 211.8 215.4 219.3 222.6 228.8 243.3 256.4 275.5 301.3 330 366.8 373.8 372.3 368.6 362.5 357.4 358.5 363.4 370.9 376.6 377.3 368.7 371.2 373.3 373.5 373.8 365.6 364.8 364 365.4 368.7 373.7 377.2
168.4 170.8 172.1 167.5 163.3 162.7 161.9 161.9 164.7 164.2 160.4 163.6 162.9 162.8 165.2 166.5 166.3 165.8 167.2 168 170.4 171 169.6 166.7 163 162.4 161.1 163.3 165.6 164.5 163.4 161.3 158.4 156.5 153.2 150.3 147.6 142.1 141.8 143.1 144.1 144.4 143.8 142.2 138.7 138.2 137.2 136.3 136.4 137.4 135.7 135.4 134.6 133.7 132.2 135 136.9 136.3 135.8 134.6 134.9 135 134.4 134.5 134.9 135.5 136 135 136.7 137.5 137.7 137.5 136.8 135.5 134 132.7 131.6 130.4 130.6 128.5 128.1 127.1 127.1 125.5 124.9 125.1 124 123.4 122.5 122.2 121.8 120.9 120.8 120.9 121.2 120.8 120.8 120.6 120.5 120.7 120 119.4 119.3 119.3 119.2 118.8 118.1 118.8 119.1 120.2 120.1 120.7 121.7 121.9 123.1 125.3 127.5 130.1 133.5 136 138.2 139.5 136.7 137.3 140.4 143.2 147 149.4 152.1 154.4 157.7 161.1 164.8 167.5 170.2 171.5 173.3 174.8 175.7 175.9 176.3 176.6 176.8 177.4 179 181.7 185 189.3 194.2 199.4 202.2 204.7 206.4 207.2 208 209.6 210.9 212.4 213.4 214.7 216.7 217.7 219.1 219.5 221.1 219.6 221.1 215.6 208.4 207.3 219.4 228.6 238.1 247.7 271.6 298.2 325.7 350.9 366.3 363.3 361.4 358.8 354.1 352.9 356.1 355.7 353.8 353.1 355.5 354.7 353.5 355.9 364.9 364.7 363.3 362.2 358.8 360.5 361.8 363.1
165.2 165.4 164.2 162 161.6 160.1 159.4 157.3 159.2 163.6 161.2 161.9 162.8 159.6 162.2 163.2 163.3 164.2 164.8 165.4 166.8 167.9 168.4 167.1 166.3 163.6 161.6 162.4 164.7 164.7 164.7 162.9 162.4 160.8 158.2 155.2 151.8 146.3 141.8 140.2 139.9 139.6 139.3 138.7 138.7 138.2 140.3 140.1 138 136.5 135.9 137.5 138.3 136.1 133.3 131.3 131.8 132.2 132.9 133.3 133.6 132.4 131.8 132.3 132.4 131.6 131.9 132.2 132.2 132.7 132.9 133.5 133.9 134.5 133.9 131.8 131.2 130.8 130.4 128.2 128.3 129.1 129.5 129.2 128.2 126.2 125.3 124.1 123.6 122.9 121.9 121.4 120.6 120.2 119.4 118.8 119.6 119.5 119.5 119.6 119.5 119.2 119 119 119.1 118.7 118.8 119.6 119.5 120.7 121.5 121.6 123.7 125 126.6 128.6 130.8 133.6 136.5 138.8 140.7 141.5 141.6 143.2 143.5 142.6 141.6 147.2 150.5 153.6 156.3 160 163.3 166.4 169.1 170.9 172.3 173.8 174.6 175.1 175.4 175.7 176 176.6 178.7 181.6 184.9 188.7 194.3 198.9 202 204.9 206.7 208.5 210.1 211.4 212.5 214 215.1 216.8 218.8 220.7 223 224.3 227.9 228.2 227.8 228.7 230.7 215.4 207.7 219.7 228 240.4 260.8 285 312.8 329.2 344.4 358.2 355.8 353.3 351.3 348.6 351.9 350.9 348.2 345.6 342.8 339 340.3 341.2 350.2 356.9 350.9 357.8 359.3 354.3 356.9 355.7
162.5 163.6 163.2 167 165.2 161.7 163.8 161.5 157.3 157.2 156.8 158.9 159.5 158.1 161.4 161.1 161.1 161.4 161.8 161.6 162.9 163.6 162.5 163.4 164.5 163.4 161.9 162.4 162.5 163.6 164.4 165 163.7 162.8 159.8 157.6 155.3 152.7 145.3 148.7 142.8 139 138.3 138.3 138.9 140.9 141.4 141.4 139.2 137.3 134.9 134.8 135.5 135.3 136.1 131.9 130.7 131.1 131.6 131.7 131.7 131.3 129.8 129.6 128.6 128.1 127.3 127.2 127.4 125.9 125.7 127.8 130.1 131.4 130.9 129.1 130.1 130.4 129 126.3 128.5 129.1 128.7 129.3 127.6 127.4 126.9 124.8 124 123.6 123 122 121.6 121.2 120.5 119.6 119.7 118.7 118.3 118.5 118.2 118.5 118.9 119 119.9 117.7 118.9 119.4 119.5 121.2 122.9 125.3 127.6 129.3 130.6 132.4 134.4 136.5 139.3 140.9 142.4 143.1 144 144.9 145.6 146.7 147.5 149.1 146.1 147.9 154.8 157.8 160.9 164.1 166.5 168.7 170.2 171.7 173 173.2 174 174.6 175.2 175.8 178.7 181.6 184.8 188.3 193 198.2 201.9 204.6 207.3 208.7 210.4 211.9 213.3 214.7 216.3 218.7 220.1 223.1 224.7 229.3 232 233.8 235.5 235.1 238.8 233.8 214 215.6 221 232.7 249.4 268 293.1 313.8 323.5 340.6 352.7 350.4 347.1 344.1 344.4 345.4 343.9 342.1 339.5 335.9 333.7 331 331 335.6 338.2 344.2 353.4 350.6 348.3 352
159.9 160.9 161.1 161.9 162.6 161.7 161.9 162.2 158.7 155.7 151.8 153.4 154.1 155.9 157.4 156.8 157.1 157.4 158.3 158.5 159.4 159.7 159.7 159.8 160.6 160.3 160.9 163 163.8 166.9 165 164.7 163.2 163.1 159.8 158.1 156.4 154.7 152.3 149 147.2 144 142 141.7 139.2 139.6 139.5 139.9 140.1 138.9 137.9 135.1 132.2 131.2 131.8 133.8 129.9 130.4 130.9 131 131 130.5 129.4 129.1 128.3 127.4 126.9 126.5 127 127 126.6 126.2 125.1 128 127.6 128 128.2 128.1 125.9 126.3 128.1 127.4 127.1 127.3 126.6 125.9 126.3 125 124.7 123.7 121.7 121.1 121.6 121.1 120.8 120.5 120.2 119.7 118.5 118 117.9 118 117.9 117.7 118.6 117.9 118.3 120.4 119.4 121.7 124.3 127.4 130.3 132.3 134.1 135.4 137.5 139.7 141.1 142.5 143.7 144.8 145.6 146.3 147 147.9 149.3 151.3 152.7 153.7 154.8 154.4 155.3 158.7 162.8 165 167.3 169.1 170.5 171 172.2 173.1 174.1 175.4 178.2 180.7 183.3 187.4 192.8 198 200.8 203.7 206.2 208.4 209.9 211.4 212.9 214.3 217.7 220.4 222.6 224.5 224.6 230 234.9 238.2 241.3 241 243.9 244.5 233 215.8 214.8 223.5 238.3 250.6 271.5 293.5 306.1 320.1 330.9 339.6 342.2 341.1 335.8 338.1 337.5 335.4 334.6 334.2 331.8 328.2 323.9 323.5 323.3 322.7 327.4 334 338.3 334.2
157.5 158.6 158.3 158.3 159.1 160 157.7 156.9 157.5 156.4 154.6 151 147.4 152.2 153.9 154.2 153.7 153.1 153.6 154.1 154.8 155.9 156.2 156 156.9 158.1 159.9 163.7 163.6 169.3 167.3 163.1 160.2 160.4 159.5 158.3 156.5 155.1 153.3 151.3 149.1 146.9 144.2 144.2 143.8 140.8 136.1 136.4 136.8 137.6 138.6 139.5 138.5 136.9 132.8 130.1 129.4 129.8 130.1 130.3 130.4 129.7 129.3 128.8 127.7 127.6 127.3 126.9 127 126.9 126.9 126.4 125.9 126.5 128.6 126.4 125.8 125.2 125.7 125.3 125.3 125.7 125.4 125.5 124.6 124.5 124 122.7 123.2 122.7 122.5 121.8 120.6 120.6 119.5 119.9 120.2 120.1 119.2 118.7 118.2 118.3 117.9 117.4 117 117.4 118.1 118.6 119.7 122.6 126.2 129.4 132.6 135.2 135.9 137.7 139.5 141.4 143.4 144.1 145 146 146.9 147.7 148.4 149.2 151.5 152.3 154 155.8 157.9 158.8 160.6 162.2 162.1 161.5 163.2 165.1 167.9 170 171.8 172.8 172.7 174.9 176.4 179.4 180.8 184.4 190.6 195.2 198.6 202.1 204.6 207.2 209.5 210.8 212.2 214.7 218.6 220 221 219.5 224.2 232.2 232.8 234.4 239.2 244.5 246.8 250.1 248.6 230.8 226.1 222.1 226.3 238.4 251 266 291.3 300.6 308.4 319 325.7 328.1 328.3 330.4 330.8 330.5 330.2 330.1 329.2 326.2 321.3 317.4 314.3 311.7 310 311.6 311.5 312.8
154.7 155.7 155.6 155.9 158 160.2 157.2 152.8 151 149 151.3 148.8 151.6 145.2 145.7 146.2 146.1 147 148.6 149.1 149.8 151 152 151.8 152.2 153.1 156.8 163.1 158.6 160.3 165.9 165.6 157 156.7 157.5 157.2 156.4 154.4 153.5 152.2 150.7 148.3 147.3 145.3 142.8 140.9 138.1 134.3 133.6 134.2 134.6 135.8 137 137.2 136.5 132.1 129.2 129.2 129.3 129.5 129.7 129.4 128.6 128.1 127.3 127.2 127.1 126.3 125.8 126.2 126.4 126.7 126.2 128.1 126.5 126.2 125.6 124.5 124.8 124.8 124.2 123.6 123.4 123.6 123.1 122.1 121.6 122.1 121.8 121.5 121.2 120.8 120.9 120.8 120.7 120.5 120.3 119.7 118.2 117.8 118 117.9 117.8 116.9 117 117.3 117.8 118.6 120.4 123.5 127.7 131.5 133.8 135.2 137.7 139.7 141.3 143.2 145.3 145.3 145.7 147 147.4 149 149.7 150.7 152.4 154.1 155.8 157.4 159.3 161.4 163.5 164.7 165.5 165.6 164 166.7 166.8 168.1 169.7 170.7 172.8 174.3 175.6 178.2 178.7 182.4 186.4 191.9 195.8 199.2 202.2 204.7 207.9 209.5 210 212.8 216 218.3 216.4 217.6 220 223.2 228.9 232.2 235.8 240.8 247 259.8 257.1 239.4 240.4 236.7 229 225.2 238.5 253.3 278.2 286.2 291.7 300.9 313.1 313.4 312.2 316.6 318.9 321.7 324.3 324.2 325 324.1 321 317 312.5 309 305.7 302.9 304.9 305.3
153.5 153 153.7 154.3 155.1 155.1 154.3 152.5 151.2 146.2 143.6 143.3 143 143.2 142.9 141.9 140.3 140.1 141.3 141.1 142.4 144.3 146.7 148.5 148.9 149.9 149.4 152 151.2 152.4 153.9 154.5 150.5 147.3 151.7 154.1 155.3 153.6 152.7 151.2 150 149.2 147.8 145.8 144.3 141.9 138 136.3 133.4 131.3 129.7 130.3 131.2 132.6 133.9 134.2 131.7 128.4 128.6 129 128.8 128.5 128 127.5 127 126.9 126.7 125.9 124.6 125 126 125.9 127.9 125.4 124.8 124 123.8 124.2 124.3 124.4 124 123.5 123.1 122.7 122.2 121.8 121.7 121.4 120.9 120.9 120.8 121.1 121.1 121.3 120.9 120.4 120.3 119.2 119.5 118 117.8 116.9 116.7 116.8 116.8 117.3 117.7 118.3 121.3 124.9 128.8 130.9 133.5 134.5 136.3 138.7 140.6 142.4 143.5 144.3 145.6 146.9 148.2 149.4 151 151.9 154.1 155.8 157.5 159.2 161.5 163.3 165.8 166.9 167.2 166.9 166.7 168 169.5 170.2 172.2 173.4 175 176.2 177.7 179.7 182.1 183.5 185.6 185.8 188.2 191.6 197.7 201.5 204.2 205.2 203.1 204.8 210.6 211.7 214.8 217.4 220.2 223.4 228.7 236.7 242.8 245.7 253.2 271.8 273.1 252.6 254.5 249.8 245.5 237.5 228.7 247.2 263.5 271.7 277.5 284.3 294 299.8 304.5 303.5 304.2 305.2 307.9 310.9 314.8 315.3 317.4 315.7 312.1 307.7 303.6 301 302.4 302.2
152.2 151.7 151.3 151.5 151.9 152.3 152.2 151.2 146.9 149.8 148.7 146.6 143.2 144.7 147.3 145 144.2 140.9 140.5 138.1 137.7 138 139.5 143.7 145.4 147.2 150.7 144.7 145.3 146.9 147.2 147.4 148.5 147.2 142.5 145.1 148.6 150.5 150.6 150.7 148.3 146.7 145.9 144.7 143.6 143.2 139.6 138.9 136.8 130.9 129.9 128.6 128.2 128.1 129.5 130.6 130.6 128.7 128.3 128.3 128.2 127.8 127.3 126.8 126.6 126.6 126.4 125.9 125.4 125.1 125.1 126.1 125.2 123.6 122.4 122.1 123.4 124 124 124 123.8 123.5 123.2 122.8 122.1 121.5 121.7 121.4 120.1 121 120.5 120.1 119.5 120.3 119.7 120.3 120.3 119.8 118.8 117.5 116.6 117.3 117.1 116.4 117 117.6 118 119.3 122.1 124.7 128.7 130.5 132.4 133.8 135.1 136.7 138.5 140.5 141.4 143.3 145.3 146.8 148.7 149.7 151.6 153.4 155.4 157.5 159.3 160.9 162.8 164.4 166.7 168 168.1 168.1 169 169 170.5 171.9 173.1 174.3 176.2 177.9 179.8 181.9 184.2 186.9 190.5 191.3 194.6 196.1 196.1 195.1 198.4 203.2 203.7 206.9 213.6 216.7 220.1 222.6 226.9 229.9 231 234.3 239.9 246.8 260 284 289.2 274.2 270.6 265.6 259.5 252.9 244.1 232.3 237 245.2 256.5 276.3 280 286 294.3 297.5 298.8 297.1 296.9 298.7 299.7 302 305 305.9 306.1 304.5 301.7 299 296.6 297.1
152.2 152 151.5 150.2 149.3 149.5 150.2 148.9 149.3 152.2 151.1 149.6 148.2 147.3 147.4 144.3 143.9 142.9 141.5 142.2 139.2 137 136.4 137.7 140.5 142.5 143.7 145.7 146.4 144.3 142.5 145.3 148.4 148.1 144.7 141.3 139.4 141.9 147.3 146.6 142.3 140.9 142.4 141.2 141.8 140.8 139.2 138.1 134.3 133.6 135.4 129.8 128 127.5 127.3 127.9 129.1 129 128.1 128.3 127.6 127 126.8 126.5 126.3 126.3 126.2 125.8 125.4 125 127.3 124.9 124.3 122.9 121.5 121.6 121.9 123.1 123.6 123.3 123.2 122.9 122.9 122.1 121.5 121 121.3 121.5 121.7 121 120 119.5 119.9 118.8 118 119.1 119.6 119.7 117.8 117.4 116.9 116.8 116.4 116.3 116.8 117.7 119.1 120.7 122.6 124.7 128 129.7 131.4 133.1 134.6 135.7 136.7 138.7 140.3 142.6 144.1 147 148.7 150.8 153.3 155.2 157.6 159.7 161.8 162.3 163.8 165.2 167.3 168.5 168.9 169 169.6 169.4 171.1 172.7 173.9 175.1 177.3 179.6 182.4 184.9 187.8 190.1 193.1 196.6 197.9 199.7 201.8 200.1 206 206.8 210.8 213.3 216.1 214.9 219.1 222.2 227 230.8 235.4 238.8 242.7 251.7 266.8 288.5 304 299.8 291.7 288.8 281.4 273.6 262 254.6 249.1 259.2 249.9 255.3 271.6 276.8 282.8 284 290.7 291.5 292.5 291.1 291.7 293.4 294.7 295.1 295.6 295.9 297 296.6 294.9 293.6
150.7 150.7 149.5 147.7 146.1 144.7 145.2 147 149.2 149.4 148.8 147.8 147.5 146.3 144.9 143.6 140.1 138.3 138.1 139.1 138.7 138.9 135.8 135.7 136.9 138.1 139.4 139 138.7 138.5 138 140.9 142 142.4 140.3 142.1 143.1 138.2 138 137.7 137.7 136.4 134.6 134.4 136.2 136.1 137.1 135.1 133.9 134.8 133.2 132.4 131.1 130.7 130.5 127.9 127.1 128.2 127.7 128.2 127.9 126.8 126.6 126.3 126 126.2 126.2 125.8 125.5 127 124.7 123.6 123.3 123.8 122.9 122.3 122.3 121.3 121 121.2 121.2 120.8 120.9 120.6 120.4 120.6 120.9 121.5 121.7 121.4 120.1 118.8 118.6 117.2 117.4 118.9 119.2 119.1 118.6 117.3 116.7 116 116.2 116.3 117.1 117.9 120.4 121.4 122.1 125 127.5 129.1 130.5 131.8 133.1 134.7 135.8 137.1 139.6 142.6 144.6 147 150.3 153.4 154.9 157.7 160.6 162.7 164.8 164.8 164.7 165.8 167.7 168.9 169.3 169.7 169.8 170.2 171.5 173.2 174.7 176 178.4 181.9 185 189.6 192.5 194.8 196.8 199.9 200.5 202.2 203.9 205.7 202.2 209.7 211.1 214.5 218.2 220.2 219 222.4 227.2 233.4 239.7 245.5 254.7 263.5 278 293.9 319.4 328.7 318.4 315.3 307.7 299.5 289.2 276.1 267.5 276.3 267.1 273.4 271.4 262.4 272.3 278.1 280.5 281.1 285.6 287.6 288 288.4 288.1 288.5 288.9 287.7 287 288.1 289 290.6
145.9 145.3 145.4 144.1 142.7 141.7 141.1 141.8 145.3 146.5 146.2 145.8 145 144.1 142 137.1 136.3 136.5 135.9 136.9 135.7 135.6 135.7 133.2 134.7 134.8 137.2 136.5 141.2 137.8 136.6 137 137.7 137.7 135.4 133.4 135.9 137.8 135.3 134.1 134.2 133.8 132.1 131.2 131.5 132.1 132.8 132.8 133 131.7 130.6 131.1 132 132.3 132.6 132.1 130.4 129.1 127.6 127.7 127.7 126.6 126.4 126.1 125.9 125.6 125.8 125.7 127.1 125.1 124.5 124.1 123.4 123.1 123 122.8 123.8 123.8 121.6 121.6 121.2 122.2 122.4 122 121.7 120.6 120.6 120.2 120.7 120.8 120.9 119.2 117.5 116.8 116.7 118.9 118.9 118.2 118.1 117.3 116.4 116.3 117.3 117.7 118.2 118.6 120.1 121.3 122.6 125.2 127.1 128.1 129 130.2 131.3 132.9 134.1 135.9 139.1 142.1 144.3 148.1 151.2 153.2 155.7 159.5 162.8 165.6 165.9 165.6 165.2 166.3 168.3 169.7 170 170.3 170.8 171.1 172 173.5 175.2 177.1 180.9 184.8 189.1 193.7 197.3 199.8 201.2 202.7 203.3 204.5 206.2 207.8 205.1 205.6 213.3 215.9 220.2 222.5 225.4 228.5 228.2 234.1 239.9 248.4 258.2 272 292.3 311.4 336.7 343.8 350.9 345.1 341.6 329.4 309.4 302 292.3 286.2 278.5 277.1 276.8 276.5 276 277.3 276.9 276.7 279.2 281.1 283 284.7 284.8 285.1 285.4 285.5 285.6 286 284.7 283.1
144.6 143.8 143.4 144.6 142.8 141.9 142.2 141.2 140.2 142.1 142.4 141.7 142.7 142.1 139.2 137.5 135.8 134.4 133.8 135.1 135.4 132.7 133.6 131.5 135.3 133.9 135.3 135.8 135.9 136.8 135.8 135.9 136.4 139.1 141.9 136.8 134.9 132.3 133.1 133 131.8 130.8 131.1 131.2 131.1 130 129.1 128.7 128.8 128.6 127.8 127.3 127.9 128.9 130.3 130.9 130.2 129.9 127.3 127.3 127.8 126.6 126.3 126 125.8 125.7 125.4 127.5 125.2 124.6 124.2 123.8 123.3 123.2 123.9 123 123.4 124 122.9 122.6 120 122.2 122.8 122.3 121.7 121.1 119.1 119 118.5 118.7 118.7 118.6 117.5 117.1 116.6 116.6 116.6 116.3 117.2 116.2 116.2 117.1 117.8 119.3 119.5 119.8 121.3 122.5 123.7 125.5 126.8 127.5 128.5 130 130 130.8 131.9 134.8 138.4 141.6 144.7 147.9 151.1 154.2 157.6 162.1 164.9 166 166 166.6 165.5 166.8 168.3 168.8 169.4 169.7 171.1 171.9 172.5 174.5 176.7 179.1 182.8 187.8 193.1 196.9 199.4 201.4 202.9 204.5 205.3 206.5 208.3 210 211.5 206.8 209.2 214.3 220.1 223.4 227.4 229.4 233.3 237.3 244.9 254.9 267.8 283.8 303.3 324.6 361.6 360.8 351.7 348.4 343.5 332.3 327.9 323.1 311.9 303.3 292.3 286.6 285.4 286.6 282.3 283.3 282.9 280.5 281.6 282.2 282.8 283.5 283.4 283.6 283.2 283.8 283.8 283.2 283.2 281.7
141.7 141.5 140.3 140.8 139.7 140.9 140.7 139.5 140.5 140.1 138.8 138.3 138 137 137.3 136.1 134.4 133.8 133 131.8 131.9 131.7 129.9 133.5 133.3 132.8 134.3 134.2 134.8 134.8 135.1 135 135.2 135.1 137.6 138.6 134.8 132.2 130.8 129.9 129.7 128.1 128.3 128.6 129.3 128.6 128.9 129.2 128.9 128.2 127.6 128.1 127.4 127.4 126.8 128.2 127.3 127.9 126.6 127.8 126.7 126.4 126.2 126 125.8 126.3 126.7 125.1 124.7 124.4 124.3 124.1 124 123.8 123.7 123.3 122.8 122.6 122.3 122.7 120.5 120.9 123 122.5 121.6 120.1 120.2 119.7 119.8 118.3 119.6 119.2 121.1 118.2 117.9 116.7 116 115.9 116.3 115.7 116 117.9 118.3 119.5 120.7 119.8 121.2 124.7 126.4 127.2 127.2 128.2 128.3 130 129.2 129.2 130.4 132.6 136.7 140.9 143.6 147.3 150.5 153.7 157.2 161.4 164.7 165.7 167 167.1 165.9 166.7 167.7 168.2 168 168.9 170.9 171.4 173.5 175.6 177.7 180.5 184.1 188.9 195.1 198 200.3 202.1 203.5 204.7 206.4 207.8 209.1 210.4 212.1 214.1 212.5 212.6 216.4 219.9 222.8 229.4 235.3 238.7 250.2 260.2 280.8 297.5 314.5 339.5 368.5 371.4 364.2 354.3 347.6 342.3 333.9 327.7 322.6 314.6 308.3 300.2 299.7 298.2 295.3 291.2 287.2 288.1 291.3 290.1 286 284.8 284.3 283.3 282.6 282.6 281.3 281.3 281.1 280.3
136.4 136.3 135.9 137.8 136.2 133.9 133.5 135.3 138.2 138.8 138.9 137.3 133.9 130.4 131.7 131.2 133.6 133 133.2 131.4 131.6 129.3 129.3 130.4 135.2 135 135.5 135.2 134.7 134.2 133.4 134 133.6 133.5 132.6 133 131.9 130 129.3 129.3 129.8 129.7 129.4 128.9 128.7 127.9 127.2 127 127.2 127.1 126.8 127.4 126.2 126.6 126.8 126.3 126.7 125.7 126 126.5 126 126.3 126.1 125.8 126.6 126.8 125.7 124.7 124.3 124.1 124.1 124.1 124.1 124.8 124.7 122.9 122.4 122.2 122.6 121.4 121.5 119.8 121.1 121.3 121.3 120.8 121.6 121.3 120.5 120 120.2 119 118.5 118 118 118.9 117 115.8 116.6 116.3 116.9 117.4 120.2 119.1 118.2 119.2 122.2 126.7 127.8 127.5 128.1 127.6 128.1 129.3 128.9 128.9 128.9 131.4 134.6 139.2 142.8 145.8 150 152.8 156.3 161 163.9 165.2 165.2 165.2 165.3 165.7 166.6 167.7 166.9 167.6 169.1 170.1 171.9 174.4 177.1 181.2 185.8 191 192.1 196.2 198 200.1 202.1 203.9 207 208.1 209.4 210.8 212.6 215.3 217.6 216.5 216.4 220 224.9 230.1 234 240.2 247.7 260.3 281 306.5 331.3 361.6 379 378.9 373.1 363 356.5 350.1 340.5 334.1 327.5 320.8 314.8 309.2 307.2 303.6 298.4 297.1 290.6 296.3 294.5 290.9 289.3 289.1 288.5 286 285.1 282.9 281.8 280.4 279.1 277.3
132.9 133.3 132.3 133.3 132.2 129.6 128.3 128.8 129.9 131 131.7 132.8 130.8 130.4 131 129.4 127 130.8 131.1 131.8 130.1 127.3 128.1 130.8 133.2 135 135.9 137.1 135.5 135 134.7 134.1 133.1 131.2 130.2 130.5 130.4 130.5 132.2 135.3 132.1 131.1 130.7 130.3 131 131.2 129.3 127.8 126.8 126.3 125.8 125.7 124.9 124.4 124.4 126.3 127 125.7 127.2 125.9 125.4 125.9 126.2 125.9 126.1 125.5 125.1 124.9 124 123.8 123.6 123.8 123.8 126.3 125.3 123.6 121.9 120.8 119.7 120.8 120.5 120 119.2 118.9 120.7 121.3 121.1 120.7 120 119 118.7 118.1 117.7 118.6 119 119.2 117.9 117.9 117.8 118.2 115.6 117.5 118.4 117.6 118.7 121 124.2 126.9 127.4 127.1 127.6 127.6 128 128.4 128.6 128.4 128.3 130.1 133.3 137.5 141.4 144.4 148.2 152.1 155.2 159.1 163.2 164.3 163.5 163.1 164.3 165.5 165.6 166.3 166.1 167 168.2 169.2 171.1 173.7 176.7 181.9 187.8 193.8 197.9 200 202.9 203.4 204.1 204.4 206.3 208.5 209.8 211.7 214 217.2 219.8 221.3 222 224.5 225.3 230.3 234.7 241 249.4 262.2 284.8 310.7 335.7 366.3 389.5 384.6 384.1 387.7 376.2 360 350 338.7 332.6 326.7 318.3 319.8 316.2 313.6 312.3 299.3 308.2 306.4 301.8 296 296.4 295.1 292.1 289.8 288 285.4 283.2 282.8 281.2 279.7
131.8 131 130.8 131.4 131.9 131.9 133.3 132.5 129.1 125.1 124.7 125.2 127.8 131.2 129.7 125 125.1 128.1 130 128.9 126.6 126.3 127.6 128.3 130.4 132.7 134.6 135.4 135.4 134.5 135.5 136.3 136.2 135.3 134.3 131.9 130.3 133 132.7 133.3 131.8 131.7 131.5 132.3 132.1 132.3 131.2 129.4 128.1 127.4 127.1 126.2 125.2 124.7 124.1 125.4 126.4 125.5 132.7 125.6 126 125.5 124.9 125.7 124.6 124.6 124.6 124.4 123.8 123.7 123.2 123.2 124.2 124.4 123.5 122.4 120.3 118.8 117.4 117.3 118.8 118.7 119.3 119.7 120.5 119.9 119.5 119.9 118.8 117.9 118.5 117.7 117.6 116.6 117.4 118.6 116.7 117.3 117.2 116.7 115.8 117.2 117.4 118.9 120.7 123.6 125.5 126.5 126.8 126.5 127.3 127.9 128.2 128.3 127.9 127.7 127.7 129.2 131.3 135.6 140 143.2 146.6 149.6 153.7 157.8 161.1 162.7 161.3 161.6 163.5 164.7 164.9 165 164.9 166.1 167.8 168.5 170.5 172.6 177.3 182.5 188.5 194.2 199.1 201.7 204 205.4 206.6 206.9 208.2 210.1 212.2 215.2 218.1 220.7 223.7 225.1 227.4 228.2 229.9 233.2 239.3 243.8 253.3 265.8 288.2 312.7 335.8 363.8 390 393.9 381.1 384.3 385.9 382.3 363.7 351.6 341.4 332.3 323.6 317.5 314.4 312.3 310.5 312.1 313.4 311.3 311.7 305 303.9 302.4 299.9 298 294.8 288.7 287.4 285.5 283.4 281.7
133.4 133.1 131.5 131.7 133.4 133.9 132.7 131.9 131.4 126.2 126.1 124.1 124.3 126.8 126.2 123.4 123.3 123.1 125.1 125.9 124.9 125.7 126.7 130 128.4 130.4 132.1 134 134.2 133.8 134.1 134.8 135.6 134.5 135.4 136.3 134.3 133.5 132.5 133.4 134.9 134.6 134.2 132.9 131.7 130.2 129.9 129.3 128.5 128.3 127.8 126.7 125.5 125.8 124.6 125.5 125.3 125.8 127.1 125.2 124.8 124.7 125.6 124.1 124 124.1 124 123.6 123.5 123.4 123.7 122.4 122.3 122.5 121.9 121.3 119.1 117.2 116.7 117 118.9 120.3 118.1 119.2 119.4 119.2 117.9 117.3 117.8 117.9 118.6 118.9 118.7 117.3 116.6 116.4 114.9 115.2 116 115 115.9 118 118.3 121.1 123.3 124.2 125.2 125.6 125.8 126.2 127.1 128.1 127.9 127.3 126.8 126.7 127.1 129 129.9 132.6 139.4 142.6 144.6 147.6 151.3 155.7 158.6 159.8 159.8 159.7 161.6 163.9 163.8 163.5 164.3 165.5 166.3 167.9 170.2 173.4 178 185 191.3 197.7 200.5 202.9 205.2 206.5 207.9 209 210.4 211.2 212.8 215.5 218.6 220.7 224 226.6 229 230.4 233.2 234.5 239.3 245.9 253.3 265.2 285.6 312.3 336.5 358.1 386.8 393.9 387.8 378.2 374.9 366.6 361.2 353.3 350 342.1 333.4 326.8 322.3 316.5 321.9 324.2 324.5 321.9 320.3 318.4 316.5 313.6 310.3 305.9 296 299.4 295.1 292.7 288.8 285
132.9 135.2 133.1 131.1 132 131.9 130.9 130.1 126.7 130.8 131.1 129.2 123.6 123.4 124.5 124.8 122.8 121.3 121.8 123.5 123.5 125.4 126.3 130.4 128.8 128.2 128.1 128.8 131.9 134.6 135.9 135.1 135 135.2 135.8 135.5 134.7 133.4 134.7 135.7 133.4 129.9 127 125.3 125.5 125.8 126.9 127 125.7 129.4 126.4 125.9 125.3 124.9 125 125 124.5 126.2 127.6 125.2 124.9 125.6 124.3 124 123.7 123.3 123 122.7 122.8 123.8 122.7 121.8 121.7 122.2 123.7 121.1 117.7 117.4 116.8 117 117.8 120.1 119 119 119.1 118.8 117.6 117.5 117 115.7 115.8 116.7 117.3 116.5 116.3 117.2 114.9 115 115.4 115.9 116.9 117.3 117.5 120.8 123.8 124.9 126.1 126.6 125.9 126 126.5 127 126.9 126.4 126.2 126.2 126.6 127.5 128.2 130.5 138.1 141.4 143.5 146.7 150.2 152.7 156.1 157.3 157.8 157.8 160.1 161.9 162.3 162.6 163.7 164.9 166.7 168.4 171 174.4 178.6 184.9 192.5 198 200.7 203 206 208 209.3 209.8 210.9 212.7 214.2 215.7 217.8 220.6 224.5 226.2 228.8 231.5 235.2 239 242.2 247.9 256.7 267 285.1 310.7 334.8 360.4 389.1 397.8 396.2 385.5 381.3 378.4 364.2 351.4 343 339.4 337 332.6 327.5 324.4 320.8 323 322.9 322.3 323.1 323 320.9 318.2 314.2 306.8 304.2 304 303.1 301.2 294.8 292.9
128.5 134.1 133.4 132.2 130.6 129.8 128.6 126.3 125.1 127.5 128.8 127.4 124.4 123 122.2 121.8 121.9 121.2 120.2 121.9 122.1 121.9 121.9 124.3 124.6 125.5 129.7 132.2 131.2 134.9 135.8 135.6 135.3 135.8 136.4 135.3 135 133.2 128.9 125.4 123.7 126.5 132.7 135.2 135.3 135 135 134.4 133.6 133 131.6 128.2 125.3 124.8 124.1 124.9 124 131.8 124.8 125.1 125.8 126.8 124 123.7 123.3 123 122.7 122.4 122.8 123.1 121.4 121.4 121.7 122.4 121.5 119.2 117.9 116.9 116.6 116.8 118.4 120.5 120.6 118.5 116.6 117.5 118.1 117.2 115.3 115.4 115.2 115.4 115.1 114.3 114.8 115.4 115 114.7 115.3 115.1 116.5 117.2 118.3 121.6 124.5 126.2 125.7 127.5 127.6 127.9 127.7 127.4 126.9 126 125.9 126.1 125.9 126.5 127.5 129 135.5 139.1 142.3 145.9 148.2 150.3 152.1 154.4 155.8 156 157.9 159.9 160.3 161.3 162.6 164.2 166.8 167.7 171.5 174.8 178.9 184.5 192.1 197.1 199.6 202.9 206.2 208.1 209.3 209.5 211.4 213.1 214 215.3 217.6 220.4 223.1 225.2 228.7 231.3 234.9 239.1 243.9 251.5 265.8 282.5 296.5 313.2 335.9 363.9 392 402.4 399.9 394.2 381.6 368.4 362.4 361.7 347.9 340.2 334.5 331.2 328.4 326.5 324.3 325 324.7 323.9 324.4 324.2 322.9 317.7 311.9 318 316.9 311.9 308.2 304.5 301.1 298
128.2 130.4 131.1 131.1 130 128.2 126.5 127.6 128.9 125 124.2 124 123.1 122.3 122.2 122.2 122 121.1 120.9 120.4 120.7 121.5 120.5 120.9 123.1 123.5 125.3 126.1 129.4 133 132.2 134.9 134.4 134.7 135.4 132.3 124.2 123.2 128 132.1 136.9 137.8 138.5 137.2 137.2 137.6 137.6 137.6 137.1 134.1 132.1 128.4 125.9 125.1 124.8 124.4 126.6 124.4 124.4 125.2 126 126.6 125 123.5 123.1 122.8 122.5 122.5 122.5 122.5 121.6 121.3 121.3 120.9 121.5 119.6 118.2 117.2 116.5 118.1 120.7 122.2 121.4 117.2 115.5 117.4 115.7 113.7 116 116.5 116.9 116.5 116.9 114.6 114.5 114.7 114.2 115.3 115.7 115.8 115.4 116.7 120 123.9 125 126.2 126.4 127.7 128.5 128.6 128.4 128.2 128 127.2 125.7 125.3 125.4 125.4 126.4 128.4 133 136.9 139.6 143 145.8 147.6 148.6 150.5 153.1 154.6 156.5 158.2 158.5 160.4 162.5 163.9 166.7 168.5 171.7 175.6 179.9 185 190.7 195.6 198.5 201.6 204.6 206.7 208.2 207.6 209.2 209 210.2 212.9 215.1 217.4 220.9 224.8 228.1 231.4 235.9 240 244.6 251.8 265.5 284.2 300.9 316.1 336.8 366.2 392.8 398.8 397.4 391.3 383.4 371.6 367.1 368.1 374.4 359.8 347.3 337 329.1 328.3 329.4 329.3 328.5 327.8 326.6 325.4 320.9 320.4 325.8 325 320.6 317.2 312.9 309.3 305.5 302.5
126.4 129.3 128.4 128.1 127.7 126.5 126.9 130.8 130.7 129.7 126.3 122.6 122.3 124.2 123.6 122.8 122.3 121.7 122.1 121 120.4 120.6 120.5 120.4 120.3 122 121.9 122.7 122.6 124.5 129.5 131.4 132.1 131 123.8 123.6 130.1 132.7 131.4 133 139.1 139.2 137.4 140.7 142.1 143.2 144 143 139.6 135.8 133.1 129.8 128.1 128 127 125.3 125.6 125.6 123.2 124 125.6 125.1 124.7 123.4 122.9 122.6 122.5 122.5 122.5 122.2 121.8 121.2 121.9 122.3 122.2 120.9 118.4 117.5 117 119.8 124.6 125.7 120.6 118.5 116.5 114.3 114 114.6 116.8 118.5 118.5 119 118.8 116.3 114.4 113.8 114.4 115.3 116.4 116.5 115.8 117 121.8 125 127 126.7 127.5 128 129 128.3 127.1 127 127 126.5 125.4 124.6 124.8 125 126.6 128.9 130.7 134.8 137.4 140.5 142.6 144.2 145.5 147.1 149 151.6 153.4 155.7 158.4 160.2 162 163.8 166.2 168.5 171.1 175.9 180.3 185.1 189.6 193.9 196.8 199.7 202.4 204.7 201.8 206.5 211.5 211.5 210.4 211.7 214.2 216.9 221.2 224.4 227.8 231.2 234.2 238.6 244.2 253.7 270.6 285.5 301.7 320.1 338.5 363.9 394 401.4 399.7 395.9 390.1 377.7 380.4 369.8 365.9 372.8 362.5 351.8 341.1 334.8 332.4 335.4 335.3 333.3 331.1 329 325.9 328.8 328.4 326.2 322.6 319.2 316 312.4 308.6 305.2
126 125.4 125 124.3 124 124.2 124.6 127.3 127.2 124.9 122.4 121.9 122.1 121.7 121.9 121.6 121.5 121.2 120.4 121.2 121 120.9 121 120.5 119.6 119.4 119.4 120.2 119.7 120.2 121.8 122.7 124.7 123.9 127.4 132.6 131.8 128.9 129.5 130.6 133.8 134.9 134.6 140.5 145.8 145.6 144.3 143.9 142.5 139.1 136.4 133.9 131.8 128.6 126.1 125.2 124.9 120.5 122.6 124.4 124.9 124.5 124 123.6 123.1 122.6 122.5 122.5 122.4 122.3 121.6 121 121 122.6 122.1 121.5 120.3 118.8 117 118.1 122.7 121.1 117.7 116.7 114.1 113.4 113.9 114.2 116.3 116.9 117 118.8 118.7 117.1 114.8 115.1 116 116.8 116.8 116.6 115.7 118.3 123.3 125 127.3 126.1 126.7 126.8 127.4 126.4 125.8 126.1 125.9 126 124.9 124.4 124 125.8 127.2 128.2 129.2 132.5 135.3 138 140.4 141 142.4 144.1 145.9 148.3 150.6 153.8 156.5 158.8 160.8 164 167 169 172.7 177.4 181.6 184.8 188.6 192.9 195.4 197.3 198.5 197.3 206 208.9 211.8 213.4 214.7 216.3 217.4 220.4 221.4 224.8 226.8 230.8 234.5 239.2 244.2 252.1 259.3 278.2 301.7 320.6 340.5 367.7 391.5 399.7 399.6 398.5 394.8 387.5 376.4 376.5 369.7 360.4 359.4 356.6 349.7 342.8 337.9 336 335.2 333.3 332.8 329.8 331.1 331.8 329.8 326.2 323 319.8 316.6 313.1 310.1 307.7
124.8 124.7 129 125.9 124.1 124.2 123.3 123.3 122.8 123.6 124.2 122.4 122.1 121 121.7 121.5 121.5 122.1 121.4 121.5 121.2 121.8 122.5 122 119.2 120 119.5 119.4 118.7 118.9 118.5 121 121.9 126.4 127.3 127.8 126.8 127.1 129.5 128.6 127.5 127.8 129.9 135.5 143.2 144.9 143.5 141 139.1 134.2 134.2 134.1 128.7 127.6 125.8 124.2 122.9 122.7 122.7 124 124.3 124.1 123.7 122.7 124.4 122.4 122.2 122.2 122 121.7 121.7 120.9 120.2 121.3 121.5 122.1 120.8 120.7 119.2 115.9 116.4 115.9 116.5 114.7 113.4 113 113.6 114 116.2 116.8 117.1 117.7 118.4 116.7 114.9 115 115.1 117.2 117.2 117 115.9 119.4 123 124.3 126.1 124.6 123.8 124.4 125.2 125 124 124.4 125 124.9 124.7 123.6 124.4 125.1 125.6 126.8 128.1 129.9 132.8 135.8 138 139.5 139.6 140.4 142.9 147.2 149 151.5 154.3 156.9 159.7 163.2 168.3 172.7 175.2 177.8 181.8 185.8 187.6 190.8 192.2 189.9 197.9 201.7 203.7 206.2 210.9 212.3 214.7 216.9 219.4 221.9 224.2 227 229.9 233.3 237.9 243.4 249.1 253.8 264.5 279 302.5 322.7 344.7 380.4 401.6 404.7 407.2 406 399 396.9 388.1 379.9 378.7 379.1 365.4 354 349.6 346 342.6 339 335.8 334.1 332.6 332.7 335.6 336.6 333.9 330.1 327.6 323.8 319.6 315.5 311.7 308.5
126.3 125.1 123.8 124.2 124.9 125.7 125 123.7 125.2 124.5 122.6 122.1 121.9 123.6 122.9 124.9 126.1 125.1 126.2 126 124.5 125.8 125.9 124.3 122.1 120.7 120.1 120.5 119.7 119.3 121.4 120.5 122.7 124.3 125.2 124.5 124.3 124 122.4 124.7 124.5 125.4 127.5 134.3 134 135.9 136.4 135 134 130 128.8 128.4 128 126 125.3 124.7 123.2 123.2 120.8 123.5 123.4 122.4 123.3 122.7 123.5 122.2 121.7 121.6 121.5 121.1 121.4 121.2 120.4 119.7 120.7 122.9 119.8 118.8 117.6 115.4 115.4 116.2 114.6 114.3 113.3 113.1 113.5 114.3 117 116.6 117.6 117.9 117.8 117.6 115.9 115.2 114.7 117.1 117.3 117.2 116.4 120.7 124.7 125.6 125.4 122.1 121.5 122.3 123.1 123.3 122.3 123.1 123.8 122.1 123.2 123.8 123.7 124.3 125.6 126.7 127.5 128.8 130.5 133 134.7 135.2 139.6 141.7 144.1 145.8 147.1 149.5 152.1 154.4 157.6 163.4 169.5 175 177.2 179.4 181.9 184.9 184.1 183.5 189.3 194.4 196.9 199.2 201.2 202.7 210.1 212.4 214.5 217.4 220.2 222.8 225.2 227.7 230.4 234.2 239.2 243.7 250.1 258.3 269.5 289.6 308.2 330.6 357.5 392.2 410 412.4 412.7 410.2 404.9 399.6 395.4 389.3 382.7 371.8 369.7 364.6 356.8 353 349.9 343.9 339.9 336.6 333.9 335.8 339.1 339.7 337.8 334.5 330.2 328.6 326.2 320.1 314.5 309.7
130.2 127.4 125.4 124.1 124.2 123.1 123.5 123.1 122.8 122.6 122.8 122.2 122.9 126.2 128.6 130.1 129.4 129.5 129.7 128.5 127.1 127.2 126.1 125.2 123.1 121.1 120.4 120.1 119.5 120.5 119 118.6 117.9 120.7 121.9 123.6 123.5 123.1 122.9 121.3 122 122.9 130.9 134.7 134.6 131.8 131.5 131.2 128.5 128 127.7 127.1 125.7 125.5 124.8 125 124.5 122.5 119.9 122.3 122.4 123.2 122.2 122.3 121.6 122.1 121.8 121.3 121.3 120.6 120.7 121.2 121.2 118.8 118.9 120.1 118.5 117 115.5 114.7 116.3 114.9 114.1 113.7 112.9 113.2 113.5 115 117.6 117.1 118.6 120.8 120.8 119.4 116.8 114.6 114.4 117.7 117.6 116.9 116.9 121.6 126.1 125.7 123.6 120.8 120.7 120.6 121 121.4 120.8 121 121.2 120.6 120.3 121.2 123.6 123.7 125.4 126.4 127.4 128.9 129.8 131.7 134.2 137.7 140.2 142.2 144.1 144.7 146 148.5 151.1 153.4 157.7 162.9 170.3 175.9 178.4 180 181.7 177.4 186.4 189.4 191.5 193.9 189.3 194.9 199.7 204.3 208.5 211.1 214.2 217.5 219.9 222.5 224.7 226.3 229.3 234.1 238.6 244.9 254.4 268.3 283.3 297.8 316.3 336.3 367.5 399 413.5 418.8 415.2 410.3 405.3 400.6 399.3 396.3 394.2 385.4 377.3 376.9 368.8 361.1 355 349.6 345.4 340.4 336.8 339.6 343.7 344.7 344.2 346.1 341 338.9 335.4 330.5 323.1 317.2
131.9 131.3 130 128 126.1 124.3 124 123.6 122.7 122.7 122.7 122.8 126.9 131.1 132.1 132.9 133.1 133 132.1 130.5 129 128.9 127.9 126.2 123.6 121.2 120.4 120.1 120.5 119.2 118.7 118.7 118.4 117.9 118 120.9 119.8 119.6 119.8 119.6 120.2 120.6 124.3 127.5 130.4 131 129.5 128 127.4 126.9 124.8 126.3 124.6 126.9 126 123.9 124.4 121.7 121.1 122.2 121.9 121.9 122 121.4 121.9 123 122.6 121.5 121 120.4 119.9 119.8 119.2 119.1 118.4 117.3 116.8 115.9 115 115 114.2 113.9 113.6 113.2 112.9 113.1 113.4 114.5 117.5 117.5 119.4 121.8 123.8 120.7 118.6 116.6 112.8 116.7 117.6 116.3 117.7 120.1 121.3 122.1 120.9 119.5 119.3 120.3 120.3 119.4 118.3 119 117.2 121.4 119.8 120.9 122.7 123 125.5 127.6 128.9 129.7 131 131.5 133.7 135.6 138.1 141 141.9 144.5 146.7 149.2 151.3 154.5 158.9 164.6 170.2 174 176.7 179.1 173 184 180.1 180.6 185.7 193.6 198.6 201.2 200.4 199.2 206.8 208.6 213.1 216.3 218 220.2 221.2 223.3 228.1 231.8 236.3 241.5 250.9 270.6 289.8 306 323.3 348.3 379.4 406.1 416 415.3 415 409.8 404.7 403.4 402.5 402.3 396.3 395.3 392.7 381.6 384.8 373.8 364 358 349.8 343.1 340.9 342.6 345.5 346.9 348.9 352.1 352.2 349.4 345.8 342.3 337 329.9
131.9 132.2 133.3 132.2 129.9 127.2 124.9 124.3 123.2 123.5 124.7 129 133.1 134.6 135.4 135.2 134.6 134 133.5 132 130.4 131.3 129.7 127 124.3 121.6 120.9 121.2 119.9 118.8 118.9 119.2 118.6 118.5 118 117.1 119.2 119.6 119.3 118.1 118.3 118.3 119.5 119 122.9 124.6 127.1 126.3 122.4 123.7 125.1 125.5 124.4 121.5 121.8 123.6 124.5 123.2 121.3 121.9 121.4 122.4 123.1 121 121.4 122.3 122.3 122.7 121.5 120.6 120.9 121.1 119.9 118.3 118.4 117.2 117 115.6 114.8 114.5 114 113.7 113.4 112.8 112.1 113.1 113.4 114.1 115.3 117.3 118.4 120.5 121.5 120.8 120.1 120.9 115.5 114.2 117.4 116.1 117.2 118.5 117.4 118.2 119.7 118.2 117.4 117.3 117.5 117.8 116.4 116.8 119.8 121.9 121.9 121.6 121.8 122.9 125.1 127.9 130 131.6 132.6 133.1 133.9 137.9 140.8 143.4 144.3 145.6 148.4 149.6 152.7 156.1 159.9 164 168.4 172.7 173.6 175.8 173.3 173.2 186.8 189.8 192.1 196.5 200.6 203.3 205.7 207.7 205.2 210.4 212.8 214.3 215.2 217.4 220 222.6 224.5 228.8 235.2 245.8 262 279.5 295 310.4 330.9 357.9 392.2 413.3 416.4 415.1 408.4 406.7 405.9 405.2 404.8 403.2 401.3 398.3 396.3 391.8 383.1 385.3 375.7 365.7 355.7 348.8 345.8 343.1 346.1 347.6 349.7 354 355.8 355.1 351.3 348.9 344.3 337.5
124.1 133.2 135.8 135.1 132.8 130 127.2 124.4 123 124.1 129.9 133.4 135.7 137.1 137.9 136.8 135.4 134.9 134.4 133.4 132.2 131.8 130.1 128.2 125.8 124 122.6 121.4 121.5 122.1 120.5 118.7 118.8 118.4 118.2 118.2 117.6 117.3 118 118.7 117.1 116.5 116.3 117.2 119.2 119.5 119.7 119.8 120.2 120.3 122.1 124.3 124.1 122.1 118.7 116.4 116.5 117.3 117.5 124.3 125.2 125.7 125.1 120.9 120.2 121.6 122.1 121.9 121.5 121.6 121.9 121.7 121.4 119.8 118.1 117.5 117.6 115.3 114.8 114.2 113.8 113.5 113.2 112.8 112.4 112.8 113.4 114 115.5 116.2 116.8 118.4 119.3 120.3 120.9 122.6 116.7 114.1 113.9 114.3 114.9 116.3 115.9 116.6 117 117 115.8 116.6 116.6 117.3 114.7 116.1 119.5 121.6 123.2 122.3 123 124.2 125.7 128.7 131.2 133.4 135.5 136.2 135.8 139.4 141.8 143.5 145.5 148 150.1 151.1 154.3 157 159.3 163.5 166.9 170 170.5 168.7 172.5 181.7 185.6 188.9 192.1 196.5 201.6 205.1 207.8 209 210 208.5 209.8 212 214.5 217.6 220.9 224.5 228.6 233.1 238.5 245.9 258.7 280.9 299.8 316 337.6 362.5 397.4 413 423.9 427.4 423.8 413 406.7 406.1 405.7 406.4 405.3 404 405.9 403.1 396 384.2 377.3 370 363.8 354.8 348.3 344.8 345.6 346.9 349.1 353 354.5 354.5 353 351.2 346.4 340.2
123.6 123.3 129.7 132 133 131.4 129.1 126.8 123.7 124.1 131.1 133.3 136.8 138 137.8 137.1 136.1 135.4 135 134.2 132.6 131.6 130.7 129.5 126.6 123.2 121 121.9 121.4 121 120.6 118.7 118.8 118.2 118.1 119.9 119.8 117.8 116.6 115.9 116.7 116.3 116.5 116.8 115.3 115.7 117.3 117.2 117.8 119.7 120.7 121.9 123.7 122.3 119.6 115.7 114.8 115.7 116.2 119.2 124.5 126.4 122.9 120.3 118.9 118.8 121.4 121.9 121.2 121.9 121.7 121.6 121.1 120.1 118.5 117.5 117.3 116.6 114.7 113.9 113.6 113.3 113 112.3 112.9 112.3 113.3 113.8 115 115.9 116.3 117.3 118.9 119.6 120 120.8 118.9 116.9 115.9 113.6 113.4 116.1 115.6 114.6 114.2 114.8 114.4 114.5 114.5 114.5 113.8 116.3 118.2 119.7 121.4 123 124.3 126.6 128.9 131.2 132.4 134.8 137 137.9 138.3 140.7 142.8 144.9 146.9 149.3 150.6 151.9 154.3 156.9 160.3 162 163 162.1 171.3 168.7 176.9 180.2 183.6 187.1 191 195.9 201.4 206.4 209.3 209.2 210 211.5 212.9 214.2 215.3 218.3 222.1 226.4 230.3 235.2 240 247.9 260.3 278.7 299.2 320.1 341.3 372.6 405.9 420.1 425.7 431.5 430.7 426.8 421.2 414.4 407.8 406.9 405.3 404 402.1 399.9 397.4 390.2 381.2 374.9 367.9 357.7 351.8 347.5 346.7 346.5 349.1 354.2 354.2 354.8 354.4 352.3 348.4 340.9
123.6 122.9 123.3 123.2 123.8 124.8 126.6 127.4 124.4 123.7 127.8 131.9 136 137 137.5 136.9 135.9 136.7 136.6 135.1 133.8 132.4 131.4 127.4 128.1 121.3 121.9 122.2 121.4 120.2 119.2 118.2 118.1 118.1 118.1 118.7 119.2 119 117.3 118.3 117.3 116.1 115.1 115 114.3 113.9 114.9 116.1 115.2 117.4 118.9 120 121.5 121.3 118.7 115.2 114.3 115 115.5 116.7 120.3 125.6 122.7 119.7 122.5 123.1 117.3 120.1 118.9 118.6 119.5 120.7 121.2 120.5 118.5 119.2 117.8 116 114.7 113.6 113.4 113.2 113.1 113.2 112.8 112.8 113.2 114.4 115.6 116.8 117.3 119 119.3 119 119.4 120.3 119.3 114.9 117 115.4 113.5 114.8 113.9 112.2 112.3 112.5 112.4 112.4 112.8 112.8 113.5 115.5 116.8 118.4 121.2 123.8 126.3 128.6 131.2 135.2 135.9 135.8 137.3 138.2 139.1 141.1 143 144.5 146.3 148.8 150.7 152.1 154.4 156.2 155.7 157.8 160.8 166.6 171.1 173.2 176.4 179.4 182.7 185.4 188.9 193.3 198 204.1 207.9 208.4 208.6 210.2 213.1 215 216.4 219.4 222.9 227.4 231.7 237.1 242.9 250.8 262.9 274 291.6 316.4 346.1 378.6 407.1 420.6 427.1 431.1 429.9 426.1 422.2 416.7 411.4 409.1 408.1 405.5 404.2 400.2 399.1 389.4 374.1 363.6 362.3 355.6 352.6 350 347.7 347.1 348.2 354.4 356 355.7 355.2 352.9 347.7 339.4
123.5 123.3 122.2 122.2 122.2 123.6 121.8 123.1 123.1 123.7 126.3 129.2 131.7 133.3 134.6 135.6 136.2 136.1 135.6 135.1 134.1 132.8 129.7 127.9 124.1 121.5 122.6 122.3 120.6 119 117.7 117.9 117.8 117 117.2 119 119 118.2 117.8 116.9 117.2 117.8 117.2 115.6 114.4 113.5 113.9 113.6 113.3 114.4 117.3 117.7 118.4 118.6 116.6 116.3 115.5 115.6 115.5 115.8 115.9 117.9 121.2 122.7 122.8 120.7 116.1 118.6 116.5 115.9 116.5 116.9 118.2 118.9 117.6 117.6 118.5 116.2 114.5 113.4 113.1 113 112.8 112.9 113 114.6 114.2 115.3 116.8 117.4 117.7 118.4 118.9 117.8 118.8 119.6 118.9 114.2 114.2 113.5 113.7 113.7 112.8 112.6 111.6 111.7 111.8 111.6 112 112.1 112.9 113.7 115.6 119.1 122.6 125.3 128 131.3 135.3 137.5 137.3 136.9 137.4 138.4 139.2 140.6 142.3 143.8 145.4 147.4 147.9 148.9 152 154.9 159 162.8 166.8 168.8 171.6 174.3 177.2 179.3 182 184.8 187.4 190.7 194.3 198.3 203.3 205.9 205.3 207.7 211.7 214.3 215.7 219.1 222.9 227.1 232.9 237.6 242.5 251.5 265.8 279 293.3 314.2 342.5 378.2 407.2 419.5 424.9 430.4 429.7 426.5 422.8 417.4 412.8 411 409.2 407 405.8 402.5 399.6 389.3 376.3 377.4 376.8 368.4 357.3 350.6 349 348.9 347.2 351.3 354.6 353.7 352.5 353.2 350.2 342
123.4 123.1 122.9 122.2 123.8 122.2 121.6 121.6 121.4 121.8 123.4 126.3 127.3 127.8 130.1 132.5 134.5 135.3 136.4 134.7 132.9 132.2 128.7 128.3 121.9 123.6 123.6 122.5 119.7 117.7 117.3 117.5 117.3 116.9 117.1 117.5 118.5 118.1 117.4 116.5 117.2 116.4 117.1 116.5 115.7 114.3 113.2 112.6 112.4 113.1 115.1 116.6 117.1 116 115.8 116.1 116 116.4 115.9 116.5 117.4 118.2 117.9 116.4 116.1 114.9 114.3 118.6 119.7 116.1 115.4 115.6 116 117.3 118.2 115.7 115.9 114.6 113.6 113.1 113 112.9 112.8 113 112.6 115.5 116.3 116.3 116.9 116.5 116.7 116.3 116.2 117 117.3 119 118.7 115.5 113.1 113.2 113.3 113.7 113.2 112.7 111.3 111.3 111.2 111.4 111.2 111.7 112.2 113.7 116 119.4 122.9 127 130.1 134.2 137.4 138.5 138.4 137.6 137.5 138.3 139 140.1 141.3 142.6 143.5 145.1 147.7 152.3 155 158.5 164.5 165.6 168 169.8 172 174.3 177.1 179.4 181.8 184 186.1 188.2 189.8 192.3 197.9 199.6 197.3 205.7 207.3 212.9 215.1 218.4 222.8 228.2 233.8 237.1 245.7 255.8 267.1 285 306.4 327 346.2 376.1 408.8 422.5 424.9 431 430.2 427.2 423 419.1 414.1 411.8 409.7 407.8 407.5 405.8 401.4 385.8 386.1 381.6 382.6 380.6 370.7 358.9 352 347.8 345 343.1 346.9 348.4 347.6 345.3 343.9 339
123.3 123.1 122.4 122.1 122 123.1 121.6 121.7 121.7 121.1 121.3 122.5 124 124.8 127.2 129.6 129.6 131.8 134.4 132.2 130 129 128.5 125.3 123.7 123.7 122.2 120.6 118.6 117.7 117 116.6 115.7 116 116.3 117.8 119.3 120.2 118.4 117 114.3 115.7 115.5 115.7 114.3 114.9 114.5 112.5 111.9 112.7 114.6 116.2 115.3 115.1 115.4 115.6 113.8 113.8 116.4 116.3 118.8 119.4 118.7 117.1 115.6 114.3 113.6 114.1 116 120 118.5 116.7 116.8 115.9 115.1 117.1 116.6 116.8 116 113.2 113.3 113.2 112.9 112.9 112.8 115.2 115.3 116.6 116.4 116.3 114.8 115.4 115.4 116.1 117.3 118.4 118.7 118.6 115.1 112.9 112.9 112.7 112.3 112.9 111.8 110.9 111 110.5 110.9 110.8 112 112.6 116.3 119.8 122.9 127.4 130.9 133.3 135.3 136 138.2 137.9 137.7 138.2 139.1 139.9 140.7 141.6 144.2 146.8 148.8 151.2 156.1 161.8 164.5 166.2 168.4 169.3 171.8 173.4 176.1 178.8 180.6 182.7 184.4 181.5 180.8 184.3 186.9 190.7 195.9 200 206.7 208.3 212.7 216.6 219.8 224.4 230.7 237.6 252.2 261.3 275.3 294.6 320.7 345.2 363.6 383.1 415.1 428.2 428 427.9 429.5 429.3 424.4 420.8 415.6 411.9 408.1 403.8 400.5 395 392.3 394.7 394.4 385.3 385.4 380.9 376.4 370.5 361.1 351.1 344.3 340.8 337.8 336.1 334.3 334.7 333.7 330.1
123.1 123.4 123 122.9 127.6 126.5 124.7 122.5 123.1 120.5 120.7 120.9 121.3 125.7 126.5 127.4 127 127.3 127.9 127.7 127.4 127.4 125.6 122.3 124.1 123.1 121.2 120.1 118 117 116.1 115.8 115.5 116.1 117.3 117.4 122 119.5 117.2 115 113.2 113.4 113.2 112.3 111.8 114.5 114.6 113.1 112 113 115.2 115.4 114.6 115 113.8 112.7 112.4 112.4 113.3 115.8 119.4 119.4 118.9 117.4 116.4 114.9 113.2 112.6 113.8 113.8 117.6 115.5 117.2 116.5 119.7 119.4 114.6 115.2 115.4 113.8 114.9 116.1 113.3 114.6 115.3 116.4 114.8 116.4 117.8 116.1 114.2 114.6 115.8 116.1 117.1 118.3 118.3 118.7 118 115.6 112.9 112.6 112.1 112.2 112 111.2 110.9 110.7 110.9 110.5 111.4 111.6 115.8 119.8 122.6 127.2 129 131 133.1 135.7 137.8 138.6 138.2 138.4 138.6 139.3 140 141.4 143.2 145.7 147.9 152.3 157.6 160.2 165.8 166.9 168.8 169.9 170.5 172.6 173.7 176.8 178.5 180.8 178.4 176.7 186.7 191.4 194.1 196.9 197.6 198.5 201.8 204.4 207.7 212.2 219.3 225.3 230.7 240.2 255.1 269.5 284.1 304.4 326.6 353.5 374.5 386.1 422.2 439.3 441.1 435.9 429.2 425.5 423.8 421.3 416 411.7 408.1 402.1 400.9 402.9 401.3 399.6 394 389 387.4 380.8 376.3 371.7 366.3 360 350.8 344.2 336.9 332.4 329 326.5 324.5 320.2
124.2 123.9 123.5 124.6 126.2 125.8 125.6 125.6 125.9 124.1 121.3 120.5 122.3 126.4 126.2 125.9 125.9 125.5 126.3 126 125.7 125.4 125 121 123.1 122.2 121.4 119.7 118 116.5 115.7 115.3 115.2 116.1 116.1 117.4 118.5 117 117.2 113.4 111.3 110.8 110.7 110.2 111 111.8 114.5 114.2 111.5 111.7 114.1 115.1 113.2 113.4 112.6 111.6 110.8 111.1 112 114.1 115.4 116.2 116.5 114.3 112.9 113 112.3 113.9 115.7 114.5 114.3 117.5 119.4 120.5 119.4 117 119.9 117.8 114.8 114 116 113.1 112.8 113.6 116.4 117.8 116.8 117 117.9 117.4 116.1 116.5 116.3 116.2 116.2 117.9 117.4 118 117.2 117.4 116.2 113.6 112.4 111.9 111.3 111.3 111.4 111.2 111 111.2 110.6 110.9 115.5 120 122.5 125.6 127.5 129.2 130.9 134.3 137.6 138.3 136.9 136.9 137.3 138.7 139.3 141.1 142.9 145.3 149.4 155.7 161.9 165.1 165.5 166.3 167.5 167.2 169 171.2 173 174.8 175.3 177.6 172.3 179.1 185.9 189.4 191.7 191.4 193.8 195.5 199.9 205.3 210.1 214.3 219.6 229.9 234.5 242.1 259.2 270.6 287.2 311.3 333.1 356.8 386.7 393.8 437.8 447.4 450.8 449.2 442.3 438.9 432.4 425.1 424.7 421.1 416.5 410.9 403.4 402.2 399 396.4 393.3 387.8 382.7 378.2 374 370.2 366.5 361.9 356.5 349.6 343.7 337.7 331 325.5 320.9 317.8
124.2 124 124 126.3 126.8 126.7 126.5 126.1 124.6 121.3 120 120.3 120.8 123.8 124.8 125 125.2 125.3 124.4 123.7 123.1 122.9 122.8 122.9 122.1 121.2 120.6 118.8 116.9 116.5 116.3 115.2 115.3 115.5 116.7 116.9 116.8 116.9 116.3 115.3 111.4 111.6 113.4 114.1 112.6 110.9 111.7 111.6 114.1 113 110.8 112.1 112 111.6 111.5 111.5 111.5 110.9 110.6 111.1 110.1 110.9 112.1 111.3 113.1 112.5 112.1 114.5 116.6 113.9 113.8 115.8 116.7 120.3 119.5 118 119.5 118.7 114.3 113.5 112 112.3 113 115.2 116.3 117.5 115.5 116.5 117.4 116.9 116.8 116.6 116.9 116.2 116.2 117.8 117.5 117.6 118.9 118.5 116 115.2 114.9 114.5 114 112.1 112.6 110.8 111 110.8 110.5 110 113.9 118.2 122.6 124 125.7 127.8 130.7 133.9 135.9 136.5 136.3 136.1 136.8 137.1 138.8 139.9 141.1 144.4 149.8 156.9 162.5 162.2 163 164.3 163 165.4 167.5 168.5 170.7 173.1 170.4 171.7 172.9 178 183.1 185.7 187.1 186.6 193.6 197.1 200.7 206 211.3 216.5 226.3 230.4 240.4 252.3 271.4 295.2 310.2 322.8 341.9 370.4 387.2 404.2 440.6 447.4 456.9 458.9 449.7 441.3 436.7 436.7 432.7 430.7 433.1 427.6 415.9 407.6 401.7 399.3 392.8 386.7 379.5 374.5 371 368.4 364.5 360.7 356.4 352.3 347.5 342.6 337.2 331.2 324.9 320.4
124.3 124.1 125.4 126.2 127.2 127.2 126.4 123.9 121.8 121.1 120.1 120.6 120.2 120.2 121.9 122.7 122.9 122.2 121.7 121.4 120.7 120.3 120.7 120.6 119.9 120 118.8 118 116.5 116.1 116 115.8 115.1 115.3 116.7 117 116 116.2 115.4 115.8 113.1 113.2 113.8 114.7 113.4 111.6 110.8 110.6 113.4 113.4 112.3 111.1 111.1 110.9 110.9 111.3 111.3 111.5 111.9 111.3 110.4 110.6 111.7 110.8 110.6 110.5 111.3 112.9 114.6 114.6 114.2 114.8 115.5 114.3 117.2 121.6 121.1 118.8 113.3 114.6 114.3 113.6 120.9 118.9 116.6 116.6 116.6 117.4 117.2 116.9 117.2 116.7 116.6 116.4 116.9 116.6 117.7 117.9 120.6 119.5 117 115 115.2 115.8 116.5 115.6 115.9 113.9 111.1 110.6 110 111.5 113.1 117.2 120.5 122.8 124.2 126.4 129.7 133.1 135.3 135.3 135.6 136 135.7 136.5 137.7 137.8 139.9 144.1 150.5 156.5 160.7 160.9 161.6 162.1 159.9 163.9 165.1 166.4 167 166.4 171.1 176 178.7 180.8 182.4 184.1 181.9 185.9 191.4 194.9 201.3 205.5 209.3 220.3 228.3 234.2 243.9 258.3 277.7 300.6 332.6 349.2 368.1 384.6 415.7 433.8 439.9 441.9 443.6 446.9 445.6 442 444.2 442.6 437.8 434.2 434.2 427.7 423.7 416.5 409.7 401.5 392.5 384.6 376.7 370.4 368.9 367.8 361.3 356.4 353.5 350.5 347.1 344.9 339.9 337 332.5 327.3
124.4 124.5 126.1 127 126.6 126.3 123.3 121.8 121.4 120.7 120.5 120.7 120.4 119.9 120 119.6 119.3 119.2 119.8 118.6 118 118.4 118.6 117.9 117.2 117 118.5 118.3 116 115.8 115.6 115.4 115.3 115 114.9 116.4 117 116.4 116.1 115.6 115.5 114.7 116 115.9 114 111.2 110.6 110.9 111.6 112.7 111.5 110.9 111.3 110.7 111 110.8 110.7 110.6 111 111.2 111.5 111.9 112.4 110.7 110.1 110.5 110.9 110.1 110.7 111.8 113 114.1 115.8 115.3 115.3 120.1 120 117.2 112.5 117.6 119.1 120.2 121 121.1 119.2 120.7 120.4 117.8 117.9 117.4 117.1 116.8 116.4 116.1 115.9 115.9 117.7 118.1 119.7 119.3 118.5 115.1 114.6 114.7 115.8 116 115 114.8 114.1 111.1 110.6 111.3 112.7 115.5 118.3 121.1 123.3 125 127 130.8 131.6 133.4 134.6 135.8 134.9 135.3 136.1 136.7 139.1 143.7 149.7 153.7 157.9 160.1 159.9 158.1 158.2 161.9 163.3 164.1 162.6 164.4 169.7 174.7 178.4 178.6 175.3 177.8 181.4 186.6 192.3 197.9 200.3 204.2 211.5 217.3 231.5 238.9 253.2 272.1 294.4 317.1 340.4 365.3 392 414.9 425.4 440.2 445.9 446.3 445 440.7 437.2 434.7 437 443.6 443.6 438.2 434.6 424.9 419.4 415.5 411.3 401.3 391.8 385.4 376.4 368.4 368.9 366.7 360.2 354.8 349.6 346.7 346.2 345.7 347 346.9 341.7 334.7
124.2 124.3 126.1 127.5 126.8 124.2 121.9 121 122 122.3 122.2 120.4 119.9 119.4 119.8 119.3 118.9 119.3 118.9 118.6 118.2 119.4 118.1 117.8 117.3 116.8 116 116.6 115.9 115.8 115.5 115.2 115 114.2 114.3 114.5 114.1 116.1 117 115.6 114.7 116.1 116.6 115 111.7 111.8 111.8 111.6 109.8 110 109.9 109.1 109.9 109.9 109.5 109.9 110.2 110.4 110.5 110.7 110.8 111.3 111.3 110.8 110.1 109.8 110 110.1 110.7 110.8 110.7 111.2 113.8 115.6 116.9 118.9 120.2 117.2 112.8 116.5 118.7 123.6 123.7 120.8 118.4 120 120.8 117 122.2 122.5 119.4 117.6 118.2 117.5 115.7 115.6 116.8 118.3 118.4 118 118.5 116 114.1 113.4 115.5 116 115.3 115 114.4 112.5 110.7 111.1 111.6 113.9 117.2 119.9 122.3 123.6 124.9 127.4 129.2 132.2 135 135.8 134.2 134.4 134.9 135.5 137.9 143.2 149.1 154.2 157.9 158.9 157.8 156 157.2 159.8 161 161.5 160.6 163.9 167.4 172.3 175.5 171.7 175.8 181.3 184.9 188.4 190.7 192.7 200.3 206.3 214 218 230.2 242.4 264.4 285.9 308.5 331.7 354.9 383 414.3 427.8 432.7 440.2 443.6 444.5 444.6 441.2 441.6 435.4 428.5 423.1 424.1 426.6 430.6 425 419.6 411.5 400.9 392.8 387.5 384.3 380.1 368.1 369.2 362.3 357 355.5 350.1 344.8 346.9 347.1 348.2 348.2 344.7 340.8
124.4 123.8 124.9 125.6 124.2 122.5 121.5 124.3 124.6 124.6 124.6 124.1 122.8 121.7 119.5 119.1 119.1 119.2 118.3 118.7 118.3 121.1 117.5 117.3 116.9 115.4 116.4 116.2 116 115.7 115.4 115.1 114.3 114.2 114.6 118.7 112.3 115.9 116.3 114.2 114.2 114.2 111.5 110.9 111.7 111.1 111.2 111.1 110.8 110.3 110.4 109.5 109.2 109.4 109.5 109.5 109.7 110.2 110.2 110.9 109.8 109.7 109.7 109.7 110.2 110.5 109.9 110 110.4 110.9 111.4 111.5 111.2 114.2 116.6 118.7 119.6 116.9 114.4 114.6 116.6 123.6 125.7 120.6 117.5 117 117.8 117.7 120.2 118.8 117.9 116.4 115.8 115.8 116 115.2 116.2 117.8 117.9 117.8 117.6 117.2 114 112.7 115.1 115 115.7 115.1 115 114.2 110.5 110.9 110.8 112.5 115.1 117.9 121.3 122.2 123.5 125.5 128.6 130.8 133.1 134.5 133.8 134.7 134.7 135.2 136.6 141.1 148.2 155 156.1 158.5 156 155.6 156.6 158.1 159.2 158 159.6 162.7 165.9 169 168.5 175.2 178.5 181.2 181 182.8 188.9 196.5 202.6 210 214.5 220.9 230 252 272.4 292.7 311.4 336.4 366.8 412.7 429.5 433.3 439.9 442.8 443.7 444.4 443.6 442.1 443.5 442.5 441.8 433.6 423.7 413.8 408.9 407 400.6 394.8 391.1 387.3 386.8 384.8 380 372 362.2 365.4 360.7 348.1 339.7 345.5 348.8 350.9 350.1 346.9 342.7 339
125.4 124.8 123.7 123.2 122.3 121.7 124.3 125 126.1 126.8 126.4 125.4 123.7 122 121.5 119.1 118.9 119 119 117.7 118.6 119.2 118 117 116.8 116.2 116.3 116.2 116.1 115.9 117.7 118 116.8 115.8 115.4 115.7 114.4 115.2 114.9 114.5 114.1 114 111.8 111.8 111.8 111.3 111.4 111.4 110.5 110.4 109.8 110 109.6 109.8 108 109.5 109.4 109.6 109.9 109.6 110.1 110.2 109.9 109.8 110.4 109.9 109.7 110 110.4 111 110.9 111.8 112.1 113 115.9 118.2 118.8 117.3 116 112.3 115.3 118.5 125.5 121.7 116.9 115.3 115.1 115.3 115.9 115.4 115.8 114.7 114.4 114.9 115.8 115.6 114.9 117.1 119.1 117.7 118.3 118 115.5 113 113.5 114.4 114.8 114.3 113.2 114 112.9 110.7 110.6 111.3 113.4 117 120.2 121.2 121.5 123.8 126.7 128.3 131.5 132.6 132.9 133.4 134.2 134.3 135.1 138.3 145.3 152.8 155.9 155.9 154.1 153.3 154.1 155 157.9 155.3 159.9 160.9 161.5 165.6 171.5 173 175.5 174.8 179.2 186 190.3 194.6 199.4 206.8 213.3 218.8 228.8 247.1 272.1 293.3 312.9 338 370.4 406.3 426.9 438.1 441.8 441.1 441.1 442.2 442.7 441.7 442.7 440.6 440 438.7 432 422.8 413.1 406.4 403.8 400.4 393.5 390.1 392.5 386.9 381.8 373.9 368.2 355.9 360.6 352.2 335.3 347.9 348.5 349.2 346.3 343.7 342.4 337.9
126.8 125.7 123.9 122.5 122 122.6 124.1 124.5 126.1 127.6 127.4 126.3 124.3 123.1 122.5 121.7 120.2 118.7 118.8 118.9 120.3 118.6 118.1 116.9 116.7 115.6 116.3 116.2 116 116.5 119 118.9 117.7 116.2 115.5 116.6 114.9 114.6 113.9 113.1 112.7 112.8 113 111.6 112.2 113.3 111.9 111.8 111.4 111.6 110 109.7 109.4 110.4 109.6 109.6 109.4 109.7 109.7 109.5 110.2 110.2 109.8 110.4 110.5 110.6 109.6 109.9 109.4 109.7 109.9 109.8 110.5 111.9 115.3 118.8 118.7 116.4 113.5 112.9 114.8 114.2 118.7 122 119.5 116.2 115.9 115.8 116.7 115.4 114.7 114.8 114.8 115.1 114.6 114.7 114.2 116.9 119.7 116.5 117.2 117.1 117.7 113.7 111.2 112.5 113.3 114.2 113.9 114.5 115.2 112.8 110.4 110.9 112.1 115.8 118 118.1 121.6 122.7 124.4 127.8 129.5 130.3 130.5 131.7 133.2 133.8 134.4 137.2 142.8 147.8 153.5 154.2 153.1 151.8 152.3 153.1 154 156.5 159.1 158.3 160.3 164.4 169.6 170.1 170.5 177.5 180.7 182.3 184 190.8 194.9 201.7 207.7 220.4 229.1 249.5 268.6 291.2 310.1 334.3 359.2 391.7 415.6 433.5 440.5 439.3 439.1 440.5 442 441.9 442 439.8 437.2 433.9 429 422.9 423.5 419.1 413.7 407.6 397.8 389.8 385.8 382.2 377.6 373.9 368.6 361.7 349.2 337 333.2 347.9 347.5 347.2 346.8 343.6 340.4 336
127.1 125.3 124 123.1 122.9 122.9 123.1 123.8 124.6 126.4 125.8 125.8 124.9 124.8 124.5 122.8 121.3 119.9 118.7 118.5 121.1 118.2 118 117 116.2 116 115.4 117 115.3 117.9 119.9 121.6 120 117.6 116.3 115 114.8 113.8 112.5 113.5 112.9 112.1 112.6 111.9 112.3 113.3 112.3 112 113.4 112.9 112.1 110 109.8 110.4 109.7 109.3 108.7 109.4 109.2 108.9 110.3 110.1 109.7 110 110.3 110.3 110.1 109.2 109.2 109.3 109.4 109.2 108.9 109.9 110.5 116.2 116.6 115.4 111.1 113.5 112.4 113 113.5 115.3 122.5 121.5 121 121.2 121.4 119.7 117.1 118.8 121.3 121.5 116.5 114.5 115.6 118.4 117.1 115.6 114.4 117.1 118.3 114.2 111.6 110.9 112.8 114 114.5 113.7 114 115.3 115 110.8 112.9 115.1 116 117.1 118 120.8 122.5 123.8 125.4 126.6 127.9 129.7 131.9 131.9 132.4 135.3 139 144.3 149.1 151.2 152 150.6 150.6 151.7 151.6 156.7 157 156.4 159.9 162.7 165.6 166.1 170.4 172.6 175.1 177.6 186.2 192.6 199.2 203.5 207.5 213.3 223.4 242.5 264 286 305.5 326.9 348.9 374.1 399.7 428.7 439 438 438.2 440.5 441.4 441.1 440.7 438.2 433 428.6 428.1 425.2 423.5 419.4 414.6 408.6 404.5 397.1 392.5 388 384.5 377.9 370.7 365.2 353.7 339.7 330.8 343 350.8 348.7 346.3 343 339.7 335.1
