ncols 200
nrows 82
xllcorner 400000
yllcorner 544800
cellsize 50
240.1 239.3 238.3 237.4 237.2 236.5 236.2 236.1 236.6 239.8 240.9 240.4 240.8 244.1 246.8 250.4 255.1 260.6 265.7 269.3 275.5 283.2 292 303.3 308 310.3 312.3 316.3 320.6 329.1 338.7 343 345.2 346.4 348.4 349.1 349.9 352.1 354.5 356.2 358.7 360.8 359.9 358.6 356.8 354.5 351.3 347.2 343.9 341 337.4 332.7 330 328.1 326.2 324.2 322 319.2 315.3 310.6 311.4 309.5 311.8 311.4 308.6 306.4 303.8 301.2 299.9 298.8 297.9 297.2 292.4 284.9 270.2 269.2 267.6 268 269.6 278.7 281.9 277.5 272.6 270.9 271.7 271.2 267.5 266 265.4 263.4 258.9 254.6 252.5 250.6 248.7 246.7 244.5 241.7 237.3 232 224.9 219 212.8 208.1 202.2 195 187 175.9 157.9 158.5 157.4 156 154.5 151.5 167.9 176.4 183.4 187.1 181.2 168.9 158.8 155.8 158.6 175.7 184.8 196.5 211.3 217 220.3 221.4 221.7 221.5 220.8 220 218.6 217 214.9 212.2 209.9 207.3 202.3 195.6 190 185.4 187.4 188 183.9 183 186.9 197.3 207.5 216.8 223.3 225.2 226.9 228.2 227.8 225.5 224.5 223.6 222.4 221.8 221.1 219.3 217.4 216.3 215.6 215.8 213.1 210.7 208.7 208.9 210.8 212.6 213 209.2 206.2 210.6 220 238 250.5 251.1 250.6 249.8 249.1 248.7 247.8 245.5 243.2 241 238.1 225.8 203.8 192 197.5 213 221.7 216.4 205.6 197.4
240.4 239.4 238.8 238.6 238.6 237.8 237.4 237.7 242.1 243.9 243.9 242.8 242.5 246.3 250.3 256.7 261.7 266.1 269.1 274.7 283.2 290.2 300.3 309 312.2 313.6 318.1 322.4 330.5 341.4 345.9 348.2 349.7 350.7 351.2 353.4 357.4 357.6 358.4 360 361.2 362 360.5 357.9 354.8 351.4 348 344.5 341.7 338.6 335.4 331.8 329.8 328.1 326.2 324.2 322.5 321 319.7 316.2 309.8 308.3 307 306.3 305.8 304.2 301.9 300.7 300 299.4 297.2 290.8 288.2 284.9 270.9 264.1 260.3 259.2 260.8 264.8 266.5 267.5 266.7 265.2 264 264.2 263.2 260.6 258.2 255.6 253.3 251.7 250.8 249.4 247.1 245.1 243.3 238 229 225.5 223.2 217.1 211.7 208.3 204.4 197.8 192.1 184.7 173.1 155.4 156.6 156 155.2 154.2 176.2 189.4 191.2 191.6 181 166.7 157.7 157.1 160.5 175.7 186.7 197.8 211.1 217.6 221.2 223 223.5 223.3 222.9 222.1 220.8 219.6 216.3 212.6 208.5 203 199 192.8 189.7 190.4 193.3 193.4 190.2 186.3 186.5 194.4 204.1 213.8 222 225.8 228.6 229.6 229.4 229 228.7 226.2 224.6 222.6 221.6 220.6 219.9 219.7 220 219.8 218.6 216 215.4 215.2 215.6 212.4 209.2 208.6 210.7 220.8 240.9 253.7 254.3 253.2 252.5 251.6 250.3 248.7 247.5 245.7 243.1 241.3 237.1 229.6 213.3 197 192.4 201.1 205.1 196.6 186.5 183.3
241 242 241.5 240.1 240 241.1 241 242.2 245.2 247.5 247.1 246.3 244.5 248.4 255 262.2 268.3 270.1 274.4 281.7 289.1 296 307.1 312.8 315.5 318.8 323.9 331.4 343.3 348.2 350.8 352.1 353.3 354.3 357.4 360.2 362.8 362.4 362.3 362.3 361.6 359.4 357.3 354.2 350.9 347.4 344.7 341.9 338.8 336.3 333.7 331.5 329.7 328 326.5 325 323.5 321.8 319.5 317.6 314.5 311.3 308.3 304.3 303.5 301.8 300.4 300.6 299.7 297.6 293 288.5 286.5 288.1 282.2 268.3 265.8 260.2 256.5 256.4 257.9 261.2 262.8 261.1 259.6 257.6 256.9 255.5 253 250.9 249.7 249.4 248.8 247.5 245 243.1 238 228.6 222.3 220.5 219.8 217.2 213.2 208.2 204.3 205.2 202.5 195.9 186.7 176.2 166 161.8 164.1 174 191 194.3 195.4 191.2 180.7 164.3 158.5 160.4 156.9 171.5 185.2 198 210.1 217.5 222.3 224.4 225.5 225 224.2 223.7 222.9 221.3 218.2 212.8 202.5 196.3 195.1 196.8 197.3 197.9 198.1 196.3 193.6 190.5 188.5 191.9 200.5 209.7 221.4 226.1 228.6 230.6 231.3 231.8 231.4 230.5 229.1 227.2 225.7 224.4 222.2 221.3 220.8 220.5 221.4 218.9 218.2 216 212.7 209.6 209.6 211.5 219.7 234.6 254.2 257.2 257.9 257.1 255.4 254.2 252.7 249.2 246.8 245 242.9 241.2 238.2 233.1 225 208.6 193.6 192.7 188.9 185.1 184.5 185
243.3 243.2 242.4 241.3 242.6 245.5 247.4 249.5 250.9 251.1 251.1 250 246.7 249.2 258.2 267.6 271.7 274.5 281.8 288.8 293.2 301.5 310.9 315.4 318.5 323.2 328.4 339.4 349.7 352.6 354.3 355.1 356 359.8 363.5 365.8 367 366.3 365 363.7 360.9 356.9 353.9 350.3 346.6 343.9 341.6 339.5 337.1 334.8 333 331.2 329.7 328.1 326.7 325.6 324.3 322 319.4 316.3 314.1 312.2 309.9 305.1 302.9 302.7 300.8 299.2 297.1 291.6 289 283.6 278.9 280.6 280 274.3 274.1 270.1 259.8 254.9 252.7 252.2 254.6 256.7 255.7 253 250.3 248.4 247.9 246.6 246.7 247 246.3 244.7 242.7 236.1 226.2 221.5 218.8 217.1 215.6 215.5 216.5 209 197.8 194.5 193.9 190.3 191.3 195.4 187.3 179.4 185.1 195.8 198.1 198.6 194.4 185.4 172.5 163.6 164.4 169 167.1 166.2 178.3 193.9 208.6 217.2 222.8 225.4 227.2 227 226.4 225.8 225.1 222.9 219.3 205.6 196.6 198.5 202.5 203.8 204.7 203.6 202.2 198 196.5 194.2 191.5 191.3 198.7 206 219.4 226.3 229.1 232.3 236.4 236.9 237.5 236 234.2 231.7 230.3 230 228.4 226.3 223.2 221.3 220.2 219.1 217.9 215.7 215.4 216.2 218.2 223 232.7 248.9 257.8 259.7 260.2 259.4 258.2 256.6 254.1 250.6 248 244.9 241.6 239.9 237.7 235.4 232.9 227.3 210.9 199.2 192.6 188.2 189.1 198.4
244.6 244 242.7 243.4 246 248.6 251 253.2 255.2 255.1 255.3 254.5 250.4 249.5 256.7 268.8 274.3 279.5 287.9 292.5 297.1 306.3 313.5 317.3 321.2 326.1 331.2 342.8 351.4 354.7 356 357.5 360.6 365.7 368.1 369.4 370.1 368.4 366.2 362.1 357.3 352.8 349.4 346.7 344.5 342.5 341 338.8 337 334.8 332.8 331 329.6 328.3 327.3 326.3 324.9 322.1 319 315.5 312.5 310.5 308.1 305.8 302.2 301.2 301.6 298.5 294.6 286.5 281.5 281.6 281.5 275.2 277.8 274.6 271.9 270.8 264.1 259.3 254.1 250.4 249.3 249.8 250.9 249.1 246.1 245 243.1 241.6 242.5 243.3 242.1 239.5 234.1 226.4 221.3 218.3 216.3 214.4 213.4 214.7 213.1 200.9 189.4 184.4 182.8 181.1 180.9 179.6 182.4 192.4 196.6 197 196 195.4 184.4 171.7 167.4 169.4 175.6 180.7 178.9 173.1 169.5 189.1 204.8 217 223 226.6 228.3 227.8 228.5 228.2 226.9 224.1 218.9 198.9 202.2 208.7 210.9 210.4 209.4 208 206.6 204.4 202.1 198.9 196.9 197.5 197.4 203.1 216.4 225.1 229.6 236 238.3 240.4 240.6 240.5 239.3 237.1 235 234.1 232.3 231.3 228.4 225.5 224.8 224.8 226.7 228.9 229.9 231.6 235.5 242.3 248.4 255.3 258.9 260.4 260.7 259.7 258.3 256.9 254.7 251.3 248.1 243.2 238.9 237.7 237.7 237.4 235.3 233.5 230.4 221.6 207 192.9 198 215.8
245.9 244.1 244.4 246.6 249.5 252.3 254.8 257.2 259.2 259.2 259.5 259 257.5 254.4 254.1 262.7 273.8 281.5 289.4 294.3 300 308.5 315.1 318.7 323 328.2 333.1 343.5 353.1 356.9 358.7 361.9 366.6 370.6 372.9 373.4 372.7 370.2 367 362.5 356.9 353 349 346.9 345.1 343.2 341.2 339 336.8 334.8 332.2 330.5 328.9 327.6 326.3 326.2 324 320.5 317.2 315 311.9 308.4 305.5 302.9 300.8 299.2 297.9 296.9 290.5 283.9 289.2 289.2 283.8 279.2 272.3 269.7 268 268.4 265.6 262.3 258.7 253.2 248.8 246.8 245.2 244.2 243.1 241.2 237.7 236.4 235.5 234.5 234.5 231.8 227.8 222.9 219 216.9 215.3 213.2 210.9 207.3 197.8 187.6 182.6 181.4 183 183.7 184.7 183.5 182.2 183.5 186.4 187.7 185.8 182 174.5 173.3 183.7 189.6 193.6 196.2 193.1 181.4 169 185 203 218.2 226.2 228 222.8 219.1 223 225.4 226.1 224 220.5 203.8 212 219.6 216.8 215.2 214.2 212.7 211 208.6 206.3 203.3 202.5 203.4 205.5 200.9 212.9 222.4 229.2 234.8 238.1 240.9 243.4 244.4 243.9 243.7 243.7 243.4 243.1 240.3 238.6 239.2 240.6 243.8 245.3 246.9 247.1 248.5 253 257.1 257.1 257.2 259.2 260.2 260.1 259.1 257.6 256.1 254.1 251.3 248 244.5 240.7 237.3 233.6 232.7 234.1 232.6 231.2 227.3 212.3 199 214.3 223.4
247.6 245.6 247 250.3 253.8 256.8 260 262.1 265 265.7 266 265.8 264.5 261.9 257.6 258.5 266.3 276.9 285.5 293.2 299.7 306.9 315.1 319.9 324.6 329.9 334.5 343 355 359 361.5 365 369.4 372.8 374.4 374 373.2 370.7 367.1 361.8 356.3 352.6 349.5 347.7 346 344.1 342 339.5 336.6 333.7 331.5 329.9 328.2 326.4 323.9 322.3 321 317.9 315.7 313.9 310.6 309 305.6 301 298 296 294.4 293.8 288.3 291 289.4 289.2 285.8 283 276.3 269.7 267.7 263.1 260.4 257.1 254 250.8 248.9 246.2 244.2 243.1 241.9 242.2 243.9 243 238.8 233.1 226.5 222.6 220.5 218.2 215.7 213.1 211.1 207.5 203 196.6 187.2 183 185.7 189.7 192.3 191.8 191.6 190.5 188.6 185.9 184.9 185.9 185.8 186.1 185.6 192.5 202 201.1 205 206.7 204.7 188.5 173.1 185.9 204.5 220 227.5 223.5 226.3 228.3 220.6 213.9 210.8 210.8 207.4 209 214.5 225.3 222.2 220.6 219.4 217.9 215.7 213.9 209.5 207.5 207.1 206.1 210.2 210.6 203.7 220.3 227.9 234.2 238.4 241.8 245.5 248.2 249.9 251.2 253.1 253.6 254.1 253.6 253.4 253.6 254.1 254.7 255.3 256.7 258.6 259.3 260.8 261.1 259.7 259.3 259.1 259.3 259.1 257.4 255.5 253.9 252.7 250.9 248.1 244.6 240.2 235.4 230.7 225.1 222.7 218.9 218.1 214.6 205.5 214.1 225.7 226.3
248.3 247 251.2 255.2 259.1 262.2 264.9 269.7 274 274.4 273.5 274.2 273.8 271 267.8 265 263.8 267.8 278.6 288.4 296.7 304.5 314.9 320.1 325.3 330.8 335.6 344.7 356.7 361 363.3 366 370.6 374.2 374.8 374.1 372.1 369.6 365.8 360.4 355.9 352.7 350 348.2 346.4 344.8 342.4 339 335.2 332.7 331.2 329.4 327.5 326.7 325.6 324.8 322.9 320.6 319.4 316.9 314.1 311.9 308.2 302.2 299.3 297.1 294.9 294.5 296.6 293.9 290.1 290.4 289 284.3 278.9 274.1 269.1 265.1 263.6 260.8 257.3 254.2 251.5 251 247.5 245.6 244.5 244.8 245.5 241.6 238.3 234.5 228.6 222.4 214.1 209.2 207 205.3 202.9 199 193.1 186.2 186.3 190 194.3 198.3 199.3 199.4 198.5 197.3 198 199.8 203.8 206.3 208.1 208.4 207.1 206 209 209.4 212.1 212.3 206.4 190.2 174.1 188.3 207.3 222.6 226.3 226.6 231.8 234.4 234.3 234.2 227.3 225.4 225.2 225.8 228.5 229.6 228 227.7 227.3 224.3 221.4 219.7 215.9 214.1 212.4 210 214.5 217.3 213.6 215.5 225.1 232.6 237.9 241.6 246.1 250.2 254.3 257 261.6 263.5 262.1 261.7 261.2 261.8 262.4 262.6 262.4 262.1 263 263.4 262.5 262.1 261 260.3 259.4 259.2 257.9 256.1 254.3 252.5 250.8 249.8 247.8 245.2 239.6 234.9 232.3 227 227.9 228.4 227.3 224 225.1 230.4 231.3 230.5
249.3 250.7 256.8 261.4 264.7 268.5 274.2 279.8 283 282.3 279.8 280.4 281.3 280.2 277.8 276.5 274.6 271 271.4 281.9 292.8 301.7 313 320.2 325.1 331.4 336.1 344.8 357.4 362.2 364.1 366.4 370.6 374.8 375.9 373.4 371.2 368.4 363.9 359.4 355.5 352.4 349.9 348.2 346.3 344.4 341.9 338.7 337.7 334.3 332.5 331.2 330 328.6 327.3 326 324.3 322.3 320.4 318.6 315.6 312.9 310.4 307.1 304.5 301.9 298.9 295.8 294.1 293 289.5 287.9 288.9 286.1 281.9 278.3 273.9 267.3 262.7 261.7 259.6 257.1 254.5 249.8 246.3 243.9 242.4 242.3 241.9 240 237.3 235 228.5 220.8 212 204.6 199.9 196.8 194.4 191.2 187.8 187.3 192.5 198.9 203.1 204 205.2 206.9 207 210.1 214.5 219.4 223.5 224.6 223.6 221.2 217.4 213.1 217.7 216.8 217.4 216.6 206.2 192.3 179.5 185.9 208.6 225.1 229.3 230.9 231.8 235.4 238.6 240.5 241.1 242.3 240.2 233.5 233.4 233.6 232.2 230.8 229.7 228.6 227.8 226.4 224.4 221.4 219.8 219.2 221.1 223.8 223.2 208.3 220 228.2 234.9 239.6 244.5 250.9 255.1 259.7 265.1 265.8 265.8 265.4 264.9 265.6 266.1 266.5 265.6 265.2 265.5 265.1 264 262.6 261.6 260.7 259.6 258.2 256.8 255.1 253.3 250.7 248.4 247.3 245.5 243.6 241.7 237.1 234.8 236.1 236.1 236.1 236.1 236.3 236.8 236.5 235.4 233
251.3 257.3 264.2 268.2 271.9 278.6 284.5 287.1 287.5 286.5 285.2 285.6 287.3 287.2 286.3 284.8 284.1 283.4 279.5 276.9 286.9 297.2 306.5 319.1 324.6 330.6 335.8 343.2 355.6 361.4 363.5 365.2 368.9 374.2 374.8 372.5 370.6 367.1 362.6 358 352.3 350.2 349.3 347.9 346.3 344.5 342.3 341.3 338.8 336.2 334.9 333.3 331.6 330.1 328.7 327.3 325.6 324.4 322.3 319.5 317.3 315.6 313.7 310.8 308.5 305.7 303.3 299.9 295.1 292 288.3 285.2 289.7 287.1 283.8 280.4 273.2 267.1 263.2 259.7 260.5 257.5 253.6 248.5 244.5 241.7 239.8 236.9 234.6 234.9 233.8 231 224.5 214.9 205.2 202.9 202.5 200 196.8 195.2 195.4 197.5 201.3 207.7 210.1 209.7 214.3 219.1 220.5 226.2 229.3 229.6 229.6 229.6 229.3 227.7 223.9 219.1 223.3 222.4 221.8 216.5 207.1 197 188.9 185 211 226.3 232.9 236 235.8 238.5 241.2 243.3 243 245.4 245.6 242.5 240.2 240.1 238.5 235.6 233.2 231.7 230.1 228.2 227 225.8 224.8 226.4 225.4 224.6 223.1 213.3 215.7 223.7 228.6 236.2 240.7 247.2 253.7 258.7 265.1 266.1 266.8 266.7 267 267.3 267.4 267.8 267.3 267.1 266.7 265.5 264.5 263.1 261.9 260.2 258.9 257.6 256.1 254.7 252.7 250.2 248.3 248.5 247.7 246.1 244.1 236.4 234.9 237.4 239.9 241 240 239.1 238.3 237.4 235.7 233.6
255.6 264.6 271.4 273.9 281.2 287.9 291 292.1 291.9 292 292.6 292.4 293 293.2 292.9 292.1 292 290.9 288.8 281 281.5 292.8 302 315.3 324.3 329.7 335.2 340.3 350 356.8 359.2 362.3 366 370.2 372.1 370.4 368.1 365 360.8 354.8 353.9 351.1 349.8 348.1 346.6 345.1 344 342.9 340.7 338.5 336.9 335.1 333.4 331.8 330.8 329.4 327.8 326.2 324.7 323.1 321.1 318.7 316.9 313.5 311.1 307.3 305.1 302.6 298.6 296.6 293.8 286.1 282 283.5 280.9 276.6 271.4 267.8 265.6 259.4 257.5 256.3 252.1 247.2 243.7 241.1 237.2 231.8 227.5 226.1 225.2 223.6 218.9 207.6 200.9 204.6 207.2 207.2 204.1 203.6 206.6 210.5 213.9 216.6 215.7 218.2 224.9 229.2 231.7 233.2 232.9 232.7 232.9 233.3 233.1 232 229.2 223 226.9 226.1 223.9 214.2 206.8 199.4 190.7 187.3 209.8 226.4 237.1 240.5 240.7 241.9 242.5 248.6 249.5 250.3 250.4 249.4 247.7 246.5 245 242.8 240.4 237.9 235 232.2 229.9 228.3 226.9 227.7 224.7 223.1 219.9 215.3 214 218.9 222.6 228.1 235 241.6 250 256.2 261.9 264.1 264.8 265.6 266.4 267.4 267.4 267.8 268.3 268.5 268.1 266.1 264.4 263.1 261.7 259.9 258.7 257.4 255.9 254.1 252.7 251.3 250.6 249.7 248.5 246.4 241.5 235.8 239.3 236.5 240.1 241.9 240.2 239.5 238.6 236.9 235.5 234
261.2 271 276.5 282.2 291 294.9 296 296.3 296.2 297.2 298 298.1 298 299.1 299.5 300.4 300.1 298.6 297.3 292.2 283.6 287.4 298.2 310.9 321.6 327.2 332.5 336.9 342 348.3 354.1 358.2 362 365.7 366.8 366.9 365.4 362.2 359 359.2 356.1 353.5 350.6 348.4 347.1 346.1 345.3 344.4 342.9 341.3 339.2 337.2 335.5 334.5 333.5 332 330.4 328.7 327.2 325.9 323.9 321.8 319.1 316.7 313.8 309.9 306.8 304.1 301.2 298.6 295.3 291 285 276.4 278.8 276.7 272.4 268.7 264.8 261.4 255.8 251 249.6 246 242.6 240.6 235.1 230.1 227.6 225.1 221.7 216.1 210.8 205.4 208.2 210.5 210.8 209.6 208.5 211.7 214.9 219.9 225.3 225 225.4 229.2 233.9 236.1 236.7 236.2 235.7 235.5 235.1 235 235 234.3 232.4 225.3 229.3 228.5 224.3 213.7 207.6 200.8 188.5 184.5 204.9 229.2 239.5 242.5 242.8 242.3 247.2 251 252.5 254.1 254.3 253.8 252.5 251.5 251.5 251.3 248 244.2 241.3 237.3 234.1 231.1 228.8 227.3 225 222.5 219.6 216.2 214.7 215 218.3 221.8 227.2 234.3 242.5 250.7 256.7 261.3 262.1 263.5 265.1 266.7 268.1 269.4 269.7 269.5 268.3 266.4 264.2 262.7 261.7 260.8 259.7 258.6 257 254.5 253.3 252.9 252 250.4 248.8 246.5 237.9 241.7 243.6 242.9 236.1 236.8 239.2 239.2 238 236.1 235.3 234.3
267.1 276.3 284.2 292 297.2 300.1 299.9 300.6 302.6 303.9 304.1 304.4 305.1 305.8 306.3 306.8 307.1 305.8 305.7 301.6 292 286.6 291.3 299.7 309.3 321.1 327.8 334.2 338.9 344.5 351.1 355.9 359.7 362.8 363.8 363.6 361.6 362.4 362.3 359.9 357.1 354.2 351.4 349.2 348.1 347.3 346.5 345.7 344.8 343.8 342.3 340.3 338.8 337.3 335.9 334.4 333 331.3 329.7 328.6 326.8 324.6 321.9 319.6 317.2 313.8 310.2 307.2 304.2 301 298 294.8 290.3 283.1 271.8 272.5 265.5 260.4 258.4 256.5 253.8 246.2 243.3 241 238.9 236.7 234.1 236.6 236.6 232.6 224.6 215 210.7 215.6 214.7 214 213.1 213.8 215.3 219.1 223.1 227.4 230.8 234 237.7 239.2 239.7 239.1 238.9 238.6 238.9 237.4 236.7 236.4 236.1 235.1 233.7 227.1 230.9 230.3 226.6 214.7 208.2 201.8 193.4 186 208.7 232.4 241.3 242.6 244.6 245.5 249.5 252.8 254.6 256.1 256.6 256.8 257.8 257 256.9 256.3 254.4 251.3 246.1 241.8 238 234.4 231.4 229 227 225.2 222.5 219.1 217.2 216 215.5 219.5 223.4 227 234.5 243.5 250.7 255.5 258.6 261.4 264.7 266.8 268.5 270.1 270.1 269 267.7 266.5 265 263.3 262.7 262.5 261.6 260.8 258.9 256.1 254.2 254.1 253.3 251.6 249 243.2 238.7 245.6 246.5 244.4 242.2 233.2 229 232.1 233.1 231.1 229.1 228.2
271.6 280.9 290.8 297.8 302 303.6 304.8 307 309.3 310.2 310.7 310.7 311.9 312.5 314.1 314.5 314.5 314.1 313.4 310.2 301.8 298.7 299.5 303.1 303.9 314.6 324.2 329.4 336.9 343.2 349.6 354.6 358 360.4 361.1 362 363.2 363.7 362.1 359.9 357.6 354.9 352 350.2 349.3 348.7 347.9 347.2 346.3 345.4 344.5 342.9 341.4 339.9 338.4 336.8 335.3 333.9 332.9 331.4 329.6 327.1 324.5 322.2 319.8 317.1 313.2 310.1 307 304.1 302 298.2 292.8 287.1 278.8 267.5 266.4 268.4 264.9 259.3 253.3 248.6 245.6 243.5 241.1 238.8 238.4 240.2 239.4 235.6 225.8 215.4 218.2 219.4 216.3 216.3 219.1 221.4 223.8 225.6 229.1 233.9 238.4 241.6 243.2 244 243.7 242.7 241.7 242.5 242.4 240.7 238.7 238.1 236.6 235.5 233.9 228.9 232 232 228.4 217.3 208.9 200.3 193.1 188.5 208.3 230.5 240.7 242.7 245.4 246.8 251.4 254.8 257.1 258.7 260 262.1 262.9 262.2 262.2 261.1 258.2 255.1 251.3 246.8 243 238.9 235.2 232.8 230.2 227.3 226 223.3 223.2 222 218.4 217.9 219.9 223.1 227.5 235.2 242.9 248 252 259.6 263.6 266 267.9 269.2 269.3 269.3 267.5 266.9 265.2 263.9 263.4 263.6 263.6 263.2 260.7 257.3 255.4 254.7 254.2 251.7 245 240.8 246.3 247.9 247.6 245.3 243.7 242.5 240.3 229.2 222 220.1 220.1 218
275.4 285.4 295.4 300.8 304.6 307.8 311.2 314.1 315.9 318.2 318.8 319.2 321.2 321.9 322.4 322.2 322.3 322.3 321.7 318.6 313.6 313.7 315.5 317.8 315.6 311.6 321.7 330.1 337.2 343.5 350.7 355.4 358.1 360.8 361.9 363 364.5 364.2 362.3 360.5 358.8 355.8 353.2 351.5 350.6 350.1 349.4 348.7 347.9 347 346.2 344.9 343.7 342.5 341 339.4 338.2 337.1 336.1 334.4 332 329.5 327.1 324.6 321.9 318.3 313.1 311.2 309 308.2 305.4 300.9 295.5 289.5 283.7 278.5 274.1 269.9 266 261 256.7 252.5 249.3 247.3 245.3 243.4 242.8 241.8 238.5 234 223.2 219.6 224.2 221.9 220.6 222.8 225.7 228.2 228.8 230.8 236.1 240.9 243.4 245.4 247.2 248.9 249.2 248.4 247.2 247 245.7 244.5 242.3 240.5 238.2 236.3 234.6 230.3 233.2 233.4 231.1 220.7 210.5 200.9 193.6 191.1 205.8 224.3 240.3 242.3 245.5 247.2 252.2 256.6 259.1 261.7 264.3 266.7 267 266.9 266.7 265.1 261.8 258.4 254.8 251.8 248 244.7 241.2 237.4 234.5 230.7 232.6 230.4 230.1 229.1 224.1 221.4 221.5 221.9 223.8 228 234.1 240.2 246.9 255.3 261.2 264.6 266.5 267.8 268.3 268 266.8 266.5 265 264 263.8 264.8 264.8 263.3 261.3 257.7 257.1 256.9 255.2 250.1 242.7 247.5 248.8 248.8 247.6 247.1 245 242 237.4 232.1 231.4 229.6 227.2 223.7
278.9 290.3 298.7 303.6 308.2 312.1 317 321.4 324.9 327.1 328.1 328.6 329.1 329.3 329.3 329 328.9 328.6 328.1 326.9 325 324.3 325.4 326.6 326.5 317.9 327.9 335 339.5 345.1 352.4 356.9 359.5 361.5 362.6 364.3 365.4 364.8 363.1 361.5 359.5 357.4 354.6 353 352.1 351.6 350.9 350 349.4 348.6 347.6 346.6 345.4 344.4 343.2 342 340.7 339.7 338.8 336.9 334.4 332 329.2 326.5 323.8 320.2 316.7 313.4 311.5 309.7 307.3 302.6 297 291.5 285.5 279.9 274.7 270.8 267.1 263.9 259.4 255 252.2 250 247.8 246.5 245.2 243 237 229.9 220.5 224.9 228 226.1 225.2 228.6 231.9 234 234.6 235.9 241.2 243.9 246.5 249.2 251.6 253 253.6 253.4 252.4 251.1 249.8 248.1 245.8 244 240.9 238.3 236.1 231.3 234.3 234.6 232.9 223 212.9 202.8 195.2 192.1 208 223.4 237.9 241.8 245.4 248.2 252.1 258.3 262.4 265.9 269.8 273.2 272.5 269.8 268.6 266.9 264.6 261.9 259 256.7 253.2 250.1 246.6 242.8 239 235.9 236.6 239.3 236.2 233.3 228.2 225.8 226.4 227.8 226.9 226.9 228.8 235.1 241.9 249.2 257.9 262.1 264.7 266.7 267.7 267.4 267.1 265.8 265.4 265.2 265.3 265.7 264.8 263.3 261.2 258.6 257.8 256.6 251.9 248 250.2 250.7 250.2 248.2 250.4 249.3 247.8 245.3 239.3 239.8 236.6 232.9 229.3 225.9
281.7 294.6 302.3 307.2 311.2 316.6 322.5 329.4 332.3 333.9 334.2 334.1 334 333.8 333.6 333.4 333.4 333.1 332.8 332.7 332.5 332.1 332.2 333.1 333 330.6 326.2 337 342.4 348.2 353.5 357.3 360.4 362.2 363.9 366 367.3 366.6 364.9 363.2 361.3 359.3 356.2 354.4 353.6 353 352.4 351.6 350.9 349.9 349 348.2 347.1 346.1 345 343.9 342.6 341.5 340.3 339.1 337.2 334.4 331.2 328.8 326 323.2 320 316.8 314.5 311.2 307.9 304.2 299.5 293.4 288.3 285.1 280.1 276.6 270.7 266.2 263 258 254.3 252.4 250.5 248.9 246.5 240.2 233.5 228.2 225.1 230.7 231.3 228.7 227.4 232.9 236.9 238.5 238.9 240.8 243.9 246.9 249.9 252.9 255.7 258 258.2 258 256.6 254.7 253.3 250.9 249.1 246.8 243.4 240.5 237.6 232.2 235.3 235.9 234.4 225.9 214.2 204.2 195.8 192.3 205 221.3 236.3 240.2 245 248.6 253 260 265.2 271.3 277.1 280.7 281.4 279 274.2 270.2 267 264.9 263.4 261.7 258.8 255.6 252.2 248.2 244.3 240.6 239.7 241.4 238.9 235.7 232.2 230.2 231.7 236.3 233.3 231.4 231.6 231.9 236.6 244.8 252.5 258.6 262.6 265.2 266.8 267.3 266.4 264.9 265.7 266.2 266.3 265.6 264.6 263.5 262 258.1 257.4 252.7 251.7 252 251.2 252.6 250.2 251.3 253.5 252.4 247.8 245.7 244.8 241.6 238.8 235.2 231.4 227.4
284.4 299.3 306 310 315.2 320.7 327 335.5 337.2 338.1 338.1 337.9 337.8 337.5 338.2 337.8 337.7 337.6 337.2 337.2 337.3 336.4 336.7 337.2 337.3 336.9 333.8 338 344.1 349.8 355.5 357.5 360.4 362.8 365.4 368.1 368.8 368.2 366.9 365.3 363.2 360.7 358.2 356.1 355.3 354.5 353.6 352.8 352 351.2 350.5 349.7 348.9 347.8 346.6 345.3 344.2 343 341.6 340.4 338.7 336.1 333.1 330.6 328.5 326 322.5 319.9 316.5 312.7 309.3 305.9 301.9 297.3 291.2 287.1 283.5 279.7 273.5 268.9 266.3 262.3 257.9 255.4 253.6 252.2 241.2 234.4 233.5 230.9 231.2 234.5 234 232 231.7 236.9 240.4 241.5 243.1 244.5 247.1 250.4 253.5 257.2 261 263.5 264.9 264.1 261.6 258.1 255.8 253.6 252 249.3 245.6 242 239.3 233.8 235.5 236.5 235.5 235.9 222.8 209.2 197.7 194.7 201.4 218 232.7 238.8 243.7 248.5 254.4 261.8 267.9 276.1 283.4 286.2 284.3 282 279.4 277.2 274.5 271.2 268.1 265.2 262.8 259.5 255.7 253.9 251.2 245.9 246.6 245.9 241.8 240.1 236.4 235 236.5 241 240.6 238.8 240.3 238.7 238.4 241.1 249.9 254.2 257.8 261.4 264.2 265.9 265.7 264.1 264.5 266.2 265.4 264.2 263.8 262.5 260.4 255.4 253.7 251.1 252 251.9 251.2 250.6 250.3 250.5 250.2 249.1 251.2 249.5 246.4 243 239.7 236.2 232.1 227
287.2 301.9 309 312.9 318.8 324.2 331.1 338.7 340.4 340.8 340.9 340.8 341.1 342 343 342.9 343 342.7 342.1 341.9 341.6 341 341.2 341.7 342 342.4 341.3 342.9 347.9 353.1 357.5 359 361.3 364 366.3 368.1 368.9 369.3 368.4 366.9 365.3 362.9 360.5 358.7 357.8 356.4 355.4 354.4 354 353.6 352.6 351.7 350.6 349.4 348 346.6 345.6 344 342.5 341.4 339.8 337.1 334.6 331.9 329.8 327.5 324.8 322.3 318.8 314.8 310.4 305.3 301.4 298.5 292.8 288.1 283.7 278.7 274.9 272.5 268.9 263.7 261.1 258.5 257.2 249.7 237.3 235.5 235.8 236.8 238 236.8 237.7 237.6 236.4 241.3 242.8 244.6 246.7 248.3 249.7 254.5 259 263.6 267 268.7 269 268.1 265.9 262.3 258.7 256.3 253.7 251.2 248.2 243.9 240.3 235.7 234 236.5 236.1 235.2 231 214.5 200.8 197.5 197.1 213.5 230.7 234.8 240.5 247.8 255.9 263.3 269.7 278 285.9 289.2 287.1 285.4 283.3 282.2 281.3 279.8 278.2 275 272.3 267 261.3 258.6 255.6 252.5 252.4 252.2 249.8 245.8 240.6 239.8 241.6 243.7 245.4 244.8 245.7 244.2 243.2 238.4 245.9 252.5 254.9 256.2 259.4 262.7 264.5 263.8 262.9 261.1 257.9 257 256.5 255.4 254.9 254.4 253.8 254 256 253.9 253 252.9 252.3 252 253.1 253.4 252.5 250.3 247.3 243.8 239.8 235.1 229.6 221.4
290.5 304.3 311.4 315.6 320.7 327 334.7 341.3 342.8 343 343.4 344.1 345 346.9 348.4 349.4 349.4 349 347.4 346.9 346.5 345.9 345.9 346.5 347 347 347.2 349.3 352.5 357.7 360.6 361.8 363.9 365.9 367.5 369.3 370.2 370.3 369.5 368.6 367.3 365.6 363.5 360.9 359.4 357.9 356.9 356.7 357.1 356.3 354.8 353.4 352.4 351.1 349 347.4 345.9 344.3 343.1 341.9 340.5 338.1 335.8 333.1 330.7 328.7 326.6 324.3 320.5 317.1 313.2 308.2 302.2 298.8 294.3 290 285.6 280.9 277.2 272.5 271.9 269.7 261.6 255.8 249.8 242.7 238.8 238.6 238.6 239.9 241.4 240 240.5 238.4 241.7 244.1 245.3 247 249 252.4 255 259.2 265 268.8 270.5 272.3 272.8 271.5 269 265.9 262.4 259.2 255.6 252.8 249.7 245.7 242.6 237.7 235.8 235.5 236.1 233.5 230.3 212.5 209.3 204.8 201.2 207.6 227.1 233.4 239.1 247.5 257.7 264.6 271.6 277.2 284.8 290.3 290.6 289.6 287.5 286 285.2 285 283.5 281.5 278.5 273.8 265.3 259.6 257.3 256.6 256 256.2 254.4 251.3 245.5 246.8 247.9 248.4 248.3 249.8 249.7 248.1 247.4 242.5 242.3 247.7 252.5 253.4 254.3 257.5 260.1 259.5 261.1 260.6 259.1 261.2 262.8 263 262.9 262.3 261.1 260.5 260.9 259.5 258.2 255.9 254.5 254 253.8 253.3 252.1 250.3 247.8 244.9 240.4 233.8 223.9 225.8
295.8 307.1 313.4 317.4 322.8 329.4 338.2 343.5 345 345.7 346.8 348.5 350.3 352.4 355.5 357.2 357.1 356 353.8 352.5 351.8 351.1 350.8 351.2 351.4 352.3 352.7 355.2 356.9 361.3 363 364.2 366.3 367.6 369.2 370.5 371.5 370.7 370.2 369.3 369.1 368 365.5 362.9 361 359.8 360.2 360.9 361.1 359.6 357.3 354.8 353.4 351.7 349.3 347.5 345.9 344.6 343.4 342.1 341 338.8 336.4 333.8 331.2 329.4 327.3 325 321.2 316.9 313.1 308.6 302.4 298.8 295.1 291.5 285.5 280.1 277 272.4 270.9 270.7 257.4 250.1 242.3 235.7 240.2 243 242.9 243.9 245.3 244.7 244.4 241.5 243.4 245.8 247.8 249.6 252.4 258.4 260 263.5 268.1 271.4 273.9 276 276.1 274.2 271.9 268.8 265.5 261.9 256.1 253.3 250.9 247.6 245.1 241.3 238 234.7 233.7 230.9 218.8 222.7 217.5 211.7 207.2 201.1 224.5 233.9 240.2 246.8 256.6 264.5 271.2 276.6 283.3 289.2 290.6 291.3 289.9 288.5 287.9 287.3 286.1 284.4 282.3 276.6 264.1 260.9 260.7 261.3 260.7 259.6 257.4 254.7 251.4 251.5 250.9 251.1 250.8 252.7 252.8 251.4 250.8 248.1 245.9 245.8 250 252.3 252 252.7 253.5 255.1 258.6 262.3 264.6 266.7 268.2 266.9 265.9 264.6 263.7 262.4 261.3 259.2 257.8 256.1 254.1 253.2 252.6 253.2 252 248.4 246 244.9 240.9 233.6 225.4 233.7
302 311.5 316.2 319.8 325.7 332.3 341.7 345.9 347.5 349 351.2 353.4 355.9 360.7 365.5 366.9 365.7 363.3 361.3 359.5 358 357.4 356.4 356.5 357.2 358.6 358.7 360.1 362.2 364.2 365.5 366.6 368.3 369.5 370.8 372 372.1 371.2 370.8 370.3 370.1 369 367.2 364.7 363.2 365.3 368.1 368.8 367.9 365.6 361.9 357.5 354.6 352.4 349.6 347.6 346.2 345 343.6 342.4 341 338.6 336.1 333.8 331.6 329.1 327 324.3 321.3 317 313.8 308.8 302.8 298.5 295.6 291.9 285.7 279.6 276.2 270.9 265.3 259.3 251.9 242.4 237.4 242.9 245.6 248.2 247.5 247.6 248.2 247.7 248 244.5 245.2 248.3 251.7 253.8 256.9 262.1 264.6 267.6 270.8 273.7 276.6 279.1 279.2 277.1 274.8 271.6 267.9 264.1 258.6 253.5 251.2 248.7 246 242 237.4 235.7 235.1 233.3 227.5 232.6 226.7 218.9 214.6 205.1 217.9 232.3 240.3 245.9 252.5 261.1 268.5 273.8 279.8 286.7 289.2 290.7 290.1 289.6 288.8 288.1 286.8 285.8 279.8 267 264.1 265.8 266.2 266.7 265.4 264.2 260.6 258 256.1 255 254.6 254.3 253.5 253.8 253.9 254.2 253.7 252.8 251.8 250.4 250.7 251.2 250.9 252.1 253.7 256.2 260.9 263.4 268.5 269.4 270 269.6 268.2 266.5 264.4 261.8 258.7 254.9 253.8 251.8 252.6 247.1 246.3 247.3 245.8 241.4 237.5 234.1 233.3 226.5 231.9 238.9
307.6 315.8 318.9 323.1 329.4 336.5 344.5 348.4 350.5 353.5 355.5 358 363.8 372.6 376.4 375.7 373.9 371.8 369.1 367.3 365.1 364.6 364.1 363.7 364.5 365.1 363.2 364.2 365.6 366.6 367.4 368.9 370.7 372 373.3 373.8 373.2 372.4 371.7 371.1 370.4 369.5 368.6 369.1 372.1 372.7 373.5 373.7 372.6 370 366.5 361.8 357.8 354.7 351.9 348.8 347 345.3 343.9 342.6 341.1 338.9 335.4 333 330.6 327.8 325.5 323.6 320.7 317.1 313.4 306.6 300.7 298.1 296.6 293 287.3 280.4 274.4 269.7 261.6 254.8 247.2 240 241.9 248.6 250.8 252.1 251 250.1 249.9 249.1 249.7 247.2 247.7 251 254.9 259.3 261.9 265.5 269.1 272.2 275 276.8 279.1 281.7 281.7 280.5 277.7 274.1 270.1 265.9 261.9 255.1 252.4 250.1 247 242.6 238 236.9 235 233.3 232 236.3 233 224.6 221.4 216.7 209.5 229.5 236.9 243.1 249.3 255 264 270.2 275.4 281.6 286.8 288.6 288.5 288.4 288.4 286.9 284.4 272.8 271.5 275.8 267.2 271.2 272.3 272.3 271.6 269.9 266.9 262.5 261 259.9 258.6 257.5 256.5 256.1 256.4 256.6 256.1 257 256.8 252.3 250.3 250.9 251.7 253.3 254.9 257 260 262.8 265.5 267.7 271.7 272.6 270.8 268.1 262.7 256.9 257.4 258.1 258 256.6 254.8 254.3 253.8 248.3 249.5 249.6 249 246.8 242.5 230.5 239.6 242.8
312.6 318.6 321.8 327 333 340.1 347.4 350.9 354 356.7 359.1 363 371.5 380.1 381.8 381.9 380.6 378.4 375.6 373.4 372.7 372.6 371.1 370.4 370.6 370 368.5 367.8 368.7 369.7 370.2 371.7 373.6 375 375.3 375.1 374.6 373.8 373.2 372.8 372.2 372.1 372.3 375.7 378.6 378.6 378.5 377.6 376.4 373.2 369.7 366 361.8 358 354.4 351.2 348.3 346.5 344.6 342.6 340.5 338 335 332.4 330.1 327.5 325.2 322.2 317.9 316.5 310.9 303.3 299.1 297.2 295.6 291.3 285.2 279.3 273.7 268.9 262.8 253.8 248.4 241.8 243.1 251 255 254.5 253 252.2 251.3 250.5 250.5 248.9 251.1 255.3 261.5 264.8 267.3 269.6 271.6 275.9 279.2 280.9 282.3 284.3 284.4 283.7 280.3 276.3 272 267.5 263.2 257.6 254.2 251.5 248.3 244.5 239.4 238.2 237.5 236.1 234.6 236.8 238.5 233.2 223.5 218.4 206.8 226.2 235 241 246.7 252 259.6 265.3 270.2 276 282 286 286 285.6 283.4 275.1 270.5 282.8 283 275.8 272.5 279.2 278.7 277.3 278.6 277.5 274.7 267.9 264.9 267.4 267 264.1 262.3 261.6 260 259.1 258.9 259.1 258 253.4 252.7 254 254.8 255.8 257.3 259.4 263 264 266.5 265.9 269.3 273.2 269.3 262.2 260.1 262.9 262.3 260.6 259.2 257.7 257.5 256.8 253.5 253.8 253.6 252.4 251.1 249 244.9 234.6 244.2 246.4
318.8 321.8 325.4 330.4 336.4 343.9 350.2 353.7 356.9 359.7 362.7 368.8 379.1 384.7 386.7 387.1 386 384.3 383.1 381.4 380.8 380.4 379.5 378.4 377.4 376.7 374.7 372.1 372.1 373.4 374 374.7 376.5 377.6 377 376.5 376 375.5 375.4 375.4 375.8 375.5 375.3 380.2 382.3 381.5 380.6 379.4 377.9 376.4 373 369.5 365.5 361.3 357.3 353.6 350.2 347.3 345.2 343.3 340.5 337.5 334.7 332.2 329.7 327.2 324.7 321.3 317.7 312.5 306.6 301.2 297.1 295.7 292 286.4 281.3 277.5 273.7 269 260.7 255 248 243.1 245 252.6 258.4 256.5 255.4 255.1 253.7 252.3 251.6 251.5 255.5 261.2 265.6 269.5 273.4 274.8 276.2 280 283.9 285.1 285.6 287.1 287.7 285.9 282.8 278.8 274.4 269.1 264.6 260.5 256.8 253.2 250.1 245.7 241.3 239.6 239.9 237.6 236.9 238.5 241.2 240.1 234.2 225.8 214.7 215.8 230.5 238.8 243.9 248.9 254.5 260.4 264.7 270.6 276.3 282.5 283.2 275.3 269 283.6 276.8 278.2 273.9 270.2 281.3 281.8 280.9 281.8 283.3 283 281.1 276.7 273.4 276.2 275.2 273.2 271.7 268.4 265.3 263.8 262.5 261.9 258.7 256.2 258.8 259.7 260.5 261.1 263.3 263.2 265.2 266.5 272.6 272 265.7 265.1 262.8 266.8 269.4 267.4 265.4 263 260.9 260 259.4 257.7 257.5 257 255.3 254 252.3 249.4 240.5 243.2 248 250.6
322.7 325.5 329.3 334 339.7 347.7 352.7 356.2 359.4 362.8 366.7 374.9 385.1 389.1 391.1 391.6 392.5 392.6 391.1 389.7 389.9 388 384.4 382.6 382.1 382.1 380.9 378.3 377.3 377.7 378 378 378.7 379.6 379.3 378.5 379 379.2 378.7 378.6 378.3 378 378.4 382.5 384 383 381.9 380.8 379.4 378 376.4 372.9 368.8 363.4 359 355.6 352.3 348.4 345.8 343.1 340.1 337 334.3 331.9 329.6 327.4 324.9 320.6 314.5 308.9 303.4 299.1 295.8 293.4 290.9 285.2 280.5 276.2 272.1 267.4 262.1 256.9 249.1 244.6 246.2 255.4 260 258.4 257.9 258.8 258.5 256.1 253.7 254.8 258.3 263.7 268.4 273.3 276.5 278.5 280.6 284.4 288.1 289 288.3 289.5 290.2 287.8 285.2 281.3 276.8 271.7 265.9 261.2 258.4 255.1 252.1 249.3 243.7 241.5 240.7 239.2 238.5 238.7 241.3 242.4 238.4 229.9 219.6 214.4 227.2 237.8 242 246.3 251.7 256.1 259.7 263.2 267.8 273.4 271.7 269.5 284.9 282.5 280.3 284.8 285.1 284.9 285.1 284.3 283 282.6 284 284.2 283.9 282.6 281.1 280.5 278.6 275.9 274 271.2 269 266.3 265.6 264.1 260.3 261.3 264.7 268.7 267.5 266 267 266.1 266.9 271.3 275.7 276.6 273.1 270 271.7 273.1 272.1 269.9 267.3 264.8 262.8 261.5 260.5 259.6 258.9 257.6 256.2 254.6 252.5 247.4 243.2 249.3 251.9 253.6
325.8 329.3 333.4 337.4 343.1 350.2 355.1 358.6 361.9 365.5 369.8 380.6 389.3 393.1 395.7 398.4 400.5 401.3 401.4 400.3 398.8 396.4 394.6 392.7 391 390.1 387.7 386.5 387.1 385.5 385 384.1 383.2 383.2 382.9 382.6 381.8 381.9 381.3 381 380.9 381.9 382.6 384.3 384.7 383.9 382.7 381.6 379.8 378.9 377.7 374.3 369.2 363.9 360.1 356.5 353.7 349.6 346.5 342.6 339.5 336.6 334 331.2 329 327.1 323.9 318.9 311.4 305.5 301.5 297.9 294.4 291.4 287.6 283.6 279.6 275.6 272 269 265.2 260.2 250.3 246.5 251.3 258.9 262 262.7 263.3 263.5 263.3 260.9 257 257.1 260.1 264.7 270.3 275.5 279.7 283.1 285.3 288 290.5 291.3 290.4 290.9 291.8 290.1 287.4 283.8 279.3 274.3 268.5 262.5 260 257.5 254.8 253.7 249.7 243.6 243.9 242.3 240.7 240.4 240.8 241.7 240.1 234.1 225.1 210.6 227.9 235.8 240.2 243.3 247.3 253.7 257 258.6 260.6 265.1 271.7 281.1 283.4 282.8 289.8 292.9 292.9 292.3 291.4 289.9 287.9 287 286.5 286.9 286.9 286 284.5 282.3 279.4 276.8 274.3 272 270.2 269.2 268.9 265.9 265.9 266.9 267.9 269.5 269.1 268.5 268.8 268.9 272.8 277.2 277.8 277.7 276.9 274.4 275.5 274.9 273.7 271 268.4 266.2 264.3 262.7 261.9 260.4 259.4 258 256.4 254.3 250.1 244.7 250.5 253 254.7 256.1
328.8 333.3 337.2 341.3 347 353 357.3 360.5 364.2 368.2 374.6 386.3 392.7 397.3 401.4 404.7 408.7 411 410.9 409.2 406.8 405.2 403.9 401.6 397.9 395.1 393.5 394 393.4 392.5 391.8 391.3 389 387.1 386.1 385.5 384.9 385 383.8 383 384.7 387.2 387 385.2 384.7 384.3 383.5 382.3 380.4 378.3 375.6 372.5 368.4 364.3 360.4 357.5 354.7 350.2 346.3 342.6 339.4 336.3 333.2 330.2 327.2 323.7 318.4 313.1 307.9 303.7 300 295.5 292.4 289.6 286.7 282.9 279.3 275 271.6 270.1 267.5 260.5 250.8 249 254.8 261.2 266.8 267.2 268.3 268.7 268.4 266.7 261.9 259.7 261.4 265.6 272 279.4 284.1 288.9 291 292.4 293.7 293.4 292.1 292.3 292 291.5 289.3 285.9 281.8 276.9 271.6 265.2 260.5 258.7 258.1 256.8 254.5 248.5 247.1 243.9 245.6 243.1 240.9 241.3 239.5 234 226.3 210.7 220.7 232.1 237.4 240.9 245 250.4 256.4 258.1 264.5 272 279.2 282.8 281.3 291.1 295.4 298 299.2 299.2 298.8 298.3 297.8 297.5 296.2 293.8 291.8 290.4 287.9 285 281.6 278.7 276 274.5 273.7 272 270.5 270 271.1 271.6 273.7 275.4 277.1 275.9 275.5 275.9 275 278.2 279.4 279.2 278.2 278.2 277.5 276.5 275.5 273.3 270.8 268.2 266.4 264.6 263.1 261.6 259.9 258.3 256.3 252.4 247.1 252.8 254.9 255.9 257.3 258.5
332.6 337.2 340.9 346.6 352.4 356.5 359.5 362.7 366.1 370.4 378.4 389.7 395.9 400.6 406.7 411.7 417.4 417.8 417.1 416 414.5 413 411 408.7 404 400.7 401.1 401.4 400.7 399.3 397.8 397.1 394.9 392.2 390.1 389.6 389.4 388.7 385.9 384.2 387.1 389.4 388.6 386 383.8 383.4 383.1 382.9 380.2 376.8 373.5 370.2 367.1 363.8 360.4 357.5 354.3 349.4 345.8 342.8 339.6 336.5 332.2 328.2 323.6 318.9 313.7 309.1 305.6 302.2 297.6 293.7 291.4 288.7 285.2 280.3 277.6 273 270.2 267.8 259 253.1 249 252.5 258.2 265 270.3 271 272.5 274.4 276.1 274.5 268.3 264.1 263.4 267.5 273.4 281.7 289.6 295.3 295.7 296 296.8 294.6 296.6 295.7 293.9 292 289.8 286.6 283 278.8 274.8 270.4 265.5 260.9 259.4 257 253.8 250.6 246.8 246.6 248.1 244.7 241.7 241 238.3 233.4 223.5 219.2 228.6 236.5 240.8 243.9 246.8 251.1 255.7 260.1 269 275.3 282.3 285 289.6 294.6 298.5 303.2 306.3 306.3 306.3 306.7 306.2 305.2 303.4 301.3 298.9 296.3 296.4 294.5 292.4 290 287 283.2 279.5 276.3 276.9 279.4 279.4 282.3 285.5 286.6 285.8 284.8 282.7 281.8 279 280.7 281.6 281.4 280.3 279.6 279 278.2 277.2 275.1 272.3 269.8 268 266 263.8 261.7 259.6 257.7 254.7 251.5 255.2 256.3 257.6 258.4 259.1 259.4
336.2 340.2 345.2 351.5 356.4 359.4 361.8 365.1 369 373.2 382.4 393.1 399.2 405.2 412.1 418 421.1 420.7 420.4 419.3 418 416.3 414.8 412.4 408.1 407 407.3 407.6 406.8 405.3 403.6 402.6 400.6 397.9 395.5 394.4 393.1 390.2 386.4 385.2 384.8 385.1 385.4 384.3 382.6 381.7 381.3 380.7 378.7 375.4 372.1 368.8 365.9 363.3 360.3 357.3 353.4 349 345.8 342.9 339.7 335.8 330.9 326.7 320 314.6 310.8 307 303 299 295.2 292.2 290.1 287.4 283.9 279 271.8 268.2 264.2 255 252.7 251.9 253.3 257.7 262.7 269.2 272.3 275 277.5 281.3 284 279.7 273.9 270.3 267.5 268.7 274.4 284.3 294 298.3 297.9 297.9 297.1 302.2 302.2 299.6 296.6 294.4 291.6 288.1 284.6 281.1 277.1 273.4 268.7 262.7 260.1 256.7 252.2 248.4 246 248.1 247.9 245 242 240.1 237.5 232.3 221.3 220.4 231.6 238.1 241.9 245.7 249.7 254.6 257.6 262.9 269.3 275.6 283.7 283.2 292.6 296.5 301 307.2 310.6 312.3 313.2 313.8 313.7 312.4 310.1 307.5 305.7 302.6 302.2 301.9 301.2 298.9 295.9 292.7 290.6 289.7 287.8 289 288.8 292.2 295.1 294.6 293.4 291.1 288.2 285.9 284 283.6 283.7 283.6 282.5 281.9 281.1 279.7 277.4 275.2 272.9 270.7 268.3 266 263.6 261.3 257.1 254.8 255 257.1 258.8 259.5 260.4 260.6 260.3 260.3
339.6 344.1 349.8 355.7 359.2 361.9 364.5 367.6 371.5 376.9 385.8 395.5 402.3 409 416 422.4 422.9 422.4 422.2 421.2 420 418.7 416.7 414.3 411.4 411.1 411.1 411 410.5 409.1 407.7 406.3 404.6 402.1 399.8 398.2 395.8 391.8 386.8 385.9 385.1 382.3 383 382.5 381.4 380.5 379.4 377.9 376.2 374.1 370.8 368.4 366 363.3 360.3 357.7 354 349.3 345.8 343.1 339.9 335.3 331.2 324.8 317.7 313 309.2 304.6 300.6 296.8 293.9 291 287.8 284.8 281.7 277.9 270 261.9 255 257.5 259.9 261.9 263 265.7 269.2 271.6 275.9 278.5 282.2 287.4 289.2 284.1 280.4 276.7 275 273.9 275.9 285.1 294.4 297.7 298.7 299.5 301.7 305.8 307.1 304.7 301.4 297.6 294.1 290.1 286.7 282.7 277.6 273.4 270.2 264.9 261.4 257.7 252.5 249.1 246.9 247.5 247.2 245.2 242.5 240 237.1 231.5 225.1 218.1 234.5 239.3 242.7 246.8 252.2 257.2 258.7 263.3 268.2 274.3 283.5 286.7 293.4 297.5 302.2 308.8 312 314.7 317.2 318.4 318.2 317 315.1 312.8 310.6 308.2 307.2 308.4 309 306.5 305.1 301.7 298.8 298.1 296.2 295.8 296.1 299.3 300.2 299.8 298.4 296.2 293 289.8 287.3 286.9 286.6 286.2 285.5 284.5 282.5 280.2 277.6 275.3 273 271.4 268.9 266.3 264.1 261.9 258.7 256.7 259.1 260.8 262.4 263 263.4 263.1 262.4 261.5
342.8 347.2 353.8 359.2 361.9 364.5 367.2 370.2 374.8 382.4 391.3 398 404.6 410.7 418.8 423.8 424 423.6 423.8 422.9 421.6 419.6 417.8 416.5 415.3 414.6 414.1 413.7 412.6 411.2 409.6 408 406.3 404.7 402.5 399.9 396.3 391.3 387 386.1 384.8 383.1 382.5 381.9 380.8 379.3 377.6 376.3 374.4 372.6 370.5 368.1 365.5 362.9 360.6 358.1 354.7 348.9 346.2 343.3 339.9 334.9 330.3 322.2 316.4 312.2 307.6 303.3 299.2 295.8 292 287.8 285 281.3 276.3 271.4 263.3 261.1 260.4 266.9 267.1 268.3 268.9 272.8 274.7 275 278.9 281.7 285.2 287.1 288.1 288.6 286.9 284.1 281.6 281.5 278.9 286.9 293.5 298.2 300 302.1 304.2 306.6 309.5 308.7 305.4 302.9 298.6 292.4 288.4 284 278.5 273.6 271.1 267.8 262.8 259.6 254.4 250.4 248.1 247.6 247.1 245.6 243 240.2 237.3 231.3 219.9 220.4 235.6 239.9 242.8 246.9 252.4 257.7 259.2 262.7 266.9 271 280.9 287.1 293.5 298.7 303.2 309.2 312.9 316.9 319.2 319.6 319.7 319.2 317.6 315.4 312.1 311.1 312.7 314.4 314 312.2 310.2 307.8 305.5 304.6 302.9 301.9 302.7 304.6 304.7 304.1 302.4 299.5 295.9 292.9 290.9 290 289.6 289 287.7 285.3 283 280.9 278.4 276.3 274.4 272.4 269.6 267.1 264.7 261.2 259.3 261.1 262.4 263.8 265.2 266.1 266.8 266.4 265.9 264.7
345.7 351.8 357.8 361.5 364.2 366.7 369.8 373.6 379.6 388.8 396.2 401.1 407.7 415.1 422.4 424.4 425.3 425.4 425.3 424.3 422.3 420.6 419.7 418.8 418.3 417.5 416.5 415.3 414.3 412.9 411 409.4 407.9 405.9 403.4 400 395.3 391 387.5 385.8 384.6 383.2 382.4 381.3 380.2 378.8 377.3 375.7 373.9 372.1 370 367 363.4 360.8 358 356 352.9 348.1 345.9 343.4 338.9 333.4 326.1 319.7 315.1 310.7 306.1 302.2 298.6 295.1 291.5 287.5 282.8 276.6 269.8 263.3 267.7 269.2 265.1 268.4 271.9 272.5 274.3 278.9 278.6 280.1 282.1 284.6 287.3 288.7 290.1 292.4 292.8 290.9 289.4 286.7 282.1 289.5 297 299.2 301.7 304 305.3 308 311.2 311.1 308.3 304.6 301.4 295.4 290.1 286.7 280.1 275.7 273.1 269.3 264.7 261.8 255.1 250.8 248.7 248.2 247.7 246.5 243.7 240.4 236.7 230.9 220 234.2 233.8 234.8 235 244.1 249.4 255.3 258.8 261.6 264.8 269.7 275.9 284.6 293 298.8 303.8 309.2 313.9 317.8 319 319.4 319.9 319.3 318.2 315.6 313.9 315.7 317.4 318 317.5 316.3 313.5 313.2 310.8 308.9 307.1 308.3 309.2 308.8 308.6 307.5 305.4 302.5 298.9 296.5 294.6 293.3 292 291 290 287.4 284.9 282.5 280 277.9 275.8 273.5 270.3 267.4 264.1 262.6 263.4 264.4 265 266 267.4 268.8 269.4 269.2 268.7 267.4
348.3 354.1 360.7 363.7 366.5 369.4 373.2 378.1 385.5 394.3 400.5 405.3 412.5 420.5 424.9 425.3 426.1 426.7 426.4 425.2 423.1 422.5 421.8 421.1 420.2 419.3 418 416.8 415.7 414.3 412.1 410 408.1 406.2 403.5 399.7 394.2 390.1 388.2 386.5 385 383.6 382.7 380.9 379.7 378.2 376.8 375.4 373.6 371.2 369.3 365.4 361.9 358.6 355.5 352.1 348.3 347.5 344.6 340.5 335.4 328.5 322.7 318.2 313.5 309.2 305 301.4 297.9 294.2 290.6 286.3 281.9 274 266 268.4 274.8 273.9 270 269.2 277.1 277.3 278.8 282.7 281.5 284 286.4 288.3 289.5 291.4 292.6 294.7 296.5 297.4 297.2 292.8 285.2 291.8 298.6 301.1 305.4 306.7 310.2 312.4 312.9 312.3 310.2 305.8 302 297.3 291.7 287.7 280.3 276.9 273.9 271.5 267 263 256.6 251.6 249.5 248.7 248.1 245.9 234.9 228.7 223.9 222.1 221 237.9 241.7 242.2 242.8 244 243.8 251.5 256.7 260 264 269.8 278 286.9 294.7 299.8 304.6 309.8 314.4 318 318.9 319.1 319.3 319.2 318 317.5 317.6 317.8 318.8 319.2 319.2 318.5 317.1 316.6 315 313 312.5 313.7 314.9 313 311.3 310.3 308.6 305.3 302.1 300.5 298 296.8 295.5 294 292.1 289.4 286.7 283.9 281.5 279.1 276.5 274 270.7 267.6 265 265.9 266.5 267 267.6 268.5 270 271.3 271.3 270.7 269.7 268
352.5 357.3 362.1 366 368.9 373 377 382.7 391.6 398.7 405.1 409 416.4 424.5 426.6 426.5 426.7 427 426.5 425.9 425.6 424.5 423.8 422.7 421.8 420.8 419.6 418.4 417 415.1 412.8 410.3 407.6 404.5 401.3 397.9 393.1 390.2 388.4 386.8 385.3 383.9 382.8 380.8 379.1 377.7 375.6 373.1 371.4 369.1 366.4 363.4 360 357.2 353.4 348.3 346.2 344.1 339.6 334.2 328.3 324.1 320.6 316.6 312 308.3 304.3 300.7 297.1 293.6 289.6 285.6 279.5 270.6 266.7 273 277 277.2 270.6 274.7 281.2 282.3 283.5 286.3 284.9 286.7 288.9 291 292.8 294.5 295.9 297.2 299.6 302.2 301.3 300.1 291.3 294.6 299.7 304.1 308.5 311.7 314.2 314.7 314.3 313.2 310.9 306 301.1 297.5 293.3 288.8 280.9 276.8 274.9 272.9 269.2 263.1 257.1 252.2 250.2 249 247.8 241.1 239.2 241.9 237.6 229.2 236 237.1 244.2 247.1 248.7 250 250.2 253.2 257.6 260.5 265.5 271.6 280.6 288.6 298.6 304.4 307.5 312.3 315.9 318.1 319.2 319.5 319.4 319.4 319.2 319 318.9 318.6 319.6 319.8 319.7 319.4 318.5 317.6 317.2 316.3 315.8 316.3 316 314.6 313.4 312 310.4 307.3 305.4 303.6 301.3 300.2 298.9 296.9 294 290.6 288.5 285.5 282 278.8 275.8 273.4 271 268.4 269.2 269.7 270.2 270.3 270.5 271 272.3 273.2 272.7 272.1 271.3 268.4
356 361.2 364.8 368.3 372 375.7 379.6 387.8 396.5 404.6 408 411.9 418.6 425.3 427.6 427.6 427.7 427.8 428.1 428.2 427.8 426.7 425.6 424.2 422.8 422.2 421.2 419.5 417.8 415.9 413.4 411 408.3 404.7 400.5 395.8 391.9 389.8 388 386.5 385.1 383.6 382 380.4 377.8 374.5 372.6 370.6 369 366.3 363.5 360.9 358 355.3 348.7 346.6 342 337.5 333.3 328.7 325.1 321.8 318.4 314.5 310.9 307.4 303.6 300 296.4 292.8 288.6 281.9 271.5 269.6 273.6 276.3 279.2 280.8 277.1 278.3 284.5 287.8 288.6 289.1 287.7 289.2 291.7 294.1 295.9 297.7 299.2 301.5 303.7 306.2 306.8 305.6 298.8 299.6 302.9 307.5 311.7 314.4 315.3 315.6 313.8 313 310.3 305.2 301 297.2 293.4 289.4 283.6 277.9 275.7 272.7 269.7 263.2 257 252.8 251.3 249.9 248 234.9 244.4 243.1 237.9 234.9 241.8 244.3 247.5 249.9 253.1 255.3 255.4 254.6 258.9 263.3 268.6 274.8 284.7 292.1 300.7 306.3 309.1 312.7 315.6 318.2 320.1 320.9 320.6 320 319.6 319.4 319.6 319.5 320.2 320.1 319.9 319.6 319 318.3 317.8 317.3 317.1 317.5 317.2 316.3 315.1 313.7 312.2 309.8 307.9 305.9 303.9 302.1 300.5 298.6 294.8 291.6 289.1 286 282.7 279.8 277.1 275.4 273.2 271.1 273.2 273.6 273.8 273.9 274.1 274.2 274.7 275 274.7 273.6 272 269.5
359.7 364.9 368.1 371 374.5 378.3 383 392.3 400 406.2 410 413.6 418.9 425.1 428.8 429.5 429.6 430.4 430.5 430.3 429.5 428.1 426.6 425.2 424.1 423.2 421.1 419.5 417.7 415.6 413.6 411.4 408.3 403.4 399.5 395.2 391.3 388.7 386.9 385.6 384.1 382.3 380.2 377.9 375.9 372.9 370.9 369.4 366.2 362.8 359.7 356.2 353.4 347.3 346.4 342.1 337.7 333.8 329.7 326.1 322.8 319.6 316.3 312.7 309.4 305.6 302 298.6 295.1 291 282.7 272.1 273.1 277.4 279.2 280.1 282.6 285 285.4 281.6 289.4 292.4 292.5 292.3 290.5 291.9 293.7 296.1 299.2 301.7 304.4 306.5 308.1 308.9 308.8 306.8 305.1 305.7 309.2 313.3 314.3 315.8 319 320.9 316.1 312.3 309.6 304.8 299.4 295.9 293.2 290 284 278 275 271.9 268.3 262 256.9 253.9 252.3 249.9 247.4 244.7 246.7 243.1 234.1 241.2 244.3 247.1 250.1 254 257.5 259.4 258.6 259.8 261.7 265.9 271.1 278.3 288 295.6 302.7 306.4 309.9 313.3 316.2 319 321.7 323.6 322.5 321.5 320.4 320.1 320 320.1 320.7 320.5 320.1 319.7 319.3 318.8 318.4 318.1 318.4 319 318.5 317.6 316.3 315 313.9 312.2 310.2 308.2 306.1 304.3 302.5 300.4 297.3 293.2 290.5 287.9 285.4 283.3 280.9 277.9 275.3 274.8 276.7 278.2 278.5 278.7 278.8 279 278.2 277.9 277.4 276.5 274.3 272.3
363.6 368.6 371.4 373.9 377.2 380.8 385.8 394.2 401.5 407.3 411.5 415 419.9 425.7 430.3 431.6 432 432.9 432.6 432 430.6 429.1 427.5 426 424.5 422.8 420.8 418.6 417.1 415 413 409.1 404.2 401 397.3 393.4 389.8 387.2 384.7 383.4 381.1 378.8 377.4 375.7 373.7 371.6 369.4 366.1 361.1 357 355.1 351.3 346.6 344.2 341.2 338 334.5 330.6 327.3 323.9 320.6 317.3 314 310.6 307.2 303.2 299.7 296.4 292 283.8 274.9 273.3 280.5 282.1 282.3 284.1 287.1 288.9 286.5 285.2 294.9 296.4 296.8 296.4 296 295.4 296.2 299.3 302.5 306.6 308.3 311.1 311.7 310.7 309.8 308.9 308.8 312.1 315.5 316.9 317.7 318.3 321.3 321.9 317.6 314 310.1 304.3 298.5 294.8 292.1 289.7 281 275.5 273.7 271.5 266.9 260.9 257.2 253.6 251.9 249.1 245.7 249.1 247.3 242.9 228.9 243.3 247.3 249.2 253.5 258.2 260.1 260.8 262.5 264.9 267 269.3 272.5 282.2 291.8 298.8 304.7 306.6 309.2 314 317.5 320.4 323.3 325.1 325.4 324.3 323 321.8 320.7 320.8 321.4 320.9 320.3 320.1 320 319.6 319.1 319.9 320.4 320.4 319.9 318.6 317.3 316.4 315.6 314.7 313.2 311.1 308.9 306.6 304.3 301.9 299 295.4 293.2 290.9 288.8 287 284.7 280.8 277.7 278.2 280 281 282.1 283.4 283.6 283.5 282.7 282.3 281.4 280.3 278.2 275.3
367.5 371.3 374.3 377.6 380.5 383.3 388.3 396.1 402.4 408.2 412.9 416.5 421.3 427.6 432.2 433.5 434.3 435 434.7 433.3 431.7 430 428.4 426.6 424.7 422.7 420.6 417.3 413.9 411.2 409.1 405.8 401.9 398.6 395.2 391.9 388.2 385.2 383.3 381.3 378.4 376.4 375.1 372.2 369.8 367 363.9 360.3 355 351.7 349 346.1 343.9 341.6 338.8 335.6 331.7 328.4 325 321.7 318.4 314.6 311.4 308.1 304.6 300 295.9 290.6 281.1 277.6 282.5 281.1 285.9 287.3 288 291.5 292.9 293.3 293.6 291 292.5 298.5 300 299.8 301 299.1 299.1 302.1 305.8 309.3 311.7 314.3 313.8 312.9 311.9 311.5 313.4 318.5 320.5 320.7 319.1 320.1 322 321.7 318 314.7 310.6 303.5 298.7 295.1 290.2 284 279.2 275 273 270.1 264.7 260.4 257 253.5 251.6 242.5 251.6 248.5 247.5 244.4 236.4 247.8 250.1 252.5 257.1 261.2 261.8 263.3 266 268.8 272.4 275.1 278.9 284.6 293.8 299.6 302.9 305.2 307.9 314.5 320 323.5 326.1 328 329 326.9 325.3 323.8 322.6 321.6 321.8 321.2 321.2 321.1 321.3 321.1 320.8 321.6 321.8 321.8 321.1 319.7 318.6 318.1 317.9 317.5 316.3 314.4 311.9 309 306.1 304.5 301 298.3 296 293.5 291.5 289.2 286.7 283.3 281.7 282.3 284.8 285.5 286.1 286.8 286.8 286.7 286 285.1 284.4 283.5 281.7 279.8
370.6 373.8 377.4 380.6 383.5 386.3 390.9 397.7 404.1 410.1 414.4 417.6 422.3 429.1 434 435.4 436.2 436.5 435.7 434.4 432.6 430.9 428.8 426.5 425 423.1 420.7 417.6 412.9 407.9 404.9 402.2 399.4 396.5 394.1 391.3 388.2 385.5 383.1 379.6 374 371 369.6 366 362.8 359.7 356.5 353.1 350 347.8 345.6 344.1 342.3 340.5 337.6 333.2 329.1 325.6 322 319.3 315.4 311.3 307.8 303.4 298.3 291.8 286.5 281.5 278.4 284.8 287.2 288.5 291.4 293.3 294.1 297.9 297.1 298.2 300.1 299.3 294.9 300.5 303.7 303.4 303.4 301.7 301.7 304.9 309.4 312.1 314.4 316.2 316.1 315.2 313.9 313.9 317.6 324.6 326.1 326.3 324.7 323.9 323.9 321.5 318.6 315.1 311.5 304.3 298.8 294.9 290.8 284.5 279.1 275.4 271.7 268 264.3 260.1 256.6 254.6 253.8 243.6 252.9 249.3 247.8 238.4 246.1 249.9 252.8 255.7 260.1 262.4 264.7 266.4 268.5 271 275.4 280.5 287 289.1 293.2 298.2 301.3 303.8 307.1 314.6 321.8 324.6 326.8 328.1 328.6 327.6 326.5 324.9 324.5 322.8 323.4 322 321.6 321.8 321.9 322 322.5 323.2 323.4 322.9 322.4 321 320.2 319.8 319.8 319.8 318.9 317.2 314.4 311.5 308.5 306.6 304.1 301 298.4 295.7 293.7 291.6 289.3 286.7 285.9 285.6 287.4 288.7 289.2 289.8 289.7 288.8 287.8 286.9 286 285.2 283.9 282.6
373.5 376.3 380.1 383.8 386.8 389.6 395.7 402.2 407.2 413.1 416.4 419.4 423.8 430.4 435.1 436.9 437.3 437.4 436.4 435 433.2 431.6 429.6 427.9 425.6 423.5 420.5 416.8 412.1 406.7 402.7 400.1 397.9 395.6 393.6 390.9 387.7 385.1 382.4 377.1 372 368.5 363.7 360 357 354.6 351.6 348.9 346.2 344.9 343.9 343.4 343 341.2 335.9 330.1 323.7 319.7 318.5 315.3 311.5 308.1 301 294.3 288.7 283.9 283.5 282.8 286.6 290.6 293 294.1 295.2 297.9 298.4 299.8 301.4 303.3 304.2 301.2 298.5 301.6 306.7 306.6 306.3 305 304.6 308.2 312.2 315.3 318.5 318.5 318.5 317.1 315.7 315.6 321.9 328.7 330.3 330.4 328 324.5 323.3 321.9 318.8 314.9 311.8 306.8 300.2 295.1 290.8 287.1 283.6 278.9 274.4 268.4 263.8 259.9 256.9 256.9 255.6 247.6 253.6 250.3 247.8 242 250 253.3 256.5 259.6 263.1 265.2 269 272.3 273.9 275.7 278.6 285.3 291.7 292.9 294.8 297.9 300.7 303.4 307.1 315.7 321.9 325.2 327 328.3 328.6 327.8 327.1 325.5 325 324.9 325.2 322.8 322.1 322.9 323 323.2 323.7 324.1 324.2 323.9 323.4 322.9 322.3 321.8 321.4 321.6 320.9 319.3 317.2 314.4 311.4 309.4 306.6 303.8 300.4 297.6 295.6 293.5 291.4 289.8 289.4 288.7 290.2 291.5 292.1 292.5 291.6 290.5 289.1 288.2 286.7 285.7 284.6 283.9
375.8 378.5 382.7 386.7 389.9 392.8 400.3 406.1 411 415.6 418.5 420.8 425.5 431 436.4 438.3 438.3 437.9 436.9 435.6 434.1 432.6 430.9 429.4 426.6 423.3 419.4 413.9 410.4 405.3 401.5 398.7 396.5 394.7 392.9 389.9 386.8 384.1 380.1 374 368.1 362.6 358.7 355.8 352.8 350.2 347 345.1 343.3 341.2 340.8 343.4 341 333.6 328 324.1 320.4 316.2 313.1 310.6 306.5 301 294.3 288.8 286.8 289 291.2 294.1 297.9 299.3 298.8 298.9 298.9 301.6 302.9 305.5 307.3 308.6 305.5 303.8 303.1 302 308.4 309.4 309.6 309.7 307.9 311.1 315.2 319 321.9 320.7 319.7 319.3 317.7 316.9 326.4 331.3 332.7 330.6 329.2 326.1 320.8 320.4 318.1 314.2 311.2 306.6 300.2 294.4 290.4 287.1 284.1 280.4 275.5 269.5 263.1 259.6 259.3 258.4 252.8 254.8 254.2 251.3 248.7 246.7 253.1 257 260.5 263.4 267 271.1 275.8 278.3 283 284.3 284.9 288.8 292.8 295.2 297.2 299.1 301.3 304.2 308.7 316.7 323.1 326.2 327.6 328.4 327.9 327.2 325.8 324.8 323.7 323.9 323.2 321.4 321.7 322.7 322.8 323.6 324.3 324.5 324.7 324.7 324.3 324.1 324.3 323.7 323.1 323 322.5 321.4 319.8 317.2 313.9 312 308.7 305.9 302.7 299.6 297.4 295.3 293.8 292.5 292.1 291.7 292.6 293.8 294.9 295.2 294.7 292.9 290.6 289.1 287.6 286.2 285.2 284.8
377.3 380.4 385.1 388.9 392.2 396.3 404.2 410.2 414.3 417.5 420.2 422.8 427.1 432.5 436.9 438.8 438.8 438.2 437.6 436.4 434.9 433.4 431.8 429.6 426.7 421.4 415.9 411.6 407.9 403.1 400.2 397.4 394.8 392.7 389.6 386.9 384 380.2 375.6 369.5 363.1 358.9 355.7 352.5 347.1 345.7 344.3 342.5 339.9 337.1 333.5 333 329.7 325.2 321.8 318.9 316.1 312.5 307.6 304.2 299.3 293 291.3 292.7 295.3 298.7 299.7 302.5 304.2 304.3 303.6 303.6 303.4 307.7 309.8 312.9 313.2 309 306.4 305.8 306.6 306.3 305.8 309.6 312.3 314 313.5 314.6 318 321 322.3 321.4 320.9 320.6 320.2 320.3 327.4 331.4 331.3 332.1 327.8 326.8 320.2 317.6 316.3 313.4 310.3 305.2 299.2 294.5 290.9 287.5 284 280.7 276 269.6 262.1 259.4 260.5 260.6 249.6 257.7 255.8 252.2 247.8 250.7 256.7 261.1 264.1 268.3 274.3 279.6 283.2 286.9 290.3 290.4 289.6 291.8 294.2 296.4 298.5 301.6 303.4 306.6 312.6 317.5 324 327.2 328.5 328.2 327.1 326.2 323.8 321 320 320.6 321.4 320.5 319.9 320.5 321.5 322.9 324.6 325 325.5 325.7 325.5 325.2 325.9 325.6 324.9 324.2 324 323 321.9 319.4 316.2 313.4 310.1 307 304.4 301.7 299.3 297.9 296.7 295.6 294.6 293.9 294.1 295.3 296.4 296.7 295.5 294.3 292.6 290.8 289.1 287.7 286.4 285
378.7 382.4 387.2 390.6 394.1 398.3 406.9 412.6 417.5 419.6 422.1 424.9 429.5 434.7 437.6 439.2 439.4 438.6 438 436.2 435.2 433.6 431.2 427.5 422.2 417.1 412.9 408.6 404.6 401.8 398.8 395.9 393.1 389.7 386.5 383.5 380 375 369.5 363.7 359.8 356.2 352.7 345.6 341.6 338.9 339.3 336.9 333.7 330.7 327 323.2 320.8 317.8 315.1 311.9 308.6 305.7 302.5 298.1 295.1 295.6 298 301.3 302.7 305.6 307.8 308.9 309.8 309.2 308.1 309.1 309.1 311.5 314.1 318.3 316 310.1 309.3 308.8 309.7 310.7 311.7 310.8 313.8 317.8 318.2 317.3 319.6 321.7 322.3 322.4 322.2 322.7 325.3 329.2 330 334.8 334.4 333.2 330.9 326.8 320.2 315.3 312.9 311.7 308.2 303.4 298.7 295 291.6 288.2 284.7 281 275.4 267.6 262.6 259.9 257.2 253.4 253.4 257.8 257 254.5 249.3 250.2 260.1 264.9 270.1 278.4 284.6 288 291.5 294.9 296.3 294.8 294.1 294.8 296.8 299.5 302.5 306.5 308.6 310 313.3 316.6 321.8 326.5 327.1 326.8 325.6 322.1 320.5 318.9 318.3 317.6 318.5 318.7 318.7 319 320.5 322.6 324.4 325.7 326.1 326.2 325.9 326.4 326.9 327 326.4 325.6 325.2 324.6 323.2 320.1 316.2 313.7 310 307.6 305.4 303.7 301.9 300.1 298.8 297.6 296.7 295.8 295.8 296 296.3 296.2 295.7 294.7 293.4 292 290.5 289 287.6 286
379.9 383.9 388.7 392.4 396.2 403.2 410 414.7 418.9 421.5 423.8 428.5 432.7 436.9 438.8 439.8 439.5 438.9 438.1 436.1 432.3 427.5 425.5 421.6 417.2 413.4 409 405.6 402.9 400.3 397.4 394.4 391.3 387.7 383.5 379.1 374.5 369.1 364.8 360.8 357 353.5 346.8 343.7 346.2 337.9 330.6 330.4 327.6 323.4 319.6 316.8 314.7 312 309 306.6 304.4 302.7 300.8 300.5 300.5 300.1 305.2 307.9 308.6 311.4 312.5 314 315.5 313.9 312.1 313 314 315.9 317.6 318.6 315.4 314 313.4 313.2 313.4 314.6 316.4 315.9 314.4 317.9 321.3 320.3 321.6 323.8 324.5 323.7 323.4 325.2 329.3 330.1 334.9 335.3 333.9 332.9 331.2 328.8 323.1 317.4 310.7 307.6 304.6 300.4 297.2 294.8 291.7 287.7 283.6 277.6 272.6 267.4 263.4 261.4 257.9 252.3 259.1 258.9 258.2 255.8 250.1 259.1 263.2 268.5 278.9 287.5 290.6 292.9 295.6 299.1 299.5 298.3 297.5 298.4 302.4 305.3 309.8 312.4 313.3 314.1 315.4 316.6 319.4 323.6 324.3 324.5 322.3 319.8 317.9 317.2 316.6 316.1 316 316.7 316.3 317.2 319.2 320.8 322.9 325 325.7 325.4 326 327.1 327.8 328 327.6 327 326.5 325.4 323.6 320.1 316.2 313.8 310.7 308.7 307 305.6 303.9 302.2 300.6 299.6 298.5 297.2 296.2 295.9 295.8 295.4 295 294.2 293 291.7 290.4 289.2 288.4 286.5
380.9 384.7 389.8 393.7 398 406.2 412.3 416.4 420.4 422.9 426.8 432.2 436.9 439.3 439.9 440 439.5 438.5 437.1 434.3 429.9 425.1 420.9 416.4 412.6 409.3 406.5 403.4 399.5 397.4 394.7 391.9 389.3 385.5 380.9 375.8 370.1 365.6 361.8 358.1 354.6 349.9 344.6 343.7 343.7 338.1 328.9 322.5 319.4 317.3 315.5 314.8 314.2 312.9 311.8 310 308.3 307.6 307.1 306.9 304.6 305 310 312.5 313.9 315.7 317.1 319.5 318.4 317.2 316.2 318.6 322.9 325.8 326.3 324.2 323 321.2 319.1 318.2 317.8 317.9 319.4 319.9 318.9 318.4 321 322.6 323.4 325.1 326.4 325.4 325 327.5 330.3 331.2 335.4 335.2 332.3 329.7 328.4 328.2 324.3 319.2 312.7 308 303.3 299.2 296.2 293.2 289.7 286 281 277.4 272.9 267.6 264.1 262.3 258.2 255.3 258.7 260.2 259.8 257 256.2 261.9 265.9 274.5 284.1 290.6 293.7 296.4 298.3 300.3 301.7 302.2 302.1 300.5 307.7 311.5 314.5 316.2 316.5 316.5 317.9 318.2 318.9 320.5 321.7 321.5 319.2 317.5 316.5 315.6 315.1 314.5 314.3 314.9 314.8 315.6 316.4 317.9 319.4 321.9 322.7 322.8 323.9 327.2 328.6 329.1 329 328.4 327.3 326 323.4 319.9 316.1 314 311.2 309.2 307.9 306.7 305.2 303.8 302.2 301.2 299.8 298.2 297 295.7 294.5 294.1 293.4 292.7 291.3 289.9 288.9 289 288.5 287.4
381.4 384.9 390 394.5 399.2 406.8 414 417.8 421.1 424.6 430.8 436.7 440.2 440.8 440.6 440.2 439 436.5 434 429.2 425.3 422.1 418 414.4 411.6 408.7 405.7 402.7 400.4 397.4 393.8 391.2 388.1 382.9 377.7 370.8 366.9 363.1 359 355.4 351.4 345.6 343.7 343.7 343.7 344.5 329.5 320.3 321.4 321.8 321.6 320.1 318.4 317 315.2 313.6 313.5 313 312.4 311.6 308.1 310.1 314.3 317.1 319.5 319.8 324.5 325 322.5 322.3 324.9 331 334.6 335.6 333.7 331.5 329.5 326.5 324.2 322.2 322.4 322.2 322.2 322.7 322.3 321.8 322.1 324 325.1 326.1 327.1 326.5 327 328.1 331 331.5 333.6 334.1 332.9 333.2 329.4 324.9 322.7 317.7 313 309.8 304.1 298.7 294.9 292.4 289.4 284.8 279.9 276.8 274.1 268.1 265 260.8 257 259.2 261 262.5 261.5 254 259.9 263.6 268.3 278.8 288.7 293.2 295.7 297.9 299.5 301.5 304.6 307.3 308 310.2 314.1 316 317.9 319.4 319.6 318.9 319.1 318.6 317.8 318.1 319 318.8 317.6 316.3 315.8 315.1 314.2 313.6 312.9 313.1 314 314.9 315.2 315.6 316.2 316.9 317.5 317.1 319.1 323.6 328.1 330.3 330.8 330.1 328.6 326 323.1 319.6 316.1 314.1 311.5 309.9 308.5 307.5 306.9 305.4 303.7 302.3 301.2 299.3 297.3 295.7 294.2 292.7 291.7 290.2 288.9 287.5 287.1 287.4 287.9 287.8
381.7 385.2 389.7 394.5 398.9 406.8 414.2 418.2 421.6 426.7 434.1 440 441.9 441.5 440.7 439.5 436.7 433.5 428.8 425.3 421.6 418.6 415.5 412.8 410.4 407.2 404.8 402.3 399.5 396.5 393.3 389.9 385.4 380.7 374.5 367.9 364.2 360.6 356.2 352.2 347.7 343.7 343.7 343.7 343.7 343.7 335.5 325.7 325.5 325.1 324.3 322.6 320.7 319.9 318.6 317.7 317.7 317.1 316.4 314.9 312.5 314.5 317.9 321.6 324.4 326.2 328.6 328.5 328.4 331.9 335.9 336.8 337.6 338.1 336.4 335 331.9 329.2 327.7 326.7 326.5 325.6 324.7 324.3 324.1 323.7 323.8 325.4 327.1 327.7 328.5 328.7 329.1 330.1 330.7 331.9 333.2 335 335.9 334.6 330.6 325.5 320.6 316.2 311.7 308.8 304.2 298.5 293.4 291.2 289.2 286.1 281 275.9 272 268.1 265 257.5 262.4 262.3 263.4 265.1 263 254.9 259 264.8 269.5 276.6 287.6 293.3 296.4 298.9 301.5 303.8 306.9 310.3 309.7 314.4 317.6 319.5 320.2 321.3 321.5 321.2 320 319 318.2 318.5 319.5 318.7 316.5 315.1 314.6 314.1 314 313.6 312.3 311.7 312.7 313.4 313.1 313.5 314.4 314.3 314.3 314 316 319.8 325.2 329.7 331.4 330.7 328.7 325.3 321.8 318.7 315.8 314.8 312.3 310.5 309.6 309.1 308.4 307.1 304.9 303 301.4 299.5 297.2 295.1 293.7 292 288.8 287.2 285.6 284.8 284.2 284.7 285.3 286.5
381.8 384.9 389.2 393.9 398.2 405.4 414.5 418.2 421.8 428.1 435.8 440.6 441.7 441.2 440.2 437.6 434.1 429 425.2 421.7 418.7 416.2 413.7 411 408.4 406 403.5 400.8 397.7 394.7 390.3 385.9 382 376 369.6 365.4 362.3 358 353.3 348.3 343.7 343.7 343.7 343.7 343.7 343.7 342 331.1 329.8 328.6 327.1 325.6 324 323.1 322.6 321.8 321.2 320.3 319.5 318.1 316.4 319.2 322 325.1 328.3 329.7 331.4 333.5 337 340.5 343.3 341.8 340.1 339.8 338 336.3 333.6 332.5 331.2 330.3 329 328 326.9 326.3 326.9 327.2 327.4 329.3 330.9 332.7 335 338 340.4 335 331.1 332.4 335.1 336.3 336.2 334.1 330 326.2 321.6 315.6 311.8 309.3 304.2 297.6 292.6 289.8 287.5 283.7 278.9 274.2 270.2 265.5 260.7 263.9 264.9 264.3 266.6 267.5 263.3 257.2 260.7 266 270.7 275.9 285.3 292.7 297.1 299.9 302.6 304.8 308.7 311.5 311.4 316.3 317.3 318.7 319.5 320.8 321.5 321 320.4 319.6 318.4 318.6 319.8 317.3 314.9 313.7 313.1 312.6 313 313.2 312.3 311.4 311 311.6 311.5 311.7 311.9 312.7 312.7 312.5 313.9 317.5 322.3 328.1 330.1 328.8 325.8 322.8 320.3 317.8 315.8 315.4 313.6 312 310.8 310.4 310 308.3 305.9 302.7 300.6 298.8 296.2 294 292.9 291.6 288.2 283.7 282.2 281.6 281.4 281.9 282.4 283.5
381.3 384.6 388.3 392.8 397.5 405.6 414.6 418.4 421.9 428.3 435.5 440 440.9 440.3 438.7 434.7 429.8 425.9 422.7 419.5 417.1 414.4 411.8 409.1 406.2 404.2 401.4 398.5 395.1 390.8 386.3 382.2 376.7 371 367.1 364 359.9 355.5 351.4 344.6 343.7 343.7 343.7 343.7 343.7 343.7 345.1 335.9 333.8 332 330.5 329.1 327.6 326.7 325.9 325.3 324.4 323.7 323.2 321.7 320.1 323.2 326.1 328.8 330.7 332.6 336.9 340.3 343.5 345.5 346.4 345.8 344.2 341.7 341.6 339.4 336.1 335.1 334 333 332.4 331 329.5 331.4 333.7 336.6 339.5 342.2 341 341 341 341 341 338 332.5 334.5 336.1 336.5 335.6 332.5 329.2 325.6 321.8 316.4 311.9 308.1 303 296.6 292.4 288.5 285.4 281.4 276.3 272.1 269.8 266.9 261 266.9 267.3 267.5 267.9 265.9 261.4 257.1 263 268.1 271.4 275.5 282.3 289.7 295.6 299.5 300.5 302.8 307.1 308.9 311.8 311.9 312.9 314.6 316.5 317.7 318.9 319.1 318.8 318.9 317.5 316.8 316 314.3 313 312.4 311.9 311.3 310.3 311.3 311.6 311.9 309.8 310.2 310.1 309.1 309.8 311.4 312.2 311.7 312.3 315 318.3 322.3 324.4 324.2 322.7 321.6 319.5 317.9 316.5 316.2 316 313.3 312.3 311.5 310.3 307.8 305.3 302.3 299.8 298 295.1 292.7 291.1 290.1 287.3 283.4 279.1 278.9 278.8 279.2 279.8 280.3
380.6 384.2 387.7 392 396.6 404.6 413.9 418.1 421.6 426.7 433.8 438.7 440 439 436.1 431.3 427.5 423.2 420.1 418 415.4 412.7 410 407.3 404.7 401.9 399.1 395.4 392.3 388.1 383.5 377 372.2 368.8 365.9 362.6 357.9 353.7 348.3 343.7 343.7 343.7 343.7 343.7 343.7 343.7 343.7 340.2 337 335.4 333.8 332.1 331 330.6 329.6 328.7 328.1 328 327 325.4 324.3 327.8 331.3 332.2 333.1 335.5 341.5 346.4 349 349.5 349.9 349 347.6 346.8 345.3 343.1 342 340.7 338.3 336.7 337.3 336 338.9 341 341 341 341 341 341 341 341 341 341 341.4 335.4 336.8 336.9 336 335.3 332.9 329.2 325.8 321.6 316.1 311 305.6 302.3 296.8 292.2 287.4 282.8 279.9 275 271.9 269 264.1 264.9 268.1 267.3 267.4 267.4 263.8 259.6 261.7 261.3 268.4 271.9 275.7 280.1 284.5 289.5 293.4 297.4 300.8 304.5 306.9 306 307.5 309.8 312.1 313.6 314.6 315.7 316.5 316.9 317.7 316.4 314.2 313.1 312.6 312 311.4 311 310 308.7 308.7 308.3 309.4 308.1 307.9 308.3 307.3 306.8 308.3 310 309.8 310.6 312.3 314.4 317.4 319.3 319.9 320.2 320.6 319.9 318.5 317.2 316.1 316.6 314.7 313.6 312 309.4 306.5 304.3 301.4 298.9 296.6 293.1 289.9 288.9 287.6 284.4 280.8 278.1 276 276.3 276.7 277.2 277.4
379.6 383.9 387.4 392.2 396.7 403.8 413.4 417.7 421.1 425.3 431.9 436.7 438.2 435.3 431.7 428.3 424.3 420.9 418.6 416.3 413.6 410.9 408.1 405.5 402.5 399.7 397 393.6 390 385.9 380.1 374.3 370.4 366.9 364.7 360.6 356.3 352.3 347.3 343.7 345 345.9 345.4 344 343.7 343.7 343.7 346.2 340.2 338.7 336.9 335.2 334.9 334.3 333.4 332.5 331.8 331.3 330.7 329.8 329.9 331.4 334.1 335.1 336.2 340.3 347 351.7 353.3 353.6 353.7 352.5 351.2 349.6 348.1 347 345.9 343.7 343 342 341.3 341 341 341 341 341 341 341 341 341 341 341 341 341.9 337.8 338.2 337.9 336.4 334.8 332.6 329.1 325.8 321.4 316.2 310.2 304.5 299.8 295.7 291.3 287 283 279.7 275.1 271.8 268.5 267.3 267.9 269.1 267.4 266.6 265.5 262.6 262.3 266.3 268.8 264.8 269.1 272.7 277.6 281.2 284.2 287.6 292.7 298 301.8 302.4 303.2 304.8 307 308.7 310 312.1 312.7 314.1 315.1 314.9 314.7 314 313.5 312.9 312.6 311.5 311.3 310.5 309.6 309 307.4 305.8 306.2 303.9 305 305.3 302.4 303.2 304.6 307.5 309 310.1 311.2 313.4 315.8 317.1 319.2 320.3 320.1 319.2 318.2 316.8 316.7 315.7 313.2 311 308.6 305.9 303 300.2 297.2 293.9 290.9 287.4 285.3 284.5 281.4 278.4 276 272.8 272.6 273.3 273.3 273.3
380.2 384.4 388.2 393.8 397.8 403.9 413.3 418.4 422.2 426 430.9 433.9 433.6 431.4 428.3 425.1 421.7 419.5 417.2 415 412.3 409.3 406.5 403.6 400.7 398.2 395.6 392.5 388.5 381 376.5 373 369 366.2 363 358.7 355.4 351.5 345.5 345.6 348.2 349.1 348.6 347.7 347 345.8 343.7 343.7 343.7 342.3 340.6 339.2 338.4 337.4 336.4 335.9 335.3 334.9 335 334.8 335.2 333.6 338 339.4 340.5 345.3 352 355 357.2 357.7 356.3 354.5 353 351.2 349.6 348.4 347.2 345.7 344.4 343 342.3 341 341 341 341 341 341 341 341 341 341 341 341 341 340 340.3 339.7 338.2 336.3 332.8 329 325.3 321.1 315.8 309.2 304.1 299.6 295.3 292.1 288 283.5 279.4 275.1 271.8 270.4 269.5 270.1 270.3 269.5 267.5 266.1 263.9 267.1 271 273.1 269.9 272.7 276.9 278 281 285.7 291 294 295.8 304.7 298.7 300.6 302.7 304.2 306.2 308.1 310.3 311.8 312.9 314.3 314.8 314.8 314.6 314.4 314.3 313.8 314.5 314.5 313.5 312.2 310.3 309 308.1 307.8 306.8 307.5 306 303.5 300.6 298.6 300.8 306.1 307.8 309.2 310.5 312.5 315.5 318.4 320.7 320.9 320.2 319.2 317.8 316.4 315.9 312.7 310.5 307.9 305.5 302.1 298 295.1 292.1 288.6 285.6 281.6 279.6 277.5 275.9 274.3 271.3 268.5 268.5 268.9 267.9
381.2 384.9 389.2 394.8 398.8 404.6 413.5 418.7 423.2 426.7 430.3 431.2 429.6 427.5 425.3 422.4 420.3 418.1 415.8 413.7 411.3 407.9 405 402.1 399.1 396.4 393.6 388.7 382.7 378 374.8 370.8 368.3 365.3 361.2 357.5 354.2 350.3 344.6 350.2 351.8 351.3 350.4 349.6 348.9 348 347.9 343.7 345.6 345 343.8 342.7 341.6 340.6 339.8 339.1 339 339.8 340.3 340.3 339.8 338.2 341.1 341.8 345 352.7 356.2 358.4 360.1 360.1 358.3 356.5 354.7 352.5 350.9 349.7 348.3 346.9 345.6 343.8 341 341 341 341 341 341 341 341 341 341 341 341 341 341 342 341.3 340.5 339.6 337.2 334.6 330.7 326.5 321.6 316.3 309.3 303.8 300 295.6 292 288.7 284.1 279.3 275.2 273.9 272.9 271 271.3 270.8 269.5 268.8 266 267.6 271.6 275.6 276.1 273.1 275.2 277 280.6 283.9 287.2 291.6 296.9 302.3 302.6 300.5 301.3 303.6 304.9 308.4 310.5 311.6 312.6 313.6 314.6 314.8 314.9 314.9 315.3 315.1 314.3 312.5 312 312.2 312.1 311.1 310.6 311 311.1 311.3 311 309.8 308.3 305.9 303.3 296.9 301.4 305.9 307.9 308.7 310.5 314 318.9 321.3 321.8 321.1 320.2 318.8 316.7 316.3 312.3 310 307.5 305.3 302.3 297.7 295.1 292 288 284 279.9 276.5 274.8 273.1 271.6 269.3 265.9 263.5 263.3 262.9
382.3 386.1 390.7 395.8 399.7 405.1 414 419.6 424.1 427.3 430.2 429.8 427.6 425.4 423.4 421.6 419.7 417.4 414.8 411.9 409.3 406 403.3 400.7 398.3 395 390.6 383.6 379.2 375.5 371.8 368.7 366.5 363.6 359.9 356.2 352 348.5 351.8 354.2 354 353.2 352.7 351.8 351.7 351.4 351.3 350.7 349.1 348.8 347.5 346.2 345.1 343.8 343.8 343.4 343.6 343.5 343.9 344.1 343.5 341.8 345.6 346.4 352.4 357 360.1 361.7 362.8 361.9 360.2 358.3 356.2 353.9 352.3 350.6 348.9 347.2 345.9 344.1 342.1 341 341 341 341 341 341 341 341 341 341 341 341 342.6 342.7 342.6 342.1 340.6 338.6 335.1 331.8 328.1 321.7 315.5 308.7 303.2 300.2 295.8 292.2 288.6 283.5 281.1 278.7 277 274.4 273.3 273.1 272.1 270.8 269.1 267.8 271.5 274.5 278 276.4 277.4 279 281.2 282.5 284.5 288 291.9 297 307.8 304.6 303.8 303.2 306.2 308.4 312.6 313.4 314.1 314.4 314.7 314.9 315.1 315.4 315.8 315.2 314.2 313.5 311.7 310.1 309.2 308.6 308.7 309.6 310.3 310.4 309.4 309.2 309.8 309.7 310 307.5 301.8 295.4 301.3 305.9 307 308.5 313 319.1 321.8 322 321.4 320.3 318.7 316.7 315.1 311.9 309.5 307.2 305 300.9 296.5 294.3 292 289.8 285.9 281.4 277.9 273.4 270.5 268.8 266.3 264 261.7 259.3 259.4
383.9 387.9 392.5 397 400.9 406.8 414.7 420.2 424.9 428.3 430 429.5 428.5 426.3 423.1 421.5 419.7 417.5 414.6 411.5 408.5 405.8 403.2 400.7 398.2 393.8 388.4 382.6 377.4 372.6 368.3 364.7 361.7 358.3 355.5 352.6 352.4 355.5 357 357.3 356.2 355.6 355.8 355.6 355.1 354.7 354.2 353.6 352.6 352.1 350.9 349.7 349 348.4 347.6 347.1 346.9 347.1 347.5 347.7 347.1 344.1 350.3 353.4 356.7 360.2 362.8 364.4 364.5 363.1 361.4 359.7 357.3 355 353.1 351.3 349.4 347.8 346 343.9 341.3 341 341 341 341 341 341 341 341 341 341 341 342.7 343.7 342.6 342.6 342.1 340.4 338.7 335.3 333 328.8 323 316.4 309.9 304.2 300.4 295.7 290.5 287.5 286.4 284.7 282 278.8 276.8 276.9 276.2 274.9 272.6 270.6 271.1 274.7 277.9 278.5 278.9 279.7 281.5 283.9 286.4 289.4 291.4 294.7 300.9 302.6 305.6 305.5 305.1 307.7 312.3 315.4 315.5 315.2 315.3 315.5 315.4 315.6 316 315.9 315.4 314.7 313.4 311.2 310.3 309.7 308.8 307.9 306.6 305.5 305.1 304.2 304.9 307.3 307.9 308.8 309.3 306.1 298.3 294.4 300.8 305.6 307 310.1 314.9 318.9 320 319.6 318.3 317.3 315.4 313.8 311.7 309.1 307 304.9 300.6 296.1 293.8 291.9 290.6 287.5 283.4 279.3 276.3 273.4 270.7 268.5 265.6 262.9 259.9 256.6
385.4 389.5 394.2 398.2 402.2 408.1 415.4 420.8 426.3 429.5 430.6 430 429.1 427 423.4 421.3 419.6 417.2 414.5 411.5 408.8 406.1 403.5 401 397.2 391.4 387.1 382 375.9 371.9 369.7 366.7 364.1 361.7 357.7 357.2 358.8 359.5 359.9 360 359.2 359 358.8 358.6 358.4 357.8 357.1 356.5 355.2 354.6 353.5 353.3 352.6 351.5 351.1 351 350.6 350.8 351.8 351.9 350.1 347.8 355.6 357.9 360.5 363.6 365.9 366.4 365.1 363.4 361.9 360 358 356.1 354.1 351.9 349.8 347.8 345.5 343.3 342.1 341 341 341 341 341 341 341 341 341 341 341 343.5 345.1 346.5 342.4 342.5 341.6 339.8 337.9 333.5 328.5 322.3 316.7 310.2 304.3 300.2 295.7 292.2 290.1 289.3 287.4 284.4 280.7 280 280.4 278.6 276.5 274 272.5 274.5 278.1 280.9 280 280.4 282.1 284.6 286.5 289.4 293.8 297 300.5 310.4 308.5 308 307.2 307 308.7 312.3 315.5 317.1 316.4 316.1 316.2 316.2 316.1 316.2 316 315.6 315 313.6 311.9 310.7 310.1 309.5 308.8 307.9 307.7 307.5 306.1 302.6 305.8 305.9 306.5 307.1 307.9 304.7 295.9 294.3 303.5 304.9 307.5 309.2 312.7 314.4 315 314.6 314.5 313.2 312.5 311.1 308.8 306.9 304.9 301 296.5 293.4 291.8 290.4 288.9 286.9 282.4 279.5 276.7 273.7 270.6 267.4 264.2 260.8 256.8
386.7 390.8 395.8 399.6 403.7 409.8 416.4 422.1 427.8 430.6 431.1 430.4 429.4 426.9 423.7 421.4 419.1 416.9 414.4 411.9 409.2 406.5 403.9 400.2 394.9 387.4 383.7 380.8 377.9 376.1 373.4 370.7 367.4 364.3 361.6 363 363.2 363.4 363.8 363.2 362.3 362.7 362.4 361.7 361.4 360.7 360 359.2 358.1 357 356.2 356.2 356.2 355.8 355.7 355.7 357.1 358 357.6 356.6 353.7 353.1 360.1 362.7 364.4 366.9 368.7 367.5 365.7 364.1 362.4 360.8 359.3 357 354.7 352.1 349.6 347.3 345.3 344.1 342.5 341 341 341 341 341 341 341 341 341 341 345.5 345.8 346.7 348.8 345.9 344.4 342.6 340.3 338 333.4 327.8 321.4 315.9 310.4 304.6 300.6 296.5 294.1 292.8 292.4 291.8 288.2 283.2 284.5 284.3 281 278.5 277.5 277.4 279.4 281.8 281.6 281.8 282.7 285.6 288.5 291.3 295.2 299 302.8 307.7 312.9 314.1 310.7 309.3 309 309.8 313 316 318.4 318.3 318 317.9 317.3 317.2 316.8 315.9 315.4 314.7 313.8 312.5 311.1 310.6 310 310.4 309.8 309.2 308.9 308.3 306.7 301.2 303.7 302.6 304.8 304.2 303.5 301.5 292.3 298 301.4 304.6 306 307.6 309.3 310.1 310.4 311.3 312 311.5 311 309.1 307.2 304.5 300.7 296.8 293.1 291.6 290.2 289.1 288.2 284 281.6 279.2 275.9 272.3 268.2 264.2 260.6 258.7
388.9 393.1 397.7 401.8 406.1 413.6 418.1 422.9 427.7 431 431.6 430.7 429.6 426.9 423.8 422 419.7 417.3 415 412.2 409.5 406.5 402.9 398 393.1 390.4 388.5 386.4 383.5 380.2 377.1 373.3 369.8 366.8 367 367.9 367.8 367.9 367.8 367.4 367.1 366.6 365.9 365.2 364.8 364.1 363.5 363.1 362.3 361.7 361.3 361 361.5 362.4 363.4 365 366.8 366.6 364.4 362.8 358.7 359.1 363.7 367.2 368.9 369.6 369.9 368.5 366.8 365.3 364 362.1 359.9 357.2 354.4 351.8 349.2 347.5 345.9 345.9 343.4 342.1 341 341 341 341 341 341 341 341.2 345.7 348 349.1 350 350 348.9 346.6 344 341.9 339.4 334.2 327.3 321.2 316 309.5 305.4 304.2 301.7 298.5 297.3 295.9 294.5 289.8 287.4 288.2 286.9 284.2 281.6 281.9 282.2 283.6 283.4 283.1 284 286.1 289.5 293.2 297.1 301.9 305.5 309.5 315.7 318.2 315.1 312.2 311.2 311.3 313.8 318.3 319.4 321.9 322.2 322.1 321.4 320.7 319.8 318.9 317.6 316 314.9 313.8 312.5 311.7 311.2 311.1 311.5 310.8 310.6 309.7 308.6 307.7 305.3 303.1 297.9 299.2 302 301.6 300 294 287.1 297.3 300.6 303 304.9 306.5 307.1 307.4 308.3 309.5 310.5 310.5 308.5 306.4 302.7 298.1 294.7 292.2 290.4 289.3 288.7 288 284.6 282.1 280.1 276.7 271.9 267.7 265 263.6 261.2
391.8 395.7 400.3 403.9 408.3 414 418.6 422.4 426.7 430.5 431.4 430.6 429.2 426.7 424.2 422.4 420.3 418 415.9 413.5 410.3 406.8 404.4 402.4 399.5 397.2 394.9 391.4 387.5 383.5 379.6 374.2 371.4 370.6 370.8 371.2 371.4 371.6 371.4 371.1 370.8 370.2 369.5 369.3 369.9 369.3 369.3 369.3 369 369.6 368.9 369.2 369.6 372.1 373.1 375.2 374.7 373.2 370.1 366.9 365.7 365.9 366.1 370 371.3 371.6 370.8 369.4 367.5 365.7 364.4 362.6 360.5 357.4 354.3 351.8 349.9 348.2 346.7 347.1 345.4 343.4 342.5 342.1 342.8 342.8 342.6 343.5 343.6 345.9 349.1 352.2 352.8 351.5 349.7 348.6 346.6 344.5 342.8 337.9 332.9 326.1 319.6 313.7 310.7 309.7 307.2 304.6 302.4 300.2 297.7 293.4 290.6 290.8 290.5 288.7 286.2 284.4 285.3 286.2 286 284.9 284.7 287.3 289.8 294 297.7 303.4 308.8 312.1 314.6 319 319.8 317.2 315.4 314.8 316.4 319.5 322.8 324.5 326.5 327.1 326.5 325.5 324 322.8 321.1 319.6 317.4 316.3 315.2 314.2 313.7 313.3 313 312.1 311.6 311.2 311.1 310 308.4 306.6 305.9 304 300.2 294.4 296.8 299.2 296.2 288.8 290 297.6 300.4 302.4 303.9 304.7 305.2 305.2 305.8 306.1 306.7 305.9 302.8 300.2 297 293.5 291.3 289.8 288.9 288.1 287.8 285.1 282.2 278.3 274.5 273.2 271 268.5 266.5 264.1
395.1 399 402.6 405.9 409.9 414 418.2 422.3 427.1 430.2 430.6 430.4 428.6 426.6 424.5 422.2 420 418.1 416.1 413.8 410.9 408.8 407.4 405.5 403.1 400.7 397.7 394.3 389.7 384.3 379 376.9 376 375.2 375.3 375.1 375.2 375.1 375 374.9 375 375 375.6 377.4 377.1 375.3 377.2 377.6 378 378 378.6 380.8 379.6 381.1 381.9 381.8 379.9 377.6 374.2 369.1 370.9 370.5 369.5 372.4 374 373.9 372.2 370.5 369.1 367.6 365.5 363.2 361.1 358.1 355.1 353.7 351.5 349.3 347.8 347 345.8 345.1 344.3 344.3 344.6 345.1 345.5 346.3 346.7 348.2 352.6 353.9 353.8 352.7 350.5 348.9 347.3 345.4 342.7 337.2 330.8 323 317.3 316.9 316.5 314.7 311.1 307.3 303.7 301.5 298.2 294.2 293.5 293.8 292.8 290.8 288.3 287.8 288.6 288.9 287.6 286.5 286.3 290 293.2 297.5 303.2 309.2 314.2 316.9 318.7 320.4 321.8 320.2 319.1 320.6 321.7 326.3 329.4 331.3 332.6 332.8 331.6 329.6 327.2 325.3 323.4 321.2 318.9 317.4 316.7 316.1 315.6 315 314.1 313.5 313.1 312.3 311.7 310.2 308.5 306.6 304.1 303.2 301.5 299.3 294 293.8 295.4 287.9 283.8 293.8 298 300.4 302.4 303 303.2 303.4 303.4 303 302.7 302 299.9 298.1 295.2 292.9 291.1 289.6 288.5 287.4 286.8 285.5 280.9 279.4 278 276 273.9 271.3 268.6 266
398.6 402.1 405.5 409 412.3 415.9 419.9 423.4 427.6 430 430.7 429.8 428.6 426.8 425 422.8 420.5 418.3 416.4 414.5 413 411.3 409.6 407.8 405.7 402.9 399.1 395 390.6 385.4 383.9 383 381.3 380.4 380.6 380.2 379.7 379.7 379.9 380.7 381.2 382 383.6 386.1 384.8 382.9 385.5 386.8 386.7 386.6 386.6 386.9 387.1 387.3 386.3 384.4 382.3 380.2 377.1 374.4 374.5 374 373.4 374.5 376.2 375.8 373.1 371.4 370.1 368.2 366.1 364 361.7 360.2 356.9 355 352.8 349.6 349.4 348.8 348.3 347.6 346.9 346.9 347.1 346.8 346.7 347.1 347.7 352.3 354.7 354 353.2 352.6 351.2 349.7 347.7 344 340.5 333.9 327.1 326 325.3 324.6 321.5 318 314.4 308.8 306.6 302.8 299.4 297.1 297 297 295.5 293 290.7 291.2 291.6 290.8 289.4 288.9 289.5 293.6 298 302.7 309.6 316 319.2 321.2 322.3 322.7 323.7 325.2 324.4 325.8 328.2 332.7 336 337.9 339.1 338.9 336.9 333.1 329.9 327.4 324.8 321.9 320.1 318.5 317.7 317.1 316.4 315.6 315.1 314.6 314 312.6 311.1 309.5 307.8 305.8 303 300.7 299.8 298.2 295.7 285.9 291.1 287.8 280.2 290.4 295.2 298.4 301 301.5 301.5 301.5 301.5 300.9 300.1 299.8 298.2 296.4 293.8 292.2 291 289.6 288.2 286.8 285.6 285.3 284.2 281.3 279 276.8 274.7 272.7 269.4 266.5
402.4 405.1 409 412.9 416.1 419.9 422.6 425.4 428.7 431.4 431.4 430.3 429.3 428.1 426.3 424.2 421.9 419.8 418.1 416.6 415 413.5 411.9 410.1 407.7 404 399.3 396 392.3 390 389.3 388.7 387.1 386.7 386.7 386.1 385 386.2 386.8 388.2 389 391 393.2 393.6 392.8 392.1 393 393.9 393 393.1 392.8 391.8 390.1 389.5 388 385.9 383.8 382.3 380.1 378.1 377.5 376.9 376.4 376.9 377.4 376.3 374.1 372.2 370.5 369.1 367.3 365.6 364.3 365.2 359.9 356.8 354.5 353 351.8 351.2 350.7 349.9 349.4 349.5 349.5 348.1 348.1 348.5 349.7 355.8 356.3 355.2 354 353.2 351.6 349.8 347.6 343.1 338.2 335.7 335.3 334.4 332.2 329.4 324.5 321 317.6 312.4 310.9 304.8 301.3 301 301.9 300.5 298.2 295.3 294.9 295.3 295.6 293.4 292.2 294 295 297.4 304 309.1 316.8 320.9 323.1 324 325.6 328.4 330.1 330.5 329.9 330.2 333.4 337.9 341 343.1 344.2 344.2 340.5 335.4 331.4 328.6 325.6 323.3 321.3 319.7 318.9 318 317 316 315 314.4 313.9 312.4 310.8 309.2 307.4 304.9 302.3 299.1 295.7 295 293.6 288.3 285.5 286.7 278.2 287.6 292.7 296.6 299.2 300.4 300 299.8 300.2 299.4 298.4 297.9 296.7 295.1 293.5 291.8 290.9 289.5 288.5 287.4 286.4 286.5 285.5 282.7 280 277.7 275.1 273.1 270.4 267.4
405.7 408.9 413.5 417.7 421 423.4 425.1 427.4 431.1 433 433 431.8 430.6 429.3 427.5 425.6 423.5 421.7 420.1 418.7 417.3 415.8 414.1 411.9 409.6 405.9 401.7 397.7 396 395.4 395.3 394 393.4 393.1 392.3 390.4 391.1 392.6 394 396 397.3 397.6 398 397.7 396.7 397.4 399.1 399 398.1 396.5 395.3 394 392.6 390.9 389 387.2 385.7 384.3 383.1 381.5 380.6 379.6 378.7 378.1 377.5 376.3 374.7 373.7 372.7 371.6 369.5 367.8 366.1 363.5 361.3 359.9 358.9 357.7 355.3 354 353.2 352.4 352.8 352.8 352.8 350 350 350.6 357.6 358.4 357.7 356.5 355.2 353.8 352.4 350.7 348.1 345.4 343.4 342.3 341.4 339.8 337.6 332.1 328 324.9 321.2 315.3 310.4 306.7 307.6 307.4 306 304.5 301.7 298.2 299.9 300.6 300.6 297.8 296 299.9 301.5 300.8 309.2 316.2 322.4 323.8 325.3 325.5 332 333.8 334.8 334.5 334.1 335 338.3 341.8 343.9 345.2 345.3 344.1 340.2 335.8 331 328.6 325.7 323.8 322.4 320.9 319.8 318.7 317.3 315.7 314.5 313.8 313.1 312.2 310.9 308.7 306.6 303.7 300.6 297.8 294.3 291 290 287.6 282 284.4 278.2 284.4 290.4 293.7 295.9 297.1 296.9 297.7 298.9 298.5 297.6 296.9 295.9 294.2 293 292.1 291.1 290.4 289.4 288.2 287.2 287.1 286.2 283.1 281.1 278.8 276.7 274.7 271.9 270
409.2 413.5 418.7 422.7 423.9 426.2 428.1 430.2 433.4 435 435.1 433.8 432.4 431.1 429.5 427.5 425.9 423.9 422.5 421.3 419.7 418.1 415.9 413.9 411.6 408.7 404.3 401.8 400.3 399.7 399.3 398.5 397.6 396.9 396.4 397.1 397.6 398.2 399.2 400.9 402.3 402.9 402.7 402.6 402.2 402.4 401.2 398.7 398.7 398.2 396.4 395.1 393.7 391.5 389.7 388.2 387 385.6 384.7 383.3 381.4 379.6 379.1 378.9 378.4 377.5 377.4 377.1 377.2 375.8 373.4 370.8 369.5 367.7 365.6 363.8 362.6 360.6 358.8 357.1 356.3 355.7 355.7 357.4 359.4 356 360.3 361.6 361 360.3 359 357.8 356.5 355.1 353.3 351 349 348 347 346 344.1 342.4 339.8 335.8 332.5 328.7 323.4 316.7 316.3 314.6 314.3 313.9 313 309.4 304.4 304.3 305.3 305.4 305.1 303 299.4 303.3 308.1 308.4 314.4 320.7 327.4 329 328.3 332.1 336 338.5 337.9 337.2 336.9 339 342.3 344.2 344.8 344.1 342.9 340.3 337 333.2 330 327.8 325.3 323.9 322.5 321.6 320.5 319.3 317.8 315.9 313.9 312.4 311.4 310.5 309.1 307.4 304.8 301.8 298.6 296 293.3 290.5 287.6 285 281.8 278.5 278.7 279.7 287.3 290.1 291.2 292.6 292.6 293.2 295.9 296.7 296.8 296 295.2 294.1 292.9 292.1 291.4 291.6 290.5 289.2 288.2 287.6 285.7 284 282 280.1 278.1 275.9 273.7 273.2
413.6 419.6 423.7 426.5 427.4 428.7 431.4 434.6 437 437.3 437.2 435.8 434.7 433.2 431.8 430.1 428.4 426.9 425.7 424.4 422.1 420.5 418.8 416.5 414.4 411.5 408.1 406.4 404.7 404.3 404.1 403.5 403 402.7 402.6 402.9 403.9 404.8 404.7 405.4 406.2 406.8 406.6 406.1 405.2 404.5 403.4 402.3 400.8 398.7 397.1 395.9 394.3 392.5 390.7 389.3 388.1 387 386 384.2 382.1 381.2 380.9 380.4 380.1 380.4 381.9 382.1 381.6 380 377.1 375.8 374.4 372.3 371.3 369.9 367.7 364.7 362.8 359.6 359 358.8 359.5 362.3 364.7 365.1 364.9 363.8 362.7 361.5 360.5 359.3 357.9 356.4 354.7 352.8 351.2 350.2 349 347.8 346.1 344.4 342.1 339.1 336.2 331.1 323.9 323.6 322.2 320.3 319.8 320.8 318.2 314.4 308.8 310.9 310.9 310.3 310.6 308.8 304.7 307.5 314.2 316.8 314.9 323 328.9 331.7 328.5 335.4 339.6 343 340.8 339.9 339.8 342.4 345.1 345 343.8 341.9 339.5 335.8 332.2 330.4 328.7 327 325 324 323.2 322.3 321.3 319.9 317.8 315.8 313.5 311.6 309.7 308.6 307.1 304.8 302.4 299.8 297 294.4 292.4 290.4 287.8 283 280.5 273.3 269 277.6 283.9 286 286.7 287.2 287.4 288.3 289.8 292.7 294.8 295.1 294.1 293.7 292.2 291.3 291 291.1 290.5 289.7 289 288 286.3 284.9 282.9 281.1 279.4 278.1 277.6 276.6
419 425.8 427.9 429.7 431 433.2 437.2 439.5 439.7 439.4 438.9 437.9 437 435.5 434.1 432.7 431.2 429.9 428.6 427.6 426.1 423.9 421.8 420 417.9 415.2 412.6 410.8 410.1 409.5 409.4 408.7 408.5 408.6 408.9 410.4 412.1 411.3 410.3 409.6 409.6 410.5 410.3 408.8 406.9 405.8 404.8 403.9 401.7 399.3 397.9 396.6 395.1 393.5 391.9 390.3 389.4 388.4 387.1 385.3 384.5 384.9 384.4 384.1 384.1 384.6 386 386.5 385.9 383.1 381.6 380.4 379.1 377.7 376.5 374.7 372.5 369.8 366.7 364.1 362.4 361.9 364.9 367.7 368.5 368.5 367.4 366.2 364.7 363.1 361.9 360.9 359.5 358.2 356.8 355.3 353.5 352.2 351 349.7 348 346.3 344.4 342.2 337.3 331.1 329.4 330.3 328.7 328.7 327.5 326.1 322.3 314.4 315.8 316.4 316.8 316.7 317.2 314.8 309.4 311.4 317.7 321.7 317.8 324.1 329.6 334 330.4 338 341.5 343.8 342.4 342.4 342.2 343.7 344.3 342.8 340.5 338.2 334.7 332.6 330.2 328.9 327.3 325.7 324.5 324.1 323.7 323 322 319.8 317.3 315 313.1 310.6 308.1 305.7 304.5 302.4 300.2 297.8 295.5 293.5 291.5 289.7 287.5 284.4 279.4 272.9 267.9 274.9 279.7 281.8 282.6 282.7 282.9 284 285.3 288.3 291.7 292.4 292 291.4 290.6 289.4 290 290.1 289.9 289.3 288.9 288.4 287 285.6 283.8 281.8 280.3 280.3 280.2 278.8
425.1 429.5 431.4 432.9 435.5 438.6 441.4 442.6 442.6 441.9 440.9 439.8 438.8 438 436.6 435.2 434.3 433.4 432.3 431.3 429.5 428 426.6 424.3 421.9 419.6 417.2 416.3 415.3 415.2 415.3 415.2 415.2 415.3 416.2 417.4 419.6 417.2 415.6 414.4 413.2 412.3 410.7 409.4 408.1 407 406.2 404.7 403.6 403.1 401 398.5 396.4 394.6 392.9 391.6 391 390.2 388.9 387.7 388.6 389.4 389 388.8 389.2 389.6 390.1 390.1 388.8 386.5 385.5 384.4 383.2 382 380.5 378.9 377.2 373.9 370.7 368.1 365.9 367.5 370.8 371.7 371.2 370.6 369.5 367.6 366.5 365.1 363.4 362.4 361.4 360.2 358.9 357.6 355.8 354.2 353.1 351.9 350.3 348.4 346.2 341.6 340.1 337 335.8 336.9 336.2 336.2 333.7 330.7 324.8 319.2 322.1 323.1 323 322.8 323 320.7 313.1 315.6 320 324.3 322 325.2 330.7 335.9 337.2 340.2 344.4 344.3 343.4 342.9 342.7 343 341.8 340.2 337.9 335.5 334 332.1 329.3 327.9 326.5 324.4 323.3 323.5 323.2 323.1 321.6 319.4 316.6 314.2 312 309.3 307.1 304.1 302.1 300.6 298.5 296.6 294.3 292.3 290.5 288.3 286.1 282.7 279.4 276 265.3 271.9 275.4 277.3 278.3 278.9 278.9 279.8 281.9 284.7 287.8 289.7 289.9 289.1 287.9 288 288.8 289 288.9 288.8 288.7 288.1 287 286 284.5 282.3 281.2 281.8 281.7 280.3
428 432.3 434 436.1 439.7 443 445.6 446.4 445.6 444.5 443.1 441.8 441.2 440.3 439.2 438 438.2 437.2 436 434.5 433 431.6 429.5 427.3 425.8 424.4 423.3 422.1 421.6 421.7 422.7 423.7 423.7 423.8 424.1 423.9 424.2 422.6 420.9 419.4 417.5 415.9 413.8 412.2 410.2 408.8 407.6 406.8 407 405.9 403.3 400.8 397.9 395.7 393.8 392.9 392.4 392 391.1 392 393.1 394.2 394.1 393.5 393.9 393.9 393.2 392 390.9 389.8 388.6 387.3 386.2 385.2 383.8 381.9 379.7 377.3 373.7 370.9 369.7 372.4 374.1 374 373 371.9 370.7 369.2 368.2 367.2 366.3 365 363.8 362.6 361.9 359.9 358.1 356.8 355.6 354.2 352.5 350.8 347.5 345.9 345.3 342.8 342 341.1 340.6 339.3 337.9 335.5 329.4 327.9 328.3 329.3 328 327.8 326.1 325.3 317.6 321.7 324.2 326.7 326 327.4 333 336.8 338.6 341.6 344.5 344.4 343.4 342.2 341.4 340.8 340.1 338.5 336.3 334.7 333.8 332.4 328.7 327.1 325.9 323.8 321.7 322.3 322.3 321.7 320.3 318.1 315.3 312.6 310.4 307.9 305.5 303.2 300.3 298.3 296.7 294.9 292.7 290.5 288.6 286.1 282.9 279.5 275.8 272.3 263.2 266 270.5 271.9 273.2 273.9 274.4 275.5 276.4 279.3 281.5 284.3 285.9 285.5 285.5 285.9 287.6 288.6 288.6 288.9 288.5 288 286.9 285.8 284.7 282.8 282.1 282.8 282.7 281.4
428.1 433.6 435.8 438.9 442.6 446.5 448.4 449.3 448.7 447.1 445.3 444.8 445 443 441.9 442.1 442 441.4 440.1 439.4 437.8 435.4 433 431.4 430.5 429.6 428.9 428.1 429.2 431.1 431.9 432.2 431.9 431.3 430.9 429.9 428.7 426.8 424.2 422.2 420.5 418.6 417.3 414.5 412.2 410.9 409.9 409 409.9 408.4 405.4 402.7 399.9 397 394.8 394.2 393.7 393.5 393.9 395.9 397.3 397.8 398.1 397.6 397.3 396.7 395.5 394.4 393.3 392.2 391 390.1 389.2 387.9 386.4 384.4 382.1 379.5 377.2 374.4 372.4 375.3 376.7 375.7 374.4 373.2 372.1 370.9 369.9 369 368.2 367.4 366.3 365.3 364.2 362.3 360.7 359.9 359 357.3 355.2 352.5 349.7 350.3 349.5 347 345.7 344.9 343.7 342.2 340.4 338.5 335.9 334.8 335.4 334.6 334.4 332.9 329.7 325.9 326.2 326.4 328 328.8 328.5 328.6 334.6 337.3 339.3 342.2 344.1 345 344.9 343.7 341.6 339.4 338.1 336.7 335.2 334.3 332.9 330.5 328.9 327.4 325.6 323.5 321.2 320.5 320.7 319.7 318.1 315.8 313.2 310.5 308.4 306.4 304.2 301.9 299.6 296.6 294.7 292.7 290.2 287 284.9 281.8 278.6 275.8 273 268.6 261.6 261.2 266.3 266.8 267.2 267.5 268.3 269.1 270.4 272.4 274.5 277.3 280.6 281.3 282.7 284.7 286.4 287.8 288.6 289 288.6 288 287 285.8 284.6 283.5 282.6 283.2 282.9 282.2
430 434.5 437.6 440.9 444.2 448.1 450 450.3 449.7 449.3 448.3 447.2 446.4 445.4 445.3 445.9 445.7 445.2 444.5 444.3 443.5 440.9 438.8 438 437.9 437.2 437.8 437.7 438 438.3 437.9 438.8 438.2 437.4 436.2 434.8 432 428.8 425.4 422.9 420.9 419.3 417.4 415 413.3 412.3 412.2 411.9 411.2 409.2 406.5 403.2 400.2 397.3 395.5 395.1 394.9 395.1 396.5 398.9 400.2 401 400.9 400.7 400.1 399.1 397.9 396.7 395.7 394.7 393.7 392.8 391.4 390.3 388.7 386.5 384.1 382 380 377 377 377.8 377.4 377.8 376.2 374.6 373.7 373.5 371.8 371.2 370.9 370.2 369.3 368.1 366.8 365.3 363.8 362.5 361.3 359.6 356.6 355 352.7 354 351.8 348.3 346.9 346.5 345.7 343.9 342.5 341.2 339.5 338.3 338.1 338.2 337.6 335.7 332.9 333 332.3 331 331.4 332 332.4 332.9 335.5 338.2 339.8 341.8 344 345 346.1 345 342.5 340 337.9 335.1 334.2 333.2 331.6 329.5 328.4 327.5 325.3 322.5 320.2 318.3 318.5 317.2 315.2 313 311.4 309 306.9 304.9 302.9 300.7 298.4 295.7 292.5 289.3 286.9 283.2 280.5 277.8 275.4 273.1 270.1 266.5 260.9 258.7 262.1 263.3 263.3 263.3 263.4 263.9 264.5 265.6 267.1 268.5 271.7 274.7 281.3 284.1 285.9 287.5 288.3 289.1 288.8 288.4 287.3 286.2 284.8 283.5 282.8 282.8 282.3 282.1
432.3 436 439.2 442.5 445.7 449 451.1 451.5 451.1 451.4 450.4 449.4 448.6 449 448.9 449.5 449.2 449.3 449.3 449.7 449.5 447.7 447.3 446.9 446.7 445.9 446.1 445.9 445.5 445 444 443.4 441.9 441.3 439.9 436.3 432.4 428.1 424.9 422.3 419.7 417.8 416.2 414.5 412.7 412 411.1 410.9 409.8 407.5 404.3 401.7 398.8 397.5 396.2 396.3 396.6 397.4 399.2 401.4 402.5 403.2 403.3 402.8 402 401 400 399.1 398.2 397.2 396.2 395.3 394.1 392.5 390.7 388.7 386.2 383.6 380.8 378.3 379.2 380 380.3 379.7 377.3 377.2 373.3 376 375.5 375.4 374.6 373.3 372.4 371.2 369.7 368.2 366.6 365.2 363.6 361.8 359.2 357.1 356 355.7 354.1 349.9 349.8 349 348 346.3 346.2 345 342.6 342 341.3 340.9 340.6 338.5 337.3 337 335.8 334.9 336.3 337.7 338.3 338.1 338.5 338.7 340.4 342.2 343.5 344.7 346.9 345.4 342.2 339.2 336.9 334.2 332.1 330.8 330.1 329 327.6 326.7 323.8 321.3 319.4 317.1 315.6 314.4 312.5 311.1 309.3 307.2 305.2 303.3 301.2 299 296.6 294 290.6 287.5 283.7 280.2 277.8 274.2 271.9 270.3 267.9 265.3 260.8 257.3 257.3 259.7 259.9 260.1 260.1 259.9 260.5 261 261.8 263.3 264.3 267.4 274.6 280.6 283.8 286.9 287.8 289 289.6 289.3 287.8 286.4 285.1 283.8 282.8 282.3 281.7 281.9
434.7 437.6 440.7 444.1 447 450.6 453 453.8 453.3 453.1 452.6 451.8 451.3 452 452 452.4 452.8 454 454.9 455.8 455.5 455.1 454.6 454 453.3 452.1 451.1 450.4 449.4 448.6 447.6 446.1 443.5 440.3 437 433.8 430.1 425.1 422.4 420.2 418 416.3 414.8 413.3 411.8 410.6 409.5 408.6 407 404.6 402.3 400.3 398.6 398.4 398.4 398.9 399.5 399.9 400.6 402 404 405.4 405.5 404.9 403.9 402.9 401.9 401.2 400.4 399.5 398.4 397 395.5 393.9 392.1 390.1 387.6 384.8 381.7 380.9 381 381.7 382.2 379.4 378.8 379.6 379.3 380.4 380.2 380 379.1 377.4 376.5 375.1 373.5 372.3 371.7 369.7 366.9 365.3 363.2 360.9 358.4 359 355.3 353.2 354.5 353.2 352.6 350.4 350.5 348.4 345.9 345.9 345.6 344.6 344.7 343 340.6 340.8 340.9 340 340.7 341 340.9 340.6 340.1 339.4 339.5 340.5 342 343.8 345.5 344 341.5 338.1 335.5 333.2 331.1 329 326.9 327.2 326.2 324.3 322.4 320.5 318.5 316.1 313.8 311.9 310.8 308.9 307.1 305.3 303.4 301.5 299.2 296.7 294.1 291.1 287.7 284.6 279.2 271.6 267.9 265.1 264.2 267.3 265.7 263.1 260.5 258 255.4 256 257 257.4 257 256.7 256.9 257.6 258 258.8 260.2 263.1 267 271.9 282.1 285.7 287.3 289.5 290.4 289.1 287.8 286.5 285.3 283.8 282.5 282 281.4 280.7
438.1 439.6 442.9 446.2 449.1 452.2 454.8 456.6 456.7 455.9 455.1 454.3 454.8 455.7 455.2 455.3 456.2 457.7 458.4 458.9 458.6 458.4 457.6 456.8 455.9 454.8 453.6 452.6 451.7 450.6 448.9 446.7 443.3 439.1 434.7 430.3 426.8 423.6 420.9 418.8 416.7 414.9 413.7 412.6 411.4 410.4 409.3 407.9 405.7 403.7 402.2 400.8 400.1 400.1 400.3 400.2 399.9 400.1 401.3 402.9 405.5 407.3 407.3 407 405.9 404.6 404.1 403.3 402.4 401.5 400.1 398.6 397.1 395.2 393.1 391.1 388.7 385.7 384.1 383.3 383.3 382.8 379.9 381.9 383.4 384 384.2 384.7 384.8 383.9 382.4 380.7 379.8 378.4 376.5 375.1 372.2 372.4 369.5 368.5 367.3 365.2 362.2 361.4 358.3 358.9 359.1 358.8 357.8 355.1 354.1 353.3 352.4 351.6 351.1 351.1 350.5 348.4 346.6 346.9 346.1 344.8 345.2 345.3 343.2 341.9 340.8 341 340.5 339.7 339.5 341.1 342.6 342 339.5 337.1 334.7 332.1 329.6 327.8 325.6 323.3 323.5 323.2 321.8 319.4 317.1 314.7 312.1 309.3 308.3 306.4 304.7 302.8 300.5 298.1 296.1 293.4 290.5 287.2 284.2 276.6 271 274.5 273.4 270.1 263.6 261 259.8 258.5 256.1 256.3 254.5 253 253 252.4 252.6 252.6 253.6 254.3 255.1 255.5 256.9 259.6 262.3 267.2 278 285.2 287.6 289.8 289.9 288.3 287.3 286.2 284.8 283.4 282.1 281.7 281.1 280.1
442.2 443.3 445.8 449 452.3 455.8 459 459.7 459.4 458.5 458.2 457.2 457.2 457.8 457.9 458.1 458.6 459.9 460.3 460.4 459.9 459.7 459.2 458.5 457.4 456.5 455.4 454.4 453.1 451.5 449.4 446.6 442.8 438.5 433.4 428.1 423.3 420.7 418.8 417.3 415.5 414.5 413.4 412.5 411.4 410.3 409.1 407.9 405.7 404.1 402.9 401.7 401.1 400.5 400.4 400.3 400.2 400.7 402.4 404.9 407.7 408.2 408.1 407.7 406.7 406.8 406.2 405.3 404.2 402.9 401.5 400.1 398.3 396.2 394.1 392.1 389.7 388.2 387 386 385.5 385 383.1 385.5 386.8 388 388.2 387.9 386.8 386.1 384.7 383.4 381.9 380.5 378.4 376.6 375.6 374.3 373.1 372.1 371 368.3 365 364.8 363.2 364.1 364.1 363.4 362.3 360 358.4 357.6 357.3 356.1 354 354.9 353.9 352.6 351.6 351 350.2 348.8 348.8 348.2 347 344.5 341.2 340.7 336.6 340.3 339.2 338.9 340.2 340.3 338.3 335.9 333.7 331.1 327.8 325.9 323.6 321.4 319.4 319.9 319.8 318.7 316.5 313.8 310.9 307.9 305.4 303.6 299.8 298.4 295.5 290.6 286.3 284.6 281.7 277.1 275.7 276.9 280.1 278.3 274.4 269.8 266.3 264.1 262.4 259.4 259.9 258.3 257.7 255.8 253.7 250.6 249.8 249 248.2 250 252.1 252.3 254 256.7 259.8 263.6 271 282.4 287.1 289.1 288.8 287.5 286.2 285.2 284.2 283.1 282.1 281.2 280.1 279.1
446 446.7 449.9 453.4 457.1 460.6 462.5 463 461.8 461.7 461.1 460 459.5 460.2 460.7 460.9 461.1 461.5 461.8 461.7 461 460.6 460.1 459.8 458.9 458.1 457.1 455.7 453.9 451.6 449 446.1 442 437.2 431.6 425.6 421.2 418.6 417.1 415.2 414.4 414 413.1 412.1 411.4 410.2 409.1 407.9 406.1 404.1 402.9 401.7 400.9 400.5 400.1 400 400.1 401.4 404 407 408.6 408.9 408.6 408 407.4 407.8 407.2 406.4 404.8 403.4 402 400.5 398.9 397.2 395.4 393.3 392.1 390.7 390.2 389.3 388.7 389.1 390.1 390.4 390.7 390.8 390.6 389.7 388.6 388.5 386.8 385 384 382.7 380.2 378.5 377.2 376.2 375.7 374.4 371.8 369.4 369.2 369 368.5 368.4 367.2 366.3 365.3 363.4 361.9 361.7 360.6 359.9 359 358.5 356.6 355.4 354.7 354 353.1 351.5 350.4 349.8 348.3 346.2 344.1 342.2 339.4 337.9 337.9 336.9 337.5 338.4 337.1 334.9 332.2 330.3 327.4 325.2 323.1 320.9 318 315.5 316.6 315.9 314.8 312.3 310.2 307.2 301.9 299.1 292.6 289 286.2 287.4 289 287.3 284.1 283.5 282.8 282.5 280.2 278.3 276.6 274.8 273.6 272.5 271.6 268 268.7 266.7 264.6 261.9 258.5 253.8 253.5 252.2 251.9 248.1 246.7 247.7 251 253.9 258.3 261.7 266.9 276.4 284.9 287.2 287.2 286 284.8 283.7 282.9 282 281.1 280.1 279 277.9
451 452.8 455.1 458.4 462 464.8 465.3 465.2 464.5 464.3 463.7 462.9 462.7 463 463 462.8 463 463.1 463.4 462.8 462.1 461.9 462.3 461.8 461 459.5 458.2 456.4 454.2 451.6 448.5 443.8 439.2 434.1 427.9 422.2 418.7 416.2 414.5 413 412.9 412.9 412.6 411.9 411.2 409.8 408.1 407.2 405.5 403.7 402.8 401.7 400.8 400.3 399.5 399.4 399.9 400.6 402.8 405.6 407.6 408.7 409 408.9 408.5 408.4 407.8 406.5 405.1 403.6 402.2 401 399.6 398.1 396.4 395.2 394.5 393.7 393.3 392.8 392.9 393 393.2 393.2 392.4 392.6 392.1 391.2 390.3 389.2 387.9 387.4 385.3 384.2 381.1 379.4 378.2 377.8 377.4 374.9 373 372 372.3 372.1 371.8 371.5 370 368.6 367.3 365.6 364.6 365.1 364.6 363.4 362.9 361.3 358.8 359 358.3 356.4 355.1 354.3 352.8 351.3 349.8 348.3 346 344.4 343.1 340.5 336.8 335.6 334.7 335.3 335.4 333.7 332.6 330 327.3 324.5 322.5 320.3 318.3 315.6 312.6 312.1 312.7 310.5 308.8 305.6 300.7 298 289.7 290.6 293.7 293.2 293.3 292.1 290.7 289.8 289 286.7 285.3 282.8 281.4 279.6 278.3 277.7 276.5 273.4 272.4 269.7 267 265 262 258.9 256.9 256.3 254.5 251.8 247.7 244.6 246.8 251.1 256.1 260.3 265 272.1 282 284.8 284.8 283.7 282.5 281.4 281 280.8 280 279.4 278.4 276.4
457 458.6 460.8 463.8 466.8 468.2 468.3 467.3 466.9 466.6 466 465.4 464.9 465 464.9 464.7 464.4 464.6 464.4 464.2 463.9 464 464.1 463.2 461.6 460.5 458.5 456.2 453.5 450 444.4 439.8 435 429.9 422.9 418.9 416 413.6 412 410.9 411.2 411.1 410.6 409.7 410 408.9 407.4 406.1 404.5 403.4 402.5 401.4 399.9 399 398.1 396.7 396.5 396.9 399.4 402 404.4 406.4 407 407.9 408.5 408.4 407.4 406.3 405.1 403.8 402.5 401.5 400.4 399.2 397.6 396.5 396 396.6 396.8 396.5 395.5 395.1 394.9 394.4 394.2 393.9 393.3 392.8 391.4 389.8 388.6 387.2 386.3 385.2 382.5 380.9 379.8 379.5 378.4 376.6 374.8 374 374.5 374.9 374.5 374.1 372.3 370.2 369.4 367.9 367.9 369.4 369.7 368.3 366.4 364.2 363.2 362.7 362 359.8 358.5 357.5 356.1 355 352.6 349.9 347.5 345.9 343.9 340.1 337.9 335.1 334.9 332.5 332.5 332.6 332.6 330.4 327.5 324.9 323.4 321.1 318.1 314.8 312.1 310.7 308.9 308.3 306.3 301.6 296.8 293.1 289.8 293.6 295.5 296.6 297.2 297 296.8 294.8 292.5 290.4 289.1 288 286.8 284.8 283.8 282.4 279.1 278.2 275.7 273.5 272.3 267.5 265.1 263.3 261 258.3 255 251.7 248.2 244.2 242.7 246.3 252.2 257.5 262.5 268.1 276.2 281.4 282.2 281.3 280.2 279.3 279.2 278.6 278.6 278.6 278 275.7
463.6 464.1 466.7 468.6 471 472.4 471.7 470.1 469 468.8 468.2 467.6 467 466.4 465.7 465 464.6 464.7 464.6 464.9 464.7 464.5 463.7 463.1 461.2 458.8 456.3 453.5 449.3 444 439.7 434.6 428.3 423.5 419.4 415.7 413.3 411 409.7 408.8 409.2 408.5 407.7 407 406.8 406.1 405 403.8 403 402.2 401.7 400.2 398.9 397.6 396.3 394.6 393.3 392.7 394.4 397.5 399.9 402.2 404.6 405.9 407.1 407.4 406.7 405.7 404.6 403.4 402.5 401.9 401 399.4 398.3 397.4 396.7 397.8 398.1 397.5 397 396.4 396 395.6 395.1 394.6 394.2 393.7 392.4 390.6 389.1 387.9 387.2 386 384.3 382.8 381.8 381.3 380.2 378.5 376.7 377.1 376.9 377.3 376.9 375.7 373 371.8 371.3 370.3 371 371.9 372.1 371.2 369.3 367.3 366.3 365.5 365.1 363.1 361.5 360.2 358.3 356.8 355 351.8 349.1 347.5 345.9 339.6 341.2 338.8 332.8 329.1 326.1 329.1 330.9 330 326.9 324.5 322.3 320.6 319.2 317.2 314.4 312.5 310.2 305.9 303.3 302.7 297.6 290.6 296 297.5 299.2 299.5 300 300.5 299.8 297.7 296.2 295.2 295 294.6 293.9 292 288.9 286.1 281.8 282.5 280.4 278.9 275.8 271.5 268.5 265.7 262.4 258.9 255.1 252.1 249.4 246 242.8 241.6 246.1 253.9 259 264.2 269.8 274.8 278.5 278.3 277.2 277 277 276.4 276.6 277.1 277.2 275
469.6 469.5 471.9 473.9 475.2 475.6 474.9 473.3 472.3 471.6 470.4 469.2 468.6 467.8 466.7 465.2 463.8 463.2 462.8 463 463.6 462.4 461.2 459.4 456.6 452.8 448.9 445.1 441.4 437.1 432.7 427.8 423.4 420.1 415.9 413.4 411.4 408.8 407.4 406.5 406.4 405.6 404.9 403.9 403 402.4 401.4 400.4 399.7 398.8 397.4 396.5 396.4 395.7 393.6 391.5 389.9 389 388.8 391.5 394 396.5 399.1 402.5 404.7 405.2 405.2 404.4 403.8 402.9 401.9 401.2 400.1 398.9 397.8 397 396.3 396.9 397.7 397.5 397 396.5 396.1 395.6 395.4 395.1 394.8 394.3 393.1 391.7 390 389.1 388.6 387.5 386.8 386.1 385.2 384.2 383.1 381.4 378.7 379.7 379.6 379.7 379.1 377.9 376.9 374.9 374.7 373.1 373.5 374.2 373.5 372.7 371.2 369.5 368.7 367.9 367.1 365.4 363.7 361.9 359.4 357.3 355.6 353.4 351.1 348.9 347.7 343.2 342.9 341.1 337.7 334.8 329.3 326.4 327.8 328.2 326.4 323.8 321.4 319.3 317.6 315.8 313.9 311.6 308.8 304.3 302.6 297 293.7 297.4 300.4 301.8 301.8 301.3 302 303.5 303.8 302.1 301.8 302.1 301 298.8 297 295 292.9 288.9 286.7 284.1 283.6 281.2 277.1 273.2 270.7 266.8 263.4 261.4 258.1 254.8 250.8 247.4 243.5 240.8 241.3 247.8 253.9 259.1 264.5 268.2 271.2 270.9 270.5 270.4 271.2 272.7 274.1 274.6 275.4 273.4
475.3 475.6 477.1 478 478.7 478.5 477.7 475.9 474.7 473.3 472.1 471 470.4 469.5 468 466.1 464.4 460.7 456.9 455.8 456.2 455.1 452.3 449.7 446.4 443.1 439.3 435.9 433.5 430.3 426.5 423.1 420.5 417.4 414.2 411.7 409.4 407.2 405.9 404.9 404.4 403.1 402.2 401 399.8 398.7 397.7 396.6 395.5 394.4 392.6 391.9 391 390 387.1 385.5 384.7 384 384.3 384.5 386 388.3 391.8 395.4 398.1 401.8 403 402.7 402.4 401.9 401.2 400.1 398.9 397.7 396.8 396 395.2 395.1 395.3 395.6 396 396.3 395.8 395.6 395.5 394.9 394.8 394.3 393.3 392 391 390.2 389.9 389.9 389.6 388.9 388.1 387.2 386 383.7 380.3 381 381.6 381.6 380.8 379.8 378.9 378 377.3 376.1 376 375.8 374.8 374.1 372.8 371.4 370.2 369.5 368.4 367.4 364.9 362.2 361 359.3 356.8 354.6 352.1 350 348.3 344.2 344.6 341.9 339.1 336 331.8 323.9 324.9 325.6 325.5 323.1 320.5 318.6 316.3 314.1 312.2 309.5 305.1 298.9 299.2 303 303.9 303.8 304.9 305.1 305.3 304.5 305.1 306.5 307.4 306.9 307.1 305.8 303.8 302.3 299.7 297 294.2 293.9 292.8 290.5 287.6 283.5 279.2 275.9 273.2 269.5 265.6 262.3 259.5 257.3 254.8 251.9 246.8 241.4 240.3 239.6 246.3 251.9 256.4 260.3 261.7 260.8 260.2 260.2 261.6 262.8 265.7 268 270.8 270.4
481.6 481.5 481.5 481.5 481 480.2 478.4 477.1 475.4 473.5 471.5 470 469.2 468.7 467.3 465.7 462.8 458.5 452.7 446.4 445.5 444.6 441.3 438.5 435.8 433.6 431.7 430.2 428.4 425.8 421.7 419.5 417.5 414.7 411.6 409.2 407.8 405.9 404.7 403.8 402.3 400.7 399.4 398 396.8 395.5 393.9 392.7 391.3 389.8 387.8 386.8 386 384.9 382.4 380 378.7 378 378.2 378.8 378.8 379.3 381.4 385.3 389.7 394.2 397.8 399.3 399.4 399.2 398.9 398.1 397 396.1 395.1 394.2 393.6 393.1 393.1 393.2 393.7 393.9 394.2 394.5 394.5 394.5 394.3 393.8 392.7 391.9 391.3 390.7 390.6 391.1 390.8 390 388.7 387.3 385.7 382.7 381.5 381.8 382.9 382.4 381.7 380.8 379.8 379.1 378.5 377.8 377.6 376.5 375.5 374.5 373.5 372 370.9 369.2 368.3 367.1 364.8 362.7 361.6 359.4 356.6 354.4 352.4 350.8 349.2 344 345.6 342.7 339.7 336.5 333.1 326.7 322.6 322.3 320.5 320.6 319.3 317.7 315.7 313.3 310.6 306.9 300.4 302.7 308.2 308.2 308 308.1 308.1 309 308.9 308.7 308.7 309.4 310 309.4 307.3 305 304.5 303.3 300.1 297.9 298.2 297.2 295.8 295.1 292 286.7 282 278.6 275.7 271.7 267.8 264 261.1 258.9 256 253.1 249.7 244.7 241.1 239 239.5 244.7 247.9 249.3 250.1 250.3 250.2 250.3 251 252.6 254.7 257 259.9 261.9
