ncols 200
nrows 82
xllcorner 220000
yllcorner 913050
cellsize 50
224.4 224.4 234.3 242.4 249.6 262.3 274.5 276.8 279.5 293.6 308.7 311.5 325.6 334.1 336.9 352.7 359.1 358.9 358.8 357.2 354.2 353.1 356.8 360 363.1 364 367.4 368.3 366.9 368.9 373.6 375.1 375.5 378.5 382.5 401.2 402 401.9 406.6 407.1 401.5 394.3 388.6 390.5 385.5 383.1 377.9 373.4 368.1 361.5 354.6 347.6 341.2 332.4 325.7 324.1 322.5 313.2 299.6 290.6 289.1 284.6 276.7 268.6 261.7 262.1 261.8 261.5 257.1 255.9 256.7 251.1 246.2 246.7 241.5 238.9 233.9 229.5 229.9 236.2 233.3 229.3 224.9 217.7 210.1 202.8 196.9 193.2 190.4 188.6 188.6 192.4 196.7 195.1 187.5 183.6 181.8 178.1 172.8 167.2 167.4 159.6 150.7 146.4 146.4 150.8 157.7 168.1 175.9 184.5 194.1 202.8 216 231.4 247.6 262 279.3 290.3 301 308.4 307.7 305.1 296.8 294.1 292.1 289.5 282.7 277.3 269.2 261.9 257.1 255.2 249.9 252.4 246.5 250.6 249.1 252.8 260.1 268.7 278.9 291.1 298.5 312.4 324 323.4 321.6 321.9 320.4 324.1 354.5 367.7 390.8 400.8 408.3 418.7 427.1 435.6 444.4 450.4 457.8 465.2 471.4 478 486.4 495.6 496.3 495 501 506.6 524.3 532.9 536.8 539.4 539.6 543.6 539.2 556.5 555.1 561.2 585.9 608.8 611 603.4 615.2 632.5 634.2 622.5 611.1 602.1 581.5 528.3 484.4 456.9 438 417.5 400.4 393.4 389.7 383.6
224.4 224.4 224.4 224.4 233.3 241.2 252.4 266.2 266.6 274.5 284.4 284.2 304.1 312.1 324.4 338.4 339.6 342.2 341.3 342.7 344.9 347.6 345.6 346.7 353.1 354.3 354.9 356.1 358.8 357.7 364.1 366.4 364.2 364.8 362.7 371.2 378.6 389.1 388.3 390.8 396.3 389 383.7 378.8 378.7 370.8 362.3 357.7 358.1 352.8 348 342.2 335.2 329.8 329.3 327.3 322.7 315.4 302.5 291.7 289.4 292.5 292.1 284.5 273.3 261.8 252.7 249.6 248.4 246.7 245.3 242.3 241.2 239.6 238 235.3 230.5 228.8 232.3 233.7 228.5 224.4 222.8 216.2 208.2 201 194.5 192.1 191.6 191.9 190.2 200.4 199.4 195.4 190.7 186.2 179.7 174.5 169.7 169.2 166.2 158.5 151 145.9 148.9 155.1 161.8 173.1 178.8 187 195.3 205.7 218.8 234.1 248.4 264.5 280 290.2 302 312.9 317.6 310.9 307.8 307.4 306.7 306.3 304.3 300.2 294.7 288.6 278.7 274.6 270 266.1 268.5 270.6 265.5 267.1 264.4 261.8 269.5 275.7 278.1 288.8 297.9 300.7 301.7 322.4 337.7 357.7 375.6 385.8 394.7 401.2 411.7 420.6 431 437.2 444 452.3 461.8 468.9 474.5 481.1 490 504.4 506 504.2 509.8 509 529.8 540.8 545.3 551.2 551.1 554.3 561.5 566.7 568.3 571.7 584.6 609.2 619.6 615.3 617.3 628.3 633 615.4 608.7 601.9 603.8 563.5 499.6 471.8 444 424.3 400.4 388.3 376.8 370.8
239.3 224.4 224.4 224.4 224.4 227.9 232.4 246.7 261.3 266.8 268.8 275.7 277.3 292.6 299.2 309.9 323.5 327.7 332.3 333 331.9 337.6 339 344.2 343.9 346 347.6 347.9 348.8 355.4 353 355.2 356.5 356.2 358.7 358.7 367.8 375.1 380.6 375.9 377.4 381.3 380.6 373.2 368.7 362.2 356.6 352.1 345.4 345.2 340.8 334.3 329 325.5 324.7 324.8 321.4 315.8 308.1 296.4 290.9 296.9 302.5 295.6 284.5 271.5 260.1 246.4 240.7 233.2 237.1 235.6 234.4 233.2 232.8 233.2 230.7 226.1 230.5 230.6 225.3 221.5 217.9 213 205.8 198 194.4 194.1 194 195.3 197.6 201.3 200 195.2 192.3 186.1 178.7 172.2 170.9 169.3 163.3 157 150.3 145.8 147.5 157.3 166.5 174.3 181 188.1 196.4 206.8 221.9 237.6 253.7 266.3 284.1 294.5 303.1 318.7 322.7 318.7 315.5 316 320 320.9 323 322.6 318.7 314.5 303 295.7 289.6 286.6 292.5 317.4 313.4 300.9 284.4 273.5 275.9 288.1 294 302.9 300.4 305.9 325 342.1 360.8 373.4 384.2 391.1 399 404.9 412.1 423.3 432.1 439 445.1 453.4 461.4 470.4 478 485 492.5 505.7 513.1 512.2 517 519.3 535.7 549.6 557.5 565.1 570.3 567.1 578.7 587.1 586.4 591.5 595.8 611.4 613.8 621 624.5 627 633 614.1 606.2 604.4 600 596.5 540.7 500.3 452.5 420.4 404.5 393.9 382.7 368
251.4 246.2 224.4 224.4 224.4 224.4 224.4 229.8 245.8 252.3 252.5 249.8 261.2 273.2 282.1 286.9 296.2 306.6 322.5 325.4 325.3 329.5 332.7 337.2 339.2 341.8 345.2 344 344.6 346.9 347.9 346.2 348.9 349 350.2 348 362.1 362.9 365.3 361.6 365.4 373 373.2 367.8 363.8 358 353.8 349.5 343.5 337.9 330.7 329.6 327 324 323.1 322.6 321.4 314.1 308 297.9 288.2 296.2 304.8 297.8 286.1 277.2 268.1 258 248 241.7 237.9 226.5 226.3 223.8 223.5 230.3 226.4 223.6 226.9 226.1 222.8 219 214.8 209 203.2 197.4 196.4 195.8 198.4 196 197.3 195.7 196.2 193.8 189.5 182.7 175.5 172.8 172.9 167.9 161.7 154.7 151.2 146.5 148.9 158.4 166.6 175.8 184.7 190.9 199.3 210.7 223.6 240.3 256.5 268.7 285.1 298.5 305.9 322.8 328 327 323.9 324.6 330.6 335.1 341.1 345.4 347 343.4 325.3 318.2 311.7 307.7 325.2 358.8 365.4 358.1 326.3 308.7 283.2 297.4 309.5 324.2 328.5 328.2 324.2 344 359.2 373.3 384.3 392.9 401 403.1 413 422.7 431.2 440 447.1 457.4 464.8 473.5 481.3 487.2 497.4 511.2 519 521.8 527.8 536.1 539.4 555.4 567.9 578.3 580.9 581.4 592.7 601.1 610.2 611.8 616.2 613.6 611.8 619.3 630.4 631.9 629.7 616.1 603.3 601.6 601.4 606.3 562 520.7 453.2 423.7 406.8 396.5 386.2 366.8
254.9 253.9 236.7 224.4 224.4 224.4 224.4 224.4 228.5 238 239.8 238.3 251.3 262.9 266.2 273.1 270.6 279.8 300.9 314.7 319.4 324.2 330.2 336.6 339.8 338.8 343.1 343.2 339.9 341.8 339.4 339.2 339.6 341.2 339.7 343.1 355.1 353.7 354.2 352.6 371 369.9 367.8 362.9 358.8 352.2 351.1 345.9 343.2 338.8 333.1 326.6 322.2 317.9 316.9 317.5 318.3 312.5 306.4 298.5 287.6 293.2 303.7 299.1 284.8 276.8 268.4 263.6 255.8 246.2 237.9 234.7 232.4 231.5 229.3 221.6 221.6 221.6 220.5 218.9 216.9 214.6 211.2 205.6 202.3 198.2 196.4 193.6 194.9 197 198.8 195.4 190.6 188.4 184.2 177.2 174.2 172.7 169.8 163.8 160.1 154.4 147.9 147.5 153.2 159 169 179.1 188 194.9 204.3 214.7 229.8 244.9 259.3 272.3 287.2 299.7 308.9 325.6 330.9 332 333.4 334.7 340.4 350.4 359.8 368.7 371.4 368.6 348.2 332.9 331.8 331.4 359.3 372.5 370.3 366.1 357 342.9 296.6 304 327.5 329 342.5 345.9 345.1 341.5 358.6 373.6 384.7 393 399.8 409.9 418.3 425.3 431.8 439 450.6 461.2 470.3 478 485.9 495.7 506.1 517.7 528.8 535.2 539.7 544.1 552.2 563.1 577.1 584.3 591.2 596.5 608.5 616.8 623.5 632.3 628.4 625.4 624.5 628.2 634.3 635.6 633.8 621.1 611.2 606.2 600.2 610.5 557.6 508.1 448.9 425.1 409.3 398.4 383.5 371
257.1 252.8 246.6 236.4 233.8 224.4 224.4 224.4 224.4 225.6 230.1 230.7 237.2 247.5 255.3 256 259.5 269.7 278.7 289.6 313.2 324.9 326.2 325.5 331 332.4 331.3 338.5 337 335.1 334.3 334.2 339.5 343.4 336.1 338.7 342.2 343.3 341.7 346.1 358.3 369.7 362.5 358.7 352.2 347.3 344 345.9 341.9 336.9 329.6 324.4 322.3 317.9 314.3 313.6 309.6 307.6 304.2 297.7 282.9 289.1 299.3 296.5 283 275.7 268.3 266.4 259.6 250 242.9 235.8 231.4 232.6 229.7 221.3 214.6 216.4 216.7 212 210 209.9 206.7 204.1 200.8 197 193.2 191.6 189.8 191.6 193.5 194.5 190.2 184.4 180 174.5 174 170.9 166.7 161.6 154.1 151 148.4 147.7 155.9 165.2 171.6 182 190.5 198.1 207.9 219.1 234.5 248.7 264.7 277.2 291.5 303 313.3 322.1 327.5 333.4 338.5 343.1 351.4 363 375 385.3 389.3 388.8 370.2 355.7 356.4 364.7 367.7 371.2 370.5 362.2 353.9 336 299.9 317.8 333.7 342.3 352.1 355.7 360.1 364.7 364.3 361.1 370.4 388.1 401.4 411.8 418.7 424.8 431.8 442 454.1 463.9 473.7 483.9 491.4 504.6 514.5 525.7 538 548.6 553.2 556.2 564 571.5 582.4 589 611.6 611.6 625.6 634.3 641.7 642.6 637.3 640 635.8 641.9 646.7 639.9 636.5 635.6 624.5 618.4 615.9 620.5 546.5 500.1 462.3 432.1 412.7 402 389.8 377.3
261.7 258.5 250.8 241.1 239.8 232.8 224.4 224.4 224.4 224.4 224.4 225.3 233.8 243.4 246.4 254.4 248.8 258.3 266.2 276.5 285.2 300.1 319.5 322.3 327.3 332.3 329.9 326.6 330.2 328.9 330.1 332.4 337.3 335.5 329.5 327.2 329.6 325.6 331.3 331 343.6 351.2 353.5 352.2 348.2 342.4 337 341 340.2 333.1 328.4 326.8 320.5 314.8 313 313.2 308.8 301.8 297.2 291.6 281.7 287.9 296.4 293.6 286.5 275.2 270.6 267.9 259.4 249.9 244.8 239.1 232.4 229.3 225.8 219.8 213.9 209.9 210.2 207.1 203.7 204.7 204.1 200.4 196.2 192.8 191.5 189.2 188.2 187.4 189.1 190 190.2 188.1 177.4 174.1 170.7 167.8 162.8 156.4 152.7 150.5 148.8 150.2 158.3 169.7 176.1 184 192.1 201 211.8 223.5 237.9 252.1 268.9 282.6 297.1 307.3 317 321 329.1 338.2 346.7 352.8 366.4 379.3 391.3 399.8 402.4 402.4 390 384.6 383.4 374.9 370.7 368.4 365.6 355.1 348 329.3 311.4 335.2 338.5 347.1 355 360.1 363.4 372.9 377.3 381.1 382.8 392.3 399.8 410.1 418.8 424.1 434 446.3 458.9 467.8 477.1 486.5 496.1 509.8 518.9 533 542.2 560.2 565.7 572.7 580.4 588.3 596.7 608.1 627.2 636.5 644.2 650.6 653.8 645.4 646.8 650.5 647.9 650.6 652 646.6 638.6 636.9 636.1 632.3 629.7 633.7 574 520.5 470.3 432.1 413.3 402.1 390.8 381.3
271 270.2 263.5 246.3 241.4 238.1 229.1 224.4 224.4 224.4 224.4 224.4 224.4 239.4 239.7 248.2 249 262.7 266.3 266.1 277.4 289.2 293.6 316.2 318.5 321.8 322.6 323.2 329 330.5 333.7 330.9 328.8 330.3 325 324.5 326.2 321.3 317.6 316.5 333.8 354.5 352.7 350.5 345 338 332.8 333.1 335.6 331.5 328.3 321.9 316.7 310.3 313.9 310.6 304.3 299.8 295.6 293.5 280.7 283.2 287.4 287.2 286.3 283 277.8 271.2 259.8 251.9 243.8 236 231.8 229 223.7 218.3 212.3 209.5 204.4 201 199.1 193.2 196.4 193.3 190 189.4 189.5 186.9 185 183.4 183.8 185 182.5 179 175.2 171.2 168.2 163.8 161.7 157 153.2 150.2 150.6 153.9 161.9 172.4 178.6 187.7 195.7 205.2 214.4 227.5 241.6 256.5 273.5 287.5 300.1 312.2 321.2 325.4 334.6 344.2 355.2 363.3 382.4 394.4 407 413 414.4 412.6 405.6 396.6 392.2 384.1 377.6 372.7 368.1 357.6 350.5 339.5 318.5 336.1 340.9 346.6 356.4 361.9 366.7 374.1 384 391.3 395.9 400.7 404.1 412.5 418 426.1 437.1 451.2 462.4 469 477.7 488.6 500.7 515.1 527 540.1 551.3 569.9 578.2 585 591.6 604.9 610.5 622.8 637.3 645.6 653.2 662.7 665.3 655.7 657.9 659.8 657.7 657.9 654.8 648.6 640.8 637.7 640.4 645.7 642.8 643.8 620.5 539.1 472.1 435.8 415.8 400.3 389 376.1
275.7 271.1 269 255.6 249.6 243.5 236.9 230.6 224.4 224.4 224.4 224.4 224.4 229.5 234.9 240.4 250.5 264.8 266.5 270.5 272.3 277.6 287.2 292.7 309.9 318.1 320.1 321.1 334 325.7 329.1 331.2 327.6 322.1 320.4 321 320.7 316.4 311.4 312.4 329.6 345.4 342.3 338.6 335.3 331.2 327.4 331.3 332.5 331.1 326.4 318.6 307.4 304.6 304.3 308.2 300.6 297 292.1 288.7 280.9 271.9 274.5 275.6 277.1 281.5 278.2 271.3 260.7 254.8 243.7 238.5 232.7 228.1 224.8 218.7 213.6 209.8 206.7 202.8 199.1 197.6 194.1 188.5 187.7 186.5 188 185.4 182.8 181.3 179 178 177.3 173.4 172.3 168.5 166.2 165.1 163 159.9 154.7 151.4 154.5 158.8 168.6 176.7 182.3 190.7 198.1 207.2 220 232.7 245.2 259.2 274.8 291 304.6 318.6 329.8 336.4 340.8 357.6 364.5 377.4 394.5 408.6 419.7 424.3 425.4 420 411.1 403.1 395.2 392.9 387 379.6 369.9 360 352.9 345.8 330.8 334.4 339.2 346.3 353.4 363.2 368.9 375.4 384.8 393.4 400.2 405.7 410.4 416.1 420.3 429.7 441.1 452.3 464.3 473.9 484.7 491.5 504.2 516.2 531.2 547.1 558.9 580.6 591.6 597.3 608.8 620.6 626.8 637.2 644.1 656.7 666.3 668 670.7 664.3 666 665.8 667.7 667.6 663.4 655.5 652 642.9 642.4 650.2 660.4 648.4 642.5 572.8 477.7 432.6 414 397.4 386 370.6
276.4 273.2 270 261.5 253.2 249.5 246.8 238.2 228.8 224.4 224.4 224.4 224.4 224.4 226.7 235.1 247.8 270.1 268.8 270.7 279.4 289.2 297.1 299.6 300 311.2 307.7 310.8 315.4 319.4 319.1 323.2 322 317.8 314.1 313.5 311.7 312.3 305.5 310.3 308.7 312.1 328.9 331.9 331.2 326.9 323.8 334.5 330.2 325.5 321 314.1 306.2 304.9 300.8 294.5 294 294.9 289.6 285.3 280.2 267.7 266.2 269 268.9 278.1 275.7 268.5 262.9 253 243.6 237.2 232.4 226.9 222.4 216.2 213 210 207.9 204.6 200.2 196.7 196 197.5 188.3 184.1 185.8 180.9 184.1 178.1 175.8 175.9 173.5 171.4 171.5 170.4 168.6 167 162.9 157.4 154 152.4 157.2 162.6 169.9 178.8 183.6 191.9 200.3 210.5 222.2 235.8 250.7 262.4 277.9 292.9 307.4 320.5 334.7 341.3 351.6 368 377.2 393.5 408.2 421.7 431.2 432.4 432.5 428.7 419.4 407.5 402.1 397.5 391.2 381.7 371.5 360.4 352 346.7 339.1 329.3 337.1 346.1 349.9 361 367.4 375.8 384.2 391.9 399.9 407.5 415.8 423.6 426.1 433.6 443.9 458.6 470.9 478.5 486.9 495.1 507.9 521.7 537.3 554.1 570.2 593.6 603.1 612.6 620.1 632.7 638.9 651.5 654.9 664.3 677.3 678.7 680.5 676.7 674.5 671.3 673.4 674.6 675.1 664.1 659.8 653.4 649.7 650.6 661.1 655.7 632.6 593.3 477.2 433.9 412.7 397.6 384.7 366.8
281.3 275.5 269.8 265.8 258.9 254.6 250.7 247.2 236.2 226.5 224.4 224.4 224.4 224.4 224.4 227.4 246.8 262.1 263.5 270.5 284.9 301.4 309 306.9 305.1 300.1 303 309.3 305.9 311 316.3 318.4 318.6 310.8 312 308.6 306.2 305 300.2 301.6 300.6 307.6 319.1 328.9 328.9 324.9 331.5 330.7 325.7 321 317.7 308.4 306.4 303.6 300.5 293.8 290.9 287.9 286.8 284.3 277.5 265.5 260.6 259.7 263.8 269.4 272.3 265.6 257.1 250 244.6 236.6 229.8 224.2 219.7 215.4 212 208.6 205.9 202.1 198 195.8 195 194.2 185.9 182.6 179 179.6 177.3 176.5 177.2 174 172.2 172.9 172.7 172 168.4 162.5 159.1 156.4 154.5 153.2 156.5 163.2 171.2 177.5 185.8 193.8 202.4 213.1 228.2 239.2 251.4 266.4 280.4 293.7 308.4 316.5 333.9 345.2 364 377.8 389.5 407 422.5 433.1 442.6 441.8 439.3 435 430.5 419.1 414.4 402.4 392.7 382.3 371.3 360.3 355.5 347.1 342.2 335.4 337 343 348.3 355.4 366.2 373.9 385.1 392.5 399 406.5 415.3 426.4 436 441.4 457.1 468.2 474 485.1 492.1 502.3 512.3 530.4 547.2 564 589.6 609.3 618.3 623.9 633.2 642.8 650.9 664.3 667.1 676.4 685.5 692 693.2 690.8 687.9 679 679.9 680.8 678.8 677.8 669.3 667.6 664.9 663.4 658.3 656.4 622.2 582.8 473.3 438.8 419.3 402.8 386.7 367.9
277.4 277.5 269.9 272.1 261.5 260.9 255.8 255.1 244.1 234.7 230.2 224.4 224.4 224.4 224.4 224.4 238.3 249.4 258.2 262.7 271.1 288.4 304.4 302.3 300.5 298.1 299 301.8 302.3 306.7 314.6 313.2 309.6 306 306.8 306.6 304.6 301 296.6 296.8 302 318.8 328.5 328.9 326.3 321 319 318.2 314 313 308.4 306.5 304.2 299 296.3 290.6 287.4 283.7 284.2 280.9 274 266.4 257.3 254.6 255.8 260.6 263.4 257.2 250.1 239.9 236.9 232.4 226.7 222.1 218 212.5 206.1 203.8 201.8 199.2 196.4 193.9 191.9 187.7 183.5 181.3 180.4 177.2 176.6 175.4 173.9 173.1 171.9 171.4 170.8 169.9 166.2 163.8 160.7 156.1 151.5 151.7 155.7 164.9 175 182.8 189.6 196.5 206.7 216.9 230.4 243.2 257.5 270.9 283.1 297.8 314.4 325.3 338.8 354.1 374.8 385.2 402.9 421.8 440.3 450.9 452.3 451 446.8 449.8 453 435.6 423.7 409.1 396.9 382 371.4 362.8 355.2 350.6 346.4 339.6 340.2 344.2 348.5 355.6 365.6 374.2 383.4 392.1 399.1 406.1 415.2 427.8 441.7 452.4 462 471.6 480.9 487.3 498.8 510.1 519.3 541.5 563.5 585.7 601.3 614.4 625.5 635.1 642.9 654.8 673.2 682.7 681.8 689.9 695.6 700.9 699.6 693.2 699 691.2 693.8 688.5 684.5 683.7 675.9 672.7 668.6 671.1 660.7 649.1 606.1 568.2 470.8 439.4 415.8 406.9 392 371.8
276.9 272.9 270.2 274.4 267.4 262.7 258.5 255.2 248.5 239.8 235.4 234.2 224.4 224.4 224.4 224.4 228.2 236.3 244.7 255.2 263.1 274.1 287.5 292.1 294 295 302.4 299.1 299.6 299.6 303 305.4 306.8 303 302 306.9 305.6 299.8 295.6 294.9 306 330.1 325.3 322.6 317.8 313.4 312.1 309 306.8 305.2 301.4 298.1 292.8 288.2 288.8 284.6 278.9 280.7 280.6 278.2 274.7 266 255.9 252 251.5 255.8 258.3 251.3 243.2 235.7 232 229.7 225.4 217.5 212.8 207.8 202.6 199.7 197.8 194.3 191.9 189.4 186 182.3 179.1 180.5 175.6 173.8 174.5 173.1 172.6 173.2 173.8 178.3 175.2 168.7 166.1 160.8 158.6 153.9 153.7 154.1 158.1 170.4 180.6 189 196 202.3 210 221.1 235.2 248.5 261.2 273.7 286.8 304.8 318.7 336.3 346.8 361.5 377.3 395 414.5 435.5 454.6 464.8 463.5 459.5 457 459.5 469.3 464 434.9 414.1 396.4 380.7 371.5 364.6 356.8 353.2 349.4 344 337.7 345.8 351.5 355.7 365.6 374.6 382.9 393.8 400.8 405.5 418.6 432.1 442.3 450.2 462.9 478 488.2 493.3 506.1 521.8 532.2 556.7 581.2 604.1 617.4 624.9 629.5 636.3 648.7 659.6 680 689.5 692.9 698.2 706.7 707.8 705.4 703.2 708.2 705.4 707.6 698.3 692.8 687.2 680.5 675.9 667.2 661.9 631.6 598 585 548.3 465.5 437.4 418.4 407.2 394.6 377.7
273.8 270 267.9 271.3 267.4 262 257.6 254.4 251 243.3 240.6 237.1 233.1 224.4 224.4 224.4 224.4 224.4 238.8 248 257.8 262.9 275.6 284.3 297.7 304.3 301.5 300.6 297.8 298.2 306.2 306.1 302.4 302.2 296.8 298.4 298.9 293.2 289.4 288 314.4 325.3 324.1 321.1 316 311.3 307.5 304.7 303.2 301.1 298.9 294.4 288.9 286.4 282.3 279 276 273.1 271.1 271.2 271.6 266 253.6 248.6 250.9 250.9 254 247.7 238.8 231.9 227.6 221.5 218.3 212.4 208.6 205.5 200.7 196.8 193.6 188.7 185.5 182.8 181.1 177.6 174.3 171.8 172 172.6 171.7 171 172.1 173.2 180.6 177.7 175.1 170.1 165.2 161 157.8 155.7 153 154.6 160.5 173.4 183.6 191 198.6 209.8 217.7 227.1 234.9 251.2 265.3 276.6 293.4 311.5 324.3 343.1 353.1 366.3 385.8 406.2 427.7 451.6 468.8 475.2 474 470.1 468.6 472.6 472.5 469.9 444.3 414.8 393.6 380 370.6 362.8 358.4 353.9 351.3 346.3 340.6 344.7 353.2 357.2 366.1 378.6 383.9 390.8 399.1 407.6 420.9 432.2 441.9 455.6 472.8 482 498.6 505.3 517.6 531 547.6 569 597.4 620.9 628 635.2 639.6 646.7 653.9 664.1 681.3 692.8 700.4 705.8 711.6 712.8 712.1 711.3 713.2 714 712.5 705.5 699.3 692.3 688.2 681.2 671 649.2 589.2 564.7 552.6 517.8 463.8 434 413.9 407 397.9 387.1
272.5 270.9 268.6 265.3 264.5 255.9 255.2 254.3 250 246.5 242.2 239.6 236.1 228.4 224.4 224.4 224.4 224.4 229.5 235.5 251.8 264.9 276 284.3 285.6 303.6 308.4 300 296.4 300.8 301.3 303.8 301 298.5 295 292.1 294.2 290.1 283.8 277.6 295.2 315.1 323.1 318.7 312.1 306.2 304.1 303.1 302.7 297.1 293.8 291.9 287.4 286.2 281.1 275 275.6 270.2 266.2 264.9 265.3 262.9 253.2 246.3 245.2 246.1 248.8 242 233.3 228.7 221.3 216.9 214 209.3 206.3 202.1 198.9 194.2 188.9 186 182.2 179.8 176.9 174.2 170.7 170.2 170.3 171.2 170.1 169.8 174.4 182.4 184.5 180.4 176.3 171.9 164.5 161.1 156.7 154.6 152.4 154.6 164.4 178.5 187.1 193.5 203.3 212.1 222.2 234.2 247 251.4 269.1 281.6 292.9 312.4 331.5 346 354.1 371.7 401.2 419.7 444.3 465 479.2 479.5 478.4 478.5 476.3 473.9 472.8 463 433.5 409.8 392.1 378.2 369.4 361.7 358.1 354.8 350.4 349.7 344 347.9 352.1 358.6 365.1 379.2 385.7 391.9 400.1 413 425.9 434.9 446.7 461 475.9 488.5 503.7 512.7 532.5 543.9 567.4 589.9 617.3 628.7 634.2 641 648.8 651.8 657.5 667.5 681.4 695.3 702.4 714.9 718 718 718.3 719.8 725.1 726.9 717.5 713.8 709.7 699.7 694.1 684.8 674.9 620 566.9 539.2 518.9 483.5 455.3 436.3 420 409.8 400.3 390.1
273.2 271.2 269.7 266.6 260.9 258.1 253.3 250.9 248.8 248.2 247.1 243.5 239.3 234.1 230.7 224.4 224.4 224.4 224.4 229 246.5 254 263.2 267.8 271.1 282.1 295.6 292 287.8 291.2 294.6 300 299.5 299 292.3 290.1 287.1 285.4 282.2 274.4 284.2 301.1 315.2 317.6 313.4 309.7 304.5 304.4 298.4 290.3 291.7 289.1 284.7 284.9 275.8 272.1 271.1 268 264.6 264.5 263 256.7 249.7 243.3 243.3 242.5 242.9 236.8 228.6 224.3 220.5 216.5 211.2 207.1 203.4 199.5 195.7 190.9 186.9 182.8 179.6 176.8 174.7 172.8 168.7 168.8 169.1 169 168.6 169.7 176.2 187.4 184.1 182.8 178.6 172 166.1 160.1 157 154.6 154.8 161.8 170.7 180.8 188.6 196.1 205.9 215.3 225 236.8 250.2 263.6 268.2 286.3 295.2 315.7 334.4 343.9 361.4 385.4 416 436.3 456.3 470.9 476.5 477.4 479.3 477.8 474.4 475.4 464.5 441.7 421.5 402.2 389.1 377.5 368.3 361.6 357.4 352.7 349.1 349.5 345.4 350.9 358.1 362.7 370.1 380.1 387.4 393.5 402.6 418.4 429 437.2 450.7 463.7 479.2 500 511.1 527.1 541.6 564 588.5 614.8 633.5 636.3 638.9 646.8 653.7 657.2 662.3 669.7 686.2 696.6 705.1 726.5 732.8 730.3 725.1 728.2 734.9 735.9 724.4 719.5 715.2 710 702.4 695.6 677.4 623.7 566.5 517.5 493.7 469.2 452.1 441.9 428.6 413.7 403.1 395.2
267.7 267.3 265.6 265.4 261.8 259.5 254.4 247.4 247 243.9 241.2 241.9 233.8 231.1 228.7 224.4 224.4 224.4 224.4 224.4 231.5 241.1 248.6 251.2 255.6 272.2 284.5 284.2 278.3 287.1 292.9 293.5 294 294.4 291.2 287.4 286.7 282.6 277.9 274 278.2 293.9 312.4 315.8 317 312 307.7 301.3 294.1 284.8 283 283.9 284.1 276.3 270 270.4 271.4 269 264.2 262.3 259.8 255 250.6 243.1 239.5 238.8 237.1 229.7 224.1 219.6 215.2 211.1 208.4 206.4 202.1 198 194.5 190.5 186.2 181.9 178 174.9 171 166.7 166.8 167 167.1 167.2 167.5 167.3 171.4 176 183.5 181.7 177.8 173.5 167.3 159 156.1 153.2 158.5 163.1 172.5 182.5 189.6 200 208.6 219.1 229.9 241.9 255 267.5 280.1 289.1 299.3 315.4 327.9 341.5 362.3 395 423.3 440.6 459 462.9 466.2 469.9 474.2 476.2 475.1 466.6 446 426.8 411.2 395.9 386.5 378.5 369.8 362.3 356.2 353.4 349.4 351.6 346.6 349.5 358.6 367 373.3 380.8 390.4 397.8 406.2 419.6 430.5 443.1 456.4 471.6 486.7 507.7 523.5 541.6 556.1 584.1 609.5 637.4 649.3 648.3 649.1 658.8 661.8 662.7 664.2 675.5 687.2 702.6 713.9 724.1 736.2 737.6 734.9 736.9 736.6 735.8 733.3 732.6 723.4 715.9 706.1 695.7 662.8 603.3 544.1 509 480.7 463.8 453.8 447.7 440.5 413.8 406.7 396.6
263.3 262.7 261.1 258.5 257.4 255.4 252.7 249.2 245.7 243.3 239.5 235.9 233 231 227.1 224.4 224.4 224.4 224.4 224.4 224.4 224.4 236.1 240.3 244.5 253.5 262.5 265.4 278.8 276.5 277.3 278.1 283.7 284.4 283.8 286.8 284.3 278.7 277.5 274.4 274.2 293 305.1 313.1 317 311.9 304.5 293.3 283.9 277.1 272.1 272.6 269.2 267.7 267.2 265.1 263.9 264.2 259.5 258.2 257.8 256.1 253.7 246.8 240.4 234.9 231.6 224.1 219.8 214.5 211.2 207.6 206.6 203.4 200 196.3 193.7 189.5 185.9 180.4 176.9 174.2 170.4 165.5 165.6 165.1 165.9 165.8 166.3 166.2 167.6 172 176.5 177.3 175.6 170 163.2 158.8 155.7 156.3 160.8 164.7 173.6 183.5 191.9 201.4 210.3 221.3 233.7 246.9 260.2 273 284.9 298 306.5 314.6 324.9 342.5 361.5 388.5 410.9 430.8 445.6 452.7 461.3 467.6 469.1 472.6 475 456.2 430.5 416.9 404.8 392.9 384.9 377.1 366.4 360.6 358.1 355 350.3 347.9 350 352.9 359.5 366.6 374.6 380.5 387.7 395.8 406.8 420.8 432.5 447.6 462.6 475.7 491.7 514.8 536.4 555.1 575.9 605 625.7 654.4 661.5 658.9 662 670.7 670.8 668 667.4 680.9 697.8 708.1 716.9 726.2 744 742.5 743.3 742.3 742.7 738.7 735.1 737.4 729.8 711.4 702.9 683.2 610.5 573.4 525.5 489.3 473.2 454.1 449.3 446.8 443.9 422.6 406.8 395.7
273.8 270 269 266.5 262.2 257.3 250.9 247.4 244.7 240.7 238.1 234.5 232.5 231.8 231.1 224.4 224.4 224.4 224.4 224.4 224.4 228.6 228 228.9 236.8 242.7 243.8 250.8 260.2 265.5 273 276.9 277.2 274.1 281.8 283.1 282.3 277.5 275.1 273.2 277.3 289.4 306.1 312.6 316.3 311.1 304.1 292.5 279 272.5 268 266.5 264.9 264.6 263.4 260.9 258.9 257.8 258.6 257.6 257.6 254.2 252.5 247.9 245.7 237.3 232.3 225.1 216.8 212.4 209.4 206.6 204.6 201.1 198.2 195.6 192.5 189.6 186.2 182.9 178.8 174.1 170.5 166.5 163.7 164.6 164.3 164.3 164.6 164.8 165.1 175.1 178.9 176.2 172.3 165.8 160.7 157.3 153.6 158.8 163.5 169.4 179.1 185.6 193.6 204 214.8 225.9 237.9 251.5 266 283.1 297.8 311.1 321.2 325.1 332.9 345.6 362.1 375.6 394.4 413.2 440.3 458.4 469 476.9 474.2 469.6 466.6 446.9 424.7 411.3 399.7 391.3 382.9 375.6 369.1 361.2 359.4 354.7 351.5 346.5 350.7 354.8 359 368 375.2 381.6 389.5 397 409.2 421.7 434.4 446.2 467 482.5 497.7 524.4 545.5 569.8 594.3 614.8 644.5 666.9 671.3 668.9 673.4 684.7 684.5 681.1 680.8 696.3 711.7 717.1 724.2 736.1 750.2 747.5 747.6 747.1 753 744.8 736.4 737.3 715.7 686.4 668.6 645.2 580.1 539.4 503.7 476.7 464.3 452.3 445.5 439.4 439.2 432.5 401.9 393.2
283.4 281.9 278.3 277.3 273.6 267.1 262.5 259.2 254.7 248.4 242.4 238.1 236 235.5 234.2 227.1 224.4 224.4 224.4 224.4 224.4 233.4 232.2 233.6 230.1 231.9 238.8 242.8 246 255.6 265.4 265.8 271 266.8 275.5 281 277.3 275 269.2 273 280.8 293.1 307.8 315.5 314.2 306.1 299.3 290.2 277.2 269.8 268.3 268.6 266.2 265.7 261.9 258.1 257.8 260.6 258.2 257.5 255.7 253.4 249.4 247.3 248.7 240.2 235.8 232.4 221.6 213.3 212 209.2 203.9 199.3 197.4 195.8 192.7 188.2 184.9 181 176.8 173.1 169.7 166.1 163.7 162.6 163.4 163.1 163.4 163.3 165.4 171.9 175.8 175.3 168.4 162.6 155.7 154.7 157.5 162.5 164.8 172.3 180.6 188.5 196.8 207.2 218 231.2 242.7 257.9 272.3 289.5 305.5 318.4 328.9 334.9 344.7 360.2 377.7 393.3 407.3 424.8 446.8 464.5 478.6 486 479 470.6 460.6 442.1 420.6 406.2 396.5 389.2 383.3 376.8 367 363 359.9 356.9 353 350.5 352.3 354.9 359 366.7 373.4 380.7 390.7 397.9 410.3 423.8 437 454.9 470.7 489 511.3 531.4 554.7 585.5 608 632.6 664 682.8 682.6 681.4 688 696.5 696.6 695.7 698.7 709.8 719.9 727.4 737.1 749.3 762.9 754.6 752.7 753.2 758.3 748.4 743.8 740.3 709.5 667.9 634.7 591.2 544.8 515.4 485.5 467.4 454.5 445.7 435.8 427.3 414.9 403.1 397.5 389.1
282.8 281.4 280.4 277.7 278.7 275.4 273.9 273.3 268 263.2 255.7 251.4 245 240 236.4 236.3 233.4 228.2 231.4 224.4 224.4 230.6 233 233.6 233.1 232.5 236.3 234.8 235.8 236.8 240.8 248 252.5 251.4 265.3 268.1 263.7 271.2 268.6 278.9 285.7 300.6 308.2 314.5 309.3 303.6 296.5 286.6 279.1 273.5 267.8 266 267.2 261.7 258 258 260.2 263.3 260.3 256.6 254.7 248.8 247 246.4 246.1 242.5 237.1 239.3 226 217.9 215.6 212.1 205.8 198.4 196.6 193.6 190.3 188.4 184.4 179.9 175.3 170.7 167 166.1 164.3 163.4 162.6 161.7 162.5 163.1 164.1 168.4 169.2 167.7 164.4 158 154.3 155.3 158 160.7 164.5 174.7 182 192.2 202.1 210.9 222.5 233.7 245.1 261.3 278.6 294.4 312.7 328.9 336.7 344.6 359.8 378.7 400.8 417.7 426.5 441.2 456.9 469.7 476.9 481 477.7 470.5 461.5 439.6 417.1 401.7 393.3 387 381.1 375.8 367.5 362.8 358.7 356.7 354.8 349.9 355.2 354.4 360.8 367.1 372 378.9 389.7 398.9 412 426 442.4 459.5 475.2 497.7 516.5 538.7 567.5 600 622.9 649 678 693.8 690.4 690.2 701.4 707.8 708 709.1 713.6 721.8 729.3 735.4 745.9 758.3 769.4 760.2 757.5 758.3 762.8 753.5 750.2 720.6 677.2 665.7 603.6 557.7 528.8 504.4 475.2 457.4 442 434.9 424.9 417.8 406.6 398.8 388.6 383.1
305.5 294.3 286.1 290.7 290.6 288 287.4 285.7 280.1 270.5 265.9 264.1 262.5 254.2 251.2 246.1 243.7 238.9 235.4 234.1 225.7 224.4 229.3 231.9 237.7 238.8 235.7 235.9 231.8 230.7 234.1 236.2 239 239.2 245.9 252.6 262.2 268.3 273.4 281.2 295.7 310 314.8 314.6 305.4 298.5 294.9 284.6 277.9 271.2 266.1 262.2 257.5 254.6 260.3 261.4 262.4 261.4 260.8 257.1 252.4 247.6 247.2 242.4 243.5 240.3 238.3 245.7 234.6 220.6 213.1 209.3 205.7 201.1 196.6 192.7 190.5 187.3 181.7 177.1 172.6 168.4 166 164.1 164.1 163.2 162 161.6 161 161.8 163.3 164.8 164.4 164.2 160.9 156.6 155.5 154.3 157.2 160 164.8 174.6 182.9 195.7 204.8 213.2 225.3 236.8 250.3 264.7 284.2 304 318.8 331.8 345 363.3 383.4 403.3 420.3 434.6 447.7 461.4 470 477.8 480.6 476 472.9 469.7 454.7 432.9 412 396.8 390.7 384.8 378.6 374.2 366.2 362.7 358.7 356.2 353.8 352.9 353.5 355.1 360.4 367 373.3 379.6 387.7 399.8 413.3 427.7 445.6 462.8 482.6 503 523.1 549.4 579.7 610.5 637.6 663.2 688.5 701.3 699.6 703.4 713.9 719.1 720.6 720.1 727.4 737.2 738.6 745.6 758.1 768.7 771.5 763.3 761.3 761.1 759.2 759.8 752.1 693.4 638.5 603.3 574.2 538.9 518.6 493.1 471.2 454.3 440.8 428.1 416.9 410.6 400.5 395.6 386.7 391.4
321.3 314.7 302 298 302.5 309.3 312.7 311.1 304.3 290 285.9 278.5 266.3 262.4 261.8 253.1 249 247.4 241.4 243.6 235.2 228.1 225.5 234.5 235.8 240.9 241.8 236.6 230.9 229.2 227.6 230.7 232.4 232 231.9 244.7 258.5 265.8 276.9 286.9 303.1 325.1 322.7 315.7 309.5 301.7 293.9 286.4 276.2 270.4 262.5 257.9 255.1 255.8 259.8 264.2 262.9 259.5 259 254.6 250.4 247.9 244.3 240.8 241.8 239.3 240.4 244.2 241.8 229.5 215 209.9 205.6 201.5 197.9 191.9 188.8 185 180.2 173.9 167.9 167.1 163.4 162.9 163.1 163.3 168.9 165.4 161.6 161.6 160.2 160.7 163.2 156.6 157.2 156.6 155.9 154.5 159.2 162.3 165.9 175.4 186.5 201 208.2 215.7 228 239.6 253.5 270.2 290.3 308.5 320.4 340.2 363.5 386 406 425.2 439.3 452.9 469.2 477.3 475.5 482.5 484.8 478.8 469 459.7 441.5 421.8 406.9 396.1 388.7 382.8 377.2 371.5 366.3 361.5 358.9 356.8 351.7 352 354.1 355.7 358.1 365.1 373.2 379.9 389.3 400.5 413.1 429.2 448.4 467.7 487.2 505.4 530 559.8 588.8 626 658.9 681.5 699 706.3 709.8 714.4 723.4 729.2 728.9 729.5 742.4 751 751.7 760 772.7 779.6 775.7 775.2 766 765.2 769.6 771.3 718.8 664.3 613.5 586.3 562.2 522.8 499.8 478.7 464.8 453.8 445.2 443 421 406.9 403.2 401.1 402.6 405.6
331.5 327.6 320 318.4 317.2 316.8 314.5 313.5 309.6 305.7 293.6 285.3 280.7 274 264.5 263.3 255.8 252.4 244.4 247.9 244.8 241.7 236.1 234.8 235.8 238 239.5 234.5 228.3 226.6 225.3 224.7 227.4 222.5 224.1 228 243.7 259.2 269.7 285.7 312.3 326.7 322.4 316.3 308.8 302.3 295.8 288.1 278.9 271 262.5 255.9 255.6 255.6 254.8 260.2 259.3 259.7 256.6 252.9 252 248.7 242 243.1 238.9 238.7 239.4 245 252.7 235.3 222.7 211.1 206.3 199 195.2 191.1 186.6 182.4 177.9 171.6 165.6 165.1 163.4 161.6 162.2 168.9 168.9 168.9 162.9 166.1 165.6 165.6 164.5 162.3 157.9 156.8 155.6 154.6 160.3 164.1 169.5 176.8 190.1 202.4 209.9 220.1 230.9 246.4 258.1 275.5 287.9 304.2 322.3 345.8 371.2 396.8 415.3 436.4 450 464.9 476.5 486.2 488.3 490 489.6 482.6 467 445.2 430.1 414.6 402.8 394.2 386.9 380.3 375.4 370.1 366.8 361.3 359.8 357 356.8 357.4 354.3 355.4 361.1 364.8 372.5 380.6 389.9 401.9 416 430.7 450.6 469.1 489.4 508.7 541.4 573.6 605.8 640.2 672.4 692.9 705.8 713.4 717.9 725.4 732.5 738.1 736.8 739.4 757.9 763.1 765.7 773.9 782 786.4 785.5 784 778.7 773.9 782.2 775.3 714.8 653.8 597.5 571.8 550 516 490.9 473 463.4 455.8 448.4 452.1 437.5 414 416.3 417.5 420.9 430.5
336.5 327.8 325.7 321.6 320.4 321.1 319 314.1 309.7 305.5 302.8 300.5 285.5 281.7 275.1 266.7 266.3 259.4 251.8 249.8 250.6 247.4 240.2 236.7 235.5 239.7 241.6 238.7 231.5 227.7 224.9 219.7 224.1 217.4 217.6 223.5 230.6 240.1 257 277 311.1 326.4 321 312.9 306.3 300.3 292 284.9 278.8 269.8 260 256.3 255.3 255.6 255.6 256.6 256.2 254.3 254 253 249.9 247.7 245.9 245.9 239.3 238.7 238.7 241.8 247.3 235.3 221.3 210.7 204.3 198.7 194.5 189.8 185.7 179.5 176 170.1 164.6 163.8 163.4 165.7 168.9 168.9 168.9 165.2 168.6 167.5 167.9 167.4 166.1 162.7 159.1 156.8 156.8 155.3 159.2 163.4 171.6 181.4 192.6 202.1 210 221.1 232.4 247.2 260.4 275.6 288.4 304.6 320.3 338.7 359.9 383.2 413.6 438.7 457.3 472.1 485.5 491.5 495.3 494.8 493.8 483 461.4 438.9 421.1 408.5 399 391.4 384.3 379.2 374.9 371 367.4 365.5 361.4 359.2 360.3 356.6 354.8 358.8 360.4 364.5 372.8 380.2 390.6 402.8 417.6 431.6 452.4 470.5 491.5 518.5 551.9 586.5 620.8 660 688.8 702.2 712.1 720.3 726.1 735 742 744.5 744 753.9 767.9 772.3 776.6 783.7 787.9 796.3 792 793.8 787.5 788.5 786.5 769.8 703.4 652.9 596.7 576 551.5 520.7 494.3 473.8 463.8 455.1 455.1 460.7 464.4 436.4 431.6 434.2 443.8 462.2
335.8 334.9 327.7 323.4 322.3 319.2 317.5 317 311.3 306.1 302.7 301.4 299.9 294.8 284.8 277.8 267.4 267.1 256.7 253.2 252.5 253.1 249 240 236.1 241.2 241.1 240.7 239 230.9 225.2 219.3 219 216.8 210.4 215.9 219.1 223.4 237.5 261.4 295.7 314.7 313.7 310.3 305.5 298.2 288.5 281.8 274.6 268.2 265.1 263.8 258.7 255.7 256.8 254.4 251.7 251.7 252.1 251.1 249.5 249.6 247.2 245.7 240.1 238.7 238.7 243.4 249.9 243.3 222.3 213.9 206.8 200.1 195.3 189.2 182.7 178 171.2 165.4 162.1 168.9 168.9 168.9 168.9 168.9 166.8 174.4 176.1 169.4 169.9 168.8 166.1 161.5 157.7 156.8 156.8 155.8 158.8 164.9 175.2 183.7 193.3 200.1 210 222.8 235.8 249.4 259.5 274.2 286.9 300.4 315.7 331.4 353.7 384.3 416.1 445.8 467.7 487 495.6 496.1 496.1 495.6 492.6 478 454.5 430.3 413.7 404.5 396.5 389.3 383.6 378.3 374.2 370.3 367.4 364.5 363.8 361.9 359.1 354.6 357.1 359 360.9 364.7 372.3 379.8 387.8 402.7 417.4 432.8 450.8 473.7 496.1 525 556.8 589.2 624.8 660 689 714.2 720 727.1 735.9 743.6 748.4 749.8 749.9 762.5 775.1 781.3 790.6 794.7 797.1 798.8 805.6 794.7 795.2 799.5 791 751.4 692.5 649.9 614.7 598.8 597.7 569.8 515.3 486.8 461.9 463 459.4 459 456 449.3 447.2 456.5 477.1 497.4
332 326 321.7 321.4 321.7 324.4 322.4 319.1 314.3 311.7 304.6 300.9 302.6 296.5 288.4 278.3 268.7 261.8 256.1 253.3 251.4 253.6 247.2 240.2 236.9 234.8 237.9 239.8 237.8 234.2 228 222.4 219.5 212.7 207.5 209.2 211.2 212.5 223.7 241.6 256.7 284.9 290.1 299.6 296.5 290 282 274.8 273.1 269.5 265.2 263.1 260.5 256.3 257.5 251.7 251.7 251.7 251.7 253 252 250.5 249.7 244.8 241.2 238.7 238.7 242.6 248.7 248 228.2 215.1 209.6 203.7 200.2 194.7 185.7 179.4 171.7 165.4 168 168.9 168.9 168.9 167.7 170.1 176.3 180.8 177.1 174.5 171.4 167.4 163.9 159.3 156.8 156.7 156.8 156.4 160 165.1 177.4 185.6 193.4 200.3 211.3 223.5 239.1 251.7 265.4 276.4 287.8 303.2 319.9 340 362 388.5 417 444.5 467 488.7 497.3 497.6 494.8 492.3 485.3 468.9 446.2 423.9 408 401.3 395.1 388.8 382.2 377.4 372.8 369 366.7 364.1 363.5 361.7 358.3 356.8 355.3 357.6 361.7 365.3 373.8 382 391.8 402.2 416.6 430.3 448.9 472.4 500.8 531.5 564.7 602.1 639.9 677.1 707.2 718 728.8 733.6 743.5 747.6 749.6 752 753.6 763.6 775.9 790.3 803.3 804 809.9 799.4 799.6 796.7 800.7 801 791.1 747.2 702.6 666.3 651 638.1 617.7 576.9 530.2 490.4 472.5 470.9 466.4 460.9 465.6 465.8 467.9 487.5 522.5 549.1
330.1 325 319.7 317.8 317.8 320.3 321.3 319.3 316 311.6 307.9 303.3 299.1 300 289.9 278.1 266 257.6 249.6 248 248 247 246.4 237.6 234.3 229.4 226.2 236.8 236.2 235 229.8 226.9 217.9 213.4 210.5 205.8 207.9 207.3 214.8 219.5 235.2 251.9 272.9 284.7 285.6 277.4 274.8 271 271.4 269.6 264.4 260.1 255.3 252 251.7 251.7 251.7 252.6 254.2 253 252.9 249.6 247.7 244.3 239.7 238.7 238.7 242 247.5 243.8 232.2 227.3 222.2 216 213.9 206.1 191.3 181.8 172 163.2 168.9 168.9 168.9 165.3 167.4 174.8 179.3 177.1 175.8 173.1 169.6 165.3 159.6 156.6 156.8 156.8 156.8 156.9 160.5 165.4 179.1 185.2 192.6 199.7 212.3 226.7 241.1 253.1 264.1 278.9 289.9 303.9 321.1 348.2 375.4 398.9 421.9 445.2 465.3 480.9 489.8 491.6 492 490.2 481.8 463.3 440.1 421.3 403.6 397.8 393.3 387.4 382.6 376.9 373.3 370.2 364.9 365 363.2 360.9 356.2 356.1 356.2 358.7 361.5 366.5 373.5 382.7 392.7 402.9 416.3 431.8 452.5 477.4 505.9 537.5 570.9 609 648.1 691.5 720.2 724.9 734.2 737.1 747.5 749 750.8 753.1 756.9 768.4 780.9 794.5 805.5 812.6 812 802.6 801 793.7 797.1 798 786.6 746.9 716.9 690.4 670.6 656 627.6 573.7 537.1 508.1 488.6 483.4 473.6 472.6 480.4 481.6 497.1 518.2 538.7 562.9
331.6 327.9 319 314 313.7 314.8 315.1 315.3 312 310 308.3 303.2 300 297.4 290.6 276.3 262.6 258.7 250 246.6 244.8 244.1 249.6 242 234.6 229.8 225.3 226.8 231.6 233.4 228.3 224.4 215 215.8 213.4 206.5 207.8 207.8 208.2 208.2 217.3 236.8 251.4 269.5 266.1 273.7 270.7 277.1 276 271 266.9 263.1 255 253.5 255.6 253.3 252.9 254.1 253 252.8 252.3 251 251.4 248.3 246.3 245.3 239.4 243.5 247.9 242.1 234.4 230.9 223.5 220.5 216.4 209.5 204.7 184.5 172.2 166 168.2 168.9 165 169.9 172.5 178.4 177.6 175.2 172 168.8 165.1 161.4 157.3 156.8 156.8 156.8 156.8 157 160 166.3 167.4 185.7 193 200.3 213.3 228.6 241.3 253.6 264 279.9 291 304.4 327.9 343.2 363.9 401.2 428.2 450.3 465.6 477.7 486.6 487.3 487.5 486.8 481.1 460.1 438.6 420.5 403.5 394.4 391.4 385.8 381.4 376.9 371.2 369.6 369.5 366.3 364.3 359 358.4 358.9 359.3 360.4 364.3 369.1 376.6 385.5 392.4 404.1 417.6 433.5 455.8 483.3 512 545.5 578.4 615.9 658.8 700.7 724.2 732.8 735.2 736.3 746.7 748.9 751.9 754.1 758.9 772.6 783.3 799.1 810.5 814.6 804.5 801.5 794.6 791.1 794.1 793.3 790.9 765.8 735.4 712.1 696.3 677.6 652.7 588.5 561.3 535.5 516.3 504.4 500.7 501.8 501.6 509.2 532.9 553.2 574.1 579.9
329.8 328.6 317.6 311.1 308.6 306.9 306.2 306.5 308.4 307.4 306.6 302.9 298.7 296 284.5 272.4 260.6 253.8 246.2 240.9 242.1 241.4 244.5 244.3 236.7 231.3 224.4 222.8 223.9 227 226.1 221.9 220.8 217.5 213.6 213.5 207.8 207.8 207.8 207.8 207.3 230.2 241 246 255.1 269.9 281 278.2 272 267.1 264.4 261.3 255.1 258.3 259.7 257.9 258 259.4 263.7 263.9 266.4 276.3 281.9 276 260.9 255.9 250.1 246.3 254.3 245.8 234.5 230.1 224 217.9 214.6 212.2 202.1 184 171.9 169.7 164.2 169.9 172.6 175.6 179.7 179 176.4 172.8 168.5 165 161.4 155.4 156.8 156.8 156.8 156.8 156.8 156.2 164 175.7 177.2 188.1 194.4 201.5 216.1 230.7 243.4 257.2 269.6 283 293.3 308.7 329.2 347.8 367.4 397.8 426.8 449 463.5 473.5 480.2 481.8 486 483.4 474.2 454.2 435.8 416.9 401.6 392.6 388 384.3 379 373.6 370.2 370.5 368.5 366.8 364.1 360.1 360.6 361.6 361.4 362.5 366.5 372.2 379.7 383.1 391.8 403.3 418.6 438.1 460.2 487.2 520.3 553.9 587.5 623.9 670 703.4 724 733.2 732.8 735.5 742.1 746.8 749.2 753.6 760.5 771.5 783.4 800.3 811.9 808.5 798.2 795.7 789.8 790.3 790.2 787.9 787 781.3 768.3 747.7 734.8 707.7 675.7 622.7 599 573.4 561.4 557 589.2 551.1 540.9 546 562 585.2 605 608.6
326.9 317.2 310.4 304.4 302.8 303.3 302.8 302.3 297.5 298.6 299.5 298.3 296.4 294.3 288 271.9 258.5 249.8 238.5 233.3 233.7 235.2 234.8 242.3 233.4 226.3 222.3 222.3 219.1 220.2 218.8 219.7 223.3 219.7 215.3 212 212.6 207.8 207.8 207.8 207.8 221.7 234 252.3 268 279.4 280.1 275.7 269.6 265.8 261.9 258.8 256.7 258.9 261.7 260.6 260 266.9 280.9 297.6 296.5 296.2 293.6 285.4 274.9 267.5 259.3 249.5 255.5 250.3 237.3 229.7 226.2 218 211.7 205.8 195.4 183 174.5 169.1 173.8 176.9 182.7 184.9 181.3 178.3 173.7 169.2 165.3 162.1 158.2 156.7 156.8 156.8 156.8 156.8 156.8 160.3 167.9 176.5 181.8 190.4 197.9 203.2 214.9 233.7 245.4 258 271.7 287.9 300.5 318 332.9 353.2 375.1 402.3 426.9 447.6 462.6 469.4 474 479 480.7 478.4 468.9 448.6 430.5 412.8 399.3 392.9 387 381.3 377.6 373 370.5 370.1 369.4 367.3 364.7 360.7 361.2 361.4 360.7 364.3 367.7 373.6 381.2 385.8 396.5 410 426.7 444.3 463.7 491.1 526.2 563.7 597.3 638.4 678.4 707.4 729 731.3 730.9 734.3 735.2 740.9 744.4 752 760.9 770.5 784.9 799.6 808.4 798.4 793.4 786.4 788.7 789.5 786.9 783.4 781.4 776.1 769.8 761.7 753.2 729.1 696.7 688.7 654.6 631.9 611.3 607 615.7 611.2 601.7 595.4 593.2 612.1 633.9 635.4
315.4 308.3 302.9 295 291.4 295.3 297.2 292.9 294 293.8 293.3 292.7 291.6 290.6 281.7 273.8 256.6 249.8 238.1 231.8 231 227.4 228.2 230.2 226.5 220.9 220.1 218.7 213.8 209.2 214.8 219.8 222.4 221.3 217.5 212.5 213 208.3 207.8 207.8 207.8 218.3 237.9 259.1 271 283.2 280.4 276.1 272.5 268.7 264.4 260.5 257.1 257.7 259 261.2 266.3 276 297 307.5 316.8 324.6 317.3 302.9 287.8 273.7 262.8 253.5 262.7 254.5 238.3 232.8 221.7 215.8 209.6 202.5 190.2 182.5 181 181.2 179 182.6 182.1 180.9 177.3 172.5 167.9 164.5 162.5 159.3 156.8 156.8 156.8 156.8 156.8 156.8 159.9 164 171.8 175.3 181.5 190.8 197.8 204.3 216.9 234 246.6 261.2 277.1 293 310.7 323 334.9 356.1 387 412.7 433.8 449.2 458.9 465.4 469 475.2 476 471.5 461.6 446.5 425.7 409.5 398.7 391.6 385.4 380.3 375.3 371.9 369.8 370 369.8 368.2 363.9 358.9 361.2 361 360.7 364.6 369.8 375.2 381.3 388.7 401.6 416.7 433.3 451.1 468.6 497.7 529.9 562.7 599.1 634.9 664.7 701.8 727 728.4 727.8 726.4 729.2 735.8 740.9 750.1 762.7 771.4 784.2 795.6 800 791.2 783.9 779.8 784.3 785.5 782.1 776.9 773.2 769.2 759.7 753.4 745.2 739.9 731.7 707.9 691.3 668.8 645.3 641.3 645 639 628.7 616.5 624.6 651.7 643 623.8
298.9 297.7 294.2 290.3 286 286.6 287 287 288.1 288.9 285.9 286.8 287.4 287.1 283.8 270.9 253 250.2 238.2 230.9 227.6 223.8 225.3 225.9 224.4 217.2 218.9 217.8 209.5 204.3 215.6 221.1 226.1 225.6 215.5 212.6 211.6 206.2 207.8 207.8 207.8 216.2 234.6 255.7 268.5 282.2 279.2 276.5 272.4 267.7 261.8 257.1 255.8 254.8 256.3 261.8 271.6 292.3 309.3 336 345.2 339.1 332.1 322.2 303.8 285.8 274.3 263.8 262.7 255.9 242.1 227.6 221 214.7 206.2 198.3 192.4 192.7 190 192.8 188.4 182.2 180.4 177 171.6 167.2 164.1 162.2 159.9 156.8 156.8 156.8 156.8 156.8 156.8 158.5 160.7 165.4 172.3 174.4 183.1 190.4 195.4 207.9 219.8 235.3 249.5 265.8 282.3 299.8 317.5 332.1 340.7 360.3 388 414.3 435.7 450.2 458.1 461.6 463.7 467 469.6 465.2 456.1 439.3 419.6 403.9 396.1 389.9 384.5 378.1 372 370.1 369.7 370 370.1 365.9 362.7 358.9 361.6 361.9 362.9 365.9 371.6 376.6 383.9 390.8 404.9 422 439.4 457.5 476.4 500.5 528.7 559.7 594.6 624.6 655.9 695 721.7 724.2 722.4 723.4 726.9 732.8 738.4 747.9 762.8 770.3 781.6 791.8 787.8 775.3 777.1 776.1 778.8 775.8 769 766.4 761.3 756.6 751.4 745.9 735.1 732.6 727.3 722.8 717.9 696.6 679.7 683.1 674.6 666.1 652.5 650.9 657.4 647.3 633.8 613.2
292.2 288.9 283.9 281.7 281.3 281.5 282.3 282.1 282 282.9 282.7 283 283.4 283.3 280 266.4 251.3 247 234.7 229.3 223.6 220 221.8 227.5 221.5 218.7 215.6 212.3 209 204.5 206.4 226.7 227.2 225.1 214.2 213.1 212.7 207.1 207.8 207.8 207.8 210.5 229.8 249.6 262.4 278.3 277.5 275.3 269.8 264.5 259 254.1 253.5 251.8 255.1 258.7 273.1 295.2 323.9 352.6 357.3 345.8 335.8 334.3 320.3 300.6 284.3 272.6 259.7 247.9 246.9 228.8 216.9 211.2 205.4 199.6 191.9 192.6 195 194.1 186.3 179.7 176.8 173.4 168 162.9 161.4 160.5 154.8 156.8 156.8 156.8 156.8 156.8 156.8 158.1 160.1 165.6 170.1 171.4 181.5 188.9 198 207.6 219.2 237.1 253.7 269.2 284.7 303.2 318.9 331.5 340.3 366.3 390.6 415 436.1 444.3 449.3 452.8 456.5 460.3 461.2 455.9 447.3 431 411.9 399.7 393.1 386.5 380.8 373.9 370.5 369.1 368.1 367.1 365.8 362.5 360.7 359.1 362.7 362.2 365.8 368.5 371.7 376.8 384.4 393.7 402 421.6 437.2 454.5 474.7 502.7 534.5 568.4 597.8 623.4 656.2 696.8 717.5 717.9 718.8 719.9 723.2 727.5 735.7 747.7 761.5 768.5 779.8 781.6 767.1 766.7 770 771.9 770.8 766.9 758 750.6 748.5 745.7 743.9 736.5 727.2 726.2 720.9 717.8 711.8 705.9 693.7 698.2 689.8 678.7 669.3 659.9 652.4 639.4 619.8 608.7
287.1 282 273.5 265.6 262.2 271.2 275.8 277.3 279 278.2 278.9 278.8 279.4 278 273.5 258.4 247.8 236.8 227.1 226 224.6 216.8 218.9 220.5 219.3 216.2 214.4 209.1 204.2 204.1 207.9 219.8 226.6 225.2 219.3 212.7 210.5 207.8 207.8 207.8 207.8 206.1 220.1 243.3 256.3 271.2 274.1 271.2 265.2 259.7 255.3 253.8 250.3 250.6 253.1 255.2 278.3 302.8 340.1 358.2 358.4 347 338.5 341.9 330.6 313.5 296.6 275.9 263.8 251.9 239.5 232.1 217.3 207.3 201.1 196.5 193 192.7 192.4 187.3 180.6 178.4 173.7 170.8 166.3 162.5 158.3 156.8 156.8 156.8 156.8 156.8 156.8 156.8 154.4 156.9 160 167 169.5 173.6 184.5 190.7 200.4 209.9 221.1 238.1 253.1 269.8 284.8 301.4 317.4 326.1 337.2 366.9 390.2 412.3 428.8 439 444.6 449 452.9 454.7 454.8 448.5 437.2 420.5 406.8 397.3 389.4 382.2 376 371.4 370.6 368.1 366.8 364.7 361.5 358.9 358.9 363 363.2 362.4 367.5 369.9 372.8 377.6 383.8 392.7 403.8 410.1 427.9 449.6 474.3 507.7 544.9 587.7 627 648.7 675.8 701.1 711.5 712.5 714.2 716.6 719.6 724.3 734.7 748.7 759.6 764.6 770.3 768.6 755.1 757.3 757.4 763.4 759.7 755.8 749.6 741.1 737.1 738.1 735.2 727.8 721.1 718.2 714.6 708 706.7 700.6 694.8 695.7 688.3 675.5 665.7 653.1 640.8 625.6 604.6 588.2
267.7 264.5 260.6 258.6 256.9 257.5 255.2 260.8 265.8 272.5 272.9 273.8 270.2 266.2 259.4 250.8 241.9 233.8 227.7 226.2 218.9 215.2 216.2 217.8 215.6 213.5 209.7 207.9 204.4 209.3 216.6 224.2 228.8 225.5 219.8 211.6 214.6 207.8 207.8 207.8 207.8 217.9 225.8 236.7 247.9 261.1 267.5 266.6 261.6 256.2 251 249.1 249.1 252.8 252.8 263 293.9 333.3 351.1 358.9 351.8 352.8 354.3 341 325.1 317.3 299.2 279.8 265.3 256.3 235.6 228.5 221.5 210.3 197.8 195.3 194.6 194.2 192.2 183.7 180.2 176.3 172.6 169 162.4 161.6 158.1 156.3 156.8 156.8 156.8 156.8 156.8 156.8 156.3 159.6 162.4 167.6 171.2 175.7 185 192.9 202.4 213.1 224.1 240.1 252.7 268.1 282.6 299.6 314.3 325 333.4 360.8 383.5 404.8 419.1 427.9 436.3 443.8 448.4 448.6 445.5 438.3 427.7 411.9 400.2 390.7 383.8 378.8 372.2 370.7 370.9 369.5 367.8 365.3 361.6 358.9 358.9 362.9 364.5 363.1 367.7 371.9 372.2 377 382.8 387.6 396.5 410.5 428.8 453.6 480 514.3 557.4 598.6 631.6 663.2 682.8 694.6 701.8 706.3 710.9 713.1 714.8 719.7 732.7 748.5 754.3 756.5 757.3 748.5 744.2 747.1 747.7 749.3 742 736.5 735.1 732.2 724.4 724.7 721.4 715.8 709.6 704.8 708.1 703.7 700.5 695.4 688.9 689.8 679 671 662.2 648 636.2 611.4 595.2 576.1
251.7 251.7 251.9 250.7 251.5 250.8 251.3 252.7 251.5 252.4 257.9 259.2 257.5 256.5 251.1 241.9 236.4 228.8 224.1 220.5 218.1 215.8 214.3 214.3 213.1 207.1 205.1 204.5 205.1 215.5 229.6 237.9 236.3 227.6 220.8 214.9 212.7 208.7 208.9 207.8 207.3 220.6 227.1 235.9 246.5 256.5 263.8 264.1 259.4 253 249 249.5 250.4 252.9 253.5 281.5 306.9 329.3 345.1 354 355.9 362.5 363.6 346.1 328.3 318.9 305.3 283.9 269.4 254.7 236.4 224.8 213.9 207.8 200.4 196.1 196.4 195.2 188.7 185.1 181.2 176.7 171.3 165.3 162.5 159.5 156.8 156.8 156.8 156.8 156.8 156.8 156.8 156.8 158.1 159.7 162.6 169.4 173.3 181.5 186.9 194.1 204.5 215.5 230.6 247 254.8 268.9 282.2 296.3 308.7 318.3 329.4 354.7 375 394.8 408.3 417.3 425.9 433.7 439.9 441.1 438.7 430 417.1 401.7 391.3 383.8 379.2 375.4 369.3 370.5 370.6 368.8 366.8 364.7 362.2 358.9 363.1 367.5 365.5 365.3 367.4 371 371.6 377 380 389.3 401.7 415.1 433.8 456.7 482 516.5 559.3 594 628.7 659.8 677.2 685.6 689.9 697.2 702 703.5 704.7 711.1 725.2 735.8 736.7 739 741.4 734.2 729.5 729.2 732.7 733.9 728.3 723 724.8 721.8 711 709 706.5 703.8 701.7 700.6 699.3 694.3 691.6 685.9 679.2 680.6 668 661 650.6 642.1 625.5 611.4 591.2 559.5
226.3 227.7 229.2 229.4 239.9 241 240.7 243.9 243.5 245 243.8 244.5 248.5 244.4 239.5 235.8 229.5 224.9 223.7 220.9 217.9 214.7 214.6 209.1 200.3 202.5 203.6 205.1 218.4 226.1 240.6 244.1 246.7 231.6 220.4 215 213.8 212.6 211.8 206.5 211.7 225.3 244.3 262.8 260.9 256.3 258 259.9 259.3 252 247.2 249.8 251.1 252.3 260.1 287.2 309.6 326 337.4 342.1 348.1 358.3 356.4 344.6 328.6 317 302.8 281 270 252.7 237.5 224.3 214.7 206.3 199.9 197.1 195.9 192.6 187.5 184.4 179.6 174.4 170.2 166.4 164.2 156.8 156.8 156.8 156.8 156.8 156.8 156.8 156.8 156.8 156.6 161 164.5 169.4 177.3 183.3 186.5 193.2 202.5 216.5 234.3 246.5 253.4 266.9 279.1 289.9 300.8 309.6 320.5 342.2 362.5 380.4 394.7 407.9 419.1 425.6 428.8 428.7 424.8 415.9 403.4 390.2 382.9 376.1 371 369.9 369.3 369.6 368.7 366.5 364.4 362.5 361.8 358.9 365.5 366.4 364.3 366.3 368.7 370.1 371.4 375.1 378.3 389.9 398.9 413.5 433.7 457.4 486.7 519.7 562.2 597.9 632.1 654.9 668 677 679.3 687.3 690.7 692.4 696.3 704.7 713.3 721.1 726 729.1 725.5 716.5 712.3 712.7 720.6 724 720.2 717.8 715.7 708.9 699.5 699.1 698.3 698.2 695.1 699 697.1 693 687.2 678.7 669.8 669.6 663.9 656.4 644.5 628.7 612.3 599.2 587.6 558.3
212.9 215.3 214 215.4 216 218 220.9 224.7 225.4 227.4 230.5 233.4 234.7 233.4 231.1 227.5 222.9 226 225.8 224.6 219.7 215.6 210.3 203 196.8 193 202.3 205.3 217.1 227.8 239.6 246.5 246.8 234.3 217.1 213.8 212.1 211.4 212.1 202.4 215.1 229.4 247.4 266 264.2 256.6 254.2 257.4 255.9 249.9 246 249.1 250.3 249.5 273.2 293.9 313.3 323.3 333.3 338.7 342.9 348.8 351.5 340.4 321.3 306 292.7 278.2 264.2 252.4 238.4 226.6 216 205.5 200.5 198 195.1 190.5 187.1 182.8 178.6 173.3 168.3 162.4 158.5 156.7 156.8 156.7 156.8 156.8 156.8 155.7 156.8 156.8 156.8 157.7 163.4 169.3 174.2 178.6 185.2 191 204 212.8 229.9 241 250.6 259.8 272 285 294.4 301.3 312.5 332.6 351.5 369.9 385.4 399.1 408.2 412.9 413.7 412.5 407.4 398.3 387.7 379.3 374.6 370 369.3 367.5 367.5 369.6 368.6 365 361 361.4 362.1 360.2 364 362.5 363.2 364.9 367.6 368.4 372.1 375.9 377.7 387.9 400.7 415.4 433.6 458.7 485.7 520.1 563.6 597.9 627.6 645.6 654.9 663.9 668.7 672.7 678.3 681.9 686.2 695.7 704.7 712.4 715.1 715.8 711.7 702.5 695.3 702.1 711.7 710.1 705.6 706.1 698.9 692.8 689.6 691 690.2 693.2 694.9 702.4 698.1 694.4 685.5 674.5 663.4 657.8 651 643 630.6 616.6 598.3 586.7 568.3 555.5
193.3 195.9 200.3 203.1 205.1 206.3 204.9 204.3 206.7 210.6 214.4 217.6 224.4 224.8 225.2 223.4 220.2 223.4 224.5 224.6 219.3 214.8 206.6 198.9 193.1 193.9 204.9 215.4 226 238.2 236.2 246.7 243.4 230.8 212.1 203.4 200.6 199.8 197.2 205.2 219.2 231.4 250.4 257.6 257.4 253.6 248.8 249.1 246.7 245.3 246.2 248.3 247.8 252.7 278 296.6 311.4 318.2 328.1 335.7 343.9 349.2 346.2 330.4 317.5 303.1 293 275.4 258.3 249.5 242 228.1 217.7 208.8 205.8 202.9 199.9 191.7 187.7 183.6 178.9 174.4 168.9 163.5 158.1 156.8 156.8 156.8 156.8 156.8 156.8 156.8 156.8 156.8 156.8 157.4 162.7 169.9 175.1 180.6 185 189.2 198.9 213.4 223.5 232.8 244.5 253.3 265.6 277.3 286.7 295.7 310.7 332.3 349.9 365.6 378.6 389.2 396.4 402.3 404.8 401.6 394.6 386.5 377.2 371.1 367.4 364.8 364.8 365.6 365.3 367 365.5 362.5 360.9 359.8 358.6 360.1 361 361.7 362.2 363.7 366.9 367 371.1 375.1 379.2 383.1 398 412 432.2 451.2 477.7 513.2 555.1 588.1 615.8 632.6 640.2 647.7 651.8 657.6 666.1 670.6 676.8 683.8 691.4 701 702.7 699.9 691.1 681 676.9 692.9 698.1 692.4 686.9 688.3 682.5 678.1 678.2 680 683.4 685.6 692.6 697.5 701.8 696.7 687.6 674.2 658.1 648.6 640.7 630.3 615.7 603.8 583.5 572 557.3 549.5
183 183 185.8 187.2 191.1 194.2 197.1 198.4 201.2 200.2 200 203 205.2 206.9 209.5 211.5 210.1 217.7 220.1 219.2 216.3 211.6 200.3 195.8 190.1 189 209 220.9 230.8 236.3 234.9 241 238.3 227.5 214 202.1 197.3 194.4 195.7 212.5 229.8 238 248.5 251 249 246.9 246.1 241.9 241.2 242.5 243.1 243.7 241.9 261.8 278.5 300.4 312.8 319.5 322.4 335.4 341 341.8 334.5 321.6 310.2 301.9 288.9 268 255.2 247 240.6 231.2 220.3 213.9 208.9 204.8 199.9 196.5 191.3 186.9 179.1 173.8 168.3 162.8 161 158.6 156.8 156.8 156.5 156.8 156.8 156.8 156.8 156.8 157.9 161.5 164.1 170.4 176.1 181 183.1 189.8 196 210.5 222.6 234.6 238.9 251 259.2 270.8 281.4 292.5 318.1 339.2 352.4 364.6 372.2 381.1 387.5 392.2 392.6 388.3 381.9 373.7 366 361.7 357.9 356.4 358.5 362.9 366 362.5 360.3 358.6 357.5 356.9 356.1 356.7 359.5 358.4 361.8 365.5 365.3 365.9 369.8 373.5 376.8 382.4 396 409.5 419.7 445 476.9 508.5 541.6 576.5 599.8 614.8 623.7 629.1 639.4 645.9 651.6 655.6 663.3 671.3 677.4 683.9 686.5 679.2 671 662.3 662.3 678.7 681.7 674.9 674.6 669.3 664.1 666.6 666 670.6 675.5 680.3 686.7 694.3 701.8 697.6 688.1 673.2 652.8 640.8 632.2 624.5 610.3 594.2 580.3 563 549.9 544.5
175.4 176.5 175.7 176.5 177.3 179 179.3 180.4 186.7 191.3 194.8 194.5 194.6 194.6 193.5 196.5 199.3 209.2 211.5 215.3 209.1 208.3 195.9 188 182.2 192.1 207.6 219.7 226.7 231.6 227.7 228.3 232.2 223.1 213.1 204.7 194.3 192.7 198.2 214.7 235.8 255 257 251.2 248.2 244.5 242 235.7 236.5 236.9 238.1 239.5 244.4 270.4 287.5 303.9 315.3 321.6 327.1 333.6 338.4 338 330.8 317 308.1 297.9 282.2 266.6 253.5 245.8 238.5 229.8 223.6 217.1 214.6 209.1 198.7 193.4 188.7 184 181 175.2 170.1 164.2 161.3 159.4 157.4 157.2 156.8 156.8 156.8 156.8 156.8 156.2 162.5 164.4 165.7 171.8 174.1 177.3 179.9 188.1 197.9 213.2 228.5 240.7 240.9 247.7 258.5 270.2 277 289.8 317.2 342.1 356 362.8 367.2 372.7 377 380.3 379.3 375 368.7 359.6 355.4 352.5 350.5 353.9 356.4 361.3 360.6 356.9 355 353.8 354 353.4 352.6 352.1 357.5 358.5 361 363.7 362.5 363.8 367 371 374.1 383.5 395.8 403.2 412.3 441.5 470.8 498.5 529.7 561 582 597.9 609.5 618 626.4 633.2 637.9 643.2 651.4 657.6 660.9 664.6 664.3 659.5 650.6 647 651.2 662.5 663.1 665.1 662.4 658 652.7 654.3 658.1 662.4 671.5 680.3 684.7 692.4 700.6 696.9 687 670.2 652 639.4 625.8 613.9 602.2 590.2 574.8 560.5 544.2 532.1
167.7 168.2 168.4 170.8 170.7 171.8 174 175.7 182.6 185.1 183.7 179.3 184 185.2 192 194.3 197.4 203.1 206.8 206 200.5 199.8 192.6 182.3 178.8 188.7 199.6 216.5 223.8 226.5 222.1 226.3 224.5 214.7 215.1 209.4 197.7 190.9 202.3 209.8 228 249.4 250.7 248.1 245.1 240.7 236.2 232.9 231.1 234.1 231 239.5 256.6 268.8 286.1 305.4 317.6 324.8 330 331.8 331.8 333.1 324.3 312.6 303.1 291.4 278.7 265.8 253 240.4 236.7 234.7 228 221.5 215.3 210.1 202.7 195.2 188.4 178.5 174.4 172.2 171.7 166.2 161.8 158.7 154.2 154.2 156.8 156.8 156.8 156.8 156.7 158 164.6 164.7 166.4 169.4 174.1 175.6 179.7 186 196.7 212.8 235 235.7 239.3 247.8 257.5 266.3 275.8 295.4 316.7 334.7 346.1 350.7 352.9 358.3 363.1 365.4 364.7 361.3 354.9 339.1 341 343.7 345.5 350.9 356.5 358.5 357 352.7 349.1 349.3 348.6 347.4 347.6 347.1 354.2 358.1 357.9 358.6 360.4 361.4 364.2 369.4 374.3 379.8 390.6 398 410.1 435.5 458.2 485 516.3 545.2 567.9 583.4 594.2 607.5 614.9 619.9 626 629.8 636.7 645.5 648 645.5 642.6 639.9 632.5 625.9 636 647.9 649.3 647.4 644.7 649 648.1 646.3 651.3 659.6 670.2 679 684.9 692.2 699.1 693.6 685.5 669.8 655.6 642 626.9 613.7 601.2 588.5 575.3 562.7 550.5 533
162.5 162.4 159.7 164 163.2 165.5 170.7 171.9 172.5 174.4 173.8 176.4 178.8 181.7 193.5 194 194 200 200.3 200.1 194.7 192.8 185.6 176.2 174.3 190 200.3 213.3 226.1 231.9 225.7 220.1 218.5 208.1 210.7 207.4 198.5 188.4 196.1 206.7 225.6 244.3 247.1 244.5 237.6 232.6 228.3 223.5 227.4 228.5 229.4 239.6 251.2 267 280.5 298.6 320.8 324.5 326 327.1 327.7 325.1 315.1 307.3 301.3 285.5 274.9 257.7 248.2 239.9 239.2 238.5 236.9 230.6 219.5 210.8 204.3 199.2 189.3 181.9 175.1 171.9 164.9 162.8 159.6 159.5 156.2 156.7 156.8 156.8 156.8 156.8 156.8 159.9 163.2 164.9 166.4 166.6 170.6 176.1 179.7 181.8 193.2 209.6 228.1 230.7 237.6 245.1 254.1 268.3 285.6 302 314.3 324 331.6 335.3 337.4 340.9 345.3 345.1 344.7 344 334.9 320.9 326.3 336.3 340.5 352.2 357.9 354.2 346.6 344.9 340.5 341.9 342.4 342.9 342.9 345.2 349.9 358.8 360.3 359.4 361.4 361.6 363.5 367.5 373 380.1 388.5 394.9 408.1 427.3 446.9 473.6 501.9 525.8 554.4 568.6 580.3 593.3 603.1 606 614.3 619.1 622.2 629.4 632.2 630.2 621.9 618.9 612.3 611.7 620.6 633.4 634.3 627.8 628.1 633.1 637.1 642.6 649 659.9 671.4 678.3 687.2 695 700.4 696 686.7 669.1 654.9 645.1 630.9 618.5 606.4 590 577.3 567.3 548.9 540.2
155.8 155.2 155.5 155.2 160.4 164.7 164.2 163.8 165 167.6 168.2 172.5 170.7 186.5 202 194.5 191.2 191.8 191.6 189.7 185.4 181.3 179.2 173.5 175.5 190.2 196 208.9 224.4 228.8 222.8 214.4 214.3 203.1 203.8 201.9 204.4 189.5 191.3 203.7 224.5 239.7 244.4 240.1 231 226.4 224.1 224.8 226.8 228.1 227.5 237.8 253.8 264.3 275.1 292.5 311.1 319.3 317.6 318.2 319.1 317.7 308.6 302.4 291.7 277.2 267.6 253.8 242.7 240.4 240.4 245.6 243.4 239.4 228.1 218.7 210.7 203.2 193.1 183.5 178.7 175.7 170.4 164.3 161.2 158.9 157.7 157.1 156.8 156.8 156.8 156.8 157.2 160.6 161.8 164.1 165.2 164.8 171.1 174.1 177.5 181.4 190.4 204.6 219.8 228.6 236.7 246.6 257.1 270.5 284.1 295.5 306.3 315.6 319.3 318.6 318.4 318.4 319.2 320.9 321.3 319.7 310.2 308.1 317.5 324.1 327.8 342.3 346.4 341.3 337.7 338.4 332.9 336 337.1 335.3 338.9 343.9 346.9 356.3 358.9 359.1 362.7 361.6 362.9 367.1 371.9 380.6 389 394.2 402.5 416.8 434.7 461.8 485.1 506.9 531.5 551 567.6 579 586.8 591.4 604 612.6 609.9 612 615.2 612.6 607.3 604.2 597 598.9 607.3 619.5 619.3 617.3 614.4 618.4 632 646.9 657.4 660.9 673.7 678.9 687.1 699.1 703.4 700.9 692.2 674.1 656.2 643.6 632.3 623.2 611.6 595.8 582.3 568.7 558.2 549.6
152.3 149.9 146.7 151.9 156.1 159.5 158.5 160 162.5 161.2 163.4 165.9 167.7 182 195.9 194 187.8 190.1 184.7 182.4 179.8 168.3 168.3 165.3 174.1 184.4 191.5 204.4 220.5 224.2 219.6 213 205.9 197.8 196.6 193.8 193.9 185.1 182.3 192.5 215.5 225.4 232.4 228.4 221 218.9 217.6 219.3 228.4 229.5 229.5 235.4 253.7 269.8 283.5 287.8 297.8 307.3 307.8 306.5 307.2 307.3 303.4 293.1 274.1 269.7 258 244.7 242.4 243.1 238.9 240.4 247.2 238.8 230.6 226.8 215.6 209.6 199.3 188.9 180.2 176.2 171.9 168.4 161.2 158 159.8 156.8 156.8 156.8 156.8 156.8 158.6 160.7 161.1 163.8 163.9 165.2 169 171.5 173.6 179.2 194.4 206.2 214.2 224.3 232.4 239.7 252.5 266.3 274.4 281.4 291.1 293.7 297.7 297.5 296.3 294.7 293.1 293.8 293.9 291.3 290.5 298 306 310.6 320.5 325.4 330.2 329.9 328.4 327.1 327.4 329.2 329 328 335 339.1 345.6 357.1 358 359.3 361.7 361.4 362.7 366.9 373.6 380.8 386.6 392.3 399.9 412.4 428.9 451.7 469.5 491.9 517.2 534.1 551.5 563.2 571.6 580.3 592.3 596.3 596.4 599.4 599 595.6 591.7 586.1 577 586.3 591.5 600.6 605.9 599.2 607.8 624 636.8 651.7 662.1 666.1 674.6 678.1 686.5 696.8 703.7 701.8 694.6 678.4 660.2 641.7 633.3 623.9 611.7 598.1 582.7 570.5 560.4 555.3
140.1 138.3 143.2 153.4 155.1 156.8 155.2 155.8 156.1 154.1 156.9 161.2 165 174.1 180.5 181.9 179.8 179.9 181.4 172.1 171.6 167.3 157.5 161.3 167 181.3 186.3 197.7 206.7 217.3 217 212.7 207.6 197.5 196.1 194.8 186.8 185 181.7 179.1 197 210.7 219.1 213.7 213.4 214.9 213.3 221.1 231.6 235.4 237.2 246.9 263.4 276.1 285.8 287.8 294.1 297.3 296.8 296 294.6 288.1 291.4 283 268 257.5 248 246.5 245 245.1 237.4 231 236 236.4 236.4 237.5 228.2 212.9 205.8 196.6 187.3 179 172.5 167.4 161.2 162.5 160.2 156.8 156.8 156.8 156.8 156.1 159.2 159.6 160.4 163 161.2 163.1 167.2 168.4 171.9 179.8 187.9 198.5 212.2 220.1 226.9 233.4 238 243.4 255.1 259.8 265.3 271 276.2 277.5 276.6 274.3 274.5 270.1 270.7 275.3 282.2 287.8 293.8 303.4 308.1 314.4 314.8 316.7 319.5 318.6 322.5 325.6 324.9 325.1 330.8 334.8 344.1 351.6 352.3 359.1 359.2 359 362 366.9 374 380 383.3 388.9 396.5 411.2 428.4 443.5 457.6 480.2 502.4 517.9 535.3 547.8 555.1 568.7 576.8 582.1 582.1 584 583.8 580.8 575.7 570.2 560.3 570 573.5 578.1 579.8 583.9 608.2 623.1 639.5 654.9 664.2 671 675.3 678.7 687.3 693.4 694.5 692.5 685.1 669.5 650.4 639.9 630.3 619.3 607.8 595.9 583.7 574.4 566.8 559.5
135 139.4 141 146.3 148.8 149.8 152.4 151.9 150.8 149.6 150.4 159.9 162 162.8 169.5 174.9 173.1 175.7 172.3 167.9 163.8 158.7 155.2 155.2 167.4 175.3 181.4 197.1 203.7 213.7 214 210.5 206.2 196.3 196.5 190.8 184.6 182.3 184 177.5 183.8 197.7 206.5 206.2 207.8 211 213.9 219.1 234.1 253.4 254.8 255.8 268.9 284.2 286.9 287.9 293.7 297.2 292.8 288.1 285.3 278.7 279.1 273 263.2 251.7 253.6 248.7 245.7 243.6 235.4 226.9 231 230.7 233.4 234.6 230.6 217.7 208.7 200.9 193.7 184.8 177.6 171.3 165.4 167 163 156.8 156.8 156.8 156.7 155.1 157.4 158.1 160.7 163.1 159.4 164.4 165.1 166.6 170.1 176.9 185 194.5 207.5 213.5 221 224.8 230 233.7 236.9 243.3 246.9 250.7 253.8 256.9 258.1 258 258.6 260.9 262.5 263.6 275 280.1 286.2 290.9 299.5 302.7 305.7 307.3 307.7 313 317.8 318 319.2 319.2 321.9 332.5 342.3 349.4 346.5 356.6 354.2 356.1 359.2 365.5 371.9 376.2 379.1 384.4 393.5 408.9 423.5 435.7 448.7 471.3 491.9 505.3 519.9 527.5 542.9 556.1 564.9 567.4 568.3 568 568.5 566 561.2 555.5 551.8 556.1 556 558 562.3 587 604.6 615.3 633.7 647.1 657.6 669.3 675.3 678.1 685.7 692.7 691.4 688.7 676.9 661 650.5 637.5 625.7 614.7 600.7 591.4 584 579.1 572.4 567.4
128.8 131.2 134.8 135.8 139.5 141.8 143.8 145.2 147 148.4 150 155.3 158.6 162.2 159.9 165.9 166.6 166.6 163.5 156.1 157.1 153.4 148.4 152.7 165.5 172.6 184.4 196.2 203.1 211.6 211.3 209 202.3 195.6 192.9 186 179.9 179.7 180.4 178.2 174.4 189.5 200.9 207.3 208.3 207.3 212.5 219.7 236.9 255.6 267.9 267.9 281.8 287.6 289.8 290 292.3 294.9 291.6 286.5 279.4 274.3 272.1 263 253.5 249.3 248.2 244.3 242.7 235.7 230.4 221.1 220.4 224 226.4 228.5 230.4 223.9 211.8 203.4 195.2 188.3 181.7 174.8 167.1 166.6 160.1 156 156.8 160.2 158.9 156.8 158.2 159.3 161.1 160 158.9 161.6 162.3 163.6 169 174.7 179.2 192.3 198.8 205 210.9 218.9 220.7 224.6 230.2 235.8 237.5 238.8 241 244.8 246.8 249.6 251.9 253.3 256 262.1 270.3 279.4 280.4 285.8 290.7 291.4 296.2 299.1 302.7 307.9 311.6 313.8 313.6 313 317.3 327.4 336 344 338.5 352.2 348 350.8 356.1 365.6 369 371.3 376.2 380 386.1 401.3 414.8 426.4 440 460.8 477.5 490.3 502.4 511.7 528.6 538.5 548.6 550.7 552.3 552.9 554.3 552.4 550.2 540.7 539.9 542.7 534.9 544.1 563.2 585.2 596.3 615 627.5 640.4 647.1 657.1 670.1 672.9 678.7 688.4 683.4 675.4 668.1 653.9 643.6 632.8 621.7 609.7 598.2 593.7 591.4 586.8 582 577.1
120 129.4 130.9 132 137.8 142.6 142.3 142.1 141.4 146.4 150.1 154.2 154.7 153.2 150.9 155.9 156.6 157.2 154.2 151.1 150.6 147.1 143.2 148.7 170.5 172.1 186.9 199.4 210.3 212 209.7 207.5 200.6 192.8 187.3 179.5 174.6 174.7 173.1 168 174.5 184.3 199.4 206.4 204.5 210.5 215.3 227.9 239.4 258.7 274.2 288 289.6 293.7 294.1 293.9 294.5 292 290.5 285.2 278.7 271.7 265.3 258.5 251.2 248.5 245.7 243.8 237.8 233.4 230.6 220.9 215.4 219.4 223.1 225.5 229 227.9 217.4 209 203.3 191.9 182.7 176.8 169.3 163.6 158.2 157 157.6 159.7 158 156.6 159.2 158 157.7 157 157.8 160 160.2 161.9 167 171.8 178.7 187.1 195.7 198.8 202.7 207 212.6 217.7 223.6 226.9 229.3 232.5 237.1 241.1 242.8 245.9 246.8 247 254.1 260.6 267.9 271.3 273.6 278.3 282 285 288 289.9 294.6 303.6 305.4 309.5 307.9 309 315.4 325.2 329.8 334.3 337.9 347.8 342.4 344.1 352.7 362 365.6 367.6 370.8 375.4 382.1 391.5 405.5 415.5 435.4 452.2 466.4 477.5 484.9 500.6 516.1 525 537 539.8 538.6 539.3 541 536.6 535.3 527.5 525.3 520.2 522.6 543.2 562.5 577.8 598.8 612.2 618.6 623.1 634.7 648.7 663.2 662 665.6 674.8 669.1 663.1 654.6 642.3 633.8 625.9 617.6 608.3 601.8 600.9 600.1 596.4 591.9 588.1
120 125.6 125.2 125.8 134 138 138.2 137.2 137.3 145.4 148.7 155.1 153.4 151.6 146.8 144.7 147 143.2 144.4 145.7 143 141.8 138.6 155.4 167.3 174.2 187 201.7 212.2 210.2 208.9 204.3 198.6 187.9 181.6 176.4 170.4 167.5 165.3 165.5 168.5 179.8 191.7 205.2 204.7 207.5 224.5 238.9 250.9 273.5 287.1 294.6 296.2 298.4 299.5 297.1 296.4 294.4 291.3 282.6 279.9 276.8 266.7 256.2 249.8 245.8 243.1 239.3 236.5 233.6 230.2 220.3 212.9 214.8 221 225.6 228.2 226.2 224.4 225.7 213.9 199.7 186.6 178.8 172.8 168.7 160.9 158.6 159.9 159.6 158.1 156.9 158.7 156.6 155.4 156.8 157.6 157.7 158.1 161.5 166.8 169.7 178.6 186 190.3 192.3 194.8 205.6 208.1 214.9 223.7 225.5 228.7 231.5 235.3 237.8 240 240.3 239.6 244.6 248.3 257.1 263.3 267.4 270 274.8 275.4 279.6 284.1 284 295.3 297 300.9 304.9 302.8 306.9 310.6 316.4 321.5 322.7 339.1 339.7 337.5 338.1 347.5 358.2 362 363.5 368.5 373 378.7 387.9 399.4 411.3 426.7 444.7 455.5 465.8 474.1 487.9 498.9 513.2 518.6 525 525 526.1 525.1 523.5 519.2 510.7 509.2 494.9 516.8 532.3 551.6 571 587.5 601 603.2 608.3 622.4 636.8 648.3 647.8 653.4 661.8 657.7 651.5 644 629.6 624.1 617.4 610.9 605.4 608.6 612.4 610.3 609.1 602.2 597.1
120 120 120 120 124 130.1 133.4 131.4 138.9 151.4 148.3 144.6 152.5 148.8 142.4 140.8 139.7 136.5 136.3 136.8 136.9 137.5 139.4 158.6 168.7 171.8 187.6 207.9 211.7 208.3 205.7 201.6 193.8 185.4 180.4 172.3 169.9 163.4 161.4 164.6 163.1 177.1 192.3 201.5 200.2 205.3 225.4 246.3 265.5 287.9 302.3 307.8 310.4 309.3 311.1 307.6 303.7 299.9 295.7 287.9 285.9 281.8 272.2 259.9 256.5 251.6 247.6 240.2 234.3 228.6 221.2 214.7 210.5 209.8 216.4 224.8 230.6 225.8 223.1 226.4 229 212.9 192.5 181.2 173.1 170.3 162.5 162.1 160.7 160 158.3 156.5 156.3 155.9 157.6 157.2 157.4 157.6 158.3 161.1 164.3 171.3 180.8 187.5 188.3 191.8 194.1 196.6 204.7 211 222.6 227.1 228.9 231.6 232.6 236.6 236.5 237.7 238.3 240.9 244.1 249.7 257.6 262.6 264.3 266.5 269.8 275.5 275.3 282.3 288.8 295.9 292.9 295.1 299.9 299 302.7 309.2 314.7 323.1 336.6 333.5 333.3 332.4 346.4 353.8 356.5 359.3 365 371.4 376.1 382 392.6 406.5 420.4 433.5 445.5 455.5 461.5 479.9 490.2 497.6 506.5 509 511.4 511.6 510.6 508.7 503.9 495.9 490.5 483.8 506.3 519.4 534.3 552.2 571.1 584 589.8 597.4 608.1 619.5 625.9 629.4 640.5 647.7 645.1 640.6 630.1 620.2 616.1 610.4 604.4 610.8 617.4 625.9 629.3 623.4 613.6 606.4
120 120 120 120 120 120 125.5 122 135.1 142.4 143.4 136.6 135.8 138.8 136.7 132.8 135.2 129.7 129.7 132.5 132.8 133.8 142.2 160.3 164 172.5 190.3 205.5 208.8 205.6 201.8 196.1 188 183 176.6 169.8 166.6 162.8 158.2 158.2 164.6 173.4 186.8 200.5 197 204.4 220.5 247.5 267.5 292.6 311.3 322.9 329.3 329.8 328.1 319.1 317.8 312.4 304.2 297.6 293 286 276.7 270 260.8 259.9 253.6 248.8 239.6 231.1 221.5 209.8 207.2 204.5 210 217.7 225 222.2 217.5 220.7 218.6 211.1 206.2 199.4 180.8 173.3 169.6 165.9 161.7 160.3 157.4 156.3 156.2 154 154.3 154.2 155.2 156 161.8 162.7 162.5 171.3 180.8 186.5 188.9 190.7 193.3 194.7 198.9 204.2 214.6 223.1 229.9 226.9 224.4 225.8 230.8 233.8 237.4 239.5 238.7 242.5 250.1 255.7 257.1 259.5 264.1 270.6 270 277.3 285.9 288.9 287.3 290.7 292.2 288.8 296.8 304.7 312.7 319 325.4 327 328.4 328.9 343.8 349.2 349.6 356.2 362 368.6 372.8 381.2 392.6 406.4 416.6 429.6 439.2 445.9 455.6 470.5 479.8 484.9 493.8 495.2 496.5 496.4 495.7 494 490.5 482.6 470.1 473.8 492.4 506.9 521.3 537.2 550.7 560.8 567.3 576.9 587.4 598 605 610.9 625.3 631.4 628.9 626.3 614.8 611.9 609.4 602.3 608.4 617.8 633.6 645.5 639.3 630.9 623.6 615.4
120 120 120 120 120 120 120 120 120 128.9 130 120 124.9 131.6 129.2 120 123.6 120 127.5 129.7 131.9 133.2 148.3 154.6 162 169.5 179.9 202 204 200.7 197.9 191 185.3 180.7 174.8 171.1 166.7 159.7 155.4 153.7 165.2 167.1 181.8 193.7 193.4 200.9 217.9 241.7 273.3 296.9 315.6 327.1 334.9 340.5 345.9 341.4 332.2 325.9 315.6 305.6 293.3 279.5 277 269.5 266.5 260.8 258.5 258.6 251.3 232.1 216.8 207.7 207.1 196.9 201.8 208.2 214.1 214.4 207 204.9 202.3 204.7 201.6 194.6 182.4 175.4 171.3 168 161.9 159.1 155.8 154.9 154.6 154.9 152.5 153.4 154.5 156.2 157.2 158.3 157.6 166.1 177.7 184.5 186.3 187.2 191.7 195.1 196.4 199.2 207.2 210.9 214.2 215.5 213.8 212.9 213.8 215.7 223.1 229.1 229.3 235.8 241.8 247.9 251.1 254.9 260.6 266.2 263.7 268 279.9 280.1 281.8 280.8 276.7 279.2 293.8 301.8 307.3 312.8 322.3 324.9 321.8 328.3 337 341.8 346.7 355.4 360.2 366.9 369.4 378.8 392 403.2 415.6 426.3 435.8 440.7 452.2 462.8 467.9 472.9 478.3 482.5 482.2 484.8 483.6 481.6 478.4 472.3 447.3 467.1 478.3 489.8 501.6 520.9 526.6 533 539.9 550 561 573 583.2 595.5 603.5 607.8 608.9 604.7 597.3 601.5 598.7 600.4 617.3 640.1 651.6 653.1 647.1 640.6 630.4 622.4
120 120 120 120 120 120 120 120 120 120 120 120 120 120 120 120 120 120 120 129.8 135.4 143.2 147.9 154.6 159.8 166 183.7 194.7 199.3 198.2 193.6 188.2 184.3 179.5 172.4 170 160.3 156.9 153.6 152.6 155.4 164.4 177.7 187.6 186.7 201.9 217.1 244.1 277.1 296 317.5 335.4 348.6 356.6 357.4 351.7 345.5 340.3 328.6 310.4 291.9 283.2 281.8 276.6 271 261.8 264.9 258.8 247.6 230.3 216 205.9 198.6 196.4 193.3 195.1 196.8 196.4 193.5 194.1 194.3 199.3 201.3 190 181.5 175.9 170.6 166.6 161.2 158 155.6 156.2 155.8 155.5 153.2 152.4 154.5 156.1 156 155.9 156.5 158.2 163.9 172.3 179.6 179.2 187.6 198.1 198 194.3 198 202.6 202.4 203.7 204.4 206.5 204.5 205.1 213 215.3 221.2 226.9 231.6 242.5 244.6 248.4 254.3 261.9 261.6 264.6 271.9 274 276.9 271.9 268.7 283.4 288.1 299.4 305.2 313.9 322.1 320.3 314.4 323.5 330.9 335 342.8 351 357.7 362.2 367.6 377.2 391.5 404.6 413.1 425.2 432.5 437.5 450.2 455.2 458.5 463.8 468.9 472.3 474.1 473.5 473.4 469.3 466.3 458.4 441.6 454.9 462.5 474.5 486.2 497.4 500.9 505.8 514.7 523.3 535.3 546.2 556.3 569.1 576.6 582.4 585.3 580.8 583.3 586.8 581.9 599.2 643.6 652.5 659.5 657.7 652.4 645.7 637.5 628
120 120 120 120 120 120 120 120 120 120 120 120 120 120 120 120 120 120 120 120 125.5 130.5 139.5 150.9 155.1 163.2 176.7 183.9 192.9 195 188.8 185.3 182.1 177.5 173.6 166.4 165.7 157.5 153.8 150.4 151.9 159.3 173.9 182.1 183.5 199.3 214.8 239.2 266.9 289 319.9 340.4 352.3 361.4 366.3 365.7 357 346.7 335.7 315.4 302 291.8 284.5 280.6 277.5 269.6 262.7 253.4 240.5 227.2 217 206.1 197.7 195.4 186.4 187.4 187.5 187.1 188.8 191.8 191.8 193.1 195.6 189.7 180.3 175.9 171.2 166.7 161.7 158.6 156.8 156.7 156.1 155.5 153.5 152.3 154.2 155.2 155.4 154.5 154.6 155.8 157.9 162 167.4 174.3 176.8 178.8 179.7 182.3 186.6 191.3 194 197.2 197.4 197.6 195.7 196.4 200.7 204.4 211.2 213.5 222.1 235.6 239.1 240.8 252.6 253.6 255.8 261.1 267.1 268.3 269.8 264.3 274.2 281.4 286.7 294.5 299.9 313.8 316.2 312.5 308.8 316.3 328 333.8 338.5 349.1 354.5 358.3 366 379 393.2 401.2 412.7 424.3 430.4 436 448.2 449.4 452.7 456.9 461.6 464.9 467.5 466.6 465.9 460.8 455.7 449.5 428.9 439 447.6 455.6 464.4 473.4 479.2 482.4 491.9 500.5 507.5 515.6 528.6 539.2 551.3 558.5 562.6 562.9 571.6 569.1 580 603.8 640.6 659.2 667.7 660.8 658.8 652.7 644 633.3
120 120 120 120 120 120 120 120 120 120 120 120 120 120 120 120 120 120 120 120 121.5 129.8 129.9 144.8 147.7 156.6 168 184.3 190.1 188.2 186.2 182 178.5 174.8 168.9 167.1 161.1 154.1 153.1 149.3 154.8 159.4 168.9 178.2 183.1 199.6 214.2 236.4 266.5 287 318.1 339 349 358.6 367.8 374.2 367.9 350 339.7 328.1 313.3 301.5 288.7 280.4 280.4 278 263.1 252.2 236.1 226 217 207.3 195.9 190.6 186.2 180.1 182.7 182.1 184.4 186.5 189.6 186.4 186.9 186.6 181.8 174.3 171.2 165 161.5 159.1 160.8 156.7 155.9 154.4 151.7 153.6 154.8 156.4 156 153 152.8 155.2 156.9 159.8 161.8 168.1 174.2 175.9 174.4 172.5 177.3 189.7 186.7 186.7 187.9 186.3 184.9 181.7 187.8 192.7 201.9 201.8 217.2 225.2 233.3 237 244.7 244.8 249.9 253.2 261 263.6 260.8 260.4 273.2 275.3 285.2 287.7 297.7 308 308.2 303.1 303.1 314.4 324.9 327.4 333.8 345.3 351.9 357.3 366.8 382 389.2 398.1 411.9 425.2 430.3 434.7 440.3 446.5 449 451.3 456.9 458.7 460 461.1 456.9 453.6 448.1 441.2 423.7 423.7 434.7 437.3 445.1 451.6 460.1 461.9 469.5 476.6 482.2 489.8 504.3 510.9 521.7 531.3 538.4 546.8 555.1 564.5 587.5 620.9 648.8 663 660.9 666.6 666.7 662.7 651.6 639.9
120 120 120 120 120 120 120 120 120 120 120 120 120 120 120 120 120 120 120 121.6 126.2 137.9 147.5 149 149 155.5 166.1 176.6 181.5 181.9 180.1 178.1 174.9 170.4 165.9 160.8 157.7 153.1 153.3 149.2 154.2 155.3 166.1 175.9 183.5 194 204.5 232.2 264 287.6 318.7 343 345.5 351.7 359.9 371.6 373.4 355.6 341.8 327.5 318.7 308 293.5 283.6 271.3 262.8 254.8 244.6 232.6 222.7 214.3 204.8 195.3 189.6 184.6 180.9 176.6 178.2 177.7 177.4 183.4 180.3 179.8 179.8 175 170.8 168 163.5 159.6 161 161.3 157.1 155.7 154.2 152.8 154.3 156.1 157.2 155.2 152 152.9 154 157.3 155.4 156.7 159.1 170.4 169.4 167.3 166.4 165.7 175.8 174.1 174 172.8 170.8 171.4 173 177.1 188.3 192.3 195.8 209.6 216.1 224.4 228 237.1 239.5 245.2 245.8 253 262.1 258.1 261.2 272.6 273 279.8 284.9 295.6 302.4 303.1 297.2 299.9 313.4 319 319.7 335.2 346.2 352.4 358 368.9 379.7 385 400.4 414.2 427.9 431.4 435 438.5 444.8 447.3 449.2 453.4 456.3 454.4 453.9 451.5 448.1 441.9 432.5 417.4 411.7 419.9 424.7 431.3 433.1 438.6 440.8 445.6 453.6 459.1 468.6 478.7 487.8 494.2 507.6 517.6 529.1 546.3 569 598.4 622.1 640.7 649.6 661.6 670.2 678.8 669.5 658.9 643.6
129 120 120 120 120 120 120 120 120 120 120 120 120 120 120 120 120 120 120 120 120 131.4 137.8 144.4 148.8 158.1 163.8 178.3 176.7 178.5 173.9 173.9 171.6 167.4 162.1 155.2 152.7 149.3 152.2 155.6 146.4 148.8 160.2 166.1 181.5 193.3 209 232.9 254.6 283 318.2 331.4 340 341 345 357.5 363.3 355.9 339.3 319.8 310.9 301.7 290 277.5 263.5 251.6 242.2 233.5 225.4 216.6 209.6 201.1 193.6 186.2 182.3 178.2 175 168.9 172.1 171.9 171.6 170.7 173.5 169.4 166.2 164.9 161.5 158.2 156.7 156.4 156.2 155.4 153.9 152.9 152 153.3 155.4 156.3 154.5 151.6 150.9 151.2 151.6 151.8 153.8 153.1 157.1 163.5 158.8 159.9 163.6 166.8 163.7 163.5 162.6 161.5 162.4 163.5 170 179.3 183.3 195.6 205.3 209.3 218 220 230.7 232.9 237.9 242.2 246.5 247.9 249.7 257.8 269.1 270.6 274.7 282.2 292.5 295.1 293.3 292.4 296.2 303.8 307.1 319.5 338.6 342.6 349.6 355.9 367.9 376.3 386.3 399.5 413.1 423.4 426.9 432.6 440.2 443.3 447.8 452.2 454.7 457.2 456 452.5 447.8 440.5 434.1 425 412.1 401.1 403.8 408.4 414.3 417.6 418.5 422.1 426.4 432.1 441.1 449 458 464.4 473.9 485.5 496.9 515.9 535.9 559.9 585.3 611.2 627.5 637.7 652.1 664 686.1 676.5 663.2 650.6
132.6 134.8 131.4 120 120 120 120 120 120 120 120 120 120 120 120 120 120 120 120 120 120 128.8 134.3 134 136.5 145.6 170.8 180.5 173.9 170.2 168.2 167.8 165.9 161.6 155.4 151.6 152.7 147.6 152.5 152.9 146.9 145.1 153 160 178.2 197.8 214.8 228.4 255.6 283.9 309.9 323.7 329.7 333.6 339.8 347.3 350.5 350.3 337.4 315.5 303 292.2 280.2 267.5 258.3 244.2 236.8 227.3 221.3 212.2 206.1 197.4 192.2 183.5 177.7 174.8 173.2 171.2 163.7 167.3 166 164.1 162.8 162.2 162.5 162.7 158.5 156.3 155.1 154.8 154.2 152.2 151.9 150.3 149.1 151.4 152.8 153.4 152.3 150.7 151.7 153 153.2 154.1 156.3 158.5 157.4 160.1 157.8 158.3 160.3 160.7 160.4 158.9 159.2 159.2 160.2 161.1 166.7 177.6 181.3 192.2 196.9 204.3 211.9 213 224.3 225.4 231.8 239.9 235.1 235.7 249.1 254.6 260.3 262.7 268.5 277.9 289.2 289.6 287 284.9 291 299 301.3 316.5 331.5 336.7 342.3 356.2 372.3 383.2 388.7 402.3 413.9 422.5 427.9 438.2 442 446 448.5 453.8 457.8 461.4 457.8 453 446 436.4 427.7 418.7 406.6 393.6 392.9 394.6 397.7 401.4 401 404.3 410.3 417 424.9 433.7 442 448.6 455.2 459.4 480.5 501.1 520.2 543.8 571.3 591.1 607.5 623.4 634.8 649.6 679.7 679.9 669.7 658.6
130.8 134.1 135.3 120 120 120 120 120 120 120 120 120 120 120 120 120 120 120 120 120 120 124 129.4 128.7 129.3 138.7 170.7 176.4 174.2 170.1 166.4 161.6 157.9 153.7 150.6 148.8 147.4 149.5 152.7 149.6 148.5 143.9 147.6 155.9 173.7 193.6 211.4 222.5 244.3 270.3 297.7 310.6 323 324.8 334 342.8 348.2 347.3 334.8 312.8 299.9 290.5 272.4 263.2 250.9 238.4 228.7 222.5 214.9 208.7 200.2 194.8 186.6 181.2 175.8 172.1 170.8 168.5 163.8 159.6 161.6 161.4 160.7 159.8 160 159.4 154.5 153.6 154.3 152.6 151.6 149.9 149.4 149.2 149 148.7 149.2 152.8 150.5 153.4 158.2 156.4 155.8 156.6 158.4 161.1 161.9 156.5 157 158.8 158 158.2 156.9 158.7 158.1 157.8 158.4 159.3 164.8 173.8 177.4 186.2 192.4 199.7 205.8 210.6 214.6 220.8 225.5 231.9 227.7 231.6 236.7 245.3 251 255.9 261.3 272.6 281 283.4 280.3 279 286.1 294.9 295.2 305.6 318.1 327.1 337.3 355.4 371.2 378 388.1 402.3 414 421.6 431 439.7 443.7 445.9 450.4 455.8 456.6 457 453.4 453.1 440.7 428.8 419 409.2 400.3 392.1 384.3 383.3 382.8 385.2 387 390.3 395.8 403.8 412.7 418.4 425 432.6 437 451.6 469.7 485.6 505.5 524.7 548.3 567.7 585.5 604.2 616.4 630.5 658.2 671.8 667.9 664.1
132.3 124.8 120 120 120 120 120 120 120 120 120 120 120 120 120 120 120 120 120 120 120 120 120 120 120 132.6 152.6 166.3 164.7 164.9 163.2 158.3 153.6 150 145.7 142.2 144.1 141.8 153 153.3 148.1 143 141 154.7 177.9 195.2 208.2 219.2 242.6 265.8 297.3 310.2 316.9 319 326.1 333.4 341.9 344.2 330.4 309.3 290 279.3 269.8 259.4 246.2 233.8 223.5 217.1 210.6 203.7 195.1 188.5 181.7 177.2 173.6 170.2 167.1 164.9 161.2 158.5 158.8 157.9 157.3 157.7 154.6 153.2 152.4 151.3 150.4 148.5 148.8 148.3 148.6 149.4 152.5 151.2 152.6 153.2 156.7 165.4 165.2 168.1 179.8 180.5 169.3 164.5 166.4 162.5 158.6 157.3 156.8 156.9 156.7 157.9 157.4 157.7 158.1 158.2 162.5 170.1 174.3 182.7 188.1 193.4 198.2 204.5 209.5 216.8 218.7 219.5 218.8 225.3 234.7 238.5 240.2 246.2 256.2 266.4 274.2 273.4 274.9 277.8 280.6 286.5 285.3 305.1 309.2 320.4 330.9 353.2 365.2 369.6 387.4 398.8 413.8 422.7 436.9 444.2 447.7 453 454.4 454.3 452.8 453.5 445.5 444.4 432.5 420.6 412.3 403 393.6 385.7 377.3 375.3 373.6 374 376.1 379.4 385 391.1 397.9 403.7 408.9 413 426 440.8 456 471.7 486.5 505.2 527.4 546.1 571.2 584.3 599.2 616.3 634 649.7 655.4 653.7
130.2 124.5 120.5 122.7 124.9 131.2 134.3 120 120 120 120 120 120 120 120 120 120 120 120 120 120 120 120 120 120 120 136.6 159.8 158.9 158.5 153.9 152.1 147.4 145.6 142.5 139 140.2 141.8 144.4 146.1 146.5 138.6 139.8 152.6 172.3 194 200.8 214.3 235.3 255.1 286 311.1 315.6 316.7 323.7 330 335.6 337.4 324.1 306.8 283.5 271.6 262 250.2 238.8 230.4 222.9 213 205.4 197.1 189.7 184.1 180.5 176.5 172.5 169.7 167.4 166.2 161.7 157.8 156.8 154.5 154.6 154 153 151.4 150.2 149.2 148.9 147.7 149.3 151.4 153.4 153.2 155.8 153.4 153.5 154.8 158.5 162.4 170.1 178.3 188 189.7 187.7 179.6 172.8 169.4 160.9 161.7 161.1 158.5 156.2 157.2 156.6 157.6 158.3 158.5 161.7 167.9 171.7 178.2 183.1 189.6 194.9 199.3 206.5 210.5 210.1 211.2 216.8 224.1 232.3 233.8 233.5 238.7 252 263.1 267.4 267.5 266 270.5 272.6 274.9 283.9 295.7 301.6 314.4 331 344.3 353.9 362.7 386.3 401.1 411.9 420.6 435.1 443.3 447.9 448.7 451 449.8 449.8 449.8 442.5 437.2 421.5 411.1 404.6 397.9 390.2 379.5 372.3 368.4 366.1 367.1 368.3 372.5 376.6 381.2 386.8 392.3 396.1 405.4 413.9 427.2 437.8 451.1 465.8 486.7 508.3 531.7 553.7 568.9 583 598.8 619 630.6 638.9 641
143.1 147.9 155.4 151.4 146.7 142.4 135.9 134.7 134 120 120 120 120 120 120 120 120 120 120 120 120 120 120 120 120 120 120 143.4 153.6 152.6 150.2 146.7 143.5 140.4 138.6 140 141.5 137.2 139.4 143.1 142.2 137.1 139.6 148 163.9 183.4 196.3 211.9 228.7 244 273.8 306 311.4 313.2 321.8 328.6 332.7 332.7 322.3 300.3 282.2 266.2 253.5 240.7 232.7 224.1 217.7 210 204 195.5 188.2 181.6 177.8 174.7 172.4 169.2 166.8 165.5 162.1 157.2 155.9 154.9 152.8 152.4 153.3 152.1 152.2 149.2 150.5 149.8 150.7 156.4 158 155.1 157 153.6 152.6 154 158.2 165.1 173.4 182.3 189.8 194.9 193.2 188.4 182.2 179.9 176.8 170 166 162 158.9 157.6 159.1 157.6 158.7 158 160.6 169.9 172.7 175.8 183.5 184.7 189.4 200.3 203.4 206.7 204.4 204.5 210.4 220.2 226.8 226.7 226.4 231.3 244.9 253.6 258.6 260.5 256.9 257.6 259.2 259.8 274.8 288.6 294.6 304.8 327.4 341.4 345.6 359.6 384.7 399.4 407.4 415.5 431 439.3 444.7 445.5 444.2 442.1 441.4 439.8 435.9 425.6 412.8 402 395.5 389.1 381.9 375.1 365.6 361.5 360.5 360.2 362.1 365.9 369 373.4 378.4 382.1 388.4 399 404.6 412.5 424.5 435.2 449.1 467.1 492 516.7 538.6 555.8 570.5 588.4 602.8 609.2 616.8 624.3
162.7 160.5 157.4 158.2 149.3 146.7 140.4 133.6 131.7 127.6 120 120 120 120 120 120 120 120 120 120 120 120 120 120 120 120 120 120 144.3 148.5 146.7 144.1 141 136.4 134.5 133.5 141.3 132.1 131.4 139.6 140.3 135.3 137.8 141.9 161.4 180.5 191.8 212.5 229.7 243.4 276.3 296.2 305.4 311.9 321.7 331.2 333.9 329.9 318.1 298.7 280.6 263 248.9 238.5 228.1 218.6 213.6 206 200.6 193.7 189.2 182 176.3 172.8 170.7 168.6 167.1 165.4 162 158.3 154.4 154.8 152.1 151.2 152.2 150.3 150.8 154 149.5 152.2 158.2 167.3 163.8 155.3 155.8 152.2 151.9 154.7 160.1 167.1 173.6 181 190.3 195.5 197.5 197 190.5 184.4 179.4 175.3 173.6 171.3 166.4 160.2 160.8 159.1 160.9 161 159.2 169.1 174.8 177.7 183.9 184.1 189 194.5 198.5 200.6 199.1 201 211.8 221.8 220.7 219.3 218.7 228.1 238.5 245.8 246.7 248.1 251.4 250.5 249.5 254 269 279.5 285.1 290.9 319.7 331 336 358 381.3 392.4 397.5 409.6 427 434.2 436.3 441.4 436.3 434.7 431.7 432.3 427.3 417 404.8 395.2 386.6 380.7 372.8 366.6 357.5 356.2 354.7 354.8 357.7 360 364.6 368.1 370.9 375.3 381.3 386.4 392.7 401 408.8 419.5 435.3 453.5 476.9 509.9 529.3 538.8 555.5 582.7 589.7 596.2 600.2 609.1
162.8 158.8 156.1 153.6 146.7 138.2 136.5 133.3 128.1 120 120 120 120 120 120 120 120 120 120 120 120 120 120 120 120 120 120 120 126.7 137.7 139.9 138.3 134.8 135 133.5 128.6 134.9 130.8 128.5 135.4 138.8 134.4 140.1 143.9 160.2 170.2 186.8 218.8 231.4 254.7 270 288.4 296.6 307.1 319.6 328.4 328.8 326.9 317.4 298.1 278.1 261.7 245.6 234.5 225.2 217.9 208.6 201.4 196.5 191 184.7 180.6 176.1 174.4 172.7 170.6 167.3 164.5 161.6 158.6 155.8 153.3 151.6 149.9 149.4 148.9 157.3 150.1 152.5 156.3 162.2 164.7 157.7 154.8 153.9 151 155.9 156.9 163.6 170.5 175 183.3 189.9 195.5 199.5 200.6 195.7 189.4 184.3 181.4 181.8 179.7 175.1 170 167.9 161.2 164.8 168.5 159 164.6 172 177.3 184.5 184.1 187.8 191.9 196.2 196.4 195 202 208.9 220.6 214.2 212.8 212.3 222 229 235.7 238.5 241 244.1 242.5 242.3 245.2 260.5 271.6 278.1 283.4 312.2 320.9 333 355.6 369.3 378.1 385.9 400.4 416.9 427.9 430.3 428.8 429.2 426.6 425.7 421.8 419.9 409.7 398.6 389.2 380.2 373 366.3 358.1 351.6 349.7 350.7 350.5 353.8 357.2 360.2 364.4 364.8 368.1 370.9 377.3 382.5 389.4 397.4 406.4 419.4 438.1 460.2 491.2 503.5 516.4 535.1 561.7 571.2 582.7 590.7 604.7
162.7 160.1 155.1 148.5 145.3 139.4 131.6 130.9 129.1 127.7 124.5 120 120 120 120 120 120 120 120 120 120 120 120 120 120 120 120 120 120 120 120 126.4 130.4 132.8 130.5 127.9 130.9 129.4 127 127.5 135.5 132.5 137.2 147.6 159.8 166 178.7 199 221.3 254.8 261.5 274.4 293 304.5 314.6 320.7 325.5 327.2 317.6 300.2 279.5 261.9 244.7 231.8 222.8 214.5 205.2 197.8 193.3 188.7 184.7 179.1 175.8 174.1 173.2 171.6 166.2 164.1 162.3 159.7 156.8 156.4 154 150.8 149.3 146.3 146.6 147.4 150.5 154.4 160.2 156.7 154.1 152.5 150.9 150.6 154.9 160.7 169.7 176.7 179.2 185.5 190.3 196.1 201 200.2 195.9 192.9 190.5 186.5 185.9 185 182.8 176.7 175.8 172 170 170 161.6 162.6 166.9 173.3 180.8 182.3 185.4 193.7 197.5 195.1 194 198 209.4 211.1 210.3 207.4 211.3 213.9 219.5 226 231.9 233.2 236.4 235.7 235.2 239.9 259.6 264.2 268.6 289.7 304.9 311 338.3 350.7 361.2 367.9 372.4 394.4 412.2 422.6 424.6 421.7 421.4 420 419.1 416.5 411.8 404.7 394.9 386 375.8 368 362.3 356.8 347.7 344.3 345.2 345.5 351.5 353.3 356.6 358.5 359.3 360.6 364 367.6 372.5 379.6 386.7 394.3 407.1 420.2 434.7 463.9 480.1 493.7 515.8 541.4 555.5 569.7 585.4 598.2
164.5 160.9 158.4 152.4 144.8 139.4 132.3 129 122.6 120 120 120 120 120 120 120 120 120 120 120 120 120 120 120 120 120 120 120 120 120 120 120 120 131 127.8 125.2 121.6 120.1 123.7 124.6 131 137.8 137.5 155.3 155.4 161.3 174.3 181.8 209.2 248.5 265.1 280.2 288.1 295.9 304.7 314.4 318.1 317.7 314.6 305.2 282.6 266 248.1 231.9 220.8 211.4 202.1 195.8 190.5 186.1 180.6 177.6 173.7 171.9 172.1 170.6 166.4 163.9 162.4 161.2 159.3 154.1 151.9 151.2 148.6 146.1 148 147.8 150.2 151.9 153.8 152.8 150.7 150.4 149.6 150.7 156.1 164 171.3 179.3 185.2 190.1 196.3 203.7 203.7 197.1 197 194.1 192.7 190.4 190.1 189.2 186.9 184.3 181.4 179.1 177.8 175.2 171.8 169.3 175.7 180.6 182.8 180.1 182.9 192.1 195 192.9 191.2 196.1 201.1 208.6 208.1 206.7 207.4 209.5 213.3 217.5 225.4 227.7 231.3 230.3 226.2 237.9 249.1 251.4 265.7 281.8 291.9 306.8 322.9 337.3 344.9 350.7 354.5 386 399.7 410.4 416.1 416.4 413.6 413.4 413.4 415 408.7 400.2 391.3 382.4 373.5 366.1 360.6 354.5 347.3 339.3 340.5 343.3 347.6 349.4 351.9 351.9 353.6 355.8 357.2 360.1 364.9 372.3 378.2 381.7 386.6 400.6 416.7 440 458 474.4 498.7 525.1 542.7 561.7 580 591.6
167.8 164 158 152.8 145.8 136.2 132.7 128.5 120.9 120 120 120 120 120 120 120 120 120 120 120 120 120 120 120 120 120 120 120 120 120 120 120 120 120 120 120 120 120 120 120 127.3 134.5 132.7 150.1 154.4 162.1 169.2 176.6 208.5 250.9 268.3 277.9 281 285.6 294.2 305.1 311.3 316.5 317.3 308.7 287.5 266.4 249.2 233.3 217.9 208.8 199.9 193.3 189.3 183.6 179.1 173.8 171.9 170.1 169.3 168.6 163.8 162.2 160.4 160.2 161.9 154.9 156.1 151.8 148.7 145.1 145.7 149.7 150.8 152.7 155.4 150.1 149.7 149.8 149.1 153.3 157.4 163.3 172.9 182.1 188.2 198.1 204.8 200.8 190 188.6 192.3 192.8 192.1 193.3 191.6 192.2 194.6 192 189.1 183.8 182.2 181.1 181.6 178.7 179.5 184.6 188.6 186.7 189.1 190.6 190.6 188.9 189.7 194.4 200.6 207.1 207.5 206.3 205.6 206.6 208.3 212.7 218.6 222.9 224.9 220.9 224.7 231.1 235.7 240.2 257.2 268.3 281.3 297.2 308.6 325.3 329.6 329 344 373.2 380.5 394.6 399.6 407.8 401.2 401.7 404.8 410.5 406.4 394.7 386.7 379.8 369.7 363 357.3 352.8 347.6 336.5 334.4 340.9 342.9 343.8 345.8 344.7 349 351.6 353.1 355.7 359.7 366.3 371.9 373.1 377.4 386.2 403 418.9 437.7 456.9 477.8 505.6 526.6 545.8 570.5 584.9
170.5 164.4 155.9 149.9 143 135.5 131.6 128.5 122.4 124.5 120 120 120 120 120 120 120 120 120 120 120 120 120 120 120 120 120 120 120 120 120 120 120 120 120 120 120 120 120 120 120 127.9 132.1 136.5 146.5 156.9 165.8 173 197.8 246.6 264.9 269.3 277.2 281.2 288.1 294.6 303 312.3 313.7 305.6 287.7 267.9 251.5 234.5 220.5 206.5 198.3 193.2 187.9 183.6 177.3 172.6 169.4 167.4 166 163.9 162.8 161.7 159.9 159.3 157.8 156.8 153.2 150.8 149.2 146.5 147.6 144.6 147.4 156.2 152.1 148.1 148.5 147.6 150.7 154.6 158 165.1 176.2 183.9 191.4 196.3 200.1 194.1 185.4 182.4 192.2 195.8 194.9 195.5 194.9 196.8 195.8 194.3 192.4 188.3 189.9 189.8 189.9 188.9 185.2 184.8 190.6 190.2 193.8 193.9 190.2 190.8 193 194.8 199 205.2 208.5 205 206 204.6 206.8 211.2 218.7 220.3 218.5 214.9 220.6 232.4 232 233.9 243.1 255 272.5 288.1 290.2 305.1 310.3 309.2 330.9 355.9 362.6 370.6 378 387.3 388 387.3 388.8 395.1 397.4 384.8 378.4 375.8 368.6 358.9 352.3 347.4 342.6 336.7 329.9 335.6 338.3 338.7 338.8 339.4 344.3 344.8 348.4 353.4 355.8 359.5 365.7 370.3 371.4 372.8 387.8 406.5 422.1 441.6 460.1 485.3 509.1 532.9 561.5 578.5
178.2 165 154.3 144.4 138.8 134.3 128.3 120 120 120 120 120 120 120 120 120 120 120 120 120 120 120 120 120 120 120 120 120 120 120 120 120 120 120 120 120 120 120 120 120 120 123.9 129.1 129.7 137.3 150.9 160.1 165.5 186.6 222.9 256.4 261 273.4 277.9 282 288.5 298.9 306.7 308.5 301.3 286.4 268.7 255 235.1 220.5 207.3 198.6 191.8 187.7 182.4 176.3 171.7 170.2 167 164.1 162.6 161.2 160.1 158.8 157.5 156.2 154.9 149.6 148.7 148.7 148.9 146.4 148.4 144.6 150.4 145.7 144.6 146.9 149.9 155.2 156.2 160.5 164.9 173.7 182.8 189.4 193.9 188.6 190.1 190.1 186.8 196 196.2 196.8 197.2 198.3 198.3 198.6 198.5 201.4 197.7 198.1 197.3 196.5 195 191.8 190.3 192.1 192.9 196.5 195.2 196.5 200.8 198.4 197.3 196.2 202.8 205.4 203.3 202.7 205.7 208.3 211.3 214.6 218.2 210.1 210.4 213.3 222.3 226.4 228.9 235.1 242.1 259.1 271 273.2 286.6 292.7 294.6 316.6 333.3 343.5 352.5 357.7 364.5 363.9 364.9 368.7 374.6 375 373.4 366.4 365.2 361.8 353.2 346.8 341.2 337 333.4 326.5 326.5 329.6 333 334.1 333.6 335.8 337.7 342 348 351 355.1 359.4 366.6 369.9 369.2 377.1 395.5 409.8 429.6 450.2 472.1 494.4 518.7 550.1 564.1
195.7 181.7 157.6 145.8 138.4 135.4 131.9 120 120 120 120 120 120 120 120 120 120 120 120 120 120 120 120 120 120 120 120 120 120 120 120 120 120 120 120 120 120 120 120 120 120 120 124.8 127.8 133.1 147.3 152.5 162.9 175.2 204 241 247.3 256.7 260 267.5 280.2 292.3 302.8 304.1 297.7 284.6 266.1 251.8 233 216.9 205.8 196.8 191.2 185.3 180.3 175 171.1 167.7 165.5 161.4 160.5 158.2 157.9 157.5 156.6 154.5 149.5 148.6 147.5 147.7 147.7 146.7 151.4 143.6 144 143.2 146.7 149.1 150 152.1 155.1 161.5 166.9 173.3 178.2 185.7 186.6 188.3 189.1 189.4 190.5 196.2 198.4 198.1 200.2 199.8 202.8 206 210.9 215.9 210 211.3 210.8 208.8 205 201.4 200.1 199 195.9 199 202 202.7 207.1 204.9 204.1 204.7 202 201.9 203.3 201.7 207.4 209.8 209.7 212.2 209.7 208.9 208.9 209 217.5 217.3 216.8 224.7 243.2 253.2 256.8 256.1 263.6 271.6 280.4 298.1 309.3 314.6 327.2 332.3 340 343.8 342.3 349 358.8 365.3 361.3 356.1 355.4 350.6 345.8 341.1 336 332.2 329.7 324.2 318.7 324.5 326.8 326 327.1 327.5 330 333.8 340.3 346.5 350.7 355.9 361.3 364.8 366.1 372.3 383.5 398.7 421.9 440.9 461.8 478.6 504.7 529.8 543.6
195.8 180.2 156.9 145.5 141 137.9 132.9 128 120 120 120 120 120 120 120 120 120 120 120 120 120 120 120 120 120 120 120 120 120 120 120 120 120 120 120 120 120 120 120 120 120 120 120 120.2 135 141.1 148.2 154.7 161 208 231.7 241 246.5 251.6 260.6 274.4 290.1 298.1 296.1 289.4 278.4 261.5 247.1 230.2 215.5 204.1 195.3 189.9 184 178.5 172.5 168.1 165.8 164.2 162.2 160.3 154.2 156 155.8 155.4 153.8 147 146.7 147.3 146.5 147.6 145.4 148.1 149.7 142.9 143.3 149.5 152.3 150.4 152.1 154.5 158.4 164.2 170.2 176.8 182.3 184.3 186.7 187.7 189.8 194 197.9 208.1 214.4 214.9 215.1 217 219.6 222.3 226.8 222.7 221.7 221.3 222.3 219.4 214.5 212.9 209.7 207.4 206.2 208.4 206.8 208.8 209.1 211.7 209.5 207.2 205.6 205 204.4 206.9 209.3 208.7 208.9 208.9 208.9 208.9 208.9 208.8 209.9 214.1 224.3 228.5 241 242 242.2 245.8 260 273.6 282.2 292.1 301.7 307.2 314 322.4 325.5 325.3 330.3 342.1 348.3 346.3 345.8 347.9 343.9 336 337.6 331.5 328 324.4 319.7 311.8 319 321.1 318.4 320.3 321.6 323.5 329.9 335.9 343 344.9 349.6 352.4 362.6 369.2 372.1 375.4 387.4 410.5 429.1 449.8 467.8 486.2 506.7 527.6
174 166.4 155.8 150.8 146.2 143 138.2 135.5 128.9 122.2 120 120 120 120 120 120 120 120 120 120 120 120 120 120 120 120 120 120 120 120 120 120 120 120 120 120 120 120 120 120 120 120 120 120 128.2 131 139.6 145.2 154.1 197.2 222.1 229.8 236.1 243.6 252.7 263.7 277.9 284 285.6 282.1 267.9 254.5 242.9 229.3 213.7 202.8 193.8 188.2 181.6 174.8 170 165.7 163.8 161.6 160.5 155.5 151.1 153.7 153.8 153.4 147.4 144.9 144.9 147.9 145 143.7 143.2 145.1 141.5 147.9 148.3 150.9 155.6 152.5 153.5 155.2 157.6 163.4 169.4 175.8 179.1 181.1 184.5 188.5 195.6 200.6 205.5 216.7 225.9 235 246.1 240 237.5 234.6 236.2 235.1 233.2 231.9 230.6 229.4 226 226.6 221.9 219.9 219.5 216.4 212.2 210.9 213.2 220.8 220 213.9 210.3 209.3 211.3 211.1 211.3 211.5 209.1 208.9 208.9 208.9 208.6 209.3 209.1 210 221 229.2 237.4 228.7 232.4 235.8 247.5 261.4 268.3 275.1 282.7 293.5 302.2 305 309.1 308.5 311.9 326.3 329.5 333 334.1 334.1 331.1 326.2 326.9 327 325 319.4 314.5 310 307.7 312.8 310.6 312.9 314.7 317.9 323.5 328 333.4 337.5 342 348.2 357 363.3 368.6 371.6 379 396.7 417.7 438.3 457.7 475.1 493.6 512.1
183.1 171.6 159.6 150.4 147.6 144.9 142.6 137.6 132 125.2 120 120 120 120 120 120 120 120 120 120 120 120 120 120 120 120 120 120 120 120 120 120 120 129.9 120 120 120 120 120 120 120 120 120 120 121.5 125.8 128.6 133.5 152.5 184.4 207.2 214.9 226.2 238.9 246 251.4 262.5 271.8 271.4 269.4 260 250.6 240.9 227.7 214 202 190.3 183.8 176.6 172.5 168.6 163.3 161.2 160.5 157.8 155.8 151.2 146.9 153.4 145.5 142 141.6 140.1 142 142.4 140.9 139.5 140.8 142.9 148.3 151.5 150.8 154.2 153.2 152.4 154.5 156.8 159.6 166.9 171.4 173.8 181.3 186.7 192.4 207.9 212.9 223 241.3 257.2 272.6 275.7 271 261.8 256.6 252.7 250.9 251.9 249.4 245.3 244.2 243 238.5 233.4 229.1 228.4 227.9 221.9 218.6 216.1 219.3 223.4 221.9 217.3 214.8 217.3 216.2 215.5 215.8 214.3 211.6 212.1 210 209.3 208.8 209.2 209.9 212.6 218.6 223 221.9 225 229.5 236.7 253.6 257 262.1 265.2 279.7 288.6 298.7 300.1 300.2 304.9 311.4 315.6 320.4 323.6 322.1 323.8 319.1 321 320.3 320.4 314.1 305.4 303.6 303.5 304.4 301.6 304.3 307.6 312.7 317.2 321.3 326.8 330.8 334.8 338.8 348.3 357.4 363.4 372.6 377.2 387.4 408 431.3 450.6 470.3 481.4 501.9
179.8 190.6 186.5 169.6 159.9 148 140.7 138.8 138.1 137.1 135.4 129.4 120 120 120 120 120 120 120 120 120 120 120 120 120 120 120 120 120 120 120 138.6 145.7 142 138.8 135.7 130.7 120 120 120 120 120 120 120 120 120 126.8 134.7 146.9 171.5 187.8 199.8 219.1 231.5 237.5 238.9 250.6 257.6 262 262.4 252.3 247.5 236 227.6 214.2 200.9 188.4 183 173.3 172.3 166 163.3 157.9 158.8 154.8 154.5 150.8 149.4 143.5 140.8 140.4 139.6 137.3 138.5 140.9 139.8 142.9 144.4 142.8 149.3 153.9 157.7 155.1 153.8 152.8 155.4 158.2 162.6 169.7 175 180.9 186.7 195 204.5 219.2 228.5 240.9 264.3 274.4 286 284.6 279 275.9 280.4 277.1 270.5 269.9 265.8 263.7 261.4 255.7 251.2 245.3 238.7 235.6 234.6 233.1 227.4 225.1 222.7 223.7 225.4 225.7 223.4 225.2 222.7 220.8 218.6 217.1 214.2 215.1 212.7 212.8 209.4 208.7 210.1 210.6 213 214.5 216.6 220.1 222.6 235.8 249.8 246.6 247.6 254.2 268 276.6 287.9 287 289.1 298 299.3 307 313.3 317.5 316.1 318.7 312.7 311.2 312.8 309.7 304.4 302.3 295.3 294.2 294.7 293.7 297.3 301.1 305.4 309.6 314 317.7 317.3 325.3 331.2 340.4 352 362.2 371.6 378.1 384.6 399.6 417.2 437.6 465.2 479.9 496.1
160.1 168.9 180.6 173 157 148.3 142 140.9 147 143.3 137.7 133.4 130.1 129.2 120 120 120 120 120 120 120 120 120 120 120 120 120 120 120.4 129.5 153.9 153.5 148.8 143.3 141.3 138.2 135.3 131.2 129.8 120 120 120 120 120 120 120 120 130.5 139.2 160 173.4 187.6 212.1 219.6 225.9 229.5 246.6 255 257.5 251.5 242.3 236.8 228 222.3 213.1 195.5 186.7 177.7 173.5 168.1 164.2 157.2 155.8 156.7 151.4 152.7 153.5 154.2 143.9 140.5 138.6 137.3 136.3 138 133.3 144.8 145.2 145.1 145.5 149.9 154.8 160.6 159 155.2 154.6 162.5 163.3 164.4 173.3 185.7 192.6 202.2 208.3 218.6 231.6 249.6 265.9 277 279 288.7 289.3 288.8 289.6 294.3 296.8 295.3 288.6 280.9 277 277.1 274.5 267.6 262.6 256.2 245.5 242.6 239.5 238.2 235.4 229.1 226.7 228.6 229.9 226.3 229.6 228.1 225.5 222.9 220.3 217.6 217.2 215.4 214.4 212.4 209.5 208.8 209.5 209.9 211.7 214.7 214.6 220.6 230.1 234.3 234 240 246.4 261.4 269.6 278.1 275.8 276.1 281.6 283.5 303.6 303.4 314 310.6 315 308.1 305 307.8 303.9 299.7 293.6 285.1 282.6 286.4 287.5 289.7 292.7 297.8 302.5 305.3 309.6 310.5 316.6 326.2 334.1 344.5 356.2 365.8 372.6 380.7 391.9 410.8 431 455 482.9 496.2
151.5 148.2 147.4 150.1 150.3 145.5 142.4 140 144.4 150.1 150.1 146.4 136 123 120 120 120 120 120 120 120 120 120 128.6 129.4 120 120 140.5 144.1 153 152.7 150 145.5 144.4 142 141.1 137 133.4 130.9 126.5 120 120 120 120 120 120 120 120 134.7 142.7 162.2 184.4 196.4 208.9 216.8 224.3 245.1 256.8 257.2 247.6 232.9 226.3 220.4 215.7 206.7 187.7 180.1 174.3 169.5 158.9 158.2 153.5 150.7 153.4 152.3 147.2 152.7 145.2 141.3 140.5 139.4 138.9 137.6 137.9 134.3 141.2 144.9 146.5 148 149.5 151.8 156.2 159.9 159.3 159.8 167.2 172.1 175.6 181 205.9 214.6 216.6 221.7 226.8 251.4 270 285.7 290.8 288.7 290.1 299.9 303.8 300.7 306 312.6 311 309.6 303 307.1 316.5 317.8 299.6 289.5 280 267.2 254.5 247.4 246.6 244.2 239.6 233.6 231.9 231.9 228.6 230.5 230 228.7 226.2 222.3 222.1 221.5 218.1 216.8 214.6 212.4 210.6 209.8 209.7 212.3 214.7 214.3 215.5 221.6 225.4 227.8 235.8 244.1 256 266.3 268.7 268.5 269.9 268.5 274.9 290.1 299.9 309.4 303.3 310.9 302.9 297.2 298.1 296.2 292 285.9 279.6 278 282.1 282.9 285.1 286.3 289.9 294.9 298.1 302.8 308.1 312.7 320 329.1 339.8 350 358.8 365.1 374.4 387 403.8 425.8 447.4 472.5 487.8
149 145.8 145.7 144.8 147.1 141.7 140.5 137.7 137.1 143.9 147.3 146.2 134 129.9 129.1 124.9 120 120 120 120 120 120 120 129.4 132.4 136.7 140.4 147.8 153.2 160.6 158.8 154 142.6 141.8 140.7 139.8 136.1 132.7 127.8 120 120 120 124.9 120 120 120 120 120 126.4 138.1 151.5 171.9 183.1 192.3 207.5 221.8 240 246.9 247.6 237.7 225 218.4 214 206.2 193.5 183.9 177.6 170.1 158.9 153 151.8 149.2 148.9 149.1 146.5 143.2 141.5 141.2 139 139 138.4 137 136.6 135.4 137.6 131.5 142.5 146.9 148.6 149.9 154.6 157.3 163 166.5 167.1 176.3 180.9 191.8 209.1 225.8 227.8 229.6 235.6 252.4 274 289.6 300.5 304.5 303.2 303.4 310.5 312.4 320.3 328.3 332 333.8 332.6 328.1 325.9 333.1 343 343.2 323.3 308.3 289.8 273.4 261.1 251 247 242.8 238.7 236.3 234.1 230.6 232.8 232.4 232.3 227.5 226.4 224 221.3 220.8 219.2 216.7 212.8 210.6 210.5 209.3 211.1 214.6 211.8 215.9 220.3 220.8 225 234.1 240.2 248.8 255.7 260.9 263.8 262.9 263.8 268.7 277.5 298.2 304.2 295.3 300.3 298.3 291.8 290.2 289.2 280.4 279.8 274.8 276.5 277.5 279.2 281.5 281.4 284.4 288.4 290.8 297.4 301.9 307.6 315.3 324 333 341.4 350 359.3 369 379.7 391.2 410.2 440.4 465.8 491.6
144.7 141.9 138.1 132.9 131.8 132.3 132.9 137.3 137.7 143.1 148.4 155.9 157 138.3 135.9 133.9 126.7 120 120 120 120 120 124.5 142.2 147.5 156.7 157.8 161.1 157.8 156.4 159 157.6 150.4 141.4 137.8 135.8 128.9 120 120 120 120 120 120 120 120 120 120 120 120 124.5 137.5 153.8 169.1 184.9 194.8 213.8 232.7 235.7 233.1 224.7 219.3 210.1 207.2 199.1 191.2 183.1 176 163.1 155.1 155.2 149.8 147.2 147.1 145.3 143.5 142.2 141.9 140 140.3 139.2 137.6 136.8 135.3 132.1 132.1 133.9 139.6 145.1 154.3 152.2 153.7 162.9 169.3 170.8 175.7 187.2 196.1 223.1 243.5 242.8 240.2 243.1 261.2 275.8 302.7 307.4 319.8 319.4 313.3 318.4 327 340 348.9 354.8 355.3 352.7 352.4 349.9 346.5 344 350.5 353.8 340.1 323 304.2 289.5 276.7 265.2 253.5 245.4 241 238.7 235.6 235.3 234.8 234.7 235 233.8 230.7 226.4 225.2 224.3 222.2 218.9 214.3 216 215.2 213.8 209.9 212.2 211.7 213.8 215.5 217 221.4 232.4 232.2 240.6 244.6 249.8 258.7 258.5 260.7 263.1 272.4 279.6 282.6 284.2 290.3 296.6 291 281.7 278.5 274.1 272.5 270.1 271.5 274 276.9 276.4 277.3 280.3 281.2 286.3 292.9 299 304.4 309.3 316.8 323.6 331.5 339.6 350.4 362.4 373.1 387.9 410.1 435.6 464.2 500.6
130.3 132 133.9 132.8 130.3 127.3 130.1 141 143 147.6 153.5 161.2 160.8 155.9 149.8 144.1 133.3 128.3 120 120 120 124.7 142.5 147.7 155.1 158.4 166.7 164.3 158.1 155.7 156.2 154 151 145.1 137.4 131.9 128.6 120 120 120 120 120 120 120 120 120 120 120 120 120 120.3 133.9 151.1 169.7 187.1 207.3 225.6 232.1 227.6 220.3 213.3 207 199.4 195.8 190.5 186.4 168.2 160.7 158.7 158.2 154.4 148.5 147.1 147.6 144.3 145 143.1 143 141.1 138.9 137.7 136.8 135.7 135.2 132.7 140.6 140.3 144.6 153.4 156.3 162.3 165.2 171.2 174.7 184.5 196.6 215.1 242.7 254.3 252.1 261.7 262.9 292.6 314.2 328.8 338.6 334.2 331.5 330.1 337.8 350 356.7 365.7 373.6 371.2 366.7 363.3 361.4 358.3 354.8 355.1 352.1 345.1 329.4 310.8 297.5 285.4 273.2 262.3 251.5 244.8 239.8 237.5 238.3 238.1 237 236.7 236.1 232.7 232.8 230.2 227.1 225.2 219.7 216.7 217.8 219 218.7 214.9 212.6 211.7 211 213 213.8 218.8 224.4 226.6 232.9 243.6 245 245.2 247.6 257.4 258.3 267 278 274.1 281.9 295.4 289.9 280.2 275.6 271.5 270.4 269.5 266.9 268.7 272.2 273.8 271.7 273.2 276.3 277.4 282.1 288.4 295.1 300.6 305.9 311.4 317.6 323.4 330.8 340.4 356 368.9 382.9 401.3 429.3 462.2 491.8
121.4 122.8 123.7 123.8 124 124 126.5 132.7 141 150.1 158.9 162.5 161.6 159 160.1 161.7 153.2 146 141.2 138.1 139.5 148.5 152.4 157.4 157.6 165.2 166.2 161.5 155.1 155 155.4 153.9 150.3 148.3 144.3 135.2 129.5 120 120 120 120 120 120 120 120 120 120 120 120 120 120 122.6 136.7 154.5 177.1 195.3 209.6 221.2 224.2 218.2 212.4 204.2 196.9 196.7 193.6 180.5 172.9 171.3 162 160.9 160.1 150.7 149.4 147.2 145.5 146.1 144.5 146.1 141.5 139 136.6 135.5 134 133.4 130.6 138.2 140.9 144.1 150 157 167.1 166.6 172.2 182 193.8 210.8 225.9 244.6 258.5 269.3 281.2 291.7 311.2 326.5 335.4 348.1 347.1 347 347.8 357.3 364.4 369.9 375.7 379.9 377.3 374.9 372.4 367.8 365.5 363.9 360.2 355.5 347.4 327.9 313 300.8 290 277.3 265.5 255.9 250.4 241.4 243.1 242 240.7 239.4 238.6 237.2 235.2 236.2 234.1 232 227.7 221.1 220.2 220.3 220.3 218.5 218.1 216.2 215.8 214.4 214.3 212.9 218 221.4 220.9 226.4 232.4 236.7 237.6 239.2 245.3 253.2 264.5 273.9 268.9 277.8 285.2 283.5 274.1 269.7 266.4 266.4 263.6 265.3 266.8 270.2 270.1 267.7 270.1 273.6 273.4 277.6 282.4 289.1 293.8 299.2 301.9 312.5 318.7 327 336.9 348.3 362.9 377.1 396 421.9 455.1 484.8
