ncols 200
nrows 82
xllcorner 380000
yllcorner 141350
cellsize 50
102.3 101.8 101.2 100.5 99.9 98.9 97 95.8 93.9 92.1 90.3 88.7 87.4 87.2 88.4 90.5 92.5 95.4 100.4 103.8 105.1 107 108.5 110.5 113.7 114.9 115.3 121.2 127.1 125.8 126.2 133.7 137.8 139.5 140.1 140.4 140.7 140.8 140.8 140.4 140.2 140.3 139.4 139.4 139.5 139.7 140.6 141.6 141 141.2 140.6 140 139.9 139.2 138.5 137.8 136.6 136.3 136.1 135.6 135.7 134.9 135 135.8 136.5 137.8 139.3 141.4 144 145.2 144.5 142.4 138.9 135.3 132.2 131.6 132.2 133.9 136.6 139.4 144.2 155.7 162.4 158.3 153.4 149.6 147.4 145.1 143.5 141.6 140.4 139.2 138.2 137.3 136.5 135.8 135.4 135.1 134.2 133.4 133.2 132.9 131.7 130.5 129.4 128.6 127.2 126.5 126.5 125.6 125.3 125.2 125.1 124.6 124 123.2 122.3 121.4 120.4 120.1 118.9 118.7 118.2 117.6 117.3 116.8 116.3 115.9 115.2 114.6 114.5 114.4 114.3 113.6 113.7 114.3 115 116.5 115.8 117.2 117.3 117.6 116.2 113.5 112.1 112.2 112.3 113.6 113.9 114.4 115.2 116.2 120.3 120.2 120.3 123.9 127.2 132.5 135.6 137.3 138.9 139.6 139.5 139 137.3 137.7 136.3 134.5 133.2 131.2 128.9 127 124.4 122.1 120.3 119 117.4 117.6 117.3 115.2 114.3 113.5 113.3 112.9 113.8 113.3 112.9 112.9 112.9 114.9 118.3 123.8 139.4 161.2 185.7 195.2 194.5 193.1 190.5 185.5
103.1 103.3 103.3 103.3 101.9 100.6 99.1 97.3 95.8 94.5 91.8 89.7 88.4 87.5 88.2 89 90.6 93 95.2 97.5 102.8 105.3 106.8 108.2 108.6 109.4 114.9 117.2 119 117 118.1 127.1 132 135.5 136.5 137.8 140 140.5 140.6 140.5 141 139 138.8 138.7 138.8 138.8 139.8 140.7 141.4 141.1 140.6 139.9 139.6 139.3 138.5 138.2 137.9 136.6 136 135.4 135.1 134.9 135.7 135.8 136.9 138.4 140.2 142.4 145.1 147.6 147.4 146 142.7 138 134.9 133.1 134 136.7 139.9 144.3 151.1 167.2 170.5 163.5 155.7 150.7 147.6 144.7 143.2 141.7 140.6 139.7 138.6 137.6 136.9 136.3 135.7 135.7 135.4 135.1 134.6 133.4 133 131.3 130 127.5 128.2 126.5 126.5 125.9 125.5 125.4 124.8 124.2 123.3 122.4 121.5 120.5 120 119.9 119.2 118.3 118.3 117.9 117.5 117 116.4 116 115.8 115.3 115 115.5 115 114.7 114.2 114.8 116.1 116.6 116.7 117.7 117.6 117.7 117.2 115.3 113 112.1 111.6 113.9 114.2 114.4 114.9 116.1 116.9 120.6 120.6 122.5 126 128.2 130.5 132.2 133.5 135.1 135.9 133.6 135.3 134.5 133.1 132.3 130.6 129.4 127.4 125.9 123.6 121.6 120 118.7 117.3 116.9 117.4 115.5 113.1 113.3 113.4 112.8 112.3 112.7 112.4 112.3 112.9 114.7 117.3 122.3 135.2 153.3 168.4 177.2 179.5 179.9 177.8 172.2
103.5 104.1 104.2 104.2 103.4 102.2 100.4 99.4 98.5 96 93.8 91.7 89.9 88.7 88.1 89.3 90.2 91 92.3 94.5 97.3 99.9 102.2 102.9 103.4 106.8 108.2 109.4 111.7 110.3 111.9 118.4 125.2 127.8 126.8 132 136.2 138.2 139.8 139.9 138.2 138 135.7 137.8 138.4 138.6 139.6 140 140.7 141.1 140.6 139.9 139.3 139.1 138.2 137.8 137.8 137.7 136.3 135.5 134.6 135.1 135.6 136.3 136.9 138.3 140.2 143 146.1 149.4 151.6 150.5 147.1 141.9 137.2 134.9 137.2 140.2 144.1 149.8 163.9 180.1 177.9 165.2 156.6 151.3 148.4 145.1 143.1 141.5 140.9 140.2 139.1 138 137.4 137.1 136.7 136.6 137 136.9 135.7 134.4 132.9 132 128.2 128.9 128 126.9 126.7 126.2 125.8 125 124.4 123.5 122.6 121.8 121.1 120.6 120.3 119.6 119.4 119.3 118.6 118.1 117.8 117.4 117 116.9 115.5 115.5 115.4 114.6 115.4 115.2 114.7 115.8 116 116.5 116.7 117.9 118 117.6 116.7 114.8 111.2 112.1 113.4 114 114.9 114.9 115.8 116.3 116.4 117 121.4 120.8 125 126 127.8 128.9 131 131.2 129.6 132.4 131.8 131.2 130.4 129.6 129.1 128.1 126.3 124.7 122.9 121.6 120.2 119.2 118.2 117.4 117.4 115.7 113.5 113.4 113.3 113.5 112.9 113.3 112 112.1 112.7 114 116.2 120.3 124.9 134 145.9 153.1 158.7 160.3 158.5 153.1
104.2 104.7 105.1 104.7 103.9 103.1 102.3 101.7 100.9 98.7 96.8 94 91.5 89.8 88.4 90 91.5 92.3 91.8 92.5 92.9 94.7 96.9 97.5 98.5 99.9 103.9 104.2 104.3 106.4 112.8 114 118.4 118.5 118.3 125 125.7 129.7 131.4 133 130.9 130 127.1 138.2 138.3 137.7 138.5 138.1 139.9 140.3 140.1 139.6 139.1 139 137.8 137.3 137.6 137.3 136.8 135.5 134.8 135.3 136 136.6 137.3 138.6 140.9 143.7 146.7 151 154.8 156.5 151.3 144.7 138.9 137.7 140.8 145.1 149.5 159.7 179.1 195.2 177.8 164.8 156.2 151.5 148.6 145.7 144 142.2 140.9 140.6 139.5 138.8 138.6 138.7 138.5 138.5 138 137.2 136.4 135.2 133.9 129.5 130.6 129.3 128.4 127.8 127.1 126.3 125.5 124.6 123.8 122.9 121.9 121.7 121.4 120.7 120 119.9 119.5 119.2 118.6 118.4 117.7 117.3 117 116.6 116.2 116.8 116.7 116.6 115.7 115.3 115 114.6 116.1 116.6 118.1 118.7 119.1 117.9 116.7 113.4 111.9 112.3 113.1 115.5 115.3 115.8 116.2 115.9 117.1 118 120.3 121.7 120.4 123.3 125.2 125.6 127.8 128.5 128.8 129 129.2 129 128 127.2 126.8 126.9 126.4 125.1 123.4 121.7 120.8 120 119 118.4 118.1 117.2 116.4 116.2 115.4 114.5 113.8 113.1 112.7 112.7 112 112.8 115.2 117.5 121 125.4 128.5 130.9 132.4 139.4 142.2 138.1
105.8 107.2 107.1 106.6 105.2 104.7 104.2 103.4 102 100.6 98.1 95.8 92.8 90.3 88.6 90.3 92.3 93.4 93.6 94 94 94.6 95 95.1 94.9 95.9 97.2 98 98.2 101.8 104.2 107.7 110.3 109.3 112.4 113.7 115.1 115.6 116.4 122.7 117.7 119.5 119.9 134.9 137.9 137.4 134.6 136.6 138.2 138.7 139.9 139.5 139.1 138 137.6 137.7 137.4 133.6 135.5 134.8 135.7 135.7 136.1 136.6 137.8 138.9 141.7 144.5 147.7 152.6 158 161.7 154.1 146.3 142.8 143.6 146.1 151.6 157.2 172.3 191.4 188.8 173 163.2 155.5 151.5 149 145.9 144.1 142.8 141.5 140.4 139.3 139.7 139.6 139.3 138.6 138.5 138 137.3 136.5 135.6 130.7 132.1 130.3 129.4 128.7 128 127.1 126.1 125.2 124.3 123.4 122.8 122.4 122.3 122 121.1 120.4 119.8 119.5 119.1 118.7 118.5 118.4 118 117.6 117.2 117.4 117.1 116.6 117 116.2 115.1 114.8 115.5 114.6 115.9 118.3 118.9 119.2 117.9 116.3 113.5 111.6 111.1 115.3 116.8 116.4 116.9 116.8 117 116.9 118.4 119.3 119.9 120.7 120.9 121.5 122.5 124.5 125.2 126.4 126.3 127.5 126.5 126.2 125.2 125.1 124.7 123.9 124.7 123.6 122.4 121 120.3 119.4 121.1 121.4 121.8 122 118 116.7 116.2 114.9 113.1 112.4 111.3 111.3 111.6 113.2 115.5 118.2 120.5 122.9 124.6 126.6 128.1 129.8 130.1
108.6 108.4 108.2 108.7 107.2 106.2 105 104.9 103.6 101.7 99 95.8 92.7 90.2 89.3 91.3 93.8 95.1 95.3 95.9 96 96.2 96.4 97 97.7 97.8 99.4 99.4 99.8 100.3 100.6 100.9 102.6 103.1 103.3 103.8 104.2 105.7 106.3 107.6 109.7 112.2 115.5 121.6 129.5 133 126.2 128.9 137.2 138.5 140 139.4 139 137.7 136.5 137.5 136.3 127.8 131.8 135.3 135.3 135.7 136.1 137.6 138.1 139.6 141.8 144.6 148 152.9 159.6 166.6 164.2 155.2 152.7 153.6 157.5 166.3 169.7 182.6 182.4 174.8 165.6 158.9 153.6 150.5 147.8 145.8 144.1 142.5 141.4 140.5 140 139.5 139.4 139.2 138.9 138.6 138.1 137.3 136.6 131.6 133.3 131.5 130.6 129.6 128.7 127.9 127 126.1 125.1 124.2 123.6 123.1 122.7 122.5 122 121.3 120.8 120.1 120.2 120.6 120 119.1 119.2 118.9 119 117.9 119 118.3 118.1 117.8 117.3 117.5 115.8 115.7 114.1 115.3 114.8 115.8 117.1 115.2 114.3 111.8 110.9 110.8 116.3 116.7 117.2 116.7 117.1 117.2 117.7 118.4 118.8 119.1 119.5 120.1 121.4 121.2 124.9 123.6 125.3 124.1 122.8 122.6 122.8 122.7 123.2 122.3 122 121.5 121.5 121.7 119.2 119 118.9 118.8 118.8 119.1 119.3 118.5 118.4 118.2 119 114.4 112.9 111.6 110.9 110.8 111.7 113.4 115.8 117.1 118.1 119.9 121.3 122.9 123.5 124.4
103.9 109.3 109.7 108.7 106.9 106 105.4 105.3 103.3 100.8 96.4 94.1 91.5 89.7 90.2 92.2 94.3 96.3 98 97.8 98 98.1 99.1 100.2 101.5 101.3 102.1 103.3 103.2 102.9 102.1 104.5 105.6 106.7 107.2 106.4 106.2 109.7 111.2 110.6 110.2 109.6 110 110.3 117 123.2 121.3 125.6 135.5 136.7 137.8 137.5 136.5 135.5 132.2 133.5 127.5 132.2 136.4 134.5 135.8 135.8 136.8 137.5 138.1 140 142.1 145.3 148.2 152.4 158.8 168.4 181.7 180.4 174.7 174.7 181.4 188.3 187.1 181.1 168.7 163.2 158.6 155.2 151.7 149.4 147.8 145.3 143.3 142.1 141 140 139.4 139 138.9 138.8 138.7 138.1 137.8 137.5 136.2 135 133.8 132.6 130.4 129.4 128.6 127.6 126.5 125.7 124.6 124.4 123.8 123.4 122.9 122.6 122.4 121.9 121.7 121.7 121.5 121.3 121 120.8 120.1 120.8 120.2 120.4 120.5 120.2 119.9 119.2 119.4 119.2 118.7 117.5 115.5 114.4 114.5 113.6 112.8 112.2 111.3 111.6 111.1 111.3 113.2 116.7 117.5 116.6 117 117.9 117.4 117.9 118.5 119 119.3 119.4 119.9 121.4 124.2 121.8 119.3 123.3 123.3 122.9 122.2 121.3 121.4 122.4 122.1 122.1 122.1 121.9 119.7 119.5 119.8 119.4 119.2 118.9 119.7 119.8 118.3 117.6 117.7 117.7 114.4 112.1 111.3 110.2 110.8 111.4 113.2 114.3 115.4 116.4 117.5 119 119.5 120.2
102 108.2 109.6 108.8 106.6 104.4 103.3 102 101.1 97.7 94.7 93.3 90.5 90.4 90.9 92.3 94.4 97.6 101.3 99.4 100.9 101 99.7 102.1 103.5 104.6 105.6 107.1 107.3 106.6 105.7 107.4 109.2 109.8 111 111 107.8 110.7 114.2 115.5 116.4 113.6 114.7 114.4 112.4 112.7 114.4 119.5 123.4 128.6 134.6 133.2 127.7 125.9 124.8 125.9 128.8 133.7 136.2 136.2 135.6 135.9 136.6 137.7 138.4 140.6 142.9 146 147.7 151.1 156.7 167.6 190.1 207.5 207.6 207.1 213.2 213 199.5 180.7 165.9 159.1 155.5 155 154.2 151.2 148 145.7 143.6 142.1 140.6 139.5 138.2 138.5 138.2 138.3 138.3 138.1 137.5 136.6 134 134.4 133.3 132 130.7 129.3 128.3 127.2 126.1 125 124.9 124.6 124.1 123.6 123.2 122.9 123.2 123.2 123 123 122.9 122.9 123.1 122.6 123 122.6 123 123 122.9 122.6 122.2 122.5 121.6 121.2 120.2 116.7 115.5 114.5 113.9 113.8 112.7 114.5 113.7 113.4 111.8 111.4 112.6 116.7 116.2 117 116.5 116.8 117.5 117.5 118.8 118.4 119.2 119 119.9 121.2 120.8 121.4 121.6 121.4 120.8 120.2 119.3 120.7 120.4 119.4 118.6 118.4 119.2 120.4 119 118.5 118.7 118.4 118.9 120.1 120.8 121.1 121.4 121.2 121.8 120.2 114.8 114 112.3 111 109.9 111.1 110.7 111.9 113 114 114.8 115.5 116.6 117.1
98.4 103.3 107.8 108.2 106.4 104 101.3 99.9 98.1 95.9 93.6 91.6 90.4 91.2 91.8 93.1 95 99.6 101.7 101.6 103.6 104 103 103.2 106 107.3 109.1 110.7 111.1 110.5 108 109.6 112.7 113.8 114.4 112.6 109.5 112.4 117.5 121.1 121.4 117 115.5 118.5 119.4 116.4 114.8 114.5 116.1 119.6 122.7 123.1 121.3 123.9 129 133.9 135.5 134.5 136.3 136.2 136 135.2 136.8 138.1 138.5 140.4 142.9 146 148.1 150.2 155.3 163.5 180.6 202.6 222.8 233 232.3 221.5 196 171.7 163 159.4 159.6 163.1 159.2 154.2 149.2 146.2 144.2 142.2 140.8 139.1 137.8 137 137.7 137.6 138 137.7 137 135.9 133.6 132.8 131.6 130.7 129.8 128.7 127.7 127 126.3 125.2 125.1 124.1 124.5 124 123.9 123.8 123.9 124.2 124 123.9 124.4 124.8 124.7 125.2 125.5 126 124.9 125.6 125.7 125.5 124.8 124.1 122.4 120.2 122.1 120.7 119.3 119.7 119.3 118.9 119.4 118.1 121 115.8 112.6 111.6 112.2 112.6 115 115.3 116.9 116.8 116.9 118.5 119.1 119.1 119.4 120.4 120.1 120.8 120.7 121.2 121.3 120.7 120 120.3 119.4 118.4 117.5 117.5 117.5 117 116.8 116.8 115.3 115.6 115.3 117 117.7 117.4 118.9 119.1 120.9 121.7 122.9 124.7 121.7 117 113.2 111.8 110.8 112.1 109.7 110.2 110.7 111.8 112.5 113.4 113.9 114.3
97.7 102.2 106.6 108.1 105.8 103.5 101.5 99.6 97.4 95.1 93.8 92.4 91 92.1 92.4 94 100.3 99.2 100.6 101.9 105.5 106.7 105.3 104.6 107 110.2 111.9 113.3 114.3 114.9 112.5 111.9 117.9 119.2 119 114.5 111.7 115.7 120.7 124.9 127.1 121.9 118.7 121.4 125.6 118.6 122.2 118.4 117.3 117.6 118.1 118.6 123.5 132.9 135.5 137.1 137 136.8 136.9 136.3 135.9 135.8 136.7 137.5 138 139.8 142.4 145.2 147.4 149.6 154.4 160.4 170.7 192.8 217.2 234.9 238.4 225.4 194.5 176.6 172.1 172.8 177.1 170 161.6 155.4 150.3 147.2 145 142.8 140.8 139 137.8 136.5 135.6 134.9 135.4 136 135.6 135.8 131.6 131.3 130.5 129.5 128.8 128.1 128 127.3 126.6 126 125.6 125.5 125.2 125.1 124.9 124.9 125.4 125.4 125.4 125.4 125.8 126.4 126.2 126.1 126.4 127 127.4 127.6 126.9 126.4 124.7 125.1 125.5 122.6 124 123.1 122.2 120.7 122.5 122.4 123.1 121.5 122.5 121.6 113.6 112.2 112.4 111.3 118.3 118.7 120.3 119.8 118.8 118.5 118.9 119.7 119.5 120.1 120.1 119.4 120 120.3 120.2 120.1 119.6 119.3 118.2 117.2 117.3 117.6 116.8 116.3 116.7 114.1 114.7 115.1 114.9 115.9 115.6 116.5 117.7 118.7 120.4 120.8 125.5 126.6 124.5 119.8 115.2 112.2 110.8 109.7 109.4 109.8 109.7 110 110.7 111.1 112.5 112.8
101.3 107 109.7 108.1 105.7 102.9 100.5 98 96.5 94.2 93.8 91.7 92.2 92.9 93.6 94.6 96.6 100.5 101.2 102.1 105.4 107.4 107.5 107.4 107.6 110.8 114.1 115.2 116.8 118.8 116.2 117.7 119.1 123.2 121.9 116.9 112.9 116.8 121.9 125.1 127.6 126.9 123.8 122.4 126.8 122.2 127.9 125.3 121.9 120.7 121.6 120.1 120.8 130.2 134.4 135.9 135.7 137.2 136.7 136.2 135.8 135.5 134.5 136.3 137.3 139.2 141 143.9 145.8 149.3 153.9 159.5 167.2 181.8 206.8 223.5 237.1 234.2 220.5 207.5 202.8 196.3 183.3 171 162.8 156.7 151.4 147.9 145.2 143.1 141 139 137.7 136.5 135.2 134.3 134.4 135 133.8 134.4 131.5 131.3 130.6 129.8 129.2 128.4 128.1 128.1 127.8 127.3 127.4 126.7 127.1 127.2 127.5 127.6 127.7 127.3 127 127.4 127.3 127.4 128.2 127.8 127.7 127.6 128.1 127.9 128.6 128.5 128.7 128.2 126.7 125.2 124.6 123.9 123.7 123.6 123.8 123.1 123.7 123.9 124.4 122.8 113.7 113 111.9 111.4 116.5 122.5 123.4 122.7 122.9 122.7 120.1 120.3 121.7 121.2 120.3 120.1 120.1 119.6 119.8 119.4 119.3 118.6 118.7 118.4 117.4 117.1 117.4 116.1 115.6 114.7 114.4 114.4 114.8 114.8 114.3 115.2 116.3 116.4 117.8 120.1 120 125.1 124.2 121.4 118.1 114.9 111.9 110.6 109.2 108.8 109.4 108.9 110.1 112.2 110.4 110.6
105.3 110.6 110.6 107.3 105 101.3 99.3 97.4 95.9 94.6 93.8 91.5 92.5 94 95.2 96.2 97.1 101.2 101.1 101.5 104 107 109.7 110.6 111.2 111.8 114.7 117.3 119.3 120.9 122.2 122.6 122.1 123.8 123 116.5 115.5 118.4 119.8 123.7 131.8 134 127.7 130.1 127.5 125.5 132.6 130.6 126.3 127 126.8 122.1 121.1 121.8 124.6 128.6 130.5 134 135.2 136.2 134.7 133.5 133.5 134.7 136 137.4 139.6 142.7 145.5 149.9 154.7 159.4 166.6 176.6 191.5 214.9 235.7 242.2 236.7 225.5 213.1 199.4 183.6 171.5 163.4 157.1 152.2 148.9 146.1 143.5 141.5 139.4 137.7 136.5 135.3 134.4 133.9 133.2 132.4 131.7 131.4 131.1 132.4 131.4 130.8 130.4 130 129.8 129.7 129.7 129.7 130.2 130.1 130.4 130 129.4 128.7 128.2 128 128.5 128.5 129 128.8 129.7 129.5 129.3 129.5 129.9 130 129.6 129.2 128.9 127.5 127.4 126.3 125.1 125 124.7 124.6 125.3 125.3 125.5 125.6 124.2 121.9 113.8 112 110.5 113 121.2 124.4 125.6 125.3 124.8 123.5 122.1 123 122 122.1 120.9 121.4 120.4 120.5 119.9 119.3 118.9 119.1 118.5 118.6 117.5 116.9 116.2 115.3 115.1 115 114.1 114 113.5 113.6 113.4 115.3 115.4 117.3 117.6 119.2 120.7 120.8 119.7 119.3 116.8 113.9 112.1 110.8 109.5 108.3 108.9 112 109.1 108.7 109.1
109.8 112.4 110.5 107.1 104.1 102.7 100.3 98 96.4 95 93.9 92.1 93.1 95.1 96.9 97.4 98.1 99.6 101.2 102.9 104.7 106.5 110.1 111.5 114.7 116.3 115.3 118 122.3 127.3 130.2 127.8 125.6 124.1 120.3 117.8 121.2 124.8 125.3 127.2 137.9 139.1 131 136.7 130.1 132.3 138.4 134.4 129.7 131.4 128.7 123.2 122.4 122.8 122.9 123 125.3 127 127 128.6 130.5 131.1 132.6 134.4 134.3 136 138.6 141.8 145.2 149.1 153.9 158.8 165.8 180.4 198.8 223.7 240.4 242.4 235.7 223.7 211.9 196.7 184 172.1 164.8 158.8 153.9 150.4 147.3 144.4 142 139.8 137.7 136.7 135.7 134.8 134.4 134.3 133.9 133.7 133 132.5 133.4 133.9 134.2 133.6 133.9 133.1 133.6 132.9 132.5 132.5 132.2 131.7 130.8 130.2 129.5 129.1 128.9 129 129.1 129.2 129.9 130.4 130.6 130.3 130.3 130.5 130.7 130.3 130 130.1 128.4 129.4 128.1 127.3 127.1 125.9 125.6 125.7 126.2 125.9 126 125.8 125.2 119.1 112.8 109.2 109.4 112.8 123.6 126.2 126.1 125.7 125.8 124.4 123.5 123.5 123.3 123 122.5 122.2 121.2 120.9 120.4 119.7 120 118.8 118.3 117.6 117.4 116.4 115.5 114.7 114.6 114.3 113.2 113.3 112.8 113 112.9 113.4 115 116 117.6 118.1 118.7 118.9 118.5 117.5 115.2 113.6 112.3 110.2 109.1 108.1 108.1 108.2 108.1 109.3
115.1 113.4 109.7 107.7 109.2 107.7 103 99.3 97.6 96 93.7 92.7 94.2 95.6 97.7 98.3 100.2 101 102.1 103.8 105.7 107.6 108.9 112.2 117.2 121.6 121.6 119.8 124.4 133.6 140.2 138.1 130.2 125.1 121.3 120.4 123.3 129.3 135.8 138.5 142.2 140.6 138.4 138.3 135.1 140.4 142.4 140.4 138.1 135 129.3 125.7 124.5 125.1 125.2 127.4 126.7 130 131.6 131.2 132.1 135.1 136.9 136.5 136.5 137.1 138.1 141.2 144.4 147.9 151.5 157.5 167.5 188.1 211.3 224.4 224.8 232 229.6 218.2 204.9 191.7 182.2 174.4 167.3 161.1 156 151.4 148.3 145.4 142.5 140.2 139.2 138.4 137.6 137.1 137.1 137.4 137.2 135.8 134.8 135 135.7 137.9 137.5 138.2 137.1 135.7 135.5 135 133.9 133.2 132.7 131.6 130.9 130.4 129.9 129.4 129.1 129.2 128.8 130.5 130.4 131 130.6 130.3 130.7 130.6 131.1 130.7 130.1 129.9 129.9 130 129.8 129.6 129 127.8 127.3 126.6 126.5 126.9 127.1 126.8 125 125.6 118 111.6 109.7 109 116.7 125.4 126.9 126.8 127.1 124.8 124.6 124 124.3 124 123.3 123.3 122.8 122.3 121.9 121 121.2 120.3 119.6 118.1 117.6 116.5 115.7 114.9 114.4 113.8 113.5 113.1 112.9 112 112.5 112.8 114 114.6 114.4 116.2 116.4 116.3 117 116.8 116.6 115.1 113.9 112.2 111.4 109.6 108 107.5 106.4 107.6
117.3 114 110.9 115.2 117.9 115.3 108.4 101.8 98.3 95.9 92.8 94.1 95.3 96.8 98.2 99.8 101.9 103 104.3 105.7 107.1 108.5 110.2 112.4 117.4 124 124.8 124 125.9 137.2 144.1 142.4 135.7 129 123.9 121.8 124.5 130.6 137.9 143.1 145.4 144.6 144.6 141.2 144.3 144.3 144.6 143.3 139.1 133 129.5 127.5 127 129 132.6 133.6 129 131 135 135.6 137.8 138.6 139.5 142.1 137.1 138.1 139.2 140.6 143 146.1 150.2 156.2 166.1 184.1 211.4 218.4 220 220.2 214 203.7 194.2 187.3 180.6 174.4 168.4 162.4 158.1 153 149.1 146.2 144 142.1 141.8 141.1 141.2 140.6 140.6 141.1 139.5 137.8 136.1 136.9 138.7 138.7 139 139.1 138.6 138 137.5 136.3 134.7 133.9 132.6 131.6 130.8 130.3 129.8 129.4 129.1 129.1 128.5 128.5 128.1 128.6 128.9 130.1 130.5 131.1 131.3 131.6 130.8 130.2 130.6 130 130.1 130.3 131.1 130 128.8 127.6 127.7 128 128.4 127.3 128 128.1 124.3 113.9 110.3 108.2 109.2 120.9 126.5 127.3 127.6 125.6 126.7 125.8 125.5 124.3 123.5 123.6 123.8 123.4 122.6 122 121.5 120.8 119.3 118.3 118.3 117.5 116 114.3 114.4 113.5 113.2 113.3 112.4 112.7 111.5 111.8 112.9 113.5 113.9 115.6 115.8 115.6 115.9 115.8 115.7 115.3 114.5 113.9 112.1 110.8 109.2 108.1 107.3 107.7
119.8 116.6 116 120 118.9 118.6 112.9 106.3 100.8 96.2 93.3 95.2 96.4 98.1 99.5 100.6 102.3 105 107.5 109.8 112.2 113.6 115.1 114.8 116.3 123.6 128 128.6 128.4 136.4 144 144.3 138.2 131.6 126.2 125 127.7 132.1 140.1 145.9 147.7 147.5 146.8 146.4 145.9 145.9 144.6 142.2 136.7 136.9 131.8 129 128.6 138.1 139.6 139.3 131.8 131.2 134.9 136.8 140.4 141.3 141 142 140.7 140.2 140 140.3 142.8 145 149 154.6 162.3 173.3 185.8 197.1 197.8 196.4 193.5 190.3 187.1 182.9 178.1 173.2 168.3 163.9 159.4 154.7 150.9 148.4 145.7 144.6 144.2 143.9 144 143.6 142.2 142.6 140 138.7 139 140.1 139.7 139.3 139.2 139.3 138.5 138.4 136.9 135.6 134.1 133.4 132.9 131.5 130.7 130.2 129.8 129.6 129.1 128.8 127.6 126.5 125.7 125.6 127.4 127.2 128.2 129.8 130.3 131 131 131.1 131.3 130 130.9 131 131.1 131.6 131.3 130.3 129 129.2 129 128.9 129.1 128.6 127.7 120.7 112.1 108.7 108.2 113.7 125.9 126.6 126.3 126 127.7 127.3 125.4 126.1 125 123.8 123.1 122.6 122.7 122.4 121.9 121.5 121 120.6 118.6 118.4 116.9 114.7 114.6 113.5 114.5 114.1 113 112.2 111.8 111.3 111.9 113.1 113.2 113.2 113.6 114 113.6 114.5 114.5 114.2 115 115.2 115.2 113.7 112.2 109.5 107.9 107.1
121.4 118.8 119.2 122.4 122.6 121.1 118.4 110.8 102.6 96.9 93.2 96.8 98.3 99.3 100.9 102.8 104.2 105.1 108.1 112.3 115.5 119.6 121 120.8 116.8 119.6 126 131.1 132.8 136 145.5 145.4 139.5 133.1 129.2 129.5 131 134.4 141.6 147.1 149.1 149 149.5 149 148 147.2 144.6 142 143.3 144.2 138.5 129.9 130.8 141.4 144.4 142.8 136.9 134.1 138.2 141.1 143.8 144 143 144.2 143.4 143.1 140.9 141.2 142.2 144.5 148.6 153.3 159.4 167.4 174.6 179.7 183.5 185.2 185.1 183.4 181.2 178.8 175.5 171.4 167.6 163.8 160.1 156.1 153.1 150.4 148 146.8 146.2 145.6 145.3 144.6 144 142.3 140.5 141.9 143 142.7 142 140.5 138.7 137.4 136.5 136.2 135.2 134.5 133.8 132.5 132.1 131.4 130.7 130.1 129.6 129 128.8 128.2 126.7 125.6 125.2 124 123.2 123.4 125.8 126.9 126.9 125.5 129.5 130.6 130.6 130.8 131 131.1 131.8 131.9 132.4 132.7 130.2 130.1 129.5 129.6 130 130.1 129.5 126.4 116.2 110.2 108.2 108.2 116.4 125.6 126.6 126.6 127.9 126 125.5 126.3 125.2 124.7 124.1 122.8 123.2 122.2 122.1 122.2 121.1 120.7 119.8 119 117.5 115.9 114.1 114 114.6 114.4 113.3 112.6 112 111.5 110.8 110.8 111.8 112.3 113.3 113 113 112.3 112.4 113.1 114.4 116.2 117.5 116 114.3 111.7 107.1 106.5
123.6 121.4 122.6 124.8 124.3 124.1 122.5 113.9 102.7 97.2 93.1 97.2 99.5 100.7 102.6 104.9 107 109 109.6 112 116.5 122.6 125.4 124.7 119.8 124.2 129.8 127.1 133.5 140.2 147.6 148.2 140.1 134.1 133.1 132.5 133.2 137.5 143.2 148.4 150.6 150.3 150.4 150.5 150.5 150.3 147.8 147.1 146.7 145.2 138.2 131.9 133.5 144.3 147 146.2 143 137.5 138 142 145.4 146 146.6 147.1 145.9 144.6 141.6 142.3 144 146.8 148.4 153.5 158.1 164.2 170.6 174.3 177.1 179.1 179.7 178.3 176.7 175 172.5 169.6 166.6 162.8 159.9 157.4 154.5 151.7 149.4 148.4 147.3 145.3 146.2 145.3 143.3 139.2 144 145.4 145.1 144.2 142.2 140.6 139.7 138.9 138 138.4 137.7 136.7 136.3 135.3 134.7 133.1 131.9 131.5 131 130.2 128.8 128.2 128.6 128.2 127.6 125.4 123.3 123 122.2 122.7 125.1 128.9 130.3 130.8 130.5 130.7 131 131 131.5 131.6 131.6 132.1 130 131.2 130.5 130.4 130.8 130.2 130.3 128.7 122.9 112.8 109.1 108.2 108.7 118 125.4 127.1 127.9 127.6 127.4 126.4 125.8 124.9 124.6 124.1 123.5 123 121.5 121.4 120.8 120.2 119.2 118.5 118 116.9 114.8 113.2 114.3 114.9 113.3 113.5 113.1 111.8 110.9 109.9 111 112 112.4 111.8 111.7 111.5 111.5 112.2 114.9 115.3 118.9 118.3 116.5 114.7 109 106.1
131.1 128.1 125.9 126.9 126.4 125.4 123.2 112.4 101.5 96.8 94.8 98.3 100.5 103.4 105 106.9 109.8 111.6 113.9 113.9 115.8 122.1 128.6 128.6 124.6 124 133 134.6 132.5 137.1 149.2 149.6 140.5 139.3 141.5 140.7 136.6 140 144.2 150 151.6 151.8 151.7 152.2 152.4 151.4 150.9 151 150 147.9 137.2 134 135.2 146.9 149.2 149.1 147.1 142.1 139.4 143.1 145.8 148.2 149 150.7 149 146.1 145.5 143.7 146 151.4 154.6 154.4 158.7 163.1 167.2 171 173.2 175.5 175.8 174.7 173.3 171.8 169.7 166.7 163.7 161.6 159.7 157.8 155.5 153 151 149.6 149.7 148.3 147.1 144.8 143.8 144.3 146.1 147.7 145.1 144 143.3 144.1 143.6 142.6 142 141.6 140 139.5 140.4 138.3 137.6 135.9 135.2 134.6 133.7 132.4 132.6 131.6 130.2 128.6 126.9 124.5 123.2 122.7 121.9 122 122.4 123.1 127.7 130 131 131.5 131.6 131.8 131.6 131.5 131.7 131.3 129.2 131.6 131.2 130.6 130.5 130.2 130.6 130 128.1 118.6 111.8 108.5 108.7 112.1 119.3 126 127.8 127.6 127.7 126.7 125.6 125.7 124.4 124.4 123.9 122.8 122 121.7 120.9 119.8 118.9 118.5 118 117.4 115.2 111.7 113 113.8 113.8 113.2 112.3 112.1 111.6 110.4 109 110.1 110.4 110.9 110.8 110.4 110.4 111.3 112.8 115.3 119.2 120.7 119.7 116.6 109.3 106.9
133 131.6 128.2 126.9 124.2 124.3 119.1 110.3 102.1 94.2 96.1 99.2 101.9 104.8 107.1 109.3 111.7 114.6 117.7 118.2 116.6 123.1 129.4 131.8 130.3 126 134.7 141 136.3 142.2 151 152.6 153.3 152.6 152.2 148 140.9 141.5 144.4 151.1 153.8 153.9 153.2 154 154 153.7 153.9 154.3 153.5 146.3 137.7 137.1 137.5 143.4 151.9 152 150.5 147 141.7 144.8 147.4 149.7 151.3 153.1 153 150.6 149.6 146.7 149.2 159.4 162.7 162.9 162.4 163.1 165.9 169 171.7 172.9 172.6 171.5 170.1 168.6 166.1 164.5 162.2 160.4 159.3 157.2 155.5 154.6 153.4 152.1 151.7 149.9 147.2 146.3 146.6 147.3 147.2 147.7 147.1 144.5 147 146.5 146 145.3 144.7 143.7 143.1 143.3 142.7 140.5 140.1 139.1 138.3 138 136.3 136.6 135.1 132.9 131.3 127.8 124.5 124.3 129.6 128.3 124.6 122.8 121 119.8 119.1 121.3 123.6 126.2 129.6 130.9 130.6 131.5 131.7 126.5 126 127.2 128.5 131.1 128.3 130 129.7 129.6 128.8 126.1 116.3 110 108.9 108.6 112.8 120.5 125.3 126.5 127.3 126 123.9 124.9 124.7 124.1 123.3 122.4 121.6 121 120.5 119.7 118.9 117.5 116.3 115.6 114.6 112.5 110.7 112.3 113 112.4 112.4 111.7 111 109.5 108.6 109.4 110 110.1 109.2 109.3 109.3 110.5 112 114.5 117.6 121.6 119.8 117.2 111.9 107.9
136.2 134.4 128.8 125.1 120.4 116.6 113.5 108 100.3 94 97.8 100.2 102.5 105.2 108 111.2 113.4 115.9 120.8 122.5 120.4 123.7 130.7 137.9 135.4 131.7 131.2 142.2 145.7 152.1 155.9 156.1 156.5 156.6 155.6 153.9 147 144.4 148.5 153.6 156 155.9 155.6 156.4 156.5 157.6 157.7 157.4 152.8 143.4 140.4 142.4 140.5 141.1 147.5 153.6 154 150.6 145 147.4 150.1 152.7 155.7 157.9 157.6 156 155.1 151.8 149 155.3 162 163.2 165.1 165.4 167 169.2 171.1 170.6 169.7 168.5 166.4 164.9 163.1 161.8 160.4 159.3 157.6 158 156.5 154.9 152.9 151.6 150.3 148.5 149.2 148 149.2 149.5 149.6 148.2 145.7 146.3 148.1 149.1 148.2 147.8 146.4 145.5 143.8 143.6 143.4 142.5 142 141.2 140.4 139.4 138.2 137.8 136.7 134.6 130.8 125.8 124.8 131.4 133.4 132.1 125.3 128.3 125.9 120.4 119.3 119.6 118.6 118.2 118.2 119.4 120.8 122.8 122.8 118.6 118.3 117.5 117.7 120.9 123.9 128.8 129 128.2 126.3 123 116.7 113 108.7 108 108.1 111.4 117.2 121 123.7 123.5 120.9 122.2 123.7 123.6 122.8 122.2 121.8 120.7 119.6 119.2 118 116.9 116 115 114 112.5 110.1 112.3 112.5 112.1 111.7 110.9 109.5 106.5 108.3 109.4 108.7 109.1 108.5 108 108.5 110.2 111.5 113.4 116.4 120.5 120.5 118.2 114.4 110.3
142.3 142.6 136.6 127.6 118.3 110.1 107 104.3 100.1 96.2 98.4 100.9 102.9 105.4 108.6 112.4 115.8 119.6 123.3 124.9 123 125.9 130.6 136 140.6 137.4 136.5 145.7 156.2 157.9 158.7 159.4 159.3 159.4 158.6 156.9 152.6 150.8 154 156.9 158.7 158.7 158.4 159.8 160.6 162.1 162.3 160.4 151.1 145.6 143.8 146.8 147.6 146.5 143.8 150.5 153.5 153.5 149.8 150.8 156 157.6 160.5 168.3 171.5 164.3 158.4 153.2 151 155 158.6 161 168.3 170.1 171 171.4 172 169.4 168.1 166.5 164.6 160.3 162.3 161.1 158.8 157.3 157 155.3 154.2 153.1 152.4 151.5 152.2 152.2 150.7 150.9 151.9 152.2 151.3 150.8 149.6 147.7 148.8 150.9 150.3 150 148.6 147.9 143.9 144.4 144.2 143.9 143.1 142.8 141.8 140.5 140 139 137.2 134 127.6 125.6 127.6 134.8 135 126.4 127 132.6 131.7 125.6 120.8 119.6 118.5 119 117.8 118 117.6 117.4 117.6 116.6 115.6 115.2 114.8 115.5 118.1 125.7 129.3 128.7 128.2 126.1 123.2 117.2 111.1 108.6 108.2 109.4 109.6 111.4 114.5 116 113.5 119.8 122 123.1 122.4 121.4 120.5 120 119.3 118.2 117 115.5 114.4 113.4 112.4 110.3 107.5 109.7 110.6 110.9 110.6 110.3 106.3 106.8 107.5 108.9 107.9 107.7 107.7 107.7 108.1 108.7 110.9 112.5 116.5 118 121 119.7 116.4 112
142.7 141.6 142.5 130.2 119.3 111.1 106.1 102 97.8 95.9 99.7 100.5 102.3 104.6 107.8 111.5 114 118.2 123 126.5 125.7 129.3 133.6 136.9 142.6 144.1 144.6 154.6 159.4 160.2 161.3 162.5 162.5 162.4 161.9 160.3 157.7 156.5 157.9 160.2 161.9 161.5 161.8 163.4 163.4 163.9 166.5 164.7 152.1 148.4 148.8 150.2 151.3 151.5 147.5 147.1 153.4 157.1 153.8 153.4 161 163.9 165.7 176.6 180.7 174.1 160.9 154.8 154.2 158.1 162.8 165.1 166.8 171.5 172.5 173.4 173 171.3 169.6 167.8 167.5 166.8 165 163.6 161.7 159.7 159.1 157 156.2 155.9 156.2 157.5 157.1 155.6 153.1 154.4 155.2 154.9 154.3 153.6 153.4 152.9 152.6 151.4 151.2 151.2 150.8 150.1 148.9 147.2 147.2 145.9 145 144.9 144.2 142.8 141.3 139.2 130.3 129.2 127.2 126.8 136.4 136.3 135.6 131 127.8 134.8 134.6 129.9 123.6 125.4 122.1 121.8 119.1 120.7 118.9 117.9 117.4 117 115.9 115.7 114.5 114.5 115 117 125.5 129.6 129 128.5 126.9 122.7 114.2 109.6 108.2 108.3 108.7 108.5 107.9 108.3 106 110.3 115.9 118.5 120 120.3 119.3 118.4 118.8 117.9 116.8 114.7 112.6 109.8 108.6 106.8 105.9 106.6 109 108.9 108.8 105.3 104.9 107 106.5 106.8 106.9 107.1 107.6 106.8 107.5 108.3 109.3 111 113.6 114.8 120.6 119.9 117.1 113.4
138 138.9 139 130.8 119.7 113.2 108.2 103.2 98.1 96.6 100.9 102.5 103.6 104.9 106.5 109.7 111.7 114.5 118.9 123.1 125.4 129.4 134.7 140.9 146.3 150.4 153.2 157.9 160.9 162.1 162.9 163.3 163.7 163.5 163.6 163.4 160.8 160.3 160.8 162.8 165.4 165.2 166.3 167.1 167.9 169.5 171.5 167.6 155.6 153.8 154.7 154.6 155.8 154.4 151 149.4 155.2 160.5 157.6 156.5 161.6 169 171.7 178.2 183.6 177.5 163.6 157.2 158.1 164.2 166.6 169.3 171.1 170.5 173.3 174.4 173.6 173.1 171.3 170.4 169.5 168.1 166.3 164.2 163.2 162.4 161.6 161.1 159.9 160.1 159.9 159.2 158.1 156.9 157.3 158.1 157.9 157.3 156.9 156.3 155.9 155.4 154.9 154.6 154.1 152.5 152.1 152.2 151.9 150.4 148.4 148.4 148 147.4 145.8 145 140.8 132.5 129.2 126.6 127.9 132.9 139.4 138.8 137.6 131.3 130.6 136 135.5 127.1 127.4 133.2 132.6 130.7 127.4 123.8 123.1 119.6 120.7 120.3 119.1 118.2 115.9 114.5 113.8 113.3 118.2 127.4 129.7 128.7 127.7 126.1 118.2 113.7 109.7 109 108.4 108.2 108 107.1 105.9 105.6 108 109.6 114.3 118.4 118 115.6 115.6 115.3 114.5 110.7 106.4 105.6 104.9 104.5 104.3 104.1 105.3 103.4 103.1 103.4 105.5 107.2 106.8 107.4 106.4 106.5 106.3 106.3 106.9 107.4 108.5 109.8 113.2 117 120.2 119.7 118.4 115.2
138.3 136.9 135.7 132.3 124.4 117.7 113.3 109.3 101.8 96.2 101.1 103.3 105.3 107.9 109.6 112.3 114.5 117.1 119.4 121.5 125.7 131.9 137.1 145.1 152.7 155 156.6 158.5 160.3 161.4 161.7 161.3 161.5 161.5 162.2 161.9 162.1 160.5 161 164.1 167.4 169 171.2 172.3 171.8 175.3 174.7 170.1 160.8 160.8 160.3 160.2 161.2 158.9 155.5 153.3 156.2 160.1 160.4 162.5 165.6 169.8 175.9 182 184.2 171.2 163.4 157.7 162.2 168.3 171.4 174.9 176.3 177.5 177.2 177 176.1 174.1 173.1 173.5 171.8 169.9 168.3 167.2 166.2 165.6 165.1 164.2 163.2 162.6 162.1 161.6 160.8 160.5 161.4 160.9 160.8 159.7 159.5 158.7 158.3 157.8 156.7 156.6 157 156 155.5 154.5 151.4 150 148.2 146.4 144 143.8 145.7 141.7 133.4 129 128.4 129.1 134.6 140.6 142.5 141.5 138.6 132 137.5 137.1 136 131.2 133.2 135.7 136.6 136.2 132.7 128.6 129.4 124 125.2 128.2 129.3 123.5 119.1 115.2 114.4 112.9 114.2 120.4 128.9 129.4 128 127 126.3 124.4 117.1 111.7 109 107.4 107.7 107.1 107 106.6 106 105.3 106.7 107.6 108.2 110.2 108.8 108.4 106.6 104.9 105.1 105.2 104.6 104.7 104.3 104.9 104.1 103.8 104.9 104.6 102.6 103.1 104 106.8 107 106.3 105.5 105.5 105 106 107.4 108.4 111 116 119.5 120.3 119.2 116.3
141.2 141.5 140.1 138.4 131.5 122.1 117.3 110.7 104.1 98.7 99.1 103.4 105.9 108.3 111 113.9 118.1 121.5 123.1 124.3 128.3 133.9 137.9 143 150.4 154.4 155.7 155.3 158.3 158.4 159.7 159.5 159 159.9 160.7 161.3 162.4 162.9 162.4 163.4 165.1 164.6 167.3 170.8 174.1 175.1 174.8 171.7 163.4 164.3 164.5 164 163.5 162.5 158.4 154.2 158.8 162 163.7 168.1 171.3 172.3 176.4 187.7 183 171 165.7 161.9 166.1 172.3 176.9 179.9 180.5 181.6 181.5 182.1 180.6 178.7 178.1 176.6 174.8 173.4 172.3 170.3 169.4 168.7 168.1 167.2 166.3 165.6 165.5 165 164.6 164.7 164.7 164 162.4 162.8 162.1 161.8 161.5 160.5 160.3 160.1 159.6 158.7 158.4 157.9 156.9 156.3 155.2 153.9 152.4 148 140.4 136.2 138.3 139.6 131.7 132.9 141.7 144.4 144.3 142.7 136.1 135.1 139.3 139.4 138.4 137.2 138.1 138.8 138.1 137.1 134.1 134.2 133.5 132.7 133.3 134.1 134.4 132.8 124.9 119.3 116.6 113.4 113.1 115.6 124.6 126.1 128.1 127.8 127.5 127.4 126.1 124 120.6 114.9 110.3 107.3 106.6 106.5 106.4 105.4 105.6 105.9 104.8 104.8 104.8 104.9 104.8 105.1 104.1 104.2 104.1 104.6 104.1 104.6 104.5 104.5 104.9 103.2 103.8 103.6 102.9 103.4 104.5 104.6 103.7 103.7 104 105 105.6 107.9 108.9 110.6 118.2 120.2 117.7 117.6
144.6 144.9 146.8 145.6 138.3 127.2 122.1 113.5 105.3 99.5 97.6 102.4 105.2 108.1 111.5 114.5 119.1 122.2 123.8 125.3 128.1 134 139.6 141 143 145 148.4 150.3 151.4 152.6 156.9 159.5 161 160.9 159.9 160 161.9 163.9 165.4 161.8 157.6 157.4 159.4 164.2 169.1 172.4 173.9 170.2 167.9 169.4 167.9 167.1 166.3 166.7 161.9 157.6 161.2 163.8 166.4 171.8 177.1 177.7 183.8 190.6 180.9 172.7 164.9 167.5 171.2 176.9 181.9 184.8 184.1 184.1 185.7 185.5 182.5 179.8 179.1 180.5 179 177.1 176.1 174.7 173.4 172.6 171.8 171.2 170.3 169.6 169 168.4 168.2 168.1 167.9 167.4 166.3 165.8 165.4 165.3 164.6 164.2 164 163.2 162.4 162 161.3 160.4 159.5 158.3 157.1 155.1 149 140.7 136 132.9 130.5 132.7 138.9 142.8 146.4 146.5 145.2 143.8 136.3 140 141.9 141 139.7 139.9 140.2 139.5 139.2 138.1 137.3 136.7 136.7 135.8 136.4 137 136.5 136 132.2 123 116.2 113.4 111.7 112.3 114 120.2 118.6 126.3 127.6 127.1 126 125.5 124.3 119.8 111.3 107.6 106.4 106.2 106.1 104.1 105.6 104.2 105.4 105.7 103.4 104 104.5 105 105 104.8 104.7 104.8 102.6 103.7 104 102.8 103.2 104.1 104 103 101.7 103.6 103 103 103.8 102.5 102.4 102.9 104.5 106.2 108.7 111.5 115.9 118.4 117.5 118.2
149.3 152.7 152.7 147.3 138.7 129.7 122.5 114.2 106.7 100.3 97.7 101.6 104.6 107.5 111.1 114.1 117.2 118.7 120.1 122.8 125.3 129.1 133.8 133.6 130.6 131.6 139.8 143.8 148.8 154.6 157.1 162.2 165.2 166.2 164.7 159.7 157.7 156.4 155.5 154.6 155.2 154.7 158 162.3 164.9 165.9 168.1 170.4 171.9 174.9 173.1 172.8 173.3 171.9 165.3 159.3 162.4 165.5 170.3 175.9 181.4 186 195.9 192.2 180.5 171.2 165 169.7 175.5 182.3 187.4 190 188.9 190.1 190.7 188.7 186.2 179.1 184.4 184.6 181.8 180.2 180.3 178.8 177.7 176.7 175.9 175.1 174.7 174 172.5 172.4 172.2 172 170.7 170.6 169.7 169.6 168.6 168.7 167.9 167.1 166.5 166 165.2 164.4 163.4 162.5 161.9 160.1 157.2 147.8 140.7 137.4 133.7 131.1 132.8 136.4 144.4 150.6 145.1 147.6 147.5 141.9 138.8 143.9 144.3 142.8 141.8 141.6 141.8 141.6 140.1 139.4 138.9 138.3 138.1 137.8 137.8 137.3 137.3 135.3 131.2 124.5 117.3 114.6 113 110.9 110.9 111.5 111.4 114.4 119 119.3 118.4 118.7 115.5 108.7 107.2 106.4 105.9 105.1 106.8 106.7 107.1 106.3 104.3 104.6 104.8 104.9 103.9 104.8 104 103.7 105.6 107.5 108.7 108.8 109.4 109.8 108.5 107.9 105.8 103.7 102.5 103 102.4 102.9 102.6 102 102.8 102.9 101.5 105 107.2 109.4 112.1 114.1 116.1 117.8
159.2 159 153.3 143 135.8 128.8 122.5 115.6 108.7 101.7 96.9 99.4 103.5 106.8 110.3 112.8 113.4 113.6 114.1 115.7 119 121.9 124.7 126.5 128.4 129 142.1 149.6 150.6 153.9 153.4 156.4 158.9 161.8 162.3 156.9 155.4 152.1 151 151.6 149.7 149.7 153.2 156.9 159.2 159 160.5 165.9 173 178.6 179.5 179.4 180.6 178.9 167.8 162.2 165.1 169.9 174.9 181.9 190.6 197.8 196.9 189.8 179.5 170.9 170.5 175.5 180.8 189.5 195 197.1 196.8 195.1 193.7 192.1 187.8 183.7 187.7 186.2 185.2 184.3 182.5 182.9 182.4 181.4 180 179.1 178.5 177.8 177.4 176.6 176 175.3 174.3 173.7 171.4 171.9 171.8 170.9 170.2 169.5 168.7 167.6 166.7 165.7 162.9 158.4 153.9 150.4 145.3 141.3 137.5 134.7 132.3 133 136.8 142.9 151.9 152.9 153.5 150.4 148 145.3 143.9 147.9 147.1 146.1 143.8 142.8 143.1 141.4 141.7 141.1 140 139.6 139.2 138.7 138.9 138.1 137.2 134 126.7 121.7 118.2 115.9 113.8 111.9 110.6 110.1 109.5 109.8 110 109.7 109.5 108.6 108.3 107.7 106.6 106.9 106.1 106.6 107.2 107.2 107.2 106.2 106.3 104.5 105.4 105 105.7 103.3 106.3 108.8 111.6 114 112.2 113.6 113.9 113.2 111.4 110.5 107.6 106.7 104.1 102.6 103.1 102.8 102.4 103 102.1 101.6 101.3 100.7 104.8 105.9 106.8 111 112.6 114.4
163.8 160.7 150.9 138.2 130.7 125.2 118.9 113.6 107.3 102.8 100.3 98.4 101.2 104.9 106 108.7 108.1 108.7 110.5 112.1 114.4 116.3 119.8 121.8 121.8 126.4 131.3 135.4 138.4 143.7 145 145.1 146.2 150 152.8 153.1 154.6 150.4 147 147.2 145.9 146.6 148.6 151.4 153.5 155.6 159.2 165.2 171.8 184.7 191.2 190.4 189.9 180.7 170.7 167.4 172 174.6 180.7 189.5 197.7 198.8 195 186.1 177.3 176.2 177.5 182.5 189.4 197 202.6 202.6 201.2 198.6 196.9 194.7 185.8 189.6 189.7 188.9 188.1 186.7 186.1 187.3 186.7 185.4 184.5 183.6 182.7 182 180.7 179.7 178.6 177.7 177 176.3 175.5 174.7 174.1 173.8 172.9 172.1 171.2 170 167.8 158.8 152.4 147.5 143.8 141.3 139 136.8 134.3 134.3 135.3 137.8 142.7 154.2 154.4 154.5 154.2 153.9 151.5 149.4 149.4 150.6 149.6 148 147.4 145.8 144.7 143.1 142.8 142.5 141.2 140.9 140.6 140.7 139.9 139.3 137.9 135.4 128 123.2 121.2 119.2 114.9 112 110.1 109.6 109.4 109.5 108.8 108.9 108.1 108.2 107.9 106.1 107.2 107.6 107.8 108 106.8 106.5 107.1 106.8 106.2 106.1 106 105.9 109.3 111.6 113.3 113.6 115.2 116.3 116.1 116.3 115.8 115.4 114.3 111.6 109.7 109.2 105.8 103.9 102.6 102.2 102.4 102.5 101.9 101.8 101.1 101.1 101.9 103.4 105.4 108.1 109.8 111.5
163.8 155.5 147 136.7 128 120.8 113.3 109.5 106.3 103.1 101.1 99.4 100.7 102.3 102.4 105.3 105.9 106.6 108.3 110.8 112.5 115.1 116.7 118.4 121.3 123.3 124.3 126.8 130.6 134 136.2 137.3 139.1 141.4 147.3 150.4 150.4 147.3 143 143.7 143.6 145.1 147.7 150.2 153.9 158 162.5 167.5 176.8 189.9 201.4 200.1 191.2 183.4 176.2 180 183.9 185.2 188.5 195 199.5 197.3 192.4 182.8 177.9 180.6 184.5 190.8 198.1 205.3 207.6 206.3 202.7 201.4 198.3 191.1 187.1 193.4 193.4 191.3 189.3 189.1 191.2 191.2 190.4 189 188.3 187.4 186.4 184.8 183.5 182.5 181.6 180.9 179.7 179.2 178.5 177.1 176.9 176.1 175.2 173.4 172.4 171.1 165.6 156.4 147.4 143 139.4 137.3 136.3 135.7 136 137.3 140 142.9 151.4 157.9 157.6 156.7 155.5 153.3 152 152.6 152.1 149.7 151.1 150.4 149.2 147.1 146.4 144.9 143.6 143.5 142.5 143.1 142.5 141.9 141 141 139.3 137.5 135.1 134.3 126.6 120 115.2 112.1 110.1 109.6 109.1 109.1 109 108.6 107.9 107.7 106.6 108.7 108.3 107.9 107 107.3 106.8 106.4 107 106.5 106.6 106.8 109.6 114.8 119.4 116.8 116.6 116.8 117.4 117.3 117.3 117 116.6 116.4 115.9 114.1 112.9 111.7 110.9 105.9 104.1 102.4 102 101.9 101.8 101.3 101.7 101.4 99.7 100.6 102 105.4 106.6 108.7
158.8 148.3 141.7 134.2 127.6 117.9 111.7 108.8 105.8 104 103.1 101.5 101.8 102.1 102.2 104.1 105.6 107.3 108 109 110.7 112.3 113.9 117.7 118.5 119.8 120.4 122.3 124.7 126.3 129.7 132.2 134.7 140.3 144.7 146.5 144.8 141.1 138.7 142.6 145.3 148.1 150.2 153.4 156.8 159.9 164 171.3 180 195.7 206.7 204.9 195.2 186.9 187.1 190.8 193.6 194.8 197.2 199.4 201 198.5 193.8 187.4 181.6 185.8 191.4 201.1 208 211.1 210.4 207.5 206.8 204.3 199.4 190.1 196.8 197.3 195.2 192.1 189.6 187.3 190.5 192.6 192.4 192.2 191 189.9 188.5 187.4 186 185.2 184.4 183.5 182.7 182.3 181.6 180.2 179.5 178 176.6 175.9 173.4 167.8 157.3 150.2 145.2 140.7 137.6 138.5 138.3 138.1 138.2 140.1 142.1 149 159.6 160.6 159.5 157.4 154.2 152.9 153.4 153.8 154.1 153.7 148.4 153.5 150.8 149 147.2 144.4 141.4 140.8 141.6 142.2 142.9 142.2 141.5 141.1 140 139.3 138.4 136.4 131.4 123.4 114.8 111.4 110.2 109 109.3 108.5 108.1 108 107.7 107.1 107.3 108.4 108.1 108.5 107.2 107.1 106.9 107.1 106.8 107.7 109 112.6 118.6 120.6 122.2 119.2 119.5 120 119.1 118.4 118 117.7 117.2 116.7 115.8 115.7 116 113.1 110.7 105.3 104.6 103.3 102.2 102.7 101.5 101 101 100.9 101.2 100.7 100.7 101.8 103.6 106.3
145.9 141.3 136.5 130.2 123.3 116.1 110.8 108.9 108.3 108.3 106.9 104.3 101.5 100.6 100.6 103.8 106.6 108.8 109 109.4 109.6 111.8 112.8 114 116.1 118 120 121.5 122.4 124.7 126.7 130.8 132.9 135.2 139.2 139.5 134.5 136.8 138.5 142.4 145.6 148.6 152.3 156.1 159.4 163.9 168.1 173.3 184.4 199.7 209.3 207.5 201.2 199.8 202.8 204.9 206 205.8 207.2 210.4 211.6 204.6 198.4 190.8 186.7 192.9 200.4 211.2 215.8 215.2 212.2 209.9 208.1 206 194.7 196.5 201.6 198.4 195.6 193.7 189.1 184.7 183.8 185.4 187.7 187.7 186.4 182.9 180.6 181.1 180.8 182.6 183.8 185.2 185.2 184.7 183.8 182.6 181.5 180.4 178.5 177.2 172.4 159.9 153.3 148.9 144.4 139.2 140.8 144.8 142.6 141 141.2 143 145.2 157.2 162.5 162.1 160.8 157.8 154.6 154.5 156.1 156.7 156.9 156.2 154.6 149 150.6 149.1 144.4 137.9 133.7 131.5 130.8 133.6 142.1 142.4 142.5 141.4 140.3 140.2 139 137.2 132.9 121.2 113.7 111.7 110.2 109.1 108.4 108.3 108.2 108.1 107.8 107.1 106.6 107.2 106.5 106.7 107.4 107.3 107.7 108.9 109.3 111.3 113.8 120.7 122.8 123.6 123.6 122.8 122.4 122.1 121.3 120.1 118.5 117.5 117.2 116.6 116 115.9 114 113.3 109.6 107.8 104.5 103.3 102.3 102.6 101.8 101.7 101.8 100.7 101.5 101.5 100.5 100.9 102.5 104.2
139.1 136.3 130.5 125.1 120 114.5 113.2 113.8 112.3 110.3 107.8 104.9 103.6 101.9 101.1 104 105.9 108.4 109 109 109 112.5 113.2 114.1 115.2 117.9 122.2 123.9 124.1 125.3 127.4 125.7 128.4 130 129.7 131.6 139 140.9 142.9 145.5 147 148 151.3 154.4 158.6 164.2 169.5 177 184.5 198.7 212 214.1 211.7 210.1 212.2 214.8 216.4 216.5 216.9 220.4 220.1 209.8 199.4 191.6 193.8 199 209.3 216.7 218 216.9 214.7 211.8 209.4 199.7 197.4 204.9 203.3 201.3 199.4 194 187.8 185.2 181.7 180.2 179 177.2 174.9 173.7 172.2 171.2 169.9 169.1 169.7 172.7 178.4 183.7 185.3 184.8 183.7 182.2 180.7 177.1 170.3 156.6 150.3 145.2 141.8 140.9 145.8 148.4 146.3 144.6 144.3 146 151.9 157.8 163.9 163.9 163.3 160.4 155.8 155.7 159.3 159.3 158.6 157.1 155.6 153.3 149.8 146.1 137.7 135.5 134 131.8 129.7 131 130.9 140.9 142.9 142.3 141.7 140.5 138.8 136.9 130.8 117.5 113.1 111.6 110.1 108 107.6 107.5 107.5 107.5 106.9 107.2 106.2 107 106.9 107 107.4 108.3 109.8 112.2 115 121.3 122 121.8 124.2 125.1 125.1 124.8 126.6 123.8 123.1 121.6 120 118.9 117.7 116.9 116.5 115.7 113.6 113 113.2 111.4 105.7 103.8 102.2 102.2 102.8 101.7 101.5 101.9 101.1 100.6 101 100.4 101.8 102
134.7 131.8 127.8 123.4 118.9 118.5 118.4 116.3 113.6 110.8 107.9 105.4 103.2 101.9 101.2 103 104.4 105.6 107.9 109 109 113 113.1 113.8 116.6 119.9 123.8 126.9 127.2 126.2 130.7 131.4 130.9 136 139.9 140.7 139.6 140.5 143.8 147.3 150.1 151.4 154 156.3 160.1 162.8 168.9 175.5 183.5 195.9 209.9 217.1 220.8 218.1 217.6 219.6 221.8 223.6 223.1 224.2 219.5 204.4 198.3 197.8 201.9 204.7 217.7 220.5 219.9 217.6 217 214.5 204.9 197.4 205.3 207.3 206.1 204.1 202.4 196.9 189.4 186.2 182.4 179 175.5 173.8 172.4 170.9 168.9 167.7 165.2 164.3 164.2 164 165.6 170.2 178.4 184.2 185.3 183.8 179.7 173.4 161.4 154.4 149.9 145.6 141.9 144.1 151.8 152.6 151.5 149.2 149 150 155.7 163.8 165.6 165.7 164.7 163.1 156.9 160.5 161.8 162 160.4 158.6 156.1 153.3 146.6 142.7 140.4 142.8 141 141.3 133.6 129.9 124.7 129.5 138.6 142.8 141.8 139.3 137.2 133.8 127 117.2 112.5 111.1 109 108.6 107.8 107.7 107.6 107.3 106.9 106.5 107.1 106.5 107.2 107.8 110.1 111.5 114.5 117 122.6 124.8 125.4 124.8 125.7 126.2 126.1 126.8 127 125.4 124.7 122.8 121.5 120.3 118.9 117.8 116.9 116 115.1 114 114.3 112.8 107.8 104.3 102.7 102 102 102.2 102 100 100.8 100.9 100.7 100.3 100.9 100.8
128.9 128.7 128.3 125.9 123.2 121.1 119.4 115.8 112.5 110 107.2 105.8 103.9 102.1 102 102.2 103.4 104.3 105.7 109 109 111.3 113.8 115.1 116.5 119.1 123.4 127.3 128.4 129.1 131.8 133.2 134.9 137.5 142.1 143.1 142.6 142.9 145.3 148.6 151.9 154.4 155.8 158.2 161.8 166.1 166.6 173 179.9 189.8 202.5 215.2 225.8 227.1 227 226.9 227.4 229.1 228.5 227.4 217.2 205.5 205.3 207.3 210.3 216.4 222.4 222.7 221.4 219.6 217 208.9 199.9 204.2 213 210.4 208.6 206.8 204.7 201.5 192.8 186.8 181.8 179.5 178.2 177.1 174.9 172.6 172.6 168.9 166.3 163.3 161.8 159.6 159.5 161.8 166.2 172.1 177.5 180.3 174.1 166.3 158.7 153.6 147.5 144.8 143.5 147.9 153.2 156.4 155.8 154.5 155.7 157 163.7 168.1 168.1 167.7 166.5 163.8 159.3 163.5 164.3 162.8 161.8 158.5 154 147.5 144.5 147.3 146.4 137.5 148.4 137.6 132.1 129.1 124.2 123.2 126.8 134.7 139.6 136.3 131.2 125.6 120.8 114.4 110.1 109 107.1 107.5 107.8 107.6 107.5 107.7 107.3 107.4 106.2 107.2 108.8 111.9 114.8 116.5 121.8 124.8 125.9 127.9 128.5 127.4 127.1 126.9 126.9 126.9 127.7 127.8 126.8 124 122.7 121.3 119.9 119 117.3 116.5 115 114 114.8 113.2 110.4 106.7 103.3 101.7 101.8 101.8 101.6 101.2 101.5 101.1 100.6 100.1 100.2 100.3
127.4 128.4 128.2 125.6 122.8 121.3 117.9 114.7 111.8 109.5 107.8 106 104.4 103 102.4 102.9 103.5 104.4 105 109 109 111.3 112.8 113.9 116.2 119.5 123.5 127.2 130 131.7 135 137.9 138.7 139 142.1 145 145.6 146.5 148.5 151 154.9 157.6 159.2 160.3 161.6 166 171 174 180.6 189.9 200.1 211.5 223.9 230.7 232.7 232.2 231.5 232.8 231.2 230 220 214.6 210.6 217.8 220.5 222.6 224.3 222.6 221.5 219.3 210.3 202.8 207.6 213.5 213.4 212.7 210.5 207.1 205 201.2 193.4 186.5 182.3 179.8 180.9 180 178.2 175.7 173.8 170.4 168.1 162.8 164.3 162.3 158.5 156.3 159.9 165.3 166.7 169.8 165.3 160.9 155.5 151.2 147.6 145 144 149.4 155 160.1 163.1 165.3 166.5 168.9 169.7 170.5 170.4 169.6 168.2 165.7 161.7 165.9 165.3 164.7 162.8 159.5 153.6 149.8 151.2 151.8 154 147 135.1 134.1 132.8 128.4 125 121.9 120.9 124.8 132.6 132.4 125.3 122.1 117.8 112.9 111.3 109.5 107.9 107.6 108.1 107.7 107.5 107.1 107.5 107.1 107.8 109.5 112.9 120.8 125.9 127.5 127.6 126.5 128.9 129.9 130.7 130.2 129.1 128 126.8 126.3 126.7 127.6 126.8 126.1 123.9 122.3 120.8 119.3 117.7 116.7 115.8 115 114.2 113.9 110.2 109.1 103.5 102 101.9 102 102 101.4 101.3 101.2 101 100.4 100.3 99.6
126.4 127.3 126.1 123.5 121.9 119.2 115.7 113.5 110.9 109.6 108.2 106.6 104.9 103.1 103.2 103.1 103.6 104.6 106.6 109 109 111.3 113.1 115.3 119 123.2 127.5 130.2 133.5 135 136.8 140.3 141.3 141.7 143.2 146.7 147.8 149.2 150.9 154.1 157.6 160.6 162.8 164.6 165.2 164.7 171.6 177.5 181.7 189.5 198.8 208.7 223.7 234.7 234.9 234.6 234.8 234.8 235.1 233.2 226.7 221.6 217.2 224.6 227.9 226.3 225.5 224.1 220.7 210.3 206.2 209.2 217.3 216.7 215.4 214.3 212.1 209.2 206.9 200 192.2 187.1 183 185.1 184 183 181.1 177.1 174.1 170.5 167.7 167.6 169.2 167 161.6 156.3 156 159.8 161.9 163.8 162.9 158.1 153.7 150 146.8 144.2 145.6 151.7 158.5 166.5 173.9 173.8 173.7 174.1 173.8 173.3 172.4 171.5 170.3 166.4 166.2 167.3 167.3 166 164.5 162.6 155.5 157.8 157.2 156.3 155.4 152.1 143 133.8 132.8 128.4 124.5 123.4 120.1 118.4 122.1 126.2 125 118.8 114.3 111.6 110.6 109.9 108.2 108.3 108.3 107.8 107.2 107.4 110.2 113.8 115.9 116.9 117.4 127.8 131.6 130.8 130.5 130.5 130.8 131.3 130.8 130.3 128.7 127.2 126.2 124.9 124.6 124.8 124.7 125.2 124.6 123.2 121.4 119.3 116.2 114.8 114.9 115.1 114.8 113.6 110.3 110 105.9 102.7 102 101.7 101.6 101.6 101.7 101 101.1 100.6 100.1 99.9
120.4 124.2 124.5 122.8 119.3 116 113.7 111.9 110.4 109.4 108.1 106.7 105.4 103.9 103.4 103.6 104.3 104.5 109 109 109 110.8 113 116.2 121.7 126.6 131 134.5 137 138.1 138.8 141.9 144.3 145 146.3 148.1 150.3 152.6 153.8 156 159.8 163.6 166.2 169.3 170.4 170.2 172.2 178.5 184.9 194 202.6 214.4 229.8 238.7 238.6 237.9 238.1 238.2 237.6 235.2 231.4 228.2 229.2 231.3 229.3 227.6 225.5 222.6 215.6 210.6 215 219.8 219.4 218.2 217.2 214.6 212.6 208.6 206.1 198.8 190.5 187.5 189.6 191.5 189.5 187.1 183.4 178.8 174.5 172 169.1 167.8 169.3 164.9 161.1 156.1 155.6 153.7 156 157.5 157.5 155.4 150.3 147.8 146.3 143.7 148.8 155.3 164 174.2 177.4 178.1 177.2 176.8 176.2 175.7 174.5 173.2 171.4 167.4 168.7 169.5 168.9 167.9 166.2 163.7 161.5 161.8 160.3 158.7 155.4 152.1 146.9 141.2 132.8 130.7 127.6 125 120.9 118.5 116.7 117.9 118.5 115.3 112.8 111.6 109.1 108.5 108.7 109 108.6 110.4 116.6 118.7 121.2 120.5 121.3 120.9 122 123.6 126.2 133.3 133.1 133.1 130.3 132.2 131.4 129.9 128.8 127.5 125.5 123.5 122.3 122.2 121.7 122.1 122 121.5 118.5 116.5 114.6 113.9 113.5 113.5 113.7 112.8 109.5 109.6 108.3 104.6 102.4 101.8 101.6 101 101.3 100.9 101 100.5 100.3 99.9
114.9 118 121 120.3 117.7 113.7 111.6 109.9 109.2 109.1 108.3 107.1 105.7 104.3 104.1 104 104 104.1 109 109 109 110 113.6 116.8 122.5 128.1 133.3 137 139.5 141 141.1 144.5 147.1 149 149.8 151.6 153.7 155.4 157.1 158.3 161.7 165.7 169.7 173.2 174.5 176.1 177.2 181.6 190.1 198.3 208.1 222.5 236.8 239.8 239.8 240.6 239.3 238.6 237.6 235.3 233.4 232.8 231.7 230.3 231 228.8 226.4 218.5 216.7 218.5 221.6 221.1 220.4 219.3 216.5 214.8 212.4 208.2 201.6 196.7 194.7 194.5 197.1 201.3 198.5 194.8 188.9 182.9 176.3 175.3 171.2 168.3 168.6 164.7 161.6 158.7 154.9 153.5 152.5 151.4 150.5 148.8 147.5 146.5 146.5 148.3 152.9 160.9 170.6 178.1 180.6 180.2 179.6 178.9 178.3 177.4 176.1 175 171.7 170.9 171.7 171.3 170.1 169 167.7 166 165.1 164 162.1 160.2 156.8 153.9 151.7 149.3 141 133.8 130.5 124.7 122.8 120 116.5 114.6 114.1 112.7 112 110.6 108.9 108.1 108.2 109.5 114 113.9 120 127.7 133.5 129.8 125.5 121.3 115.3 128.8 133.7 126.6 129.7 135 134.1 131.7 131.3 129.9 128.4 125.9 124.1 122 120.4 120.1 119 118.1 118.4 118.4 116.4 114.8 112.6 110.7 109.4 110 111.3 111.6 110 108.3 106.7 104.2 103.8 102.4 101.7 101.1 101.3 100.9 100.9 100.5 100.4 100.3
110.1 112.3 114.4 115.3 113.5 111.2 109.6 108 107.7 107.8 108.8 107.8 105.5 104.5 104.5 105 105.3 105.9 109 109 109 110.1 113.1 117.2 123.3 130.2 136.1 139.6 142.1 143.5 144.2 147.6 149.4 150.5 152.4 154.9 156.2 156.4 157.3 160.5 163 166.1 170.1 175.2 178.8 181.1 181.5 187.5 195 207.1 218.9 237.9 242.4 243 242.5 242.2 240.2 239.8 238.5 237.3 234.5 233.9 233.2 232.4 230.6 227.6 224.1 223.4 223.9 225 224.4 222.2 221.2 219.5 216.7 215.2 211.3 207.3 199.3 202.4 204.2 205.3 204.6 203.7 202 201.6 197.2 189.7 182.3 177.1 173.4 172.3 169.8 165.3 162.9 160.4 157.7 155.7 153.7 150.4 149.3 147.6 147.7 148.2 151.4 153.5 158.9 167.5 176.2 181.7 182.8 182.4 181.8 181.1 180.5 179.4 178.1 175.9 173.8 174.3 174.5 172.7 171.5 169.8 169 168 167 165.3 163.4 160.5 159.6 156.5 152.8 147.8 142 131.4 130.4 128.6 125.2 120.4 117.5 114.8 112.2 112.5 111.5 111.1 110.5 111.7 107.8 110.5 116.7 120.3 130.7 134.1 136 133.2 130.3 123 117.3 126 137.2 137 133.4 128.1 135.1 134.1 132.1 130.5 128.9 126.9 124.7 122.7 120.6 120 118 116.4 115.7 115.1 114.4 112.3 110.8 109.8 109 108.3 107.7 107.4 107.7 106.2 104.8 104.9 103.2 102.7 101.9 101.6 101 100.7 100.8 100.5 100.2 100.1
104.6 106.5 107.9 109.1 109.8 109.1 107.6 106.1 104.9 105.3 107.7 108.2 107.2 105.8 104.8 105.4 106.5 107.7 109 109 109 111.7 113.5 117.2 122.2 130.9 137.2 140.4 142.4 143.8 147 150 151.6 152.5 153.4 154.5 155.1 154.9 156.1 158.2 162.3 166.4 171 175.3 179.7 184.3 188.8 193.4 201.6 213.6 233.1 242.9 243.5 244.4 243.3 243.5 241.8 240.2 239 238 236.4 235.7 234.4 232.5 230.3 228.2 228.5 226.9 226.3 225.6 225.2 223 220.7 218.4 216.4 214.8 211.4 209.3 204 208.2 208.4 207.4 206.4 205.5 204.7 203.9 200.4 195.7 187.9 181 177.6 174.6 170.8 167.4 167.7 163.2 160.2 158.3 156.4 154 150.8 149.5 151.1 152.9 155.2 159.6 166.2 174.5 181.4 184.4 184 184.3 183.8 183 181.9 180.7 179.3 177.3 177 176.2 175.7 174.3 173.2 171.7 170 168.9 168.1 166.3 163.7 162.6 159 157.4 149 142.3 136.6 131.2 129.6 127.4 124.4 121 116.6 114.3 112.6 112 110.9 110.1 108.9 108.9 109.1 113.9 118.7 127.4 134.8 136.8 139.4 138.4 133.7 125 120.4 121.2 136 138.4 138.6 137.6 132.3 128.3 133.6 132 130.3 128.4 126.5 124.2 122.1 121.4 119.4 117.8 116 114.2 113 112.4 112.6 111.6 110.3 108.4 107.2 106.3 105.6 105.6 104.6 103.7 102.6 102.2 102 101.2 101.3 101 100.4 100.6 100.4 100.2
101.4 103 103.7 104.6 105.5 105.5 105.6 104.5 103.4 103.9 105.2 107.1 107.4 106.6 106.4 106.9 106.8 108.1 108.9 109 109 110.7 113.7 117.1 121.6 129.1 137.2 140.2 142.6 145.3 148.9 152.2 153.1 153.6 153.2 153.7 154.1 152.8 153.8 157.1 163.1 167.3 172.4 176.9 181.9 186.9 193.6 199.3 207.7 221.2 239.1 244 245.6 245.4 243.8 242.5 242.2 241.6 240.1 239.1 237.4 236.6 234.1 233.2 231 230.7 229.9 229 226.7 225.7 225.8 222.6 219.8 218.4 216.5 214.8 210.9 211.2 209.7 209.5 209 209.3 208.2 207.3 205.6 204.7 202.8 201.3 192.8 185 181.7 178.9 173.8 171.8 170.3 166.6 163.4 160.7 158 155.1 152.7 153.5 156.3 157.8 161.4 166.6 174.5 182 184.5 186.3 186.6 186.1 185.5 184.5 183.4 182.1 180.9 179.2 178.3 178.1 177 175.8 174.3 173.1 171.5 169.9 168.8 167 165 161.7 160.2 153.6 146 138.5 133.2 130.1 126.9 123.2 121.6 118.4 115.4 112.8 112.2 110.8 110.4 109.5 108.4 108.6 110.4 117 123 128.9 136.9 139.4 141.6 142.1 135.9 125.6 121 121.5 138.4 138.4 139.7 140.4 138.2 136.1 134.1 128.7 129.1 129.2 128 126.2 125.2 122.3 120.5 119 118.1 115.6 115.2 115.4 115.5 113.1 111.6 109.5 107.7 107 106.2 105.3 104.7 103.7 103.1 103.1 102.8 101 100.9 101 100.5 100.4 100.3 100.1
98.9 99.8 100.7 101.1 102 102.7 102.7 102 102 102.3 103.7 105.2 107.7 107.7 108.8 106.8 106.7 107.5 108.9 109 109 110.6 113.2 116.3 120.3 126.5 134.2 136.7 141.2 145.6 148.6 152.4 152.6 153.1 153.6 153.4 149.7 150.5 156.7 160.6 164 168.1 172.7 178.5 183.8 190.2 197.3 205.3 217.1 232 241.3 245.9 245.7 245.1 244.4 243.8 242.3 240.8 239.8 239.8 238.2 237.7 236.1 234.2 233.4 232.1 230.7 228.9 227.9 225.5 224.3 222.5 219.6 216.9 216.5 215.2 213.9 213.3 212.7 211.3 211.7 210.3 209 208.1 207.1 206.2 204.2 201.2 196.3 188.9 184.3 181 177.7 174.9 173.5 171.5 168.2 163.6 160 157.7 157.3 158.6 161.4 163.8 168.9 175.3 183.1 186.1 187.5 187.9 188 187.4 186.7 185.8 184.6 183.3 182.1 180.8 180.1 179.3 178.4 177.3 175.6 174.4 172.9 171.3 168.9 166.9 164.3 159.5 154.8 154.1 148 141.3 131.8 127.5 124.3 121.5 119.1 117.2 115.4 113.4 112 110.7 109.7 108.9 108.7 108.8 113 119.4 126.2 132.5 139.4 142.3 143.9 141.7 132.4 125.3 122.5 126.1 137.2 138.8 139.9 141.3 140.3 138 136.1 134.6 132.7 131.7 127.6 125.2 123.4 121.7 120.9 119.3 118.7 117.3 117.2 116.9 116.1 115.2 113.2 111.1 109.2 109.1 107.2 106 104.8 104.1 103.5 103.1 102.7 101.7 100.3 100.7 100.4 100.2 100.1 99.2
96.6 97.1 98.1 99.2 100.1 100.6 100.7 99.8 101.5 103.1 104.3 106 109.3 109.2 108.3 107.4 107.3 107.4 109.3 109 109 110.2 112.6 115.7 119 123.2 129.9 134 141.4 146.5 149.8 152.7 153.1 153.6 150.6 146.8 145.6 152.1 156.9 162.1 165.6 169.3 173.7 178.8 184.6 191.1 200.6 211.5 223.9 237 246.2 245.8 244.8 244 243.4 242.4 242.4 240.4 240.2 239.1 237.2 235.7 235.4 234.9 233.7 232.2 230 228.1 227.1 225.2 222.6 220.9 220 217.1 217.6 215.5 215.3 213.3 213.7 212.7 210.9 210.1 209.2 208.3 207.6 206.9 205.4 203.4 201.3 195.1 190.2 186.4 182.7 180.1 177.3 174.2 171.5 165.7 162.7 163 164.1 164.3 166.7 171.2 176.2 183.8 187.3 188.8 190.2 189.9 189.2 188.9 187.9 187.1 185.8 184.5 183.3 182.1 181.2 180.5 179.6 178.2 176.3 174.3 173.5 171.9 169.5 166.9 163.9 159.2 150.6 144.6 143.6 139.6 132.3 126.2 123.2 119.4 116.8 116.6 114.2 112.9 112.1 110.6 109 108.5 108.6 110 116 121.1 129.5 139.5 142.7 145.2 145.9 140.7 133.3 128.4 125.5 126.6 134.5 138.4 141.4 143.3 142.3 141.1 139.3 136.8 135.2 133.3 132.7 131.1 128.7 127 124.8 123.7 121.9 120.3 117.8 113.9 111.4 110.4 113.3 112.9 111 110.7 107.1 106.1 105.4 104.5 103.6 102.7 101.6 101.5 100.7 100.6 100.4 100.3 100.1 100
98.1 98.6 99.3 99.9 99.1 99 100.2 101.1 103.3 104.8 106.2 107.2 109.1 109.3 109 108.8 107.8 107.7 108.3 109 109 111.4 113.5 115.8 119 123.2 128.4 134.9 142.7 147 149.9 152.3 153.4 149.2 138.9 141.8 145.2 154.8 155.8 160 164.4 169.2 174.5 179.8 186.3 193.5 203.8 216.3 234.9 242.2 246.3 245 244.4 243.6 242.7 241.9 241 239.2 238.5 238.1 237.3 236.6 234.7 233.8 233.1 230.2 229 227.2 225.1 224 221.8 220.6 217.8 216.9 215.9 215.5 214.2 212.5 210 211.5 211.4 208.9 208.7 208.5 207.8 207.3 206 204.6 204.1 199.9 196.8 193.4 189.1 185.4 182.6 177.2 173.1 168.1 165.7 166.8 169.8 169.9 171.8 176.4 184.7 189.1 190.2 190.8 191.4 190.4 191 190.1 188.9 188 186.9 185.7 184.6 183.4 182.3 181.2 180 178.7 176.5 175.9 174 171.4 169.1 165.6 162.8 158.9 154.7 144.6 137 133.1 128.9 125.3 121.2 120.2 117.9 116.6 115.3 113.5 111 110.3 108.9 109 108.4 112.1 118.2 123.6 134.9 142.6 145.4 147.8 148.1 146.3 143.5 134.8 129.7 132.7 140 144.7 145.7 145.6 145 144.6 143.4 141.7 138.9 137 135 133.7 132 129.1 127.9 126.2 123.7 123.6 122.4 120.3 119 117.6 115.7 113.7 112.8 109.6 105.8 104.7 106.7 104.7 104.6 102.9 102 101.6 100.8 100.6 100.5 100.4 100.4 100.3
100.4 100 100.3 100.2 99.7 99.8 101.2 102.2 104.1 107.3 108.9 109.3 110.3 110.6 110.1 109.7 108.6 109.5 109.7 109.2 109 112 113.3 115.6 119 123 126 132.2 138.7 144.3 147.4 148.3 146.3 136.9 138.8 147.2 152.6 147.4 159.3 164 168.7 173.3 178.9 184.1 190.1 199.1 209.4 226.7 242.6 245.9 245.4 244.5 243.9 242.9 241.8 240.8 241.1 239.4 238.8 237.5 236.4 235.6 235 232.7 232.5 230.6 227.6 226.7 224.1 222.3 220.1 218.8 216.8 215.9 215.3 213.5 209.2 206.2 207.1 207.7 208.1 208.8 207.8 206.9 206.3 206.4 205.4 204.8 205.5 202.9 199.2 197.5 195 191.3 188.5 183 177.5 171.6 168.4 170.8 174.5 175.3 176.5 182.9 190.6 191.5 192.2 191.7 191.8 191.5 190.8 190.2 189.4 188.4 187.6 186.8 185.9 184.1 183.1 181.8 180.1 179.2 177.2 175.5 173 170 168 164.8 161.2 157.6 153.7 146.4 138 132.9 128.2 125.6 122.8 120.5 118.4 116.7 114.2 113.7 112.3 109.8 109.1 109.2 110.7 116.2 121.4 128.7 139.5 145.4 148.7 150.4 151.8 150.8 147 139.8 134.3 140.9 148.5 149.4 148.9 147.1 147.6 147.5 145.7 143.4 142.2 139.4 137.6 136.3 134.2 132.3 130.5 128.7 127.1 125.1 123.4 121.9 120.6 119.1 117.3 116.1 115.3 113.6 110.7 108.5 107.1 106 105.1 103.8 103.5 103.1 101.1 101.2 100.9 100.8 100.7 100.6
102.3 102.5 102 101.3 101 101.1 102.3 104.3 106.9 110.4 112.1 112.3 111.8 112 111.6 110.7 110.3 109.5 110.2 109.8 109 111.9 113.4 115.4 118.3 120.2 123.4 125.5 129 133 136.1 136.9 135.2 137.4 144 148.5 155.2 158.8 159.1 164.5 170.4 176.1 182.5 190 198.5 206.4 223 235.6 243.8 244.8 244.6 243.7 242.6 241.9 240.9 240.3 240.1 237.5 238.3 237.4 235.5 234.9 234.1 232.6 230.7 229.2 227.5 224.5 222.7 221.2 218 217.1 216.6 212.8 209.5 202.9 202.4 205.8 205.7 205.9 206 204.6 205.8 205.2 204.1 203.7 203.7 203.3 203.4 202.9 201.2 199.2 198.3 197.4 195.9 190.8 184.7 178.2 173.3 174.7 179.8 181.6 184.5 190.8 192.5 193 192.4 191.9 191.1 190.6 190.4 189.7 188.9 188 187.2 186.1 184.8 184.1 183.5 181.8 179.8 179.1 177 174.3 171.8 168.3 166.8 162.8 159.3 153.7 150.2 145.3 137.7 133.1 127.9 125.9 123 120.5 118.4 116.5 114.5 113.3 111.7 109.5 109.1 108.2 113.6 119.1 124.3 135 144.1 148.3 151.5 152.9 153.6 153.3 150.6 143.4 142 147.8 151.9 151.9 150.9 149.5 149.1 148.8 147.7 145.2 143.8 142.5 141.5 138.6 136.5 135.1 133.6 131.7 129.6 127.4 125.7 124.2 122.3 120.6 119.1 118.3 117 115.4 113.3 110.4 108.5 107.4 106 104.6 103.5 103.5 103.8 103.4 102.6 102.3 101.5 101.6
103 103.2 103.1 102.1 101.3 101.8 103.6 107.5 110 112.3 114.3 114.5 113.5 112.7 111.6 110.5 110.4 110.8 111.2 111.4 109 111.5 113.8 115.9 117.7 119.4 121.1 122.8 124.4 126.5 128.7 131.9 138.6 144.7 150 154.3 158.2 162.3 161.5 166.4 172.3 177.4 184.4 194.6 206.2 220.8 233.6 239 244.1 243.7 243.4 242.6 241.4 240.6 240 238.6 238.1 236.6 236.5 235.3 235.6 235.2 233.4 231.5 229 227.5 226 224.6 221.3 218.5 216.5 214.1 213.8 207.6 198.6 191 185.6 188.2 192.9 194.1 193.1 195 198.3 199.6 200.4 200.2 200.4 202.2 201.3 202.1 201.5 200.5 198.1 196.8 196.8 196.4 193.7 187 183.5 183.4 185 188.1 190.3 193.1 193.7 194.1 192.7 191.9 190.9 190 189.3 188.8 188 187.1 186.7 185.7 184.7 183.8 182.1 181.1 180.6 178.4 175.8 173.2 170.6 164.1 159.5 156.4 152.7 148.4 144.4 142.8 138.4 133.5 127.2 124.4 121.8 119.9 117.7 115.6 114.2 113 111.7 109.5 109.2 109.7 116.4 119.5 131 140.9 148.3 152 153.1 155.1 155 155.4 154.2 149.6 152.4 154.4 154 153.1 153 152.8 152.3 151.1 149.9 148.3 144.5 144.7 143.4 140.4 137.2 135.3 134.5 134.2 131.9 130 128.2 126.2 124 122.6 121.5 119.9 118.2 116.7 115 112.7 110.5 108.7 106.9 105.3 104.2 105.2 105.2 104 102.5 102 102.2 103
103.9 104.7 104.2 103.1 101.5 102.3 105.1 107.6 111.2 114.4 114.7 115.8 114.8 112.3 112 111.8 112.2 111.4 111 111.1 110.2 111.4 114.5 116.6 117.9 119.7 121.8 125.1 129.1 132.7 135.4 140 146.4 150.7 152.9 156.3 160.2 164 166 167.6 173.4 180.5 188.2 205.2 216.3 232.6 239.8 241.8 242.9 242.5 242.3 241.4 240.2 239.3 238.7 237.7 237.3 236.4 235.4 234.3 234.9 232.5 230.9 230.8 227.8 226.4 224.1 220.7 218.9 218.3 214.3 209.4 201.1 194.6 186.2 183 179.5 178.3 180.2 179.4 180.2 181.6 187.9 191.5 194.5 194.9 195.7 197 197.9 198.6 199 199.6 198.8 196.7 196.7 196.7 195.9 193.9 192.7 191 191.2 191.4 192.9 193.2 193.9 194.1 192.9 191.7 189.9 188.8 187.4 186.8 186.5 186 185.1 184.3 183.6 182.3 181.5 181 179.5 176.5 172.5 168.1 165.5 157.5 152.8 150.4 145.9 144.1 138.3 139.5 137.7 131.8 128.4 125 122.4 119.9 117.7 115.8 114.7 113.3 112 110.4 109.1 110.1 119.3 125.4 135.5 144.9 150.9 154.8 156.5 156.9 157.7 157.6 157.1 155.4 156.4 156.4 155.9 156 155.1 153.5 153.1 152.2 150.7 149.3 148.3 146.4 144.6 141.8 139.5 138.5 136.5 136.1 134.5 132.3 130.5 128.4 125.8 124.3 123.3 121.8 120 118.1 116.7 114.7 112.3 110.4 108.4 106.5 105.3 105.8 104.5 103.7 103.7 103 102.9 102.7
105.8 105.9 104.5 103.6 102.8 104 105.8 108.1 110.3 115.2 115.4 115.3 114.9 113.7 113.5 112.6 113.5 112.9 112.1 112.2 112.4 109 114.6 116.6 117.9 120 122.4 125.4 128.9 131.9 136.2 141 148.5 150 152.3 154.8 158.5 163.4 167.6 169.3 173.2 180.7 191.4 209.7 225.8 236.4 240.9 241.3 241.5 241.2 240.8 240 238.9 238.2 237.4 236.4 236.1 235 234 234.1 233.1 230.4 229.3 228.5 226.1 223.3 220.5 219.9 217.2 217.8 215.8 213.2 205.1 194.4 188.7 182.3 176.3 175.6 171.6 171 171.3 175.6 176.2 178 183.2 186.5 187.4 190.2 191 193.6 194.3 195.8 197.2 197.3 191.5 194.3 195.2 196.4 195.4 193.6 193.3 193.3 192 192.5 192 192.3 191.3 190 188.7 187.2 186.3 184.9 184.5 184.1 183.9 182.9 182.3 181.5 180.4 178.3 178.3 175.7 172.3 163.6 157.4 153.8 147.3 148.2 141.4 139.1 134.6 133.8 135.8 130.7 128.9 126.3 123 119.8 117.9 115.7 115 113.6 111.7 110.8 109.4 109.9 120.2 128.1 138.2 147.8 153.5 156.9 158.2 158.7 158 158.9 158.7 158.4 158.1 157.8 157.4 157 155.8 155 154 153.3 152.4 150.3 149 147.2 145.8 144.1 142.2 140.1 138.4 136.9 135.9 134.2 132.1 130.1 128.3 127 125.5 124.2 121.6 119.2 118.3 116.7 114.9 113.3 111.3 108.7 107.1 107.5 106.6 105.8 104.1 104.5 104.1 103
104.6 106.8 105.1 104.5 104.5 105.6 108.1 110.1 111.2 115.7 116.1 116 116 115.2 114.7 114.5 114.1 114.5 114 113.7 113.7 113.5 114.3 115.8 117.9 120.5 122.6 125.1 128.3 130.1 133.1 137.8 143 147.5 149.2 148.8 155.1 161.4 166.5 171.2 176.5 182.6 196.1 214.9 230.4 238.1 239.5 240.1 239.9 239.6 239.1 238.4 237.7 237 236.3 235.7 234.7 233.8 231.7 232.2 230.5 229.1 228.7 225.7 223.8 221.5 220.6 219.6 218.4 216.3 214.6 212.3 210.4 197.6 188.9 185.1 181 175.7 167.6 170.4 165.4 166.8 168.6 172.8 175.5 176.5 177.6 181.5 183.8 185 187.5 189.5 190.5 188.3 184.1 187.5 190.9 192.8 194.3 194.4 193.9 193.2 191.7 191.2 190.6 190.4 189.5 188.6 187.7 186.8 184.6 181.3 181 181.2 182.1 181.2 179.4 178 177.2 178.6 178 175.6 173.9 167.6 158.7 152.1 146.9 145.3 142.1 137.9 134.3 130.8 130.5 131.4 130.3 126.5 122.2 119.6 117.6 115.6 115 113 111.5 109.8 110.5 112 121.5 132.1 140.4 149.6 156.4 158.8 160.1 159.9 160.3 161 158.2 159.3 159.5 158.8 158.6 158.3 157.5 156.6 155.3 154.5 153.8 151.6 150.2 148.8 146.8 145.7 143.3 142 139.9 138.8 138.3 135.6 133.4 131.9 130.7 129.3 128.3 125.5 123.2 120.8 120.3 119 117.6 116.1 114.2 111.7 109.3 109 108 106.6 105.2 105.1 104.1 103
104.5 105.6 105.9 105.8 106.7 107.9 111 114.3 114.4 117.7 119 118.2 117.6 116.7 115.9 116.4 116.9 116.5 115.7 115.1 114.4 113.5 114.4 115.7 118.3 120.7 123.8 126.9 130.6 133.4 136.6 139.2 140.3 142.1 147.9 153.6 157.3 160.3 164.9 171.3 178.6 186 200.2 218.8 230.6 237.3 237.4 238.8 238.5 238 237.5 236.8 236.2 235.5 234.8 233.8 233.5 232.3 231.1 228.7 226.8 224.2 223.5 222.1 220.6 216.3 215.3 216.8 215.8 215.8 214.9 210.9 209.9 199.2 187.3 185 179.7 175.2 172.3 162 161.4 161.5 164 168.5 168 170.6 169.1 170.7 173.4 175.5 177.8 180.5 182.2 178.9 175.3 180.4 183.7 189.5 191.9 191.7 192.7 191.7 190.4 189.2 187.6 186.1 186 187 187.4 185.4 182.1 177.1 175.1 173.9 176.3 177.4 177.1 175.8 175.7 175.1 175.4 174.7 171.9 170 165.8 159.8 154.4 150.4 146.3 140.8 136.9 131.9 127.9 128.3 126.9 124.9 121.6 119.4 117.4 116.4 115.1 112.3 111.2 110.5 110.4 115.8 124.7 133.7 141.5 154.2 157.2 159.6 161.9 162.5 162.4 161.7 160.7 161.1 160.7 160.3 159.6 159.1 158.3 157.9 156.2 155.6 154.6 152.7 151.5 149.4 147.8 147.1 144.6 141.9 140.5 140 138.7 137 134.8 134 132.6 131.3 129.9 126.8 124.7 123.1 122.3 121 119.7 118.4 117.2 115 112.5 110.2 109 107.5 106.3 105.8 105 104.5
105.8 105.8 106.9 108.3 109.5 111.5 115.9 119 119.5 121 122.7 121 120.4 119.6 118.8 119.3 119.4 119.1 117.7 115.7 115.1 114.3 113.5 115.7 118.2 124.2 128.2 131.7 134.4 136.1 138.9 143.6 145.5 146.5 150 155.1 159.4 162.4 166.4 172 179.5 190 207.1 222.6 232.9 236 237.1 237.4 237.1 236.6 236 235.5 234.9 234.1 233.2 233.3 231.1 230.1 229.6 225.9 217.9 212.5 213.5 218.5 211.7 206.9 201.2 201.2 206.5 213.2 210.7 211.7 208.1 201.5 188.3 180.5 174.6 169.7 164.3 160.6 158.8 157.8 158.7 161.6 163.2 164.7 160.6 161.4 163.5 166.4 169.1 171.2 173.1 171 168.6 172 178.5 183.1 189.6 190 190.9 190.8 189.3 188 186.6 185.8 185.7 185.9 184.9 180.8 177.4 172.3 167.6 167 170 171.4 171.4 171.3 170.1 169.7 168.7 170.5 169.2 167.3 163.7 158.8 148.9 146.1 144.5 141.8 136.6 131.6 128 126.1 124.3 122.2 119.6 118 117.1 116.2 114.4 111.2 111.2 112 114.6 119.7 129.6 136.4 144.7 152.4 158.3 160.4 162.5 163.2 162.7 162.2 161.5 161.1 160.6 160.6 159.9 159.4 159 158.7 157.2 155.9 154.9 153.3 151.6 149.9 149.1 148 144.7 141.1 140.5 140.4 138.7 137.4 136.1 135 133.6 132.1 130.4 128.4 127.3 126.2 125.1 123.3 121.6 120.2 118.8 117 115.7 113.2 110.6 108.4 107.1 106.5 106.5 105.7
106.7 106.8 109 110.9 113.4 117.5 120.3 123.6 125.2 127.3 126.1 124.2 122.4 122.3 122.4 122.6 122.9 120.8 119.1 117.1 116.6 115.2 113.5 115.8 117.9 122.9 126.8 129.8 133.8 135.9 139.4 144.2 145.1 146.2 149.1 153.7 158.5 162.7 166.4 172.7 181.2 197.3 212.1 225.8 233.2 235.4 236 236.1 235.8 235.2 234.5 233.9 233.4 232.4 231.7 231.6 229.7 228.2 227.4 219.3 213.3 203.1 200 203.5 199.9 195.1 189.3 189.2 194.6 202.6 205.2 204.9 203 200.8 188.4 179.1 172.6 165.1 160.4 157.8 156.1 155 155.1 155.9 157.6 158 154.5 154.9 156.9 159.3 161.6 163.4 163.8 164 161.1 166.4 173 177.5 183.8 187.2 188.2 188.3 187.5 187.1 186.3 185.1 183.7 183.4 181.6 178 171.6 166 159.7 158.6 163.4 164.2 163.6 162.9 162.3 162.4 162.3 163 163.5 163.4 160.4 157.3 153.5 147.5 139.9 137.1 133.8 129.1 127.1 125.4 123.4 120.6 118.8 116.4 115.4 115.3 112.6 110 110.8 114.1 117.3 126.4 135.2 145.9 153.5 158 159.4 161.9 162.6 163.5 162.4 162.6 162.3 161.4 160.5 160.2 160.1 158.4 158.7 158.7 157.3 156.6 154.6 153.4 152.4 150.9 149.1 147.5 143.6 140.6 140.6 140.8 139.8 138.2 137.4 136.1 134.8 133.4 131.8 129.9 129.3 128.1 126.6 124.9 123.5 122.2 120.5 119.1 117.7 115.6 112.3 110 108.1 108.2 108.6 106.3
108.4 107.8 110.6 113.3 115.9 121.3 124.5 129.9 133.3 130.6 128.1 127 125.2 125.8 126.9 126.5 125.3 123.9 121.6 119.3 117.6 116.3 115.9 117.9 117.9 120 122.5 125.6 129.4 132.6 137.4 142.4 143.2 143.6 147.4 151.2 155.5 161.1 165.2 169.1 176.6 191.8 209.1 227 233.2 234 234.8 234.7 234.3 233.9 233.2 232.6 231.8 231.4 230.6 229.8 228.1 225 222.3 213.5 209.6 196.7 193.1 194.4 192.4 187.3 184.2 183.3 185.1 190.3 190.2 191.1 190.2 190 184.5 175.8 169.9 163.4 159.8 156.9 154.7 153.9 153 152.5 152.2 151.9 150.4 149.8 152.1 153.4 156.4 158.4 158.2 156.7 154.8 159.2 163.8 172.5 178.9 181.5 184 186.5 185.6 184.1 183.8 183.3 181.4 178.9 173.1 166.3 163.1 157.7 153.1 152.3 158.2 159.3 156.9 157.2 160.8 160.8 156.3 153.9 156.5 157.7 156.7 153.5 153.7 149 142.7 133.7 131.7 130.6 128.3 126.6 124.7 122.3 119.4 117.1 115.5 113.5 111.4 110.8 113 116 123.6 132.1 141.9 151.2 156.8 160.2 162.1 162.8 163.4 163.5 163.2 162.4 162.5 161.7 161.6 159.7 159.6 158.2 158.3 158 157 156.1 154 153.3 152.2 150.9 149.2 147.4 144.6 142.1 141.1 141.5 140.4 139 138.1 136.5 134.7 134.6 132.9 132 130.4 129.4 128 126.8 125.3 123.3 121.9 120.8 119.4 117.4 114.1 110.7 111 110.8 109.9 107.5
108.4 110.2 113 115.8 118.6 122.4 127 136 135.9 131.3 130.8 130 130 130.5 130.7 130.4 128.6 126 122.4 120 118.8 117.1 117.8 117.8 118.8 122.4 125 125.5 126.9 128.6 132.1 135.7 138.4 143.5 143.8 147 152.9 158 163.4 170.4 180.3 190.6 206.9 227.1 232.8 232.7 233.2 233 232.7 232.4 231.7 231.1 231.1 229.6 228.9 227.9 225.8 221.9 214.5 207.3 205.1 193.6 189.6 188.1 185.9 183.8 181.8 181.8 181.8 181.8 182.6 181.5 182.7 178.7 177.6 172.2 166.3 160.6 157 156.3 154.8 153 152.3 150.8 149.3 149.3 149.5 149.1 148.1 147.7 150.3 153.7 154.2 151.6 151.2 158.2 166.4 169.8 174.6 174.8 179.6 181.6 180.3 179.3 177.3 176.5 177.5 177.8 171.4 160.1 155.1 152.7 147 148.9 151.9 153.4 145.6 149.1 151.8 153.7 151.1 149.3 152.1 151.7 149.8 147.3 146.2 142.8 137.3 138 134.7 124.9 129.5 127.7 124.9 122.3 118.8 115.7 115.3 112.7 110 111 115.3 120.2 127.5 135.9 146.9 154.1 158.8 160.9 162.9 163.4 163.5 163.5 163.3 163.3 162.8 162 160.7 160.5 158.9 158.5 157.5 157 156.4 155.5 153.5 152.7 151.3 150.1 148.9 147.6 146 143.8 142.6 141.7 140.4 139.4 138.6 137.6 136.4 135 133.6 132.9 131.5 130.2 128.9 127.7 126.2 124.1 123.8 122.5 121.3 117.7 114.4 113.3 114.7 113 110.1 108.3
110.6 112.8 115.9 117.4 118.5 124.1 130.3 137.1 137.1 133.7 133.3 134 134 134.3 134.5 133.3 130.9 128 124.5 122.2 119.8 118.7 117.8 117.8 118 123.7 126.3 129.1 132.2 133.4 134.3 135.8 140 138.5 143.4 147.7 152.7 157.8 163.4 168.8 178.7 191.7 207.8 228 231 231.6 232 232.2 231.2 230.7 229.9 228.3 229.1 228.2 227.3 226.4 223.8 219.6 208.2 200.2 194.9 191.9 188.9 187.3 182.6 181.8 181.8 181.8 181.8 181.8 181.4 173 172.2 171.4 169.2 167.9 164.9 159.4 157.2 158.3 159.1 156.1 156.3 154.4 153.2 151.5 150.8 149 147 147.2 146.8 147.7 148.5 147.1 150.2 160.2 165.9 164.7 169.5 168.5 168.2 171.2 175.9 175.1 172.3 172.4 173.9 172.2 168.8 162.1 153.2 145.8 143 143.9 148.2 148.5 144.8 141.5 143.8 145.7 144.1 141.1 145.4 146.1 144.7 141.1 139.9 139.2 138.6 136 134.3 126.1 129.2 126.6 123.5 120.6 118.2 115.5 114.2 111.4 110.3 113.1 118.4 124.2 130.5 139.8 149.3 155.3 160.3 161.4 162.8 163.6 163.8 163.8 163.8 163.5 163 161.9 160.8 160 158.9 158.5 157.6 156.2 155.4 155.1 154.1 152.1 150.9 149.9 149.7 148 146.8 144.4 143.1 142.2 141 140.5 138.8 138 136.9 135.8 134.5 134.2 132.9 131 129.7 128.5 127.2 126.1 124.7 122.3 118.8 115.1 115.7 117.1 116.3 113.8 111.2 109.8
114.6 114.5 116.4 118.5 120 125.9 132 137 138 137.7 136.2 136.3 136.8 137.4 136.3 134.5 132.1 129.5 125.8 123.6 120.5 121.1 119.8 117.8 117.8 122.2 126.2 129.7 133.5 134.9 135.8 138.3 140.4 142.5 145.2 149.4 153.2 156.8 161.7 168.7 177.9 192.5 207.9 227.1 230.7 231.6 231 229.9 229.4 228.5 227.8 227.3 227.5 226.7 225.8 224.3 221.2 213.4 205.9 196.3 189.7 189.7 187.3 182.9 181.8 181.8 182.9 183.2 181.7 175.9 173.1 169.2 167.1 166.3 164.5 163.3 161.8 160.1 160 164.1 166 165 162.9 161.6 159.3 157.7 155.1 150.9 149 146.4 144.5 143.6 144.2 145.2 150.2 157.9 161.7 158.2 162.7 164.7 161.3 162.9 165 163.9 164.7 158.2 164.8 165.7 162.9 158.6 152.3 147.1 139.4 137.1 142.3 142.7 144.1 137.3 138.8 140.9 141.5 133.3 137.9 139.2 138.3 133.2 134.6 132.2 135.3 132.5 129.2 129.1 127.7 125.2 121.7 120.1 117.8 115.7 113.5 111.4 111.6 115.6 122 126.8 134.2 144.7 152.6 157.6 160.6 162.8 164.7 164.5 164.4 164.5 164.6 164.5 163.5 162.2 160.7 159.3 158.7 157.4 156.9 156.1 155.4 154.6 153.4 152.1 151.1 150.4 149.7 147.2 146 144.7 143.3 141.8 141.1 140.5 139.5 138.3 137.3 136.2 135.2 133.8 133 131.9 130.4 129.4 128.3 126.9 125.1 120.7 117.6 117.4 118.8 118.4 116.9 114.8 112.9 111.6
114.4 117 116.9 119 122.1 128.4 134.4 139.2 140.9 139.2 137.7 137.2 138.1 140.3 138.3 134.8 132.3 129.9 128.3 125.4 122.1 122.8 121.1 118.9 117.8 120.6 124.2 128.5 133.1 134.3 134.9 136.7 139.3 142.3 145 148.9 153.5 157.4 162.6 169.1 176.5 192.6 211.5 227.1 229.5 230 229.5 228.2 228 227.5 226.7 226.6 225.5 225.2 224.3 223.1 220.2 212.8 206 195.2 189.1 188.6 186.2 185.2 185.6 186.1 186.2 184.7 181.8 178.7 176.2 173.2 169.6 166.8 165.5 164.4 164.3 164.4 166.5 171.3 175.7 174.8 171.8 171.3 166.4 162.9 158.3 153.8 150.6 145.9 143 142.5 140.9 142.5 147.3 152.4 156 157 158.2 163.5 159.4 155.3 155.8 155.1 155 152.3 156.5 156.3 155 153.5 148.2 143.5 139.3 133.9 135.3 135.8 139 135.6 132.4 134 131.4 126.1 127.9 127.8 127.8 125.3 126.8 128.1 130.1 127.7 121 127.8 126.1 123.5 120.9 119.3 117.7 114.5 112.6 111.2 110.8 117.2 123.8 129.7 139.3 149.1 155.5 159.1 161.9 163.9 164.6 164.5 164.4 164.5 164.5 163.7 163.4 162.6 161.5 159.9 158.9 157.8 157.9 156.6 154.9 153.8 152.9 151.6 149.7 148.4 147.5 146.2 145.1 144.1 142.6 140.8 139.7 139.3 138.4 138.1 137 135.8 134.9 133.7 133.2 131.9 131.1 130 128.9 126.4 123.2 119 120.1 121 120.3 119.3 118.4 116.8 114.6 113.3
115.3 119.4 119.8 121.5 124.5 131.1 137.1 141.6 143.9 142.4 140.9 140.3 141.6 143 137.7 135.5 133 130.6 128.3 124.3 125.2 124 121.3 119.2 121.6 120.4 125.2 129.2 132.8 133.1 133 135.4 138.1 141.2 144.8 148.7 153.5 159.6 165.6 174.4 185.2 199.1 216.7 225.3 225.7 225.8 225.6 225.6 225.3 225.7 225.4 224.8 224.6 223.6 222.7 221.6 220.1 215.1 207.5 200.2 195.2 193 193.2 192.9 191.4 192.2 193 188.8 185.4 181.6 178.6 177.4 173.4 171.2 170.7 170.3 169.6 169.6 170.5 176.2 180.5 182.3 182.1 179.4 174.6 168.6 161 155.7 150.9 146 143.2 141.7 140.1 141.8 142.9 146.7 149.6 152.1 154.1 158.9 159.2 152.2 149.2 148.2 148.2 148.4 149.1 148.2 148.9 149.3 147.3 143.8 138.5 133 130.2 132.1 133.6 132.2 126.4 123.7 120.9 121.1 119.2 119 118.8 119.6 120.3 122.9 123.8 123.5 119.8 122.3 121.5 121.6 120.5 119.1 114.5 114.5 111.9 111.3 111.1 120.1 127.9 134.8 144.1 151.5 157.1 160.5 162.8 164.2 164.1 163.6 163.8 164.4 164.4 163.3 162.9 161.9 161 160.4 158.4 157.6 157.7 157.3 155.9 154.7 153.6 151.8 150.4 149.1 147.8 146.6 145.3 143.4 141.9 140.4 138.8 137.5 136.5 135.8 134.6 133.6 133.1 132.8 133.1 132.4 131.7 130.2 128.8 124.8 120.5 121.1 123.7 123 121.8 120 119.6 118.5 115.8 115.5
119 117.6 120.2 122.4 127 133.1 138.8 144.1 147.9 148.3 147.2 146 145.1 143.8 138.7 137 134.5 130.7 127.2 127.4 126.2 125 121.5 120.9 120.4 120.4 123.9 128.2 130.7 131.4 131.3 134.1 136.8 139.8 142.3 147 152.7 160.5 170.4 181.3 194.4 210.1 220.2 223.7 225.1 225 225.4 225.2 225 224.3 224.8 224.5 223.9 222.8 222.3 221 219.6 217.1 212.5 208.6 209.5 210.7 210.4 208.7 206.6 204.5 204 203 199.4 195.7 188.5 182.7 180.6 178.8 177.9 176.9 177.9 181.4 182.2 187.1 189.6 190.3 188.4 186.5 181.8 175.6 164.7 158.5 153.8 148.4 145.4 143.2 140.6 138.5 137.6 142.5 145 146.5 151.6 155 156.2 154.8 149.3 143.3 142.4 143.2 143.8 142.6 144.4 143.9 142.7 141.9 137 132.2 127.8 127.8 128.6 127.2 124.4 120.4 122.5 124.4 123.2 122.8 122.1 120.3 119.4 119.4 120.3 119.3 117.7 116.7 116.3 115.8 115.2 114.1 111.2 113.1 111 111.4 114.2 122.7 132.6 141.3 146.4 154.4 158.7 161.1 163.1 163.4 163.2 163.4 163 162.8 162.5 162.1 162 161.9 160.8 159.6 158.9 158.6 156.9 156 155.6 154.6 153.4 152.2 150.6 149.3 148.3 147.2 146 144.2 142.7 141.3 140 138.5 137 135 133.5 132.4 131.6 130.5 131.4 131.4 130.7 129.5 127.3 124 121.3 124.7 124.5 124.6 123.1 121.6 120.3 119.1 117.7 116.6
123.1 121.2 120.1 123.7 129.1 134.2 139.6 144.7 150.5 150.9 150.3 149.1 144.9 143 140.6 138.6 136.5 132.6 130.5 128.6 127.5 124.7 123.2 123.1 121.1 120.4 120.4 125.9 129 129.5 129.2 131.9 135 136.5 141.4 147.3 153.2 162.5 174.6 187.3 200.3 213 217.5 218.5 220.6 223 223.7 224.2 222.9 223 222.7 222.7 222.5 221.9 220.3 220.1 219 217.8 216.2 215.4 215.2 214.9 213 212.7 211.3 210.2 208.5 209.1 207.1 207.3 206 202 194.6 192.9 193.2 193.1 193.5 196.6 196.7 195.7 195.7 195.3 192.4 190.6 186.8 178.5 168.6 163 157.3 152.3 149.2 146.6 141 137.1 137.1 137.2 140.3 145.1 149.3 150.7 151.7 151.6 150.4 142.2 137.1 138.3 138.9 139.6 140.7 139 136.7 133.7 131.7 128 125.8 125.8 125.9 123.6 121.8 125.2 126.9 126.7 126.7 126.4 125.5 123.8 121.9 120.8 118.6 118 116.2 115.5 115.2 115.6 115.4 113.3 111.2 112 111.4 111.2 116.4 126.7 136.7 142.8 149.2 154.9 159 161.4 162 162.7 162.4 162.5 162.6 162.8 162.2 161.4 161.4 161.3 160.6 159.9 158.8 157.8 156.3 154.8 154.4 154.1 152.7 152.2 151 149.2 148.2 147.3 146.3 144.7 143.6 142.3 140.7 139.7 138.2 137 135.5 133.6 131.9 129.8 129.3 129.7 129.2 127.6 125.1 123.2 123.8 125.8 124.5 123.7 123 122.1 120.9 119.1 118.1 117.5
131.6 128.5 125.5 126.6 128.5 134.5 140.5 144.8 151.3 152.1 151.3 149.1 145.1 143 142.9 142.8 140.9 138.3 135 131.2 127.3 125.1 125.1 126.1 124.3 120.4 120.4 121 126.7 128 127.8 129.7 134 138 143.5 149.4 155.4 164.2 175.9 188 197.2 202 204.1 208.3 213.6 218.3 220.4 221.2 221.9 221.6 221.6 221.2 220.7 220.4 219.2 218.9 218.9 217.8 216.2 217 215.5 213.6 213.4 211.6 211.5 210.3 209.8 209.1 209.1 206.6 207.3 205.2 204.1 203 201.7 200.1 198.4 197.4 194.7 192.7 192 193.4 193.1 191.4 187.3 181.7 173.6 167.5 160.8 155.3 152.1 148.3 141.7 137.1 137.1 137.1 137.1 140.3 141.6 141.1 141.7 142.6 144.1 140.4 137.1 137.1 137.5 137 136 135.7 130.5 128.3 126.4 125.7 125.6 124.6 124.3 124.7 126.1 130.3 130 130 129.2 129.3 128.3 125.9 123.2 121.4 121.2 119.2 117.2 116.8 116 114.7 114.5 111.2 113.8 111.7 111.3 111.5 120.7 131.1 141 145.4 150.7 155.9 158.4 160.7 161.7 162 161.8 161.9 161.9 162 161.5 160.7 160.4 160.3 160.1 159.2 158.6 157.5 155.6 154.8 154.1 153.3 152 151.5 150.2 148.4 147.6 146.8 145.9 144.6 143.5 142.6 141.6 140.2 138.6 137.9 136.2 135 133.2 130.9 129 127.4 126.3 125.7 124.4 124.2 125.1 125.4 124.8 124 122.2 120.9 120 119.4 118.8 117.8
135.7 134.6 137.7 134.6 126.4 132.6 141 146.3 151.4 153.8 151.9 147.8 144.9 144.9 145.4 146.1 144.7 141.2 136.9 133.5 129.6 126.2 127.9 127.6 125.8 123.9 121.6 120.4 122.1 123.8 127.9 131.2 134.8 139.9 145.6 151.5 159.6 169.7 179 188.1 195.5 198.8 195.2 197.9 208.6 215.1 217.7 219.3 219.2 219.2 220.1 219.5 219.4 218.6 218.5 218 217.5 216.6 216.3 216.6 214.3 213.3 212.6 211.2 211.1 210.8 209 209.6 206.7 206.5 204.4 204.9 203.7 203.1 200.1 195.7 189.1 183.1 179.8 177.5 175.7 176.3 178.3 176.6 177.9 176.8 165.1 159.7 155 151.9 150.5 147.5 141.8 137.9 137.1 137.1 137.1 137.1 137.1 137.1 137.1 137.1 137.1 137.1 137.1 137.1 138.6 130.9 133.5 131.1 128 128 128.8 129.3 131.8 132.4 131.5 131.3 131.2 133 134.6 134.2 132.9 131.9 131.7 128.3 126.3 124.4 122 119.6 118.5 116.8 116.4 115.5 114.4 113.5 112.2 112.4 111.6 115.2 125.4 135.2 143.1 147.9 151.9 155.9 157.5 159 161.1 161.3 161.4 161.5 161.4 161 160.5 160 159.8 159.1 159 158.2 157.6 156.5 154.7 153.7 153.4 153 151.4 150.3 149 147.5 146.5 145.2 144.7 143.9 143.2 142.4 141.7 140.2 139.3 138 136.6 135.3 133.3 131 129.4 128.7 128.1 127.8 126.5 125.4 125.8 124.2 122.5 120.9 120 120.4 119.2 118.9 116.6 116.9
142 142.8 144.2 145.5 134.6 133.5 141.7 146.6 151.5 152.7 152.3 147.6 147.2 147.9 148.2 147.9 147 142.7 137.8 133.9 130.1 128 129.2 128.8 127.1 126.8 125 120.4 120.4 126.2 129.3 133.3 136 139.9 145.3 152.3 160.8 169.2 177.2 184.1 190.6 193.2 187.7 195.3 207.2 212.9 213.7 215.4 216 217.2 218.2 218.3 217.5 217.3 216.9 216.9 216.3 215.2 215.1 215.2 213.3 213.2 211.2 210.6 209.4 207.2 207.2 207.5 207.2 205.9 204.5 202.8 202.5 196.1 189.4 182.7 177.2 173.1 170 167.8 167.3 165.9 166.4 166 165.3 164.9 159.2 155.8 153.1 147.7 145.2 142.6 139.8 139.3 137.1 137.1 137.1 137.1 137.1 137.1 137.1 137.1 137.1 137.1 137.1 137.1 137.1 130.5 128.5 128 129.9 134.8 136.3 135.4 137.3 140 140 141.2 140.1 139 141.6 141.1 139.4 137.3 135.9 132 130.8 127.4 124.6 119.9 119.2 117.7 116.2 115.2 112.1 111.7 111.7 111.9 111.7 120.5 129.6 138.5 144.8 151.3 154.1 156.6 157.9 158.4 159.1 159.9 161.4 161.8 161.1 160.4 159.7 158.8 158 158 157.2 156.8 156.3 155.3 153.3 153 152.9 151.8 150.4 149 147.5 147.1 146.6 144.1 143.4 142.6 142.1 141.8 140.9 139.8 138.5 137.2 136.3 134.2 132.1 131.3 131.2 130.8 130 128.9 127.1 126.5 125.7 124 121.3 121 118.5 116.8 117.7 117.2 117 115.1
146.7 149.2 149.5 147.3 139.5 135.4 142.2 146.9 150.7 153.6 151.5 152.6 151.8 152 151.8 149.9 147.8 143 138.9 133.6 130.5 130.1 131.4 130.9 130.5 128.1 125.6 123.2 122 127.1 130.6 133.9 136.5 140 144.7 150.9 158.4 166 167.8 174.7 180.7 176.8 184.6 198.6 206.1 208.2 210.6 212 213.3 214.2 215.9 215.3 215.2 215.6 216.1 215.6 214.9 214.4 213.9 212.9 211.4 211.6 210.5 209.7 208.5 207.5 207.5 204 206 204 204.8 201.6 197.9 188.3 180.6 175.5 171.5 167.5 164.4 163.4 160.5 159.7 159.6 159.5 158.2 156.8 156 152.7 150.4 145.7 142.3 141.2 138.3 137.1 137.1 137.1 137.1 137.1 137.1 137.1 137.1 137.1 137.1 137.1 137.1 137.1 137.1 136.4 130.1 134.9 134.8 139.8 141.1 141.6 144.6 148.7 149.6 151.8 152.2 151.2 152 150.7 149.3 146.4 144.4 142.3 138 133.1 128.3 121 119.9 117.5 116.3 113 112.1 111.2 111 111.9 116.3 124 134.5 142.4 147.4 152.1 155.5 156.5 157 159.6 158.9 159.5 159.8 159.7 159.5 159.6 158.9 158.8 156.9 155.9 155.2 154.9 155.2 154.2 153.2 152.8 151.3 150.5 148.4 146.8 146.3 146.1 145.4 143.9 142.8 141.8 141.3 141.1 140.2 138.4 137.2 135.6 134.5 133.2 132.2 132.4 132 131.1 129.8 128.7 127 126.3 125.4 123.3 121.8 120.5 118.6 116.8 115.4 115.6 114.1 112.8
150.2 152 152.3 149.9 146.1 136.6 144.2 148.5 152 154.7 155.5 158.3 157.6 156.6 155.5 153.1 149 144.2 139.8 134.1 130.8 134.7 134.6 134 132.7 129.2 125.6 124 122 125.2 128.8 131.8 134.5 138.2 142.2 148.5 154.6 157.1 158.4 163.6 166.3 173 188.6 200.3 203.2 204.8 207.2 208.1 210 211.3 211.9 211.9 212.1 213.7 214.3 213.5 212.5 212.6 212.5 211 210.6 209.6 209.1 208.8 208.2 207.7 205.3 204.6 204.9 202.6 200.8 200.8 197.2 187.2 179 173.7 169.1 166.5 167.8 164.4 163.8 161.5 157.5 154.7 152.8 151.9 149.2 146.7 145 143.1 141.5 139.8 138.8 137.1 137.1 138.5 141.3 141.1 141.5 140.9 138 137.1 137.1 137.1 137.1 137.1 137.1 137.1 138.6 140.5 139.9 142.4 146.9 149.6 153.4 156.7 161.2 162.1 160.8 160.8 159.8 158.8 156.4 156 154 150.6 145.5 136.3 129.1 122 120.7 118.2 116.5 111.7 112.2 112.7 112.1 112.1 119.2 126.7 136.5 145.8 151.1 153.4 155 156.3 156.7 158.8 158.9 156.7 157.8 158.7 157.7 157.9 158.2 156.9 155.2 154.8 154.9 154.4 153 152.2 152 150.7 150.5 149.7 148.6 146.1 145.6 145.2 144.4 143.3 142 141.1 140.3 139.2 137.6 136.2 135.1 133.8 132.6 132 132.6 132.1 131.1 130 128.8 128 126.7 125 123.6 121.2 119.6 118.5 117.1 115.9 114.5 113 112.1 109.9
152.7 152.9 152.7 151 149.1 139.5 143.9 150.4 154 157.1 161.2 165.3 163.4 159.7 156 151.3 146 141.3 136.8 134.1 136.3 138.7 137.2 136.9 134.3 130.5 126.8 125.7 124.2 123.6 125.6 128.5 131.4 134.8 139.2 144.4 148.5 151 153.2 157.6 164.4 177 193.6 199.2 199.2 200.9 201.9 202.4 201 201.4 201.7 202.3 204.6 210.2 213 212.2 211.4 211.4 210.7 210.5 209.6 208.8 207.7 207.8 207.8 205.3 204.9 203 201.7 201 201 198.6 193.2 184 179 173.3 170.2 170.5 170.3 169.2 166.6 164.1 159.1 155.5 153.4 151.4 149.2 146.5 145.2 144.4 142.7 141.3 137.7 138.2 141.8 144.6 143.3 144.4 148.1 147.2 145.2 142.3 138.5 138.3 138 137.1 137.1 138.8 140.2 143.5 145 148.1 155.4 160.9 162.9 163.2 163.2 163.5 163.5 163.5 162.9 162.7 162 160.2 158.9 153.2 147.1 136 128.7 123.5 121 118.6 115.9 112.6 112.3 112.5 112.2 116.1 120.2 129.2 140.4 147.3 151.8 153.5 154.9 155.2 156.4 157.4 157.7 157.1 156.6 157 155.8 155.1 155.4 154.7 153.8 153.1 152.6 152.6 151.6 150.6 150.4 150.2 148.9 147.6 147.2 145.8 144.7 143.9 143.2 142.3 141 140 139.1 137.7 136.1 134.9 133.4 131.4 131.7 132.9 133.3 131.5 129.5 128.9 127.4 126.5 124.8 123.6 121.4 119.5 118 117.2 116.5 114.5 113.8 111.3 110.2 109
148.5 150 149.9 149.2 149.1 146.7 146.6 152.9 157.3 162.4 167.6 168.8 165.9 161.4 156.6 151.7 147.2 143.8 138.1 137.4 138.8 141.4 142 139.8 136.6 132.8 128.5 129 126.4 125.6 124.2 126.1 128.6 132.4 136.8 140.6 142.1 145.8 152.2 159 170.5 184.4 194 197 193.8 192.7 191 190.1 187.8 186.6 189.2 192.2 197 208.6 211.6 211 210.8 210.2 209.6 209.1 208.4 207.6 206.8 206.1 207.1 207.8 205.4 200.9 200 199.6 199.4 197.4 186.8 181.9 176.3 174.4 177 179.1 176.7 173.8 169.6 166.1 162.2 159.2 157.8 156 153.9 152.1 147.4 144.2 142.4 140.2 138.8 141.3 145.5 149.5 152.1 154.4 154.4 154.7 153.8 151.8 150.2 150.1 149.9 147.7 148.7 149.8 151.6 152.9 157.6 159.2 161.7 165.2 166.2 166.7 166.6 165.1 165.1 165.4 165.3 164 162.7 162.8 159.1 150.7 140.3 133.2 126.9 123.9 120.3 117.6 115 113 113.1 112.5 112.7 117 122.5 132.6 143.4 149.1 152.3 154.1 154.7 155 155.9 155.5 155.2 155.8 153.3 152.7 153.2 152.6 153.4 153.3 152.7 152.1 152.2 151.3 150.6 150.6 148.9 149.1 148.4 147.6 146.4 145.1 143.8 142.7 142.1 140.8 139.5 139 137.9 136.5 135.3 134.2 132.8 130.9 130 131.1 130.2 128.7 127.6 127 125.3 123.4 122.1 120.9 119.4 118 116.8 115.8 114.5 113.5 112.4 110.8 109.4 108.9
144.9 146.1 146.7 147.8 149.1 149 148.9 154.6 159.4 166.9 173.6 171.7 167.8 165 159.5 154.5 151.2 145.1 138.6 144.9 143.4 142.6 143.2 141.5 139.5 134.7 130.6 131.7 130 126.7 126.5 123.6 127.9 130.7 133.1 136.9 140.4 146.6 153.7 164.9 178 189.2 192.6 192.2 187 181.7 179.7 182.7 177.7 178.9 183.5 187.7 191.3 206.2 209.9 209.4 209.1 208.9 208.4 207.9 207.3 206.6 205.9 205.2 205 204.6 203.3 200.9 197.7 196.8 194.5 192.5 188.2 183.2 179.8 183.7 189.2 190.8 189.1 185.4 177.5 171.8 167.9 165.2 162.2 158.9 158.3 153.5 148.3 144.8 142.5 140.4 141.3 144.9 149.6 157.2 164 166.6 166.3 166.8 166.7 163.2 161.2 160.4 161.8 163.1 162.5 163.8 163.9 162.9 164.7 165.1 166.7 168.6 169.1 168.6 168 166.3 166.3 165.3 164.9 165.2 163.9 160.8 154.9 144.4 134.5 129.6 125.4 122.8 118.8 116.7 114.2 112 113.3 113.1 112.8 119.5 125.7 138.2 146.2 150.5 152.1 152.9 153.5 154.4 154.9 154.2 154.1 153.4 152.7 151.8 151.4 151.5 151.5 151.3 151 151.1 149.8 148.4 148.1 147.7 146.8 146.5 145.8 145 144.7 142.7 142.2 141.2 140.3 139.2 138 137.3 136.6 135.4 134.4 133.3 132.1 130.1 128.2 128.8 127.4 125.9 124.9 123 122.1 121 119.5 118.6 117.3 116.1 114.9 114 113.1 111.9 111.3 110.4 110.5 108.4
140.5 144.2 145.2 149.4 153.1 154 155.4 159.1 164.5 170.4 176.1 173.5 168.7 164.7 161.5 158.1 151 143.8 144.6 148.1 148.1 145.8 145.9 144.5 140.4 134.5 135.3 134.8 132.8 130.4 127.1 125.5 127.1 130.7 133.6 137.4 142 148.7 156.1 164.8 177.1 185.2 189 188.4 183.5 177 174 177.6 173 171.5 175 180.7 190 205.5 208.2 208.1 208 207.8 207.3 206.8 206.3 205.5 204.9 204.4 203.4 202.7 200.9 200.5 199.5 198.3 194.7 190.7 186.8 184.8 189.5 192.7 191.9 192.6 191.5 190.1 186.8 182.3 178.2 173.9 170.4 166 161.6 155.3 148.9 146.5 142.3 140.3 143.7 149.8 156.7 167.4 173.3 172.7 174.2 172.9 172.6 171.4 169.5 169.9 169.8 169.1 168.7 168.6 169.1 169.1 168.5 169.1 169.9 170.1 169.9 168.4 167.4 167 166.4 165 163.5 163.8 162.6 157 146.3 137.1 132.3 128.2 124.9 122 118.5 116.7 115 113.1 113.1 112.6 114.8 123.4 132.8 143.3 148.2 150.5 151.8 152.4 152.7 152.4 152.4 152 151.8 151.4 151.1 150.6 149.9 149.7 149.9 150.1 149.4 149.5 148 146.4 145.7 146.1 145.2 144.2 143.5 143.4 142.8 140.9 140.1 139.4 138.2 137.6 136.4 134.8 133.8 132.6 132.1 131.1 130.1 128.7 125.6 125 125.2 123.4 122.5 120.8 120.3 118.3 117.6 116.4 115.2 114 113.1 112.7 111.7 111.6 111.6 111.2 110.9 109.5
145.7 145 150.7 154.1 158.2 160.3 161 164.5 171.8 178.5 179 174.8 170.3 165.5 161.9 156.9 149.3 142.8 149.5 152.9 151.4 149.4 148.5 146.1 139.6 139.3 140.1 139.8 137.2 133.9 129.9 126.5 125.7 129.7 133.3 136.8 141.1 147.1 155.9 162.8 172.1 179.3 180.4 182 182.8 173.2 169 170.9 170.7 168.1 174.7 182.4 195.3 205 206.3 206.8 206.5 206.6 206.2 205.7 205.1 204.2 203.6 203.1 202.2 201.4 201.1 200.1 199 197.8 195.9 193.2 191.7 193.3 193.3 193.2 192.3 191.8 191.3 190.8 188.5 187.7 185.7 183.9 183.1 179.7 167.9 156.4 150.6 145.2 143.3 141.3 146.6 155.4 167.8 175.3 177 176.4 175.8 175.2 174.5 174.3 173.5 173.2 172.8 171.9 172 171.8 172 170.3 170.4 170.8 170.5 170.1 169.7 168.4 166.9 165.6 164.5 163.5 162.2 162.4 158 147.9 137.4 132.8 128.8 124.7 124.8 123.1 118.7 117 114.9 113.4 112.5 112.6 118.4 128.2 139.5 146.4 148.4 150.4 151.2 151.6 152 151.4 151.1 150.3 150.2 149.6 149.2 148.5 148 147.2 146.8 147.6 146.8 146.7 145.6 144.3 143.9 144.4 143.1 142.6 141.1 141.4 140.3 139 138.5 137.3 136 134.8 133.6 132.5 131.3 130.2 129.3 128.5 127.5 125.8 124.3 122.4 122.4 121.7 120.5 119.1 117.8 117.6 116 114.6 113.7 113.3 112.7 112.3 112.3 112.6 111.7 111.6 110.3 109.8
149.4 147.9 155.5 159.4 163.4 167.4 169.9 173.5 179 184.2 181.2 177.5 171.5 162.9 156.9 152.2 147 146.5 151.8 156.1 155.5 152.3 149.1 143.7 142.9 144.7 144.9 143.3 140 136.2 132.4 128 126.7 128.6 132.1 134 138.3 146 154.3 161.7 165.9 169.3 173.3 174.5 178.3 177.8 168.9 164.2 164.8 167.7 175.6 188.6 199.6 201.7 204.1 205 205.1 205 204.5 204.1 203.6 203.1 202.4 201.8 201.2 200.3 199.5 198.7 197.7 196.6 196 194.1 193.9 194 193.6 193.3 192.4 191.1 190.5 189.9 188.4 187 186.2 184.6 182.8 180.9 171.3 159.8 151.1 143 142.3 143.1 149.5 158 174.3 177 177.5 177.2 176.4 175.8 175.3 175.1 174.7 173.8 173.4 173 172.8 172.8 172.3 171.2 171.1 170.8 170 169.5 168.9 168.1 166.9 164.7 163 161.1 159.2 155.4 148 139.5 133.2 128.9 126.8 125.6 125.8 128.9 120 118 113.5 113 113.1 113.2 121.1 135.1 144.4 147.7 149 149.9 150.5 150.8 150.4 150.5 149.9 149.4 149 148.4 148.1 147.1 146 144.8 145 144.5 144.7 143.8 143.2 142 141.2 142.3 141.7 141.2 139.4 139.2 138.3 137 136.1 135 134.1 132.3 131.4 130.3 129.3 128.2 126.8 125.4 124.9 123.5 122.1 121.1 121.3 120 118.8 117.7 117.1 116.6 115 114 113.8 114.4 114 113.7 113 112.6 112 111.2 110.4 109.5
154.3 153.2 158.4 164.1 165.3 174.5 182.4 186.4 187.3 185.2 182.8 179.6 169.5 160.9 156.6 154 151.9 152.2 152.5 158.1 159.8 156.2 149 147.6 148.1 150.9 148.4 145.7 141.7 137.6 133.3 128.9 127.9 128.7 131 134.9 140.3 148.3 156.2 160.3 159.8 161 166.1 169 171 169.5 165.7 160.5 161.2 167.2 177 191.1 198.1 200.2 201.8 202.9 203.3 203.8 203.5 203.2 202.6 201.8 201.2 200.7 200.1 199.4 198.1 197.3 196.6 195.4 194.7 194.1 193.7 193.1 192.6 192.4 191.8 190.8 189.5 188.6 186.9 185.9 185.3 184.2 182 178.7 171.6 158.5 152.7 146.6 144.3 144 151.7 165.5 176.2 177.2 177.2 177.1 176.6 175.9 175.4 174.9 174.2 174.1 173.8 173.3 172.8 172.3 171.6 171.1 170.7 170.2 169.4 168.6 167.8 167 166.2 164.5 161.9 157 153.3 145.4 139.1 134.4 130.5 129.5 129.5 130.7 132 129.2 122.3 118 112.7 112.7 113.2 113.6 121.6 137.9 144.4 147.2 148.5 149.3 149.4 149 149.4 148.7 148.1 147.4 146.8 146.3 145.7 145.2 144 142.9 142.2 142.7 141.1 141.1 141 140.1 139.8 139.3 139.4 138.4 136.9 136.6 136 135.1 134.2 133.2 132.3 130.5 129.1 128.1 126.7 126.2 124.8 123.6 122.6 121.6 120.6 119.9 119.1 119.2 117 116.6 116 115.1 114.3 113.7 114.2 114.8 114.9 114.2 112.9 112.3 111.5 110.5 109.5 109.4
159.5 160.5 159.3 163.1 170.3 177.4 185.4 192.7 197.9 196.2 186.4 180.1 169.7 163.6 165 161.3 156.9 159.2 158.1 163 163.7 160.6 154 153.5 152.4 153.2 151.8 147.1 142.7 138.3 133.9 130.3 129.5 128.1 131.4 134.6 140.3 146.3 154.6 156.2 155.8 156.7 160.9 163.8 165.3 163.2 160.8 157.1 161.4 168.6 180.9 194.4 197.5 197.7 199.2 200 201 201.8 202.2 201.8 201.1 200.4 200 199.5 198.6 198.1 196.9 195.7 194.5 194.1 194.1 193.1 192.5 192 190.1 190.6 190.3 188.8 187.1 186.4 185.6 184.7 183.4 181.5 181 177.4 169.4 158 153.4 149.8 144.3 146.5 155.4 174.7 176.5 176.8 176.7 176.3 175.9 175.3 174.6 174.1 173.5 173.1 172.8 172.4 171.8 171.3 170.6 169.9 169.4 168.8 168.1 167.3 166.5 165.7 165 163.1 159.5 155 146.2 143.3 135.5 133 132.5 134.3 138.2 143.5 144.3 133 125.1 118.9 113.2 113.2 113.3 113.5 119.4 134.2 144.2 146.1 147.7 147.9 147.8 147.4 147.3 146.9 146.5 145.6 145.2 144.1 143.5 142.8 142 140.9 140 139.3 138.5 138.5 138.5 137.8 137.5 137.1 136 135.6 134.5 133.8 133.7 133 132.3 131.4 130.2 129 127.5 126.4 124.7 124.3 123.3 122.3 121.1 120 119.2 118.1 117.5 116.9 115.9 115.4 115 114.5 114.4 113.9 114.1 115 115.1 114.7 113.2 111.9 111.1 110.3 109 108.5
158 162.3 166.9 170.9 174.6 178.9 186.2 195.5 205.7 200.3 195.7 187.8 178.6 172.2 174.4 169.2 162.9 167.9 164.4 167.1 167.9 163.4 158.1 160.2 157.4 155.8 152 148.8 143.2 139.1 135.9 133 130.2 129.6 132 134 137.8 143.5 149.6 152 149.7 149.8 152.2 156.6 158.3 156.2 154.7 156.7 165.4 173.8 181.7 193.9 196.4 194.1 196.8 197.7 198.3 199.3 200 200.1 199.5 199 198.7 197.8 197.2 196.6 195.7 194.5 193.2 192 192.2 191.8 191.2 190.4 188.5 188.7 188.4 186.8 185.7 184.6 184.9 183 182.5 180.4 177.7 169.3 160.5 156 153.2 148.6 145.2 150.4 164.8 175 175.6 175.9 175.5 175.2 174.9 174.3 173.6 173.1 172.6 172 171.5 171.1 170.5 169.8 169.1 168.4 167.8 167.2 166.6 165.9 165 164.1 162.8 160 152.9 145.1 141 138.2 136.1 137.1 141.6 147.2 149.8 148.4 145.1 136.1 125.9 120 113.3 113.1 113.5 113.8 116.5 127.1 141 144.2 146.4 146.4 146 146 145.3 145.3 144.9 144.1 142.8 141.9 141 140.3 139.4 138.6 138 137.3 136.1 135.9 135.8 135.4 135 134.4 133.5 132.7 131.9 131.3 131.1 130.8 130 129.1 128.1 127.5 126.3 125.3 123.3 122.4 121.9 120.9 119.7 118.8 117.6 117.2 116.8 116.8 116.1 115.3 115 114.5 114.7 114 114.1 114.2 114.2 113.4 112.9 111.1 110.3 109.5 108.9 108.5
156.6 161.5 167.9 172.5 179.2 184.6 187.7 196.4 206.3 204.8 200.3 191.2 183.4 182.3 181.2 174.5 172.4 173.3 169.6 169.4 170.4 166.6 165.3 161.5 159.6 155.9 153.8 148.6 144.6 141.5 137.6 135.3 131.3 130.2 131 134.1 136 137.4 140 144.4 144.2 143.3 146.6 149.6 150.5 150 153.6 156.7 166.2 170.5 182.7 193.5 194.3 189.3 194.5 195.8 196.3 196.6 197.3 197.9 198.1 197.6 197.3 196.7 196.1 195.2 194.3 193.2 192.1 190.7 190.3 189.5 188.8 188.3 186.7 186.7 186 185.7 185 184.3 183.4 181.7 181.5 177.5 169.1 159.8 155 152.5 150.5 145.5 149.1 157.1 173.4 175.2 174.9 174.7 174.2 173.8 173.3 173.3 172.6 172.1 171.2 170.6 170 169.6 169 168.2 167.4 166.7 165.9 165.1 164.5 163.6 162.6 161.3 159.2 155.5 147.8 142.8 140.2 139.3 142.6 149.3 151.8 152.2 151.8 149.1 144.1 140.4 128.7 120.3 113.9 113.6 114 114 115.7 122.3 136.3 142.8 144.9 145 144.3 144.2 143.9 143.2 142.5 141.8 140.3 139.4 138.6 137.8 137 136.3 135.6 135 133.6 133.2 133.1 133.7 132.4 131.9 131.3 130.5 129.8 129.1 128.4 128.5 127.7 126.8 126 125.2 124.3 123.3 121.8 120.8 119.7 119.8 118.7 118.3 117.6 117 117 118.6 117 116.1 115.1 114.8 114.8 114.3 113.9 113.2 112.6 112.5 111.6 110.7 109.9 109.7 109.3 108.9
160.3 160.8 166.9 171.6 178.6 186.1 192.4 198.3 210 209.3 202.4 194.5 191.2 190.4 185 180.2 178.7 177.4 177.7 177.7 174.3 170.5 167.9 161.2 159.7 158.8 154 150.7 146.2 142.3 139.9 136.6 131.3 131.7 132.8 134.2 136 138 140.2 141.6 142.7 143.7 145.2 146.2 146.4 149.8 152.1 155.3 162.5 170 184.5 193.1 189.6 181.4 192.8 194.1 194.4 194.7 195 195.4 196 196.2 195.9 195.3 194.7 193.7 192.8 192 191.2 190.3 188.7 187.4 185.5 184.6 184.3 183.1 183 182.8 182.8 182.2 181.2 180.2 177.5 169.6 160.1 156.2 152.5 149.1 147 148.8 156.8 169.2 174.4 174.9 174.3 173.6 173.1 172.5 171.9 171.4 170.9 170.4 169.7 169 168.3 167.9 167.2 166.3 165.5 164.8 163.9 162.8 162.1 160.3 158.5 157.1 154.2 149.5 145.6 142.6 143.2 148.2 151.1 153.4 153.4 152.6 151.1 149 145 141.7 134.2 122.6 115 113.7 113.8 114.2 114.7 119.4 131.8 141.3 142.8 143.5 142.5 142.2 141.8 141.1 140.1 139.3 138.3 136.9 136.6 135.1 134.6 134 133.3 132.7 132.3 131.6 131.2 131 130.4 130 129.5 129.1 128 127.2 126.7 126.2 125.4 125 124.2 122.9 122.4 121.7 121 120.4 119.7 119.8 119 119.1 118.4 117.9 117.7 117 117.3 116.3 115.7 115.3 115 114.1 113.6 113.2 112.3 111.6 111.1 110.5 110.6 110.1 109.5 109.5
162.6 163.5 165.7 170.2 175.5 183.4 193.6 202.4 210.5 213.4 207.7 201.6 199.3 197 192.6 190.4 190.1 185.8 185.3 182.1 178.7 174.6 170.1 164.7 159.9 158.8 152.7 149.2 146.4 142.7 138.3 136.5 132.6 133.9 136 140.2 140.5 141.5 144.2 145.3 146.8 149.1 146.9 148.7 148.4 148.9 150.1 153.4 160.7 168.2 181.6 186.7 179.8 180 191.9 192.7 192.9 193.2 193.2 193.1 193.6 194.1 194.4 194 193.5 192.7 191.4 190.5 189.6 188.8 188.2 186.8 185.6 183.6 181 176.9 176.1 176.8 179.1 179.8 179.1 176.5 169.5 161 157.4 153.6 149.2 148.3 150.8 158.7 168.3 173.1 173.7 173.5 173.3 172.6 172.1 171.5 170.9 170.1 169.6 169.2 168.6 167.7 166.9 166.3 165.4 164.5 163.7 162.8 161.8 160.7 159.2 157.5 155.2 152.8 150.1 147.5 145.2 147.9 152.9 154.5 154.9 153.3 151.4 150.7 150.1 148.5 145.9 142.6 134.1 125.6 118.7 114.1 114 114 114.8 117.2 128.9 139.1 140.6 141.3 140.6 140.2 139.8 139 137.9 136.9 136.2 135.1 134.9 133 132.6 132.1 131.1 130.6 130.2 129.4 129 128.6 129 128.9 128.7 128.1 127.3 126.1 124.9 125.1 124 123.6 122.6 121.8 121.5 121.3 120.9 120.5 120.4 120.4 120 119.6 119.3 118.7 118 118.1 118.6 116.9 116.3 115.8 115.5 114.5 113.6 112.6 112.2 111.7 111.2 110.9 110.8 110.6 110.5 110.7
162.8 164.2 166.7 171.5 174.9 182.8 192.7 201.4 210 217 214 209.3 206.2 204 200.8 198.3 198 195.4 192.5 187.5 183.5 179 171.4 166.1 163.3 158.8 152.6 149 144.2 143.1 139.7 134.3 134.5 135.7 139.7 146.8 149.1 149.8 152.1 154.2 152.9 159.6 152.7 151 151.6 152.5 152.7 153.3 156.5 162.7 169.2 171.3 172.2 176.6 185.9 190.5 191.9 192 192 191.3 191.2 191.8 192.6 192.6 192.3 191.4 190.5 189.2 188 187.3 186.7 185.6 184.9 183.9 182.7 181 176.4 171.6 170.3 175.9 177.3 174.3 161.8 157.5 153.8 150.5 149.8 153.8 162.9 171.2 172.8 172.8 172.6 172.4 172.2 171.7 171.1 170.5 169.7 169 168.4 168 167.4 166.6 165.8 164.6 163.6 162.9 162.6 161.8 160.9 159.7 158.4 156.6 155.4 154 152 148.4 148.4 153.1 155 155.4 155 154 151.3 149.5 148.3 147.4 145.6 143 139.4 128.5 119.7 115.7 114.5 114.2 114.5 116.3 124.8 137.8 139.1 139.2 138.5 137.9 137.4 136.2 135 134.1 133.6 132.8 132.2 131.4 130.8 130.1 129.4 128.5 128.1 127.2 127.1 127.2 127.5 128.2 128.6 127.7 126.9 126 125.1 124.3 123.6 123.2 122.5 122.2 122.3 122.1 121.5 121.3 121.2 120.9 120.9 120.7 120.4 119.8 119.2 118.9 118.7 118.4 117.5 116.6 115.4 114.6 113.6 113 112.7 112.2 111.8 111.7 111.8 112.5 112.5 112.6
158.9 163.5 167.3 172.1 176.5 183.5 192.1 201.7 208.7 215.9 218.9 215.2 212.3 209.8 208.8 208.5 203.7 202.9 198 191.9 186.8 179.9 172.4 166.6 163.1 158.8 153.6 150.8 147.8 143.8 139.4 134.3 135.4 137.8 142.3 151.3 155.5 158.8 159.1 160.1 162.6 164 161 163 158.5 159.5 157.4 157.3 155.4 158.7 162.2 167.2 171.4 179.6 188.6 191 191.1 191.1 190.8 190 188.6 188.9 189.9 190.6 190.4 190 189 187.5 186.3 185.5 184.6 184.4 183.8 182.7 181.9 180.9 179.6 174.5 167.2 164.8 170.9 166.9 158.8 154.7 151 151.6 158.1 168.1 171.9 172.2 172.2 171.6 171.4 171.2 171.2 170.7 170.1 169.5 168.7 168 167.4 166.9 166.2 165.5 164.5 163.4 162.4 161.8 161.4 161 160.3 159.5 158.7 157.8 156.9 155.8 153.8 149.2 150.7 153.3 154.6 154.6 153.9 153 151.7 149.1 147.2 146.1 145.1 143.3 140.2 128.2 121.1 117 114.4 114.3 114.1 116 122.6 136.4 137.2 137.4 136.3 135.6 134.7 133.3 132.5 132.1 131.5 130.6 130.3 129.6 128.9 128.7 127.7 126.9 126.1 126.1 126.4 127 127.7 128.3 128.4 128.1 127.9 126.8 125.9 124.9 124.6 124.4 124.1 123.9 124.1 123.7 123.2 122.8 123.3 123 122.7 122.2 121.8 121.5 120.7 120.1 119.5 120.4 118.8 117.4 116.7 115.1 114 113.6 113.3 113.3 113.4 113.9 115 116.3 116.8 117.5
