ncols 200
nrows 82
xllcorner 390000
yllcorner 422400
cellsize 50
231.5 251.6 255.7 255.8 269 280.1 281.1 257.2 245.1 242.3 233.8 237.7 250.2 262.8 248.4 225.1 201.6 212.3 219.8 229.3 241 253.6 263.4 270.3 266.7 270.2 278.8 274.6 264 252.4 263.5 267.1 274.1 288.8 308.9 311.6 314.7 309.9 296.6 289.9 304.1 312.3 322.8 328 332.7 335.9 339 335.7 335 334.9 335.7 335.9 338.5 349.3 356.3 362.2 368.2 376.4 383.5 387.6 391.3 394.1 397 399.5 401.1 402.8 404.4 405.5 406.3 407.5 408.9 409.8 410.7 410.2 409.2 406.6 403.1 400.7 400.5 401 401.2 400.6 400.1 399.7 399.6 400.5 401.5 402.4 402.3 402.6 402 400.1 398.4 393.6 387.9 383.4 380.7 377.3 375.6 374.6 373 373.5 374.9 376.9 379.4 383.8 380.4 373.2 368.9 363.1 358.3 354.6 349.7 345.5 343.2 338.5 333.4 328.3 322.4 316.6 310.3 306.7 299.7 294.7 290.6 284.6 272.8 258.3 243.7 210 185.4 159.4 140.6 152.1 158.3 152.7 145.4 137 131.2 127.2 128.3 118.8 116.9 108 106.5 109 110.1 125.6 140.3 153.5 158.2 159.1 161.6 164.8 168.9 174.5 176.7 177.5 182.3 164.5 162 183.6 205.5 225.5 230.4 232.9 237.6 241.8 246.9 252.9 260.6 263.5 264.1 264.6 265.3 265.1 264.3 262.5 260.1 257.7 254 248.5 242.3 237.4 230.4 224.9 217.8 214.4 210 206.5 202.5 196.6 190.6 184 177 169.9 161 148.7 134 116.3
229.1 245.7 250.3 254.9 267.6 271.6 266 243.8 223.8 216.3 212.4 211.4 219.5 226.7 228.4 214.8 196.2 202.5 220.9 231.7 243 239.5 242.3 244.1 247.3 256.2 254.3 241.7 237.7 249.7 253.1 255.7 276.1 282.7 290.9 305.9 310.1 301.1 275.7 288.6 302.3 310 318.3 326.3 330.3 331.8 332.6 329 326.5 323.9 321.7 324.2 333.6 343.2 352 356.9 363.4 371.1 380 385.9 391.6 394.7 397.1 397.9 398.9 399.7 402.1 404.1 406.3 408.4 409.2 410 410.8 410 408.3 405.3 401.1 398.9 397.5 398.6 399.1 399.2 398.8 398.9 400.1 401.2 401.1 401.2 400.3 401.6 399.9 398.4 396 391.8 386.7 383.2 380.7 377.8 373.5 370.4 368 368.5 371.2 374.6 376.4 376 375.7 372.3 366.9 360.2 355.4 350 344.5 340.8 336.4 333.1 330.9 325.7 320.4 317.5 312.5 310 301.2 297.3 291.2 283 274.1 261.8 248.2 222.4 194.8 172.8 147.3 134.4 134.5 133.6 128.7 123.3 118.2 116.3 114.8 117.1 108.2 105.7 108.4 112.4 126.5 141.9 154.1 163.9 167.5 170.7 174.8 179.6 185.5 193.3 197 194.2 190.1 179.2 176.1 195.6 216.1 226 230 233.1 237.5 242.6 248 254.7 262.8 266.5 267.6 268.1 268 268 268.1 264.8 262.8 261.6 257.9 253.9 249.8 244.2 237.6 231.1 224.5 218.3 212.6 206.5 200.8 194.4 186.7 179 171.8 165 157.2 150.2 143 134.4
227.9 231.8 233.8 245.9 258.6 260.5 247.2 226.3 209.8 205.9 201 195.8 196.5 196.9 202.6 192.4 194 203.7 215.9 233.2 232.1 223.6 220.9 220.7 223.7 228.6 227.4 224.4 235.8 241.5 244.1 251.7 264.2 274.7 288.2 301.6 306.4 292.4 271.2 288.5 299.8 306.4 313.1 321.7 327.3 328.1 327.1 321 314.4 311.3 309.1 311.5 325.3 338.1 345.5 350.7 357.1 365.2 377.6 384.1 387.7 387.6 387.3 387.1 391.3 398 400.2 405 408 408.8 409.6 410.4 410.2 408.5 406.5 402.4 398.8 395.4 393.4 393.6 394.9 396 397.5 396.3 398.3 399 398.5 397.2 396.5 396.7 395.4 393.9 392.1 388.6 386.1 383.3 380.7 375.6 370.4 365.6 362.6 363.9 366.4 368.5 367.6 365.6 361.2 358.6 356.3 351.9 348.3 344 338.5 335.3 331.6 327.3 322.6 319.3 316.3 315.6 310.8 306.5 300.3 295.6 287 279.9 272.4 262.2 251.5 236.3 207.6 188.1 165.9 142.5 129.2 121.6 123.3 118.8 115.3 113.9 117.8 108.8 108.4 110.6 110.8 125.9 141.5 158.4 169.8 174.2 178.5 183.4 194.8 205 215 222 222.9 205.8 198.7 187.5 191.3 206.6 220.3 227.3 230.9 234.2 237.4 243.3 248.4 255.8 262.9 267 269.1 270 270.2 270.6 270.5 270 268.7 265.2 261.4 258.2 254.9 249.9 243.6 237.3 230 224.1 216.4 208.3 200.8 189.1 184.6 177.9 169.5 163.2 155.1 148.8 142.2 135.9
212.6 219.1 222.6 237.3 244.7 239.8 233.6 207.6 196.2 197.8 193.2 190.8 189.7 189.7 191.1 190.3 192.3 197.6 203 207.7 212.6 210.8 204.4 197.8 200.7 204.5 207.5 216.4 228.3 233.1 237.7 251.1 260.2 274.1 289 298.6 303.2 294.1 263.7 282.1 295.5 303 309.8 317 323 323.8 318.1 308.8 303.4 300.9 299.4 300.3 311.4 325.4 336 341.2 350.1 359.9 370.3 371.5 367.3 369.2 372 375.9 378.6 381.2 385.6 391.3 409.1 410.7 408.9 407.9 407.2 406.2 404.1 400.5 397 393.3 386.8 388.2 388 389.7 394 392.6 393.5 393.5 393 391.6 392.5 392 391.3 390.5 388.9 387.3 385.3 382.7 375.5 370.1 364.5 360.3 355.4 357.8 359.7 359.6 357.4 352.9 349.8 347.5 344.5 340.9 336.8 334.9 331.7 327.9 324.6 321 315.8 312.9 312.2 310.9 308.6 303.8 296.9 290.2 282.4 277 269.6 261.4 251.5 241.6 228 208 186.6 165 146.3 139.7 141.6 130.7 114.6 118.8 110 109.4 109.1 110.3 119.8 138.3 158.5 180.4 186.4 190.5 196 209.1 224.3 235.1 239.1 239.2 234.7 224.8 207.6 192.3 207 217.6 223.5 227.6 231.4 235.5 239.7 244.2 248.4 256.4 263 267.2 269.5 270.9 271.3 272.1 272.7 273.7 274.2 271.9 267 261.1 257.1 252.6 247.8 243 237 229.3 221.8 212.2 203.5 192.4 185.7 178.3 170.2 161.8 154 147.6 142.6 136.1
205.1 208.5 211.5 227 238.7 231.3 215.5 196 195.7 192.8 192.2 190.7 191.6 192.6 188 187.4 187.9 186.7 185.8 185.1 184.3 188.1 189.4 183 187.3 192.3 202.7 208.3 212 229.3 224.8 234.8 245.2 263.1 276.9 287.1 299.8 294.8 268.9 262.5 287.6 295.4 303.7 309.4 318 322.7 307.3 298.9 294.5 292 289.4 291.7 303 314.3 323.6 327.1 334.5 343.5 348.1 350.4 352.9 356.1 359.4 362 365.7 370.8 376.9 385 397.5 405.7 404.4 404.4 402.8 402.9 402.6 400 396.7 391.6 386.2 381.4 381.4 381.4 386.5 387.3 386.2 385.3 386 385.2 384.8 386.1 385.8 387.1 386.2 386.1 383.4 376.4 370.5 363.3 358.3 353.9 350.2 350.8 351.4 350.4 348 344.6 340.4 336.8 331.4 330 326.9 323.8 321 317.5 316.2 313.4 309.7 308 306.4 304.6 302.4 300.2 290.4 284.7 279.6 274.2 266.8 259.6 250.7 240.7 231.2 221.2 207.1 184.8 167.5 155.1 140.6 123.1 115.5 112.3 110.3 109.5 110.4 114.3 129 152.7 177 217.1 215.6 216 221.9 230.4 238.8 241.9 242.3 241.8 237.9 231.6 218.2 197.4 211.5 222.3 225.8 229.1 232.6 237 240.5 245.5 252 258.1 263.1 266.1 268.6 270.7 273.8 275.6 276.6 279.3 279.7 277.3 275 269.2 260.3 255.5 249.9 244.7 240.6 235.8 227 217.9 209.4 198.3 188.9 180.2 170.1 161.3 152.5 146.9 141.6 136.4
203.2 203.6 203.4 202.8 203.9 207 199.5 200.3 199.9 200.6 205.8 202.7 196.3 195.8 189.7 189.3 187.8 185.8 184.8 183.7 182.8 181.9 181 180.7 182.6 187.5 194.6 191.6 194.7 201.6 209.8 222.4 237 250.2 260.1 273.1 286.1 298.7 291.4 253.9 264 280.6 287 299.9 307.3 312.7 296.7 290.4 286.9 285.6 282.3 284.3 294 306.3 311.6 312.4 317.1 325.5 331.2 336.7 342.1 346 349.3 353 357.6 363.7 370 378.1 384.9 392.1 397.9 398.2 395.9 396.9 396.8 397.7 394.7 390.2 384.1 370.7 373.4 372.3 374.4 376.6 376.7 375.4 375.7 376.2 376.5 378 377.7 378.7 381.2 372.8 372.1 366.6 360.7 355.5 350.5 346.1 342.3 341.8 342.3 341.3 338.3 334.6 330.2 324.9 320.8 318.5 315.3 311.4 309.7 308.3 305.6 304.3 301.3 297.2 295.6 294.8 294.7 294 285.5 279.3 274.2 270.3 263.8 256.9 247.1 238.7 229.5 222.6 216 190.1 173.3 149.2 136.9 122.2 115.1 111.3 110.5 110.5 111.7 120.9 140.5 164.5 197.9 220.5 221.6 224.4 230.7 236.8 242.2 244.6 244.8 243.3 239.7 235.4 226.3 207.3 212.4 223.4 226.8 230 233.4 238.1 242.5 247.9 254.1 259.8 264.7 267.3 269.3 271.7 274.6 277.9 282.3 286.6 286.4 284.6 281.9 275.9 269.6 261.7 254 247.3 241.6 237.2 230.5 222.9 214.7 204.5 194.3 183.3 172.7 162.4 151.6 145.6 140.3 135.9
202 201.3 201.1 202.3 200.6 197.7 199.7 201.1 203.4 218.1 230.9 235 223.9 216.5 211 205.3 196.5 193.8 190.4 187.9 187.3 186.1 181.7 181.8 180.3 183.8 185.6 186.3 187.1 195 202.5 215.7 228.6 245.3 255.5 270.4 279.9 299.7 295.9 247.9 248.8 257.4 274.4 286.9 292.7 295.4 288.5 282.9 279.2 277.6 272.4 278.3 284.8 292.1 298.3 301.8 307.1 313.7 322 327.8 332.8 336.9 340.3 344.4 350.2 357.2 364.7 372.2 380 386.1 390.3 390.2 388.9 389.7 388.4 388.7 386 382.9 378.4 371.5 357.4 361.9 364.6 365.8 365.7 366 365.8 366.4 368.9 370 370.7 370.4 368.8 366.9 362 356.8 350.7 346.9 341.4 337.1 333.1 330.5 331.3 330.5 327.7 324.6 319.7 313.8 308.4 305.1 303.4 300.8 298.6 296 294.5 293.8 291.8 287.5 285.6 284.5 282.1 282.7 278.1 272.8 267.2 262.1 257.1 250.3 243.3 235.9 228.4 222.7 216.5 198.3 169.4 145.7 132.6 119.4 110.6 110.5 110.8 112.1 113.6 129.2 150.5 175.8 209.6 217.6 220.6 226.1 232.3 239.3 244 246.1 246.4 244.8 241.7 237.3 231.6 216.1 215.8 223.7 227.8 231.3 234.6 238.9 244.1 250.3 255.7 262.5 266 268.7 271.2 273.7 277.1 282.2 287.4 292.5 295.8 295.5 291.9 286.9 280.8 273 265.5 256.2 248.3 241 232.6 226.3 218.5 208.5 196.9 185.4 173 162.6 151.9 144.2 137.8 133
201.6 200.5 200.1 200.2 202.6 206 205.5 206.2 213.2 227.6 239.5 249.2 259.8 250.4 236.4 229.3 219.7 212.3 205.7 204.7 202.2 201.9 196.8 197.1 195.1 179.8 182.7 180 185 187.5 203.6 211.2 223.9 236.4 248.6 266.8 294.8 301.2 286.7 252.3 238.2 246.7 268 275.2 282.8 280.5 277.9 275.3 272.6 270.9 263 271.7 275.2 282.6 287 292.4 296.7 302.5 309 318 323.8 328.8 333.2 339.9 345.3 350.6 359.2 366.7 376.9 382 384.2 382.5 382.6 383 381.5 377.5 374.9 371.8 367.7 363.9 354.7 342.2 354.8 356.3 356.7 356.9 357.1 357.4 358.3 362 363.6 363.8 363.2 359.3 353.7 348.8 343.8 340.1 333.3 329 322.8 314.5 315.3 314.5 315 313.1 307.8 301.8 295.9 291.8 291.5 288.5 287.1 284.3 282.9 283.6 280.7 278.5 276.2 274.2 272.1 271.8 269.3 264.8 260.4 255.9 250.7 244.1 238.8 232.9 227.1 221.6 216.6 195 165.4 141.3 122.7 112 110.6 111.6 112.5 112.2 121.7 139.3 159.2 184.3 207.9 215.1 219.3 225.2 231.2 237.5 244.1 247.5 249.2 248.3 245.9 241.8 235.7 225.2 214.6 224.6 229.4 233 236.2 241 246.5 252.3 258.8 264.1 267.7 270.1 272.7 275.7 279.8 286.3 294.8 301.8 309 307.2 304.3 300.1 294.6 287.8 278.8 267.5 256.9 244.9 232.7 225.8 219.3 210.9 198.1 187.9 174.9 160.3 154 147.3 141.2 136.9
206.6 200.7 201.6 202.4 210.1 210.2 218.1 228.5 224.9 232.4 254.6 260.9 268 285.6 270.4 260.7 250.4 236.7 238.3 230.4 226 218.4 222.2 224.8 223.9 197.9 183.6 174.9 177.8 185.5 193.3 197.4 224.7 233.3 244.9 265.8 292.6 299.9 282 252.6 224.7 233.1 244.3 261.7 266.6 268.6 268.6 267.3 266.6 264.1 256 266 268.6 271 277.6 282.7 289 286.8 294.6 294.3 308.1 315.2 314.8 322.6 340.5 347.1 354.1 361.9 371.7 377 377.5 375.9 374.6 373.6 371.5 368.6 365.2 362 357.6 353.3 348.2 329.6 343.4 346.4 348 348.2 347.6 349.4 350.6 351.8 354.8 355.4 353.1 349.8 346.8 342.6 337.3 332.9 327.1 320.9 315.6 308.9 303.4 301.3 298.3 296.2 292.4 287.9 284.2 281.4 279.5 276.9 276 272.8 272.2 271.8 269.9 268 266.1 264.9 264.4 263.5 261.5 258.8 254.8 250.6 246.2 240.4 236.2 231 226.4 221.2 209.1 181.6 158.9 129.6 114.5 110.7 110.7 112.3 112.3 121.7 134.7 151.2 166.7 189.9 206.1 213 219.5 226.5 235 242 250 255 257.4 256.2 254.3 249.9 243.2 228.9 217 226 230.8 234.8 238.8 244.4 248.8 254.9 261.8 266.1 268.1 270.8 274.8 279.2 284.1 291.2 303.1 315.7 318.9 318.6 316.1 312.3 306.9 300.8 292.7 280.2 265 247.5 240.6 229.1 220.7 211.1 200.1 189.8 177.5 165 158.5 149.9 143.2 143.1
219.4 211 211.3 220.3 222.9 220 225.5 224.2 234.7 239.5 256.9 274.9 295.4 298.7 302.8 296.6 280.7 269.7 268.3 262.5 250.9 253 251 249.4 241.3 221.3 204.5 201.4 184.2 182.2 185.5 194.7 214.7 228.6 240.8 267.5 293.3 297.8 281.4 256.3 214.1 222.2 233.2 243.5 254.1 259.1 260.9 260.8 259.9 257.6 254.6 258.5 261.1 263.5 269.9 270.3 267.2 272.3 285 287 282.9 297 305.8 310.8 337.5 343.7 350.8 359.5 369.4 372.7 372.1 369.5 365.3 364.4 363.7 361.2 358 353.7 349.5 344.6 338.9 320.3 330.9 334.9 338.7 340.5 342 342.4 344.7 345 345.7 346.9 346.4 344.5 340.8 335.2 331 326.5 320.9 315.3 308.7 300.8 283.7 289.9 285.6 279.4 275.6 272.7 268 267.1 267.8 265.8 264.6 262.5 262 261.3 260.5 259.5 256.2 257.6 257.2 255.4 253.8 251.2 248.1 244.9 241.7 236.6 234.3 231 226.6 217.5 188.6 163.2 140 121 110.4 110.6 112.2 115 126.6 137.3 147.2 160.3 175.3 194.7 209.9 216.6 223.9 233.1 243.2 253.2 261.8 265.8 267.5 266.5 262.7 257.3 249.7 235.5 218.9 226.6 232.9 237.2 241.1 246 251.2 257.5 263.6 267.4 270.7 272.6 276.6 281.8 288.1 297.7 311.4 319 321.4 321 320 317.3 313.3 308.6 301.8 293.9 271 248.5 243 233.9 224.8 214 203.9 193.7 182.7 170.8 165.4 155.5 152.1 148.9
250.5 236.1 224.9 226 235.8 230.7 222.4 228.7 237.1 242.4 250.8 277 297 305.9 305.9 312.7 313.4 301.1 300.3 292.8 288.8 284.6 274.8 272.8 263 241.7 233.7 234.4 202.2 174.3 182.7 187.7 199.7 221.2 241.7 264.3 291.2 283.2 281.1 258 221.5 203.8 210.5 221.5 238 251.8 254.3 253.7 251.6 245.2 248.3 252.6 254.7 257.8 262.1 252.4 249.2 259 270.8 274.3 264.2 280.2 292.3 300 323.2 340 350 359.1 369.8 371.7 366.2 361.3 356.8 357.2 355.6 352.8 349.3 345.6 341.3 336.6 330.1 318.8 323.5 326 328 329.9 334.1 335.9 338.6 339.2 337.8 339.7 339.2 337.6 333.7 329.9 325.5 319.8 314.4 308.5 301.4 291.6 276.3 271.1 273.7 268.3 261.6 258.1 254.5 253.8 256.5 257.2 255.5 254.5 253.8 254.1 252.3 251.4 250.5 251.1 249.1 249.2 247.1 244.2 241 238.2 235 232.4 232.5 228.1 219.6 194.9 169.3 145.7 121.5 112.9 110.7 112.6 115.3 123.3 138.6 147.7 156.9 166.6 179.5 199.8 209.8 217.8 227 238.9 252.2 265.4 272.8 277 277.8 275.8 270.8 262.6 257.4 245.1 227.2 226.8 233.5 238.6 244.3 248.7 253.6 259.8 265.1 268.3 271.3 275.1 278.7 284.7 292.5 304.4 317.1 319.8 322.4 323 322.4 319.8 316.6 312.4 308.1 299.6 281.4 256.5 247 239.9 229.7 216.7 206.6 196.8 189.3 181.2 169.9 164.8 161.8 158.4
283.6 270.6 249.3 237 243.1 246.1 245.2 242.1 240.4 250.8 265.1 279 292.3 307.8 309.3 315.2 319.1 313.6 309.8 308.3 303.9 299.9 292.1 284.1 277.6 263.3 260.2 243.6 207.4 178.9 175.7 181 202.5 213.4 219.9 238.7 254.3 256.5 261.9 246.9 238.2 216.1 193.7 205.7 222.7 243.9 249.4 246.1 242.8 220.7 239.7 245.2 244.6 248.7 238.9 232.1 234.1 234.3 243.6 250.2 254.4 274.4 278.6 282 303.7 333.3 344.2 360.5 372.9 371.1 361.8 351.9 343 347.1 345 342.4 339.9 336.8 332.1 328.3 322.2 311.6 313.6 317 319.1 321.7 324.8 328.5 331.5 332.1 331.6 333.7 333.4 331 327.6 324.2 318.5 312.6 306.5 300.6 291.3 286.1 275.3 261 259.6 256.4 250.7 245.9 244.7 244.3 246.4 246.3 247.1 246.4 245.3 245.4 244.5 241.2 240.9 242.1 241.6 241.3 240.1 236.9 234.4 232.9 228.2 225.2 225 222.1 197.5 174.7 151.9 128.1 113.3 110.7 119.4 134.7 129.6 126.6 143.1 153.8 162.2 171.7 186.3 202.4 209.8 220.7 235 251 266.1 275.1 282.2 285.5 285.1 281.4 277 270.2 264.8 256 238.3 225.1 231.8 240.4 246.3 250.8 256.9 263.4 266.6 269.2 272.2 276.1 280.6 287.5 297.7 312 319.9 322.7 324 324.6 324 321.1 317.9 314.4 309.9 304.4 291.8 272 256.9 245.5 232 222.6 216.4 208.8 200.3 186.7 177.7 174.1 171 166.2
307.5 297.8 285 264.5 259.1 253.4 249.4 248.9 245.9 258 266.1 278 294 308.9 312.4 317.8 321.8 317 312.8 310.2 305.6 302.4 296 287.3 280.1 275.2 267.7 246.3 207.6 182.1 170 181.7 202 215.9 219.4 233.5 234.4 240.2 239.4 227.6 221.5 204.1 183.3 203.1 225.6 242.5 245.3 239.9 230 195.6 230.4 230 225.1 231.1 219.4 218 220.3 220.6 219.4 232 242.3 264.4 263.2 270.6 291.7 325.2 331.9 345.8 362.2 365.1 361.9 342 332.3 333.6 332.2 330.6 329.7 327.7 323.9 319.6 313.3 304.5 303.8 308.6 311.2 314.5 317.1 321 324.2 325.2 326 327.8 328.4 326.5 324.3 318.9 314.2 307.8 300.3 295.3 287.8 281 272.3 260.1 245 243.7 241.2 238.1 237.2 238.5 239.6 238.5 238.8 237.6 237.9 236.7 235.5 234.1 233.7 232.9 231.1 230.5 230.3 229.5 226.7 225.3 220.2 217.6 213.2 204.4 178.3 157.1 134.1 113.5 110.5 124.5 143 146.5 138.3 132.9 147.7 157.3 165.9 177 190.4 203.6 212.6 226.2 244.7 265.1 275.3 283.7 289.5 289.7 287.7 283.8 280 276.5 271.2 263 249.6 239.1 233.9 242.9 248.2 254.7 261.8 266 268.4 270.4 273.8 278.4 283.2 289.3 299.6 315.2 321 324 326.3 327.1 325.4 322.3 319.2 316 311.5 306.5 299.7 287 274.3 259.2 246.5 240.2 232.6 225.9 208.9 192.6 192.9 188.5 183 176.2
325.3 317.4 307.8 292.2 276.3 270.2 262.9 254 248.8 265.3 271.4 281.1 294.6 307.5 314.9 319.8 323 320.4 315.9 311.6 306.9 303.7 299.6 290.8 284.1 277.6 268.1 234.2 206 184 171.1 179.5 195.6 214 215.3 221.9 219.9 219.1 216 204.1 194.9 173.7 178.6 201.1 220.2 242.2 243.4 235.6 208.1 187 219.6 215.6 197.6 205.8 205 206.1 208.5 208.8 214.4 223.6 234.7 256.5 260.1 262.2 281.1 319.1 322.7 329.5 342.2 345.5 338.6 331 324.3 321.4 320.9 320.3 319.5 317.3 315.4 310.8 305.4 297.9 296.2 301 303.8 306 310.4 314.4 317.9 318.7 320.1 321.1 324.5 325.6 321.4 315.2 308.9 302.6 294.2 289.3 283.4 277.1 269.2 259.5 246.6 233.1 230.4 228.8 230.5 231.2 232.8 233.3 231.9 231 230.1 229 227.5 225.4 226.3 224.8 222.9 222 219.9 219.3 216.6 215.1 211.7 207.9 201.4 184.7 162.3 140.3 122.2 112.8 114.3 142.7 163.2 155.2 142.9 139.7 152.7 159.9 170.4 181.2 193.6 204.5 215.7 233.6 253.3 273.2 285.5 291.5 292.7 292.4 289.8 286.2 283.6 280.8 276.3 268.5 257 247.7 241.1 243.9 251.2 257.9 263.7 266.8 268.8 271.4 274.8 279.4 285.8 292.1 306.2 318.3 322.1 325.2 326.7 327.5 326.5 323.9 320.7 317.5 313.4 309.3 303.2 295.4 285.6 275.4 263.7 255.2 248.3 236.7 208.9 211.8 207.6 201.1 193.9 187.2
335.3 330.6 323.2 313.1 294.7 281.1 272.8 270.6 268.4 271.9 284.2 288 297.8 306.4 318.7 323.4 325.3 323.1 317.8 314.5 310.1 306.3 302 293.4 288 280.3 261.3 255.3 215.7 189.6 171.3 175.5 179 192.7 204.8 210.5 206.4 200.3 194.5 187.4 174 162.4 181.5 197.8 210.3 229.3 240.7 221 189.4 180 195.2 192.8 178.3 185.6 191.8 193.9 198.2 198.4 206 208.6 232 248.9 252.7 257.2 276 311 315 318.8 327.9 326.2 324 319.6 315.2 308.6 310.5 311.3 310.7 309.7 307.2 304 298.4 292 285.2 293.4 296.8 299.5 304 307.6 311.1 312 314 315.7 319.1 322.6 319.8 315.1 309.3 300 291.8 285.6 280.8 273.6 265.2 254.3 243.9 233.5 225.8 220.3 224.3 228 229.8 227.4 226.5 224.8 223.7 222.6 222 220.5 218.9 216.4 214.9 213.5 211 209.7 207.5 204.7 202 199 192 169 146.4 123.9 111.9 112.5 135.2 160 170.9 162.7 154.5 146.3 161.2 167.8 175.6 184.7 196.3 208.2 219.7 236.9 259.1 279.5 292.7 295.8 296.1 294.9 292.9 289.6 286.3 283 278.8 272.3 263.2 254.7 251.5 246.2 253.4 258.7 264.2 267.1 269.6 272.3 276 280.5 287.1 294.9 312.2 320.2 323.4 326.3 328.9 328.7 327.5 325.3 322.4 318.9 314.9 311 307.2 302.1 297.6 285.7 275.5 268.5 258.4 234.8 232.8 235.8 231.3 223 212.6 203.1
344.7 339.2 333 326.6 315.2 300.3 292.5 280.6 274 278.8 286.9 293.3 303.9 313.6 317.8 325.9 328 327.6 320.7 317.7 313.3 308.1 303.8 295.5 290.4 285.1 276.3 258.3 234.1 201 180.3 167.9 181.3 182.2 180 187.8 184.3 182.2 174.3 163 158.3 158.1 176.5 187.5 202.1 208.3 212.5 197.4 174.8 166.1 171.5 171.1 166.7 168 177.4 186 187 185.4 195.8 206.3 221 240.8 241.8 244 262.6 297.1 307.3 309.4 310.6 312.2 309.1 308 305.9 302.5 301.8 303.1 303.1 301.9 298.9 295.9 292.4 287.4 275.3 287.2 290.3 294.3 297.9 300.8 304.6 306.4 307.9 310 312.8 314.2 311.8 311.1 312.6 303.4 294.1 284.3 277.8 269.9 260.3 247.7 239.5 232.2 224.6 218.7 218.5 223.6 223.8 224 220.7 219.5 218.3 217 215.8 214.4 212.5 208.8 207.6 207.8 204.3 201.4 199 197.3 195.5 193.1 186.2 160.4 131.1 113.1 110.1 129.3 149.1 174.5 176.5 169.6 162 151.2 167.8 176.4 185.9 191.4 200.7 210.3 225.1 241.3 263.3 286.4 297.7 299.6 298.7 297.1 295.5 292.9 289 285.2 281 274.5 265.7 258.8 254 250.6 256.9 260.5 263.8 267.2 270.4 273.6 277.7 283.3 288.5 300.3 316.9 321.7 324.6 327 329.3 330.8 328.7 326.4 322.8 319.7 316.4 312.8 309.2 305.9 299.8 293.1 285.1 277.2 260.6 244.2 253.7 253.5 251.6 247 234.2 222.7
352.8 345.1 338.2 331.4 322.8 311.8 302.6 291.8 276.6 279.6 294.8 301.7 306 313.8 321.2 328.4 329.6 330.4 324.9 320.5 315.5 310.7 307.6 302.3 295 289.5 283.6 275.6 249.5 215.5 193.7 177.1 167.4 168.7 170.6 174.1 169.2 172.2 165.3 152.7 151.6 153.5 166.7 177.4 188.1 192.4 194.6 177.9 162.5 155.1 162 158.6 152.5 160.6 171 178.2 175.2 187 195.1 202.8 208.5 220.8 227.1 230.3 243.5 281.6 297.6 299.9 300.7 300.9 301.5 299.1 298.7 295.6 291.3 295.4 295.7 294.2 291.4 288.6 286.5 282.4 273.2 282.6 286.1 289.3 292.9 295.5 298.9 303.3 304 305 305.4 305.5 303.8 300.8 305.1 301.8 289.2 281.8 275 265.9 256.3 245.7 237.1 230.9 222.8 214.5 207.2 217.3 217.8 219.2 218.4 213.3 213.1 212.4 211.8 210.1 208.1 205.4 202.6 202.3 199.9 195.2 192.1 190.1 189 187.3 171.2 145 123.3 110.9 116.6 140.6 164 185.2 182.7 174.9 167.7 160.9 173.6 185.4 197.1 201.2 206.4 218.3 231 248.6 273.4 291.3 301.2 303 301.6 300 298 294.8 290.8 287.6 282.9 277.3 268.9 262.1 256.5 255.3 259.3 264 267 267.4 271.1 275.4 279.5 285.9 292.9 309 319.5 323.3 325.1 327.2 331.3 331.1 330 326.1 322.5 319.8 316.5 313.5 310.6 307.4 302.1 294.9 288.9 281.4 269.9 268 266.5 262.7 259.4 256.5 249.9 242.9
358.8 350.2 341.6 334.4 327.4 318 308.4 299 281.7 280.2 299.8 306 310.6 316.5 323.9 330.2 332.4 333.8 330.6 322.6 318.8 314.3 310.9 307 299.3 294.9 290 283.3 272.9 246.8 207.7 197 186.1 168.4 163.5 157.8 160.9 155.4 152.4 152.8 151.8 149.6 148.7 164.9 174 176.4 170.1 160.2 155.3 147.7 146.3 145 157.4 151.9 162.7 173.1 164.9 181.9 189.6 194.2 198.7 206.4 216.3 218.6 229.2 250.6 275.9 289.4 292.9 293.4 293.9 293.5 291.4 288.9 283.3 287.1 288.8 288.2 285.8 282.9 278.6 274 271 276.6 280.8 284.6 288.2 291 295.5 299.9 301.1 299.8 298.8 297.2 294.9 293.4 292.7 289.9 284.3 278 272.2 265.1 256.7 244.7 234 227.8 221.7 214.6 202.2 208.7 211.8 214.4 214.7 210.6 207.5 208.1 208 206.6 204.2 201.9 197 197.7 195.3 189.1 187.3 184.2 182 177.2 153.5 129.6 117 112.2 125.9 153.2 177.7 192.9 188.9 179.9 173.6 170.5 177.4 193.7 205.8 212.6 215.2 225.8 239.5 258.5 281.5 295.8 304.2 306.2 304.5 302.8 300.4 297.2 292.7 289.4 284.7 279.2 271 263.9 260.1 258.9 263.2 268.9 270.1 269.3 274.5 277.1 281 287.2 298.7 317.1 322.3 324.2 326.2 328.7 331.7 331.7 330.4 326.6 323.1 319.8 316.5 313.8 311 308.2 303.5 297.9 291.7 283.1 283.2 281.1 277.3 270.5 266.9 261.7 258.6 254.7
363.1 353.5 343.3 334.9 327.8 321.6 313.7 303.7 288.5 279.5 302.6 308.7 315 321.3 327.5 332.8 336.7 337.5 335.9 328.9 324.3 319.2 315.8 311.9 305.9 300.5 295.5 289.9 281.4 263.7 237.2 222.6 213.5 202 188 181.5 182.8 180.7 176.4 169.5 160.7 151.9 147.8 146.2 154.3 151.9 147.3 144.4 144.4 143.9 141.2 139.1 142.6 145.3 159.9 166.6 163.2 175.6 180.8 184 192.6 200.7 208.5 216.7 227 240.1 255 266.9 281.4 285.6 287.2 286.5 285 283.2 280 276 283.7 283.7 279.6 276.3 271.8 261.5 267.7 273 274.6 278.4 284.9 288.5 292.5 295.3 294.8 294 292.3 290.1 287.6 284.7 284.1 281.1 278 273.2 267.7 261.8 254.1 246.7 238.3 228.3 217.3 208.3 198.4 200.7 206.5 208.8 209.5 207.2 200.4 202.7 203.6 202.8 201 198.3 194.4 191.8 190.2 186.7 182.3 176 169.5 158.6 136.2 121.1 113.8 114.6 136.8 165.8 191.1 202.4 195.5 186.4 178.6 175.2 182.3 199.1 212.8 220.6 223.5 234.3 246.9 267.1 287 299 307.7 309.4 307.3 305.6 302.7 299.5 295.1 291.3 286.6 280.4 274.2 267.8 263.4 262.4 267.7 272.2 273.3 274.3 276.2 278.7 283 290.2 303.6 321.2 325.5 326.8 329 333 332.8 331.8 330.7 328.3 324.9 320.6 316.3 313.8 311.4 308.6 305.7 300.6 294.2 291.7 289.4 286.6 282.5 277.4 271.8 269.1 263.6 260.7
364 355.4 343.9 333.3 324.8 315.4 307.6 300.8 281.4 282.5 305.5 311.7 318.3 324.5 330.1 335 338.9 341.1 340.4 337.6 331.7 325.9 320.5 317.1 312.5 307.2 301.4 295.7 290.3 283.2 275.1 259.8 250.7 232.1 223 214.5 214.9 210.3 203.7 198.4 180.7 161.7 146.1 145.5 145.2 144.2 143.8 142.7 142.3 138.9 139.6 138.4 139.1 142.9 148.7 159.1 169.9 172.3 173.9 176.2 186 197.5 203 214 221.7 232.6 250 261 278.3 279.3 279.6 279 279.5 277.8 275.7 270 274.8 279.5 276.6 266.6 262.2 257.4 264.8 269.2 274.7 278.9 282.9 285.9 289.3 291.2 291.1 289.8 287.4 284.7 282.3 280.1 277.4 275.5 272.7 268.7 264.5 258.6 253.4 246.3 239 232.8 225 215.1 202.7 191.3 195 200 202 197.6 194.3 195.7 199.4 199.4 197.3 195 192.7 187.7 185.9 183.2 178.5 174.1 166.4 144.5 129 117 111.4 119.2 149.1 177.3 194.6 208.4 207.9 193.7 186.5 181.6 181.2 201.1 214.1 224.1 229.7 239.4 256.1 276 291.1 302.2 310.6 312.2 310.3 308.3 305.1 301.8 297.6 293.3 287.8 280.9 273.9 269.1 265.6 265.2 269.6 273.9 275.4 276.3 278.4 280.2 285.6 292.1 309.3 323.9 327.8 329.5 331.7 334.4 333.4 332.2 330.8 328.9 325.4 319.3 315.8 313.4 310.9 308.5 306 302.2 300.4 297.6 294.6 291.3 287.3 282.9 277.1 272.8 270 265.2
364.7 354.6 341.7 331.2 323.2 300.6 302.3 299.3 303.5 300 294.7 311 319.8 326.9 333.2 336.8 341.3 344.8 345 344.7 340.9 334.4 328 323.1 318 313.3 307.2 301.7 296.8 291.5 288.3 284.1 280.5 269.2 261 256.5 255.6 245.4 235.7 220.9 198.8 176.8 161.8 153.8 148.4 145 142.1 141.2 140.3 139.2 138.3 137.9 137.9 138.7 145.2 155.7 161.7 166.5 168.3 171.9 181.9 193.9 201.9 205.9 212.6 225.7 244.6 256.9 272.1 272.6 272.9 274.5 274.6 272.8 270 264.5 254.6 266.8 265.9 258.9 249 256.7 266.1 271.2 274.7 279.1 282.9 287.2 289.3 288.4 285.3 285.6 283.4 279.7 277.6 275.9 274.3 268.9 267 262.6 259.2 255.8 250.6 244.8 238.9 232.7 226.7 219.8 209.9 196.4 183.9 186.7 191.9 190.9 188 189.2 193.8 194.8 195.1 192.5 189.3 185.1 181.1 178.6 171.7 166.4 166.8 146.1 124.5 114.7 111.9 123.4 152.4 180.4 196.6 213.3 216 207.5 194.4 187.8 184.1 192 209 220.3 229 241.3 261.6 281.2 294.6 306.4 314.1 314.8 313.1 310.5 307.1 303.4 299.4 295.2 287.2 281.5 275.5 271.4 269.5 269.3 270.3 274.6 276.6 278 279.8 282.2 286 294.1 313.5 325.6 329.8 330.9 333.5 334.6 333.8 332.7 330.9 328.3 323.6 319 315.5 313.6 310.4 309.1 306.7 305.6 304.2 301.2 297.8 293.4 290.4 286.9 281.3 277.1 273.7 270
365.3 352.6 338.4 326.9 306.6 315.6 316.3 316.1 316.2 318.3 316.1 318 321.9 328 333.4 339.8 343.9 346.5 349.7 349.7 349.1 342.7 335.9 329.8 324.4 320 315.4 309.8 303.9 299.8 294.9 291.9 291.1 291.5 292.3 291.9 289.2 286.5 267.3 241.8 218.3 195.3 181.2 171.8 168.5 170.5 156.6 147.7 141.3 137.7 138 137.1 137.3 137.2 142.3 152.4 161 166.8 168.6 172.1 179.5 186.1 195.5 197.9 204.3 220.2 240.5 239.1 245.6 256.3 260.9 263.2 269.3 269 264.2 257.5 241.9 245.8 246.7 244.5 250.1 258.2 267.8 275.5 281 285.7 285 284.6 285.6 284.7 282.4 280.3 279 275.6 271.9 270.9 268.9 265.5 260 257.9 254.7 251.7 247.6 242.7 238.1 233.9 229.3 224.4 218.4 210.2 198.9 181.1 177.4 179.2 180.2 181.7 187 189.9 190.7 191.5 188.4 182.8 178.1 167.2 160.9 152.6 149.1 138.7 118.4 113.1 112.5 127.1 154.5 181.3 201.9 214.7 220.9 217.9 209.4 199.2 192.3 187.8 203 215.2 227.1 242.5 261.6 282.1 297.3 310 316.5 316.6 315 311.9 308.5 305 300.5 294.7 287 281 277 275.4 272.5 272.2 274.1 275 277.4 279.9 281.7 284.4 287.7 296.3 316.3 327.2 331.3 331.5 333.5 333.1 332.6 331.4 328.8 326.1 321.9 318.3 315.1 313.3 311 309.5 307.5 306.1 304.7 300.9 298.5 295 292.7 289.8 285.5 280.2 274.2 271.4
365.1 351.8 338.1 322.4 327.3 326.7 327.3 324.7 324.9 325.5 325.5 324.4 324 329.8 334.8 341.5 345.7 349.2 352.8 354.1 354.1 350.4 344.1 337.6 332.3 327.8 323.7 318.9 313.7 307.8 303.2 299.2 295.9 296 295.9 296.5 296.3 294.1 290.3 258.4 235.4 217.1 204.4 196.3 199.2 190.9 185 185.7 174.3 157.8 137.9 136.4 136.6 136.8 137.9 149.7 159 156.2 169.8 171.7 172.8 182.7 190.3 193.1 198.4 211.5 221.1 227.6 236.3 244.7 245.8 251.9 255.9 263.5 260 253.6 233.3 225.4 239.3 235 251.5 261.2 272.5 280.1 285.8 284.4 283.4 282.9 281.5 279.7 278.1 273.8 274.1 272.1 268.4 266.3 264.5 261 256.6 251.3 250.2 247 243 239.7 236.7 232.4 229 226 221.5 216.7 209.2 197.2 188.7 179.8 169.6 172 177.2 183.1 184.5 188.5 186.8 181.6 165.4 153.1 146.9 141.5 135.3 123.2 117.5 113.3 114.9 131.8 164.8 192.9 205.3 217.6 224.2 224.9 219.7 211.9 200.6 192.4 207.1 217.8 226.6 238.3 255.3 273.4 294.6 308.7 318.4 317.8 315.6 312.2 308.6 303.6 298.4 290.7 286 280.9 278 276.7 275.6 275.4 276.1 277.2 278.3 281 283.8 286.3 291.4 300.5 318.2 327.2 330.5 332.1 332.7 331.1 330.3 328.8 327.1 323.9 320.5 317.4 315.7 314.2 311.9 309.6 306.4 304 301.6 299.4 297.4 295.1 292.7 289.6 283.4 277.9 269.5 265.3
365.1 350.2 332.8 337.1 336.3 332.4 333.5 333.6 331.4 330.2 329.4 330 329.7 331.4 336 342 348.2 351.5 355.3 357.9 357.7 358.7 354.9 347.5 342.1 337.7 333.2 329 324.5 320.4 314.8 308.6 304.9 300.6 299.9 299.3 299 297.7 295.7 280.9 256.6 241.2 229.9 224.2 227.4 214.9 210.6 210.6 204.8 174.5 156.7 137 135.6 135.5 135.5 147.7 152.6 157.5 164.6 171.2 173.6 174.3 179.6 184.3 190.9 196.3 199.4 209.1 229 231.8 238 244.8 247.8 253.1 252.5 239.4 220.8 212.5 214 224.8 241.5 262.3 275.8 282.1 283.1 281.3 278.8 277.4 274.6 272.8 270.2 269.4 269.3 267.6 264.3 260.4 259 256.9 252.7 248.9 245.7 241.4 237.7 235.3 232 229.5 227.6 223.6 220.9 216.7 211.3 205.5 197 189.8 182.3 169.9 163.3 170.2 178.8 182.3 181.3 175.3 160.2 146.3 136.7 127.6 122.2 122.9 113.5 111.8 117.5 136.6 172.6 196.9 209.5 219.6 225.8 228.7 224.5 215.8 207 204.4 210.8 216.2 223.4 232.8 243.1 261.5 285.3 303.8 313.4 316.6 313.7 308 303.1 298.2 293.3 289 285.2 281.5 280 278.5 278.6 278.6 278.7 280.1 280.5 282.4 284.9 288.4 294.8 307 318.3 325.8 329.5 332.4 333.2 331.3 329.3 327.6 325.6 322.9 320.1 318.2 316.6 314.4 311.2 308.1 305.4 303.2 300.1 296.9 293.7 290.1 286.5 281.4 272.3 261.3 252 245.6
364.1 343.2 348.9 348.4 346.1 343.2 339.9 341.1 339.4 337.5 335.1 333.6 333.6 333.8 338.3 342.7 347.7 353.1 356.5 359.8 361.6 361.6 363.4 358.2 351.4 347.1 341.7 336.5 333.9 330.4 326.1 320.4 313.2 308.4 305.4 302.6 301.1 300.4 298.7 296.3 288.9 268.1 257.6 250.4 251.9 247.4 232.6 222.2 213.2 190.1 165.8 141.9 135.6 135.4 137.2 143.6 148.7 154.6 154.2 163.1 164.9 166.1 171.2 176.7 183.9 191.9 198.2 198 209.6 220.3 230.2 231.1 236.4 241.7 238.7 223.7 214.4 208 203.8 213.3 230.5 259.8 272.9 277.4 275.4 274.8 273 269.2 266.4 263.6 262.9 262.8 263.5 261.8 258.9 255.3 253.6 253 250.6 246.3 242.9 238.1 234.1 231.1 228.2 224.8 223.4 220.2 217.8 214.3 211.4 206.9 202.2 197.5 190.4 180.2 172.1 163.5 162.2 174.5 176.2 173.1 165.6 148.4 138.3 125 120 116.4 114.4 112 121 142.4 180.5 198.5 207.7 221.9 227.7 232.3 227.5 219.4 212.6 212.4 217.8 224.2 233 243.6 252.9 260.9 281.5 304.9 309.2 312 309.1 302.9 299.2 295.7 291 287.5 285.2 282 281.8 281 281.3 281 282.3 282.8 283.7 284.7 287.5 291.1 302.2 319 324.4 327.6 330.8 333.2 334.2 332.6 329.9 327.3 325.4 323.3 320.6 318.7 316.1 312.9 309.9 307.2 304.8 301.9 296.7 292.4 288.2 283.7 274 262.9 254 243.2 235.6 229.7
363.4 363.9 361.5 361.3 358.9 356.3 352 350.7 348.1 346.1 342.4 338.7 337.8 337.8 340 343.6 348.2 353.1 357.3 360.9 364.1 365.3 366 366.8 360.6 354.4 348.8 344.4 339.9 337.4 334.4 331.3 321.8 315.6 311.5 307.1 304 302.8 299.5 297.2 294.7 291.4 287.4 281 275.5 264.7 243.7 226.7 216.4 201.8 170.1 146.2 137 135.3 134 136.3 144.5 150.1 151 158 161.9 162.1 166.6 172.8 180.6 189.4 193.5 193.8 200.3 213 223.2 219.4 229.3 225.1 230 209.3 199.5 199.1 198 200.4 221.2 254.2 264.6 265.5 266.9 268.2 266.1 262.3 259.7 258.2 258.8 259.1 258.4 255.9 253.5 251.3 250.4 248.7 246.7 243.9 239.6 234.9 231.8 228.2 225 218.9 218.2 216.1 212.9 211.1 209 205.1 201.4 197.8 193.1 187.7 180.7 172.6 163.8 156.5 171.7 172.1 167.5 159.1 140.5 124.6 122.3 113.4 112.3 114 122.8 153 188.7 199.5 207 220.5 228.5 235.2 231 226 220.5 220.7 225.8 230.7 238.1 250.7 266.7 279.2 291.5 305.6 311 309.4 305 300.4 296.3 292.9 290.2 286.7 284.9 283.9 283.5 283.6 283.8 284 284.7 285.8 287.4 287.8 290.1 295.2 306.7 323.8 328.1 330.6 332.8 334.5 334.2 332.6 330.1 328.1 325.8 323.2 321 318.4 315.1 312.1 309.2 306.3 301.7 297.5 293.6 289.3 278.4 269.4 259.8 245.8 233.4 227 222.4 218.2
384.8 381.6 378.1 375.2 375.3 371.9 369.1 362.6 360.9 355.1 352.4 345.2 344 342.4 344.4 346.3 348.8 351.9 357.2 361.5 364.3 367.7 367.5 370.1 367.4 361.5 354.7 350 344.6 342.4 340 336.4 333.2 326.6 317.6 311.7 308.2 303.4 299.6 295.8 292.7 290.7 287.8 284.5 279.2 270.2 250.1 235 219.2 195.4 166.4 147.1 141.2 133.6 132.8 133.9 137.2 140.4 144 152.8 155.5 157.7 163.9 168.9 174.9 186.4 185.5 184.7 186.8 201.3 207 204.9 203.5 208.4 215.8 197.7 189.1 188.7 191.5 196.8 206.8 242 249.6 256.1 259.5 262.5 261 258.9 256.7 254.3 254.4 254.5 253.8 252.2 249.5 247.4 245.4 244.3 243.3 240.6 236.2 232.2 228.1 225.2 221.6 217.3 212.3 212.1 208.9 207.2 205.7 203.1 200.7 197 193.1 188.4 183.8 177.4 168.5 151.1 150.8 169.1 168.8 162.3 140.5 126.3 116.6 112.5 114.4 117.5 127.4 164.1 190.8 197.5 205.1 215.5 226 235.9 235.1 232.9 229.6 227.3 232.2 234.9 240.9 253.2 269.4 288.4 296.7 306.5 308.6 307.5 303.9 299.1 294.6 292 289.2 286.9 286.5 286.2 285.8 285.5 286.8 287.6 288.1 289.4 290.9 291.7 293.7 298.9 308.9 325.2 330.8 333.9 335 335.8 335.2 333.8 331.1 329.1 327.1 324.5 321.3 317.2 314.7 311.8 307.5 303.2 299.4 295.5 290.3 279.5 267.9 245.1 236.6 232.2 228.6 221.7 216.4 211.6
392.6 391.6 389.9 387.1 387.9 386 379.9 378.9 377.2 369.7 362.4 356.6 351.9 349.7 350.7 350 350.2 351.9 354 358.4 363 365 366.5 367.7 369.8 365.1 357.6 352.1 347.8 343.6 343.3 340.6 337.2 332.3 323.4 316.3 310.4 304.9 301 295.9 290.5 288.1 286.1 282.7 278.7 270.7 251.4 230.8 204.2 186.5 170.4 147.3 143.4 133.7 132.6 131.9 132.2 133.6 136.4 143.3 141.7 151.7 160.1 164.8 167.7 172.1 175.7 179.8 180.5 182.1 184.4 189.6 191.2 194.4 203.4 190 181.2 180 184.9 189.2 199.9 222.5 241.8 248.2 252.7 255.2 255.8 254.8 252.7 250.4 249.9 250.2 249.8 249.4 247.6 244.6 242.5 239.8 239.2 237.4 234.5 230.3 226.2 222.6 219.1 215.5 210.2 207.5 203 202.2 202.7 200.9 199.3 196.2 192.1 188 183.3 178.3 171.8 162.3 136 160.3 164 156.5 137.3 120.1 114.1 114.6 116.9 120.9 127 156.7 184.7 193.5 203 211.6 222 231.7 234.3 234.5 234.6 235.1 235.8 237.4 240.8 250.4 262.7 268.7 289 292.8 298.8 298.8 298.5 296.1 293 291 289.6 288.6 287.6 288.8 288.5 288.7 289.5 290.7 291.6 292.5 293.3 295.4 296.9 301.2 310.6 323.5 332.3 336.3 337.2 338.2 337.6 336.1 333.2 330.6 328.1 325.8 321.3 317.6 314 309.7 304.7 300.6 297.4 286.3 277 266.5 249.9 239.5 236.8 228.7 221.4 214.5 208.7 203.8
402.1 401.8 399 398.7 400.1 399.3 399.5 397 392.2 384.9 376 369.3 362.6 359.7 357.9 355.7 351.9 350.9 351.1 352.3 355 357.5 358 359.2 361 362.2 356.9 351.4 347.2 342.7 343.2 342.7 338.4 333.1 326.4 318.2 311.7 306.5 301.2 294.7 289.2 285.9 283.5 280.6 276 267.5 246.4 227.2 224 221.2 189.7 152.7 144.5 135.5 132.6 131.9 131.9 132.2 132.9 134.2 138.9 150.5 152.9 157.2 159.8 164.3 166.4 169.4 171.3 171.1 177.5 186 188.6 185.7 189.7 184.3 172.8 175.7 182.1 187.6 199.6 221.7 234 245 250.7 254.6 252 251.1 248.7 246.4 245.1 246.2 247.3 247.3 245.6 243.8 239.3 237 234.6 235 232.6 229.4 225.9 221.4 217 213.3 209.9 207.1 203.9 200.2 199.3 199.3 197.7 195.4 190.6 186 181.5 175.9 171.8 160.9 131 158.9 158.8 146.8 123.9 117.5 115.3 114 120.5 121.9 124.4 143.9 171.6 190.4 197.4 208.1 216.7 223.7 229.6 231.2 232.8 232.4 231.2 229.7 230.8 236.4 248.5 257.5 269.1 277.7 284.5 288.4 290.4 290.3 289.9 290.4 289.3 289.8 289.2 290 291.2 291.8 292.5 294.4 295.2 296.1 296.5 298.3 301.3 305.3 315.4 329.4 337.5 339.1 340.2 340.6 340.1 338.3 335.4 332.6 330 326.1 321.8 317.8 313.7 308.7 302.6 299.6 285.3 278 270.4 256.6 239.9 240.9 231.8 221.8 212.2 205.6 200.3 194.4
405.2 407.4 405.3 403.7 407.1 406.7 411.3 411.9 406.1 398.6 389.2 381.7 375.7 368.9 363.8 360 355.3 348.4 344 347.1 344.5 347.6 349.8 350.4 353.2 353.1 351.6 349.3 346 342.2 339.3 340 336 330.8 327 320.5 314.8 308.3 301.1 294 288.8 284.4 281.4 277.9 269.9 251.6 236 228.4 234.1 231.6 203.6 169.4 145.9 140.4 135.6 133 132.2 131.7 131.7 131.5 135.8 140.8 149.4 151.5 155.2 158 157.3 158.7 163.3 166 170.1 173.4 182.9 183.4 181.6 176.3 164.7 168.1 173.6 185 209 219.5 228.9 237.4 245.6 244.1 245.4 245.9 242.9 241.5 245 245.5 246.4 246.7 244.2 240.6 236.4 233.8 230.8 230.8 229.1 227 223.8 220.2 216.3 212.4 208.9 205.3 202.4 199.8 192.6 197.5 197.5 194.7 190 186.2 181.3 175.5 171.7 158.3 130.8 139.6 139.4 126.5 121.3 114 114 123.5 136.8 140.1 128.6 131.1 152.4 180.8 190.5 202.1 208.1 215.4 221.3 223.1 224.1 221.4 217.3 212.3 217.6 224.4 235.6 237.7 249.5 260 266.4 272.4 278.5 280.9 283.5 287.6 289.2 289.4 290.9 291.8 293.5 295.2 296.2 297.8 299 299 299.9 302.2 304.6 311.5 323.1 337.7 339.9 341 343.3 343.9 343.1 340.5 338.2 335.2 331.9 327.3 322.8 318.4 314.2 308.2 302.3 296.4 277 269.7 256.7 244.9 238.4 232.2 221.1 207.7 199.8 193.7 188.5 184.6
407.8 408.7 411.9 412 409.9 411.6 412.7 414.2 415.2 409.3 401.2 391.4 383.4 376.3 368.2 359.4 352.5 348 339.9 335.9 337.6 335.8 339 339 340.3 343.9 345.3 345.1 345 342.2 338.6 335.5 332 328.2 325.8 322.9 317.6 310.3 303 295.1 288.6 283.7 278.5 273.1 267.1 265.2 256.2 245.5 240.2 232.6 212.6 182.4 151.8 144.2 139.1 134.1 132.6 131.4 130 131.4 132.8 135.8 139.9 147.3 148.8 152.6 152.1 153.2 157.4 161.6 163.5 166.2 171.6 174.2 172.4 158.3 154.6 162 166.7 186.3 206.7 217.7 217.5 216 219.3 237 239.3 240.6 239.3 238.8 240.1 242.6 244.9 243.4 240.3 236.6 233.1 229.8 226.2 225 223.5 223.7 221.7 218.9 215.6 211.1 207.6 203.6 200.7 194.3 180 195.8 195.9 193.3 189 185 181.1 175.5 171.6 165.8 147.4 123.3 126 119.1 120.2 114 128.2 139.8 161.2 166.6 156.9 135.4 138.5 159.6 181.7 190.1 198.4 207.1 213.1 215.5 213.1 205.2 211.5 216.3 219.4 218.2 221.7 230.3 235.4 238.2 251 259.4 265.8 270.4 279 284.9 286.7 289 291.9 293.5 295.8 297.8 300 301.9 303.7 304.1 304.3 307.6 311.2 317.3 328.5 341 343.9 345.2 346.9 347.1 346.2 343.8 341.3 338.1 333.6 330.7 326 320.4 316.5 309.3 300.5 284.7 275.6 260.6 244.6 240.2 226.2 214.5 206.2 196.4 189.9 184.9 180.9 174.7
412.2 411.7 413.3 414.9 413.3 411.7 413.5 414.3 417 417.5 413.1 402.2 389.4 379.4 370.6 361.4 351.2 343.3 335.4 329.7 328.1 326.5 326.7 329.4 329.2 332.1 335 338.8 339.2 338.7 338.4 333.4 328 325.2 322.7 321.1 317.1 310.1 303.4 296.2 290.9 285.7 282.2 277 277.8 275.9 268.4 254 244.7 236.7 220.3 191.8 165.2 148.9 141.7 136.3 134.7 132.1 131.7 129.4 131.2 132.4 135.5 142.6 143.5 146.3 144 148.5 153.5 156 156.5 155.7 157.4 160.2 153.1 143.3 152.6 157.5 164 188.3 196.2 200.9 201.2 212.4 217.1 229.3 231.6 236.1 231.7 233.1 236.6 240 239.4 237.4 233.5 229.1 226.9 223.5 220.2 216.5 216.1 217.9 206.9 205.9 203.1 192.5 183.8 185.6 192.6 177.3 172.1 194.6 194.3 192.2 188.9 184.6 180.2 175.5 169.8 158.6 138.8 124.3 119 115.5 114.2 125.4 148.7 155 165.8 170.2 168.5 161.9 148.7 151 160.4 171.2 190 198.4 203.1 204.4 201.5 209.9 217.8 223.3 224.6 227.8 230.5 233.3 238.3 242.7 246.7 249 255.2 260.4 267.6 278.1 285.6 290.6 294 295.8 298.5 301.9 304.2 306.1 308.4 309.1 309.4 312 316.3 320.3 330 340.5 346.2 347.3 350 350.2 348.7 346.5 344 340.2 337.5 333.8 329 323 318 307.2 285 269.9 262.6 255.4 237.3 228 223.4 217.5 209.8 199.6 196 194.8 191.8 184.4
414.3 412.6 412.2 413 414.9 410.4 410.6 413.2 415.4 418.9 420.4 408.2 393.6 379.8 370.8 359.4 349 343.5 338.1 330.6 321 320 319.7 320.8 321.5 324.3 322.3 328.5 332.5 330.8 334 332.9 326.6 322.8 320 318.1 316.1 311 302.4 297.5 293 287.3 284.4 280.1 282.4 280.3 273.8 261.3 250.1 242 233.2 212.6 182.8 156 145 139.9 137.2 135 132.8 129.6 128.6 128.7 130.9 135.4 139.3 138.3 139.7 142.5 144.2 145.3 149.4 149.8 148.9 146.3 144.3 139.4 144.8 153.5 168 176.9 183.4 198.1 208.2 210.3 206.9 202 209.1 222 225 227.7 233 235 229.3 225.8 222 215.2 213.8 213 213.4 213.8 190.5 189.9 188.2 183.6 174.1 176.1 177.4 176.5 173.4 168.3 169.6 191.3 192.8 193 189.3 184.8 174 161 151.6 131.1 121.3 116.9 116 115.3 114 136.6 165.7 169.4 170.8 172.3 170.7 173.9 176 172.3 172.9 174.7 175.8 180.3 195.1 201.6 206.6 215.8 225 229.5 231.7 233.3 236.6 238.8 242 246.6 250.6 254.4 257.1 264.8 271 278 284.7 290.7 295.5 300 303.1 308.8 310.3 311.3 311.8 312.2 313.7 315.1 320.3 325.6 333.7 344.7 349.8 349.1 351.2 352.5 351.4 349.5 347.3 343.8 340.1 334.6 330.3 324.9 319.3 311.7 286.1 273.4 260 250.6 237.3 234.4 232 226.8 217.2 212.2 206.7 211.1 206.2 195.4
411.4 410.3 409.8 410.4 412.1 412.3 407.5 410.6 412.1 416.2 417.9 409.9 391 380.1 368.7 355.9 345.4 341.3 335.1 329.4 321.9 315.5 314.1 315.3 315.5 315.3 317.9 318.5 321.6 323.3 324.2 327.1 324.9 320.8 318.1 316.2 314.1 310.7 306.6 299.6 295 289.7 285.3 284.2 284.1 283.7 278 265.3 255.2 249.1 243.9 238.1 211.5 177.5 151.4 143.8 141.4 136.7 132.1 129.4 128 126.6 127.1 129.6 132.2 134.2 138.7 139.3 143.2 142.1 144.2 142.4 141.9 140.4 139.6 136.8 139.4 153.7 163.2 170.4 190.8 203.8 202.4 200.4 199.2 198.5 201.4 202.4 208.4 222 227.4 224.4 217 209 195.3 190.6 188.7 188.7 191.5 188.7 177.8 181.8 173.2 167.9 167.1 169.4 169.4 162.4 155.9 151.9 156.3 177.5 192.7 191.8 187.3 179.9 159.1 141.1 131.3 122.1 116.9 114.8 113.7 114 135.7 160.8 176.7 175.9 175.1 177.1 177.3 179.4 181.6 186.3 189 189.2 189.5 193 200 206.4 212.4 222.1 231 236.4 238.3 240.5 243.2 247.4 250.8 254.1 256 259.8 264.7 266.9 273.3 280.6 288.9 294.2 298.4 303.9 308.9 314.4 316.2 315 314.2 315.7 317.4 320.1 325.4 331.8 342.4 353.1 354.8 354 354.9 354.7 353.9 352 349 344.9 340.7 336.1 331.6 326 319.9 313.8 295.9 269.4 256.7 250.6 247.2 243.4 239.6 233.1 224.9 227 228.3 228.6 222.5 214.5
406 406.8 404 406.1 408.9 410.5 405.8 407 408.5 410.1 413.2 406.5 391.8 377.2 365.6 353 342.1 337.9 332.4 328.6 321.7 315.5 311.3 309.5 310.7 311 310.8 311.7 313.5 315.8 316.4 317.3 319.6 318 316 313.8 314.1 312 308.3 302.4 298.1 292.7 289.8 287.5 285.8 284 280.2 270.6 261.7 255.6 250.6 246 231.3 198.4 160.4 150.3 146.6 139.6 133.7 130.3 127.8 126.7 127.2 127.9 127.3 129 129 134.2 138.3 138.6 135.5 135.9 135.9 136.3 139.6 135 139.4 151 160.2 165.3 172.8 180.5 184.8 188 183.9 188.2 189.9 192.6 203.6 214.3 221.8 215.3 201.4 184.4 178.6 174 172.4 170.4 176.3 170 165.7 171.4 165.4 163 164.6 160.8 153.5 148.1 142.4 138.5 137.7 152.4 168.9 176.2 170.4 152.6 135.2 133.2 127.2 114.5 116 114.3 116.5 132.8 160.4 181.5 184 181.8 178.9 180.2 180.9 182.7 185.3 189.8 194.1 196.8 199.3 204.9 209.4 215.1 221 228.2 236.2 242.9 246.4 250.3 253.7 258.4 261.9 265.1 268.5 270.2 271.9 271 276.3 282.7 292.7 298.2 303.2 310.9 316.7 319.8 320.2 318.8 319.2 319.5 322.7 326.9 332.9 342.6 354.3 358.9 359.4 358.1 358.7 357.8 356.2 353.4 350.7 348.3 343.2 338.8 333.9 327.6 322.7 316.6 306.4 284.8 273.9 264.3 266.9 252.5 249.3 251.5 244.5 247 249.4 245.7 237.4 231.7
402.6 402.4 399.1 400.4 403.7 406.7 404.9 402.6 403.7 403.8 407 403.1 386.6 372.7 362.1 347.7 339.2 334.2 330.2 327.4 322.3 314.7 309.3 306.2 306.1 307.2 306.3 306 306 308.4 309.7 311.4 313 314.3 311.3 310 315.6 314.9 314 311.2 304.6 299.8 294.3 290 287.7 285.3 281.9 275.9 266.1 259.3 255.8 252.5 246.3 210.6 167.5 155.3 149.4 139.6 135 132.9 129.8 127.2 127 127.3 127.3 127.1 126.9 129.4 131.4 132.2 130.9 132.4 132.7 131.8 131.4 132.5 141.8 144.6 152.2 155.7 163.3 175.4 178.2 188 181.5 178.1 184.1 187.2 194.3 201.2 204.4 195.2 179.2 171.8 164.5 161 158.8 159.5 163.4 162.5 155.7 155.5 154.1 151 158.4 151.6 144.4 139 127.9 120.9 121.6 129.7 136.2 142.5 138.4 129.2 121.3 119.9 117.1 114.4 115.4 119.1 130.8 153.9 179.6 186.1 188.4 186.8 183.5 182.9 185 185.8 188.8 193.7 198.6 202.1 205.4 211.8 218.6 226.1 232.4 237.6 244.1 249.6 256.5 262.6 269.2 273.3 275.5 277.8 281.2 284.1 285.8 282.8 279.9 288.6 296.8 304.9 310.3 317.6 323.4 324.2 322.7 323.8 324.2 327.5 332.5 337.9 347.8 353.8 362.1 363.4 363.5 362.6 362.3 360.3 358.6 356.8 354.2 351.6 346.5 341.8 335.9 330.5 325.5 320.5 313 300 297 286.7 287.7 281 278.3 272.1 267.2 262.8 264.4 258.3 248 245
397.6 395.3 395.7 393.9 396.4 401.4 403 396 397.7 397.4 400.6 396.6 382.3 369.1 357.4 342.2 334.3 332.1 328.7 325.7 320.9 315.3 308.8 305.2 302.7 302.5 301.9 301.2 300.8 301.3 302.3 303.9 306.8 307.9 308.3 310.7 312.8 313.2 314.4 317 313.6 306 299.7 293.8 289.9 287.3 284.3 279.6 272.3 265 260 256.5 250.8 228.2 197 171.6 154.8 145.1 137.9 135.9 132.5 128.9 127.3 127 126.9 126.9 128.6 126.7 127.5 127.9 128.3 128.6 128.5 128.7 129.4 130.3 134.1 140.4 146.9 150.4 155.6 159.5 165 173.1 178.3 173.4 178.6 179.1 176.4 176.1 182.5 177 167.9 159.4 154.9 150.6 150.5 151.7 156.7 168.2 150.4 143 141.7 143.2 138.2 133 132.7 124.3 120.3 121.7 122.7 119.7 120.3 122.9 120.3 117 117.2 117.6 122.7 120.9 119.4 124.4 145.8 174.5 182.1 187 189.2 188.4 186.7 186 188.1 189.3 191.2 197.2 202.2 207 210.9 217.7 224.9 234.6 242.1 249.1 255.5 262.9 271.3 280.4 282.7 287.1 289.6 293.7 297.9 299.6 300.6 296.9 289 298.6 304.8 309.8 317.4 323.7 328.8 328.3 326.1 329.4 334.1 340.3 347.3 353.8 360 364.7 366.5 367.7 367 367.1 366.1 364.5 362 360.8 357.4 354.7 349.2 344.2 339.1 334.1 328.5 323.4 319.5 311.8 305.5 299.4 294 289.8 287.3 280.4 274.3 270.8 270.1 265.9 259.4 254.8
396.8 388.6 389.8 388.6 389.9 395.3 397.8 392.3 390.4 390.8 393.6 390.3 376.1 360.7 350.4 332.8 328.7 328.9 326.8 324 320.6 315.6 308.3 304.4 300.6 299.1 297.8 296.9 297 297.2 297.6 298.5 300.3 303.9 305.4 310.1 311.8 313 315.4 318.8 319.7 310.9 304.5 297.5 293.3 289.9 287.5 281.4 276.5 269 263.1 260.1 257.6 254.7 221.7 195.6 172.9 154.5 145 140.1 136.4 132.6 128.8 127.1 127.2 127 127.4 126.6 126.1 126.9 127.2 127.8 127.4 127.5 127.3 127.4 131 135.5 141.7 146.6 150.6 155 157.8 162.4 172.2 170.3 165.1 171.3 166.7 164.6 165.6 168.5 157.8 151.1 147.4 145.2 144.7 146.1 154.8 155.9 157.2 137.1 128.7 126.5 129.7 124.4 119.4 121.6 120.6 117.6 117.6 116.8 116.1 116 117.3 117.6 133.1 134.2 141.4 143.8 122.7 126.2 153.1 176.4 182.2 186 188.6 189.4 189.2 190.5 191.3 192.9 193.6 197.8 202.6 208.2 214.6 222.5 231.2 241.9 250.3 260.1 267.5 276.5 284 292.6 296.9 299.3 302.8 307.1 310.4 315.5 319.3 312.1 301.9 311.9 314.2 318.9 325.1 330 335.5 333 336.3 344.4 351.1 356 360.9 365.4 367.9 369.8 371 370.8 371.1 371.2 369.8 367.9 365.6 363.5 360.2 357.3 352.8 347.8 342.9 337.1 332.8 327.6 322.9 317.7 313 306.8 301.8 297 292.4 285.7 278.6 275.5 273.8 271.1 267.8 263
393.5 383.9 386.3 382.7 383.6 389.1 392.5 387.3 383.9 384.6 387.2 385.9 368.5 351 335.7 324.3 323.7 324.6 323.9 322.7 320.4 317.5 311.2 303 299.3 296.2 294.6 293.2 293.1 293.3 293.3 293.5 294.9 297 302.2 307.5 310.6 312.5 313.9 317.7 321.7 315.5 309.5 301.9 298.3 294.8 289.2 285.2 280.1 272.8 268.1 263.6 262.3 260.7 250.7 218.3 193.9 174.2 155.3 148 142.7 138.4 134 129.8 127.4 127.2 127.4 126.3 126.1 125.8 126.5 127.9 127.2 125.4 125.8 125.9 126.5 131.2 138.4 144.2 146.5 150 153.1 154.8 154.4 157.4 155.7 157.4 157 157.3 151.1 153.6 149.3 142.4 138.7 135.5 135.6 138.5 144.2 147.8 142.5 130.5 127 123 122.2 120.7 122.1 137.6 132.4 127.9 123.5 118.1 119.3 120.7 130.3 142.6 151.5 160.7 159.7 151.9 131.1 127 155.8 175.5 180.3 184.1 187.2 188.7 190.5 191.9 194 196.2 198.4 200 205.5 209.9 219.2 225.9 235.9 248.3 259.7 269.2 278.3 288.9 297.4 305.7 312.8 315.7 318.4 325.5 333.5 336.4 334.6 329.6 321.7 323.9 324.8 329.2 333.2 340 344.4 349.2 354.6 362.6 366.4 367.3 371.2 372 372.6 372.9 373.8 374.3 374.4 373.5 372.7 370.6 368.4 366.4 363.2 360.9 357.1 351.8 346.3 340.8 336 331.2 326.1 321.5 318.1 314.2 308.1 303.5 297.2 289.7 285.8 281.2 277.6 274.8 271.4 266.7
388.2 380.9 380.2 378.1 376.7 381.7 385.2 382 376.2 377.9 380.7 375.6 358.1 343.7 322.4 315.5 319 319.8 320 320.5 320 319.6 315.3 307.6 298.2 294.2 293.2 290.7 290.3 289.5 289.3 289.5 290.6 293 297.3 302.6 306.9 310.1 310.6 315.9 321.4 317.5 313.6 306.7 303.2 301.4 298.3 289 284.3 276.8 271.3 266.7 266.5 266.7 264.7 242.9 213.5 188.5 173.4 160.4 150.8 145.3 140.5 135.4 132.3 129 127.4 126.2 125.5 125.5 125.8 127.9 126.4 125 124.9 125.5 125.2 126.7 135.3 140.1 143.9 145.2 149.3 148.3 146.8 148.2 148.4 146.2 142.4 148.1 149.2 147.1 140.5 139.4 135.9 133.8 133.1 132.7 133.3 135.6 130.9 128.9 125.6 118.5 120.6 134.6 143.5 163.9 151.8 140.8 135.8 135.2 137.7 140.3 156.3 168.2 179.4 185.9 181.4 163.9 141.6 130.4 155.2 170.9 177.9 182.8 186.5 189 191.6 193.2 195 197.9 201.1 204.5 207.9 212.3 222.2 230.4 240.5 253.7 265.6 277.4 289 299.2 308.3 319.3 325.3 332.3 338.4 348.5 353.2 349.2 343.6 339.8 337.9 336.3 335.8 341.5 345.4 353.6 365.7 372.2 373.5 372.7 371.5 374 376.6 376.5 375.9 376 376 376.3 375.6 375.1 374.6 373.1 370.7 368.6 366.6 364.5 360.3 354.8 349.4 344.6 339.5 334.5 329.7 326.2 323 319.4 311.9 308.1 302.2 297.4 293.2 287.3 284.2 279.9 276.2 273.9
383.1 376.7 375.7 372.9 369.9 373.4 377.5 376.6 368.5 371.4 372.4 363.2 348.6 334.8 315.3 307.5 311.7 314.2 314.9 317.4 318.6 318.6 317.3 311.5 302.2 294.2 291.2 289.4 287 286.6 286.4 286.4 287.2 288.8 293.2 298.7 302.4 303.2 304.7 310.3 316.8 319.7 315.3 310.6 306.7 306.1 302.9 294.9 288.6 280 273.8 269.7 269.5 270.6 269.9 262.4 236.7 206.4 194 178.4 168 157.8 149.2 143.6 137.8 134 131.4 128.3 126.3 126.7 127.3 126.8 126.7 125.3 125 124.8 124.8 125.3 138.5 139.6 139.5 139.5 141 142.5 138.5 138.2 137.4 137.9 140 140.7 140.2 139.3 136.3 135.2 133.9 131.4 129.3 123.3 123.1 123.9 119.4 119.6 118.3 120.5 131 152.9 173.4 177.4 175.9 161 155.1 149.3 149.9 157.7 175 195.4 203.5 201.7 188.6 165.5 148 133.8 147.4 164.7 175.9 180.8 184.9 188.3 191.6 194.7 196.2 199.7 203.3 207.7 212.5 218.1 225.4 234.6 246.5 259.4 272.3 285.5 296.7 308.1 321.1 331.6 341.1 347.6 360 364.3 359.4 354.3 351.3 346.9 345.8 344.6 346.7 353.8 360.1 370.2 371.3 379 378.5 376.9 376.7 380.7 380.3 380.2 380.6 380.2 378.8 377.7 376.8 376.3 375.2 374 372.2 370.5 368.4 366.4 362.1 357.1 352.8 347.8 342.7 337.7 334.2 330.7 327.4 323.8 320.3 315.8 310.2 304.9 300.5 294.9 291.6 287.6 283.6 282.8
377.4 370.7 369.5 367.1 363.8 365.2 370.4 370.8 358.6 361.7 363.3 353.1 339.6 326.1 307 298.3 303.7 308.3 311.4 313.9 315.6 316.1 316.4 313 306.2 295.9 292.7 288.2 285.2 280.8 283 282.3 282.6 284.5 288 293.9 297.5 297.1 297.9 301.9 310.1 316.2 315.8 311.8 308.8 307.3 306.8 300.9 291.9 283.3 276.3 272.6 270.7 271.4 271.5 268.2 257.6 241.1 221.9 203.4 188.5 179.7 169.7 159.9 150.4 144.1 138.4 137 134.4 132.3 129.9 127.5 126 126.4 125.9 125.5 125.2 125.5 139.5 139 138.8 138.8 137.9 133.6 135.7 131.9 130.2 130.4 131.8 133.5 133.9 130.7 133.7 133.4 131.2 129 123.8 121.7 120.9 121.4 120.1 121.8 122.9 127.7 148.6 161.6 181.6 183.7 187.1 183 181.8 175.3 176.6 184.2 198.5 209.1 209.3 205.4 197.6 186.7 163.1 137.2 160.9 174 178.7 181.9 185.4 189.3 192.1 195.3 198.9 201.1 205.1 209.2 215.5 221.6 229.3 239.1 251.9 263.5 276.8 290.4 303.4 316.8 331 344.9 355.7 368.3 371.9 368.6 364.5 358.3 356.1 354.2 353.7 354.9 359.1 365.4 372.1 374.9 380.6 381.2 381.1 380.4 381.3 384 384.4 384.1 383.4 382.6 381 379.1 378 376.9 375.9 373.8 372.1 371.2 368.5 367.2 363.6 360.2 355.8 351 346 340.9 337.1 334.1 331.2 328 324.7 320.4 317 310.8 305.9 302.2 297.4 292.7 290.1 285.7
370.8 366.1 365.6 362.1 359.4 359.6 363.3 364.1 348 354 353.5 343.9 331.8 318 294.9 287.8 296.1 301.1 305.9 309.3 311.3 312.9 313.4 312.4 308.1 298.2 291.2 287.8 284.2 280.4 278.8 279.7 279.4 280.1 282 286.2 291.9 292 291.5 294.5 301 309.1 314.2 312.8 308 308 309.8 305.7 295.1 287.2 277.8 271.5 269.7 268.5 269.6 267.7 260.9 251.3 243.9 233.6 219.8 205.8 196.5 185.9 173.7 163.3 155.7 154.6 153.1 153.1 144.9 132.8 126.5 126.3 126.2 127 137.6 139.9 138 133.5 133.5 133.7 124.6 126 128.9 128.2 125.8 125.3 125.4 128.7 129.3 123.6 123.3 127.9 128.2 122.1 120.9 120.3 122.1 122.7 120.7 121.8 131.3 137.5 158.2 165.3 182.3 190.7 193.1 192.1 195.6 199.1 200.9 206.2 212.4 214.1 212.9 207.9 200.8 191.6 180.1 152.3 167 176.1 181.3 184.8 188.1 190.3 193.5 196.3 200.1 203.5 208.3 210 218 224.6 231.9 244 256 269.6 282 295 309.2 323.4 343.7 362.3 377.2 378.4 376 372.9 370.2 366.8 362.1 360.2 360.3 362 365.6 370.7 373.4 375.5 378.1 380.1 381.3 381.2 382.9 384.6 385 385.2 384.9 384.1 382.4 380.2 378.8 377.6 375.8 374 372.3 370.7 368.5 367.3 366.1 361.7 357.2 352.6 346.5 343.6 340.9 338 335 331.8 328.5 326.5 322.4 315.3 311.9 307.4 302.7 298.4 294.5 293
364.6 362.4 360.6 357.3 354 354.7 357.5 356.3 341.3 344.1 342.9 334.4 323.1 308.9 289.8 280.1 287.9 293.8 300.2 305 307.2 309 310.1 309.8 307.5 301.4 291.5 286.6 282.5 278.8 276.3 276 275.7 275.5 277.6 279.3 283.2 284.7 286.5 289.2 295.2 302.2 310.2 310.5 304.8 304.8 308.3 307.7 298.6 286.1 279.6 272.4 266.5 260.7 263.2 261.7 256.8 250.9 246.6 242 237.1 229.9 222.4 213.2 200 187.2 176.3 174.5 175.8 173.2 161.7 147.1 127 126.4 126.4 139.9 134.3 131.8 128.8 125.5 122.9 123.6 123.4 123.9 124.3 123.9 123.7 122.9 122.2 123.6 123.1 123.3 122.5 121.2 119.2 120.8 120.8 120.9 121 120.7 121.5 127.6 137.2 152.8 167.6 173.3 195.1 200.7 198.9 197.9 200.9 204.1 209.6 212.5 215 216.1 214.7 209.7 203.1 195.3 184.9 164.8 153.4 175.9 182.5 185.5 188.5 191.4 195.2 198.9 201.5 205.7 210 213.9 219.1 225.8 235 246.1 259.1 273.8 286.1 301.1 314.6 330.9 358.7 380.6 385 385.2 382.9 380.4 376.6 372.7 369.5 366.3 365.2 366.5 367.9 370.5 372.2 374.5 376.3 377.4 379 381.3 382.9 384.3 383.9 384.7 384.2 384.3 382.4 380.3 378.6 376.8 375.2 373.7 372.1 370.6 368.6 367.2 366 361.5 356.2 352.2 350.7 347.1 344.4 341.6 338.7 335.5 333.2 329.4 325.3 321.2 319 311.8 306.1 302.6 299.4 294.8
357.7 358.4 355.5 351.3 349.7 350.9 350.5 346.7 332.4 334 333.7 325.5 311.5 300.6 284 274 279.7 287 294.7 299.2 302.6 304.9 306.3 306.7 306.1 302.6 295 286.7 281.2 277.3 274.7 273 273.4 273 273.8 275.2 276.7 280 281.2 283.1 289 296.3 303.3 306 301.1 299.4 302.8 305.7 301.4 290.5 282.1 274.2 267.4 259.5 254.1 254.5 251.3 248.6 245.1 240.4 235.5 229.2 223.7 217.1 210.7 203.3 194.8 186.5 178.4 171.1 157.7 148 132.4 126.8 126.4 125.1 124.6 123.4 123.3 123.5 123.3 123.8 123.1 123.3 123.5 120.9 123.4 122.9 122.5 122.8 122.5 123.8 123.5 123.9 123 124 124.3 125 125.6 121.9 125.8 132.9 145.8 161.7 170.3 194.3 204.9 205.4 203.2 202.6 205 209.9 213.4 215.6 216.8 216.9 215.5 211.1 205.2 198.8 193.6 182.2 166.2 170.9 182.1 185.6 189.5 192.3 195.8 200.1 203.1 206.5 211.1 215.8 221.1 227.2 235.4 247.1 260 275.1 288.2 304.4 322.1 339.7 368.2 385.7 392 394.2 392 387.2 384.3 380.7 375.5 371.7 370 369.1 369.8 370.6 371.2 372.6 373.7 374.8 376 377.6 380.6 381.9 382.7 382.3 382.4 381.7 381.2 379.9 377.9 375.8 374.2 372.7 371.4 369.7 368.8 367.3 364.9 361.4 358.3 354.7 352.9 351 347.4 344.3 341.8 338.5 336.6 332.4 329 323.4 319 313.8 310 305.3 300.7 296.6
352.8 353.2 349.9 347.3 346.6 344.3 341.9 336.3 327.8 323.4 325 314.2 304.7 290.7 280.1 266.8 271.5 279.3 287.6 293.4 297.4 300.8 302.4 303.4 303 301.7 295.2 288.1 280.6 275.8 270.9 268.2 270.9 270.8 271.3 272.1 273.5 275.6 277 279.5 282.5 288.3 296.7 297.4 296.1 293.1 297 300.9 300.8 293.5 284.5 275 266.8 257.1 250.2 247 245.5 244.4 241.5 236.9 232.7 227.4 222.2 217.6 212.6 206.8 199.2 180.2 167.2 156 149.1 142.4 134.2 127.5 126.5 125.5 125 123.9 123.9 123 122.7 122.7 122.4 122.3 122.6 123.5 121.2 121.4 121.1 123 124.2 126 126.9 127 126.8 130.2 133.7 132.8 130.5 127.4 127 134.8 145.5 165 189.6 207.6 209.1 210 208.1 207.6 210.9 213.1 215.3 217.8 218.6 218.3 217 212.5 207.6 202.9 198.9 193.5 175.8 171.4 181.6 187.3 190.9 194.2 196.8 200.2 203.7 207.8 212.6 218.5 223.3 228.8 237.6 248.1 261 275.8 290.6 307.3 325.4 349.3 376.4 392 398.9 397.4 395.5 392.7 389.3 386.4 383 379.4 376.1 372.8 372.1 370.8 370.8 370 370.7 371.8 372.9 374.3 377.8 379.6 380.5 380.3 380.2 380 379.2 378.2 376.5 374.7 372.9 371 369.4 368.1 366.9 366.6 364.4 363.1 360.4 357.5 355 352.6 349.6 346.7 343.9 341.1 339.3 335.3 332.3 326.3 319.9 315.9 312.2 309.3 305.6 303
348.6 349.3 346.1 343 343 339.9 332.9 326.3 320.2 306.7 311.4 303.4 294.4 283.9 276.2 260.3 265.6 270.8 280.7 287 291.1 294.8 297.4 299 299.8 299.3 293 286 279.3 273.3 270.2 266.1 268.4 268.7 269.5 270.2 271 272.6 273.7 275.2 277.5 279.6 285.9 290.4 289.7 288.8 290.7 295 298.2 294.5 285.3 275.6 266.3 256.3 246.9 241 239.7 238.3 237.2 234 229.1 225.5 220.1 215.5 211.7 205.2 187 170.9 158.9 148.7 143.5 137.5 130.7 127.8 126.2 125.2 125.1 123.9 123.2 122.9 123 123 123.3 123.2 122.6 124.1 124.5 124 124 127 129.9 133.3 132.3 130.3 131.7 136.8 145.6 143 139.9 133.4 130.7 136.7 146.5 159.6 179.3 201.3 209.5 212.9 213.8 213 215.4 216.7 217.6 219.2 220.1 220.7 219 215.1 210.5 206.6 201.6 196.5 185.3 172.5 183 187.5 190.8 194.7 198.1 201.5 205.2 209.4 213.5 218.5 224.9 231.9 240.1 249.3 262.1 277.5 292.7 307.5 325.3 347.6 374.6 391.7 400.3 399.8 398.1 395.7 393 390.2 387.3 384 380.7 376.9 374.6 372.5 370.2 369.4 368.6 369 369.9 371 374.4 376.9 378.1 378.1 377.8 377.5 376.5 375 373.3 372.4 370.5 369 367.6 366.4 365.2 364.9 364.4 363.6 361.9 358.5 356.6 354.1 351.8 349.3 346.3 343.8 341.8 338.7 334.3 328.1 322 316.6 315.3 311.9 309.5 302.5
345 345.2 341.4 340.1 339.4 336.9 328.1 321.7 314.8 301.9 287.2 292 281.6 274.2 268.7 255.5 260.9 263.9 273 279.9 284.5 288.7 291.3 294 294.9 294.4 288.3 283 274.9 269.6 267.6 259.2 265.8 266 267.7 268.4 269.2 269.7 271 272.4 273.8 276.5 279.5 283.1 285.2 285 285.5 289.8 293.9 293.5 286.5 276.9 267.2 255 244.5 237.4 234.2 232.1 231.1 229 226 222.5 220.2 216.9 213.8 196.5 175.1 165.4 150.7 143.7 142.7 134.7 129.2 127.3 126.8 125.1 125.6 124.4 123.6 123.9 124.1 124.2 123.3 122.3 122.7 124.8 124.2 129 131.3 131.4 139.3 146.3 144 137.9 136.5 146 152 151.3 147.7 143.2 140.6 141.3 150.8 155.5 163.6 181.8 205.4 214.8 216.9 215.9 218 219.2 219.3 220.3 221.5 222.8 221.4 216.9 212 207.3 203.3 198.6 190.6 172.8 184.1 188.3 192.8 196.5 199.5 202.6 206.7 210.5 215.5 220.9 226.4 232.7 241.6 251.9 265.4 279.9 296.2 310.1 329.6 343.9 361.5 390.1 398.9 400.9 399.4 397.4 394.8 391.6 389.2 386.6 384 380.6 377.4 373.5 370.1 368.7 367.9 366.8 367 368.1 369.6 373 374.8 374.6 374.2 373.5 372.7 372 371.1 369.4 368.4 367.1 365.9 365.1 364.7 363.7 362.5 362.7 362.8 361 359.1 357.4 354.6 351.7 349 346.1 343.7 340.5 334.6 330.1 324.5 318.9 314.7 311 308.6 301.5
339.3 340 337.3 336.3 336.2 333.9 324.4 319.2 312.7 298.1 283.8 271.4 268.7 266.9 262.7 256 255.2 256.5 265.2 271.7 277.1 281.8 284.9 288.1 290 286.6 281.2 276.1 270.3 266.4 263.2 255.8 261.7 263.9 265.3 266.3 266.8 267.2 268.6 270.3 272.1 274.3 277.1 280.1 281.6 281.6 282.6 285.7 288.9 291.7 287.6 278.6 268.6 255.7 243.4 236 229.5 226.6 226.1 223.5 220.4 219 217 215 209.5 178.4 166.4 152.3 143.3 134.2 132.8 131.6 129 127.1 126.7 128.9 132.7 134.3 133.1 131 131.7 130.8 129.2 124.5 124.2 124.2 129.8 134.9 135.8 138.1 149.4 153.7 153.4 152.4 146.4 155.3 152.5 162.5 158.1 152.1 146.3 142.2 148.8 155 159.6 174.7 194 215.8 219.3 219.1 219.8 220.8 221 221.3 222.6 223.4 222.9 219 214.5 209.3 203.4 197.7 191.8 174.7 184.7 189.3 194.3 197.9 200.4 203.4 206.6 211.1 215 220.7 225.9 231.7 242.6 253.6 268.4 285.1 297 308.9 332.5 337 367.4 387.7 398.3 400.9 399.5 398.1 396.3 393.1 390.8 388.4 385.6 382.5 380 375.3 370.6 367.8 366.8 365.4 364.6 365.1 366.4 367.9 369.9 370.1 370 369.3 368.4 367.6 367.2 367 366.2 365.2 363.9 363.9 362.3 361 361.4 361.7 362 362.3 361.8 359 356.6 354.2 350.6 347.6 344.9 341.4 335.8 331.1 325.4 320.5 314.7 311.2 305.9 301.4
334.7 334.8 333.2 332.1 332.4 319.8 319.4 315.3 310.4 299.9 288.3 275.3 267.9 260.2 257.4 252.8 247.2 250 259.2 263 268.5 274.4 278.3 282.1 281.2 278.2 274.4 270 268.2 264.7 258.5 252.4 258 259.5 262.4 263.5 263.8 265.2 266.6 268.3 270.4 272.7 275.7 277.6 278.2 278.8 279.3 281.6 283.5 286.8 286.8 280.7 268.6 255.7 242.2 233.8 228.8 219.5 220.9 218 215.1 212.7 211.3 211.8 198.9 169.6 156.1 143.9 130.2 130.4 130.6 130.8 127 127.2 138.9 144.2 151.1 152 150.9 149.3 148.8 146.1 138.1 136.5 134.2 129.7 136.1 139 145.1 146.8 154.3 160.1 158.1 157.2 170 170.8 165.5 166.5 164.7 157.1 151.1 145.9 145.4 155.1 162.7 171.6 192.1 217 220.5 221.4 221.7 222.3 222.3 221.9 222.4 223.1 224 220.6 215.8 209.5 203.1 198.1 193 184.2 188.2 190.7 193.2 198.8 201.6 205.3 209.5 214.2 218.6 223.8 230 238 249.6 268 278 289.4 299.1 319.2 325.3 346.4 373.1 385.9 395.4 398.6 398.5 397.3 395.7 392.9 390.2 387.8 386 383.7 381.2 376.6 372.5 368.1 365.5 364.1 362.8 363.1 363.5 363.9 365.5 365.8 365.5 364.8 364.1 363.3 362.7 363.1 363.5 363.4 362.7 361.8 360.6 357.9 358.5 359.5 360.2 359.2 358.2 358.2 354.4 353.1 349.9 346.6 344.3 342.9 336.2 330.8 326.2 321.7 317.8 310.4 305 299.1
330.9 331.1 329.7 329.1 328.5 323.7 314 310.2 304.9 293.8 280.5 269.4 265.1 259.9 255.9 252.4 248.5 246.5 251.5 254.7 259.8 268.2 272.3 275.6 273.2 270.8 267.5 265.3 265.1 264.8 251.4 247.7 254.3 256 258.7 259 259.9 262.5 265.3 267.8 269.1 271.3 273.3 274.6 276.4 276.6 276.9 277.6 279.3 282.2 282.7 278.4 267.5 254 239.9 231.8 225.8 219.1 216.2 215.2 211.4 205.9 202.2 203 188.8 160.1 146.8 130.2 130.9 130.7 128.7 129.3 135.7 142.9 150.3 157.3 161.4 160.9 161.9 165.3 165.4 171 160.5 155.5 148.5 142.9 140.7 143.3 150.9 154.4 157.6 164.8 164.8 178.3 183.4 187.7 184.2 171.5 168 159.7 154.4 148.6 147.7 154.9 164 172.4 194.5 219 221.6 222.2 222.7 222.5 222.4 222 222.4 222.7 223.3 221.5 216.8 210.6 205.8 198.7 192.5 188.2 191.1 192.8 195.8 197.2 201.5 206 211.2 215.6 220.3 226 234.5 244.7 254.6 265.5 277.6 291.3 306.9 318.1 338.6 354.3 372.4 386 394.5 398 396.6 395.5 394.4 391.8 389.8 387.2 385.1 383.5 381 378.2 374.5 368.6 364.6 363 361.6 361 361.3 361.3 360.9 361.2 361.3 360.4 359.7 359 358.3 358.9 359.5 359.5 360.1 360.2 359 355.6 352 350.8 353 354.1 352.8 352.9 351 348.7 346.1 343.5 342.6 340.4 335.5 331.4 328.3 322.7 315.5 309.4 302.5 295
327.7 328.6 326.3 325.7 323.2 316.8 308.6 304.2 296.6 284.6 273.2 266.9 262.3 257.7 253.6 249.9 249 240.6 244.6 248.8 252.9 261.4 261.9 263.2 263.8 263.9 260 260.8 261.3 258.5 240.3 244.6 250.3 251.5 252.6 252.4 256.1 257.8 262.9 267.1 267.6 267.3 268.3 272.9 273.7 273.8 273.1 274.4 275.7 278.4 276.2 272.9 263.8 251.6 241 232.3 226.5 221.3 210.4 207.2 202.5 192.2 186.7 183.2 179.1 151.6 143.4 130.4 130.5 130 130.1 133 143.6 152.6 166.1 170.3 167.5 167.6 176.6 184.9 181.2 175.9 185.6 172.1 177.7 157.1 155.8 154.4 160 165.7 170.4 173.2 175 188.3 191.6 193.2 196.5 189.1 181.1 172.5 155.3 150.8 146.8 152.6 159.1 174.3 199.5 219.6 221.7 222.9 222.6 222.4 222.2 220.9 220.5 220.3 221.7 221.2 217.1 210.8 205.5 198 191.5 193.5 194.7 196.5 199.1 201.8 197.4 204.7 210.3 215.9 221 227.3 235.4 246.2 258.7 270.8 282.4 294.3 312.3 335.2 343.3 365.4 379 391 396.2 397.4 395.3 394 392.5 390.5 388.5 386.3 384 381.6 379.2 376.7 373.6 368.6 364.7 362.1 360.5 359.4 359 359.4 359.2 358.4 358.6 357.5 356.5 355.5 354.5 353.9 353.9 353.8 353.5 352.9 351.4 348.6 345.7 343.7 343.3 342.5 342.2 343.7 346.2 344.5 341.7 340.9 340.4 338.1 335.3 330.5 327.9 323 315.8 306.5 296.8 289.8
325.5 325.2 322.3 321.7 318.3 309.5 303.8 298.5 274.3 272.1 264.2 262.1 260.2 257.2 253.2 247.3 243.1 242.5 235.9 240.8 243.6 247.9 251.1 253.3 254.8 255.1 253.4 256.4 254.8 251.1 230.4 242.8 245.7 244.6 243.7 243.3 248.8 252.3 256.7 260.7 261.9 262.5 265.3 267.1 268.9 270.5 270.8 270.6 272.9 274.8 272.2 266.2 259.4 250.5 242.1 233.6 226.6 221.6 216.9 215.4 208.2 197.5 176.7 173.5 163.6 144.8 141.4 130.4 131.9 131.7 140.6 145 146.4 159.4 173.2 177.4 181.3 187.4 193 196.2 199.5 195.4 200.5 195.8 189.4 182.9 171.9 168.4 190.7 192.3 203.9 187.2 192.8 207 214 220.3 213.2 208.4 185.3 178.9 162.1 149.5 148.5 150.3 159.7 165.7 187.3 220.2 222 223 222.7 222.4 221.9 219.4 217.7 216.4 218.5 219.8 217 211.1 205.3 198.8 197.7 196.9 198.9 199.3 202.1 205.5 202.8 205.1 211.9 216.7 224.3 231.4 239.4 253.6 264.2 277 289.4 301.3 319.6 334.4 357.4 370.5 385.4 396.8 397.9 396.2 395 392.8 389.7 387 385.7 382.1 378.7 377.9 375.4 373.1 370.4 367.7 363.6 360.8 358.7 358.7 358.2 357.9 357.4 356.4 355.9 354.8 353.8 352.4 351.2 351.1 350.2 349.1 348.4 346.4 344.9 343 340.8 338.5 337.4 337 336.6 337 337.2 337.6 338.3 337.6 336.4 335.7 333.5 329.7 326.4 320.6 308.6 298.6 289.7 280.7
321.1 321 318.5 316.5 312.7 300.5 295.7 285.9 268.1 260.3 257.5 254.7 252 250 247 241.2 237.7 233.7 230.9 231.6 231 231.5 234.8 238.3 241.2 243.1 248.6 247.7 246 231.3 231.8 240 241.9 241 237.6 235.2 242.8 248.7 252.4 255.7 257.8 259.8 261 262.3 264.1 266.4 267.2 268.8 270 272.9 270.4 263.8 257.8 249.7 241.6 234.7 228.4 223.7 218 215.9 210.5 202.8 181.7 162.8 150.5 141.2 131.4 130.2 131.4 138 154.4 151.2 155.3 164.6 182.3 185.5 189.4 192 198 201.3 205.1 208.7 206.7 203.2 199.7 197.1 192.4 183.8 203.6 211.6 218.9 203.5 208.1 226.7 225.6 223.1 219 215.7 206 194.8 169.7 150.6 149 150.5 158.5 173.3 201.8 219.1 221.8 222.5 222.1 220.6 217.9 215.8 214.9 213.1 215.4 218.3 218 214.6 209.1 201 202.6 204.6 203 203.8 205.6 208.8 208.2 208.4 215.4 221.8 225.8 233.6 243 255.7 267.9 280.3 294.8 310.6 331.3 338.4 359.5 377.9 390.8 398.5 397.1 395.2 393.9 392.1 387.7 383.8 380 375.9 374.2 372.2 370.1 367 365.9 363.5 361.7 357.9 356.5 356.5 356.5 356.4 355.3 354.2 353.2 351.8 350.3 348.8 347.8 348.3 347 346.4 345.3 342.6 340.8 337.1 334.2 334 333.4 333 333.3 333 333.3 331.2 331.8 333.8 332.4 331.7 329.5 326.1 320.7 310.6 299.6 289.3 280.1 270.6
317.1 317.1 313.4 310 301.7 291.7 275.7 259.8 255.8 248.9 245.6 244.2 242.5 240.3 237 237.6 234.2 233.6 233.7 238 233.5 226.6 224 223.3 229.2 237.4 237.5 236.2 233.9 219.9 231.2 235.9 237.2 237.7 233.2 227.6 236.7 244 248 252.3 254.5 255.9 256 257 259 262.6 265.1 265.9 267.8 270.3 273.7 262 255.6 249.6 242.9 235 229.3 224.7 217.8 216.2 211 203 184.4 162.8 145.7 138 130.2 130.1 131.6 162.5 169.1 160.1 163.1 179.2 186.2 190.3 193.3 196.8 201.5 206.5 211.4 214.1 212.4 208.6 203.3 204 202.7 198.5 205.7 215.3 221.1 224.3 227.6 228.9 227.8 225.7 223.1 220.3 216.3 212 187.1 160.3 147.7 150.7 161.5 167.6 188.5 212.1 216.6 216.9 216.4 215.6 213.7 211.1 210.7 210.3 213.2 217 220.3 218.9 213.5 205.5 207.8 209.4 207.7 209.7 209 211.5 214.6 217.8 220.6 225.1 232 239.1 249.1 257.1 269.2 282.8 300.5 316.4 325.3 349.5 363.8 382.2 397.2 397.7 396.4 394.4 392.1 390.7 386.8 381.8 376.3 371.7 368.3 365.3 363.1 360.9 360 357.6 357.5 353.6 353.8 354.4 354.4 354.4 353 351.2 349.6 348.2 346.7 345.5 344.4 344.7 343.5 341.1 338.7 334.8 332.5 330.3 328.1 326.3 325.8 326.9 328.6 328.2 327.7 327.7 328.7 328.4 326.3 325.6 324.6 322.2 310 300.1 291.3 281.4 271.7 261.4
309.5 308.6 306.7 297.4 282.7 272 275.6 281.4 274.6 267.8 267.2 264.7 261.6 257.1 254.2 246.4 248.2 247.1 246 245.2 244.9 241 232.3 228.4 221.2 217.3 217.9 217 214.2 212.1 223.4 230.8 231.6 232.5 227.8 211.6 225 238.3 246.7 249.5 250.8 249.8 250.4 252.8 254.4 258.4 261.6 264.2 265.9 268 273.4 263.9 254.8 251.4 245.6 236.2 228.9 225 217.8 215.8 210.3 203.3 188 165.5 143.3 131.2 130.2 132.8 149.3 172.2 175.4 169.9 172 183.9 189.4 192.5 196.7 200.9 205.7 212.2 216.6 218.5 216.6 212.4 208.9 207.9 206.8 206.7 213.2 218.5 222.1 226.2 230.2 231.4 230.5 228.6 225.6 222.3 219.1 214.3 201.6 171.3 154.7 149.2 152.1 169.7 185.6 197.7 202.7 207.2 207.6 207.3 206.9 205.7 206.1 207.6 210.9 214.4 218.6 221.4 217.9 211.8 209.7 212 211.3 212.3 213.2 215 219.4 223.2 225.7 233.1 238.7 245.4 252.3 262.8 274 287.4 301.6 318.6 333.7 349.2 368.5 386.4 396.9 396.8 395.6 393.6 391.3 387.7 384.4 379.1 373.7 367.6 363.1 359.3 356.1 353.8 349.9 347.5 348 347.6 349.3 350.8 351.4 351.6 349.9 348 346.2 344.6 343.2 342.1 341.1 340.8 340.1 338.1 334.5 326.9 324.5 325.9 323.1 320.7 318.5 319.5 322 323.5 324 323.7 323.7 322.4 321.3 318.1 312.1 307.5 302.2 294.9 285.5 274.6 263.3 248.5
293.3 290.4 288 284 284.8 293.8 297.6 300.6 303.6 301.1 296.5 291.3 287.8 283.3 276.6 271.6 263.3 262.6 254.9 249.3 246.2 243.3 246.5 244.9 238.5 239.4 239.2 236.8 234 229.4 216.3 203.9 205 203.7 204 198.3 208.9 226.9 239.4 242.2 244 244.6 247.1 249.6 252.2 255.8 258.8 261.1 263.8 265.4 269.9 265.4 256.9 252.7 248.7 241.5 232.7 223.3 216.7 212.4 208.4 200.2 177 152.3 132.2 130.2 130.8 133.4 165.2 173.5 182.6 180.9 181.9 189 192.9 195.2 199 204.1 210.6 216 219.2 220.6 218.9 215.3 212.4 212.1 210.5 211.2 215.2 220 224.7 229.2 232.3 234 232.8 230.4 226.9 223.6 220.8 216 208.8 200.3 173.6 158.8 149.2 170.7 183.3 188.4 193.4 197.5 200.4 200.8 201 202.3 203.5 205.5 209 212.4 215.6 220.1 219.8 216.8 212.6 215.9 215.3 216.7 219 220.5 223.3 229.7 234.7 240.9 246.1 251.2 259.6 267.9 280.3 293.4 310.3 324.4 342.9 352.8 374.9 389.7 396 395.5 394.6 392.5 390.2 387.2 381 376.5 370.6 364.3 359.6 353.5 349.2 345.7 343.1 341.1 340.6 341.6 343.7 346.2 348 347.9 346.6 344.8 343 341.1 339.8 338.7 337.5 337.2 336.2 334.5 332.4 327.6 322.5 319 317.2 314.3 312.4 311.6 314.9 316.2 315.6 315.3 315.9 314.7 314.4 308.2 303.7 303.1 298.7 289.7 279.2 264.8 250.9 237.9
311.6 305.9 302.4 305.1 311.6 315.7 318 322.5 325.5 327.1 323.3 318.2 314.8 309.8 303.4 295.7 285.9 279.5 272.3 269.1 260.2 250.9 250.7 256.7 258 261.1 257.6 255.8 251.4 250.1 247 237.1 229 222.2 215.1 200.5 187.1 208.8 226 233.7 238.3 241.7 245.4 247.9 250.2 254.3 257.3 258.9 261.1 262.7 267.7 266.2 260 254.9 252.6 247.3 236.8 224.7 217 208.3 205.1 195.2 170.5 146.4 132.6 130.5 131.3 142.3 163.8 172.5 184.3 188.4 181 192.9 196.1 198.2 200.7 206.3 212.5 216 218.5 220.8 219.9 218.1 216.6 215.8 213.9 214.6 218.6 222.8 227.3 232.2 235.4 234.4 232.5 230.4 227.8 224.9 221.9 216.3 214 211 196.8 175.7 157.2 151.7 166.3 181.5 186.6 191.3 194.8 195.8 197.5 199.7 201.6 204.5 207.7 210.1 214 218 222.3 220.4 215.1 218.4 220 221.4 224.7 224.6 229.3 235.1 240.6 244.8 255.3 260.2 265.9 275.2 286.9 297.6 311 328.7 346.8 353.2 378.8 391.8 395.3 394.8 393.4 392.1 390.1 386.7 379.7 374.4 367.9 361.5 355 347.7 341.8 339.9 337.6 336.3 335.3 335.5 338 342 344.7 345.4 343.9 341.7 339.8 338 336.3 335.5 333.8 332 330.2 329.6 326.9 323.1 319.7 315.7 309.4 306.1 304.3 303.4 307.3 307.2 307 306.6 308.4 308.2 303.9 298.6 297.9 297.5 295.1 289.5 277.7 255.3 238.5 227.1
337 320.1 322.3 323.2 324.9 325.8 326.5 329.4 332.4 335.8 339.1 339.1 336.7 332.5 325.5 320.5 313.3 305.4 297.7 286.9 279 271.8 261.2 259.9 262.8 265.3 267 262.4 257.3 252 251.7 245.9 240.8 238.5 237.3 219.6 197.3 185.6 214.4 231.8 237.5 242.5 245.9 247.7 243.7 251.9 255.6 257.2 258.1 259.3 263 264.2 259.5 255.4 254.1 251 240.4 226 216.7 209.4 201.4 191.6 164.4 146.1 132.3 132 132.9 153.8 173.3 174.1 184.6 191.5 193.1 193.5 198.7 200.4 204 208.5 214.4 217.1 219.2 221 220.6 220.5 219.3 218 216.6 216.5 221.3 225.2 230.1 235.7 238.1 235.4 232 229.9 227.2 224.7 222.6 219.5 217.2 214.5 210.8 201.7 173.1 170.6 159.1 164.1 182 188 190.7 193.4 197.5 199.1 201.1 202.3 204.8 208.9 212.5 217 222.2 223.1 220.3 221.4 226.6 227.7 232.1 234.4 238.5 243.5 250.2 254.5 256.9 269.6 275.5 286.9 296.3 310.4 322.2 336 350.3 361.4 384.4 394.8 394.8 394.1 393.2 391.5 389.4 386.3 379.6 372.5 366.5 362 352.9 344.6 338.1 334.2 331.7 329.9 329.7 329.9 331.8 334.9 340.2 341.6 341.3 338.9 336.7 334.6 331.8 328.8 329 326 324.1 322.6 320.9 318.5 315.1 309.4 301.3 292.6 294.2 293.7 297.3 300.3 298.7 299.1 299.6 298.2 296.9 292.3 290.7 290 289.8 282 265.4 244.2 227.8 217.5
353.7 342.8 334.6 332.4 333.6 335 334.8 333.8 335.4 338.4 341.4 344.1 344.9 343.6 338.7 331.8 327.8 319.5 311.1 299 285.9 276.6 266.9 260.5 265.1 265.3 265.7 261.3 256 249.2 246.4 240.6 235.7 229.2 202.6 194.2 189.6 183.3 193.5 220.6 237.6 243.2 247.5 247.9 239.4 247.3 252 253.5 254.9 256.3 257.4 261.2 255 249.7 252.6 250.6 245.7 227.9 218 209.3 195.4 184.7 149.9 145.1 133.6 133.1 136.1 162 183.4 183.9 191.3 195.9 198 196.6 201.8 204.9 207.9 210.6 213.7 218.3 220.2 221.7 221.6 222.2 222.5 221.4 219.8 218.8 223.9 228.7 234.6 239 239.4 236.3 231.9 229.2 227.5 225.2 223 221.6 219.3 216.1 213.3 209.6 202.1 191.6 178.3 158 178.3 184.2 187.1 186.6 193.3 196.2 199.5 200.5 203.4 207.8 212.4 217.5 222.9 223.9 224.1 225.5 229.9 233.5 238.9 242.9 247.6 251.5 257.5 262.1 269 273.9 286.9 293.9 304.1 315.7 331.8 342.5 358.3 378.2 389.7 394.4 394.1 393.3 392.3 391.4 389.2 386.5 380.6 372.9 364.5 357.7 343.3 336.2 331.6 328.1 325.4 325 324.6 324.2 326 327.8 332.2 334.6 334.8 332.4 331.2 328.5 327.1 324.3 322.6 320.1 318.6 316.6 313.5 309.3 304.5 298 290.7 285.2 282.9 281.9 284.8 292.2 290.5 289.4 285.4 282.3 282.7 282.1 278.3 281.1 280.8 269.7 247 234.3 220.4 208.7
362.3 354.4 347 340 337.1 339.6 339.5 338.6 338.3 338.9 341.9 344.8 347.3 347.8 345.9 337.4 335.4 325.7 315.1 302.9 287.5 278 266.4 264.6 266.2 265.3 263.3 256.8 250.9 243.4 238 226.6 211.1 196.4 205.9 206.8 203.7 197 181.6 199.6 226.9 240.8 244.1 242.1 234.9 231.6 232.3 234.9 240.8 247.8 252.9 255.9 247.7 243.8 247.3 247.1 246.5 229 220.9 205 197.3 175.2 150.2 133.3 133.3 133.4 140.6 166.8 186.3 189.4 193.5 198.2 202 203.7 202.6 207.4 209.7 212.2 216.5 220.8 221.2 222.2 223.2 223.5 224.1 224.3 223.5 222.2 227.7 232.8 238.4 240.7 239 236.2 232 229 227.2 225 223.1 221.8 218.2 214.5 210.8 206.6 201.3 195.3 181.2 166.9 163.3 173.7 178.3 180.6 179.2 191.8 196.1 198.6 201.4 205.2 210.2 215.5 220.7 223.9 226.5 228.7 235.3 242.3 245.6 250.8 256.1 258.6 265.5 271.6 281.1 287.7 295.1 306.1 319.1 326 336.7 359.8 374.7 386.8 391.6 391.8 392.6 392.3 391.2 390.1 388.9 385.8 379.3 371.8 362.8 353.6 342.7 331.1 324.6 319.4 317.8 320.1 319.8 319.2 319.9 320.1 322.9 326.3 327.5 327.7 326.5 324 321.4 318.7 315.6 312.8 309.1 303.5 295.3 291.6 288.3 284.6 283.5 279.7 269.2 268.9 270.9 273.5 276.5 276.3 271 270.1 269.8 269.5 265.7 269.2 268.2 251.2 237.2 222.5 205.9 193.5
366.7 360 351.7 344.5 341.7 341.8 342.4 341.5 339.5 339 340.2 343.1 345.7 348.2 347.5 339.6 333.9 325.3 313.8 301.5 287 277.1 267.5 265.5 266.1 264.9 258.3 249.9 242.1 232.9 216 213.7 226.6 235 243 231.1 221.9 213.9 183.2 181 203.3 212.4 211.7 217.5 216 210.9 215.7 219.8 223.9 227 232.4 239.7 238.3 236 240.1 241.7 242.5 227.8 214 189.9 174.4 153.2 142.6 134.1 134.2 132.9 159.1 169.7 188.8 194.6 197.2 201.7 204.9 206.4 207.4 208.5 211.2 215 219.8 221.4 222.5 223.4 224.4 225 225.7 226.3 226.8 225.1 229.6 235.7 240.5 240.7 238.3 235.4 231.7 228.4 226.3 224.3 222.1 219.3 215.3 212.4 208.6 203.5 197.8 192 188.3 192.7 189.4 190 187.5 187.2 186.4 187.7 193.3 196.7 201.5 205.4 208.4 213.1 218.8 222.2 226.6 230.7 238 248.5 253.6 255.5 262.9 268.2 274.6 282.8 292.3 299.2 313.1 320.5 330.6 339.9 357 372.2 384.6 390.7 390.7 390.2 389.8 390.3 390.6 389.4 387.8 385.3 378.8 370.8 360.6 348.1 339.6 332.5 324.5 317.5 309.9 313.6 314.7 313.9 313.6 314.2 315 318.1 321.6 321.8 321.3 319.8 316.4 311.6 306.2 298.9 292.5 285.9 281.9 280.5 278.2 271.9 266.6 263.2 261.6 252.1 254.4 257.2 260.1 259.4 259.1 258.8 256.8 256.2 253.9 254.2 251.4 236.1 221.3 209.2 196.5 189.2
367.6 362.4 353.8 347.2 343.9 342.4 342.4 341.9 338.9 337.2 336.6 340.1 343.5 345.9 345.2 336 327.8 319.7 309.6 297.9 284.3 275.6 265.3 263.3 264.2 262.3 251.5 236.8 222.4 210.6 219.6 235.8 240.1 242.9 248.6 251.7 250.5 228 195.6 178.3 177.1 178.7 176.5 189.1 194 185.4 191.4 198.1 211.4 213.9 215.8 222.3 225.4 224.9 232 235.5 235.5 234.4 201 173.9 154.3 145.1 135.8 135.3 135.4 142.1 163.2 186.2 193.4 197.2 200.4 203.5 207 209.1 210.5 210.7 212.5 216.7 219.2 221.8 222.8 223.9 225.4 226.5 227.6 228.1 229.2 228.2 232.2 237.3 241.6 240.7 237.1 234.6 231.1 228.8 225.9 223.6 221 218.1 214.3 211.4 207.4 204.2 201.1 197.3 198.2 199 196.7 196 193.1 192.4 190.3 188.4 193.5 199.2 201.5 204.2 209 212.9 218.6 222.6 227.6 233.4 240.2 249.3 257.1 263.2 265.6 277.3 284.5 295.8 303.1 312.8 323.7 334.4 343.9 354.7 368.6 382.8 389.1 389 388.6 387.9 387.8 387.5 389 388.1 384.6 380.2 374.6 365.7 353.9 343 333.2 328.6 323.2 316.7 309.9 308.4 309.6 308.7 308.4 309 309.9 312.9 316.4 317.8 317.1 315.4 309.5 302.5 293.9 288.3 280.8 275.2 270.8 267.1 262 255.4 253.1 250.1 247.7 244.4 242.6 244.6 242.8 246.9 249.2 247.5 239.6 237.6 240.7 239.3 233.6 220.1 208 198.9 187.4 179.9
366 361.8 354.4 348.2 344.4 342.6 340.9 340.4 337 335 333.7 337.3 341 343.2 339.5 329 322.2 313.7 303 290.6 279.3 271.1 262.1 261.9 261.8 254.3 237.6 216 224.4 236.2 245.1 247.8 249.5 250.2 251.5 256.9 258.4 243.1 217 195.6 181.4 176.6 172.4 170.7 169.3 168 167.3 172.8 190.7 198.1 205.2 208.4 211.8 212 222.3 228.9 227.9 219.2 187.1 163.7 145.6 136.5 136.1 138.1 145.8 157.4 162 185.2 195.6 199.6 202.9 205.3 209.5 211.3 212.8 213.8 214.2 217 219.8 221.4 224.3 225.8 226.6 228.7 229.8 230.1 230.9 231.7 233.2 239.1 242.7 240.1 237 235 232.2 229.7 227.1 224.8 221.3 217.5 215.1 212.9 209.3 206.8 204.5 202.4 203.3 202.7 201.2 200.1 197.5 196 194.9 196.3 197.6 198.4 203.7 207.2 210.2 213.5 218.7 223.5 227.8 235 241.8 249.5 258.4 268.8 275.7 286.3 294.4 306.8 316.6 324.7 336.1 346.4 357.3 369.8 382.5 387.5 388.2 386.1 386.4 386 386.2 386.3 386.5 381.6 376.2 371.3 365.2 356.2 345.2 337.7 331.1 324.3 318.6 312.6 308.1 303.2 304.7 303.6 303.9 304.2 305.6 307.3 311.9 313.6 312.7 309.8 303.3 294 285.3 273.4 270.4 263.6 257.5 252.1 249 245.5 241.7 237.5 234 230.8 226.3 225.6 225.5 228.4 229.2 227.4 222.5 221 220.8 218.3 214.5 204.1 197.7 188.7 179.5 173.4
363.5 358.8 353.1 348.3 344.5 340.4 339 337.2 334.1 332.4 331.5 334.9 338.2 339.1 334.1 323.8 316.9 307 299.8 288.4 278.7 268.9 259.9 259.3 256.8 247 218.1 226 239.1 244.2 252 254.7 256.7 257.3 258 259 265.4 264.6 237.6 217.2 204.4 197.4 195.2 187.5 182.9 187.8 168.7 164.5 173 181.7 190.5 197.9 201.5 203.6 212.3 220.1 219.5 202.8 172.1 148.7 140.1 137.5 139.9 145.3 157.9 176 172.5 177.3 190.2 200.9 204.8 207.9 212.6 213.8 214.9 216.5 217.3 221.5 221.6 223 226.4 228.3 228.9 229.8 233 233.1 234.3 235 237 240.6 243.7 241 239.2 236.3 233.7 231.2 227 225 223.1 224 222 218.8 212.6 210.9 208.1 207.3 207.3 205.7 205.3 204.3 201.5 198.5 198 199 199 197.8 205.6 208.7 212.4 216.9 219.4 225.5 230.9 237.4 245.4 254.2 263.3 274 285.9 294.2 304.1 313.7 324.2 336.6 348.2 358.4 374.4 384 387.1 386.4 384.9 383 383.6 383.8 384.5 384.2 379.4 373.2 367.5 360.6 354.7 346.3 337.9 331.4 326.8 323.2 317 311 306.8 297.5 300.3 299.4 300.6 300.3 301 302.2 305.9 308.9 307.4 300.6 291.5 284.6 277.7 269.3 261.8 254.6 248.2 236.3 233.8 231.8 233.9 228.1 220.6 221.3 217.3 202.6 204.5 210.6 210.4 209.5 208.7 207 205.1 203.8 199.9 193.3 187.1 181.2 173.1 167.4
361.8 356.7 353.2 349 343.7 340 337 333.9 331.2 329.3 327.4 331.7 334.3 334.3 326 319.7 310.7 303 295.1 281.5 275.4 265.7 258.7 255.1 252 235.8 223.4 239.5 243.3 249.2 256.1 261.2 263.4 264.9 265.7 266.4 268.5 273.4 263.9 245.4 234.8 224.9 215.5 210.2 205.4 203.4 184.9 164.2 162.4 166.1 172.5 180.6 182.5 188.2 197.5 192.9 209.5 187.5 158.1 141.7 148.8 137.8 152.5 155.3 176.3 191.7 193.9 198.5 201 200.5 205.7 209.7 214.8 215.9 217.2 219.6 221.4 221.6 221.6 224.3 228.5 230.7 231.2 232.9 234.2 237 237.8 238.2 240.9 242.7 244.8 242.7 239.6 236.3 233.8 233.2 230.3 228 230.8 229.9 226.3 224.1 220.2 214.4 212.8 211.7 210.4 208.6 208 206 203.8 202.1 201.4 198.9 199 199.8 205.4 209.3 214.1 218.9 222.1 227.4 235.3 243.1 251.3 258.7 267 281.1 294.4 304 313.7 320.3 330.1 341.9 356.3 372.1 381.7 385 382.5 382.7 381 378.6 378.9 380.2 382.4 383.3 373.8 363.2 356.9 351.1 345.4 338.5 331.7 326.8 322.3 319.3 315.4 310 304.7 300 297.5 298.6 298 299 297.1 299.2 299.6 301.4 294.3 292.2 284.3 276.9 271.4 261.9 244.7 243.5 237.3 240.7 230.5 228.3 222.6 222.2 222.8 217.7 215.7 215.2 208.5 203.2 194.1 194 194.1 194 193.6 192.1 187.3 183.7 179.3 181.7 177.7 167.8
359.2 356.3 353.2 349.3 344.9 341.1 335.4 329.5 326.2 324.2 323.6 327.4 329.5 329.4 320.1 314.3 306.7 297.1 288.8 273 269.8 262.1 255.6 249.8 247.1 227.3 232.6 246 249.7 254.4 259.3 267.3 272.6 276.9 275.8 275 274.1 277.9 280.1 269 255.7 241.9 235.1 226.6 222.3 215.3 207.5 196.4 168.9 161.1 160.7 159.8 161.5 173.1 178 179.9 193.8 178.9 143.2 141.7 139.8 143 156.6 174.1 181.5 199.7 202.8 203.7 203.4 206.5 209 210.9 214.3 215.9 219.6 221.8 223.6 224.7 226.6 228.9 230.7 234.1 236.6 238 240 241.2 241.9 242.5 245.4 246.5 246.4 245.2 240.9 240 238.4 235.5 233.6 236.7 237.2 236.1 230.8 228.3 225.2 219.2 215.6 214.8 213 211.3 210.3 207.6 205.1 205.7 204 199.8 198.2 208.7 211.4 211.6 212.6 214.1 225.8 230.6 239.1 248.1 258.6 265.1 276.4 289.1 297.8 308.1 315 324.4 335 351.5 365.9 369.9 374.4 376.5 379.5 376.6 375.1 374.8 375.3 376.3 377.5 374 364.2 355.7 348.7 341.9 337.6 332.7 327.1 323.2 318.6 316.7 311.9 307.8 303.1 299.8 295.6 282.9 282.9 284.8 284.7 291 283.8 282.9 287.5 284.9 274.3 266.8 258 253.1 257.4 256.5 255.9 253.8 249.9 245 241.9 238.2 234.1 231.8 229.4 227.3 223 216.8 209.7 202.5 196.8 189.1 188 183 177.9 173.8 172.1 171 170.2 177.8
356.7 355.3 353.3 349.9 345.7 340.3 332.9 326.1 320 318.3 320.1 322.8 323.7 322.3 313 308.3 301.3 291.8 282.4 269.3 262 256.1 249.6 243.6 240.2 226 245.9 252.3 255.4 258.2 263.4 268.4 273.5 278.5 283.2 285.5 282.2 281.5 284.8 285.3 278.4 257.8 250 245.2 233.4 224.8 219.8 212.5 201.4 177.4 162.6 159.7 156.3 155.6 159.5 166.3 183.8 166.8 142.3 141.7 141 148.8 167.4 185.4 186.4 198.4 212 211.4 210.7 211.3 214.4 215.5 216.7 218.7 220.2 224 225.5 227.7 230.5 233.3 235.1 239.1 241.6 243.1 244.1 246.2 247.2 247.5 249.5 249.7 248.7 246 245.2 244.3 241.1 241.4 244.4 244.3 240.9 238.5 234.3 232.2 230.4 225.1 219.2 217.6 216 214.4 212.7 211.3 208 208.5 206.7 203.7 198.9 218.8 231.3 236.5 230.7 229.8 230.8 232 242 249.9 260.8 270.2 280.1 290.7 298.2 310.6 318.5 331.1 348.3 357.8 363.7 365.5 368.1 371.6 372.2 372.1 371.2 371.2 372.7 373.7 371.9 363.1 354.7 347.8 341.8 336.7 330.4 326.8 323.8 319.3 315.2 313.1 311.3 306.2 301.7 297.8 294.8 282.9 282.9 282.9 282.9 282.9 282.9 282.9 282.9 286.9 276.8 265.3 267.8 266.8 266.7 265.8 265.5 264.7 264.3 262.5 259 255.8 250.3 245.9 244.4 241.6 235.8 229.2 222.9 218.2 214.3 207.1 203.2 198.7 198.7 198.5 206.2 197.9 173.3 182.8
354 352.2 350.6 348.4 343.3 334.3 327.1 320.8 313.6 309.5 313.9 316.2 316.4 313.4 305.3 300.6 292.6 282.1 269.1 260.1 259 259.7 247.6 243 227.7 246.1 256.7 260.5 263.2 266.5 266.8 271.3 275.4 279.4 283.6 289.6 288.9 287.7 288.1 289.2 287.6 283.7 265.7 263.5 252.1 239.9 230.5 221.9 216.3 211.2 201.5 183.3 167.9 160.8 151.9 149.9 147.7 146.5 145 142.4 144.9 158.3 172.7 183.8 193.9 210.6 219.2 219.4 218.4 216.7 218.6 218.6 220 221.2 223.9 225.4 228.9 230.9 233.3 237.2 240 242.4 245.9 248.3 248.7 250.9 253 253.8 253.7 254.3 252.9 249.7 251.4 249.9 245.5 250.8 252.8 250.3 247.8 245.7 242.8 238.6 235.8 232.5 226.2 221.6 219.5 218.1 216 213.4 211.4 211.7 208.5 205.8 206.4 227.6 239.2 247.5 252.4 245.5 242.3 244.7 240 244.9 257.7 267.1 279.4 288.5 300 307.4 321.1 336.5 350.5 358 360.8 362.3 364.6 367.4 368.1 368.7 368.1 368.8 369.5 369.4 362.3 354.7 346.8 339.7 335.9 330.4 326.4 321.9 317.9 315.4 310.2 306.6 306 305.1 300.8 296.4 285.5 282.9 282.9 282.9 282.9 282.9 282.9 282.9 282.9 293.3 279.7 279.3 278.9 279.9 278.7 282.4 283.7 283.7 283.2 278.6 275.2 271.2 266.8 264 261.5 256.3 253.1 246.8 242.1 237.6 234.6 227.2 223.2 220.8 218.5 217 218 199.5 180.8 180
351.3 348.9 347.1 344.9 336.5 328.2 319.6 312.1 304.5 298.9 296.6 306.7 306.7 300.6 296.1 289.6 278.4 263.5 259 259 259 259 259.6 247.6 248.1 256.1 261.9 268.8 270.9 273.2 276.2 280.1 281.2 282.2 285.6 289.4 293.8 291.5 291.3 292.1 290.8 289.3 287.5 284.7 275.8 257.4 251 239.3 228.4 224.5 218.6 212.7 194.3 175.2 165.6 160.7 159.6 155.2 145.3 140.9 150.5 159 174.4 192.2 200.3 215.9 225.4 226.2 225.5 223.8 222.1 221.8 222 224.8 227.5 229.3 231.7 234.7 238.3 241.9 245.2 247.1 251.1 254.6 255.8 259 260.8 259.9 259.3 258.9 255 256.9 257.9 254.3 252.7 258.7 259.8 257.9 258.1 252.8 250.2 246.6 240.5 237.5 232.9 226.3 224.1 222.4 219.6 217.7 215.6 214.2 210.8 208.3 211.5 223.8 243.3 255 267 271.9 264.9 263.9 263.4 248.7 265.5 274.7 284 290.7 305.2 316.3 322.1 341.6 352.6 355.8 358.5 360.5 362.9 364.8 365 365 364.6 365.2 366.2 359.9 354.4 348 340.4 334.5 328.8 324.5 320.4 316.3 311.3 310.3 306 302.3 297.4 298.8 296.6 288.6 282.9 282.9 282.9 282.9 282.9 282.9 282.9 282.9 282.9 282.9 286.2 288.5 290.1 295 298 299.7 300.2 298.8 296.2 294.6 293 291 290.5 287.9 285.1 277.1 272.8 267.9 262.9 256.6 253.4 249.6 245.9 242.2 238.2 233.1 213.2 199 182.3 184.3
349 345.6 343.7 339.2 328.4 320.3 310.7 301.7 295.9 292.4 290.3 290.4 291.1 288.8 283.3 274.8 263.1 259 259 259 259 259 259 259.4 255.3 258.1 262.3 269.6 278 280.2 282.8 285.5 289 291.7 293.1 293.5 294.9 295.6 295.1 294.5 294.8 293.2 291.4 289.3 286.4 282.3 271 260.1 248.2 236.2 226.2 217.1 211.9 187.7 178.8 176.2 176.1 180.4 153 144.1 143.4 157.9 174.1 193.3 203.1 213.3 229.8 235.1 232.8 230 227.1 225.8 225.6 227.6 230.1 233 236.4 241 246.2 249.2 250.8 253.7 259.2 262.3 264.4 266.3 267.5 269.2 266.6 263.7 260.7 265.4 266.1 267.4 267.3 268.7 269.6 273.1 272.4 270.6 264.7 257 249.1 242.3 237.7 233.1 230.5 227 223.3 222.2 219.6 217.1 213.3 208.9 221.4 228.3 249.4 264 280.6 297.6 294.4 290.3 276.6 263.4 282.3 286.4 289.5 300.1 314.5 327.9 338.5 347 354.6 358.6 360.8 362.5 362.6 363.2 362.8 362.3 361.5 360.6 357 352.9 348.4 342.6 335.4 330.4 322.3 319.5 315.7 312.1 308.3 305.5 302.6 298.8 295.4 289.3 283.6 282.9 282.9 282.9 282.9 282.9 282.9 282.9 282.9 282.9 282.9 282.9 295.6 299.8 300.9 303.3 304.3 304.8 305.3 306.8 308.4 309.7 310.5 309.3 309.1 305 303 303 298.2 291.9 286.4 281.5 278.1 273.2 270.9 264.9 248 226.9 214.1 200.7 186.5 188.5
344.7 339.2 336.2 319.1 316.9 307.7 300.8 295.6 290.9 287.9 284.6 280 279.7 276.5 270.9 267.2 259 259 259 259 259 259 259 259 258.9 261 263.7 269.2 275.6 287.6 291.4 293.2 295.2 297.6 299.2 300.7 300.8 299.7 298.9 298.1 297.2 295.4 293.6 291.6 289.5 287.3 282 271.9 261 249.9 238.7 223.1 216.4 210.7 199 193.3 195.8 190.5 161.5 149.4 144.6 155 170 186.2 205.1 223.2 238.8 241.8 240.5 236.9 233.4 229.5 228.9 230.7 233.6 237.4 242.4 248.9 254.3 259.4 261 262 267.1 271.6 274.8 275.9 278.7 277.3 275.2 272.8 267.5 282.3 278.5 281.7 280.5 283.9 282.2 283.8 280.1 275.2 271.7 264.9 253.2 250.3 246.3 240.9 237.4 232.9 226.6 226.7 224.4 222.1 216.7 210.7 227.2 236 254.8 276.8 298.7 302.5 300.9 297.4 296 283.2 291.5 298 303.6 315.5 328.8 340.6 349.2 359.6 367.2 368.1 367.3 365.7 363.1 362.2 360.8 359.2 358.6 355.3 352.1 348 343.4 337 331.2 325.4 319.7 314.6 311.8 308.4 305.3 302.4 299.5 296.1 287.8 282.9 282.9 282.9 282.9 282.9 282.9 282.9 282.9 282.9 282.9 282.9 283.9 299.6 302.2 303.1 304.4 307 308.6 310.3 312.8 317.4 321.6 325.5 324.5 320.9 317.7 315.7 315 313.5 315 312.2 307.3 302.7 297.4 290.8 282.5 264.5 242.8 227.3 214.9 202.7 191.9 186.4
343.5 334.6 326.1 316.7 294.3 298.2 297.5 288.6 275.4 277.8 278.7 276.4 269 266.6 261.7 261.8 259 259 259 259 259 261.2 259 259 259 263.2 266.7 270.7 276.7 285 294.5 299.2 302.1 303.6 305.1 305.6 305.9 304.7 304.1 301.8 299.9 297.8 294.7 292.3 291.7 289.7 286.5 278.9 270.8 262 243.9 234.2 225 216.4 208.7 209.5 208.6 196.1 169.6 156.7 145.3 148.5 171 187.9 210.4 226.7 242.2 249 244.1 241.7 238.8 234.8 235.8 238.6 241.9 244.5 252.8 259.1 263.8 268.7 273.7 275.6 276.2 280.9 284.5 289 290.9 291.8 287.8 288 277.7 297.7 297.8 298.6 299.4 299.4 295.7 292.5 287.1 284.6 284.8 278.3 266.3 260.9 257.1 254.1 250.3 243.8 234.6 232.3 230.5 228.4 222.2 214.9 233.4 241.7 267.3 289.6 300.2 303.9 306.2 307.4 305.2 298.2 303.7 306.4 317.8 328.4 340.8 354.2 364.7 371.2 375 375.1 370.9 366.2 363.1 360.9 358.7 356.7 355.8 352.8 349.2 344.5 338.3 332.1 325.7 319.6 314.3 309.9 308.3 305.5 302.1 299.4 297.1 294.3 282.9 282.9 282.9 282.9 282.9 282.9 282.9 282.9 282.9 282.9 282.9 283.9 296.3 300.9 304.3 306.4 308.9 313.6 316.7 320.2 325.9 329.8 330.4 332.8 331.4 330.4 329 327.6 326.4 323.4 322.4 320.1 317.1 314.2 309.6 303 291 267 246.2 229 213.8 203.1 194.7 190.9
342.9 336.3 317.7 312.4 324.6 325.8 324.8 321.9 312.7 285.4 279.6 280.3 273.3 261.9 266 259 264.1 275.1 269.8 263.6 270.2 272.4 271.5 273.8 261.9 263.2 269 272.3 276.9 283.8 293.8 299.2 303.3 306.7 308.5 309.2 309.4 309.1 308.2 305.2 302.7 299.1 295.3 292.9 291.2 289.6 287.2 284.3 278.6 271.2 261.1 253.8 239.7 230.3 230.7 221.3 205.5 190.7 178.2 155.7 147.6 148.9 166.2 185.2 207.8 228.9 240.6 245.9 245.3 246.2 244.7 243.4 243.5 247.2 254.7 261.1 264.9 272.8 280 282.2 284.6 290 293.1 297.2 300.3 302.7 308.8 309.2 308.7 305.9 306 312.7 318.7 320 318.7 312.2 307.6 298.7 298.8 298.2 301.5 294.9 284.7 278 273.1 268.6 262.3 254.9 245.9 239.4 240.8 233.3 227.4 217.6 239.6 262.6 280.6 293.7 299.3 304.4 313 312.2 310.5 308.8 310.3 318.9 333 346.5 356.4 371.4 378.8 377.3 376.1 373.8 369.8 365.7 362.2 359.7 357.4 355.2 353.5 350.6 346.1 340.9 335.2 329.2 322.2 315.9 312.1 307.8 303.4 302 299.1 297 295.3 282.9 282.9 282.9 282.9 282.9 282.9 282.9 282.9 282.9 282.9 282.9 282.9 292.7 298.4 302.6 308.1 310.8 317 320.2 326 335.4 338.9 338.3 339.1 338.1 338.2 337.4 335.9 334.2 333 330.1 328.4 326 323.7 318.9 313.7 308.2 286.1 269.9 251 236.1 222 209 201.4 198.5
347.6 340.4 324.3 331.2 342.6 344.2 342.8 339.9 336.1 327 316.5 308 299.1 288.7 288 287.1 278.2 298 270.7 287.5 294.3 296.4 291.2 286.7 269.2 265.5 269.3 274.3 277.9 282.9 290 298.1 302.5 306.4 308.2 309.3 310.4 312.4 311.3 309.4 304.6 300.4 296.2 293.5 291.1 288.6 286.5 284.1 281.6 277.4 272.3 264.6 259.2 248.3 237.2 215.3 208.5 194.2 181.2 162.1 148.8 146.2 158.9 180.1 191.2 207.7 226.5 235.7 242.5 248.1 249.2 249.1 252.3 262.8 270.6 282.8 287.3 295.9 304 303.5 308.2 310.3 313.1 316 319.5 323.8 332.6 331.7 326.2 321.4 321.4 328.2 331 333.1 335 323 318.8 318.9 312.5 321.4 317.2 306.2 303.3 299 292.2 285.7 272.1 264.9 254.4 248.9 250 238.8 234.4 225.9 236.3 259.6 281.4 294.8 298.1 306.8 313 315 315.1 317.6 323.6 330.9 346.2 362.5 375.8 382.1 383.3 378.6 375.4 371.5 367.8 365 361.6 359.3 356.3 353.9 351.7 348.1 342.1 336.9 332.2 327.2 320.5 316.3 313 308.7 303.6 299.9 295.1 282.9 282.9 282.9 282.9 282.9 282.9 282.9 282.9 282.9 282.9 282.9 282.9 286.2 292.6 297.9 301.2 307.6 315.5 322.2 328 333.6 338.3 341.8 343 342.8 342.2 342.9 342.4 342 340.7 339.1 336.9 335.4 332.6 330.4 327.8 325 319.3 310.5 296.6 272 256.7 242.1 232.5 222.3 213.6 201.9
351 346.6 324.7 344.7 351.3 355 356.8 355.7 347 342.2 338.5 334.5 328.6 323.5 317.4 313.4 308.1 290.8 291.1 304.2 310.6 312.6 310.1 299.2 295.8 290.6 273 274.8 279.5 283.8 289.5 296.4 302.4 305.6 308.3 309.5 310.6 311.6 313.3 311.1 307.4 302.8 298.1 294.7 291.8 288.8 285.9 283.3 280.6 278 275.4 271.8 267.7 263 236.4 219.1 209.7 203.8 183.1 161.1 153.2 148.7 146.1 170.9 186 207.1 215.6 224.5 235.1 243.8 248.6 251.4 261.6 272.1 282.9 292.4 300.3 305.7 312.4 320.5 326.4 332.2 336 340.3 345.5 345.3 340.9 338.4 338.1 335.3 332.1 335.7 341.6 345.5 345 336 330.8 330.4 331.1 330.7 321 318.6 314.4 309.4 301.4 297.5 287.6 274.6 265.6 258.2 259.5 248.5 241.3 236.8 256.6 270.2 279 293 299.1 306.2 312.9 317.3 321.5 327.3 336.4 348.3 365.1 376.3 385 386.1 381.6 377.9 374.7 370.9 367.1 364.1 361.4 358.5 356.4 353.7 344.5 346.1 339.3 334.6 329.8 325.1 319.3 315.6 312.3 308.5 300.2 300.5 299.1 297.9 284.7 282.9 282.9 282.9 282.9 282.9 282.9 282.9 282.9 282.9 289.1 296 298.7 302.5 307.3 314.5 324.8 337.7 339.7 340.9 343.1 345 346.4 346.5 346.6 346 345.2 344.3 342.9 341.8 340.4 338.5 335.4 334.1 331.2 327.9 324 317.8 308.4 278.6 265.9 253.8 237.9 233.5 226.5 224.7
356.1 351 341.1 336.8 351.4 357 359.4 360.6 355.3 350.8 350.4 349.8 346.7 343.4 337 329.6 317.3 291.2 301.1 314.7 320.7 324.6 324.6 322.5 306.3 307.5 300.2 284.5 280.6 284.4 289.2 295.7 302.3 305.4 308.2 309.9 310.9 310.9 310.9 312.1 308.9 306.1 301 297 293.2 289.7 286 282 279.2 276.8 274.3 271.3 267.8 264.6 241.8 223.4 205.1 199.5 181.4 167.5 153.1 151.7 147.1 162.5 182.7 195.6 206.1 217.2 225.2 232.1 241.6 252.4 263.1 273.5 282.5 292 300.1 305.6 312.7 320.4 327.7 333.6 338.3 342.3 344.9 347.8 345.1 343.3 349.4 348.1 347.2 348.1 355 356.4 358.6 350 346.7 343.3 351.5 354.5 353.6 344.1 328.3 311 307.1 303.4 292.5 291.3 278.7 269.7 262.7 261.5 241.7 244.1 263.5 286.2 290.3 293.1 298.2 306 313.1 320 328.3 339.9 351.2 366.9 380.9 386.9 387.7 387.2 382 377.4 373.6 369.8 366.5 363.6 361.4 358.8 355.8 353.3 349.5 344.6 333.6 331.8 326.8 318.8 317.1 312.1 308.2 304.7 312.2 311.6 307.6 303.7 294.4 290.9 282.9 282.9 285.1 293 292.6 294.5 291.8 294.2 296.3 299.2 302.9 308.4 315.2 325 334.1 340.9 343.6 345.7 347.2 348.2 348.2 348.7 348.6 348.2 347 346 344.9 342.8 341.9 340.1 337.6 335.8 333.5 330.4 326.6 321 313.8 299.2 275.4 266.5 255.4 246.9 248.1 253.8
360.1 356.1 351.3 350.4 345.6 351.4 357.8 362.1 362.2 363.7 366.1 362.3 355.9 351.7 345.4 335.6 319.3 310.8 317.9 314.1 326.5 333.9 336.1 331.8 332.7 333.2 324.6 306.5 304.2 292.3 290.2 295.3 303.3 307.6 309.9 310.8 310.6 310.6 310.5 309.8 308.9 307.6 303.9 300 296.2 292.1 288.1 282 278.4 274.1 270.4 266.4 262.5 259.8 254.9 223.6 207.4 198.9 183.9 169.4 152.2 152.4 148.9 156.8 170.6 183.6 195.5 205.9 217.4 228.8 245.5 251.8 260.2 271.8 279.9 288.2 295.8 302.4 308.6 314.8 322.6 330.2 336.3 339.9 342.1 345.2 345.8 347.3 351.7 354 353.9 355.1 357.2 359.1 360.3 361.6 363 364.3 366.5 366.3 361.5 352.9 340.2 320.5 311.1 309.7 301.2 295.7 290.7 280.5 272.3 266.1 249.9 249.6 270.7 288.2 293.8 300.2 302.6 307.1 315.5 323.9 338.5 354.8 367.2 382.9 389.6 392.3 392.6 388.9 383.6 377.1 372.6 369.6 366 362.7 359.9 356.9 354.1 351.4 347.6 342.7 335.9 323.6 323.3 328.4 316.1 325.3 321.7 322.8 320.6 318.7 314.3 303.9 303.6 302.3 296.8 296.7 296.1 298.8 299.4 298.3 299.2 299.9 303 308.9 314 324.8 329.9 335.4 339 343.6 346.3 347.5 349.4 350.1 350.4 350.5 350.2 348.7 348.2 347.1 346 344.1 341.9 341.3 339.6 337.2 334.5 332 327.7 322.9 316.4 308.4 295.8 276.9 266.7 259.2 254.1 259.5
367.2 363.2 358.3 356.6 356.4 355.8 354.8 361.5 365.7 369.3 372.6 372.8 366.4 357.7 351.9 340.8 328.6 334.2 331.6 329.9 336.9 342.2 345.7 347.3 348.7 349.7 346.7 335.4 318.4 306.2 301.4 297.6 303.4 309 311.4 311.2 311.1 310.9 309.7 308.9 308.1 307.7 306.6 303.2 299.3 294.9 290.3 285 278 273.8 269.9 264.6 258.6 251 247.7 218.2 199.6 197.9 185.5 169.2 158.3 153.3 149.3 157.6 164.7 174.2 184.9 197.9 212.5 229.7 247.5 252.2 257.3 267.5 278.4 286.7 293.2 299.1 304 309.5 316 322.7 330.4 337.1 340.6 343.9 346.5 349.7 352.6 355 355.8 357.5 359.1 360.3 361.2 362.8 364.3 366.3 367.5 367.7 365.5 360.2 352.3 334.5 319.5 311.7 307.8 298.6 291.5 290.7 283.5 278.2 258.7 255.1 278.5 290.1 301.3 305 307.8 312 322.4 333.2 350.9 367.8 385 391 393.6 395 394.3 390.3 383.4 377 372.1 368.6 365.2 361.3 359.4 356.4 352.9 349.5 345.9 340.5 327.6 335.8 337.1 337.7 336.4 333.9 331.5 330.4 327.4 323.8 319.1 313 311.6 310.6 303.1 299.3 303.7 306.3 309.2 313 316.3 318.8 322.2 328.1 333.1 337.7 340 341.8 344.9 346 348.9 350.4 351.2 351.8 352 351.7 351.3 350.2 349.1 348.2 346.9 345.3 343.8 342.1 340.3 338.2 336 332.8 328.7 324.1 317.9 311.3 302.7 293 278.3 265.4 258.5 259.8
374.6 369.4 367.4 364.3 362.3 361.7 360.5 360.9 367.9 371.7 374.7 376.2 373.9 364.8 357.4 344.8 347.2 346 345.8 344.3 339.5 355.8 359.3 357.9 360.2 362.3 361.6 350.6 329.1 325.2 319.7 312.8 304.9 308.7 311.6 311.7 310.9 309.7 308.8 307.9 307.3 306.9 305.8 303.2 300.2 296.3 290.8 285.6 280.6 274.5 271.2 266 259.7 254.6 247.4 223.9 203.1 192.9 182.2 174.2 162.6 152.3 148.3 159.8 164.8 175.6 183.5 200.8 224 229.8 237.3 246.7 253.9 262.6 273.5 282.5 291 297 301.4 305.4 312.7 319.8 327.7 336.3 340.6 344 347.3 350.6 353.2 355 356.9 358.7 361.4 361.6 362.6 364.1 369.9 369.9 369.9 370.4 368.3 365.1 359.8 350.4 335.3 319.6 316.3 312.4 307.8 304.3 297.8 282.6 267.1 268.2 286.9 293.2 301.1 306.7 311.9 318 331 346.2 361.9 377.2 386.3 392.1 395.7 396 393.9 387.9 382.4 376.9 371.7 369 365.2 362.1 358.8 355.8 352.2 348.1 344.6 332.7 342.1 343.8 344.8 345.7 343.9 340.3 336.5 335.9 333.1 329.6 324.6 322.4 320.1 318.6 312.1 305.1 312.8 317.3 323.8 332.5 338.9 343 345.1 345.6 345.7 345.9 343.7 345.4 347.5 348.5 350.8 352.1 353.2 353.2 353.2 353 351.5 351.8 350.6 349.1 347.5 345.6 344.1 342.4 340.7 338.7 336.1 333 329.2 324.8 319.1 312.5 304.3 298.1 290.9 274.7 261.6 260.5
381.9 377.3 375.6 372 368.3 366.6 365.8 366.1 369.7 373.5 376.6 378 376.5 371.4 360.7 359.1 359.3 359.3 358.9 358.3 358.4 359.7 369.5 372.2 366.5 372.4 372.4 368.4 356.4 347.2 337.2 325.6 316.2 310.4 311.8 311.4 309.6 308.7 307.6 306.4 305.8 305.8 304.9 302.7 299.7 296.1 292 286.1 280.5 275.8 272 267.1 262.8 257.7 252.8 236 217.9 202.1 177 163.6 156 151.6 150.1 153.9 165.2 177.5 183.4 197.3 212.3 220.6 229.8 240.8 243 255.5 262.8 272.6 284 291 295.9 303.1 311.5 318.2 326.8 336.5 339.3 343.2 347.4 351 354.6 357.4 359.2 361.5 363.1 363.3 363.5 369.9 369.9 369.9 369.9 369.9 368.2 368.4 368.1 363.6 352.2 331.6 322.2 322.7 319.6 312.9 307.7 289.9 275.3 271.6 295.1 304 307.8 314.2 321.8 331 344.3 357.3 372.1 380.7 386.6 392.8 397.9 395.4 393 388.1 383 377.1 372.4 368.6 365 361.9 358.6 354.4 351.9 348.5 342.4 343 349.3 351 352.3 350.9 348 344.6 341.8 339.5 337.2 334.3 332.2 329.8 328.3 327.5 324.2 312.6 323.7 331 338.2 344.1 350.3 356.4 355.5 354.4 352.5 350.9 350.2 349.9 349.3 350.5 353.1 354.2 354.2 353.7 353.8 354.1 352 352.3 351.1 349.5 347.8 346 344.4 342.5 340.8 338.2 336 332.7 329.7 324.7 318.9 313.7 305.4 299.3 293 281.6 264.8 261.6
392.4 390.4 386.4 382.5 377.9 374.3 370 369 371.8 374.6 377.5 379.1 378.8 375 368.1 369.1 372.6 371.5 371.5 370.8 370.1 369.6 373.8 380.3 380.3 375.8 381.7 377.9 370.1 357.5 347.1 334.5 323.7 316.5 313.1 312.1 310.1 308.1 306.7 305 304.2 304.8 303.9 301.8 299 295 291 286.9 282.1 277.1 273.1 268.4 263.6 259.6 255.1 247.4 234.9 208 180.8 160.6 153.5 152.3 149.9 150.4 168.2 179.1 185.3 195.3 207.9 212.3 214.8 227.8 235.9 247.9 255.1 262.6 272.8 281.3 291.6 301.7 310 317 324 332 338.3 342.9 347 351.5 354.5 356.6 360 362.4 364.1 364.9 369.7 369.9 369.9 369.9 369.9 369.9 368.8 367.8 367.9 368.7 366.1 355.7 329.8 324.4 321.4 318 313.5 294.6 288 283.7 299.3 314.7 323.2 330.8 335.4 345.6 358.2 370.8 376.9 382.3 388.4 392.1 393.4 393.5 392 389.2 383.7 377.8 372.7 368.4 364.9 361.8 358.5 355.1 350.9 341.6 350.2 353.2 355 357.1 356.4 354.6 352.1 349 345.4 342.3 340.9 338.3 336.4 334.2 333.4 332.8 331.9 325.2 335 341.6 350 358 360.9 361.7 360.3 358.5 357.8 353.7 353.5 352.4 351.9 353 357.5 357.4 356.4 355.6 355.2 354.5 353.8 353.1 351.6 349.9 348 345.5 344.3 341.7 340.1 336.9 335.1 331.9 328.4 324.7 319.2 313.2 306.5 300.9 294.5 287.3 270.4 264.5
