ncols 200
nrows 82
xllcorner 270000
yllcorner 820650
cellsize 50
546 540.5 548.5 552.5 555 558.8 565.3 576 590.1 598.4 605.4 611 614.1 611.9 605.4 595.6 583.3 571.2 565 560.2 554.8 552.8 552 551.7 549.5 545.9 534.5 523.2 515.7 508.4 503.6 500.1 497.2 495 492 489.3 487.8 486.4 484.4 485.9 488.1 490.2 490.1 491.8 495.3 500.8 509.1 514.4 518.2 519.1 513.8 501.6 494.6 486.7 479.7 473.3 468 462 455.3 448.3 442.1 438.2 433.3 426.6 420.9 406.7 387.7 393.1 395.5 393.8 390.1 389.2 385.8 386.7 389.3 390.2 390.6 397.2 395.1 391.4 385.6 378.6 373.4 368.7 366.6 363.4 356.4 348.9 348.2 347.3 348.9 354 360.4 358.2 362.4 360.6 358.6 356 354 351.7 350 348.5 346.7 344.9 343.3 342.6 342.2 341.1 339.7 337.5 340.4 346.3 350 351.1 350.7 351.9 355 354.7 353.7 352.3 351 351.2 352 353.1 354.2 354.4 354.3 355.2 356.2 356.7 357.2 358.2 360.2 364.8 369.3 371.9 371.6 371.1 369.3 365 358.1 352.7 345.4 332.2 325 324.2 323.7 324.2 323.7 323.3 322.7 322.2 321.8 321.1 321 320.9 319.4 319.4 318.3 317.6 317 315.9 315.1 317.5 317.2 316.9 316.6 315.3 316.4 315.8 314.9 315.4 326.1 334.1 342.9 348.5 352.8 360.7 371.8 382.4 399.9 417.1 418.5 412.9 409.5 405.9 401.4 395.4 385.2 379.6 375.5 373.6 370.6 367.5 363.7 367.1 369.6 376.5 385 394.2
547.4 543.8 550.7 555.2 560 566.6 578.3 588.8 595.6 603.7 610.9 616.8 619.8 617.8 611.1 601.4 589.9 576 569.5 565.3 562.8 561 560.9 560.5 558 552.9 542.1 529.7 521.1 512.5 507.4 502.9 499.9 497.4 493.8 492.3 490 488.3 486.5 487.5 490.1 491.9 493 494.1 497.1 505.1 513.2 517.9 520.5 525.5 519.3 506.7 498.3 489.9 484.1 477.8 472.6 465.2 458.1 450.4 445.3 442 439.1 432.9 428.2 413.5 408.6 420.7 418.2 415.3 413.8 411.8 410.1 410.8 410.7 410.5 410.6 410.2 404.7 402.3 401.1 394.4 389.6 387.9 386.3 383.4 379.4 371.7 370.8 371.8 370.7 370.6 371.1 360.4 366.2 364.1 363.6 361.3 360.6 357.7 353.7 350.8 348.5 346.5 345 344 341.8 342.9 339.5 338.2 337.2 339.4 345.2 347.9 348 348.2 349.3 350.7 349.3 348 346.9 347.5 348.1 350.4 350.9 350.6 350 350.5 351 351.6 352 352 353.4 356.9 361.9 365.2 366.4 364.5 361.9 358.6 352.8 347.8 341.4 327 324.3 323.5 323.4 323.6 322.9 322.3 321.7 321.1 321 321.1 320.5 320 319.9 318.7 317.3 316.7 316.8 315.5 317.9 317.4 316.8 316.5 316.2 315.9 316.2 315.7 315.5 315.9 338 337.3 346.5 352.3 355.7 368.9 378.8 392.7 414 433.2 430.7 422.4 414.8 407.5 401.8 395.9 390.9 386.3 380.7 377.5 375.9 373 370.3 368.7 369.1 372.9 378.8 386.8
549.5 547.7 552.5 559.7 566.1 574.8 587 596.1 602.3 607.5 615.1 621.3 623.8 621.5 615.4 606.4 592.4 580.9 573.2 568.6 568 567.6 567.5 566.7 561.7 557.8 546 536.5 525.7 516.8 510.2 505.5 502.1 499.1 496.7 494.6 492.4 490.1 488.2 489.2 491 493.2 495 496 502.2 509.8 515.5 520.6 523.9 528.7 522.6 511.3 504.8 497.4 491.5 483.7 478.2 470.2 460.4 453.2 447.6 445.2 441.4 436.7 432.6 410.5 425.5 430.3 431.1 430.6 429.2 428.6 427.5 425.6 425 422.9 421.2 418.9 416.4 415.3 412.3 408.2 406.4 404 403.3 399.8 395.4 391.4 387.7 387.5 382.9 381.2 382.2 376.5 375.4 369.5 371.2 370 369.9 368.8 366 361.5 357 350.1 348.4 347.2 343.5 345.3 342.9 339.3 337.7 335.5 341 347.4 347.1 346.3 345.2 346.1 346.7 344.3 344.9 345.3 345.1 346 346.5 346.6 345.5 345 344 343.7 343.5 345.4 346.1 348 352.3 357 358.7 356.8 354.5 351.5 346.9 341.7 332.2 325.1 323.5 323.2 323.1 323.2 322.5 322.1 321.5 321.4 321.6 321.7 321.2 320 319.8 318.2 316.7 317.4 316.1 317.9 317.5 316.9 316.4 316.1 315.8 315.6 315.8 315.6 315.1 333.8 344 347.6 352.3 355.4 366.2 379.1 389 403 427.5 435.4 431.6 426.8 417.3 412.2 406.7 400.4 392.9 390.1 386.6 382.1 379.3 377.6 375.8 375.2 374.6 375.1 375.9 380.4
552 548.4 556.3 563.6 570.1 581 591.7 600.2 607.2 611.4 617.1 624 625.8 623.4 618.1 609.1 595 583.8 577 572.6 572.1 569.9 571.4 570.1 566.2 558.1 550.7 539.7 528.1 519.8 511.5 507.7 504.5 500.4 498 495.9 493.7 491.1 490.1 491.1 492.2 495 497.5 497.8 504.1 509.6 515.1 519.6 524.3 531.4 524.4 516.7 509.6 502.6 497 489.6 480.7 474.4 464.6 456.2 449.4 445.8 443.1 440.1 430.5 436 436.6 436.4 436.8 438.6 439.3 439.9 437.5 437.8 439 433.8 429.5 427.8 425.3 423.8 423 421.6 419.1 416.5 416.1 412.7 411.5 405.5 401.3 398.2 394.7 391.9 378.3 392.6 388.4 383.8 380.5 380.2 381.6 379.4 376.9 373.1 367 361.8 358.3 354.2 349.5 347.5 342.1 341.3 337.3 335.6 337.9 352.3 349.5 344.8 342.7 343.3 342.3 342.3 343.3 344.5 344.8 344 343.6 341.5 339.2 335.5 335 334.7 335.6 336.1 336.8 335.7 340.6 346 349.9 349.9 347.9 344.4 340.4 332.6 327 324.4 324.2 323 323.3 323.6 322.8 321.8 321.9 322.1 322.3 322.4 321.3 320.3 319.3 317.7 319 316.8 318.6 317.8 317 316.5 316 315.6 315.3 315.2 314.6 319.1 338.8 347.3 350.7 352.7 358.1 366 377 388 399.7 412.5 429.8 436.4 434.6 425.2 421.3 414.3 410.8 406.2 398.5 396 391.4 386.9 383.5 380.3 380.3 380.6 380.4 380.7 378.6 378.2
555.3 548.3 559.5 566.9 574.6 584.3 592.8 600.7 608.7 612.3 617.9 624.4 625.5 622.5 617.9 608.9 595.8 585.2 577.5 575.2 574.1 572.8 572.9 572 568.2 558 550 538.7 527.3 519.6 514.8 510.5 505.9 502.3 499.4 497.2 493.6 493.3 494.2 493.9 494.5 497 499.6 501.3 504.9 510.4 514.3 519.4 524.9 535.8 531 522.3 514.2 507 501 492.3 482.9 475.9 466.3 458.2 453.6 448 443.2 436.8 438.9 442.2 445.1 447.4 447.2 448.6 450 450.4 446.4 447.1 446.7 444.5 442 438.6 436.5 436.5 436.5 434.6 433.1 430.8 425.7 425 421.9 418.5 415.1 409.3 405.3 400.2 388.2 392.5 390.9 392.9 393.5 394.6 391.5 389.1 386.7 383.2 377.4 371.4 364.7 359.6 352.4 348.4 343.7 341.3 339.8 336.1 335.9 349.7 348 345.3 344.4 341.2 339.7 340.9 341.3 342 341.3 339.2 337.3 334.1 332.2 331.3 330.6 330.6 331.1 330.7 330.8 329.2 329.1 333.2 337.5 340.4 339.4 336.1 332.5 327.5 324.9 324.5 324.4 324.5 324.3 323.8 323 322.1 322.1 322.3 322.5 322.2 321.2 320.6 319.4 317.6 317.8 319.2 318.8 317.6 317 317.7 318.4 318.6 329.5 339.6 341.1 343.3 348 353.8 357.5 361 368.6 373.9 384.5 394.8 406.3 420.2 435.7 444.7 439.8 431.7 425.1 419 415.6 409.8 403 400.4 397.2 390 387.9 384 385 387 387.7 388.2 388.5 386.4
557.5 553 561.2 567.3 574.1 584.1 593.3 603.1 609.6 614 618.4 623.9 624.5 621.5 616.4 607.4 595.9 587.1 579.9 576.2 574.7 574.2 573.6 571.4 566.3 558 546.4 535.9 525.5 521.2 516.8 512.9 508.8 504 499.8 496.8 495.6 497.2 497.5 497.4 498 500.7 503.5 505.8 508.9 511.9 516.2 523.8 529.5 537.8 534.5 527.3 518.1 510.1 502.6 493.6 485 477.9 467.5 461 455 447.3 446.1 446.2 446.6 448.6 451.2 453.5 455.4 456.2 456.5 454.8 454.1 454.3 454.3 452.3 450.4 449 448 449.1 448.4 448.4 448.2 446.7 441.2 437.2 432.5 429.1 423 418.3 413.3 405.8 407.9 407 404.9 406.8 407.2 407.9 404.5 401.7 398.3 394 387.6 381.7 373.4 368.8 363 356.6 347.7 340.7 340.4 337 333.6 337.4 345.2 347.2 343.5 339.1 338.5 338.7 337.5 337.3 335.3 333.3 331.7 331.1 331 330.4 329.9 329.9 329.8 329.7 329 328 328.1 327.9 327.5 328.3 330 328.2 328.2 326.4 325.6 324.8 325.2 325.1 324.7 324.3 322.7 322.6 322.6 322.5 322.7 321.9 320.5 318.2 318.1 325.1 324.4 323.7 324.8 328.4 334.2 340.3 343.3 345.2 348.1 350.4 352.4 357.1 359.6 363.6 367.5 372.9 378.7 385.6 388.2 401.6 415.8 429.6 444.5 454.4 445.5 436.1 430.1 423.9 420.6 413.4 407 403.6 400.9 395.3 390.7 390 390.5 394.2 395.6 397.3 397.2 396
560 557 564.1 570.2 575.5 585.4 592.5 601.5 609.3 615.4 620.3 623.8 624 619.8 614.3 607.3 597.8 591.1 582.4 577.4 576.5 575.8 571.2 568.6 561.4 553.2 540.6 532.2 526 521.8 517.6 514 508.1 504 501.5 500.6 495.5 498.4 499.7 501.8 504 505.8 508.6 510.3 512.8 516.1 520.7 527.7 533.9 538.9 537.7 530.1 521.5 511.1 502.6 495.7 487.3 478 469.8 462 453.5 452.8 450.9 453.5 455.2 454 457.8 459.6 461.1 462.4 464.7 465.1 464.1 462.8 460.4 459.6 457.7 455.7 454.9 455.4 457 459.4 457.8 455.2 449.6 449.1 441.6 431.7 427.4 423.2 414.8 417.2 421 422.5 419.7 421.6 422.5 422.5 419.8 417.2 412.8 406.4 399.8 392.3 384.3 376.3 372.1 365.1 358.2 350 343.3 340.6 334.1 332.1 338.4 349 343.8 336.4 335.1 334.4 333.7 333.1 331.3 329.7 328.7 325.8 325.8 325.6 326.3 325.5 327 328.7 327.2 327.9 327.9 327.7 326.8 326.7 326.7 326.2 326.4 326.7 326.4 326.1 325.4 324.9 324.8 323.9 323 323 323 322.9 322.3 319.4 318.4 320.7 329.2 331.4 332.1 337 342.8 345.2 350 353.9 356.2 358.4 357.7 358 363.1 368.5 373.2 375.4 378.1 383.7 390.9 398.5 403.4 408 420.7 435.6 446.1 452.5 447 440.7 433.5 428.4 422.8 414.4 409.5 406.1 403.9 398.8 393.2 394.8 396.9 400.8 403.7 405.4 404.5 402.2
561 555.6 565.8 572.4 578.4 588.3 595.8 602.2 608.5 615.3 620.5 623.7 622.9 618.9 614.1 607.4 600.4 593.8 588.1 581.4 578.4 576 572.1 565.1 555.5 547.5 539.6 530.1 524.6 520.4 516.7 514.9 510.9 507.1 504.5 502.4 499.9 501.8 503.2 505.7 508.5 510.9 512.7 513.8 515.7 520.9 524.9 530.6 536 540.7 537.1 531.8 523.5 513.6 505.1 495.3 486.8 479.8 470.2 457.5 458 457 454.5 456.4 459.9 461.4 465.1 467.6 469.6 472.5 474.6 473.8 471.1 468.9 467.4 467.2 465 462.1 460.8 462.2 462.3 463.4 459 457.5 453.3 449.9 443.8 434.4 432.4 426.5 426.4 429 431.2 433.2 432.6 434.2 435.7 436.9 436.8 434.6 428.4 423.1 414 403.8 395.2 386.4 379.7 370 363.9 354.4 352.1 345.2 344.3 336.2 332 336.8 338.9 333 332.1 332.2 331.3 329.6 327.6 326 329.3 329.3 327.5 328.4 328.2 327.8 327.3 324.9 326.5 327.9 327.7 327.5 327.2 326.7 326.3 325.9 325.6 326 326.3 325.8 324.9 323.8 324.6 323.4 323.1 320.6 319.5 319.6 320.1 320.3 321.4 325.6 335.5 336.5 341.7 351.2 354.5 357.2 363 364.1 365.8 366.3 366.8 369.7 376.5 384.1 386.2 387.8 393.3 397.6 408.4 411.7 413.2 414.1 423.5 434.8 446.5 450.4 447.9 441.6 436.2 431.5 424.6 416.9 411.5 409.5 406.1 398.4 399.4 400.5 403.3 407.7 411.4 414.1 411.8 408.6
564.2 560.2 566 574.1 580.9 589 596.8 604.1 609.6 615.3 618.9 623.3 622.8 618.4 612.9 608 600.7 595.6 590.4 584.2 578.5 576 572.4 563.9 554 545.4 538.7 529.1 523.9 522.7 518.9 516.1 513.6 509.8 506.2 504.4 504.2 506.1 507 509.7 512.7 514.4 516.3 517.9 520.1 523.7 527.2 532.1 535.9 539.2 535.7 527.9 519.7 511.3 503.5 494.5 487.3 479.4 467.3 460.2 463.6 460.7 461.1 462.4 465.8 469.2 473.8 476 478.5 481.2 483.1 482.8 479.7 477.2 479.7 479.4 472.8 470.3 467.4 467.8 464.4 462.9 461.1 456.8 450.5 449.8 440.3 439.7 432.6 428.5 429 432.4 433.6 436.2 438 439.1 441.6 448.2 451.4 449.7 444.7 440.2 429.7 417.1 405.6 394.6 383.8 377.6 369.5 358.5 352.4 346.8 344.6 339.4 334.6 330.3 330.7 331.1 330.2 330.1 329.1 327.7 328.2 329.8 329.6 329.3 329 328.3 328.2 328.4 327.8 326.9 325.1 328.7 329.7 328.8 328.2 327 326.6 326.3 325.8 325.3 325.5 325.2 324.8 320.7 319.8 320 321.2 321.1 321.3 321.7 324.2 323.4 324.3 331.1 338.8 341 348.9 360.4 364.9 369 371.2 373.6 377.8 382.4 383.7 386.8 393.6 400.5 404.9 409.7 413.5 419.2 422.6 420.9 421.1 417.7 426.2 432.1 443.4 446.8 445.6 442.4 438.4 433.9 426.3 418.2 413.1 409.2 406.2 404.9 404.6 406.1 409.1 414 419.7 422.9 419 417.3
566.2 560.7 567 573.7 581.2 589.6 596 604.4 610 615.7 619.8 622.6 622.3 617.7 613.3 607.2 601.8 597.2 591.7 587.5 580.7 576.9 572 564.8 555.5 544.3 538 533.3 527.6 524.5 521.3 517.7 514.6 511.5 509.2 504.4 507.6 509.2 510.7 513.1 516.8 518.1 520.8 523 524.7 528.3 532.1 534.1 537 539.4 535.6 526.7 516.9 509.4 502.3 493.8 487.7 479.9 464.3 466.9 468.8 466.7 469.6 473.6 476.7 480 483.2 486.3 487.8 490 491.7 491.3 489.3 489.4 490.4 483.6 479.9 477.7 473.9 468.7 466.2 461.4 460.9 448.7 444.3 440.9 442.1 438.4 433.4 430.7 430.1 430.7 432.5 435.8 437.9 440.7 447.2 455 462.2 459.1 456.3 450.3 435.1 422.1 408.9 396.2 383.8 376.2 364.4 353.6 351.7 345 343.9 340.6 336 333.8 329.4 328.9 328.2 327.9 327.2 331 330.8 330.5 329.8 329.4 329.1 328.6 328 328.1 328.2 327.3 326.2 328.5 329.5 329.5 328.1 328.1 327.5 326.6 325.7 325.3 324.7 323.9 320.8 321.9 322.9 323.4 323.8 324.3 324.4 324.1 324.9 325 327.5 335.2 340.3 345.8 355.5 366.9 375.4 379.2 383.2 388.8 394.9 400.8 403.9 408.6 415.2 422.7 427.5 430.6 436.5 436.2 433.9 431.1 428.2 426.2 428.9 434.1 438.1 442.8 442.9 442.1 438.7 434.4 425.8 418.6 413.5 410.6 409.2 408.8 408.8 411.1 414.8 421.3 425.9 428.7 429 426.2
570.2 566.4 565.2 572.7 581.2 589.5 596.6 604.3 610.1 615.9 620 622 621.7 618.6 613.7 607.7 602.9 597.7 592.3 587.7 583.5 576.3 570.1 563.8 554.3 549.8 543.1 536.4 531 527.1 522.2 518.8 516 514 511.8 506.5 511.3 512.5 514.1 519 520.4 522.7 525.4 527.3 529 531.6 534.8 537.4 539.6 540.5 534.9 525.2 516.8 509.1 501.4 493.9 488.8 476.6 461.7 470.6 472.3 473.4 476.9 481.1 483.8 488 493.6 496.6 497.1 499 500.1 499.5 497.6 497.7 495.1 487.9 485.4 483 477.6 472.1 463.7 457.8 450.9 445 443.5 441.7 440.5 438 434.1 431.9 430.2 429.6 431.3 435.2 439.5 441.6 448.4 457.8 467.3 463.7 459.3 448.7 435.9 423.1 408.2 393.7 382.1 366.6 357.6 353.3 350.6 344.1 342.9 340.9 332.3 329.2 329.5 329.4 330.6 331.1 331.8 331.9 331.6 331.4 330.7 331.4 332.1 331.3 329.2 327.5 327.6 327.3 325.8 328.2 328.3 326.8 327.3 326.7 325.8 323.8 323.2 323.1 320.9 320.9 322.9 325.2 326.6 327.1 327.1 326.6 326 325.3 325.1 332.4 331.1 330.2 339.6 347.9 358.1 372.4 384.4 391.6 401 410.3 414 416.7 419 423.1 431.9 439.2 443.9 447.1 450.2 448.5 443.7 438.5 434.5 429.8 430.3 435.7 436.2 438.1 440.5 438.9 435.5 432 423.8 418.4 414.9 413.3 413 413.8 415 416 418.7 427.1 431.5 435.8 437.9 435.7
571.7 566.8 564.6 574 581.1 589 596.6 603.6 609.4 614.7 617.7 620.4 619.9 616.7 613 609.5 605 599.3 593.5 587.8 582.4 575.7 569.3 564.8 561.4 556 549.1 539.9 533.7 528 524.6 522.4 519.5 516.8 514.1 512.4 513.9 514.8 518.3 522.8 524.5 526.5 528.2 530.2 532.3 535 537.1 543.3 545.2 539.6 532.8 524 515.4 508.4 502.6 496.1 489.2 476.8 463.6 471.6 475.6 479.6 483 487.8 490.9 494.6 498 502.7 508 508.6 507.8 506.9 504.6 503.2 497.4 494.4 490.6 484.9 479.2 472.7 464.5 456.4 449.2 449.6 450.1 444.9 441.6 437.2 434.5 432.1 429.8 429.6 430.4 433.5 435.3 438.9 446.7 458.4 465.9 461.4 454.1 442.4 427.9 413.4 398.8 385.2 375 359.1 352.7 349.5 345.8 344 343.5 340.3 330.2 330.2 331.1 330.7 331.6 332.4 332.4 332.3 332.4 332 333.1 333.2 332.7 332.3 331.6 334.9 331.5 327.5 324.8 324.9 326.4 323.9 323.7 322.2 322.4 322.9 324.1 323.9 325.4 326.4 326.2 327.6 329.4 329.3 329.2 328.7 330.4 330.3 332.8 339.5 343.2 345.2 345.8 338.4 357.9 376 389 401.2 409.3 419.3 424.6 428.4 430.9 438.1 446.2 454.3 457.2 460.2 462.6 458.9 449.8 443.5 438.9 432.6 432.6 434.6 436.7 435.1 434.6 435.2 432.3 428.4 423.6 420.9 418.9 418 418.7 418.6 419.5 421.1 423 431.9 437.7 445.8 446.8 442.2
575.2 569 565.7 574.3 582.1 587.2 593.7 600.9 607.1 612.8 615.8 617.4 617.5 616.1 613.8 611 606.6 599.5 590 584.8 581.8 579.1 573.9 570.8 566.8 560.7 554 545.3 536.9 531.8 528.3 525.7 522.9 519.8 516.4 515.5 517.4 519.7 522.3 525.4 527.9 529.1 530.5 532.1 534.4 538.2 541 547.3 546.9 539.2 530 520.5 513.8 507.2 502.8 497.4 490 476.5 466.8 475.3 482.2 486.7 491.1 495.9 500.1 503 507.8 512.6 515.3 516.3 514.6 512.5 508.6 504.1 499.5 495.1 489.6 482.4 479.6 473.6 469.1 461.7 459.6 458 452.2 444.7 441.7 437.8 434.8 432.3 429.8 429 430.6 429.6 432.1 436.3 442.6 453 456.2 453.7 446.1 429.6 414.4 398.9 385.2 374.7 362 351.5 349.2 347.3 349.2 344.8 343.8 330.2 331 331.6 331.8 332.5 332.9 333.2 333.1 333 333.2 333.5 334.5 334.6 334.5 335.2 341.8 346.9 347.6 343.3 336.1 325.8 327.2 326.6 328.2 326.5 326.4 327 327 326.6 326.8 327.7 330.2 328.2 330.8 331.7 331.4 334.9 338.1 338.1 340.7 344.3 349 351.8 350.8 341.6 348.7 371.7 387.3 399.2 410.2 417.4 426.2 433.2 438.6 446.7 455.1 464.3 467.4 469.2 469.5 465.2 456.3 447 442 436.2 433 433.8 435.4 436 433.8 433.2 431.7 428.9 427.5 424.2 423.3 423.7 424.4 423.3 424.1 427 430.4 438.2 447.3 454.5 454.8 449.4
577.5 570.5 569 573.4 581.6 586.1 591.7 597.5 602.8 608 612.6 614 615.1 614.8 612.7 612 607.9 600.8 596.6 592.7 587.1 582 580.4 575.4 570 563.7 557 549.3 541.2 536.1 531.7 528.8 524.8 521.2 518 519.7 521.8 522.7 524.9 528 530.1 531.8 533.1 534.8 537.9 542 544.8 548.5 545.2 537 525.8 517.3 511.8 508.2 504.1 498.6 492.1 483.5 469.4 477.8 487.5 493.6 498.1 502.9 506.5 510.1 515.6 516.7 519.9 522.5 519.6 514.7 509.8 504.6 500 493.6 486.5 484 480.3 475.6 471.4 466.2 467.3 463.7 457.6 453.5 450.3 445.2 440 434.2 430.1 427.8 431.4 429.4 429.1 432.3 437.4 443 445.8 442.4 430.4 415.3 401.1 387.1 374.4 361.6 355.7 350.9 349.9 351.5 348.1 346.9 338.3 330.2 332.2 332.6 333.8 333.5 333.5 333.4 333.8 334.3 334.8 335 335.4 336.8 337.7 340.1 347 352.3 352.5 350.9 350.9 349.5 348.9 341.1 339.9 338.4 337.6 333.4 332.7 333.4 334.7 336.8 338.6 335.6 334.7 337 339.9 344.3 343.7 344.9 347.5 352.2 356.9 360.5 361.7 355.6 345.8 358.5 378.4 393 404 412.4 420.9 429.1 437.6 446.9 456.7 464.8 470.6 474.2 474.4 467.9 459.3 450.5 444 439.4 433.8 434.4 435.2 435 434.1 433.6 433 433.6 431.2 426.6 428 427.3 427.9 427.8 428.8 432.9 437 442.9 450.9 459.8 459.1 454
578.6 572.8 570.3 574.8 580.3 585.5 589.8 594.1 598.5 603.9 607.4 610.4 611.8 612.9 612.6 611.7 608.1 605.6 604.3 599.3 594.6 587.9 584.1 578.3 571.8 566.7 559.1 551.3 544 539.2 534.7 530.3 525.7 522.5 521.6 523.8 525.8 525.4 527.6 529.6 532.4 534.2 536.2 539.5 544.1 549 548.9 550.1 546 534.9 524.1 518.1 514.1 510 506 499.6 495.1 490.6 476.1 478.5 491.1 499.4 506.7 508.2 512.2 515 517.9 522.4 524.7 524.2 523.5 516.7 509.9 504.8 500.1 492.3 488.7 486.4 481.2 478.3 475.6 475.9 478.5 473.2 467.5 461.3 458.8 452.2 446.3 442.4 437.3 430.2 422 423.8 425.5 426.5 430.5 433.4 435.3 429.9 417.6 401.2 388.2 377.8 365.5 357.8 352.2 352.1 350.6 348.8 345.8 337.4 332.5 332.8 330.7 332.9 334.5 334.3 333.8 334.9 335.4 335.9 336.4 336.6 339.3 340.1 340 342.8 350.4 356.1 358.9 359.2 360.7 359.3 354.5 345.5 349.9 347.8 348.5 346.2 343.9 345.4 345.2 345.5 347.2 344.9 337.3 343.3 350 350 347.7 349.9 355.6 360 365 369.4 371 368.8 352.7 349.5 363.4 377.3 390.8 400.5 408.8 418 428 439.9 451.9 462.1 469.3 475.1 474.9 469.1 460.7 451.9 446.6 442.1 437 434.6 435.9 435 434.7 435.1 434.4 435.5 432.6 430.2 436.8 431.7 432.1 432.4 435 438.6 442.6 448.5 453.5 460.7 459.7 453.6
581 574.3 572.5 571.4 577.7 583 587.9 591.5 595.2 599.5 604.5 607.2 607.9 610.7 611.1 611.7 608.2 609.8 608.6 605 598.8 592.7 588.4 582.2 574.9 567.9 560.3 552.4 546.6 540.8 536.2 531.8 526.8 522.1 525 527.4 527.4 528.4 530.9 533 536.8 540.5 543.2 546.7 552.5 555.5 552.6 550 544.8 533.2 525.2 520.6 516.5 512.4 508.2 501.7 497.6 495 490.4 475.2 491.1 502.9 510.6 514.1 516.5 519.7 523.2 525.1 530.1 529.3 523.4 516.6 510.7 504.6 498.6 491.9 490.4 487.3 484.2 483 481.2 486 489.1 487.5 481.9 476 466.6 460 455.6 453.9 446 436.6 428 420.2 416.6 419.7 421.2 421.3 421.8 417.2 404.6 390.2 379.5 369.1 362.2 357.2 355.5 354.2 349.7 345.2 337.5 333.1 332.7 333 332.8 331.2 335.2 335.7 336.2 335.7 336.9 337.4 338 339 342.7 344.4 341.6 347.1 354.1 361.4 365 367.6 367.7 368.7 363.4 352.2 357.9 356.7 355.4 356.3 355.8 355.7 355.1 355.8 354.5 350.3 347.6 343.9 349.3 349.9 356.3 360.7 366.5 369.6 375.4 378.1 377.8 379 376.8 360.5 355.6 356.8 367.7 379.6 391.3 402.8 414.3 428.6 442.7 455.4 466.5 472.5 471.8 469.9 462.3 454 449.3 444.9 439.5 435 435.1 436.3 437.7 436.6 435.7 436.4 434.8 438.1 440.7 438 437.2 439 442 445.4 449.4 454.4 457.1 458.3 458.2 454.4
581.9 577.2 574 576.8 575.5 580.6 585 589.3 593.3 596.9 602.1 604.8 606.8 607.6 609.8 610.1 611.5 613.1 612.5 608.9 603.7 596.8 590.8 585.4 577.3 568.5 561.3 555 549 543.6 537.4 533.3 527.8 525.4 528.4 529.3 531.3 533.7 536.2 539.1 545.5 548.7 551.3 555.9 558.8 558.6 554.5 550 543.2 534.5 527.3 523.3 519.5 514.8 510.3 503.9 501.7 498.1 499.2 486.1 486.5 504.6 515.3 517.5 520 523 526.7 531 531 527.3 520.8 515.6 510.2 504.9 501.6 495.6 491.2 488.7 487 487.3 488.2 494.5 498.1 501.2 496 488.7 480 474.1 471.2 467.8 458.8 444 431.9 424.7 415.9 404.5 408.5 411.3 411 406.6 394.5 380.7 371.7 364.4 356.9 355.4 356.5 356.1 348.3 336.3 335.1 334.3 333.5 333.4 333.2 332.9 331.8 337.1 336.6 336.8 337.4 338.9 340.6 341.8 343.1 344.5 348 352.6 359.3 365.9 370.8 374.2 375.3 375.8 372.5 360.5 363.9 366.9 367.3 367.8 365.7 365.8 366.4 364.5 359.8 356.6 349.4 345.4 356.5 364.8 374 376.8 378.5 383 387.8 389 388.5 393 388.4 382.7 378.9 361 358.7 363 365.4 380.4 394.1 413.2 435.5 447.6 461.3 470.6 472.7 471 463.5 457.8 451.9 447.2 441.6 436.6 436.5 438.4 440 438.6 440.7 441.9 442.4 444.5 446.9 445.3 443.5 445.4 448.7 451.8 453.4 456.2 458.8 458.6 458.1 454.6
585 579.6 575.7 574.7 578.6 580.8 582.8 586.5 591.3 594.2 597.2 602.2 604.7 607.5 609.2 611.4 613.1 615 614.6 611.9 606.8 599.2 592.7 586.6 578.6 568.6 561.3 555.2 549.4 544.6 538.7 532.7 526.1 529.7 531.9 534.1 534.9 541 545.4 549.9 555.6 559.3 559.9 562.9 564.2 562.7 557 551.3 544.6 536.2 531.5 528 523.9 518.5 513.3 507.3 504.4 501.8 504.4 500 481.7 500.6 517 521.3 524.6 526.1 528.7 530 527.4 521.8 517.4 514.1 508.2 506.5 502 497 495.1 492.4 493 493.1 497.2 501.9 505.9 508.3 505.8 501.1 494.9 491.5 488 480.2 469.4 455 434.8 424.6 418 413.4 400.3 398.3 398.6 394.8 384.5 372.3 365.3 359.2 355.7 356.2 358.1 355 339.1 335.6 334.7 334.5 334.3 333.9 333.7 333.5 332 337.5 337 337.1 337.3 340.2 342.9 344.3 345.3 346.3 349.2 354.4 364.1 371.3 376.7 379.9 381.6 381.6 377.6 365.3 371.7 374.5 375.7 374.6 375.4 376.3 376.2 374.7 371.8 364.7 357.1 351.1 370.7 382.2 384.8 386.1 390.2 395.5 397.7 399.5 402 401.9 401.1 397.1 392.3 388.5 384.8 382.4 372.9 367.5 377.4 399.1 423.2 441 457.9 470.1 473.4 472 467.1 461.1 455 450.1 444.7 437.5 438 441.7 441.1 444.4 446.8 446.9 448.1 450.4 452.6 452.8 450.7 452.9 456.2 458.8 459.2 459.9 459.8 459.4 458 455.9
586.5 582.7 578.8 580 581 581.3 584.8 588.4 591.8 595.8 598.7 601 604 606.8 609.7 611.5 614.7 616.6 616.4 614.2 607.7 601.2 592.7 586.7 577.6 568.9 560.4 554.7 551 545.4 539.9 531.9 528.9 532.8 535.5 538 541.5 546.8 553.3 558 562.7 566.6 567.2 568.5 568 564.3 559.4 553.8 547.3 539.1 534.8 531.3 526.6 520.6 516 511.4 508.8 506 507.2 507.1 488 491.8 513.8 522.1 523.3 524 524.5 522.4 520 515.7 513.8 513.5 510.2 507.3 503.9 500.9 498.7 497.4 498.3 498.3 504.4 509.5 513.1 513.8 511.7 506.8 503.4 503.2 499.1 487.2 475.4 458.2 435.4 422.3 416.6 410.6 401.6 392.2 391.1 384.1 373.8 366.4 359.1 352.4 347 345.3 348.5 345.1 337.3 335.2 334.4 334.3 334.3 334.2 334.2 334.1 334 336.6 337.2 337.4 337.7 342.9 345.6 346 347.3 348.5 352.9 359 370.1 376.8 382.8 384.4 386.8 386.1 380.9 370.9 378.6 381.3 381.5 380.6 386 384.9 382.8 380.1 378.2 375.1 364.3 360.8 380 390.7 393.7 395.3 399.8 403.3 406.3 412.8 418.6 414.6 413.3 410.5 411.8 406.9 401.2 396.1 391.2 372.3 372.6 387.6 414.5 435.8 454.3 468.7 474.9 474.5 469.5 464.9 457.8 452.3 447.6 442.9 440.4 443.8 445.6 450.1 451.3 451.5 452.9 455.3 457.1 457.8 457.3 458.2 460.7 461.3 462.3 461.3 461.2 460.9 458.8 455.4
586.6 584.1 581.2 583.2 582.9 584.3 585.7 589.2 591.9 593.1 597 600.5 603.2 607.5 609.5 611.9 615.9 617.4 617.7 615.6 609.7 602.5 593 585.2 575.9 567.1 559.3 554.2 550.7 545 538.4 535.3 532.8 535.4 539.3 542 544.7 550.2 555.6 561 567.2 570.8 573 573.2 570.8 567 564.1 557.6 551.1 542.7 539.8 534.8 529.8 524.3 518.8 515.4 513.3 509.8 508.7 507.7 494 487.1 509 513.9 516.2 516 516.1 513.1 511.8 512.2 512.3 513.5 513.3 508.8 507.5 504.3 504.9 504.7 505.2 507.1 512.9 518.4 521.2 519.7 516.4 515.2 511.3 508.8 503.1 491.9 477.3 456.3 437.2 421.6 413.4 407.1 399.5 396.6 382.6 375.8 368.2 361.7 352 347.2 346.4 345 344 339.7 336.7 335.4 334.7 334.7 334.6 334.5 334.6 334.5 332.3 335.7 336.8 337.3 340.4 347.2 350.5 349.1 348.4 351.1 354.2 361.1 371.3 379.4 384.3 387.2 390.1 388.4 382.9 379.8 384.8 388.3 386.8 392.9 395.3 392 390.8 389.6 384.3 380.8 374.4 361.7 383.1 396.8 400.7 406.3 410.2 411.8 417.5 425.3 433.1 432 430.5 426.9 428.3 426.8 420.9 411.8 405.6 393.5 373.7 384.4 408.7 429.5 446.7 461.7 471.6 472.6 470.4 465 460.5 454.8 450.6 446.3 442.1 446.9 450.7 455.8 457 456.1 458.1 460.4 461.7 460.2 460 463.2 467.8 468.7 465.7 464.3 462.9 461.5 460.2 455.4
587.6 584.9 583.6 578.8 584.1 585.7 587.5 590.8 592.1 594.2 598.6 600.7 604.8 607.6 608.9 612.4 616.3 619.4 619.8 616.7 610.8 602 591.6 582.7 573.3 565.4 558 554 550.4 544.7 542.7 540.1 538.6 539.2 543 545.8 549.2 555 559.8 562.9 569.3 573.5 576.8 575.9 572.6 570.3 566.4 562.8 556.2 548.6 542.8 536.7 530.1 525.8 520.9 517.8 514.2 513.3 511.3 507 498.7 488.3 498.9 504.9 506 505.3 503.7 503.5 504.8 508 511.7 513.3 512.7 510.5 510.5 510 509.7 511.4 511.7 516.5 523.5 526 528.7 525.7 521.9 521.3 517.4 512.8 502.8 490 476.1 454.3 435.1 421.5 412 403 396.3 386.8 379.8 368.8 360.9 353.7 348.2 348.3 347.7 346.3 344.8 338.8 336.5 335.4 335 335 334.9 334.9 335 332.6 335.3 335.7 336.4 338.9 346.6 352.6 356.1 356.4 353.2 353.2 356.7 363 371.4 379.8 385.3 388.8 390.7 388.5 383.7 387.1 389.3 393.9 394.9 400.9 403.6 402 401.8 401 393.7 388.6 380.6 364.6 386.6 401.9 407.5 416.4 419.5 421.5 428.1 434.8 446.4 446.2 448.5 447.4 445.2 443.2 439.3 432.8 421 406 388 376.8 396.4 416.2 433.6 447 459.6 465 468.3 464.9 462.1 457.4 453.3 448.7 443.2 452.4 456.6 458.5 460.1 459.8 463.1 466 465.6 467.3 467.6 469.6 475 474.1 470.8 468.5 466.5 464.2 461.1 457.6
589.4 586.4 582.4 582.8 585.9 587.5 588.7 589.8 591.5 594.5 598.2 601.6 604.2 607.7 609.9 614.4 617.6 620.1 620.1 617.3 609.8 601.4 591 580.7 572.4 565 557.3 551.8 549.6 544.5 546.5 544.5 544.3 544.3 546.2 549.7 553.9 559.7 563.7 568.6 571.2 574 576.7 576.6 574.7 572.9 570.4 567.5 559.4 553.1 546 539.2 530.6 528.1 524.1 520.4 518.5 518.6 514.2 508.3 500 488.3 485.2 489.4 492.1 492.1 493.8 495.2 498.8 503.2 508.4 512.7 514.4 513.6 513.4 516.1 516.3 518.7 519.5 523.2 528.5 532.6 532.8 530.5 527.2 523.1 517.5 509 497.2 483 469.7 451.9 435.6 421.7 412.6 402.7 390.4 382.9 374 365 355.8 350.6 350.3 352.3 347.8 346.1 344.2 338.3 336.5 335.7 335.3 335.2 335.3 333.7 333.5 336.3 336.4 336.3 338.4 341.8 352.3 357.3 360.8 361.5 360.6 359.1 360.4 360.8 372.6 380 383.2 387.9 390 389.4 387.5 387.8 393.4 397.3 398.1 408.2 413.2 411.1 412.2 410.5 402.7 396.4 391.8 374.5 383.3 401.4 410.4 420.9 426 428 437.3 444.2 455.5 462.8 467.4 469.9 465.9 462 457 448.8 436.5 421.2 406.9 383.3 381.9 400.8 416.8 432.2 446.1 455.3 462.2 464.1 461.5 458.4 455.9 453.3 444.8 454.8 458.5 460.8 463.4 463.7 469.5 471.2 473.7 476.1 474.9 475 481.1 476.7 477.2 473.4 471.4 466.6 463.5 459.5
588 586.1 586.8 585.3 584.2 587.3 588.8 589 591.5 595.3 597.7 601.1 604.6 607.9 611.9 615.7 617.6 619.4 619.8 615.7 610.1 602.2 591.5 580.2 573.5 564.4 556.1 551.5 549 549.4 550.4 549.4 549 550.6 552.5 555.8 559.4 563.1 567.2 571.7 573.8 575 575.3 574.4 574 573.8 572 568.2 561.1 554.9 547 538.9 530.8 528.4 525.7 524.6 522.5 521.2 515.4 509.8 499.6 491.6 482.3 479.9 479.4 481.2 483.2 486.8 492.5 497.7 505.6 510.8 515 515.6 518.2 520.8 522.9 525.7 524.9 529.5 534.2 536.2 537 533.8 529.7 523.6 514.6 505.5 492.1 477.5 463.3 449.3 436 421.5 415.6 398.5 388.1 379.4 369 361.5 355 349.9 349.4 349.1 347 345.6 341.7 338.2 336.7 336.1 335.7 335.6 334 335.6 337.6 337.7 337.7 340.2 341.8 346.9 357.3 367.1 369.5 368.2 366.8 365.7 366.4 368.4 373.7 371.9 380.1 386.4 389.1 388.9 390.5 393.4 393.2 400.2 404.6 414.7 421 422 419.8 420.3 411.1 405.7 401.2 391.3 383.7 382.3 404.3 420.5 430.1 433.5 444.4 452.1 466.2 479.2 488.8 492.4 491.3 486 475.3 462.5 449.5 434.5 419 398.6 383.5 384.2 401.5 416.1 432 445.2 451.3 455.9 457.7 456.3 450.8 446.5 450.8 458.6 461.2 462.2 466.3 470.3 474.2 477.4 477.2 482.2 480.2 479.9 484.3 486.7 484.6 478.3 473 472 466.2 460.8
591.4 589.4 587.4 586 586.6 587.7 587.1 589.6 592.4 595.2 597.2 600.3 603.9 608.7 612.6 615.7 617.5 618.7 616.5 613.7 609.1 602 592.4 582.1 575.5 566.4 559.7 556.7 553.9 555.5 555.6 554.4 556.2 557.2 558.2 561.6 565 568.5 571.7 573.7 574.2 573.9 571.5 570.3 570.7 570.5 570 565.8 559.7 553.6 545.4 535.4 531.5 530.2 529.2 528.1 526.2 521.7 517.5 508.3 501.3 491.8 476.3 473.6 470.5 470.7 477 480.1 486.4 493.7 499.4 506 511.4 515.8 520.4 526.3 527.3 529.6 529 534.6 538.1 539.7 538.5 535.7 531.4 523.2 515.7 502.8 489.2 476.8 463.8 451.1 437.2 428.5 414.3 396 382.9 371.4 363.5 359 356.6 348.3 348 347.5 346.3 340.3 337.6 337.7 336.1 336.1 334.1 333.9 337.7 339.7 339.9 340 340.3 344.4 349.3 359.1 366.2 374.2 377.9 378.1 374.5 372.6 374.4 375.8 379.3 381.2 377.9 383.1 386.8 387.8 392.4 394.9 395 401.5 407.2 418.8 425.7 428.2 426.8 425.6 417.2 415 413.6 411.3 409.1 403.1 400.8 418.7 430.8 439.8 448.9 460.8 474.4 492.1 505.8 512.1 510.7 504.1 491.3 477.3 462.2 447.3 435 419.2 408.3 387.5 390.7 403 415.9 432.3 442.3 447.5 449.1 447.2 447.2 456.7 461.2 462.6 465.1 464.9 470 475.3 479.9 481.7 479.2 488.2 484.2 484.2 493 492.4 488.8 482.6 476 473.7 468.3 464.1
594.3 592.6 591.1 588.2 588.5 588.8 587.1 590.2 593.8 596.9 598.1 600.6 604.5 608.1 611.7 614.6 616.3 617.3 616.9 612.3 607.8 601.8 592.3 584.3 578.3 572 563.7 562.1 561 561.6 560.3 561.7 563.6 564.8 565.3 566 568.4 572.2 573.9 574.7 573.6 570.4 568.2 566.3 565.2 565 564.8 560.5 554.3 545.9 540.5 537.9 534 533.3 532.4 529.7 527.2 522.7 515.8 505.6 497.4 485.3 469.7 463 459.9 460.9 466.4 472.6 479.2 488.1 491.4 498.8 504.3 512.2 518.8 526 530.6 533.8 531.8 535 538.8 541.3 539.9 536.3 529.1 520.2 511.5 501.8 493.7 483.4 469.9 452.4 434.8 423.3 409.6 393.2 378.3 368.3 359.5 355.3 352.8 348.8 346.7 345.9 343.4 337.9 337.1 335.5 335 334 334.8 338.4 340 342.9 344.2 342.4 346.6 351.6 358.6 368.4 375.4 380.4 386.2 385.8 383.2 382 383.8 382.5 384.9 386.1 385.9 387.3 390.9 392.7 392.1 396.7 398.1 402.9 407.6 419 428.6 432 433.3 429.6 424 424.8 425 423.6 420.4 411.6 397.1 417.8 431.1 444 453.7 465.6 481.6 500.1 517.5 521.8 518.6 512.7 505.2 489.8 474.3 457.6 448.1 434.6 424.4 407.1 390.3 396.2 401.6 413.8 429.8 440.8 445.9 450.9 459.4 460.7 463.5 469.4 469.4 468.3 472.3 478.8 484.7 485.2 483.8 491.3 488.6 489.8 500 496.7 492.1 485.8 479.2 476.4 473.6 469.5
598.8 595.8 594.7 591.6 591.7 590.4 587.2 589.8 593 597 598.4 602.5 604.7 607.1 610.9 613.6 615.4 616.1 615.4 611.6 608.3 602.7 593.8 589.2 581.3 578.2 572 570.3 570.4 569.9 568.8 569 571.5 573 573.3 571.7 572.3 575.5 575.4 574.9 572.1 567.6 564.2 563 561.6 562.4 560.1 555.2 549.9 546.3 543.9 541.1 538.8 535.8 535.3 532.8 527.4 521.1 515.2 504.6 492.4 478.8 465.7 457.7 449.5 450.8 457.5 463.9 470.5 475.9 481.9 485.4 492.5 503.5 511.7 520.9 525.8 529.3 529.6 532.8 536.8 540.4 538.9 535 527.7 520.4 514.9 508.8 502.5 490.2 474.7 457.1 438.9 420.4 404.1 388.3 377.4 367.6 357.2 351.4 350.8 348.4 345.5 343.8 338.8 337 336.3 334.4 334 340.9 339.8 340.5 343 346.7 348.9 351.2 356.6 362.7 371.6 379.6 388.7 393.2 395.4 393.8 392.4 392.5 393.3 392.1 390.8 389.9 390.9 385.6 392.9 395.5 397.4 399.5 401.1 404.9 409.2 419.3 429.6 434.7 437.9 436.3 432.1 433.1 432.4 431.3 427.6 419.1 396.6 417 431.2 445.4 458 470.5 484.8 501.1 517.2 526 521.7 516.5 508.8 497.3 483.4 467.3 457.2 444.6 439 424.8 405.9 392.6 395.1 405.3 414.8 433.1 447.3 455.1 461.3 464.5 469.4 473.9 474 470.2 473.9 481.6 485.8 484.3 490.6 494.9 494.2 494.3 505.5 500.8 495.4 489.6 484.2 481.8 479 476
603.8 599.1 597.6 596.7 592.9 591.6 586.6 589.6 592.4 597.3 602.5 603.3 606 607 610.5 612.7 614.6 614.5 615 612.5 610.2 603.9 599 594.2 589.4 585.5 581.6 578.8 578.6 577.5 576.7 577.1 579.4 580.1 579.7 578.1 577.3 577.5 577.6 574.9 570.7 565.3 561.2 558.8 559 559.6 557.1 554.2 551.9 550.3 547.6 544.7 542.7 538.2 538 534 529.3 521.6 512.9 499.9 484.5 471.1 463.2 456.3 446.7 444 448.5 454.8 461 464 467.2 471.3 477.7 488.1 499 508.1 514 518.7 522 525.4 530.4 535.1 536.7 533.8 528.3 524.5 519.8 513.6 508.5 494.9 476.4 458.4 435.9 418.6 400.9 386.8 373.5 363.4 356.4 349.5 348.6 347.4 343.9 341.6 334.6 335.7 336.8 341.5 342.8 342.1 342.2 343.5 348.7 354.8 356.4 367.4 370.3 374.5 380.5 389.1 396.7 400.1 402.3 402.3 402.9 404.3 403.3 401.8 399.2 397.8 396 395.9 392.5 398.4 400.3 402.8 404.8 409.1 412.9 419.1 430.8 437.8 442.3 442.3 439.1 440.1 437.9 436.1 431.3 424.2 411.7 413.8 430.8 447.3 459.9 472.8 487.1 500.1 512.2 522 522.1 517.2 509.5 499.5 478.2 471.4 461 458 449.3 438.3 425.7 414 398.3 399.4 413.3 426.3 446 456.1 460.9 468.5 474.3 477.2 477.6 471.7 475.5 483.5 484.2 489.9 493.4 497.7 499 496.6 509.9 505 495.3 492 489.6 490 486.7 483.8
606.7 604.2 600.8 600.1 596.1 592.3 590 589.7 593.8 598.7 606.5 605.1 605.8 606.9 610.8 611.5 614.7 615.4 615.3 612.8 611.9 609.8 604.1 600.4 594 590.7 587 584.9 584.5 583.2 584.2 584.8 586 586.9 586.1 583 580.3 579.8 577.9 573.9 567.8 563.2 559.2 554.5 552.7 556.2 555.5 557.2 560.4 558.7 555.8 551.4 545.8 540.7 535.2 531.6 525.1 518.8 508.3 493.2 479.3 468.2 460.2 453.5 446.9 441.8 440.8 446.2 450.2 453.6 457.3 460.5 465.9 473.1 483.6 492.4 499.1 504.9 510 515.5 522.1 530.2 537.1 535 531.2 529.4 524.9 519.3 512.3 495.6 473.7 451.7 431.1 414 399.7 384.2 371.6 360.7 354.4 348.4 346.6 345.7 342 335.5 337.1 337 336.9 344.1 344.2 347.4 351.1 355.4 363.4 368.5 367.5 371.8 380.2 386.5 392.1 398 404.5 406.9 408.5 412.2 414.6 414.9 414.6 414.1 409.6 404.3 402.7 401.6 402 403.6 404.5 406.2 408.5 411 415.8 420.3 431.2 438.5 443.9 446.5 445.9 446.5 442.2 439.8 435.6 429.5 419.6 406.7 429.3 446.7 463.5 477.1 488.7 499.3 509.4 518.3 518.2 514.6 504.5 487.5 487.1 481.3 475.1 468.4 457.5 448.3 436.6 424.9 418.1 400.5 411.7 424.3 445.3 457 464.9 473.1 478.3 479.3 479 474.8 475.7 483.5 483.8 490.4 494.7 498.8 502.5 502.3 511.6 505.2 507.3 502.8 501.1 500.7 498.4 492.8
610.1 607.4 604.4 601.9 598.9 593 589.4 591.2 595.1 599.6 605.9 603.8 605.7 607.9 612 613.6 615.6 616.1 615.2 615.6 614.1 612.5 609.3 605 599.1 595.1 592.8 589.5 588.7 589.7 590.5 591.7 592.5 592.9 591 586 582.7 578.5 574.1 571.7 566.2 560 554.5 548.9 545.3 550.2 553.9 558.1 562.4 562.5 560.3 555 549.9 543.8 536 528.9 521.5 513.3 502.8 488.3 475.3 466.1 456.1 447.9 439 434.5 432.5 438.6 440.5 445.1 448.1 451.1 452.7 459.2 466.5 474 479.6 488.2 495.5 502.8 512.1 524 532.4 536.4 537.6 535.4 525.8 522.9 512.1 493.4 471 447.7 426.8 412 398.8 384.5 367.3 357.1 352.5 348.1 346.5 341.8 337.4 335.3 336.9 337.6 347.9 353.1 358 358 361.5 367.5 374.9 379.3 380.9 378.5 386.1 393.6 399.6 405.3 411 414.8 425.7 427.4 426.9 426.2 426.5 424.6 418.9 414 411.3 409.1 407.9 408.6 409.4 410.2 414 414.9 419.4 425.2 430.8 439.2 444.3 447.6 449.4 450.6 448.8 446.9 445 437.2 425.2 408.7 426.5 445.8 464.9 480.2 490.4 501.1 504.4 507 500.5 498.4 498 510.1 505 496.4 486.8 477 469.8 458.3 448.8 438.6 429.4 407.7 407.6 422.8 443.9 455.9 465.9 474 480.5 481.3 483.2 477.7 475.8 482.4 484.7 488.5 493.5 499 504.6 506.4 516.2 516.7 518.1 516.4 517.1 517 510.6 506.2
612.9 610.2 606.9 604.4 599.7 595 593.1 596.8 600.5 602.3 604.1 606.9 608.6 609.3 613 614.8 615.8 617.4 616.3 616.8 615.8 614.1 611.5 607.7 603.9 600.2 596.4 593.9 593.9 595.6 597 598.3 598.8 597.5 594.1 588.1 582 574.3 570.6 568.3 563.6 557.5 550.4 545.3 538.5 541 550.1 557.6 562.2 564.4 563.5 559.4 552.9 546.4 540.3 531.6 522.4 509.4 499.1 482.6 473.6 461.9 452.6 444.2 436.4 430.8 427.2 429.8 433.5 436.7 440 442.8 444.4 446.5 452.7 456.5 462.2 469.1 477.3 486.9 500 511.1 522.5 533 539.3 533.8 528.5 521.7 508.7 487.2 466.3 442.5 423.8 409.5 395.3 377.1 363.8 355.6 351.2 348.7 347.3 342.9 337.4 335.3 336.8 346.2 355.5 362 364.9 366.4 372.8 380.3 385.1 388.6 389.8 381.7 392.8 399.5 405.8 411.2 416.7 421.4 430 434.8 438.4 442.5 442.1 435.6 429.6 422.6 417.8 417.1 415.2 414.9 415.3 420.3 421.6 422.4 423.5 428.9 433.1 439.6 444.4 448 452.7 452.8 453.3 452.6 450.2 444.9 431.4 421.1 425 446 463.8 481.2 492.7 502 509.5 516.2 519.4 518.4 515.7 516.4 511.4 504.2 495 485.1 477.4 468.7 462.4 451.6 440.6 427.7 409.5 415.7 438 453.1 464.1 472 478.3 482.2 484.7 480.4 477.8 481.2 483.5 486.2 491.4 498.8 505 511.2 520 525.5 526.6 527.4 532.6 530.3 525.4 521.2
614.1 611.5 608.8 605.8 600.7 594.3 598.6 602.4 605.9 606.6 609 610.8 611.3 614 615.3 616.9 618.2 620.3 620.6 619.4 617.1 615.9 613.1 610.9 607.5 604 599.2 596.5 597 599.7 602 602.9 603.2 599.7 593.9 586.2 578 569.5 566.8 563.8 560 553.3 546.6 540.7 534 536.9 545.7 552.9 558.7 561.4 562 560 554.2 549.2 540.6 534.3 524.7 511.8 495.8 480.9 471.3 459.9 449.3 441.5 434.6 428.2 422.7 424 425.1 427.4 431.5 434.8 437.6 440.4 442.9 445.6 449 454.1 461.9 472.8 484 496.5 509.2 522.2 530.7 531.5 528.2 516.3 506.9 483.3 461.2 438.8 422.3 408 395.4 378.2 362.8 352.4 348.9 348.6 347 341 337.8 335.5 338.5 355.2 365.2 368.7 371.5 377.6 385.7 392.4 395.3 397.3 397.2 389.4 399.3 406 412.6 418 422.7 427.4 433.4 438 444.6 453.3 454.3 446.7 441.2 432.5 425.7 423 421.6 421.5 426.2 429.6 428.6 429 430.3 432.7 437.7 441.3 444.2 450 455.3 458.1 461.3 461.5 457.3 450.8 440.6 429.8 421.3 445.7 464.4 479.9 493.5 504.1 513.8 520.9 524.3 524.9 522.5 519.5 515.6 510.2 502.3 493.2 485.9 479.2 470 462.6 453.4 446.3 427 410.9 421.3 442 457 466.6 475.2 482.8 482.7 481.3 477.9 479.9 481.6 484 490.6 497.6 504.5 511.5 522.4 530.4 532.9 538.2 542 543.4 540.5 536.2
613.4 612.1 608.7 605.5 602.3 599.5 604.1 609.1 611.8 613 615.1 617.7 619.1 620.1 622.2 623.6 624.7 624.1 624.3 623 620.1 618.6 615.1 613.1 610.3 607.1 602.7 599.5 599.9 602.4 603.8 601.8 598.7 595.4 589.1 581.7 573 565.2 562.7 559 555 548.5 541.1 533.8 528 529.3 539.2 544.9 550 552.9 554.4 553.2 550.4 545.3 540.2 535.1 521.9 510.8 495 478.5 467.3 457.8 448.1 440.1 432.6 426.2 420.6 418.3 419 419.6 422.6 427.4 428.8 430.9 431.3 434.6 437 441.2 446.4 456.4 467.5 481.5 493.8 508.5 520.8 526.4 522.4 514 501.4 478.5 458.1 435.2 418.2 403.1 391.5 376.8 360.9 350.7 346.8 349.3 342.5 339.1 337.8 335.6 350.1 362.3 371.6 376.2 380 389.8 400.4 403.5 405.3 405.4 404.5 404.2 404.9 414.5 419.5 424.7 427.8 435.5 441.5 446.8 454.8 463.6 462.8 455.6 451.6 447 438 431.2 430.2 423.8 431.7 435.8 436.8 436.1 436.7 432.4 440.3 443.9 448.1 455.5 462.6 468.2 472.3 472.1 465.7 456.9 449.3 439 418 443.8 461.1 479.9 492.9 503.3 515.6 525 529.2 529.8 527.3 522.9 518.8 514 509.3 502 496 489 481.9 472.6 461.2 447.5 439.7 423.9 413.7 429.9 446.7 458.1 466.7 474 478.3 478 476.7 476.8 478.1 481.1 488.4 496.2 503.1 511 521.4 531.3 535.8 547.9 552 554.6 552.7 549.4
612 612.1 609.6 604.6 603.7 601.8 608.7 612.3 615.5 617.4 620.3 622.2 624.4 626.7 628 630.6 631.1 628.9 627.8 626.5 622.6 621.2 618.8 613.6 611 607.5 603.4 600.1 600.7 601.4 598.9 594.9 590.5 586.9 581.7 575 566.4 562.9 558.5 554.1 549.6 543.9 537.6 529.9 524.8 523.8 531.6 536.2 540.2 544.3 545.6 543.8 541.2 538.2 534.4 529.6 519.9 506.9 485.9 473.1 465.8 457.5 445.6 437.3 429.2 422.6 417.9 413.7 413.1 412.4 415.5 419.6 420.9 421.7 423 424.8 425.7 427.5 434.3 443 451.6 465.3 478.8 494.1 505.3 512.7 514 506.8 492.9 475.1 452.2 429.9 413.9 398.3 383.3 368.1 357 348.7 346.7 347.5 340.5 338.9 338 336.1 354.3 367.1 378.7 384.1 393.4 403.5 411.6 413.5 413.7 413.4 411.9 411 410.6 420.3 425.2 428.3 433.3 443.1 451 459.9 469.1 471.9 472.3 465.8 460.6 454.1 449 441 438.6 431.9 438.8 442.9 443.5 443.2 443.2 442.6 443.7 447.5 452.1 460.7 470.5 477.7 483.2 482.5 474.9 462.9 456.6 445.7 422.8 434.2 459.6 477.1 492.2 503.5 515.6 524.7 530.2 532.7 531.6 525.7 521.2 516.9 513.6 508.9 504.7 500.6 494.2 483.4 471.5 456.4 447.1 436.4 420.2 422.7 436.2 445.3 453.2 461 469 473.1 472.3 471.9 473.4 478.3 484.3 493.4 501.7 508.7 518.8 528 538.5 552.7 558.8 563.2 561.8 560.4
612.3 610.4 607.1 603 601.2 605.2 610.8 614.7 617.6 620.8 623.1 625.3 628.9 631.1 633.6 636.5 637.3 635.7 632.4 628.5 625.8 624.6 621.8 615.6 610.3 605.3 600.3 596.7 595.9 594.8 591.3 586.5 581.5 577.7 573.1 568.7 563.2 559.7 554.9 550.7 545.9 539.7 533.7 525.1 520.6 519.5 518.9 524.6 528.5 531.4 531.7 532.2 531.1 528.4 523.6 517.9 510.7 496.2 478.5 470 464.1 456 444.1 435.6 425.6 420 415.6 411.2 408.5 406.8 407 409 411 411.1 412.5 414.6 415 415.1 420.2 427.7 436.3 448.1 460.9 473.7 485.2 493.4 496.5 493.6 482.8 465.8 445.7 425.8 409.4 392.3 376.4 362 352 347 346.9 342.8 340.5 339.7 338.7 336.7 357.1 373.2 384.7 394.8 409.5 417.1 419.5 419.9 422.1 421.5 419.5 419.4 415.7 421.8 428.8 431.5 439.3 447.7 456.6 467.1 478.2 481.3 481.9 475.5 466.8 460 457.7 450.5 447.2 440 445.7 447.3 449.1 447.6 447.1 446.7 446.6 451.7 461.2 469.1 478.9 488.6 493.4 491.8 484.4 473.4 462.3 452.9 439.4 427.1 453 472.7 490.3 502.5 512.9 522.1 530.2 534.5 534.9 529.1 524 520.2 518.1 516.7 513.2 510 505.2 494.8 483 467.9 458.3 449.3 438.6 422.2 418.6 426.2 431.5 442.1 455.5 463.5 463.4 466.2 469.2 474.5 480.6 489.1 496.4 504.5 514.5 526.1 539.6 549.6 558.8 566.1 569.3 568.8
611.7 610.7 604.4 603.8 602.6 607.7 611.9 616.9 620.8 621.9 625.9 628.3 631.2 634.5 636.5 640.3 640.7 638.4 634.4 629.1 627.2 625.9 622.8 615.6 609.8 603.4 594.8 592.4 590.4 586.8 582.5 578.2 573.2 569.8 566.6 563.4 560.2 554.7 549.3 544.9 540.8 536 529.3 522.7 517.8 514.3 513.8 513.1 515.8 518.6 517.1 516.4 515.6 515.1 514.5 513.3 501 484.1 474.4 470.9 462.5 452.5 438.6 432.3 424 418.9 414.4 411 408.7 406.4 403 400.1 403.2 403.8 402.8 400.5 399.3 401 406.3 411.8 420.6 432 443.3 455.3 463.9 469.8 474.1 473.4 466.9 454.3 438.4 421.7 402.8 384.6 368.9 358.9 352.1 346.7 346.9 342 340.5 339.5 338.5 342.7 362.1 379.7 392.2 405.9 421.5 427.2 427.6 428.3 430.4 429.1 426.9 426.9 425.2 422.7 432.2 436.9 444.9 454.6 465.5 482.6 487.2 489.6 491.1 488.1 471 466.3 461 457.7 454.9 452.9 454.4 454.3 453 451.8 451.7 450.8 450.4 456.4 466.7 474.8 486 495.1 502.5 501.6 496.2 488 473.8 458.6 448 428.9 440.5 467 486.3 500.4 510 518.7 527 532.9 535.9 533.1 529.7 526.3 524.9 523.8 521.5 518.9 515.1 507.3 497.8 481.9 476.5 467.9 457.3 445.6 439.2 431.4 431.1 427.5 444.5 453 456.4 459.8 464.3 469.7 477.6 485.2 492.6 499.4 506.6 520.6 535.1 546.2 556.4 565.1 570.9 573
612.3 608 605.7 602.8 605.2 608.3 613.1 617.7 620.5 624.8 627.8 631.7 634.4 636.4 638.4 641.7 642.2 639.2 634 629 625.8 624.2 620.3 615.3 607.6 600.2 593.5 587.7 583.3 578 574.9 572.2 567.9 566.1 563.8 559.6 554.3 548.3 544 540.6 536 531.2 526.2 520 515 509.9 506.5 505 505.5 505.9 505 504.3 503.4 502.9 501.5 499.8 489.8 477.7 474 470.2 459.5 446.6 434.9 428.3 422.8 417.9 412.7 410.5 406.7 402.2 399.8 398.8 388.6 394.3 392.5 388.8 384.5 384.4 387.3 390.9 397.9 412 422.8 433.3 441.1 449.5 452.3 452.8 449.5 443.2 431.9 413.4 395.9 377.6 362.7 353.1 347.5 345 345.1 341.6 340.1 339.5 336.9 346.9 368.2 387.3 404.6 419 430.6 436 436 438.1 437.1 436.3 434.8 434.4 432.7 430.7 434.1 440.2 450.9 460.3 473.3 489 495.1 497.9 499.3 493.9 480.4 474.3 470.3 462.9 461.5 460.3 461.9 463.9 462 463.5 460.3 457.1 458.5 460.5 470.3 480 492.5 504.3 511.5 508.2 504 493.7 481.5 467 455 445.3 437.9 461.1 481.2 493.1 503.4 513.1 520 528.2 533.5 535.4 535 533.4 531.2 529 528.8 527.4 523.9 518.4 510.5 502.9 496.5 486.2 477.2 467.1 460.7 456.4 452.8 431.4 435 445.6 451.2 455.6 460 465.8 473.5 481.1 488.5 496.3 504.4 515.5 528.1 539.4 550.2 560.6 566.9 571.3
609.6 608.6 607.2 605.6 605.1 607.9 612.3 617.8 622.6 626.7 630.3 631.7 635.2 637.3 639.3 641.6 640.8 637.4 633.8 627.7 624.3 621.6 617.9 612 605.2 597.9 590.8 583.6 576.8 574.9 572.5 569 565.3 560.9 558 552.6 547.1 542.1 537.8 535 530.8 527.3 523 518.6 513.7 505.8 500 499.1 497.4 495.7 493.5 493.4 492.3 491.2 490.4 487.2 479.4 476 474 466.2 454 441.3 431.3 426.1 417 411.4 406.6 405.1 404 401.4 398.7 396.7 390.4 379.8 385.9 380.5 376.1 372.8 370.3 368.9 376.7 389.8 404.6 413.9 421.2 428.1 430.2 431.6 431 427.7 418.3 400.9 384 367.2 357.6 348.8 346 347.1 341.3 340 338.5 337.7 339.3 351.7 372.1 392.7 410 424.7 439.7 445 445.7 447.1 444 442.7 442.3 442.2 439.4 435.6 437.4 443.8 454.9 464.8 482.1 498 502.4 505.1 505.3 499 488.3 481.4 474.3 469.3 466 466.1 469 472.5 468.2 469.3 466.4 463.3 464.3 461.1 471.8 484.9 497.1 508.5 513.9 509.5 507 500.2 487.4 475 461.8 451.5 436.5 459.7 473.2 485.7 495.6 505.5 512.8 522.1 530.8 535.9 538.1 538.6 536.9 535.2 535.7 536.1 534.4 528.1 520.9 513.7 508.1 498.2 488 480.7 472.9 465.4 457.9 445.6 428.9 436.2 446.6 451.7 458.3 464.8 470.3 476.8 483.7 492.9 502.4 512.9 520.9 531.9 542.5 553.1 561.1 566.2
609.3 607 606.9 606 604.6 606.6 612.2 617.7 623.6 628.8 630.1 630.8 633.2 636.3 639.3 641.1 639.5 637.3 633.7 629.5 623.3 618.6 613.5 606.9 598.8 590.7 586 578.7 574.1 571.9 569.4 565.6 561.4 556.7 550.8 546.1 540.7 535.7 532.5 529.4 526.6 524.7 522.1 517.4 511.7 503.5 496.9 493.3 491.8 489.5 487.8 486.8 483.5 481.6 481.4 479.4 475.3 473.2 468.9 460.7 448.1 435.4 428.7 423.5 416.1 411.7 406.3 403.2 399.3 398.7 394.4 384.9 376.6 373 372.2 369.6 366.3 363.5 368.9 368.8 363.2 367.7 381.8 391.1 401 407.8 408.7 410.1 410.5 409.5 403.7 389.5 372.4 363 354.7 348.1 344.5 341.9 340.3 341 337.8 340 339.3 352.6 374.5 395.5 414 430.3 446.2 454.2 455.5 456.1 451.8 448.4 448.5 447.8 445.5 442.1 443.2 450.1 462.4 473.8 489 502.6 507.1 511.2 509 502.3 494 483.7 477.9 473.3 471.8 474.4 474.7 475 477.9 476.5 470.7 468.8 467.6 467.3 472.9 488.9 499.2 509.2 514 512.3 509.9 505.5 495.4 481.8 468.5 457.8 442.1 452.9 467.3 480.3 490 498.8 507.3 516.2 526.8 533.9 539.5 543.2 544.7 543.8 542.5 543 543.7 538.6 531.1 525.4 516.7 507.3 497.2 486.3 479 471.9 461.8 453.2 444.8 432.2 441.3 450.9 457.8 465.7 471.6 478.6 486.3 487.5 498.8 508.7 516.2 526.4 536.3 546.4 553.9 559.7
607.8 606.9 607.2 606.7 605.2 608.4 612.9 617.3 622.8 626.5 627.2 630 632.3 635.2 638.2 640.4 639.9 637 634.5 629.9 622.8 615.5 609.9 603.3 591.5 583.9 579.4 575.2 571.4 567.9 565.7 561.1 555.7 548.6 543.3 539.7 535.4 531.1 527.8 525.2 523 521.3 519.5 515.7 511.2 502.6 493.2 486.9 486.4 485.4 483.8 482 478.2 476.2 475 474.2 472.9 470.3 464 453.6 442 430.9 425.7 421.3 412.4 407.1 401.7 398.6 396 392.3 385.6 371.4 370.8 369.7 367.2 367.3 372.2 378.3 380.5 376.5 373.6 365.9 363.3 370 377.8 384.7 388.2 390.2 391.9 393.8 389.7 380.6 367.7 360.3 351.2 343.5 343.2 341.3 345 338.4 340.3 339.9 339.3 349.4 375.7 395.5 415.5 431.6 447.3 461.3 463.7 460.9 457.3 454.8 454.8 453.3 451.6 449.4 450.7 457 469.7 481.1 493.1 502.6 510.2 514.9 512.5 505.6 495.1 485.5 480.8 477.1 475.6 477.1 480.1 483.4 489 485.3 480.3 474.3 472.3 471.2 476.2 490.8 503.1 509.3 515.4 514.7 510.7 507.9 499.8 487.4 474.5 465 455.2 446 461.6 474.4 483.8 493.2 504.2 514 523.4 530.8 540.6 547.1 551.8 550.4 549 549.3 549.7 544.8 539.3 533.3 524.3 516.8 506.9 495.8 486.4 476.4 466.7 456.8 450.1 446.6 436.5 448.9 459.7 466.6 473.4 480.2 487.6 493.8 500.8 503.3 512.1 521.4 531.7 539.3 545.7 552.7
607.3 607.2 607.4 605.8 606.3 609.2 613.5 619.5 621.8 624.2 626.5 627.8 631.2 634.4 636.9 639 639.3 637.5 634.1 629.4 622.5 615.9 609 601.3 589.3 581 576.4 572.3 568.9 563.3 559 555.6 551.2 544.1 538 533 528.7 526 523.4 521 519.8 518.4 517.1 514.2 508.8 499.1 489.3 483.3 479.9 481.7 479.8 476.7 473.4 471.7 470 469.4 470.9 466.8 458.5 449.9 439.4 427.7 427.1 420.8 412.4 405.3 401.4 398.8 394.4 389.1 376.5 369.3 369.6 367.5 373.6 383.4 387.7 381.7 378.9 381.7 382 377.5 368 361.4 362.7 369.6 372.3 374.5 376.8 378.4 377.8 371.1 363.1 355.1 347 345.4 343.8 342.8 345.8 338.5 340.3 339.9 339.6 344.6 370.3 394.6 414.5 431.5 448.7 466.7 471.8 470 465.7 461 460.3 459.7 458 457.1 458.3 464.1 476.5 484.2 493.1 499.5 511.4 516.3 512.7 503.8 492.2 487.8 484.3 479.7 478.6 485.8 491.4 491.8 498.3 492.8 488.4 484.9 481.5 478.8 485.3 496 505.4 510 514.4 516.3 511.4 508.8 502.2 492.3 481.5 471.9 463.4 449.2 456 469.7 481.5 491.8 502.1 512.2 520.5 528.6 538.5 547.4 554.2 555.2 554.9 554.3 552.2 548.2 544.6 538.5 528.6 520 510.5 502 493.6 485 472 461.3 456.5 453.4 439.8 445.3 457.3 468.5 477.8 483.9 493.4 502.6 508.7 512.4 517.9 525.9 528.7 536.3 541.7 548.8
608.4 606.5 606.5 607 607.1 609.8 613.5 616.2 621.2 622.3 625.5 627.3 629.6 632.9 635.6 637.7 638.3 636.4 633.1 627.9 621.7 615.2 607.2 596.2 586.9 580.3 574.7 569.3 567.1 561.5 552.8 546.5 543.7 538.2 533.5 526.8 523.6 519.4 517.2 516.2 516 515.8 515.1 512.6 506.1 496.6 486.7 478.9 475.3 476.3 475 470.6 469.1 465.2 464.5 465 466 462.5 454.7 446.2 433.7 424.7 424.3 414.6 404.9 401.5 398.5 395.6 384.6 380.9 370.6 369.1 368.5 377.6 381.5 382.3 379.8 381 382.2 385.8 386.9 386.4 378.6 365.4 360.5 362.4 366.6 368.6 366.3 367.6 365.8 361.5 358.1 350.8 346.2 345.3 343.3 347.6 345.3 338.7 340.9 340.4 340 342.1 365.6 390.2 411.3 431.8 450.2 471.6 481 478.6 470.1 465.6 466.2 465.4 464.6 465.1 466.6 471.7 481.2 486.9 496.8 501.2 503.6 498.2 505.5 504.9 499.7 490.2 484.4 480.8 481.6 493.7 499.6 501.1 507.8 502.4 500.8 498.8 493.3 485.1 492 499.5 505.7 512.9 516.1 518.2 517.3 511.1 505.2 495.1 485.1 476.5 469.8 460.1 455.5 465.9 479.5 490.3 500 510.2 517.7 525.5 533.2 542.7 550.5 554.9 556.6 556.8 555.6 552.4 547.1 538.8 532.6 525 518.4 509.6 500.4 492.1 482.4 469.4 463.7 460.2 453.4 438.5 458.4 472 481.5 489.3 501.8 511.5 516.2 521 527.2 532.3 534.9 538.9 541 545.9
609.3 607.3 607.2 608 607.8 609.1 613 615.4 619.9 622.4 624.1 626.5 629.2 631.6 633.7 635.2 634.8 634 630.9 626.1 619.9 612.1 603.9 592.4 583.6 578.2 571.5 566.5 564.1 559.7 553.8 543.2 537.1 532.8 527.2 521.1 517.4 514.1 513.8 511.6 511.6 511.7 511.7 509.3 504 495.4 485.2 476.6 469.9 469.9 468.2 464.6 462.8 459.5 458.1 459.2 459.6 456 449.4 439.4 426.1 422.2 419.2 409.4 399.5 392.3 389.5 385.6 379.5 376 370.6 369.8 379.6 381.7 381.7 381.3 383.6 387.5 389.8 390.1 389.8 388.8 385.3 378.7 361.4 357.3 362.5 364.3 361.4 359.8 351.3 349 348.6 347.3 345.6 344.4 347.8 348.5 341.6 338.7 341.6 341 340.5 341 358.6 380.7 402.6 427.8 455.6 476.9 487.1 483.5 475 471.3 472.1 470.9 471.4 472.4 475.4 479.5 487.1 492.7 501.7 505.3 513.1 514.9 505.6 492.4 497.3 487.3 482.9 484.8 490.9 500 505.5 509.4 511.2 510.4 509.7 507 502.2 494.3 500.7 505.1 510.8 516.6 519.8 521.4 518.9 514.7 506.9 498.5 489.9 480.8 473.8 469.4 454.4 464.8 478.2 488.3 498.3 507.6 515 521.4 527.5 536.1 543.6 548.6 555.6 556.7 558.5 556.3 552.3 545.1 538.6 532.2 524.4 515.8 506.5 498.1 490.1 478.1 469.1 466.1 462.3 440.8 456.9 471.7 485 495.8 507.9 517.6 525.3 531.4 537.5 542 542.1 543.4 544.5 546.2
610.7 609 608.7 608.7 607.3 608.7 610.1 614.1 617.7 621.9 623.5 625.9 628 629.8 630.2 631.7 630.6 630.4 625.9 621.5 614.8 606.3 600.1 591.5 580.6 575.8 569.4 563.7 556.5 551.6 549.5 541.2 532.7 525 521.3 516.9 513.1 511.3 510.3 508.8 508.3 509.2 508.4 506.8 501.6 492.9 483.3 474.9 469 464.8 461.8 458.5 456.5 453.2 451.2 451.1 452.7 448.9 441.6 432.8 425.4 418.8 411.9 404.9 397.1 392.7 387.7 382.1 375.6 375.6 370.5 370.5 378 381 384.3 386.2 395.5 402.4 402.5 401.2 398.6 393.9 389.9 386.1 377.2 363.7 355.4 359.7 359.2 357.7 351.6 352.1 350.3 346.4 347.9 348.7 351.2 350.5 342.3 341.1 341.3 341.5 341.1 342.9 352.2 370.9 394.9 422.6 453 479.2 488.1 484.6 480.2 479.8 478.4 477.4 478.5 479.3 483.1 487.7 493.6 499.3 505 511.3 515.3 514.4 510.6 512.7 509.7 506.3 504.6 500.5 499.3 506.7 510.3 516 517.3 518 515.5 512.2 508.5 505 508.5 511.5 516.6 519.1 521.1 520.9 518 514.6 509.8 500.3 492.2 485.2 477.1 469.9 458.2 466 475.7 486.1 495.8 504.3 511.4 516.4 522.1 529.3 537.6 543.5 551.4 558.2 560.8 560.2 557.4 553.4 546.6 540.9 530.7 518 510 502.4 494.7 484.3 475 471.2 468.2 452.4 457.2 472.1 486.6 498.9 512.2 522.8 531.8 539.2 546.8 549.1 548.5 548.5 548.5 550.3
610.9 609.5 608 607.5 606.9 607.3 610.6 615 617.4 619.4 623.2 625.4 627 627.3 628.8 630.2 630.1 627.5 623.4 617.2 609.1 600.1 595.2 588.1 578 573 566.7 558.8 555.1 548.1 537.7 532.1 524.3 518.5 514.3 511.9 508.4 506.9 506 506.2 505.9 506.2 506.2 504.6 498.9 489.2 480.2 474 470.4 466 459 449.4 450.2 447.1 445 443.9 442.4 439.6 433.3 428.6 422.6 413.6 408.8 397.1 391.4 384.5 383.7 374.8 373.9 372.8 371.2 371.2 375.2 380.2 388.4 398.2 409.2 418.1 419.2 416.7 410.2 402 395.1 391 387.4 383.2 371.4 356.8 357.1 355.3 352 353.2 350.2 349 351.3 353 353.5 353.5 338.7 339.5 340.2 341.4 342.1 343.2 350.2 366.9 390.9 420.7 449.2 474.2 483.5 484.7 486.5 487.7 485 482.9 485 486 490.5 494.5 500.5 505.1 509.9 513.2 514.7 518.8 519.6 518 514.3 517 516.4 510.3 509.6 510.7 518.1 520.8 521.8 522.4 519.7 517.4 510.7 510.4 513 518 520.3 523.1 522.6 521.2 517.8 516.7 511.8 504.5 497.9 490.5 480.3 469.3 464.3 470.1 472.9 483.4 493.3 500.7 508.1 512.2 517.9 523.7 532.3 539.1 547.7 556 561.1 563.5 561.7 558.2 552.4 546.8 538.7 528.2 517.6 508.4 500.6 490.4 480.3 476.7 472.4 460.9 451.1 470.1 487.2 500.2 515.6 527.7 537 547.1 555.2 557.4 556.6 555.9 555.2 555.5
609.6 610.1 610.1 608.7 607.1 607.8 611.8 615.5 618.2 619 622.5 623.9 624.8 624.3 626 627 626.2 623.3 619.6 612.7 601.4 594 588.8 582.7 574.6 567.9 560.4 559 554.7 548.9 538.1 525.7 515.6 512.8 510.5 508.5 505.4 503.5 504.3 504.1 504.2 502.1 501.9 501 492.2 485.8 482.4 479.7 473.8 467.1 460.4 452 446 443 440.1 439.3 437.7 434.2 428.9 417 408.4 407.6 403 392.5 385.6 378.7 375.7 373.8 373.4 371.9 370.6 370.2 375 385.7 399.7 411.8 424.6 432.7 439.6 433.3 422.7 413.6 407.8 403.1 395.8 390.1 384.1 372.5 363.7 353.7 353.4 355.7 356.2 353.1 354 355.1 355.3 352.2 338.7 342 342.1 342.1 342.2 346.4 350.5 365.9 390.8 419.1 442.8 466.8 478.6 486.8 490.1 492.3 489.3 488.6 490.4 493.2 497.9 503.3 507.4 511.4 518.2 523 523.4 520.9 517.2 518.2 521 522.7 522.2 518.7 518.1 517.6 518.5 520.8 522.6 522.7 519.6 513.6 514.2 516.2 518.8 524 527.3 529 527.9 524.6 520.9 517.4 511.5 505.6 498.7 491.8 479.7 463.5 473.7 476.6 470.6 479.6 489.4 496.2 503.1 509.7 514.4 519.7 527.2 535 543.7 551.5 559.6 565.4 564.6 561.7 556 550.1 542.5 535.9 526.8 516.5 507.8 496.5 486.3 479.4 474.7 468 447.5 467.6 484.6 500.8 516.5 529.2 539.4 553.9 561.8 564.5 565.1 564.7 562.7 560.6
606.6 610.3 609.2 608.6 606.7 606.5 612.2 614.3 618.5 620.2 622.8 622.9 622.9 622.2 622.5 621.9 620.4 618 613.1 604.5 598 591.1 582.7 574.8 566.1 557.6 554.5 555.6 550.4 543.3 532.9 520.4 513.1 510.7 508.1 505.6 503.7 502.5 502.6 503 503.4 501.4 499 495.4 493.1 492.1 490.4 483.6 477.1 469.5 461.5 453.4 448.1 443.1 438 434.9 434.7 431.5 422.6 430 417.8 407.9 397.6 388.2 383 376.2 374.6 373.8 373 372.1 371.7 372.9 382.3 398.9 411.6 424 437 447 453.7 446.4 438.6 430.4 425.9 421.1 411.1 402.4 396.5 386 378.6 370.1 364.9 360.8 356.2 354.8 356.7 356.3 355.3 339.3 342.4 342.4 342.4 342.5 343.4 349.2 355.7 366.1 386.8 408.1 431.6 453.1 474.5 486.5 491.1 494.3 494.2 496.1 498.4 500.3 504.8 509.6 514.3 522.3 528 533.4 536.2 534 526 524.3 527.6 526.8 527.3 523.8 522.7 521.9 522.7 523.7 521.1 520.6 519.1 516 520 521.8 524.9 527.7 530.5 532.2 532 527.6 522.5 518.7 512.4 507.2 500.4 492.1 481 467.5 481 483.6 480.7 477.7 486.1 494.3 501.4 507.9 512.4 516.7 523.9 530.6 539.1 547.7 556.9 566.5 567.8 565.8 561.6 554.5 547.8 541.5 533.7 522.8 513.2 502.1 491.4 483 476.9 470.8 451.1 457.3 477.3 496.2 513.2 527.4 540 556.4 565.7 569.1 570.4 569.5 568 565.3
602.9 607.2 607.3 606.1 603.9 607 610.9 615.3 618.5 620.4 623.4 622.3 619.3 617 617 616.1 613.5 610.9 605.3 598.9 590.5 584.2 574.6 562.5 554.9 549 545.6 545.2 540.2 531 519.1 513.9 509.7 509.6 506 503.3 501.1 500.7 499.8 500.4 501.2 501.1 498.7 498.2 497.4 502.5 496.4 486.4 478.4 467 461.1 455.5 450.3 445.9 441.4 438.8 433.7 431.1 433.5 427.3 414.9 410.2 396.7 389.3 378.7 375.2 374.4 373.7 373 372.2 372.8 374.3 389.9 407.2 418.7 433.6 449.8 468.9 471.9 467.8 462.5 453.1 447 438.5 426.1 416.4 410.3 401.7 390.3 382 371.8 365.4 360.6 361.8 361.2 358.5 355.4 339.7 342.8 342.8 342.8 343 345.1 349.4 357 367.7 381.9 396.5 417.8 440.2 466.1 485.1 490.1 495.2 499.6 501.6 504.2 505.4 508.8 513.9 523.3 533.2 538.8 547.4 548.5 546.5 540.4 536.1 534.7 534.3 534.1 528.5 526.2 528.4 530.3 530 527.6 526 522.5 521.8 523.5 525.8 528.5 530.9 533.3 534.6 533.8 528.5 524.5 519.5 514.1 506.8 500 490.6 476.8 482.8 486.1 488 482.4 487 486.8 495.4 500.2 504.4 509.5 514.7 520.9 527.3 535 543.6 554.2 562.4 568.8 568.7 566.6 561.9 554.1 547.5 540.1 530.2 518.2 508.4 499.4 486.9 480 473.5 452.8 455.5 472.4 490.2 508.1 524.6 538.4 553.6 563.7 568.4 571 570.9 571.3 569.8
604.8 602.3 603.6 604.8 603.8 605.2 609.6 614.8 617.5 619.3 620.2 618.6 616.6 612.6 610.5 608.6 606.3 602.2 594.4 586.7 580.9 573.2 560 551.8 546.6 541.2 538.5 535.8 531.9 525.1 516.3 514.7 513.4 510.3 505.8 502 499.3 498.4 498.3 497.2 498 498.8 498.1 499.6 506.9 507.1 499.2 489.3 475.2 469.3 465.6 460.3 454.3 450 446.1 443.1 437.5 433 428.1 423 413.8 407.6 399.2 390.1 376.4 375.3 374.5 373.8 374.2 373.8 375 377.5 391.6 406.4 423.6 436.9 459.3 481.8 495.8 492.9 485.2 476.3 468.9 455.8 444.1 435 427.2 418.7 407.1 395.7 383.6 374.8 373.7 373.9 370.7 365.6 349.1 340.4 342.9 343.1 343 343.8 345.9 349.8 357 369.3 389.1 414.9 430.6 433.7 454.8 479 488.2 493.7 500.4 504.8 508.4 509.3 512.6 519.5 533.2 543.4 551.5 558.7 559.4 555.7 549.4 544.6 541.5 540.3 538.8 536.8 534.3 534.2 533.8 531.4 529.9 527.8 526 525.9 527 528.7 530.7 533.1 535.3 535.7 532.5 528.8 525.6 520 514.9 506.4 497.2 487.9 482.7 491.8 492.1 493 490.4 491.4 490 495.9 499.7 503.8 507.9 513.3 519.9 525.2 531.5 539.3 550.2 558.9 565.6 569.3 569.9 566.1 559.7 553.5 545.7 536.4 522.9 514.5 504.2 494.9 484.7 476.2 468.2 454.8 472.9 486 502.1 516.7 535 547.2 559.5 565 568.2 570.9 572.9 572.5
607.6 596 586.3 591.2 597.4 602.1 608.3 611.9 613 613.4 612.5 611.3 608.8 605.2 600.4 599 595.9 591.7 586.9 581.5 571.3 563.2 552.4 543.3 537.2 532.8 527.8 526 522 521.8 516.2 517.7 518.5 509.4 504.1 500.9 498.6 497.1 496.5 493.8 494.6 496.4 498.5 502.5 509.6 507.2 499.7 488.9 474.4 473.6 469.3 464.9 461 455.9 451.5 446.7 440.6 433.3 427 418.9 411.3 404.6 392 386.1 376.2 375.7 374.5 374.6 375.6 377.8 381 375.9 390.3 406.6 423.2 442.4 463.4 484.9 508 518.1 503.6 497 488.1 476.2 462.6 451.2 441.1 433.8 422.1 409.4 394 389.9 386.9 383.2 374.9 363.1 344.1 342.2 342 342.9 343.1 344.2 346.3 351.1 363.8 378.4 399.1 421 442.2 459.5 462.7 470 484.9 493.8 500.6 505.7 510.5 512.5 519.7 525.9 540.1 551.6 561.8 568.1 566.3 562.4 555.8 551.5 548.1 546.4 542.6 539.5 537.1 535.1 535.2 533.4 531.9 529.6 528.8 530.1 529 530.7 531.9 533.2 535.7 534.8 530.8 528.8 525.1 519.8 514.3 505.3 491.3 481.3 494.1 498.6 498.6 498.5 494.7 496.6 497.8 495.6 499.6 504 507 512.6 519.1 524.5 529.4 535.4 544.2 554.3 560.7 565.9 569.2 566.2 562 556 547.7 538.7 528 518.2 508.8 500.8 490.9 479.2 469.1 457.5 466.5 480.6 495.2 509.5 525.6 538 550.5 556.9 563 567.4 571.2 572.2
608.8 607 597.6 579.9 586.2 596.3 603.7 604.3 604.9 603.9 601.1 599.6 598.3 593.5 584.2 582.5 582.4 581.2 577.6 572.4 565.4 555.3 545.7 536.7 529.5 524 520.7 519.4 519.6 519.2 517.7 520.7 519 507.2 502.8 500.6 498.1 493.3 494.1 490.9 492.7 494.5 496.6 504.6 507.6 504.5 497.1 483.6 478 484.4 480.1 475.4 472.1 465 456.6 450.2 441.7 432.5 423.3 414.6 409.5 400.1 389 378.6 377.1 376.8 376 376.4 376.8 385.2 390.1 373.7 385.3 406.7 422.2 438.5 460.6 482.7 503.7 519.4 518.8 514.5 504.4 492 478.8 467.3 459.6 447.5 435.1 423.7 418 410.9 401.4 389.9 372.9 360.8 342.5 340.7 342.8 342.5 343.5 344.7 347 360.4 373.7 393.2 417.9 436.2 448.2 464 472.9 476.9 481.7 493.8 500.3 507 513.2 515.6 520.9 530.7 545.5 560.1 569.9 574.7 570.3 566.2 561.4 556.7 554.5 551.3 546.5 544.1 539.2 537.9 537.7 536.2 535.7 534.1 532.1 531.7 531.1 532.1 533 532.4 534.2 530.9 528.4 527.4 523.3 519.6 514.2 504.6 486.1 495.2 500.6 505.5 504.6 500.5 496 500.2 501.3 500.6 500 504 506.9 512 520.1 525.2 528.6 533.4 539.4 547.5 554.6 559.3 562.6 562.3 559.2 554 547.3 538.5 529.6 519.4 511.7 504 494.2 485.9 472.5 462.3 460.5 477.3 487.3 501 514.1 528.8 539.2 547.9 554.9 560.4 565.3 567.9
604 603.4 599.9 591.4 574.2 589 593.1 595.3 595.2 592.2 589 588.8 585.3 579.7 572.3 567.4 565.8 567.9 566.1 562.6 557.1 548.1 540 531.4 522.4 519.8 518.2 522.4 525.3 522.8 519.7 516 514.2 506.7 501.9 498.4 495.9 490.8 488.7 486.5 487.9 489.7 497.3 501.6 500.8 495.6 487.7 478 483.2 486.8 482.9 479.6 472.2 464.9 458.2 451.1 441.3 431.4 420.5 413.8 405.8 395.8 392.5 379 377.6 377.1 378.3 377.6 381.8 386.2 391 380 377.2 397.1 417.2 432.7 450.8 471.3 490 507.2 520.6 522.6 516.5 502.3 494.3 483 472 460.8 452 444.7 436.5 426.9 411.2 394.5 373.8 360.7 342.8 342.6 343.2 343.2 343.8 345.6 353.9 373 388.8 410.7 439.4 459.4 465.4 471.2 476.7 483.7 489.7 493.9 502.3 509.2 514.9 519.1 523.5 541 552.7 567.1 574.4 577.2 574 569.2 563.9 560.5 558.3 551.6 547.9 546.2 544.5 545.5 544.3 542.4 540.8 538.3 535.6 534.5 535.3 533 533.3 532.3 531 528.9 526.6 523.4 520.9 517.2 513.3 498.4 499.3 502.8 507.5 511.6 508.1 501.1 504.8 505.2 504.8 503.9 501.3 503.7 507 511.8 518.3 523.7 527.1 530.5 535.8 542.6 548.8 552.3 556.1 554.6 551.7 547.3 541.9 535.4 528.5 519.5 512.5 505.7 496.5 487.7 477 468.4 463.5 474.5 480.8 493.3 504.2 517.9 527.6 536.4 544.4 551.4 555.1 559.1
598.8 597.5 594.3 588.9 571.2 572.5 582.1 582.1 582 577.6 572.7 572 571.1 568.6 565.3 561.1 556.3 554 552.3 548.8 544.6 537.4 531.5 522 518.5 516.5 517.6 522.4 522.2 521.8 518.9 514.6 511.1 505.1 500 495.8 492 486.5 483.2 482.4 482.8 484.8 491.5 491.9 488 483 479.6 480.2 484.4 485 482.5 480.5 472.1 464.1 458.5 450.3 439.9 428.3 420.7 413.6 405.8 393.2 387.7 379.1 378.7 379 378.4 378.5 390.1 388.6 388.7 393 376.4 387.2 405.4 424.5 438.6 456.2 472.6 489.3 504.5 515.8 521.1 512.8 506.4 494.4 483.3 475.4 466.9 458.8 449.3 433.6 417.1 400.8 375.1 355.8 343.3 343 341.1 343.8 344.5 345.7 363.6 382 403.6 430.5 456.7 474.5 478 481.6 486.6 490.9 495.3 497.9 505.5 512.7 518.8 524.5 531.6 547.6 558.6 571.6 575.9 576.1 573.1 569.1 566.9 563.1 556.2 550.5 551 552.4 551.5 550.5 548.6 547.3 544.8 542.7 540.4 541.2 538.9 536.1 533.5 532.2 531.5 533 529.8 526.9 523 518.2 511.1 496.4 507.1 511.6 513.2 512.5 511.6 509.1 508.1 509.7 508.1 506.6 504.7 505.9 507.6 511.9 516.6 520.9 524.7 527.9 532.7 538.7 544.7 547.4 547.7 545.5 543 539.3 535.5 529.1 523.6 518.2 510.9 504.8 497.9 489.4 478.4 472.3 466.6 469.6 479 486.8 496.9 508.9 517.6 525 532.9 540.5 544.9 548.6
595.5 593.8 589.2 581.1 570.4 557.7 565.3 567.8 567.4 563.3 562.6 561.6 561.6 560.1 556.4 553.9 549.3 546.4 541.4 534.5 529.1 527.5 523.2 518.6 515.5 513.7 515.8 517.5 518.4 519.5 517.5 514.3 508.4 502.6 497 492.1 487.8 483 479.4 476.9 476.7 480.3 483.9 481.3 479 479.4 476.9 478.2 478.9 479.6 483.8 480 472 466.4 457.7 446.6 437.5 424.8 416.7 408.4 396.1 390.9 381.8 379.3 379.4 379.8 380 394.2 394.1 394.6 394.6 396.7 389.3 380.6 396 412.7 426.6 443.3 458 473.3 488.8 504.7 517.5 520.3 515.2 505 496 488.9 481.7 470.5 458.4 446.1 424.9 397.5 372 348.3 343.3 343.1 342.3 344 344.6 355.9 373.9 397.5 422.5 448.5 476.6 487.1 490.4 495.3 497.6 500.6 503.3 506.4 510.4 517.3 523.3 529.9 538.7 553.5 565.2 576.6 581 581.2 577.7 571.7 566 563.4 558.9 556.7 561.9 560.7 557.8 554.7 552.5 550.1 548.3 546.4 545.2 545.4 543.6 540.7 535.8 533.6 533.2 534.2 531.5 527.8 523.4 517.6 510.7 501.5 514.6 518.1 519.2 518.3 516.3 513.8 511.9 511.7 511.5 509 507.2 506.9 509.4 512.2 514.8 518.4 522.1 525.8 530.4 535.9 541 542 541.5 538.5 536.1 532.8 528.1 522.2 518.4 513.6 507.9 502.1 495.6 489.3 478.2 473.6 469.9 477.2 475.1 482.8 490.3 497.5 507.1 516.9 523.7 530 535.4 539.3
590.1 587.7 583.1 574.9 567.1 554.9 544.5 553.3 549.1 547.5 550.3 552.9 553 550.9 547 544.7 539.9 534.3 526.4 522.9 521.2 520.7 516.1 513.1 511.8 510 511.9 513.3 515.7 518.5 518.4 513.4 507.6 501.8 495.4 489.3 483.9 480.7 477.9 473.5 472.5 474.4 476.3 474.3 473.1 470.9 467.1 467.3 469.2 470.8 474.4 475.6 468.8 462.5 454.9 446.8 435.2 426.8 413.2 401 393.2 388.4 380.1 379.8 380.3 380.7 395 402.2 401.2 399.4 401.6 400.2 401.2 385.1 387.6 402.9 415.8 429.2 444.2 459.1 474.1 491.4 506.9 520.5 518 517.8 509.9 500.7 492.5 479.6 462.8 448.1 421.5 393.2 368.9 347.1 344 343.4 343.3 344.2 348.4 365 387 415.2 442.1 476.9 497.5 501.2 503.6 510.1 512.1 513.1 515.6 516.6 514.6 521.8 527.7 537.2 545.8 560.9 572.8 582.3 587.4 589.8 589.2 584.2 580.6 576.1 572.9 571.2 569.4 566.8 562.7 560 557.3 553.9 553.4 550.6 548.7 547.5 547.1 543.7 541.2 538.8 538.2 536.8 532.9 528.2 522.5 517.6 507.3 503 517.4 523.7 524.9 523 521.7 520.3 517.5 515.8 514.9 512.7 510.6 508.1 509.3 513.2 515 518 521.7 523.7 528.6 534.1 538.5 539.5 537.4 532.9 529.3 526.3 521.6 517.8 512.5 506.9 501.4 496.1 491.8 487.1 477.4 474.3 473.2 480.5 480.9 479.7 488.9 494.3 500.5 510.4 517.5 523.8 529.4 534
583.1 580.6 577.2 572.3 566.8 558.9 542.4 533.7 535.3 525.9 535.5 538.7 541.8 540 538.3 535.5 529.2 523.3 520.1 516.5 514.8 512.2 508.8 505.6 506.6 502.2 508.7 508 512.4 517.9 518.7 513.8 507.4 499.8 494.9 487.4 482.9 478.5 474.5 472 468.5 469.2 467.7 466.4 466 460.4 458.3 457.7 459.4 462.5 465.7 468.5 466.7 461 455.3 443.9 432 423.5 406.1 393.8 387.5 382.6 380.4 381.8 381.6 394 405.3 411.9 410.7 409.1 406.9 405.3 404.1 394.2 382.4 392.8 406.7 418.4 433.8 447.8 462.8 478.4 495.7 511.6 524.7 525.4 517.3 511.2 502 486.4 472.1 451.6 419.3 392 369.8 346.5 345.7 344.9 344.1 344.5 352.5 373.5 399.8 429.2 460.7 497.4 514.2 519.4 517.2 522.4 523.8 520.9 522.3 523.1 523.9 527 536.1 546.5 554.5 567.9 577.8 587.4 596.3 601.1 601.8 598.7 593.2 588.5 584.7 581.4 578.6 574.1 569.5 565.5 561.5 560.2 558.8 555.3 550.4 547.2 545.8 545.8 543.8 541.5 539.3 537.3 533.5 527.9 521.2 521 516.3 506.7 519.7 528.7 529.9 525.8 523.7 522.7 521.4 518.8 516.5 515 513.9 511.7 511.5 514.4 515.8 517.6 519.4 522.3 527.4 533.1 535.6 536.1 533.6 528.7 523.9 519.4 515.4 511.7 506.7 500.8 496.4 492.4 488.3 482.9 474.3 479 475.5 483.2 483.2 486.2 487.1 492.4 497.9 503.5 512.4 518.7 524.1 528.1
577.7 576.7 573.7 569.6 565.3 561.8 552.3 540.1 527.2 515.4 518.7 522.3 524.5 529.8 528.9 527.8 523.8 518.8 515.5 512.2 508.8 504 500.5 498.5 498.1 492.5 499.9 503.3 509 513.5 514.5 511.7 504.9 498.9 494.1 485.1 481.2 477.5 473.1 468.8 465.9 463.8 463.2 460.5 455.6 454.5 452 450.7 449.2 452.9 457.4 460 461.4 457.3 447.7 437.3 424.4 410.2 398.3 383.6 382.7 381.5 381.7 382.1 391.8 406.4 419.3 423.9 421.6 414.6 410.1 409 404.3 399.3 385.4 386.4 397.8 409.8 424.8 437.7 452.6 467.7 484.5 503.9 523 528.2 523.5 521.2 509.5 496.9 475.5 449.3 419.1 389.3 365.7 344.9 344.6 344.4 344.1 344.1 361 384.2 414.3 444.3 476.3 511.9 528.4 528.6 532 538.8 538.2 531.9 531.2 531.7 534.2 532.5 541.2 553.1 563.7 574 581 595 607.2 613.2 614 611 606.8 602.8 597.2 591 588.2 583.6 579.9 574.6 569.9 567.6 564.2 559.1 552.6 545 544.4 539.5 544.2 541.5 538.7 535.6 531.1 525.3 529.6 526.6 520.6 509.6 520.5 531 533.5 528.1 524.4 524.7 523.8 520.9 518.8 517.7 516.4 515.4 514.3 515.7 517 517.4 518.6 517.4 519.7 529.8 532.3 531.1 528.3 524.7 518.9 513.8 511.5 508.8 504.2 499.3 494 490.3 486.5 482.1 476.4 480.9 476.9 482.4 484.9 489.7 492.4 494.1 496.9 501.7 506.8 513.9 519.1 522.4
572.7 574.4 573.8 571.2 568 563.4 557.4 543 533.2 523.8 509.7 504.2 509.5 516.8 521 518.8 515.8 513.8 510.1 504.2 498.8 491 489.2 487.5 481 477.2 489.2 499.3 502.5 504.9 508.3 506.9 500.3 499.1 490.3 482.7 480.1 476.4 472 467.4 461.7 456.7 458.4 455.3 451.6 449.9 445.8 443.2 442.1 442.8 445 448.4 448.8 444.1 433.2 424.9 412.3 399.3 388 384.8 384.4 383.2 384.1 393.4 400.1 417.5 429.6 433.9 433.2 427.2 415.6 410.8 407.4 401.3 395 384.1 393.7 404 415.4 429.4 443 457.8 475 495.9 515.3 526.1 527.9 524.1 513.4 498.2 477.1 450.2 417.2 384.8 360.9 345 344.4 344.4 343 348 368 397.3 428.4 460.5 498.4 531.1 540.4 542.2 551.4 557.1 556.2 545.3 543.6 546.4 546.7 542.8 545.3 560.9 570.1 577.4 588.2 605.6 616.8 623.4 624.6 621.3 618.2 614.1 608.8 601.9 596.5 592.2 587.6 581.8 577.6 574.5 569.5 563.3 551.9 543.7 544.4 541.3 537.1 534.6 532.7 534.4 534.1 535 533.6 530.3 526 517 520.9 529.2 535.3 529.5 525 526.2 525.7 523.3 521.2 520 518.9 517.8 517.6 517.9 519.3 519.5 519.6 519.6 517.1 520.7 529.7 528.7 525.5 522.9 513.5 510.5 506.6 504.6 501 495.3 488.7 484.1 481.5 482.1 482 481.9 480.2 481 485.6 489.5 493.4 497.9 500.6 501.2 505.7 510.3 514.5 521.2
564.9 566.1 567.2 567.9 566.7 564 558.8 550.2 538.3 527.9 517.3 505.8 494.8 499.4 504.3 507.7 507.1 503.4 497.9 492.6 482.7 478.1 476.8 474.2 466 465.7 476.9 489.4 493.3 494.8 497.5 498 496.7 495.6 485.7 478.9 475.8 471.2 467.6 462.1 457 454 453 451 446.4 443.7 440.6 438.1 436.8 436.8 436.6 437 436.5 431.1 423.8 413.6 401.5 391 386.3 385.5 385.4 386.9 394.5 399.2 413 427.4 440.7 446.9 445.2 439.5 428.5 415.7 412.4 407.1 398.4 383.7 389.4 400.8 409.4 422.3 435.3 450.9 469.4 487.9 506.8 521.6 528 524.4 514.9 500.1 477.4 444.6 412.1 380.1 355.6 346.4 344.6 344.7 342.2 353.7 378.4 409.9 443 480.5 517.1 550.3 559.2 564.4 566 571.2 570.6 556.4 557.7 559.3 558 557.5 551.1 568.8 576.8 584.3 595.7 612.6 624.8 632.4 633.1 631.8 628.1 623.9 618.4 612 606.5 601.9 596.1 590.7 585.2 578.5 572.3 562.1 559.5 553.4 549 544.8 542.7 543.1 542 541.6 541.2 539.7 538.4 535.2 529.4 517.1 523.3 527 532.7 528.8 529 528.8 527.8 525.7 523.7 522.1 521.1 520.6 520.7 520.8 520.5 520.6 520.6 520.6 520 513.3 527.5 526.5 524.5 518.6 508.2 503.3 500.2 496.8 494.2 487 484.6 489.5 489.2 487.5 485 483.9 481.8 483.4 487.6 488.7 493.3 497.2 502.1 503.9 506.3 509.9 515.1 519.6
551.1 555.5 558.3 559.3 559.2 558.4 553.5 548.6 542.4 535.5 526 516.6 506.6 494.6 484 489.2 491.9 488.2 484.6 480.4 474.4 466.8 459.7 457.1 456.1 456.1 462 476.7 480.2 481.1 484.8 487.1 488.7 483.7 474.5 471.8 469.8 463.9 461.4 457.4 453 450.8 445.7 443.5 445.9 439 430.8 434.6 431.6 428.9 427.6 428 425.9 421.1 411.8 404.6 395 390 386.9 385.6 388.3 398 398.5 410.8 425.4 435.7 447.1 453.5 451.1 447.3 437.3 424.4 414.7 408.9 401.5 385.5 385.8 396 405.8 416.5 428.7 444.8 462.8 480.8 500.5 515.1 524.7 522.3 512.6 496 473.3 439.9 409.2 375 351.4 345.1 345.1 345.2 344.4 363.8 391.9 422.5 456.2 493.9 541.5 565.8 575.2 577.5 578.8 583.6 581.2 568.4 569.4 568.7 567.6 566.7 559.5 575.5 581.5 591.1 601.5 616.6 629.8 637.9 639.8 638.8 635.4 631.4 626.2 620 614.7 609.1 602.7 594.8 587.1 580.3 570 567.3 562.2 556.5 552.4 548.7 545.3 547.1 545.5 544.8 544 542.6 540.9 537.7 531.6 524.5 525.9 527.4 528.2 527.6 536.1 533.9 531.1 530.3 527 525.4 523.8 522.2 521.7 522.1 522 522.2 522.3 522.4 522.1 513.1 515.9 524.5 522.7 513.5 504.2 493.8 490.7 489.8 492.8 494.3 495.4 495 490.7 488.3 485.9 484.5 481.5 485.8 489.9 492.5 495 498.2 501.2 505.3 507.3 510.5 513.7 517.4
532 537.6 541.8 543.4 545.4 546.5 545.6 541.9 538.1 534.2 528.6 521.7 513.7 504.5 491.1 479.6 477.1 473.2 471.1 470.7 466.8 459.8 454.3 450.2 447.7 446.2 449.9 459.1 461.3 462.3 468.4 472 473.5 471.1 464.9 461.9 460.5 456.8 453.5 449.8 448.7 447.9 451.2 448.6 445.6 441.2 436.4 421.4 421.3 419.5 418.4 416.7 414.9 411.9 405.8 398 388.6 387.9 387.7 387.1 392.3 406.6 408.9 423.9 435.5 443.9 454.3 462.1 463.1 456.8 445.3 434 422.2 413.7 404.7 389.1 385.3 389.5 400.8 412.5 422.7 436.1 454.4 473 492.2 505.8 512.9 513.2 506.9 491.6 469.5 439 408.1 372.3 349.5 345.3 345.3 343.6 346.2 376.3 405.7 438 472.1 505.5 555.6 580.7 585.2 588.5 589.3 593.8 589.2 579.1 577.2 576.7 575.9 573.9 566.5 580.7 587.9 596.3 605.1 619.1 632.4 640.5 644.4 644 640.8 636.1 631.4 626.1 620.8 613.8 605.5 595.9 586.1 578.2 572.5 567.6 561.5 557.5 554.5 551.9 548.9 549.4 547.6 546.2 544.9 543.8 541.9 538.9 532.8 524.4 528.8 529.5 531.4 540.1 543 542.9 538.2 534.4 532.9 530 527.9 525.2 524.1 524.3 524.1 523.7 523.2 523.1 522.8 521.7 513 517 516.5 511.8 500.3 504.2 507.3 507.5 504.4 499.9 499.3 496.4 492.8 489.5 488.2 486 482.3 487.5 491 494 496.5 500.2 504.9 505.9 508.3 511.4 514.9 518
511.2 516.9 522.5 526.5 530.3 532.2 529.8 530.1 527.8 526.7 524.2 521.4 516.1 509.8 502.6 490.3 478.9 469.7 461.4 460.9 458.5 453.6 448.8 444.3 440.5 439.4 440.2 440.8 440.9 440.4 446.3 452.5 455.4 454.8 455.1 451.2 448.1 447.3 442.6 438.9 439 441.6 441.9 440.3 436.9 435.3 428.6 422.2 411.3 413.4 412.1 410.8 409 405.1 396.2 389.7 389.7 388.6 388.9 395.6 402 407.1 413.4 434.2 444.8 452.2 459.4 468.1 472.5 466 449 435.3 427.3 418 407.8 400.4 390.2 387.8 395.9 406.4 415.6 425.3 443.3 462.5 480.5 491.8 498.4 499.4 493.5 480.3 455.9 427 394.9 367.1 346.9 346 344.7 344.8 357.3 387.9 417.8 449.4 482.7 521.8 564.9 591.6 595.3 596.9 598 601.9 594.4 585.2 582.8 582 582.1 578.7 571.5 586 593.5 600.6 607.7 618.6 631.6 639.8 645.8 647.7 644.5 639.6 634.9 629.1 623.1 615.1 604.1 593.1 584.5 576.2 569.1 564.1 559.9 557.8 555.1 551.9 551.3 551.6 549 548 546.2 543.7 541.7 539.1 535.1 530.8 532.5 532.5 539.2 546.3 550.2 551.1 547.5 541.8 536.2 533.2 530.3 528.2 527.6 526.5 526.4 526.3 525.8 525.1 524.1 522.7 517.2 510.1 511.3 508.2 503.6 513.5 513 511.1 507.2 504.5 501.7 498.3 494.7 492.3 489.9 487.7 483.5 488.3 492 495.1 498 501.7 506.3 508.4 509.6 512.9 516 518.7
490.1 498.2 500.8 506.1 512.4 517 517.4 517.5 518.5 519.4 518.1 514.6 512.8 509.8 508 501.1 489 473.8 463.8 454.2 453 449.4 445.2 438.8 435.2 433.6 432.8 433.2 432.5 428.9 431.9 432.8 437 436.8 436 437.4 437.1 436.3 434.1 434.3 432.5 430.1 432.2 429.7 429 426.9 422 415.8 411.3 406.5 407.1 396.4 394.1 392.9 391.4 391.2 391.4 392 398.3 401.4 409.2 415.6 428.2 437.9 448.4 457.9 467.4 477.5 479.7 475.8 453.6 438.8 426.2 417.5 410 404.2 395.9 387.3 388.4 400.4 409.2 415.9 425.2 443 461 474.7 480.7 481 475.2 462.2 438 409.1 380.5 356.8 344.4 344.5 346.4 346.7 363.7 396.7 428.7 459.4 492.1 527.6 574.3 596.6 601.8 603.3 604.4 604.1 598 591.5 587.5 587.5 586.3 581.5 578.3 591.4 598.3 603.7 610.1 617.3 629 637.2 643.3 646.2 646.1 641.8 636.5 628.5 620.3 612.1 602.9 590 575.3 568.3 565.1 561.8 559.9 557.9 555.4 552.7 552.3 552.8 551.4 551.2 548.6 546.2 542.6 539.4 535.6 536.1 537.8 539.4 545.3 553.5 558.8 559.9 556.8 553.7 546.1 539.4 536.3 532.1 529.5 528 528.6 528.5 528.1 527.1 526.1 524.3 520.7 512.3 508.5 518.2 520.8 518.8 516.2 512.1 508.5 506.3 503.2 500.6 498.8 495.1 491.4 489.1 484.9 489 492.8 496.5 500.2 503.9 507.6 510.2 509 511.8 515.4 519.2
476.3 477.2 481.7 486.7 490.7 492.2 492.2 496.9 501.4 506.7 508.1 508.9 508.5 508.3 504.4 499 488.2 470.6 458.3 451.3 442.8 442.8 439.3 434.8 433 429 426.9 427.6 427.7 424.8 423.5 425.6 428.1 428.9 427.4 425.6 426.5 428.1 426.1 424.2 423.1 420.1 420 419.6 419.3 416.3 411.8 409.4 407.5 404.9 394.9 394 393.1 392.5 392.1 393.5 395.5 397.6 402.1 408.6 419.4 429 437 447.6 458.9 465.3 471.5 482.8 490.1 482.2 464.9 445.8 429.4 419.1 412 407.1 401.8 392.6 385.8 389.7 401.2 409.1 415.7 422.7 434.8 450 456.2 460.1 457.6 441.6 414.7 390.4 365.9 344.7 346.6 347.8 347.5 349.2 377 408.4 442.2 477.8 508.1 552 587.1 602.6 608.4 608.9 606.8 603.8 598.5 593.9 591.7 591.2 589.6 582.6 586.2 596 601.3 604.8 611.4 617.9 625.7 634 638.7 642 642.7 640.2 634.6 626 610.4 607.3 592.6 573.9 571.5 568.3 563.6 560 558.5 556.8 556.2 556.7 555.2 553.9 553.9 552.8 550.6 547.4 543.7 539.9 534.2 541.1 542.9 547.4 554.2 561.9 568.2 569.9 568.7 562.7 555.1 548.4 545.5 539.7 534.2 531.5 530.9 530.6 530.3 529.5 527.9 526.1 524.2 518.8 522.7 524 523.3 522.2 518.1 513.3 509.6 507.5 505.6 504.2 503 499.1 494.6 490.9 487.5 490.3 493.8 498.4 502.9 506.1 509.4 511.8 512.4 512.9 515.6 516.8
491.8 474.4 471.4 467.9 470.7 471.2 471.5 472.8 477 486.4 489.3 494.9 500.5 504.3 500.9 493.1 472.8 461.2 452.8 445.8 442 435.9 431.9 430.5 429 428.2 426.4 424.9 423.7 422.1 420.7 419.9 418.6 418.1 418.2 418.9 419.1 419 418.3 419 417.9 414.6 411 410.2 410.5 410.2 411 409 404.7 397.3 395.8 395.6 396.1 400.1 396.3 401 399.1 402.4 408.3 417.1 424.1 433 444.5 454.4 462.7 468.6 478.9 493.3 501.3 485.6 468.5 446.7 432.3 423.2 416.4 409.5 404.8 399.4 389.6 385.5 390.5 401.9 409.8 415.3 421.4 430.4 437.6 441.4 437.7 419.9 395.1 371.8 344.5 347.4 349.7 351.5 351.2 361.9 390.9 421.4 456.1 495 525 566.9 598.6 608.6 612.6 610.6 606.8 602.5 598.3 595.7 593.8 592 590.3 586.2 587.4 597.5 603 606.5 611.3 616.2 622.2 628.8 633.1 636.5 636.9 635.1 627.1 606.1 589.6 588.2 577.5 581.9 583.6 569.8 566.8 564.3 562.7 561.1 560.5 559.2 559 556.5 555.1 555.5 553.8 550 545.4 539.7 541.9 547.3 551 556.4 562.1 570 578 580.5 580.1 574.3 565.3 556.8 548.7 547.4 544.7 538.9 534.9 533.8 532.7 530.7 529.9 528.8 527.2 526.3 526.1 525.8 525.7 523.8 520.4 513.6 510.5 508.8 507.6 507.9 506.4 500.8 496.7 492.8 489.6 489.1 494.5 499.1 504.4 507.4 511 513.4 514.7 515.9 519 520.6
510.4 498.6 490.7 480.2 466.7 464.3 460.5 459 458.5 464.7 469.9 476.6 486.1 490.4 490.7 481.2 465.3 456 445.4 437.3 434.7 432.4 431.4 431.2 431.4 442.2 440 424.8 423.4 421.8 421.1 418.7 417.6 415.8 415.3 414.1 412.1 411.9 410.8 413.4 413.6 411.4 409.6 407.7 402.7 402.7 406.5 407.2 399.2 397 397.1 402.2 403.7 408.9 408.4 407.1 405 409.9 416.6 424.8 431.8 439.5 447.4 460.8 466.6 474.6 486.2 498.8 503.8 488.7 471.9 451.2 437.4 424.9 418.5 412.9 407.3 401.5 395.8 391.1 384.4 390.4 402.5 409.2 414 419 426.2 427 415.4 399.9 376.3 349.4 347.5 349.6 354.8 356.2 357.2 376.1 401.9 437.1 485 506.4 534.7 565.6 594.5 609.8 612.2 609.1 605.1 601.9 598.5 596.8 594.5 591.6 589.6 589 586.4 596.7 602.4 605.6 609.8 612.7 617.4 623.7 626.9 629.3 628.9 623.1 606.8 594.7 599.6 587.9 595 596.7 589.9 578.4 576.1 573.7 571.5 568.9 566.9 564.2 563.6 562.3 557.6 557.3 555.4 551.6 545.8 545.7 545 552.4 559.5 564.9 569.6 578.6 587.3 588.3 588.7 582.6 576.7 568.7 559.1 556.8 551.4 546.4 538.2 535.7 533.1 532.4 530.5 529.5 527.6 527.7 527.7 527.5 527 524.7 521.7 515 512.5 510.1 510.6 511.1 508.2 502.1 497.9 494.4 491.3 490.8 495.9 500.1 504.1 506.8 511.4 514.8 514.7 516.9 520.6 523.3
529.5 518.3 505.9 499.6 490.6 480.7 477.1 471.9 457 453.2 451.1 456 467.6 474.6 474.8 466 457.7 441.5 437.9 435.8 434.5 434.4 433.3 443.2 450.7 454.9 454.2 449 442.1 437.7 429.2 424.4 417.1 416.2 416.3 414.5 414 410.4 409.6 409.7 407 406.2 405.9 403.8 403.8 401.5 402 400.1 397.6 404.5 408.3 408.4 411.1 414.3 415.1 415.2 412.5 420.6 428.8 434.6 440.7 446.6 451.9 460.7 470.3 483.6 493.4 502.4 500.9 492.1 477.5 457.6 443.8 429.2 421.3 414.3 408.3 402.5 398.6 393.6 388.2 383.8 394.1 399.5 405.4 408.9 408.6 405.8 394.4 378 360.2 345 348.5 352.3 358.2 360.8 367.1 384.7 412.9 443.1 478.6 493.2 514.6 544.5 572.2 596.5 606.4 605.6 601.3 598.8 597.6 595.7 592.6 590.1 589.5 588.3 586.4 593.7 599.3 603.1 606 608.4 612.7 617.4 621.4 621.2 611.5 608.8 601.8 617.7 620.8 614.1 609 603.4 598.4 589.5 581.8 579.8 576.9 574.7 571.6 570.5 568 566.5 563 557.6 556 552.1 546.3 548.6 549.4 555.2 565.7 571.2 577.6 585.8 593.2 598.1 594.3 592.1 583.3 579.3 572 564.6 555.3 550.2 546 537.4 534.8 534.7 532.8 530.8 529.1 529.1 529.1 528.7 528.1 525.7 522.5 517 513.3 512.6 512.8 513 509.6 503.4 499.1 496.1 493.2 492 496.8 501.2 504.1 507.3 511.9 515.1 516.7 518.7 523.4 526.9
543.8 534.2 521.8 519.1 512.6 505.3 498.8 487.8 472.6 459.8 452.8 450.7 449 458.3 458.8 456 446.7 438.7 439.3 438.4 436.7 436 449.6 462.6 474.8 476.7 471.7 460.9 448.4 445.3 436.1 430.2 426.1 421.4 418.1 418 415.7 413.1 410.6 408.3 408.4 407.8 406.5 404.3 403.5 401.9 400.3 398.8 413.4 410.2 416.1 417.9 418 423.8 424.2 423.6 416.4 428.9 435.8 439.3 445.1 450.7 456.6 464 476.9 488.8 500.4 506.7 504.7 495.3 480.7 460.9 447.3 433.5 425.5 416.5 409.3 402.8 399.2 396.3 390.2 383.6 385.2 389.2 394.4 398.1 395.8 385 372.8 359.9 350.2 345.4 348.6 351.2 355.1 361.3 369 387.3 411 433.3 452.9 467.1 488.1 515.8 545.7 576.9 597.3 598.7 596.9 596.1 595.2 594 590.6 588.5 587.8 588 585.2 587.8 593.6 598.6 601.1 603.6 606.3 610.2 614.7 609.3 620.4 621.7 624.6 630.9 630.3 623.3 614.7 608.4 603.3 596.6 588.7 585.3 582.2 579.6 577.4 575.4 572.6 569.7 566.3 560 556.2 552.6 550.1 553.8 555.1 559.8 568.1 576.7 583.3 590.6 599.2 602.8 603.4 599.6 592.9 587.9 580.4 571.9 560.1 553.4 549.9 540.7 539.1 535 535.7 534.5 532 530.9 530.9 530.3 529.1 527.1 523 516.5 515.4 514.6 514.7 514.8 510.6 505.4 500.8 497.5 495.3 491.1 497.6 501.7 504.3 507.7 511.7 515.1 517.8 520.3 525.5 531.2
547.5 537.9 536.6 530.1 523.2 517.1 509.2 499.9 485.7 470.5 459.6 451.4 450.2 446.9 444.4 442.2 441.2 441.6 441 439.2 439.5 450.9 464.5 480.4 490.1 489 480.4 469.1 459.4 452 442.8 436.1 427.9 427 424.1 422.7 418.9 416.4 414.5 416 416.2 415 415 413.9 412.4 402.6 401.3 413.4 419.3 424.2 428.2 430.7 432.2 434.7 433.5 434.8 423.2 438.2 442.2 446 451.2 457 462.9 470.5 482.1 496.6 508.6 511 508.8 498.2 481.6 464.8 449.2 438.8 429.2 421.5 413.4 405.4 400.6 394.6 391.4 385.9 381.8 381.8 379.7 376.5 375.1 365.8 355.2 349.4 348.6 348.5 346.1 351.3 365.4 378.5 367.6 373.4 390.7 411.1 421.6 441.5 465 492.6 523.7 554.1 581 588.8 591.4 592.4 589.8 589.6 587.6 586.9 585.8 584.5 582.9 581.6 586.4 590.8 594.2 595.2 599.4 603.2 607.9 619.7 624.9 628.1 631.9 636.1 635.5 629 621.1 612.9 607.2 599.8 593.3 589.1 585.6 581.8 580.1 578.1 575.4 571.6 568.8 564.9 559.9 555.5 555.6 558.1 559.4 563.3 568.1 578.3 588.7 597 603.3 608.2 608.4 605.6 600.6 595.1 588.2 572.8 568.1 558.4 553.5 544.7 542.5 540.2 541.5 539.9 535.7 532.9 532.5 531.7 530.1 527.3 523.3 520.5 519.5 518.2 516.9 515.4 513.3 507.2 502.4 499.1 496.5 493.1 496.3 501.9 504.5 507.4 511.5 516.1 519 521.3 529.4 536.4
548 537.6 536.7 532.4 523.9 518.1 510 500.7 491.6 477.3 467.9 457.4 451.3 452 450.6 445.6 445.4 443.9 442.7 442.9 456.1 465 481.6 495.3 502.7 497.1 487.7 476 463.6 457.1 448 435.3 434.5 434.5 428.8 425.2 421.4 422.2 423.4 425.6 425.6 418.7 415.1 415.2 414.3 405.1 411.5 419.3 425.4 432.2 438.3 442 444.3 446.8 446.7 444.4 443.5 440.4 450.4 455.4 460.5 466.2 470.9 477.8 488.6 502.1 511.3 514.3 511 501.1 485.6 472.7 459.9 446.6 435.1 425 414.2 407.3 401.1 397 391.9 387.7 383.5 382.2 375.9 369.7 357 352.4 350.3 349.7 349.1 349.1 347.4 357.5 381.7 396.9 398.4 387.4 389.6 388.3 389.9 413.5 442.8 470.5 500.1 530.3 562 576.4 581.9 583.9 582.2 582.4 582.8 583.3 582 580 578.4 576 577 579.9 583 587.3 590.9 600 611.1 622.3 629.7 633.1 635.6 639.5 639.4 635 627.9 620 611.8 604.5 597 593.1 588.8 585.1 582.9 579.6 577.2 574 570.3 566.6 564.2 561.7 560.4 562.6 565 567.7 572.9 582.1 592.2 600.6 607.4 611.2 612.1 609.6 604.8 599.1 594.1 585.2 575.4 562.9 561.4 548.8 544.2 548.3 548.8 546.8 542.3 537 534.2 532.7 530.6 527.4 525.5 524.2 525.4 523.8 522 518.5 514.3 509.7 504.9 500.6 498.7 495.4 496.9 501.9 504.9 507.8 512.3 516.2 519.5 524.1 533 541.9
548.2 539 531.1 524.9 520.4 515.7 507.2 498.1 489.4 479.6 470.6 458.8 458.8 456 452.1 449.8 447.8 446.4 454 458.4 466.3 478.7 494 505 508.4 503.5 494.9 481.5 471.5 463.6 456.8 440.2 447.6 445.2 437.7 433 432.9 433.9 434.7 435.4 431.6 420.3 414.4 411.2 408.6 409 418.6 420.8 430.9 441.7 445.2 450.4 455 458.7 456.2 454.2 452.7 449 456.8 464.7 473 473.7 478.2 485.1 494.9 506.5 514.5 516.7 514 505 493 476.2 464.8 451.8 438.7 426.3 417.3 409.3 402.5 397.4 393.4 385.4 380.7 373.7 363 355.2 353.3 351.9 350.5 349.7 349.5 347.7 347.2 375.1 398.3 414.8 422.9 421.2 422.2 420.2 412.7 393.6 420.6 450.3 478.9 510.6 534.8 554 568 572.7 573.3 573 575.3 577.7 576.3 573.9 571 566.8 563.3 567.2 571.4 576.8 586.1 600.1 611.7 624.5 632.4 638.1 641.4 643.8 643.6 639.3 632.7 624.5 615.6 608.6 601.2 596.5 592.6 587 584.1 581.2 578 576.9 573.5 570.2 566.4 562.8 567.2 569.7 572.4 574 577.4 586.2 594.6 602.7 609.2 614 614.4 610.4 606.2 601.7 598.3 591.6 581.4 569.2 561.1 553.1 552.6 553.8 554.6 552.4 546.9 543.7 539.3 534.7 531.3 530.5 529.6 528.1 530 528.8 526.9 522.5 516.8 511.7 507.1 502.3 500.4 496.7 498.1 501.9 505.5 508.2 511.8 515.3 520 526.1 535.5 547.1
549.5 537.8 529.1 524.9 519.7 512.1 502.9 492.9 480.8 472.1 468.8 471.3 468.5 463.2 455.8 452.8 454.2 459.9 465.4 473.4 482.9 493.7 502.9 510.3 512.2 508.4 498.8 488.9 479.9 471.2 456 448.3 456.6 457 451.7 447.8 446.7 446.3 444 440.2 428.3 418.1 414.6 408.2 408.7 418.5 424.1 431.9 434.2 446 453.1 458.5 463.7 465.7 465.3 464.3 461.7 459.6 463.4 471.1 475.9 482.2 487.1 493.2 503.1 513.2 519.7 526.3 523.4 512.5 498.9 484.9 470.5 457 443.7 429.8 420.3 411.1 404.8 398.8 391.2 382.1 374.9 363.2 358.3 354.4 352.7 352.2 350.3 349.6 348.4 347.6 364.7 391.9 414.1 435.1 444.9 450.1 448 447 445.2 429.4 403.5 428.5 457.8 484.2 503.1 523.1 543.9 556.2 560.6 564.4 567.8 571.2 570.1 567.2 560.3 553.5 550.8 553.5 560.2 568.9 582.6 598.3 612.6 625.7 635.2 642.7 646.1 648.9 648.3 644.2 637.7 628.7 619.8 612.2 605.7 599.6 594.7 590.1 587 582.9 581.3 579.8 576.2 571.3 570.5 568.6 574.4 576.1 577.6 579.2 582 589.6 597.3 604.5 610.9 616.4 618.4 614.9 611.5 605 597.2 588.1 584.2 577.5 565.9 564.9 563.6 561.9 560.4 558.1 554.6 550.3 544.7 540.3 538 535.3 533.8 531.7 533.1 533.2 530.2 526.3 521.3 515.3 510.5 505.1 502.1 499.9 502.4 505.2 506.4 508.9 511.7 516.1 520.8 528.7 538 550.1
549.9 534.2 526.5 519.8 518.6 510.1 498 490.8 491.4 486.8 485 482.1 478.2 474.8 469.2 466.6 467.7 472.5 478.4 486.8 494.9 502.1 509.2 515.7 515.6 512.4 503.4 494.3 483.7 476.1 464.8 458.2 466 465.4 463.6 460.9 458.5 455.2 447.5 434.2 422.8 414.3 410 410.8 418.2 426.7 435.2 441.1 448.6 449.3 459.4 464.8 469.4 472.5 473.9 472.4 468.8 468.7 471.8 476.7 483.4 491.8 495.6 500.9 512 520.7 528.3 534.6 533.9 526.2 515.8 500.2 481.4 467.3 453.5 434.8 424.4 414 405.3 398.5 387.9 376.7 365.2 359.1 356.1 353.7 352.8 350.8 348.7 349.2 349.6 356.8 378.5 404.5 429.9 453.2 468.9 478.4 477.3 473.9 469.7 457.2 435.1 414.8 431.8 452.3 469.9 491.2 513.6 533.2 542.8 551.9 559.4 564.3 562.9 558.7 549.5 540 541.2 545 553.1 565 579.2 597.3 611.7 625.7 636.8 646 651.8 654.8 654.4 649.2 642.5 633.2 624.3 616.5 609.4 602.1 596.7 592.2 589.4 586.6 583.5 580 575.7 575.9 572.3 575.5 579.1 580.9 582.8 586 588 592.9 600.2 606.6 611.8 617 619.5 617.7 614.2 609.4 603.8 594.3 585.7 578.2 576.7 573.3 572.9 570.3 566.5 565.4 561.5 555 551 545.7 543.1 541 538.5 534.9 536.7 536.5 534 529.5 524 518.9 515.1 507.8 504.1 501.8 505.2 506.3 509.1 511.2 513.6 517.9 522.3 529.7 540.8 552.7
538.8 531.1 527.8 522.6 514.7 511.2 509.8 508.1 504.3 499.2 494.6 490.7 486.8 485 480.8 480 480.8 484.1 491.8 498.3 504.1 509.2 513.7 520.5 517 512.4 504.8 496 485.6 475.7 465.1 468.5 474.1 470.8 466.8 463.8 461 453.9 438.4 426.8 416.7 411 413.3 417.4 425 435.6 447.9 453.5 458.8 460.3 464.8 472 478.2 480.6 480.8 480.6 478.2 478.7 482.2 485.9 494.3 497.4 503.3 511.8 520.2 529.9 538.2 545 545 539.1 529.7 512.8 494.7 480.1 468 449.3 431.4 415.5 406.1 395 383.4 372.5 357.9 355.3 354 348.8 348.9 350.4 349.8 350.2 352.4 361.4 385.3 413.8 440.5 467.4 480.9 493 503.2 504.2 500.3 483.9 468.9 448.7 434.7 424.1 438.8 460.6 484.2 500.6 514.8 531.7 547.2 554.8 556.5 548.5 535.8 526 523.7 537.8 550 560.3 576 593.5 607.5 623.3 636.3 647.3 656.6 660.4 658.3 653.7 646.3 638.2 628.8 620.8 612.9 604.2 596.8 592.6 591.2 587.2 582.6 582.8 581.5 580.2 576.4 578.3 582 586.3 588 591.6 596.8 600.5 603.4 607.9 612.6 617.1 618.9 618.4 614.3 606.2 600.7 596.5 587.2 585.3 586.6 587 584.5 581.4 578.3 574.6 567.2 561.5 557 551.5 548.4 545.2 542.2 538.4 540.6 540.7 537.8 533.7 527.1 523.2 521.2 516.4 503.9 511.3 508.2 507.5 511.3 513.1 515.2 520 525 530 540.4 551.3
535.6 531.7 530.1 526 522.2 521.4 520 517.8 513.7 509.8 504.3 499.6 496.6 495 491.6 491.7 493.5 498.7 502.9 507.1 511.5 513.9 515.4 515.7 512.2 507.4 502 495.3 483.4 465 471.6 477.9 479.7 475.1 468.2 462.2 452.7 441.5 429.9 419.5 412.6 412.5 419 424.4 433.6 446.6 456.6 463.5 466.7 468.9 472.4 474.9 481.6 487.2 489 488.4 488.3 488.8 492 495.7 501 507.3 512.9 521.2 528.1 539.7 549.5 556 558.2 554.8 544.5 529.8 511.9 491.9 475.2 457.2 432.9 418.8 405.6 392.5 379.6 365.4 354.5 353.3 350.1 351.3 350.7 350.8 350.5 352.7 356.1 369.8 397.8 423.5 445.9 472.3 484.5 500.7 518.3 528.8 530.1 513.3 497.7 474.9 471.5 456.5 453.9 450.1 446.5 460.4 480.8 504.8 527.7 544.7 547.1 537.6 520.1 509.6 525.6 539.2 548.6 558.2 570.5 588.5 603.1 618.3 634.2 647.4 661.1 667.5 662.4 656.8 648.5 641.5 631.3 623.9 616.3 605.9 598.1 593.5 592.2 588.8 587.9 586.2 583.8 583 580.6 582.4 585.9 589.7 594.4 598.2 603.7 607.9 609.5 613.1 617.3 617.5 618.7 616.4 612.2 611.4 601.6 601.5 596.6 594.6 595.6 595.9 594.7 591.9 588.7 583.9 575.4 567.7 561.2 556.3 551.7 548.1 544.7 542.5 543.6 544.1 542.6 537.8 530.1 526.2 523.6 514.4 508.3 514.6 513.7 516.2 514 514.9 517.1 520.7 525.7 530.4 538.6 549.9
533.5 533.8 534.2 536.4 536 532.7 530.8 528.3 523.3 519.2 515.1 510 506 504.6 504.2 504.3 505.4 506.1 509 512.3 513.6 511.6 508 505.9 503.5 499.5 494.4 487.6 468.9 472 481.5 482.8 480.3 474.8 466.5 452.9 437.4 429.6 420.8 415 416.8 420.9 425.4 433.3 445 455.9 464.5 469.8 474.4 478.9 480.5 482.8 485.7 492.2 496.6 495.2 497.9 502.7 500.2 503.1 509.6 516.3 521.9 528.9 538 550.1 557.5 565.1 569.7 565.7 555.8 546.4 527.8 508.1 482.3 463.5 442.9 421.5 406.2 391.4 376.2 358 352.7 355.1 350.5 350.6 352 351.5 354.3 357.8 362.2 378 402.1 426.5 446.7 465.9 488.9 505.2 524.2 543.8 551.9 540.6 523.9 508 499.8 485.1 488 482.5 472.6 477.4 465.5 477.8 505.3 525.1 531.2 513.9 500.8 520.6 538.3 548.4 554 557.6 565.5 581.3 597 613.5 632.1 645.8 661.7 670.4 664.7 658.6 650.5 643 632.2 624.4 617.1 609.2 600.9 596.3 592.5 592.7 591.1 589.1 586.7 586.1 582.5 587.6 590.7 594.7 601.4 604.7 610.9 614.6 616.4 618.8 619.8 619.7 618 614.3 617 615.6 613 609.6 605.3 604.3 604.5 603.8 603.5 601.5 597.9 592.1 583 571.9 564.7 560.9 556.8 551.6 547.6 545.1 546.2 547.1 546.3 539.8 532.7 527.3 523.9 518.9 510.4 518.6 519.3 519.2 519.4 518.7 519.2 521.2 525.2 530.3 536.2 546.9
540.4 544.5 543.6 544.9 545 544.1 541.7 541.5 535.7 531.6 526.9 520.6 515.8 514.1 513.3 512.8 511.2 509.9 510.6 510.4 507.5 503.8 499.4 495.8 493.3 490.3 483.1 469.3 469.7 478.7 479.8 478.8 472.6 465.8 450.5 436.8 429.8 421.7 416.5 419.6 423.8 427.6 433.3 442.1 452.6 464.2 472.2 479.9 484.4 487.4 488.6 490 492.5 497 501.9 503.7 506.7 509.3 510 512.9 517.8 523.9 530.5 538.8 549.9 558.1 565.3 574.6 578.1 572.4 564.2 555.1 536.1 518.2 495.1 470.4 446.3 421.4 400.8 386 369.2 351.9 351.8 348.9 352.2 351.7 351 352.4 355.4 360.2 368.6 381 404.6 425.4 448 465.4 483.6 503.5 526.3 549.1 567.7 564 547.3 535.1 528.6 514.5 511 508.8 500.5 505.7 495.6 488.9 473.2 496.2 498.8 492.1 497.2 519.6 545.8 560.8 563.8 559.1 559.8 574.5 590.8 608 626.9 642.2 658.6 667.2 664.1 658.1 651.1 643.4 633.1 624.1 617.7 610.9 603.8 597 593.9 594.4 594 592.1 589.2 588.2 587.4 591.9 596.9 601.4 608.4 613.7 619.4 623 625 625.8 623.9 626.1 622.7 622.4 622.1 619.5 616.4 615.3 612.3 610.2 610.8 610.5 610.5 610.4 607 598 589.4 578.2 571 566.4 560 554 550.5 548.3 548.2 549.6 548.2 539.8 533.2 528.1 524.3 520.6 517 520 520.6 521.4 522 521.7 521.2 521.4 523.8 526.1 532.4 537.7
550.9 552.9 553 553.8 555.4 556 555.8 554.9 549.7 545.8 540.4 533 524.3 518.9 517.5 516.5 513.1 510 507 500.8 495.3 491.2 487.6 481.6 479.1 473.5 467.6 463.4 467.2 471.2 469.7 465.1 458.1 448.9 438 427.5 421.4 419.1 423.2 426 430.3 437 442.3 452.4 462.1 471.3 481.2 488.6 493.7 497.3 498.1 500.4 502.2 504.5 508.8 513.1 516.4 519 523 527.4 530.8 536.6 540.1 550.7 560.5 568.8 577.5 582.1 585.4 579.7 571.2 562.5 543.1 518.4 493.8 465.8 443.4 419.4 395.5 379.3 357.7 352.3 351.6 350.2 354.8 352.6 350.9 353 356.4 360.4 370 390.3 403.5 431.1 445 465.8 481 501.7 524.6 547 571.1 584.1 571.5 554 536.9 536.7 539.8 530.9 526.9 531.6 525.9 520.7 500.8 492.1 496.9 506.6 518.5 504.6 538.2 564.3 567.8 552.9 555.1 568.1 586.3 606.3 622.7 638.4 652.8 661.8 660 654.6 648.6 642.1 633.8 623 612.3 611.7 607.5 605.8 599.9 595.1 595.9 592.9 592.2 588.6 590.8 596.4 601.7 607.7 613.8 619.6 625.7 630.6 633.4 632.8 630.9 631.9 629.3 627 626.3 623.8 623.4 619.9 618.5 617.2 616.7 617.3 615.7 614.6 611.6 603.8 593.8 583.1 575.9 570.9 563.7 556.3 552 549.5 549.6 549.7 546.7 541 534.7 529.1 524.4 518.8 522.6 523.2 523.8 523.5 525.4 525.3 524.9 525.4 523.5 525 526 535.1
558.6 559.8 560.9 563.4 566.1 567.8 567.4 568.9 565.2 558.9 551.2 541 532.6 524.8 519.2 514 510 505.1 497.2 488.6 483.7 477.6 469.4 462 456.5 453.4 451.5 451.3 450.7 452.3 454.4 447.1 439.7 432.8 426.4 420.7 419 424.3 428.8 433.1 439.6 447.1 454.3 461.3 469.9 479.4 488.6 494.7 502.3 504.5 509.8 512.3 514 516.2 520.9 522.8 526.5 532 535.6 543 546.7 549.3 551.6 561.4 569.8 576.2 583 588 587.2 581.1 573 558.3 541 513.7 486.9 462.2 436.9 413.5 391.1 367.8 353.4 352.1 350.8 355.7 353.2 352.6 352.8 355 354.9 359.5 379.6 401.2 422 445.7 456.7 470.9 481.9 498.9 521.6 544.8 569.7 594.8 591.8 568 563.9 568.8 571.7 566.2 556.3 561.3 557.1 550.3 525.3 516.8 523.6 520.5 528.1 518.8 538.1 564.8 556.9 543.9 552.3 569.9 584.9 603 619.4 632.8 645.7 654.5 654 650.1 645.6 640.7 633.5 621.5 623.1 620.5 616.5 612 605.1 599.8 597 593.5 593.9 592.7 596.5 599.6 605.3 612.2 619.7 626 633.2 639.4 642.2 642.9 641.8 640.5 636.3 631.6 630.2 629.6 628.2 625.9 623.1 620.9 620.8 620.4 618.8 615.9 611.5 605.1 596.5 588 580.5 575.1 567.3 558.6 553.4 550.8 550.6 550.1 546.5 541.8 536 527.6 523.7 520.4 527.5 526.9 527.6 526.4 528.3 528.8 526.9 527.7 526.5 525.4 525.3 529.9
564 564.1 566.7 571.4 575.1 577 578.9 579.2 575.1 566.7 556.5 545.6 536.7 526.7 520.4 512.6 504.8 495.7 485.8 477.1 468.1 454.7 445.2 440.8 435.3 436.3 439.5 438.4 433.5 427.2 426.9 425.8 422.9 422.8 424.4 426 425.7 428.2 434.9 441.8 449.6 455.5 463.2 469.5 476.8 486 492.2 500.9 508.5 515.9 520.3 524.1 526.9 528.3 531.7 534.9 539.5 545.4 550 557 562.6 563.1 561.7 571.3 576.5 584.8 585.4 583.9 578.9 570.4 560.3 544.2 523.6 499.6 476.7 452 423.8 401.3 379.2 359.1 352.6 353.3 349.8 361.1 361.3 357.8 353.1 352.6 354.3 367.4 389.2 410.9 433.6 457.6 471.1 473.2 486.4 499.6 517.7 539.8 563.7 587 596 579.6 589.4 593.4 594.4 590.1 582.1 577.2 567.4 549.3 530 540.8 544.5 538 530.7 529.5 534.1 549.1 539.1 548.5 550.6 571.8 585.6 600.5 615.7 627.2 638.3 647 647.4 645.3 639.8 630.4 624.5 628.8 633.9 627.6 621.4 617.8 610.1 604.4 601 598.2 596.5 596.4 599.9 604.4 610.7 618.5 625.5 632.4 641.7 647.8 652.2 653.7 653.9 651.2 646 641.3 636.9 635 633.2 630.9 627.9 624.7 622.2 621.2 618.8 614.9 609.5 604.1 597.9 590.9 584.8 578.2 569.8 561.3 555.9 552.3 551.2 548.2 546 542.1 533.2 525.5 522.2 529.5 532.2 530.6 531.2 530.5 530.8 531.9 529.6 528.4 526.6 525 523.7 528.2
568.3 568.8 572.9 577.1 580.5 581.6 582.1 581.2 575.2 567.4 558 546.6 536.5 526.7 517 508.1 497 486.2 473.2 462.8 447 437 432.7 430.9 429.9 429.4 428 427 426.5 427.2 429.5 428.7 428.1 430.4 430.6 430.9 433.3 439.3 445.8 452.1 458.3 465.1 473.2 480 486.3 493.2 500.1 508 516.6 525 533.4 537.7 539.5 542.8 547.1 550.8 555.3 560.1 566.6 571.8 575.4 577.4 571.4 579.1 586.5 589.4 584.4 576.7 566.2 552.6 539.3 525 504 482.7 461.2 437 413.9 391.2 366.8 354.4 353.9 349.5 349.8 366.5 361.4 363.8 367.6 366.5 369.9 380 398.4 422.7 445.3 464.4 480.9 489.6 486.7 502.6 515.8 534.5 556.7 579.8 586.9 596.3 611.1 611.7 608.6 602.2 593.6 584.5 567 543.4 558.3 562.3 564.3 563.6 553 545 532.9 525.4 544 572.4 554.2 570.9 586 598.1 611.9 623.4 634.5 641.4 641.3 641.8 641.5 640.9 641.6 645.7 642.8 636.8 629.2 623.7 617.2 609.9 604.7 603 600.7 600.2 603.6 608.2 614.8 621.7 629.3 639.6 649.6 657.9 663.3 664.7 663.8 661.6 658.7 653.2 647.1 643 640.9 637.5 632.4 628.8 624.2 620.1 617.2 612.5 606.9 601.7 595.8 590.6 586.2 579.5 571 561.2 556.4 553.1 549.2 544.4 541.6 535.3 526.8 523.6 530.4 533.9 535.1 533.6 534.8 533.9 534.2 535.7 535 533.5 531 528 524.3 523.1
571.8 574.8 578.9 581.6 580.4 579.6 577.3 574.5 568.4 561.8 552.1 542.5 530.9 520.5 509.8 497.9 484.5 469.8 456.4 443.4 435.3 433.4 432 430.6 430.1 430.4 428.6 431.7 432.6 434.7 434.3 434.7 436.4 438.2 439.3 442.1 445.9 451.5 456 461.9 465.8 474.2 481.7 488.9 495.6 503.5 511.3 519.8 528.5 539.7 546.5 551.2 556.2 558.4 562.5 565.4 571.7 577 582.3 588.2 590.5 589.8 583.6 588.5 593.5 588.3 577.2 565.4 549.2 535 519.3 503.3 484 463.3 442.2 421.4 402.4 379.4 358.1 351.3 351.6 351.6 354.2 368.9 368.9 368.4 381.1 386.7 387.3 389.7 407.9 429.8 451.9 472.8 491.7 501.8 498.8 505.2 516.5 533.5 553.4 572.7 589.2 600.2 617.1 620.4 616.4 609.6 600 588.3 560.2 568 579.9 583.2 585.8 583.8 577.1 572.9 552.3 564 576.9 589.3 573.7 565 586.4 598 609.3 620.7 632.6 641.8 648.4 648.8 649.1 650.4 654 654.3 650.7 644.2 635.7 629.1 623.6 616.4 611 608.2 605.9 604 607.8 612 618.7 625.4 635.3 645.1 655.2 665.3 671.9 675 675.2 673.1 670.4 666.4 661.1 654.6 649.7 647.1 640.6 632.4 625.5 620 614.6 609.7 603.3 598.1 593.9 590.2 585.2 578.6 569.5 560.4 556.3 550.7 545.4 541.2 535.1 527.2 529.5 533.6 535.6 537.7 539.8 539.5 538.6 537.7 538.1 538.5 538.5 537.4 534.8 531.4 524.7 522.5
574.7 578.6 581.4 579.6 575.7 570.1 565.5 561.2 555.6 547 539.4 531.2 519.2 506.5 492.7 477.4 464.4 454.5 450.5 438.2 434.8 433.1 433 433.2 434.2 435.7 437.8 440.1 442.2 442.5 442.6 443.1 445.6 449.2 453.6 457.4 460.3 461.1 466.1 471.4 478.8 483.1 490.5 498.5 506.4 514.9 524.1 529.6 543.5 554.4 559.6 566.5 572 573.9 577.4 580.5 585.7 592.1 598.3 604.2 603.2 599.3 593.8 594.3 593.3 584.2 568.2 550.1 533.5 517.5 500.8 482.6 464.6 444.8 425.7 407.8 388.2 369.7 353.7 350.8 352.1 351.5 354.7 370.2 367.2 376.1 382.8 390.4 386.9 392.1 414.6 437.7 462 482.8 502.6 512.6 507.9 520.6 530.8 531.7 550.6 568.6 586.2 601.3 614.9 622.6 621.4 614 604.8 592.7 558.7 580.3 591.7 598.1 601.1 596.8 594.4 588.1 565.9 579.9 592.7 595.6 584 568.7 587.4 599 610 621.5 634.1 643.8 650.5 653.6 659.4 662.6 664 662.2 658.3 651.5 641.4 634.2 628.2 623.4 618.8 615.3 612.4 610.2 612.8 616.9 623.2 631.8 641.5 651.1 660.6 671 678.1 682.9 685.9 682.8 680.9 680.3 675.9 669.5 662 656.9 649.5 640.2 629.4 620.5 613.6 606.8 600.9 596.1 592 588.1 581.3 575.4 567.3 559.6 553.2 547.9 543.9 535.8 528.1 533.9 535 538 540.6 542.1 545.8 547.1 545.3 542.5 541.1 541 541.7 541.6 541.4 539.1 539.2 535.4
