ncols 200
nrows 98
xllcorner 390000
yllcorner 241100
cellsize 50
28.8 33.6 34.9 36.7 40 41.4 42.4 42.6 42.7 42.8 42.6 41.8 40.9 40.1 39.3 38.6 37.9 37.5 37.5 38.7 39.9 40.2 39.1 36.7 34.1 32.1 29.8 28.9 27.8 26.8 25.8 24.8 25 25.1 24.9 24.8 24.7 24.6 24.5 24.3 24.6 25.3 26.5 27.3 26.6 25.5 24.6 23.7 21.4 17.8 15.8 18.1 23.8 26.2 26.8 27.2 26.4 27.1 27 27.6 28.3 29.5 31.1 32.9 34.1 38.4 41.5 47.6 51.8 53.5 54 54.4 55.2 55.3 55.3 54.5 53.3 50.2 43.9 39.3 36.4 33.8 32 30.5 29 27.5 27.5 25.3 23.6 24.2 23.8 22.8 23.4 21.7 21.9 21.7 20.8 19.4 20.1 20 18.1 16.1 16.3 15.5 15.5 16.6 16.4 17.9 18.4 17.4 16.5 16 16.4 17.1 17.8 18.6 19.1 19.2 19.1 18.8 18.5 19 21.2 20.5 21.4 22.6 22.8 22.8 22.9 23 23 23.7 23.5 23.9 24.5 24.9 24.8 24.7 24.9 25.2 25.3 25.1 24.7 24.7 24.6 24.9 25.2 25.5 25.3 25 24.2 22.3 18.8 16.7 17.4 17.4 17.3 17.3 17.3 17.2 17.3 17.6 17.6 17.8 18 18.3 18.7 21.2 20.9 19.7 20 20.6 21.3 22.7 24.1 24.7 25 25.1 25.6 26.1 26.6 27 27 27.1 27.4 26.1 25.4 25.2 25.5 25.6 25.6 25.5 23 20.1 18.6 17.1 17.2 19.2 19 18.8
32.4 29.9 33 35.4 39 41.1 42.2 42.5 42.2 42.3 42.8 42.4 41.7 40.9 40.2 39.2 38.3 37.8 37.1 37.2 38.3 38.4 38.6 35.8 33.2 30.8 29.4 28.5 27.5 26.5 25.5 25 24.7 24.9 24.8 24.7 24.6 24.4 24.3 24.1 24.6 24.9 25.5 26.1 25.5 24.5 23.6 22.7 20.4 17 15.1 19.8 24.3 26 26.5 27.1 27.3 27.4 27.9 28.6 29.4 30.5 32.9 34.7 36.4 37.7 42.4 47.7 52 54 54.3 54.7 54.6 54.3 54.3 54.2 52.5 48.5 41.7 37.2 35.1 33 30.9 30.2 28.9 27.3 26.8 25.2 24.1 23.6 23 22.2 21.9 22.1 20.8 20 19.9 20.4 21 20.5 19.6 17.9 16.5 15.4 15.7 16.3 16 18.3 19 18.2 17.1 17.3 16.8 17.2 17.9 18.4 19.5 18.8 18.9 18.5 18.3 19.2 21.6 21.6 21.9 22.6 22.4 22.7 22.8 22.9 23 24 24.5 24.1 24.5 25 25 25 25.3 25.6 25.6 25.3 24.9 24.6 24.9 24.9 25.1 25.4 25.2 24.8 21.9 21.3 21.2 17.4 17.8 17.7 17.2 17.8 18.1 18.2 18 17.4 18 18.1 18.3 18.5 18.7 19.2 19.2 19.1 19.6 20.1 20.7 21.6 22.9 24.2 24.5 24.7 25.3 25.9 26.3 26.8 27.1 27.1 26.5 25.9 26.3 26.8 26.4 25.8 24.9 23.6 21 18.9 17.6 19.7 17 19.1 18.9 18.7
32.4 28.8 31.9 33.6 36.9 40.1 42 42.1 41.5 41.5 42.4 42.8 42.6 41.8 41.1 39.7 38.8 38.1 37.2 36.2 36.8 37.1 38.1 35.9 33 31 29.1 28.1 27.3 26.3 26 25.3 24.2 24.7 24.6 24.5 24.4 24.3 24.1 24 24.6 24.3 24.4 25.1 24.7 23.8 22.8 21.7 20 16.4 15.6 21 25.1 26.1 26.3 26.8 27.2 27.1 27.7 30.4 32.3 34.8 36.3 37.5 38.2 39.2 44.9 49.6 53.1 54.1 54.2 54.5 53.7 53.4 52.9 52.6 49.9 45.4 39.4 35.5 33.8 31.2 30.8 29.1 27.5 27.2 26.5 24.4 23.4 22.3 22.2 22.1 21.5 20.2 20.6 20.7 20.3 21.8 20.9 20.2 18.8 16.9 16.5 15.7 16.6 16.2 16.1 16.7 17.8 18.6 17.9 17.5 18 17.3 17.5 18.2 18.1 17.9 18.6 18.7 18.7 18.8 20.6 21.9 22.4 22.5 22.2 22.3 22.7 22.8 23.1 24.4 25.2 24.3 24.6 25 25.2 25.4 25.5 25.6 25.6 25.5 25.2 24.8 25.3 25.2 25.1 25.4 25.1 23.6 23.3 24.2 23.8 16.7 17.6 18.1 18 18.1 17.8 18.1 17.7 17.2 18.2 18.5 18.7 18.9 18.8 19.2 19.1 19.1 19.2 19.8 20.3 20.6 21.5 23 24.3 24.6 24.8 25.6 25.6 25.6 26.3 26.2 25.6 25.6 25.5 25.9 25.6 25.2 23.8 21.1 19 18.9 17.3 18.3 16.5 19.1 18.9 18.7
31.9 29.7 31.2 31.9 34.8 38 40.3 40.5 40.6 41.1 42 42.8 42.9 42.7 41.9 40.2 39 38.1 37.2 36.4 35.3 36.6 37.7 36.5 33.7 31.5 29.5 28.3 27.1 26.7 26.6 25.6 24.5 24.5 24.5 24.4 24.3 24.1 23.9 24 24 23.6 23.5 24 23.8 22.5 21.1 19.8 18.4 16.5 18.4 22.8 25.3 26.1 25.3 24.9 27 27.9 29.9 30.3 35.8 39.9 42.8 44.2 41.2 42.4 47.8 52.9 54.1 53.9 53.8 53.5 52.7 51.2 49.7 46.5 43.5 40.3 36.2 33.8 31.5 29.5 28.3 27 26.3 25.7 24.6 24.5 24.3 22.9 22.6 22.5 22.1 20.6 21.2 21.6 20.7 21.1 20.3 19.5 19.1 16.7 16.3 15.1 16.5 16.3 16.2 16.1 17.9 18.5 18.5 18.1 18.2 18.1 17.9 17.5 17.4 17.2 18.8 19.2 19.2 19.1 20.4 21.7 22.4 22.2 22 21.9 22.3 22.6 23.1 23.6 24.2 24.7 25 25.2 25.5 25.5 25.5 25.5 25.6 25.6 25.4 25 25.2 25.6 25.5 25.4 24.4 23.9 24.7 25.9 24.6 18.6 18.4 17.7 17.7 17.4 17.4 17.2 17.4 17.4 18.4 18.9 19.1 19 18.8 19.1 19 19.1 19.3 19.4 19.9 20.1 20.3 20.7 21.8 23.8 23.7 23.5 23.9 24.7 25.4 25.5 25.2 25.2 25 25.1 24.8 23 20.9 19.1 19.2 18.4 19 19.2 16.6 19.6 19.1 18.6
30.2 29.8 29.2 29.6 32.2 34.7 36.7 37.7 38.8 40.3 41.4 42.4 42.9 42.9 41.8 40.3 39.2 38.3 37.4 36.5 35.3 35.5 35.9 36.3 34.4 31.9 29.8 28.9 28 27.4 26.9 25.8 24.7 23.9 24.3 24.2 24.1 23.9 23.7 23.8 23.4 23 22.7 23.1 23.9 23.2 21.7 20.1 18.5 16.2 19 22.9 24.5 24.3 21.8 23.3 27.7 30.1 31.3 31.8 36.5 40.2 43.2 47.5 49.8 49.5 50.8 53.8 53.6 52.9 52.7 52.4 50.7 47.2 43.4 40.3 37.3 35.2 33.5 32.5 30.6 28.6 27.9 25.8 26.2 24.7 24.3 24.1 24 23.6 23 22.8 22.2 21.6 21.3 21.3 20.2 20 20.3 19.6 19.9 17 16.7 15.4 14.9 14.9 16.4 16.2 18.3 18.5 18.8 17.8 17.9 18.1 18.3 17.7 17 17.7 18.9 19.5 19.3 19.6 20.9 22 22 21.8 21.6 22.1 22.5 22.8 23.4 24.4 24.9 25.3 25.5 25.5 25.4 25.4 25.4 25.4 25.5 25.6 25.4 25.2 24.9 25.9 25.8 25.3 24.7 24.9 26 25.7 25.3 21.5 17.4 17.5 17.6 17.6 17.6 17.3 17.1 17.7 18.6 19.3 19.2 19 18.8 19 19 19.3 19.6 19.1 19.4 19.8 20.2 20.2 20.4 21.5 22.1 22.5 23.2 23.9 23.7 22.9 24.8 24.9 24.7 24.3 22.4 20.6 19 19.2 19.3 19.3 19.1 18.9 19.3 19.5 19.2 18.8
28.9 28.4 29.2 33.9 31.5 33.2 34.5 36.1 37.9 39.4 40.4 41.5 42.7 43 41.7 40.6 39.6 38.5 37.5 36.6 35.7 34.8 34.3 34.8 33.2 31.3 31.2 30 29.1 28.3 27.1 26.1 25 23.9 24.2 24.1 23.9 23.7 23.5 23.1 22.7 22.3 21.9 22.7 23.4 23.4 22.7 21.1 19.6 16.4 15.2 22.1 23.6 20.9 19.7 20.6 26.6 31.1 31.4 31.3 35 38.7 42.6 48.6 51.5 49.7 49.3 52.7 53.1 51.8 51.6 51.3 49.1 44.7 39 35.6 34.9 32.7 31.1 29.6 28.7 27.8 25.3 24.4 24.8 24.5 24.1 23.8 23.6 23.7 23.3 22.9 22.3 20.7 21.1 20.9 20.2 19.4 19.7 19.7 20 18.5 16.8 15.3 16 15.6 15.8 17.9 18.6 18.7 18.5 18.6 18.6 18.3 18.1 18 18 18.6 19.3 19.4 19.3 20.2 21.4 21.6 21.6 21.4 21.6 22.2 23 23.1 23.4 24.5 25.6 25.5 25.5 25.4 25.4 25.3 25.3 25.4 25.4 25.5 25.5 25.3 25.1 26 25.8 25.4 25.7 26.1 25.3 25.3 25.2 23.6 17.3 17.7 17.8 17.8 17.7 17.4 17.5 18.4 19.1 18.9 18.9 19 18.9 18.9 19.2 19.4 19.7 19 19.2 19.6 20.1 20 19.9 20.6 21.1 21.7 22.3 22.9 22.7 21.8 22.4 22.4 22.3 22.3 20.6 19 19.2 19.5 19.4 19.4 18.7 18.5 19.3 19.6 17.2 17.3
28 29.4 33.7 28.9 30.7 32.1 33.6 35.2 36.9 38.4 39.5 40.9 42 42.7 42.2 41.2 40.1 39 37.9 37 36.1 35.3 34.4 32.7 32.9 33.1 33.2 31.4 30.3 29.1 27.5 26.4 25.4 24.2 24.2 23.2 22.8 22.5 22.5 22.3 21.9 21.5 21.2 22.4 23 23 23 22.1 20.4 17.1 14.9 18.2 20.4 20.2 18.5 19.4 25.4 28.8 32.8 31.6 35 36.2 39.4 45.1 48.6 43 44.1 49 51.8 50.4 50.5 50.1 47.3 41.7 37.1 34.1 32.2 30.7 29.3 28.1 27.4 25.7 24.3 24 24.6 24.2 23.8 23.5 23.3 23.2 23.2 22 20.4 20.3 20.8 20.2 19.4 19.3 20.2 20.1 19.5 19.4 17.8 16.5 14.4 13.5 15.7 18.5 18.3 18.2 18.4 18.3 18.1 17.9 17.7 17.5 18 18.2 19.2 19.1 19.6 20.6 21.3 21.2 21.2 21.1 21.8 22.4 23.1 23.5 23.7 24.4 25.2 25.6 25.5 25.5 25.4 25.4 25.3 25.4 25.4 25.5 25.5 25.3 25.6 25.4 26.3 25.8 26.1 25.8 25.5 25.9 26 25.7 16.6 18.2 18 18.1 17.9 18 18.3 18.7 18.5 18.3 18.1 18.1 18.3 18.6 19.3 19.6 19.9 19.5 19.2 19.5 19.9 19.9 19.8 19.8 20 20.7 21.3 21.9 21.6 20.8 21.6 20.9 20.4 20.4 19.1 19.4 19.7 19.6 19.2 19.1 19.5 18.9 19.4 19.2 18.6 19.1
28.1 29.5 29.5 29 29.7 31.2 32.8 34.4 36.1 37.5 38.9 40.1 41.3 42 42.5 41.9 40.8 39.7 38.4 37.5 36.7 35.8 34.9 33.5 34.3 34.8 35.1 33.4 31.6 29.7 28 26.8 25.7 24.6 23.6 23.1 23 22.8 22.2 21.6 21.2 20.9 21 22.1 22.6 22.6 22.6 22.6 21.4 17.4 14.8 15.4 17.3 20.1 18.8 19.6 24.4 26.8 32 33.7 33.3 33.8 36.2 41 43.4 39 41.8 45.9 49.5 48 49 48 44.5 38.5 35.1 32.6 30.7 29.7 28 26.9 26.3 24.2 24.3 24.5 24.3 23.8 23.4 23 22.6 22.8 22.5 20.2 19.1 19.8 20.1 19.2 19.1 19.5 19.8 20.8 20.3 19.5 17.8 15.4 16.1 13.1 15.4 18.1 17.8 17.4 17.5 17.4 17.3 17.2 17.1 17.1 17.4 18.1 19.2 19.1 19.4 20.8 21.5 20.8 20.8 21.3 21.9 22.5 23.2 24 24.1 24.4 24.9 25.3 25.6 25.5 25.5 25.4 25.4 25.6 25.7 25.6 25.6 27 27.2 26.6 26 26.3 26.9 27.3 26.7 26.7 26.8 26.7 19.2 17.5 17.9 18 18.4 18.5 18.5 18.3 18.1 17.9 17.7 17.5 17.5 17.7 18 18.8 19.6 20 19.6 19.5 19.8 19.8 19.8 19.8 19.7 19.6 20.2 20.8 20.5 20.2 19.9 19.6 19.2 18.9 18.8 19.2 19.6 19.4 19.1 18.8 19.6 19.6 19.6 19.4 19.6 19.8
28.8 29.6 30.3 31.3 28.8 30.8 32.9 34.9 35.3 34.9 36.2 37.3 39.2 41.3 41.8 42.2 41.5 40.2 39 38.1 37.2 36.3 35.1 33.3 34 35.6 36.2 34.7 33.4 31.2 29 27.1 26 25 23.9 23.9 23.9 23.8 23.3 22.6 21.5 20.5 21.7 21.9 21.9 22.5 22.8 22.7 22.1 18.9 15.5 15.5 16 21.1 23.1 22.7 23.3 25.9 30.4 33.5 34.4 34.4 34.3 39.5 38 37.3 39.5 42 44.3 44.6 46.9 45.7 40.5 35.9 33 30.9 30.1 28.8 27.1 25.3 23.5 23.5 22.7 22.9 23.1 23.4 23.1 21.9 21.6 21.6 22 20.4 18.6 18.5 18.7 18.8 19.1 19.3 19 20.7 20.3 19.3 17.9 15.4 13 13 15.7 17.1 18.1 17.4 17 17.2 17.4 17.6 17.2 17.1 17.8 18.5 19.1 19.1 19.8 21 21 20.6 20.8 21.4 22 22.6 23.3 24.1 24.6 24.5 24.6 25 25.5 25.6 25.5 25.5 25.6 25.8 25.9 25.9 27.8 28.1 28.2 27.9 27.7 26.8 27.3 28.2 27.9 27.9 27.4 26 22.1 18.6 17 17.2 16.6 19 18.6 18.4 18.2 17.9 17.7 17.6 17.5 17.4 17.4 17.4 18.2 19 19.8 19.8 19.8 19.8 19.9 19.9 19.8 19.6 19.5 19.8 19.7 19.9 19.3 18.9 18.6 18.7 18.7 18.6 18.7 18.7 18.7 19.1 19.8 19.8 19.7 19.4 19.1 18.7
29.5 30.4 31.2 32.2 30.9 32.6 33 33.4 33.2 32 32.6 34.2 37.2 38.5 39.3 40.6 41.5 40.7 39.5 38.6 37.7 36.8 34.7 33 33.9 35.3 37.2 36.4 35.1 33.1 29.6 27.6 26.5 25.8 24.9 24.8 24.8 24.8 24.3 23.5 22.5 21.9 21.8 20.7 19.7 21.3 22.3 22.6 22.1 20.3 16.1 15.5 15.5 20.6 24.2 23.9 22 24.6 27.7 30.6 33.6 34.5 33.9 37.4 36 36.1 36.3 37.4 38.7 43.6 47.1 43.1 37.3 34 31.1 29.3 28.7 27.3 26.3 25.8 23.2 23.7 22.5 22.4 21.6 21.3 22 22 21.7 21.5 21.5 20.5 18.6 18 18.2 18.1 18.5 19.1 18.9 20 20.7 20.3 18.4 15.9 15.2 13 15.9 17 18.1 17.4 17.7 18.2 17.9 17.5 17.1 17.2 17.8 18.5 18.8 19 19.7 20.4 20.1 20.4 20.9 20.9 22.1 22.7 23.5 24.2 25 24.9 24.6 24.9 25.1 25.6 25.6 25.6 25.8 25.9 26 27.4 29 29.1 29.1 28.9 28.6 28.4 28.5 28.7 29.1 28.2 27.8 27.4 25.9 19.2 17.7 18 16.7 19 18.7 18.4 18.2 17.9 17.7 17.8 17.7 17.6 17.5 17.5 17.5 17.5 17.7 18.6 18.6 19.4 19.9 19.9 19.8 19.7 19.6 19.6 19.7 19.7 18.6 18.5 18.6 18.6 18.6 18.5 18.5 18.5 19.3 19.8 19.9 19.7 19.6 19.4 19 18.3
28.8 29.4 30.1 31.2 30.2 28.7 30.5 30.3 30 29.2 29.9 31.3 33.7 35.4 36.1 38.1 39.8 40.7 40 39.1 38.3 36.4 34.3 32.8 33.7 35.3 37.5 37.6 36.1 32.3 30.2 28.9 27.4 27 26 25.9 25.8 25.7 25.3 24.5 23.5 22.8 21.6 20.8 20.6 19.2 20.1 20.8 21.8 21.1 18 14.8 15.3 18.8 25 25.8 24.2 23.4 23.8 27.9 31.3 34.6 33.9 35.3 34.7 34.8 35 35.2 36.8 40.2 41.3 40 34.6 32.2 31 29.1 27.1 25.8 22.1 22.9 23.5 22.1 22 20.6 20.2 20.8 21.5 22.1 21.8 21.6 21.5 20.5 18.8 17.9 17.9 17.8 18.1 19.3 19.3 19.3 19.4 18.9 17.6 16.2 15.5 14.4 15.5 16.2 17.2 17.1 18.5 18.2 17.8 17.4 16.9 17.2 17.9 18.5 18.5 18.6 19.2 19.6 19.9 20.5 21 21.2 21.2 22.5 23.6 24.5 25.1 25.2 25 24.9 25.2 25.4 25.7 25.8 26.1 26.3 27.5 28.8 30.1 30.1 30.1 29.8 29.4 28.6 28.5 29 29.6 29.5 29.1 28.7 28.1 25.5 18.4 17.9 18.3 18.8 18.6 18.4 18.1 17.9 17.8 18 17.8 17.7 17.7 17.7 17.7 17.7 17.7 17.6 17.6 18 19 20 20 20 20 20.1 19.5 18.6 18.7 18.5 18.5 18.5 18.5 18.5 18.5 18.5 18.7 19.4 19.8 19.7 19.5 19.4 19.1 18
28.4 28.9 29.3 28.9 28.2 27.4 28.4 27.8 27.4 27.1 28.2 29.7 31.5 32.7 33.3 35.6 37.8 39.8 40.2 39.7 38.1 36 33.9 32.6 34 36.3 37.9 38.5 36.5 33.7 31 29.1 27.9 27.2 27.6 27.3 27.1 26.8 26.4 25.7 24.7 23.5 22.4 22.7 22.8 21.8 19.7 18.4 19.4 20.2 18 14.8 15.1 20.1 25.1 27.2 26.6 25.8 25.6 26.3 30.2 34.1 33.8 34 33.7 33.8 34 34.2 34.8 36.2 35.1 34.1 32.8 31.9 29.8 27.9 26 24.4 22 22.9 21.9 21.2 20.1 20 20 21 20.6 20.9 21.4 21.6 21.6 21.1 19 18.1 17.5 17.7 18.7 19.2 19.1 19.1 19.1 18.8 16.2 13.1 15.5 13.7 15.5 15.1 16.3 17.4 18.2 17.6 17.6 17.2 16.8 17.2 17.8 18.3 18.2 18.3 19 19.6 20.1 20.6 21.2 21.5 21.5 21.4 23.6 24.3 24.8 25.5 25.3 25 25.8 26.2 26.4 26.8 27 28.2 29.2 30.4 31.2 31 30.7 30.4 30.1 28.7 28.6 29.1 29.7 30.3 29.8 29.4 28.7 28.4 24.2 18.6 16.4 18.7 18.6 18.3 18.1 18 18 18.2 18 17.9 17.8 17.9 17.9 17.9 17.9 17.9 17.9 17.5 17.6 18.5 19.2 19.7 19.6 19 18.9 19 19 18.4 18.4 18.4 18.4 18.4 18.4 18.4 18.4 18.7 19.3 19.7 19.5 19.3 19.2 16.6
27.5 27.9 27.7 27.1 26 25.3 28.5 25.7 26.8 26.2 26.8 27.9 29 30.1 31.2 33.1 35.4 37.5 39.5 39.2 37.6 35.5 33.4 33.1 35.8 38.2 39 39.3 37.6 35.1 32.5 30.6 28.7 29.4 30.2 30 29.8 29.5 28.5 27.8 26.3 25 23.7 23.3 23.2 23 20.9 19.3 18.9 17.1 15 14.5 15.1 22.6 26.9 27.1 26.4 30.8 32.5 34.6 35.9 35.4 34.1 33.9 33.1 32.6 33.1 32.4 32.7 34.3 32.9 31.1 30.1 29.8 28.3 26.6 24.6 23.8 21.6 22 20.5 19.8 19.5 19.6 19.9 20.9 21 21.6 21.4 20.8 20.6 20.3 19.2 18.3 17.4 17.7 18.3 18.9 19 18.9 18.3 17.7 16.9 15.6 15.1 14 14.3 15.3 15.9 17.5 17.7 16.9 17.1 17 16.6 17.2 17.7 18.1 18.1 18.9 19.4 20.6 20.9 21 21.3 21.7 22.3 23 23.3 23.6 24.1 25.2 25.3 25.5 27.1 27.1 27.3 27.9 29.2 31 31.9 32.1 31.6 31.1 30.8 30.6 30.3 29.3 29.1 29.6 30 30.5 30.3 29 28.9 28.6 27.2 23.5 18.7 17.6 18.5 18.3 18.2 18.1 18.3 18.3 18.1 18.1 17.9 18.1 18.1 18.1 18.1 18.1 17.9 17.7 17.8 17.9 17.9 18.3 18.8 19.1 19.2 19.3 19.3 19.3 18.4 18.3 18.2 18.2 18.1 18.2 18.4 18.7 19 19.1 19.6 19.4 17.3 19.6
26.5 26.4 25.8 25.3 24.2 24.7 26.4 25.9 26.7 26.5 26.9 28 29.1 30.2 30.8 31 33.3 34.1 35.3 36.4 36 34.7 32.7 33.5 36.3 38.8 40.3 40.1 38.7 36.7 34.1 32.1 30.9 31.6 32.4 32.7 32.5 32.1 30.8 29.5 27.9 26.6 24.5 24.8 24.9 23.5 22 21.5 21 18.2 15.2 15.2 17.9 23.2 25.2 27 32.2 37.3 40.8 42.6 40.5 38.1 35.9 34.2 32.8 31.7 31.2 30.5 31.4 32.3 31.3 29.6 28.8 27.8 26.3 24.8 22.5 20.2 20.4 20.1 19.4 18.3 18.4 18.8 19.7 20.5 21.2 21.4 20.4 20.2 20 19.7 19.4 18.3 18.2 18.1 17.2 17.8 18.2 18.5 17.9 17 16.5 16.5 12.7 15.8 16 16.4 16.4 17.5 17.1 16.8 16.6 16.7 16.6 17.1 17.6 17.8 18.7 19.3 20 21.1 22 22.1 22.2 22.7 22.7 23.2 24.1 24.2 25.7 26.5 26.2 26.5 27 29 29.8 30.7 32.5 33 33 32.9 32.3 31.4 30.9 30.7 30.4 29.8 29.7 30.1 30.6 30.1 29.2 29.1 29 28.8 28.4 27 21.6 17.9 17.8 18.4 18.3 18.2 18.7 18.5 18.3 18.2 18.1 18.3 18.3 18.3 18.3 18.1 17.9 18 18 17.9 17.9 18 19.1 19.5 19.5 19.3 19.1 19.1 18 17.9 17.9 17.9 18 18.2 18.4 18.7 19 19.3 19.4 19.3 17.9 24.3
25.4 25.6 24.5 23.4 24.1 23.9 25.6 28.1 27.6 27.9 27.9 28.2 29.3 30.4 30.1 29.5 30.5 30.7 31.9 33.2 33.1 32.2 32.5 34 36.4 38.8 41.1 40.3 39 37.5 37.3 34.2 33.3 33.5 34.5 35.4 35.2 34.5 33.3 31.5 29.5 27.4 25.4 25.8 25.6 24.9 23.7 23 20.9 17.7 15.8 17.3 21.5 24.2 26.7 29.5 35.2 40.8 46.4 48.3 46 41.1 37.8 35.2 33.1 31 29.6 29.2 30.1 30.6 30.6 29.5 28.1 26.2 24.5 23.1 20.2 18.5 18.5 17.5 17.2 16.9 17.9 17.6 18 19.7 19.9 19.6 19.6 19.6 18.8 17.9 18.3 18.1 17.4 17.5 17.4 18.4 17.9 17.7 18.4 17.5 14.8 16.2 16.2 14.9 15.8 16.3 16.9 17.5 17.1 16.9 16.7 16.6 16.6 18 18.4 20 20.6 21.3 22.4 21.9 23.1 23.9 24.3 24.9 25.2 25.8 26.6 27.6 28.1 28.8 28.7 28.7 31 33.1 33.6 32.8 33.9 34.1 33.8 33.8 33 32.2 31.6 31 30.5 30.3 30.2 29.9 29.6 29.3 29 29.1 29.1 29 28 25.7 22.1 21.4 18.7 17.2 18.4 18.4 18.9 18.7 18.5 18.3 18.3 18.5 18.5 18.5 18.4 18.2 18.1 18.2 17.9 17.7 18 17.8 18.2 19.2 18.8 18.6 18.4 18.7 18.1 17.6 17.7 17.8 18 18.2 18.4 18.6 18.9 19.3 19.6 16.3 20.9 29.5
24.1 24 24.8 23.9 24.1 24.4 26.4 27.6 27 28 28.5 28.8 29.5 29.9 29.4 29.2 29.4 29.8 30.6 31.5 31.8 31.8 33 35.4 37.2 40.2 41.7 41.3 40.2 38.9 38 37.1 35.3 34.3 36 37.5 37.9 36.9 35.9 32.8 30.1 27.7 26 26.4 26 25.3 24.6 23.7 21.7 18.1 15.5 19.3 22.5 25.4 28.1 32.4 38 43.6 49.1 52.7 49.2 44.7 39.7 36.2 33 30.8 29.2 27.7 28.5 28.3 28.6 28.6 27.7 24.5 21.2 18.2 17 15.5 15.2 15.1 14.9 14.9 15.4 17.3 17 18 17.9 17.7 18 17.8 18.2 18.2 17.5 17 16.8 16.8 17 17.3 16.9 17.1 17.2 17.5 16.3 16.3 16.3 12.2 15.7 15.7 16.4 17.2 17.1 17 16.8 16.6 17.3 17.7 19.9 21 21.6 23 24 24.6 22.8 27.6 29.1 30 29.7 28.6 29.9 31.3 31.8 32.5 32.9 33.6 33.7 36 36.5 36.6 36.4 35.5 34.8 34.6 33.8 33.3 32.7 32.1 31.5 30.8 30 29.6 29.3 29 28.7 28.6 28.7 28.8 26.3 23.8 23.6 25.2 23.3 19.2 16.5 18.4 19.1 18.8 18.6 18.3 18.5 18.8 18.7 18.6 18.4 18.3 18.2 17.9 17.6 17.8 18 17.9 17.7 18.4 18.6 18 17.8 18.3 18.1 17.5 17.6 17.8 18 18.2 18.4 18.6 18.9 19.2 18.8 18.7 26.7 35
23.3 22.8 23.9 24.1 24.1 25.5 26.7 27.1 27.6 28.1 28.6 29.2 29.7 29.7 29.8 29.9 30.1 30.2 30.5 31.3 32 32.1 33.3 36.9 39.9 41.5 42.1 42 41.6 40.4 39.1 38.8 37.9 36.6 37.2 38.8 40.1 39.1 36 32.9 29.9 28 26.8 27 26.2 25.5 24.8 23.8 22.4 20.1 15.6 17.4 20.8 24.1 27.5 32 37 41.9 46.9 52.8 50 45.6 40.3 36.6 32.6 30.8 28.7 26.3 26.2 26 26 26 23.3 18.9 16.7 15.6 15 15 15 15 15.1 15 15.2 15.1 17.3 15.3 16.3 17.3 17.9 17.5 17.3 17.9 17.4 16.9 16.8 16.6 16.4 16.6 16.8 16.9 16.5 17.2 16.2 15.9 15.4 13.2 14.8 15.3 16 16.8 17.1 16.9 16.8 17.2 18 20.3 23 24.7 24.8 27.9 29.9 30.6 32.3 33.8 34.7 34.6 33.7 32.4 33.4 34.7 35.9 36.7 36.6 36.9 36.6 37 37.9 38.7 38.5 37.4 36 35.5 34.9 34.3 33.7 33.1 32.3 31.4 30.3 29.8 29.3 28.8 28.5 28.2 28.3 28.1 25.2 24 25.7 27.5 27 24 21.4 18.2 17.2 16.5 17.9 18.4 17.7 17.5 16.8 16.6 18 18.2 17.9 17.6 17.6 17.9 18 17.9 17.7 17.6 17.5 17.5 17.6 17.5 18 17.5 17.7 17.8 18 18.2 18.4 18.6 18.9 19.1 17.6 24.2 31.9 37.4
22 22.7 24 24.1 24 25.4 26.4 26.6 26.6 28 28.5 28.5 28.9 29.5 30 30.6 30.7 30.5 30.8 31.2 32.1 32.4 33.6 37.7 40 41.2 41.8 41.9 41.9 42 42.4 42.2 40.7 39.3 39.4 40.1 39.7 38.2 35.8 32.8 29.8 29.5 28.9 27.5 26.6 25.7 25 24 23.4 20.6 16.4 15.8 17.4 20.8 24.2 28.4 33.1 37.9 43.4 49.9 48.4 44.1 40.3 35.7 32.6 31.7 28.9 27.5 24.1 21.1 21.9 19 15.6 15.3 15.1 14.8 15 15 15 15 15 15 15.1 15.1 15.3 17.8 15.2 16.4 17.4 17.3 16.8 17.4 17.3 16.9 16.7 16.5 16.1 16 16 16.6 17 16.6 16.1 16.7 13.2 13.7 14.5 15.5 15.7 16.5 16.8 16.8 17.5 19.3 23.6 29.5 29.4 30.6 32.1 33.5 35.1 36.5 37.6 38.3 38.5 37.6 37.2 36.5 37.4 38.4 39.2 39.9 40.2 39.5 38.8 40.5 40.3 40.2 40.6 39.5 37.9 37.6 36 35.4 34.5 33.7 32.9 31.9 30.8 30 29.5 29 28.6 28.1 27.7 27.5 25.2 24.6 27.3 29.2 29.8 29.1 27.1 24.4 20.1 19.5 18.6 18.2 18.6 20 17.9 18.4 17.1 17.6 17.6 17.3 17.7 18 18 17.9 17.8 17.7 17.6 17.7 17.8 17.7 18.2 18.3 17.9 18 18.2 18.3 18.5 18.6 19.3 18.5 22.3 29 37.2 40.7
22.9 22.9 24 24.1 23.8 25.2 26 26.4 26.4 26.1 27.1 27.5 28 28.6 29.5 30.2 30.5 30.8 31.1 31.5 32 32.7 34.1 37 39 40 40.9 41.2 40.9 41.2 41.8 42.4 42.5 42 41.4 39.8 38.6 36.4 35 32.5 30.6 30.9 29.9 28.4 27.3 26.1 25.2 24.4 23.5 21 17.3 16.5 16.2 17.5 21 25.1 29.3 34.1 45.2 50.8 47.1 43.9 39.3 37 33.1 32.4 29.1 27.3 24.8 18.4 15.6 15.2 15.4 15.1 15 14.8 14.9 14.9 15 15 15 15 15.2 15.2 15.2 15.1 15 16.7 16 16.8 16.3 16.9 17.2 16.8 16.6 16.1 15.9 15.8 15.7 15.6 15.9 15.8 16 14.3 14.2 14.6 15.2 15.7 16.1 16.1 16.4 17.5 20.3 25.5 30.6 35.1 35.8 36.1 36.3 37.1 38.7 39.4 40.1 40.2 39.9 40.3 40 39.6 39.5 40.1 41.8 43 43.2 42.4 41.7 42.4 43.2 43.1 42.5 41.7 40.9 39.8 37.4 36 35.2 34.4 33.5 32.5 31.3 30.4 29.8 29.3 28.8 28.3 28.2 27 25.6 25.4 28.4 29.7 30.3 30.2 29.6 29.4 30.6 28.3 27.1 25.9 25.3 23.1 20.7 19.7 20 18.3 17.3 17.4 17.8 18.1 18 18 17.9 17.9 17.8 17.8 18.1 17.9 18.4 18.3 18 18.2 18.3 18.5 18.6 18.7 17.8 20 27.7 36.5 40.4 41.7
23.7 23 24.1 24 23.7 24.9 25.6 26.1 26 25.5 27.3 26.7 27.7 29 29.7 29.6 29.6 30.8 31 31.2 31.4 33.4 33.8 35.7 37.2 38.6 39 39.7 40.2 40.8 41.4 42 42.3 42.3 40.9 39.2 37.6 34.9 33.2 31.8 32.3 31.7 30.7 29.4 28 26.6 25.2 24.7 24.1 21.7 19.4 16.4 14.6 14.8 17.8 21.8 26.8 38.6 46.2 50.1 44.5 43 38.6 36.2 34.1 31.1 26.4 22.5 16.5 15.7 15.1 15.2 15.2 15 15 14.8 14.9 14.9 14.9 14.9 15.1 15.1 15.4 15.3 15.3 15.1 15 15.6 15.6 15.8 15.8 16.4 17 16.7 16.2 15.7 15.7 15.6 15.5 15.4 15.5 15.8 16.1 15.8 15.3 16.9 15.6 16.2 16.6 16.8 19.4 22.7 26.1 29.8 35.2 38.2 38.8 39.4 40 39.7 39.5 40.9 41.9 42 40.9 40.5 40.3 40.6 41.2 41.8 43.1 45 45.8 45.3 44.6 44.8 45.7 45.8 45.6 44.3 43.4 42.3 40.8 38.1 35.8 35 34.1 33 31.9 30.9 30 29.5 29.1 28.9 28.4 27.4 26 26.9 29.2 30 30.6 31.1 30.7 32 32.7 34 35.5 36.2 36 33.3 28.4 26.2 24.7 22.8 20.4 18.4 18.9 18.7 18.7 17.8 18.1 18.1 17.9 18.3 18.3 18.1 18.4 18.3 18.2 18.3 18.5 18.7 18.7 18.4 18.8 24.7 33.6 38.9 39.6 39.8
23.8 23.3 24.2 24 23.6 24.5 25.2 24.8 24.9 25.2 25.4 27.1 28.6 29.3 29.1 29 28.8 30 31.3 31.2 31.6 33.3 33.8 35.1 36.5 37.4 37.4 38.8 39.5 40.3 41.1 41.7 42.2 41.9 40.9 38.4 36.7 34.6 34 34.3 33.8 32.6 31.5 29.2 27.5 26.1 25 24.5 23.5 22.1 20.5 18 15.5 14.3 15.4 21.1 29.1 40.9 46.9 48 43.6 42.7 37.4 35.8 32.4 28.4 22.1 16.8 15 15.2 14.4 15.1 14.9 14.9 14.9 14.8 14.9 14.9 14.9 15 15.1 15.2 15.5 15.5 15.5 15.2 14.9 14.8 15.2 15.2 15.3 15.8 16.1 16.3 15.7 15.5 15.4 15.4 15.4 15.4 15.5 15.2 15.8 14.4 14.3 16.8 16.8 17.9 19 21.8 25.1 28.5 31.9 34.9 38.1 39.9 40.4 40.8 40.9 40.3 40.2 41.6 42.3 41.8 40.9 40.8 41.3 41.9 42.2 42.5 44.4 45.8 46.7 46.8 46.9 47.1 47.8 48.1 48 46.9 45.5 44 42.4 40.5 38.4 35.7 34.7 33.5 32.4 31.4 30.4 29.8 29.4 29 28.5 27.3 26.9 28.4 29 30 30.7 31.4 31.7 31.8 32.8 34.8 36.8 37.9 38.1 37.7 36 32.7 31.2 30.3 27.2 21.9 18 18.4 18.3 17.8 18.3 18.4 19.1 18.8 18.6 18.3 18.4 18.3 18.3 18.4 18.5 18.8 18.5 17.2 23.1 31.9 36.6 38 39.5 40.4
23.6 24.2 24.4 23.7 23.5 24.5 24.8 25.1 25.4 25.6 25.8 27.8 28.8 28.6 28.5 28.3 28.2 29.3 31 31.6 32.9 34.9 36.8 37.3 39.8 37.3 38.1 39.3 40.6 41 41.4 41.7 42.1 41.5 40.8 38.4 36.2 36.1 36.9 37.2 35.5 33.5 31.3 29.3 27 25.6 24.9 23.9 22.9 21.9 20.7 17.8 15.1 14.4 17.4 22.3 30.9 43.2 49.1 50.6 46.1 40.9 36.9 34.5 27.5 20.7 16.6 14.9 14.8 14.5 13.1 13.2 13.3 13.6 14.3 14.8 14.9 14.9 15 15.1 15 15.3 15.6 15.6 15.5 15.2 14.9 14.8 14.8 15.1 15.2 16 16.3 15.4 15.4 15.3 15.3 15.3 15.3 15.4 15.6 15 15.3 12.6 15.3 16.9 20.7 24.1 25.8 28.6 31.5 34.4 37.8 40.3 41.3 41.5 41.5 41.6 41.6 40.9 40.7 41.7 41.6 41.5 41 40.7 41.2 41.5 41.7 42.4 43.5 44.5 45.1 46 46.8 48.1 49 49.9 50.2 48.7 47.3 45.8 44.1 42.2 39.8 37.2 35.7 34.1 32.9 31.9 30.9 30 29.6 29 28.5 27.5 26.6 28.3 28.3 29.6 30.2 30.9 31.3 32.8 34.2 35.5 36.8 38 38.9 39.4 38.5 37.8 36.9 35.2 34 29.9 27.7 22.5 20 18.9 17.5 17.1 18.3 18.5 18.9 18.6 18.4 18.3 17.8 18.7 18.7 18.3 17.2 25.6 31.7 35.7 37.2 38.3 40.1 41
22.4 23.7 23.9 24 23.9 24.1 24.4 24.7 25 25.3 25.6 26.1 28.6 28.5 28.3 28.1 27.6 28.8 31 33.2 35.5 37.2 38.6 39.5 39.5 40.3 40.9 42.7 41.8 42.1 42.4 42.8 42.4 41.2 40.4 38.3 38.1 39 39.8 39.3 36.9 33.7 31.2 28.7 26.9 25.3 24.1 22.8 21.5 21.6 20.1 16.9 13.9 14.8 17.8 23.8 32.5 42.2 47.7 51.6 46.8 40.8 35.8 30.2 21.1 16.2 14.7 13.1 13 13.6 14.8 15.5 14.9 14.1 13.2 13.6 14.8 14.9 15.1 15.2 15 15.4 15.7 15.8 15.6 15.2 14.9 15.2 14.2 15.5 15.1 15.2 15.7 15.2 15.4 15.3 15.3 15.3 15.3 15.5 15.6 15 13 15.1 18.8 24.6 30.5 33.5 35.6 37.7 39 40.3 42.1 42.9 43 42.8 42.5 42.1 41.6 40.8 40.5 40.8 40.5 40 40.9 40.6 41 40.6 39.9 40.1 40.4 42.2 42.6 43.8 46.1 48.3 49.7 51.1 51.9 50.4 49 47.6 45.8 43.4 40.8 38.2 37 35.8 34.1 32.3 31.2 30.2 29.8 29.1 28.6 27.8 28.5 28.5 28.7 28.9 29.7 30.5 30.9 32.9 34.2 35.5 36.7 38 39.3 39.8 40.1 39.2 38.2 37.8 37.2 37.3 36 35 31.3 24.1 23.1 22.4 20.5 19.2 18 17.1 17.9 18.2 17.1 18.3 17.9 18.8 27.1 31.1 34.3 34.6 36.5 39 39.9 41
22.6 22.1 22.8 23.6 23.6 23.6 23.9 24.3 24.6 25 25.4 25.7 28 27.7 27.8 27.2 27.1 28.8 31.2 33.8 37 38.5 39.2 40.1 39.7 41.4 42.1 42.7 43.6 43.5 43.4 43.7 42.5 41.1 39.9 39.7 40 40.7 39.6 37.6 36.2 32.6 30.1 28.9 26 24.4 22.7 21.3 20.6 19.7 17.3 14.7 13.9 13.9 14.2 23.3 32 40.3 45.6 51 47.8 43 36.4 24.7 16.7 14.6 12.8 14 15.2 15.4 15.4 15.3 15 14.6 14.3 14.1 12.9 14.3 15.2 15.1 15.1 15.4 15.8 15.9 15.6 15.3 15.6 13 14.6 15.5 15.2 13.7 14.7 15.3 15.9 15.5 15.2 15.2 15.3 15.6 15.6 13.1 15.7 20.7 25 32.9 38.9 40.5 41 41.7 42.4 43.1 43.5 44.2 44.3 44.1 43.8 43.1 42.1 41 39.9 39.4 38.9 38.4 39.3 40.1 39.5 38.8 38.2 38.3 38.7 39.6 40.6 41.9 44.2 46.5 50.4 52.1 53 52.1 50.8 49.4 47 44.4 41.8 39.4 38.1 36.4 34.4 32.6 31.4 30.3 31 29.5 28.8 28.6 29 28.7 29 29.1 29.7 30.1 31.3 32.9 34.2 35.4 36.7 37.9 39.2 40.3 40.5 40.3 39.3 38.9 38.7 39.4 38.8 38.1 36 32.6 31.1 29 27.5 27.4 25.2 22.8 20.4 18.4 16.4 17.5 20.6 27.8 28.6 31.2 34 32.8 37.3 38.8 40 41
22.1 21.3 21.8 22.7 23 23.2 23.5 23.9 24.3 24.6 25 25.3 25.9 27.2 26.6 26 27 28.9 31.9 34.8 36.8 38.2 39.7 40 39.9 41.7 43.7 45 45.6 45.4 45.2 44.6 43.2 41.8 41.1 40.8 40.5 39.2 35.3 32.5 31.7 30.7 28.8 26.7 24.2 22.7 20.5 18.5 16.6 15.1 14 13.7 14.2 14 15.6 21.7 31.8 38.3 43.5 48.7 47.7 42.9 33.9 21.5 15.2 14.2 13.5 15 15.2 15 15.2 15.2 14.8 14.5 14.3 14.5 14.7 13.5 13.1 15.3 15.3 15.5 15.8 16 15.1 14.3 12.6 14.5 15.3 16.3 16 15.2 13.6 13.9 15.4 15.9 15.6 15.3 14.9 14 13.6 17.7 21.7 26.8 31.2 39.2 41.1 41.9 42.6 43.3 44 44.7 45.2 45 45.2 45.4 44.9 43.8 42.7 40.9 39.7 38.4 37.3 36.8 37.7 38.2 37.6 37.1 36.6 37 37.4 37.8 39.1 40.4 41.8 45 49.4 52.5 54.2 53.9 52.6 50.7 48.8 46.1 43.5 40 38.3 36.5 34.5 32.9 31.7 30.7 30.3 30 29.9 28.7 29 28.9 29.5 29.3 30.3 30 31.5 32.6 33.8 35.1 36.3 37.6 38.9 40.1 40.9 41 40.4 40.2 39.9 39.6 39.6 39.5 39.3 38.3 36.2 33.6 34.3 34.4 32.9 30.9 28.3 26.8 23.7 20.5 20 22.4 26.6 29.4 27.8 34.8 36.9 38.2 40 40.4
21.5 20.4 21.4 22.1 22.5 22.8 23.2 23.5 23.9 24.2 24.6 24.9 25 26.7 25.3 24.8 26.4 29.2 32 33.2 35.1 37.3 38.4 39 39.2 43.3 45.9 47.2 47.2 47 46.6 45.9 44.5 43.1 42.3 41.4 39 35.6 31.4 27.5 26.9 26.8 25.5 22.1 18.7 16.2 15.2 13.6 12.6 13.7 14.6 13.9 14.9 16.3 22.9 28.4 31.8 36.3 41.4 46.3 44.2 39.4 29.7 16.6 13 13.1 14.6 15.4 15.2 14.6 15 15 14.6 14.6 14.8 15 15.1 15.3 14.7 13.1 13.1 14.2 13.8 14.9 15.4 15.6 16.1 16.9 17.4 16.9 16.4 16.8 16.6 15.9 14.4 13.7 13.5 14.5 16 18.2 22.1 25.8 30.7 35.7 39.2 40.8 42.3 43.1 43.8 44.4 44.9 45.3 45.4 45.5 45.6 45.8 45.5 44.7 43.1 40.8 39.6 37 35.6 35 35.6 36.2 36.3 35.8 35.3 35.9 36.3 36.5 37.6 38.9 40.2 43.6 48.3 52 54.8 55.4 53.7 51.6 50.5 48 44.9 41.2 38.5 36.6 34.7 33.1 32 31.3 30.6 29.7 29.3 28.9 28.8 28.9 29 29.3 29.2 30.4 31.8 31.9 33.2 34.4 36 37.6 39.1 39.4 41 41.5 41.3 40.9 40.6 40.6 40.4 40 39.6 39.7 37 36.3 36.6 36.3 34.9 32.8 31.4 29.8 27.8 24.5 19.6 19.1 24.1 22.2 30.7 33.1 35.8 37.5 38.5 39.5
21.2 22.1 21.7 22.1 22.1 22 22.5 23.1 23.5 23.8 24.2 24.6 24.2 23.7 23.6 24.2 26.1 28.8 30.7 32 33.3 34.8 35.5 37.4 39.3 43.4 47.5 48.7 48.9 48.5 47.9 47.2 45.7 44.3 42.6 39.5 36 31.3 26.6 23.7 21.4 21.1 20.7 16.1 14.8 13.3 13.3 14 14.6 15.8 17.9 21.4 24.1 25.8 28.3 30 31.2 32.5 37.4 40.5 44.3 35.9 25.6 15.5 13.2 14.2 15.5 15.4 15.3 14.2 14.6 14.8 14.8 15.1 15.3 15.4 15.6 15.7 15.5 15.1 15.9 15.8 15.1 16.4 15.7 15.9 17.6 17.8 18.4 18.7 19 19.3 21.1 23.1 26.9 28.1 27.5 28.5 30.6 30.6 35.6 37 40.1 41.5 41.7 40.7 43.1 44 44.4 45.1 45.5 45.6 45.6 45.6 45.4 44.5 44.6 44.5 42.4 40.2 38.3 36.5 35.2 33.9 33.3 34 34.7 34.5 34 34.8 35.2 35.4 36.1 37.4 39.1 42.1 46.2 50.2 53.1 54.4 54 52.5 50.9 48.5 45.7 42.3 38.8 36.9 35 33.4 32.4 31.8 30.8 29.9 29.3 28.8 28.8 29.3 29.4 29.1 29.2 30.1 32 32 32.9 34.5 36.1 37.7 39.1 39.3 39.5 40.5 40.6 41.3 41.7 40.4 40.2 40 39.8 39.3 38.4 38.7 38.6 38 36.4 34.7 33 31.2 29.5 27 21.2 18.2 19.3 25.3 29.4 32.4 33.7 36.3 37.4 38.7
21 21.3 21.7 21.8 21.7 21.6 21.6 21.9 22.7 23.4 23.7 23.9 23.4 22.7 26.3 25 26.3 28.3 29.5 30.9 32.3 33.4 33.6 35.4 39 43.9 48.7 49.8 50.5 49.8 49.2 48.5 47 46.1 43.9 39.2 34.4 29.8 27 24.6 21.6 18.8 16.5 13.9 14.3 14.3 13.8 16.2 17.8 19.6 22.2 24.5 26.6 27.9 29.2 30.3 31.4 32.5 33.7 34.8 35.2 33.2 20.1 13.6 14.4 14.7 14.9 15.2 15.1 15.1 14.8 15.2 15.3 15.6 15.8 15.9 15.8 15.6 15.4 15.3 16.1 16.9 17.1 17.3 17.6 17.8 18 18.5 19.4 19.7 19.8 20.2 21.7 24.6 29.1 33.8 36.7 37.8 38 38.7 38.9 39.5 41.3 41.8 43 42.1 43.7 44.3 44.9 45.6 45.6 45.6 45.6 45.2 44.6 43.5 43.1 43.2 41.2 39.4 36.8 35.8 33.7 32.2 31.8 32 32.5 33.2 32.7 33.5 34.1 34.3 34.6 36.2 37.9 39.7 42.7 46.5 48.5 50.7 52.7 52.5 50.6 47.9 44.8 40.7 38.4 37.2 35.3 33.7 32.9 32 31.1 30.2 29.2 28.8 28.9 29.6 29.8 29.5 29.6 30.1 31.7 33.1 34.1 35 36 37.2 38.4 39.5 40.6 40.6 40.3 41.2 41.5 40.6 40.4 40.3 39.9 39.3 39.9 40.3 39.9 39.1 37.7 36.2 34.5 32.6 30.7 27.9 22.5 20.3 20.6 21.7 26.1 29.5 32.3 35 36.2 37.9
21.3 21.6 21.6 21.5 21.3 21.2 21.1 21.3 21.4 22.1 22.9 23.4 22.8 22.3 25 25.7 26.8 27.6 29 30.4 31.7 31.8 32.2 34 35.4 43 47.6 50.6 51.1 50.9 50.5 49.7 48.8 48.2 45.5 41.2 37.6 33.9 31 27.6 24.2 21.4 15.6 13.5 13.6 13.8 20.6 20.6 22.2 22.7 23.5 25.1 26 27.3 28.6 29.2 30.6 33.7 34.5 33.2 32.3 26.8 15.9 13 14.5 15.3 14.9 15 15 15 15.1 15.7 15.9 16.1 16.1 15.9 15.6 15.4 15.2 15.5 16.4 17 17.5 17.7 18 18.3 18.5 19.4 20.3 20.6 20.2 21.1 22.3 25.6 28.1 32.6 34.9 35.5 37.2 38.1 38.6 39.7 40.6 42.6 44.1 43.3 44.6 44.7 45.1 45.1 45.5 45.5 45.5 44.8 44.3 42.8 41.5 40.7 39.3 39 35.8 35 33 31 30.6 30.7 30.9 31.1 31.4 32.2 33 32.9 33.5 35 36.7 38.4 40.3 41.9 43.5 45 48.2 49.2 48 46.1 43.2 39.8 38.1 36.8 35.5 34 33.1 32.2 31.3 30.4 29.5 28.7 29.3 29.9 29.8 29.9 30 30.2 32 33.3 34.2 35.2 36.1 37.9 39 40.1 40.9 41.2 40.9 40.6 41.1 40.9 40.7 40.5 39.9 39.8 40.6 41 40.7 39.7 38.4 37 34.7 32.5 31.1 29.3 24.7 20.5 23.3 25 23.3 27.6 30.8 33.7 35.3 37
21 22.4 21.6 21.3 20.9 20.8 20.7 20.7 20.9 21 21.7 22.7 23 22.7 23.4 25.8 26.5 27.3 28.6 30 30.2 30.3 30.8 32.3 34.1 39.9 45.5 48.7 51 51.5 51.3 51.2 50.7 50.1 48.3 44.7 42.3 39.3 35.8 30.7 25.9 23.4 15.6 13.3 12.9 15.8 20.6 20.6 21.9 22.4 23.4 24.4 25.2 26.2 27.5 28.1 28.9 32.9 33.7 33.6 30.9 19.6 13.6 14.1 15.4 15.3 15 14.9 14.9 15 15 15.1 15.7 16.2 16.1 15.9 15.7 15.5 15.3 15.8 16.5 17.1 17.7 18 18.3 18.6 19.5 20.3 21.2 21 20.7 22 23 24.8 27.2 29.8 31.7 33.4 35.6 37.5 38.2 38.9 40.5 42.6 43.8 44.6 44.8 44.5 44.4 44.7 44.9 45.4 45.1 44.9 43.9 42.5 41 39.4 37.9 36.6 35 33.1 31.8 30.7 29.4 29.6 29.8 29.9 30 31.3 32.6 32.6 32.7 33.9 35.4 37.1 38.2 38.9 40 41.1 43.5 44 44.3 42.5 41.3 39 37.7 36.4 35.1 33.9 32.9 32 31.1 30.1 29.3 28.8 29.7 30.2 30.2 30.3 30.4 30.4 32.3 33.4 34.2 35.1 36.1 38.7 39.6 40.4 41.1 41.3 41.5 41.2 41 40.8 41 40.6 40.2 40.5 40.8 40.8 41 40.2 39 37.3 35.4 33.8 31.9 29.4 23.7 20.4 25.9 27.9 23.5 24.9 28.7 32 35.4 37.3
20.8 21.4 21.6 21.2 20.9 20.6 20.3 20.2 20.3 20.5 20.9 21.7 22.1 22.4 23.4 25.4 26.2 27 28.1 28.5 28.6 28.8 29.7 31.3 32.4 35.8 40.2 44.7 48.5 51.3 52.2 52.2 52.2 51.2 49.8 48.8 48 44.7 38.7 32.5 26.9 23.7 17.1 13.3 12.9 18.1 20.6 20.6 22 22.2 23.1 23.8 24.5 25.2 26.4 27.1 28.1 29.8 32.5 33.7 25.6 16.1 12.9 15.1 15.4 15.2 15 15 15 15.1 15.1 15.1 15.1 15.6 16 16 16 15.9 15.7 16.2 17 17.5 18.1 18.8 19.9 20.9 21.1 21.2 21.3 21.2 21.3 22.1 23 24.8 26.8 29.4 31.5 33.6 35.8 37.3 37.4 38.2 40.6 42 42.9 43.6 43.5 43.4 42.6 43.7 44.3 45.1 44.9 42.9 42.1 41.2 40.2 38.8 37.1 35.5 33.9 31.8 30.6 29.6 28.6 28.4 28.4 28.5 28.8 30.3 32.2 32.3 32.8 33.7 34.6 34.9 35 35.8 36.7 37.7 39.4 40 40.1 39.5 38.5 36.8 36.2 36 34.7 33.1 32.1 31.2 30.4 30 29.5 29 29.8 30.3 30.4 30.5 30.5 30.6 32.1 33.5 34.4 35.2 36.5 38.5 39.6 40.6 41.3 41.5 41.7 41.9 41.2 41 40.9 40.9 40.5 40.9 40.9 40.8 41.3 40.5 39.5 37.6 35.7 32.5 31.5 28 22.3 21.8 27.6 28.8 27.5 25.1 26.5 30.4 34.6 37.8
20.9 20.7 21.4 21 20.8 20.5 20.2 19.9 19.7 20.1 20.5 20.9 21.4 22 23 24.2 25.7 26.2 26.9 27.2 27.3 28.7 30.1 30.2 32.1 34.4 36.1 40.9 47.7 50.3 51.5 52.2 53 52.3 51.5 51.3 51.2 48.3 42.1 34.8 27.9 22.8 17.5 13.5 12.9 15.7 21.4 21.5 22.3 22.4 22.5 23.2 23.9 24.6 25.3 26.6 28 29.9 30.8 28.5 21.6 12.9 15.5 15.1 15.4 15.2 15.1 15.1 15.1 15.2 15.2 15.2 15.2 15.2 15.5 15.8 15.8 15.8 16.5 16.9 18.1 19 19.8 20.3 20.6 20.9 21 21.1 21.2 21.2 21.4 22.1 22.9 24.7 26.2 28.4 31.7 33.6 35.2 37 36 37 38.7 41 41.6 42 41.8 40.4 39.8 41 42.2 41.9 41.5 40.5 40 39.5 38.8 37.2 35.1 33.1 32.7 30.9 29.5 28.5 27.5 27.6 27.2 27.1 28.3 28.3 29.1 30 31.7 32.4 32.9 33.1 33.1 33.6 34.3 35 35.6 36.3 37 36.9 35.7 34.5 34.5 34.4 34.3 32.4 31.6 31.1 30.5 30 29.4 29.1 29.7 29.8 30 30.1 30.3 30.6 31.8 32.2 34.1 34.8 36 38 39.1 40.2 41.2 41.5 41.7 42 41.9 41.2 40.9 40.9 41 41 41 41 41.4 40.6 39.3 37.8 35.9 32.8 30.5 26.4 21.1 22.2 28.8 30 29.9 27.9 25.9 28.9 33.2 37.2
20.7 20.9 21.1 20.7 20.3 20 19.7 19.4 19.3 20.2 20.6 20.9 21.1 21.7 22.7 23.9 24.8 25.7 25.3 25.9 27.3 29 30.4 30.3 32.4 32.4 35.5 40.6 45.4 48.8 50.2 51.4 52.5 52.1 51.4 51.1 50.7 48.3 42.9 35.7 28.7 23.2 17.5 14.1 12.8 14.3 17.7 21 21.9 22.8 22.5 22.8 23.5 24.2 25.2 26.4 28.1 30 31.2 26.8 16.9 13.7 15.2 15.4 15.4 15.2 15.2 15.2 15.2 15.3 15.3 15.3 15.2 15.2 15.2 15.4 15.6 15.6 16.8 17.6 19 19.9 20.4 20.4 20.7 21 21 21 21.1 21.2 21.4 22.1 22.9 24.7 25.6 27.4 30.3 31.9 33.6 34.4 33.9 34.8 36.3 37.8 40.3 40.5 39.7 38.6 37.4 37.9 39.3 39.1 38.7 38.1 37.6 37 35.9 35.4 33.9 32.9 31.6 30.3 28.5 27.4 26.4 27.1 26.8 27.5 27.4 26.8 27.3 28.6 30.3 30.7 31 31.2 31.3 31.6 32.3 32.9 33.5 33.6 33.9 34.5 33.3 32.8 32.7 32.7 32.4 31.5 31.4 30.8 30.3 29.7 29.2 29.2 29.4 29.7 30 30.3 30.5 31.4 31.4 32 33.3 34.4 35.8 37.4 38.6 39.5 40.5 41.4 41.8 42.1 42.5 41.3 40.9 41 42.1 42 41.6 41.2 40.9 40.6 38.8 37.2 35.6 32.6 30.7 26.8 21.7 23.2 29.9 30.8 31.6 29.9 26.8 27.6 31.8 35.3
20.6 20.9 20.8 20.4 20 19.6 19.3 19 19 19.2 20.6 20.8 21.1 21.4 22.4 23.5 23.9 25.5 24.9 25.7 26.9 28.5 29.6 31.3 32.4 33.1 35.6 37.7 40.7 43.8 48.7 50.9 52.3 51.9 51.2 49.4 47.6 44.6 39.6 34.4 28.9 23.5 16.4 14.1 13.9 14 16.6 20.4 21.5 22.2 22.6 22.5 23.2 24.2 25.2 26.3 28.2 30.1 31.7 26.6 15.4 13.4 14.9 14.1 15.3 15.3 15.3 15.3 15.4 15.3 15.3 15.3 15.3 15.3 15.3 15.3 15.3 15.4 17.1 19 20 20.8 20.8 20.7 20.7 21 21.1 21.1 21.1 21.1 21.5 22.2 22.9 24.1 25 26.4 28.4 30.2 31.9 32.1 32.1 32.8 34 35.2 37.4 37.6 36.8 36.2 35.1 35.4 36.4 36.3 35.9 35.4 35.1 34.6 34 33.4 31.7 30.8 29.9 29.1 27.8 26.4 25.4 25.8 26.6 25.7 27.3 25.6 26.3 27.6 28.6 28.8 29.1 29.3 29.5 29.8 30.2 30.8 31 31.1 31.3 31.5 31 31 31 31.1 31.2 30.9 31.3 30.6 30 29.5 29.2 29.6 29.5 29.9 30.2 30.5 30.8 31.8 31.2 31.8 33 34.4 35.7 37 37.9 39 40 41 41.2 41.3 42.4 42.6 41.2 42.1 42.6 42.3 41.9 41.5 41.1 40.6 40.1 37.7 36 33.3 30.4 27 22.6 25.3 30.2 31 30.6 30.8 29.5 28.1 29.7 34.3
20.4 20.6 20.4 20.1 19.7 19.2 18.8 18.5 18.6 18.8 19.4 20.8 21 21.2 22.1 22.5 22.6 23.7 25.2 25.8 26.7 27.9 29.3 30.3 32.4 32.9 34 35.5 38.3 41.5 46.8 49.5 51.7 51.8 49.8 46.3 42.8 38.6 34.6 30.1 27.3 23.5 16.2 13.2 13.9 14.1 16 19.9 20.7 21 21.5 22.3 23.4 24.5 25.6 26.7 28.5 30.7 32.5 24.1 13.1 15.6 14.6 14.7 15.2 15.3 15.4 15.4 15.4 15.4 15.4 15.4 15.4 15.4 15.4 15.4 15.4 15.4 17.2 19.1 20.3 20.5 20.5 20.7 20.9 21.1 21.1 21.1 21 21 21.6 22.2 22.9 23.7 24.5 25.2 26.8 28.5 30.2 29.9 30.4 30.9 32.1 33.6 35 34.9 33.6 33.6 33.4 34.2 34.7 34 33.3 32.1 31.8 32.1 31.9 32 30.8 28.9 28 27.2 26.3 25.2 24.9 24.5 24.2 24.3 25.4 24.6 25.1 26.4 26.8 27 27.2 27.4 27.6 28 28.4 28.7 28.8 29 29.1 29.3 29.7 29.8 29.9 30 30.1 30.3 30.7 30.6 29.7 29.2 30.1 29.8 29.7 30 30.4 30.7 31.1 31.9 31.5 32 33.7 35 36.3 37.6 37.8 38.7 39.8 40.8 41.1 40.9 41.9 42.4 42.9 42.7 42.8 42.5 42.1 41.7 41.3 40.5 39.6 38.6 36.1 33.3 29.7 25.7 22.7 26 29 30.2 31.2 31.4 30.9 28.7 28.6 33
20.2 20.2 20.1 19.8 19.4 19 18.5 18.1 18.5 19.1 19.7 20.7 20.9 21.1 21.6 22.9 23.2 23.8 25.1 25.8 26.7 28.1 29.5 30.1 31.1 32.5 33.4 34.2 36 39.2 41.5 44.8 49.7 50.5 48.1 42.7 38.4 34 31.2 27.7 25.5 22 16 13.6 13.6 13.8 15.6 19 19.7 20.7 21.8 22.8 24 25.2 26.3 27.5 29.5 32.6 33.6 23.2 12.9 15.7 14.4 14.8 14.9 15 15.2 15.2 15.6 15.6 15.6 15.6 15.6 15.6 15.6 15.6 15.4 15.4 16.7 19.4 20.1 20.2 19.8 20 20.3 20.7 20.9 20.8 20.8 21 21.7 22.4 23 23.8 24.6 25 25.3 26.8 28 28.3 28.7 29.2 29.8 30.5 31.2 31.8 31.6 31.7 32.2 33 32.8 32.7 31.3 30.5 30 29.2 29.2 29.1 29 28 27.1 26 24.8 23.5 23.2 23 23.2 23.4 23.8 23.9 24 24.9 25.1 25.2 25.4 25.6 25.9 26.5 27.1 27.4 27.5 27.7 28.1 28.4 28.9 29.5 29.6 29.7 29.8 30.1 30.4 30.6 29.7 30.4 30.3 29.9 29.8 30.1 30.4 30.8 31.1 31.5 32 32.6 32.6 34.3 35.4 36.8 38.2 38.6 39.5 40.6 40.9 41.1 40.9 41 41.2 41.5 41.6 41.3 41.3 41.3 41.3 40.9 40.3 38.4 36.7 32.5 28.7 24.9 23.2 28.5 30.4 30.8 31.6 31.2 30.6 29 27.7 32.6
19.6 19.7 19.7 19.5 19.2 19.1 19 18.9 19.3 19.8 20.2 20.6 21 21.3 21.5 22 23 24.5 23.9 24.2 25 26 28.4 29.1 29.8 30.6 31.9 32.7 34 35.5 37.5 41.4 45.3 46.2 43.2 39.4 36.4 33.4 29.9 27.1 25.4 21.5 16.6 14.1 12.5 13.1 14.7 17.1 19.3 20.6 22 23.3 24.5 25.8 27 28.2 30.9 34 30.8 21.3 12.6 15.6 14.5 14.5 14.6 14.9 15.2 14.9 15.8 15.8 15.8 15.8 15.8 15.8 15.7 15.6 15.4 15.3 16.7 18.9 19.7 19.5 19.2 19.5 20 20.4 20.7 20.6 20.6 21.1 21.8 22.4 23.1 23.8 24.4 24.7 25 25.3 26.1 26.9 27.8 28.4 28.5 28.7 29.4 30.4 29.8 30.4 31.1 31.2 31 30.9 30.5 29.6 28.7 28.3 27.9 27.5 27.1 26.6 25.6 24.3 23.1 21.9 22 23 23.9 24.1 24.5 24.8 24.9 25 25.4 25.7 26 26.3 26.4 26 25.8 26.1 26.5 26.8 27.2 27.5 28 28.7 29.3 29.4 29.5 29.9 30.3 30.3 29.7 30.4 30 29.7 29.8 30 30.4 30.7 31 31.5 31.9 32.3 32.8 33.2 34.6 36.1 37.5 38.8 39.5 40.4 41 41.3 40.3 40.9 41 41 41 41.1 41.1 41.1 41 40.2 39 37.6 34.8 31.6 28.7 25.5 23.5 28.3 30.1 31.2 31.4 31.6 30.3 28.3 27.8 32.3
18.8 18.9 18.9 19.3 19.3 19.2 19.2 19.4 19.6 19.9 20.2 20 20.2 21.2 21.8 22.2 23.4 23.9 24.3 24.7 26 26.6 27.4 28.1 28.9 29.6 29.9 31 32.7 34.2 35.1 39 39.8 39.8 37.4 35.2 34.1 32.3 30.5 28 26.3 23.5 19.6 16.8 12.9 12.3 14.2 17.3 20.4 21.7 23 24.7 26.1 27.1 28.2 29.9 33 35.5 30 20 13.2 15.7 14.3 14.3 14.7 15.3 14.9 14.6 15.6 16.1 16.1 16.1 16.1 15.9 15.7 15.5 15.3 15.2 16.6 18.3 18.9 18.8 19.3 19.8 20.2 20.2 20.3 20.4 20.4 21.1 21.8 22.5 23.2 23.8 24.1 24.4 24.7 24.9 25.6 26.4 27.2 27.5 27.8 27.6 27.5 28.8 28.5 28.5 29.5 29.4 29.2 29 28 27.6 26.8 26.6 26.2 25.7 25.3 24.7 23.7 22.7 21.5 22.9 23.5 24.4 24.4 24.7 25.1 25.5 25.7 25.9 26.2 26.5 26.7 26.9 27 26.8 26.4 25.9 26 26 26.3 26.7 27.2 27.8 28.5 29.1 29.2 29.6 30.1 29.8 29.1 30.6 29.6 29.7 29.8 30 30.3 30.6 31 31.4 31.8 32.3 32.7 33.1 33.5 35.1 36.7 38.2 39.4 40.3 40.5 40.5 39.6 40.9 41 40.8 40.8 40.9 40.9 40.9 40.8 40.2 39.2 37.2 34.8 31.9 28.6 25.6 24.7 28.2 30.1 31.8 32 31.9 30.6 28.6 26.9 30.1
17.7 17.9 18.4 19 18.9 19.5 19.6 19.5 19.4 19.7 19.7 19.3 19.5 20.3 21.3 21.9 22.4 22.4 23.3 24.2 24.4 26.3 26.7 27.3 28 28.7 29.1 29.8 31.4 32.4 33 35.5 35 35.2 33.9 32.8 31.8 30.9 29.1 27.7 25.8 24.1 21.8 18.3 13.7 12.6 13.5 17.7 20.9 22.9 24.6 27 28.4 29.3 30.2 31.9 34.4 37 32.6 20.8 13 15.6 14.4 14.1 15.3 14.9 14.7 14.6 14.9 16.3 16.3 16.2 16 15.8 15.6 15.5 15.3 15.1 16.4 18 18.6 19.1 19.6 20.1 20.5 20.3 20.1 20.2 20.5 21.2 21.8 22.3 22.9 23.4 23.7 24 24.2 24.5 25.1 25.9 26.3 26.7 27 26.9 26.7 27.6 27 27.4 27.5 27.3 27.2 26.3 26.7 26.9 25.2 24.7 24.4 24 23.6 22.8 21.7 21.2 23 24.1 24.6 24.9 25 25.4 25.7 26.1 26.5 26.7 27 27.2 27.3 27.5 27.6 27.5 27.1 26.6 26.2 26.3 26.3 26.4 26.8 27.3 27.8 28.3 28.9 29.3 29.7 29.6 29.2 30.4 29.6 29.7 29.8 29.9 30.2 30.5 30.9 31.3 31.8 32.2 32.5 32.8 33.2 33.7 35.3 36.9 38.5 39.3 39.8 39.4 38.9 40.9 40.7 40.3 40.5 40.8 40.8 40.7 40.5 40.3 37.6 35.8 32.8 30.7 28.1 25 25.5 28.3 30.5 32.2 32.4 32.1 31.8 30.1 27.6 27.1
16.4 17.8 18.6 19.2 19.8 19.8 19.7 19.6 19.5 19.3 18.5 18.8 19.2 19.7 20.4 20.8 21.7 22.5 23.5 24.5 24.2 26 26.5 26.7 27.3 28 28.5 29.5 30.5 30.5 30.8 31.7 31.7 32 31.6 30.5 29.6 28.6 27.3 26.7 24.9 23 21.1 18 14.6 13.3 12.3 17.4 22.4 24.4 26.8 29.3 30.9 32 33.2 33.9 35.3 37.8 34.9 24 13.6 15.4 14.5 13.7 15.1 15.4 15.4 15.6 16 16.4 16.4 16.3 16.2 16.1 15.8 15.4 15 15.1 15.6 16.9 18.5 19.3 19.8 20.4 20.7 20.5 20.3 20.1 20.3 20.9 21.4 21.9 22.4 22.9 23.2 23.5 23.7 24 24.6 25.1 25.4 25.8 26.2 26.3 25.7 25.4 25.9 26.3 25.6 25.5 25.4 26 26 26 23.5 23.1 22.6 22.3 21.8 20.8 20.7 22.7 23.5 24.2 24.7 25.1 25.5 25.9 26.3 26.7 27.1 27.5 27.6 27.8 27.9 28.1 28.2 28.3 27.9 27.3 26.7 26.5 26.6 26.6 27.1 27.8 28.3 28.5 28.6 29 29.5 29.7 29.1 29.8 29.5 29.7 29.9 30 30.1 30.5 30.9 31.3 31.7 32 32.3 32.6 33 33.4 33.8 35.5 37.1 37.7 38.4 38.5 38.4 38.5 39.2 39.4 38.9 40 40.4 40.3 40.1 39.3 37.2 34.7 32.3 30.6 28.2 25.2 26.2 28.6 30.8 32.4 32.6 32.3 31.9 31.6 30.2 28.8
16 17.1 17.5 18 18.6 18.8 19.3 19.2 19.1 18.5 19 18.4 18.8 19.5 19.9 20.2 21.4 22.7 23.7 24.5 24.3 24 26.2 26.9 27.1 27.1 27.6 28.7 29.6 29.7 30.3 30 30.2 30.6 30.7 29.5 28.3 27.2 26 24.4 22.8 21.2 19.6 17.6 15.6 14.4 13.5 16.3 22.9 29.2 31 32.3 34 35.1 36.2 36.2 36.9 38.8 38 27.8 16.1 14.2 14.4 13.9 13.8 15.1 15.6 15.8 16 16.4 16.7 16.7 16.3 15.9 15.5 15.1 14.9 15 15.5 15.7 17.4 18.8 19.9 20.4 20.7 20.5 20.4 20.3 20.6 21 21.3 21.7 22 22.4 22.8 23 23.2 23.5 23.8 24.2 24.6 25 25.3 25.6 25.3 25 24.7 25.1 25.5 24.8 24.4 25.4 25.9 24.7 21.9 21.4 21 20.5 20 20 20.4 22.4 23.4 24.3 24.8 24.8 25.6 26 26.4 26.8 27.1 27.5 27.9 28.3 28.5 28.7 28.8 29 28.6 28 27.4 26.8 26.8 26.9 27.6 28.1 28.1 28 28.3 28.8 29.7 29.5 29.3 29.2 29.3 29.5 29.8 30 30.1 30.4 30.8 31.2 31.5 31.8 32.1 32.5 32.8 33.2 33.6 34 35.4 36.4 37.1 37.4 36.9 37.2 38.2 38.7 39.2 39.7 39.7 39.3 39 38 35.8 33.8 32 30 27.9 26.4 26.3 29.3 31 32.5 32.9 32.8 32.8 32.7 32.6 31.7
15.4 16.3 16.5 16.8 17.4 17.2 18 18.7 18.8 18.7 18.6 18.7 18.7 19.4 19.3 19.3 20.8 22.3 23.3 24 24.1 23.9 25.5 26.2 26.2 26 26.6 27.3 27.9 28.5 28.6 28.3 28.7 29.1 29.6 28.6 27.4 26.5 25.7 24.6 23.4 22.3 21.2 19.8 17.2 14.9 12.8 15.5 24.3 29.1 32 34.6 36 37.3 37.7 37.8 38.5 39.2 38.9 32.3 21.9 12.2 14.8 14.3 13.6 14.5 15.3 15.9 16.1 16.4 16.6 16.6 16 15.6 15.2 15 15.2 15.3 15.4 14.5 16.4 17.6 19 20.4 20.6 20.5 20.4 20.3 20.5 20.7 20.8 21 21.6 22.6 23.2 23.5 23.7 23.8 23.6 24 24.3 24.7 25.1 25.1 24.7 25 24.8 24.4 24.2 23.8 23.2 24.9 23.2 21.3 20.3 19.7 19.6 20.4 20.9 20.7 20.6 21.2 22.3 23.2 24 25.1 25.7 26.1 26.4 26.8 27.2 27.6 28 28.4 28.8 29.2 29.4 29.6 29.4 28.8 28.2 27.6 27 27.4 27.5 27.6 27.6 27.6 28.2 29.1 29.6 29.3 29.1 28.9 29.2 29.4 29.6 29.9 30.1 30.3 30.7 31 31.3 31.6 31.9 32.3 32.6 33 33.4 33.8 34 34.9 35.8 36.2 35.4 35.8 36.5 37.4 38.2 38.4 38.5 37.6 37.2 35.9 34.5 32.5 31 30.1 29.1 27.5 27 29.1 30.5 32.6 33.2 33.4 33.6 33.6 33.5 33.3
14.9 15.3 15.6 15.8 16.2 15.8 16.4 17.5 18.2 18.9 18.9 18.7 18.5 18.3 18.6 18.7 19.7 21.3 23 23.4 23.8 24.1 23.9 25.1 25.2 25.1 25.2 25.7 26.1 26.5 26.7 26.8 27.2 27.7 28.1 27.7 27.2 26.4 26.1 26.5 25.7 24.5 23.4 20.6 17.1 14.5 12.4 14.7 23.7 28.9 33.1 35.8 37.2 38.7 39.2 38.8 38.3 39.2 39.6 36.6 26.7 15.9 14.1 13.6 13.4 14.6 15.5 14.9 15.6 15.3 16 16.7 15.7 15.3 15.2 15.3 15.4 15.3 15.1 15.7 16.3 17 17.7 19.4 20.6 20 19.4 19 19.2 19.3 20.2 21.2 22.2 23.1 23.8 23.9 23.9 24.2 23.8 23.8 24.2 24.5 24.6 24.5 24.5 23.8 23.8 23.1 22 21.4 22 23.1 21.2 19.9 19.3 20.4 21 22.1 22 21.8 21.6 21.4 22.1 23 24.1 25.3 25.7 26.1 26.5 26.9 27.3 27.6 28 28.4 28.8 29.2 29.6 30 30.1 29.5 28.9 28.3 27.9 27.7 27.6 27.6 27.6 27.6 28.4 29.3 29.4 29.2 29.1 29.3 29.2 29.4 29.7 29.9 30.1 30.3 30.5 30.8 31.1 31.4 31.7 32.1 32.4 32.8 33.1 33.3 33.4 33.7 34.5 35.1 34.2 35 35.9 36.5 36.7 36.9 37.1 36.5 35.2 34 32.9 32 31 30.5 29.8 27.3 27 28.8 31.1 33 33.2 33.5 33.7 33.9 34.1 34.2
15.2 16 15.9 15.7 15.4 15.3 15.9 17.1 17.5 18 18.2 18 17.7 17.5 17.9 19.3 19.5 21.1 21 22.3 22.2 22.1 22.8 24.2 24.2 24.1 24.2 24.7 25.1 25.6 26.1 25.8 26.2 26.7 27.2 28.2 28.6 28.8 28.5 27.9 27.9 26.8 24.8 21.3 17.9 14.3 13.4 13.8 21.6 28.3 32.4 35.4 37.8 39.3 39.9 39.4 38.6 39.1 39.5 39.7 30.2 21 14.2 12.4 13.4 14.8 15.3 14.3 13.8 14.2 14.7 15.1 15 15.1 15 14.9 14.8 14.7 14.7 15.4 15.7 15.9 16.5 18 20.2 19.8 19.4 17.8 18.8 19.8 20.8 21.9 22.8 23.5 24.1 24.1 24.3 24.5 24 23.6 24 24.1 24 24 23.9 23.6 23 22.2 21.5 19.9 19.9 19.8 19.6 20 21 21.9 23.2 23.2 23 22.9 22.6 22 22.3 23.3 24.5 25.5 25.8 26.2 26.6 26.9 27.3 27.7 28.1 28.4 28.8 29.3 29.8 30.3 30.5 30.1 29.8 29.4 28.9 28.6 28.6 28.5 28.4 28.1 28.7 29.4 29.2 29.4 29.6 29.8 29.9 29.6 29.8 30 30.2 30.4 30.5 30.7 30.9 31.2 31.5 31.9 32.2 32.4 32.6 32.9 32.9 33 33.3 34.1 33.6 34.3 34.8 35 35.2 35.4 35.6 35.8 34.2 33 32.4 32.7 32.2 31.3 30.2 28.2 27.1 29.5 31.5 33.1 33.2 33.4 33.8 34 34.2 33.9
14.7 15.3 15.8 16.2 15.5 15.4 15.5 16.7 16.8 16.9 17.3 17.3 17 16.8 17.6 18.5 19.5 20.3 20 20.7 20.6 21.4 21.5 23.7 23.5 23.3 23.3 23.8 24.3 24.7 25.2 25.7 26.2 26.8 27.9 29.2 30.6 31.6 31.9 31.8 30.8 29 25.6 22.1 18.5 14.3 12.9 14 19.9 27.5 31.3 34.6 36.9 38.5 39.4 39.1 38.9 39 39.3 39.6 36 28.1 20.6 13.5 12.9 15 14.7 14 14 14 13.9 13.8 14 15 14.7 14.4 14.2 14.2 14.4 14.7 15 15.2 15.4 16.1 18.2 18.8 18.4 18.7 19.5 20.2 20.9 21.6 22.3 22.9 23.8 24.3 24.7 24.8 24.3 23.8 23.6 23.6 23.5 23.5 23.4 23.4 22.6 21.8 20.5 19 17.9 18.8 20.3 21.8 22.7 23.5 23.9 24.1 24.1 24 23.4 22.9 22.5 23.6 24.8 25.5 26.1 26.4 26.8 27.1 27.5 27.8 28.2 28.5 29.2 29.9 30.3 30.4 30.6 30.6 30.3 30.4 29.9 29.6 29.5 29.5 29.1 28.8 29.1 29.4 29.6 29.8 30.1 30.3 30.4 30.6 29.9 30.1 30.3 30.5 30.6 30.8 30.9 31.1 31.3 31.5 31.7 32 32.2 32.4 32.4 32.6 32.9 33.1 33 33.2 33.4 33.6 33.8 34 34.2 34.4 33.3 33.1 33 32.9 32.4 31.7 30.6 29.4 27.8 30 31.9 33.1 33.2 33.3 33.8 34.1 34.3 33.3
14.5 14.8 15.8 16.3 15.7 15.5 15.4 16.5 15.7 16.3 15.5 15.7 16.6 17.5 17.6 17.6 18.4 18.7 19 19.1 19.9 20.6 20.1 22.3 22.3 23.1 22.7 23.2 23.7 24.2 25.1 26 26.5 27.1 29.5 31.5 32.8 34.7 35.1 35.2 33.8 31.1 27.2 22.9 18.6 14.4 13.5 13.3 16.8 24.3 29.2 33.2 35.1 36.7 37.9 37.7 36.9 37.9 38.5 38.8 38.7 34.8 27 18.6 14.7 12.8 15 14.9 14.8 14.6 14.5 14.1 14.3 14.8 14.7 14.4 14 13.7 13.8 14 14.2 14.4 14.6 14.8 15.7 16.8 18.8 19.2 19.3 19.6 20.3 21 21.7 23 23.5 25.4 25.3 24.2 23.3 23.5 23.8 23.8 23.7 23.7 23.2 23.2 22.4 21.3 19.4 17.9 18.4 20.7 21.5 22.1 22.6 23.5 24.3 24.5 24.8 24.9 24.3 23.8 23.8 23.9 25 25.6 26.2 26.7 27 27.4 27.7 28.1 28.4 28.6 29.9 30.3 30.4 30.5 30.8 31.1 30.8 30.9 31 30.5 30.5 30.2 29.9 29.5 29.4 29.3 29.3 29.2 29.5 30.3 30.6 30.8 31.1 30.2 30.4 30.6 30.8 30.9 31.1 31.3 31.5 31.6 31.6 31.7 31.7 31.9 32.2 32.5 32.8 33.1 33.1 33.3 33.5 33.7 33.9 34.1 34.3 34.5 33.7 33.3 33.2 33.1 32.7 31.9 30.9 29.9 28.8 30.4 32.2 33.1 33.2 33.4 33.6 34.1 33.9 32.7
14.4 14.6 15.8 15.9 15.1 14.8 15.7 15.5 15.8 16.2 16.4 16.4 16.3 16.9 17.4 17.6 18.1 18.4 18.7 19 19.2 19.6 21.2 21.4 23.2 22.5 22.1 22.7 23.6 24.5 25.4 26.2 26.7 28 30.6 33.1 35.1 37.2 37.6 36.6 34.5 29.5 26.5 21.9 18.5 14.6 13.4 12.6 14.8 21.7 27.2 30.9 32.2 34.2 35.3 35.5 34.7 36.5 37.4 38 37.8 37.4 34.7 28.2 20.2 14.8 12.3 14.9 14.8 13.8 13.2 13.2 12.9 14.3 14.6 14.4 14.3 14.5 15 14.4 13.6 13.6 13.6 13.7 14.5 15.6 17.7 19.3 19.3 19.7 20 20.4 21.1 23.2 25 24.7 25.2 24.2 23.3 23.5 23.9 23.9 23.5 23 22.7 23 22.3 20.7 18.4 17.2 19.2 21.3 22.5 22 22.6 23.6 24.6 24.8 25.1 25.4 25.2 24.9 25 25 25 25.6 26.2 26.8 27.3 27.6 28 28.3 28.5 29.1 30.2 30.4 30.5 30.6 30.9 31.3 31.2 31.4 31.5 31.6 31.3 30.9 30.7 30.4 29.9 29.8 29.8 29.7 29.7 30.1 30.4 30.7 31 31.2 30.6 30.7 30.9 31.1 31.3 31.5 31.8 32 32 32 32.1 32.4 32.5 32.7 32.8 33.1 33.3 33.5 33.6 33.8 34 34.2 34.4 34.6 34.5 33.9 33.4 33.3 33 32 31 29.7 28.3 29.8 32.6 33.1 33.2 33.4 33.5 34 34.3 33.5
14.8 14.4 15.2 15.5 15.3 14.6 14.5 14.6 16.1 16.6 16.8 17.2 17 17 17.2 18.2 18.4 18.7 18.9 19.2 19.3 19.8 20.1 20.8 22.2 22.3 22.1 22.9 23.8 24.7 25.6 26.4 27.1 29 31.6 34.2 36.7 38 38 36.1 33.2 29.4 25.5 21.1 18.1 15.6 13.7 12.6 14.9 21.2 25.7 28.1 29.9 30.6 32.4 33.3 33.1 34.9 35.9 36.5 35.8 35.6 35.7 36 34.2 25.3 20.4 16.5 14.3 15.2 17.3 15.2 14.7 14.6 13 14.2 13.2 14.6 14.8 14.4 13.2 13.2 13.4 13.9 14 14.3 16.2 18.8 19.4 19.7 20 20.3 20.6 22.7 24.6 24.5 24.7 24.2 23.4 23.4 23.8 23.3 22.9 22.4 22.5 22.8 21.9 19.7 17.3 17 19.1 20.3 21 20.9 21.6 23 24.4 25.3 25.6 25.9 25.7 25.4 25.3 25.5 25.7 25.7 26.2 26.9 27.5 27.9 28.2 28.6 29.4 29.9 30.4 30.9 30.5 30.7 31 31.5 31.7 31.8 32 32.1 32.3 32 31.7 31.4 30.9 30.3 30.3 30.2 30.2 30.2 30.3 30.6 30.8 31.1 30.7 30.9 31.1 31.3 31.5 31.8 32 32.3 32.4 32.4 32.8 33.1 33.2 33.4 33.5 33.6 33.5 33.6 33.8 34 34.2 34.3 34.5 34.8 34.9 34.5 34.1 33.6 33.4 31.6 30.7 29.2 29.3 31.5 33 34.1 34.5 34.4 34.1 34 34.3 34.4
14.5 14.2 14.3 14.7 15 14.8 14.5 15.7 16.2 16.5 16.7 16.3 17 17.8 17.8 18.5 18.7 19 19.2 19.5 19 20.4 21 21.6 22.2 22.8 22.5 23.3 24.1 25 25.8 26.7 27.9 30 32.6 35 37.7 38.3 36.8 35.1 31.1 27.8 25.3 22.9 20 16.9 14.2 13.3 13.8 17.8 23.2 26.2 27.9 28.2 29.8 30.5 31.5 33.3 34.1 34.3 33.8 34.1 34.5 35.4 35.1 36.3 34.7 31.6 30.7 28.9 27.3 24.5 22.1 19.1 17.2 16.9 14.4 13.3 13.7 14 12.8 13.2 13.4 14.2 14 14.5 14.1 14.9 17.6 19.4 19.5 19.9 20.3 22.2 23.9 24.2 24.2 24.2 23.5 23.4 23.7 23.4 22.3 22 22.3 22.3 20.1 17.9 16.9 17.3 18.8 19.2 19.7 20.2 20.9 22.4 23.9 24.9 25.5 26.1 26 25.6 25.8 26.1 26.3 26.4 26.4 26.6 27.3 28.1 28.7 29.2 29.7 30.2 30.2 30.7 31.4 30.7 31.1 31.6 32.2 32.4 32.6 32.7 32.9 33 32.8 32.3 31.8 31.3 30.8 30.7 30.7 30.7 30.8 30.7 30.7 30.9 31.2 31.1 31.3 31.5 31.8 32 32.3 32.5 32.7 33 33.5 33.8 33.9 34.1 34.1 34.1 34 33.7 33.9 34.1 34.3 34.5 34.7 35 35.2 34.9 34.5 34.1 33.6 32.1 30.4 29.1 30.3 31.8 33.2 34.4 34.9 35.4 35.5 34.6 34.5 34.4
13.6 13.6 14.5 14.1 14 14.4 15.6 15.4 15.8 16.4 16.6 15.9 16.1 17 18.2 18.8 18.9 19.1 19.2 19.4 18.9 19.9 20.4 21 21.6 22.2 22.9 23.7 24.5 25.3 26.1 27.1 28.7 31 33.4 35.8 37.9 38.3 36.6 33.2 28.9 27.3 25.3 23.2 20.6 17.8 15.2 13.6 12.8 16.7 20.9 24.1 26.5 26.7 27.9 28.6 29.7 31.5 32.3 32.4 32.7 33.1 33.4 33.9 35.6 36 35.9 35.8 35.5 34.7 33.6 32.7 31.4 28.1 27 24 20.4 17 14.9 14.5 15.2 14.5 13.3 13 14.6 14.7 14.3 14 13.9 14.9 17.6 19.7 20 21.7 23.1 23.9 23.9 24.2 23.6 23.5 22.5 23.1 21.6 21.3 21.9 20.1 19 18.2 17.5 18.6 19.9 20.4 20.7 20.8 21.6 22.2 23.2 24.2 25.1 25.7 26.3 26.9 26.4 26.7 27 27 27 27.1 27.1 28 28.7 29.3 29.9 30.5 31 30.1 31.1 31.8 31.6 31.9 32.7 32.9 33.1 33.2 33.4 33.6 33.8 33.3 32.8 32.3 31.7 31.2 31.2 31.3 31.4 31.3 31.3 31.3 31.2 31.3 31.5 31.8 32 32.3 32.6 32.8 33.2 33.7 34.1 34.5 34.6 34.6 34.6 34.5 34.4 34.2 34 34.2 34.4 34.6 34.9 35.3 35.6 35.2 34.8 34.4 33.9 33.3 31.6 29.1 30.6 32 33.5 34.1 34.6 35.1 36 35.3 35.2 35.1
14 13.7 14 14.8 15.5 15.7 15.5 15.3 15.2 15.9 16.6 16.1 16.1 16.2 17 18.4 18.6 18.7 18.8 18.9 19 19.3 19.9 20.5 21.2 22 22.4 22.8 23.9 25.1 26.3 27.8 29.5 32 34.5 36.7 38 38.1 35.9 32.9 28.5 27.4 25.2 23.3 21.2 20.2 17.2 13.9 12.4 14.8 18.6 23.3 25.3 26 26.5 27.2 28.2 29.7 30.6 31.1 31.1 31.3 31.8 32.3 34 34.2 34.7 35.1 34.5 33.7 32.9 33.8 34.2 34.4 33.8 31.7 26.7 21 16.9 15.4 16 15.1 14 13.1 12.9 13.3 14.8 13.6 13.4 13.4 15.6 16.5 19.7 21 22.4 23.2 23.6 23.8 23.7 22.2 21.7 21 18.8 19.4 18.7 17.2 18.6 20.1 19.2 18.8 21.1 21.3 21.3 21.3 22.2 22.5 22.7 23.7 24.7 25.4 26 26.8 27.3 27.6 27.6 27.7 27.7 27.5 27.7 27.8 28.6 29.2 29.8 30.4 30.9 30.9 31.9 31.7 31.8 32.3 33 33.3 33.5 33.7 33.9 34.1 34.4 34.3 33.8 33.3 32.8 32.2 31.8 31.9 31.9 31.9 31.9 31.8 31.8 32 31.9 32.2 32.4 32.7 33 33.2 33.7 34.2 34.8 35.2 35.2 35.1 35 35 34.9 34.7 34.4 34.3 34.5 34.7 35.1 35.6 36 35.6 35.2 34.7 34.1 33.5 32.1 29.3 30 31.5 32.8 33.7 34.2 34.8 35.3 36.2 35.9 36.3
13.9 14 14.2 14.5 14.8 15.7 15.6 15.3 15 15.3 16.9 16.4 16.4 16.4 16.4 17.2 18.1 18.2 18.3 18.4 18.6 18.8 19.4 20.2 21.1 21.9 22.4 22.8 24.4 25.7 27 28.6 30.6 33.2 35.8 37.5 38.1 37.4 35.9 32.9 28.5 27.3 25.5 23.5 22.1 21.1 17.4 14.5 12.7 14.8 18.3 22.1 24 25.3 25.6 26.2 26.8 27.9 29 29.9 30.1 29.8 29.7 30.5 31.8 31.7 32.1 32.5 32.7 31.9 31.4 32.6 33.7 34 33.7 32.8 26.2 21.4 19 17.3 15.1 14.7 14.2 13.6 13.5 14 13.5 13.1 13 13.2 11.2 13.1 16.2 18.8 21.1 22.6 22.3 21.7 19.4 18.3 17 17 15.3 15.5 16.6 17.6 18.3 19.7 20.3 19.5 20.7 22.4 22.5 22.1 22.6 23.5 23.8 23.3 24.3 25 25.9 26.8 27.2 27.6 28 27.9 27.7 27.7 28.4 28.9 28.5 29.2 29.7 30.2 30.7 31.6 32 32.1 32.2 32.9 33.4 33.8 34 34.2 34.4 34.7 35 35.2 34.8 34.3 33.8 33.2 32.5 32.5 32.5 32.5 32.5 32.5 32.6 32.8 32.6 32.6 32.8 33.1 33.4 33.6 34.2 34.7 35.3 36.4 36.3 36 35.7 35.4 35.3 35.1 34.9 34.7 34.7 35 35.4 35.8 36.3 35.9 35.4 34.9 34.3 33.7 31.9 29.5 30.1 30.8 32 33.1 33.7 34.4 35.4 36.3 37.3 37.7
14.8 14.6 14.3 14.3 14.4 15.6 14.9 15.4 15.7 15.5 16.7 16.7 16.6 16.5 16.9 17.6 17.4 17.7 17.9 18 18.1 18.4 19.3 20.1 21 21.8 22.7 22.3 23.6 26 28.1 30.3 32.3 34.9 36.6 37.3 38 36.9 35.6 32.8 28.8 27.4 25.6 23.9 22.6 21.4 18 14.6 13 15 17.2 20.2 22.6 24.4 24.8 25.2 25.9 26.6 27.5 28.6 29.1 28.8 28.5 29.5 29.6 29.4 29.3 30.1 30.4 30 30.2 31.5 32.5 33.1 32.7 29.4 24 23 20.8 18.6 17.2 15 14.5 14.2 14.2 13.9 13.8 14.2 14.3 15.1 15.6 15.1 12.5 14.6 17.1 20.2 20.5 15 15.1 14.9 16.3 17.1 17.3 18 19.6 20.3 21.1 21.5 21.4 21.1 20.7 22.4 23 22.5 23.3 24.2 24.7 24.5 24.2 24.8 25.8 26.8 27.2 27.7 27.9 27.7 27.7 27.9 28.2 28.7 29.4 29 29.8 30.2 30.7 31.5 32.3 32.5 32.6 33.7 33.8 34.2 34.4 34.6 34.9 35.2 35.5 35.9 35.9 35.4 34.8 34.2 33.5 33.1 33.1 33.1 33.1 33.2 33.4 33.6 33.5 33.3 33.2 33.5 33.8 34.1 34.7 35.4 36.5 37.6 37.4 37.4 37.4 36.6 35.9 35.7 35.5 35.2 35 35.2 35.7 36.1 36.6 36.2 35.6 35 34.5 33.9 31.8 29.9 30.3 31.1 32 32.9 33.7 34.7 35.8 37 38.6 39.1
14.4 14.5 14.9 14.6 14.6 15.7 14.9 14.8 15.7 16.4 17 16.8 16.7 16.7 17.4 18.1 18 17.7 17.4 17.5 18 18.6 19.2 20.1 20.9 21.8 22.6 23.3 23.6 26.1 28.5 31.3 34.2 35.5 36.5 37.3 38.1 37.3 35.7 32.2 28.3 27.1 25.7 23.9 22.8 21.7 19.7 15.5 13.2 14.9 16.4 19.7 21.5 23.4 23.9 24.5 25.3 26.2 26.9 28 28.3 28.1 27.8 28.1 27.6 27.4 27.7 28.6 28.3 28.1 29.4 30.4 30.4 30.3 28.5 25.7 22.4 21.6 20.6 19.5 17.3 16 15.1 15.9 14.4 14 14 14.5 14.4 14.5 15 14.8 15.1 14 12.1 14.3 14.4 15.4 17.1 19.7 20.6 21.2 20.9 21.2 22 22 22 22.1 22.1 21.9 21.7 22.4 23.2 23.1 24 24.8 25.1 25.3 25 24.6 24.8 26.8 27.4 27.8 27.8 27.7 28 28.2 28.4 28.7 29.1 29.1 29.3 30.2 31.1 31.8 32.6 32.8 33 34.4 34.4 34.7 34.9 35.2 35.5 35.8 36.1 36.4 36.6 36.4 35.9 35.2 34.5 33.8 33.7 33.7 33.9 34 34.2 34.3 34.3 34.1 34 33.9 34.1 34.6 35.4 36.5 37.6 38.6 38.2 37.6 37.4 36.9 36.7 36.4 36.2 36 35.7 35.5 35.8 36.2 36.6 36.5 35.9 35.3 34.7 34.1 32.6 31.1 30.7 31.6 32.5 33.7 34.7 35.3 36.2 38.4 39.8 40.5
13.8 14 14.1 14.7 14.9 14.6 14.4 15 15.7 16.4 17.2 17.1 16.7 17.2 17.9 18.5 18.6 18.3 18.3 17.8 18.1 18.7 19.2 20 20.9 21.7 22.5 23.7 23 26.2 28.9 31.6 35.6 36.7 37.4 37.9 38.4 36.9 34.1 29.5 26.9 26.6 25 23.8 22.7 21.6 19.8 15.7 13.8 14.8 17.9 21.3 22.9 23.5 24.1 24.7 25.3 25.9 26.6 27.3 27.4 27.4 27 26.5 25.6 25.7 26.4 27.2 26.8 26.3 28.4 28.3 28.2 26.5 24.4 22.5 21.4 20.3 19.5 19.1 18.7 17.5 16.4 16.2 15.4 14.8 14.4 14.8 14.6 14.4 14.4 14.2 14.1 14.1 14.1 13.5 12.7 15.7 20.7 21.8 22.8 22.5 22.4 22.3 21.5 22.6 22.6 22.7 22.7 22.7 22 22.5 23.2 23.8 24.6 25.2 25.4 25.7 25.8 25.6 25.5 26.4 27.5 27.8 27.7 28 28.2 28.5 28.7 29 29.4 30.1 29.9 29.6 30.3 30.9 31.4 33 34 34.6 35 35.2 35.5 35.8 36.1 36.4 36.7 37 37.3 37.4 36.9 36.2 35.5 34.8 34.3 34.5 34.6 34.8 35 35.1 35.2 35 34.8 34.6 34.5 35.5 36.6 37.7 38.8 39.4 39 38.3 38.1 37.7 37.4 37.2 37 36.7 36.5 36.2 35.8 36.1 36.4 36.6 36.2 35.8 35.2 34.3 32.7 31 31.6 32.6 33.5 34.3 35.1 36 37.4 39 40.6 41.7
13.4 13.5 13.6 13.8 13.9 14 14.5 15.1 15.8 16.5 17.2 17.7 17.8 18.1 18.4 19 19.2 19.4 19.3 18.5 18.6 18.9 19.4 19.9 20.8 21.6 22.4 23.6 24.1 24.8 28.5 31.9 35.3 36.8 37.8 37.8 36.3 33.8 30.5 27.5 26.1 25.4 23.7 23 21.8 20.7 19 14.3 13.3 14.3 18.1 22 23.2 23.8 24.3 24.9 25.5 25.7 26.3 26.3 26.4 26.5 26.1 25 24.3 24.5 25.2 25.6 24.6 25.2 25.9 25.9 24.9 23.1 21.9 21.1 20.1 19.8 19.5 19.7 18.8 18.2 17.6 17.2 16.7 16.1 15.5 14.8 14.2 13.8 13.9 13.9 13.9 13.9 13.9 14.1 14.2 12.7 16.2 22.2 23.3 23.4 23.4 21.7 22 22.9 23.2 23.2 23.2 23.3 22.7 22.7 23.4 24.2 25.2 25.6 25.9 26.1 26.5 27 26.9 26.7 27.6 27.7 28 28.3 28.5 28.8 29.1 29.4 30 30.6 31.3 31.1 30.8 31.3 30.9 31.5 33.4 34 34.6 35.3 35.9 36.3 36.7 37 37.3 37.6 37.9 38 37.9 37.2 36.7 36.2 35.8 35.5 35.4 35.6 35.8 35.9 36 35.8 35.6 35.7 35.1 35.7 37 38.3 39.7 40 39.4 39 39.2 38.7 38.2 37.9 37.7 37.5 37.2 36.8 36.4 36 36.3 36.7 36.4 35.9 35.5 34.3 32.6 31.2 32.1 33.6 34.5 35 35.7 37.4 38.8 40.4 41.9 43
13.5 13.8 14 14.1 14.3 14.4 14.6 15.3 16 16.7 17.5 18 18.4 18.8 19.1 19.5 20 20.7 20.1 19.3 19 19.3 19.6 20 20.7 21.5 22.5 23.1 24 22 28.1 31.8 34.3 36.1 37.3 37.4 36.7 35.2 32.6 29.9 26.1 22.5 22.5 20.7 19.1 17.4 14.8 13.7 12.8 14.7 19.3 23.5 23.6 24 24.6 25.2 25.5 25.6 25.3 25.2 25.3 25.3 25 24.6 24 23.1 23.9 23.9 22.6 23.4 23.4 23.7 21.8 21.2 20.6 20.1 19.8 19.6 19.3 19.4 18.8 18.3 17.7 17.7 17.1 16.3 15.5 14.8 14 13.6 13.4 13.5 13.5 13.5 13.5 13.9 14 13.9 12.7 17.7 22.6 22.9 22.4 21.4 22.4 23.2 23.6 23.7 23.7 23.7 23.2 23 23.6 24.4 25.5 26.1 26.4 26.7 27.2 27.7 28.2 28 27.8 28.1 28.3 28.6 28.9 29.2 29.5 29.8 30.5 31.2 31.8 32.2 32.2 32.4 31.6 31.9 33.2 33.5 34.6 35.3 36 36.5 36.9 37.4 37.8 38.2 38.5 38.7 38.7 38.9 38.5 38.1 37.6 37.2 37 36.8 36.6 36.7 36.9 36.7 37.3 36.7 35.8 35.8 36.6 38.2 39.8 40.5 40 40.1 40.2 40 39.4 38.9 38.4 38.2 37.8 37.4 37 36.6 36.2 36.5 36.5 36.1 35.4 33.8 32.4 31.7 32.7 34.2 35 35.6 36.6 38.5 40.2 41.7 42.9 44.1
13.7 14.1 14.3 14.4 14.5 14.6 14.8 15.7 16.4 17.2 17.8 18.2 18.6 18.9 19.3 19.7 20.2 20.7 20.7 20.1 19.5 19.8 20.1 20.4 20.7 21.5 22.3 23.1 23.9 24.6 26.3 29 31.5 34 36.3 36.8 36.7 34.5 30.7 24.9 22.2 20 16.2 15.5 14.9 13.8 13.5 13.5 13.5 16.6 21.5 23.4 24.1 24.4 24.9 25.3 25.4 25.4 24.4 24.3 24.3 24 23.6 23.1 23 22.1 23 22.4 21.7 22.1 20.7 21.2 20.8 20.4 20 20.3 20.1 19.8 19.6 19.7 19.5 18.9 18.8 17.9 17.1 16.3 15.5 14.8 14 14.1 13.5 13 13.1 13.1 13.1 13.8 13.8 13.9 13.6 12.7 17.7 21.9 21.5 21.8 22.8 23.5 23.9 24.1 24.2 24 23.4 23.8 24.7 24.8 25.6 26.6 26.9 27.3 27.9 28.3 28.8 28.9 28.7 28.5 28.7 29 29.3 29.6 29.8 30.4 31 31.7 32.3 32.5 33.2 32.6 32 33 33.7 33.5 33.3 34.7 36 36.6 37.1 37.5 38 38.4 38.9 39.2 39.2 39.4 39.6 39.8 39.5 39.1 38.7 38.5 38.3 38.1 37.9 38.6 38.6 37.7 36.7 36.1 37 38.3 39.8 41.1 40.8 41.1 41.3 41.2 40.7 40.1 39.6 38.8 38.4 38 37.6 37.2 36.7 36.4 36.7 36.2 34.9 33.2 32 32.2 33.2 34.7 35.5 36.1 37.7 39.6 41.4 42.7 43.9 45.1
13.4 14.2 14.5 14.7 14.8 14.9 15 16.2 16.9 17.7 18 18.4 18.7 19.1 19.4 19.8 20.3 20.6 20.7 20.7 20.2 20.3 20.6 20.9 20.9 21.1 21.8 22.5 23.2 23.9 21.5 26.4 28.4 30.9 33.5 34.1 33.4 30.9 25.4 19.7 16.1 14 13.1 12.2 12 12.2 12.3 13.1 15.6 19.4 21.8 22.6 23.5 24.3 25.1 25.1 25.1 25.1 23.9 23.2 23.1 22.5 22 21.5 21.5 21.5 21.4 21.4 20.8 20.7 20.9 20.7 20.3 19.9 20.1 20.3 20.3 20.1 19.9 19.8 19.6 19.4 19.2 18.2 17.2 16.4 15.6 14.8 14.4 14.6 14.1 13.5 12.9 12.7 12.7 13.6 13.7 13.4 13.6 13.8 13.5 18.6 21.4 22.3 23.2 23.7 24.2 24.6 24.6 24.3 24.3 24.6 25.4 26.3 26.8 26.9 27.5 27.9 28.4 28.9 29.3 29.8 29.5 29.3 29.1 29.4 29.7 29.9 30.3 30.9 31.6 32.3 32.5 32.8 33.6 33.1 32.7 33.9 34.7 34.5 34.5 33.2 34.8 36.3 37.3 37.8 38.4 38.9 39.4 39.6 39.7 39.9 40.1 40.3 40.5 40.7 40.5 40.2 40 39.9 39.7 39.8 40 39.3 37.8 36.6 37.6 38.9 40.2 41.5 41.9 42.2 42.3 42.2 41.9 41.4 40.7 39.8 38.9 38.7 38.2 37.8 37.4 36.9 36.7 36.1 34.1 32.7 32.1 32.1 33.3 35 35.9 36.9 38.7 40.4 42.1 43.8 45 46
13.4 14 14.6 15 15.1 15.1 15.2 16.3 17.4 17.8 18.2 18.5 18.9 19.2 19.6 20 20.3 20.6 20.6 20.7 20.7 20.7 20.7 20.6 20.8 21 21.3 22 22.7 23.4 24.4 25 26.4 27.9 29.5 29.9 29.8 26.1 21 17.4 13.6 12.6 12.9 13 14.2 14.8 16.1 17 17.3 20.7 21.9 21.9 22.7 23.3 23.9 24.2 24.2 24.2 23.2 22 21.6 21.4 21.1 21 21 20.9 20.9 21.1 20.9 19.9 20.1 20.3 19.8 19.4 20.1 20.3 20.5 20.3 20.2 20 19.8 19.5 19.2 18.3 17.4 16.6 15.6 14.8 14.9 15.2 14.6 14 13.4 12.8 12.3 13.4 12.8 13 13.3 13.8 13.7 14.8 20 22.3 23.6 24 24.5 25 25.1 25 25.2 25.4 26.2 27 27.3 27.8 28 28.5 29 29.4 29.9 30.3 30.4 30.2 30 29.8 30 30.3 30.8 31.5 32.1 32.8 32.7 33.1 33.9 33.6 33.7 34.9 35.7 35.6 35.6 35.6 36.1 36.5 37.1 37.9 38.6 39.4 40 40 40.2 40.4 40.6 40.8 41 41.3 41.5 41.7 41.6 41.5 41.4 41.2 40.9 39.8 38.7 37.4 38.1 39.4 40.6 41.8 42.5 43.2 43.4 43.3 43.2 42.5 41.6 40.7 39.8 39 39 38.4 37.9 37.5 37.1 35.2 33.2 32.6 32.4 32.3 33.3 35.2 36.3 37.6 39.3 41.1 42.8 44.5 46.1 46.4
13.5 13.9 14.3 14.8 15.3 15.4 15.5 16.2 16.9 17.5 18 18.6 19 19.4 19.8 20.1 20.3 20.6 20.6 20.6 20.3 20.5 20.4 20.5 20.7 20.9 21.1 21.5 22.2 22.9 24 21.8 24.5 25.6 25.7 26.1 25.7 23.1 17.9 13.1 12 12.8 14.9 16.5 18.5 18.8 18.8 19.7 20.2 22 22 21.7 21.8 22 22.6 23.2 23.3 23.2 22 21.1 21.1 20.8 20.6 20.5 20.5 20.5 20.5 20.4 19.9 19.3 19.5 20 20.2 19.7 20.1 20.3 20.5 20.5 20.4 20.1 19.9 19.6 19.3 19 17.4 16.6 15.8 15.1 15.2 15.6 15.1 14.5 13.9 13.4 13.1 12.1 12.4 12.9 13.6 14.1 14.1 12.8 14.3 22.9 23.4 24 24.6 25.1 25.6 25.8 26 26.2 27 27.5 28 28.7 28.8 28.9 29.4 29.9 30.4 30.9 31.3 31.1 30.9 30.7 30.5 30.7 31.3 32 32.7 33.4 32.9 33.3 34.2 34.1 34.7 35.9 36.7 36.6 36.6 36.5 35.8 36.2 36.8 37.6 38.4 39.1 39.6 40.5 40.9 41.1 41.4 41.6 41.9 42.1 42.3 42.6 42.7 42.6 42.5 42.4 41.3 40.2 39.1 38.2 39.1 40.5 41.7 42.8 43.5 44.1 44.6 44.5 44.2 43.4 42.5 41.6 40.7 39.8 39.1 39 38.8 38.1 36.5 34.3 33 33.5 33.4 33.6 33.2 34.9 36.6 38.2 39.8 41.6 43.5 45.2 46.6 47
12.9 13.3 13.7 14.2 15 15.7 15.8 15.9 16 16.6 17.1 17.7 18.2 18.7 19.2 19.7 20.1 20.2 19.9 19.6 20 20.1 20.2 20.4 20.7 20.9 21.1 21.3 21.7 22.6 22.6 21.6 22.5 23 23.2 23.3 22.1 21.5 15.3 12.6 12.3 15.5 18.2 19.1 19.8 19.8 19.7 20.6 21.7 21.8 21.5 21.2 21.4 21.5 21.6 21.9 22.4 22 21.1 20.4 20.4 20.3 20.1 20.1 20.1 20.3 20.4 20.3 19.7 19.3 19.5 20 20.4 19.8 20.2 20.4 20.6 20.7 20.4 20.1 19.8 19.5 19.2 18.5 17.6 16.8 16 14.7 14.8 15.9 15.8 15.4 15.1 14.7 14.3 12.8 13.2 13.5 13.5 13.5 13.5 13 13.3 17.3 23 24 24.9 25.7 26.4 26.6 26.9 27 27.8 28.3 29.1 29.5 29.6 29.7 29.8 30.3 30.8 31.3 31.8 31.9 31.8 31.6 31.4 31.4 31.9 32.6 33.2 33.6 34.2 34.4 34.5 34.6 35.7 36.9 37.7 37.7 37.6 37.5 37 36.1 36.4 37.3 38.1 39.1 40 40.8 41.6 42 42.2 42.5 42.7 42.9 43.2 43.4 43.7 43.6 43.5 43.2 42 40.5 39 38.1 39.5 41.5 43.2 44.1 44.7 45.2 45.8 45.6 45 44.4 43.4 42.5 41.6 40.7 39.8 39.1 39.1 39.3 33.9 34.8 34.1 35.6 35.6 34.5 33.2 34.9 35.8 37.9 40.3 42 43.9 45.5 46.4 46.5
13.1 13.1 13.1 13.6 14.3 15.1 15.4 15.5 15.9 16.7 16.9 17 17.1 17.6 18.1 18.6 18.5 18.7 19 19.4 19.7 20 20.2 20.4 20.6 20.8 21 21.2 21.4 21.5 21.7 21.8 21.5 22.2 22.6 22.1 21.5 19.2 14.7 12 12.5 15.7 18.8 19.7 20.2 20.3 20.5 20.8 20.1 19.5 21 20.7 20.9 21.1 21.2 21.4 21.5 21.1 20.3 19.6 19.6 19.6 19.8 19.9 20 20.1 20.2 20.1 19.5 19.6 19.8 20.1 20.6 20 20.4 20.5 20.3 20.5 20.2 19.9 19.6 19.4 19 17.9 17.8 17.6 16.7 15.7 15.2 15.8 15.7 15.6 15.4 15.2 14.4 12.6 13.1 13.5 13.5 13.5 13.1 12.9 12.7 14 23.4 24.7 25.6 26.4 27.1 27.4 27.6 27.9 28.5 29.4 30.2 30.3 30.4 30.5 30.6 30.7 31.2 31.7 32.3 32.8 32.6 32.5 32.6 32.6 32.6 33.4 34.3 33.8 35 36.1 35.6 35.6 36.8 38 38.7 38.6 38.5 38.4 38.2 37.2 36.5 37.4 38.4 39.4 40.3 41.1 41.9 42.6 43 43.3 43.5 43.8 44 44.3 44.5 44.6 44.3 43.7 42.5 41.3 39 39.4 40.9 42.5 44.2 44.5 45.2 46.3 46.6 46.4 45.9 45.3 44.4 43.5 42.6 41.7 40.7 39.8 39.2 33.9 36.9 37.5 36.3 37.5 36.4 35.4 33.7 34.2 34.9 37.1 39.4 41.8 43.8 44.3 44 42.9
12.7 12.8 12.8 13.1 13.7 14.4 14.7 15.2 16.3 17.4 17.6 17.7 17.9 18.1 18.3 18.7 19.1 19.1 19.5 19.8 20.1 20.5 20.3 20.5 20.7 20.9 21.1 21.3 21.3 22.2 22 22.1 21.2 22.9 24.9 20.6 20.2 18 14.7 11.4 12.7 17.1 19.2 19.8 19.7 19.9 20 19.6 18.4 17.9 19.5 20.2 20.4 20.7 20.8 21 20.7 20.2 19.6 18.8 18.8 19.1 19.3 19.4 19.8 19.9 20 19.9 19.7 19.8 20 19.6 19.3 20.3 20.3 20 20.3 20.4 20.1 19.8 19.5 19.2 18.2 18.1 18 17.8 17.7 16.6 15.5 15.8 15.6 15.5 15.4 15.1 15 13 13.7 13.6 13.6 13.6 13.6 13.7 13.6 12.5 18.7 25 26 27 27.8 28 28.3 28.8 29.6 30.5 30.9 31 31.1 31.2 31.3 31.5 31.6 32.2 32.7 33.3 33.6 33.4 33.2 33.1 32.9 33.3 34.5 33.9 35.4 37.1 36.3 37.1 38.3 39.4 39.5 39.4 39.3 39 38.6 37.8 37.2 37.8 38.8 39.8 40.6 41.4 42.2 43 43.7 44.1 44.4 44.6 44.8 45.1 45.4 45.3 45 44.4 43 41.6 39.7 40.3 42.3 43.8 45.6 45.9 46.7 46.9 47.1 47.4 46.8 46.2 44.9 44.5 43.5 42.6 41.5 40.5 33.9 33.9 37 38.5 38.6 38.3 37.7 36.4 35.4 34.2 34 36 37.8 39.6 41.2 41.2 40.3 39.4
12.4 12.5 12.8 13.1 13.4 13.8 14.4 15.6 16.7 17.7 18.4 18.9 19.1 19.3 19.6 20.1 19.9 19.8 19.9 20.3 20.5 21 21 20.8 20.7 21 21.2 21.4 21.1 21.5 22.8 26.9 24.8 21.2 20.5 20.4 20.2 18.4 15.9 12 12.3 16.5 18.6 18.1 17.2 16.1 15.7 16.6 16 16.2 16.7 19.7 19.9 20.3 20.5 20.2 19.7 19.2 18.7 18.1 18.3 18.8 19.1 18.6 19 19.4 19.8 19.7 19.8 19.3 18.7 18.4 18.7 19.4 19.7 19.9 20.2 20.2 19.9 19.6 19.3 18.6 18.5 18.3 18.2 18.1 17.9 17.6 16.1 15.7 15.5 15.2 14.8 14.5 13.8 14.3 13.7 13.6 13.6 13.7 13.8 13.9 14 13.9 14.4 23.4 26.4 27.6 28.4 28.7 29 29.9 30.8 31.6 31.7 31.8 32.1 32.3 32.5 32.7 32.6 32.9 33.4 33.9 34.6 34.4 34.2 34 33.8 33.8 34 35.1 35.6 37.8 36.9 38.4 39.9 40.2 40.2 40.1 39.7 39.4 39 38.4 37.9 38.3 39.1 40.1 41 41.7 42.5 43.3 44 44.8 45.2 45.5 45.8 46.1 46.1 45.9 45.5 44.9 43.7 41.8 40.8 41.3 43.5 45.2 46.7 47.1 47.3 47.4 47.6 47.8 47.7 47.1 46.3 45.3 44.1 42.6 41.6 40.2 33.9 37 37.8 38.9 39.4 39.1 38.6 37.9 37.1 36.2 34.8 34.8 35.4 37.2 38.5 38 37.9 37.5
12.6 12.7 13 13.3 13.6 13.9 14.8 16 16.9 17.7 18.4 19.1 19.7 20.2 20.8 20.6 20.7 20.6 20.5 20.7 20.9 21.4 21.6 21.4 21.2 21.1 21.2 21.5 20.9 22.8 22.7 23.6 20.9 20.8 20.3 19.9 19.8 18.5 15.1 12.6 11.9 14.6 14.7 14.1 13.4 12.5 13.1 13.9 13.4 13.3 14 17 17.9 18.7 19.7 19.2 18.7 18.2 17.6 17.4 18.2 18.5 18.8 18.2 18.3 18.8 19.3 19.5 18.6 18.4 18.3 18.8 18.2 19.1 19.1 19.9 20.1 20.1 19.8 19.4 19.1 18.8 18.7 18.5 18.4 18.3 18.1 17.9 16.3 15.6 15 14.6 14.3 13.7 13.2 13.5 13.5 13.5 13.4 13.5 13.6 13.7 13.8 14.4 13.9 21.1 27 28.3 29.1 29.4 30.1 31 31.9 32.5 32.9 33.1 33.3 33.5 33.7 33.7 33.7 33.8 34.1 34.7 35.5 35.5 35.3 35.1 35.1 35.3 35.4 35.9 36.6 37.6 38.6 38.1 39.9 39.9 40.2 40.8 40.2 39.7 39.3 39 38.7 39.1 39.5 40.4 41.3 42 42.8 43.6 44.4 45.3 46.1 46.4 46.7 47 46.8 46.7 46.1 45.5 44.5 42.2 42.6 43.2 45.1 46.9 47.6 47.6 47.8 47.9 48.1 48.3 48.6 48 47.2 46.1 44.7 42.8 40.7 39 37.6 37.8 38.9 40 40 39.4 38.5 37.8 37.1 36.8 35.9 35.5 35.9 35.6 36.5 36.5 36.2 36.2
13 13.1 13.4 13.7 14 14.2 15.2 16.1 16.8 17.6 18.3 19 19.7 20.4 21.1 20.1 20.6 20.7 21 22.1 21.7 21.7 22.2 22.1 21.9 21.7 21.5 21 21 21.3 21.2 21.1 21.2 20.7 20.1 19.4 18.9 17.7 15.6 13.1 12.6 12.5 12.5 12.5 12.4 12.4 12.3 12.4 12.4 12.5 12.5 14.3 15.3 15.3 15.6 16.3 16.9 16.3 15.1 16.3 16.9 17.4 16.8 17.6 18 18.6 18.8 18.9 18.8 18.6 18.6 18.7 18.7 19.3 19.3 19.6 20.1 19.9 19.6 19.1 18.9 18.8 18.6 18.5 18.4 18.3 18.2 17.6 16.7 15.9 15.3 14.7 14.2 14.1 12.7 13.4 13.4 13.3 13.3 13.3 13.4 13.5 13.7 14.6 13.3 19.4 26.6 28.9 29.8 30.4 31.2 32 32.8 32.9 34.1 34.3 34.5 34.8 34.8 34.8 34.7 34.8 35.1 35.5 36.2 36.6 36.4 36.2 36.4 36.5 36.2 36.1 36.4 37.4 38.4 38.6 39 39.2 40.4 41.5 41.2 40.6 40.1 39.5 39.4 39.8 40.2 40.8 41.6 42.5 43.4 44.4 45.3 46.3 46.9 47.3 47.7 47.8 47.7 47.7 47 46.3 45.3 42.7 44.2 45.6 47.1 48.8 48.6 48.5 48.4 48.4 48.6 48.8 49.3 48.9 47.9 46.8 45 42.2 40.2 38.4 38.2 39 40 40.8 40.3 39.3 38.6 38.1 37.7 37.3 37 36.4 36.1 35.7 35.7 36 36.2 36.5
13.2 13.5 13.8 14.1 14.3 14.6 15.3 16 16.8 17.6 18.3 19 19.7 20.4 20.5 20.1 21.1 22 22 21.7 22.7 23 22.8 22.5 22 21.6 21.1 21 20.6 20.6 20.6 20.8 20.7 20.7 18.3 17.3 16 14.5 12.5 11.9 11.4 12.5 12.4 12.5 12.6 12.4 12.3 12.3 12.4 12.4 12.5 12.5 12.6 12.8 13 13.5 14.1 13.9 14.1 14.1 14.3 14.6 14.9 16.3 17.7 18.1 18.3 17.3 17.6 18.4 18.7 18.8 19 19.4 19.6 19.8 19.9 18.8 18.8 18.8 18.5 18 17.8 17.7 17.5 17.1 17 17.7 17 16.2 15.6 15 14.7 13.5 14.3 13.2 13.2 13.2 13.2 13.2 13.2 13.3 13.9 14.4 13 17.6 25.8 28.8 30.6 31.4 32.2 33 33.7 33.4 34.8 35.6 35.8 35.9 35.9 35.8 35.8 35.8 36.2 36.6 37 37.7 37.5 37.5 37.6 37.4 37.1 36.6 36.2 37.3 38.2 38.1 38.3 39.4 40.6 41.7 42.3 41.6 41 40.4 40.3 40.7 41.1 41.5 42.3 43.4 44.4 45.3 46.3 47.3 47.7 48.1 48.4 48.6 48.6 48.6 48 47.2 45.7 44.1 44.1 47.4 49.4 49.9 49.6 49.5 49.4 49.3 49.2 49.3 49.7 49.6 48.6 47.2 44.1 41.7 39.7 38.3 39.7 40.5 41.2 41.3 40.9 40.4 39.9 39.4 38.8 38.3 37.7 37 36 35.9 36.2 36.4 36.7 36.9
13 13.4 14.2 15 15.4 15.5 15.5 17 17.5 17.9 18.4 19.1 19.8 20.5 21 21.4 21.7 21.9 22.4 22.3 22.2 22.5 22.2 21.7 21.1 20.6 20.1 20.3 20.4 20.1 20.1 20.4 20.3 17.9 17.2 12.4 12.2 12.7 12.2 12.3 11.5 12.4 12.5 12.6 12.6 12.3 12.3 12.3 12.4 12.4 12.5 12.7 12.6 12.8 12.9 13.1 13.2 13.3 13.7 13.8 14.3 14.5 14.6 14.4 15.7 16.9 15.8 16.1 17.8 18.5 18.7 18.6 18.6 19.1 19.4 19.4 18.7 18 18.3 18.5 18.4 17.3 17 17 17.1 17.2 16.9 17.1 16.8 16.5 15.8 15.5 15.1 13.4 13.4 13.1 13.1 13.1 13.1 13.1 13.1 13.1 13.4 14.2 12.9 17 26.6 29.8 30.6 31.4 32.5 33.7 34.8 34.9 35.5 36.7 37 36.9 36.9 36.9 36.8 36.8 37.2 37.7 38.1 38.5 38.7 38.6 38.4 38.2 37.9 37.6 37.4 37.2 37.7 38.5 39 39.4 40.3 41.5 42 42.4 41.9 41.3 41.2 41.6 42.1 42.5 42.5 43.7 45 46.3 47.3 48.2 48 48.9 49 49.2 49.4 49.5 49.1 48.2 47 45 47.1 51.1 51.5 51 50.6 50.4 50.4 50.3 50.2 50.1 50.1 49.7 47.7 45.5 43.3 41 39.5 39.4 40.7 41.5 41.9 41.8 41.4 41.5 41.2 40.7 40.1 39.4 38.8 37.3 36.2 36.6 36.7 36.9 37.1 37.4
12.7 13.1 13.7 14.5 15 15.9 16.3 16.7 17.7 18.4 19.7 19.8 19.9 19.9 20.6 21.4 21.6 21.8 22.2 22.8 21.7 21.9 21.4 20.8 20.2 19.6 19.2 19.6 19.9 19.4 18.7 16.3 12.3 13.1 19.7 11.7 11.6 11.9 12.1 12.6 12.5 12.6 12.7 12.8 12.5 12.3 12.3 12.4 12.4 12.5 12.7 12.7 12.6 12.7 12.9 13 13.2 13.3 13.2 13.4 14.1 14.5 14.5 14.3 14.1 14.6 14.5 15 16.9 17.1 16.6 17.6 17.8 18.3 18.7 18.7 17.7 17.1 17.4 17.8 18.1 17.5 17.1 17.3 17.4 17.5 16.8 16.3 16.1 16 15.8 14.9 14.4 13.2 13.3 13.1 13.1 13.1 13.1 13.1 13.1 13.4 13.8 15 13.2 19.9 29.8 30.9 31.6 32.4 33.6 34.7 35.7 36.2 36.6 37.6 38.3 38.5 38.5 38.6 38.4 38.2 38.4 38.8 39.2 39.6 39.8 39.8 39.7 39.5 39.4 39.2 39 38.5 38.9 39.4 39.9 40.3 40.6 40.9 41.3 41.7 42.1 42.2 42.1 42.7 43.3 43.5 43.1 43.9 45.2 46.4 47.7 48 49.4 49.5 49.7 49.8 50 50.2 50.1 48.8 46.7 47.2 50.5 53.1 52.8 52.3 51.8 51.4 51.3 51.3 51.4 51.5 51.4 48.8 46.4 44.2 42.3 40.7 39.6 40.9 41.5 42 42.4 42.5 41.6 41.2 41.3 41.6 41.1 40.4 39.3 37.7 36.9 37.1 37.2 37.3 37.6 37.8
12.4 12.8 13.3 14 14.5 15.2 16 16.8 18.3 18.1 18.7 18.7 18.8 19.5 20.5 21.2 21.6 21.8 22.1 22.1 21.2 21.2 20.6 20.1 19.5 18.9 18.4 18.9 19 17.4 13.6 12.5 12.7 12 11.8 12.1 12.7 12.7 11.6 12.1 12.9 12.8 12.9 12.8 12.5 12.3 12.3 12.4 12.5 12.7 12.9 12.8 12.7 12.7 12.8 13 13.1 13.3 13.2 13.1 13.7 14.4 14.3 14.2 14 13.9 13.9 13.9 13.2 13.8 14.9 16 16 16.9 17.8 17.7 16.9 16.2 16.5 16.8 17.2 17.6 17.2 17.4 17.6 17.3 16.5 15.7 15.8 15.8 15.7 14.8 13.9 13.8 13.8 13.3 13.2 13.1 13.1 13.1 13.8 13.7 14.1 14.9 14.7 24.3 32.9 33.4 33.1 33.7 34.6 35.8 36.6 37.2 38 38.3 38.9 39.7 40.2 40 39.9 39.6 39.5 40 40.4 40.8 40.9 40.6 40.5 40.6 40.7 40.6 40 39.5 39.8 40.3 40.8 41.2 41.6 42.1 42.2 42.4 42.6 42.7 43.2 43.8 44.5 44.5 44.1 44.1 45.3 46.6 47.8 49.8 50.2 50.3 50.5 50.6 50.8 51.1 51.1 49.9 47.7 49.6 52.6 54.7 54.1 53.6 53 52.5 52.5 52.6 52.7 52.5 50.1 47.4 45.1 43.4 41.9 41.5 40.8 41.6 42 42.5 42.9 43.3 42.3 41.5 41.3 41.5 41.7 41.2 39.7 38.1 38.1 38.1 37.7 37.8 38 38.3
12.2 12.6 13 13.6 14.6 15.4 15.8 16.2 16.6 17.2 17.5 17.7 18.3 19.4 20.3 21 21.6 21.7 21.9 21.2 20.5 20.1 20.1 19.5 18.9 18 16.7 17.8 15 12.6 11.6 12.7 12.8 12.7 12.6 14.6 12.4 12.7 13.1 13 12.4 11.3 13 12.8 12.5 12.3 12.4 12.6 12.7 12.9 13 12.9 12.8 12.7 12.8 13 13.1 13.2 13.3 13.1 11.9 14.1 14.2 14.2 13.2 14.3 14.1 13.9 13.1 13.4 14.2 13.7 14.1 14.7 15.4 16 16 15.3 15.6 16 16.4 16.7 17.1 17 16.8 16.6 15.8 15 14.8 15.2 15.6 14.9 14.2 13.4 14.3 13.4 13.4 13.2 13.2 14.1 14.1 14 14.5 13.5 15.8 26.8 35 35.8 35.4 35.1 35.9 36.8 37.9 39.3 39.4 39.7 40 40.3 41 41.5 41.3 41 40.7 41.1 41.5 42 42.1 41.7 41.4 41.1 41.2 41.1 40.6 40.9 41 41.2 41.7 42.1 42.9 43.4 43.3 43.4 43.6 44.6 45.6 45 45.6 45.5 45.1 44.7 45.5 47.2 49.3 50.6 51.1 51.4 51.5 51.7 51.8 52.1 52.1 49.5 50.4 52.2 55 56.9 55.1 54.7 54.1 53.6 53.6 53.5 52.9 51.2 48.5 45.9 44.3 42.8 42.8 42.3 41.3 42.2 42.5 43 43.4 43.8 43.1 42.6 42.4 42.3 42.1 41.5 39.9 38.4 38.9 39.5 39.3 38.6 38.6 39.1
11.9 12.5 13 13.1 14.1 14.7 15.1 15.5 15.8 16.2 16.5 17.2 18.2 19.3 20.2 20.8 21.5 21.7 21.6 20.9 20.2 19.2 19 18.9 18 17 14.7 12.5 11.8 12.9 12.8 12.7 12.7 12.7 15.6 20.6 12.2 12.9 12.9 12.8 13 13.3 12 11.8 12.5 12.4 12.6 12.7 12.9 13 13.1 13 12.8 12.7 12.8 12.9 13.1 13.2 13.3 11.8 11.3 13.6 13.7 13.8 13.3 13.9 13.1 13.4 13.6 13.4 13.8 13.5 13.6 13.6 13.7 13.9 14.1 14.4 14.7 15.1 15.5 15.9 16.3 16 16 15.8 15 14.2 14.4 15.1 15 14.2 13.7 13.9 13 13.2 13.7 14.1 14 14.8 14.6 14.4 14.2 12.8 22.2 32.2 37.2 38.4 38.1 37 37.9 39.4 40.3 41 40.8 41 41.4 42 42.3 42.6 42.7 42.3 42 42.3 42.7 43.1 43.2 42.9 42.6 42.2 41.9 41.7 42 42.2 42.4 42.5 42.6 43.3 44.3 44.7 44.6 44.5 45.5 46.5 47.5 47.9 46.8 46.5 46 45.4 46 48 50.1 51.3 52 52.3 52.6 52.7 52.9 53.1 52.6 50.7 52.6 55.7 57.4 57.9 56.4 55.4 55.1 54.7 55 54.2 52.3 49.6 46.9 45.2 43.8 43.5 43.6 43 41.3 42.8 43.2 43.5 43.9 44.3 43.8 43.6 43.5 42.9 42.2 41.4 39.6 39 39.5 40.3 40 39.5 39.4 40.1
12 12.7 12.8 12.8 13.2 13.8 14.3 14.7 15.1 15.4 16.4 17.3 18.1 19.2 20 20.6 21.3 21.7 21.3 20.5 19.8 19 18 17.8 15.7 13.1 11.5 12.5 13 13.1 12.8 12.5 12.4 12.3 12.2 18.1 12.7 12.7 12.7 12.8 13 12.9 12.9 12.2 11.7 12.8 12.7 12.9 13.1 13.2 13.2 13 12.9 12.8 12.8 12.9 13 13.1 13.3 11.4 11.6 13.2 13.4 13.5 13.6 13.2 13.2 13.3 14.1 13.9 13.2 13.4 13.4 13.4 13.4 13.6 13.8 13.8 13.9 14.3 14.7 15.1 15.5 15.1 15 15.1 14.1 13.5 14.3 14 14.4 14.7 12.5 13.2 13 13.1 13.6 13.9 14 13 14.2 13.6 12.9 17.6 28.1 35.8 39.7 41.2 40.2 39 40 42 42.7 42.4 42.2 42.4 43.2 43.6 43.9 43.7 43.7 43.4 43.2 43.6 44.1 44.5 44.6 44.3 44 43.8 43.5 43.2 43.3 43.5 43.7 43.8 44 44.6 45.8 46.2 45.8 45.5 45.9 46.9 48.4 49.2 47.3 46.1 45.9 45.2 46.2 48 50.1 52.1 52.9 53.2 53.5 53.8 53.8 53.8 53.8 51.3 54.4 58.1 58.9 58.8 57.7 56.5 55.8 55.8 56.2 54.1 51.2 48.4 46.6 45.2 44.6 44.4 44.1 43.3 43 43.9 44.1 44.3 44.5 44.8 44.9 44.2 43.5 42.8 42.1 41.2 39.7 39.5 40.4 41.2 40.7 40.6 41.1 41
12 12.4 12.5 12.5 12.9 13.2 13.4 14 14.4 15.5 16.7 17.9 18.3 19.1 19.8 20.4 20.9 20.7 20 19.8 19.4 18.7 17.8 15.3 12.1 11.4 13 13 13 13.1 12.9 12.4 12.3 12.2 12 12.2 13.6 12.5 12.6 12.8 12.9 12.7 12.7 12.8 12.8 10.8 13.3 13.1 13.2 13.4 13.3 13.1 13 12.9 12.4 13 13.2 13.5 13.2 12.7 13 13 11.9 11.8 11.9 12.6 10.9 11.9 12.7 13.2 12.4 13 13.1 13.1 13.1 13.2 13.4 13.3 13.1 13.5 13.9 14.3 14.6 14.3 13.9 13.7 13.1 13.3 13.9 13 12.5 12.9 13 13 13 13 13.3 13.5 13.6 14.1 13.9 12.4 17.2 24.4 32.8 39.1 41 42.5 41.5 41.7 42.1 44.2 44.1 44 43.7 44.1 44.8 44.9 44.7 44.8 44.6 44.5 45.1 45.6 46 46.3 46.2 46 45.7 45.5 45.2 44.9 44.5 45.2 45.1 45.2 45.3 45.6 46.9 47.3 46.8 46.5 47.4 49 50.2 49.7 47.4 46.5 46.4 46.6 45.7 48 50.2 52.5 53.7 54.1 54.4 54.7 52.3 53.6 54.4 53 55.5 59.2 60.2 59.5 58.4 57.2 56.8 57 56.1 53.2 50.6 48.2 46.8 45.8 45.5 45.2 45 43.6 44.9 45.1 45.3 45.4 45.6 45.6 45.1 44 43.3 42.6 41.9 41 40 40.4 41.3 41.8 41.9 42.2 42.3 42.5
11.9 11.9 12 12.7 13 13.3 13.6 14 14.6 15.7 16.9 18.2 18.9 18.8 19.3 19.8 20.3 19.5 18.8 18.4 18.1 17.9 16.4 11.8 12.3 12.7 12.9 13.1 13 13.1 12.9 12.4 12.2 12.1 12 12.4 19.9 12.4 12.5 12.6 12.6 12.5 12.5 12.5 13.3 12.9 11.8 11.5 11.8 13 13.4 13.3 13.1 13.4 11.6 11.8 12.6 11.4 11.7 12.8 12.8 12.9 12.7 12.8 12.8 12.7 12.6 11.8 12.8 12.1 11.5 12.1 12.8 12.9 12.8 12.8 13 12.9 13.3 13.1 13.1 13.5 13.8 13.4 13 13.1 13.2 13.3 13.8 12.5 13 13 13 13 13 13 13.1 13.3 13.7 14.1 13.3 14.2 21.7 28.9 37.1 41.3 42.5 43.1 43.3 44.3 44.6 45.1 45.8 45.1 44.8 46.1 45.9 45.7 45.6 45.8 45.8 46.4 47 47.5 47.9 48 47.8 47.6 47.4 47.2 46.9 46.6 46.9 47.2 47.1 47.1 47.1 47 47.4 48.3 47.9 48 49.8 51.6 51.7 49.7 47.7 47.5 47.4 47.3 46.4 48 50.1 52.4 54.6 54.9 55.2 55.4 54 54.7 54.2 54.9 56.5 58.6 61.3 60.2 59 57.9 57.8 58.1 55.8 53.2 50.5 48.5 47 46.4 46.1 45.8 44.4 44.7 45.8 46 46.1 46.3 46.2 46 45.6 44.6 43.5 42.5 41.7 40.9 40.5 41.3 42.3 42.7 42.8 43 43.1 43.3
11.3 11.6 12.4 12.9 13.2 13.5 14 14.6 15.1 15.8 16.8 17.7 18 18.2 18.4 19.1 19.1 18.1 18 17.8 17.3 15.3 11.9 12.8 12.4 12.5 12.7 12.9 13.1 13.1 13 12.4 12.1 12 12.2 12.4 15.7 12.2 12.3 12.5 12.4 12.4 12.3 12.6 13.6 13.2 12.7 12.6 13.4 13.5 13.2 12.8 11.6 12 11.9 12.1 12.3 13 12.8 12.6 12.7 12.7 12.6 12.6 12.7 12.6 12.5 12.6 11.5 12.4 12.2 11.9 12 12.3 12.5 12.5 12.6 13 13.6 13.4 13 12.7 13 12.8 13 13.1 13.3 13.4 13.2 12.8 12.9 13 13 13 13 13 13.1 13.5 13.8 14.2 12.2 17.5 27.4 35.8 41.6 42.8 43.9 45.1 46.1 46.6 45.9 47.7 48.2 48.1 47.2 47.6 47.2 46.8 46.2 47.1 47.7 48.3 48.9 49.4 49.5 49.6 49.4 49.2 49 48.8 48.6 49.1 50.9 49.5 49.1 49.1 49 49 48.9 48.8 48.9 50.1 52.2 51.9 51.2 50.2 48.3 48 48 48.1 48.3 48.4 50.1 52.1 54.6 55.7 56.2 56.4 56.7 56.9 56.9 56.7 57.7 60.2 62.1 61.5 60.2 58.9 59.2 58.4 55.9 53.1 50.4 48.9 47.7 47 46.3 45.9 44.7 45.8 46.7 46.9 47 46.9 46.6 46.3 46 45.1 44 43 41.9 41.2 41.8 42.6 43.5 43.3 43.6 43.7 43.8 44
11.8 12 12.8 13 13.5 14 14.6 15.2 15.7 16.4 16.9 17.1 17.3 17.5 17.7 17.7 17.7 17.5 17.3 17.2 15.9 11.7 12.7 12.8 12.3 12.3 12.5 12.7 12.9 13.1 13 12.5 12 12 12.2 12.2 12.5 14.7 12.2 12.2 12.2 12.8 13.3 14.5 14.9 15.1 15 14.8 15.7 16.4 17.1 16.7 16.1 16.2 15.8 15.5 15.3 15.3 14.9 15.1 14 12.5 12.5 12.5 12.6 12.5 12.5 12.7 11.4 12.6 12.6 13 12.8 12.9 12.8 12.8 12.6 12.9 12.9 13.4 13.1 12.4 12.7 12.6 12.8 12.9 13 12.3 12.7 13.1 12.8 12.9 13 13 13 13.1 13.4 13.7 14 13 16 26.9 35.9 40 41.8 44.2 45.4 46.6 47.7 48.9 48.9 49.1 49.3 49.5 49.4 49.3 49.1 48.9 49 49.3 49.4 49.5 49.8 50.5 51.2 51.3 51 50.8 50.5 50.1 49.8 53.2 55.5 54.4 51.7 51 50.7 51 51.1 50.5 50.1 52.1 54 52.5 51.2 49.9 48.8 48.7 48.8 49 49.1 49.2 50.4 51.6 53.4 55.3 57 57.4 57.9 58.4 58.3 58.1 59.2 60.9 62.1 62.1 61.1 60.3 59.5 58.8 56.1 53.1 50.7 49.4 48.4 47.7 47 46.3 45.1 46.8 47.6 47.8 47.5 47.2 47 46.7 46.4 45.6 44.6 43.5 42.4 42.3 43.1 43.9 44.4 44.1 44.1 44.4 44.5 44.7
11.7 12.3 13 13.5 14.1 14.6 15.2 15.7 16.3 16.9 17.1 17.4 17.6 17.8 17.9 17.5 17.4 17.1 17 16.7 12.5 12.8 12.8 12.9 12.3 12.1 12.3 12.5 12.7 13 13.1 12.5 12 12 12.2 12.3 12.4 19.8 12.3 13.1 14.6 16 16.4 16.3 16.7 17 17 17 17.5 17.8 18.2 18.2 18.2 17.9 18.5 18 17.8 18.1 18 18.3 17.9 16.2 14.3 12.7 12.5 12.5 12.6 12.9 13.1 11.8 12.5 13.1 13 13.7 13.7 13 12.8 13.3 13.7 13.9 12.3 12.9 13.1 12.8 12.4 12.5 12.9 12.9 13.3 13.1 12.9 12.9 13 13 13.8 13.3 13.7 14 13.5 15.8 25.2 35.4 39 40.5 42.4 44.8 46 48 49.4 50.7 51.5 51 51.9 51.6 50.7 50.7 50.5 50.5 51.4 51.6 51.7 51.9 52 51.5 52.1 52.4 52.2 52 51.6 51.3 52.1 55.9 60.4 57.5 54.1 52.9 52.7 53.1 53.2 52.5 52.5 54 55.1 53.5 52.2 50.9 49.9 49.9 50.1 50.2 50.3 50.5 50.8 52 53 54.3 56.2 58.5 59.1 59.5 59.5 59.8 60.9 62 62.6 62.7 62.3 61.3 60.4 59.5 56.7 53.4 51.2 49.8 49.5 48.9 48.2 47.6 46.9 47.9 48.5 48.2 47.9 47.6 47.3 47 46.7 46.2 45.1 44 42.6 43.5 44.4 45.2 45.1 44.8 44.6 44.9 45.2 45.1
11.8 11.6 12.7 13.3 13.9 14.4 15 15.6 16.6 17 17.3 17.6 17.8 18 17.9 17.6 17.2 16.7 16.4 12.4 11.6 12.3 12.2 11.6 12.2 11.9 12.1 12.4 12.6 12.9 13.2 12.7 12.1 11.9 11.9 12 12.3 16.2 13.2 13.4 14.9 18.3 19.1 18.5 18.4 19.8 19.1 18.7 18.9 19.2 19.3 19.2 19.2 19.1 19 19.2 19.6 20.2 20.2 20.2 20 19.3 17.8 15.7 14.1 13.5 12.7 12.9 12.9 12.9 11.1 13.2 12.8 13.3 13.9 12.9 13.1 13.2 13.4 13.1 11.8 13 13.1 12.8 12.6 12.5 13 13.5 13.5 13.6 13.6 13.7 13.4 13.5 14.2 14 12.6 12.8 16.8 19.9 25.6 31.3 34.9 39.1 41.5 44.5 47.2 48.1 50.5 51.9 52.4 54 53.9 52.9 51.9 52.1 51.9 52.8 53.6 53.8 54 54.2 54.3 53.7 53.1 53 52.9 52.8 52.8 52.7 55.7 60.2 64.6 60 55.3 54.7 54.7 54.9 55 54.7 55 55.9 56.2 54.5 53.1 51.9 51.3 51.4 51.4 51.5 51.7 51.9 52.2 52.6 53.5 53.7 55.4 57.9 60 60.5 60.6 60.8 61.6 62.7 63.5 63.6 63.6 62.7 61.6 59.8 56.8 53.5 51.6 50.6 49.7 49.8 49.7 49.1 48.5 49.2 48.9 48.6 48.3 48 47.7 47.4 47.1 46.7 45.6 44.2 43.2 44.6 45.6 46.1 45.9 45.6 45.3 45.4 45.7 45.5
11.8 11.6 11.8 12.5 13.1 13.6 14.7 15.8 16.6 17 17.4 17.7 17.9 18 17.5 17.2 17 16.8 13.6 11.1 12.5 12.4 12.4 12.5 12.7 12.9 12.2 12.3 12.6 12.8 13.1 12.8 12.3 12.1 11.8 11.7 12 13.5 18 14.2 18.5 20.3 21 22.9 23.5 24.6 24.6 23.6 22.3 21 20.7 20.6 20.8 20.7 20.5 21.2 22.2 22.4 22.5 22.2 21.9 20.6 19.9 18.6 16.6 15.6 14.3 12.9 13.1 13.1 13 11.4 13 13.3 13.1 13 12.9 13 13.2 13.5 12.8 12.4 13.1 13.3 13.3 13.5 13.6 13.7 13.5 13.2 13.6 13.3 13.3 13.1 12.6 13 15.7 19.8 22.8 18.6 21.8 24.4 27.3 30.5 32.9 36.5 42.9 48.4 50.5 53 54.5 55.3 55 54.7 53.3 53.4 54.1 55 55.9 55.9 56.1 56.3 56.3 55.5 55.3 55.2 55.1 55 54.9 54.8 58.2 64.2 67.4 61.4 56.9 56.5 56.9 57 57.1 57.4 57.6 57.9 57.3 55.6 54.1 53.3 52.8 52.8 52.8 52.9 53.1 53.3 53.6 54 54.3 54.3 54.9 57.5 59.6 61.6 61.8 61.9 62.4 63.4 64.4 64.5 64.5 63.7 62.3 59.8 56.8 53.6 52.2 51.3 50.3 50 50.1 50.2 50 50 49.6 49.2 48.9 48.6 48.2 47.9 47.6 47.1 45.7 44.3 44.3 45.5 45.8 46.1 46.3 46.5 46.4 46.2 46.3 46.2
11.8 12 12.3 11.7 12.8 13.9 15.1 16 16.6 17 17.3 17.7 18.1 17.3 16.3 16.5 16.9 17.2 11.6 12.6 12.4 12.3 12.4 12.6 12.6 12.6 12.7 12.9 12.6 12.8 13 12.9 12.5 12.3 12 11.7 12.2 13.2 19.9 19.2 22 22.5 22.8 24.8 26.5 27.7 28.2 28.2 27.6 26.3 25.1 25 25.6 24.6 24.8 27.5 27.9 27.7 27.4 27.3 24.5 22.7 21.8 21.1 19.5 19 17.7 16 13.4 12.7 13 11.8 12.7 13 13 13 13.1 13 13 13.6 14.2 12.7 13.6 13.6 13 13.6 13.7 13.9 13.7 13.4 13.4 13.4 14.2 15.4 19.4 20.6 24.5 29.1 31.2 26.9 23.8 21.5 22.4 24.6 26.9 30.7 35.9 42.9 50.6 53.6 56 56.4 56.6 56.8 55.6 55.3 56 57 58.2 58.1 58 58 57.9 57.8 57.8 57.6 57.5 57.4 57.2 57.1 59.4 65.2 66.2 60.4 58.5 59 59.6 59.9 60.3 61.3 61.8 61 58.6 56.8 55.6 54.9 54.2 54.6 55.1 55 54.6 54.8 55.1 55.4 55.7 55.8 56 57.9 60 62.1 62.9 63.1 63.6 64.7 65.6 65.9 65.9 63.9 62.7 59.8 56.8 53.9 52.9 52 51.1 50.3 50.4 50.4 50.9 50.7 50.4 49.9 49.5 49.2 48.9 48.5 48.1 47.1 45.7 44.3 45.4 46.3 46.6 46.8 47 47.1 47.1 47.1 47.1 46.8
12.2 12.5 12.8 12.8 13.7 14.4 15.4 16.1 16.5 16.9 17.3 17.7 18 17.6 16.4 15.5 14.5 14.2 12.7 12.6 12.3 12.2 12.3 12.4 12.4 12.4 12.4 12.6 12.8 12.9 13.1 13 12.8 12.5 12.2 12 12.5 16.4 18.7 21.3 24 24.8 25.6 25.8 27.2 28.3 29.3 29.7 30.4 31 29.9 28.9 30.9 31 32.1 34.3 35.4 36.2 35.6 33.4 30.5 27.8 26.2 24.4 23 22.7 22.4 20.6 18.3 14.9 13.5 12.2 13.1 13.6 13 13 13 13 13.4 13.9 13.6 12.5 13.2 14.2 12.9 13.5 13.9 14.1 13.9 14.6 16.8 18.4 17.7 22.9 28.8 32 34.3 35.8 35.5 34.1 32.1 30.8 24 26.7 30.6 34.1 32.7 38 45.9 53.5 56.1 57.3 58.5 58.8 57.9 57.3 58 59.3 60.4 60.4 60.3 60.4 60.4 60.3 60.2 60 59.9 59.8 59.6 59 60.1 62.4 62.1 61.2 61 61.6 62.3 62.9 63.8 65.3 65 62.5 60.1 59.2 58.3 57.6 56.8 56.9 57.4 57.2 56.6 56.2 56.5 56.9 57.2 57.3 57.5 58.2 60.4 62.4 63.8 64.2 64.9 65.8 66.7 67.3 66.4 64 61.5 58.2 56.1 54.5 53.6 52.7 51.8 50.9 50.6 51.2 51.7 51.3 51.2 50.7 50.2 49.8 49.5 49.1 48.3 47 45.6 44.9 46.4 47 47.3 47.5 47.6 47.7 47.7 47.7 47.8 47.4
12.5 12.3 12.1 12 12.2 13.7 15.5 16.1 16.5 16.9 17.2 17.6 18 17.9 16.6 15.6 14.7 14.6 12.9 12.6 12.3 12.2 12.3 12.3 12.3 12.3 12.3 12.3 12.5 12.6 12.8 12.8 12.7 12.7 12.4 12.2 14.3 19 21.7 20.6 24.5 25.3 26 26.7 27.3 28.4 29.4 30.7 31.6 32.5 33.3 33.5 34.9 36.5 37.3 39.7 41.4 43 43.2 40.3 37.2 34.7 31.7 29.5 27.9 26 25.7 25 23.9 21.9 17.6 13.7 11.8 13.5 12.6 13.4 13.2 13.4 13.3 11.5 11.3 12 12.2 13.5 14.6 17.5 19.3 21.3 21.4 22.6 23.7 25.5 21.8 26.8 32.9 35.4 36.9 37.5 37.4 36.3 35.5 31.9 26.5 32.3 39.3 41.7 40 35.9 40.3 49 54.9 58.9 60.5 61.5 61.2 60.7 60.3 61.6 62.7 62.7 62.7 63.2 63 62.7 62.6 62.4 62.3 61.8 61.3 60.7 61.1 63.4 64.1 63.2 63.3 64 64.6 66.2 68.1 68.9 66.5 65.2 65.2 63.7 62.9 61 59.6 59.1 59.7 59.3 58.6 58 58.3 58.5 58.6 58.1 59.1 59.4 60.7 62.8 64.7 65.2 66.2 67 67.8 68.7 66.8 64.3 59.6 57.7 56.7 55.6 54.6 53.6 52.7 51.8 51.5 52.1 52.6 51.5 51.9 51.4 50.9 50.5 50 49.2 48.4 47 45.6 45.9 47.4 47.8 48 48.1 48.2 48.3 48.4 48.4 48.4 47.9
12.2 12.1 11.9 11.8 11.6 12.6 15.4 15.9 16.4 16.8 17.2 17.6 17.9 18.2 16.7 16.8 16.9 13.1 12.7 12.7 12.2 12.1 12.1 12.2 12.2 12.1 12.1 12.1 12.2 12.3 12.5 12.4 12.2 12.1 12 12.5 16.6 21 23.1 19.9 24.9 25.5 26.2 26.6 27.2 28.3 29.3 30.1 32 33 33.8 34.7 36.3 38.3 40.1 41.7 43 44.3 45.1 44.5 43.7 41.6 38.2 34.6 32.7 30.7 29 27.8 26.8 25.9 24.1 22.2 17.9 13.5 12 13.3 11.5 11.4 13.8 14.1 15.5 17.6 19 21.6 26.1 29.7 32 31.9 28.3 31.4 32.3 33.1 26.3 28.5 34.6 37.2 38.3 39.1 39.1 38.7 36.9 31.5 28.6 36.5 41.8 46.6 45.5 39.1 41.4 47.8 52.2 59.1 63.3 65.1 65.4 64.9 64.7 63.9 65 65.1 65.5 66 65.7 65.1 65 64.6 64.1 63.5 63.1 62.7 63.1 65 66.6 65.9 65.7 66.2 67.6 70.1 72.6 71.4 70.6 70.9 70.2 69.2 68.5 67.3 65.7 63.3 62.2 61.4 60.6 60 59.7 59.8 59.8 59.5 59.4 60.4 61.2 63.1 65.3 66.6 67.6 68.5 69.3 69.3 66.6 62.8 59.7 58.8 57.7 56.7 55.6 54.6 53.7 52.5 52.5 53 53.5 53.1 52.7 52 51.1 50 50 49.5 48.4 47 45.6 46.9 48.3 48.5 48.6 48.7 48.8 48.9 49 49 49 48.4
13.1 12.7 12.4 12.3 12 11.3 13 14.2 15.6 16.4 17.1 17.5 17.8 17.7 17.4 16.8 16.9 12.3 11.4 11.6 11.8 12 12 12 12 12 12 12 11.9 12 12.2 12 11.8 11.6 13.1 15.4 18.7 22.7 24 20.6 25.5 25.8 26.5 25.9 27.1 28.2 29.1 29.9 31.3 33.2 34.3 34.9 36.9 39.1 40.9 42.1 43.4 44.2 44.8 45.3 45.5 44.4 42.6 39.8 37.2 34.7 32.3 30.2 29 27.8 26.1 24 20.8 13.6 18.2 18.3 16.2 16.8 19.8 22.6 24.3 25.7 25.6 27.5 28.6 30.2 31.8 33.4 32.3 34.3 35.8 35.1 29.6 30.2 36.3 39.1 39.9 40.6 40.9 40.9 39.2 33.3 31.3 38.3 44 50.9 51.5 43.5 42.3 50.4 55.2 57.2 62.7 67.1 67.7 68.5 69.1 68.3 67.5 67.9 68.3 68.8 68.3 67.6 67.1 66.7 66.3 65.9 65.4 65 65.9 67.5 69.1 68.6 68.7 69.5 71 73.9 75.5 75 76.4 76.9 76.7 75.4 74.6 72.5 70.4 68.3 64.7 64.4 64.1 63.4 62.6 61.8 61.3 62.1 62.2 61.4 62.4 63.6 66.1 68 69 69.9 70.6 69.2 65.2 61.3 60.1 59.4 58.6 57.8 56.7 55.6 54.7 53 53.4 54 54.2 53.8 53.7 52.3 50.8 51.5 51 50.1 48.7 47 46.4 48 49 49.1 49.2 49.3 49.4 49.5 49.6 49.6 49.5 48.8
14.3 13.9 13.5 13.2 13.9 12.7 12.4 12.4 13.6 15.4 16 16.2 17.4 17.1 16.9 17.1 17.5 13.3 11.3 12.2 12 11.9 11.9 11.9 11.9 11.9 11.8 11.8 11.8 11.8 11.8 11.6 11.5 11.5 13.6 17.6 20.8 23.4 24.6 21.6 23.6 26.2 26.5 25.8 26.9 28.1 29 29.7 30.7 32.6 34.5 35.2 37.7 39.8 40.9 41.9 43 43.8 43.6 43.8 43.8 43.6 42.9 41.3 39.1 36.7 34.4 31.8 30 28.6 26.9 24.7 22 15.9 18.5 24 25.6 23.7 26.4 26.9 27.8 28.2 29 29.6 30.2 31.5 33.2 34.8 34.2 35.8 37.3 36.6 33.3 31.6 36.9 39.7 42 42.5 42.7 42.7 41.5 35.8 35.6 41.7 46.6 53.9 55.6 47.2 44.8 52 59.5 59.7 61.1 65.1 67.7 71.1 73.1 71.7 70.7 71.5 71.6 71.6 71.3 71.1 71.4 71.2 70.3 69.3 68.4 68.2 69.5 71.2 73 72.5 75.1 76.1 76.3 76.9 79.4 82.6 85.1 85.8 84.3 82.8 81.1 78.5 76.7 73.3 69.2 68.2 68.5 68.3 66.1 64.8 63.9 64 64 64 64 65.5 67 69.4 70.3 71.3 70.5 68.7 63.9 61.6 60.7 59.9 59.1 58.3 57.5 56.7 55.6 53.6 54.5 55.2 55 54.5 53.5 52.3 50.2 51.2 51 50.3 48.4 46.7 47 48.6 49.6 49.7 49.8 49.9 50 50.1 50.2 50.2 50 49.3
14.7 15.1 14.7 14.4 14.6 14.1 14.4 14.5 12.7 12.7 13.4 13.9 16.5 16.9 16.9 17.5 17.6 12.3 12.4 12.1 11.9 11.7 12.6 11.8 11.7 11.7 11.7 11.7 11.6 11.8 11.9 11.6 11.4 11.8 13 17.5 21.4 23.7 24.4 23.7 20.6 26.2 26.1 26.4 27.1 28 28.8 29.5 30.3 31.9 33.4 35.7 38.1 39.8 40.8 41.7 43 43.5 43.4 42.8 42.8 42 41.4 40.8 38.9 36.4 33.8 31.7 30 29.1 26.8 24.5 22.1 17.3 16.9 22.2 25.5 26 27 27.6 28.6 29.7 30.9 31.6 32.3 32.9 34.5 36.1 36.1 37.7 38.6 38.9 38.1 34.3 36.6 40.3 43.1 44.2 44.4 43.5 42.6 40 39.3 44.4 49.9 56.7 57.4 50 46.4 52.8 63.1 64.7 63.6 65.4 68.9 72.9 76.8 75.6 73.8 74.6 75.4 76.1 74.8 74.6 74.9 75.2 75.5 74.7 73.4 73.4 74.4 77 77.7 79.8 82 81.7 82 82.1 85.3 89.8 92.4 94.2 93.6 92 89.6 85.3 82.4 79.9 76.3 73.7 74.7 73.4 71.3 68.6 66 66.1 66.2 65.7 65.4 67.3 69.2 70.3 71.7 72.5 70.2 66.6 63.9 62.2 61.4 60.6 59.7 58.9 58.1 57.3 55.9 54.5 55.5 56.3 55.7 55 53.3 51.8 51.6 52.2 51.1 50 47.8 47.9 47.6 49.2 50.2 50.3 50.4 50.5 50.6 50.7 50.8 50.8 50.4 49.7
15 15.5 15.9 15.7 15.2 14.4 15.1 15.4 13.8 12.1 12 11.9 14.6 16.7 16.9 17 17.1 11.9 12.4 12.2 11.9 11.7 12.1 12.5 11.7 11.5 11.5 11.7 12.2 12.7 12.7 12.2 11.5 12.3 13.1 18.1 22.3 23.4 24.1 24.2 21.7 24.2 26.2 26.6 27.3 27 28.2 28.2 29.9 31.3 34 35.9 38.6 40.5 41.1 41.2 43 43.1 43.2 42.5 42 42.1 41.1 39.7 37.9 35.3 33.2 31.3 29.5 28.1 26 23.1 21.6 16.9 16.8 19.3 23 26.6 27.7 28.5 29.6 30.7 31.9 33.2 34.3 35 35.9 37.5 38 39.2 40 40.7 40.1 38.5 38.9 42.8 44 45.5 46.2 45.8 45.1 44.4 43.1 48.6 53.1 58.2 58.7 53.9 49.4 54.7 65.4 68.4 68.6 70.2 74.3 77.8 80.7 79.2 77.6 78.1 79.2 80.8 78.9 79.7 81.3 81.6 81.7 80.5 78.9 79.9 81.9 84.6 85.9 87.9 90.1 89.4 89.9 87.8 89.7 94.2 97.4 100.2 100.2 99 96.2 92.9 88 85.3 81 79.7 80.9 79.1 74.7 71.8 69.1 68.3 68.4 67.4 67 69.4 70.7 71.8 72.4 71.7 68.8 65.5 64.2 63.1 62 61.2 60.4 59.6 58.8 58 56 55.8 56.8 56.8 56 55.2 53.5 52.9 52.5 52.2 51.2 49.8 48 48.9 48.5 49.8 50.8 50.9 51 51.1 51.2 51.3 51.5 51.3 51.1 50.4
15.4 15.9 16.3 16.4 15.6 14.7 15.3 15.7 16.1 15.8 15 13.6 12.1 15.3 16.7 16.8 16.8 13.6 12.5 12.3 11.8 11.8 12.4 12.6 12.6 11.8 12 12.5 13.1 13.2 12.7 12 11.6 12.7 13.7 18.3 21.9 23.2 23.9 24.1 23.2 22 24.1 25 26 26.6 26.9 27.6 29.7 31 33.2 35.9 38.4 40.6 41.1 40.9 42.6 42.6 42.1 42.8 41.9 40.6 39 37.9 36.8 34.6 32.8 30.9 29.3 27.7 26.7 25.4 22.9 20.5 21.3 18.6 22.1 26 27.8 29.5 30.6 31.7 32.9 34.2 35.5 36.7 37.6 38.8 39.8 40.5 41.2 41.9 42.5 40.9 41.4 44 45.8 47.4 48.6 48.2 48 47.7 47.7 52.3 57.9 63.1 63 58.7 54.8 57.9 66.6 70 73.6 75.6 78.9 82.3 85.4 83.2 82.6 83.5 83.7 86.1 83.6 85.5 88.7 89.7 89.6 87 86 88.7 90.9 92 94.5 96.9 98.6 97.7 96.1 93.5 94.9 100.3 105.1 107.5 106.1 108.1 104.1 100.7 94.8 92.1 87.7 87.5 87.8 84.8 79.7 75.1 72.3 70.4 70.1 69.1 69.1 70.1 72.1 73.2 71.7 69.2 67.3 65.4 65.4 64.5 63.4 62.2 61.1 60.3 59.5 58.7 56.2 57 58 57.2 56.3 55.6 53.9 53.6 52 52.1 51 49.6 49.1 50.3 49.7 50.4 51.5 51.7 51.9 52.1 52.2 52.1 51.8 51.5 51.4 50.6
15.7 16 16.2 16.1 16 15.9 16.6 17.5 18.2 18 16 14 13 13.4 15.6 16.6 16.6 13.5 12.4 11.8 11.6 12.1 12.5 12.6 12.5 12.5 12.5 12.7 12.8 12.6 12.1 11.6 12 13.1 14.2 18.1 21.6 22.8 23.7 23.8 24.2 22.1 24.4 23.5 25.6 26.5 26.7 26.8 28.8 30.6 32.2 35.6 38.1 39.9 41.1 40.8 41 41.5 41.2 42.3 42.3 39.9 38.8 36.9 36.3 33.8 32.9 31.7 29.6 28.8 26.9 25.3 21.5 23.8 23.3 20.1 21.4 25.4 27.7 30 31.7 32.7 33.9 35.2 36.4 37.7 39 40.3 41 41.7 42.4 43 43.7 43.6 43.7 46 47.7 49.4 51 50.6 50.2 50.7 51.2 54.7 61.5 68.3 67.9 63.5 61.6 65.2 69.6 74.8 77.6 79.3 81.1 86.2 89.9 88.3 87.2 88.8 89.2 92 89.6 91.3 95.2 96.2 96 92.5 95.2 98 100.4 101.6 100.4 105.4 105.2 104.2 100.7 98.3 100 104.9 110.3 113.1 113.6 113.1 110.7 109 104.7 100.3 95.6 96.5 95.3 90.8 85.5 80 75.5 73 71.8 70.8 70.4 71.1 73.2 73.2 70.8 69 68.1 67.3 66.5 65.9 64.8 63.6 62.5 61.3 60.2 58.9 57.2 58.3 58.4 57.4 56.4 55.9 54.1 52.6 51.7 51.1 50.5 49.5 50.6 51.9 51.1 50.8 52.2 52.8 53 52.8 52.5 52.2 52 51.7 51.5 50.3
15.6 16.1 16.9 17.2 16.8 17.3 18.7 19.6 19 18.5 16.3 14.2 13.4 12.9 13.4 15.6 16 13.6 11.7 11.3 11.8 12.2 12.5 12.5 12.4 12.4 12.2 12.4 12.4 11.9 11.5 11.5 12.1 13.5 14.6 17.6 20.6 21.2 22 22.4 22.9 21.6 23.5 23.5 25.3 25.9 26.2 26.5 28.3 30.4 32.2 34.6 37.2 39.2 39.6 40.5 40.6 41.3 41 42 41.2 39.9 39.1 37.6 36.8 35.7 34.2 32.1 29.9 28.7 26.4 25.8 25 25.1 24.8 22.7 22 25 28.1 30.6 32.5 33.8 34.9 36.2 37.4 38.7 40.2 41.6 42.8 43.4 43.9 44.4 44.9 45.5 46.4 48.4 51.4 52.3 53 53.2 53.1 53.9 54 56.1 65 70.6 68.5 65.4 66.5 69.5 73.3 79 81.9 83.7 85.6 89.4 94.8 95 95.1 96.4 96.8 98.8 96.8 98.4 102 102.1 100.3 97.2 101.1 104.2 105.3 103.9 107.5 111.3 112.4 112.2 109.4 107.2 106.8 112.2 118.4 127.3 128.7 120.1 114.8 112.3 110.9 105.4 105.3 105.6 104.2 96.7 89.2 83.2 77.5 74.7 73.5 72.8 72.3 73.5 74.6 73.2 70.9 69.7 68.4 68.1 67.4 66.7 65.7 63.8 62.7 61.7 60.5 58.2 58.5 59.6 58.4 57.4 56.7 56.1 54.3 53.1 52.7 51.9 50.9 49.9 51.2 52.3 52.4 51.7 52.7 53.8 53.4 53.1 52.7 52.4 52.1 51.9 51.6 50.8
16.5 17.4 18.2 18.5 18.4 18.9 20.3 20.7 20 18.8 16.7 15.7 15.1 13.9 12.4 13.4 15.2 14 11.2 11.5 11.8 12.2 12.4 12.4 12.3 12.1 12 12.1 11.7 11.6 11.7 11.6 11.9 13.5 15 19.3 20.1 20.9 22.2 21 22 22.1 21.7 23 24.1 25.5 25.8 26.1 28.1 29.4 31.1 33.2 35.5 37.6 38.3 39.2 40 41 41.3 41.6 40.5 39.8 39 38.1 36.8 35.5 34.6 32.5 30.3 28.4 27.6 26.9 26.3 25.9 24.7 23.5 22.8 24.4 28.2 30.7 32.8 34.6 35.9 37.2 38.6 40.1 41.6 43.1 44.8 45.3 45.8 46.4 46.9 47.5 48.9 50.5 54.3 56.6 57.2 56.3 56 56.7 57.7 58.1 61.6 65.8 67.5 68.4 69.7 76.1 79.4 82.2 86.4 88.5 90.1 93.8 99.4 101.6 103.5 104 104.8 106.5 103.2 102.7 107.6 107.6 104.1 100.2 106.4 112.1 114.5 117 119.4 122.4 124.2 122.4 117.9 114 114.1 124.5 130.5 134.5 135.7 134.6 127.6 123.5 117.6 114.7 117.5 119.6 111.1 101.1 92.4 85.2 79.9 76.4 75.5 75.1 74.9 74.5 74.9 73.3 71.5 70.5 69.6 69 68.3 67.4 66.6 65.3 64.1 61.4 59.9 59.8 59.8 59.7 58.5 57.4 57.1 56.3 55.3 54.9 54 53.1 52.2 51.2 51.7 52.7 53.6 53 53.1 54.3 54.3 54 53.6 53.2 52.8 52.4 52.4 51.9
17.8 18.8 19.6 19.9 20.2 20.4 20.6 21 20.3 19.1 19.5 19.1 18.2 16.2 14.2 12.9 12.2 12.3 10.5 11.5 11.9 12.2 12.3 12.3 12.1 11.9 11.7 11.6 11.7 11.8 11.8 11.7 11.7 13.3 16.3 19.6 20.4 20.4 20.3 21 20.8 21.2 21.1 22.2 22.6 24.6 25.5 25.4 26.7 28.4 30.6 32.6 34.6 36.5 37.5 38.7 39.7 40.4 41 41.3 40.4 39.5 38.3 37.1 35.8 35.3 35.2 33 30.7 30.3 29.7 28.9 28.2 27.8 27.2 26.4 25.6 24.7 27.8 30.5 32.7 34.7 36.4 38.5 40 41.5 43 44.5 46.3 47.3 47.8 48.3 49.1 49.8 50.1 52.8 56.3 59.5 61 60.5 59.1 59.3 60.7 61.8 64.2 69.4 74.4 76.5 77.5 81.2 84.4 86.2 89.5 93 97.3 100.4 103.8 106.3 108.3 111.1 112.3 112.6 110.5 109.4 113 111.7 108.4 104 108 116.4 122.4 128.5 129.1 132.1 137.9 135.3 129.1 120.3 124.6 141 150.3 151.9 149.2 146.2 142.9 131.9 128 129 133.8 126.5 113.4 102.3 93.4 86.7 81.3 78.1 78.2 77.9 77.5 76.9 75.2 73.6 73 72.4 70.5 69.4 68.7 68.1 67.3 66.2 64.7 62.3 60.6 60.9 61.3 60.2 59 58.2 57.7 57.1 56.3 55.1 54.5 53.8 53.2 52.5 52.2 53.1 54 54.2 53.7 54.5 55.1 54.7 54.2 53.8 53.4 53.3 53.4 53.3
19.2 20.1 20.6 20.8 21 21.2 21.3 21 19.6 19.3 20.4 21.3 20.7 19 17.6 13.7 12.7 11.8 11 12.8 11.9 12.3 12.2 12 11.8 12 12.3 11.8 11.9 11.9 11.9 11.8 11.8 13.2 16.3 18.8 20.4 20.4 19.9 20.6 21.4 21 21.2 22.7 22 23 23.9 25.4 26.7 28 30.6 31.2 33.1 35.3 36.7 37.9 39.1 39.8 40.4 40.7 39.7 38.5 37.4 36.1 35.2 34.7 34.3 33 32.1 31.8 31.5 31 30.2 30 29.6 28.9 28.4 27.3 27.5 28.5 31.5 34.6 36.2 38.5 40.8 43 44.5 46 47.7 49.3 49.9 50.6 51.4 52 53 54.6 58 62.2 63.8 64.8 63.7 63.5 65 66.6 70.4 75.8 79.8 83.2 85 87.9 90.6 91.9 96 100.8 104.7 107.3 109.5 113.6 116.1 118 119.2 120.2 118.8 117.3 117.2 116.3 111 110.7 110.5 118.2 130.9 140.3 146.2 150.6 151.9 148 138.2 128.4 132.6 147.7 164.9 175.6 173.4 166.2 161.3 160 154.5 144.2 134.5 124.1 112.1 103.4 94.3 86.8 81.2 80.1 79.6 80 79.7 78.4 76.2 74.8 74.1 73.4 71.3 70.6 69.7 68.2 67.8 66.5 64.9 62.3 61.7 61.9 60.9 59.8 59.1 59 58.3 57.6 56.5 55.3 54.4 53.8 53.1 52.7 52.4 53.5 54.4 54.9 54.7 55 55.8 55.3 55 55.1 55.1 55 54.8 54
19.6 20.5 21 21.3 21.7 22.1 22.1 21.6 20.5 19.6 20.9 22.3 22.2 21.3 18 17.5 14.8 12.1 10.9 13.2 12.5 12.1 12.3 12.6 12.8 12.9 13.1 12.4 12 12 12 11.9 11.9 13.2 16.2 18.8 19.2 19.4 20 21 21.6 21.4 21 21.3 21.9 22.9 23.6 24.6 26.7 27.7 28.9 29.8 31.6 33.8 35.8 37.2 37.4 37.8 38.1 38.4 38.1 37.5 36.4 35.8 35.8 35.1 34.7 34.5 33.5 33.2 32.9 32.7 32.4 32.2 32 31.4 31.3 31 30.6 29.7 29.7 32.8 36 38.3 40.6 42.9 45.2 47.4 49.2 50.9 51.8 52.9 53.8 54.8 56 57.2 59.9 64.1 67.1 69.9 69.6 68.3 69.2 71.9 76.6 82.2 84.7 87.3 90 94.3 98.2 101.3 104.7 108.5 111.2 113.1 116.5 120.5 123.9 125.2 126.4 128 127.1 122.9 121.2 121.6 120.6 121.5 119.7 121.4 137.9 152 161.4 165.6 164.9 157.4 146.2 141.6 146.6 159.6 172.5 183 182.9 171.5 159.5 148 142.4 136.7 127.8 118.1 109.5 101.5 92.8 85.4 83.4 83.8 83 82.4 80.9 79.6 77.2 75.9 75.1 74.3 72.4 71.1 69.8 68.5 67.7 66.2 64.7 63.1 63.1 63.2 62 60.9 60.3 60 58 57.9 56.7 55.4 54.3 53.9 53.5 53.2 52.9 52.9 55 55.6 55.5 56.5 56.6 56.5 56.3 56.1 55.9 55.7 55.3 54.4
20 20.8 21.3 21.6 22 22.5 22.8 22.3 21.4 20.7 21.9 23 22.8 21 21.2 20 18.5 14.8 11.4 13.2 12.5 12.2 12.1 12.1 12.2 12.4 12.6 12.9 12 11.6 11.6 11.6 11.8 12.6 17.5 18.4 18.5 19 20.4 20.7 21.1 21.3 21.4 21.3 21.8 22.6 23.4 24.2 25.2 26.1 27.3 28.4 30.1 32.3 34.5 35.2 35.4 35.8 35.9 36.1 35.9 36.1 35.8 37.1 37.2 37 36.8 36.7 35.9 35.8 35.7 35.6 35.2 35.1 34.6 34.7 35 35.3 33.9 32.4 30.8 32.8 34.7 38 40.3 42.6 44.9 47.7 50.1 51.9 52.9 54.8 55.9 56.9 58 59.4 61.5 66.2 70.3 73.9 75 75 76.6 79.7 83.7 88 89.8 92.1 93.5 99.1 103.4 106.6 110.6 113.7 115.3 118.7 121.7 126.9 133.8 135.9 135.9 135.9 134.3 129.3 126.3 128.6 135.5 135.9 131.8 134.4 146.8 160.9 172 178.4 176.4 165.1 154 157.6 161 172.4 183.9 184.8 180.5 169.7 151.6 131.7 125.1 122.1 114.9 109.3 103.3 96.5 88.9 85.9 86.1 86.4 85.9 84.8 82.8 79.7 78.6 77.4 75.6 74.5 73.3 72 70.5 68.8 67.6 67 65.9 64.7 65.1 64.4 63.1 62.1 61.8 60.7 59.4 58.3 56.3 55.1 54.2 54.5 54.4 53.8 53.5 53.6 55.1 56.7 56.7 57.3 57.4 57.2 57 56.9 56.7 56.5 55.7 54.8
20.3 21.2 21.5 21.9 22.2 23 23.3 23.3 22.5 22.1 23.3 23.2 22.5 21.8 21.9 21.8 17.6 14.3 12 13.2 12.3 12 12.1 12 11.9 11.8 12.4 12.9 12.3 11.7 11.3 11.6 11.8 12.1 15.2 17.8 18.4 19.7 20.4 20.7 21.2 21.4 21.5 21.4 21.6 22.4 23 23.5 24.3 25.2 26 26.9 28.6 29.7 31.8 33 33.3 33.6 33.8 33.9 34 34.7 35.5 36.9 38.3 38.3 38.3 38.6 38.5 38.1 38.9 38.6 38.2 38.1 38.3 40 40.7 41 38.8 36 33.2 33.9 34.8 36.8 39.9 42.2 45.1 47.3 49.7 51.5 54 56.2 58 59.1 60.5 62.6 64.6 66.5 70.7 76.5 80.3 81.6 83.6 86.7 90.7 94.9 97.7 97.9 101.1 104.8 108.4 113.9 119.7 120.8 119.9 124.4 128.6 135.9 142.3 143.3 143.8 139.8 139.1 136.9 135.2 142.9 159.1 156.7 147.6 139.2 150.2 166.9 182.7 183.8 183.1 175.4 167.2 168.5 173.1 183.6 184.2 184.7 181.3 165.7 145.7 128.7 119.6 109.8 104 102 97.7 93.6 91.5 90 89.7 87.8 86.4 84.9 82 80.9 80 78.9 77.3 75 72.7 72.2 70.3 69.2 68.3 67.3 66.5 66.5 66.7 65.5 64.3 63.5 62.3 61 60.2 58.5 56.6 55.7 55.9 56 55.2 54.4 54.1 54.7 56 57.4 57.9 58.1 58.3 58 57.8 57.6 57.5 56.9 56.1 55.4
