ncols 200
nrows 82
xllcorner 350000
yllcorner 791900
cellsize 50
246.5 241.9 237.1 232.7 224.7 220.4 216.2 213.2 211.1 211.3 214.2 222.4 233.2 240.8 248.7 255.7 262.3 267.8 275 280.2 284.9 290.8 299.4 307.5 316.3 324.1 331.9 340.3 347.6 353.5 358.3 359.9 357.9 351.8 335.8 315.7 299.9 285.2 274 264.1 255.4 251.6 251.3 265.6 268.5 273.1 281.5 289.1 296.3 306.8 315.4 321.6 327.1 330.2 330.8 322.5 309.2 294.3 278.9 263.2 249.9 239.3 227.6 214.5 206.5 197.3 189.3 180.1 177.1 168.3 166.7 165.1 166.5 169.1 168.3 166 164.8 161.1 160 158 156.5 153.9 151.6 148.8 148.5 152 157 167 174.2 179.7 183.6 187.1 186.5 187.1 189.8 189.7 192.1 195.4 198.7 197.1 193.8 190.1 187.7 187 185 183 181.7 179.5 177.9 174.7 176.3 183.6 185.4 190.1 198.9 208.3 220 229.9 238.5 241.8 241.9 236.9 234 237.1 243.1 242.9 239.9 229.8 221.5 214.7 210.4 207.4 206.1 205.8 203.5 203.6 197.2 191.8 186.5 175 164.8 152 143.4 146.3 149.1 151.4 156.1 159.6 163.5 169 172.5 170.3 168.3 161.3 157.4 154.9 150.8 148.9 145.9 146 149.7 146.6 144.6 140.7 137 133.8 130.6 127.3 124.5 121.2 120.4 120.7 120.6 122.4 123.1 125.2 125.5 127 128.6 129.2 128.8 128.1 126 125.5 123.6 121 118.7 116.5 115.2 113.4 110.8 108.6 107.5 107.8 111 108.8 108.8 108.7 108.3 108.2
256.6 250.3 242.9 237.9 234.2 228.7 225.4 223.8 218.7 215 213.7 217 226.5 234.4 241.7 247 252.6 260.2 269.1 277 281.5 287.8 294 300.6 307.8 317.3 325.8 333.9 340.4 347.6 351.9 353.6 355 347 334.6 319 303.4 288.7 276.9 268.2 262 262.3 261.7 262.9 270.2 277.1 284.5 291.1 299.7 309.6 316.5 318.9 322.5 326.3 328.3 315.8 301.7 286 271.8 261.7 248.9 238.1 227.6 214.5 204 197.5 189.2 177.8 172.6 169.2 168.7 169.4 171.1 171.6 170.9 168.9 167.5 164.6 163.4 161.6 160 158.6 157.7 156.7 153.8 157.4 161.6 168.5 174.5 182.7 189.5 192.3 193.6 194.2 196.5 197 198.6 202.5 207.9 208.4 206.1 200.5 198.8 198.5 195.6 189 182 181.4 179.2 178.2 178 187.5 188.7 194 202.9 217.1 229.8 238.2 246.2 246.7 250.8 248.4 241.1 239.1 245.2 244.7 242.2 232.7 226.2 220.6 214.1 209.7 209 209 207.7 204.9 202.8 196.6 188.8 178.7 170.9 159.4 149.8 149.4 151.6 152.2 157.5 161 166.2 167.2 167 168.9 168.1 166.3 161.7 159 155.1 152.4 148.3 144.4 146.4 143.8 143.3 137.9 135.7 133 130.5 126.6 122.8 120.9 118.9 117.3 117.2 118.2 119.6 117.8 118.9 125.5 129.3 126.9 126.2 124.9 123 122.4 121 118.2 117.1 115.8 113.4 109.9 107.8 106.2 106.3 107.2 112.3 112.1 109.7 109.2 107.7 106.3
270.4 263.3 257 252.1 245.5 240.6 239 235.3 230.6 227 223 219 219.3 226.6 232.6 238 246.7 255.3 264.5 271.3 276 282.2 288.5 293.7 302 311.4 319.7 327.6 334.6 341.8 346 350.1 350.1 342.4 332.8 320.1 307.1 292.8 278.4 270.4 269.9 269.4 271.4 262 276 281.9 287.3 292.8 302 308.7 312.3 312.8 314.7 316.4 314.5 305.6 290.8 278.7 268 259.1 247.2 237.4 227 213.4 197 186.1 180.9 180.5 177.3 176.3 173.1 173.7 173.3 171.3 172.7 171.8 170 167.6 165.5 162.9 161.3 159.8 159.7 159.6 154.3 160.3 164.7 169.3 176 184.3 192.7 195.5 197.8 198.8 200.5 203.1 208.7 213.9 216.8 217.2 214.9 209.7 207.1 205.9 204 198.3 193.5 190 184.5 181.2 182.3 183.4 188 196.5 207.6 222.5 234.1 246.4 249.9 249.3 246.7 246 242.9 238.2 245.2 244.6 238.5 231.4 226.2 222.5 214.4 208 206.8 211.2 210.8 207.7 201.1 196.8 187.7 178.6 175 165.3 153.9 152.1 151.2 151.8 156.5 160.1 165 166.2 165.1 165.5 167 165.5 161.5 158.8 156 153 150.7 146.4 144.2 141.7 138.2 134.4 133.1 129.7 124.3 122.5 121.4 120.6 119.3 118 116.8 116.9 116.7 116.1 116.4 119.5 122.4 120.7 120 118.1 114.9 114 112.2 112.4 113.3 111.7 109 106.8 106.2 104.8 104.8 104.1 103.1 103.7 103.6 105 105.6 103.3
283.9 274.5 267.4 264.6 260.2 252.1 246.6 242 238.5 235.8 231.4 227.5 219.8 227 229.4 235.3 242.8 250.5 259.9 265 271.4 277.5 284.3 290.3 297.8 305.5 315.4 322.6 330.7 337.7 342 345.7 343.7 337.1 327.6 314.3 299.9 291.8 285.7 277.8 270.8 272.4 274.2 269.6 277.3 283.6 291.7 297.8 305.9 307.3 305.6 304.7 304 303.7 302.3 292 280.5 273.4 266.9 257.4 245.2 234.4 225.6 216.8 206.9 201.1 195 187.8 184.1 181.4 178.2 177.5 176 173.7 172.4 170.4 169.7 168.6 166.2 163.2 161.2 160.3 159.8 157 157 160.8 168.4 172.1 178.9 187.4 196.7 202 205 207.8 208.4 211.2 215.8 221.6 227.1 224.7 222.4 219.1 216.5 213.3 210.7 208.3 204.3 199.8 192.5 187 183.8 184.2 188.6 196 205.7 222.1 239 249.9 254.1 251.7 250.6 245 239.5 237.7 241.6 240.3 233.7 229.5 223 216.2 209 203.8 198 203.7 202.8 197.4 192.9 190.5 185.9 181.2 174.2 169.5 159.4 151.4 151.2 151.5 156.4 156.9 159.1 160.1 160.9 161.1 160.4 159 156.6 153.2 150.6 148.3 149 146.8 144.9 140.8 136.9 133.7 135.4 133 127.9 125.3 123.9 121.8 118.9 117.7 116.7 116.2 115.2 113.4 113.3 113.6 113.5 113.3 112.1 111.5 109.5 109.2 108.6 109.1 105.2 105.3 104.2 104.6 102.9 103.5 103.4 102.7 101.9 101.4 101.1 101.2 101.8 101.8
295.6 287.5 281.7 276.9 269 261.3 254.4 248.8 244.8 240.1 235.2 227.3 224.1 230.6 233.8 238.3 242.9 248.2 257.3 263.5 268.5 274.4 282.9 288.1 294.7 300.9 312.3 319.7 327.2 333.9 339.7 341.2 336.6 332.7 321.8 316.9 308.8 299.9 292.5 289.9 280.2 276.9 279.9 278.8 277.3 283.8 294 301.4 307 305.7 303 300.6 298.1 294.6 289.7 282.8 275.6 270.6 265.6 254.2 250.4 242.8 232.3 225.5 218 212.6 203.6 197.7 193.4 189.7 187.5 183.8 176.5 179.2 176.6 172.7 169.5 167 165.7 163.3 161.2 160.7 159.2 158.3 162 163.3 169 174.5 181.2 189.6 198.2 204.5 211.5 215.3 216.6 219.7 222.8 230.1 234.2 233.8 231.8 229.1 225 220.9 216.3 210.9 205.5 203.1 196.1 191.7 188.7 187.2 191.6 196.4 205.1 220.1 238.9 249.6 250.1 249.3 247.8 244.8 241.2 238.5 236.9 230.3 227.1 222.1 217 209.5 202.8 196.3 189.8 186.8 188.9 186.4 182.8 180.4 177.7 177.3 174.1 169.8 166 158.5 152 149.3 151.8 152.6 153.9 153.8 151.4 150.6 151.3 150.5 148 147.8 145 142.4 142.5 142.1 140.3 139.5 135.2 132.9 129.7 127.7 124.4 123.9 123.4 121.7 119.9 118.5 116.9 116 115.8 114.1 112.2 110.6 109.3 107.5 108.5 108.2 106.6 107.2 106.5 105.7 113.2 115 111.7 104.8 103.6 103.1 102.6 101.8 101.5 101.1 101.1 100.7 101 100.7
306 300.1 294.9 288.2 279.3 269.9 258.8 251.2 244.5 237.3 230.3 229.2 232.5 235 237.4 242 247 252.6 259.3 265.6 270.7 276.8 283.3 289.2 294.5 300.2 308.6 318.3 325.1 333.2 337.5 336.4 335.4 331.7 328.8 323.4 312.9 307.9 297.3 292.7 291.4 282.2 281.4 281.1 281 289 295.9 303.2 306.5 303.4 300.3 298.5 295.6 290 281.5 278.7 275 276.3 276.4 269.1 262.1 251.9 242.8 234.5 227.5 221.6 215.2 208 202.6 197.8 193 190.5 184.8 179.2 176.5 172.9 169.8 166.2 164.3 162.3 161.6 160.9 158.9 162.9 164.9 170.1 173.4 176.9 183.3 192.9 200.1 207.6 215.4 221.8 224.5 226 230.8 236.3 242.4 244.2 237.3 235.6 232.6 230.8 224.5 215 213.6 207.1 201.3 198.6 194.9 192.8 197.1 199.1 207.9 224.2 239.2 246.8 246.1 247.2 249.1 246 240.8 237.7 235.6 228.6 223.8 216.3 211.1 203.5 195.2 187.7 180.8 176.6 173.9 170.7 168.7 169.1 168.3 168.1 168 165.7 167.6 165.3 159.1 152.5 147.9 147.2 146.5 145.4 145 142.5 140.5 139.2 139.2 138.2 136.7 135 135.4 135.2 132.2 131 129.8 126.8 123.6 123.1 123.1 122.1 123.3 121.1 120.7 119 116.5 116.9 116.9 114.7 113.7 110.8 108.8 107.4 107.1 107.1 107 106.1 105.6 105.7 107.5 111.7 114.2 113.6 110.7 108.2 104.4 102.4 102.3 101.2 100.9 100.5 100.6 101
312.2 306.5 296.9 289.8 278.6 268.9 259.4 251 242.1 235.1 233.7 235.9 237.9 241.4 245.6 246.2 251.5 257.1 265.3 270.4 275.4 281.1 284.5 289.2 295.4 302 308.5 316.7 324.7 331.7 337.7 340.5 340.8 340.3 335.4 323.1 318.4 310.4 301.1 298.4 296.3 291.8 284.4 283.5 281.2 289.8 298.7 302.8 303.6 301.2 300.4 297.6 292.9 288.7 284.6 281.7 282.4 286.5 284.8 280.1 274.9 264.7 256.9 245.2 237.6 232.8 224.5 217.4 210.7 204.3 199.1 194 190 185 176.3 172.8 169.5 165.8 162.9 162.5 161.6 161.2 162.9 165.9 167.5 173.1 178.4 179.7 187 194.9 202.4 211 220.8 227.4 230.2 232.7 237.3 243 247.7 249.9 249.6 248.6 245.1 237.9 231.9 229.5 223.3 215 210.1 204.5 200.9 198.8 202.7 207.1 212.5 224.1 237.2 243.8 245.1 249.7 248.4 244.7 241.9 237.8 232.3 225.4 218.5 212.1 204.7 198.1 189 181.1 174.1 168.6 164 159.7 157.8 162.1 162 160.5 162.1 161.1 162.4 163 160.6 156.8 151.3 147.2 142.4 139.6 139.3 138.4 136.4 134.6 131.6 129.7 130.6 130.9 130.8 129.4 127.1 125.8 126.6 123.8 121.4 121.6 123.5 121.5 119.5 117.9 117.8 116.4 116.3 115.7 114.8 114 112.4 111 110.2 109 108.4 107.4 106.4 106.5 105.6 105.6 107.2 109.2 111.1 112.5 111.7 112.5 111.8 110.1 106.1 103.7 101.2 100.3 100.7 100.7
316.7 306.9 294.4 284.6 274.6 264.5 256.4 245.6 238.2 237.5 238.9 241.7 245.1 248.3 252.2 252.7 257.9 265.3 272.4 276.8 279.9 283.4 288.7 291.6 297.3 301.2 310.2 318 325.5 333.4 340.6 344.8 346.8 345.3 335.1 328.1 315.8 307.6 302 296.2 294.8 292.3 286.3 283.4 281.2 288 300.6 299.4 297.9 299.8 296.5 297 293.3 289.8 288.5 288 291.3 292.3 292.6 288.1 285.2 276.4 264.8 257.5 248 243.5 233.9 227.8 218.2 209.8 203.3 194.5 192.4 185.1 175.9 173.1 168 165 164.1 163.2 161.7 162.3 166.9 169.4 172.2 176.8 183.2 185.6 188.7 197.5 204.2 212.4 225.4 230.7 234.1 239.2 245.6 252.4 256.1 255.4 258.4 256 250.1 243.5 241.3 237 232.2 226.1 219.3 212.4 205 204.4 206.8 211.2 215.8 225.8 234.2 241.6 243.3 248.8 247.5 242.8 239.4 234.3 224.7 220.6 214.2 206 198.3 191.7 184.9 176.2 169.4 162.1 158.5 154 150.5 150.9 153.6 153.9 153.8 154.9 157.8 154.7 155.7 153.9 151.1 148.6 141.4 137.9 137.5 134.4 132.8 130.2 127.4 126.9 125.1 125.4 126.7 125.4 125.6 125.4 123.1 121.2 120.9 121.4 121.6 120.6 119.3 116.5 115.2 114.4 114.4 113.6 113 112.7 111.4 109.8 109.8 109.4 108.6 107 106.7 105.7 105.5 105.1 105.1 107.2 107.5 107.9 109 110.9 109.6 107.6 105.1 105 102.2 102.5 102.5 102.7
317.1 301.3 289.1 279.2 270.3 262.5 252.8 243.4 241.5 242.1 247.1 250 253.1 257.8 259.9 261.7 266.5 273.6 281.3 288.7 292.5 293.4 296 300 302.4 305.6 311.9 321.2 328.9 340 346 348.3 349.6 347 338.9 328.5 320.2 313.9 306.5 296.3 294.3 291.5 287.6 283.3 282.8 285.2 293.2 295.6 295.6 297.6 297.4 295.6 292.2 292.5 293.4 293.7 297.4 299.7 299.1 296.6 293.9 285.8 275.1 264.6 257.4 249.4 243 234 222.3 213.9 206.6 197.1 190.8 185.2 176.8 171.1 166.6 165.1 164.7 163.5 163.8 166.9 171 174.5 176.7 183.1 186.9 192.2 193.5 199.7 206.3 214.2 225.7 233.3 238 245.9 252.4 259.7 262.7 265.7 263.9 269.5 261.7 252 245.1 240 240.7 234.9 226.9 220.3 212.3 210.6 212.6 214.3 217.2 226.2 231.3 237.8 242.5 242.3 243.2 240.7 233.9 231.2 223 214.6 209.6 199.3 192.7 186.2 178.8 171.6 164.5 157.9 153.2 147.5 144.6 144.2 145.7 148.2 148.9 149.7 148.5 149 147.1 147 148.6 149 138.7 137.3 129.5 128.2 128.2 125.5 124.3 122.5 121.9 121 120.8 122.8 123.5 123.6 121 120.2 121.2 121.4 121.3 119.7 117.8 114.9 114.2 112.8 112.3 111.3 110.4 109.8 109.2 108.5 108.2 107.7 107.5 107.5 107.2 106.6 107.1 107.1 105.7 105 106.6 107.7 106.4 106.1 106.2 105.2 105.4 103.2 102.8 103.2 103.6 103.3
309.6 297.7 285.1 276.5 267.1 258.5 249.8 247.3 248.4 252.1 257 262.7 264 268.5 270.2 270.9 273.5 278 288 295.8 299.3 299 301.9 303.5 305.1 308.5 318 327.8 337.4 346.6 350.1 352.7 351.6 347.7 339.2 329.3 314.4 309.6 304.1 298.2 293 289.7 288.3 285.7 281.6 283 289.6 294.1 294.1 293.7 295.8 297.5 296.6 295.5 296.1 298.2 303.1 305.6 305.2 305.3 300.4 294.1 282.5 269.1 260.4 253.1 245.5 234.6 224 213.8 206.1 198.5 191.8 183.1 175.9 167.3 164.9 166.7 164.7 164.6 167.7 172.6 176.1 181.4 181.5 189.3 194.7 198.4 201.5 203.3 207.7 216 226.3 234.4 241.3 250.3 257.4 267.2 271.6 270.4 273 275.3 274 264.7 256 250.5 242.4 239.3 233.7 224 217.7 216 217.1 217.1 219.8 224.2 230.7 236.5 241.7 242.6 239.7 236.1 228.8 224.2 216.6 209.5 200.8 193.7 188.9 181.8 175 167.4 161.2 154.1 148.3 142.7 140.9 139.9 141.5 144.1 144.4 147.2 147.7 144.8 142.7 139.3 140.1 139.6 138.3 137.5 135.1 128.8 126.6 124.4 123.5 123 122.2 121.5 121 120.2 119.7 119.6 119.2 119.2 120.4 120.4 124.6 119.1 116.4 114.2 113.5 114.4 113.7 112.3 111 110.4 109.1 108.4 107.9 107.2 107 106.8 106.3 106.6 107.5 108.2 107.3 107.2 105.1 105.7 105.7 104.9 104.8 104.2 103.7 103.6 103.5 103.8 103.2 102.6
306.4 293.9 283.3 275.8 265.9 258.7 252.8 254.4 258.1 265.8 271.7 275.1 278.4 279.1 282 282.2 282.5 286.7 294 302.2 306 307.3 311.1 312.6 313.6 317 325.5 337.6 348 351.8 355.5 352.1 351.3 346.8 337.4 326.4 312.8 302.2 295.2 293.1 290.8 289.6 287.9 286.4 282.7 287.5 290.9 297.1 296.4 296 298.2 298.3 297.4 296.7 298.6 302.3 307 311 314.1 313.1 304.7 294.5 286.1 271.9 260.2 252.3 242.6 233.1 223.2 214.6 207.7 201.3 190.8 187.4 178.7 169.5 169.2 168.3 166.1 167.1 173.3 176.7 181.6 186.7 189.7 197.6 201.5 204.2 206.8 209.7 212 220 226.6 235.5 243 251.9 259.8 269.6 276.6 277.6 277.8 278.6 274.2 271.7 264.1 256.2 246.9 243.2 238 229.4 221.7 221 220.8 222.6 223 224 230 235.4 241.3 246.9 243 244 234.6 224 214.5 206 198.4 191.4 184.1 176.1 168.6 162.5 157.4 150.5 144.7 141.5 139.9 139.3 139.3 139.3 140.9 142.1 144.1 142.2 136.7 135.7 134.4 133 131.7 130.6 130.4 129.4 128.3 126.7 124.1 123 122.8 122.2 121.1 120.2 119.5 119.7 119.3 118.1 117.9 117.8 118.3 115.9 118.3 118.1 116.8 115.7 116.3 116.6 115.1 112.3 109.3 108.4 107.8 107.4 106.9 106.6 106.7 107.8 108.7 108.6 106.5 105 104.3 104.3 104.7 104.2 104 104 103.8 103.3 103.6 103.8 110.5 109.6
303.8 292.2 283.5 277.3 268.6 262.2 258.5 262 267 274.6 283.3 287.2 289.7 290.2 293.3 291.2 291.2 293.6 302.3 308 312.3 316.5 319.6 322.8 323.3 325.7 333.1 345.1 353.1 356.1 359.4 352.8 351.5 345 332.8 322.3 309.5 304.6 299 293.4 290.6 289 287.6 286.9 283.6 288.7 292.9 297.4 298.1 297.9 298.5 298.7 297.3 297.1 300 305.1 310.6 313.6 313.9 309.5 300.2 294.8 283.7 269.6 258.5 250 239.9 231.7 221.4 214.5 209.6 201.2 192.9 189.6 183.8 174.5 168.2 168.9 168.7 174.7 177.5 182.3 188.5 193.8 199 204.9 208.6 213 215.5 217 220.6 223 228.5 235.8 244.2 251.2 261 270.5 276.4 280.7 280.4 281.8 276 271.7 266.1 258.2 251 245.3 237.5 231.1 225.6 224.3 224.5 227.4 228.6 229.7 231.9 234.3 236.6 241.2 242 238.7 232.6 225.8 217.9 208.5 200.7 191.5 185 176 166.7 160.6 155.4 147.8 143 140.4 139.4 139.1 138.9 138.8 139 138.8 137.5 136.7 134.9 135 133.7 133 132 129.6 127.2 126.1 123.1 123.1 123.6 122.5 121.9 121.7 120.8 120.3 118.7 118.8 118.9 118.4 118 117.4 119.6 125.4 125.1 122.8 120.6 118.4 117.8 117.5 114.3 111.7 111.5 109.8 108 109.1 109.4 108.5 108.8 108.3 109.6 108.8 108.3 108.5 107.1 105.4 104.8 104.6 104.9 105.6 104.7 104.1 105.2 111.6 114 113.8
308.5 295.4 287.7 280.5 274.6 267.8 264.4 269.8 275.7 284.4 293.2 299 299.4 300.7 300.6 298.3 299.3 301 306.3 313.6 320.5 325.5 327.3 329.7 331.6 335.4 343.3 353.2 357.9 362.7 362.8 357 350.7 344.8 333.1 324.6 312.7 302.3 295.5 293.6 290.8 290.7 287.6 285.5 285 288.4 293.1 297.3 299.3 299 297.6 293.4 293.7 296.7 301.4 306.5 308.9 310.1 307.2 302.1 294.7 288.1 277 264.5 254 246.6 237.5 228.9 217.8 213.9 208.3 200.2 192.5 188.5 185.2 175 170.6 170.3 172.1 179.4 186 187.1 195.7 203 206.9 211.3 215.9 222.3 223.2 225.6 227.7 229.4 231.5 236.9 245 252.3 261.3 269.9 277.6 285.9 285.9 284.9 276.4 271.8 264.7 258.4 251.6 243.3 236.8 234.7 232 229.5 229.5 234.1 237 236.7 236.9 235.9 234.7 233.8 232 232.7 232.3 221.6 213.9 207.6 200 192.6 188 180.9 170.1 164.7 155.8 148 141.9 140.1 139.4 139.4 139.7 140 141.8 142.4 139.2 137.4 139.3 138 136.9 138.9 134.8 129.8 126.5 125.2 125.1 124 123.4 122.6 122 121.2 120.8 120.2 119.5 119 118.4 117.9 117.8 118.9 121.9 125.5 123.7 122 120.3 117.9 115.3 115.4 113 113.5 114.7 112.4 112 111.7 111.5 110.6 110.3 109.6 109.6 109.6 108.9 109.9 109.1 107.2 106.5 107.3 107.1 106.8 111 114.2 114.1 116.8 117 117.8
316.6 304.5 293.4 286.5 279.7 274.1 271.6 272 281.3 290.3 300.9 306.3 308.2 308.9 307.2 305.3 304.3 306.8 311 318.6 324.5 331.3 334.5 338.3 341.9 346.7 354.5 361.5 366.7 369.1 365 360.6 352.4 345.4 334 321.8 311.6 304.2 298.1 294.3 293.9 292.8 290.3 288.7 286.4 294.1 294.7 295.1 299.6 298.4 297 296.9 294.7 293.1 300.5 304.6 303.2 302 296.4 294.4 286.5 276.8 266.4 255.3 248.4 240.5 231.5 223 215.4 210.8 202.4 196 190.9 187.4 184.2 174.9 171.6 175.3 181 186.3 192 197 203.7 210.1 214.2 218.3 226.1 230.5 231.1 231.2 233.3 234.6 235.7 239.2 246 253.7 262 269.1 274 281.7 286.1 282.8 278 270.1 264.7 258.5 252.5 245.5 238.8 238.4 237.4 237.7 238.3 239.2 245.5 242.5 242.5 239.4 236.8 234.6 227.8 224.8 224.1 216.8 209.7 203.9 195.3 186.1 181.9 179.2 174 169.2 159 151.6 144.1 141 140.5 140.2 140.5 140.2 140.9 138.3 138.2 143.3 144.6 143.8 142.4 138.4 138.1 134.6 130.8 129.6 126.6 123.3 123.2 122.4 121.8 121.1 120.8 120.3 119.4 118.9 118.5 119.5 118.5 119 121.8 122.8 122.9 122.4 121.4 119.9 116.4 115.9 117.4 115.6 119.6 116.3 114.2 112.8 112.5 112 112.6 116.2 115.3 115.1 113.1 113.1 112.2 111.7 110.4 108.9 108.4 110.8 116.4 119.7 119.8 121.2 122.4 124
327.6 315.3 303.6 294.5 286.4 280.9 278.4 275.2 285.1 296.3 307.3 312.2 315.1 315.1 314.1 312.1 311.8 313.5 319.4 326.1 332.8 337.2 344 349.3 354.2 360.8 366.7 370.4 374.4 376.1 368.9 362.8 355.7 347.7 338.3 328 316.8 305.8 299.1 297.4 296.5 298 296.6 295.6 290.1 293.2 301.1 296 302.2 301.1 299.9 298.4 297.3 293.2 298.1 300.3 295.7 291.7 287.2 283.9 274.6 264.7 255.9 250.2 241.6 233.5 223.8 216.5 208.8 203.8 198.6 194.1 189.1 179.4 176.2 175 174.1 183.1 188.6 192.7 199 205.4 210.8 217.7 222.5 226.9 233.2 238.7 237.5 238.3 239.1 240.6 241.8 241.6 247 254.5 261.6 268 273.3 279.2 285 280.6 278.8 269.7 263.9 259.5 254.1 245.5 241.7 240.5 240.3 240.2 241.9 245.8 246.3 250.2 250.3 247.7 243.3 236.6 229.4 223.1 212 210.5 206.5 198 192.3 186.6 179.9 170.1 162 155.4 155 151.8 143.9 143.5 140.9 140.5 140.8 140.8 140.2 140.3 141.8 148 149.2 151.8 148.5 146.8 144.5 138.8 136.8 134.8 132.8 129.6 126.4 125.6 122.8 122.1 120.7 120.5 119.5 119.7 119.4 119.2 119.2 119.2 121.1 121.8 124.3 122.2 117.4 116.6 117.1 118.9 120.3 123.2 123.8 123.8 123.6 121.1 123.1 123.3 120.3 119.3 118.5 116.1 114.9 113 112.5 111.6 110.4 110 109.7 114.1 119.8 124.3 127.3 129.3 131.6 131
339.2 326.1 313.3 302.9 293.9 288.5 285.7 280.4 292.4 303.6 313.4 318.4 319.9 320.6 320 319.8 320.4 324.9 331.1 337.8 345.1 347.6 354 359.8 364.7 369.9 375.5 379.3 381.4 378.1 370.4 362.2 354.6 346.4 337.5 327.7 318.5 311.4 306.6 308 305.2 301.4 298.3 297.2 293.7 295.5 294.2 296.2 298.8 300.2 296.8 295 294.9 295.5 295.7 294 289.9 283.9 277.7 271.3 263.2 255.4 248.1 240.8 233.1 225.7 217 208.7 202.7 198.2 192.7 188.8 182.9 179 179.4 182.2 182.8 192.1 195.6 200.5 207.8 211.6 218.5 224.4 230 236.4 243.4 243.7 245.2 244.9 245.2 247.1 247.3 248.3 249.5 256.2 262.4 269.2 274.2 278.1 281.9 278.9 275 266.6 264.5 258.3 250.6 247.5 244.5 243.3 243.6 243.3 246.9 249.3 254.4 256 253.3 250.8 245.5 239.6 236.6 224.1 217.9 213.4 209.3 203.5 198.7 191.3 185.5 176.8 171.7 165.6 158.7 153 147.1 144.5 142.5 141 141.4 141.6 141 144.9 146.9 147.7 147.4 150.4 144.3 144.1 141.9 141.6 139.6 137.9 136.7 133.1 129.9 128.9 126.6 124.5 122.8 122 123.1 121.3 120.9 120.7 121.1 121.1 120.9 120.8 121.6 119.8 119 120 120.4 121 126.6 133.3 130.9 128 130.3 128 127.5 129.1 127.2 124.7 123.7 121.3 121.5 119.8 120.8 119.9 115.3 111.7 111.7 119.4 125.5 133.5 138.7 140.4 143.9 139.4
350.9 337.9 325 312 303.8 296.2 291.1 281.8 300.1 312.4 319.7 324.3 326.4 328.8 329.5 331 333.6 339.2 346 351.9 358.2 359.4 363.8 370.1 373.6 377.1 382.6 385 384 379.9 368.7 362.6 355.2 344.9 334.7 323.8 317.1 311.5 309.7 307.5 305.1 301.1 297.6 294.1 298.2 300.9 298.1 295.6 293.9 295.3 294.8 290.2 288.5 287.9 291 286.2 279.1 275.3 268.8 263.1 255.2 248.4 240.6 233.8 226 219.8 211.3 204.2 197.6 190.1 187.3 183.4 180.5 182.4 182.6 184.3 190.7 197 202 207.9 213.7 219.2 226.3 232.5 240.6 245.3 247.1 251.2 252.7 252.8 252.5 252.6 252.7 253.2 254.9 257.8 262.8 269.3 273.6 277.9 278.7 278.4 269.3 266.6 265.7 259.4 258.4 251.1 248.8 247.5 246.4 247.8 250.3 257.3 261.2 262.8 265.9 262.8 255.8 243.9 238.1 234.9 223.2 218.7 219.2 207.4 201.7 193.8 188.6 186.2 182.7 175.3 167.6 162.6 156.2 150 145.6 143.1 142.8 142.5 142.1 146.5 150.7 154.3 149.1 150.4 152.9 149.2 145 143.6 143.1 141.7 141.3 137.4 134.5 133.4 129.4 127.8 126.9 127.7 126.7 125.7 123.4 123.9 123.4 122.9 123.3 122.6 121.2 122 123.3 123.1 123.5 125.3 137.4 136.4 135.2 136.5 134.5 133.6 131.9 133.7 133.7 132.7 130.1 127.1 125.8 124.9 123.8 121.8 119.2 114.6 116.9 124.1 133.4 141.8 147.1 148.6 149.1 148.1
363.6 351.8 337.3 324.4 315.5 305.7 296.5 288.8 308.2 318.6 327.6 333.9 337.9 342.1 345 347.9 351.2 356.6 363.1 369.3 373.2 373.6 374 379.2 381.2 384 388 387 383.3 377.7 366.1 358.9 350.2 339.9 331.4 323.4 315.3 311.3 308.2 305.6 303.2 298.7 295.6 297.1 296.9 296.6 295.6 297.4 301 297.5 297.1 289 287.6 284.9 279.7 275.6 273.1 268.8 261.8 254.4 244.7 237.8 236.6 228.9 221.9 215.5 203.1 190.6 187.8 186 183.7 181.8 183.7 185.4 185.3 193.5 198.1 202.1 208.8 213.4 221.7 228.7 237.6 243.5 250.8 252.8 255.9 257.3 257.9 259.5 258.4 258.6 257.6 258.1 259.8 261.5 264.2 268.5 272.2 276 278.4 273.4 272.8 271 271.3 266 265.7 257 252.8 252.9 253.6 256.3 258.6 261.8 267.4 276.5 276.2 268.3 263.1 253.4 241.2 238.2 228.7 217.4 218.9 216.4 208.2 197.4 192.1 186.9 186.1 177.6 175.3 165.3 162.2 155.3 153.3 150.5 148.3 146.3 144 145.9 150.5 151.5 155.1 157.3 156.3 151.5 149.3 151.6 150.9 150.6 147.1 143.4 143 139.7 135.2 135.3 135.3 136.1 134.1 131.5 129 127 126 125.5 126 128 127.4 127.4 129.4 131.6 128 128.1 136.6 135.5 140.8 143.4 143.7 143.1 140.5 138.9 140.1 139.1 135.2 131 128.3 127.1 123.9 124 122.3 119.7 123.7 131.1 140.4 149.4 155.2 156.5 157.5 157.3
377.2 365.6 352.9 341.2 330.4 318.2 306.2 291.5 314.1 327.1 336.1 343.5 349 354.2 359.3 363.6 368.4 373.9 378.7 383.7 386 384.8 385.8 386.3 386.6 389.8 390.9 386.3 380.6 372.2 361.4 351.1 342.4 334.7 327.1 319.6 314.1 311.1 308.8 305.8 299.6 299.9 299.9 299.1 300.5 297.2 297.7 297.8 297.7 297.8 293.3 294.8 293.9 291.5 283.7 277.5 264.8 260.3 249.8 246.6 238.3 223.1 220.4 228.4 220 207.7 193.7 191.1 188.4 185.4 188.3 192.2 193.2 189.3 188.8 197.3 202.7 206.7 213.3 221.1 229.7 239.2 248.5 255.2 260.7 262 263.5 265.4 266.5 265.5 265.2 265 264.3 263.2 264.1 264.5 268.3 270.5 273.8 279.5 282.4 280 279 278.5 276.4 275.3 273.5 268 263.1 260.7 262.2 264.2 263.7 271.9 277.4 282.4 282 277.2 264.1 250.4 246.8 232.8 228.9 223.1 214.6 216.5 215.1 203.1 196.6 192.6 186.3 177.4 176.6 168.6 166.1 161.2 154.3 152.7 151.3 148.9 144.9 146.9 151.1 155 159.4 160.8 153.2 163.2 157.3 156.4 150.3 147.5 151.5 154 154.5 154.1 149.9 143.3 146 145 140.7 137.7 135.1 132.8 129.9 129.6 132.1 133.8 134.3 134.7 133.7 135.8 134.5 133.5 136.7 142 149.5 154 156.5 157.5 152.9 149.5 148.4 148.2 147.1 142.8 137.8 133.6 130.6 127.7 125 128.7 133.7 139.6 149.4 157 163.6 166.9 169.4 164.4
388.6 378.7 368 357.1 344.9 333.4 319.9 307.7 313.2 333.7 344.8 352.6 359 366 373.5 379.3 383.6 389.5 394.7 397.8 398.3 396 394.9 392.4 390.9 392.3 388.6 384.3 375.7 365 353 342.7 335.8 329.8 322.9 317.3 314.9 311.6 308.3 301.9 301.7 301.3 304 302.7 304.7 305.5 303.8 302.3 300.8 298.5 300.4 302.8 299.2 294 287.9 281.5 273.9 268.4 264.3 257.9 248.7 236.8 220.4 209.4 204.4 199.3 205.1 201 194.2 192.2 195.3 197.8 197.3 192.1 193.8 197.9 203.7 211.2 218.6 226.5 237.6 248.6 257.6 262.1 266.6 270.2 272.1 273.9 274 274.2 273.4 272.1 270.9 270.4 269.7 269.3 272.6 275.8 279.8 284.4 286.7 289.3 289.9 288.1 286.7 285.2 283.7 281.8 278.1 274.8 271.6 270.2 274.9 279.4 283 281.4 282.6 278.4 269 256.7 242.3 239.3 226.2 222.5 216 215 210.5 207 198.4 192.8 187.4 177.9 177.8 173.3 164.2 159.8 157.7 153.4 152.1 147.4 145.9 147.1 152.3 157.1 158.1 155.4 162 165.3 157.7 166.6 162.4 168.3 170.6 167.1 164.9 162.1 157.3 155.6 155.1 151.3 147.9 143.8 138.5 136.7 137.2 139.1 142.5 142.9 143.7 143.4 141.1 138.6 138.2 137.8 138.5 148.4 159 163.9 165.3 168.9 167.5 164.7 158.6 159.7 157.5 153.2 149.7 144 137.9 133.1 129.5 133.9 139.3 147.6 155.5 163.6 173 176.4 176.3 174.3
399.9 391.1 380.8 370.8 362.6 350.9 334.2 319.5 319.3 339.7 350.6 359.5 367.8 376.8 386.3 392.5 398.6 403.3 407.6 408.7 407.6 404.8 399.9 394.9 393.6 391 385.9 378 366.8 354.3 342.2 336.4 327.3 320.5 319.1 316.3 311.1 305.6 303.6 303.3 304 308.2 308.6 312.6 315.1 319.6 318.7 317.2 314.2 308.5 308.2 305.9 303.3 298 292.8 288.5 284.9 280.9 276.8 266.4 255.2 244.7 233.9 222.6 212.7 209.7 211 207.4 205 204.6 203.3 204.3 202.1 195.5 202.4 205.3 208.2 215.6 225.6 235.5 246.3 254.5 262.8 269.1 272.4 276.8 279.1 279.4 279.9 280.8 280.3 278.9 278 276.7 275.9 275.9 276.1 279.2 286.6 290 292.9 295.6 298 298.8 298.9 296.9 294 291.7 288.9 285.1 283.2 281.2 283 284.5 287.7 286 279 272.1 262.1 252.4 243.6 232.1 228.1 214.1 212.5 210.1 208.5 207.1 199.7 193.4 185.1 179.6 172.8 173.8 167.2 158.9 157.8 155.4 152.6 148.8 146.6 150 152.2 155.7 156.3 160.8 163.3 160 167.3 171.3 171.5 180.5 185 183.8 179 177.4 171.4 163.9 160.8 164.2 157.8 153.3 144.2 144.6 146.5 148.9 151.7 153.4 153.6 151.2 147.9 145.2 141 139.5 144.7 155 166.1 171.6 175.9 181.7 182.3 179.3 172.1 168 165.9 164.4 161.3 156.4 148 140.4 135.2 136.6 143.1 151.1 158.1 169.5 181.6 185.2 186.1 183.8
407.5 400.7 393.1 384 373.7 363 348.7 332.6 324.7 345.2 356.3 366.4 378.6 388.7 397.8 404.4 409.2 413.8 416.4 416.7 415 409.1 403.9 396.6 393.8 388.8 382 369.9 357.3 349.5 338 325.6 319 312.4 310.1 306.2 304.8 304.9 306.4 307.7 308.9 311.4 315.6 318.6 325.2 326.9 323.9 327.5 322.3 323.6 317.9 315.1 312.3 304.2 301.2 297.6 293.1 288.9 284.9 276.3 268.6 256.1 241.6 229.5 216.6 220 217.6 214 214.5 213.4 212.4 210.9 206.1 199.9 209.1 211 217.1 222.4 230.4 238.3 248.2 258 266.6 272.6 277.3 280.7 283.7 287.3 288.6 289.3 289.9 289.1 287.8 287 287.8 288.3 288.2 288.7 292.2 296.2 299.7 304.8 308.7 309.1 309.5 305.4 303.3 300.3 298.1 294.6 292.1 290.7 289.7 290.9 293.4 290.3 282.3 271.1 262.3 250 240 232.2 216.5 213.7 207 205.3 203.9 202.3 200.6 189.3 184.6 181.7 172.3 172.3 168.1 162.4 158.2 155.1 153 149.9 152.3 152.4 156.1 158.3 162.7 164.9 160.8 167.1 174.5 172.1 177.3 183.8 186.8 185.8 185 182.7 178.9 175.1 172.4 171.4 167.4 160.8 149.3 154.8 156.5 159.3 161.9 164.3 164.5 162.2 161.4 155.6 148.2 143.9 144.4 155.7 165.5 175.7 184.3 191.2 195.2 186.2 181.6 177 174 173.3 169.4 163.6 156.4 148.6 141.9 140.6 145.3 153.4 162.1 175.7 186.9 194.8 196.8 195.8
416.2 410 403.8 394.8 384.8 373.3 358.5 348.5 329.8 346.8 361 373.1 385.5 396.5 405.4 412.8 417.9 420.7 421.9 420.3 416.7 411.2 403.4 395.1 392.1 386.1 373.1 361.6 351.6 340.5 330.1 321.7 315.9 313.8 307.8 308.6 308.4 308.2 308.6 308.9 312.6 316.4 319.4 325.5 332.5 333 338.1 336.5 333.6 330.1 323.7 321.1 315.3 307.4 307.7 305.9 302.9 297.9 292.3 281.7 274.5 265.1 254.9 241.6 231.6 227.6 224.4 223.8 221.6 221.4 220.8 216 213.4 206.6 217 219.4 222.9 227.2 234.4 243.1 249.6 257.7 267.5 273.6 279.2 284.1 290 294.6 297.2 299 298.6 299 297.5 294.4 294.1 294.3 294.6 295.9 298.4 303.3 306.2 313 317.3 317.4 318.7 316 313.3 309.5 306.3 301.9 299.3 296.7 295.5 297.1 301 297.7 284.2 273.2 261.7 249.4 238 228.7 216.2 210.6 205.2 200.1 197.3 197.1 197.9 189.2 182.7 174.8 173.8 167 166.4 162 159.4 156.5 152.8 150.7 154.2 156.3 160.4 162.9 165.1 163.1 161.8 165.9 173.3 172.9 178.4 184.3 186.3 185.8 185.3 183.8 182.3 180.1 178.4 176.8 175.5 167.8 160.8 163.6 166.4 169.5 172.4 174.8 177.3 175.6 174.2 170.4 157.3 151 150.7 152.7 162.9 174.9 187.6 197 199.7 196.1 190.9 186.1 183.5 179.1 174.9 167.1 158.5 151.6 145.4 143.3 148.7 157.3 170.9 182.5 191.1 199.5 206.1 207.4
421.3 417.1 411.4 402.9 393.2 380.9 368.1 358.2 343.2 351.2 365.8 377.7 389.8 400.6 411 418.6 423.6 425 422.9 420.1 414.9 408.4 400.9 392.9 391.6 382.7 369.9 356.8 348.1 337.5 329.3 322.1 314.2 312.5 308.9 310.5 311.2 311.7 313.2 314.9 317.3 322.4 328.9 335.1 339.1 342.6 344.9 343.8 339.4 335.9 331.7 326.5 321.3 311.5 314.8 313.9 311.4 305.7 298.9 289.7 279.5 268.6 262 246.4 239.2 233.2 233.5 233.2 229.1 228.2 226 220.6 218.8 211.1 221.9 226.1 229.7 235.5 239.3 246.3 252.4 258.5 266.5 274.4 280.6 287.4 294.9 301.2 305.8 309.4 310.1 309 308 305.1 301.5 300 300.3 301.5 303.1 307 312.1 316.8 322.3 323.8 324.9 324 321.9 316.9 312.3 309.3 306.9 304.1 301.8 302.8 302.5 302.6 293.6 276.6 262.7 248.2 236.7 228.3 218.1 210.3 205.2 195.8 190.5 189 190.1 187.4 180.8 177.3 171.5 169.5 164.7 162.9 160.7 157 154.9 151 155 158.1 160.7 166 160.4 163.6 169.3 174.7 175.7 177.2 177.9 182.4 181.5 181.8 183.9 182.9 181.9 179.5 177 172.7 175.5 167.7 169.1 175.7 176.3 180.2 183.3 184.9 188.5 192.9 183.8 177.8 167.2 156.6 156.7 154.6 160.6 171 184.9 197.5 202.7 198.5 197.7 190.8 188.5 184.8 177.4 169.4 158.5 152.3 145.7 146 154.5 162.7 179.2 191.7 198.6 203.3 207.6 212.9
424.9 420.9 415.4 406.8 397.8 385.7 375.4 364.5 354 352.8 369 380.4 392 402.7 412.2 419 423.3 424 422.2 419.4 414.7 408.1 400.7 393.7 389.3 378.7 365 355.2 345.6 335.9 327.9 322.4 315.4 312.6 311.3 311.8 312.1 313.9 320 322.5 326.6 332.1 336.4 341.2 346.1 349.1 348.4 349 346.9 340.6 333.9 329.5 325.3 322.3 323.4 322.2 319.2 314.2 307.3 299.3 287.8 277.5 268.6 260.6 249.6 242.1 242.9 239.2 235.9 234.6 231.2 227.9 222.6 221.4 227.9 232.5 236.2 241.1 246 250.3 255.7 262.8 269.5 274.9 280.8 289 299.2 307.7 314.7 319.4 321.2 319.6 316.9 315 310.4 307.9 307.3 307.7 307.8 310.2 312.8 318.4 324.1 326.8 329.8 329.1 327.3 322.1 317.6 314.4 312 307.7 305.4 305.9 303.6 299.5 292.9 279.1 262.8 248.9 237.1 225.6 215 207.9 202.2 192.3 190.5 185.9 184.6 183.4 180.1 178.1 171 167 166.6 164.3 161.6 158.6 149.6 154.8 157.4 159.3 158.7 160.5 162 173.7 175.3 177.2 176.1 181.1 176.2 182.6 185 183.5 180.9 179.2 177.3 176.4 175 175 171.2 174.4 183.1 186.5 189.7 190.9 191.1 195.1 198 199.8 192 183.1 172.4 163.5 160.2 159.4 160.5 168.2 182.5 194.2 202.3 202.1 200.8 194.2 190.2 186.9 179.8 170.7 158.3 152 146.1 150.8 157.5 168.7 185.4 200.3 205.5 206.9 208.4 212.8
425.4 422 417.2 409 399.6 389.6 378.7 369.7 360.6 359.4 371.9 381.3 392.4 402.2 410.1 416.2 419.7 420.8 420.1 418.3 414.3 408.4 399.6 392.7 385.5 373.8 363.4 352.2 343.9 335.3 328 322.3 319.3 314.7 313.7 316.7 319 324.3 327.8 331.3 335 338.1 341.7 347.1 350.1 353.2 353.3 351.7 349.6 346.4 339.6 336.9 334 332.8 332.5 332 328.2 323.2 315.5 307 295.5 287 277.2 268.3 263 256.7 253.7 248.9 244.9 240.8 238 235.8 223 231.9 237.1 240.7 241.9 247.7 250.4 256 260.7 266.4 272.6 277.4 283.3 292.1 303 313.2 322.7 329.2 329.7 328.1 325.2 322.1 318.9 315 314.9 314.5 314 313 313.9 319.4 324.1 327.3 332 332.7 331.6 327.7 323 318.7 315.4 312.1 309.1 307.4 302.4 294.7 289 275.7 257.8 244.9 235 224.3 214.4 205.8 199.4 192.6 187 183.2 179.7 176.4 175.5 172.5 169.1 167.4 166 162.3 160.9 153.2 156.3 161.6 159.2 161.8 162.7 167.8 173 176 177.3 177.2 178 178.3 181.6 182.5 184.5 184.5 183.7 182.5 180.5 178.6 178.2 179.7 172.6 182.7 190.1 193.3 197.1 199.5 198.2 203.8 205.8 203.3 196.7 187.2 179.7 172.4 165.3 163.4 162.3 166.4 176.5 186.9 196.6 201.5 199.2 195.6 191.6 187.4 181.1 170.5 158.5 152.6 149.8 154.8 161.6 171.9 187.9 201.5 208.3 209.6 211.2 212.4
423.5 421.3 416.6 408.7 399.2 389.4 380.2 372.1 362 364.6 372.1 381.6 390.9 399.9 407.4 413 416.1 417.5 417.5 415.5 412.6 407.3 398.8 391 382.4 372.4 362.3 351.2 342.1 334.3 328.9 324.3 320.9 315.1 318.1 320.6 323.9 328.9 333.1 336.8 340 342.8 346.2 350.4 353.2 356 356.8 355.7 352.2 349.9 346.6 345.1 344.5 342.4 341.1 339.8 336.7 330.8 323.1 314.8 303.9 295.9 285.6 277.9 269.4 266.2 263.1 259 253.9 249.5 243 237.7 233.8 240.3 249.5 255.2 250.7 253.2 256.2 259 264.5 270.4 277.4 281.2 289.3 298.2 308.8 318.1 328.6 336.6 340.5 338.3 334.9 329.8 326.5 322.6 319.7 318.6 318.5 316.7 316.7 321.1 323.1 327.2 331.8 333.7 332.9 329.3 325.9 320.5 315.8 310.9 307.4 302.1 296.7 288.5 279.1 267.4 251.4 239 230.9 222.7 212.2 205.1 197.2 191.7 185.6 181.8 176.6 172.6 170.8 168.5 167.9 166.5 164.7 163 157.2 157.5 162.7 161.9 163.6 167.4 170.3 173.1 176.9 178.4 177.9 179.5 177.8 182.1 183.5 183.8 184.5 184.8 184.1 182.2 181.7 180.9 181.1 181.7 176.2 183.4 193.5 197.9 201.8 204 204.6 208.2 210.6 208.1 200.6 195.9 188.4 179.6 172.3 167.7 165.7 167.5 171.2 176.7 188.1 195.7 194.7 192 190.9 186 180.7 170.8 160.8 153.2 151.6 157.6 164.5 173.5 186 198.6 206 210.2 213.3 214.6
422.6 419.3 413.4 405.7 396.6 387.7 379.1 373.1 367.2 367.1 373.3 381.9 390.1 397.6 404 409.5 412.6 413.8 414.8 414 410.8 405.4 398.4 392.8 384.9 373.4 362.3 353.2 343.5 336.1 330.6 326.9 323.3 315.8 321.8 325.1 329.2 333.2 337.7 341.9 344.3 347.9 351.1 353.5 356.3 358.6 359.1 358.9 357.1 355.2 354.5 353.3 352.3 351 350.1 348.7 343.4 336.8 329.4 320.8 312.3 304.3 295.8 287.5 279.2 272.9 267.2 263.8 256.9 247.8 247.4 247.2 242.3 253.4 258.7 258.2 259.5 263.7 264.8 270 275.8 280.2 285.2 292.7 298.8 306.4 313.9 323.1 333.9 343.2 347.2 346.7 343.1 337.7 333.6 329.4 326.3 322.4 319.8 318.1 319.2 319.5 321.7 324.6 330.3 333.4 333.1 329.7 326.9 320.6 314 308.9 302.2 297.5 289.1 282 271.8 256.4 243.2 231.6 225.7 217 209.7 202.1 194.3 189.7 184.8 180.6 175.7 172.2 170.3 168.7 166.7 165.9 164.2 161.8 156.7 162.9 163.8 162.8 166.9 170.7 172.4 174.6 178.6 179.3 180.7 181 181.4 184.6 185.2 185.2 185.2 184.8 183.8 184.9 181.8 181.2 184.5 176.9 177.2 186.8 194 202.8 206.7 206.8 209.8 211.7 211.1 209.6 206.2 202.4 195 185.6 179.6 172.9 169.1 168.9 170.7 174.5 181.7 186 188.3 187.7 184.8 180.8 175.5 170 164.8 157.3 157.7 162.1 168.5 175.7 188.8 201.2 212 217 222.1 225.1
419.9 415.6 409.6 401.8 394.2 385.6 378.2 374.1 369.3 368.1 375.7 381.9 389.5 396 401.4 406 409.1 411.6 413.6 413 412.6 407.5 402.2 396.1 389.2 378.9 367.6 357.5 347 339 333.2 329.7 326.3 320.6 325 328.4 333.3 338.2 342.8 346.6 350 353.4 355.8 357.1 361 363.1 363.7 363.9 363.8 362.8 363.3 363 361.8 360.3 358.8 356.6 351.3 344.3 336.6 328.6 320.1 312.3 303.1 294.9 286.1 278.2 269.2 265.4 251.9 259.2 259.2 259.3 256.5 261.2 264.1 266.5 269.2 271.5 276.3 282.1 287.4 293 297.7 302.2 306.7 312.5 319.1 328.2 338.6 349.3 355.2 354.1 349 344.9 339.2 334.9 331.8 327.3 321.8 318 315.2 316.2 319 321 327.3 331.2 331.5 329.6 326.1 317.8 309.3 304.3 295.7 288.7 280.7 270.8 257.9 246.3 234.9 226.1 219.8 213.7 206.8 200.7 194.3 188.9 184.3 180.2 176.5 172.8 170.3 168.3 166 164.2 163 162.1 158.3 161.8 163.3 164.5 167.6 170.6 174.5 176.6 179.2 179.3 179.5 180.9 186.1 187.1 187 188.3 186.9 186 186.4 186.6 193.7 192.2 187.2 189.3 190.8 194 202 207.8 212.6 213.8 212.6 214.1 216.8 210.4 209.3 203.2 196.4 189.7 184.3 177.2 172.2 170.8 170.9 172.8 178.8 183.6 184.8 183.5 183.2 182 176.4 170.3 165.5 162 162.2 167.7 173.8 180.7 195.4 208.2 217.6 226.7 231.4 232.7
416.9 412.5 405.9 398.1 391.1 382.6 377.1 373.5 369 371.3 378 383 388.1 393.3 398.1 402.7 406.5 410.6 413.4 414 414.3 410.7 403.7 398.3 391.3 381.5 370 359.2 349.6 340.8 335.3 331.6 328.6 323.4 328.7 331.6 337.3 342.5 348.4 352.7 356.1 358.9 361.2 362.8 365 367.9 370.2 371 371.3 371.7 372.1 371 369.9 369 367.4 363.7 358 350.5 342.9 335.6 327.7 319.6 310.6 300.4 290.5 281.9 274.6 266.1 269.4 269 269.4 271.9 268.6 272.6 276.6 278.4 278.8 282.7 288.1 293.6 298.4 303.6 306.9 310.1 313.9 318.5 323.9 332.9 343 353.2 360.7 360.4 357 351.6 345.6 339.4 333.6 327.4 319 314.9 310.7 310.4 312.6 316.5 322.7 326.6 328 325.7 322.8 313.1 305 296.7 289.1 277.6 264.7 251.6 242 234.9 226.5 220.5 213.5 208.5 203.4 197 192.9 187.3 184 179.5 176.4 173.1 171.6 170.1 167.2 165.5 164.3 163.2 160.1 157.3 164.6 165.5 168.3 171.7 175.4 177.8 179.8 184.4 187.4 189.8 191.7 192.2 193.5 193.1 191.1 195.4 197.8 198.9 202.2 202.2 198.1 198.1 200.5 203.6 207.2 212.2 216.3 218.3 217.2 216.6 217.5 212.8 207 202.8 196.7 190 185.3 180.3 176.5 173.3 174.2 175.1 178.1 184.8 184.9 184.2 183.4 182.1 174.9 169.9 166.1 165.3 168.9 172.8 178.3 186.8 200.7 215.4 227.2 235.9 241 244.2
415.3 409.6 402.5 395.1 389.6 381.8 377.5 374.7 370.4 374.2 378.9 383.4 387.6 392.1 396.8 401.1 406.3 410.3 413.6 415.1 415.5 413 406.7 399.6 393.3 385.3 374.3 363.3 354.2 344.7 337.7 333.6 330.4 326.8 329.6 334 340.6 346 353.8 358.6 360.6 364.2 366.7 367.5 369.3 372.1 376.3 377 379.3 380.8 381.2 380.7 380.1 378.7 376.8 373 366.5 357.3 349.5 341.1 333.3 325.1 315 304.4 294.5 285.3 277.2 271.2 278.4 280.5 282.2 283.7 281.8 283.9 285.8 285.9 288.2 293.3 298.7 304.3 309.2 312.5 316.1 319.7 322.2 324.1 329.2 336.8 344.9 354.1 360.8 363.3 361.2 355.9 348.2 340.8 332.8 325.1 316.3 309.8 305 303.1 304.3 306.5 316.8 321.7 324 321.7 316.2 309.2 297.8 287.9 278 263.6 248.9 240.8 234.9 228.4 221.3 216 210.3 204.7 199.3 195.1 191.5 186.4 181.8 178.4 176.3 174.7 172.5 170.9 168.1 167.4 165.2 164.6 160.7 161.5 165.1 166.6 169.7 172.9 176 179 180.7 187.1 190.8 192.8 194 196 195.6 200 205.9 210.1 214 214.1 213.1 210.3 206.5 205.6 210.6 213.3 212 214.5 217.4 221 219.1 217.1 218.5 213.9 208.5 202.2 195.5 190.2 184.1 180.8 176.7 176 178 181.6 183.3 187.2 187.3 186.7 185.7 184.1 176.8 171 168.3 169.2 174.4 178.2 183.2 192.4 210 223.7 236 245.1 250.1 253.4
411.3 406.9 401.4 394 388.4 383 378.8 376.1 373 376.7 380.5 384.7 388.4 392.3 396.7 402.3 407.6 411 414.6 417.2 417.5 413.7 407.7 401.8 395.9 388.1 377 366.8 357.2 347.9 340.3 335.9 331.8 327.7 329.6 336.3 343.1 350.1 357.3 362.7 366 367.7 368.9 370.9 373.3 377.1 381.7 384 387.8 389.7 391.2 391.3 389.9 387.9 385.3 380.6 373.4 364.6 354.9 345.8 337.9 330 319.6 307.9 297.1 287.1 273.4 283.1 287.9 289.8 293.6 295.3 292.8 293.5 294.1 294.8 298.8 301.5 307.7 313.4 317.7 321.3 325.4 326.3 329.8 331.5 334.4 339.9 347 355 361.4 365.5 362.9 358.2 348.5 340 330.5 320.6 311.4 303.1 297.4 293.2 294 297.6 306.3 313 318.3 315.2 311.1 305 290.8 278.7 265.3 248.7 242.1 235.6 230.1 223.7 219.4 212.8 208 202.9 199 194.2 190.3 186 183.2 180.1 178.2 175.8 173.8 171.2 169.4 167.9 166.2 164.7 161.2 163.6 165.2 168.7 171.2 175 177.5 180.8 185.4 190.1 193.2 194 199.1 206.1 210.5 217.8 224 227.5 230.3 229.4 227.6 222.5 217.2 217.9 218.5 221.7 218.3 217.5 218.7 219 217.7 216.9 214.4 211.9 206.3 200 193.8 190.8 185.9 181.7 177.9 180.2 181.9 184.5 189 193.5 195 193.3 190.5 186.9 178.6 175.3 172.3 174.2 178.7 182.2 187.1 198.7 217.7 232.5 242.9 253.4 260.4 264.7
409 404.8 398.9 393.2 388.3 383.8 379.8 377.1 375.6 378.6 381.5 385.3 388.5 393 398.4 404.3 410.3 414.6 417.7 419.8 418.9 415.4 410 403.9 397.5 390.8 378.7 369.4 359.7 351.4 343.4 337.6 333.9 329.4 331.1 337.8 344.8 351.4 358.3 363.4 366.9 369.8 371.3 374 377 381.8 386.8 389.8 395.6 398.7 400.7 400.2 398.1 396.8 393 386.8 378.6 369.1 359.6 350.4 341 331.2 321.2 310.2 298.2 284.9 283.5 291.3 294 297.2 303.1 306.7 307.5 303.4 303.6 304.7 306.3 309.8 315.7 320.7 324.6 328.4 331.8 334.2 335.9 337.3 339.4 343.4 349 353.5 359.3 362.4 360.5 355.6 345.7 335.2 325.2 313.1 301.4 294.3 289.7 286 283.6 288.9 297.2 303.3 307.4 301.8 298.2 291.9 280.1 265 254.4 242.9 235.1 229.7 223.9 219.6 215.9 211 206 202.2 199.4 195.4 192.8 188.9 185.9 183.8 181.4 179.4 177 174 171.7 170 168.1 162.6 163.7 165.1 166 168.5 172.9 176.4 181.3 185.3 189.8 194.4 197.8 203.3 210.6 218.8 224.8 232.2 237.6 239.4 243.2 243.3 239.9 236 231 227.9 228.3 230.1 225.8 222 218.9 216.8 216.5 215.1 212.8 208.2 202.8 197.2 192.8 189.9 186.9 185 182.5 184 187.5 193.9 201.3 204.3 204.9 200.8 197.2 190.4 182.7 178.4 175.9 177.4 182.9 188.3 192.8 206.4 223.5 237.5 249.1 259.5 268 271.4
408.4 403.3 397 391.3 387.3 383.3 380 376.1 377.2 380.1 383 386.6 390.4 394.3 400.3 407.8 414.2 419.3 422.2 422.7 421.9 418.4 412.9 406.4 399.5 391.5 380.2 370.5 360.6 352.3 345.2 340.3 336.8 332 335.2 338.3 345.1 352.8 358 363.4 366.8 369.9 372.6 375.3 380.3 387 392.3 397.8 403.1 406.2 407.9 407.8 404.7 401.5 397.3 390.2 380.8 371.4 361.5 352.6 343.2 333.5 322.3 310.4 299 285 291.7 297.8 300.7 306.7 312.2 315.6 315.7 313.4 313.8 312.3 315.5 317.3 321.2 325.6 329.9 335.2 338.3 339.5 341.8 342.9 344 345.7 348.9 353.2 357.7 360.5 359.4 354.9 342 330.4 317.6 305 293.3 285.1 280.3 274.7 273.9 278.1 285.3 289.9 289.5 285.4 283.6 277.6 270.3 259.3 246.1 236.5 227.9 222.4 218 215 212.9 208.1 205.9 203.9 201.9 198.4 196.2 192.3 190.2 188.3 186 183.5 180.8 177.8 176.1 173.4 170.4 163.2 166 165.8 168.1 170.9 176.5 180 183.7 188 192.5 196.8 199.1 209.9 219.6 231 239 247.4 254.4 257.1 257.2 255.2 252.1 247.5 244.6 241.2 236.4 235.2 231.8 225.8 220.7 219.3 216.2 213.3 210.8 205.8 200.3 196.7 192.7 190.7 191.9 190.8 189.7 192.7 196.3 205.9 212.3 217.1 214.3 210.4 203.7 194.9 187 182.8 181.1 182.5 187.2 192.8 200.1 212.6 226.1 240.3 252.8 263.1 272.3 274.7
408.6 403.1 396.2 390.4 386.9 383.7 381 377.8 379.3 381.2 384.4 387.7 391.9 397.1 403.7 411.3 417.9 423.3 426.4 426.6 424.6 420.6 415 408.9 402.3 392.7 383 373.2 362.9 354.2 347.5 342.7 339.7 335.8 338.3 342.9 346.6 351.4 358 362.6 367.2 370.5 373.8 378.1 384.2 391.7 398.5 404.3 409.7 412.6 413.8 412.1 408.3 404.3 398 390.1 381.5 371.6 361.5 352.2 342 332.9 321.6 311.1 297.5 300.7 300.3 305 309.7 314.6 319.7 324 324.9 324.4 323 322.2 321.7 322.9 326.3 329.9 334 338.1 342.4 344.4 346.2 346.9 347.4 347.8 349.6 352.4 354.6 355.7 357.6 349.1 337 322.9 310.1 295.7 285.9 280.2 272.9 267.2 263.8 268.7 273.7 277.3 277.2 274.4 272.5 269.7 261.4 250.6 239 230.5 223.9 218.6 214.8 211.6 209 207.9 206.3 204.9 202.5 202.1 200.7 197.9 195.1 193 190.5 188 185.8 183 178.8 175.7 171.9 162.3 168.9 169.9 167.6 173.2 177.8 181.6 184.6 190 195 199.3 211.1 221.3 232.6 243.4 255.3 262.5 268.8 270 269.5 268.3 264.2 260.9 255.2 250.5 246.6 239.5 234.2 227.8 223.6 220.5 217.6 215.7 210.7 204.3 199.8 196.3 193.8 194.3 196.3 198.9 199.2 203 206.8 213.3 218.6 221.4 221.3 216.1 210.2 201.6 194.3 188.6 186.2 185.9 190.4 195.4 202.8 217.4 231.2 245.8 257.5 270.1 278.8 280.7
408.8 402.9 397.3 391.9 388.5 385.1 384 379.6 381 383.6 386.9 390 393.6 399.9 407.7 414.8 421.8 428.1 431.1 431.3 429 424.5 419.3 412.8 406.7 396.5 386.5 376.1 365.9 357 350.6 345.6 342.2 338.8 341.2 347 352.4 356.4 360 363.2 367.6 370.8 375.5 381 388 396.1 403.8 409.6 415.2 417.9 418 413.9 408.4 402.6 395.3 386.9 378.4 368.7 358.9 349.6 338.5 327.7 316.4 304.1 310.5 310.5 308.5 311.4 316.3 320.9 325.8 330.8 332.6 331.2 329.7 328.6 328.6 327.6 327.9 330.9 335.1 338.7 342.8 345.5 347.6 348.7 349.5 349.5 348.6 349.7 350 349.6 347 342.1 330.4 314.9 300.4 287 279.9 272.7 264.8 259 253.9 259.1 262 265.6 265.1 261.4 259.9 254.8 249.3 240.4 231.5 222.9 218.4 215.1 212.3 208.3 206.7 207 206.1 205 205.3 206.9 206.2 202.9 200.5 198.7 195.1 192.6 189.4 185.1 180.4 176 169.9 167.2 172.4 181.1 169.4 174 180.1 183.2 189.2 197.1 197.4 208.8 221.4 232.2 244 254.4 264.7 273.2 279 279.9 282 280.8 279.3 274.9 265.4 256.6 248.6 240.9 232.9 229 224.9 221.1 217.8 214.3 209.3 203.9 199.8 196.9 196.2 196.1 200 204.6 205.5 209.2 211.8 216.5 220.2 221.7 222 219.4 212.9 206.3 200.6 194.1 190.4 192.6 195.7 201 214.9 226.7 237.9 250.3 264.8 276.6 284 285.1
411.1 404.4 399 393.4 389.7 386.9 385.1 381.2 383.7 386.1 389 391.6 395.6 402.5 410.5 418.2 427 432.9 436.5 437.6 434.6 429.3 423.3 417.9 410.7 401.1 390 379.6 369 359.8 353.2 348.3 345.3 337.1 344.3 351.8 356.2 359.1 363.4 366.1 368.5 372.3 377 383.9 391.8 400 407.7 413.8 419.9 422.8 420.6 415.2 408.3 401.1 392.3 381.3 371.4 362.7 354.6 345.3 334 322.9 325.8 323.5 322 320.2 317.2 317.5 322.4 325.1 330.7 336.7 338.1 336.6 333.8 332.5 332 331 330.7 329.7 333.1 336.3 339.9 343.1 346.7 349.3 349.8 349.6 347.7 345 343.8 341.2 335.9 331.8 316.6 303.8 290.7 281.7 273.7 266.8 258.2 252.1 247.2 250.6 253.9 254.4 252.2 250 248.3 241.8 235.7 230.4 222 218.5 215 211.1 209.6 206.9 206.5 204.6 205.9 206.8 207.6 209.3 209.1 206.6 202.7 201.1 198.8 194.7 189.3 184.4 180 174.5 165.1 171.7 171.5 174.3 171.7 180.2 183.4 186.5 195 201.9 209.4 222 231.9 241.9 251.2 262 272.3 282.1 288.8 291.3 292.6 290.3 290 286.1 275.3 262.9 249.2 241.6 234.7 230 226.6 222.6 217.4 212.7 208.8 203.9 200 198 198.6 200.2 204 208.6 210.4 212.8 215.1 217.3 219.9 220.5 220.7 218.2 213.1 208.8 205.3 199.4 196.3 197.4 203.1 213.7 224.7 232.3 243.7 257.2 269.3 279.5 284.1 282.5
413 406.3 400.7 395.7 391.4 388.6 387.2 385.4 386.2 388.6 390.6 393.9 398.7 405.9 413.2 421.3 430.6 437.7 441.8 442.2 439.4 433.8 428.3 422.8 415.4 406.2 394.4 382.9 371.7 362.2 355.8 351.1 347.3 341.6 347.5 354.4 359.1 363.4 367.6 369.3 371.6 374.8 379.5 386.4 394.5 403.3 411.3 418.1 423 425.1 421.6 415.6 408.2 399.1 387.7 375.7 365.1 358.7 353.1 343.3 334.5 337.5 336.1 333 330.2 327.2 323.9 324.1 327 329.4 335.2 341.1 343.4 342 339.7 337.9 335.3 331.9 329.9 325.6 328.9 331.1 334.2 337.6 341.1 345.4 347.4 346.1 343.4 339.3 335.3 328.8 324 318.2 302.2 293.3 283 275.2 267 258.6 252.3 244.9 240.4 241.1 243.5 245.1 243.1 239.9 234.7 229.1 224.1 217.4 215.1 212.5 210.9 207.5 206.3 204.1 203.4 203.1 204.6 205.8 207.6 209.1 208 205.4 201.4 199.1 196.2 191.6 186.5 181 174.1 171 168.5 172.5 173.4 172 179.1 186.2 191.6 196.9 200.8 206.9 220.5 230.7 239 249.5 259.9 269.1 278.8 288.4 296.9 299.8 299.5 298.2 295.8 290.3 279.7 266.5 251.8 243.5 236.5 230.8 226.7 222.2 217.4 212.6 206.3 203.5 201.2 199.8 200.4 202.8 207.9 212.1 214.2 216.3 217 218.2 220 221.1 219.7 217.8 214.2 210.4 205.9 204.2 202.5 205.8 207.8 218 229.5 237.7 246.8 258.2 267.1 275 279.3 278.5
415 408.4 401.8 397.1 392.6 389.9 389 387.9 388.7 390.2 391.7 395.2 400.7 407.9 415.5 423.8 433.7 440.6 445.7 446.2 443.6 438.1 433 427.3 420.3 409.9 397.8 386.1 375.3 365.1 358.4 353.7 350.1 345.8 351.3 358 362.5 366.1 370.1 372.7 374.9 378.9 383.4 388.6 397.4 406.2 413 420.1 424.8 425.4 422.2 416.8 407.6 396.9 383.2 373.4 366.1 360.4 352.4 346.4 347.2 346.9 344.3 339.9 335.5 335 331.7 329.6 331.9 334.2 339.7 344.8 347.4 345.9 344 340.8 337.7 332.5 327.4 321.1 323.5 324.6 327 329.9 333.8 338.1 340 339.7 337 332.9 324.8 316.9 308.4 300.2 288.7 282.2 276 268.7 259.1 252 245 237.3 232.4 229.8 233.9 234.1 233.3 227.3 221 217.3 215 210.5 206.4 205.5 203.9 202.3 201.5 199.9 199.1 198.9 201 203.1 204.7 203.6 201.9 198.9 195.6 193.2 190 185.4 180.2 175.1 171.2 170.4 169.5 171.6 174.6 173.6 178.6 189.9 196.2 201.9 203.5 216.4 224.7 236 244.5 255.1 265.9 275 286.1 297.1 302.7 306 303.3 304.3 299.8 290.6 279.8 267.8 253.2 241.7 234.8 230.7 226.5 221.5 217.2 210.1 206 203.9 202.4 201.7 204 206.2 210.8 214.5 216.9 219.3 219.1 220.3 221.6 221.6 220.2 217.2 213.8 210.7 208 208.1 208.9 212.2 215.8 222.1 229.3 237.7 244.2 252.9 261.6 267.2 271.1 270.6
415.4 409.3 402.4 397 393.1 391.2 390.2 390.3 390.6 391.8 394.3 397.6 402.2 409 416.9 426.3 435.4 442.8 448.4 449.8 446.7 442.2 437.3 431.9 424.8 415 402.8 389.3 377.4 367.8 361 355.9 352.9 346.8 355 360.7 364.7 369.1 373 376 380.4 386 389.7 392.7 400.7 408.4 415.4 423 427.6 428.1 425 418.9 409.6 397.7 383.1 373.8 368.6 362.5 355.2 353.7 354.7 354.8 352.2 348.2 341.8 340.7 338.9 337.6 335.8 337.2 342.8 347.5 349 348.1 345.4 341.6 336.5 331 325.6 315.8 317.4 316.8 316.8 320.6 325.4 329.7 331.6 331.1 329.3 322.7 313.9 302.7 294.6 286 279.5 275.9 268.9 263.1 253.4 244 236.3 231.7 224 220.6 221.2 222.7 218.4 213.4 210.9 206.8 202.8 201.7 197.7 196.1 193.1 194 194.9 194.6 192.5 192.3 193.9 193.9 194.6 192 189.9 191.1 188.8 187.1 185.9 183.1 177.1 174.5 171.7 169.4 169.6 173.4 173.8 173.4 178.6 196.4 199.3 200.1 203.4 222 231.7 240.1 249.9 258.2 270.4 282.2 292.6 303.2 307.9 309.9 311.8 309.2 300.8 289.7 278.6 267 252.4 240.3 233.4 229 225.1 221.4 216.4 209.3 206.1 204.6 203.9 204.9 207.4 209.9 214 217.8 221.2 222.7 223.4 224.1 224.5 223.5 220.7 218.4 215.1 212.3 212.6 212.9 214.4 217.7 221.6 225.3 230 233.6 242.3 249.7 256.8 260.7 262.4 261.4
416.1 409.3 403.6 398.4 394.7 392.8 391.2 391.9 392.4 393.6 395.8 399.6 402.4 408.9 417.6 426.9 435.5 443.4 449 451.2 449.1 445.3 440.6 435.7 430 418.8 407.5 393.2 381.4 371.6 363.8 357.9 355.8 349.1 356.8 362.5 366.2 371.9 376.6 381.6 388.4 395.7 398.5 399.3 403.9 410.4 419.8 427.5 430.8 431 426.8 419.8 411.7 398.8 383.2 375.4 370.9 365.2 362.9 362 363 362.6 359.3 354.3 347.4 344.6 342.7 340.7 340.3 341.4 345.7 350.4 352.5 350.5 347.2 341.7 334.5 327.3 320.2 313 308.2 307.8 308.7 310.9 316.1 319.6 322 321.6 317.7 311.3 302.1 291.7 284.4 278.8 273 267.7 262 252.9 246.8 240 232.1 224.2 219.5 214 211.5 212.1 207.8 204.1 200.3 196.4 194.9 194.3 191.2 188.2 187.5 185.9 186.1 187.1 185.3 182.8 182.9 183.7 182.8 181.8 181.2 182.4 180.5 179.8 182.1 181.1 181 180.9 175 170.4 170.4 173.7 174.7 174.7 189.4 196.3 196 201.4 206.6 224.6 234.5 246.2 254 263.9 275.3 284.8 296 305.4 312.2 313.8 315.7 310.5 298.9 290.4 278 262.4 251.1 240.5 232 226.7 223.3 221.6 216.2 211.3 206.7 206.2 207.3 209.1 209.5 213.2 215.9 221.8 224.9 227.9 229 230.8 228.8 225.8 223.2 221.3 218.4 216.1 216.3 216.6 220.1 222.8 226.2 227.5 229 230.5 234.5 244.2 254.8 262.2 262.3 262.7
415.9 407.9 404.2 399.7 396.3 394.6 392.9 393.5 393.9 395.4 397.9 400.8 403.7 409.2 417.2 426 434 440.7 446 449.3 448.8 447.2 444 439.4 433 422.3 410.6 397.7 385 374.5 367.7 363 357.8 352.1 358.8 364.9 370.2 377.4 384.4 392.4 399.6 405 406.7 406.2 407.3 415.6 423.9 430.7 434.1 432.3 428.8 421.4 412.4 399.4 384.9 378.8 374.9 371.6 368.7 369.8 370.4 369.7 367.1 360.6 354.1 349 346.1 344.4 343.1 344.4 347.9 354 356.9 353.2 346.8 340.3 332.8 324.1 315.8 307.7 302.7 300.5 299.3 303.6 307.3 310.4 312.4 312.4 308.4 301.5 292.7 282.1 275.9 271 264.2 260 253.8 245.1 238.7 232.4 225.6 218.4 214.5 209.3 205.3 201 197.5 193.3 191.7 189.4 187.6 186.9 185.4 184.8 184.4 184.3 183.4 181.5 181.7 181.6 180.6 180.4 179.4 178.8 178.1 177.3 176.5 175.7 175.2 174.9 173.9 178.5 171.1 171.7 175.3 179.8 183.9 185.4 190.2 198 198.8 203.8 215.3 227.8 237.9 249.5 258.6 269.2 279.8 288 297.7 306.6 314.6 314.7 311.3 305.3 295.3 287.1 271.1 260.4 247.6 239.8 231.6 224.9 221.5 220 216.7 211.4 209.8 209 211.5 212.3 213.9 215.8 220.8 224.7 228.3 232.1 235.1 235.6 232.9 231.8 228.4 224.6 220.8 219.9 220.8 221.5 223.6 225.5 225.6 227.5 227.2 225.9 227.2 234.5 243.8 251.2 254.8 253.8
416.4 408.8 404.3 400.7 398.4 397 395.6 396.2 396.7 396.6 399.1 402.5 405.4 410.6 416.4 423.8 430.3 436.6 442.1 446.2 447.6 448.3 445.8 441.8 435.6 424.8 413.4 401.1 388.6 378.9 371.2 364.3 360.1 354.9 363.4 370 376 384 393.1 401.6 409.3 413.7 415.4 414.2 415.2 419.2 427.8 433.7 436.3 435.4 430.8 424.2 415.9 402.9 389.7 384 378.5 377 375.3 377.1 378.4 376.7 373.8 366.8 360.5 355.2 350 347.4 344.9 344.3 349.6 354.6 356.4 351.5 344.7 336.7 328.3 319.3 311.2 303.2 295.7 293.3 292.3 295.1 298.6 302.2 304.2 303.9 298.1 291.1 282.4 273.1 268.3 262.4 256.6 250.8 244.5 238.7 231.4 225.2 219.7 212.3 208 202.9 199.4 195.9 192.2 190.6 188.7 189.4 187.7 187.3 187 184.9 185.2 182.8 182.6 180.2 179.7 180.4 179.8 182 181.3 180.9 179.3 179.9 179.2 177.4 177.8 175.5 175.5 174.3 177.2 175.5 179.1 183.8 188.1 189.5 193.7 199.7 206.2 211.4 218.6 229.5 239.8 251.6 260.5 271.9 281.5 291.6 299.6 308.1 310.9 311.2 307.2 302 293.5 279.8 266.7 257.6 245.9 236.5 230.1 224.2 221.1 219.4 216.6 214.7 212.7 211.9 214.2 216.3 217.6 218.9 223.4 226.5 233 235.8 240.4 242.1 239.6 237.2 234 231.1 227.3 226.7 226.4 226.8 229.2 230 227.7 225.1 222.9 222.9 221.1 226.7 233.1 238.7 241.4 241.6
416.7 410 405.6 403 401 399.4 399.4 399.5 399.6 401.5 402.9 404.2 407.2 411.3 416.6 421.6 427.9 433.2 437.8 442.2 445.7 447.2 446.8 443.8 437.5 427.4 416.6 403.6 390.9 380.8 373.7 367 362.1 360.9 367.2 373.7 381.4 392.5 402.2 410.5 418.1 423 424.7 424.3 423.3 425.1 430.9 437 439.5 438.9 434.9 427.8 419.4 407.9 396.6 389.2 386.4 384.2 384.7 386.2 386.5 383.9 379.7 373.6 367 359.8 354.2 349.6 346.6 345.1 349 353.6 353.4 347.5 339.5 330.6 321.9 311.7 304.6 299.4 292.3 288.5 287.1 286.7 290.1 293.3 294.9 292.9 287.6 280.6 273 266.3 261.4 254.8 249 243.1 235.4 230.7 223.6 218.1 212.3 206 202.2 198.5 195.3 193 191.3 190 194.5 195.3 194.7 193.7 193.9 193.7 192.7 190.4 194.1 191.1 191.5 195.6 189.5 186.2 184.7 184.1 184.6 184 183.3 183.3 182.3 180.1 179.7 177.2 179.3 180.4 179.5 184.5 189.4 192 197.6 202.8 209.2 215.8 222.5 230.8 242.4 252.8 260.8 272.5 283.1 292.1 299.8 309 312.5 308.1 306 297.3 286.6 273.4 262.9 254.6 247.6 237 229.9 224.7 220.7 218.8 218.2 217.3 215.5 215.8 217.1 219.4 222 223.3 224.8 226 231.9 236.2 241.4 244.5 246.3 244.8 239.4 237.6 234 232.9 234 235.2 239.1 236.6 229.6 224.9 220.2 217.2 215.5 217.1 222.9 225.9 227.8 228.1
418.8 413.4 409.1 406.4 404.9 403.6 402.7 403.5 403.8 406 407.3 407.5 409.4 413 418 423.2 428.8 433.4 438.1 442 445.4 446.4 446.6 443.8 438.6 429.3 417.5 405.3 394.2 382.6 376.5 369.2 362.2 365.9 372.5 380.4 389.9 400.4 410.3 419.9 427.4 433.1 434 433.9 432.3 432.4 435.7 441.4 443.5 444.7 441.7 435.8 428.3 417.7 406.7 399.6 394.4 393.6 396.2 396.5 394.4 391.1 385.9 379 372 364.4 356.4 349.6 345.5 342.6 345.7 348.1 345.8 340.3 332.2 320.8 313.7 306.5 301.1 295.2 289.4 281 280.7 278.8 281.3 283.7 284.5 282.7 277.4 270.8 265.3 258.3 252.2 246.6 241.9 234.8 226.8 222.1 217.5 212 207.2 202.3 197.2 192.8 192.3 192.9 196.9 199 198.5 198.9 202.3 202.3 202.4 201.9 200.4 200.7 201.3 200.6 200.4 199.7 195.7 196.7 193.1 192.5 192 190.5 188.3 186.5 186 185.2 183.5 180.1 182.2 183.7 179.9 184.2 189.1 193.4 198.4 204.9 210.2 217.3 224.6 232.9 242.3 252.3 263 273.5 283.9 293.3 300.4 307.5 308.5 304.4 298 295.2 280.5 267.7 262.2 253 246.7 238.7 231.1 225.4 222.5 221.7 221 220.7 218.7 217.8 218.4 220 220.5 223.2 225.1 224.4 229.2 232.8 239.5 244.5 246.8 247 244.2 242.1 239.5 235.4 233.8 234.6 233.8 231.5 226.4 222.9 219.5 215.3 210.3 211.7 212.7 213.7 214.1 213.5
420.6 416.2 413.8 411 409.2 408.4 408.2 408.7 409.1 411 411.4 413.2 412.5 415.7 419.7 425.9 431.8 436.3 440.4 443.9 446.5 446.9 445.9 443.4 438.4 429 418.5 406.2 395.2 383.7 377.1 370.9 365.9 369.8 377.6 385.3 396.9 408.2 418.8 428.5 436.9 442.1 444.4 443.4 443.3 443.5 443.6 447 450.1 452.2 450.2 445.8 437.8 427.9 417.9 410.4 405.4 407.2 407 404.6 401.5 396.7 390.6 382.4 374.7 365.8 357.2 349.7 341.7 338.4 337.8 338.5 335.5 327.4 318.1 311.1 306.8 301.5 294.9 290.7 285.5 274 274.3 271.4 269.8 271.2 273.1 270.8 265.9 261.8 257.1 249.6 243.1 237 232.2 226.9 220.3 215.7 211.7 207.1 202.6 198.4 195.4 194.8 196.8 199.8 201.2 200.8 202.6 206.9 208.7 210 210 208.7 208.6 209.5 211.6 211 209.9 208.4 205.8 204.4 201.5 199.9 198.2 195 194.5 190.7 189.2 188.9 186.8 182.1 185.5 185.1 183.2 185.1 189.3 193.1 197.9 204.7 210.7 218.5 225.1 233.1 242.4 253.1 262.4 272.9 283.6 292.4 298.9 302.8 304.4 301.8 294.8 287.9 277.4 267.3 259.2 253.6 244.8 240.6 233.3 226.4 224.4 224.2 224 224.4 223.1 220.4 218.3 217.1 219.6 220.3 220.5 219.4 223.3 225.7 232.9 239.3 244.2 245.2 240.3 236.2 235 231.3 227.3 225.1 223.3 220.5 218.6 216.7 214 210.4 202.9 205.7 205.2 204.1 202.8 201.8
423.4 419.7 417.4 415.4 414.9 413.8 414.3 415.1 415.6 415.7 416.8 416.5 416.6 418.4 422.2 427.7 433 438.4 442.2 445.1 446.7 446.3 445.3 442.9 437.4 428.9 416.9 405.7 394.5 383.8 377.7 372.8 368.7 377.2 382.5 391.7 402.7 413.7 425.6 435.9 445.2 452 456.1 456.3 456.9 455.9 453.9 455.2 458.4 461.8 461.2 456.7 449.7 442.4 434.5 427.5 421.8 418.6 416 412.3 407 401 393.3 384.3 375.5 366.2 356.6 346.1 336.7 332.3 329.8 325.5 319 312 304 303.6 300 294.8 287.9 284.5 279.1 271 266.8 263.8 262.4 260 261.4 258.3 254.7 250.6 245.4 239.3 233.5 230.1 224.3 218.9 213.7 210.2 206.6 203 199.1 197.1 197.3 199.9 200.7 203.5 206.5 211.3 211.9 214.6 218.4 219.8 219.7 220.1 217.8 220.8 219.9 219 215.8 214 212 210.4 207 205.5 202.5 200.9 199.2 195.8 192.3 191.2 188.6 184.8 187.5 185.9 185.3 186.7 190.4 193.1 197 202.5 210.2 218.1 224.7 232 241.6 251.8 262.2 273 283.6 290.8 296.1 299.1 299.2 298.6 291.4 286.8 276.1 266.1 260.3 253.7 245.2 242.4 234.3 227.9 226.8 224.6 225.2 225.3 226 224.9 216 215.6 214.7 211.3 211.4 216 215.4 219.1 222.9 229.6 235.6 236.6 232.2 227.6 224.8 222.2 217.8 215.6 212 209.6 207.9 206.1 203.7 201.8 195.6 197 196.8 195.5 193.4 192.9
425.9 422 421.3 419.8 419.7 420.3 420.9 421.4 422.1 422.3 421.2 420.4 420.3 422.1 425.5 429.8 434 438.3 442.3 445.2 445.9 445.4 443.9 440.4 434.6 426.9 415.6 403.3 393.4 383.2 378.1 373.7 374 381.3 387.2 396.4 407.2 419.1 430.4 442.4 453.3 462.1 466.1 468.1 469.9 469.2 467.7 466.2 469.8 471.7 470.7 466.4 459.6 452.9 445 437.5 432.1 427.4 422.8 416.7 409.8 401.2 392.7 383.1 374.5 363.9 352.6 341.9 328.2 323 316.7 312.3 307 298.9 296.8 289.8 291.3 285.9 281.1 276.6 272 265.3 257.3 254.7 253.9 251.7 251.1 248.7 243.6 239.7 233.7 229.4 223.1 216.7 212.8 209.4 208.1 205.2 202.4 199.5 198.2 200.8 201.8 206 210 212.2 217 220.9 222.4 225.4 228.5 231.8 228.9 229.1 228 228.2 226.3 224.3 221.2 218.1 215.6 214.2 211 208.1 205.4 204.6 201.7 197.9 195.7 193.5 190.4 187.1 189.3 187.8 188.1 188.4 191.5 194.9 197.4 203.1 209.5 216.4 223.8 231.8 239.5 251.8 262 272.1 281.6 289.9 296.5 295.8 297 296 289.6 283.5 273.7 269.5 261.9 253.9 248.1 240.6 235.6 229.8 228.7 228 227.1 226.5 226.8 224.3 217 216.4 215.6 209.8 201.2 208.6 207.3 206.5 210 216.8 221.2 224.4 224.7 220.6 214 212 210.4 206.8 205.3 200.2 199.1 196.5 194.2 191.4 186.1 186.8 187.2 186.3 185.5 184.9
428.2 425.7 425.3 424.7 424.6 426.5 427.2 427.8 427.6 427 425.9 424.6 423.8 425.1 427.9 431.7 434.3 438 441.5 444.1 444.8 443.7 440.7 437.4 431.9 423.9 412.4 401 391.5 384.7 378.5 371.9 377.2 385.1 390.6 400.5 410.4 423.2 435.6 448.7 460 470 477 479.6 482.2 482.1 479.6 480.1 481.6 480.4 478.5 473.9 465.7 459 450.7 443.8 437.8 432.1 426.3 419.6 409.1 398.4 389.8 378.8 369.6 359.1 346.2 333.1 318.7 313.2 306.8 300.2 295.6 292.6 289.6 282.6 278.5 276.2 274.4 270.5 266.3 259.4 249.5 244 243.1 242 239.7 237.2 232 229.6 224.5 220.9 213.7 210.6 207.7 205.2 203.2 202.3 200.1 203.6 203.6 205.3 208.9 214.5 217.3 221.7 226.7 229.6 233.7 235.6 238.8 241.7 239.8 237.7 236.1 235.1 232.5 229.4 225.3 221.6 219 217.6 212.9 209.2 206.5 205.8 202.2 198.5 195.9 193.7 189.1 191.4 190.9 191.7 191.9 190.9 193.1 197 200 204.8 210.7 217.3 223.7 230.2 241.5 249.6 261.9 272.2 281.1 289.3 292.6 293.5 293.3 292.4 287.1 279.4 274.7 267.8 258.5 253 249 245.2 238.8 231.8 229.5 228.6 227.7 226.5 227.8 224.8 220.9 216 215.7 207.1 198.7 203.2 202.4 200.3 199.7 202.1 206.6 210.6 212.4 209.2 204 201.7 199.7 195.3 191.3 188.9 188.3 186.3 185.1 184 180.5 176.1 178.7 178.4 178.4 178.4
430.5 429.3 429.1 429.1 430 432 433.6 433.3 432.6 431.1 429.7 428.2 426.8 427.9 429.7 432.4 434.6 437.4 441 442.8 442.4 440.3 437.5 433.3 428 417.5 406.4 396.8 389.4 384.3 379.5 377.4 380.7 387.8 394 402.5 413.3 425.2 439.4 454.2 466.7 479.1 486.7 492.6 495.7 495.4 493.4 490.4 489.7 488.7 485.5 478.7 468.9 462.4 454.2 446.5 440.4 433.5 426.7 417.8 406.6 394.3 382.2 369.7 360.2 349.5 335.9 321 309.7 300.5 296.7 287.8 283.1 283.8 279.7 274.2 267.5 268.7 266.4 262.9 260 254.1 246 239.4 235.3 232 226.8 224.1 220.5 217.6 216.1 213.7 211.2 209.2 203.4 204.7 203.8 209.3 210.5 214.1 215.9 214.4 216.8 222.7 226.9 233.2 237.1 242 247.2 250 252.1 254.3 253.5 250.1 245.7 241.7 237.9 234.9 230.1 225.4 221.7 218.2 214.2 210.3 207.2 205.4 201.4 197.4 196.6 194.9 194.6 195.8 195.6 196.2 196.1 195.1 195.7 199.8 202.9 209.2 216.3 221.6 229.1 235 238.6 247.9 258.7 271.1 281.3 287.2 290.8 292.7 291.4 286.1 282.1 280.2 274.4 270.3 261.9 258.2 254.1 247.6 241 235.4 231.6 228.7 226.4 227.5 227.5 225.1 222.6 218.9 215.9 210.2 200.8 196.8 197.4 195.4 192.2 190.9 191.9 196.1 196.8 196.8 194.5 187.5 187.1 186 183.5 179.9 176.8 175.9 177.7 176.9 175.8 174.8 168.7 172.5 173.7 173.1
431.8 432 432.2 433.2 435 437.4 439 438.6 437.4 435.1 433.6 432.2 430.8 430.2 431.3 433.1 434.9 437.7 441.1 441.6 439.5 436.6 433.3 429 421.7 411.6 400.8 393.6 388.4 384.3 379.3 380.7 383.9 388.4 395.3 404.9 417.7 430.1 443.7 458.5 471.8 486 495.9 502.7 506.2 505.6 502.5 499.3 496.8 493.2 488 480.4 469.6 462.1 453.1 445.1 438.2 430 422 413.2 401.3 386.6 371.9 358.5 346.9 335.7 321.7 308.8 300.8 293 287.3 279.9 271.5 272.9 268.6 259.2 258.4 258.8 257.9 255.6 252.6 248.4 238 230.6 225.7 223.8 220.8 217.3 214.9 212.9 211.7 209.7 207.6 205.6 207.2 209.9 214.1 218.6 220.4 221.9 223.1 220.9 224.6 230.6 236.4 242.3 248.5 255.7 259.6 263.3 267.3 267.6 264.4 259.4 254.2 249.2 243.7 238.9 233.3 229.1 224.3 220.3 215.5 211 207.2 202.7 202.3 200.8 200 199.6 200 200.4 198.9 199.8 200.5 201.8 199 203.4 208.5 214.7 219.6 224.4 232.9 238.8 245.6 257.3 263.7 275.7 282.4 287.6 291.4 293 291.7 289.5 287.1 285 280.2 275.4 271.1 265.9 259.8 253.5 252.1 243.2 231.8 229.7 227.4 223.6 225 224.5 221.6 218.5 215.4 210.4 201.1 195.2 190.3 190.1 187.5 184 181.9 178.7 179.5 180.1 179.2 176.2 175.6 175.1 173.3 171.4 168.7 169.8 169.8 168.9 167.7 168 166.8 161.7 166 166.4
433.2 433.2 434.7 436 439.3 442.2 443.9 443.7 441.9 439.9 437.6 436 434.2 433.3 433.3 434.3 436.6 439.4 440.6 439.2 435.9 431.8 427.6 420.8 413.7 404.6 395.7 391.5 386.5 383.2 380.5 383 386.1 390.9 399.4 408.1 418.9 433.7 448.2 462.6 478.1 491.9 504.4 512.3 515.6 514.6 508.8 504.5 499.6 493.1 485.7 476 467.1 457.6 447.1 438.7 430.2 422 413.9 403.5 391.4 374.9 358.3 346 333.4 322.6 310 299.7 291.3 284.3 278.7 270.6 263.7 263.4 260.9 255.9 249.5 253.3 246.8 247.6 244 240.2 234.1 224 221.2 219.4 217.4 215.6 213.4 210.8 208.6 208.2 208.3 209 209.1 214.2 218.4 222.6 225.4 226.7 228.8 229.4 233.5 238.2 244.3 252.1 259.7 268.6 274.2 274.4 277.1 274.6 269.4 264.8 259.5 254.9 248.5 242.5 236.7 231.5 225.6 222.2 217.1 211.7 207.5 208 206.8 205.6 206.2 206.9 207.3 207.3 205.1 205.3 206.2 205.1 201.6 207.9 212.5 218.3 223.9 229.6 237.3 243.6 252.2 259.5 267.7 276.1 284.4 290.7 293.4 295.9 295.5 295.1 291.9 288.7 285.4 280.3 280.8 277.1 272.7 264.6 248.9 246.5 237.2 231.7 226.4 221.3 221.6 222.5 221.4 218.6 215.1 210.8 201.6 192.1 183.3 188.2 183.9 180.9 176.5 175.2 171 169.9 169.9 166.8 166.2 165.5 163.6 163.7 161.8 161 162.9 164 164 162.6 162.9 160.6 151 158.9
432.9 433.9 436.2 438.9 442.3 446 448.3 448.3 446.3 444.3 441.3 439.1 436.8 435.5 435 435.5 437.8 439.9 439.3 435.9 432 426.2 420.4 412.2 405.9 398.2 392.5 388.9 384.9 381.3 383.2 385 389 394.5 401.3 409.1 423 437.7 452.1 467.4 482.8 497.2 510 518.6 524.1 520.3 513.6 507.7 500.3 491.3 480.4 468.1 457.6 447.4 435.6 425.9 416.1 409 401.5 392.4 378.9 361.8 344.3 333.1 321.1 309.1 299 293.1 285.2 275.8 271.3 265.7 259.4 255.6 252.8 246.9 243.8 244.2 240.9 237.5 235.9 231.7 227.8 221.9 219.8 217.1 215.3 213.5 213.1 213.3 213.2 212.4 209.6 211.7 212.5 216.2 220.8 225.9 229.1 231.7 232.8 236.4 238.5 245.9 252.3 261 270.8 278.3 283.5 283.8 285.1 279.4 275.6 271.3 264.9 259.8 253.4 246.7 239 233.1 227.7 223.5 218.7 214.4 213.1 213.5 213.1 214.5 214.8 215.1 214.9 214.3 212.3 211.4 211.3 210.9 204.6 213 218.3 222.9 229.4 235.1 243.1 250 257 263.9 271 279.6 287.8 294.1 297.6 299.1 299.8 300.8 299.5 296.8 294.3 292.7 288.8 283.7 278.6 270.9 257.8 243.2 231.1 232.6 227.1 221.9 219.9 221.4 219.4 216.4 214.8 212 205.5 193 184.2 182.5 181.1 178.6 174.2 169.3 167.4 165.1 164 162.5 159.5 157.3 156.1 155.3 154.6 153.4 155.6 156.7 157.4 157.2 157.2 156.2 155.5 146
432.5 434 436.6 440.2 444.8 449.7 452.8 452.8 450.7 447.9 444.6 441.3 439 436.9 436.4 436.6 438.1 438.6 436.6 432.1 427 419.3 412.2 406.9 400.5 394.8 390.4 386.9 384.1 384.4 385.7 387.8 390.6 398.2 405.6 414.5 426.6 440.6 455.3 470.8 486.4 500.1 511.3 520.1 524.3 519.8 513.1 503.9 494.5 482.7 468 456.3 445 434.9 422.4 409.3 400.6 394.6 386.8 377.4 363.7 348.2 331.1 321.6 314.3 303.4 294.9 287.3 278.6 271 265.7 260.3 254.9 250.2 247.1 242.7 235.8 235.4 234.2 231.1 229 226.8 225.3 221.1 218 216.4 214.7 214.5 215 214.9 214.2 212.2 212.6 214.5 216 217.2 223.3 227.9 232.3 236.4 238.6 243.8 245.4 254.8 261.2 269.5 278 285.6 291.5 293 290.2 286.7 283.8 277.4 270.5 265 258.2 250.2 241.9 236 230.6 225.7 221.2 216.9 219.8 220.4 222.3 225.3 225.5 222.8 222.2 220.9 220.1 218.4 216.9 213.4 212.6 218.8 222.8 227.7 235 239 247.8 255.4 263 270.9 278.9 282.6 292.1 298.7 301.6 303.3 304.9 304.5 305.4 305.7 304.9 302.4 298.2 291.3 284.5 277.1 263.3 249.7 237.9 227 225.2 220.5 218.6 218.5 219.6 216.2 214.9 210.7 206.2 191.1 187.5 175 178.1 174.9 171.5 168.2 164.9 161.1 159.1 157.8 155.1 152.4 150.5 149.2 148.3 147.1 148.6 149.8 149.8 151.4 152.6 152.1 151.5 151.6
431.4 433.2 435.7 440.6 446.1 452 455.7 456.2 454.4 450.6 447.1 443.7 440.8 438.4 437.4 437.4 437.6 436 432.2 427.3 421.3 415.1 408.4 404.5 398.1 393.4 389.2 386.3 385.3 386.3 388 390.6 393.8 400.5 408 421.1 433.3 445.7 458.1 473.9 488.3 499.9 509.9 516.8 518.8 514 505.6 494.2 481.5 466.4 451.7 441.6 429.5 418.1 405.1 394.3 384.7 378.1 372.1 362.9 348.9 334.5 322.7 316.6 306.9 296.8 289.9 281.9 275.5 267.6 260.8 256.2 251.5 247.7 243.7 240 235.1 231.7 229.1 226.9 223.7 220.7 220.3 219.3 217.1 216.6 217 216.4 216.1 215.8 214.2 214.3 216.5 217.5 217.9 220.6 226.7 233.3 237.5 241 243.7 249.1 253.8 260 267.9 275.9 285.2 292.7 296.8 299 299 294.5 289.3 285.4 278.8 272.6 265.8 256.5 248.5 240.5 235.3 229.6 225.2 224.6 227.2 229 232 234.8 233.8 230.6 230.3 229.2 227.5 224.5 219.7 216.1 218.6 222.1 226.6 233.9 238.5 244 251.7 260.5 270.2 278.4 284.5 290.4 296.6 302.6 305.4 309.1 310.5 311.1 313.5 314.5 314.4 310.1 305.6 296 286.7 280.5 264.4 251.5 239.2 229.5 222.8 220.1 217 215.7 214.7 216.3 212.4 207.8 200.6 191.9 182.9 177.1 172.2 173.6 169.9 165.8 162.1 158 154.2 153.1 150.5 148.4 146.2 144.4 143.8 143.1 143.9 144.6 144.4 146.1 146.9 147.5 147.7 147
430 432.1 434.8 439.2 445.5 451.5 456.2 458.5 456.4 452.4 448.9 445.3 442.3 439.3 439 437.7 436.2 430.7 427.2 423.3 418.2 412.5 406.9 402 396.1 391.8 388.5 385.9 387.1 389.6 392 394.7 397.2 404.8 416.1 427.2 438.8 451.2 462.4 477.3 489.6 499.2 506.7 511.4 510.8 505.1 492 477.2 463 448.3 435.9 424.4 413.6 402.1 390.1 378.8 369.1 361.9 356.5 347.5 335.6 322.1 312.4 306.7 297.8 289.9 283.2 275.7 270.1 263.5 256.6 252.2 247.9 243.7 240.5 236.3 236 231.4 226 224.2 224.6 222.8 221.7 221.3 221.2 220 218.8 217.7 216.1 214.4 219.2 220.6 222.5 222.5 224.8 225.9 230.2 235.8 240.2 246.2 250.5 256.8 261.1 266.7 271.2 282.4 290.8 298.5 302.5 305.1 306.5 302.8 301.1 298 291.4 283.4 274.9 263.3 253.9 246 241.4 235.4 230.9 233.5 236 240.3 241.7 242.1 239.9 237.1 235.6 233.2 230.9 228.3 222.4 214.9 221.5 225.8 230.4 236.7 243.7 250.7 257 267 277.8 285.6 291.2 298.3 301.2 306.4 311.2 314.4 315.8 319.4 323.4 326.5 322.7 315.6 308.3 298.8 288.1 280.3 267.1 251 238.5 228 221.5 216.7 215.5 213.6 214.6 213.3 214.9 212.6 208.7 200.2 190.9 181.4 170.6 171.5 169 165.5 161.2 155.5 152.4 149.6 146.9 144 142.3 140.6 140.6 140.2 140.5 140.7 141.3 140.9 142.2 142.2 142.9 141.5
427.9 429.8 433.1 437.7 444 450 455.4 457.8 456.1 452.9 449.8 445.9 442.8 441.4 439.9 438.1 435 428.7 422.6 415.8 413 406.5 406.3 399.1 395.3 392.3 388.8 387.5 389.9 392.3 396.3 399.2 403.3 411 424 434.4 445.9 457.1 467.5 480.4 490.8 498.5 503.3 505 502.7 492.3 476.4 461.5 446.4 433.6 417.1 407.4 397.9 385 374.9 364.5 354.6 344.9 341.1 333.2 322.6 310.3 302 295.3 289.3 282.1 276.3 268.9 263.4 257.6 251.7 247 243.3 240 236.4 233.4 229.9 227.8 225.4 225.1 226.9 226.6 225.7 225 224.6 222 220.9 221.6 222.8 221.9 227 227.6 229.8 232.4 234.1 236 230.4 240.1 245.6 252.2 258 263.3 267.8 273.5 278.8 288 296.5 303.2 309.2 312.3 314.2 313.3 309.4 307.5 300.3 291.4 281.7 270.9 262.1 254.9 248.6 243.6 235.1 242.5 245.9 248.6 248.7 248.9 246.2 243.7 241.2 238.2 234.4 229.8 225.6 221.8 225.6 230.8 237.5 243.1 250.3 257.9 264.9 274.7 286.1 293.4 300.1 304.6 308.2 310.5 315.8 319.7 322.1 328.3 332.5 334.9 330.2 322 310.1 298.8 287.2 279.3 266.9 251.4 231.9 226.1 219 212.2 210.6 210.4 217.3 217.2 216.7 213.6 210.4 202.5 194.8 187.9 176.7 168.9 167.3 163.5 158.8 153.5 150.3 147.6 143.9 141.7 139.6 138.1 138 137.8 137.5 136.9 138 138.1 138.6 139.6 139.7 139.4
425.7 428.1 431 435.5 442 448.2 453.1 455.1 454.2 452 449.7 448.8 447.3 445.2 441.9 440.2 435.9 430.9 426.1 424.2 421.8 417 411.7 406.9 401.1 396.4 392.6 390.8 394.3 398.6 403.2 406.2 412.1 422 431.5 440.8 451.2 462.6 471.7 482 489.4 495.5 497.4 495.7 489.2 475.6 460.8 445 431.1 416.2 400.8 391.1 381 370.7 360.8 349.5 339.9 330.3 325.4 318.2 307.6 296.5 289.3 285.1 278.3 273.1 266.2 259.9 255.1 250.6 245.8 242.1 238.8 235.3 231.8 230.5 229.5 228 227.2 228.1 229.6 230.1 229.5 228.8 228.2 226.8 225.6 227.2 229.9 232.2 234.2 237.6 242.2 245.7 246.7 245.5 237.5 244.6 251.6 258.8 264.8 269.9 274.1 279.3 286.1 293.2 300.8 308.6 314.3 318.9 322.7 324 320.3 317 311.1 299.9 289.2 280.3 269.4 262.9 256.7 251.1 242 250.1 251.7 253.5 254.1 253.6 253 250.1 247.4 243.1 240.1 234.1 226.3 224.8 231 236.9 243 249.4 257.2 265.7 274.4 283.8 295.2 302.5 308.8 312.5 316 318.6 321.1 325.7 331 337.1 338.9 338.3 331.1 323.8 311.4 299.9 286.4 277.3 265.5 251.4 233.9 223 214.9 210.6 207.3 208.4 215 217.2 219.5 215.5 215.2 205.4 197.5 191 182.8 173.4 157.9 153.7 152.2 150.1 149.7 146 142.2 140.8 137.9 137.2 136.1 134.9 134.4 134.1 135 135.3 135.7 136.4 137.1 137.9
423.1 425.7 429.2 433.7 439.6 445.5 450.2 452.7 453.2 451.4 452.5 451.9 451.3 449.6 445.8 442.7 439.2 434.2 430.3 427.8 425.4 423.1 417.5 410.9 406.6 400.3 395 397.4 402.9 407 411 415.5 420.6 428.1 437 446.8 457 466 474.8 482.5 487.2 488.5 488.1 483.9 473.4 459.3 445.7 430 414.2 398.9 387.2 375.3 367.1 354.9 344 335.7 328.5 316.6 308.8 300.3 292 284.4 277.4 272.1 266.6 261.8 255.2 252.9 247.2 243.8 241.9 239.1 236.4 234.8 232.9 230.9 232.3 230.7 229.5 230.3 232.5 233.1 233.4 233 232.5 232.2 231.3 232.6 236.6 241.2 246.4 251.4 256 257.3 256.3 253.9 242.1 253.5 257.6 265.8 272.5 278.1 281.3 286.4 292 299.9 308.6 314.5 321.4 327.8 333.4 334.3 331.2 326.1 319.1 308.6 295.5 285.6 274.8 269.4 263.8 258.3 255.1 257.5 259.4 260.3 260.5 259.9 258.9 256.4 253.1 249 245.2 238.6 230.6 229.3 234.2 242.5 249.9 255.9 264 273.3 283.6 292.7 303 312.3 317.5 321.9 324.6 326 328.7 333.4 337.1 343 346.4 340.4 331.7 321.7 309.3 295.2 286.8 272.1 263.1 251.4 233.9 223.9 215.6 208.1 202.9 204.5 211.8 217.8 218 219.4 216.2 211.4 201.4 193 188.7 176.2 168.5 164 157 152.5 144.8 142.5 141.9 139.9 136.3 135 134.4 133.3 132 131.6 132.5 133 133.3 134 134.4 135.3
419.8 422.3 426.2 430.5 436.1 442.1 447.9 451.1 452.4 453 454.3 455.8 456.5 454.3 449.5 446.3 442.2 438.5 433.9 432 429.7 426.1 421.5 415 407.3 401.4 398 402.7 408.4 415 420.1 423.5 426.4 433.4 441.6 450 459.7 468.2 474.5 479.7 481.8 479.9 475.5 469.9 456.2 442.6 428.3 413.3 399.5 386.7 373.3 361.4 348.9 341.1 329.8 321.6 314 305 295.7 288.4 281.3 274.7 268.7 263.9 258.7 253.6 250.3 248 244.9 242.9 240.8 238.7 237.7 235.7 233.6 231.9 232.5 232.2 232.6 233.8 235.5 236.9 237.4 237.5 237.4 237.2 238.6 239.3 244.1 250.1 257.9 265.3 268.5 266.5 264 261 250 257.9 264.5 272.5 279.6 285.6 289.8 295.9 302.6 309.8 317 323.8 330.9 338.1 342.9 343.7 339.3 333.7 326.3 313.5 301.6 291.9 281.2 274.6 269.7 264.2 264.1 265.6 266.7 268 267.6 266.2 263.4 261.1 258.6 253.4 249.2 242.4 230.4 236.2 239.9 250.1 255.6 261.4 270.1 280.7 291.6 301.1 310.3 321.9 327 330.5 333.9 334.9 337.1 339.7 345 348.7 346.6 338.2 330.3 319.9 304.4 289.4 280.1 270.8 262.4 248.8 232.9 223.2 214.9 205.7 199.8 201 206.2 213.9 218.9 218.9 220.3 213.9 206.4 196 189.5 182.2 171.6 166.4 157.5 156.6 151.4 141 135.6 137.9 130.9 130.6 128.8 131.2 131.2 129.8 129.8 130.2 130.7 131.1 132.2 132.8
416.3 419 422.9 428.1 433.7 440.2 445.7 449.9 451.5 454.4 457.2 460.3 461.5 459.7 455.3 451.2 447.8 443.3 439.2 435.1 432.5 428.7 423.1 415.8 408.4 403 400.7 406.4 413.9 421.5 426.3 430 432.3 437.9 444.8 452.8 461.1 467.4 472.2 473.8 473.2 469.8 463.5 451.6 438.5 426.7 414.6 402.1 388.8 375 362.4 348.5 336.4 327.9 318.2 309.1 300.9 291.3 285.5 278.8 271.6 266.9 263.4 258.9 255.7 255.6 253.3 250.6 247.9 244.9 243.4 241.2 239.2 236.8 234.6 235 235.2 235.6 236.9 238.7 239.7 239.7 242.9 244.2 244.8 245.2 245 245.3 250.8 260 268.6 274.4 277.5 275 271.6 267.3 257.4 265.1 270.7 280.2 286.6 293.6 299.1 305.5 312 319.7 328.9 336.2 343.6 349.6 353.2 352.1 347.9 340.3 331.5 318.4 306 296.4 286.6 280.7 275.8 268.6 272.4 275.8 274.9 274.3 273.4 271.5 267.8 265.8 262.6 257.4 253.1 247.8 237.9 243.2 249 254.4 261.5 267.4 276.8 287.1 296.5 308.4 319.1 329.5 335.7 338.5 340.9 342.9 344.6 347.1 349.5 348.6 342.7 335.3 324.7 312.6 295.7 282 275.4 264.4 257.8 246.4 231.3 221.9 213 203.5 198.5 198 202.8 210.2 219.5 219.5 220.8 216 209.5 199.6 189.5 183.6 175.5 167.5 162.6 153.4 151.3 140.5 139.3 138.6 135.6 134.2 131.6 127.5 129.9 129.4 128 127.8 128.2 128.8 129.7 130.4
413.1 416.7 421.1 426.8 432.1 438.1 443.1 447.3 451.6 455.5 459.9 463.7 464.6 462.7 459.4 455.9 451.9 447.6 443.4 437.9 434.5 429 422.3 415.1 407 402.2 403.1 408.9 417.2 426.1 432 434.8 436.6 441.2 446.3 453.3 460.2 465.3 467.9 466.5 463.5 457.7 447.1 432.8 422.3 413.8 403.3 391.4 379.6 364.9 350.1 339.4 326.7 318.3 309.3 300.3 292.9 285.8 279 273.2 273.7 272.6 270.6 267.7 264.1 262.4 258 254 251.1 247.8 245.6 243.9 240.3 237.7 236.1 238.6 238.8 240.1 242.7 245.2 247.5 248.1 248.9 252.1 253.1 253.6 253.6 254.4 258.9 268.5 277.8 284.2 285.8 283.1 279.3 275.7 263.5 271.5 278.2 284.3 292.9 300.8 308.7 315.2 324.6 334.6 342.9 351.9 358.7 362.8 364.6 361.6 355 347.4 335.7 323.8 309.6 301.9 294.2 285 279.3 278.5 279.5 281.7 281.8 281 279.3 276.5 272.5 269.4 265.5 261 257.1 250.9 242.8 250.4 255.3 260.8 266.9 273.6 283.1 290.6 301.6 313.5 325.3 335.6 342.6 346.7 348.7 349.7 351.5 351.6 351.3 345.5 337.9 326.6 314.4 298.3 288.1 276.1 268.4 260.8 247.4 240.2 227.6 220.8 212.4 202.7 197.5 195.5 198.5 206.8 216.9 220.2 216.2 217.9 210.3 201.1 187.1 183.5 175.8 165.9 166.6 159.4 155.1 145.4 142.8 140.7 136.8 133.5 131.2 128.3 126.1 127 126.7 126.6 126.3 126.5 127.4 128.5
409.9 414.9 419.7 425.1 431.3 436.5 441 446 451.4 456.8 461.9 465.7 466.5 465.2 462.8 459.4 455.3 450.8 446 439.1 434 427.7 420.5 413.1 406.2 406 405.2 410.3 419.3 429.1 434.4 436.2 437.9 440.2 444.3 451.3 457.1 460.7 461.2 458 452.5 444 431 418.2 409.4 401.2 392.4 382.3 369.7 356.3 339 330.9 320.1 312.8 304.7 294.2 287.7 283.5 283.6 284.2 281.7 280.5 277.8 273.6 269.2 266.3 262.1 258.2 254.5 251.7 247.7 244.3 241.7 238.7 239.6 241.6 243.2 246.1 249 252 254.5 256.4 258.8 261.9 263.7 265.2 265.1 264.8 267.4 276.4 286.2 291.7 292.7 289.3 284.3 281 275.4 276.7 283 289.9 300.1 308.5 316.8 327 338.5 347.4 357.3 365.8 371.4 374.9 375.8 371.1 364 354.2 339.1 327.2 315.2 305.8 298 289.3 288.1 286.2 286.4 286.9 288.3 287.6 285 282.2 277.8 273.6 269.2 264.9 261.3 256.2 249.8 254.8 260 266.2 273 279.8 287.7 295.3 306.2 316.9 329 340.1 348.5 352.3 353.7 354.7 354.5 351.4 347.4 339.4 331.4 317.5 300.7 291.5 279.5 266.8 262.6 252.3 240.5 231.8 223.3 216.2 208 200.8 194.9 193 194.8 200.3 212.3 216.4 217.7 214.2 206.5 198 185.3 183.9 175.4 166.9 164.2 158.3 153.8 146.7 141.5 136.1 135 134.4 131.8 128.8 126.2 123.6 124.5 125.4 125.2 125.1 126.1 127.2
407 411.4 418 423.5 429.2 434.5 440 445.8 451.6 457.3 462.1 465.1 465.3 465.3 464.3 460.5 456.6 451.4 445.8 439.1 432.5 425.2 417.1 409.8 407.7 406.9 406.4 411.1 420.4 428.3 433.2 434.6 435.4 437.5 441.7 446.9 451.9 454.5 452 446.9 440.4 429.8 420 410.3 401 390.9 380.8 370.9 358.4 346.6 334.2 324.4 314.6 303.3 299.3 298 296.4 295.2 294.9 295.2 293.4 289.3 285.1 279.8 274.3 269 265.2 261.3 258.3 253.8 251.3 247.2 244.4 243.7 244.8 246.6 248.6 253.2 257 259.9 262.2 266.4 270.7 274.5 275.7 275.2 275.1 275.3 276.2 287.6 294.2 299.1 299.9 294.8 288.4 284.9 276.2 284.9 288.7 294.6 305.6 314 324.5 338.1 348.6 358.8 369.4 376.2 381.4 383.8 384.8 377.8 368.5 357.5 342.2 331 318.7 308.8 303.8 300.3 296.5 294.2 292.1 291 294.2 294.5 291.1 287.8 284.5 279.5 273.9 268.9 265.1 260.3 254 260.6 266.7 271.5 278.4 286 292.6 300.7 308.8 320.7 331.8 341.4 349.4 354.1 354.4 352.5 349.3 344 338.6 330.4 321.4 310 298.1 285.5 269.4 259.4 257.3 246.6 239 226.1 218.5 213.7 205.8 198 191.7 189 190.7 195.6 206.4 213.8 215 213.3 203.2 193.7 184.7 182.8 178 168.1 161.8 156.4 150.2 141.7 145.1 140 130.7 133.9 131.8 128.8 127.5 125.2 122.7 124.2 123.7 123.9 124.9 125.8
405.3 410.6 415.5 422.5 428.6 434.1 440.2 445.2 450.8 456.3 460.4 462.4 461.8 461.3 461.2 458.5 454.3 449.7 443.5 436 428.5 421.1 414.6 408.9 408 407.5 407.6 409.9 419 425.7 428.4 430 431 432.6 436.1 441 444.3 443.7 441.8 435.7 427.7 419.1 411.9 400.8 392.3 381.5 373 361.5 350.8 338.4 328.4 318.8 314.8 310.8 308 306.1 305.8 306.1 307.2 304.8 300.6 296.6 291.6 286.2 280 274.2 270.3 265.9 263 259.1 253.5 250.6 248.5 249.3 250.1 253.6 256.7 262.3 267.1 270.6 274.2 277.8 281.7 286.7 286.9 285.6 286 287.2 290.3 296.5 302.9 305.2 304.1 298.9 292.1 287.9 278.9 290.7 295.2 300 309.4 320.8 333.6 346.5 357.7 367.9 376.8 384.9 390.2 392.3 392.1 383.7 372.3 359.8 345.9 334.3 321.5 313.4 309.9 306.1 302.6 300.4 296.9 297.9 301.8 301.1 297 294.1 290.9 286.2 279.8 274.4 269 265.4 263.5 267.5 271.6 276.8 283.3 290.6 297 303.5 311.7 322.5 331.8 341.3 347.5 350.4 348.9 345.2 340.4 334.6 327.4 321.6 313.1 302.3 292.8 277.6 260.3 250.5 248.8 238.7 231.7 221.6 212.3 210.3 202.7 197.7 190.3 188 187.1 192.3 199 209.2 209.7 207.9 197.6 189.4 184.6 178.2 176.3 170.6 164.3 156.6 152.6 143.8 139 141.3 136.9 131.1 129.5 127.5 126.9 125.3 123 121.6 122.1 122.7 123.7 124.6
402.9 408.9 415.3 421.8 427.4 433.4 439.4 444.7 450.1 455.5 458.7 459.6 458.5 457.7 455.8 452.4 449.9 446.8 440.1 433.3 425 417.7 413 409 408.4 408 408 409.2 415.1 421 423.3 424.3 425 426.5 428.9 432.8 434.7 434.6 432 426.8 419.1 413.3 404.6 394.8 385.7 376.4 365.3 354 342.1 336.3 334.3 331.9 328.2 322.7 319.4 317.4 316.9 318 316 311.8 307.4 302.4 295.8 289.8 285.1 279.7 274.8 270 266.5 260.1 256 253.4 253.3 254.8 256.6 259.1 264.5 271.5 277.9 283.6 289 290.6 294.6 298.9 301.1 299.8 296.6 297.2 301.7 306.6 310.4 310.7 308.4 303 297.7 291 291.5 295.6 300.6 306.6 315.1 327.3 338.5 351.6 364.2 375.3 384.3 392.1 397.1 398.8 397.6 388.1 376.5 361.9 348.6 338.3 326.5 318.1 313.7 310.4 308.2 306.2 306.8 307.1 309.5 307.7 303.9 300.3 295.2 289.7 284 279.3 273.2 270.1 271.2 275.3 279.5 283.1 288.3 294.7 301.2 308.4 315.4 323.3 332.1 339.1 344.8 345.2 342 337.4 332.7 323.2 319.9 311.6 301.3 293.8 282.7 266.1 250.1 243.7 242.2 232.1 223.6 218.1 208.3 204.4 199.7 194 188.5 186.4 186.1 190.5 197.4 203.8 204.2 198.1 195.9 185 183.5 176.3 173.1 171.1 163.8 158.4 154.9 150.2 145.7 141.2 131.3 130.8 130.8 124.7 124.2 124.8 123 121.9 120.9 121.6 122.6 123.4
401.4 408.6 414.5 420.6 426.9 432.7 438.8 444.4 449.8 454.8 457.4 457.2 454.4 451.5 448 445.8 443.9 441.2 436.2 428.5 422.1 417.1 412.2 409.5 408.8 408.1 408.1 407.4 412.2 416.5 418.2 418.3 417.8 419.6 423.2 425.6 427 426.4 424.9 421 412.6 407.4 399.6 389.1 379.5 365.7 360.8 358.5 356.6 352 347.7 343.3 340.7 337.8 334.9 331 329 327.7 325.6 320.8 314.5 310.2 304.3 295.7 290.7 286 281.3 275.4 268.6 265 261.2 256.7 257.5 260.6 263.8 267.9 273.6 279.7 288.1 294.8 299.3 303.8 307.2 311.4 313.1 312.4 310.7 309.5 312.9 314.7 316.5 315.7 312.5 307 301.1 297.3 297.1 300.5 305.7 312.9 322.4 332.2 343.7 356.5 369.1 380.6 389.7 397.8 402.3 403.9 400.7 391.1 378.7 366.4 353.5 341.5 331.5 323.1 317.2 314.1 313.2 312 314.3 317.4 315.9 313.6 309.6 304.4 298 291.9 287 283 278.6 275.7 278.1 281.8 285.8 289.7 293.7 299.9 305.5 311.2 318.8 325.6 333.1 338.9 340.8 339.4 336.3 330.2 324.6 316.6 307.1 300.7 290 278.2 270.2 256.2 245.6 238.2 232.9 221.4 216.4 211.5 204.3 200.7 196.8 191.6 188.4 185.2 184.5 187.8 192.4 195.1 197.5 196.8 194.4 185.7 181.3 179.3 172 167.9 164.5 160.7 159.5 154.8 144.5 139.8 139.9 136.2 128.4 129.8 124.8 122.5 122.5 121.8 121.2 120.7 121.4 121.9
400.5 407.5 413.1 419.2 424.9 431.3 437.3 442.6 447.1 451.2 453.1 453.7 450 445.4 440.5 437.3 437.2 435.2 430.1 425 420.1 415.8 411.3 409.6 408.8 408.2 406.3 405.6 408.7 410.4 411.7 412.3 411.8 413.6 417.5 420.7 421.6 421.2 419.9 416 410 403.6 398.5 392 384.2 378.5 375.5 371.3 369.3 365.5 361.6 357.9 356.8 355.3 353.4 349.7 344.5 340.6 335.6 330 323.8 317.3 310.5 301.3 295.1 290.8 285.9 279 272.6 268.9 265.1 261.2 263.6 268.4 272.2 276.3 281.3 287.2 297.4 305 310 314.3 318.4 322.8 323.8 324.2 323.2 322.2 321.4 322 322.1 319.8 315.4 310 304.9 301 301.1 304.8 310.1 318 328.2 336.8 348.3 361.4 372.6 383.4 392.2 399.1 402.6 403.3 397.7 388.8 377.7 365.7 356.1 346.4 337.4 328.1 321.6 319.1 317.4 318.8 322.1 324.8 323.6 320.4 315 309.7 302.2 294.5 290.3 285.7 282.2 279.7 282.3 286.4 291.2 294.7 298.9 304.4 310.4 316.3 322.2 328.2 333.9 338.2 336.9 335.2 329.2 319.9 313.5 303.3 296.1 284.1 275 267.8 260.4 247 235.4 224.6 220.6 217.8 211.2 205.5 200.2 198.2 194.3 189.6 184.9 182.8 182 183.8 187.3 192.7 193.4 192.9 192.8 187 181.6 178 174.3 168.7 164.7 161.4 158.4 155.3 150 144.2 142 136.8 134.5 126.9 125.4 123.9 120.8 121.3 120.9 119.5 121.1 120.7
399.4 406 410.7 416.7 421.7 427.9 433.3 439.9 444.3 446.8 448.7 448.1 446.3 441.2 434.8 429.8 428.4 428.6 425.3 422.2 419.2 414.8 411.3 408.9 406.7 406.2 405.3 404.4 405.3 405.8 405 404.9 406.8 408.8 412.3 416.1 417.8 418 415.6 413.8 410.5 409.9 406.5 401.3 396.7 394.3 391.1 387.9 384.4 382.5 379.5 376.6 375.8 374.5 372.8 369.3 362.8 355.6 347.9 340.1 331.9 326.1 319.3 310.5 303.3 297.8 293.3 285.5 278.4 272.8 269.7 266.3 270.5 277.2 282.2 286.8 290.7 296.4 306 313.7 321.1 325.9 330 333.3 334.2 334.3 333.6 331.7 329.9 328.5 326.2 323.6 318.7 312.2 307 303.6 305 307.9 314.2 321.7 330.4 339.5 350.7 363.8 375.8 385 392.1 397.1 400.1 400.1 393.4 384.8 376.2 368.2 359.9 350.3 341.9 332.4 328.8 326.7 325.4 325.2 330.1 331.5 329.1 327.1 319.9 314.2 306.8 298 292.8 288.3 285 283.9 286.9 291.1 295.4 300 303.9 308.2 313.8 320 324.4 329.9 334.2 337.2 331.7 328.6 322.1 310.7 305.4 295.7 284.4 276.2 265.3 248.2 243.2 238.5 229.5 224.2 222.1 214.6 208.4 201.4 199 194 190.8 189.4 183.4 179.9 178.3 181.2 184.5 190.7 194 190.4 192.6 186.2 181.2 176.5 173 169.2 164.5 161.2 157.3 154.2 149.5 143.3 142.7 138.9 133.6 131.1 129.1 124.6 123 122.5 121 119.8 119.4 119.6
396.4 401.8 407.2 411.7 417.4 424.1 428.9 435.9 440.1 442.7 444.5 444.7 442.3 437.7 430.9 426 423.1 421.2 419.8 418.5 415.4 413.4 409.4 406.5 405.5 404.8 404.5 403.4 401.9 402.2 402.7 402.4 403.3 406.9 409.9 413 414 414.2 415.6 416.1 417.3 417.4 416.2 413.6 413.1 411.6 411.2 408.8 405.1 401.9 401 398.5 397.3 398.2 394.1 388.1 376.5 366.9 358.4 351 344.5 337.3 327.6 319.1 312.8 306.3 302.6 295.5 285.4 278.6 274.9 270.7 275.3 285.2 291.1 297.3 301.6 306.7 313.7 323.5 330.2 335 338.9 342 343.9 344 341.9 339.4 336.5 333.9 330.6 326.3 319.5 313.3 309.7 305.5 307.9 310.6 315.9 323 331.8 340.3 352.5 364.2 375.1 383.4 389.2 391.4 391.7 391.4 388.8 381.1 373.4 367.9 360.8 353.5 346.7 338.8 335.2 333.4 333.2 333.8 337.4 337.7 336.3 330.7 323.5 318.7 309.3 300.3 294.7 289.9 287.6 286.7 289.9 293.9 299.5 303.5 308.1 312 317.5 322.7 327 331.8 335.1 335.6 328.8 323.1 314.5 304.2 294.6 284.8 271.1 265.7 259.6 254.3 243.1 233.7 229.1 224 217.6 214.1 206.9 201.7 196 191.4 182.4 186.7 183.4 178.8 177.4 177.7 180.9 187.5 192.1 187.6 184.7 183.7 179.3 174.8 172.4 168.8 163.6 159.3 156.7 153 148.2 145 141.7 140.1 134.5 131.8 128.2 125 123 122.6 122.7 120.7 118.6 118.9
391.3 396.1 401.5 407.1 413.7 419.6 425.8 430.9 435.7 437.9 440.5 440.3 437 432.1 425.5 419.7 417.5 415.6 414.4 413.1 411.9 408.8 405.4 404.2 403.6 402.4 402.7 401.4 399.5 397.8 398.7 399.1 401.7 404.6 407.9 410.6 412.7 414.5 416.9 420 423.7 426.3 428.1 429.7 431.9 434.9 436.8 434.3 428.7 426.2 424.2 424.5 422 417.5 408.8 401 391.4 380.2 372.3 362.9 356.3 349.2 337.9 328.9 320.9 313.4 308.8 300.8 291.9 285.2 280.8 279.1 280.2 291.7 298.9 305.2 310.1 315.9 322.9 331.2 337.4 342.7 346.7 350.8 352.4 351.3 348.9 345.6 341.1 337.7 333 327.3 319.9 314.8 311.1 308.1 310.6 312.3 315.6 323.7 332.1 341.7 351.5 362.5 372.5 379.3 381.9 381.5 383.2 381.5 378.4 373.3 369.3 365 360.6 355.1 350.7 345.2 339.3 341.2 339.7 338.8 346 345.6 342.8 334.3 325.6 320.3 312.4 303.5 297.3 292.4 290.5 290.4 293.4 298.8 303 307.8 311.5 315.2 320.3 324.6 329 333.6 334.9 332.1 325.2 318.4 308.7 295.7 291 285.8 278.7 263.9 249.1 241.6 235.1 225.5 221.2 215.3 211 205.7 201.9 198.6 189.9 188.4 176.7 179.8 180.3 175.8 173 172.2 176.4 184.2 186.7 185.2 183.9 180.4 176.3 173.1 169.2 165.6 164.2 156 154.1 153.6 148.8 145.3 138.9 139.2 136.3 134.4 130.4 127.5 123.3 124.6 122.5 122.5 121.3 118.2
387.4 393.3 398.9 403.9 410.1 416.5 422.5 426.6 429.5 433 435.5 433.2 430.1 424 415.2 413.5 410.6 409.2 408 408.6 407.1 405.5 403.5 401.4 400.8 399.4 399.9 398.7 396.6 393.8 395.4 396.7 400 404.2 407.7 411.3 413 415.9 419 425.7 431.7 436.8 441.4 444.9 448.4 451.5 453.4 453.3 450.7 446.5 442.3 439 433.9 427.3 420 410.8 401.4 393.8 386.1 379.3 371.7 362.7 348.3 336.8 325.6 318.9 314.4 307.4 298 293.3 287.7 287.8 289.6 298.2 306 312.8 319.4 324.9 331.1 337.7 344.8 350.8 354.4 357 357.6 357.1 354.3 349.9 345.1 340.1 334.8 327.3 319.7 315.7 312.1 311.4 312.1 313.2 316.4 323.3 330.5 340.5 350.2 359.7 365.9 373 375.1 375 374 371.1 367.9 365.4 364.4 361.2 359.5 358 354 349.4 345.4 347.7 348 351.5 353.6 352.8 347.1 337.2 326.4 322.3 315 306.6 299.6 295.6 293.3 293.8 297.5 302.9 306.5 310.8 315.5 319.6 323 327 330.5 333.6 335.4 331.4 325.7 319.4 308.3 293.3 284.5 280.6 269.7 259.5 250 242.2 233.9 225.1 219.8 214.2 209.3 204.9 200.5 193.7 188.8 184 174.1 172.2 174.7 172.9 169.9 167.5 174 178.8 183.3 180.7 179.4 179 173.1 171.1 167.4 163 162.2 158.4 152.2 148.7 147.2 144.6 139.8 139.3 137.7 136.1 133.6 129.5 125.8 121.8 123.4 123.6 122.8 122.7
383.5 389 395.5 402 408.3 414.8 420.1 423.4 425.2 426.4 427.2 422.9 417.7 412.1 408.4 406.8 405.5 404.2 404.3 403.7 402.9 402.4 399.6 398.3 397.8 397.4 396.9 395.9 393.4 390.2 389.1 395.1 398.8 403.2 407.1 410.8 413.5 417.9 424.8 431.4 439.1 446.7 451.9 456.1 459.4 463.9 466 465.1 460.9 453.9 449.8 445.5 440.8 434.4 427.8 419.6 410.8 403.8 396.5 390.1 382.7 374.8 361.9 348.1 337 327.7 321.3 315.2 307.2 301.9 295.8 296.8 297.2 302.9 311.1 319.9 325.8 331.7 337.1 343 350.3 356.4 361 362.1 362.7 361.1 357.2 352.1 346.7 341.1 334.8 327.1 319.5 316.7 315.1 313.8 313.9 314.8 317.6 321.9 328.8 337.9 346.6 354.8 361.5 365.2 366 366.1 363.9 358.9 356.4 356.2 356.5 356.4 357.3 357.8 355.7 349.3 351.1 353.1 355.2 359 360.8 358.4 352.8 345.4 335.3 323 315.8 307.6 301.1 298.9 296.3 297.8 301.6 306.8 310.6 315 319.3 322.3 325.8 330.5 333.7 336.5 337.3 333.1 327.5 320.5 311 301.5 295.4 284.9 273.1 269.3 260.9 247.4 237.8 225.7 217.7 215.4 206.3 202 196.4 190.8 185.6 181.1 172.8 168.5 167.3 170 168.7 165.3 171.2 174.6 178.6 177.4 177.4 176.2 170.7 169.4 166.2 162.6 161.7 157.9 153.4 148.2 142.4 145 142.8 138.6 138.5 137.9 134.5 132.3 130 128 124.8 122 121.1 120.7
382.8 387.7 394.3 401 408.7 415 420.3 422.7 423 422.9 420.6 420.8 418.5 413.6 408 405.5 404.2 401.9 401.6 400.7 399.7 398.9 397.6 396.9 396 395.3 393.9 392.7 391.1 388.6 387.2 390 396.6 401.7 407 411.7 414.7 421.1 427.8 435.6 445.3 452.9 459.6 463.7 467.1 470.7 472.7 470.5 463.7 456.9 451.6 446.9 443.5 438.4 432.5 425.2 418.6 411.1 404.5 398.2 391.6 385.1 375.6 361.4 347.9 336.9 330.2 323.7 318.4 312.9 307.3 306.8 309.5 311.2 317.4 325.1 331.3 337.1 342 349.2 356.6 361.7 365.8 367 366.5 362.9 358.6 353.2 346.6 340.9 333.7 325 321.5 320.4 319.4 316.9 316.1 316.3 318 321 327 334.9 342.5 350.4 354.8 355.6 356.2 354.7 351.2 347.1 344.8 345.9 347.1 350.3 352.6 355 353.4 352.9 355.1 359.3 362.3 366.3 365.9 363.4 355.2 347.1 339.5 329.2 315.4 310.4 303.7 300.9 301.1 301.7 305.5 310.5 314.5 319 322.4 325.5 329.4 333.5 337.4 339.4 339.3 336.1 331.4 323.2 314.8 306.9 300.5 293.9 283.9 273.7 262.9 250.4 238.3 229.9 219.4 213.8 207.3 198.6 193.4 187.4 182.2 177.6 173.4 167.7 166.7 165.3 165.3 162.6 166.3 171.6 174 176.2 176.7 174.8 170.3 169 165.6 159.3 159.1 156.8 153.5 150.7 147.1 142.8 142.2 137.1 139.2 139.5 137.5 135.1 134.4 132.7 131.2 129.6 128.5 125.8
384.4 390.4 395 400.4 408.3 414.5 419.4 421.9 420.3 418.7 416.5 412.5 415.1 409.1 406.4 403.7 401.6 400.4 399.8 398.9 397.9 396.9 395.6 395.1 394.5 393.9 393.6 390.1 387.1 393.8 392.6 388.6 397 402.4 408.3 413.4 417 422.7 431.5 441 450.7 458.2 464.2 468.6 471.8 473.6 474 470.1 462.6 455.8 449.7 444.6 441.9 438.4 434.4 429.2 422.9 416.5 409.9 404.4 399.4 393.5 385.3 373.5 362.4 354.1 343 331.7 325.3 321.9 318.8 318.3 320.2 321 322.8 330.1 336.6 341.7 347.3 354.2 359.5 365.4 369.1 370.1 368.3 364.5 358.5 352.6 346.4 339 331.6 328.1 327.5 327.2 325.5 322 320.1 319.1 317.7 319.7 325 331.2 338 344.2 347.6 348.1 343.9 341.3 337.3 335.4 334.7 336.7 339.3 342.5 346.8 351.4 353.3 356.4 360.8 364.6 368.5 371.2 370 366.7 358.8 349.5 341.4 331.8 321.1 314 308.2 303.9 302.9 305.1 309.5 313.7 318.5 322.3 325.1 328.3 334.2 339.1 342.6 343.5 342.2 339.4 335.9 330.6 323.4 316.6 309 301.9 295.7 288.8 274.7 258.7 245.1 232.6 223.9 214.5 207.5 200 194.2 189 181.2 176.8 171.5 165.9 164.7 163.8 161.8 161.2 161 167.2 170.3 174 174.5 172.5 168.7 164.6 161.5 159.2 158.2 156.1 151.8 150.5 147 141.1 138.1 135.1 137.5 139.3 138.4 139.6 137.5 136 134.8 132.8 130 126.5
383.3 388.9 394.8 399.4 404.7 411.8 416.3 420.6 418.9 415.2 414.8 414.4 404.1 407.6 403.2 400.5 399.7 398.7 398.3 396.9 396.4 395.4 393.8 392.6 392.1 389.9 394.9 400.6 404.5 404.5 401.1 391.5 388.7 400.2 409.2 414.9 418.6 427.5 435.2 444.8 452.9 461.2 466.9 471.1 473 473.2 472.3 467.6 460.8 454.2 447 441 437.3 434.7 432.7 430.4 426 419.7 413.7 409.7 405.8 401.5 395 384.2 374.5 364.3 353 345.3 336.2 331.3 329.1 329.4 329.9 330.2 332.6 335.6 341.7 347.1 352.5 357.5 362.9 366.9 369.6 370.7 368.5 364 358.1 351 344.3 338.2 335.6 335.4 334.4 332.9 330.2 326.2 322.3 319.9 317.5 318.3 322 326.8 332.1 336.6 338.5 337.3 333.4 328.3 327.3 326.2 328.4 330.4 333 336.8 342.5 348.4 353.1 358.8 363 367.9 372.2 375.2 373.8 369 360.1 350.2 342.6 332.6 322.6 315.5 308.6 306 307.2 308.3 311.4 315.3 319.9 323.9 326.3 331.6 337.9 342.8 347 349.3 348 344.7 339.8 338.4 333.3 327.8 319.5 309.2 299 292.6 280 265.6 252.8 239.8 229.3 220 212 204.6 197.8 190.9 182.8 180 173 167.8 163.6 161.6 160.3 160.3 158.6 160.9 167.8 170.5 171.7 171.4 170 164.4 162.3 161.7 158.3 157 146.9 147.8 147.3 143.6 141.2 138.8 135 134 136.3 135.9 136 134.6 133.8 133.4 131.8 127.5
379.6 385.3 391.1 397.4 402.2 406.7 411.4 413.9 414.3 407 410.4 411.1 410.1 402.4 401 400.4 398.3 398.2 396.9 395.3 395.2 393.1 392.7 393.9 397.9 398.7 403.4 408.7 411 409.4 406.9 401.7 382.5 393.7 407.5 415.6 423.4 432.3 439.5 447.9 455.6 461.8 466.8 470.4 472.1 472 469 464 458.3 452.1 444.2 437.2 430.7 427.7 428 427.9 425.6 420.4 415.4 412.4 409.6 406.4 402.2 393.8 382.5 374.4 365.8 356.5 350 345 340.6 338.9 338.2 338.7 339.3 341.5 346.1 351.5 355.7 360.4 364.9 368.2 369.7 370 367.2 362.4 355.9 349.7 344.6 341.8 341.5 342.5 340.8 337.9 334 328.9 324 319.5 316.6 316.5 317.1 321.1 324.6 328.2 328.2 327.5 324.3 322.3 320.4 317.2 320.6 321.9 324.8 329.2 336.7 344.6 351.7 358.6 363.4 368.7 373.2 376 374 369.4 361 351.5 343 334.9 324.8 316.8 310.3 309 309.4 309.7 313.2 316.5 320.3 324.2 328.5 334 340.6 346.5 350.9 352.7 351.1 348 341.6 340.9 337.7 331.1 322.1 313.3 298.4 289.9 279.3 267.4 256.7 247.6 234.5 233.1 223 214.9 205.2 196.6 189.3 182.8 176.6 169.6 165.4 161.2 159 158.4 157 156.8 164.1 166.2 169.4 169.9 166 166.1 161.6 160.1 157.8 153.6 144 149.8 146.6 144.6 142.2 138.9 138.1 130.8 134.1 133.3 132.3 131.9 130.4 130.3 128.6 126.7
381.2 387.8 393.3 398.7 403.8 407.9 409.5 408.3 407.4 412.1 417.2 420.3 417.9 416.6 412.6 408.8 404.4 401.4 401.7 400.6 400.2 401.6 402.9 403.1 405.1 406.4 409.7 413.3 415 413.1 409.8 404.6 387 386 402.2 415.1 425.4 435 443.1 449.4 455.3 460 463.5 467.5 470.2 470 465.6 460 455 448.9 441 431.6 423.1 419.8 422.6 423.9 423.3 419.6 415.4 412.9 412.3 411.2 408.1 401.4 392.7 382.4 373.9 364.2 356.4 351.4 347.4 345.7 346.5 347.1 346.2 347.9 349.6 353.7 358.3 362.8 367 369.6 370.4 369.5 366.3 361 355.3 350.3 347.1 344.9 347.2 348.4 346.1 342.3 337.1 330.8 323.8 318.5 315.2 311.1 312.5 314.6 317.8 319.4 319.2 317.5 315.7 315.6 312.5 312 314.1 316.2 319.4 324.4 332.1 341.1 349.5 356.1 362.1 365.9 370.6 372.9 372.6 368.6 361.6 352.4 343.8 334.8 326.6 320.3 313.9 311.9 310.7 309.6 312.7 315.7 318.8 322.6 328.7 335.1 341.6 347.2 352.1 355.1 350.7 346.3 340.3 338.8 335.7 328.5 319.1 310.8 298.6 287.9 276.2 268.1 260.2 252.2 243.7 238 228.7 220.8 213.6 205.7 198.8 190.1 181.5 170.4 166 162.9 159.9 158.7 157 155 157.4 164.5 165.6 165 163.6 164.5 162 159.1 156 155.1 149.5 144.3 147.9 144.1 141.9 138.9 137.3 134 133.1 131.9 129.2 127.7 127.5 127.3 125.2 124.1
391.4 397.4 402.3 408.6 413 416.5 419.5 422.1 423 428.5 432.3 432 429.1 423.9 419.3 415.6 411.3 408.6 406.9 406.3 407 408.8 409.3 409.4 410 411.3 413.3 416.6 418.1 416.1 413.1 408 390.2 372.8 392.3 411.1 425.1 435.4 442.5 448.2 452.2 455.7 459.3 462.5 464.8 463.4 460.1 456.3 451.4 445.6 436.8 426 417.9 414.3 417.1 418.6 418.4 416.7 414.2 414.1 414.2 415.6 415.5 409.3 400.2 389.3 379.8 370.8 362.9 356.1 353.1 352.8 353.5 353.2 352.8 352.3 353.8 357.8 362.3 366.2 368.8 370.4 370 368.5 364.8 360.4 354.8 351.3 348.9 348.5 351.6 353.3 350.1 344.4 338.4 330.8 322.7 316.8 311.4 305.1 304.4 306.8 311.1 312.1 311.2 309.9 307.7 306.6 306.1 307 308.2 310.2 313.5 319.8 328.7 336.6 345.3 352.6 358.2 362.9 366.5 369.7 370.5 368.1 360.8 352.3 344 340.1 332.4 325.3 319.7 315.6 313.3 311 308.8 314.2 315.5 321.6 327.7 334.7 341.6 346.8 352.1 352.7 348.2 341.3 336.6 333.2 329.3 321.3 317.2 307.8 299.6 288.6 278.7 269.8 264.9 257.6 251 242.9 235.2 228.2 221.6 215.3 209.5 199.8 190.2 177.6 171.5 167.4 163.8 157.6 157 155.3 156.7 160.2 160.4 160.7 161.2 162.7 162.2 162 159.2 156.3 152.7 144.7 145.4 144 141.5 138.8 136.5 134 127.5 129.6 127.4 126.4 125.2 124.3 122.5 121.7
402.4 409.4 412 419.5 421.4 426.5 429.6 436.6 438.8 442.4 443.7 445.2 441.9 437.2 431.2 425.8 420.2 417.8 415.6 413.2 412.7 414.7 414.7 415.5 415.5 416.4 417.7 419.8 420.2 420.4 417.8 411.1 391 366.1 384.8 406.4 420.8 432.3 439.8 444 447.2 450.4 453.7 456.2 458 458 454.9 452.1 447.1 440.2 432.1 422.9 413.7 408.7 409.3 411.5 412.6 412.3 411.6 413.6 415.9 419.1 419.5 414.1 403.6 393.2 383.5 374.7 367.4 360.8 358.5 359.3 359.7 359.5 358.1 357.4 357.3 360.3 364.3 367.4 369 369.1 368.3 365.9 362.6 358.3 354.2 352.5 351.4 351.5 356 355.5 351.8 345.7 337.9 329.4 320.9 314 307.3 303.6 299.9 298.1 302.6 303.5 303.4 302.2 299.7 298.2 299.6 300.6 302.7 305.2 309.7 314.8 323.6 331.9 339.7 347.6 353.9 359.3 363.7 367.8 369.7 368.5 362 357.8 351.7 345 337.1 328.7 323 317.1 314.1 311.4 308.7 308.9 313.9 318.6 324.7 332.9 339.1 343.8 346.9 345.7 340.2 333 328.6 325.8 318.8 313.3 310 302.7 291.6 282.2 279 272.6 267.5 263.4 255.4 248.9 243.2 236.9 233.2 226.9 221.7 212.6 198.8 186.1 182.1 175.7 166.9 160 156.7 154.7 153.2 157.5 157 159.6 160.7 159.6 158.1 157.9 156.8 154.7 152.7 149.1 141.7 134.2 133.7 136.8 135.1 133.3 128.5 128.1 125.7 124.2 123.9 122.5 120.1 119.7
414.7 420.8 426.9 428 436.8 442.8 448.5 453.3 458.6 460 460.6 458.4 455.1 448.4 441.4 436.5 430.2 427.5 425.4 422.2 421.4 422.1 422.2 422.4 422.9 422.3 423.2 424.4 426 424.3 420.3 412.4 392.8 370.9 377.5 399.8 416 427 432.9 437.2 441.3 444.9 449.3 452.7 454.5 453.8 452.2 448 441.6 434.4 426.9 418 410 403.4 402.7 405.9 407.3 407.7 409.4 413.5 416.6 419.3 417.2 411.9 403 393.2 384.4 376 370.1 364.9 364.1 364.9 365 364.5 361.6 360.4 359.8 362 364.1 367.2 367.7 366.6 364.6 362.1 360.4 358.2 356 354.9 354.2 355.7 357.8 355.9 351.1 343.5 336 327.1 317.8 309.7 303.6 299.5 295.7 293.5 294.5 295.6 293.9 293.2 289.8 292.9 293.7 294.8 297.3 300.4 305.3 311.1 318.7 326.4 334.9 342.2 349.1 355.7 361.7 366.7 369 368.1 362 359.1 353.1 347.8 339.7 324.8 320.7 317.3 312.4 311 307.8 304.7 304.5 315.2 321.5 329.2 334.7 338 338.4 335.9 328.7 320.9 314.4 309.7 305.3 299.6 297.2 292 283.2 278.2 276.5 274.2 270 264.9 260.9 256.7 254.6 249.4 245.5 237.5 232.6 219.6 205.8 192.2 185.7 178.2 170.5 164 156.3 152.7 152.7 152.4 152.9 155.5 161.5 157.6 153.8 154.8 155.6 153.9 149.1 147.3 144.5 141.1 134.3 131.4 131.3 130.3 128.3 124.8 123.8 123.3 123.2 121.4 119.1 118.7
426.8 432.2 439.9 445.7 451 457.1 463.2 469.2 473.7 474.2 473 469.7 467.1 460.2 454 449.4 445.3 441 438.1 435.1 434 433.4 433.8 432.3 430.8 429.2 428.5 429.2 429.1 426.1 421.4 411.3 390.5 373.9 369.9 393.5 410.1 419.4 426.3 430.7 435.5 440.3 446 450.1 451.7 451.4 448.9 443.7 436.7 428.4 419.9 412.4 406 400.1 397.4 401 402.4 403.6 407.4 411.8 414.9 416.5 413.2 406.8 399 390.8 382.8 376 370.6 367.7 367.7 369 369.4 368 364.2 361.9 361.3 362.2 364.6 364.9 364 362.5 360.6 359.9 360.2 362.1 361.6 359.1 359.5 360.5 359.9 356.2 350.8 342.4 333.6 325.6 314.8 307.2 301.1 295.6 291.5 287.3 286.9 288.1 287.4 285.9 283.8 287.1 287.9 288.9 292 295.6 302 306 313.4 320.4 327.9 337 346.5 353.4 360.4 365.6 367.8 366.6 362.2 360.1 355.8 348.7 341.3 335.3 328.3 322.3 314.2 308.6 304 304.2 300.9 310 316.4 323.1 327.5 330.3 328.8 323.7 317 308.2 300.3 295.8 290 286.4 285.1 280.1 275.3 275.3 274.6 273.5 271.8 268.8 267.2 264.3 262.3 260 256.7 249.6 239.3 224.7 209.5 197.6 187 176.3 169.9 165.2 157.2 153 151.3 151.2 153 155.1 155.7 154.1 150.6 152.1 154.3 150.6 151.6 147.9 140.8 138.5 135 131.6 129.7 126.6 126.2 124.3 122.4 122.5 120.6 120.2 119.5 119
