ncols 200
nrows 101
xllcorner 280000
yllcorner 693050
cellsize 50
165.4 164 159.2 158.9 160.6 169.6 178.3 183.2 187.2 189.7 192.6 192.6 193.9 195.6 201.1 211.6 219.6 222.7 224.1 224.6 222.3 211.9 200.2 191.2 183 180.3 182.8 201.8 214 222.3 228.9 231.3 235.2 241.6 244.1 247.1 242.5 241.9 243.7 245.4 249.1 256.9 261.7 265.2 265.2 265.2 264.1 263.2 265.9 271.2 284.3 295.6 294.5 292.7 297.2 315.9 328.9 335.1 334.3 330.9 348 350.3 343.6 341.6 338.1 327 314.8 304.8 297.5 293 300.5 303.1 303.9 300.8 297.9 302.9 302.6 301.9 294.3 292.5 288.2 279.5 256.6 247.9 235.6 239.1 235.8 230.9 217.9 206.1 192.9 184.2 174.2 156.4 132.2 105.6 142 166.4 181.6 199.9 210.3 215.4 238.1 245.9 255.3 262.4 269.3 288.5 298.8 311.5 323.2 331.9 337.8 349.5 358.2 369.5 376.7 379.1 373.6 351.4 331.9 315.4 296.5 279 269.6 274.1 279.9 300.9 312.1 305.4 287 267.7 249.6 275.2 303.3 334 363.8 402.5 420.2 433.5 433.4 445.5 451.2 461 471.2 473.9 465.5 462.9 461.3 460.4 457.6 443.9 420.4 396.2 364 358.6 368.9 384.2 404 413.5 403.8 373.1 332.5 300.8 275.7 254.9 228 200.5 158.5 111.2 121.3 160.3 182 218.8 246.1 257.9 275.8 296.1 288.8 271.7 255.7 241.4 204.8 244.8 255.2 260.3 263 286.1 313.3 336.7 355.3 373.2 386.2 390.8 397.3 403.2 409.1 416.5 422 431.4
164.4 164.9 160.6 157.6 158.3 162.6 172.6 182.1 187 192.7 195.7 196.6 196.8 196.7 201 208.8 221.1 225.8 225 223.4 219.1 211.6 200.7 189.9 180.9 181 183 186.5 204 221.3 228.1 233.5 236.1 236.1 239.2 242.5 247.8 248.8 251.2 253 257.6 259.3 262 267.3 268.2 268.2 268.8 269.8 273.1 277.5 285.3 302.5 301.9 297.4 310.3 317.2 330.5 342.4 344.3 337.7 346.2 351.8 352.7 354.1 350.2 343.3 334.3 320.2 310.7 303.5 310.8 316 314.8 313.1 311.4 311.6 311.3 310.8 297.8 301.7 295.9 286.6 261.9 256 238.9 225.5 228.1 226.4 214.8 205 193.2 183.6 172.4 150.3 113.8 130.7 153.1 167.9 187.2 204.6 213.7 222.3 238.6 248.5 259.1 263.2 270.1 287.1 302 321.5 334.8 341.9 345.5 349.8 358.8 371.6 382.3 379.1 365.4 352.2 328.6 316.7 301.5 275.7 259.4 257.9 262.1 270.6 286.2 285.7 272.1 253.9 234.8 265.3 297.3 330.6 360.9 387.6 411.9 414 409.3 417.1 428.5 435.4 441.8 460.7 463.2 459.6 456 454.4 446.4 430.4 409.2 382.3 356 334.5 342 357.5 379.7 397.6 385.5 347.6 323.7 295.2 273.4 251 229.6 202 161.5 118.9 101.5 140.5 174.5 203.7 236.3 254 265 280.2 277.1 262.8 248.5 232.7 194.6 230.9 240 248.8 269.7 298.2 322 341.8 354.7 368.2 379 380 382.8 388.1 396.3 406.2 407.8 409.4
159.1 159.5 155.3 155.2 154 156.8 163.6 172.3 181.4 187.5 192.3 196.6 196.4 195.9 202.3 211.1 213.1 218 220.8 217.7 212.3 204.6 198.3 191.3 181.9 184.3 185.2 193 197.6 206.9 219.4 226.9 231.4 233.9 237.1 244.7 252.6 258.9 262.4 262.2 263.2 264.2 268.9 273.4 272.9 271.6 271.9 270.5 275 281 292.9 297.6 302.7 300.3 312 322.7 335.5 348.9 353.3 347.5 345.5 362.6 367 360.3 359.6 355.6 349.3 340.8 333.3 323.2 324.4 329.6 323.4 322.1 318.5 317.4 313.4 306.3 306.8 307 300 282.6 264.5 256.3 244.5 228.7 218.5 215.6 209 200.3 192.3 181.1 168.8 146.2 105.5 131.6 153.3 168.6 187.1 208.6 216.3 221.6 237.8 249.8 257.5 263.6 265.2 268.3 297.2 319.5 334.7 345.4 344.5 340.7 349.6 367.6 378.1 374.9 360.7 347 332.2 312.4 294.4 270.7 252.1 237.9 247.5 246.7 255.6 262.7 256.5 232.3 215.2 250.6 292.2 323.5 354.4 372.7 382.1 373 370 372.6 385.6 392 403 417.6 427.4 419.5 426.5 425.2 423.6 406.4 389.5 357.6 334.1 325.3 312.6 334.3 357.7 375.9 372.7 349 326 292.2 266.9 245.4 228.4 206.7 180.3 134.2 96.7 118.7 154.2 199.1 233.4 246.5 260.8 267 263.5 255.6 241.1 228.1 195.1 200.6 228 253.3 274.1 299.3 321.1 328.8 336.1 347 356.8 361.9 365.7 372.4 377.3 377.8 378.5 381.8
146 148.5 145.8 145.9 148.6 152.1 156.9 165 174.3 181.5 185.5 190.3 193.1 194.8 202.9 209.7 217.6 209.2 207.8 204.5 205.9 199.6 192 184.9 181.1 185.4 181.5 191.5 200.3 207.7 215.3 222.3 226.8 235.6 239.1 248.4 253.9 260.3 266.7 268.6 267.9 269.7 270.8 274.1 278.2 278.6 275 272.4 275.6 280.4 298.4 301.6 302.1 297.1 307.6 327.1 337 348.5 356.4 356.2 353.1 345.4 364.3 371.1 374.6 371 363.9 353.2 348.5 351.4 337.9 336.1 332.2 323.4 317.9 314.3 310.1 306.5 309.5 307.4 294.6 281.8 263.8 253.3 252.7 236.4 222.3 203.7 201 195.6 188.4 175.3 162.1 147.7 113.2 119.6 144.5 165.7 188.7 203.3 215.9 225.1 236.1 247.2 255.3 254.2 261.5 262.6 281.1 310.1 327.1 342.8 341.1 322.1 339.2 353.8 366.4 365 354.3 341.8 335.7 315.3 289.3 269.6 247.4 234.3 228 228.4 233 239.2 232.8 209.3 195.7 243.7 287.6 309.5 330.4 335.5 336.1 330.6 332 336 340.3 345.2 350.3 352.6 354.2 352.3 354.5 356.6 356.1 344.2 334 316.6 306.3 298.3 289.9 315.6 331.2 341 339.4 333.8 317.9 290.8 261.9 245.9 233.5 208.6 180.5 147.3 108.8 108.9 144.9 180.6 221.5 246.2 252.3 254.3 250.7 244.9 234.8 222.3 193.8 205.1 231.1 249.2 264.7 280 291.3 300.4 308.6 314.1 320.1 327.3 335 340 345.9 347.4 344.1 343.7
133.2 136.1 135.2 136.8 139.5 143.4 148.7 156.3 166.4 173 173.8 181.3 187 185 194.7 200.7 205.4 201.4 198.2 198 198.7 194.9 186.6 179.1 175.9 180.1 180.3 178.1 188.5 202.6 216.9 225.5 232.7 240.3 241.5 243.4 247.9 256.1 264.4 267.5 270.9 276.5 279.6 273.4 279.3 284.7 281.2 274 273.1 276.4 286.3 293.3 296 294.3 302.9 334.5 336.8 346.4 353.1 356.9 364 344.4 364.8 368.4 376.4 384.4 380.5 372 364.6 367.8 356 350.4 339.1 329.9 321.3 312.2 306.1 300.7 304.7 293.6 281.2 272.3 262.2 246.4 239.5 237.1 224.7 205.8 189.3 189.2 183.8 171.1 156.5 137.7 104.2 123.5 152.8 167.1 183.5 199.1 213 224.2 230.2 236.7 241.4 244.8 253.2 255.6 268.8 291.5 309.2 330.8 330.8 307.4 317.4 335.8 353.2 355.3 342.1 331.4 328.7 307.4 281.2 254.7 239.5 236.6 217 212.2 211.9 211.4 204.1 179.3 207.2 243.6 270.4 285.5 295.3 297.3 297.2 293.8 296.4 302.4 304.7 310.3 312.9 312.1 315.4 314.1 313.3 308.9 308.6 300 291.8 276.5 283.2 268.1 273.7 297.1 299.2 304.5 304 302.1 289.6 269.7 249.9 237.7 227.6 208.6 175.4 138.2 104.8 96.8 138.7 186.4 215.9 233.9 237.7 236.9 233.2 233.1 227.4 216.8 189.1 192.4 217.8 234.1 245.8 253.9 260.5 270 276.9 280.7 285.6 290.9 297.1 304.1 310.2 310.9 306.9 310.6
124.7 129.8 127.9 128.1 128.4 130.5 136.9 141.4 146.3 154 160.5 166.8 171.4 174.6 177.8 183.9 186.3 186.8 185.7 187.9 188.8 184.4 176.1 171.9 169.8 170.7 172.8 173.2 183.1 191.7 198.6 215.6 226.2 239.6 238.9 243.6 239.6 252.4 257.2 264.8 269 272.9 278.4 276.6 271.9 278.4 278.8 274 271 273.2 281.5 288 293.5 291.2 301.5 321.9 332.5 348.4 361.5 357.3 371.1 356.3 348.9 359.8 367.3 378.8 393.1 386.8 383.3 378.3 373.6 366.2 353.4 343.8 329 314.2 303.3 292.5 286.5 279 272.5 266.7 256.7 246.2 237.6 229.3 221.4 208.7 190.2 178 177.5 166.5 152.5 131.4 95.6 127.8 153.3 167.7 176.3 194.9 209.4 223.1 230.3 237.6 235 247.9 251.7 252.7 257 281.3 295.4 313.1 319.3 291.1 288.9 310.5 326.1 335.5 320 307 308.5 297.9 269.7 248.2 251.7 234.1 219.9 201.5 191.8 187.9 176.6 181.5 213.1 229.1 236.4 247.2 257.4 260.2 261.3 260.4 266.3 270.3 272 276.9 277.8 275.4 277.4 278 277.9 274.4 266.3 267.9 259.8 245.4 260.5 245.9 251.7 271.2 268.4 271.6 270.5 268.3 254.7 241.4 230.7 219 207.9 190.5 164.5 138.3 107.4 83.2 123.7 162.1 193.3 206.5 206.4 212.9 210 210.4 205.2 200.7 184.6 174.9 195.5 213.4 224.8 229.7 235 240.6 245.5 250 249.6 253.8 258.9 264.2 269.4 270 269.3 274.5
117.4 124 125.3 123.8 122 124.2 126.1 130.2 136 141.5 147.3 154 157.4 160.1 163.6 170.1 172.7 175.1 174.9 174.1 174.3 170.1 163.9 163 162.1 159.7 157.7 161.6 174 181.3 188.8 193.8 207.1 219.4 231 232.4 232.6 242.9 250.2 257.3 263.3 269 272 271.8 271.7 265.5 268.2 266.6 268.6 271.7 280.5 290.3 295.7 291.4 289.4 315.4 331.8 349.3 359.9 362.8 366.8 364.6 351.5 345.1 361.7 371.7 389.6 389.8 396 390.1 396.9 384.5 371.4 350.5 339.3 318.3 306.5 289.9 279.5 272.6 267.2 259.9 251.4 242.2 236 227.4 219.3 209.1 191.1 176.5 162 161 148.8 132.5 101.6 121.5 148.9 161.5 172.9 188.1 207.9 221.6 231.4 236.4 229.5 240.7 253.5 242.1 245.3 265.4 289 297.9 298.6 277.9 269.8 279.6 295.5 310.5 296.9 278.2 279.1 268.6 248.2 240.7 247.2 234.4 214.4 199 193.4 180.3 147.8 176.1 198.1 201.3 210.7 216.9 224.1 227.8 231.8 236.8 238.6 241.8 243.8 244.2 241.4 239.5 244.9 245.9 242.7 239.6 228.2 223.2 217.8 212.8 232.4 219.1 221 236.2 236.3 234.4 231 228.4 218.6 209 197.4 188.1 176.9 164.9 150.4 132.5 105.3 78.8 122.3 152.1 166.4 175.3 176.1 182.4 180.8 175.9 174.8 174 172.7 148.1 175.9 187.1 195.4 202.1 206.4 210.3 213.6 217.3 217.2 219 216.1 224.1 227 229.3 230.9 236
105.8 111.5 116.8 123.3 122.2 119.4 120 122.3 127 130.7 135.5 142.9 147.9 150.8 153.9 159.8 163.8 169 167.9 164 159.9 156.7 153.4 151 150.5 152.5 150.2 149.4 155.7 168.3 174.4 183.2 191.9 198.7 209.4 212.3 221.2 231.1 239.4 248.3 255 260.9 263.2 260 260.7 260.1 256.7 258.1 268.9 274.4 268.2 280.8 291.8 290.5 289.2 301.2 317.8 334.8 349.9 344.8 353.6 354.3 348.3 344.1 355.4 359.2 367.9 377 388.9 397.6 417.7 404.9 386.7 360.8 346.2 325.5 306.7 290 279.4 272.4 266.8 257.1 250.1 238.7 232.2 226.1 217.3 206 194 178.8 167.1 144.8 143.5 132.3 108.5 109.2 135.6 156.4 168.6 181.3 198.6 224.4 231.7 236.6 223.7 214.8 226.1 225 234 250.7 270.9 281.4 275.6 248 247 253.1 271.6 280.1 272.3 258.5 251.8 241.4 232.7 227.7 233.7 229 210.2 196.4 185.7 175.5 141.7 158.7 172.5 173.9 181.6 195.7 202.2 205.4 210.5 211.2 213.7 214.5 216.5 214.3 213.1 211.3 211.3 210.9 210.8 207.2 200.6 198.4 192.9 185.2 188.7 184.9 190.1 200.3 197.6 193.6 194.8 191.6 190.2 182 171.8 162.2 153.3 144.1 135.4 126.5 106.4 79.2 100.9 132.7 144.1 150.4 154.9 159.2 160.3 160.8 158.2 153.8 153.3 144 154.4 161.5 165.9 169 173.5 180.7 183.9 183.4 181 182.1 181.5 184.9 187.3 193.7 192.9 195.5
94.6 100.2 105.9 113.5 116.8 122.6 120.7 118.1 117.8 119.6 125.4 133.3 141.3 147.7 149.2 154.1 160.4 166.7 167.9 162.6 158.2 153.1 145.8 140.2 137.5 140.8 143.6 143.8 145.9 146.2 153.3 165.2 176.9 188.1 192.8 193.4 200.7 211.6 224.8 232.8 238.5 244.5 247 249.3 253.8 250.4 249.5 248.1 259.1 265.7 256 258.1 285.6 299.2 284.2 299.1 308.7 320.4 325.9 330.9 340 345.2 348.5 347.1 344.6 352.3 362.3 356.2 364.3 380.7 407.5 416.6 400.7 368 349.3 330.8 312.2 295.1 285 278.1 277.3 267.4 251.5 241.1 231.1 225.4 217 206.8 192.5 181 168.7 155.6 131.8 125.3 120.2 89.2 128.5 151.9 165.7 172.3 187.1 207.8 221.6 225.7 221.8 212.9 208.5 213.4 212.7 221.8 233 248.9 246 221.4 228.8 233.7 243.8 246.6 236.5 235.1 240.4 219.9 218.6 215.9 216 215.8 201.9 190.4 175.5 165.8 145.3 135.3 145.9 144.2 154.9 171.3 176.5 180.5 179.6 186.9 188.5 189.2 188 186.4 181.3 177.2 177.7 175.1 175.8 174.5 167.4 166.2 160.8 158.2 158.5 154.8 161.2 164.4 165 163.4 162.2 158.2 155.5 152.2 144.7 138.2 131.1 124.5 116.6 111 104.3 75.1 94.1 119 124.9 129.5 130.3 137.4 142.6 142.6 141.4 138.8 137.5 128.1 128.8 138.9 142.7 146.7 149 152.9 154.7 157.6 154.9 154.5 156.3 159.5 160.8 161.9 164.3 166.4
83.8 90.3 95.9 101.7 108.7 119.6 124.1 120.9 116.9 116.9 117.7 124.6 143.3 157.8 165.4 167.7 174.3 180.3 176.8 166.9 159.9 157.1 149.7 139.9 130.1 127.3 132.6 140.9 146.7 145.8 142.6 146.3 155.2 165.6 175.1 179.3 183.1 192.5 204.7 219.4 228.1 237.3 237 240.1 244.1 243.3 240.9 239.9 247.8 240.6 238.1 238.5 264.3 287.3 265.1 287.2 297 309.8 324.9 327 339.3 345.9 349.7 349.2 343.5 344.4 347.1 351.4 349.8 355.7 376 402.6 406 374.9 350.4 333.7 327.6 303.7 293 287.9 282.3 276 255.7 244 237.5 224 218.9 206.7 195.7 184.4 171 159.3 142.6 122.8 95.9 87.8 124.8 146 159.8 166.7 179.6 199.4 212.9 223.2 224.5 228 205.2 198.3 197 201.4 211.4 215.3 216.6 200.2 210.2 218.1 216.6 212 207.8 204.8 207 196.7 196.6 194.9 185 190.4 178.4 172.2 159.8 147.7 142.1 106.8 112.2 117.8 123.7 139.6 147.3 156.2 151.3 154.7 155 152.5 153 147.5 144.5 141.1 138.3 137.1 134.5 131.3 127.9 126.9 125.9 128.7 131.6 134.3 133.9 134.8 136.5 138.2 139.1 136.4 132.5 128.5 123.2 119 112.2 106.3 102.1 98.9 98.1 69.1 87.8 95.7 101.9 103.2 108.8 116.3 121.4 122.7 123.3 121.6 119.3 116.4 108.3 113.6 116.9 119 121.6 125.3 126.1 124.7 117.8 118.1 123.2 128.4 126.3 127.8 130.7 139.6
76 81.3 86.7 92.7 101.8 109.8 118.4 121.9 120.6 117 114 115.9 124.5 153.3 160 163.4 169.1 177.9 172 166.9 161.9 162.4 158.2 147.8 133.2 122 123.9 137.9 148.5 153 148.4 139.7 142.7 149.7 158.2 171.4 178.6 185.4 192.3 206.6 212.7 218.4 224.2 229.4 232.6 233.9 234.5 231.8 226.5 223.3 215.6 219.4 251.4 270.7 248 273.8 292.4 303.2 314.6 318.5 331.1 337.6 340.6 350.8 350.3 338 342.3 346.3 348.3 356.2 367.3 374.6 382 372.8 352.4 342.5 339.3 322.4 304.2 298.3 290.1 288.2 264 246.6 241.5 221.5 217.1 207.6 201.7 186.2 175.8 163.2 148.9 130.5 110.8 82.3 115.3 138.2 152.6 161 167.3 184.1 202.1 215.8 217.1 216.8 212.9 191.3 183.7 183.4 183.8 183.5 183.5 179.4 187.6 191 188.4 177.9 169.8 168.6 172.5 167 173.1 171.2 156.5 156.3 148.9 144.6 143.2 131.7 120.6 113.6 78.3 89.6 103 112.5 118.3 124.7 122.6 123.1 123.3 121.9 120.9 117.8 117.6 113 110.9 109.4 108.4 106.7 103.8 102.4 98.8 104.7 106.8 105.1 104.8 102.9 104 105.9 107.3 106 103.1 100.1 95.9 90.6 89.5 85.9 83.4 75.2 72.8 59.1 60.2 74.8 78.7 77.8 89.7 95.2 99.5 102.4 100.6 100.9 100.8 97.7 86.7 95.6 94.8 94.2 97.4 99.7 99.3 94.5 90.7 89.4 90.3 94 92.5 95 99.5 101
66.5 75.9 78.2 84.4 92.4 98 106.5 115.3 118.8 118.7 116.3 112.7 112.8 120.8 132.8 147.3 149.7 154.9 158.8 159 155.6 158.6 160.8 156.3 139.3 125 117.1 132.5 148.7 155.6 158.8 149.6 139.3 144 155 164.9 174.5 179.2 185 190.1 195.4 202.8 209.8 216.8 221.1 221.1 221.2 220.2 215.7 211.1 204.4 201.3 228.6 258.6 243.3 254.7 270.5 290 304.4 307.2 322.4 334.2 349 352.6 353 347 335.1 335.3 344.8 351.8 352.4 348.3 353.8 357.1 359 352.3 350.6 333.2 315.9 312.1 300.6 296.1 267.8 250.5 240.4 221 217.8 210.9 198.2 192.8 180.5 167.3 154 137.6 117.1 78.7 111.1 132.1 143.5 153.6 160.8 165.1 186.5 195 195.8 208.2 208.2 190.5 170.2 161.7 157.4 154.4 156.3 151.1 162.1 160.8 153.8 140.5 136.9 136 142.7 139 149.6 148.2 129.1 123.7 119.8 119.4 117.8 113.4 103.6 98.4 75.6 63.7 83.9 94.5 92.8 96.5 95.5 97.2 94.9 93.4 92 91 88.3 84.6 82.5 81.4 80.4 78.5 77.3 80.7 76 79.1 78.1 79.2 70.3 76.8 73.7 71.1 68.8 63.3 60 59.2 58.7 56.8 56.2 60.3 48.8 41.5 33.8 38.4 53.3 59.1 60.7 57.3 65.5 71.5 75.8 78.2 79.6 80.4 80.3 80.5 65.4 78.5 79.9 79.4 79.7 77.8 75.6 75.1 73.9 71.9 72 72.8 72.6 73.8 75.6 79.7
57.2 68.4 75.9 76.2 82.6 87.7 96.9 107.1 111.3 114.2 114.7 112.8 109.2 109.7 118.6 128.3 136.4 144.3 145.2 144 147.6 153.6 157.4 156.5 144.6 133.1 117.4 118.7 139.2 155.8 162.1 159.4 142.2 140.8 158.5 167.3 173.9 179.4 185.4 195.2 195.5 202 204 205.5 209.3 215.2 214.3 210.1 208.3 204.2 196.2 187.1 204.7 230.1 217.7 238.5 240.6 264.3 285.1 295 322 337.3 344 355.7 358.7 357 317.3 326.6 334.8 333.6 339.7 351.1 355.1 356.3 364.5 362 361 347.3 329.5 322.3 317.7 300.7 274.2 251.8 240.2 221.8 217.7 202.1 204.1 197 180.4 166.9 153.9 134.9 106.6 80.3 100.2 122.7 132.6 143.1 150.3 152.3 156.9 173.1 174.5 184.5 185.5 181.8 172.2 150.2 134.7 128.3 133.4 131.8 139.9 136.9 123.4 113.2 112.3 111.7 113.7 109.5 118.7 116.9 102.4 96.4 94.6 93.6 92.1 92.2 83.4 81.6 77.8 53.4 67.5 72.2 71 74.6 72.6 69 65.9 65.2 62.4 61.1 62.3 59.2 58.8 57.5 52.8 53.4 57 61.6 62.3 65.4 65.2 65.1 56.4 62.4 61.2 56.4 52 48.4 44.2 43.6 43.4 42.7 42.5 41.9 38.4 36.9 49.1 53.7 55 54.2 52 51.9 53 57.1 62.5 64.8 66.5 68.5 69.3 68 53.9 63.5 66.9 66.6 64.8 63.7 63.3 64.5 63.5 61.6 64.1 66.9 68.6 70.9 70.8 75.3
46.4 60.9 66.1 74.3 73.1 78.2 87.1 98.5 105.4 106.2 109.9 111.6 110.4 109.5 111.2 115.6 121.1 125 131.2 134.1 141.9 145.1 148.2 152.8 147.5 140.6 124.6 113.3 114.9 129.7 151.4 156.5 143.9 137.1 157.2 176.4 185.5 189 193.5 199.5 197.9 206.2 205.3 206.5 204.8 209.1 213.6 206 201.9 198.4 193.4 178.7 179.4 197.3 213.6 208.2 238 264.6 277.9 291.3 327.1 336.4 339.5 350.5 356 356.3 326.7 293.1 309.8 328.7 342.5 351.5 359.4 364.3 364.4 358.6 363.9 354.8 342.3 329.7 322.4 304.9 278.4 247.9 230.9 218.7 215.1 200.1 209.7 195.3 179.8 164.8 151.4 135.2 110 88.8 82.9 104.7 122.9 126.4 137.4 140.4 142.8 151.2 148.6 158.4 166.9 171.5 165.5 147 116.1 110.1 112.2 112.5 116.4 119.2 101.3 90.2 88.2 85.9 86.5 83.1 82.5 79.7 74.2 71.1 72 73.6 70.7 67.8 63.9 61.9 64.4 50.6 51 55.8 57.2 56.4 50.1 46.5 41.4 41.1 40.3 41.6 43.2 41.5 40.4 40.5 40.7 40.1 43.6 43.1 45.3 49.1 50.1 50.6 45.8 49.6 48.8 46.2 44.6 41.5 40.1 38.3 35.5 33 34.5 34.8 31.8 46 50.9 52.7 54.5 53.1 48.9 45.6 43.5 46 50.7 53.1 55 57.5 59.3 59.1 43.8 55.8 56.1 55.6 56.5 55.8 56.2 56.1 55 55.1 57.3 62.9 65.5 63.7 57 70.7
41.6 48 55.4 65.2 71.6 72 79.9 88.7 96.4 103.7 104 107 108.5 110.3 112.9 116.3 121.9 126.8 132.2 131.1 132 136 140.6 145.4 147 142 128.6 118.1 114.5 115.8 122.6 131.8 136.2 132.5 148.3 159.1 180.1 190.2 194.1 196.4 193.1 204.7 211.6 215.2 215.5 199.4 208.8 201.9 200.7 194.9 183.5 173 159 171.2 198.3 196.9 241 267.7 278.1 284.9 320.2 338.4 348.7 353.5 365.7 371.2 341.1 307.2 265.5 296.2 313.7 324 340.8 348.1 349.5 329.5 340.6 345.7 324.9 296.4 288.4 275.5 256 234.4 216.3 205.4 206.4 194.4 198.6 184.4 172 158.6 147.1 132 115.3 88.3 74.7 82.8 101.8 118.2 116.4 116.6 127 131.8 138.8 127.3 137.6 147.2 133.1 112 94.2 93.8 93.1 90.5 90.8 88.3 76.6 69.9 68.7 67.4 63.7 61.3 56.7 52 45.9 45.7 47 49.1 46.6 44.2 42.1 40.9 39.6 38.1 38.1 45.1 46.2 45.1 40.2 31 27.5 22.6 23.4 22.9 25.8 25.4 24.4 24.2 25.7 25.3 27.2 28.2 32.1 32.4 34.6 35.8 35.7 38.6 37.7 37.5 37 36.6 34.9 36 31.6 31.2 34 31.2 41 44.5 48.5 50 51.2 48.1 45.3 42 34.7 34.3 34.7 39.6 42.3 47.1 49.5 50.8 46 43.6 49.2 48.1 48.3 48 46.8 47.8 48.6 46.1 52.7 56.2 55.8 44.5 60.3 62.7
39.4 42 44.5 57.2 60.6 70.5 72.2 78.4 88.2 96.7 101.8 104.1 105.8 108.8 112.7 119.9 125.4 130.9 135.6 130.8 126.9 128.9 130.5 135.9 130.9 128.1 126.1 117.5 111.4 110.3 112.7 118.3 124.1 126.4 144.9 158.1 160.9 168.3 175.3 182.5 187.5 189.2 199.2 201.7 199.7 193.3 191 187 204.5 200.7 180.8 155.9 138.6 140.5 160.7 188 236.4 255.3 261.8 264.8 299.2 325.6 341.4 346.6 353 357 353.1 317.4 282.3 239.6 266.4 286.3 299.7 305.2 303.4 288.6 284.1 279 273.7 265.4 259.5 236.5 219.7 205.1 191.4 179.9 172 168.9 173.3 162.2 153.6 145.3 135.8 122.9 113.6 101.9 89.1 76.4 84.9 111.4 109.9 99.9 104.7 106.4 114.8 100.3 113.3 109.9 95.4 80.4 73.8 79.4 77.6 75.8 70 65.8 60.4 56.6 55.5 50.4 48.1 45.5 41.9 35.5 29.7 25.5 23.6 24.2 22.1 24.1 27.4 32 35.5 36.2 33.2 32.6 34.6 32.8 26.6 19.7 17.5 17 15.4 15.5 14.9 16.2 15.5 17 17.3 17.9 17.9 18 18.9 19.2 22.7 27.2 29.4 27.2 26.7 28.3 29.5 30.4 29.8 31.1 29.5 29.8 30.7 31.6 38.2 43 44.9 45.7 46.2 45.4 43.6 39 28.9 23.6 23.2 26.7 29.3 33 37.1 40.7 37.9 30.7 41.8 40.1 40.1 39.9 39.4 40.1 40.1 39.7 43.7 44.2 42.9 34.8 47.3 46.9
39.5 41.6 41.6 48.6 54.8 61.9 67.2 70.4 79.2 86.5 94.9 99.1 105 114.4 120.2 125.5 127.3 128.9 128.5 124.8 122.3 124.2 122 121.5 117.2 113.9 112.2 109.9 105.2 104.6 99.7 106.8 116.5 128.4 127.6 148.4 157.3 164.1 166.2 170.4 175.8 174.9 188.7 196.9 195.9 193.6 167.6 165.4 183.4 194 182.8 152.6 136.4 118.3 152.5 169.9 194.7 223.4 237.5 241.6 263 301 316 329 329.5 314.7 311.5 298.2 283.2 241.9 213.5 234.5 251.3 252.7 256.7 247.1 241.6 233.3 227.1 225.7 222 206.6 188.1 175.7 165.4 158.5 150.9 149.2 145.1 141.4 135.3 129.2 119.6 113.6 106.9 98.3 89.8 52.7 74.8 107.5 112.9 95.1 76.9 84.4 85.6 69.4 72.6 70.1 62.4 57.7 57.3 58.6 59.1 56.6 53.7 50.6 48.1 46.6 44 40.7 37.6 35.2 29.3 25.4 18.2 15.1 14.1 13.5 13.3 13 17 22.9 30.6 32.4 28.9 26.4 25.2 21.3 18.7 19.7 15.9 14.7 13.4 12.9 13 13 13.2 13.9 13.4 14.8 14.1 13.8 13 13.9 18.1 22.1 23.4 20.6 18.7 20.1 23.1 24.4 25.8 27.8 27.6 29.6 29.3 26.8 35.3 39.6 41.6 43.2 44.1 42.4 38.6 27.8 20.5 17.2 16.6 18.6 18.8 22.2 26.4 30.8 31.4 28.3 33.4 33.1 31.8 31.4 30.6 30.6 29.7 30.5 32.4 32 31.1 27.9 30.4 29.1
41.1 40.4 39.9 43 46.7 57.3 63.2 60.1 72 78.8 86.9 98 107.1 116.8 126.4 127.8 128.5 127.7 122.9 123.8 123 126.4 127.3 127.8 127 113.7 104.5 100.4 96.6 94.6 91.5 103.4 112.1 117 111.1 141.2 158.3 165.3 166.9 164.9 152.3 149 165 185.3 183.3 174.2 147.4 148.5 151.3 158.7 162.8 155.1 134.4 118.6 119.2 144.6 171.7 208.9 223.5 221.6 237.5 261.9 280.4 291 289 276 267.7 250.2 240.6 219.5 200 177.5 197.1 206.7 210.4 203.5 193 184 182.7 187.7 175.4 167.8 160.4 156.2 144.9 137.6 133.9 126.4 121.3 119.8 117.6 112.2 103 100.8 95.8 87.2 80.9 62 66.1 88.5 97.3 74.8 61.9 57.8 53.4 49.7 46.4 44.1 42.1 41.6 41.5 39.9 39.6 39.5 40.3 39.8 36.7 36.9 30.6 27.6 26.2 20.7 16.2 14.2 13.3 12.6 12.3 12.3 12.1 12.2 13.8 16.3 21.6 27.3 24 24.4 22.6 18 18.5 18.4 16.5 14.2 12.7 11.7 12.1 13.2 12.7 12.3 12.6 12.4 13.7 12.4 12.5 13.1 15 18.6 19.2 18.3 18.7 19.9 22.5 24.2 24.7 25.7 26.2 27.2 27.8 26.9 31.6 37.3 38.9 40 40 35.3 28.4 20.9 15.3 15 14.1 14.7 17.5 18.8 22.3 26 27.3 27.2 27.9 27.3 26.1 24.9 21 20.8 21.8 22.9 21.1 20.4 21 21.9 20.1 18.3
39.8 40 38.5 40.9 41.9 43.3 51.4 51.6 66 76.2 85.3 97.2 106.1 114.3 123.8 129.3 129 126.2 119 120.3 124.4 128.1 131.7 133.4 133.6 125.3 104.6 96.3 90.9 84.8 81.1 103.1 110 111.4 102.6 115.1 142.9 144.3 123.7 122.5 127.6 130.2 138.9 153.3 164 144.7 125.2 132.8 129.7 139.9 133.7 148.6 136 117.5 85 116.9 151.4 174.2 195 201.4 204.6 219.6 239.6 252.3 252 243.2 233.2 211.8 204.7 184 169.4 158.1 146.1 155.6 164.3 157.3 155.3 149.6 148.9 150.1 147.2 138.1 133.2 128.5 120.7 114.5 107.4 102.3 98.7 98.6 97.9 92.8 91 87.3 76.8 67.6 63.4 60.4 46.7 64.4 65.8 54 45.5 40.8 37.4 37.7 37.3 33.1 29.4 29.1 28.1 27.1 24.6 24.9 25.1 27.5 23.7 20.8 18.8 15.8 13.9 14 13.6 12.9 12.7 12.4 10.8 12 12.2 12.3 13.4 15.8 17.7 20.7 21.4 21.2 20.4 17.1 17.5 17.9 16.8 14.1 12.4 11.5 11.7 12.2 11.8 13 11.8 11.9 11.7 12.3 12.8 13.7 14.7 16.2 16.5 17.4 18.5 19.5 21.6 23.8 25 25.2 25.1 26.7 26.4 25.9 30.6 31.3 33.7 35.1 35.1 27.8 21.3 16.7 15.5 14.8 14.1 13.9 15.9 18.5 20.5 24.2 24.6 25.1 25.1 23 21.4 20.3 16.2 15.8 16.3 16.7 14.8 15 15.5 15 14.3 13.5
38 39.8 39.5 40.2 40.8 42.2 43.7 44.4 55.3 70.4 80.9 93.9 104.6 110.3 119.2 126.6 126.7 122.1 116 122.1 118.5 127.2 133 136.5 135.2 121 102.2 95.5 92.5 75.2 65.2 80.9 97.7 101.7 91.1 87.2 96.5 90.1 90.5 91.5 97.4 107.9 126 127.3 135.1 114 101 101.1 104.8 112.9 105.7 102.4 97.1 94.9 83.8 85.1 114.9 145.1 162.3 168.3 179.6 194.9 205.9 211.9 216.3 212.3 190.7 171.8 159.3 147.2 137.6 123.2 117.1 120.2 120.3 122.9 122.5 120.8 120.2 123.7 120.5 112 105.9 101.4 97.2 92.4 89.7 87.5 86.2 83.2 84.6 83.8 77.8 69 60.2 53 49.2 44.9 23.3 37.7 37.9 33.4 28.7 28.1 28.1 27.3 25.9 22.1 21 19 19.3 16.6 15.9 15.5 17.5 16.2 13.8 14.1 14.4 12.9 12.7 12.6 13.2 13.4 13.1 11.7 9.6 11.8 11.8 12.1 13.9 15.7 17.6 19.5 18.2 19.6 18.8 17 16.1 16.3 14.4 14.2 12.7 12.2 11.9 12.4 12.6 12.6 11.6 11.6 12 12.5 13.5 13.8 14.7 16.2 16.8 18.2 19 20.4 20.7 23 23.8 24 24.2 26.2 25.1 24.6 27.5 26.8 26.9 26.5 23.5 20.1 17.4 16.3 15.2 14.6 15.1 14.9 16.6 18.6 20.3 22.1 22.3 22.6 22.5 20.5 19.5 17.6 15.7 14.3 13.9 13.8 13.2 13.4 14.1 13.4 12.8 12.3
37.4 38 38 37.5 38.9 39.3 40.5 41.9 48.5 61.9 73.2 85.2 101.3 106.3 112 118.4 123.7 117.2 113.1 120.9 117.3 113.2 118.4 118.4 113.8 109 91.1 85.2 76.9 65.6 55.4 66.8 86.5 90.4 80.8 67.9 64.8 64.1 65.4 69 75.1 79.8 87.5 90.8 99.6 84.2 76.8 73.1 77.1 79.4 79.9 75.1 71.4 68.6 67 64.5 92.5 117.8 146.4 149.1 148.4 170.9 182.8 171 164.9 173.3 154.2 139.7 130.8 122.2 111.7 103 100.1 94 94.2 97.8 96.1 92.1 92.3 93.4 91.4 87.5 84.2 80.8 78.1 75.8 71.9 71.5 70 68.2 67.3 65.1 59.6 52.5 41 30.9 29 27.4 19 27.4 28.2 25.9 23.6 22.7 21.7 21.1 19.7 19.2 17.6 16.9 15.9 14.8 13.9 13.4 13.2 12.4 13.2 13.3 13.6 13.6 12.5 13.3 12.8 12.8 12.2 9.7 11.7 12 11.5 11.9 13.5 14.9 16.6 18 18.1 18 16.8 15.4 14.9 13.7 13.8 13.8 12.6 12.5 12.1 12.5 11.8 12.1 11.8 12.6 13.1 13.1 13.7 13.5 14.8 15.4 16.2 17.4 18.8 19.9 20.4 21.6 22.3 22.8 23.5 24.2 23.7 23.4 24 23.7 22.9 21.4 20 19 17.5 16.7 15.9 14.8 15 14.3 16.6 18 18.5 19.6 20.1 20.3 20.1 18.2 17.7 16.9 15.2 13.7 13.2 12.6 12.4 12.3 12.2 12.3 11.9 11.6
29.1 37.2 35.8 36.4 34.6 34.9 40 41.1 43.6 51.2 55.1 67.9 81.7 93.9 101.9 106.9 106 99.8 98.2 102.5 100 101.4 95.7 84.2 84.3 79.3 74.9 67.1 60.6 53.5 44.2 44.3 51.1 58.4 57.5 54.6 49 47.8 47.7 52.6 59.5 59.3 56.1 57 62 63.9 57.4 55.6 56.5 53.4 50.3 50.4 49.9 49.9 53.4 44.1 66.4 98.4 115.1 127.8 127.5 124.4 125.2 121.7 130.6 147.7 136 111 100.6 96.1 90 80.3 77.7 72.6 72 74.9 73.5 69.3 67.3 67.4 67.9 66 62.5 60 56.9 53.7 50.5 48.3 47.2 45.1 45 41.3 36.8 26.8 18.5 18.2 18.8 20.1 20.1 21.7 23.3 22.8 23.1 21.2 19.9 19.5 19.1 19.2 17.4 16.3 15.2 13.9 13.7 13.3 12.7 12.6 12.9 12.5 12.5 13.3 13.6 13 12.6 12.4 11.7 11.8 11.9 11.9 12.1 12.3 13.4 14.6 15.7 16.8 17 15.8 15.1 14.7 14.2 13.8 13.5 13.2 13 13 12.7 12.5 12.5 12 12.3 12.3 12.8 14 13.8 14.3 14.3 14.4 15.2 17.8 19 18.8 19.8 20.3 21.8 21.9 22.4 22.6 23.8 22.8 23.1 21.6 20.2 18.9 18.4 17.6 16.8 16.4 14.9 14.5 14.8 13.9 15.5 16.2 16.6 17.6 17.8 17.9 17.7 16.1 15.6 15.3 14.3 13.2 12.6 12.1 12 11.9 12 11.7 11.6 11.3
16 29.1 29.6 36.5 30.4 35.5 39 41.2 42.5 43.5 43.2 45.5 52.2 64.7 76.8 78.2 75.2 71.9 67.8 68.5 73.2 82.4 74 63.4 62.3 62.8 60.4 53.7 48.1 42.1 37.9 35.8 34.1 35.8 37.1 38.5 39 39 38.4 40.2 43.9 43.3 43.2 42.5 38.1 39.4 37.3 37.7 37 36.5 37.2 37.6 37.8 38.5 41.2 39 45 55.1 74 88.1 89.4 85.7 86 85.8 90.4 87.5 88.8 82 81.3 72.8 68 62.1 57.9 52.1 54.2 56.2 47.8 42.4 41 45 45 43.7 42.7 40.9 38.1 35.5 32 28.9 26.4 21.5 20 16.3 15.4 16 16.3 17 17.8 18.8 19 19.7 20.6 20.5 20.4 20.2 19.9 19 17.9 17.2 16.5 15.8 15.1 14.3 14.1 13.4 12.9 12.8 12.7 12.3 12.5 13 12.9 12 12 12.3 11.6 11.5 11.5 11.1 11.9 12.2 12.1 13.4 14.3 15.2 15.2 14.3 14 14 12.9 13 13.4 12.9 12.5 12.4 12.5 12.8 12.7 12.3 12.2 12.1 12.3 13.2 13.1 13.1 13.7 13.8 14.4 16 17 17.7 19.4 19.9 21.4 21.3 21.3 22.4 22.4 22.7 22.7 21.4 19.9 19 17.8 17.1 16.4 15.6 15.1 14.3 13.8 13.6 13.4 13.7 14.2 15.1 15.3 15.4 16.1 15.1 14.1 14.8 14.1 13.7 13.2 12.2 11.6 11.5 11.8 11.1 11.3 11
14.1 19.3 36.6 36.6 26.6 33.8 37.5 39.3 39.6 41.3 41.4 40.8 40.3 43.5 46.9 58.9 62.5 59.6 51.1 53.6 58.1 63.1 62 55.5 54.6 55.6 49.4 45.7 40.8 37.9 36.3 31.6 28.1 27.5 25.8 26.3 26.8 27.2 26.9 24.7 24.2 26.8 26.5 26.8 24.7 21.8 23.4 26 23.4 22.4 22.6 23.3 24.3 25.6 28.2 29.6 29.5 31 37.1 43 50.9 50.2 49.3 47.3 47.4 50.3 53.2 53.9 53.2 45.9 42.7 40.6 37.9 35.3 31.6 27 24.6 25.4 28.2 29.8 27.7 26.2 24.8 22.7 20.1 17.6 15 12.9 12.5 11.7 12.1 13.1 14.6 15.8 15.8 16.4 17.4 17.3 18.6 19.8 19.5 18.8 19 19.6 19.2 17.3 17.9 16.1 15.9 15.4 13.8 13.1 13.7 13.2 12.3 12.2 12.5 12.1 12.4 12.9 12.7 12.3 12 12.2 11.9 11 10.6 10.4 11.1 11.2 11.4 12.3 13.2 13.8 14.2 13.3 13 13.1 12.3 12.6 13.3 12.5 12.1 11.7 12 11.9 12.9 12.7 13 12.6 12.4 13.1 12.7 12.5 12.7 13.9 13.7 13.7 15.6 17.1 18.2 19.2 19.6 20.4 20.9 20.9 20.5 20.5 20.5 20.3 19.6 18.1 17.1 16.5 16 15.6 14.9 13.9 13.1 12.7 12.4 12 12.3 13.1 10.7 14.1 13.7 13.6 13.3 12.5 12.5 12.6 12.6 12.8 11.4 12.3 12.5 12.7 12.5 12.4
11.4 15.7 26.2 32.6 24.4 31.3 34.6 36.5 37.3 38.7 40.3 40.8 37.1 37.7 39.4 43.2 47.8 39.2 39 39.9 43.8 52.8 57.6 51.5 45 42.8 40 37.7 37.4 36.6 36.8 36 28.6 24.4 22.6 21.3 19.7 17.2 15.2 14.7 15 13.7 12.9 12.8 11.7 12.6 14.6 15 13.8 12.9 13.8 14 12.5 14.6 17.4 20.1 20.6 17.3 15.3 16.6 21.3 22.2 19.1 22.4 24.4 26.9 29.9 31.1 26.8 24.7 22.5 17.4 18.3 22.7 22.4 14.8 14.3 13.8 13.2 13.4 12.7 11.9 12.1 12.3 12.5 12.1 11.4 11.2 10.8 12.6 13.3 12.9 14.5 15.4 16.2 16.2 17.5 17.8 17.8 18.6 17.9 18 18.1 18.6 18.1 17.7 17 15.3 15.9 14 12.4 12.7 13.3 13.6 11.8 11.5 11.9 11.9 11.7 12.7 12.5 12.4 12.2 12.1 11.7 11.6 11.7 11.4 11.3 11.2 11.6 12.1 12.5 12.8 13.3 12.9 12 12.4 11.9 12.5 13.1 12.3 11.7 11.6 12.7 12.5 12.7 12.9 12.7 12.8 12.9 12.4 12.1 12.4 13.1 12.6 12.8 13.2 14.1 15.5 17 18.6 18.4 18.9 19.8 19.4 19 18.8 19.6 19.4 18.2 17.4 17.2 15.6 15.1 14.9 15 14.4 13.1 12.6 12.2 12.9 12.7 12.9 12 13 12.9 12.8 12.9 12.3 12.1 11.9 11.9 12.1 11.4 11.9 12.3 12.7 12.6 12.4
11.6 12.8 16.6 20.6 23.2 28.6 32.3 32.9 33.5 35.9 35.7 33.7 35.5 36.3 37.6 37.6 37.1 38 38 37.7 38.6 40.4 55.6 51.5 38.5 36.7 36.2 36.6 36.9 36.7 34.8 35.9 33.6 27 21 19.1 16.8 16.3 13.8 12.5 12.4 12.4 12.3 11.7 11.9 11.8 11.2 12.4 12.4 12.3 12.3 12.9 12.1 12.9 13.9 15.2 17.2 17 14.6 13.1 12.9 13.3 12.8 12.7 13.9 15.7 16.3 15.3 15.1 12.4 12 12.2 14.8 16 13.3 11.4 11.5 11.7 11.7 11.8 10.9 11.1 11.9 12.1 12.3 12 11.1 10.7 10.5 11.9 12.8 12.7 13.7 14.7 15.7 16.5 17 16.7 17.5 17.3 17 16.5 16.6 17.2 15.8 16.4 15.7 14.5 15.2 12.6 11.8 12.4 12.9 13.5 12.2 10.8 11.2 11.4 11.9 12 11.9 11.7 11.6 11.5 11.5 10.9 10.8 10.7 11 9.9 11.3 11.3 11.4 12 11.9 11.6 11.5 12 11.7 12.5 12.9 12.1 11.4 12.3 12.5 12.7 12.1 12.6 12.5 12.6 13 12.1 12.6 12.3 13 12.6 13.2 13.8 14.2 15.6 15.9 16.9 16.9 18.2 18.2 18.2 18.2 17.8 16.9 18.7 17 16.5 15.9 15.4 14.3 14 14.2 13.3 13 12 11.7 12.8 11.7 11.6 11.6 12.2 12.1 12.1 12.3 12 11.8 11.6 11.5 11.7 11.4 11.9 12.3 12.7 12.6 12.4
11.3 12.5 13.7 17.4 18.4 23 27.2 30.8 30.2 30.5 29.9 28.5 30 33.3 35.6 36 35.7 37.1 33.6 31.4 32.5 35 38.9 37.6 36.4 35.8 33.4 34.1 35.5 34.5 32.3 32 32.1 28.4 19.5 17.3 16.2 14.1 12.9 12.6 12.4 12.4 12.3 11.7 11.9 11.5 11.7 12.7 12.6 12.5 12.4 12.5 12.7 12.5 12.6 12.9 14 13.6 14.3 12.7 12.9 13.3 12.5 12 12.7 14.7 13.7 12.7 11.8 12.9 12.1 11.3 12.3 11.8 10.6 10.7 10.7 11.3 10.9 10.5 10.7 11.6 11.5 11.9 12.2 11.9 10.9 10.3 9.8 11.1 12.3 12.5 13.4 14.4 15.3 16.1 16.5 16.8 16.2 16.8 16 16.5 16 16.2 15.9 15.3 15.4 14.2 13.6 12.1 11.5 12.1 12.6 13.1 12.7 11.5 12.6 11.9 11.6 11.5 11.5 11.4 11.4 11.3 11.3 11.2 11.3 11.3 11.3 11.1 10.4 12.2 16.1 11.1 11 11.4 11.5 11.6 12.6 12.4 11.9 12.5 11.4 11.4 11.4 11.1 12.4 11.5 11.9 12 12.4 12.8 12.8 11.7 13 13.2 12.5 13.7 14.8 14.8 14.4 15.6 15.1 15.7 16.7 16.9 17.2 16.9 15.7 17.3 16.3 15.7 15.5 13.9 12.8 13.1 13.2 12 11.6 12 11.5 11.9 12.1 12 11.8 11.8 11.3 11.4 11.6 11.7 11.6 11.4 11.3 11.5 11.3 11.9 12.4 12.8 12.6 12.4
11.3 12.5 13.6 14.2 15.2 17.9 21.4 23.4 24 23.9 24 24.3 25.3 26.2 29.4 33.2 32.7 32.5 29.2 24 23 24.7 31.2 37.1 36.6 35.7 34.2 34.1 35.3 30.9 29 29.2 30.2 29 19 16 15.6 14.8 12.8 12.5 12.4 12.5 12.4 12.4 11.9 11.4 11.9 12.7 12.7 11.9 12.3 11.8 11.7 12 12.3 12.2 12.2 12.9 12.7 12.6 12.5 13.1 12.7 12.3 11.8 12.1 11.8 11.8 11.9 11.8 12.2 11.6 11.9 11.8 11.7 11.1 10.5 10.9 10.4 10.9 11.3 11.2 11 11.4 12 11.9 10.7 10.1 10.3 11.5 12.4 12.5 13 14 14.7 14.8 14.8 14.9 15.9 15.6 15.5 14.7 14.9 15.9 15.3 14.6 14 13.4 12.7 12 11.7 11.7 12.5 13.1 12.8 12.2 12.3 13.1 12.4 11.8 11.7 11.7 11.6 11.6 11.6 11.5 11.7 11.7 11.7 11.5 11.2 12.4 15.5 12 10.6 10.6 11 11.4 11.2 11.3 11.6 11.4 11.1 11.5 11.7 11.8 11.6 10.7 10.5 10.8 10.9 11.1 11.3 11.1 11.2 11.5 12 12.5 12.4 12.7 13.3 14 14.9 14.9 14.3 15.3 15.7 15.2 15.8 17 16 14 13.4 13.5 12 12.2 12.2 12.3 10.1 11.6 12.2 12 12.4 12.4 11.9 11.5 10.7 10.9 11.2 11.6 11.7 11.8 12.6 12.2 11.2 11.8 12.4 12.8 12.6 12.3
11.2 12.4 13.1 13.4 13.9 15.3 16.4 17.8 20.3 20.8 22.5 24.1 24.1 24.1 24.1 25.3 27.1 27.6 24.9 23 23 23 28.6 34.7 34.7 33.2 34.1 34.4 32.9 31 30.6 29.4 27.5 24 15.8 14.3 14.9 14.9 12.8 12.4 12.3 12.4 12.3 12.5 11.8 12 10.7 12.7 11.8 11.7 11.7 11.8 11.8 11.8 11.9 12 12.2 12.4 12.6 12.5 12.4 12.3 12.5 11 11.1 11.7 11.7 11.8 11.9 11.2 11.4 11.5 11.3 11 10.8 11.2 11.3 9.6 10.3 11.2 11.2 10.9 10.7 10.5 11.3 11.9 10.7 11.1 9.5 11.6 12.6 12.6 12.7 12.8 12.9 13.4 14.7 14.6 14.1 14.8 14.6 13.6 13.9 13.7 14.6 13.1 12.9 12.4 12.6 12.2 11.7 11.8 11.8 12.5 12.3 12.9 12.5 12.9 12.8 12.1 12 12 11.9 11.9 11.9 11.8 12 12.1 12.1 11.9 11.6 13.8 15.6 7.6 10.2 10.2 10.1 10.5 10.3 11.4 11.5 11.2 11.2 11.5 11.7 11.8 11.5 10.4 11.7 11.2 11 11.3 11.2 10.9 11 11.3 11.9 12.2 12.4 12.6 12.7 12.8 14.4 14.7 14.8 15.2 14.8 14.9 15.9 14.7 14.9 13.6 13.4 12.9 12.6 12.1 11.1 11.3 9.6 11.2 11.6 12.4 11.7 11.3 10.9 11.2 10.7 11.3 11.2 11.7 12.5 11.8 11.8 11.4 11 11.6 12.2 12.8 12.6 12.3
11.2 12.1 12.1 12 13.1 16.9 21.9 22.1 22.3 22.2 24 24.1 24.1 24.1 24.1 24.1 24.1 23 23 25.3 26.3 23 26.4 30.9 31.5 29.7 31.8 34 34.8 33.6 31.7 28.7 21.4 16.7 13.4 13.1 13 12.7 12.7 12.1 12.3 12.5 12.5 11.9 11.4 11 11.4 11.6 11.7 11.8 11.9 11.9 12 12 12 12 12.2 12.4 12.6 12.4 12.3 12.2 12.1 11.9 11.7 11.6 11.8 11.8 11.9 11.3 10.6 11 11.4 10.9 10.2 9.8 9.7 9.4 10.3 11.2 11.4 11.2 10.9 10.6 11.5 12.1 10.8 10.7 10.7 11.2 12.3 12.4 12.2 12.1 12.5 13.7 12.4 14.2 14.6 15 13.6 13.3 13.5 13.7 12.8 13.5 12.6 12.3 12.8 12.6 12.1 11.8 11.7 11.7 12.7 11.6 12.2 12.7 12.6 12.4 12.3 12.3 12.2 12.2 12.2 12.1 12.3 12.4 12.5 12.3 12.8 15.3 15.4 9 9.6 10.1 9.8 8.7 7.9 11.1 11 11.1 11.3 11.6 11.8 10.9 10.4 11.5 11.8 11.2 11.4 11.6 11.1 10.7 10.8 11.6 12 12.6 12.6 12.5 12.6 12.7 13.4 13.8 13.3 13 14.1 14.3 14 13.9 14 12.6 12.1 11.5 10.7 10.7 9.9 11.2 11.7 12.3 11.6 11.8 11.6 10.4 11 11.8 11 11.7 11.5 11.9 12.7 12.4 12.5 11.5 12.7 13.2 12.9 12.3 12.8 13.5
11 10.9 10.8 10.7 12 14.7 22.5 22.4 22.8 23.5 24.8 24.1 24.1 24.1 24.1 24.3 29.8 23 23 32.8 30.7 24 23.5 28.6 29 30.2 32.5 34.9 35.6 35.4 33.9 31.7 20.2 13.6 13.3 13.3 12.7 12.3 12.7 12.1 12.5 11.4 11.8 11.5 11.3 10.9 11.9 11.3 11.6 11.9 12 12 12.1 12.1 11.6 12 12.1 12.3 12.5 12.4 12.2 12.1 11.8 11.5 11.4 11.4 11.5 11.7 11.8 11.9 10.9 10.9 11.2 11.6 11.6 10.9 11.1 10.4 10.3 11.1 11.6 11.3 11 10.6 11.8 12.2 11.7 10.8 11.4 10.4 12.2 12.3 12.2 12 12.5 13.6 11.9 13.7 13.8 13.9 14.1 13.2 12.4 11.6 12.4 12.4 13.3 13.1 12.8 12.1 11.9 11.8 11.7 11.8 12.7 12.4 12.1 12.4 12.8 12.9 12.2 12.3 12.4 12.5 12.5 12.4 12.5 12.7 12.8 14.4 15.1 15.6 7.4 9.6 9.4 9.5 9.6 10.4 10.7 10.2 8.8 11.4 11.5 11.6 11.2 10.1 11.5 11.8 11.6 11.5 11.7 11.4 10.8 11.2 11.5 11.7 12.8 12.7 12.6 12.4 12.3 12.5 12.7 12.7 12.6 12 13.3 13.3 13.5 13.4 12.9 11.2 11.3 11.4 10.8 9.8 9.5 10.7 10.8 10.4 10.5 9.4 10.8 10.2 10.5 11.4 10.8 11.3 11.5 11.4 11.6 11.8 12.2 11.8 11.5 13.4 13.4 12.4 13.5 10.1
10.3 10.2 10.2 10.1 10.5 14 22.8 23.2 23.1 23.3 23.5 24.1 24.1 24.1 24.1 26.8 30.6 25.3 28.8 34.8 29.8 24.4 23.6 30.9 35.5 34.5 35.4 35.3 35.3 35.4 34.9 32.4 19.5 13.3 13 13.2 13.5 12.3 11.9 11.7 11.7 12 11.4 11.1 10.9 11 11.7 11.2 11.5 11.8 12.1 12.2 12.2 11.7 11.2 11.9 12.1 12.2 12.4 12.3 12.1 11.9 11.5 11.2 11.1 11.2 11.3 11.4 12 11.9 11.7 10.8 11.2 11.5 12.1 11.6 11.1 11.2 9.9 9.6 10.6 11.4 11 10.7 12 11.7 11.4 11.3 11.7 11.2 12 12.1 11.2 12.1 11.7 13 13.7 13.4 12.9 12.8 13.2 12.9 11.5 11.9 11.7 11.5 12.3 12.8 12.7 12.8 11.5 10.8 12.3 12.2 12.1 12.2 12.4 12.9 13.1 12.8 11.6 12.3 12.4 12.5 12.5 12.3 12.4 12.3 12.4 16.7 16.6 8.5 9.7 8.3 9.6 9.4 9.8 10.5 10.1 9.9 9 11.3 11.4 11.3 10 10.4 12 11.7 11.3 11 10.8 10.5 10.1 10.7 10.9 12 12.5 12.6 12.6 12.4 12.3 12.2 12.4 11.8 12.4 11.3 12 12.7 13.1 13.2 11.5 10.6 9.9 10.3 10.2 10 9.5 9.9 10.4 10.2 10.1 10.2 10.5 10.7 10.6 10.4 10.9 11.3 11.4 11.5 11.5 11.7 11.8 12 11.9 12.5 13 13.2 11 14.3
9.6 9.9 10.2 10.1 10.1 12.6 18.4 22.8 22.6 23.1 24 29.8 23.8 27.1 30.1 31.1 29.1 27.8 30.9 30.8 26.9 23.1 23 29.7 34.7 35.8 35.7 35.5 35 35 34.2 28.7 15.6 13.5 13 12.6 12.7 12.1 11.9 11.6 11.4 11.2 11.2 11.1 10.9 10.8 11.3 11.1 11.4 11.7 12.1 12.3 11.9 11.3 11.2 11.9 12.1 12.2 12.3 12.2 11.9 11.6 11.2 10.9 10.9 11 11.1 11.2 12 11.9 11.8 11.5 11.1 11.4 12 12.1 11.9 11.7 10.8 9.5 10.2 10.9 10.2 11 12.1 12.2 11.3 10.9 11.3 11.5 12 11.9 11.7 11.8 11.4 11.6 10.4 12 12.1 12.4 12.4 12.6 10.3 10.2 10.9 11 11.6 12.5 12.4 12.3 11 10.5 12.2 12.5 11.6 10.6 10.9 12 11.9 12.8 11.9 12.4 12.5 12.5 12.1 11.7 11.7 10.9 10.7 12.8 12.1 9.2 6.3 10 10.4 10.7 9.8 10.1 10.5 9.8 9.6 8.9 11.8 10.8 9.8 11.1 11.3 10.9 10.5 10.2 9.9 9.7 9.5 10 10.7 11.8 12 12 12 12.1 12.1 12.1 12.1 11.2 10.5 11.6 11.1 11.2 11.5 11.5 10.7 9.9 9.3 9.4 9.8 9.1 8.9 9.4 9.7 9.7 9.7 10.3 10.5 10.6 11.2 11.4 10.8 11.6 11.4 11.5 11.4 11.5 11.9 12 12.3 11.8 13.1 12.9 8.8 11.6
9.8 10.1 10 10.1 10.1 10.7 14.9 22.9 22.6 23.8 24.7 31.3 34.9 33.2 30.8 30.2 27.1 26.3 27.3 26.5 23.6 23 23 23.6 29.4 34.2 35.8 35.6 35.2 34.8 31.3 22.2 13.6 12.9 12.1 11.9 13.5 12.1 12 11.8 11.6 11.4 11.3 11.2 11 10.9 10.7 10.7 11 11.3 12 12.2 11.7 11.1 11.1 11.8 12 12.1 12.2 11.8 11.3 11 10.9 11.1 11.4 10.9 10.8 11.5 11.9 11.8 11.7 11.6 11.3 11.4 11.9 12.6 12.3 12 11.7 10.2 9.3 10.7 11.1 11.6 12.1 12.1 11.9 10.1 10.8 10.9 10.3 11.3 10.9 10.6 11.2 12.3 9.8 10.8 11.4 11.1 12.2 12.4 9.6 9.8 10 10.2 10.6 11.3 11.1 11 11 10.6 10.6 10.6 11.6 10.8 11.2 12 12.1 11.7 11.3 11.2 11.9 11.7 11 11 11 6.5 7.6 8.4 9 8.4 9.1 10.5 13.5 13.7 9.6 9.9 10.2 9.8 9.8 10.4 10.2 8.5 9.9 10.5 10.6 10.2 9.8 9.6 9.7 9.7 9.6 9.8 10.4 11.3 11.4 11.4 11.5 11.5 11.5 11.6 10.7 9.8 9.7 10.2 10.5 11 10.5 11.5 10.7 9.4 9.2 9.4 9.5 8.5 8.5 9 9.6 9.1 9.8 10.4 10.6 10.1 10.7 10.7 10.9 11.8 11.5 11.6 11.4 11.4 11.9 7.9 11.8 12.5 12.2 13.2 13.6 10.2
10 9.9 9.8 9.8 9.9 10.6 14.7 23.4 23 23.2 24.9 36.1 34.9 33.6 33.4 27.8 25.7 24.3 25.8 23.8 23 23 23 23 25.3 28.1 32 35.6 35 32.3 26.8 20 13.4 12.8 12.1 12.2 12.9 12 12.2 12 11.8 11.5 11 11.4 11.3 11.2 10.9 10.1 11.2 11.7 11.9 12 11.8 11.2 11 11.5 11.4 11.3 11.2 11.1 11 10.9 10.9 11.2 11.5 11.5 11 11.9 11.9 11.8 11.7 11.6 11.5 11.3 11.9 12.1 12.2 12.2 11.8 11 9.3 9.8 10.8 11.9 11.6 11.5 11.3 9.6 9.7 9.7 9.7 9.8 10.8 11 9.5 9.8 10.3 10.6 9.3 10 11.3 12 9.2 9.4 9.7 10 10.2 9.8 9.8 9.9 10 9.9 9.9 9.9 11.2 10.7 10.9 11.1 11.5 10.6 11.4 10.7 11.1 11.2 11.2 10.5 9.1 8.8 9.6 9.3 8.5 7.4 7.7 9.9 14 13.8 9.2 9.5 9.1 9 9.6 9.7 10 10.5 10.8 7.4 10.4 9.4 10.1 9.9 10 9.9 9.8 9.7 10.1 10.7 10.8 10.9 10.9 10.9 10.8 9.9 9.2 9.1 9 9.3 9.9 10.7 9.9 10.1 10 9.1 9.2 9.4 9.5 9.8 9.6 9.4 9.6 9.1 9.9 10.5 10.6 10.7 10.2 11.5 11.6 12.2 9.5 11.3 11.6 11 10.8 10.1 10.6 12.5 11.8 11.1 9.8 9.8
9.8 9.7 9.6 9.6 9.6 9.8 11 22.1 23.4 23.3 25 37.7 37.4 33.9 33.8 31.7 28 25.1 25.6 26.9 26 24.6 23 23.9 25.6 27.9 28 33.2 32.7 27.6 25.1 18.4 15.9 12.6 12.5 12.4 11.9 12.2 12.1 12.3 12.1 11.5 11 11.2 11.5 11.4 10.9 10.9 11.4 11.6 11.7 11.8 11.8 11.1 11 10.8 11 11.1 11.1 11 10.9 10.8 11.1 11.4 11.7 12 12 12 12 11.9 11.8 11.7 11.6 11.5 11.4 11.5 11.6 11.7 11.8 11.6 9.4 9.3 10.4 11.2 10.8 10.6 10.5 9.5 9.5 9.5 9.6 9.6 9.4 9.9 9.1 9.5 9.9 10.7 10.3 10.2 10.2 10.1 8.8 9.2 9.5 9.9 10.2 9.5 9.1 8.9 8.7 8.6 8.8 8.9 7.8 9.2 9.2 10.4 10.6 10.3 10.2 10.6 10.1 11.6 11.1 10 8.4 8.8 9.2 9.1 8.1 6.4 9.1 10.2 13.2 12.7 9.3 9.5 9.8 10.2 9.8 9.7 10 10.8 11.1 11 9.7 10.4 10.6 10.2 10.2 10.1 9.9 9.8 10 10.3 10.2 10.3 10.4 10.1 9.3 8.6 8.9 8.5 8.3 8.5 9.3 9.4 10.6 10 9.6 9 9.2 9.5 9.6 9.8 10.1 9.9 9.8 10.3 9.6 10.6 10.6 10.7 9.9 10.3 11.7 11.9 11.2 10.8 11 11.8 12.2 12.6 12.4 10.9 10.7 11.7 9.8 9.8
9.8 9.7 9.5 9.5 9.7 9.5 9.4 21.1 23.5 23.3 28.3 38.8 38.7 37.3 35.2 35.8 33.2 30.7 32.2 34.3 33.6 30 26.4 26.4 26.3 27.4 29.5 26.1 25.3 26.4 23 13.8 12.9 11.9 11.7 12.7 12.5 12.6 12.5 12.4 12.2 11.6 11 10.9 11.4 11.1 10.6 10.4 11.3 11.4 11.5 11.6 11.7 10.8 10.7 10.8 11 11.2 11.2 11 10.8 11 11.4 11.8 12 12 12 12 11.7 11.9 12.2 12.1 11.9 10.9 11.5 11.6 11.7 11.8 11.8 10.7 11 9 9.8 10.4 10.2 9.8 9.3 9.3 9.3 9.4 9.4 9.3 9 9 9.1 9.1 9.5 9.8 9.3 9.6 9.7 9.8 8.5 8.9 9.2 9.5 9.9 8.5 9 9.7 10.1 9 8.7 8.5 8.4 8.4 9.4 9.7 9.3 9.7 9.7 9.7 9.7 10.7 10.9 10.6 6.9 9.3 9.5 7 7.2 9 9.5 9.9 10.4 9.6 9.4 9.5 9.8 10.1 10.8 11.2 13.8 15.3 14.2 13.9 13.5 10.7 9.1 9.5 10.3 10.2 10.1 9.9 9.9 10.4 10.1 10 9.4 9 8.2 7.9 8.3 8.3 8.3 7.1 9.2 10.7 11 11 9.7 9 9.3 9.5 9.7 9.1 10.4 9.7 9.9 10.7 9 9.8 9.4 9.9 10 10 11.2 11.7 10.5 10.7 10.7 11.8 13.1 12.9 14.2 14.7 13.7 14.7 13.7 10.7
9.7 9.6 9.5 9.5 9.7 9.8 9.7 17.4 23.5 23.8 33.9 40.9 40.9 41 39.4 38.1 34.2 34 35.7 36.8 36 31.6 30.4 29.5 29.3 27.9 27 25.5 25.2 25.1 22.3 13.8 11.9 12.3 11.8 12.3 12.5 11.6 11.8 11.8 11.3 11.3 11.4 11.4 11.1 11.3 10.9 10.1 10.9 11.3 11.5 11.6 11.1 10.3 11 10.9 11 11.2 11.1 11.1 11.2 11.1 12 12 12 12 12 12 11.4 11.6 11.9 12.2 11.3 11.6 11.7 11.7 11.8 11.8 11.5 10.9 11.6 10 9 9.4 9.2 9 9.1 9.1 9.2 9.2 9.2 9 8.7 8.5 8.7 8.6 8.9 8.3 8.4 8.6 9.1 9.4 8.2 8.5 8.9 9.2 9.5 7.5 8.8 9.5 9.9 9.1 8.9 8.7 8.1 8.5 9.1 9.6 9.1 9.2 9.4 9.5 9.5 9.6 9.9 9.8 8.7 9.4 9.4 9.1 9.6 8.9 9.8 10.7 11.5 11.3 10.1 9.9 9.8 9.8 11.1 15.5 20.3 20.5 18.7 17 16.6 11.8 9.1 11.2 10.1 10.1 10.2 9.8 8.2 6.5 9.8 9.2 8.4 7.9 7.9 7.9 8.6 6.5 11.9 12.5 12.3 11.5 10.7 7.8 6.8 9.7 9.4 9.6 9.7 9.1 9.6 9.9 9.4 8.8 10.4 9.8 9.7 9.7 9.6 9.9 11.1 10.6 10.5 10.4 10.4 11.8 13.2 14.6 17.5 19.2 17.7 16.2 15.6 16.3
9.6 9.5 9.4 9.4 9.6 9.8 10.4 15.1 23.1 24.4 37 41.5 42.1 41.6 41 39.2 38.4 36.6 37 38.4 36.7 37.2 36.4 34.5 32.4 29 27.8 26.3 25.1 25.4 21.2 13.7 12.4 11.8 11.7 11.6 12.1 12.7 11.4 11.4 11.4 11.4 11.4 11.6 11.7 11.4 10.9 10.5 9.5 10.9 11.3 11.5 11.3 11.3 11.4 11.2 11.2 11.6 11.4 11.5 11.4 10.7 11.8 11.9 11.9 11.9 12 12 11.5 11.3 11.7 12.3 11 11.5 11.7 11.8 11.8 11.7 11.3 11.7 11.7 10.8 8.9 8.5 8.6 8.6 9 9 9 9 9.1 8.8 8.3 8.2 8 7.9 7.9 7.9 8.5 8.8 8.8 9 8.4 8.3 8.5 8.8 9.1 6.4 8.6 9.5 9.5 9 9.1 8.2 8 8.7 9.3 9.8 9.6 9.4 9.1 9.1 9.2 9.2 9.2 9.2 6.2 9.3 9.3 9.2 9.9 10.6 11 11.3 11.3 10.9 10 10.3 11.2 10.7 13.9 19.1 24 23 21.7 20.5 18.2 12.7 11.3 10.6 8.4 10.2 9.8 9.9 8 10.5 7.7 8.2 7.8 8.4 7.2 9.2 10 11.8 12.3 12.1 12.7 7 10.1 10.5 10.1 7.7 9.5 10 9.8 9.7 8.9 9.8 9.9 9.9 9.7 10.3 10.2 10.1 10 10 10.6 10.7 11.3 11.6 10.5 12.4 13.5 16.3 21.8 23.7 22.6 21.5 19.5 18.5
9.4 9.4 9.3 9.4 9.6 9.1 10 14.3 22.3 25.5 39.1 46 47.1 43.3 43.9 42 40.1 39.1 39 40 39.1 39.8 40.1 38.3 35.1 30.4 27.4 26.2 24.4 22.8 17.9 13 12.2 12.5 12.3 12.1 12 12.1 11.6 11.6 11.6 11.6 11.6 11.6 11.7 11.5 11 10.6 9.1 10.7 11.1 11.5 11.6 11.6 12 11.9 13 12 12 11.9 11.5 11 11 11.9 11.9 11.9 11.9 11.9 11.2 11.3 11.8 12.1 11.3 11.5 11.6 11.6 11 11.2 11.5 11.8 11.3 10.5 9.7 8.3 8.3 8.7 8.9 8.8 8.8 8.9 8.9 8.5 8 7.8 7.7 7.9 7.7 7.5 8.6 7.2 8.2 8.9 9.3 8.5 8.5 8.6 8.8 5.4 8.5 9.1 9 8.9 9.1 7.6 8.1 8.8 9.7 10 9.8 8.8 7.2 7.6 7.6 7.6 8.9 8.9 8 8.6 8.7 9.3 10.3 11.9 12.3 11.7 12.5 12 11.9 12.4 12.1 12.9 18.8 23.5 24.9 24.8 24.1 22.6 18.6 14 12.9 12.7 12.7 10.9 6.8 8.9 10.6 9.3 10.1 8 9.3 8.4 10.5 11.3 11.9 12.1 11.6 11.3 11.4 11.4 10.5 10.3 9.9 9.2 10.1 10.5 10.2 10.7 9.6 10 10.3 10.2 9.8 10.2 10.3 10.3 10.3 10.4 10.7 10.4 10.2 10.5 11.1 12.4 14.4 18.2 24.6 26.9 26.7 26.1 24.9 23.1
9.1 9.2 9.2 9.3 8.9 9.7 10.6 11.5 22.1 25.2 36.3 48.9 50.1 48.7 45.2 42.4 40.5 40.6 40.2 39.3 38.7 40.3 41.8 38.7 38.2 34 29.6 26 24.4 20.9 17 12.8 12.3 12.9 12.5 12.5 12.4 12.4 11.9 11.8 11.8 11.8 11.8 11.8 11.7 11.6 11.2 10.7 9.9 10.7 11.1 11.6 11.7 11.9 12.2 12.2 11.3 11.4 11.5 11.5 11.8 11.6 10.7 11.3 11.9 11.8 11.8 11.8 10.7 11.1 12.1 11.1 11.1 11.1 11.2 10.7 11.4 10.8 11.5 11.4 11 10.4 9.9 9.3 8 8.9 8.8 8.8 8.7 8.7 8.7 8.2 7.6 7.5 7.7 8 7.5 7.7 8.6 7.6 8.5 8.4 9.1 8.4 8.5 8.6 8.7 8.4 5.8 8.6 8.6 8.6 8.5 8.6 8.8 9.4 7.4 9.6 10.3 9.1 9.7 9.4 9.4 9.7 9.8 9.2 9.3 11.3 11.1 13.3 13.7 14.3 15 17.2 15.5 16.8 13.8 15.1 14.6 18 23.8 24.3 25.3 25.2 25 24.3 21.1 17.2 15.7 15.1 13.6 12.9 12.2 10.9 10.9 10.6 10.3 10.8 11.5 10.5 10.9 11.1 11.9 11.8 11.3 11.2 11 10 10.3 10 9.7 9.7 10.5 11.1 10.7 9.7 9.9 10.1 10.3 10.5 10.5 10.5 10.5 10.5 10.7 10.5 11.7 11.1 10.2 8.7 10.3 11.9 14.1 19 26.1 30.1 30.7 30.3 30.3 28.6
9.8 9.9 9.9 8.6 9.4 10.3 10.9 10.9 21.9 24.9 32.2 47.7 51.4 53.1 45 41.3 39.9 39.4 39.1 38.4 37.1 38.2 36.5 35.6 34.3 36.7 34.5 30.7 26.3 22.3 16 12.8 12.1 11.4 11.3 11.3 11.4 11.4 11.8 11.8 11.9 11.8 11.7 11.7 11.7 11.6 11.3 10.7 9.5 9.5 10.5 11.2 11.6 11.9 12.3 11.8 11 10.8 10.9 11 11.4 11.6 11.3 11.5 11.4 11.5 11.7 11.7 10.6 11.6 12 11.3 11.3 10.8 10.8 11.1 11.7 11.2 11.5 11 10.6 10.2 9.6 8.9 8.2 8.8 8.7 8.7 8.6 8.6 8.6 8 7.3 7.5 7.7 8 7.5 7.8 8.8 8 8.2 8.2 8.1 8.3 8.4 8.6 8.7 8.6 8.9 8.2 8.8 8.9 8.7 9.6 9.4 9.6 9.7 10.3 9.4 9.6 15.8 10.4 10.1 10 11.5 10.2 16.6 16.8 17.5 20.5 22.7 24.3 24.9 25 24.9 23.3 24.6 24 22.2 24.1 25.6 25.7 25.6 25.3 24.8 24.3 23 21.1 19.6 18.4 16.4 15 13.8 12.5 12.2 12.2 11.2 10.7 11.3 10.1 9.1 9.8 11.7 11.6 11.4 11.8 11.5 11.7 10.4 10.5 10.5 10.3 11.2 11.7 11 10.4 10 10.2 10.4 10.5 10.8 8.6 9.2 10.6 8.7 10.3 11 11.6 11 11.8 9.4 11 12.4 17.9 27.6 33 34.1 34.9 34.7 34.2
9.8 9.9 9.7 8.9 9.6 10.8 11 10.6 19.7 22.9 28.1 39.7 52.1 51.4 44.6 41 38.4 38.2 38 37.8 35.9 34.7 35.4 33.4 30.5 30.9 32.5 29.9 25.9 22 14.6 12.6 12.1 11.7 11.4 11.9 11.7 11.6 12.1 12.4 11.9 11.7 11.6 11.7 11.7 11.4 11.2 10 8.7 9.6 10 10.1 10.6 11.2 11.6 11.1 10.4 10.4 10.3 10.5 10.9 11.2 11.2 11 10.8 10.8 10.9 11.1 10.9 11.5 11.7 11.4 11.5 11.1 10.7 11.5 11.6 10.5 10.6 10.4 9.9 9.3 8.5 8.6 8.3 8.1 8 8.1 8.1 8.2 8.4 7.7 7.1 7.6 7.8 8.1 8.3 8 7.6 6.5 8.4 7.2 8 8.1 8.1 8.3 7.4 8.4 8.9 8.9 8.9 8.4 8.5 7 9 9.4 8.9 10.1 10.4 17.1 18.8 15 16.6 16.8 18.1 19.3 22.1 25.7 26.1 26.6 28.5 28.7 28.7 28.8 29 28.8 27.8 27 26.1 26.5 26.9 27.1 27.5 28 28.2 28.7 25.9 26.3 24.8 22.3 20.3 17.7 16.6 14 12.3 12.3 12.4 11.4 10.6 10.4 10.1 9.5 11.5 11.3 12 12.3 12 11.7 11.5 11.2 11.3 11 11.8 12.2 11.1 10.9 10.4 10.3 10.7 11 11.4 11.6 10.4 10.9 10.8 10.3 9.6 12.6 9.2 11.2 11.5 14.3 18.8 23.6 29.5 34.6 36.8 38.3 38.3 38.3
9.9 9.6 9.3 9.2 10.4 9.6 10.7 10 18.1 21.5 24.7 32.4 44.4 47.2 44.7 40.8 38.2 38.6 37.1 37.1 38.2 49.1 51.8 40.3 31.3 27 25.2 25.4 23.4 20.5 13.6 12.7 12.3 12 11.6 11.5 12.5 12.3 12.8 12.5 12.1 11.7 11.6 11.8 11 10.7 10.9 10.5 9.3 9.6 9.9 9.5 10.1 10.6 10.9 10.3 9.8 9.7 9.8 9.8 10 10.3 10.6 10.4 10.3 10.2 10.2 10.2 10.6 10.7 11.1 11.5 11.4 11.3 10.1 9.9 9.9 9.2 9.2 9.1 9 8.2 8.4 8.1 7.7 7.4 7.2 7.4 7.7 7.6 8.2 7.6 7 7.5 8 8.2 8.1 7.6 7.6 9.2 7.5 8.7 6.1 7 5.6 7 8.6 8.6 9 9 9.1 8.8 9 9.4 10.9 14 11.2 11.8 16.1 19 23.5 19 20 21.5 22.9 25.2 27.8 28.9 29.6 30.3 31.7 31.5 32.1 32.5 33.2 33.7 32.5 31.4 29.9 29.8 30 31 29.9 31.4 29.6 30.8 29 29.5 29.3 28.5 27.2 23.4 20.5 16.1 14.7 12.7 12.2 12.6 11.3 10.7 10.4 10 9.9 11.2 11.8 12.5 12.9 12.6 11.5 12.2 11.7 11.6 11.7 11.6 10.6 10.1 10.6 10.9 11.2 11.6 12.3 13 12.4 11.6 11.5 11.6 10.9 9.7 12.5 14 14.9 18.6 23.3 29 34 36.1 37.9 39.2 40.3 41
9.2 8.8 9 9.3 9.4 9.7 10.4 9.7 12.8 20.3 23.4 28.4 35.4 41.9 42.4 39.7 38.4 39.4 39.1 40.4 53.6 63.9 56.4 39.6 32.2 30.3 25.1 19.9 18.1 15.2 12.9 12.8 12.6 12.2 11.9 11.6 11.9 13.1 12.6 12 11.5 11.2 11.1 10.3 9.9 10.3 10.4 10.5 9.7 8.4 9.8 9.4 9.5 9.9 10.2 9.5 10.7 11.9 9.9 10.1 9.4 9.5 9.7 9.9 9.7 9.7 9.8 10.1 9.6 9.6 9.1 9.2 9.4 9.6 9.4 9.1 8.9 8.7 8.6 9 9 8 8.6 8.5 8.2 7.9 7.7 7.9 6.8 7.7 8 7.9 7.2 7.8 8 8.3 8.5 5.7 7.5 8.1 9.2 9.6 8.5 8.6 8.7 8.8 8.1 9 9.1 9.2 9.4 9.2 9.5 9.9 11.4 12.4 17.3 23.7 25.1 25.6 25.6 24.1 26.8 28.1 28.6 29.8 29.6 31.4 32.9 33.4 33.6 33.7 35.7 36.7 37.1 36.6 35.7 34.2 33.5 32.8 33.9 33.9 33.7 32.3 33.2 31.4 32.1 32.3 32 31 29.9 28.5 26 22 17.8 14.5 13.4 13.2 12.3 11.6 10.9 10.5 9.7 11.6 12.2 12.9 13.3 13 12.9 11.6 12.9 12.7 13.1 12.1 12.3 12.4 11.1 11.1 10.7 13 13.9 14.5 15.2 16.2 14.9 15 16.3 15 18.4 16.7 16.9 21.3 27.9 33.1 35.3 36.7 37.8 39.3 40.8 42.1
8.9 9.1 9.3 9.4 9.5 9.4 10 10.1 11.5 20.3 22.6 26.2 31.7 36.5 38.3 38.5 38.7 42.8 44.8 57.5 73.1 67 52.6 35.1 32.4 30.8 28.7 24.5 21 16.7 12.7 12.2 12.6 12.5 12.2 11.9 11.8 11.3 12.3 11.1 10.7 10.8 10.8 10.5 9.3 10.1 10.1 10.2 9.6 8.7 9.1 9.3 8.9 9.2 9.4 9.6 9.5 9.4 9 9.3 9.2 9.3 9.3 9.1 9.2 9.5 9.9 10.3 9.7 8.7 8.7 8.9 9.1 9.4 9.4 9.1 8.8 8.6 8.5 8.9 9.3 8.6 8.7 8.7 8.6 8.3 8.2 8.5 7.7 7.2 7.1 8.5 8 7.6 7.7 8.4 8 8.2 8.5 9.4 9.6 9.5 8.8 9.2 9.1 9.2 9.3 9.3 9.2 9.4 9.6 9.8 10.7 11.6 14.4 19.6 21.8 25 25.3 26.8 28.4 29.4 31.4 31.9 31.2 31.9 31.9 33.5 34.5 34.4 34.2 36 37.4 38.7 39.9 41.3 38.9 37.2 36.5 35.4 35.1 34.6 34.3 33.4 35.2 33.1 34.9 34.7 35.3 34.4 32.8 33.1 31 26.8 22.5 19.2 15 14.1 13.4 12.8 12.2 12 10.9 11.3 13 13.4 13.5 11.6 12.9 13.2 12.1 13.3 13.7 11.8 12.7 12.4 11.5 12 13 15.2 15.6 16 17 19.3 20.7 21.3 22.4 22.5 23.3 22 18.2 21.5 31.4 34 35.3 36.4 36.9 38.5 40.2 41.2
9.4 9 8.9 9.6 9.8 9.1 9.7 9.7 10.4 10.3 16.1 19.2 27.6 32.6 27.5 37.5 42 47.4 58.9 81.1 81 66.8 51.2 34.3 30.1 28.6 29.7 27.5 24.1 16.9 12.4 12 11.6 12.3 12.5 12.4 12.1 12 11.7 10.6 10.3 10.5 10.6 10.6 10.3 9.8 9.8 9.9 9.9 8.4 9.4 9.7 8.9 9.9 9.6 9.4 9.6 9.4 9.2 9.1 9.3 9.8 9.6 9.5 9.4 9.7 10.1 10.4 9.9 8.6 8.5 8.6 8.9 9 9.4 9.2 8.8 8.5 8.3 8.6 9 9.1 8.6 8.8 8.7 8.7 8.3 7.2 7.6 8.2 6.1 7.9 7.3 5.6 6.3 8.1 7.7 8 8.4 8.7 9.3 9.1 9 9.7 9.5 9.6 9.6 9.9 10 10.8 11.2 11.4 11.5 11.7 15.7 20.7 23 25.3 27.1 28.2 30.3 30.7 32.2 33 34 34.3 34.3 35 35 36 35.6 37.2 38.4 39.7 42.3 43.2 41.9 40.4 39.2 38 36 36.2 34.4 34.8 36.3 36.3 37.1 38.3 38.3 37.2 36.2 35.9 35.5 33 28.9 25.4 22.1 18.1 15.8 14.7 13.9 13.7 12.2 12.8 13.5 13.7 13.8 15.4 13.9 13.4 12.3 14.2 14.3 12.3 13.1 12.3 12.3 14 16.1 18 18.8 18.6 19.8 23 24.7 24.2 26 25.9 25.8 26.5 23.3 19.3 28.6 33.4 35.3 35.4 35.1 35 37.5 39
9.3 9.4 8.8 9.3 9.8 8.8 9.4 9.8 9.7 9.5 10 12.1 17.3 27.9 27.9 32.7 43.3 59.4 83.5 93.4 83.3 66.9 50.1 35.4 28.8 27.7 28.5 26 22.2 16.4 13.3 11.2 11.8 12.2 12.1 11.6 11.3 11.2 11 10.6 10.7 10.6 10.5 10.4 10.3 9.7 9.6 9.6 9.5 7.4 9.5 9.8 10 10 9.9 9.9 9.8 9.5 9.2 8.9 9.1 9.4 9.6 9.7 9.7 10 10.2 10.3 9.6 9 8.4 8.3 8.6 8.7 9.1 9.2 8.9 8.6 8.2 8.3 8.6 8.7 8.9 8.9 8.5 8.2 7.3 7.3 8.1 8.2 7.7 7.9 7.9 7.7 7.9 7.9 8.2 8.2 8.4 8.7 8.9 9.6 9.2 10.3 9.9 10.2 11.2 11.9 10.9 11 11.8 11.1 11.3 11.6 16.6 20.1 25.1 29.3 30.2 31.9 31.2 31.5 33 32.3 34.5 35.6 34.6 35.7 35.4 36.2 36.8 37.6 39.4 39.5 41.2 42.7 43.7 43.6 42.2 40.5 38.8 37.3 36.5 36.9 38.5 40.2 40.6 40.6 40.4 39.8 38.7 38.6 38.3 37.4 34.5 32.4 28.2 25.2 23.1 19.6 16.3 14.6 13.6 14.1 14.3 14.4 14.6 16.2 16.6 15.3 13.1 15.8 15.1 12.3 13.2 13.4 14.1 15.7 17.7 18.8 20.5 21.6 23.9 25.5 25.2 25.4 26.6 26.9 27.9 27 27 25.1 29.8 30.4 31.6 34 33.6 34.1 34.8 36.7
10.1 10.3 10.1 9.1 8.5 9.4 9.7 9.7 9.4 9.2 10.3 10.6 11.4 19.2 21.7 28 42.8 81 111 98.8 82.8 67.1 51.1 36.5 31.6 27.5 24.7 26.1 21.7 15.2 12.7 11.5 11.6 11.8 11.9 11.2 10.6 10.4 10.3 10.3 10.6 10.4 10.3 10.3 10.3 9.9 9.4 10 8.7 7.3 9.6 9.6 9.8 9.9 9.9 9.8 9.6 9.5 9.1 8.8 8.9 9.2 9.7 9.6 9.3 9 9 9.7 10 9.4 8.8 8.1 8.2 8.4 8.8 9.2 8.9 8.6 8.3 8 8.2 8.5 8.6 7.5 7.5 7.3 6.7 7 7.5 7.9 8.1 7.6 7.4 7.7 8.1 8.1 8.2 8.3 8.6 8.8 8.9 9.2 9.4 10.9 11.2 11.8 11.8 11.9 11.7 12 11.9 11.8 11.3 12.4 16.9 20 23.6 27.8 32.2 33.8 33.6 33.1 32.2 33.9 34.8 35.3 35.5 35.5 35.6 36.2 40 39.2 39.6 40.2 40.9 41.7 42.6 42.6 43.5 41.4 40.2 39.3 39.4 39.7 40 40.6 41.4 41.3 40.9 40.1 39.3 40 41.1 40.4 39.3 38.6 36.3 33.3 29.7 26 22.9 19.8 15.8 15.5 16 17.5 16.6 16.8 18.8 17.5 14.8 14.6 12.5 13.4 14.3 15.3 15.9 17.3 18.5 19.6 20.9 21.9 23.8 24.8 25.1 27 28.1 27.7 26.3 27.2 29.2 30.5 31.6 32.1 33.7 35.5 35.2 35.2 36.6 37.8
9.6 9.2 9.2 10 9.5 9.5 9.9 9.4 8.9 9.6 10.8 10.3 9.8 10 11.9 16.2 39.4 90.2 106.7 97.5 84.1 67.8 53.5 39.2 34.7 31.8 32.5 34.7 26.4 15 11.5 11.2 11.3 11.4 11.5 11.3 10.6 10.2 9.7 9.9 10.6 10.3 10.2 10.2 10.2 10.1 9.7 9.5 8.1 8.2 9.1 8.4 9.6 9.7 9.6 9.4 9.2 9.3 9.1 8.7 8.7 9 9.8 9.5 9.3 8.9 9 9.6 9 8.1 8.1 8.1 8 8 8.4 8.9 9 8.6 8.3 7.8 8.3 8.6 8.6 8.3 8.2 7.2 7 7.1 7 7.1 7.8 7.9 7.5 8.2 8.2 8.3 8.4 8.5 8.7 8.9 9 9.3 10.3 11.7 11.9 12 12 12 11.8 11.8 11.8 11.8 11.6 13.3 17.3 19.8 22.7 25.8 30.5 34.1 34.6 33.5 32.5 33.5 34.1 35 36.3 37.4 42.5 45.4 45.1 45.1 42.6 42 41.9 42.2 42.8 43.5 44.3 43.8 42.8 42.1 42.1 41.9 41.9 41.7 42.1 42.5 41.8 41.4 40.2 40.4 41.3 41.9 43 42.5 42.5 40.6 37.7 34.9 30.3 28.6 24.7 20.9 19.8 18.5 18.8 18.9 18 17.6 16.6 14.3 16.7 17.7 18 17.7 19.1 20 20.6 21.4 22.8 23.6 25 26.4 26.7 28.2 29.5 30 29.9 29.7 31 31.3 30.2 31.1 33 35 35.2 36.4 38.4 38.8
9.2 9.6 10.3 9.4 9.3 9.7 9.7 9.8 9.5 9.4 9.8 9.9 9.5 9.4 9.8 10.7 30.6 83.5 104.1 96.2 82.2 70.7 58.5 44.6 36.6 33.9 32.6 33.7 24.2 13.8 11.1 10.9 11 11 11.1 11.2 10.6 10.2 10 10.1 10.6 10.1 10.1 10.2 10.1 9.9 9.8 9.2 8 8.2 8.8 8.8 9.5 9.4 9.3 9.1 8.8 9 9 8.7 8.6 8.8 9.8 9.5 9.1 9 9.1 9.6 8.9 8.3 8.2 8.4 8.6 8 8 8.5 9 8.4 7.6 7.7 7.7 8.2 8 7.7 7.7 7.4 7.3 7.4 7.5 7.7 7.9 7.8 7.5 7.6 8.4 8.5 8.6 8.9 8.9 9.1 9.3 9.7 11.1 11.7 12.2 12.3 12.3 12.1 11.8 11.6 11.6 11.6 11.6 14.5 18 19.9 24.5 30.5 31 33 34 33.2 32.5 32.4 32.7 34.1 35.9 37 44.2 48.4 48.5 47.8 46.9 45.1 44.6 43 43.2 44 44.8 46.3 45.5 45.9 45.6 45 44.4 43.9 43.2 43.3 43.4 42.8 40.8 40.8 40.4 40.4 39.8 40.3 40.9 41.2 41 40.7 38.2 34.8 32.8 29.4 26.8 24.4 22.9 20.9 19.6 17.3 16 14 18.7 20.9 21.7 21.1 20.3 19.6 20.8 23.3 24.7 25.2 26.4 28.5 28.8 29.5 31.1 31.6 31.5 32 33.7 35.4 32.9 34.3 34.9 36.4 37.1 38.1 39 38.5
10.1 10.2 10 9.2 9.4 9.7 9.6 9.4 9.9 9.1 9.3 9.3 9.1 9.4 9.9 9.8 19 69.3 100.4 95.7 84.4 73.7 63.3 50.7 40.4 33.5 31.2 29.7 21.1 11.7 10.8 10.5 10.6 10.7 10.7 10.8 10.7 10.5 10.4 10.4 9.4 9.6 9.7 9.8 9.8 9.4 9.6 9.4 9.1 6.7 8.9 9.1 9.2 9.1 8.9 8.7 8.5 8.6 8.6 8.6 8.4 9.6 9.7 9.3 9.1 9.2 9.3 9.5 8.9 8.6 8.5 8.7 8.9 8.9 7.7 7.7 7.5 7.5 7.5 7.5 7.6 7.7 7.5 7.5 7.4 7.7 7.5 7.7 7.8 7.9 7.6 7.1 6.7 4.2 8.4 8.8 9.2 9.6 9.4 9.3 9.9 10.7 12.5 11.7 12.3 12.6 12.5 12.2 11.9 11.6 11.4 11.8 12.5 16.2 23 24.4 24 26.3 27.5 31.2 33 32.9 32.7 32.7 33.3 33.1 35.6 36.5 44.2 50 50.5 49 49.3 48.8 48.5 45.7 44.3 45.5 45.3 46.5 48.1 47.8 47.5 47.2 46.8 46.5 45.9 44.8 44.4 43.8 42.1 41.8 41 40.2 40.2 39.7 39.4 39.3 39.2 39.5 39.4 39.3 36.8 34.9 32.8 29.6 26.7 25.2 22.8 20.8 18.3 14.7 15.2 17.5 19.4 22.7 22.2 21.3 21.8 23.5 25.1 26.4 28 30 30.8 31.8 32.2 32.7 34.2 35.5 36.7 36.8 36.5 37.5 39.7 40.8 41.2 39.2 42 41.5
9.4 9.6 9.5 9.1 9.5 9.6 9.9 9.8 9.7 9.9 9.9 9.6 9.2 9.6 9 8.9 15.4 38.8 94.5 97.4 87.5 76.3 68.2 58.2 48.2 34.9 29.3 24.2 17.1 11.5 10.6 9.9 10.5 10.6 10.6 10.1 10.7 10.6 10.4 9.5 9.9 9.3 8.7 9.3 9.7 9.3 8.9 9.1 8 6.3 7.5 8.9 8.9 8.8 8.5 8.3 8.1 8.3 8.3 8.3 8.2 9.9 9.5 9.1 9.2 9.3 9.4 9.5 8.9 8.4 8.7 9 9.2 8.7 7.7 8 8 7.9 7.8 7.8 7.7 7.9 7.3 7.3 7.2 7.6 7.8 7.8 7.7 7.2 6.7 6.3 6.8 5.2 7.8 8.8 9.1 9.4 9.6 9.2 9.3 11.3 12.1 11.7 12.2 12.8 12.6 12.3 12 11.8 13.2 14.7 15.8 16.4 18.8 20 22.9 25.3 27.4 29.2 32.7 32.8 33 33 33 33.6 35.2 37 41.2 49 51.7 50.4 51.9 51.5 51.9 49.9 48.2 49.1 47.2 47.4 48.7 49.4 49.1 48.9 48.7 48.4 47.2 46.4 45.7 44.8 43.4 42.9 41.6 41 40.7 40 39.4 39.3 39.7 38.7 39.3 40 39.2 37.3 35.8 34 31.9 30.2 28.2 26.4 20.9 21.1 22.6 20.8 18.1 22.9 21.8 21.6 22.6 24.6 27 27.4 28.2 29.9 31.5 32.5 33 33 35.1 36.3 37.4 38.4 39.9 40.9 44.4 44.8 45 46.2 46.1 47.2
9.2 9.8 9.5 8.8 8.8 9.4 9.9 9.4 8.7 10.5 10.1 10.4 10.1 8.4 8.8 8.6 8.6 19.5 48 83.9 81 77.3 70.6 63.4 54.4 40 29.5 23.5 15.2 11.5 10.5 9.6 10 10.3 9.7 10.5 10.2 9.9 8.6 8.8 9.5 9.3 8.7 8.8 9.7 9.3 8.8 9 9 7.1 6.9 8.9 8.5 7.8 7.6 7.9 7.7 7.9 8 8 8.5 9.6 9.4 9.2 9.3 9.4 9.3 9.2 8.5 8.6 8.9 9.2 8.3 8.4 7.8 8 8.3 8.3 8.3 8 7.7 8.1 8.3 7.7 7.2 7.4 7.8 7.5 7.4 6.4 4.6 4.9 4.7 7.5 8.4 8.4 8.9 9.2 9.6 9.3 10.2 12 12.7 12.1 12.1 12.8 12.6 12.4 13 13.3 13.2 13.5 15.3 17.7 20 21.2 23.7 25.4 26.5 29.4 32.3 32.5 32.6 32.9 32.8 33 34.3 36 38.6 44 46.8 51.4 54.2 54.5 54.9 54.7 53 50.9 48.7 50.3 51.1 51.3 51.1 50.9 50.7 49.7 48.4 47.3 46.6 46.3 45.4 43.5 42.6 41.9 42.5 42 41 40.1 39.6 40.4 38.7 39.2 39.2 37.8 36.7 35.4 34.2 32.4 31 28.8 21.9 26.6 26.6 25.9 24.3 24.1 25.3 23.2 23.7 25.6 27.6 28.5 29.1 30.2 31.5 32.3 33 32.9 34.4 35.6 38.6 41.4 43.2 44.4 44.8 46 42.8 48.8 50.6 50.7
8.9 9.6 9 8.9 8.7 9 9.8 9.3 9.6 10.5 10.4 9.7 8.4 8 8.5 8.1 8.3 8.7 17.5 38.9 66.7 72.2 67.9 59.6 52 42 29.4 24.9 16.9 12.1 10.8 10.3 9.9 10.1 10.4 10.2 9.9 9.6 9.8 9.3 9.4 9.8 9.3 8.8 9.6 9.6 9.4 9.3 9 7.6 7 7 7 6.9 7.6 7.2 7.4 8.2 8.9 8.7 8.7 8.5 9.1 9.1 9 8.9 8.8 8.6 8.4 8.6 8.9 9.1 8.6 8.1 8.1 8 8.3 8.1 7.8 7.6 7.8 8 8.2 7.5 7.6 7.8 8.1 7.7 7.3 4.5 7.3 7.4 7.9 7.9 8.3 8.4 8.2 9 9.4 9.3 10 12.1 12.8 13.2 12.9 12.3 13.7 12.5 13.4 13 13.7 14.5 16.2 17.9 20.3 22.1 24.2 25.6 27.6 29.3 31.9 31.9 32 32.8 32.7 32.5 33.7 35.2 37.1 43.3 49.9 53.5 56.3 58.3 59 58 56.5 52.4 51.6 52.6 53.1 53.3 53.2 53 52.2 50.9 49.6 48.3 47.5 47.2 47 45.9 44.6 43.4 43.6 43 42.3 42 41.8 41.2 39.3 38.2 37.6 36.6 35.1 34 32.4 28.2 29.2 25.6 30.1 30.3 29.5 27.8 26 24.6 26.8 26.3 27.1 28.1 29.7 30.8 31.2 31.7 32 32.1 32.4 32.6 34.8 36.1 37.9 39.3 40.7 42.5 44.3 44.9 48.3 49.3 50.4 52.7
9.3 9.2 8 8.6 8.6 8.8 9.8 9.7 8.3 8.3 6.9 11.7 7.3 6.9 7.5 7.7 7.9 8.2 8.4 15.7 29.8 58.5 59.5 48.5 46 39.8 28.1 19.9 14.3 11.6 10.7 10.5 10.2 10.2 10.1 9.9 9.6 9.5 9.6 9.8 9.9 9.8 8.9 8.4 8.4 8.9 8.8 8.7 8.6 6.6 7.2 7.4 7.6 8.5 8.6 7.7 7.3 8 8.3 8.9 8.7 8.9 9 8.5 8.4 8.3 8.2 7.9 8.4 8.7 8.9 8.9 8.7 8.3 7.9 7.8 7.8 7.9 8 8.2 8.4 7.5 8 8.1 8.3 8.4 8.4 8 7.7 5 7.5 7.1 7.2 7.6 8.3 8.5 8.2 8.1 8.9 9.4 9.7 12.2 12.8 13.7 14.2 13.1 12.7 13.6 14 13.9 15.3 15.9 18.1 19.5 20.8 23.1 25.1 26.5 26.8 29.2 32.5 31.8 30.8 32.2 32.4 32.3 33.1 34.1 35.4 42.1 50.7 57.1 58.9 60.6 61.2 60.3 58.2 55.1 54 54.2 55.1 55.4 55.2 54.7 53.4 52.1 50.8 49.6 48.5 48.2 47.5 46.8 45.8 45.5 45.6 44.8 44.2 43.9 43.5 42.1 40.7 38.9 37.3 34.7 33.1 31.4 30.3 31.4 30.5 30.7 30.9 31.4 31.6 28.4 27.6 25.9 25.7 29 29.9 30.3 30.9 29.8 30 30.1 29.9 30.5 32.3 33.4 34.7 34.9 37.4 39.2 40.9 42.7 44.6 42.1 47.8 49.6 51.6 53.4
8.8 8.7 7.9 8.2 8.6 8.9 9 8.4 7.7 7 -1 -1 -1 -1 6.2 8.6 8.8 8.9 8.4 8.2 11.2 22.9 50.8 47.5 42.8 37.5 27.3 19.2 12.3 11.4 10.5 10.1 10 9.8 9.7 9.5 9.3 9.3 9.5 9.6 9.7 9.7 9.2 8.8 8.2 8.2 8.3 8.4 8.5 7.4 6.9 8.8 8.8 8.6 8.7 8.4 7.8 7.6 8.3 8.6 8.2 8.4 8.3 8 7.9 7.7 7.6 7.4 8.4 8.8 8.8 8.8 8.6 8.2 7.9 7.8 8.2 8.7 8.8 8.8 8.5 7.9 7.1 7.4 7.8 8.2 8 7.8 7.5 7.4 5.1 4.8 5 7.3 8 8.5 8.2 8 8.1 9.4 14.8 14.9 13.9 13.1 13.2 13.4 13.7 14.3 14.7 14.6 15.3 16.5 18.5 21 22.7 23.2 25 26.7 28.5 30 31.4 31.3 30.7 30.7 31.2 31.9 32.3 33.9 35.7 40.4 52.2 59.8 61.4 62.8 63.5 62.8 61.1 59.1 57.3 57.2 57.2 57.4 57.3 56 54.7 53.4 52.1 50.8 49.5 49.2 47.8 46.9 46.2 46.6 48.1 48.5 48.8 49 47.3 46 43.8 42 38.9 36.3 35.1 33.1 32.7 33 32.3 29.8 29.4 29 29 26.7 27.2 27 25.6 25.4 26.6 27.3 26.6 27.4 27.7 29.3 31.4 31.4 32.9 33.7 34.5 36.4 37.7 39.8 41.1 42.7 43.7 45.4 46.2 48.7 50.8 52.2
8.2 8.6 7.9 8.1 8.4 8.4 -1 -1 -1 -1 -1 -1 -1 -1 -1 -1 7.8 8 8.1 8.5 7.9 8.5 17.4 35.7 44.7 34.9 27.3 19.1 12.3 10.9 10.3 9.7 8.7 8.4 8.8 9.2 9.1 9.2 9.1 9 9.3 9.2 9 8.6 8.3 8.6 8.4 8.5 8.6 9.1 5.4 8.5 8.5 8.4 8.5 8.5 8.2 7.6 8.3 8.2 7.7 7.8 7.6 7.7 7.9 7.2 7 7.4 8.3 8.5 8.7 8.7 8.5 8.3 7.9 8.1 7.8 8.2 8.2 8 7.8 7.4 7.1 7.9 7.7 8 7.3 7.6 7.8 7.5 6.7 6.8 4.8 7.4 7.8 8.8 8.6 9.1 11.8 14.9 15.5 13.9 12.9 14 14.6 13.8 14.9 14.1 14.4 15.1 15.9 17.5 19.8 21.2 23.6 24.2 25.1 27.3 29.4 30.5 32.9 31.5 30.8 30.9 31.5 31.8 32.1 32.5 34.8 39.1 48.7 57.8 62.4 64.2 65.8 65 63.3 61.4 59.2 59.1 58.7 59.1 58.6 57 55.7 54.5 53.2 51.9 51.1 51.2 48.7 47.8 47.6 50.7 52.3 53.5 53.9 53.7 52.4 51.4 49.2 47 43.5 38.9 36.1 34.6 33.8 32.8 32.5 30.4 29.8 29.6 28.2 27.6 29.9 30.4 29.6 29.1 29.2 29.2 30 30.9 31.1 30.8 31.3 29.9 30.7 31.7 33.2 35.1 37.8 39.9 40.9 43.2 41.9 43.6 45.7 46.8 47.5 49.4
8.2 8.3 8 8.2 8.1 -1 -1 -1 3.3 3.4 3.5 3.4 2.7 -1 -1 -1 -1 7.1 9.1 9 8.2 8.3 7.9 8.6 21 31.4 29.3 21.7 12.3 9.6 9.2 9.1 8.5 8.6 7.9 8.4 8.4 8.4 8.3 8.6 8.8 8.6 8.8 8.5 8.9 9.3 8.8 8.6 8.9 9 4.7 7.8 8.2 8.2 8 7.8 7.9 7.4 8.3 7.9 7.2 7.2 7.1 7.4 7.6 7.9 8.1 8.3 8.5 8.6 8.6 8.6 8.6 8.4 8.2 8.4 8.2 9 8.6 8.6 8.4 8.3 8.3 8.4 8.6 8.6 8.6 8.5 8.5 8.5 8.5 8.2 7.6 7.3 10.1 9.4 9.7 9.7 11.4 10.6 13.6 13 14.1 14.5 14.8 15.3 15.3 15.4 15 16.2 17.6 18.5 20.8 21.6 24.3 24.5 26.1 27.7 29.8 32.1 32.6 31.2 31.1 31.3 31.7 31.9 32.6 33.1 34.4 38 45.6 55.7 61.6 65.2 66.7 66.1 64.1 62.5 60.8 60 59.6 60 60 58.1 56.7 55.4 54.2 53.8 53.2 53.1 51.8 50.5 50.6 52.8 55.5 56.9 57.3 58 58.2 57 55.4 53.7 49.9 46.7 41.6 37.5 35.6 34.3 33.3 32.1 32.1 31.9 30.6 29.6 31.8 32.5 34 33.7 33.7 34.6 33.4 32 30.6 31.6 31.3 31.6 31.8 32.5 36.3 39 42.7 44.9 47.4 46.9 43.7 43.7 45.3 46.2 46 46.6
8.2 7.4 7.6 8 -1 -1 -1 4 4.1 4.6 5.1 4.5 3.8 4.6 -1 -1 -1 -1 7.9 9.4 8.3 8.3 8.2 7.4 8.1 14.7 19.2 19.8 10.7 8.8 9.2 8.4 9.1 8.5 8.2 7.8 6.4 7.4 7.8 8.4 8.2 8.1 8.8 9 9.3 9.6 8.8 8.7 7.5 8.4 6.5 5.9 7.1 6.2 6.2 6.4 6.6 6.8 7.2 7.2 7.5 7.5 7.5 7.8 8.1 8.4 7.8 6.9 8.3 8.3 8.1 7.9 8.2 8.7 8.7 8.6 7.6 8 7.1 7.6 7.8 8 7.8 7.2 7 7.3 8.3 8.6 8.4 8.2 8.2 6.7 5.9 6.2 6.7 7.6 8.8 8.4 8.3 8.3 9.6 12.6 13.1 14.7 15.6 16.5 16.9 17.4 18 17.9 19 20.6 22 22.3 25 27.6 28.2 28.8 30.4 31.9 32.4 31.4 30.6 31.4 31.9 32.4 32.7 33.2 34.8 37.5 42.8 51.7 57.4 62.2 64.3 65.4 63.8 62.1 61 59.9 59.8 60 59.9 59 57.9 57.6 57.2 56.5 55.6 55.6 53.8 52.9 52.7 52.7 54.1 56.3 58.1 59.4 60.8 60.5 60.1 58.5 56.1 53.5 50.6 46 41.4 37.9 35.2 34.2 33.5 33.5 33.2 32.2 32.5 33.8 36.5 37.2 37.5 37.4 36.4 34.8 34.3 32.7 31.7 31.1 33.9 35.9 40.8 45.2 47.7 48.1 48.1 47.3 45.6 43.4 42.5 43 44.8 44.8
7.5 7.4 7.8 -1 -1 -1 4.3 4.8 5 5.5 5.3 5.1 4.5 5 5.3 4.2 -1 -1 7.1 8.1 7.9 7.9 7.6 6.8 6.4 7.1 7.7 8.8 7.3 5.9 5.2 4.9 5.2 6.5 6 5.6 5.7 6.5 6 7.6 7.8 6.8 6.9 7.9 7.4 7.1 6.8 6 6 6.5 5.8 5.3 5.5 6.2 4.8 5.3 6 6.1 6.6 7.9 8.1 7.9 8.1 8.4 8.6 8.5 7.7 7.4 7.8 7.8 7.8 7.8 8.1 8.6 8.6 8.5 7.9 7.4 6.9 7.3 7.8 8.1 7.8 7.3 7.1 7.5 7.8 8.2 8 7.8 8 7.6 6.9 7 7.3 7.5 7.7 8 8.3 8.7 11.4 9.7 12.2 13.6 15.5 17.3 18.2 19 18.6 19.2 19.9 20.9 22.1 22.8 25.2 29.1 30.4 30.3 31.8 32.9 31.1 30.8 31.3 31.8 32.9 33.4 33.2 33.8 35.2 38.8 42.1 45.4 50.5 55.5 59.9 61 61.8 60.8 60.6 59.5 58.8 59.3 59.6 58.2 57.3 58.4 58.5 58.2 58 56.7 56.2 55.5 56.1 54.4 53.7 53.7 55.8 58 60 61.6 62.2 62.2 61.2 59.7 57.4 54.8 51.1 47.9 44.5 40.8 39.6 38.4 35.5 34.3 34 34.6 36.5 37 38.5 40.2 39.2 36.7 35.4 33.5 32 33.1 37.2 41.2 45.3 47 47.5 47.2 46.3 41.9 43.8 43.3 43.4 42.8 46.9 45.2
7.7 7.5 7.7 -1 -1 4.9 5.2 5.5 5.8 5.7 5.6 5.3 5.1 5.1 5 4.9 -1 -1 6.8 7.5 6.5 6.1 5.3 5.2 5.2 5.2 6.2 6.3 6.2 6.2 5 4.7 4.9 5.6 5.1 5.3 5 4.9 4.9 5.7 6.2 6.5 6.9 5.6 5.4 5.1 5 4.8 5 4.7 4.6 4.1 5.8 5.7 4.5 5.3 5.5 5.8 6 7.5 8.5 8.4 8.6 8.5 8.4 8 6.9 7.9 7.8 7.7 7.6 7.9 8 8.5 8.4 8.3 7.8 6.7 7.1 7.7 7.5 8.1 7.9 7.4 7.3 7.5 7.2 7 7.6 7.8 8 8 7.3 7.2 7.7 8 8.3 8.4 8.8 8.7 9.2 10.3 9.8 13.4 14.5 17.8 18.8 19.9 20.3 21 21 22.4 22.4 23.9 26.9 32.6 32.9 32.5 32.3 30.8 30 30.4 31.8 32.7 33.2 33.3 33.9 34.5 36.2 39.7 41.8 43 46.4 49.8 53.1 57 59.2 59.9 60 59 58.4 59 59 57.6 56.2 58.1 56.2 57.1 56.9 58 57.9 57.7 57.2 56.4 55.5 54.9 54.7 55.5 57.1 58.3 59.9 61.4 61.5 60.4 59.2 58 56.2 53.4 50.6 48.2 47.1 45.3 42.6 41.2 39.1 39.8 39 38.6 37.9 36.5 35.4 34.1 33.9 33.5 34.6 38.3 43.6 46.4 45.9 44 43.4 42.8 41.2 40.4 43.9 45.3 46.3 48.6 50 48.3
7.6 8.3 -1 -1 4.4 5.3 5.4 5.7 5.9 5.8 5.5 5.2 5 4.6 4.6 4.2 -1 -1 6.4 6.5 5.4 5 5.2 5.2 5.2 5.2 5 5.3 6.5 6.6 6 5.3 5.3 4.6 4.8 5.2 4.8 4.6 4.7 4.7 5 5.5 6.6 5.9 5.5 5.2 4.9 5.1 5.3 5.1 5.3 3.7 4.4 4.4 3.6 3.8 4 4.6 5.1 6 7.2 8.3 8.3 8.3 8.2 7.4 7.6 7.9 7.9 7.5 7.5 7.8 7.9 8.3 8.3 8.2 7.7 6.6 7.6 7.2 7.6 8.2 8 7.7 7.5 7.5 7.2 7 7.4 7.7 7.9 7.5 6.9 7.4 7.5 7.5 8.1 8.5 8.9 8.2 8.9 9.7 9.9 12.3 13.3 16.6 18.8 20.3 20.5 21.6 22 22.4 23.9 24.5 28.7 33.5 32.5 32.2 31.6 30.6 31.8 32 31.8 33.1 32.5 32.7 35 36 37.9 40.7 41.8 43 44.4 46.4 47.4 52.2 57.1 59.3 60.9 60.8 60.6 59.2 58.4 57.1 55.1 54 53.5 54.6 55.5 55.3 56.1 56.8 56.7 56.1 55.5 56 55.6 55.1 55.5 56.7 58.3 59.9 60.4 60.7 59.9 59.1 57.5 56.2 53.7 52.2 50.6 49.9 48.5 46.4 45.2 45.7 44.4 43.1 41.3 39.2 36.7 34.5 33.7 36 40.5 44.3 48 45.7 44.2 43.1 41.6 41.1 39.8 42.9 46.7 50.9 51.3 48.9 44.7 45.3
8.2 8.3 -1 -1 5.1 5.5 5.6 5.6 5.8 5.8 5.4 4.9 4.5 3.8 -1 -1 -1 -1 6.2 5.5 4.7 5.1 5.3 5.2 5.2 5.2 5.1 5.5 6.3 6.3 6.3 6.2 6.1 5.2 5 5.2 4.8 4.9 5.1 4.9 5 5.3 8.1 6.5 5.7 5.4 5.2 5.3 5.5 4.2 4 4.2 3.1 4.3 3.1 4.8 4.6 5.4 5.1 4.6 5.5 6.4 6.9 7.8 8 6.8 7.9 7.9 7.9 7.3 7.3 7.8 7.9 8.2 8.1 8.1 7.6 6.5 7.1 7 7.7 8.2 8.1 7.9 7.8 7.6 7.4 6.8 6.9 7.2 6.9 7.6 7.4 6.8 6.3 6.4 7.4 7 8.8 8.1 8.3 9.7 10 10.5 13.1 13.9 16 19.7 20.7 21.3 21.2 21.7 23.1 23.9 26.7 31 30.7 31.3 31.4 30.2 31.5 33 32.9 34.2 34.8 35.4 36.8 37.9 41.7 44.1 45.7 45.7 46.6 46 45.9 47.3 54.9 59.5 59.6 61.4 61.7 59.5 57.1 55.8 51.8 51.1 48.7 49.1 50.5 51.2 51 51.4 51.5 51.2 51.9 52.5 51.5 51.4 52.6 54.8 56.7 58.3 59.3 59.6 59.6 59.4 58.5 57.5 55.6 54.7 54 52.7 51.9 50.6 50 51.3 50.2 48.8 46.3 43.6 39.9 35.5 32.7 38.7 43.8 47.9 49.1 48.6 47.3 45.1 43 40.2 39.8 41.5 43.8 44.7 43.3 42.1 42.6 42.6
8.1 7 -1 -1 5.6 5.7 5.7 5.8 5.9 5.6 5 4.5 -1 -1 -1 -1 -1 5.9 5.9 4.7 4.8 5.2 5.5 5.4 5.3 5.2 5.4 5.8 6 6.1 6.1 6.1 6.1 5.8 5.6 5.6 5.6 5.6 5.4 5.5 5.1 4.6 10.1 6.2 5.8 5.7 5.6 5.6 5.6 5.3 5.2 6 4 2.1 2.7 5.5 5.3 6 6.3 6.3 6.3 5.5 6.3 7.5 6.3 7 7.8 8.3 8 7.4 7.3 7.8 7.9 8 8 7.9 7.5 6.6 7.6 7.1 7.8 8.3 8.2 8.1 8 7.9 7.5 7 7.5 8.1 7.5 8.4 8.3 8.2 7.6 6.5 6.8 7.3 8.7 8.5 8.2 9.1 10.1 10.5 12.5 13.5 14.5 17.8 20.2 19.9 20.6 21.8 22.6 23.2 25.8 28.7 29.5 30.9 30.2 30.3 32.3 33.8 35.4 36.3 37.7 39.3 40.8 41.2 42.7 44.1 44.7 46 46.8 46.9 46.4 43.6 46.9 51.7 53.9 53.9 55.4 54.9 53.3 50 48.6 48.6 48.3 48.1 48.5 48.1 46 45.9 45.4 45.8 47.5 48.2 48.4 48.9 49.4 51.5 54 55.9 57.1 57.7 57.7 57.2 56.4 55.5 54.6 54.4 54.3 52.4 53.6 54.6 55.8 56.3 54.1 52.1 50 46.3 42.7 39.9 33.6 37.8 43.5 48.2 50 49.2 47.9 46 43.2 40.8 39.4 39.4 39 38.6 39.4 39.7 40 40.2
8.4 5.8 -1 -1 5.8 5.7 5.5 5.3 6.1 5.6 -1 -1 -1 -1 -1 5.7 5 6.5 5.1 4.6 4.9 5.3 5.6 5.5 5.4 5.1 5 5.5 6.1 6.1 6.2 6.3 6.1 6 5.9 5.7 5.7 5.6 5.5 5.4 5.4 4.7 10.1 5.2 5.3 5.3 5.4 5.2 4.5 5.2 6 5.9 5.9 6 -1 7.2 6.5 8 8.2 9.9 10.3 12.1 11.1 12.3 10.9 6.5 6.7 7.7 7 7.8 7.8 7.9 8 7.7 7.4 7.8 7.7 7.9 7.3 8 8.1 8.3 8.4 8.5 8.5 8.2 8 7.6 8 8.4 7.8 8.4 8.1 8 8.3 7.3 6.9 7.2 8.5 8.4 8.1 9.4 11.2 11.3 12 12.7 14.5 18.2 20.4 20.2 20.1 21.3 21.5 22.3 23.4 25.9 27 29 30.5 29.4 32.3 35 36.7 40.5 45 45.6 44 44.9 43.3 42.2 42.3 44.2 43.2 45.1 45 43.2 43.3 42.9 45.3 46.4 46.5 46.2 44 44.9 40.9 41.3 37.7 37.7 45.5 45.4 42.5 45.1 47.9 50.2 51.9 52.8 52.3 51.9 49.9 48.6 48.1 48.9 51.2 52.2 52.3 52.2 51.2 51.3 50.4 51.1 52.8 52.5 54.1 57.6 58.6 57.9 56.6 54.2 51.4 49.4 47.1 44.2 40 35.1 40.2 45 46.8 47.2 45.6 44.1 41.3 38.3 38.6 37.9 38.5 38.5 39.3 38.7 38.8 39.4
6.6 5.9 -1 -1 -1 4.9 5.4 6.4 6 -1 -1 -1 5.8 6.9 7.5 7.2 6.1 7.6 6.3 4.8 5.2 5.5 5.7 5.6 5.3 5 4.7 5.2 6.2 6.2 6.4 6.5 6.3 6.2 5.9 5.7 5.7 5.6 5.7 5.6 5.6 5.2 9.3 3.8 4.6 4.6 5 4.8 4 4.3 6.8 6.9 6.5 4.9 -1 8.6 9.2 7.8 9.2 9.4 12.6 10.7 12 12.6 12 10.5 7.1 6.9 7.3 7.7 8.2 8.2 7.9 7.5 7.2 7.5 7.8 7.6 6.6 7.9 7.2 6.9 6.9 7 7.5 8.3 8.3 8.3 8.4 8.6 8.4 8.5 8.2 7.9 8.5 7.6 6.3 6 9.2 8.9 9 9.6 9.7 10.5 12.2 12.9 14.1 18.5 18.9 19.4 19.5 20.1 20.9 21.7 22.5 24.2 25.1 26.8 29 28.4 31.1 34.9 37.4 43.7 49.1 50 48.4 48.5 49 46.3 45.8 44.6 43 42.6 42.3 40.8 44.3 43.5 42.5 40.7 40 40 40.3 40.8 38.7 37 37.2 36.2 34.7 34.8 39 45.9 48.7 50.9 52.2 53.8 53.6 53.7 51.8 49.6 47.4 45.2 44.1 45.3 45.4 46.6 45.9 46.9 47 47.8 49.7 52.2 54.5 57.3 59.9 59.7 59.7 58 55.8 53 51.5 48.2 46 40.8 34.4 36.9 38.2 37.4 38.1 38.1 37.4 38.1 36.7 37.1 37.4 37.4 38.1 38.7 38.7 39.6
6.3 5.9 5.5 -1 -1 -1 6.6 6.3 5.7 -1 -1 4.8 6.6 7.2 8 6.5 7.4 7.7 6.8 5.4 5.6 5.4 5.8 5.5 5.1 4.6 4.1 5.3 6.1 6.4 6.6 6.7 5.9 6.3 6 5.7 5.7 5.7 5.9 5.9 5.8 5.7 8.8 4.5 4 4.4 4.5 4.3 4 7.2 7.4 -1 -1 -1 -1 -1 -1 6.9 9.4 9.4 9.3 12.9 12.2 13.1 9.9 17.6 7 6.9 7.2 7.7 8 8 7.8 7.3 7.3 7.7 8 7.9 7 7.7 7 7.2 7.2 7.3 7.7 8.3 8.5 8.7 7.9 8.8 8.6 8.5 8.3 8.7 7.9 7.3 7 4.8 8.4 9.5 9.3 9.7 9.6 10 11.8 12.9 13.8 14.9 18.3 19.1 18.9 19.6 20.8 22.1 22.8 22.1 24.4 24.7 26.9 26.7 28.2 32.7 36.3 42.6 51.9 54 52 52 50.9 49.3 47.6 45.5 43.4 41.8 40.8 41.5 43.8 45.1 45.1 43.5 41.9 40.1 38.6 38.3 37.8 36.9 37.3 36.4 35 34 37.6 39.1 41.9 44.2 46.7 49 49.4 51.2 49.7 47.7 45.4 44 41.8 41.1 40.7 39.9 40.2 39.5 42.2 44 46.4 48.6 52.2 56.1 60.4 62.9 64.6 65 64.2 60.8 57.4 54.6 51.3 49.4 47.1 43.9 43.2 41.7 41.5 41.5 40.4 39.9 40.2 39.5 39.1 38.2 37.3 37.1 38.1 38.9
6.2 5.5 5.3 5.1 -1 -1 -1 7.1 -1 -1 -1 5.9 7.4 7.8 8.2 7.7 7.8 7.7 7 5.8 4.9 4.5 5.4 5.8 5.4 5 4.6 5.4 6.1 5.9 5.6 6.2 5.6 6.4 6.1 5.8 5.8 5.9 6.1 6.1 5.5 4.5 7 3.4 4.3 4.6 4 3.6 7.2 5.5 -1 -1 -1 -1 -1 -1 -1 -1 -1 9.6 9 9.6 11.1 12.4 11.9 14.7 7.1 6.8 7.1 7.4 7.6 7.9 7.6 7.3 7.5 7.8 8.1 8.2 7.4 7.6 7.2 7.4 7.5 7.5 8.2 8.4 8.6 8.9 9.2 9 8.1 6.5 7.6 8.6 8 8 7.7 6.1 7.9 8.8 8.2 9.6 9.6 10.9 11.3 11.9 12.6 13.6 15 17.1 19 20.1 21.8 22.7 22.4 21.6 23.5 24.2 25 26.7 26.5 28.2 33.9 39.6 48.4 55 56 52.6 51.6 49.7 48 46 43.1 40.4 40.2 42.9 44.8 46.1 46.9 45.7 44.5 42.3 39.9 38 35.8 35.3 37 36.1 34.1 32.9 34 35.7 39.5 42.1 45.2 47 47.1 46.7 46.6 43.7 43.2 41.8 40.4 39.1 38 36.2 35.4 35 35.8 36.9 39.1 41 45.7 50.5 53.8 57.8 63.1 67.1 68.8 69.2 68 64.2 59.2 55.7 53.6 51.4 50.2 49 47.6 45.6 39.6 41.4 41.8 41.2 42 41 39.9 39 39.7 37.4
5.9 5.7 5.5 5.3 5 -1 -1 5.3 -1 -1 4.6 6.2 7.3 7.5 7.9 6.9 7.7 7.8 7.4 6.5 5.6 4.7 4.5 4.9 5.3 5.6 5.2 5.3 5.7 5.7 5.9 5.7 6.4 6.5 6.1 5.6 5.9 6.1 6.4 5.2 4.7 3.4 7.4 3.3 4.3 4 3.7 3.4 7.4 -1 -1 -1 -1 -1 -1 -1 -1 -1 -1 5.7 6.6 7.4 8.6 12.2 11.4 11.1 6.1 6.7 6.9 7.1 7.3 7.6 7.5 7.3 7.7 7.9 8.1 8.4 7.6 7.4 7.4 7.6 7.8 8 8.2 8.4 8.7 8.9 9 8.9 8.6 8.3 8.3 8.5 8.5 8.2 8.3 5.5 5.8 6.8 8.2 9 9.2 9.8 10.7 11.2 11.8 12.3 15.5 19.4 19.5 19.7 22.2 21.5 21.2 21.9 22.7 22.8 23.7 25 25 25.5 27.4 33.7 41.4 48 53.7 51.1 50.8 48.6 46.5 45.6 41.2 38.5 41.1 44.1 45.8 47.7 48.3 48 46.2 43.8 40.1 38.7 35.3 33.6 32.8 33.1 31.2 31.3 36 40.5 45.2 48.6 50.9 52.3 52.6 50.9 49.6 47.5 45.5 41.8 40.1 38.4 36.9 34.8 33.2 32.2 32.9 33.7 35.1 36.3 39.3 42.5 46.2 50.1 52.9 56.9 62.5 66.2 67.5 66.3 63.5 61.6 58 55 53.7 51.1 49 46.7 39.9 43.1 43.6 43.2 43.4 41.6 41.3 40.2 43.1 42.1
6.1 5.9 5.7 5.5 5.2 -1 -1 7.4 -1 -1 4.7 6.3 7.2 7.5 7.7 7.2 7.1 8 7.9 7.5 6.6 5.6 4.5 4.1 4.5 4.9 -1 -1 -1 -1 -1 -1 6 6.1 5.5 5.4 5.9 6.1 5 3.7 3.6 2.6 5 4 3.1 2.9 2.8 2.8 -1 -1 -1 -1 -0.4 0.3 -0.2 -1 -1 -1 -1 -1 5.6 6.9 7.7 8 10.1 6.8 6.3 6.7 6.8 7 7.3 7.4 7.4 7.5 7.7 8 8.2 8.4 7.5 7.5 7.6 7.9 8.1 8.2 8.3 8.4 8.7 8.8 8.9 8.8 8.5 8.3 8.3 8.2 8.2 8.1 7.3 8.2 3.6 5.9 6.9 7.9 8.6 9.2 10.1 10.6 11.3 12.1 14.5 18.9 20 19.8 21.5 22.3 21.2 21.3 21.5 22.1 23.3 24.4 24.6 24.2 24.7 27.2 35.6 41.3 47 49.3 49.4 48.1 47.2 46.3 42.3 38.5 38 44.6 47.6 49.8 49 48.5 45.5 43.1 39.4 37 34.8 31.7 30.8 31.6 30.7 34.1 39.4 44.5 49.7 53.7 57.3 58.9 58.5 55.9 54.5 52.2 49.7 46.1 42.8 39.8 36.7 33.7 32.8 30.9 30.7 31 32.3 33.8 36 37.5 38.9 40.4 40.7 51.2 53.6 56.1 61.5 63.6 62.6 60.6 57.6 55.2 52.2 49.7 47.8 43.7 41.9 42.5 41.3 41.1 41.4 42.2 43.3 43.1 43.3 44.9
5.9 6.2 5.9 5.7 5.4 -1 -1 7.3 -1 -1 4.7 6.4 7.2 7.5 7.7 7.2 7.3 8.1 8 8 7.6 6.5 5.2 4.3 3.4 -1 -1 -1 -1 -0.4 -1 -1 -1 -1 5.5 5.6 5.7 4.6 4.1 4.3 3.7 2.3 4.2 4.2 3.8 3.3 2.8 -1 -1 -1 -1 -1 3.9 4.8 4.7 3.5 -1 -1 -1 -1 -1 6.1 4.5 4.2 7.1 5.1 6.4 6.7 6.8 6.9 7.1 7.2 7.4 7.4 7.7 8 8.3 8.5 7.4 8.2 9.3 8.3 8.8 8.4 8.3 8.4 8.6 8.7 8.7 8.7 8.5 8.3 8.1 8.1 8 7.9 6.9 6.9 5.4 4.5 7.2 8.9 9.3 9.1 9.5 10.3 11.1 12 14.9 17.8 19.6 20 20.9 21.2 22.2 21.4 21.2 21.9 22.5 23.5 24.7 23.6 24.3 25.5 30.5 35 38.2 46.9 48.2 48.6 48 47.1 43.8 40.5 37.9 40.5 44.8 45.4 46.1 45.2 44.4 40.1 37.1 36.3 34 31 28.4 29.4 32.2 37.5 42.4 49.9 56.7 61.4 65 66.2 64.6 62.8 61.4 59.1 56.4 53 48.8 46.8 43.8 40.3 35.8 32.6 31.3 30.9 29.6 30.3 33.2 34.1 33.8 36.3 36.8 40.9 46.8 50.8 54.7 59.8 60.2 57.6 56.3 54.1 51.5 49.9 45.4 39.4 40 38.9 39.1 40.8 41.5 43.7 44.2 47.7 47.9 47.2
5.8 5.9 5.5 5 4 -1 -1 6.3 -1 -1 4.2 6.4 7.3 7.6 7.8 7.1 7.1 8.1 8.1 8 7.8 7 5.4 4.7 -1 -1 -1 -1 5.8 5.7 5.5 -1 -1 -1 -1 -1 4 3.7 3.8 4.4 4.1 2.9 5.3 4.4 4.3 3.8 3.2 -1 -1 -1 5.4 6.3 7.1 6.7 6.4 5.9 4.2 -1 -1 -1 -1 -1 4.1 4.3 4.2 5 6.3 7 6.9 6.9 7 7.2 7.3 7.2 7.5 7.8 8.1 8.1 7.4 8.6 8.1 8 8.8 8.1 8 8.6 8.8 8.6 9.1 9.1 8.7 8.3 7.6 7.8 7.8 7.6 7.3 7.3 7 3.8 5.6 8.6 8.8 8.8 9.2 10 10.8 11.6 14 17.2 18.2 19.4 20.4 21 21.2 21.6 21.1 22.7 22.1 23.8 24.5 22.1 21.9 23.5 26.4 31.2 34.7 39.4 42.1 45.2 47.2 47.1 49.5 45.1 40.8 37.9 37.4 38.8 39 40 39.3 37.2 35.2 34.7 32.8 30.5 27.2 27.8 32.3 39.2 45.7 54.8 62.7 68 69.6 70.6 70.6 68.9 67.7 65.3 62.2 58.4 55.4 53.2 50.8 48.1 44.2 40 36.6 33 30.8 29.6 29 29.5 30.7 30.5 31.1 33.7 39 44.3 49.8 55 57.8 56.5 55.3 53.1 49.9 48.4 46.5 41.3 39.2 39 39 37.6 39.7 43.5 48.6 48.2 48 46.9
5.2 5.5 4.4 3.9 -1 -1 6.7 6.3 -1 -1 4.5 6.4 7.3 7.6 7.9 7 7.7 8.1 7.9 7.7 7.5 7.3 5.5 4.1 -1 -1 -1 6.4 6.2 6.1 5.9 5.3 -1 -1 -1 -1 -1 3.6 3.6 4.3 3.9 6.1 3.6 4.7 4.4 3.9 -1 -1 -1 -1 6.4 6.4 6.6 6.6 6.6 6.6 5.1 3.8 -1 -1 -1 -1 -1 5 5.3 5.6 6.3 7.3 7.3 6 5.8 6.6 5.7 5.4 5.9 6.5 6.5 6.8 8.2 8.1 7.3 7.6 8.2 8.4 8.7 8.7 9.1 9.3 9.5 9.2 8.8 7.7 7.1 7.1 7.4 7.6 7.7 7.7 9 6.7 2.7 7.3 7.9 8.6 8.7 9.6 10.5 10.7 10.3 13.2 17.5 19.5 20.7 21.5 22.2 21.9 22.3 22.4 21.9 23.1 24.3 21.5 21.5 22.5 24.4 26.9 29.6 33.6 36.1 39.6 43.1 44.1 45.1 43.4 42.7 40.7 40.1 38.8 38.6 37.9 36.9 35.8 35 30.8 29 26.8 26.4 26.9 30.6 36.6 45.5 53.3 58.2 63.1 68 69.1 67.5 68.7 68.2 66.4 64.5 62.2 59.5 56.9 55.6 53 50 46.4 42.1 36.8 33.5 30.2 28 27 28.2 28.3 28.7 31.1 32.2 39.1 42.6 46.1 48.3 50.4 51.2 51.6 46.6 46.1 42.6 41.9 39.3 38.6 38.9 37.4 36.6 43.7 48.5 48.6 47 41.5
-1 -1 -1 -1 -1 -1 7.2 6.6 -1 -1 -1 6.5 7.1 7.5 8 7.2 7.1 8.3 8.1 7.9 7.6 7.7 7.9 -1 -1 -1 6.8 6.5 6.6 6.5 6.1 5.3 5.2 5.1 -1 -1 -1 4.2 4 3.7 2.9 7.2 3.6 4.8 4.2 3.7 -1 -1 -1 5.8 6.5 6.2 6.3 6.4 6.6 6.5 5.9 4 1.4 -1 -1 -1 -1 3.9 4.9 4.2 5 6.1 4.3 4.6 4.7 5.3 6 5.8 5.8 6.7 7.1 7.2 7.8 7 7.7 7.4 7.8 8.8 8.2 8.3 8.4 8.5 8.7 8.9 7.7 7.7 7.3 7.3 7.2 7.8 7.9 7.9 8.2 8.5 4.1 5.1 5.6 7.6 8.4 8.9 9.2 9.6 9.4 8.9 10 16.3 20.6 21.5 21.2 22 22.4 22.3 22.3 22.6 23.8 21.7 20.1 20.9 22.8 24.5 25.5 28.8 31.3 31.5 33.9 35.1 36.7 38.7 40.6 41 40.5 41.4 41.2 41.8 40.5 37.8 35.8 32.4 30.1 27 26.5 26.2 26.9 31.2 40.2 45.1 49.1 52.1 56.5 61.1 63.4 63.7 64.1 63.4 61.4 59.5 56.9 56.7 56.3 56 54.5 51.2 47.6 43.5 38.8 33.8 29.9 27.9 27.2 27.3 27 26.7 29 32.1 35.6 37.5 42.2 43.5 43.8 43.1 44.1 40.7 38.2 39.1 38.5 37.4 37.1 35.8 35.7 36.1 38.9 39.2 39.5 38.6
-1 -1 -1 -1 6.2 7.2 7.4 7 -1 -1 -1 6.6 7.3 7.9 8.1 7.6 6.7 8.3 8.3 7.7 8.1 8.2 8 -1 -1 -1 6.9 6.5 6.9 6.9 6.3 5.5 4.7 4.7 4.4 -1 -1 -1 5.2 3.7 3.2 3.8 4.6 4.4 3.8 -1 -1 -1 -1 5.4 6.1 6.5 6.3 6.4 6.6 6.2 5.7 4.5 2.1 -1 -1 -1 -1 -1 3.7 4 4.8 3.7 4.7 4.8 5 5.2 5.3 5.6 6.4 7.1 7 6.7 6.6 6.9 7.4 7 8.8 8.8 7.7 8.2 8.5 8.1 8 8.2 8.1 7.9 7.5 7.2 7.4 8.1 8.1 8 8.2 8.4 7 3.1 4.2 5.4 8.5 8.2 8.4 8.7 8.8 8.4 8.5 9.3 13.5 16.4 21.6 23 23.3 22.8 22.7 22.1 23.6 21.9 20 19.4 21.2 20.9 22.4 23.6 25.5 27.5 29.9 31.5 32.6 35.2 39.6 43.2 46 48.1 48.1 48.5 46.8 42.8 38 33.9 30 27.3 27.1 27.1 25.7 27.2 32.7 36.8 40.1 43.6 46.6 49.8 54.6 57.1 58.7 58.8 56.9 57.5 57.4 57 57.2 56.8 55 52.6 48.7 45 41 35.5 31.1 28.2 26.6 26.1 25.4 25.7 25.4 27.8 26.3 27.4 28.8 32.1 34 34.2 35.5 35.5 35.3 34.9 33.4 34.4 35.4 34.2 34 34 34.5 35.7 37.1 35.8
6.4 6.9 6.2 6.8 7.9 7.6 6.4 6.1 5.1 -1 -1 5.3 7.3 8.3 8.8 7.8 7.4 8.5 7.8 8.1 8.6 7.6 6.7 -1 -1 -1 7.1 6.6 6.4 7.1 6.4 5.6 4.8 6.2 5.6 5.8 -1 -1 4.4 3.3 3.9 3.7 5 4.4 3.4 -1 -1 -1 4.9 6.1 6.5 6.6 6.6 6.5 6.5 5.9 5.5 4.7 3.1 1.3 -1 -1 -1 -1 3.4 4.4 4.5 4.8 4.7 4.6 4.8 5 5.2 5.7 6.3 6.9 6.9 6.4 7.1 7 7.2 6.7 8.6 8.4 8.2 8.3 7.9 7.9 8.8 7.9 7.9 7.8 7.4 7.1 7.6 8.3 8.2 8.1 8.4 8.7 9 3 4.2 6.7 8 8.2 8.2 8.3 8.3 8.5 8.5 8.6 8.4 9.3 13.7 23.8 24.5 24.8 24.1 22.5 22 21.8 22.6 20.9 18.4 20.4 21.1 21.5 22 23.7 25.5 26.5 30.4 33.8 37.6 43.9 48.4 48.7 49.6 50.3 47.8 45.7 39.7 35.2 31.2 27.3 27.3 27.4 26.7 25.1 26.9 29.2 32 33.2 35.4 38.9 43.4 48.2 50.8 54.9 56.3 57.3 58.5 58 58 56.6 55.3 52.7 49.8 46.4 41.6 37 33.1 30.4 28.6 26.7 25.7 25.6 25.3 25.9 26.1 26.6 25.4 26.7 27.6 29.3 30.3 31.4 29.9 30.1 31.4 34.1 34.4 35.1 36.6 36.7 35.9 34.9 33.6 32.9
7.3 7.6 6.9 6.5 7.5 6.9 6.3 5.1 5.9 -1 -1 4.8 7.1 8.4 7.3 7.1 7.3 8.9 8.7 8.7 8 7.1 -1 -1 -1 7.4 7.3 7.2 6.9 6.4 5.5 5 5.8 7.5 6.6 6.6 -1 -1 -1 3.6 6.9 4.1 4.9 4.2 -1 -1 -1 -1 5.7 6.2 6.5 6.6 6.6 6.5 6.2 5.8 5.4 4.4 2.4 2.3 0.7 -1 -1 -1 -1 4.3 4.9 4.8 4.6 4.5 4.6 4.8 5.4 6 6.1 6.8 6.9 6.3 7.6 7.5 7.3 7.3 8.9 8.6 8.4 8.1 8 8 7.9 9.1 7.5 7.4 7.1 6.7 7.6 7.7 8.3 8.3 8.6 8.8 8.3 7.2 2.7 5.6 8 8.1 8.1 8.1 8.2 8.7 8.6 8.7 8.6 8.5 8.5 12.7 19.9 25.8 25.2 22.9 20.1 20.3 22.3 23.3 20.9 18.2 18.2 20.6 21.9 21.5 21.9 23.4 28 32.7 35.7 41.1 46.8 49.2 50.4 49.4 47.4 45.2 40.3 36.3 32.6 27.8 27.9 27.4 26.1 25.6 24.4 26 26.8 27.8 29.2 32.2 36.1 40.1 45.2 50.7 55.7 58.4 60.3 61.4 60.9 59.4 57.1 54.2 52 50.4 46.7 43.2 38.1 32.4 30.4 27.7 25.6 25.9 26 25.2 26.2 26 25.8 25.7 26 26.8 27.1 27 28.5 29.3 31 32.8 33.9 34.4 34.8 34.6 34.2 33.1 32.3 31.7
7.9 8.3 7.7 7.1 6.9 6.1 5.7 5.3 5.8 -1 -1 -1 7.1 8.1 7.6 8.6 7.3 8.8 8.6 8.2 7.9 7.4 -1 -1 -1 7.5 7.4 7.2 6.9 5.4 4.9 6 7.2 7.6 7.7 6.5 5.2 -1 -1 4.1 6.1 5 4 -1 -1 -1 -1 4.4 6 4.8 5.6 6.5 6.5 6.5 5.7 5.3 5.2 3.8 2.6 2.9 2 -1 -1 -1 -1 3.8 5 4.8 4.6 4.4 4.4 4.7 5.8 6.4 6.4 6.7 6.9 6.1 7.2 7.3 7.1 8.1 9 8.8 8.5 8.2 8 9.2 9.2 7.3 7.5 6.9 6.7 6.8 7.7 7.4 8.4 8.5 8.5 8.3 7.8 7.3 6.4 2.9 4.5 6.7 7.2 7.4 8.8 8.5 8.6 8.5 8.3 8.1 8.5 8.9 10 14.9 23 23.7 19.8 17.1 19.7 22.9 22.5 20.5 18.8 17.9 18.9 20.6 20.7 21.6 24.7 29.5 34 38.4 46.6 49.1 48.5 48.6 49 45.9 41 36.8 34.5 28.3 27.4 26.9 25.8 25 24.4 24.3 24.2 24.3 25.7 29.1 33.3 35.9 39.2 43.9 50 54.2 56.9 59 59.5 58.2 56 54.1 52.2 51.3 50.6 47.2 41.7 37.2 33.1 29.3 27.3 27 26.2 25.7 25.7 26 25.7 25.9 26.9 25.9 26 28.2 27.5 29.9 29.2 30.4 31.7 33 33 33 32.6 32.1 31.9 31.8
7.5 8.1 8.6 8.6 7.4 5.9 5.6 5.2 6.1 -1 -1 -1 5.7 8.1 9 8.7 7.6 7.2 8.2 7.8 7.4 -1 -1 -1 -1 7.5 7.4 7.1 6.2 5 6.5 7.6 7.7 7.8 7.6 7.2 6.1 -1 -1 4.8 4.6 4.5 3.4 -1 -1 -1 5.5 5.2 5.1 3.6 4.2 5.4 6.4 6.4 5.6 4.6 4 3.2 2.5 2.4 3.2 1.6 -1 -1 -1 -1 5.1 4.8 4.6 4.4 4.3 5.1 6.2 6.7 6.7 6.7 6.9 5.9 6.6 7.1 7.6 7.9 7.6 8.9 8.6 8.3 8 8.4 9.3 6.9 6.7 6.5 6.4 6.4 6.6 6.9 7.7 8 7.7 7.8 8 7.7 7.3 6.4 4 2.7 6.1 7.9 8.2 7.8 8.4 8.4 7.7 8.2 7.7 10.1 9.2 8.9 8.6 11.5 14 14.5 17.7 21.8 22.8 21.3 20.2 17.1 17.5 18.3 18.4 19.8 22.7 27.3 29.5 33.8 39.6 43.1 47.3 48.2 46.8 45.5 43.9 39.1 35.8 33.2 30.7 30.3 30.3 30.1 28.7 27.6 25.3 24.5 24.6 27.1 30.3 32.8 35.7 39 43.2 48.8 52.9 55.4 56.7 56.3 54.6 53 51.4 50.1 48.8 45.8 41.8 37.9 34.9 32.5 29.1 28.6 27.6 26.9 26.3 25.9 26.7 27.8 26.3 25.9 28.5 30.3 28.9 30.3 30.9 30.7 30.8 30.7 30.9 31.5 31.4 31.5 31.5 31.3
8.7 10.3 9 8.3 7 5.4 5.1 5.2 6.4 5.2 -1 -1 -1 7.4 8.5 8.7 7.9 7.2 7.9 7.6 7.1 -1 -1 -1 6 6.7 6.9 6.1 5.6 7 7.6 8.3 8.3 8 7.5 7.3 -1 -1 -1 6.3 4.1 3.5 -1 -1 -1 -1 4.7 6 4.1 2.5 2.7 2.7 2.9 4.4 3.4 3.1 3.2 3.3 3.2 3.1 2.8 3 -1 -1 -1 -1 4.9 5.2 5 5.1 5 5.1 6.1 6.6 7 6.5 6.9 6.2 6 6.5 7.3 7.2 5.6 5.6 7.6 8.3 8.1 8.3 7 7.1 7 6.7 6.3 6.3 6.5 6.8 6.7 7.9 7.5 7.5 8 7.9 7.7 6.6 5.6 4.8 2.5 5.9 6.8 7 7.6 7.9 8.4 7.7 8.2 8.4 8.8 8.8 8.5 7.4 8.8 9.2 10 17.1 22.4 22.3 22.2 20 18.4 16.4 13.9 18.7 22.3 23.1 25.4 28.5 31.5 35.2 36.6 39.4 43.6 42.7 41.5 41.6 39.4 37.3 35.8 35.1 35 34.9 34.4 32.2 29 26.3 23.8 22.3 27.3 29 31.9 34.4 38 40.9 46.1 52.7 54.5 54.4 54.4 54.5 53.4 51.1 49.5 47 44.4 42.2 38.4 34.9 33.3 30.9 29.1 28.5 28.4 28.2 26.8 27.7 26.3 27.7 30.3 30.4 30.9 32.1 31.5 31.1 32.7 32 32.8 32.8 32.6 33.1 32.2 34
10.6 10.7 8.5 6.3 6.1 5.3 5 5.1 5.2 5.4 -1 -1 -1 7.7 8.3 8.6 7.9 7.2 7.8 7.4 -1 -1 -1 -1 5.6 4.9 4.9 5.4 7 7.4 8 8.4 8.2 8 7.4 -1 -1 -1 5.7 4 3.7 -1 -1 -1 -1 4.9 3.5 3.3 2.8 2.7 2.8 2.9 2.7 2.5 2.6 3.2 3.8 3.9 3.8 3.3 3.1 2.8 -1 -1 -1 -1 4.1 5.6 5.8 5.9 5.6 5.1 6 6.6 5.5 5.9 6.4 6.8 6.8 7.1 7.3 7.3 7 6.1 6.5 6.9 7.6 8.2 7.5 7.1 7.1 6.7 6.6 6.7 6.4 6.7 6.6 8.1 7.3 7.5 8 7.9 7.5 6.7 5.5 4.7 3.9 -1 6.7 6.7 6.9 9.1 8.3 8.2 8 8.1 8.5 8.7 8.2 7.8 8.6 8.5 8.4 8.3 13.8 21.6 21.8 20 19 18.2 18 13.4 20.3 21.3 22.3 23.5 26.4 29.6 33.1 35.3 36.9 38.6 39.2 39.8 39.5 38 37.1 37.8 39.2 39.9 38.7 35.1 31.7 30.5 25 21.9 21.3 23.4 26.7 29 34.3 39 45.9 50.1 54.7 59.9 59.4 59.4 56.9 55 53.6 51.4 48.8 46.8 43.7 40.9 38.9 36.3 33.8 33.4 33 30.5 28.6 27.4 25.7 27.4 28 30.9 32 34.1 37 37.9 38.1 37.7 40 41.4 41 41 39.9 38.9
-1 -1 -1 -1 -1 5.5 5.9 5.6 5.6 5.5 -1 -1 -1 7.8 7.7 7.8 8.3 7.7 7.3 6.9 -1 -1 -1 -1 6.2 4.9 4.8 6.1 7.4 8 8.2 8 -1 -1 -1 -1 -1 4.4 6.9 4.2 -1 -1 -1 -1 6.4 5.6 3.5 2.7 2.9 3 3.2 3.2 3.2 2.8 2.7 3.2 3.8 3.8 3.8 3.8 3.8 3.8 3.4 -1 -1 -1 6.2 5.6 5.8 5.5 5.7 4.7 5.9 6 5.6 5.3 5.8 6.8 7.1 6.8 6.6 6.6 6.1 5.6 5.6 5.7 6.6 7.5 7.4 6.3 7 7.2 7 7.1 6.6 6.6 6.5 6.5 6.9 7.4 8 7.7 6.7 6.4 5.5 5.1 4.7 -1 -1 5.5 6.8 7.3 8.5 8.7 8.7 8.4 8.2 8.4 8.5 8.4 8.5 8.4 8.3 8.4 8.6 8.9 17.2 19.7 18.3 18.2 18 15.6 15.1 19 20.4 20 22.4 25.2 27.6 30.8 33.2 35.3 38.1 38 38.4 38.5 39.2 39.9 41.1 42.5 41.4 37.4 33.8 30.1 25.5 22.8 22.3 22.5 24.6 26.3 31.3 36.7 43.4 49.9 57.1 63.2 62.1 62.4 59.8 59 59.4 57.9 56.6 53.6 52.6 50.3 47.3 44.7 40.7 41.1 38.8 35.2 32.3 30.9 26.1 25.8 26.7 30.9 33.7 37.9 42.2 45.7 47.6 48.9 48.9 50.6 52.5 51.2 48.2 46.4
-1 -0.9 1.7 -1 -1 -1 5.3 5.5 5.5 6.2 -1 -1 -1 7.6 7.3 7.2 7.9 7.2 7.4 5.1 -1 -1 -1 6.5 6.5 6.1 5.3 5.3 6.1 7.1 -1 -1 -1 -1 -1 -1 -1 5.7 3.4 3 -1 -1 -1 6.6 6.8 4.3 2.5 2.6 2.8 3 3.2 3.4 3.6 2.8 2.6 3.2 3.7 3.7 3.7 3.7 3.7 3.7 3.8 -1 -1 -1 -1 4.4 4.5 4.9 5.4 5.5 5.4 6.2 6.2 6.3 6.2 7.1 7.3 7.2 7 6.1 7.3 7.1 6.6 6.5 6.4 6.5 7.7 6.4 7.1 7.1 7.4 6.7 6.6 6.6 6.5 6.4 6.9 6 5.6 -1 -1 -1 -1 4.9 4.9 -1 -1 6.6 6.5 7.4 7.8 7.8 8.3 8.2 8.1 8 8 8 8.1 8.4 8.4 8.4 8.3 7.7 8.3 9 11.2 9.2 10.2 11.6 11.4 13.5 14.2 14.2 19 22.1 23.4 26.7 29.3 33.8 37.4 41 41.9 42.3 42.1 42 41.8 41.5 39.4 37.4 33.4 28.6 25.5 23.9 23.2 23.7 23.7 24.7 25.9 31.7 38.6 44.1 49.2 53.4 59.6 60.9 59.8 60.2 60.7 60.2 57.5 56.2 55.2 53.6 49.6 47.3 43.9 43.8 41.3 38.9 35.8 33.5 32.9 24.7 26.5 28.1 32.2 37.3 40.3 47.8 54.3 56.2 57.2 56.8 56.1 54.9 51 47.9
-1 4 4.5 5 -1 -1 -1 5.4 5.7 5.7 -1 -1 6.5 7.4 7.4 7.8 7.8 7.8 6.4 -1 -1 -1 -1 6.4 6.2 6.3 5.2 6.3 5.3 -1 -1 -1 -1 4.9 4.9 4.8 4.6 4.6 3.3 -1 -1 -1 -1 6.8 7.1 3.6 2.7 3 3.1 3.3 3.5 3.7 3.6 2.8 2.6 3.3 3.6 3.6 3.6 3.6 3.6 3.7 3.7 -1 -1 -1 -1 5.2 5.6 5.1 5.8 6 6.2 6.2 6 5.9 5.9 6.8 7.4 7.4 7.3 7.3 7.3 7.3 6.9 6.7 6.6 6.4 7 7.9 7.5 7.2 7.1 7 5.6 4.9 5.1 5.6 5.6 4.2 -1 -1 -0.4 4 3.4 -1 -1 -1 4.3 6.5 6.7 7.2 7 6.9 7.3 7.8 7.7 7.5 7.5 7.6 7.8 8.1 8.5 8.4 7.6 7.1 7.5 8.6 8.2 8.3 8.6 9.3 9.3 9.8 10.5 11.5 13 16.9 19.3 22.4 25.2 30.1 34.9 41.5 45.8 44.2 43.4 43.9 43.5 41.8 39.4 36 32.6 28.6 25.6 24 22.7 24.2 24 24 23.6 25.2 31.4 36.8 39.4 44.2 48.9 54.2 57.7 57.9 57.1 55.7 54.6 54.8 52.9 51.3 49.7 46.6 44.8 42.9 42.3 40 37.1 35.5 33.6 28.8 24.8 24.6 25.5 31.8 37.3 38.6 45.4 48 51.7 54.3 53.1 49.5 46.1 42.8
-1 5 5.1 5.4 5.5 -1 -1 -1 5.7 -1 -1 -1 6.6 7 7.1 7.1 7.1 6.8 5.1 -1 -1 -1 -1 5.7 6 5.9 6.5 6.2 5.7 -1 -1 -1 4.6 4.9 4.8 4.8 7.7 3.4 -1 -1 -1 -1 7.1 6.7 6.4 3.4 3 3.2 3.5 3.7 3.9 4.1 3.4 3 2.6 3.3 3.5 3.5 3.5 3.5 3.6 3.6 3.6 -1 -1 -1 -1 5.3 5.1 5.2 5.6 5.8 6.2 6.3 6.3 6.3 6.3 5.8 7.1 7.4 7.3 6.8 7 7.2 7.1 6.9 6.6 6.4 6.1 8.3 7.1 7 6.6 5.7 4.4 3.4 3.1 3.6 3.6 3.9 -1 -1 3.8 4.4 4.2 3.7 4.8 -1 4.8 6.4 6.5 5.6 6 6.1 6.1 6.8 7.1 6.3 7.3 7.3 7.5 7.8 8 7.6 8.4 8.1 8.2 8.1 7.9 8 8.4 8.8 8.8 8.9 9.6 10.4 11.1 13.1 17.7 19.8 23.2 27 33.3 40.5 46 48 46.3 46.4 44 41.5 38.9 35.8 33.1 29.6 27 24.3 23.4 22.7 22.4 22.4 22.7 22.7 23.3 25.4 31.8 32.6 37 42.8 49.4 54.3 55 54.6 53.8 52.6 52 51.2 48.8 46.1 43.6 41.1 40.3 38.3 36.2 33.6 31.1 29.3 26.3 25.7 24.5 24 30.2 33.6 37.7 40.5 43.6 45.7 46.1 43.6 40.9 37.6
-1 4.4 4.9 5.1 5.2 -1 -1 -1 -1 -1 -1 -1 5.8 6.4 6.4 6.4 6.4 5.6 4.7 -1 -1 -1 -1 6.4 6.7 6.3 7.1 6.4 5.6 -1 -1 -1 -1 4.2 4.6 4.4 3.8 -1 -1 -1 -1 7.5 7.6 7.2 6.6 3.7 3.3 3.5 3.7 4 4.2 4.1 3.8 3.8 3.2 3.4 3.4 3.4 3.4 3.4 3.3 3.1 3 -1 -1 -1 -1 5.3 5.4 5.3 4.8 4.8 6 5.8 5.8 6.3 6.4 6 6.3 7 7.1 6.3 6.5 6.7 7.1 6.8 6.4 6.1 5.6 5 5.9 5.9 6.5 4.4 3.3 2.9 2.9 3.1 4.2 -1 -1 2.3 2.8 3.1 3.6 4.3 4.3 5.2 4.1 5.6 5 5.4 5.7 6 6.3 6.7 6.8 6.5 7 7.1 7.2 7.4 7.6 8.2 8.7 8.4 8.6 8.4 7.9 7.7 8.1 8.6 9 7.9 8.2 9 9.7 10.7 14.9 17.2 22.2 26.6 32.5 39.6 42.9 43 43.3 42.4 42.4 40.8 37.8 34.6 31.4 29.2 26.3 24.1 22.8 22.3 22.4 22.5 22.2 22.2 22.9 23.2 23.3 29.5 30.6 33 39.3 46.4 50.8 52.5 53.6 52.8 53.2 51.5 50.1 47.6 45 41.6 40.9 38.7 36 33.8 30.8 28.4 26.4 26.2 24.2 21.9 23.1 25.2 28.8 32.9 35.4 38.1 38.2 37.6 35.7 33
-1 4.4 4.7 4.8 5.1 5.4 4.8 -1 -1 -1 5.3 5.7 5.7 5.8 5.8 5.7 5.7 4.8 4.8 -1 -1 -1 -1 7.4 7.3 7.1 7.7 8 7.5 6.5 -1 -1 -1 -1 -1 -1 -1 -1 -1 -1 7.7 7.9 7.9 7.8 7.2 5 3.4 3.6 3.9 4.2 4.4 4.5 4.5 4.5 4 3.3 3.3 3.1 3 2.9 2.7 2.8 3.1 -1 -1 -1 -1 5.7 5.4 5.3 5.2 4.6 5.6 5.4 5.3 5.1 6.9 6.4 5.8 6.5 7 5.9 6.4 6.7 6.9 6.5 6.2 5.8 5.4 4.4 4.8 2.4 3 3.8 2.8 2.7 2.7 2.7 -1 -1 1.8 1.8 2 2.2 2.8 4.2 4.3 5.2 4.7 4.4 4.7 5.1 5.3 5.6 6.3 6.2 6.3 6.7 6.6 7 7.2 7.6 8.2 8.4 7.7 7.9 8.4 8.4 8.2 7.6 7.9 8.3 8.6 7.8 7.6 7.4 8.1 8.9 11.5 19.8 25.2 28.7 34.1 41.4 45.6 46.9 44.8 46 41.3 40.5 37.6 34.6 30.7 28.4 26.7 25.3 24.5 22.7 22.3 22.5 21.3 22.5 21.8 22.1 21.8 22.3 24 30.7 33 36.7 40.4 46.4 50.6 54.1 54.7 54.9 52.7 49.9 47.2 43.3 39.6 38 35.8 32.9 28.3 27.6 26.9 25.1 25.2 23 20.4 21.5 25 27.2 29 32 32.5 32.5 31.7 30.6
-1 -1 4.3 4.4 4.7 5.1 4.7 3.9 3.7 -1 -1 -1 -1 4 4.3 4.8 5 4.8 4.5 -1 -1 -1 6 8.6 8.6 8 8.1 8 7.9 7.1 -1 -1 -1 -1 -1 -1 -1 -1 -1 7.3 7.7 8.4 8.3 8.2 7.8 6.7 3.2 3.5 3.7 3.9 4.1 4.2 4.3 4.3 4.1 2.8 2.8 2.7 2.6 2.8 2.3 2.2 2.2 -1 -1 -1 -1 -1 5 4.5 4.6 3.5 3.3 2.9 3.6 3.5 6.3 5.4 4.9 6 6.5 5.5 6.2 6.8 6.6 6.3 5.9 5.6 5.3 3.9 2.7 2.4 2.3 2.9 2.4 2.5 2.7 3 -1 3.1 1.4 1.5 1.7 2.1 2.1 2.9 3.8 5.2 4.8 3.8 4.1 4.4 4.7 5 5.8 6.7 6.4 4.9 6.1 6.4 6.6 7.7 7.8 7.6 7 7.6 8.1 8 7.9 8.4 8.5 8.3 8.1 7.8 7.5 7.3 7.1 7.3 8.4 18.7 26.4 31.4 36.2 44 46.8 47.2 47.2 46.2 43.6 40.1 38.5 35.8 32.2 30.6 27.4 25.4 23.8 24 22.9 22.8 21.9 22.5 22.2 22.3 22.2 22 22.6 24.2 27.1 27.4 30.1 34.9 41.6 45.9 47 48.7 50.1 47.7 44.9 41.1 37.5 35.6 33.9 31.5 26.6 26.7 26 24.9 24.1 24.6 22.8 21 22.3 25.4 25.8 26.6 28.2 28.2 25.7 27
-1 -1 3.6 4.2 4.6 4.5 3.7 -1 -1 -1 -1 -1 -1 -1 -1 -1 1.4 3.4 -0.5 -1 -1 -1 8.2 8.3 8.6 8.4 8.3 8.3 8.3 7.6 5.5 5.8 5.2 -1 -1 -1 -1 7.3 7.7 8 8.3 8.5 8.8 8.7 8.8 8 4.6 3.2 3.4 3.6 3.8 4 4 3.9 3.8 3.8 2.5 2.5 2.4 2.4 2.3 2.2 2.4 -1 -1 -1 -1 -1 3.5 3.4 3 3.1 2.5 2.5 2.4 -1 -1 -1 -1 -1 -1 5.2 5.7 6.4 6.4 6.1 5.8 5.5 4.4 3.3 2.4 2.4 2.4 2.4 2.4 2.5 2.9 3.8 -1 4.2 3.7 2.6 1.7 1.8 1.7 2 2.9 4.1 3.8 3.2 3.4 3.7 4 4.4 5.4 6.5 6.9 5.8 6.1 6.3 6.2 7.2 6.9 7.3 7.5 6.7 8 7.3 8.1 8.2 8.8 8.8 8.1 7.7 7.5 7.7 7.8 7.3 8 9.1 23.7 32.8 37.7 44.8 47.2 47.8 47.9 46.4 43.7 39.9 39.5 37.4 34.6 32.2 28.6 25.7 24.6 23.7 23.2 22.3 22.1 21.6 21.9 22.5 22.1 22.1 22 22.2 23.4 24 27.5 28.2 30.4 36.4 39.4 43.8 44.5 43.4 42 38.7 36.6 34.1 32.3 29.7 26 25.6 25 23.8 23.3 21.3 20.2 20.9 20.9 23 23 24.2 23.5 23.4 23.1 23.2
-1 -1 -1 4.1 4.2 -1 -1 -1 -1 -1 -1 9.4 -1 -1 -1 -1 -1 -1 -1 -1 -1 7.9 8.7 8.9 9.2 8.8 8.7 8.7 8.5 7.9 7.5 7.9 7.5 7.5 8.2 8.4 8.3 8.2 8.6 8.7 8.9 8.7 8.9 8.7 8.4 8 7.5 4.2 3.1 3.3 3.5 3.8 3.5 3.6 3.5 -1 3 2.7 2.5 2.4 2.3 2.2 2.5 -1 -1 -1 -1 -1 2.7 3.1 3 3.9 4.4 -1 -1 -1 -1 -1 -1 -1 -1 -1 5.3 5.6 5.4 5.6 5.7 5.4 3.3 2.4 2 1.9 2.4 2.4 2.4 3 3.3 -1 -1 -1 -1 -1 -1 -1 4.4 3.3 4 3.9 2.9 2.5 2.8 3 3.4 3.8 4.9 5.9 6.1 6.2 5.3 5.4 6.7 6.9 6 6.7 7 7.1 8.2 7.6 8.1 7 9.5 9 8.3 8.3 8.2 7.9 6.9 7.8 8.2 8.6 10.8 19.4 26.4 36.2 44.4 46.7 47.1 45.6 43.8 40.8 38.2 37.2 36.2 35.2 32.7 27.8 25.4 25.2 23.5 23 22 21.2 21.6 21.3 22.7 22.6 22.1 21.7 22.7 23.6 23.5 23.9 25.9 30.2 31.4 33.4 34.4 36.4 38.8 37.2 35.7 33.6 32.6 26.7 25.4 25.1 24.9 24.3 23.4 23.2 21.7 20.3 19.7 20.6 20.7 21.2 21.8 22.2 21.7 21.6
12.5 -1 -1 -1 -1 -1 -1 -1 -1 11.4 11.1 11.5 14 13.5 10.6 9.3 9.3 8.7 11.1 10.2 5.4 8.8 9 9.1 9.3 9.2 9.2 9 8.7 7.9 7.8 8.1 8.5 8.5 8.5 8.6 9 9.2 8.6 8.1 8.3 8.5 8.6 8.5 8.2 8.2 8 7.5 5 3 3.3 3.6 -1 -1 -1 -1 -1 3.3 3.1 2.9 2.7 2.5 1.7 -1 -1 -1 -1 -1 -1 4.2 3.8 -1 -1 -1 -1 -1 -1 3.3 5.5 4 -1 -1 -1 4.8 4.5 4.6 4.7 4.4 2.6 2.3 2 1.7 2.4 2.4 -1 -1 -1 -1 -1 -1 -1 -1 -1 -1 -1 -1 -1 4.3 4 3.1 2.9 2.7 2.7 2.9 3.9 4.9 3.9 5.4 4.4 6 7.1 6.7 6.1 6 6.2 7.4 7.1 8 8 7.3 8.3 8.3 8.2 8.3 8.4 8.3 8.1 8 7.8 7.7 8.4 9.5 10.8 18 23.3 31.5 38.8 41.7 39.1 37 36.4 35.8 35.3 35.8 34.4 31.1 29.2 26.2 25.6 24.2 23.6 22.6 21.9 22 22.1 22.7 22.3 21.5 22.3 23.1 23.5 22.7 22.9 24.2 25.1 26.9 26.6 30 30.2 33.7 33.3 32.8 31.9 26.7 26.8 24.1 23.7 23.9 23.1 23.4 21.7 20.4 18.9 18.8 20.9 20.6 20.9 21.1 20.5 19.7
12.5 11.9 -1 -1 -1 -1 -1 11.2 10.8 10.7 10.6 10.6 10.7 13 9.2 9.7 9 9.3 9.6 9.8 7.4 8.5 8.9 9.2 9.2 8.7 9.4 9.3 8.6 8.2 8 8.8 8.8 8.6 8 8.2 8.4 8.5 8.1 7.9 8.1 8.3 8.3 8.2 8 7.9 8 8 7.4 4.8 3.1 3.4 -1 4.1 3.6 3.3 -1 3.3 -1 -1 -1 -1 4.6 -1 4.9 -1 -1 -1 -1 -1 -1 -1 -1 -1 -1 -1 -1 8.5 5.9 7.1 -1 -1 -1 -1 3.5 3.7 3.8 3.5 2.5 2.3 2 1.7 4.5 -1 -1 -1 -1 -1 -1 -1 -1 -1 -1 -1 -1 -1 -1 -1 -1 5.6 4.2 2.8 3.8 2.7 2.1 2.7 3.4 3.7 5.9 6 5.5 5.9 5.5 5.7 5.9 6.5 7.6 7.7 8.1 7.2 7.4 8.1 8.2 8.3 8.4 8.7 9 8.3 8.2 8.2 7.9 7.6 7.4 8.6 10.3 13.2 17.7 21.5 28.1 33.1 35 34.6 34.7 36.1 37.7 35.2 33.1 30.5 28.3 26.6 24.8 24.4 22.9 22.6 22.1 23.2 22.1 21.8 22.3 23 23.1 23.3 23 23.3 23.1 24 24.6 24.8 26.1 26.8 27.1 27.6 26.2 25.2 25.3 25.5 23.9 22.4 22.2 22.4 21.7 19.9 17.9 18.4 18.5 20.3 19.7 20 19.3 19.5
12.3 12.7 12.6 12.8 12.9 12.3 11.5 11 10.6 10.1 10.6 10.8 10.3 9.8 9.2 8.7 8.5 8.9 10.1 7.9 8.8 9.1 9.2 9.4 9.1 8.5 9.5 9.1 9.5 8.7 8.2 8.6 9.1 8.6 7.7 7.6 7.7 7.8 8.2 7.8 7.9 8 8 7.9 7.8 7.7 7.8 7.9 7.3 7.1 6.2 4.4 -1 3.8 4.1 3.5 -1 3.6 -1 4.2 -1 -1 -1 -1 3.5 3.6 -1 -1 -1 -1 -1 -1 -1 -1 -1 6.9 6.9 5.7 6.9 10.3 8.9 -1 -1 -1 -1 3.9 3 2.7 2.5 2.2 1.9 1.5 -1 -1 -1 -1 -1 -1 -1 -1 -1 -1 -1 -1 -1 -1 -1 -1 -1 -1 -1 -1 6 3.5 4.3 3.8 2.2 2.2 5.3 3.9 4.8 6.1 5.8 5.9 5.9 6.1 6.5 6.8 7.1 7.4 7.3 8.1 8.3 8.3 8.7 9.2 9.4 9.5 8.7 8.7 8.4 8 7.4 7.6 8.2 9.1 9.8 9.7 14 20.8 26.4 29.9 33.2 38.5 41.7 39.7 35 32.9 31.3 28.2 26.5 26.2 23.6 22.5 21.4 22.1 22.6 22 22.2 22.7 22.7 23 23.4 22.9 22.7 23 23.3 23.1 23 22.8 23.1 22.9 23.5 22.5 22 21.7 20.9 21.8 21.1 20.7 19.8 19.9 17.2 17.3 17.9 18.5 18.2 18 17.7 18
12.4 12.6 12.4 12.1 12.6 12 11.3 10.9 10.9 10.1 10.9 11.1 10.6 10 9 8.1 8.2 8.9 8.5 8.4 8.5 9.4 9 9.6 8.9 9 9.4 9.6 9.5 9.6 9.2 9.4 9.3 8.6 7.6 7.6 7.6 7.6 7.9 7.8 7.7 7.7 7.7 7.6 7.6 7.5 7.6 7.7 7.1 7.6 7.8 6.9 -1 3.7 3.9 3.7 3.9 3.8 4.1 4.5 4.2 -1 -1 -1 3.1 3.2 4 5.6 -1 -1 -1 -1 6.2 7.1 7.6 10.3 6.3 7.7 9.3 11.7 11.1 -1 -1 -1 -1 4.6 3.4 2.7 2.3 2.1 1.8 2.9 -1 -1 -1 -1 -1 -1 -1 -1 -1 -1 -1 -1 -1 -1 -1 -1 -1 -1 -1 -1 -1 3.3 5.8 2.8 2.3 2.1 2.8 2.6 4.4 6.6 6.5 6.6 6.3 5.6 6.7 6.6 6.5 7.8 8.1 8.1 8.3 8.5 8.5 8.5 8.5 9.3 9.1 8.8 8.5 8.6 7.7 8.2 10.2 10.7 8.9 8.9 9 10.3 15.4 24.2 27.8 34.1 36.6 39.2 35.2 34.2 33.4 30 28.2 27 25.3 23.3 21.8 22.1 22.7 22.5 22.3 22.8 23.4 23.9 23.4 22.7 22.9 22.8 22.5 22.7 22 22 21.9 22.2 21.5 21.3 21.1 21.2 20.9 20.8 18.5 19 17 18.5 16.4 17.2 17.8 18.7 18.8 18.5 18.2 17.8
12 13 12.4 12.2 12 11.7 11.3 11.7 11.9 11.2 11.1 11.3 11 10.5 9.8 9.1 9.1 8.5 8.2 8.6 8.2 8.3 9.1 9.8 9.8 9.6 9.9 10 9.7 8.6 9.5 9.5 9.5 8.4 8 8.1 8 8 8.1 8.2 7.4 7.4 7.4 7.3 7.3 7.3 7.4 7.5 7.3 7.7 7.8 7.1 -1 4.6 4.4 3.8 4 8 8 8.4 7.9 8 7.3 5 4.9 3.9 3.6 2.4 4.3 4.3 3.6 5.9 6.8 5.9 7.1 7.3 10 12.1 12.9 13.2 11.9 8.9 -1 -1 -1 4.6 3.5 2.9 2.5 2.1 1.7 -1 -1 -1 -1 -1 -1 -1 -1 -1 -1 -1 -1 -1 -1 -1 -1 -1 -1 -1 -1 -1 -1 -1 -1 -1 3.3 2.5 2.3 2.3 2.2 3.5 5 5.1 4.8 5.9 7 6.6 7.3 7.9 7.9 8 8.1 7.8 7.6 7.6 7.7 9 9 8.9 8.8 9 8.8 8.9 11.3 10.1 8.3 8.2 8.2 8.9 10.1 14.9 21.2 24.8 34 34.3 34.2 34.3 31.7 30.3 29.2 29.3 26.8 24.5 23.4 21.8 22.3 22.2 22.1 22.7 23.6 24.4 24 22.9 22.6 22.6 22.6 22 21.4 21.8 22 21 21 20.6 20.5 18.9 18.3 17.9 16.4 17.4 19.6 17.3 17.4 16.8 17.7 18.6 19.4 19.1 18.7 18.4
13.2 13 12.4 12.1 11.9 12.2 11.5 12 11.3 11.6 11.1 11.4 11 10 9 9.6 9.3 8.7 8.3 7.7 7.9 7.5 8.3 8.9 9.4 10.1 10.2 10 9.8 9.9 9.6 10.1 9.3 8.2 8.3 8.5 8.5 8.5 8.6 8.7 7.7 8 8 7.9 7.8 7.5 7.3 7.3 7.5 7.6 7.8 7.3 -1 4.9 7 5.3 8.1 8.9 8.8 8.6 8.2 7.9 7.5 7.3 6.9 7 5.9 2.4 2.4 4.2 3.9 5.6 6.2 6.8 7.3 10.4 12.7 15.2 13.8 14.5 12.6 10.5 -1 -1 -1 4.9 5.1 5 2.6 2.2 2.6 -1 -1 -1 -1 -1 5.4 5.5 6.3 6.3 6.8 -1 -1 -1 -1 -1 -1 -1 -1 -1 -1 -1 -1 -1 -1 -1 -1 -1 4.6 2.1 2.1 2.5 3.2 3.8 4.7 5.6 6.5 6 7.5 7.8 7.8 7.9 8 8 7.6 7.1 6.8 8.6 9 9 9.3 9.7 7.9 8.3 9.7 7.8 7.6 7.8 8 8.2 8.5 10 15.4 18.9 22.1 25.6 29.4 28.1 27.7 27.9 28.8 29.4 29.8 26.9 25.3 23.9 22.7 21.6 20.3 22.3 23.2 23.3 23.2 22.5 22.3 22.4 22.1 22.3 22.2 20.7 20.4 20.6 21.1 20.7 18.8 17.2 17 15.7 16.5 18.4 20.3 17.8 18.7 18.7 17.5 18.6 19.8 19.6 19.2 18.8
13.1 13 12.4 12.1 12.2 12.5 12.5 12.5 11.7 11.3 11.1 11.2 11.4 10.8 9.3 9.7 9.3 8.9 8.4 7.5 7.6 7.3 7.5 8 8.7 9.3 9.4 9.2 9.5 9.8 10.5 10.6 9.2 8.6 8.7 8.9 8.9 9 9.1 9.2 8.5 8 8.5 8.7 8.4 8.1 7.6 7.3 7.5 7.7 8 8 -1 -1 8.1 8.5 8.8 9.2 8.9 8.2 7.5 7.6 8.2 8.3 8.3 7.7 7.3 6.9 4.9 2.4 4.8 5.6 5.9 7.2 9.6 11.6 12.5 14.3 14.5 14.6 13.5 12.3 8.4 -1 -1 -1 4.1 4.9 4.5 5.2 2.8 -1 -1 -1 -1 5.4 6.1 6.8 6.8 6.5 6.5 6.4 6.2 4.4 1.8 -1 -1 -1 -1 -1 -1 -1 -1 -1 -1 -1 -1 -1 -1 -1 2.6 2.7 2.8 3 4 5 5.9 6.3 7.7 7.7 7.6 7.8 7.8 7.8 7.8 7.4 7.3 7.8 8.3 8.9 10 10.4 8.5 8.2 9 9.8 10.3 8.6 8 8.7 8.6 8.9 10.9 13.6 17.2 19.8 23.2 24.1 24.3 25.4 25.5 27.6 29.1 28.6 26.7 26 23.8 23.2 22.6 21 21.9 21.9 21.8 21.6 21.9 22 21.4 22.1 19.7 18.6 19.3 19.5 20.4 19.3 16.4 16 18.2 18.5 19.1 20.1 20.2 18.9 19.1 21.8 21.3 19.1 19.6 19.3 18.9 18.8
13 12.9 12.3 12.3 12.5 12.5 12.1 11.7 11.7 11.6 11.5 11.1 11.1 10.2 10.4 9.4 8.8 8.3 8 7.4 8.3 7.3 7.3 8 8.2 8.5 8.7 9.1 9.5 9.7 10.8 10.4 9 8.8 9.1 9.2 9.3 9.4 9.6 9 8.4 8.1 8.6 8.9 8.8 8.5 8.3 7.8 7.7 8 8.2 8.1 6.1 -1 6.7 8.4 8.8 8.6 9.2 8.7 8.7 8.3 8.4 8.5 8.6 8.4 8.2 7.7 7.3 6.1 5.1 5.2 6.9 7.1 9.2 10.4 13.2 14.2 13.7 14.1 13.1 12 9.3 -1 -1 -1 5 4.3 4.4 3.8 -1 -1 -1 -1 -1 6.3 6.6 6.7 6.5 6.5 6.6 6.5 6.4 6.5 6.6 5.8 2.8 -1 -1 -1 -1 -1 -1 -1 -1 -1 -1 -1 -1 -1 -1 4.7 2.5 2.7 3.6 3.4 3.2 6.3 6.3 5.9 7.5 7.6 7.6 7.6 7.6 7 6.9 7.1 7.3 7.8 8.8 9.9 11.5 11.1 8.8 9.2 9.7 9.2 10.3 11.4 10.2 9.2 9.9 11.6 14.3 15.9 17.1 19.3 21.1 22.2 23.2 24.8 27.4 28 27 25.5 23.5 23.1 22.1 20.6 21.1 20.5 20.4 21.5 20.6 20.7 19.5 19.3 19.5 18.2 18.4 19 18.8 13 16.1 19 21 20 20.6 21.3 20.4 20.4 20.9 19.9 21.6 19.5 19.5 19.4 20.1 21.5
12.6 13.2 12.9 12 13.2 12.6 12.4 12.3 12.2 12 11.2 10.8 9.8 10.2 10.7 9.9 9.6 8.3 7.6 7.7 8.6 7.8 6.9 8.1 8.7 8.4 8.7 9.1 9.4 9.6 10.3 10.2 9 9 9.3 9.5 9.2 9.6 9.6 9.1 8.6 8.2 8.7 8.8 8.9 8.7 8.3 8.3 8.2 8.2 8.4 8.3 7 -1 7.3 8.6 8.6 8.7 9 9.2 8.9 8.5 8.6 8.7 8.7 8.6 8.2 8.4 8.1 6.4 5.1 5.6 6.4 8.3 8.2 10.4 11.6 13.4 13.2 12.8 13.6 12.8 9.9 -1 -1 -1 4.6 3.4 3 3.2 1.9 -1 -1 -1 -1 5.8 6.6 6.5 6.6 6.8 6.8 6.8 6.7 6.8 6.6 6.5 6.4 5.5 4.2 2.1 -1 -1 -1 -1 -1 -1 -1 -1 -1 -1 -1 -1 3.1 2.5 2.6 2.5 2.2 3.6 5.9 5.9 6.5 7.4 7.4 7.5 7.2 7 6.8 7 7.2 7.4 7.3 7.8 8.7 9 8.3 8.6 8.6 8.8 8.5 10.7 11.7 9.5 11.9 11.4 9.4 14.4 15.2 16.8 17.5 19.6 20.9 22.6 23.9 25.7 25.4 25.1 22.6 21.9 21.3 20 16.6 17.2 16.6 19.9 16.6 16.8 16.9 17.9 17 16.6 14.3 17 13.1 17.8 19 19.5 20.3 19.4 20 20.6 21 20.3 20.2 19.1 20 23.6 23.8 20.2 21.6 23.5
13 13.3 13.4 13.6 13.5 13.1 12.8 12.6 11.9 11.2 10.6 10.2 10 10.3 10.9 10.6 10.3 10.1 10 8.6 8 8.2 7.2 8.1 8 8.1 8.6 9 8.9 8.8 9.2 10.5 9.1 9.1 9.4 9.7 8.7 9.6 9.5 9.3 8.8 8.4 8.7 8.8 8.7 8.7 8.2 8.3 8.4 8.5 8.5 8 6.7 -1 6.9 -1 5.9 -1 8.5 9.1 8.9 8.5 8.7 8.8 8.9 9 8.3 8.1 8.3 7.7 7.1 5.3 6.3 7.5 8.9 8.5 11.6 12.4 12.6 12.9 14.2 12.8 10.1 -1 -1 -1 4.7 3.8 3 2.9 2.2 -1 -1 -1 -1 4.5 6.6 6.7 6.9 7 7 7 7 6.9 6.8 6.7 6.6 6.4 6.3 5.4 5 3.2 2.1 -1 -1 -1 -1 -1 -1 -1 -1 -1 -1 2.7 2.8 2.5 2.4 2.1 2.8 6.3 6.9 7.2 7.2 7.3 7.1 7 6.8 6.8 7 7.2 7.3 7.1 6.9 7.4 8.4 8.8 8.6 8.1 8 8.3 8.5 8.1 8.7 10 9.3 11.4 13.3 13.2 15.1 15.8 15.8 15.2 15.2 16.1 17.1 19.5 18.3 15.8 19.4 20.6 18.2 17.7 19.5 20.4 19.7 19.3 18.4 16.2 15.4 14.2 12.7 13.1 15.6 20.7 22 20.6 21.3 19.3 19.9 19.6 20.1 19.7 19.8 20.3 19.9 21.1 21.1 19.8 20.8 22.4
