ncols 200
nrows 82
xllcorner 380000
yllcorner 351300
cellsize 50
99.1 98.5 99.5 102.9 105.9 108.7 109.6 99.5 99.5 99.4 99.3 99.6 100.2 101.2 100.3 99.8 100 100.6 100.6 98 98 100.1 102.6 104.6 106 106.7 104.7 106 107.2 105.7 104.3 104.1 104.5 105 105.5 106.1 107.3 107.5 107.7 107.4 108 107.5 106.1 105.1 106.5 105.1 105.9 107 107.4 107.7 108 109 110.3 111.4 113.2 116 119.7 121.5 120.1 123.9 124.7 123.8 125 128.1 131.8 132.5 134.4 136.2 136.8 137.8 138.9 133.9 138.7 138.8 137.9 138 138.5 136.1 139.7 145.8 151.4 154.6 153 154.2 159.1 164.6 167.7 169 171.4 174.3 175.1 176.3 178 178.5 177.9 176 171.9 168 169.3 169.1 169.6 168.9 168.1 170.6 172.6 178.5 182.6 188.1 191.6 195.9 200.9 204.5 205.3 206.3 210 211.5 208.7 210.6 212.8 214.3 214.7 213.9 214.8 216.7 220.8 221.1 220.8 220.1 217.3 212.8 209.4 206.5 205.2 203.9 201.3 203.2 204.2 204.9 204.1 201.3 199.9 199.8 198.9 196.6 194.7 192.7 190.5 189.9 192.7 197.2 199.9 196.3 191.3 186.1 188.7 200.2 201.3 201.4 201.5 202 202.7 201.9 200.9 198.5 195.2 188.8 184.5 182.9 180 179.9 181.5 182.5 185.8 193.4 199.1 203.6 205.1 201.2 198.9 197 191.2 180.7 177.5 185.3 177.5 177.5 178.8 174.8 174.8 174.8 174.8 174.8 181.3 184.3 176.5 178.1 179.2 181.1 180.9 184.5
98.5 99.2 99.9 102 105.3 106.2 113.2 99.4 99.3 99.1 99 100.2 102.2 100.4 101.5 99.5 100.3 100.7 100.5 99.5 97.4 99.6 100.3 102 102.3 102.6 104.6 104 104.7 104.9 104.1 104.7 105.2 105.5 106.2 108.2 108.9 108.8 108.9 106.7 105.8 107 106.7 107.5 108.6 103.3 104.2 105.8 107.2 106.9 107.4 108.3 109.2 109.7 111.1 113.3 115.2 114.3 121.8 123.9 124.2 124 124.5 127.3 131.1 135.3 137.4 138.4 137.7 138 139.1 131.9 137.7 137.9 137.8 138.2 135.5 137.1 139.4 145 151 152.9 152.2 153.8 161.1 166.4 168.3 169.8 172.8 175.8 176.7 178 181 182.3 182.7 180.6 177.5 173.6 173.7 173.1 172.4 172.5 171.3 172.1 173.4 175.2 178.5 182.8 189.5 195.6 198.8 199.8 200.3 201.4 203.7 206.6 209.7 210.7 211.6 212.8 212.7 211.6 213.7 217.1 220.1 221.2 220.6 218.9 215.9 212.1 209.8 208 206.7 206 203.8 202 201.8 203 202.4 201.5 201.6 202.5 203 201.1 199.3 196.5 192.9 189.9 192.2 197 199.1 197.6 192.6 187.2 184.4 194.9 200.3 200.6 201.4 201.7 201.1 201 199.8 197.9 195.8 189 182.2 187.8 188.6 180.4 185.4 189.1 192.8 200.5 203.2 206.5 209.2 210.1 210.1 206.1 198.6 188.5 177.5 177.5 177.5 177.5 185.7 189.4 182.5 174.8 174.8 174.8 174.8 181.1 175 180.8 189.4 193.2 192.5 187.6
97.8 98.8 99.1 101.7 105.1 107.5 112.7 99.7 99 98.8 98.9 100.5 99.9 100.8 100.9 100.3 101.1 101.7 102 102.3 102.3 98.2 96.6 98.6 101 101.1 102.3 102.3 104.3 104.5 104.9 105.3 105.8 106.2 106.2 110.4 108.4 110.3 109.1 108.2 106.6 108.3 108.7 108.7 108.5 105.6 105.2 105 106.2 106.1 107.4 108.6 108.8 108.5 108.6 110.3 110.3 113.9 121.4 124.2 124.4 124.4 124.6 127.2 131.4 135.9 136.9 137.6 138.5 139 139.4 132.3 138.4 138.4 138.5 135.8 135.4 139.2 140.3 143.5 147.8 149.6 149.4 149.7 158.6 166.2 169.1 171.4 172.9 176.6 178.2 180 183.4 185.8 187.2 184.1 180.3 176.7 177.4 178.4 179.8 177.5 173.8 172.4 172.8 174.7 178.5 181.5 185.5 190.4 195.1 196 195.8 196.6 199.3 203.3 206.8 209.4 210.3 210.2 209.7 210.4 213.9 216.9 219.5 221.1 219.4 215.7 214.5 213.1 211 209.5 208.2 207.3 207 205.6 201.5 199.3 200 201.5 202.4 203.1 203.7 202.4 200.9 198.4 194.6 190.7 189.9 194.8 199.3 199.7 194.1 188.7 183.4 189.2 197.1 197.5 198.8 196.3 197.5 197.8 197.9 196.2 194.5 190.5 183.8 187.9 192.2 184.6 182.5 195.1 196.7 199.3 202.4 205.9 209.5 211.9 211.6 209.6 202.4 195.4 179.4 177.5 177.5 178 193.6 193.8 188.5 174.8 174.8 174.8 174.8 174.8 175.4 185.8 190.6 192.6 195.3 197.6
96.9 98 98.5 99.2 100.8 106 105.4 101.5 98.6 98.5 99.2 100.2 100.5 100.5 100.4 101.3 101.7 101.9 101.7 101.4 102.6 100.9 99.4 99.2 99.5 99.7 102.8 103.4 104.8 105.7 106.5 106.9 106.6 107.1 108.8 107.7 108 108.3 109.1 108.2 109.8 111.1 109.9 109.7 109.8 111.3 111.6 109.9 107.5 109 109.1 110.6 111.1 111.5 110.9 109.6 109.3 110.5 119.4 121.6 123.4 124.9 124.8 127.3 131.6 135.8 136.3 137.7 139.9 139.9 139.6 132.5 137.6 137.9 137.8 134.8 138.7 140.3 141.7 142.7 144.5 148 155.1 156.9 162 167.8 168.5 170.9 172.6 176.9 178.9 182.2 187.5 190.1 188.8 186.1 183.6 182.5 184.1 184.7 183.8 181.7 176.9 174.1 173.8 173.8 176.3 178.6 183 187.6 190.3 192.5 193.4 193.5 196.3 200.4 204 208.8 207.7 208 207.7 209.8 213.5 217.3 219.6 218.7 215.5 213.1 212.7 212.7 212.3 210.6 209.1 208 207.4 205.6 203.3 199.1 197.5 200.9 202.1 202.1 202.6 201.7 200.8 199.2 196.1 191.9 188.4 193.4 198.8 199.6 195.6 190.3 184.9 185 192.2 195 196 193.3 195.9 197.2 195.9 195 193.5 187.9 185.3 186 190.8 184.9 188.9 192.5 196 198.8 202 205.6 209.5 212.1 211.7 210.5 204.9 199.8 194.3 192 193.7 192.9 192.2 191.2 184 174.8 174.8 174.8 174.8 174.8 180.2 188 190.9 192 197.9 201.9
96 97 98.7 97.8 99.5 98 96.7 97.7 98.1 98.4 98.7 99.3 99.8 100.5 100.4 101.8 101.3 101.5 101.8 102.8 104.3 104 104.1 103.5 103.2 100.3 104.1 105.4 106.1 106.3 107.6 108.4 108.3 108.9 108.6 108.5 109 109.1 109.2 110.1 111.1 111.2 111.5 111.5 111.6 111.5 112.4 112.2 111.7 112 112.1 113 113.4 113.1 112.4 111.6 110.8 111.5 111.5 115.4 119.1 122.4 124.3 127.7 131.6 134.2 135.2 137.1 139.2 139.3 134 132 138.6 138.7 136.2 133.8 139.8 141.1 142.5 143.4 144.5 147.4 156.3 158.4 164.9 168.5 171.7 171.7 174.7 178.2 181.8 186.9 191.6 192.4 191.4 189 187.1 188 189.6 189.5 188.1 183.5 180.3 177.7 176.5 175 175 177.3 181.7 186 187 188.2 189.9 191.7 194 196.5 200.4 201.7 205.8 207.6 208.7 209.7 212.5 215.8 215.6 215.8 213.3 210.8 210.6 211 210.5 210.6 209.5 208.3 206.6 204.9 201.8 198.2 196.2 199.6 201.1 200.9 200.7 200 199.4 198.4 195.3 191 188.5 193.7 198.6 200.1 197.5 191.9 186.6 184.2 187.3 193.7 192.2 191.4 194.2 193.1 193.7 192.7 191.5 186.5 185.7 182.8 182.5 187.6 195.2 197.4 199.2 199.6 202.4 205.8 209.6 212.1 212.7 209.1 203.8 201.1 196.6 194.8 193 187.9 187.5 188.1 182.6 174.8 174.8 174.8 174.8 175.7 182 188.5 191 193.6 199.6 205.6
94.9 95.4 95.7 95.8 95.4 96.9 98 98.5 98.7 97.6 98.2 98.6 98.9 99.6 99.5 100.4 101.9 101.3 101.8 103.5 103.4 103.9 103.7 105.7 105 102.4 102.4 104.9 103.5 104.3 107.6 107.9 108.2 108.5 109 109.5 110.1 110.3 111.8 111.8 112.9 112.6 112.4 113.1 112.8 113 113.6 115.6 116.9 116.7 113.2 115.5 114.8 114.4 114.1 113.9 113.7 113.7 113.7 113.4 113.7 119.6 123.1 125.7 128.5 131.3 133.7 135 137.8 138.9 139.6 132 139.7 137.4 130.3 139.1 141.8 141.8 143.3 144.6 146.6 150.7 155.3 158.8 164.2 171.8 173.6 174.5 178 179.7 185.9 189.6 193.1 194.1 193.5 192.4 190.9 190.8 192 194.1 193.4 190.1 186.1 183.2 179.2 178.8 176.3 176.8 178.5 182 185.5 187 188 189.5 192.6 195.8 197.3 199.4 202.9 205.1 207.5 210.4 213.4 215.5 215.3 216.3 212.6 210.7 209.8 209.4 209.6 209.9 208.8 207.5 205.6 203.4 200.4 197 193.7 195.3 198.1 199.6 199.1 198.3 197.2 195.4 193.1 189 189.3 193.8 198.3 200 197.6 193.3 188.1 184.4 184.2 183.3 185.2 189.2 190.6 192.2 191.4 190.6 190.2 189 186.4 185.6 185.9 189.5 197 200.3 200.2 200.9 202.7 207.6 210.3 212.7 212.6 210.5 206.5 201.6 198.3 195.8 192.9 189.3 182.4 181.6 178.3 174.8 174.8 174.8 174.8 174.8 180.6 188.4 193.4 196 201.3 211
94.1 94 94.1 94.8 95.5 94.7 96.8 96.6 96.7 97 97 97.6 98.4 98.4 99 99.8 100.7 100.9 101.6 103.9 106.1 106.3 106.6 106.1 104.1 102.2 103.4 103.1 103.4 104.3 105.3 106.4 107.5 108.7 109.6 110.4 111.1 112.1 113.2 114 114.4 114.9 115 115 114.3 113.5 115.6 116.5 116.3 115.5 114.6 117 120.6 119.1 116.7 116.6 116.5 115.8 115.4 115.1 114.1 114.8 119.1 122.7 125.5 127.1 129.7 131.8 136.5 137.7 138.5 131.9 137.9 129.6 133 139.2 142 144.3 145.7 147.9 149.9 151.8 154.7 158.1 165.6 170.8 174.7 175.2 178.1 183.6 187.1 190.7 193.3 195.1 196.3 196 195.9 194.9 196.4 196.6 197.7 196 191.9 187.7 183.4 181.2 180.5 179.1 178.3 178.9 181.2 185.6 186.6 190.6 193.3 195.5 196.5 199.3 202.2 205.1 208.7 213.4 216.2 218.7 218.2 215.6 213.6 211.9 210.5 208.5 208.9 209.2 207.9 206.6 204.7 202.6 199.2 194.7 191.1 191.4 194.2 196.7 196.3 195.6 194.6 191.9 189 186.3 188.1 192.8 196.6 198.4 197 193 187.9 185.3 185.1 182.6 181.2 187 188.6 190.6 190.6 191.8 191.9 191.1 191.8 190.9 189.8 191.5 196.9 199.8 201.1 202.4 205.1 208.5 210.9 213.3 212.2 210.7 206.9 202.2 198.1 195.2 193.9 191.6 187.6 182.3 174.8 174.8 174.8 174.8 174.8 174.8 180.1 189.1 195.4 199.4 205.2 212.5
94.7 94.5 94.5 95 95.6 95.4 95.4 95.7 96.1 96.6 96.8 97.5 98.3 99.8 100.6 99.7 100.6 101.4 104.1 105.1 107.6 108.3 107.9 108.1 106.8 103.6 104.1 104.8 105.5 105.2 105.9 107.1 108.2 109.4 110.4 111.2 112.2 113.2 114.4 115.2 115.6 116.1 116.3 116.8 116.8 115.1 115.6 118 118.7 118 118.2 121.9 121.2 116.5 121.4 120.9 119.4 117.3 116.5 116.3 113.9 121.8 120 120.9 124.9 127.2 127.7 129.9 134.4 136.7 135.9 130.9 131.8 131.8 137.7 140.1 142.9 145.1 147.7 149.8 151.5 152.1 154.9 158.1 164.7 168.9 174.8 178.5 181.7 183.6 186.9 188.9 193.6 198.2 202.1 200.6 199.4 199 199.5 199.6 200.4 199.2 196.6 192.4 186.6 185.4 183.9 181.3 178.2 178.9 182.6 183.2 186.9 191 192.6 193.7 197.1 200.3 205.2 208.8 211.6 214.6 217.4 219.3 219.2 217.1 214.2 212.4 210.7 208.3 207.9 207.8 207 205.2 204.4 201.3 198.3 194.4 189.1 187.6 190.1 191.9 192.4 191.8 191.4 189.2 186.4 185.8 188 189.9 192.5 194.2 194.7 192.2 187.8 186.2 182.9 176.7 177.7 183.5 186.3 189.3 191.2 191.9 194.1 196.5 197.7 196.1 193.8 194.5 197 200.3 202 204 204.8 208 210.4 212.2 212.1 211.3 206.9 199.6 196.5 193.4 192.3 192.5 189.2 185.2 178 174.8 174.8 174.8 174.8 174.8 183 191.4 197 201 204.2 213.3
94.7 94.3 95 95.6 96.1 95.6 96.7 96.4 96.5 97 97.4 97.9 98.4 99.6 101.7 101 100.7 103.2 104.9 105.6 108.6 108.9 109.8 109.6 108.8 107.4 106.4 107.1 106.9 106.5 106.6 107.7 108.9 110.1 111.2 112.2 113.6 114.1 115.4 116.4 116.8 117.4 117.8 118.7 117.4 114.8 114.9 118 120 120.3 121.5 114.3 124.2 124.9 122.1 117 122.9 121.3 118.7 117.7 123.8 120.6 116.8 118.6 122.1 125.4 125.8 129.1 130.6 133.9 132 129.2 127.8 133.9 138.2 140.1 143 147 150.3 152.5 153.8 153.9 154.5 158.3 162.4 165.7 169.4 174.4 179.3 181.2 185.9 190.2 196.6 205 205.1 204.5 201.8 201.9 201.7 201.9 201.6 200.2 199.1 196.2 190.9 187.9 185.9 183.9 183.3 184.3 183.8 185.3 190.1 192.9 195 196.9 199.7 204.2 206.4 210.2 214.9 217.4 218.8 219.2 219.1 217.1 212.7 210.3 209 207.8 206.8 206.3 206.2 205.4 205.2 202.2 199.1 194.6 190.2 188.3 185.7 185.2 186.3 187.3 188.2 186.8 185.1 184.8 186.9 188.1 188.3 190.1 190.6 190.2 187.8 184.2 180.4 175.8 175 181.5 183.9 187.6 191.2 193.7 197.7 199.7 200.7 199 194.6 194.5 198.1 201.1 203.4 204 204 207.3 209.3 210.7 212.4 212.1 208.1 199.4 193.7 188.3 189.1 190.3 189.7 188 181.4 174.8 174.8 174.8 174.8 174.8 182.3 192.3 197.9 201.8 207.5 213.5
93.7 94.4 95.5 96 96.5 96.7 97.5 97.2 96.9 97.7 98.4 99.5 100.1 99.9 101.3 101.8 102.6 104.2 104.9 106.4 108 109.3 110.2 110.5 109.2 108.6 108.8 108.7 108.3 107.9 108.9 109 109.3 110.5 111.3 112.6 114.5 115.4 116.2 119 121 121.4 121.3 121.5 120.2 121.6 120.6 117.3 117.1 119.2 118.4 121.7 124.7 124.8 125.9 126.3 124.4 118.3 123 121.6 122 119.9 116.3 120 121.5 124.9 126.2 127.9 130.5 133.3 131.3 130.3 130.4 132.4 136.8 141.3 144.2 147.8 150.1 153.3 154.6 154.7 154.6 156.9 161.2 165.3 168.3 171.6 176 179.8 186 193.2 202.7 204.3 204.2 204.9 203.1 203.2 202.4 201.7 200.7 198.9 198.1 195.3 192.3 189 187.9 185.7 186.9 189.6 189.5 187.1 190.2 194.5 198.3 201.1 204.7 205.5 208.1 212.7 215.2 217.9 222 220.8 218.9 215 212.6 208.7 208.1 208.1 207.3 207.3 207.3 207.8 207.4 204.7 200.2 196.5 193.7 191.4 188.1 184.8 183.2 182.7 185 183.5 182.6 185.4 185.8 183.7 183.5 185.8 187.2 186.9 184.5 181.6 177.4 174.2 173.7 177.1 180.1 183.1 189.5 191 195.1 198.4 200.5 199.1 192.3 192.6 198.4 201.7 204.5 204.9 204.7 205.4 208.2 209.8 211.5 213.6 205.2 199.3 194 189.1 185.3 186.8 185 184.7 178.2 174.1 177.4 174.8 174.8 174.8 181.4 192.7 198.6 202.6 210.1 217.2
94.2 94.4 95.4 96.3 97.4 97.1 97.7 97.3 97.7 98.2 99.2 101.7 102.2 102.6 102.1 102.8 103.4 104.8 106.8 108.7 110.3 110.1 110.3 111.7 111.6 110.9 110.3 110.4 110 109.8 111.2 111.3 111.3 111.4 112 114.4 116.1 120.2 123.3 124.2 124.5 124 122.2 123 125.9 125.5 128 127.3 123.9 121.3 119.6 121.4 123.6 124.2 125.5 126.9 125.4 127.7 121.5 124.3 122.6 121.2 121 118.9 122 124.9 126.1 126.6 127.8 131.7 132.3 130.7 128.9 131 136.8 140.2 142.9 148 151 153.6 154 150.8 154.9 160.1 165 169.7 171.9 176.2 180.4 184.7 190.1 200 201.7 202.4 203.3 203.7 203.4 203 201.8 200.5 198.1 195.1 193.2 191.7 190 188.5 187 185.9 187.6 190.9 190.2 191.3 193.9 197.5 201.3 204.3 207.8 210.4 213.2 214.2 215.6 217.1 220.8 220.1 217.5 213.9 211.9 211.3 209.6 208.7 207.9 208.3 209.6 210.1 209.9 207.2 203.5 200.5 198 194.8 190.1 186.1 184.3 181.7 177.8 178.7 178.6 179.2 180.6 180.4 178.8 181 182.2 181.1 179.8 178.1 178 173.6 174.6 170.2 173.8 182.8 189.2 193.1 189.7 191.7 196.7 197.4 192.9 193 198 201.3 204.2 205.8 206.3 203.8 207 209 209.4 211.5 204.3 196.9 192 187.8 179.6 182.5 181.1 179.2 174.2 168.9 165.1 168.1 173.8 172.9 180.2 190 196.2 205.1 211.3 217.9
95.1 94.9 94.8 96.8 97.4 98 97.3 98.1 98.4 98 99.5 101.5 102.9 103 102.3 104.2 104.5 106 107.6 109.8 111.3 111.8 110.3 112.8 113.7 112.4 112.2 112.2 112.2 112.6 113.6 113.9 113.6 114.6 115.1 118.8 122.4 125.6 126.6 127.5 127.3 127.1 127.5 128.3 130.1 131 131.5 131.4 130.1 127 124.3 127.7 129.2 129.8 127.1 127.1 126.5 129.8 129 125.8 123.2 129.4 121.8 118.4 121.5 125.6 126.2 126.2 125.5 129.9 133 130.7 127.4 130.6 135 139 142.7 146 150.7 151.3 150.2 150.3 160.5 166.9 166 168.3 174 179.7 183.9 189.2 197.9 199.8 200.7 201.3 201.7 201.8 201.7 201 198.8 196.5 193 191.1 190 187.4 187.6 187 185.4 184.4 185.8 189.2 189.8 190.7 196.1 200.6 203.8 207.3 212 215.5 216.1 216.9 218.2 219.1 219.8 220.7 218.3 215.8 213.6 212.5 210.8 209.6 209.4 211.2 212.8 212.8 212.1 209.8 207 204.6 201.7 197.3 192.7 189.2 187.7 183 180 176.4 176.4 173.1 175.5 177.9 178 177.6 176.3 171.4 170.8 170.5 177 173.2 170.9 169 171.7 181.6 188.4 192.4 192.6 188.8 193.3 194.5 192.4 194.4 197.5 200.8 204 206.3 206.3 204.6 205.9 208.2 206.4 207.3 204.6 196.3 188.7 183.9 173.9 178.1 178.3 174.2 168.8 164.3 161.1 161.2 163 163.3 179.9 189.2 196.8 203.4 210.3 215.4
95.4 95.1 95.8 96.7 97.5 98.4 98.9 99.5 99.3 99.4 100.2 101 103 103.3 103.2 103 105.8 107 108.7 109.1 110.2 111.3 112.5 113.9 114.8 113.1 113 114 113.8 114.6 115.9 116.6 117.1 117.7 114.5 120.4 124.6 127.7 128.9 129.2 128.7 130.5 131 130.6 132.3 133.7 133.6 132.8 131.2 129.7 130.1 130.6 132.5 133.4 130.4 125.4 126.6 127.7 127.9 127.5 127.7 122.3 126.1 122.1 120.7 122.7 122.7 123.3 123.6 124 124.2 129 130 130.1 134 137.5 142.1 146.2 148.8 148.4 145 152.1 162.7 167.6 167.4 171.1 175.9 181.2 186 193.9 195 196.2 199.7 201 200.9 200.4 198.7 196.1 195.5 191.9 191.6 189.8 187.8 186.5 186.3 185.5 184.2 182.8 184.5 187.4 187.7 190.6 194.7 199.6 205.1 210 213.9 213.8 215.7 217.6 218.9 220.4 220.8 221.3 221 216.3 215.3 214.4 213.1 213.2 212.1 212.9 214.7 214.7 213.7 211.4 209.1 206.8 203.5 199.1 195.1 192.2 189.8 187.5 186.6 183.5 181 182 178 178.1 175.1 176.1 173.5 171.2 173.5 171.8 177.3 172.5 172.4 168.3 174.8 181 186.8 192.3 193.5 191 192 194.7 193.4 193.9 196.9 200.2 203.5 206.3 207 206.2 204.1 204.6 201.9 202.2 201.9 192.5 184.1 179.9 175.9 171.4 173.8 169.3 164.7 161.4 159.6 161.5 163 171 179.9 188.5 195.7 202.3 209.4 212.1
95.4 95.5 96.4 96.5 97.2 98.3 99.5 100.8 100.9 100.1 100.8 101.6 102.6 103.7 102.7 103.1 105.5 107.7 109.2 109.3 111.5 111.9 111.8 113 114.7 116.6 116 116.1 114.6 115.4 118.2 119.2 121.2 121.8 120.5 116.3 119.5 122.1 128.4 130.4 131.5 131.5 132.7 132.6 133.3 134.5 134.5 132.8 132.4 133.2 132.8 133.3 135.4 135.9 133 131 127.9 127.1 128.2 127.8 128.7 128.4 121.8 124.8 121.9 123.8 121.6 122.4 122.9 124 124.2 125.2 129.7 128.9 129.1 137.1 141.1 144.4 148.1 147.4 143.4 152.7 161.9 166.3 168.9 172.8 177.4 182.5 187.6 190.2 190.3 193.6 199.3 201.1 200.4 198.3 194 191.2 190.1 190 189.2 187.8 186.3 185.6 185.9 186.2 186 185.2 183.5 184.7 185.9 189 193.9 201 205.7 209.8 211.3 212.8 215 218.2 220.6 220.6 220.8 221.7 220.1 218.6 216.7 215.7 214.6 215.2 215 215 215.7 215.6 214.1 211.8 209.6 207.3 204.2 200.6 197.5 194.4 194.5 193.6 192.4 191.4 190.2 187.2 185.3 182.4 181.4 181.3 180.7 181.2 179.5 177.7 178 169.9 169.7 169 173.8 181.1 185.8 191.5 195.3 195.6 197.3 197.1 197.2 196.4 196.5 199.6 202.9 206.2 208.6 208.4 202.2 197.6 196.8 196.5 193.1 181.9 176.4 174.3 171.4 167.5 166.9 169 165.3 157.9 159.7 162.5 166.1 177.9 182.8 187.6 194.8 200.3 205 208.1
95.4 96.5 97.4 97.1 98.8 100 100.5 102.2 102.8 100.9 101.1 101.6 101.8 103.2 104 105.4 105.9 109.1 109.8 109.7 112.2 114 114.4 114 115.4 117.8 117.3 118.6 115 118.4 119.7 122.4 123.9 123.8 123.9 126 121.5 118.3 121.9 123.5 131.2 126.9 130.8 131.4 133.9 134.9 135.1 134.2 135.8 136.6 135.8 137 137.4 137.7 134.7 133.9 130.5 129.2 129.1 128.8 128.3 128.6 125.5 122.6 124.1 125.5 121.9 123.6 123.5 123.7 124.3 125 124.8 128.4 127.5 128.6 140.3 142.1 147 146 142.1 155.1 162 162.8 169.7 175.9 177 181.6 185.1 185.4 188 194.1 199.9 201.2 197.5 193.5 190.8 189.2 188.5 188.2 187 184.5 181.7 180.6 180.5 181.7 185.2 186.5 183 183.9 185.8 189.2 196.2 203.3 205.4 206.8 208.3 212.8 216.9 220 220 219.8 219.7 220.3 221 219.7 217.9 216.4 214.9 214.3 213.4 213.5 214.2 214.9 213.1 210.7 208.5 206.4 203.6 200.5 199.5 199.4 197.7 196.4 193.8 192.8 193.7 191.7 189.8 186.8 184.3 183 182.1 182 180.4 178.6 174.8 172.6 169.7 168.6 173.9 180.6 184.6 189.9 195.2 197.4 200 201.1 200.8 200.2 200.1 202.7 204.6 207.3 210.3 211.8 210.8 209.9 202.7 197.2 188.1 182.8 175.9 171.8 168.9 166.3 166.1 163.2 159.6 158.4 163.6 166.5 168.4 176.5 183.2 187.2 193 192.1 201.6 207
96.8 98.7 98 98.2 101.8 101.5 103.5 104.1 104.6 102.9 102.9 103 102 101.7 104.9 106.1 106.1 109 110.4 112.9 112.1 113.4 115 117.4 118.4 118.8 121.2 119.4 116.1 120.9 122.1 124.3 126.3 127 127.7 128.1 129.8 130.8 131.8 133.9 134 126.1 129 131 134.5 135.6 135.7 136.5 138.3 139.2 138.4 139.4 137.4 137.1 135.1 135.7 132.8 132.9 130.6 129.7 128.2 130.7 131.1 125.8 124.3 123.3 125.4 127 124.3 125.5 124.1 124.6 129.9 127.2 126.9 134 139.2 140.8 143.3 142.6 143 151.5 159.2 161.1 166.8 172.8 175.8 177.2 180.4 180.9 188 193.4 198.1 198.3 196 193.1 189.3 188.4 187.3 186.9 181 178 178.2 179.2 180 180.8 182.2 187.4 183.5 184.1 186.7 189.6 194.8 199.2 201.1 201.8 205.8 213.6 217.6 218.1 218.3 219.5 221 220.7 222 220.7 217.3 215.1 212.7 211.5 211.4 211 211.7 212.4 211.7 209.8 207.7 205.6 203.3 200.9 201.2 201.3 200 197.7 196.7 196 195.1 193.6 191.4 189 186.8 184.5 181.9 181.5 180.5 178.3 176 173.5 170.8 167.8 167.5 179.6 184.5 187.9 193.2 197.3 203.2 203.8 203 202.1 203.2 205.2 207.3 209.3 211.8 214 215.7 217.2 213.8 206.2 199.8 196.5 183.6 175.2 170.7 169.2 168.9 163.8 157.9 159.2 173.2 175.6 172.4 175.6 175.1 178.2 188.9 194.9 200.2 205.5
98.5 100.1 99 99.8 100.7 104.1 106.6 106.9 106.1 105.5 103.6 102.4 102.9 101.6 104.1 104.9 106.7 108.1 111.7 115.9 115.3 116.9 118 120.2 121.9 121.6 122 116.5 120.8 124.5 126.2 126.8 128.6 130 131.4 132.9 135.5 137.3 138.7 140.5 141.1 133.9 125.9 133.4 133 135.2 137.1 138.3 138.4 139.1 139.3 137.8 138.1 139.5 139.8 138.1 136.3 135.4 132.3 131.2 129 132.7 132.6 129.9 128.7 125.8 123.3 125.8 129 128.8 128.3 126 123.8 127.2 127.6 130.5 134.1 138.3 142.8 140.9 141.2 147.3 154 157.7 165.1 168.3 172.2 174.4 177 179.8 183.4 187.9 192.2 193.8 192.8 191.9 188.5 186.5 186.2 184.6 177.8 177.1 177.4 178.6 179.6 180.5 181.4 184.3 184.8 184.2 186.3 191 191.7 193.9 195.2 198.5 208 215.6 215.6 216 216.5 218.2 221.2 224.2 222.7 222.3 218.7 214.2 210.7 208.8 209.5 209.8 210.7 211.4 212.4 209.7 207.9 205.6 202.8 203.1 202 202 200.4 198.6 197 194.8 194.7 191.7 191.6 189.4 186.6 184.1 182 180.6 179.6 177.5 175.8 172.8 171.6 171 166.7 174.7 183.5 187 191.7 198.4 203.1 204.7 205.6 205.9 205.6 208.2 210.3 211.4 213.6 215.8 217.9 219.8 219.2 212.8 205.5 201.8 193.3 185.2 177.5 170 162.8 161.1 157.9 157.4 170.5 180.3 180.6 180.4 181.1 182 189.8 194.7 198.1 203.4
99.6 101.4 100 101.2 103.9 108.3 109.1 108.6 108.5 106.1 104.5 102.9 103 103.9 105.7 107.2 107.3 111.2 113.2 115.7 118.6 119.8 121.4 125.9 128.4 125 124.1 120.6 123.1 126.4 128.9 129.5 130.8 132.1 134.8 138.3 141.4 143.6 145.7 145.3 140.7 132.2 128.5 136.3 135.7 134.9 138.2 139 138.6 139 139.3 139.6 140 141 143.8 144.3 139.2 141 137.2 134.3 130.5 130.4 130.9 131.3 130.9 130.2 128.4 126.3 124.2 127.8 127.5 127.2 129 127.9 124.7 129.2 130.2 136.6 141.3 139.8 138.9 144.3 147.5 151.1 161.2 165.2 168 172.1 174.4 175.5 178.1 181 184.6 190.6 189.7 188.4 185.5 181 180.4 180.4 178.2 176.2 176.6 178.1 179.3 180.1 181 184.3 185.2 183.1 186.3 189 188.8 192.2 195.7 203.5 212.7 213.4 212.8 213.2 213.6 217.4 221.6 227.8 226.7 222.7 217.3 212.7 208.3 206.1 206.9 208.9 209.9 211.7 213.3 210.7 208.6 207.5 206.5 205.3 202.9 201.8 200.2 198.4 195.9 193.4 192.8 191.3 189.9 188 186.3 183.6 181.7 180.9 178.6 176.8 175.5 172.8 171.5 170.8 170.9 166 180.3 184.5 190.6 196.9 200.8 204.1 207 208.1 208.7 209.5 210.9 213.3 215.1 217.2 219.3 221.3 221.2 216.7 209.3 207.3 199.1 189.7 179.7 166.9 162 159.6 157.2 157.6 166.2 176.7 182.2 179.5 180.3 183.1 187.7 191.8 195.1 199
102.1 102 102.3 103.6 106 108.6 109.9 110 109.3 106 103.5 102.5 102.9 103.7 104.9 108.1 109.7 111.3 112.7 114.9 120.2 122.2 123.2 125.8 129 128.2 125.6 119.9 123.4 127.5 131.4 133 134 136.8 141.7 144 147.1 150.2 150.7 144.2 136.4 127.4 136 137.1 136.8 136.8 137.3 138.4 139.1 139.8 140.9 142.6 142.9 142.8 145.1 144.4 142.1 141.9 140.7 136.4 134.4 131.7 130.9 131.3 131.1 130.8 127.5 131 129.5 126.1 125.4 128.3 128.8 128.8 128.3 127.7 128.5 129.5 133.9 134.5 137.3 140 142.3 145 154 161.7 165 169.5 170.3 171.6 174.4 177.7 181 183.2 184.8 182.2 177.5 177 177.1 176.3 176.1 175.2 176.2 177.6 178.8 179.8 182.9 187 182.5 184.4 187.6 190.2 190.8 188.8 193.9 200.8 207.3 208.3 209 208.3 212.3 215.4 220.2 226 225.9 221.2 217.3 211.2 207.7 205.6 206.5 208.3 209.6 211.3 212.6 212.8 211.4 209 206.8 205.2 202.6 201.5 199.9 197.3 194.5 193 190 188.5 187.3 185.7 184.5 182.8 180.9 179.4 178.8 177 174.7 171.8 170.9 170.2 170.1 167.2 169.5 177.9 187.8 194.5 199.4 203.6 205.8 207.1 208.4 210.2 210.4 213 215.7 217.9 220 221.8 222.1 217.7 211 207.5 202.9 190.4 179.4 165.9 161.9 164 156.5 155.6 158.6 171.3 176.6 176.4 177.1 179.7 183.8 188.2 192.7 195.8
101.8 104.3 103.9 104.9 105.2 107.9 109.2 109.6 107 105.4 102.9 102.7 103.5 104.3 105.2 107.3 110.3 112.3 113.6 116.1 119.4 121 124.3 126.7 129.2 130.1 128.2 124.3 121.4 126.2 132.4 136.4 138.7 141.1 146.9 150.7 155.7 159.7 154.3 141.6 130.8 130.6 132.2 138.4 137.5 136.8 139.7 139 139.6 140.6 142.5 144.5 145.7 146.2 144.6 143.7 144 141.8 140.7 137.8 134.7 133 131.7 131.6 129.9 130.1 132.1 131.6 130.4 128.9 129.8 129.8 126.5 128.3 128.5 124.8 129.3 130.4 132.4 133.9 137.9 144 141.9 142.7 149.6 158 162.8 164.2 168.4 172.3 173.5 176.1 177.1 177.7 178.5 177.2 176.6 175.9 175.3 174.9 174.8 174.3 175.8 178.3 182.1 186.3 185.7 178.5 182.2 185.9 188.7 191.3 192.7 190.1 189.2 193.6 199 202.8 204.9 208.8 212.3 214.7 217.1 219.9 222.7 221.4 216.7 213.4 210 206.5 206.2 207.8 210.2 212 212.6 213.6 213.3 211.7 209.2 207.3 204.3 201.1 198.8 195.9 193.3 191.7 188.7 185.8 184.6 183.3 182 180.2 178.5 179 178 175.5 173.5 170.8 170.7 173.1 173 166.2 164.4 169.9 184.4 193.4 198.8 201.5 203.8 205 206.9 208.8 210.8 212.5 215.5 217.8 219.1 220.4 221.1 217.6 211.1 204.7 202.5 192.5 176.9 166.1 164 168.1 160.2 154.6 156.3 164 169 173.6 174.5 177.5 180 184.7 187.9 190.4
104.7 105.8 105.9 105.6 105.8 108.5 108.2 106.7 105.9 102.6 103.3 103.7 104.4 105.1 105.4 107.6 110 113 114.4 116.4 116.8 118.4 123 126.1 128.2 130.2 130.2 130 126.7 125.3 130.5 136.2 140.7 145 148.8 153.3 156.2 156 151 140.6 131.1 131.2 131.2 135.8 137.8 141.3 140.3 139.8 140.5 143.9 144 147.4 148.1 146.8 146.1 143.8 141.4 139.3 137.3 138.4 136.8 135.4 133.3 132.7 130.9 132.2 131.9 131.3 131.6 130.5 129.7 130.8 131.2 127.7 128.4 124.3 130.2 131.3 133.5 135.4 138.9 141.5 145.7 143.9 148.1 153.6 158.6 162.2 164.2 170.7 174.1 176.6 177.1 177 177.7 176.6 176.1 174.2 172.5 172.3 172.4 171.8 172.3 176.4 178.7 181.2 178 180.1 182 185.4 187.4 189 191.4 191.6 189.5 190.8 194 200.3 203.8 208.7 212 214.9 215.1 217.1 221.3 223.4 218.3 213.7 211.5 209.4 207.6 207.4 209.4 212.2 214.1 215.1 213.7 212.7 211.3 207.5 205.5 203.6 199.4 196 191 190.4 188.8 184.4 184.4 184.4 182.8 180.6 178.4 177.2 178.2 174 172 170.4 170.4 172.7 173.1 168.2 164 167.9 181.2 190.7 197 199.2 202.2 203.2 205.7 207.9 210.2 212 214.7 216.9 218.2 219.3 219.8 217.6 209.7 202.7 201.4 192.5 178.3 165.8 162.2 162 162 155.1 155.8 159.3 165.9 170.1 172.4 175.4 177.5 180.5 184.4 186.4
105.3 106 105.5 106.2 106.4 106.3 105.3 102.7 102 102.8 104.2 104.8 105.3 105.8 106.8 109 110.9 112.5 114.4 116.9 118.9 119.6 121.8 124.5 125 128.9 131.9 133.2 131.8 130.5 127.4 133.8 139.3 143.2 146.7 150 152.4 150.4 144.5 140.9 131 131.1 131.1 136.4 139.4 139.5 139.4 146.4 150.5 150.9 151 151.8 150.6 148.5 146.5 143.8 141.1 139.4 138.6 138.2 137.9 136.2 134.4 133 133.3 133 132.2 132.7 131.9 131.1 131 130.7 131 131.9 128.9 125.7 131.4 132.4 134.9 139.3 143.1 143.1 145.3 147 149.1 152.7 155.9 160 164.5 170.4 174.2 175.9 176 175.6 174.9 175.7 171.5 166.7 164 168.1 172.3 174.4 174 175 175 173.5 171.5 179.6 180.8 183.6 185.1 186.6 188.9 188.9 188.8 189.7 192.1 197.4 200.7 206.3 209.9 211 213.5 215.8 220 221.7 219.7 215 211.4 209.7 208 206.9 207.7 211.3 214 216.1 215.6 213.3 212.5 208 206 202.3 198.7 195.4 191.1 189.5 188.8 185.5 184.7 184.6 183.4 182.1 180.9 176.7 175.3 173.6 170.8 170.4 169.8 169.7 172.3 171.7 163 166 178.5 187.3 192.8 197.8 201.1 203.4 206.6 208.1 209.9 211.6 213.9 216 217.1 218.2 218.5 217 209.8 201 198 193.9 179.8 169.5 162.2 158.6 157 154.6 154.1 157.6 162.8 166.6 170.4 173 175.2 176.9 180.8 183
106.6 106.1 106.6 106.6 106.8 104.8 101.4 102.2 103.3 104 104.5 104.9 105.3 106.1 107.7 111 112.3 112.7 113.9 118.6 120.3 121.9 121.1 121.3 125.2 127.9 129.2 131.1 135.3 134.7 131.4 128.5 136.9 139.9 141.5 143.9 144.6 143.5 141.2 136.3 131.1 131.1 131.1 137.1 138.8 139.4 142.6 155.3 161.4 158.9 156.2 154.1 152.2 149.4 148.1 144.8 143.2 141 139.7 139.3 137.9 135.8 134.6 134.3 133.9 133.4 132.9 133.6 132.9 131.7 131.3 131.6 130.9 131.7 132.2 128.6 131.7 134.9 143.6 147.4 147.7 145.5 147.5 148.2 148.7 151.4 151.1 153.4 161.3 166.5 172.1 171.9 168.4 165.3 168.6 172.5 163.4 173.1 175.2 179.5 183.6 182.8 182.9 179.9 178.4 179 178.9 177 179.6 179.9 179.4 179.2 183.5 185.4 185.7 188 190.3 195.1 199.3 203.8 205.9 206 209.9 213.4 216.2 217.9 217.5 213.4 210.9 206.8 204.7 205.1 205.6 209.7 212.3 213.7 214.3 213.2 212.2 207.8 204.7 200.8 196.5 194.4 192.5 188.7 188 186.3 184.6 184.1 183.1 181.9 181.6 179.6 177.7 172.3 170.2 170.7 168.2 169.2 170.6 171.4 165.2 164.7 173.8 180.4 190.4 195.7 200.1 203.7 207 207.2 209.2 211.1 213 214.8 215.9 216.8 215.9 217.1 209.4 200.2 194.3 193.1 185.5 178 172.5 166.7 165 159.9 154.3 154.7 158.2 163.7 167.1 170.6 172.3 173.9 176.8 178.8
105.7 106.4 106.8 104 103.7 102.7 102.5 103.2 104.1 104.3 104.7 105.1 105.4 107.6 109.9 112.6 113.9 114.5 114.2 120.2 121.9 123.6 123.2 120.1 126.8 127 130.1 131.1 133.2 134.2 132.9 131.6 131.1 132.4 133.2 136.6 137.7 138.2 136.7 131.8 131.2 133 135.6 137.4 139 143.4 152.3 160.2 166 164.9 163.2 157.4 153.8 151.1 150.4 146.4 147.1 143.7 141.2 139 137.3 136 133.9 134 134 133.9 135 134.8 133.7 132.6 132.6 132.2 131.6 131.6 130.1 130.8 133.2 143.2 150.6 155.6 155.5 153.5 151.8 149.3 150 151.9 154.4 155.4 154.3 153.2 154.5 155.9 156.7 157.3 165.3 173.6 175.5 178.6 183.4 187 189.9 192 190.3 183.9 179.7 179.4 178.8 177.4 177.4 179.4 180 185.4 189.1 183.9 182.2 186.3 192.6 199.8 200 201.3 201.7 200.8 204.7 208.8 211.6 213 213.4 210.9 208.1 205.8 202.1 200.1 204 208.7 211.2 213.3 214.3 214.1 211.7 210.5 204.7 202 198.6 195.2 192.3 187.3 186.9 185.3 183 182.6 182 181 180.8 179.5 177.7 174.2 170.3 170 166.9 167.4 169.5 169.4 162.4 168.8 176.9 182.8 191.1 196.5 201.7 204.5 206.2 207.9 209.4 209.1 210.8 212.3 214.5 215.1 213.6 213.5 208 198.5 191.6 191 185.4 179.3 176.5 172.2 167.8 161.4 154.6 153.6 155.9 161.4 164.8 167.1 169 171 173 175.1
106.2 106 105.6 103 101 101.5 103.3 104.4 104.3 104.6 105 105.2 108.1 110.4 112.3 113.9 114.7 116.1 118 120.9 123.4 125.2 127.1 127.6 128.9 129.2 131.5 131.5 134.7 135.4 137.8 137.2 133.9 131.7 132.5 135.2 134.2 134.1 134.6 133.6 131.5 131.5 132.5 138.1 139.7 147.3 154.6 161.1 163.3 165.9 164.6 162.4 157.8 153.6 151.2 150.2 148.5 144.9 142.2 140.6 137.9 136.2 135.1 133.6 133.8 134.2 134.4 134.6 134.4 134.2 137.2 134 133.8 131.9 124.4 132.8 129.9 144.2 153.9 167.5 166.7 164.5 159.5 150.6 154 161.5 155.5 158.5 162.3 161.4 164.1 165.9 167.4 170.2 170.1 176.4 179.6 180.2 182.4 186.1 191.3 194.3 193.6 188.2 181.5 180.5 179.2 179.1 179.1 179.6 179.6 187.4 192.5 192.2 187.5 185.4 186.8 196.9 199.5 198.9 196.8 196 200.1 204.2 206.7 208.6 210 207.7 205.2 203.9 200.6 197.6 201.1 206.3 209.4 212.2 211.9 213.6 212.3 210.1 205.7 201.5 198.7 193.8 191.6 188.2 185.5 184.2 180 180.9 180.8 180.2 179.8 178.8 176.8 174.9 172 170.3 167 165.8 167.5 163.2 163 171.4 176 181.8 190.5 196.5 203.6 207.5 206.7 208.6 207.9 207.3 208.6 210.1 212 214.3 212.9 209.6 205.5 196.5 188.2 186.3 181.7 177.5 175.2 170.7 167 162 153.5 152.6 154.2 158.4 163.3 165.1 167 168.9 171 174.2
106.1 105.5 102.9 100 99.7 100.7 102.9 103.8 104.6 105 106.6 109.1 111.1 112.8 114.1 117.1 117.8 122.2 122.8 125.8 127.7 129.9 131 130.5 121.7 130.7 129.7 134.1 138.6 140.5 146 144.1 140.9 134.9 131.6 133.8 134 134 134.7 136 136.6 139.9 140 139.8 139.7 149.7 155.4 156.6 162.4 164.9 164.9 162.6 158 156.5 154.5 152.5 148.8 144.5 142.4 140.4 138.2 136.4 135.6 134 134 133.7 135.5 135.7 135 136.3 138.4 137.2 138.7 139.3 133 132.9 133.9 135.8 150.9 167.6 169.4 167.7 154.8 155 166.5 170.1 167.2 165.8 167.3 169.4 171.6 171.9 169.9 172.2 174.2 178.5 180.5 181.5 183.4 188.2 192.9 197.2 194.8 188.9 180.5 181.3 180.7 179.5 179.1 179.1 184.5 191.3 194.9 196.8 193.2 190.3 189.5 182.1 193.2 195.3 194.7 191.8 197.2 200 203.1 205.5 206.1 204.7 202.5 201 198.9 196.8 197.1 202.7 207.8 210.6 211.7 212 211.2 210 204.9 200.5 196.6 191.1 188.6 188.5 185.5 181.6 179.5 177 177.4 177.5 177 176.7 175.5 174.3 172 168.9 167.8 165.4 164.5 162.4 163.4 171.2 174.7 179.2 186.8 195.3 201.6 209.4 208.5 207.2 206.4 205.7 206.4 207.9 209.3 211.3 211.3 205 202.4 194.7 185.8 181.1 177.2 174.7 172.3 168.7 164.4 161.2 155.2 152.7 152.8 156.9 159.5 160.1 164.7 167 170 175
103.5 100.5 98.3 98.7 100.8 102 102.9 103.8 105.8 107.8 109.5 111.5 111.9 114.1 115.7 120 123.7 126.7 128.4 131.3 133.3 135.4 135 132.7 129 131.7 131.4 134.3 139 147 153.8 150.5 141.8 133.1 133.1 134 133.9 134.1 135.1 136.8 140 141.7 141 142.1 145.4 148.9 156.4 156.9 159.9 163.7 164.8 165.2 160.8 160.2 157.8 154 149 145.2 142.8 140.7 138.4 137.1 137.5 136.5 136.2 136.3 136.7 137.7 137.5 138 139.3 140.2 139.6 139.5 139.9 132.9 134.2 129.1 145.3 164.3 171.6 166.7 156.4 160.7 174.8 175.7 175.8 175.2 180.4 184.8 179.9 170.8 172 179 180 181.7 183 184.6 185.9 189.7 196.7 197 194.2 189.7 190.9 189.5 189.4 185.9 182.5 183.4 189.8 195.8 198.3 202.4 198.6 195 192.3 189.5 180.8 188.3 189.6 187.1 191.9 197.1 200.3 201.7 203.5 202.6 200.6 199.4 197.7 194.3 196.6 200 205.2 209.5 210.8 210.9 210.9 209.2 204.5 199.7 195.5 190.7 186.8 184.2 182.3 179.2 177.2 175.1 173.5 173.9 173.2 173.1 174.3 172.6 171.4 169.8 168.2 165.8 166.8 166.2 160.1 167.9 173.4 177.4 186.4 193.2 199.5 206.5 207.4 206.3 205.1 204.2 204.5 205.7 206.8 208.8 210.6 205.8 197.8 190.2 184.3 179 174.5 170.3 167.5 165.6 162.1 160.1 157.8 152 153.6 153.9 156.6 160.6 163.9 165.6 171.2 175.6
97.6 97.7 100.1 100.6 102.6 103.4 104 105.7 107.9 110.3 110.7 113.2 113.6 116.7 120.5 123.8 128 130.9 133.9 134.9 139.9 144.8 144.9 139.4 134 132.8 133.4 136.3 138 142 148 148.9 139.8 133.9 135.9 136.1 137.8 137.4 137.5 138.7 141.5 143 143.6 145.5 151 152 154.4 157.5 156.8 162.2 164.2 163.3 162.4 161.5 159.5 157.4 152.5 147.5 145 141.4 138.9 138 138.3 138.9 139.2 138.3 138.8 139.2 139.5 139 138.6 139.6 139.9 141.4 140.1 136.6 134.4 135.3 139.2 157 167.1 162.8 158.7 163.6 172.5 174.8 177.5 181.4 184.5 180.8 172 172.1 183 185.2 186.5 187.5 187.5 187.5 191.6 192.5 196.9 197.1 196.9 199.6 202.4 204.1 203.3 196.1 193.6 194 195.5 198.8 202.1 202.6 200.7 197.1 194.5 191.4 187.8 182.3 184.9 184.7 188.7 193.2 196.5 198.8 201.1 201.4 200.1 198.2 196.2 194.2 197 198.9 203.9 208 209.5 208.8 209.1 207 204.1 198.5 195.5 190.9 187.2 183.7 179.5 177.1 174.3 172.7 171 168.6 169.8 170.8 171.4 170.7 169.5 168.1 166.6 163.9 166.1 168.6 162 161.4 171.2 175.4 182.7 191.1 196.1 202.5 204.8 203.9 203.2 202.7 202.7 203.7 205.1 207.4 209.2 206 202 196 187.6 182.6 177.4 171 166.6 163.2 160 159 157.7 152.2 151.5 154 157.8 162.2 164.8 168.9 174.6 177.1
99.3 100.2 102.2 102.5 103 104.5 106.5 107.9 109.9 112.2 112.6 114.2 115.6 119.7 126.2 129.5 132.7 137.5 139.4 142.9 149.1 153.7 154.4 147.7 138.6 130.6 135.3 136.3 139 142 146.1 147 139.6 136.1 139.3 142.1 143.4 143.6 142 140.7 142.4 145.2 145.8 149.5 151.7 152.2 156.5 156.4 157.1 160.1 162.9 163 163.2 162.8 161.6 160.1 155.6 150.9 146.4 144.1 140.7 140.6 139.9 139.7 139.3 139.1 139.4 139.5 139.3 138.5 139.3 141.6 142.5 141.9 141.1 139.1 136.9 138.8 133.4 150.5 161.7 159 157.6 159.5 165.2 172.3 174.8 179.3 179 173.2 172.5 180.7 186.7 190.7 192.1 192.4 192.3 190.9 193.4 198.2 199.9 201.5 207.4 210.5 211.2 210.6 212 205.9 202.9 202.7 201.5 199 201.8 202.6 199.4 196.7 196.1 192.7 189.8 187.8 183.6 183.5 183.2 187.4 191.7 195.3 198.5 200.4 197.6 195.6 193.7 192.6 195.4 199.8 203.2 205.9 206.8 206.8 205.3 203.6 201 197 192.7 188.9 187.3 183.9 180.3 178.3 173.5 171.6 170.6 167.9 165.9 166.4 167.7 168.2 166.9 167.7 165.9 162.8 166 168.3 163.7 159.8 169.2 174.6 179.5 188.6 193.3 198.9 202.3 202.3 201.7 201.5 200.8 202.1 204.2 206.3 208.2 206.6 202.9 198.1 189.5 182.7 178.8 172.1 166.4 162.2 159.3 157.1 157.5 151.2 151.1 153.5 156.8 164.4 167 173.5 176.1 177.7
101.4 102.4 103.2 103.9 104.6 106.6 109 110.9 111.9 113.3 114.6 116.2 118.7 122.2 129.8 135.8 140 142.8 144.7 149 154.2 155.6 151.7 145.4 141.4 136 136.4 137.6 139.5 144.7 147.3 143.2 137.6 138.7 142.9 147.3 150.5 149.9 148.8 146.9 146.2 147.4 148.2 151.3 151.7 151.9 156.7 157.1 156.3 159 161.5 161 161.2 159.7 159.3 156.2 153.6 149.4 146.9 145.6 143.3 142.5 140.9 140.2 140.4 139.8 139.4 139.8 139 137.8 141.7 145.7 149.2 151.3 150.1 146.6 144 139.6 131 145.3 156.8 157.5 157.5 157.9 164.9 168.5 171.7 172.1 171.7 173.1 176.1 182.2 188 194.4 196.4 199.8 196.8 194.9 197.3 200.7 205.2 209.4 214.2 211.9 212.6 210.7 211.1 210.5 208.6 205.8 203 200.2 201.2 199.9 199.2 195.1 193.7 195.3 189.7 188 184.1 181.3 179.7 182.8 186.7 191.7 195.6 196.1 194.9 193.7 193 192.4 196.4 197.7 200.4 202.9 204.3 204 202.2 200.2 197.3 193.9 190.2 185.6 183.4 182.1 180 177.5 173.5 171.3 170 168.1 166.8 163.6 165.8 166.4 164.5 163.9 164.6 165.3 167.3 168 162.6 160.1 171.2 175.6 178.5 185.4 191.6 195.6 199.2 200.2 200.2 200.4 199.6 201 203.2 205.7 207.5 205.7 202.1 197.7 190.8 185.4 180.1 173.4 167.9 162.6 157.6 155.2 154.5 153.3 150.9 152.4 158.9 166.6 169.7 174 177.1 178.6
102.8 103.9 104.5 105.3 106.2 108.3 110.7 111.8 112.8 115 116.3 119.1 121.6 128.7 135.2 141 145.3 147.3 149 149.1 151.3 147.3 143.5 138.7 136.4 131.9 136.6 139 142.3 145.5 144.2 135.6 135.5 140.7 147.9 152 156.2 155.3 153.8 150.1 146.9 149.6 150.8 152 154.3 156.8 155.8 158.2 159.3 159.5 160.5 161.2 160 156.7 155.3 153.7 152.4 149.5 147.2 145.3 144.7 145 143.8 141.5 141.6 142.4 140.9 140.8 141.2 141.8 145.7 148.4 151.7 154.2 154.3 153.8 151.2 145.5 132.7 143.8 151.8 151.5 154.2 155.8 160.8 165.7 169.1 170.3 168.8 173.4 177.7 184.3 188.9 196.6 200.6 202.4 200.5 199.6 199.9 202.8 206.5 210.5 213 213.3 213.2 211.5 210.1 209.9 208 205.6 202.5 199.5 197.6 199.2 194.2 190.6 191.5 190.6 190.5 185 186.3 180.9 177.2 179 182.7 185.4 190.1 190.3 190.5 190 191 192.8 194.8 196.5 198.8 200.1 201.7 201.1 199.7 198.5 194.9 191.1 187.9 186.7 182.6 180 179.5 176.7 173.6 171.4 169.4 167 165.4 163.3 161.3 164 161.8 162 165.1 167.4 168 166.9 160.6 162.5 173.3 175.6 178.1 183.9 190.6 193.5 196.6 198 198.5 198.9 197.8 199.2 201.2 203.8 206.3 206.3 202.3 198.3 190.9 186.6 183.8 175.6 166.5 161.6 157.6 154.4 152.2 152.1 150.2 151.1 161.5 167.7 173.5 175 176.4 178.4
101.5 103 104.3 105.7 107.3 108.7 110.9 111.4 113.6 116.3 119 125 129.8 134.7 140.7 144.7 147.5 148.5 146.4 142.1 141.2 141.2 140.4 137.1 132.7 132 138.5 142.5 139.1 136.1 135.3 136.2 141 147.8 152.2 157 159.6 160.1 157.8 153.6 149.1 151.2 153.8 156.3 157.7 162.1 166.4 167.5 164.1 162 162.4 162.8 158.7 157.6 155.7 154.4 153.5 150 148.1 147 147 146.1 145.6 144.1 143.9 144.1 143.3 143.5 143.6 145.2 148 150.9 153.8 156.4 158.5 159.1 156.4 152.8 141.2 137 143.4 144.3 149.9 153.4 154.6 161.3 166.9 161.4 166.6 173 179.3 185.1 193 198.8 205.6 205.4 204.3 205.3 205.8 206.1 207.5 208.6 210.1 211.1 212.5 209.8 208.2 206.9 204.8 202.7 200.6 198.6 195.9 196 190.9 187.3 190.6 188.3 186.6 185.7 182.7 180.2 176.5 175.5 179.4 181.4 184.7 185 185.7 187.2 193 195.1 195.7 195.7 196.9 198.1 198.8 197.9 197.9 196.7 193.1 190.2 188.3 184.6 180 176.6 176.1 176.1 173.4 171.6 170.8 168.3 165.8 163.2 160.4 160.5 159.2 160.4 163.3 165.7 166 165 157.3 161.5 172.7 175.4 177.1 182.1 188 192.5 194.7 195.8 196.7 196.8 196.2 197.7 199.5 202.9 204.8 204.7 202.4 198.8 191.3 184.9 179.9 171.7 165.3 161.4 157.5 154 151.7 150 150 151.8 162.9 168.8 175 178.2 177.8 179.5
103 104.5 105.3 106.1 106.5 106.7 109.1 112.3 116 120.4 126.1 132 136.7 140.3 142.3 143.3 141.8 141.1 138.7 138.4 140.3 139 135.6 132.5 131.4 134.4 138.1 136.2 135.8 136.7 140 144.4 149.8 154.3 157.5 163.9 167.1 167.3 164.7 160.8 154.7 154.8 157.6 160.5 162 166.2 170.9 172.2 169.9 169.1 166.8 165.2 163 160.8 159.3 157 154.6 151.7 150.6 151 149.3 149.5 147 145.6 144.3 145.4 145.8 145.5 146.1 148.7 151.7 154.4 157 158.5 160.1 161 161.4 160.4 150.3 140.2 142.9 143.3 145.7 146.1 146.2 149.6 152.3 158.6 165.6 171.6 178.6 187.6 195.5 202.1 205.4 207.6 209.3 210.4 210.7 210.2 209.5 210 211 211.4 212.4 209.7 206.9 206.1 204.2 200.6 197.6 195.3 191.6 188.8 187.6 186.4 188.2 187.8 185.9 183.9 181.4 178.9 174.1 174.7 176.2 179.4 183.4 188.5 190.4 189.8 194.5 195.6 195.9 194.3 195 195.2 195.5 191.4 194.1 193.5 195.4 190.5 186.7 183 178.9 175.6 174 173.5 172 170.9 167.2 165.9 164.4 162.6 162.3 161.7 157.5 159.9 161.1 163.5 163.6 162.8 155.9 161.6 171 175.3 177.7 180.3 183.8 189.3 192.1 193.3 195 194.8 194.7 196.4 198.2 200.4 203 203.1 201 198.4 194.9 184.8 179.7 173.1 167.3 160.9 155.6 152.7 149.5 148.7 149.6 154.8 166.2 170.4 175.1 177.7 179.4 180.6
103.4 105 107.2 108.5 107.9 109.7 111.9 115.7 119.6 125.9 132.2 138.1 137.5 139.3 138.9 136.3 134.6 133.8 133.8 134.7 136.8 134 131.9 132.2 132.6 132.2 133.9 138.4 144.1 147 149.4 153.2 157.6 161.2 165.5 169.4 171.5 171.3 169.2 163.6 158.4 159.2 161.5 165.6 170.9 177.1 178.3 176.8 174.6 174.1 171.3 169 166.2 163.5 161 159.8 158 157 156.2 152.3 151.5 151.1 147.5 147.9 147.9 147.6 147.5 147.5 148.8 151.5 153.9 156.4 158.7 160.2 160.8 160.8 160.9 160.4 156.3 148.9 140.4 143.1 142.4 141.9 147 153.8 155.6 157.7 163.2 170.5 178.4 186.7 194 199.9 203.4 209.6 211.4 212.2 213.7 213.3 212.5 211.5 212.4 212.1 212.5 210.1 207.4 208.2 202.9 198.1 193.8 191.8 189.3 186.3 185.2 185.6 184.3 184 183.2 182.8 179.2 176.7 175.6 173.6 174.3 179 184.6 189.2 192.8 194.3 195.7 195.6 194.9 192.5 193.1 193.2 193.3 193 194.2 189.7 193.8 189.9 185.8 182.6 179.6 175.2 173.4 171.3 167.9 167 165.7 165.3 162.9 161.9 161.2 160.8 157.9 157.8 165.1 163 161.2 157.7 156.1 166.2 172 174.6 177 180 183.2 186.4 190.6 192.4 194 194.3 193.3 195.1 196.9 199.3 201.1 202 202 198.9 193.7 185.6 180.1 175.1 166 159.4 154.1 150.3 148.3 150.2 151.2 157.7 165.3 169.7 171.7 175.8 179 180.5
103.3 105.1 107.1 108.2 110.9 112.4 114.4 116.8 122.1 128.6 135.1 136.9 134.3 132.9 131.3 128.9 126.7 126.8 127.1 128.5 128.8 128.6 129.4 133.3 137.2 140.2 144.2 146.5 151.8 156.3 156.6 157.4 162.8 167.5 170.5 172.9 175 174.7 173.6 168.5 161.3 160.1 163 169.6 173.3 181.6 186 189.2 185.1 181.6 176.7 173.7 170.8 167.7 165.6 162.9 160.3 159.7 159 157.8 152.8 151 150.3 151 150.8 150.3 150.2 149.7 150.5 153.6 156 158 159.6 160.8 161.3 159.6 157.9 158.6 158.2 157.3 144.3 143.9 143.3 141.7 154.5 160 162 162.9 163.1 170.2 178.3 185.1 190.8 195.8 201.6 206.4 210.2 213.3 215.2 216.3 215.5 214.5 213.6 212.5 211 209.7 209.3 204.7 201.5 197 193.1 190.9 185.7 185.3 186.3 187.4 187.8 186.6 185.7 181.4 177.5 175.2 173.6 173.6 174.8 177.8 181 184.5 189.7 193.4 197.6 196.4 193.9 192.4 191.1 191.8 192.7 192.5 190.4 188.8 189.7 188.9 185.3 181.1 177.7 176 173.1 171.2 168 164.9 164.7 164.2 162.4 161.9 160.7 158.7 156.5 155.6 161 162.2 156.9 153.5 162.1 167.3 171.5 173.9 176.6 179.9 183.3 186.4 189.2 191.6 193.1 193.5 192.2 193.2 195.5 198.2 199.2 200.8 200.6 197.4 195 187.2 181.1 175 166.5 159.9 152.3 147.9 148.7 150.7 153.7 157.6 161.6 164.9 170.3 174.5 179.2 180.8
104.3 106.5 108.1 109.3 112.8 115.2 116.2 117.1 121.2 126.2 129.5 127.6 127.7 127.3 125.5 125.2 125.9 126 126.3 127.6 127.4 128.6 130.5 133.5 138.7 143.1 143.9 147.4 153.7 160.1 164.4 161.1 162.5 165.8 171.5 175.4 176.7 177.8 176.5 169.1 164.6 161.7 165.2 174.1 178.4 184.7 189.4 194.6 197.7 195.1 184.9 179.4 176.6 173.2 168.9 167.9 161.9 160 159.9 159.5 158.6 153.9 152.7 153.8 153.7 153.2 152.9 152 152.6 155.5 157.7 158.9 160.2 161.4 160.3 158.5 155.7 157.5 157.9 152.2 136.2 144.5 143.9 147 157.5 166 169.4 173 172.8 174.3 181.2 184.5 187.3 192.9 200.2 206.9 212.6 216.4 219.8 219.5 217.3 215.7 213.1 210.8 208.9 207 205.3 203.2 200.4 195.7 194.9 203 187.3 186.6 187.9 189 187.5 188.8 184.6 182.3 178.6 175.9 174.8 172.4 173.9 176.1 179.2 182.8 187.6 189.6 194.2 194.7 192.7 191.7 191.4 191.9 192.2 191.1 189.5 188 186.5 183.9 181.8 179.1 174.4 174 171.7 169.9 167.2 164.9 162.8 162.1 161.3 161.1 160.9 160.2 156.2 156.7 156.6 160.3 158.5 154.6 162 165.3 169.5 173.4 177 180.3 183.5 186.3 188.6 190.3 191.2 192.9 191.4 191.9 192.8 196.4 198.5 198.9 198.9 196.1 195.2 188.5 181.3 175 167.1 158.8 151.6 147.7 148 150.3 153.2 157 161.2 165.8 170.5 176.1 180.6 181.8
105.9 108.1 109 111.6 114.6 117.1 118.5 120.9 124.1 124.6 123 122.4 125 125 126.8 127.7 128.7 128.7 129 128.6 128 127.7 131 135.8 140.5 142.8 142.8 146.3 152.5 158.4 159.3 158.5 163.7 166.8 171 176.3 177.6 176.9 176 170.3 164.5 161 169.3 177.6 183.9 186.8 191.4 196.2 200.7 201.3 194 187.1 182.7 176.9 174.9 170 167 161.1 161 160.4 159.8 159.1 156.6 154.9 154.5 154 154.5 153.6 154.5 157.6 159.8 161.2 161.1 161.8 159.9 157.2 150.5 146.7 149.8 147 135.7 145.4 147.3 153.2 167.6 173.6 175 176.8 179.3 181.5 183.7 184.9 188.6 193.1 200.2 211.2 219.2 224.3 220.9 220.1 218.9 216.1 213.4 210.7 209.3 206.1 205.1 202.9 200.4 201.6 205.4 201.7 193.8 185.9 186.9 189.4 188.8 187.9 189.5 187.5 183 178.8 173.8 170.9 172 173.5 175.4 180.4 185.9 188.9 191.4 191.2 192.6 190.9 191.6 191.9 193.1 190.8 189.3 187.9 185.3 181.2 178.6 175.7 172.3 169.8 165.2 163.5 164 163.7 161.6 160.6 161.2 160.4 160.2 158.6 155.2 161.1 152.9 153 162.9 163.8 165.1 165.6 170.2 173.4 177.3 180.7 183.4 185.7 187.7 189.4 190.2 190.6 190.1 189.7 191.3 193.4 195.6 198 197.7 194.8 193.5 187.9 179.9 172.6 166.1 157.7 151.2 147.1 147.2 148.6 151 156.9 162.2 166.9 172.6 178.2 181.6 182.9
106 107.9 110.4 115 117.7 118.5 120.2 122.5 123 122 122 123.9 124.9 128.3 129.1 129.2 129.3 129.6 128.8 128.3 127.4 129 132.9 136.8 141.9 143.4 144.4 145.3 149.3 152.1 153.1 157.7 161.8 167.3 171.7 175 175.8 175.9 175.4 171.7 165.8 163.5 170.9 177.5 187.2 187.9 190.8 195.4 198.3 202.3 195.8 194.2 186.9 183 179.1 175.5 172.7 168 161.8 161.3 161.3 160.5 159.5 156.9 155.9 155.7 155.1 154.9 156.2 159.5 162 163.5 164.3 164 163 154.8 147.5 141.4 136.8 143.4 142.9 144.8 154.8 169.1 173.6 176.7 180 183 185 190 188.8 190.5 192.9 200.5 207.5 215.9 220.6 223.5 220.9 219.5 218.8 216.7 214 212.2 210.5 208.3 206.8 204.7 202.7 203.7 202.3 201.8 202.2 190.5 189.6 191.3 190 191.1 189.5 188.8 187.1 183.7 179.1 174.2 170.4 170.8 173 177 182.6 185.3 188.9 191 192.5 196 196.4 195.2 195.1 192.4 189.8 187.5 184.4 180.5 177.5 173.5 168.3 169.6 169.8 168.4 164.7 161.2 160 159.7 158.7 159.1 159 157 155.3 161 152.1 154.7 166.5 165.1 165.5 167.1 169.9 175.1 177.5 179.7 181.6 184.3 185.8 186.9 188.1 188.4 189 188.3 189.9 192.5 194.4 196.6 198.9 196.5 190.4 186.7 178.3 170.5 163.8 156.3 150.2 147.6 146.7 147.9 151.5 154.1 161.1 166.6 172.9 177.2 180.6 183.9
106.8 108.9 112.3 116.7 120.3 121.8 122.6 122.8 123.2 125.2 127.7 129.2 130.5 130.1 129.6 129.5 128.7 128.7 129.1 128.9 129.6 130.9 133.5 137.4 143.3 144.2 144 145.3 146.3 147.1 151 159.4 162.8 166.8 169.8 170.8 173.2 174.5 176 173.8 169.3 161.6 169.2 175.2 180.5 185.1 189.2 192.8 196.2 197.9 195 194.1 194.9 192 187.5 183 179 175.2 169.7 162.9 162.1 161.3 160.6 159.9 158.7 158.2 157.8 157.4 159.3 161.8 163 164.7 166 165.8 156.9 146.1 141.4 139.8 141.2 144.5 146.4 150.3 159.7 170.6 175 180.3 183.2 189 194.3 196 195.7 197.3 201.4 207.3 213.8 217.7 219.6 221.1 221 218.8 218.5 217.4 215.1 213.5 212.7 210.5 208.9 208 205.8 203.3 202.5 202.2 201.8 203.2 195.3 193 190.9 192.8 192.8 192.5 190.6 188.6 183.6 178.2 173.3 169.4 171 175.2 181.7 183.8 186.1 189.6 194.2 199.6 203.8 202.1 199.7 197 193.3 189.5 186.6 184 181.5 176.3 174.4 173.5 171.3 170.1 167.3 165.3 163.3 162.1 159.8 157.8 156.3 156.2 155.4 162.3 157.9 152.7 165.1 171.6 170.2 167.7 170.4 174.1 178 179.4 180.2 181.4 184 184.3 185.8 186.2 186.8 187.1 188.5 191.1 193.5 195.5 198.6 197.8 189.2 181 177.4 169.8 163.3 155.6 150.8 147.3 145.8 147.5 151.3 153.7 160.9 169.3 172.4 177.5 182.1 185.5
107.2 110.2 114.9 117.2 119.5 122.1 125 124.9 126.5 128.6 130.6 132.2 129.9 129.4 129.2 128.8 127.9 128.4 129.1 129.6 131.2 132.8 135.4 137.9 143 143.8 143.6 144.6 145.1 146.8 151.5 158.1 162.2 164.8 166.5 172.4 175.9 178.1 179.4 176.7 174.3 169.9 171.3 173.5 177.8 180.4 186.1 190.9 194.2 195.8 195 199.6 200.3 200.3 198.3 195.6 186.6 180.1 176.3 170.9 163 162.4 161.6 160.8 160 158.6 158.1 158.2 163.3 164.8 166.3 167.2 167 166 151.5 142.8 141.2 138.6 143.3 151.7 159.7 157.9 168.3 171.4 176.1 182.2 187 192.4 195.6 198.3 199.6 201.2 205.4 210.1 213.9 216.5 218.9 222.9 221.4 217.9 217.9 216.5 216.6 215.2 214.7 213.9 209.7 209.1 207.7 205.2 202.9 202.7 205.3 203.9 196.2 192.5 191.8 193.2 192.4 192.1 193 191.2 187.1 183.5 177.5 171.8 168.1 172.1 175.9 178.9 181.5 186.1 194.7 199.3 202.9 207.5 203.3 200.1 195.6 192.7 190.3 187.6 185.4 180.9 179.3 175.5 173.2 171.5 167.9 167.1 164.8 163.6 160.2 157.8 157.1 155.5 155.5 162.6 159.2 151.5 160.6 169.6 170.1 171 170.2 174.4 175.6 176.6 178.4 179.3 180.7 181.8 183.5 184.1 184.7 186.2 187.8 190.1 193 195.3 197.2 198.7 189.8 182.5 173.4 165 162.6 155.8 150.7 146.7 145.5 146.8 151.4 153.8 158.4 168.8 170.7 177.9 181.7 185
107 110 116.2 122 125.5 125.5 125.8 127.4 130.2 131.3 131.8 131.5 130.6 129.4 128.1 127.7 128.1 128.7 129.4 130.5 132.1 134.6 137 139.6 141 142 142.7 143.2 144 146.2 149.5 154.1 159.2 163.4 169.2 173.6 177.6 181.2 183.3 181 179.2 177.8 175.6 176.1 176.7 178.4 182.5 187.9 190.6 193.3 196.6 201.1 203.9 204.6 204 202.3 195.8 192.2 183.1 178 169.6 163.2 162.3 161.6 161 159.1 158.2 160 162.7 166 168.3 168.6 168.2 162.4 148.8 142.9 140.9 139 151.8 160.4 164.7 166.4 171.3 174.5 179 184.6 188.9 193 196.2 198.9 200.6 201.1 205.6 208.5 211.6 215 217.3 218.1 216 215.6 214.7 213.1 215.8 215.6 215.5 214.1 212.8 211.2 209.7 207.3 204.9 202.5 200.4 196.7 194.1 191.7 192 190.9 190.5 189.1 188.2 188.4 187.2 185.6 179.7 173.2 169.2 167.9 173.4 175.8 181.2 186.7 193.3 198.2 202.3 206.4 204.3 200.6 198.7 193.1 191.6 189.1 187.1 184.6 180.2 179.1 173.2 172.9 168.3 166.7 164.8 163.1 160.7 158.9 157 155.9 155.2 161.5 159.5 151.2 159.8 172.6 172.4 172.4 171.8 173 175.3 176.1 176.8 177.5 179.1 178.5 179.2 182.2 184.4 186 187.2 189 191.8 194.6 195.3 197.1 192.9 183.5 176.9 169.2 163.3 158.5 151 146.7 145.7 146.2 150.6 154 156.2 163.1 170.7 174.8 179.1 182
107.7 109.8 116.2 122.5 125.5 124.7 126.9 128.1 129.1 130.7 130.1 129.7 129.1 128.7 128.1 128.4 128.8 129.5 130.6 131.7 133 137.2 138.5 138.1 139.2 140.5 141.3 141.8 143.8 145.6 148.6 153.3 157.3 162 170.5 175 179.4 183.3 187.3 188.8 183.6 181.5 180.4 180.4 180 180.2 181.7 184.8 188.2 192.5 196.5 204.7 207 208 206.4 204.2 200.7 195.1 189.7 181 177.3 167 163.1 162.3 161.2 161.4 161.4 162.2 164.7 167.6 170.1 170.5 169.7 160.1 149.5 142.7 140.4 139.7 154.8 162.5 166.4 168.6 174.7 178.8 180.7 186.5 188.9 191.5 195 198.4 199.6 199.9 201.6 205.7 208.9 213.3 213.8 214.4 213.4 212.3 213 213.4 213.9 215.4 215.2 214 212.6 211.5 211 210.2 208.6 206.8 203.6 200.4 196.2 192.6 190.2 189.4 188.4 186.2 185 185.3 186 185.1 180.7 174.1 170.2 167.1 172.6 176.5 182.7 186.2 192.3 196.1 203.7 206.1 204.8 201.1 199.5 195.9 192.7 189.5 185.2 183.7 180.6 177.4 174.4 171.6 170.4 166.6 163.8 162.3 160.9 158.6 156.8 155.5 155 162.9 160.8 151.7 161.6 174.1 171.4 172.3 172.4 172.7 175 175.8 176.5 176.5 176.3 177.3 178 179.8 182.5 185.6 186.8 187.7 190.2 192.7 194.6 196.1 196 185.8 179.7 172.8 165 158.8 152.6 146.4 144.8 145.1 148 153.6 156.8 158.5 167.5 170.4 175 178.4
109.9 110.3 112.8 116 118.3 121.8 124.8 129.2 129.2 129.8 129.7 129 128.8 128.5 128.3 128.6 129.6 130.7 131.8 132.3 133.6 138.3 136.7 136.2 137.4 138.7 139.9 141.4 143 145.3 148.8 152.9 157 161.2 168.4 176 179.5 184.1 188.3 191.3 190.2 184.7 184.1 182 180.4 183.4 185.9 188.7 188.1 194.3 199.1 206.3 214.9 210.4 206.9 203.1 200.8 196.2 191.2 187.3 182.2 174.4 166.6 163.4 160.9 161.4 161.4 163.7 166.5 169.4 171 171.6 168.3 160.6 149.2 142.4 141.7 144.2 157.6 163.1 167.5 168.9 172.2 179.4 182.6 186.1 188.8 189.8 193.3 195.4 196.2 196.9 198.3 201.7 207.4 209.6 209.6 209.7 209.7 209.3 209.3 210.8 211.1 211.8 212.5 213 212.4 211.3 210.7 210 209.2 208.4 205.6 202.8 199.2 194.4 191 188.2 185 183.5 182.7 182 182.6 182.1 178.7 174.1 170.6 167.5 173.2 177.7 182.6 187 191.8 196.3 198.6 206.4 206.9 202 200.6 197.9 194.6 191.1 185.6 181.7 178.8 176 173.7 170.7 167.7 165.1 163.5 162 160.6 159.1 157.9 156.3 155 162.6 160.5 151.8 161.2 170.4 171.6 171.2 172.6 173.4 173.8 175.4 175.9 175.6 176.6 177.4 175.5 180.2 182.4 184.8 186.5 187.1 188.5 190.6 191.9 194.3 194 190.1 182.8 176.2 166.6 159.1 152.9 147.2 144.4 145.8 148.5 153.1 156.2 158 162.6 167.3 171.6 173.8
110.6 114.8 117.9 122 127.4 127.3 128 129.9 130.3 130.7 129.8 129 128.6 128.5 128.5 128.8 129.2 129.2 131.7 133 134.1 134.7 133 134.2 136 137.4 138.2 140.1 141.5 144.8 149.2 152.9 156 159.9 166.7 175.2 178.5 182 186.5 190 191.6 189.3 188.1 185 182.1 183.8 187.6 191.6 193.8 197.9 202.3 205.2 208.9 208.2 206.1 202 199.9 196.5 194.4 193 186.9 181.3 173.9 167.9 163.6 161.6 162.5 165.5 168.6 171.1 171.4 171.2 167.5 163.8 148.5 146.9 148.4 148.1 163.7 166.8 170.9 172.9 173 179.5 182.8 185.7 186.9 188.1 190.4 192.1 193.3 194.7 195.8 199.5 202.2 205.7 205 204.7 205.4 206.4 207.7 207.6 208.7 210.4 210.6 211 211.4 211.3 210.6 209.8 209.4 209.4 205.4 204.5 201.6 196.8 192.3 188 182.6 180.7 180.6 180.9 177.8 177 175.5 172.5 170.1 166.3 173 177.3 181.5 186.9 190.7 196.1 196.7 203.9 206.5 207.8 203.4 199.3 195.2 190.6 187.2 181.3 178.9 178.1 174.3 173 171.4 168.3 165 164.4 161.8 160.4 159.1 157.4 155.9 161.7 161.8 151.6 161.9 169.2 169.8 173.3 172 173.6 174.3 175.1 176 177.3 176 172.1 174.7 179.4 184.5 183.7 186.2 186.6 187.1 188.5 189.6 192 194.2 194.1 186.8 179.4 170.1 160 153.4 149 145.1 146.1 148.5 152.7 155.8 157 160 163.4 166.8 171.1
108.5 115.2 119.1 120.6 126.7 130.9 130.2 130.5 130.5 130.4 130.2 129.6 130 128.9 128.9 129.4 131.1 130.6 132.3 132.2 132.3 131.1 131.6 133.5 135.5 137 139.1 141.6 143.5 144.9 149.1 153.6 156.1 159.5 165.4 173.6 177.4 180.6 184.5 188 190.1 189.8 189 188.6 187.4 187.1 190 193 195.6 198.2 203.3 203.7 205.5 206.1 205.3 203.2 201.4 200.6 198.8 198 194.7 186.3 178.1 170.7 166.1 164.1 164.9 170 171.9 173.7 173.1 168.9 162.2 161 148.8 146.9 146.2 150 166.3 173.1 175.9 177.7 176.6 178.7 181.7 184 185.3 186.4 187.5 189.4 192 192.4 193.4 195.5 197.6 200.4 202.8 202.6 202.6 204.6 205.1 205.7 205.8 208.2 208.3 208.8 209.8 210.7 210.6 210.3 210.7 210 206.7 204 202.6 197.5 193.2 190.9 184.3 182.1 181.7 182.2 179.3 177.2 175 173 170 165.2 171.7 177.3 179.5 184 190.4 195.8 198 203.3 206.5 208.9 207 201.3 194.6 192.2 188.6 182.9 179.4 178.9 177.7 175.3 173.1 171.4 169.4 166.2 164.5 162.7 160.2 156.8 154.8 162.4 162.1 151.9 160.6 165.4 169.1 170.6 172 173 173.8 176.9 177.7 177.5 174.4 170 172.3 176.9 180.7 182.6 185 186.8 186.8 186.8 188.6 190.4 191.5 192.6 186.9 180.1 171.8 161.7 153.4 149 144.5 145.5 148.6 152 154 155.5 157.6 161.1 165.7 167.5
108.5 111.2 116.1 122.3 126 129.4 129.1 128.3 130.1 129 131 130.6 131.3 130.5 129.7 130.4 131.5 130.6 129.7 130.6 128.7 130.6 132.6 133.3 136.6 137.3 139.5 142.5 145.4 148.4 149.1 154.1 158 160.2 163.7 170.5 176.2 179.5 182.5 185.9 188.5 189.1 188.5 187.7 188.4 190.5 192.5 194.3 196.1 200.5 204 202.9 203 204.4 203.5 204.5 203.5 205.3 205.3 205.5 202.5 192.9 182.5 174.4 169.3 167 166.7 171.8 174.4 175.9 174.9 171.5 162.9 153.7 146.9 146.9 142.3 150.5 169.4 176.1 180.1 180.3 176.6 178.4 180.8 182.4 183.6 184.7 185.8 187 190.1 190.7 191.5 192.5 195.2 197.3 199.5 202 202.2 201.7 203.2 204.7 204.7 204.8 204.4 206 207.9 209 210 209.7 210.3 208.6 206.8 203.3 203 198 194.8 191.4 186.7 184.1 183.2 183.9 183 180.8 177.6 176 169.9 165.7 171.4 179.1 180.9 186.1 189.9 194.7 196.9 201.6 204.9 207.7 208.5 202.4 195 192.1 189.2 184.5 182.6 182 180.1 178.5 176.5 174.5 170.6 169.1 167 163.5 161.7 159.1 156.3 163 162.7 150.8 160.9 167.4 171.1 171.8 171 170.5 176.4 179.1 179 176.4 172.5 166.8 169.4 174.1 178 181.3 183.9 186.3 185.9 185.8 187.9 188.1 188.8 190.3 187.1 178.8 171.1 162 154.1 148.7 143.8 146.1 148.8 151.5 153.1 154.6 155.9 160.9 165.2 163.3
109.1 114.7 119.8 121.9 124.4 125.5 126.9 127.5 126.9 127.7 129 129.2 129.7 130.7 130.5 130.2 130.3 128.8 128.6 127.7 129.1 130.7 132.1 133.1 135.9 138 139.6 142 145.8 152.4 155.4 157.7 157.8 160.9 164 169.1 173.1 177.3 180.7 183.8 187.2 187.5 187.5 187.1 187.3 189.7 191.3 192.4 194.1 199.3 200.4 199 201 202.2 202.7 204.3 205.4 205.7 208.1 209.1 207.6 200.6 189.6 179.9 174.3 170.4 168 171.6 175.1 176.4 174.7 171.6 165 155.6 146.9 146.9 142.5 156.4 172.1 178 182 181.3 176.7 178.4 181.2 180.8 181.1 182 183.5 184.5 187.2 188.6 189.3 189.8 193.3 194.3 196.3 198.4 201.7 198.7 199.8 200.1 203.3 203.4 201.7 203.7 205.9 207.3 208.5 207.3 207.9 206.9 206 204.6 201.5 200.9 198.1 193.7 189.8 187.2 186.2 185.9 185 182.1 179.4 176.8 171.6 165.7 172.8 176.6 181.3 185.5 190 195.1 197.2 200.2 204.4 205 207 202.3 197.6 194.7 191.8 188.7 186.8 185.2 183 181.3 178.3 176.3 173.5 171 168 165.6 163.4 159.7 157.8 163.4 163.4 151.1 161.5 168.8 171.8 173 176.4 175.6 177.7 180.5 178.2 173.3 169.6 166.5 167.6 171.6 176 179.3 182.1 184.8 185.3 185.2 186.4 186.6 187.2 188.1 187 178.5 170.6 161.8 154.1 148.8 144.6 144.3 147.7 149.8 152.7 159.4 158.1 158.9 160.4 164.3
109.9 114.9 118.6 122 124.5 125.5 124.8 124.9 124.8 126.9 127.5 126.7 127.7 128.8 128.5 129.3 128.3 126.8 126.1 127.1 128.7 130.7 131.8 132.9 135 137.4 140.2 142.7 146.3 155.1 159.2 162.1 161.4 161.6 163.3 167.2 170.6 174.4 178.5 181.7 185.6 186 185.3 185.6 184.4 187.2 188.9 189.4 190.3 192.6 195.1 195 200.2 201.8 202.2 203.3 204.8 206.2 208.5 210.3 210.3 208.1 197.2 186.8 178 173.9 169.5 168.5 171.1 173.4 172.8 169.5 163 154.5 146.9 146.9 143.5 161.6 174.4 180.6 182.7 181.9 175.6 174.1 178 179.1 179.1 179.6 180.6 183.1 184.3 185.4 185.9 188.1 191.3 191.9 193.9 196 197.1 195.8 195.2 195.4 196.8 198.2 199.2 201.9 204 205.3 205.8 205.3 205.1 204.4 204.7 202.4 202.2 201.2 200.8 196.3 193.1 190.4 188.9 187.1 185.1 182.4 181 178.5 172.6 163.4 171.5 175.7 180 185.3 188.5 193.2 197.1 197.5 202.8 203.2 205.7 203.7 199.8 196.8 194.9 193.8 189.9 190.3 187.1 183.9 179.7 178.1 175.8 173.3 170.2 167.6 165.1 161.8 158.7 162.4 151.3 154.2 165.3 170 170.8 179.5 186.1 187.3 188 186.6 180 171.4 165.6 164.7 163.8 169.3 173.1 176.7 179.4 182 184.1 184.6 185 185.5 186 187 185.9 179.5 169.9 162.7 156.1 149.6 143.1 143.3 144.2 148.7 155.3 160.1 160.6 162 163.1 164.9
110.1 113.4 116.6 120.7 123.9 125.2 124 122.6 122.7 125.6 125.7 126.3 125.2 125.7 126.6 126.8 126.2 128.3 128.1 129.1 127.7 130.5 131 132.8 134.8 137.3 141.1 143.7 149.3 154.2 159 164.1 166.7 165.9 165.3 166.5 168.8 171.5 176.3 180.4 184.5 184.4 183.2 181.4 179.7 182.6 184.5 186.1 187.2 188.5 191.3 193.2 198.2 199.9 200.5 202.4 204 205.9 208.2 210.9 211.8 210.4 206.4 193.3 183.6 177.5 171.3 166.5 163.3 166 167.8 165.1 160 152.8 146.9 146.9 146.1 163.4 176.1 181 182.6 181.7 180.5 177.9 174.7 175 176.8 177.2 178.8 180 182 182.2 184.7 187.4 189.6 189.1 190.6 192.7 194.5 193.5 190.4 191.8 194.2 195.3 199 201 202.3 202.5 203 202.8 202.6 201.5 202.4 200.1 200.4 202.7 202.8 198.3 196 193.8 191.4 187.1 184.5 182.5 178.4 176 171.6 162.4 168 174.5 178.3 183.1 186.5 190.5 195.7 198.9 202.6 203.2 206.6 205.1 200.4 197.5 196.8 195.9 192.7 192.8 191.7 186.1 182.7 178.9 177.1 174.8 171 168.8 165 162.6 161 162.2 151.4 156.8 165.5 170.9 179.9 187.9 195.7 199.2 200.8 193.4 182.8 170.8 164.2 164.2 162.1 166.4 170.6 174.1 176.7 180 181.9 183.5 184.6 184.4 185.5 185.7 183.5 180 170.2 162.6 156.5 150.7 142.4 143.8 148 151.7 156.5 158.3 158.8 159.7 161.4 163.1
110.3 114.5 118.6 120.9 122.3 120.1 120.6 121.7 121.6 121.9 124.8 126.3 122.7 121.1 123.3 123.1 127 128.3 129 129.9 129 129.6 130.8 132.8 134.9 138 141.4 144.8 150.9 153.8 159 164.4 169 168 167.2 167.7 169 171 174.9 178.6 182.3 183 181.1 177.8 176.6 179.6 181.2 182.9 184.2 185.1 188.2 190.5 195.5 197.9 196.8 199.2 202.2 205.2 208.2 210.7 211.5 210.5 207.7 198.5 190 182.1 173.4 169.5 162.8 160.3 163.5 161.3 162.7 152.4 146.9 146.9 147.6 164.9 176.5 180.8 182.5 181.4 180.5 179.1 176.5 172.3 172.2 174.2 176.2 177.2 178.8 180 184.9 186.3 186.8 185.7 187.3 189.4 190.8 191.4 188.7 189.9 192.3 194.7 197.1 199 200.4 200 200 199.2 199 197.5 198.7 198.2 201.8 202.8 201.1 198.7 197.6 198.3 197.4 187.2 183.5 181.1 177.2 173.7 169 161.5 168.6 172.3 176.9 181.6 185.4 189.2 194.2 196.8 201 203.2 205.6 205.8 200.5 198 196.6 195.8 194.9 194.2 192.5 188.2 184.7 179.8 178.2 174.1 170.8 168.8 166.1 162 158.9 161.2 151.8 162.1 170.5 179.3 188.3 196.4 204.4 207.8 204.8 192.5 181.4 170 163.1 162.4 158.9 162.9 168 171.6 174.8 178.2 179.9 181.3 183.2 184.3 185.2 186 180.6 179.4 167.6 161.1 153.9 148.8 142.6 144.1 149 151 154.6 154.9 154 155.8 157.6 159.7
112.4 115.9 117.5 116.4 116.2 114.8 114.4 114.8 115.2 116.2 120 122.1 119.9 124.7 127.2 123.5 127.4 128.6 129.3 130.7 130.8 130.1 131.6 133.3 135.2 138.5 142.2 144.7 150.3 154.7 158.3 161.7 166.3 167.7 166.5 167 168.7 171.2 172.7 175.8 178.7 178.4 176.9 175.4 174.5 176.9 178 179.7 181.3 182 186.4 188.2 190.9 192.7 192.9 196.5 200.6 204 207.6 209.4 208.6 207 205.9 202.5 195.8 190.9 181 172.8 167.2 161.1 156.1 158.2 154.5 149.3 146.9 146.9 149.1 166.3 175.1 179.7 182 181 181.5 180.6 178.6 176.6 171.5 169.5 172 173.6 175.5 180 182.4 183.5 183.5 182.3 184.3 187.7 188.9 189.7 184.7 185.3 190.7 194 196.1 196.7 197 196 196.9 198 198.3 195.6 195.5 196.9 201.6 201.1 199.5 196.2 195.9 195.9 196.9 193.3 184.2 179.9 176.5 173.5 168.2 162.9 167.4 171.7 176.2 180.4 184.3 187.8 192.6 197.7 198.9 199.7 204.5 206 200.7 198.1 195.7 194.8 194.5 192.5 192.6 189.4 185.6 181.2 178.4 174.8 170.9 168.4 165.8 162.1 158.7 163.5 151.2 161.2 174.4 182.5 191.3 195.4 205.7 208.6 201.8 190.1 179.6 166.3 159.5 160.6 158.7 163.1 167 169.5 173.2 176.4 178.6 180.7 183.1 184.4 184.6 185 182.6 179.8 175.2 164.6 155.3 149.3 143.8 143.6 147.6 150.2 152 152 151.7 151.8 153.6 156.1
110.9 112.9 115.5 115.9 122.6 124.2 126.4 125.7 123.8 118.8 116.7 120.5 123.2 126.9 128.6 127 125.3 129.4 130.1 131.9 130.9 130.7 132.3 134 136.5 139.5 143.1 145.9 150.1 153.1 156 160.5 164.8 164.3 164.9 165.9 168 169 170.5 172.6 173.6 173.7 172.8 172.7 173.8 174.7 175.7 176.6 177.9 179.4 182.5 183.8 187.7 188 189.5 194.1 198.7 202.8 206.7 207.9 206.6 205 203.8 201.7 198.9 195.2 188 181.1 173.2 168.3 161.4 154.3 151.7 147.5 146.8 146.9 149.7 162.8 170.6 175.3 180.1 182.4 182.2 181.7 180.6 178.6 175.7 168.8 167.2 168.2 174.5 177.4 179.4 180.1 180.2 180.9 183.5 185.7 186 186.6 180.9 187 188.9 191.4 194.2 195.4 195.3 193.7 194 194.5 196.2 195.3 194.1 195.8 198.2 196.6 195.8 193 193.4 194 194.5 192.5 186.5 178.1 176 173.7 169.5 165.9 166.8 171.1 176 179.8 183 186.2 190.7 197.8 199.9 199.9 202.5 204.1 200.6 197.7 195.3 194.2 192.4 190.8 190.4 188.2 184.1 181.2 178.6 175.6 171.3 167.8 164.2 161.3 160.4 162 158.2 151.9 160.2 168.2 181.3 188.6 197.7 208.2 205.2 193.5 179.7 167 160.5 158.2 157.2 161.8 165.7 168.8 171.7 175.2 177.2 179.6 182.9 184.2 184.6 184.4 184.1 180 177 165.3 155.5 149 141.8 142.3 145.5 147.9 149.5 149.8 148.3 148.8 150.9 155.9
111.3 114.2 117.2 119.4 120.1 122.5 124 127.6 126.3 123 122.6 123 123.5 125.9 128 128.5 125.5 129.4 130.6 132.2 132.2 131.7 132.7 134.5 137 139.7 143.8 145.8 148 151.1 154.8 159.8 161 160.8 162 163.8 166.2 166 167.4 168.7 169.8 169.5 171.5 171.5 171.3 172 171.7 174.6 175.9 176.8 180.5 181.2 182 183.7 186.8 191.2 195.3 201.6 205.1 205.2 204.5 203 202.1 201.2 199.2 197.4 194.6 190 185.7 179.4 170.3 164.1 156 150.4 147.6 148.5 150.9 158.1 161.6 173.5 181.2 183.8 182.9 182.2 181.7 180.7 178 172.9 171.4 168.9 169.6 175.1 175.6 177.1 177.3 180.1 181.3 183.1 184.7 185.2 177.9 184.5 187.5 190.6 191.4 193.1 192.8 191.7 192.3 194.1 194.8 193.1 192.9 192.4 191 190.6 190.6 190.4 190.9 191.3 192.1 190.7 185.4 178.5 176.5 174.4 171.4 167.3 161.4 170 174.5 177.6 180.1 184.4 188.2 196.1 198.4 199.7 201.4 202.3 200.1 196.5 194.9 191.8 190.1 188.2 187.5 185.8 184 180 176.8 174 169.1 166.3 163.1 160.7 161.9 160.3 158.7 157.4 152 158.3 165.4 175 186.3 200.4 201.9 191.3 179.4 168.3 158.3 155 155.2 160.4 162.7 167.5 170.9 174.6 176.9 179.6 181.8 184 184.7 184.5 180.9 179.8 174.4 161.8 155.1 149.9 142.4 141.8 144.5 146.2 147.2 145.8 146.7 147.3 149.5 153.3
112.1 116.5 120.2 118.8 121.7 123.9 126.1 127.3 125.3 123.3 122.6 125.2 124.3 126.3 128.3 130.2 128.5 124.6 127.3 131.2 133.2 131.8 131.9 134.2 136 138.7 142.7 144.8 146.7 150.3 154.7 157.7 158.1 157.8 158.9 160.6 161.3 162.9 164.6 166 167.3 171 170.1 170.5 170.5 170.6 170.3 172.3 173.8 174.5 176.3 177.4 178.2 180.8 184.7 188.4 193.7 197 201.4 201.7 202.5 201.2 200.9 199.7 199.1 198.6 199.3 197.5 192.9 187.3 180.4 172 167.6 159.3 149.2 147.9 148.1 155.4 166.8 174 181.6 185 185.2 187.9 188.6 185.5 180.1 177.1 174.4 169.9 172.1 172.7 172.5 173.9 177 179 180.7 182.3 183 182.6 177.2 183.1 186 185.1 187.8 191.1 192.6 193.1 192.5 192.9 193.3 192.1 190.3 189.7 188.6 188.7 189.2 189.2 189.7 190.1 191.3 188.8 186 177.8 175.8 173.1 167.5 164.7 159.9 168.8 172.2 174.1 177.3 181.8 185.9 191.7 193.7 197.1 197.5 199.2 199.9 197.4 193.7 190.2 188.1 187 185.9 184.1 180.7 178.9 174.7 171.2 168.4 163.9 165 164.6 164 163.6 161.3 159.6 158.2 153.2 153.2 160.6 173.7 191.5 193.6 186.7 176.8 167.8 157.9 155.2 157.7 164.2 165.9 168.7 171.3 173.3 175.4 178.3 181.4 184.6 185.9 184.4 182.7 180.9 175.4 167.5 155 151 144.6 141.4 142.4 144.6 144.7 144.8 145.1 145.5 147.4 150.3
114.6 118.7 120.9 123.4 125.2 126.1 126.7 128 125.2 123.2 124.1 124.9 124.8 126.4 128.7 130.2 130.4 127.7 128.6 130.4 133 132.3 131.6 133.6 135.1 137.6 140.3 143.1 144.8 149.6 152.2 154.6 155.1 153.4 153.5 156.8 157.4 159.1 161 163.3 166 169.4 169.6 169.7 170.4 170.6 170.2 171.7 173.1 173.4 175.2 176 177.7 179.9 183.3 186.1 192.3 194.9 196.8 199 199.8 200.2 199.2 198 198 199.8 203.4 204.4 204.2 199.3 192.2 184.7 178.1 167.6 152.3 146.5 149.1 155.4 164 176.1 182.4 186.7 189.5 194.7 196.2 191.2 184.6 179.5 176.7 171.5 165.9 168.2 168.7 171.2 174.7 176.9 179 179.5 177.9 177.5 172.8 177.6 178 187 191.5 192.1 193.2 191.3 190.8 190.9 191.2 188.9 188.8 187.1 186.6 186.5 186.8 187.7 188.7 189.1 189.9 188 185.3 177.1 175.2 173 168.7 165.1 161 165.4 169.7 171.3 176.8 181 184.8 186.7 191.7 192.6 194.3 198.2 199 196.8 193.3 189.5 185.9 184.1 183.9 182.6 179.6 177.2 173.3 169.8 166.9 167.5 166.6 167.1 167.9 167.8 165.8 162.2 160.6 159 158.5 152.4 168.2 185 185.1 179.1 170.6 164 158.9 154.5 160 163.2 167.3 169.7 170.7 172.6 174.6 177.4 181.5 185.9 187.3 185.6 183.4 179.3 174.7 166.9 157 152.4 148.2 141.5 141.1 141.7 142.3 142.8 143.6 143.8 144.5 147.6
116.9 120.3 122.3 123.9 125.8 127.1 127.1 124.9 121.6 124 125.2 127.7 127.3 126.3 126.9 128.5 131 130.2 129.7 127.4 131.3 131.4 131.6 133 134.6 136.2 137.6 141.8 143.6 147.6 148.9 149.7 149.7 150.7 151.1 152.9 153.7 155.5 157.8 160.1 163.6 166.2 167.4 170 170 169.1 170.6 172.5 173.2 173.5 174.6 177.4 178.3 180.2 182.6 185.4 190.4 192.7 195 195.5 196.4 197.3 196.6 196.4 197 200.3 206.2 212.5 213.2 208 200.4 191.5 180.7 168.3 152.7 145.9 146.1 159 168.6 177.8 184.1 188 192.8 196.5 193.9 189 183.8 179 175.9 173.6 168.4 160 163.7 167.8 172.2 174.5 178.3 179.3 177.1 174.3 171.4 180.7 184.7 188.9 191.6 191.5 191.4 190.8 189.5 185.6 185.7 186.1 186.4 185.9 185.8 185.7 184.2 185.7 187.7 189.6 190.5 180.9 179.7 178 175.8 174.3 171 167.1 164.8 160.1 166.3 171.1 175.7 179.8 183.3 184.7 187.8 189.1 191.8 196.2 198.1 196.3 193 189.7 187.6 185.4 183.2 181.2 177.2 175 170.6 169.4 170.5 169.7 170.6 169.9 170.3 170 169.6 165.3 162.8 161.9 159.9 153.1 161.4 177.9 179.3 176.8 169 161 153.4 158.4 162 164.5 166.9 168.2 169.9 173.8 174.7 177.1 181.1 185.7 187.7 185.8 182.3 180 175 170.7 162.4 153.1 148.9 145.1 141.1 141.3 140.5 141.3 142 142.2 142.5 144.7
118 121.6 122.7 122.9 122.9 123 123.6 124.5 127.4 130 130.8 130.8 129.9 128.7 128.8 129.9 130.8 131.7 129.8 131.8 131.9 132.9 132.8 134.1 136 137.2 137.9 139.8 144 143 143.7 145.2 145.5 149.1 150 150.8 152.6 154.4 155.5 157.1 159.1 161.3 163.2 167.6 169.4 169.4 171 172.4 173.5 173.8 174.5 178.7 180.1 181.1 182 185.8 190.4 192.3 193 192.9 193.3 194.1 193.5 194.5 197.1 201.4 209.1 218.2 217.3 210.5 200.1 188.7 178 164.8 152 145.7 144.8 156 167.9 176.4 183.4 188.3 191.3 193.1 193 186.5 181.5 178 175.3 175.3 170.8 166.5 160.2 162 168.7 171.4 175 176.8 174.5 170.3 173.7 180.3 184.6 187.8 189.3 191 188.6 188.6 186.1 186 186.1 185.9 185.5 184.5 184.7 184.8 184.6 184.4 185 186.5 189 186.8 179.5 178 178.1 176.3 173 169.8 165.8 158.8 161.7 167.9 174.2 178.1 180.2 181.2 184.6 186.1 188.7 194 198.1 197 194.4 191.6 189.5 186.6 182.6 179.2 176.2 175.6 173.6 172.7 173.9 172.5 173.1 172.6 172.1 171.2 171.4 169.1 165.6 162.6 160.7 160.5 157.6 171.8 180.8 176 164.5 157.4 155 160.2 162.3 164.5 166.3 168.6 170 173.7 176.3 180.5 181.7 186.6 187.2 186.3 182.8 180.2 173.9 165.2 160.3 155.9 151.2 147.8 144.3 140.5 140 139.8 140.4 140.8 141.2 142.5
118.2 120.4 121.5 122.7 122.8 122.9 125 126.8 129.8 131.4 132.1 131.7 130.9 131.9 132.3 131.3 130.5 132.2 130.4 130.4 132.2 132.7 133.3 134.8 132.2 132.1 133.8 136.9 140.9 140.2 140.9 142.3 144.4 147.3 148.4 149.7 151.6 153.4 155.3 155.1 156.1 158.4 161.5 164.8 167.7 170 171 172.3 173.6 174 175.3 179.7 181.5 184 183.8 185.4 187.5 190.1 191.7 191.3 190.4 190.8 191.3 193 194.9 199.4 209.7 220.5 216.8 207.3 195.7 185.3 175.1 162.9 150.7 144.3 145.3 158.2 166.2 175.7 180.1 185.8 190.3 191.3 188.9 185.9 182.5 179.3 177 174.5 174.3 170 162.4 158.8 164.5 168.3 170.6 172.7 171.1 168.5 171.8 177.2 183.3 186.2 187.6 188.6 186.8 185.9 186.2 186.2 186 185.6 185.4 184.9 185.3 185 184.6 184.5 184.8 184.9 185.5 187.3 181.5 180.8 178.9 175.7 172.3 169.8 166.5 158.7 158.2 165 173.1 175.4 175.9 179 181.5 183 187 189.9 195.1 195.9 195.9 193.6 190.4 187.3 188.1 189 184.4 179.6 177.9 174.8 176 175.9 175.8 174.8 173.6 173.4 173.5 170.6 166.9 164.3 162.4 160.7 149.5 161.1 175.2 171.3 164.9 149.4 157.3 160.2 162.6 163.8 167.9 170.7 172.6 175.4 177.3 181 184.4 187 188.2 188.1 184.5 180.9 177.4 172.1 167.3 161 156 151.7 147.3 142.9 141.1 139.4 139.1 139.5 139.9 140.7
119 121.9 122.3 122.6 122.7 123.6 125.7 127.7 130.6 130.7 131.3 131.9 131.6 132.7 133.5 131.9 132 132.4 130.7 130.2 131.8 133.7 133.8 135 136.5 137.4 138.1 134.6 133.9 132.9 134.4 139.8 142.2 145.7 146.9 148.7 151.1 153.7 155.4 155.2 153.9 156.5 158.3 161.6 164.5 168.1 170.2 170.8 172.1 174.2 176.1 181.2 184.5 186 185.4 185.1 185.8 186.8 187.7 188.8 188.1 188.7 189.2 191.7 193.8 197.9 206 216.3 213.3 202.4 192.4 183.9 172 161.1 148.1 143.3 144.3 159.7 164 170.8 176.5 182.1 185.3 189.8 189.7 187.9 186 182.7 181.2 178.1 175.9 170.7 163.8 157.4 160.9 164.6 166.8 167.8 163.7 160.6 172.5 178.4 184.3 186.3 186 185.8 182.8 185.8 186.2 186.3 185.2 185.3 185.4 185.4 185.8 185.3 184.8 185 184.2 184.5 185.2 185.6 187.2 182 179.3 178.1 173.7 171 166.4 163.4 160.3 167.4 170.3 168.5 172.4 175.3 178.3 179.8 183.6 189.1 192.6 196.1 197.7 193.7 191.4 190.7 189.6 189.4 187 183 181.2 179.5 178.2 177.9 178 176.9 175.9 175.7 174.9 174.4 171.8 165.1 162.5 161.1 155 153 169.4 171.8 163.5 151 156 159.9 162.6 164.9 166.1 170.6 173.4 175.9 178 180.6 184.5 187.9 189.2 188.5 187.2 184 180.2 176.7 171.4 166.6 157.7 153.8 149.2 144.6 141.4 140.7 140.1 138.7 138.7 139.2
122.2 122.4 122.6 122.5 122.6 124.4 126.9 128 129 130.3 131.5 131.9 132.1 132.5 133.3 133 132.8 131.3 131.2 131 132.1 133.8 135.1 137.7 137.8 138 140 140.5 142.4 140.7 139.5 139.3 141.5 143 146.5 149.1 151.6 154.1 155.6 156 155 156.9 157.5 159.2 162.8 166.3 169.7 170.4 172.2 174.1 178.1 182.2 186.4 188.6 187.6 185.9 184.7 184.4 185 186.2 186.2 186.8 187.9 191 192.1 195.4 200.7 210 207.9 199.8 191.5 181 169.2 157.3 144.5 143.9 143.8 156.2 162.2 166.8 171 177 185 190.4 191.6 190.6 189.1 183.7 180.6 177.8 174.8 174.7 167.2 159.9 156.8 160.2 160.8 161.4 164.7 169.4 175.7 181.9 186.8 186.4 186.1 184.9 180.3 180.2 186 186.3 184.1 185 185.8 188.2 186.7 185.8 185 184.4 185.2 184.6 184.1 182.5 183.2 180.1 178.8 177.1 174.6 171.6 166.6 165.6 162.6 157.1 166.1 168.2 168.1 171.1 174.3 177.2 182.3 185.3 193.2 197.3 198 196.1 193.8 193.2 192 192 191.4 186.6 184.6 182.9 181.2 181 180.9 179.2 177.4 176.9 176.1 175.7 173.5 167.9 164.3 161.5 159.2 150.2 162.7 167.1 160.5 148.8 154.2 159.7 162.7 164.4 166.5 169.3 173.4 174.6 178 179.7 184.6 189 189.4 190 189.5 184.4 181 178.9 174.2 169 160.7 156.1 151.8 146.1 143.8 141.6 138.9 139.2 138.3 138.3
121.8 122.1 123.5 122.9 122.6 124.1 128.1 128.2 130.1 130.8 132.1 131.5 132.3 132.8 133.3 133 132.3 131.7 131.3 131.9 132.8 134.5 138.6 139.2 139.1 141.3 142.1 142.7 145.5 148.2 146.8 143.5 143.9 144.5 146.7 149.3 152 154.5 156.3 157 157.4 157.7 157.3 158.2 161.1 164.5 167.9 170.2 171.6 173.1 177.7 182.8 186.6 189.8 189.5 187 185.1 183.7 183.2 183.7 185 186.3 187.3 190.4 188.8 190.4 195.3 202.5 202.5 195.6 188.1 180 171.7 158.5 143.7 143 142.1 145.6 154.9 163.5 163.6 173.6 182.4 190 191.9 191.7 190 184.4 179.7 178.7 175 178.5 167.8 160.1 152.9 153.5 154.9 156.8 163 169 176.9 183.9 185 183.4 183.7 183.4 180.6 177.6 178.5 182 182.8 185.1 186.6 188.4 188.7 187.1 187.4 186 184.4 185 185 184.8 186.7 185.2 182.4 176.9 172.9 170.8 169.7 164.7 156.5 155.7 161.6 165.3 164.3 166.2 170.7 176.5 179.2 186.3 192.7 198.9 201.2 198.5 196 194.8 194.2 193.9 193.1 191.8 188.1 186.5 185.3 183.6 182.8 180.6 179.1 178.1 177.1 175.4 172.9 169.5 164.5 161.2 159.3 151.7 158.3 162.3 156.6 148 153.5 159 161.7 163.5 164.5 165.4 171.8 173.5 177.7 179.3 184.3 189.8 191.2 191 189.2 185.4 180.3 177.2 173.3 169.1 163.8 158.9 155.5 150.8 146.1 142.7 140.3 138.8 138.1 138.3
122.2 123 123.7 122.9 123.7 126.3 127.6 127.8 128.6 129.2 129.7 131.8 133.2 134.2 133.6 132.7 130.9 131.9 133.9 134.8 135.1 136 137.8 140.6 141.7 143 144.4 145.6 146.8 149 148.9 146.6 146.2 145.9 147.8 149.6 151.7 154.8 156.6 157.4 157.9 158.1 156.7 158.9 160.3 163.4 166.8 168.9 171.7 173.6 177 182.8 187.1 189.3 189.8 188.6 186 183.9 182.9 183 185.8 187.9 189.4 190.3 187.2 186.9 189.9 190.1 194.2 189.9 184.6 177 170.1 157.7 143.8 142.4 141 142.5 144 155.9 157.2 166.7 176.7 186.7 192.1 191.9 190.9 185.8 181.1 179.5 177.4 169 167.2 160.5 150.2 149.3 156.9 163.8 169 172.3 178.7 183.3 182.6 181.5 180.8 180.6 175.8 175.2 176.6 179 183.6 185.7 187 187.3 188.4 187.5 187.8 187.5 184.8 185.1 185 185.3 182.3 182.1 183.6 175.6 173.8 173.9 175.2 169 159.7 156.7 159.8 163.5 163.7 164.6 170 177 178.8 185.2 190.4 197 202.2 200.9 198.7 198.3 196.9 197 197.1 195.9 192.6 192.3 190 187.1 184.8 182.3 179.6 178.3 176.2 175.6 173.8 170.2 164 159.9 158 152.6 157.6 155.4 150.4 149.5 149.1 155 159.5 163.1 164 165.3 169.4 174 176.3 180.2 183.8 188.5 192.1 191.3 187.6 185.4 179.2 175.7 171.1 167.6 164.6 158.5 154.7 150.7 146.2 143.7 141.3 139.4 138.3 137.9
121.9 122.2 122.1 121.9 123.4 124.4 126.4 126 126.4 129.1 131.3 133.4 134.2 134.3 131.7 129.6 133.1 136.3 136.6 136.4 137 136.7 139.2 141.4 144.3 145.2 147 148.7 150.7 151.4 150.2 148.5 149.1 147.6 149.5 151.2 153 155.2 156.4 157 156.5 155.9 156.3 160 161.4 162.5 165.2 167.6 171.8 175 178.2 183.1 186.7 189.7 190 189.4 185.8 184.8 183 183.3 187.5 191.5 192.1 190 187.9 183.8 182.8 185.2 186.1 184.6 180.1 172.3 163.7 147.7 145 143.4 142.1 142.3 141.6 143.7 151.2 160.3 168.7 179.9 187.1 191.8 190.5 186.7 183 178.9 173.4 169.3 163.8 157.5 150.5 147.3 158.2 167.9 170.7 174.3 177.7 181.6 181.6 180.6 177.1 176.8 173.9 172.7 174.5 179.5 183.2 185 186.3 186.9 186.8 186.6 186 187.4 184.5 181.8 180.9 181 180.1 179.7 180.2 173.4 173.6 173.8 175 173.2 160.9 158.1 157.5 162.3 163.7 164.3 170 176.3 180.1 185.4 190 196.3 200.7 201.3 200.2 198.7 199.3 198.4 198 196.3 193.9 194.5 192.7 188.4 186.6 181.6 179.1 177.7 175.6 174.2 172.7 168.2 163.2 160.3 156.6 154.8 150.1 145.1 144.7 143.5 143.6 155 159.2 162.9 163.4 165.4 169.6 173.7 176 178.4 183.8 186.8 190.4 190.4 186.8 184.2 178 174.1 170.1 164.8 159.1 155.6 153 150.6 147.7 144.9 142.3 140.1 139 137.1
115.9 119.4 121 122.1 122.3 122.9 123.9 125 126.6 130.1 132.7 134.5 133.6 132.4 128.6 133.8 137.5 138.6 138.8 138.7 138.1 138.5 141 141.6 143.3 145 146.7 148.8 151.2 152.1 151.9 150.7 150.7 149.5 151.2 152.9 154.6 154.8 155.7 156.5 156.3 156 157 158.9 161.5 163.5 164.8 167.4 171.5 175.7 179 181.9 186.8 190.7 191.5 189.9 185.4 184.4 182.2 183.3 188.6 192.7 192.7 189.4 186.6 182.7 173.7 179.8 179.9 178.4 172.1 164 152.8 153.2 151 148.2 146.1 141.5 141.2 140.8 145.4 153.8 161.2 168.3 177.6 186.4 188.9 186.4 181.3 177.8 173.3 169.7 164.5 157.8 148.8 146.7 155.1 166.8 169.4 173 177.9 176.9 176.8 173.9 174.1 175.2 173.4 170.5 175.1 178.9 182.8 184.5 185.7 185 185.1 185.6 185.3 182.2 179.6 177.9 177.2 176.6 175.8 175.9 178.2 173.3 173.2 173.8 174.7 167.4 163.1 157.8 157.3 160.5 162.9 163.8 170.8 175.5 178.7 182.1 187.5 192 194.3 195.3 194.4 195 197.3 199 199 198.3 196.5 196.4 193.1 189.5 185 181.5 176.3 176.3 174.7 173.6 170.5 166.8 160.8 157.8 155.2 153.7 149.5 143.4 142.6 143.9 143.3 154.9 159.3 162.7 162 164.3 168.7 172.9 174.7 176.9 181.7 186.1 188.9 190.1 187.6 183 177.2 173.4 169.7 167 162.5 159.4 155.1 153.1 150.3 146.2 143.7 142.1 138.6 138.4
116.5 116.9 117.6 119.3 120.6 122.3 123.2 124.6 127.6 129.7 134.1 132.2 131.7 130.3 132.2 137.4 140.1 140.6 140.1 140.1 140.8 141.7 142 141.8 142.7 144.8 146.2 148.9 150.1 150.8 153.4 153.1 152.7 152.1 153.2 154.9 155.4 155.4 155.8 156.5 156.5 156.3 157.2 158.7 160.3 162.3 164.3 166.9 171.1 175.4 177.9 181.5 185.9 191.2 192.8 189.6 184.3 182 180.5 182.6 187.6 190.6 190.8 188.6 185.5 181.7 178 169.8 169.6 169.5 161.7 153.4 160.9 169.6 164.4 159.4 151.1 145.1 141 140 141.9 148.1 151.7 155 162.9 172.6 182.2 182.6 179.5 176.1 172.9 168 160.5 155.9 153.1 144.7 152.8 163.8 167.4 169.3 171.9 171.6 173.9 172.8 174.4 171.6 167.1 171.8 174.4 177.5 181.4 184.8 184.7 183.5 183.9 181.2 183 180.4 177 175.5 173.4 173.5 173.5 173 173.3 176.2 174 174.3 170 166.9 163.1 158.9 156.8 159.4 157.7 165 173.8 176.2 178.1 180.9 183.4 185.5 188.7 189.8 189.9 186.9 193.5 197 198.1 198.1 196.8 196.7 194.5 187.9 182.5 178.1 174.8 173.5 173.3 170.7 169.1 166.5 160.2 156.6 154.7 152.7 148.7 143.2 142.3 142.9 147.8 151.7 154.8 157 157.4 162.3 164.7 171.2 173.8 175.7 180.2 184.4 188 190.2 187.1 184.1 179.9 176.1 172.6 169.3 166.7 163.7 159.7 154.4 151.4 149.6 146.4 143.1 139.3 138.2
117.9 116.6 117.7 119.4 121.7 122.8 123.9 126.3 128.4 133.9 131 132.2 131.9 133.6 135.6 136.8 138.1 139.2 140.8 142.2 143.7 144.4 145.4 146.6 147.4 148.2 149.4 149.8 151 151.3 153.7 154.7 154.7 154.9 155.2 156.5 156.1 156.2 156.4 156.6 156.6 156.5 157.3 158.8 159.3 160.7 162.6 165.3 169.5 174.5 178 181.2 185.4 189.7 191.1 187.7 184.2 181.9 183 182.7 184.2 187.3 186.3 187.4 183.9 179 173.1 168.1 160.7 160.8 161.3 163 175.1 174.6 170.5 164.6 155.7 146.9 143.1 139.8 139.4 141.7 144.7 147.3 151.3 156.8 170 177.1 174.2 171.6 173.7 169.9 165.3 159 154.3 147 150.6 160.2 162.7 166.1 167.5 168 168 165.9 164.6 163.7 167.4 169.9 173.5 177.6 180.3 183.2 184.8 183.9 183.6 182.7 180.4 177.1 175.3 174.3 173.4 171.8 170.6 170.3 173 175.1 174.7 171.9 167.5 165.7 161.1 157.9 155.3 155.2 160.6 167.1 171.8 176.3 178.7 180.3 183 189.8 190.7 190 186.2 185.8 189.2 193.9 195.7 196 195.3 194.4 191.9 185 179.6 176.7 171.3 169.7 169.3 169.8 168.9 165 160.4 156.9 153.9 149.7 149.8 143.6 141.9 144.7 150.6 154.4 158.7 163.8 166.3 167.4 168.5 171.8 174.1 175.1 178.9 182.8 186.5 189.2 189.4 187 182.6 179.8 175.5 172.7 170.4 166.3 161.5 156.2 154.6 152.6 148.2 142.8 139.4 137.9
118.1 117.3 117.3 119.7 120.7 121.9 124.2 127.7 130.6 134.6 135.7 135.8 132.9 134.4 139.3 143.1 147.3 148.5 146.6 146.1 143.8 144.5 143.6 142.5 141.3 143.4 145.4 146.3 148.4 151.6 154.4 155.3 155.5 156.2 157.1 157.7 157.7 158.2 158.7 158.2 157.7 157.1 157.6 159.8 161 161.4 161.1 164 167.6 171.9 175.8 180.1 184.4 187.3 186.9 184 181.2 179.5 179.6 184.1 185.6 186.4 187.5 186.3 180.6 170.1 168.2 169.2 175.4 177.9 177.8 177.9 176 174.7 172.1 165.1 161.1 157.6 146.3 139.4 138.6 137.7 140.2 143.7 145.8 149.4 156.2 166.4 163 166.8 173.2 170.2 165.6 160.2 146.6 145 144.3 153.7 157.2 162.1 164.6 163.8 163.5 161.7 161.6 161.6 165.5 167.9 171.5 175.5 180.2 182.4 184.1 184.5 183.6 182.4 179.8 176.8 173.4 170.2 170.7 169.3 168.1 168.7 170.3 172.5 172.8 171.5 166.5 161.4 159.1 155.9 152.2 153.3 162.1 168.5 171.9 175.4 177.3 181 183.2 187 194.2 194.6 185.4 185.1 185.7 189.3 190.4 188.6 186.5 185.4 183.3 179.3 175.6 172 168.1 164.6 165.3 167.2 168.7 166.2 161.5 157.5 154.7 151.3 150.6 147.6 142.9 144.1 151.2 155.8 160.3 166.1 172.1 169.4 173 174.5 175.2 177.1 180.2 183.6 186.7 190.1 191.7 188.8 185.3 180.3 177.6 174.1 168.7 165 164.8 159.4 157.2 154.6 150.5 143.5 139.5 138
116.9 117.4 117.5 119.9 122 124.4 123.9 126.3 127.5 132.3 135.5 136.7 136.2 138.5 142.3 145.4 147.8 148.7 147.8 146.9 146.2 145.9 143.9 141.8 139.7 141.7 145.4 148.7 150.1 151.7 155.7 157.6 158.4 159.8 160.4 159.5 158.8 159.4 160.1 160 159.5 161 160.1 160.9 162.2 162.4 162.9 163.2 165.7 170.1 174.5 179 182.9 185.1 183.8 181.3 178.7 178.4 181.2 185 189.2 188.8 187.2 185.8 176.6 177.5 183.1 184.8 185.3 184.4 182.1 181 178.4 175.4 173.5 167.4 165.1 159.3 151.4 143.5 138.6 137.6 137.8 138.7 140.4 142.2 146.8 154.2 153.5 157.7 169.4 168.7 164.6 159.9 155.3 131.5 141.1 148.5 154.1 155.6 155.7 156.9 155.2 160.8 159.5 161.8 165.2 170.5 174.8 178 180.8 182.5 185.1 183.6 182.6 181.9 181.2 175.9 173.7 168 166.9 167 166.6 165.8 168.3 170.4 171 169.9 167.7 162.2 158.1 155.1 151.9 154.5 162.3 166.7 171.1 174 176.4 179.1 182.2 183 189 191.7 185.5 185.1 184.6 185.3 183.6 182.9 179.5 178.5 177.8 175.2 172.1 168.4 165.5 163.7 164.5 166 167.8 167.7 162.3 157.9 153.8 152 151.6 146.4 142.3 141.9 148.9 153.4 158.6 165 169.9 172.1 173.2 173.2 173.6 178 182.6 184.9 188.1 191.1 193 192.1 187.8 184.1 178.7 175.7 172.7 170.4 165.4 163.1 157.3 152 147.1 143.3 140.6 138.1
118 119.5 117 119.5 123.9 125.6 127 126.3 128.1 131.8 134.7 136.3 139 142.6 144.2 146.6 148.8 149 148 147.1 146.2 146.7 145.8 143.9 141.1 141.2 145 148.4 149.8 153.5 156.2 158.6 161.1 162.4 163.5 162.5 161.5 161.5 161.6 161.2 162.5 164.6 165.3 165.8 165.8 164.8 165.3 165.6 165.8 168.3 172.8 177.7 181.7 182.8 179.3 178.6 176.2 181 184.3 187 190.1 190.7 189.6 187 184 184.5 185 188.1 189.5 188.4 186.4 184.1 181 179.4 174.4 170.9 165.7 161.8 158.8 151.7 144.5 138.6 137.9 136.8 138.2 140.1 140.4 143.8 146.1 149.4 162.3 165.4 157.6 155 150.9 138.6 140.9 144.5 146.3 137.1 139.3 149.8 150 154.3 156.4 165.5 169.8 174.1 180.6 184.2 186.6 186.8 184.8 183.6 182.7 182 179.7 178 173.3 172.6 167.4 166.5 165.7 164.8 165.7 167.6 168.4 168.6 167.1 162.8 158.9 154.8 151.5 153.6 161.1 166.5 168.1 171.1 175.7 178.4 180.9 183.1 185.5 189.9 186.7 185.2 184.8 184.2 183.3 181.2 178.2 177.1 175.7 173.6 171.2 167.7 164.7 163.2 164.3 165.2 166.7 168.2 162.9 160.4 156.6 154.7 152.5 149.3 142.3 142.8 145.5 149.4 154.5 161.4 168.1 172 174 175.4 176.7 179.5 182.9 186.2 187.8 190.2 193.1 193.4 190 186.1 181.9 179.5 175.7 171.3 167.1 161.7 157.5 154.3 151.1 148.2 142.7 138.6
119.9 120.7 117.3 122.6 125.2 127 128.8 125.8 130 132.5 135.1 137 141.1 145.5 145.6 147.8 149.4 148.8 148.5 147.5 145.5 146.6 146.4 144.7 142.4 141.4 144.4 147.4 150.4 153 156.4 158.1 161.9 164.8 166.3 165.9 165 164.8 164.9 165.6 163.3 163 166.2 169.6 171.2 170.1 168.9 168 168 167.5 171.3 176.1 179.8 180.2 177.9 176.5 177.6 180.8 184.8 189.2 190.9 190.3 189.4 186.6 186.6 186.6 187.2 191.2 192.9 191.8 190.6 187.1 185.1 181.3 176.7 173.6 173.1 165.6 161.9 156.3 149.5 145.6 137.7 140 142 138.6 136.8 139.5 139.2 141.6 150.2 155.9 151.1 148.3 145.1 141.1 133.2 140.4 133.3 133.3 133.3 143.3 149.8 157.1 154.6 169.4 170.8 176.2 181.5 184.2 186.6 186.6 185.4 183.6 182.6 180.4 178.6 176.7 173.9 171.8 169.3 165.9 165.4 164.7 163.5 164.4 165.3 166.6 166.4 164.9 159.2 153 150.8 151.9 159.3 164 164.7 169.1 172.6 175 178.7 179.8 183.8 189 194.3 185.4 185.1 184.5 186.1 187.4 182.8 183.4 177 173.3 169.9 168 164 162 163.2 164.7 166 167.9 165.7 163.3 159.8 157.2 153.1 150.9 144.3 140.5 140.8 145.4 150.7 158.4 164.8 170.1 173.5 175.6 177.2 179.9 183.3 186.6 187.7 189.8 192.3 193.6 191 187.9 183.6 180.3 176.1 174.3 169.8 166.2 163 158.9 155.7 155 150 142.6
121.2 119.6 120.1 123.5 124.8 127.3 127.6 126.4 131.4 133.1 135.6 138.9 141.2 144 146 148.6 149.1 148.4 148.2 147.7 144.6 145.5 145.7 145 142 141.5 144.8 146.7 149.8 151.7 156.7 159.5 163.2 167.2 170.3 171.5 171.2 170.4 169.5 173.3 172.2 167.7 164.4 167.2 171.2 172.5 173.8 172.1 170.4 170.1 169.7 172.6 175.5 176.1 175.5 175.5 177.5 180.7 184.1 189.3 190.7 190.3 188.7 185.9 185.6 185.5 186.8 191 192.7 193.2 193.5 191.8 186.9 181.2 178.4 175.8 173.3 170.1 163.4 157.5 155.2 151.7 147.2 137.2 138.7 135.3 133.8 133.7 138.7 136.6 138.3 142.7 144.2 143.7 140.7 136.7 133.5 137.6 135.7 133.3 139.2 143 149.6 155.2 156.6 169.3 173.6 179.7 181.6 183.2 186.5 186.3 184.9 183.7 181.8 180.1 178.4 176.5 175.7 171.9 170 165.8 164.2 163.9 163.5 162.5 164.2 164.2 165.9 163.8 157.9 151 148.9 151.1 158 160.5 161.1 166.2 169.2 171.4 176.2 179.1 183.2 188.1 195.4 199.6 197.5 196.3 193.3 190.9 190.7 190.6 191 175.2 170.6 173.1 163.4 161 162.8 164.7 165.8 167.1 168.9 164.6 161.2 158.8 155.6 152.1 148 139.8 137.9 141.6 146.3 154 160.1 167.3 172 175.2 176.7 178.9 181.5 184.3 186.9 189.8 190.1 192.6 195.4 190.1 187 183.2 180.3 176.3 174.6 170.5 167.7 163 159.9 158.4 155.2 149.5
119.6 118.5 120.3 123.3 124.5 127 128 128.4 132.2 133 134.6 138.3 141.2 142.3 145.4 149.2 148.9 148.1 148.5 148.1 144.7 144.1 145.1 142.1 141 141.2 145.1 147.5 148.7 151.8 156.2 160.6 164.4 168.5 172.2 174.8 176.4 176.9 177.9 180 180.5 177.2 172.1 166.4 166.3 168.5 172 172.4 171.7 171 169.1 170.3 170.5 172 174.2 178.7 178.3 179.7 182.1 183.8 181.7 182.6 184.8 185.4 185.3 183.3 184.1 187 189.9 190.7 192.7 191.2 186.9 182.3 179.2 176.6 173.6 170.9 168 162.9 158.3 154 145.9 138.3 135.5 134.5 133.4 132.7 132.5 132.5 134.6 133.9 134.7 135.3 134.7 133.4 134.2 136.6 135.6 136.4 138.6 142.3 146.6 149 157.9 168 173.9 178.3 180.9 182.2 184.2 186.3 185.6 184.4 182.8 180 178.2 176.9 176.1 171.4 170.4 168 164 162.6 162.5 161.7 163.2 164.3 163.8 160.9 155.1 150.1 148.7 153.9 158.6 159.9 159.7 165.4 170.3 174.4 177.1 181.1 184.2 188.8 194.3 201.5 202.9 198.4 195.5 193.2 192.9 192.4 191.6 188.4 176.8 173 162.8 158.6 161 164.1 166.3 167.9 168.8 165.9 160.3 158.8 156.2 150.3 149.3 142 138.2 137.7 143.7 150.7 157.7 163.9 169.3 173.5 175.7 178.1 180.6 182.6 185.1 187.5 189.5 190.6 191.1 190.6 187.7 183.7 181.7 178.9 176.3 172.8 168.8 165.7 163.6 160.8 158 152.8
119.4 119.9 121.4 123.1 125.2 126.3 127 129.5 131.5 132.3 133.3 137.8 141.4 142.6 144.3 148.3 148.2 147.9 148.9 148.1 144.8 143.4 143.6 140.7 139.9 140.5 145.5 148.1 149.9 151.2 154.5 160.2 165.7 168.5 171.5 175.5 178.7 181.3 183.1 183.8 184.2 183.5 180.9 175.8 170.1 168.2 168.7 169.6 170.5 171.8 172.7 173.7 174.7 175.9 177.7 179.3 181.9 186.2 184.9 186.6 181.5 179.8 178.2 177.1 175.8 182.3 180.3 179.7 186 187.6 188.6 188.2 185.9 181.6 179.3 176.9 174.2 172.7 170.1 164.9 157.1 152.3 145.5 141.2 140 135.6 134.3 134.7 131.8 131.7 131 132.3 132.1 130.3 131.5 131.5 132.5 131.9 127.8 134.8 134.3 137.3 135.4 145.4 157.3 163.9 167.7 172.6 177.6 181.1 186.3 188 186.6 185.1 182.5 179.8 178.8 177 176.2 173 171.2 168.7 165.9 164.5 163.7 164 163.4 163.3 162.1 157.2 152.2 149.4 148.6 154.8 159 159.7 159.5 167.4 172.6 176.1 180.2 183.6 186.7 189.1 193.1 200.9 203.7 201 196.4 194.7 193.4 193.1 191.3 188.9 178.9 171.3 160.4 159 160.8 160.4 162.4 163.7 166.8 165.8 158.7 156.7 154.5 149.6 149.8 145.6 138.3 138.6 139.9 146.7 153.7 159.8 166.3 171.2 174.4 175.7 176.6 180.2 183.3 185.1 187.2 187.9 189.1 189.5 186.3 183.5 181.3 178.5 175.6 172.3 168.7 166.4 164 161.2 158.4 153.9
117.7 121.2 123.3 125 125 125.8 126.6 127.8 131 131.7 133.7 140 141.5 143.2 145.3 147.4 147.3 147.7 148 146.5 144.3 143.2 142.7 138.6 138.3 141.8 144.7 147.9 148.1 151.7 154 159.7 166.3 168.8 170.3 173.9 177 180.3 183.4 185.6 187.7 188.6 186.6 180.8 176.4 173.9 173.1 174.8 174.6 175.1 176.9 176.8 178.6 177.3 178.4 180.1 189.1 190.5 192.2 193.4 193.3 192.4 184.9 182.6 182.3 181.3 176.4 172.6 173.6 176.1 181.2 184.9 181.8 179.9 178.5 176.2 173.8 172.5 170.5 163.1 161.4 157.7 153.1 149.8 143.2 137.9 134.9 134.1 133.8 131.1 130.5 131.2 130.6 130.1 131.1 130.8 129.6 130.6 123.6 134.8 135.5 134.1 134.5 142.7 152.1 159.1 163.1 167.4 174.9 183.3 186.9 189.8 187.3 183.9 181.9 180.4 178.7 176.8 175.7 174.8 171.6 169.1 167.2 166.4 164.5 163.8 162.5 161.8 158.3 154.1 150.3 148.3 149.6 155.7 159.6 159.6 158.3 168.2 173 177.9 181.7 184.9 188 190.6 194.4 200.5 203.3 202.4 199.7 196.5 192.9 191.1 184.5 182.6 177.6 171.5 162.1 157.4 156.9 156.8 156.3 159.9 164.7 164.4 158.8 155.1 153.1 151.1 149.3 145.1 139.2 136.9 137.7 145.8 151.6 157.5 163 165.8 169.8 171.3 173.4 176.7 180.3 182.5 185.2 186.9 187.3 187.3 185.1 181.8 178 176.2 173.4 169.8 166.3 162.7 162.2 160.7 156.2 153
118 121.3 125.7 126.9 125.7 126.2 126.6 127.4 130.1 130.8 133.8 140.4 144.3 144.7 144.9 146.6 147.1 147.3 147.4 144.6 143.3 142.1 140 137.9 140.8 143.9 146.8 149 151.4 153.7 156.4 161.2 167.1 165.7 166 170.5 173.4 177.5 181.5 186.8 190.2 193.8 190 186 182.1 178.9 175.9 177.2 177.8 178.7 179.3 177.7 178.2 176.4 178.7 183.6 187.7 192.1 194.1 195.4 195.6 194.5 191.3 187.9 180.8 180.5 180.6 180 176.7 172.2 170.3 171.6 176.5 174.3 177.1 174.8 172.4 171 168.8 168.3 166.8 162.6 157.1 152.3 151.4 145.4 142.6 137.1 132.9 131.3 131.3 130.9 130.5 129.9 129.9 129.9 130 129.6 123.1 134.9 135.7 138.4 139.5 140.7 145.3 154 161 171.4 179.9 185 188.8 190.1 187.7 185 182.9 181 179 176.7 175.3 174.8 173.4 171.9 169.8 166.2 165.5 163.4 161.1 157.4 153.9 150.9 148.3 147.8 149.7 156 159.1 159.3 157.5 166.4 170.5 175.7 179.9 184.7 188.2 191.8 195 198.9 201.5 202.8 199.7 194.6 189.9 187.1 181.7 179.3 174.9 171.3 166.6 158.5 155.2 153.9 152.4 154.2 159.1 161.5 157.4 153.3 151.7 149.3 146.3 144.2 138.1 138.7 136.8 142.9 147.2 154.6 159.6 162.9 164.7 167.9 172 174.6 177.7 178.4 182.7 183.6 184.9 185.5 182.9 178.7 175 171.9 170.2 168.1 165.5 159.6 158.2 157.9 154.1 150.7
118 121.8 126.3 127.5 126.1 125.8 125.1 127.5 131.7 131 134.2 138.7 143.4 143.6 144.3 143.5 144.9 146.1 146.4 143.5 142.3 139.1 136.8 138.1 143.1 146.1 148.1 150.2 153.1 156.2 159.2 163.2 165.7 167.2 167.3 168 172.3 176.6 180.3 186.6 195.9 198.8 192.2 187 184.4 180.4 177.1 176.1 176.7 176.8 179.1 181.6 180.8 180.3 181 185.8 190.4 194.2 198.2 198.2 198 194.9 191.4 187.8 184.1 180.7 180.7 180.4 178.7 176.1 171.7 170.6 168.8 169.2 171.4 173.2 170.6 170 170 170.5 169.2 166.1 157.7 156.1 156.2 153.3 149.1 144.7 140.1 133.4 131.8 130.7 130.1 129.5 129.6 129.8 130.1 129.5 128.2 129.5 134.9 136.2 138.6 139.9 140.4 152.5 159.3 168.8 176.5 182.5 185.8 187.5 187.6 184.5 183 179.6 176.9 174.5 174 173.3 173.2 172.7 171.4 166.9 165.3 163.2 160.3 155.7 152.3 149.4 148 148.1 149 156 158.9 159.4 156.5 163.5 169.2 174.1 178.9 183.5 188.6 192.1 195.9 198.4 202.3 203.7 200 194.4 188.3 183.4 178.6 176.7 172.7 169.8 167.2 162.1 158.2 154.4 151.2 149.9 155.6 160.3 158.4 152.7 150.4 148.7 144.3 139.3 139.6 143.6 136.3 138.3 144.7 151.5 155.9 158.1 162.1 165.5 170.1 173.1 174.7 175.2 177.3 180 184 184.8 182.3 177.2 173.1 168.2 166.8 165 162.5 158.4 154 154.5 152 149.1
117.6 122.1 124.3 126.5 126.3 123.6 125.7 128.3 132 132.4 134.2 137.5 141.2 142.1 142.7 142 143.4 145.4 145.3 142.4 141 137.9 137.7 139.7 143.1 145.9 149.7 151.5 154.7 158.1 162.5 167.8 169.8 168.9 171.3 173.5 173.6 178.1 181.9 191.4 201.5 203.6 197.1 186.6 182.4 179.2 178.4 180 180.7 180.8 181.3 182.6 183.1 183.4 185.7 188 194.4 197.4 201.3 201.4 199.3 196.3 192.8 189.8 186.5 182.6 181.7 180.3 176.4 169 166.3 168.8 169.2 167.4 167.9 167.8 169.2 168.4 169.1 169.9 170.6 168.1 161.7 162.6 160.5 157.3 152.5 146.4 141.7 134 133.4 131.5 129.4 129.2 129.3 129.5 129.8 129.3 128 122.6 133.3 133.9 133.8 137.9 144.9 144.1 162.3 167.1 172.9 178 182.3 183.6 183.1 180.5 181.4 178.9 175.1 173.1 172.3 171.6 172.8 172.8 171.2 167 165.4 162.6 158 153.7 152.6 150.6 149.9 149.1 149.4 155.8 156.7 156.9 155.9 162.3 165.9 170.8 176 180.2 184.9 188.7 194.5 198.8 202.2 203 199.7 194.7 189.8 183.2 177.4 174.7 170.4 166.9 164.9 161.6 157.2 153.7 150.9 148.9 152.8 157.5 157.4 153.1 150 147.6 144 139 143.1 144.4 141 135.9 142.8 147.8 153.1 158.2 161 164.3 168.3 170.4 172.2 173.6 173.3 179.5 182.2 185.1 181.6 176.1 171.4 167 162.6 161.1 158.4 156 151.3 151 149.4 144.2
117.5 119.2 121.1 122.9 123 124.9 126.5 129.3 131.8 131.7 132.6 135.5 138.3 140.6 141.5 141.4 141.9 143.3 142.6 141.6 140.5 136.2 137.7 141.3 143.8 147.1 151.6 154.4 157 161.5 165.8 170.4 173.7 174 175.6 176.5 177.8 180.9 188.3 197.9 207.6 209 201.8 190.9 184.3 180.1 178.8 181 184 184 185.2 186 186.1 187.8 191.7 196.9 200.8 203 204.9 204 201.3 197.8 194.7 192.3 189.2 185.8 182.5 180.9 177.6 174.1 169.8 167 166.2 164 163.8 166.2 167.4 166.9 166.4 168 169.2 168 167.6 167.2 163.2 157.3 150.8 146 143.1 139.5 135.8 132.6 131.7 129.5 129 129.3 129.5 129.1 127.6 128.4 127.7 132.3 131.9 136.7 147.2 146.6 152.9 164 168.2 173.1 177.6 180.8 179 176.5 177.6 177.2 175 173.1 172.6 170 171.2 170.6 169.4 166.9 166.5 160.5 155.1 154.9 153.3 152 151.1 150.3 149.1 151.2 154.5 152.7 155.8 161.3 164 167.3 173.4 175.6 180.5 187.6 191.9 198.9 201.1 201.7 198 191.8 188.2 183.7 176.1 170.9 168.7 164.2 161.4 158.6 155.2 152 149.8 147.8 149.4 154 154.9 152.3 149.1 145.7 142.7 138.9 141.1 144.2 143.4 136.1 136.5 145.9 152 156 160 162.1 164 166.3 168.9 169.9 173.2 177 182.6 184.6 182.5 176.1 170.1 166 162.2 155.2 153.7 152.9 148.2 147.2 145 140.4
117.4 118.3 119.7 122.5 122.4 124.9 127.8 130.4 131.6 131 131.4 132.9 136 137.9 139 139.7 138.1 138 137.8 138.6 136.8 136.4 138.2 141.8 144.3 148.3 152.1 155.1 159 165.3 170.1 174.1 177.3 178.9 180.3 181 181.6 184.8 194.4 204.3 214.4 215.8 207.7 197.1 188.3 184 181.1 182.3 183.6 183.3 185.9 189.1 190.8 194 200 202.7 205 206.7 208.6 205.9 201.8 198.3 196.1 193.3 192 188.7 184.1 182.9 179.7 176.2 171 170 174 170 163.8 158.3 162.4 163.2 164.4 165.6 165.8 168.1 169 168.2 163.5 156.8 150.2 146.4 144.3 142.5 139 135.8 132.9 131.4 130.4 128.9 129.4 128.4 128.4 129.1 122.6 131.1 131.5 134.1 144 146.7 148.5 160 163.4 167.3 174.1 176.7 175.9 172.8 174.4 173.9 174.8 172.2 171.3 168.8 168.8 168.9 167.8 166.4 165.5 160.2 158.5 157.3 156.8 153.7 152.7 151.2 149.2 149.6 150.9 152.2 156.6 161.7 164.4 167 171.5 173.8 177.9 184.2 190.7 196.5 201.1 200.3 197.9 192.2 185.4 181.6 174.6 170.1 165.9 162.3 159.1 156.5 153.8 151.9 150.4 147.7 147.6 147.8 151.3 148.3 145.3 142.2 140.6 138.2 138.6 141.4 143 138.2 135.6 142.4 149 152.8 157.3 159 159.7 162.4 164.4 170.3 172 176.1 180.8 185.1 183.5 176.4 168.8 164.5 160.6 158.2 153.8 151.3 145.1 143.7 141.2 138.7
117.3 119.3 120.8 122.2 122.8 124.9 127.4 129.4 130.4 129 129.6 130.8 132.8 134.6 135.7 135 133.5 132.7 132.9 134.2 135.9 137 140 141 145.8 150.1 153 155.2 159.3 165.5 171.7 176.6 180 182.6 184.6 185.5 186.2 191 199.8 211.7 221.7 222.8 214.4 204.8 194.9 187.7 183.9 184.1 184.4 186 189.9 194.4 198.5 202.9 205.8 208.6 210.3 210.2 211.2 206.9 201.9 200.2 197.9 195 193.8 189.3 187.2 185.6 181.6 179 174.2 176.1 175 171.4 168.1 168.8 153.4 157 158.6 161.1 163.6 163.8 164.2 167.6 163.2 157.2 151.4 147.2 144.7 142.1 139.6 138.8 136.6 130.3 130.2 130.6 128.4 128.2 128.1 128.6 124.5 129.1 130.5 132.9 140.6 145.8 149 157.9 160.4 163.7 167.8 170.7 168.8 167.1 170.1 171 172.5 170.3 168.5 166 166.9 166.4 165.2 164 163.2 160.7 161.1 160.2 161.2 157.2 151.9 150.2 148.6 147.8 148.6 150.6 157.1 160.6 162.8 165 166.8 171.1 176.3 182.8 189.3 195.2 200.8 201.6 198.2 192.5 187.1 184.2 177.2 171.5 166.6 161.7 159.3 156.8 155.3 153.5 151.5 148.4 147.2 146.5 145.8 144 141.6 139.9 139.7 138.5 137.1 139.3 141.5 142.2 136.1 138.5 146.4 150.4 154.4 157.6 156.6 158.6 163.1 168.3 172 173.5 178.4 183.6 184.1 179.2 170.1 163.6 160.2 158.4 153.9 150.1 145.8 140.1 139.1 136.7
117.3 118.9 120 121.2 123.2 124.7 126.5 128.4 128.5 127.9 127.6 128.2 128.9 130.2 131.7 130.4 130.7 131.6 133.3 135.1 137.7 138.7 142.6 145.5 145.3 149.4 152.7 155.7 158.6 164.9 171.9 176.1 181.3 184.4 187 190.2 194.6 200.5 208.4 217.7 228.1 227.6 221.1 211.2 201.2 192.6 187.5 186.5 186.1 188.2 192.6 198.6 204.4 209.5 211.7 212.4 213.2 213.5 212.1 208.8 205.5 201.6 198.8 195.3 194.3 193.2 190.4 188.9 186.6 183 173.3 178 177.6 173.5 174.8 169.1 169 157.4 152.8 155.8 158.9 163.6 166.9 161.7 162.2 158.3 152.6 148.4 145.8 143.3 140.7 139.8 138 136.6 133.3 129.8 128.4 127.9 127.8 127.7 124.5 123.6 128.3 131.7 139.8 147.2 149.3 152.3 157.1 158.7 164.5 167.2 166.5 165.1 167.4 169.7 171.3 169.7 167.6 165 164.4 164.2 163.4 162.7 162.2 160 160 158.9 157.9 153.6 151.1 149.8 147.8 146.7 149.3 151.9 154.5 159 160.3 160.1 162.8 169 175.2 182.1 188.9 194.8 200.2 202.7 201 195.4 190.5 186.6 183.9 177.2 169.9 163.6 160 158.7 156.1 153.3 151.9 149.1 147.1 145.5 144.2 142.1 140.7 139.2 138.7 138.3 137.2 137.8 139.5 141.6 136.1 135.1 143.5 147.6 151.2 154.3 155.9 157.5 160.8 165.9 169 172.8 176.3 181.1 181.8 181 173.5 165.6 161.6 158.8 155.5 151.5 146.7 141.8 138.5 136
118.5 118.7 119.5 120.8 122.5 123.2 123.6 125.5 126.5 128.3 129.5 128.6 128.2 128.7 129.1 131.5 132.6 133.7 135.9 136.4 139.8 141.3 144 146 146.7 148.8 154.9 156.9 157.4 164 169.4 175.2 180.5 184.9 190.9 195.6 202.4 208 216.8 225.6 229.4 229.1 223.6 217.2 210.6 200.7 191.5 188.5 188.7 191.3 197.1 203.9 209.2 212.3 214.7 215.4 215.6 215.4 214.1 210.8 206.7 202.4 199.2 198.4 197.5 194.4 193.7 192.5 189.5 182.2 183.2 180.5 179.1 179.1 170.8 169.9 164.1 162.3 153 150.1 153.1 158.7 163.9 165.5 162.7 158.1 157.1 151.3 147.6 145.4 142.3 138.9 136.7 134.7 133.8 131.5 129.3 128.6 133.6 127.5 124.5 124.5 126.7 132.4 142 148 150.2 152.7 154 155.8 159 160.4 162.6 163.1 164.5 167.5 169.4 169.9 167.8 164.7 162.5 161.4 162.3 161.7 161 159.6 159.1 157 155.6 152.3 151.3 149.8 149.8 145.9 150.7 152.7 154.3 156.9 157.9 160.6 164 166.7 173.3 180.1 186.3 193.6 198.1 200.9 202.1 197 192.3 188.3 185.4 180.2 174 168.2 163.1 160 157.3 154.7 152 149.8 148.1 146.5 144.6 143 141.8 139.2 138.6 137.5 137.1 136.3 138.1 140.5 141.9 134.9 139.3 145.8 148.1 150 155 157.9 160.6 162.9 168.5 170.9 173.8 177.2 181.8 183.4 176.9 168.2 163.3 158.5 155.4 150.6 146.1 140.9 137 135.2
