ncols 200
nrows 82
xllcorner 320000
yllcorner 755600
cellsize 50
324.8 323.9 322.4 321.5 323 323.3 323.1 320.7 318.3 315.6 312 309.3 307.8 304.4 309.3 315.2 321.5 329.7 336.8 342.8 344.8 344.6 345.8 344.7 343.7 343.4 344.6 338.7 335.5 334.1 333.1 332.5 332.2 333.5 334.8 336 338.1 336.7 332.3 325.5 317.8 310.6 302.7 294.4 286.5 278.1 272.1 266.9 263.2 257.8 251.8 240.7 227.6 224.7 224.1 224.3 223.6 225.4 223.4 223.9 222.4 222.6 222.4 221.7 223.5 225.8 238 238.5 235.8 248.9 254.1 261.8 272.5 279.3 284.8 290.7 296.9 304.3 309.5 311.6 311.7 312.4 312.1 309.9 307.5 299.4 292.9 288.2 294.7 301.4 310.2 317.9 325.1 332.1 343.6 355.4 365 367.6 367.7 364.4 357.9 349.5 340.1 329.9 318.7 307.9 297.4 294.7 294.7 294.7 294.7 294.7 294.7 294.7 294.7 294.7 294.7 294.7 294.7 294.7 298.3 305.8 312.9 319.6 326.9 333 336.3 338.3 342.7 347 350.9 359.7 367.9 377.3 386.9 398.1 407.1 418 429.6 442.1 451.1 457.9 460.9 458.2 452.9 443.4 429.7 410.9 387.2 367.2 348.6 332.5 321.2 309.2 293.8 283.1 272 256 254.6 256.4 261.8 269.1 274 277.5 284.1 287.5 288.1 286.7 283.5 280.7 277.8 274.6 268.7 266.9 280.5 288.5 297.2 307.8 318 329.8 339.5 348.7 356.3 363.3 371.8 382.6 392.2 400.7 407.7 414.5 422.4 429.6 435.7 440.7 442.9 443.4 443.3 442.4 441.4 439.6
333.2 332.4 333.1 332.4 332.5 332.2 331 329 326.5 323.8 320.5 317.1 315.1 313.3 313.4 319.1 325.9 334.3 342 346 347.9 349 349.6 349.9 347.6 346.1 345.3 344 340 339.1 337.2 336.3 336 337.1 338.4 340.4 343 343.6 341 335.3 327.3 317.6 308.8 300.8 292.7 284.5 278.4 273.3 267.6 262.1 257.9 255.5 246.4 232.3 223.3 221.8 223.1 221 220.3 220.4 219.6 219.5 221.3 221.9 221.1 221 233.6 233.2 232.9 243.2 253.1 256.9 266.8 273.9 280.6 284.9 290.6 296.7 301 303.7 304.1 306.7 307.5 305.9 304.3 297.1 289.9 285.9 293.8 302.6 311.1 319.6 327 336.6 348.2 360.5 368.4 371.6 372.4 368.3 360.5 352.3 342.2 333.9 323 312.7 301.5 294.7 294.7 294.7 294.7 294.7 294.7 294.7 294.7 294.7 294.7 294.7 294.7 294.7 294.7 301.5 306.3 312.3 316.7 321.8 326.5 330.9 334.4 343.2 348.8 358.2 368 378.2 388.8 400.8 411.1 422.1 434.3 446.9 456.8 461.7 463.6 463.2 458.3 450.2 438 423.3 399.6 375.3 352.4 337.4 326.9 312.9 299.2 287.1 272.5 259.7 253.8 254.2 259.9 265.2 270.1 273.1 276.8 281.6 283.7 283.8 280.9 277.5 274.1 268.8 266.1 274.3 281.6 291.3 303.6 315.1 327.7 341.7 353.9 363.3 371.1 378.5 386.3 395.9 404.9 412.2 417.6 422.9 428 435.2 440 443 441.4 441.3 440.7 441.3 440.3 439
340.9 341.2 342.7 342.8 341.8 341.5 339.7 337.8 335.7 331.8 328 324.4 322 319 316.1 323.3 330.5 338.2 344.3 348.2 349.7 350.9 351 350.1 350.2 349.3 348.2 347.5 344.3 341.6 341.4 340.1 338.7 338.3 339.9 342.7 344.4 346.3 346.5 343.2 335 323.9 313.5 305.8 298.4 289.1 284.2 278.7 272.3 268.7 264.9 260 255.4 249.2 243 236.1 229.7 226.6 222.5 221.7 221.4 221.2 220.1 220.9 220.9 220.9 224 228.9 231.4 238.9 249.7 254.2 260.7 267.9 274.4 279.4 283.7 289.7 293.4 295.5 298.5 301 302 301.7 299.1 293 285.9 287.7 295.2 304.1 312.9 323 332.1 342.3 353.2 364.7 372.2 375 374.7 370.8 361.5 353.1 344.2 334.4 325.2 315.7 305.8 294.7 294.7 294.7 294.7 294.7 294.7 294.7 294.7 294.7 294.7 294.7 294.7 294.7 294.7 296.6 303.4 307.5 311.7 311.8 317.9 325.8 334.7 340 349.2 361.5 372 383.6 395.6 407.2 418.4 429.7 441.9 453.2 463.2 467.3 467.4 467.5 463.7 457.3 445.6 432.2 412.3 384.3 361.6 341.3 329.5 316.8 303.2 291.6 277.3 265.2 253.4 252.7 255.8 262 265.9 269 273.1 275.6 279.8 280 276.6 273.7 269.8 264.4 264.3 275.2 282.7 295.9 308.7 323.2 340.1 354.8 365.6 374.4 382.2 389.8 396.8 405.4 412.1 417.4 422.4 427.4 431.1 436.3 437.7 437.3 436.6 436.6 436.5 437.3 434.7 432.8
348.3 349.6 352.1 352.3 351.7 350.4 348.5 346.5 343.6 338.9 334.6 331.4 328.2 323.6 322.2 326.2 332.3 337.5 344.1 348.6 351.1 352.7 351.7 352.7 352.8 352.3 350.7 348.8 346.9 343.3 343.2 342.1 338.5 337.4 339.9 342.5 344 345.2 346.9 349 342.4 330.9 318.8 310 301.9 294.8 289.6 283.9 277.4 274 269.6 264.8 260.3 257.1 255.4 248.2 241.2 228.9 226.4 221.3 221.3 221.2 220.7 220 220.3 221.4 221.5 227.6 230.3 237.6 245.2 252.6 255.5 261.4 268 273.5 277.6 282.5 287.8 290.3 294.2 296.2 296.2 293.4 292 288 282.7 289.2 297.6 305.9 315.3 325.4 337.1 348.3 359.8 368.2 374.3 377.4 375.6 373 364.2 352.8 343.1 334.8 324 317.4 307.2 300.6 294.7 294.7 294.7 294.7 294.7 294.7 294.7 294.7 294.7 294.7 294.7 294.7 294.7 294.7 294.7 303.9 308.4 316.4 323.7 328.9 336.1 344.5 356.1 368.1 379.8 392.3 403.8 417.3 431.2 441.2 449.9 460.4 471.3 476.4 476.3 473 468.1 461.2 450 435.1 417.8 395.6 370.3 349.3 334.1 320.9 308.6 298 286 272.4 258.6 251.6 252 257.1 262 263.5 267.6 271.9 273.8 276.8 273.5 271.5 268.7 261.6 266 275.6 282.6 298.9 315.2 330.5 344.6 361.8 373.4 383.5 391.8 399.1 406.2 412.9 418 421.8 425.4 427.4 429.2 431 432.5 434.2 431.9 430.5 429.8 429.1 429.7 428.5
356 358.8 361 360.6 360 359.1 356.6 354.4 350.8 344.5 339.8 337.3 333 328 327.3 327.6 333.1 337.7 342.3 347.9 351.7 353.8 354 354.2 354.9 354.9 353.9 351.9 349.5 345.3 341.6 340.6 338.8 336.9 338.1 340.5 342.2 342.8 342.4 346 344.8 335.8 325.3 313.8 305.8 300 294.4 288.9 282.2 278.1 273.5 268.9 264.9 259.4 256.1 255.3 250.4 240.8 229.4 225.3 221.3 220.7 220.5 219.7 232.4 224.7 223.3 226 229.2 235.2 241.7 248.1 250.8 256.3 261.8 267.6 273.4 275.9 282 285.3 286.2 285.3 285.7 284.8 284.9 280.3 283.7 290.9 300.2 307.7 318 330.1 342 355.7 367.3 373.7 379.6 379.7 376.9 371.9 364.3 351.8 338.9 331 322.5 316.8 306.6 300.6 294.7 294.7 294.7 294.7 294.7 294.7 294.7 294.7 294.7 294.7 294.7 294.7 294.7 294.7 298.9 305.2 311.4 318.2 324.4 333.6 343 353 365 377.8 389.7 402.1 414.4 430 443 453.2 461.3 471.1 478.9 484.7 485.5 481.8 474.9 463.8 451.7 437.1 422.3 402.1 380.9 361.2 348 335.5 324.4 311.2 295.1 280.2 266.3 253.1 251.1 251 257.3 259 261 265.6 270.9 273.5 271.2 269.1 265.7 260.3 266.3 275.8 282.6 297.4 316.1 332.3 351.2 357.7 378.8 388.8 398.2 407.1 414 419.6 422.2 424.3 425.1 426 426.9 427.1 427.4 428.3 426.2 424.9 424.5 422.9 420.9 418.6
364.6 367.9 369.6 370.4 369.4 367.8 365.3 361 355.9 349 342.9 340.2 337.4 332.3 330 331.1 335.1 339.6 342.5 346.8 352.3 355.3 356.7 356.3 355.7 355.8 355.2 354.1 351.4 347.6 343.9 340.6 338.8 336.9 335.4 337.3 339.1 339.3 338.9 339.5 342 339 327.5 318.1 308.8 302 296.5 290.7 285.4 280.7 276.4 272.2 268 264.1 258.2 254.3 252.5 249.6 242.2 225.1 223.2 220.1 220.1 217.8 220.3 225.6 221.3 223.8 226.2 231.2 237.4 242.4 244.8 250.6 256 261.9 267.1 269 272.7 274.8 276.1 273 274.3 275.4 280.9 284.9 287 294.2 302.8 310.4 322.9 335.7 348.1 361.7 372.6 380 382.6 381.2 376.3 368.9 359.5 347.5 335.4 326 316.8 311.4 303.6 295.3 294.7 294.7 294.7 294.7 294.7 294.7 294.7 294.7 294.7 294.7 294.7 294.7 294.7 294.7 301.5 307.3 313.2 321 329.8 341 351.9 364.8 377.6 390.2 403.1 414.4 428.5 441.7 453.8 463.2 472.5 479.8 486.8 491.2 491.6 487.4 479.6 469.5 456.8 441.5 426.6 409 389.9 377.4 363.7 349.1 335.3 323.1 307.4 289.7 275.5 262.2 250.6 250 249.7 255.2 256.8 259.3 264.3 270.7 271.6 269.3 265.5 258.3 266.4 275.2 282.4 294.9 313.3 326.5 345.6 366 381.2 391.5 399.4 410 416.7 420.8 424.4 424.7 423.9 422.7 419.1 417.1 416.5 415.5 415.5 416.3 413.5 411.5 409 407
372 376.2 377.4 378.6 378.4 375.2 371.6 367.2 359.7 353.1 345 342.6 340.2 336.6 333.7 333.3 335.2 338.2 341.6 346 351.6 357 359.4 359.3 357.6 357.3 356 354 352.5 349.3 345.9 342.4 338.8 336.8 333.4 333.6 335.2 336 335.7 335.8 336.5 337.7 332.6 323.6 314.1 304.6 298.2 292 288.2 281.7 277.7 273.9 270.1 265.7 260.9 256.4 253 249.2 242.1 231.6 222.9 224 219.7 217.7 219.9 223 220.1 222.9 224.9 227 230.9 233.8 237.1 242.6 248.8 255.8 259.7 260 262 259.9 260.4 269.9 276.3 282.2 287 289.8 292.3 297.2 304.6 313.6 326.4 339.4 354.6 368.6 377.6 383.6 384.8 381 374.5 365.5 354.3 342.7 331 320.7 311.6 304.9 297.4 294.7 294.7 294.7 294.7 294.7 294.7 294.7 294.7 294.7 294.7 294.7 294.7 294.7 294.7 294.7 303.4 309.9 318.2 326.3 339 350.7 364.9 377.6 390.8 403.3 414.9 427.4 439.7 450.9 462.6 472.7 480.4 488.5 493.9 497.3 494.6 489.2 481.1 472.9 461.4 448.5 435.5 418.9 401.4 388.4 374.5 357.6 344.3 331 315 300.5 286.9 274.4 261.7 249.3 249.3 249.5 252.7 254.4 257.2 261.9 267.8 267.5 263 256 266.2 273.4 284.1 302.5 318.3 330.6 344.6 365.1 380.1 391.4 396.5 406.4 413.9 417.9 419.8 419.2 417.2 413.4 410.8 409.4 409.2 409.4 406.7 405.4 402.3 399.4 397.1 396.7
378.3 382.9 386 386.2 383.4 380.1 376.6 370.9 362.5 355.9 349.3 343.7 341.4 339.4 336.5 334.5 335.7 337.2 340.9 345.7 350.9 357.8 360.6 362.1 359.6 360 358.5 357.3 355.8 352.7 349.3 345.8 340.5 336.2 332.4 331 331.6 332.6 332.5 332.4 332.4 333.2 331.4 324.9 316.7 308.7 299.5 294 289.6 284.2 278.7 273.5 270.2 266.5 262.2 258.1 253.8 250.5 246.7 241.8 233.6 220.5 220 219.3 219.3 219.2 219.8 220.8 222.2 226.5 229.7 230.6 233.7 236 238.7 244.7 245.1 248.9 254 257.4 265.6 271.4 278.1 283.6 289.3 293.8 297.9 302.5 308.5 316.8 328.7 343.1 359.6 372.7 380.8 384.7 384.9 381.6 372.8 360.6 348.1 336.8 325.3 314.2 305.4 296.8 294.7 294.7 294.7 294.7 294.7 294.7 294.7 294.7 294.7 294.7 294.7 294.7 294.7 294.7 296.3 301.2 306.4 315.1 323.2 334.4 348.2 362.6 376.9 387.9 401.1 412.7 423.9 436.5 449.1 460.1 470.6 481.7 488.2 492.4 495.1 494.2 493.4 487.4 482.1 473.1 463.5 453 441.2 429.1 413.8 395.4 381 365 348.9 337.5 322.3 307.4 292 281.2 269.3 258.6 249.1 248.9 249.1 249.6 251.1 254.4 259.8 262.8 260.9 255.7 263 274.6 288.9 302.6 314.8 328.8 344.9 361 374.9 386.2 393.9 397.1 402.9 408.6 411.6 411.8 409.4 404.9 399.5 397.6 399.9 397.7 396.1 393.1 390.6 389 387.8 385.7
386.4 389.5 392 392.3 387.5 385.2 380.5 372.7 366.2 359.8 354 345.5 342.5 339.6 337.8 337.2 337 338.6 341.6 346.8 351.2 356.9 362.1 363.8 363.9 363.9 361.7 359.7 358.8 355.9 352.8 349 343.7 337.7 334.1 330.2 329.4 329.2 329.3 329.6 329.8 329.9 330.1 326 318.4 310.4 301.9 295.4 290.8 286 280.5 275.1 271.2 267.4 263.3 258.8 254.5 251.1 247.9 244.7 239.3 229.6 221.8 219.1 217 217.8 218.7 219.4 219.8 223.2 230.9 237.4 240.8 244 244.4 245.2 248.7 251.9 257 262.3 267.3 272.6 277.9 283.1 289.6 296.3 301.2 306.5 311.3 319.1 332 346.4 361.6 373.1 382 385.1 384.1 378.9 370.4 357.7 344 331.8 320.5 307.9 299.1 294.7 294.7 294.7 294.7 294.7 294.7 294.7 294.7 294.7 294.7 294.7 294.7 294.7 294.7 296.7 304.1 309.1 312.1 321.1 329.8 342.7 356.4 371.1 384.9 397.5 409.8 420.5 432.4 445.1 458.1 470.3 478.4 485.7 490.8 493 492.2 489.9 487.7 484.2 478.5 470.8 463.3 453.1 442.5 432.4 419.4 402.8 385.6 370.2 354.6 340 326.9 312.1 295.6 283.5 274.1 264.8 259.3 253.5 247.9 248.3 249.4 250 253.6 256.8 255.9 255.1 262.6 278.1 289.2 300.2 312.2 327.8 339.9 352.9 365.1 376.9 387.6 392.8 393.1 395.4 401.5 402.3 403.5 401.9 397.6 387.7 385.5 384.3 384.5 384 380.6 377.2 376.9 376.1
394 396.4 395.9 394.8 390.9 387.2 381.5 374.4 368.4 361.3 355.9 348 342.9 341.7 340.1 339.7 339.4 340.4 343.3 347.7 352.1 356.6 363.5 366.7 367.8 368.4 365 363 361.6 358.6 356.9 351.7 344.1 341 335.6 331.2 328.2 326.9 326.9 327.2 327.3 326.8 326.7 326.9 321.4 314 306.5 297.4 291.6 286.8 281.9 276.9 272.2 268 263.5 258.1 253.3 250.7 249.1 244.9 240.8 231.9 225.9 219.8 217.8 217 217.5 218.4 219.1 221 229.2 234.3 238.1 240.2 242.1 243.8 248.1 251.3 256.6 260.7 264 269.3 275.8 282.4 290.8 297.9 303.6 310.7 315.3 321.6 333.7 348.6 360.4 373.4 382.1 385 381.4 374.7 367.2 354.4 340 326.3 313 303.5 294.7 294.7 294.7 294.7 294.7 294.7 294.7 294.7 294.7 294.7 294.7 294.7 294.7 294.7 294.7 304.9 311.4 317.8 322.4 326.5 336.8 350.1 364.3 378.2 392 405.8 418.9 430.8 441.7 454.2 466.3 474.4 481.2 484.9 487 488.2 488.8 487 484.7 482.2 475.3 467.1 459.2 449.7 441.5 432.2 418.7 404.6 390.5 373.8 360 344.1 329.7 317 301.7 285.3 276.5 269.7 264.1 257.5 248 247.1 246.7 249.3 249.7 251.2 252.4 253.6 264.1 280.3 288.2 298.6 310.9 323.4 336.5 346.5 358.6 368.9 378.1 384.5 389.4 389.1 389.8 393.1 392.7 389.7 386.3 381.5 372.8 366.8 365.9 365.6 365.2 365.4 364.9 366.3
401.4 404.9 402.6 397.8 391.9 387.4 381.7 375.9 369.6 361.2 354.8 350.1 345.4 341.6 342.2 341.9 341.8 343.7 346.3 349.7 354.2 359 365.4 371.8 374.9 372.4 370.4 368.6 365.6 364.2 361.3 354.8 349.8 344.2 338.5 333.5 329.8 326.8 324.9 324.8 324.2 323.8 323.4 324.6 322.7 316.7 309.9 300.5 293.1 288.1 283.2 278.2 272.7 267.7 262.8 257 252 248.3 246.2 243.5 238.3 233.5 228.2 224.4 219.3 218.2 218.1 218 218.3 218.7 226.6 231.2 234.7 236.5 238.8 241.3 244.4 247.9 251.9 256.9 263 268.8 275.1 284.4 292.7 300.9 307.2 316.1 320.1 325.9 335.8 349.3 360.6 372.1 382.1 382.2 377.5 369.5 362.3 350.1 336.4 322.4 308 297.1 294.7 294.7 294.7 294.7 294.7 294.7 294.7 294.7 294.7 294.7 294.7 294.7 294.7 294.7 302.8 312.8 321 327.4 331 336 343.3 355.2 370.2 383.8 397.1 411.2 426.9 441.6 453.8 460 467.9 474.6 478.9 482.4 484.4 485.6 485.1 482.7 480.7 476.4 470.8 461.3 453 445.3 439.7 429.6 417.9 403.5 390.9 377.4 363.6 348.1 333.4 318.6 307.2 291.6 282.1 274.6 268.5 261.9 251.6 246.2 245.8 247 249.2 249.7 249.9 258.3 266 279.8 287.6 298.1 307.6 317.2 330.4 338.5 348.5 355.8 365.6 373.8 379.2 380.8 380.5 374.6 376.3 375.5 372 367.5 361.4 354.1 351.2 349.8 351.5 352.6 354.9 357.3
407.7 407.2 404.8 400.2 394 387.6 382 376.7 369.3 363.2 356.7 352.8 347.8 343.9 343.8 344.2 345.4 347.3 350.1 353.2 357.4 362.7 370.1 378.5 381 379.6 378.4 374 371 368.3 361.7 357 352.1 347.3 341.6 336.6 332.4 329.9 326.4 324.8 323.9 323.1 321.3 321.8 321.8 319.2 313.6 305.5 295.7 290.1 285.1 280.1 272.2 264.5 258.1 253.3 249.5 247.4 243 241.7 237.7 233.6 230 225.2 221.9 217.3 218.2 217.8 217.4 218.6 222.5 229.2 232.2 233.8 235.6 238.7 240.8 243.2 248 255.9 264.7 273.2 279.7 287.2 295 306.6 312.2 318.8 325.2 330 337.9 351.5 360.6 370.2 379.3 378.3 373.4 364.8 354.4 344.6 331.1 319.6 306.4 297 294.7 294.7 294.7 294.7 294.7 294.7 294.7 294.7 294.7 294.7 294.7 294.7 294.7 298.8 310.2 322.2 332.1 338.3 342.6 345.7 351.1 360.8 374.4 388.2 401 418 434.3 446.4 455.7 462 466.3 472.4 476.9 479.4 480.3 480.6 479.8 476.4 472.2 468.2 461.7 453.9 448.7 442.6 434.7 426.1 414.8 401.8 388.4 377.6 364.6 347.2 332.2 319.2 308.7 298.4 289.5 280.4 271.8 265.5 257.5 249.6 245.5 245.1 246.6 248.3 249.4 257.3 266.1 277.3 287.1 295.6 303.3 309.5 319.4 328.1 335.6 342.6 350.9 356.1 361 364.1 364.3 362.4 359.3 354.4 354.6 353.1 347.4 343.1 340.4 340.5 340.7 342.6 345.7 348.3
411 410.8 408.1 402.5 396 389.1 382.2 375.9 370.1 364.2 359.8 354.7 350 346.6 346.1 347.2 349.4 351.6 355.3 358.4 362.4 368.8 377.8 384.9 387.9 387.3 385.6 384.1 377.7 372.5 366.5 361.5 357 351.3 345.6 341.1 336.8 333.2 329.3 327 325.3 323.7 321.8 319.8 318.3 319.2 317.2 310 300.1 291.7 285.3 277.1 274.7 268.6 261.9 256.4 248.5 243.3 242.6 238.1 236.7 233.1 229.9 225.3 222 218.8 217.8 217.5 217.4 217.4 218.4 224.3 230 232 233.4 235.7 237.2 239.7 247 259 268.4 277.1 286.5 293.6 303.6 311.2 316.4 320.8 327.9 334 342.5 353.6 361.4 372 376.7 373.3 367.9 358.3 346.2 336.1 325 316.6 306 294.7 294.7 294.7 294.7 294.7 294.7 294.7 294.7 294.7 294.7 294.7 294.7 294.7 294.7 304.8 319.6 332.5 343.3 350.1 355.4 358.2 360.1 366.6 378.4 392.1 403.8 419.5 437.1 445.9 454.2 459.8 463.2 468.3 471 475 475.9 473.3 469.2 465.8 459.8 455.3 449 445.3 440.7 436.6 428.7 420.6 410.8 398.5 386.7 376 360.1 345.8 332.7 319.5 310.2 302.7 295 285.7 275.3 268.2 261.4 254.3 245.6 245.2 245.5 247 248.5 255.8 263.9 273.4 283.6 290.2 296.3 303.9 312.2 315.4 317.9 328.8 335.5 341.4 344.2 347.4 349.6 348.4 345.5 341.4 340.4 337 334.3 333.4 332.4 332.8 333.8 335.8 337.8 338
414.9 413 409.5 404.4 397.9 390.7 382.2 376.2 370.3 365.7 362.1 357.1 352.7 349.7 348.3 350 352.7 356.6 361.4 364.4 369.6 377.2 384.2 391.6 394.2 395.7 394.1 391.8 387.2 378.2 371.3 365.6 360.4 354.4 349.1 344 340 336.2 333.2 330.4 328.9 327.7 325.4 323.7 319.9 315.1 311.6 310.7 302.2 293 287.9 282.7 278.1 271.8 265.8 259.1 251.8 245.6 239.3 235.7 232.9 228 226.6 224.9 223 219.5 216.4 217.5 217.4 216.6 216.6 219.8 227 228.8 231.2 233.5 233.6 239.4 251.5 264.7 276.9 284.3 296.1 303.6 310.3 317 321.5 326.3 332.6 338.2 345.8 355.2 363.9 373.1 373.5 368.3 359.9 350.7 337.2 325.3 318.3 307.8 299.3 294.7 294.7 294.7 294.7 294.7 294.7 294.7 294.7 294.7 294.7 294.7 294.7 294.7 298.4 313.1 329.1 343.9 357.2 364.4 367.3 370 371.4 375.1 383.6 392.1 405.4 419.8 435.7 446.9 453 458.9 462.9 465.5 466.8 467.8 467.5 463.5 458.8 453.4 448.7 443.1 436.7 432.2 428.9 423.8 419 411 403 393.4 381.3 371.1 360.1 347.1 334.4 320.4 311.3 305.2 296 288.1 278.4 270.8 263.6 258.5 252.2 245.5 245.6 246 247.7 254.8 262.7 269.2 276.9 285.8 288.3 294.6 304.5 309.5 313.4 314.3 321.3 328.9 334 336.4 333.2 333.7 326.3 321.8 319.5 328 327 328.3 326.5 327 329.2 330.7 329.2 341.2
417.4 415.2 411 405.6 398.4 391.3 384.6 377 371.6 367.1 363.4 360 357.8 354.2 351.2 353.2 356.8 361.5 365.5 370.6 377.9 386.2 391.9 398.8 401.5 402.5 400.7 397.8 391.3 384.6 376.4 370.2 363.8 357.9 352.7 347.8 344.3 340.9 337.9 334.9 333.5 332.2 330.1 327.2 324.5 320.5 316.5 312.1 305.6 300 294.5 288.7 282.6 276.1 269.4 261.5 254 247.2 238.9 232 228.7 226.9 225.3 225.2 223.6 222.2 221.3 217.2 216.5 216.6 216.7 216.6 223.5 226.4 230.1 231.9 232.2 242.1 256.6 270 282.1 293.7 302.9 310.9 318.5 324.6 328.6 332.8 337.7 344 351.3 358.8 365.7 372.2 369 361 352.6 341.8 328.7 318.5 310 298.8 293.9 289.2 298.9 294.7 294.7 294.7 294.7 294.7 294.7 294.7 294.7 294.7 294.7 294.7 308 323.6 340.2 357.3 372.4 377 379.8 380.5 381.4 384.8 390.3 401.1 411.6 421.1 436.4 447.7 454.8 458.8 461.6 463 463.6 462 459.7 454.1 449.1 443 435.9 429.9 422.3 415.2 411.9 410.4 407 401.9 393.7 385 378.6 369.3 359.1 346.6 335.7 321.6 313.3 306 297.4 290 281.7 272.7 266.5 261.2 255.6 246.2 244.5 244.8 247 253.8 260.4 265.6 271.5 277.1 283.7 288 297.2 304.4 307.8 310.1 310.9 314.1 320.1 326.9 331.4 333.5 334.6 334.2 321.3 310.6 306.4 320.2 320.6 321.3 323.8 321.1 330.9 346.6
416.4 414.7 410.2 405.2 399.7 393.5 386.1 378.6 373.1 369.1 366 364.1 362.2 359.5 355.5 358 361.5 365.8 371.4 379.6 387.4 393.9 399.8 405.9 409 409.2 408.3 404.2 396.4 389.5 381.5 374.5 367.2 361.9 356.6 352.3 349 346 343 340.3 338.7 337 334.2 332.1 330 325.6 320.4 314.8 309.6 305.1 300 294.3 287.8 280.5 272.1 263.6 255.8 247.9 240.1 232.2 226.2 225.2 224.5 225 223.6 222.6 221.8 215.3 216.5 216.9 216.9 216.7 220.7 226.2 229.2 230 232 242.8 258.5 272.6 286.5 298.6 308.7 316.7 324.6 332 338 342.1 346.9 352.3 358.9 366.7 369.6 369.4 363.9 354.8 343.8 332.8 319.9 308.5 298.9 291.2 285.2 281.5 286.4 295.3 294.7 294.7 294.7 294.7 294.7 294.7 294.7 294.7 294.7 298.3 316.8 334.1 352.3 369 381 389 392.1 393.5 395.1 396.9 401.2 409.3 420 428.7 438.9 450.2 457.4 456.4 455.6 456.9 456.7 455.2 450.5 445.4 438.8 430.8 422.5 415 407.8 400.6 396.2 392.4 391.8 389.3 386.5 379.1 373 365.1 355.8 344.5 335 323.5 315 307 299.2 292.1 284.2 275 267.5 260.8 252.6 244 243.4 243.8 246 253.6 258 261.8 267.5 272.7 278.6 282.4 288.2 294.9 299 302.9 305.1 307.7 307.9 310.5 312.8 320.9 322.3 321.9 325.1 322.4 304.2 313.2 313.7 314.5 315.2 321.6 322.8 329.6
416 414.2 410.8 406.1 401.3 395.7 389.7 382.5 376.7 372.2 369.8 367.9 366 364.7 361.1 362 367.8 372.3 378.7 387.9 396.9 404.4 409 413 416.3 417.7 415.2 409.3 402 394.5 387.8 379 371.4 365.5 360 356.7 354 351.2 348.7 346.3 344 342 340.2 338 335.3 333.1 328 320.8 314 309.7 304.8 299.6 292.5 285 276.9 268 259.1 249.1 240.7 232.4 225.8 223.8 223.8 224.2 223.3 222.2 220.4 217 216.6 216.6 216.6 216.3 218.7 223.8 227.4 228.5 232.7 245.4 258.5 274.7 289.9 302.5 313.7 323.4 331.2 340 346.5 351.1 355.5 360.7 366.7 370.8 369.6 366.9 359.1 348.9 336.5 320 309.3 299.3 291.4 283.4 278.6 275.5 273.1 281.8 290.2 294.7 294.7 294.7 294.7 294.7 294.7 294.7 294.7 309.4 326.1 344.5 361.2 376.3 387.4 398.1 403.2 406.7 410.2 411.7 413.2 420 427.6 437 447.8 457.6 460.8 461.6 457.5 448.2 446.6 444.3 440.2 434.4 426.9 418.2 409.4 400.7 392.7 385.1 379.6 376.1 377.4 378.7 376.5 372.2 366.5 359.8 350.9 342.2 334.2 326.9 318.4 310.3 303.1 295.9 286.8 277.3 267.8 258.3 249.5 242.8 242.9 243.4 245.2 250.6 253.3 257.9 263.2 268.3 272.7 276.9 279.2 286.1 290.3 292.9 298.3 304.1 304.9 301.9 301.6 306.9 309.3 310.4 309.7 309.3 295.8 304.9 305.8 304.8 310.8 321.4 331.2 334.1
418 416 411.9 407.4 403.2 401.6 396.3 390 382.8 378.2 375.8 373.6 372.8 369.6 368.3 368.6 372.9 378.4 385.2 395 405.8 413 417 420.8 424.3 425.1 421.4 415.2 408.3 401.2 392.7 385.2 376.5 369.2 363.8 360.5 358.7 356.5 354 351.5 349.5 348 346.4 344.6 342.1 339.4 335.6 329.4 320.8 313.4 309.9 303.8 297.2 289.5 280.6 271.9 263.1 252.7 240.3 232.2 226.8 222.6 222.2 221.7 220.9 220.7 218.8 217.2 215.9 216.6 216.4 216.1 216.1 221.8 225.3 231 236.1 247.6 262.9 276.9 291.3 304.6 316.5 328.7 337.8 346.9 354.8 359.5 364.1 369.2 373 371.8 368.5 363.5 354.4 342.1 323.3 309 300.9 292.1 283.2 276.5 273.4 270.6 266.1 269.1 278 285.9 296 294.7 294.7 294.7 294.7 294.7 306.2 320.4 336.8 353.4 368.7 383.1 394.9 405.7 413 418.8 423.2 425.5 427.9 433.4 440 448.7 455.5 462.7 464.2 462.8 457.7 449.6 440.7 434.8 429.7 422 413.3 405.7 397.6 390.2 381.2 374.9 370.3 366.4 365.1 364.9 364.7 362.5 357.1 351.3 344.9 338.7 334.6 330.1 321.8 314.9 307.7 298.3 287.5 279.5 270 259.9 249.8 243.5 241.9 241.8 242.2 245.8 249.8 254.1 259.1 263.9 268 271.2 274.7 281 284.1 287.2 289 293.8 295.3 294.4 296 295.8 296.7 297.6 298.1 297.9 296.4 293.3 295 300.3 312.3 322.9 331.6 338.9
421.1 419.7 416.1 410.7 406.6 406.8 403.2 399.6 392.9 388.2 385.3 383 381.4 378.8 375.9 376.1 379.6 385.1 393.6 402.9 411.9 420 425.3 429 432.1 432.2 427.3 420.7 414 406.6 398.7 389.8 381.4 373.8 367.7 364.2 362.4 360.8 359 356.8 355.3 353.9 352.6 350.2 348.1 345.5 341.1 335.6 328.8 322.6 316.9 307.9 300.9 293.6 283.5 275.4 266.7 256.5 244 233.1 226.3 221.5 219.9 219.2 218.6 216.7 216.6 217.1 216.8 216.4 216.2 216.1 216 220.3 227.9 234 238.4 249 266.2 279.9 293.5 306.8 318.9 330.9 342.6 352.8 361.4 367.4 371.3 376.2 375.1 370.4 365.2 357.8 344.9 327.1 313 302.4 294.7 285.9 277.5 270.9 268.2 264.9 255.7 257.2 265.1 273.6 282.8 290.7 294.7 294.7 294.7 302.2 315.6 331.2 345.8 361.5 375.1 389.6 403.8 415.6 424.3 432.2 435.6 438.7 441.5 447.8 453 458.2 463.8 465.6 466.5 461.1 454.3 446.7 437.1 430.2 421.7 413.6 404.3 397.2 390.8 382.6 376.9 371.2 364.9 359.7 355.4 351.8 351.8 351.4 348.5 342.8 338.3 335 331.8 329.6 323 317.5 310.3 299.4 287.8 280.3 272.1 262.1 251.7 244.6 241.2 241.1 241.1 243.1 247.8 251 253.3 258.4 262.4 266.8 270.6 275.8 278.7 281.5 283.2 284.3 285.9 287.9 289.2 289.1 289.6 289.6 289.6 290.3 290.4 285.4 293 301 307.9 315.7 323.6 329.7
423.7 425.7 423.4 416.5 411.4 410.5 408.3 406 403.6 401.3 399.1 395.7 391.9 387 383.8 384 386.6 392 400.6 409.2 418.2 426.5 432.7 436.8 439.5 438.8 433.3 427.7 420.6 412.2 404.8 395.9 387.3 378.7 372.3 369.2 367.4 365.6 363.7 362.5 361.5 360.1 358.8 356.9 352.9 348.6 344.5 340 333.3 326.4 320.1 311.5 304.1 296.3 288 278.2 270.3 260.7 248.6 236.3 226.9 221.7 219.5 217.9 216.8 215.9 215.4 215.7 216.3 215.9 215.2 215.6 215.7 218.2 225.6 234.3 242.7 253.9 266.9 282.1 295.3 308.8 321.3 333.2 345.9 357.4 366.2 372.3 377 377.2 374.2 367.4 358.4 347.8 330.2 319 305.5 297.4 289.6 281 273 266.9 263 260.4 255.9 252.9 259.6 269.1 277.7 283.1 287.8 296.9 302.2 314.7 326.3 341.8 355.6 369.1 382.1 397.4 411.8 425.3 434.8 441.5 447.3 453.6 459.2 464.3 467.2 469.2 470.2 469.4 469.1 460.9 453.6 446.1 436.7 427.3 417.5 407.5 398.1 392.6 384.8 378.3 372.7 367.4 361.1 354.7 347.2 341.6 339.2 338.4 337.2 334.8 331.2 328 327.7 325.5 322.3 317.1 311.2 300.4 288.3 280.6 273.5 266.3 257 247 242.5 241.5 241 240.6 243.8 248.8 249 253.1 256.5 260.4 267 270.6 273.4 276 277.1 278 280.2 281.9 281.5 280.6 280.6 281 281.6 282.9 283.7 281.6 292.7 297.1 302.2 309.3 315.3 320.2
424.5 425 426.7 423.4 417.7 414 412.1 411.5 412.1 412.2 411.1 411.4 402.6 397 390.8 390.9 394.2 398.6 404.6 413.2 423.5 431.9 438.2 443.6 445.3 444.8 440.6 433.9 426.8 418.8 410.4 401.6 392.9 384 377.6 374.2 372.3 370.6 368.8 367.5 366.6 365.2 363.7 360.8 355.8 349.8 345.4 341.9 336.6 329.3 321.3 315.8 308.1 299.5 291.8 282.5 273.7 265 254.2 241.3 229.6 222.9 219.8 217.3 216.8 216.1 216.2 215.9 215.8 214.1 215 215.3 215.4 216.3 224.7 233.9 245.4 257.1 268.3 283.1 295.6 308.9 321.9 333.5 347.1 358.9 367.5 373.2 375.2 372.5 369 361.9 349.1 335.1 322.5 311.5 301.3 292.4 284.7 276.6 268.1 262.9 259.4 258.6 254.9 258.2 265.3 274.5 281.3 287.4 293.4 302.4 313.5 323.9 336 350.6 365 378.5 391.2 404.5 419.1 431.5 442.3 451.8 461 467.4 472.6 476.7 479.3 479.6 475 471.8 467 459.7 452.1 445.2 436.5 427.5 417.1 408.1 398.9 390.9 383.3 372.7 362.9 360.1 354.9 350.5 341.1 333.6 331.1 329.9 327.5 326.5 324 321.7 322 321.9 320.7 316.8 311.5 304 294.5 285 278 270.9 262.7 253.5 243.7 241.9 240.5 240.1 239.7 239.4 241.8 246.3 251 254.6 260.4 265.1 268 270.3 271.3 272.6 274.1 273.2 274.3 275.8 274.6 274.1 275.3 277.6 275.6 282.4 286.6 290.6 295.1 299.5 304.2 308.4
427 424.3 423.5 426.7 423.2 418 414.4 415.4 416.6 418.8 417.5 414 411 403.4 396.4 396.3 399.1 403.9 409.3 417.6 426.2 435.3 441.9 447.3 449.1 450 445.7 440 433.5 425.4 416.4 407.8 398.5 389.3 383.2 379.5 377.1 375.4 373.7 370.3 368.4 367.8 366.1 361.6 356.3 349.7 344.7 341.1 337.2 330.9 323.3 316.1 309.6 301.9 294.2 287.1 278.1 268.1 257.7 245.6 233.2 226 222.4 217.8 217.3 216.9 216.4 215.9 215.6 215.8 214.7 215.2 214.5 220.5 225.4 234 246.4 257.3 267.1 278.8 292.6 307 320.1 332.7 346 359.1 366.1 369.3 370.1 367.3 362 355.4 340.8 324.7 315.8 305.7 296.7 288.3 280.6 273.3 264 261.2 257.6 253.9 256.9 260.5 268.9 276.9 283.6 289.8 299.3 309.8 319.1 330.5 344.5 358.7 372.9 385.7 397.8 410.7 422.5 436.1 448.8 458.9 466.7 474 481.1 484.6 485.5 482.7 478.8 473.3 466.4 457.8 449.9 442.6 435.7 426.9 418.8 410.2 401.2 392.2 384.8 375.3 366 358.7 352.6 345.6 337.1 329.3 323.8 323.6 321.9 320.3 319 316.7 314.7 315.8 315 314.1 311.1 307.5 301.7 293.2 284.7 276.2 267.8 259 249 242.4 240.8 239.9 239 238.9 238 237.7 238.5 239.8 253.5 258 262 264.3 265.4 267.3 269.5 270.6 268.9 268.1 269.4 269.4 270 271.8 270.4 276.5 279.2 283.3 286.2 290.4 293.8 295.8
426 424.2 422.2 422.8 422.4 419.4 416.2 415.9 417.3 419 417.9 415.6 413 408.2 401.7 399 403.1 407.3 412.8 418.3 427.9 435.8 443.3 450.1 452 451.9 449 443.9 438.1 430.5 422.7 413.2 404 395.8 390.5 384.7 382.5 379.9 376.6 372.4 369.3 370.3 366.2 361.7 356.4 350.9 343.8 340 336.3 331.3 325.1 317.8 311.2 304.7 296.6 288.5 279.4 270.3 260.5 251.7 237.2 226.3 221.9 218.5 217 216.6 216.4 215.9 215.3 215.5 215.6 214.9 220.9 226.1 229.6 238.3 248.8 252.6 262.6 273.8 286.5 301 314.3 327.1 341.6 356.4 362.2 364.5 364 360.8 355.4 347.8 334.5 321 309.7 299.2 293.1 285.6 277.7 268.1 263.3 258.7 254.2 252.9 257.6 263.4 272.2 280 286.8 294.3 304.6 314.5 324.8 337.3 349.7 363.2 376.6 389.7 402 414.1 425.8 436.9 452.1 461.7 469.3 475.5 481.8 485.6 488.7 486.2 481.4 475.1 467.9 458.6 449.1 441.6 433.9 427 420 412.4 404.4 394 385.8 377.3 368.9 360.9 353 345.2 335.5 322.3 313.9 312.5 315.6 315.2 314.3 312.3 310.2 309.5 308 307.3 306.7 305.6 301.7 295.7 288.1 279.6 272 264.5 254.5 247.5 241.9 240.3 239.1 238 238.1 238.1 240.6 237.2 244.1 253 255.6 258.7 261.7 264.5 265.5 266.7 265.8 264.7 263 263.2 266.3 266.3 269 274.4 277.7 280.6 284 283.9 283.2 287.6
427.5 423.5 420 418.5 417.5 414.9 414.7 414.1 414.4 413.6 414 414.5 412 408.4 404 401 402.5 406.7 413.4 418.7 425.7 435 443.2 449.7 451.8 451 448.5 443.5 438.9 432.7 425.8 418.2 410 403.2 398 392 388.3 383.2 379.5 373.8 369.9 368.5 366.6 362 356.2 350 344.2 338.7 334.7 330.7 326.1 319.4 312.3 305.8 298.1 290.8 283.2 272.4 261.2 249.5 244.7 232.3 222.7 217.9 216.3 215.7 215.8 215.8 215.3 215.2 215.2 215.7 223.5 225.8 233.5 241.6 250.3 252.6 257.9 267.5 279.2 292.6 306.9 320.1 333.1 348.3 355.2 358.9 357.7 354.4 350.5 340.6 328.7 315.2 304.3 296.8 290.1 281.9 273.2 265.1 257.6 254 250.4 253.4 260.4 266.2 273.1 281.5 289.9 297.4 308 318.2 328.9 341.4 353.3 365.2 377.4 390.7 402.3 413.8 426.1 438.3 448.8 461.4 471.1 474.1 480.5 484.4 489.3 491.1 486.9 479.5 470.7 461.7 451.4 441.4 432.6 423.6 417.5 410.9 401.4 393.2 384.2 376.4 368.8 360.1 352.7 345.7 337.9 330 321.6 309.2 304.4 307.1 307.3 306.6 305.2 304.3 301.9 301.1 301 300.9 298.7 295.7 289.9 283.4 276.9 269.4 261.1 254.3 247.1 245.2 242.1 237.5 237.6 237.2 243.1 241.3 236.9 249 252.9 255.5 259.9 262.4 263 262.5 262.6 263 259.8 260.1 261.3 263 263.6 270.5 275.2 278.5 278.1 278.4 276.2 274.2
430.4 425.6 418.7 413.7 411.3 411 411.3 409.2 408.7 408 409.1 409.4 408 405.1 402.6 401.4 400.5 404.1 409.1 417.2 423 431.5 439.8 445.6 447.7 448.5 445.5 441.7 437.5 432.9 427.2 420.8 414.9 409.7 404.4 398.9 393.5 385.7 380.9 375.7 370.2 366.2 364.6 360.4 355.3 348 343.1 338.2 332.7 328.9 324.7 320.4 313.3 306.9 300.8 294.1 286.4 275.3 265.4 261.8 250.1 236.9 227.2 217.8 215.5 214.8 214.9 215 215.1 214.9 214.5 218.3 224.4 227 234.8 240.9 245.4 249.5 254.7 265.2 275.2 284.8 297.7 311.9 323.8 338.5 346 350.9 351.2 348.7 344.5 335.5 320.9 308.9 301.1 294 286.5 278.1 266.3 259.9 251 250.9 251.1 258.2 262.9 267.2 274.1 282.9 291.6 298.8 309.4 320.5 331.5 343.5 355.4 366.9 377.8 388.2 401 411.6 422 432.4 444.5 455.4 466.3 472.3 483.3 491.6 494.9 493.8 488.6 480.7 470.8 460.7 448.7 438 427.9 419.5 412.1 405.4 397.7 388.8 380.5 373.5 365.5 357.6 350.8 343.3 335.8 330.2 323.7 314.2 304.8 296.2 299.4 299.1 299 298.3 297.6 295.2 295.1 294.7 293.1 290.6 289.6 285.6 280.1 273.6 267.1 260.8 253.2 247 244 241.3 238.7 235.9 235.8 235.6 235.1 239.2 250.4 252.7 253.8 255.9 255.7 257.5 254.8 255.4 256.7 259.4 259.6 260.1 260.3 263 267 273.1 275.6 275.6 274.7 273.8
429 424.3 418.4 410.2 406.2 403.3 403.9 403 402.1 402.9 404 401.5 401.2 401.7 400.7 399.5 399.1 402.4 407.6 414.5 421.5 427.2 434.6 439.6 442.5 442.8 440.8 437.4 434.1 430.2 425.7 421.5 417.7 413.3 408.7 403.3 397.1 388.7 381.7 375.9 368.9 364.9 360.4 358.5 353.5 347.4 341.9 336.2 330.8 326.3 323.3 319.1 314.7 307.3 301.6 296.2 285.9 283.6 276.5 265.4 257.1 248 232.9 219.7 214.5 214.1 214.3 214.5 214.7 213.5 214.6 216.9 224.8 229.8 233.7 238.5 242.1 246.9 248.5 258.7 266.4 276.6 288.9 302.8 316.1 327.7 336.9 341.4 343.8 343.1 338.4 329.4 316.8 307.2 299.5 291.3 283.6 276 265 250.9 249.8 249.5 257.6 257.1 264.1 268.2 275.7 283.5 292.4 299.7 309.6 318.6 330.1 341.7 354.2 365.7 375.8 386 395.6 407.1 418.6 428 439.5 453.7 467.3 477.1 486.6 493.6 496.3 493.1 487 477.1 468.1 456.2 443.8 431.5 419.5 410.4 402.9 395.6 389.1 383.1 375 368.2 361.5 353.8 348 341.3 334.6 329.4 323 317.3 309.4 299.1 289.4 288.9 291.4 291.9 291.5 288.9 288.1 287.9 287.4 285.5 284.4 283 280.3 276.3 270.5 264.9 256.7 249.2 243.9 238 234.6 234.9 235.3 235 235 235.4 240.5 240.9 248.3 249 250.5 250.3 252.3 251.3 253.7 256.2 256.4 257 257.7 259.1 260.7 265 268.2 271.1 272 273.2
427.5 421.8 414.4 408.1 401.3 397 395.1 395.7 394.9 395.7 395 394.3 394.5 395.6 397 396.7 396.6 399.1 404.2 410 416.3 422.6 428.4 432.9 435.4 436.2 435 432 428.7 425.4 423.1 420.1 417.3 413.7 410.1 406.3 400.1 393.6 383.6 377.3 370.9 364.6 359.6 355.4 350.7 345.5 341.3 334.1 328.7 324.1 322.1 318.8 314.8 307.9 303.7 299.1 295.1 289.6 281.3 268.5 261.4 250.3 236.2 222.7 214.4 214.2 214.4 214.7 214.4 214.4 214 214.5 217.7 231.2 234.1 239.6 244 248.8 245.7 249.9 256.8 266.2 280.2 292.2 306.5 320 329.6 335.3 337.5 335.6 332 324.8 315 304.5 297.2 290.4 281.9 272.1 263.6 248.9 248.5 248.9 259.7 263.1 266.1 269.8 276.7 283.8 292.6 299.4 308.2 317.5 327.7 338.7 349.7 360.9 372.1 383 392.6 402.5 414.3 427.1 438 454.8 469.6 479.4 485.2 489.7 490.2 488.9 483.7 473.3 461 449.5 436 423.9 412.8 401.1 392.7 385.5 379.4 373.7 369.1 362.7 356.1 350.4 344.5 338.9 333.5 328.6 322.8 317.5 312 304.1 296.7 288.5 282.3 283.1 283.1 283.2 282.2 282.7 279.7 279.6 278.4 278.6 276.6 273.3 269.2 263.5 257.9 251.6 242.6 236.9 233.4 234 234.3 234 235 236 237.7 237.7 240 246.5 249.2 250.6 250.2 250.5 252.5 254 254 254.5 255.1 256.5 257.8 258.7 261.7 266.3 268.9 270.8
422.6 417.4 410.5 405.1 399.5 393.6 389.2 387.6 387.7 387.8 388.1 388.5 387.9 390.3 392.7 394.4 395.4 395.4 399.4 406.1 412.6 418.8 422.5 425.6 427.1 427.5 426.9 425.5 422.3 419.4 417.8 416 414.4 412.3 410.3 407.2 402.6 396.2 388.5 381.1 373.6 365.4 357.9 350.6 346.3 341.9 337.4 333.2 330.5 328.1 324.2 320.3 317 314.3 308.3 302.9 299.5 293.2 284.5 277.1 264.3 249.3 238.2 225.7 214.4 214.4 214.4 214 213.9 214.7 214.2 213.4 216 225.4 230.8 236 239.4 243.5 243 241.4 244.4 248.7 265.9 282.6 298 310.5 321.9 330 330.7 328.8 326.9 321 311.4 302 294.8 288.6 280 269.6 264.1 249.2 248.5 248.7 260.1 265.1 270.2 273.3 278.2 285.1 290.8 298.4 307.4 316.1 325.5 336.2 347.1 358 368.6 379.5 390 400.6 411.6 427.6 441.3 457.8 471.6 478.7 482 485.3 485 483.1 475.3 467.7 456.9 441.2 428.3 415.5 402.4 392.4 384.3 377 369.8 364.6 359.4 354.6 350.2 345.3 340.3 335 331.1 327.2 322.2 316.8 311.4 306.4 299.6 291.8 281.9 277.6 277.5 277.4 277 278.9 277.7 276.1 273.7 273.1 271.6 268.3 263.8 259.7 255.5 252.3 247.7 241.9 233.4 233.6 233.6 233.7 234.8 236.1 237.7 241.8 241.9 246.9 250.2 248.1 247.2 248.9 250.8 251.8 252.5 252.3 252.6 254.2 256.4 257.8 256.9 262.4 263.2 267.8
421.8 413.3 408.2 403.2 397.1 390.3 384.8 381.6 380.6 380.7 381.1 382.5 383.8 384.8 385.9 390.1 389.9 391.7 395.3 401.9 408.9 413.4 417.7 419.3 418.7 418.9 417.9 417.3 415.6 412.8 411 409.6 409.3 409.4 408.1 406.5 402.6 397.9 392 384.7 377.2 369.1 361.2 355.5 349.2 346 341.9 337.4 334.8 331.3 328 324.2 320.8 317.8 313.7 308.6 304.3 296.6 288.7 279.9 267.7 254.2 241 230.2 218.6 213.9 213 214.1 213.8 214.4 214.3 214.2 217.9 222.8 226.4 232.3 236.5 236.4 245.3 242.6 241.4 244.6 250.1 268.5 287.8 299.7 313.9 322.6 327 323.4 321.4 317.4 309 300 293 286.3 279 270 264.3 256.2 248 249.3 261.2 267.9 273.1 277.5 284.6 290.7 296.2 303.4 309.8 318.8 325.8 335.6 345.4 356.3 368 379.5 390.8 402.9 415.5 429.8 444.8 460.4 472.3 479.9 481.1 480.1 479.4 475.3 467.8 458.9 449 435.6 419.6 404.7 392.3 381.9 373.3 366.9 360 356 351.1 346.5 342.6 337.9 333.6 330.6 327.4 323.5 319.4 315.1 310.4 305.5 300.5 293.2 286 277.3 273 272.5 271.2 273.2 272 270.2 268.5 267.1 266.5 264.9 265.6 261 256.7 250.6 245.8 237.8 233.6 233.8 233.6 233.4 234.3 238 242.8 239.6 240.9 243.1 245.6 245.2 246.9 250.6 250.1 253.8 254.3 252.1 250 250.8 252.7 253.8 251.8 253.6 254.4 254.2
419 411.5 406.3 400.3 394.6 388.6 383.6 378.2 375.4 374.5 374.9 375.9 377.3 378.8 380 384.8 386.5 387.7 391.9 396.7 405.2 409.5 413.6 414.3 412 409.8 408.4 407.6 406.6 405.4 403.3 402.8 402.6 403.7 404.5 404.2 403.3 399.7 393.9 388.1 380.2 371.9 366.3 361.9 355.7 350.4 346.2 341.7 338.2 334.6 331.1 328 324.5 321.1 317.5 312.6 308.4 302.2 293.5 283.4 273.2 259.2 244.7 233.3 223.1 213.1 213.3 213.8 213.7 215.2 214.5 214.2 215.1 217.3 222.9 228.3 235.4 236.4 239.6 244.4 250.9 249.2 242.8 253.3 275.1 292.4 306.1 316.8 319.7 320.7 317.6 313.2 305 298.7 292.3 285.3 278.8 271.5 265 254.5 247.2 249.5 262.3 270 276.2 282.1 289.3 295.6 301.5 307.1 314.6 321.6 328.1 337.1 347.2 357.1 369 381.6 394.6 408 422.1 434.2 447.5 460.9 472.3 479.9 479.9 477.1 471.8 465.6 458.1 448.6 438 425.3 409.3 396 381.6 369.8 360.1 355.1 350.9 346.7 342.6 338.9 335.2 330.8 327.7 324.6 321.8 319.1 315.6 311.7 307.6 303.2 298.7 295.5 288.7 279.7 274.1 269.7 267.8 267.1 269.3 267.5 265.6 266.4 264.3 263.2 259.7 256.6 252.7 248.5 241.3 234.4 233.3 233.2 233.4 233.3 234.6 249.5 253.9 248.3 249.5 251.9 249.5 249.4 250.4 250.6 247.1 250 254.9 256.2 250.9 247.8 246.6 246.2 248.1 246.5 247.9 246.8
416.1 409.7 404 396.2 392.6 387.3 381.8 376.1 371.1 369.2 368.7 369.4 370.8 372.3 374.4 376.9 380 384 387.9 392.6 400.9 406.3 407.6 407.7 405 402.8 400.6 398.2 398.1 397.1 395.5 395.7 396.9 398.4 400 401.3 401.9 400.5 395.7 389.5 383.8 376.4 371.9 367 358.5 353.4 349.3 344.6 340.3 337.8 334.3 331.1 328 324.4 320.8 316.8 312 305.8 299.8 289.8 279.3 264.4 251.1 237.4 226.6 215.2 213.5 213 213.4 213.2 214.5 213.3 214.1 213.8 216.2 219.3 225.6 234.1 242.8 253.2 258.3 257.3 245.1 247.1 266.1 287.1 298.3 307.6 311 315.7 313.1 309.1 301.1 295.5 290.6 285.7 279.2 270.9 264.9 254.8 246.6 247.4 263 272 279 287.2 293.8 299.4 305.7 311.8 317.6 325.3 331.9 341.8 351.6 361.3 374.3 389 402.2 416 430.1 442.9 452.2 462.4 472.1 474.6 473.8 470.4 466.1 456.9 449.4 438.9 427.6 414 399.5 385.8 372.5 359.7 351.1 344.8 340.8 337.4 334.5 331.7 327.4 324 321.7 318.6 315.9 313.8 310.8 307.8 304.2 299.6 295 292 288.1 280.8 280.2 273.5 266.7 265.6 264.6 263.7 262.8 262.6 260.8 260.8 258.4 255.8 253.2 245.6 237.8 232.3 232 232 231.9 233.1 235.9 243.8 247.7 252.5 255.3 256.4 256.5 257.3 259.7 259.4 253.3 248.2 257 259 258.1 250.8 246 243 241.9 241.6 241.4 241.4
413.5 407.5 400.6 393.6 389.4 384.4 379.6 374.4 369.4 366.1 363.5 364 365 367.3 370.1 372.3 374.8 380.2 384.4 390.4 398.1 402.2 403.2 402.2 400.6 398.3 394.6 392.2 390.3 389 387.7 388.1 389.6 392.6 394 396.3 398.9 399 396.6 393.2 387.9 381.2 376.5 369.8 362.7 357 353.3 348.9 343.7 338.3 335.7 332.4 328.9 324.8 320.7 319.1 314.4 308.7 301.8 292.4 284 270 254.8 241.3 228.9 221.8 219.2 212.1 213.1 213.2 214.7 213.7 213 214.2 213.6 215 225 236.8 242.4 245.3 240 246.3 242.8 241.8 252.1 276.1 290.5 299.8 303.7 307.4 308.2 305.3 297.8 293.2 289.1 284.8 279.5 272.3 264 256.6 246 252.7 264.5 275 283.3 291.9 299.9 305.9 312 317.7 324.9 331.3 338.9 347.3 357 369.7 381.8 394.8 407.8 422.7 438.3 451.5 461.2 465 465.3 467.7 464 459.9 457.6 449.8 439.6 428 416.7 401.8 386.5 374.1 362 351 345.5 340.7 336.1 332.1 327 322.6 320.1 316.1 314.3 313.5 311.9 309.3 305.9 302.5 298.8 295.4 292.1 288.4 283.6 276.7 278.9 272.5 266.8 263.8 262.9 262.4 261.2 260.1 259.2 260.6 257.3 254.7 252.3 244.2 233.9 231.3 231.5 231.6 231.6 231.9 236.7 243.5 252.3 257.7 259.3 260.2 261.8 262.4 261.2 260.3 253.7 248.4 253.1 256.7 253.8 254 249.6 247 243.3 239.6 237.9 243
411.4 405.4 397.9 391.2 386 380.6 375.9 371.2 367 363.5 360.5 360.6 360.8 361.8 364.2 366.5 369.9 374.9 380.1 385.4 394 398.2 398 396.9 396.8 393.7 390.1 387.7 385.1 382.7 381.1 380.7 381.5 384.7 386.7 388.9 392.7 396.6 394.3 391.6 388.8 384.5 379.5 371.5 364 358.5 354.6 349.8 344.4 339.2 334.9 331.6 326.7 324.4 320.7 318 314.8 309.3 302.7 295.6 286.2 274.5 260.8 246.4 233.2 222.4 215.6 213.6 211.2 210.5 214.7 215.2 212.6 213.5 212.8 214.4 225.6 233.2 228 234.3 244.1 248.6 256.6 244.5 242.8 260.3 281 291.8 297.1 300.3 301.2 299.6 294.5 290.3 286 282.7 278.1 271.2 263.7 248.9 247.3 255.7 267 277.5 287.2 296.4 304.7 312.9 318.6 326.5 334.6 340.5 346.3 356.8 365.8 379.1 392.9 406.1 417.9 430.2 444.4 456.9 464.2 464.4 460.2 455.7 451.8 446.5 443 440 431.3 418.9 404.7 388.2 374.8 363.6 353.2 345.3 339.1 335.3 331.5 326 319.7 315.6 312.7 310 309.5 308.7 307.6 304.4 300.8 297.5 294.9 291 287.6 284 276.4 272.2 269.3 266.6 266.4 261.9 259.8 260.3 258.3 256.9 257.4 259 256.4 255.7 252.7 247.5 231.3 231 231 231.1 231.2 233.3 241.5 245.1 251.6 260.5 261.1 258.3 261 257.6 258.2 257 246.2 248 251.6 252.3 251.5 250.4 248.2 245.3 244.4 241.2 233.6 241.5
408.8 402.4 394.9 388.5 381.6 376.8 373.6 369.9 366.4 363 359.7 357.8 357.3 358 358.8 361.2 364.5 369.9 375.4 381.1 390.2 394.4 395.8 395 393.1 389.8 386 383.1 380.3 377.3 374.8 374.5 376.5 378.7 380.2 382.1 385.5 391.4 393.2 390.9 389.5 385.1 380.5 373 365 359.6 355.5 350.4 344.4 339.4 334.9 330.4 325.7 322.1 318.1 315.6 312.9 309.1 304.2 297.9 290.5 279.9 266.4 252.1 239.5 229.3 219.3 213.2 212.6 212.7 212.5 213.2 212.5 212.7 214.1 214.9 216.7 220.3 231.5 246.4 258.2 267.9 274.3 264.7 241.5 246.6 268.7 279.8 287.4 293.8 293.9 292.5 290.9 287.1 284 281 276.1 270.9 262.1 244.5 251.2 258.6 269 280.5 290.6 299.6 309.4 318.5 329.1 337.5 344.2 351.1 359.5 368.2 377.1 389.1 404.1 417 427.3 439.6 448.7 456.8 461.3 458.7 455.1 449.5 443.8 439.1 433 425.4 417.3 406.7 390.9 376.4 364.5 354.4 346.2 339.7 334.2 330.6 326.5 318.9 312.8 308.7 306.3 304.1 302.3 301 300.7 298.9 295.6 293.1 291.5 287.5 283.7 280.6 274.7 268.6 263.7 261.9 261.2 259.1 257.3 257.2 256 253.1 254.5 253.8 250.7 249.8 248.6 241.8 232.8 230.8 230.8 230.8 230.9 238 244.5 245.2 245.3 254.9 261.3 250.9 245.2 241.8 239.6 240.4 235.5 245.3 245 244 244.6 247.1 246.1 243.5 239.1 236.1 230.3 235.2
404.5 399.8 394.2 388.6 383.9 379.4 376.1 372.2 367.1 362.7 360.3 356.8 354.5 354.2 355.3 358.2 362 365.9 370.7 375.9 385.6 389.7 391.8 390.9 389.6 385.6 382.6 379.5 376.4 373.3 370.7 370.7 372.8 373.6 374.8 375.8 379.9 383.9 387.8 390 389.4 385.8 380.7 373.7 366.1 360.1 355.7 350.5 344.7 338.8 333.4 327.9 320.9 316.7 313.4 310.3 307.8 305.9 302.5 297.7 290.9 281.9 272.9 260.4 246.8 233.2 223.4 216.1 212.5 212.6 212.6 211.4 211.8 212.9 214.6 216.9 222.7 232.4 244.3 255 265.3 275.1 278.2 276.4 251 241.2 254 269.8 277.6 285.9 286.4 287.2 286.8 285.1 282.3 279 274 269.2 262.1 244.1 250.8 261.5 274 284.3 293.3 301 313.2 325.3 336.1 345.1 356.7 364.7 371.8 378.6 388.2 399.7 413.9 426.4 437.4 446 451.3 454.5 455.6 452.1 446.9 441 434.3 427.7 423.3 414.4 406.2 394.7 380.4 366.3 355.2 347 341 334.9 329.9 325.5 320.1 313.5 304.6 299.7 297.5 297.8 297.2 295 294 293.7 292.4 290.8 288.6 284.6 281.1 277.9 269 263.3 259.7 258.3 257.8 257.6 256 254.6 254.3 250.5 248.9 246.8 244 242.8 241.1 236.6 230.9 230.3 230.5 230.6 231.7 241.7 248.3 247.3 245.4 244.2 244.5 242.6 242.4 239.3 234.2 228.7 231.2 238.4 238.6 237.9 242.2 241.8 239.8 235.5 232.9 228.9 225.8 226.1
408 402.8 396.2 391.9 388.3 383.1 378.2 373.1 367.9 363 359.3 356.2 353.1 352.2 352.9 355.3 358.6 361.5 366.5 372.5 381.1 385.4 388.2 388.2 386.3 383.7 380.7 377.6 374.5 371.4 368.4 368.9 369.4 369.2 369.2 369.6 373.2 377.5 382.6 385.2 385.4 384.6 378.8 372.4 365.7 360.2 355.1 349.7 343.3 336.9 331.3 325.4 319.2 314.6 309.8 306.9 303.7 300.3 298.6 294.6 289.3 281.5 274.3 262.3 252.3 240.7 228.1 220.9 215.3 212.3 212.3 212.5 211 213.8 214 220 229.8 237.2 246.5 255.4 267.8 277.6 282.8 285.3 271 241.4 242.3 262.3 269 271 275 278.4 280.7 280.7 279.9 276.9 272.3 268 261.1 243.1 251.4 262.1 276.2 288.6 297.2 304.1 315.8 328.2 342.5 353.8 366.3 376 384.5 389 399.2 408.6 423.6 435.9 445.3 452.6 453.6 452.5 448.3 443.1 437 430.3 424 417.6 410.6 405.4 395.4 383.7 369.6 357.1 347.4 340.7 335.6 330.1 324.7 319.3 314.1 307.5 299.4 291.8 290.1 289.3 289.4 289.6 289.3 289.1 287.9 286.9 286.1 284.1 279.1 273 263.4 258.4 255.7 254.8 255.4 255.9 256.5 253.5 249.7 247.7 247.2 244.2 241.1 238.1 235.7 233.3 231 230 230 230.9 236.1 247.3 251.8 251.9 249 246.4 242.1 242.7 242.9 243.4 240.9 234.3 227.5 230.5 233.2 231.2 230.6 229.6 229 227.4 224.9 222.8 222.6 222.9
413.1 407.8 400.7 395.2 392.4 387.8 382.6 377.5 371.4 365.5 361.2 357.5 353.9 352.2 350.5 350.8 354.3 356.8 362.7 369.1 376.1 379.8 383.5 384.2 383.9 381.9 378.1 375.1 372.4 369.5 368.3 368.1 367.2 366.2 365.7 365.7 366.3 369.7 376.3 382.9 383.2 382.4 377.3 372.3 365.8 360 354.5 349 342.3 335.9 329.9 323.9 316.8 309.4 306.5 301.5 298.1 293.8 291 289.4 285.2 281.4 274.2 266.1 255.7 244.1 233 221.8 217.7 212.5 212 210.3 214.5 213.2 213.6 221.3 232 240.6 248.6 258.9 266.6 277.6 282.1 284.3 281.3 255.1 239.6 251.2 268.3 267 269 270.9 273.2 274.6 274.5 274.8 271.3 266.6 261 242.7 246.4 256.2 270.6 288 298.1 304.3 317.1 331.5 346 360 372.4 383.8 393.2 395.1 406.2 416.6 429 438.9 443.5 446.3 448.5 448.2 444.2 438.9 430.1 422.2 413.3 406.7 399.3 391.5 384.5 373 358.8 346.3 339.8 333.9 328.5 324.3 319.1 313.6 307.3 300.3 292.6 286.5 282.2 279.7 279.4 282.6 281.5 280 283.5 282.1 278.6 276.2 276.3 268.9 261 256 253.6 251.9 252.6 258.5 255.7 253.1 250.5 247.4 244.3 241.5 239 237.2 236 233.7 232 229.8 229.9 231.2 243.9 250.7 253.2 255.1 254.5 251.6 243.8 245.4 243.8 243 243.7 243.2 233.6 226.8 227.1 226 225.3 224.3 223.7 222 219.9 219.8 220.1 220.3
418.8 413.5 406 398.9 395.8 391.4 387.1 381.7 375.7 369.7 365.1 359.8 355.4 352.1 350.3 349 350.8 352.9 357.5 363.9 370.3 374.7 378.3 379.1 379.7 378.9 375.2 372.9 371 368.5 367.2 366.9 365.9 364.8 364.6 363.1 363.9 365.1 369.6 375.3 378.4 377.5 375.1 370.6 366.2 360.3 354.9 349.6 341.8 334.9 326.3 319.4 314.8 306.2 300.3 298.1 292.9 287.3 285 285.5 282.8 278.7 271.7 265.6 255.1 249 238.2 225.4 216.9 212.6 211.9 212.2 211.3 210 211.5 218.9 231.8 241.4 249.4 258.8 267.7 274 278.1 282.1 282.7 269.7 243.6 241.6 259.1 261.2 261.3 259.8 259.7 262.4 262.8 267.6 269.9 265.8 261.7 253.9 242.3 244.1 258.7 280.1 294.5 304.5 318 333 347.6 361.4 375.2 387.5 397.4 404.8 411.5 418.6 429.6 439.2 439.8 437 436.6 435.4 432.6 428.1 423.3 414.6 405.3 395.4 388.9 381.4 371.5 360.3 347 338.4 332.3 328.1 323.5 318.9 314.8 308.9 303 295.4 288.4 282.5 277.8 273 274.6 275 277.6 271.2 270 273.2 272.8 272.3 270.2 267.2 260.2 253.9 250 248.6 251.4 251.5 251.6 250.4 246.8 245.8 243.6 240.2 239.9 241.3 238.5 236.3 233.1 229.7 229.2 231.7 244.1 252.9 256.1 256.7 254.3 251.2 247.7 248.1 246.7 244.6 243 238.7 235.9 230.8 228.8 226.2 222.1 222.7 222 219.9 219.6 219.4 219.5 219.7
422.4 419.9 412.3 406.8 400.1 394.5 391 386.3 379.8 374.2 369.5 363.1 358.3 354.7 351.1 349 349.2 350 353.8 359.5 364.8 369.3 373.2 375.9 375.7 376 374.9 372.2 370.7 368.2 366.5 365.6 365 365.1 364.1 362.8 362.6 362.6 364 367.7 370.8 371.2 371 368.9 365.4 361 355.5 348.9 339 330.3 324.9 321.2 315.6 310.9 304.4 296.7 291.5 283.5 277.1 271.2 275.1 274.2 271.2 265.4 259.6 252.4 240.8 227.3 217.9 212.9 212.6 212.9 213.9 213.3 212.4 210.1 227.9 235.7 247 257.1 266.1 271.1 281.4 292.2 289.6 280.3 258.9 239.1 241.2 241.3 240.5 240.9 244.8 248.7 252.3 255.7 259.8 263.5 261.1 259.5 246.1 241.5 255.1 274 290.5 303.9 317 330.9 346 360.3 375.1 388.4 397.9 405.9 411.9 417.7 425 428.8 429.8 426.8 423.5 421.2 418 415.6 411 404 395.8 384 373.9 367 356.5 347.1 337.8 332 326.5 322.2 317.6 313.6 310.3 303.5 298.1 291.8 286.1 281.3 274.5 269.9 269.8 270.1 268.8 267.6 265.7 264.5 264.7 265.3 265 263.4 259.4 253.3 247.8 242.2 241.3 243.5 245.2 245.1 244.6 243.6 241.9 236.7 237.6 238 237.6 235.1 229.9 229.7 227.8 228.8 238.6 246.2 250.2 249.3 250.1 250.6 250.1 248.1 247.4 245.8 241.9 234.3 232.9 230.6 230.9 230.8 222.3 220.4 219.8 219.9 219.3 219.1 219 219.2
423.1 421.9 419.2 414.8 408.4 400.6 394.7 391.6 384.4 378.7 373 366.6 362.4 358.7 355.2 351.2 349.5 349.1 351.4 356.9 360.8 364.9 368.5 371.2 373.3 374.2 371.9 370.6 369 367.2 365.5 365.1 365.4 364.6 363.6 362.6 362.9 362.9 361.7 363.8 366.4 367.4 366.8 366 363.2 360 355.8 346.3 334.6 332.9 329.2 323.3 317.5 312.5 305.9 298.7 291.8 285.1 278.4 273.9 265.5 267.1 267.1 264.2 258.5 253.9 242.4 230 220.8 215.4 215.4 214.3 214.2 213.5 212.2 209.1 224.2 237.2 246.9 254.9 259.3 272.9 285 291.5 293.8 287.9 280.4 255.1 243.9 240.1 244.2 247 244.4 241.8 240 246.5 249.3 252.7 257.8 259.2 248.1 242.6 242.9 268.6 288.1 302.5 316 330.2 343.2 359.9 372.1 384.9 395.4 402.1 407.8 412.4 415.7 419.6 418.6 416.4 413.5 407.7 403.3 399.2 396.4 389.2 381.3 372.7 363.7 351.5 342.6 335 331.4 325 320.7 315.7 311.1 307.3 305.5 300.3 293.4 287.6 279.2 275.5 272.1 269.8 265.8 262.8 261.4 261 260.4 260 259.8 260.1 260.7 259.8 257.6 254.6 249.5 241.7 237.7 236.2 236.9 237.6 239.1 239.7 239.2 234.9 236.1 236.8 235.7 233.3 232.2 231.4 228.4 228.4 230.9 241.7 244.3 247.6 247.1 246.2 244.3 243.4 242.6 239.2 238.2 233.5 231 232 230.7 229.9 227.7 220.2 219.9 219.8 219 218.8 218.6 218.7
423.7 422.7 422.3 420 415.8 408.3 400.6 393.8 388.2 381 375.7 370.2 366.5 363.4 359.3 353.9 349.6 347.3 349.1 352.9 356.8 360.6 363.8 366.1 368 370.1 370.3 369.1 367 365.3 363.6 363.6 364 364.4 363.9 362.8 362.9 362.4 361.2 361.6 362.9 362.9 363.4 359.8 357.9 355.4 350.6 341.5 339.8 336.3 331.3 325.4 319.5 314 307.3 300.7 292.5 284.8 277.5 272.5 266.1 259.5 259.4 258 256.9 253.5 246.9 236 224.8 218.2 217.4 216.2 215.1 215.1 213.1 209.6 219 236 247.6 253 264.7 274 285.3 293.7 298.6 295.1 287.1 276 265.8 254.6 253.5 251.4 249.4 247.8 242.7 238.9 243.4 246.6 249.4 255.8 254.7 242 247.2 269.3 284.6 298.7 313.9 330.2 345.1 358 369.9 379.9 389.1 395.5 400.4 403.7 404.8 406.1 405.4 403.7 399.2 393.9 390.1 384.6 379.9 375.8 369.6 362.8 352.9 341.1 333.4 328.5 324.8 319.3 314.1 309.9 305.9 302.5 299.6 295.4 288.3 283.8 275.7 270.2 271.4 267.4 262.1 261 260 259.5 259.6 259.1 259.6 257.2 259.4 258.9 256.4 255.4 252.2 243.2 236.8 234.5 233.7 233.6 233.8 235.6 235.4 233.2 233.4 233.9 232.3 231 231.7 231.5 229.8 227 228 240 239.9 240.8 240.5 238.8 239.1 239.4 239.7 237 234.5 232 230 231 232.6 229.7 227.2 221.9 220 219.8 219 218.5 218.6 218.7
423.5 423.2 423.2 422.5 419.5 415.1 405 395.1 389.6 383.3 376.8 371.3 367.2 365.5 361.9 355.2 350.4 346.2 348.2 351.9 354.6 357.3 359.5 362 364.2 365.8 367 366.8 366 363.5 361.1 361.3 361.9 362.5 362.8 363.1 361.4 361.4 360.4 359.6 360.4 361.2 360 359.4 357.4 353.7 348.8 346.1 343.3 338.4 333.4 327.9 322 315.6 309.2 302.6 294.6 286.3 278.5 270.6 264.3 257.7 252.4 253.2 252.7 252.3 247.7 238.4 229 221.2 219.2 218.1 217 217.1 220.5 208.4 212.2 231.3 244.4 254.4 267.4 279 288.5 297 301 299.8 295.5 285.8 275.1 264.8 262.2 262 251.6 249.9 248.6 237 237.4 238.4 243.2 247.1 243.9 243.4 240.9 263.4 279.5 294.9 309.9 325.1 340.7 355.7 368.1 375.6 382.1 387.1 388.9 390.4 391 393.5 391 386 384 379.1 375 371.4 366 360.5 355.3 346.3 334.5 330.3 325.8 320.7 316.8 311.4 306.5 303.3 300.5 296.8 294.4 290.2 283.4 276.3 271.5 268.1 264.8 261.4 261.1 257 257.1 256.1 253.7 257.7 254.2 253.5 251.9 253.8 257.1 254 252.9 248.1 242.6 233.9 233.2 233.3 232.9 232.6 234.8 232.4 232 230.1 227.6 227.2 229.3 231.5 229.3 227.6 226.8 235.5 235.6 235.6 235.8 239.8 238.7 236.7 236.4 234.5 232.2 231.9 229.6 230.2 228.9 234 230.8 220.2 219.9 219.4 220.1 219.9 220.2 225.7
423 423.1 423.5 422.3 420.9 417.5 408.2 398.1 391 383.7 377.3 372.4 367.4 363.4 359.4 355.4 350.9 346.4 345.5 348.2 350.9 353.3 355.3 357.8 360.2 361.2 362.4 362.8 362.6 360.9 358.7 359.2 359.8 360.4 360.9 361.1 361.1 360.2 359.5 359.2 359.1 361.2 362.2 361.7 360.2 356.4 352.6 348.4 344.1 339.8 334.9 329.5 323.5 317 310.5 303.6 297.7 290.1 280.9 270.6 262.3 255.1 248.9 249.1 247.7 247.1 243.3 238.4 231 225.5 222.2 218.4 219.4 218.9 218.8 211.8 211.7 229.9 243.9 256.3 272 282.1 292 301 306.6 305.3 300.9 294.3 287.1 276 266.3 262.8 259 249.9 244.2 239.9 236.6 237.2 237.9 238.9 238.7 239.2 239.4 251.9 271.2 290 304.3 317.5 329.3 348.3 361.9 371.7 377.7 379 371.8 361.3 363.6 375.7 374.9 373.5 368.2 363.7 358.6 355.7 349 344.6 340.9 329.6 322.8 319.7 315.7 313 310.2 304.7 299.8 296.6 294.3 290.2 289.2 285.1 279.1 274.6 269 264.9 262.2 261.3 257.7 254 256.7 253.4 250.3 249.6 251.4 247.6 247.1 249.4 249.6 248.9 247.5 246 243.6 237 233.4 233.7 234.2 230.6 231 231.5 231.6 228.1 225.8 227.9 232.4 230.6 228.7 227 227.2 228.9 233.3 234.5 234.9 236.9 235.9 235.2 233.6 233.2 234.6 236.1 235.9 227.2 224.6 223 220.8 220.1 220 220.3 222.3 225.9 233.6 239.1
421.5 422.6 423.1 421.8 418.5 413.8 409.1 400.8 390.9 384.6 377.4 371.8 366.6 361.6 356.3 353 349.7 346.2 344.7 344.4 347.1 349.3 351.4 353.5 355.9 357.8 358.7 358.9 359.1 357.7 356.8 357 357.7 358.3 358.8 359 359.1 359.4 358.9 358.7 358.9 361.5 364.4 364 362.9 359.5 356.2 350.6 345.5 341.2 336.5 330.9 324.2 317.7 311.1 304.5 298.7 293 284 274.7 265.4 255.7 248.9 241.9 241.9 241.8 240.2 236 232.1 228.1 224.4 221.5 218.8 219.8 219.1 210.3 212.2 229 244.7 258.4 272.4 282.7 292.8 302.3 306 309.6 308.8 301.9 294.3 287.3 278.4 268.2 259.9 252.8 246 240.7 237 236.4 236.8 237.4 237.8 238.3 238 241.8 263.3 282.7 296.7 309.4 322.5 337.1 351.8 362.9 369.1 371.3 371.1 356 337.8 353.3 358.6 355.1 345.2 340.4 335 331.7 327 322.6 316.4 315.1 314.8 312.6 307.6 305.8 302.8 300.5 296.8 289.2 286.3 284.4 283.8 279.4 274.2 269.7 265.7 262.5 259.6 259 254.1 255.7 247.4 247 246.5 246.2 245.9 250.4 246 243.9 246.4 245.8 244.9 244.1 243.4 242.6 236.3 234.7 231.7 228.8 233.5 229.4 228.7 226.5 225.3 225.8 229.4 228.4 226.6 227.6 226.9 226.7 227.4 232.9 236.8 235.4 237.3 235.8 233.3 233.6 234.9 236 234.7 227.1 220.8 220.6 220.5 220.8 220.9 224.8 228.9 238.3 247.5 253.3
419.2 420.7 420.7 420 416.9 412.8 408.7 400.9 392.4 385.3 377.5 370.3 364.9 359.4 354.9 352.6 350.3 347.8 345.3 341.7 343.4 345.8 348.4 350.2 351.8 354 355.4 355.5 355.3 355.1 354.9 354.9 355.5 356 356.3 356.6 357.1 357.8 358.5 358.7 360.1 362.7 365.1 366.3 365.7 362.4 359.5 352.8 347.5 342.5 338 331.7 325 318 311.6 305.5 299.8 294 285.4 277.9 270.5 260.7 248.8 241.9 236.3 238.2 237.5 235.9 233.6 229.7 225.4 222.4 219.4 219.6 220.9 208.5 216.2 230.5 243.5 260.8 276.4 288.4 300 309 316.6 320.4 319 313.2 305.4 295 286.1 277 265.8 258.9 251 243.5 240.2 236.3 236.2 237.1 237.3 237.8 238.5 238.5 255.9 275.9 291 302.7 313.8 326.3 340.3 353.7 361.8 364.4 365 361.1 342.5 325.8 333.8 333.8 325.5 321.8 319.8 316.1 314.3 312.1 308.9 306.8 305.8 304.6 301.7 300.4 298.3 296.8 293.7 289.1 282.5 278.9 277.8 274.4 270.8 266.5 263.1 261 257.3 253.6 251.6 249.3 247.3 246.2 245.6 245.2 244 244.3 242.3 241.1 240.7 241.1 244.6 244.8 242.2 240.3 246.6 238.4 229.7 227.4 227.1 229.3 227.7 226 225.1 224.8 225.1 225.6 226 226.8 227.4 226 225.5 229.6 236.4 235.6 233 231.6 230.5 230.7 232.5 228.2 223.9 222.5 220.9 220.8 220.7 221.1 228.8 235.7 244.5 251.8 260.2 266.6
416.9 418.3 418.1 417.3 415.4 411.7 406.7 400.6 394 385.8 376.8 369.9 363.9 358.2 353.5 351.4 349.5 347.2 345.1 343.1 340.8 342.3 343.8 346.5 348.3 350.2 352.1 352.1 352 352.1 352.6 352.9 353.2 353.4 353.8 354.6 355.1 356 357.6 358.7 361.2 363.9 366.2 368.6 368.1 365.5 363.2 357.6 351.2 346.1 340.4 333.3 325.2 317.3 310.5 304.9 299.9 295 288.9 280.9 273.7 265.1 253.1 244.7 236.4 232.7 233.8 234.3 233.3 231.6 227.2 222.5 219.2 218 216.8 208.1 217.9 232.8 245.4 265.9 281.5 294.2 308 319.3 326.2 332.4 332.5 326.4 314.7 302.4 293.1 284.4 274.5 264.6 255.7 248 242.2 237.4 236.6 236.8 237.1 237.2 237.4 235.9 249.1 269.8 286 294.8 302.8 316.1 328.3 339.7 347.9 351.5 352.7 351.4 346.7 336.8 317 317 316.3 313.8 311.3 309.8 307.1 304.6 302.1 301.4 300.1 296.9 295.4 295.7 293.7 293.5 289.8 286.4 282.8 277.3 272.6 267.6 263.5 260.6 258.5 256.1 253 250.4 247.8 246.6 246.9 245.4 244.6 243.8 242.9 241.8 240.3 241.8 240.3 237.8 237 236.4 235.8 236.5 228.2 226.3 232.6 227.6 228.6 228 227 226.4 225 225 224.1 224.8 225.5 227.7 230.1 232.7 228 225 230 230.7 230.6 229.6 227.4 227.3 226.1 223.2 222 222 221.4 221.3 221.1 225.4 234.6 240.3 252.4 262.6 271.1 276.8
413.7 414.5 414.2 414.5 414 410.4 406.4 399.4 392.5 384.9 375.8 369.6 363.3 357.5 353.5 350.8 347.7 345.7 343.6 341.6 339.7 338.5 340.6 342.2 344.4 346.4 348.5 349.4 348.7 348.9 349.6 350.2 349.8 349.9 350.4 351.2 352 353.6 355.5 357.8 361.5 365.1 367.6 370 371.6 369.7 367.4 361.7 355.6 348.9 340.4 332.3 325.7 318.5 311.7 305.3 298.9 294.2 290.1 283.7 276.5 267.1 257.8 246.6 237.2 231.1 228.9 229.5 231.4 233.1 229.6 224.9 220.1 216.1 208.8 210.1 220.5 236.9 250.1 273.6 288.4 301.6 316.4 327.7 335.6 342.5 341.1 334.8 326.3 313.8 299.9 289 279 268.6 261 252.2 242.3 238 236.9 237.2 237.3 236.6 236.8 236.1 243 257 275.9 288.9 298.3 305.4 315.9 324.3 330.7 334.6 338.4 332.3 333.9 320.9 311.2 308.9 308.5 306.6 304.8 303.9 302.2 299.7 297.5 295.9 292.8 290.8 289.8 288.5 287 286.9 285.2 280.9 277.8 273.7 269.8 265.7 262.7 257.8 256.3 254.7 251.2 250.2 249.4 245.8 245.1 244.7 244.3 244.9 244.8 242.5 242.1 238.3 237.6 236.5 235.2 232.2 230.4 226.5 224.6 224.3 229.8 228 226.3 228.1 229.3 230.3 230.4 226.9 224.4 224.9 225.2 229.4 231.3 231 226.3 224.8 225.2 225.4 226.2 231 227.8 224 223.3 222.9 222 222 221.7 221.2 222.5 229.4 237.5 243.7 255.2 263.2 270 277.6
412 411.4 411.1 411.2 410.9 409 405 399.2 390.8 382.7 373.6 366.9 361.2 355.2 351.1 348.3 344.5 342.6 341.9 340.8 339.4 333.3 337.7 339.3 340.4 342.9 344.8 346.1 346.6 346.5 347.1 347.4 346.9 346.3 346.9 347.7 348.5 349.8 352.3 355.4 358.7 362.5 366.6 370.8 373.8 373.3 370.9 365.4 359.1 354.7 349.1 340.7 331.8 323.5 315.3 307.8 299.9 293.8 289.5 284.2 277.3 267.4 260.2 251.9 241.5 232.5 228 225.8 230.6 232.5 231.2 227.4 222.9 218.2 205.3 213.6 235.2 248.2 263.9 278.2 293.6 309 322.2 335.2 344.1 348.1 347.1 341.9 332.5 321 308.6 294 283.1 272.8 263.8 255 246.6 240.7 237.2 237.3 236.4 236 236.2 235.8 238.1 248.5 263.6 283.4 288.7 291.4 299 309.3 318.8 322 322.7 318.4 311.2 307.5 308 305.1 301.8 300.1 298.3 298 296.6 293.4 292.3 290.5 287.5 285.6 282.2 282.7 282 281 279 277.1 274.3 270.7 267.2 263.4 260.5 257.3 255.9 255.9 255.3 252.7 250.3 247.2 243 244.9 245.2 245.6 244.2 241.2 239.7 238 237.7 236.5 238.8 231.3 228.7 226.1 224.4 224.3 224.4 226.2 225.3 229.1 225.3 227.5 224.3 224.4 224.7 225.4 226.5 229.3 233.7 232.2 230.8 226.6 224.8 224.5 224.2 224.2 223.6 223.3 223.1 222.8 222.3 221.8 221.7 221.2 226.8 231.1 238.8 245.8 254.5 261.3 269 278
411.1 410.7 409.4 408 407.4 406.4 403.8 395.5 388.3 381.1 371.5 366.8 353.5 349 344.1 342.7 339.8 339.5 339.1 338.7 337.2 335.9 333.7 336.4 337.6 337.7 339.2 341.8 343.3 344 344.3 344.5 343.9 343.3 343.7 344.2 345 346.1 348.7 352.1 355.4 359.7 364.2 368.7 373.4 375.9 374.3 369.1 363.6 359.4 354.3 346.6 336.9 327.5 317.9 309.7 301.6 294.6 288.5 282.1 275.6 269.5 264.3 255.3 244.9 236.1 227.6 223.4 226.9 229.5 229.1 226.8 222.9 214.8 205.4 230.1 246.3 258.1 270.7 284.4 299.6 313.5 325.4 337.3 348.1 352.6 352 347.3 338.7 327.8 315.2 301.2 289 277.7 266.2 257 248.7 240.3 238.4 234.9 235.1 235.2 235.5 236.3 234.8 248.1 265.7 265.2 269.9 283.1 290.6 294.4 303.5 307 306.3 298.9 298.7 298.2 298.7 298.8 296.9 293.5 292.5 292.4 291.7 289.3 287.2 286.5 284.1 280.9 277.2 278.4 277.5 276.2 273.9 271.9 269.5 267.6 264.4 261.3 258.9 256.6 254.5 253.1 251.7 249.7 248.6 246.7 242.9 242.1 240.8 240.5 238.8 238 236.9 234.7 235.9 232.5 232.1 228 226.7 225.9 224.4 224.5 224.6 224.6 224.1 226 225.6 224.9 224.9 224.3 223.9 224.8 224.8 224 226.2 226.1 225.3 223.7 223.8 223.9 223.9 223.6 223.4 223 222.8 222.7 222 221.1 221.9 225.2 229.6 232.7 238.6 246.7 255.3 261.1 269 278.5
409.7 409.9 408.2 406.5 404.4 402.8 400.7 393.2 386 379.6 371.6 360.5 359.4 354.8 349.5 341.5 338.2 335.1 333.2 333.6 333.8 333.1 329.1 333.2 333.4 333.5 334 335.9 338.7 340.3 341.2 341.5 340.8 340.6 341.1 341.3 341.5 342.4 345.4 348.3 350.8 355.4 359 364.9 372.5 376.9 375.3 371.3 366.4 361.4 357.3 349.2 340.3 328.6 319.7 311.1 303.2 295.4 287.8 279.9 274.1 270.1 263.6 255.8 247.6 238.5 229.4 223.3 223.3 225.7 224.8 222.6 218 209.3 221 236 248.3 260.8 273.9 286.6 302.4 315.3 327.4 337.9 346.5 353.1 354.2 351.1 344.5 333.2 318.9 305.2 293.2 280.5 267.8 258.6 250.3 241.3 237 234.6 234.6 234.5 237.8 239.6 233.7 240.8 259.2 265.8 271.8 280.3 283.3 287.4 283.3 285.5 281.9 283 277.9 285.3 289.6 291.7 290.5 287.5 287 287.7 287.2 287.9 285.5 283 280.9 279.1 276.6 271.8 273.1 271.4 269.1 266.8 264.8 262.9 260.7 259.2 259.3 257.1 254.6 252.5 249.3 247.5 246.1 244.9 243 239.4 237.6 237 235.6 234.5 232.9 231.9 230.1 228.6 227.1 227 226.6 225.7 224.5 224.4 224.5 224.2 224.5 225.6 227.1 226 225.1 223.2 223.1 224.3 223.5 223.5 223.2 223 223.1 223.3 223.6 223.6 223.7 223.3 223 222.6 222.3 222.1 221.8 221.2 223.5 227.7 229.7 233.6 238.7 246.8 254.7 261.5 269.9 279.7
407.5 407.2 405.7 404.3 401 395.9 394 388.5 383.5 376.6 364.8 365.2 360.8 356 351.1 346.3 341.3 337.5 333.3 329.9 329.4 328.9 326.4 328.7 329.7 330 331.2 332.8 334.2 336.1 337.8 338.3 338.1 338.2 338.5 338.7 338.9 339.2 341 343.6 346.2 350.4 354.4 362 368.4 373.7 375.2 372.1 367.6 361.9 356.1 349.7 340.6 329.6 320.7 311.4 302.5 294.5 287.6 279.5 271.8 266.9 260.7 254.8 248.9 240.7 231.7 224.1 219.1 221.6 219.4 217 211.1 204.3 223.5 236.3 248.1 262.6 276.2 289.3 303.8 316.8 327.5 337 344.2 350.9 355.6 356.1 349 337.2 323.2 309.3 295 282.6 268.8 258.5 250 242.4 235.3 234.2 234.1 234 236.1 240.5 236.4 233.9 252.4 263.3 271.1 276.4 283.5 277.5 281.8 286 287.2 285.1 276.6 274.3 284.5 285.7 284.3 281.9 282.6 283.2 282.3 281.5 282.5 282.3 280.3 278.2 275.2 271 267.2 263.9 262 259.4 258.5 257.4 255 254.7 256 256.1 254.2 251.2 248.3 247.3 243.4 240.1 238.1 237.5 236.1 234.4 233 231.8 230.5 229.9 228.5 227.4 226.6 226 225.7 225.5 224.9 225.1 223.9 222.7 224.1 224 223.5 223.8 222.9 222.9 223.1 223.3 223.3 223.3 222.9 222.6 222.7 223 223.3 223.4 223.4 223.1 222.7 222.3 221.9 221.7 221.6 222.5 229.2 232 234.1 239 242.3 247.4 254.1 261.8 269.8 278.2
404 405.1 404.1 402.9 401.4 401.2 397.9 390.8 384.1 378.2 373.7 368.4 363 357.5 352.7 348.2 344.2 339.9 335.7 331.5 328 324.7 323.3 323.9 325 326.6 327.9 328.9 330.1 331.3 333.2 334.7 334.8 334.8 336 336.3 336.6 337.1 337.4 339.1 341.5 345.4 348.9 357.6 363.9 370.1 373.4 372 367.6 361.5 355.4 347.5 340.3 330.9 321.2 311.1 301 292.8 285.5 277.3 271.4 264.7 257.3 254.4 247.5 240.7 232.8 225.6 219.4 214.2 213.2 211.2 204.7 214.9 225.1 238.5 250.9 265.3 278 290.3 303.6 315.8 327.7 336.5 343.8 349.3 355.1 357.7 351.2 342.4 329 311.7 296.2 281.3 269.3 258 249.8 241.8 234.8 234 233.8 233.6 233.7 236.5 234.6 232.7 246.7 258.3 265.5 271.4 275.4 280.5 282.2 279.4 277.3 276.2 273.8 266.2 270.2 275.7 275.3 275.4 276.5 275.1 274.4 273.7 273.6 275 276 274.4 273.3 273.6 270.6 265.7 260.8 258 254 249.8 249.2 249.4 249 250.5 250.9 249.8 247.3 243.3 239.3 237.3 235.9 235.2 233.7 232.6 232.8 232.5 230.8 229.5 228.4 226.7 226.4 226 226.6 225.9 225.7 225.5 224 224.4 223.5 223.3 223.6 223.4 222.9 223.1 223.2 223.1 223.1 223 222.7 222.4 222.4 222.7 223 223.1 223.2 222.9 222.5 222.5 222.4 221.5 224.6 233.1 233.4 237.2 239.5 244.1 248.9 254.4 257 258.6 269.5 277.5
400.7 402.9 406.1 406.3 404.8 403.9 401.6 397.2 390.5 383.8 377.8 371.9 365.2 359.9 355 351 346.9 342.7 337.9 333.7 330.1 326.4 320.9 320.4 321.1 323 323.6 324.6 325.9 327.4 328.4 329.8 330.4 331.9 333.7 334 334.5 335.1 335.3 335.2 337.2 340.2 344.6 351.9 358.7 366.8 370.2 369.8 366.3 360.4 353.6 345.3 337.6 328.7 319.3 308.9 299 290.1 280.2 275.1 268.6 262.4 256.2 251.1 246 239.9 232.8 227.3 221.6 216.2 209.3 207.2 206.2 217.9 228.4 241.8 254.9 267.4 281.7 293.9 305.6 317.7 328 335.9 344.2 350.6 356.1 357.9 353.2 345 331.9 316.9 299.1 281.7 269.9 259.4 249.6 241.2 235.3 233.9 233.2 233 233.3 233.5 233.4 232 240.2 250.3 257.5 262.9 267.6 271 272.6 274.7 275 271.4 265.6 260.3 260.6 262.2 261.8 263.4 265.7 267 266.9 267.1 266.8 266.4 267.2 265.4 265.3 266.1 266.3 262.2 256.9 251.3 247.6 246.1 245.1 243.7 244.6 243.3 242.2 240.6 240.5 244 239.5 236.1 235.1 233.4 232.3 232.3 232.7 232.7 230.3 229.3 227.8 227 227 226.7 226.4 226.9 226.3 225 225.2 224.4 223.1 222.9 223.3 223.4 223 223.1 223.1 222.9 222.9 222.8 222.5 222.9 222.4 222.4 222.7 222.8 222.9 222.7 223.1 222.9 228.3 231.3 236.8 240.5 242.5 244.3 247.7 253 257.8 260 263.6 266.5 269.6 275.7
398.4 401.8 406.1 407.8 408.4 408.8 407.4 404.4 398.9 391.9 383.8 376.7 370.5 364.4 359.1 354 349.7 344.9 340.1 335.7 331.8 327.9 324.2 318.6 317.9 317.7 319.4 320.4 321.7 322.9 324.4 326 327.2 329.9 331.4 331.9 332.5 333 332.7 331.6 332.5 334.8 338.6 344.2 351.8 359.5 364.9 365.9 363.1 358.4 351.7 343.4 334.2 325.2 314.9 306.6 296.1 289.2 280.6 272.5 266.3 260.2 253.2 248 242.8 237.8 232.9 229 224.8 215.5 207.4 203.4 211.9 223.3 234.4 244.8 258.9 271.7 282.9 296.1 308 318.8 326.9 335.3 344.4 352.9 358.6 360.8 355.9 348 336 319.8 300.6 285.3 273.3 261.7 250.6 242.9 235.7 233.6 232.6 232.6 233.2 233 232.5 234 233.5 243.5 250.9 256 259.1 262.3 264.6 266.3 267.9 263.2 258.5 261.4 263.3 262.2 262.5 262.3 261.6 261.1 261.7 262.7 263.5 262 260 259.8 260.2 259.9 259.8 256 252.3 247.5 245.5 244.4 243.3 242.1 241.3 239 237.9 241 242.3 244.6 235.4 235.4 234.8 233.3 232 232.2 232.7 232.9 231.5 230 228.1 227.6 227.4 227.3 227.3 229 229.7 226.7 227.6 225.6 224.6 222.6 222.8 222.8 223.3 223.1 223 222.8 222.7 222.7 222.8 223.2 222.7 222.5 222.4 222.5 222.7 223.9 229.2 232.8 237.2 240 244.9 248.7 251.5 256.6 260.7 264.1 266.8 268.7 271.4 273.4 275.5 276.9
398.7 401.4 405 408.6 411.3 412.6 414.5 412.3 409 403 396.1 388.5 379.5 372.1 364.2 358.5 353.4 348.5 343.7 338.9 333.9 329.8 326 322.4 319.1 316.3 315.5 316 317 318.4 318.5 321.5 324.1 325.4 327.2 329.4 330.3 331 330.7 330.6 329.9 331.2 331.9 335.7 342.3 351.5 358 360.2 359.6 356.2 349.1 341.2 331.9 321.3 310.8 303.3 294.4 287 279.5 270.8 263.5 256.5 250 244.9 238.9 235.6 232.1 228.1 220.6 212 203.9 207.1 225.5 236.1 245.8 255.7 265.7 276.1 287.6 299.8 309.9 321 329.5 337.5 346.7 354.2 362.8 368.9 364.9 355.2 339.5 324.4 304.8 288.6 275.8 265.7 254.7 246.2 239.4 234.7 232.8 233 232.8 232.6 232 233.1 231 235 241 247.1 253.5 257.6 258.8 258.8 257.9 258.6 261.1 262.9 264.3 264.7 265.3 265.1 265.8 264.6 263.4 264.2 262.8 259.2 255.9 255.4 256 255.6 254.2 251.7 252.1 253.1 249.2 246.1 241.9 240.5 239.9 239.5 238.7 237.7 237.4 237.5 237.5 237.9 237.8 236.4 234.2 234.1 233.2 231 230.2 229 228.9 227.6 228 233 234 234.9 231.7 231.9 228.3 225.2 224.5 222.5 222.3 222.3 222.5 223.1 222.9 222.7 222.7 224.7 225.4 226.7 226.5 227.6 229.1 228.8 232.1 235.8 240.4 242.9 246.8 250.2 255.1 258.9 262.9 271.2 276.2 277.7 278.1 279.1 282.4 285.1 287.2 287.9
398.9 401.6 405.1 409.9 414.1 418 420 419.3 416.9 413 407.9 401.5 393.3 386 375.8 367.3 358.7 353.5 347.8 342.6 337.6 332.6 328.6 324.4 321 317.6 313.7 312.1 313.2 314.3 315.4 317.4 319.7 321.5 322.7 325.5 327.4 328.3 329.4 329.6 328.9 328.4 328.5 331.2 335.2 342.2 349 352.8 353.6 351.7 345.1 337.6 326.8 315.4 306.5 297.3 290.6 284.2 275.6 268.1 260.5 253 246 240.5 235.6 232.2 228.6 224.1 214.2 205.2 205.1 221.6 235.5 244.6 254.8 265.1 273.7 283.2 293.4 302.9 313 324 333.3 342.6 351.9 360 368.5 374.4 374.5 368.1 356.2 334.9 313.6 294.2 278.8 268.9 260.4 252.7 247.3 240.4 234.5 232.3 232.4 232.2 231.5 231 231.5 233.1 233.3 239.8 244.1 251.9 252.3 251.6 257.2 262.8 265.1 265.6 265.4 265.8 264.3 264 263.8 263.1 260.7 260.8 261.8 260.3 254.8 250.1 250.8 250.9 250.2 248.8 250.7 254.1 251 248.7 245.1 239.7 239.8 239.7 239 239 238.7 239.7 241.1 241.5 241.2 239.1 236.9 235.2 233.4 231 229.7 229.8 228 226 226 229.1 229.6 238.4 236.5 231.9 228.2 225.8 226 223.1 222.2 221.5 227.5 227.1 223.3 225.6 231.3 238.4 242.3 243.3 245.4 246.1 248.6 250.2 249.9 251.5 253.2 255.2 258.4 262.7 266.6 273.2 282.1 291.4 295.5 294.8 293.3 291.9 294.7 297.6 297.3 297.7
399.3 403.6 409 413.8 418.5 423.6 425.7 425.6 422.9 419.7 415.2 411 404.8 397.4 389.7 381.2 371.1 361.9 353.8 346.6 341.2 336.6 331.8 327.1 323.3 320 317.7 314.4 312 309.7 311.6 313 315.3 316.5 318.8 321 323.3 325.6 326.7 327.9 327.9 327.3 327 327.9 331.2 335.7 341.4 343.4 345.5 344.8 339.4 332.8 324.7 313.3 303.2 293.9 286.4 279.5 270.5 265.5 257.9 250.3 242.6 236.6 232.1 228.5 224.6 215.2 205.8 202.7 213.7 228.5 243.3 253.7 263.2 272.5 281.2 291 301.3 309.6 319 329.1 338.4 348.1 358.2 366.6 374.2 378.3 379.6 376.7 369.1 353.2 327.8 303.7 287.1 276.2 266.3 259.1 252.2 244.2 235.3 231.8 231.6 231.6 231.2 230.7 230 233.6 237.4 237 236.5 239.8 243.6 250.9 255.6 260.5 262.3 264.2 265.4 265.9 265.9 265 262.3 261.2 259.3 257.3 256.4 254.9 254.3 250.1 243.3 244.4 246.1 246.4 248 250.3 250.1 250 243.8 238.9 239 238.8 238.7 239.5 239.8 242.2 243.4 242 241.3 240.3 237.9 236.6 233.1 231.7 229.6 232.1 229.9 225.7 224.8 227.7 229.5 230.8 231.4 228.1 227.7 225.7 224.2 223.1 222.7 221.8 223.2 224.2 227.4 241.8 248.5 258 263.9 265.3 268 269.1 269.8 271.5 268.9 268.1 268.3 271.9 274.5 278.4 284.3 293 302.3 307.2 308.3 308.1 304.4 301 303.1 305 306.9 305.6
402.4 407.6 413.2 418 423.4 429.1 431.2 431.2 428.2 425.2 421.3 416.8 411.8 406.1 399.4 391.3 383.4 373.5 363.8 354.8 346.6 341.3 336.6 332.2 326.8 322.8 320.1 316.2 312.7 310.3 309.9 310 311 312.9 315.2 317 320.4 322.8 324.1 325.6 326.1 326.1 325.8 325.8 327.1 329 334.5 337.6 336 337.2 333.6 328.2 319.7 311.7 301.8 292.1 283.9 275.9 268.9 263 255.4 247.9 239.8 233.7 228.8 224.7 217.9 208.5 202.8 208.8 220 235.5 248.7 259.3 269.3 279 289 298.8 307.7 316.8 325.2 334.2 344 355 364.7 373.9 381 384.5 384 378.9 372.1 361.4 339.7 315.3 297.5 285.7 274.3 265.8 256.2 250 242 234 231.2 231 230.8 230.6 230.2 230.1 234.8 237.6 238.2 237.6 239.9 244.7 247.6 251.4 254.8 256.5 258.7 261.3 262.4 262.3 260.4 260.3 255.4 252.1 249.6 246 246.5 244.5 241.6 241.5 243.5 244.8 245.6 247.9 247.8 243.7 240.5 238.1 237.3 236.6 236.2 236.6 237.1 239.5 241.8 240.1 240.3 239 237.2 236.7 234.9 232.7 233.9 234.6 232.8 225.3 224.2 225.7 225.8 226.5 227.8 227.1 226.3 224.1 223.1 222.5 222.2 222.2 222.2 223.3 241.1 260 267.4 277.8 282.5 284.1 285.1 286.7 285.4 283.8 282.2 280.5 283.1 284.8 289.4 295.1 302.3 309.4 314.8 317.1 317.5 316.5 312.5 307.8 307.6 310.5 312.4 310.9
404.8 410.6 417.3 424.1 429.4 434.5 436.9 436.3 433.5 429.3 424.5 420.6 415.4 411.5 406.3 399.1 392.9 384.6 374.4 365.3 356.7 347.2 342.2 337 331.4 326.8 322.6 319.2 315.4 312.2 308.8 308.9 308.6 309.4 310.8 313.6 317.4 319.7 321.6 323.2 323.8 324.5 324.7 324.8 324.8 325.8 328.6 329.8 331 330.5 327.8 323.7 317.1 308 299.5 291.1 282.7 275.8 267.6 260.6 253.1 244.8 237 230.7 226.1 220.1 213.7 203.7 203.7 212.5 224.4 238.9 251.7 262.2 272.4 282.6 293.4 304 313.1 322.8 332.6 341.7 350.8 360.8 369.4 376.3 381 385.8 385.4 380 372.2 359.8 339.5 319.4 304.5 295 281.8 271.3 261.4 254.4 245.6 239.3 235.5 232 231.2 231 231.1 231.4 231.3 234.2 238.4 238.2 238.3 243.3 245.8 245.2 246.7 249.3 250.4 252.4 253.4 251.4 250.5 250.8 249.7 248.2 247.2 245.8 246.5 245.8 245 240.1 241.7 244.8 245.5 245.6 243.3 242 239.4 239 236.8 235.9 235.3 235.3 236.7 239.8 240.1 239.2 239.2 237.4 237.2 237.4 236.3 235.2 234.3 233.3 233.5 223 223.3 224.2 224.9 223.4 224 227.6 223.8 222.4 222.4 221.8 222.9 223.6 223.3 232.8 257.5 273.7 279.7 285 289.6 290.5 291.4 290.8 289.5 288.1 286.1 286.8 288.7 292.3 299.5 308.6 314.5 319 322.1 324.7 326.5 322.7 316.9 313.5 312.5 313.6 314.5 312.1
405.9 411.4 418.8 427.3 433.7 437.5 440.4 440.1 437 433 427.6 423.4 419.1 415.1 411.1 405.9 400 393.6 385.1 375.9 365.9 356.8 346.7 342.7 337.2 333.5 328 323.3 318.8 315.6 312.8 310.1 307.6 307.5 307.8 310.3 313.4 316.4 318.4 320.4 321 321.9 323.3 323.8 323.9 324.7 325.3 325.9 326 323.8 322.3 318 313.3 304.3 296.3 288.4 281.8 274.3 266.7 257.5 249.1 241.1 234.3 227.4 221.3 215.2 209.4 202.1 204.8 215.1 227.1 241 252.9 263.6 273.9 284.7 296.3 306.7 316.9 327.9 336.6 346.6 356.6 364.9 370.3 372.3 374.2 378.6 379.9 377.5 371.1 357.2 338.8 325.4 311.7 300 290.8 280.6 268.5 258.8 252.8 245 241.1 237.2 234.6 233.8 232.1 230.6 230.7 230.8 236.5 240 240.6 238.8 240 240.8 238.4 241.3 243 243.6 243.6 242 241.5 240.9 240.8 242.5 247.3 250.3 250.9 250 248 241.8 241.5 244.3 244.3 243.5 242.2 242 240.6 239.4 237 235.2 235.8 236.5 237.7 241.7 242.3 239.9 238.4 241.1 242.5 241.5 240 235.7 234.5 232.1 229.5 222.3 221.2 227 224.8 222.5 221.6 221.9 221.5 221.6 221.7 221.2 222.6 227.3 232.3 244.6 259.7 274.7 279.6 280.9 283.6 286.2 287.2 287.1 287 285.8 287 289.6 291.2 298.1 310.2 317 321.2 324.2 325.4 329.2 331.2 326.6 320.7 316.4 314.9 313.4 313.6 314
408 413.7 420.2 427.9 434.4 439.9 441.9 442.6 439.8 434.9 430.2 425 420.8 418.1 414 410.3 405.7 400.8 393.2 384.8 375.8 364.3 356.5 350.1 343.6 339.4 333.4 329 326.6 320.8 316.8 313.5 309.9 307.2 306.3 307.3 309.2 312.7 315.4 317.5 318.4 319.9 321.2 322.3 322.9 323.3 323.3 322.9 321.4 320 315.5 308.4 305.2 299.1 293.2 289.5 285.1 278.2 267.3 257.9 248.2 238.1 231 223.4 216.9 210.9 205.3 201.6 206.5 214.7 226.7 241.4 252.8 264.3 275.2 285.9 296 306.3 317 328.4 338.2 346.8 356.2 365.9 370.7 369.3 365.4 367 368.8 368.3 364.3 353.3 343.4 330.4 319.7 307.9 296.2 287.8 277.7 267.7 256.5 249.7 244.5 241.4 239.5 237.8 235.9 233 229 229.8 230.5 235.6 239.4 241.3 238.8 235.2 233.2 232.2 230.9 228.2 230.8 231.6 231.6 228 229.8 233.6 237.7 241.2 247.3 247.5 247.8 241.9 241.9 242.2 241.9 241.8 241.8 241.5 240.7 239.4 237 234.7 236.4 238 239.5 244.1 243 245.3 247 247.8 246.9 244.6 241.2 236.7 234.6 232.2 228.6 222 220.9 226 223.1 221.4 220.6 220.8 221.1 221 220.9 220.4 222.4 227 236.6 249.9 259.2 264.8 273.2 278.1 277.4 280.7 281.2 282 283.4 284.5 286.9 290 297.7 307.1 316.5 322.6 325.4 327 327.7 331.6 331.3 327.7 322 317.5 316.1 314.7 314.2 314.9
410.7 416.7 421.9 428.9 433.8 439 441 440.6 436.8 432.6 428.7 425.6 421.4 418.7 416.2 412.9 408.6 404.2 399.2 392.8 385 375 366.1 357.3 351.2 345.9 342.2 337 330.7 326.1 322.6 317.3 314.4 311.1 307.3 306.8 306.7 308.4 311.6 314 316.2 317.7 318.9 320.1 321.4 321.5 321.4 322 320.7 319.2 317.2 313.1 306.2 300.5 296.6 292.4 287.5 280.3 269 259.3 248.3 237.9 228.4 220 213.5 208 201.6 204.4 206.2 211.7 225.4 240.3 251.6 263.2 274.5 284.2 294.5 304.8 313.7 323.2 333.7 341.7 349.7 358.2 362.3 363.1 359.9 356.1 354.2 354.8 354.9 346.6 344.3 335.5 324.5 317.4 306.7 295.5 284.9 276.8 264.2 255.2 249.5 245.3 243.4 241.6 239.9 237.9 235.3 231.2 228.7 228.4 229.5 227.9 233.4 231.1 228.2 226.4 225.3 226.4 225.2 224.2 224.1 224.3 222.9 222.1 221.8 230.3 235.9 240.2 244.5 239.9 241.6 243.9 243.6 241.4 241.3 240.9 240.9 238.1 235.4 234.4 236.7 240.2 244.5 247.6 248.6 249.4 250.5 250.7 250 246.9 243.3 238.8 234.1 231.8 226.3 221.7 221.4 221.6 220.3 220.5 220.3 220.8 221 220.9 220.9 222.2 225.5 232.1 239.4 251.4 259.7 264.7 271.2 271.5 271.9 274.2 275.4 276.8 278.8 282.4 287.9 293.9 301.8 309.5 319 324.9 327.2 326.6 328.4 331.4 330 326.1 320.7 316.3 314.7 313.8 313.7 314.8
412.8 417.6 421.3 425.3 431 436.1 436.6 434.8 433.3 429.9 427.6 424.7 421 418.3 415.8 413.6 411.4 407.8 403.5 398.3 392.2 384.1 375.3 367.2 361.2 351.3 347.4 343.6 337.2 331.2 327.3 321.4 318.4 316.3 311.4 306.7 305.1 306.5 307.3 309.4 312 314.8 316 317.3 319.1 319.5 320.9 321.2 319.8 318.5 315.4 311.7 307.6 303.1 298.6 294.1 287.9 280.1 271 259.5 248.8 238.1 227.6 217.7 208.7 202.7 203 203.1 204.6 209.8 224.6 240 251.4 261.3 272.5 281.8 293 301.7 309.5 317.4 326.8 336.4 343.2 348.8 350.6 352.2 350.6 348 345.8 342.3 341 336 334.7 334 329.6 322.8 314.8 306.3 295.8 287.3 277.4 268.3 257 250.6 248 245.6 242.6 241.6 238.3 232.7 231.1 231.1 228.3 228.5 228.2 226.9 229.9 228.7 233.8 238.7 239.2 239.6 237.3 235.1 231.8 227.9 223.2 221.4 221.1 230.6 233.2 232 236.6 238 239.1 240.1 239.3 239.9 239.8 236.3 233.4 234.6 237.8 242 248.2 251.2 252.2 253.7 254.3 252.9 252.1 249.3 244.9 240 235 231.7 226.2 221.7 220.8 220.4 220.7 221.9 220.9 220.8 221 220.9 221 224 230.9 237.7 245.8 253.3 258.3 264.5 266.6 268.3 269.9 272.1 273.1 274.3 276.5 282.2 289.6 297 305 310.4 318.1 322.7 325.3 325.4 325.4 327 325.7 321.4 315.5 311 310.8 310.6 311 312.8
412.9 416.8 417.8 421.5 425.5 428.3 427.7 427.4 426.6 424.5 424 423 419.8 417.1 414.5 413.2 411.5 409.6 406.7 402.5 397.9 391.5 383.8 376.8 370.6 362.4 357.3 351.7 343.9 337.1 330.8 326.3 321.6 319.3 315 310.6 307.8 305.8 304 306.1 308.2 311.1 313.1 315 317 317.1 319.7 320.3 319.4 318.6 315.4 311.3 307.2 303 297.6 292.7 287.3 280 271 260.1 249.9 239.3 226.4 216.9 207 201.7 202.7 203 202.8 208.5 223.8 238.3 250.1 259.5 270.7 281 290.2 298.6 306.3 312.9 320.3 328.8 336 341.5 340.8 341.1 339.4 338.2 336.6 334.6 330.9 327.4 325.2 323.6 324.7 322.5 317 309.4 300.7 291.7 282.9 275.5 268.6 258.8 250.9 247.6 244.9 243.2 238.8 233.9 236.1 240.8 239.7 238.6 235.8 234.7 235.7 238.2 241.3 242.1 244.7 244.7 243.4 243.6 243.5 238 228.9 224.4 221 221.9 222.5 222 225.2 227.3 228.5 231.5 236 236.2 235.1 233.1 233.6 235.3 239.4 241.9 246.7 250.7 254.6 257.4 258 257.5 254.4 251.2 245.6 239.8 235.5 231.7 226.8 222.1 220.5 220.7 221.4 223.2 222.9 220.8 220.9 220.9 221.8 229.3 235.9 243.3 252.3 254.7 256.2 257.9 260.5 263 265 267.2 269.3 271.5 275.4 280.3 289.4 298.6 305.9 310.9 315.3 318.3 320.7 321.1 320.7 320.7 318.8 314.1 309.2 305.9 305.5 305.3 306.7 310.5
411.1 414.3 417.2 417.8 418.8 419.8 420.1 420 419 417.7 416.4 415.4 414.9 414.3 412.8 411.6 410.5 409.3 408.1 405.6 402 397.3 390.9 385.1 378.4 371.4 366.2 358.9 352.4 345.4 336.9 330 325.4 322.3 318.6 313.9 311.2 308.1 305.6 303.2 305 307.9 310.1 312 314 316.7 318.2 319.2 318.6 317.7 315 310.9 306.8 302.6 297.7 291.5 285.9 279.6 271.5 260.8 250.5 239.9 226.2 215.3 204.4 201.5 202.3 202.8 202.5 208.1 223.1 235.6 248 257.9 267.7 277.8 286.9 296 303 308.8 314.7 321.6 329.2 334.1 337.7 336.4 333.3 329.7 328 325.2 323.1 321.1 318.3 318.2 317.3 317.7 315.5 310.2 303.5 294.7 284.4 276.8 269.6 264.5 258.5 252.1 247.5 245 242.5 236.5 234.2 242 246.3 247.4 246.4 244.5 245.6 246.9 246.3 246.8 249 246.4 245.8 245 244.5 238.9 235.4 234.7 230.2 219.2 220.3 220.4 219.1 218.3 218.4 217.2 219.9 226.3 231.2 231.1 231.1 233.9 238.7 242.1 247.1 250.4 254 257.5 259.2 259.7 257.4 252.8 246.8 240.9 236.2 233.3 228.5 222.5 220.9 220.8 222.5 223.9 223.7 221.3 221.1 221.5 222.4 229.6 237.9 246 253.4 254.6 255.2 256.5 257.2 259.1 260.9 262.3 264.1 266.9 273.1 280.4 288 297.4 303.1 306.5 309.8 312.5 314.4 315.3 314.8 313.7 310.3 305.1 300.4 299.8 300.2 300.2 303.4 309.4
404.7 409.1 411.4 412.6 412.3 412 412 412.4 410.9 409.7 409.2 407.9 407.9 407.9 407 407.1 408.2 407.9 407.9 406.6 405 401.6 396.8 392.8 387 380.8 374.3 367.7 360 352.7 344.9 337 330.5 325.4 321.8 317.4 313.1 310.1 308.2 306.3 300.7 305 306.6 309.2 311 314.1 316.3 317.3 317.5 316.1 314.1 309.6 304.5 299 295.7 288.9 282.8 278.5 272.6 261.8 250.2 239.8 227.3 215.8 206.5 201.5 202.1 202.3 202.2 210.3 222.7 234.5 246.5 255.8 266.5 275.3 283.1 290.8 297.7 304.2 310.6 316.8 323.2 327 331.8 332.5 332.1 327.4 321.1 317.3 314.9 314.1 312.9 312.3 310.5 309.2 307.9 306.9 302.6 296.2 288 279 268.5 262.1 258.6 254.1 249.6 247.5 244.9 242.5 239.2 238 244.2 245.2 246.7 249.3 249.5 249.8 248.8 249.1 248.9 248.1 246.5 246 243.1 237 241.1 240.8 241.3 239.4 237.1 233.7 230.6 228.8 225.5 220.3 218.3 216.8 217.7 226.9 229.5 230.9 235.2 239.8 243.3 246.7 251.5 255.1 255.5 256.5 255.7 253.1 246.9 241.6 236.1 231.9 227.2 226.6 224.1 223.2 221 220.7 220.5 219.5 220.7 221.9 225.3 231.9 240.7 248.1 251.8 253.2 254.3 255.2 255.5 256.6 258.2 260.1 262.1 265.5 270.2 277.1 284.6 292.1 297.4 299.5 302.5 305.7 306.7 308 307.1 304.8 301.2 296.1 294.4 294.8 295.4 295 298.9 305.8
395.1 399.3 403.8 405.2 405 405.1 404.8 403.6 403 402.4 402.4 401.6 401.8 401.8 402.9 404 405.1 405.7 406.4 407.3 405.9 404.6 402 398.6 394.5 388.7 382.1 374.1 367.1 358.7 351.4 343.7 336.8 331.1 325.1 319.8 316.2 312.2 309.7 307.7 305.6 299.1 302.1 306.7 309.4 311.6 313.8 315.9 316.2 316.1 317.2 312.8 306.9 302.5 297.3 292.1 285.6 280.6 273.3 263.3 252.3 241.2 228.7 217.6 207.5 200.3 201.6 201.6 201.6 203.1 220.1 232.7 244.7 254.1 262.7 271.2 280.3 288.1 296.4 303 307.9 312.4 317.8 321.2 325 325.3 324.5 323.8 318.6 313.3 309.1 307 307.8 305.9 304.2 301.7 301.1 300.2 298.1 294.5 288.4 281.2 272.2 262.2 255.3 250.2 249 247.2 245.2 244.4 242.1 236.9 242.6 244.2 245.5 245.7 246.7 248.1 247.6 249.8 248.5 248.3 247.3 242.7 241.3 245.6 247.6 247.7 247.3 245.1 242.4 237.5 233.5 230.8 231.2 227.7 221.4 217.1 217.1 220.4 227.7 229.6 231.8 236.4 240.9 244.5 250.3 252.1 252.4 252.5 250.9 248.7 246 241.6 236.7 231.8 229.2 226.6 225.8 225.3 223.2 222.5 219.6 221.9 222.8 224.2 227.5 234.1 242.2 247 251.4 251.2 252 252.7 253.3 254.6 256.5 258.3 260 262.8 266.9 271.1 277.3 283 285.9 289.9 292.3 296.5 297.6 298.3 297.4 295.3 291.7 289.3 289.1 288.9 288.6 288.5 291.3 292.5
385.3 390.2 393 396 396.1 397.9 398.2 397.5 396.7 395.7 395.2 395.5 395.7 396 398.1 400.3 401.7 403.2 404.8 406.7 407 407.2 405.8 403.5 400.4 396.2 389 381.8 373.3 365.1 355.6 347.5 341 335.2 329.5 324 318.9 314.5 310.8 308.8 306.7 304 296.2 305.6 307.1 309.3 311.9 314.5 317 319.3 319 314.9 308.7 303.9 298.8 293.4 287.8 281.6 274.6 265.1 255.3 243.1 231.2 220.1 210.1 200.1 201 200.4 200.9 201.9 214.4 228.6 238.9 247.3 255.3 266.7 279.4 287.8 296.1 300.9 305.7 309.7 313.5 316.4 317.6 318.1 317.9 315.8 314.2 311.9 307.3 303.4 300.9 299.3 297.3 295.9 295.2 293.8 291.9 289.8 286.8 282.5 276.2 267.8 259.5 252.4 246.7 244.1 242.9 243 241.5 238.3 241.6 242.7 243.8 244.7 245.3 246 246.3 246.6 247.7 247.7 244 243.3 247.9 253.3 254.7 257.5 255.3 252.8 247.7 244.8 240 235.1 231.4 229.9 226.2 221 217.2 216.1 224.2 226.2 230.2 234.3 237.8 242.8 248.3 249.8 250.6 250 249.3 246.7 243.7 239.2 234.1 229.8 228 226.7 227.3 225.9 224.4 221.8 220.3 223.2 224.1 225.3 228.7 235.7 245.1 249.6 249.1 249.8 249.6 250.5 251.5 253.7 255.4 258 260.5 261.8 263.8 266.3 270.5 273.5 274.6 277.9 280.6 284.5 287.1 287.7 286.5 286.2 283.2 283.2 282.6 282.4 281.3 281.9 280.8 283
377.5 381 384.2 386.9 387.1 388.2 389.5 390.1 390.6 389.7 389.3 390.2 391.2 392.1 393.7 395.6 397.6 400 402.7 405.3 406.3 408 407.4 406.9 405.1 401.4 395.8 388.4 379.9 369.9 360.5 351 344 336.3 330.9 326.4 321.3 317 313.2 309.9 307.5 305 295.3 303.6 305.6 307.9 310.6 313.3 314.6 316.5 317.9 315.6 309.3 304 299.5 294.2 288.5 282.3 274.7 266.3 256.8 247 234.9 223 214.3 206.8 203.1 199 200.8 202.2 215.6 223.8 234.2 243.8 255.2 266 277.5 286.8 294.6 300.6 305.7 309.3 311.4 312.8 313 313.4 311.9 309.8 308.4 306.4 304.9 303.1 299.2 296 292.9 292.4 291.8 290.5 288.1 286.2 283.8 279.9 276.2 271.7 265.7 257.7 250.9 246.3 243.3 240.3 237.9 237.7 239.2 239.9 241 241.6 242.2 243.6 244.5 244.6 245.4 246.2 241.2 246.8 252 258.9 263.4 267.8 266.4 261 257.1 252.1 246.3 241.3 236.2 231 228.7 226.4 220.6 216.1 217.1 221.8 226 230.3 235.2 239.2 243.7 245.4 246.5 246.8 245.9 243.3 240.8 235.9 232.2 228.4 226.5 227.3 226.7 225.4 224.9 221 222 224.6 225.2 226.1 228.3 236.6 245.1 249.3 249.8 248.7 247.7 248.7 249.8 252.8 257.6 261.4 263.1 264.1 263.6 263.8 264.2 266.2 267 268.5 270.6 274.6 277.2 277.2 278.1 279 276.3 276.4 275.3 275.2 275.9 274 275.1 277.6
368.8 371.1 373.5 376.3 379.3 380.6 380.8 381.7 382.8 383 383.9 384.9 386.5 388.5 391.2 393.2 395.2 397.4 400.1 402.8 405.8 407.5 408.8 408.7 408.1 404.7 400 393.5 385 374.5 365.1 354.8 346.2 337.6 331.9 327.1 323 318.9 315.4 311.7 308.6 306.2 298.5 290.7 303.3 306.9 309.6 311.1 312 312.6 313.9 313.5 308.8 303.8 299.4 294.9 289.3 281.9 275.1 267 257.2 248.3 237.3 225.7 216 209.3 202.9 201.4 198.4 201.8 211 221.8 232.2 242.6 253.5 264.3 275.1 285.6 293.7 300.2 304.6 307.4 308.3 308.6 308.5 308.9 307.8 305.7 303.7 302.2 300.8 299.5 298.9 296 293 289.6 287.6 285.9 284.4 282.8 281.2 278.6 275.1 271.7 267.2 261.5 257 250 246.3 242.3 239.2 237.1 236.8 237.4 238.1 238.4 239.5 241.2 242.6 242.8 243.2 243.9 242.5 249 255.8 263.6 269.6 273.9 271.8 267.1 263 257.7 252.4 246.5 240.9 236.3 231.6 228.1 226.4 219.1 215.5 216.9 218.1 224.8 229 234.2 238.2 240.7 242 241.6 240.6 240 237.7 234 229.6 227.1 225.1 225.3 225.2 224 224.4 216.8 223.1 225.2 225.4 225.8 226.6 236.3 242.7 245.7 245.9 246.2 246.6 246.7 247.6 252.2 257.8 262.5 264.7 263.8 262.5 260.9 259.2 260.3 260.6 260.4 261.8 265.1 267.6 269.6 270.8 271.7 270.7 270.1 270.7 271.2 269.1 272.7 275.7 279.1
363.1 363 365 367.7 370.9 372.4 373.8 374.2 376.4 376.8 379.4 381.7 383.7 385.6 388.5 391.6 393.6 395.8 398.3 400.8 403.7 406.2 408.5 409 409.3 406.6 402.1 395.3 387 378.5 368.2 358 347.8 338.9 332.6 327 323.1 319.1 315.4 312.2 309.2 307.6 305.3 296.8 288.3 306.4 307.3 308.8 309.4 309.8 310.8 310.4 307.9 303.7 299.2 294.7 290.1 283.3 276.4 269 258.8 249.3 238.8 228.8 217.9 208.9 203.8 201.3 199 201.2 207.3 218.6 229.9 240.1 251 261.5 272.4 282.8 291.6 298.9 303.1 304.8 306.5 306.4 304.6 304.5 303.5 301.1 299.5 298.1 296.8 296.1 295.5 294.7 293.5 291 287.6 284.1 281.1 279.2 278 276.4 274.4 271.6 267.9 263.2 258.4 255.2 251.1 246.7 242.3 240 238 237.3 237.2 236.7 237.2 238.9 240.6 241 241.4 242.4 245.5 249.2 257.7 265.8 274.8 277 273.7 270.7 266.4 261 255.6 251.5 246.9 242.2 238 233.3 228.6 225.9 215.9 215.6 217.5 217.6 225 228.5 231.3 235.2 236 235.5 235.3 235.1 231.7 229.4 227.5 225.3 223.6 223.8 223 222.6 222.7 216.9 222.9 225 226.2 226.9 225.8 231 237.1 239.6 240.7 244.3 246 245.4 246 251.4 257.3 260.5 261.9 262.2 259.8 257.9 255.9 254.1 253.7 253.4 254.5 256.1 260 264.3 264.6 264.9 266.2 264.5 263.9 266.1 272.3 275.1 278.9 283.7
357.5 357 356.9 358.9 361.5 363.6 366.4 367.9 369.4 372.3 375.2 377.8 380.2 382.7 385.9 389 392 394.7 397.4 399.9 402.3 404.8 407.4 408.9 409.2 407.8 402.6 395.9 388.4 379.5 370.2 360.2 348.9 338.4 332 326.4 322 318.3 315 311.9 309.5 308.1 306.7 304.3 284.5 297.8 304.9 306.1 306.5 307 307.8 307.2 305.6 303.2 298.9 294.5 290.6 284.6 277.7 270.7 261.4 251.5 240.9 231.8 220.7 210 204.2 201.2 200.3 199.4 209.4 217.4 227.5 237.6 247.7 257.5 269.4 279.9 289.2 296.4 301.3 303.3 304.3 304.1 303.3 300.5 298.8 296.9 295.4 294.5 293.8 293.2 292.6 292.1 291.6 291.1 289.7 287.5 283.6 279.2 276 273.6 271.7 270 266.2 264.4 261.5 257.4 253.4 249.9 246.1 242.8 240.8 238.8 237.9 237.3 237 237.8 238.7 239.6 240.6 241.8 244.1 248.9 257.1 265 272.4 278.5 276.1 273.5 268.3 262.6 257.4 254.2 250.9 246.8 242.8 238.3 233.8 228.9 223.5 215.7 215.4 217.4 219.5 224.3 226.8 227.9 230.2 230.6 229.5 229.5 230.4 229.8 226.4 222.2 222 222 222.2 219.9 220.8 218.3 222.8 224.1 224.9 226.1 225.7 226.7 232.1 233.8 236.9 241.2 243.5 243.1 244.1 248.4 253.9 256.3 258 257.6 255.4 254.3 252.6 249.7 248.6 247.7 248.3 248.7 252 255.5 256.9 257.9 257.3 258.9 262.5 266.8 275.6 277.9 284.1 291
351.5 352.6 352.3 352.4 353.4 355.8 358 361.1 364.3 367.6 370.9 373.7 376.9 381.1 384.2 387.2 389.9 392.5 395.3 398.2 400.8 403.2 405.7 407.6 408.2 407.7 403.8 396.9 389.2 380.2 369.8 359.1 348.6 337.7 331.5 325.5 320.1 316.2 313.4 311.4 309.7 308 306.5 304.5 279 290.2 298.1 303.2 303.6 303.6 303.6 303.8 303.3 301.3 298.4 294.4 289.7 285.8 279 272 264 254.9 244.8 234.6 223.6 212.5 204.6 200.6 199.6 198.2 208.5 218.9 227.4 236.1 246.8 257.3 267.1 277.1 286.3 292.5 296.9 300.4 302.9 302.9 301.3 298.6 295.9 293.8 292.5 291.8 291.1 290.5 290.6 290.6 290.1 289.7 288.6 287.3 285.6 283.2 280.5 276.4 273.3 270.2 267.2 264.6 261.9 259 255.6 252.2 248.4 245.2 242.9 240.5 239.1 238.6 238.2 238.2 238.3 238.6 239.2 241 243.2 247.3 253.7 260.7 266.9 271.5 272 270.1 267.5 264.3 259.5 256.5 253 249.8 245.9 241.7 237.2 232.8 229.3 220 213.3 216.3 217.1 218.8 222.6 224.7 225.8 226.7 226.7 227.7 228.5 226.6 224.8 220.4 220 220.3 219.2 219.2 212.8 220.2 222.3 223.1 223.3 224.2 225.3 227.1 229.9 232.7 234.4 237.7 239.4 240.4 241.8 245 248.2 250.2 251.2 250.6 248.9 248.7 248 246.1 244.3 243.9 243.7 243.7 244.3 246.2 248.9 250 251.2 254 260.3 266.1 276.3 286.3 294.9 300.7
346 345.1 345.1 345.7 347.1 348.5 351 354.5 358.9 362.7 366 370 374.7 378.6 382.2 385.1 387.7 390.4 393.1 396 399 401.6 403.8 405.8 406.8 406.4 403 397.6 389.9 381 370.8 360.5 348.5 337.3 329.1 322.7 317.8 313.8 309.9 308 305.5 304 304 303.4 288 278.2 292.3 299.4 300.4 300.2 300.2 300.7 300.9 299.4 297 293.6 288.8 285.2 279.7 272.8 265.6 258.4 248.7 238 227.5 215.6 206.5 199.5 199.4 198.8 209.2 218.9 227.5 235.9 245.7 253.9 263 273.2 281.9 288.3 292.6 295.9 298.3 299.6 298.8 296.8 294.4 292.4 290.6 289.2 288.4 288.8 289.1 289 288.5 288.6 287.6 286.4 285 283.4 281.7 280.6 277.9 274.9 271.2 267.4 262.9 259.1 256.3 253.1 250 247.4 245.1 242 240.5 239.9 239.5 239.5 239.4 238.7 238.6 240.3 242.6 246 251.6 258 264.1 266.9 268.8 268.6 266.8 263.4 261.3 257.3 253.4 250.1 247.6 243.3 239.5 235.6 231.5 228.7 215.7 212.9 215.7 215.5 217.3 219.3 220.9 221.3 222.1 223.3 224.1 223.4 220.9 218.1 217.3 218.1 216.5 213.2 210.3 221.9 222.4 221.6 221.3 222.2 222.6 226.6 229 231 232.5 235 236.4 237.9 239.7 241.4 244.1 246.3 247.3 246.7 245.1 244.2 243.1 241.9 241.6 241.1 240.5 240.7 241.8 242.8 245.6 247.6 250.2 255.6 263.7 271 282.9 294.9 301.3 305.3
352.2 349.3 344.9 335.2 336.6 335.3 341.8 347.6 352.5 356.5 361.2 366.6 371.3 375 378.8 382.6 385.5 388.2 390.9 393.8 396.7 399.3 401.9 403.9 405.3 404.8 401.6 396.3 389.7 381.5 371.7 361.9 350.1 337.8 328.1 320.8 316.1 310.3 305.1 302.2 300.6 299.8 300 299.9 295.1 270.4 280.4 295.2 297 296.7 296.7 297.2 297.6 295.5 293.4 290.9 288.2 284.4 279.5 273.2 266.9 259.4 250.5 241.4 230.9 220.5 210.5 199.4 199.5 199.4 207 219.2 225.2 235.4 243.6 251.7 259.9 268.9 277.7 283.5 287.5 290.5 292.6 294.1 293.7 293.5 293.1 291.3 289.4 287.8 286.7 287.2 287.3 287.3 287.1 287.4 286.7 285.7 284.5 282.9 281.2 280.6 279.9 279.1 276 272.4 268.3 263.9 259.3 254.9 251.4 249 246.7 243.7 242.4 241.4 240.8 240.7 240.3 239.9 240.5 241.2 243.3 246.5 253 256.8 261.8 264.5 266 267.3 265.4 263.9 260.4 257.6 253.8 250.1 247.5 243.6 241 239 234.3 230.1 225.3 218.1 213.1 215 214.1 215.1 215.3 215.9 216.6 218.1 219.4 219.5 216.4 214.7 213.8 212.8 211.4 209.8 224.1 223.8 222.6 222.3 220.8 218.7 221 224.5 227.2 230 231.8 233 234.4 236 237.9 241.2 245.1 250.2 251.6 250 247.7 245.7 243.9 241.4 240.7 240 240.2 240.5 241 242.1 243.7 246.9 251.5 261.4 272.5 282.4 292.8 301.9 304.8 307.9
352.2 349.8 346.9 342.6 339.5 326.5 337.1 342.2 346.3 351.3 357.3 362.3 367.5 371.2 375.3 379.5 382.9 385.8 388.6 391.2 393.8 396.4 398.6 402 404 403.5 400.2 394.2 387.3 380.2 371.2 362.2 351.1 340.2 330.1 321.2 315.4 309.4 302.1 297.4 295.5 295.1 295 294.5 293.9 281.2 269.2 282.2 293.1 292.7 292.5 292.9 293.2 292.2 290.4 288.5 284.8 282.9 278.1 274 268.6 259.9 252 243.8 233.9 223.8 213.7 199.7 199 197.4 208.7 217.5 227.3 235.2 241.7 249.1 257.4 265.6 273.4 278.4 282.1 285.1 287 288.6 289 289.3 289.5 289.1 287.7 287.3 286.5 286.5 286.5 286.5 285.8 285.9 284.9 284.6 283.9 282.4 281.2 280.4 279.2 277.5 276.1 275.1 272.8 269.2 264 258.7 256.1 252.5 248.5 245.9 244.6 243.6 242.5 240.9 240.1 240.5 241 241.6 243.9 247.5 255.1 258.6 262.7 264.7 267 270.7 269.4 265.3 261 257.5 253.9 249.7 245.6 242.6 239.7 234.7 234.7 231.9 228.7 227.4 221 211.7 212.9 213.3 213.3 213.1 215 215 216.1 214.4 212.7 211.5 210.7 209.9 209.2 210.5 224.3 223.9 222.7 222.2 221.8 217.7 218 221.8 224.8 227.6 230 232 233.4 234.5 236.9 241.7 247.2 250.3 250 249.5 248.2 247.1 244.5 242.7 240.4 239.4 239.8 239.7 240.3 241.7 243.4 247.4 255.7 270.5 282.4 293.3 302.1 307.2 309.4 308.6
352 349.4 346.4 343 337.8 325.8 330.2 339.9 344.7 348.3 353.3 357.6 362.3 367.9 371.9 376 380.4 382.8 385.1 388.1 390.9 393.5 395.6 397 399.7 399.4 396.8 391 383.9 376.2 367.3 359.6 349.1 340.9 331.3 323 315.2 307.1 300.4 294.1 290.2 289.8 289.4 288.8 288.8 276.1 261.7 278.7 288.1 288.6 288.2 288.2 288.8 288.9 287.3 285.5 283.8 280 275.7 274 272.1 262.6 254.1 245.5 236.8 225.7 216.6 200.7 198.5 197.3 205.6 214.5 224.9 231.9 238.1 245.4 253.3 261.2 268.1 273 277 279.7 280.9 282.6 284.7 285.2 285.4 285.5 285.8 286.6 286.5 286.5 286.5 286.5 284.8 284.3 283.3 282.2 282 281.8 280.7 279.4 278.2 276.8 274.5 272.4 271.1 269.3 264.8 263.3 260.3 256.6 252 248.4 246.5 245.1 243.7 241.2 240.7 241.1 241.5 242 244.3 249.8 258 260.3 264.3 264.4 267.3 268.1 267.3 265.2 262.4 258.1 253.7 248.5 244.3 240.8 237.4 237.6 234.8 231.9 228.8 227.5 225.3 218.8 213.2 212.3 211.2 211 209.1 208.4 208.8 210 209.8 209.7 209 208.5 208.9 209.7 217.4 224.1 222.7 222.5 219.8 214.8 215 218.7 222 225 227.5 229.3 231.1 233.1 237.2 241 246.3 247.8 246.9 246.5 245.8 243.9 241.7 240.6 239.6 238.7 239.4 239.1 238.2 241.6 244.4 249.3 257.6 275.6 289.4 300 307.1 309.9 310.5 307.6
352.4 349 345.7 342.1 334.8 323.8 326 337.3 343.3 347.3 350.7 354.2 358.8 363.2 367.3 372.6 375.9 378.3 380.5 383.5 386.4 389.3 391.4 390.6 390.3 388.9 386.7 383.3 378.7 371.7 363.7 355.6 347.7 341.4 330.9 323 314.7 306.3 299.8 294.1 286.1 279.6 279.8 279.2 279.5 275.7 255.7 268 280.4 283.3 284.2 283.5 284.4 284.9 283.6 282.4 280.6 276.9 274.1 272.3 270.4 263.6 255.3 248.7 240.4 230.8 220.6 205.1 196.8 199 202.3 211.4 220.1 227.9 234.5 240.7 248.1 256.1 262.4 267.6 271.9 274 275.3 276.9 278.6 280.4 281.1 281.2 282.1 283.6 285.2 285.7 286.5 286.1 285.4 284.5 282.5 280.7 279.3 278.7 278.3 278.3 277.3 276 273.7 271.6 269.8 267.8 264.1 261.6 258.6 256 252.9 249.3 247.1 245.3 243.9 241.6 241.2 241.2 241.2 242.1 244.9 250.4 255 258.7 260.8 262.3 265.1 264.7 263.6 261.8 259.7 257.2 252.7 247.9 244.4 241 237.6 236.8 235 231.4 228.7 226.6 224.5 221.1 219.3 218.8 215.8 210.9 208.7 207.7 208.2 209.5 208.9 208.3 208.1 208.4 208.7 209.1 209.8 209.4 213.7 215.1 211.4 209.6 212.1 215.5 219 222.2 224.7 226.5 228.4 230.2 233.2 237.3 241.4 242.7 243.3 243.1 241.8 240 239.1 238 236.9 236.7 236.7 236.2 238.5 240.5 243.3 248.1 260.3 279.4 293.4 304.1 309.6 310.3 309.2 306.5
354.8 350.1 345.6 342.7 335 323.4 322.2 330.8 340.2 346.1 349.6 353 356.6 359.5 362.8 367.1 370 373.5 375.8 377.8 381.6 384.4 386.5 385.3 382.4 379.5 377.1 373.6 368.7 362.7 356.8 349.8 344.2 336.9 329.3 322.3 313.1 308.2 301.3 293.3 283.9 273 270.1 268 268.2 271.9 250.2 259 270.9 275.2 275.8 276.6 278 279.1 279.6 279.1 276.9 274.8 271.1 269.5 267 263.8 256.5 250.3 244 234.4 224.1 213.4 196.5 197.9 199.1 205.5 213.1 221.9 229.7 236.4 243 251.6 256.8 262 266.8 268.4 270.4 272 272.9 274.7 275.4 276.5 278 280.3 282.1 284 285.5 287.2 286.2 285 283.3 281.5 279.7 277.9 275.6 275.7 275.2 274.1 272.5 270.1 267.8 265.2 262.3 260.5 258.4 256.2 253.9 250.8 248.4 246.2 244.1 242.6 241.7 241.6 241.6 242.7 245 249.4 253.3 256.6 258.5 260.1 261.2 260.6 259.7 258.5 256.4 254.4 250.2 247 244.6 241.2 238.1 236.6 234 230.7 229 227.3 225.3 222.9 221.4 220.7 220.1 214.9 211 208.9 207.4 208.7 208.3 208.7 207.6 207.3 207 207.3 207.7 206.8 206.3 206.3 206.3 207.2 209.3 212.7 215.9 218.6 220.5 222.5 224.8 227.5 229.4 233 235.3 236.8 237.7 238.4 236.7 236 235.9 235.1 234.7 234.5 233.9 234.5 236.8 239.4 242.2 248 261.7 281.4 293.8 305 308.1 307.5 306 303.9
357 351.9 349.3 345 337.6 330.5 319.8 326.8 337.9 343.3 347.3 350.9 354.2 356.3 357.8 360.5 363.4 366.6 369.3 371.4 373.1 377 377.5 375.8 373.9 370.7 367.5 363.2 357.9 352.8 348.6 342.7 338.4 333.5 326.6 321.5 315.4 309.3 299.2 288.1 278.6 277.9 275.1 268.7 261.2 263 246.8 254.4 262.1 267.7 268.7 268.9 270 271.5 272.9 273.5 273.2 271.4 269 266.8 262.6 260 256.9 251.5 245.3 236.6 227.6 218.8 205.3 196.3 197.8 199.1 205.9 216 224.2 231.9 238.5 246.2 251.6 257.1 262 264.3 266.3 268 268.9 269.8 271.1 272.5 273.9 276.4 278.4 280.8 283.6 285 285 284.4 284 282.3 280.5 278.7 276.1 274.3 272.5 271.9 269.1 268.1 267.1 265.7 264.2 262.3 259.3 256.4 254.2 252.4 249.9 247.7 245.4 242.7 242.1 242 242.5 244.6 247.5 251.9 256.3 259.7 263.4 263.3 262.6 260.2 258.4 256.4 253 251.6 248.5 246.3 244.7 241.7 238.5 236.4 233.2 230.7 229.3 227.8 225.5 222.8 220.9 219.5 219.2 216.3 213.5 210.9 207.8 207.3 207.7 208.7 207.3 206.9 206.6 206.3 206.3 206.3 206.3 206.3 206.3 206.3 206.9 210 212.5 214.3 215.8 217.8 219.8 221.9 224.8 226.9 228.6 230.3 231.5 231.8 231.7 232.3 232.4 232.5 232 231.5 231.1 233.7 236 239.4 243.3 249.6 258.8 276 289.6 298.9 300.9 301.8 300.3 299.5
356.3 353.2 350.7 345.1 339.6 334.4 318.4 323.5 334 340.1 344.2 347.6 351 353.5 355.2 356.2 356.9 359.7 362.3 363.6 364.6 366.2 366.3 365.7 363.4 360.1 355.4 353.2 347.8 343.6 339 334.9 331.8 327.4 322.6 318.3 312.8 306.4 296.9 288.2 285.8 279.8 274.3 269.3 266 258.3 247.6 248 254.9 260.2 261.1 261.9 262.1 263.3 263.8 265.2 266.2 265.1 264.4 262.3 260.1 257 254.8 250.2 246.7 239.6 230.7 221 211.8 198.4 196.2 196.7 199.7 208.3 217.5 226.4 233.8 241.2 247.9 253.4 257.4 260.3 262.2 264 265 265.9 267.2 268.6 270 271.8 273.8 276.4 279.3 281.6 282.6 283 283 282.6 281.3 279.5 278.1 276.4 274.7 272.9 270.5 269.4 268.4 266.7 264.6 261.6 259 256.8 254.6 252.5 250.9 248.9 246.7 244.5 243.6 244 246.2 248.6 253.4 258.2 261 269.7 269.3 266.6 263.7 260.9 259.1 254.8 250.5 249.6 247.9 246.8 245.6 242.5 239.1 236 233.2 230.6 228.4 225.4 223.6 221.2 219.2 218 216.6 214.1 212.8 211.3 208.7 207.5 207.4 208.6 207.2 206.5 206.3 206.5 206.3 206.3 206.3 206.3 206.3 206.3 206.3 206.3 208.4 209.9 211.5 213.2 215.2 217.2 219.2 220.5 221.9 223.6 224.2 224.6 225.2 226.3 227.3 228 229.1 228.9 230.5 232.8 236.2 240.3 245.5 250.2 257.2 266 281.2 289.6 292 295.1 294.2 291
355.5 352 348.8 344.4 338.6 334.3 323.5 317.9 329 335.6 340.2 343.6 346 348.1 351 351.9 352.3 353.6 353.6 355.2 355.4 355.3 355.4 354.6 352.5 349.3 346.8 342.5 339.2 335 330.5 327 323.7 319 315.3 311 308.9 303.8 300.3 293.9 287.7 281.8 275.2 270.2 266 260.8 249.2 242.8 249.2 252.7 253.2 254.3 255 255.7 256 257.5 258.9 260.1 261.4 259.5 256 251.9 249.2 249.7 246.9 241.4 234.7 226.6 217.2 206.7 199.2 195.4 196.9 200.7 210.3 219.9 227.5 235.2 242.1 247.9 252.4 256 258 259.8 261 262 263.4 264.7 266.2 268 270.5 273.3 275.4 277.6 279.2 280.8 281.6 281.6 281.3 279.7 278.5 277.5 276.5 275.1 272.7 270.7 269.7 267.5 265.2 262.9 260.3 257.8 255.2 252.7 250 248.1 246.4 247.2 249 251.2 252.6 255.5 260.4 266.5 269 273.2 272 268.4 265.1 261.9 258.6 254.4 250.3 249 248.9 248 247.2 243.7 240.6 238.5 235.7 231.9 228.4 225.1 222.3 219.7 216.9 215.1 213.3 211.6 211.8 211.6 210.3 208.2 206.3 207.1 206.3 206.3 206.3 206.6 206.3 206.3 206.3 206.3 206.3 206.3 206.3 206.3 206.3 206.3 207.6 208.1 210.6 212.5 214.1 215 215.9 216.9 217.6 218.5 220.4 221.9 223.4 225 225.7 227.4 228.6 231.7 235 238.9 242.8 247.1 252.8 261.2 274.4 282.7 286.3 287.9 288.9 285.9
